passes_logs/2026/01/10/R3.2S_Murmansk/R3.2S_Murmansk__20260110_232633_NOAA_20_JPSS-1_rec.log

#Pass ID: 20260110_232633_NOAA 20 (JPSS-1)
#Satellite: NOAA 20 (JPSS-1)
#Configuration: NOAA 20
#almurnet v.1.7.20251203
#Start time: 2026-01-10 23:26:32

#Version: 2.2.20231116
#Station: R3.2S_Murmansk
#Location: 33.079688 lon 68.888172 lat
#TLE: 1 43013U 17073A   26009.69119415  .00000109  00000+0  72598-4 0  9996
#TLE: 2 43013  98.7631 310.6868 0001678  46.7442 313.3874 14.19534878421981

#Time	Az	El	Level	Level2	SNR	BER	BlckErr	Temp	State	Recorded	gain1	gain2
2026-01-10 23:26:32.96	20.72	1.98	-57.2	-72.5	3.8	1.49e+00	0	21	0	0	81	19882
2026-01-10 23:26:33.95	20.76	2.04	-57.1	-72.1	3.8	1.49e+00	0	21	104	0	79	21501
2026-01-10 23:26:34.95	20.79	2.11	-57.1	-72.2	3.8	1.49e+00	0	21	104	0	79	21734
2026-01-10 23:26:35.95	20.83	2.17	-57.1	-72.0	3.8	1.49e+00	0	21	104	0	79	21210
2026-01-10 23:26:36.95	20.87	2.23	-57.1	-72.0	3.8	1.49e+00	0	21	104	0	79	21086
2026-01-10 23:26:37.96	20.91	2.29	-57.1	-72.0	3.8	1.49e+00	0	21	104	0	79	21076
2026-01-10 23:26:38.96	20.95	2.35	-57.1	-72.1	3.8	1.49e+00	0	21	104	0	79	21298
2026-01-10 23:26:39.96	20.99	2.42	-57.1	-72.2	3.8	1.49e+00	0	22	104	0	79	21692
2026-01-10 23:26:40.95	21.03	2.48	-57.1	-72.1	3.8	1.49e+00	0	21	104	0	79	21442
2026-01-10 23:26:41.94	21.07	2.54	-57.1	-72.1	3.8	1.49e+00	0	21	104	0	79	21291
2026-01-10 23:26:42.94	21.11	2.60	-57.1	-71.8	3.8	1.49e+00	0	22	104	0	79	20549
2026-01-10 23:26:43.94	21.15	2.66	-57.0	-71.4	3.8	1.49e+00	0	22	104	0	79	19785
2026-01-10 23:26:44.94	21.19	2.73	-57.0	-71.3	3.8	1.49e+00	0	22	104	0	79	19496
2026-01-10 23:26:45.94	21.23	2.79	-57.0	-70.7	4.0	1.48e+00	0	22	104	0	79	18177
2026-01-10 23:26:46.94	21.27	2.85	-57.0	-69.7	4.2	1.45e+00	0	22	0	0	79	16150
2026-01-10 23:26:47.93	21.31	2.91	-56.9	-68.9	4.4	1.36e+00	78	22	0	0	79	14788
2026-01-10 23:26:48.94	21.35	2.98	-56.9	-68.8	4.4	1.17e+00	51	22	0	1048576	79	14693
2026-01-10 23:26:49.94	21.39	3.04	-56.9	-68.6	4.5	1.03e+00	0	22	0	3145728	79	14231
2026-01-10 23:26:50.93	21.43	3.10	-56.9	-68.0	4.7	9.03e-01	0	22	0	5242880	79	13413
2026-01-10 23:26:51.94	21.47	3.17	-56.8	-67.6	4.9	8.30e-01	0	22	0	7340032	79	12712
2026-01-10 23:26:52.93	21.51	3.23	-56.8	-67.7	4.9	7.43e-01	0	22	0	9437184	79	12829
2026-01-10 23:26:53.94	21.55	3.30	-56.8	-67.3	5.1	6.39e-01	0	22	0	10485760	79	12350
2026-01-10 23:26:54.93	21.59	3.36	-56.7	-66.6	5.5	5.85e-01	0	22	0	12582912	79	11404
2026-01-10 23:26:55.93	21.64	3.42	-56.7	-66.2	5.8	3.70e-01	0	22	0	14680064	79	10792
2026-01-10 23:26:56.94	21.68	3.49	-56.6	-65.7	6.1	3.05e-01	0	22	0	16777216	79	10265
2026-01-10 23:26:57.93	21.72	3.55	-56.3	-63.7	7.7	1.69e-01	0	22	0	18874368	79	8167
2026-01-10 23:26:58.93	21.76	3.62	-56.4	-64.2	7.3	1.07e-01	0	22	0	19922944	79	8621
2026-01-10 23:26:59.92	21.80	3.68	-56.1	-62.7	8.5	3.30e-02	0	22	0	22020096	78	7696
2026-01-10 23:27:00.92	21.85	3.75	-55.7	-61.3	9.9	1.62e-02	0	22	0	24117248	78	6521
2026-01-10 23:27:01.92	21.89	3.81	-55.2	-60.0	11.0	1.44e-03	0	22	0	26214400	77	5951
2026-01-10 23:27:02.92	21.93	3.88	-54.8	-59.1	11.7	1.46e-04	0	22	0	27262976	76	5658
2026-01-10 23:27:03.92	21.98	3.94	-54.7	-58.9	11.7	1.29e-05	0	22	0	29360128	75	5887
2026-01-10 23:27:04.92	22.02	4.01	-54.4	-58.3	12.1	4.34e-05	0	22	0	31457280	75	5519
2026-01-10 23:27:05.93	22.06	4.07	-54.1	-57.8	12.5	0.00e+00	0	22	0	33554432	74	5498
2026-01-10 23:27:06.93	22.11	4.14	-54.2	-58.0	12.3	1.50e-06	0	22	0	35651584	74	5612
2026-01-10 23:27:07.93	22.15	4.20	-53.8	-57.1	13.0	0.00e+00	0	22	0	36700160	74	5048
2026-01-10 23:27:08.93	22.19	4.27	-54.0	-57.6	12.5	7.00e-07	0	22	0	38797312	73	5673
2026-01-10 23:27:09.93	22.24	4.34	-54.3	-58.1	12.1	1.50e-06	0	22	0	40894464	73	6048
2026-01-10 23:27:10.94	22.28	4.40	-54.5	-58.6	11.8	3.00e-06	0	22	0	42991616	74	6028
2026-01-10 23:27:11.94	22.33	4.47	-54.4	-58.3	12.1	2.28e-05	0	22	0	45088768	74	5812
2026-01-10 23:27:12.94	22.37	4.54	-54.8	-59.3	11.2	5.87e-05	0	22	0	46137344	74	6554
2026-01-10 23:27:13.93	22.41	4.60	-55.0	-59.7	11.0	2.46e-04	0	22	0	48234496	75	6463
2026-01-10 23:27:14.93	22.46	4.67	-55.6	-61.4	9.6	1.02e-03	0	22	0	50331648	76	7405
2026-01-10 23:27:15.93	22.50	4.74	-55.8	-62.1	9.0	1.31e-02	0	22	0	52428800	76	8012
2026-01-10 23:27:16.93	22.55	4.80	-56.1	-62.9	8.4	1.46e-02	0	22	0	54525952	77	8316
2026-01-10 23:27:17.93	22.60	4.87	-56.3	-64.1	7.3	4.64e-02	0	22	0	55574528	77	9550
2026-01-10 23:27:18.93	22.64	4.94	-56.4	-64.5	6.9	1.07e-01	0	22	0	57671680	77	9962
2026-01-10 23:27:19.93	22.69	5.01	-56.6	-65.5	6.2	1.92e-01	0	22	0	59768832	78	10540
2026-01-10 23:27:20.92	22.73	5.07	-54.4	-58.2	12.3	3.51e-02	0	22	0	61865984	75	5433
2026-01-10 23:27:21.91	22.78	5.14	-56.7	-67.5	5.0	2.60e-02	0	22	0	62914560	78	13290
2026-01-10 23:27:22.92	22.83	5.21	-56.9	-67.0	5.3	2.92e-01	0	22	0	65011712	78	12624
2026-01-10 23:27:23.92	22.87	5.28	-55.4	-60.3	10.8	1.00e-01	0	22	0	67108864	77	6155
2026-01-10 23:27:24.93	22.92	5.35	-57.0	-70.3	4.1	1.74e-01	0	22	0	69206016	79	17451
2026-01-10 23:27:25.93	22.97	5.41	-55.5	-60.6	10.5	1.07e+00	0	22	0	69206016	77	6351
2026-01-10 23:27:26.93	23.01	5.48	-55.4	-60.3	10.8	8.84e-04	0	22	0	71303168	77	6168
2026-01-10 23:27:27.93	23.06	5.55	-55.3	-59.8	11.2	2.12e-04	0	22	0	73400320	77	5848
2026-01-10 23:27:28.93	23.11	5.62	-54.7	-58.5	12.3	6.71e-05	0	22	0	74448896	76	5307
2026-01-10 23:27:29.93	23.16	5.69	-54.6	-58.5	12.2	1.29e-05	0	22	0	76546048	75	5646
2026-01-10 23:27:30.92	23.20	5.76	-54.1	-57.5	12.8	7.00e-07	0	22	0	78643200	74	5314
2026-01-10 23:27:31.92	23.25	5.83	-54.2	-57.6	12.7	0.00e+00	0	22	0	80740352	74	5402
2026-01-10 23:27:32.92	23.30	5.90	-54.1	-57.4	12.9	0.00e+00	0	22	0	82837504	74	5262
2026-01-10 23:27:33.92	23.35	5.97	-53.9	-57.1	13.2	0.00e+00	0	22	0	83886080	74	5066
2026-01-10 23:27:34.92	23.40	6.04	-53.8	-57.0	13.2	0.00e+00	0	22	0	85983232	74	5023
2026-01-10 23:27:35.92	23.45	6.11	-53.8	-56.8	13.4	0.00e+00	0	22	0	88080384	74	4922
2026-01-10 23:27:36.91	23.50	6.18	-53.5	-56.5	13.5	0.00e+00	0	23	0	90177536	73	4988
2026-01-10 23:27:37.91	23.55	6.25	-53.4	-56.3	13.6	0.00e+00	0	23	0	91226112	73	4905
2026-01-10 23:27:38.91	23.60	6.32	-53.5	-56.3	13.6	0.00e+00	0	22	0	93323264	73	4922
2026-01-10 23:27:39.91	23.65	6.39	-53.3	-56.2	13.7	0.00e+00	0	23	0	95420416	73	4825
2026-01-10 23:27:40.91	23.70	6.46	-53.4	-56.2	13.7	0.00e+00	0	22	0	97517568	73	4862
2026-01-10 23:27:41.91	23.75	6.54	-53.5	-56.4	13.6	0.00e+00	0	23	0	99614720	73	4949
2026-01-10 23:27:42.91	23.80	6.61	-53.4	-56.2	13.8	0.00e+00	0	23	0	100663296	73	4825
2026-01-10 23:27:43.91	23.85	6.68	-53.3	-56.1	13.8	0.00e+00	0	23	0	102760448	73	4760
2026-01-10 23:27:44.92	23.90	6.75	-53.4	-56.2	13.7	0.00e+00	0	22	0	104857600	73	4836
2026-01-10 23:27:45.91	23.95	6.82	-53.4	-56.2	13.7	0.00e+00	0	22	0	106954752	73	4828
2026-01-10 23:27:46.91	24.00	6.89	-53.4	-56.2	13.7	0.00e+00	0	22	0	109051904	73	4864
2026-01-10 23:27:47.90	24.05	6.97	-53.4	-56.2	13.7	0.00e+00	0	23	0	110100480	73	4839
2026-01-10 23:27:48.90	24.10	7.04	-53.3	-56.1	13.8	0.00e+00	0	22	0	112197632	73	4794
2026-01-10 23:27:49.90	24.16	7.11	-53.3	-56.0	13.9	0.00e+00	0	23	0	114294784	73	4752
2026-01-10 23:27:50.91	24.21	7.19	-53.4	-56.2	13.8	0.00e+00	0	22	0	116391936	73	4830
2026-01-10 23:27:51.90	24.26	7.26	-53.4	-56.2	13.8	0.00e+00	0	23	0	117440512	73	4825
2026-01-10 23:27:52.89	24.31	7.33	-53.2	-55.9	14.0	0.00e+00	0	23	0	119537664	73	4683
2026-01-10 23:27:53.90	24.37	7.41	-53.2	-55.9	14.0	0.00e+00	0	23	0	121634816	73	4661
2026-01-10 23:27:54.88	24.42	7.48	-53.1	-55.8	13.9	0.00e+00	0	23	0	123731968	72	4878
2026-01-10 23:27:55.88	24.47	7.55	-53.1	-55.8	13.9	0.00e+00	0	23	0	125829120	72	4893
2026-01-10 23:27:56.88	24.53	7.63	-53.0	-55.6	14.1	0.00e+00	0	22	0	126877696	72	4782
2026-01-10 23:27:57.88	24.58	7.70	-53.1	-55.7	14.0	0.00e+00	0	23	0	128974848	72	4863
2026-01-10 23:27:58.87	24.64	7.77	-53.1	-55.6	14.0	0.00e+00	0	23	0	131072000	72	4808
2026-01-10 23:27:59.87	24.69	7.85	-53.0	-55.5	14.1	0.00e+00	0	23	0	133169152	72	4736
2026-01-10 23:28:00.87	24.75	7.92	-53.1	-55.6	14.0	0.00e+00	0	23	0	135266304	72	4796
2026-01-10 23:28:01.87	24.80	8.00	-53.1	-55.7	14.0	0.00e+00	0	23	0	136314880	72	4825
2026-01-10 23:28:02.87	24.86	8.08	-53.1	-55.6	14.0	0.00e+00	0	23	0	138412032	72	4811
2026-01-10 23:28:03.87	24.91	8.15	-52.9	-55.4	14.2	0.00e+00	0	23	0	140509184	72	4690
2026-01-10 23:28:04.87	24.97	8.23	-53.0	-55.6	14.0	0.00e+00	0	23	0	142606336	72	4773
2026-01-10 23:28:05.86	25.02	8.30	-52.9	-55.3	14.2	0.00e+00	0	23	0	143654912	72	4636
2026-01-10 23:28:06.87	25.08	8.38	-52.9	-55.4	14.2	0.00e+00	0	23	0	145752064	72	4688
2026-01-10 23:28:07.86	25.14	8.46	-52.8	-55.3	14.3	0.00e+00	0	23	0	147849216	72	4606
2026-01-10 23:28:08.86	25.19	8.53	-52.8	-55.3	14.3	0.00e+00	0	23	0	149946368	72	4607
2026-01-10 23:28:09.86	25.25	8.61	-52.8	-55.2	14.3	0.00e+00	0	23	0	152043520	72	4577
2026-01-10 23:28:10.87	25.31	8.69	-52.8	-55.2	14.3	0.00e+00	0	23	0	153092096	72	4592
2026-01-10 23:28:11.87	25.37	8.76	-52.8	-55.2	14.4	0.00e+00	0	23	0	155189248	72	4551
2026-01-10 23:28:12.86	25.43	8.84	-52.7	-55.0	14.5	0.00e+00	0	23	0	157286400	72	4490
2026-01-10 23:28:13.86	25.48	8.92	-52.7	-55.1	14.3	0.00e+00	0	23	0	159383552	71	4763
2026-01-10 23:28:14.85	25.54	9.00	-52.7	-55.0	14.3	0.00e+00	0	23	0	160432128	71	4746
2026-01-10 23:28:15.85	25.60	9.07	-52.7	-55.0	14.3	0.00e+00	0	23	0	162529280	71	4751
2026-01-10 23:28:16.85	25.66	9.15	-52.7	-55.0	14.3	0.00e+00	0	22	0	164626432	71	4731
2026-01-10 23:28:17.85	25.72	9.23	-52.6	-55.0	14.3	0.00e+00	0	23	0	166723584	71	4713
2026-01-10 23:28:18.85	25.78	9.31	-52.6	-55.0	14.3	0.00e+00	0	23	0	168820736	71	4724
2026-01-10 23:28:19.84	25.84	9.39	-52.6	-54.9	14.4	0.00e+00	0	23	0	169869312	71	4662
2026-01-10 23:28:20.83	25.90	9.47	-52.6	-54.8	14.4	0.00e+00	0	23	0	171966464	71	4640
2026-01-10 23:28:21.83	25.96	9.55	-52.6	-54.9	14.4	0.00e+00	0	23	0	174063616	71	4670
2026-01-10 23:28:22.83	26.02	9.63	-52.6	-54.9	14.3	0.00e+00	0	23	0	176160768	71	4701
2026-01-10 23:28:23.83	26.08	9.71	-52.6	-54.9	14.3	0.00e+00	0	23	0	178257920	71	4696
2026-01-10 23:28:24.83	26.14	9.79	-52.5	-54.8	14.4	0.00e+00	0	23	0	179306496	71	4629
2026-01-10 23:28:25.83	26.21	9.87	-52.6	-54.8	14.4	0.00e+00	0	23	0	181403648	71	4643
2026-01-10 23:28:26.84	26.27	9.95	-52.5	-54.7	14.5	0.00e+00	0	23	0	183500800	71	4572
2026-01-10 23:28:27.83	26.33	10.03	-52.4	-54.6	14.6	0.00e+00	0	23	0	185597952	71	4531
2026-01-10 23:28:28.84	26.40	10.11	-52.4	-54.7	14.5	0.00e+00	0	23	0	186646528	71	4556
2026-01-10 23:28:29.84	26.46	10.19	-52.4	-54.5	14.6	0.00e+00	0	23	0	188743680	71	4485
2026-01-10 23:28:30.85	26.52	10.27	-52.4	-54.6	14.6	0.00e+00	0	23	0	190840832	71	4501
2026-01-10 23:28:31.84	26.59	10.36	-52.3	-54.5	14.7	0.00e+00	0	23	0	192937984	71	4478
2026-01-10 23:28:32.84	26.65	10.44	-52.3	-54.5	14.7	0.00e+00	0	23	0	195035136	71	4478
2026-01-10 23:28:33.85	26.72	10.52	-52.3	-54.4	14.7	0.00e+00	0	23	0	196083712	71	4439
2026-01-10 23:28:34.86	26.78	10.61	-52.4	-54.5	14.6	0.00e+00	0	23	0	198180864	71	4489
2026-01-10 23:28:35.85	26.85	10.69	-52.3	-54.5	14.7	0.00e+00	0	23	0	200278016	71	4454
2026-01-10 23:28:36.85	26.91	10.77	-52.3	-54.4	14.7	0.00e+00	0	23	0	202375168	71	4423
2026-01-10 23:28:37.85	26.98	10.85	-52.3	-54.4	14.7	0.00e+00	0	23	0	204472320	71	4428
2026-01-10 23:28:38.85	27.04	10.94	-52.4	-54.5	14.6	0.00e+00	0	23	0	205520896	71	4485
2026-01-10 23:28:39.84	27.11	11.02	-52.3	-54.5	14.7	0.00e+00	0	23	0	207618048	71	4471
2026-01-10 23:28:40.85	27.18	11.11	-52.3	-54.5	14.7	0.00e+00	0	23	0	209715200	71	4461
2026-01-10 23:28:41.85	27.25	11.19	-52.3	-54.5	14.7	0.00e+00	0	23	0	211812352	71	4443
2026-01-10 23:28:42.85	27.31	11.27	-52.3	-54.4	14.7	0.00e+00	0	23	0	213909504	71	4403
2026-01-10 23:28:43.85	27.38	11.36	-52.3	-54.4	14.7	0.00e+00	0	23	0	214958080	71	4417
2026-01-10 23:28:44.85	27.45	11.45	-52.2	-54.3	14.8	0.00e+00	0	23	0	217055232	71	4378
2026-01-10 23:28:45.85	27.52	11.53	-52.3	-54.4	14.7	0.00e+00	0	23	0	219152384	71	4423
2026-01-10 23:28:46.85	27.59	11.62	-52.3	-54.5	14.7	0.00e+00	0	23	0	221249536	71	4450
2026-01-10 23:28:47.84	27.66	11.70	-52.2	-54.3	14.8	0.00e+00	0	23	0	222298112	71	4358
2026-01-10 23:28:48.85	27.73	11.79	-52.1	-54.2	14.7	0.00e+00	0	23	0	224395264	70	4556
2026-01-10 23:28:49.85	27.80	11.88	-52.2	-54.3	14.6	0.00e+00	0	23	0	226492416	70	4616
2026-01-10 23:28:50.85	27.87	11.96	-52.1	-54.2	14.7	0.00e+00	0	23	0	228589568	70	4583
2026-01-10 23:28:51.84	27.94	12.05	-52.1	-54.2	14.7	0.00e+00	0	23	0	230686720	70	4590
2026-01-10 23:28:52.85	28.01	12.14	-52.1	-54.1	14.7	0.00e+00	0	23	0	231735296	70	4532
2026-01-10 23:28:53.84	28.08	12.22	-52.0	-54.1	14.8	0.00e+00	0	23	0	233832448	70	4514
2026-01-10 23:28:54.84	28.16	12.31	-52.0	-54.0	14.9	0.00e+00	0	23	0	235929600	70	4463
2026-01-10 23:28:55.84	28.23	12.40	-52.0	-54.0	14.8	0.00e+00	0	23	0	238026752	70	4488
2026-01-10 23:28:56.84	28.30	12.49	-52.0	-54.1	14.8	0.00e+00	0	23	0	240123904	70	4503
2026-01-10 23:28:57.84	28.38	12.58	-51.8	-53.8	14.9	0.00e+00	0	23	0	241172480	70	4378
2026-01-10 23:28:58.84	28.45	12.67	-51.8	-53.8	14.9	0.00e+00	0	23	0	243269632	70	4358
2026-01-10 23:28:59.82	28.52	12.75	-51.8	-53.8	14.9	0.00e+00	0	23	0	245366784	70	4369
2026-01-10 23:29:00.82	28.60	12.84	-51.8	-53.8	15.0	0.00e+00	0	23	0	247463936	70	4350
2026-01-10 23:29:01.82	28.67	12.93	-51.7	-53.6	15.0	0.00e+00	0	23	0	249561088	70	4286
2026-01-10 23:29:02.82	28.75	13.02	-51.7	-53.6	15.1	0.00e+00	0	23	0	250609664	70	4289
2026-01-10 23:29:03.83	28.83	13.11	-51.7	-53.7	15.0	0.00e+00	0	23	0	252706816	70	4310
2026-01-10 23:29:04.83	28.90	13.21	-51.6	-53.5	14.9	0.00e+00	0	23	0	254803968	69	4456
2026-01-10 23:29:05.83	28.98	13.30	-51.6	-53.6	14.9	0.00e+00	0	23	0	256901120	69	4502
2026-01-10 23:29:06.83	29.06	13.39	-51.6	-53.5	15.0	0.00e+00	0	23	0	257949696	69	4452
2026-01-10 23:29:07.83	29.14	13.48	-51.5	-53.4	15.0	0.00e+00	0	23	0	260046848	69	4410
2026-01-10 23:29:08.82	29.21	13.57	-51.6	-53.5	15.0	0.00e+00	0	23	0	262144000	69	4467
2026-01-10 23:29:09.82	29.29	13.66	-51.5	-53.4	15.0	0.00e+00	0	23	0	264241152	69	4423
2026-01-10 23:29:10.81	29.37	13.76	-51.6	-53.5	15.0	0.00e+00	0	23	0	266338304	69	4467
2026-01-10 23:29:11.82	29.45	13.85	-51.5	-53.3	15.1	0.00e+00	0	23	0	267386880	69	4375
2026-01-10 23:29:12.82	29.53	13.94	-51.4	-53.3	15.1	0.00e+00	0	23	0	269484032	69	4342
2026-01-10 23:29:13.82	29.61	14.04	-51.5	-53.4	15.0	0.00e+00	0	23	0	271581184	69	4427
2026-01-10 23:29:14.83	29.70	14.13	-51.6	-53.4	15.0	0.00e+00	0	23	0	273678336	69	4433
2026-01-10 23:29:15.83	29.78	14.23	-51.4	-53.3	15.1	0.00e+00	0	23	0	275775488	69	4344
2026-01-10 23:29:16.82	29.86	14.32	-51.5	-53.3	15.0	0.00e+00	0	23	0	276824064	69	4384
2026-01-10 23:29:17.83	29.94	14.41	-51.5	-53.3	15.0	0.00e+00	0	23	0	278921216	69	4391
2026-01-10 23:29:18.82	30.02	14.51	-51.5	-53.4	15.0	0.00e+00	0	23	0	281018368	69	4395
2026-01-10 23:29:19.83	30.11	14.61	-51.4	-53.3	15.1	0.00e+00	0	23	0	283115520	69	4350
2026-01-10 23:29:20.83	30.19	14.70	-51.5	-53.3	15.1	0.00e+00	0	23	0	284164096	69	4377
2026-01-10 23:29:21.83	30.28	14.80	-51.4	-53.2	15.1	0.00e+00	0	23	0	286261248	69	4321
2026-01-10 23:29:22.83	30.36	14.89	-51.4	-53.3	15.1	0.00e+00	0	23	0	288358400	69	4362
2026-01-10 23:29:23.83	30.45	14.99	-51.6	-53.5	15.0	0.00e+00	0	23	0	290455552	69	4469
2026-01-10 23:29:24.83	30.54	15.09	-51.5	-53.4	15.0	0.00e+00	0	23	0	292552704	69	4425
2026-01-10 23:29:25.83	30.62	15.18	-51.6	-53.5	15.0	0.00e+00	0	23	0	293601280	69	4444
2026-01-10 23:29:26.82	30.71	15.28	-51.6	-53.5	15.0	0.00e+00	0	23	0	295698432	69	4484
2026-01-10 23:29:27.82	30.80	15.38	-51.7	-53.6	14.9	0.00e+00	0	23	0	297795584	69	4518
2026-01-10 23:29:28.82	30.89	15.48	-51.7	-53.6	14.9	0.00e+00	0	23	0	299892736	69	4524
2026-01-10 23:29:29.81	30.97	15.58	-51.7	-53.6	14.9	0.00e+00	0	23	0	301989888	69	4501
2026-01-10 23:29:30.81	31.06	15.68	-51.7	-53.6	14.9	0.00e+00	0	23	0	303038464	69	4522
2026-01-10 23:29:31.81	31.15	15.77	-51.7	-53.7	14.9	0.00e+00	0	23	0	305135616	69	4552
2026-01-10 23:29:32.81	31.24	15.87	-51.8	-53.8	14.8	0.00e+00	0	23	0	307232768	69	4603
2026-01-10 23:29:33.81	31.34	15.97	-51.7	-53.6	14.9	0.00e+00	0	23	0	309329920	69	4527
2026-01-10 23:29:34.81	31.43	16.08	-51.7	-53.6	14.9	0.00e+00	0	23	0	311427072	69	4510
2026-01-10 23:29:35.81	31.52	16.18	-51.7	-53.7	14.9	0.00e+00	0	23	0	312475648	69	4550
2026-01-10 23:29:36.81	31.61	16.28	-51.8	-53.8	14.8	0.00e+00	0	23	0	314572800	69	4605
2026-01-10 23:29:37.81	31.71	16.38	-51.7	-53.7	14.9	0.00e+00	0	23	0	316669952	69	4546
2026-01-10 23:29:38.82	31.80	16.48	-51.6	-53.5	14.9	0.00e+00	0	23	0	318767104	69	4471
2026-01-10 23:29:39.81	31.90	16.58	-51.7	-53.6	14.8	0.00e+00	0	23	0	319815680	69	4523
2026-01-10 23:29:40.82	31.99	16.69	-51.7	-53.6	14.9	0.00e+00	0	23	0	321912832	69	4529
2026-01-10 23:29:41.82	32.09	16.79	-51.7	-53.6	14.9	0.00e+00	0	23	0	324009984	69	4532
2026-01-10 23:29:42.82	32.19	16.89	-51.7	-53.6	14.9	0.00e+00	0	23	0	326107136	69	4531
2026-01-10 23:29:43.82	32.28	17.00	-51.7	-53.6	14.9	0.00e+00	0	23	0	328204288	69	4543
2026-01-10 23:29:44.82	32.38	17.10	-51.9	-53.8	14.8	0.00e+00	0	23	0	329252864	69	4619
2026-01-10 23:29:45.82	32.48	17.21	-51.8	-53.8	14.8	0.00e+00	0	23	0	331350016	69	4604
2026-01-10 23:29:46.82	32.58	17.31	-51.9	-53.8	14.8	0.00e+00	0	23	0	333447168	69	4639
2026-01-10 23:29:47.82	32.68	17.42	-51.8	-53.8	14.8	0.00e+00	0	23	0	335544320	69	4623
2026-01-10 23:29:48.82	32.78	17.52	-51.8	-53.7	14.8	0.00e+00	0	23	0	337641472	69	4580
2026-01-10 23:29:49.83	32.88	17.63	-51.8	-53.7	14.8	0.00e+00	0	23	0	338690048	69	4587
2026-01-10 23:29:50.82	32.98	17.73	-51.8	-53.8	14.8	0.00e+00	0	23	0	340787200	69	4620
2026-01-10 23:29:51.83	33.09	17.84	-51.6	-53.5	15.0	0.00e+00	0	23	0	342884352	69	4482
2026-01-10 23:29:52.83	33.19	17.95	-51.7	-53.5	15.0	0.00e+00	0	23	0	344981504	69	4488
2026-01-10 23:29:53.83	33.30	18.06	-51.6	-53.4	15.0	0.00e+00	0	23	0	346030080	69	4434
2026-01-10 23:29:54.83	33.40	18.16	-51.5	-53.4	15.1	0.00e+00	0	23	0	348127232	69	4394
2026-01-10 23:29:55.83	33.51	18.27	-51.5	-53.3	15.1	0.00e+00	0	23	0	350224384	69	4362
2026-01-10 23:29:56.83	33.61	18.38	-51.5	-53.3	15.1	0.00e+00	0	23	0	352321536	69	4373
2026-01-10 23:29:57.82	33.72	18.49	-51.5	-53.4	15.1	0.00e+00	0	23	0	354418688	69	4400
2026-01-10 23:29:58.82	33.83	18.60	-51.5	-53.3	15.1	0.00e+00	0	23	0	355467264	69	4372
2026-01-10 23:29:59.81	33.93	18.71	-51.5	-53.3	15.1	0.00e+00	0	23	0	357564416	69	4381
2026-01-10 23:30:00.81	34.04	18.82	-51.5	-53.3	15.1	0.00e+00	0	23	0	359661568	69	4375
2026-01-10 23:30:01.81	34.15	18.93	-51.5	-53.3	15.1	0.00e+00	0	23	0	361758720	69	4382
2026-01-10 23:30:02.82	34.26	19.04	-51.6	-53.4	15.0	0.00e+00	0	23	0	363855872	69	4425
2026-01-10 23:30:03.82	34.38	19.15	-51.5	-53.4	15.1	0.00e+00	0	23	0	364904448	69	4395
2026-01-10 23:30:04.81	34.49	19.26	-51.5	-53.3	15.1	0.00e+00	0	23	0	367001600	69	4374
2026-01-10 23:30:05.81	34.60	19.37	-51.5	-53.4	15.1	0.00e+00	0	23	0	369098752	69	4399
2026-01-10 23:30:06.82	34.72	19.49	-51.5	-53.4	15.1	0.00e+00	0	23	0	371195904	69	4394
2026-01-10 23:30:07.80	34.83	19.60	-51.6	-53.4	15.0	0.00e+00	0	23	0	372244480	69	4426
2026-01-10 23:30:08.80	34.94	19.71	-51.7	-53.5	15.0	0.00e+00	0	23	0	374341632	69	4478
2026-01-10 23:30:09.80	35.06	19.83	-51.6	-53.5	15.0	0.00e+00	0	23	0	376438784	69	4457
2026-01-10 23:30:10.80	35.18	19.94	-51.7	-53.5	15.0	0.00e+00	0	23	0	378535936	69	4485
2026-01-10 23:30:11.81	35.30	20.06	-51.7	-53.6	14.9	0.00e+00	0	23	0	380633088	69	4540
2026-01-10 23:30:12.81	35.41	20.17	-51.8	-53.7	14.9	0.00e+00	0	23	0	381681664	69	4557
2026-01-10 23:30:13.81	35.53	20.29	-51.8	-53.7	14.8	0.00e+00	0	23	0	383778816	69	4584
2026-01-10 23:30:14.81	35.66	20.40	-51.7	-53.6	14.9	0.00e+00	0	23	0	385875968	69	4534
2026-01-10 23:30:15.81	35.78	20.52	-51.8	-53.8	14.8	0.00e+00	0	23	0	387973120	69	4608
2026-01-10 23:30:16.80	35.90	20.63	-51.8	-53.7	14.9	0.00e+00	0	23	0	390070272	69	4569
2026-01-10 23:30:17.81	36.02	20.75	-51.9	-53.8	14.8	0.00e+00	0	23	0	391118848	69	4622
2026-01-10 23:30:18.81	36.15	20.87	-51.9	-53.8	14.8	0.00e+00	0	23	0	393216000	69	4635
2026-01-10 23:30:19.81	36.27	20.99	-51.9	-53.8	14.8	0.00e+00	0	23	0	395313152	69	4633
2026-01-10 23:30:20.81	36.40	21.11	-51.9	-53.8	14.8	0.00e+00	0	23	0	397410304	69	4624
2026-01-10 23:30:21.82	36.53	21.23	-51.9	-53.9	14.8	0.00e+00	0	23	0	399507456	69	4665
2026-01-10 23:30:22.82	36.65	21.35	-51.9	-53.8	14.8	0.00e+00	0	23	0	400556032	69	4651
2026-01-10 23:30:23.82	36.78	21.47	-52.0	-54.0	14.7	0.00e+00	0	23	0	402653184	69	4718
2026-01-10 23:30:24.81	36.91	21.58	-52.1	-54.0	14.7	0.00e+00	0	23	0	404750336	69	4753
2026-01-10 23:30:25.81	37.04	21.71	-52.1	-54.1	14.7	0.00e+00	0	23	0	406847488	69	4776
2026-01-10 23:30:26.82	37.18	21.83	-52.1	-54.1	14.6	0.00e+00	0	23	0	408944640	69	4788
2026-01-10 23:30:27.81	37.31	21.95	-52.2	-54.2	14.6	0.00e+00	0	23	0	409993216	69	4858
2026-01-10 23:30:28.82	37.44	22.07	-52.2	-54.2	14.6	0.00e+00	0	23	0	412090368	69	4832
2026-01-10 23:30:29.82	37.58	22.19	-52.1	-54.1	14.7	0.00e+00	0	23	0	414187520	69	4763
2026-01-10 23:30:30.82	37.71	22.32	-52.1	-54.1	14.7	0.00e+00	0	23	0	416284672	69	4793
2026-01-10 23:30:31.82	37.85	22.44	-52.2	-54.2	14.6	0.00e+00	0	23	0	417333248	69	4854
2026-01-10 23:30:32.82	37.99	22.56	-52.1	-54.1	14.7	0.00e+00	0	23	0	419430400	69	4769
2026-01-10 23:30:33.82	38.13	22.69	-52.1	-54.0	14.7	0.00e+00	0	23	0	421527552	69	4759
2026-01-10 23:30:34.81	38.27	22.81	-52.0	-54.0	14.7	0.00e+00	0	23	0	423624704	69	4738
2026-01-10 23:30:35.82	38.41	22.94	-52.0	-53.9	14.8	0.00e+00	0	23	0	425721856	69	4678
2026-01-10 23:30:36.82	38.55	23.06	-52.0	-54.0	14.7	0.00e+00	0	23	0	426770432	69	4718
2026-01-10 23:30:37.82	38.69	23.19	-51.9	-53.8	14.8	0.00e+00	0	23	0	428867584	69	4647
2026-01-10 23:30:38.82	38.84	23.31	-51.9	-53.8	14.8	0.00e+00	0	23	0	430964736	69	4623
2026-01-10 23:30:39.82	38.98	23.44	-51.8	-53.7	14.9	0.00e+00	0	23	0	433061888	69	4579
2026-01-10 23:30:40.83	39.13	23.57	-51.8	-53.7	14.9	0.00e+00	0	23	0	435159040	69	4557
2026-01-10 23:30:41.83	39.28	23.70	-51.8	-53.7	14.9	0.00e+00	0	23	0	436207616	69	4590
2026-01-10 23:30:42.83	39.43	23.82	-51.9	-53.8	14.8	0.00e+00	0	23	0	438304768	69	4629
2026-01-10 23:30:43.83	39.58	23.95	-51.8	-53.7	14.9	0.00e+00	0	23	0	440401920	69	4570
2026-01-10 23:30:44.83	39.73	24.08	-51.9	-53.8	14.8	0.00e+00	0	23	0	442499072	69	4624
2026-01-10 23:30:45.82	39.88	24.21	-52.0	-54.0	14.7	0.00e+00	0	23	0	443547648	69	4732
2026-01-10 23:30:46.83	40.04	24.34	-52.1	-54.1	14.7	0.00e+00	0	23	0	445644800	69	4766
2026-01-10 23:30:47.83	40.19	24.47	-52.1	-54.0	14.7	0.00e+00	0	23	0	447741952	69	4749
2026-01-10 23:30:48.83	40.35	24.60	-52.2	-54.2	14.6	0.00e+00	0	23	0	449839104	69	4833
2026-01-10 23:30:49.83	40.51	24.73	-52.1	-54.1	14.7	0.00e+00	0	23	0	451936256	69	4773
2026-01-10 23:30:50.83	40.67	24.86	-52.1	-54.1	14.6	0.00e+00	0	23	0	452984832	69	4807
2026-01-10 23:30:51.83	40.83	25.00	-52.1	-54.1	14.7	0.00e+00	0	23	0	455081984	69	4769
2026-01-10 23:30:52.83	40.99	25.13	-52.1	-54.0	14.7	0.00e+00	0	23	0	457179136	69	4756
2026-01-10 23:30:53.83	41.15	25.26	-52.1	-54.0	14.7	0.00e+00	0	23	0	459276288	69	4749
2026-01-10 23:30:54.83	41.32	25.40	-52.1	-54.1	14.6	0.00e+00	0	23	0	461373440	69	4798
2026-01-10 23:30:55.82	41.48	25.53	-52.2	-54.2	14.6	0.00e+00	0	23	0	462422016	69	4815
2026-01-10 23:30:56.83	41.65	25.66	-52.2	-54.2	14.6	0.00e+00	0	23	0	464519168	69	4836
2026-01-10 23:30:57.82	41.81	25.80	-52.2	-54.2	14.6	0.00e+00	0	23	0	466616320	69	4846
2026-01-10 23:30:58.82	41.98	25.93	-52.3	-54.3	14.6	0.00e+00	0	23	0	468713472	69	4924
2026-01-10 23:30:59.82	42.16	26.07	-52.3	-54.4	14.5	0.00e+00	0	23	0	470810624	69	4949
2026-01-10 23:31:00.82	42.33	26.20	-52.4	-54.4	14.6	0.00e+00	0	23	0	471859200	70	4698
2026-01-10 23:31:01.81	42.50	26.34	-52.4	-54.4	14.7	0.00e+00	0	23	0	473956352	70	4690
2026-01-10 23:31:02.80	42.67	26.47	-52.3	-54.3	14.7	0.00e+00	0	23	0	476053504	70	4643
2026-01-10 23:31:03.81	42.85	26.61	-52.1	-54.1	14.9	0.00e+00	0	23	0	478150656	70	4502
2026-01-10 23:31:04.80	43.03	26.75	-52.1	-54.0	14.9	0.00e+00	0	23	0	479199232	70	4455
2026-01-10 23:31:05.80	43.21	26.89	-51.9	-53.8	15.0	0.00e+00	0	23	0	481296384	70	4383
2026-01-10 23:31:06.80	43.39	27.02	-51.8	-53.7	15.1	0.00e+00	0	23	0	483393536	70	4305
2026-01-10 23:31:07.80	43.57	27.16	-51.9	-53.8	15.0	0.00e+00	0	23	0	485490688	70	4356
2026-01-10 23:31:08.80	43.76	27.30	-52.0	-53.9	14.9	0.00e+00	0	23	0	487587840	70	4420
2026-01-10 23:31:09.81	43.95	27.44	-52.2	-54.1	14.8	0.00e+00	0	23	0	488636416	70	4536
2026-01-10 23:31:10.81	44.13	27.58	-52.2	-54.2	14.8	0.00e+00	0	23	0	490733568	70	4570
2026-01-10 23:31:11.81	44.32	27.72	-52.5	-54.5	14.6	0.00e+00	0	23	0	492830720	70	4749
2026-01-10 23:31:12.81	44.51	27.86	-52.6	-54.7	14.5	0.00e+00	0	23	0	494927872	70	4843
2026-01-10 23:31:13.81	44.71	28.01	-52.7	-54.9	14.4	0.00e+00	0	23	0	497025024	70	4945
2026-01-10 23:31:14.81	44.90	28.15	-52.8	-55.0	14.3	0.00e+00	0	23	0	498073600	70	4998
2026-01-10 23:31:15.81	45.10	28.29	-52.8	-55.0	14.3	0.00e+00	0	23	0	500170752	70	5025
2026-01-10 23:31:16.81	45.29	28.43	-52.9	-55.1	14.3	0.00e+00	0	23	0	502267904	70	5050
2026-01-10 23:31:17.81	45.49	28.57	-52.7	-54.9	14.4	0.00e+00	0	23	0	504365056	70	4945
2026-01-10 23:31:18.81	45.70	28.72	-52.8	-55.0	14.3	0.00e+00	0	23	0	505413632	70	5026
2026-01-10 23:31:19.82	45.90	28.86	-53.0	-55.2	14.4	0.00e+00	0	23	0	507510784	71	4850
2026-01-10 23:31:20.81	46.10	29.00	-53.2	-55.6	14.1	0.00e+00	0	23	0	509607936	71	5056
2026-01-10 23:31:21.81	46.31	29.15	-53.4	-55.8	14.0	0.00e+00	0	23	0	511705088	71	5210
2026-01-10 23:31:22.80	46.52	29.29	-53.5	-55.9	14.1	0.00e+00	0	23	0	513802240	72	4954
2026-01-10 23:31:23.79	46.72	29.43	-53.3	-55.7	14.2	0.00e+00	0	23	0	514850816	72	4843
2026-01-10 23:31:24.78	46.93	29.58	-53.2	-55.5	14.3	0.00e+00	0	23	0	516947968	72	4732
2026-01-10 23:31:25.79	47.15	29.73	-53.0	-55.2	14.5	0.00e+00	0	23	0	519045120	72	4573
2026-01-10 23:31:26.79	47.37	29.87	-52.9	-55.1	14.6	0.00e+00	0	23	0	521142272	72	4495
2026-01-10 23:31:27.78	47.58	30.02	-52.9	-55.0	14.7	0.00e+00	0	23	0	522190848	72	4465
2026-01-10 23:31:28.78	47.80	30.16	-53.0	-55.2	14.5	0.00e+00	0	23	0	524288000	72	4595
2026-01-10 23:31:29.78	48.02	30.31	-53.2	-55.5	14.3	0.00e+00	0	23	0	526385152	72	4755
2026-01-10 23:31:30.79	48.25	30.46	-53.3	-55.6	14.3	0.00e+00	0	23	0	528482304	72	4813
2026-01-10 23:31:31.79	48.47	30.60	-53.4	-55.8	14.1	0.00e+00	0	23	0	530579456	72	4898
2026-01-10 23:31:32.78	48.70	30.75	-53.4	-55.8	14.2	0.00e+00	0	23	0	531628032	72	4917
2026-01-10 23:31:33.78	48.93	30.90	-53.5	-55.8	14.1	0.00e+00	0	23	0	533725184	72	4926
2026-01-10 23:31:34.78	49.16	31.05	-53.4	-55.8	14.3	0.00e+00	0	23	0	535822336	72	4871
2026-01-10 23:31:35.78	49.39	31.20	-53.3	-55.7	14.3	0.00e+00	0	23	0	537919488	72	4820
2026-01-10 23:31:36.78	49.63	31.34	-53.2	-55.4	14.4	0.00e+00	0	23	0	540016640	72	4699
2026-01-10 23:31:37.78	49.87	31.49	-53.1	-55.4	14.4	0.00e+00	0	23	0	541065216	72	4670
2026-01-10 23:31:38.78	50.11	31.64	-53.2	-55.5	14.4	0.00e+00	0	23	0	543162368	72	4734
2026-01-10 23:31:39.77	50.35	31.79	-53.3	-55.6	14.3	0.00e+00	0	23	0	545259520	72	4797
2026-01-10 23:31:40.77	50.59	31.94	-53.4	-55.7	14.3	0.00e+00	0	23	0	547356672	72	4835
2026-01-10 23:31:41.77	50.84	32.09	-53.3	-55.6	14.3	0.00e+00	0	23	0	549453824	72	4770
2026-01-10 23:31:42.78	51.09	32.24	-53.0	-55.2	14.6	0.00e+00	0	23	0	550502400	72	4559
2026-01-10 23:31:43.78	51.34	32.39	-52.8	-54.9	14.7	0.00e+00	0	23	0	552599552	72	4439
2026-01-10 23:31:44.78	51.59	32.54	-52.7	-54.7	14.9	0.00e+00	0	23	0	554696704	72	4314
2026-01-10 23:31:45.78	51.85	32.69	-52.5	-54.5	14.8	0.00e+00	0	23	0	556793856	71	4471
2026-01-10 23:31:46.78	52.11	32.84	-52.5	-54.5	14.8	0.00e+00	0	23	0	557842432	71	4443
2026-01-10 23:31:47.78	52.37	32.99	-52.5	-54.5	14.8	0.00e+00	0	23	0	559939584	71	4480
2026-01-10 23:31:48.78	52.63	33.14	-52.6	-54.7	14.7	0.00e+00	0	23	0	562036736	71	4546
2026-01-10 23:31:49.78	52.90	33.29	-52.7	-54.8	14.6	0.00e+00	0	23	0	564133888	71	4626
2026-01-10 23:31:50.79	53.17	33.45	-52.8	-54.9	14.5	0.00e+00	0	23	0	566231040	71	4696
2026-01-10 23:31:51.79	53.44	33.60	-52.9	-55.1	14.4	0.00e+00	0	23	0	567279616	71	4805
2026-01-10 23:31:52.79	53.71	33.75	-52.9	-55.1	14.5	0.00e+00	0	23	0	569376768	71	4792
2026-01-10 23:31:53.79	53.99	33.90	-52.9	-55.1	14.4	0.00e+00	0	23	0	571473920	71	4790
2026-01-10 23:31:54.80	54.27	34.05	-52.9	-55.1	14.5	0.00e+00	0	23	0	573571072	71	4783
2026-01-10 23:31:55.79	54.54	34.20	-52.9	-55.1	14.5	0.00e+00	0	23	0	575668224	71	4766
2026-01-10 23:31:56.79	54.83	34.35	-52.7	-54.8	14.6	0.00e+00	0	23	0	576716800	71	4641
2026-01-10 23:31:57.79	55.11	34.50	-52.7	-54.8	14.6	0.00e+00	0	23	0	578813952	71	4625
2026-01-10 23:31:58.79	55.40	34.65	-52.6	-54.6	14.8	0.00e+00	0	23	0	580911104	71	4511
2026-01-10 23:31:59.79	55.69	34.80	-52.4	-54.4	14.9	0.00e+00	0	23	0	583008256	71	4403
2026-01-10 23:32:00.78	55.98	34.95	-52.5	-54.5	14.8	0.00e+00	0	23	0	585105408	71	4468
2026-01-10 23:32:01.78	56.28	35.10	-52.4	-54.4	14.8	0.00e+00	0	23	0	586153984	71	4422
2026-01-10 23:32:02.78	56.58	35.26	-52.6	-54.6	14.7	0.00e+00	0	23	0	588251136	71	4520
2026-01-10 23:32:03.78	56.88	35.41	-52.5	-54.5	14.8	0.00e+00	0	23	0	590348288	71	4484
2026-01-10 23:32:04.78	57.18	35.56	-52.6	-54.7	14.7	0.00e+00	0	23	0	592445440	71	4553
2026-01-10 23:32:05.78	57.49	35.71	-52.6	-54.6	14.8	0.00e+00	0	23	0	593494016	71	4508
2026-01-10 23:32:06.78	57.80	35.86	-52.6	-54.6	14.7	0.00e+00	0	23	0	595591168	71	4530
2026-01-10 23:32:07.78	58.11	36.01	-52.6	-54.6	14.7	0.00e+00	0	23	0	597688320	71	4534
2026-01-10 23:32:08.78	58.43	36.16	-52.7	-54.7	14.7	0.00e+00	0	23	0	599785472	71	4577
2026-01-10 23:32:09.77	58.74	36.30	-52.6	-54.6	14.7	0.00e+00	0	23	0	601882624	71	4528
2026-01-10 23:32:10.76	59.06	36.45	-52.5	-54.5	14.8	0.00e+00	0	23	0	602931200	71	4478
2026-01-10 23:32:11.76	59.38	36.60	-52.5	-54.5	14.8	0.00e+00	0	23	0	605028352	71	4451
2026-01-10 23:32:12.76	59.71	36.75	-52.6	-54.7	14.7	0.00e+00	0	23	0	607125504	71	4547
2026-01-10 23:32:13.76	60.04	36.90	-52.8	-54.9	14.6	0.00e+00	0	23	0	609222656	71	4685
2026-01-10 23:32:14.76	60.37	37.04	-53.0	-55.2	14.4	0.00e+00	0	23	0	611319808	71	4837
2026-01-10 23:32:15.76	60.71	37.19	-53.2	-55.4	14.2	0.00e+00	0	23	0	612368384	71	4976
2026-01-10 23:32:16.76	61.05	37.34	-53.3	-55.6	14.2	0.00e+00	0	23	0	614465536	71	5048
2026-01-10 23:32:17.75	61.38	37.48	-53.2	-55.5	14.2	0.00e+00	0	23	0	616562688	71	4994
2026-01-10 23:32:18.75	61.73	37.63	-53.0	-55.1	14.4	0.00e+00	0	23	0	618659840	71	4800
2026-01-10 23:32:19.74	62.07	37.77	-52.9	-55.1	14.5	0.00e+00	0	23	0	619708416	71	4775
2026-01-10 23:32:20.74	62.42	37.92	-53.0	-55.2	14.4	0.00e+00	0	23	0	621805568	71	4863
2026-01-10 23:32:21.74	62.78	38.06	-52.9	-55.1	14.5	0.00e+00	0	23	0	623902720	71	4783
2026-01-10 23:32:22.74	63.14	38.20	-53.3	-55.6	14.2	0.00e+00	0	23	0	625999872	71	5043
2026-01-10 23:32:23.74	63.50	38.35	-53.7	-56.2	14.0	0.00e+00	0	23	0	628097024	72	5129
2026-01-10 23:32:24.74	63.86	38.49	-54.0	-56.7	13.8	0.00e+00	0	23	0	629145600	73	5102
2026-01-10 23:32:25.74	64.23	38.63	-54.2	-57.0	13.6	0.00e+00	0	23	0	631242752	73	5305
2026-01-10 23:32:26.74	64.60	38.77	-53.9	-56.5	13.8	0.00e+00	0	23	0	633339904	73	5017
2026-01-10 23:32:27.74	64.97	38.91	-53.5	-55.9	14.3	0.00e+00	0	23	0	635437056	73	4676
2026-01-10 23:32:28.75	65.35	39.05	-53.2	-55.4	14.6	0.00e+00	0	23	0	636485632	73	4403
2026-01-10 23:32:29.75	65.73	39.19	-53.0	-55.1	14.6	0.00e+00	0	23	0	638582784	72	4517
2026-01-10 23:32:30.75	66.11	39.33	-52.9	-55.0	14.7	0.00e+00	0	23	0	640679936	72	4444
2026-01-10 23:32:31.75	66.49	39.47	-53.1	-55.2	14.6	0.00e+00	0	23	0	642777088	72	4598
2026-01-10 23:32:32.76	66.89	39.61	-53.2	-55.5	14.4	0.00e+00	0	23	0	644874240	72	4728
2026-01-10 23:32:33.76	67.28	39.74	-53.6	-56.0	14.1	0.00e+00	0	23	0	646971392	72	5033
2026-01-10 23:32:34.76	67.67	39.87	-53.4	-55.8	14.2	0.00e+00	0	23	0	648019968	72	4887
2026-01-10 23:32:35.75	68.07	40.01	-53.2	-55.4	14.4	0.00e+00	0	23	0	650117120	72	4659
2026-01-10 23:32:36.75	68.47	40.14	-52.8	-54.9	14.8	0.00e+00	0	23	0	652214272	72	4395
2026-01-10 23:32:37.75	68.88	40.27	-52.5	-54.5	14.8	0.00e+00	0	23	0	654311424	71	4474
2026-01-10 23:32:38.74	69.28	40.40	-52.5	-54.5	14.8	0.00e+00	0	23	0	655360000	71	4465
2026-01-10 23:32:39.74	69.69	40.53	-52.8	-54.9	14.6	0.00e+00	0	23	0	657457152	71	4655
2026-01-10 23:32:40.73	70.10	40.65	-53.3	-55.6	14.2	0.00e+00	0	23	0	659554304	71	5093
2026-01-10 23:32:41.73	70.52	40.78	-53.9	-56.4	13.8	0.00e+00	0	23	0	661651456	72	5271
2026-01-10 23:32:42.73	70.94	40.91	-54.1	-56.8	13.7	0.00e+00	0	23	0	663748608	73	5176
2026-01-10 23:32:43.73	71.36	41.03	-53.9	-56.5	13.9	0.00e+00	0	23	0	664797184	73	4995
2026-01-10 23:32:44.72	71.79	41.15	-53.4	-55.7	14.4	0.00e+00	0	23	0	666894336	73	4550
2026-01-10 23:32:45.72	72.22	41.27	-52.9	-54.9	14.7	0.00e+00	0	23	0	668991488	72	4435
2026-01-10 23:32:46.71	72.65	41.39	-52.8	-54.8	14.9	0.00e+00	0	23	0	671088640	72	4349
2026-01-10 23:32:47.71	73.09	41.51	-53.0	-55.2	14.6	0.00e+00	0	23	0	672137216	72	4548
2026-01-10 23:32:48.71	73.53	41.63	-53.7	-56.2	14.0	0.00e+00	0	23	0	674234368	72	5114
2026-01-10 23:32:49.71	73.97	41.74	-54.6	-57.5	13.4	0.00e+00	0	23	0	676331520	74	5281
2026-01-10 23:32:50.71	74.42	41.86	-54.8	-57.9	13.2	0.00e+00	0	23	0	678428672	74	5567
2026-01-10 23:32:51.71	74.87	41.97	-54.7	-57.6	13.5	0.00e+00	0	23	0	680525824	75	5093
2026-01-10 23:32:52.71	75.32	42.08	-54.2	-56.8	14.0	0.00e+00	0	23	0	681574400	75	4650
2026-01-10 23:32:53.71	75.77	42.19	-53.7	-56.0	14.4	0.00e+00	0	23	0	683671552	74	4479
2026-01-10 23:32:54.70	76.23	42.30	-53.2	-55.4	14.6	0.00e+00	0	23	0	685768704	73	4419
2026-01-10 23:32:55.69	76.68	42.40	-53.1	-55.2	14.5	0.00e+00	0	23	0	687865856	72	4595
2026-01-10 23:32:56.69	77.15	42.51	-53.3	-55.6	14.3	0.00e+00	0	23	0	688914432	72	4776
2026-01-10 23:32:57.68	77.61	42.61	-54.1	-56.7	13.8	0.00e+00	0	23	0	691011584	73	5150
2026-01-10 23:32:58.68	78.08	42.71	-54.6	-57.5	13.4	0.00e+00	0	23	0	693108736	74	5313
2026-01-10 23:32:59.67	78.55	42.81	-54.5	-57.3	13.5	0.00e+00	0	23	0	695205888	74	5189
2026-01-10 23:33:00.66	79.02	42.90	-53.8	-56.3	14.2	0.00e+00	0	23	0	697303040	74	4621
2026-01-10 23:33:01.67	79.51	43.00	-53.4	-55.6	14.5	0.00e+00	0	23	0	698351616	73	4541
2026-01-10 23:33:02.67	79.99	43.09	-53.1	-55.2	14.6	0.00e+00	0	23	0	700448768	72	4572
2026-01-10 23:33:03.67	80.47	43.18	-53.5	-55.8	14.2	0.00e+00	0	23	0	702545920	72	4895
2026-01-10 23:33:04.67	80.96	43.27	-53.8	-56.2	13.9	0.00e+00	0	23	0	704643072	72	5154
2026-01-10 23:33:05.66	81.45	43.36	-53.8	-56.3	14.0	0.00e+00	0	23	0	706740224	73	4917
2026-01-10 23:33:06.66	81.94	43.44	-53.3	-55.5	14.6	0.00e+00	0	23	0	707788800	73	4461
2026-01-10 23:33:07.64	82.43	43.52	-52.9	-55.0	14.8	0.00e+00	0	23	0	709885952	72	4442
2026-01-10 23:33:08.64	82.92	43.60	-52.8	-54.8	14.8	0.00e+00	0	23	0	711983104	72	4370
2026-01-10 23:33:09.64	83.42	43.68	-52.6	-54.6	14.8	0.00e+00	0	23	0	714080256	71	4507
2026-01-10 23:33:10.64	83.93	43.76	-52.3	-54.2	15.0	0.00e+00	0	23	0	715128832	71	4334
2026-01-10 23:33:11.64	84.43	43.83	-52.6	-54.6	14.8	0.00e+00	0	23	0	717225984	71	4525
2026-01-10 23:33:12.64	84.94	43.90	-52.9	-55.0	14.6	0.00e+00	0	23	0	719323136	71	4711
2026-01-10 23:33:13.63	85.44	43.97	-53.0	-55.1	14.5	0.00e+00	0	23	0	721420288	71	4793
2026-01-10 23:33:14.64	85.96	44.04	-53.1	-55.2	14.4	0.00e+00	0	23	0	723517440	71	4862
2026-01-10 23:33:15.64	86.47	44.11	-53.3	-55.6	14.2	0.00e+00	0	23	0	724566016	71	5067
2026-01-10 23:33:16.64	86.99	44.17	-53.7	-56.2	14.0	0.00e+00	0	23	0	726663168	72	5114
2026-01-10 23:33:17.64	87.51	44.23	-53.8	-56.2	14.0	0.00e+00	0	23	0	728760320	72	5144
2026-01-10 23:33:18.64	88.03	44.28	-53.5	-55.8	14.2	0.00e+00	0	23	0	730857472	72	4912
2026-01-10 23:33:19.64	88.55	44.34	-53.4	-55.7	14.3	0.00e+00	0	23	0	731906048	72	4831
2026-01-10 23:33:20.63	89.07	44.39	-53.5	-55.8	14.2	0.00e+00	0	23	0	734003200	72	4903
2026-01-10 23:33:21.64	89.60	44.44	-53.6	-55.9	14.2	0.00e+00	0	23	0	736100352	72	4951
2026-01-10 23:33:22.63	90.12	44.49	-53.3	-55.6	14.3	0.00e+00	0	23	0	738197504	72	4792
2026-01-10 23:33:23.64	90.65	44.53	-53.2	-55.4	14.4	0.00e+00	0	23	0	740294656	72	4704
2026-01-10 23:33:24.63	91.18	44.57	-53.3	-55.5	14.4	0.00e+00	0	23	0	741343232	72	4741
2026-01-10 23:33:25.62	91.70	44.61	-53.3	-55.5	14.3	0.00e+00	0	23	0	743440384	72	4756
2026-01-10 23:33:26.62	92.23	44.65	-52.9	-55.0	14.7	0.00e+00	0	23	0	745537536	72	4474
2026-01-10 23:33:27.62	92.77	44.68	-52.9	-54.9	14.7	0.00e+00	0	23	0	747634688	72	4433
2026-01-10 23:33:28.62	93.30	44.72	-52.8	-54.8	14.8	0.00e+00	0	23	0	749731840	72	4360
2026-01-10 23:33:29.62	93.84	44.74	-52.7	-54.7	14.7	0.00e+00	0	23	0	750780416	71	4571
2026-01-10 23:33:30.62	94.37	44.77	-52.5	-54.4	14.9	0.00e+00	0	23	0	752877568	71	4425
2026-01-10 23:33:31.62	94.91	44.79	-52.4	-54.3	15.0	0.00e+00	0	23	0	754974720	71	4366
2026-01-10 23:33:32.61	95.44	44.81	-52.3	-54.2	15.1	0.00e+00	0	23	0	757071872	71	4300
2026-01-10 23:33:33.61	95.98	44.83	-52.5	-54.5	14.8	0.00e+00	0	23	0	759169024	71	4459
2026-01-10 23:33:34.61	96.52	44.85	-52.7	-54.7	14.7	0.00e+00	0	23	0	760217600	71	4587
2026-01-10 23:33:35.61	97.06	44.86	-52.7	-54.8	14.7	0.00e+00	0	23	0	762314752	71	4628
2026-01-10 23:33:36.61	97.60	44.87	-52.5	-54.5	14.8	0.00e+00	0	23	0	764411904	71	4484
2026-01-10 23:33:37.61	98.14	44.88	-52.2	-54.1	14.9	0.00e+00	0	23	0	766509056	70	4512
2026-01-10 23:33:38.60	98.68	44.88	-51.9	-53.7	15.1	0.00e+00	0	23	0	767557632	70	4334
2026-01-10 23:33:39.60	99.22	44.88	-51.6	-53.4	15.1	0.00e+00	0	23	0	769654784	69	4395
2026-01-10 23:33:40.61	99.76	44.88	-51.9	-53.8	14.9	0.00e+00	0	23	0	771751936	69	4602
2026-01-10 23:33:41.61	100.30	44.88	-52.2	-54.1	14.7	0.00e+00	0	23	0	773849088	69	4794
2026-01-10 23:33:42.61	100.84	44.87	-52.1	-54.0	14.8	0.00e+00	0	23	0	775946240	69	4725
2026-01-10 23:33:43.61	101.38	44.86	-51.6	-53.4	15.1	0.00e+00	0	23	0	776994816	69	4393
2026-01-10 23:33:44.61	101.92	44.85	-51.7	-53.5	15.1	0.00e+00	0	23	0	779091968	69	4447
2026-01-10 23:33:45.61	102.46	44.83	-52.0	-53.8	14.8	0.00e+00	0	23	0	781189120	69	4651
2026-01-10 23:33:46.60	103.00	44.82	-52.5	-54.5	14.7	0.00e+00	0	23	0	783286272	70	4744
2026-01-10 23:33:47.59	103.53	44.80	-52.7	-54.8	14.5	0.00e+00	0	23	0	784334848	70	4895
2026-01-10 23:33:48.59	104.07	44.77	-52.6	-54.6	14.6	0.00e+00	0	23	0	786432000	70	4786
2026-01-10 23:33:49.59	104.60	44.75	-52.2	-54.1	14.9	0.00e+00	0	23	0	788529152	70	4521
2026-01-10 23:33:50.59	105.14	44.72	-52.2	-54.1	14.9	0.00e+00	0	23	0	790626304	70	4520
2026-01-10 23:33:51.59	105.67	44.69	-52.3	-54.2	14.8	0.00e+00	0	23	0	792723456	70	4579
2026-01-10 23:33:52.58	106.20	44.65	-52.0	-53.9	15.1	0.00e+00	0	23	0	793772032	70	4409
2026-01-10 23:33:53.59	106.74	44.62	-52.1	-53.9	15.1	0.00e+00	0	23	0	795869184	70	4425
2026-01-10 23:33:54.59	107.27	44.58	-52.1	-53.9	15.0	0.00e+00	0	23	0	797966336	70	4427
2026-01-10 23:33:55.59	107.80	44.54	-52.7	-54.7	14.6	0.00e+00	0	23	0	800063488	70	4851
2026-01-10 23:33:56.59	108.33	44.49	-53.5	-55.8	14.2	0.00e+00	0	23	0	802160640	72	4901
2026-01-10 23:33:57.58	108.85	44.44	-54.3	-57.0	13.6	0.00e+00	0	23	0	803209216	73	5319
2026-01-10 23:33:58.57	109.37	44.40	-53.9	-56.5	14.0	0.00e+00	0	23	0	805306368	73	5010
2026-01-10 23:33:59.57	109.90	44.34	-53.5	-55.8	14.4	0.00e+00	0	23	0	807403520	73	4651
2026-01-10 23:34:00.57	110.42	44.29	-53.4	-55.7	14.5	0.00e+00	0	23	0	809500672	73	4571
2026-01-10 23:34:01.57	110.94	44.23	-53.7	-56.0	14.2	0.00e+00	0	23	0	811597824	73	4751
2026-01-10 23:34:02.56	111.45	44.17	-53.9	-56.3	14.0	0.00e+00	0	23	0	812646400	73	4924
2026-01-10 23:34:03.55	111.96	44.11	-53.4	-55.7	14.5	0.00e+00	0	23	0	814743552	73	4569
2026-01-10 23:34:04.56	112.48	44.05	-52.5	-54.4	14.9	0.00e+00	0	23	0	816840704	71	4424
2026-01-10 23:34:05.55	112.99	43.98	-52.0	-53.8	15.1	0.00e+00	0	23	0	818937856	70	4348
2026-01-10 23:34:06.54	113.49	43.91	-52.0	-53.9	15.0	0.00e+00	0	23	0	819986432	70	4395
2026-01-10 23:34:07.54	114.00	43.84	-52.4	-54.3	14.8	0.00e+00	0	23	0	822083584	70	4638
2026-01-10 23:34:08.53	114.50	43.77	-53.2	-55.4	14.3	0.00e+00	0	23	0	824180736	71	4968
2026-01-10 23:34:09.53	115.01	43.69	-53.3	-55.5	14.3	0.00e+00	0	23	0	826277888	71	5027
2026-01-10 23:34:10.54	115.51	43.61	-53.0	-55.2	14.4	0.00e+00	0	23	0	828375040	71	4842
2026-01-10 23:34:11.53	116.01	43.53	-53.1	-55.3	14.4	0.00e+00	0	23	0	829423616	71	4912
2026-01-10 23:34:12.53	116.50	43.45	-53.2	-55.5	14.3	0.00e+00	0	23	0	831520768	71	4994
2026-01-10 23:34:13.52	116.99	43.37	-53.4	-55.7	14.2	0.00e+00	0	23	0	833617920	72	4863
2026-01-10 23:34:14.52	117.48	43.28	-53.3	-55.6	14.3	0.00e+00	0	23	0	835715072	72	4786
2026-01-10 23:34:15.51	117.97	43.19	-52.7	-54.7	14.9	0.00e+00	0	23	0	836763648	72	4322
2026-01-10 23:34:16.50	118.45	43.10	-51.6	-53.3	15.1	0.00e+00	0	23	0	838860800	69	4384
2026-01-10 23:34:17.50	118.93	43.01	-51.4	-53.1	15.2	0.00e+00	0	23	0	840957952	69	4262
2026-01-10 23:34:18.49	119.41	42.91	-51.7	-53.4	15.1	0.00e+00	0	23	0	843055104	69	4416
2026-01-10 23:34:19.48	119.88	42.82	-52.0	-53.9	14.9	0.00e+00	0	23	0	845152256	69	4655
2026-01-10 23:34:20.48	120.35	42.72	-51.5	-53.2	15.2	0.00e+00	0	23	0	846200832	69	4336
2026-01-10 23:34:21.48	120.83	42.62	-50.8	-52.4	15.4	0.00e+00	0	23	0	848297984	68	4155
2026-01-10 23:34:22.48	121.29	42.52	-50.4	-51.9	15.5	0.00e+00	0	23	0	850395136	67	4161
2026-01-10 23:34:23.49	121.77	42.41	-50.7	-52.2	15.3	0.00e+00	0	23	0	852492288	67	4333
2026-01-10 23:34:24.48	122.22	42.31	-51.6	-53.3	15.0	0.00e+00	0	23	0	853540864	68	4634
2026-01-10 23:34:25.49	122.69	42.20	-52.0	-54.0	14.9	0.00e+00	0	23	0	855638016	69	4706
2026-01-10 23:34:26.49	123.14	42.09	-51.4	-53.0	15.3	0.00e+00	0	23	0	857735168	69	4242
2026-01-10 23:34:27.49	123.60	41.98	-50.1	-51.6	15.4	0.00e+00	0	23	0	859832320	66	4252
2026-01-10 23:34:28.49	124.05	41.86	-50.1	-51.6	15.5	0.00e+00	0	23	0	861929472	66	4274
2026-01-10 23:34:29.49	124.50	41.75	-50.5	-52.1	15.2	0.00e+00	0	23	0	862978048	66	4531
2026-01-10 23:34:30.48	124.94	41.63	-51.1	-52.8	15.1	0.00e+00	0	23	0	865075200	67	4646
2026-01-10 23:34:31.48	125.38	41.52	-50.7	-52.3	15.3	0.00e+00	0	23	0	867172352	67	4353
2026-01-10 23:34:32.49	125.82	41.40	-49.9	-51.4	15.6	0.00e+00	0	23	0	869269504	66	4148
2026-01-10 23:34:33.49	126.26	41.28	-49.7	-51.2	15.7	0.00e+00	0	23	0	871366656	66	4070
2026-01-10 23:34:34.49	126.69	41.16	-50.1	-51.7	15.4	0.00e+00	0	23	0	872415232	66	4295
2026-01-10 23:34:35.48	127.11	41.03	-50.5	-52.1	15.2	0.00e+00	0	23	0	874512384	66	4537
2026-01-10 23:34:36.49	127.54	40.91	-50.2	-51.7	15.4	0.00e+00	0	23	0	876609536	66	4340
2026-01-10 23:34:37.48	127.96	40.78	-49.8	-51.3	15.6	0.00e+00	0	23	0	878706688	66	4107
2026-01-10 23:34:38.48	128.38	40.66	-49.6	-51.1	15.5	0.00e+00	0	23	0	879755264	65	4264
2026-01-10 23:34:39.48	128.79	40.53	-49.9	-51.4	15.4	0.00e+00	0	23	0	881852416	65	4435
2026-01-10 23:34:40.47	129.20	40.40	-50.5	-52.0	15.2	0.00e+00	0	23	0	883949568	66	4483
2026-01-10 23:34:41.47	129.61	40.27	-50.8	-52.5	15.0	0.00e+00	0	23	0	886046720	66	4733
2026-01-10 23:34:42.47	130.02	40.14	-51.1	-52.8	15.0	0.00e+00	0	23	0	888143872	67	4646
2026-01-10 23:34:43.47	130.42	40.01	-50.9	-52.5	15.1	0.00e+00	0	23	0	889192448	67	4487
2026-01-10 23:34:44.47	130.82	39.87	-50.9	-52.6	15.2	0.00e+00	0	23	0	891289600	67	4502
2026-01-10 23:34:45.47	131.22	39.74	-51.0	-52.7	15.1	0.00e+00	0	23	0	893386752	67	4563
2026-01-10 23:34:46.47	131.61	39.60	-51.1	-52.8	15.0	0.00e+00	0	23	0	895483904	67	4636
2026-01-10 23:34:47.44	131.99	39.47	-51.0	-52.7	15.1	0.00e+00	0	23	0	897581056	67	4547
2026-01-10 23:34:48.44	132.37	39.33	-50.8	-52.4	15.2	0.00e+00	0	23	0	898629632	67	4407
2026-01-10 23:34:49.44	132.76	39.19	-50.9	-52.6	15.1	0.00e+00	0	23	0	900726784	67	4501
2026-01-10 23:34:50.43	133.13	39.06	-51.2	-53.0	15.0	0.00e+00	0	23	0	902823936	67	4711
2026-01-10 23:34:51.43	133.51	38.92	-51.7	-53.5	14.9	0.00e+00	0	23	0	904921088	68	4721
2026-01-10 23:34:52.43	133.88	38.78	-51.5	-53.2	15.0	0.00e+00	0	23	0	905969664	68	4589
2026-01-10 23:34:53.42	134.25	38.64	-51.2	-52.9	15.2	0.00e+00	0	23	0	908066816	68	4424
2026-01-10 23:34:54.42	134.62	38.49	-51.5	-53.3	15.0	0.00e+00	0	23	0	910163968	68	4606
2026-01-10 23:34:55.43	134.99	38.35	-52.3	-54.2	14.6	0.00e+00	0	23	0	912261120	69	4866
2026-01-10 23:34:56.43	135.35	38.21	-52.8	-55.0	14.4	0.00e+00	0	23	0	914358272	70	5017
2026-01-10 23:34:57.43	135.71	38.06	-52.6	-54.7	14.7	0.00e+00	0	23	0	915406848	71	4556
2026-01-10 23:34:58.42	136.06	37.92	-52.0	-53.9	15.0	0.00e+00	0	23	0	917504000	70	4413
2026-01-10 23:34:59.42	136.41	37.77	-51.4	-53.1	15.2	0.00e+00	0	23	0	919601152	69	4286
2026-01-10 23:35:00.42	136.76	37.63	-50.9	-52.5	15.4	0.00e+00	0	23	0	921698304	68	4214
2026-01-10 23:35:01.42	137.10	37.48	-50.9	-52.5	15.4	0.00e+00	0	23	0	923795456	68	4231
2026-01-10 23:35:02.42	137.45	37.33	-51.5	-53.3	14.9	0.00e+00	0	23	0	924844032	68	4630
2026-01-10 23:35:03.42	137.79	37.19	-51.8	-53.6	15.0	0.00e+00	0	23	0	926941184	69	4526
2026-01-10 23:35:04.42	138.12	37.04	-51.5	-53.2	15.1	0.00e+00	0	23	0	929038336	69	4317
2026-01-10 23:35:05.41	138.45	36.89	-50.7	-52.2	15.5	0.00e+00	0	23	0	931135488	68	4097
2026-01-10 23:35:06.41	138.78	36.74	-50.1	-51.5	15.5	0.00e+00	0	23	0	932184064	66	4239
2026-01-10 23:35:07.41	139.11	36.60	-50.4	-52.0	15.2	0.00e+00	0	23	0	934281216	66	4448
2026-01-10 23:35:08.40	139.43	36.45	-51.6	-53.4	14.9	0.00e+00	0	23	0	936378368	68	4687
2026-01-10 23:35:09.40	139.76	36.30	-52.5	-54.5	14.6	0.00e+00	0	23	0	938475520	70	4746
2026-01-10 23:35:10.40	140.08	36.15	-52.2	-54.1	14.8	0.00e+00	0	23	0	940572672	70	4532
2026-01-10 23:35:11.38	140.38	36.00	-51.5	-53.3	15.1	0.00e+00	0	23	0	941621248	69	4344
2026-01-10 23:35:12.38	140.70	35.85	-51.4	-53.1	15.2	0.00e+00	0	23	0	943718400	69	4268
2026-01-10 23:35:13.38	141.01	35.70	-51.5	-53.2	15.2	0.00e+00	0	23	0	945815552	69	4298
2026-01-10 23:35:14.38	141.32	35.55	-52.0	-53.9	14.8	0.00e+00	0	23	0	947912704	69	4671
2026-01-10 23:35:15.37	141.62	35.40	-53.0	-55.2	14.4	0.00e+00	0	23	0	948961280	71	4837
2026-01-10 23:35:16.37	141.92	35.25	-53.4	-55.8	14.2	0.00e+00	0	23	0	951058432	72	4893
2026-01-10 23:35:17.37	142.22	35.10	-52.7	-54.8	14.8	0.00e+00	0	23	0	953155584	72	4368
2026-01-10 23:35:18.37	142.52	34.95	-51.6	-53.3	15.2	0.00e+00	0	23	0	955252736	69	4380
2026-01-10 23:35:19.36	142.81	34.80	-50.8	-52.4	15.4	0.00e+00	0	23	0	957349888	68	4172
2026-01-10 23:35:20.36	143.10	34.65	-50.2	-51.7	15.6	0.00e+00	0	23	0	958398464	67	4093
2026-01-10 23:35:21.36	143.39	34.49	-50.3	-51.9	15.3	0.00e+00	0	23	0	960495616	66	4394
2026-01-10 23:35:22.36	143.68	34.34	-51.3	-53.1	14.8	0.00e+00	0	23	0	962592768	67	4790
2026-01-10 23:35:23.36	143.96	34.19	-53.1	-55.3	14.3	0.00e+00	0	23	0	964689920	71	4920
2026-01-10 23:35:24.35	144.24	34.04	-53.4	-55.8	14.1	0.00e+00	0	23	0	966787072	72	4884
2026-01-10 23:35:25.35	144.52	33.89	-52.6	-54.6	14.7	0.00e+00	0	23	0	967835648	71	4527
2026-01-10 23:35:26.35	144.79	33.74	-51.7	-53.5	15.2	0.00e+00	0	23	0	969932800	70	4226
2026-01-10 23:35:27.35	145.07	33.59	-51.3	-53.0	15.3	0.00e+00	0	23	0	972029952	69	4195
2026-01-10 23:35:28.35	145.34	33.43	-51.6	-53.3	15.1	0.00e+00	0	23	0	974127104	69	4377
2026-01-10 23:35:29.35	145.61	33.28	-52.6	-54.6	14.6	0.00e+00	0	23	0	976224256	70	4802
2026-01-10 23:35:30.35	145.87	33.13	-53.8	-56.5	13.8	0.00e+00	0	23	0	977272832	72	5305
2026-01-10 23:35:31.36	146.14	32.98	-54.4	-57.3	13.4	0.00e+00	0	23	0	979369984	73	5503
2026-01-10 23:35:32.36	146.40	32.83	-54.0	-56.7	13.9	0.00e+00	0	23	0	981467136	74	4850
2026-01-10 23:35:33.36	146.66	32.68	-53.3	-55.5	14.5	0.00e+00	0	23	0	983564288	73	4487
2026-01-10 23:35:34.36	146.91	32.52	-52.6	-54.6	14.7	0.00e+00	0	23	0	984612864	71	4518
2026-01-10 23:35:35.35	147.17	32.37	-52.2	-54.1	15.0	0.00e+00	0	23	0	986710016	71	4288
2026-01-10 23:35:36.35	147.42	32.22	-51.7	-53.5	15.2	0.00e+00	0	23	0	988807168	70	4213
2026-01-10 23:35:37.34	147.67	32.07	-52.2	-54.1	14.9	0.00e+00	0	23	0	990904320	70	4500
2026-01-10 23:35:38.34	147.91	31.92	-53.2	-55.5	14.2	0.00e+00	0	23	0	993001472	71	5000
2026-01-10 23:35:39.34	148.16	31.77	-54.3	-57.2	13.4	0.00e+00	0	23	0	994050048	73	5411
2026-01-10 23:35:40.34	148.40	31.62	-54.5	-57.5	13.4	0.00e+00	0	23	0	996147200	74	5291
2026-01-10 23:35:41.35	148.64	31.47	-53.7	-56.1	14.2	0.00e+00	0	23	0	998244352	74	4542
2026-01-10 23:35:42.35	148.88	31.32	-52.6	-54.7	14.7	0.00e+00	0	23	0	1000341504	71	4548
2026-01-10 23:35:43.35	149.12	31.17	-52.1	-54.0	14.9	0.00e+00	0	23	0	1002438656	70	4449
2026-01-10 23:35:44.36	149.36	31.02	-51.6	-53.4	15.1	0.00e+00	0	23	0	1003487232	69	4394
2026-01-10 23:35:45.36	149.59	30.87	-51.9	-53.8	14.9	0.00e+00	0	23	0	1005584384	69	4616
2026-01-10 23:35:46.36	149.82	30.73	-52.8	-54.9	14.4	0.00e+00	0	23	0	1007681536	70	4978
2026-01-10 23:35:47.35	150.05	30.58	-53.8	-56.4	13.8	0.00e+00	0	23	0	1009778688	72	5233
2026-01-10 23:35:48.35	150.27	30.43	-55.0	-58.4	12.8	0.00e+00	0	23	0	1010827264	75	5532
2026-01-10 23:35:49.35	150.50	30.28	-55.2	-58.8	12.5	2.20e-06	0	23	0	1012924416	75	5801
2026-01-10 23:35:50.35	150.72	30.14	-54.3	-57.1	13.7	0.00e+00	0	23	0	1015021568	75	4793
2026-01-10 23:35:51.35	150.94	29.99	-53.2	-55.6	14.4	0.00e+00	0	23	0	1017118720	73	4503
2026-01-10 23:35:52.34	151.15	29.84	-52.5	-54.5	14.8	0.00e+00	0	23	0	1019215872	71	4491
2026-01-10 23:35:53.34	151.37	29.70	-51.9	-53.7	15.0	0.00e+00	0	23	0	1020264448	70	4338
2026-01-10 23:35:54.34	151.58	29.55	-51.6	-53.4	15.1	0.00e+00	0	23	0	1022361600	69	4395
2026-01-10 23:35:55.34	151.80	29.41	-51.3	-53.0	15.3	0.00e+00	0	23	0	1024458752	69	4217
2026-01-10 23:35:56.34	152.01	29.26	-51.6	-53.4	15.0	0.00e+00	0	23	0	1026555904	69	4424
2026-01-10 23:35:57.33	152.21	29.12	-52.1	-54.1	14.7	0.00e+00	0	23	0	1028653056	69	4790
2026-01-10 23:35:58.33	152.42	28.97	-53.0	-55.2	14.2	0.00e+00	0	23	0	1029701632	71	4859
2026-01-10 23:35:59.33	152.63	28.83	-53.2	-55.6	14.1	0.00e+00	0	23	0	1031798784	71	5053
2026-01-10 23:36:00.33	152.83	28.68	-53.1	-55.4	14.2	0.00e+00	0	23	0	1033895936	71	4954
2026-01-10 23:36:01.33	153.03	28.54	-52.8	-55.0	14.5	0.00e+00	0	23	0	1035993088	71	4713
2026-01-10 23:36:02.33	153.23	28.40	-52.3	-54.3	14.9	0.00e+00	0	23	0	1037041664	71	4364
2026-01-10 23:36:03.33	153.43	28.25	-52.1	-54.0	14.9	0.00e+00	0	23	0	1039138816	70	4471
2026-01-10 23:36:04.32	153.62	28.11	-51.8	-53.6	15.1	0.00e+00	0	23	0	1041235968	70	4272
2026-01-10 23:36:05.32	153.82	27.97	-51.8	-53.7	15.1	0.00e+00	0	23	0	1043333120	70	4312
2026-01-10 23:36:06.32	154.01	27.83	-52.0	-54.0	14.9	0.00e+00	0	23	0	1045430272	70	4445
2026-01-10 23:36:07.33	154.20	27.68	-52.3	-54.3	14.7	0.00e+00	0	23	0	1046478848	70	4601
2026-01-10 23:36:08.32	154.39	27.54	-52.4	-54.4	14.6	0.00e+00	0	23	0	1048576000	70	4702
2026-01-10 23:36:09.32	154.58	27.40	-52.6	-54.7	14.4	0.00e+00	0	23	0	1050673152	70	4834
2026-01-10 23:36:10.32	154.77	27.26	-52.5	-54.6	14.5	0.00e+00	0	23	0	1052770304	70	4785
2026-01-10 23:36:11.31	154.95	27.13	-52.1	-54.1	14.8	0.00e+00	0	23	0	1054867456	70	4526
2026-01-10 23:36:12.31	155.13	26.99	-52.1	-54.0	14.9	0.00e+00	0	23	0	1055916032	70	4468
2026-01-10 23:36:13.31	155.32	26.85	-51.8	-53.6	15.1	0.00e+00	0	23	0	1058013184	70	4270
2026-01-10 23:36:14.31	155.50	26.71	-51.0	-52.7	15.2	0.00e+00	0	23	0	1060110336	68	4305
2026-01-10 23:36:15.30	155.67	26.57	-50.8	-52.4	15.4	0.00e+00	0	23	0	1062207488	68	4172
2026-01-10 23:36:16.30	155.85	26.43	-50.7	-52.3	15.4	0.00e+00	0	23	0	1063256064	68	4142
2026-01-10 23:36:17.29	156.02	26.30	-50.6	-52.2	15.3	0.00e+00	0	23	0	1065353216	67	4309
2026-01-10 23:36:18.30	156.20	26.16	-50.8	-52.5	15.1	0.00e+00	0	23	0	1067450368	67	4473
2026-01-10 23:36:19.29	156.37	26.02	-51.1	-52.9	15.0	0.00e+00	0	23	0	1069547520	67	4659
2026-01-10 23:36:20.29	156.54	25.89	-51.6	-53.4	14.9	0.00e+00	0	23	0	1071644672	68	4692
2026-01-10 23:36:21.30	156.72	25.75	-52.0	-53.9	14.8	0.00e+00	0	23	0	1072693248	69	4688
2026-01-10 23:36:22.29	156.88	25.62	-52.0	-53.9	14.8	0.00e+00	0	23	0	1074790400	69	4668
2026-01-10 23:36:23.28	157.05	25.48	-52.1	-54.0	14.7	0.00e+00	0	23	0	1076887552	69	4755
2026-01-10 23:36:24.29	157.22	25.35	-51.9	-53.8	14.7	0.00e+00	0	23	0	1078984704	69	4619
2026-01-10 23:36:25.29	157.38	25.21	-51.8	-53.6	14.9	0.00e+00	0	23	0	1081081856	69	4528
2026-01-10 23:36:26.29	157.54	25.08	-51.6	-53.5	15.0	0.00e+00	0	23	0	1082130432	69	4451
2026-01-10 23:36:27.28	157.70	24.95	-51.4	-53.2	15.1	0.00e+00	0	23	0	1084227584	69	4322
2026-01-10 23:36:28.28	157.86	24.82	-51.4	-53.1	15.2	0.00e+00	0	23	0	1086324736	69	4280
2026-01-10 23:36:29.28	158.02	24.68	-51.3	-53.1	15.2	0.00e+00	0	23	0	1088421888	69	4250
2026-01-10 23:36:30.28	158.18	24.55	-51.2	-52.9	15.3	0.00e+00	0	23	0	1089470464	69	4176
2026-01-10 23:36:31.28	158.34	24.42	-51.3	-53.0	15.2	0.00e+00	0	23	0	1091567616	69	4214
2026-01-10 23:36:32.28	158.49	24.29	-51.3	-53.0	15.2	0.00e+00	0	23	0	1093664768	69	4230
2026-01-10 23:36:33.28	158.65	24.16	-51.5	-53.2	15.1	0.00e+00	0	23	0	1095761920	69	4331
2026-01-10 23:36:34.29	158.80	24.03	-51.3	-53.1	15.2	0.00e+00	0	23	0	1097859072	69	4262
2026-01-10 23:36:35.29	158.95	23.90	-51.5	-53.3	15.1	0.00e+00	0	23	0	1098907648	69	4365
2026-01-10 23:36:36.28	159.10	23.77	-51.6	-53.5	15.0	0.00e+00	0	23	0	1101004800	69	4449
2026-01-10 23:36:37.28	159.25	23.64	-51.7	-53.6	14.9	0.00e+00	0	23	0	1103101952	69	4506
2026-01-10 23:36:38.28	159.40	23.51	-52.0	-53.9	14.7	0.00e+00	0	23	0	1105199104	69	4697
2026-01-10 23:36:39.27	159.55	23.39	-52.1	-54.1	14.6	0.00e+00	0	23	0	1106247680	69	4813
2026-01-10 23:36:40.26	159.69	23.26	-52.3	-54.3	14.5	0.00e+00	0	23	0	1108344832	69	4923
2026-01-10 23:36:41.25	159.83	23.14	-52.5	-54.7	14.5	0.00e+00	0	23	0	1110441984	70	4825
2026-01-10 23:36:42.25	159.98	23.01	-52.4	-54.4	14.6	0.00e+00	0	23	0	1112539136	70	4691
2026-01-10 23:36:43.25	160.12	22.88	-52.4	-54.4	14.6	0.00e+00	0	23	0	1114636288	70	4704
2026-01-10 23:36:44.25	160.26	22.76	-52.0	-53.9	14.9	0.00e+00	0	23	0	1115684864	70	4430
2026-01-10 23:36:45.25	160.40	22.63	-51.8	-53.7	15.0	0.00e+00	0	23	0	1117782016	70	4320
2026-01-10 23:36:46.25	160.54	22.51	-51.6	-53.4	15.0	0.00e+00	0	23	0	1119879168	69	4433
2026-01-10 23:36:47.25	160.68	22.38	-51.5	-53.3	15.0	0.00e+00	0	23	0	1121976320	69	4364
2026-01-10 23:36:48.25	160.81	22.26	-51.5	-53.3	15.1	0.00e+00	0	23	0	1124073472	69	4343
2026-01-10 23:36:49.24	160.95	22.14	-51.6	-53.5	15.0	0.00e+00	0	23	0	1125122048	69	4442
2026-01-10 23:36:50.24	161.08	22.01	-51.6	-53.4	15.0	0.00e+00	0	23	0	1127219200	69	4422
2026-01-10 23:36:51.25	161.22	21.89	-51.7	-53.6	14.9	0.00e+00	0	23	0	1129316352	69	4518
2026-01-10 23:36:52.25	161.35	21.77	-51.8	-53.7	14.8	0.00e+00	0	23	0	1131413504	69	4566
2026-01-10 23:36:53.25	161.48	21.65	-51.8	-53.7	14.9	0.00e+00	0	23	0	1133510656	69	4570
2026-01-10 23:36:54.25	161.62	21.53	-51.8	-53.7	14.8	0.00e+00	0	23	0	1134559232	69	4567
2026-01-10 23:36:55.24	161.74	21.41	-51.8	-53.6	14.9	0.00e+00	0	23	0	1136656384	69	4530
2026-01-10 23:36:56.25	161.87	21.28	-51.6	-53.4	15.0	0.00e+00	0	23	0	1138753536	69	4415
2026-01-10 23:36:57.25	162.00	21.16	-51.6	-53.4	15.0	0.00e+00	0	23	0	1140850688	69	4432
2026-01-10 23:36:58.25	162.13	21.05	-51.6	-53.5	15.0	0.00e+00	0	23	0	1141899264	69	4451
2026-01-10 23:36:59.25	162.26	20.93	-51.5	-53.3	15.1	0.00e+00	0	23	0	1143996416	69	4342
2026-01-10 23:37:00.25	162.38	20.81	-51.4	-53.2	15.1	0.00e+00	0	23	0	1146093568	69	4318
2026-01-10 23:37:01.25	162.50	20.69	-51.3	-53.1	15.2	0.00e+00	0	23	0	1148190720	69	4253
2026-01-10 23:37:02.25	162.63	20.57	-51.4	-53.2	15.1	0.00e+00	0	23	0	1150287872	69	4318
2026-01-10 23:37:03.25	162.75	20.45	-51.5	-53.3	15.1	0.00e+00	0	23	0	1151336448	69	4362
2026-01-10 23:37:04.25	162.87	20.34	-51.5	-53.3	15.0	0.00e+00	0	23	0	1153433600	69	4361
2026-01-10 23:37:05.24	162.99	20.22	-51.6	-53.5	14.9	0.00e+00	0	23	0	1155530752	69	4450
2026-01-10 23:37:06.24	163.11	20.11	-51.7	-53.6	14.9	0.00e+00	0	23	0	1157627904	69	4504
2026-01-10 23:37:07.25	163.23	19.99	-51.8	-53.7	14.9	0.00e+00	0	23	0	1159725056	69	4558
2026-01-10 23:37:08.25	163.35	19.87	-51.8	-53.6	14.8	0.00e+00	0	23	0	1160773632	69	4543
2026-01-10 23:37:09.25	163.47	19.76	-51.8	-53.7	14.8	0.00e+00	0	23	0	1162870784	69	4595
2026-01-10 23:37:10.24	163.58	19.65	-51.8	-53.7	14.8	0.00e+00	0	23	0	1164967936	69	4576
2026-01-10 23:37:11.24	163.70	19.53	-51.9	-53.8	14.8	0.00e+00	0	23	0	1167065088	69	4616
2026-01-10 23:37:12.23	163.81	19.42	-52.0	-54.0	14.5	0.00e+00	0	23	0	1168113664	69	4716
2026-01-10 23:37:13.23	163.93	19.31	-52.0	-53.9	14.7	0.00e+00	0	23	0	1170210816	69	4699
2026-01-10 23:37:14.23	164.04	19.19	-52.0	-54.1	14.6	0.00e+00	0	23	0	1172307968	69	4773
2026-01-10 23:37:15.23	164.15	19.08	-52.0	-54.0	14.6	0.00e+00	0	23	0	1174405120	69	4748
2026-01-10 23:37:16.22	164.26	18.97	-52.1	-54.1	14.6	0.00e+00	0	23	0	1176502272	69	4778
2026-01-10 23:37:17.21	164.37	18.86	-52.2	-54.3	14.5	0.00e+00	0	23	0	1177550848	69	4881
2026-01-10 23:37:18.21	164.48	18.75	-52.2	-54.3	14.5	0.00e+00	0	23	0	1179648000	69	4923
2026-01-10 23:37:19.21	164.59	18.64	-52.2	-54.3	14.5	0.00e+00	0	23	0	1181745152	69	4879
2026-01-10 23:37:20.20	164.70	18.53	-52.2	-54.3	14.5	0.00e+00	0	23	0	1183842304	69	4879
2026-01-10 23:37:21.21	164.81	18.42	-52.2	-54.2	14.5	0.00e+00	0	23	0	1185939456	69	4853
2026-01-10 23:37:22.20	164.91	18.31	-52.1	-54.1	14.6	0.00e+00	0	23	0	1186988032	69	4779
2026-01-10 23:37:23.21	165.02	18.20	-52.0	-54.0	14.6	0.00e+00	0	23	0	1189085184	69	4725
2026-01-10 23:37:24.20	165.12	18.09	-52.0	-54.0	14.6	0.00e+00	0	23	0	1191182336	69	4706
2026-01-10 23:37:25.20	165.23	17.98	-52.0	-54.0	14.7	0.00e+00	0	23	0	1193279488	69	4720
2026-01-10 23:37:26.19	165.33	17.88	-51.9	-53.9	14.7	0.00e+00	0	23	0	1194328064	69	4681
2026-01-10 23:37:27.19	165.43	17.77	-52.0	-54.0	14.6	0.00e+00	0	23	0	1196425216	69	4749
2026-01-10 23:37:28.19	165.54	17.66	-52.0	-54.0	14.7	0.00e+00	0	23	0	1198522368	69	4717
2026-01-10 23:37:29.19	165.64	17.55	-52.1	-54.1	14.6	0.00e+00	0	23	0	1200619520	69	4777
2026-01-10 23:37:30.20	165.74	17.45	-52.1	-54.1	14.6	0.00e+00	0	23	0	1202716672	69	4781
2026-01-10 23:37:31.20	165.84	17.34	-51.9	-53.9	14.7	0.00e+00	0	23	0	1203765248	69	4687
2026-01-10 23:37:32.20	165.94	17.23	-52.0	-54.0	14.7	0.00e+00	0	23	0	1205862400	69	4718
2026-01-10 23:37:33.20	166.04	17.13	-51.9	-53.9	14.7	0.00e+00	0	23	0	1207959552	69	4653
2026-01-10 23:37:34.20	166.14	17.02	-52.0	-54.0	14.6	0.00e+00	0	23	0	1210056704	69	4736
2026-01-10 23:37:35.20	166.24	16.92	-52.0	-54.0	14.7	0.00e+00	0	23	0	1212153856	69	4714
2026-01-10 23:37:36.19	166.33	16.82	-51.9	-53.9	14.7	0.00e+00	0	23	0	1213202432	69	4668
2026-01-10 23:37:37.19	166.43	16.71	-51.9	-53.9	14.7	0.00e+00	0	23	0	1215299584	69	4694
2026-01-10 23:37:38.19	166.53	16.61	-51.9	-53.9	14.6	0.00e+00	0	23	0	1217396736	69	4695
2026-01-10 23:37:39.19	166.62	16.51	-51.8	-53.7	14.8	0.00e+00	0	23	0	1219493888	69	4572
2026-01-10 23:37:40.19	166.72	16.40	-51.7	-53.6	14.8	0.00e+00	0	23	0	1220542464	69	4534
2026-01-10 23:37:41.19	166.81	16.30	-51.7	-53.6	14.8	0.00e+00	0	23	0	1222639616	69	4530
2026-01-10 23:37:42.19	166.90	16.20	-51.7	-53.6	14.8	0.00e+00	0	23	0	1224736768	69	4506
2026-01-10 23:37:43.19	167.00	16.10	-51.7	-53.6	14.8	0.00e+00	0	23	0	1226833920	69	4505
2026-01-10 23:37:44.19	167.09	16.00	-51.7	-53.7	14.8	0.00e+00	0	23	0	1228931072	69	4556
2026-01-10 23:37:45.19	167.18	15.89	-51.7	-53.6	14.8	0.00e+00	0	23	0	1229979648	69	4528
2026-01-10 23:37:46.18	167.27	15.79	-51.8	-53.7	14.8	0.00e+00	0	23	0	1232076800	69	4573
2026-01-10 23:37:47.18	167.36	15.69	-51.8	-53.7	14.8	0.00e+00	0	23	0	1234173952	69	4582
2026-01-10 23:37:48.18	167.45	15.59	-51.8	-53.8	14.7	0.00e+00	0	23	0	1236271104	69	4628
2026-01-10 23:37:49.18	167.54	15.49	-51.8	-53.7	14.8	0.00e+00	0	23	0	1237319680	69	4596
2026-01-10 23:37:50.19	167.63	15.39	-51.9	-53.8	14.7	0.00e+00	0	23	0	1239416832	69	4648
2026-01-10 23:37:51.19	167.72	15.30	-52.0	-54.0	14.6	0.00e+00	0	23	0	1241513984	69	4737
2026-01-10 23:37:52.19	167.81	15.20	-52.0	-54.1	14.6	0.00e+00	0	23	0	1243611136	69	4765
2026-01-10 23:37:53.19	167.90	15.10	-52.1	-54.2	14.5	0.00e+00	0	23	0	1245708288	69	4854
2026-01-10 23:37:54.19	167.98	15.00	-52.3	-54.4	14.4	0.00e+00	0	23	0	1247805440	69	4945
2026-01-10 23:37:55.19	168.07	14.90	-52.3	-54.5	14.4	0.00e+00	0	23	0	1248854016	69	4988
2026-01-10 23:37:56.18	168.15	14.81	-52.4	-54.6	14.3	0.00e+00	0	23	0	1250951168	69	5088
2026-01-10 23:37:57.17	168.24	14.71	-52.5	-54.7	14.4	0.00e+00	0	23	0	1253048320	70	4835
2026-01-10 23:37:58.17	168.32	14.61	-52.6	-54.8	14.3	0.00e+00	0	23	0	1255145472	70	4926
2026-01-10 23:37:59.17	168.41	14.52	-52.6	-54.8	14.3	0.00e+00	0	23	0	1256194048	70	4918
2026-01-10 23:38:00.18	168.49	14.42	-52.6	-54.8	14.3	0.00e+00	0	23	0	1258291200	70	4901
2026-01-10 23:38:01.18	168.57	14.33	-52.5	-54.8	14.3	0.00e+00	0	23	0	1260388352	70	4881
