passes_logs/2026/01/10/R3.2S_Murmansk/R3.2S_Murmansk__20260110_034520_FENGYUN_3D_rec.log

#Pass ID: 20260110_034520_FENGYUN 3D
#Satellite: FENGYUN 3D
#Configuration: FENGYUN 3D
#almurnet v.1.7.20251203
#Start time: 2026-01-10 03:45:21

#Version: 2.2.20231116
#Station: R3.2S_Murmansk
#Location: 33.079688 lon 68.888172 lat
#TLE: 1 43010U 17072A   26009.29492227  .00000158  00000+0  96483-4 0  9996
#TLE: 2 43010  98.9936 341.0229 0002153 117.3665 242.7729 14.19694440422446

#Time	Az	El	Level	Level2	SNR	BER	BlckErr	Temp	State	Recorded	gain1	gain2
2026-01-10 03:45:21.42	29.61	2.04	-57.0	-69.9	3.8	8.46e-01	0	21	0	0	80	15753
2026-01-10 03:45:22.41	29.59	2.10	-56.9	-69.9	3.8	8.45e-01	0	21	104	0	78	17532
2026-01-10 03:45:23.42	29.57	2.17	-56.9	-69.9	3.8	8.47e-01	0	21	104	0	78	17627
2026-01-10 03:45:24.42	29.55	2.23	-56.9	-69.9	3.8	8.45e-01	0	21	104	0	78	17488
2026-01-10 03:45:25.42	29.53	2.30	-56.9	-69.9	3.8	8.47e-01	0	21	104	0	78	17560
2026-01-10 03:45:26.42	29.51	2.36	-56.9	-69.9	3.8	8.45e-01	0	22	104	0	78	17548
2026-01-10 03:45:27.42	29.49	2.42	-56.9	-69.9	3.8	8.45e-01	0	21	104	0	78	17505
2026-01-10 03:45:28.43	29.47	2.49	-56.9	-69.8	3.8	8.45e-01	0	21	104	0	78	17430
2026-01-10 03:45:29.43	29.45	2.55	-56.9	-69.8	3.8	8.45e-01	0	21	104	0	78	17417
2026-01-10 03:45:30.44	29.43	2.62	-56.9	-69.8	3.8	8.46e-01	0	22	104	0	78	17441
2026-01-10 03:45:31.44	29.40	2.68	-56.9	-69.9	3.8	8.46e-01	0	22	104	0	78	17485
2026-01-10 03:45:32.45	29.38	2.75	-56.9	-69.8	3.8	8.46e-01	0	21	104	0	78	17333
2026-01-10 03:45:33.45	29.36	2.81	-56.9	-69.7	3.8	8.45e-01	0	22	104	0	78	17158
2026-01-10 03:45:34.46	29.34	2.88	-56.9	-69.6	3.8	8.46e-01	0	21	104	0	78	16907
2026-01-10 03:45:35.46	29.32	2.94	-56.9	-69.4	3.8	8.45e-01	0	22	104	0	78	16621
2026-01-10 03:45:36.47	29.29	3.01	-56.9	-69.3	3.8	8.46e-01	0	22	104	0	78	16350
2026-01-10 03:45:37.47	29.27	3.07	-56.9	-69.2	3.8	8.46e-01	0	22	104	0	78	16199
2026-01-10 03:45:38.47	29.25	3.14	-56.8	-69.0	3.8	8.45e-01	0	22	104	0	78	15822
2026-01-10 03:45:39.47	29.23	3.21	-56.8	-68.9	3.8	8.44e-01	0	22	104	0	78	15613
2026-01-10 03:45:40.47	29.21	3.27	-56.8	-68.7	3.8	8.45e-01	0	22	104	0	78	15380
2026-01-10 03:45:41.48	29.18	3.34	-56.8	-68.5	3.8	8.45e-01	0	22	104	0	78	14946
2026-01-10 03:45:42.48	29.16	3.40	-56.8	-68.3	3.8	8.46e-01	0	22	104	0	78	14707
2026-01-10 03:45:43.49	29.14	3.47	-56.8	-68.2	3.8	8.45e-01	0	22	104	0	78	14449
2026-01-10 03:45:44.48	29.11	3.54	-56.8	-67.9	3.8	8.45e-01	0	22	104	0	78	14030
2026-01-10 03:45:45.47	29.09	3.60	-56.8	-68.1	3.8	8.45e-01	0	22	104	0	78	14260
2026-01-10 03:45:46.47	29.07	3.67	-56.8	-68.3	3.8	8.45e-01	0	22	104	0	78	14612
2026-01-10 03:45:47.48	29.04	3.74	-56.8	-68.5	3.8	8.45e-01	0	22	104	0	78	15048
2026-01-10 03:45:48.48	29.02	3.80	-56.8	-68.7	3.8	8.45e-01	0	22	104	0	78	15288
2026-01-10 03:45:49.48	29.00	3.87	-56.8	-68.5	3.8	8.45e-01	0	22	104	0	78	14953
2026-01-10 03:45:50.47	28.97	3.94	-56.7	-67.7	3.8	8.44e-01	0	22	104	0	78	13656
2026-01-10 03:45:51.47	28.95	4.01	-56.6	-66.1	4.2	8.35e-01	0	22	0	0	78	11352
2026-01-10 03:45:52.47	28.93	4.07	-56.4	-64.4	4.9	8.09e-01	0	22	0	0	78	9363
2026-01-10 03:45:53.48	28.90	4.14	-56.1	-63.2	5.6	6.68e-01	0	22	0	1048576	78	8150
2026-01-10 03:45:54.47	28.88	4.21	-55.8	-61.9	6.6	2.38e-01	0	22	0	6291456	78	7010
2026-01-10 03:45:55.48	28.85	4.28	-55.5	-60.8	7.5	8.95e-02	0	22	0	12582912	77	6529
2026-01-10 03:45:56.47	28.83	4.35	-55.1	-59.7	8.4	4.47e-02	0	22	0	17825792	76	6112
2026-01-10 03:45:57.47	28.80	4.41	-54.7	-58.9	9.2	1.68e-02	0	22	0	23068672	76	5586
2026-01-10 03:45:58.48	28.78	4.48	-54.3	-58.2	9.8	6.23e-03	0	22	0	29360128	75	5403
2026-01-10 03:45:59.47	28.75	4.55	-54.3	-58.1	9.8	5.37e-03	0	22	0	34603008	75	5385
2026-01-10 03:46:00.47	28.73	4.62	-54.1	-57.7	10.2	2.96e-03	0	22	0	40894464	74	5417
2026-01-10 03:46:01.47	28.70	4.69	-54.0	-57.5	10.3	1.83e-03	0	22	0	46137344	74	5298
2026-01-10 03:46:02.47	28.68	4.76	-53.8	-57.2	10.6	1.10e-03	0	22	0	51380224	74	5109
2026-01-10 03:46:03.47	28.65	4.83	-53.9	-57.4	10.3	2.01e-03	0	22	0	57671680	74	5270
2026-01-10 03:46:04.47	28.63	4.90	-54.0	-57.6	10.2	2.57e-03	0	22	0	62914560	74	5373
2026-01-10 03:46:05.48	28.60	4.97	-54.3	-58.1	9.8	3.61e-03	0	22	0	68157440	74	5680
2026-01-10 03:46:06.47	28.57	5.04	-54.2	-57.8	10.1	5.57e-03	0	22	0	74448896	74	5525
2026-01-10 03:46:07.47	28.55	5.11	-55.8	-61.2	7.3	3.35e-01	0	22	0	79691776	77	6819
2026-01-10 03:46:08.47	28.52	5.18	-54.3	-58.1	9.9	2.98e-03	0	22	0	84934656	74	5697
2026-01-10 03:46:09.47	28.50	5.25	-54.7	-58.7	9.2	6.44e-01	0	22	0	89128960	76	5463
2026-01-10 03:46:10.47	28.47	5.32	-53.7	-56.9	11.0	2.20e-06	0	22	0	95420416	72	5538
2026-01-10 03:46:11.48	28.44	5.39	-54.4	-58.2	9.8	1.98e-01	0	22	0	100663296	75	5433
2026-01-10 03:46:12.48	28.42	5.47	-50.0	-51.7	14.2	0.00e+00	0	22	0	106954752	66	4297
2026-01-10 03:46:13.48	28.39	5.54	-49.3	-50.8	14.6	0.00e+00	0	22	0	112197632	65	4116
2026-01-10 03:46:14.48	28.36	5.61	-49.2	-50.8	14.7	0.00e+00	0	22	0	117440512	65	4109
2026-01-10 03:46:15.48	28.33	5.68	-49.2	-50.8	14.6	0.00e+00	0	22	0	123731968	65	4110
2026-01-10 03:46:16.48	28.31	5.75	-49.4	-50.9	14.5	0.00e+00	0	22	0	128974848	65	4192
2026-01-10 03:46:17.48	28.28	5.82	-49.2	-50.7	14.7	0.00e+00	0	23	0	134217728	65	4092
2026-01-10 03:46:18.48	28.25	5.90	-49.1	-50.6	14.6	0.00e+00	0	22	0	140509184	64	4247
2026-01-10 03:46:19.48	28.22	5.97	-49.1	-50.6	14.6	0.00e+00	0	23	0	145752064	64	4248
2026-01-10 03:46:20.48	28.19	6.04	-49.2	-50.7	14.5	0.00e+00	0	22	0	150994944	64	4311
2026-01-10 03:46:21.48	28.17	6.11	-49.1	-50.6	14.6	0.00e+00	0	23	0	157286400	64	4291
2026-01-10 03:46:22.48	28.14	6.19	-49.0	-50.4	14.7	0.00e+00	0	22	0	162529280	64	4172
2026-01-10 03:46:23.49	28.11	6.26	-49.0	-50.5	14.7	0.00e+00	0	23	0	168820736	64	4223
2026-01-10 03:46:24.49	28.08	6.34	-49.0	-50.5	14.7	0.00e+00	0	22	0	174063616	64	4197
2026-01-10 03:46:25.49	28.05	6.41	-49.0	-50.5	14.7	0.00e+00	0	23	0	179306496	64	4211
2026-01-10 03:46:26.50	28.02	6.48	-49.0	-50.5	14.7	0.00e+00	0	23	0	185597952	64	4205
2026-01-10 03:46:27.49	27.99	6.56	-49.0	-50.5	14.7	0.00e+00	0	23	0	190840832	64	4218
2026-01-10 03:46:28.50	27.96	6.63	-48.9	-50.4	14.8	0.00e+00	0	23	0	196083712	64	4161
2026-01-10 03:46:29.50	27.93	6.71	-49.1	-50.6	14.7	0.00e+00	0	23	0	202375168	64	4246
2026-01-10 03:46:30.50	27.90	6.78	-49.1	-50.6	14.6	0.00e+00	0	23	0	207618048	64	4272
2026-01-10 03:46:31.50	27.87	6.86	-48.9	-50.3	14.8	0.00e+00	0	23	0	212860928	64	4128
2026-01-10 03:46:32.50	27.84	6.93	-49.0	-50.5	14.7	0.00e+00	0	23	0	219152384	64	4208
2026-01-10 03:46:33.50	27.81	7.01	-48.8	-50.3	14.8	0.00e+00	0	23	0	224395264	64	4112
2026-01-10 03:46:34.51	27.78	7.08	-48.8	-50.3	14.9	0.00e+00	0	23	0	230686720	64	4109
2026-01-10 03:46:35.51	27.75	7.16	-48.8	-50.2	14.9	0.00e+00	0	23	0	235929600	64	4092
2026-01-10 03:46:36.51	27.72	7.24	-48.7	-50.2	14.9	0.00e+00	0	23	0	242221056	64	4054
2026-01-10 03:46:37.51	27.69	7.31	-48.7	-50.1	14.8	0.00e+00	0	23	0	247463936	63	4289
2026-01-10 03:46:38.51	27.66	7.39	-48.7	-50.2	14.8	0.00e+00	0	23	0	252706816	63	4296
2026-01-10 03:46:39.51	27.63	7.47	-48.6	-50.0	14.8	0.00e+00	0	23	0	257949696	63	4236
2026-01-10 03:46:40.51	27.60	7.54	-48.7	-50.2	14.7	0.00e+00	0	23	0	264241152	63	4301
2026-01-10 03:46:41.50	27.56	7.62	-48.7	-50.1	14.8	0.00e+00	0	23	0	269484032	63	4275
2026-01-10 03:46:42.50	27.53	7.70	-48.7	-50.1	14.8	0.00e+00	0	23	0	274726912	63	4261
2026-01-10 03:46:43.51	27.50	7.77	-48.7	-50.1	14.8	0.00e+00	0	23	0	281018368	63	4265
2026-01-10 03:46:44.50	27.47	7.85	-48.7	-50.2	14.8	0.00e+00	0	23	0	286261248	63	4296
2026-01-10 03:46:45.50	27.43	7.93	-48.6	-50.0	14.9	0.00e+00	0	23	0	292552704	63	4216
2026-01-10 03:46:46.51	27.40	8.01	-48.7	-50.1	14.8	0.00e+00	0	23	0	297795584	63	4272
2026-01-10 03:46:47.51	27.37	8.09	-48.7	-50.1	14.8	0.00e+00	0	23	0	304087040	63	4257
2026-01-10 03:46:48.52	27.34	8.17	-48.6	-50.0	14.9	0.00e+00	0	23	0	309329920	63	4221
2026-01-10 03:46:49.52	27.30	8.25	-48.7	-50.1	14.8	0.00e+00	0	23	0	314572800	63	4261
2026-01-10 03:46:50.51	27.27	8.32	-48.7	-50.1	14.8	0.00e+00	0	23	0	320864256	63	4247
2026-01-10 03:46:51.52	27.23	8.40	-48.5	-49.9	14.9	0.00e+00	0	23	0	326107136	63	4170
2026-01-10 03:46:52.51	27.20	8.48	-48.6	-50.0	14.9	0.00e+00	0	23	0	331350016	63	4198
2026-01-10 03:46:53.52	27.17	8.56	-48.3	-49.6	15.1	0.00e+00	0	23	0	337641472	63	4039
2026-01-10 03:46:54.51	27.13	8.64	-48.4	-49.8	15.0	0.00e+00	0	23	0	342884352	63	4100
2026-01-10 03:46:55.51	27.10	8.72	-48.3	-49.6	15.1	0.00e+00	0	23	0	348127232	63	4050
2026-01-10 03:46:56.51	27.06	8.80	-48.4	-49.7	15.1	0.00e+00	0	23	0	354418688	63	4086
2026-01-10 03:46:57.50	27.03	8.88	-48.3	-49.7	15.1	0.00e+00	0	23	0	359661568	63	4076
2026-01-10 03:46:58.50	26.99	8.97	-48.3	-49.7	15.1	0.00e+00	0	23	0	364904448	63	4075
2026-01-10 03:46:59.50	26.96	9.05	-48.3	-49.7	15.1	0.00e+00	0	23	0	371195904	63	4052
2026-01-10 03:47:00.50	26.92	9.13	-48.3	-49.6	15.1	0.00e+00	0	23	0	376438784	63	4051
2026-01-10 03:47:01.50	26.89	9.21	-48.3	-49.7	15.1	0.00e+00	0	23	0	381681664	63	4054
2026-01-10 03:47:02.51	26.85	9.29	-48.2	-49.5	15.2	0.00e+00	0	23	0	387973120	63	3985
2026-01-10 03:47:03.52	26.81	9.38	-48.1	-49.5	15.0	0.00e+00	0	23	0	393216000	62	4201
2026-01-10 03:47:04.52	26.78	9.46	-48.2	-49.5	15.0	0.00e+00	0	23	0	399507456	62	4219
2026-01-10 03:47:05.52	26.74	9.54	-48.1	-49.4	15.0	0.00e+00	0	23	0	404750336	62	4187
2026-01-10 03:47:06.52	26.70	9.63	-48.0	-49.3	15.1	0.00e+00	0	23	0	409993216	62	4143
2026-01-10 03:47:07.52	26.66	9.71	-48.0	-49.2	15.2	0.00e+00	0	23	0	416284672	62	4097
2026-01-10 03:47:08.53	26.63	9.79	-48.1	-49.4	15.1	0.00e+00	0	23	0	421527552	62	4162
2026-01-10 03:47:09.53	26.59	9.88	-48.0	-49.3	15.1	0.00e+00	0	23	0	427819008	62	4107
2026-01-10 03:47:10.53	26.55	9.96	-48.0	-49.3	15.2	0.00e+00	0	23	0	433061888	62	4099
2026-01-10 03:47:11.54	26.51	10.05	-48.0	-49.3	15.1	0.00e+00	0	23	0	438304768	62	4099
2026-01-10 03:47:12.53	26.47	10.13	-47.9	-49.2	15.2	0.00e+00	0	23	0	444596224	62	4052
2026-01-10 03:47:13.54	26.43	10.22	-48.0	-49.3	15.2	0.00e+00	0	23	0	449839104	62	4107
2026-01-10 03:47:14.55	26.40	10.31	-47.9	-49.2	15.2	0.00e+00	0	23	0	455081984	62	4069
2026-01-10 03:47:15.55	26.36	10.39	-47.7	-49.0	15.3	0.00e+00	0	23	0	461373440	62	3985
2026-01-10 03:47:16.55	26.32	10.48	-47.9	-49.2	15.2	0.00e+00	0	23	0	466616320	62	4078
2026-01-10 03:47:17.55	26.28	10.56	-47.7	-49.0	15.3	0.00e+00	0	23	0	471859200	62	3977
2026-01-10 03:47:18.56	26.24	10.65	-47.8	-49.1	15.3	0.00e+00	0	23	0	478150656	62	4029
2026-01-10 03:47:19.56	26.20	10.74	-47.8	-49.1	15.2	0.00e+00	0	23	0	483393536	62	4038
2026-01-10 03:47:20.56	26.15	10.83	-47.6	-48.9	15.2	0.00e+00	0	23	0	489684992	61	4157
2026-01-10 03:47:21.56	26.11	10.91	-47.5	-48.7	15.3	0.00e+00	0	23	0	494927872	61	4093
2026-01-10 03:47:22.55	26.07	11.00	-47.6	-48.9	15.2	0.00e+00	0	23	0	500170752	61	4156
2026-01-10 03:47:23.55	26.03	11.09	-47.5	-48.8	15.3	0.00e+00	0	23	0	506462208	61	4120
2026-01-10 03:47:24.56	25.99	11.18	-47.6	-48.9	15.2	0.00e+00	0	23	0	511705088	61	4159
2026-01-10 03:47:25.55	25.95	11.26	-47.6	-48.8	15.3	0.00e+00	0	23	0	516947968	61	4130
2026-01-10 03:47:26.55	25.91	11.35	-47.6	-48.9	15.2	0.00e+00	0	23	0	523239424	61	4152
2026-01-10 03:47:27.56	25.86	11.44	-47.6	-48.8	15.2	0.00e+00	0	23	0	528482304	61	4129
2026-01-10 03:47:28.56	25.82	11.53	-47.5	-48.7	15.3	0.00e+00	0	23	0	534773760	61	4080
2026-01-10 03:47:29.55	25.78	11.62	-47.5	-48.7	15.3	0.00e+00	0	23	0	540016640	61	4096
2026-01-10 03:47:30.54	25.73	11.71	-47.5	-48.7	15.3	0.00e+00	0	23	0	545259520	61	4096
2026-01-10 03:47:31.55	25.69	11.80	-47.5	-48.7	15.3	0.00e+00	0	23	0	551550976	61	4083
2026-01-10 03:47:32.55	25.65	11.89	-47.5	-48.7	15.3	0.00e+00	0	23	0	556793856	61	4082
2026-01-10 03:47:33.56	25.60	11.99	-47.5	-48.8	15.3	0.00e+00	0	23	0	562036736	61	4104
2026-01-10 03:47:34.56	25.56	12.08	-47.5	-48.8	15.3	0.00e+00	0	23	0	568328192	61	4132
2026-01-10 03:47:35.56	25.51	12.17	-47.4	-48.7	15.3	0.00e+00	0	23	0	573571072	61	4053
2026-01-10 03:47:36.57	25.47	12.26	-47.3	-48.6	15.4	0.00e+00	0	23	0	579862528	61	4013
2026-01-10 03:47:37.57	25.42	12.36	-47.4	-48.7	15.3	0.00e+00	0	23	0	585105408	61	4060
2026-01-10 03:47:38.57	25.38	12.45	-47.4	-48.6	15.4	0.00e+00	0	23	0	590348288	61	4044
2026-01-10 03:47:39.57	25.33	12.54	-47.3	-48.6	15.4	0.00e+00	0	23	0	596639744	61	4014
2026-01-10 03:47:40.57	25.28	12.63	-47.4	-48.6	15.4	0.00e+00	0	23	0	601882624	61	4050
2026-01-10 03:47:41.57	25.24	12.73	-47.3	-48.6	15.4	0.00e+00	0	23	0	607125504	61	4012
2026-01-10 03:47:42.58	25.19	12.82	-47.4	-48.7	15.3	0.00e+00	0	23	0	613416960	61	4071
2026-01-10 03:47:43.57	25.14	12.92	-47.5	-48.8	15.3	0.00e+00	0	23	0	618659840	61	4109
2026-01-10 03:47:44.57	25.09	13.01	-47.4	-48.6	15.4	0.00e+00	0	23	0	624951296	61	4039
2026-01-10 03:47:45.57	25.05	13.11	-47.2	-48.4	15.5	0.00e+00	0	23	0	630194176	61	3955
2026-01-10 03:47:46.57	25.00	13.20	-47.2	-48.4	15.5	0.00e+00	0	23	0	635437056	61	3949
2026-01-10 03:47:47.57	24.95	13.30	-47.2	-48.4	15.5	0.00e+00	0	23	0	641728512	61	3933
2026-01-10 03:47:48.58	24.90	13.40	-47.2	-48.5	15.3	0.00e+00	0	23	0	646971392	60	4206
2026-01-10 03:47:49.58	24.85	13.49	-47.1	-48.3	15.4	0.00e+00	0	23	0	652214272	60	4105
2026-01-10 03:47:50.57	24.80	13.59	-47.0	-48.2	15.4	0.00e+00	0	23	0	658505728	60	4092
2026-01-10 03:47:51.58	24.75	13.69	-47.1	-48.3	15.4	0.00e+00	0	23	0	663748608	60	4127
2026-01-10 03:47:52.58	24.70	13.79	-47.0	-48.2	15.4	0.00e+00	0	23	0	668991488	60	4081
2026-01-10 03:47:53.59	24.65	13.88	-46.9	-48.1	15.5	0.00e+00	0	23	0	675282944	60	4039
2026-01-10 03:47:54.58	24.60	13.98	-46.9	-48.1	15.5	0.00e+00	0	23	0	680525824	60	4022
2026-01-10 03:47:55.57	24.55	14.08	-46.9	-48.1	15.5	0.00e+00	0	23	0	686817280	60	4037
2026-01-10 03:47:56.57	24.49	14.18	-46.8	-48.0	15.5	0.00e+00	0	23	0	692060160	60	3990
2026-01-10 03:47:57.57	24.44	14.28	-46.8	-48.0	15.5	0.00e+00	0	23	0	697303040	60	3968
2026-01-10 03:47:58.57	24.39	14.38	-46.8	-48.0	15.5	0.00e+00	0	23	0	703594496	60	3999
2026-01-10 03:47:59.56	24.34	14.48	-46.7	-47.9	15.6	0.00e+00	0	23	0	708837376	60	3919
2026-01-10 03:48:00.56	24.28	14.58	-46.7	-47.9	15.6	0.00e+00	0	23	0	714080256	60	3936
2026-01-10 03:48:01.55	24.23	14.68	-46.8	-48.0	15.6	0.00e+00	0	23	0	719323136	60	3959
2026-01-10 03:48:02.56	24.17	14.78	-47.0	-48.2	15.3	0.00e+00	0	23	0	725614592	59	4332
2026-01-10 03:48:03.56	24.12	14.88	-47.1	-48.4	15.3	0.00e+00	0	23	0	730857472	59	4394
2026-01-10 03:48:04.56	24.06	14.99	-47.0	-48.2	15.4	0.00e+00	0	23	0	737148928	59	4298
2026-01-10 03:48:05.55	24.01	15.09	-46.9	-48.2	15.3	0.00e+00	0	23	0	742391808	59	4292
2026-01-10 03:48:06.55	23.95	15.19	-46.9	-48.2	15.3	0.00e+00	0	23	0	747634688	59	4294
2026-01-10 03:48:07.54	23.90	15.29	-46.9	-48.1	15.4	0.00e+00	0	23	0	753926144	59	4285
2026-01-10 03:48:08.54	23.84	15.40	-46.9	-48.1	15.4	0.00e+00	0	23	0	759169024	59	4275
2026-01-10 03:48:09.54	23.78	15.50	-47.0	-48.2	15.3	0.00e+00	0	23	0	764411904	59	4317
2026-01-10 03:48:10.54	23.73	15.61	-46.9	-48.1	15.4	0.00e+00	0	23	0	770703360	59	4281
2026-01-10 03:48:11.54	23.67	15.71	-47.0	-48.2	15.3	0.00e+00	0	23	0	775946240	59	4307
2026-01-10 03:48:12.54	23.61	15.82	-46.9	-48.1	15.3	0.00e+00	0	23	0	782237696	59	4288
2026-01-10 03:48:13.54	23.55	15.92	-46.8	-48.0	15.4	0.00e+00	0	23	0	787480576	59	4202
2026-01-10 03:48:14.54	23.49	16.03	-46.7	-47.8	15.5	0.00e+00	0	23	0	792723456	59	4140
2026-01-10 03:48:15.53	23.43	16.14	-46.7	-47.8	15.5	0.00e+00	0	23	0	799014912	59	4142
2026-01-10 03:48:16.54	23.37	16.24	-46.6	-47.7	15.5	0.00e+00	0	23	0	804257792	59	4098
2026-01-10 03:48:17.55	23.31	16.35	-46.6	-47.7	15.5	0.00e+00	0	23	0	809500672	59	4090
2026-01-10 03:48:18.55	23.25	16.46	-46.5	-47.7	15.6	0.00e+00	0	23	0	815792128	59	4056
2026-01-10 03:48:19.55	23.19	16.57	-46.4	-47.6	15.6	0.00e+00	0	23	0	821035008	59	4013
2026-01-10 03:48:20.55	23.13	16.68	-46.4	-47.5	15.6	0.00e+00	0	23	0	826277888	59	4001
2026-01-10 03:48:21.55	23.06	16.79	-46.3	-47.5	15.6	0.00e+00	0	23	0	832569344	59	3980
2026-01-10 03:48:22.54	23.00	16.90	-46.4	-47.5	15.6	0.00e+00	0	23	0	837812224	59	3993
2026-01-10 03:48:23.54	22.94	17.01	-46.4	-47.5	15.6	0.00e+00	0	23	0	844103680	59	3985
2026-01-10 03:48:24.54	22.87	17.12	-46.3	-47.4	15.7	0.00e+00	0	23	0	849346560	59	3957
2026-01-10 03:48:25.53	22.81	17.23	-46.4	-47.6	15.6	0.00e+00	0	23	0	854589440	59	4021
2026-01-10 03:48:26.53	22.74	17.34	-46.2	-47.4	15.7	0.00e+00	0	23	0	860880896	59	3923
2026-01-10 03:48:27.53	22.68	17.45	-46.2	-47.3	15.7	0.00e+00	0	23	0	866123776	59	3912
2026-01-10 03:48:28.53	22.61	17.57	-46.2	-47.3	15.7	0.00e+00	0	23	0	871366656	59	3898
2026-01-10 03:48:29.52	22.55	17.68	-46.2	-47.3	15.6	0.00e+00	0	23	0	877658112	58	4133
2026-01-10 03:48:30.52	22.48	17.79	-46.2	-47.3	15.6	0.00e+00	0	23	0	882900992	58	4132
2026-01-10 03:48:31.53	22.41	17.91	-46.1	-47.2	15.6	0.00e+00	0	23	0	888143872	58	4074
2026-01-10 03:48:32.53	22.34	18.02	-46.0	-47.2	15.6	0.00e+00	0	23	0	894435328	58	4063
2026-01-10 03:48:33.54	22.27	18.14	-45.9	-47.1	15.7	0.00e+00	0	23	0	899678208	58	4005
2026-01-10 03:48:34.54	22.20	18.26	-46.0	-47.1	15.6	0.00e+00	0	23	0	905969664	58	4049
2026-01-10 03:48:35.53	22.13	18.37	-46.0	-47.1	15.6	0.00e+00	0	23	0	911212544	58	4032
2026-01-10 03:48:36.53	22.06	18.49	-46.0	-47.1	15.6	0.00e+00	0	23	0	916455424	58	4030
2026-01-10 03:48:37.53	21.99	18.61	-46.0	-47.1	15.6	0.00e+00	0	23	0	922746880	58	4035
2026-01-10 03:48:38.53	21.92	18.72	-45.9	-47.1	15.7	0.00e+00	0	23	0	927989760	58	4015
2026-01-10 03:48:39.53	21.85	18.84	-45.9	-47.1	15.7	0.00e+00	0	23	0	933232640	58	4006
2026-01-10 03:48:40.52	21.78	18.96	-46.0	-47.1	15.7	0.00e+00	0	23	0	939524096	58	4034
2026-01-10 03:48:41.52	21.70	19.08	-46.0	-47.1	15.6	0.00e+00	0	23	0	944766976	58	4041
2026-01-10 03:48:42.52	21.63	19.20	-45.9	-47.0	15.7	0.00e+00	0	23	0	950009856	58	3989
2026-01-10 03:48:43.51	21.55	19.32	-46.0	-47.1	15.7	0.00e+00	0	23	0	956301312	58	4028
2026-01-10 03:48:44.51	21.48	19.44	-45.9	-47.0	15.7	0.00e+00	0	23	0	961544192	58	3998
2026-01-10 03:48:45.51	21.40	19.56	-45.9	-47.0	15.7	0.00e+00	0	23	0	966787072	58	3993
2026-01-10 03:48:46.50	21.33	19.68	-45.8	-47.0	15.7	0.00e+00	0	23	0	973078528	58	3960
2026-01-10 03:48:47.50	21.25	19.80	-45.9	-47.0	15.7	0.00e+00	0	23	0	978321408	58	3970
2026-01-10 03:48:48.49	21.17	19.93	-45.9	-47.0	15.7	0.00e+00	0	23	0	983564288	58	3995
2026-01-10 03:48:49.49	21.09	20.05	-46.0	-47.2	15.6	0.00e+00	0	23	0	989855744	58	4057
2026-01-10 03:48:50.49	21.02	20.17	-45.9	-47.1	15.7	0.00e+00	0	23	0	995098624	58	4012
2026-01-10 03:48:51.49	20.94	20.30	-45.9	-47.0	15.7	0.00e+00	0	23	0	1000341504	58	3972
2026-01-10 03:48:52.48	20.86	20.42	-45.9	-47.1	15.7	0.00e+00	0	23	0	1006632960	58	4006
2026-01-10 03:48:53.48	20.77	20.55	-46.0	-47.2	15.6	0.00e+00	0	23	0	1011875840	58	4055
2026-01-10 03:48:54.48	20.69	20.68	-45.8	-46.9	15.7	0.00e+00	0	23	0	1018167296	58	3954
2026-01-10 03:48:55.47	20.61	20.80	-45.7	-46.9	15.8	0.00e+00	0	23	0	1023410176	58	3918
2026-01-10 03:48:56.47	20.53	20.93	-45.7	-46.8	15.8	0.00e+00	0	23	0	1028653056	58	3884
2026-01-10 03:48:57.46	20.44	21.06	-45.7	-46.8	15.8	0.00e+00	0	23	0	1034944512	58	3887
2026-01-10 03:48:58.47	20.36	21.19	-45.7	-46.8	15.8	0.00e+00	0	23	0	1040187392	58	3892
2026-01-10 03:48:59.47	20.27	21.32	-45.6	-46.7	15.7	0.00e+00	0	23	0	1045430272	57	4086
2026-01-10 03:49:00.47	20.19	21.45	-45.6	-46.7	15.7	0.00e+00	0	23	0	1051721728	57	4056
2026-01-10 03:49:01.47	20.10	21.58	-45.7	-46.8	15.6	0.00e+00	0	23	0	1056964608	57	4112
2026-01-10 03:49:02.47	20.01	21.71	-45.6	-46.7	15.7	0.00e+00	0	23	0	1062207488	57	4073
2026-01-10 03:49:03.46	19.92	21.84	-45.6	-46.7	15.7	0.00e+00	0	23	0	1068498944	57	4055
2026-01-10 03:49:04.46	19.83	21.97	-45.5	-46.6	15.7	0.00e+00	0	23	0	1073741824	57	4027
2026-01-10 03:49:05.46	19.74	22.10	-45.5	-46.7	15.7	0.00e+00	0	23	0	1080033280	57	4054
2026-01-10 03:49:06.46	19.65	22.24	-45.5	-46.6	15.7	0.00e+00	0	23	0	1085276160	57	4046
2026-01-10 03:49:07.45	19.56	22.37	-45.5	-46.6	15.7	0.00e+00	0	23	0	1090519040	57	4034
2026-01-10 03:49:08.44	19.47	22.50	-45.5	-46.6	15.7	0.00e+00	0	23	0	1095761920	57	4044
2026-01-10 03:49:09.45	19.38	22.64	-45.5	-46.6	15.7	0.00e+00	0	23	0	1102053376	57	4027
2026-01-10 03:49:10.44	19.28	22.78	-45.5	-46.6	15.7	0.00e+00	0	23	0	1107296256	57	4035
2026-01-10 03:49:11.45	19.19	22.91	-45.5	-46.6	15.7	0.00e+00	0	23	0	1112539136	57	4022
2026-01-10 03:49:12.45	19.09	23.05	-45.5	-46.7	15.7	0.00e+00	0	23	0	1118830592	57	4058
2026-01-10 03:49:13.45	18.99	23.19	-45.5	-46.6	15.7	0.00e+00	0	23	0	1124073472	57	4014
2026-01-10 03:49:14.46	18.90	23.33	-45.4	-46.5	15.7	0.00e+00	0	23	0	1130364928	57	3986
2026-01-10 03:49:15.46	18.80	23.47	-45.3	-46.4	15.8	0.00e+00	0	23	0	1135607808	57	3931
2026-01-10 03:49:16.46	18.70	23.61	-45.3	-46.4	15.8	0.00e+00	0	23	0	1141899264	57	3922
2026-01-10 03:49:17.46	18.60	23.75	-45.2	-46.3	15.8	0.00e+00	0	23	0	1147142144	57	3891
2026-01-10 03:49:18.46	18.49	23.89	-45.3	-46.4	15.8	0.00e+00	0	23	0	1152385024	57	3930
2026-01-10 03:49:19.45	18.39	24.03	-45.0	-46.1	15.7	0.00e+00	0	23	0	1157627904	56	4023
2026-01-10 03:49:20.45	18.29	24.18	-45.0	-46.1	15.8	0.00e+00	0	23	0	1163919360	56	4006
2026-01-10 03:49:21.45	18.18	24.32	-45.0	-46.1	15.8	0.00e+00	0	23	0	1169162240	56	4006
2026-01-10 03:49:22.45	18.08	24.46	-45.0	-46.1	15.8	0.00e+00	0	23	0	1174405120	56	4014
2026-01-10 03:49:23.45	17.97	24.61	-45.1	-46.2	15.7	0.00e+00	0	23	0	1180696576	56	4057
2026-01-10 03:49:24.45	17.87	24.75	-45.2	-46.3	15.7	0.00e+00	0	23	0	1185939456	56	4104
2026-01-10 03:49:25.45	17.76	24.90	-45.2	-46.3	15.7	0.00e+00	0	23	0	1192230912	56	4119
2026-01-10 03:49:26.45	17.65	25.05	-45.2	-46.3	15.7	0.00e+00	0	23	0	1197473792	56	4135
2026-01-10 03:49:27.44	17.54	25.19	-45.2	-46.3	15.7	0.00e+00	0	23	0	1202716672	56	4126
2026-01-10 03:49:28.44	17.43	25.34	-45.3	-46.4	15.7	0.00e+00	0	23	0	1209008128	56	4177
2026-01-10 03:49:29.45	17.31	25.49	-45.3	-46.4	15.7	0.00e+00	0	23	0	1214251008	56	4166
2026-01-10 03:49:30.45	17.20	25.64	-45.3	-46.4	15.7	0.00e+00	0	23	0	1219493888	56	4170
2026-01-10 03:49:31.44	17.08	25.79	-45.1	-46.2	15.7	0.00e+00	0	23	0	1225785344	56	4097
2026-01-10 03:49:32.44	16.97	25.94	-45.0	-46.1	15.8	0.00e+00	0	23	0	1231028224	56	4029
2026-01-10 03:49:33.44	16.85	26.09	-44.9	-46.0	15.8	0.00e+00	0	23	0	1236271104	56	3985
2026-01-10 03:49:34.44	16.73	26.25	-44.9	-46.0	15.8	0.00e+00	0	23	0	1242562560	56	3983
2026-01-10 03:49:35.44	16.61	26.40	-44.9	-46.0	15.8	0.00e+00	0	23	0	1247805440	56	3976
2026-01-10 03:49:36.44	16.49	26.55	-45.0	-46.1	15.7	0.00e+00	0	23	0	1254096896	56	4011
2026-01-10 03:49:37.44	16.37	26.71	-44.9	-45.9	15.8	0.00e+00	0	23	0	1259339776	56	3956
2026-01-10 03:49:38.44	16.25	26.86	-44.8	-45.8	15.9	0.00e+00	0	23	0	1264582656	56	3892
2026-01-10 03:49:39.44	16.12	27.02	-44.8	-45.8	15.9	0.00e+00	0	23	0	1270874112	56	3907
2026-01-10 03:49:40.44	16.00	27.18	-44.9	-45.9	15.8	0.00e+00	0	23	0	1276116992	56	3957
2026-01-10 03:49:41.44	15.87	27.34	-44.7	-45.8	15.9	0.00e+00	0	23	0	1281359872	56	3888
2026-01-10 03:49:42.43	15.74	27.49	-44.7	-45.7	15.9	0.00e+00	0	23	0	1287651328	56	3863
2026-01-10 03:49:43.44	15.61	27.65	-44.5	-45.6	15.8	0.00e+00	0	23	0	1292894208	55	4020
2026-01-10 03:49:44.44	15.48	27.81	-44.7	-45.8	15.7	0.00e+00	0	23	0	1299185664	55	4113
2026-01-10 03:49:45.43	15.35	27.97	-44.6	-45.7	15.7	0.00e+00	0	23	0	1304428544	55	4072
2026-01-10 03:49:46.42	15.22	28.13	-44.7	-45.8	15.7	0.00e+00	0	23	0	1309671424	55	4127
2026-01-10 03:49:47.42	15.08	28.29	-44.8	-45.8	15.7	0.00e+00	0	23	0	1315962880	55	4139
2026-01-10 03:49:48.42	14.95	28.46	-44.6	-45.7	15.8	0.00e+00	0	23	0	1321205760	55	4062
2026-01-10 03:49:49.41	14.81	28.62	-44.7	-45.8	15.7	0.00e+00	0	23	0	1326448640	55	4126
2026-01-10 03:49:50.41	14.67	28.78	-44.5	-45.6	15.8	0.00e+00	0	23	0	1332740096	55	4008
2026-01-10 03:49:51.41	14.53	28.95	-44.4	-45.5	15.8	0.00e+00	0	23	0	1337982976	55	3973
2026-01-10 03:49:52.41	14.39	29.12	-44.5	-45.5	15.8	0.00e+00	0	23	0	1343225856	55	3985
2026-01-10 03:49:53.42	14.24	29.29	-44.4	-45.5	15.8	0.00e+00	0	23	0	1349517312	55	3973
2026-01-10 03:49:54.42	14.09	29.45	-44.3	-45.3	15.9	0.00e+00	0	23	0	1354760192	55	3912
2026-01-10 03:49:55.41	13.95	29.62	-44.3	-45.4	15.8	0.00e+00	0	23	0	1361051648	55	3924
2026-01-10 03:49:56.41	13.80	29.79	-44.4	-45.5	15.8	0.00e+00	0	23	0	1366294528	55	3960
2026-01-10 03:49:57.40	13.65	29.96	-44.5	-45.5	15.8	0.00e+00	0	23	0	1371537408	55	4000
2026-01-10 03:49:58.40	13.50	30.13	-44.4	-45.4	15.8	0.00e+00	0	23	0	1376780288	55	3957
2026-01-10 03:49:59.40	13.35	30.30	-44.4	-45.5	15.8	0.00e+00	0	23	0	1383071744	55	3964
2026-01-10 03:50:00.39	13.19	30.47	-44.3	-45.4	15.9	0.00e+00	0	23	0	1388314624	55	3924
2026-01-10 03:50:01.39	13.04	30.64	-44.3	-45.4	15.9	0.00e+00	0	23	0	1393557504	55	3920
2026-01-10 03:50:02.39	12.88	30.82	-44.1	-45.2	15.8	0.00e+00	0	23	0	1399848960	54	4065
2026-01-10 03:50:03.39	12.72	30.99	-44.1	-45.2	15.8	0.00e+00	0	23	0	1405091840	54	4062
2026-01-10 03:50:04.39	12.55	31.17	-44.2	-45.3	15.8	0.00e+00	0	23	0	1411383296	54	4107
2026-01-10 03:50:05.39	12.39	31.35	-44.1	-45.2	15.8	0.00e+00	0	23	0	1416626176	54	4067
2026-01-10 03:50:06.40	12.22	31.53	-44.1	-45.1	15.8	0.00e+00	0	23	0	1421869056	54	4029
2026-01-10 03:50:07.40	12.06	31.70	-44.0	-45.0	15.8	0.00e+00	0	23	0	1428160512	54	4002
2026-01-10 03:50:08.41	11.88	31.88	-44.0	-45.0	15.8	0.00e+00	0	23	0	1433403392	54	4001
2026-01-10 03:50:09.41	11.71	32.06	-44.0	-45.0	15.8	0.00e+00	0	23	0	1438646272	54	4002
2026-01-10 03:50:10.41	11.54	32.24	-44.1	-45.1	15.8	0.00e+00	0	23	0	1444937728	54	4029
2026-01-10 03:50:11.41	11.36	32.43	-44.1	-45.1	15.8	0.00e+00	0	23	0	1450180608	54	4042
2026-01-10 03:50:12.41	11.19	32.61	-44.0	-45.1	15.8	0.00e+00	0	23	0	1456472064	54	4022
2026-01-10 03:50:13.41	11.01	32.79	-44.1	-45.2	15.8	0.00e+00	0	23	0	1461714944	54	4068
2026-01-10 03:50:14.41	10.83	32.97	-44.2	-45.3	15.8	0.00e+00	0	23	0	1466957824	54	4106
2026-01-10 03:50:15.41	10.64	33.16	-44.2	-45.2	15.8	0.00e+00	0	23	0	1473249280	54	4090
2026-01-10 03:50:16.41	10.46	33.34	-44.0	-45.1	15.8	0.00e+00	0	23	0	1478492160	54	4020
2026-01-10 03:50:17.41	10.27	33.53	-44.1	-45.2	15.8	0.00e+00	0	23	0	1484783616	54	4069
2026-01-10 03:50:18.41	10.08	33.72	-44.1	-45.1	15.8	0.00e+00	0	23	0	1490026496	54	4042
2026-01-10 03:50:19.41	9.88	33.90	-44.0	-45.0	15.8	0.00e+00	0	23	0	1495269376	54	3977
2026-01-10 03:50:20.40	9.69	34.09	-44.0	-45.0	15.8	0.00e+00	0	23	0	1500512256	54	4000
2026-01-10 03:50:21.40	9.49	34.28	-44.0	-45.0	15.8	0.00e+00	0	23	0	1506803712	54	3982
2026-01-10 03:50:22.40	9.30	34.47	-44.0	-45.0	15.9	0.00e+00	0	23	0	1512046592	54	3989
2026-01-10 03:50:23.40	9.09	34.66	-44.0	-45.0	15.8	0.00e+00	0	23	0	1517289472	54	4003
2026-01-10 03:50:24.40	8.89	34.85	-44.0	-45.0	15.8	0.00e+00	0	23	0	1523580928	54	3992
2026-01-10 03:50:25.40	8.68	35.04	-44.1	-45.2	15.8	0.00e+00	0	23	0	1528823808	54	4058
2026-01-10 03:50:26.40	8.47	35.24	-44.2	-45.3	15.8	0.00e+00	0	23	0	1535115264	54	4115
2026-01-10 03:50:27.40	8.26	35.43	-44.1	-45.2	15.8	0.00e+00	0	23	0	1540358144	54	4071
2026-01-10 03:50:28.40	8.05	35.62	-44.1	-45.2	15.8	0.00e+00	0	23	0	1545601024	54	4084
2026-01-10 03:50:29.39	7.83	35.82	-44.2	-45.2	15.8	0.00e+00	0	23	0	1551892480	54	4088
2026-01-10 03:50:30.38	7.62	36.01	-44.1	-45.1	15.8	0.00e+00	0	23	0	1557135360	54	4039
2026-01-10 03:50:31.38	7.39	36.21	-44.0	-45.0	15.8	0.00e+00	0	23	0	1562378240	54	4002
2026-01-10 03:50:32.37	7.17	36.40	-44.0	-45.0	15.9	0.00e+00	0	23	0	1568669696	54	3998
2026-01-10 03:50:33.37	6.94	36.60	-44.0	-45.1	15.8	0.00e+00	0	23	0	1573912576	54	4016
2026-01-10 03:50:34.37	6.71	36.80	-44.1	-45.2	15.8	0.00e+00	0	23	0	1579155456	54	4053
2026-01-10 03:50:35.37	6.48	37.00	-44.1	-45.2	15.8	0.00e+00	0	23	0	1585446912	54	4072
2026-01-10 03:50:36.37	6.24	37.20	-44.3	-45.3	15.8	0.00e+00	0	23	0	1590689792	54	4141
2026-01-10 03:50:37.37	6.00	37.40	-44.4	-45.5	15.8	0.00e+00	0	23	0	1596981248	54	4198
2026-01-10 03:50:38.37	5.76	37.60	-44.4	-45.5	15.7	0.00e+00	0	23	0	1602224128	54	4223
2026-01-10 03:50:39.37	5.52	37.80	-44.4	-45.5	15.7	0.00e+00	0	23	0	1607467008	54	4223
2026-01-10 03:50:40.38	5.26	38.01	-44.4	-45.5	15.7	0.00e+00	0	23	0	1613758464	54	4205
2026-01-10 03:50:41.37	5.02	38.21	-44.4	-45.4	15.8	0.00e+00	0	23	0	1619001344	54	4188
2026-01-10 03:50:42.37	4.76	38.41	-44.6	-45.7	15.7	0.00e+00	0	23	0	1624244224	54	4304
2026-01-10 03:50:43.36	4.51	38.61	-44.7	-45.7	15.7	0.00e+00	0	23	0	1630535680	54	4330
2026-01-10 03:50:44.36	4.24	38.82	-44.7	-45.8	15.7	0.00e+00	0	23	0	1635778560	54	4368
2026-01-10 03:50:45.36	3.98	39.02	-44.6	-45.7	15.7	0.00e+00	0	23	0	1641021440	54	4296
2026-01-10 03:50:46.36	3.71	39.23	-44.5	-45.6	15.7	0.00e+00	0	23	0	1647312896	54	4266
2026-01-10 03:50:47.35	3.44	39.43	-44.2	-45.3	15.8	0.00e+00	0	23	0	1652555776	54	4121
2026-01-10 03:50:48.35	3.17	39.64	-44.2	-45.2	15.8	0.00e+00	0	23	0	1657798656	54	4087
2026-01-10 03:50:49.36	2.89	39.85	-44.0	-45.1	15.8	0.00e+00	0	23	0	1664090112	54	4009
2026-01-10 03:50:50.35	2.61	40.05	-43.9	-45.0	15.9	0.00e+00	0	23	0	1669332992	54	3968
2026-01-10 03:50:51.35	2.32	40.26	-44.1	-45.2	15.8	0.00e+00	0	23	0	1674575872	54	4061
2026-01-10 03:50:52.34	2.03	40.47	-44.3	-45.3	15.8	0.00e+00	0	23	0	1680867328	54	4134
2026-01-10 03:50:53.34	1.74	40.68	-44.4	-45.5	15.7	0.00e+00	0	23	0	1686110208	54	4220
2026-01-10 03:50:54.33	1.45	40.88	-44.5	-45.5	15.7	0.00e+00	0	23	0	1691353088	54	4228
2026-01-10 03:50:55.33	1.15	41.09	-44.4	-45.5	15.7	0.00e+00	0	23	0	1697644544	54	4219
2026-01-10 03:50:56.33	0.84	41.30	-44.5	-45.5	15.7	0.00e+00	0	23	0	1702887424	54	4220
2026-01-10 03:50:57.33	0.53	41.51	-44.4	-45.5	15.7	0.00e+00	0	23	0	1709178880	54	4214
2026-01-10 03:50:58.34	0.22	41.72	-44.4	-45.5	15.7	0.00e+00	0	23	0	1714421760	54	4197
2026-01-10 03:50:59.34	359.90	41.93	-44.4	-45.5	15.8	0.00e+00	0	23	0	1719664640	54	4196
2026-01-10 03:51:00.33	359.58	42.14	-44.5	-45.5	15.7	0.00e+00	0	23	0	1725956096	54	4233
2026-01-10 03:51:01.33	359.25	42.35	-44.5	-45.6	15.7	0.00e+00	0	23	0	1731198976	54	4263
2026-01-10 03:51:02.33	358.92	42.57	-44.5	-45.6	15.7	0.00e+00	0	23	0	1736441856	54	4263
2026-01-10 03:51:03.32	358.59	42.77	-44.5	-45.6	15.7	0.00e+00	0	24	0	1742733312	54	4250
2026-01-10 03:51:04.32	358.25	42.99	-44.5	-45.5	15.7	0.00e+00	0	23	0	1747976192	54	4242
2026-01-10 03:51:05.31	357.91	43.19	-44.4	-45.5	15.7	0.00e+00	0	23	0	1753219072	54	4195
2026-01-10 03:51:06.31	357.56	43.41	-44.5	-45.5	15.7	0.00e+00	0	23	0	1759510528	54	4223
2026-01-10 03:51:07.31	357.21	43.62	-44.6	-45.7	15.7	0.00e+00	0	23	0	1764753408	54	4302
2026-01-10 03:51:08.31	356.85	43.83	-44.5	-45.6	15.7	0.00e+00	0	23	0	1771044864	54	4255
2026-01-10 03:51:09.31	356.49	44.04	-44.3	-45.3	15.8	0.00e+00	0	23	0	1776287744	54	4130
2026-01-10 03:51:10.31	356.12	44.25	-44.3	-45.4	15.7	0.00e+00	0	23	0	1781530624	54	4148
2026-01-10 03:51:11.31	355.75	44.46	-44.1	-45.2	15.8	0.00e+00	0	24	0	1787822080	54	4068
2026-01-10 03:51:12.31	355.38	44.67	-44.1	-45.2	15.8	0.00e+00	0	24	0	1793064960	54	4065
2026-01-10 03:51:13.31	354.99	44.88	-44.2	-45.3	15.8	0.00e+00	0	24	0	1798307840	54	4112
2026-01-10 03:51:14.31	354.61	45.09	-44.4	-45.4	15.7	0.00e+00	0	23	0	1804599296	54	4193
2026-01-10 03:51:15.31	354.21	45.30	-44.6	-45.7	15.7	0.00e+00	0	23	0	1809842176	54	4297
2026-01-10 03:51:16.31	353.82	45.51	-44.7	-45.7	15.7	0.00e+00	0	23	0	1815085056	54	4334
2026-01-10 03:51:17.31	353.41	45.72	-44.5	-45.6	15.7	0.00e+00	0	23	0	1821376512	54	4245
2026-01-10 03:51:18.30	353.01	45.92	-44.5	-45.5	15.7	0.00e+00	0	23	0	1826619392	54	4221
2026-01-10 03:51:19.30	352.59	46.13	-44.7	-45.8	15.7	0.00e+00	0	23	0	1831862272	54	4364
2026-01-10 03:51:20.30	352.18	46.34	-44.9	-46.0	15.7	0.00e+00	0	23	0	1838153728	54	4445
2026-01-10 03:51:21.30	351.75	46.54	-44.9	-46.0	15.7	0.00e+00	0	23	0	1843396608	55	4214
2026-01-10 03:51:22.29	351.32	46.74	-44.9	-46.0	15.7	0.00e+00	0	24	0	1848639488	55	4216
2026-01-10 03:51:23.29	350.89	46.95	-44.9	-46.0	15.7	0.00e+00	0	23	0	1854930944	55	4194
2026-01-10 03:51:24.30	350.44	47.15	-44.8	-45.9	15.7	0.00e+00	0	23	0	1860173824	55	4170
2026-01-10 03:51:25.30	349.99	47.36	-44.8	-45.9	15.7	0.00e+00	0	23	0	1866465280	55	4159
2026-01-10 03:51:26.30	349.54	47.56	-45.0	-46.1	15.7	0.00e+00	0	23	0	1871708160	55	4274
2026-01-10 03:51:27.30	349.08	47.76	-45.3	-46.4	15.6	0.00e+00	0	23	0	1876951040	55	4398
2026-01-10 03:51:28.30	348.61	47.96	-45.6	-46.7	15.6	0.00e+00	0	23	0	1883242496	56	4331
2026-01-10 03:51:29.30	348.14	48.16	-45.3	-46.4	15.7	0.00e+00	0	23	0	1888485376	56	4189
2026-01-10 03:51:30.30	347.66	48.35	-45.4	-46.5	15.6	0.00e+00	0	23	0	1893728256	56	4224
2026-01-10 03:51:31.30	347.18	48.55	-45.3	-46.3	15.7	0.00e+00	0	23	0	1900019712	56	4139
2026-01-10 03:51:32.29	346.69	48.74	-45.1	-46.2	15.8	0.00e+00	0	23	0	1905262592	56	4065
2026-01-10 03:51:33.29	346.20	48.94	-45.2	-46.3	15.7	0.00e+00	0	23	0	1910505472	56	4117
2026-01-10 03:51:34.29	345.69	49.13	-45.4	-46.5	15.7	0.00e+00	0	23	0	1916796928	56	4219
2026-01-10 03:51:35.29	345.19	49.32	-45.5	-46.6	15.6	0.00e+00	0	23	0	1922039808	56	4248
2026-01-10 03:51:36.29	344.67	49.50	-45.4	-46.5	15.7	0.00e+00	0	23	0	1928331264	56	4223
2026-01-10 03:51:37.29	344.15	49.69	-45.5	-46.6	15.6	0.00e+00	0	23	0	1933574144	56	4256
2026-01-10 03:51:38.29	343.62	49.88	-45.6	-46.6	15.6	0.00e+00	0	23	0	1938817024	56	4287
2026-01-10 03:51:39.29	343.08	50.06	-45.6	-46.7	15.6	0.00e+00	0	23	0	1945108480	56	4325
2026-01-10 03:51:40.29	342.54	50.24	-45.7	-46.8	15.6	0.00e+00	0	23	0	1950351360	56	4342
2026-01-10 03:51:41.29	342.00	50.42	-45.6	-46.7	15.6	0.00e+00	0	23	0	1955594240	56	4317
2026-01-10 03:51:42.28	341.45	50.59	-45.6	-46.7	15.6	0.00e+00	0	23	0	1961885696	56	4312
2026-01-10 03:51:43.28	340.89	50.77	-45.6	-46.7	15.6	0.00e+00	0	23	0	1967128576	56	4308
2026-01-10 03:51:44.27	340.32	50.94	-45.6	-46.7	15.6	0.00e+00	0	23	0	1972371456	56	4330
2026-01-10 03:51:45.27	339.75	51.11	-45.5	-46.5	15.6	0.00e+00	0	23	0	1978662912	56	4233
2026-01-10 03:51:46.27	339.17	51.27	-45.6	-46.7	15.6	0.00e+00	0	23	0	1983905792	56	4326
2026-01-10 03:51:47.27	338.58	51.44	-45.8	-46.9	15.6	0.00e+00	0	23	0	1990197248	56	4406
2026-01-10 03:51:48.26	338.00	51.60	-45.8	-46.9	15.6	0.00e+00	0	23	0	1995440128	56	4396
2026-01-10 03:51:49.27	337.39	51.76	-45.5	-46.6	15.6	0.00e+00	0	23	0	2000683008	56	4288
2026-01-10 03:51:50.26	336.79	51.92	-45.5	-46.6	15.6	0.00e+00	0	23	0	2005925888	56	4269
2026-01-10 03:51:51.26	336.18	52.07	-45.6	-46.7	15.6	0.00e+00	0	23	0	2012217344	56	4294
2026-01-10 03:51:52.26	335.56	52.22	-45.6	-46.7	15.6	0.00e+00	0	23	0	2017460224	56	4336
2026-01-10 03:51:53.25	334.94	52.37	-45.7	-46.8	15.6	0.00e+00	0	23	0	2022703104	56	4372
2026-01-10 03:51:54.25	334.31	52.51	-45.8	-46.9	15.6	0.00e+00	0	23	0	2028994560	56	4422
2026-01-10 03:51:55.24	333.68	52.65	-45.6	-46.7	15.6	0.00e+00	0	23	0	2034237440	56	4335
2026-01-10 03:51:56.25	333.03	52.79	-45.5	-46.5	15.7	0.00e+00	0	23	0	2040528896	56	4234
2026-01-10 03:51:57.24	332.38	52.92	-45.3	-46.4	15.7	0.00e+00	0	23	0	2045771776	56	4174
2026-01-10 03:51:58.24	331.73	53.06	-45.3	-46.4	15.7	0.00e+00	0	23	0	2051014656	56	4180
2026-01-10 03:51:59.24	331.06	53.18	-45.7	-46.8	15.6	0.00e+00	0	23	0	2057306112	56	4372
2026-01-10 03:52:00.23	330.40	53.31	-45.7	-46.8	15.6	0.00e+00	0	23	0	2062548992	56	4352
2026-01-10 03:52:01.23	329.73	53.43	-45.5	-46.6	15.6	0.00e+00	0	23	0	2067791872	56	4287
2026-01-10 03:52:02.24	329.04	53.54	-45.4	-46.5	15.6	0.00e+00	0	23	0	2074083328	56	4224
2026-01-10 03:52:03.23	328.37	53.66	-45.3	-46.4	15.7	0.00e+00	0	23	0	2079326208	56	4154
2026-01-10 03:52:04.23	327.68	53.76	-45.5	-46.6	15.6	0.00e+00	0	23	0	2084569088	56	4256
2026-01-10 03:52:05.23	326.98	53.87	-45.2	-46.2	15.7	0.00e+00	0	23	0	2090860544	56	4090
2026-01-10 03:52:06.23	326.28	53.97	-44.9	-46.0	15.8	0.00e+00	0	23	0	2096103424	56	3974
2026-01-10 03:52:07.23	325.58	54.07	-44.9	-45.9	15.8	0.00e+00	0	23	0	2102394880	56	3947
2026-01-10 03:52:08.23	324.87	54.16	-45.0	-46.1	15.8	0.00e+00	0	23	0	2107637760	56	4020
2026-01-10 03:52:09.23	324.16	54.25	-45.5	-46.6	15.7	0.00e+00	0	23	0	2112880640	56	4279
2026-01-10 03:52:10.23	323.44	54.33	-45.9	-47.1	15.6	0.00e+00	0	23	0	2119172096	57	4250
2026-01-10 03:52:11.24	322.71	54.41	-45.9	-47.1	15.6	0.00e+00	0	23	0	2124414976	57	4246
2026-01-10 03:52:12.24	321.98	54.49	-45.6	-46.7	15.7	0.00e+00	0	23	0	2129657856	57	4081
2026-01-10 03:52:13.24	321.25	54.56	-45.5	-46.6	15.7	0.00e+00	0	23	0	2135949312	57	4019
2026-01-10 03:52:14.24	320.52	54.62	-45.8	-46.9	15.7	0.00e+00	0	23	0	2141192192	57	4178
2026-01-10 03:52:15.24	319.78	54.68	-45.6	-46.7	15.7	0.00e+00	0	23	0	2146435072	57	4059
2026-01-10 03:52:16.23	319.05	54.74	-45.3	-46.3	15.8	0.00e+00	0	23	0	2152726528	57	3897
2026-01-10 03:52:17.23	318.31	54.79	-45.2	-46.3	15.9	0.00e+00	0	23	0	2157969408	57	3875
2026-01-10 03:52:18.24	317.56	54.84	-45.4	-46.5	15.8	0.00e+00	0	23	0	2164260864	57	3999
2026-01-10 03:52:19.23	316.82	54.88	-45.6	-46.7	15.7	0.00e+00	0	23	0	2169503744	57	4090
2026-01-10 03:52:20.23	316.07	54.91	-45.6	-46.6	15.8	0.00e+00	0	23	0	2174746624	57	4048
2026-01-10 03:52:21.23	315.32	54.95	-45.4	-46.4	15.8	0.00e+00	0	23	0	2181038080	57	3946
2026-01-10 03:52:22.23	314.57	54.97	-45.5	-46.6	15.8	0.00e+00	0	23	0	2186280960	57	4005
2026-01-10 03:52:23.23	313.81	55.00	-45.5	-46.6	15.8	0.00e+00	0	23	0	2191523840	57	4018
2026-01-10 03:52:24.23	313.06	55.01	-45.2	-46.3	15.9	0.00e+00	0	23	0	2197815296	57	3888
2026-01-10 03:52:25.24	312.29	55.03	-45.3	-46.4	15.9	0.00e+00	0	23	0	2203058176	57	3919
2026-01-10 03:52:26.24	311.54	55.03	-45.5	-46.6	15.8	0.00e+00	0	23	0	2208301056	57	4029
2026-01-10 03:52:27.23	310.79	55.04	-45.4	-46.5	15.8	0.00e+00	0	23	0	2214592512	57	3970
2026-01-10 03:52:28.23	310.03	55.03	-45.0	-46.0	15.8	0.00e+00	0	23	0	2219835392	56	4000
2026-01-10 03:52:29.23	309.27	55.03	-45.1	-46.1	15.8	0.00e+00	0	23	0	2226126848	56	4045
2026-01-10 03:52:30.23	308.52	55.01	-45.7	-46.7	15.6	0.00e+00	0	23	0	2231369728	56	4340
2026-01-10 03:52:31.24	307.75	55.00	-45.9	-47.0	15.6	0.00e+00	0	23	0	2236612608	57	4228
2026-01-10 03:52:32.24	307.00	54.97	-45.9	-47.0	15.6	0.00e+00	0	23	0	2242904064	57	4228
2026-01-10 03:52:33.24	306.25	54.95	-45.8	-46.9	15.7	0.00e+00	0	23	0	2248146944	57	4150
2026-01-10 03:52:34.24	305.50	54.92	-45.4	-46.5	15.8	0.00e+00	0	23	0	2253389824	57	3961
2026-01-10 03:52:35.23	304.75	54.88	-45.4	-46.5	15.8	0.00e+00	0	23	0	2259681280	57	3973
2026-01-10 03:52:36.24	304.00	54.84	-45.6	-46.7	15.7	0.00e+00	0	23	0	2264924160	57	4055
2026-01-10 03:52:37.23	303.26	54.79	-45.5	-46.6	15.8	0.00e+00	0	23	0	2270167040	57	4016
2026-01-10 03:52:38.23	302.52	54.74	-45.5	-46.6	15.8	0.00e+00	0	23	0	2276458496	57	4032
2026-01-10 03:52:39.22	301.79	54.68	-45.5	-46.6	15.8	0.00e+00	0	23	0	2281701376	57	4019
2026-01-10 03:52:40.22	301.05	54.62	-45.5	-46.5	15.8	0.00e+00	0	23	0	2287992832	57	3997
2026-01-10 03:52:41.23	300.31	54.56	-45.6	-46.7	15.7	0.00e+00	0	23	0	2293235712	57	4071
2026-01-10 03:52:42.22	299.59	54.49	-45.5	-46.6	15.7	0.00e+00	0	23	0	2298478592	57	4046
2026-01-10 03:52:43.22	298.86	54.41	-45.3	-46.4	15.9	0.00e+00	0	23	0	2304770048	57	3926
2026-01-10 03:52:44.23	298.13	54.33	-45.3	-46.3	15.8	0.00e+00	0	23	0	2310012928	57	3911
2026-01-10 03:52:45.23	297.41	54.25	-45.4	-46.4	15.8	0.00e+00	0	23	0	2315255808	57	3956
2026-01-10 03:52:46.23	296.70	54.16	-45.3	-46.4	15.8	0.00e+00	0	23	0	2321547264	57	3935
2026-01-10 03:52:47.23	295.99	54.07	-45.3	-46.3	15.9	0.00e+00	0	23	0	2326790144	57	3902
2026-01-10 03:52:48.23	295.28	53.97	-45.3	-46.3	15.9	0.00e+00	0	23	0	2332033024	57	3913
2026-01-10 03:52:49.24	294.58	53.87	-45.3	-46.4	15.9	0.00e+00	0	23	0	2338324480	57	3938
2026-01-10 03:52:50.25	293.87	53.76	-45.5	-46.6	15.8	0.00e+00	0	23	0	2343567360	57	4024
2026-01-10 03:52:51.25	293.18	53.65	-45.5	-46.6	15.8	0.00e+00	0	23	0	2349858816	57	4041
2026-01-10 03:52:52.25	292.50	53.54	-45.4	-46.5	15.8	0.00e+00	0	23	0	2355101696	57	3988
2026-01-10 03:52:53.24	291.83	53.43	-45.4	-46.4	15.8	0.00e+00	0	23	0	2360344576	57	3948
2026-01-10 03:52:54.24	291.15	53.31	-45.2	-46.3	15.9	0.00e+00	0	23	0	2366636032	57	3876
2026-01-10 03:52:55.24	290.48	53.18	-45.3	-46.3	15.9	0.00e+00	0	23	0	2371878912	57	3910
2026-01-10 03:52:56.24	289.82	53.05	-45.0	-46.1	15.8	0.00e+00	0	23	0	2377121792	56	4025
2026-01-10 03:52:57.23	289.17	52.92	-44.9	-46.0	15.8	0.00e+00	0	23	0	2383413248	56	3975
2026-01-10 03:52:58.24	288.51	52.79	-44.9	-46.0	15.8	0.00e+00	0	23	0	2388656128	56	3978
2026-01-10 03:52:59.23	287.88	52.65	-45.0	-46.1	15.8	0.00e+00	0	23	0	2393899008	56	4025
2026-01-10 03:53:00.23	287.24	52.51	-45.2	-46.3	15.8	0.00e+00	0	23	0	2400190464	56	4105
2026-01-10 03:53:01.24	286.60	52.36	-45.2	-46.3	15.8	0.00e+00	0	23	0	2405433344	56	4132
2026-01-10 03:53:02.24	285.97	52.21	-45.3	-46.3	15.7	0.00e+00	0	23	0	2411724800	56	4142
2026-01-10 03:53:03.23	285.36	52.06	-45.3	-46.3	15.7	0.00e+00	0	23	0	2416967680	56	4143
2026-01-10 03:53:04.23	284.75	51.91	-45.2	-46.3	15.7	0.00e+00	0	23	0	2422210560	56	4119
2026-01-10 03:53:05.22	284.15	51.76	-45.3	-46.3	15.7	0.00e+00	0	23	0	2428502016	56	4144
2026-01-10 03:53:06.21	283.55	51.60	-45.1	-46.2	15.8	0.00e+00	0	23	0	2433744896	56	4057
2026-01-10 03:53:07.21	282.96	51.44	-45.0	-46.1	15.8	0.00e+00	0	23	0	2438987776	56	4017
2026-01-10 03:53:08.22	282.36	51.27	-45.3	-46.4	15.7	0.00e+00	0	23	0	2445279232	56	4149
2026-01-10 03:53:09.23	281.78	51.10	-45.4	-46.5	15.7	0.00e+00	0	23	0	2450522112	56	4232
2026-01-10 03:53:10.23	281.20	50.93	-45.5	-46.6	15.7	0.00e+00	0	23	0	2456813568	56	4257
2026-01-10 03:53:11.23	280.63	50.76	-45.5	-46.6	15.7	0.00e+00	0	23	0	2462056448	56	4272
2026-01-10 03:53:12.24	280.07	50.58	-45.4	-46.4	15.7	0.00e+00	0	23	0	2467299328	56	4181
2026-01-10 03:53:13.23	279.52	50.40	-45.2	-46.2	15.7	0.00e+00	0	23	0	2473590784	56	4097
2026-01-10 03:53:14.23	278.97	50.23	-45.4	-46.5	15.7	0.00e+00	0	23	0	2478833664	56	4209
2026-01-10 03:53:15.23	278.43	50.04	-45.6	-46.7	15.6	0.00e+00	0	23	0	2484076544	56	4338
2026-01-10 03:53:16.24	277.89	49.86	-45.5	-46.7	15.7	0.00e+00	0	23	0	2490368000	56	4294
2026-01-10 03:53:17.24	277.36	49.67	-45.3	-46.3	15.7	0.00e+00	0	23	0	2495610880	56	4130
2026-01-10 03:53:18.24	276.84	49.49	-45.1	-46.2	15.8	0.00e+00	0	23	0	2500853760	56	4067
2026-01-10 03:53:19.24	276.32	49.30	-45.1	-46.2	15.8	0.00e+00	0	23	0	2507145216	56	4061
2026-01-10 03:53:20.25	275.81	49.11	-45.2	-46.2	15.8	0.00e+00	0	23	0	2512388096	56	4089
2026-01-10 03:53:21.24	275.31	48.92	-45.3	-46.4	15.7	0.00e+00	0	24	0	2518679552	56	4161
2026-01-10 03:53:22.25	274.81	48.72	-45.2	-46.3	15.7	0.00e+00	0	23	0	2523922432	56	4107
2026-01-10 03:53:23.25	274.31	48.53	-45.2	-46.3	15.7	0.00e+00	0	23	0	2529165312	56	4110
2026-01-10 03:53:24.24	273.83	48.33	-45.0	-46.1	15.8	0.00e+00	0	23	0	2535456768	56	4007
2026-01-10 03:53:25.24	273.36	48.13	-44.9	-46.0	15.9	0.00e+00	0	23	0	2540699648	56	3973
2026-01-10 03:53:26.24	272.88	47.94	-45.0	-46.1	15.8	0.00e+00	0	23	0	2545942528	56	4033
2026-01-10 03:53:27.24	272.42	47.74	-45.0	-46.1	15.8	0.00e+00	0	23	0	2552233984	56	4023
2026-01-10 03:53:28.25	271.95	47.53	-44.8	-45.8	15.9	0.00e+00	0	23	0	2557476864	56	3899
2026-01-10 03:53:29.24	271.50	47.33	-44.7	-45.7	15.9	0.00e+00	0	23	0	2562719744	56	3865
2026-01-10 03:53:30.24	271.06	47.13	-44.4	-45.4	15.8	0.00e+00	0	23	0	2569011200	55	3946
2026-01-10 03:53:31.24	270.61	46.92	-44.3	-45.4	15.9	0.00e+00	0	23	0	2574254080	55	3917
2026-01-10 03:53:32.24	270.18	46.72	-44.3	-45.3	15.9	0.00e+00	0	23	0	2580545536	55	3904
2026-01-10 03:53:33.24	269.75	46.51	-44.3	-45.4	15.9	0.00e+00	0	23	0	2585788416	55	3927
2026-01-10 03:53:34.24	269.32	46.31	-44.5	-45.5	15.8	0.00e+00	0	23	0	2591031296	55	3997
2026-01-10 03:53:35.24	268.90	46.10	-44.8	-45.8	15.7	0.00e+00	0	23	0	2597322752	55	4138
2026-01-10 03:53:36.23	268.49	45.89	-44.6	-45.7	15.8	0.00e+00	0	23	0	2602565632	55	4067
2026-01-10 03:53:37.23	268.08	45.69	-44.7	-45.7	15.8	0.00e+00	0	23	0	2607808512	55	4091
2026-01-10 03:53:38.23	267.68	45.48	-44.7	-45.8	15.8	0.00e+00	0	23	0	2614099968	55	4106
2026-01-10 03:53:39.23	267.28	45.27	-44.4	-45.5	15.8	0.00e+00	0	23	0	2619342848	55	3966
2026-01-10 03:53:40.24	266.88	45.06	-44.4	-45.4	15.8	0.00e+00	0	23	0	2624585728	55	3940
2026-01-10 03:53:41.24	266.50	44.85	-44.4	-45.4	15.9	0.00e+00	0	23	0	2630877184	55	3933
2026-01-10 03:53:42.24	266.11	44.64	-44.5	-45.5	15.8	0.00e+00	0	23	0	2636120064	55	3982
2026-01-10 03:53:43.24	265.74	44.42	-44.1	-45.2	15.8	0.00e+00	0	23	0	2642411520	54	4057
2026-01-10 03:53:44.24	265.36	44.21	-44.2	-45.3	15.8	0.00e+00	0	23	0	2647654400	54	4121
2026-01-10 03:53:45.24	265.00	44.00	-44.2	-45.3	15.8	0.00e+00	0	23	0	2652897280	54	4113
2026-01-10 03:53:46.25	264.63	43.79	-44.3	-45.4	15.8	0.00e+00	0	24	0	2659188736	54	4180
2026-01-10 03:53:47.24	264.28	43.58	-44.3	-45.4	15.8	0.00e+00	0	23	0	2664431616	54	4161
2026-01-10 03:53:48.23	263.93	43.37	-44.1	-45.2	15.8	0.00e+00	0	23	0	2669674496	54	4058
2026-01-10 03:53:49.24	263.57	43.16	-44.0	-45.0	15.8	0.00e+00	0	23	0	2675965952	54	4001
2026-01-10 03:53:50.24	263.23	42.94	-44.1	-45.1	15.8	0.00e+00	0	24	0	2681208832	54	4037
2026-01-10 03:53:51.24	262.89	42.73	-44.1	-45.1	15.8	0.00e+00	0	23	0	2686451712	54	4023
2026-01-10 03:53:52.24	262.56	42.52	-43.9	-45.0	15.9	0.00e+00	0	23	0	2692743168	54	3961
2026-01-10 03:53:53.24	262.23	42.31	-44.0	-45.1	15.8	0.00e+00	0	23	0	2697986048	54	4016
2026-01-10 03:53:54.24	261.90	42.10	-44.0	-45.0	15.9	0.00e+00	0	23	0	2704277504	54	4001
2026-01-10 03:53:55.24	261.58	41.89	-44.0	-45.0	15.9	0.00e+00	0	23	0	2709520384	54	3996
2026-01-10 03:53:56.23	261.26	41.68	-44.0	-45.0	15.9	0.00e+00	0	23	0	2714763264	54	3976
2026-01-10 03:53:57.23	260.95	41.47	-44.0	-45.0	15.9	0.00e+00	0	23	0	2721054720	54	4000
2026-01-10 03:53:58.22	260.64	41.26	-43.9	-44.9	15.9	0.00e+00	0	23	0	2726297600	54	3933
2026-01-10 03:53:59.22	260.34	41.05	-44.0	-45.0	15.9	0.00e+00	0	23	0	2731540480	54	3977
2026-01-10 03:54:00.23	260.03	40.84	-44.2	-45.2	15.8	0.00e+00	0	23	0	2737831936	54	4070
2026-01-10 03:54:01.24	259.73	40.62	-44.3	-45.4	15.8	0.00e+00	0	23	0	2743074816	54	4165
2026-01-10 03:54:02.24	259.44	40.41	-44.4	-45.4	15.7	0.00e+00	0	23	0	2748317696	54	4180
2026-01-10 03:54:03.24	259.15	40.21	-44.4	-45.4	15.8	0.00e+00	0	23	0	2754609152	54	4188
2026-01-10 03:54:04.23	258.87	40.00	-44.3	-45.3	15.8	0.00e+00	0	23	0	2759852032	54	4129
2026-01-10 03:54:05.23	258.59	39.79	-44.0	-45.0	15.8	0.00e+00	0	23	0	2766143488	54	4001
2026-01-10 03:54:06.23	258.31	39.58	-43.9	-44.9	15.9	0.00e+00	0	23	0	2771386368	54	3941
2026-01-10 03:54:07.23	258.03	39.38	-43.9	-45.0	15.9	0.00e+00	0	23	0	2776629248	54	3960
2026-01-10 03:54:08.23	257.76	39.17	-43.9	-44.9	15.9	0.00e+00	0	23	0	2782920704	54	3954
2026-01-10 03:54:09.23	257.49	38.96	-43.9	-45.0	15.9	0.00e+00	0	23	0	2788163584	54	3970
2026-01-10 03:54:10.23	257.23	38.76	-44.0	-45.0	15.9	0.00e+00	0	23	0	2793406464	54	3985
2026-01-10 03:54:11.22	256.97	38.56	-44.1	-45.2	15.8	0.00e+00	0	23	0	2799697920	54	4065
2026-01-10 03:54:12.23	256.71	38.35	-44.2	-45.3	15.8	0.00e+00	0	23	0	2804940800	54	4101
2026-01-10 03:54:13.23	256.45	38.14	-44.3	-45.3	15.8	0.00e+00	0	23	0	2810183680	54	4128
2026-01-10 03:54:14.23	256.20	37.94	-44.3	-45.3	15.8	0.00e+00	0	23	0	2816475136	54	4141
2026-01-10 03:54:15.23	255.95	37.74	-44.4	-45.5	15.7	0.00e+00	0	23	0	2821718016	54	4204
2026-01-10 03:54:16.23	255.71	37.54	-44.5	-45.6	15.7	0.00e+00	0	23	0	2828009472	54	4243
2026-01-10 03:54:17.23	255.46	37.33	-44.6	-45.7	15.7	0.00e+00	0	23	0	2833252352	54	4311
2026-01-10 03:54:18.23	255.22	37.13	-44.6	-45.7	15.7	0.00e+00	0	23	0	2838495232	54	4312
2026-01-10 03:54:19.23	254.99	36.93	-44.5	-45.6	15.7	0.00e+00	0	23	0	2844786688	54	4260
2026-01-10 03:54:20.23	254.75	36.73	-44.5	-45.6	15.7	0.00e+00	0	23	0	2850029568	54	4252
2026-01-10 03:54:21.23	254.52	36.53	-44.4	-45.5	15.7	0.00e+00	0	23	0	2855272448	54	4207
2026-01-10 03:54:22.24	254.29	36.33	-44.4	-45.4	15.7	0.00e+00	0	23	0	2861563904	54	4193
2026-01-10 03:54:23.24	254.07	36.14	-44.4	-45.4	15.7	0.00e+00	0	23	0	2866806784	54	4178
2026-01-10 03:54:24.24	253.85	35.94	-44.2	-45.3	15.8	0.00e+00	0	23	0	2872049664	54	4111
2026-01-10 03:54:25.24	253.63	35.74	-44.2	-45.2	15.8	0.00e+00	0	23	0	2878341120	54	4079
2026-01-10 03:54:26.24	253.41	35.55	-44.2	-45.3	15.8	0.00e+00	0	23	0	2883584000	54	4104
2026-01-10 03:54:27.24	253.20	35.35	-44.2	-45.2	15.8	0.00e+00	0	23	0	2889875456	54	4091
2026-01-10 03:54:28.24	252.98	35.16	-44.0	-45.0	15.9	0.00e+00	0	23	0	2895118336	54	3974
2026-01-10 03:54:29.24	252.77	34.97	-44.0	-45.0	15.8	0.00e+00	0	23	0	2900361216	54	3995
2026-01-10 03:54:30.24	252.57	34.77	-44.0	-45.0	15.8	0.00e+00	0	23	0	2906652672	54	4000
2026-01-10 03:54:31.25	252.36	34.58	-43.9	-44.9	15.9	0.00e+00	0	23	0	2911895552	54	3950
2026-01-10 03:54:32.25	252.16	34.39	-43.9	-44.9	15.9	0.00e+00	0	23	0	2917138432	54	3956
2026-01-10 03:54:33.25	251.96	34.20	-43.8	-44.9	15.9	0.00e+00	0	23	0	2923429888	54	3927
2026-01-10 03:54:34.25	251.76	34.01	-43.9	-45.0	15.9	0.00e+00	0	23	0	2928672768	54	3970
2026-01-10 03:54:35.25	251.57	33.82	-43.7	-44.7	15.9	0.00e+00	0	23	0	2933915648	54	3842
2026-01-10 03:54:36.25	251.38	33.63	-43.7	-44.7	15.8	0.00e+00	0	23	0	2940207104	53	4059
2026-01-10 03:54:37.24	251.19	33.45	-43.7	-44.7	15.8	0.00e+00	0	23	0	2945449984	53	4083
2026-01-10 03:54:38.24	251.00	33.26	-43.7	-44.7	15.8	0.00e+00	0	23	0	2951741440	53	4098
2026-01-10 03:54:39.24	250.81	33.07	-43.8	-44.9	15.8	0.00e+00	0	23	0	2956984320	53	4156
2026-01-10 03:54:40.24	250.63	32.89	-43.9	-44.9	15.8	0.00e+00	0	23	0	2962227200	53	4184
2026-01-10 03:54:41.25	250.45	32.70	-43.9	-44.9	15.8	0.00e+00	0	23	0	2968518656	53	4180
2026-01-10 03:54:42.25	250.27	32.52	-43.9	-44.9	15.8	0.00e+00	0	23	0	2973761536	53	4164
2026-01-10 03:54:43.25	250.09	32.34	-43.8	-44.8	15.8	0.00e+00	0	23	0	2979004416	53	4119
2026-01-10 03:54:44.25	249.91	32.16	-43.8	-44.8	15.8	0.00e+00	0	23	0	2985295872	53	4139
2026-01-10 03:54:45.25	249.74	31.98	-43.9	-44.9	15.8	0.00e+00	0	23	0	2990538752	53	4178
2026-01-10 03:54:46.25	249.57	31.80	-44.0	-45.0	15.7	0.00e+00	0	23	0	2995781632	53	4236
2026-01-10 03:54:47.25	249.40	31.62	-44.2	-45.2	15.7	0.00e+00	0	23	0	3002073088	53	4337
2026-01-10 03:54:48.24	249.23	31.44	-44.3	-45.3	15.7	0.00e+00	0	23	0	3007315968	53	4378
2026-01-10 03:54:49.24	249.07	31.26	-44.3	-45.4	15.7	0.00e+00	0	23	0	3013607424	53	4398
2026-01-10 03:54:50.24	248.90	31.09	-44.4	-45.4	15.7	0.00e+00	0	23	0	3018850304	53	4439
2026-01-10 03:54:51.24	248.74	30.91	-44.4	-45.4	15.7	0.00e+00	0	23	0	3024093184	53	4428
2026-01-10 03:54:52.24	248.58	30.73	-44.4	-45.5	15.7	0.00e+00	0	23	0	3030384640	54	4213
2026-01-10 03:54:53.24	248.42	30.56	-44.4	-45.5	15.7	0.00e+00	0	23	0	3035627520	54	4225
2026-01-10 03:54:54.24	248.26	30.39	-44.4	-45.5	15.7	0.00e+00	0	23	0	3040870400	54	4221
2026-01-10 03:54:55.25	248.11	30.21	-44.4	-45.5	15.7	0.00e+00	0	23	0	3047161856	54	4218
2026-01-10 03:54:56.24	247.95	30.04	-44.4	-45.5	15.7	0.00e+00	0	23	0	3052404736	54	4212
2026-01-10 03:54:57.25	247.80	29.87	-44.3	-45.3	15.7	0.00e+00	0	23	0	3057647616	54	4131
2026-01-10 03:54:58.25	247.65	29.70	-44.1	-45.1	15.8	0.00e+00	0	24	0	3063939072	54	4036
2026-01-10 03:54:59.25	247.50	29.53	-44.0	-45.0	15.8	0.00e+00	0	23	0	3069181952	54	4002
2026-01-10 03:55:00.24	247.36	29.36	-44.0	-45.0	15.8	0.00e+00	0	24	0	3075473408	54	4001
2026-01-10 03:55:01.24	247.21	29.19	-44.1	-45.1	15.8	0.00e+00	0	23	0	3080716288	54	4042
2026-01-10 03:55:02.23	247.07	29.03	-44.2	-45.3	15.7	0.00e+00	0	23	0	3085959168	54	4108
2026-01-10 03:55:03.22	246.93	28.86	-44.4	-45.4	15.7	0.00e+00	0	23	0	3092250624	54	4183
2026-01-10 03:55:04.22	246.79	28.70	-44.5	-45.6	15.7	0.00e+00	0	23	0	3097493504	54	4257
2026-01-10 03:55:05.22	246.65	28.53	-44.6	-45.6	15.7	0.00e+00	0	24	0	3102736384	54	4284
2026-01-10 03:55:06.22	246.51	28.37	-44.7	-45.7	15.6	0.00e+00	0	23	0	3109027840	54	4335
2026-01-10 03:55:07.22	246.37	28.20	-44.6	-45.7	15.7	0.00e+00	0	23	0	3114270720	54	4322
2026-01-10 03:55:08.22	246.24	28.04	-44.8	-45.9	15.6	0.00e+00	0	23	0	3119513600	54	4408
2026-01-10 03:55:09.21	246.10	27.88	-44.8	-45.9	15.6	0.00e+00	0	23	0	3125805056	54	4400
2026-01-10 03:55:10.22	245.97	27.72	-44.6	-45.7	15.7	0.00e+00	0	23	0	3131047936	54	4298
2026-01-10 03:55:11.22	245.84	27.56	-44.6	-45.6	15.7	0.00e+00	0	23	0	3137339392	54	4281
2026-01-10 03:55:12.22	245.71	27.40	-44.6	-45.7	15.7	0.00e+00	0	23	0	3142582272	54	4299
2026-01-10 03:55:13.22	245.58	27.24	-44.5	-45.6	15.7	0.00e+00	0	23	0	3147825152	54	4253
2026-01-10 03:55:14.21	245.45	27.08	-44.5	-45.6	15.7	0.00e+00	0	23	0	3154116608	54	4264
2026-01-10 03:55:15.21	245.33	26.92	-44.5	-45.5	15.7	0.00e+00	0	23	0	3159359488	54	4223
2026-01-10 03:55:16.21	245.20	26.77	-44.3	-45.3	15.7	0.00e+00	0	23	0	3164602368	54	4129
2026-01-10 03:55:17.21	245.08	26.61	-44.3	-45.4	15.7	0.00e+00	0	23	0	3170893824	54	4166
2026-01-10 03:55:18.22	244.96	26.46	-44.4	-45.4	15.7	0.00e+00	0	23	0	3176136704	54	4181
2026-01-10 03:55:19.22	244.84	26.30	-44.3	-45.4	15.7	0.00e+00	0	23	0	3182428160	54	4164
2026-01-10 03:55:20.22	244.72	26.15	-44.5	-45.5	15.7	0.00e+00	0	23	0	3187671040	54	4236
2026-01-10 03:55:21.22	244.60	25.99	-44.5	-45.6	15.7	0.00e+00	0	23	0	3192913920	54	4278
2026-01-10 03:55:22.22	244.48	25.84	-44.5	-45.6	15.6	0.00e+00	0	23	0	3199205376	54	4280
2026-01-10 03:55:23.22	244.36	25.69	-44.6	-45.7	15.6	0.00e+00	0	23	0	3204448256	54	4322
2026-01-10 03:55:24.22	244.25	25.54	-44.7	-45.8	15.6	0.00e+00	0	23	0	3209691136	54	4341
2026-01-10 03:55:25.23	244.13	25.39	-44.6	-45.7	15.6	0.00e+00	0	23	0	3215982592	54	4329
2026-01-10 03:55:26.23	244.02	25.24	-44.7	-45.8	15.6	0.00e+00	0	23	0	3221225472	54	4348
2026-01-10 03:55:27.23	243.91	25.09	-44.6	-45.7	15.6	0.00e+00	0	23	0	3226468352	54	4326
2026-01-10 03:55:28.23	243.80	24.94	-44.6	-45.7	15.6	0.00e+00	0	23	0	3232759808	54	4306
2026-01-10 03:55:29.23	243.69	24.80	-44.6	-45.7	15.6	0.00e+00	0	23	0	3238002688	54	4300
2026-01-10 03:55:30.23	243.58	24.65	-44.5	-45.5	15.7	0.00e+00	0	23	0	3244294144	54	4224
2026-01-10 03:55:31.23	243.47	24.50	-44.5	-45.5	15.7	0.00e+00	0	23	0	3249537024	54	4240
2026-01-10 03:55:32.23	243.36	24.36	-44.6	-45.6	15.6	0.00e+00	0	23	0	3254779904	54	4277
2026-01-10 03:55:33.23	243.26	24.21	-44.6	-45.6	15.6	0.00e+00	0	23	0	3261071360	54	4288
2026-01-10 03:55:34.23	243.15	24.07	-44.5	-45.6	15.7	0.00e+00	0	23	0	3266314240	54	4255
2026-01-10 03:55:35.22	243.05	23.93	-44.6	-45.7	15.6	0.00e+00	0	23	0	3271557120	54	4295
2026-01-10 03:55:36.22	242.95	23.79	-44.7	-45.7	15.6	0.00e+00	0	23	0	3277848576	54	4334
2026-01-10 03:55:37.21	242.85	23.65	-44.6	-45.7	15.6	0.00e+00	0	23	0	3283091456	54	4319
2026-01-10 03:55:38.22	242.75	23.50	-44.8	-45.9	15.6	0.00e+00	0	23	0	3288334336	54	4419
2026-01-10 03:55:39.22	242.65	23.36	-44.9	-46.0	15.6	0.00e+00	0	23	0	3294625792	54	4444
2026-01-10 03:55:40.21	242.55	23.23	-44.8	-45.9	15.6	0.00e+00	0	23	0	3299868672	54	4392
2026-01-10 03:55:41.22	242.45	23.09	-44.8	-45.9	15.6	0.00e+00	0	23	0	3306160128	54	4426
2026-01-10 03:55:42.22	242.35	22.95	-44.8	-45.9	15.6	0.00e+00	0	23	0	3311403008	54	4432
2026-01-10 03:55:43.22	242.26	22.81	-44.9	-46.0	15.6	0.00e+00	0	23	0	3316645888	54	4462
2026-01-10 03:55:44.22	242.16	22.67	-44.9	-46.0	15.7	0.00e+00	0	24	0	3322937344	55	4225
2026-01-10 03:55:45.22	242.07	22.54	-44.9	-46.0	15.6	0.00e+00	0	23	0	3328180224	55	4212
2026-01-10 03:55:46.21	241.97	22.40	-45.0	-46.1	15.6	0.00e+00	0	23	0	3333423104	55	4250
2026-01-10 03:55:47.21	241.88	22.27	-44.9	-46.0	15.6	0.00e+00	0	23	0	3339714560	55	4237
2026-01-10 03:55:48.21	241.79	22.13	-44.9	-46.0	15.6	0.00e+00	0	23	0	3344957440	55	4227
2026-01-10 03:55:49.21	241.70	22.00	-45.0	-46.1	15.6	0.00e+00	0	23	0	3350200320	55	4256
2026-01-10 03:55:50.21	241.61	21.86	-45.0	-46.1	15.6	0.00e+00	0	24	0	3356491776	55	4269
2026-01-10 03:55:51.21	241.52	21.73	-45.0	-46.1	15.6	0.00e+00	0	23	0	3361734656	55	4281
2026-01-10 03:55:52.21	241.43	21.60	-45.1	-46.2	15.6	0.00e+00	0	24	0	3368026112	55	4295
2026-01-10 03:55:53.21	241.34	21.47	-45.0	-46.1	15.6	0.00e+00	0	23	0	3373268992	55	4284
2026-01-10 03:55:54.20	241.25	21.34	-45.2	-46.3	15.6	0.00e+00	0	23	0	3378511872	55	4347
2026-01-10 03:55:55.20	241.17	21.21	-45.1	-46.2	15.6	0.00e+00	0	23	0	3383754752	55	4319
2026-01-10 03:55:56.20	241.08	21.08	-45.1	-46.2	15.6	0.00e+00	0	23	0	3390046208	55	4329
2026-01-10 03:55:57.20	241.00	20.95	-45.3	-46.4	15.5	0.00e+00	0	24	0	3395289088	55	4397
2026-01-10 03:55:58.19	240.91	20.82	-45.2	-46.3	15.6	0.00e+00	0	23	0	3400531968	55	4353
2026-01-10 03:55:59.19	240.83	20.69	-45.2	-46.3	15.5	0.00e+00	0	23	0	3406823424	55	4390
2026-01-10 03:56:00.19	240.75	20.57	-45.2	-46.3	15.5	0.00e+00	0	23	0	3412066304	55	4369
2026-01-10 03:56:01.19	240.66	20.44	-45.2	-46.3	15.5	0.00e+00	0	23	0	3418357760	55	4377
2026-01-10 03:56:02.19	240.58	20.31	-45.3	-46.4	15.5	0.00e+00	0	23	0	3423600640	55	4405
2026-01-10 03:56:03.19	240.50	20.19	-45.3	-46.4	15.5	0.00e+00	0	23	0	3428843520	55	4418
2026-01-10 03:56:04.18	240.42	20.07	-45.4	-46.5	15.5	0.00e+00	0	23	0	3435134976	55	4468
2026-01-10 03:56:05.18	240.34	19.94	-45.4	-46.5	15.5	0.00e+00	0	24	0	3440377856	55	4474
2026-01-10 03:56:06.18	240.26	19.82	-45.6	-46.7	15.5	0.00e+00	0	23	0	3445620736	56	4330
2026-01-10 03:56:07.17	240.19	19.69	-45.6	-46.7	15.5	0.00e+00	0	24	0	3451912192	56	4334
2026-01-10 03:56:08.17	240.11	19.57	-45.7	-46.8	15.5	0.00e+00	0	23	0	3457155072	56	4352
2026-01-10 03:56:09.16	240.03	19.45	-45.7	-46.9	15.5	0.00e+00	0	23	0	3462397952	56	4392
2026-01-10 03:56:10.16	239.96	19.33	-45.7	-46.8	15.5	0.00e+00	0	23	0	3468689408	56	4377
2026-01-10 03:56:11.15	239.88	19.21	-45.8	-46.9	15.5	0.00e+00	0	24	0	3473932288	56	4404
2026-01-10 03:56:12.14	239.81	19.09	-45.8	-47.0	15.5	0.00e+00	0	23	0	3479175168	56	4442
2026-01-10 03:56:13.14	239.73	18.97	-45.8	-46.9	15.5	0.00e+00	0	23	0	3485466624	56	4432
2026-01-10 03:56:14.14	239.66	18.85	-45.8	-46.9	15.5	0.00e+00	0	24	0	3490709504	56	4433
2026-01-10 03:56:15.14	239.59	18.73	-45.8	-46.9	15.4	0.00e+00	0	24	0	3495952384	56	4434
2026-01-10 03:56:16.14	239.51	18.61	-45.8	-46.9	15.5	0.00e+00	0	23	0	3502243840	56	4441
2026-01-10 03:56:17.14	239.44	18.49	-45.9	-47.0	15.5	0.00e+00	0	24	0	3507486720	56	4472
2026-01-10 03:56:18.14	239.37	18.38	-45.9	-47.0	15.5	0.00e+00	0	24	0	3512729600	57	4211
2026-01-10 03:56:19.14	239.30	18.26	-45.9	-47.0	15.5	0.00e+00	0	24	0	3519021056	57	4232
2026-01-10 03:56:20.14	239.23	18.14	-45.9	-47.0	15.5	0.00e+00	0	24	0	3524263936	57	4229
2026-01-10 03:56:21.13	239.16	18.03	-45.9	-47.1	15.5	0.00e+00	0	24	0	3530555392	57	4247
2026-01-10 03:56:22.13	239.09	17.91	-46.0	-47.1	15.5	0.00e+00	0	24	0	3535798272	57	4279
2026-01-10 03:56:23.13	239.02	17.80	-45.9	-47.1	15.5	0.00e+00	0	24	0	3541041152	57	4258
2026-01-10 03:56:24.12	238.95	17.68	-46.0	-47.2	15.5	0.00e+00	0	24	0	3547332608	57	4304
2026-01-10 03:56:25.12	238.89	17.57	-46.0	-47.2	15.5	0.00e+00	0	24	0	3552575488	57	4305
2026-01-10 03:56:26.12	238.82	17.46	-46.1	-47.2	15.5	0.00e+00	0	23	0	3557818368	57	4339
2026-01-10 03:56:27.12	238.75	17.34	-46.1	-47.3	15.5	0.00e+00	0	23	0	3564109824	57	4348
2026-01-10 03:56:28.12	238.69	17.23	-46.2	-47.3	15.4	0.00e+00	0	24	0	3569352704	57	4387
2026-01-10 03:56:29.12	238.62	17.12	-46.3	-47.4	15.4	0.00e+00	0	23	0	3574595584	57	4426
2026-01-10 03:56:30.12	238.56	17.01	-46.3	-47.5	15.4	0.00e+00	0	24	0	3580887040	57	4458
2026-01-10 03:56:31.12	238.49	16.90	-46.3	-47.5	15.4	0.00e+00	0	24	0	3586129920	57	4470
2026-01-10 03:56:32.12	238.43	16.79	-46.4	-47.5	15.4	0.00e+00	0	24	0	3592421376	57	4486
2026-01-10 03:56:33.11	238.37	16.68	-46.5	-47.6	15.4	0.00e+00	0	24	0	3597664256	58	4277
2026-01-10 03:56:34.10	238.30	16.57	-46.5	-47.6	15.4	0.00e+00	0	23	0	3602907136	58	4272
2026-01-10 03:56:35.10	238.24	16.46	-46.5	-47.7	15.4	0.00e+00	0	23	0	3608150016	58	4313
2026-01-10 03:56:36.09	238.18	16.35	-46.6	-47.7	15.4	0.00e+00	0	24	0	3614441472	58	4329
2026-01-10 03:56:37.09	238.12	16.24	-46.6	-47.8	15.4	0.00e+00	0	23	0	3619684352	58	4343
2026-01-10 03:56:38.09	238.06	16.13	-46.6	-47.7	15.4	0.00e+00	0	24	0	3624927232	58	4328
2026-01-10 03:56:39.08	238.00	16.03	-46.6	-47.8	15.4	0.00e+00	0	23	0	3631218688	58	4342
2026-01-10 03:56:40.08	237.94	15.92	-46.6	-47.8	15.4	0.00e+00	0	24	0	3636461568	58	4341
2026-01-10 03:56:41.09	237.88	15.81	-46.6	-47.8	15.4	0.00e+00	0	24	0	3642753024	58	4345
2026-01-10 03:56:42.09	237.82	15.71	-46.6	-47.8	15.4	0.00e+00	0	23	0	3647995904	58	4362
2026-01-10 03:56:43.10	237.76	15.60	-46.6	-47.8	15.3	0.00e+00	0	23	0	3653238784	58	4374
2026-01-10 03:56:44.10	237.70	15.49	-46.7	-47.8	15.3	0.00e+00	0	23	0	3659530240	58	4388
2026-01-10 03:56:45.10	237.64	15.39	-46.7	-47.9	15.3	0.00e+00	0	24	0	3664773120	58	4407
2026-01-10 03:56:46.10	237.58	15.28	-46.8	-48.0	15.3	0.00e+00	0	23	0	3670016000	58	4455
2026-01-10 03:56:47.10	237.53	15.18	-46.8	-48.0	15.3	0.00e+00	0	24	0	3676307456	58	4460
