passes_logs/2026/01/10/R3.2S_Murmansk/R3.2S_Murmansk__20260110_074240_SUOMI_NPP_rec.log

#Pass ID: 20260110_074240_SUOMI NPP
#Satellite: SUOMI NPP
#Configuration: NPP
#almurnet v.1.7.20251203
#Start time: 2026-01-10 07:42:41

#Version: 2.2.20231116
#Station: R3.2S_Murmansk
#Location: 33.079688 lon 68.888172 lat
#TLE: 1 37849U 11061A   26009.81756760  .00000113  00000+0  74747-4 0  9994
#TLE: 2 37849  98.7806 311.9110 0002525  72.5604 287.5848 14.19524046735974

#Time	Az	El	Level	Level2	SNR	BER	BlckErr	Temp	State	Recorded	gain1	gain2
2026-01-10 07:42:41.93	108.38	2.08	-57.3	-73.2	3.8	1.49e+00	0	21	0	0	81	21682
2026-01-10 07:42:42.94	108.34	2.14	-57.2	-73.2	3.8	1.49e+00	0	21	104	0	79	24138
2026-01-10 07:42:43.95	108.30	2.20	-57.2	-73.1	3.8	1.49e+00	0	21	104	0	79	24110
2026-01-10 07:42:44.96	108.26	2.26	-57.2	-73.1	3.8	1.49e+00	0	21	104	0	79	24100
2026-01-10 07:42:45.97	108.22	2.33	-57.2	-73.2	3.8	1.49e+00	0	21	104	0	79	24152
2026-01-10 07:42:46.97	108.18	2.39	-57.2	-73.1	3.8	1.49e+00	0	21	104	0	79	24116
2026-01-10 07:42:47.98	108.13	2.45	-57.2	-73.2	3.8	1.49e+00	0	21	104	0	79	24207
2026-01-10 07:42:48.99	108.09	2.51	-57.2	-73.1	3.8	1.49e+00	0	21	104	0	79	24106
2026-01-10 07:42:50.00	108.05	2.58	-57.2	-73.2	3.8	1.49e+00	0	21	104	0	79	24181
2026-01-10 07:42:51.01	108.01	2.64	-57.2	-73.2	3.8	1.49e+00	0	22	104	0	79	24150
2026-01-10 07:42:52.02	107.96	2.70	-57.2	-73.1	3.8	1.49e+00	0	21	104	0	79	24056
2026-01-10 07:42:53.03	107.92	2.77	-57.2	-73.1	3.8	1.49e+00	0	21	104	0	79	23999
2026-01-10 07:42:54.04	107.88	2.83	-57.2	-73.1	3.8	1.49e+00	0	21	104	0	79	23994
2026-01-10 07:42:55.05	107.84	2.89	-57.2	-73.0	3.8	1.49e+00	0	22	104	0	79	23811
2026-01-10 07:42:56.06	107.79	2.96	-57.2	-73.0	3.8	1.49e+00	0	21	104	0	79	23753
2026-01-10 07:42:57.06	107.75	3.02	-57.2	-72.9	3.8	1.49e+00	0	21	104	0	79	23432
2026-01-10 07:42:58.07	107.70	3.08	-57.2	-72.9	3.8	1.49e+00	0	21	104	0	79	23555
2026-01-10 07:42:59.08	107.66	3.15	-57.2	-73.0	3.8	1.49e+00	0	22	104	0	79	23597
2026-01-10 07:43:00.08	107.62	3.21	-57.2	-73.0	3.8	1.49e+00	0	22	104	0	79	23591
2026-01-10 07:43:01.09	107.57	3.28	-57.2	-72.9	3.8	1.49e+00	0	22	104	0	79	23540
2026-01-10 07:43:02.10	107.53	3.34	-57.2	-72.9	3.8	1.49e+00	0	22	104	0	79	23508
2026-01-10 07:43:03.11	107.48	3.41	-57.2	-72.9	3.8	1.49e+00	0	22	104	0	79	23313
2026-01-10 07:43:04.12	107.44	3.47	-57.2	-72.8	3.8	1.49e+00	0	22	104	0	79	23272
2026-01-10 07:43:05.13	107.39	3.54	-57.2	-72.7	3.8	1.49e+00	0	22	104	0	79	22873
2026-01-10 07:43:06.14	107.35	3.60	-57.2	-72.6	3.8	1.49e+00	0	22	104	0	79	22643
2026-01-10 07:43:07.15	107.30	3.67	-57.2	-72.7	3.8	1.49e+00	0	22	104	0	79	22840
2026-01-10 07:43:08.16	107.25	3.73	-57.2	-72.8	3.8	1.49e+00	0	22	104	0	79	23049
2026-01-10 07:43:09.16	107.21	3.80	-57.2	-72.8	3.8	1.49e+00	0	22	104	0	79	23177
2026-01-10 07:43:10.17	107.16	3.86	-57.2	-73.0	3.8	1.49e+00	0	22	104	0	79	23603
2026-01-10 07:43:11.18	107.11	3.93	-57.2	-73.1	3.8	1.49e+00	0	22	104	0	79	24127
2026-01-10 07:43:12.19	107.07	3.99	-57.2	-73.2	3.8	1.49e+00	0	22	104	0	79	24150
2026-01-10 07:43:13.20	107.02	4.06	-57.2	-72.9	3.8	1.49e+00	0	22	104	0	79	23572
2026-01-10 07:43:14.21	106.97	4.13	-57.2	-72.4	3.8	1.49e+00	0	22	104	0	79	22213
2026-01-10 07:43:15.22	106.93	4.19	-57.1	-71.8	3.8	1.49e+00	0	22	104	0	79	20711
2026-01-10 07:43:16.23	106.88	4.26	-57.1	-71.0	3.8	1.49e+00	0	22	104	0	79	18804
2026-01-10 07:43:17.24	106.83	4.33	-57.1	-70.0	4.1	1.46e+00	0	22	0	0	79	16696
2026-01-10 07:43:18.25	106.78	4.39	-57.0	-69.0	4.4	1.37e+00	78	22	0	0	79	14944
2026-01-10 07:43:19.25	106.73	4.46	-57.0	-68.2	4.6	9.42e-01	0	22	0	2097152	79	13666
2026-01-10 07:43:20.26	106.68	4.53	-56.9	-67.6	5.0	6.90e-01	0	22	0	4194304	79	12701
2026-01-10 07:43:21.27	106.63	4.59	-56.8	-66.6	5.5	5.32e-01	0	22	0	5242880	79	11383
2026-01-10 07:43:22.28	106.59	4.66	-56.7	-65.5	6.2	2.80e-01	0	22	0	7340032	79	10038
2026-01-10 07:43:23.29	106.54	4.73	-56.6	-65.1	6.6	2.23e-01	0	22	0	9437184	79	9541
2026-01-10 07:43:24.30	106.49	4.80	-56.5	-64.7	6.9	1.70e-01	0	22	0	11534336	79	9138
2026-01-10 07:43:25.30	106.44	4.86	-56.5	-64.5	7.1	1.14e-01	0	22	0	13631488	79	8921
2026-01-10 07:43:26.31	106.39	4.93	-56.4	-64.0	7.5	7.74e-02	0	22	0	14680064	79	8384
2026-01-10 07:43:27.32	106.34	5.00	-56.3	-63.4	8.1	6.55e-02	0	22	0	16777216	79	7864
2026-01-10 07:43:28.33	106.28	5.07	-56.3	-63.5	8.0	4.62e-02	0	22	0	18874368	79	7908
2026-01-10 07:43:29.34	106.23	5.14	-56.1	-62.2	9.1	3.40e-02	0	22	0	20971520	78	7246
2026-01-10 07:43:30.35	106.18	5.20	-55.9	-61.3	10.2	7.94e-04	0	22	0	23068672	77	6924
2026-01-10 07:43:31.35	106.13	5.27	-57.1	-67.6	4.9	9.39e-01	0	22	0	24117248	79	12794
2026-01-10 07:43:32.36	106.08	5.34	-56.7	-64.3	7.4	4.40e-01	0	22	0	26214400	79	8741
2026-01-10 07:43:33.37	106.03	5.41	-55.0	-59.2	11.8	1.29e-05	0	22	0	28311552	76	5759
2026-01-10 07:43:34.37	105.98	5.48	-55.0	-59.1	11.8	1.60e-05	0	22	0	29360128	76	5659
2026-01-10 07:43:35.38	105.92	5.55	-54.5	-58.2	12.4	1.06e-05	0	22	0	31457280	75	5450
2026-01-10 07:43:36.39	105.87	5.62	-54.3	-57.8	12.7	7.00e-07	0	22	0	33554432	75	5209
2026-01-10 07:43:37.40	105.82	5.69	-54.0	-57.3	13.0	7.00e-07	0	22	0	35651584	74	5164
2026-01-10 07:43:38.41	105.76	5.76	-54.1	-57.4	12.9	7.00e-07	0	22	0	37748736	74	5230
2026-01-10 07:43:39.42	105.71	5.83	-53.8	-56.9	13.3	0.00e+00	0	22	0	38797312	74	4933
2026-01-10 07:43:40.43	105.66	5.90	-53.8	-56.8	13.3	0.00e+00	0	22	0	40894464	74	4916
2026-01-10 07:43:41.44	105.60	5.97	-53.9	-57.1	13.1	0.00e+00	0	22	0	42991616	74	5049
2026-01-10 07:43:42.45	105.55	6.04	-53.6	-56.7	13.2	0.00e+00	0	22	0	45088768	73	5134
2026-01-10 07:43:43.45	105.49	6.11	-53.8	-56.9	13.1	0.00e+00	0	22	0	47185920	73	5270
2026-01-10 07:43:44.46	105.44	6.18	-53.9	-57.2	12.9	0.00e+00	0	22	0	48234496	73	5403
2026-01-10 07:43:45.47	105.38	6.25	-53.8	-57.0	13.0	0.00e+00	0	22	0	50331648	73	5339
2026-01-10 07:43:46.48	105.33	6.32	-53.8	-57.1	13.0	0.00e+00	0	22	0	52428800	73	5371
2026-01-10 07:43:47.49	105.27	6.39	-53.9	-57.2	12.9	0.00e+00	0	22	0	54525952	73	5452
2026-01-10 07:43:48.50	105.21	6.46	-53.9	-57.2	12.9	0.00e+00	0	23	0	56623104	73	5422
2026-01-10 07:43:49.50	105.16	6.53	-53.8	-57.0	13.1	0.00e+00	0	22	0	57671680	73	5297
2026-01-10 07:43:50.51	105.10	6.61	-53.7	-56.8	13.2	0.00e+00	0	22	0	59768832	73	5181
2026-01-10 07:43:51.52	105.04	6.68	-53.9	-57.1	13.0	0.00e+00	0	22	0	61865984	73	5379
2026-01-10 07:43:52.53	104.99	6.75	-53.6	-56.6	13.4	0.00e+00	0	22	0	63963136	73	5062
2026-01-10 07:43:53.54	104.93	6.82	-53.7	-56.7	13.3	0.00e+00	0	22	0	66060288	73	5120
2026-01-10 07:43:54.55	104.87	6.90	-53.6	-56.6	13.4	0.00e+00	0	23	0	67108864	73	5045
2026-01-10 07:43:55.56	104.81	6.97	-53.5	-56.4	13.5	0.00e+00	0	22	0	69206016	73	4963
2026-01-10 07:43:56.57	104.75	7.04	-53.5	-56.4	13.5	0.00e+00	0	23	0	71303168	73	4979
2026-01-10 07:43:57.58	104.70	7.11	-53.6	-56.6	13.4	0.00e+00	0	22	0	73400320	73	5057
2026-01-10 07:43:58.58	104.64	7.19	-53.5	-56.4	13.5	0.00e+00	0	23	0	75497472	73	4976
2026-01-10 07:43:59.58	104.58	7.26	-53.5	-56.4	13.5	0.00e+00	0	23	0	76546048	73	4954
2026-01-10 07:44:00.59	104.52	7.33	-53.6	-56.6	13.4	0.00e+00	0	22	0	78643200	73	5077
2026-01-10 07:44:01.60	104.46	7.41	-53.4	-56.2	13.6	0.00e+00	0	22	0	80740352	73	4841
2026-01-10 07:44:02.61	104.40	7.48	-53.2	-55.9	13.9	0.00e+00	0	22	0	82837504	73	4690
2026-01-10 07:44:03.62	104.34	7.56	-53.2	-55.8	13.9	0.00e+00	0	22	0	84934656	73	4639
2026-01-10 07:44:04.63	104.28	7.63	-53.1	-55.8	13.8	0.00e+00	0	23	0	87031808	72	4886
2026-01-10 07:44:05.64	104.21	7.70	-52.9	-55.5	14.0	0.00e+00	0	23	0	88080384	72	4710
2026-01-10 07:44:06.65	104.15	7.78	-53.0	-55.6	13.9	0.00e+00	0	22	0	90177536	72	4787
2026-01-10 07:44:07.65	104.09	7.85	-52.8	-55.2	14.2	0.00e+00	0	23	0	92274688	72	4585
2026-01-10 07:44:08.66	104.03	7.93	-52.8	-55.3	14.2	0.00e+00	0	23	0	94371840	72	4615
2026-01-10 07:44:09.67	103.97	8.00	-52.9	-55.4	14.1	0.00e+00	0	23	0	95420416	72	4670
2026-01-10 07:44:10.67	103.90	8.08	-52.9	-55.4	14.1	0.00e+00	0	23	0	97517568	72	4654
2026-01-10 07:44:11.67	103.84	8.15	-53.0	-55.6	14.0	0.00e+00	0	23	0	99614720	72	4765
2026-01-10 07:44:12.68	103.78	8.23	-53.0	-55.7	13.9	0.00e+00	0	23	0	101711872	72	4825
2026-01-10 07:44:13.68	103.71	8.30	-53.0	-55.6	14.0	0.00e+00	0	23	0	103809024	72	4801
2026-01-10 07:44:14.69	103.65	8.38	-52.9	-55.4	14.1	0.00e+00	0	23	0	104857600	72	4664
2026-01-10 07:44:15.70	103.58	8.46	-52.8	-55.2	14.2	0.00e+00	0	23	0	106954752	72	4597
2026-01-10 07:44:16.71	103.52	8.53	-52.8	-55.4	14.1	0.00e+00	0	23	0	109051904	72	4675
2026-01-10 07:44:17.71	103.45	8.61	-52.7	-55.5	13.9	0.00e+00	0	23	0	111149056	71	5023
2026-01-10 07:44:18.72	103.39	8.69	-52.7	-55.5	13.9	0.00e+00	0	23	0	113246208	71	5018
2026-01-10 07:44:19.72	103.32	8.76	-52.6	-55.3	14.0	0.00e+00	0	23	0	114294784	71	4924
2026-01-10 07:44:20.73	103.25	8.84	-52.5	-55.2	14.1	0.00e+00	0	23	0	116391936	71	4840
2026-01-10 07:44:21.74	103.19	8.92	-52.5	-55.3	14.1	0.00e+00	0	23	0	118489088	71	4881
2026-01-10 07:44:22.75	103.12	9.00	-52.4	-55.0	14.3	0.00e+00	0	23	0	120586240	71	4745
2026-01-10 07:44:23.76	103.05	9.07	-52.4	-55.1	14.2	0.00e+00	0	23	0	122683392	71	4773
2026-01-10 07:44:24.77	102.98	9.15	-52.6	-55.3	14.1	0.00e+00	0	23	0	123731968	71	4897
2026-01-10 07:44:25.77	102.92	9.23	-52.7	-55.5	13.9	0.00e+00	0	23	0	125829120	71	4984
2026-01-10 07:44:26.78	102.85	9.31	-52.4	-55.1	14.2	0.00e+00	0	23	0	127926272	71	4792
2026-01-10 07:44:27.79	102.78	9.39	-52.6	-55.3	14.0	0.00e+00	0	23	0	130023424	71	4921
2026-01-10 07:44:28.80	102.71	9.47	-52.5	-55.2	14.1	0.00e+00	0	23	0	132120576	71	4846
2026-01-10 07:44:29.81	102.64	9.54	-52.5	-55.2	14.1	0.00e+00	0	23	0	133169152	71	4855
2026-01-10 07:44:30.82	102.57	9.62	-52.5	-55.2	14.2	0.00e+00	0	23	0	135266304	71	4832
2026-01-10 07:44:31.82	102.50	9.70	-52.3	-54.9	14.3	0.00e+00	0	23	0	137363456	71	4689
2026-01-10 07:44:32.83	102.43	9.78	-52.4	-55.0	14.2	0.00e+00	0	23	0	139460608	71	4745
2026-01-10 07:44:33.84	102.35	9.86	-52.4	-55.0	14.2	0.00e+00	0	23	0	141557760	71	4750
2026-01-10 07:44:34.85	102.28	9.94	-52.5	-55.2	14.1	0.00e+00	0	23	0	143654912	71	4843
2026-01-10 07:44:35.86	102.21	10.02	-52.7	-55.5	13.9	0.00e+00	0	23	0	144703488	71	5036
2026-01-10 07:44:36.87	102.14	10.10	-52.6	-55.4	14.0	0.00e+00	0	23	0	146800640	71	4977
2026-01-10 07:44:37.87	102.06	10.18	-52.6	-55.4	14.0	0.00e+00	0	23	0	148897792	71	4933
2026-01-10 07:44:38.88	101.99	10.27	-52.7	-55.6	13.9	0.00e+00	0	23	0	150994944	71	5087
2026-01-10 07:44:39.89	101.91	10.35	-52.4	-55.2	14.1	0.00e+00	0	23	0	153092096	71	4829
2026-01-10 07:44:40.90	101.84	10.43	-52.6	-55.5	14.0	0.00e+00	0	23	0	154140672	71	4984
2026-01-10 07:44:41.90	101.77	10.51	-52.6	-55.5	14.0	0.00e+00	0	23	0	156237824	71	5005
2026-01-10 07:44:42.91	101.69	10.59	-52.4	-55.2	14.1	0.00e+00	0	23	0	158334976	71	4859
2026-01-10 07:44:43.92	101.61	10.67	-52.4	-55.1	14.2	0.00e+00	0	23	0	160432128	71	4784
2026-01-10 07:44:44.93	101.54	10.76	-52.3	-55.0	14.3	0.00e+00	0	23	0	162529280	71	4748
2026-01-10 07:44:45.93	101.46	10.84	-52.2	-54.9	14.2	0.00e+00	0	23	0	163577856	70	4961
2026-01-10 07:44:46.94	101.38	10.92	-52.1	-54.8	14.3	0.00e+00	0	23	0	165675008	70	4875
2026-01-10 07:44:47.95	101.31	11.00	-52.0	-54.6	14.4	0.00e+00	0	23	0	167772160	70	4776
2026-01-10 07:44:48.96	101.23	11.09	-52.1	-54.8	14.3	0.00e+00	0	23	0	169869312	70	4878
2026-01-10 07:44:49.97	101.15	11.17	-52.1	-54.7	14.3	0.00e+00	0	23	0	171966464	70	4852
2026-01-10 07:44:50.98	101.07	11.26	-51.8	-54.2	14.4	0.00e+00	0	23	0	173015040	69	4859
2026-01-10 07:44:52.00	100.99	11.34	-51.9	-54.5	14.3	0.00e+00	0	23	0	175112192	69	5021
2026-01-10 07:44:53.00	100.91	11.42	-51.8	-54.4	14.4	0.00e+00	0	23	0	177209344	69	4932
2026-01-10 07:44:54.01	100.83	11.51	-51.9	-54.4	14.3	0.00e+00	0	23	0	179306496	69	4951
2026-01-10 07:44:55.02	100.75	11.59	-51.9	-54.5	14.3	0.00e+00	0	23	0	181403648	69	4994
2026-01-10 07:44:56.03	100.67	11.68	-51.8	-54.2	14.4	0.00e+00	0	23	0	182452224	69	4848
2026-01-10 07:44:57.04	100.58	11.76	-51.8	-54.2	14.4	0.00e+00	0	23	0	184549376	69	4857
2026-01-10 07:44:58.05	100.50	11.85	-51.7	-54.2	14.5	0.00e+00	0	23	0	186646528	69	4820
2026-01-10 07:44:59.06	100.42	11.94	-51.7	-54.0	14.6	0.00e+00	0	23	0	188743680	69	4749
2026-01-10 07:45:00.06	100.34	12.02	-51.6	-53.9	14.7	0.00e+00	0	23	0	190840832	69	4698
2026-01-10 07:45:01.07	100.25	12.11	-51.7	-54.1	14.5	0.00e+00	0	23	0	191889408	69	4781
2026-01-10 07:45:02.08	100.17	12.19	-51.6	-54.0	14.6	0.00e+00	0	23	0	193986560	69	4724
2026-01-10 07:45:03.09	100.08	12.28	-51.7	-54.0	14.6	0.00e+00	0	23	0	196083712	69	4755
2026-01-10 07:45:04.10	100.00	12.37	-51.4	-53.7	14.8	0.00e+00	0	23	0	198180864	69	4556
2026-01-10 07:45:05.10	99.91	12.45	-51.7	-54.0	14.6	0.00e+00	0	23	0	200278016	69	4750
2026-01-10 07:45:06.11	99.82	12.54	-51.6	-53.9	14.6	0.00e+00	0	23	0	201326592	69	4705
2026-01-10 07:45:07.12	99.74	12.63	-51.8	-54.1	14.5	0.00e+00	0	23	0	203423744	69	4807
2026-01-10 07:45:08.13	99.65	12.72	-51.7	-54.1	14.5	0.00e+00	0	23	0	205520896	69	4792
2026-01-10 07:45:09.14	99.56	12.80	-51.7	-54.0	14.6	0.00e+00	0	23	0	207618048	69	4713
2026-01-10 07:45:10.14	99.47	12.89	-51.8	-54.1	14.5	0.00e+00	0	23	0	209715200	69	4797
2026-01-10 07:45:11.16	99.38	12.98	-51.8	-54.1	14.5	0.00e+00	0	23	0	210763776	69	4793
2026-01-10 07:45:12.16	99.29	13.07	-51.6	-53.9	14.6	0.00e+00	0	23	0	212860928	69	4691
2026-01-10 07:45:13.17	99.20	13.16	-51.7	-54.0	14.6	0.00e+00	0	23	0	214958080	69	4748
2026-01-10 07:45:14.18	99.11	13.25	-51.7	-53.9	14.6	0.00e+00	0	23	0	217055232	69	4701
2026-01-10 07:45:15.19	99.02	13.34	-51.7	-54.0	14.6	0.00e+00	0	23	0	219152384	69	4714
2026-01-10 07:45:16.20	98.93	13.43	-51.7	-54.0	14.6	0.00e+00	0	23	0	220200960	69	4734
2026-01-10 07:45:17.20	98.83	13.52	-51.7	-53.9	14.6	0.00e+00	0	23	0	222298112	69	4701
2026-01-10 07:45:18.21	98.74	13.61	-51.8	-54.1	14.6	0.00e+00	0	23	0	224395264	69	4761
2026-01-10 07:45:19.22	98.65	13.70	-51.9	-54.2	14.5	0.00e+00	0	23	0	226492416	69	4868
2026-01-10 07:45:20.22	98.55	13.79	-51.7	-54.0	14.6	0.00e+00	0	23	0	228589568	69	4713
2026-01-10 07:45:21.23	98.46	13.88	-51.7	-54.0	14.6	0.00e+00	0	23	0	229638144	69	4708
2026-01-10 07:45:22.25	98.36	13.97	-51.8	-54.1	14.6	0.00e+00	0	23	0	231735296	69	4762
2026-01-10 07:45:23.25	98.27	14.06	-51.8	-54.2	14.5	0.00e+00	0	23	0	233832448	69	4831
2026-01-10 07:45:24.25	98.17	14.15	-51.9	-54.2	14.5	0.00e+00	0	23	0	235929600	69	4849
2026-01-10 07:45:25.26	98.07	14.25	-51.8	-54.1	14.6	0.00e+00	0	23	0	238026752	69	4766
2026-01-10 07:45:26.27	97.97	14.34	-52.0	-54.4	14.4	0.00e+00	0	23	0	240123904	69	4949
2026-01-10 07:45:27.28	97.87	14.43	-51.9	-54.3	14.4	0.00e+00	0	23	0	241172480	69	4911
2026-01-10 07:45:28.29	97.78	14.52	-51.8	-54.2	14.5	0.00e+00	0	23	0	243269632	69	4825
2026-01-10 07:45:29.30	97.68	14.62	-52.1	-54.5	14.3	0.00e+00	0	23	0	245366784	69	5038
2026-01-10 07:45:30.30	97.58	14.71	-52.0	-54.5	14.3	0.00e+00	0	23	0	247463936	69	5006
2026-01-10 07:45:31.32	97.47	14.81	-52.1	-54.6	14.3	0.00e+00	0	23	0	248512512	69	5072
2026-01-10 07:45:32.33	97.37	14.90	-52.1	-54.6	14.3	0.00e+00	0	23	0	250609664	69	5079
2026-01-10 07:45:33.34	97.27	14.99	-52.0	-54.4	14.4	0.00e+00	0	23	0	252706816	69	4977
2026-01-10 07:45:34.34	97.16	15.09	-52.1	-54.5	14.3	0.00e+00	0	23	0	254803968	69	5031
2026-01-10 07:45:35.35	97.06	15.18	-52.1	-54.5	14.3	0.00e+00	0	23	0	256901120	69	5037
2026-01-10 07:45:36.36	96.96	15.28	-51.9	-54.3	14.4	0.00e+00	0	23	0	257949696	69	4905
2026-01-10 07:45:37.37	96.85	15.37	-52.0	-54.4	14.4	0.00e+00	0	23	0	260046848	69	4965
2026-01-10 07:45:38.37	96.74	15.47	-51.9	-54.2	14.5	0.00e+00	0	23	0	262144000	69	4847
2026-01-10 07:45:39.38	96.64	15.56	-51.9	-54.2	14.5	0.00e+00	0	23	0	264241152	69	4823
2026-01-10 07:45:40.39	96.53	15.66	-51.9	-54.3	14.5	0.00e+00	0	23	0	266338304	69	4877
2026-01-10 07:45:41.39	96.42	15.76	-51.8	-54.1	14.6	0.00e+00	0	23	0	268435456	69	4785
2026-01-10 07:45:42.40	96.31	15.85	-51.7	-53.9	14.6	0.00e+00	0	23	0	269484032	69	4705
2026-01-10 07:45:43.41	96.20	15.95	-51.6	-53.8	14.7	0.00e+00	0	23	0	271581184	69	4607
2026-01-10 07:45:44.42	96.09	16.05	-51.5	-53.6	14.8	0.00e+00	0	23	0	273678336	69	4516
2026-01-10 07:45:45.43	95.98	16.15	-51.2	-53.2	15.1	0.00e+00	0	23	0	275775488	69	4325
2026-01-10 07:45:46.44	95.87	16.24	-51.1	-53.0	15.0	0.00e+00	0	23	0	277872640	68	4485
2026-01-10 07:45:47.45	95.76	16.34	-51.2	-53.1	14.9	0.00e+00	0	23	0	278921216	68	4542
2026-01-10 07:45:48.45	95.64	16.44	-51.2	-53.1	14.9	0.00e+00	0	23	0	281018368	68	4540
2026-01-10 07:45:49.46	95.53	16.54	-51.2	-53.1	14.9	0.00e+00	0	23	0	283115520	68	4540
2026-01-10 07:45:50.47	95.41	16.64	-51.0	-52.9	15.0	0.00e+00	0	23	0	285212672	68	4396
2026-01-10 07:45:51.48	95.30	16.74	-51.1	-53.0	15.0	0.00e+00	0	23	0	287309824	68	4456
2026-01-10 07:45:52.48	95.18	16.84	-51.1	-53.0	15.0	0.00e+00	0	23	0	288358400	68	4453
2026-01-10 07:45:53.49	95.07	16.94	-51.1	-53.0	15.0	0.00e+00	0	23	0	290455552	68	4469
2026-01-10 07:45:54.50	94.95	17.04	-51.3	-53.3	14.9	0.00e+00	0	23	0	292552704	68	4603
2026-01-10 07:45:55.50	94.83	17.13	-51.3	-53.2	14.9	0.00e+00	0	23	0	294649856	68	4596
2026-01-10 07:45:56.51	94.71	17.24	-51.4	-53.3	14.8	0.00e+00	0	23	0	296747008	68	4651
2026-01-10 07:45:57.52	94.59	17.34	-51.5	-53.6	14.7	0.00e+00	0	23	0	297795584	68	4761
2026-01-10 07:45:58.53	94.47	17.44	-51.7	-53.8	14.6	0.00e+00	0	23	0	299892736	68	4884
2026-01-10 07:45:59.53	94.35	17.54	-51.7	-53.8	14.6	0.00e+00	0	23	0	301989888	68	4885
2026-01-10 07:46:00.54	94.22	17.64	-51.7	-53.8	14.7	0.00e+00	0	23	0	304087040	69	4644
2026-01-10 07:46:01.55	94.10	17.74	-51.6	-53.8	14.8	0.00e+00	0	23	0	306184192	69	4605
2026-01-10 07:46:02.56	93.97	17.85	-51.9	-54.1	14.6	0.00e+00	0	23	0	307232768	69	4804
2026-01-10 07:46:03.57	93.85	17.95	-51.7	-53.8	14.8	0.00e+00	0	23	0	309329920	69	4630
2026-01-10 07:46:04.58	93.72	18.05	-51.5	-53.6	14.9	0.00e+00	0	23	0	311427072	69	4503
2026-01-10 07:46:05.59	93.59	18.15	-51.5	-53.6	14.8	0.00e+00	0	23	0	313524224	69	4524
2026-01-10 07:46:06.60	93.47	18.26	-51.6	-53.7	14.8	0.00e+00	0	23	0	315621376	69	4572
2026-01-10 07:46:07.60	93.34	18.36	-51.4	-53.5	14.9	0.00e+00	0	23	0	316669952	69	4470
2026-01-10 07:46:08.61	93.21	18.47	-51.5	-53.6	14.9	0.00e+00	0	23	0	318767104	69	4527
2026-01-10 07:46:09.62	93.08	18.57	-51.4	-53.5	14.9	0.00e+00	0	23	0	320864256	69	4483
2026-01-10 07:46:10.63	92.94	18.67	-51.6	-53.8	14.8	0.00e+00	0	23	0	322961408	69	4608
2026-01-10 07:46:11.64	92.81	18.78	-51.3	-53.3	15.1	0.00e+00	0	23	0	325058560	69	4377
2026-01-10 07:46:12.65	92.68	18.89	-51.4	-53.4	15.0	0.00e+00	0	23	0	326107136	69	4441
2026-01-10 07:46:13.66	92.54	18.99	-51.5	-53.5	14.9	0.00e+00	0	23	0	328204288	69	4474
2026-01-10 07:46:14.66	92.41	19.10	-51.6	-53.8	14.8	0.00e+00	0	23	0	330301440	69	4615
2026-01-10 07:46:15.67	92.27	19.20	-51.9	-54.1	14.6	0.00e+00	0	23	0	332398592	69	4797
2026-01-10 07:46:16.68	92.13	19.31	-52.2	-54.6	14.3	0.00e+00	0	23	0	334495744	69	5088
2026-01-10 07:46:17.69	91.99	19.41	-52.2	-54.6	14.3	0.00e+00	0	23	0	335544320	69	5066
2026-01-10 07:46:18.70	91.85	19.52	-52.6	-55.2	14.1	0.00e+00	0	23	0	337641472	70	5122
2026-01-10 07:46:19.70	91.71	19.63	-52.1	-54.4	14.6	0.00e+00	0	23	0	339738624	70	4688
2026-01-10 07:46:20.71	91.57	19.74	-52.1	-54.4	14.6	0.00e+00	0	23	0	341835776	70	4693
2026-01-10 07:46:21.71	91.43	19.84	-52.3	-54.6	14.5	0.00e+00	0	23	0	343932928	70	4797
2026-01-10 07:46:22.72	91.29	19.95	-52.2	-54.5	14.5	0.00e+00	0	23	0	344981504	70	4736
2026-01-10 07:46:23.73	91.14	20.06	-52.3	-54.6	14.5	0.00e+00	0	23	0	347078656	70	4794
2026-01-10 07:46:24.74	91.00	20.17	-52.4	-54.8	14.4	0.00e+00	0	23	0	349175808	70	4913
2026-01-10 07:46:25.75	90.85	20.28	-52.4	-54.7	14.4	0.00e+00	0	23	0	351272960	70	4859
2026-01-10 07:46:26.75	90.70	20.38	-52.7	-55.2	14.1	0.00e+00	0	23	0	353370112	70	5151
2026-01-10 07:46:27.76	90.55	20.49	-52.5	-54.9	14.3	0.00e+00	0	23	0	354418688	70	4949
2026-01-10 07:46:28.77	90.40	20.60	-52.3	-54.6	14.5	0.00e+00	0	23	0	356515840	70	4779
2026-01-10 07:46:29.78	90.25	20.71	-52.3	-54.6	14.5	0.00e+00	0	23	0	358612992	70	4777
2026-01-10 07:46:30.79	90.10	20.82	-52.3	-54.6	14.5	0.00e+00	0	23	0	360710144	70	4806
2026-01-10 07:46:31.80	89.95	20.93	-52.4	-54.8	14.5	0.00e+00	0	23	0	362807296	70	4889
2026-01-10 07:46:32.81	89.79	21.05	-52.2	-54.6	14.5	0.00e+00	0	23	0	363855872	70	4771
2026-01-10 07:46:33.82	89.64	21.16	-52.2	-54.5	14.5	0.00e+00	0	23	0	365953024	70	4720
2026-01-10 07:46:34.82	89.48	21.27	-52.2	-54.4	14.5	0.00e+00	0	23	0	368050176	70	4705
2026-01-10 07:46:35.83	89.32	21.38	-52.1	-54.3	14.6	0.00e+00	0	23	0	370147328	70	4634
2026-01-10 07:46:36.84	89.16	21.49	-52.0	-54.2	14.7	0.00e+00	0	23	0	372244480	70	4547
2026-01-10 07:46:37.84	89.00	21.60	-51.9	-54.1	14.8	0.00e+00	0	23	0	373293056	70	4519
2026-01-10 07:46:38.85	88.84	21.71	-51.8	-54.0	14.8	0.00e+00	0	23	0	375390208	70	4475
2026-01-10 07:46:39.86	88.68	21.83	-52.1	-54.4	14.6	0.00e+00	0	23	0	377487360	70	4657
2026-01-10 07:46:40.87	88.52	21.94	-51.5	-53.7	14.9	0.00e+00	0	23	0	379584512	69	4549
2026-01-10 07:46:41.87	88.35	22.05	-51.5	-53.6	14.9	0.00e+00	0	23	0	381681664	69	4523
2026-01-10 07:46:42.88	88.18	22.16	-51.5	-53.6	14.9	0.00e+00	0	23	0	382730240	69	4496
2026-01-10 07:46:43.89	88.02	22.28	-51.4	-53.5	15.0	0.00e+00	0	23	0	384827392	69	4446
2026-01-10 07:46:44.89	87.85	22.39	-51.4	-53.5	15.0	0.00e+00	0	23	0	386924544	69	4467
2026-01-10 07:46:45.90	87.68	22.50	-51.3	-53.4	15.0	0.00e+00	0	23	0	389021696	69	4435
2026-01-10 07:46:46.90	87.51	22.62	-51.3	-53.4	15.0	0.00e+00	0	23	0	391118848	69	4419
2026-01-10 07:46:47.91	87.34	22.73	-51.6	-53.8	14.8	0.00e+00	0	23	0	392167424	69	4605
2026-01-10 07:46:48.92	87.16	22.85	-51.4	-53.4	15.0	0.00e+00	0	23	0	394264576	69	4426
2026-01-10 07:46:49.92	86.99	22.96	-51.3	-53.4	15.1	0.00e+00	0	23	0	396361728	69	4407
2026-01-10 07:46:50.93	86.81	23.08	-51.2	-53.2	15.2	0.00e+00	0	23	0	398458880	69	4330
2026-01-10 07:46:51.93	86.64	23.19	-51.3	-53.4	14.9	0.00e+00	0	23	0	400556032	68	4657
2026-01-10 07:46:52.94	86.46	23.31	-51.2	-53.2	15.0	0.00e+00	0	23	0	401604608	68	4551
2026-01-10 07:46:53.95	86.28	23.42	-51.3	-53.2	14.9	0.00e+00	0	23	0	403701760	68	4588
2026-01-10 07:46:54.96	86.09	23.54	-51.3	-53.3	14.9	0.00e+00	0	23	0	405798912	68	4627
2026-01-10 07:46:55.96	85.91	23.65	-51.6	-53.7	14.6	0.00e+00	0	23	0	407896064	68	4844
2026-01-10 07:46:56.97	85.73	23.77	-51.8	-53.9	14.6	0.00e+00	0	23	0	409993216	68	4967
2026-01-10 07:46:57.98	85.54	23.89	-51.8	-53.9	14.6	0.00e+00	0	23	0	411041792	68	4961
2026-01-10 07:46:58.99	85.36	24.00	-52.0	-54.3	14.6	0.00e+00	0	23	0	413138944	69	4884
2026-01-10 07:46:59.99	85.17	24.12	-52.3	-54.6	14.3	0.00e+00	0	23	0	415236096	69	5100
2026-01-10 07:47:00.99	84.98	24.23	-52.4	-54.8	14.2	0.00e+00	0	23	0	417333248	69	5204
2026-01-10 07:47:02.00	84.79	24.35	-52.5	-55.0	14.3	0.00e+00	0	23	0	419430400	70	4989
2026-01-10 07:47:03.01	84.59	24.47	-52.4	-54.9	14.4	0.00e+00	0	23	0	420478976	70	4930
2026-01-10 07:47:04.01	84.40	24.59	-52.8	-55.4	14.0	0.00e+00	0	23	0	422576128	70	5266
2026-01-10 07:47:05.02	84.21	24.70	-52.8	-55.5	14.0	0.00e+00	0	23	0	424673280	70	5285
2026-01-10 07:47:06.02	84.01	24.82	-52.9	-55.6	14.1	0.00e+00	0	23	0	426770432	71	5065
2026-01-10 07:47:07.04	83.81	24.94	-53.0	-55.8	13.9	0.00e+00	0	23	0	428867584	71	5213
2026-01-10 07:47:08.05	83.61	25.06	-53.0	-55.8	14.0	0.00e+00	0	23	0	429916160	71	5201
2026-01-10 07:47:09.06	83.41	25.18	-53.0	-55.9	13.8	0.00e+00	0	23	0	432013312	71	5250
2026-01-10 07:47:10.06	83.20	25.29	-52.8	-55.6	14.0	0.00e+00	0	23	0	434110464	71	5091
2026-01-10 07:47:11.07	83.00	25.41	-52.9	-55.7	14.0	0.00e+00	0	23	0	436207616	71	5107
2026-01-10 07:47:12.08	82.79	25.53	-52.9	-55.7	14.0	0.00e+00	0	23	0	438304768	71	5159
2026-01-10 07:47:13.09	82.58	25.65	-52.8	-55.5	14.1	0.00e+00	0	23	0	439353344	71	5041
2026-01-10 07:47:14.10	82.37	25.77	-53.0	-55.9	13.9	0.00e+00	0	23	0	441450496	71	5238
2026-01-10 07:47:15.11	82.16	25.89	-53.0	-55.9	13.9	0.00e+00	0	23	0	443547648	71	5259
2026-01-10 07:47:16.12	81.95	26.01	-53.0	-55.9	13.9	0.00e+00	0	23	0	445644800	71	5239
2026-01-10 07:47:17.13	81.73	26.13	-52.9	-55.8	13.9	0.00e+00	0	23	0	447741952	71	5172
2026-01-10 07:47:18.14	81.52	26.25	-52.8	-55.5	14.2	0.00e+00	0	23	0	449839104	71	5017
2026-01-10 07:47:19.14	81.30	26.36	-52.5	-55.2	14.4	0.00e+00	0	23	0	450887680	71	4815
2026-01-10 07:47:20.15	81.08	26.48	-52.5	-55.1	14.4	0.00e+00	0	23	0	452984832	71	4774
2026-01-10 07:47:21.16	80.86	26.60	-52.5	-55.1	14.4	0.00e+00	0	23	0	455081984	71	4776
2026-01-10 07:47:22.17	80.64	26.72	-52.3	-54.7	14.6	0.00e+00	0	23	0	457179136	71	4591
2026-01-10 07:47:23.17	80.41	26.84	-52.3	-54.6	14.5	0.00e+00	0	23	0	458227712	70	4806
2026-01-10 07:47:24.17	80.19	26.96	-52.3	-54.8	14.4	0.00e+00	0	23	0	460324864	70	4886
2026-01-10 07:47:25.18	79.96	27.08	-52.3	-54.6	14.5	0.00e+00	0	23	0	462422016	70	4803
2026-01-10 07:47:26.19	79.73	27.20	-52.5	-55.0	14.4	0.00e+00	0	23	0	464519168	70	4987
2026-01-10 07:47:27.20	79.50	27.32	-52.7	-55.2	14.2	0.00e+00	0	23	0	466616320	70	5134
2026-01-10 07:47:28.20	79.27	27.44	-52.7	-55.4	14.1	0.00e+00	0	23	0	468713472	70	5228
2026-01-10 07:47:29.21	79.03	27.56	-52.8	-55.4	14.1	0.00e+00	0	23	0	469762048	70	5226
2026-01-10 07:47:30.22	78.80	27.68	-52.8	-55.4	14.1	0.00e+00	0	23	0	471859200	70	5229
2026-01-10 07:47:31.23	78.56	27.80	-53.0	-55.7	14.0	0.00e+00	0	23	0	473956352	71	5147
2026-01-10 07:47:32.24	78.32	27.92	-52.9	-55.5	14.2	0.00e+00	0	23	0	476053504	71	5004
2026-01-10 07:47:33.25	78.07	28.04	-52.7	-55.1	14.4	0.00e+00	0	23	0	478150656	71	4798
2026-01-10 07:47:34.25	77.83	28.15	-52.8	-55.3	14.2	0.00e+00	0	23	0	479199232	71	4915
2026-01-10 07:47:35.25	77.59	28.27	-52.4	-54.9	14.5	0.00e+00	0	23	0	481296384	71	4661
2026-01-10 07:47:36.26	77.34	28.39	-52.5	-55.0	14.5	0.00e+00	0	23	0	483393536	71	4746
2026-01-10 07:47:37.27	77.09	28.51	-52.6	-55.2	14.3	0.00e+00	0	23	0	485490688	71	4833
2026-01-10 07:47:38.28	76.84	28.63	-52.8	-55.5	14.2	0.00e+00	0	23	0	487587840	71	5020
2026-01-10 07:47:39.29	76.58	28.75	-53.0	-55.7	14.1	0.00e+00	0	23	0	488636416	71	5140
2026-01-10 07:47:40.30	76.33	28.87	-52.8	-55.4	14.2	0.00e+00	0	23	0	490733568	71	4970
2026-01-10 07:47:41.30	76.07	28.99	-52.8	-55.3	14.3	0.00e+00	0	23	0	492830720	71	4910
2026-01-10 07:47:42.31	75.81	29.10	-52.7	-55.2	14.3	0.00e+00	0	23	0	494927872	71	4862
2026-01-10 07:47:43.32	75.55	29.22	-52.9	-55.5	14.2	0.00e+00	0	23	0	497025024	71	4994
2026-01-10 07:47:44.33	75.29	29.34	-53.0	-55.7	14.0	0.00e+00	0	23	0	498073600	71	5113
2026-01-10 07:47:45.33	75.03	29.46	-52.8	-55.4	14.2	0.00e+00	0	23	0	500170752	71	4967
2026-01-10 07:47:46.34	74.76	29.58	-52.8	-55.4	14.2	0.00e+00	0	23	0	502267904	71	4960
2026-01-10 07:47:47.35	74.49	29.69	-52.6	-55.1	14.4	0.00e+00	0	23	0	504365056	71	4787
2026-01-10 07:47:48.35	74.22	29.81	-52.6	-55.2	14.4	0.00e+00	0	23	0	506462208	71	4829
2026-01-10 07:47:49.37	73.95	29.93	-52.5	-55.0	14.5	0.00e+00	0	23	0	507510784	71	4740
2026-01-10 07:47:50.37	73.67	30.04	-52.5	-54.9	14.5	0.00e+00	0	23	0	509607936	71	4699
2026-01-10 07:47:51.38	73.40	30.16	-52.6	-55.3	14.3	0.00e+00	0	23	0	511705088	71	4879
2026-01-10 07:47:52.39	73.12	30.28	-52.7	-55.4	14.3	0.00e+00	0	23	0	513802240	71	4953
2026-01-10 07:47:53.40	72.84	30.39	-52.6	-55.4	14.3	0.00e+00	0	23	0	515899392	71	4929
2026-01-10 07:47:54.41	72.55	30.51	-52.6	-55.4	14.2	0.00e+00	0	23	0	516947968	71	4927
2026-01-10 07:47:55.41	72.27	30.62	-52.7	-55.6	14.1	0.00e+00	0	23	0	519045120	71	5097
2026-01-10 07:47:56.42	71.98	30.74	-52.9	-55.8	13.9	0.00e+00	0	23	0	521142272	71	5170
2026-01-10 07:47:57.43	71.69	30.85	-53.1	-56.2	13.6	0.00e+00	0	23	0	523239424	71	5455
2026-01-10 07:47:58.44	71.40	30.97	-53.4	-56.7	13.4	0.00e+00	0	23	0	525336576	72	5422
2026-01-10 07:47:59.45	71.11	31.08	-53.7	-57.3	13.1	0.00e+00	0	23	0	526385152	72	5805
2026-01-10 07:48:00.45	70.82	31.19	-54.0	-57.9	12.8	0.00e+00	0	23	0	528482304	73	5861
2026-01-10 07:48:01.46	70.52	31.30	-53.9	-57.6	12.9	0.00e+00	0	23	0	530579456	73	5705
2026-01-10 07:48:02.47	70.22	31.42	-54.0	-57.8	12.9	0.00e+00	0	23	0	532676608	73	5801
2026-01-10 07:48:03.47	69.92	31.53	-53.9	-57.6	13.0	0.00e+00	0	23	0	534773760	73	5684
2026-01-10 07:48:04.48	69.62	31.64	-53.6	-56.8	13.5	0.00e+00	0	23	0	535822336	73	5210
2026-01-10 07:48:05.49	69.31	31.75	-53.1	-56.1	14.0	0.00e+00	0	23	0	537919488	72	5059
2026-01-10 07:48:06.50	69.00	31.86	-53.1	-56.0	13.9	0.00e+00	0	23	0	540016640	72	5015
2026-01-10 07:48:07.51	68.69	31.97	-53.3	-56.3	13.8	0.00e+00	0	23	0	542113792	72	5178
2026-01-10 07:48:08.52	68.38	32.08	-53.7	-57.1	13.3	0.00e+00	0	23	0	544210944	72	5689
2026-01-10 07:48:09.52	68.07	32.19	-54.1	-57.8	12.9	0.00e+00	0	23	0	545259520	73	5816
2026-01-10 07:48:10.53	67.75	32.30	-54.1	-57.9	12.8	0.00e+00	0	23	0	547356672	73	5889
2026-01-10 07:48:11.54	67.43	32.41	-54.6	-58.9	12.2	3.80e-06	0	23	0	549453824	74	6244
2026-01-10 07:48:12.55	67.11	32.51	-54.7	-59.1	12.0	8.30e-06	0	23	0	551550976	74	6383
2026-01-10 07:48:13.55	66.79	32.62	-54.9	-59.6	11.7	1.83e-05	0	23	0	553648128	75	6368
2026-01-10 07:48:14.56	66.47	32.72	-54.6	-58.9	12.2	1.29e-05	0	23	0	554696704	75	5871
2026-01-10 07:48:15.57	66.14	32.83	-53.9	-57.5	13.1	0.00e+00	0	23	0	556793856	74	5305
2026-01-10 07:48:16.58	65.81	32.93	-53.7	-57.2	13.3	0.00e+00	0	23	0	558891008	74	5122
2026-01-10 07:48:17.58	65.48	33.04	-53.6	-57.0	13.3	0.00e+00	0	23	0	560988160	73	5339
2026-01-10 07:48:18.59	65.15	33.14	-54.0	-58.2	12.5	0.00e+00	0	23	0	563085312	73	6068
2026-01-10 07:48:19.60	64.81	33.24	-54.5	-59.2	11.9	7.00e-07	0	23	0	564133888	74	6461
2026-01-10 07:48:20.61	64.48	33.34	-54.5	-59.3	11.8	1.60e-05	0	23	0	566231040	74	6551
2026-01-10 07:48:21.61	64.14	33.44	-54.7	-59.9	11.3	3.12e-05	0	23	0	568328192	74	6961
2026-01-10 07:48:22.62	63.80	33.54	-54.6	-59.6	11.6	1.21e-04	0	23	0	570425344	74	6747
2026-01-10 07:48:23.62	63.46	33.64	-54.4	-59.0	12.0	4.73e-05	0	23	0	572522496	74	6312
2026-01-10 07:48:24.64	63.11	33.74	-54.4	-58.9	12.1	2.20e-06	0	23	0	573571072	74	6249
2026-01-10 07:48:25.64	62.76	33.83	-53.9	-57.8	13.0	0.00e+00	0	23	0	575668224	74	5493
2026-01-10 07:48:26.65	62.41	33.93	-53.9	-57.7	13.0	7.00e-07	0	23	0	577765376	74	5464
2026-01-10 07:48:27.66	62.06	34.03	-53.9	-57.8	13.0	0.00e+00	0	23	0	579862528	74	5524
2026-01-10 07:48:28.67	61.71	34.12	-54.0	-57.9	12.9	0.00e+00	0	23	0	581959680	74	5547
2026-01-10 07:48:29.68	61.35	34.21	-53.9	-57.7	13.1	2.20e-06	0	23	0	583008256	74	5409
2026-01-10 07:48:30.68	60.99	34.30	-54.0	-57.9	12.9	0.00e+00	0	23	0	585105408	74	5530
2026-01-10 07:48:31.69	60.63	34.40	-53.9	-57.7	13.1	0.00e+00	0	23	0	587202560	74	5453
2026-01-10 07:48:32.69	60.27	34.49	-53.6	-57.1	13.4	0.00e+00	0	23	0	589299712	73	5398
2026-01-10 07:48:33.70	59.91	34.57	-53.4	-56.9	13.4	0.00e+00	0	23	0	591396864	73	5222
2026-01-10 07:48:34.71	59.54	34.66	-52.9	-56.0	13.8	0.00e+00	0	23	0	592445440	72	5010
2026-01-10 07:48:35.72	59.17	34.75	-52.9	-56.0	13.9	0.00e+00	0	23	0	594542592	72	4994
2026-01-10 07:48:36.73	58.80	34.84	-53.2	-56.8	13.3	0.00e+00	0	23	0	596639744	72	5512
2026-01-10 07:48:37.73	58.43	34.92	-53.6	-57.8	12.6	0.00e+00	0	23	0	598736896	72	6132
2026-01-10 07:48:38.74	58.06	35.00	-53.3	-57.2	13.0	0.00e+00	0	23	0	600834048	72	5774
2026-01-10 07:48:39.75	57.68	35.09	-52.9	-56.4	13.5	0.00e+00	0	23	0	601882624	72	5220
2026-01-10 07:48:40.75	57.31	35.17	-52.8	-56.2	13.7	0.00e+00	0	23	0	603979776	72	5103
2026-01-10 07:48:41.76	56.93	35.25	-52.5	-55.5	14.0	0.00e+00	0	23	0	606076928	71	5026
2026-01-10 07:48:42.76	56.55	35.33	-52.6	-55.6	14.0	0.00e+00	0	23	0	608174080	71	5087
2026-01-10 07:48:43.78	56.16	35.40	-52.8	-56.0	13.7	0.00e+00	0	23	0	610271232	71	5331
2026-01-10 07:48:44.78	55.78	35.48	-52.5	-55.5	14.1	0.00e+00	0	23	0	611319808	71	5041
2026-01-10 07:48:45.79	55.39	35.55	-52.4	-55.4	14.2	0.00e+00	0	23	0	613416960	71	4933
2026-01-10 07:48:46.79	55.01	35.63	-52.2	-55.0	14.5	0.00e+00	0	23	0	615514112	71	4745
2026-01-10 07:48:47.79	54.62	35.70	-52.0	-54.6	14.6	0.00e+00	0	23	0	617611264	70	4785
2026-01-10 07:48:48.80	54.23	35.77	-50.9	-53.0	15.1	0.00e+00	0	23	0	619708416	68	4452
2026-01-10 07:48:49.81	53.83	35.84	-50.7	-52.8	15.2	0.00e+00	0	23	0	620756992	68	4362
2026-01-10 07:48:50.82	53.44	35.91	-50.4	-52.5	15.2	0.00e+00	0	23	0	622854144	67	4446
2026-01-10 07:48:51.83	53.04	35.97	-50.6	-52.7	15.0	0.00e+00	0	23	0	624951296	67	4564
2026-01-10 07:48:52.83	52.65	36.04	-50.7	-52.9	14.9	0.00e+00	0	23	0	627048448	67	4669
2026-01-10 07:48:53.84	52.25	36.10	-50.6	-52.7	15.0	0.00e+00	0	23	0	629145600	67	4587
2026-01-10 07:48:54.85	51.84	36.16	-50.5	-52.5	15.1	0.00e+00	0	23	0	630194176	67	4492
2026-01-10 07:48:55.86	51.44	36.23	-50.7	-52.8	15.0	0.00e+00	0	23	0	632291328	67	4632
2026-01-10 07:48:56.87	51.03	36.28	-51.2	-53.6	14.6	0.00e+00	0	23	0	634388480	67	5050
2026-01-10 07:48:57.88	50.63	36.34	-51.1	-53.4	14.7	0.00e+00	0	23	0	636485632	67	4965
2026-01-10 07:48:58.89	50.22	36.40	-50.7	-52.8	15.0	0.00e+00	0	23	0	638582784	67	4621
2026-01-10 07:48:59.89	49.81	36.45	-50.4	-52.3	15.2	0.00e+00	0	23	0	639631360	67	4386
2026-01-10 07:49:00.90	49.40	36.51	-50.3	-52.3	15.3	0.00e+00	0	23	0	641728512	67	4344
2026-01-10 07:49:01.90	48.99	36.56	-50.3	-52.2	15.3	0.00e+00	0	23	0	643825664	67	4318
2026-01-10 07:49:02.91	48.58	36.61	-50.4	-52.3	15.3	0.00e+00	0	23	0	645922816	67	4342
2026-01-10 07:49:03.92	48.16	36.65	-49.9	-51.6	15.4	0.00e+00	0	23	0	648019968	66	4278
2026-01-10 07:49:04.93	47.75	36.70	-50.4	-52.3	15.1	0.00e+00	0	23	0	650117120	66	4613
2026-01-10 07:49:05.93	47.34	36.75	-50.8	-52.8	14.8	0.00e+00	0	23	0	651165696	66	4893
2026-01-10 07:49:06.93	46.92	36.79	-50.9	-52.9	14.9	0.00e+00	0	23	0	653262848	67	4689
2026-01-10 07:49:07.94	46.50	36.83	-51.2	-53.4	14.7	0.00e+00	0	23	0	655360000	67	4936
2026-01-10 07:49:08.95	46.08	36.87	-51.3	-53.5	14.7	0.00e+00	0	23	0	657457152	67	4992
2026-01-10 07:49:09.96	45.66	36.91	-50.9	-52.9	14.9	0.00e+00	0	23	0	658505728	67	4681
2026-01-10 07:49:10.97	45.24	36.94	-50.6	-52.5	15.1	0.00e+00	0	23	0	660602880	67	4463
2026-01-10 07:49:11.98	44.81	36.98	-50.2	-52.0	15.4	0.00e+00	0	23	0	662700032	67	4221
2026-01-10 07:49:12.98	44.39	37.01	-49.9	-51.6	15.4	0.00e+00	0	23	0	664797184	66	4275
2026-01-10 07:49:14.00	43.96	37.04	-49.7	-51.4	15.4	0.00e+00	0	23	0	666894336	65	4392
2026-01-10 07:49:15.00	43.54	37.07	-49.7	-51.4	15.4	0.00e+00	0	23	0	667942912	65	4399
2026-01-10 07:49:16.01	43.12	37.10	-49.9	-51.6	15.3	0.00e+00	0	23	0	670040064	65	4504
2026-01-10 07:49:17.01	42.69	37.13	-50.9	-52.6	15.0	0.00e+00	0	23	0	672137216	66	4767
2026-01-10 07:49:18.02	42.26	37.15	-51.1	-53.1	14.9	0.00e+00	0	23	0	674234368	67	4765
2026-01-10 07:49:19.03	41.84	37.17	-51.1	-53.1	14.8	0.00e+00	0	23	0	676331520	67	4805
2026-01-10 07:49:20.04	41.41	37.19	-51.4	-53.4	14.8	0.00e+00	0	23	0	678428672	68	4691
2026-01-10 07:49:21.05	40.98	37.21	-51.9	-54.1	14.5	0.00e+00	0	23	0	679477248	68	5042
2026-01-10 07:49:22.06	40.55	37.23	-51.9	-54.1	14.5	0.00e+00	0	23	0	681574400	68	5095
2026-01-10 07:49:23.07	40.12	37.24	-51.9	-54.2	14.6	0.00e+00	0	23	0	683671552	69	4816
2026-01-10 07:49:24.07	39.69	37.25	-52.0	-54.3	14.5	0.00e+00	0	23	0	685768704	69	4914
2026-01-10 07:49:25.08	39.26	37.27	-52.6	-55.2	14.1	0.00e+00	0	23	0	687865856	70	5146
2026-01-10 07:49:26.09	38.83	37.28	-52.7	-55.4	14.0	0.00e+00	0	23	0	688914432	70	5229
2026-01-10 07:49:27.10	38.40	37.28	-52.6	-55.3	14.1	0.00e+00	0	23	0	691011584	70	5176
2026-01-10 07:49:28.11	37.96	37.29	-52.4	-55.0	14.3	0.00e+00	0	23	0	693108736	70	5004
2026-01-10 07:49:29.12	37.53	37.29	-52.2	-54.6	14.5	0.00e+00	0	23	0	695205888	70	4765
2026-01-10 07:49:30.12	37.10	37.29	-52.1	-54.4	14.7	0.00e+00	0	23	0	697303040	70	4695
2026-01-10 07:49:31.13	36.67	37.29	-52.2	-54.6	14.5	0.00e+00	0	23	0	698351616	70	4770
2026-01-10 07:49:32.14	36.24	37.29	-52.2	-54.5	14.6	0.00e+00	0	23	0	700448768	70	4709
2026-01-10 07:49:33.15	35.81	37.29	-52.5	-55.0	14.4	0.00e+00	0	23	0	702545920	70	5003
2026-01-10 07:49:34.16	35.38	37.28	-52.4	-54.8	14.4	0.00e+00	0	23	0	704643072	70	4917
2026-01-10 07:49:35.17	34.94	37.28	-52.1	-54.4	14.6	0.00e+00	0	23	0	706740224	70	4657
2026-01-10 07:49:36.17	34.52	37.27	-52.1	-54.4	14.6	0.00e+00	0	23	0	707788800	70	4658
2026-01-10 07:49:37.18	34.09	37.26	-52.1	-54.5	14.6	0.00e+00	0	23	0	709885952	70	4732
2026-01-10 07:49:38.19	33.66	37.24	-52.2	-54.6	14.5	0.00e+00	0	23	0	711983104	70	4812
2026-01-10 07:49:39.20	33.22	37.23	-52.3	-54.9	14.4	0.00e+00	0	23	0	714080256	70	4929
2026-01-10 07:49:40.21	32.79	37.21	-52.4	-55.0	14.3	0.00e+00	0	23	0	716177408	70	5016
2026-01-10 07:49:41.22	32.37	37.19	-52.5	-55.2	14.2	0.00e+00	0	23	0	717225984	70	5131
2026-01-10 07:49:42.23	31.94	37.17	-52.7	-55.6	13.9	0.00e+00	0	23	0	719323136	70	5362
2026-01-10 07:49:43.23	31.51	37.15	-53.2	-56.5	13.5	0.00e+00	0	23	0	721420288	71	5645
2026-01-10 07:49:44.24	31.08	37.13	-53.6	-57.3	13.1	0.00e+00	0	23	0	723517440	72	5814
2026-01-10 07:49:45.25	30.66	37.10	-53.6	-57.3	13.2	1.50e-06	0	23	0	725614592	73	5508
2026-01-10 07:49:46.26	30.23	37.07	-53.2	-56.5	13.8	0.00e+00	0	23	0	726663168	73	5001
2026-01-10 07:49:47.26	29.81	37.05	-53.0	-56.0	14.0	0.00e+00	0	23	0	728760320	72	4997
2026-01-10 07:49:48.27	29.38	37.01	-53.0	-56.1	14.0	0.00e+00	0	23	0	730857472	72	5045
2026-01-10 07:49:49.28	28.96	36.98	-53.3	-56.5	13.6	0.00e+00	0	23	0	732954624	72	5285
2026-01-10 07:49:50.29	28.54	36.95	-53.3	-56.7	13.5	0.00e+00	0	23	0	735051776	72	5421
2026-01-10 07:49:51.29	28.12	36.91	-53.5	-57.0	13.3	0.00e+00	0	23	0	736100352	72	5607
2026-01-10 07:49:52.30	27.70	36.87	-53.3	-56.7	13.5	0.00e+00	0	23	0	738197504	72	5426
2026-01-10 07:49:53.31	27.28	36.83	-53.2	-56.5	13.6	0.00e+00	0	23	0	740294656	72	5338
2026-01-10 07:49:54.33	26.85	36.79	-53.3	-56.6	13.6	0.00e+00	0	23	0	742391808	72	5360
2026-01-10 07:49:55.33	26.44	36.75	-53.2	-56.4	13.7	0.00e+00	0	23	0	744488960	72	5250
2026-01-10 07:49:56.34	26.02	36.70	-53.0	-56.1	13.9	0.00e+00	0	23	0	745537536	72	5055
2026-01-10 07:49:57.35	25.61	36.66	-52.4	-55.3	14.1	0.00e+00	0	23	0	747634688	71	4887
2026-01-10 07:49:58.35	25.20	36.61	-52.7	-55.9	13.8	0.00e+00	0	23	0	749731840	71	5233
2026-01-10 07:49:59.36	24.78	36.56	-52.8	-56.2	13.6	0.00e+00	0	23	0	751828992	71	5420
2026-01-10 07:50:00.37	24.37	36.51	-52.8	-56.2	13.6	0.00e+00	0	23	0	753926144	71	5455
2026-01-10 07:50:01.38	23.96	36.46	-52.8	-56.3	13.6	0.00e+00	0	23	0	754974720	71	5518
2026-01-10 07:50:02.38	23.55	36.40	-53.3	-57.3	13.1	0.00e+00	0	23	0	757071872	71	6150
2026-01-10 07:50:03.39	23.15	36.35	-53.7	-58.2	12.5	0.00e+00	0	23	0	759169024	72	6429
2026-01-10 07:50:04.39	22.74	36.29	-54.0	-58.7	12.2	2.20e-06	0	23	0	761266176	73	6486
2026-01-10 07:50:05.40	22.34	36.23	-53.5	-57.6	12.9	7.00e-07	0	23	0	763363328	73	5699
2026-01-10 07:50:06.41	21.93	36.17	-53.3	-57.2	13.2	0.00e+00	0	23	0	764411904	73	5412
2026-01-10 07:50:07.42	21.53	36.11	-52.9	-56.3	13.6	0.00e+00	0	23	0	766509056	72	5215
2026-01-10 07:50:08.43	21.13	36.04	-52.6	-55.7	13.9	0.00e+00	0	23	0	768606208	71	5118
2026-01-10 07:50:09.44	20.73	35.98	-52.0	-54.7	14.3	0.00e+00	0	23	0	770703360	70	4869
2026-01-10 07:50:10.45	20.33	35.91	-52.3	-55.2	14.1	0.00e+00	0	23	0	772800512	70	5125
2026-01-10 07:50:11.45	19.94	35.85	-52.6	-55.8	13.7	0.00e+00	0	23	0	773849088	70	5483
2026-01-10 07:50:12.46	19.55	35.78	-53.0	-56.6	13.3	0.00e+00	0	23	0	775946240	71	5708
2026-01-10 07:50:13.47	19.16	35.71	-52.7	-56.0	13.8	0.00e+00	0	23	0	778043392	71	5328
2026-01-10 07:50:14.48	18.77	35.63	-52.4	-55.4	14.2	0.00e+00	0	23	0	780140544	71	4952
2026-01-10 07:50:15.48	18.38	35.56	-52.0	-54.7	14.4	0.00e+00	0	23	0	782237696	70	4824
2026-01-10 07:50:16.49	17.99	35.49	-51.9	-54.4	14.5	0.00e+00	0	23	0	783286272	69	4963
2026-01-10 07:50:17.50	17.61	35.41	-51.5	-53.8	14.8	0.00e+00	0	23	0	785383424	69	4635
2026-01-10 07:50:18.51	17.23	35.33	-51.5	-53.8	14.8	0.00e+00	0	23	0	787480576	69	4623
2026-01-10 07:50:19.52	16.84	35.25	-51.7	-54.1	14.7	0.00e+00	0	23	0	789577728	69	4764
2026-01-10 07:50:20.52	16.47	35.17	-51.6	-54.0	14.7	0.00e+00	0	23	0	791674880	69	4739
2026-01-10 07:50:21.53	16.09	35.09	-52.2	-54.9	14.2	0.00e+00	0	23	0	792723456	69	5228
2026-01-10 07:50:22.53	15.72	35.01	-52.1	-54.8	14.2	0.00e+00	0	23	0	794820608	69	5204
2026-01-10 07:50:23.54	15.34	34.93	-52.5	-55.4	14.0	0.00e+00	0	23	0	796917760	70	5270
2026-01-10 07:50:24.55	14.97	34.84	-52.8	-55.9	13.7	0.00e+00	0	23	0	799014912	70	5573
2026-01-10 07:50:25.55	14.60	34.76	-52.6	-55.5	14.1	0.00e+00	0	23	0	801112064	71	5003
2026-01-10 07:50:26.56	14.24	34.67	-52.0	-54.5	14.5	0.00e+00	0	24	0	802160640	70	4735
2026-01-10 07:50:27.56	13.87	34.59	-51.6	-53.9	14.8	0.00e+00	0	23	0	804257792	69	4673
2026-01-10 07:50:28.57	13.51	34.50	-51.8	-54.3	14.5	0.00e+00	0	23	0	806354944	69	4908
2026-01-10 07:50:29.58	13.15	34.41	-52.1	-54.7	14.3	0.00e+00	0	23	0	808452096	69	5159
2026-01-10 07:50:30.59	12.79	34.31	-52.2	-54.8	14.2	0.00e+00	0	23	0	810549248	69	5215
2026-01-10 07:50:31.60	12.43	34.22	-52.7	-55.6	13.9	0.00e+00	0	23	0	811597824	70	5362
2026-01-10 07:50:32.60	12.08	34.13	-53.1	-56.4	13.6	0.00e+00	0	23	0	813694976	71	5532
2026-01-10 07:50:33.61	11.72	34.04	-53.2	-56.6	13.4	0.00e+00	0	23	0	815792128	71	5720
2026-01-10 07:50:34.62	11.37	33.94	-53.0	-56.1	13.7	0.00e+00	0	23	0	817889280	71	5361
2026-01-10 07:50:35.63	11.02	33.85	-52.6	-55.4	14.2	0.00e+00	0	23	0	819986432	71	4955
2026-01-10 07:50:36.64	10.67	33.75	-52.3	-55.0	14.5	0.00e+00	0	23	0	821035008	71	4723
2026-01-10 07:50:37.65	10.33	33.65	-52.6	-55.3	14.3	0.00e+00	0	23	0	823132160	71	4901
2026-01-10 07:50:38.65	9.99	33.55	-52.0	-54.4	14.7	0.00e+00	0	23	0	825229312	70	4653
2026-01-10 07:50:39.66	9.64	33.45	-51.9	-54.1	14.8	0.00e+00	0	23	0	827326464	70	4529
2026-01-10 07:50:40.67	9.31	33.35	-51.7	-54.0	14.7	0.00e+00	0	23	0	829423616	69	4717
2026-01-10 07:50:41.68	8.97	33.25	-52.3	-54.7	14.3	0.00e+00	0	23	0	831520768	69	5156
2026-01-10 07:50:42.69	8.63	33.15	-52.6	-55.2	14.1	0.00e+00	0	23	0	832569344	70	5148
2026-01-10 07:50:43.70	8.30	33.05	-53.0	-55.8	13.9	0.00e+00	0	23	0	834666496	71	5194
2026-01-10 07:50:44.71	7.97	32.94	-52.7	-55.3	14.2	0.00e+00	0	23	0	836763648	71	4902
2026-01-10 07:50:45.72	7.64	32.84	-52.4	-54.9	14.4	0.00e+00	0	23	0	838860800	71	4664
2026-01-10 07:50:46.72	7.32	32.74	-51.7	-54.3	14.7	0.00e+00	0	23	0	840957952	70	4611
2026-01-10 07:50:47.73	6.99	32.63	-52.5	-54.9	14.4	0.00e+00	0	23	0	842006528	70	4978
2026-01-10 07:50:48.74	6.67	32.52	-52.2	-54.5	14.6	0.00e+00	0	23	0	844103680	70	4720
2026-01-10 07:50:49.75	6.35	32.42	-52.5	-54.9	14.3	0.00e+00	0	23	0	846200832	70	4965
2026-01-10 07:50:50.76	6.03	32.31	-52.2	-54.6	14.5	0.00e+00	0	23	0	848297984	70	4775
2026-01-10 07:50:51.77	5.71	32.20	-52.8	-55.4	14.1	0.00e+00	0	23	0	849346560	70	5248
2026-01-10 07:50:52.78	5.40	32.09	-52.8	-55.4	14.1	0.00e+00	0	23	0	851443712	70	5219
2026-01-10 07:50:53.78	5.09	31.99	-52.3	-54.7	14.5	0.00e+00	0	23	0	853540864	70	4818
2026-01-10 07:50:54.79	4.78	31.88	-52.0	-54.2	14.7	0.00e+00	0	23	0	855638016	70	4598
2026-01-10 07:50:55.80	4.47	31.77	-52.1	-54.4	14.7	0.00e+00	0	23	0	857735168	70	4693
2026-01-10 07:50:56.81	4.17	31.65	-52.4	-54.9	14.4	0.00e+00	0	23	0	859832320	70	4927
2026-01-10 07:50:57.82	3.87	31.54	-52.7	-55.4	14.0	0.00e+00	0	23	0	860880896	70	5266
2026-01-10 07:50:58.83	3.56	31.43	-52.6	-55.2	14.1	0.00e+00	0	23	0	862978048	70	5133
2026-01-10 07:50:59.84	3.26	31.32	-53.1	-56.0	13.9	0.00e+00	0	23	0	865075200	71	5294
2026-01-10 07:51:00.84	2.97	31.21	-53.4	-56.5	13.6	0.00e+00	0	23	0	867172352	71	5606
2026-01-10 07:51:01.85	2.68	31.09	-53.8	-57.2	13.3	0.00e+00	0	23	0	869269504	72	5743
2026-01-10 07:51:02.85	2.39	30.98	-54.2	-57.7	13.1	0.00e+00	0	23	0	870318080	73	5734
2026-01-10 07:51:03.86	2.09	30.87	-54.3	-57.9	12.9	0.00e+00	0	23	0	872415232	73	5893
2026-01-10 07:51:04.87	1.81	30.75	-53.9	-57.1	13.4	0.00e+00	0	23	0	874512384	73	5370
2026-01-10 07:51:05.88	1.52	30.64	-53.6	-56.5	13.8	0.00e+00	0	23	0	876609536	73	5027
2026-01-10 07:51:06.89	1.23	30.52	-53.4	-56.2	14.0	0.00e+00	0	23	0	878706688	73	4856
2026-01-10 07:51:07.90	0.95	30.41	-53.6	-56.5	13.8	0.00e+00	0	23	0	879755264	73	4989
2026-01-10 07:51:08.90	0.67	30.29	-53.6	-56.6	13.7	0.00e+00	0	23	0	881852416	73	5084
2026-01-10 07:51:09.91	0.39	30.18	-53.2	-55.8	14.1	0.00e+00	0	23	0	883949568	72	4926
2026-01-10 07:51:10.92	0.12	30.06	-52.9	-55.4	14.3	0.00e+00	0	23	0	886046720	72	4690
2026-01-10 07:51:11.93	359.84	29.95	-52.6	-55.0	14.4	0.00e+00	0	23	0	888143872	71	4729
2026-01-10 07:51:12.94	359.57	29.83	-52.6	-54.9	14.5	0.00e+00	0	23	0	889192448	71	4683
2026-01-10 07:51:13.94	359.30	29.71	-52.3	-54.5	14.8	0.00e+00	0	23	0	891289600	71	4491
2026-01-10 07:51:14.95	359.03	29.60	-52.1	-54.3	14.7	0.00e+00	0	23	0	893386752	70	4603
2026-01-10 07:51:15.96	358.77	29.48	-51.7	-53.7	15.0	0.00e+00	0	23	0	895483904	70	4331
2026-01-10 07:51:16.97	358.50	29.36	-51.4	-53.4	15.1	0.00e+00	0	23	0	897581056	69	4400
2026-01-10 07:51:17.98	358.24	29.24	-51.4	-53.3	15.1	0.00e+00	0	23	0	898629632	69	4356
2026-01-10 07:51:18.98	357.98	29.13	-51.6	-53.6	14.9	0.00e+00	0	23	0	900726784	69	4509
2026-01-10 07:51:19.99	357.72	29.01	-51.8	-53.8	14.8	0.00e+00	0	23	0	902823936	69	4635
2026-01-10 07:51:21.00	357.47	28.89	-52.1	-54.3	14.5	0.00e+00	0	23	0	904921088	69	4892
2026-01-10 07:51:22.01	357.21	28.77	-52.3	-54.6	14.4	0.00e+00	0	23	0	907018240	69	5088
2026-01-10 07:51:23.02	356.96	28.65	-53.0	-55.6	14.1	0.00e+00	0	23	0	908066816	71	5043
2026-01-10 07:51:24.03	356.71	28.53	-53.2	-55.9	13.9	0.00e+00	0	23	0	910163968	71	5268
2026-01-10 07:51:25.03	356.46	28.41	-53.5	-56.4	13.7	0.00e+00	0	23	0	912261120	72	5257
2026-01-10 07:51:26.03	356.21	28.30	-53.1	-55.7	14.2	0.00e+00	0	23	0	914358272	72	4841
2026-01-10 07:51:27.04	355.97	28.18	-52.8	-55.2	14.5	0.00e+00	0	23	0	916455424	72	4575
2026-01-10 07:51:28.04	355.73	28.06	-52.4	-54.7	14.6	0.00e+00	0	23	0	917504000	71	4564
2026-01-10 07:51:29.06	355.48	27.94	-52.4	-54.7	14.7	0.00e+00	0	23	0	919601152	71	4553
2026-01-10 07:51:30.07	355.24	27.82	-52.5	-54.8	14.6	0.00e+00	0	23	0	921698304	71	4643
2026-01-10 07:51:31.07	355.01	27.70	-52.3	-54.7	14.5	0.00e+00	0	23	0	923795456	70	4825
2026-01-10 07:51:32.08	354.77	27.58	-52.2	-54.5	14.6	0.00e+00	0	23	0	925892608	70	4750
2026-01-10 07:51:33.08	354.54	27.46	-52.1	-54.4	14.7	0.00e+00	0	23	0	926941184	70	4663
2026-01-10 07:51:34.09	354.30	27.34	-51.5	-53.5	15.0	0.00e+00	0	23	0	929038336	69	4486
2026-01-10 07:51:35.10	354.07	27.23	-51.1	-53.0	15.3	0.00e+00	0	23	0	931135488	68	4470
2026-01-10 07:51:36.11	353.84	27.11	-51.3	-53.2	15.0	0.00e+00	0	23	0	933232640	68	4597
2026-01-10 07:51:37.12	353.62	26.99	-51.2	-53.1	15.0	0.00e+00	0	23	0	935329792	68	4522
2026-01-10 07:51:38.13	353.39	26.87	-51.3	-53.3	14.9	0.00e+00	0	23	0	936378368	68	4610
2026-01-10 07:51:39.13	353.17	26.75	-51.2	-53.1	15.0	0.00e+00	0	23	0	938475520	68	4523
2026-01-10 07:51:40.14	352.94	26.63	-51.2	-53.2	15.0	0.00e+00	0	23	0	940572672	68	4563
2026-01-10 07:51:41.14	352.73	26.51	-51.1	-53.0	15.0	0.00e+00	0	23	0	942669824	68	4481
2026-01-10 07:51:42.15	352.51	26.39	-51.4	-53.4	14.8	0.00e+00	0	23	0	944766976	68	4699
2026-01-10 07:51:43.16	352.29	26.27	-51.8	-54.0	14.6	0.00e+00	0	23	0	945815552	68	4989
2026-01-10 07:51:44.16	352.07	26.16	-52.1	-54.3	14.6	0.00e+00	0	23	0	947912704	69	4909
2026-01-10 07:51:45.17	351.86	26.04	-52.1	-54.4	14.5	0.00e+00	0	23	0	950009856	69	4975
2026-01-10 07:51:46.18	351.65	25.92	-52.3	-54.6	14.3	0.00e+00	0	23	0	952107008	69	5097
2026-01-10 07:51:47.19	351.44	25.80	-52.4	-54.8	14.4	0.00e+00	0	23	0	954204160	70	4899
2026-01-10 07:51:48.20	351.23	25.68	-52.3	-54.7	14.5	0.00e+00	0	23	0	955252736	70	4829
2026-01-10 07:51:49.21	351.02	25.56	-52.2	-54.5	14.6	0.00e+00	0	24	0	957349888	70	4716
2026-01-10 07:51:50.22	350.81	25.44	-52.1	-54.4	14.7	0.00e+00	0	23	0	959447040	70	4662
2026-01-10 07:51:51.22	350.61	25.33	-51.9	-54.1	14.8	0.00e+00	0	23	0	961544192	70	4528
2026-01-10 07:51:52.23	350.41	25.21	-51.6	-53.7	14.9	0.00e+00	0	23	0	963641344	69	4555
2026-01-10 07:51:53.24	350.20	25.09	-51.5	-53.5	15.0	0.00e+00	0	23	0	964689920	69	4468
2026-01-10 07:51:54.24	350.01	24.97	-51.4	-53.4	15.0	0.00e+00	0	23	0	966787072	69	4404
2026-01-10 07:51:55.25	349.81	24.86	-51.3	-53.2	15.2	0.00e+00	0	23	0	968884224	69	4317
2026-01-10 07:51:56.26	349.61	24.74	-51.1	-53.1	15.1	0.00e+00	0	23	0	970981376	68	4497
2026-01-10 07:51:57.26	349.42	24.62	-51.5	-53.5	14.8	0.00e+00	0	23	0	973078528	68	4757
2026-01-10 07:51:58.27	349.22	24.50	-51.4	-53.3	14.9	0.00e+00	0	23	0	974127104	68	4650
2026-01-10 07:51:59.28	349.03	24.39	-51.4	-53.4	14.9	0.00e+00	0	23	0	976224256	68	4659
2026-01-10 07:52:00.29	348.84	24.27	-51.4	-53.4	14.9	0.00e+00	0	23	0	978321408	68	4692
2026-01-10 07:52:01.30	348.65	24.15	-51.5	-53.5	14.8	0.00e+00	0	23	0	980418560	68	4751
2026-01-10 07:52:02.31	348.46	24.04	-51.6	-53.7	14.7	0.00e+00	0	23	0	982515712	68	4844
2026-01-10 07:52:03.31	348.27	23.92	-51.5	-53.5	14.8	0.00e+00	0	23	0	983564288	68	4720
2026-01-10 07:52:04.32	348.09	23.80	-51.4	-53.4	14.8	0.00e+00	0	23	0	985661440	68	4693
2026-01-10 07:52:05.33	347.90	23.69	-51.4	-53.4	14.8	0.00e+00	0	23	0	987758592	68	4691
2026-01-10 07:52:06.34	347.72	23.57	-51.6	-53.6	14.8	0.00e+00	0	23	0	989855744	68	4774
2026-01-10 07:52:07.35	347.54	23.46	-51.3	-53.2	15.0	0.00e+00	0	23	0	991952896	68	4570
2026-01-10 07:52:08.36	347.36	23.34	-51.8	-53.9	14.6	0.00e+00	0	23	0	993001472	68	4929
2026-01-10 07:52:09.36	347.18	23.23	-51.4	-53.4	14.9	0.00e+00	0	23	0	995098624	68	4693
2026-01-10 07:52:10.37	347.00	23.11	-51.4	-53.4	14.9	0.00e+00	0	23	0	997195776	68	4678
2026-01-10 07:52:11.38	346.83	23.00	-51.6	-53.7	14.7	0.00e+00	0	23	0	999292928	68	4844
2026-01-10 07:52:12.39	346.65	22.88	-51.9	-54.1	14.5	0.00e+00	0	23	0	1001390080	68	5062
2026-01-10 07:52:13.40	346.48	22.77	-51.9	-54.1	14.6	0.00e+00	0	23	0	1002438656	69	4778
2026-01-10 07:52:14.41	346.31	22.65	-52.2	-54.5	14.4	0.00e+00	0	23	0	1004535808	69	5026
2026-01-10 07:52:15.42	346.14	22.54	-52.4	-54.8	14.4	0.00e+00	0	23	0	1006632960	70	4896
2026-01-10 07:52:16.43	345.97	22.43	-52.3	-54.6	14.5	0.00e+00	0	23	0	1008730112	70	4770
2026-01-10 07:52:17.43	345.80	22.31	-52.4	-54.9	14.4	0.00e+00	0	23	0	1010827264	70	4927
2026-01-10 07:52:18.44	345.63	22.20	-52.1	-54.4	14.6	0.00e+00	0	23	0	1011875840	70	4654
2026-01-10 07:52:19.45	345.47	22.09	-52.0	-54.2	14.7	0.00e+00	0	23	0	1013972992	70	4574
2026-01-10 07:52:20.46	345.30	21.97	-51.3	-53.3	15.1	0.00e+00	0	23	0	1016070144	69	4355
2026-01-10 07:52:21.46	345.14	21.86	-51.4	-53.3	15.1	0.00e+00	0	23	0	1018167296	69	4380
2026-01-10 07:52:22.47	344.98	21.75	-50.9	-52.8	15.2	0.00e+00	0	23	0	1020264448	68	4354
2026-01-10 07:52:23.48	344.82	21.64	-51.1	-52.9	15.1	0.00e+00	0	23	0	1022361600	68	4441
2026-01-10 07:52:24.49	344.66	21.53	-51.2	-53.1	15.0	0.00e+00	0	23	0	1023410176	68	4521
2026-01-10 07:52:25.50	344.50	21.42	-51.4	-53.4	14.8	0.00e+00	0	23	0	1025507328	68	4684
2026-01-10 07:52:26.51	344.34	21.30	-51.6	-53.6	14.7	0.00e+00	0	23	0	1027604480	68	4812
2026-01-10 07:52:27.51	344.19	21.19	-52.0	-54.1	14.5	0.00e+00	0	23	0	1029701632	69	4770
2026-01-10 07:52:28.52	344.03	21.08	-52.1	-54.3	14.5	0.00e+00	0	23	0	1031798784	69	4903
2026-01-10 07:52:29.53	343.88	20.97	-51.9	-54.0	14.7	0.00e+00	0	23	0	1032847360	69	4749
2026-01-10 07:52:30.53	343.72	20.86	-51.7	-53.7	14.9	0.00e+00	0	23	0	1034944512	69	4561
2026-01-10 07:52:31.55	343.57	20.75	-51.6	-53.5	14.9	0.00e+00	0	23	0	1037041664	69	4490
2026-01-10 07:52:32.55	343.42	20.64	-51.3	-53.2	15.1	0.00e+00	0	23	0	1039138816	69	4329
2026-01-10 07:52:33.56	343.27	20.53	-51.0	-52.8	15.2	0.00e+00	0	23	0	1040187392	68	4379
2026-01-10 07:52:34.57	343.12	20.42	-51.1	-53.0	15.0	0.00e+00	0	23	0	1042284544	68	4481
2026-01-10 07:52:35.57	342.98	20.32	-51.1	-53.0	15.1	0.00e+00	0	23	0	1044381696	68	4475
2026-01-10 07:52:36.58	342.83	20.21	-51.3	-53.2	14.9	0.00e+00	0	23	0	1046478848	68	4592
2026-01-10 07:52:37.59	342.69	20.10	-51.8	-53.9	14.6	0.00e+00	0	23	0	1048576000	68	4939
2026-01-10 07:52:38.60	342.54	19.99	-52.2	-54.5	14.4	0.00e+00	0	23	0	1050673152	69	5025
2026-01-10 07:52:39.61	342.40	19.88	-52.6	-55.1	14.3	0.00e+00	0	23	0	1051721728	70	5060
2026-01-10 07:52:40.62	342.25	19.78	-52.9	-55.5	14.1	0.00e+00	0	23	0	1053818880	71	5033
2026-01-10 07:52:41.63	342.11	19.67	-53.5	-56.4	13.6	0.00e+00	0	23	0	1055916032	72	5233
2026-01-10 07:52:42.64	341.97	19.56	-53.5	-56.5	13.6	0.00e+00	0	23	0	1058013184	72	5301
2026-01-10 07:52:43.64	341.84	19.46	-53.8	-57.0	13.3	0.00e+00	0	23	0	1060110336	72	5624
2026-01-10 07:52:44.65	341.70	19.35	-53.7	-56.8	13.4	0.00e+00	0	23	0	1061158912	72	5484
2026-01-10 07:52:45.66	341.56	19.24	-53.4	-56.3	13.7	0.00e+00	0	23	0	1063256064	72	5195
2026-01-10 07:52:46.67	341.42	19.14	-53.3	-56.1	13.9	0.00e+00	0	23	0	1065353216	72	5048
2026-01-10 07:52:47.68	341.29	19.03	-53.0	-55.6	14.2	0.00e+00	0	23	0	1067450368	72	4770
2026-01-10 07:52:48.68	341.15	18.93	-52.5	-55.0	14.4	0.00e+00	0	23	0	1069547520	71	4725
2026-01-10 07:52:49.69	341.02	18.82	-52.3	-54.7	14.6	0.00e+00	0	23	0	1070596096	71	4550
2026-01-10 07:52:50.70	340.89	18.72	-52.1	-54.3	14.6	0.00e+00	0	23	0	1072693248	70	4637
2026-01-10 07:52:51.70	340.76	18.61	-51.9	-54.0	14.8	0.00e+00	0	23	0	1074790400	70	4471
2026-01-10 07:52:52.71	340.63	18.51	-51.8	-53.9	14.9	0.00e+00	0	23	0	1076887552	70	4410
2026-01-10 07:52:53.72	340.50	18.41	-52.0	-54.2	14.8	0.00e+00	0	23	0	1078984704	70	4546
2026-01-10 07:52:54.73	340.37	18.30	-52.1	-54.3	14.7	0.00e+00	0	23	0	1080033280	70	4620
2026-01-10 07:52:55.73	340.24	18.20	-52.1	-54.4	14.6	0.00e+00	0	23	0	1082130432	70	4657
2026-01-10 07:52:56.74	340.11	18.10	-52.4	-54.7	14.4	0.00e+00	0	23	0	1084227584	70	4862
2026-01-10 07:52:57.75	339.99	17.99	-52.4	-54.8	14.4	0.00e+00	0	23	0	1086324736	70	4904
2026-01-10 07:52:58.75	339.86	17.89	-52.3	-54.7	14.4	0.00e+00	0	23	0	1088421888	70	4840
2026-01-10 07:52:59.76	339.74	17.79	-52.3	-54.6	14.4	0.00e+00	0	23	0	1089470464	70	4804
2026-01-10 07:53:00.77	339.62	17.69	-52.1	-54.3	14.7	0.00e+00	0	23	0	1091567616	70	4636
2026-01-10 07:53:01.78	339.49	17.59	-51.8	-53.9	14.9	0.00e+00	0	23	0	1093664768	70	4436
2026-01-10 07:53:02.79	339.37	17.49	-51.5	-53.6	14.9	0.00e+00	0	23	0	1095761920	69	4501
2026-01-10 07:53:03.79	339.25	17.39	-51.5	-53.5	15.0	7.00e-07	0	23	0	1097859072	69	4442
2026-01-10 07:53:04.80	339.13	17.28	-51.3	-53.3	15.0	0.00e+00	0	23	0	1098907648	69	4359
2026-01-10 07:53:05.81	339.01	17.18	-51.2	-53.2	14.9	0.00e+00	0	23	0	1101004800	68	4562
2026-01-10 07:53:06.82	338.89	17.08	-51.2	-53.2	14.9	0.00e+00	0	23	0	1103101952	68	4568
2026-01-10 07:53:07.83	338.77	16.98	-51.4	-53.4	14.8	0.00e+00	0	23	0	1105199104	68	4679
2026-01-10 07:53:08.84	338.66	16.88	-51.6	-53.7	14.6	0.00e+00	0	23	0	1107296256	68	4867
2026-01-10 07:53:09.85	338.54	16.78	-51.6	-53.8	14.6	0.00e+00	0	23	0	1108344832	68	4891
2026-01-10 07:53:10.85	338.43	16.69	-52.0	-54.2	14.4	0.00e+00	0	23	0	1110441984	69	4870
2026-01-10 07:53:11.86	338.31	16.59	-52.0	-54.2	14.5	0.00e+00	0	23	0	1112539136	69	4863
2026-01-10 07:53:12.87	338.20	16.49	-52.0	-54.3	14.4	0.00e+00	0	23	0	1114636288	69	4913
2026-01-10 07:53:13.88	338.08	16.39	-52.1	-54.4	14.4	0.00e+00	0	23	0	1116733440	69	4929
2026-01-10 07:53:14.89	337.97	16.29	-51.9	-54.1	14.5	0.00e+00	0	23	0	1117782016	69	4800
2026-01-10 07:53:15.89	337.86	16.20	-52.0	-54.2	14.5	0.00e+00	0	23	0	1119879168	69	4868
2026-01-10 07:53:16.90	337.75	16.10	-52.1	-54.3	14.4	0.00e+00	0	23	0	1121976320	69	4907
2026-01-10 07:53:17.91	337.64	16.00	-52.0	-54.2	14.5	0.00e+00	0	23	0	1124073472	69	4870
2026-01-10 07:53:18.91	337.53	15.90	-52.1	-54.4	14.4	0.00e+00	0	23	0	1126170624	69	4936
2026-01-10 07:53:19.92	337.42	15.81	-52.2	-54.5	14.3	0.00e+00	0	24	0	1127219200	69	5016
2026-01-10 07:53:20.93	337.32	15.71	-52.2	-54.5	14.4	0.00e+00	0	23	0	1129316352	69	5031
2026-01-10 07:53:21.94	337.21	15.62	-52.2	-54.5	14.4	0.00e+00	0	23	0	1131413504	69	5015
2026-01-10 07:53:22.95	337.10	15.52	-52.4	-54.8	14.2	0.00e+00	0	23	0	1133510656	69	5171
2026-01-10 07:53:23.95	337.00	15.43	-52.5	-54.9	14.3	0.00e+00	0	23	0	1135607808	70	4946
2026-01-10 07:53:24.96	336.89	15.33	-52.4	-54.8	14.4	0.00e+00	0	23	0	1136656384	70	4874
2026-01-10 07:53:25.97	336.79	15.23	-52.3	-54.6	14.5	0.00e+00	0	24	0	1138753536	70	4778
2026-01-10 07:53:26.97	336.68	15.14	-52.3	-54.6	14.5	0.00e+00	0	23	0	1140850688	70	4781
2026-01-10 07:53:27.98	336.58	15.05	-52.4	-54.7	14.4	0.00e+00	0	23	0	1142947840	70	4855
2026-01-10 07:53:28.99	336.48	14.95	-52.4	-54.7	14.4	0.00e+00	0	23	0	1145044992	70	4845
2026-01-10 07:53:30.00	336.38	14.86	-52.5	-54.8	14.3	0.00e+00	0	23	0	1146093568	70	4916
2026-01-10 07:53:31.01	336.28	14.76	-52.5	-54.9	14.3	0.00e+00	0	23	0	1148190720	70	4964
2026-01-10 07:53:32.02	336.18	14.67	-52.8	-55.3	14.0	0.00e+00	0	23	0	1150287872	70	5195
2026-01-10 07:53:33.03	336.08	14.58	-53.0	-55.7	13.9	0.00e+00	0	23	0	1152385024	71	5127
2026-01-10 07:53:34.03	335.98	14.49	-53.1	-55.8	13.9	0.00e+00	0	23	0	1154482176	71	5203
2026-01-10 07:53:35.04	335.88	14.39	-53.3	-56.2	13.7	0.00e+00	0	23	0	1155530752	71	5410
2026-01-10 07:53:36.04	335.78	14.30	-53.5	-56.4	13.6	0.00e+00	0	23	0	1157627904	72	5270
2026-01-10 07:53:37.05	335.69	14.21	-53.6	-56.7	13.4	7.00e-07	0	23	0	1159725056	72	5423
2026-01-10 07:53:38.06	335.59	14.12	-53.6	-56.7	13.4	0.00e+00	0	23	0	1161822208	72	5441
2026-01-10 07:53:39.07	335.49	14.03	-53.6	-56.6	13.5	0.00e+00	0	24	0	1163919360	72	5384
2026-01-10 07:53:40.08	335.40	13.94	-53.4	-56.3	13.6	0.00e+00	0	23	0	1164967936	72	5191
2026-01-10 07:53:41.09	335.30	13.84	-53.3	-56.1	13.7	0.00e+00	0	23	0	1167065088	72	5093
2026-01-10 07:53:42.09	335.21	13.75	-53.1	-55.8	14.0	0.00e+00	0	23	0	1169162240	72	4926
2026-01-10 07:53:43.10	335.12	13.66	-53.0	-55.6	14.1	0.00e+00	0	23	0	1171259392	72	4792
2026-01-10 07:53:44.11	335.02	13.57	-52.9	-55.6	14.1	0.00e+00	0	24	0	1173356544	72	4760
2026-01-10 07:53:45.11	334.93	13.48	-52.7	-55.2	14.4	0.00e+00	0	24	0	1174405120	72	4555
2026-01-10 07:53:46.12	334.84	13.39	-52.6	-55.1	14.3	0.00e+00	0	23	0	1176502272	71	4784
2026-01-10 07:53:47.12	334.75	13.31	-52.4	-54.7	14.5	0.00e+00	0	23	0	1178599424	71	4574
2026-01-10 07:53:48.13	334.66	13.22	-52.2	-54.5	14.6	0.00e+00	0	23	0	1180696576	71	4462
2026-01-10 07:53:49.14	334.57	13.13	-52.1	-54.3	14.6	0.00e+00	0	24	0	1182793728	70	4643
2026-01-10 07:53:50.15	334.48	13.04	-51.9	-54.1	14.7	0.00e+00	0	23	0	1183842304	70	4538
2026-01-10 07:53:51.15	334.39	12.95	-51.9	-54.1	14.7	0.00e+00	0	23	0	1185939456	70	4536
2026-01-10 07:53:52.16	334.30	12.86	-51.9	-54.2	14.6	0.00e+00	0	23	0	1188036608	70	4566
2026-01-10 07:53:53.16	334.21	12.78	-51.7	-53.9	14.8	0.00e+00	0	23	0	1190133760	70	4410
2026-01-10 07:53:54.17	334.13	12.69	-51.8	-54.0	14.7	0.00e+00	0	24	0	1192230912	70	4474
2026-01-10 07:53:55.18	334.04	12.60	-51.9	-54.1	14.5	0.00e+00	0	23	0	1193279488	70	4542
2026-01-10 07:53:56.19	333.95	12.51	-51.9	-54.1	14.6	0.00e+00	0	23	0	1195376640	70	4511
2026-01-10 07:53:57.20	333.87	12.43	-51.9	-54.1	14.6	0.00e+00	0	23	0	1197473792	70	4533
2026-01-10 07:53:58.21	333.78	12.34	-52.0	-54.3	14.6	0.00e+00	0	23	0	1199570944	70	4621
2026-01-10 07:53:59.22	333.70	12.25	-51.9	-54.1	14.7	0.00e+00	0	23	0	1201668096	70	4518
2026-01-10 07:54:00.23	333.61	12.17	-52.0	-54.3	14.6	0.00e+00	0	23	0	1203765248	70	4623
2026-01-10 07:54:01.24	333.53	12.08	-52.0	-54.3	14.6	0.00e+00	0	24	0	1204813824	70	4636
2026-01-10 07:54:02.25	333.45	11.99	-52.1	-54.4	14.5	0.00e+00	0	24	0	1206910976	70	4696
2026-01-10 07:54:03.25	333.36	11.91	-52.2	-54.5	14.5	0.00e+00	0	23	0	1209008128	70	4721
2026-01-10 07:54:04.25	333.28	11.83	-52.3	-54.7	14.3	0.00e+00	0	23	0	1211105280	70	4860
2026-01-10 07:54:05.26	333.20	11.74	-52.3	-54.6	14.4	0.00e+00	0	23	0	1212153856	70	4798
2026-01-10 07:54:06.26	333.12	11.66	-52.3	-54.7	14.3	0.00e+00	0	23	0	1214251008	70	4852
2026-01-10 07:54:07.27	333.04	11.57	-52.5	-55.0	14.1	0.00e+00	0	23	0	1216348160	70	5028
2026-01-10 07:54:08.28	332.96	11.49	-52.5	-55.0	14.1	0.00e+00	0	23	0	1218445312	70	5033
2026-01-10 07:54:09.29	332.88	11.40	-52.6	-55.1	14.1	0.00e+00	0	24	0	1220542464	70	5087
2026-01-10 07:54:10.30	332.80	11.32	-52.6	-55.1	14.0	0.00e+00	0	23	0	1221591040	70	5091
2026-01-10 07:54:11.31	332.72	11.24	-52.7	-55.2	14.0	0.00e+00	0	23	0	1223688192	70	5139
2026-01-10 07:54:12.31	332.64	11.15	-52.7	-55.3	14.0	8.30e-06	0	23	0	1225785344	70	5173
2026-01-10 07:54:13.32	332.57	11.07	-52.7	-55.3	14.0	0.00e+00	0	23	0	1227882496	70	5205
2026-01-10 07:54:14.33	332.49	10.99	-52.8	-55.4	13.9	1.22e-05	0	23	0	1229979648	70	5223
2026-01-10 07:54:15.34	332.41	10.90	-52.8	-55.5	13.9	0.00e+00	0	24	0	1232076800	70	5283
2026-01-10 07:54:16.35	332.34	10.82	-52.9	-55.6	13.9	0.00e+00	0	24	0	1233125376	71	5055
2026-01-10 07:54:17.36	332.26	10.74	-52.9	-55.6	13.9	0.00e+00	0	24	0	1235222528	71	5047
2026-01-10 07:54:18.36	332.19	10.66	-52.9	-55.5	13.9	0.00e+00	0	24	0	1237319680	71	5036
