passes_logs/2026/01/10/R3.2S_Murmansk/R3.2S_Murmansk__20260110_212517_SUOMI_NPP_rec.log

#Pass ID: 20260110_212517_SUOMI NPP
#Satellite: SUOMI NPP
#Configuration: NPP
#almurnet v.1.7.20251203
#Start time: 2026-01-10 21:25:18

#Version: 2.2.20231116
#Station: R3.2S_Murmansk
#Location: 33.079688 lon 68.888172 lat
#TLE: 1 37849U 11061A   26009.81756760  .00000113  00000+0  74747-4 0  9994
#TLE: 2 37849  98.7806 311.9110 0002525  72.5604 287.5848 14.19524046735974

#Time	Az	El	Level	Level2	SNR	BER	BlckErr	Temp	State	Recorded	gain1	gain2
2026-01-10 21:25:18.82	18.67	2.08	-57.0	-72.9	3.8	1.49e+00	0	21	0	0	80	22239
2026-01-10 21:25:19.83	18.76	2.13	-57.0	-72.9	3.8	1.49e+00	0	21	104	0	79	23442
2026-01-10 21:25:20.83	18.86	2.17	-57.0	-72.8	3.8	1.49e+00	0	21	104	0	79	23302
2026-01-10 21:25:21.83	18.96	2.22	-57.0	-72.9	3.8	1.49e+00	0	21	104	0	79	23403
2026-01-10 21:25:22.82	19.06	2.26	-57.0	-72.9	3.8	1.49e+00	0	21	104	0	79	23314
2026-01-10 21:25:23.83	19.16	2.31	-57.0	-72.9	3.8	1.49e+00	0	21	104	0	79	23385
2026-01-10 21:25:24.83	19.25	2.35	-57.0	-72.9	3.8	1.49e+00	0	21	104	0	79	23376
2026-01-10 21:25:25.83	19.35	2.40	-57.0	-72.9	3.8	1.49e+00	0	21	104	0	79	23404
2026-01-10 21:25:26.83	19.45	2.44	-57.0	-72.8	3.8	1.49e+00	0	21	104	0	79	23263
2026-01-10 21:25:27.83	19.55	2.49	-57.0	-72.8	3.8	1.49e+00	0	21	104	0	79	23235
2026-01-10 21:25:28.83	19.65	2.53	-57.0	-72.8	3.8	1.49e+00	0	21	104	0	79	23241
2026-01-10 21:25:29.82	19.75	2.58	-57.0	-72.8	3.8	1.49e+00	0	21	104	0	79	23189
2026-01-10 21:25:30.82	19.85	2.62	-57.0	-72.8	3.8	1.49e+00	0	21	104	0	79	23176
2026-01-10 21:25:31.82	19.95	2.67	-57.0	-72.8	3.8	1.49e+00	0	21	104	0	79	23219
2026-01-10 21:25:32.83	20.05	2.71	-57.0	-72.8	3.8	1.49e+00	0	21	104	0	79	23289
2026-01-10 21:25:33.83	20.15	2.76	-57.0	-72.8	3.8	1.49e+00	0	21	104	0	79	23265
2026-01-10 21:25:34.83	20.26	2.80	-57.0	-72.9	3.8	1.49e+00	0	22	104	0	79	23462
2026-01-10 21:25:35.82	20.36	2.85	-57.0	-72.9	3.8	1.49e+00	0	22	104	0	79	23513
2026-01-10 21:25:36.82	20.46	2.89	-57.0	-73.0	3.8	1.49e+00	0	22	104	0	79	23591
2026-01-10 21:25:37.83	20.56	2.94	-57.0	-73.0	3.8	1.49e+00	0	21	104	0	79	23621
2026-01-10 21:25:38.84	20.66	2.99	-57.0	-73.0	3.8	1.49e+00	0	21	104	0	79	23654
2026-01-10 21:25:39.83	20.77	3.03	-57.0	-73.0	3.8	1.49e+00	0	22	104	0	79	23626
2026-01-10 21:25:40.84	20.87	3.08	-57.0	-72.9	3.8	1.49e+00	0	22	104	0	79	23543
2026-01-10 21:25:41.84	20.97	3.12	-57.0	-72.9	3.8	1.49e+00	0	22	104	0	79	23375
2026-01-10 21:25:42.84	21.08	3.17	-57.0	-72.8	3.8	1.49e+00	0	22	104	0	79	23272
2026-01-10 21:25:43.84	21.18	3.21	-57.0	-72.8	3.8	1.49e+00	0	22	104	0	79	23086
2026-01-10 21:25:44.84	21.29	3.26	-57.0	-72.8	3.8	1.49e+00	0	22	104	0	79	23053
2026-01-10 21:25:45.84	21.39	3.30	-57.0	-72.8	3.8	1.49e+00	0	22	104	0	79	23241
2026-01-10 21:25:46.84	21.50	3.35	-57.0	-72.9	3.8	1.49e+00	0	22	104	0	79	23480
2026-01-10 21:25:47.84	21.60	3.39	-57.0	-72.9	3.8	1.49e+00	0	22	104	0	79	23517
2026-01-10 21:25:48.84	21.71	3.44	-57.0	-72.9	3.8	1.49e+00	0	22	104	0	79	23481
2026-01-10 21:25:49.84	21.81	3.48	-57.0	-72.9	3.8	1.49e+00	0	22	104	0	79	23561
2026-01-10 21:25:50.84	21.92	3.53	-57.0	-72.9	3.8	1.49e+00	0	22	104	0	79	23581
2026-01-10 21:25:51.83	22.03	3.57	-57.0	-72.9	3.8	1.49e+00	0	22	104	0	79	23370
2026-01-10 21:25:52.83	22.13	3.62	-57.0	-72.9	3.8	1.49e+00	0	22	104	0	79	23473
2026-01-10 21:25:53.83	22.24	3.66	-57.0	-73.0	3.8	1.49e+00	0	22	104	0	79	23649
2026-01-10 21:25:54.82	22.35	3.71	-57.0	-72.9	3.8	1.49e+00	0	22	104	0	79	23517
2026-01-10 21:25:55.82	22.45	3.75	-57.0	-72.9	3.8	1.49e+00	0	22	104	0	79	23504
2026-01-10 21:25:56.82	22.56	3.80	-57.0	-72.7	3.8	1.49e+00	0	22	104	0	79	23032
2026-01-10 21:25:57.81	22.67	3.84	-57.0	-72.7	3.8	1.49e+00	0	22	104	0	79	22790
2026-01-10 21:25:58.81	22.78	3.89	-57.0	-72.5	3.8	1.49e+00	0	22	104	0	79	22333
2026-01-10 21:25:59.81	22.89	3.93	-57.0	-72.5	3.8	1.49e+00	0	22	104	0	79	22421
2026-01-10 21:26:00.81	23.00	3.98	-57.0	-72.6	3.8	1.49e+00	0	22	104	0	79	22637
2026-01-10 21:26:01.80	23.10	4.02	-57.0	-72.8	3.8	1.49e+00	0	22	104	0	79	23117
2026-01-10 21:26:02.80	23.21	4.07	-57.0	-72.8	3.8	1.49e+00	0	22	104	0	79	23127
2026-01-10 21:26:03.80	23.33	4.11	-57.0	-72.7	3.8	1.49e+00	0	22	104	0	79	22843
2026-01-10 21:26:04.80	23.44	4.16	-57.0	-72.1	3.8	1.49e+00	0	22	104	0	79	21300
2026-01-10 21:26:05.81	23.55	4.20	-56.9	-71.4	3.8	1.49e+00	0	22	104	0	79	19800
2026-01-10 21:26:06.81	23.66	4.25	-56.9	-70.7	3.8	1.49e+00	0	22	104	0	79	18220
2026-01-10 21:26:07.81	23.77	4.29	-56.9	-70.1	4.1	1.48e+00	0	22	0	0	79	16930
2026-01-10 21:26:08.81	23.88	4.34	-56.9	-70.0	4.1	1.44e+00	0	22	0	0	79	16862
2026-01-10 21:26:09.81	24.00	4.38	-56.9	-69.6	4.1	1.44e+00	0	22	0	0	79	15997
2026-01-10 21:26:10.81	24.11	4.43	-56.8	-68.2	4.6	1.21e+00	0	22	0	1048576	79	13626
2026-01-10 21:26:11.81	24.22	4.47	-56.5	-65.9	5.8	7.18e-01	0	22	0	2097152	79	10504
2026-01-10 21:26:12.81	24.33	4.52	-56.0	-63.2	8.0	7.72e-02	0	22	0	4194304	78	8105
2026-01-10 21:26:13.80	24.45	4.56	-55.5	-61.2	9.7	1.42e-02	0	22	0	6291456	77	6845
2026-01-10 21:26:14.79	24.56	4.61	-54.4	-58.7	11.6	8.86e-04	0	22	0	8388608	75	5782
2026-01-10 21:26:15.79	24.67	4.65	-53.7	-57.4	12.6	3.00e-06	0	22	0	10485760	74	5254
2026-01-10 21:26:16.80	24.79	4.70	-53.5	-57.0	12.8	7.00e-07	0	22	0	11534336	73	5288
2026-01-10 21:26:17.80	24.90	4.74	-53.4	-56.9	12.9	0.00e+00	0	22	0	13631488	73	5261
2026-01-10 21:26:18.80	25.02	4.79	-53.8	-57.5	12.4	0.00e+00	0	22	0	15728640	73	5643
2026-01-10 21:26:19.80	25.14	4.83	-53.9	-57.8	12.2	9.10e-06	0	22	0	17825792	73	5825
2026-01-10 21:26:20.80	25.25	4.88	-54.4	-58.8	11.4	2.36e-05	0	22	0	19922944	73	6567
2026-01-10 21:26:21.80	25.37	4.92	-54.9	-60.0	10.5	3.65e-04	0	22	0	20971520	74	7076
2026-01-10 21:26:22.80	25.48	4.97	-55.4	-61.4	9.4	5.12e-03	0	22	0	23068672	75	7856
2026-01-10 21:26:23.80	25.60	5.01	-55.9	-62.9	8.1	2.13e-02	0	22	0	25165824	76	8825
2026-01-10 21:26:24.79	25.72	5.06	-53.9	-57.7	12.4	2.75e-02	0	22	0	27262976	74	5449
2026-01-10 21:26:25.79	25.84	5.10	-54.2	-58.2	12.0	3.80e-06	0	22	0	28311552	74	5787
2026-01-10 21:26:26.79	25.95	5.14	-56.6	-66.3	5.6	6.03e-02	0	22	0	30408704	78	11586
2026-01-10 21:26:27.79	26.07	5.19	-56.1	-64.3	6.8	3.56e-01	0	22	0	32505856	78	9244
2026-01-10 21:26:28.79	26.19	5.23	-54.3	-58.1	12.3	1.15e-01	0	22	0	34603008	74	5693
2026-01-10 21:26:29.79	26.31	5.28	-53.8	-57.3	12.9	3.00e-06	0	22	0	36700160	74	5170
2026-01-10 21:26:30.78	26.43	5.32	-53.3	-56.4	13.4	0.00e+00	0	22	0	37748736	73	4927
2026-01-10 21:26:31.78	26.55	5.37	-52.9	-55.8	13.7	0.00e+00	0	22	0	39845888	72	4890
2026-01-10 21:26:32.78	26.67	5.41	-52.7	-55.5	13.8	0.00e+00	0	22	0	41943040	72	4739
2026-01-10 21:26:33.77	26.79	5.46	-52.8	-55.7	13.7	0.00e+00	0	22	0	44040192	72	4838
2026-01-10 21:26:34.77	26.91	5.50	-52.6	-55.3	13.9	0.00e+00	0	22	0	45088768	71	4909
2026-01-10 21:26:35.77	27.03	5.55	-52.4	-55.1	14.0	0.00e+00	0	22	0	47185920	71	4778
2026-01-10 21:26:36.76	27.15	5.59	-52.4	-55.1	14.0	0.00e+00	0	22	0	49283072	71	4805
2026-01-10 21:26:37.76	27.27	5.63	-52.3	-54.9	14.2	0.00e+00	0	22	0	51380224	71	4670
2026-01-10 21:26:38.76	27.39	5.68	-52.5	-55.2	14.0	0.00e+00	0	22	0	53477376	71	4820
2026-01-10 21:26:39.77	27.52	5.72	-52.7	-55.6	13.7	0.00e+00	0	22	0	54525952	71	5061
2026-01-10 21:26:40.77	27.64	5.77	-52.3	-54.9	14.1	0.00e+00	0	22	0	56623104	71	4683
2026-01-10 21:26:41.76	27.76	5.81	-52.3	-54.9	14.0	0.00e+00	0	22	0	58720256	70	4941
2026-01-10 21:26:42.75	27.89	5.85	-52.7	-55.5	13.7	0.00e+00	0	22	0	60817408	70	5297
2026-01-10 21:26:43.75	28.01	5.90	-52.5	-55.2	13.8	0.00e+00	0	22	0	62914560	70	5107
2026-01-10 21:26:44.74	28.13	5.94	-52.1	-54.6	14.2	0.00e+00	0	23	0	63963136	70	4778
2026-01-10 21:26:45.74	28.26	5.99	-52.1	-54.7	14.2	0.00e+00	0	22	0	66060288	70	4822
2026-01-10 21:26:46.73	28.38	6.03	-52.3	-55.0	14.0	0.00e+00	0	22	0	68157440	70	4994
2026-01-10 21:26:47.72	28.51	6.07	-52.2	-54.7	14.1	0.00e+00	0	23	0	70254592	70	4866
2026-01-10 21:26:48.72	28.63	6.12	-52.3	-54.9	14.0	0.00e+00	0	22	0	71303168	70	4929
2026-01-10 21:26:49.72	28.76	6.16	-52.1	-54.6	14.3	0.00e+00	0	23	0	73400320	70	4768
2026-01-10 21:26:50.72	28.88	6.21	-52.2	-54.7	14.1	0.00e+00	0	23	0	75497472	70	4856
2026-01-10 21:26:51.72	29.01	6.25	-52.2	-54.8	14.1	0.00e+00	0	22	0	77594624	70	4911
2026-01-10 21:26:52.72	29.14	6.29	-52.1	-54.7	14.1	0.00e+00	0	22	0	79691776	70	4841
2026-01-10 21:26:53.72	29.27	6.34	-52.3	-54.9	14.0	0.00e+00	0	22	0	80740352	70	4941
2026-01-10 21:26:54.72	29.39	6.38	-52.3	-55.0	14.0	0.00e+00	0	23	0	82837504	70	5004
2026-01-10 21:26:55.72	29.52	6.43	-52.5	-55.1	13.9	0.00e+00	0	22	0	84934656	70	5100
2026-01-10 21:26:56.71	29.65	6.47	-52.2	-55.3	13.2	2.20e-03	0	22	0	87031808	70	5210
2026-01-10 21:26:57.71	29.78	6.51	-52.0	-55.4	13.2	1.01e-02	0	22	0	88080384	70	5230
2026-01-10 21:26:58.70	29.91	6.56	-51.6	-54.9	13.1	2.83e-02	0	22	0	90177536	69	5259
2026-01-10 21:26:59.70	30.04	6.60	-51.5	-54.9	12.9	3.96e-02	0	22	0	92274688	69	5241
2026-01-10 21:27:00.70	30.17	6.64	-50.9	-55.0	12.8	3.83e-02	0	22	0	94371840	68	5607
2026-01-10 21:27:01.69	30.30	6.69	-50.5	-54.8	12.7	3.86e-02	0	23	0	96468992	67	5799
2026-01-10 21:27:02.69	30.43	6.73	-49.9	-54.8	12.6	4.22e-02	0	23	0	97517568	66	6199
2026-01-10 21:27:03.69	30.56	6.77	-50.0	-54.7	12.4	4.38e-02	0	23	0	99614720	65	6474
2026-01-10 21:27:04.69	30.69	6.82	-49.8	-54.5	12.4	4.51e-02	0	22	0	101711872	64	6691
2026-01-10 21:27:05.68	30.82	6.86	-49.6	-54.6	12.4	4.59e-02	0	23	0	103809024	64	6738
2026-01-10 21:27:06.68	30.95	6.90	-49.7	-54.8	12.3	4.58e-02	0	22	0	105906176	64	6942
2026-01-10 21:27:07.67	31.09	6.95	-49.7	-55.0	12.2	4.60e-02	0	23	0	106954752	65	6695
2026-01-10 21:27:08.67	31.22	6.99	-49.9	-55.0	12.3	4.54e-02	0	23	0	109051904	66	6303
2026-01-10 21:27:09.67	31.35	7.03	-50.5	-54.9	12.5	4.51e-02	0	23	0	111149056	66	6252
2026-01-10 21:27:10.67	31.49	7.07	-50.9	-55.0	12.5	4.18e-02	0	23	0	113246208	67	5927
2026-01-10 21:27:11.67	31.62	7.12	-51.4	-55.2	12.3	4.48e-02	0	23	0	114294784	67	6130
2026-01-10 21:27:12.67	31.76	7.16	-51.6	-55.6	12.4	3.60e-02	0	23	0	116391936	68	6003
2026-01-10 21:27:13.67	31.89	7.20	-52.0	-55.3	12.8	2.64e-02	0	23	0	118489088	69	5509
2026-01-10 21:27:14.67	32.03	7.25	-52.1	-55.1	13.1	1.74e-02	0	23	0	120586240	69	5382
2026-01-10 21:27:15.67	32.16	7.29	-52.3	-55.2	13.4	9.70e-04	0	23	0	122683392	69	5406
2026-01-10 21:27:16.67	32.30	7.33	-52.3	-55.0	13.7	1.52e-05	0	23	0	123731968	69	5337
2026-01-10 21:27:17.66	32.43	7.37	-52.5	-55.3	13.7	0.00e+00	0	23	0	125829120	70	5181
2026-01-10 21:27:18.67	32.57	7.42	-52.4	-55.2	13.8	7.00e-07	0	23	0	127926272	70	5135
2026-01-10 21:27:19.67	32.71	7.46	-52.4	-55.3	13.6	1.02e-04	0	23	0	130023424	70	5164
2026-01-10 21:27:20.67	32.85	7.50	-52.3	-55.1	13.7	1.15e-04	0	23	0	132120576	70	5068
2026-01-10 21:27:21.68	32.99	7.54	-52.4	-55.3	13.6	2.13e-05	0	23	0	133169152	70	5204
2026-01-10 21:27:22.67	33.13	7.59	-52.4	-55.2	13.7	1.14e-04	0	23	0	135266304	70	5152
2026-01-10 21:27:23.67	33.26	7.63	-52.4	-55.2	13.8	5.18e-05	0	22	0	137363456	70	5114
2026-01-10 21:27:24.67	33.40	7.67	-52.5	-55.4	13.7	1.52e-04	0	23	0	139460608	70	5230
2026-01-10 21:27:25.67	33.54	7.71	-52.5	-55.3	13.8	0.00e+00	0	23	0	141557760	70	5181
2026-01-10 21:27:26.67	33.68	7.75	-52.4	-55.1	13.9	0.00e+00	0	23	0	142606336	70	5058
2026-01-10 21:27:27.67	33.82	7.80	-52.4	-55.0	14.0	0.00e+00	0	23	0	144703488	70	5030
2026-01-10 21:27:28.67	33.97	7.84	-52.3	-55.0	14.0	0.00e+00	0	23	0	146800640	70	4997
2026-01-10 21:27:29.67	34.11	7.88	-52.4	-55.0	14.0	0.00e+00	0	23	0	148897792	70	5007
2026-01-10 21:27:30.68	34.25	7.92	-52.4	-55.1	14.0	0.00e+00	0	23	0	150994944	70	5044
2026-01-10 21:27:31.68	34.39	7.96	-52.3	-55.0	14.0	0.00e+00	0	23	0	152043520	70	4994
2026-01-10 21:27:32.68	34.54	8.00	-52.3	-54.9	14.1	0.00e+00	0	23	0	154140672	70	4937
2026-01-10 21:27:33.68	34.68	8.05	-52.5	-55.3	13.9	0.00e+00	0	23	0	156237824	70	5161
2026-01-10 21:27:34.68	34.82	8.09	-52.5	-55.2	13.9	0.00e+00	0	23	0	158334976	70	5121
2026-01-10 21:27:35.68	34.97	8.13	-52.4	-55.0	14.0	0.00e+00	0	23	0	159383552	70	5024
2026-01-10 21:27:36.68	35.11	8.17	-52.5	-55.3	13.9	0.00e+00	0	23	0	161480704	70	5173
2026-01-10 21:27:37.68	35.25	8.21	-52.5	-55.3	13.9	0.00e+00	0	23	0	163577856	70	5169
2026-01-10 21:27:38.67	35.40	8.25	-52.5	-55.2	13.9	0.00e+00	0	23	0	165675008	70	5154
2026-01-10 21:27:39.67	35.54	8.29	-52.4	-55.1	14.0	0.00e+00	0	23	0	167772160	70	5084
2026-01-10 21:27:40.66	35.69	8.33	-52.4	-55.0	14.0	0.00e+00	0	22	0	168820736	70	5014
2026-01-10 21:27:41.65	35.83	8.37	-52.2	-54.7	14.2	0.00e+00	0	23	0	170917888	70	4828
2026-01-10 21:27:42.65	35.98	8.41	-52.1	-54.6	14.3	0.00e+00	0	23	0	173015040	70	4787
2026-01-10 21:27:43.65	36.12	8.45	-52.1	-54.6	14.3	0.00e+00	0	23	0	175112192	70	4796
2026-01-10 21:27:44.65	36.27	8.49	-52.2	-54.7	14.2	0.00e+00	0	23	0	176160768	70	4863
2026-01-10 21:27:45.65	36.42	8.53	-52.4	-55.0	13.9	0.00e+00	0	23	0	178257920	70	5018
2026-01-10 21:27:46.65	36.57	8.58	-52.4	-55.1	13.9	0.00e+00	0	23	0	180355072	70	5082
2026-01-10 21:27:47.64	36.71	8.61	-52.4	-55.2	13.9	0.00e+00	0	23	0	182452224	70	5102
2026-01-10 21:27:48.64	36.86	8.65	-52.5	-55.2	13.9	0.00e+00	0	23	0	184549376	70	5142
2026-01-10 21:27:49.63	37.01	8.69	-52.7	-55.5	13.7	0.00e+00	0	23	0	185597952	70	5333
2026-01-10 21:27:50.64	37.16	8.73	-52.7	-55.6	13.7	0.00e+00	0	23	0	187695104	70	5347
2026-01-10 21:27:51.63	37.31	8.77	-52.5	-55.3	13.8	0.00e+00	0	23	0	189792256	70	5176
2026-01-10 21:27:52.64	37.46	8.81	-52.6	-55.4	13.8	0.00e+00	0	23	0	191889408	70	5224
2026-01-10 21:27:53.63	37.61	8.85	-52.6	-55.5	13.7	0.00e+00	0	23	0	193986560	70	5285
2026-01-10 21:27:54.63	37.76	8.89	-52.5	-55.3	13.9	0.00e+00	0	23	0	195035136	70	5164
2026-01-10 21:27:55.63	37.91	8.93	-52.5	-55.1	13.9	0.00e+00	0	23	0	197132288	70	5096
2026-01-10 21:27:56.62	38.07	8.97	-52.4	-55.1	14.0	0.00e+00	0	23	0	199229440	70	5065
2026-01-10 21:27:57.61	38.22	9.01	-52.3	-55.0	14.1	0.00e+00	0	23	0	201326592	70	4987
2026-01-10 21:27:58.60	38.37	9.05	-52.3	-54.9	14.1	0.00e+00	0	23	0	202375168	70	4933
2026-01-10 21:27:59.60	38.52	9.09	-52.4	-55.0	14.0	0.00e+00	0	23	0	204472320	70	5021
2026-01-10 21:28:00.60	38.67	9.13	-52.3	-54.9	14.1	0.00e+00	0	23	0	206569472	70	4938
2026-01-10 21:28:01.60	38.83	9.16	-52.4	-55.1	14.0	0.00e+00	0	23	0	208666624	70	5062
2026-01-10 21:28:02.60	38.98	9.20	-52.5	-55.2	13.9	0.00e+00	0	23	0	210763776	70	5141
2026-01-10 21:28:03.59	39.14	9.24	-52.6	-55.3	13.8	0.00e+00	0	23	0	211812352	70	5192
2026-01-10 21:28:04.59	39.29	9.28	-52.6	-55.3	13.8	0.00e+00	0	23	0	213909504	70	5192
2026-01-10 21:28:05.59	39.45	9.32	-52.7	-55.4	13.8	0.00e+00	0	23	0	216006656	70	5275
2026-01-10 21:28:06.59	39.60	9.36	-52.7	-55.6	13.7	0.00e+00	0	23	0	218103808	70	5361
2026-01-10 21:28:07.59	39.76	9.39	-52.7	-55.6	13.7	0.00e+00	0	23	0	219152384	70	5349
2026-01-10 21:28:08.59	39.92	9.43	-52.8	-55.6	13.6	0.00e+00	0	23	0	221249536	70	5382
2026-01-10 21:28:09.58	40.07	9.47	-52.8	-55.7	13.6	0.00e+00	0	23	0	223346688	70	5411
2026-01-10 21:28:10.58	40.23	9.51	-52.8	-55.7	13.6	0.00e+00	0	23	0	225443840	70	5427
2026-01-10 21:28:11.57	40.38	9.54	-52.9	-55.8	13.5	0.00e+00	0	23	0	227540992	70	5486
2026-01-10 21:28:12.56	40.54	9.58	-52.8	-55.7	13.7	0.00e+00	0	23	0	228589568	71	5117
2026-01-10 21:28:13.56	40.70	9.62	-52.9	-55.8	13.7	0.00e+00	0	23	0	230686720	71	5177
2026-01-10 21:28:14.57	40.86	9.65	-52.9	-55.9	13.7	0.00e+00	0	23	0	232783872	71	5220
2026-01-10 21:28:15.57	41.02	9.69	-52.9	-55.8	13.7	0.00e+00	0	23	0	234881024	71	5214
2026-01-10 21:28:16.57	41.18	9.73	-53.0	-56.0	13.6	0.00e+00	0	23	0	235929600	71	5287
2026-01-10 21:28:17.56	41.34	9.76	-53.0	-56.0	13.5	0.00e+00	0	23	0	238026752	71	5293
2026-01-10 21:28:18.56	41.50	9.80	-52.9	-55.8	13.7	0.00e+00	0	23	0	240123904	71	5178
2026-01-10 21:28:19.56	41.66	9.84	-52.9	-55.8	13.7	0.00e+00	0	23	0	242221056	71	5175
2026-01-10 21:28:20.56	41.82	9.87	-52.9	-55.9	13.6	0.00e+00	0	23	0	244318208	71	5233
2026-01-10 21:28:21.55	41.98	9.91	-52.9	-55.8	13.7	0.00e+00	0	23	0	245366784	71	5172
2026-01-10 21:28:22.55	42.14	9.94	-52.8	-55.7	13.7	0.00e+00	0	23	0	247463936	71	5124
2026-01-10 21:28:23.55	42.31	9.98	-52.8	-55.6	13.8	0.00e+00	0	23	0	249561088	71	5082
2026-01-10 21:28:24.56	42.47	10.02	-52.8	-55.6	13.8	0.00e+00	0	23	0	251658240	71	5069
2026-01-10 21:28:25.56	42.63	10.05	-52.7	-55.5	13.9	0.00e+00	0	23	0	253755392	71	5005
2026-01-10 21:28:26.56	42.80	10.09	-52.5	-55.2	14.1	0.00e+00	0	23	0	254803968	71	4842
2026-01-10 21:28:27.57	42.96	10.12	-52.6	-55.3	14.0	0.00e+00	0	23	0	256901120	71	4905
2026-01-10 21:28:28.56	43.13	10.16	-52.6	-55.3	14.0	0.00e+00	0	23	0	258998272	71	4900
2026-01-10 21:28:29.56	43.29	10.19	-52.6	-55.4	13.9	0.00e+00	0	23	0	261095424	71	4930
2026-01-10 21:28:30.55	43.45	10.23	-52.7	-55.4	14.0	0.00e+00	0	23	0	263192576	71	4962
2026-01-10 21:28:31.55	43.62	10.26	-52.7	-55.5	13.9	0.00e+00	0	23	0	264241152	71	4984
2026-01-10 21:28:32.54	43.78	10.29	-52.7	-55.4	13.9	0.00e+00	0	23	0	266338304	71	4963
2026-01-10 21:28:33.54	43.95	10.33	-52.7	-55.5	13.9	0.00e+00	0	23	0	268435456	71	4990
2026-01-10 21:28:34.53	44.12	10.36	-52.5	-55.2	14.0	0.00e+00	0	23	0	270532608	71	4866
2026-01-10 21:28:35.53	44.28	10.40	-52.6	-55.3	14.0	0.00e+00	0	23	0	271581184	71	4884
2026-01-10 21:28:36.53	44.45	10.43	-52.4	-55.0	14.2	0.00e+00	0	23	0	273678336	71	4755
2026-01-10 21:28:37.52	44.62	10.46	-52.4	-55.1	14.1	0.00e+00	0	23	0	275775488	71	4766
2026-01-10 21:28:38.52	44.78	10.50	-52.4	-55.0	14.2	0.00e+00	0	23	0	277872640	71	4730
2026-01-10 21:28:39.53	44.96	10.53	-52.4	-55.0	14.2	0.00e+00	0	23	0	279969792	71	4718
2026-01-10 21:28:40.52	45.12	10.56	-52.4	-55.0	14.2	0.00e+00	0	23	0	281018368	71	4718
2026-01-10 21:28:41.52	45.29	10.60	-52.1	-54.5	14.3	0.00e+00	0	23	0	283115520	70	4737
2026-01-10 21:28:42.52	45.46	10.63	-52.2	-54.8	14.2	0.00e+00	0	23	0	285212672	70	4886
2026-01-10 21:28:43.51	45.63	10.66	-52.3	-54.8	14.1	0.00e+00	0	23	0	287309824	70	4905
2026-01-10 21:28:44.51	45.80	10.69	-52.2	-54.7	14.2	0.00e+00	0	23	0	288358400	70	4847
2026-01-10 21:28:45.52	45.97	10.73	-52.3	-54.9	14.1	0.00e+00	0	23	0	290455552	70	4928
2026-01-10 21:28:46.52	46.14	10.76	-52.4	-55.0	14.0	0.00e+00	0	23	0	292552704	70	5024
2026-01-10 21:28:47.52	46.32	10.79	-52.5	-55.2	13.9	0.00e+00	0	23	0	294649856	70	5145
2026-01-10 21:28:48.52	46.49	10.82	-52.4	-55.1	14.0	0.00e+00	0	23	0	296747008	70	5077
2026-01-10 21:28:49.52	46.66	10.85	-52.5	-55.1	14.0	0.00e+00	0	23	0	298844160	70	5088
2026-01-10 21:28:50.52	46.83	10.88	-52.5	-55.2	13.9	0.00e+00	0	23	0	299892736	70	5142
2026-01-10 21:28:51.52	47.01	10.91	-52.6	-55.3	13.9	0.00e+00	0	23	0	301989888	70	5186
2026-01-10 21:28:52.52	47.18	10.95	-52.5	-55.2	13.9	0.00e+00	0	23	0	304087040	70	5105
2026-01-10 21:28:53.53	47.35	10.98	-52.4	-55.1	14.0	0.00e+00	0	23	0	306184192	70	5082
2026-01-10 21:28:54.53	47.53	11.01	-52.5	-55.2	13.9	0.00e+00	0	23	0	307232768	70	5107
2026-01-10 21:28:55.53	47.70	11.04	-52.4	-55.1	14.0	0.00e+00	0	23	0	309329920	70	5083
2026-01-10 21:28:56.52	47.88	11.07	-52.5	-55.1	14.0	0.00e+00	0	23	0	311427072	70	5099
2026-01-10 21:28:57.52	48.05	11.10	-52.4	-55.0	14.1	0.00e+00	0	23	0	313524224	70	5003
2026-01-10 21:28:58.52	48.23	11.13	-52.3	-54.9	14.1	0.00e+00	0	23	0	315621376	70	4959
2026-01-10 21:28:59.51	48.40	11.16	-52.3	-54.8	14.2	0.00e+00	0	23	0	316669952	70	4900
2026-01-10 21:29:00.51	48.58	11.18	-52.2	-54.7	14.3	0.00e+00	0	23	0	318767104	70	4815
2026-01-10 21:29:01.50	48.75	11.21	-52.1	-54.6	14.3	0.00e+00	0	23	0	320864256	70	4778
2026-01-10 21:29:02.50	48.93	11.24	-52.1	-54.5	14.4	0.00e+00	0	23	0	322961408	70	4738
2026-01-10 21:29:03.49	49.10	11.27	-51.9	-54.3	14.5	0.00e+00	0	23	0	324009984	70	4619
2026-01-10 21:29:04.49	49.28	11.30	-52.0	-54.3	14.5	0.00e+00	0	23	0	326107136	70	4637
2026-01-10 21:29:05.48	49.46	11.33	-52.0	-54.3	14.5	0.00e+00	0	23	0	328204288	70	4648
2026-01-10 21:29:06.47	49.63	11.35	-52.1	-54.5	14.4	0.00e+00	0	23	0	330301440	70	4736
2026-01-10 21:29:07.46	49.81	11.38	-52.2	-54.6	14.3	0.00e+00	0	23	0	332398592	70	4788
2026-01-10 21:29:08.46	49.99	11.41	-52.3	-54.8	14.2	0.00e+00	0	23	0	333447168	70	4892
2026-01-10 21:29:09.45	50.17	11.44	-52.5	-55.0	14.1	0.00e+00	0	23	0	335544320	70	5033
2026-01-10 21:29:10.45	50.34	11.46	-52.6	-55.2	13.9	0.00e+00	0	23	0	337641472	70	5137
2026-01-10 21:29:11.45	50.52	11.49	-52.6	-55.2	13.9	0.00e+00	0	23	0	339738624	70	5158
2026-01-10 21:29:12.45	50.70	11.52	-52.6	-55.2	13.9	0.00e+00	0	23	0	340787200	70	5130
2026-01-10 21:29:13.44	50.88	11.54	-52.4	-54.9	14.1	0.00e+00	0	23	0	342884352	70	4945
2026-01-10 21:29:14.45	51.07	11.57	-52.4	-54.9	14.2	0.00e+00	0	23	0	344981504	70	4930
2026-01-10 21:29:15.44	51.24	11.60	-52.1	-54.5	14.3	0.00e+00	0	23	0	347078656	70	4734
2026-01-10 21:29:16.44	51.43	11.62	-51.9	-54.2	14.5	0.00e+00	0	23	0	349175808	70	4567
2026-01-10 21:29:17.44	51.61	11.65	-51.9	-54.1	14.6	0.00e+00	0	23	0	350224384	70	4541
2026-01-10 21:29:18.44	51.79	11.67	-52.0	-54.4	14.5	0.00e+00	0	23	0	352321536	70	4652
2026-01-10 21:29:19.44	51.97	11.70	-52.1	-54.5	14.4	0.00e+00	0	23	0	354418688	70	4738
2026-01-10 21:29:20.45	52.16	11.72	-52.3	-54.8	14.2	0.00e+00	0	23	0	356515840	70	4877
2026-01-10 21:29:21.45	52.34	11.75	-52.3	-54.8	14.2	0.00e+00	0	23	0	358612992	70	4907
2026-01-10 21:29:22.45	52.52	11.77	-52.3	-54.7	14.3	0.00e+00	0	23	0	359661568	70	4840
2026-01-10 21:29:23.46	52.71	11.80	-52.1	-54.5	14.4	0.00e+00	0	23	0	361758720	70	4730
2026-01-10 21:29:24.46	52.89	11.82	-52.0	-54.2	14.6	0.00e+00	0	23	0	363855872	70	4594
2026-01-10 21:29:25.45	53.07	11.84	-51.7	-53.8	14.8	0.00e+00	0	23	0	365953024	70	4387
2026-01-10 21:29:26.45	53.26	11.87	-51.6	-53.8	14.7	0.00e+00	0	23	0	367001600	69	4615
2026-01-10 21:29:27.45	53.44	11.89	-51.6	-53.8	14.7	0.00e+00	0	23	0	369098752	69	4626
2026-01-10 21:29:28.45	53.63	11.91	-51.6	-53.7	14.7	0.00e+00	0	23	0	371195904	69	4585
2026-01-10 21:29:29.45	53.81	11.94	-51.9	-54.2	14.4	0.00e+00	0	23	0	373293056	69	4849
2026-01-10 21:29:30.45	54.00	11.96	-52.0	-54.4	14.2	0.00e+00	0	23	0	375390208	69	4956
2026-01-10 21:29:31.45	54.18	11.98	-52.3	-54.7	14.1	0.00e+00	0	23	0	376438784	69	5146
2026-01-10 21:29:32.45	54.37	12.00	-52.4	-54.9	14.0	0.00e+00	0	23	0	378535936	69	5233
2026-01-10 21:29:33.44	54.55	12.02	-52.3	-54.8	14.0	0.00e+00	0	23	0	380633088	69	5175
2026-01-10 21:29:34.44	54.74	12.05	-52.2	-54.6	14.2	0.00e+00	0	23	0	382730240	69	5067
2026-01-10 21:29:35.44	54.93	12.07	-52.1	-54.5	14.2	0.00e+00	0	23	0	384827392	69	4984
2026-01-10 21:29:36.45	55.12	12.09	-52.1	-54.4	14.2	0.00e+00	0	23	0	385875968	69	4958
2026-01-10 21:29:37.44	55.30	12.11	-52.3	-54.7	14.1	0.00e+00	0	23	0	387973120	69	5147
2026-01-10 21:29:38.44	55.49	12.13	-52.6	-55.1	14.0	0.00e+00	0	23	0	390070272	70	5094
2026-01-10 21:29:39.44	55.68	12.15	-53.1	-55.9	13.6	0.00e+00	0	23	0	392167424	71	5270
2026-01-10 21:29:40.45	55.87	12.17	-53.3	-56.4	13.4	0.00e+00	0	23	0	394264576	71	5543
2026-01-10 21:29:41.45	56.06	12.19	-53.4	-56.5	13.4	0.00e+00	0	23	0	395313152	72	5322
2026-01-10 21:29:42.44	56.24	12.21	-53.5	-56.6	13.4	0.00e+00	0	23	0	397410304	72	5352
2026-01-10 21:29:43.44	56.43	12.23	-53.2	-56.0	13.7	0.00e+00	0	23	0	399507456	72	5019
2026-01-10 21:29:44.43	56.62	12.25	-52.9	-55.6	14.0	0.00e+00	0	23	0	401604608	72	4769
2026-01-10 21:29:45.42	56.81	12.27	-52.8	-55.4	14.1	0.00e+00	0	23	0	402653184	72	4677
2026-01-10 21:29:46.43	57.00	12.28	-52.6	-55.1	14.2	0.00e+00	0	23	0	404750336	71	4800
2026-01-10 21:29:47.42	57.18	12.30	-52.5	-55.0	14.2	0.00e+00	0	23	0	406847488	71	4729
2026-01-10 21:29:48.43	57.38	12.32	-52.6	-55.2	14.0	0.00e+00	0	23	0	408944640	71	4839
2026-01-10 21:29:49.43	57.57	12.34	-52.9	-55.6	13.8	0.00e+00	0	23	0	411041792	71	5084
2026-01-10 21:29:50.43	57.76	12.35	-53.0	-55.9	13.7	0.00e+00	0	23	0	412090368	71	5253
2026-01-10 21:29:51.44	57.95	12.37	-53.1	-56.0	13.6	0.00e+00	0	23	0	414187520	71	5301
2026-01-10 21:29:52.43	58.14	12.39	-53.0	-55.9	13.7	0.00e+00	0	23	0	416284672	71	5238
2026-01-10 21:29:53.43	58.33	12.40	-52.9	-55.6	13.8	0.00e+00	0	23	0	418381824	71	5060
2026-01-10 21:29:54.43	58.52	12.42	-52.8	-55.5	13.9	0.00e+00	0	23	0	420478976	71	5006
2026-01-10 21:29:55.42	58.71	12.44	-52.8	-55.4	13.9	0.00e+00	0	23	0	421527552	71	4970
2026-01-10 21:29:56.42	58.90	12.45	-52.8	-55.5	13.9	0.00e+00	0	23	0	423624704	71	4986
2026-01-10 21:29:57.42	59.09	12.47	-52.8	-55.5	13.9	0.00e+00	0	23	0	425721856	71	5035
2026-01-10 21:29:58.42	59.29	12.48	-53.0	-55.8	13.7	0.00e+00	0	23	0	427819008	71	5202
2026-01-10 21:29:59.41	59.48	12.50	-53.2	-56.2	13.4	0.00e+00	0	23	0	428867584	71	5410
2026-01-10 21:30:00.41	59.67	12.51	-53.1	-56.0	13.6	0.00e+00	0	23	0	430964736	71	5321
2026-01-10 21:30:01.41	59.86	12.53	-53.2	-56.3	13.4	0.00e+00	0	23	0	433061888	71	5478
2026-01-10 21:30:02.40	60.05	12.54	-53.1	-56.1	13.5	0.00e+00	0	23	0	435159040	71	5341
2026-01-10 21:30:03.39	60.24	12.55	-52.8	-55.5	13.9	0.00e+00	0	23	0	437256192	71	4988
2026-01-10 21:30:04.39	60.44	12.57	-52.5	-55.1	14.2	0.00e+00	0	23	0	438304768	71	4779
2026-01-10 21:30:05.38	60.63	12.58	-52.4	-54.9	14.3	0.00e+00	0	23	0	440401920	71	4669
2026-01-10 21:30:06.38	60.82	12.59	-52.2	-54.5	14.3	0.00e+00	0	23	0	442499072	70	4755
2026-01-10 21:30:07.37	61.01	12.61	-52.2	-54.6	14.3	0.00e+00	0	23	0	444596224	70	4813
2026-01-10 21:30:08.37	61.21	12.62	-52.4	-54.9	14.1	0.00e+00	0	23	0	445644800	70	4940
2026-01-10 21:30:09.37	61.40	12.63	-52.5	-55.0	14.1	0.00e+00	0	23	0	447741952	70	5039
2026-01-10 21:30:10.37	61.60	12.64	-52.4	-55.0	14.1	0.00e+00	0	23	0	449839104	70	5007
2026-01-10 21:30:11.36	61.79	12.65	-52.5	-55.1	14.0	0.00e+00	0	23	0	451936256	70	5092
2026-01-10 21:30:12.36	61.98	12.66	-52.4	-55.0	14.1	0.00e+00	0	23	0	454033408	70	4988
2026-01-10 21:30:13.36	62.18	12.67	-52.0	-54.4	14.5	0.00e+00	0	23	0	455081984	70	4666
2026-01-10 21:30:14.36	62.37	12.69	-51.9	-54.3	14.6	0.00e+00	0	23	0	457179136	70	4606
2026-01-10 21:30:15.35	62.56	12.70	-51.7	-53.9	14.8	0.00e+00	0	23	0	459276288	70	4428
2026-01-10 21:30:16.36	62.76	12.71	-51.4	-53.6	14.7	0.00e+00	0	23	0	461373440	69	4525
2026-01-10 21:30:17.34	62.95	12.71	-51.3	-53.4	14.9	0.00e+00	0	23	0	462422016	69	4416
2026-01-10 21:30:18.33	63.15	12.72	-51.3	-53.4	14.8	0.00e+00	0	23	0	464519168	69	4436
2026-01-10 21:30:19.33	63.34	12.73	-51.4	-53.6	14.8	0.00e+00	0	23	0	466616320	69	4517
2026-01-10 21:30:20.32	63.53	12.74	-51.4	-53.6	14.7	0.00e+00	0	23	0	468713472	69	4536
2026-01-10 21:30:21.33	63.73	12.75	-51.5	-53.7	14.7	0.00e+00	0	23	0	470810624	69	4576
2026-01-10 21:30:22.32	63.93	12.76	-51.3	-53.5	14.8	0.00e+00	0	23	0	471859200	69	4476
2026-01-10 21:30:23.32	64.12	12.77	-51.4	-53.6	14.7	0.00e+00	0	23	0	473956352	69	4523
2026-01-10 21:30:24.32	64.32	12.77	-51.4	-53.6	14.7	0.00e+00	0	23	0	476053504	69	4542
2026-01-10 21:30:25.32	64.51	12.78	-51.4	-53.6	14.7	0.00e+00	0	23	0	478150656	69	4537
2026-01-10 21:30:26.33	64.71	12.79	-51.6	-53.8	14.6	0.00e+00	0	23	0	480247808	69	4642
2026-01-10 21:30:27.32	64.91	12.79	-51.7	-53.9	14.5	0.00e+00	0	23	0	481296384	69	4689
2026-01-10 21:30:28.31	65.10	12.80	-51.8	-54.2	14.4	0.00e+00	0	23	0	483393536	69	4825
2026-01-10 21:30:29.32	65.30	12.81	-51.8	-54.2	14.4	0.00e+00	0	23	0	485490688	69	4823
2026-01-10 21:30:30.31	65.49	12.81	-51.8	-54.1	14.5	0.00e+00	0	23	0	487587840	69	4799
2026-01-10 21:30:31.31	65.69	12.82	-51.7	-54.0	14.5	0.00e+00	0	23	0	488636416	69	4741
2026-01-10 21:30:32.31	65.89	12.82	-51.7	-54.0	14.5	0.00e+00	0	23	0	490733568	69	4713
2026-01-10 21:30:33.31	66.08	12.83	-51.6	-53.9	14.6	0.00e+00	0	23	0	492830720	69	4666
2026-01-10 21:30:34.31	66.28	12.83	-51.5	-53.8	14.6	0.00e+00	0	23	0	494927872	69	4601
2026-01-10 21:30:35.31	66.48	12.84	-51.6	-53.8	14.6	0.00e+00	0	23	0	497025024	69	4625
2026-01-10 21:30:36.31	66.67	12.84	-51.7	-54.0	14.5	0.00e+00	0	23	0	498073600	69	4753
2026-01-10 21:30:37.31	66.87	12.84	-51.8	-54.1	14.5	0.00e+00	0	23	0	500170752	69	4800
2026-01-10 21:30:38.30	67.07	12.85	-51.7	-54.1	14.5	0.00e+00	0	23	0	502267904	69	4766
2026-01-10 21:30:39.31	67.26	12.85	-51.8	-54.1	14.5	0.00e+00	0	23	0	504365056	69	4794
2026-01-10 21:30:40.32	67.46	12.85	-51.8	-54.1	14.4	0.00e+00	0	23	0	506462208	69	4806
2026-01-10 21:30:41.32	67.66	12.86	-51.7	-53.9	14.5	0.00e+00	0	23	0	507510784	69	4694
2026-01-10 21:30:42.32	67.86	12.86	-51.6	-53.8	14.6	0.00e+00	0	23	0	509607936	69	4633
2026-01-10 21:30:43.32	68.05	12.86	-51.7	-53.9	14.5	0.00e+00	0	23	0	511705088	69	4685
2026-01-10 21:30:44.32	68.25	12.86	-51.6	-53.9	14.6	0.00e+00	0	23	0	513802240	69	4659
2026-01-10 21:30:45.32	68.45	12.86	-51.7	-54.0	14.5	0.00e+00	0	23	0	515899392	69	4721
2026-01-10 21:30:46.32	68.65	12.86	-51.8	-54.1	14.4	0.00e+00	0	23	0	516947968	69	4796
2026-01-10 21:30:47.32	68.84	12.86	-51.7	-54.0	14.5	0.00e+00	0	23	0	519045120	69	4719
2026-01-10 21:30:48.33	69.04	12.86	-51.7	-54.0	14.6	0.00e+00	0	23	0	521142272	69	4710
2026-01-10 21:30:49.33	69.24	12.86	-51.6	-53.9	14.6	0.00e+00	0	23	0	523239424	69	4663
2026-01-10 21:30:50.33	69.44	12.86	-51.6	-53.8	14.6	0.00e+00	0	23	0	525336576	69	4622
2026-01-10 21:30:51.32	69.63	12.86	-51.6	-53.8	14.6	0.00e+00	0	23	0	526385152	69	4630
2026-01-10 21:30:52.31	69.83	12.86	-51.7	-54.0	14.5	0.00e+00	0	23	0	528482304	69	4730
2026-01-10 21:30:53.32	70.03	12.86	-51.6	-53.9	14.6	0.00e+00	0	23	0	530579456	69	4664
2026-01-10 21:30:54.32	70.22	12.86	-51.8	-54.2	14.4	0.00e+00	0	23	0	532676608	69	4826
2026-01-10 21:30:55.31	70.42	12.86	-51.8	-54.2	14.4	0.00e+00	0	23	0	533725184	69	4816
2026-01-10 21:30:56.31	70.62	12.85	-51.7	-54.0	14.5	0.00e+00	0	23	0	535822336	69	4735
2026-01-10 21:30:57.32	70.81	12.85	-51.6	-53.9	14.6	0.00e+00	0	23	0	537919488	69	4674
2026-01-10 21:30:58.32	71.01	12.85	-51.5	-53.6	14.7	0.00e+00	0	23	0	540016640	69	4530
2026-01-10 21:30:59.32	71.21	12.85	-51.3	-53.5	14.8	0.00e+00	0	23	0	542113792	69	4461
2026-01-10 21:31:00.31	71.40	12.84	-51.0	-53.1	14.9	0.00e+00	0	23	0	543162368	68	4496
2026-01-10 21:31:01.31	71.60	12.84	-50.8	-52.7	15.0	0.00e+00	0	23	0	545259520	68	4339
2026-01-10 21:31:02.31	71.80	12.83	-50.5	-52.4	15.0	0.00e+00	0	23	0	547356672	67	4418
2026-01-10 21:31:03.30	71.99	12.83	-50.5	-52.4	15.0	0.00e+00	0	23	0	549453824	67	4436
2026-01-10 21:31:04.30	72.19	12.83	-50.6	-52.6	15.0	0.00e+00	0	23	0	550502400	67	4505
2026-01-10 21:31:05.30	72.39	12.82	-50.7	-52.7	14.9	0.00e+00	0	23	0	552599552	67	4568
2026-01-10 21:31:06.29	72.58	12.82	-50.7	-52.7	14.9	0.00e+00	0	23	0	554696704	67	4564
2026-01-10 21:31:07.28	72.78	12.81	-50.7	-52.7	14.9	0.00e+00	0	23	0	556793856	67	4555
2026-01-10 21:31:08.28	72.97	12.80	-50.8	-52.8	14.8	0.00e+00	0	23	0	558891008	67	4625
2026-01-10 21:31:09.29	73.17	12.80	-50.7	-52.7	14.9	0.00e+00	0	23	0	559939584	67	4568
2026-01-10 21:31:10.28	73.36	12.79	-50.6	-52.5	15.0	0.00e+00	0	23	0	562036736	67	4482
2026-01-10 21:31:11.29	73.56	12.78	-50.6	-52.6	14.9	0.00e+00	0	23	0	564133888	67	4537
2026-01-10 21:31:12.28	73.76	12.78	-50.8	-52.8	14.8	0.00e+00	0	23	0	566231040	67	4614
2026-01-10 21:31:13.28	73.95	12.77	-50.8	-52.8	14.8	0.00e+00	0	23	0	568328192	67	4617
2026-01-10 21:31:14.28	74.15	12.76	-51.0	-53.1	14.6	0.00e+00	0	23	0	569376768	67	4777
2026-01-10 21:31:15.28	74.35	12.75	-51.2	-53.3	14.5	0.00e+00	0	23	0	571473920	67	4903
2026-01-10 21:31:16.28	74.54	12.75	-51.1	-53.3	14.6	0.00e+00	0	23	0	573571072	67	4881
2026-01-10 21:31:17.28	74.74	12.74	-51.2	-53.3	14.5	0.00e+00	0	23	0	575668224	67	4909
2026-01-10 21:31:18.27	74.93	12.73	-51.1	-53.2	14.6	0.00e+00	0	23	0	576716800	67	4827
2026-01-10 21:31:19.27	75.13	12.72	-51.0	-53.1	14.7	0.00e+00	0	23	0	578813952	67	4772
2026-01-10 21:31:20.26	75.32	12.71	-51.0	-53.0	14.7	0.00e+00	0	23	0	580911104	67	4744
2026-01-10 21:31:21.26	75.51	12.70	-50.8	-52.8	14.8	0.00e+00	0	23	0	583008256	67	4645
2026-01-10 21:31:22.26	75.71	12.69	-50.8	-52.8	14.8	0.00e+00	0	23	0	585105408	67	4617
2026-01-10 21:31:23.26	75.91	12.68	-51.0	-53.0	14.7	0.00e+00	0	23	0	586153984	67	4752
2026-01-10 21:31:24.26	76.10	12.67	-51.1	-53.2	14.6	0.00e+00	0	23	0	588251136	67	4840
2026-01-10 21:31:25.27	76.30	12.66	-51.1	-53.3	14.5	0.00e+00	0	23	0	590348288	67	4881
2026-01-10 21:31:26.27	76.49	12.65	-51.2	-53.3	14.5	0.00e+00	0	23	0	592445440	67	4910
2026-01-10 21:31:27.27	76.69	12.64	-51.2	-53.3	14.5	0.00e+00	0	23	0	594542592	67	4920
2026-01-10 21:31:28.27	76.88	12.62	-51.2	-53.3	14.5	0.00e+00	0	23	0	595591168	67	4924
2026-01-10 21:31:29.27	77.07	12.61	-51.2	-53.3	14.5	0.00e+00	0	23	0	597688320	67	4913
2026-01-10 21:31:30.27	77.27	12.60	-51.0	-53.1	14.7	0.00e+00	0	23	0	599785472	67	4770
2026-01-10 21:31:31.27	77.46	12.59	-50.8	-52.9	14.8	0.00e+00	0	23	0	601882624	67	4657
2026-01-10 21:31:32.27	77.66	12.57	-50.8	-52.8	14.8	0.00e+00	0	23	0	602931200	67	4611
2026-01-10 21:31:33.27	77.85	12.56	-50.7	-52.7	14.9	0.00e+00	0	23	0	605028352	67	4552
2026-01-10 21:31:34.27	78.04	12.55	-50.8	-52.7	14.9	0.00e+00	0	23	0	607125504	67	4598
2026-01-10 21:31:35.28	78.24	12.53	-50.7	-52.7	14.9	0.00e+00	0	23	0	609222656	67	4560
2026-01-10 21:31:36.27	78.43	12.52	-50.7	-52.7	14.9	0.00e+00	0	23	0	611319808	67	4577
2026-01-10 21:31:37.26	78.62	12.50	-50.7	-52.6	14.9	0.00e+00	0	23	0	612368384	67	4522
2026-01-10 21:31:38.26	78.81	12.49	-50.7	-52.7	14.8	0.00e+00	0	23	0	614465536	67	4578
2026-01-10 21:31:39.26	79.00	12.48	-50.6	-52.6	14.9	0.00e+00	0	23	0	616562688	67	4500
2026-01-10 21:31:40.26	79.20	12.46	-50.7	-52.6	14.8	0.00e+00	0	23	0	618659840	67	4524
2026-01-10 21:31:41.26	79.39	12.44	-50.5	-52.4	15.0	0.00e+00	0	23	0	620756992	67	4423
2026-01-10 21:31:42.25	79.58	12.43	-50.5	-52.4	15.0	0.00e+00	0	23	0	621805568	67	4423
2026-01-10 21:31:43.25	79.77	12.41	-50.7	-52.6	14.9	0.00e+00	0	23	0	623902720	67	4511
2026-01-10 21:31:44.26	79.96	12.40	-50.6	-52.5	15.0	0.00e+00	0	23	0	625999872	67	4490
2026-01-10 21:31:45.26	80.16	12.38	-50.7	-52.6	14.9	0.00e+00	0	23	0	628097024	67	4501
2026-01-10 21:31:46.25	80.34	12.36	-50.7	-52.6	14.9	0.00e+00	0	23	0	629145600	67	4537
2026-01-10 21:31:47.25	80.54	12.35	-50.8	-52.7	14.9	0.00e+00	0	23	0	631242752	67	4576
2026-01-10 21:31:48.25	80.73	12.33	-50.6	-52.5	14.9	0.00e+00	0	23	0	633339904	67	4474
2026-01-10 21:31:49.25	80.92	12.31	-50.6	-52.5	15.0	0.00e+00	0	23	0	635437056	67	4476
2026-01-10 21:31:50.25	81.11	12.29	-50.6	-52.4	14.9	0.00e+00	0	23	0	637534208	67	4438
2026-01-10 21:31:51.24	81.29	12.27	-50.6	-52.5	15.0	0.00e+00	0	23	0	638582784	67	4444
2026-01-10 21:31:52.24	81.48	12.26	-50.5	-52.3	15.1	0.00e+00	0	23	0	640679936	67	4378
2026-01-10 21:31:53.24	81.67	12.24	-50.6	-52.4	15.0	0.00e+00	0	23	0	642777088	67	4434
2026-01-10 21:31:54.23	81.86	12.22	-50.5	-52.4	15.0	0.00e+00	0	23	0	644874240	67	4419
2026-01-10 21:31:55.23	82.05	12.20	-50.5	-52.4	15.0	0.00e+00	0	23	0	646971392	67	4405
2026-01-10 21:31:56.23	82.24	12.18	-50.6	-52.5	15.0	0.00e+00	0	23	0	648019968	67	4461
2026-01-10 21:31:57.23	82.43	12.16	-50.7	-52.6	14.9	0.00e+00	0	23	0	650117120	67	4499
2026-01-10 21:31:58.22	82.61	12.14	-50.6	-52.5	14.9	0.00e+00	0	23	0	652214272	67	4486
2026-01-10 21:31:59.22	82.80	12.12	-50.7	-52.6	14.9	0.00e+00	0	23	0	654311424	67	4515
2026-01-10 21:32:00.22	82.99	12.10	-50.7	-52.6	14.9	0.00e+00	0	23	0	655360000	67	4508
2026-01-10 21:32:01.23	83.18	12.08	-50.7	-52.6	14.9	0.00e+00	0	23	0	657457152	67	4535
2026-01-10 21:32:02.23	83.37	12.06	-50.6	-52.6	15.0	0.00e+00	0	23	0	659554304	67	4497
2026-01-10 21:32:03.23	83.55	12.03	-50.4	-52.3	15.1	0.00e+00	0	23	0	661651456	67	4370
2026-01-10 21:32:04.23	83.74	12.01	-50.3	-52.1	15.1	0.00e+00	0	23	0	663748608	67	4289
2026-01-10 21:32:05.22	83.93	11.99	-50.3	-52.1	15.2	0.00e+00	0	23	0	664797184	67	4289
2026-01-10 21:32:06.22	84.11	11.97	-50.5	-52.3	15.1	0.00e+00	0	23	0	666894336	67	4375
2026-01-10 21:32:07.22	84.30	11.95	-50.4	-52.3	15.1	0.00e+00	0	23	0	668991488	67	4355
2026-01-10 21:32:08.21	84.48	11.92	-50.5	-52.4	15.0	0.00e+00	0	23	0	671088640	67	4420
2026-01-10 21:32:09.21	84.67	11.90	-50.5	-52.4	15.0	0.00e+00	0	23	0	672137216	67	4408
2026-01-10 21:32:10.20	84.85	11.88	-50.6	-52.4	15.0	0.00e+00	0	23	0	674234368	67	4439
2026-01-10 21:32:11.19	85.03	11.85	-50.5	-52.3	15.1	0.00e+00	0	23	0	676331520	67	4374
2026-01-10 21:32:12.19	85.22	11.83	-50.5	-52.3	15.1	0.00e+00	0	23	0	678428672	67	4371
2026-01-10 21:32:13.19	85.40	11.81	-50.0	-51.7	15.2	0.00e+00	0	23	0	680525824	66	4340
2026-01-10 21:32:14.19	85.59	11.78	-50.1	-51.9	15.1	0.00e+00	0	23	0	681574400	66	4431
2026-01-10 21:32:15.19	85.77	11.76	-50.0	-51.8	15.2	0.00e+00	0	23	0	683671552	66	4366
2026-01-10 21:32:16.19	85.95	11.73	-50.1	-51.8	15.1	0.00e+00	0	23	0	685768704	66	4391
2026-01-10 21:32:17.19	86.14	11.71	-50.1	-51.9	15.1	0.00e+00	0	23	0	687865856	66	4418
2026-01-10 21:32:18.19	86.32	11.68	-50.2	-52.0	15.1	0.00e+00	0	23	0	689963008	66	4467
2026-01-10 21:32:19.19	86.50	11.66	-50.2	-52.0	15.0	0.00e+00	0	23	0	691011584	66	4481
2026-01-10 21:32:20.20	86.69	11.63	-50.2	-52.0	15.1	0.00e+00	0	23	0	693108736	66	4443
2026-01-10 21:32:21.20	86.87	11.61	-50.3	-52.1	15.0	0.00e+00	0	23	0	695205888	66	4518
2026-01-10 21:32:22.19	87.05	11.58	-50.3	-52.2	15.0	0.00e+00	0	23	0	697303040	66	4560
2026-01-10 21:32:23.19	87.23	11.56	-50.3	-52.2	15.0	0.00e+00	0	23	0	699400192	66	4549
2026-01-10 21:32:24.19	87.41	11.53	-50.3	-52.1	15.0	0.00e+00	0	23	0	700448768	66	4518
2026-01-10 21:32:25.19	87.59	11.50	-50.4	-52.2	14.9	0.00e+00	0	23	0	702545920	66	4580
2026-01-10 21:32:26.19	87.77	11.48	-50.4	-52.3	14.9	0.00e+00	0	23	0	704643072	66	4635
2026-01-10 21:32:27.20	87.95	11.45	-50.4	-52.3	14.9	0.00e+00	0	23	0	706740224	66	4622
2026-01-10 21:32:28.20	88.13	11.42	-50.4	-52.3	14.9	0.00e+00	0	23	0	707788800	66	4615
2026-01-10 21:32:29.20	88.31	11.39	-50.4	-52.2	15.0	0.00e+00	0	23	0	709885952	66	4579
2026-01-10 21:32:30.20	88.49	11.36	-50.3	-52.2	15.0	0.00e+00	0	23	0	711983104	66	4546
2026-01-10 21:32:31.20	88.67	11.34	-50.4	-52.3	15.0	0.00e+00	0	23	0	714080256	66	4600
2026-01-10 21:32:32.20	88.85	11.31	-50.4	-52.2	14.9	0.00e+00	0	23	0	716177408	66	4586
2026-01-10 21:32:33.21	89.03	11.28	-50.4	-52.3	14.9	0.00e+00	0	23	0	717225984	66	4600
2026-01-10 21:32:34.20	89.20	11.25	-50.5	-52.4	14.9	0.00e+00	0	23	0	719323136	66	4664
2026-01-10 21:32:35.20	89.38	11.22	-50.5	-52.4	14.8	0.00e+00	0	23	0	721420288	66	4674
2026-01-10 21:32:36.20	89.56	11.19	-50.6	-52.5	14.8	0.00e+00	0	23	0	723517440	66	4742
2026-01-10 21:32:37.20	89.73	11.16	-50.5	-52.5	14.8	0.00e+00	0	23	0	725614592	66	4726
2026-01-10 21:32:38.19	89.91	11.14	-50.6	-52.6	14.7	0.00e+00	0	23	0	726663168	66	4792
2026-01-10 21:32:39.18	90.08	11.11	-50.7	-52.7	14.7	0.00e+00	0	23	0	728760320	66	4821
2026-01-10 21:32:40.18	90.26	11.08	-50.8	-52.9	14.6	0.00e+00	0	23	0	730857472	66	4928
2026-01-10 21:32:41.19	90.44	11.05	-50.9	-53.0	14.7	0.00e+00	0	23	0	732954624	67	4707
2026-01-10 21:32:42.19	90.61	11.02	-50.9	-53.0	14.6	0.00e+00	0	23	0	735051776	67	4730
2026-01-10 21:32:43.19	90.79	10.98	-51.0	-53.2	14.6	0.00e+00	0	23	0	736100352	67	4817
2026-01-10 21:32:44.19	90.96	10.95	-51.1	-53.3	14.5	0.00e+00	0	23	0	738197504	67	4899
2026-01-10 21:32:45.19	91.13	10.92	-51.2	-53.4	14.5	0.00e+00	0	23	0	740294656	67	4936
2026-01-10 21:32:46.20	91.31	10.89	-51.3	-53.6	14.4	0.00e+00	0	23	0	742391808	67	5065
2026-01-10 21:32:47.19	91.48	10.86	-51.5	-53.7	14.4	0.00e+00	0	23	0	743440384	68	4837
2026-01-10 21:32:48.19	91.65	10.83	-51.7	-53.9	14.3	0.00e+00	0	23	0	745537536	68	4980
2026-01-10 21:32:49.18	91.82	10.80	-51.6	-53.9	14.4	0.00e+00	0	23	0	747634688	68	4935
2026-01-10 21:32:50.18	92.00	10.77	-51.7	-53.9	14.3	0.00e+00	0	23	0	749731840	68	4980
2026-01-10 21:32:51.17	92.17	10.73	-51.6	-53.9	14.3	0.00e+00	0	23	0	751828992	68	4956
2026-01-10 21:32:52.17	92.34	10.70	-51.5	-53.7	14.5	0.00e+00	0	23	0	752877568	68	4826
2026-01-10 21:32:53.18	92.51	10.67	-51.5	-53.8	14.5	0.00e+00	0	23	0	754974720	68	4886
2026-01-10 21:32:54.18	92.68	10.64	-51.4	-53.5	14.5	0.00e+00	0	23	0	757071872	68	4757
2026-01-10 21:32:55.17	92.85	10.60	-51.4	-53.5	14.6	0.00e+00	0	23	0	759169024	68	4759
2026-01-10 21:32:56.17	93.02	10.57	-51.7	-54.0	14.3	0.00e+00	0	23	0	760217600	68	4998
2026-01-10 21:32:57.17	93.19	10.54	-51.7	-54.0	14.3	0.00e+00	0	23	0	762314752	68	5031
2026-01-10 21:32:58.17	93.36	10.50	-52.0	-54.4	14.2	0.00e+00	0	23	0	764411904	69	4980
2026-01-10 21:32:59.16	93.53	10.47	-52.2	-54.8	13.9	0.00e+00	0	23	0	766509056	69	5172
2026-01-10 21:33:00.16	93.70	10.44	-52.4	-55.0	13.8	0.00e+00	0	23	0	768606208	69	5339
2026-01-10 21:33:01.16	93.86	10.40	-52.6	-55.4	13.7	0.00e+00	0	23	0	769654784	70	5223
2026-01-10 21:33:02.15	94.03	10.37	-52.6	-55.3	13.8	0.00e+00	0	23	0	771751936	70	5213
2026-01-10 21:33:03.15	94.20	10.34	-52.5	-55.3	13.8	0.00e+00	0	23	0	773849088	70	5186
2026-01-10 21:33:04.14	94.36	10.30	-52.3	-54.9	14.0	0.00e+00	0	23	0	775946240	70	4976
2026-01-10 21:33:05.13	94.53	10.27	-52.2	-54.8	14.1	0.00e+00	0	23	0	778043392	70	4901
2026-01-10 21:33:06.13	94.69	10.23	-52.2	-54.8	14.1	0.00e+00	0	23	0	779091968	70	4893
2026-01-10 21:33:07.13	94.86	10.20	-52.1	-54.7	14.2	0.00e+00	0	23	0	781189120	70	4838
2026-01-10 21:33:08.13	95.02	10.16	-52.3	-55.0	14.0	0.00e+00	0	23	0	783286272	70	5005
2026-01-10 21:33:09.13	95.19	10.13	-52.5	-55.3	13.8	0.00e+00	0	23	0	785383424	70	5194
2026-01-10 21:33:10.13	95.35	10.09	-52.7	-55.6	13.6	0.00e+00	0	23	0	786432000	70	5369
2026-01-10 21:33:11.12	95.52	10.06	-52.8	-55.7	13.5	0.00e+00	0	23	0	788529152	70	5443
2026-01-10 21:33:12.13	95.68	10.02	-52.7	-55.6	13.6	0.00e+00	0	23	0	790626304	70	5377
2026-01-10 21:33:13.12	95.84	9.99	-52.6	-55.4	13.7	0.00e+00	0	23	0	792723456	70	5239
2026-01-10 21:33:14.12	96.01	9.95	-52.3	-55.0	14.0	0.00e+00	0	23	0	794820608	70	5022
2026-01-10 21:33:15.12	96.17	9.92	-52.2	-54.7	14.2	0.00e+00	0	23	0	795869184	70	4850
2026-01-10 21:33:16.12	96.33	9.88	-52.2	-54.7	14.1	0.00e+00	0	23	0	797966336	70	4870
2026-01-10 21:33:17.12	96.50	9.84	-52.2	-54.8	14.1	0.00e+00	0	23	0	800063488	70	4896
2026-01-10 21:33:18.12	96.66	9.81	-52.2	-54.9	14.1	0.00e+00	0	23	0	802160640	70	4927
2026-01-10 21:33:19.12	96.82	9.77	-52.3	-55.0	14.0	0.00e+00	0	23	0	803209216	70	5006
2026-01-10 21:33:20.12	96.98	9.73	-52.5	-55.3	13.8	0.00e+00	0	23	0	805306368	70	5168
2026-01-10 21:33:21.11	97.14	9.70	-52.6	-55.5	13.6	0.00e+00	0	23	0	807403520	70	5289
2026-01-10 21:33:22.11	97.30	9.66	-52.7	-55.7	13.5	0.00e+00	0	23	0	809500672	70	5426
2026-01-10 21:33:23.11	97.46	9.62	-52.7	-55.6	13.5	0.00e+00	0	23	0	811597824	70	5402
2026-01-10 21:33:24.12	97.62	9.58	-52.6	-55.5	13.6	0.00e+00	0	23	0	812646400	70	5316
2026-01-10 21:33:25.11	97.78	9.55	-52.7	-55.6	13.6	0.00e+00	0	23	0	814743552	70	5359
2026-01-10 21:33:26.11	97.93	9.51	-52.7	-55.6	13.6	0.00e+00	0	23	0	816840704	70	5367
2026-01-10 21:33:27.10	98.09	9.47	-52.9	-55.8	13.5	0.00e+00	0	23	0	818937856	71	5206
2026-01-10 21:33:28.11	98.25	9.43	-52.7	-55.6	13.7	0.00e+00	0	23	0	821035008	71	5057
2026-01-10 21:33:29.11	98.41	9.40	-52.8	-55.7	13.6	0.00e+00	0	23	0	822083584	71	5155
2026-01-10 21:33:30.11	98.56	9.36	-52.8	-55.8	13.6	0.00e+00	0	23	0	824180736	71	5210
2026-01-10 21:33:31.11	98.72	9.32	-52.7	-55.6	13.7	0.00e+00	0	23	0	826277888	71	5093
2026-01-10 21:33:32.12	98.88	9.28	-52.8	-55.7	13.7	0.00e+00	0	23	0	828375040	71	5146
2026-01-10 21:33:33.12	99.04	9.24	-52.7	-55.7	13.6	0.00e+00	0	23	0	830472192	71	5115
2026-01-10 21:33:34.11	99.19	9.20	-52.6	-55.6	13.7	0.00e+00	0	23	0	831520768	71	5045
2026-01-10 21:33:35.11	99.34	9.17	-52.8	-55.9	13.5	0.00e+00	0	23	0	833617920	71	5227
2026-01-10 21:33:36.11	99.50	9.13	-52.7	-55.7	13.6	0.00e+00	0	23	0	835715072	71	5128
2026-01-10 21:33:37.10	99.65	9.09	-52.7	-55.7	13.7	0.00e+00	0	23	0	837812224	71	5124
2026-01-10 21:33:38.10	99.80	9.05	-52.8	-55.8	13.6	0.00e+00	0	23	0	838860800	71	5170
2026-01-10 21:33:39.09	99.96	9.01	-52.7	-55.7	13.6	0.00e+00	0	23	0	840957952	71	5134
2026-01-10 21:33:40.09	100.11	8.97	-52.6	-55.6	13.7	0.00e+00	0	23	0	843055104	71	5048
2026-01-10 21:33:41.09	100.26	8.93	-52.6	-55.5	13.8	0.00e+00	0	23	0	845152256	71	5016
2026-01-10 21:33:42.09	100.41	8.89	-52.5	-55.4	13.9	0.00e+00	0	23	0	847249408	71	4946
2026-01-10 21:33:43.09	100.57	8.85	-52.5	-55.3	13.9	0.00e+00	0	23	0	848297984	71	4883
2026-01-10 21:33:44.08	100.72	8.81	-52.5	-55.2	14.0	0.00e+00	0	23	0	850395136	71	4844
2026-01-10 21:33:45.09	100.87	8.77	-52.1	-54.7	14.2	0.00e+00	0	23	0	852492288	70	4817
2026-01-10 21:33:46.09	101.02	8.73	-52.1	-54.6	14.2	0.00e+00	0	23	0	854589440	70	4800
2026-01-10 21:33:47.08	101.17	8.69	-52.0	-54.5	14.3	0.00e+00	0	23	0	856686592	70	4735
2026-01-10 21:33:48.09	101.32	8.65	-51.9	-54.3	14.4	0.00e+00	0	23	0	857735168	70	4642
2026-01-10 21:33:49.09	101.47	8.61	-52.0	-54.4	14.3	0.00e+00	0	23	0	859832320	70	4688
2026-01-10 21:33:50.09	101.62	8.57	-52.1	-54.7	14.1	0.00e+00	0	23	0	861929472	70	4839
2026-01-10 21:33:51.10	101.77	8.53	-52.2	-54.8	14.1	0.00e+00	0	23	0	864026624	70	4876
2026-01-10 21:33:52.10	101.92	8.49	-52.4	-55.0	13.9	0.00e+00	0	23	0	865075200	70	5041
2026-01-10 21:33:53.10	102.06	8.45	-52.5	-55.3	13.8	0.00e+00	0	23	0	867172352	70	5166
2026-01-10 21:33:54.10	102.21	8.41	-52.6	-55.5	13.5	0.00e+00	0	23	0	869269504	70	5319
2026-01-10 21:33:55.09	102.36	8.37	-52.9	-55.9	13.4	0.00e+00	0	23	0	871366656	70	5543
2026-01-10 21:33:56.09	102.50	8.33	-52.9	-55.9	13.5	0.00e+00	0	23	0	873463808	71	5242
2026-01-10 21:33:57.09	102.65	8.29	-53.0	-55.7	13.6	0.00e+00	0	23	0	874512384	71	5156
2026-01-10 21:33:58.10	102.80	8.25	-53.1	-55.9	13.5	0.00e+00	0	23	0	876609536	71	5267
2026-01-10 21:33:59.10	102.94	8.20	-52.9	-55.6	13.8	0.00e+00	0	23	0	878706688	71	5054
2026-01-10 21:34:00.10	103.09	8.16	-52.7	-55.3	13.9	0.00e+00	0	23	0	880803840	71	4881
2026-01-10 21:34:01.09	103.23	8.12	-52.6	-55.1	14.1	0.00e+00	0	23	0	882900992	71	4774
2026-01-10 21:34:02.09	103.38	8.08	-52.6	-55.1	14.1	0.00e+00	0	23	0	883949568	71	4778
2026-01-10 21:34:03.09	103.52	8.04	-52.6	-55.0	14.1	0.00e+00	0	23	0	886046720	71	4735
2026-01-10 21:34:04.09	103.66	8.00	-52.5	-54.9	14.1	0.00e+00	0	23	0	888143872	71	4689
2026-01-10 21:34:05.08	103.80	7.96	-52.6	-55.1	14.0	0.00e+00	0	23	0	890241024	71	4794
2026-01-10 21:34:06.08	103.95	7.91	-52.6	-55.0	14.1	0.00e+00	0	23	0	892338176	71	4748
2026-01-10 21:34:07.08	104.09	7.87	-52.7	-55.3	13.9	0.00e+00	0	23	0	893386752	71	4900
2026-01-10 21:34:08.07	104.23	7.83	-52.5	-54.9	14.1	0.00e+00	0	23	0	895483904	71	4685
2026-01-10 21:34:09.07	104.37	7.79	-52.4	-54.8	14.2	0.00e+00	0	23	0	897581056	71	4636
2026-01-10 21:34:10.06	104.51	7.75	-52.3	-54.7	14.3	0.00e+00	0	23	0	899678208	71	4554
2026-01-10 21:34:11.06	104.65	7.70	-52.4	-54.7	14.3	0.00e+00	0	23	0	900726784	71	4566
2026-01-10 21:34:12.06	104.79	7.66	-52.4	-54.7	14.3	0.00e+00	0	23	0	902823936	71	4587
2026-01-10 21:34:13.06	104.93	7.62	-52.2	-54.5	14.4	0.00e+00	0	23	0	904921088	71	4480
2026-01-10 21:34:14.06	105.07	7.58	-52.1	-54.4	14.4	0.00e+00	0	23	0	907018240	70	4661
2026-01-10 21:34:15.06	105.21	7.53	-52.2	-54.6	14.2	0.00e+00	0	23	0	909115392	70	4766
2026-01-10 21:34:16.04	105.35	7.49	-52.3	-54.6	14.2	0.00e+00	0	23	0	910163968	70	4781
2026-01-10 21:34:17.04	105.49	7.45	-52.2	-54.5	14.2	0.00e+00	0	23	0	912261120	70	4756
2026-01-10 21:34:18.04	105.62	7.41	-52.2	-54.6	14.2	0.00e+00	0	23	0	914358272	70	4764
2026-01-10 21:34:19.05	105.76	7.36	-52.3	-54.7	14.1	0.00e+00	0	23	0	916455424	70	4823
2026-01-10 21:34:20.04	105.90	7.32	-52.5	-55.0	13.9	0.00e+00	0	23	0	917504000	70	4999
2026-01-10 21:34:21.03	106.03	7.28	-52.5	-54.9	14.0	0.00e+00	0	23	0	919601152	70	4977
2026-01-10 21:34:22.03	106.17	7.24	-52.2	-54.5	14.2	0.00e+00	0	23	0	921698304	70	4730
2026-01-10 21:34:23.03	106.31	7.19	-52.2	-54.5	14.2	0.00e+00	0	23	0	923795456	70	4749
2026-01-10 21:34:24.03	106.44	7.15	-52.2	-54.4	14.3	0.00e+00	0	23	0	925892608	70	4695
2026-01-10 21:34:25.03	106.58	7.11	-52.2	-54.5	14.2	0.00e+00	0	23	0	926941184	70	4739
2026-01-10 21:34:26.02	106.71	7.06	-52.3	-54.6	14.2	0.00e+00	0	23	0	929038336	70	4799
2026-01-10 21:34:27.02	106.85	7.02	-52.0	-54.2	14.4	0.00e+00	0	23	0	931135488	70	4589
2026-01-10 21:34:28.02	106.98	6.98	-51.9	-54.1	14.5	0.00e+00	0	23	0	933232640	70	4531
2026-01-10 21:34:29.01	107.11	6.93	-51.9	-54.1	14.5	0.00e+00	0	23	0	935329792	70	4532
2026-01-10 21:34:30.01	107.25	6.89	-52.0	-54.3	14.4	0.00e+00	0	23	0	936378368	70	4610
2026-01-10 21:34:31.01	107.38	6.85	-52.2	-54.5	14.3	0.00e+00	0	23	0	938475520	70	4741
2026-01-10 21:34:32.01	107.51	6.80	-52.3	-54.6	14.2	0.00e+00	0	23	0	940572672	70	4789
2026-01-10 21:34:33.01	107.64	6.76	-52.3	-54.7	14.1	0.00e+00	0	23	0	942669824	70	4819
2026-01-10 21:34:34.01	107.78	6.72	-52.3	-54.7	14.1	0.00e+00	0	23	0	944766976	70	4857
2026-01-10 21:34:35.01	107.91	6.67	-52.4	-54.8	14.1	0.00e+00	0	23	0	945815552	70	4879
2026-01-10 21:34:36.00	108.04	6.63	-52.3	-54.7	14.1	0.00e+00	0	23	0	947912704	70	4849
2026-01-10 21:34:37.00	108.17	6.59	-52.4	-54.8	14.1	0.00e+00	0	23	0	950009856	70	4925
2026-01-10 21:34:37.99	108.30	6.54	-52.5	-55.0	13.9	0.00e+00	0	23	0	952107008	70	5021
2026-01-10 21:34:38.99	108.43	6.50	-52.5	-54.9	14.0	0.00e+00	0	23	0	953155584	70	4964
2026-01-10 21:34:39.99	108.56	6.45	-52.6	-55.2	13.8	0.00e+00	0	23	0	955252736	70	5123
2026-01-10 21:34:40.99	108.69	6.41	-52.6	-55.2	13.8	0.00e+00	0	23	0	957349888	70	5132
2026-01-10 21:34:42.00	108.82	6.37	-52.4	-54.8	14.1	0.00e+00	0	23	0	959447040	70	4918
2026-01-10 21:34:43.00	108.94	6.32	-52.6	-55.1	13.9	0.00e+00	0	23	0	961544192	70	5076
2026-01-10 21:34:43.99	109.07	6.28	-52.7	-55.3	13.8	0.00e+00	0	23	0	962592768	70	5160
2026-01-10 21:34:44.98	109.20	6.23	-52.6	-55.1	13.9	0.00e+00	0	23	0	964689920	70	5084
2026-01-10 21:34:45.98	109.32	6.19	-52.6	-55.1	13.9	0.00e+00	0	23	0	966787072	70	5074
2026-01-10 21:34:46.99	109.45	6.14	-52.5	-55.0	14.0	0.00e+00	0	23	0	968884224	70	5012
2026-01-10 21:34:47.99	109.58	6.10	-52.5	-55.0	13.9	0.00e+00	0	23	0	969932800	70	5001
2026-01-10 21:34:48.98	109.70	6.06	-52.7	-55.2	13.7	0.00e+00	0	23	0	972029952	70	5153
2026-01-10 21:34:49.98	109.83	6.01	-52.6	-55.2	13.8	0.00e+00	0	23	0	974127104	70	5142
2026-01-10 21:34:50.98	109.96	5.97	-52.5	-55.0	13.9	0.00e+00	0	23	0	976224256	70	5009
2026-01-10 21:34:51.98	110.08	5.92	-52.3	-54.7	14.1	0.00e+00	0	23	0	978321408	70	4858
2026-01-10 21:34:52.98	110.21	5.88	-52.5	-55.0	14.0	0.00e+00	0	23	0	979369984	70	4987
2026-01-10 21:34:53.98	110.33	5.83	-52.4	-54.9	14.0	0.00e+00	0	23	0	981467136	70	4962
2026-01-10 21:34:54.98	110.45	5.79	-52.1	-54.4	14.3	0.00e+00	0	23	0	983564288	70	4653
2026-01-10 21:34:55.97	110.58	5.75	-52.3	-54.7	14.1	0.00e+00	0	23	0	985661440	70	4829
2026-01-10 21:34:56.98	110.70	5.70	-52.4	-54.9	14.0	0.00e+00	0	23	0	987758592	70	4950
2026-01-10 21:34:57.98	110.82	5.66	-52.5	-55.1	13.8	0.00e+00	0	23	0	988807168	70	5056
2026-01-10 21:34:58.97	110.95	5.61	-52.4	-54.9	14.0	0.00e+00	0	23	0	990904320	70	4931
2026-01-10 21:34:59.98	111.07	5.57	-52.3	-54.8	14.0	0.00e+00	0	23	0	993001472	70	4889
2026-01-10 21:35:00.97	111.19	5.52	-52.7	-55.3	13.7	0.00e+00	0	23	0	995098624	70	5196
2026-01-10 21:35:01.97	111.31	5.48	-52.7	-55.3	13.6	0.00e+00	0	23	0	996147200	70	5212
2026-01-10 21:35:02.98	111.43	5.43	-52.8	-55.5	13.6	0.00e+00	0	23	0	998244352	70	5283
2026-01-10 21:35:03.97	111.55	5.39	-52.9	-55.7	13.5	0.00e+00	0	23	0	1000341504	71	5124
2026-01-10 21:35:04.97	111.67	5.34	-52.8	-55.4	13.7	0.00e+00	0	23	0	1002438656	71	4964
2026-01-10 21:35:05.97	111.79	5.30	-52.8	-55.5	13.7	0.00e+00	0	23	0	1004535808	71	5002
2026-01-10 21:35:06.97	111.91	5.25	-52.9	-55.6	13.6	0.00e+00	0	23	0	1005584384	71	5083
2026-01-10 21:35:07.97	112.03	5.21	-52.8	-55.6	13.6	0.00e+00	0	23	0	1007681536	71	5072
2026-01-10 21:35:08.97	112.15	5.16	-52.9	-55.6	13.5	0.00e+00	0	23	0	1009778688	71	5099
2026-01-10 21:35:09.97	112.27	5.12	-52.8	-55.6	13.6	0.00e+00	0	23	0	1011875840	71	5059
2026-01-10 21:35:10.96	112.39	5.07	-52.6	-55.3	13.8	0.00e+00	0	23	0	1013972992	71	4896
2026-01-10 21:35:11.97	112.51	5.03	-52.8	-55.6	13.6	0.00e+00	0	23	0	1015021568	71	5051
2026-01-10 21:35:12.97	112.63	4.98	-57.1	-68.6	4.7	2.82e-05	0	23	0	1017118720	79	14330
2026-01-10 21:35:13.96	112.74	4.94	-57.9	-73.6	3.8	1.49e+00	0	23	104	1017118720	80	24047
2026-01-10 21:35:14.95	112.86	4.89	-58.1	-74.1	3.8	1.49e+00	0	23	104	1017118720	81	23970
2026-01-10 21:35:15.95	112.97	4.85	-58.3	-74.4	3.8	1.49e+00	0	23	104	1017118720	81	24719
2026-01-10 21:35:16.96	113.09	4.80	-58.5	-74.5	3.8	1.49e+00	0	23	104	1017118720	82	23816
2026-01-10 21:35:17.96	113.21	4.76	-58.6	-74.6	3.8	1.49e+00	0	23	104	1017118720	82	24060
2026-01-10 21:35:18.95	113.32	4.71	-58.7	-74.8	3.8	1.49e+00	0	23	104	1017118720	82	24481
2026-01-10 21:35:19.95	113.44	4.67	-58.8	-74.9	3.8	1.49e+00	0	23	104	1017118720	82	24721
2026-01-10 21:35:20.95	113.55	4.62	-58.8	-74.9	3.8	1.49e+00	0	23	104	1017118720	82	24824
2026-01-10 21:35:21.95	113.67	4.58	-58.9	-74.9	3.8	1.49e+00	0	23	104	1017118720	82	24921
2026-01-10 21:35:22.95	113.78	4.53	-59.0	-75.0	3.8	1.49e+00	0	23	104	1017118720	83	23688
2026-01-10 21:35:23.95	113.90	4.49	-59.0	-75.0	3.8	1.49e+00	0	23	104	1017118720	83	23749
2026-01-10 21:35:24.95	114.01	4.44	-59.0	-75.1	3.8	1.49e+00	0	23	104	1017118720	83	23871
2026-01-10 21:35:25.95	114.12	4.39	-59.1	-75.1	3.8	1.49e+00	0	23	104	1017118720	83	24017
2026-01-10 21:35:26.96	114.24	4.35	-59.1	-75.2	3.8	1.49e+00	0	23	104	1017118720	83	24144
2026-01-10 21:35:27.96	114.35	4.30	-59.1	-75.2	3.8	1.49e+00	0	23	104	1017118720	83	24169
2026-01-10 21:35:28.96	114.46	4.26	-59.1	-75.2	3.8	1.49e+00	0	23	104	1017118720	83	24260
2026-01-10 21:35:29.96	114.57	4.21	-59.2	-75.2	3.8	1.49e+00	0	23	104	1017118720	83	24354
2026-01-10 21:35:30.96	114.68	4.17	-59.2	-75.3	3.8	1.49e+00	0	23	104	1017118720	83	24435
2026-01-10 21:35:31.96	114.80	4.12	-59.2	-75.3	3.8	1.49e+00	0	23	104	1017118720	83	24468
2026-01-10 21:35:32.97	114.91	4.08	-59.2	-75.3	3.8	1.49e+00	0	23	104	1017118720	83	24569
2026-01-10 21:35:33.96	115.02	4.03	-59.3	-75.3	3.8	1.49e+00	0	23	104	1017118720	83	24637
2026-01-10 21:35:34.96	115.13	3.99	-59.3	-75.4	3.8	1.49e+00	0	23	104	1017118720	83	24756
2026-01-10 21:35:35.96	115.24	3.94	-59.3	-75.4	3.8	1.49e+00	0	23	104	1017118720	83	24787
2026-01-10 21:35:36.97	115.35	3.89	-59.4	-75.4	3.8	1.49e+00	0	23	104	1017118720	83	24970
2026-01-10 21:35:37.96	115.46	3.85	-59.4	-75.5	3.8	1.49e+00	0	23	104	1017118720	83	25054
2026-01-10 21:35:38.96	115.56	3.80	-59.4	-75.5	3.8	1.49e+00	0	23	104	1017118720	83	25101
2026-01-10 21:35:39.96	115.67	3.76	-59.6	-75.7	3.8	1.49e+00	0	23	104	1017118720	84	24284
2026-01-10 21:35:40.95	115.78	3.71	-59.7	-75.7	3.8	1.49e+00	0	23	104	1017118720	84	24312
2026-01-10 21:35:41.95	115.89	3.67	-59.7	-75.7	3.8	1.49e+00	0	23	104	1017118720	84	24325
2026-01-10 21:35:42.95	116.00	3.62	-59.7	-75.7	3.8	1.49e+00	0	23	104	1017118720	84	24307
2026-01-10 21:35:43.95	116.10	3.58	-59.6	-75.7	3.8	1.49e+00	0	23	104	1017118720	84	24256
2026-01-10 21:35:44.95	116.21	3.53	-59.6	-75.7	3.8	1.49e+00	0	23	104	1017118720	84	24195
2026-01-10 21:35:45.94	116.32	3.49	-59.6	-75.7	3.8	1.49e+00	0	23	104	1017118720	84	24169
2026-01-10 21:35:46.95	116.42	3.44	-59.6	-75.7	3.8	1.49e+00	0	23	104	1017118720	84	24210
2026-01-10 21:35:47.95	116.53	3.39	-59.6	-75.7	3.8	1.49e+00	0	23	104	1017118720	84	24144
2026-01-10 21:35:48.96	116.64	3.35	-59.6	-75.6	3.8	1.49e+00	0	23	104	1017118720	84	24102
2026-01-10 21:35:49.95	116.74	3.30	-59.6	-75.6	3.8	1.49e+00	0	23	104	1017118720	84	24046
2026-01-10 21:35:50.95	116.85	3.26	-59.6	-75.6	3.8	1.49e+00	0	23	104	1017118720	84	24042
2026-01-10 21:35:51.95	116.95	3.21	-59.5	-75.6	3.8	1.49e+00	0	23	104	1017118720	84	24002
2026-01-10 21:35:52.95	117.06	3.17	-59.5	-75.6	3.8	1.49e+00	0	23	104	1017118720	84	23947
2026-01-10 21:35:53.95	117.16	3.12	-59.5	-75.6	3.8	1.49e+00	0	23	104	1017118720	84	24015
2026-01-10 21:35:54.95	117.26	3.08	-59.5	-75.6	3.8	1.49e+00	0	23	104	1017118720	84	23944
2026-01-10 21:35:55.95	117.37	3.03	-59.5	-75.6	3.8	1.49e+00	0	23	104	1017118720	84	23907
2026-01-10 21:35:56.95	117.47	2.98	-59.5	-75.6	3.8	1.49e+00	0	23	104	1017118720	84	23914
2026-01-10 21:35:57.95	117.57	2.94	-59.5	-75.6	3.8	1.49e+00	0	23	104	1017118720	84	23910
2026-01-10 21:35:58.95	117.68	2.89	-59.5	-75.6	3.8	1.49e+00	0	23	104	1017118720	84	23883
2026-01-10 21:35:59.95	117.78	2.85	-59.5	-75.5	3.8	1.49e+00	0	23	104	1017118720	84	23820
2026-01-10 21:36:00.94	117.88	2.80	-59.5	-75.5	3.8	1.49e+00	0	23	104	1017118720	84	23815
2026-01-10 21:36:01.94	117.98	2.76	-59.5	-75.5	3.8	1.49e+00	0	23	104	1017118720	84	23854
2026-01-10 21:36:02.95	118.08	2.71	-59.5	-75.5	3.8	1.49e+00	0	23	104	1017118720	84	23847
2026-01-10 21:36:03.95	118.19	2.67	-59.5	-75.5	3.8	1.49e+00	0	23	104	1017118720	84	23813
2026-01-10 21:36:04.95	118.29	2.62	-59.5	-75.5	3.8	1.49e+00	0	24	104	1017118720	84	23792
2026-01-10 21:36:05.94	118.39	2.58	-59.5	-75.5	3.8	1.49e+00	0	23	104	1017118720	84	23727
2026-01-10 21:36:06.94	118.49	2.53	-59.5	-75.5	3.8	1.49e+00	0	23	104	1017118720	84	23780
2026-01-10 21:36:07.94	118.59	2.48	-59.5	-75.5	3.8	1.49e+00	0	23	104	1017118720	84	23849
2026-01-10 21:36:08.93	118.68	2.44	-59.5	-75.5	3.8	1.49e+00	0	23	104	1017118720	84	23773
2026-01-10 21:36:09.93	118.78	2.39	-59.5	-75.5	3.8	1.49e+00	0	23	104	1017118720	84	23781
2026-01-10 21:36:10.93	118.88	2.35	-59.5	-75.5	3.8	1.49e+00	0	24	104	1017118720	84	23846
2026-01-10 21:36:11.93	118.98	2.30	-59.5	-75.5	3.8	1.49e+00	0	23	104	1017118720	84	23781
2026-01-10 21:36:12.93	119.08	2.26	-59.5	-75.5	3.8	1.49e+00	0	23	104	1017118720	84	23742
2026-01-10 21:36:13.92	119.18	2.21	-59.5	-75.5	3.8	1.49e+00	0	23	104	1017118720	84	23759
2026-01-10 21:36:14.91	119.28	2.17	-59.5	-75.5	3.8	1.49e+00	0	23	104	1017118720	84	23725
2026-01-10 21:36:15.91	119.37	2.12	-59.4	-75.5	3.8	1.49e+00	0	23	104	1017118720	84	23709
2026-01-10 21:36:16.90	119.47	2.08	-59.4	-75.5	3.8	1.49e+00	0	23	104	1017118720	84	23697
2026-01-10 21:36:17.90	119.57	2.03	-59.4	-75.5	3.8	1.49e+00	0	23	104	1017118720	84	23763
2026-01-10 21:36:18.90	119.66	1.99	-59.4	-75.5	3.8	1.49e+00	0	23	104	1017118720	84	23699
2026-01-10 21:36:19.89	119.76	1.94	-59.4	-75.5	3.8	1.49e+00	0	23	104	1017118720	84	23714
2026-01-10 21:36:20.90	119.86	1.90	-59.4	-75.5	3.8	1.49e+00	0	23	104	1017118720	84	23675

#Closed at: 2026-01-10 21:36:21
#Recorded file [1017 MB]: D:/lorett/data/31004_260111_002518.dat