passes_logs/2026/01/10/R3.2S_Murmansk/R3.2S_Murmansk__20260110_010506_SUOMI_NPP_rec.log

#Pass ID: 20260110_010506_SUOMI NPP
#Satellite: SUOMI NPP
#Configuration: NPP
#almurnet v.1.7.20251203
#Start time: 2026-01-10 01:05:07

#Version: 2.2.20231116
#Station: R3.2S_Murmansk
#Location: 33.079688 lon 68.888172 lat
#TLE: 1 37849U 11061A   26008.83076692  .00000095  00000+0  66074-4 0  9997
#TLE: 2 37849  98.7806 310.9327 0002533  74.3004 285.8451 14.19523607735834

#Time	Az	El	Level	Level2	SNR	BER	BlckErr	Temp	State	Recorded	gain1	gain2
2026-01-10 01:05:07.78	25.84	2.09	-57.0	-73.0	3.8	1.49e+00	0	21	0	0	80	22466
2026-01-10 01:05:08.78	25.84	2.15	-57.0	-73.0	3.8	1.49e+00	0	21	104	0	79	23738
2026-01-10 01:05:09.78	25.83	2.21	-57.0	-73.0	3.8	1.49e+00	0	21	104	0	79	23767
2026-01-10 01:05:10.77	25.83	2.28	-57.0	-73.0	3.8	1.49e+00	0	21	104	0	79	23732
2026-01-10 01:05:11.77	25.82	2.34	-57.0	-73.0	3.8	1.49e+00	0	21	104	0	79	23685
2026-01-10 01:05:12.77	25.82	2.41	-57.0	-73.0	3.8	1.49e+00	0	21	104	0	79	23713
2026-01-10 01:05:13.77	25.81	2.47	-57.0	-73.0	3.8	1.49e+00	0	21	104	0	79	23746
2026-01-10 01:05:14.77	25.81	2.54	-57.0	-73.0	3.8	1.49e+00	0	21	104	0	79	23700
2026-01-10 01:05:15.77	25.80	2.60	-57.0	-73.0	3.8	1.49e+00	0	21	104	0	79	23685
2026-01-10 01:05:16.77	25.80	2.67	-57.0	-73.0	3.8	1.49e+00	0	21	104	0	79	23632
2026-01-10 01:05:17.77	25.79	2.73	-57.0	-73.0	3.8	1.49e+00	0	22	104	0	79	23593
2026-01-10 01:05:18.77	25.79	2.80	-57.0	-73.0	3.8	1.49e+00	0	21	104	0	79	23635
2026-01-10 01:05:19.77	25.78	2.86	-57.0	-72.9	3.8	1.49e+00	0	21	104	0	79	23565
2026-01-10 01:05:20.76	25.78	2.93	-57.0	-73.0	3.8	1.49e+00	0	22	104	0	79	23595
2026-01-10 01:05:21.75	25.77	2.99	-57.0	-73.0	3.8	1.49e+00	0	22	104	0	79	23707
2026-01-10 01:05:22.75	25.77	3.06	-57.0	-73.0	3.8	1.49e+00	0	22	104	0	79	23734
2026-01-10 01:05:23.76	25.76	3.13	-57.0	-73.0	3.8	1.49e+00	0	22	104	0	79	23663
2026-01-10 01:05:24.76	25.76	3.19	-57.0	-73.0	3.8	1.49e+00	0	22	104	0	79	23683
2026-01-10 01:05:25.75	25.75	3.26	-57.0	-73.0	3.8	1.49e+00	0	22	104	0	79	23663
2026-01-10 01:05:26.76	25.75	3.33	-57.0	-73.0	3.8	1.49e+00	0	22	104	0	79	23643
2026-01-10 01:05:27.76	25.74	3.39	-57.0	-73.0	3.8	1.49e+00	0	22	104	0	79	23646
2026-01-10 01:05:28.76	25.74	3.46	-57.0	-72.9	3.8	1.49e+00	0	22	104	0	79	23570
2026-01-10 01:05:29.76	25.73	3.53	-57.0	-73.0	3.8	1.49e+00	0	22	104	0	79	23585
2026-01-10 01:05:30.77	25.72	3.60	-57.0	-72.9	3.8	1.49e+00	0	22	104	0	79	23500
2026-01-10 01:05:31.76	25.72	3.66	-57.0	-72.7	3.8	1.49e+00	0	22	104	0	79	22959
2026-01-10 01:05:32.76	25.71	3.73	-57.0	-72.3	3.8	1.49e+00	0	22	104	0	79	21759
2026-01-10 01:05:33.76	25.71	3.80	-57.0	-71.3	3.8	1.49e+00	0	22	104	0	79	19587
2026-01-10 01:05:34.76	25.70	3.87	-56.9	-69.7	4.1	1.49e+00	0	22	104	0	79	16272
2026-01-10 01:05:35.76	25.69	3.94	-56.8	-68.3	4.6	1.32e+00	0	22	0	0	79	13815
2026-01-10 01:05:36.76	25.69	4.00	-56.6	-66.7	5.3	6.67e-01	0	22	0	2097152	79	11478
2026-01-10 01:05:37.77	25.68	4.07	-56.5	-65.8	5.9	3.87e-01	0	22	0	4194304	79	10365
2026-01-10 01:05:38.76	25.68	4.14	-56.4	-65.1	6.4	2.63e-01	0	22	0	6291456	79	9590
2026-01-10 01:05:39.76	25.67	4.21	-56.4	-64.9	6.6	1.61e-01	0	22	0	7340032	79	9304
2026-01-10 01:05:40.76	25.66	4.28	-56.2	-64.1	7.3	9.17e-02	0	22	0	9437184	79	8551
2026-01-10 01:05:41.75	25.66	4.35	-56.1	-63.9	7.4	8.66e-02	0	22	0	11534336	78	8780
2026-01-10 01:05:42.76	25.65	4.42	-56.1	-64.0	7.3	9.57e-02	0	22	0	13631488	78	8964
2026-01-10 01:05:43.75	25.65	4.49	-56.0	-63.6	7.7	7.17e-02	0	22	0	15728640	78	8503
2026-01-10 01:05:44.75	25.64	4.56	-56.0	-63.4	7.9	6.81e-02	0	22	0	16777216	78	8307
2026-01-10 01:05:45.74	25.63	4.63	-56.0	-63.4	7.9	4.43e-02	0	22	0	18874368	78	8305
2026-01-10 01:05:46.73	25.63	4.70	-56.1	-63.8	7.5	5.71e-02	0	22	0	20971520	78	8675
2026-01-10 01:05:47.73	25.62	4.77	-56.2	-64.1	7.2	9.96e-02	0	22	0	23068672	78	9044
2026-01-10 01:05:48.73	25.61	4.84	-56.2	-64.6	6.8	1.21e-01	0	22	0	24117248	78	9512
2026-01-10 01:05:49.73	25.61	4.91	-56.2	-64.6	6.8	1.60e-01	0	22	0	26214400	78	9500
2026-01-10 01:05:50.73	25.60	4.98	-56.3	-65.1	6.3	2.03e-01	0	22	0	28311552	78	10140
2026-01-10 01:05:51.73	25.59	5.05	-56.4	-65.6	6.0	2.44e-01	0	22	0	30408704	78	10694
2026-01-10 01:05:52.72	25.59	5.12	-56.8	-68.8	4.4	3.68e-01	21	22	0	32505856	78	15428
2026-01-10 01:05:53.73	25.58	5.19	-56.4	-64.6	6.8	1.31e+00	0	22	0	32505856	79	9031
2026-01-10 01:05:54.71	25.57	5.26	-56.7	-67.2	5.2	2.17e-01	0	22	0	34603008	79	12120
2026-01-10 01:05:55.71	25.57	5.34	-55.4	-60.8	10.2	5.45e-01	0	22	0	36700160	77	6529
2026-01-10 01:05:56.71	25.56	5.41	-56.7	-68.0	4.8	2.40e-04	0	22	0	38797312	78	14097
2026-01-10 01:05:57.71	25.55	5.48	-55.2	-60.2	10.7	1.40e+00	0	22	0	39845888	77	6129
2026-01-10 01:05:58.71	25.54	5.55	-54.5	-58.8	11.9	1.90e-05	0	23	0	41943040	75	5844
2026-01-10 01:05:59.70	25.54	5.62	-54.6	-59.0	11.7	2.44e-05	0	22	0	42991616	75	5961
2026-01-10 01:06:00.71	25.53	5.70	-54.6	-59.0	11.7	2.13e-05	0	22	0	45088768	75	5986
2026-01-10 01:06:01.70	25.52	5.77	-54.4	-58.6	12.1	1.83e-05	0	22	0	47185920	75	5668
2026-01-10 01:06:02.70	25.52	5.84	-54.4	-58.7	12.0	6.10e-06	0	22	0	49283072	75	5765
2026-01-10 01:06:03.69	25.51	5.92	-54.2	-58.2	12.3	3.00e-06	0	22	0	51380224	74	5744
2026-01-10 01:06:04.69	25.50	5.99	-54.2	-58.3	12.2	1.50e-06	0	23	0	52428800	74	5820
2026-01-10 01:06:05.70	25.49	6.06	-54.1	-58.0	12.4	2.20e-06	0	23	0	54525952	74	5644
2026-01-10 01:06:06.70	25.49	6.14	-53.8	-57.5	12.9	0.00e+00	0	22	0	56623104	74	5302
2026-01-10 01:06:07.69	25.48	6.21	-54.0	-57.8	12.6	2.20e-06	0	22	0	58720256	74	5503
2026-01-10 01:06:08.70	25.47	6.29	-53.9	-57.8	12.7	7.00e-07	0	23	0	59768832	74	5469
2026-01-10 01:06:09.70	25.46	6.36	-53.8	-57.5	12.8	7.00e-07	0	23	0	61865984	74	5324
2026-01-10 01:06:10.70	25.45	6.44	-53.9	-57.7	12.8	7.00e-07	0	23	0	63963136	74	5418
2026-01-10 01:06:11.70	25.45	6.51	-53.9	-57.7	12.7	7.00e-07	0	23	0	66060288	74	5425
2026-01-10 01:06:12.69	25.44	6.59	-54.0	-57.8	12.7	7.00e-07	0	23	0	68157440	74	5465
2026-01-10 01:06:13.69	25.43	6.66	-53.9	-57.6	12.9	1.50e-06	0	23	0	69206016	74	5363
2026-01-10 01:06:14.69	25.42	6.74	-53.8	-57.5	12.9	7.00e-07	0	23	0	71303168	74	5304
2026-01-10 01:06:15.69	25.41	6.82	-53.8	-57.5	12.9	0.00e+00	0	23	0	73400320	74	5290
2026-01-10 01:06:16.69	25.41	6.89	-53.8	-57.4	13.0	0.00e+00	0	23	0	75497472	74	5236
2026-01-10 01:06:17.69	25.40	6.97	-53.8	-57.5	12.9	0.00e+00	0	23	0	77594624	74	5317
2026-01-10 01:06:18.70	25.39	7.05	-53.8	-57.4	13.0	0.00e+00	0	23	0	78643200	74	5270
2026-01-10 01:06:19.69	25.38	7.12	-53.8	-57.4	13.0	7.00e-07	0	23	0	80740352	74	5243
2026-01-10 01:06:20.69	25.37	7.20	-53.8	-57.5	12.9	0.00e+00	0	23	0	82837504	74	5301
2026-01-10 01:06:21.68	25.36	7.28	-53.7	-57.3	13.0	0.00e+00	0	23	0	84934656	73	5476
2026-01-10 01:06:22.68	25.36	7.35	-53.8	-57.4	12.9	7.00e-07	0	23	0	85983232	73	5536
2026-01-10 01:06:23.67	25.35	7.43	-53.6	-57.1	13.1	0.00e+00	0	23	0	88080384	73	5369
2026-01-10 01:06:24.67	25.34	7.51	-53.6	-57.1	13.1	0.00e+00	0	23	0	90177536	73	5378
2026-01-10 01:06:25.67	25.33	7.59	-53.5	-57.0	13.2	0.00e+00	0	23	0	92274688	73	5303
2026-01-10 01:06:26.66	25.32	7.66	-53.5	-56.9	13.2	0.00e+00	0	23	0	94371840	73	5263
2026-01-10 01:06:27.66	25.31	7.74	-53.5	-57.0	13.2	0.00e+00	0	23	0	95420416	73	5280
2026-01-10 01:06:28.66	25.30	7.82	-53.5	-56.8	13.3	0.00e+00	0	23	0	97517568	73	5210
2026-01-10 01:06:29.66	25.29	7.90	-53.5	-56.8	13.3	0.00e+00	0	23	0	99614720	73	5214
2026-01-10 01:06:30.66	25.28	7.98	-53.6	-57.0	13.2	0.00e+00	0	23	0	101711872	73	5318
2026-01-10 01:06:31.66	25.27	8.06	-53.5	-56.8	13.3	0.00e+00	0	23	0	102760448	73	5202
2026-01-10 01:06:32.66	25.27	8.14	-53.4	-56.8	13.4	0.00e+00	0	23	0	104857600	73	5161
2026-01-10 01:06:33.66	25.26	8.22	-53.5	-56.8	13.3	0.00e+00	0	23	0	106954752	73	5198
2026-01-10 01:06:34.65	25.25	8.30	-53.3	-56.6	13.5	0.00e+00	0	23	0	109051904	73	5049
2026-01-10 01:06:35.65	25.24	8.38	-53.4	-56.7	13.4	0.00e+00	0	23	0	111149056	73	5146
2026-01-10 01:06:36.63	25.23	8.46	-53.4	-56.7	13.4	0.00e+00	0	23	0	112197632	73	5134
2026-01-10 01:06:37.63	25.22	8.54	-53.4	-56.7	13.5	0.00e+00	0	23	0	114294784	73	5125
2026-01-10 01:06:38.63	25.21	8.63	-53.4	-56.7	13.4	0.00e+00	0	23	0	116391936	73	5146
2026-01-10 01:06:39.63	25.20	8.71	-53.4	-56.7	13.4	0.00e+00	0	23	0	118489088	73	5138
2026-01-10 01:06:40.63	25.19	8.79	-53.3	-56.5	13.6	0.00e+00	0	23	0	120586240	73	5035
2026-01-10 01:06:41.63	25.18	8.87	-53.4	-56.6	13.5	0.00e+00	0	23	0	121634816	73	5100
2026-01-10 01:06:42.62	25.17	8.95	-53.3	-56.5	13.6	0.00e+00	0	23	0	123731968	73	5024
2026-01-10 01:06:43.63	25.16	9.04	-53.2	-56.4	13.7	0.00e+00	0	23	0	125829120	73	4928
2026-01-10 01:06:44.62	25.15	9.12	-53.3	-56.5	13.6	0.00e+00	0	23	0	127926272	73	5028
2026-01-10 01:06:45.62	25.14	9.20	-53.2	-56.4	13.7	0.00e+00	0	23	0	128974848	73	4937
2026-01-10 01:06:46.62	25.13	9.29	-53.1	-56.2	13.7	0.00e+00	0	23	0	131072000	72	5108
2026-01-10 01:06:47.62	25.12	9.37	-53.2	-56.3	13.6	0.00e+00	0	23	0	133169152	72	5209
2026-01-10 01:06:48.61	25.11	9.46	-53.1	-56.1	13.7	0.00e+00	0	23	0	135266304	72	5059
2026-01-10 01:06:49.61	25.09	9.54	-53.1	-56.1	13.6	0.00e+00	0	23	0	137363456	72	5091
2026-01-10 01:06:50.61	25.08	9.63	-53.1	-56.1	13.7	0.00e+00	0	23	0	138412032	72	5065
2026-01-10 01:06:51.60	25.07	9.71	-53.1	-56.0	13.7	0.00e+00	0	23	0	140509184	72	5017
2026-01-10 01:06:52.60	25.06	9.80	-53.1	-56.1	13.7	0.00e+00	0	23	0	142606336	72	5085
2026-01-10 01:06:53.60	25.05	9.88	-53.2	-56.2	13.6	0.00e+00	0	23	0	144703488	72	5120
2026-01-10 01:06:54.60	25.04	9.97	-53.0	-55.9	13.7	0.00e+00	0	23	0	146800640	72	4981
2026-01-10 01:06:55.59	25.03	10.05	-53.0	-55.9	13.8	0.00e+00	0	23	0	147849216	72	4969
2026-01-10 01:06:56.59	25.02	10.14	-52.9	-55.8	13.9	0.00e+00	0	23	0	149946368	72	4892
2026-01-10 01:06:57.58	25.01	10.23	-53.0	-55.9	13.9	0.00e+00	0	23	0	152043520	72	4932
2026-01-10 01:06:58.57	24.99	10.31	-52.9	-55.8	13.9	0.00e+00	0	23	0	154140672	72	4897
2026-01-10 01:06:59.56	24.98	10.40	-52.9	-55.8	13.9	0.00e+00	0	23	0	155189248	72	4874
2026-01-10 01:07:00.56	24.97	10.49	-52.8	-55.6	14.0	0.00e+00	0	23	0	157286400	72	4814
2026-01-10 01:07:01.55	24.96	10.57	-52.9	-55.7	13.9	0.00e+00	0	23	0	159383552	72	4857
2026-01-10 01:07:02.55	24.95	10.66	-52.9	-55.7	14.0	0.00e+00	0	23	0	161480704	72	4845
2026-01-10 01:07:03.55	24.94	10.75	-52.9	-55.7	13.9	0.00e+00	0	23	0	163577856	72	4869
2026-01-10 01:07:04.54	24.92	10.84	-52.9	-55.7	13.9	0.00e+00	0	23	0	164626432	72	4863
2026-01-10 01:07:05.53	24.91	10.93	-52.9	-55.7	14.0	0.00e+00	0	23	0	166723584	72	4834
2026-01-10 01:07:06.52	24.90	11.02	-52.8	-55.6	14.1	0.00e+00	0	23	0	168820736	72	4762
2026-01-10 01:07:07.51	24.89	11.11	-52.7	-55.5	14.0	0.00e+00	0	23	0	170917888	71	4985
2026-01-10 01:07:08.52	24.87	11.20	-52.7	-55.4	14.0	0.00e+00	0	23	0	171966464	71	4941
2026-01-10 01:07:09.51	24.86	11.29	-52.6	-55.2	14.2	0.00e+00	0	23	0	174063616	71	4832
2026-01-10 01:07:10.51	24.85	11.38	-52.7	-55.4	14.0	0.00e+00	0	23	0	176160768	71	4934
2026-01-10 01:07:11.51	24.84	11.47	-52.6	-55.3	14.1	0.00e+00	0	23	0	178257920	71	4875
2026-01-10 01:07:12.51	24.82	11.56	-52.5	-55.1	14.2	0.00e+00	0	23	0	180355072	71	4784
2026-01-10 01:07:13.51	24.81	11.66	-52.5	-55.1	14.2	0.00e+00	0	23	0	181403648	71	4776
2026-01-10 01:07:14.51	24.80	11.75	-52.4	-54.9	14.3	0.00e+00	0	23	0	183500800	71	4701
2026-01-10 01:07:15.50	24.78	11.84	-52.4	-54.9	14.3	0.00e+00	0	23	0	185597952	71	4690
2026-01-10 01:07:16.50	24.77	11.93	-52.4	-55.0	14.3	0.00e+00	0	23	0	187695104	71	4706
2026-01-10 01:07:17.49	24.76	12.03	-52.3	-54.7	14.4	0.00e+00	0	23	0	188743680	71	4588
2026-01-10 01:07:18.49	24.74	12.12	-52.3	-54.7	14.4	0.00e+00	0	23	0	190840832	71	4581
2026-01-10 01:07:19.49	24.73	12.22	-52.4	-54.9	14.4	0.00e+00	0	23	0	192937984	71	4653
2026-01-10 01:07:20.50	24.72	12.31	-52.2	-54.7	14.5	0.00e+00	0	23	0	195035136	71	4565
2026-01-10 01:07:21.50	24.70	12.41	-52.2	-54.6	14.4	0.00e+00	0	23	0	197132288	70	4789
2026-01-10 01:07:22.50	24.69	12.50	-52.1	-54.4	14.4	0.00e+00	0	23	0	198180864	70	4704
2026-01-10 01:07:23.50	24.67	12.60	-52.2	-54.6	14.3	0.00e+00	0	23	0	200278016	70	4783
2026-01-10 01:07:24.50	24.66	12.69	-52.1	-54.5	14.4	0.00e+00	0	23	0	202375168	70	4727
2026-01-10 01:07:25.50	24.64	12.79	-52.1	-54.5	14.4	0.00e+00	0	23	0	204472320	70	4720
2026-01-10 01:07:26.50	24.63	12.89	-52.1	-54.5	14.4	0.00e+00	0	23	0	206569472	70	4722
2026-01-10 01:07:27.49	24.62	12.98	-52.1	-54.5	14.4	0.00e+00	0	23	0	207618048	70	4727
2026-01-10 01:07:28.50	24.60	13.08	-52.1	-54.5	14.5	0.00e+00	0	23	0	209715200	70	4710
2026-01-10 01:07:29.50	24.59	13.18	-52.1	-54.5	14.5	0.00e+00	0	23	0	211812352	70	4721
2026-01-10 01:07:30.50	24.57	13.28	-52.0	-54.4	14.5	0.00e+00	0	23	0	213909504	70	4676
2026-01-10 01:07:31.49	24.56	13.38	-52.0	-54.4	14.5	0.00e+00	0	23	0	216006656	70	4688
2026-01-10 01:07:32.49	24.54	13.48	-52.0	-54.3	14.6	0.00e+00	0	23	0	217055232	70	4633
2026-01-10 01:07:33.48	24.53	13.58	-51.9	-54.2	14.6	0.00e+00	0	23	0	219152384	70	4561
2026-01-10 01:07:34.48	24.51	13.68	-52.0	-54.3	14.5	0.00e+00	0	23	0	221249536	70	4646
2026-01-10 01:07:35.47	24.49	13.77	-52.0	-54.3	14.5	0.00e+00	0	23	0	223346688	70	4649
2026-01-10 01:07:36.47	24.48	13.88	-52.0	-54.4	14.5	0.00e+00	0	23	0	224395264	70	4681
2026-01-10 01:07:37.47	24.46	13.98	-52.0	-54.3	14.6	0.00e+00	0	23	0	226492416	70	4646
2026-01-10 01:07:38.48	24.45	14.08	-51.8	-54.2	14.7	0.00e+00	0	23	0	228589568	70	4549
2026-01-10 01:07:39.48	24.43	14.18	-51.9	-54.3	14.6	0.00e+00	0	23	0	230686720	70	4605
2026-01-10 01:07:40.47	24.41	14.28	-51.9	-54.2	14.6	0.00e+00	0	23	0	232783872	70	4570
2026-01-10 01:07:41.47	24.40	14.39	-51.9	-54.2	14.7	0.00e+00	0	23	0	233832448	70	4560
2026-01-10 01:07:42.47	24.38	14.49	-51.8	-54.1	14.7	0.00e+00	0	23	0	235929600	70	4536
2026-01-10 01:07:43.47	24.36	14.59	-51.9	-54.2	14.6	0.00e+00	0	23	0	238026752	70	4581
2026-01-10 01:07:44.47	24.35	14.70	-51.8	-54.1	14.7	0.00e+00	0	23	0	240123904	70	4516
2026-01-10 01:07:45.47	24.33	14.80	-51.7	-53.9	14.6	0.00e+00	0	23	0	241172480	69	4705
2026-01-10 01:07:46.45	24.31	14.91	-51.6	-53.8	14.7	0.00e+00	0	23	0	243269632	69	4637
2026-01-10 01:07:47.46	24.29	15.01	-51.5	-53.7	14.7	0.00e+00	0	23	0	245366784	69	4572
2026-01-10 01:07:48.46	24.28	15.12	-51.5	-53.7	14.7	0.00e+00	0	23	0	247463936	69	4576
2026-01-10 01:07:49.46	24.26	15.23	-51.4	-53.5	14.8	0.00e+00	0	23	0	249561088	69	4475
2026-01-10 01:07:50.45	24.24	15.33	-51.4	-53.6	14.8	0.00e+00	0	23	0	250609664	69	4501
2026-01-10 01:07:51.44	24.22	15.44	-51.3	-53.5	14.9	0.00e+00	0	23	0	252706816	69	4445
2026-01-10 01:07:52.43	24.21	15.55	-51.3	-53.5	14.9	0.00e+00	0	23	0	254803968	69	4449
2026-01-10 01:07:53.42	24.19	15.65	-51.2	-53.3	15.0	0.00e+00	0	23	0	256901120	69	4369
2026-01-10 01:07:54.42	24.17	15.76	-51.2	-53.3	14.8	0.00e+00	0	23	0	257949696	68	4633
2026-01-10 01:07:55.42	24.15	15.87	-51.1	-53.3	14.8	0.00e+00	0	23	0	260046848	68	4612
2026-01-10 01:07:56.41	24.13	15.98	-51.1	-53.2	14.9	0.00e+00	0	23	0	262144000	68	4585
2026-01-10 01:07:57.41	24.11	16.09	-51.0	-53.1	14.9	0.00e+00	0	23	0	264241152	68	4513
2026-01-10 01:07:58.40	24.09	16.20	-51.0	-53.0	15.0	0.00e+00	0	23	0	266338304	68	4490
2026-01-10 01:07:59.40	24.07	16.31	-51.0	-53.1	14.9	0.00e+00	0	23	0	267386880	68	4539
2026-01-10 01:08:00.39	24.05	16.42	-51.0	-53.1	14.9	0.00e+00	0	23	0	269484032	68	4504
2026-01-10 01:08:01.40	24.03	16.54	-51.0	-53.0	15.0	0.00e+00	0	23	0	271581184	68	4488
2026-01-10 01:08:02.40	24.01	16.65	-51.0	-53.0	15.0	0.00e+00	0	23	0	273678336	68	4464
2026-01-10 01:08:03.40	23.99	16.76	-51.0	-53.0	15.0	0.00e+00	0	23	0	275775488	68	4469
2026-01-10 01:08:04.39	23.97	16.88	-50.9	-53.0	15.0	0.00e+00	0	23	0	276824064	68	4457
2026-01-10 01:08:05.40	23.95	16.99	-50.9	-53.0	15.0	0.00e+00	0	23	0	278921216	68	4443
2026-01-10 01:08:06.40	23.93	17.11	-51.0	-53.0	15.0	0.00e+00	0	23	0	281018368	68	4448
2026-01-10 01:08:07.40	23.91	17.22	-51.0	-53.1	14.9	0.00e+00	0	23	0	283115520	68	4508
2026-01-10 01:08:08.39	23.89	17.34	-51.0	-53.1	15.0	0.00e+00	0	23	0	285212672	68	4498
2026-01-10 01:08:09.40	23.87	17.46	-51.0	-53.0	15.0	0.00e+00	0	23	0	286261248	68	4477
2026-01-10 01:08:10.40	23.85	17.57	-51.0	-53.0	15.0	0.00e+00	0	23	0	288358400	68	4466
2026-01-10 01:08:11.40	23.83	17.69	-51.0	-53.0	15.0	0.00e+00	0	23	0	290455552	68	4455
2026-01-10 01:08:12.39	23.81	17.81	-51.0	-52.9	15.1	0.00e+00	0	23	0	292552704	68	4439
2026-01-10 01:08:13.39	23.78	17.93	-50.8	-52.8	15.1	0.00e+00	0	23	0	293601280	68	4350
2026-01-10 01:08:14.39	23.76	18.05	-50.9	-52.8	15.1	0.00e+00	0	23	0	295698432	68	4387
2026-01-10 01:08:15.39	23.74	18.17	-51.0	-52.9	15.0	0.00e+00	0	23	0	297795584	68	4433
2026-01-10 01:08:16.39	23.72	18.29	-50.9	-52.8	15.1	0.00e+00	0	23	0	299892736	68	4369
2026-01-10 01:08:17.39	23.69	18.41	-50.8	-52.7	15.1	0.00e+00	0	23	0	301989888	68	4328
2026-01-10 01:08:18.39	23.67	18.53	-50.7	-52.6	15.2	0.00e+00	0	23	0	303038464	68	4273
2026-01-10 01:08:19.39	23.65	18.66	-50.8	-52.7	15.2	0.00e+00	0	23	0	305135616	68	4294
2026-01-10 01:08:20.40	23.62	18.78	-50.8	-52.7	15.2	0.00e+00	0	23	0	307232768	68	4320
2026-01-10 01:08:21.40	23.60	18.90	-50.8	-52.7	15.2	0.00e+00	0	23	0	309329920	68	4326
2026-01-10 01:08:22.40	23.58	19.03	-50.8	-52.7	15.1	0.00e+00	0	23	0	311427072	68	4319
2026-01-10 01:08:23.40	23.55	19.15	-50.9	-52.9	15.1	0.00e+00	0	23	0	312475648	68	4404
2026-01-10 01:08:24.39	23.53	19.28	-50.6	-52.6	15.0	0.00e+00	0	23	0	314572800	67	4521
2026-01-10 01:08:25.39	23.50	19.40	-50.7	-52.6	15.0	0.00e+00	0	23	0	316669952	67	4539
2026-01-10 01:08:26.39	23.48	19.53	-50.7	-52.7	15.0	0.00e+00	0	23	0	318767104	67	4567
2026-01-10 01:08:27.39	23.45	19.66	-50.8	-52.8	14.9	0.00e+00	0	23	0	319815680	67	4616
2026-01-10 01:08:28.39	23.43	19.79	-50.8	-52.9	14.9	0.00e+00	0	23	0	321912832	67	4665
2026-01-10 01:08:29.39	23.40	19.92	-50.8	-52.8	14.9	0.00e+00	0	23	0	324009984	67	4641
2026-01-10 01:08:30.38	23.37	20.04	-50.8	-52.8	14.9	0.00e+00	0	23	0	326107136	67	4631
2026-01-10 01:08:31.37	23.35	20.17	-50.9	-53.0	14.8	0.00e+00	0	23	0	328204288	67	4709
2026-01-10 01:08:32.36	23.32	20.30	-51.0	-53.2	14.7	0.00e+00	0	23	0	329252864	67	4816
2026-01-10 01:08:33.36	23.30	20.43	-50.9	-53.0	14.8	0.00e+00	0	23	0	331350016	67	4754
2026-01-10 01:08:34.36	23.27	20.57	-51.1	-53.2	14.7	0.00e+00	0	23	0	333447168	67	4844
2026-01-10 01:08:35.36	23.24	20.70	-51.1	-53.3	14.6	0.00e+00	0	23	0	335544320	67	4889
2026-01-10 01:08:36.37	23.21	20.83	-51.1	-53.3	14.6	0.00e+00	0	23	0	336592896	67	4875
2026-01-10 01:08:37.36	23.19	20.97	-50.9	-53.0	14.8	0.00e+00	0	23	0	338690048	67	4754
2026-01-10 01:08:38.36	23.16	21.10	-51.1	-53.2	14.7	0.00e+00	0	23	0	340787200	67	4863
2026-01-10 01:08:39.36	23.13	21.24	-51.0	-53.2	14.7	0.00e+00	0	23	0	342884352	67	4820
2026-01-10 01:08:40.36	23.10	21.37	-51.0	-53.2	14.7	0.00e+00	0	23	0	344981504	67	4822
2026-01-10 01:08:41.35	23.07	21.51	-51.0	-53.1	14.7	0.00e+00	0	23	0	346030080	67	4794
2026-01-10 01:08:42.35	23.04	21.65	-51.0	-53.1	14.7	0.00e+00	0	23	0	348127232	67	4800
2026-01-10 01:08:43.35	23.01	21.79	-51.0	-53.1	14.8	0.00e+00	0	23	0	350224384	67	4767
2026-01-10 01:08:44.35	22.98	21.93	-51.0	-53.1	14.7	0.00e+00	0	23	0	352321536	67	4805
2026-01-10 01:08:45.34	22.95	22.07	-51.0	-53.1	14.7	0.00e+00	0	23	0	354418688	67	4788
2026-01-10 01:08:46.36	22.92	22.21	-51.1	-53.3	14.6	0.00e+00	0	23	0	355467264	67	4875
2026-01-10 01:08:47.36	22.89	22.35	-51.1	-53.2	14.7	0.00e+00	0	23	0	357564416	67	4835
2026-01-10 01:08:48.36	22.86	22.49	-51.1	-53.2	14.7	0.00e+00	0	23	0	359661568	67	4834
2026-01-10 01:08:49.35	22.83	22.64	-51.1	-53.2	14.7	0.00e+00	0	23	0	361758720	67	4823
2026-01-10 01:08:50.34	22.80	22.78	-50.9	-52.9	14.8	0.00e+00	0	23	0	363855872	67	4705
2026-01-10 01:08:51.33	22.77	22.92	-50.8	-52.8	14.9	0.00e+00	0	23	0	364904448	67	4648
2026-01-10 01:08:52.33	22.74	23.07	-50.7	-52.7	14.9	0.00e+00	0	23	0	367001600	67	4559
2026-01-10 01:08:53.33	22.70	23.21	-50.5	-52.4	15.1	0.00e+00	0	23	0	369098752	67	4433
2026-01-10 01:08:54.33	22.67	23.36	-50.6	-52.5	15.0	0.00e+00	0	23	0	371195904	67	4458
2026-01-10 01:08:55.33	22.64	23.51	-50.6	-52.6	15.0	0.00e+00	0	23	0	372244480	67	4501
2026-01-10 01:08:56.33	22.60	23.66	-50.4	-52.3	15.1	0.00e+00	0	23	0	374341632	67	4356
2026-01-10 01:08:57.33	22.57	23.81	-50.4	-52.3	15.1	0.00e+00	0	23	0	376438784	67	4358
2026-01-10 01:08:58.32	22.53	23.96	-50.4	-52.3	15.2	0.00e+00	0	23	0	378535936	67	4341
2026-01-10 01:08:59.32	22.50	24.11	-50.4	-52.2	15.2	0.00e+00	0	23	0	380633088	67	4338
2026-01-10 01:09:00.31	22.46	24.26	-50.4	-52.3	15.1	0.00e+00	0	23	0	381681664	67	4359
2026-01-10 01:09:01.31	22.43	24.41	-50.3	-52.1	15.2	0.00e+00	0	23	0	383778816	67	4290
2026-01-10 01:09:02.30	22.39	24.57	-50.6	-52.5	15.0	0.00e+00	0	23	0	385875968	67	4456
2026-01-10 01:09:03.29	22.36	24.72	-50.8	-52.7	14.9	0.00e+00	0	23	0	387973120	67	4598
2026-01-10 01:09:04.28	22.32	24.87	-50.8	-52.7	14.9	0.00e+00	0	23	0	389021696	67	4591
2026-01-10 01:09:05.28	22.28	25.03	-50.8	-52.7	14.9	0.00e+00	0	23	0	391118848	67	4597
2026-01-10 01:09:06.28	22.25	25.19	-50.8	-52.7	15.0	0.00e+00	0	23	0	393216000	67	4571
2026-01-10 01:09:07.28	22.21	25.35	-50.8	-52.7	14.9	0.00e+00	0	24	0	395313152	67	4559
2026-01-10 01:09:08.27	22.17	25.51	-50.7	-52.5	15.0	0.00e+00	0	23	0	397410304	67	4492
2026-01-10 01:09:09.27	22.13	25.67	-50.5	-52.3	15.2	0.00e+00	0	23	0	398458880	67	4351
2026-01-10 01:09:10.27	22.09	25.83	-50.5	-52.3	15.1	0.00e+00	0	23	0	400556032	67	4389
2026-01-10 01:09:11.27	22.05	25.99	-50.7	-52.5	15.0	0.00e+00	0	23	0	402653184	67	4472
2026-01-10 01:09:12.27	22.01	26.16	-50.6	-52.4	15.1	0.00e+00	0	23	0	404750336	67	4403
2026-01-10 01:09:13.27	21.97	26.32	-50.6	-52.4	15.1	0.00e+00	0	23	0	405798912	67	4430
2026-01-10 01:09:14.27	21.93	26.49	-50.5	-52.3	15.2	0.00e+00	0	24	0	407896064	67	4389
2026-01-10 01:09:15.27	21.89	26.65	-50.8	-52.7	15.0	0.00e+00	0	23	0	409993216	67	4546
2026-01-10 01:09:16.27	21.85	26.82	-50.9	-52.8	14.9	0.00e+00	0	23	0	412090368	67	4601
2026-01-10 01:09:17.26	21.80	26.99	-50.9	-52.7	14.9	0.00e+00	0	23	0	414187520	67	4577
2026-01-10 01:09:18.27	21.76	27.16	-51.3	-53.3	14.7	0.00e+00	0	23	0	415236096	67	4872
2026-01-10 01:09:19.26	21.72	27.33	-51.6	-53.6	14.7	0.00e+00	0	23	0	417333248	68	4779
2026-01-10 01:09:20.26	21.67	27.50	-51.7	-53.7	14.6	0.00e+00	0	23	0	419430400	68	4865
2026-01-10 01:09:21.26	21.63	27.67	-51.9	-54.0	14.7	0.00e+00	0	23	0	421527552	69	4718
2026-01-10 01:09:22.27	21.58	27.85	-51.7	-53.7	14.8	0.00e+00	0	23	0	423624704	69	4582
2026-01-10 01:09:23.27	21.54	28.02	-51.8	-53.8	14.7	0.00e+00	0	23	0	424673280	69	4642
2026-01-10 01:09:24.28	21.49	28.20	-51.9	-54.0	14.6	0.00e+00	0	23	0	426770432	69	4728
2026-01-10 01:09:25.27	21.44	28.38	-51.7	-53.8	14.8	0.00e+00	0	23	0	428867584	69	4621
2026-01-10 01:09:26.27	21.40	28.55	-51.7	-53.8	14.8	0.00e+00	0	23	0	430964736	69	4625
2026-01-10 01:09:27.27	21.35	28.73	-51.9	-53.9	14.7	0.00e+00	0	23	0	432013312	69	4701
2026-01-10 01:09:28.27	21.30	28.91	-51.9	-54.0	14.6	0.00e+00	0	23	0	434110464	69	4732
2026-01-10 01:09:29.26	21.25	29.09	-52.1	-54.3	14.5	0.00e+00	0	23	0	436207616	69	4922
2026-01-10 01:09:30.26	21.20	29.28	-52.1	-54.2	14.5	0.00e+00	0	23	0	438304768	69	4860
2026-01-10 01:09:31.25	21.15	29.46	-52.6	-55.0	14.3	0.00e+00	0	23	0	440401920	70	5003
2026-01-10 01:09:32.25	21.10	29.64	-52.8	-55.2	14.1	0.00e+00	0	23	0	441450496	70	5152
2026-01-10 01:09:33.25	21.05	29.83	-53.0	-55.5	14.1	0.00e+00	0	23	0	443547648	71	4999
2026-01-10 01:09:34.25	21.00	30.02	-53.1	-55.7	14.0	0.00e+00	0	23	0	445644800	71	5112
2026-01-10 01:09:35.24	20.94	30.21	-53.1	-55.7	14.0	0.00e+00	0	23	0	447741952	71	5120
2026-01-10 01:09:36.24	20.89	30.40	-53.2	-55.7	14.0	0.00e+00	0	23	0	449839104	71	5143
2026-01-10 01:09:37.23	20.84	30.59	-53.1	-55.6	14.0	0.00e+00	0	23	0	450887680	71	5061
2026-01-10 01:09:38.24	20.78	30.78	-52.8	-55.2	14.3	0.00e+00	0	23	0	452984832	71	4820
2026-01-10 01:09:39.24	20.73	30.97	-52.9	-55.3	14.2	0.00e+00	0	23	0	455081984	71	4913
2026-01-10 01:09:40.24	20.67	31.17	-52.9	-55.4	14.2	0.00e+00	0	23	0	457179136	71	4956
2026-01-10 01:09:41.24	20.61	31.36	-53.1	-55.7	14.0	0.00e+00	0	23	0	459276288	71	5101
2026-01-10 01:09:42.24	20.55	31.56	-53.2	-55.9	13.9	0.00e+00	0	23	0	460324864	71	5233
2026-01-10 01:09:43.25	20.50	31.76	-53.4	-56.1	13.9	0.00e+00	0	23	0	462422016	72	5069
2026-01-10 01:09:44.25	20.44	31.96	-53.3	-56.0	14.0	0.00e+00	0	23	0	464519168	72	5027
2026-01-10 01:09:45.25	20.38	32.17	-53.4	-56.2	13.9	0.00e+00	0	23	0	466616320	72	5117
2026-01-10 01:09:46.25	20.32	32.37	-53.6	-56.5	13.8	0.00e+00	0	23	0	467664896	73	5015
2026-01-10 01:09:47.25	20.25	32.57	-53.7	-56.7	13.6	0.00e+00	0	23	0	469762048	73	5103
2026-01-10 01:09:48.24	20.19	32.78	-53.5	-56.3	14.0	0.00e+00	0	23	0	471859200	73	4884
2026-01-10 01:09:49.24	20.13	32.98	-53.7	-56.5	13.7	0.00e+00	0	23	0	473956352	73	5038
2026-01-10 01:09:50.25	20.06	33.19	-53.7	-56.5	13.8	0.00e+00	0	23	0	476053504	73	5034
2026-01-10 01:09:51.25	20.00	33.40	-53.8	-56.6	13.7	0.00e+00	0	23	0	477102080	73	5082
2026-01-10 01:09:52.25	19.93	33.61	-53.7	-56.5	13.8	0.00e+00	0	23	0	479199232	73	5016
2026-01-10 01:09:53.25	19.86	33.83	-53.8	-56.7	13.7	0.00e+00	0	23	0	481296384	73	5108
2026-01-10 01:09:54.26	19.80	34.04	-54.1	-57.2	13.3	0.00e+00	0	23	0	483393536	73	5442
2026-01-10 01:09:55.26	19.73	34.26	-54.4	-57.7	12.9	0.00e+00	0	23	0	485490688	73	5775
2026-01-10 01:09:56.25	19.66	34.47	-54.1	-57.4	13.2	0.00e+00	0	23	0	486539264	73	5531
2026-01-10 01:09:57.25	19.59	34.69	-53.9	-57.0	13.5	0.00e+00	0	23	0	488636416	73	5310
2026-01-10 01:09:58.25	19.51	34.91	-53.4	-56.2	14.0	0.00e+00	0	23	0	490733568	73	4839
2026-01-10 01:09:59.25	19.44	35.13	-52.9	-55.4	14.4	0.00e+00	0	23	0	492830720	72	4658
2026-01-10 01:10:00.25	19.37	35.36	-52.3	-54.6	14.7	0.00e+00	0	23	0	494927872	71	4517
2026-01-10 01:10:01.25	19.29	35.58	-52.3	-54.5	14.8	0.00e+00	0	23	0	495976448	71	4450
2026-01-10 01:10:02.25	19.22	35.81	-52.0	-54.2	14.8	0.00e+00	0	23	0	498073600	70	4551
2026-01-10 01:10:03.24	19.14	36.03	-51.8	-53.8	14.9	0.00e+00	0	23	0	500170752	70	4381
2026-01-10 01:10:04.24	19.06	36.26	-51.8	-53.9	14.7	0.00e+00	0	23	0	502267904	69	4668
2026-01-10 01:10:05.23	18.98	36.49	-52.2	-54.5	14.4	0.00e+00	0	23	0	503316480	69	5000
2026-01-10 01:10:06.23	18.90	36.72	-51.9	-54.1	14.6	0.00e+00	0	23	0	505413632	69	4774
2026-01-10 01:10:07.22	18.82	36.95	-51.8	-53.9	14.7	0.00e+00	0	23	0	507510784	69	4675
2026-01-10 01:10:08.22	18.74	37.19	-51.7	-53.7	14.8	0.00e+00	0	23	0	509607936	69	4598
2026-01-10 01:10:09.23	18.65	37.43	-51.5	-53.5	15.0	0.00e+00	0	23	0	511705088	69	4463
2026-01-10 01:10:10.22	18.57	37.66	-51.2	-53.2	15.0	0.00e+00	0	23	0	512753664	68	4577
2026-01-10 01:10:11.22	18.48	37.90	-51.2	-53.1	15.0	0.00e+00	0	23	0	514850816	68	4538
2026-01-10 01:10:12.22	18.39	38.15	-51.1	-53.1	15.1	0.00e+00	0	23	0	516947968	68	4500
2026-01-10 01:10:13.22	18.30	38.39	-51.7	-53.8	14.6	0.00e+00	0	23	0	519045120	68	4911
2026-01-10 01:10:14.21	18.21	38.63	-51.5	-53.6	14.7	0.00e+00	0	23	0	520093696	68	4804
2026-01-10 01:10:15.21	18.12	38.88	-51.8	-54.1	14.5	0.00e+00	0	23	0	522190848	68	5079
2026-01-10 01:10:16.21	18.02	39.13	-52.2	-54.7	14.3	0.00e+00	0	23	0	524288000	69	5106
2026-01-10 01:10:17.21	17.93	39.38	-52.3	-54.8	14.2	0.00e+00	0	23	0	526385152	69	5203
2026-01-10 01:10:18.21	17.83	39.63	-52.4	-54.9	14.3	0.00e+00	0	23	0	528482304	70	4968
2026-01-10 01:10:19.22	17.73	39.89	-53.0	-55.9	14.0	0.00e+00	0	23	0	529530880	71	5251
2026-01-10 01:10:20.22	17.63	40.14	-53.3	-56.4	13.7	0.00e+00	0	23	0	531628032	71	5551
2026-01-10 01:10:21.22	17.53	40.40	-52.9	-55.8	14.0	0.00e+00	0	23	0	533725184	71	5180
2026-01-10 01:10:22.22	17.43	40.66	-53.3	-56.4	13.6	0.00e+00	0	23	0	535822336	71	5539
2026-01-10 01:10:23.22	17.32	40.92	-53.5	-56.6	13.7	0.00e+00	0	23	0	537919488	72	5351
2026-01-10 01:10:24.22	17.21	41.18	-53.4	-56.5	13.7	0.00e+00	0	23	0	538968064	72	5328
2026-01-10 01:10:25.23	17.10	41.45	-53.1	-55.9	14.0	0.00e+00	0	23	0	541065216	72	4980
2026-01-10 01:10:26.23	16.99	41.72	-53.0	-55.9	14.1	0.00e+00	0	23	0	543162368	72	4959
2026-01-10 01:10:27.23	16.88	41.98	-53.2	-56.3	13.7	0.00e+00	0	23	0	545259520	71	5506
2026-01-10 01:10:28.23	16.76	42.25	-53.4	-56.6	13.5	0.00e+00	0	23	0	546308096	71	5722
2026-01-10 01:10:29.22	16.65	42.52	-53.4	-56.8	13.4	0.00e+00	0	23	0	548405248	72	5506
2026-01-10 01:10:30.22	16.53	42.80	-53.9	-57.8	12.9	0.00e+00	0	23	0	550502400	73	5844
2026-01-10 01:10:31.22	16.41	43.07	-54.1	-58.3	12.5	0.00e+00	0	23	0	552599552	73	6201
2026-01-10 01:10:32.21	16.29	43.35	-54.3	-58.7	12.3	0.00e+00	0	23	0	554696704	73	6445
2026-01-10 01:10:33.21	16.16	43.63	-53.9	-57.9	12.8	7.00e-07	0	23	0	555745280	73	5916
2026-01-10 01:10:34.21	16.03	43.91	-54.0	-58.1	12.7	0.00e+00	0	23	0	557842432	73	5994
2026-01-10 01:10:35.21	15.90	44.19	-53.8	-57.7	12.9	0.00e+00	0	23	0	559939584	73	5757
2026-01-10 01:10:36.21	15.77	44.47	-53.5	-57.3	13.2	0.00e+00	0	23	0	562036736	73	5476
2026-01-10 01:10:37.21	15.63	44.76	-53.2	-56.6	13.7	0.00e+00	0	23	0	564133888	73	5078
2026-01-10 01:10:38.21	15.50	45.05	-53.0	-56.1	13.8	0.00e+00	0	23	0	565182464	72	5076
2026-01-10 01:10:39.22	15.35	45.34	-52.3	-55.0	14.5	0.00e+00	0	23	0	567279616	71	4711
2026-01-10 01:10:40.21	15.21	45.63	-51.7	-53.9	15.0	0.00e+00	0	23	0	569376768	70	4402
2026-01-10 01:10:41.21	15.07	45.93	-51.6	-53.7	14.9	0.00e+00	0	23	0	571473920	69	4565
2026-01-10 01:10:42.20	14.92	46.22	-51.7	-53.8	14.8	0.00e+00	0	23	0	573571072	69	4636
2026-01-10 01:10:43.20	14.77	46.52	-52.2	-54.5	14.5	0.00e+00	0	23	0	574619648	69	5004
2026-01-10 01:10:44.20	14.62	46.82	-52.9	-55.6	14.1	0.00e+00	0	23	0	576716800	71	5052
2026-01-10 01:10:45.19	14.46	47.12	-53.8	-57.1	13.4	0.00e+00	0	23	0	578813952	72	5661
2026-01-10 01:10:46.19	14.30	47.42	-53.2	-56.1	14.0	0.00e+00	0	23	0	580911104	72	5053
2026-01-10 01:10:47.19	14.14	47.73	-52.9	-55.6	14.2	0.00e+00	0	23	0	581959680	72	4789
2026-01-10 01:10:48.20	13.97	48.04	-52.5	-55.0	14.4	0.00e+00	0	23	0	584056832	71	4720
2026-01-10 01:10:49.19	13.80	48.35	-52.4	-54.9	14.5	0.00e+00	0	23	0	586153984	71	4658
2026-01-10 01:10:50.19	13.62	48.66	-52.4	-54.9	14.5	0.00e+00	0	23	0	588251136	71	4680
2026-01-10 01:10:51.19	13.45	48.97	-52.5	-55.0	14.5	0.00e+00	0	23	0	590348288	71	4722
2026-01-10 01:10:52.19	13.26	49.29	-52.0	-54.3	14.7	0.00e+00	0	23	0	591396864	70	4617
2026-01-10 01:10:53.18	13.08	49.60	-51.3	-53.4	15.0	0.00e+00	0	23	0	593494016	69	4404
2026-01-10 01:10:54.18	12.89	49.92	-51.4	-53.6	14.9	0.00e+00	0	23	0	595591168	69	4502
2026-01-10 01:10:55.18	12.70	50.24	-50.8	-52.8	15.1	0.00e+00	0	23	0	597688320	68	4381
2026-01-10 01:10:56.18	12.50	50.57	-50.4	-52.3	15.0	0.00e+00	0	23	0	598736896	66	4616
2026-01-10 01:10:57.18	12.30	50.89	-50.4	-52.4	15.0	0.00e+00	0	23	0	600834048	66	4660
2026-01-10 01:10:58.18	12.09	51.22	-50.7	-52.8	14.8	0.00e+00	0	23	0	602931200	66	4887
2026-01-10 01:10:59.16	11.89	51.54	-50.5	-52.5	14.9	0.00e+00	0	23	0	605028352	66	4734
2026-01-10 01:11:00.16	11.67	51.87	-50.3	-52.3	15.0	0.00e+00	0	23	0	607125504	66	4614
2026-01-10 01:11:01.15	11.45	52.20	-50.7	-52.8	14.8	0.00e+00	0	23	0	608174080	66	4920
2026-01-10 01:11:02.16	11.22	52.54	-51.0	-53.2	14.7	0.00e+00	0	23	0	610271232	67	4844
2026-01-10 01:11:03.15	10.99	52.87	-51.8	-54.3	14.4	0.00e+00	0	23	0	612368384	68	5175
2026-01-10 01:11:04.15	10.76	53.21	-52.3	-55.0	14.3	0.00e+00	0	23	0	614465536	70	5028
2026-01-10 01:11:05.16	10.51	53.56	-52.1	-54.7	14.5	0.00e+00	0	23	0	616562688	70	4852
2026-01-10 01:11:06.16	10.26	53.90	-51.4	-53.5	14.9	0.00e+00	0	23	0	617611264	69	4478
2026-01-10 01:11:07.15	10.01	54.24	-50.7	-52.6	15.3	0.00e+00	0	23	0	619708416	68	4283
2026-01-10 01:11:08.15	9.75	54.58	-50.8	-52.8	15.0	0.00e+00	0	23	0	621805568	67	4614
2026-01-10 01:11:09.15	9.48	54.93	-51.0	-53.1	14.8	0.00e+00	0	23	0	623902720	67	4783
2026-01-10 01:11:10.15	9.21	55.28	-51.1	-53.4	14.6	0.00e+00	0	23	0	624951296	67	4957
2026-01-10 01:11:11.14	8.93	55.62	-50.7	-52.9	14.9	0.00e+00	0	23	0	627048448	67	4670
2026-01-10 01:11:12.14	8.64	55.98	-50.4	-52.4	15.2	0.00e+00	0	23	0	629145600	67	4395
2026-01-10 01:11:13.14	8.35	56.33	-49.9	-51.8	15.4	0.00e+00	0	23	0	631242752	66	4343
2026-01-10 01:11:14.14	8.05	56.68	-50.4	-52.2	15.1	0.00e+00	0	23	0	633339904	66	4593
2026-01-10 01:11:15.14	7.74	57.04	-51.0	-53.1	14.9	0.00e+00	0	23	0	634388480	67	4784
2026-01-10 01:11:16.15	7.41	57.40	-51.1	-53.1	14.9	0.00e+00	0	23	0	636485632	67	4788
2026-01-10 01:11:17.14	7.09	57.76	-51.0	-53.1	14.9	0.00e+00	0	23	0	638582784	67	4761
2026-01-10 01:11:18.15	6.75	58.12	-51.4	-53.4	14.8	0.00e+00	0	23	0	640679936	68	4704
2026-01-10 01:11:19.15	6.40	58.48	-52.1	-54.4	14.5	0.00e+00	0	23	0	642777088	69	4975
2026-01-10 01:11:20.15	6.05	58.84	-52.1	-54.5	14.5	0.00e+00	0	23	0	643825664	69	5015
2026-01-10 01:11:21.16	5.68	59.21	-51.9	-54.1	14.7	0.00e+00	0	23	0	645922816	69	4810
2026-01-10 01:11:22.15	5.30	59.57	-51.8	-54.0	14.7	0.00e+00	0	23	0	648019968	69	4711
2026-01-10 01:11:23.15	4.92	59.94	-51.7	-53.9	14.8	0.00e+00	0	23	0	650117120	69	4678
2026-01-10 01:11:24.16	4.51	60.31	-51.7	-53.9	14.8	0.00e+00	0	23	0	652214272	69	4702
2026-01-10 01:11:25.16	4.10	60.68	-51.3	-53.4	15.1	0.00e+00	0	23	0	653262848	69	4399
2026-01-10 01:11:26.16	3.68	61.05	-50.8	-52.7	15.2	0.00e+00	0	23	0	655360000	68	4322
2026-01-10 01:11:27.16	3.24	61.41	-50.7	-52.5	15.1	0.00e+00	0	23	0	657457152	67	4484
2026-01-10 01:11:28.16	2.80	61.78	-50.7	-52.6	15.1	0.00e+00	0	23	0	659554304	67	4530
2026-01-10 01:11:29.17	2.33	62.16	-50.8	-52.8	15.0	0.00e+00	0	23	0	660602880	67	4610
2026-01-10 01:11:30.17	1.85	62.53	-50.7	-52.6	15.2	0.00e+00	0	23	0	662700032	67	4502
2026-01-10 01:11:31.17	1.36	62.90	-50.4	-52.2	15.3	0.00e+00	0	23	0	664797184	67	4319
2026-01-10 01:11:32.17	0.85	63.27	-50.5	-52.3	15.3	0.00e+00	0	23	0	666894336	67	4371
2026-01-10 01:11:33.18	0.32	63.64	-50.6	-52.5	15.2	0.00e+00	0	23	0	668991488	67	4454
2026-01-10 01:11:34.18	359.78	64.01	-50.5	-52.4	15.3	0.00e+00	0	23	0	671088640	67	4397
2026-01-10 01:11:35.18	359.22	64.38	-50.7	-52.5	15.1	0.00e+00	0	23	0	672137216	67	4482
2026-01-10 01:11:36.18	358.65	64.75	-50.7	-52.5	15.1	0.00e+00	0	23	0	674234368	67	4478
2026-01-10 01:11:37.18	358.05	65.12	-50.5	-52.2	15.3	0.00e+00	0	23	0	676331520	67	4333
2026-01-10 01:11:38.17	357.44	65.49	-50.8	-52.6	15.2	0.00e+00	0	23	0	678428672	67	4506
2026-01-10 01:11:39.17	356.80	65.86	-51.1	-53.1	14.9	0.00e+00	0	23	0	679477248	67	4784
2026-01-10 01:11:40.17	356.14	66.22	-51.9	-54.1	14.7	0.00e+00	0	23	0	681574400	69	4809
2026-01-10 01:11:41.18	355.45	66.59	-52.3	-54.7	14.4	0.00e+00	0	23	0	683671552	69	5141
2026-01-10 01:11:42.17	354.76	66.95	-51.8	-53.8	14.8	0.00e+00	0	23	0	685768704	69	4644
2026-01-10 01:11:43.18	354.02	67.32	-51.7	-53.6	15.0	0.00e+00	0	23	0	687865856	69	4522
2026-01-10 01:11:44.18	353.26	67.68	-51.7	-53.7	14.9	0.00e+00	0	23	0	688914432	69	4558
2026-01-10 01:11:45.18	352.48	68.04	-51.7	-53.6	15.0	0.00e+00	0	23	0	691011584	69	4538
2026-01-10 01:11:46.18	351.66	68.39	-52.4	-54.6	14.5	0.00e+00	0	23	0	693108736	70	4793
2026-01-10 01:11:47.17	350.83	68.74	-53.3	-55.9	14.0	0.00e+00	0	23	0	695205888	71	5242
2026-01-10 01:11:48.17	349.96	69.09	-54.3	-57.6	13.3	0.00e+00	0	23	0	696254464	73	5662
2026-01-10 01:11:49.17	349.05	69.44	-55.0	-58.9	12.6	0.00e+00	0	23	0	698351616	75	5911
2026-01-10 01:11:50.17	348.12	69.78	-54.8	-58.4	12.9	0.00e+00	0	23	0	700448768	75	5578
2026-01-10 01:11:51.18	347.13	70.12	-54.9	-58.5	13.1	0.00e+00	0	23	0	702545920	75	5634
2026-01-10 01:11:52.18	346.13	70.45	-54.0	-56.8	13.9	0.00e+00	0	23	0	704643072	74	4925
2026-01-10 01:11:53.18	345.08	70.78	-53.5	-56.1	14.2	0.00e+00	0	23	0	705691648	73	4801
2026-01-10 01:11:54.18	344.00	71.11	-52.8	-55.3	14.5	0.00e+00	0	23	0	707788800	72	4599
2026-01-10 01:11:55.19	342.86	71.43	-52.8	-55.2	14.5	0.00e+00	0	23	0	709885952	72	4573
2026-01-10 01:11:56.19	341.69	71.74	-53.1	-55.6	14.3	0.00e+00	0	23	0	711983104	72	4800
2026-01-10 01:11:57.18	340.50	72.04	-53.5	-56.2	14.0	0.00e+00	0	23	0	714080256	72	5115
2026-01-10 01:11:58.18	339.25	72.34	-53.3	-55.8	14.2	0.00e+00	0	23	0	715128832	72	4913
2026-01-10 01:11:59.18	337.95	72.63	-52.3	-54.3	14.8	0.00e+00	0	23	0	717225984	71	4391
2026-01-10 01:12:00.17	336.62	72.91	-51.4	-53.2	15.2	0.00e+00	0	23	0	719323136	69	4313
2026-01-10 01:12:01.18	335.21	73.19	-51.4	-53.2	15.0	0.00e+00	0	23	0	721420288	68	4582
2026-01-10 01:12:02.17	333.79	73.45	-51.1	-52.9	15.1	0.00e+00	0	23	0	722468864	68	4407
2026-01-10 01:12:03.16	332.32	73.70	-51.4	-53.2	15.0	0.00e+00	0	23	0	724566016	68	4558
2026-01-10 01:12:04.16	330.79	73.95	-51.6	-53.5	14.8	0.00e+00	0	23	0	726663168	68	4746
2026-01-10 01:12:05.15	329.22	74.18	-51.4	-53.2	15.0	0.00e+00	0	23	0	728760320	68	4564
2026-01-10 01:12:06.15	327.59	74.40	-51.4	-53.1	15.1	0.00e+00	0	23	0	730857472	68	4544
2026-01-10 01:12:07.15	325.91	74.61	-52.3	-54.4	14.6	0.00e+00	0	23	0	731906048	69	4973
2026-01-10 01:12:08.15	324.18	74.81	-51.9	-53.9	15.0	0.00e+00	0	23	0	734003200	70	4409
2026-01-10 01:12:09.15	322.41	75.00	-51.4	-53.1	15.3	0.00e+00	0	23	0	736100352	69	4272
2026-01-10 01:12:10.15	320.60	75.17	-52.6	-54.7	14.6	0.00e+00	0	23	0	738197504	70	4831
2026-01-10 01:12:11.16	318.72	75.32	-53.4	-55.8	14.3	0.00e+00	0	23	0	740294656	72	4889
2026-01-10 01:12:12.15	316.84	75.46	-53.8	-56.5	14.0	0.00e+00	0	23	0	741343232	73	4991
2026-01-10 01:12:13.16	314.89	75.59	-54.6	-57.7	13.4	0.00e+00	0	23	0	743440384	74	5416
2026-01-10 01:12:14.15	312.94	75.70	-54.9	-58.2	13.1	0.00e+00	0	23	0	745537536	75	5441
2026-01-10 01:12:15.15	310.94	75.79	-55.2	-58.9	12.7	0.00e+00	0	23	0	747634688	75	5860
2026-01-10 01:12:16.15	308.92	75.87	-56.0	-60.8	11.4	3.00e-06	0	23	0	749731840	77	6502
2026-01-10 01:12:17.14	306.90	75.93	-54.5	-57.8	13.4	6.10e-06	0	23	0	750780416	75	5184
2026-01-10 01:12:18.15	304.82	75.97	-53.1	-55.4	14.4	0.00e+00	0	23	0	752877568	72	4691
2026-01-10 01:12:19.15	302.76	75.99	-51.8	-53.7	15.2	0.00e+00	0	23	0	754974720	70	4321
2026-01-10 01:12:20.15	300.69	76.00	-52.4	-54.5	14.7	0.00e+00	0	23	0	757071872	70	4747
2026-01-10 01:12:21.16	298.60	75.99	-52.8	-55.1	14.3	0.00e+00	0	23	0	758120448	70	5085
2026-01-10 01:12:22.16	296.53	75.96	-53.6	-56.2	14.0	0.00e+00	0	23	0	760217600	72	5110
2026-01-10 01:12:23.16	294.48	75.91	-53.9	-56.7	13.9	0.00e+00	0	23	0	762314752	73	5151
2026-01-10 01:12:24.16	292.45	75.84	-53.7	-56.4	14.1	0.00e+00	0	23	0	764411904	73	4945
2026-01-10 01:12:25.17	290.41	75.76	-53.4	-55.9	14.3	0.00e+00	0	23	0	766509056	73	4689
2026-01-10 01:12:26.16	288.45	75.66	-52.1	-54.1	15.0	0.00e+00	0	23	0	767557632	70	4527
2026-01-10 01:12:27.15	286.51	75.55	-52.6	-54.8	14.6	0.00e+00	0	23	0	769654784	70	4874
2026-01-10 01:12:28.16	284.57	75.42	-53.6	-56.0	14.2	0.00e+00	0	23	0	771751936	72	5016
2026-01-10 01:12:29.15	282.70	75.27	-54.4	-57.2	13.6	0.00e+00	0	23	0	773849088	74	5142
2026-01-10 01:12:30.15	280.86	75.11	-54.7	-58.0	13.2	0.00e+00	0	23	0	775946240	74	5615
2026-01-10 01:12:31.14	279.07	74.94	-54.5	-57.4	13.7	0.00e+00	0	23	0	776994816	74	5271
2026-01-10 01:12:32.13	277.33	74.75	-53.3	-55.6	14.5	0.00e+00	0	23	0	779091968	73	4521
2026-01-10 01:12:33.13	275.62	74.55	-52.8	-54.9	14.6	0.00e+00	0	23	0	781189120	71	4670
2026-01-10 01:12:34.12	273.97	74.34	-52.5	-54.4	14.9	0.00e+00	0	23	0	783286272	71	4399
2026-01-10 01:12:35.12	272.36	74.11	-53.4	-55.7	14.2	0.00e+00	0	23	0	784334848	71	5115
2026-01-10 01:12:36.12	270.79	73.87	-54.7	-57.7	13.6	0.00e+00	0	23	0	786432000	74	5416
2026-01-10 01:12:37.12	269.27	73.62	-55.2	-58.6	13.1	0.00e+00	0	23	0	788529152	75	5708
2026-01-10 01:12:38.12	267.80	73.36	-54.8	-57.8	13.5	0.00e+00	0	23	0	790626304	75	5178
2026-01-10 01:12:39.12	266.38	73.09	-54.2	-56.8	14.2	0.00e+00	0	23	0	792723456	75	4613
2026-01-10 01:12:40.13	264.99	72.81	-53.8	-56.2	14.2	0.00e+00	0	23	0	793772032	73	4838
2026-01-10 01:12:41.13	263.66	72.53	-54.2	-57.0	13.7	0.00e+00	0	23	0	795869184	73	5316
2026-01-10 01:12:42.12	262.39	72.24	-55.0	-58.4	13.0	0.00e+00	0	23	0	797966336	75	5544
2026-01-10 01:12:43.13	261.14	71.93	-55.0	-58.5	13.2	0.00e+00	0	23	0	800063488	75	5608
2026-01-10 01:12:44.13	259.95	71.63	-53.6	-56.0	14.3	0.00e+00	0	23	0	802160640	73	4744
2026-01-10 01:12:45.12	258.81	71.31	-54.2	-57.1	13.6	0.00e+00	0	23	0	803209216	73	5400
2026-01-10 01:12:46.13	257.68	70.99	-54.6	-58.0	13.1	0.00e+00	0	23	0	805306368	74	5616
2026-01-10 01:12:47.12	256.62	70.67	-54.1	-56.9	13.8	0.00e+00	0	23	0	807403520	74	4947
2026-01-10 01:12:48.11	255.60	70.34	-54.1	-57.0	13.7	0.00e+00	0	23	0	809500672	73	5302
2026-01-10 01:12:49.11	254.60	70.00	-53.5	-56.0	14.3	0.00e+00	0	23	0	810549248	73	4745
2026-01-10 01:12:50.11	253.64	69.66	-52.8	-55.0	14.7	0.00e+00	0	23	0	812646400	71	4718
2026-01-10 01:12:51.11	252.71	69.32	-53.4	-55.8	14.2	0.00e+00	0	23	0	814743552	72	4886
2026-01-10 01:12:52.11	251.82	68.97	-54.5	-57.6	13.3	0.00e+00	0	23	0	816840704	74	5372
2026-01-10 01:12:53.10	250.96	68.63	-53.5	-55.9	14.3	0.00e+00	0	23	0	818937856	73	4696
2026-01-10 01:12:54.10	250.13	68.27	-52.9	-55.2	14.5	0.00e+00	0	23	0	819986432	72	4561
2026-01-10 01:12:55.10	249.33	67.91	-52.8	-55.3	14.6	0.00e+00	0	23	0	822083584	72	4613
2026-01-10 01:12:56.10	248.55	67.56	-52.4	-54.8	14.6	0.00e+00	0	23	0	824180736	71	4606
2026-01-10 01:12:57.10	247.80	67.19	-52.0	-54.2	14.9	0.00e+00	0	23	0	826277888	70	4554
2026-01-10 01:12:58.10	247.08	66.83	-52.5	-54.9	14.4	0.00e+00	0	23	0	828375040	70	4973
2026-01-10 01:12:59.10	246.38	66.47	-52.7	-55.2	14.3	0.00e+00	0	23	0	829423616	70	5108
2026-01-10 01:13:00.10	245.70	66.10	-52.5	-54.9	14.4	0.00e+00	0	23	0	831520768	70	4947
2026-01-10 01:13:01.10	245.05	65.73	-52.5	-54.8	14.5	0.00e+00	0	23	0	833617920	70	4881
2026-01-10 01:13:02.09	244.43	65.37	-52.0	-54.1	14.8	0.00e+00	0	23	0	835715072	70	4534
2026-01-10 01:13:03.09	243.82	65.00	-51.2	-53.0	15.2	0.00e+00	0	23	0	836763648	68	4464
2026-01-10 01:13:04.09	243.23	64.63	-51.1	-53.0	14.9	0.00e+00	0	23	0	838860800	67	4743
2026-01-10 01:13:05.09	242.65	64.26	-51.2	-53.2	14.7	0.00e+00	0	23	0	840957952	67	4868
2026-01-10 01:13:06.08	242.11	63.89	-50.7	-52.6	15.1	0.00e+00	0	23	0	843055104	67	4522
2026-01-10 01:13:07.08	241.57	63.52	-50.0	-51.7	15.3	0.00e+00	0	23	0	845152256	66	4312
2026-01-10 01:13:08.07	241.06	63.15	-49.9	-51.6	15.4	0.00e+00	0	23	0	846200832	66	4265
2026-01-10 01:13:09.06	240.56	62.78	-50.4	-52.2	15.1	0.00e+00	0	23	0	848297984	66	4575
2026-01-10 01:13:10.06	240.07	62.41	-51.9	-54.1	14.7	0.00e+00	0	23	0	850395136	69	4770
2026-01-10 01:13:11.05	239.60	62.05	-51.7	-53.7	14.9	0.00e+00	0	23	0	852492288	69	4580
2026-01-10 01:13:12.05	239.14	61.67	-50.5	-52.1	15.4	0.00e+00	0	23	0	853540864	67	4252
2026-01-10 01:13:13.05	238.70	61.30	-50.0	-51.5	15.4	0.00e+00	0	23	0	855638016	66	4214
2026-01-10 01:13:14.05	238.26	60.94	-50.5	-52.1	15.2	0.00e+00	0	23	0	857735168	66	4536
2026-01-10 01:13:15.04	237.85	60.57	-51.1	-53.0	14.9	0.00e+00	0	23	0	859832320	67	4721
2026-01-10 01:13:16.05	237.44	60.20	-52.6	-54.9	14.6	0.00e+00	0	23	0	861929472	70	4953
2026-01-10 01:13:17.05	237.04	59.83	-52.3	-54.5	14.7	0.00e+00	0	23	0	862978048	70	4741
2026-01-10 01:13:18.04	236.66	59.47	-52.2	-54.3	14.8	0.00e+00	0	23	0	865075200	70	4607
2026-01-10 01:13:19.05	236.28	59.10	-52.6	-54.9	14.4	0.00e+00	0	23	0	867172352	70	4951
2026-01-10 01:13:20.04	235.92	58.74	-53.2	-55.9	14.1	0.00e+00	0	23	0	869269504	72	4978
2026-01-10 01:13:21.04	235.57	58.38	-53.1	-55.6	14.3	0.00e+00	0	23	0	871366656	72	4808
2026-01-10 01:13:22.03	235.22	58.02	-52.5	-54.8	14.7	0.00e+00	0	23	0	872415232	71	4602
2026-01-10 01:13:23.03	234.89	57.66	-51.9	-54.0	14.9	0.00e+00	0	23	0	874512384	70	4473
2026-01-10 01:13:24.03	234.56	57.30	-51.8	-53.9	15.0	0.00e+00	0	23	0	876609536	70	4421
2026-01-10 01:13:25.03	234.25	56.94	-52.4	-54.8	14.5	0.00e+00	0	23	0	878706688	70	4905
2026-01-10 01:13:26.03	233.94	56.58	-52.3	-54.7	14.5	0.00e+00	0	24	0	880803840	70	4867
2026-01-10 01:13:27.04	233.63	56.22	-52.2	-54.6	14.5	0.00e+00	0	23	0	881852416	70	4795
2026-01-10 01:13:28.02	233.34	55.88	-52.5	-55.2	14.2	0.00e+00	0	23	0	883949568	70	5157
2026-01-10 01:13:29.02	233.06	55.53	-52.6	-55.4	14.1	0.00e+00	0	23	0	886046720	70	5223
2026-01-10 01:13:30.02	232.78	55.18	-52.3	-54.9	14.3	0.00e+00	0	23	0	888143872	70	4981
2026-01-10 01:13:31.03	232.50	54.82	-52.5	-55.1	14.3	0.00e+00	0	23	0	889192448	70	5071
2026-01-10 01:13:32.02	232.24	54.48	-51.3	-53.3	15.1	0.00e+00	0	23	0	891289600	69	4387
2026-01-10 01:13:33.02	231.98	54.13	-50.3	-52.1	15.1	0.00e+00	0	23	0	893386752	66	4534
2026-01-10 01:13:34.02	231.73	53.79	-50.2	-51.9	15.3	0.00e+00	0	23	0	895483904	66	4441
2026-01-10 01:13:35.03	231.48	53.44	-50.5	-52.3	15.0	0.00e+00	0	23	0	897581056	66	4629
2026-01-10 01:13:36.02	231.24	53.11	-50.4	-52.3	15.0	0.00e+00	0	23	0	898629632	66	4629
2026-01-10 01:13:37.03	231.00	52.77	-49.7	-51.4	15.4	0.00e+00	0	23	0	900726784	66	4183
2026-01-10 01:13:38.02	230.77	52.43	-49.9	-51.7	15.2	0.00e+00	0	23	0	902823936	65	4546
2026-01-10 01:13:39.02	230.55	52.10	-51.1	-53.3	14.7	0.00e+00	0	23	0	904921088	67	4877
2026-01-10 01:13:40.02	230.33	51.76	-51.3	-53.5	14.6	0.00e+00	0	23	0	905969664	67	5009
2026-01-10 01:13:41.02	230.11	51.43	-50.6	-52.5	15.1	0.00e+00	0	23	0	908066816	67	4479
2026-01-10 01:13:42.02	229.90	51.10	-51.9	-54.2	14.4	0.00e+00	0	23	0	910163968	68	5139
2026-01-10 01:13:43.02	229.70	50.78	-53.1	-55.9	14.0	0.00e+00	0	23	0	912261120	71	5252
2026-01-10 01:13:44.02	229.49	50.45	-53.7	-56.8	13.6	0.00e+00	0	23	0	914358272	72	5513
2026-01-10 01:13:45.02	229.30	50.13	-53.2	-56.0	14.1	0.00e+00	0	23	0	915406848	72	5021
2026-01-10 01:13:46.02	229.10	49.81	-53.3	-56.2	13.9	0.00e+00	0	23	0	917504000	72	5130
2026-01-10 01:13:47.02	228.92	49.49	-53.4	-56.6	13.6	0.00e+00	0	23	0	919601152	72	5365
2026-01-10 01:13:48.02	228.73	49.17	-53.6	-56.8	13.5	0.00e+00	0	23	0	921698304	72	5518
2026-01-10 01:13:49.02	228.55	48.85	-52.9	-55.6	14.3	0.00e+00	0	23	0	923795456	72	4775
2026-01-10 01:13:50.03	228.37	48.53	-53.1	-56.1	14.0	0.00e+00	0	23	0	924844032	72	5058
2026-01-10 01:13:51.03	228.20	48.22	-53.5	-56.7	13.6	0.00e+00	0	23	0	926941184	72	5450
2026-01-10 01:13:52.03	228.03	47.91	-54.0	-57.6	13.1	0.00e+00	0	23	0	929038336	73	5712
2026-01-10 01:13:53.03	227.86	47.60	-53.6	-56.8	13.6	0.00e+00	0	23	0	931135488	73	5215
2026-01-10 01:13:54.03	227.70	47.30	-53.3	-56.2	14.0	0.00e+00	0	23	0	933232640	73	4847
2026-01-10 01:13:55.03	227.54	46.99	-52.9	-55.4	14.4	0.00e+00	0	23	0	934281216	72	4701
2026-01-10 01:13:56.03	227.38	46.69	-52.8	-55.3	14.5	0.00e+00	0	23	0	936378368	72	4612
2026-01-10 01:13:57.02	227.23	46.39	-52.5	-55.0	14.5	0.00e+00	0	23	0	938475520	71	4708
2026-01-10 01:13:58.02	227.08	46.10	-52.8	-55.3	14.3	0.00e+00	0	23	0	940572672	71	4924
2026-01-10 01:13:59.02	226.93	45.80	-53.0	-55.7	14.2	0.00e+00	0	23	0	941621248	71	5115
2026-01-10 01:14:00.02	226.79	45.50	-53.1	-55.8	14.2	0.00e+00	0	23	0	943718400	71	5169
2026-01-10 01:14:01.02	226.64	45.21	-53.1	-55.8	14.2	0.00e+00	0	23	0	945815552	72	4921
2026-01-10 01:14:02.02	226.50	44.92	-52.9	-55.4	14.5	0.00e+00	0	23	0	947912704	72	4674
2026-01-10 01:14:03.02	226.37	44.63	-52.5	-54.8	14.6	0.00e+00	0	23	0	950009856	71	4636
2026-01-10 01:14:04.01	226.23	44.35	-52.0	-54.1	14.8	0.00e+00	0	23	0	951058432	70	4521
2026-01-10 01:14:05.01	226.10	44.06	-52.4	-54.8	14.5	0.00e+00	0	23	0	953155584	70	4880
2026-01-10 01:14:06.00	225.97	43.78	-53.3	-56.1	13.9	0.00e+00	0	23	0	955252736	71	5382
2026-01-10 01:14:06.99	225.85	43.50	-53.9	-57.2	13.4	0.00e+00	0	23	0	957349888	73	5439
2026-01-10 01:14:07.98	225.72	43.23	-53.4	-56.2	14.0	0.00e+00	0	23	0	959447040	73	4870
2026-01-10 01:14:08.98	225.60	42.95	-53.6	-56.4	13.9	0.00e+00	0	23	0	960495616	73	4973
2026-01-10 01:14:09.99	225.48	42.67	-53.7	-56.6	13.9	0.00e+00	0	24	0	962592768	73	5050
2026-01-10 01:14:10.98	225.36	42.40	-54.2	-57.4	13.3	0.00e+00	0	23	0	964689920	73	5554
2026-01-10 01:14:11.99	225.24	42.13	-53.3	-55.9	14.3	0.00e+00	0	23	0	966787072	73	4681
2026-01-10 01:14:12.98	225.13	41.86	-52.8	-55.3	14.5	0.00e+00	0	23	0	967835648	72	4599
2026-01-10 01:14:13.97	225.02	41.59	-52.6	-55.0	14.6	0.00e+00	0	23	0	969932800	71	4714
2026-01-10 01:14:14.97	224.91	41.33	-52.8	-55.2	14.4	0.00e+00	0	23	0	972029952	71	4857
2026-01-10 01:14:15.97	224.80	41.06	-53.8	-56.8	13.6	0.00e+00	0	23	0	974127104	72	5512
2026-01-10 01:14:16.97	224.69	40.80	-55.2	-59.4	12.2	0.00e+00	0	24	0	976224256	75	6216
2026-01-10 01:14:17.97	224.59	40.54	-56.0	-61.1	11.0	1.60e-05	0	23	0	977272832	77	6765
2026-01-10 01:14:18.97	224.48	40.28	-55.2	-59.1	12.5	2.20e-06	0	23	0	979369984	76	5661
2026-01-10 01:14:19.96	224.38	40.02	-54.3	-57.4	13.5	0.00e+00	0	23	0	981467136	75	4980
2026-01-10 01:14:20.96	224.28	39.77	-53.6	-56.5	13.9	0.00e+00	0	23	0	983564288	73	5003
2026-01-10 01:14:21.96	224.18	39.51	-53.0	-55.5	14.3	0.00e+00	0	23	0	984612864	72	4758
2026-01-10 01:14:22.95	224.09	39.26	-52.3	-54.6	14.7	0.00e+00	0	24	0	986710016	71	4501
2026-01-10 01:14:23.95	223.99	39.01	-52.5	-54.9	14.3	0.00e+00	0	23	0	988807168	70	4940
2026-01-10 01:14:24.94	223.90	38.77	-51.9	-54.0	14.9	0.00e+00	0	23	0	990904320	70	4475
2026-01-10 01:14:25.95	223.80	38.52	-51.8	-54.0	14.9	0.00e+00	0	23	0	993001472	70	4447
2026-01-10 01:14:26.95	223.71	38.27	-51.6	-53.7	14.9	0.00e+00	0	23	0	994050048	69	4577
2026-01-10 01:14:27.95	223.62	38.03	-51.6	-53.7	14.9	0.00e+00	0	23	0	996147200	69	4578
2026-01-10 01:14:28.94	223.53	37.79	-51.7	-53.8	14.8	0.00e+00	0	23	0	998244352	69	4630
2026-01-10 01:14:29.94	223.45	37.55	-52.4	-54.9	14.2	0.00e+00	0	23	0	1000341504	69	5232
2026-01-10 01:14:30.94	223.36	37.31	-53.5	-56.5	13.7	0.00e+00	0	24	0	1002438656	72	5320
2026-01-10 01:14:31.93	223.28	37.08	-53.9	-57.2	13.4	0.00e+00	0	23	0	1003487232	73	5431
2026-01-10 01:14:32.93	223.19	36.84	-53.9	-57.1	13.4	0.00e+00	0	23	0	1005584384	73	5378
2026-01-10 01:14:33.93	223.11	36.61	-53.5	-56.5	13.8	0.00e+00	0	24	0	1007681536	73	4990
2026-01-10 01:14:34.93	223.03	36.37	-53.5	-56.6	13.7	0.00e+00	0	23	0	1009778688	73	5043
2026-01-10 01:14:35.93	222.95	36.14	-53.1	-55.9	14.0	0.00e+00	0	23	0	1010827264	72	4933
2026-01-10 01:14:36.93	222.87	35.91	-53.3	-56.1	14.0	0.00e+00	0	23	0	1012924416	72	5065
2026-01-10 01:14:37.93	222.80	35.69	-53.3	-56.1	13.9	0.00e+00	0	23	0	1015021568	72	5099
2026-01-10 01:14:38.92	222.72	35.46	-53.7	-56.8	13.4	0.00e+00	0	23	0	1017118720	72	5495
2026-01-10 01:14:39.92	222.65	35.24	-53.9	-57.3	13.3	0.00e+00	0	23	0	1019215872	73	5485
2026-01-10 01:14:40.92	222.57	35.01	-54.2	-57.9	12.8	0.00e+00	0	24	0	1020264448	73	5879
2026-01-10 01:14:41.93	222.50	34.79	-54.3	-58.0	12.8	0.00e+00	0	23	0	1022361600	73	5956
2026-01-10 01:14:42.92	222.43	34.57	-54.2	-57.7	13.2	0.00e+00	0	23	0	1024458752	74	5464
2026-01-10 01:14:43.92	222.36	34.35	-54.0	-57.2	13.5	0.00e+00	0	23	0	1026555904	74	5148
2026-01-10 01:14:44.92	222.29	34.14	-53.9	-56.9	13.7	0.00e+00	0	23	0	1027604480	74	4969
2026-01-10 01:14:45.93	222.22	33.92	-53.3	-56.0	14.1	0.00e+00	0	24	0	1029701632	73	4731
2026-01-10 01:14:46.93	222.15	33.71	-52.9	-55.4	14.4	0.00e+00	0	23	0	1031798784	72	4701
2026-01-10 01:14:47.94	222.08	33.49	-52.5	-54.8	14.6	0.00e+00	0	23	0	1033895936	71	4642
2026-01-10 01:14:48.93	222.01	33.28	-52.6	-55.0	14.5	0.00e+00	0	24	0	1035993088	71	4726
2026-01-10 01:14:49.93	221.95	33.07	-52.5	-54.9	14.5	0.00e+00	0	23	0	1038090240	71	4669
2026-01-10 01:14:50.93	221.88	32.86	-52.8	-55.3	14.1	0.00e+00	0	23	0	1039138816	70	5199
2026-01-10 01:14:51.93	221.82	32.66	-53.0	-55.5	14.1	0.00e+00	0	24	0	1041235968	71	5028
2026-01-10 01:14:52.93	221.76	32.45	-52.9	-55.3	14.2	0.00e+00	0	24	0	1043333120	71	4923
2026-01-10 01:14:53.93	221.70	32.25	-53.1	-55.7	14.0	0.00e+00	0	23	0	1045430272	71	5114
2026-01-10 01:14:54.94	221.63	32.04	-53.6	-56.3	13.8	0.00e+00	0	23	0	1046478848	72	5206
2026-01-10 01:14:55.94	221.57	31.84	-54.0	-56.9	13.6	0.00e+00	0	23	0	1048576000	73	5265
2026-01-10 01:14:56.94	221.52	31.64	-54.6	-58.1	13.0	0.00e+00	0	24	0	1050673152	74	5674
2026-01-10 01:14:57.95	221.46	31.44	-55.2	-59.2	12.2	7.00e-07	0	24	0	1052770304	75	6106
2026-01-10 01:14:58.94	221.40	31.24	-55.4	-59.6	12.1	1.50e-06	0	23	0	1054867456	76	5999
2026-01-10 01:14:59.93	221.34	31.05	-55.5	-59.7	12.0	1.52e-05	0	24	0	1055916032	76	6087
2026-01-10 01:15:00.92	221.29	30.85	-55.1	-58.9	12.5	7.00e-07	0	23	0	1058013184	76	5589
2026-01-10 01:15:01.93	221.23	30.66	-54.5	-57.9	13.1	0.00e+00	0	23	0	1060110336	75	5255
2026-01-10 01:15:02.92	221.17	30.47	-54.1	-57.1	13.6	0.00e+00	0	24	0	1062207488	74	5088
2026-01-10 01:15:03.92	221.12	30.28	-53.7	-56.5	13.8	0.00e+00	0	24	0	1063256064	73	4991
2026-01-10 01:15:04.92	221.07	30.09	-53.1	-55.6	14.2	0.00e+00	0	23	0	1065353216	72	4806
2026-01-10 01:15:05.92	221.01	29.90	-53.1	-55.6	14.2	0.00e+00	0	24	0	1067450368	72	4794
2026-01-10 01:15:06.92	220.96	29.71	-53.2	-55.6	14.2	0.00e+00	0	23	0	1069547520	72	4807
2026-01-10 01:15:07.92	220.91	29.52	-53.1	-55.5	14.2	0.00e+00	0	24	0	1071644672	72	4731
2026-01-10 01:15:08.92	220.86	29.34	-53.2	-55.7	14.2	0.00e+00	0	23	0	1072693248	72	4818
2026-01-10 01:15:09.91	220.81	29.16	-53.0	-55.4	14.3	0.00e+00	0	24	0	1074790400	72	4684
2026-01-10 01:15:10.91	220.76	28.97	-53.0	-55.3	14.4	0.00e+00	0	23	0	1076887552	72	4651
2026-01-10 01:15:11.92	220.71	28.79	-52.9	-55.2	14.5	0.00e+00	0	24	0	1078984704	72	4594
2026-01-10 01:15:12.91	220.66	28.61	-52.6	-54.8	14.5	0.00e+00	0	23	0	1081081856	71	4635
2026-01-10 01:15:13.91	220.61	28.43	-52.3	-54.4	14.8	0.00e+00	0	23	0	1082130432	71	4436
2026-01-10 01:15:14.91	220.56	28.25	-52.0	-54.0	14.8	0.00e+00	0	23	0	1084227584	70	4449
2026-01-10 01:15:15.91	220.52	28.07	-51.8	-53.7	15.0	0.00e+00	0	23	0	1086324736	70	4320
2026-01-10 01:15:16.90	220.47	27.90	-51.5	-53.4	15.0	0.00e+00	0	23	0	1088421888	69	4410
2026-01-10 01:15:17.90	220.43	27.72	-51.9	-53.9	14.7	0.00e+00	0	24	0	1089470464	69	4666
2026-01-10 01:15:18.89	220.38	27.55	-51.9	-53.9	14.7	0.00e+00	0	23	0	1091567616	69	4677
2026-01-10 01:15:19.89	220.34	27.38	-52.2	-54.3	14.5	0.00e+00	0	24	0	1093664768	69	4913
2026-01-10 01:15:20.90	220.29	27.21	-52.9	-55.2	14.2	0.00e+00	0	23	0	1095761920	70	5153
2026-01-10 01:15:21.90	220.25	27.03	-53.5	-56.1	13.8	0.00e+00	0	23	0	1097859072	72	5093
2026-01-10 01:15:22.90	220.20	26.86	-53.8	-56.7	13.6	0.00e+00	0	24	0	1098907648	72	5415
2026-01-10 01:15:23.89	220.16	26.70	-54.4	-57.7	13.1	0.00e+00	0	24	0	1101004800	73	5747
2026-01-10 01:15:24.89	220.12	26.53	-54.5	-57.8	13.1	0.00e+00	0	24	0	1103101952	74	5525
2026-01-10 01:15:25.88	220.08	26.36	-54.1	-57.3	13.5	0.00e+00	0	23	0	1105199104	74	5185
2026-01-10 01:15:26.89	220.04	26.20	-53.9	-57.0	13.7	0.00e+00	0	23	0	1107296256	74	4997
2026-01-10 01:15:27.89	219.99	26.03	-53.4	-56.1	14.1	0.00e+00	0	24	0	1108344832	73	4798
2026-01-10 01:15:28.89	219.95	25.87	-53.0	-55.6	14.3	0.00e+00	0	24	0	1110441984	72	4786
2026-01-10 01:15:29.89	219.91	25.71	-52.6	-54.9	14.5	0.00e+00	0	24	0	1112539136	71	4692
2026-01-10 01:15:30.89	219.87	25.54	-52.1	-54.2	14.8	0.00e+00	0	23	0	1114636288	70	4590
2026-01-10 01:15:31.88	219.84	25.39	-52.2	-54.4	14.6	0.00e+00	0	23	0	1116733440	70	4693
2026-01-10 01:15:32.88	219.80	25.23	-52.1	-54.3	14.6	0.00e+00	0	24	0	1117782016	70	4641
2026-01-10 01:15:33.87	219.76	25.07	-52.2	-54.4	14.6	0.00e+00	0	24	0	1119879168	70	4694
2026-01-10 01:15:34.87	219.72	24.91	-52.2	-54.4	14.6	0.00e+00	0	24	0	1121976320	70	4654
2026-01-10 01:15:35.86	219.68	24.75	-52.1	-54.3	14.6	0.00e+00	0	24	0	1124073472	70	4645
2026-01-10 01:15:36.86	219.65	24.60	-52.4	-54.7	14.5	0.00e+00	0	23	0	1125122048	70	4826
2026-01-10 01:15:37.85	219.61	24.44	-52.1	-54.2	14.7	0.00e+00	0	23	0	1127219200	70	4567
2026-01-10 01:15:38.85	219.57	24.29	-52.2	-54.5	14.6	0.00e+00	0	24	0	1129316352	70	4707
2026-01-10 01:15:39.85	219.54	24.14	-52.1	-54.2	14.7	0.00e+00	0	23	0	1131413504	70	4583
2026-01-10 01:15:40.85	219.50	23.98	-52.2	-54.5	14.5	0.00e+00	0	24	0	1133510656	70	4708
2026-01-10 01:15:41.85	219.47	23.83	-52.1	-54.3	14.7	0.00e+00	0	24	0	1134559232	70	4609
2026-01-10 01:15:42.85	219.43	23.68	-52.1	-54.3	14.7	0.00e+00	0	23	0	1136656384	70	4600
2026-01-10 01:15:43.85	219.40	23.53	-52.2	-54.5	14.5	0.00e+00	0	24	0	1138753536	70	4717
2026-01-10 01:15:44.85	219.36	23.38	-52.2	-54.4	14.6	0.00e+00	0	24	0	1140850688	70	4677
2026-01-10 01:15:45.84	219.33	23.24	-52.1	-54.2	14.7	0.00e+00	0	24	0	1141899264	70	4578
2026-01-10 01:15:46.84	219.30	23.09	-51.8	-53.9	14.9	0.00e+00	0	23	0	1143996416	70	4398
2026-01-10 01:15:47.83	219.27	22.94	-52.1	-54.3	14.6	0.00e+00	0	24	0	1146093568	70	4636
2026-01-10 01:15:48.84	219.23	22.80	-51.8	-54.0	14.9	0.00e+00	0	23	0	1148190720	70	4457
2026-01-10 01:15:49.83	219.20	22.65	-51.8	-54.0	14.8	0.00e+00	0	23	0	1150287872	70	4455
2026-01-10 01:15:50.83	219.17	22.51	-52.1	-54.3	14.6	0.00e+00	0	24	0	1151336448	70	4619
2026-01-10 01:15:51.83	219.14	22.36	-51.8	-54.0	14.8	0.00e+00	0	23	0	1153433600	70	4471
2026-01-10 01:15:52.83	219.11	22.22	-51.9	-54.1	14.7	0.00e+00	0	24	0	1155530752	70	4531
2026-01-10 01:15:53.82	219.07	22.08	-52.0	-54.2	14.7	0.00e+00	0	23	0	1157627904	70	4587
2026-01-10 01:15:54.82	219.04	21.94	-51.9	-54.2	14.7	0.00e+00	0	23	0	1158676480	70	4551
2026-01-10 01:15:55.81	219.01	21.80	-52.0	-54.3	14.6	0.00e+00	0	23	0	1160773632	70	4611
2026-01-10 01:15:56.81	218.98	21.66	-52.1	-54.4	14.6	0.00e+00	0	24	0	1162870784	70	4677
2026-01-10 01:15:57.82	218.95	21.52	-52.4	-54.9	14.3	0.00e+00	0	24	0	1164967936	70	4981
2026-01-10 01:15:58.81	218.92	21.38	-52.5	-55.0	14.3	0.00e+00	0	24	0	1167065088	70	5002
2026-01-10 01:15:59.81	218.89	21.25	-52.5	-55.0	14.2	0.00e+00	0	24	0	1168113664	70	5020
2026-01-10 01:16:00.81	218.87	21.11	-52.6	-55.3	14.1	0.00e+00	0	24	0	1170210816	70	5173
2026-01-10 01:16:01.81	218.84	20.97	-52.7	-55.3	14.1	0.00e+00	0	24	0	1172307968	70	5188
2026-01-10 01:16:02.81	218.81	20.84	-53.0	-55.8	13.9	0.00e+00	0	24	0	1174405120	71	5195
2026-01-10 01:16:03.80	218.78	20.71	-53.0	-55.8	13.9	0.00e+00	0	23	0	1176502272	71	5211
2026-01-10 01:16:04.80	218.75	20.57	-53.2	-56.1	13.7	0.00e+00	0	24	0	1177550848	71	5380
2026-01-10 01:16:05.79	218.73	20.44	-53.1	-56.0	13.8	0.00e+00	0	24	0	1179648000	71	5304
2026-01-10 01:16:06.79	218.70	20.31	-53.2	-56.2	13.6	0.00e+00	0	24	0	1181745152	71	5414
2026-01-10 01:16:07.79	218.67	20.18	-53.3	-56.3	13.6	0.00e+00	0	24	0	1183842304	71	5493
2026-01-10 01:16:08.79	218.64	20.05	-53.2	-56.2	13.6	0.00e+00	0	24	0	1185939456	71	5437
2026-01-10 01:16:09.79	218.62	19.92	-53.2	-56.1	13.7	0.00e+00	0	24	0	1186988032	71	5349
2026-01-10 01:16:10.78	218.59	19.79	-53.2	-56.0	13.7	0.00e+00	0	23	0	1189085184	71	5338
2026-01-10 01:16:11.77	218.57	19.66	-53.2	-56.1	13.7	0.00e+00	0	24	0	1191182336	71	5354
2026-01-10 01:16:12.77	218.54	19.53	-53.1	-55.9	13.8	0.00e+00	0	24	0	1193279488	71	5242
2026-01-10 01:16:13.77	218.52	19.40	-53.0	-55.8	13.8	0.00e+00	0	23	0	1194328064	71	5200
2026-01-10 01:16:14.76	218.49	19.28	-53.0	-55.8	13.9	0.00e+00	0	24	0	1196425216	71	5164
2026-01-10 01:16:15.76	218.46	19.15	-52.9	-55.6	14.0	0.00e+00	0	24	0	1198522368	71	5045
2026-01-10 01:16:16.75	218.44	19.03	-52.8	-55.4	14.1	0.00e+00	0	24	0	1200619520	71	4945
2026-01-10 01:16:17.75	218.42	18.90	-52.8	-55.4	14.1	0.00e+00	0	24	0	1202716672	71	4952
2026-01-10 01:16:18.74	218.39	18.78	-52.8	-55.4	14.1	0.00e+00	0	23	0	1203765248	71	4967
2026-01-10 01:16:19.74	218.37	18.65	-53.0	-55.7	13.9	0.00e+00	0	24	0	1205862400	71	5134
2026-01-10 01:16:20.74	218.34	18.53	-52.7	-55.3	14.1	0.00e+00	0	24	0	1207959552	71	4913
2026-01-10 01:16:21.74	218.32	18.41	-52.6	-55.1	14.3	0.00e+00	0	23	0	1210056704	71	4804
2026-01-10 01:16:22.74	218.30	18.29	-52.7	-55.2	14.2	0.00e+00	0	24	0	1211105280	71	4842
2026-01-10 01:16:23.74	218.27	18.17	-52.6	-55.1	14.3	0.00e+00	0	24	0	1213202432	71	4767
2026-01-10 01:16:24.74	218.25	18.04	-52.6	-55.1	14.3	0.00e+00	0	24	0	1215299584	71	4810
2026-01-10 01:16:25.74	218.23	17.92	-52.6	-55.1	14.2	0.00e+00	0	24	0	1217396736	71	4791
2026-01-10 01:16:26.75	218.20	17.80	-52.5	-55.0	14.3	0.00e+00	0	24	0	1219493888	71	4729
2026-01-10 01:16:27.76	218.18	17.68	-52.5	-55.0	14.3	0.00e+00	0	23	0	1220542464	71	4734
2026-01-10 01:16:28.75	218.16	17.57	-52.6	-55.0	14.3	0.00e+00	0	24	0	1222639616	71	4741
2026-01-10 01:16:29.74	218.14	17.45	-52.5	-55.0	14.3	0.00e+00	0	24	0	1224736768	71	4725
2026-01-10 01:16:30.73	218.12	17.33	-52.5	-54.9	14.4	0.00e+00	0	24	0	1226833920	71	4697
2026-01-10 01:16:31.73	218.09	17.22	-52.7	-55.3	14.2	0.00e+00	0	24	0	1228931072	71	4880
2026-01-10 01:16:32.73	218.07	17.10	-52.6	-55.1	14.3	0.00e+00	0	24	0	1229979648	71	4777
2026-01-10 01:16:33.74	218.05	16.98	-52.6	-55.0	14.3	0.00e+00	0	24	0	1232076800	71	4756
2026-01-10 01:16:34.74	218.03	16.87	-52.8	-55.4	14.1	0.00e+00	0	24	0	1234173952	71	4928
2026-01-10 01:16:35.74	218.01	16.75	-52.7	-55.3	14.2	0.00e+00	0	23	0	1236271104	71	4879
2026-01-10 01:16:36.74	217.99	16.64	-52.8	-55.3	14.1	0.00e+00	0	24	0	1237319680	71	4914
