passes_logs/2025/01/07/SPB_Silybum_02/SPB_Silybum_02__20250107_073613_TERRA_rec.log

#Pass ID: 20250107_073613_TERRA
#Satellite: TERRA
#Configuration: TERRA
#Start time: 2025-01-07 07:36:12

#Version: 2.0.20230423
#Station: SPB_Silybum_02
#Location: 30.233357 lon 59.946436 lat
#TLE: 1 25994U 99068A   25006.77118991  .00001382  00000+0  29492-3 0  9999
#TLE: 2 25994  98.0231  70.0628 0003576  88.8854  23.4584 14.60378914332871

#Time	Az	El	Level	Level2	SNR	BER	Gain	Gain2
2025-01-07 07:36:14.35	21.14	4.06	
2025-01-07 07:36:14.55	21.15	4.07	
2025-01-07 07:36:14.76	21.16	4.09	
2025-01-07 07:36:14.96	21.17	4.10	
2025-01-07 07:36:15.17	21.18	4.11	
2025-01-07 07:36:15.37	21.19	4.13	
2025-01-07 07:36:15.58	21.20	4.14	
2025-01-07 07:36:15.78	21.21	4.16	
2025-01-07 07:36:15.99	21.22	4.17	
2025-01-07 07:36:16.19	21.23	4.18	
2025-01-07 07:36:16.40	21.24	4.20	
2025-01-07 07:36:16.61	21.25	4.21	
2025-01-07 07:36:16.82	21.26	4.23	
2025-01-07 07:36:17.02	21.27	4.24	
2025-01-07 07:36:17.23	21.28	4.26	
2025-01-07 07:36:17.43	21.29	4.27	
2025-01-07 07:36:17.64	21.30	4.28	
2025-01-07 07:36:17.85	21.31	4.30	
2025-01-07 07:36:18.05	21.32	4.31	
2025-01-07 07:36:18.26	21.33	4.33	
2025-01-07 07:36:18.46	21.34	4.34	
2025-01-07 07:36:18.67	21.35	4.35	
2025-01-07 07:36:18.87	21.36	4.37	
2025-01-07 07:36:19.08	21.37	4.38	
2025-01-07 07:36:19.29	21.38	4.40	
2025-01-07 07:36:19.49	21.39	4.41	
2025-01-07 07:36:19.70	21.40	4.43	
2025-01-07 07:36:19.90	21.41	4.44	
2025-01-07 07:36:20.11	21.42	4.45	
2025-01-07 07:36:20.31	21.43	4.47	
2025-01-07 07:36:20.52	21.44	4.48	
2025-01-07 07:36:20.72	21.45	4.50	
2025-01-07 07:36:20.93	21.46	4.51	
2025-01-07 07:36:21.13	21.47	4.53	
2025-01-07 07:36:21.34	21.48	4.54	
2025-01-07 07:36:21.54	21.49	4.55	
2025-01-07 07:36:21.75	21.50	4.57	
2025-01-07 07:36:21.95	21.51	4.58	
2025-01-07 07:36:22.16	21.52	4.60	
2025-01-07 07:36:22.36	21.53	4.61	
2025-01-07 07:36:22.57	21.54	4.63	
2025-01-07 07:36:22.77	21.55	4.64	
2025-01-07 07:36:22.98	21.56	4.65	
2025-01-07 07:36:23.18	21.57	4.67	
2025-01-07 07:36:23.39	21.58	4.68	
2025-01-07 07:36:23.60	21.59	4.70	
2025-01-07 07:36:23.80	21.60	4.71	
2025-01-07 07:36:24.00	21.61	4.73	
2025-01-07 07:36:24.21	21.62	4.74	
2025-01-07 07:36:24.42	21.63	4.76	
2025-01-07 07:36:24.62	21.64	4.77	
2025-01-07 07:36:24.83	21.65	4.78	
2025-01-07 07:36:25.03	21.66	4.80	
2025-01-07 07:36:25.24	21.67	4.81	
2025-01-07 07:36:25.44	21.69	4.83	
2025-01-07 07:36:25.64	21.70	4.84	
2025-01-07 07:36:25.85	21.71	4.86	
2025-01-07 07:36:26.05	21.72	4.87	
2025-01-07 07:36:26.26	21.73	4.89	
2025-01-07 07:36:26.46	21.74	4.90	
2025-01-07 07:36:26.67	21.75	4.91	
2025-01-07 07:36:26.88	21.76	4.93	
2025-01-07 07:36:27.08	21.77	4.94	
2025-01-07 07:36:27.28	21.78	4.96	
2025-01-07 07:36:27.49	21.79	4.97	
2025-01-07 07:36:27.70	21.80	4.99	
2025-01-07 07:36:27.90	21.81	5.00	
2025-01-07 07:36:28.11	21.82	5.02	
2025-01-07 07:36:28.31	21.83	5.03	
2025-01-07 07:36:28.52	21.84	5.05	
2025-01-07 07:36:28.72	21.85	5.06	
2025-01-07 07:36:28.93	21.86	5.08	
2025-01-07 07:36:29.14	21.87	5.09	
2025-01-07 07:36:29.34	21.88	5.10	
2025-01-07 07:36:29.54	21.89	5.12	
2025-01-07 07:36:29.75	21.90	5.13	
2025-01-07 07:36:29.96	21.92	5.15	
2025-01-07 07:36:30.16	21.93	5.16	
2025-01-07 07:36:30.37	21.94	5.18	
2025-01-07 07:36:30.57	21.95	5.19	
2025-01-07 07:36:30.77	21.96	5.21	
2025-01-07 07:36:30.98	21.97	5.22	
2025-01-07 07:36:31.19	21.98	5.24	
2025-01-07 07:36:31.39	21.99	5.25	
2025-01-07 07:36:31.60	22.00	5.27	
2025-01-07 07:36:31.80	22.01	5.28	
2025-01-07 07:36:32.01	22.02	5.30	
2025-01-07 07:36:32.21	22.03	5.31	
2025-01-07 07:36:32.42	22.04	5.32	
2025-01-07 07:36:32.62	22.05	5.34	
2025-01-07 07:36:32.83	22.06	5.35	
2025-01-07 07:36:33.03	22.07	5.37	
2025-01-07 07:36:33.24	22.09	5.38	
2025-01-07 07:36:33.45	22.10	5.40	
2025-01-07 07:36:33.66	22.11	5.41	
2025-01-07 07:36:33.87	22.12	5.43	
2025-01-07 07:36:34.08	22.13	5.44	
2025-01-07 07:36:34.28	22.14	5.46	
2025-01-07 07:36:34.49	22.15	5.47	
2025-01-07 07:36:34.69	22.16	5.49	
2025-01-07 07:36:34.90	22.17	5.50	
2025-01-07 07:36:35.10	22.18	5.52	
2025-01-07 07:36:35.31	22.19	5.53	
2025-01-07 07:36:35.52	22.21	5.55	
2025-01-07 07:36:35.73	22.22	5.56	
2025-01-07 07:36:35.94	22.23	5.58	
2025-01-07 07:36:36.14	22.24	5.59	
2025-01-07 07:36:36.35	22.25	5.61	
2025-01-07 07:36:36.55	22.26	5.62	
2025-01-07 07:36:36.76	22.27	5.64	
2025-01-07 07:36:36.96	22.28	5.65	
2025-01-07 07:36:37.17	22.29	5.67	
2025-01-07 07:36:37.37	22.30	5.68	
2025-01-07 07:36:37.58	22.32	5.70	
2025-01-07 07:36:37.78	22.33	5.71	
2025-01-07 07:36:37.99	22.34	5.73	
2025-01-07 07:36:38.19	22.35	5.74	
2025-01-07 07:36:38.40	22.36	5.76	
2025-01-07 07:36:38.60	22.37	5.77	
2025-01-07 07:36:38.81	22.38	5.79	
2025-01-07 07:36:39.01	22.39	5.80	
2025-01-07 07:36:39.22	22.40	5.82	
2025-01-07 07:36:39.42	22.41	5.83	
2025-01-07 07:36:39.63	22.43	5.85	
2025-01-07 07:36:39.84	22.44	5.86	
2025-01-07 07:36:40.04	22.45	5.88	
2025-01-07 07:36:40.25	22.46	5.89	
2025-01-07 07:36:40.45	22.47	5.91	
2025-01-07 07:36:40.66	22.48	5.92	
2025-01-07 07:36:40.86	22.49	5.94	
2025-01-07 07:36:41.07	22.50	5.95	
2025-01-07 07:36:41.27	22.51	5.97	
2025-01-07 07:36:41.48	22.53	5.98	
2025-01-07 07:36:41.69	22.54	6.00	
2025-01-07 07:36:41.89	22.55	6.01	
2025-01-07 07:36:42.11	22.56	6.03	
2025-01-07 07:36:42.32	22.57	6.05	
2025-01-07 07:36:42.52	22.58	6.06	
2025-01-07 07:36:42.73	22.59	6.08	
2025-01-07 07:36:42.93	22.61	6.09	
2025-01-07 07:36:43.14	22.62	6.11	
2025-01-07 07:36:43.34	22.63	6.12	
2025-01-07 07:36:43.55	22.64	6.14	
2025-01-07 07:36:43.75	22.65	6.15	
2025-01-07 07:36:43.96	22.66	6.17	
2025-01-07 07:36:44.17	22.67	6.18	
2025-01-07 07:36:44.37	22.69	6.20	
2025-01-07 07:36:44.57	22.70	6.21	
2025-01-07 07:36:44.78	22.71	6.23	
2025-01-07 07:36:44.99	22.72	6.25	
2025-01-07 07:36:45.19	22.73	6.26	
2025-01-07 07:36:45.40	22.74	6.28	
2025-01-07 07:36:45.60	22.75	6.29	
2025-01-07 07:36:45.81	22.77	6.31	
2025-01-07 07:36:46.01	22.78	6.32	
2025-01-07 07:36:46.22	22.79	6.34	
2025-01-07 07:36:46.42	22.80	6.35	
2025-01-07 07:36:46.63	22.81	6.37	
2025-01-07 07:36:46.84	22.82	6.38	
2025-01-07 07:36:47.04	22.83	6.40	
2025-01-07 07:36:47.25	22.85	6.41	
2025-01-07 07:36:47.45	22.86	6.43	
2025-01-07 07:36:47.66	22.87	6.44	
2025-01-07 07:36:47.86	22.88	6.46	
2025-01-07 07:36:48.07	22.89	6.48	
2025-01-07 07:36:48.27	22.90	6.49	
2025-01-07 07:36:48.48	22.92	6.51	
2025-01-07 07:36:48.68	22.93	6.52	
2025-01-07 07:36:48.90	22.94	6.54	
2025-01-07 07:36:49.11	22.95	6.55	
2025-01-07 07:36:49.31	22.96	6.57	
2025-01-07 07:36:49.52	22.97	6.58	
2025-01-07 07:36:49.72	22.99	6.60	
2025-01-07 07:36:49.93	23.00	6.62	
2025-01-07 07:36:50.13	23.01	6.63	
2025-01-07 07:36:50.34	23.02	6.65	
2025-01-07 07:36:50.55	23.03	6.66	
2025-01-07 07:36:50.75	23.04	6.68	
2025-01-07 07:36:50.96	23.06	6.69	
2025-01-07 07:36:51.16	23.07	6.71	
2025-01-07 07:36:51.37	23.08	6.73	
2025-01-07 07:36:51.57	23.09	6.74	
2025-01-07 07:36:51.77	23.10	6.76	
2025-01-07 07:36:51.98	23.11	6.77	
2025-01-07 07:36:52.19	23.13	6.79	
2025-01-07 07:36:52.39	23.14	6.80	
2025-01-07 07:36:52.60	23.15	6.82	
2025-01-07 07:36:52.80	23.16	6.83	
2025-01-07 07:36:53.01	23.17	6.85	
2025-01-07 07:36:53.22	23.19	6.87	
2025-01-07 07:36:53.42	23.20	6.88	
2025-01-07 07:36:53.63	23.21	6.90	
2025-01-07 07:36:53.84	23.22	6.91	
2025-01-07 07:36:54.05	23.23	6.93	
2025-01-07 07:36:54.26	23.25	6.95	
2025-01-07 07:36:54.46	23.26	6.96	
2025-01-07 07:36:54.67	23.27	6.98	
2025-01-07 07:36:54.87	23.28	6.99	
2025-01-07 07:36:55.08	23.29	7.01	
2025-01-07 07:36:55.28	23.31	7.02	
2025-01-07 07:36:55.49	23.32	7.04	
2025-01-07 07:36:55.70	23.33	7.06	
2025-01-07 07:36:55.90	23.34	7.07	
2025-01-07 07:36:56.10	23.35	7.09	
2025-01-07 07:36:56.31	23.37	7.10	
2025-01-07 07:36:56.52	23.38	7.12	
2025-01-07 07:36:56.73	23.39	7.14	
2025-01-07 07:36:56.94	23.40	7.15	
2025-01-07 07:36:57.14	23.42	7.17	
2025-01-07 07:36:57.35	23.43	7.18	
2025-01-07 07:36:57.55	23.44	7.20	
2025-01-07 07:36:57.76	23.45	7.22	
2025-01-07 07:36:57.97	23.47	7.23	
2025-01-07 07:36:58.17	23.48	7.25	
2025-01-07 07:36:58.37	23.49	7.26	
2025-01-07 07:36:58.58	23.50	7.28	
2025-01-07 07:36:58.79	23.51	7.30	
2025-01-07 07:36:58.99	23.53	7.31	
2025-01-07 07:36:59.20	23.54	7.33	
2025-01-07 07:36:59.40	23.55	7.34	
2025-01-07 07:36:59.61	23.56	7.36	
2025-01-07 07:36:59.82	23.58	7.38	
2025-01-07 07:37:00.02	23.59	7.39	
2025-01-07 07:37:00.24	23.60	7.41	
2025-01-07 07:37:00.44	23.61	7.42	
2025-01-07 07:37:00.65	23.63	7.44	
2025-01-07 07:37:00.86	23.64	7.46	
2025-01-07 07:37:01.06	23.65	7.47	
2025-01-07 07:37:01.27	23.66	7.49	
2025-01-07 07:37:01.47	23.68	7.50	
2025-01-07 07:37:01.68	23.69	7.52	
2025-01-07 07:37:01.89	23.70	7.54	
2025-01-07 07:37:02.09	23.71	7.55	
2025-01-07 07:37:02.30	23.73	7.57	
2025-01-07 07:37:02.50	23.74	7.59	
2025-01-07 07:37:02.71	23.75	7.60	
2025-01-07 07:37:02.91	23.76	7.62	
2025-01-07 07:37:03.12	23.78	7.63	
2025-01-07 07:37:03.33	23.79	7.65	
2025-01-07 07:37:03.54	23.80	7.67	
2025-01-07 07:37:03.75	23.81	7.68	
2025-01-07 07:37:03.96	23.83	7.70	
2025-01-07 07:37:04.16	23.84	7.72	
2025-01-07 07:37:04.37	23.85	7.73	
2025-01-07 07:37:04.57	23.86	7.75	
2025-01-07 07:37:04.78	23.88	7.77	
2025-01-07 07:37:04.98	23.89	7.78	
2025-01-07 07:37:05.19	23.90	7.80	
2025-01-07 07:37:05.40	23.92	7.81	
2025-01-07 07:37:05.61	23.93	7.83	
2025-01-07 07:37:05.82	23.94	7.85	
2025-01-07 07:37:06.02	23.95	7.86	
2025-01-07 07:37:06.23	23.97	7.88	
2025-01-07 07:37:06.44	23.98	7.90	
2025-01-07 07:37:06.64	23.99	7.91	
2025-01-07 07:37:06.85	24.01	7.93	
2025-01-07 07:37:07.05	24.02	7.95	
2025-01-07 07:37:07.26	24.03	7.96	
2025-01-07 07:37:07.47	24.04	7.98	
2025-01-07 07:37:07.67	24.06	7.99	
2025-01-07 07:37:07.88	24.07	8.01	
2025-01-07 07:37:08.08	24.08	8.03	
2025-01-07 07:37:08.29	24.10	8.04	
2025-01-07 07:37:08.49	24.11	8.06	
2025-01-07 07:37:08.70	24.12	8.08	
2025-01-07 07:37:08.90	24.13	8.09	
2025-01-07 07:37:09.11	24.15	8.11	
2025-01-07 07:37:09.32	24.16	8.13	
2025-01-07 07:37:09.52	24.17	8.14	
2025-01-07 07:37:09.73	24.19	8.16	
2025-01-07 07:37:09.93	24.20	8.18	
2025-01-07 07:37:10.14	24.21	8.19	
2025-01-07 07:37:10.35	24.23	8.21	
2025-01-07 07:37:10.55	24.24	8.23	
2025-01-07 07:37:10.76	24.25	8.24	
2025-01-07 07:37:10.96	24.27	8.26	
2025-01-07 07:37:11.17	24.28	8.28	
2025-01-07 07:37:11.37	24.29	8.29	
2025-01-07 07:37:11.58	24.30	8.31	
2025-01-07 07:37:11.78	24.32	8.33	
2025-01-07 07:37:11.99	24.33	8.34	
2025-01-07 07:37:12.19	24.34	8.36	
2025-01-07 07:37:12.40	24.36	8.38	
2025-01-07 07:37:12.60	24.37	8.39	
2025-01-07 07:37:12.81	24.38	8.41	
2025-01-07 07:37:13.01	24.40	8.43	
2025-01-07 07:37:13.22	24.41	8.44	
2025-01-07 07:37:13.42	24.42	8.46	
2025-01-07 07:37:13.63	24.44	8.48	
2025-01-07 07:37:13.84	24.45	8.49	
2025-01-07 07:37:14.04	24.46	8.51	
2025-01-07 07:37:14.25	24.48	8.53	
2025-01-07 07:37:14.45	24.49	8.54	
2025-01-07 07:37:14.66	24.50	8.56	
2025-01-07 07:37:14.86	24.52	8.58	
2025-01-07 07:37:15.07	24.53	8.59	
2025-01-07 07:37:15.27	24.54	8.61	
2025-01-07 07:37:15.48	24.56	8.63	
2025-01-07 07:37:15.68	24.57	8.64	
2025-01-07 07:37:15.89	24.58	8.66	
2025-01-07 07:37:16.09	24.60	8.68	
2025-01-07 07:37:16.30	24.61	8.69	
2025-01-07 07:37:16.51	24.62	8.71	
2025-01-07 07:37:16.71	24.64	8.73	
2025-01-07 07:37:16.92	24.65	8.75	
2025-01-07 07:37:17.12	24.67	8.76	
2025-01-07 07:37:17.33	24.68	8.78	
2025-01-07 07:37:17.53	24.69	8.80	
2025-01-07 07:37:17.74	24.71	8.81	
2025-01-07 07:37:17.95	24.72	8.83	
2025-01-07 07:37:18.15	24.73	8.85	
2025-01-07 07:37:18.36	24.75	8.86	
2025-01-07 07:37:18.56	24.76	8.88	
2025-01-07 07:37:18.77	24.77	8.90	
2025-01-07 07:37:18.97	24.79	8.91	
2025-01-07 07:37:19.18	24.80	8.93	
2025-01-07 07:37:19.39	24.82	8.95	
2025-01-07 07:37:19.59	24.83	8.97	
2025-01-07 07:37:19.80	24.84	8.98	
2025-01-07 07:37:20.00	24.86	9.00	
2025-01-07 07:37:20.21	24.87	9.02	
2025-01-07 07:37:20.42	24.89	9.04	
2025-01-07 07:37:20.62	24.90	9.05	
2025-01-07 07:37:20.83	24.91	9.07	
2025-01-07 07:37:21.03	24.93	9.09	
2025-01-07 07:37:21.24	24.94	9.10	
2025-01-07 07:37:21.45	24.95	9.12	
2025-01-07 07:37:21.66	24.97	9.14	
2025-01-07 07:37:21.87	24.98	9.16	
2025-01-07 07:37:22.08	25.00	9.17	
2025-01-07 07:37:22.28	25.01	9.19	
2025-01-07 07:37:22.49	25.03	9.21	
2025-01-07 07:37:22.69	25.04	9.23	
2025-01-07 07:37:22.90	25.05	9.24	
2025-01-07 07:37:23.10	25.07	9.26	
2025-01-07 07:37:23.31	25.08	9.28	
2025-01-07 07:37:23.52	25.10	9.30	
2025-01-07 07:37:23.72	25.11	9.31	
2025-01-07 07:37:23.93	25.12	9.33	
2025-01-07 07:37:24.13	25.14	9.35	
2025-01-07 07:37:24.34	25.15	9.36	
2025-01-07 07:37:24.54	25.17	9.38	
2025-01-07 07:37:24.75	25.18	9.40	
2025-01-07 07:37:24.95	25.19	9.42	
2025-01-07 07:37:25.16	25.21	9.43	
2025-01-07 07:37:25.37	25.22	9.45	
2025-01-07 07:37:25.57	25.24	9.47	
2025-01-07 07:37:25.78	25.25	9.49	
2025-01-07 07:37:25.98	25.27	9.50	
2025-01-07 07:37:26.19	25.28	9.52	
2025-01-07 07:37:26.39	25.29	9.54	
2025-01-07 07:37:26.60	25.31	9.56	
2025-01-07 07:37:26.80	25.32	9.57	
2025-01-07 07:37:27.01	25.34	9.59	
2025-01-07 07:37:27.21	25.35	9.61	
2025-01-07 07:37:27.42	25.37	9.63	
2025-01-07 07:37:27.62	25.38	9.64	
2025-01-07 07:37:27.83	25.39	9.66	
2025-01-07 07:37:28.04	25.41	9.68	
2025-01-07 07:37:28.24	25.42	9.70	
2025-01-07 07:37:28.45	25.44	9.71	
2025-01-07 07:37:28.65	25.45	9.73	
2025-01-07 07:37:28.86	25.47	9.75	
2025-01-07 07:37:29.08	25.48	9.77	
2025-01-07 07:37:29.28	25.50	9.79	
2025-01-07 07:37:29.49	25.51	9.80	
2025-01-07 07:37:29.69	25.53	9.82	
2025-01-07 07:37:29.90	25.54	9.84	
2025-01-07 07:37:30.10	25.56	9.86	
2025-01-07 07:37:30.31	25.57	9.87	
2025-01-07 07:37:30.51	25.58	9.89	
2025-01-07 07:37:30.72	25.60	9.91	
2025-01-07 07:37:30.92	25.61	9.93	
2025-01-07 07:37:31.13	25.63	9.94	
2025-01-07 07:37:31.33	25.64	9.96	
2025-01-07 07:37:31.54	25.66	9.98	
2025-01-07 07:37:31.74	25.67	10.00	
2025-01-07 07:37:31.95	25.69	10.02	
2025-01-07 07:37:32.15	25.70	10.03	
2025-01-07 07:37:32.36	25.72	10.05	
2025-01-07 07:37:32.56	25.73	10.07	
2025-01-07 07:37:32.77	25.75	10.09	
2025-01-07 07:37:32.97	25.76	10.10	
2025-01-07 07:37:33.18	25.78	10.12	
2025-01-07 07:37:33.38	25.79	10.14	
2025-01-07 07:37:33.59	25.81	10.16	
2025-01-07 07:37:33.79	25.82	10.18	
2025-01-07 07:37:34.00	25.84	10.19	
2025-01-07 07:37:34.21	25.85	10.21	
2025-01-07 07:37:34.41	25.87	10.23	
2025-01-07 07:37:34.62	25.88	10.25	
2025-01-07 07:37:34.82	25.90	10.27	
2025-01-07 07:37:35.03	25.91	10.28	
2025-01-07 07:37:35.23	25.93	10.30	
2025-01-07 07:37:35.43	25.94	10.32	
2025-01-07 07:37:35.64	25.96	10.34	
2025-01-07 07:37:35.84	25.97	10.36	
2025-01-07 07:37:36.05	25.99	10.37	
2025-01-07 07:37:36.25	26.00	10.39	
2025-01-07 07:37:36.46	26.02	10.41	
2025-01-07 07:37:36.66	26.03	10.43	
2025-01-07 07:37:36.87	26.05	10.45	
2025-01-07 07:37:37.07	26.06	10.46	
2025-01-07 07:37:37.28	26.08	10.48	
2025-01-07 07:37:37.48	26.09	10.50	
2025-01-07 07:37:37.70	26.11	10.52	
2025-01-07 07:37:37.91	26.13	10.54	
2025-01-07 07:37:38.11	26.14	10.56	
2025-01-07 07:37:38.32	26.16	10.57	
2025-01-07 07:37:38.52	26.17	10.59	
2025-01-07 07:37:38.73	26.19	10.61	
2025-01-07 07:37:38.93	26.20	10.63	
2025-01-07 07:37:39.14	26.22	10.65	
2025-01-07 07:37:39.35	26.23	10.67	
2025-01-07 07:37:39.55	26.25	10.68	
2025-01-07 07:37:39.75	26.26	10.70	
2025-01-07 07:37:39.96	26.28	10.72	
2025-01-07 07:37:40.17	26.30	10.74	
2025-01-07 07:37:40.37	26.31	10.76	
2025-01-07 07:37:40.58	26.33	10.78	
2025-01-07 07:37:40.78	26.34	10.79	
2025-01-07 07:37:40.99	26.36	10.81	
2025-01-07 07:37:41.19	26.37	10.83	
2025-01-07 07:37:41.40	26.39	10.85	
2025-01-07 07:37:41.61	26.40	10.87	
2025-01-07 07:37:41.81	26.42	10.89	
2025-01-07 07:37:42.02	26.44	10.90	
2025-01-07 07:37:42.22	26.45	10.92	
2025-01-07 07:37:42.43	26.47	10.94	
2025-01-07 07:37:42.63	26.48	10.96	
2025-01-07 07:37:42.84	26.50	10.98	
2025-01-07 07:37:43.04	26.51	11.00	
2025-01-07 07:37:43.25	26.53	11.02	
2025-01-07 07:37:43.46	26.55	11.03	
2025-01-07 07:37:43.66	26.56	11.05	
2025-01-07 07:37:43.87	26.58	11.07	
2025-01-07 07:37:44.07	26.59	11.09	
2025-01-07 07:37:44.28	26.61	11.11	
2025-01-07 07:37:44.48	26.63	11.13	
2025-01-07 07:37:44.69	26.64	11.15	
2025-01-07 07:37:44.89	26.66	11.16	
2025-01-07 07:37:45.10	26.67	11.18	
2025-01-07 07:37:45.30	26.69	11.20	
2025-01-07 07:37:45.51	26.71	11.22	
2025-01-07 07:37:45.71	26.72	11.24	
2025-01-07 07:37:45.92	26.74	11.26	
2025-01-07 07:37:46.12	26.75	11.28	
2025-01-07 07:37:46.33	26.77	11.29	
2025-01-07 07:37:46.53	26.79	11.31	
2025-01-07 07:37:46.74	26.80	11.33	
2025-01-07 07:37:46.95	26.82	11.35	
2025-01-07 07:37:47.15	26.84	11.37	
2025-01-07 07:37:47.36	26.85	11.39	
2025-01-07 07:37:47.56	26.87	11.41	
2025-01-07 07:37:47.77	26.88	11.43	
2025-01-07 07:37:47.97	26.90	11.44	
2025-01-07 07:37:48.18	26.92	11.46	
2025-01-07 07:37:48.38	26.93	11.48	
2025-01-07 07:37:48.59	26.95	11.50	
2025-01-07 07:37:48.79	26.97	11.52	
2025-01-07 07:37:49.00	26.98	11.54	
2025-01-07 07:37:49.20	27.00	11.56	
2025-01-07 07:37:49.41	27.02	11.58	
2025-01-07 07:37:49.61	27.03	11.60	
2025-01-07 07:37:49.82	27.05	11.62	
2025-01-07 07:37:50.02	27.06	11.63	
2025-01-07 07:37:50.23	27.08	11.65	
2025-01-07 07:37:50.43	27.10	11.67	
2025-01-07 07:37:50.64	27.11	11.69	
2025-01-07 07:37:50.85	27.13	11.71	
2025-01-07 07:37:51.05	27.15	11.73	
2025-01-07 07:37:51.26	27.16	11.75	
2025-01-07 07:37:51.46	27.18	11.77	
2025-01-07 07:37:51.67	27.20	11.79	
2025-01-07 07:37:51.87	27.21	11.81	
2025-01-07 07:37:52.08	27.23	11.83	
2025-01-07 07:37:52.29	27.25	11.84	
2025-01-07 07:37:52.49	27.26	11.86	
2025-01-07 07:37:52.70	27.28	11.88	
2025-01-07 07:37:52.90	27.30	11.90	
2025-01-07 07:37:53.11	27.32	11.92	
2025-01-07 07:37:53.31	27.33	11.94	
2025-01-07 07:37:53.52	27.35	11.96	
2025-01-07 07:37:53.74	27.37	11.98	
2025-01-07 07:37:53.94	27.38	12.00	
2025-01-07 07:37:54.15	27.40	12.02	
2025-01-07 07:37:54.36	27.42	12.04	
2025-01-07 07:37:54.56	27.44	12.06	
2025-01-07 07:37:54.78	27.45	12.08	
2025-01-07 07:37:54.98	27.47	12.10	
2025-01-07 07:37:55.19	27.49	12.12	
2025-01-07 07:37:55.40	27.51	12.14	
2025-01-07 07:37:55.60	27.52	12.16	
2025-01-07 07:37:55.81	27.54	12.18	
2025-01-07 07:37:56.01	27.56	12.19	
2025-01-07 07:37:56.22	27.57	12.21	
2025-01-07 07:37:56.42	27.59	12.23	
2025-01-07 07:37:56.63	27.61	12.25	
2025-01-07 07:37:56.83	27.63	12.27	
2025-01-07 07:37:57.04	27.64	12.29	
2025-01-07 07:37:57.24	27.66	12.31	
2025-01-07 07:37:57.45	27.68	12.33	
2025-01-07 07:37:57.65	27.69	12.35	
2025-01-07 07:37:57.86	27.71	12.37	
2025-01-07 07:37:58.06	27.73	12.39	
2025-01-07 07:37:58.27	27.75	12.41	
2025-01-07 07:37:58.47	27.76	12.43	
2025-01-07 07:37:58.68	27.78	12.45	
2025-01-07 07:37:58.89	27.80	12.47	
2025-01-07 07:37:59.09	27.82	12.49	
2025-01-07 07:37:59.30	27.83	12.51	
2025-01-07 07:37:59.50	27.85	12.53	
2025-01-07 07:37:59.71	27.87	12.55	
2025-01-07 07:37:59.92	27.89	12.57	
2025-01-07 07:38:00.12	27.91	12.59	
2025-01-07 07:38:00.32	27.92	12.61	
2025-01-07 07:38:00.53	27.94	12.63	
2025-01-07 07:38:00.74	27.96	12.65	
2025-01-07 07:38:00.94	27.98	12.67	
2025-01-07 07:38:01.16	28.00	12.69	
2025-01-07 07:38:01.37	28.01	12.71	
2025-01-07 07:38:01.57	28.03	12.73	
2025-01-07 07:38:01.78	28.05	12.75	
2025-01-07 07:38:01.98	28.07	12.77	
2025-01-07 07:38:02.19	28.08	12.79	
2025-01-07 07:38:02.39	28.10	12.81	
2025-01-07 07:38:02.59	28.12	12.83	
2025-01-07 07:38:02.80	28.14	12.85	
2025-01-07 07:38:03.00	28.16	12.86	
2025-01-07 07:38:03.21	28.17	12.89	
2025-01-07 07:38:03.42	28.19	12.91	
2025-01-07 07:38:03.63	28.21	12.93	
2025-01-07 07:38:03.83	28.23	12.95	
2025-01-07 07:38:04.03	28.25	12.97	
2025-01-07 07:38:04.24	28.26	12.99	
2025-01-07 07:38:04.44	28.28	13.01	
2025-01-07 07:38:04.65	28.30	13.03	
2025-01-07 07:38:04.85	28.32	13.05	
2025-01-07 07:38:05.06	28.34	13.07	
2025-01-07 07:38:05.26	28.36	13.09	
2025-01-07 07:38:05.47	28.37	13.11	
2025-01-07 07:38:05.68	28.39	13.13	
2025-01-07 07:38:05.88	28.41	13.15	
2025-01-07 07:38:06.09	28.43	13.17	
2025-01-07 07:38:06.29	28.45	13.19	
2025-01-07 07:38:06.49	28.47	13.21	
2025-01-07 07:38:06.70	28.48	13.23	
2025-01-07 07:38:06.91	28.50	13.25	
2025-01-07 07:38:07.11	28.52	13.27	
2025-01-07 07:38:07.32	28.54	13.29	
2025-01-07 07:38:07.52	28.56	13.31	
2025-01-07 07:38:07.73	28.58	13.33	
2025-01-07 07:38:07.93	28.60	13.35	
2025-01-07 07:38:08.14	28.61	13.37	
2025-01-07 07:38:08.35	28.63	13.39	
2025-01-07 07:38:08.56	28.65	13.41	
2025-01-07 07:38:08.76	28.67	13.43	
2025-01-07 07:38:08.97	28.69	13.45	
2025-01-07 07:38:09.18	28.71	13.47	
2025-01-07 07:38:09.38	28.73	13.49	
2025-01-07 07:38:09.59	28.75	13.51	
2025-01-07 07:38:09.79	28.76	13.53	
2025-01-07 07:38:10.00	28.78	13.55	
2025-01-07 07:38:10.20	28.80	13.57	
2025-01-07 07:38:10.41	28.82	13.60	
2025-01-07 07:38:10.61	28.84	13.62	
2025-01-07 07:38:10.82	28.86	13.64	
2025-01-07 07:38:11.02	28.88	13.66	
2025-01-07 07:38:11.23	28.90	13.68	
2025-01-07 07:38:11.44	28.92	13.70	
2025-01-07 07:38:11.64	28.94	13.72	
2025-01-07 07:38:11.84	28.95	13.74	
2025-01-07 07:38:12.05	28.97	13.76	
2025-01-07 07:38:12.26	28.99	13.78	
2025-01-07 07:38:12.46	29.01	13.80	
2025-01-07 07:38:12.67	29.03	13.82	
2025-01-07 07:38:12.87	29.05	13.84	
2025-01-07 07:38:13.08	29.07	13.86	
2025-01-07 07:38:13.28	29.09	13.88	
2025-01-07 07:38:13.49	29.11	13.91	
2025-01-07 07:38:13.69	29.13	13.93	
2025-01-07 07:38:13.90	29.15	13.95	
2025-01-07 07:38:14.10	29.17	13.97	
2025-01-07 07:38:14.31	29.19	13.99	
2025-01-07 07:38:14.52	29.21	14.01	
2025-01-07 07:38:14.72	29.23	14.03	
2025-01-07 07:38:14.94	29.25	14.05	
2025-01-07 07:38:15.14	29.27	14.07	
2025-01-07 07:38:15.35	29.29	14.10	
2025-01-07 07:38:15.56	29.31	14.12	
2025-01-07 07:38:15.76	29.32	14.14	
2025-01-07 07:38:15.97	29.34	14.16	
2025-01-07 07:38:16.17	29.36	14.18	
2025-01-07 07:38:16.38	29.38	14.20	
2025-01-07 07:38:16.58	29.40	14.22	
2025-01-07 07:38:16.79	29.42	14.24	
2025-01-07 07:38:16.99	29.44	14.26	
2025-01-07 07:38:17.20	29.46	14.28	
2025-01-07 07:38:17.40	29.48	14.31	
2025-01-07 07:38:17.61	29.50	14.33	
2025-01-07 07:38:17.82	29.52	14.35	
2025-01-07 07:38:18.02	29.54	14.37	
2025-01-07 07:38:18.22	29.56	14.39	
2025-01-07 07:38:18.43	29.58	14.41	
2025-01-07 07:38:18.63	29.60	14.43	
2025-01-07 07:38:18.84	29.62	14.45	
2025-01-07 07:38:19.05	29.64	14.48	
2025-01-07 07:38:19.25	29.66	14.50	
2025-01-07 07:38:19.46	29.68	14.52	
2025-01-07 07:38:19.66	29.70	14.54	
2025-01-07 07:38:19.87	29.72	14.56	
2025-01-07 07:38:20.07	29.74	14.58	
2025-01-07 07:38:20.28	29.76	14.60	
2025-01-07 07:38:20.48	29.78	14.62	
2025-01-07 07:38:20.69	29.80	14.65	
2025-01-07 07:38:20.89	29.82	14.67	
2025-01-07 07:38:21.10	29.85	14.69	
2025-01-07 07:38:21.30	29.87	14.71	
2025-01-07 07:38:21.51	29.89	14.73	
2025-01-07 07:38:21.71	29.91	14.75	
2025-01-07 07:38:21.92	29.93	14.77	
2025-01-07 07:38:22.12	29.95	14.80	
2025-01-07 07:38:22.33	29.97	14.82	
2025-01-07 07:38:22.53	29.99	14.84	
2025-01-07 07:38:22.74	30.01	14.86	
2025-01-07 07:38:22.94	30.03	14.88	
2025-01-07 07:38:23.15	30.05	14.90	
2025-01-07 07:38:23.35	30.07	14.92	
2025-01-07 07:38:23.56	30.09	14.95	
2025-01-07 07:38:23.77	30.11	14.97	
2025-01-07 07:38:23.97	30.13	14.99	
2025-01-07 07:38:24.18	30.16	15.01	
2025-01-07 07:38:24.38	30.18	15.03	
2025-01-07 07:38:24.59	30.20	15.06	
2025-01-07 07:38:24.79	30.22	15.08	
2025-01-07 07:38:25.00	30.24	15.10	
2025-01-07 07:38:25.21	30.26	15.12	
2025-01-07 07:38:25.41	30.28	15.14	
2025-01-07 07:38:25.61	30.30	15.16	
2025-01-07 07:38:25.83	30.32	15.19	
2025-01-07 07:38:26.04	30.35	15.21	
2025-01-07 07:38:26.24	30.37	15.23	
2025-01-07 07:38:26.45	30.39	15.25	
2025-01-07 07:38:26.65	30.41	15.28	
2025-01-07 07:38:26.86	30.43	15.30	
2025-01-07 07:38:27.06	30.45	15.32	
2025-01-07 07:38:27.27	30.47	15.34	
2025-01-07 07:38:27.48	30.49	15.36	
2025-01-07 07:38:27.68	30.52	15.39	
2025-01-07 07:38:27.89	30.54	15.41	
2025-01-07 07:38:28.09	30.56	15.43	
2025-01-07 07:38:28.30	30.58	15.45	
2025-01-07 07:38:28.50	30.60	15.47	
2025-01-07 07:38:28.70	30.62	15.50	
2025-01-07 07:38:28.91	30.64	15.52	
2025-01-07 07:38:29.12	30.67	15.54	
2025-01-07 07:38:29.32	30.69	15.56	
2025-01-07 07:38:29.53	30.71	15.58	
2025-01-07 07:38:29.73	30.73	15.61	
2025-01-07 07:38:29.94	30.75	15.63	
2025-01-07 07:38:30.14	30.77	15.65	
2025-01-07 07:38:30.35	30.80	15.67	
2025-01-07 07:38:30.56	30.82	15.70	
2025-01-07 07:38:30.76	30.84	15.72	
2025-01-07 07:38:30.96	30.86	15.74	
2025-01-07 07:38:31.17	30.88	15.76	
2025-01-07 07:38:31.38	30.91	15.79	
2025-01-07 07:38:31.58	30.93	15.81	
2025-01-07 07:38:31.79	30.95	15.83	
2025-01-07 07:38:31.99	30.97	15.85	
2025-01-07 07:38:32.20	30.99	15.87	
2025-01-07 07:38:32.40	31.02	15.90	
2025-01-07 07:38:32.61	31.04	15.92	
2025-01-07 07:38:32.82	31.06	15.94	
2025-01-07 07:38:33.02	31.08	15.96	
2025-01-07 07:38:33.23	31.11	15.99	
2025-01-07 07:38:33.44	31.13	16.01	
2025-01-07 07:38:33.64	31.15	16.03	
2025-01-07 07:38:33.85	31.17	16.06	
2025-01-07 07:38:34.05	31.20	16.08	
2025-01-07 07:38:34.25	31.22	16.10	
2025-01-07 07:38:34.46	31.24	16.12	
2025-01-07 07:38:34.66	31.26	16.15	
2025-01-07 07:38:34.87	31.29	16.17	
2025-01-07 07:38:35.08	31.31	16.19	
2025-01-07 07:38:35.28	31.33	16.21	
2025-01-07 07:38:35.49	31.35	16.24	
2025-01-07 07:38:35.69	31.38	16.26	
2025-01-07 07:38:35.90	31.40	16.28	
2025-01-07 07:38:36.10	31.42	16.30	
2025-01-07 07:38:36.31	31.44	16.33	
2025-01-07 07:38:36.51	31.47	16.35	
2025-01-07 07:38:36.72	31.49	16.37	
2025-01-07 07:38:36.93	31.51	16.40	
2025-01-07 07:38:37.13	31.54	16.42	
2025-01-07 07:38:37.35	31.56	16.44	
2025-01-07 07:38:37.55	31.58	16.47	
2025-01-07 07:38:37.76	31.61	16.49	
2025-01-07 07:38:37.96	31.63	16.51	
2025-01-07 07:38:38.17	31.65	16.54	
2025-01-07 07:38:38.37	31.68	16.56	
2025-01-07 07:38:38.58	31.70	16.58	
2025-01-07 07:38:38.78	31.72	16.60	
2025-01-07 07:38:38.99	31.75	16.63	
2025-01-07 07:38:39.19	31.77	16.65	
2025-01-07 07:38:39.40	31.79	16.67	
2025-01-07 07:38:39.60	31.81	16.70	
2025-01-07 07:38:39.81	31.84	16.72	
2025-01-07 07:38:40.02	31.86	16.74	
2025-01-07 07:38:40.22	31.89	16.77	
2025-01-07 07:38:40.43	31.91	16.79	
2025-01-07 07:38:40.65	31.93	16.82	
2025-01-07 07:38:40.85	31.96	16.84	
2025-01-07 07:38:41.06	31.98	16.86	
2025-01-07 07:38:41.26	32.01	16.88	
2025-01-07 07:38:41.47	32.03	16.91	
2025-01-07 07:38:41.67	32.05	16.93	
2025-01-07 07:38:41.88	32.08	16.96	
2025-01-07 07:38:42.09	32.10	16.98	
2025-01-07 07:38:42.29	32.12	17.00	
2025-01-07 07:38:42.50	32.15	17.03	
2025-01-07 07:38:42.70	32.17	17.05	
2025-01-07 07:38:42.91	32.20	17.07	
2025-01-07 07:38:43.11	32.22	17.10	
2025-01-07 07:38:43.32	32.24	17.12	
2025-01-07 07:38:43.52	32.27	17.14	
2025-01-07 07:38:43.74	32.29	17.17	
2025-01-07 07:38:43.95	32.32	17.19	
2025-01-07 07:38:44.15	32.34	17.21	
2025-01-07 07:38:44.36	32.37	17.24	
2025-01-07 07:38:44.56	32.39	17.26	
2025-01-07 07:38:44.77	32.42	17.29	
2025-01-07 07:38:44.97	32.44	17.31	
2025-01-07 07:38:45.18	32.46	17.33	
2025-01-07 07:38:45.39	32.49	17.36	
2025-01-07 07:38:45.59	32.51	17.38	
2025-01-07 07:38:45.80	32.54	17.41	
2025-01-07 07:38:46.00	32.56	17.43	
2025-01-07 07:38:46.21	32.59	17.45	
2025-01-07 07:38:46.41	32.61	17.48	
2025-01-07 07:38:46.62	32.64	17.50	
2025-01-07 07:38:46.82	32.66	17.52	
2025-01-07 07:38:47.03	32.69	17.55	
2025-01-07 07:38:47.23	32.71	17.57	
2025-01-07 07:38:47.44	32.74	17.60	
2025-01-07 07:38:47.64	32.76	17.62	
2025-01-07 07:38:47.85	32.79	17.64	
2025-01-07 07:38:48.05	32.81	17.67	
2025-01-07 07:38:48.26	32.84	17.69	
2025-01-07 07:38:48.46	32.86	17.71	
2025-01-07 07:38:48.67	32.89	17.74	
2025-01-07 07:38:48.88	32.91	17.76	
2025-01-07 07:38:49.09	32.94	17.79	
2025-01-07 07:38:49.30	32.96	17.81	
2025-01-07 07:38:49.51	32.99	17.84	
2025-01-07 07:38:49.71	33.01	17.86	
2025-01-07 07:38:49.92	33.04	17.89	
2025-01-07 07:38:50.12	33.06	17.91	
2025-01-07 07:38:50.33	33.09	17.93	
2025-01-07 07:38:50.53	33.11	17.96	
2025-01-07 07:38:50.74	33.14	17.98	
2025-01-07 07:38:50.94	33.17	18.01	
2025-01-07 07:38:51.15	33.19	18.03	
2025-01-07 07:38:51.35	33.22	18.06	
2025-01-07 07:38:51.56	33.24	18.08	
2025-01-07 07:38:51.76	33.27	18.10	
2025-01-07 07:38:51.97	33.29	18.13	
2025-01-07 07:38:52.17	33.32	18.15	
2025-01-07 07:38:52.38	33.35	18.18	
2025-01-07 07:38:52.58	33.37	18.20	
2025-01-07 07:38:52.79	33.40	18.23	
2025-01-07 07:38:53.00	33.42	18.25	
2025-01-07 07:38:53.20	33.45	18.28	
2025-01-07 07:38:53.41	33.48	18.30	
2025-01-07 07:38:53.61	33.50	18.32	
2025-01-07 07:38:53.82	33.53	18.35	
2025-01-07 07:38:54.02	33.55	18.37	
2025-01-07 07:38:54.23	33.58	18.40	
2025-01-07 07:38:54.43	33.61	18.42	
2025-01-07 07:38:54.64	33.63	18.45	
2025-01-07 07:38:54.84	33.66	18.47	
2025-01-07 07:38:55.05	33.69	18.50	
2025-01-07 07:38:55.26	33.71	18.52	
2025-01-07 07:38:55.46	33.74	18.55	
2025-01-07 07:38:55.66	33.76	18.57	
2025-01-07 07:38:55.87	33.79	18.60	
2025-01-07 07:38:56.08	33.82	18.62	
2025-01-07 07:38:56.28	33.85	18.65	
2025-01-07 07:38:56.48	33.87	18.67	
2025-01-07 07:38:56.69	33.90	18.70	
2025-01-07 07:38:56.89	33.92	18.72	
2025-01-07 07:38:57.10	33.95	18.75	
2025-01-07 07:38:57.30	33.98	18.77	
2025-01-07 07:38:57.51	34.01	18.80	
2025-01-07 07:38:57.71	34.03	18.82	
2025-01-07 07:38:57.92	34.06	18.85	
2025-01-07 07:38:58.12	34.09	18.87	
2025-01-07 07:38:58.33	34.11	18.90	
2025-01-07 07:38:58.53	34.14	18.92	
2025-01-07 07:38:58.74	34.17	18.95	
2025-01-07 07:38:58.95	34.20	18.97	
2025-01-07 07:38:59.15	34.22	19.00	
2025-01-07 07:38:59.36	34.25	19.02	
2025-01-07 07:38:59.56	34.28	19.05	
2025-01-07 07:38:59.77	34.31	19.07	
2025-01-07 07:38:59.97	34.33	19.10	
2025-01-07 07:39:00.18	34.36	19.12	
2025-01-07 07:39:00.38	34.39	19.15	
2025-01-07 07:39:00.59	34.42	19.17	
2025-01-07 07:39:00.79	34.44	19.20	
2025-01-07 07:39:01.00	34.47	19.22	
2025-01-07 07:39:01.21	34.50	19.25	
2025-01-07 07:39:01.41	34.53	19.27	
2025-01-07 07:39:01.62	34.55	19.30	
2025-01-07 07:39:01.82	34.58	19.32	
2025-01-07 07:39:02.02	34.61	19.35	
2025-01-07 07:39:02.23	34.64	19.38	
2025-01-07 07:39:02.43	34.67	19.40	
2025-01-07 07:39:02.64	34.69	19.43	
2025-01-07 07:39:02.85	34.72	19.45	
2025-01-07 07:39:03.05	34.75	19.48	
2025-01-07 07:39:03.25	34.78	19.50	
2025-01-07 07:39:03.46	34.81	19.53	
2025-01-07 07:39:03.67	34.84	19.56	
2025-01-07 07:39:03.87	34.86	19.58	
2025-01-07 07:39:04.07	34.89	19.61	
2025-01-07 07:39:04.28	34.92	19.63	
2025-01-07 07:39:04.49	34.95	19.66	
2025-01-07 07:39:04.69	34.98	19.68	
2025-01-07 07:39:04.90	35.01	19.71	
2025-01-07 07:39:05.10	35.03	19.73	
2025-01-07 07:39:05.31	35.06	19.76	
2025-01-07 07:39:05.51	35.09	19.79	
2025-01-07 07:39:05.72	35.12	19.81	
2025-01-07 07:39:05.92	35.15	19.84	
2025-01-07 07:39:06.12	35.18	19.86	
2025-01-07 07:39:06.33	35.21	19.89	
2025-01-07 07:39:06.54	35.24	19.92	
2025-01-07 07:39:06.74	35.27	19.94	
2025-01-07 07:39:06.95	35.29	19.97	
2025-01-07 07:39:07.15	35.32	19.99	
2025-01-07 07:39:07.36	35.35	20.02	
2025-01-07 07:39:07.56	35.38	20.05	
2025-01-07 07:39:07.77	35.41	20.07	
2025-01-07 07:39:07.97	35.44	20.10	
2025-01-07 07:39:08.18	35.47	20.12	
2025-01-07 07:39:08.38	35.50	20.15	
2025-01-07 07:39:08.59	35.53	20.18	
2025-01-07 07:39:08.79	35.56	20.20	
2025-01-07 07:39:09.00	35.59	20.23	
2025-01-07 07:39:09.21	35.62	20.26	
2025-01-07 07:39:09.42	35.65	20.28	
2025-01-07 07:39:09.63	35.68	20.31	
2025-01-07 07:39:09.84	35.71	20.34	
2025-01-07 07:39:10.04	35.74	20.36	
2025-01-07 07:39:10.25	35.77	20.39	
2025-01-07 07:39:10.45	35.80	20.42	
2025-01-07 07:39:10.66	35.83	20.44	
2025-01-07 07:39:10.86	35.86	20.47	
2025-01-07 07:39:11.07	35.89	20.50	
2025-01-07 07:39:11.27	35.92	20.52	
2025-01-07 07:39:11.48	35.95	20.55	
2025-01-07 07:39:11.69	35.98	20.58	
2025-01-07 07:39:11.89	36.01	20.60	
2025-01-07 07:39:12.10	36.04	20.63	
2025-01-07 07:39:12.30	36.07	20.65	
2025-01-07 07:39:12.51	36.10	20.68	
2025-01-07 07:39:12.71	36.13	20.71	
2025-01-07 07:39:12.92	36.16	20.73	
2025-01-07 07:39:13.12	36.19	20.76	
2025-01-07 07:39:13.33	36.23	20.79	
2025-01-07 07:39:13.53	36.26	20.81	
2025-01-07 07:39:13.74	36.29	20.84	
2025-01-07 07:39:13.94	36.32	20.87	
2025-01-07 07:39:14.15	36.35	20.90	
2025-01-07 07:39:14.36	36.38	20.92	
2025-01-07 07:39:14.56	36.41	20.95	
2025-01-07 07:39:14.77	36.44	20.98	
2025-01-07 07:39:14.97	36.47	21.00	
2025-01-07 07:39:15.18	36.51	21.03	
2025-01-07 07:39:15.38	36.54	21.06	
2025-01-07 07:39:15.59	36.57	21.08	
2025-01-07 07:39:15.79	36.60	21.11	
2025-01-07 07:39:16.01	36.63	21.14	
2025-01-07 07:39:16.21	36.66	21.17	
2025-01-07 07:39:16.42	36.70	21.19	
2025-01-07 07:39:16.63	36.73	21.22	
2025-01-07 07:39:16.83	36.76	21.25	
2025-01-07 07:39:17.03	36.79	21.27	
2025-01-07 07:39:17.24	36.82	21.30	
2025-01-07 07:39:17.45	36.85	21.33	
2025-01-07 07:39:17.65	36.89	21.36	
2025-01-07 07:39:17.86	36.92	21.38	
2025-01-07 07:39:18.06	36.95	21.41	
2025-01-07 07:39:18.27	36.98	21.44	
2025-01-07 07:39:18.47	37.01	21.47	
2025-01-07 07:39:18.68	37.05	21.49	
2025-01-07 07:39:18.88	37.08	21.52	
2025-01-07 07:39:19.09	37.11	21.55	
2025-01-07 07:39:19.30	37.14	21.58	
2025-01-07 07:39:19.50	37.18	21.60	
2025-01-07 07:39:19.71	37.21	21.63	
2025-01-07 07:39:19.91	37.24	21.66	
2025-01-07 07:39:20.12	37.27	21.69	
2025-01-07 07:39:20.32	37.31	21.71	
2025-01-07 07:39:20.53	37.34	21.74	
2025-01-07 07:39:20.73	37.37	21.77	
2025-01-07 07:39:20.94	37.41	21.80	
2025-01-07 07:39:21.15	37.44	21.82	
2025-01-07 07:39:21.36	37.47	21.85	
2025-01-07 07:39:21.57	37.51	21.88	
2025-01-07 07:39:21.77	37.54	21.91	
2025-01-07 07:39:21.98	37.57	21.94	
2025-01-07 07:39:22.18	37.61	21.96	
2025-01-07 07:39:22.39	37.64	21.99	
2025-01-07 07:39:22.59	37.67	22.02	
2025-01-07 07:39:22.80	37.71	22.05	
2025-01-07 07:39:23.00	37.74	22.07	
2025-01-07 07:39:23.21	37.77	22.10	
2025-01-07 07:39:23.41	37.81	22.13	
2025-01-07 07:39:23.62	37.84	22.16	
2025-01-07 07:39:23.82	37.87	22.19	
2025-01-07 07:39:24.03	37.91	22.21	
2025-01-07 07:39:24.23	37.94	22.24	
2025-01-07 07:39:24.44	37.97	22.27	
2025-01-07 07:39:24.64	38.01	22.30	
2025-01-07 07:39:24.85	38.04	22.33	
2025-01-07 07:39:25.06	38.08	22.35	
2025-01-07 07:39:25.26	38.11	22.38	
2025-01-07 07:39:25.48	38.15	22.41	
2025-01-07 07:39:25.68	38.18	22.44	
2025-01-07 07:39:25.89	38.22	22.47	
2025-01-07 07:39:26.10	38.25	22.50	
2025-01-07 07:39:26.30	38.29	22.53	
2025-01-07 07:39:26.51	38.32	22.55	
2025-01-07 07:39:26.71	38.35	22.58	
2025-01-07 07:39:26.92	38.39	22.61	
2025-01-07 07:39:27.12	38.42	22.64	
2025-01-07 07:39:27.33	38.46	22.67	
2025-01-07 07:39:27.53	38.49	22.69	
2025-01-07 07:39:27.74	38.53	22.72	
2025-01-07 07:39:27.94	38.56	22.75	
2025-01-07 07:39:28.15	38.60	22.78	
2025-01-07 07:39:28.35	38.63	22.81	
2025-01-07 07:39:28.56	38.67	22.84	
2025-01-07 07:39:28.76	38.70	22.87	
2025-01-07 07:39:28.97	38.74	22.89	
2025-01-07 07:39:29.17	38.77	22.92	
2025-01-07 07:39:29.38	38.81	22.95	
2025-01-07 07:39:29.58	38.84	22.98	
2025-01-07 07:39:29.79	38.88	23.01	
2025-01-07 07:39:30.00	38.92	23.04	
2025-01-07 07:39:30.21	38.95	23.07	
2025-01-07 07:39:30.42	38.99	23.10	
2025-01-07 07:39:30.62	39.03	23.12	
2025-01-07 07:39:30.82	39.06	23.15	
2025-01-07 07:39:31.03	39.10	23.18	
2025-01-07 07:39:31.24	39.13	23.21	
2025-01-07 07:39:31.44	39.17	23.24	
2025-01-07 07:39:31.65	39.21	23.27	
2025-01-07 07:39:31.85	39.24	23.30	
2025-01-07 07:39:32.06	39.28	23.33	
2025-01-07 07:39:32.26	39.31	23.36	
2025-01-07 07:39:32.47	39.35	23.38	
2025-01-07 07:39:32.67	39.39	23.41	
2025-01-07 07:39:32.88	39.42	23.44	
2025-01-07 07:39:33.08	39.46	23.47	
2025-01-07 07:39:33.29	39.50	23.50	
2025-01-07 07:39:33.50	39.54	23.53	
2025-01-07 07:39:33.70	39.57	23.56	
2025-01-07 07:39:33.90	39.61	23.59	
2025-01-07 07:39:34.11	39.65	23.62	
2025-01-07 07:39:34.32	39.68	23.65	
2025-01-07 07:39:34.52	39.72	23.68	
2025-01-07 07:39:34.73	39.76	23.71	
2025-01-07 07:39:34.93	39.79	23.73	
2025-01-07 07:39:35.14	39.83	23.76	
2025-01-07 07:39:35.34	39.87	23.79	
2025-01-07 07:39:35.55	39.91	23.82	
2025-01-07 07:39:35.76	39.95	23.85	
2025-01-07 07:39:35.96	39.98	23.88	
2025-01-07 07:39:36.17	40.02	23.91	
2025-01-07 07:39:36.37	40.06	23.94	
2025-01-07 07:39:36.58	40.10	23.97	
2025-01-07 07:39:36.78	40.13	24.00	
2025-01-07 07:39:36.99	40.17	24.03	
2025-01-07 07:39:37.19	40.21	24.06	
2025-01-07 07:39:37.39	40.25	24.09	
2025-01-07 07:39:37.60	40.29	24.12	
2025-01-07 07:39:37.81	40.33	24.15	
2025-01-07 07:39:38.01	40.36	24.18	
2025-01-07 07:39:38.21	40.40	24.20	
2025-01-07 07:39:38.42	40.44	24.23	
2025-01-07 07:39:38.63	40.48	24.27	
2025-01-07 07:39:38.83	40.52	24.29	
2025-01-07 07:39:39.04	40.56	24.32	
2025-01-07 07:39:39.24	40.59	24.35	
2025-01-07 07:39:39.45	40.63	24.38	
2025-01-07 07:39:39.66	40.67	24.41	
2025-01-07 07:39:39.86	40.71	24.44	
2025-01-07 07:39:40.07	40.75	24.47	
2025-01-07 07:39:40.27	40.79	24.50	
2025-01-07 07:39:40.48	40.83	24.53	
2025-01-07 07:39:40.68	40.87	24.56	
2025-01-07 07:39:40.89	40.91	24.59	
2025-01-07 07:39:41.09	40.95	24.62	
2025-01-07 07:39:41.30	40.99	24.65	
2025-01-07 07:39:41.50	41.03	24.68	
2025-01-07 07:39:41.71	41.07	24.71	
2025-01-07 07:39:41.91	41.11	24.74	
2025-01-07 07:39:42.12	41.15	24.77	
2025-01-07 07:39:42.33	41.19	24.80	
2025-01-07 07:39:42.53	41.23	24.83	
2025-01-07 07:39:42.74	41.27	24.86	
2025-01-07 07:39:42.96	41.31	24.90	
2025-01-07 07:39:43.16	41.35	24.93	
2025-01-07 07:39:43.37	41.39	24.96	
2025-01-07 07:39:43.57	41.43	24.99	
2025-01-07 07:39:43.78	41.47	25.02	
2025-01-07 07:39:43.98	41.51	25.05	
2025-01-07 07:39:44.19	41.55	25.08	
2025-01-07 07:39:44.39	41.59	25.11	
2025-01-07 07:39:44.59	41.63	25.14	
2025-01-07 07:39:44.80	41.67	25.17	
2025-01-07 07:39:45.00	41.71	25.20	
2025-01-07 07:39:45.21	41.76	25.23	
2025-01-07 07:39:45.42	41.80	25.26	
2025-01-07 07:39:45.62	41.84	25.29	
2025-01-07 07:39:45.83	41.88	25.32	
2025-01-07 07:39:46.03	41.92	25.35	
2025-01-07 07:39:46.24	41.96	25.38	
2025-01-07 07:39:46.44	42.00	25.41	
2025-01-07 07:39:46.65	42.05	25.44	
2025-01-07 07:39:46.85	42.09	25.47	
2025-01-07 07:39:47.06	42.13	25.50	
2025-01-07 07:39:47.26	42.17	25.53	
2025-01-07 07:39:47.47	42.21	25.57	
2025-01-07 07:39:47.67	42.26	25.60	
2025-01-07 07:39:47.88	42.30	25.63	
2025-01-07 07:39:48.08	42.34	25.66	
2025-01-07 07:39:48.29	42.38	25.69	
2025-01-07 07:39:48.49	42.42	25.72	
2025-01-07 07:39:48.70	42.47	25.75	
2025-01-07 07:39:48.90	42.51	25.78	
2025-01-07 07:39:49.11	42.55	25.81	
2025-01-07 07:39:49.31	42.59	25.84	
2025-01-07 07:39:49.52	42.64	25.87	
2025-01-07 07:39:49.72	42.68	25.90	
2025-01-07 07:39:49.93	42.72	25.94	
2025-01-07 07:39:50.13	42.77	25.97	
2025-01-07 07:39:50.34	42.81	26.00	
2025-01-07 07:39:50.55	42.85	26.03	
2025-01-07 07:39:50.75	42.90	26.06	
2025-01-07 07:39:50.96	42.94	26.09	
2025-01-07 07:39:51.16	42.98	26.12	
2025-01-07 07:39:51.37	43.03	26.15	
2025-01-07 07:39:51.57	43.07	26.18	
2025-01-07 07:39:51.78	43.12	26.22	
2025-01-07 07:39:51.98	43.16	26.25	
2025-01-07 07:39:52.19	43.20	26.28	
2025-01-07 07:39:52.39	43.25	26.31	
2025-01-07 07:39:52.60	43.29	26.34	
2025-01-07 07:39:52.80	43.33	26.37	
2025-01-07 07:39:53.01	43.38	26.40	
2025-01-07 07:39:53.22	43.43	26.43	
2025-01-07 07:39:53.43	43.47	26.47	
2025-01-07 07:39:53.64	43.52	26.50	
2025-01-07 07:39:53.84	43.56	26.53	
2025-01-07 07:39:54.05	43.61	26.56	
2025-01-07 07:39:54.27	43.65	26.60	
2025-01-07 07:39:54.47	43.70	26.63	
2025-01-07 07:39:54.68	43.74	26.66	
2025-01-07 07:39:54.88	43.79	26.69	
2025-01-07 07:39:55.09	43.83	26.72	
2025-01-07 07:39:55.29	43.88	26.75	
2025-01-07 07:39:55.50	43.92	26.78	
2025-01-07 07:39:55.70	43.97	26.81	
2025-01-07 07:39:55.91	44.02	26.85	
2025-01-07 07:39:56.12	44.06	26.88	
2025-01-07 07:39:56.33	44.11	26.91	
2025-01-07 07:39:56.54	44.16	26.94	
2025-01-07 07:39:56.75	44.20	26.98	
2025-01-07 07:39:56.95	44.25	27.01	
2025-01-07 07:39:57.16	44.30	27.04	
2025-01-07 07:39:57.36	44.34	27.07	
2025-01-07 07:39:57.57	44.39	27.10	
2025-01-07 07:39:57.78	44.44	27.14	
2025-01-07 07:39:57.98	44.48	27.17	
2025-01-07 07:39:58.19	44.53	27.20	
2025-01-07 07:39:58.39	44.57	27.23	
2025-01-07 07:39:58.59	44.62	27.26	
2025-01-07 07:39:58.80	44.67	27.29	
2025-01-07 07:39:59.00	44.71	27.33	
2025-01-07 07:39:59.21	44.76	27.36	
2025-01-07 07:39:59.41	44.81	27.39	
2025-01-07 07:39:59.63	44.86	27.42	
2025-01-07 07:39:59.84	44.91	27.46	
2025-01-07 07:40:00.04	44.95	27.49	
2025-01-07 07:40:00.24	45.00	27.52	
2025-01-07 07:40:00.45	45.05	27.55	
2025-01-07 07:40:00.67	45.10	27.59	
2025-01-07 07:40:00.87	45.15	27.62	
2025-01-07 07:40:01.08	45.19	27.65	
2025-01-07 07:40:01.28	45.24	27.68	
2025-01-07 07:40:01.49	45.29	27.71	
2025-01-07 07:40:01.69	45.34	27.75	
2025-01-07 07:40:01.90	45.39	27.78	
2025-01-07 07:40:02.10	45.43	27.81	
2025-01-07 07:40:02.31	45.48	27.84	
2025-01-07 07:40:02.51	45.53	27.87	
2025-01-07 07:40:02.72	45.58	27.91	
2025-01-07 07:40:02.92	45.63	27.94	
2025-01-07 07:40:03.13	45.68	27.97	
2025-01-07 07:40:03.33	45.73	28.00	
2025-01-07 07:40:03.54	45.78	28.04	
2025-01-07 07:40:03.74	45.83	28.07	
2025-01-07 07:40:03.95	45.88	28.10	
2025-01-07 07:40:04.15	45.92	28.13	
2025-01-07 07:40:04.36	45.97	28.17	
2025-01-07 07:40:04.56	46.02	28.20	
2025-01-07 07:40:04.77	46.07	28.23	
2025-01-07 07:40:04.97	46.12	28.26	
2025-01-07 07:40:05.18	46.17	28.30	
2025-01-07 07:40:05.39	46.23	28.33	
2025-01-07 07:40:05.59	46.27	28.36	
2025-01-07 07:40:05.80	46.33	28.39	
2025-01-07 07:40:06.00	46.37	28.43	
2025-01-07 07:40:06.21	46.43	28.46	
2025-01-07 07:40:06.41	46.48	28.49	
2025-01-07 07:40:06.62	46.53	28.52	
2025-01-07 07:40:06.82	46.58	28.56	
2025-01-07 07:40:07.03	46.63	28.59	
2025-01-07 07:40:07.23	46.68	28.62	
2025-01-07 07:40:07.44	46.73	28.66	
2025-01-07 07:40:07.64	46.78	28.69	
2025-01-07 07:40:07.85	46.83	28.72	
2025-01-07 07:40:08.05	46.88	28.75	
2025-01-07 07:40:08.26	46.94	28.79	
2025-01-07 07:40:08.47	46.99	28.82	
2025-01-07 07:40:08.67	47.04	28.85	
2025-01-07 07:40:08.88	47.09	28.89	
2025-01-07 07:40:09.08	47.14	28.92	
2025-01-07 07:40:09.29	47.20	28.95	
2025-01-07 07:40:09.49	47.25	28.98	
2025-01-07 07:40:09.70	47.30	29.02	
2025-01-07 07:40:09.90	47.35	29.05	
2025-01-07 07:40:10.11	47.41	29.08	
2025-01-07 07:40:10.31	47.46	29.11	
2025-01-07 07:40:10.52	47.51	29.15	
2025-01-07 07:40:10.72	47.56	29.18	
2025-01-07 07:40:10.93	47.62	29.21	
2025-01-07 07:40:11.13	47.67	29.25	
2025-01-07 07:40:11.34	47.72	29.28	
2025-01-07 07:40:11.54	47.78	29.31	
2025-01-07 07:40:11.75	47.83	29.35	
2025-01-07 07:40:11.95	47.88	29.38	
2025-01-07 07:40:12.16	47.94	29.41	
2025-01-07 07:40:12.36	47.99	29.44	
2025-01-07 07:40:12.57	48.04	29.48	
2025-01-07 07:40:12.78	48.10	29.51	
2025-01-07 07:40:12.98	48.15	29.54	
2025-01-07 07:40:13.19	48.21	29.58	
2025-01-07 07:40:13.39	48.26	29.61	
2025-01-07 07:40:13.60	48.32	29.65	
2025-01-07 07:40:13.80	48.37	29.68	
2025-01-07 07:40:14.01	48.43	29.71	
2025-01-07 07:40:14.21	48.48	29.74	
2025-01-07 07:40:14.42	48.53	29.78	
2025-01-07 07:40:14.63	48.59	29.81	
2025-01-07 07:40:14.83	48.64	29.84	
2025-01-07 07:40:15.04	48.70	29.88	
2025-01-07 07:40:15.24	48.76	29.91	
2025-01-07 07:40:15.45	48.81	29.95	
2025-01-07 07:40:15.65	48.87	29.98	
2025-01-07 07:40:15.86	48.92	30.01	
2025-01-07 07:40:16.06	48.98	30.04	
2025-01-07 07:40:16.27	49.03	30.08	
2025-01-07 07:40:16.47	49.09	30.11	
2025-01-07 07:40:16.68	49.15	30.15	
2025-01-07 07:40:16.88	49.20	30.18	
2025-01-07 07:40:17.09	49.26	30.21	
2025-01-07 07:40:17.29	49.31	30.24	
2025-01-07 07:40:17.50	49.37	30.28	
2025-01-07 07:40:17.70	49.43	30.31	
2025-01-07 07:40:17.90	49.48	30.34	
2025-01-07 07:40:18.11	49.54	30.38	
2025-01-07 07:40:18.32	49.60	30.41	
2025-01-07 07:40:18.52	49.66	30.45	
2025-01-07 07:40:18.73	49.71	30.48	
2025-01-07 07:40:18.93	49.77	30.51	
2025-01-07 07:40:19.14	49.83	30.55	
2025-01-07 07:40:19.34	49.89	30.58	
2025-01-07 07:40:19.55	49.95	30.61	
2025-01-07 07:40:19.75	50.00	30.65	
2025-01-07 07:40:19.96	50.06	30.68	
2025-01-07 07:40:20.16	50.12	30.71	
2025-01-07 07:40:20.37	50.18	30.75	
2025-01-07 07:40:20.57	50.23	30.78	
2025-01-07 07:40:20.78	50.29	30.82	
2025-01-07 07:40:20.98	50.35	30.85	
2025-01-07 07:40:21.19	50.41	30.88	
2025-01-07 07:40:21.39	50.47	30.92	
2025-01-07 07:40:21.60	50.53	30.95	
2025-01-07 07:40:21.80	50.59	30.98	
2025-01-07 07:40:22.01	50.65	31.02	
2025-01-07 07:40:22.21	50.71	31.05	
2025-01-07 07:40:22.42	50.77	31.08	
2025-01-07 07:40:22.62	50.83	31.12	
2025-01-07 07:40:22.83	50.89	31.15	
2025-01-07 07:40:23.03	50.94	31.19	
2025-01-07 07:40:23.24	51.01	31.22	
2025-01-07 07:40:23.44	51.07	31.25	
2025-01-07 07:40:23.65	51.13	31.29	
2025-01-07 07:40:23.85	51.19	31.32	
2025-01-07 07:40:24.06	51.25	31.35	
2025-01-07 07:40:24.26	51.31	31.39	
2025-01-07 07:40:24.47	51.37	31.42	
2025-01-07 07:40:24.67	51.43	31.46	
2025-01-07 07:40:24.88	51.49	31.49	
2025-01-07 07:40:25.09	51.55	31.52	
2025-01-07 07:40:25.29	51.61	31.56	
2025-01-07 07:40:25.49	51.67	31.59	
2025-01-07 07:40:25.70	51.74	31.63	
2025-01-07 07:40:25.90	51.80	31.66	
2025-01-07 07:40:26.11	51.86	31.69	
2025-01-07 07:40:26.31	51.92	31.73	
2025-01-07 07:40:26.52	51.98	31.76	
2025-01-07 07:40:26.72	52.04	31.79	
2025-01-07 07:40:26.93	52.11	31.83	
2025-01-07 07:40:27.13	52.17	31.86	
2025-01-07 07:40:27.34	52.23	31.90	
2025-01-07 07:40:27.54	52.30	31.93	
2025-01-07 07:40:27.75	52.36	31.96	
2025-01-07 07:40:27.96	52.42	32.00	
2025-01-07 07:40:28.16	52.49	32.03	
2025-01-07 07:40:28.36	52.55	32.06	
2025-01-07 07:40:28.57	52.61	32.10	
2025-01-07 07:40:28.78	52.68	32.13	
2025-01-07 07:40:28.98	52.74	32.17	
2025-01-07 07:40:29.19	52.81	32.20	
2025-01-07 07:40:29.39	52.87	32.24	
2025-01-07 07:40:29.60	52.93	32.27	
2025-01-07 07:40:29.80	53.00	32.30	
2025-01-07 07:40:30.01	53.06	32.34	
2025-01-07 07:40:30.21	53.12	32.37	
2025-01-07 07:40:30.42	53.19	32.41	
2025-01-07 07:40:30.62	53.25	32.44	
2025-01-07 07:40:30.83	53.32	32.47	
2025-01-07 07:40:31.03	53.38	32.51	
2025-01-07 07:40:31.24	53.45	32.54	
2025-01-07 07:40:31.44	53.51	32.57	
2025-01-07 07:40:31.65	53.58	32.61	
2025-01-07 07:40:31.85	53.65	32.64	
2025-01-07 07:40:32.06	53.71	32.68	
2025-01-07 07:40:32.26	53.78	32.71	
2025-01-07 07:40:32.47	53.85	32.75	
2025-01-07 07:40:32.67	53.91	32.78	
2025-01-07 07:40:32.88	53.98	32.81	
2025-01-07 07:40:33.09	54.05	32.85	
2025-01-07 07:40:33.29	54.11	32.88	
2025-01-07 07:40:33.50	54.18	32.92	
2025-01-07 07:40:33.70	54.24	32.95	
2025-01-07 07:40:33.91	54.31	32.98	
2025-01-07 07:40:34.11	54.38	33.02	
2025-01-07 07:40:34.32	54.45	33.05	
2025-01-07 07:40:34.52	54.51	33.08	
2025-01-07 07:40:34.73	54.58	33.12	
2025-01-07 07:40:34.93	54.65	33.15	
2025-01-07 07:40:35.14	54.72	33.19	
2025-01-07 07:40:35.34	54.78	33.22	
2025-01-07 07:40:35.55	54.85	33.26	
2025-01-07 07:40:35.75	54.92	33.29	
2025-01-07 07:40:35.96	54.99	33.32	
2025-01-07 07:40:36.16	55.06	33.36	
2025-01-07 07:40:36.37	55.13	33.39	
2025-01-07 07:40:36.57	55.20	33.42	
2025-01-07 07:40:36.78	55.27	33.46	
2025-01-07 07:40:36.98	55.33	33.49	
2025-01-07 07:40:37.19	55.40	33.53	
2025-01-07 07:40:37.39	55.47	33.56	
2025-01-07 07:40:37.60	55.54	33.59	
2025-01-07 07:40:37.80	55.61	33.63	
2025-01-07 07:40:38.01	55.68	33.66	
2025-01-07 07:40:38.22	55.76	33.70	
2025-01-07 07:40:38.42	55.82	33.73	
2025-01-07 07:40:38.63	55.90	33.77	
2025-01-07 07:40:38.83	55.96	33.80	
2025-01-07 07:40:39.04	56.04	33.83	
2025-01-07 07:40:39.24	56.11	33.87	
2025-01-07 07:40:39.45	56.18	33.90	
2025-01-07 07:40:39.65	56.25	33.93	
2025-01-07 07:40:39.86	56.32	33.97	
2025-01-07 07:40:40.07	56.39	34.00	
2025-01-07 07:40:40.28	56.47	34.04	
2025-01-07 07:40:40.49	56.54	34.07	
2025-01-07 07:40:40.70	56.62	34.11	
2025-01-07 07:40:40.90	56.69	34.14	
2025-01-07 07:40:41.11	56.76	34.17	
2025-01-07 07:40:41.31	56.83	34.21	
2025-01-07 07:40:41.51	56.90	34.24	
2025-01-07 07:40:41.72	56.98	34.27	
2025-01-07 07:40:41.92	57.05	34.31	
2025-01-07 07:40:42.13	57.12	34.34	
2025-01-07 07:40:42.34	57.20	34.38	
2025-01-07 07:40:42.54	57.27	34.41	
2025-01-07 07:40:42.75	57.34	34.44	
2025-01-07 07:40:42.95	57.41	34.48	
2025-01-07 07:40:43.16	57.49	34.51	
2025-01-07 07:40:43.38	57.57	34.55	
2025-01-07 07:40:43.58	57.64	34.58	
2025-01-07 07:40:43.79	57.72	34.62	
2025-01-07 07:40:44.01	57.80	34.65	
2025-01-07 07:40:44.21	57.87	34.68	
2025-01-07 07:40:44.41	57.94	34.72	
2025-01-07 07:40:44.62	58.02	34.75	
2025-01-07 07:40:44.82	58.09	34.78	
2025-01-07 07:40:45.03	58.17	34.82	
2025-01-07 07:40:45.23	58.24	34.85	
2025-01-07 07:40:45.44	58.32	34.89	
2025-01-07 07:40:45.64	58.39	34.92	
2025-01-07 07:40:45.85	58.47	34.95	
2025-01-07 07:40:46.05	58.55	34.98	
2025-01-07 07:40:46.26	58.62	35.02	
2025-01-07 07:40:46.46	58.70	35.05	
2025-01-07 07:40:46.66	58.77	35.08	
2025-01-07 07:40:46.87	58.85	35.12	
2025-01-07 07:40:47.07	58.93	35.15	
2025-01-07 07:40:47.28	59.00	35.19	
2025-01-07 07:40:47.49	59.08	35.22	
2025-01-07 07:40:47.70	59.16	35.25	
2025-01-07 07:40:47.91	59.24	35.29	
2025-01-07 07:40:48.12	59.32	35.32	
2025-01-07 07:40:48.32	59.40	35.35	
2025-01-07 07:40:48.53	59.48	35.39	
2025-01-07 07:40:48.73	59.55	35.42	
2025-01-07 07:40:48.93	59.63	35.45	
2025-01-07 07:40:49.14	59.71	35.49	
2025-01-07 07:40:49.34	59.79	35.52	
2025-01-07 07:40:49.55	59.87	35.55	
2025-01-07 07:40:49.75	59.94	35.59	
2025-01-07 07:40:49.96	60.02	35.62	
2025-01-07 07:40:50.17	60.11	35.65	
2025-01-07 07:40:50.37	60.18	35.69	
2025-01-07 07:40:50.58	60.26	35.72	
2025-01-07 07:40:50.78	60.34	35.75	
2025-01-07 07:40:50.98	60.42	35.78	
2025-01-07 07:40:51.19	60.50	35.82	
2025-01-07 07:40:51.40	60.58	35.85	
2025-01-07 07:40:51.60	60.66	35.88	
2025-01-07 07:40:51.81	60.74	35.92	
2025-01-07 07:40:52.02	60.83	35.95	
2025-01-07 07:40:52.23	60.91	35.99	
2025-01-07 07:40:52.43	60.99	36.02	
2025-01-07 07:40:52.64	61.07	36.05	
2025-01-07 07:40:52.85	61.15	36.08	
2025-01-07 07:40:53.05	61.23	36.12	
2025-01-07 07:40:53.26	61.32	36.15	
2025-01-07 07:40:53.46	61.40	36.18	
2025-01-07 07:40:53.67	61.48	36.22	
2025-01-07 07:40:53.87	61.56	36.25	
2025-01-07 07:40:54.08	61.65	36.28	
2025-01-07 07:40:54.28	61.73	36.31	
2025-01-07 07:40:54.49	61.81	36.35	
2025-01-07 07:40:54.70	61.90	36.38	
2025-01-07 07:40:54.90	61.98	36.41	
2025-01-07 07:40:55.10	62.06	36.44	
2025-01-07 07:40:55.31	62.14	36.48	
2025-01-07 07:40:55.51	62.22	36.51	
2025-01-07 07:40:55.72	62.31	36.54	
2025-01-07 07:40:55.92	62.39	36.57	
2025-01-07 07:40:56.13	62.48	36.61	
2025-01-07 07:40:56.33	62.56	36.64	
2025-01-07 07:40:56.55	62.65	36.67	
2025-01-07 07:40:56.75	62.73	36.70	
2025-01-07 07:40:56.96	62.82	36.74	
2025-01-07 07:40:57.17	62.91	36.77	
2025-01-07 07:40:57.37	62.99	36.80	
2025-01-07 07:40:57.58	63.08	36.83	
2025-01-07 07:40:57.78	63.16	36.86	
2025-01-07 07:40:57.99	63.25	36.90	
2025-01-07 07:40:58.19	63.33	36.93	
2025-01-07 07:40:58.41	63.42	36.96	
2025-01-07 07:40:58.61	63.51	36.99	
2025-01-07 07:40:58.82	63.60	37.03	
2025-01-07 07:40:59.03	63.68	37.06	
2025-01-07 07:40:59.23	63.77	37.09	
2025-01-07 07:40:59.45	63.86	37.12	
2025-01-07 07:40:59.66	63.95	37.16	
2025-01-07 07:40:59.86	64.04	37.19	
2025-01-07 07:41:00.07	64.13	37.22	
2025-01-07 07:41:00.27	64.21	37.25	
2025-01-07 07:41:00.48	64.30	37.28	
2025-01-07 07:41:00.68	64.39	37.31	
2025-01-07 07:41:00.89	64.48	37.35	
2025-01-07 07:41:01.09	64.56	37.38	
2025-01-07 07:41:01.30	64.65	37.41	
2025-01-07 07:41:01.50	64.74	37.44	
2025-01-07 07:41:01.71	64.83	37.47	
2025-01-07 07:41:01.91	64.92	37.50	
2025-01-07 07:41:02.12	65.01	37.53	
2025-01-07 07:41:02.33	65.10	37.57	
2025-01-07 07:41:02.53	65.19	37.60	
2025-01-07 07:41:02.74	65.28	37.63	
2025-01-07 07:41:02.94	65.36	37.66	
2025-01-07 07:41:03.15	65.46	37.69	
2025-01-07 07:41:03.35	65.54	37.72	
2025-01-07 07:41:03.56	65.64	37.75	
2025-01-07 07:41:03.77	65.73	37.78	
2025-01-07 07:41:03.98	65.82	37.81	
2025-01-07 07:41:04.19	65.91	37.85	
2025-01-07 07:41:04.39	66.00	37.88	
2025-01-07 07:41:04.60	66.10	37.91	
2025-01-07 07:41:04.82	66.19	37.94	
2025-01-07 07:41:05.02	66.28	37.97	
2025-01-07 07:41:05.23	66.38	38.00	
2025-01-07 07:41:05.43	66.47	38.03	
2025-01-07 07:41:05.64	66.56	38.06	
2025-01-07 07:41:05.84	66.65	38.09	
2025-01-07 07:41:06.05	66.75	38.12	
2025-01-07 07:41:06.26	66.84	38.15	
2025-01-07 07:41:06.46	66.93	38.18	
2025-01-07 07:41:06.67	67.03	38.21	
2025-01-07 07:41:06.87	67.12	38.24	
2025-01-07 07:41:07.08	67.21	38.27	
2025-01-07 07:41:07.28	67.30	38.30	
2025-01-07 07:41:07.49	67.40	38.33	
2025-01-07 07:41:07.69	67.49	38.36	
2025-01-07 07:41:07.90	67.59	38.39	
2025-01-07 07:41:08.10	67.68	38.42	
2025-01-07 07:41:08.31	67.77	38.45	
2025-01-07 07:41:08.51	67.87	38.48	
2025-01-07 07:41:08.72	67.96	38.51	
2025-01-07 07:41:08.92	68.06	38.54	
2025-01-07 07:41:09.13	68.15	38.57	
2025-01-07 07:41:09.33	68.25	38.60	
2025-01-07 07:41:09.54	68.34	38.63	
2025-01-07 07:41:09.75	68.44	38.66	
2025-01-07 07:41:09.95	68.53	38.69	
2025-01-07 07:41:10.16	68.63	38.72	
2025-01-07 07:41:10.36	68.73	38.75	
2025-01-07 07:41:10.57	68.82	38.78	
2025-01-07 07:41:10.78	68.92	38.81	
2025-01-07 07:41:10.98	69.02	38.83	
2025-01-07 07:41:11.18	69.11	38.86	
2025-01-07 07:41:11.39	69.21	38.89	
2025-01-07 07:41:11.59	69.31	38.92	
2025-01-07 07:41:11.80	69.40	38.95	
2025-01-07 07:41:12.00	69.50	38.98	
2025-01-07 07:41:12.21	69.60	39.01	
2025-01-07 07:41:12.41	69.69	39.03	
2025-01-07 07:41:12.62	69.80	39.06	
2025-01-07 07:41:12.83	69.90	39.09	
2025-01-07 07:41:13.03	69.99	39.12	
2025-01-07 07:41:13.24	70.09	39.15	
2025-01-07 07:41:13.44	70.19	39.18	
2025-01-07 07:41:13.65	70.29	39.20	
2025-01-07 07:41:13.85	70.39	39.23	
2025-01-07 07:41:14.06	70.49	39.26	
2025-01-07 07:41:14.27	70.59	39.29	
2025-01-07 07:41:14.47	70.69	39.32	
2025-01-07 07:41:14.68	70.79	39.34	
2025-01-07 07:41:14.88	70.89	39.37	
2025-01-07 07:41:15.09	70.99	39.40	
2025-01-07 07:41:15.30	71.09	39.43	
2025-01-07 07:41:15.50	71.19	39.46	
2025-01-07 07:41:15.71	71.29	39.48	
2025-01-07 07:41:15.91	71.39	39.51	
2025-01-07 07:41:16.12	71.49	39.54	
2025-01-07 07:41:16.32	71.59	39.56	
2025-01-07 07:41:16.53	71.69	39.59	
2025-01-07 07:41:16.73	71.79	39.62	
2025-01-07 07:41:16.94	71.90	39.65	
2025-01-07 07:41:17.15	72.00	39.67	
2025-01-07 07:41:17.35	72.10	39.70	
2025-01-07 07:41:17.55	72.20	39.73	
2025-01-07 07:41:17.76	72.30	39.75	
2025-01-07 07:41:17.97	72.41	39.78	
2025-01-07 07:41:18.17	72.51	39.81	
2025-01-07 07:41:18.38	72.61	39.83	
2025-01-07 07:41:18.58	72.71	39.86	
2025-01-07 07:41:18.79	72.82	39.89	
2025-01-07 07:41:18.99	72.92	39.91	
2025-01-07 07:41:19.20	73.03	39.94	
2025-01-07 07:41:19.40	73.13	39.96	
2025-01-07 07:41:19.61	73.23	39.99	
2025-01-07 07:41:19.81	73.34	40.01	
2025-01-07 07:41:20.02	73.44	40.04	
2025-01-07 07:41:20.23	73.55	40.07	
2025-01-07 07:41:20.43	73.65	40.09	
2025-01-07 07:41:20.64	73.76	40.12	
2025-01-07 07:41:20.85	73.86	40.14	
2025-01-07 07:41:21.06	73.97	40.17	
2025-01-07 07:41:21.26	74.07	40.19	
2025-01-07 07:41:21.47	74.18	40.22	
2025-01-07 07:41:21.68	74.29	40.25	
2025-01-07 07:41:21.88	74.39	40.27	
2025-01-07 07:41:22.08	74.50	40.29	
2025-01-07 07:41:22.29	74.60	40.32	
2025-01-07 07:41:22.49	74.71	40.34	
2025-01-07 07:41:22.70	74.82	40.37	
2025-01-07 07:41:22.90	74.92	40.39	
2025-01-07 07:41:23.11	75.03	40.42	
2025-01-07 07:41:23.31	75.13	40.44	
2025-01-07 07:41:23.52	75.24	40.47	
2025-01-07 07:41:23.73	75.35	40.49	
2025-01-07 07:41:23.93	75.46	40.52	
2025-01-07 07:41:24.14	75.57	40.54	
2025-01-07 07:41:24.34	75.67	40.56	
2025-01-07 07:41:24.55	75.78	40.59	
2025-01-07 07:41:24.75	75.89	40.61	
2025-01-07 07:41:24.96	76.00	40.63	
2025-01-07 07:41:25.16	76.10	40.66	
2025-01-07 07:41:25.37	76.21	40.68	
2025-01-07 07:41:25.57	76.32	40.70	
2025-01-07 07:41:25.78	76.43	40.73	
2025-01-07 07:41:25.98	76.54	40.75	
2025-01-07 07:41:26.20	76.65	40.78	
2025-01-07 07:41:26.41	76.77	40.80	
2025-01-07 07:41:26.61	76.87	40.82	
2025-01-07 07:41:26.82	76.98	40.84	
2025-01-07 07:41:27.02	77.09	40.87	
2025-01-07 07:41:27.22	77.20	40.89	
2025-01-07 07:41:27.43	77.31	40.91	
2025-01-07 07:41:27.64	77.42	40.93	
2025-01-07 07:41:27.84	77.53	40.96	
2025-01-07 07:41:28.05	77.64	40.98	
2025-01-07 07:41:28.25	77.75	41.00	
2025-01-07 07:41:28.46	77.86	41.02	
2025-01-07 07:41:28.66	77.97	41.04	
2025-01-07 07:41:28.87	78.09	41.07	
2025-01-07 07:41:29.08	78.20	41.09	
2025-01-07 07:41:29.28	78.31	41.11	
2025-01-07 07:41:29.49	78.42	41.13	
2025-01-07 07:41:29.69	78.53	41.15	
2025-01-07 07:41:29.90	78.65	41.17	
2025-01-07 07:41:30.10	78.75	41.19	
2025-01-07 07:41:30.31	78.87	41.22	
2025-01-07 07:41:30.53	78.99	41.24	
2025-01-07 07:41:30.74	79.10	41.26	
2025-01-07 07:41:30.94	79.21	41.28	
2025-01-07 07:41:31.15	79.33	41.30	
2025-01-07 07:41:31.35	79.44	41.32	
2025-01-07 07:41:31.56	79.55	41.34	
2025-01-07 07:41:31.76	79.67	41.36	
2025-01-07 07:41:31.97	79.78	41.38	
2025-01-07 07:41:32.17	79.89	41.40	
2025-01-07 07:41:32.38	80.01	41.42	
2025-01-07 07:41:32.58	80.12	41.44	
2025-01-07 07:41:32.79	80.23	41.46	
2025-01-07 07:41:32.99	80.35	41.48	
2025-01-07 07:41:33.20	80.46	41.50	
2025-01-07 07:41:33.41	80.58	41.52	
2025-01-07 07:41:33.61	80.69	41.54	
2025-01-07 07:41:33.82	80.81	41.56	
2025-01-07 07:41:34.02	80.92	41.58	
2025-01-07 07:41:34.23	81.04	41.60	
2025-01-07 07:41:34.43	81.15	41.62	
2025-01-07 07:41:34.64	81.27	41.63	
2025-01-07 07:41:34.84	81.38	41.65	
2025-01-07 07:41:35.05	81.50	41.67	
2025-01-07 07:41:35.25	81.61	41.69	
2025-01-07 07:41:35.46	81.73	41.71	
2025-01-07 07:41:35.67	81.85	41.73	
2025-01-07 07:41:35.87	81.96	41.74	
2025-01-07 07:41:36.08	82.08	41.76	
2025-01-07 07:41:36.28	82.19	41.78	
2025-01-07 07:41:36.49	82.31	41.80	
2025-01-07 07:41:36.70	82.43	41.82	
2025-01-07 07:41:36.91	82.55	41.83	
2025-01-07 07:41:37.12	82.67	41.85	
2025-01-07 07:41:37.33	82.79	41.87	
2025-01-07 07:41:37.53	82.90	41.89	
2025-01-07 07:41:37.74	83.02	41.90	
2025-01-07 07:41:37.94	83.14	41.92	
2025-01-07 07:41:38.14	83.25	41.94	
2025-01-07 07:41:38.35	83.37	41.95	
2025-01-07 07:41:38.56	83.49	41.97	
2025-01-07 07:41:38.76	83.60	41.99	
2025-01-07 07:41:38.96	83.72	42.00	
2025-01-07 07:41:39.17	83.84	42.02	
2025-01-07 07:41:39.38	83.96	42.03	
2025-01-07 07:41:39.58	84.08	42.05	
2025-01-07 07:41:39.79	84.20	42.07	
2025-01-07 07:41:39.99	84.31	42.08	
2025-01-07 07:41:40.19	84.43	42.10	
2025-01-07 07:41:40.40	84.55	42.11	
2025-01-07 07:41:40.61	84.67	42.13	
2025-01-07 07:41:40.81	84.79	42.14	
2025-01-07 07:41:41.02	84.91	42.16	
2025-01-07 07:41:41.22	85.02	42.17	
2025-01-07 07:41:41.43	85.15	42.19	
2025-01-07 07:41:41.63	85.26	42.20	
2025-01-07 07:41:41.84	85.38	42.21	
2025-01-07 07:41:42.04	85.50	42.23	
2025-01-07 07:41:42.25	85.62	42.24	
2025-01-07 07:41:42.45	85.74	42.26	
2025-01-07 07:41:42.66	85.86	42.27	
2025-01-07 07:41:42.86	85.98	42.28	
2025-01-07 07:41:43.07	86.10	42.30	
2025-01-07 07:41:43.27	86.22	42.31	
2025-01-07 07:41:43.48	86.34	42.33	
2025-01-07 07:41:43.68	86.46	42.34	
2025-01-07 07:41:43.89	86.58	42.35	
2025-01-07 07:41:44.10	86.70	42.36	
2025-01-07 07:41:44.30	86.82	42.38	
2025-01-07 07:41:44.50	86.94	42.39	
2025-01-07 07:41:44.71	87.06	42.40	
2025-01-07 07:41:44.92	87.19	42.42	
2025-01-07 07:41:45.12	87.30	42.43	
2025-01-07 07:41:45.33	87.43	42.44	
2025-01-07 07:41:45.53	87.55	42.45	
2025-01-07 07:41:45.74	87.67	42.46	
2025-01-07 07:41:45.94	87.79	42.48	
2025-01-07 07:41:46.15	87.91	42.49	
2025-01-07 07:41:46.36	88.04	42.50	
2025-01-07 07:41:46.56	88.16	42.51	
2025-01-07 07:41:46.77	88.28	42.52	
2025-01-07 07:41:46.97	88.40	42.53	
2025-01-07 07:41:47.18	88.52	42.54	
2025-01-07 07:41:47.38	88.64	42.55	
2025-01-07 07:41:47.59	88.77	42.56	
2025-01-07 07:41:47.79	88.89	42.58	
2025-01-07 07:41:48.00	89.01	42.59	
2025-01-07 07:41:48.20	89.13	42.60	
2025-01-07 07:41:48.41	89.26	42.61	
2025-01-07 07:41:48.62	89.38	42.62	
2025-01-07 07:41:48.82	89.50	42.63	
2025-01-07 07:41:49.03	89.63	42.64	
2025-01-07 07:41:49.23	89.75	42.65	
2025-01-07 07:41:49.44	89.87	42.65	
2025-01-07 07:41:49.64	89.99	42.66	
2025-01-07 07:41:49.85	90.12	42.67	
2025-01-07 07:41:50.06	90.24	42.68	
2025-01-07 07:41:50.26	90.36	42.69	
2025-01-07 07:41:50.47	90.49	42.70	
2025-01-07 07:41:50.67	90.61	42.71	
2025-01-07 07:41:50.88	90.73	42.72	
2025-01-07 07:41:51.10	90.87	42.73	
2025-01-07 07:41:51.30	90.99	42.73	
2025-01-07 07:41:51.51	91.11	42.74	
2025-01-07 07:41:51.72	91.24	42.75	
2025-01-07 07:41:51.92	91.36	42.76	
2025-01-07 07:41:52.12	91.48	42.77	
2025-01-07 07:41:52.33	91.61	42.77	
2025-01-07 07:41:52.54	91.73	42.78	
2025-01-07 07:41:52.74	91.85	42.79	
2025-01-07 07:41:52.94	91.97	42.79	
2025-01-07 07:41:53.15	92.10	42.80	
2025-01-07 07:41:53.36	92.23	42.81	
2025-01-07 07:41:53.56	92.35	42.81	
2025-01-07 07:41:53.77	92.48	42.82	
2025-01-07 07:41:53.99	92.61	42.83	
2025-01-07 07:41:54.19	92.73	42.83	
2025-01-07 07:41:54.40	92.86	42.84	
2025-01-07 07:41:54.61	92.98	42.85	
2025-01-07 07:41:54.81	93.11	42.85	
2025-01-07 07:41:55.02	93.23	42.86	
2025-01-07 07:41:55.22	93.35	42.86	
2025-01-07 07:41:55.43	93.48	42.87	
2025-01-07 07:41:55.63	93.60	42.87	
2025-01-07 07:41:55.84	93.73	42.88	
2025-01-07 07:41:56.04	93.85	42.88	
2025-01-07 07:41:56.25	93.98	42.89	
2025-01-07 07:41:56.45	94.10	42.89	
2025-01-07 07:41:56.66	94.23	42.90	
2025-01-07 07:41:56.87	94.36	42.90	
