passes_logs/2025/01/07/SPB_Silybum_02/SPB_Silybum_02__20250107_111201_AQUA_rec.log

#Pass ID: 20250107_111201_AQUA
#Satellite: AQUA
#Configuration: AQUA
#Start time: 2025-01-07 11:12:00

#Version: 2.0.20230423
#Station: SPB_Silybum_02
#Location: 30.233357 lon 59.946436 lat
#TLE: 1 27424U 02022A   25006.84785145  .00002945  00000+0  61491-3 0  9993
#TLE: 2 27424  98.3576 323.4392 0001407 119.3107 268.2761 14.60650503206436

#Time	Az	El	Level	Level2	SNR	BER	Gain	Gain2
2025-01-07 11:12:02.93	155.13	4.09	
2025-01-07 11:12:03.14	155.13	4.11	
2025-01-07 11:12:03.34	155.13	4.12	
2025-01-07 11:12:03.55	155.13	4.14	
2025-01-07 11:12:03.75	155.13	4.15	
2025-01-07 11:12:03.96	155.12	4.17	
2025-01-07 11:12:04.17	155.12	4.18	
2025-01-07 11:12:04.37	155.12	4.20	
2025-01-07 11:12:04.57	155.12	4.21	
2025-01-07 11:12:04.78	155.12	4.22	
2025-01-07 11:12:04.98	155.12	4.24	
2025-01-07 11:12:05.19	155.12	4.25	
2025-01-07 11:12:05.40	155.12	4.27	
2025-01-07 11:12:05.60	155.11	4.28	
2025-01-07 11:12:05.81	155.11	4.30	
2025-01-07 11:12:06.01	155.11	4.31	
2025-01-07 11:12:06.22	155.11	4.33	
2025-01-07 11:12:06.42	155.11	4.34	
2025-01-07 11:12:06.63	155.11	4.36	
2025-01-07 11:12:06.83	155.11	4.37	
2025-01-07 11:12:07.04	155.11	4.39	
2025-01-07 11:12:07.24	155.10	4.40	
2025-01-07 11:12:07.45	155.10	4.42	
2025-01-07 11:12:07.66	155.10	4.44	
2025-01-07 11:12:07.86	155.10	4.45	
2025-01-07 11:12:08.07	155.10	4.47	
2025-01-07 11:12:08.27	155.10	4.48	
2025-01-07 11:12:08.48	155.10	4.50	
2025-01-07 11:12:08.68	155.10	4.51	
2025-01-07 11:12:08.89	155.09	4.53	
2025-01-07 11:12:09.10	155.09	4.54	
2025-01-07 11:12:09.30	155.09	4.56	
2025-01-07 11:12:09.51	155.09	4.57	
2025-01-07 11:12:09.71	155.09	4.59	
2025-01-07 11:12:09.91	155.09	4.60	
2025-01-07 11:12:10.12	155.09	4.62	
2025-01-07 11:12:10.33	155.09	4.63	
2025-01-07 11:12:10.53	155.08	4.65	
2025-01-07 11:12:10.74	155.08	4.66	
2025-01-07 11:12:10.94	155.08	4.68	
2025-01-07 11:12:11.16	155.08	4.69	
2025-01-07 11:12:11.36	155.08	4.71	
2025-01-07 11:12:11.57	155.08	4.72	
2025-01-07 11:12:11.78	155.08	4.74	
2025-01-07 11:12:11.98	155.08	4.75	
2025-01-07 11:12:12.19	155.07	4.77	
2025-01-07 11:12:12.39	155.07	4.78	
2025-01-07 11:12:12.60	155.07	4.80	
2025-01-07 11:12:12.80	155.07	4.82	
2025-01-07 11:12:13.01	155.07	4.83	
2025-01-07 11:12:13.23	155.07	4.85	
2025-01-07 11:12:13.43	155.07	4.86	
2025-01-07 11:12:13.64	155.06	4.88	
2025-01-07 11:12:13.84	155.06	4.89	
2025-01-07 11:12:14.05	155.06	4.91	
2025-01-07 11:12:14.26	155.06	4.92	
2025-01-07 11:12:14.46	155.06	4.94	
2025-01-07 11:12:14.67	155.06	4.96	
2025-01-07 11:12:14.87	155.06	4.97	
2025-01-07 11:12:15.09	155.06	4.99	
2025-01-07 11:12:15.29	155.05	5.00	
2025-01-07 11:12:15.50	155.05	5.02	
2025-01-07 11:12:15.70	155.05	5.03	
2025-01-07 11:12:15.91	155.05	5.05	
2025-01-07 11:12:16.12	155.05	5.06	
2025-01-07 11:12:16.32	155.05	5.08	
2025-01-07 11:12:16.54	155.05	5.10	
2025-01-07 11:12:16.74	155.04	5.11	
2025-01-07 11:12:16.95	155.04	5.13	
2025-01-07 11:12:17.16	155.04	5.14	
2025-01-07 11:12:17.36	155.04	5.16	
2025-01-07 11:12:17.58	155.04	5.17	
2025-01-07 11:12:17.78	155.04	5.19	
2025-01-07 11:12:17.99	155.04	5.21	
2025-01-07 11:12:18.19	155.03	5.22	
2025-01-07 11:12:18.40	155.03	5.24	
2025-01-07 11:12:18.60	155.03	5.25	
2025-01-07 11:12:18.81	155.03	5.27	
2025-01-07 11:12:19.01	155.03	5.28	
2025-01-07 11:12:19.22	155.03	5.30	
2025-01-07 11:12:19.42	155.03	5.31	
2025-01-07 11:12:19.63	155.03	5.33	
2025-01-07 11:12:19.83	155.02	5.35	
2025-01-07 11:12:20.04	155.02	5.36	
2025-01-07 11:12:20.25	155.02	5.38	
2025-01-07 11:12:20.45	155.02	5.39	
2025-01-07 11:12:20.66	155.02	5.41	
2025-01-07 11:12:20.86	155.02	5.42	
2025-01-07 11:12:21.07	155.02	5.44	
2025-01-07 11:12:21.27	155.01	5.46	
2025-01-07 11:12:21.48	155.01	5.47	
2025-01-07 11:12:21.68	155.01	5.49	
2025-01-07 11:12:21.89	155.01	5.50	
2025-01-07 11:12:22.10	155.01	5.52	
2025-01-07 11:12:22.30	155.01	5.53	
2025-01-07 11:12:22.51	155.01	5.55	
2025-01-07 11:12:22.71	155.00	5.57	
2025-01-07 11:12:22.92	155.00	5.58	
2025-01-07 11:12:23.12	155.00	5.60	
2025-01-07 11:12:23.33	155.00	5.61	
2025-01-07 11:12:23.54	155.00	5.63	
2025-01-07 11:12:23.74	155.00	5.65	
2025-01-07 11:12:23.94	155.00	5.66	
2025-01-07 11:12:24.15	154.99	5.68	
2025-01-07 11:12:24.36	154.99	5.69	
2025-01-07 11:12:24.56	154.99	5.71	
2025-01-07 11:12:24.77	154.99	5.72	
2025-01-07 11:12:24.99	154.99	5.74	
2025-01-07 11:12:25.19	154.99	5.76	
2025-01-07 11:12:25.40	154.99	5.77	
2025-01-07 11:12:25.61	154.98	5.79	
2025-01-07 11:12:25.81	154.98	5.81	
2025-01-07 11:12:26.02	154.98	5.82	
2025-01-07 11:12:26.22	154.98	5.84	
2025-01-07 11:12:26.43	154.98	5.85	
2025-01-07 11:12:26.63	154.98	5.87	
2025-01-07 11:12:26.84	154.97	5.89	
2025-01-07 11:12:27.04	154.97	5.90	
2025-01-07 11:12:27.25	154.97	5.92	
2025-01-07 11:12:27.45	154.97	5.93	
2025-01-07 11:12:27.66	154.97	5.95	
2025-01-07 11:12:27.86	154.97	5.97	
2025-01-07 11:12:28.07	154.97	5.98	
2025-01-07 11:12:28.28	154.96	6.00	
2025-01-07 11:12:28.49	154.96	6.01	
2025-01-07 11:12:28.70	154.96	6.03	
2025-01-07 11:12:28.90	154.96	6.05	
2025-01-07 11:12:29.11	154.96	6.06	
2025-01-07 11:12:29.33	154.96	6.08	
2025-01-07 11:12:29.53	154.96	6.10	
2025-01-07 11:12:29.73	154.95	6.11	
2025-01-07 11:12:29.94	154.95	6.13	
2025-01-07 11:12:30.15	154.95	6.15	
2025-01-07 11:12:30.35	154.95	6.16	
2025-01-07 11:12:30.56	154.95	6.18	
2025-01-07 11:12:30.76	154.95	6.19	
2025-01-07 11:12:30.97	154.94	6.21	
2025-01-07 11:12:31.17	154.94	6.23	
2025-01-07 11:12:31.38	154.94	6.24	
2025-01-07 11:12:31.58	154.94	6.26	
2025-01-07 11:12:31.79	154.94	6.27	
2025-01-07 11:12:31.99	154.94	6.29	
2025-01-07 11:12:32.20	154.94	6.31	
2025-01-07 11:12:32.40	154.93	6.32	
2025-01-07 11:12:32.61	154.93	6.34	
2025-01-07 11:12:32.82	154.93	6.36	
2025-01-07 11:12:33.02	154.93	6.37	
2025-01-07 11:12:33.23	154.93	6.39	
2025-01-07 11:12:33.43	154.93	6.41	
2025-01-07 11:12:33.63	154.92	6.42	
2025-01-07 11:12:33.84	154.92	6.44	
2025-01-07 11:12:34.05	154.92	6.45	
2025-01-07 11:12:34.25	154.92	6.47	
2025-01-07 11:12:34.46	154.92	6.49	
2025-01-07 11:12:34.66	154.92	6.50	
2025-01-07 11:12:34.86	154.92	6.52	
2025-01-07 11:12:35.07	154.91	6.54	
2025-01-07 11:12:35.28	154.91	6.55	
2025-01-07 11:12:35.48	154.91	6.57	
2025-01-07 11:12:35.68	154.91	6.59	
2025-01-07 11:12:35.89	154.91	6.60	
2025-01-07 11:12:36.09	154.91	6.62	
2025-01-07 11:12:36.30	154.90	6.64	
2025-01-07 11:12:36.50	154.90	6.65	
2025-01-07 11:12:36.71	154.90	6.67	
2025-01-07 11:12:36.91	154.90	6.68	
2025-01-07 11:12:37.12	154.90	6.70	
2025-01-07 11:12:37.33	154.90	6.72	
2025-01-07 11:12:37.53	154.89	6.73	
2025-01-07 11:12:37.73	154.89	6.75	
2025-01-07 11:12:37.94	154.89	6.77	
2025-01-07 11:12:38.15	154.89	6.78	
2025-01-07 11:12:38.35	154.89	6.80	
2025-01-07 11:12:38.56	154.89	6.82	
2025-01-07 11:12:38.76	154.89	6.83	
2025-01-07 11:12:38.96	154.88	6.85	
2025-01-07 11:12:39.17	154.88	6.87	
2025-01-07 11:12:39.37	154.88	6.88	
2025-01-07 11:12:39.58	154.88	6.90	
2025-01-07 11:12:39.78	154.88	6.92	
2025-01-07 11:12:39.99	154.88	6.93	
2025-01-07 11:12:40.19	154.87	6.95	
2025-01-07 11:12:40.40	154.87	6.97	
2025-01-07 11:12:40.60	154.87	6.98	
2025-01-07 11:12:40.81	154.87	7.00	
2025-01-07 11:12:41.03	154.87	7.02	
2025-01-07 11:12:41.23	154.87	7.04	
2025-01-07 11:12:41.44	154.86	7.05	
2025-01-07 11:12:41.65	154.86	7.07	
2025-01-07 11:12:41.85	154.86	7.09	
2025-01-07 11:12:42.05	154.86	7.10	
2025-01-07 11:12:42.26	154.86	7.12	
2025-01-07 11:12:42.47	154.86	7.14	
2025-01-07 11:12:42.67	154.85	7.15	
2025-01-07 11:12:42.88	154.85	7.17	
2025-01-07 11:12:43.08	154.85	7.19	
2025-01-07 11:12:43.29	154.85	7.20	
2025-01-07 11:12:43.50	154.85	7.22	
2025-01-07 11:12:43.70	154.85	7.24	
2025-01-07 11:12:43.91	154.84	7.26	
2025-01-07 11:12:44.12	154.84	7.27	
2025-01-07 11:12:44.32	154.84	7.29	
2025-01-07 11:12:44.53	154.84	7.31	
2025-01-07 11:12:44.73	154.84	7.32	
2025-01-07 11:12:44.94	154.83	7.34	
2025-01-07 11:12:45.15	154.83	7.36	
2025-01-07 11:12:45.35	154.83	7.38	
2025-01-07 11:12:45.56	154.83	7.39	
2025-01-07 11:12:45.76	154.83	7.41	
2025-01-07 11:12:45.97	154.83	7.43	
2025-01-07 11:12:46.17	154.82	7.44	
2025-01-07 11:12:46.37	154.82	7.46	
2025-01-07 11:12:46.58	154.82	7.48	
2025-01-07 11:12:46.78	154.82	7.49	
2025-01-07 11:12:46.99	154.82	7.51	
2025-01-07 11:12:47.20	154.82	7.53	
2025-01-07 11:12:47.40	154.81	7.55	
2025-01-07 11:12:47.61	154.81	7.56	
2025-01-07 11:12:47.81	154.81	7.58	
2025-01-07 11:12:48.02	154.81	7.60	
2025-01-07 11:12:48.22	154.81	7.62	
2025-01-07 11:12:48.43	154.81	7.63	
2025-01-07 11:12:48.63	154.80	7.65	
2025-01-07 11:12:48.84	154.80	7.67	
2025-01-07 11:12:49.04	154.80	7.68	
2025-01-07 11:12:49.25	154.80	7.70	
2025-01-07 11:12:49.45	154.80	7.72	
2025-01-07 11:12:49.66	154.79	7.74	
2025-01-07 11:12:49.86	154.79	7.75	
2025-01-07 11:12:50.07	154.79	7.77	
2025-01-07 11:12:50.28	154.79	7.79	
2025-01-07 11:12:50.48	154.79	7.81	
2025-01-07 11:12:50.68	154.79	7.82	
2025-01-07 11:12:50.89	154.78	7.84	
2025-01-07 11:12:51.09	154.78	7.86	
2025-01-07 11:12:51.30	154.78	7.88	
2025-01-07 11:12:51.51	154.78	7.89	
2025-01-07 11:12:51.71	154.78	7.91	
2025-01-07 11:12:51.92	154.78	7.93	
2025-01-07 11:12:52.12	154.77	7.95	
2025-01-07 11:12:52.33	154.77	7.96	
2025-01-07 11:12:52.53	154.77	7.98	
2025-01-07 11:12:52.74	154.77	8.00	
2025-01-07 11:12:52.94	154.77	8.02	
2025-01-07 11:12:53.15	154.76	8.03	
2025-01-07 11:12:53.35	154.76	8.05	
2025-01-07 11:12:53.56	154.76	8.07	
2025-01-07 11:12:53.76	154.76	8.09	
2025-01-07 11:12:53.97	154.76	8.10	
2025-01-07 11:12:54.17	154.76	8.12	
2025-01-07 11:12:54.38	154.75	8.14	
2025-01-07 11:12:54.58	154.75	8.16	
2025-01-07 11:12:54.79	154.75	8.17	
2025-01-07 11:12:55.00	154.75	8.19	
2025-01-07 11:12:55.21	154.75	8.21	
2025-01-07 11:12:55.41	154.74	8.23	
2025-01-07 11:12:55.62	154.74	8.25	
2025-01-07 11:12:55.83	154.74	8.26	
2025-01-07 11:12:56.03	154.74	8.28	
2025-01-07 11:12:56.24	154.74	8.30	
2025-01-07 11:12:56.44	154.73	8.32	
2025-01-07 11:12:56.65	154.73	8.33	
2025-01-07 11:12:56.85	154.73	8.35	
2025-01-07 11:12:57.07	154.73	8.37	
2025-01-07 11:12:57.28	154.73	8.39	
2025-01-07 11:12:57.49	154.72	8.41	
2025-01-07 11:12:57.69	154.72	8.43	
2025-01-07 11:12:57.90	154.72	8.44	
2025-01-07 11:12:58.12	154.72	8.46	
2025-01-07 11:12:58.32	154.72	8.48	
2025-01-07 11:12:58.53	154.72	8.50	
2025-01-07 11:12:58.74	154.71	8.52	
2025-01-07 11:12:58.94	154.71	8.53	
2025-01-07 11:12:59.14	154.71	8.55	
2025-01-07 11:12:59.35	154.71	8.57	
2025-01-07 11:12:59.56	154.71	8.59	
2025-01-07 11:12:59.76	154.70	8.61	
2025-01-07 11:12:59.97	154.70	8.62	
2025-01-07 11:13:00.17	154.70	8.64	
2025-01-07 11:13:00.38	154.70	8.66	
2025-01-07 11:13:00.58	154.70	8.68	
2025-01-07 11:13:00.79	154.69	8.70	
2025-01-07 11:13:00.99	154.69	8.71	
2025-01-07 11:13:01.20	154.69	8.73	
2025-01-07 11:13:01.40	154.69	8.75	
2025-01-07 11:13:01.61	154.69	8.77	
2025-01-07 11:13:01.81	154.68	8.79	
2025-01-07 11:13:02.02	154.68	8.81	
2025-01-07 11:13:02.22	154.68	8.82	
2025-01-07 11:13:02.43	154.68	8.84	
2025-01-07 11:13:02.63	154.68	8.86	
2025-01-07 11:13:02.84	154.67	8.88	
2025-01-07 11:13:03.05	154.67	8.90	
2025-01-07 11:13:03.25	154.67	8.91	
2025-01-07 11:13:03.46	154.67	8.93	
2025-01-07 11:13:03.66	154.67	8.95	
2025-01-07 11:13:03.87	154.66	8.97	
2025-01-07 11:13:04.07	154.66	8.99	
2025-01-07 11:13:04.28	154.66	9.01	
2025-01-07 11:13:04.48	154.66	9.02	
2025-01-07 11:13:04.69	154.66	9.04	
2025-01-07 11:13:04.89	154.65	9.06	
2025-01-07 11:13:05.10	154.65	9.08	
2025-01-07 11:13:05.31	154.65	9.10	
2025-01-07 11:13:05.51	154.65	9.12	
2025-01-07 11:13:05.71	154.65	9.13	
2025-01-07 11:13:05.92	154.64	9.15	
2025-01-07 11:13:06.13	154.64	9.17	
2025-01-07 11:13:06.33	154.64	9.19	
2025-01-07 11:13:06.54	154.64	9.21	
2025-01-07 11:13:06.74	154.64	9.23	
2025-01-07 11:13:06.95	154.63	9.25	
2025-01-07 11:13:07.16	154.63	9.27	
2025-01-07 11:13:07.36	154.63	9.28	
2025-01-07 11:13:07.56	154.63	9.30	
2025-01-07 11:13:07.77	154.63	9.32	
2025-01-07 11:13:07.98	154.62	9.34	
2025-01-07 11:13:08.18	154.62	9.36	
2025-01-07 11:13:08.38	154.62	9.38	
2025-01-07 11:13:08.59	154.62	9.39	
2025-01-07 11:13:08.80	154.61	9.41	
2025-01-07 11:13:09.00	154.61	9.43	
2025-01-07 11:13:09.21	154.61	9.45	
2025-01-07 11:13:09.41	154.61	9.47	
2025-01-07 11:13:09.62	154.61	9.49	
2025-01-07 11:13:09.83	154.60	9.51	
2025-01-07 11:13:10.03	154.60	9.53	
2025-01-07 11:13:10.24	154.60	9.55	
2025-01-07 11:13:10.44	154.60	9.56	
2025-01-07 11:13:10.65	154.60	9.58	
2025-01-07 11:13:10.85	154.59	9.60	
2025-01-07 11:13:11.06	154.59	9.62	
2025-01-07 11:13:11.26	154.59	9.64	
2025-01-07 11:13:11.47	154.59	9.66	
2025-01-07 11:13:11.68	154.59	9.68	
2025-01-07 11:13:11.88	154.58	9.70	
2025-01-07 11:13:12.09	154.58	9.72	
2025-01-07 11:13:12.29	154.58	9.73	
2025-01-07 11:13:12.50	154.58	9.75	
2025-01-07 11:13:12.71	154.57	9.77	
2025-01-07 11:13:12.91	154.57	9.79	
2025-01-07 11:13:13.12	154.57	9.81	
2025-01-07 11:13:13.32	154.57	9.83	
2025-01-07 11:13:13.53	154.57	9.85	
2025-01-07 11:13:13.73	154.56	9.87	
2025-01-07 11:13:13.94	154.56	9.89	
2025-01-07 11:13:14.16	154.56	9.91	
2025-01-07 11:13:14.36	154.56	9.93	
2025-01-07 11:13:14.57	154.55	9.94	
2025-01-07 11:13:14.77	154.55	9.96	
2025-01-07 11:13:14.98	154.55	9.98	
2025-01-07 11:13:15.18	154.55	10.00	
2025-01-07 11:13:15.39	154.55	10.02	
2025-01-07 11:13:15.59	154.54	10.04	
2025-01-07 11:13:15.80	154.54	10.06	
2025-01-07 11:13:16.01	154.54	10.08	
2025-01-07 11:13:16.21	154.54	10.10	
2025-01-07 11:13:16.41	154.53	10.12	
2025-01-07 11:13:16.62	154.53	10.14	
2025-01-07 11:13:16.82	154.53	10.16	
2025-01-07 11:13:17.03	154.53	10.18	
2025-01-07 11:13:17.23	154.53	10.19	
2025-01-07 11:13:17.44	154.52	10.21	
2025-01-07 11:13:17.65	154.52	10.23	
2025-01-07 11:13:17.85	154.52	10.25	
2025-01-07 11:13:18.06	154.52	10.27	
2025-01-07 11:13:18.26	154.51	10.29	
2025-01-07 11:13:18.47	154.51	10.31	
2025-01-07 11:13:18.67	154.51	10.33	
2025-01-07 11:13:18.88	154.51	10.35	
2025-01-07 11:13:19.09	154.51	10.37	
2025-01-07 11:13:19.29	154.50	10.39	
2025-01-07 11:13:19.49	154.50	10.41	
2025-01-07 11:13:19.70	154.50	10.43	
2025-01-07 11:13:19.91	154.50	10.45	
2025-01-07 11:13:20.11	154.49	10.47	
2025-01-07 11:13:20.32	154.49	10.49	
2025-01-07 11:13:20.52	154.49	10.51	
2025-01-07 11:13:20.73	154.49	10.53	
2025-01-07 11:13:20.93	154.48	10.55	
2025-01-07 11:13:21.14	154.48	10.57	
2025-01-07 11:13:21.34	154.48	10.58	
2025-01-07 11:13:21.55	154.48	10.60	
2025-01-07 11:13:21.75	154.48	10.62	
2025-01-07 11:13:21.96	154.47	10.64	
2025-01-07 11:13:22.17	154.47	10.66	
2025-01-07 11:13:22.37	154.47	10.68	
2025-01-07 11:13:22.57	154.47	10.70	
2025-01-07 11:13:22.78	154.46	10.72	
2025-01-07 11:13:22.98	154.46	10.74	
2025-01-07 11:13:23.19	154.46	10.76	
2025-01-07 11:13:23.40	154.46	10.78	
2025-01-07 11:13:23.60	154.45	10.80	
2025-01-07 11:13:23.80	154.45	10.82	
2025-01-07 11:13:24.01	154.45	10.84	
2025-01-07 11:13:24.22	154.45	10.86	
2025-01-07 11:13:24.42	154.44	10.88	
2025-01-07 11:13:24.63	154.44	10.90	
2025-01-07 11:13:24.83	154.44	10.92	
2025-01-07 11:13:25.04	154.44	10.94	
2025-01-07 11:13:25.24	154.43	10.96	
2025-01-07 11:13:25.45	154.43	10.98	
2025-01-07 11:13:25.65	154.43	11.00	
2025-01-07 11:13:25.85	154.43	11.02	
2025-01-07 11:13:26.06	154.43	11.04	
2025-01-07 11:13:26.27	154.42	11.06	
2025-01-07 11:13:26.47	154.42	11.08	
2025-01-07 11:13:26.68	154.42	11.10	
2025-01-07 11:13:26.88	154.42	11.12	
2025-01-07 11:13:27.09	154.41	11.14	
2025-01-07 11:13:27.29	154.41	11.16	
2025-01-07 11:13:27.50	154.41	11.18	
2025-01-07 11:13:27.71	154.41	11.20	
2025-01-07 11:13:27.91	154.40	11.22	
2025-01-07 11:13:28.11	154.40	11.24	
2025-01-07 11:13:28.32	154.40	11.26	
2025-01-07 11:13:28.53	154.40	11.28	
2025-01-07 11:13:28.73	154.39	11.30	
2025-01-07 11:13:28.93	154.39	11.32	
2025-01-07 11:13:29.14	154.39	11.35	
2025-01-07 11:13:29.35	154.39	11.37	
2025-01-07 11:13:29.55	154.38	11.39	
2025-01-07 11:13:29.76	154.38	11.41	
2025-01-07 11:13:29.96	154.38	11.43	
2025-01-07 11:13:30.17	154.38	11.45	
2025-01-07 11:13:30.37	154.37	11.47	
2025-01-07 11:13:30.58	154.37	11.49	
2025-01-07 11:13:30.78	154.37	11.51	
2025-01-07 11:13:30.99	154.37	11.53	
2025-01-07 11:13:31.19	154.36	11.55	
2025-01-07 11:13:31.40	154.36	11.57	
2025-01-07 11:13:31.61	154.36	11.59	
2025-01-07 11:13:31.81	154.36	11.61	
2025-01-07 11:13:32.02	154.35	11.63	
2025-01-07 11:13:32.22	154.35	11.65	
2025-01-07 11:13:32.43	154.35	11.67	
2025-01-07 11:13:32.63	154.34	11.69	
2025-01-07 11:13:32.84	154.34	11.72	
2025-01-07 11:13:33.05	154.34	11.74	
2025-01-07 11:13:33.25	154.34	11.76	
2025-01-07 11:13:33.45	154.33	11.78	
2025-01-07 11:13:33.66	154.33	11.80	
2025-01-07 11:13:33.87	154.33	11.82	
2025-01-07 11:13:34.07	154.33	11.84	
2025-01-07 11:13:34.28	154.32	11.86	
2025-01-07 11:13:34.48	154.32	11.88	
2025-01-07 11:13:34.69	154.32	11.90	
2025-01-07 11:13:34.89	154.32	11.92	
2025-01-07 11:13:35.10	154.31	11.94	
2025-01-07 11:13:35.31	154.31	11.97	
2025-01-07 11:13:35.51	154.31	11.99	
2025-01-07 11:13:35.71	154.31	12.01	
2025-01-07 11:13:35.92	154.30	12.03	
2025-01-07 11:13:36.13	154.30	12.05	
2025-01-07 11:13:36.33	154.30	12.07	
2025-01-07 11:13:36.54	154.29	12.09	
2025-01-07 11:13:36.74	154.29	12.11	
2025-01-07 11:13:36.95	154.29	12.13	
2025-01-07 11:13:37.15	154.29	12.15	
2025-01-07 11:13:37.36	154.28	12.18	
2025-01-07 11:13:37.58	154.28	12.20	
2025-01-07 11:13:37.78	154.28	12.22	
2025-01-07 11:13:37.99	154.28	12.24	
2025-01-07 11:13:38.19	154.27	12.26	
2025-01-07 11:13:38.40	154.27	12.28	
2025-01-07 11:13:38.60	154.27	12.30	
2025-01-07 11:13:38.81	154.26	12.33	
2025-01-07 11:13:39.01	154.26	12.35	
2025-01-07 11:13:39.22	154.26	12.37	
2025-01-07 11:13:39.43	154.26	12.39	
2025-01-07 11:13:39.63	154.25	12.41	
2025-01-07 11:13:39.83	154.25	12.43	
2025-01-07 11:13:40.04	154.25	12.45	
2025-01-07 11:13:40.25	154.25	12.48	
2025-01-07 11:13:40.45	154.24	12.50	
2025-01-07 11:13:40.65	154.24	12.52	
2025-01-07 11:13:40.86	154.24	12.54	
2025-01-07 11:13:41.06	154.23	12.56	
2025-01-07 11:13:41.27	154.23	12.58	
2025-01-07 11:13:41.47	154.23	12.60	
2025-01-07 11:13:41.68	154.23	12.63	
2025-01-07 11:13:41.88	154.22	12.65	
2025-01-07 11:13:42.09	154.22	12.67	
2025-01-07 11:13:42.30	154.22	12.69	
2025-01-07 11:13:42.50	154.21	12.71	
2025-01-07 11:13:42.71	154.21	12.73	
2025-01-07 11:13:42.91	154.21	12.76	
2025-01-07 11:13:43.12	154.21	12.78	
2025-01-07 11:13:43.32	154.20	12.80	
2025-01-07 11:13:43.53	154.20	12.82	
2025-01-07 11:13:43.73	154.20	12.84	
2025-01-07 11:13:43.94	154.19	12.86	
2025-01-07 11:13:44.14	154.19	12.89	
2025-01-07 11:13:44.35	154.19	12.91	
2025-01-07 11:13:44.55	154.19	12.93	
2025-01-07 11:13:44.76	154.18	12.95	
2025-01-07 11:13:44.96	154.18	12.97	
2025-01-07 11:13:45.17	154.18	13.00	
2025-01-07 11:13:45.37	154.17	13.02	
2025-01-07 11:13:45.58	154.17	13.04	
2025-01-07 11:13:45.78	154.17	13.06	
2025-01-07 11:13:45.99	154.17	13.08	
2025-01-07 11:13:46.19	154.16	13.10	
2025-01-07 11:13:46.40	154.16	13.13	
2025-01-07 11:13:46.60	154.16	13.15	
2025-01-07 11:13:46.81	154.15	13.17	
2025-01-07 11:13:47.01	154.15	13.19	
2025-01-07 11:13:47.22	154.15	13.22	
2025-01-07 11:13:47.42	154.15	13.24	
2025-01-07 11:13:47.63	154.14	13.26	
2025-01-07 11:13:47.84	154.14	13.28	
2025-01-07 11:13:48.04	154.14	13.30	
2025-01-07 11:13:48.26	154.13	13.33	
2025-01-07 11:13:48.46	154.13	13.35	
2025-01-07 11:13:48.67	154.13	13.37	
2025-01-07 11:13:48.87	154.12	13.39	
2025-01-07 11:13:49.08	154.12	13.42	
2025-01-07 11:13:49.28	154.12	13.44	
2025-01-07 11:13:49.49	154.12	13.46	
2025-01-07 11:13:49.69	154.11	13.48	
2025-01-07 11:13:49.90	154.11	13.51	
2025-01-07 11:13:50.11	154.11	13.53	
2025-01-07 11:13:50.33	154.10	13.55	
2025-01-07 11:13:50.53	154.10	13.58	
2025-01-07 11:13:50.74	154.10	13.60	
2025-01-07 11:13:50.94	154.09	13.62	
2025-01-07 11:13:51.15	154.09	13.64	
2025-01-07 11:13:51.35	154.09	13.67	
2025-01-07 11:13:51.56	154.08	13.69	
2025-01-07 11:13:51.76	154.08	13.71	
2025-01-07 11:13:51.97	154.08	13.73	
2025-01-07 11:13:52.18	154.08	13.76	
2025-01-07 11:13:52.38	154.07	13.78	
2025-01-07 11:13:52.59	154.07	13.80	
2025-01-07 11:13:52.79	154.07	13.83	
2025-01-07 11:13:53.00	154.06	13.85	
2025-01-07 11:13:53.20	154.06	13.87	
2025-01-07 11:13:53.41	154.06	13.89	
2025-01-07 11:13:53.61	154.05	13.92	
2025-01-07 11:13:53.82	154.05	13.94	
2025-01-07 11:13:54.02	154.05	13.96	
2025-01-07 11:13:54.23	154.04	13.99	
2025-01-07 11:13:54.43	154.04	14.01	
2025-01-07 11:13:54.64	154.04	14.03	
2025-01-07 11:13:54.84	154.03	14.05	
2025-01-07 11:13:55.05	154.03	14.08	
2025-01-07 11:13:55.26	154.03	14.10	
2025-01-07 11:13:55.46	154.03	14.12	
2025-01-07 11:13:55.66	154.02	14.15	
2025-01-07 11:13:55.87	154.02	14.17	
2025-01-07 11:13:56.07	154.02	14.19	
2025-01-07 11:13:56.28	154.01	14.22	
2025-01-07 11:13:56.48	154.01	14.24	
2025-01-07 11:13:56.69	154.01	14.26	
2025-01-07 11:13:56.89	154.00	14.28	
2025-01-07 11:13:57.10	154.00	14.31	
2025-01-07 11:13:57.31	154.00	14.33	
2025-01-07 11:13:57.51	153.99	14.36	
2025-01-07 11:13:57.71	153.99	14.38	
2025-01-07 11:13:57.92	153.99	14.40	
2025-01-07 11:13:58.13	153.98	14.43	
2025-01-07 11:13:58.33	153.98	14.45	
2025-01-07 11:13:58.54	153.98	14.47	
2025-01-07 11:13:58.74	153.97	14.50	
2025-01-07 11:13:58.94	153.97	14.52	
2025-01-07 11:13:59.15	153.97	14.54	
2025-01-07 11:13:59.36	153.96	14.57	
2025-01-07 11:13:59.56	153.96	14.59	
2025-01-07 11:13:59.77	153.96	14.61	
2025-01-07 11:13:59.97	153.95	14.64	
2025-01-07 11:14:00.19	153.95	14.66	
2025-01-07 11:14:00.40	153.95	14.69	
2025-01-07 11:14:00.61	153.94	14.71	
2025-01-07 11:14:00.81	153.94	14.73	
2025-01-07 11:14:01.02	153.94	14.76	
2025-01-07 11:14:01.22	153.93	14.78	
2025-01-07 11:14:01.43	153.93	14.81	
2025-01-07 11:14:01.63	153.93	14.83	
2025-01-07 11:14:01.84	153.92	14.85	
2025-01-07 11:14:02.04	153.92	14.88	
2025-01-07 11:14:02.25	153.92	14.90	
2025-01-07 11:14:02.45	153.91	14.92	
2025-01-07 11:14:02.66	153.91	14.95	
2025-01-07 11:14:02.86	153.91	14.97	
2025-01-07 11:14:03.07	153.90	15.00	
2025-01-07 11:14:03.27	153.90	15.02	
2025-01-07 11:14:03.48	153.90	15.04	
2025-01-07 11:14:03.68	153.89	15.07	
2025-01-07 11:14:03.89	153.89	15.09	
2025-01-07 11:14:04.09	153.88	15.12	
2025-01-07 11:14:04.29	153.88	15.14	
2025-01-07 11:14:04.50	153.88	15.16	
2025-01-07 11:14:04.71	153.87	15.19	
2025-01-07 11:14:04.91	153.87	15.21	
2025-01-07 11:14:05.12	153.87	15.24	
2025-01-07 11:14:05.32	153.86	15.26	
2025-01-07 11:14:05.53	153.86	15.29	
2025-01-07 11:14:05.74	153.86	15.31	
2025-01-07 11:14:05.94	153.85	15.33	
2025-01-07 11:14:06.15	153.85	15.36	
2025-01-07 11:14:06.35	153.85	15.38	
2025-01-07 11:14:06.56	153.84	15.41	
2025-01-07 11:14:06.76	153.84	15.43	
2025-01-07 11:14:06.97	153.84	15.46	
2025-01-07 11:14:07.17	153.83	15.48	
2025-01-07 11:14:07.38	153.83	15.51	
2025-01-07 11:14:07.58	153.82	15.53	
2025-01-07 11:14:07.79	153.82	15.56	
2025-01-07 11:14:07.99	153.82	15.58	
2025-01-07 11:14:08.20	153.81	15.61	
2025-01-07 11:14:08.40	153.81	15.63	
2025-01-07 11:14:08.61	153.81	15.65	
2025-01-07 11:14:08.81	153.80	15.68	
2025-01-07 11:14:09.02	153.80	15.70	
2025-01-07 11:14:09.23	153.80	15.73	
2025-01-07 11:14:09.43	153.79	15.75	
2025-01-07 11:14:09.64	153.79	15.78	
2025-01-07 11:14:09.84	153.78	15.80	
2025-01-07 11:14:10.05	153.78	15.83	
2025-01-07 11:14:10.25	153.78	15.85	
2025-01-07 11:14:10.46	153.77	15.88	
2025-01-07 11:14:10.66	153.77	15.90	
2025-01-07 11:14:10.87	153.77	15.93	
2025-01-07 11:14:11.07	153.76	15.95	
2025-01-07 11:14:11.28	153.76	15.98	
2025-01-07 11:14:11.48	153.75	16.00	
2025-01-07 11:14:11.69	153.75	16.03	
2025-01-07 11:14:11.89	153.75	16.05	
2025-01-07 11:14:12.10	153.74	16.08	
2025-01-07 11:14:12.30	153.74	16.10	
2025-01-07 11:14:12.51	153.74	16.13	
2025-01-07 11:14:12.73	153.73	16.16	
2025-01-07 11:14:12.93	153.73	16.18	
2025-01-07 11:14:13.14	153.72	16.21	
2025-01-07 11:14:13.35	153.72	16.23	
2025-01-07 11:14:13.55	153.72	16.26	
2025-01-07 11:14:13.75	153.71	16.28	
2025-01-07 11:14:13.96	153.71	16.31	
2025-01-07 11:14:14.17	153.71	16.34	
2025-01-07 11:14:14.37	153.70	16.36	
2025-01-07 11:14:14.58	153.70	16.39	
2025-01-07 11:14:14.78	153.69	16.41	
2025-01-07 11:14:14.99	153.69	16.44	
2025-01-07 11:14:15.19	153.69	16.46	
2025-01-07 11:14:15.40	153.68	16.49	
2025-01-07 11:14:15.61	153.68	16.51	
2025-01-07 11:14:15.81	153.67	16.54	
2025-01-07 11:14:16.02	153.67	16.57	
2025-01-07 11:14:16.22	153.67	16.59	
2025-01-07 11:14:16.43	153.66	16.62	
2025-01-07 11:14:16.63	153.66	16.64	
2025-01-07 11:14:16.84	153.65	16.67	
2025-01-07 11:14:17.04	153.65	16.69	
2025-01-07 11:14:17.25	153.65	16.72	
2025-01-07 11:14:17.45	153.64	16.75	
2025-01-07 11:14:17.66	153.64	16.77	
2025-01-07 11:14:17.87	153.63	16.80	
2025-01-07 11:14:18.07	153.63	16.83	
2025-01-07 11:14:18.27	153.63	16.85	
2025-01-07 11:14:18.48	153.62	16.88	
2025-01-07 11:14:18.69	153.62	16.90	
2025-01-07 11:14:18.89	153.61	16.93	
2025-01-07 11:14:19.09	153.61	16.96	
2025-01-07 11:14:19.30	153.61	16.98	
2025-01-07 11:14:19.51	153.60	17.01	
2025-01-07 11:14:19.71	153.60	17.03	
2025-01-07 11:14:19.92	153.59	17.06	
2025-01-07 11:14:20.12	153.59	17.09	
2025-01-07 11:14:20.32	153.59	17.11	
2025-01-07 11:14:20.53	153.58	17.14	
2025-01-07 11:14:20.74	153.58	17.17	
2025-01-07 11:14:20.94	153.57	17.19	
2025-01-07 11:14:21.15	153.57	17.22	
2025-01-07 11:14:21.35	153.57	17.25	
2025-01-07 11:14:21.56	153.56	17.27	
2025-01-07 11:14:21.76	153.56	17.30	
2025-01-07 11:14:21.97	153.55	17.33	
2025-01-07 11:14:22.17	153.55	17.35	
2025-01-07 11:14:22.39	153.54	17.38	
2025-01-07 11:14:22.59	153.54	17.41	
2025-01-07 11:14:22.80	153.54	17.43	
2025-01-07 11:14:23.01	153.53	17.46	
2025-01-07 11:14:23.21	153.53	17.49	
2025-01-07 11:14:23.42	153.52	17.52	
2025-01-07 11:14:23.62	153.52	17.54	
2025-01-07 11:14:23.83	153.51	17.57	
2025-01-07 11:14:24.04	153.51	17.60	
2025-01-07 11:14:24.24	153.51	17.62	
2025-01-07 11:14:24.45	153.50	17.65	
2025-01-07 11:14:24.65	153.50	17.68	
2025-01-07 11:14:24.86	153.49	17.70	
2025-01-07 11:14:25.07	153.49	17.73	
2025-01-07 11:14:25.27	153.48	17.76	
2025-01-07 11:14:25.48	153.48	17.79	
2025-01-07 11:14:25.68	153.48	17.81	
2025-01-07 11:14:25.89	153.47	17.84	
2025-01-07 11:14:26.09	153.47	17.87	
2025-01-07 11:14:26.30	153.46	17.90	
2025-01-07 11:14:26.50	153.46	17.92	
2025-01-07 11:14:26.71	153.45	17.95	
2025-01-07 11:14:26.91	153.45	17.98	
2025-01-07 11:14:27.12	153.45	18.01	
2025-01-07 11:14:27.33	153.44	18.03	
2025-01-07 11:14:27.53	153.44	18.06	
2025-01-07 11:14:27.75	153.43	18.09	
2025-01-07 11:14:27.96	153.43	18.12	
2025-01-07 11:14:28.16	153.42	18.15	
2025-01-07 11:14:28.37	153.42	18.17	
2025-01-07 11:14:28.57	153.41	18.20	
2025-01-07 11:14:28.78	153.41	18.23	
2025-01-07 11:14:28.98	153.41	18.26	
2025-01-07 11:14:29.19	153.40	18.28	
2025-01-07 11:14:29.39	153.40	18.31	
2025-01-07 11:14:29.60	153.39	18.34	
2025-01-07 11:14:29.82	153.39	18.37	
2025-01-07 11:14:30.02	153.38	18.40	
2025-01-07 11:14:30.23	153.38	18.43	
2025-01-07 11:14:30.44	153.37	18.45	
2025-01-07 11:14:30.64	153.37	18.48	
2025-01-07 11:14:30.84	153.36	18.51	
2025-01-07 11:14:31.05	153.36	18.54	
2025-01-07 11:14:31.26	153.35	18.57	
2025-01-07 11:14:31.46	153.35	18.59	
2025-01-07 11:14:31.67	153.35	18.62	
2025-01-07 11:14:31.87	153.34	18.65	
2025-01-07 11:14:32.07	153.34	18.68	
2025-01-07 11:14:32.28	153.33	18.71	
2025-01-07 11:14:32.49	153.33	18.74	
2025-01-07 11:14:32.69	153.32	18.76	
2025-01-07 11:14:32.90	153.32	18.79	
2025-01-07 11:14:33.10	153.31	18.82	
2025-01-07 11:14:33.31	153.31	18.85	
2025-01-07 11:14:33.51	153.30	18.88	
2025-01-07 11:14:33.72	153.30	18.91	
2025-01-07 11:14:33.92	153.29	18.93	
2025-01-07 11:14:34.13	153.29	18.96	
2025-01-07 11:14:34.33	153.28	18.99	
2025-01-07 11:14:34.54	153.28	19.02	
2025-01-07 11:14:34.75	153.27	19.05	
2025-01-07 11:14:34.95	153.27	19.08	
2025-01-07 11:14:35.15	153.27	19.11	
2025-01-07 11:14:35.36	153.26	19.14	
2025-01-07 11:14:35.57	153.26	19.17	
2025-01-07 11:14:35.77	153.25	19.19	
2025-01-07 11:14:35.97	153.25	19.22	
2025-01-07 11:14:36.18	153.24	19.25	
2025-01-07 11:14:36.38	153.24	19.28	
2025-01-07 11:14:36.59	153.23	19.31	
2025-01-07 11:14:36.79	153.23	19.34	
2025-01-07 11:14:37.00	153.22	19.37	
2025-01-07 11:14:37.20	153.22	19.40	
2025-01-07 11:14:37.41	153.21	19.43	
2025-01-07 11:14:37.62	153.21	19.46	
2025-01-07 11:14:37.82	153.20	19.49	
2025-01-07 11:14:38.03	153.20	19.52	
2025-01-07 11:14:38.23	153.19	19.54	
2025-01-07 11:14:38.44	153.19	19.57	
2025-01-07 11:14:38.64	153.18	19.60	
2025-01-07 11:14:38.85	153.18	19.63	
2025-01-07 11:14:39.05	153.17	19.66	
2025-01-07 11:14:39.26	153.17	19.69	
2025-01-07 11:14:39.46	153.16	19.72	
2025-01-07 11:14:39.67	153.16	19.75	
2025-01-07 11:14:39.87	153.15	19.78	
2025-01-07 11:14:40.08	153.15	19.81	
2025-01-07 11:14:40.28	153.14	19.84	
2025-01-07 11:14:40.49	153.14	19.87	
2025-01-07 11:14:40.69	153.13	19.90	
2025-01-07 11:14:40.90	153.13	19.93	
2025-01-07 11:14:41.10	153.12	19.96	
2025-01-07 11:14:41.31	153.12	19.99	
2025-01-07 11:14:41.51	153.11	20.02	
2025-01-07 11:14:41.72	153.11	20.05	
2025-01-07 11:14:41.92	153.10	20.08	
2025-01-07 11:14:42.13	153.10	20.11	
2025-01-07 11:14:42.34	153.09	20.14	
2025-01-07 11:14:42.54	153.09	20.17	
2025-01-07 11:14:42.75	153.08	20.20	
2025-01-07 11:14:42.95	153.08	20.23	
2025-01-07 11:14:43.16	153.07	20.26	
2025-01-07 11:14:43.36	153.06	20.29	
2025-01-07 11:14:43.57	153.06	20.32	
2025-01-07 11:14:43.77	153.05	20.35	
2025-01-07 11:14:43.98	153.05	20.38	
2025-01-07 11:14:44.18	153.04	20.41	
2025-01-07 11:14:44.39	153.04	20.44	
2025-01-07 11:14:44.60	153.03	20.48	
2025-01-07 11:14:44.80	153.03	20.51	
2025-01-07 11:14:45.01	153.02	20.54	
2025-01-07 11:14:45.21	153.02	20.57	
2025-01-07 11:14:45.42	153.01	20.60	
2025-01-07 11:14:45.62	153.01	20.63	
2025-01-07 11:14:45.83	153.00	20.66	
2025-01-07 11:14:46.04	152.99	20.69	
2025-01-07 11:14:46.24	152.99	20.72	
2025-01-07 11:14:46.45	152.98	20.75	
2025-01-07 11:14:46.65	152.98	20.78	
2025-01-07 11:14:46.86	152.97	20.82	
2025-01-07 11:14:47.06	152.97	20.85	
2025-01-07 11:14:47.26	152.96	20.88	
2025-01-07 11:14:47.47	152.96	20.91	
2025-01-07 11:14:47.68	152.95	20.94	
2025-01-07 11:14:47.88	152.95	20.97	
2025-01-07 11:14:48.09	152.94	21.00	
2025-01-07 11:14:48.29	152.93	21.03	
2025-01-07 11:14:48.50	152.93	21.06	
2025-01-07 11:14:48.70	152.92	21.10	
2025-01-07 11:14:48.91	152.92	21.13	
2025-01-07 11:14:49.12	152.91	21.16	
2025-01-07 11:14:49.32	152.91	21.19	
2025-01-07 11:14:49.53	152.90	21.22	
2025-01-07 11:14:49.73	152.90	21.25	
2025-01-07 11:14:45.36	153.01	20.59	
2025-01-07 11:14:45.56	153.01	20.62	
2025-01-07 11:14:45.77	153.00	20.65	
2025-01-07 11:14:45.97	153.00	20.68	
2025-01-07 11:14:46.18	152.99	20.71	
2025-01-07 11:14:46.38	152.99	20.74	
2025-01-07 11:14:46.59	152.98	20.77	
2025-01-07 11:14:46.79	152.97	20.80	
2025-01-07 11:14:47.00	152.97	20.84	
2025-01-07 11:14:47.20	152.96	20.87	
2025-01-07 11:14:47.41	152.96	20.90	
2025-01-07 11:14:47.61	152.95	20.93	
2025-01-07 11:14:47.82	152.95	20.96	
2025-01-07 11:14:48.03	152.94	20.99	
2025-01-07 11:14:48.23	152.94	21.02	
2025-01-07 11:14:48.44	152.93	21.06	
2025-01-07 11:14:48.64	152.93	21.09	
2025-01-07 11:14:48.85	152.92	21.12	
2025-01-07 11:14:49.05	152.91	21.15	
2025-01-07 11:14:49.26	152.91	21.18	
2025-01-07 11:14:49.46	152.90	21.21	
2025-01-07 11:14:49.67	152.90	21.24	
2025-01-07 11:14:49.88	152.89	21.28	
2025-01-07 11:14:50.08	152.89	21.31	
2025-01-07 11:14:50.29	152.88	21.34	
2025-01-07 11:14:50.49	152.87	21.37	
2025-01-07 11:14:50.70	152.87	21.40	
2025-01-07 11:14:50.90	152.86	21.44	
2025-01-07 11:14:51.11	152.86	21.47	
2025-01-07 11:14:51.31	152.85	21.50	
2025-01-07 11:14:51.51	152.85	21.53	
2025-01-07 11:14:51.72	152.84	21.56	
2025-01-07 11:14:51.92	152.83	21.59	
2025-01-07 11:14:52.13	152.83	21.63	
2025-01-07 11:14:52.34	152.82	21.66	
2025-01-07 11:14:52.54	152.82	21.69	
2025-01-07 11:14:52.75	152.81	21.72	
2025-01-07 11:14:52.95	152.80	21.76	
2025-01-07 11:14:53.16	152.80	21.79	
2025-01-07 11:14:53.36	152.79	21.82	
2025-01-07 11:14:53.57	152.79	21.85	
2025-01-07 11:14:53.78	152.78	21.89	
2025-01-07 11:14:53.98	152.78	21.92	
2025-01-07 11:14:54.19	152.77	21.95	
2025-01-07 11:14:54.39	152.76	21.98	
2025-01-07 11:14:54.60	152.76	22.02	
2025-01-07 11:14:54.81	152.75	22.05	
2025-01-07 11:14:55.01	152.75	22.08	
2025-01-07 11:14:55.21	152.74	22.11	
2025-01-07 11:14:55.42	152.73	22.15	
2025-01-07 11:14:55.64	152.73	22.18	
2025-01-07 11:14:55.84	152.72	22.22	
2025-01-07 11:14:56.05	152.71	22.25	
2025-01-07 11:14:56.25	152.71	22.28	
2025-01-07 11:14:56.46	152.70	22.32	
2025-01-07 11:14:56.67	152.70	22.35	
2025-01-07 11:14:56.87	152.69	22.38	
2025-01-07 11:14:57.08	152.68	22.42	
2025-01-07 11:14:57.28	152.68	22.45	
2025-01-07 11:14:57.49	152.67	22.48	
2025-01-07 11:14:57.69	152.67	22.52	
2025-01-07 11:14:57.90	152.66	22.55	
2025-01-07 11:14:58.10	152.65	22.58	
2025-01-07 11:14:58.31	152.65	22.62	
2025-01-07 11:14:58.52	152.64	22.65	
2025-01-07 11:14:58.72	152.63	22.68	
2025-01-07 11:14:58.93	152.63	22.72	
2025-01-07 11:14:59.13	152.62	22.75	
2025-01-07 11:14:59.34	152.61	22.79	
2025-01-07 11:14:59.54	152.61	22.82	
2025-01-07 11:14:59.75	152.60	22.85	
2025-01-07 11:14:59.95	152.60	22.89	
2025-01-07 11:15:00.16	152.59	22.92	
2025-01-07 11:15:00.36	152.58	22.95	
2025-01-07 11:15:00.57	152.58	22.99	
2025-01-07 11:15:00.77	152.57	23.02	
2025-01-07 11:15:00.98	152.56	23.06	
2025-01-07 11:15:01.18	152.56	23.09	
2025-01-07 11:15:01.39	152.55	23.13	
2025-01-07 11:15:01.59	152.54	23.16	
2025-01-07 11:15:01.80	152.54	23.19	
2025-01-07 11:15:02.00	152.53	23.23	
2025-01-07 11:15:02.21	152.52	23.26	
2025-01-07 11:15:02.42	152.52	23.30	
2025-01-07 11:15:02.62	152.51	23.33	
2025-01-07 11:15:02.83	152.50	23.37	
2025-01-07 11:15:03.03	152.50	23.40	
2025-01-07 11:15:03.24	152.49	23.44	
2025-01-07 11:15:03.44	152.48	23.47	
2025-01-07 11:15:03.66	152.48	23.51	
2025-01-07 11:15:03.87	152.47	23.54	
2025-01-07 11:15:04.07	152.46	23.58	
2025-01-07 11:15:04.28	152.46	23.61	
2025-01-07 11:15:04.48	152.45	23.65	
2025-01-07 11:15:04.68	152.44	23.68	
2025-01-07 11:15:04.89	152.44	23.72	
2025-01-07 11:15:05.10	152.43	23.75	
2025-01-07 11:15:05.30	152.42	23.79	
2025-01-07 11:15:05.51	152.42	23.82	
2025-01-07 11:15:05.71	152.41	23.86	
2025-01-07 11:15:05.92	152.40	23.89	
2025-01-07 11:15:06.12	152.40	23.93	
2025-01-07 11:15:06.33	152.39	23.96	
2025-01-07 11:15:06.54	152.38	24.00	
2025-01-07 11:15:06.74	152.38	24.04	
2025-01-07 11:15:06.95	152.37	24.07	
2025-01-07 11:15:07.15	152.36	24.11	
2025-01-07 11:15:07.36	152.35	24.14	
2025-01-07 11:15:07.56	152.35	24.18	
2025-01-07 11:15:07.77	152.34	24.21	
2025-01-07 11:15:07.97	152.33	24.25	
2025-01-07 11:15:08.18	152.33	24.29	
2025-01-07 11:15:08.38	152.32	24.32	
2025-01-07 11:15:08.59	152.31	24.36	
2025-01-07 11:15:08.79	152.31	24.39	
2025-01-07 11:15:08.99	152.30	24.43	
2025-01-07 11:15:09.20	152.29	24.47	
2025-01-07 11:15:09.41	152.28	24.50	
2025-01-07 11:15:09.61	152.28	24.54	
2025-01-07 11:15:09.82	152.27	24.58	
2025-01-07 11:15:10.02	152.26	24.61	
2025-01-07 11:15:10.23	152.25	24.65	
2025-01-07 11:15:10.43	152.25	24.68	
2025-01-07 11:15:10.64	152.24	24.72	
2025-01-07 11:15:10.84	152.23	24.76	
2025-01-07 11:15:11.04	152.23	24.79	
2025-01-07 11:15:11.25	152.22	24.83	
2025-01-07 11:15:11.46	152.21	24.87	
2025-01-07 11:15:11.66	152.20	24.90	
2025-01-07 11:15:11.87	152.20	24.94	
2025-01-07 11:15:12.07	152.19	24.98	
2025-01-07 11:15:12.28	152.18	25.02	
2025-01-07 11:15:12.49	152.17	25.05	
2025-01-07 11:15:12.69	152.17	25.09	
2025-01-07 11:15:12.90	152.16	25.13	
2025-01-07 11:15:13.10	152.15	25.16	
2025-01-07 11:15:13.31	152.14	25.20	
2025-01-07 11:15:13.51	152.14	25.24	
2025-01-07 11:15:13.72	152.13	25.28	
2025-01-07 11:15:13.93	152.12	25.32	
2025-01-07 11:15:14.13	152.11	25.35	
2025-01-07 11:15:14.34	152.11	25.39	
2025-01-07 11:15:14.54	152.10	25.43	
2025-01-07 11:15:14.75	152.09	25.47	
2025-01-07 11:15:14.95	152.08	25.50	
2025-01-07 11:15:15.16	152.07	25.54	
2025-01-07 11:15:15.36	152.07	25.58	
2025-01-07 11:15:15.57	152.06	25.62	
2025-01-07 11:15:15.77	152.05	25.65	
2025-01-07 11:15:15.98	152.04	25.69	
2025-01-07 11:15:16.19	152.04	25.73	
2025-01-07 11:15:16.39	152.03	25.77	
2025-01-07 11:15:16.60	152.02	25.81	
2025-01-07 11:15:16.80	152.01	25.84	
2025-01-07 11:15:17.01	152.00	25.88	
2025-01-07 11:15:17.21	152.00	25.92	
2025-01-07 11:15:17.42	151.99	25.96	
2025-01-07 11:15:17.62	151.98	26.00	
2025-01-07 11:15:17.83	151.97	26.04	
2025-01-07 11:15:18.03	151.96	26.08	
2025-01-07 11:15:18.24	151.96	26.12	
2025-01-07 11:15:18.45	151.95	26.15	
2025-01-07 11:15:18.65	151.94	26.19	
2025-01-07 11:15:18.86	151.93	26.23	
2025-01-07 11:15:19.07	151.92	26.27	
2025-01-07 11:15:19.27	151.92	26.31	
2025-01-07 11:15:19.48	151.91	26.35	
2025-01-07 11:15:19.68	151.90	26.39	
2025-01-07 11:15:19.89	151.89	26.43	
2025-01-07 11:15:20.09	151.88	26.47	
2025-01-07 11:15:20.30	151.87	26.51	
2025-01-07 11:15:20.51	151.87	26.55	
2025-01-07 11:15:20.71	151.86	26.59	
2025-01-07 11:15:20.92	151.85	26.63	
2025-01-07 11:15:21.12	151.84	26.66	
2025-01-07 11:15:21.33	151.83	26.70	
2025-01-07 11:15:21.53	151.82	26.74	
2025-01-07 11:15:21.74	151.82	26.78	
2025-01-07 11:15:21.94	151.81	26.82	
2025-01-07 11:15:22.15	151.80	26.86	
2025-01-07 11:15:22.35	151.79	26.90	
2025-01-07 11:15:22.56	151.78	26.94	
2025-01-07 11:15:22.76	151.77	26.98	
2025-01-07 11:15:22.97	151.76	27.02	
2025-01-07 11:15:23.17	151.76	27.06	
2025-01-07 11:15:23.38	151.75	27.10	
2025-01-07 11:15:23.59	151.74	27.14	
2025-01-07 11:15:23.79	151.73	27.18	
2025-01-07 11:15:24.01	151.72	27.23	
2025-01-07 11:15:24.22	151.71	27.27	
2025-01-07 11:15:24.42	151.70	27.31	
2025-01-07 11:15:24.63	151.69	27.35	
2025-01-07 11:15:24.83	151.69	27.39	
2025-01-07 11:15:25.04	151.68	27.43	
2025-01-07 11:15:25.24	151.67	27.47	
2025-01-07 11:15:25.45	151.66	27.51	
2025-01-07 11:15:25.66	151.65	27.55	
2025-01-07 11:15:25.86	151.64	27.59	
2025-01-07 11:15:26.08	151.63	27.64	
2025-01-07 11:15:26.29	151.62	27.68	
2025-01-07 11:15:26.49	151.61	27.72	
2025-01-07 11:15:26.70	151.60	27.76	
2025-01-07 11:15:26.90	151.60	27.80	
2025-01-07 11:15:27.11	151.59	27.85	
2025-01-07 11:15:27.31	151.58	27.89	
2025-01-07 11:15:27.52	151.57	27.93	
2025-01-07 11:15:27.72	151.56	27.97	
2025-01-07 11:15:27.93	151.55	28.01	
2025-01-07 11:15:28.14	151.54	28.05	
2025-01-07 11:15:28.34	151.53	28.09	
2025-01-07 11:15:28.55	151.52	28.14	
2025-01-07 11:15:28.75	151.51	28.18	
2025-01-07 11:15:28.96	151.50	28.22	
2025-01-07 11:15:29.17	151.49	28.26	
2025-01-07 11:15:29.38	151.48	28.31	
2025-01-07 11:15:29.59	151.47	28.35	
2025-01-07 11:15:29.79	151.46	28.39	
2025-01-07 11:15:30.00	151.46	28.43	
2025-01-07 11:15:30.21	151.45	28.48	
2025-01-07 11:15:30.42	151.44	28.52	
2025-01-07 11:15:30.63	151.43	28.57	
2025-01-07 11:15:30.83	151.42	28.61	
2025-01-07 11:15:31.04	151.41	28.65	
2025-01-07 11:15:31.25	151.40	28.69	
2025-01-07 11:15:31.45	151.39	28.74	
2025-01-07 11:15:31.65	151.38	28.78	
2025-01-07 11:15:31.86	151.37	28.82	
2025-01-07 11:15:32.06	151.36	28.86	
2025-01-07 11:15:32.27	151.35	28.91	
2025-01-07 11:15:32.47	151.34	28.95	
2025-01-07 11:15:32.68	151.33	28.99	
2025-01-07 11:15:32.88	151.32	29.04	
2025-01-07 11:15:33.09	151.31	29.08	
2025-01-07 11:15:33.30	151.30	29.12	
2025-01-07 11:15:33.50	151.29	29.17	
2025-01-07 11:15:33.70	151.28	29.21	
2025-01-07 11:15:33.91	151.27	29.25	
2025-01-07 11:15:34.12	151.26	29.30	
2025-01-07 11:15:34.32	151.25	29.34	
2025-01-07 11:15:34.53	151.24	29.39	
2025-01-07 11:15:34.73	151.23	29.43	
2025-01-07 11:15:34.94	151.22	29.47	
2025-01-07 11:15:35.14	151.21	29.52	
2025-01-07 11:15:35.35	151.20	29.56	
2025-01-07 11:15:35.56	151.19	29.61	
2025-01-07 11:15:35.76	151.18	29.65	
2025-01-07 11:15:35.97	151.17	29.70	
2025-01-07 11:15:36.17	151.16	29.74	
2025-01-07 11:15:36.38	151.15	29.79	
2025-01-07 11:15:36.59	151.14	29.83	
2025-01-07 11:15:36.79	151.13	29.87	
2025-01-07 11:15:37.00	151.12	29.92	
2025-01-07 11:15:37.20	151.11	29.96	
2025-01-07 11:15:37.41	151.09	30.01	
2025-01-07 11:15:37.61	151.08	30.05	
2025-01-07 11:15:37.82	151.07	30.10	
2025-01-07 11:15:38.02	151.06	30.14	
2025-01-07 11:15:38.23	151.05	30.19	
2025-01-07 11:15:38.43	151.04	30.23	
2025-01-07 11:15:38.64	151.03	30.28	
2025-01-07 11:15:38.84	151.02	30.32	
2025-01-07 11:15:39.04	151.01	30.37	
2025-01-07 11:15:39.25	151.00	30.42	
2025-01-07 11:15:39.45	150.99	30.46	
2025-01-07 11:15:39.66	150.98	30.51	
2025-01-07 11:15:39.86	150.97	30.55	
2025-01-07 11:15:40.07	150.95	30.60	
2025-01-07 11:15:40.27	150.94	30.64	
2025-01-07 11:15:40.48	150.93	30.69	
2025-01-07 11:15:40.69	150.92	30.74	
2025-01-07 11:15:40.89	150.91	30.78	
2025-01-07 11:15:41.10	150.90	30.83	
2025-01-07 11:15:41.30	150.89	30.87	
2025-01-07 11:15:41.51	150.88	30.92	
2025-01-07 11:15:41.71	150.87	30.97	
2025-01-07 11:15:41.92	150.85	31.02	
2025-01-07 11:15:42.12	150.84	31.06	
2025-01-07 11:15:42.33	150.83	31.11	
2025-01-07 11:15:42.53	150.82	31.15	
2025-01-07 11:15:42.74	150.81	31.20	
2025-01-07 11:15:42.94	150.80	31.25	
2025-01-07 11:15:43.15	150.79	31.30	
2025-01-07 11:15:43.35	150.78	31.34	
2025-01-07 11:15:43.56	150.76	31.39	
2025-01-07 11:15:43.77	150.75	31.44	
2025-01-07 11:15:43.97	150.74	31.48	
2025-01-07 11:15:44.18	150.73	31.53	
2025-01-07 11:15:44.40	150.72	31.58	
2025-01-07 11:15:44.60	150.70	31.63	
2025-01-07 11:15:44.81	150.69	31.68	
2025-01-07 11:15:45.02	150.68	31.73	
2025-01-07 11:15:45.22	150.67	31.77	
2025-01-07 11:15:45.43	150.66	31.82	
2025-01-07 11:15:45.63	150.64	31.87	
2025-01-07 11:15:45.84	150.63	31.92	
2025-01-07 11:15:46.04	150.62	31.97	
2025-01-07 11:15:46.24	150.61	32.01	
2025-01-07 11:15:46.46	150.60	32.07	
2025-01-07 11:15:46.67	150.58	32.12	
2025-01-07 11:15:46.87	150.57	32.16	
2025-01-07 11:15:47.08	150.56	32.21	
2025-01-07 11:15:47.28	150.55	32.26	
2025-01-07 11:15:47.49	150.53	32.31	
2025-01-07 11:15:47.69	150.52	32.36	
2025-01-07 11:15:47.90	150.51	32.41	
2025-01-07 11:15:48.11	150.50	32.46	
2025-01-07 11:15:48.31	150.49	32.50	
2025-01-07 11:15:48.52	150.47	32.56	
2025-01-07 11:15:48.72	150.46	32.60	
2025-01-07 11:15:48.93	150.45	32.65	
2025-01-07 11:15:49.13	150.44	32.70	
2025-01-07 11:15:49.34	150.42	32.75	
2025-01-07 11:15:49.54	150.41	32.80	
2025-01-07 11:15:49.75	150.40	32.85	
2025-01-07 11:15:49.95	150.38	32.90	
2025-01-07 11:15:50.16	150.37	32.95	
2025-01-07 11:15:50.36	150.36	33.00	
2025-01-07 11:15:50.57	150.35	33.05	
2025-01-07 11:15:50.77	150.33	33.10	
2025-01-07 11:15:50.98	150.32	33.15	
2025-01-07 11:15:51.18	150.31	33.20	
2025-01-07 11:15:51.39	150.29	33.25	
2025-01-07 11:15:51.59	150.28	33.30	
2025-01-07 11:15:51.80	150.27	33.35	
2025-01-07 11:15:52.00	150.25	33.40	
2025-01-07 11:15:52.21	150.24	33.45	
2025-01-07 11:15:52.42	150.23	33.51	
2025-01-07 11:15:52.62	150.21	33.56	
2025-01-07 11:15:52.83	150.20	33.61	
2025-01-07 11:15:53.03	150.19	33.66	
2025-01-07 11:15:53.24	150.17	33.71	
2025-01-07 11:15:53.45	150.16	33.76	
2025-01-07 11:15:53.65	150.15	33.81	
2025-01-07 11:15:53.86	150.13	33.86	
2025-01-07 11:15:54.06	150.12	33.91	
2025-01-07 11:15:54.27	150.11	33.97	
2025-01-07 11:15:54.47	150.09	34.02	
2025-01-07 11:15:54.68	150.08	34.07	
2025-01-07 11:15:54.88	150.06	34.12	
2025-01-07 11:15:55.09	150.05	34.17	
2025-01-07 11:15:55.29	150.04	34.23	
2025-01-07 11:15:55.50	150.02	34.28	
2025-01-07 11:15:55.70	150.01	34.33	
2025-01-07 11:15:55.91	149.99	34.38	
2025-01-07 11:15:56.11	149.98	34.43	
2025-01-07 11:15:56.32	149.97	34.49	
2025-01-07 11:15:56.53	149.95	34.54	
2025-01-07 11:15:56.73	149.94	34.59	
2025-01-07 11:15:56.94	149.92	34.65	
2025-01-07 11:15:57.14	149.91	34.70	
2025-01-07 11:15:57.35	149.89	34.75	
2025-01-07 11:15:57.55	149.88	34.80	
2025-01-07 11:15:57.76	149.86	34.86	
2025-01-07 11:15:57.96	149.85	34.91	
2025-01-07 11:15:58.17	149.84	34.97	
2025-01-07 11:15:58.37	149.82	35.02	
2025-01-07 11:15:58.58	149.81	35.07	
2025-01-07 11:15:58.79	149.79	35.13	
2025-01-07 11:15:58.99	149.78	35.18	
2025-01-07 11:15:59.20	149.76	35.23	
2025-01-07 11:15:59.40	149.75	35.29	
2025-01-07 11:15:59.60	149.73	35.34	
2025-01-07 11:15:59.81	149.72	35.39	
2025-01-07 11:16:00.02	149.70	35.45	
2025-01-07 11:16:00.22	149.69	35.50	
2025-01-07 11:16:00.44	149.67	35.56	
2025-01-07 11:16:00.64	149.66	35.61	
2025-01-07 11:16:00.85	149.64	35.67	
2025-01-07 11:16:01.05	149.62	35.72	
2025-01-07 11:16:01.26	149.61	35.78	
2025-01-07 11:16:01.46	149.59	35.83	
2025-01-07 11:16:01.67	149.58	35.89	
2025-01-07 11:16:01.88	149.56	35.95	
2025-01-07 11:16:02.08	149.55	36.00	
2025-01-07 11:16:02.29	149.53	36.06	
2025-01-07 11:16:02.51	149.51	36.12	
2025-01-07 11:16:02.71	149.50	36.17	
2025-01-07 11:16:02.92	149.48	36.23	
2025-01-07 11:16:03.12	149.47	36.28	
2025-01-07 11:16:03.33	149.45	36.34	
2025-01-07 11:16:03.53	149.43	36.39	
2025-01-07 11:16:03.74	149.42	36.45	
2025-01-07 11:16:03.94	149.40	36.50	
2025-01-07 11:16:04.15	149.39	36.56	
2025-01-07 11:16:04.35	149.37	36.62	
2025-01-07 11:16:04.56	149.35	36.67	
2025-01-07 11:16:04.76	149.34	36.73	
2025-01-07 11:16:04.97	149.32	36.79	
2025-01-07 11:16:05.17	149.30	36.84	
2025-01-07 11:16:05.38	149.29	36.90	
2025-01-07 11:16:05.58	149.27	36.96	
2025-01-07 11:16:05.79	149.25	37.01	
2025-01-07 11:16:05.99	149.24	37.07	
2025-01-07 11:16:06.20	149.22	37.13	
2025-01-07 11:16:06.40	149.20	37.18	
2025-01-07 11:16:06.61	149.19	37.24	
2025-01-07 11:16:06.83	149.17	37.30	
2025-01-07 11:16:07.03	149.15	37.36	
2025-01-07 11:16:07.24	149.13	37.42	
2025-01-07 11:16:07.45	149.12	37.48	
2025-01-07 11:16:07.65	149.10	37.53	
2025-01-07 11:16:07.86	149.08	37.59	
2025-01-07 11:16:08.06	149.06	37.65	
2025-01-07 11:16:08.26	149.05	37.71	
2025-01-07 11:16:08.47	149.03	37.77	
2025-01-07 11:16:08.68	149.01	37.83	
2025-01-07 11:16:08.88	148.99	37.88	
2025-01-07 11:16:09.09	148.98	37.94	
2025-01-07 11:16:09.29	148.96	38.00	
2025-01-07 11:16:09.50	148.94	38.06	
2025-01-07 11:16:09.71	148.92	38.12	
2025-01-07 11:16:09.91	148.90	38.18	
2025-01-07 11:16:10.12	148.89	38.24	
2025-01-07 11:16:10.32	148.87	38.30	
2025-01-07 11:16:10.53	148.85	38.36	
2025-01-07 11:16:10.73	148.83	38.42	
2025-01-07 11:16:10.94	148.81	38.48	
2025-01-07 11:16:11.14	148.79	38.53	
2025-01-07 11:16:11.35	148.78	38.60	
2025-01-07 11:16:11.56	148.76	38.66	
2025-01-07 11:16:11.76	148.74	38.72	
2025-01-07 11:16:11.97	148.72	38.78	
2025-01-07 11:16:12.17	148.70	38.84	
2025-01-07 11:16:12.38	148.68	38.90	
2025-01-07 11:16:12.58	148.66	38.96	
2025-01-07 11:16:12.79	148.64	39.02	
2025-01-07 11:16:12.99	148.63	39.08	
2025-01-07 11:16:13.21	148.60	39.14	
2025-01-07 11:16:13.42	148.58	39.21	
2025-01-07 11:16:13.62	148.57	39.26	
2025-01-07 11:16:13.83	148.55	39.33	
2025-01-07 11:16:14.04	148.53	39.39	
2025-01-07 11:16:14.24	148.51	39.45	
2025-01-07 11:16:14.45	148.49	39.51	
2025-01-07 11:16:14.65	148.47	39.57	
2025-01-07 11:16:14.86	148.45	39.64	
2025-01-07 11:16:15.06	148.43	39.70	
2025-01-07 11:16:15.26	148.41	39.76	
2025-01-07 11:16:15.47	148.39	39.82	
2025-01-07 11:16:15.67	148.37	39.88	
2025-01-07 11:16:15.88	148.35	39.94	
2025-01-07 11:16:16.08	148.33	40.00	
2025-01-07 11:16:16.29	148.31	40.07	
2025-01-07 11:16:16.49	148.29	40.13	
2025-01-07 11:16:16.70	148.27	40.19	
2025-01-07 11:16:16.90	148.25	40.25	
2025-01-07 11:16:17.11	148.23	40.32	
2025-01-07 11:16:17.32	148.20	40.38	
2025-01-07 11:16:17.52	148.18	40.44	
2025-01-07 11:16:17.73	148.16	40.51	
2025-01-07 11:16:17.93	148.14	40.57	
2025-01-07 11:16:18.14	148.12	40.64	
2025-01-07 11:16:18.34	148.10	40.70	
2025-01-07 11:16:18.55	148.08	40.76	
2025-01-07 11:16:18.75	148.06	40.82	
2025-01-07 11:16:18.96	148.03	40.89	
2025-01-07 11:16:19.16	148.01	40.95	
2025-01-07 11:16:19.37	147.99	41.02	
2025-01-07 11:16:19.57	147.97	41.08	
2025-01-07 11:16:19.78	147.95	41.15	
2025-01-07 11:16:19.98	147.93	41.21	
2025-01-07 11:16:20.19	147.90	41.28	
2025-01-07 11:16:20.39	147.88	41.34	
2025-01-07 11:16:20.60	147.86	41.40	
2025-01-07 11:16:20.80	147.84	41.47	
2025-01-07 11:16:21.01	147.81	41.53	
2025-01-07 11:16:21.21	147.79	41.60	
2025-01-07 11:16:21.42	147.77	41.66	
2025-01-07 11:16:21.62	147.75	41.73	
2025-01-07 11:16:21.83	147.72	41.80	
2025-01-07 11:16:22.03	147.70	41.86	
2025-01-07 11:16:22.24	147.68	41.93	
2025-01-07 11:16:22.44	147.66	41.99	
2025-01-07 11:16:22.65	147.63	42.06	
2025-01-07 11:16:22.86	147.61	42.13	
2025-01-07 11:16:23.07	147.58	42.19	
2025-01-07 11:16:23.27	147.56	42.26	
2025-01-07 11:16:23.48	147.54	42.33	
2025-01-07 11:16:23.69	147.51	42.39	
2025-01-07 11:16:23.89	147.49	42.46	
2025-01-07 11:16:24.10	147.47	42.53	
2025-01-07 11:16:24.30	147.44	42.59	
2025-01-07 11:16:24.51	147.42	42.66	
2025-01-07 11:16:24.72	147.39	42.73	
2025-01-07 11:16:24.92	147.37	42.80	
2025-01-07 11:16:25.13	147.34	42.87	
2025-01-07 11:16:25.33	147.32	42.93	
2025-01-07 11:16:25.53	147.30	43.00	
2025-01-07 11:16:25.74	147.27	43.07	
2025-01-07 11:16:25.94	147.25	43.13	
2025-01-07 11:16:26.15	147.22	43.20	
2025-01-07 11:16:26.35	147.20	43.27	
2025-01-07 11:16:26.56	147.17	43.34	
2025-01-07 11:16:26.76	147.15	43.41	
2025-01-07 11:16:26.97	147.12	43.48	
2025-01-07 11:16:27.17	147.10	43.54	
2025-01-07 11:16:27.38	147.07	43.61	
2025-01-07 11:16:27.59	147.04	43.68	
2025-01-07 11:16:27.79	147.02	43.75	
2025-01-07 11:16:28.00	146.99	43.82	
2025-01-07 11:16:28.20	146.97	43.89	
2025-01-07 11:16:28.41	146.94	43.96	
2025-01-07 11:16:28.61	146.91	44.03	
2025-01-07 11:16:28.82	146.89	44.10	
2025-01-07 11:16:29.02	146.86	44.17	
2025-01-07 11:16:29.23	146.83	44.24	
2025-01-07 11:16:29.43	146.81	44.31	
2025-01-07 11:16:29.64	146.78	44.38	
2025-01-07 11:16:29.84	146.75	44.45	
2025-01-07 11:16:30.05	146.73	44.52	
2025-01-07 11:16:30.25	146.70	44.59	
2025-01-07 11:16:30.46	146.67	44.66	
2025-01-07 11:16:30.66	146.64	44.73	
2025-01-07 11:16:30.87	146.62	44.80	
2025-01-07 11:16:31.08	146.59	44.87	
2025-01-07 11:16:31.28	146.56	44.94	
2025-01-07 11:16:31.48	146.53	45.01	
2025-01-07 11:16:31.69	146.50	45.08	
2025-01-07 11:16:31.89	146.48	45.15	
2025-01-07 11:16:32.10	146.45	45.23	
2025-01-07 11:16:32.31	146.42	45.30	
2025-01-07 11:16:32.51	146.39	45.37	
2025-01-07 11:16:32.72	146.36	45.44	
2025-01-07 11:16:32.92	146.33	45.52	
2025-01-07 11:16:33.13	146.30	45.59	
2025-01-07 11:16:33.33	146.27	45.66	
2025-01-07 11:16:33.54	146.24	45.73	
2025-01-07 11:16:33.75	146.21	45.81	
2025-01-07 11:16:33.95	146.18	45.88	
2025-01-07 11:16:34.16	146.15	45.95	
2025-01-07 11:16:34.37	146.12	46.03	
2025-01-07 11:16:34.57	146.09	46.10	
2025-01-07 11:16:34.77	146.06	46.17	
2025-01-07 11:16:34.98	146.03	46.25	
2025-01-07 11:16:35.19	146.00	46.32	
2025-01-07 11:16:35.39	145.97	46.39	
2025-01-07 11:16:35.60	145.94	46.47	
2025-01-07 11:16:35.80	145.91	46.54	
2025-01-07 11:16:36.01	145.88	46.62	
2025-01-07 11:16:36.22	145.85	46.69	
2025-01-07 11:16:36.42	145.82	46.76	
2025-01-07 11:16:36.62	145.78	46.84	
2025-01-07 11:16:36.83	145.75	46.91	
2025-01-07 11:16:37.03	145.72	46.99	
2025-01-07 11:16:37.24	145.69	47.06	
2025-01-07 11:16:37.45	145.65	47.14	
2025-01-07 11:16:37.65	145.62	47.21	
2025-01-07 11:16:37.85	145.59	47.29	
2025-01-07 11:16:38.06	145.56	47.36	
2025-01-07 11:16:38.26	145.53	47.44	
2025-01-07 11:16:38.47	145.49	47.51	
2025-01-07 11:16:38.68	145.46	47.59	
2025-01-07 11:16:38.89	145.42	47.67	
2025-01-07 11:16:39.10	145.39	47.75	
2025-01-07 11:16:39.31	145.35	47.82	
2025-01-07 11:16:39.51	145.32	47.90	
2025-01-07 11:16:39.72	145.29	47.98	
2025-01-07 11:16:39.92	145.25	48.05	
2025-01-07 11:16:40.13	145.22	48.13	
2025-01-07 11:16:40.33	145.18	48.20	
2025-01-07 11:16:40.54	145.15	48.28	
2025-01-07 11:16:40.74	145.11	48.36	
2025-01-07 11:16:40.95	145.08	48.44	
2025-01-07 11:16:41.15	145.04	48.51	
2025-01-07 11:16:41.36	145.01	48.59	
2025-01-07 11:16:41.56	144.97	48.67	
2025-01-07 11:16:41.77	144.94	48.75	
2025-01-07 11:16:41.97	144.90	48.82	
2025-01-07 11:16:42.18	144.86	48.90	
2025-01-07 11:16:42.38	144.83	48.98	
2025-01-07 11:16:42.59	144.79	49.06	
2025-01-07 11:16:42.79	144.76	49.13	
2025-01-07 11:16:43.00	144.72	49.22	
2025-01-07 11:16:43.20	144.68	49.29	
2025-01-07 11:16:43.41	144.64	49.37	
2025-01-07 11:16:43.61	144.61	49.45	
2025-01-07 11:16:43.82	144.57	49.53	
2025-01-07 11:16:44.02	144.53	49.61	
2025-01-07 11:16:44.24	144.49	49.69	
2025-01-07 11:16:44.45	144.45	49.77	
2025-01-07 11:16:44.65	144.41	49.85	
2025-01-07 11:16:44.86	144.37	49.93	
2025-01-07 11:16:45.07	144.33	50.01	
2025-01-07 11:16:45.28	144.29	50.10	
2025-01-07 11:16:45.49	144.25	50.18	
2025-01-07 11:16:45.70	144.21	50.26	
2025-01-07 11:16:45.90	144.17	50.34	
2025-01-07 11:16:46.11	144.13	50.42	
2025-01-07 11:16:46.31	144.09	50.50	
2025-01-07 11:16:46.52	144.05	50.58	
2025-01-07 11:16:46.72	144.01	50.66	
2025-01-07 11:16:46.93	143.97	50.74	
2025-01-07 11:16:47.13	143.93	50.82	
2025-01-07 11:16:47.34	143.89	50.91	
2025-01-07 11:16:47.54	143.85	50.98	
2025-01-07 11:16:47.75	143.80	51.07	
2025-01-07 11:16:47.95	143.76	51.15	
2025-01-07 11:16:48.16	143.72	51.23	
2025-01-07 11:16:48.38	143.67	51.32	
2025-01-07 11:16:48.58	143.63	51.40	
2025-01-07 11:16:48.79	143.59	51.48	
2025-01-07 11:16:49.00	143.54	51.57	
2025-01-07 11:16:49.20	143.50	51.65	
2025-01-07 11:16:49.41	143.45	51.73	
2025-01-07 11:16:49.61	143.41	51.81	
2025-01-07 11:16:49.82	143.37	51.90	
2025-01-07 11:16:50.02	143.32	51.98	
2025-01-07 11:16:50.23	143.28	52.06	
2025-01-07 11:16:50.43	143.23	52.14	
2025-01-07 11:16:50.64	143.19	52.23	
2025-01-07 11:16:50.84	143.14	52.31	
2025-01-07 11:16:51.05	143.09	52.40	
2025-01-07 11:16:51.26	143.05	52.48	
2025-01-07 11:16:51.46	143.00	52.56	
2025-01-07 11:16:51.66	142.96	52.65	
2025-01-07 11:16:51.87	142.91	52.73	
2025-01-07 11:16:52.08	142.86	52.82	
2025-01-07 11:16:52.28	142.81	52.90	
2025-01-07 11:16:52.49	142.76	52.99	
2025-01-07 11:16:52.69	142.72	53.07	
2025-01-07 11:16:52.89	142.67	53.15	
2025-01-07 11:16:53.10	142.62	53.24	
2025-01-07 11:16:53.30	142.57	53.32	
2025-01-07 11:16:53.51	142.52	53.41	
2025-01-07 11:16:53.71	142.47	53.49	
2025-01-07 11:16:53.92	142.42	53.58	
2025-01-07 11:16:54.12	142.37	53.66	
2025-01-07 11:16:54.33	142.32	53.75	
2025-01-07 11:16:54.53	142.27	53.83	
2025-01-07 11:16:54.73	142.22	53.92	
2025-01-07 11:16:54.94	142.17	54.00	
2025-01-07 11:16:55.14	142.12	54.09	
2025-01-07 11:16:55.35	142.07	54.18	
2025-01-07 11:16:55.55	142.01	54.26	
2025-01-07 11:16:55.76	141.96	54.35	
2025-01-07 11:16:55.96	141.91	54.43	
2025-01-07 11:16:56.17	141.85	54.52	
2025-01-07 11:16:56.37	141.80	54.61	
2025-01-07 11:16:56.58	141.75	54.70	
2025-01-07 11:16:56.79	141.69	54.79	
2025-01-07 11:16:56.99	141.64	54.87	
2025-01-07 11:16:57.20	141.58	54.96	
2025-01-07 11:16:57.40	141.53	55.04	
2025-01-07 11:16:57.61	141.47	55.13	
2025-01-07 11:16:57.81	141.42	55.22	
2025-01-07 11:16:58.03	141.35	55.31	
2025-01-07 11:16:58.24	141.30	55.40	
2025-01-07 11:16:58.44	141.24	55.49	
2025-01-07 11:16:58.65	141.18	55.58	
2025-01-07 11:16:58.85	141.13	55.67	
2025-01-07 11:16:59.06	141.07	55.76	
2025-01-07 11:16:59.27	141.01	55.85	
2025-01-07 11:16:59.47	140.95	55.93	
2025-01-07 11:16:59.68	140.89	56.02	
2025-01-07 11:16:59.88	140.83	56.11	
2025-01-07 11:17:00.09	140.77	56.20	
2025-01-07 11:17:00.29	140.71	56.29	
2025-01-07 11:17:00.50	140.65	56.38	
2025-01-07 11:17:00.70	140.59	56.47	
2025-01-07 11:17:00.91	140.52	56.56	
2025-01-07 11:17:01.11	140.46	56.65	
2025-01-07 11:17:01.32	140.40	56.74	
2025-01-07 11:17:01.52	140.34	56.83	
2025-01-07 11:17:01.73	140.27	56.92	
2025-01-07 11:17:01.93	140.21	57.01	
2025-01-07 11:17:02.14	140.14	57.10	
2025-01-07 11:17:02.36	140.07	57.20	
2025-01-07 11:17:02.56	140.01	57.28	
2025-01-07 11:17:02.77	139.94	57.38	
2025-01-07 11:17:02.97	139.88	57.46	
2025-01-07 11:17:03.18	139.81	57.56	
2025-01-07 11:17:03.40	139.74	57.66	
2025-01-07 11:17:03.61	139.67	57.75	
2025-01-07 11:17:03.81	139.60	57.84	
2025-01-07 11:17:04.02	139.53	57.93	
2025-01-07 11:17:04.22	139.47	58.02	
2025-01-07 11:17:04.44	139.39	58.12	
2025-01-07 11:17:04.65	139.32	58.21	
2025-01-07 11:17:04.85	139.25	58.30	
2025-01-07 11:17:05.06	139.18	58.39	
2025-01-07 11:17:05.26	139.11	58.48	
2025-01-07 11:17:05.47	139.03	58.58	
2025-01-07 11:17:05.67	138.96	58.67	
2025-01-07 11:17:05.88	138.89	58.76	
2025-01-07 11:17:06.08	138.82	58.85	
2025-01-07 11:17:06.29	138.74	58.95	
2025-01-07 11:17:06.49	138.67	59.04	
2025-01-07 11:17:06.69	138.60	59.13	
2025-01-07 11:17:06.90	138.52	59.22	
2025-01-07 11:17:07.11	138.44	59.32	
2025-01-07 11:17:07.31	138.37	59.41	
2025-01-07 11:17:07.52	138.29	59.50	
2025-01-07 11:17:07.72	138.21	59.59	
2025-01-07 11:17:07.92	138.14	59.68	
2025-01-07 11:17:08.13	138.05	59.78	
2025-01-07 11:17:08.34	137.97	59.88	
2025-01-07 11:17:08.54	137.90	59.97	
2025-01-07 11:17:08.75	137.81	60.06	
2025-01-07 11:17:08.95	137.73	60.15	
2025-01-07 11:17:09.16	137.65	60.25	
2025-01-07 11:17:09.36	137.57	60.34	
2025-01-07 11:17:09.57	137.48	60.44	
2025-01-07 11:17:09.77	137.40	60.53	
2025-01-07 11:17:09.98	137.32	60.62	
2025-01-07 11:17:10.18	137.23	60.72	
2025-01-07 11:17:10.39	137.15	60.81	
2025-01-07 11:17:10.59	137.06	60.90	
2025-01-07 11:17:10.80	136.97	61.00	
2025-01-07 11:17:11.00	136.89	61.09	
2025-01-07 11:17:11.21	136.80	61.19	
2025-01-07 11:17:11.41	136.71	61.28	
2025-01-07 11:17:11.62	136.62	61.38	
2025-01-07 11:17:11.82	136.53	61.47	
2025-01-07 11:17:12.02	136.44	61.56	
2025-01-07 11:17:12.23	136.35	61.66	
2025-01-07 11:17:12.44	136.25	61.76	
2025-01-07 11:17:12.64	136.16	61.85	
2025-01-07 11:17:12.85	136.07	61.95	
2025-01-07 11:17:13.05	135.97	62.04	
2025-01-07 11:17:13.26	135.88	62.14	
2025-01-07 11:17:13.46	135.78	62.23	
2025-01-07 11:17:13.67	135.68	62.33	
2025-01-07 11:17:13.87	135.59	62.42	
2025-01-07 11:17:14.08	135.49	62.52	
2025-01-07 11:17:14.28	135.39	62.61	
2025-01-07 11:17:14.49	135.29	62.71	
2025-01-07 11:17:14.70	135.19	62.81	
2025-01-07 11:17:14.91	135.08	62.91	
2025-01-07 11:17:15.12	134.98	63.01	
2025-01-07 11:17:15.32	134.88	63.10	
2025-01-07 11:17:15.53	134.77	63.20	
2025-01-07 11:17:15.74	134.66	63.30	
2025-01-07 11:17:15.94	134.56	63.39	
2025-01-07 11:17:16.15	134.45	63.49	
2025-01-07 11:17:16.35	134.34	63.58	
2025-01-07 11:17:16.55	134.24	63.68	
2025-01-07 11:17:16.76	134.13	63.78	
2025-01-07 11:17:16.96	134.02	63.87	
2025-01-07 11:17:17.17	133.90	63.97	
2025-01-07 11:17:17.37	133.79	64.06	
2025-01-07 11:17:17.58	133.68	64.16	
2025-01-07 11:17:17.78	133.57	64.26	
2025-01-07 11:17:17.99	133.45	64.35	
2025-01-07 11:17:18.19	133.34	64.45	
2025-01-07 11:17:18.40	133.22	64.55	
2025-01-07 11:17:18.60	133.10	64.64	
2025-01-07 11:17:18.81	132.98	64.74	
2025-01-07 11:17:19.01	132.86	64.83	
2025-01-07 11:17:19.21	132.74	64.93	
2025-01-07 11:17:19.42	132.62	65.03	
2025-01-07 11:17:19.62	132.50	65.12	
2025-01-07 11:17:19.83	132.37	65.22	
2025-01-07 11:17:20.03	132.25	65.32	
2025-01-07 11:17:20.24	132.12	65.41	
2025-01-07 11:17:20.44	131.99	65.51	
2025-01-07 11:17:20.65	131.86	65.61	
2025-01-07 11:17:20.86	131.73	65.71	
2025-01-07 11:17:21.06	131.60	65.80	
2025-01-07 11:17:21.27	131.47	65.90	
2025-01-07 11:17:21.47	131.34	66.00	
2025-01-07 11:17:21.68	131.20	66.09	
2025-01-07 11:17:21.88	131.07	66.19	
2025-01-07 11:17:22.09	130.92	66.29	
2025-01-07 11:17:22.30	130.78	66.39	
2025-01-07 11:17:22.50	130.65	66.48	
2025-01-07 11:17:22.71	130.50	66.58	
2025-01-07 11:17:22.91	130.36	66.68	
2025-01-07 11:17:23.12	130.22	66.77	
2025-01-07 11:17:23.32	130.08	66.87	
2025-01-07 11:17:23.53	129.93	66.97	
2025-01-07 11:17:23.73	129.78	67.06	
2025-01-07 11:17:23.94	129.63	67.16	
2025-01-07 11:17:24.14	129.48	67.26	
2025-01-07 11:17:24.35	129.33	67.36	
2025-01-07 11:17:24.56	129.17	67.45	
2025-01-07 11:17:24.76	129.02	67.55	
2025-01-07 11:17:24.96	128.87	67.64	
2025-01-07 11:17:25.17	128.71	67.74	
2025-01-07 11:17:25.38	128.54	67.84	
2025-01-07 11:17:25.58	128.39	67.93	
2025-01-07 11:17:25.80	128.21	68.04	
2025-01-07 11:17:26.00	128.05	68.13	
2025-01-07 11:17:26.21	127.88	68.23	
2025-01-07 11:17:26.41	127.72	68.32	
2025-01-07 11:17:26.62	127.55	68.42	
2025-01-07 11:17:26.82	127.38	68.52	
2025-01-07 11:17:27.02	127.21	68.61	
2025-01-07 11:17:27.23	127.04	68.71	
2025-01-07 11:17:27.44	126.86	68.81	
2025-01-07 11:17:27.64	126.68	68.90	
2025-01-07 11:17:27.84	126.51	68.99	
2025-01-07 11:17:28.05	126.32	69.09	
2025-01-07 11:17:28.25	126.15	69.18	
2025-01-07 11:17:28.46	125.96	69.28	
2025-01-07 11:17:28.66	125.78	69.37	
2025-01-07 11:17:28.87	125.58	69.47	
2025-01-07 11:17:29.09	125.38	69.57	
2025-01-07 11:17:29.29	125.19	69.67	
2025-01-07 11:17:29.50	125.00	69.76	
2025-01-07 11:17:29.71	124.79	69.86	
2025-01-07 11:17:29.91	124.60	69.95	
2025-01-07 11:17:30.12	124.40	70.05	
2025-01-07 11:17:30.32	124.20	70.14	
2025-01-07 11:17:30.53	123.99	70.24	
2025-01-07 11:17:30.73	123.79	70.33	
2025-01-07 11:17:30.94	123.58	70.42	
2025-01-07 11:17:31.14	123.37	70.52	
2025-01-07 11:17:31.35	123.16	70.61	
