passes_logs/2025/01/07/SPB_Silybum_02/SPB_Silybum_02__20250107_042335_SUOMI_NPP_rec.log

#Pass ID: 20250107_042335_SUOMI NPP
#Satellite: SUOMI NPP
#Configuration: NPP
#Start time: 2025-01-07 04:23:33

#Version: 2.0.20230423
#Station: SPB_Silybum_02
#Location: 30.233357 lon 59.946436 lat
#TLE: 1 37849U 11061A   25006.17970494  .00000315  00000+0  17023-3 0  9998
#TLE: 2 37849  98.7437 307.2805 0001982  54.5030 305.6331 14.19533747683667

#Time	Az	El	Level	Level2	SNR	BER	Gain	Gain2
2025-01-07 04:23:35.71	18.31	4.02	
2025-01-07 04:23:35.91	18.29	4.02	
2025-01-07 04:23:36.12	18.26	4.03	
2025-01-07 04:23:36.32	18.24	4.04	
2025-01-07 04:23:36.53	18.21	4.05	
2025-01-07 04:23:36.74	18.19	4.05	
2025-01-07 04:23:36.95	18.16	4.06	
2025-01-07 04:23:37.15	18.14	4.07	
2025-01-07 04:23:37.35	18.11	4.08	
2025-01-07 04:23:37.56	18.08	4.08	
2025-01-07 04:23:37.77	18.06	4.09	
2025-01-07 04:23:37.97	18.03	4.10	
2025-01-07 04:23:38.18	18.01	4.11	
2025-01-07 04:23:38.39	17.98	4.11	
2025-01-07 04:23:38.60	17.96	4.12	
2025-01-07 04:23:38.81	17.93	4.13	
2025-01-07 04:23:39.01	17.90	4.14	
2025-01-07 04:23:39.22	17.88	4.14	
2025-01-07 04:23:39.42	17.85	4.15	
2025-01-07 04:23:39.63	17.83	4.16	
2025-01-07 04:23:39.83	17.80	4.17	
2025-01-07 04:23:40.04	17.78	4.17	
2025-01-07 04:23:40.25	17.75	4.18	
2025-01-07 04:23:40.45	17.73	4.19	
2025-01-07 04:23:40.65	17.70	4.20	
2025-01-07 04:23:40.86	17.67	4.20	
2025-01-07 04:23:41.06	17.65	4.21	
2025-01-07 04:23:41.26	17.62	4.22	
2025-01-07 04:23:41.47	17.60	4.23	
2025-01-07 04:23:41.68	17.57	4.23	
2025-01-07 04:23:41.88	17.55	4.24	
2025-01-07 04:23:42.09	17.52	4.25	
2025-01-07 04:23:42.29	17.50	4.26	
2025-01-07 04:23:42.50	17.47	4.26	
2025-01-07 04:23:42.70	17.44	4.27	
2025-01-07 04:23:42.91	17.42	4.28	
2025-01-07 04:23:43.11	17.39	4.29	
2025-01-07 04:23:43.32	17.37	4.29	
2025-01-07 04:23:43.52	17.34	4.30	
2025-01-07 04:23:43.73	17.31	4.31	
2025-01-07 04:23:43.93	17.29	4.31	
2025-01-07 04:23:44.14	17.26	4.32	
2025-01-07 04:23:44.35	17.24	4.33	
2025-01-07 04:23:44.55	17.21	4.34	
2025-01-07 04:23:44.75	17.19	4.34	
2025-01-07 04:23:44.96	17.16	4.35	
2025-01-07 04:23:45.16	17.13	4.36	
2025-01-07 04:23:45.37	17.11	4.37	
2025-01-07 04:23:45.58	17.08	4.37	
2025-01-07 04:23:45.78	17.06	4.38	
2025-01-07 04:23:45.98	17.03	4.39	
2025-01-07 04:23:46.19	17.00	4.40	
2025-01-07 04:23:46.40	16.98	4.40	
2025-01-07 04:23:46.60	16.95	4.41	
2025-01-07 04:23:46.81	16.93	4.42	
2025-01-07 04:23:47.01	16.90	4.43	
2025-01-07 04:23:47.22	16.87	4.43	
2025-01-07 04:23:47.42	16.85	4.44	
2025-01-07 04:23:47.63	16.82	4.45	
2025-01-07 04:23:47.83	16.80	4.45	
2025-01-07 04:23:48.04	16.77	4.46	
2025-01-07 04:23:48.24	16.74	4.47	
2025-01-07 04:23:48.45	16.72	4.48	
2025-01-07 04:23:48.65	16.69	4.48	
2025-01-07 04:23:48.86	16.66	4.49	
2025-01-07 04:23:49.06	16.64	4.50	
2025-01-07 04:23:49.27	16.61	4.51	
2025-01-07 04:23:49.47	16.59	4.51	
2025-01-07 04:23:49.68	16.56	4.52	
2025-01-07 04:23:49.89	16.53	4.53	
2025-01-07 04:23:50.09	16.51	4.54	
2025-01-07 04:23:50.29	16.48	4.54	
2025-01-07 04:23:50.50	16.46	4.55	
2025-01-07 04:23:50.71	16.43	4.56	
2025-01-07 04:23:50.91	16.40	4.56	
2025-01-07 04:23:51.11	16.38	4.57	
2025-01-07 04:23:51.32	16.35	4.58	
2025-01-07 04:23:51.53	16.32	4.59	
2025-01-07 04:23:51.73	16.30	4.59	
2025-01-07 04:23:51.94	16.27	4.60	
2025-01-07 04:23:52.14	16.25	4.61	
2025-01-07 04:23:52.34	16.22	4.61	
2025-01-07 04:23:52.55	16.19	4.62	
2025-01-07 04:23:52.76	16.17	4.63	
2025-01-07 04:23:52.96	16.14	4.64	
2025-01-07 04:23:53.17	16.11	4.64	
2025-01-07 04:23:53.37	16.09	4.65	
2025-01-07 04:23:53.58	16.06	4.66	
2025-01-07 04:23:53.78	16.03	4.67	
2025-01-07 04:23:53.99	16.01	4.67	
2025-01-07 04:23:54.19	15.98	4.68	
2025-01-07 04:23:54.40	15.95	4.69	
2025-01-07 04:23:54.60	15.93	4.69	
2025-01-07 04:23:54.81	15.90	4.70	
2025-01-07 04:23:55.02	15.87	4.71	
2025-01-07 04:23:55.22	15.85	4.72	
2025-01-07 04:23:55.42	15.82	4.72	
2025-01-07 04:23:55.63	15.79	4.73	
2025-01-07 04:23:55.84	15.77	4.74	
2025-01-07 04:23:56.04	15.74	4.75	
2025-01-07 04:23:56.25	15.71	4.75	
2025-01-07 04:23:56.45	15.69	4.76	
2025-01-07 04:23:56.66	15.66	4.77	
2025-01-07 04:23:56.86	15.63	4.77	
2025-01-07 04:23:57.07	15.61	4.78	
2025-01-07 04:23:57.27	15.58	4.79	
2025-01-07 04:23:57.48	15.55	4.80	
2025-01-07 04:23:57.68	15.53	4.80	
2025-01-07 04:23:57.89	15.50	4.81	
2025-01-07 04:23:58.09	15.47	4.82	
2025-01-07 04:23:58.30	15.45	4.82	
2025-01-07 04:23:58.50	15.42	4.83	
2025-01-07 04:23:58.70	15.40	4.84	
2025-01-07 04:23:58.91	15.37	4.85	
2025-01-07 04:23:59.11	15.34	4.85	
2025-01-07 04:23:59.32	15.31	4.86	
2025-01-07 04:23:59.52	15.29	4.87	
2025-01-07 04:23:59.73	15.26	4.87	
2025-01-07 04:23:59.94	15.23	4.88	
2025-01-07 04:24:00.14	15.21	4.89	
2025-01-07 04:24:00.34	15.18	4.89	
2025-01-07 04:24:00.55	15.15	4.90	
2025-01-07 04:24:00.75	15.13	4.91	
2025-01-07 04:24:00.96	15.10	4.92	
2025-01-07 04:24:01.17	15.07	4.92	
2025-01-07 04:24:01.37	15.05	4.93	
2025-01-07 04:24:01.58	15.02	4.94	
2025-01-07 04:24:01.80	14.99	4.95	
2025-01-07 04:24:02.00	14.96	4.95	
2025-01-07 04:24:02.21	14.93	4.96	
2025-01-07 04:24:02.42	14.91	4.97	
2025-01-07 04:24:02.62	14.88	4.97	
2025-01-07 04:24:02.83	14.85	4.98	
2025-01-07 04:24:03.03	14.83	4.99	
2025-01-07 04:24:03.24	14.80	4.99	
2025-01-07 04:24:03.44	14.77	5.00	
2025-01-07 04:24:03.65	14.74	5.01	
2025-01-07 04:24:03.85	14.72	5.02	
2025-01-07 04:24:04.06	14.69	5.02	
2025-01-07 04:24:04.26	14.66	5.03	
2025-01-07 04:24:04.47	14.64	5.04	
2025-01-07 04:24:04.68	14.61	5.04	
2025-01-07 04:24:04.88	14.58	5.05	
2025-01-07 04:24:05.08	14.56	5.06	
2025-01-07 04:24:05.29	14.53	5.07	
2025-01-07 04:24:05.50	14.50	5.07	
2025-01-07 04:24:05.70	14.47	5.08	
2025-01-07 04:24:05.91	14.45	5.09	
2025-01-07 04:24:06.11	14.42	5.09	
2025-01-07 04:24:06.32	14.39	5.10	
2025-01-07 04:24:06.52	14.36	5.11	
2025-01-07 04:24:06.73	14.34	5.11	
2025-01-07 04:24:06.94	14.31	5.12	
2025-01-07 04:24:07.14	14.28	5.13	
2025-01-07 04:24:07.34	14.25	5.13	
2025-01-07 04:24:07.55	14.23	5.14	
2025-01-07 04:24:07.76	14.20	5.15	
2025-01-07 04:24:07.96	14.17	5.16	
2025-01-07 04:24:08.18	14.14	5.16	
2025-01-07 04:24:08.39	14.11	5.17	
2025-01-07 04:24:08.59	14.09	5.18	
2025-01-07 04:24:08.80	14.06	5.18	
2025-01-07 04:24:09.00	14.03	5.19	
2025-01-07 04:24:09.21	14.00	5.20	
2025-01-07 04:24:09.41	13.98	5.20	
2025-01-07 04:24:09.62	13.95	5.21	
2025-01-07 04:24:09.82	13.92	5.22	
2025-01-07 04:24:10.03	13.90	5.23	
2025-01-07 04:24:10.24	13.87	5.23	
2025-01-07 04:24:10.44	13.84	5.24	
2025-01-07 04:24:10.65	13.81	5.25	
2025-01-07 04:24:10.85	13.78	5.25	
2025-01-07 04:24:11.06	13.76	5.26	
2025-01-07 04:24:11.26	13.73	5.27	
2025-01-07 04:24:11.47	13.70	5.27	
2025-01-07 04:24:11.67	13.67	5.28	
2025-01-07 04:24:11.88	13.65	5.29	
2025-01-07 04:24:12.08	13.62	5.29	
2025-01-07 04:24:12.29	13.59	5.30	
2025-01-07 04:24:12.49	13.56	5.31	
2025-01-07 04:24:12.70	13.54	5.32	
2025-01-07 04:24:12.90	13.51	5.32	
2025-01-07 04:24:13.11	13.48	5.33	
2025-01-07 04:24:13.31	13.45	5.34	
2025-01-07 04:24:13.51	13.43	5.34	
2025-01-07 04:24:13.72	13.40	5.35	
2025-01-07 04:24:13.93	13.37	5.36	
2025-01-07 04:24:14.13	13.34	5.36	
2025-01-07 04:24:14.34	13.31	5.37	
2025-01-07 04:24:14.54	13.29	5.38	
2025-01-07 04:24:14.75	13.26	5.38	
2025-01-07 04:24:14.95	13.23	5.39	
2025-01-07 04:24:15.16	13.20	5.40	
2025-01-07 04:24:15.36	13.18	5.40	
2025-01-07 04:24:15.57	13.15	5.41	
2025-01-07 04:24:15.77	13.12	5.42	
2025-01-07 04:24:15.98	13.09	5.42	
2025-01-07 04:24:16.18	13.06	5.43	
2025-01-07 04:24:16.39	13.04	5.44	
2025-01-07 04:24:16.59	13.01	5.44	
2025-01-07 04:24:16.79	12.98	5.45	
2025-01-07 04:24:17.00	12.95	5.46	
2025-01-07 04:24:17.21	12.92	5.46	
2025-01-07 04:24:17.41	12.90	5.47	
2025-01-07 04:24:17.62	12.87	5.48	
2025-01-07 04:24:17.82	12.84	5.48	
2025-01-07 04:24:18.03	12.81	5.49	
2025-01-07 04:24:18.23	12.78	5.50	
2025-01-07 04:24:18.44	12.76	5.51	
2025-01-07 04:24:18.65	12.73	5.51	
2025-01-07 04:24:18.85	12.70	5.52	
2025-01-07 04:24:19.06	12.67	5.53	
2025-01-07 04:24:19.26	12.64	5.53	
2025-01-07 04:24:19.47	12.61	5.54	
2025-01-07 04:24:19.67	12.59	5.55	
2025-01-07 04:24:19.88	12.56	5.55	
2025-01-07 04:24:20.08	12.53	5.56	
2025-01-07 04:24:20.29	12.50	5.57	
2025-01-07 04:24:20.49	12.47	5.57	
2025-01-07 04:24:20.70	12.45	5.58	
2025-01-07 04:24:20.90	12.42	5.59	
2025-01-07 04:24:21.11	12.39	5.59	
2025-01-07 04:24:21.31	12.36	5.60	
2025-01-07 04:24:21.52	12.33	5.61	
2025-01-07 04:24:21.73	12.30	5.61	
2025-01-07 04:24:21.93	12.28	5.62	
2025-01-07 04:24:22.14	12.25	5.63	
2025-01-07 04:24:22.34	12.22	5.63	
2025-01-07 04:24:22.55	12.19	5.64	
2025-01-07 04:24:22.75	12.16	5.65	
2025-01-07 04:24:22.96	12.13	5.65	
2025-01-07 04:24:23.16	12.11	5.66	
2025-01-07 04:24:23.37	12.08	5.67	
2025-01-07 04:24:23.57	12.05	5.67	
2025-01-07 04:24:23.78	12.02	5.68	
2025-01-07 04:24:23.99	11.99	5.69	
2025-01-07 04:24:24.19	11.96	5.69	
2025-01-07 04:24:24.39	11.94	5.70	
2025-01-07 04:24:24.60	11.91	5.70	
2025-01-07 04:24:24.82	11.88	5.71	
2025-01-07 04:24:25.02	11.85	5.72	
2025-01-07 04:24:25.23	11.82	5.72	
2025-01-07 04:24:25.43	11.79	5.73	
2025-01-07 04:24:25.64	11.76	5.74	
2025-01-07 04:24:25.84	11.73	5.74	
2025-01-07 04:24:26.05	11.70	5.75	
2025-01-07 04:24:26.25	11.68	5.76	
2025-01-07 04:24:26.46	11.65	5.76	
2025-01-07 04:24:26.67	11.62	5.77	
2025-01-07 04:24:26.87	11.59	5.78	
2025-01-07 04:24:27.07	11.56	5.78	
2025-01-07 04:24:27.28	11.53	5.79	
2025-01-07 04:24:27.48	11.51	5.80	
2025-01-07 04:24:27.69	11.48	5.80	
2025-01-07 04:24:27.89	11.45	5.81	
2025-01-07 04:24:28.10	11.42	5.82	
2025-01-07 04:24:28.31	11.39	5.82	
2025-01-07 04:24:28.52	11.36	5.83	
2025-01-07 04:24:28.73	11.33	5.84	
2025-01-07 04:24:28.93	11.30	5.84	
2025-01-07 04:24:29.14	11.27	5.85	
2025-01-07 04:24:29.34	11.24	5.86	
2025-01-07 04:24:29.55	11.22	5.86	
2025-01-07 04:24:29.75	11.19	5.87	
2025-01-07 04:24:29.96	11.16	5.87	
2025-01-07 04:24:30.17	11.13	5.88	
2025-01-07 04:24:30.37	11.10	5.89	
2025-01-07 04:24:30.58	11.07	5.89	
2025-01-07 04:24:30.78	11.04	5.90	
2025-01-07 04:24:30.99	11.01	5.91	
2025-01-07 04:24:31.19	10.98	5.91	
2025-01-07 04:24:31.40	10.96	5.92	
2025-01-07 04:24:31.60	10.93	5.93	
2025-01-07 04:24:31.81	10.90	5.93	
2025-01-07 04:24:32.01	10.87	5.94	
2025-01-07 04:24:32.22	10.84	5.95	
2025-01-07 04:24:32.43	10.81	5.95	
2025-01-07 04:24:32.63	10.78	5.96	
2025-01-07 04:24:32.84	10.75	5.96	
2025-01-07 04:24:33.04	10.72	5.97	
2025-01-07 04:24:33.25	10.69	5.98	
2025-01-07 04:24:33.45	10.67	5.98	
2025-01-07 04:24:33.66	10.64	5.99	
2025-01-07 04:24:33.86	10.61	6.00	
2025-01-07 04:24:34.07	10.58	6.00	
2025-01-07 04:24:34.27	10.55	6.01	
2025-01-07 04:24:34.49	10.52	6.02	
2025-01-07 04:24:34.69	10.49	6.02	
2025-01-07 04:24:34.90	10.46	6.03	
2025-01-07 04:24:35.10	10.43	6.03	
2025-01-07 04:24:35.31	10.40	6.04	
2025-01-07 04:24:35.51	10.37	6.05	
2025-01-07 04:24:35.72	10.34	6.05	
2025-01-07 04:24:35.92	10.32	6.06	
2025-01-07 04:24:36.13	10.29	6.07	
2025-01-07 04:24:36.34	10.26	6.07	
2025-01-07 04:24:36.54	10.23	6.08	
2025-01-07 04:24:36.75	10.20	6.09	
2025-01-07 04:24:36.95	10.17	6.09	
2025-01-07 04:24:37.16	10.14	6.10	
2025-01-07 04:24:37.36	10.11	6.10	
2025-01-07 04:24:37.57	10.08	6.11	
2025-01-07 04:24:37.77	10.05	6.12	
2025-01-07 04:24:37.97	10.02	6.12	
2025-01-07 04:24:38.18	9.99	6.13	
2025-01-07 04:24:38.39	9.96	6.14	
2025-01-07 04:24:38.59	9.93	6.14	
2025-01-07 04:24:38.80	9.90	6.15	
2025-01-07 04:24:39.00	9.88	6.15	
2025-01-07 04:24:39.21	9.85	6.16	
2025-01-07 04:24:39.41	9.82	6.17	
2025-01-07 04:24:39.62	9.79	6.17	
2025-01-07 04:24:39.82	9.76	6.18	
2025-01-07 04:24:40.03	9.73	6.18	
2025-01-07 04:24:40.23	9.70	6.19	
2025-01-07 04:24:40.44	9.67	6.20	
2025-01-07 04:24:40.64	9.64	6.20	
2025-01-07 04:24:40.85	9.61	6.21	
2025-01-07 04:24:41.05	9.58	6.22	
2025-01-07 04:24:41.26	9.55	6.22	
2025-01-07 04:24:41.46	9.52	6.23	
2025-01-07 04:24:41.67	9.49	6.23	
2025-01-07 04:24:41.87	9.46	6.24	
2025-01-07 04:24:42.08	9.43	6.25	
2025-01-07 04:24:42.28	9.40	6.25	
2025-01-07 04:24:42.49	9.37	6.26	
2025-01-07 04:24:42.69	9.34	6.26	
2025-01-07 04:24:42.90	9.31	6.27	
2025-01-07 04:24:43.10	9.29	6.28	
2025-01-07 04:24:43.31	9.26	6.28	
2025-01-07 04:24:43.51	9.23	6.29	
2025-01-07 04:24:43.72	9.20	6.30	
2025-01-07 04:24:43.92	9.17	6.30	
2025-01-07 04:24:44.13	9.14	6.31	
2025-01-07 04:24:44.34	9.11	6.31	
2025-01-07 04:24:44.54	9.08	6.32	
2025-01-07 04:24:44.74	9.05	6.33	
2025-01-07 04:24:44.95	9.02	6.33	
2025-01-07 04:24:45.15	8.99	6.34	
2025-01-07 04:24:45.36	8.96	6.34	
2025-01-07 04:24:45.56	8.93	6.35	
2025-01-07 04:24:45.77	8.90	6.36	
2025-01-07 04:24:45.97	8.87	6.36	
2025-01-07 04:24:46.17	8.84	6.37	
2025-01-07 04:24:46.38	8.81	6.37	
2025-01-07 04:24:46.58	8.78	6.38	
2025-01-07 04:24:46.79	8.75	6.39	
2025-01-07 04:24:46.99	8.72	6.39	
2025-01-07 04:24:47.20	8.69	6.40	
2025-01-07 04:24:47.40	8.66	6.40	
2025-01-07 04:24:47.61	8.63	6.41	
2025-01-07 04:24:47.81	8.60	6.42	
2025-01-07 04:24:48.02	8.57	6.42	
2025-01-07 04:24:48.22	8.54	6.43	
2025-01-07 04:24:48.43	8.51	6.43	
2025-01-07 04:24:48.64	8.48	6.44	
2025-01-07 04:24:48.84	8.45	6.44	
2025-01-07 04:24:49.05	8.42	6.45	
2025-01-07 04:24:49.25	8.39	6.46	
2025-01-07 04:24:49.46	8.36	6.46	
2025-01-07 04:24:49.66	8.33	6.47	
2025-01-07 04:24:49.87	8.30	6.47	
2025-01-07 04:24:50.07	8.27	6.48	
2025-01-07 04:24:50.28	8.24	6.49	
2025-01-07 04:24:50.48	8.21	6.49	
2025-01-07 04:24:50.69	8.18	6.50	
2025-01-07 04:24:50.89	8.15	6.50	
2025-01-07 04:24:51.10	8.12	6.51	
2025-01-07 04:24:51.30	8.09	6.52	
2025-01-07 04:24:51.51	8.06	6.52	
2025-01-07 04:24:51.71	8.03	6.53	
2025-01-07 04:24:51.92	8.00	6.53	
2025-01-07 04:24:52.12	7.97	6.54	
2025-01-07 04:24:52.33	7.94	6.54	
2025-01-07 04:24:52.53	7.91	6.55	
2025-01-07 04:24:52.74	7.88	6.56	
2025-01-07 04:24:52.94	7.85	6.56	
2025-01-07 04:24:53.15	7.82	6.57	
2025-01-07 04:24:53.36	7.79	6.57	
2025-01-07 04:24:53.56	7.76	6.58	
2025-01-07 04:24:53.77	7.73	6.59	
2025-01-07 04:24:53.97	7.70	6.59	
2025-01-07 04:24:54.18	7.67	6.60	
2025-01-07 04:24:54.38	7.64	6.60	
2025-01-07 04:24:54.59	7.61	6.61	
2025-01-07 04:24:54.80	7.58	6.61	
2025-01-07 04:24:55.00	7.55	6.62	
2025-01-07 04:24:55.20	7.52	6.63	
2025-01-07 04:24:55.41	7.48	6.63	
2025-01-07 04:24:55.61	7.46	6.64	
2025-01-07 04:24:55.82	7.42	6.64	
2025-01-07 04:24:56.02	7.39	6.65	
2025-01-07 04:24:56.23	7.36	6.65	
2025-01-07 04:24:56.44	7.33	6.66	
2025-01-07 04:24:56.64	7.30	6.67	
2025-01-07 04:24:56.85	7.27	6.67	
2025-01-07 04:24:57.05	7.24	6.68	
2025-01-07 04:24:57.27	7.21	6.68	
2025-01-07 04:24:57.48	7.18	6.69	
2025-01-07 04:24:57.68	7.15	6.69	
2025-01-07 04:24:57.89	7.12	6.70	
2025-01-07 04:24:58.10	7.09	6.71	
2025-01-07 04:24:58.30	7.06	6.71	
2025-01-07 04:24:58.51	7.02	6.72	
2025-01-07 04:24:58.71	6.99	6.72	
2025-01-07 04:24:58.92	6.96	6.73	
2025-01-07 04:24:59.12	6.93	6.73	
2025-01-07 04:24:59.33	6.90	6.74	
2025-01-07 04:24:59.53	6.87	6.75	
2025-01-07 04:24:59.75	6.84	6.75	
2025-01-07 04:24:59.96	6.81	6.76	
2025-01-07 04:25:00.16	6.78	6.76	
2025-01-07 04:25:00.37	6.75	6.77	
2025-01-07 04:25:00.57	6.72	6.77	
2025-01-07 04:25:00.78	6.69	6.78	
2025-01-07 04:25:00.98	6.66	6.79	
2025-01-07 04:25:01.19	6.62	6.79	
2025-01-07 04:25:01.40	6.59	6.80	
2025-01-07 04:25:01.61	6.56	6.80	
2025-01-07 04:25:01.82	6.53	6.81	
2025-01-07 04:25:02.03	6.50	6.81	
2025-01-07 04:25:02.23	6.47	6.82	
2025-01-07 04:25:02.44	6.44	6.82	
2025-01-07 04:25:02.66	6.40	6.83	
2025-01-07 04:25:02.86	6.37	6.84	
2025-01-07 04:25:03.07	6.34	6.84	
2025-01-07 04:25:03.27	6.31	6.85	
2025-01-07 04:25:03.48	6.28	6.85	
2025-01-07 04:25:03.68	6.25	6.86	
2025-01-07 04:25:03.89	6.22	6.86	
2025-01-07 04:25:04.10	6.19	6.87	
2025-01-07 04:25:04.30	6.16	6.87	
2025-01-07 04:25:04.51	6.13	6.88	
2025-01-07 04:25:04.71	6.10	6.89	
2025-01-07 04:25:04.92	6.06	6.89	
2025-01-07 04:25:05.12	6.03	6.90	
2025-01-07 04:25:05.33	6.00	6.90	
2025-01-07 04:25:05.54	5.97	6.91	
2025-01-07 04:25:05.74	5.94	6.91	
2025-01-07 04:25:05.94	5.91	6.92	
2025-01-07 04:25:06.15	5.88	6.92	
2025-01-07 04:25:06.36	5.85	6.93	
2025-01-07 04:25:06.56	5.82	6.93	
2025-01-07 04:25:06.77	5.78	6.94	
2025-01-07 04:25:06.97	5.75	6.94	
2025-01-07 04:25:07.18	5.72	6.95	
2025-01-07 04:25:07.38	5.69	6.96	
2025-01-07 04:25:07.59	5.66	6.96	
2025-01-07 04:25:07.79	5.63	6.97	
2025-01-07 04:25:08.00	5.60	6.97	
2025-01-07 04:25:08.20	5.57	6.98	
2025-01-07 04:25:08.41	5.54	6.98	
2025-01-07 04:25:08.62	5.50	6.99	
2025-01-07 04:25:08.82	5.47	6.99	
2025-01-07 04:25:09.02	5.44	7.00	
2025-01-07 04:25:09.23	5.41	7.00	
2025-01-07 04:25:09.43	5.38	7.01	
2025-01-07 04:25:09.64	5.35	7.01	
2025-01-07 04:25:09.84	5.32	7.02	
2025-01-07 04:25:10.05	5.29	7.02	
2025-01-07 04:25:10.25	5.26	7.03	
2025-01-07 04:25:10.46	5.22	7.03	
2025-01-07 04:25:10.66	5.19	7.04	
2025-01-07 04:25:10.87	5.16	7.05	
2025-01-07 04:25:11.07	5.13	7.05	
2025-01-07 04:25:11.27	5.10	7.06	
2025-01-07 04:25:11.48	5.07	7.06	
2025-01-07 04:25:11.68	5.04	7.07	
2025-01-07 04:25:11.89	5.01	7.07	
2025-01-07 04:25:12.10	4.97	7.08	
2025-01-07 04:25:12.30	4.94	7.08	
2025-01-07 04:25:12.51	4.91	7.09	
2025-01-07 04:25:12.71	4.88	7.09	
2025-01-07 04:25:12.92	4.85	7.10	
2025-01-07 04:25:13.12	4.82	7.10	
2025-01-07 04:25:13.34	4.78	7.11	
2025-01-07 04:25:13.55	4.75	7.11	
2025-01-07 04:25:13.75	4.72	7.12	
2025-01-07 04:25:13.96	4.69	7.12	
2025-01-07 04:25:14.16	4.66	7.13	
2025-01-07 04:25:14.37	4.63	7.13	
2025-01-07 04:25:14.57	4.60	7.14	
2025-01-07 04:25:14.78	4.56	7.14	
2025-01-07 04:25:14.98	4.53	7.15	
2025-01-07 04:25:15.18	4.50	7.15	
2025-01-07 04:25:15.39	4.47	7.16	
2025-01-07 04:25:15.59	4.44	7.16	
2025-01-07 04:25:15.80	4.41	7.17	
2025-01-07 04:25:16.00	4.38	7.17	
2025-01-07 04:25:16.21	4.34	7.18	
2025-01-07 04:25:16.41	4.31	7.18	
2025-01-07 04:25:16.62	4.28	7.19	
2025-01-07 04:25:16.82	4.25	7.19	
2025-01-07 04:25:17.03	4.22	7.20	
2025-01-07 04:25:17.23	4.19	7.20	
2025-01-07 04:25:17.44	4.15	7.21	
2025-01-07 04:25:17.64	4.12	7.21	
2025-01-07 04:25:17.85	4.09	7.22	
2025-01-07 04:25:18.05	4.06	7.22	
2025-01-07 04:25:18.25	4.03	7.23	
2025-01-07 04:25:18.46	4.00	7.23	
2025-01-07 04:25:18.66	3.97	7.24	
2025-01-07 04:25:18.87	3.93	7.24	
2025-01-07 04:25:19.08	3.90	7.25	
2025-01-07 04:25:19.28	3.87	7.25	
2025-01-07 04:25:19.49	3.84	7.26	
2025-01-07 04:25:19.69	3.81	7.26	
2025-01-07 04:25:19.90	3.77	7.27	
2025-01-07 04:25:20.10	3.74	7.27	
2025-01-07 04:25:20.31	3.71	7.28	
2025-01-07 04:25:20.51	3.68	7.28	
2025-01-07 04:25:20.72	3.65	7.29	
2025-01-07 04:25:20.92	3.62	7.29	
2025-01-07 04:25:21.13	3.58	7.30	
2025-01-07 04:25:21.33	3.55	7.30	
2025-01-07 04:25:21.53	3.52	7.31	
2025-01-07 04:25:21.74	3.49	7.31	
2025-01-07 04:25:21.94	3.46	7.32	
2025-01-07 04:25:22.15	3.42	7.32	
2025-01-07 04:25:22.36	3.39	7.33	
2025-01-07 04:25:22.56	3.36	7.33	
2025-01-07 04:25:22.77	3.33	7.34	
2025-01-07 04:25:22.97	3.30	7.34	
2025-01-07 04:25:23.18	3.26	7.35	
2025-01-07 04:25:23.39	3.23	7.35	
2025-01-07 04:25:23.59	3.20	7.36	
2025-01-07 04:25:23.80	3.17	7.36	
2025-01-07 04:25:24.00	3.14	7.37	
2025-01-07 04:25:24.21	3.10	7.37	
2025-01-07 04:25:24.41	3.07	7.38	
2025-01-07 04:25:24.62	3.04	7.38	
2025-01-07 04:25:24.82	3.01	7.39	
2025-01-07 04:25:25.03	2.98	7.39	
2025-01-07 04:25:25.23	2.94	7.39	
2025-01-07 04:25:25.44	2.91	7.40	
2025-01-07 04:25:25.64	2.88	7.40	
2025-01-07 04:25:25.85	2.85	7.41	
2025-01-07 04:25:26.05	2.82	7.41	
2025-01-07 04:25:26.26	2.78	7.42	
2025-01-07 04:25:26.47	2.75	7.42	
2025-01-07 04:25:26.67	2.72	7.43	
2025-01-07 04:25:26.88	2.69	7.43	
2025-01-07 04:25:27.08	2.65	7.44	
2025-01-07 04:25:27.29	2.62	7.44	
2025-01-07 04:25:27.49	2.59	7.45	
2025-01-07 04:25:27.70	2.56	7.45	
2025-01-07 04:25:27.90	2.53	7.46	
2025-01-07 04:25:28.11	2.49	7.46	
2025-01-07 04:25:28.31	2.46	7.46	
2025-01-07 04:25:28.52	2.43	7.47	
2025-01-07 04:25:28.72	2.40	7.47	
2025-01-07 04:25:28.93	2.36	7.48	
2025-01-07 04:25:29.13	2.33	7.48	
2025-01-07 04:25:29.34	2.30	7.49	
2025-01-07 04:25:29.55	2.27	7.49	
2025-01-07 04:25:29.75	2.24	7.50	
2025-01-07 04:25:29.96	2.20	7.50	
2025-01-07 04:25:30.16	2.17	7.51	
2025-01-07 04:25:30.38	2.14	7.51	
2025-01-07 04:25:30.58	2.10	7.52	
2025-01-07 04:25:30.79	2.07	7.52	
2025-01-07 04:25:31.00	2.04	7.52	
2025-01-07 04:25:31.20	2.01	7.53	
2025-01-07 04:25:31.41	1.97	7.53	
2025-01-07 04:25:31.61	1.94	7.54	
2025-01-07 04:25:31.82	1.91	7.54	
2025-01-07 04:25:32.02	1.88	7.55	
2025-01-07 04:25:32.23	1.84	7.55	
2025-01-07 04:25:32.43	1.81	7.56	
2025-01-07 04:25:32.64	1.78	7.56	
2025-01-07 04:25:32.84	1.75	7.56	
2025-01-07 04:25:33.05	1.71	7.57	
2025-01-07 04:25:33.25	1.68	7.57	
2025-01-07 04:25:33.46	1.65	7.58	
2025-01-07 04:25:33.66	1.62	7.58	
2025-01-07 04:25:33.87	1.59	7.59	
2025-01-07 04:25:34.07	1.55	7.59	
2025-01-07 04:25:34.28	1.52	7.60	
2025-01-07 04:25:34.48	1.49	7.60	
2025-01-07 04:25:34.68	1.46	7.60	
2025-01-07 04:25:34.89	1.42	7.61	
2025-01-07 04:25:35.10	1.39	7.61	
2025-01-07 04:25:35.30	1.36	7.62	
2025-01-07 04:25:35.51	1.32	7.62	
2025-01-07 04:25:35.71	1.29	7.63	
2025-01-07 04:25:35.92	1.26	7.63	
2025-01-07 04:25:36.12	1.23	7.63	
2025-01-07 04:25:36.33	1.19	7.64	
2025-01-07 04:25:36.53	1.16	7.64	
2025-01-07 04:25:36.74	1.13	7.65	
2025-01-07 04:25:36.94	1.10	7.65	
2025-01-07 04:25:37.15	1.06	7.66	
2025-01-07 04:25:37.35	1.03	7.66	
2025-01-07 04:25:37.56	1.00	7.66	
2025-01-07 04:25:37.76	0.97	7.67	
2025-01-07 04:25:37.97	0.93	7.67	
2025-01-07 04:25:38.17	0.90	7.68	
2025-01-07 04:25:38.38	0.87	7.68	
2025-01-07 04:25:38.58	0.84	7.69	
2025-01-07 04:25:38.79	0.80	7.69	
2025-01-07 04:25:38.99	0.77	7.69	
2025-01-07 04:25:39.20	0.74	7.70	
2025-01-07 04:25:39.40	0.71	7.70	
2025-01-07 04:25:39.61	0.67	7.71	
2025-01-07 04:25:39.81	0.64	7.71	
2025-01-07 04:25:40.02	0.61	7.72	
2025-01-07 04:25:40.23	0.57	7.72	
2025-01-07 04:25:40.43	0.54	7.72	
2025-01-07 04:25:40.64	0.51	7.73	
2025-01-07 04:25:40.84	0.48	7.73	
2025-01-07 04:25:41.05	0.44	7.74	
2025-01-07 04:25:41.25	0.41	7.74	
2025-01-07 04:25:41.46	0.38	7.74	
2025-01-07 04:25:41.66	0.34	7.75	
2025-01-07 04:25:41.87	0.31	7.75	
2025-01-07 04:25:42.07	0.28	7.76	
2025-01-07 04:25:42.28	0.24	7.76	
2025-01-07 04:25:42.48	0.21	7.76	
2025-01-07 04:25:42.69	0.18	7.77	
2025-01-07 04:25:42.89	0.15	7.77	
2025-01-07 04:25:43.10	0.11	7.78	
2025-01-07 04:25:43.30	0.08	7.78	
2025-01-07 04:25:43.51	0.05	7.78	
2025-01-07 04:25:43.72	0.01	7.79	
2025-01-07 04:25:43.92	359.98	7.79	
2025-01-07 04:25:44.13	359.95	7.80	
2025-01-07 04:25:44.33	359.92	7.80	
2025-01-07 04:25:44.53	359.88	7.80	
2025-01-07 04:25:44.74	359.85	7.81	
2025-01-07 04:25:44.95	359.82	7.81	
2025-01-07 04:25:45.15	359.78	7.82	
2025-01-07 04:25:45.37	359.75	7.82	
2025-01-07 04:25:45.57	359.72	7.82	
2025-01-07 04:25:45.78	359.68	7.83	
2025-01-07 04:25:45.99	359.65	7.83	
2025-01-07 04:25:46.19	359.62	7.84	
2025-01-07 04:25:46.40	359.58	7.84	
2025-01-07 04:25:46.60	359.55	7.84	
2025-01-07 04:25:46.81	359.52	7.85	
2025-01-07 04:25:47.01	359.48	7.85	
2025-01-07 04:25:47.22	359.45	7.86	
2025-01-07 04:25:47.42	359.42	7.86	
2025-01-07 04:25:47.62	359.39	7.86	
2025-01-07 04:25:47.83	359.35	7.87	
2025-01-07 04:25:48.03	359.32	7.87	
2025-01-07 04:25:48.24	359.29	7.88	
2025-01-07 04:25:48.44	359.25	7.88	
2025-01-07 04:25:48.65	359.22	7.88	
2025-01-07 04:25:48.85	359.19	7.89	
2025-01-07 04:25:49.06	359.15	7.89	
2025-01-07 04:25:49.26	359.12	7.89	
2025-01-07 04:25:49.47	359.09	7.90	
2025-01-07 04:25:49.67	359.05	7.90	
2025-01-07 04:25:49.88	359.02	7.91	
2025-01-07 04:25:50.08	358.99	7.91	
2025-01-07 04:25:50.29	358.95	7.91	
2025-01-07 04:25:50.50	358.92	7.92	
2025-01-07 04:25:50.70	358.89	7.92	
2025-01-07 04:25:50.91	358.85	7.92	
2025-01-07 04:25:51.11	358.82	7.93	
2025-01-07 04:25:51.32	358.79	7.93	
2025-01-07 04:25:51.53	358.75	7.94	
2025-01-07 04:25:51.73	358.72	7.94	
2025-01-07 04:25:51.93	358.69	7.94	
2025-01-07 04:25:52.14	358.65	7.95	
2025-01-07 04:25:52.35	358.62	7.95	
2025-01-07 04:25:52.55	358.59	7.95	
2025-01-07 04:25:52.76	358.55	7.96	
2025-01-07 04:25:52.96	358.52	7.96	
2025-01-07 04:25:53.17	358.49	7.97	
2025-01-07 04:25:53.37	358.45	7.97	
2025-01-07 04:25:53.58	358.42	7.97	
2025-01-07 04:25:53.78	358.39	7.98	
2025-01-07 04:25:53.99	358.35	7.98	
2025-01-07 04:25:54.19	358.32	7.98	
2025-01-07 04:25:54.40	358.29	7.99	
2025-01-07 04:25:54.60	358.25	7.99	
2025-01-07 04:25:54.81	358.22	7.99	
2025-01-07 04:25:55.01	358.19	8.00	
2025-01-07 04:25:55.22	358.15	8.00	
2025-01-07 04:25:55.43	358.12	8.00	
2025-01-07 04:25:55.63	358.09	8.01	
2025-01-07 04:25:55.84	358.05	8.01	
2025-01-07 04:25:56.04	358.02	8.01	
2025-01-07 04:25:56.25	357.98	8.02	
2025-01-07 04:25:56.45	357.95	8.02	
2025-01-07 04:25:56.66	357.92	8.03	
2025-01-07 04:25:56.87	357.88	8.03	
2025-01-07 04:25:57.07	357.85	8.03	
2025-01-07 04:25:57.28	357.82	8.04	
2025-01-07 04:25:57.48	357.78	8.04	
2025-01-07 04:25:57.69	357.75	8.04	
2025-01-07 04:25:57.89	357.72	8.05	
2025-01-07 04:25:58.09	357.68	8.05	
2025-01-07 04:25:58.30	357.65	8.05	
2025-01-07 04:25:58.51	357.62	8.06	
2025-01-07 04:25:58.71	357.58	8.06	
2025-01-07 04:25:58.92	357.55	8.06	
2025-01-07 04:25:59.12	357.52	8.07	
2025-01-07 04:25:59.33	357.48	8.07	
2025-01-07 04:25:59.53	357.45	8.07	
2025-01-07 04:25:59.74	357.41	8.08	
2025-01-07 04:25:59.94	357.38	8.08	
2025-01-07 04:26:00.15	357.35	8.08	
2025-01-07 04:26:00.35	357.31	8.09	
2025-01-07 04:26:00.56	357.28	8.09	
2025-01-07 04:26:00.76	357.25	8.09	
2025-01-07 04:26:00.97	357.21	8.10	
2025-01-07 04:26:01.17	357.18	8.10	
2025-01-07 04:26:01.39	357.14	8.10	
2025-01-07 04:26:01.60	357.11	8.11	
2025-01-07 04:26:01.80	357.08	8.11	
2025-01-07 04:26:02.01	357.04	8.11	
2025-01-07 04:26:02.21	357.01	8.12	
2025-01-07 04:26:02.43	356.97	8.12	
2025-01-07 04:26:02.64	356.94	8.12	
2025-01-07 04:26:02.84	356.91	8.13	
2025-01-07 04:26:03.05	356.87	8.13	
2025-01-07 04:26:03.25	356.84	8.13	
2025-01-07 04:26:03.46	356.80	8.14	
2025-01-07 04:26:03.66	356.77	8.14	
2025-01-07 04:26:03.87	356.74	8.14	
2025-01-07 04:26:04.08	356.70	8.15	
2025-01-07 04:26:04.28	356.67	8.15	
2025-01-07 04:26:04.49	356.63	8.15	
2025-01-07 04:26:04.69	356.60	8.15	
2025-01-07 04:26:04.90	356.57	8.16	
2025-01-07 04:26:05.10	356.53	8.16	
2025-01-07 04:26:05.31	356.50	8.16	
2025-01-07 04:26:05.51	356.47	8.17	
2025-01-07 04:26:05.72	356.43	8.17	
2025-01-07 04:26:05.92	356.40	8.17	
2025-01-07 04:26:06.13	356.36	8.18	
2025-01-07 04:26:06.33	356.33	8.18	
2025-01-07 04:26:06.54	356.30	8.18	
2025-01-07 04:26:06.74	356.26	8.19	
2025-01-07 04:26:06.95	356.23	8.19	
2025-01-07 04:26:07.15	356.19	8.19	
2025-01-07 04:26:07.35	356.16	8.19	
2025-01-07 04:26:07.56	356.13	8.20	
2025-01-07 04:26:07.76	356.09	8.20	
2025-01-07 04:26:07.97	356.06	8.20	
2025-01-07 04:26:08.18	356.02	8.21	
2025-01-07 04:26:08.38	355.99	8.21	
2025-01-07 04:26:08.59	355.96	8.21	
2025-01-07 04:26:08.79	355.92	8.22	
2025-01-07 04:26:09.00	355.89	8.22	
2025-01-07 04:26:09.20	355.86	8.22	
2025-01-07 04:26:09.41	355.82	8.22	
2025-01-07 04:26:09.61	355.79	8.23	
2025-01-07 04:26:09.82	355.75	8.23	
2025-01-07 04:26:10.02	355.72	8.23	
2025-01-07 04:26:10.23	355.68	8.24	
2025-01-07 04:26:10.43	355.65	8.24	
2025-01-07 04:26:10.64	355.62	8.24	
2025-01-07 04:26:10.84	355.58	8.24	
2025-01-07 04:26:11.04	355.55	8.25	
2025-01-07 04:26:11.25	355.52	8.25	
2025-01-07 04:26:11.46	355.48	8.25	
2025-01-07 04:26:11.66	355.45	8.26	
2025-01-07 04:26:11.87	355.41	8.26	
2025-01-07 04:26:12.07	355.38	8.26	
2025-01-07 04:26:12.27	355.35	8.26	
2025-01-07 04:26:12.48	355.31	8.27	
2025-01-07 04:26:12.69	355.28	8.27	
2025-01-07 04:26:12.89	355.24	8.27	
2025-01-07 04:26:13.10	355.21	8.28	
2025-01-07 04:26:13.30	355.18	8.28	
2025-01-07 04:26:13.51	355.14	8.28	
2025-01-07 04:26:13.71	355.11	8.28	
2025-01-07 04:26:13.92	355.07	8.29	
2025-01-07 04:26:14.12	355.04	8.29	
2025-01-07 04:26:14.33	355.00	8.29	
2025-01-07 04:26:14.53	354.97	8.29	
2025-01-07 04:26:14.74	354.94	8.30	
2025-01-07 04:26:14.94	354.90	8.30	
2025-01-07 04:26:15.14	354.87	8.30	
2025-01-07 04:26:15.36	354.83	8.30	
2025-01-07 04:26:15.57	354.80	8.31	
2025-01-07 04:26:15.77	354.76	8.31	
2025-01-07 04:26:15.98	354.73	8.31	
2025-01-07 04:26:16.18	354.70	8.32	
2025-01-07 04:26:16.39	354.66	8.32	
2025-01-07 04:26:16.59	354.63	8.32	
2025-01-07 04:26:16.80	354.59	8.32	
2025-01-07 04:26:17.00	354.56	8.33	
2025-01-07 04:26:17.21	354.52	8.33	
2025-01-07 04:26:17.41	354.49	8.33	
2025-01-07 04:26:17.62	354.46	8.33	
2025-01-07 04:26:17.82	354.42	8.34	
2025-01-07 04:26:18.03	354.39	8.34	
2025-01-07 04:26:18.24	354.35	8.34	
2025-01-07 04:26:18.44	354.32	8.34	
2025-01-07 04:26:18.64	354.29	8.35	
2025-01-07 04:26:18.85	354.25	8.35	
2025-01-07 04:26:19.06	354.22	8.35	
2025-01-07 04:26:19.26	354.18	8.35	
2025-01-07 04:26:19.46	354.15	8.36	
2025-01-07 04:26:19.67	354.11	8.36	
2025-01-07 04:26:19.87	354.08	8.36	
2025-01-07 04:26:20.08	354.05	8.36	
2025-01-07 04:26:20.29	354.01	8.37	
2025-01-07 04:26:20.49	353.98	8.37	
2025-01-07 04:26:20.69	353.94	8.37	
2025-01-07 04:26:20.90	353.91	8.37	
2025-01-07 04:26:21.10	353.87	8.38	
2025-01-07 04:26:21.31	353.84	8.38	
2025-01-07 04:26:21.51	353.81	8.38	
2025-01-07 04:26:21.72	353.77	8.38	
2025-01-07 04:26:21.92	353.74	8.38	
2025-01-07 04:26:22.13	353.70	8.39	
2025-01-07 04:26:22.34	353.67	8.39	
2025-01-07 04:26:22.54	353.63	8.39	
2025-01-07 04:26:22.75	353.60	8.39	
2025-01-07 04:26:22.95	353.56	8.40	
2025-01-07 04:26:23.16	353.53	8.40	
2025-01-07 04:26:23.36	353.50	8.40	
2025-01-07 04:26:23.57	353.46	8.40	
2025-01-07 04:26:23.77	353.43	8.41	
2025-01-07 04:26:23.98	353.39	8.41	
2025-01-07 04:26:24.18	353.36	8.41	
2025-01-07 04:26:24.39	353.32	8.41	
2025-01-07 04:26:24.59	353.29	8.41	
2025-01-07 04:26:24.80	353.25	8.42	
2025-01-07 04:26:25.00	353.22	8.42	
2025-01-07 04:26:25.21	353.19	8.42	
2025-01-07 04:26:25.41	353.15	8.42	
2025-01-07 04:26:25.62	353.12	8.43	
2025-01-07 04:26:25.84	353.08	8.43	
2025-01-07 04:26:26.04	353.05	8.43	
2025-01-07 04:26:26.25	353.01	8.43	
2025-01-07 04:26:26.45	352.98	8.43	
2025-01-07 04:26:26.66	352.94	8.44	
2025-01-07 04:26:26.86	352.91	8.44	
2025-01-07 04:26:27.07	352.87	8.44	
2025-01-07 04:26:27.27	352.84	8.44	
2025-01-07 04:26:27.48	352.80	8.44	
2025-01-07 04:26:27.69	352.77	8.45	
2025-01-07 04:26:27.89	352.74	8.45	
2025-01-07 04:26:28.10	352.70	8.45	
2025-01-07 04:26:28.30	352.67	8.45	
2025-01-07 04:26:28.51	352.63	8.46	
2025-01-07 04:26:28.71	352.60	8.46	
2025-01-07 04:26:28.92	352.56	8.46	
2025-01-07 04:26:29.14	352.52	8.46	
2025-01-07 04:26:29.34	352.49	8.46	
2025-01-07 04:26:29.55	352.46	8.47	
2025-01-07 04:26:29.75	352.42	8.47	
2025-01-07 04:26:29.96	352.39	8.47	
2025-01-07 04:26:30.16	352.35	8.47	
2025-01-07 04:26:30.37	352.32	8.47	
2025-01-07 04:26:30.57	352.28	8.48	
2025-01-07 04:26:30.78	352.25	8.48	
2025-01-07 04:26:30.98	352.21	8.48	
2025-01-07 04:26:31.19	352.18	8.48	
2025-01-07 04:26:31.39	352.15	8.48	
2025-01-07 04:26:31.60	352.11	8.48	
2025-01-07 04:26:31.80	352.08	8.49	
2025-01-07 04:26:32.00	352.04	8.49	
2025-01-07 04:26:32.21	352.01	8.49	
2025-01-07 04:26:32.41	351.97	8.49	
2025-01-07 04:26:32.62	351.94	8.49	
2025-01-07 04:26:32.82	351.90	8.50	
2025-01-07 04:26:33.03	351.87	8.50	
2025-01-07 04:26:33.23	351.84	8.50	
2025-01-07 04:26:33.44	351.80	8.50	
2025-01-07 04:26:33.64	351.77	8.50	
2025-01-07 04:26:33.85	351.73	8.50	
2025-01-07 04:26:34.05	351.70	8.51	
2025-01-07 04:26:34.26	351.66	8.51	
2025-01-07 04:26:34.46	351.63	8.51	
2025-01-07 04:26:34.67	351.59	8.51	
2025-01-07 04:26:34.87	351.56	8.51	
2025-01-07 04:26:35.08	351.52	8.52	
2025-01-07 04:26:35.29	351.49	8.52	
2025-01-07 04:26:35.50	351.45	8.52	
2025-01-07 04:26:35.71	351.42	8.52	
2025-01-07 04:26:35.92	351.38	8.52	
2025-01-07 04:26:36.12	351.35	8.52	
2025-01-07 04:26:36.33	351.31	8.53	
2025-01-07 04:26:36.53	351.28	8.53	
2025-01-07 04:26:36.74	351.24	8.53	
2025-01-07 04:26:36.94	351.21	8.53	
2025-01-07 04:26:37.15	351.17	8.53	
2025-01-07 04:26:37.36	351.14	8.53	
2025-01-07 04:26:37.56	351.10	8.54	
2025-01-07 04:26:37.76	351.07	8.54	
2025-01-07 04:26:37.97	351.03	8.54	
2025-01-07 04:26:38.17	351.00	8.54	
2025-01-07 04:26:38.38	350.96	8.54	
2025-01-07 04:26:38.58	350.93	8.54	
2025-01-07 04:26:38.79	350.90	8.55	
2025-01-07 04:26:39.00	350.86	8.55	
2025-01-07 04:26:39.20	350.83	8.55	
2025-01-07 04:26:39.41	350.79	8.55	
2025-01-07 04:26:39.61	350.76	8.55	
2025-01-07 04:26:39.81	350.72	8.55	
2025-01-07 04:26:40.02	350.69	8.55	
2025-01-07 04:26:40.23	350.65	8.56	
2025-01-07 04:26:40.43	350.62	8.56	
2025-01-07 04:26:40.64	350.58	8.56	
2025-01-07 04:26:40.84	350.55	8.56	
2025-01-07 04:26:41.05	350.51	8.56	
2025-01-07 04:26:41.25	350.48	8.56	
2025-01-07 04:26:41.46	350.44	8.56	
2025-01-07 04:26:41.66	350.41	8.57	
2025-01-07 04:26:41.87	350.37	8.57	
2025-01-07 04:26:42.07	350.34	8.57	
2025-01-07 04:26:42.28	350.30	8.57	
2025-01-07 04:26:42.48	350.27	8.57	
2025-01-07 04:26:42.69	350.23	8.57	
2025-01-07 04:26:42.89	350.20	8.57	
2025-01-07 04:26:43.09	350.17	8.58	
2025-01-07 04:26:43.30	350.13	8.58	
2025-01-07 04:26:43.50	350.10	8.58	
2025-01-07 04:26:43.71	350.06	8.58	
2025-01-07 04:26:43.91	350.03	8.58	
2025-01-07 04:26:44.12	349.99	8.58	
2025-01-07 04:26:44.32	349.96	8.58	
2025-01-07 04:26:44.53	349.92	8.58	
2025-01-07 04:26:44.73	349.89	8.59	
2025-01-07 04:26:44.94	349.85	8.59	
2025-01-07 04:26:45.16	349.81	8.59	
2025-01-07 04:26:45.36	349.78	8.59	
2025-01-07 04:26:45.57	349.75	8.59	
2025-01-07 04:26:45.77	349.71	8.59	
2025-01-07 04:26:45.98	349.68	8.59	
2025-01-07 04:26:46.18	349.64	8.59	
2025-01-07 04:26:46.39	349.61	8.60	
2025-01-07 04:26:46.60	349.57	8.60	
2025-01-07 04:26:46.80	349.54	8.60	
2025-01-07 04:26:47.01	349.50	8.60	
2025-01-07 04:26:47.21	349.47	8.60	
2025-01-07 04:26:47.42	349.43	8.60	
2025-01-07 04:26:47.62	349.40	8.60	
2025-01-07 04:26:47.83	349.36	8.60	
2025-01-07 04:26:48.03	349.33	8.60	
2025-01-07 04:26:48.24	349.29	8.61	
2025-01-07 04:26:48.44	349.26	8.61	
2025-01-07 04:26:48.65	349.22	8.61	
2025-01-07 04:26:48.85	349.19	8.61	
2025-01-07 04:26:49.06	349.15	8.61	
2025-01-07 04:26:49.26	349.12	8.61	
2025-01-07 04:26:49.47	349.08	8.61	
2025-01-07 04:26:49.67	349.05	8.61	
2025-01-07 04:26:49.88	349.01	8.61	
2025-01-07 04:26:50.08	348.98	8.62	
2025-01-07 04:26:50.29	348.94	8.62	
2025-01-07 04:26:50.50	348.91	8.62	
2025-01-07 04:26:50.71	348.87	8.62	
2025-01-07 04:26:50.92	348.84	8.62	
2025-01-07 04:26:51.12	348.80	8.62	
2025-01-07 04:26:51.33	348.77	8.62	
2025-01-07 04:26:51.53	348.73	8.62	
2025-01-07 04:26:51.74	348.70	8.62	
2025-01-07 04:26:51.94	348.66	8.62	
2025-01-07 04:26:52.15	348.63	8.62	
2025-01-07 04:26:52.35	348.59	8.63	
2025-01-07 04:26:52.56	348.56	8.63	
2025-01-07 04:26:52.76	348.52	8.63	
2025-01-07 04:26:52.97	348.49	8.63	
2025-01-07 04:26:53.17	348.45	8.63	
2025-01-07 04:26:53.38	348.42	8.63	
2025-01-07 04:26:53.58	348.38	8.63	
2025-01-07 04:26:53.79	348.35	8.63	
2025-01-07 04:26:54.00	348.31	8.63	
2025-01-07 04:26:54.20	348.28	8.63	
2025-01-07 04:26:54.41	348.24	8.63	
2025-01-07 04:26:54.61	348.21	8.63	
2025-01-07 04:26:54.82	348.17	8.64	
2025-01-07 04:26:55.03	348.14	8.64	
2025-01-07 04:26:55.23	348.10	8.64	
2025-01-07 04:26:55.43	348.07	8.64	
2025-01-07 04:26:55.64	348.03	8.64	
2025-01-07 04:26:55.84	348.00	8.64	
2025-01-07 04:26:56.05	347.96	8.64	
2025-01-07 04:26:56.26	347.93	8.64	
2025-01-07 04:26:56.46	347.89	8.64	
2025-01-07 04:26:56.67	347.86	8.64	
2025-01-07 04:26:56.87	347.82	8.64	
2025-01-07 04:26:57.08	347.79	8.64	
2025-01-07 04:26:57.28	347.75	8.64	
2025-01-07 04:26:57.49	347.72	8.64	
2025-01-07 04:26:57.69	347.68	8.65	
2025-01-07 04:26:57.91	347.64	8.65	
2025-01-07 04:26:58.11	347.61	8.65	
2025-01-07 04:26:58.32	347.57	8.65	
2025-01-07 04:26:58.52	347.54	8.65	
2025-01-07 04:26:58.73	347.50	8.65	
2025-01-07 04:26:58.95	347.47	8.65	
2025-01-07 04:26:59.15	347.43	8.65	
2025-01-07 04:26:59.36	347.40	8.65	
2025-01-07 04:26:59.56	347.36	8.65	
2025-01-07 04:26:59.77	347.33	8.65	
2025-01-07 04:26:59.97	347.29	8.65	
2025-01-07 04:27:00.18	347.26	8.65	
2025-01-07 04:27:00.38	347.22	8.65	
2025-01-07 04:27:00.59	347.19	8.65	
2025-01-07 04:27:00.80	347.15	8.65	
2025-01-07 04:27:01.00	347.12	8.65	
2025-01-07 04:27:01.20	347.08	8.65	
2025-01-07 04:27:01.41	347.05	8.65	
2025-01-07 04:27:01.62	347.01	8.66	
2025-01-07 04:27:01.82	346.98	8.66	
2025-01-07 04:27:02.03	346.94	8.66	
2025-01-07 04:27:02.23	346.91	8.66	
2025-01-07 04:27:02.44	346.87	8.66	
2025-01-07 04:27:02.64	346.84	8.66	
2025-01-07 04:27:02.85	346.80	8.66	
2025-01-07 04:27:03.05	346.77	8.66	
2025-01-07 04:27:03.26	346.73	8.66	
2025-01-07 04:27:03.46	346.70	8.66	
2025-01-07 04:27:03.67	346.66	8.66	
2025-01-07 04:27:03.87	346.63	8.66	
2025-01-07 04:27:04.08	346.59	8.66	
2025-01-07 04:27:04.28	346.56	8.66	
2025-01-07 04:27:04.49	346.52	8.66	
2025-01-07 04:27:04.69	346.49	8.66	
2025-01-07 04:27:04.90	346.45	8.66	
2025-01-07 04:27:05.12	346.41	8.66	
2025-01-07 04:27:05.32	346.38	8.66	
2025-01-07 04:27:05.52	346.35	8.66	
2025-01-07 04:27:05.73	346.31	8.66	
2025-01-07 04:27:05.94	346.27	8.66	
2025-01-07 04:27:06.14	346.24	8.66	
2025-01-07 04:27:06.34	346.21	8.66	
2025-01-07 04:27:06.55	346.17	8.66	
2025-01-07 04:27:06.75	346.14	8.66	
2025-01-07 04:27:06.96	346.10	8.66	
2025-01-07 04:27:07.17	346.06	8.66	
2025-01-07 04:27:07.37	346.03	8.66	
2025-01-07 04:27:07.57	346.00	8.66	
2025-01-07 04:27:07.78	345.96	8.66	
2025-01-07 04:27:07.98	345.93	8.66	
2025-01-07 04:27:08.19	345.89	8.66	
2025-01-07 04:27:08.39	345.86	8.66	
2025-01-07 04:27:08.60	345.82	8.66	
2025-01-07 04:27:08.80	345.79	8.66	
2025-01-07 04:27:09.01	345.75	8.66	
2025-01-07 04:27:09.21	345.72	8.66	
2025-01-07 04:27:09.42	345.68	8.66	
2025-01-07 04:27:09.62	345.65	8.66	
2025-01-07 04:27:09.83	345.61	8.66	
2025-01-07 04:27:10.04	345.57	8.66	
2025-01-07 04:27:10.24	345.54	8.66	
2025-01-07 04:27:10.45	345.50	8.66	
2025-01-07 04:27:10.65	345.47	8.66	
2025-01-07 04:27:10.86	345.43	8.66	
2025-01-07 04:27:11.06	345.40	8.66	
2025-01-07 04:27:11.27	345.36	8.66	
2025-01-07 04:27:11.47	345.33	8.66	
2025-01-07 04:27:11.68	345.29	8.66	
2025-01-07 04:27:11.88	345.26	8.66	
2025-01-07 04:27:12.09	345.22	8.66	
2025-01-07 04:27:12.30	345.19	8.66	
2025-01-07 04:27:12.50	345.15	8.66	
2025-01-07 04:27:12.71	345.12	8.66	
2025-01-07 04:27:12.91	345.08	8.66	
2025-01-07 04:27:13.12	345.05	8.66	
2025-01-07 04:27:13.32	345.01	8.66	
2025-01-07 04:27:13.53	344.98	8.66	
2025-01-07 04:27:13.74	344.94	8.66	
2025-01-07 04:27:13.94	344.91	8.66	
2025-01-07 04:27:14.15	344.87	8.66	
2025-01-07 04:27:14.35	344.84	8.66	
2025-01-07 04:27:14.56	344.80	8.66	
2025-01-07 04:27:14.76	344.77	8.66	
2025-01-07 04:27:14.97	344.73	8.66	
2025-01-07 04:27:15.17	344.70	8.66	
2025-01-07 04:27:15.38	344.66	8.66	
2025-01-07 04:27:15.58	344.63	8.66	
2025-01-07 04:27:15.79	344.59	8.66	
2025-01-07 04:27:15.99	344.56	8.66	
2025-01-07 04:27:16.20	344.52	8.66	
2025-01-07 04:27:16.41	344.49	8.66	
2025-01-07 04:27:16.61	344.45	8.66	
2025-01-07 04:27:16.82	344.42	8.66	
2025-01-07 04:27:17.02	344.38	8.66	
2025-01-07 04:27:17.22	344.35	8.66	
2025-01-07 04:27:17.43	344.31	8.66	
2025-01-07 04:27:17.64	344.28	8.66	
2025-01-07 04:27:17.84	344.24	8.66	
2025-01-07 04:27:18.05	344.21	8.66	
2025-01-07 04:27:18.25	344.17	8.66	
2025-01-07 04:27:18.46	344.14	8.66	
2025-01-07 04:27:18.66	344.10	8.66	
2025-01-07 04:27:18.87	344.07	8.66	
2025-01-07 04:27:19.07	344.03	8.66	
2025-01-07 04:27:19.29	343.99	8.65	
2025-01-07 04:27:19.49	343.96	8.65	
2025-01-07 04:27:19.70	343.92	8.65	
2025-01-07 04:27:19.91	343.89	8.65	
2025-01-07 04:27:20.11	343.85	8.65	
2025-01-07 04:27:20.32	343.82	8.65	
2025-01-07 04:27:20.52	343.78	8.65	
2025-01-07 04:27:20.73	343.75	8.65	
2025-01-07 04:27:20.93	343.71	8.65	
2025-01-07 04:27:21.14	343.68	8.65	
2025-01-07 04:27:21.34	343.64	8.65	
2025-01-07 04:27:21.55	343.61	8.65	
2025-01-07 04:27:21.75	343.57	8.65	
2025-01-07 04:27:21.96	343.54	8.65	
2025-01-07 04:27:22.16	343.50	8.65	
2025-01-07 04:27:22.37	343.47	8.65	
2025-01-07 04:27:22.57	343.43	8.65	
2025-01-07 04:27:22.78	343.40	8.65	
2025-01-07 04:27:22.98	343.36	8.65	
2025-01-07 04:27:23.19	343.33	8.64	
2025-01-07 04:27:23.40	343.29	8.64	
2025-01-07 04:27:23.60	343.26	8.64	
2025-01-07 04:27:23.80	343.22	8.64	
2025-01-07 04:27:24.01	343.19	8.64	
2025-01-07 04:27:24.22	343.15	8.64	
2025-01-07 04:27:24.42	343.12	8.64	
2025-01-07 04:27:24.62	343.08	8.64	
2025-01-07 04:27:24.83	343.05	8.64	
2025-01-07 04:27:25.04	343.01	8.64	
2025-01-07 04:27:25.24	342.98	8.64	
2025-01-07 04:27:25.45	342.94	8.64	
2025-01-07 04:27:25.65	342.91	8.64	
2025-01-07 04:27:25.86	342.87	8.64	
2025-01-07 04:27:26.06	342.84	8.63	
2025-01-07 04:27:26.27	342.80	8.63	
2025-01-07 04:27:26.47	342.77	8.63	
2025-01-07 04:27:26.68	342.73	8.63	
2025-01-07 04:27:26.88	342.70	8.63	
2025-01-07 04:27:27.09	342.66	8.63	
2025-01-07 04:27:27.29	342.63	8.63	
2025-01-07 04:27:27.50	342.59	8.63	
2025-01-07 04:27:27.70	342.56	8.63	
2025-01-07 04:27:27.91	342.52	8.63	
2025-01-07 04:27:28.11	342.49	8.63	
2025-01-07 04:27:28.32	342.45	8.63	
2025-01-07 04:27:28.52	342.42	8.62	
2025-01-07 04:27:28.73	342.38	8.62	
2025-01-07 04:27:28.93	342.35	8.62	
2025-01-07 04:27:29.14	342.31	8.62	
2025-01-07 04:27:29.35	342.28	8.62	
2025-01-07 04:27:29.55	342.24	8.62	
2025-01-07 04:27:29.75	342.21	8.62	
2025-01-07 04:27:29.96	342.18	8.62	
2025-01-07 04:27:30.16	342.14	8.62	
2025-01-07 04:27:30.37	342.11	8.62	
2025-01-07 04:27:30.57	342.07	8.61	
2025-01-07 04:27:30.78	342.04	8.61	
2025-01-07 04:27:30.98	342.00	8.61	
2025-01-07 04:27:31.19	341.97	8.61	
2025-01-07 04:27:31.39	341.93	8.61	
2025-01-07 04:27:31.60	341.90	8.61	
2025-01-07 04:27:31.81	341.86	8.61	
2025-01-07 04:27:32.01	341.83	8.61	
2025-01-07 04:27:32.21	341.79	8.61	
2025-01-07 04:27:32.42	341.76	8.61	
2025-01-07 04:27:32.62	341.72	8.60	
2025-01-07 04:27:32.83	341.69	8.60	
2025-01-07 04:27:33.04	341.65	8.60	
2025-01-07 04:27:33.25	341.62	8.60	
2025-01-07 04:27:33.46	341.58	8.60	
2025-01-07 04:27:33.67	341.54	8.60	
2025-01-07 04:27:33.87	341.51	8.60	
2025-01-07 04:27:34.07	341.48	8.60	
2025-01-07 04:27:34.28	341.44	8.60	
2025-01-07 04:27:34.49	341.40	8.59	
2025-01-07 04:27:34.69	341.37	8.59	
2025-01-07 04:27:34.89	341.34	8.59	
2025-01-07 04:27:35.10	341.30	8.59	
2025-01-07 04:27:35.30	341.27	8.59	
2025-01-07 04:27:35.51	341.23	8.59	
2025-01-07 04:27:35.71	341.20	8.59	
2025-01-07 04:27:35.92	341.16	8.59	
2025-01-07 04:27:36.12	341.13	8.58	
2025-01-07 04:27:36.33	341.09	8.58	
2025-01-07 04:27:36.53	341.06	8.58	
2025-01-07 04:27:36.74	341.02	8.58	
2025-01-07 04:27:36.94	340.99	8.58	
2025-01-07 04:27:37.15	340.95	8.58	
2025-01-07 04:27:37.36	340.92	8.58	
2025-01-07 04:27:37.56	340.88	8.58	
2025-01-07 04:27:37.76	340.85	8.57	
2025-01-07 04:27:37.97	340.81	8.57	
2025-01-07 04:27:38.17	340.78	8.57	
2025-01-07 04:27:38.37	340.75	8.57	
2025-01-07 04:27:38.58	340.71	8.57	
2025-01-07 04:27:38.78	340.68	8.57	
2025-01-07 04:27:38.99	340.64	8.57	
2025-01-07 04:27:39.20	340.60	8.56	
2025-01-07 04:27:39.40	340.57	8.56	
2025-01-07 04:27:39.60	340.54	8.56	
2025-01-07 04:27:39.81	340.50	8.56	
2025-01-07 04:27:40.02	340.47	8.56	
2025-01-07 04:27:40.22	340.43	8.56	
2025-01-07 04:27:40.43	340.40	8.56	
2025-01-07 04:27:40.63	340.36	8.55	
2025-01-07 04:27:40.84	340.33	8.55	
2025-01-07 04:27:41.04	340.29	8.55	
2025-01-07 04:27:41.25	340.26	8.55	
2025-01-07 04:27:41.45	340.22	8.55	
2025-01-07 04:27:41.67	340.19	8.55	
2025-01-07 04:27:41.88	340.15	8.54	
2025-01-07 04:27:42.08	340.12	8.54	
2025-01-07 04:27:42.29	340.08	8.54	
2025-01-07 04:27:42.49	340.05	8.54	
2025-01-07 04:27:42.71	340.01	8.54	
2025-01-07 04:27:42.91	339.98	8.54	
2025-01-07 04:27:43.12	339.94	8.54	
2025-01-07 04:27:43.33	339.91	8.53	
2025-01-07 04:27:43.53	339.87	8.53	
2025-01-07 04:27:43.73	339.84	8.53	
2025-01-07 04:27:43.94	339.80	8.53	
2025-01-07 04:27:44.14	339.77	8.53	
2025-01-07 04:27:44.35	339.73	8.53	
2025-01-07 04:27:44.56	339.70	8.52	
2025-01-07 04:27:44.76	339.66	8.52	
2025-01-07 04:27:44.97	339.63	8.52	
2025-01-07 04:27:45.17	339.59	8.52	
2025-01-07 04:27:45.38	339.56	8.52	
2025-01-07 04:27:45.58	339.52	8.52	
2025-01-07 04:27:45.79	339.49	8.51	
2025-01-07 04:27:45.99	339.46	8.51	
2025-01-07 04:27:46.20	339.42	8.51	
2025-01-07 04:27:46.40	339.39	8.51	
2025-01-07 04:27:46.61	339.35	8.51	
2025-01-07 04:27:46.82	339.32	8.50	
2025-01-07 04:27:47.03	339.28	8.50	
2025-01-07 04:27:47.24	339.24	8.50	
2025-01-07 04:27:47.44	339.21	8.50	
2025-01-07 04:27:47.65	339.17	8.50	
2025-01-07 04:27:47.86	339.14	8.50	
2025-01-07 04:27:48.06	339.11	8.49	
2025-01-07 04:27:48.26	339.07	8.49	
2025-01-07 04:27:48.47	339.04	8.49	
2025-01-07 04:27:48.68	339.00	8.49	
2025-01-07 04:27:48.88	338.97	8.49	
2025-01-07 04:27:49.08	338.93	8.48	
2025-01-07 04:27:49.29	338.90	8.48	
2025-01-07 04:27:49.50	338.86	8.48	
2025-01-07 04:27:49.71	338.83	8.48	
2025-01-07 04:27:49.92	338.79	8.48	
2025-01-07 04:27:50.12	338.76	8.47	
2025-01-07 04:27:50.32	338.72	8.47	
2025-01-07 04:27:50.53	338.69	8.47	
2025-01-07 04:27:50.74	338.65	8.47	
2025-01-07 04:27:50.94	338.62	8.47	
2025-01-07 04:27:51.15	338.58	8.46	
2025-01-07 04:27:51.35	338.55	8.46	
2025-01-07 04:27:51.56	338.52	8.46	
2025-01-07 04:27:51.76	338.48	8.46	
2025-01-07 04:27:51.96	338.45	8.46	
2025-01-07 04:27:52.17	338.41	8.45	
2025-01-07 04:27:52.37	338.38	8.45	
2025-01-07 04:27:52.58	338.34	8.45	
2025-01-07 04:27:52.78	338.31	8.45	
2025-01-07 04:27:52.99	338.27	8.45	
2025-01-07 04:27:53.19	338.24	8.44	
2025-01-07 04:27:53.40	338.21	8.44	
2025-01-07 04:27:53.60	338.17	8.44	
2025-01-07 04:27:53.81	338.14	8.44	
2025-01-07 04:27:54.02	338.10	8.44	
2025-01-07 04:27:54.22	338.07	8.43	
2025-01-07 04:27:54.42	338.03	8.43	
2025-01-07 04:27:54.63	338.00	8.43	
2025-01-07 04:27:54.84	337.96	8.43	
2025-01-07 04:27:55.04	337.93	8.43	
2025-01-07 04:27:55.25	337.89	8.42	
2025-01-07 04:27:55.45	337.86	8.42	
2025-01-07 04:27:55.66	337.83	8.42	
2025-01-07 04:27:55.86	337.79	8.42	
2025-01-07 04:27:56.07	337.76	8.41	
2025-01-07 04:27:56.28	337.72	8.41	
2025-01-07 04:27:56.48	337.69	8.41	
2025-01-07 04:27:56.69	337.65	8.41	
2025-01-07 04:27:56.89	337.62	8.40	
2025-01-07 04:27:57.10	337.58	8.40	
2025-01-07 04:27:57.31	337.55	8.40	
2025-01-07 04:27:57.51	337.52	8.40	
2025-01-07 04:27:57.72	337.48	8.40	
2025-01-07 04:27:57.92	337.45	8.39	
2025-01-07 04:27:58.13	337.41	8.39	
2025-01-07 04:27:58.33	337.38	8.39	
2025-01-07 04:27:58.54	337.34	8.39	
2025-01-07 04:27:58.74	337.31	8.38	
2025-01-07 04:27:58.95	337.27	8.38	
2025-01-07 04:27:59.15	337.24	8.38	
2025-01-07 04:27:59.36	337.21	8.38	
2025-01-07 04:27:59.56	337.17	8.37	
2025-01-07 04:27:59.77	337.14	8.37	
2025-01-07 04:27:59.98	337.10	8.37	
2025-01-07 04:28:00.19	337.07	8.37	
2025-01-07 04:28:00.40	337.03	8.36	
2025-01-07 04:28:00.60	337.00	8.36	
2025-01-07 04:28:00.81	336.96	8.36	
2025-01-07 04:28:01.01	336.93	8.36	
2025-01-07 04:28:01.22	336.89	8.36	
2025-01-07 04:28:01.42	336.86	8.35	
2025-01-07 04:28:01.63	336.83	8.35	
2025-01-07 04:28:01.84	336.79	8.35	
2025-01-07 04:28:02.04	336.76	8.35	
2025-01-07 04:28:02.24	336.72	8.34	
2025-01-07 04:28:02.45	336.69	8.34	
2025-01-07 04:28:02.66	336.65	8.34	
2025-01-07 04:28:02.86	336.62	8.34	
2025-01-07 04:28:03.07	336.59	8.33	
2025-01-07 04:28:03.27	336.55	8.33	
2025-01-07 04:28:03.48	336.52	8.33	
2025-01-07 04:28:03.68	336.48	8.32	
2025-01-07 04:28:03.89	336.45	8.32	
2025-01-07 04:28:04.11	336.41	8.32	
2025-01-07 04:28:04.31	336.38	8.32	
2025-01-07 04:28:04.52	336.34	8.31	
2025-01-07 04:28:04.72	336.31	8.31	
2025-01-07 04:28:04.93	336.28	8.31	
2025-01-07 04:28:05.13	336.24	8.31	
2025-01-07 04:28:05.34	336.21	8.30	
2025-01-07 04:28:05.54	336.17	8.30	
2025-01-07 04:28:05.75	336.14	8.30	
2025-01-07 04:28:05.95	336.11	8.30	
2025-01-07 04:28:06.16	336.07	8.29	
2025-01-07 04:28:06.36	336.04	8.29	
2025-01-07 04:28:06.57	336.00	8.29	
2025-01-07 04:28:06.77	335.97	8.29	
2025-01-07 04:28:06.98	335.93	8.28	
2025-01-07 04:28:07.18	335.90	8.28	
2025-01-07 04:28:07.40	335.86	8.28	
2025-01-07 04:28:07.61	335.83	8.27	
2025-01-07 04:28:07.81	335.80	8.27	
2025-01-07 04:28:08.02	335.76	8.27	
2025-01-07 04:28:08.22	335.73	8.27	
2025-01-07 04:28:08.43	335.69	8.26	
2025-01-07 04:28:08.63	335.66	8.26	
2025-01-07 04:28:08.84	335.62	8.26	
2025-01-07 04:28:09.04	335.59	8.25	
2025-01-07 04:28:09.25	335.56	8.25	
2025-01-07 04:28:09.45	335.52	8.25	
2025-01-07 04:28:09.66	335.49	8.25	
2025-01-07 04:28:09.87	335.45	8.24	
2025-01-07 04:28:10.07	335.42	8.24	
2025-01-07 04:28:10.28	335.39	8.24	
2025-01-07 04:28:10.48	335.35	8.23	
2025-01-07 04:28:10.69	335.32	8.23	
2025-01-07 04:28:10.90	335.28	8.23	
2025-01-07 04:28:11.10	335.25	8.23	
2025-01-07 04:28:11.31	335.22	8.22	
2025-01-07 04:28:11.53	335.18	8.22	
2025-01-07 04:28:11.73	335.15	8.22	
2025-01-07 04:28:11.94	335.11	8.21	
2025-01-07 04:28:12.14	335.08	8.21	
2025-01-07 04:28:12.35	335.04	8.21	
2025-01-07 04:28:12.55	335.01	8.20	
2025-01-07 04:28:12.75	334.98	8.20	
2025-01-07 04:28:12.96	334.94	8.20	
2025-01-07 04:28:13.17	334.91	8.20	
2025-01-07 04:28:13.37	334.87	8.19	
2025-01-07 04:28:13.58	334.84	8.19	
2025-01-07 04:28:13.78	334.81	8.19	
2025-01-07 04:28:13.99	334.77	8.18	
2025-01-07 04:28:14.19	334.74	8.18	
2025-01-07 04:28:14.40	334.70	8.18	
2025-01-07 04:28:14.61	334.67	8.17	
2025-01-07 04:28:14.81	334.64	8.17	
2025-01-07 04:28:15.01	334.60	8.17	
2025-01-07 04:28:15.22	334.57	8.17	
2025-01-07 04:28:15.43	334.53	8.16	
2025-01-07 04:28:15.63	334.50	8.16	
2025-01-07 04:28:15.85	334.47	8.16	
2025-01-07 04:28:16.05	334.43	8.15	
2025-01-07 04:28:16.26	334.40	8.15	
2025-01-07 04:28:16.46	334.36	8.15	
2025-01-07 04:28:16.67	334.33	8.14	
2025-01-07 04:28:16.87	334.30	8.14	
2025-01-07 04:28:17.08	334.26	8.14	
2025-01-07 04:28:17.29	334.23	8.13	
2025-01-07 04:28:17.49	334.19	8.13	
2025-01-07 04:28:17.70	334.16	8.13	
2025-01-07 04:28:17.90	334.13	8.12	
2025-01-07 04:28:18.11	334.09	8.12	
2025-01-07 04:28:18.31	334.06	8.12	
2025-01-07 04:28:18.52	334.03	8.11	
2025-01-07 04:28:18.72	333.99	8.11	
2025-01-07 04:28:18.93	333.96	8.11	
2025-01-07 04:28:19.13	333.93	8.10	
2025-01-07 04:28:19.34	333.89	8.10	
2025-01-07 04:28:19.54	333.86	8.10	
2025-01-07 04:28:19.75	333.82	8.09	
2025-01-07 04:28:19.96	333.79	8.09	
2025-01-07 04:28:20.16	333.76	8.09	
2025-01-07 04:28:20.36	333.72	8.08	
2025-01-07 04:28:20.57	333.69	8.08	
2025-01-07 04:28:20.77	333.66	8.08	
2025-01-07 04:28:20.98	333.62	8.07	
2025-01-07 04:28:21.18	333.59	8.07	
2025-01-07 04:28:21.39	333.55	8.07	
2025-01-07 04:28:21.59	333.52	8.06	
2025-01-07 04:28:21.80	333.49	8.06	
2025-01-07 04:28:22.00	333.45	8.06	
2025-01-07 04:28:22.22	333.42	8.05	
2025-01-07 04:28:22.42	333.39	8.05	
2025-01-07 04:28:22.63	333.35	8.05	
2025-01-07 04:28:22.83	333.32	8.04	
2025-01-07 04:28:23.04	333.28	8.04	
2025-01-07 04:28:23.26	333.25	8.04	
2025-01-07 04:28:23.46	333.22	8.03	
2025-01-07 04:28:23.67	333.18	8.03	
2025-01-07 04:28:23.87	333.15	8.03	
2025-01-07 04:28:24.08	333.11	8.02	
2025-01-07 04:28:24.28	333.08	8.02	
2025-01-07 04:28:24.49	333.05	8.02	
2025-01-07 04:28:24.69	333.01	8.01	
2025-01-07 04:28:24.90	332.98	8.01	
2025-01-07 04:28:25.10	332.95	8.01	
2025-01-07 04:28:25.31	332.91	8.00	
2025-01-07 04:28:25.51	332.88	8.00	
2025-01-07 04:28:25.72	332.85	8.00	
2025-01-07 04:28:25.93	332.81	7.99	
2025-01-07 04:28:26.13	332.78	7.99	
2025-01-07 04:28:26.34	332.75	7.98	
2025-01-07 04:28:26.54	332.71	7.98	
2025-01-07 04:28:26.75	332.68	7.98	
2025-01-07 04:28:26.95	332.65	7.97	
2025-01-07 04:28:27.16	332.61	7.97	
2025-01-07 04:28:27.36	332.58	7.97	
2025-01-07 04:28:27.57	332.55	7.96	
2025-01-07 04:28:27.77	332.51	7.96	
2025-01-07 04:28:27.98	332.48	7.96	
2025-01-07 04:28:28.18	332.45	7.95	
2025-01-07 04:28:28.39	332.41	7.95	
2025-01-07 04:28:28.59	332.38	7.94	
2025-01-07 04:28:28.80	332.35	7.94	
2025-01-07 04:28:29.00	332.31	7.94	
2025-01-07 04:28:29.21	332.28	7.93	
2025-01-07 04:28:29.42	332.24	7.93	
2025-01-07 04:28:29.62	332.21	7.93	
2025-01-07 04:28:29.83	332.18	7.92	
2025-01-07 04:28:30.03	332.15	7.92	
2025-01-07 04:28:30.24	332.11	7.91	
2025-01-07 04:28:30.44	332.08	7.91	
2025-01-07 04:28:30.65	332.05	7.91	
2025-01-07 04:28:30.85	332.01	7.90	
2025-01-07 04:28:31.06	331.98	7.90	
2025-01-07 04:28:31.26	331.95	7.90	
2025-01-07 04:28:31.47	331.91	7.89	
2025-01-07 04:28:31.67	331.88	7.89	
2025-01-07 04:28:31.88	331.85	7.88	
2025-01-07 04:28:32.08	331.81	7.88	
2025-01-07 04:28:32.29	331.78	7.88	
2025-01-07 04:28:32.49	331.75	7.87	
2025-01-07 04:28:32.70	331.71	7.87	
2025-01-07 04:28:32.90	331.68	7.87	
2025-01-07 04:28:33.11	331.65	7.86	
2025-01-07 04:28:33.31	331.61	7.86	
2025-01-07 04:28:33.52	331.58	7.85	
2025-01-07 04:28:33.73	331.55	7.85	
2025-01-07 04:28:33.93	331.51	7.85	
2025-01-07 04:28:34.14	331.48	7.84	
2025-01-07 04:28:34.34	331.45	7.84	
2025-01-07 04:28:34.55	331.41	7.83	
2025-01-07 04:28:34.75	331.38	7.83	
2025-01-07 04:28:34.97	331.35	7.83	
2025-01-07 04:28:35.17	331.31	7.82	
2025-01-07 04:28:35.38	331.28	7.82	
2025-01-07 04:28:35.59	331.25	7.81	
2025-01-07 04:28:35.79	331.22	7.81	
2025-01-07 04:28:36.00	331.18	7.81	
2025-01-07 04:28:36.20	331.15	7.80	
2025-01-07 04:28:36.41	331.12	7.80	
2025-01-07 04:28:36.61	331.08	7.79	
2025-01-07 04:28:36.82	331.05	7.79	
2025-01-07 04:28:37.02	331.02	7.79	
2025-01-07 04:28:37.23	330.98	7.78	
2025-01-07 04:28:37.43	330.95	7.78	
2025-01-07 04:28:37.64	330.92	7.77	
2025-01-07 04:28:37.84	330.89	7.77	
2025-01-07 04:28:38.05	330.85	7.77	
2025-01-07 04:28:38.25	330.82	7.76	
2025-01-07 04:28:38.46	330.79	7.76	
2025-01-07 04:28:38.66	330.75	7.75	
2025-01-07 04:28:38.87	330.72	7.75	
2025-01-07 04:28:39.07	330.69	7.75	
2025-01-07 04:28:39.28	330.65	7.74	
2025-01-07 04:28:39.48	330.62	7.74	
2025-01-07 04:28:39.69	330.59	7.73	
2025-01-07 04:28:39.89	330.56	7.73	
2025-01-07 04:28:40.10	330.52	7.73	
2025-01-07 04:28:40.30	330.49	7.72	
2025-01-07 04:28:40.51	330.46	7.72	
2025-01-07 04:28:40.71	330.43	7.71	
2025-01-07 04:28:40.92	330.39	7.71	
2025-01-07 04:28:41.12	330.36	7.70	
2025-01-07 04:28:41.33	330.33	7.70	
2025-01-07 04:28:41.53	330.29	7.70	
2025-01-07 04:28:41.74	330.26	7.69	
2025-01-07 04:28:41.94	330.23	7.69	
2025-01-07 04:28:42.15	330.20	7.68	
2025-01-07 04:28:42.35	330.16	7.68	
2025-01-07 04:28:42.56	330.13	7.67	
2025-01-07 04:28:42.76	330.10	7.67	
2025-01-07 04:28:42.97	330.07	7.67	
2025-01-07 04:28:43.17	330.03	7.66	
2025-01-07 04:28:43.39	330.00	7.66	
2025-01-07 04:28:43.59	329.97	7.65	
2025-01-07 04:28:43.80	329.93	7.65	
2025-01-07 04:28:44.01	329.90	7.64	
2025-01-07 04:28:44.21	329.87	7.64	
2025-01-07 04:28:44.42	329.83	7.64	
2025-01-07 04:28:44.62	329.80	7.63	
2025-01-07 04:28:44.83	329.77	7.63	
2025-01-07 04:28:45.03	329.74	7.62	
2025-01-07 04:28:45.24	329.70	7.62	
2025-01-07 04:28:45.44	329.67	7.61	
2025-01-07 04:28:45.65	329.64	7.61	
2025-01-07 04:28:45.86	329.61	7.61	
2025-01-07 04:28:46.06	329.57	7.60	
2025-01-07 04:28:46.26	329.54	7.60	
2025-01-07 04:28:46.47	329.51	7.59	
2025-01-07 04:28:46.67	329.48	7.59	
2025-01-07 04:28:46.88	329.44	7.58	
2025-01-07 04:28:47.08	329.41	7.58	
2025-01-07 04:28:47.29	329.38	7.57	
2025-01-07 04:28:47.50	329.35	7.57	
2025-01-07 04:28:47.70	329.31	7.57	
2025-01-07 04:28:47.91	329.28	7.56	
2025-01-07 04:28:48.11	329.25	7.56	
2025-01-07 04:28:48.32	329.22	7.55	
2025-01-07 04:28:48.52	329.18	7.55	
2025-01-07 04:28:48.73	329.15	7.54	
2025-01-07 04:28:48.93	329.12	7.54	
2025-01-07 04:28:49.14	329.09	7.53	
2025-01-07 04:28:49.35	329.05	7.53	
2025-01-07 04:28:49.55	329.02	7.53	
2025-01-07 04:28:49.75	328.99	7.52	
2025-01-07 04:28:49.96	328.96	7.52	
2025-01-07 04:28:50.16	328.93	7.51	
2025-01-07 04:28:50.37	328.89	7.51	
2025-01-07 04:28:50.57	328.86	7.50	
2025-01-07 04:28:50.78	328.83	7.50	
2025-01-07 04:28:50.98	328.80	7.49	
2025-01-07 04:28:51.18	328.76	7.49	
2025-01-07 04:28:51.39	328.73	7.48	
2025-01-07 04:28:51.60	328.70	7.48	
2025-01-07 04:28:51.80	328.67	7.48	
2025-01-07 04:28:52.00	328.64	7.47	
2025-01-07 04:28:52.21	328.60	7.47	
2025-01-07 04:28:52.41	328.57	7.46	
2025-01-07 04:28:52.62	328.54	7.46	
2025-01-07 04:28:52.83	328.51	7.45	
2025-01-07 04:28:53.03	328.47	7.45	
2025-01-07 04:28:53.24	328.44	7.44	
2025-01-07 04:28:53.44	328.41	7.44	
2025-01-07 04:28:53.65	328.38	7.43	
2025-01-07 04:28:53.85	328.35	7.43	
2025-01-07 04:28:54.06	328.31	7.42	
2025-01-07 04:28:54.26	328.28	7.42	
2025-01-07 04:28:54.47	328.25	7.42	
2025-01-07 04:28:54.68	328.22	7.41	
2025-01-07 04:28:54.88	328.18	7.41	
2025-01-07 04:28:55.09	328.15	7.40	
2025-01-07 04:28:55.29	328.12	7.40	
2025-01-07 04:28:55.50	328.09	7.39	
2025-01-07 04:28:55.70	328.06	7.39	
2025-01-07 04:28:55.91	328.02	7.38	
2025-01-07 04:28:56.11	327.99	7.38	
2025-01-07 04:28:56.32	327.96	7.37	
2025-01-07 04:28:56.52	327.93	7.37	
2025-01-07 04:28:56.73	327.90	7.36	
2025-01-07 04:28:56.94	327.86	7.36	
2025-01-07 04:28:57.14	327.83	7.35	
2025-01-07 04:28:57.35	327.80	7.35	
2025-01-07 04:28:57.55	327.77	7.34	
2025-01-07 04:28:57.76	327.73	7.34	
2025-01-07 04:28:57.96	327.70	7.33	
2025-01-07 04:28:58.17	327.67	7.33	
2025-01-07 04:28:58.37	327.64	7.32	
2025-01-07 04:28:58.58	327.61	7.32	
2025-01-07 04:28:58.79	327.57	7.31	
2025-01-07 04:28:58.99	327.54	7.31	
2025-01-07 04:28:59.20	327.51	7.31	
2025-01-07 04:28:59.40	327.48	7.30	
2025-01-07 04:28:59.61	327.45	7.30	
2025-01-07 04:28:59.81	327.42	7.29	
2025-01-07 04:29:00.02	327.38	7.29	
2025-01-07 04:29:00.23	327.35	7.28	
2025-01-07 04:29:00.44	327.32	7.28	
2025-01-07 04:29:00.64	327.29	7.27	
2025-01-07 04:29:00.85	327.25	7.27	
2025-01-07 04:29:01.06	327.22	7.26	
2025-01-07 04:29:01.26	327.19	7.26	
2025-01-07 04:29:01.47	327.16	7.25	
2025-01-07 04:29:01.67	327.13	7.25	
2025-01-07 04:29:01.87	327.10	7.24	
2025-01-07 04:29:02.08	327.06	7.24	
2025-01-07 04:29:02.28	327.03	7.23	
2025-01-07 04:29:02.49	327.00	7.23	
2025-01-07 04:29:02.69	326.97	7.22	
2025-01-07 04:29:02.89	326.94	7.22	
2025-01-07 04:29:03.10	326.91	7.21	
2025-01-07 04:29:03.30	326.88	7.21	
2025-01-07 04:29:03.51	326.84	7.20	
2025-01-07 04:29:03.72	326.81	7.20	
2025-01-07 04:29:03.93	326.78	7.19	
2025-01-07 04:29:04.14	326.75	7.19	
2025-01-07 04:29:04.34	326.72	7.18	
2025-01-07 04:29:04.55	326.68	7.18	
2025-01-07 04:29:04.75	326.65	7.17	
2025-01-07 04:29:04.95	326.62	7.17	
2025-01-07 04:29:05.16	326.59	7.16	
2025-01-07 04:29:05.36	326.56	7.16	
2025-01-07 04:29:05.57	326.53	7.15	
2025-01-07 04:29:05.78	326.49	7.15	
2025-01-07 04:29:05.98	326.46	7.14	
2025-01-07 04:29:06.18	326.43	7.14	
2025-01-07 04:29:06.39	326.40	7.13	
2025-01-07 04:29:06.60	326.37	7.12	
2025-01-07 04:29:06.80	326.34	7.12	
2025-01-07 04:29:07.00	326.31	7.11	
2025-01-07 04:29:07.21	326.27	7.11	
2025-01-07 04:29:07.42	326.24	7.10	
2025-01-07 04:29:07.62	326.21	7.10	
2025-01-07 04:29:07.83	326.18	7.09	
2025-01-07 04:29:08.03	326.15	7.09	
2025-01-07 04:29:08.24	326.12	7.08	
2025-01-07 04:29:08.44	326.09	7.08	
2025-01-07 04:29:08.65	326.05	7.07	
2025-01-07 04:29:08.85	326.02	7.07	
2025-01-07 04:29:09.06	325.99	7.06	
2025-01-07 04:29:09.27	325.96	7.06	
2025-01-07 04:29:09.47	325.93	7.05	
2025-01-07 04:29:09.68	325.90	7.05	
2025-01-07 04:29:09.88	325.87	7.04	
2025-01-07 04:29:10.09	325.83	7.04	
2025-01-07 04:29:10.29	325.80	7.03	
2025-01-07 04:29:10.50	325.77	7.03	
2025-01-07 04:29:10.70	325.74	7.02	
2025-01-07 04:29:10.91	325.71	7.02	
2025-01-07 04:29:11.11	325.68	7.01	
2025-01-07 04:29:11.32	325.65	7.00	
2025-01-07 04:29:11.53	325.61	7.00	
2025-01-07 04:29:11.74	325.58	6.99	
2025-01-07 04:29:11.94	325.55	6.99	
2025-01-07 04:29:12.15	325.52	6.98	
2025-01-07 04:29:12.35	325.49	6.98	
2025-01-07 04:29:12.55	325.46	6.97	
2025-01-07 04:29:12.76	325.43	6.97	
2025-01-07 04:29:12.97	325.40	6.96	
2025-01-07 04:29:13.17	325.37	6.96	
2025-01-07 04:29:13.38	325.33	6.95	
2025-01-07 04:29:13.58	325.30	6.95	
2025-01-07 04:29:13.79	325.27	6.94	
2025-01-07 04:29:13.99	325.24	6.94	
2025-01-07 04:29:14.20	325.21	6.93	
2025-01-07 04:29:14.41	325.18	6.92	
2025-01-07 04:29:14.61	325.15	6.92	
2025-01-07 04:29:14.82	325.12	6.91	
2025-01-07 04:29:15.02	325.09	6.91	
2025-01-07 04:29:15.23	325.05	6.90	
2025-01-07 04:29:15.43	325.02	6.90	
2025-01-07 04:29:15.64	324.99	6.89	
2025-01-07 04:29:15.84	324.96	6.89	
2025-01-07 04:29:16.05	324.93	6.88	
2025-01-07 04:29:16.25	324.90	6.88	
2025-01-07 04:29:16.46	324.87	6.87	
2025-01-07 04:29:16.66	324.84	6.86	
2025-01-07 04:29:16.87	324.81	6.86	
2025-01-07 04:29:17.07	324.78	6.85	
2025-01-07 04:29:17.28	324.74	6.85	
2025-01-07 04:29:17.48	324.71	6.84	
2025-01-07 04:29:17.69	324.68	6.84	
2025-01-07 04:29:17.89	324.65	6.83	
2025-01-07 04:29:18.10	324.62	6.83	
2025-01-07 04:29:18.30	324.59	6.82	
2025-01-07 04:29:18.51	324.56	6.82	
2025-01-07 04:29:18.72	324.53	6.81	
2025-01-07 04:29:18.92	324.50	6.80	
2025-01-07 04:29:19.13	324.47	6.80	
2025-01-07 04:29:19.33	324.44	6.79	
2025-01-07 04:29:19.54	324.40	6.79	
2025-01-07 04:29:19.74	324.37	6.78	
2025-01-07 04:29:19.95	324.34	6.78	
2025-01-07 04:29:20.15	324.31	6.77	
2025-01-07 04:29:20.36	324.28	6.77	
2025-01-07 04:29:20.57	324.25	6.76	
2025-01-07 04:29:20.77	324.22	6.75	
2025-01-07 04:29:20.98	324.19	6.75	
