passes_logs/2025/01/07/SPB_Silybum_02/SPB_Silybum_02__20250107_230356_SUOMI_NPP_rec.log

#Pass ID: 20250107_230356_SUOMI NPP
#Satellite: SUOMI NPP
#Configuration: NPP
#Start time: 2025-01-07 23:08:26

#Version: 2.0.20230423
#Station: SPB_Silybum_02
#Location: 30.233357 lon 59.946436 lat
#TLE: 1 37849U 11061A   25007.16649885  .00000287  00000+0  15716-3 0  9990
#TLE: 2 37849  98.7438 308.2547 0001950  52.7817 307.3537 14.19534452683807

#Time	Az	El	Level	Level2	SNR	BER	Gain	Gain2
2025-01-07 23:08:28.31	58.24	26.37	
2025-01-07 23:08:28.52	58.30	26.39	
2025-01-07 23:08:28.72	58.35	26.41	
2025-01-07 23:08:28.93	58.40	26.42	
2025-01-07 23:08:29.13	58.45	26.44	
2025-01-07 23:08:29.34	58.51	26.46	
2025-01-07 23:08:29.55	58.56	26.48	
2025-01-07 23:08:29.75	58.61	26.50	
2025-01-07 23:08:29.96	58.66	26.52	
2025-01-07 23:08:30.16	58.72	26.54	
2025-01-07 23:08:30.37	58.77	26.56	
2025-01-07 23:08:30.57	58.82	26.58	
2025-01-07 23:08:30.77	58.87	26.60	
2025-01-07 23:08:30.98	58.93	26.61	
2025-01-07 23:08:31.19	58.98	26.63	
2025-01-07 23:08:31.39	59.03	26.65	
2025-01-07 23:08:31.60	59.09	26.67	
2025-01-07 23:08:31.80	59.14	26.69	
2025-01-07 23:08:32.00	59.19	26.71	
2025-01-07 23:08:32.21	59.25	26.73	
2025-01-07 23:08:32.42	59.30	26.75	
2025-01-07 23:08:32.62	59.35	26.77	
2025-01-07 23:08:32.83	59.41	26.78	
2025-01-07 23:08:33.03	59.46	26.80	
2025-01-07 23:08:33.24	59.51	26.82	
2025-01-07 23:08:33.44	59.57	26.84	
2025-01-07 23:08:33.65	59.62	26.86	
2025-01-07 23:08:33.85	59.67	26.88	
2025-01-07 23:08:34.06	59.73	26.90	
2025-01-07 23:08:34.26	59.78	26.92	
2025-01-07 23:08:34.47	59.84	26.93	
2025-01-07 23:08:34.68	59.89	26.95	
2025-01-07 23:08:34.88	59.94	26.97	
2025-01-07 23:08:35.09	60.00	26.99	
2025-01-07 23:08:35.29	60.05	27.01	
2025-01-07 23:08:35.50	60.11	27.03	
2025-01-07 23:08:35.71	60.16	27.05	
2025-01-07 23:08:35.91	60.22	27.07	
2025-01-07 23:08:36.12	60.27	27.08	
2025-01-07 23:08:36.32	60.32	27.10	
2025-01-07 23:08:36.53	60.38	27.12	
2025-01-07 23:08:36.73	60.43	27.14	
2025-01-07 23:08:36.94	60.49	27.16	
2025-01-07 23:08:37.14	60.54	27.18	
2025-01-07 23:08:37.35	60.60	27.20	
2025-01-07 23:08:37.56	60.65	27.22	
2025-01-07 23:08:37.76	60.71	27.23	
2025-01-07 23:08:37.97	60.76	27.25	
2025-01-07 23:08:38.17	60.82	27.27	
2025-01-07 23:08:38.38	60.87	27.29	
2025-01-07 23:08:38.58	60.93	27.31	
2025-01-07 23:08:38.79	60.99	27.33	
2025-01-07 23:08:38.99	61.04	27.34	
2025-01-07 23:08:39.20	61.10	27.36	
2025-01-07 23:08:39.42	61.16	27.38	
2025-01-07 23:08:39.62	61.21	27.40	
2025-01-07 23:08:39.83	61.27	27.42	
2025-01-07 23:08:40.03	61.32	27.44	
2025-01-07 23:08:40.24	61.38	27.46	
2025-01-07 23:08:40.44	61.43	27.47	
2025-01-07 23:08:40.65	61.49	27.49	
2025-01-07 23:08:40.85	61.54	27.51	
2025-01-07 23:08:41.06	61.60	27.53	
2025-01-07 23:08:41.26	61.65	27.55	
2025-01-07 23:08:41.47	61.71	27.56	
2025-01-07 23:08:41.67	61.77	27.58	
2025-01-07 23:08:41.88	61.82	27.60	
2025-01-07 23:08:42.08	61.88	27.62	
2025-01-07 23:08:42.29	61.94	27.64	
2025-01-07 23:08:42.49	61.99	27.66	
2025-01-07 23:08:42.71	62.05	27.67	
2025-01-07 23:08:42.91	62.11	27.69	
2025-01-07 23:08:43.12	62.17	27.71	
2025-01-07 23:08:43.33	62.22	27.73	
2025-01-07 23:08:43.53	62.28	27.75	
2025-01-07 23:08:43.74	62.34	27.77	
2025-01-07 23:08:43.94	62.39	27.78	
2025-01-07 23:08:44.15	62.45	27.80	
2025-01-07 23:08:44.35	62.51	27.82	
2025-01-07 23:08:44.56	62.56	27.84	
2025-01-07 23:08:44.76	62.62	27.85	
2025-01-07 23:08:44.97	62.68	27.87	
2025-01-07 23:08:45.18	62.74	27.89	
2025-01-07 23:08:45.38	62.79	27.91	
2025-01-07 23:08:45.58	62.85	27.93	
2025-01-07 23:08:45.79	62.91	27.94	
2025-01-07 23:08:46.00	62.97	27.96	
2025-01-07 23:08:46.20	63.02	27.98	
2025-01-07 23:08:46.41	63.08	28.00	
2025-01-07 23:08:46.61	63.14	28.02	
2025-01-07 23:08:46.82	63.20	28.03	
2025-01-07 23:08:47.02	63.25	28.05	
2025-01-07 23:08:47.23	63.31	28.07	
2025-01-07 23:08:47.43	63.37	28.09	
2025-01-07 23:08:47.64	63.43	28.10	
2025-01-07 23:08:47.84	63.48	28.12	
2025-01-07 23:08:48.06	63.55	28.14	
2025-01-07 23:08:48.27	63.61	28.16	
2025-01-07 23:08:48.48	63.67	28.18	
2025-01-07 23:08:48.68	63.72	28.19	
2025-01-07 23:08:48.89	63.78	28.21	
2025-01-07 23:08:49.09	63.84	28.23	
2025-01-07 23:08:49.29	63.90	28.25	
2025-01-07 23:08:49.50	63.96	28.26	
2025-01-07 23:08:49.71	64.02	28.28	
2025-01-07 23:08:49.91	64.07	28.30	
2025-01-07 23:08:50.13	64.14	28.32	
2025-01-07 23:08:50.33	64.19	28.33	
2025-01-07 23:08:50.55	64.26	28.35	
2025-01-07 23:08:50.76	64.32	28.37	
2025-01-07 23:08:50.96	64.37	28.39	
2025-01-07 23:08:51.17	64.43	28.40	
2025-01-07 23:08:51.37	64.49	28.42	
2025-01-07 23:08:51.58	64.55	28.44	
2025-01-07 23:08:51.79	64.61	28.46	
2025-01-07 23:08:51.99	64.67	28.47	
2025-01-07 23:08:52.19	64.73	28.49	
2025-01-07 23:08:52.40	64.79	28.51	
2025-01-07 23:08:52.60	64.85	28.52	
2025-01-07 23:08:52.81	64.91	28.54	
2025-01-07 23:08:53.02	64.97	28.56	
2025-01-07 23:08:53.22	65.03	28.58	
2025-01-07 23:08:53.43	65.09	28.59	
2025-01-07 23:08:53.63	65.15	28.61	
2025-01-07 23:08:53.84	65.21	28.63	
2025-01-07 23:08:54.04	65.27	28.64	
2025-01-07 23:08:54.25	65.33	28.66	
2025-01-07 23:08:54.45	65.39	28.68	
2025-01-07 23:08:54.66	65.45	28.70	
2025-01-07 23:08:54.86	65.51	28.71	
2025-01-07 23:08:55.07	65.57	28.73	
2025-01-07 23:08:55.28	65.63	28.75	
2025-01-07 23:08:55.48	65.69	28.76	
2025-01-07 23:08:55.68	65.75	28.78	
2025-01-07 23:08:55.89	65.81	28.80	
2025-01-07 23:08:56.10	65.87	28.81	
2025-01-07 23:08:56.30	65.93	28.83	
2025-01-07 23:08:56.51	65.99	28.85	
2025-01-07 23:08:56.71	66.05	28.86	
2025-01-07 23:08:56.93	66.12	28.88	
2025-01-07 23:08:57.13	66.18	28.90	
2025-01-07 23:08:57.34	66.24	28.91	
2025-01-07 23:08:57.54	66.30	28.93	
2025-01-07 23:08:57.75	66.36	28.95	
2025-01-07 23:08:57.95	66.42	28.96	
2025-01-07 23:08:58.16	66.48	28.98	
2025-01-07 23:08:58.37	66.54	29.00	
2025-01-07 23:08:58.57	66.60	29.01	
2025-01-07 23:08:58.77	66.66	29.03	
2025-01-07 23:08:58.98	66.73	29.05	
2025-01-07 23:08:59.19	66.79	29.06	
2025-01-07 23:08:59.39	66.85	29.08	
2025-01-07 23:08:59.59	66.91	29.10	
2025-01-07 23:08:59.81	66.98	29.11	
2025-01-07 23:09:00.01	67.04	29.13	
2025-01-07 23:09:00.22	67.10	29.15	
2025-01-07 23:09:00.42	67.16	29.16	
2025-01-07 23:09:00.63	67.22	29.18	
2025-01-07 23:09:00.83	67.28	29.19	
2025-01-07 23:09:01.04	67.35	29.21	
2025-01-07 23:09:01.24	67.41	29.23	
2025-01-07 23:09:01.45	67.47	29.24	
2025-01-07 23:09:01.65	67.53	29.26	
2025-01-07 23:09:01.86	67.60	29.27	
2025-01-07 23:09:02.06	67.66	29.29	
2025-01-07 23:09:02.27	67.72	29.31	
2025-01-07 23:09:02.48	67.78	29.32	
2025-01-07 23:09:02.69	67.85	29.34	
2025-01-07 23:09:02.89	67.91	29.35	
2025-01-07 23:09:03.10	67.97	29.37	
2025-01-07 23:09:03.31	68.04	29.39	
2025-01-07 23:09:03.51	68.10	29.40	
2025-01-07 23:09:03.72	68.16	29.42	
2025-01-07 23:09:03.92	68.22	29.43	
2025-01-07 23:09:04.13	68.29	29.45	
2025-01-07 23:09:04.33	68.35	29.47	
2025-01-07 23:09:04.54	68.41	29.48	
2025-01-07 23:09:04.74	68.48	29.50	
2025-01-07 23:09:04.95	68.54	29.51	
2025-01-07 23:09:05.15	68.60	29.53	
2025-01-07 23:09:05.36	68.67	29.54	
2025-01-07 23:09:05.57	68.73	29.56	
2025-01-07 23:09:05.77	68.79	29.58	
2025-01-07 23:09:05.98	68.86	29.59	
2025-01-07 23:09:06.20	68.93	29.61	
2025-01-07 23:09:06.40	68.99	29.62	
2025-01-07 23:09:06.61	69.05	29.64	
2025-01-07 23:09:06.82	69.12	29.65	
2025-01-07 23:09:07.02	69.18	29.67	
2025-01-07 23:09:07.22	69.24	29.68	
2025-01-07 23:09:07.43	69.31	29.70	
2025-01-07 23:09:07.63	69.37	29.71	
2025-01-07 23:09:07.84	69.44	29.73	
2025-01-07 23:09:08.05	69.50	29.75	
2025-01-07 23:09:08.25	69.57	29.76	
2025-01-07 23:09:08.45	69.63	29.78	
2025-01-07 23:09:08.66	69.69	29.79	
2025-01-07 23:09:08.86	69.76	29.81	
2025-01-07 23:09:09.07	69.82	29.82	
2025-01-07 23:09:09.28	69.89	29.84	
2025-01-07 23:09:09.48	69.95	29.85	
2025-01-07 23:09:09.68	70.01	29.87	
2025-01-07 23:09:09.89	70.08	29.88	
2025-01-07 23:09:10.10	70.15	29.90	
2025-01-07 23:09:10.30	70.21	29.91	
2025-01-07 23:09:10.50	70.27	29.93	
2025-01-07 23:09:10.71	70.34	29.94	
2025-01-07 23:09:10.92	70.41	29.96	
2025-01-07 23:09:11.12	70.47	29.97	
2025-01-07 23:09:11.33	70.54	29.98	
2025-01-07 23:09:11.53	70.60	30.00	
2025-01-07 23:09:11.74	70.67	30.01	
2025-01-07 23:09:11.94	70.73	30.03	
2025-01-07 23:09:12.15	70.80	30.04	
2025-01-07 23:09:12.36	70.86	30.06	
2025-01-07 23:09:12.56	70.93	30.07	
2025-01-07 23:09:12.77	70.99	30.09	
2025-01-07 23:09:12.98	71.06	30.10	
2025-01-07 23:09:13.18	71.12	30.12	
2025-01-07 23:09:13.39	71.19	30.13	
2025-01-07 23:09:13.59	71.26	30.14	
2025-01-07 23:09:13.80	71.32	30.16	
2025-01-07 23:09:14.00	71.39	30.17	
2025-01-07 23:09:14.21	71.45	30.19	
2025-01-07 23:09:14.41	71.52	30.20	
2025-01-07 23:09:14.62	71.59	30.22	
2025-01-07 23:09:14.82	71.65	30.23	
2025-01-07 23:09:15.03	71.72	30.24	
2025-01-07 23:09:15.23	71.78	30.26	
2025-01-07 23:09:15.44	71.85	30.27	
2025-01-07 23:09:15.65	71.92	30.29	
2025-01-07 23:09:15.85	71.98	30.30	
2025-01-07 23:09:16.05	72.05	30.31	
2025-01-07 23:09:16.26	72.12	30.33	
2025-01-07 23:09:16.46	72.18	30.34	
2025-01-07 23:09:16.67	72.25	30.36	
2025-01-07 23:09:16.87	72.31	30.37	
2025-01-07 23:09:17.08	72.38	30.38	
2025-01-07 23:09:17.28	72.45	30.40	
2025-01-07 23:09:17.49	72.52	30.41	
2025-01-07 23:09:17.70	72.58	30.42	
2025-01-07 23:09:17.92	72.66	30.44	
2025-01-07 23:09:18.12	72.72	30.45	
2025-01-07 23:09:18.33	72.79	30.47	
2025-01-07 23:09:18.53	72.85	30.48	
2025-01-07 23:09:18.74	72.92	30.49	
2025-01-07 23:09:18.94	72.99	30.51	
2025-01-07 23:09:19.15	73.06	30.52	
2025-01-07 23:09:19.35	73.12	30.53	
2025-01-07 23:09:19.56	73.19	30.55	
2025-01-07 23:09:19.77	73.26	30.56	
2025-01-07 23:09:19.97	73.33	30.57	
2025-01-07 23:09:20.17	73.39	30.59	
2025-01-07 23:09:20.38	73.46	30.60	
2025-01-07 23:09:20.58	73.53	30.61	
2025-01-07 23:09:20.79	73.60	30.63	
2025-01-07 23:09:21.00	73.67	30.64	
2025-01-07 23:09:21.20	73.73	30.65	
2025-01-07 23:09:21.41	73.80	30.67	
2025-01-07 23:09:21.61	73.87	30.68	
2025-01-07 23:09:21.82	73.94	30.69	
2025-01-07 23:09:22.02	74.00	30.70	
2025-01-07 23:09:22.22	74.07	30.72	
2025-01-07 23:09:22.43	74.14	30.73	
2025-01-07 23:09:22.63	74.21	30.74	
2025-01-07 23:09:22.84	74.28	30.76	
2025-01-07 23:09:23.05	74.35	30.77	
2025-01-07 23:09:23.25	74.41	30.78	
2025-01-07 23:09:23.45	74.48	30.79	
2025-01-07 23:09:23.66	74.55	30.81	
2025-01-07 23:09:23.86	74.62	30.82	
2025-01-07 23:09:24.07	74.69	30.83	
2025-01-07 23:09:24.27	74.75	30.84	
2025-01-07 23:09:24.48	74.82	30.86	
2025-01-07 23:09:24.69	74.89	30.87	
2025-01-07 23:09:24.89	74.96	30.88	
2025-01-07 23:09:25.10	75.03	30.89	
2025-01-07 23:09:25.30	75.10	30.90	
2025-01-07 23:09:25.51	75.17	30.92	
2025-01-07 23:09:25.71	75.24	30.93	
2025-01-07 23:09:25.92	75.31	30.94	
2025-01-07 23:09:26.12	75.37	30.95	
2025-01-07 23:09:26.33	75.44	30.97	
2025-01-07 23:09:26.55	75.52	30.98	
2025-01-07 23:09:26.76	75.59	30.99	
2025-01-07 23:09:26.96	75.66	31.00	
2025-01-07 23:09:27.17	75.73	31.01	
2025-01-07 23:09:27.37	75.79	31.03	
2025-01-07 23:09:27.58	75.87	31.04	
2025-01-07 23:09:27.78	75.93	31.05	
2025-01-07 23:09:27.99	76.00	31.06	
2025-01-07 23:09:28.19	76.07	31.07	
2025-01-07 23:09:28.40	76.14	31.09	
2025-01-07 23:09:28.60	76.21	31.10	
2025-01-07 23:09:28.81	76.28	31.11	
2025-01-07 23:09:29.02	76.35	31.12	
2025-01-07 23:09:29.22	76.42	31.13	
2025-01-07 23:09:29.43	76.49	31.14	
2025-01-07 23:09:29.63	76.56	31.15	
2025-01-07 23:09:29.84	76.63	31.17	
2025-01-07 23:09:30.04	76.70	31.18	
2025-01-07 23:09:30.25	76.77	31.19	
2025-01-07 23:09:30.45	76.84	31.20	
2025-01-07 23:09:30.66	76.91	31.21	
2025-01-07 23:09:30.86	76.98	31.22	
2025-01-07 23:09:31.07	77.05	31.23	
2025-01-07 23:09:31.28	77.13	31.24	
2025-01-07 23:09:31.48	77.19	31.26	
2025-01-07 23:09:31.69	77.27	31.27	
2025-01-07 23:09:31.89	77.33	31.28	
2025-01-07 23:09:32.10	77.41	31.29	
2025-01-07 23:09:32.30	77.48	31.30	
2025-01-07 23:09:32.51	77.55	31.31	
2025-01-07 23:09:32.72	77.62	31.32	
2025-01-07 23:09:32.93	77.69	31.33	
2025-01-07 23:09:33.14	77.76	31.34	
2025-01-07 23:09:33.35	77.84	31.35	
2025-01-07 23:09:33.55	77.91	31.36	
2025-01-07 23:09:33.76	77.98	31.38	
2025-01-07 23:09:33.96	78.05	31.39	
2025-01-07 23:09:34.17	78.12	31.40	
2025-01-07 23:09:34.37	78.19	31.41	
2025-01-07 23:09:34.58	78.26	31.42	
2025-01-07 23:09:34.78	78.33	31.43	
2025-01-07 23:09:34.99	78.40	31.44	
2025-01-07 23:09:35.20	78.48	31.45	
2025-01-07 23:09:35.40	78.55	31.46	
2025-01-07 23:09:35.61	78.62	31.47	
2025-01-07 23:09:35.81	78.69	31.48	
2025-01-07 23:09:36.02	78.76	31.49	
2025-01-07 23:09:36.22	78.83	31.50	
2025-01-07 23:09:36.43	78.90	31.51	
2025-01-07 23:09:36.63	78.97	31.52	
2025-01-07 23:09:36.83	79.04	31.53	
2025-01-07 23:09:37.04	79.12	31.54	
2025-01-07 23:09:37.24	79.19	31.55	
2025-01-07 23:09:37.45	79.26	31.56	
2025-01-07 23:09:37.66	79.33	31.57	
2025-01-07 23:09:37.86	79.40	31.58	
2025-01-07 23:09:38.07	79.48	31.59	
2025-01-07 23:09:38.27	79.55	31.60	
2025-01-07 23:09:38.48	79.62	31.61	
2025-01-07 23:09:38.68	79.69	31.62	
2025-01-07 23:09:38.89	79.76	31.63	
2025-01-07 23:09:39.09	79.83	31.63	
2025-01-07 23:09:39.30	79.91	31.64	
2025-01-07 23:09:39.50	79.98	31.65	
2025-01-07 23:09:39.71	80.05	31.66	
2025-01-07 23:09:39.91	80.12	31.67	
2025-01-07 23:09:40.12	80.20	31.68	
2025-01-07 23:09:40.32	80.27	31.69	
2025-01-07 23:09:40.53	80.34	31.70	
2025-01-07 23:09:40.74	80.41	31.71	
2025-01-07 23:09:40.94	80.48	31.72	
2025-01-07 23:09:41.15	80.56	31.73	
2025-01-07 23:09:41.35	80.63	31.73	
2025-01-07 23:09:41.56	80.70	31.74	
2025-01-07 23:09:41.76	80.77	31.75	
2025-01-07 23:09:41.97	80.85	31.76	
2025-01-07 23:09:42.17	80.92	31.77	
2025-01-07 23:09:42.38	80.99	31.78	
2025-01-07 23:09:42.58	81.06	31.79	
2025-01-07 23:09:42.79	81.14	31.80	
2025-01-07 23:09:42.99	81.21	31.80	
2025-01-07 23:09:43.20	81.28	31.81	
2025-01-07 23:09:43.40	81.36	31.82	
2025-01-07 23:09:43.61	81.43	31.83	
2025-01-07 23:09:43.81	81.50	31.84	
2025-01-07 23:09:44.02	81.58	31.85	
2025-01-07 23:09:44.22	81.65	31.85	
2025-01-07 23:09:44.43	81.72	31.86	
2025-01-07 23:09:44.65	81.80	31.87	
2025-01-07 23:09:44.85	81.87	31.88	
2025-01-07 23:09:45.06	81.95	31.89	
2025-01-07 23:09:45.27	82.02	31.90	
2025-01-07 23:09:45.47	82.09	31.90	
2025-01-07 23:09:45.68	82.17	31.91	
2025-01-07 23:09:45.88	82.24	31.92	
2025-01-07 23:09:46.09	82.31	31.93	
2025-01-07 23:09:46.29	82.38	31.93	
2025-01-07 23:09:46.50	82.46	31.94	
2025-01-07 23:09:46.71	82.53	31.95	
2025-01-07 23:09:46.91	82.61	31.96	
2025-01-07 23:09:47.12	82.68	31.97	
2025-01-07 23:09:47.32	82.75	31.97	
2025-01-07 23:09:47.53	82.83	31.98	
2025-01-07 23:09:47.74	82.90	31.99	
2025-01-07 23:09:47.94	82.98	31.99	
2025-01-07 23:09:48.15	83.05	32.00	
2025-01-07 23:09:48.35	83.12	32.01	
2025-01-07 23:09:48.56	83.20	32.02	
2025-01-07 23:09:48.76	83.27	32.02	
2025-01-07 23:09:48.96	83.34	32.03	
2025-01-07 23:09:49.17	83.42	32.04	
2025-01-07 23:09:49.38	83.49	32.05	
2025-01-07 23:09:49.58	83.56	32.05	
2025-01-07 23:09:49.79	83.64	32.06	
2025-01-07 23:09:50.00	83.72	32.07	
2025-01-07 23:09:50.21	83.79	32.07	
2025-01-07 23:09:50.42	83.87	32.08	
2025-01-07 23:09:50.62	83.94	32.09	
2025-01-07 23:09:50.83	84.02	32.09	
2025-01-07 23:09:51.03	84.09	32.10	
2025-01-07 23:09:51.24	84.16	32.11	
2025-01-07 23:09:51.44	84.24	32.11	
2025-01-07 23:09:51.65	84.31	32.12	
2025-01-07 23:09:51.85	84.38	32.13	
2025-01-07 23:09:52.05	84.46	32.13	
2025-01-07 23:09:52.26	84.53	32.14	
2025-01-07 23:09:52.46	84.60	32.14	
2025-01-07 23:09:52.67	84.68	32.15	
2025-01-07 23:09:52.87	84.75	32.16	
2025-01-07 23:09:53.08	84.83	32.16	
2025-01-07 23:09:53.28	84.90	32.17	
2025-01-07 23:09:53.49	84.98	32.17	
2025-01-07 23:09:53.70	85.05	32.18	
2025-01-07 23:09:53.90	85.13	32.19	
2025-01-07 23:09:54.11	85.20	32.19	
2025-01-07 23:09:54.31	85.28	32.20	
2025-01-07 23:09:54.52	85.35	32.20	
2025-01-07 23:09:54.72	85.42	32.21	
2025-01-07 23:09:54.93	85.50	32.22	
2025-01-07 23:09:55.13	85.57	32.22	
2025-01-07 23:09:55.34	85.65	32.23	
2025-01-07 23:09:55.54	85.72	32.23	
2025-01-07 23:09:55.74	85.80	32.24	
2025-01-07 23:09:55.95	85.87	32.24	
2025-01-07 23:09:56.15	85.94	32.25	
2025-01-07 23:09:56.36	86.02	32.25	
2025-01-07 23:09:56.56	86.09	32.26	
2025-01-07 23:09:56.77	86.17	32.26	
2025-01-07 23:09:56.97	86.24	32.27	
2025-01-07 23:09:57.18	86.32	32.27	
2025-01-07 23:09:57.38	86.39	32.28	
2025-01-07 23:09:57.59	86.47	32.28	
2025-01-07 23:09:57.79	86.54	32.29	
2025-01-07 23:09:58.00	86.62	32.29	
2025-01-07 23:09:58.20	86.69	32.30	
2025-01-07 23:09:58.41	86.77	32.30	
2025-01-07 23:09:58.62	86.85	32.31	
2025-01-07 23:09:58.82	86.92	32.31	
2025-01-07 23:09:59.03	87.00	32.32	
2025-01-07 23:09:59.24	87.07	32.32	
2025-01-07 23:09:59.44	87.15	32.33	
2025-01-07 23:09:59.65	87.22	32.33	
2025-01-07 23:09:59.85	87.30	32.33	
2025-01-07 23:10:00.05	87.37	32.34	
2025-01-07 23:10:00.26	87.45	32.34	
2025-01-07 23:10:00.46	87.52	32.35	
2025-01-07 23:10:00.67	87.60	32.35	
2025-01-07 23:10:00.87	87.67	32.36	
2025-01-07 23:10:01.08	87.75	32.36	
2025-01-07 23:10:01.28	87.82	32.36	
2025-01-07 23:10:01.49	87.90	32.37	
2025-01-07 23:10:01.69	87.97	32.37	
2025-01-07 23:10:01.90	88.05	32.38	
2025-01-07 23:10:02.10	88.12	32.38	
2025-01-07 23:10:02.31	88.20	32.38	
2025-01-07 23:10:02.51	88.27	32.39	
2025-01-07 23:10:02.72	88.35	32.39	
2025-01-07 23:10:02.93	88.43	32.39	
2025-01-07 23:10:03.13	88.50	32.40	
2025-01-07 23:10:03.34	88.58	32.40	
2025-01-07 23:10:03.55	88.65	32.40	
2025-01-07 23:10:03.75	88.73	32.41	
2025-01-07 23:10:03.97	88.81	32.41	
2025-01-07 23:10:04.18	88.89	32.41	
2025-01-07 23:10:04.38	88.96	32.42	
2025-01-07 23:10:04.59	89.04	32.42	
2025-01-07 23:10:04.80	89.12	32.42	
2025-01-07 23:10:05.01	89.19	32.43	
2025-01-07 23:10:05.22	89.27	32.43	
2025-01-07 23:10:05.42	89.34	32.43	
2025-01-07 23:10:05.62	89.42	32.44	
2025-01-07 23:10:05.83	89.49	32.44	
2025-01-07 23:10:06.04	89.57	32.44	
2025-01-07 23:10:06.24	89.65	32.44	
2025-01-07 23:10:06.45	89.72	32.45	
2025-01-07 23:10:06.65	89.80	32.45	
2025-01-07 23:10:06.86	89.87	32.45	
2025-01-07 23:10:07.06	89.95	32.45	
2025-01-07 23:10:07.27	90.03	32.46	
2025-01-07 23:10:07.47	90.10	32.46	
2025-01-07 23:10:07.67	90.17	32.46	
2025-01-07 23:10:07.88	90.25	32.46	
2025-01-07 23:10:08.08	90.32	32.47	
2025-01-07 23:10:08.28	90.40	32.47	
2025-01-07 23:10:08.49	90.48	32.47	
2025-01-07 23:10:08.69	90.55	32.47	
2025-01-07 23:10:08.90	90.63	32.47	
2025-01-07 23:10:09.10	90.70	32.48	
2025-01-07 23:10:09.31	90.78	32.48	
2025-01-07 23:10:09.51	90.85	32.48	
2025-01-07 23:10:09.72	90.93	32.48	
2025-01-07 23:10:09.93	91.01	32.48	
2025-01-07 23:10:10.13	91.08	32.48	
2025-01-07 23:10:10.34	91.16	32.49	
2025-01-07 23:10:10.54	91.23	32.49	
2025-01-07 23:10:10.75	91.31	32.49	
2025-01-07 23:10:10.95	91.39	32.49	
2025-01-07 23:10:11.16	91.46	32.49	
2025-01-07 23:10:11.36	91.54	32.49	
2025-01-07 23:10:11.57	91.62	32.49	
2025-01-07 23:10:11.77	91.69	32.50	
2025-01-07 23:10:11.98	91.77	32.50	
2025-01-07 23:10:12.18	91.84	32.50	
2025-01-07 23:10:12.40	91.92	32.50	
2025-01-07 23:10:12.61	92.00	32.50	
2025-01-07 23:10:12.81	92.07	32.50	
2025-01-07 23:10:13.01	92.15	32.50	
2025-01-07 23:10:13.22	92.23	32.50	
2025-01-07 23:10:13.42	92.30	32.50	
2025-01-07 23:10:13.63	92.38	32.50	
2025-01-07 23:10:13.83	92.45	32.51	
2025-01-07 23:10:14.04	92.53	32.51	
2025-01-07 23:10:14.25	92.61	32.51	
2025-01-07 23:10:14.45	92.68	32.51	
2025-01-07 23:10:14.66	92.76	32.51	
2025-01-07 23:10:14.86	92.83	32.51	
2025-01-07 23:10:15.07	92.91	32.51	
2025-01-07 23:10:15.27	92.98	32.51	
2025-01-07 23:10:15.48	93.06	32.51	
2025-01-07 23:10:15.69	93.14	32.51	
2025-01-07 23:10:15.89	93.21	32.51	
2025-01-07 23:10:16.10	93.29	32.51	
2025-01-07 23:10:16.30	93.37	32.51	
2025-01-07 23:10:16.51	93.44	32.51	
2025-01-07 23:10:16.72	93.52	32.51	
2025-01-07 23:10:16.93	93.60	32.51	
2025-01-07 23:10:17.14	93.68	32.51	
2025-01-07 23:10:17.34	93.75	32.51	
2025-01-07 23:10:17.55	93.83	32.51	
2025-01-07 23:10:17.75	93.90	32.51	
2025-01-07 23:10:17.96	93.98	32.51	
2025-01-07 23:10:18.16	94.06	32.51	
2025-01-07 23:10:18.37	94.13	32.51	
2025-01-07 23:10:18.58	94.21	32.51	
2025-01-07 23:10:18.80	94.29	32.51	
2025-01-07 23:10:19.00	94.37	32.50	
2025-01-07 23:10:19.21	94.44	32.50	
2025-01-07 23:10:19.42	94.52	32.50	
2025-01-07 23:10:19.62	94.60	32.50	
2025-01-07 23:10:19.83	94.67	32.50	
2025-01-07 23:10:20.03	94.75	32.50	
2025-01-07 23:10:20.24	94.83	32.50	
2025-01-07 23:10:20.45	94.90	32.50	
2025-01-07 23:10:20.65	94.98	32.50	
2025-01-07 23:10:20.86	95.05	32.50	
2025-01-07 23:10:21.06	95.13	32.49	
2025-01-07 23:10:21.27	95.21	32.49	
2025-01-07 23:10:21.48	95.28	32.49	
2025-01-07 23:10:21.68	95.36	32.49	
2025-01-07 23:10:21.88	95.43	32.49	
2025-01-07 23:10:22.09	95.51	32.49	
2025-01-07 23:10:22.29	95.58	32.49	
2025-01-07 23:10:22.49	95.66	32.48	
2025-01-07 23:10:22.70	95.74	32.48	
2025-01-07 23:10:22.91	95.81	32.48	
2025-01-07 23:10:23.11	95.89	32.48	
2025-01-07 23:10:23.32	95.96	32.48	
2025-01-07 23:10:23.52	96.04	32.48	
2025-01-07 23:10:23.72	96.11	32.47	
2025-01-07 23:10:23.93	96.19	32.47	
2025-01-07 23:10:24.13	96.26	32.47	
2025-01-07 23:10:24.34	96.34	32.47	
2025-01-07 23:10:24.54	96.42	32.47	
2025-01-07 23:10:24.75	96.49	32.46	
2025-01-07 23:10:24.96	96.57	32.46	
2025-01-07 23:10:25.16	96.64	32.46	
2025-01-07 23:10:25.36	96.72	32.46	
2025-01-07 23:10:25.57	96.80	32.45	
2025-01-07 23:10:25.78	96.87	32.45	
2025-01-07 23:10:25.98	96.95	32.45	
2025-01-07 23:10:26.18	97.02	32.45	
2025-01-07 23:10:26.39	97.10	32.44	
2025-01-07 23:10:26.60	97.18	32.44	
2025-01-07 23:10:26.80	97.25	32.44	
2025-01-07 23:10:27.01	97.33	32.43	
2025-01-07 23:10:27.22	97.41	32.43	
2025-01-07 23:10:27.42	97.48	32.43	
2025-01-07 23:10:27.63	97.56	32.43	
2025-01-07 23:10:27.83	97.63	32.42	
2025-01-07 23:10:28.04	97.71	32.42	
2025-01-07 23:10:28.25	97.78	32.42	
2025-01-07 23:10:28.45	97.86	32.41	
2025-01-07 23:10:28.65	97.93	32.41	
2025-01-07 23:10:28.86	98.01	32.41	
2025-01-07 23:10:29.06	98.08	32.40	
2025-01-07 23:10:29.27	98.16	32.40	
2025-01-07 23:10:29.47	98.23	32.40	
2025-01-07 23:10:29.68	98.31	32.39	
2025-01-07 23:10:29.89	98.39	32.39	
2025-01-07 23:10:30.09	98.46	32.39	
2025-01-07 23:10:30.30	98.54	32.38	
2025-01-07 23:10:30.50	98.61	32.38	
2025-01-07 23:10:30.71	98.69	32.37	
2025-01-07 23:10:30.91	98.76	32.37	
2025-01-07 23:10:31.12	98.84	32.37	
2025-01-07 23:10:31.33	98.92	32.36	
2025-01-07 23:10:31.53	98.99	32.36	
2025-01-07 23:10:31.73	99.06	32.35	
2025-01-07 23:10:31.94	99.14	32.35	
2025-01-07 23:10:32.15	99.22	32.35	
2025-01-07 23:10:32.35	99.29	32.34	
2025-01-07 23:10:32.56	99.37	32.34	
2025-01-07 23:10:32.76	99.44	32.33	
2025-01-07 23:10:32.97	99.52	32.33	
2025-01-07 23:10:33.17	99.59	32.32	
2025-01-07 23:10:33.38	99.67	32.32	
2025-01-07 23:10:33.58	99.74	32.32	
2025-01-07 23:10:33.79	99.82	32.31	
2025-01-07 23:10:33.99	99.89	32.31	
2025-01-07 23:10:34.20	99.97	32.30	
2025-01-07 23:10:34.40	100.04	32.30	
2025-01-07 23:10:34.61	100.12	32.29	
2025-01-07 23:10:34.81	100.19	32.29	
2025-01-07 23:10:35.02	100.27	32.28	
2025-01-07 23:10:35.22	100.34	32.28	
2025-01-07 23:10:35.43	100.42	32.27	
2025-01-07 23:10:35.64	100.50	32.27	
2025-01-07 23:10:35.84	100.57	32.26	
2025-01-07 23:10:36.05	100.65	32.26	
2025-01-07 23:10:36.25	100.72	32.25	
2025-01-07 23:10:36.46	100.80	32.25	
2025-01-07 23:10:36.66	100.87	32.24	
2025-01-07 23:10:36.87	100.94	32.24	
2025-01-07 23:10:37.07	101.02	32.23	
2025-01-07 23:10:37.28	101.09	32.22	
2025-01-07 23:10:37.48	101.17	32.22	
2025-01-07 23:10:37.69	101.24	32.21	
2025-01-07 23:10:37.90	101.32	32.21	
2025-01-07 23:10:38.10	101.39	32.20	
2025-01-07 23:10:38.31	101.47	32.20	
2025-01-07 23:10:38.51	101.54	32.19	
2025-01-07 23:10:38.72	101.62	32.19	
2025-01-07 23:10:38.92	101.69	32.18	
2025-01-07 23:10:39.13	101.77	32.17	
2025-01-07 23:10:39.33	101.84	32.17	
2025-01-07 23:10:39.54	101.92	32.16	
2025-01-07 23:10:39.74	101.99	32.16	
2025-01-07 23:10:39.95	102.06	32.15	
2025-01-07 23:10:40.15	102.14	32.14	
2025-01-07 23:10:40.36	102.21	32.14	
2025-01-07 23:10:40.56	102.29	32.13	
2025-01-07 23:10:40.77	102.36	32.12	
2025-01-07 23:10:40.97	102.43	32.12	
2025-01-07 23:10:41.18	102.51	32.11	
2025-01-07 23:10:41.38	102.58	32.10	
2025-01-07 23:10:41.59	102.66	32.10	
2025-01-07 23:10:41.79	102.73	32.09	
2025-01-07 23:10:42.00	102.81	32.08	
2025-01-07 23:10:42.21	102.88	32.08	
2025-01-07 23:10:42.41	102.95	32.07	
2025-01-07 23:10:42.61	103.03	32.06	
2025-01-07 23:10:42.82	103.10	32.06	
2025-01-07 23:10:43.03	103.18	32.05	
2025-01-07 23:10:43.23	103.25	32.04	
2025-01-07 23:10:43.43	103.32	32.04	
2025-01-07 23:10:43.64	103.40	32.03	
2025-01-07 23:10:43.85	103.47	32.02	
2025-01-07 23:10:44.06	103.55	32.01	
2025-01-07 23:10:44.27	103.62	32.01	
2025-01-07 23:10:44.47	103.70	32.00	
2025-01-07 23:10:44.68	103.77	31.99	
2025-01-07 23:10:44.88	103.84	31.99	
2025-01-07 23:10:45.09	103.92	31.98	
2025-01-07 23:10:45.29	103.99	31.97	
2025-01-07 23:10:45.49	104.06	31.96	
2025-01-07 23:10:45.70	104.14	31.96	
2025-01-07 23:10:45.90	104.21	31.95	
2025-01-07 23:10:46.11	104.28	31.94	
2025-01-07 23:10:46.31	104.36	31.93	
2025-01-07 23:10:46.51	104.43	31.93	
2025-01-07 23:10:46.72	104.50	31.92	
2025-01-07 23:10:46.93	104.58	31.91	
2025-01-07 23:10:47.13	104.65	31.90	
2025-01-07 23:10:47.34	104.72	31.89	
2025-01-07 23:10:47.54	104.80	31.89	
2025-01-07 23:10:47.74	104.87	31.88	
2025-01-07 23:10:47.95	104.94	31.87	
2025-01-07 23:10:48.16	105.02	31.86	
2025-01-07 23:10:48.36	105.09	31.85	
2025-01-07 23:10:48.57	105.16	31.84	
2025-01-07 23:10:48.79	105.24	31.84	
2025-01-07 23:10:48.99	105.31	31.83	
2025-01-07 23:10:49.20	105.39	31.82	
2025-01-07 23:10:49.41	105.46	31.81	
2025-01-07 23:10:49.61	105.53	31.80	
2025-01-07 23:10:49.81	105.60	31.79	
2025-01-07 23:10:50.02	105.68	31.79	
2025-01-07 23:10:50.22	105.75	31.78	
2025-01-07 23:10:50.43	105.82	31.77	
2025-01-07 23:10:50.64	105.90	31.76	
2025-01-07 23:10:50.84	105.97	31.75	
2025-01-07 23:10:51.05	106.04	31.74	
2025-01-07 23:10:51.25	106.11	31.73	
2025-01-07 23:10:51.46	106.19	31.72	
2025-01-07 23:10:51.67	106.26	31.71	
2025-01-07 23:10:51.89	106.34	31.70	
2025-01-07 23:10:52.10	106.41	31.70	
2025-01-07 23:10:52.30	106.48	31.69	
2025-01-07 23:10:52.51	106.56	31.68	
2025-01-07 23:10:52.71	106.63	31.67	
2025-01-07 23:10:52.92	106.70	31.66	
2025-01-07 23:10:53.12	106.77	31.65	
2025-01-07 23:10:53.33	106.85	31.64	
2025-01-07 23:10:53.54	106.92	31.63	
2025-01-07 23:10:53.74	106.99	31.62	
2025-01-07 23:10:53.95	107.07	31.61	
2025-01-07 23:10:54.15	107.14	31.60	
2025-01-07 23:10:54.36	107.21	31.59	
2025-01-07 23:10:54.56	107.28	31.58	
2025-01-07 23:10:54.77	107.35	31.57	
2025-01-07 23:10:54.97	107.42	31.56	
2025-01-07 23:10:55.18	107.50	31.55	
2025-01-07 23:10:55.38	107.57	31.54	
2025-01-07 23:10:55.59	107.64	31.53	
2025-01-07 23:10:55.79	107.71	31.52	
2025-01-07 23:10:56.00	107.78	31.51	
2025-01-07 23:10:56.22	107.86	31.50	
2025-01-07 23:10:56.42	107.93	31.49	
2025-01-07 23:10:56.63	108.00	31.48	
2025-01-07 23:10:56.83	108.07	31.47	
2025-01-07 23:10:57.04	108.14	31.46	
2025-01-07 23:10:57.26	108.22	31.45	
2025-01-07 23:10:57.46	108.29	31.44	
2025-01-07 23:10:57.66	108.36	31.43	
2025-01-07 23:10:57.87	108.43	31.42	
2025-01-07 23:10:58.07	108.50	31.41	
2025-01-07 23:10:58.28	108.58	31.40	
2025-01-07 23:10:58.49	108.65	31.39	
2025-01-07 23:10:58.69	108.72	31.38	
2025-01-07 23:10:58.90	108.79	31.37	
2025-01-07 23:10:59.10	108.86	31.36	
2025-01-07 23:10:59.31	108.93	31.35	
2025-01-07 23:10:59.51	109.00	31.34	
2025-01-07 23:10:59.72	109.07	31.33	
2025-01-07 23:10:59.92	109.14	31.32	
2025-01-07 23:11:00.13	109.21	31.30	
2025-01-07 23:11:00.33	109.28	31.29	
2025-01-07 23:11:00.54	109.36	31.28	
2025-01-07 23:11:00.75	109.43	31.27	
2025-01-07 23:11:00.95	109.50	31.26	
2025-01-07 23:11:01.16	109.57	31.25	
2025-01-07 23:11:01.37	109.64	31.24	
2025-01-07 23:11:01.57	109.71	31.23	
2025-01-07 23:11:01.77	109.78	31.22	
2025-01-07 23:11:01.98	109.85	31.20	
2025-01-07 23:11:02.19	109.92	31.19	
2025-01-07 23:11:02.39	109.99	31.18	
2025-01-07 23:11:02.59	110.06	31.17	
2025-01-07 23:11:02.80	110.13	31.16	
2025-01-07 23:11:03.01	110.20	31.15	
2025-01-07 23:11:03.21	110.27	31.14	
2025-01-07 23:11:03.42	110.34	31.12	
2025-01-07 23:11:03.62	110.41	31.11	
2025-01-07 23:11:03.83	110.48	31.10	
2025-01-07 23:11:04.03	110.55	31.09	
2025-01-07 23:11:04.24	110.62	31.08	
2025-01-07 23:11:04.45	110.69	31.07	
2025-01-07 23:11:04.65	110.76	31.06	
2025-01-07 23:11:04.85	110.83	31.04	
2025-01-07 23:11:05.06	110.90	31.03	
2025-01-07 23:11:05.27	110.97	31.02	
2025-01-07 23:11:05.47	111.04	31.01	
2025-01-07 23:11:05.68	111.11	31.00	
2025-01-07 23:11:05.88	111.18	30.98	
2025-01-07 23:11:06.09	111.25	30.97	
2025-01-07 23:11:06.29	111.32	30.96	
2025-01-07 23:11:06.50	111.39	30.95	
2025-01-07 23:11:06.70	111.45	30.94	
2025-01-07 23:11:06.90	111.52	30.92	
2025-01-07 23:11:07.11	111.59	30.91	
2025-01-07 23:11:07.32	111.66	30.90	
2025-01-07 23:11:07.52	111.73	30.89	
2025-01-07 23:11:07.73	111.80	30.87	
2025-01-07 23:11:07.93	111.87	30.86	
2025-01-07 23:11:08.14	111.94	30.85	
2025-01-07 23:11:08.34	112.01	30.84	
2025-01-07 23:11:08.55	112.08	30.82	
2025-01-07 23:11:08.76	112.15	30.81	
2025-01-07 23:11:08.96	112.21	30.80	
2025-01-07 23:11:09.17	112.28	30.79	
2025-01-07 23:11:09.37	112.35	30.77	
2025-01-07 23:11:09.58	112.42	30.76	
2025-01-07 23:11:09.78	112.49	30.75	
2025-01-07 23:11:09.99	112.56	30.73	
2025-01-07 23:11:10.19	112.62	30.72	
2025-01-07 23:11:10.40	112.69	30.71	
2025-01-07 23:11:10.60	112.76	30.70	
2025-01-07 23:11:10.81	112.83	30.68	
2025-01-07 23:11:11.01	112.90	30.67	
2025-01-07 23:11:11.22	112.97	30.66	
2025-01-07 23:11:11.42	113.03	30.64	
2025-01-07 23:11:11.63	113.10	30.63	
2025-01-07 23:11:11.83	113.17	30.62	
2025-01-07 23:11:12.04	113.24	30.60	
2025-01-07 23:11:12.24	113.30	30.59	
2025-01-07 23:11:12.45	113.37	30.58	
2025-01-07 23:11:12.65	113.44	30.57	
2025-01-07 23:11:12.86	113.51	30.55	
2025-01-07 23:11:13.07	113.58	30.54	
2025-01-07 23:11:13.28	113.64	30.52	
2025-01-07 23:11:13.49	113.71	30.51	
2025-01-07 23:11:13.69	113.78	30.50	
2025-01-07 23:11:13.90	113.85	30.48	
2025-01-07 23:11:14.11	113.92	30.47	
2025-01-07 23:11:14.31	113.98	30.46	
2025-01-07 23:11:14.51	114.05	30.44	
2025-01-07 23:11:14.72	114.12	30.43	
2025-01-07 23:11:14.92	114.18	30.42	
2025-01-07 23:11:15.13	114.25	30.40	
2025-01-07 23:11:15.33	114.32	30.39	
2025-01-07 23:11:15.54	114.38	30.37	
2025-01-07 23:11:15.74	114.45	30.36	
2025-01-07 23:11:15.95	114.52	30.35	
2025-01-07 23:11:16.16	114.59	30.33	
2025-01-07 23:11:16.36	114.65	30.32	
2025-01-07 23:11:16.56	114.72	30.31	
2025-01-07 23:11:16.77	114.78	30.29	
2025-01-07 23:11:16.97	114.85	30.28	
2025-01-07 23:11:17.18	114.92	30.26	
2025-01-07 23:11:17.39	114.98	30.25	
2025-01-07 23:11:17.60	115.05	30.23	
2025-01-07 23:11:17.81	115.12	30.22	
2025-01-07 23:11:18.02	115.19	30.20	
2025-01-07 23:11:18.22	115.25	30.19	
2025-01-07 23:11:18.43	115.32	30.18	
2025-01-07 23:11:18.64	115.39	30.16	
2025-01-07 23:11:18.84	115.45	30.15	
2025-01-07 23:11:19.05	115.52	30.13	
2025-01-07 23:11:19.25	115.58	30.12	
2025-01-07 23:11:19.46	115.65	30.10	
2025-01-07 23:11:19.66	115.72	30.09	
2025-01-07 23:11:19.87	115.78	30.08	
2025-01-07 23:11:20.07	115.85	30.06	
2025-01-07 23:11:20.28	115.91	30.05	
2025-01-07 23:11:20.48	115.98	30.03	
2025-01-07 23:11:20.69	116.04	30.02	
2025-01-07 23:11:20.89	116.11	30.00	
2025-01-07 23:11:21.10	116.17	29.99	
2025-01-07 23:11:21.30	116.24	29.97	
2025-01-07 23:11:21.51	116.31	29.96	
2025-01-07 23:11:21.71	116.37	29.94	
2025-01-07 23:11:21.92	116.44	29.93	
2025-01-07 23:11:22.12	116.50	29.91	
2025-01-07 23:11:22.33	116.57	29.90	
2025-01-07 23:11:22.54	116.63	29.88	
2025-01-07 23:11:22.74	116.69	29.87	
2025-01-07 23:11:22.95	116.76	29.85	
2025-01-07 23:11:23.15	116.82	29.84	
2025-01-07 23:11:23.36	116.89	29.82	
2025-01-07 23:11:23.56	116.95	29.81	
2025-01-07 23:11:23.77	117.02	29.79	
2025-01-07 23:11:23.99	117.09	29.78	
2025-01-07 23:11:24.19	117.15	29.76	
2025-01-07 23:11:24.40	117.22	29.75	
2025-01-07 23:11:24.61	117.28	29.73	
2025-01-07 23:11:24.81	117.35	29.72	
2025-01-07 23:11:25.02	117.41	29.70	
2025-01-07 23:11:25.22	117.47	29.69	
2025-01-07 23:11:25.43	117.54	29.67	
2025-01-07 23:11:25.63	117.60	29.65	
2025-01-07 23:11:25.84	117.67	29.64	
2025-01-07 23:11:26.05	117.73	29.62	
2025-01-07 23:11:26.25	117.79	29.61	
2025-01-07 23:11:26.46	117.86	29.59	
2025-01-07 23:11:26.66	117.92	29.58	
2025-01-07 23:11:26.87	117.99	29.56	
2025-01-07 23:11:27.07	118.05	29.55	
2025-01-07 23:11:27.28	118.11	29.53	
2025-01-07 23:11:27.48	118.18	29.51	
2025-01-07 23:11:27.69	118.24	29.50	
2025-01-07 23:11:27.89	118.30	29.48	
2025-01-07 23:11:28.10	118.37	29.47	
2025-01-07 23:11:28.31	118.43	29.45	
2025-01-07 23:11:28.51	118.49	29.44	
2025-01-07 23:11:28.72	118.56	29.42	
2025-01-07 23:11:28.92	118.62	29.40	
2025-01-07 23:11:29.14	118.69	29.39	
2025-01-07 23:11:29.34	118.75	29.37	
2025-01-07 23:11:29.55	118.81	29.35	
2025-01-07 23:11:29.75	118.87	29.34	
2025-01-07 23:11:29.96	118.94	29.32	
2025-01-07 23:11:30.16	119.00	29.31	
2025-01-07 23:11:30.37	119.06	29.29	
2025-01-07 23:11:30.57	119.12	29.28	
2025-01-07 23:11:30.78	119.19	29.26	
2025-01-07 23:11:30.99	119.25	29.24	
2025-01-07 23:11:31.19	119.31	29.23	
2025-01-07 23:11:31.39	119.37	29.21	
2025-01-07 23:11:31.60	119.44	29.19	
2025-01-07 23:11:31.81	119.50	29.18	
2025-01-07 23:11:32.01	119.56	29.16	
2025-01-07 23:11:32.22	119.63	29.14	
2025-01-07 23:11:32.42	119.69	29.13	
2025-01-07 23:11:32.63	119.75	29.11	
2025-01-07 23:11:32.83	119.81	29.10	
2025-01-07 23:11:33.04	119.87	29.08	
2025-01-07 23:11:33.25	119.94	29.06	
2025-01-07 23:11:33.45	120.00	29.05	
2025-01-07 23:11:33.66	120.06	29.03	
2025-01-07 23:11:33.86	120.12	29.01	
2025-01-07 23:11:34.07	120.18	29.00	
2025-01-07 23:11:34.28	120.25	28.98	
2025-01-07 23:11:34.48	120.31	28.96	
2025-01-07 23:11:34.68	120.36	28.95	
2025-01-07 23:11:34.89	120.43	28.93	
2025-01-07 23:11:35.09	120.49	28.91	
2025-01-07 23:11:35.30	120.55	28.90	
2025-01-07 23:11:35.51	120.61	28.88	
2025-01-07 23:11:35.71	120.67	28.86	
2025-01-07 23:11:35.91	120.73	28.85	
2025-01-07 23:11:36.12	120.79	28.83	
2025-01-07 23:11:36.32	120.85	28.81	
2025-01-07 23:11:36.53	120.91	28.80	
2025-01-07 23:11:36.73	120.97	28.78	
2025-01-07 23:11:36.94	121.04	28.76	
2025-01-07 23:11:37.15	121.10	28.75	
2025-01-07 23:11:37.35	121.16	28.73	
2025-01-07 23:11:37.56	121.22	28.71	
2025-01-07 23:11:37.76	121.28	28.69	
2025-01-07 23:11:37.97	121.34	28.68	
2025-01-07 23:11:38.17	121.40	28.66	
2025-01-07 23:11:38.38	121.46	28.64	
2025-01-07 23:11:38.58	121.52	28.63	
2025-01-07 23:11:38.79	121.58	28.61	
2025-01-07 23:11:39.01	121.64	28.59	
2025-01-07 23:11:39.21	121.70	28.57	
2025-01-07 23:11:39.42	121.76	28.56	
2025-01-07 23:11:39.63	121.83	28.54	
2025-01-07 23:11:39.83	121.88	28.52	
2025-01-07 23:11:40.04	121.94	28.50	
2025-01-07 23:11:40.24	122.00	28.49	
2025-01-07 23:11:40.45	122.06	28.47	
2025-01-07 23:11:40.65	122.12	28.45	
2025-01-07 23:11:40.86	122.18	28.44	
2025-01-07 23:11:41.08	122.25	28.42	
2025-01-07 23:11:41.28	122.30	28.40	
2025-01-07 23:11:41.49	122.36	28.38	
2025-01-07 23:11:41.69	122.42	28.36	
2025-01-07 23:11:41.90	122.48	28.35	
2025-01-07 23:11:42.10	122.54	28.33	
2025-01-07 23:11:42.31	122.60	28.31	
2025-01-07 23:11:42.51	122.66	28.30	
2025-01-07 23:11:42.72	122.72	28.28	
2025-01-07 23:11:42.92	122.78	28.26	
2025-01-07 23:11:43.13	122.84	28.24	
2025-01-07 23:11:43.33	122.89	28.22	
2025-01-07 23:11:43.54	122.95	28.21	
2025-01-07 23:11:43.74	123.01	28.19	
2025-01-07 23:11:43.95	123.07	28.17	
2025-01-07 23:11:44.16	123.13	28.15	
2025-01-07 23:11:44.36	123.19	28.14	
2025-01-07 23:11:44.57	123.25	28.12	
2025-01-07 23:11:44.77	123.30	28.10	
2025-01-07 23:11:44.98	123.36	28.08	
2025-01-07 23:11:45.18	123.42	28.07	
2025-01-07 23:11:45.39	123.48	28.05	
2025-01-07 23:11:45.59	123.54	28.03	
2025-01-07 23:11:45.80	123.59	28.01	
2025-01-07 23:11:46.00	123.65	27.99	
2025-01-07 23:11:46.21	123.71	27.98	
2025-01-07 23:11:46.42	123.77	27.96	
2025-01-07 23:11:46.62	123.83	27.94	
2025-01-07 23:11:46.83	123.88	27.92	
2025-01-07 23:11:47.03	123.94	27.90	
2025-01-07 23:11:47.24	124.00	27.89	
2025-01-07 23:11:47.44	124.05	27.87	
2025-01-07 23:11:47.65	124.11	27.85	
2025-01-07 23:11:47.86	124.17	27.83	
2025-01-07 23:11:48.06	124.23	27.81	
2025-01-07 23:11:48.27	124.29	27.80	
2025-01-07 23:11:48.47	124.34	27.78	
2025-01-07 23:11:48.68	124.40	27.76	
2025-01-07 23:11:48.89	124.46	27.74	
2025-01-07 23:11:49.09	124.51	27.72	
2025-01-07 23:11:49.30	124.57	27.70	
2025-01-07 23:11:49.50	124.63	27.69	
2025-01-07 23:11:49.71	124.69	27.67	
2025-01-07 23:11:49.92	124.74	27.65	
2025-01-07 23:11:50.13	124.80	27.63	
2025-01-07 23:11:50.33	124.86	27.61	
2025-01-07 23:11:50.54	124.91	27.59	
2025-01-07 23:11:50.74	124.97	27.58	
2025-01-07 23:11:50.95	125.03	27.56	
2025-01-07 23:11:51.15	125.08	27.54	
2025-01-07 23:11:51.36	125.14	27.52	
2025-01-07 23:11:51.56	125.19	27.50	
2025-01-07 23:11:51.78	125.25	27.48	
2025-01-07 23:11:51.99	125.31	27.46	
2025-01-07 23:11:52.19	125.37	27.45	
2025-01-07 23:11:52.40	125.42	27.43	
2025-01-07 23:11:52.61	125.48	27.41	
2025-01-07 23:11:52.81	125.54	27.39	
2025-01-07 23:11:53.02	125.59	27.37	
2025-01-07 23:11:53.22	125.65	27.35	
2025-01-07 23:11:53.43	125.70	27.34	
2025-01-07 23:11:53.63	125.76	27.32	
2025-01-07 23:11:53.84	125.81	27.30	
2025-01-07 23:11:54.04	125.87	27.28	
2025-01-07 23:11:54.25	125.92	27.26	
2025-01-07 23:11:54.45	125.98	27.24	
2025-01-07 23:11:54.66	126.04	27.22	
2025-01-07 23:11:54.86	126.09	27.21	
2025-01-07 23:11:55.07	126.15	27.19	
2025-01-07 23:11:55.27	126.20	27.17	
2025-01-07 23:11:55.48	126.26	27.15	
2025-01-07 23:11:55.69	126.31	27.13	
2025-01-07 23:11:55.89	126.36	27.11	
2025-01-07 23:11:56.09	126.42	27.09	
2025-01-07 23:11:56.30	126.47	27.08	
2025-01-07 23:11:56.50	126.53	27.06	
2025-01-07 23:11:56.71	126.58	27.04	
2025-01-07 23:11:56.92	126.64	27.02	
2025-01-07 23:11:57.12	126.69	27.00	
2025-01-07 23:11:57.32	126.74	26.98	
2025-01-07 23:11:57.53	126.80	26.96	
2025-01-07 23:11:57.74	126.86	26.94	
2025-01-07 23:11:57.94	126.91	26.93	
2025-01-07 23:11:58.15	126.96	26.91	
2025-01-07 23:11:58.35	127.02	26.89	
2025-01-07 23:11:58.56	127.07	26.87	
2025-01-07 23:11:58.76	127.12	26.85	
2025-01-07 23:11:58.97	127.18	26.83	
2025-01-07 23:11:59.18	127.23	26.81	
2025-01-07 23:11:59.38	127.29	26.79	
2025-01-07 23:11:59.59	127.34	26.77	
2025-01-07 23:11:59.79	127.39	26.76	
2025-01-07 23:12:00.00	127.45	26.74	
2025-01-07 23:12:00.20	127.50	26.72	
2025-01-07 23:12:00.41	127.56	26.70	
2025-01-07 23:12:00.61	127.61	26.68	
2025-01-07 23:12:00.82	127.66	26.66	
2025-01-07 23:12:01.02	127.71	26.64	
2025-01-07 23:12:01.23	127.77	26.62	
2025-01-07 23:12:01.43	127.82	26.60	
2025-01-07 23:12:01.64	127.88	26.58	
2025-01-07 23:12:01.85	127.93	26.56	
2025-01-07 23:12:02.05	127.98	26.55	
2025-01-07 23:12:02.26	128.04	26.53	
2025-01-07 23:12:02.46	128.09	26.51	
2025-01-07 23:12:02.66	128.14	26.49	
2025-01-07 23:12:02.87	128.19	26.47	
2025-01-07 23:12:03.08	128.25	26.45	
2025-01-07 23:12:03.29	128.30	26.43	
2025-01-07 23:12:03.49	128.35	26.41	
2025-01-07 23:12:03.69	128.40	26.39	
2025-01-07 23:12:03.90	128.46	26.37	
2025-01-07 23:12:04.11	128.51	26.35	
2025-01-07 23:12:04.31	128.56	26.33	
2025-01-07 23:12:04.52	128.61	26.31	
2025-01-07 23:12:04.72	128.66	26.30	
2025-01-07 23:12:04.93	128.72	26.28	
2025-01-07 23:12:05.13	128.77	26.26	
2025-01-07 23:12:05.34	128.82	26.24	
2025-01-07 23:12:05.54	128.87	26.22	
2025-01-07 23:12:05.75	128.93	26.20	
2025-01-07 23:12:05.95	128.98	26.18	
2025-01-07 23:12:06.16	129.03	26.16	
2025-01-07 23:12:06.37	129.08	26.14	
2025-01-07 23:12:06.57	129.13	26.12	
2025-01-07 23:12:06.78	129.18	26.10	
2025-01-07 23:12:06.98	129.23	26.08	
2025-01-07 23:12:07.19	129.29	26.06	
2025-01-07 23:12:07.39	129.34	26.05	
2025-01-07 23:12:07.60	129.39	26.03	
2025-01-07 23:12:07.80	129.44	26.01	
2025-01-07 23:12:08.01	129.49	25.99	
2025-01-07 23:12:08.21	129.54	25.97	
2025-01-07 23:12:08.42	129.59	25.95	
2025-01-07 23:12:08.62	129.64	25.93	
2025-01-07 23:12:08.83	129.70	25.91	
2025-01-07 23:12:09.03	129.75	25.89	
2025-01-07 23:12:09.24	129.80	25.87	
2025-01-07 23:12:09.44	129.85	25.85	
2025-01-07 23:12:09.65	129.90	25.83	
2025-01-07 23:12:09.85	129.95	25.81	
2025-01-07 23:12:10.06	130.00	25.79	
2025-01-07 23:12:10.26	130.05	25.77	
2025-01-07 23:12:10.47	130.10	25.75	
2025-01-07 23:12:10.67	130.15	25.73	
2025-01-07 23:12:10.88	130.20	25.71	
2025-01-07 23:12:11.08	130.25	25.70	
2025-01-07 23:12:11.29	130.30	25.68	
2025-01-07 23:12:11.49	130.35	25.66	
2025-01-07 23:12:11.70	130.40	25.64	
2025-01-07 23:12:11.90	130.45	25.62	
2025-01-07 23:12:12.12	130.50	25.60	
2025-01-07 23:12:12.33	130.55	25.58	
2025-01-07 23:12:12.53	130.60	25.56	
2025-01-07 23:12:12.74	130.65	25.54	
2025-01-07 23:12:12.94	130.70	25.52	
2025-01-07 23:12:13.14	130.75	25.50	
2025-01-07 23:12:13.35	130.80	25.48	
2025-01-07 23:12:13.56	130.85	25.46	
2025-01-07 23:12:13.76	130.90	25.44	
2025-01-07 23:12:13.97	130.95	25.42	
2025-01-07 23:12:14.17	131.00	25.40	
2025-01-07 23:12:14.38	131.05	25.38	
2025-01-07 23:12:14.58	131.10	25.36	
2025-01-07 23:12:14.79	131.15	25.34	
2025-01-07 23:12:14.99	131.20	25.32	
2025-01-07 23:12:15.20	131.25	25.30	
2025-01-07 23:12:15.40	131.29	25.28	
2025-01-07 23:12:15.61	131.34	25.26	
2025-01-07 23:12:15.82	131.39	25.24	
2025-01-07 23:12:16.02	131.44	25.22	
2025-01-07 23:12:16.23	131.49	25.20	
2025-01-07 23:12:16.45	131.54	25.18	
2025-01-07 23:12:16.65	131.59	25.16	
2025-01-07 23:12:16.86	131.64	25.14	
2025-01-07 23:12:17.06	131.69	25.12	
2025-01-07 23:12:17.27	131.74	25.10	
2025-01-07 23:12:17.47	131.78	25.08	
2025-01-07 23:12:17.68	131.83	25.06	
2025-01-07 23:12:17.88	131.88	25.04	
2025-01-07 23:12:18.09	131.93	25.02	
2025-01-07 23:12:18.30	131.98	25.00	
2025-01-07 23:12:18.51	132.03	24.98	
2025-01-07 23:12:18.72	132.08	24.96	
2025-01-07 23:12:18.93	132.13	24.94	
2025-01-07 23:12:19.13	132.17	24.92	
2025-01-07 23:12:19.34	132.22	24.90	
2025-01-07 23:12:19.54	132.27	24.88	
2025-01-07 23:12:19.75	132.32	24.86	
2025-01-07 23:12:19.96	132.37	24.84	
2025-01-07 23:12:20.16	132.41	24.82	
2025-01-07 23:12:20.37	132.46	24.80	
2025-01-07 23:12:20.57	132.51	24.78	
2025-01-07 23:12:20.78	132.56	24.76	
2025-01-07 23:12:20.98	132.60	24.74	
2025-01-07 23:12:21.19	132.65	24.72	
2025-01-07 23:12:21.39	132.70	24.70	
2025-01-07 23:12:21.60	132.75	24.68	
2025-01-07 23:12:21.80	132.79	24.66	
2025-01-07 23:12:22.01	132.84	24.64	
2025-01-07 23:12:22.22	132.89	24.62	
2025-01-07 23:12:22.42	132.93	24.60	
2025-01-07 23:12:22.63	132.98	24.58	
2025-01-07 23:12:22.83	133.03	24.56	
2025-01-07 23:12:23.04	133.08	24.54	
2025-01-07 23:12:23.24	133.12	24.52	
2025-01-07 23:12:23.45	133.17	24.50	
2025-01-07 23:12:23.65	133.21	24.48	
2025-01-07 23:12:23.86	133.26	24.46	
2025-01-07 23:12:24.06	133.31	24.45	
2025-01-07 23:12:24.27	133.35	24.42	
2025-01-07 23:12:24.48	133.40	24.40	
2025-01-07 23:12:24.68	133.45	24.38	
2025-01-07 23:12:24.90	133.50	24.36	
2025-01-07 23:12:25.10	133.54	24.34	
2025-01-07 23:12:25.31	133.59	24.32	
2025-01-07 23:12:25.52	133.64	24.30	
2025-01-07 23:12:25.72	133.68	24.28	
2025-01-07 23:12:25.92	133.73	24.26	
2025-01-07 23:12:26.13	133.77	24.24	
2025-01-07 23:12:26.34	133.82	24.22	
2025-01-07 23:12:26.54	133.86	24.20	
2025-01-07 23:12:26.75	133.91	24.18	
2025-01-07 23:12:26.95	133.96	24.16	
2025-01-07 23:12:27.16	134.00	24.14	
2025-01-07 23:12:27.37	134.05	24.12	
2025-01-07 23:12:27.57	134.09	24.10	
2025-01-07 23:12:27.78	134.14	24.08	
2025-01-07 23:12:27.98	134.18	24.06	
2025-01-07 23:12:28.19	134.23	24.04	
2025-01-07 23:12:28.39	134.28	24.02	
2025-01-07 23:12:28.60	134.32	24.00	
2025-01-07 23:12:28.80	134.37	23.98	
2025-01-07 23:12:29.01	134.41	23.96	
2025-01-07 23:12:29.21	134.46	23.94	
2025-01-07 23:12:29.42	134.50	23.92	
2025-01-07 23:12:29.63	134.55	23.90	
2025-01-07 23:12:29.83	134.59	23.88	
2025-01-07 23:12:30.04	134.64	23.86	
2025-01-07 23:12:30.24	134.68	23.84	
2025-01-07 23:12:30.45	134.73	23.82	
2025-01-07 23:12:30.65	134.77	23.80	
2025-01-07 23:12:30.86	134.82	23.78	
2025-01-07 23:12:31.07	134.86	23.76	
2025-01-07 23:12:31.27	134.91	23.74	
2025-01-07 23:12:31.48	134.95	23.72	
2025-01-07 23:12:31.68	134.99	23.70	
2025-01-07 23:12:31.89	135.04	23.68	
2025-01-07 23:12:32.09	135.08	23.66	
2025-01-07 23:12:32.30	135.13	23.64	
2025-01-07 23:12:32.52	135.18	23.62	
2025-01-07 23:12:32.72	135.22	23.60	
2025-01-07 23:12:32.93	135.26	23.58	
2025-01-07 23:12:33.13	135.31	23.56	
2025-01-07 23:12:33.34	135.35	23.54	
2025-01-07 23:12:33.54	135.39	23.52	
2025-01-07 23:12:33.75	135.44	23.50	
2025-01-07 23:12:33.95	135.48	23.48	
2025-01-07 23:12:34.16	135.53	23.46	
2025-01-07 23:12:34.36	135.57	23.44	
2025-01-07 23:12:34.57	135.61	23.42	
2025-01-07 23:12:34.77	135.66	23.40	
2025-01-07 23:12:34.98	135.70	23.38	
2025-01-07 23:12:35.18	135.74	23.36	
2025-01-07 23:12:35.39	135.79	23.34	
2025-01-07 23:12:35.59	135.83	23.32	
2025-01-07 23:12:35.80	135.87	23.30	
2025-01-07 23:12:36.00	135.92	23.28	
2025-01-07 23:12:36.21	135.96	23.26	
2025-01-07 23:12:36.41	136.00	23.24	
2025-01-07 23:12:36.62	136.05	23.22	
2025-01-07 23:12:36.82	136.09	23.20	
2025-01-07 23:12:37.03	136.13	23.18	
2025-01-07 23:12:37.23	136.17	23.16	
2025-01-07 23:12:37.44	136.22	23.14	
2025-01-07 23:12:37.65	136.26	23.12	
2025-01-07 23:12:37.86	136.31	23.10	
2025-01-07 23:12:38.07	136.35	23.08	
2025-01-07 23:12:38.28	136.39	23.06	
2025-01-07 23:12:38.48	136.43	23.04	
2025-01-07 23:12:38.69	136.48	23.02	
2025-01-07 23:12:38.89	136.52	23.00	
2025-01-07 23:12:39.10	136.56	22.98	
2025-01-07 23:12:39.30	136.60	22.96	
2025-01-07 23:12:39.51	136.65	22.94	
2025-01-07 23:12:39.71	136.69	22.92	
2025-01-07 23:12:39.92	136.73	22.90	
2025-01-07 23:12:40.12	136.77	22.88	
2025-01-07 23:12:40.33	136.82	22.86	
2025-01-07 23:12:40.53	136.86	22.84	
2025-01-07 23:12:40.74	136.90	22.82	
2025-01-07 23:12:40.94	136.94	22.80	
2025-01-07 23:12:41.15	136.98	22.78	
2025-01-07 23:12:41.35	137.02	22.76	
2025-01-07 23:12:41.56	137.07	22.74	
2025-01-07 23:12:41.77	137.11	22.71	
2025-01-07 23:12:41.97	137.15	22.70	
2025-01-07 23:12:42.18	137.19	22.67	
2025-01-07 23:12:42.38	137.23	22.66	
2025-01-07 23:12:42.59	137.28	22.63	
2025-01-07 23:12:42.79	137.32	22.61	
2025-01-07 23:12:43.00	137.36	22.59	
2025-01-07 23:12:43.20	137.40	22.57	
2025-01-07 23:12:43.41	137.44	22.55	
2025-01-07 23:12:43.63	137.49	22.53	
2025-01-07 23:12:43.83	137.53	22.51	
2025-01-07 23:12:44.04	137.57	22.49	
2025-01-07 23:12:44.24	137.61	22.47	
2025-01-07 23:12:44.45	137.65	22.45	
2025-01-07 23:12:44.65	137.69	22.43	
2025-01-07 23:12:44.86	137.73	22.41	
2025-01-07 23:12:45.07	137.77	22.39	
2025-01-07 23:12:45.27	137.81	22.37	
2025-01-07 23:12:45.47	137.85	22.35	
2025-01-07 23:12:45.68	137.90	22.33	
2025-01-07 23:12:45.89	137.94	22.31	
2025-01-07 23:12:46.09	137.98	22.29	
2025-01-07 23:12:46.29	138.02	22.27	
2025-01-07 23:12:46.50	138.06	22.25	
2025-01-07 23:12:46.71	138.10	22.23	
2025-01-07 23:12:46.91	138.14	22.21	
2025-01-07 23:12:47.12	138.18	22.19	
2025-01-07 23:12:47.32	138.22	22.17	
2025-01-07 23:12:47.53	138.26	22.15	
2025-01-07 23:12:47.73	138.30	22.13	
2025-01-07 23:12:47.94	138.34	22.11	
2025-01-07 23:12:48.15	138.38	22.09	
2025-01-07 23:12:48.35	138.42	22.07	
2025-01-07 23:12:48.56	138.46	22.05	
2025-01-07 23:12:48.76	138.50	22.03	
2025-01-07 23:12:48.97	138.54	22.01	
2025-01-07 23:12:49.17	138.58	21.99	
2025-01-07 23:12:49.38	138.62	21.97	
2025-01-07 23:12:49.58	138.66	21.95	
2025-01-07 23:12:49.79	138.70	21.93	
2025-01-07 23:12:49.99	138.74	21.91	
2025-01-07 23:12:50.20	138.78	21.89	
2025-01-07 23:12:50.41	138.82	21.87	
2025-01-07 23:12:50.61	138.86	21.85	
2025-01-07 23:12:50.81	138.90	21.83	
2025-01-07 23:12:51.02	138.94	21.81	
2025-01-07 23:12:51.22	138.98	21.79	
2025-01-07 23:12:51.43	139.02	21.77	
2025-01-07 23:12:51.63	139.06	21.75	
2025-01-07 23:12:51.84	139.10	21.73	
2025-01-07 23:12:52.04	139.13	21.71	
2025-01-07 23:12:52.25	139.17	21.69	
2025-01-07 23:12:52.45	139.21	21.67	
2025-01-07 23:12:52.66	139.25	21.65	
2025-01-07 23:12:52.86	139.29	21.63	
2025-01-07 23:12:53.07	139.33	21.61	
2025-01-07 23:12:53.27	139.37	21.59	
2025-01-07 23:12:53.48	139.41	21.57	
2025-01-07 23:12:53.69	139.45	21.55	
2025-01-07 23:12:53.89	139.49	21.53	
2025-01-07 23:12:54.10	139.53	21.51	
2025-01-07 23:12:54.30	139.56	21.49	
2025-01-07 23:12:54.51	139.60	21.47	
2025-01-07 23:12:54.71	139.64	21.45	
2025-01-07 23:12:54.92	139.68	21.43	
2025-01-07 23:12:55.12	139.72	21.41	
2025-01-07 23:12:55.33	139.76	21.39	
2025-01-07 23:12:55.53	139.79	21.37	
2025-01-07 23:12:55.74	139.83	21.35	
2025-01-07 23:12:55.94	139.87	21.33	
2025-01-07 23:12:56.15	139.91	21.31	
2025-01-07 23:12:56.35	139.95	21.29	
2025-01-07 23:12:56.56	139.99	21.27	
2025-01-07 23:12:56.77	140.02	21.25	
2025-01-07 23:12:56.97	140.06	21.23	
2025-01-07 23:12:57.17	140.10	21.21	
2025-01-07 23:12:57.38	140.14	21.19	
2025-01-07 23:12:57.58	140.17	21.17	
2025-01-07 23:12:57.79	140.21	21.15	
2025-01-07 23:12:57.99	140.25	21.13	
2025-01-07 23:12:58.20	140.29	21.11	
2025-01-07 23:12:58.40	140.33	21.09	
2025-01-07 23:12:58.61	140.36	21.07	
2025-01-07 23:12:58.82	140.40	21.05	
2025-01-07 23:12:59.02	140.44	21.03	
2025-01-07 23:12:59.24	140.48	21.01	
2025-01-07 23:12:59.45	140.52	20.99	
2025-01-07 23:12:59.65	140.55	20.97	
2025-01-07 23:12:59.86	140.59	20.95	
2025-01-07 23:13:00.06	140.63	20.93	
2025-01-07 23:13:00.28	140.67	20.91	
2025-01-07 23:13:00.49	140.71	20.89	
2025-01-07 23:13:00.71	140.75	20.87	
2025-01-07 23:13:00.91	140.78	20.85	
2025-01-07 23:13:01.12	140.82	20.83	
2025-01-07 23:13:01.32	140.86	20.81	
2025-01-07 23:13:01.53	140.89	20.79	
2025-01-07 23:13:01.74	140.93	20.77	
2025-01-07 23:13:01.94	140.97	20.75	
2025-01-07 23:13:02.15	141.01	20.73	
2025-01-07 23:13:02.35	141.04	20.71	
2025-01-07 23:13:02.56	141.08	20.69	
2025-01-07 23:13:02.76	141.12	20.67	
2025-01-07 23:13:02.97	141.15	20.65	
2025-01-07 23:13:03.17	141.19	20.63	
2025-01-07 23:13:03.38	141.23	20.61	
2025-01-07 23:13:03.58	141.26	20.59	
2025-01-07 23:13:03.80	141.30	20.57	
2025-01-07 23:13:04.00	141.34	20.55	
2025-01-07 23:13:04.21	141.37	20.53	
2025-01-07 23:13:04.41	141.41	20.51	
2025-01-07 23:13:04.62	141.45	20.49	
2025-01-07 23:13:04.82	141.48	20.47	
2025-01-07 23:13:05.03	141.52	20.45	
2025-01-07 23:13:05.23	141.55	20.43	
2025-01-07 23:13:05.44	141.59	20.41	
2025-01-07 23:13:05.64	141.63	20.39	
2025-01-07 23:13:05.85	141.66	20.37	
2025-01-07 23:13:06.05	141.70	20.35	
2025-01-07 23:13:06.26	141.73	20.33	
2025-01-07 23:13:06.47	141.77	20.31	
2025-01-07 23:13:06.67	141.81	20.29	
2025-01-07 23:13:06.87	141.84	20.27	
2025-01-07 23:13:07.08	141.88	20.25	
2025-01-07 23:13:07.29	141.91	20.23	
2025-01-07 23:13:07.49	141.95	20.21	
2025-01-07 23:13:07.70	141.99	20.19	
2025-01-07 23:13:07.90	142.02	20.17	
2025-01-07 23:13:08.11	142.06	20.15	
2025-01-07 23:13:08.31	142.09	20.13	
2025-01-07 23:13:08.52	142.13	20.11	
2025-01-07 23:13:08.72	142.16	20.09	
2025-01-07 23:13:08.92	142.20	20.08	
2025-01-07 23:13:09.13	142.23	20.05	
2025-01-07 23:13:09.34	142.27	20.03	
2025-01-07 23:13:09.54	142.30	20.02	
2025-01-07 23:13:09.74	142.34	20.00	
2025-01-07 23:13:09.95	142.37	19.98	
2025-01-07 23:13:10.15	142.41	19.96	
2025-01-07 23:13:10.36	142.44	19.94	
2025-01-07 23:13:10.56	142.48	19.92	
2025-01-07 23:13:10.77	142.51	19.90	
2025-01-07 23:13:10.97	142.55	19.88	
2025-01-07 23:13:11.18	142.58	19.86	
2025-01-07 23:13:11.38	142.62	19.84	
2025-01-07 23:13:11.59	142.65	19.82	
2025-01-07 23:13:11.80	142.69	19.80	
2025-01-07 23:13:12.00	142.72	19.78	
2025-01-07 23:13:12.20	142.76	19.76	
2025-01-07 23:13:12.41	142.79	19.74	
2025-01-07 23:13:12.61	142.82	19.72	
2025-01-07 23:13:12.82	142.86	19.70	
2025-01-07 23:13:13.02	142.89	19.68	
2025-01-07 23:13:13.23	142.93	19.66	
2025-01-07 23:13:13.43	142.96	19.64	
2025-01-07 23:13:13.64	143.00	19.62	
2025-01-07 23:13:13.85	143.03	19.60	
2025-01-07 23:13:14.05	143.07	19.58	
2025-01-07 23:13:14.26	143.10	19.56	
2025-01-07 23:13:14.46	143.13	19.54	
2025-01-07 23:13:14.67	143.17	19.52	
2025-01-07 23:13:14.87	143.20	19.51	
2025-01-07 23:13:15.08	143.24	19.49	
2025-01-07 23:13:15.28	143.27	19.47	
2025-01-07 23:13:15.49	143.31	19.45	
2025-01-07 23:13:15.69	143.34	19.43	
2025-01-07 23:13:15.90	143.37	19.41	
2025-01-07 23:13:16.11	143.41	19.39	
2025-01-07 23:13:16.32	143.44	19.37	
2025-01-07 23:13:16.53	143.48	19.35	
2025-01-07 23:13:16.73	143.51	19.33	
2025-01-07 23:13:16.94	143.54	19.31	
2025-01-07 23:13:17.14	143.58	19.29	
2025-01-07 23:13:17.35	143.61	19.27	
2025-01-07 23:13:17.55	143.64	19.25	
2025-01-07 23:13:17.76	143.68	19.23	
2025-01-07 23:13:17.97	143.71	19.21	
2025-01-07 23:13:18.17	143.75	19.19	
2025-01-07 23:13:18.38	143.78	19.17	
2025-01-07 23:13:18.58	143.81	19.15	
2025-01-07 23:13:18.79	143.85	19.13	
2025-01-07 23:13:18.99	143.88	19.11	
2025-01-07 23:13:19.20	143.91	19.09	
2025-01-07 23:13:19.41	143.95	19.07	
2025-01-07 23:13:19.61	143.98	19.06	
2025-01-07 23:13:19.82	144.01	19.04	
2025-01-07 23:13:20.02	144.05	19.02	
2025-01-07 23:13:20.23	144.08	19.00	
2025-01-07 23:13:20.43	144.11	18.98	
2025-01-07 23:13:20.64	144.14	18.96	
2025-01-07 23:13:20.84	144.18	18.94	
2025-01-07 23:13:21.05	144.21	18.92	
2025-01-07 23:13:21.25	144.24	18.90	
2025-01-07 23:13:21.46	144.28	18.88	
2025-01-07 23:13:21.66	144.31	18.86	
2025-01-07 23:13:21.87	144.34	18.84	
2025-01-07 23:13:22.08	144.37	18.82	
2025-01-07 23:13:22.28	144.41	18.80	
2025-01-07 23:13:22.49	144.44	18.78	
2025-01-07 23:13:22.69	144.47	18.76	
2025-01-07 23:13:22.90	144.50	18.74	
2025-01-07 23:13:23.10	144.54	18.73	
2025-01-07 23:13:23.31	144.57	18.71	
2025-01-07 23:13:23.51	144.60	18.69	
2025-01-07 23:13:23.73	144.64	18.67	
2025-01-07 23:13:23.94	144.67	18.65	
2025-01-07 23:13:24.14	144.70	18.63	
2025-01-07 23:13:24.35	144.73	18.61	
2025-01-07 23:13:24.55	144.76	18.59	
2025-01-07 23:13:24.76	144.80	18.57	
2025-01-07 23:13:24.96	144.83	18.55	
2025-01-07 23:13:25.17	144.86	18.53	
2025-01-07 23:13:25.38	144.89	18.51	
2025-01-07 23:13:25.58	144.93	18.49	
2025-01-07 23:13:25.80	144.96	18.47	
2025-01-07 23:13:26.00	144.99	18.45	
2025-01-07 23:13:26.21	145.02	18.43	
2025-01-07 23:13:26.42	145.06	18.41	
2025-01-07 23:13:26.62	145.09	18.40	
2025-01-07 23:13:26.82	145.12	18.38	
2025-01-07 23:13:27.03	145.15	18.36	
2025-01-07 23:13:27.23	145.18	18.34	
2025-01-07 23:13:27.44	145.21	18.32	
2025-01-07 23:13:27.64	145.24	18.30	
2025-01-07 23:13:27.85	145.28	18.28	
2025-01-07 23:13:28.05	145.31	18.26	
2025-01-07 23:13:28.26	145.34	18.24	
2025-01-07 23:13:28.47	145.37	18.22	
2025-01-07 23:13:28.67	145.40	18.20	
2025-01-07 23:13:28.88	145.43	18.18	
2025-01-07 23:13:29.08	145.46	18.17	
2025-01-07 23:13:29.29	145.50	18.15	
2025-01-07 23:13:29.49	145.53	18.13	
2025-01-07 23:13:29.70	145.56	18.11	
2025-01-07 23:13:29.90	145.59	18.09	
2025-01-07 23:13:30.11	145.62	18.07	
2025-01-07 23:13:30.31	145.65	18.05	
2025-01-07 23:13:30.52	145.68	18.03	
2025-01-07 23:13:30.73	145.72	18.01	
2025-01-07 23:13:30.93	145.75	17.99	
2025-01-07 23:13:31.14	145.78	17.97	
2025-01-07 23:13:31.34	145.81	17.96	
2025-01-07 23:13:31.55	145.84	17.94	
2025-01-07 23:13:31.75	145.87	17.92	
2025-01-07 23:13:31.96	145.90	17.90	
2025-01-07 23:13:32.16	145.93	17.88	
2025-01-07 23:13:32.37	145.96	17.86	
2025-01-07 23:13:32.57	145.99	17.84	
2025-01-07 23:13:32.78	146.02	17.82	
2025-01-07 23:13:32.98	146.05	17.80	
2025-01-07 23:13:33.19	146.08	17.78	
2025-01-07 23:13:33.39	146.11	17.76	
2025-01-07 23:13:33.60	146.15	17.75	
2025-01-07 23:13:33.81	146.18	17.73	
2025-01-07 23:13:34.01	146.21	17.71	
2025-01-07 23:13:34.22	146.24	17.69	
2025-01-07 23:13:34.42	146.27	17.67	
2025-01-07 23:13:34.63	146.30	17.65	
2025-01-07 23:13:34.83	146.33	17.63	
2025-01-07 23:13:35.04	146.36	17.61	
2025-01-07 23:13:35.25	146.39	17.59	
2025-01-07 23:13:35.45	146.42	17.57	
2025-01-07 23:13:35.66	146.45	17.56	
2025-01-07 23:13:35.86	146.48	17.54	
2025-01-07 23:13:36.07	146.51	17.52	
2025-01-07 23:13:36.27	146.54	17.50	
2025-01-07 23:13:36.48	146.57	17.48	
2025-01-07 23:13:36.68	146.60	17.46	
2025-01-07 23:13:36.89	146.63	17.44	
2025-01-07 23:13:37.10	146.66	17.42	
2025-01-07 23:13:37.30	146.69	17.40	
2025-01-07 23:13:37.51	146.72	17.39	
2025-01-07 23:13:37.71	146.75	17.37	
2025-01-07 23:13:37.92	146.78	17.35	
2025-01-07 23:13:38.12	146.81	17.33	
2025-01-07 23:13:38.33	146.84	17.31	
2025-01-07 23:13:38.53	146.87	17.29	
2025-01-07 23:13:38.74	146.90	17.27	
2025-01-07 23:13:38.94	146.93	17.25	
2025-01-07 23:13:39.15	146.96	17.23	
2025-01-07 23:13:39.36	146.99	17.22	
2025-01-07 23:13:39.56	147.01	17.20	
2025-01-07 23:13:39.76	147.04	17.18	
2025-01-07 23:13:39.97	147.07	17.16	
2025-01-07 23:13:40.17	147.10	17.14	
2025-01-07 23:13:40.38	147.13	17.12	
2025-01-07 23:13:40.59	147.16	17.10	
2025-01-07 23:13:40.81	147.19	17.08	
2025-01-07 23:13:41.01	147.22	17.06	
2025-01-07 23:13:41.22	147.25	17.05	
2025-01-07 23:13:41.42	147.28	17.03	
2025-01-07 23:13:41.63	147.31	17.01	
2025-01-07 23:13:41.83	147.34	16.99	
2025-01-07 23:13:42.04	147.37	16.97	
2025-01-07 23:13:42.25	147.40	16.95	
2025-01-07 23:13:42.45	147.43	16.93	
2025-01-07 23:13:42.66	147.45	16.91	
2025-01-07 23:13:42.87	147.48	16.90	
2025-01-07 23:13:43.07	147.51	16.88	
2025-01-07 23:13:43.27	147.54	16.86	
2025-01-07 23:13:43.48	147.57	16.84	
2025-01-07 23:13:43.69	147.60	16.82	
2025-01-07 23:13:43.89	147.63	16.80	
2025-01-07 23:13:44.10	147.66	16.78	
2025-01-07 23:13:44.31	147.69	16.76	
2025-01-07 23:13:44.51	147.71	16.75	
2025-01-07 23:13:44.72	147.74	16.73	
2025-01-07 23:13:44.92	147.77	16.71	
2025-01-07 23:13:45.13	147.80	16.69	
2025-01-07 23:13:45.34	147.83	16.67	
2025-01-07 23:13:45.54	147.86	16.65	
2025-01-07 23:13:45.75	147.89	16.63	
2025-01-07 23:13:45.95	147.91	16.62	
2025-01-07 23:13:46.16	147.94	16.60	
2025-01-07 23:13:46.36	147.97	16.58	
2025-01-07 23:13:46.57	148.00	16.56	
2025-01-07 23:13:46.77	148.03	16.54	
2025-01-07 23:13:46.98	148.06	16.52	
2025-01-07 23:13:47.18	148.08	16.51	
2025-01-07 23:13:47.39	148.11	16.49	
2025-01-07 23:13:47.59	148.14	16.47	
2025-01-07 23:13:47.80	148.17	16.45	
2025-01-07 23:13:48.00	148.19	16.43	
2025-01-07 23:13:48.21	148.22	16.41	
2025-01-07 23:13:48.42	148.25	16.39	
2025-01-07 23:13:48.62	148.28	16.38	
2025-01-07 23:13:48.83	148.31	16.36	
2025-01-07 23:13:49.03	148.33	16.34	
2025-01-07 23:13:49.24	148.36	16.32	
2025-01-07 23:13:49.44	148.39	16.30	
2025-01-07 23:13:49.65	148.42	16.28	
2025-01-07 23:13:49.85	148.45	16.26	
2025-01-07 23:13:50.06	148.47	16.25	
2025-01-07 23:13:50.27	148.50	16.23	
2025-01-07 23:13:50.47	148.53	16.21	
2025-01-07 23:13:50.67	148.56	16.19	
2025-01-07 23:13:50.88	148.58	16.17	
2025-01-07 23:13:51.09	148.61	16.15	
2025-01-07 23:13:51.29	148.64	16.14	
2025-01-07 23:13:51.50	148.67	16.12	
2025-01-07 23:13:51.70	148.69	16.10	
2025-01-07 23:13:51.91	148.72	16.08	
2025-01-07 23:13:52.11	148.75	16.06	
2025-01-07 23:13:52.32	148.78	16.04	
2025-01-07 23:13:52.52	148.80	16.03	
2025-01-07 23:13:52.73	148.83	16.01	
2025-01-07 23:13:52.93	148.86	15.99	
2025-01-07 23:13:53.14	148.89	15.97	
2025-01-07 23:13:53.34	148.91	15.95	
2025-01-07 23:13:53.55	148.94	15.93	
2025-01-07 23:13:53.76	148.97	15.92	
2025-01-07 23:13:53.96	148.99	15.90	
2025-01-07 23:13:54.17	149.02	15.88	
2025-01-07 23:13:54.37	149.05	15.86	
2025-01-07 23:13:54.58	149.08	15.84	
2025-01-07 23:13:54.79	149.10	15.82	
2025-01-07 23:13:55.00	149.13	15.81	
2025-01-07 23:13:55.21	149.16	15.79	
2025-01-07 23:13:55.41	149.18	15.77	
2025-01-07 23:13:55.63	149.21	15.75	
2025-01-07 23:13:55.83	149.24	15.73	
2025-01-07 23:13:56.04	149.27	15.71	
2025-01-07 23:13:56.24	149.29	15.70	
2025-01-07 23:13:56.45	149.32	15.68	
2025-01-07 23:13:56.65	149.35	15.66	
2025-01-07 23:13:56.85	149.37	15.64	
2025-01-07 23:13:57.06	149.40	15.62	
2025-01-07 23:13:57.27	149.43	15.60	
2025-01-07 23:13:57.47	149.45	15.59	
2025-01-07 23:13:57.68	149.48	15.57	
2025-01-07 23:13:57.88	149.51	15.55	
2025-01-07 23:13:58.08	149.53	15.53	
2025-01-07 23:13:58.29	149.56	15.51	
2025-01-07 23:13:58.50	149.58	15.50	
2025-01-07 23:13:58.70	149.61	15.48	
2025-01-07 23:13:58.90	149.64	15.46	
2025-01-07 23:13:59.11	149.66	15.44	
2025-01-07 23:13:59.31	149.69	15.42	
2025-01-07 23:13:59.52	149.72	15.41	
2025-01-07 23:13:59.73	149.74	15.39	
2025-01-07 23:13:59.93	149.77	15.37	
2025-01-07 23:14:00.15	149.80	15.35	
2025-01-07 23:14:00.35	149.82	15.33	
2025-01-07 23:14:00.56	149.85	15.32	
2025-01-07 23:14:00.76	149.87	15.30	
2025-01-07 23:14:00.97	149.90	15.28	
2025-01-07 23:14:01.18	149.93	15.26	
2025-01-07 23:14:01.38	149.95	15.24	
2025-01-07 23:14:01.59	149.98	15.22	
2025-01-07 23:14:01.79	150.00	15.21	
2025-01-07 23:14:02.01	150.03	15.19	
2025-01-07 23:14:02.21	150.06	15.17	
2025-01-07 23:14:02.42	150.08	15.15	
2025-01-07 23:14:02.62	150.11	15.13	
2025-01-07 23:14:02.83	150.13	15.12	
