passes_logs/2025/01/07/SPB_Silybum_02/SPB_Silybum_02__20250107_013545_AQUA_rec.log

#Pass ID: 20250107_013545_AQUA
#Satellite: AQUA
#Configuration: AQUA
#Start time: 2025-01-07 01:35:45

#Version: 2.0.20230423
#Station: SPB_Silybum_02
#Location: 30.233357 lon 59.946436 lat
#TLE: 1 27424U 02022A   25006.18177887  .00003054  00000+0  63725-3 0  9992
#TLE: 2 27424  98.3578 322.7671 0001358 119.7965   7.4247 14.60646386206336

#Time	Az	El	Level	Level2	SNR	BER	Gain	Gain2
2025-01-07 01:35:47.82	15.91	4.18	
2025-01-07 01:35:48.02	15.90	4.20	
2025-01-07 01:35:48.23	15.90	4.21	
2025-01-07 01:35:48.44	15.90	4.23	
2025-01-07 01:35:48.64	15.90	4.24	
2025-01-07 01:35:48.85	15.89	4.26	
2025-01-07 01:35:49.05	15.89	4.27	
2025-01-07 01:35:49.27	15.89	4.29	
2025-01-07 01:35:49.48	15.89	4.30	
2025-01-07 01:35:49.68	15.88	4.32	
2025-01-07 01:35:49.89	15.88	4.33	
2025-01-07 01:35:50.09	15.88	4.35	
2025-01-07 01:35:50.30	15.88	4.36	
2025-01-07 01:35:50.50	15.87	4.38	
2025-01-07 01:35:50.71	15.87	4.39	
2025-01-07 01:35:50.91	15.87	4.40	
2025-01-07 01:35:51.12	15.87	4.42	
2025-01-07 01:35:51.32	15.87	4.43	
2025-01-07 01:35:51.53	15.86	4.45	
2025-01-07 01:35:51.74	15.86	4.47	
2025-01-07 01:35:51.94	15.86	4.48	
2025-01-07 01:35:52.15	15.86	4.49	
2025-01-07 01:35:52.37	15.85	4.51	
2025-01-07 01:35:52.57	15.85	4.53	
2025-01-07 01:35:52.78	15.85	4.54	
2025-01-07 01:35:52.98	15.85	4.56	
2025-01-07 01:35:53.19	15.84	4.57	
2025-01-07 01:35:53.39	15.84	4.59	
2025-01-07 01:35:53.60	15.84	4.60	
2025-01-07 01:35:53.80	15.84	4.62	
2025-01-07 01:35:54.01	15.83	4.63	
2025-01-07 01:35:54.21	15.83	4.65	
2025-01-07 01:35:54.42	15.83	4.66	
2025-01-07 01:35:54.62	15.83	4.68	
2025-01-07 01:35:54.83	15.82	4.69	
2025-01-07 01:35:55.03	15.82	4.71	
2025-01-07 01:35:55.24	15.82	4.72	
2025-01-07 01:35:55.45	15.82	4.74	
2025-01-07 01:35:55.65	15.81	4.75	
2025-01-07 01:35:55.85	15.81	4.77	
2025-01-07 01:35:56.06	15.81	4.78	
2025-01-07 01:35:56.27	15.81	4.80	
2025-01-07 01:35:56.47	15.80	4.81	
2025-01-07 01:35:56.67	15.80	4.83	
2025-01-07 01:35:56.88	15.80	4.84	
2025-01-07 01:35:57.09	15.80	4.86	
2025-01-07 01:35:57.29	15.79	4.87	
2025-01-07 01:35:57.50	15.79	4.89	
2025-01-07 01:35:57.70	15.79	4.90	
2025-01-07 01:35:57.90	15.79	4.92	
2025-01-07 01:35:58.11	15.78	4.93	
2025-01-07 01:35:58.31	15.78	4.95	
2025-01-07 01:35:58.52	15.78	4.96	
2025-01-07 01:35:58.72	15.78	4.98	
2025-01-07 01:35:58.92	15.77	4.99	
2025-01-07 01:35:59.13	15.77	5.01	
2025-01-07 01:35:59.34	15.77	5.02	
2025-01-07 01:35:59.54	15.77	5.04	
2025-01-07 01:35:59.74	15.76	5.05	
2025-01-07 01:35:59.95	15.76	5.07	
2025-01-07 01:36:00.15	15.76	5.08	
2025-01-07 01:36:00.36	15.76	5.10	
2025-01-07 01:36:00.56	15.75	5.11	
2025-01-07 01:36:00.77	15.75	5.13	
2025-01-07 01:36:00.97	15.75	5.14	
2025-01-07 01:36:01.18	15.74	5.16	
2025-01-07 01:36:01.38	15.74	5.18	
2025-01-07 01:36:01.59	15.74	5.19	
2025-01-07 01:36:01.79	15.74	5.21	
2025-01-07 01:36:02.00	15.73	5.22	
2025-01-07 01:36:02.20	15.73	5.24	
2025-01-07 01:36:02.41	15.73	5.25	
2025-01-07 01:36:02.61	15.73	5.27	
2025-01-07 01:36:02.82	15.72	5.28	
2025-01-07 01:36:03.02	15.72	5.30	
2025-01-07 01:36:03.23	15.72	5.31	
2025-01-07 01:36:03.43	15.72	5.33	
2025-01-07 01:36:03.64	15.71	5.35	
2025-01-07 01:36:03.84	15.71	5.36	
2025-01-07 01:36:04.05	15.71	5.38	
2025-01-07 01:36:04.25	15.71	5.39	
2025-01-07 01:36:04.46	15.70	5.41	
2025-01-07 01:36:04.67	15.70	5.42	
2025-01-07 01:36:04.87	15.70	5.44	
2025-01-07 01:36:05.08	15.69	5.45	
2025-01-07 01:36:05.28	15.69	5.47	
2025-01-07 01:36:05.49	15.69	5.48	
2025-01-07 01:36:05.69	15.69	5.50	
2025-01-07 01:36:05.90	15.68	5.52	
2025-01-07 01:36:06.11	15.68	5.53	
2025-01-07 01:36:06.31	15.68	5.55	
2025-01-07 01:36:06.51	15.68	5.56	
2025-01-07 01:36:06.72	15.67	5.58	
2025-01-07 01:36:06.92	15.67	5.59	
2025-01-07 01:36:07.13	15.67	5.61	
2025-01-07 01:36:07.34	15.67	5.63	
2025-01-07 01:36:07.54	15.66	5.64	
2025-01-07 01:36:07.74	15.66	5.66	
2025-01-07 01:36:07.95	15.66	5.67	
2025-01-07 01:36:08.16	15.65	5.69	
2025-01-07 01:36:08.36	15.65	5.70	
2025-01-07 01:36:08.57	15.65	5.72	
2025-01-07 01:36:08.77	15.65	5.73	
2025-01-07 01:36:08.98	15.64	5.75	
2025-01-07 01:36:09.18	15.64	5.77	
2025-01-07 01:36:09.39	15.64	5.78	
2025-01-07 01:36:09.61	15.63	5.80	
2025-01-07 01:36:09.81	15.63	5.81	
2025-01-07 01:36:10.02	15.63	5.83	
2025-01-07 01:36:10.22	15.63	5.85	
2025-01-07 01:36:10.43	15.62	5.86	
2025-01-07 01:36:10.63	15.62	5.88	
2025-01-07 01:36:10.84	15.62	5.89	
2025-01-07 01:36:11.04	15.62	5.91	
2025-01-07 01:36:11.25	15.61	5.93	
2025-01-07 01:36:11.46	15.61	5.94	
2025-01-07 01:36:11.66	15.61	5.96	
2025-01-07 01:36:11.87	15.60	5.97	
2025-01-07 01:36:12.07	15.60	5.99	
2025-01-07 01:36:12.28	15.60	6.00	
2025-01-07 01:36:12.49	15.60	6.02	
2025-01-07 01:36:12.69	15.59	6.04	
2025-01-07 01:36:12.89	15.59	6.05	
2025-01-07 01:36:13.10	15.59	6.07	
2025-01-07 01:36:13.30	15.58	6.08	
2025-01-07 01:36:13.51	15.58	6.10	
2025-01-07 01:36:13.71	15.58	6.12	
2025-01-07 01:36:13.92	15.58	6.13	
2025-01-07 01:36:14.13	15.57	6.15	
2025-01-07 01:36:14.33	15.57	6.16	
2025-01-07 01:36:14.54	15.57	6.18	
2025-01-07 01:36:14.74	15.56	6.20	
2025-01-07 01:36:14.96	15.56	6.21	
2025-01-07 01:36:15.17	15.56	6.23	
2025-01-07 01:36:15.37	15.56	6.25	
2025-01-07 01:36:15.58	15.55	6.26	
2025-01-07 01:36:15.78	15.55	6.28	
2025-01-07 01:36:15.99	15.55	6.29	
2025-01-07 01:36:16.19	15.54	6.31	
2025-01-07 01:36:16.40	15.54	6.33	
2025-01-07 01:36:16.60	15.54	6.34	
2025-01-07 01:36:16.81	15.54	6.36	
2025-01-07 01:36:17.01	15.53	6.37	
2025-01-07 01:36:17.22	15.53	6.39	
2025-01-07 01:36:17.43	15.53	6.41	
2025-01-07 01:36:17.63	15.52	6.42	
2025-01-07 01:36:17.83	15.52	6.44	
2025-01-07 01:36:18.04	15.52	6.46	
2025-01-07 01:36:18.25	15.51	6.47	
2025-01-07 01:36:18.45	15.51	6.49	
2025-01-07 01:36:18.66	15.51	6.50	
2025-01-07 01:36:18.86	15.51	6.52	
2025-01-07 01:36:19.07	15.50	6.54	
2025-01-07 01:36:19.27	15.50	6.55	
2025-01-07 01:36:19.48	15.50	6.57	
2025-01-07 01:36:19.69	15.49	6.59	
2025-01-07 01:36:19.89	15.49	6.60	
2025-01-07 01:36:20.10	15.49	6.62	
2025-01-07 01:36:20.30	15.48	6.63	
2025-01-07 01:36:20.51	15.48	6.65	
2025-01-07 01:36:20.71	15.48	6.67	
2025-01-07 01:36:20.92	15.48	6.68	
2025-01-07 01:36:21.12	15.47	6.70	
2025-01-07 01:36:21.33	15.47	6.72	
2025-01-07 01:36:21.53	15.47	6.73	
2025-01-07 01:36:21.74	15.46	6.75	
2025-01-07 01:36:21.94	15.46	6.76	
2025-01-07 01:36:22.15	15.46	6.78	
2025-01-07 01:36:22.35	15.45	6.80	
2025-01-07 01:36:22.56	15.45	6.81	
2025-01-07 01:36:22.76	15.45	6.83	
2025-01-07 01:36:22.97	15.45	6.85	
2025-01-07 01:36:23.17	15.44	6.86	
2025-01-07 01:36:23.38	15.44	6.88	
2025-01-07 01:36:23.58	15.44	6.90	
2025-01-07 01:36:23.79	15.43	6.91	
2025-01-07 01:36:23.99	15.43	6.93	
2025-01-07 01:36:24.20	15.43	6.95	
2025-01-07 01:36:24.41	15.42	6.96	
2025-01-07 01:36:24.62	15.42	6.98	
2025-01-07 01:36:24.82	15.42	7.00	
2025-01-07 01:36:25.03	15.41	7.01	
2025-01-07 01:36:25.23	15.41	7.03	
2025-01-07 01:36:25.44	15.41	7.05	
2025-01-07 01:36:25.64	15.40	7.06	
2025-01-07 01:36:25.85	15.40	7.08	
2025-01-07 01:36:26.05	15.40	7.10	
2025-01-07 01:36:26.26	15.40	7.11	
2025-01-07 01:36:26.46	15.39	7.13	
2025-01-07 01:36:26.67	15.39	7.15	
2025-01-07 01:36:26.87	15.39	7.16	
2025-01-07 01:36:27.08	15.38	7.18	
2025-01-07 01:36:27.28	15.38	7.20	
2025-01-07 01:36:27.49	15.38	7.21	
2025-01-07 01:36:27.69	15.37	7.23	
2025-01-07 01:36:27.90	15.37	7.25	
2025-01-07 01:36:28.11	15.37	7.26	
2025-01-07 01:36:28.31	15.36	7.28	
2025-01-07 01:36:28.52	15.36	7.30	
2025-01-07 01:36:28.72	15.36	7.31	
2025-01-07 01:36:28.92	15.35	7.33	
2025-01-07 01:36:29.13	15.35	7.35	
2025-01-07 01:36:29.34	15.35	7.36	
2025-01-07 01:36:29.54	15.34	7.38	
2025-01-07 01:36:29.75	15.34	7.40	
2025-01-07 01:36:29.95	15.34	7.41	
2025-01-07 01:36:30.16	15.33	7.43	
2025-01-07 01:36:30.36	15.33	7.45	
2025-01-07 01:36:30.57	15.33	7.47	
2025-01-07 01:36:30.78	15.33	7.48	
2025-01-07 01:36:30.98	15.32	7.50	
2025-01-07 01:36:31.19	15.32	7.52	
2025-01-07 01:36:31.39	15.32	7.53	
2025-01-07 01:36:31.60	15.31	7.55	
2025-01-07 01:36:31.80	15.31	7.57	
2025-01-07 01:36:32.00	15.31	7.58	
2025-01-07 01:36:32.21	15.30	7.60	
2025-01-07 01:36:32.42	15.30	7.62	
2025-01-07 01:36:32.62	15.30	7.64	
2025-01-07 01:36:32.83	15.29	7.65	
2025-01-07 01:36:33.03	15.29	7.67	
2025-01-07 01:36:33.24	15.29	7.69	
2025-01-07 01:36:33.44	15.28	7.70	
2025-01-07 01:36:33.65	15.28	7.72	
2025-01-07 01:36:33.85	15.28	7.74	
2025-01-07 01:36:34.05	15.27	7.75	
2025-01-07 01:36:34.26	15.27	7.77	
2025-01-07 01:36:34.47	15.27	7.79	
2025-01-07 01:36:34.67	15.26	7.81	
2025-01-07 01:36:34.88	15.26	7.82	
2025-01-07 01:36:35.08	15.26	7.84	
2025-01-07 01:36:35.29	15.25	7.86	
2025-01-07 01:36:35.49	15.25	7.87	
2025-01-07 01:36:35.69	15.25	7.89	
2025-01-07 01:36:35.90	15.24	7.91	
2025-01-07 01:36:36.11	15.24	7.93	
2025-01-07 01:36:36.31	15.24	7.94	
2025-01-07 01:36:36.52	15.23	7.96	
2025-01-07 01:36:36.72	15.23	7.98	
2025-01-07 01:36:36.93	15.23	8.00	
2025-01-07 01:36:37.13	15.22	8.01	
2025-01-07 01:36:37.35	15.22	8.03	
2025-01-07 01:36:37.56	15.21	8.05	
2025-01-07 01:36:37.76	15.21	8.07	
2025-01-07 01:36:37.97	15.21	8.08	
2025-01-07 01:36:38.17	15.20	8.10	
2025-01-07 01:36:38.38	15.20	8.12	
2025-01-07 01:36:38.58	15.20	8.14	
2025-01-07 01:36:38.79	15.19	8.15	
2025-01-07 01:36:38.99	15.19	8.17	
2025-01-07 01:36:39.20	15.19	8.19	
2025-01-07 01:36:39.40	15.18	8.21	
2025-01-07 01:36:39.61	15.18	8.22	
2025-01-07 01:36:39.82	15.18	8.24	
2025-01-07 01:36:40.02	15.17	8.26	
2025-01-07 01:36:40.23	15.17	8.28	
2025-01-07 01:36:40.43	15.17	8.29	
2025-01-07 01:36:40.63	15.16	8.31	
2025-01-07 01:36:40.84	15.16	8.33	
2025-01-07 01:36:41.05	15.16	8.35	
2025-01-07 01:36:41.25	15.15	8.36	
2025-01-07 01:36:41.46	15.15	8.38	
2025-01-07 01:36:41.66	15.15	8.40	
2025-01-07 01:36:41.87	15.14	8.42	
2025-01-07 01:36:42.08	15.14	8.43	
2025-01-07 01:36:42.28	15.13	8.45	
2025-01-07 01:36:42.49	15.13	8.47	
2025-01-07 01:36:42.71	15.13	8.49	
2025-01-07 01:36:42.91	15.12	8.51	
2025-01-07 01:36:43.12	15.12	8.52	
2025-01-07 01:36:43.32	15.12	8.54	
2025-01-07 01:36:43.53	15.11	8.56	
2025-01-07 01:36:43.73	15.11	8.58	
2025-01-07 01:36:43.94	15.11	8.59	
2025-01-07 01:36:44.15	15.10	8.61	
2025-01-07 01:36:44.35	15.10	8.63	
2025-01-07 01:36:44.56	15.09	8.65	
2025-01-07 01:36:44.78	15.09	8.67	
2025-01-07 01:36:44.98	15.09	8.69	
2025-01-07 01:36:45.19	15.08	8.70	
2025-01-07 01:36:45.39	15.08	8.72	
2025-01-07 01:36:45.60	15.08	8.74	
2025-01-07 01:36:45.80	15.07	8.76	
2025-01-07 01:36:46.01	15.07	8.77	
2025-01-07 01:36:46.21	15.07	8.79	
2025-01-07 01:36:46.42	15.06	8.81	
2025-01-07 01:36:46.62	15.06	8.83	
2025-01-07 01:36:46.83	15.05	8.85	
2025-01-07 01:36:47.04	15.05	8.86	
2025-01-07 01:36:47.24	15.05	8.88	
2025-01-07 01:36:47.45	15.04	8.90	
2025-01-07 01:36:47.65	15.04	8.92	
2025-01-07 01:36:47.86	15.04	8.94	
2025-01-07 01:36:48.06	15.03	8.95	
2025-01-07 01:36:48.27	15.03	8.97	
2025-01-07 01:36:48.47	15.02	8.99	
2025-01-07 01:36:48.68	15.02	9.01	
2025-01-07 01:36:48.88	15.02	9.03	
2025-01-07 01:36:49.09	15.01	9.05	
2025-01-07 01:36:49.29	15.01	9.06	
2025-01-07 01:36:49.50	15.01	9.08	
2025-01-07 01:36:49.70	15.00	9.10	
2025-01-07 01:36:49.91	15.00	9.12	
2025-01-07 01:36:50.11	14.99	9.14	
2025-01-07 01:36:50.32	14.99	9.15	
2025-01-07 01:36:50.52	14.99	9.17	
2025-01-07 01:36:50.73	14.98	9.19	
2025-01-07 01:36:50.94	14.98	9.21	
2025-01-07 01:36:51.14	14.98	9.23	
2025-01-07 01:36:51.34	14.97	9.24	
2025-01-07 01:36:51.55	14.97	9.26	
2025-01-07 01:36:51.75	14.96	9.28	
2025-01-07 01:36:51.95	14.96	9.30	
2025-01-07 01:36:52.16	14.96	9.32	
2025-01-07 01:36:52.36	14.95	9.34	
2025-01-07 01:36:52.57	14.95	9.35	
2025-01-07 01:36:52.78	14.94	9.37	
2025-01-07 01:36:52.98	14.94	9.39	
2025-01-07 01:36:53.18	14.94	9.41	
2025-01-07 01:36:53.40	14.93	9.43	
2025-01-07 01:36:53.61	14.93	9.45	
2025-01-07 01:36:53.81	14.92	9.47	
2025-01-07 01:36:54.02	14.92	9.48	
2025-01-07 01:36:54.23	14.92	9.50	
2025-01-07 01:36:54.43	14.91	9.52	
2025-01-07 01:36:54.63	14.91	9.54	
2025-01-07 01:36:54.84	14.91	9.56	
2025-01-07 01:36:55.04	14.90	9.58	
2025-01-07 01:36:55.25	14.90	9.60	
2025-01-07 01:36:55.45	14.89	9.61	
2025-01-07 01:36:55.66	14.89	9.63	
2025-01-07 01:36:55.87	14.89	9.65	
2025-01-07 01:36:56.07	14.88	9.67	
2025-01-07 01:36:56.27	14.88	9.69	
2025-01-07 01:36:56.48	14.87	9.71	
2025-01-07 01:36:56.68	14.87	9.73	
2025-01-07 01:36:56.89	14.87	9.74	
2025-01-07 01:36:57.10	14.86	9.76	
2025-01-07 01:36:57.30	14.86	9.78	
2025-01-07 01:36:57.50	14.85	9.80	
2025-01-07 01:36:57.71	14.85	9.82	
2025-01-07 01:36:57.91	14.85	9.84	
2025-01-07 01:36:58.12	14.84	9.86	
2025-01-07 01:36:58.33	14.84	9.88	
2025-01-07 01:36:58.53	14.83	9.89	
2025-01-07 01:36:58.75	14.83	9.91	
2025-01-07 01:36:58.96	14.82	9.93	
2025-01-07 01:36:59.16	14.82	9.95	
2025-01-07 01:36:59.37	14.82	9.97	
2025-01-07 01:36:59.57	14.81	9.99	
2025-01-07 01:36:59.78	14.81	10.01	
2025-01-07 01:36:59.98	14.80	10.03	
2025-01-07 01:37:00.18	14.80	10.05	
2025-01-07 01:37:00.39	14.80	10.07	
2025-01-07 01:37:00.59	14.79	10.08	
2025-01-07 01:37:00.80	14.79	10.10	
2025-01-07 01:37:01.00	14.78	10.12	
2025-01-07 01:37:01.21	14.78	10.14	
2025-01-07 01:37:01.41	14.78	10.16	
2025-01-07 01:37:01.62	14.77	10.18	
2025-01-07 01:37:01.82	14.77	10.20	
2025-01-07 01:37:02.02	14.76	10.22	
2025-01-07 01:37:02.23	14.76	10.24	
2025-01-07 01:37:02.44	14.75	10.26	
2025-01-07 01:37:02.64	14.75	10.27	
2025-01-07 01:37:02.85	14.75	10.29	
2025-01-07 01:37:03.06	14.74	10.31	
2025-01-07 01:37:03.27	14.74	10.33	
2025-01-07 01:37:03.48	14.73	10.35	
2025-01-07 01:37:03.68	14.73	10.37	
2025-01-07 01:37:03.89	14.72	10.39	
2025-01-07 01:37:04.09	14.72	10.41	
2025-01-07 01:37:04.30	14.72	10.43	
2025-01-07 01:37:04.50	14.71	10.45	
2025-01-07 01:37:04.71	14.71	10.47	
2025-01-07 01:37:04.91	14.70	10.49	
2025-01-07 01:37:05.11	14.70	10.51	
2025-01-07 01:37:05.32	14.70	10.53	
2025-01-07 01:37:05.53	14.69	10.55	
2025-01-07 01:37:05.73	14.69	10.56	
2025-01-07 01:37:05.94	14.68	10.58	
2025-01-07 01:37:06.14	14.68	10.60	
2025-01-07 01:37:06.35	14.67	10.62	
2025-01-07 01:37:06.55	14.67	10.64	
2025-01-07 01:37:06.76	14.66	10.66	
2025-01-07 01:37:06.96	14.66	10.68	
2025-01-07 01:37:07.16	14.66	10.70	
2025-01-07 01:37:07.37	14.65	10.72	
2025-01-07 01:37:07.57	14.65	10.74	
2025-01-07 01:37:07.78	14.64	10.76	
2025-01-07 01:37:07.99	14.64	10.78	
2025-01-07 01:37:08.19	14.63	10.80	
2025-01-07 01:37:08.39	14.63	10.82	
2025-01-07 01:37:08.60	14.63	10.84	
2025-01-07 01:37:08.81	14.62	10.86	
2025-01-07 01:37:09.01	14.62	10.88	
2025-01-07 01:37:09.21	14.61	10.90	
2025-01-07 01:37:09.42	14.61	10.92	
2025-01-07 01:37:09.62	14.60	10.94	
2025-01-07 01:37:09.83	14.60	10.96	
2025-01-07 01:37:10.03	14.59	10.97	
2025-01-07 01:37:10.24	14.59	11.00	
2025-01-07 01:37:10.44	14.59	11.01	
2025-01-07 01:37:10.65	14.58	11.03	
2025-01-07 01:37:10.86	14.58	11.05	
2025-01-07 01:37:11.06	14.57	11.07	
2025-01-07 01:37:11.26	14.57	11.09	
2025-01-07 01:37:11.47	14.56	11.11	
2025-01-07 01:37:11.67	14.56	11.13	
2025-01-07 01:37:11.88	14.55	11.15	
2025-01-07 01:37:12.08	14.55	11.17	
2025-01-07 01:37:12.29	14.55	11.19	
2025-01-07 01:37:12.49	14.54	11.21	
2025-01-07 01:37:12.70	14.54	11.23	
2025-01-07 01:37:12.90	14.53	11.25	
2025-01-07 01:37:13.11	14.53	11.27	
2025-01-07 01:37:13.31	14.52	11.29	
2025-01-07 01:37:13.52	14.52	11.31	
2025-01-07 01:37:13.72	14.51	11.33	
2025-01-07 01:37:13.93	14.51	11.35	
2025-01-07 01:37:14.13	14.50	11.37	
2025-01-07 01:37:14.34	14.50	11.39	
2025-01-07 01:37:14.54	14.49	11.41	
2025-01-07 01:37:14.74	14.49	11.43	
2025-01-07 01:37:14.95	14.49	11.45	
2025-01-07 01:37:15.15	14.48	11.47	
2025-01-07 01:37:15.36	14.48	11.49	
2025-01-07 01:37:15.57	14.47	11.51	
2025-01-07 01:37:15.77	14.47	11.53	
2025-01-07 01:37:15.98	14.46	11.55	
2025-01-07 01:37:16.18	14.46	11.57	
2025-01-07 01:37:16.39	14.45	11.60	
2025-01-07 01:37:16.59	14.45	11.62	
2025-01-07 01:37:16.79	14.44	11.64	
2025-01-07 01:37:17.00	14.44	11.66	
2025-01-07 01:37:17.21	14.43	11.68	
2025-01-07 01:37:17.41	14.43	11.70	
2025-01-07 01:37:17.62	14.42	11.72	
2025-01-07 01:37:17.83	14.42	11.74	
2025-01-07 01:37:18.04	14.41	11.76	
2025-01-07 01:37:18.25	14.41	11.78	
2025-01-07 01:37:18.45	14.40	11.80	
2025-01-07 01:37:18.66	14.40	11.82	
2025-01-07 01:37:18.86	14.40	11.84	
2025-01-07 01:37:19.07	14.39	11.86	
2025-01-07 01:37:19.27	14.39	11.88	
2025-01-07 01:37:19.48	14.38	11.90	
2025-01-07 01:37:19.69	14.38	11.92	
2025-01-07 01:37:19.89	14.37	11.94	
2025-01-07 01:37:20.09	14.37	11.96	
2025-01-07 01:37:20.30	14.36	11.99	
2025-01-07 01:37:20.51	14.36	12.01	
2025-01-07 01:37:20.71	14.35	12.03	
2025-01-07 01:37:20.92	14.35	12.05	
2025-01-07 01:37:21.12	14.34	12.07	
2025-01-07 01:37:21.33	14.34	12.09	
2025-01-07 01:37:21.53	14.33	12.11	
2025-01-07 01:37:21.74	14.33	12.13	
2025-01-07 01:37:21.94	14.32	12.15	
2025-01-07 01:37:22.15	14.32	12.17	
2025-01-07 01:37:22.35	14.31	12.19	
2025-01-07 01:37:22.56	14.31	12.21	
2025-01-07 01:37:22.76	14.30	12.23	
2025-01-07 01:37:22.97	14.30	12.26	
2025-01-07 01:37:23.17	14.29	12.28	
2025-01-07 01:37:23.38	14.29	12.30	
2025-01-07 01:37:23.58	14.28	12.32	
2025-01-07 01:37:23.79	14.28	12.34	
2025-01-07 01:37:24.00	14.27	12.36	
2025-01-07 01:37:24.20	14.27	12.38	
2025-01-07 01:37:24.40	14.26	12.40	
2025-01-07 01:37:24.61	14.26	12.42	
2025-01-07 01:37:24.82	14.25	12.45	
2025-01-07 01:37:25.02	14.25	12.47	
2025-01-07 01:37:25.22	14.24	12.49	
2025-01-07 01:37:25.43	14.24	12.51	
2025-01-07 01:37:25.63	14.23	12.53	
2025-01-07 01:37:25.84	14.23	12.55	
2025-01-07 01:37:26.04	14.22	12.57	
2025-01-07 01:37:26.25	14.22	12.59	
2025-01-07 01:37:26.47	14.21	12.62	
2025-01-07 01:37:26.67	14.21	12.64	
2025-01-07 01:37:26.88	14.20	12.66	
2025-01-07 01:37:27.08	14.20	12.68	
2025-01-07 01:37:27.29	14.19	12.70	
2025-01-07 01:37:27.49	14.19	12.72	
2025-01-07 01:37:27.70	14.18	12.74	
2025-01-07 01:37:27.90	14.17	12.76	
2025-01-07 01:37:28.11	14.17	12.79	
2025-01-07 01:37:28.32	14.16	12.81	
2025-01-07 01:37:28.52	14.16	12.83	
2025-01-07 01:37:28.73	14.15	12.85	
2025-01-07 01:37:28.93	14.15	12.87	
2025-01-07 01:37:29.14	14.14	12.89	
2025-01-07 01:37:29.34	14.14	12.91	
2025-01-07 01:37:29.55	14.13	12.94	
2025-01-07 01:37:29.75	14.13	12.96	
2025-01-07 01:37:29.96	14.12	12.98	
2025-01-07 01:37:30.16	14.12	13.00	
2025-01-07 01:37:30.37	14.11	13.02	
2025-01-07 01:37:30.57	14.11	13.04	
2025-01-07 01:37:30.78	14.10	13.07	
2025-01-07 01:37:30.98	14.10	13.09	
2025-01-07 01:37:31.19	14.09	13.11	
2025-01-07 01:37:31.40	14.08	13.13	
2025-01-07 01:37:31.60	14.08	13.15	
2025-01-07 01:37:31.80	14.07	13.17	
2025-01-07 01:37:32.01	14.07	13.20	
2025-01-07 01:37:32.22	14.06	13.22	
2025-01-07 01:37:32.42	14.06	13.24	
2025-01-07 01:37:32.63	14.05	13.26	
2025-01-07 01:37:32.83	14.05	13.28	
2025-01-07 01:37:33.04	14.04	13.31	
2025-01-07 01:37:33.24	14.04	13.33	
2025-01-07 01:37:33.45	14.03	13.35	
2025-01-07 01:37:33.65	14.03	13.37	
2025-01-07 01:37:33.87	14.02	13.40	
2025-01-07 01:37:34.07	14.01	13.42	
2025-01-07 01:37:34.28	14.01	13.44	
2025-01-07 01:37:34.48	14.00	13.46	
2025-01-07 01:37:34.69	14.00	13.48	
2025-01-07 01:37:34.89	13.99	13.51	
2025-01-07 01:37:35.10	13.99	13.53	
2025-01-07 01:37:35.30	13.98	13.55	
2025-01-07 01:37:35.51	13.98	13.57	
2025-01-07 01:37:35.72	13.97	13.59	
2025-01-07 01:37:35.92	13.96	13.62	
2025-01-07 01:37:36.13	13.96	13.64	
2025-01-07 01:37:36.33	13.95	13.66	
2025-01-07 01:37:36.54	13.95	13.68	
2025-01-07 01:37:36.74	13.94	13.71	
2025-01-07 01:37:36.94	13.94	13.73	
2025-01-07 01:37:37.15	13.93	13.75	
2025-01-07 01:37:37.35	13.92	13.77	
2025-01-07 01:37:37.56	13.92	13.79	
2025-01-07 01:37:37.77	13.91	13.82	
2025-01-07 01:37:37.97	13.91	13.84	
2025-01-07 01:37:38.18	13.90	13.86	
2025-01-07 01:37:38.38	13.90	13.88	
2025-01-07 01:37:38.59	13.89	13.91	
2025-01-07 01:37:38.79	13.89	13.93	
2025-01-07 01:37:39.00	13.88	13.95	
2025-01-07 01:37:39.20	13.87	13.97	
2025-01-07 01:37:39.41	13.87	14.00	
2025-01-07 01:37:39.61	13.86	14.02	
2025-01-07 01:37:39.82	13.86	14.04	
2025-01-07 01:37:40.02	13.85	14.07	
2025-01-07 01:37:40.24	13.84	14.09	
2025-01-07 01:37:40.45	13.84	14.11	
2025-01-07 01:37:40.65	13.83	14.14	
2025-01-07 01:37:40.86	13.83	14.16	
2025-01-07 01:37:41.07	13.82	14.18	
2025-01-07 01:37:41.27	13.81	14.20	
2025-01-07 01:37:41.48	13.81	14.23	
2025-01-07 01:37:41.68	13.80	14.25	
2025-01-07 01:37:41.89	13.80	14.27	
2025-01-07 01:37:42.09	13.79	14.30	
2025-01-07 01:37:42.29	13.79	14.32	
2025-01-07 01:37:42.50	13.78	14.34	
2025-01-07 01:37:42.70	13.77	14.36	
2025-01-07 01:37:42.91	13.77	14.39	
2025-01-07 01:37:43.12	13.76	14.41	
2025-01-07 01:37:43.32	13.76	14.43	
2025-01-07 01:37:43.53	13.75	14.46	
2025-01-07 01:37:43.73	13.74	14.48	
2025-01-07 01:37:43.94	13.74	14.50	
2025-01-07 01:37:44.14	13.73	14.53	
2025-01-07 01:37:44.35	13.73	14.55	
2025-01-07 01:37:44.57	13.72	14.57	
2025-01-07 01:37:44.77	13.71	14.60	
2025-01-07 01:37:44.98	13.71	14.62	
2025-01-07 01:37:45.19	13.70	14.64	
2025-01-07 01:37:45.39	13.69	14.67	
2025-01-07 01:37:45.61	13.69	14.69	
2025-01-07 01:37:45.82	13.68	14.72	
2025-01-07 01:37:46.02	13.68	14.74	
2025-01-07 01:37:46.23	13.67	14.76	
2025-01-07 01:37:46.43	13.66	14.79	
2025-01-07 01:37:46.63	13.66	14.81	
2025-01-07 01:37:46.84	13.65	14.83	
2025-01-07 01:37:47.04	13.65	14.86	
2025-01-07 01:37:47.25	13.64	14.88	
2025-01-07 01:37:47.45	13.63	14.90	
2025-01-07 01:37:47.66	13.63	14.93	
2025-01-07 01:37:47.87	13.62	14.95	
2025-01-07 01:37:48.07	13.61	14.97	
2025-01-07 01:37:48.28	13.61	15.00	
2025-01-07 01:37:48.48	13.60	15.02	
2025-01-07 01:37:48.69	13.60	15.04	
2025-01-07 01:37:48.89	13.59	15.07	
2025-01-07 01:37:49.10	13.58	15.09	
2025-01-07 01:37:49.30	13.58	15.12	
2025-01-07 01:37:49.51	13.57	15.14	
2025-01-07 01:37:49.71	13.56	15.16	
2025-01-07 01:37:49.92	13.56	15.19	
2025-01-07 01:37:50.12	13.55	15.21	
2025-01-07 01:37:50.33	13.54	15.24	
2025-01-07 01:37:50.54	13.54	15.26	
2025-01-07 01:37:50.74	13.53	15.28	
2025-01-07 01:37:50.95	13.53	15.31	
2025-01-07 01:37:51.15	13.52	15.33	
2025-01-07 01:37:51.36	13.51	15.36	
2025-01-07 01:37:51.56	13.51	15.38	
2025-01-07 01:37:51.77	13.50	15.40	
2025-01-07 01:37:51.97	13.49	15.43	
2025-01-07 01:37:52.18	13.49	15.45	
2025-01-07 01:37:52.38	13.48	15.48	
2025-01-07 01:37:52.59	13.47	15.50	
2025-01-07 01:37:52.79	13.47	15.52	
2025-01-07 01:37:53.00	13.46	15.55	
2025-01-07 01:37:53.20	13.45	15.57	
2025-01-07 01:37:53.41	13.45	15.60	
2025-01-07 01:37:53.61	13.44	15.62	
2025-01-07 01:37:53.82	13.43	15.65	
2025-01-07 01:37:54.02	13.43	15.67	
2025-01-07 01:37:54.23	13.42	15.69	
2025-01-07 01:37:54.43	13.42	15.72	
2025-01-07 01:37:54.64	13.41	15.74	
2025-01-07 01:37:54.85	13.40	15.77	
2025-01-07 01:37:55.05	13.39	15.79	
2025-01-07 01:37:55.25	13.39	15.82	
2025-01-07 01:37:55.46	13.38	15.84	
2025-01-07 01:37:55.67	13.37	15.87	
2025-01-07 01:37:55.87	13.37	15.89	
2025-01-07 01:37:56.08	13.36	15.92	
2025-01-07 01:37:56.28	13.35	15.94	
2025-01-07 01:37:56.49	13.35	15.96	
2025-01-07 01:37:56.69	13.34	15.99	
2025-01-07 01:37:56.90	13.33	16.01	
2025-01-07 01:37:57.10	13.33	16.04	
2025-01-07 01:37:57.31	13.32	16.06	
2025-01-07 01:37:57.51	13.31	16.09	
2025-01-07 01:37:57.72	13.31	16.11	
2025-01-07 01:37:57.92	13.30	16.14	
2025-01-07 01:37:58.13	13.29	16.16	
2025-01-07 01:37:58.33	13.29	16.19	
2025-01-07 01:37:58.54	13.28	16.21	
2025-01-07 01:37:58.74	13.27	16.24	
2025-01-07 01:37:58.95	13.27	16.26	
2025-01-07 01:37:59.15	13.26	16.29	
2025-01-07 01:37:59.35	13.25	16.31	
2025-01-07 01:37:59.56	13.25	16.34	
2025-01-07 01:37:59.77	13.24	16.36	
2025-01-07 01:37:59.97	13.23	16.39	
2025-01-07 01:38:00.17	13.22	16.41	
2025-01-07 01:38:00.38	13.22	16.44	
2025-01-07 01:38:00.58	13.21	16.46	
2025-01-07 01:38:00.79	13.20	16.49	
2025-01-07 01:38:01.00	13.20	16.51	
2025-01-07 01:38:01.20	13.19	16.54	
2025-01-07 01:38:01.41	13.18	16.56	
2025-01-07 01:38:01.61	13.18	16.59	
2025-01-07 01:38:01.81	13.17	16.61	
2025-01-07 01:38:02.02	13.16	16.64	
2025-01-07 01:38:02.23	13.15	16.67	
2025-01-07 01:38:02.43	13.15	16.69	
2025-01-07 01:38:02.64	13.14	16.72	
2025-01-07 01:38:02.84	13.13	16.74	
2025-01-07 01:38:03.05	13.12	16.77	
2025-01-07 01:38:03.25	13.12	16.79	
2025-01-07 01:38:03.46	13.11	16.82	
2025-01-07 01:38:03.66	13.10	16.84	
2025-01-07 01:38:03.86	13.10	16.87	
2025-01-07 01:38:04.07	13.09	16.90	
2025-01-07 01:38:04.27	13.08	16.92	
2025-01-07 01:38:04.48	13.07	16.95	
2025-01-07 01:38:04.68	13.07	16.97	
2025-01-07 01:38:04.89	13.06	17.00	
2025-01-07 01:38:05.09	13.05	17.02	
2025-01-07 01:38:05.30	13.05	17.05	
2025-01-07 01:38:05.50	13.04	17.08	
2025-01-07 01:38:05.71	13.03	17.10	
2025-01-07 01:38:05.91	13.02	17.13	
2025-01-07 01:38:06.12	13.02	17.15	
2025-01-07 01:38:06.32	13.01	17.18	
2025-01-07 01:38:06.53	13.00	17.21	
2025-01-07 01:38:06.73	12.99	17.23	
2025-01-07 01:38:06.94	12.99	17.26	
2025-01-07 01:38:07.14	12.98	17.28	
2025-01-07 01:38:07.35	12.97	17.31	
2025-01-07 01:38:07.55	12.96	17.34	
2025-01-07 01:38:07.76	12.96	17.36	
2025-01-07 01:38:07.96	12.95	17.39	
2025-01-07 01:38:08.17	12.94	17.42	
2025-01-07 01:38:08.37	12.93	17.44	
2025-01-07 01:38:08.58	12.93	17.47	
2025-01-07 01:38:08.79	12.92	17.50	
2025-01-07 01:38:08.99	12.91	17.52	
2025-01-07 01:38:09.20	12.90	17.55	
2025-01-07 01:38:09.40	12.89	17.57	
2025-01-07 01:38:09.61	12.89	17.60	
2025-01-07 01:38:09.81	12.88	17.63	
2025-01-07 01:38:10.02	12.87	17.65	
2025-01-07 01:38:10.22	12.86	17.68	
2025-01-07 01:38:10.42	12.86	17.71	
2025-01-07 01:38:10.63	12.85	17.73	
2025-01-07 01:38:10.83	12.84	17.76	
2025-01-07 01:38:11.04	12.83	17.79	
2025-01-07 01:38:11.26	12.82	17.82	
2025-01-07 01:38:11.46	12.82	17.84	
2025-01-07 01:38:11.67	12.81	17.87	
2025-01-07 01:38:11.87	12.80	17.90	
2025-01-07 01:38:12.07	12.79	17.92	
2025-01-07 01:38:12.28	12.79	17.95	
2025-01-07 01:38:12.48	12.78	17.98	
2025-01-07 01:38:12.69	12.77	18.00	
2025-01-07 01:38:12.89	12.76	18.03	
2025-01-07 01:38:13.10	12.75	18.06	
2025-01-07 01:38:13.30	12.75	18.08	
2025-01-07 01:38:13.51	12.74	18.11	
2025-01-07 01:38:13.71	12.73	18.14	
2025-01-07 01:38:13.92	12.72	18.17	
2025-01-07 01:38:14.13	12.71	18.19	
2025-01-07 01:38:14.33	12.71	18.22	
2025-01-07 01:38:14.53	12.70	18.25	
2025-01-07 01:38:14.74	12.69	18.27	
2025-01-07 01:38:14.95	12.68	18.30	
2025-01-07 01:38:15.15	12.67	18.33	
2025-01-07 01:38:15.36	12.67	18.36	
2025-01-07 01:38:15.56	12.66	18.38	
2025-01-07 01:38:15.77	12.65	18.41	
2025-01-07 01:38:15.97	12.64	18.44	
2025-01-07 01:38:16.18	12.63	18.47	
2025-01-07 01:38:16.38	12.62	18.49	
2025-01-07 01:38:16.59	12.62	18.52	
2025-01-07 01:38:16.79	12.61	18.55	
2025-01-07 01:38:17.00	12.60	18.58	
2025-01-07 01:38:17.20	12.59	18.61	
2025-01-07 01:38:17.41	12.58	18.63	
2025-01-07 01:38:17.61	12.58	18.66	
2025-01-07 01:38:17.82	12.57	18.69	
2025-01-07 01:38:18.02	12.56	18.72	
2025-01-07 01:38:18.23	12.55	18.74	
2025-01-07 01:38:18.44	12.54	18.77	
2025-01-07 01:38:18.65	12.53	18.80	
2025-01-07 01:38:18.85	12.52	18.83	
2025-01-07 01:38:19.06	12.52	18.86	
2025-01-07 01:38:19.26	12.51	18.89	
2025-01-07 01:38:19.47	12.50	18.91	
2025-01-07 01:38:19.67	12.49	18.94	
2025-01-07 01:38:19.88	12.48	18.97	
2025-01-07 01:38:20.08	12.47	19.00	
2025-01-07 01:38:20.29	12.46	19.03	
2025-01-07 01:38:20.49	12.46	19.05	
2025-01-07 01:38:20.70	12.45	19.08	
2025-01-07 01:38:20.90	12.44	19.11	
2025-01-07 01:38:21.11	12.43	19.14	
2025-01-07 01:38:21.32	12.42	19.17	
2025-01-07 01:38:21.52	12.41	19.20	
2025-01-07 01:38:21.73	12.40	19.23	
2025-01-07 01:38:21.93	12.40	19.25	
2025-01-07 01:38:22.14	12.39	19.28	
2025-01-07 01:38:22.34	12.38	19.31	
2025-01-07 01:38:22.55	12.37	19.34	
2025-01-07 01:38:22.75	12.36	19.37	
2025-01-07 01:38:22.96	12.35	19.40	
2025-01-07 01:38:23.16	12.34	19.43	
2025-01-07 01:38:23.37	12.33	19.45	
2025-01-07 01:38:23.58	12.32	19.48	
2025-01-07 01:38:23.78	12.32	19.51	
2025-01-07 01:38:23.98	12.31	19.54	
2025-01-07 01:38:24.19	12.30	19.57	
2025-01-07 01:38:24.39	12.29	19.60	
2025-01-07 01:38:24.60	12.28	19.63	
2025-01-07 01:38:24.80	12.27	19.66	
2025-01-07 01:38:25.00	12.26	19.68	
2025-01-07 01:38:25.21	12.25	19.71	
2025-01-07 01:38:25.42	12.24	19.74	
2025-01-07 01:38:25.62	12.24	19.77	
2025-01-07 01:38:25.83	12.23	19.80	
2025-01-07 01:38:26.03	12.22	19.83	
2025-01-07 01:38:26.24	12.21	19.86	
2025-01-07 01:38:26.44	12.20	19.89	
2025-01-07 01:38:26.65	12.19	19.92	
2025-01-07 01:38:26.85	12.18	19.95	
2025-01-07 01:38:27.06	12.17	19.98	
2025-01-07 01:38:27.26	12.16	20.01	
2025-01-07 01:38:27.47	12.15	20.04	
2025-01-07 01:38:27.67	12.14	20.07	
2025-01-07 01:38:27.88	12.13	20.10	
2025-01-07 01:38:28.09	12.13	20.13	
2025-01-07 01:38:28.29	12.12	20.16	
2025-01-07 01:38:28.50	12.11	20.19	
2025-01-07 01:38:28.70	12.10	20.21	
2025-01-07 01:38:28.91	12.09	20.25	
2025-01-07 01:38:29.11	12.08	20.27	
2025-01-07 01:38:29.32	12.07	20.30	
2025-01-07 01:38:29.52	12.06	20.33	
2025-01-07 01:38:29.72	12.05	20.36	
2025-01-07 01:38:29.93	12.04	20.39	
2025-01-07 01:38:30.14	12.03	20.42	
2025-01-07 01:38:30.34	12.02	20.45	
2025-01-07 01:38:30.54	12.01	20.48	
2025-01-07 01:38:30.75	12.00	20.51	
2025-01-07 01:38:30.95	11.99	20.54	
2025-01-07 01:38:31.16	11.98	20.57	
2025-01-07 01:38:31.36	11.97	20.60	
2025-01-07 01:38:31.57	11.96	20.63	
2025-01-07 01:38:31.77	11.95	20.66	
2025-01-07 01:38:31.98	11.95	20.70	
2025-01-07 01:38:32.18	11.94	20.72	
2025-01-07 01:38:32.39	11.93	20.76	
2025-01-07 01:38:32.59	11.92	20.79	
2025-01-07 01:38:32.80	11.91	20.82	
2025-01-07 01:38:33.00	11.90	20.85	
2025-01-07 01:38:33.21	11.89	20.88	
2025-01-07 01:38:33.42	11.88	20.91	
2025-01-07 01:38:33.63	11.87	20.94	
2025-01-07 01:38:33.84	11.86	20.97	
2025-01-07 01:38:34.05	11.85	21.00	
2025-01-07 01:38:34.25	11.84	21.03	
2025-01-07 01:38:34.46	11.83	21.07	
2025-01-07 01:38:34.68	11.82	21.10	
2025-01-07 01:38:34.88	11.81	21.13	
2025-01-07 01:38:35.09	11.80	21.16	
2025-01-07 01:38:35.29	11.79	21.19	
2025-01-07 01:38:35.50	11.78	21.22	
2025-01-07 01:38:35.70	11.77	21.25	
2025-01-07 01:38:35.91	11.76	21.28	
2025-01-07 01:38:36.12	11.74	21.32	
2025-01-07 01:38:36.32	11.73	21.35	
2025-01-07 01:38:36.53	11.72	21.38	
2025-01-07 01:38:36.73	11.71	21.41	
2025-01-07 01:38:36.94	11.70	21.44	
2025-01-07 01:38:37.14	11.69	21.47	
2025-01-07 01:38:37.35	11.68	21.50	
2025-01-07 01:38:37.56	11.67	21.54	
2025-01-07 01:38:37.76	11.66	21.57	
2025-01-07 01:38:37.96	11.65	21.60	
2025-01-07 01:38:38.17	11.64	21.63	
2025-01-07 01:38:38.37	11.63	21.66	
2025-01-07 01:38:38.58	11.62	21.69	
2025-01-07 01:38:38.79	11.61	21.72	
2025-01-07 01:38:39.00	11.60	21.76	
2025-01-07 01:38:39.21	11.59	21.79	
2025-01-07 01:38:39.42	11.58	21.82	
2025-01-07 01:38:39.62	11.57	21.85	
2025-01-07 01:38:39.82	11.56	21.88	
2025-01-07 01:38:40.03	11.55	21.92	
2025-01-07 01:38:40.23	11.54	21.95	
2025-01-07 01:38:40.44	11.53	21.98	
2025-01-07 01:38:40.64	11.52	22.01	
2025-01-07 01:38:40.85	11.50	22.05	
2025-01-07 01:38:41.05	11.49	22.08	
2025-01-07 01:38:41.26	11.48	22.11	
2025-01-07 01:38:41.46	11.47	22.14	
2025-01-07 01:38:41.67	11.46	22.17	
2025-01-07 01:38:41.87	11.45	22.21	
2025-01-07 01:38:42.08	11.44	22.24	
2025-01-07 01:38:42.28	11.43	22.27	
2025-01-07 01:38:42.49	11.42	22.30	
2025-01-07 01:38:42.70	11.41	22.34	
2025-01-07 01:38:42.90	11.40	22.37	
2025-01-07 01:38:43.11	11.38	22.40	
2025-01-07 01:38:43.31	11.37	22.43	
2025-01-07 01:38:43.52	11.36	22.47	
2025-01-07 01:38:43.72	11.35	22.50	
2025-01-07 01:38:43.93	11.34	22.53	
2025-01-07 01:38:44.13	11.33	22.56	
2025-01-07 01:38:44.34	11.32	22.60	
2025-01-07 01:38:44.54	11.31	22.63	
2025-01-07 01:38:44.75	11.30	22.66	
2025-01-07 01:38:44.95	11.29	22.70	
2025-01-07 01:38:45.16	11.27	22.73	
2025-01-07 01:38:45.36	11.26	22.76	
2025-01-07 01:38:45.57	11.25	22.80	
2025-01-07 01:38:45.77	11.24	22.83	
2025-01-07 01:38:45.98	11.23	22.86	
2025-01-07 01:38:46.19	11.22	22.90	
2025-01-07 01:38:46.39	11.21	22.93	
2025-01-07 01:38:46.59	11.19	22.96	
2025-01-07 01:38:46.80	11.18	23.00	
2025-01-07 01:38:47.01	11.17	23.03	
2025-01-07 01:38:47.21	11.16	23.06	
2025-01-07 01:38:47.42	11.15	23.10	
2025-01-07 01:38:47.62	11.14	23.13	
2025-01-07 01:38:47.83	11.12	23.16	
2025-01-07 01:38:48.03	11.11	23.20	
2025-01-07 01:38:48.24	11.10	23.23	
2025-01-07 01:38:48.44	11.09	23.26	
2025-01-07 01:38:48.65	11.08	23.30	
2025-01-07 01:38:48.85	11.07	23.33	
2025-01-07 01:38:49.06	11.05	23.37	
2025-01-07 01:38:49.27	11.04	23.40	
2025-01-07 01:38:49.47	11.03	23.43	
2025-01-07 01:38:49.68	11.02	23.47	
2025-01-07 01:38:49.88	11.01	23.50	
2025-01-07 01:38:50.09	11.00	23.54	
2025-01-07 01:38:50.30	10.98	23.57	
2025-01-07 01:38:50.50	10.97	23.61	
2025-01-07 01:38:50.71	10.96	23.64	
2025-01-07 01:38:50.91	10.95	23.67	
2025-01-07 01:38:51.11	10.94	23.71	
2025-01-07 01:38:51.32	10.92	23.74	
2025-01-07 01:38:51.53	10.91	23.78	
2025-01-07 01:38:51.73	10.90	23.81	
2025-01-07 01:38:51.93	10.89	23.85	
2025-01-07 01:38:52.14	10.87	23.88	
2025-01-07 01:38:52.34	10.86	23.92	
2025-01-07 01:38:52.55	10.85	23.95	
2025-01-07 01:38:52.76	10.84	23.99	
2025-01-07 01:38:52.96	10.83	24.02	
2025-01-07 01:38:53.16	10.81	24.05	
2025-01-07 01:38:53.37	10.80	24.09	
2025-01-07 01:38:53.58	10.79	24.13	
2025-01-07 01:38:53.78	10.78	24.16	
2025-01-07 01:38:53.99	10.76	24.20	
2025-01-07 01:38:54.19	10.75	24.23	
2025-01-07 01:38:54.40	10.74	24.27	
2025-01-07 01:38:54.60	10.73	24.30	
2025-01-07 01:38:54.81	10.71	24.34	
2025-01-07 01:38:55.01	10.70	24.37	
2025-01-07 01:38:55.22	10.69	24.41	
2025-01-07 01:38:55.42	10.68	24.44	
2025-01-07 01:38:55.63	10.66	24.48	
2025-01-07 01:38:55.83	10.65	24.51	
2025-01-07 01:38:56.04	10.64	24.55	
2025-01-07 01:38:56.24	10.62	24.58	
2025-01-07 01:38:56.45	10.61	24.62	
2025-01-07 01:38:56.65	10.60	24.66	
2025-01-07 01:38:56.86	10.59	24.69	
2025-01-07 01:38:57.06	10.57	24.73	
2025-01-07 01:38:57.27	10.56	24.76	
2025-01-07 01:38:57.48	10.55	24.80	
2025-01-07 01:38:57.68	10.53	24.84	
2025-01-07 01:38:57.89	10.52	24.87	
2025-01-07 01:38:58.09	10.51	24.91	
2025-01-07 01:38:58.29	10.49	24.94	
2025-01-07 01:38:58.50	10.48	24.98	
2025-01-07 01:38:58.70	10.47	25.02	
2025-01-07 01:38:58.91	10.45	25.05	
2025-01-07 01:38:59.12	10.44	25.09	
2025-01-07 01:38:59.32	10.43	25.12	
2025-01-07 01:38:59.53	10.41	25.16	
2025-01-07 01:38:59.73	10.40	25.20	
2025-01-07 01:38:59.94	10.39	25.24	
2025-01-07 01:39:00.14	10.37	25.27	
2025-01-07 01:39:00.35	10.36	25.31	
2025-01-07 01:39:00.55	10.35	25.34	
2025-01-07 01:39:00.76	10.33	25.38	
2025-01-07 01:39:00.96	10.32	25.42	
2025-01-07 01:39:01.17	10.31	25.46	
2025-01-07 01:39:01.37	10.29	25.49	
2025-01-07 01:39:01.58	10.28	25.53	
2025-01-07 01:39:01.78	10.27	25.57	
2025-01-07 01:39:01.98	10.25	25.60	
2025-01-07 01:39:02.19	10.24	25.64	
2025-01-07 01:39:02.39	10.22	25.68	
2025-01-07 01:39:02.60	10.21	25.71	
2025-01-07 01:39:02.81	10.20	25.75	
2025-01-07 01:39:03.02	10.18	25.79	
2025-01-07 01:39:03.22	10.17	25.83	
2025-01-07 01:39:03.43	10.15	25.87	
2025-01-07 01:39:03.65	10.14	25.91	
2025-01-07 01:39:03.85	10.13	25.94	
2025-01-07 01:39:04.06	10.11	25.98	
2025-01-07 01:39:04.26	10.10	26.02	
2025-01-07 01:39:04.47	10.08	26.06	
2025-01-07 01:39:04.67	10.07	26.09	
2025-01-07 01:39:04.88	10.05	26.13	
2025-01-07 01:39:05.08	10.04	26.17	
2025-01-07 01:39:05.29	10.03	26.21	
2025-01-07 01:39:05.49	10.01	26.24	
2025-01-07 01:39:05.70	10.00	26.28	
2025-01-07 01:39:05.90	9.98	26.32	
2025-01-07 01:39:06.11	9.97	26.36	
2025-01-07 01:39:06.31	9.95	26.40	
2025-01-07 01:39:06.52	9.94	26.44	
2025-01-07 01:39:06.72	9.92	26.47	
2025-01-07 01:39:06.93	9.91	26.51	
2025-01-07 01:39:07.13	9.89	26.55	
2025-01-07 01:39:07.34	9.88	26.59	
2025-01-07 01:39:07.54	9.87	26.63	
2025-01-07 01:39:07.75	9.85	26.67	
2025-01-07 01:39:07.95	9.84	26.70	
2025-01-07 01:39:08.16	9.82	26.74	
2025-01-07 01:39:08.37	9.81	26.78	
2025-01-07 01:39:08.58	9.79	26.82	
2025-01-07 01:39:08.79	9.77	26.86	
2025-01-07 01:39:08.99	9.76	26.90	
2025-01-07 01:39:09.19	9.75	26.94	
2025-01-07 01:39:09.40	9.73	26.98	
2025-01-07 01:39:09.60	9.71	27.02	
2025-01-07 01:39:09.81	9.70	27.06	
2025-01-07 01:39:10.01	9.68	27.10	
2025-01-07 01:39:10.21	9.67	27.14	
2025-01-07 01:39:10.42	9.65	27.18	
2025-01-07 01:39:10.62	9.64	27.21	
2025-01-07 01:39:10.83	9.62	27.25	
2025-01-07 01:39:11.03	9.61	27.29	
2025-01-07 01:39:11.24	9.59	27.33	
2025-01-07 01:39:11.44	9.58	27.37	
2025-01-07 01:39:11.65	9.56	27.41	
2025-01-07 01:39:11.86	9.55	27.45	
2025-01-07 01:39:12.06	9.53	27.49	
2025-01-07 01:39:12.26	9.51	27.53	
2025-01-07 01:39:12.47	9.50	27.57	
2025-01-07 01:39:12.68	9.48	27.61	
2025-01-07 01:39:12.88	9.47	27.65	
2025-01-07 01:39:13.09	9.45	27.69	
2025-01-07 01:39:13.31	9.43	27.74	
2025-01-07 01:39:13.51	9.42	27.78	
2025-01-07 01:39:13.72	9.40	27.82	
2025-01-07 01:39:13.92	9.39	27.86	
2025-01-07 01:39:14.13	9.37	27.90	
2025-01-07 01:39:14.33	9.35	27.94	
2025-01-07 01:39:14.54	9.34	27.98	
2025-01-07 01:39:14.74	9.32	28.02	
2025-01-07 01:39:14.95	9.30	28.06	
2025-01-07 01:39:15.15	9.29	28.10	
2025-01-07 01:39:15.36	9.27	28.14	
2025-01-07 01:39:15.56	9.26	28.18	
2025-01-07 01:39:15.77	9.24	28.22	
2025-01-07 01:39:15.97	9.22	28.26	
2025-01-07 01:39:16.18	9.21	28.31	
2025-01-07 01:39:16.38	9.19	28.35	
2025-01-07 01:39:16.59	9.17	28.39	
2025-01-07 01:39:16.79	9.16	28.43	
2025-01-07 01:39:17.00	9.14	28.47	
2025-01-07 01:39:17.20	9.12	28.51	
2025-01-07 01:39:17.41	9.11	28.55	
2025-01-07 01:39:17.61	9.09	28.60	
2025-01-07 01:39:17.82	9.07	28.64	
2025-01-07 01:39:18.02	9.06	28.68	
2025-01-07 01:39:18.23	9.04	28.72	
2025-01-07 01:39:18.43	9.02	28.76	
2025-01-07 01:39:18.64	9.00	28.80	
2025-01-07 01:39:18.84	8.99	28.85	
2025-01-07 01:39:19.05	8.97	28.89	
2025-01-07 01:39:19.25	8.95	28.93	
2025-01-07 01:39:19.46	8.93	28.97	
2025-01-07 01:39:19.66	8.92	29.01	
2025-01-07 01:39:19.87	8.90	29.06	
2025-01-07 01:39:20.07	8.88	29.10	
2025-01-07 01:39:20.28	8.87	29.14	
2025-01-07 01:39:20.48	8.85	29.18	
2025-01-07 01:39:20.69	8.83	29.23	
2025-01-07 01:39:20.89	8.81	29.27	
2025-01-07 01:39:21.10	8.79	29.31	
2025-01-07 01:39:21.30	8.78	29.35	
2025-01-07 01:39:21.51	8.76	29.40	
2025-01-07 01:39:21.71	8.74	29.44	
2025-01-07 01:39:21.92	8.72	29.48	
2025-01-07 01:39:22.12	8.71	29.53	
2025-01-07 01:39:22.33	8.69	29.57	
2025-01-07 01:39:22.53	8.67	29.61	
2025-01-07 01:39:22.74	8.65	29.66	
2025-01-07 01:39:22.94	8.63	29.70	
2025-01-07 01:39:23.15	8.61	29.74	
2025-01-07 01:39:23.35	8.60	29.78	
2025-01-07 01:39:23.56	8.58	29.83	
2025-01-07 01:39:23.76	8.56	29.87	
2025-01-07 01:39:23.97	8.54	29.92	
2025-01-07 01:39:24.18	8.52	29.96	
2025-01-07 01:39:24.38	8.50	30.00	
2025-01-07 01:39:24.58	8.49	30.05	
2025-01-07 01:39:24.79	8.47	30.09	
2025-01-07 01:39:24.99	8.45	30.13	
2025-01-07 01:39:25.20	8.43	30.18	
2025-01-07 01:39:25.40	8.41	30.22	
2025-01-07 01:39:25.61	8.39	30.27	
2025-01-07 01:39:25.81	8.37	30.31	
2025-01-07 01:39:26.02	8.35	30.36	
2025-01-07 01:39:26.22	8.34	30.40	
2025-01-07 01:39:26.43	8.32	30.44	
2025-01-07 01:39:26.63	8.30	30.49	
2025-01-07 01:39:26.84	8.28	30.53	
2025-01-07 01:39:27.04	8.26	30.58	
2025-01-07 01:39:27.25	8.24	30.62	
2025-01-07 01:39:27.45	8.22	30.67	
2025-01-07 01:39:27.66	8.20	30.71	
2025-01-07 01:39:27.86	8.18	30.76	
2025-01-07 01:39:28.07	8.16	30.80	
2025-01-07 01:39:28.27	8.14	30.85	
2025-01-07 01:39:28.48	8.12	30.89	
2025-01-07 01:39:28.69	8.10	30.94	
2025-01-07 01:39:28.89	8.08	30.98	
2025-01-07 01:39:29.10	8.06	31.03	
2025-01-07 01:39:29.30	8.04	31.07	
2025-01-07 01:39:29.50	8.02	31.12	
2025-01-07 01:39:29.71	8.00	31.16	
2025-01-07 01:39:29.92	7.98	31.21	
2025-01-07 01:39:30.12	7.96	31.26	
2025-01-07 01:39:30.33	7.94	31.30	
2025-01-07 01:39:30.53	7.92	31.35	
2025-01-07 01:39:30.74	7.90	31.39	
2025-01-07 01:39:30.94	7.88	31.44	
2025-01-07 01:39:31.15	7.86	31.49	
2025-01-07 01:39:31.35	7.84	31.53	
2025-01-07 01:39:31.56	7.82	31.58	
2025-01-07 01:39:31.76	7.80	31.62	
2025-01-07 01:39:31.96	7.78	31.67	
2025-01-07 01:39:32.17	7.76	31.72	
2025-01-07 01:39:32.38	7.74	31.76	
2025-01-07 01:39:32.58	7.72	31.81	
2025-01-07 01:39:32.79	7.69	31.86	
2025-01-07 01:39:32.99	7.67	31.90	
2025-01-07 01:39:33.20	7.65	31.95	
2025-01-07 01:39:33.40	7.63	32.00	
2025-01-07 01:39:33.61	7.61	32.04	
2025-01-07 01:39:33.81	7.59	32.09	
2025-01-07 01:39:34.02	7.57	32.14	
2025-01-07 01:39:34.22	7.55	32.18	
2025-01-07 01:39:34.43	7.52	32.23	
2025-01-07 01:39:34.63	7.50	32.28	
2025-01-07 01:39:34.84	7.48	32.33	
2025-01-07 01:39:35.04	7.46	32.37	
2025-01-07 01:39:35.25	7.44	32.42	
2025-01-07 01:39:35.46	7.42	32.47	
2025-01-07 01:39:35.66	7.39	32.52	
2025-01-07 01:39:35.87	7.37	32.57	
2025-01-07 01:39:36.07	7.35	32.61	
2025-01-07 01:39:36.28	7.33	32.66	
2025-01-07 01:39:36.49	7.30	32.71	
2025-01-07 01:39:36.69	7.28	32.76	
2025-01-07 01:39:36.90	7.26	32.81	
2025-01-07 01:39:37.10	7.24	32.86	
2025-01-07 01:39:37.31	7.22	32.90	
2025-01-07 01:39:37.51	7.19	32.95	
2025-01-07 01:39:37.72	7.17	33.00	
2025-01-07 01:39:37.92	7.15	33.05	
2025-01-07 01:39:38.13	7.13	33.10	
2025-01-07 01:39:38.33	7.10	33.15	
2025-01-07 01:39:38.54	7.08	33.20	
2025-01-07 01:39:38.74	7.06	33.24	
2025-01-07 01:39:38.95	7.03	33.29	
2025-01-07 01:39:39.15	7.01	33.34	
2025-01-07 01:39:39.36	6.99	33.39	
2025-01-07 01:39:39.56	6.96	33.44	
2025-01-07 01:39:39.77	6.94	33.49	
2025-01-07 01:39:39.97	6.92	33.54	
2025-01-07 01:39:40.18	6.89	33.59	
2025-01-07 01:39:40.38	6.87	33.64	
2025-01-07 01:39:40.59	6.85	33.69	
2025-01-07 01:39:40.79	6.82	33.74	
2025-01-07 01:39:40.99	6.80	33.79	
2025-01-07 01:39:41.20	6.78	33.84	
2025-01-07 01:39:41.41	6.75	33.89	
2025-01-07 01:39:41.61	6.73	33.94	
2025-01-07 01:39:41.82	6.70	33.99	
2025-01-07 01:39:42.02	6.68	34.04	
2025-01-07 01:39:42.23	6.65	34.09	
2025-01-07 01:39:42.43	6.63	34.14	
2025-01-07 01:39:42.64	6.61	34.19	
2025-01-07 01:39:42.85	6.58	34.24	
2025-01-07 01:39:43.05	6.56	34.29	
2025-01-07 01:39:43.25	6.53	34.34	
2025-01-07 01:39:43.46	6.51	34.39	
2025-01-07 01:39:43.66	6.48	34.44	
2025-01-07 01:39:43.87	6.46	34.49	
2025-01-07 01:39:44.08	6.43	34.54	
2025-01-07 01:39:44.28	6.41	34.59	
2025-01-07 01:39:44.49	6.38	34.65	
2025-01-07 01:39:44.69	6.36	34.70	
2025-01-07 01:39:44.90	6.33	34.75	
2025-01-07 01:39:45.10	6.31	34.80	
2025-01-07 01:39:45.31	6.28	34.85	
2025-01-07 01:39:45.51	6.26	34.90	
2025-01-07 01:39:45.72	6.23	34.95	
2025-01-07 01:39:45.92	6.20	35.01	
2025-01-07 01:39:46.13	6.18	35.06	
2025-01-07 01:39:46.33	6.15	35.11	
2025-01-07 01:39:46.54	6.13	35.16	
2025-01-07 01:39:46.75	6.10	35.22	
2025-01-07 01:39:46.95	6.07	35.27	
2025-01-07 01:39:47.16	6.05	35.32	
2025-01-07 01:39:47.36	6.02	35.37	
2025-01-07 01:39:47.56	6.00	35.42	
2025-01-07 01:39:47.77	5.97	35.48	
2025-01-07 01:39:47.98	5.94	35.53	
2025-01-07 01:39:48.18	5.92	35.58	
2025-01-07 01:39:48.38	5.89	35.63	
2025-01-07 01:39:48.59	5.86	35.69	
2025-01-07 01:39:48.79	5.84	35.74	
2025-01-07 01:39:49.00	5.81	35.79	
2025-01-07 01:39:49.21	5.78	35.85	
2025-01-07 01:39:49.41	5.75	35.90	
2025-01-07 01:39:49.61	5.73	35.95	
2025-01-07 01:39:49.82	5.70	36.00	
2025-01-07 01:39:50.02	5.67	36.06	
2025-01-07 01:39:50.23	5.64	36.11	
2025-01-07 01:39:50.43	5.62	36.16	
2025-01-07 01:39:50.63	5.59	36.22	
2025-01-07 01:39:50.84	5.56	36.27	
2025-01-07 01:39:51.05	5.53	36.33	
2025-01-07 01:39:51.25	5.50	36.38	
2025-01-07 01:39:51.46	5.48	36.43	
2025-01-07 01:39:51.66	5.45	36.49	
2025-01-07 01:39:51.86	5.42	36.54	
2025-01-07 01:39:52.07	5.39	36.60	
2025-01-07 01:39:52.29	5.36	36.65	
2025-01-07 01:39:52.49	5.33	36.71	
2025-01-07 01:39:52.71	5.30	36.77	
2025-01-07 01:39:52.92	5.27	36.82	
2025-01-07 01:39:53.12	5.24	36.87	
2025-01-07 01:39:53.33	5.21	36.93	
2025-01-07 01:39:53.53	5.19	36.98	
2025-01-07 01:39:53.74	5.16	37.04	
2025-01-07 01:39:53.94	5.13	37.09	
2025-01-07 01:39:54.15	5.10	37.15	
2025-01-07 01:39:54.35	5.07	37.20	
2025-01-07 01:39:54.56	5.04	37.26	
2025-01-07 01:39:54.76	5.01	37.32	
2025-01-07 01:39:54.97	4.98	37.37	
2025-01-07 01:39:55.17	4.95	37.43	
2025-01-07 01:39:55.38	4.92	37.48	
2025-01-07 01:39:55.58	4.89	37.54	
2025-01-07 01:39:55.79	4.86	37.60	
2025-01-07 01:39:55.99	4.83	37.65	
2025-01-07 01:39:56.20	4.80	37.71	
2025-01-07 01:39:56.40	4.77	37.76	
2025-01-07 01:39:56.61	4.73	37.82	
2025-01-07 01:39:56.81	4.70	37.87	
2025-01-07 01:39:57.02	4.67	37.93	
2025-01-07 01:39:57.22	4.64	37.99	
2025-01-07 01:39:57.43	4.61	38.05	
2025-01-07 01:39:57.64	4.58	38.10	
2025-01-07 01:39:57.84	4.55	38.16	
2025-01-07 01:39:58.05	4.51	38.22	
2025-01-07 01:39:58.25	4.48	38.27	
2025-01-07 01:39:58.46	4.45	38.33	
2025-01-07 01:39:58.66	4.42	38.39	
2025-01-07 01:39:58.87	4.39	38.45	
2025-01-07 01:39:59.07	4.35	38.50	
2025-01-07 01:39:59.28	4.32	38.56	
2025-01-07 01:39:59.48	4.29	38.62	
2025-01-07 01:39:59.69	4.26	38.68	
2025-01-07 01:39:59.90	4.22	38.73	
2025-01-07 01:40:00.10	4.19	38.79	
2025-01-07 01:40:00.30	4.16	38.85	
2025-01-07 01:40:00.51	4.13	38.91	
2025-01-07 01:40:00.72	4.09	38.97	
2025-01-07 01:40:00.92	4.06	39.02	
2025-01-07 01:40:01.12	4.03	39.08	
2025-01-07 01:40:01.33	3.99	39.14	
2025-01-07 01:40:01.54	3.96	39.20	
2025-01-07 01:40:01.74	3.92	39.26	
2025-01-07 01:40:01.95	3.89	39.32	
2025-01-07 01:40:02.15	3.86	39.37	
2025-01-07 01:40:02.36	3.82	39.43	
2025-01-07 01:40:02.56	3.79	39.49	
2025-01-07 01:40:02.77	3.75	39.55	
2025-01-07 01:40:02.97	3.72	39.61	
2025-01-07 01:40:03.18	3.68	39.67	
2025-01-07 01:40:03.38	3.65	39.73	
2025-01-07 01:40:03.58	3.62	39.79	
2025-01-07 01:40:03.79	3.58	39.85	
2025-01-07 01:40:03.99	3.54	39.91	
2025-01-07 01:40:04.20	3.51	39.97	
2025-01-07 01:40:04.40	3.47	40.03	
2025-01-07 01:40:04.61	3.44	40.09	
2025-01-07 01:40:04.81	3.40	40.14	
2025-01-07 01:40:05.01	3.37	40.20	
2025-01-07 01:40:05.22	3.33	40.27	
2025-01-07 01:40:05.42	3.30	40.32	
2025-01-07 01:40:05.63	3.26	40.39	
2025-01-07 01:40:05.83	3.22	40.44	
2025-01-07 01:40:06.04	3.18	40.51	
2025-01-07 01:40:06.24	3.15	40.57	
2025-01-07 01:40:06.44	3.11	40.63	
2025-01-07 01:40:06.65	3.08	40.69	
2025-01-07 01:40:06.85	3.04	40.75	
2025-01-07 01:40:07.06	3.00	40.81	
2025-01-07 01:40:07.26	2.96	40.87	
2025-01-07 01:40:07.47	2.93	40.93	
2025-01-07 01:40:07.67	2.89	40.99	
2025-01-07 01:40:07.88	2.85	41.05	
2025-01-07 01:40:08.08	2.81	41.11	
2025-01-07 01:40:08.29	2.77	41.18	
2025-01-07 01:40:08.49	2.74	41.24	
2025-01-07 01:40:08.70	2.70	41.30	
2025-01-07 01:40:08.91	2.66	41.36	
2025-01-07 01:40:09.11	2.62	41.42	
2025-01-07 01:40:09.32	2.58	41.49	
2025-01-07 01:40:09.52	2.54	41.55	
2025-01-07 01:40:09.73	2.50	41.61	
2025-01-07 01:40:09.93	2.46	41.67	
2025-01-07 01:40:10.14	2.42	41.74	
2025-01-07 01:40:10.34	2.38	41.80	
2025-01-07 01:40:10.55	2.34	41.86	
2025-01-07 01:40:10.75	2.30	41.92	
2025-01-07 01:40:10.95	2.26	41.98	
2025-01-07 01:40:11.16	2.22	42.05	
2025-01-07 01:40:11.37	2.18	42.11	
2025-01-07 01:40:11.57	2.14	42.18	
2025-01-07 01:40:11.78	2.10	42.24	
2025-01-07 01:40:11.98	2.06	42.30	
2025-01-07 01:40:12.18	2.02	42.36	
2025-01-07 01:40:12.39	1.98	42.43	
2025-01-07 01:40:12.60	1.93	42.49	
2025-01-07 01:40:12.80	1.89	42.56	
2025-01-07 01:40:13.01	1.85	42.62	
2025-01-07 01:40:13.21	1.81	42.68	
2025-01-07 01:40:13.42	1.77	42.75	
2025-01-07 01:40:13.62	1.72	42.81	
2025-01-07 01:40:13.82	1.68	42.87	
2025-01-07 01:40:14.03	1.64	42.94	
2025-01-07 01:40:14.23	1.60	43.00	
2025-01-07 01:40:14.44	1.55	43.07	
2025-01-07 01:40:14.64	1.51	43.13	
2025-01-07 01:40:14.85	1.47	43.20	
2025-01-07 01:40:15.05	1.42	43.26	
2025-01-07 01:40:15.26	1.38	43.33	
2025-01-07 01:40:15.46	1.33	43.39	
2025-01-07 01:40:15.67	1.29	43.46	
2025-01-07 01:40:15.87	1.25	43.52	
2025-01-07 01:40:16.08	1.20	43.59	
2025-01-07 01:40:16.28	1.16	43.65	
2025-01-07 01:40:16.49	1.11	43.72	
2025-01-07 01:40:16.69	1.07	43.78	
2025-01-07 01:40:16.90	1.02	43.85	
2025-01-07 01:40:17.10	0.98	43.91	
2025-01-07 01:40:17.31	0.93	43.98	
2025-01-07 01:40:17.51	0.88	44.05	
2025-01-07 01:40:17.72	0.84	44.11	
2025-01-07 01:40:17.92	0.79	44.18	
2025-01-07 01:40:18.13	0.74	44.25	
2025-01-07 01:40:18.35	0.69	44.32	
2025-01-07 01:40:18.55	0.65	44.38	
2025-01-07 01:40:18.76	0.60	44.45	
2025-01-07 01:40:18.97	0.55	44.52	
2025-01-07 01:40:19.17	0.50	44.58	
2025-01-07 01:40:19.38	0.46	44.65	
2025-01-07 01:40:19.58	0.41	44.72	
2025-01-07 01:40:19.79	0.36	44.79	
2025-01-07 01:40:19.99	0.31	44.85	
2025-01-07 01:40:20.20	0.26	44.92	
2025-01-07 01:40:20.40	0.21	44.99	
2025-01-07 01:40:20.60	0.17	45.05	
2025-01-07 01:40:20.81	0.12	45.12	
2025-01-07 01:40:21.02	0.07	45.19	
2025-01-07 01:40:21.23	0.01	45.26	
2025-01-07 01:40:21.43	359.97	45.33	
2025-01-07 01:40:21.64	359.91	45.40	
2025-01-07 01:40:21.84	359.87	45.46	
2025-01-07 01:40:22.05	359.81	45.53	
2025-01-07 01:40:22.26	359.76	45.60	
2025-01-07 01:40:22.46	359.71	45.67	
2025-01-07 01:40:22.67	359.66	45.74	
2025-01-07 01:40:22.87	359.61	45.81	
2025-01-07 01:40:23.08	359.56	45.88	
2025-01-07 01:40:23.28	359.51	45.94	
2025-01-07 01:40:23.49	359.45	46.01	
2025-01-07 01:40:23.69	359.40	46.08	
2025-01-07 01:40:23.90	359.35	46.15	
2025-01-07 01:40:24.10	359.29	46.22	
2025-01-07 01:40:24.32	359.24	46.29	
2025-01-07 01:40:24.53	359.18	46.36	
2025-01-07 01:40:24.73	359.13	46.43	
2025-01-07 01:40:24.94	359.08	46.50	
2025-01-07 01:40:25.14	359.02	46.57	
2025-01-07 01:40:25.35	358.97	46.64	
2025-01-07 01:40:25.55	358.91	46.71	
2025-01-07 01:40:25.76	358.86	46.78	
2025-01-07 01:40:25.96	358.80	46.85	
2025-01-07 01:40:26.17	358.75	46.92	
2025-01-07 01:40:26.37	358.69	46.99	
2025-01-07 01:40:26.58	358.64	47.06	
2025-01-07 01:40:26.78	358.58	47.13	
2025-01-07 01:40:26.99	358.52	47.20	
2025-01-07 01:40:27.20	358.46	47.27	
2025-01-07 01:40:27.40	358.41	47.34	
2025-01-07 01:40:27.61	358.35	47.41	
2025-01-07 01:40:27.81	358.29	47.48	
2025-01-07 01:40:28.02	358.24	47.56	
2025-01-07 01:40:28.22	358.18	47.63	
2025-01-07 01:40:28.43	358.12	47.70	
2025-01-07 01:40:28.63	358.06	47.77	
2025-01-07 01:40:28.84	358.00	47.84	
2025-01-07 01:40:29.04	357.94	47.91	
2025-01-07 01:40:29.25	357.88	47.98	
2025-01-07 01:40:29.45	357.82	48.05	
2025-01-07 01:40:29.66	357.76	48.13	
2025-01-07 01:40:29.86	357.70	48.20	
2025-01-07 01:40:30.07	357.64	48.27	
2025-01-07 01:40:30.27	357.58	48.34	
2025-01-07 01:40:30.48	357.52	48.41	
2025-01-07 01:40:30.68	357.46	48.48	
2025-01-07 01:40:30.89	357.40	48.56	
2025-01-07 01:40:31.09	357.34	48.63	
2025-01-07 01:40:31.30	357.27	48.70	
2025-01-07 01:40:31.50	357.21	48.77	
2025-01-07 01:40:31.71	357.15	48.85	
2025-01-07 01:40:31.91	357.09	48.92	
2025-01-07 01:40:32.12	357.02	48.99	
2025-01-07 01:40:32.32	356.96	49.06	
2025-01-07 01:40:32.53	356.89	49.14	
2025-01-07 01:40:32.74	356.83	49.21	
2025-01-07 01:40:32.94	356.76	49.28	
2025-01-07 01:40:33.15	356.70	49.36	
2025-01-07 01:40:33.35	356.63	49.43	
2025-01-07 01:40:33.55	356.57	49.50	
2025-01-07 01:40:33.76	356.50	49.58	
2025-01-07 01:40:33.97	356.43	49.65	
2025-01-07 01:40:34.17	356.37	49.72	
2025-01-07 01:40:34.38	356.30	49.80	
2025-01-07 01:40:34.58	356.23	49.87	
2025-01-07 01:40:34.79	356.16	49.94	
2025-01-07 01:40:34.99	356.10	50.02	
2025-01-07 01:40:35.19	356.03	50.09	
2025-01-07 01:40:35.40	355.96	50.16	
2025-01-07 01:40:35.60	355.89	50.24	
2025-01-07 01:40:35.81	355.82	50.31	
2025-01-07 01:40:36.01	355.75	50.39	
2025-01-07 01:40:36.22	355.68	50.46	
2025-01-07 01:40:36.44	355.61	50.54	
2025-01-07 01:40:36.64	355.54	50.61	
2025-01-07 01:40:36.85	355.47	50.69	
2025-01-07 01:40:37.05	355.40	50.76	
2025-01-07 01:40:37.26	355.32	50.84	
2025-01-07 01:40:37.46	355.25	50.91	
2025-01-07 01:40:37.66	355.18	50.99	
2025-01-07 01:40:37.87	355.11	51.06	
2025-01-07 01:40:38.07	355.03	51.14	
2025-01-07 01:40:38.28	354.96	51.21	
2025-01-07 01:40:38.49	354.88	51.29	
2025-01-07 01:40:38.69	354.81	51.36	
2025-01-07 01:40:38.90	354.73	51.44	
2025-01-07 01:40:39.10	354.66	51.51	
2025-01-07 01:40:39.31	354.58	51.59	
2025-01-07 01:40:39.51	354.51	51.66	
2025-01-07 01:40:39.71	354.43	51.74	
2025-01-07 01:40:39.92	354.35	51.82	
2025-01-07 01:40:40.13	354.28	51.89	
2025-01-07 01:40:40.33	354.20	51.97	
2025-01-07 01:40:40.54	354.12	52.04	
2025-01-07 01:40:40.74	354.04	52.12	
2025-01-07 01:40:40.94	353.97	52.19	
2025-01-07 01:40:41.15	353.88	52.27	
2025-01-07 01:40:41.35	353.81	52.34	
2025-01-07 01:40:41.56	353.73	52.42	
2025-01-07 01:40:41.78	353.64	52.50	
2025-01-07 01:40:41.98	353.56	52.58	
2025-01-07 01:40:42.19	353.48	52.66	
2025-01-07 01:40:42.39	353.40	52.73	
2025-01-07 01:40:42.59	353.32	52.81	
2025-01-07 01:40:42.80	353.23	52.89	
2025-01-07 01:40:43.00	353.15	52.96	
2025-01-07 01:40:43.21	353.06	53.04	
2025-01-07 01:40:43.41	352.98	53.11	
2025-01-07 01:40:43.62	352.90	53.19	
2025-01-07 01:40:43.82	352.81	53.27	
2025-01-07 01:40:44.03	352.73	53.35	
2025-01-07 01:40:44.23	352.64	53.42	
2025-01-07 01:40:44.44	352.55	53.50	
2025-01-07 01:40:44.64	352.47	53.58	
2025-01-07 01:40:44.85	352.38	53.65	
2025-01-07 01:40:45.05	352.29	53.73	
2025-01-07 01:40:45.26	352.20	53.81	
2025-01-07 01:40:45.46	352.12	53.88	
2025-01-07 01:40:45.67	352.03	53.96	
2025-01-07 01:40:45.87	351.94	54.04	
2025-01-07 01:40:46.08	351.85	54.12	
2025-01-07 01:40:46.28	351.76	54.19	
2025-01-07 01:40:46.49	351.66	54.27	
2025-01-07 01:40:46.69	351.57	54.35	
2025-01-07 01:40:46.90	351.48	54.43	
2025-01-07 01:40:47.10	351.39	54.50	
2025-01-07 01:40:47.30	351.30	54.58	
2025-01-07 01:40:47.51	351.20	54.66	
2025-01-07 01:40:47.72	351.11	54.74	
2025-01-07 01:40:47.92	351.01	54.82	
2025-01-07 01:40:48.13	350.92	54.90	
2025-01-07 01:40:48.33	350.82	54.97	
2025-01-07 01:40:48.54	350.72	55.05	
2025-01-07 01:40:48.74	350.63	55.13	
2025-01-07 01:40:48.95	350.53	55.21	
2025-01-07 01:40:49.15	350.43	55.28	
2025-01-07 01:40:49.36	350.33	55.36	
2025-01-07 01:40:49.56	350.24	55.44	
2025-01-07 01:40:49.77	350.13	55.52	
2025-01-07 01:40:49.97	350.04	55.60	
2025-01-07 01:40:50.18	349.93	55.68	
2025-01-07 01:40:50.38	349.83	55.75	
2025-01-07 01:40:50.59	349.73	55.83	
2025-01-07 01:40:50.80	349.62	55.91	
2025-01-07 01:40:51.00	349.52	55.99	
2025-01-07 01:40:51.20	349.42	56.07	
2025-01-07 01:40:51.41	349.32	56.15	
2025-01-07 01:40:51.61	349.21	56.22	
2025-01-07 01:40:51.82	349.10	56.30	
2025-01-07 01:40:52.02	349.00	56.38	
2025-01-07 01:40:52.23	348.89	56.46	
2025-01-07 01:40:52.45	348.78	56.55	
2025-01-07 01:40:52.65	348.67	56.62	
2025-01-07 01:40:52.86	348.56	56.70	
2025-01-07 01:40:53.06	348.45	56.78	
2025-01-07 01:40:53.27	348.34	56.86	
2025-01-07 01:40:53.49	348.22	56.94	
2025-01-07 01:40:53.69	348.11	57.02	
2025-01-07 01:40:53.90	348.00	57.10	
2025-01-07 01:40:54.10	347.89	57.18	
2025-01-07 01:40:54.31	347.77	57.26	
2025-01-07 01:40:54.51	347.66	57.34	
2025-01-07 01:40:54.72	347.55	57.42	
2025-01-07 01:40:54.92	347.43	57.49	
2025-01-07 01:40:55.13	347.31	57.57	
2025-01-07 01:40:55.33	347.20	57.65	
2025-01-07 01:40:55.54	347.08	57.73	
2025-01-07 01:40:55.76	346.95	57.82	
2025-01-07 01:40:55.96	346.84	57.89	
2025-01-07 01:40:56.17	346.72	57.97	
2025-01-07 01:40:56.37	346.60	58.05	
2025-01-07 01:40:56.58	346.47	58.13	
2025-01-07 01:40:56.78	346.36	58.21	
2025-01-07 01:40:56.99	346.23	58.29	
2025-01-07 01:40:57.19	346.11	58.36	
2025-01-07 01:40:57.40	345.98	58.45	
2025-01-07 01:40:57.60	345.86	58.52	
2025-01-07 01:40:57.81	345.73	58.60	
2025-01-07 01:40:58.01	345.61	58.68	
2025-01-07 01:40:58.22	345.48	58.76	
2025-01-07 01:40:58.42	345.36	58.84	
2025-01-07 01:40:58.63	345.23	58.92	
2025-01-07 01:40:58.85	345.09	59.00	
2025-01-07 01:40:59.05	344.96	59.08	
2025-01-07 01:40:59.26	344.83	59.16	
2025-01-07 01:40:59.46	344.70	59.23	
2025-01-07 01:40:59.67	344.56	59.31	
2025-01-07 01:40:59.87	344.43	59.39	
2025-01-07 01:41:00.07	344.30	59.47	
2025-01-07 01:41:00.28	344.16	59.55	
2025-01-07 01:41:00.49	344.03	59.63	
2025-01-07 01:41:00.69	343.89	59.70	
2025-01-07 01:41:00.90	343.75	59.78	
2025-01-07 01:41:01.10	343.62	59.86	
2025-01-07 01:41:01.31	343.48	59.94	
2025-01-07 01:41:01.51	343.34	60.02	
2025-01-07 01:41:01.72	343.19	60.10	
2025-01-07 01:41:01.92	343.06	60.17	
2025-01-07 01:41:02.13	342.91	60.25	
2025-01-07 01:41:02.33	342.77	60.33	
2025-01-07 01:41:02.54	342.62	60.41	
2025-01-07 01:41:02.74	342.48	60.48	
2025-01-07 01:41:02.95	342.33	60.56	
2025-01-07 01:41:03.15	342.19	60.64	
2025-01-07 01:41:03.36	342.04	60.72	
2025-01-07 01:41:03.56	341.89	60.79	
2025-01-07 01:41:03.77	341.74	60.87	
2025-01-07 01:41:03.97	341.59	60.95	
2025-01-07 01:41:04.18	341.44	61.02	
2025-01-07 01:41:04.38	341.29	61.10	
2025-01-07 01:41:04.59	341.13	61.18	
2025-01-07 01:41:04.79	340.98	61.25	
2025-01-07 01:41:05.00	340.82	61.33	
2025-01-07 01:41:05.20	340.67	61.41	
2025-01-07 01:41:05.41	340.51	61.49	
2025-01-07 01:41:05.61	340.36	61.56	
2025-01-07 01:41:05.82	340.19	61.64	
2025-01-07 01:41:06.02	340.04	61.71	
2025-01-07 01:41:06.23	339.87	61.79	
2025-01-07 01:41:06.43	339.71	61.86	
2025-01-07 01:41:06.64	339.55	61.94	
2025-01-07 01:41:06.84	339.39	62.02	
2025-01-07 01:41:07.05	339.22	62.09	
2025-01-07 01:41:07.25	339.06	62.17	
2025-01-07 01:41:07.46	338.88	62.24	
2025-01-07 01:41:07.67	338.71	62.32	
2025-01-07 01:41:07.87	338.55	62.40	
2025-01-07 01:41:08.08	338.37	62.47	
2025-01-07 01:41:08.28	338.20	62.55	
2025-01-07 01:41:08.50	338.02	62.63	
2025-01-07 01:41:08.71	337.84	62.70	
2025-01-07 01:41:08.91	337.67	62.77	
2025-01-07 01:41:09.12	337.49	62.85	
2025-01-07 01:41:09.32	337.32	62.92	
2025-01-07 01:41:09.53	337.14	63.00	
2025-01-07 01:41:09.73	336.96	63.07	
2025-01-07 01:41:09.93	336.78	63.14	
2025-01-07 01:41:10.14	336.60	63.22	
2025-01-07 01:41:10.35	336.41	63.29	
2025-01-07 01:41:10.55	336.23	63.37	
2025-01-07 01:41:10.75	336.05	63.44	
2025-01-07 01:41:10.96	335.86	63.51	
2025-01-07 01:41:11.17	335.67	63.59	
2025-01-07 01:41:11.37	335.49	63.66	
2025-01-07 01:41:11.58	335.29	63.73	
2025-01-07 01:41:11.78	335.10	63.80	
2025-01-07 01:41:11.99	334.91	63.88	
2025-01-07 01:41:12.19	334.72	63.95	
2025-01-07 01:41:12.40	334.52	64.02	
2025-01-07 01:41:12.60	334.33	64.09	
2025-01-07 01:41:12.81	334.13	64.16	
2025-01-07 01:41:13.01	333.93	64.23	
2025-01-07 01:41:13.22	333.73	64.30	
2025-01-07 01:41:13.42	333.53	64.37	
2025-01-07 01:41:13.63	333.33	64.45	
2025-01-07 01:41:13.85	333.11	64.52	
2025-01-07 01:41:14.05	332.91	64.59	
2025-01-07 01:41:14.26	332.70	64.66	
2025-01-07 01:41:14.46	332.50	64.73	
2025-01-07 01:41:14.67	332.28	64.80	
2025-01-07 01:41:14.87	332.08	64.87	
2025-01-07 01:41:15.08	331.86	64.94	
2025-01-07 01:41:15.28	331.66	65.00	
2025-01-07 01:41:15.49	331.44	65.07	
2025-01-07 01:41:15.69	331.23	65.14	
2025-01-07 01:41:15.89	331.02	65.21	
2025-01-07 01:41:16.10	330.80	65.28	
2025-01-07 01:41:16.30	330.58	65.34	
2025-01-07 01:41:16.51	330.36	65.41	
2025-01-07 01:41:16.72	330.13	65.48	
2025-01-07 01:41:16.92	329.91	65.54	
2025-01-07 01:41:17.13	329.68	65.61	
2025-01-07 01:41:17.33	329.46	65.68	
2025-01-07 01:41:17.54	329.23	65.74	
2025-01-07 01:41:17.74	329.01	65.81	
2025-01-07 01:41:17.95	328.77	65.87	
2025-01-07 01:41:18.15	328.55	65.94	
2025-01-07 01:41:18.36	328.31	66.00	
2025-01-07 01:41:18.56	328.08	66.07	
2025-01-07 01:41:18.77	327.84	66.13	
2025-01-07 01:41:18.97	327.61	66.19	
2025-01-07 01:41:19.18	327.37	66.26	
2025-01-07 01:41:19.39	327.12	66.32	
2025-01-07 01:41:19.59	326.89	66.38	
2025-01-07 01:41:19.80	326.64	66.45	
2025-01-07 01:41:20.00	326.40	66.51	
2025-01-07 01:41:20.22	326.14	66.57	
2025-01-07 01:41:20.42	325.90	66.63	
2025-01-07 01:41:20.63	325.64	66.70	
2025-01-07 01:41:20.83	325.40	66.75	
2025-01-07 01:41:21.04	325.14	66.82	
2025-01-07 01:41:21.24	324.90	66.87	
2025-01-07 01:41:21.45	324.64	66.94	
2025-01-07 01:41:21.65	324.39	66.99	
2025-01-07 01:41:21.86	324.12	67.05	
2025-01-07 01:41:22.06	323.87	67.11	
2025-01-07 01:41:22.27	323.61	67.17	
2025-01-07 01:41:22.47	323.35	67.23	
2025-01-07 01:41:22.68	323.08	67.28	
2025-01-07 01:41:22.88	322.83	67.34	
2025-01-07 01:41:23.09	322.55	67.40	
2025-01-07 01:41:23.29	322.29	67.45	
2025-01-07 01:41:23.50	322.02	67.51	
2025-01-07 01:41:23.70	321.76	67.56	
2025-01-07 01:41:23.91	321.48	67.62	
2025-01-07 01:41:24.11	321.21	67.67	
2025-01-07 01:41:24.32	320.93	67.73	
2025-01-07 01:41:24.52	320.66	67.78	
2025-01-07 01:41:24.73	320.38	67.83	
2025-01-07 01:41:24.93	320.11	67.88	
2025-01-07 01:41:25.14	319.82	67.94	
2025-01-07 01:41:25.34	319.55	67.99	
2025-01-07 01:41:25.55	319.26	68.04	
2025-01-07 01:41:25.75	318.98	68.09	
2025-01-07 01:41:25.96	318.69	68.14	
2025-01-07 01:41:26.16	318.41	68.19	
2025-01-07 01:41:26.37	318.11	68.24	
2025-01-07 01:41:26.57	317.83	68.29	
2025-01-07 01:41:26.78	317.53	68.34	
2025-01-07 01:41:26.98	317.25	68.38	
2025-01-07 01:41:27.19	316.95	68.43	
2025-01-07 01:41:27.39	316.66	68.48	
2025-01-07 01:41:27.60	316.35	68.52	
2025-01-07 01:41:27.80	316.06	68.57	
2025-01-07 01:41:28.01	315.76	68.61	
2025-01-07 01:41:28.21	315.46	68.66	
2025-01-07 01:41:28.43	315.14	68.71	
2025-01-07 01:41:28.64	314.83	68.75	
2025-01-07 01:41:28.85	314.52	68.79	
2025-01-07 01:41:29.06	314.20	68.84	
2025-01-07 01:41:29.27	313.89	68.88	
2025-01-07 01:41:29.47	313.58	68.92	
2025-01-07 01:41:29.68	313.27	68.96	
2025-01-07 01:41:29.88	312.96	69.00	
