passes_logs/2025/01/07/SPB_Silybum_02/SPB_Silybum_02__20250107_203005_TERRA_rec.log

#Pass ID: 20250107_203005_TERRA
#Satellite: TERRA
#Configuration: TERRA
#Start time: 2025-01-07 20:30:06

#Version: 2.0.20230423
#Station: SPB_Silybum_02
#Location: 30.233357 lon 59.946436 lat
#TLE: 1 25994U 99068A   25006.77118991  .00001382  00000+0  29492-3 0  9999
#TLE: 2 25994  98.0231  70.0628 0003576  88.8854  23.4584 14.60378914332871

#Time	Az	El	Level	Level2	SNR	BER	Gain	Gain2
2025-01-07 20:30:08.46	227.22	4.13	
2025-01-07 20:30:08.67	227.24	4.15	
2025-01-07 20:30:08.87	227.26	4.16	
2025-01-07 20:30:09.08	227.29	4.17	
2025-01-07 20:30:09.28	227.31	4.18	
2025-01-07 20:30:09.49	227.33	4.19	
2025-01-07 20:30:09.69	227.36	4.20	
2025-01-07 20:30:09.90	227.38	4.21	
2025-01-07 20:30:10.10	227.40	4.22	
2025-01-07 20:30:10.31	227.43	4.23	
2025-01-07 20:30:10.51	227.45	4.24	
2025-01-07 20:30:10.72	227.48	4.25	
2025-01-07 20:30:10.92	227.50	4.26	
2025-01-07 20:30:11.14	227.52	4.28	
2025-01-07 20:30:11.35	227.55	4.29	
2025-01-07 20:30:11.55	227.57	4.30	
2025-01-07 20:30:11.75	227.59	4.31	
2025-01-07 20:30:11.96	227.62	4.32	
2025-01-07 20:30:12.16	227.64	4.33	
2025-01-07 20:30:12.37	227.67	4.34	
2025-01-07 20:30:12.57	227.69	4.35	
2025-01-07 20:30:12.78	227.71	4.36	
2025-01-07 20:30:12.98	227.74	4.37	
2025-01-07 20:30:13.19	227.76	4.38	
2025-01-07 20:30:13.39	227.79	4.39	
2025-01-07 20:30:13.60	227.81	4.40	
2025-01-07 20:30:13.81	227.83	4.42	
2025-01-07 20:30:14.01	227.86	4.43	
2025-01-07 20:30:14.22	227.88	4.44	
2025-01-07 20:30:14.42	227.91	4.45	
2025-01-07 20:30:14.63	227.93	4.46	
2025-01-07 20:30:14.83	227.95	4.47	
2025-01-07 20:30:15.04	227.98	4.48	
2025-01-07 20:30:15.24	228.00	4.49	
2025-01-07 20:30:15.46	228.03	4.50	
2025-01-07 20:30:15.67	228.05	4.51	
2025-01-07 20:30:15.87	228.08	4.52	
2025-01-07 20:30:16.08	228.10	4.53	
2025-01-07 20:30:16.28	228.12	4.55	
2025-01-07 20:30:16.50	228.15	4.56	
2025-01-07 20:30:16.71	228.17	4.57	
2025-01-07 20:30:16.91	228.20	4.58	
2025-01-07 20:30:17.12	228.22	4.59	
2025-01-07 20:30:17.32	228.25	4.60	
2025-01-07 20:30:17.53	228.27	4.61	
2025-01-07 20:30:17.73	228.29	4.62	
2025-01-07 20:30:17.94	228.32	4.63	
2025-01-07 20:30:18.15	228.34	4.64	
2025-01-07 20:30:18.35	228.37	4.65	
2025-01-07 20:30:18.55	228.39	4.67	
2025-01-07 20:30:18.76	228.42	4.68	
2025-01-07 20:30:18.97	228.44	4.69	
2025-01-07 20:30:19.18	228.47	4.70	
2025-01-07 20:30:19.38	228.49	4.71	
2025-01-07 20:30:19.59	228.52	4.72	
2025-01-07 20:30:19.79	228.54	4.73	
2025-01-07 20:30:20.00	228.56	4.74	
2025-01-07 20:30:20.20	228.59	4.75	
2025-01-07 20:30:20.41	228.61	4.76	
2025-01-07 20:30:20.61	228.64	4.77	
2025-01-07 20:30:20.82	228.66	4.78	
2025-01-07 20:30:21.02	228.69	4.80	
2025-01-07 20:30:21.23	228.71	4.81	
2025-01-07 20:30:21.43	228.74	4.82	
2025-01-07 20:30:21.64	228.76	4.83	
2025-01-07 20:30:21.85	228.79	4.84	
2025-01-07 20:30:22.06	228.81	4.85	
2025-01-07 20:30:22.26	228.84	4.86	
2025-01-07 20:30:22.47	228.86	4.87	
2025-01-07 20:30:22.67	228.89	4.88	
2025-01-07 20:30:22.88	228.91	4.89	
2025-01-07 20:30:23.08	228.93	4.90	
2025-01-07 20:30:23.29	228.96	4.92	
2025-01-07 20:30:23.50	228.99	4.93	
2025-01-07 20:30:23.70	229.01	4.94	
2025-01-07 20:30:23.90	229.03	4.95	
2025-01-07 20:30:24.11	229.06	4.96	
2025-01-07 20:30:24.32	229.09	4.97	
2025-01-07 20:30:24.52	229.11	4.98	
2025-01-07 20:30:24.73	229.14	4.99	
2025-01-07 20:30:24.94	229.16	5.00	
2025-01-07 20:30:25.14	229.18	5.01	
2025-01-07 20:30:25.34	229.21	5.02	
2025-01-07 20:30:25.55	229.23	5.03	
2025-01-07 20:30:25.75	229.26	5.04	
2025-01-07 20:30:25.96	229.28	5.06	
2025-01-07 20:30:26.16	229.31	5.07	
2025-01-07 20:30:26.37	229.34	5.08	
2025-01-07 20:30:26.58	229.36	5.09	
2025-01-07 20:30:26.78	229.39	5.10	
2025-01-07 20:30:26.99	229.41	5.11	
2025-01-07 20:30:27.19	229.44	5.12	
2025-01-07 20:30:27.39	229.46	5.13	
2025-01-07 20:30:27.60	229.49	5.14	
2025-01-07 20:30:27.81	229.51	5.15	
2025-01-07 20:30:28.01	229.54	5.16	
2025-01-07 20:30:28.22	229.56	5.18	
2025-01-07 20:30:28.42	229.59	5.19	
2025-01-07 20:30:28.63	229.61	5.20	
2025-01-07 20:30:28.83	229.64	5.21	
2025-01-07 20:30:29.04	229.66	5.22	
2025-01-07 20:30:29.24	229.69	5.23	
2025-01-07 20:30:29.44	229.71	5.24	
2025-01-07 20:30:29.65	229.74	5.25	
2025-01-07 20:30:29.86	229.77	5.26	
2025-01-07 20:30:30.06	229.79	5.27	
2025-01-07 20:30:30.27	229.82	5.28	
2025-01-07 20:30:30.47	229.84	5.29	
2025-01-07 20:30:30.68	229.87	5.31	
2025-01-07 20:30:30.89	229.89	5.32	
2025-01-07 20:30:31.09	229.92	5.33	
2025-01-07 20:30:31.30	229.94	5.34	
2025-01-07 20:30:31.50	229.97	5.35	
2025-01-07 20:30:31.70	229.99	5.36	
2025-01-07 20:30:31.91	230.02	5.37	
2025-01-07 20:30:32.11	230.05	5.38	
2025-01-07 20:30:32.32	230.07	5.39	
2025-01-07 20:30:32.52	230.10	5.40	
2025-01-07 20:30:32.73	230.12	5.41	
2025-01-07 20:30:32.93	230.15	5.42	
2025-01-07 20:30:33.14	230.17	5.44	
2025-01-07 20:30:33.35	230.20	5.45	
2025-01-07 20:30:33.55	230.23	5.46	
2025-01-07 20:30:33.76	230.25	5.47	
2025-01-07 20:30:33.96	230.28	5.48	
2025-01-07 20:30:34.16	230.30	5.49	
2025-01-07 20:30:34.37	230.33	5.50	
2025-01-07 20:30:34.57	230.35	5.51	
2025-01-07 20:30:34.78	230.38	5.52	
2025-01-07 20:30:34.98	230.41	5.53	
2025-01-07 20:30:35.19	230.43	5.54	
2025-01-07 20:30:35.40	230.46	5.56	
2025-01-07 20:30:35.60	230.48	5.57	
2025-01-07 20:30:35.81	230.51	5.58	
2025-01-07 20:30:36.01	230.54	5.59	
2025-01-07 20:30:36.22	230.56	5.60	
2025-01-07 20:30:36.42	230.59	5.61	
2025-01-07 20:30:36.63	230.62	5.62	
2025-01-07 20:30:36.84	230.64	5.63	
2025-01-07 20:30:37.05	230.67	5.64	
2025-01-07 20:30:37.26	230.70	5.65	
2025-01-07 20:30:37.46	230.72	5.66	
2025-01-07 20:30:37.67	230.75	5.68	
2025-01-07 20:30:37.88	230.78	5.69	
2025-01-07 20:30:38.09	230.80	5.70	
2025-01-07 20:30:38.30	230.83	5.71	
2025-01-07 20:30:38.50	230.85	5.72	
2025-01-07 20:30:38.71	230.88	5.73	
2025-01-07 20:30:38.91	230.91	5.74	
2025-01-07 20:30:39.12	230.93	5.75	
2025-01-07 20:30:39.32	230.96	5.76	
2025-01-07 20:30:39.53	230.99	5.77	
2025-01-07 20:30:39.74	231.01	5.79	
2025-01-07 20:30:39.94	231.04	5.80	
2025-01-07 20:30:40.15	231.07	5.81	
2025-01-07 20:30:40.35	231.09	5.82	
2025-01-07 20:30:40.56	231.12	5.83	
2025-01-07 20:30:40.76	231.15	5.84	
2025-01-07 20:30:40.98	231.17	5.85	
2025-01-07 20:30:41.18	231.20	5.86	
2025-01-07 20:30:41.39	231.23	5.87	
2025-01-07 20:30:41.60	231.25	5.88	
2025-01-07 20:30:41.80	231.28	5.89	
2025-01-07 20:30:42.00	231.31	5.90	
2025-01-07 20:30:42.21	231.33	5.92	
2025-01-07 20:30:42.42	231.36	5.93	
2025-01-07 20:30:42.62	231.39	5.94	
2025-01-07 20:30:42.83	231.41	5.95	
2025-01-07 20:30:43.03	231.44	5.96	
2025-01-07 20:30:43.25	231.47	5.97	
2025-01-07 20:30:43.46	231.50	5.98	
2025-01-07 20:30:43.66	231.52	5.99	
2025-01-07 20:30:43.87	231.55	6.00	
2025-01-07 20:30:44.07	231.58	6.01	
2025-01-07 20:30:44.28	231.60	6.03	
2025-01-07 20:30:44.49	231.63	6.04	
2025-01-07 20:30:44.69	231.66	6.05	
2025-01-07 20:30:44.90	231.68	6.06	
2025-01-07 20:30:45.10	231.71	6.07	
2025-01-07 20:30:45.31	231.74	6.08	
2025-01-07 20:30:45.51	231.77	6.09	
2025-01-07 20:30:45.72	231.79	6.10	
2025-01-07 20:30:45.92	231.82	6.11	
2025-01-07 20:30:46.13	231.85	6.12	
2025-01-07 20:30:46.33	231.87	6.13	
2025-01-07 20:30:46.54	231.90	6.15	
2025-01-07 20:30:46.74	231.93	6.16	
2025-01-07 20:30:46.95	231.96	6.17	
2025-01-07 20:30:47.15	231.98	6.18	
2025-01-07 20:30:47.36	232.01	6.19	
2025-01-07 20:30:47.57	232.04	6.20	
2025-01-07 20:30:47.77	232.06	6.21	
2025-01-07 20:30:47.98	232.09	6.22	
2025-01-07 20:30:48.18	232.12	6.23	
2025-01-07 20:30:48.39	232.15	6.24	
2025-01-07 20:30:48.59	232.17	6.25	
2025-01-07 20:30:48.80	232.20	6.27	
2025-01-07 20:30:49.00	232.23	6.28	
2025-01-07 20:30:49.21	232.26	6.29	
2025-01-07 20:30:49.41	232.28	6.30	
2025-01-07 20:30:49.62	232.31	6.31	
2025-01-07 20:30:49.82	232.34	6.32	
2025-01-07 20:30:50.03	232.37	6.33	
2025-01-07 20:30:50.24	232.39	6.34	
2025-01-07 20:30:50.44	232.42	6.35	
2025-01-07 20:30:50.64	232.45	6.36	
2025-01-07 20:30:50.85	232.48	6.37	
2025-01-07 20:30:51.05	232.50	6.38	
2025-01-07 20:30:51.26	232.53	6.40	
2025-01-07 20:30:51.47	232.56	6.41	
2025-01-07 20:30:51.67	232.59	6.42	
2025-01-07 20:30:51.88	232.61	6.43	
2025-01-07 20:30:52.08	232.64	6.44	
2025-01-07 20:30:52.29	232.67	6.45	
2025-01-07 20:30:52.49	232.70	6.46	
2025-01-07 20:30:52.70	232.72	6.47	
2025-01-07 20:30:52.90	232.75	6.48	
2025-01-07 20:30:53.11	232.78	6.49	
2025-01-07 20:30:53.31	232.81	6.50	
2025-01-07 20:30:53.52	232.84	6.52	
2025-01-07 20:30:53.72	232.86	6.53	
2025-01-07 20:30:53.93	232.89	6.54	
2025-01-07 20:30:54.13	232.92	6.55	
2025-01-07 20:30:54.34	232.95	6.56	
2025-01-07 20:30:54.54	232.97	6.57	
2025-01-07 20:30:54.75	233.00	6.58	
2025-01-07 20:30:54.95	233.03	6.59	
2025-01-07 20:30:55.16	233.06	6.60	
2025-01-07 20:30:55.36	233.09	6.61	
2025-01-07 20:30:55.57	233.12	6.62	
2025-01-07 20:30:55.78	233.14	6.64	
2025-01-07 20:30:55.99	233.17	6.65	
2025-01-07 20:30:56.20	233.20	6.66	
2025-01-07 20:30:56.40	233.23	6.67	
2025-01-07 20:30:56.61	233.26	6.68	
2025-01-07 20:30:56.82	233.29	6.69	
2025-01-07 20:30:57.03	233.32	6.70	
2025-01-07 20:30:57.24	233.34	6.71	
2025-01-07 20:30:57.45	233.37	6.72	
2025-01-07 20:30:57.65	233.40	6.73	
2025-01-07 20:30:57.85	233.43	6.74	
2025-01-07 20:30:58.06	233.46	6.76	
2025-01-07 20:30:58.26	233.49	6.77	
2025-01-07 20:30:58.47	233.51	6.78	
2025-01-07 20:30:58.67	233.54	6.79	
2025-01-07 20:30:58.88	233.57	6.80	
2025-01-07 20:30:59.08	233.60	6.81	
2025-01-07 20:30:59.29	233.63	6.82	
2025-01-07 20:30:59.49	233.66	6.83	
2025-01-07 20:30:59.70	233.68	6.84	
2025-01-07 20:30:59.90	233.71	6.85	
2025-01-07 20:31:00.11	233.74	6.86	
2025-01-07 20:31:00.31	233.77	6.87	
2025-01-07 20:31:00.51	233.80	6.89	
2025-01-07 20:31:00.72	233.83	6.90	
2025-01-07 20:31:00.92	233.85	6.91	
2025-01-07 20:31:01.13	233.88	6.92	
2025-01-07 20:31:01.33	233.91	6.93	
2025-01-07 20:31:01.54	233.94	6.94	
2025-01-07 20:31:01.75	233.97	6.95	
2025-01-07 20:31:01.95	234.00	6.96	
2025-01-07 20:31:02.16	234.03	6.97	
2025-01-07 20:31:02.36	234.06	6.98	
2025-01-07 20:31:02.56	234.08	6.99	
2025-01-07 20:31:02.77	234.11	7.00	
2025-01-07 20:31:02.98	234.14	7.02	
2025-01-07 20:31:03.18	234.17	7.03	
2025-01-07 20:31:03.39	234.20	7.04	
2025-01-07 20:31:03.59	234.23	7.05	
2025-01-07 20:31:03.80	234.26	7.06	
2025-01-07 20:31:04.00	234.29	7.07	
2025-01-07 20:31:04.21	234.32	7.08	
2025-01-07 20:31:04.42	234.35	7.09	
2025-01-07 20:31:04.63	234.38	7.10	
2025-01-07 20:31:04.84	234.41	7.11	
2025-01-07 20:31:05.05	234.44	7.13	
2025-01-07 20:31:05.25	234.46	7.14	
2025-01-07 20:31:05.46	234.49	7.15	
2025-01-07 20:31:05.66	234.52	7.16	
2025-01-07 20:31:05.86	234.55	7.17	
2025-01-07 20:31:06.07	234.58	7.18	
2025-01-07 20:31:06.28	234.61	7.19	
2025-01-07 20:31:06.48	234.64	7.20	
2025-01-07 20:31:06.69	234.67	7.21	
2025-01-07 20:31:06.89	234.70	7.22	
2025-01-07 20:31:07.10	234.73	7.23	
2025-01-07 20:31:07.31	234.76	7.24	
2025-01-07 20:31:07.51	234.79	7.26	
2025-01-07 20:31:07.71	234.82	7.27	
2025-01-07 20:31:07.92	234.85	7.28	
2025-01-07 20:31:08.13	234.88	7.29	
2025-01-07 20:31:08.33	234.90	7.30	
2025-01-07 20:31:08.54	234.93	7.31	
2025-01-07 20:31:08.74	234.96	7.32	
2025-01-07 20:31:08.95	234.99	7.33	
2025-01-07 20:31:09.15	235.02	7.34	
2025-01-07 20:31:09.36	235.05	7.35	
2025-01-07 20:31:09.57	235.08	7.36	
2025-01-07 20:31:09.77	235.11	7.37	
2025-01-07 20:31:09.97	235.14	7.39	
2025-01-07 20:31:10.18	235.17	7.40	
2025-01-07 20:31:10.38	235.20	7.41	
2025-01-07 20:31:10.59	235.23	7.42	
2025-01-07 20:31:10.79	235.26	7.43	
2025-01-07 20:31:11.00	235.29	7.44	
2025-01-07 20:31:11.20	235.32	7.45	
2025-01-07 20:31:11.41	235.35	7.46	
2025-01-07 20:31:11.61	235.38	7.47	
2025-01-07 20:31:11.82	235.41	7.48	
2025-01-07 20:31:12.04	235.44	7.49	
2025-01-07 20:31:12.24	235.47	7.50	
2025-01-07 20:31:12.45	235.50	7.52	
2025-01-07 20:31:12.65	235.53	7.53	
2025-01-07 20:31:12.86	235.56	7.54	
2025-01-07 20:31:13.07	235.59	7.55	
2025-01-07 20:31:13.28	235.62	7.56	
2025-01-07 20:31:13.49	235.65	7.57	
2025-01-07 20:31:13.69	235.68	7.58	
2025-01-07 20:31:13.90	235.71	7.59	
2025-01-07 20:31:14.10	235.74	7.60	
2025-01-07 20:31:14.31	235.77	7.61	
2025-01-07 20:31:14.51	235.80	7.62	
2025-01-07 20:31:14.72	235.83	7.64	
2025-01-07 20:31:14.93	235.86	7.65	
2025-01-07 20:31:15.13	235.89	7.66	
2025-01-07 20:31:15.34	235.92	7.67	
2025-01-07 20:31:15.55	235.96	7.68	
2025-01-07 20:31:15.75	235.99	7.69	
2025-01-07 20:31:15.96	236.02	7.70	
2025-01-07 20:31:16.16	236.05	7.71	
2025-01-07 20:31:16.38	236.08	7.72	
2025-01-07 20:31:16.59	236.11	7.73	
2025-01-07 20:31:16.79	236.14	7.74	
2025-01-07 20:31:17.00	236.17	7.75	
2025-01-07 20:31:17.20	236.20	7.77	
2025-01-07 20:31:17.41	236.23	7.78	
2025-01-07 20:31:17.61	236.26	7.79	
2025-01-07 20:31:17.82	236.29	7.80	
2025-01-07 20:31:18.02	236.32	7.81	
2025-01-07 20:31:18.23	236.35	7.82	
2025-01-07 20:31:18.45	236.39	7.83	
2025-01-07 20:31:18.66	236.42	7.84	
2025-01-07 20:31:18.86	236.45	7.85	
2025-01-07 20:31:19.07	236.48	7.86	
2025-01-07 20:31:19.27	236.51	7.87	
2025-01-07 20:31:19.48	236.54	7.89	
2025-01-07 20:31:19.68	236.57	7.90	
2025-01-07 20:31:19.89	236.60	7.91	
2025-01-07 20:31:20.10	236.63	7.92	
2025-01-07 20:31:20.30	236.66	7.93	
2025-01-07 20:31:20.51	236.69	7.94	
2025-01-07 20:31:20.72	236.73	7.95	
2025-01-07 20:31:20.93	236.76	7.96	
2025-01-07 20:31:21.13	236.79	7.97	
2025-01-07 20:31:21.34	236.82	7.98	
2025-01-07 20:31:21.55	236.85	7.99	
2025-01-07 20:31:21.75	236.88	8.00	
2025-01-07 20:31:21.96	236.91	8.01	
2025-01-07 20:31:22.16	236.94	8.03	
2025-01-07 20:31:22.37	236.98	8.04	
2025-01-07 20:31:22.57	237.01	8.05	
2025-01-07 20:31:22.78	237.04	8.06	
2025-01-07 20:31:22.98	237.07	8.07	
2025-01-07 20:31:23.18	237.10	8.08	
2025-01-07 20:31:23.39	237.13	8.09	
2025-01-07 20:31:23.60	237.16	8.10	
2025-01-07 20:31:23.80	237.19	8.11	
2025-01-07 20:31:24.01	237.22	8.12	
2025-01-07 20:31:24.21	237.26	8.13	
2025-01-07 20:31:24.42	237.29	8.14	
2025-01-07 20:31:24.63	237.32	8.15	
2025-01-07 20:31:24.83	237.35	8.16	
2025-01-07 20:31:25.04	237.38	8.18	
2025-01-07 20:31:25.25	237.41	8.19	
2025-01-07 20:31:25.45	237.44	8.20	
2025-01-07 20:31:25.66	237.48	8.21	
2025-01-07 20:31:25.86	237.51	8.22	
2025-01-07 20:31:26.07	237.54	8.23	
2025-01-07 20:31:26.27	237.57	8.24	
2025-01-07 20:31:26.48	237.60	8.25	
2025-01-07 20:31:26.69	237.64	8.26	
2025-01-07 20:31:26.89	237.67	8.27	
2025-01-07 20:31:27.09	237.70	8.28	
2025-01-07 20:31:27.30	237.73	8.29	
2025-01-07 20:31:27.50	237.76	8.30	
2025-01-07 20:31:27.71	237.79	8.32	
2025-01-07 20:31:27.91	237.82	8.33	
2025-01-07 20:31:28.12	237.86	8.34	
2025-01-07 20:31:28.32	237.89	8.35	
2025-01-07 20:31:28.53	237.92	8.36	
2025-01-07 20:31:28.73	237.95	8.37	
2025-01-07 20:31:28.94	237.98	8.38	
2025-01-07 20:31:29.14	238.01	8.39	
2025-01-07 20:31:29.35	238.05	8.40	
2025-01-07 20:31:29.55	238.08	8.41	
2025-01-07 20:31:29.76	238.11	8.42	
2025-01-07 20:31:29.97	238.14	8.43	
2025-01-07 20:31:30.19	238.18	8.44	
2025-01-07 20:31:30.39	238.21	8.45	
2025-01-07 20:31:30.59	238.24	8.46	
2025-01-07 20:31:30.80	238.27	8.48	
2025-01-07 20:31:31.01	238.31	8.49	
2025-01-07 20:31:31.21	238.34	8.50	
2025-01-07 20:31:31.41	238.37	8.51	
2025-01-07 20:31:31.62	238.40	8.52	
2025-01-07 20:31:31.82	238.43	8.53	
2025-01-07 20:31:32.03	238.47	8.54	
2025-01-07 20:31:32.24	238.50	8.55	
2025-01-07 20:31:32.44	238.53	8.56	
2025-01-07 20:31:32.65	238.56	8.57	
2025-01-07 20:31:32.85	238.59	8.58	
2025-01-07 20:31:33.06	238.63	8.59	
2025-01-07 20:31:33.26	238.66	8.60	
2025-01-07 20:31:33.47	238.69	8.61	
2025-01-07 20:31:33.67	238.72	8.62	
2025-01-07 20:31:33.88	238.76	8.64	
2025-01-07 20:31:34.08	238.79	8.65	
2025-01-07 20:31:34.29	238.82	8.66	
2025-01-07 20:31:34.50	238.86	8.67	
2025-01-07 20:31:34.70	238.89	8.68	
2025-01-07 20:31:34.91	238.92	8.69	
2025-01-07 20:31:35.11	238.95	8.70	
2025-01-07 20:31:35.32	238.99	8.71	
2025-01-07 20:31:35.52	239.02	8.72	
2025-01-07 20:31:35.73	239.05	8.73	
2025-01-07 20:31:35.94	239.08	8.74	
2025-01-07 20:31:36.14	239.12	8.75	
2025-01-07 20:31:36.35	239.15	8.76	
2025-01-07 20:31:36.55	239.18	8.77	
2025-01-07 20:31:36.75	239.21	8.78	
2025-01-07 20:31:36.96	239.25	8.79	
2025-01-07 20:31:37.17	239.28	8.81	
2025-01-07 20:31:37.37	239.31	8.82	
2025-01-07 20:31:37.58	239.35	8.83	
2025-01-07 20:31:37.78	239.38	8.84	
2025-01-07 20:31:37.98	239.41	8.85	
2025-01-07 20:31:38.19	239.44	8.86	
2025-01-07 20:31:38.40	239.48	8.87	
2025-01-07 20:31:38.60	239.51	8.88	
2025-01-07 20:31:38.81	239.54	8.89	
2025-01-07 20:31:39.01	239.58	8.90	
2025-01-07 20:31:39.22	239.61	8.91	
2025-01-07 20:31:39.42	239.64	8.92	
2025-01-07 20:31:39.63	239.68	8.93	
2025-01-07 20:31:39.83	239.71	8.94	
2025-01-07 20:31:40.04	239.74	8.95	
2025-01-07 20:31:40.24	239.77	8.96	
2025-01-07 20:31:40.45	239.81	8.97	
2025-01-07 20:31:40.65	239.84	8.98	
2025-01-07 20:31:40.86	239.88	8.99	
2025-01-07 20:31:41.06	239.91	9.00	
2025-01-07 20:31:41.27	239.94	9.02	
2025-01-07 20:31:41.47	239.97	9.03	
2025-01-07 20:31:41.68	240.01	9.04	
2025-01-07 20:31:41.89	240.04	9.05	
2025-01-07 20:31:42.09	240.08	9.06	
2025-01-07 20:31:42.30	240.11	9.07	
2025-01-07 20:31:42.50	240.14	9.08	
2025-01-07 20:31:42.71	240.18	9.09	
2025-01-07 20:31:42.91	240.21	9.10	
2025-01-07 20:31:43.12	240.24	9.11	
2025-01-07 20:31:43.32	240.28	9.12	
2025-01-07 20:31:43.53	240.31	9.13	
2025-01-07 20:31:43.73	240.34	9.14	
2025-01-07 20:31:43.94	240.38	9.15	
2025-01-07 20:31:44.14	240.41	9.16	
2025-01-07 20:31:44.35	240.45	9.17	
2025-01-07 20:31:44.55	240.48	9.18	
2025-01-07 20:31:44.76	240.51	9.19	
2025-01-07 20:31:44.97	240.55	9.20	
2025-01-07 20:31:45.17	240.58	9.21	
2025-01-07 20:31:45.38	240.61	9.23	
2025-01-07 20:31:45.58	240.65	9.24	
2025-01-07 20:31:45.79	240.68	9.25	
2025-01-07 20:31:45.99	240.72	9.26	
2025-01-07 20:31:46.19	240.75	9.27	
2025-01-07 20:31:46.40	240.78	9.28	
2025-01-07 20:31:46.60	240.82	9.29	
2025-01-07 20:31:46.81	240.85	9.30	
2025-01-07 20:31:47.02	240.89	9.31	
2025-01-07 20:31:47.22	240.92	9.32	
2025-01-07 20:31:47.43	240.95	9.33	
2025-01-07 20:31:47.63	240.99	9.34	
2025-01-07 20:31:47.84	241.02	9.35	
2025-01-07 20:31:48.04	241.06	9.36	
2025-01-07 20:31:48.25	241.09	9.37	
2025-01-07 20:31:48.47	241.13	9.38	
2025-01-07 20:31:48.67	241.16	9.39	
2025-01-07 20:31:48.88	241.20	9.40	
2025-01-07 20:31:49.08	241.23	9.41	
2025-01-07 20:31:49.29	241.26	9.42	
2025-01-07 20:31:49.49	241.30	9.43	
2025-01-07 20:31:49.70	241.33	9.44	
2025-01-07 20:31:49.90	241.37	9.45	
2025-01-07 20:31:50.11	241.40	9.47	
2025-01-07 20:31:50.31	241.44	9.48	
2025-01-07 20:31:50.52	241.47	9.49	
2025-01-07 20:31:50.72	241.50	9.50	
2025-01-07 20:31:50.93	241.54	9.51	
2025-01-07 20:31:51.14	241.58	9.52	
2025-01-07 20:31:51.34	241.61	9.53	
2025-01-07 20:31:51.55	241.64	9.54	
2025-01-07 20:31:51.75	241.68	9.55	
2025-01-07 20:31:51.96	241.71	9.56	
2025-01-07 20:31:52.16	241.75	9.57	
2025-01-07 20:31:52.37	241.78	9.58	
2025-01-07 20:31:52.57	241.82	9.59	
2025-01-07 20:31:52.78	241.85	9.60	
2025-01-07 20:31:52.98	241.89	9.61	
2025-01-07 20:31:53.19	241.92	9.62	
2025-01-07 20:31:53.40	241.96	9.63	
2025-01-07 20:31:53.60	241.99	9.64	
2025-01-07 20:31:53.80	242.03	9.65	
2025-01-07 20:31:54.01	242.06	9.66	
2025-01-07 20:31:54.22	242.10	9.67	
2025-01-07 20:31:54.42	242.13	9.68	
2025-01-07 20:31:54.63	242.17	9.69	
2025-01-07 20:31:54.83	242.20	9.70	
2025-01-07 20:31:55.04	242.24	9.71	
2025-01-07 20:31:55.24	242.27	9.72	
2025-01-07 20:31:55.45	242.31	9.73	
2025-01-07 20:31:55.65	242.34	9.74	
2025-01-07 20:31:55.86	242.38	9.75	
2025-01-07 20:31:56.06	242.41	9.76	
2025-01-07 20:31:56.27	242.45	9.77	
2025-01-07 20:31:56.48	242.48	9.79	
2025-01-07 20:31:56.68	242.52	9.80	
2025-01-07 20:31:56.88	242.55	9.81	
2025-01-07 20:31:57.09	242.59	9.82	
2025-01-07 20:31:57.30	242.62	9.83	
2025-01-07 20:31:57.50	242.66	9.84	
2025-01-07 20:31:57.71	242.70	9.85	
2025-01-07 20:31:57.91	242.73	9.86	
2025-01-07 20:31:58.12	242.77	9.87	
2025-01-07 20:31:58.33	242.80	9.88	
2025-01-07 20:31:58.53	242.84	9.89	
2025-01-07 20:31:58.74	242.87	9.90	
2025-01-07 20:31:58.94	242.91	9.91	
2025-01-07 20:31:59.16	242.95	9.92	
2025-01-07 20:31:59.37	242.98	9.93	
2025-01-07 20:31:59.57	243.02	9.94	
2025-01-07 20:31:59.78	243.05	9.95	
2025-01-07 20:31:59.98	243.09	9.96	
2025-01-07 20:32:00.19	243.12	9.97	
2025-01-07 20:32:00.39	243.16	9.98	
2025-01-07 20:32:00.60	243.20	9.99	
2025-01-07 20:32:00.80	243.23	10.00	
2025-01-07 20:32:01.01	243.27	10.01	
2025-01-07 20:32:01.21	243.30	10.02	
2025-01-07 20:32:01.42	243.34	10.03	
2025-01-07 20:32:01.62	243.37	10.04	
2025-01-07 20:32:01.83	243.41	10.05	
2025-01-07 20:32:02.03	243.45	10.06	
2025-01-07 20:32:02.24	243.48	10.07	
2025-01-07 20:32:02.45	243.52	10.08	
2025-01-07 20:32:02.65	243.55	10.09	
2025-01-07 20:32:02.86	243.59	10.10	
2025-01-07 20:32:03.06	243.63	10.11	
2025-01-07 20:32:03.27	243.66	10.12	
2025-01-07 20:32:03.47	243.70	10.13	
2025-01-07 20:32:03.68	243.74	10.14	
2025-01-07 20:32:03.88	243.77	10.15	
2025-01-07 20:32:04.09	243.81	10.16	
2025-01-07 20:32:04.29	243.84	10.17	
2025-01-07 20:32:04.49	243.88	10.18	
2025-01-07 20:32:04.70	243.92	10.19	
2025-01-07 20:32:04.91	243.95	10.20	
2025-01-07 20:32:05.11	243.99	10.21	
2025-01-07 20:32:05.32	244.03	10.22	
2025-01-07 20:32:05.52	244.06	10.23	
2025-01-07 20:32:05.73	244.10	10.24	
2025-01-07 20:32:05.93	244.13	10.25	
2025-01-07 20:32:06.14	244.17	10.26	
2025-01-07 20:32:06.34	244.21	10.27	
2025-01-07 20:32:06.55	244.24	10.28	
2025-01-07 20:32:06.75	244.28	10.29	
2025-01-07 20:32:06.96	244.32	10.30	
2025-01-07 20:32:07.16	244.35	10.31	
2025-01-07 20:32:07.37	244.39	10.32	
2025-01-07 20:32:07.57	244.43	10.33	
2025-01-07 20:32:07.78	244.46	10.34	
2025-01-07 20:32:07.98	244.50	10.35	
2025-01-07 20:32:08.19	244.54	10.36	
2025-01-07 20:32:08.39	244.57	10.37	
2025-01-07 20:32:08.61	244.61	10.38	
2025-01-07 20:32:08.82	244.65	10.39	
2025-01-07 20:32:09.02	244.69	10.40	
2025-01-07 20:32:09.23	244.72	10.41	
2025-01-07 20:32:09.43	244.76	10.42	
2025-01-07 20:32:09.64	244.80	10.43	
2025-01-07 20:32:09.84	244.83	10.44	
2025-01-07 20:32:10.05	244.87	10.45	
2025-01-07 20:32:10.26	244.91	10.46	
2025-01-07 20:32:10.46	244.94	10.47	
2025-01-07 20:32:10.67	244.98	10.48	
2025-01-07 20:32:10.87	245.02	10.49	
2025-01-07 20:32:11.08	245.06	10.50	
2025-01-07 20:32:11.28	245.09	10.51	
2025-01-07 20:32:11.49	245.13	10.52	
2025-01-07 20:32:11.69	245.17	10.53	
2025-01-07 20:32:11.89	245.20	10.54	
2025-01-07 20:32:12.10	245.24	10.55	
2025-01-07 20:32:12.31	245.28	10.56	
2025-01-07 20:32:12.51	245.32	10.57	
2025-01-07 20:32:12.72	245.35	10.58	
2025-01-07 20:32:12.92	245.39	10.59	
2025-01-07 20:32:13.12	245.43	10.60	
2025-01-07 20:32:13.33	245.46	10.61	
2025-01-07 20:32:13.53	245.50	10.62	
2025-01-07 20:32:13.74	245.54	10.63	
2025-01-07 20:32:13.95	245.58	10.64	
2025-01-07 20:32:14.15	245.61	10.65	
2025-01-07 20:32:14.36	245.65	10.66	
2025-01-07 20:32:14.56	245.69	10.67	
2025-01-07 20:32:14.77	245.73	10.68	
2025-01-07 20:32:14.97	245.76	10.69	
2025-01-07 20:32:15.18	245.80	10.70	
2025-01-07 20:32:15.38	245.84	10.71	
2025-01-07 20:32:15.59	245.88	10.72	
2025-01-07 20:32:15.79	245.91	10.73	
2025-01-07 20:32:15.99	245.95	10.74	
2025-01-07 20:32:16.20	245.99	10.75	
2025-01-07 20:32:16.40	246.03	10.76	
2025-01-07 20:32:16.61	246.07	10.77	
2025-01-07 20:32:16.81	246.10	10.78	
2025-01-07 20:32:17.02	246.14	10.79	
2025-01-07 20:32:17.22	246.18	10.80	
2025-01-07 20:32:17.43	246.22	10.81	
2025-01-07 20:32:17.64	246.26	10.81	
2025-01-07 20:32:17.84	246.29	10.82	
2025-01-07 20:32:18.05	246.33	10.83	
2025-01-07 20:32:18.25	246.37	10.84	
2025-01-07 20:32:18.46	246.41	10.85	
2025-01-07 20:32:18.66	246.44	10.86	
2025-01-07 20:32:18.87	246.48	10.87	
2025-01-07 20:32:19.07	246.52	10.88	
2025-01-07 20:32:19.28	246.56	10.89	
2025-01-07 20:32:19.48	246.60	10.90	
2025-01-07 20:32:19.69	246.64	10.91	
2025-01-07 20:32:19.89	246.67	10.92	
2025-01-07 20:32:20.10	246.71	10.93	
2025-01-07 20:32:20.30	246.75	10.94	
2025-01-07 20:32:20.51	246.79	10.95	
2025-01-07 20:32:20.71	246.83	10.96	
2025-01-07 20:32:20.92	246.87	10.97	
2025-01-07 20:32:21.13	246.90	10.98	
2025-01-07 20:32:21.33	246.94	10.99	
2025-01-07 20:32:21.54	246.98	11.00	
2025-01-07 20:32:21.75	247.02	11.01	
2025-01-07 20:32:21.96	247.06	11.02	
2025-01-07 20:32:22.16	247.10	11.03	
2025-01-07 20:32:22.37	247.14	11.04	
2025-01-07 20:32:22.57	247.17	11.05	
2025-01-07 20:32:22.78	247.21	11.06	
2025-01-07 20:32:22.98	247.25	11.06	
2025-01-07 20:32:23.19	247.29	11.07	
2025-01-07 20:32:23.39	247.33	11.08	
2025-01-07 20:32:23.61	247.37	11.09	
2025-01-07 20:32:23.82	247.41	11.10	
2025-01-07 20:32:24.02	247.45	11.11	
2025-01-07 20:32:24.23	247.49	11.12	
2025-01-07 20:32:24.43	247.53	11.13	
2025-01-07 20:32:24.64	247.56	11.14	
2025-01-07 20:32:24.84	247.60	11.15	
2025-01-07 20:32:25.05	247.64	11.16	
2025-01-07 20:32:25.25	247.68	11.17	
2025-01-07 20:32:25.46	247.72	11.18	
2025-01-07 20:32:25.66	247.76	11.19	
2025-01-07 20:32:25.87	247.80	11.20	
2025-01-07 20:32:26.08	247.84	11.21	
2025-01-07 20:32:26.28	247.88	11.22	
2025-01-07 20:32:26.49	247.92	11.23	
2025-01-07 20:32:26.69	247.95	11.24	
2025-01-07 20:32:26.90	247.99	11.25	
2025-01-07 20:32:27.10	248.03	11.25	
2025-01-07 20:32:27.31	248.07	11.26	
2025-01-07 20:32:27.51	248.11	11.27	
2025-01-07 20:32:27.72	248.15	11.28	
2025-01-07 20:32:27.92	248.19	11.29	
2025-01-07 20:32:28.13	248.23	11.30	
2025-01-07 20:32:28.33	248.27	11.31	
2025-01-07 20:32:28.54	248.31	11.32	
2025-01-07 20:32:28.74	248.35	11.33	
2025-01-07 20:32:28.95	248.39	11.34	
2025-01-07 20:32:29.15	248.42	11.35	
2025-01-07 20:32:29.36	248.46	11.36	
2025-01-07 20:32:29.57	248.51	11.37	
2025-01-07 20:32:29.77	248.54	11.38	
2025-01-07 20:32:29.99	248.59	11.39	
2025-01-07 20:32:30.19	248.62	11.40	
2025-01-07 20:32:30.40	248.66	11.40	
2025-01-07 20:32:30.61	248.71	11.41	
2025-01-07 20:32:30.81	248.74	11.42	
2025-01-07 20:32:31.01	248.78	11.43	
2025-01-07 20:32:31.23	248.83	11.44	
2025-01-07 20:32:31.44	248.87	11.45	
2025-01-07 20:32:31.64	248.90	11.46	
2025-01-07 20:32:31.85	248.95	11.47	
2025-01-07 20:32:32.05	248.98	11.48	
2025-01-07 20:32:32.26	249.02	11.49	
2025-01-07 20:32:32.46	249.06	11.50	
2025-01-07 20:32:32.67	249.10	11.51	
2025-01-07 20:32:32.87	249.14	11.52	
2025-01-07 20:32:33.08	249.18	11.52	
2025-01-07 20:32:33.28	249.22	11.53	
2025-01-07 20:32:33.49	249.26	11.54	
2025-01-07 20:32:33.69	249.30	11.55	
2025-01-07 20:32:33.90	249.34	11.56	
2025-01-07 20:32:34.10	249.38	11.57	
2025-01-07 20:32:34.31	249.42	11.58	
2025-01-07 20:32:34.51	249.46	11.59	
2025-01-07 20:32:34.72	249.50	11.60	
2025-01-07 20:32:34.92	249.54	11.61	
2025-01-07 20:32:35.13	249.58	11.62	
2025-01-07 20:32:35.33	249.62	11.62	
2025-01-07 20:32:35.54	249.66	11.63	
2025-01-07 20:32:35.75	249.70	11.64	
2025-01-07 20:32:35.95	249.74	11.65	
2025-01-07 20:32:36.16	249.79	11.66	
2025-01-07 20:32:36.36	249.82	11.67	
2025-01-07 20:32:36.56	249.86	11.68	
2025-01-07 20:32:36.77	249.91	11.69	
2025-01-07 20:32:36.98	249.95	11.70	
2025-01-07 20:32:37.18	249.99	11.71	
2025-01-07 20:32:37.39	250.03	11.72	
2025-01-07 20:32:37.59	250.07	11.72	
2025-01-07 20:32:37.80	250.11	11.73	
2025-01-07 20:32:38.01	250.15	11.74	
2025-01-07 20:32:38.21	250.19	11.75	
2025-01-07 20:32:38.42	250.23	11.76	
2025-01-07 20:32:38.62	250.27	11.77	
2025-01-07 20:32:38.83	250.31	11.78	
2025-01-07 20:32:39.03	250.35	11.79	
2025-01-07 20:32:39.24	250.39	11.80	
2025-01-07 20:32:39.45	250.43	11.80	
2025-01-07 20:32:39.67	250.48	11.81	
2025-01-07 20:32:39.87	250.52	11.82	
2025-01-07 20:32:40.08	250.56	11.83	
2025-01-07 20:32:40.28	250.60	11.84	
2025-01-07 20:32:40.49	250.64	11.85	
2025-01-07 20:32:40.69	250.68	11.86	
2025-01-07 20:32:40.90	250.72	11.87	
2025-01-07 20:32:41.10	250.76	11.88	
2025-01-07 20:32:41.31	250.80	11.89	
2025-01-07 20:32:41.52	250.85	11.89	
2025-01-07 20:32:41.72	250.89	11.90	
2025-01-07 20:32:41.92	250.93	11.91	
2025-01-07 20:32:42.13	250.97	11.92	
2025-01-07 20:32:42.33	251.01	11.93	
2025-01-07 20:32:42.54	251.05	11.94	
2025-01-07 20:32:42.75	251.09	11.95	
2025-01-07 20:32:42.95	251.13	11.96	
2025-01-07 20:32:43.15	251.17	11.96	
2025-01-07 20:32:43.36	251.21	11.97	
2025-01-07 20:32:43.56	251.25	11.98	
2025-01-07 20:32:43.77	251.30	11.99	
2025-01-07 20:32:43.97	251.34	12.00	
2025-01-07 20:32:44.18	251.38	12.01	
2025-01-07 20:32:44.38	251.42	12.02	
2025-01-07 20:32:44.59	251.46	12.02	
2025-01-07 20:32:44.80	251.50	12.03	
2025-01-07 20:32:45.00	251.54	12.04	
2025-01-07 20:32:45.20	251.58	12.05	
2025-01-07 20:32:45.41	251.63	12.06	
2025-01-07 20:32:45.61	251.67	12.07	
2025-01-07 20:32:45.82	251.71	12.08	
2025-01-07 20:32:46.03	251.75	12.09	
2025-01-07 20:32:46.23	251.79	12.09	
2025-01-07 20:32:46.43	251.83	12.10	
2025-01-07 20:32:46.64	251.88	12.11	
2025-01-07 20:32:46.85	251.92	12.12	
2025-01-07 20:32:47.05	251.96	12.13	
2025-01-07 20:32:47.25	252.00	12.14	
2025-01-07 20:32:47.46	252.04	12.15	
2025-01-07 20:32:47.67	252.09	12.15	
2025-01-07 20:32:47.87	252.13	12.16	
2025-01-07 20:32:48.08	252.17	12.17	
2025-01-07 20:32:48.28	252.21	12.18	
2025-01-07 20:32:48.49	252.25	12.19	
2025-01-07 20:32:48.69	252.29	12.20	
2025-01-07 20:32:48.90	252.34	12.20	
2025-01-07 20:32:49.11	252.38	12.21	
2025-01-07 20:32:49.31	252.42	12.22	
2025-01-07 20:32:49.52	252.46	12.23	
2025-01-07 20:32:49.72	252.50	12.24	
2025-01-07 20:32:49.93	252.55	12.25	
2025-01-07 20:32:50.14	252.59	12.26	
2025-01-07 20:32:50.34	252.63	12.26	
2025-01-07 20:32:50.55	252.67	12.27	
2025-01-07 20:32:50.75	252.71	12.28	
2025-01-07 20:32:50.96	252.76	12.29	
2025-01-07 20:32:51.16	252.80	12.30	
2025-01-07 20:32:51.37	252.84	12.31	
2025-01-07 20:32:51.57	252.88	12.31	
2025-01-07 20:32:51.78	252.93	12.32	
2025-01-07 20:32:51.98	252.97	12.33	
2025-01-07 20:32:52.19	253.01	12.34	
2025-01-07 20:32:52.40	253.05	12.35	
2025-01-07 20:32:52.60	253.09	12.36	
2025-01-07 20:32:52.81	253.14	12.36	
2025-01-07 20:32:53.01	253.18	12.37	
2025-01-07 20:32:53.22	253.22	12.38	
2025-01-07 20:32:53.42	253.26	12.39	
2025-01-07 20:32:53.63	253.31	12.40	
2025-01-07 20:32:53.83	253.35	12.41	
2025-01-07 20:32:54.04	253.39	12.41	
2025-01-07 20:32:54.24	253.43	12.42	
2025-01-07 20:32:54.45	253.48	12.43	
2025-01-07 20:32:54.65	253.52	12.44	
2025-01-07 20:32:54.86	253.56	12.45	
2025-01-07 20:32:55.06	253.60	12.45	
2025-01-07 20:32:55.27	253.65	12.46	
2025-01-07 20:32:55.48	253.69	12.47	
2025-01-07 20:32:55.68	253.73	12.48	
2025-01-07 20:32:55.88	253.77	12.49	
2025-01-07 20:32:56.09	253.82	12.49	
2025-01-07 20:32:56.29	253.86	12.50	
2025-01-07 20:32:56.50	253.90	12.51	
2025-01-07 20:32:56.70	253.94	12.52	
2025-01-07 20:32:56.91	253.99	12.53	
2025-01-07 20:32:57.11	254.03	12.53	
2025-01-07 20:32:57.32	254.07	12.54	
2025-01-07 20:32:57.52	254.12	12.55	
2025-01-07 20:32:57.73	254.16	12.56	
2025-01-07 20:32:57.93	254.20	12.57	
2025-01-07 20:32:58.14	254.25	12.58	
2025-01-07 20:32:58.34	254.29	12.58	
2025-01-07 20:32:58.55	254.33	12.59	
2025-01-07 20:32:58.75	254.37	12.60	
2025-01-07 20:32:58.96	254.42	12.61	
2025-01-07 20:32:59.16	254.46	12.61	
2025-01-07 20:32:59.37	254.50	12.62	
2025-01-07 20:32:59.58	254.55	12.63	
2025-01-07 20:32:59.78	254.59	12.64	
2025-01-07 20:32:59.99	254.63	12.65	
2025-01-07 20:33:00.19	254.68	12.65	
2025-01-07 20:33:00.40	254.72	12.66	
2025-01-07 20:33:00.60	254.76	12.67	
2025-01-07 20:33:00.81	254.81	12.68	
2025-01-07 20:33:01.01	254.85	12.69	
2025-01-07 20:33:01.22	254.89	12.69	
2025-01-07 20:33:01.42	254.94	12.70	
2025-01-07 20:33:01.63	254.98	12.71	
2025-01-07 20:33:01.84	255.02	12.72	
2025-01-07 20:33:02.04	255.07	12.73	
2025-01-07 20:33:02.25	255.11	12.73	
2025-01-07 20:33:02.45	255.15	12.74	
2025-01-07 20:33:02.66	255.20	12.75	
2025-01-07 20:33:02.87	255.24	12.76	
2025-01-07 20:33:03.07	255.29	12.76	
2025-01-07 20:33:03.28	255.33	12.77	
2025-01-07 20:33:03.48	255.37	12.78	
2025-01-07 20:33:03.68	255.41	12.79	
2025-01-07 20:33:03.89	255.46	12.79	
2025-01-07 20:33:04.10	255.50	12.80	
2025-01-07 20:33:04.30	255.55	12.81	
2025-01-07 20:33:04.50	255.59	12.82	
2025-01-07 20:33:04.71	255.63	12.83	
2025-01-07 20:33:04.91	255.68	12.83	
2025-01-07 20:33:05.12	255.72	12.84	
2025-01-07 20:33:05.34	255.77	12.85	
2025-01-07 20:33:05.54	255.81	12.86	
2025-01-07 20:33:05.75	255.86	12.86	
2025-01-07 20:33:05.96	255.90	12.87	
2025-01-07 20:33:06.16	255.94	12.88	
2025-01-07 20:33:06.36	255.99	12.89	
2025-01-07 20:33:06.57	256.03	12.89	
2025-01-07 20:33:06.78	256.08	12.90	
2025-01-07 20:33:06.98	256.12	12.91	
2025-01-07 20:33:07.19	256.16	12.92	
2025-01-07 20:33:07.39	256.21	12.92	
2025-01-07 20:33:07.60	256.25	12.93	
2025-01-07 20:33:07.80	256.30	12.94	
2025-01-07 20:33:08.01	256.34	12.95	
2025-01-07 20:33:08.21	256.38	12.95	
2025-01-07 20:33:08.42	256.43	12.96	
2025-01-07 20:33:08.62	256.47	12.97	
2025-01-07 20:33:08.83	256.52	12.98	
2025-01-07 20:33:09.03	256.56	12.98	
2025-01-07 20:33:09.24	256.61	12.99	
2025-01-07 20:33:09.45	256.65	13.00	
2025-01-07 20:33:09.65	256.69	13.01	
2025-01-07 20:33:09.85	256.74	13.01	
2025-01-07 20:33:10.06	256.78	13.02	
2025-01-07 20:33:10.26	256.83	13.03	
2025-01-07 20:33:10.47	256.87	13.03	
2025-01-07 20:33:10.67	256.91	13.04	
2025-01-07 20:33:10.88	256.96	13.05	
2025-01-07 20:33:11.09	257.00	13.06	
2025-01-07 20:33:11.29	257.05	13.06	
2025-01-07 20:33:11.50	257.09	13.07	
2025-01-07 20:33:11.70	257.14	13.08	
2025-01-07 20:33:11.91	257.18	13.09	
2025-01-07 20:33:12.11	257.23	13.09	
2025-01-07 20:33:12.32	257.27	13.10	
2025-01-07 20:33:12.53	257.32	13.11	
2025-01-07 20:33:12.73	257.36	13.11	
2025-01-07 20:33:12.93	257.40	13.12	
2025-01-07 20:33:13.14	257.45	13.13	
2025-01-07 20:33:13.34	257.49	13.14	
2025-01-07 20:33:13.55	257.54	13.14	
2025-01-07 20:33:13.76	257.59	13.15	
2025-01-07 20:33:13.96	257.63	13.16	
2025-01-07 20:33:14.16	257.67	13.16	
2025-01-07 20:33:14.37	257.72	13.17	
2025-01-07 20:33:14.57	257.76	13.18	
2025-01-07 20:33:14.78	257.81	13.18	
2025-01-07 20:33:14.98	257.85	13.19	
2025-01-07 20:33:15.19	257.90	13.20	
2025-01-07 20:33:15.39	257.94	13.21	
2025-01-07 20:33:15.60	257.99	13.21	
2025-01-07 20:33:15.81	258.03	13.22	
2025-01-07 20:33:16.01	258.08	13.23	
2025-01-07 20:33:16.21	258.12	13.23	
2025-01-07 20:33:16.42	258.17	13.24	
2025-01-07 20:33:16.62	258.21	13.25	
2025-01-07 20:33:16.83	258.26	13.25	
2025-01-07 20:33:17.03	258.30	13.26	
2025-01-07 20:33:17.24	258.35	13.27	
2025-01-07 20:33:17.44	258.39	13.27	
2025-01-07 20:33:17.65	258.44	13.28	
2025-01-07 20:33:17.85	258.48	13.29	
2025-01-07 20:33:18.06	258.53	13.29	
2025-01-07 20:33:18.27	258.57	13.30	
2025-01-07 20:33:18.47	258.62	13.31	
2025-01-07 20:33:18.68	258.66	13.32	
2025-01-07 20:33:18.88	258.71	13.32	
2025-01-07 20:33:19.09	258.75	13.33	
2025-01-07 20:33:19.29	258.80	13.34	
2025-01-07 20:33:19.49	258.84	13.34	
2025-01-07 20:33:19.70	258.89	13.35	
2025-01-07 20:33:19.91	258.94	13.36	
2025-01-07 20:33:20.11	258.98	13.36	
2025-01-07 20:33:20.33	259.03	13.37	
2025-01-07 20:33:20.53	259.07	13.38	
2025-01-07 20:33:20.74	259.12	13.38	
2025-01-07 20:33:20.95	259.17	13.39	
2025-01-07 20:33:21.15	259.21	13.40	
2025-01-07 20:33:21.35	259.26	13.40	
2025-01-07 20:33:21.56	259.30	13.41	
2025-01-07 20:33:21.76	259.35	13.42	
2025-01-07 20:33:21.97	259.39	13.42	
2025-01-07 20:33:22.17	259.44	13.43	
2025-01-07 20:33:22.38	259.48	13.44	
2025-01-07 20:33:22.58	259.53	13.44	
2025-01-07 20:33:22.79	259.58	13.45	
2025-01-07 20:33:22.99	259.62	13.45	
2025-01-07 20:33:23.20	259.67	13.46	
2025-01-07 20:33:23.41	259.71	13.47	
2025-01-07 20:33:23.61	259.76	13.47	
2025-01-07 20:33:23.81	259.80	13.48	
2025-01-07 20:33:24.02	259.85	13.49	
2025-01-07 20:33:24.23	259.90	13.49	
2025-01-07 20:33:24.43	259.94	13.50	
2025-01-07 20:33:24.63	259.99	13.51	
2025-01-07 20:33:24.84	260.03	13.51	
2025-01-07 20:33:25.05	260.08	13.52	
2025-01-07 20:33:25.25	260.12	13.52	
2025-01-07 20:33:25.46	260.17	13.53	
2025-01-07 20:33:25.66	260.22	13.54	
2025-01-07 20:33:25.87	260.26	13.54	
2025-01-07 20:33:26.07	260.31	13.55	
2025-01-07 20:33:26.28	260.36	13.56	
2025-01-07 20:33:26.48	260.40	13.56	
2025-01-07 20:33:26.69	260.45	13.57	
2025-01-07 20:33:26.89	260.49	13.57	
2025-01-07 20:33:27.10	260.54	13.58	
2025-01-07 20:33:27.30	260.58	13.59	
2025-01-07 20:33:27.51	260.63	13.59	
2025-01-07 20:33:27.71	260.68	13.60	
2025-01-07 20:33:27.92	260.72	13.61	
2025-01-07 20:33:28.13	260.77	13.61	
2025-01-07 20:33:28.33	260.82	13.62	
2025-01-07 20:33:28.54	260.86	13.62	
2025-01-07 20:33:28.75	260.91	13.63	
2025-01-07 20:33:28.95	260.96	13.64	
2025-01-07 20:33:29.16	261.00	13.64	
2025-01-07 20:33:29.36	261.05	13.65	
2025-01-07 20:33:29.56	261.09	13.65	
2025-01-07 20:33:29.77	261.14	13.66	
2025-01-07 20:33:29.97	261.19	13.67	
2025-01-07 20:33:30.18	261.23	13.67	
2025-01-07 20:33:30.39	261.28	13.68	
2025-01-07 20:33:30.59	261.33	13.68	
2025-01-07 20:33:30.80	261.37	13.69	
2025-01-07 20:33:31.00	261.42	13.70	
2025-01-07 20:33:31.21	261.47	13.70	
2025-01-07 20:33:31.41	261.51	13.71	
2025-01-07 20:33:31.61	261.56	13.71	
2025-01-07 20:33:31.82	261.61	13.72	
2025-01-07 20:33:32.02	261.65	13.72	
2025-01-07 20:33:32.23	261.70	13.73	
2025-01-07 20:33:32.44	261.75	13.74	
2025-01-07 20:33:32.64	261.79	13.74	
2025-01-07 20:33:32.85	261.84	13.75	
2025-01-07 20:33:33.05	261.88	13.75	
2025-01-07 20:33:33.25	261.93	13.76	
2025-01-07 20:33:33.46	261.98	13.77	
2025-01-07 20:33:33.66	262.02	13.77	
2025-01-07 20:33:33.87	262.07	13.78	
2025-01-07 20:33:34.07	262.12	13.78	
2025-01-07 20:33:34.28	262.16	13.79	
2025-01-07 20:33:34.48	262.21	13.79	
2025-01-07 20:33:34.69	262.26	13.80	
2025-01-07 20:33:34.89	262.30	13.80	
2025-01-07 20:33:35.10	262.35	13.81	
2025-01-07 20:33:35.32	262.40	13.82	
2025-01-07 20:33:35.52	262.45	13.82	
2025-01-07 20:33:35.73	262.50	13.83	
2025-01-07 20:33:35.93	262.54	13.83	
2025-01-07 20:33:36.14	262.59	13.84	
2025-01-07 20:33:36.34	262.64	13.84	
2025-01-07 20:33:36.55	262.68	13.85	
2025-01-07 20:33:36.75	262.73	13.86	
2025-01-07 20:33:36.96	262.78	13.86	
2025-01-07 20:33:37.16	262.82	13.87	
2025-01-07 20:33:37.38	262.87	13.87	
2025-01-07 20:33:37.59	262.92	13.88	
2025-01-07 20:33:37.79	262.97	13.88	
2025-01-07 20:33:38.00	263.02	13.89	
2025-01-07 20:33:38.20	263.06	13.89	
2025-01-07 20:33:38.41	263.11	13.90	
2025-01-07 20:33:38.61	263.16	13.90	
2025-01-07 20:33:38.82	263.20	13.91	
2025-01-07 20:33:39.02	263.25	13.91	
2025-01-07 20:33:39.23	263.30	13.92	
2025-01-07 20:33:39.43	263.34	13.93	
2025-01-07 20:33:39.64	263.39	13.93	
2025-01-07 20:33:39.84	263.44	13.94	
2025-01-07 20:33:40.05	263.49	13.94	
2025-01-07 20:33:40.26	263.54	13.95	
2025-01-07 20:33:40.46	263.58	13.95	
2025-01-07 20:33:40.67	263.63	13.96	
2025-01-07 20:33:40.87	263.68	13.96	
2025-01-07 20:33:41.08	263.72	13.97	
2025-01-07 20:33:41.28	263.77	13.97	
2025-01-07 20:33:41.49	263.82	13.98	
2025-01-07 20:33:41.69	263.87	13.98	
2025-01-07 20:33:41.89	263.91	13.99	
2025-01-07 20:33:42.10	263.96	13.99	
2025-01-07 20:33:42.30	264.01	14.00	
2025-01-07 20:33:42.51	264.06	14.00	
2025-01-07 20:33:42.71	264.10	14.01	
2025-01-07 20:33:42.92	264.15	14.01	
2025-01-07 20:33:43.12	264.20	14.02	
2025-01-07 20:33:43.33	264.25	14.02	
2025-01-07 20:33:43.54	264.29	14.03	
2025-01-07 20:33:43.74	264.34	14.03	
2025-01-07 20:33:43.95	264.39	14.04	
2025-01-07 20:33:44.15	264.44	14.04	
2025-01-07 20:33:44.36	264.48	14.05	
2025-01-07 20:33:44.56	264.53	14.05	
2025-01-07 20:33:44.77	264.58	14.06	
2025-01-07 20:33:44.97	264.63	14.06	
2025-01-07 20:33:45.18	264.67	14.07	
2025-01-07 20:33:45.38	264.72	14.07	
2025-01-07 20:33:45.59	264.77	14.08	
2025-01-07 20:33:45.79	264.82	14.08	
2025-01-07 20:33:46.01	264.87	14.09	
2025-01-07 20:33:46.21	264.91	14.09	
2025-01-07 20:33:46.43	264.97	14.10	
2025-01-07 20:33:46.63	265.01	14.10	
2025-01-07 20:33:46.84	265.06	14.10	
2025-01-07 20:33:47.04	265.11	14.11	
2025-01-07 20:33:47.25	265.16	14.11	
2025-01-07 20:33:47.46	265.21	14.12	
2025-01-07 20:33:47.66	265.25	14.12	
2025-01-07 20:33:47.87	265.30	14.13	
2025-01-07 20:33:48.09	265.35	14.13	
2025-01-07 20:33:48.29	265.40	14.14	
2025-01-07 20:33:48.50	265.45	14.14	
2025-01-07 20:33:48.70	265.50	14.15	
2025-01-07 20:33:48.91	265.54	14.15	
2025-01-07 20:33:49.11	265.59	14.16	
2025-01-07 20:33:49.32	265.64	14.16	
2025-01-07 20:33:49.52	265.69	14.16	
2025-01-07 20:33:49.73	265.74	14.17	
2025-01-07 20:33:49.93	265.78	14.17	
2025-01-07 20:33:50.14	265.83	14.18	
2025-01-07 20:33:50.34	265.88	14.18	
2025-01-07 20:33:50.55	265.93	14.19	
2025-01-07 20:33:50.76	265.98	14.19	
2025-01-07 20:33:50.96	266.02	14.20	
2025-01-07 20:33:51.17	266.07	14.20	
2025-01-07 20:33:51.37	266.12	14.20	
2025-01-07 20:33:51.58	266.17	14.21	
2025-01-07 20:33:51.78	266.22	14.21	
2025-01-07 20:33:51.99	266.27	14.22	
2025-01-07 20:33:52.19	266.31	14.22	
2025-01-07 20:33:52.40	266.36	14.23	
2025-01-07 20:33:52.60	266.41	14.23	
2025-01-07 20:33:52.81	266.46	14.23	
2025-01-07 20:33:53.02	266.51	14.24	
2025-01-07 20:33:53.22	266.56	14.24	
2025-01-07 20:33:53.42	266.60	14.25	
2025-01-07 20:33:53.63	266.65	14.25	
2025-01-07 20:33:53.84	266.70	14.25	
2025-01-07 20:33:54.04	266.75	14.26	
2025-01-07 20:33:54.25	266.80	14.26	
2025-01-07 20:33:54.45	266.85	14.27	
2025-01-07 20:33:54.66	266.89	14.27	
2025-01-07 20:33:54.86	266.94	14.27	
2025-01-07 20:33:55.07	266.99	14.28	
2025-01-07 20:33:55.27	267.04	14.28	
2025-01-07 20:33:55.48	267.09	14.29	
2025-01-07 20:33:55.68	267.14	14.29	
2025-01-07 20:33:55.89	267.18	14.29	
2025-01-07 20:33:56.09	267.23	14.30	
2025-01-07 20:33:56.30	267.28	14.30	
2025-01-07 20:33:56.50	267.33	14.31	
2025-01-07 20:33:56.71	267.38	14.31	
2025-01-07 20:33:56.91	267.43	14.31	
2025-01-07 20:33:57.12	267.48	14.32	
2025-01-07 20:33:57.32	267.52	14.32	
2025-01-07 20:33:57.53	267.57	14.33	
2025-01-07 20:33:57.75	267.62	14.33	
2025-01-07 20:33:57.95	267.67	14.33	
2025-01-07 20:33:58.16	267.72	14.34	
2025-01-07 20:33:58.36	267.77	14.34	
2025-01-07 20:33:58.57	267.82	14.34	
2025-01-07 20:33:58.77	267.87	14.35	
2025-01-07 20:33:58.97	267.91	14.35	
2025-01-07 20:33:59.18	267.96	14.36	
2025-01-07 20:33:59.38	268.01	14.36	
2025-01-07 20:33:59.59	268.06	14.36	
2025-01-07 20:33:59.80	268.11	14.37	
2025-01-07 20:34:00.00	268.16	14.37	
2025-01-07 20:34:00.20	268.21	14.37	
2025-01-07 20:34:00.41	268.26	14.38	
2025-01-07 20:34:00.62	268.31	14.38	
2025-01-07 20:34:00.82	268.35	14.38	
2025-01-07 20:34:01.03	268.40	14.39	
2025-01-07 20:34:01.23	268.45	14.39	
2025-01-07 20:34:01.44	268.50	14.39	
2025-01-07 20:34:01.64	268.55	14.40	
2025-01-07 20:34:01.85	268.60	14.40	
2025-01-07 20:34:02.05	268.65	14.40	
2025-01-07 20:34:02.26	268.70	14.41	
2025-01-07 20:34:02.46	268.74	14.41	
2025-01-07 20:34:02.67	268.79	14.41	
2025-01-07 20:34:02.87	268.84	14.42	
2025-01-07 20:34:03.08	268.89	14.42	
2025-01-07 20:34:03.28	268.94	14.42	
2025-01-07 20:34:03.49	268.99	14.43	
2025-01-07 20:34:03.69	269.04	14.43	
2025-01-07 20:34:03.90	269.09	14.43	
2025-01-07 20:34:04.10	269.13	14.44	
2025-01-07 20:34:04.31	269.18	14.44	
2025-01-07 20:34:04.51	269.23	14.44	
2025-01-07 20:34:04.72	269.28	14.45	
2025-01-07 20:34:04.92	269.33	14.45	
2025-01-07 20:34:05.13	269.38	14.45	
2025-01-07 20:34:05.33	269.43	14.46	
2025-01-07 20:34:05.54	269.48	14.46	
2025-01-07 20:34:05.74	269.52	14.46	
2025-01-07 20:34:05.95	269.58	14.47	
2025-01-07 20:34:06.15	269.62	14.47	
2025-01-07 20:34:06.36	269.67	14.47	
2025-01-07 20:34:06.57	269.72	14.48	
2025-01-07 20:34:06.77	269.77	14.48	
2025-01-07 20:34:06.98	269.82	14.48	
2025-01-07 20:34:07.19	269.87	14.48	
2025-01-07 20:34:07.40	269.92	14.49	
2025-01-07 20:34:07.60	269.97	14.49	
2025-01-07 20:34:07.81	270.02	14.49	
2025-01-07 20:34:08.02	270.07	14.50	
2025-01-07 20:34:08.22	270.12	14.50	
2025-01-07 20:34:08.42	270.17	14.50	
2025-01-07 20:34:08.63	270.22	14.50	
2025-01-07 20:34:08.84	270.27	14.51	
2025-01-07 20:34:09.04	270.31	14.51	
2025-01-07 20:34:09.25	270.36	14.51	
2025-01-07 20:34:09.45	270.41	14.52	
2025-01-07 20:34:09.66	270.46	14.52	
2025-01-07 20:34:09.86	270.51	14.52	
2025-01-07 20:34:10.07	270.56	14.52	
2025-01-07 20:34:10.28	270.61	14.53	
2025-01-07 20:34:10.48	270.66	14.53	
2025-01-07 20:34:10.68	270.71	14.53	
2025-01-07 20:34:10.89	270.76	14.53	
2025-01-07 20:34:11.10	270.81	14.54	
2025-01-07 20:34:11.30	270.86	14.54	
2025-01-07 20:34:11.50	270.90	14.54	
2025-01-07 20:34:11.71	270.96	14.54	
2025-01-07 20:34:11.91	271.00	14.55	
2025-01-07 20:34:12.12	271.05	14.55	
2025-01-07 20:34:12.32	271.10	14.55	
2025-01-07 20:34:12.53	271.15	14.55	
2025-01-07 20:34:12.73	271.20	14.56	
2025-01-07 20:34:12.93	271.25	14.56	
2025-01-07 20:34:13.14	271.30	14.56	
2025-01-07 20:34:13.35	271.35	14.56	
2025-01-07 20:34:13.55	271.40	14.57	
2025-01-07 20:34:13.76	271.45	14.57	
2025-01-07 20:34:13.96	271.50	14.57	
2025-01-07 20:34:14.17	271.55	14.57	
2025-01-07 20:34:14.37	271.59	14.58	
2025-01-07 20:34:14.58	271.65	14.58	
2025-01-07 20:34:14.78	271.69	14.58	
2025-01-07 20:34:14.98	271.74	14.58	
2025-01-07 20:34:15.19	271.79	14.58	
2025-01-07 20:34:15.40	271.84	14.59	
2025-01-07 20:34:15.60	271.89	14.59	
2025-01-07 20:34:15.81	271.94	14.59	
2025-01-07 20:34:16.01	271.99	14.59	
2025-01-07 20:34:16.22	272.04	14.60	
2025-01-07 20:34:16.42	272.09	14.60	
2025-01-07 20:34:16.63	272.14	14.60	
2025-01-07 20:34:16.83	272.19	14.60	
2025-01-07 20:34:17.04	272.24	14.60	
2025-01-07 20:34:17.24	272.29	14.61	
2025-01-07 20:34:17.45	272.34	14.61	
2025-01-07 20:34:17.65	272.39	14.61	
2025-01-07 20:34:17.86	272.44	14.61	
2025-01-07 20:34:18.06	272.48	14.61	
2025-01-07 20:34:18.27	272.54	14.62	
2025-01-07 20:34:18.47	272.58	14.62	
2025-01-07 20:34:18.68	272.63	14.62	
2025-01-07 20:34:18.88	272.68	14.62	
2025-01-07 20:34:19.09	272.73	14.62	
2025-01-07 20:34:19.29	272.78	14.63	
2025-01-07 20:34:19.49	272.83	14.63	
2025-01-07 20:34:19.70	272.88	14.63	
2025-01-07 20:34:19.91	272.93	14.63	
2025-01-07 20:34:20.12	272.98	14.63	
2025-01-07 20:34:20.33	273.03	14.63	
2025-01-07 20:34:20.54	273.08	14.64	
2025-01-07 20:34:20.74	273.13	14.64	
2025-01-07 20:34:20.95	273.18	14.64	
2025-01-07 20:34:21.15	273.23	14.64	
2025-01-07 20:34:21.36	273.28	14.64	
2025-01-07 20:34:21.56	273.33	14.64	
2025-01-07 20:34:21.77	273.38	14.65	
2025-01-07 20:34:21.98	273.43	14.65	
2025-01-07 20:34:22.18	273.48	14.65	
2025-01-07 20:34:22.39	273.53	14.65	
2025-01-07 20:34:22.59	273.58	14.65	
2025-01-07 20:34:22.80	273.63	14.65	
2025-01-07 20:34:23.00	273.68	14.66	
2025-01-07 20:34:23.21	273.73	14.66	
2025-01-07 20:34:23.43	273.78	14.66	
2025-01-07 20:34:23.64	273.83	14.66	
2025-01-07 20:34:23.84	273.88	14.66	
2025-01-07 20:34:24.05	273.93	14.66	
2025-01-07 20:34:24.25	273.98	14.66	
2025-01-07 20:34:24.47	274.03	14.67	
2025-01-07 20:34:24.68	274.09	14.67	
2025-01-07 20:34:24.88	274.13	14.67	
2025-01-07 20:34:25.09	274.18	14.67	
2025-01-07 20:34:25.29	274.23	14.67	
2025-01-07 20:34:25.50	274.28	14.67	
2025-01-07 20:34:25.70	274.33	14.67	
2025-01-07 20:34:25.91	274.38	14.67	
2025-01-07 20:34:26.11	274.43	14.68	
2025-01-07 20:34:26.32	274.48	14.68	
2025-01-07 20:34:26.53	274.53	14.68	
2025-01-07 20:34:26.73	274.58	14.68	
2025-01-07 20:34:26.94	274.63	14.68	
2025-01-07 20:34:27.14	274.68	14.68	
2025-01-07 20:34:27.35	274.73	14.68	
2025-01-07 20:34:27.55	274.78	14.68	
2025-01-07 20:34:27.76	274.83	14.68	
2025-01-07 20:34:27.97	274.88	14.69	
2025-01-07 20:34:28.17	274.93	14.69	
2025-01-07 20:34:28.38	274.98	14.69	
2025-01-07 20:34:28.58	275.03	14.69	
2025-01-07 20:34:28.79	275.08	14.69	
2025-01-07 20:34:28.99	275.13	14.69	
2025-01-07 20:34:29.20	275.18	14.69	
2025-01-07 20:34:29.40	275.23	14.69	
2025-01-07 20:34:29.61	275.28	14.69	
2025-01-07 20:34:29.81	275.33	14.69	
2025-01-07 20:34:30.02	275.38	14.70	
2025-01-07 20:34:30.23	275.43	14.70	
2025-01-07 20:34:30.43	275.48	14.70	
2025-01-07 20:34:30.64	275.53	14.70	
2025-01-07 20:34:30.84	275.58	14.70	
2025-01-07 20:34:31.05	275.63	14.70	
2025-01-07 20:34:31.26	275.68	14.70	
2025-01-07 20:34:31.46	275.73	14.70	
2025-01-07 20:34:31.67	275.78	14.70	
2025-01-07 20:34:31.87	275.83	14.70	
2025-01-07 20:34:32.08	275.88	14.70	
2025-01-07 20:34:32.28	275.93	14.70	
2025-01-07 20:34:32.49	275.98	14.70	
2025-01-07 20:34:32.69	276.03	14.70	
2025-01-07 20:34:32.90	276.08	14.71	
2025-01-07 20:34:33.10	276.13	14.71	
2025-01-07 20:34:33.31	276.18	14.71	
2025-01-07 20:34:33.52	276.23	14.71	
2025-01-07 20:34:33.72	276.28	14.71	
2025-01-07 20:34:33.92	276.33	14.71	
2025-01-07 20:34:34.13	276.38	14.71	
2025-01-07 20:34:34.34	276.43	14.71	
2025-01-07 20:34:34.54	276.48	14.71	
2025-01-07 20:34:34.74	276.53	14.71	
2025-01-07 20:34:34.95	276.58	14.71	
2025-01-07 20:34:35.15	276.63	14.71	
2025-01-07 20:34:35.36	276.68	14.71	
2025-01-07 20:34:35.56	276.73	14.71	
2025-01-07 20:34:35.77	276.78	14.71	
2025-01-07 20:34:35.98	276.83	14.71	
2025-01-07 20:34:36.19	276.88	14.71	
2025-01-07 20:34:36.40	276.93	14.71	
2025-01-07 20:34:36.60	276.98	14.71	
2025-01-07 20:34:36.81	277.03	14.71	
2025-01-07 20:34:37.02	277.08	14.71	
2025-01-07 20:34:37.22	277.13	14.71	
2025-01-07 20:34:37.43	277.18	14.71	
2025-01-07 20:34:37.63	277.23	14.71	
2025-01-07 20:34:37.84	277.28	14.71	
2025-01-07 20:34:38.04	277.33	14.71	
2025-01-07 20:34:38.24	277.38	14.71	
2025-01-07 20:34:38.45	277.43	14.71	
2025-01-07 20:34:38.66	277.48	14.71	
2025-01-07 20:34:38.86	277.53	14.71	
2025-01-07 20:34:39.07	277.58	14.71	
2025-01-07 20:34:39.27	277.63	14.71	
2025-01-07 20:34:39.48	277.68	14.71	
2025-01-07 20:34:39.68	277.73	14.71	
2025-01-07 20:34:39.89	277.78	14.71	
2025-01-07 20:34:40.09	277.83	14.71	
2025-01-07 20:34:40.30	277.88	14.71	
2025-01-07 20:34:40.50	277.93	14.71	
2025-01-07 20:34:40.70	277.97	14.71	
2025-01-07 20:34:40.91	278.02	14.71	
2025-01-07 20:34:41.12	278.08	14.71	
2025-01-07 20:34:41.32	278.12	14.71	
2025-01-07 20:34:41.53	278.18	14.71	
2025-01-07 20:34:41.73	278.22	14.71	
2025-01-07 20:34:41.94	278.28	14.71	
2025-01-07 20:34:42.14	278.32	14.71	
2025-01-07 20:34:42.35	278.37	14.71	
2025-01-07 20:34:42.55	278.42	14.71	
2025-01-07 20:34:42.76	278.47	14.71	
2025-01-07 20:34:42.96	278.52	14.71	
2025-01-07 20:34:43.17	278.57	14.71	
2025-01-07 20:34:43.38	278.62	14.71	
2025-01-07 20:34:43.58	278.67	14.71	
2025-01-07 20:34:43.78	278.72	14.71	
2025-01-07 20:34:43.99	278.77	14.71	
2025-01-07 20:34:44.20	278.82	14.71	
2025-01-07 20:34:44.40	278.87	14.71	
2025-01-07 20:34:44.60	278.92	14.71	
2025-01-07 20:34:44.81	278.97	14.71	
2025-01-07 20:34:45.01	279.02	14.71	
2025-01-07 20:34:45.22	279.07	14.70	
2025-01-07 20:34:45.43	279.12	14.70	
2025-01-07 20:34:45.63	279.17	14.70	
2025-01-07 20:34:45.84	279.22	14.70	
2025-01-07 20:34:46.04	279.27	14.70	
2025-01-07 20:34:46.25	279.32	14.70	
2025-01-07 20:34:46.45	279.37	14.70	
2025-01-07 20:34:46.66	279.42	14.70	
2025-01-07 20:34:46.86	279.47	14.70	
2025-01-07 20:34:47.07	279.52	14.70	
2025-01-07 20:34:47.27	279.57	14.70	
2025-01-07 20:34:47.48	279.62	14.70	
2025-01-07 20:34:47.68	279.67	14.70	
2025-01-07 20:34:47.89	279.72	14.70	
2025-01-07 20:34:48.09	279.77	14.69	
2025-01-07 20:34:48.30	279.82	14.69	
2025-01-07 20:34:48.50	279.87	14.69	
2025-01-07 20:34:48.71	279.92	14.69	
2025-01-07 20:34:48.91	279.97	14.69	
2025-01-07 20:34:49.12	280.02	14.69	
2025-01-07 20:34:49.32	280.07	14.69	
2025-01-07 20:34:49.53	280.12	14.69	
2025-01-07 20:34:49.73	280.17	14.69	
2025-01-07 20:34:49.94	280.22	14.69	
2025-01-07 20:34:50.14	280.27	14.69	
2025-01-07 20:34:50.35	280.32	14.68	
2025-01-07 20:34:50.55	280.36	14.68	
2025-01-07 20:34:50.76	280.42	14.68	
2025-01-07 20:34:50.96	280.46	14.68	
2025-01-07 20:34:51.17	280.51	14.68	
2025-01-07 20:34:51.38	280.57	14.68	
2025-01-07 20:34:51.58	280.61	14.68	
2025-01-07 20:34:51.79	280.66	14.68	
2025-01-07 20:34:51.99	280.71	14.68	
2025-01-07 20:34:52.20	280.76	14.67	
2025-01-07 20:34:52.40	280.81	14.67	
2025-01-07 20:34:52.61	280.86	14.67	
2025-01-07 20:34:52.81	280.91	14.67	
2025-01-07 20:34:53.02	280.96	14.67	
2025-01-07 20:34:53.22	281.01	14.67	
2025-01-07 20:34:53.43	281.06	14.67	
2025-01-07 20:34:53.63	281.11	14.66	
2025-01-07 20:34:53.84	281.16	14.66	
2025-01-07 20:34:54.05	281.21	14.66	
2025-01-07 20:34:54.25	281.26	14.66	
2025-01-07 20:34:54.46	281.31	14.66	
2025-01-07 20:34:54.66	281.36	14.66	
2025-01-07 20:34:54.87	281.41	14.66	
2025-01-07 20:34:55.07	281.46	14.65	
2025-01-07 20:34:55.28	281.51	14.65	
2025-01-07 20:34:55.48	281.56	14.65	
2025-01-07 20:34:55.69	281.61	14.65	
2025-01-07 20:34:55.89	281.66	14.65	
2025-01-07 20:34:56.10	281.71	14.65	
2025-01-07 20:34:56.30	281.76	14.65	
2025-01-07 20:34:56.50	281.80	14.64	
2025-01-07 20:34:56.72	281.86	14.64	
2025-01-07 20:34:56.93	281.91	14.64	
2025-01-07 20:34:57.14	281.96	14.64	
2025-01-07 20:34:57.34	282.01	14.64	
2025-01-07 20:34:57.56	282.06	14.64	
2025-01-07 20:34:57.77	282.11	14.63	
2025-01-07 20:34:57.97	282.16	14.63	
2025-01-07 20:34:58.18	282.21	14.63	
2025-01-07 20:34:58.38	282.26	14.63	
2025-01-07 20:34:58.59	282.31	14.63	
2025-01-07 20:34:58.79	282.36	14.62	
2025-01-07 20:34:59.00	282.41	14.62	
2025-01-07 20:34:59.21	282.46	14.62	
2025-01-07 20:34:59.41	282.51	14.62	
2025-01-07 20:34:59.61	282.56	14.62	
2025-01-07 20:34:59.82	282.61	14.61	
2025-01-07 20:35:00.03	282.66	14.61	
2025-01-07 20:35:00.23	282.70	14.61	
2025-01-07 20:35:00.43	282.75	14.61	
2025-01-07 20:35:00.64	282.80	14.61	
2025-01-07 20:35:00.84	282.85	14.60	
2025-01-07 20:35:01.05	282.90	14.60	
2025-01-07 20:35:01.25	282.95	14.60	
2025-01-07 20:35:01.46	283.00	14.60	
2025-01-07 20:35:01.67	283.05	14.60	
2025-01-07 20:35:01.87	283.10	14.59	
2025-01-07 20:35:02.08	283.15	14.59	
2025-01-07 20:35:02.28	283.20	14.59	
2025-01-07 20:35:02.49	283.25	14.59	
2025-01-07 20:35:02.70	283.30	14.59	
2025-01-07 20:35:02.90	283.35	14.58	
2025-01-07 20:35:03.11	283.40	14.58	
2025-01-07 20:35:03.31	283.45	14.58	
2025-01-07 20:35:03.52	283.50	14.58	
2025-01-07 20:35:03.72	283.54	14.57	
2025-01-07 20:35:03.94	283.60	14.57	
2025-01-07 20:35:04.15	283.65	14.57	
2025-01-07 20:35:04.35	283.70	14.57	
2025-01-07 20:35:04.56	283.75	14.56	
2025-01-07 20:35:04.77	283.80	14.56	
2025-01-07 20:35:04.97	283.85	14.56	
2025-01-07 20:35:05.18	283.90	14.56	
2025-01-07 20:35:05.38	283.94	14.56	
2025-01-07 20:35:05.59	283.99	14.55	
2025-01-07 20:35:05.79	284.04	14.55	
2025-01-07 20:35:06.00	284.09	14.55	
2025-01-07 20:35:06.20	284.14	14.55	
2025-01-07 20:35:06.41	284.19	14.54	
2025-01-07 20:35:06.61	284.24	14.54	
2025-01-07 20:35:06.82	284.29	14.54	
2025-01-07 20:35:07.03	284.34	14.54	
2025-01-07 20:35:07.23	284.39	14.53	
2025-01-07 20:35:07.44	284.44	14.53	
2025-01-07 20:35:07.65	284.49	14.53	
2025-01-07 20:35:07.85	284.54	14.52	
2025-01-07 20:35:08.06	284.59	14.52	
2025-01-07 20:35:08.26	284.63	14.52	
2025-01-07 20:35:08.46	284.68	14.52	
2025-01-07 20:35:08.67	284.73	14.51	
2025-01-07 20:35:08.87	284.78	14.51	
2025-01-07 20:35:09.08	284.83	14.51	
2025-01-07 20:35:09.30	284.88	14.51	
2025-01-07 20:35:09.50	284.93	14.50	
2025-01-07 20:35:09.71	284.98	14.50	
2025-01-07 20:35:09.92	285.03	14.50	
2025-01-07 20:35:10.12	285.08	14.49	
2025-01-07 20:35:10.32	285.13	14.49	
2025-01-07 20:35:10.53	285.18	14.49	
2025-01-07 20:35:10.74	285.23	14.49	
2025-01-07 20:35:10.94	285.28	14.48	
2025-01-07 20:35:11.15	285.33	14.48	
2025-01-07 20:35:11.37	285.38	14.48	
2025-01-07 20:35:11.57	285.43	14.47	
2025-01-07 20:35:11.78	285.48	14.47	
2025-01-07 20:35:11.98	285.52	14.47	
2025-01-07 20:35:12.19	285.57	14.46	
2025-01-07 20:35:12.39	285.62	14.46	
2025-01-07 20:35:12.60	285.67	14.46	
2025-01-07 20:35:12.80	285.72	14.45	
2025-01-07 20:35:13.01	285.77	14.45	
2025-01-07 20:35:13.21	285.82	14.45	
2025-01-07 20:35:13.42	285.87	14.45	
2025-01-07 20:35:13.62	285.91	14.44	
2025-01-07 20:35:13.83	285.96	14.44	
2025-01-07 20:35:14.04	286.01	14.44	
2025-01-07 20:35:14.24	286.06	14.43	
2025-01-07 20:35:14.45	286.11	14.43	
2025-01-07 20:35:14.65	286.16	14.43	
2025-01-07 20:35:14.85	286.21	14.42	
2025-01-07 20:35:15.06	286.26	14.42	
2025-01-07 20:35:15.27	286.31	14.42	
2025-01-07 20:35:15.47	286.35	14.41	
2025-01-07 20:35:15.68	286.40	14.41	
2025-01-07 20:35:15.88	286.45	14.41	
2025-01-07 20:35:16.09	286.50	14.40	
2025-01-07 20:35:16.29	286.55	14.40	
2025-01-07 20:35:16.50	286.60	14.40	
2025-01-07 20:35:16.70	286.65	14.39	
2025-01-07 20:35:16.90	286.69	14.39	
2025-01-07 20:35:17.11	286.74	14.39	
2025-01-07 20:35:17.32	286.79	14.38	
2025-01-07 20:35:17.52	286.84	14.38	
2025-01-07 20:35:17.72	286.89	14.38	
2025-01-07 20:35:17.93	286.94	14.37	
2025-01-07 20:35:18.14	286.99	14.37	
2025-01-07 20:35:18.34	287.04	14.36	
2025-01-07 20:35:18.55	287.08	14.36	
2025-01-07 20:35:18.75	287.13	14.36	
2025-01-07 20:35:18.96	287.18	14.35	
2025-01-07 20:35:19.17	287.23	14.35	
2025-01-07 20:35:19.37	287.28	14.35	
2025-01-07 20:35:19.58	287.33	14.34	
2025-01-07 20:35:19.78	287.38	14.34	
2025-01-07 20:35:19.98	287.42	14.33	
2025-01-07 20:35:20.19	287.47	14.33	
2025-01-07 20:35:20.40	287.52	14.33	
2025-01-07 20:35:20.60	287.57	14.32	
2025-01-07 20:35:20.81	287.62	14.32	
2025-01-07 20:35:21.01	287.67	14.32	
2025-01-07 20:35:21.22	287.72	14.31	
2025-01-07 20:35:21.42	287.76	14.31	
2025-01-07 20:35:21.63	287.81	14.30	
2025-01-07 20:35:21.84	287.86	14.30	
2025-01-07 20:35:22.04	287.91	14.30	
2025-01-07 20:35:22.25	287.96	14.29	
2025-01-07 20:35:22.45	288.01	14.29	
2025-01-07 20:35:22.66	288.06	14.28	
2025-01-07 20:35:22.86	288.10	14.28	
2025-01-07 20:35:23.07	288.15	14.28	
2025-01-07 20:35:23.27	288.20	14.27	
2025-01-07 20:35:23.48	288.25	14.27	
2025-01-07 20:35:23.68	288.30	14.26	
2025-01-07 20:35:23.89	288.34	14.26	
2025-01-07 20:35:24.09	288.39	14.26	
2025-01-07 20:35:24.30	288.44	14.25	
2025-01-07 20:35:24.50	288.49	14.25	
2025-01-07 20:35:24.71	288.54	14.24	
2025-01-07 20:35:24.91	288.58	14.24	
2025-01-07 20:35:25.12	288.63	14.24	
2025-01-07 20:35:25.32	288.68	14.23	
2025-01-07 20:35:25.53	288.73	14.23	
2025-01-07 20:35:25.73	288.78	14.22	
2025-01-07 20:35:25.94	288.83	14.22	
2025-01-07 20:35:26.14	288.87	14.22	
2025-01-07 20:35:26.35	288.92	14.21	
2025-01-07 20:35:26.55	288.97	14.21	
2025-01-07 20:35:26.76	289.02	14.20	
2025-01-07 20:35:26.96	289.06	14.20	
2025-01-07 20:35:27.17	289.11	14.19	
2025-01-07 20:35:27.38	289.16	14.19	
2025-01-07 20:35:27.59	289.21	14.18	
2025-01-07 20:35:27.80	289.26	14.18	
2025-01-07 20:35:28.00	289.31	14.18	
2025-01-07 20:35:28.21	289.36	14.17	
2025-01-07 20:35:28.41	289.40	14.17	
2025-01-07 20:35:28.62	289.45	14.16	
2025-01-07 20:35:28.82	289.50	14.16	
2025-01-07 20:35:29.03	289.55	14.15	
2025-01-07 20:35:29.24	289.60	14.15	
2025-01-07 20:35:29.44	289.64	14.14	
2025-01-07 20:35:29.64	289.69	14.14	
2025-01-07 20:35:29.85	289.74	14.14	
2025-01-07 20:35:30.05	289.79	14.13	
2025-01-07 20:35:30.26	289.83	14.13	
2025-01-07 20:35:30.47	289.88	14.12	
2025-01-07 20:35:30.67	289.93	14.12	
2025-01-07 20:35:30.88	289.98	14.11	
2025-01-07 20:35:31.08	290.03	14.11	
2025-01-07 20:35:31.29	290.07	14.10	
2025-01-07 20:35:31.49	290.12	14.10	
2025-01-07 20:35:31.71	290.17	14.09	
2025-01-07 20:35:31.92	290.22	14.09	
2025-01-07 20:35:32.12	290.27	14.08	
2025-01-07 20:35:32.33	290.32	14.08	
2025-01-07 20:35:32.53	290.36	14.07	
2025-01-07 20:35:32.74	290.41	14.07	
2025-01-07 20:35:32.94	290.46	14.07	
2025-01-07 20:35:33.15	290.51	14.06	
2025-01-07 20:35:33.35	290.55	14.06	
2025-01-07 20:35:33.56	290.60	14.05	
2025-01-07 20:35:33.76	290.65	14.05	
2025-01-07 20:35:33.97	290.70	14.04	
2025-01-07 20:35:34.17	290.74	14.04	
2025-01-07 20:35:34.38	290.79	14.03	
2025-01-07 20:35:34.59	290.84	14.03	
2025-01-07 20:35:34.79	290.89	14.02	
2025-01-07 20:35:35.00	290.93	14.02	
2025-01-07 20:35:35.20	290.98	14.01	
2025-01-07 20:35:35.41	291.03	14.01	
2025-01-07 20:35:35.61	291.08	14.00	
2025-01-07 20:35:35.82	291.12	14.00	
2025-01-07 20:35:36.02	291.17	13.99	
2025-01-07 20:35:36.23	291.22	13.99	
2025-01-07 20:35:36.43	291.26	13.98	
2025-01-07 20:35:36.64	291.31	13.98	
2025-01-07 20:35:36.84	291.36	13.97	
2025-01-07 20:35:37.05	291.41	13.97	
2025-01-07 20:35:37.25	291.45	13.96	
2025-01-07 20:35:37.46	291.50	13.96	
2025-01-07 20:35:37.67	291.55	13.95	
2025-01-07 20:35:37.87	291.60	13.95	
2025-01-07 20:35:38.08	291.64	13.94	
2025-01-07 20:35:38.28	291.69	13.93	
2025-01-07 20:35:38.49	291.74	13.93	
2025-01-07 20:35:38.69	291.78	13.92	
2025-01-07 20:35:38.90	291.83	13.92	
2025-01-07 20:35:39.10	291.88	13.91	
2025-01-07 20:35:39.31	291.93	13.91	
2025-01-07 20:35:39.51	291.97	13.90	
2025-01-07 20:35:39.72	292.02	13.90	
2025-01-07 20:35:39.93	292.07	13.89	
2025-01-07 20:35:40.13	292.11	13.89	
2025-01-07 20:35:40.34	292.16	13.88	
2025-01-07 20:35:40.55	292.21	13.88	
2025-01-07 20:35:40.76	292.26	13.87	
2025-01-07 20:35:40.96	292.30	13.87	
2025-01-07 20:35:41.17	292.35	13.86	
2025-01-07 20:35:41.37	292.40	13.85	
2025-01-07 20:35:41.58	292.45	13.85	
2025-01-07 20:35:41.78	292.49	13.84	
2025-01-07 20:35:41.99	292.54	13.84	
2025-01-07 20:35:42.19	292.58	13.83	
2025-01-07 20:35:42.40	292.63	13.83	
