passes_logs/2025/01/07/SPB_Silybum_02/SPB_Silybum_02__20250107_185014_TERRA_rec.log

#Pass ID: 20250107_185014_TERRA
#Satellite: TERRA
#Configuration: TERRA
#Start time: 2025-01-07 18:50:15

#Version: 2.0.20230423
#Station: SPB_Silybum_02
#Location: 30.233357 lon 59.946436 lat
#TLE: 1 25994U 99068A   25006.77118991  .00001382  00000+0  29492-3 0  9999
#TLE: 2 25994  98.0231  70.0628 0003576  88.8854  23.4584 14.60378914332871

#Time	Az	El	Level	Level2	SNR	BER	Gain	Gain2
2025-01-07 18:50:17.86	170.90	4.21	
2025-01-07 18:50:18.06	170.91	4.23	
2025-01-07 18:50:18.27	170.91	4.24	
2025-01-07 18:50:18.48	170.92	4.26	
2025-01-07 18:50:18.68	170.92	4.27	
2025-01-07 18:50:18.89	170.92	4.29	
2025-01-07 18:50:19.09	170.93	4.30	
2025-01-07 18:50:19.30	170.93	4.32	
2025-01-07 18:50:19.50	170.94	4.33	
2025-01-07 18:50:19.71	170.94	4.35	
2025-01-07 18:50:19.91	170.95	4.36	
2025-01-07 18:50:20.12	170.95	4.38	
2025-01-07 18:50:20.32	170.96	4.39	
2025-01-07 18:50:20.53	170.96	4.41	
2025-01-07 18:50:20.73	170.96	4.42	
2025-01-07 18:50:20.94	170.97	4.44	
2025-01-07 18:50:21.14	170.97	4.45	
2025-01-07 18:50:21.35	170.98	4.47	
2025-01-07 18:50:21.55	170.98	4.48	
2025-01-07 18:50:21.76	170.99	4.50	
2025-01-07 18:50:21.96	170.99	4.51	
2025-01-07 18:50:22.17	171.00	4.53	
2025-01-07 18:50:22.37	171.00	4.54	
2025-01-07 18:50:22.58	171.00	4.56	
2025-01-07 18:50:22.78	171.01	4.57	
2025-01-07 18:50:22.99	171.01	4.59	
2025-01-07 18:50:23.20	171.02	4.60	
2025-01-07 18:50:23.40	171.02	4.62	
2025-01-07 18:50:23.61	171.03	4.63	
2025-01-07 18:50:23.81	171.03	4.65	
2025-01-07 18:50:24.02	171.04	4.66	
2025-01-07 18:50:24.22	171.04	4.68	
2025-01-07 18:50:24.42	171.05	4.69	
2025-01-07 18:50:24.63	171.05	4.71	
2025-01-07 18:50:24.84	171.05	4.72	
2025-01-07 18:50:25.04	171.06	4.74	
2025-01-07 18:50:25.25	171.06	4.75	
2025-01-07 18:50:25.45	171.07	4.77	
2025-01-07 18:50:25.66	171.07	4.78	
2025-01-07 18:50:25.86	171.08	4.80	
2025-01-07 18:50:26.07	171.08	4.81	
2025-01-07 18:50:26.27	171.09	4.83	
2025-01-07 18:50:26.48	171.09	4.84	
2025-01-07 18:50:26.69	171.10	4.86	
2025-01-07 18:50:26.90	171.10	4.87	
2025-01-07 18:50:27.10	171.11	4.89	
2025-01-07 18:50:27.31	171.11	4.90	
2025-01-07 18:50:27.51	171.11	4.92	
2025-01-07 18:50:27.72	171.12	4.93	
2025-01-07 18:50:27.92	171.12	4.95	
2025-01-07 18:50:28.13	171.13	4.96	
2025-01-07 18:50:28.33	171.13	4.98	
2025-01-07 18:50:28.54	171.14	5.00	
2025-01-07 18:50:28.74	171.14	5.01	
2025-01-07 18:50:28.95	171.15	5.03	
2025-01-07 18:50:29.15	171.15	5.04	
2025-01-07 18:50:29.36	171.16	5.06	
2025-01-07 18:50:29.56	171.16	5.07	
2025-01-07 18:50:29.77	171.17	5.09	
2025-01-07 18:50:29.97	171.17	5.10	
2025-01-07 18:50:30.18	171.17	5.12	
2025-01-07 18:50:30.38	171.18	5.13	
2025-01-07 18:50:30.59	171.18	5.15	
2025-01-07 18:50:30.80	171.19	5.16	
2025-01-07 18:50:31.00	171.19	5.18	
2025-01-07 18:50:31.20	171.20	5.19	
2025-01-07 18:50:31.41	171.20	5.21	
2025-01-07 18:50:31.61	171.21	5.22	
2025-01-07 18:50:31.82	171.21	5.24	
2025-01-07 18:50:32.04	171.22	5.26	
2025-01-07 18:50:32.24	171.22	5.27	
2025-01-07 18:50:32.44	171.23	5.29	
2025-01-07 18:50:32.65	171.23	5.30	
2025-01-07 18:50:32.86	171.24	5.32	
2025-01-07 18:50:33.07	171.24	5.34	
2025-01-07 18:50:33.28	171.25	5.35	
2025-01-07 18:50:33.48	171.25	5.37	
2025-01-07 18:50:33.69	171.26	5.38	
2025-01-07 18:50:33.89	171.26	5.40	
2025-01-07 18:50:34.10	171.27	5.41	
2025-01-07 18:50:34.30	171.27	5.43	
2025-01-07 18:50:34.51	171.27	5.44	
2025-01-07 18:50:34.72	171.28	5.46	
2025-01-07 18:50:34.92	171.28	5.48	
2025-01-07 18:50:35.12	171.29	5.49	
2025-01-07 18:50:35.33	171.29	5.51	
2025-01-07 18:50:35.53	171.30	5.52	
2025-01-07 18:50:35.74	171.30	5.54	
2025-01-07 18:50:35.94	171.31	5.55	
2025-01-07 18:50:36.15	171.31	5.57	
2025-01-07 18:50:36.35	171.32	5.58	
2025-01-07 18:50:36.56	171.32	5.60	
2025-01-07 18:50:36.76	171.33	5.62	
2025-01-07 18:50:36.97	171.33	5.63	
2025-01-07 18:50:37.17	171.34	5.65	
2025-01-07 18:50:37.38	171.34	5.66	
2025-01-07 18:50:37.59	171.35	5.68	
2025-01-07 18:50:37.79	171.35	5.69	
2025-01-07 18:50:38.00	171.36	5.71	
2025-01-07 18:50:38.20	171.36	5.73	
2025-01-07 18:50:38.40	171.37	5.74	
2025-01-07 18:50:38.61	171.37	5.76	
2025-01-07 18:50:38.81	171.38	5.77	
2025-01-07 18:50:39.02	171.38	5.79	
2025-01-07 18:50:39.22	171.39	5.80	
2025-01-07 18:50:39.43	171.39	5.82	
2025-01-07 18:50:39.63	171.40	5.84	
2025-01-07 18:50:39.84	171.40	5.85	
2025-01-07 18:50:40.06	171.41	5.87	
2025-01-07 18:50:40.26	171.41	5.88	
2025-01-07 18:50:40.47	171.42	5.90	
2025-01-07 18:50:40.67	171.42	5.92	
2025-01-07 18:50:40.88	171.43	5.93	
2025-01-07 18:50:41.08	171.43	5.95	
2025-01-07 18:50:41.29	171.44	5.96	
2025-01-07 18:50:41.49	171.44	5.98	
2025-01-07 18:50:41.71	171.45	6.00	
2025-01-07 18:50:41.91	171.45	6.01	
2025-01-07 18:50:42.12	171.46	6.03	
2025-01-07 18:50:42.33	171.46	6.05	
2025-01-07 18:50:42.53	171.47	6.06	
2025-01-07 18:50:42.74	171.47	6.08	
2025-01-07 18:50:42.94	171.48	6.09	
2025-01-07 18:50:43.15	171.48	6.11	
2025-01-07 18:50:43.35	171.49	6.12	
2025-01-07 18:50:43.56	171.49	6.14	
2025-01-07 18:50:43.76	171.50	6.16	
2025-01-07 18:50:43.96	171.50	6.17	
2025-01-07 18:50:44.17	171.51	6.19	
2025-01-07 18:50:44.38	171.51	6.21	
2025-01-07 18:50:44.58	171.52	6.22	
2025-01-07 18:50:44.79	171.52	6.24	
2025-01-07 18:50:44.99	171.53	6.25	
2025-01-07 18:50:45.20	171.53	6.27	
2025-01-07 18:50:45.40	171.54	6.29	
2025-01-07 18:50:45.61	171.54	6.30	
2025-01-07 18:50:45.81	171.55	6.32	
2025-01-07 18:50:46.02	171.55	6.33	
2025-01-07 18:50:46.22	171.56	6.35	
2025-01-07 18:50:46.43	171.56	6.37	
2025-01-07 18:50:46.63	171.57	6.38	
2025-01-07 18:50:46.84	171.57	6.40	
2025-01-07 18:50:47.04	171.58	6.41	
2025-01-07 18:50:47.25	171.58	6.43	
2025-01-07 18:50:47.46	171.59	6.45	
2025-01-07 18:50:47.66	171.59	6.46	
2025-01-07 18:50:47.87	171.60	6.48	
2025-01-07 18:50:48.07	171.60	6.50	
2025-01-07 18:50:48.28	171.61	6.51	
2025-01-07 18:50:48.48	171.61	6.53	
2025-01-07 18:50:48.69	171.62	6.55	
2025-01-07 18:50:48.89	171.62	6.56	
2025-01-07 18:50:49.10	171.63	6.58	
2025-01-07 18:50:49.30	171.63	6.59	
2025-01-07 18:50:49.51	171.64	6.61	
2025-01-07 18:50:49.71	171.64	6.63	
2025-01-07 18:50:49.92	171.65	6.64	
2025-01-07 18:50:50.12	171.65	6.66	
2025-01-07 18:50:50.33	171.66	6.68	
2025-01-07 18:50:50.54	171.66	6.69	
2025-01-07 18:50:50.74	171.67	6.71	
2025-01-07 18:50:50.95	171.67	6.73	
2025-01-07 18:50:51.15	171.68	6.74	
2025-01-07 18:50:51.36	171.68	6.76	
2025-01-07 18:50:51.56	171.69	6.77	
2025-01-07 18:50:51.76	171.69	6.79	
2025-01-07 18:50:51.97	171.70	6.81	
2025-01-07 18:50:52.17	171.70	6.82	
2025-01-07 18:50:52.38	171.71	6.84	
2025-01-07 18:50:52.58	171.72	6.86	
2025-01-07 18:50:52.79	171.72	6.87	
2025-01-07 18:50:52.99	171.73	6.89	
2025-01-07 18:50:53.20	171.73	6.91	
2025-01-07 18:50:53.42	171.74	6.92	
2025-01-07 18:50:53.62	171.74	6.94	
2025-01-07 18:50:53.83	171.75	6.96	
2025-01-07 18:50:54.03	171.75	6.97	
2025-01-07 18:50:54.24	171.76	6.99	
2025-01-07 18:50:54.44	171.76	7.01	
2025-01-07 18:50:54.64	171.77	7.02	
2025-01-07 18:50:54.85	171.77	7.04	
2025-01-07 18:50:55.06	171.78	7.06	
2025-01-07 18:50:55.26	171.78	7.07	
2025-01-07 18:50:55.46	171.79	7.09	
2025-01-07 18:50:55.67	171.79	7.11	
2025-01-07 18:50:55.88	171.80	7.12	
2025-01-07 18:50:56.08	171.81	7.14	
2025-01-07 18:50:56.29	171.81	7.16	
2025-01-07 18:50:56.49	171.82	7.17	
2025-01-07 18:50:56.69	171.82	7.19	
2025-01-07 18:50:56.90	171.83	7.21	
2025-01-07 18:50:57.11	171.83	7.22	
2025-01-07 18:50:57.31	171.84	7.24	
2025-01-07 18:50:57.51	171.84	7.26	
2025-01-07 18:50:57.73	171.85	7.28	
2025-01-07 18:50:57.94	171.85	7.29	
2025-01-07 18:50:58.14	171.86	7.31	
2025-01-07 18:50:58.35	171.86	7.33	
2025-01-07 18:50:58.55	171.87	7.34	
2025-01-07 18:50:58.76	171.88	7.36	
2025-01-07 18:50:58.96	171.88	7.38	
2025-01-07 18:50:59.17	171.89	7.39	
2025-01-07 18:50:59.37	171.89	7.41	
2025-01-07 18:50:59.58	171.90	7.43	
2025-01-07 18:50:59.78	171.90	7.44	
2025-01-07 18:50:59.99	171.91	7.46	
2025-01-07 18:51:00.20	171.91	7.48	
2025-01-07 18:51:00.41	171.92	7.50	
2025-01-07 18:51:00.61	171.92	7.51	
2025-01-07 18:51:00.82	171.93	7.53	
2025-01-07 18:51:01.02	171.94	7.55	
2025-01-07 18:51:01.23	171.94	7.56	
2025-01-07 18:51:01.43	171.95	7.58	
2025-01-07 18:51:01.64	171.95	7.60	
2025-01-07 18:51:01.84	171.96	7.62	
2025-01-07 18:51:02.05	171.96	7.63	
2025-01-07 18:51:02.25	171.97	7.65	
2025-01-07 18:51:02.46	171.97	7.67	
2025-01-07 18:51:02.67	171.98	7.68	
2025-01-07 18:51:02.87	171.99	7.70	
2025-01-07 18:51:03.08	171.99	7.72	
2025-01-07 18:51:03.28	172.00	7.74	
2025-01-07 18:51:03.49	172.00	7.75	
2025-01-07 18:51:03.69	172.01	7.77	
2025-01-07 18:51:03.90	172.01	7.79	
2025-01-07 18:51:04.10	172.02	7.80	
2025-01-07 18:51:04.31	172.02	7.82	
2025-01-07 18:51:04.51	172.03	7.84	
2025-01-07 18:51:04.72	172.04	7.86	
2025-01-07 18:51:04.92	172.04	7.87	
2025-01-07 18:51:05.14	172.05	7.89	
2025-01-07 18:51:05.35	172.05	7.91	
2025-01-07 18:51:05.55	172.06	7.93	
2025-01-07 18:51:05.76	172.06	7.94	
2025-01-07 18:51:05.96	172.07	7.96	
2025-01-07 18:51:06.17	172.08	7.98	
2025-01-07 18:51:06.37	172.08	8.00	
2025-01-07 18:51:06.58	172.09	8.01	
2025-01-07 18:51:06.78	172.09	8.03	
2025-01-07 18:51:06.99	172.10	8.05	
2025-01-07 18:51:07.19	172.10	8.07	
2025-01-07 18:51:07.41	172.11	8.08	
2025-01-07 18:51:07.61	172.12	8.10	
2025-01-07 18:51:07.82	172.12	8.12	
2025-01-07 18:51:08.03	172.13	8.14	
2025-01-07 18:51:08.23	172.13	8.15	
2025-01-07 18:51:08.45	172.14	8.17	
2025-01-07 18:51:08.65	172.14	8.19	
2025-01-07 18:51:08.86	172.15	8.21	
2025-01-07 18:51:09.06	172.16	8.22	
2025-01-07 18:51:09.27	172.16	8.24	
2025-01-07 18:51:09.47	172.17	8.26	
2025-01-07 18:51:09.68	172.17	8.28	
2025-01-07 18:51:09.88	172.18	8.29	
2025-01-07 18:51:10.09	172.18	8.31	
2025-01-07 18:51:10.29	172.19	8.33	
2025-01-07 18:51:10.49	172.20	8.35	
2025-01-07 18:51:10.70	172.20	8.37	
2025-01-07 18:51:10.91	172.21	8.38	
2025-01-07 18:51:11.11	172.21	8.40	
2025-01-07 18:51:11.32	172.22	8.42	
2025-01-07 18:51:11.52	172.22	8.44	
2025-01-07 18:51:11.73	172.23	8.45	
2025-01-07 18:51:11.93	172.24	8.47	
2025-01-07 18:51:12.14	172.24	8.49	
2025-01-07 18:51:12.34	172.25	8.51	
2025-01-07 18:51:12.55	172.25	8.52	
2025-01-07 18:51:12.75	172.26	8.54	
2025-01-07 18:51:12.96	172.27	8.56	
2025-01-07 18:51:13.16	172.27	8.58	
2025-01-07 18:51:13.37	172.28	8.60	
2025-01-07 18:51:13.57	172.28	8.61	
2025-01-07 18:51:13.78	172.29	8.63	
2025-01-07 18:51:13.98	172.29	8.65	
2025-01-07 18:51:14.19	172.30	8.67	
2025-01-07 18:51:14.39	172.31	8.68	
2025-01-07 18:51:14.60	172.31	8.70	
2025-01-07 18:51:14.80	172.32	8.72	
2025-01-07 18:51:15.00	172.32	8.74	
2025-01-07 18:51:15.21	172.33	8.76	
2025-01-07 18:51:15.42	172.34	8.77	
2025-01-07 18:51:15.62	172.34	8.79	
2025-01-07 18:51:15.82	172.35	8.81	
2025-01-07 18:51:16.03	172.35	8.83	
2025-01-07 18:51:16.23	172.36	8.85	
2025-01-07 18:51:16.44	172.37	8.86	
2025-01-07 18:51:16.65	172.37	8.88	
2025-01-07 18:51:16.85	172.38	8.90	
2025-01-07 18:51:17.05	172.38	8.92	
2025-01-07 18:51:17.26	172.39	8.94	
2025-01-07 18:51:17.47	172.40	8.95	
2025-01-07 18:51:17.67	172.40	8.97	
2025-01-07 18:51:17.87	172.41	8.99	
2025-01-07 18:51:18.09	172.41	9.01	
2025-01-07 18:51:18.30	172.42	9.03	
2025-01-07 18:51:18.50	172.43	9.05	
2025-01-07 18:51:18.71	172.43	9.06	
2025-01-07 18:51:18.91	172.44	9.08	
2025-01-07 18:51:19.12	172.44	9.10	
2025-01-07 18:51:19.32	172.45	9.12	
2025-01-07 18:51:19.52	172.46	9.14	
2025-01-07 18:51:19.73	172.46	9.16	
2025-01-07 18:51:19.94	172.47	9.17	
2025-01-07 18:51:20.15	172.48	9.19	
2025-01-07 18:51:20.36	172.48	9.21	
2025-01-07 18:51:20.57	172.49	9.23	
2025-01-07 18:51:20.77	172.49	9.25	
2025-01-07 18:51:20.98	172.50	9.27	
2025-01-07 18:51:21.18	172.51	9.28	
2025-01-07 18:51:21.39	172.51	9.30	
2025-01-07 18:51:21.59	172.52	9.32	
2025-01-07 18:51:21.80	172.52	9.34	
2025-01-07 18:51:22.00	172.53	9.36	
2025-01-07 18:51:22.21	172.54	9.38	
2025-01-07 18:51:22.41	172.54	9.40	
2025-01-07 18:51:22.62	172.55	9.41	
2025-01-07 18:51:22.82	172.56	9.43	
2025-01-07 18:51:23.03	172.56	9.45	
2025-01-07 18:51:23.23	172.57	9.47	
2025-01-07 18:51:23.44	172.57	9.49	
2025-01-07 18:51:23.64	172.58	9.51	
2025-01-07 18:51:23.85	172.59	9.53	
2025-01-07 18:51:24.05	172.59	9.54	
2025-01-07 18:51:24.26	172.60	9.56	
2025-01-07 18:51:24.46	172.61	9.58	
2025-01-07 18:51:24.67	172.61	9.60	
2025-01-07 18:51:24.87	172.62	9.62	
2025-01-07 18:51:25.08	172.62	9.64	
2025-01-07 18:51:25.28	172.63	9.65	
2025-01-07 18:51:25.49	172.64	9.67	
2025-01-07 18:51:25.69	172.64	9.69	
2025-01-07 18:51:25.90	172.65	9.71	
2025-01-07 18:51:26.11	172.66	9.73	
2025-01-07 18:51:26.31	172.66	9.75	
2025-01-07 18:51:26.53	172.67	9.77	
2025-01-07 18:51:26.73	172.68	9.79	
2025-01-07 18:51:26.94	172.68	9.81	
2025-01-07 18:51:27.14	172.69	9.82	
2025-01-07 18:51:27.35	172.69	9.84	
2025-01-07 18:51:27.55	172.70	9.86	
2025-01-07 18:51:27.76	172.71	9.88	
2025-01-07 18:51:27.97	172.71	9.90	
2025-01-07 18:51:28.17	172.72	9.92	
2025-01-07 18:51:28.38	172.73	9.94	
2025-01-07 18:51:28.58	172.73	9.96	
2025-01-07 18:51:28.79	172.74	9.98	
2025-01-07 18:51:28.99	172.75	10.00	
2025-01-07 18:51:29.20	172.75	10.01	
2025-01-07 18:51:29.40	172.76	10.03	
2025-01-07 18:51:29.61	172.77	10.05	
2025-01-07 18:51:29.81	172.77	10.07	
2025-01-07 18:51:30.02	172.78	10.09	
2025-01-07 18:51:30.22	172.78	10.11	
2025-01-07 18:51:30.43	172.79	10.13	
2025-01-07 18:51:30.63	172.80	10.15	
2025-01-07 18:51:30.84	172.80	10.17	
2025-01-07 18:51:31.04	172.81	10.19	
2025-01-07 18:51:31.25	172.82	10.20	
2025-01-07 18:51:31.45	172.82	10.22	
2025-01-07 18:51:31.66	172.83	10.24	
2025-01-07 18:51:31.86	172.84	10.26	
2025-01-07 18:51:32.07	172.84	10.28	
2025-01-07 18:51:32.27	172.85	10.30	
2025-01-07 18:51:32.48	172.86	10.32	
2025-01-07 18:51:32.68	172.86	10.34	
2025-01-07 18:51:32.89	172.87	10.36	
2025-01-07 18:51:33.09	172.88	10.38	
2025-01-07 18:51:33.30	172.88	10.40	
2025-01-07 18:51:33.50	172.89	10.42	
2025-01-07 18:51:33.71	172.90	10.44	
2025-01-07 18:51:33.91	172.90	10.45	
2025-01-07 18:51:34.12	172.91	10.47	
2025-01-07 18:51:34.32	172.92	10.49	
2025-01-07 18:51:34.53	172.92	10.51	
2025-01-07 18:51:34.74	172.93	10.53	
2025-01-07 18:51:34.94	172.94	10.55	
2025-01-07 18:51:35.15	172.94	10.57	
2025-01-07 18:51:35.35	172.95	10.59	
2025-01-07 18:51:35.56	172.96	10.61	
2025-01-07 18:51:35.76	172.96	10.63	
2025-01-07 18:51:35.97	172.97	10.65	
2025-01-07 18:51:36.17	172.98	10.67	
2025-01-07 18:51:36.38	172.98	10.69	
2025-01-07 18:51:36.58	172.99	10.71	
2025-01-07 18:51:36.79	173.00	10.73	
2025-01-07 18:51:36.99	173.00	10.75	
2025-01-07 18:51:37.20	173.01	10.77	
2025-01-07 18:51:37.40	173.02	10.79	
2025-01-07 18:51:37.61	173.02	10.81	
2025-01-07 18:51:37.81	173.03	10.83	
2025-01-07 18:51:38.02	173.04	10.85	
2025-01-07 18:51:38.22	173.04	10.86	
2025-01-07 18:51:38.43	173.05	10.88	
2025-01-07 18:51:38.63	173.06	10.90	
2025-01-07 18:51:38.84	173.07	10.92	
2025-01-07 18:51:39.04	173.07	10.94	
2025-01-07 18:51:39.25	173.08	10.96	
2025-01-07 18:51:39.45	173.09	10.98	
2025-01-07 18:51:39.66	173.09	11.00	
2025-01-07 18:51:39.86	173.10	11.02	
2025-01-07 18:51:40.07	173.11	11.04	
2025-01-07 18:51:40.27	173.11	11.06	
2025-01-07 18:51:40.48	173.12	11.08	
2025-01-07 18:51:40.68	173.13	11.10	
2025-01-07 18:51:40.89	173.13	11.12	
2025-01-07 18:51:41.09	173.14	11.14	
2025-01-07 18:51:41.29	173.15	11.16	
2025-01-07 18:51:41.51	173.16	11.18	
2025-01-07 18:51:41.72	173.16	11.20	
2025-01-07 18:51:41.92	173.17	11.22	
2025-01-07 18:51:42.13	173.18	11.24	
2025-01-07 18:51:42.34	173.18	11.26	
2025-01-07 18:51:42.54	173.19	11.28	
2025-01-07 18:51:42.74	173.20	11.30	
2025-01-07 18:51:42.95	173.20	11.32	
2025-01-07 18:51:43.15	173.21	11.34	
2025-01-07 18:51:43.36	173.22	11.36	
2025-01-07 18:51:43.56	173.23	11.38	
2025-01-07 18:51:43.77	173.23	11.40	
2025-01-07 18:51:43.97	173.24	11.42	
2025-01-07 18:51:44.18	173.25	11.44	
2025-01-07 18:51:44.38	173.25	11.46	
2025-01-07 18:51:44.59	173.26	11.48	
2025-01-07 18:51:44.79	173.27	11.50	
2025-01-07 18:51:45.00	173.28	11.53	
2025-01-07 18:51:45.20	173.28	11.55	
2025-01-07 18:51:45.41	173.29	11.57	
2025-01-07 18:51:45.62	173.30	11.59	
2025-01-07 18:51:45.82	173.30	11.61	
2025-01-07 18:51:46.03	173.31	11.63	
2025-01-07 18:51:46.23	173.32	11.65	
2025-01-07 18:51:46.44	173.33	11.67	
2025-01-07 18:51:46.64	173.33	11.69	
2025-01-07 18:51:46.86	173.34	11.71	
2025-01-07 18:51:47.07	173.35	11.73	
2025-01-07 18:51:47.27	173.35	11.75	
2025-01-07 18:51:47.48	173.36	11.77	
2025-01-07 18:51:47.68	173.37	11.79	
2025-01-07 18:51:47.89	173.38	11.81	
2025-01-07 18:51:48.09	173.38	11.83	
2025-01-07 18:51:48.30	173.39	11.85	
2025-01-07 18:51:48.51	173.40	11.88	
2025-01-07 18:51:48.72	173.41	11.90	
2025-01-07 18:51:48.92	173.41	11.92	
2025-01-07 18:51:49.13	173.42	11.94	
2025-01-07 18:51:49.33	173.43	11.96	
2025-01-07 18:51:49.54	173.44	11.98	
2025-01-07 18:51:49.74	173.44	12.00	
2025-01-07 18:51:49.95	173.45	12.02	
2025-01-07 18:51:50.15	173.46	12.04	
2025-01-07 18:51:50.36	173.47	12.06	
2025-01-07 18:51:50.56	173.47	12.08	
2025-01-07 18:51:50.77	173.48	12.10	
2025-01-07 18:51:50.97	173.49	12.12	
2025-01-07 18:51:51.18	173.49	12.15	
2025-01-07 18:51:51.38	173.50	12.17	
2025-01-07 18:51:51.59	173.51	12.19	
2025-01-07 18:51:51.80	173.52	12.21	
2025-01-07 18:51:52.00	173.52	12.23	
2025-01-07 18:51:52.21	173.53	12.25	
2025-01-07 18:51:52.41	173.54	12.27	
2025-01-07 18:51:52.62	173.55	12.29	
2025-01-07 18:51:52.82	173.55	12.31	
2025-01-07 18:51:53.03	173.56	12.33	
2025-01-07 18:51:53.23	173.57	12.35	
2025-01-07 18:51:53.44	173.58	12.38	
2025-01-07 18:51:53.65	173.58	12.40	
2025-01-07 18:51:53.85	173.59	12.42	
2025-01-07 18:51:54.06	173.60	12.44	
2025-01-07 18:51:54.26	173.61	12.46	
2025-01-07 18:51:54.46	173.61	12.48	
2025-01-07 18:51:54.67	173.62	12.50	
2025-01-07 18:51:54.87	173.63	12.52	
2025-01-07 18:51:55.08	173.64	12.55	
2025-01-07 18:51:55.28	173.65	12.57	
2025-01-07 18:51:55.49	173.65	12.59	
2025-01-07 18:51:55.69	173.66	12.61	
2025-01-07 18:51:55.90	173.67	12.63	
2025-01-07 18:51:56.10	173.68	12.65	
2025-01-07 18:51:56.31	173.68	12.67	
2025-01-07 18:51:56.51	173.69	12.69	
2025-01-07 18:51:56.72	173.70	12.72	
2025-01-07 18:51:56.92	173.71	12.74	
2025-01-07 18:51:57.13	173.71	12.76	
2025-01-07 18:51:57.33	173.72	12.78	
2025-01-07 18:51:57.54	173.73	12.80	
2025-01-07 18:51:57.74	173.74	12.82	
2025-01-07 18:51:57.95	173.75	12.84	
2025-01-07 18:51:58.15	173.75	12.87	
2025-01-07 18:51:58.36	173.76	12.89	
2025-01-07 18:51:58.56	173.77	12.91	
2025-01-07 18:51:58.77	173.78	12.93	
2025-01-07 18:51:58.97	173.78	12.95	
2025-01-07 18:51:59.18	173.79	12.97	
2025-01-07 18:51:59.39	173.80	13.00	
2025-01-07 18:51:59.59	173.81	13.02	
2025-01-07 18:51:59.80	173.82	13.04	
2025-01-07 18:52:00.00	173.82	13.06	
2025-01-07 18:52:00.21	173.83	13.08	
2025-01-07 18:52:00.41	173.84	13.10	
2025-01-07 18:52:00.62	173.85	13.13	
2025-01-07 18:52:00.82	173.86	13.15	
2025-01-07 18:52:01.03	173.86	13.17	
2025-01-07 18:52:01.23	173.87	13.19	
2025-01-07 18:52:01.44	173.88	13.21	
2025-01-07 18:52:01.64	173.89	13.24	
2025-01-07 18:52:01.84	173.90	13.26	
2025-01-07 18:52:02.05	173.90	13.28	
2025-01-07 18:52:02.26	173.91	13.30	
2025-01-07 18:52:02.46	173.92	13.32	
2025-01-07 18:52:02.67	173.93	13.35	
2025-01-07 18:52:02.87	173.94	13.37	
2025-01-07 18:52:03.08	173.94	13.39	
2025-01-07 18:52:03.28	173.95	13.41	
2025-01-07 18:52:03.49	173.96	13.43	
2025-01-07 18:52:03.69	173.97	13.45	
2025-01-07 18:52:03.90	173.98	13.48	
2025-01-07 18:52:04.10	173.98	13.50	
2025-01-07 18:52:04.31	173.99	13.52	
2025-01-07 18:52:04.51	174.00	13.54	
2025-01-07 18:52:04.72	174.01	13.57	
2025-01-07 18:52:04.92	174.02	13.59	
2025-01-07 18:52:05.13	174.03	13.61	
2025-01-07 18:52:05.34	174.03	13.63	
2025-01-07 18:52:05.54	174.04	13.66	
2025-01-07 18:52:05.75	174.05	13.68	
2025-01-07 18:52:05.95	174.06	13.70	
2025-01-07 18:52:06.16	174.07	13.72	
2025-01-07 18:52:06.36	174.07	13.74	
2025-01-07 18:52:06.57	174.08	13.77	
2025-01-07 18:52:06.77	174.09	13.79	
2025-01-07 18:52:06.98	174.10	13.81	
2025-01-07 18:52:07.18	174.11	13.83	
2025-01-07 18:52:07.38	174.12	13.86	
2025-01-07 18:52:07.59	174.12	13.88	
2025-01-07 18:52:07.79	174.13	13.90	
2025-01-07 18:52:08.00	174.14	13.92	
2025-01-07 18:52:08.20	174.15	13.95	
2025-01-07 18:52:08.41	174.16	13.97	
2025-01-07 18:52:08.61	174.17	13.99	
2025-01-07 18:52:08.82	174.17	14.02	
2025-01-07 18:52:09.02	174.18	14.04	
2025-01-07 18:52:09.23	174.19	14.06	
2025-01-07 18:52:09.43	174.20	14.08	
2025-01-07 18:52:09.64	174.21	14.11	
2025-01-07 18:52:09.84	174.22	14.13	
2025-01-07 18:52:10.05	174.23	14.15	
2025-01-07 18:52:10.25	174.23	14.17	
2025-01-07 18:52:10.46	174.24	14.20	
2025-01-07 18:52:10.66	174.25	14.22	
2025-01-07 18:52:10.87	174.26	14.24	
2025-01-07 18:52:11.07	174.27	14.27	
2025-01-07 18:52:11.28	174.28	14.29	
2025-01-07 18:52:11.48	174.29	14.31	
2025-01-07 18:52:11.69	174.29	14.33	
2025-01-07 18:52:11.89	174.30	14.36	
2025-01-07 18:52:12.10	174.31	14.38	
2025-01-07 18:52:12.31	174.32	14.40	
2025-01-07 18:52:12.51	174.33	14.43	
2025-01-07 18:52:12.71	174.34	14.45	
2025-01-07 18:52:12.92	174.35	14.47	
2025-01-07 18:52:13.12	174.35	14.50	
2025-01-07 18:52:13.33	174.36	14.52	
2025-01-07 18:52:13.53	174.37	14.54	
2025-01-07 18:52:13.74	174.38	14.57	
2025-01-07 18:52:13.94	174.39	14.59	
2025-01-07 18:52:14.15	174.40	14.61	
2025-01-07 18:52:14.35	174.41	14.63	
2025-01-07 18:52:14.57	174.42	14.66	
2025-01-07 18:52:14.78	174.42	14.68	
2025-01-07 18:52:14.98	174.43	14.71	
2025-01-07 18:52:15.19	174.44	14.73	
2025-01-07 18:52:15.39	174.45	14.75	
2025-01-07 18:52:15.60	174.46	14.78	
2025-01-07 18:52:15.80	174.47	14.80	
2025-01-07 18:52:16.01	174.48	14.82	
2025-01-07 18:52:16.21	174.49	14.85	
2025-01-07 18:52:16.42	174.50	14.87	
2025-01-07 18:52:16.63	174.50	14.90	
2025-01-07 18:52:16.83	174.51	14.92	
2025-01-07 18:52:17.03	174.52	14.94	
2025-01-07 18:52:17.24	174.53	14.97	
2025-01-07 18:52:17.44	174.54	14.99	
2025-01-07 18:52:17.65	174.55	15.01	
2025-01-07 18:52:17.87	174.56	15.04	
2025-01-07 18:52:18.07	174.57	15.06	
2025-01-07 18:52:18.28	174.58	15.09	
2025-01-07 18:52:18.48	174.59	15.11	
2025-01-07 18:52:18.69	174.59	15.13	
2025-01-07 18:52:18.89	174.60	15.16	
2025-01-07 18:52:19.09	174.61	15.18	
2025-01-07 18:52:19.30	174.62	15.20	
2025-01-07 18:52:19.51	174.63	15.23	
2025-01-07 18:52:19.71	174.64	15.25	
2025-01-07 18:52:19.92	174.65	15.28	
2025-01-07 18:52:20.12	174.66	15.30	
2025-01-07 18:52:20.33	174.67	15.32	
2025-01-07 18:52:20.53	174.68	15.35	
2025-01-07 18:52:20.74	174.69	15.37	
2025-01-07 18:52:20.94	174.70	15.40	
2025-01-07 18:52:21.14	174.70	15.42	
2025-01-07 18:52:21.35	174.71	15.44	
2025-01-07 18:52:21.56	174.72	15.47	
2025-01-07 18:52:21.76	174.73	15.49	
2025-01-07 18:52:21.97	174.74	15.52	
2025-01-07 18:52:22.17	174.75	15.54	
2025-01-07 18:52:22.38	174.76	15.57	
2025-01-07 18:52:22.58	174.77	15.59	
2025-01-07 18:52:22.79	174.78	15.61	
2025-01-07 18:52:22.99	174.79	15.64	
2025-01-07 18:52:23.20	174.80	15.66	
2025-01-07 18:52:23.40	174.81	15.69	
2025-01-07 18:52:23.61	174.82	15.71	
2025-01-07 18:52:23.81	174.83	15.74	
2025-01-07 18:52:24.02	174.84	15.76	
2025-01-07 18:52:24.22	174.84	15.79	
2025-01-07 18:52:24.43	174.85	15.81	
2025-01-07 18:52:24.63	174.86	15.83	
2025-01-07 18:52:24.84	174.87	15.86	
2025-01-07 18:52:25.04	174.88	15.88	
2025-01-07 18:52:25.25	174.89	15.91	
2025-01-07 18:52:25.45	174.90	15.93	
2025-01-07 18:52:25.66	174.91	15.96	
2025-01-07 18:52:25.86	174.92	15.98	
2025-01-07 18:52:26.07	174.93	16.01	
2025-01-07 18:52:26.28	174.94	16.03	
2025-01-07 18:52:26.48	174.95	16.06	
2025-01-07 18:52:26.69	174.96	16.08	
2025-01-07 18:52:26.89	174.97	16.11	
2025-01-07 18:52:27.10	174.98	16.13	
2025-01-07 18:52:27.30	174.99	16.16	
2025-01-07 18:52:27.52	175.00	16.18	
2025-01-07 18:52:27.73	175.01	16.21	
2025-01-07 18:52:27.93	175.02	16.23	
2025-01-07 18:52:28.14	175.03	16.26	
2025-01-07 18:52:28.34	175.04	16.28	
2025-01-07 18:52:28.55	175.05	16.31	
2025-01-07 18:52:28.75	175.06	16.33	
2025-01-07 18:52:28.96	175.07	16.36	
2025-01-07 18:52:29.16	175.08	16.38	
2025-01-07 18:52:29.37	175.09	16.41	
2025-01-07 18:52:29.57	175.10	16.43	
2025-01-07 18:52:29.78	175.11	16.46	
2025-01-07 18:52:29.98	175.12	16.48	
2025-01-07 18:52:30.19	175.13	16.51	
2025-01-07 18:52:30.39	175.14	16.54	
2025-01-07 18:52:30.60	175.15	16.56	
2025-01-07 18:52:30.80	175.16	16.59	
2025-01-07 18:52:31.01	175.17	16.61	
2025-01-07 18:52:31.21	175.18	16.64	
2025-01-07 18:52:31.42	175.19	16.66	
2025-01-07 18:52:31.63	175.20	16.69	
2025-01-07 18:52:31.83	175.21	16.71	
2025-01-07 18:52:32.04	175.22	16.74	
2025-01-07 18:52:32.24	175.23	16.77	
2025-01-07 18:52:32.45	175.24	16.79	
2025-01-07 18:52:32.65	175.25	16.82	
2025-01-07 18:52:32.86	175.26	16.84	
2025-01-07 18:52:33.06	175.27	16.87	
2025-01-07 18:52:33.27	175.28	16.89	
2025-01-07 18:52:33.47	175.29	16.92	
2025-01-07 18:52:33.68	175.30	16.95	
2025-01-07 18:52:33.88	175.31	16.97	
2025-01-07 18:52:34.09	175.32	17.00	
2025-01-07 18:52:34.30	175.33	17.02	
2025-01-07 18:52:34.50	175.34	17.05	
2025-01-07 18:52:34.71	175.35	17.08	
2025-01-07 18:52:34.91	175.36	17.10	
2025-01-07 18:52:35.12	175.37	17.13	
2025-01-07 18:52:35.32	175.38	17.15	
2025-01-07 18:52:35.53	175.39	17.18	
2025-01-07 18:52:35.73	175.40	17.21	
2025-01-07 18:52:35.94	175.41	17.23	
2025-01-07 18:52:36.14	175.42	17.26	
2025-01-07 18:52:36.35	175.43	17.28	
2025-01-07 18:52:36.56	175.44	17.31	
2025-01-07 18:52:36.76	175.45	17.34	
2025-01-07 18:52:36.97	175.46	17.36	
2025-01-07 18:52:37.17	175.47	17.39	
2025-01-07 18:52:37.37	175.48	17.42	
2025-01-07 18:52:37.58	175.49	17.44	
2025-01-07 18:52:37.78	175.51	17.47	
2025-01-07 18:52:37.99	175.52	17.49	
2025-01-07 18:52:38.21	175.53	17.52	
2025-01-07 18:52:38.41	175.54	17.55	
2025-01-07 18:52:38.62	175.55	17.58	
2025-01-07 18:52:38.82	175.56	17.60	
2025-01-07 18:52:39.03	175.57	17.63	
2025-01-07 18:52:39.23	175.58	17.66	
2025-01-07 18:52:39.44	175.59	17.68	
2025-01-07 18:52:39.64	175.60	17.71	
2025-01-07 18:52:39.85	175.61	17.74	
2025-01-07 18:52:40.05	175.62	17.76	
2025-01-07 18:52:40.26	175.63	17.79	
2025-01-07 18:52:40.46	175.64	17.82	
2025-01-07 18:52:40.67	175.66	17.84	
2025-01-07 18:52:40.87	175.67	17.87	
2025-01-07 18:52:41.08	175.68	17.90	
2025-01-07 18:52:41.28	175.69	17.92	
2025-01-07 18:52:41.49	175.70	17.95	
2025-01-07 18:52:41.69	175.71	17.98	
2025-01-07 18:52:41.90	175.72	18.00	
2025-01-07 18:52:42.10	175.73	18.03	
2025-01-07 18:52:42.31	175.74	18.06	
2025-01-07 18:52:42.51	175.75	18.09	
2025-01-07 18:52:42.72	175.76	18.11	
2025-01-07 18:52:42.92	175.78	18.14	
2025-01-07 18:52:43.13	175.79	18.17	
2025-01-07 18:52:43.33	175.80	18.19	
2025-01-07 18:52:43.54	175.81	18.22	
2025-01-07 18:52:43.74	175.82	18.25	
2025-01-07 18:52:43.95	175.83	18.28	
2025-01-07 18:52:44.16	175.84	18.30	
2025-01-07 18:52:44.36	175.85	18.33	
2025-01-07 18:52:44.56	175.86	18.36	
2025-01-07 18:52:44.77	175.88	18.39	
2025-01-07 18:52:44.98	175.89	18.41	
2025-01-07 18:52:45.18	175.90	18.44	
2025-01-07 18:52:45.39	175.91	18.47	
2025-01-07 18:52:45.59	175.92	18.50	
2025-01-07 18:52:45.80	175.93	18.52	
2025-01-07 18:52:46.01	175.94	18.55	
2025-01-07 18:52:46.21	175.96	18.58	
2025-01-07 18:52:46.42	175.97	18.61	
2025-01-07 18:52:46.62	175.98	18.64	
2025-01-07 18:52:46.83	175.99	18.66	
2025-01-07 18:52:47.03	176.00	18.69	
2025-01-07 18:52:47.24	176.01	18.72	
2025-01-07 18:52:47.44	176.02	18.75	
2025-01-07 18:52:47.65	176.04	18.78	
2025-01-07 18:52:47.85	176.05	18.80	
2025-01-07 18:52:48.06	176.06	18.83	
2025-01-07 18:52:48.27	176.07	18.86	
2025-01-07 18:52:48.47	176.08	18.89	
2025-01-07 18:52:48.68	176.09	18.92	
2025-01-07 18:52:48.88	176.10	18.94	
2025-01-07 18:52:49.09	176.12	18.97	
2025-01-07 18:52:49.29	176.13	19.00	
2025-01-07 18:52:49.50	176.14	19.03	
2025-01-07 18:52:49.70	176.15	19.06	
2025-01-07 18:52:49.91	176.16	19.09	
2025-01-07 18:52:50.11	176.17	19.11	
2025-01-07 18:52:50.32	176.19	19.14	
2025-01-07 18:52:50.52	176.20	19.17	
2025-01-07 18:52:50.73	176.21	19.20	
2025-01-07 18:52:50.93	176.22	19.23	
2025-01-07 18:52:51.14	176.23	19.26	
2025-01-07 18:52:51.34	176.25	19.28	
2025-01-07 18:52:51.56	176.26	19.31	
2025-01-07 18:52:51.76	176.27	19.34	
2025-01-07 18:52:51.97	176.28	19.37	
2025-01-07 18:52:52.17	176.29	19.40	
2025-01-07 18:52:52.38	176.31	19.43	
2025-01-07 18:52:52.58	176.32	19.46	
2025-01-07 18:52:52.79	176.33	19.49	
2025-01-07 18:52:52.99	176.34	19.51	
2025-01-07 18:52:53.19	176.35	19.54	
2025-01-07 18:52:53.40	176.37	19.57	
2025-01-07 18:52:53.61	176.38	19.60	
2025-01-07 18:52:53.81	176.39	19.63	
2025-01-07 18:52:54.02	176.40	19.66	
2025-01-07 18:52:54.22	176.41	19.69	
2025-01-07 18:52:54.43	176.43	19.72	
2025-01-07 18:52:54.64	176.44	19.75	
2025-01-07 18:52:54.84	176.45	19.78	
2025-01-07 18:52:55.05	176.46	19.81	
2025-01-07 18:52:55.25	176.48	19.83	
2025-01-07 18:52:55.45	176.49	19.86	
2025-01-07 18:52:55.66	176.50	19.89	
2025-01-07 18:52:55.87	176.51	19.92	
2025-01-07 18:52:56.07	176.53	19.95	
2025-01-07 18:52:56.27	176.54	19.98	
2025-01-07 18:52:56.48	176.55	20.01	
2025-01-07 18:52:56.68	176.56	20.04	
2025-01-07 18:52:56.89	176.58	20.07	
2025-01-07 18:52:57.10	176.59	20.10	
2025-01-07 18:52:57.30	176.60	20.13	
2025-01-07 18:52:57.50	176.61	20.16	
2025-01-07 18:52:57.71	176.63	20.19	
2025-01-07 18:52:57.91	176.64	20.22	
2025-01-07 18:52:58.12	176.65	20.25	
2025-01-07 18:52:58.33	176.66	20.28	
2025-01-07 18:52:58.54	176.68	20.31	
2025-01-07 18:52:58.75	176.69	20.34	
2025-01-07 18:52:58.96	176.70	20.37	
2025-01-07 18:52:59.16	176.72	20.40	
2025-01-07 18:52:59.37	176.73	20.43	
2025-01-07 18:52:59.57	176.74	20.46	
2025-01-07 18:52:59.78	176.75	20.49	
2025-01-07 18:52:59.98	176.77	20.52	
2025-01-07 18:53:00.19	176.78	20.55	
2025-01-07 18:53:00.39	176.79	20.58	
2025-01-07 18:53:00.59	176.81	20.61	
2025-01-07 18:53:00.80	176.82	20.64	
2025-01-07 18:53:01.00	176.83	20.67	
2025-01-07 18:53:01.21	176.84	20.70	
2025-01-07 18:53:01.41	176.86	20.73	
2025-01-07 18:53:01.62	176.87	20.76	
2025-01-07 18:53:01.82	176.88	20.79	
2025-01-07 18:53:02.03	176.90	20.82	
2025-01-07 18:53:02.23	176.91	20.85	
2025-01-07 18:53:02.44	176.92	20.88	
2025-01-07 18:53:02.64	176.94	20.91	
2025-01-07 18:53:02.84	176.95	20.94	
2025-01-07 18:53:03.05	176.96	20.97	
2025-01-07 18:53:03.26	176.98	21.01	
2025-01-07 18:53:03.46	176.99	21.04	
2025-01-07 18:53:03.67	177.00	21.07	
2025-01-07 18:53:03.88	177.02	21.10	
2025-01-07 18:53:04.09	177.03	21.13	
2025-01-07 18:53:04.30	177.04	21.16	
2025-01-07 18:53:04.50	177.06	21.19	
2025-01-07 18:53:04.71	177.07	21.22	
2025-01-07 18:53:04.92	177.08	21.26	
2025-01-07 18:53:05.13	177.10	21.29	
2025-01-07 18:53:05.34	177.11	21.32	
2025-01-07 18:53:05.54	177.13	21.35	
2025-01-07 18:53:05.75	177.14	21.38	
2025-01-07 18:53:05.95	177.15	21.41	
2025-01-07 18:53:06.16	177.17	21.44	
2025-01-07 18:53:06.37	177.18	21.48	
2025-01-07 18:53:06.57	177.19	21.51	
2025-01-07 18:53:06.78	177.21	21.54	
2025-01-07 18:53:06.98	177.22	21.57	
2025-01-07 18:53:07.19	177.24	21.60	
2025-01-07 18:53:07.39	177.25	21.63	
2025-01-07 18:53:07.59	177.26	21.66	
2025-01-07 18:53:07.80	177.28	21.70	
2025-01-07 18:53:08.00	177.29	21.73	
2025-01-07 18:53:08.21	177.30	21.76	
2025-01-07 18:53:08.41	177.32	21.79	
2025-01-07 18:53:08.62	177.33	21.82	
2025-01-07 18:53:08.82	177.35	21.85	
2025-01-07 18:53:09.03	177.36	21.89	
2025-01-07 18:53:09.23	177.37	21.92	
2025-01-07 18:53:09.44	177.39	21.95	
2025-01-07 18:53:09.65	177.40	21.98	
2025-01-07 18:53:09.86	177.42	22.02	
2025-01-07 18:53:10.06	177.43	22.05	
2025-01-07 18:53:10.27	177.45	22.08	
2025-01-07 18:53:10.47	177.46	22.11	
2025-01-07 18:53:10.68	177.47	22.14	
2025-01-07 18:53:10.88	177.49	22.18	
2025-01-07 18:53:11.09	177.50	22.21	
2025-01-07 18:53:11.29	177.52	22.24	
2025-01-07 18:53:11.50	177.53	22.27	
2025-01-07 18:53:11.70	177.55	22.30	
2025-01-07 18:53:11.91	177.56	22.34	
2025-01-07 18:53:12.11	177.57	22.37	
2025-01-07 18:53:12.32	177.59	22.40	
2025-01-07 18:53:12.52	177.60	22.43	
2025-01-07 18:53:12.73	177.62	22.47	
2025-01-07 18:53:12.93	177.63	22.50	
2025-01-07 18:53:13.14	177.65	22.53	
2025-01-07 18:53:13.34	177.66	22.57	
2025-01-07 18:53:13.54	177.68	22.60	
2025-01-07 18:53:13.75	177.69	22.63	
2025-01-07 18:53:13.96	177.71	22.66	
2025-01-07 18:53:14.16	177.72	22.70	
2025-01-07 18:53:14.37	177.74	22.73	
2025-01-07 18:53:14.57	177.75	22.76	
2025-01-07 18:53:14.77	177.77	22.80	
2025-01-07 18:53:14.98	177.78	22.83	
2025-01-07 18:53:15.19	177.80	22.86	
2025-01-07 18:53:15.39	177.81	22.90	
2025-01-07 18:53:15.60	177.83	22.93	
2025-01-07 18:53:15.80	177.84	22.96	
2025-01-07 18:53:16.00	177.85	22.99	
2025-01-07 18:53:16.21	177.87	23.03	
2025-01-07 18:53:16.42	177.89	23.06	
2025-01-07 18:53:16.62	177.90	23.10	
2025-01-07 18:53:16.82	177.92	23.13	
2025-01-07 18:53:17.03	177.93	23.16	
2025-01-07 18:53:17.23	177.95	23.20	
2025-01-07 18:53:17.44	177.96	23.23	
2025-01-07 18:53:17.64	177.98	23.26	
2025-01-07 18:53:17.85	177.99	23.30	
2025-01-07 18:53:18.06	178.01	23.33	
2025-01-07 18:53:18.26	178.02	23.36	
2025-01-07 18:53:18.47	178.04	23.40	
2025-01-07 18:53:18.67	178.05	23.43	
2025-01-07 18:53:18.88	178.07	23.47	
2025-01-07 18:53:19.08	178.09	23.50	
2025-01-07 18:53:19.29	178.10	23.54	
2025-01-07 18:53:19.49	178.12	23.57	
2025-01-07 18:53:19.70	178.13	23.60	
2025-01-07 18:53:19.90	178.15	23.64	
2025-01-07 18:53:20.11	178.16	23.67	
2025-01-07 18:53:20.31	178.18	23.71	
2025-01-07 18:53:20.52	178.20	23.74	
2025-01-07 18:53:20.72	178.21	23.77	
2025-01-07 18:53:20.93	178.23	23.81	
2025-01-07 18:53:21.13	178.24	23.84	
2025-01-07 18:53:21.34	178.26	23.88	
2025-01-07 18:53:21.55	178.28	23.91	
2025-01-07 18:53:21.75	178.29	23.95	
2025-01-07 18:53:21.97	178.31	23.98	
2025-01-07 18:53:22.17	178.32	24.02	
2025-01-07 18:53:22.38	178.34	24.05	
2025-01-07 18:53:22.59	178.36	24.09	
2025-01-07 18:53:22.79	178.37	24.12	
2025-01-07 18:53:23.00	178.39	24.16	
2025-01-07 18:53:23.20	178.40	24.19	
2025-01-07 18:53:23.41	178.42	24.23	
2025-01-07 18:53:23.61	178.44	24.26	
2025-01-07 18:53:23.82	178.45	24.30	
2025-01-07 18:53:24.02	178.47	24.33	
2025-01-07 18:53:24.23	178.49	24.37	
2025-01-07 18:53:24.43	178.50	24.40	
2025-01-07 18:53:24.64	178.52	24.44	
2025-01-07 18:53:24.84	178.54	24.48	
2025-01-07 18:53:25.05	178.55	24.51	
2025-01-07 18:53:25.25	178.57	24.55	
2025-01-07 18:53:25.46	178.59	24.58	
2025-01-07 18:53:25.67	178.60	24.62	
2025-01-07 18:53:25.87	178.62	24.65	
2025-01-07 18:53:26.08	178.64	24.69	
2025-01-07 18:53:26.28	178.65	24.73	
2025-01-07 18:53:26.49	178.67	24.76	
2025-01-07 18:53:26.69	178.69	24.80	
2025-01-07 18:53:26.90	178.70	24.83	
2025-01-07 18:53:27.10	178.72	24.87	
2025-01-07 18:53:27.31	178.74	24.91	
2025-01-07 18:53:27.51	178.76	24.94	
2025-01-07 18:53:27.72	178.77	24.98	
2025-01-07 18:53:27.92	178.79	25.01	
2025-01-07 18:53:28.13	178.81	25.05	
2025-01-07 18:53:28.33	178.82	25.08	
2025-01-07 18:53:28.54	178.84	25.12	
2025-01-07 18:53:28.74	178.86	25.16	
2025-01-07 18:53:28.95	178.88	25.19	
2025-01-07 18:53:29.15	178.89	25.23	
2025-01-07 18:53:29.35	178.91	25.27	
2025-01-07 18:53:29.56	178.93	25.30	
2025-01-07 18:53:29.76	178.94	25.34	
2025-01-07 18:53:29.96	178.96	25.37	
2025-01-07 18:53:30.17	178.98	25.41	
2025-01-07 18:53:30.37	179.00	25.45	
2025-01-07 18:53:30.57	179.01	25.48	
2025-01-07 18:53:30.78	179.03	25.52	
2025-01-07 18:53:30.99	179.05	25.56	
2025-01-07 18:53:31.20	179.07	25.60	
2025-01-07 18:53:31.40	179.09	25.63	
2025-01-07 18:53:31.60	179.10	25.67	
2025-01-07 18:53:31.81	179.12	25.71	
2025-01-07 18:53:32.01	179.14	25.74	
2025-01-07 18:53:32.22	179.16	25.78	
2025-01-07 18:53:32.43	179.18	25.82	
2025-01-07 18:53:32.63	179.19	25.86	
2025-01-07 18:53:32.84	179.21	25.89	
2025-01-07 18:53:33.04	179.23	25.93	
2025-01-07 18:53:33.25	179.25	25.97	
2025-01-07 18:53:33.45	179.27	26.01	
2025-01-07 18:53:33.65	179.28	26.04	
2025-01-07 18:53:33.86	179.30	26.08	
2025-01-07 18:53:34.07	179.32	26.12	
2025-01-07 18:53:34.27	179.34	26.16	
2025-01-07 18:53:34.47	179.36	26.19	
2025-01-07 18:53:34.68	179.38	26.23	
2025-01-07 18:53:34.88	179.39	26.27	
2025-01-07 18:53:35.09	179.41	26.31	
2025-01-07 18:53:35.30	179.43	26.35	
2025-01-07 18:53:35.50	179.45	26.38	
2025-01-07 18:53:35.70	179.47	26.42	
2025-01-07 18:53:35.91	179.49	26.46	
2025-01-07 18:53:36.12	179.51	26.50	
2025-01-07 18:53:36.32	179.53	26.54	
2025-01-07 18:53:36.53	179.54	26.58	
2025-01-07 18:53:36.73	179.56	26.61	
2025-01-07 18:53:36.93	179.58	26.65	
2025-01-07 18:53:37.14	179.60	26.69	
2025-01-07 18:53:37.34	179.62	26.73	
2025-01-07 18:53:37.55	179.64	26.77	
2025-01-07 18:53:37.75	179.66	26.81	
2025-01-07 18:53:37.96	179.68	26.85	
2025-01-07 18:53:38.16	179.70	26.88	
2025-01-07 18:53:38.36	179.72	26.92	
2025-01-07 18:53:38.57	179.74	26.96	
2025-01-07 18:53:38.78	179.76	27.00	
2025-01-07 18:53:38.98	179.77	27.04	
2025-01-07 18:53:39.19	179.79	27.08	
2025-01-07 18:53:39.39	179.81	27.12	
2025-01-07 18:53:39.60	179.83	27.16	
2025-01-07 18:53:39.80	179.85	27.20	
2025-01-07 18:53:40.01	179.87	27.24	
2025-01-07 18:53:40.21	179.89	27.27	
2025-01-07 18:53:40.42	179.91	27.31	
2025-01-07 18:53:40.62	179.93	27.35	
2025-01-07 18:53:40.83	179.95	27.39	
2025-01-07 18:53:41.03	179.97	27.43	
2025-01-07 18:53:41.24	179.99	27.47	
2025-01-07 18:53:41.44	180.01	27.51	
2025-01-07 18:53:41.65	180.03	27.55	
2025-01-07 18:53:41.86	180.05	27.59	
2025-01-07 18:53:42.06	180.07	27.63	
2025-01-07 18:53:42.26	180.09	27.67	
2025-01-07 18:53:42.47	180.11	27.71	
2025-01-07 18:53:42.67	180.13	27.75	
2025-01-07 18:53:42.88	180.15	27.79	
2025-01-07 18:53:43.08	180.17	27.83	
2025-01-07 18:53:43.29	180.19	27.87	
2025-01-07 18:53:43.49	180.21	27.91	
2025-01-07 18:53:43.70	180.23	27.95	
2025-01-07 18:53:43.90	180.25	27.99	
2025-01-07 18:53:44.11	180.28	28.03	
2025-01-07 18:53:44.31	180.30	28.07	
2025-01-07 18:53:44.52	180.32	28.11	
2025-01-07 18:53:44.72	180.34	28.15	
2025-01-07 18:53:44.93	180.36	28.20	
2025-01-07 18:53:45.13	180.38	28.24	
2025-01-07 18:53:45.34	180.40	28.28	
2025-01-07 18:53:45.54	180.42	28.32	
2025-01-07 18:53:45.75	180.44	28.36	
2025-01-07 18:53:45.95	180.46	28.40	
2025-01-07 18:53:46.16	180.49	28.44	
2025-01-07 18:53:46.36	180.51	28.48	
2025-01-07 18:53:46.57	180.53	28.52	
2025-01-07 18:53:46.77	180.55	28.56	
2025-01-07 18:53:46.98	180.57	28.61	
2025-01-07 18:53:47.19	180.59	28.65	
2025-01-07 18:53:47.39	180.61	28.69	
2025-01-07 18:53:47.60	180.64	28.73	
2025-01-07 18:53:47.80	180.66	28.77	
2025-01-07 18:53:48.01	180.68	28.82	
2025-01-07 18:53:48.21	180.70	28.86	
2025-01-07 18:53:48.42	180.72	28.90	
2025-01-07 18:53:48.63	180.75	28.94	
2025-01-07 18:53:48.84	180.77	28.98	
2025-01-07 18:53:49.05	180.79	29.03	
2025-01-07 18:53:49.25	180.81	29.07	
2025-01-07 18:53:49.46	180.83	29.11	
2025-01-07 18:53:49.66	180.86	29.15	
2025-01-07 18:53:49.87	180.88	29.20	
2025-01-07 18:53:50.07	180.90	29.24	
2025-01-07 18:53:50.28	180.92	29.28	
2025-01-07 18:53:50.49	180.95	29.32	
2025-01-07 18:53:50.70	180.97	29.37	
2025-01-07 18:53:50.91	180.99	29.41	
2025-01-07 18:53:51.11	181.01	29.45	
2025-01-07 18:53:51.32	181.04	29.50	
2025-01-07 18:53:51.53	181.06	29.54	
2025-01-07 18:53:51.73	181.08	29.58	
2025-01-07 18:53:51.93	181.11	29.62	
2025-01-07 18:53:52.14	181.13	29.67	
2025-01-07 18:53:52.34	181.15	29.71	
2025-01-07 18:53:52.55	181.17	29.75	
2025-01-07 18:53:52.75	181.20	29.80	
2025-01-07 18:53:52.96	181.22	29.84	
2025-01-07 18:53:53.16	181.24	29.88	
2025-01-07 18:53:53.37	181.27	29.93	
2025-01-07 18:53:53.57	181.29	29.97	
2025-01-07 18:53:53.78	181.31	30.01	
2025-01-07 18:53:53.98	181.34	30.06	
2025-01-07 18:53:54.18	181.36	30.10	
2025-01-07 18:53:54.39	181.38	30.14	
2025-01-07 18:53:54.60	181.41	30.19	
2025-01-07 18:53:54.80	181.43	30.23	
2025-01-07 18:53:55.00	181.45	30.27	
2025-01-07 18:53:55.21	181.48	30.32	
2025-01-07 18:53:55.42	181.50	30.36	
2025-01-07 18:53:55.62	181.53	30.41	
2025-01-07 18:53:55.83	181.55	30.45	
2025-01-07 18:53:56.03	181.57	30.49	
2025-01-07 18:53:56.24	181.60	30.54	
2025-01-07 18:53:56.44	181.62	30.58	
2025-01-07 18:53:56.65	181.65	30.63	
2025-01-07 18:53:56.86	181.67	30.67	
2025-01-07 18:53:57.06	181.70	30.72	
2025-01-07 18:53:57.26	181.72	30.76	
2025-01-07 18:53:57.47	181.75	30.81	
2025-01-07 18:53:57.68	181.77	30.85	
2025-01-07 18:53:57.88	181.79	30.90	
2025-01-07 18:53:58.08	181.82	30.94	
2025-01-07 18:53:58.29	181.84	30.99	
2025-01-07 18:53:58.49	181.87	31.03	
2025-01-07 18:53:58.70	181.89	31.08	
2025-01-07 18:53:58.90	181.92	31.12	
2025-01-07 18:53:59.11	181.94	31.17	
2025-01-07 18:53:59.31	181.97	31.21	
2025-01-07 18:53:59.52	181.99	31.26	
2025-01-07 18:53:59.72	182.02	31.30	
2025-01-07 18:53:59.93	182.05	31.35	
2025-01-07 18:54:00.13	182.07	31.39	
2025-01-07 18:54:00.34	182.10	31.44	
2025-01-07 18:54:00.54	182.12	31.48	
2025-01-07 18:54:00.75	182.15	31.53	
2025-01-07 18:54:00.96	182.17	31.58	
2025-01-07 18:54:01.16	182.20	31.62	
2025-01-07 18:54:01.36	182.22	31.67	
2025-01-07 18:54:01.57	182.25	31.71	
2025-01-07 18:54:01.78	182.28	31.76	
2025-01-07 18:54:01.98	182.30	31.81	
2025-01-07 18:54:02.19	182.33	31.85	
2025-01-07 18:54:02.39	182.36	31.90	
2025-01-07 18:54:02.60	182.38	31.95	
2025-01-07 18:54:02.80	182.41	31.99	
2025-01-07 18:54:03.01	182.44	32.04	
2025-01-07 18:54:03.22	182.46	32.09	
2025-01-07 18:54:03.42	182.49	32.13	
2025-01-07 18:54:03.63	182.52	32.18	
2025-01-07 18:54:03.83	182.54	32.23	
2025-01-07 18:54:04.04	182.57	32.27	
2025-01-07 18:54:04.24	182.60	32.32	
2025-01-07 18:54:04.45	182.62	32.37	
2025-01-07 18:54:04.65	182.65	32.41	
2025-01-07 18:54:04.86	182.68	32.46	
2025-01-07 18:54:05.06	182.70	32.51	
2025-01-07 18:54:05.27	182.73	32.56	
2025-01-07 18:54:05.47	182.76	32.60	
2025-01-07 18:54:05.68	182.79	32.65	
2025-01-07 18:54:05.88	182.81	32.70	
2025-01-07 18:54:06.09	182.84	32.75	
2025-01-07 18:54:06.29	182.87	32.79	
2025-01-07 18:54:06.50	182.90	32.84	
2025-01-07 18:54:06.70	182.92	32.89	
2025-01-07 18:54:06.90	182.95	32.94	
2025-01-07 18:54:07.11	182.98	32.98	
2025-01-07 18:54:07.31	183.01	33.03	
2025-01-07 18:54:07.52	183.04	33.08	
2025-01-07 18:54:07.72	183.06	33.13	
2025-01-07 18:54:07.93	183.09	33.18	
2025-01-07 18:54:08.14	183.12	33.23	
2025-01-07 18:54:08.34	183.15	33.27	
2025-01-07 18:54:08.55	183.18	33.32	
2025-01-07 18:54:08.75	183.21	33.37	
2025-01-07 18:54:08.96	183.24	33.42	
2025-01-07 18:54:09.16	183.27	33.47	
2025-01-07 18:54:09.37	183.30	33.52	
2025-01-07 18:54:09.57	183.32	33.57	
2025-01-07 18:54:09.78	183.35	33.62	
2025-01-07 18:54:09.98	183.38	33.66	
2025-01-07 18:54:10.19	183.41	33.71	
2025-01-07 18:54:10.40	183.44	33.76	
2025-01-07 18:54:10.60	183.47	33.81	
2025-01-07 18:54:10.81	183.50	33.86	
2025-01-07 18:54:11.02	183.53	33.91	
2025-01-07 18:54:11.24	183.56	33.97	
2025-01-07 18:54:11.45	183.59	34.02	
2025-01-07 18:54:11.65	183.62	34.07	
2025-01-07 18:54:11.86	183.65	34.12	
2025-01-07 18:54:12.08	183.69	34.17	
2025-01-07 18:54:12.28	183.72	34.22	
2025-01-07 18:54:12.48	183.75	34.27	
2025-01-07 18:54:12.69	183.78	34.32	
2025-01-07 18:54:12.90	183.81	34.37	
2025-01-07 18:54:13.10	183.84	34.42	
2025-01-07 18:54:13.30	183.87	34.47	
2025-01-07 18:54:13.51	183.90	34.52	
2025-01-07 18:54:13.72	183.93	34.57	
2025-01-07 18:54:13.92	183.96	34.62	
2025-01-07 18:54:14.12	183.99	34.67	
2025-01-07 18:54:14.33	184.02	34.72	
2025-01-07 18:54:14.53	184.05	34.77	
2025-01-07 18:54:14.74	184.09	34.82	
2025-01-07 18:54:14.95	184.12	34.88	
2025-01-07 18:54:15.15	184.15	34.93	
2025-01-07 18:54:15.36	184.18	34.98	
2025-01-07 18:54:15.56	184.21	35.03	
2025-01-07 18:54:15.77	184.25	35.08	
2025-01-07 18:54:15.97	184.28	35.13	
2025-01-07 18:54:16.18	184.31	35.18	
2025-01-07 18:54:16.38	184.34	35.23	
2025-01-07 18:54:16.59	184.37	35.29	
2025-01-07 18:54:16.80	184.41	35.34	
2025-01-07 18:54:17.00	184.44	35.39	
2025-01-07 18:54:17.21	184.47	35.44	
2025-01-07 18:54:17.42	184.51	35.50	
2025-01-07 18:54:17.63	184.54	35.55	
2025-01-07 18:54:17.84	184.57	35.60	
2025-01-07 18:54:18.04	184.61	35.65	
2025-01-07 18:54:18.24	184.64	35.70	
2025-01-07 18:54:18.44	184.67	35.75	
2025-01-07 18:54:18.65	184.70	35.81	
2025-01-07 18:54:18.86	184.74	35.86	
2025-01-07 18:54:19.06	184.77	35.91	
2025-01-07 18:54:19.27	184.81	35.97	
2025-01-07 18:54:19.47	184.84	36.02	
2025-01-07 18:54:19.68	184.87	36.07	
2025-01-07 18:54:19.88	184.91	36.12	
2025-01-07 18:54:20.09	184.94	36.18	
2025-01-07 18:54:20.29	184.98	36.23	
2025-01-07 18:54:20.50	185.01	36.28	
2025-01-07 18:54:20.70	185.04	36.34	
2025-01-07 18:54:20.91	185.08	36.39	
2025-01-07 18:54:21.11	185.11	36.44	
2025-01-07 18:54:21.32	185.15	36.50	
2025-01-07 18:54:21.52	185.18	36.55	
2025-01-07 18:54:21.74	185.22	36.61	
2025-01-07 18:54:21.94	185.25	36.66	
2025-01-07 18:54:22.15	185.29	36.71	
2025-01-07 18:54:22.35	185.33	36.77	
2025-01-07 18:54:22.56	185.36	36.82	
2025-01-07 18:54:22.76	185.40	36.87	
2025-01-07 18:54:22.97	185.43	36.93	
2025-01-07 18:54:23.17	185.47	36.98	
2025-01-07 18:54:23.38	185.50	37.04	
2025-01-07 18:54:23.58	185.54	37.09	
2025-01-07 18:54:23.79	185.58	37.15	
2025-01-07 18:54:23.99	185.61	37.20	
2025-01-07 18:54:24.20	185.65	37.26	
2025-01-07 18:54:24.40	185.69	37.31	
2025-01-07 18:54:24.61	185.72	37.36	
2025-01-07 18:54:24.82	185.76	37.42	
2025-01-07 18:54:25.03	185.80	37.48	
2025-01-07 18:54:25.23	185.83	37.53	
2025-01-07 18:54:25.44	185.87	37.59	
2025-01-07 18:54:25.64	185.91	37.64	
2025-01-07 18:54:25.84	185.95	37.69	
2025-01-07 18:54:26.05	185.98	37.75	
2025-01-07 18:54:26.25	186.02	37.80	
2025-01-07 18:54:26.46	186.06	37.86	
2025-01-07 18:54:26.66	186.10	37.92	
2025-01-07 18:54:26.87	186.14	37.97	
2025-01-07 18:54:27.07	186.17	38.03	
2025-01-07 18:54:27.28	186.21	38.08	
2025-01-07 18:54:27.48	186.25	38.14	
2025-01-07 18:54:27.69	186.29	38.20	
2025-01-07 18:54:27.89	186.33	38.25	
2025-01-07 18:54:28.11	186.37	38.31	
2025-01-07 18:54:28.32	186.41	38.37	
2025-01-07 18:54:28.52	186.45	38.42	
2025-01-07 18:54:28.73	186.49	38.48	
2025-01-07 18:54:28.93	186.53	38.54	
2025-01-07 18:54:29.13	186.56	38.59	
2025-01-07 18:54:29.34	186.60	38.65	
2025-01-07 18:54:29.54	186.64	38.70	
2025-01-07 18:54:29.75	186.68	38.76	
2025-01-07 18:54:29.95	186.72	38.82	
2025-01-07 18:54:30.16	186.76	38.88	
2025-01-07 18:54:30.36	186.80	38.93	
2025-01-07 18:54:30.56	186.84	38.99	
2025-01-07 18:54:30.77	186.88	39.05	
2025-01-07 18:54:30.97	186.92	39.10	
2025-01-07 18:54:31.18	186.97	39.16	
2025-01-07 18:54:31.38	187.01	39.22	
2025-01-07 18:54:31.59	187.05	39.28	
2025-01-07 18:54:31.79	187.09	39.33	
2025-01-07 18:54:32.00	187.13	39.39	
2025-01-07 18:54:32.20	187.17	39.45	
2025-01-07 18:54:32.41	187.22	39.51	
2025-01-07 18:54:32.61	187.26	39.56	
2025-01-07 18:54:32.82	187.30	39.62	
2025-01-07 18:54:33.02	187.34	39.68	
2025-01-07 18:54:33.23	187.38	39.74	
2025-01-07 18:54:33.43	187.43	39.80	
2025-01-07 18:54:33.64	187.47	39.86	
2025-01-07 18:54:33.84	187.51	39.91	
2025-01-07 18:54:34.05	187.55	39.97	
2025-01-07 18:54:34.25	187.60	40.03	
2025-01-07 18:54:34.47	187.64	40.09	
2025-01-07 18:54:34.68	187.69	40.15	
2025-01-07 18:54:34.88	187.73	40.21	
2025-01-07 18:54:35.10	187.78	40.28	
2025-01-07 18:54:35.31	187.82	40.34	
2025-01-07 18:54:35.51	187.87	40.39	
2025-01-07 18:54:35.71	187.91	40.45	
2025-01-07 18:54:35.92	187.95	40.51	
2025-01-07 18:54:36.13	188.00	40.57	
2025-01-07 18:54:36.34	188.05	40.63	
2025-01-07 18:54:36.54	188.09	40.69	
2025-01-07 18:54:36.75	188.14	40.75	
2025-01-07 18:54:36.95	188.18	40.81	
2025-01-07 18:54:37.16	188.23	40.87	
2025-01-07 18:54:37.36	188.27	40.93	
2025-01-07 18:54:37.57	188.32	40.99	
2025-01-07 18:54:37.77	188.36	41.05	
2025-01-07 18:54:37.98	188.41	41.11	
2025-01-07 18:54:38.18	188.46	41.17	
2025-01-07 18:54:38.39	188.50	41.23	
2025-01-07 18:54:38.59	188.55	41.29	
2025-01-07 18:54:38.80	188.60	41.35	
2025-01-07 18:54:39.00	188.64	41.41	
2025-01-07 18:54:39.21	188.69	41.48	
2025-01-07 18:54:39.41	188.74	41.54	
2025-01-07 18:54:39.62	188.79	41.60	
2025-01-07 18:54:39.82	188.83	41.66	
2025-01-07 18:54:40.03	188.88	41.72	
2025-01-07 18:54:40.23	188.93	41.78	
2025-01-07 18:54:40.44	188.98	41.84	
2025-01-07 18:54:40.64	189.03	41.90	
2025-01-07 18:54:40.85	189.08	41.97	
2025-01-07 18:54:41.05	189.12	42.03	
2025-01-07 18:54:41.26	189.17	42.09	
2025-01-07 18:54:41.46	189.22	42.15	
2025-01-07 18:54:41.67	189.27	42.21	
2025-01-07 18:54:41.87	189.32	42.27	
2025-01-07 18:54:42.08	189.37	42.34	
2025-01-07 18:54:42.28	189.42	42.40	
2025-01-07 18:54:42.49	189.47	42.46	
2025-01-07 18:54:42.69	189.52	42.52	
2025-01-07 18:54:42.90	189.57	42.58	
2025-01-07 18:54:43.10	189.62	42.64	
2025-01-07 18:54:43.31	189.67	42.71	
2025-01-07 18:54:43.51	189.72	42.77	
2025-01-07 18:54:43.72	189.78	42.83	
2025-01-07 18:54:43.94	189.83	42.90	
2025-01-07 18:54:44.14	189.88	42.96	
2025-01-07 18:54:44.35	189.93	43.03	
2025-01-07 18:54:44.55	189.99	43.09	
2025-01-07 18:54:44.76	190.04	43.15	
2025-01-07 18:54:44.96	190.09	43.21	
2025-01-07 18:54:45.17	190.14	43.28	
2025-01-07 18:54:45.37	190.20	43.34	
2025-01-07 18:54:45.58	190.25	43.41	
2025-01-07 18:54:45.78	190.30	43.47	
2025-01-07 18:54:45.99	190.36	43.53	
2025-01-07 18:54:46.21	190.42	43.60	
2025-01-07 18:54:46.41	190.47	43.66	
2025-01-07 18:54:46.62	190.52	43.73	
2025-01-07 18:54:46.82	190.58	43.79	
2025-01-07 18:54:47.03	190.63	43.86	
2025-01-07 18:54:47.23	190.69	43.92	
2025-01-07 18:54:47.43	190.74	43.98	
2025-01-07 18:54:47.64	190.80	44.05	
2025-01-07 18:54:47.85	190.85	44.11	
2025-01-07 18:54:48.05	190.91	44.18	
2025-01-07 18:54:48.27	190.97	44.25	
2025-01-07 18:54:48.47	191.02	44.31	
2025-01-07 18:54:48.68	191.08	44.37	
2025-01-07 18:54:48.88	191.14	44.44	
2025-01-07 18:54:49.09	191.20	44.50	
2025-01-07 18:54:49.29	191.25	44.57	
2025-01-07 18:54:49.49	191.31	44.63	
2025-01-07 18:54:49.70	191.37	44.70	
2025-01-07 18:54:49.90	191.42	44.76	
2025-01-07 18:54:50.11	191.48	44.83	
2025-01-07 18:54:50.31	191.54	44.89	
2025-01-07 18:54:50.52	191.60	44.96	
2025-01-07 18:54:50.73	191.66	45.03	
2025-01-07 18:54:50.94	191.72	45.09	
2025-01-07 18:54:51.14	191.78	45.16	
2025-01-07 18:54:51.35	191.84	45.22	
2025-01-07 18:54:51.55	191.90	45.29	
2025-01-07 18:54:51.75	191.96	45.35	
2025-01-07 18:54:51.96	192.02	45.42	
2025-01-07 18:54:52.17	192.08	45.49	
2025-01-07 18:54:52.37	192.14	45.55	
2025-01-07 18:54:52.58	192.20	45.62	
2025-01-07 18:54:52.78	192.26	45.68	
2025-01-07 18:54:52.98	192.32	45.75	
2025-01-07 18:54:53.19	192.38	45.82	
2025-01-07 18:54:53.39	192.45	45.88	
2025-01-07 18:54:53.60	192.51	45.95	
2025-01-07 18:54:53.80	192.57	46.01	
2025-01-07 18:54:54.01	192.63	46.08	
2025-01-07 18:54:54.22	192.70	46.15	
2025-01-07 18:54:54.42	192.76	46.22	
2025-01-07 18:54:54.62	192.82	46.28	
2025-01-07 18:54:54.83	192.89	46.35	
2025-01-07 18:54:55.03	192.95	46.42	
2025-01-07 18:54:55.24	193.02	46.48	
2025-01-07 18:54:55.44	193.08	46.55	
2025-01-07 18:54:55.65	193.15	46.62	
2025-01-07 18:54:55.85	193.21	46.69	
2025-01-07 18:54:56.06	193.28	46.75	
2025-01-07 18:54:56.26	193.34	46.82	
2025-01-07 18:54:56.47	193.41	46.89	
2025-01-07 18:54:56.67	193.48	46.96	
2025-01-07 18:54:56.88	193.54	47.02	
2025-01-07 18:54:57.09	193.61	47.09	
2025-01-07 18:54:57.29	193.68	47.16	
2025-01-07 18:54:57.50	193.75	47.23	
2025-01-07 18:54:57.70	193.81	47.30	
2025-01-07 18:54:57.92	193.89	47.37	
2025-01-07 18:54:58.12	193.95	47.44	
2025-01-07 18:54:58.33	194.03	47.51	
2025-01-07 18:54:58.53	194.09	47.57	
2025-01-07 18:54:58.74	194.16	47.64	
2025-01-07 18:54:58.94	194.23	47.71	
2025-01-07 18:54:59.14	194.30	47.78	
2025-01-07 18:54:59.35	194.37	47.85	
2025-01-07 18:54:59.56	194.45	47.92	
2025-01-07 18:54:59.76	194.51	47.98	
2025-01-07 18:54:59.97	194.59	48.05	
2025-01-07 18:55:00.17	194.66	48.12	
2025-01-07 18:55:00.37	194.73	48.19	
2025-01-07 18:55:00.58	194.80	48.26	
2025-01-07 18:55:00.78	194.87	48.33	
2025-01-07 18:55:00.99	194.95	48.40	
2025-01-07 18:55:01.19	195.02	48.47	
2025-01-07 18:55:01.40	195.09	48.54	
2025-01-07 18:55:01.61	195.17	48.61	
2025-01-07 18:55:01.81	195.24	48.68	
2025-01-07 18:55:02.01	195.32	48.74	
2025-01-07 18:55:02.22	195.39	48.81	
2025-01-07 18:55:02.42	195.47	48.88	
2025-01-07 18:55:02.63	195.54	48.95	
2025-01-07 18:55:02.83	195.62	49.02	
2025-01-07 18:55:03.04	195.70	49.09	
2025-01-07 18:55:03.24	195.77	49.16	
2025-01-07 18:55:03.45	195.85	49.23	
2025-01-07 18:55:03.65	195.92	49.30	
2025-01-07 18:55:03.86	196.00	49.37	
2025-01-07 18:55:04.06	196.08	49.44	
2025-01-07 18:55:04.26	196.16	49.51	
2025-01-07 18:55:04.47	196.24	49.58	
2025-01-07 18:55:04.67	196.31	49.65	
2025-01-07 18:55:04.88	196.40	49.72	
2025-01-07 18:55:05.09	196.48	49.79	
2025-01-07 18:55:05.29	196.56	49.86	
2025-01-07 18:55:05.50	196.64	49.94	
2025-01-07 18:55:05.70	196.72	50.00	
2025-01-07 18:55:05.91	196.80	50.08	
2025-01-07 18:55:06.11	196.88	50.15	
2025-01-07 18:55:06.31	196.96	50.21	
2025-01-07 18:55:06.52	197.05	50.29	
2025-01-07 18:55:06.73	197.13	50.36	
2025-01-07 18:55:06.93	197.21	50.43	
2025-01-07 18:55:07.14	197.30	50.50	
2025-01-07 18:55:07.34	197.38	50.57	
2025-01-07 18:55:07.55	197.47	50.64	
2025-01-07 18:55:07.75	197.55	50.71	
2025-01-07 18:55:07.96	197.64	50.79	
2025-01-07 18:55:08.16	197.72	50.86	
2025-01-07 18:55:08.37	197.81	50.93	
2025-01-07 18:55:08.57	197.89	51.00	
2025-01-07 18:55:08.78	197.98	51.07	
2025-01-07 18:55:08.98	198.07	51.14	
2025-01-07 18:55:09.19	198.16	51.21	
2025-01-07 18:55:09.40	198.25	51.29	
2025-01-07 18:55:09.60	198.33	51.36	
2025-01-07 18:55:09.81	198.42	51.43	
2025-01-07 18:55:10.01	198.51	51.50	
2025-01-07 18:55:10.22	198.60	51.57	
2025-01-07 18:55:10.42	198.69	51.64	
2025-01-07 18:55:10.62	198.78	51.71	
2025-01-07 18:55:10.83	198.87	51.79	
2025-01-07 18:55:11.04	198.97	51.86	
2025-01-07 18:55:11.24	199.06	51.93	
2025-01-07 18:55:11.45	199.15	52.00	
2025-01-07 18:55:11.65	199.24	52.07	
2025-01-07 18:55:11.85	199.33	52.14	
2025-01-07 18:55:12.06	199.43	52.22	
2025-01-07 18:55:12.27	199.53	52.29	
2025-01-07 18:55:12.47	199.62	52.36	
2025-01-07 18:55:12.68	199.72	52.44	
2025-01-07 18:55:12.88	199.81	52.51	
2025-01-07 18:55:13.09	199.91	52.58	
2025-01-07 18:55:13.29	200.00	52.65	
2025-01-07 18:55:13.50	200.10	52.72	
2025-01-07 18:55:13.70	200.20	52.79	
2025-01-07 18:55:13.91	200.30	52.87	
2025-01-07 18:55:14.11	200.39	52.94	
2025-01-07 18:55:14.32	200.50	53.01	
2025-01-07 18:55:14.53	200.60	53.09	
2025-01-07 18:55:14.73	200.70	53.16	
2025-01-07 18:55:14.93	200.79	53.23	
2025-01-07 18:55:15.14	200.90	53.30	
2025-01-07 18:55:15.34	201.00	53.37	
2025-01-07 18:55:15.55	201.10	53.45	
2025-01-07 18:55:15.76	201.21	53.52	
2025-01-07 18:55:15.96	201.31	53.59	
2025-01-07 18:55:16.16	201.41	53.66	
2025-01-07 18:55:16.37	201.51	53.74	
2025-01-07 18:55:16.58	201.62	53.81	
2025-01-07 18:55:16.78	201.72	53.88	
2025-01-07 18:55:16.98	201.83	53.95	
2025-01-07 18:55:17.19	201.94	54.03	
2025-01-07 18:55:17.39	202.04	54.10	
2025-01-07 18:55:17.60	202.15	54.17	
2025-01-07 18:55:17.80	202.25	54.24	
2025-01-07 18:55:18.01	202.37	54.32	
2025-01-07 18:55:18.21	202.47	54.39	
2025-01-07 18:55:18.42	202.58	54.46	
2025-01-07 18:55:18.62	202.69	54.53	
2025-01-07 18:55:18.83	202.80	54.61	
2025-01-07 18:55:19.03	202.91	54.68	
2025-01-07 18:55:19.24	203.03	54.75	
2025-01-07 18:55:19.44	203.14	54.82	
2025-01-07 18:55:19.65	203.25	54.90	
2025-01-07 18:55:19.85	203.36	54.97	
2025-01-07 18:55:20.06	203.48	55.04	
2025-01-07 18:55:20.26	203.59	55.11	
2025-01-07 18:55:20.46	203.70	55.18	
2025-01-07 18:55:20.67	203.82	55.26	
2025-01-07 18:55:20.87	203.94	55.33	
2025-01-07 18:55:21.08	204.06	55.40	
2025-01-07 18:55:21.29	204.18	55.48	
2025-01-07 18:55:21.50	204.30	55.55	
2025-01-07 18:55:21.70	204.41	55.62	
2025-01-07 18:55:21.91	204.54	55.70	
2025-01-07 18:55:22.11	204.65	55.77	
2025-01-07 18:55:22.31	204.77	55.84	
2025-01-07 18:55:22.52	204.89	55.91	
2025-01-07 18:55:22.72	205.01	55.98	
2025-01-07 18:55:22.93	205.14	56.06	
2025-01-07 18:55:23.14	205.27	56.13	
2025-01-07 18:55:23.34	205.39	56.20	
2025-01-07 18:55:23.55	205.51	56.27	
2025-01-07 18:55:23.75	205.64	56.34	
2025-01-07 18:55:23.96	205.76	56.42	
2025-01-07 18:55:24.16	205.89	56.49	
2025-01-07 18:55:24.37	206.02	56.56	
2025-01-07 18:55:24.59	206.16	56.64	
2025-01-07 18:55:24.79	206.28	56.71	
2025-01-07 18:55:25.00	206.41	56.78	
2025-01-07 18:55:25.20	206.54	56.85	
2025-01-07 18:55:25.41	206.67	56.93	
2025-01-07 18:55:25.61	206.80	57.00	
2025-01-07 18:55:25.82	206.94	57.07	
2025-01-07 18:55:26.03	207.07	57.14	
2025-01-07 18:55:26.23	207.20	57.21	
2025-01-07 18:55:26.44	207.34	57.29	
2025-01-07 18:55:26.66	207.48	57.36	
2025-01-07 18:55:26.86	207.62	57.43	
2025-01-07 18:55:27.07	207.76	57.51	
2025-01-07 18:55:27.27	207.89	57.58	
2025-01-07 18:55:27.48	208.03	57.65	
2025-01-07 18:55:27.68	208.16	57.72	
2025-01-07 18:55:27.89	208.31	57.79	
2025-01-07 18:55:28.09	208.44	57.86	
2025-01-07 18:55:28.30	208.59	57.94	
2025-01-07 18:55:28.50	208.73	58.00	
2025-01-07 18:55:28.71	208.87	58.08	
2025-01-07 18:55:28.91	209.01	58.15	
2025-01-07 18:55:29.12	209.16	58.22	
2025-01-07 18:55:29.32	209.30	58.29	
2025-01-07 18:55:29.53	209.45	58.36	
2025-01-07 18:55:29.74	209.60	58.43	
2025-01-07 18:55:29.95	209.75	58.50	
2025-01-07 18:55:30.16	209.90	58.58	
2025-01-07 18:55:30.36	210.04	58.65	
2025-01-07 18:55:30.57	210.19	58.72	
2025-01-07 18:55:30.77	210.34	58.79	
2025-01-07 18:55:30.97	210.49	58.85	
2025-01-07 18:55:31.18	210.64	58.93	
2025-01-07 18:55:31.39	210.80	59.00	
2025-01-07 18:55:31.59	210.95	59.06	
2025-01-07 18:55:31.80	211.10	59.14	
2025-01-07 18:55:32.00	211.26	59.20	
2025-01-07 18:55:32.20	211.41	59.27	
2025-01-07 18:55:32.41	211.57	59.34	
2025-01-07 18:55:32.61	211.72	59.41	
2025-01-07 18:55:32.82	211.88	59.48	
2025-01-07 18:55:33.02	212.04	59.55	
2025-01-07 18:55:33.23	212.20	59.62	
2025-01-07 18:55:33.43	212.36	59.69	
2025-01-07 18:55:33.64	212.52	59.76	
2025-01-07 18:55:33.84	212.68	59.82	
2025-01-07 18:55:34.04	212.84	59.89	
2025-01-07 18:55:34.25	213.01	59.96	
2025-01-07 18:55:34.45	213.17	60.03	
2025-01-07 18:55:34.66	213.34	60.10	
2025-01-07 18:55:34.86	213.50	60.16	
2025-01-07 18:55:35.07	213.67	60.23	
2025-01-07 18:55:35.27	213.84	60.30	
2025-01-07 18:55:35.48	214.01	60.37	
2025-01-07 18:55:35.68	214.17	60.43	
2025-01-07 18:55:35.89	214.35	60.50	
2025-01-07 18:55:36.10	214.53	60.57	
2025-01-07 18:55:36.30	214.69	60.63	
2025-01-07 18:55:36.50	214.86	60.70	
2025-01-07 18:55:36.71	215.04	60.77	
2025-01-07 18:55:36.92	215.22	60.83	
2025-01-07 18:55:37.12	215.39	60.90	
2025-01-07 18:55:37.32	215.57	60.96	
2025-01-07 18:55:37.53	215.75	61.03	
2025-01-07 18:55:37.73	215.92	61.09	
2025-01-07 18:55:37.94	216.11	61.16	
2025-01-07 18:55:38.14	216.29	61.23	
2025-01-07 18:55:38.35	216.47	61.29	
2025-01-07 18:55:38.55	216.65	61.36	
2025-01-07 18:55:38.76	216.84	61.42	
2025-01-07 18:55:38.96	217.02	61.48	
2025-01-07 18:55:39.17	217.21	61.55	
2025-01-07 18:55:39.37	217.39	61.61	
2025-01-07 18:55:39.58	217.58	61.68	
2025-01-07 18:55:39.78	217.77	61.74	
2025-01-07 18:55:39.99	217.96	61.81	
2025-01-07 18:55:40.20	218.16	61.87	
2025-01-07 18:55:40.40	218.34	61.93	
2025-01-07 18:55:40.60	218.53	61.99	
2025-01-07 18:55:40.81	218.73	62.06	
2025-01-07 18:55:41.01	218.92	62.12	
2025-01-07 18:55:41.22	219.12	62.18	
2025-01-07 18:55:41.42	219.31	62.24	
2025-01-07 18:55:41.64	219.52	62.31	
2025-01-07 18:55:41.85	219.73	62.37	
2025-01-07 18:55:42.05	219.92	62.43	
2025-01-07 18:55:42.26	220.13	62.50	
2025-01-07 18:55:42.47	220.34	62.56	
2025-01-07 18:55:42.67	220.53	62.62	
2025-01-07 18:55:42.88	220.74	62.68	
2025-01-07 18:55:43.08	220.94	62.74	
2025-01-07 18:55:43.29	221.15	62.80	
2025-01-07 18:55:43.49	221.35	62.86	
2025-01-07 18:55:43.69	221.56	62.91	
2025-01-07 18:55:43.90	221.77	62.97	
2025-01-07 18:55:44.10	221.98	63.03	
2025-01-07 18:55:44.31	222.19	63.09	
2025-01-07 18:55:44.51	222.40	63.15	
2025-01-07 18:55:44.72	222.62	63.21	
2025-01-07 18:55:44.92	222.83	63.27	
2025-01-07 18:55:45.13	223.05	63.32	
2025-01-07 18:55:45.33	223.26	63.38	
2025-01-07 18:55:45.54	223.48	63.44	
2025-01-07 18:55:45.74	223.69	63.49	
2025-01-07 18:55:45.95	223.92	63.55	
2025-01-07 18:55:46.15	224.13	63.61	
2025-01-07 18:55:46.36	224.36	63.66	
2025-01-07 18:55:46.56	224.58	63.72	
2025-01-07 18:55:46.77	224.80	63.77	
2025-01-07 18:55:46.98	225.03	63.83	
2025-01-07 18:55:47.19	225.27	63.89	
2025-01-07 18:55:47.40	225.50	63.94	
2025-01-07 18:55:47.60	225.72	63.99	
2025-01-07 18:55:47.81	225.95	64.05	
2025-01-07 18:55:48.01	226.18	64.10	
2025-01-07 18:55:48.21	226.40	64.15	
2025-01-07 18:55:48.42	226.64	64.21	
2025-01-07 18:55:48.63	226.88	64.26	
2025-01-07 18:55:48.83	227.11	64.31	
2025-01-07 18:55:49.04	227.35	64.36	
2025-01-07 18:55:49.24	227.58	64.41	
2025-01-07 18:55:49.45	227.82	64.46	
2025-01-07 18:55:49.65	228.06	64.51	
2025-01-07 18:55:49.86	228.30	64.56	
2025-01-07 18:55:50.06	228.54	64.61	
2025-01-07 18:55:50.26	228.77	64.66	
2025-01-07 18:55:50.47	229.02	64.71	
