passes_logs/2025/01/07/SPB_Silybum_02/SPB_Silybum_02__20250107_091354_TERRA_rec.log

#Pass ID: 20250107_091354_TERRA
#Satellite: TERRA
#Configuration: TERRA
#Start time: 2025-01-07 09:13:55

#Version: 2.0.20230423
#Station: SPB_Silybum_02
#Location: 30.233357 lon 59.946436 lat
#TLE: 1 25994U 99068A   25006.77118991  .00001382  00000+0  29492-3 0  9999
#TLE: 2 25994  98.0231  70.0628 0003576  88.8854  23.4584 14.60378914332871

#Time	Az	El	Level	Level2	SNR	BER	Gain	Gain2
2025-01-07 09:13:57.09	12.71	4.15	
2025-01-07 09:13:57.29	12.70	4.17	
2025-01-07 09:13:57.50	12.69	4.18	
2025-01-07 09:13:57.70	12.68	4.20	
2025-01-07 09:13:57.91	12.67	4.21	
2025-01-07 09:13:58.11	12.67	4.22	
2025-01-07 09:13:58.32	12.66	4.24	
2025-01-07 09:13:58.53	12.65	4.25	
2025-01-07 09:13:58.73	12.64	4.27	
2025-01-07 09:13:58.93	12.63	4.28	
2025-01-07 09:13:59.14	12.62	4.30	
2025-01-07 09:13:59.34	12.61	4.31	
2025-01-07 09:13:59.55	12.60	4.32	
2025-01-07 09:13:59.75	12.60	4.34	
2025-01-07 09:13:59.96	12.59	4.35	
2025-01-07 09:14:00.16	12.58	4.37	
2025-01-07 09:14:00.37	12.57	4.38	
2025-01-07 09:14:00.57	12.56	4.40	
2025-01-07 09:14:00.78	12.55	4.41	
2025-01-07 09:14:00.98	12.54	4.42	
2025-01-07 09:14:01.19	12.54	4.44	
2025-01-07 09:14:01.39	12.53	4.45	
2025-01-07 09:14:01.60	12.52	4.47	
2025-01-07 09:14:01.81	12.51	4.48	
2025-01-07 09:14:02.02	12.50	4.50	
2025-01-07 09:14:02.23	12.49	4.51	
2025-01-07 09:14:02.44	12.48	4.53	
2025-01-07 09:14:02.64	12.47	4.54	
2025-01-07 09:14:02.85	12.46	4.56	
2025-01-07 09:14:03.05	12.46	4.57	
2025-01-07 09:14:03.26	12.45	4.59	
2025-01-07 09:14:03.46	12.44	4.60	
2025-01-07 09:14:03.67	12.43	4.61	
2025-01-07 09:14:03.88	12.42	4.63	
2025-01-07 09:14:04.08	12.41	4.64	
2025-01-07 09:14:04.28	12.40	4.66	
2025-01-07 09:14:04.49	12.39	4.67	
2025-01-07 09:14:04.70	12.39	4.69	
2025-01-07 09:14:04.90	12.38	4.70	
2025-01-07 09:14:05.11	12.37	4.72	
2025-01-07 09:14:05.31	12.36	4.73	
2025-01-07 09:14:05.52	12.35	4.75	
2025-01-07 09:14:05.72	12.34	4.76	
2025-01-07 09:14:05.93	12.33	4.78	
2025-01-07 09:14:06.13	12.32	4.79	
2025-01-07 09:14:06.34	12.31	4.80	
2025-01-07 09:14:06.54	12.31	4.82	
2025-01-07 09:14:06.75	12.30	4.83	
2025-01-07 09:14:06.96	12.29	4.85	
2025-01-07 09:14:07.16	12.28	4.86	
2025-01-07 09:14:07.37	12.27	4.88	
2025-01-07 09:14:07.57	12.26	4.89	
2025-01-07 09:14:07.78	12.25	4.91	
2025-01-07 09:14:07.98	12.24	4.92	
2025-01-07 09:14:08.19	12.23	4.94	
2025-01-07 09:14:08.39	12.22	4.95	
2025-01-07 09:14:08.60	12.21	4.97	
2025-01-07 09:14:08.80	12.21	4.98	
2025-01-07 09:14:09.01	12.20	5.00	
2025-01-07 09:14:09.22	12.19	5.01	
2025-01-07 09:14:09.42	12.18	5.03	
2025-01-07 09:14:09.63	12.17	5.04	
2025-01-07 09:14:09.83	12.16	5.05	
2025-01-07 09:14:10.04	12.15	5.07	
2025-01-07 09:14:10.25	12.14	5.08	
2025-01-07 09:14:10.45	12.13	5.10	
2025-01-07 09:14:10.65	12.12	5.11	
2025-01-07 09:14:10.86	12.11	5.13	
2025-01-07 09:14:11.07	12.10	5.14	
2025-01-07 09:14:11.27	12.10	5.16	
2025-01-07 09:14:11.48	12.09	5.17	
2025-01-07 09:14:11.68	12.08	5.19	
2025-01-07 09:14:11.89	12.07	5.20	
2025-01-07 09:14:12.11	12.06	5.22	
2025-01-07 09:14:12.31	12.05	5.23	
2025-01-07 09:14:12.52	12.04	5.25	
2025-01-07 09:14:12.72	12.03	5.26	
2025-01-07 09:14:12.93	12.02	5.28	
2025-01-07 09:14:13.13	12.01	5.29	
2025-01-07 09:14:13.34	12.00	5.31	
2025-01-07 09:14:13.54	11.99	5.32	
2025-01-07 09:14:13.75	11.98	5.34	
2025-01-07 09:14:13.95	11.97	5.35	
2025-01-07 09:14:14.16	11.96	5.37	
2025-01-07 09:14:14.36	11.96	5.38	
2025-01-07 09:14:14.57	11.95	5.40	
2025-01-07 09:14:14.78	11.94	5.41	
2025-01-07 09:14:14.98	11.93	5.43	
2025-01-07 09:14:15.19	11.92	5.44	
2025-01-07 09:14:15.39	11.91	5.46	
2025-01-07 09:14:15.60	11.90	5.47	
2025-01-07 09:14:15.80	11.89	5.49	
2025-01-07 09:14:16.01	11.88	5.50	
2025-01-07 09:14:16.21	11.87	5.52	
2025-01-07 09:14:16.42	11.86	5.53	
2025-01-07 09:14:16.63	11.85	5.55	
2025-01-07 09:14:16.83	11.84	5.56	
2025-01-07 09:14:17.03	11.83	5.58	
2025-01-07 09:14:17.24	11.82	5.59	
2025-01-07 09:14:17.45	11.81	5.61	
2025-01-07 09:14:17.65	11.80	5.62	
2025-01-07 09:14:17.86	11.79	5.64	
2025-01-07 09:14:18.06	11.78	5.65	
2025-01-07 09:14:18.27	11.77	5.67	
2025-01-07 09:14:18.47	11.76	5.68	
2025-01-07 09:14:18.68	11.75	5.70	
2025-01-07 09:14:18.88	11.75	5.71	
2025-01-07 09:14:19.09	11.74	5.73	
2025-01-07 09:14:19.29	11.73	5.75	
2025-01-07 09:14:19.50	11.72	5.76	
2025-01-07 09:14:19.70	11.71	5.78	
2025-01-07 09:14:19.91	11.70	5.79	
2025-01-07 09:14:20.11	11.69	5.81	
2025-01-07 09:14:20.32	11.68	5.82	
2025-01-07 09:14:20.52	11.67	5.84	
2025-01-07 09:14:20.73	11.66	5.85	
2025-01-07 09:14:20.94	11.65	5.87	
2025-01-07 09:14:21.14	11.64	5.88	
2025-01-07 09:14:21.34	11.63	5.90	
2025-01-07 09:14:21.55	11.62	5.91	
2025-01-07 09:14:21.75	11.61	5.93	
2025-01-07 09:14:21.96	11.60	5.94	
2025-01-07 09:14:22.16	11.59	5.96	
2025-01-07 09:14:22.37	11.58	5.97	
2025-01-07 09:14:22.57	11.57	5.99	
2025-01-07 09:14:22.78	11.56	6.00	
2025-01-07 09:14:22.98	11.55	6.02	
2025-01-07 09:14:23.19	11.54	6.04	
2025-01-07 09:14:23.39	11.53	6.05	
2025-01-07 09:14:23.60	11.52	6.07	
2025-01-07 09:14:23.80	11.51	6.08	
2025-01-07 09:14:24.01	11.50	6.10	
2025-01-07 09:14:24.21	11.49	6.11	
2025-01-07 09:14:24.43	11.48	6.13	
2025-01-07 09:14:24.64	11.47	6.14	
2025-01-07 09:14:24.84	11.46	6.16	
2025-01-07 09:14:25.05	11.45	6.17	
2025-01-07 09:14:25.25	11.44	6.19	
2025-01-07 09:14:25.46	11.43	6.21	
2025-01-07 09:14:25.66	11.42	6.22	
2025-01-07 09:14:25.87	11.41	6.24	
2025-01-07 09:14:26.08	11.40	6.25	
2025-01-07 09:14:26.28	11.39	6.27	
2025-01-07 09:14:26.48	11.38	6.28	
2025-01-07 09:14:26.69	11.37	6.30	
2025-01-07 09:14:26.90	11.36	6.31	
2025-01-07 09:14:27.10	11.35	6.33	
2025-01-07 09:14:27.31	11.34	6.35	
2025-01-07 09:14:27.51	11.33	6.36	
2025-01-07 09:14:27.72	11.32	6.38	
2025-01-07 09:14:27.92	11.31	6.39	
2025-01-07 09:14:28.13	11.30	6.41	
2025-01-07 09:14:28.33	11.29	6.42	
2025-01-07 09:14:28.54	11.28	6.44	
2025-01-07 09:14:28.76	11.27	6.46	
2025-01-07 09:14:28.96	11.26	6.47	
2025-01-07 09:14:29.17	11.25	6.49	
2025-01-07 09:14:29.38	11.24	6.50	
2025-01-07 09:14:29.59	11.22	6.52	
2025-01-07 09:14:29.80	11.21	6.53	
2025-01-07 09:14:30.00	11.20	6.55	
2025-01-07 09:14:30.21	11.19	6.57	
2025-01-07 09:14:30.41	11.18	6.58	
2025-01-07 09:14:30.62	11.17	6.60	
2025-01-07 09:14:30.82	11.16	6.61	
2025-01-07 09:14:31.03	11.15	6.63	
2025-01-07 09:14:31.24	11.14	6.64	
2025-01-07 09:14:31.44	11.13	6.66	
2025-01-07 09:14:31.65	11.12	6.68	
2025-01-07 09:14:31.85	11.11	6.69	
2025-01-07 09:14:32.06	11.10	6.71	
2025-01-07 09:14:32.26	11.09	6.72	
2025-01-07 09:14:32.47	11.08	6.74	
2025-01-07 09:14:32.67	11.07	6.75	
2025-01-07 09:14:32.88	11.06	6.77	
2025-01-07 09:14:33.08	11.05	6.79	
2025-01-07 09:14:33.29	11.04	6.80	
2025-01-07 09:14:33.49	11.03	6.82	
2025-01-07 09:14:33.70	11.02	6.83	
2025-01-07 09:14:33.91	11.00	6.85	
2025-01-07 09:14:34.11	10.99	6.87	
2025-01-07 09:14:34.32	10.98	6.88	
2025-01-07 09:14:34.52	10.97	6.90	
2025-01-07 09:14:34.73	10.96	6.91	
2025-01-07 09:14:34.93	10.95	6.93	
2025-01-07 09:14:35.15	10.94	6.95	
2025-01-07 09:14:35.36	10.93	6.96	
2025-01-07 09:14:35.56	10.92	6.98	
2025-01-07 09:14:35.77	10.91	6.99	
2025-01-07 09:14:35.97	10.90	7.01	
2025-01-07 09:14:36.18	10.89	7.03	
2025-01-07 09:14:36.38	10.88	7.04	
2025-01-07 09:14:36.59	10.87	7.06	
2025-01-07 09:14:36.79	10.86	7.07	
2025-01-07 09:14:37.00	10.84	7.09	
2025-01-07 09:14:37.20	10.83	7.11	
2025-01-07 09:14:37.41	10.82	7.12	
2025-01-07 09:14:37.61	10.81	7.14	
2025-01-07 09:14:37.82	10.80	7.15	
2025-01-07 09:14:38.03	10.79	7.17	
2025-01-07 09:14:38.23	10.78	7.19	
2025-01-07 09:14:38.43	10.77	7.20	
2025-01-07 09:14:38.64	10.76	7.22	
2025-01-07 09:14:38.84	10.75	7.23	
2025-01-07 09:14:39.05	10.74	7.25	
2025-01-07 09:14:39.25	10.72	7.27	
2025-01-07 09:14:39.46	10.71	7.28	
2025-01-07 09:14:39.66	10.70	7.30	
2025-01-07 09:14:39.87	10.69	7.31	
2025-01-07 09:14:40.07	10.68	7.33	
2025-01-07 09:14:40.28	10.67	7.35	
2025-01-07 09:14:40.48	10.66	7.36	
2025-01-07 09:14:40.69	10.65	7.38	
2025-01-07 09:14:40.90	10.64	7.40	
2025-01-07 09:14:41.10	10.63	7.41	
2025-01-07 09:14:41.31	10.61	7.43	
2025-01-07 09:14:41.51	10.60	7.44	
2025-01-07 09:14:41.72	10.59	7.46	
2025-01-07 09:14:41.92	10.58	7.48	
2025-01-07 09:14:42.13	10.57	7.49	
2025-01-07 09:14:42.34	10.56	7.51	
2025-01-07 09:14:42.54	10.55	7.53	
2025-01-07 09:14:42.74	10.54	7.54	
2025-01-07 09:14:42.95	10.53	7.56	
2025-01-07 09:14:43.16	10.51	7.58	
2025-01-07 09:14:43.36	10.50	7.59	
2025-01-07 09:14:43.56	10.49	7.61	
2025-01-07 09:14:43.77	10.48	7.62	
2025-01-07 09:14:43.98	10.47	7.64	
2025-01-07 09:14:44.18	10.46	7.66	
2025-01-07 09:14:44.39	10.45	7.67	
2025-01-07 09:14:44.59	10.44	7.69	
2025-01-07 09:14:44.80	10.42	7.71	
2025-01-07 09:14:45.00	10.41	7.72	
2025-01-07 09:14:45.21	10.40	7.74	
2025-01-07 09:14:45.41	10.39	7.75	
2025-01-07 09:14:45.62	10.38	7.77	
2025-01-07 09:14:45.82	10.37	7.79	
2025-01-07 09:14:46.03	10.36	7.80	
2025-01-07 09:14:46.23	10.34	7.82	
2025-01-07 09:14:46.44	10.33	7.84	
2025-01-07 09:14:46.64	10.32	7.85	
2025-01-07 09:14:46.85	10.31	7.87	
2025-01-07 09:14:47.05	10.30	7.89	
2025-01-07 09:14:47.26	10.29	7.90	
2025-01-07 09:14:47.47	10.28	7.92	
2025-01-07 09:14:47.67	10.26	7.94	
2025-01-07 09:14:47.87	10.25	7.95	
2025-01-07 09:14:48.08	10.24	7.97	
2025-01-07 09:14:48.29	10.23	7.99	
2025-01-07 09:14:48.49	10.22	8.00	
2025-01-07 09:14:44.13	10.46	7.65	
2025-01-07 09:14:44.35	10.45	7.67	
2025-01-07 09:14:44.55	10.44	7.69	
2025-01-07 09:14:44.76	10.43	7.70	
2025-01-07 09:14:44.96	10.41	7.72	
2025-01-07 09:14:45.17	10.40	7.74	
2025-01-07 09:14:45.37	10.39	7.75	
2025-01-07 09:14:45.58	10.38	7.77	
2025-01-07 09:14:45.78	10.37	7.78	
2025-01-07 09:14:45.99	10.36	7.80	
2025-01-07 09:14:46.19	10.35	7.82	
2025-01-07 09:14:46.40	10.33	7.83	
2025-01-07 09:14:46.61	10.32	7.85	
2025-01-07 09:14:46.81	10.31	7.87	
2025-01-07 09:14:47.02	10.30	7.88	
2025-01-07 09:14:47.22	10.29	7.90	
2025-01-07 09:14:47.43	10.28	7.92	
2025-01-07 09:14:47.63	10.27	7.93	
2025-01-07 09:14:47.85	10.25	7.95	
2025-01-07 09:14:48.05	10.24	7.97	
2025-01-07 09:14:48.26	10.23	7.98	
2025-01-07 09:14:48.46	10.22	8.00	
2025-01-07 09:14:48.68	10.21	8.02	
2025-01-07 09:14:48.89	10.19	8.03	
2025-01-07 09:14:49.09	10.18	8.05	
2025-01-07 09:14:49.30	10.17	8.07	
2025-01-07 09:14:49.50	10.16	8.08	
2025-01-07 09:14:49.71	10.15	8.10	
2025-01-07 09:14:49.91	10.14	8.12	
2025-01-07 09:14:50.12	10.12	8.13	
2025-01-07 09:14:50.32	10.11	8.15	
2025-01-07 09:14:50.53	10.10	8.17	
2025-01-07 09:14:50.73	10.09	8.18	
2025-01-07 09:14:50.94	10.08	8.20	
2025-01-07 09:14:51.15	10.07	8.22	
2025-01-07 09:14:51.35	10.05	8.23	
2025-01-07 09:14:51.56	10.04	8.25	
2025-01-07 09:14:51.76	10.03	8.27	
2025-01-07 09:14:51.97	10.02	8.29	
2025-01-07 09:14:52.17	10.01	8.30	
2025-01-07 09:14:52.38	9.99	8.32	
2025-01-07 09:14:52.59	9.98	8.34	
2025-01-07 09:14:52.79	9.97	8.35	
2025-01-07 09:14:53.00	9.96	8.37	
2025-01-07 09:14:53.20	9.95	8.39	
2025-01-07 09:14:53.41	9.93	8.40	
2025-01-07 09:14:53.61	9.92	8.42	
2025-01-07 09:14:53.82	9.91	8.44	
2025-01-07 09:14:54.02	9.90	8.45	
2025-01-07 09:14:54.23	9.89	8.47	
2025-01-07 09:14:54.44	9.87	8.49	
2025-01-07 09:14:54.64	9.86	8.50	
2025-01-07 09:14:54.85	9.85	8.52	
2025-01-07 09:14:55.05	9.84	8.54	
2025-01-07 09:14:55.26	9.83	8.56	
2025-01-07 09:14:55.46	9.81	8.57	
2025-01-07 09:14:55.68	9.80	8.59	
2025-01-07 09:14:55.89	9.79	8.61	
2025-01-07 09:14:56.09	9.78	8.62	
2025-01-07 09:14:56.30	9.76	8.64	
2025-01-07 09:14:56.50	9.75	8.66	
2025-01-07 09:14:56.71	9.74	8.68	
2025-01-07 09:14:56.91	9.73	8.69	
2025-01-07 09:14:57.12	9.72	8.71	
2025-01-07 09:14:57.32	9.70	8.73	
2025-01-07 09:14:57.53	9.69	8.74	
2025-01-07 09:14:57.74	9.68	8.76	
2025-01-07 09:14:57.94	9.67	8.78	
2025-01-07 09:14:58.15	9.65	8.80	
2025-01-07 09:14:58.35	9.64	8.81	
2025-01-07 09:14:58.56	9.63	8.83	
2025-01-07 09:14:58.76	9.62	8.85	
2025-01-07 09:14:58.97	9.60	8.86	
2025-01-07 09:14:59.18	9.59	8.88	
2025-01-07 09:14:59.39	9.58	8.90	
2025-01-07 09:14:59.60	9.57	8.92	
2025-01-07 09:14:59.80	9.55	8.93	
2025-01-07 09:15:00.01	9.54	8.95	
2025-01-07 09:15:00.22	9.53	8.97	
2025-01-07 09:15:00.42	9.52	8.99	
2025-01-07 09:15:00.62	9.50	9.00	
2025-01-07 09:15:00.83	9.49	9.02	
2025-01-07 09:15:01.03	9.48	9.04	
2025-01-07 09:15:01.24	9.47	9.06	
2025-01-07 09:15:01.44	9.45	9.07	
2025-01-07 09:15:01.65	9.44	9.09	
2025-01-07 09:15:01.85	9.43	9.11	
2025-01-07 09:15:02.06	9.42	9.12	
2025-01-07 09:15:02.26	9.40	9.14	
2025-01-07 09:15:02.47	9.39	9.16	
2025-01-07 09:15:02.67	9.38	9.18	
2025-01-07 09:15:02.88	9.36	9.19	
2025-01-07 09:15:03.09	9.35	9.21	
2025-01-07 09:15:03.29	9.34	9.23	
2025-01-07 09:15:03.50	9.33	9.25	
2025-01-07 09:15:03.70	9.31	9.26	
2025-01-07 09:15:03.91	9.30	9.28	
2025-01-07 09:15:04.11	9.29	9.30	
2025-01-07 09:15:04.32	9.27	9.32	
2025-01-07 09:15:04.52	9.26	9.33	
2025-01-07 09:15:04.73	9.25	9.35	
2025-01-07 09:15:04.93	9.24	9.37	
2025-01-07 09:15:05.14	9.22	9.39	
2025-01-07 09:15:05.35	9.21	9.40	
2025-01-07 09:15:05.55	9.20	9.42	
2025-01-07 09:15:05.75	9.18	9.44	
2025-01-07 09:15:05.96	9.17	9.46	
2025-01-07 09:15:06.17	9.16	9.47	
2025-01-07 09:15:06.37	9.14	9.49	
2025-01-07 09:15:06.58	9.13	9.51	
2025-01-07 09:15:06.78	9.12	9.53	
2025-01-07 09:15:06.99	9.11	9.54	
2025-01-07 09:15:07.20	9.09	9.56	
2025-01-07 09:15:07.40	9.08	9.58	
2025-01-07 09:15:07.61	9.07	9.60	
2025-01-07 09:15:07.82	9.05	9.62	
2025-01-07 09:15:08.02	9.04	9.63	
2025-01-07 09:15:08.23	9.03	9.65	
2025-01-07 09:15:08.43	9.01	9.67	
2025-01-07 09:15:08.64	9.00	9.69	
2025-01-07 09:15:08.84	8.99	9.70	
2025-01-07 09:15:09.05	8.97	9.72	
2025-01-07 09:15:09.25	8.96	9.74	
2025-01-07 09:15:09.46	8.95	9.76	
2025-01-07 09:15:09.67	8.93	9.78	
2025-01-07 09:15:09.87	8.92	9.79	
2025-01-07 09:15:10.07	8.91	9.81	
2025-01-07 09:15:10.28	8.89	9.83	
2025-01-07 09:15:10.48	8.88	9.85	
2025-01-07 09:15:10.69	8.87	9.87	
2025-01-07 09:15:10.89	8.85	9.88	
2025-01-07 09:15:11.10	8.84	9.90	
2025-01-07 09:15:11.30	8.83	9.92	
2025-01-07 09:15:11.51	8.81	9.94	
2025-01-07 09:15:11.72	8.80	9.96	
2025-01-07 09:15:11.92	8.79	9.97	
2025-01-07 09:15:12.14	8.77	9.99	
2025-01-07 09:15:12.34	8.76	10.01	
2025-01-07 09:15:12.55	8.74	10.03	
2025-01-07 09:15:12.75	8.73	10.05	
2025-01-07 09:15:12.96	8.72	10.06	
2025-01-07 09:15:13.16	8.70	10.08	
2025-01-07 09:15:13.37	8.69	10.10	
2025-01-07 09:15:13.57	8.68	10.12	
2025-01-07 09:15:13.78	8.66	10.14	
2025-01-07 09:15:13.99	8.65	10.15	
2025-01-07 09:15:14.20	8.63	10.17	
2025-01-07 09:15:14.40	8.62	10.19	
2025-01-07 09:15:14.61	8.61	10.21	
2025-01-07 09:15:14.81	8.59	10.23	
2025-01-07 09:15:15.02	8.58	10.25	
2025-01-07 09:15:15.22	8.56	10.26	
2025-01-07 09:15:15.43	8.55	10.28	
2025-01-07 09:15:15.63	8.54	10.30	
2025-01-07 09:15:15.84	8.52	10.32	
2025-01-07 09:15:16.04	8.51	10.34	
2025-01-07 09:15:16.25	8.49	10.35	
2025-01-07 09:15:16.45	8.48	10.37	
2025-01-07 09:15:16.66	8.47	10.39	
2025-01-07 09:15:16.86	8.45	10.41	
2025-01-07 09:15:17.07	8.44	10.43	
2025-01-07 09:15:17.28	8.42	10.45	
2025-01-07 09:15:17.48	8.41	10.46	
2025-01-07 09:15:17.68	8.40	10.48	
2025-01-07 09:15:17.89	8.38	10.50	
2025-01-07 09:15:18.09	8.37	10.52	
2025-01-07 09:15:18.30	8.35	10.54	
2025-01-07 09:15:18.50	8.34	10.56	
2025-01-07 09:15:18.71	8.33	10.57	
2025-01-07 09:15:18.91	8.31	10.59	
2025-01-07 09:15:19.12	8.30	10.61	
2025-01-07 09:15:19.33	8.28	10.63	
2025-01-07 09:15:19.53	8.27	10.65	
2025-01-07 09:15:19.73	8.26	10.67	
2025-01-07 09:15:19.94	8.24	10.68	
2025-01-07 09:15:20.14	8.23	10.70	
2025-01-07 09:15:20.35	8.21	10.72	
2025-01-07 09:15:20.55	8.20	10.74	
2025-01-07 09:15:20.76	8.18	10.76	
2025-01-07 09:15:20.96	8.17	10.78	
2025-01-07 09:15:21.17	8.15	10.80	
2025-01-07 09:15:21.37	8.14	10.81	
2025-01-07 09:15:21.58	8.13	10.83	
2025-01-07 09:15:21.78	8.11	10.85	
2025-01-07 09:15:21.99	8.10	10.87	
2025-01-07 09:15:22.19	8.08	10.89	
2025-01-07 09:15:22.40	8.07	10.91	
2025-01-07 09:15:22.60	8.05	10.93	
2025-01-07 09:15:22.80	8.04	10.94	
2025-01-07 09:15:23.01	8.02	10.96	
2025-01-07 09:15:23.21	8.01	10.98	
2025-01-07 09:15:23.42	7.99	11.00	
2025-01-07 09:15:23.63	7.98	11.02	
2025-01-07 09:15:23.83	7.97	11.04	
2025-01-07 09:15:24.04	7.95	11.06	
2025-01-07 09:15:24.24	7.94	11.07	
2025-01-07 09:15:24.45	7.92	11.09	
2025-01-07 09:15:24.65	7.91	11.11	
2025-01-07 09:15:24.85	7.89	11.13	
2025-01-07 09:15:25.06	7.88	11.15	
2025-01-07 09:15:25.27	7.86	11.17	
2025-01-07 09:15:25.47	7.85	11.19	
2025-01-07 09:15:25.68	7.83	11.21	
2025-01-07 09:15:25.88	7.82	11.23	
2025-01-07 09:15:26.08	7.80	11.24	
2025-01-07 09:15:26.29	7.79	11.26	
2025-01-07 09:15:26.49	7.77	11.28	
2025-01-07 09:15:26.70	7.76	11.30	
2025-01-07 09:15:26.91	7.74	11.32	
2025-01-07 09:15:27.11	7.73	11.34	
2025-01-07 09:15:27.32	7.71	11.36	
2025-01-07 09:15:27.52	7.70	11.38	
2025-01-07 09:15:27.73	7.68	11.40	
2025-01-07 09:15:27.94	7.67	11.42	
2025-01-07 09:15:28.15	7.65	11.43	
2025-01-07 09:15:28.36	7.63	11.45	
2025-01-07 09:15:28.57	7.62	11.47	
2025-01-07 09:15:28.77	7.60	11.49	
2025-01-07 09:15:28.98	7.59	11.51	
2025-01-07 09:15:29.19	7.57	11.53	
2025-01-07 09:15:29.40	7.56	11.55	
2025-01-07 09:15:29.60	7.54	11.57	
2025-01-07 09:15:29.81	7.53	11.59	
2025-01-07 09:15:30.01	7.51	11.61	
2025-01-07 09:15:30.22	7.50	11.63	
2025-01-07 09:15:30.43	7.48	11.65	
2025-01-07 09:15:30.63	7.47	11.67	
2025-01-07 09:15:30.83	7.45	11.68	
2025-01-07 09:15:31.04	7.43	11.70	
2025-01-07 09:15:31.24	7.42	11.72	
2025-01-07 09:15:31.45	7.40	11.74	
2025-01-07 09:15:31.66	7.39	11.76	
2025-01-07 09:15:31.86	7.37	11.78	
2025-01-07 09:15:32.07	7.36	11.80	
2025-01-07 09:15:32.27	7.34	11.82	
2025-01-07 09:15:32.48	7.32	11.84	
2025-01-07 09:15:32.68	7.31	11.86	
2025-01-07 09:15:32.89	7.29	11.88	
2025-01-07 09:15:33.10	7.28	11.90	
2025-01-07 09:15:33.30	7.26	11.92	
2025-01-07 09:15:33.52	7.25	11.94	
2025-01-07 09:15:33.73	7.23	11.96	
2025-01-07 09:15:33.93	7.21	11.98	
2025-01-07 09:15:34.14	7.20	12.00	
2025-01-07 09:15:34.34	7.18	12.02	
2025-01-07 09:15:34.55	7.17	12.04	
2025-01-07 09:15:34.75	7.15	12.05	
2025-01-07 09:15:34.96	7.13	12.07	
2025-01-07 09:15:35.16	7.12	12.09	
2025-01-07 09:15:35.37	7.10	12.11	
2025-01-07 09:15:35.57	7.09	12.13	
2025-01-07 09:15:35.78	7.07	12.15	
2025-01-07 09:15:35.98	7.05	12.17	
2025-01-07 09:15:36.19	7.04	12.19	
2025-01-07 09:15:36.39	7.02	12.21	
2025-01-07 09:15:36.60	7.01	12.23	
2025-01-07 09:15:36.80	6.99	12.25	
2025-01-07 09:15:37.01	6.97	12.27	
2025-01-07 09:15:37.21	6.96	12.29	
2025-01-07 09:15:37.42	6.94	12.31	
2025-01-07 09:15:37.62	6.93	12.33	
2025-01-07 09:15:37.83	6.91	12.35	
2025-01-07 09:15:38.04	6.89	12.37	
2025-01-07 09:15:38.25	6.88	12.39	
2025-01-07 09:15:38.45	6.86	12.41	
2025-01-07 09:15:38.66	6.84	12.43	
2025-01-07 09:15:38.86	6.83	12.45	
2025-01-07 09:15:39.07	6.81	12.47	
2025-01-07 09:15:39.28	6.79	12.49	
2025-01-07 09:15:39.48	6.78	12.51	
2025-01-07 09:15:39.69	6.76	12.53	
2025-01-07 09:15:39.89	6.74	12.55	
2025-01-07 09:15:40.10	6.73	12.57	
2025-01-07 09:15:40.30	6.71	12.59	
2025-01-07 09:15:40.51	6.69	12.61	
2025-01-07 09:15:40.72	6.68	12.63	
2025-01-07 09:15:40.92	6.66	12.65	
2025-01-07 09:15:41.13	6.64	12.67	
2025-01-07 09:15:41.33	6.63	12.69	
2025-01-07 09:15:41.54	6.61	12.71	
2025-01-07 09:15:41.74	6.59	12.73	
2025-01-07 09:15:41.95	6.58	12.75	
2025-01-07 09:15:42.15	6.56	12.77	
2025-01-07 09:15:42.36	6.54	12.79	
2025-01-07 09:15:42.57	6.53	12.81	
2025-01-07 09:15:42.77	6.51	12.83	
2025-01-07 09:15:42.97	6.49	12.85	
2025-01-07 09:15:43.18	6.48	12.87	
2025-01-07 09:15:43.39	6.46	12.89	
2025-01-07 09:15:43.59	6.44	12.91	
2025-01-07 09:15:43.80	6.42	12.93	
2025-01-07 09:15:44.00	6.41	12.95	
2025-01-07 09:15:44.21	6.39	12.97	
2025-01-07 09:15:44.41	6.37	12.99	
2025-01-07 09:15:44.62	6.36	13.01	
2025-01-07 09:15:44.83	6.34	13.03	
2025-01-07 09:15:45.03	6.32	13.05	
2025-01-07 09:15:45.24	6.30	13.07	
2025-01-07 09:15:45.44	6.29	13.09	
2025-01-07 09:15:45.65	6.27	13.11	
2025-01-07 09:15:45.85	6.25	13.13	
2025-01-07 09:15:46.06	6.23	13.15	
2025-01-07 09:15:46.26	6.22	13.17	
2025-01-07 09:15:46.47	6.20	13.19	
2025-01-07 09:15:46.67	6.18	13.21	
2025-01-07 09:15:46.88	6.17	13.24	
2025-01-07 09:15:47.08	6.15	13.26	
2025-01-07 09:15:47.29	6.13	13.28	
2025-01-07 09:15:47.50	6.11	13.30	
2025-01-07 09:15:47.70	6.10	13.32	
2025-01-07 09:15:47.91	6.08	13.34	
2025-01-07 09:15:48.11	6.06	13.36	
2025-01-07 09:15:48.32	6.04	13.38	
2025-01-07 09:15:48.52	6.03	13.40	
2025-01-07 09:15:48.73	6.01	13.42	
2025-01-07 09:15:48.94	5.99	13.44	
2025-01-07 09:15:49.14	5.97	13.46	
2025-01-07 09:15:49.35	5.95	13.48	
2025-01-07 09:15:49.57	5.93	13.50	
2025-01-07 09:15:49.77	5.92	13.53	
2025-01-07 09:15:49.98	5.90	13.55	
2025-01-07 09:15:50.19	5.88	13.57	
2025-01-07 09:15:50.39	5.86	13.59	
2025-01-07 09:15:50.60	5.85	13.61	
2025-01-07 09:15:50.80	5.83	13.63	
2025-01-07 09:15:51.01	5.81	13.65	
2025-01-07 09:15:51.21	5.79	13.67	
2025-01-07 09:15:51.42	5.77	13.69	
2025-01-07 09:15:51.62	5.76	13.71	
2025-01-07 09:15:51.83	5.74	13.73	
2025-01-07 09:15:52.03	5.72	13.75	
2025-01-07 09:15:52.24	5.70	13.78	
2025-01-07 09:15:52.45	5.68	13.80	
2025-01-07 09:15:52.65	5.66	13.82	
2025-01-07 09:15:52.85	5.65	13.84	
2025-01-07 09:15:53.06	5.63	13.86	
2025-01-07 09:15:53.27	5.61	13.88	
2025-01-07 09:15:53.48	5.59	13.90	
2025-01-07 09:15:53.68	5.57	13.92	
2025-01-07 09:15:53.88	5.56	13.94	
2025-01-07 09:15:54.09	5.54	13.96	
2025-01-07 09:15:54.30	5.52	13.99	
2025-01-07 09:15:54.50	5.50	14.01	
2025-01-07 09:15:54.71	5.48	14.03	
2025-01-07 09:15:54.93	5.46	14.05	
2025-01-07 09:15:55.13	5.44	14.07	
2025-01-07 09:15:55.34	5.42	14.09	
2025-01-07 09:15:55.55	5.40	14.11	
2025-01-07 09:15:55.75	5.39	14.13	
2025-01-07 09:15:55.95	5.37	14.16	
2025-01-07 09:15:56.16	5.35	14.18	
2025-01-07 09:15:56.37	5.33	14.20	
2025-01-07 09:15:56.57	5.31	14.22	
2025-01-07 09:15:56.78	5.29	14.24	
2025-01-07 09:15:56.98	5.27	14.26	
2025-01-07 09:15:57.19	5.25	14.28	
2025-01-07 09:15:57.39	5.24	14.30	
2025-01-07 09:15:57.60	5.22	14.33	
2025-01-07 09:15:57.81	5.20	14.35	
2025-01-07 09:15:58.01	5.18	14.37	
2025-01-07 09:15:58.21	5.16	14.39	
2025-01-07 09:15:58.42	5.14	14.41	
2025-01-07 09:15:58.63	5.12	14.43	
2025-01-07 09:15:58.83	5.10	14.45	
2025-01-07 09:15:59.04	5.08	14.48	
2025-01-07 09:15:59.24	5.07	14.50	
2025-01-07 09:15:59.45	5.05	14.52	
2025-01-07 09:15:59.65	5.03	14.54	
2025-01-07 09:15:59.86	5.01	14.56	
2025-01-07 09:16:00.07	4.99	14.58	
2025-01-07 09:16:00.27	4.97	14.61	
2025-01-07 09:16:00.48	4.95	14.63	
2025-01-07 09:16:00.68	4.93	14.65	
2025-01-07 09:16:00.89	4.91	14.67	
2025-01-07 09:16:01.09	4.89	14.69	
2025-01-07 09:16:01.30	4.87	14.71	
2025-01-07 09:16:01.51	4.85	14.74	
2025-01-07 09:16:01.71	4.83	14.76	
2025-01-07 09:16:01.92	4.81	14.78	
2025-01-07 09:16:02.12	4.79	14.80	
2025-01-07 09:16:02.33	4.77	14.82	
2025-01-07 09:16:02.53	4.75	14.84	
2025-01-07 09:16:02.74	4.73	14.87	
2025-01-07 09:16:02.94	4.71	14.89	
2025-01-07 09:16:03.15	4.69	14.91	
2025-01-07 09:16:03.35	4.68	14.93	
2025-01-07 09:16:03.56	4.65	14.95	
2025-01-07 09:16:03.77	4.63	14.98	
2025-01-07 09:16:03.97	4.62	15.00	
2025-01-07 09:16:04.18	4.59	15.02	
2025-01-07 09:16:04.38	4.58	15.04	
2025-01-07 09:16:04.59	4.56	15.06	
2025-01-07 09:16:04.80	4.53	15.09	
2025-01-07 09:16:05.00	4.52	15.11	
2025-01-07 09:16:05.21	4.49	15.13	
2025-01-07 09:16:05.41	4.47	15.15	
2025-01-07 09:16:05.62	4.45	15.17	
2025-01-07 09:16:05.82	4.43	15.20	
2025-01-07 09:16:06.03	4.41	15.22	
2025-01-07 09:16:06.23	4.39	15.24	
2025-01-07 09:16:06.44	4.37	15.26	
2025-01-07 09:16:06.65	4.35	15.28	
2025-01-07 09:16:06.85	4.33	15.31	
2025-01-07 09:16:07.06	4.31	15.33	
2025-01-07 09:16:07.26	4.29	15.35	
2025-01-07 09:16:07.47	4.27	15.37	
2025-01-07 09:16:07.67	4.25	15.40	
2025-01-07 09:16:07.88	4.23	15.42	
2025-01-07 09:16:08.08	4.21	15.44	
2025-01-07 09:16:08.29	4.19	15.46	
2025-01-07 09:16:08.49	4.17	15.48	
2025-01-07 09:16:08.70	4.15	15.51	
2025-01-07 09:16:08.91	4.13	15.53	
2025-01-07 09:16:09.11	4.11	15.55	
2025-01-07 09:16:09.32	4.09	15.57	
2025-01-07 09:16:09.53	4.06	15.60	
2025-01-07 09:16:09.73	4.04	15.62	
2025-01-07 09:16:09.93	4.02	15.64	
2025-01-07 09:16:10.14	4.00	15.66	
2025-01-07 09:16:10.35	3.98	15.69	
2025-01-07 09:16:10.55	3.96	15.71	
2025-01-07 09:16:10.76	3.94	15.73	
2025-01-07 09:16:10.96	3.92	15.75	
2025-01-07 09:16:11.16	3.90	15.78	
2025-01-07 09:16:11.37	3.88	15.80	
2025-01-07 09:16:11.58	3.86	15.82	
2025-01-07 09:16:11.78	3.83	15.84	
2025-01-07 09:16:11.99	3.81	15.87	
2025-01-07 09:16:12.20	3.79	15.89	
2025-01-07 09:16:12.41	3.77	15.91	
2025-01-07 09:16:12.62	3.75	15.94	
2025-01-07 09:16:12.82	3.73	15.96	
2025-01-07 09:16:13.03	3.70	15.98	
2025-01-07 09:16:13.23	3.68	16.00	
2025-01-07 09:16:13.44	3.66	16.03	
2025-01-07 09:16:13.64	3.64	16.05	
2025-01-07 09:16:13.85	3.62	16.07	
2025-01-07 09:16:14.06	3.60	16.10	
2025-01-07 09:16:14.27	3.58	16.12	
2025-01-07 09:16:14.47	3.55	16.14	
2025-01-07 09:16:14.68	3.53	16.17	
2025-01-07 09:16:14.88	3.51	16.19	
2025-01-07 09:16:15.09	3.49	16.21	
2025-01-07 09:16:15.30	3.47	16.23	
2025-01-07 09:16:15.50	3.45	16.26	
2025-01-07 09:16:15.71	3.42	16.28	
2025-01-07 09:16:15.91	3.40	16.30	
2025-01-07 09:16:16.12	3.38	16.33	
2025-01-07 09:16:16.32	3.36	16.35	
2025-01-07 09:16:16.53	3.34	16.37	
2025-01-07 09:16:16.73	3.31	16.40	
2025-01-07 09:16:16.94	3.29	16.42	
2025-01-07 09:16:17.14	3.27	16.44	
2025-01-07 09:16:17.35	3.25	16.47	
2025-01-07 09:16:17.55	3.23	16.49	
2025-01-07 09:16:17.76	3.20	16.51	
2025-01-07 09:16:17.96	3.18	16.53	
2025-01-07 09:16:18.17	3.16	16.56	
2025-01-07 09:16:18.37	3.14	16.58	
2025-01-07 09:16:18.58	3.11	16.60	
2025-01-07 09:16:18.78	3.09	16.63	
2025-01-07 09:16:18.99	3.07	16.65	
2025-01-07 09:16:19.19	3.05	16.67	
2025-01-07 09:16:19.40	3.02	16.70	
2025-01-07 09:16:19.60	3.00	16.72	
2025-01-07 09:16:19.81	2.98	16.74	
2025-01-07 09:16:20.02	2.96	16.77	
2025-01-07 09:16:20.22	2.93	16.79	
2025-01-07 09:16:20.43	2.91	16.81	
2025-01-07 09:16:20.63	2.89	16.84	
2025-01-07 09:16:20.84	2.86	16.86	
2025-01-07 09:16:21.04	2.84	16.88	
2025-01-07 09:16:21.25	2.82	16.91	
2025-01-07 09:16:21.45	2.80	16.93	
2025-01-07 09:16:21.66	2.77	16.96	
2025-01-07 09:16:21.86	2.75	16.98	
2025-01-07 09:16:22.07	2.73	17.00	
2025-01-07 09:16:22.27	2.70	17.03	
2025-01-07 09:16:22.48	2.68	17.05	
2025-01-07 09:16:22.68	2.66	17.07	
2025-01-07 09:16:22.89	2.63	17.10	
2025-01-07 09:16:23.10	2.61	17.12	
2025-01-07 09:16:23.30	2.59	17.14	
2025-01-07 09:16:23.51	2.56	17.17	
2025-01-07 09:16:23.71	2.54	17.19	
2025-01-07 09:16:23.92	2.52	17.22	
2025-01-07 09:16:24.12	2.50	17.24	
2025-01-07 09:16:24.33	2.47	17.26	
2025-01-07 09:16:24.54	2.45	17.29	
2025-01-07 09:16:24.74	2.42	17.31	
2025-01-07 09:16:24.95	2.40	17.34	
2025-01-07 09:16:25.15	2.38	17.36	
2025-01-07 09:16:25.36	2.35	17.38	
2025-01-07 09:16:25.56	2.33	17.41	
2025-01-07 09:16:25.77	2.31	17.43	
2025-01-07 09:16:25.97	2.28	17.45	
2025-01-07 09:16:26.17	2.26	17.48	
2025-01-07 09:16:26.38	2.23	17.50	
2025-01-07 09:16:26.59	2.21	17.53	
2025-01-07 09:16:26.79	2.19	17.55	
2025-01-07 09:16:27.00	2.16	17.58	
2025-01-07 09:16:27.20	2.14	17.60	
2025-01-07 09:16:27.41	2.11	17.62	
2025-01-07 09:16:27.61	2.09	17.65	
2025-01-07 09:16:27.82	2.07	17.67	
2025-01-07 09:16:28.02	2.04	17.70	
2025-01-07 09:16:28.23	2.02	17.72	
2025-01-07 09:16:28.44	1.99	17.75	
2025-01-07 09:16:28.64	1.97	17.77	
2025-01-07 09:16:28.85	1.94	17.79	
2025-01-07 09:16:29.05	1.92	17.82	
2025-01-07 09:16:29.25	1.90	17.84	
2025-01-07 09:16:29.46	1.87	17.87	
2025-01-07 09:16:29.66	1.85	17.89	
2025-01-07 09:16:29.87	1.82	17.91	
2025-01-07 09:16:30.07	1.80	17.94	
2025-01-07 09:16:30.28	1.77	17.96	
2025-01-07 09:16:30.49	1.75	17.99	
2025-01-07 09:16:30.69	1.72	18.01	
2025-01-07 09:16:30.90	1.70	18.04	
2025-01-07 09:16:31.10	1.67	18.06	
2025-01-07 09:16:31.31	1.65	18.09	
2025-01-07 09:16:31.51	1.62	18.11	
2025-01-07 09:16:31.72	1.60	18.14	
2025-01-07 09:16:31.92	1.57	18.16	
2025-01-07 09:16:32.14	1.55	18.19	
2025-01-07 09:16:32.34	1.52	18.21	
2025-01-07 09:16:32.55	1.50	18.24	
2025-01-07 09:16:32.75	1.47	18.26	
2025-01-07 09:16:32.96	1.45	18.28	
2025-01-07 09:16:33.17	1.42	18.31	
2025-01-07 09:16:33.37	1.40	18.33	
2025-01-07 09:16:33.57	1.37	18.36	
2025-01-07 09:16:33.78	1.35	18.38	
2025-01-07 09:16:33.99	1.32	18.41	
2025-01-07 09:16:34.19	1.29	18.43	
2025-01-07 09:16:34.41	1.27	18.46	
2025-01-07 09:16:34.62	1.24	18.49	
2025-01-07 09:16:34.82	1.22	18.51	
2025-01-07 09:16:35.03	1.19	18.53	
2025-01-07 09:16:35.23	1.16	18.56	
2025-01-07 09:16:35.44	1.14	18.58	
2025-01-07 09:16:35.64	1.11	18.61	
2025-01-07 09:16:35.85	1.09	18.63	
2025-01-07 09:16:36.05	1.06	18.66	
2025-01-07 09:16:36.26	1.03	18.68	
2025-01-07 09:16:36.46	1.01	18.71	
2025-01-07 09:16:36.67	0.98	18.73	
2025-01-07 09:16:36.88	0.96	18.76	
2025-01-07 09:16:37.08	0.93	18.79	
2025-01-07 09:16:37.29	0.90	18.81	
2025-01-07 09:16:37.49	0.88	18.84	
2025-01-07 09:16:37.69	0.85	18.86	
2025-01-07 09:16:37.90	0.83	18.89	
2025-01-07 09:16:38.10	0.80	18.91	
2025-01-07 09:16:38.31	0.77	18.94	
2025-01-07 09:16:38.51	0.75	18.96	
2025-01-07 09:16:38.72	0.72	18.99	
2025-01-07 09:16:38.92	0.69	19.01	
2025-01-07 09:16:39.13	0.67	19.04	
2025-01-07 09:16:39.33	0.64	19.06	
2025-01-07 09:16:39.54	0.61	19.09	
2025-01-07 09:16:39.74	0.59	19.11	
2025-01-07 09:16:39.95	0.56	19.14	
2025-01-07 09:16:40.15	0.53	19.16	
2025-01-07 09:16:40.36	0.51	19.19	
2025-01-07 09:16:40.56	0.48	19.21	
2025-01-07 09:16:40.77	0.45	19.24	
2025-01-07 09:16:40.97	0.43	19.27	
2025-01-07 09:16:41.18	0.40	19.29	
2025-01-07 09:16:41.38	0.37	19.32	
2025-01-07 09:16:41.59	0.34	19.34	
2025-01-07 09:16:41.79	0.32	19.37	
2025-01-07 09:16:42.00	0.29	19.39	
2025-01-07 09:16:42.20	0.26	19.42	
2025-01-07 09:16:42.41	0.23	19.45	
2025-01-07 09:16:42.62	0.21	19.47	
2025-01-07 09:16:42.82	0.18	19.50	
2025-01-07 09:16:43.03	0.15	19.52	
2025-01-07 09:16:43.23	0.12	19.55	
2025-01-07 09:16:43.44	0.10	19.58	
2025-01-07 09:16:43.64	0.07	19.60	
2025-01-07 09:16:43.85	0.04	19.63	
2025-01-07 09:16:44.06	0.01	19.65	
2025-01-07 09:16:44.26	359.98	19.68	
2025-01-07 09:16:44.48	359.95	19.71	
2025-01-07 09:16:44.68	359.93	19.73	
2025-01-07 09:16:44.89	359.90	19.76	
2025-01-07 09:16:45.09	359.87	19.78	
2025-01-07 09:16:45.30	359.84	19.81	
2025-01-07 09:16:45.50	359.82	19.84	
2025-01-07 09:16:45.71	359.79	19.86	
2025-01-07 09:16:45.91	359.76	19.89	
2025-01-07 09:16:46.12	359.73	19.91	
2025-01-07 09:16:46.32	359.70	19.94	
2025-01-07 09:16:46.53	359.67	19.97	
2025-01-07 09:16:46.73	359.65	19.99	
2025-01-07 09:16:46.94	359.62	20.02	
2025-01-07 09:16:47.14	359.59	20.05	
2025-01-07 09:16:47.35	359.56	20.07	
2025-01-07 09:16:47.55	359.53	20.10	
2025-01-07 09:16:47.76	359.50	20.12	
2025-01-07 09:16:47.97	359.47	20.15	
2025-01-07 09:16:48.17	359.44	20.18	
2025-01-07 09:16:48.37	359.42	20.20	
2025-01-07 09:16:48.58	359.39	20.23	
2025-01-07 09:16:48.79	359.36	20.26	
2025-01-07 09:16:48.99	359.33	20.28	
2025-01-07 09:16:49.20	359.30	20.31	
2025-01-07 09:16:49.40	359.27	20.34	
2025-01-07 09:16:49.61	359.24	20.36	
2025-01-07 09:16:49.81	359.21	20.39	
2025-01-07 09:16:50.02	359.18	20.42	
2025-01-07 09:16:50.23	359.15	20.44	
2025-01-07 09:16:50.43	359.12	20.47	
2025-01-07 09:16:50.64	359.09	20.50	
2025-01-07 09:16:50.84	359.06	20.52	
2025-01-07 09:16:51.05	359.03	20.55	
2025-01-07 09:16:51.25	359.00	20.58	
2025-01-07 09:16:51.45	358.98	20.60	
2025-01-07 09:16:51.66	358.94	20.63	
2025-01-07 09:16:51.87	358.91	20.66	
2025-01-07 09:16:52.07	358.88	20.68	
2025-01-07 09:16:52.28	358.85	20.71	
2025-01-07 09:16:52.48	358.82	20.74	
2025-01-07 09:16:52.69	358.79	20.76	
2025-01-07 09:16:52.89	358.76	20.79	
2025-01-07 09:16:53.10	358.73	20.82	
2025-01-07 09:16:53.30	358.70	20.84	
2025-01-07 09:16:53.51	358.67	20.87	
2025-01-07 09:16:53.71	358.64	20.90	
2025-01-07 09:16:53.92	358.61	20.93	
2025-01-07 09:16:54.13	358.58	20.95	
2025-01-07 09:16:54.33	358.55	20.98	
2025-01-07 09:16:54.53	358.52	21.01	
2025-01-07 09:16:54.74	358.49	21.03	
2025-01-07 09:16:54.94	358.46	21.06	
2025-01-07 09:16:55.15	358.43	21.09	
2025-01-07 09:16:55.36	358.40	21.12	
2025-01-07 09:16:55.56	358.37	21.14	
2025-01-07 09:16:55.76	358.34	21.17	
2025-01-07 09:16:55.97	358.31	21.20	
2025-01-07 09:16:56.17	358.28	21.22	
2025-01-07 09:16:56.38	358.24	21.25	
2025-01-07 09:16:56.59	358.21	21.28	
2025-01-07 09:16:56.79	358.18	21.31	
2025-01-07 09:16:57.00	358.15	21.33	
2025-01-07 09:16:57.20	358.12	21.36	
2025-01-07 09:16:57.41	358.09	21.39	
2025-01-07 09:16:57.61	358.06	21.41	
2025-01-07 09:16:57.82	358.02	21.44	
2025-01-07 09:16:58.02	357.99	21.47	
2025-01-07 09:16:58.23	357.96	21.50	
2025-01-07 09:16:58.43	357.93	21.52	
2025-01-07 09:16:58.64	357.90	21.55	
2025-01-07 09:16:58.84	357.87	21.58	
2025-01-07 09:16:59.05	357.83	21.61	
2025-01-07 09:16:59.25	357.80	21.63	
2025-01-07 09:16:59.46	357.77	21.66	
2025-01-07 09:16:59.66	357.74	21.69	
2025-01-07 09:16:59.87	357.71	21.72	
2025-01-07 09:17:00.09	357.67	21.75	
2025-01-07 09:17:00.29	357.64	21.78	
2025-01-07 09:17:00.50	357.61	21.80	
2025-01-07 09:17:00.70	357.57	21.83	
2025-01-07 09:17:00.91	357.54	21.86	
2025-01-07 09:17:01.11	357.51	21.89	
2025-01-07 09:17:01.32	357.48	21.91	
2025-01-07 09:17:01.53	357.44	21.94	
2025-01-07 09:17:01.73	357.41	21.97	
2025-01-07 09:17:01.94	357.38	22.00	
2025-01-07 09:17:02.14	357.35	22.03	
2025-01-07 09:17:02.35	357.31	22.05	
2025-01-07 09:17:02.56	357.28	22.08	
2025-01-07 09:17:02.76	357.25	22.11	
2025-01-07 09:17:02.97	357.21	22.14	
2025-01-07 09:17:03.17	357.18	22.17	
2025-01-07 09:17:03.38	357.15	22.20	
2025-01-07 09:17:03.58	357.11	22.22	
2025-01-07 09:17:03.79	357.08	22.25	
2025-01-07 09:17:03.99	357.05	22.28	
2025-01-07 09:17:04.20	357.01	22.31	
2025-01-07 09:17:04.40	356.98	22.34	
2025-01-07 09:17:04.61	356.95	22.36	
2025-01-07 09:17:04.81	356.91	22.39	
2025-01-07 09:17:05.02	356.88	22.42	
2025-01-07 09:17:05.22	356.84	22.45	
2025-01-07 09:17:05.44	356.81	22.48	
2025-01-07 09:17:05.65	356.77	22.51	
2025-01-07 09:17:05.85	356.74	22.54	
2025-01-07 09:17:06.06	356.71	22.56	
2025-01-07 09:17:06.26	356.67	22.59	
2025-01-07 09:17:06.48	356.64	22.62	
2025-01-07 09:17:06.69	356.60	22.65	
2025-01-07 09:17:06.90	356.57	22.68	
2025-01-07 09:17:07.10	356.53	22.71	
2025-01-07 09:17:07.31	356.50	22.74	
2025-01-07 09:17:07.51	356.46	22.77	
2025-01-07 09:17:07.72	356.43	22.80	
2025-01-07 09:17:07.92	356.39	22.82	
2025-01-07 09:17:08.13	356.36	22.85	
2025-01-07 09:17:08.33	356.32	22.88	
2025-01-07 09:17:08.55	356.29	22.91	
2025-01-07 09:17:08.76	356.25	22.94	
2025-01-07 09:17:08.96	356.22	22.97	
2025-01-07 09:17:09.17	356.18	23.00	
2025-01-07 09:17:09.37	356.15	23.03	
2025-01-07 09:17:09.58	356.11	23.06	
2025-01-07 09:17:09.78	356.08	23.08	
2025-01-07 09:17:09.99	356.04	23.11	
2025-01-07 09:17:10.19	356.01	23.14	
2025-01-07 09:17:10.40	355.97	23.17	
2025-01-07 09:17:10.60	355.93	23.20	
2025-01-07 09:17:10.81	355.90	23.23	
2025-01-07 09:17:11.02	355.86	23.26	
2025-01-07 09:17:11.23	355.83	23.29	
2025-01-07 09:17:11.44	355.79	23.32	
2025-01-07 09:17:11.64	355.75	23.35	
2025-01-07 09:17:11.85	355.72	23.38	
2025-01-07 09:17:12.05	355.68	23.40	
2025-01-07 09:17:12.26	355.64	23.43	
2025-01-07 09:17:12.47	355.61	23.46	
2025-01-07 09:17:12.67	355.57	23.49	
2025-01-07 09:17:12.87	355.54	23.52	
2025-01-07 09:17:13.08	355.50	23.55	
2025-01-07 09:17:13.29	355.46	23.58	
2025-01-07 09:17:13.49	355.43	23.61	
2025-01-07 09:17:13.70	355.39	23.64	
2025-01-07 09:17:13.90	355.35	23.67	
2025-01-07 09:17:14.11	355.32	23.70	
2025-01-07 09:17:14.31	355.28	23.73	
2025-01-07 09:17:14.52	355.24	23.76	
2025-01-07 09:17:14.72	355.21	23.78	
2025-01-07 09:17:14.92	355.17	23.81	
2025-01-07 09:17:15.13	355.13	23.84	
2025-01-07 09:17:15.33	355.09	23.87	
2025-01-07 09:17:15.54	355.06	23.90	
2025-01-07 09:17:15.74	355.02	23.93	
2025-01-07 09:17:15.95	354.98	23.96	
2025-01-07 09:17:16.15	354.95	23.99	
2025-01-07 09:17:16.36	354.91	24.02	
2025-01-07 09:17:16.57	354.87	24.05	
2025-01-07 09:17:16.77	354.83	24.08	
2025-01-07 09:17:16.98	354.79	24.11	
2025-01-07 09:17:17.18	354.76	24.14	
2025-01-07 09:17:17.39	354.72	24.17	
2025-01-07 09:17:17.59	354.68	24.20	
2025-01-07 09:17:17.80	354.64	24.23	
2025-01-07 09:17:18.01	354.60	24.26	
2025-01-07 09:17:18.21	354.56	24.29	
2025-01-07 09:17:18.42	354.52	24.32	
2025-01-07 09:17:18.62	354.49	24.35	
2025-01-07 09:17:18.83	354.45	24.38	
2025-01-07 09:17:19.03	354.41	24.41	
2025-01-07 09:17:19.24	354.37	24.44	
2025-01-07 09:17:19.44	354.33	24.47	
2025-01-07 09:17:19.65	354.29	24.50	
2025-01-07 09:17:19.86	354.25	24.53	
2025-01-07 09:17:20.06	354.22	24.56	
2025-01-07 09:17:20.26	354.18	24.59	
2025-01-07 09:17:20.47	354.14	24.62	
2025-01-07 09:17:20.68	354.10	24.65	
2025-01-07 09:17:20.88	354.06	24.68	
2025-01-07 09:17:21.09	354.02	24.71	
2025-01-07 09:17:21.29	353.98	24.74	
2025-01-07 09:17:21.50	353.94	24.77	
2025-01-07 09:17:21.70	353.90	24.80	
2025-01-07 09:17:21.91	353.86	24.83	
2025-01-07 09:17:22.12	353.82	24.86	
2025-01-07 09:17:22.32	353.78	24.89	
2025-01-07 09:17:22.53	353.74	24.92	
2025-01-07 09:17:22.73	353.70	24.95	
2025-01-07 09:17:22.94	353.66	24.98	
2025-01-07 09:17:23.14	353.62	25.01	
2025-01-07 09:17:23.35	353.58	25.04	
2025-01-07 09:17:23.55	353.54	25.07	
2025-01-07 09:17:23.76	353.50	25.10	
2025-01-07 09:17:23.96	353.46	25.13	
2025-01-07 09:17:24.17	353.42	25.16	
2025-01-07 09:17:24.38	353.38	25.19	
2025-01-07 09:17:24.58	353.34	25.22	
2025-01-07 09:17:24.79	353.29	25.26	
2025-01-07 09:17:25.00	353.25	25.29	
2025-01-07 09:17:25.20	353.21	25.32	
2025-01-07 09:17:25.41	353.17	25.35	
2025-01-07 09:17:25.61	353.13	25.38	
2025-01-07 09:17:25.82	353.09	25.41	
2025-01-07 09:17:26.02	353.05	25.44	
2025-01-07 09:17:26.23	353.00	25.47	
2025-01-07 09:17:26.43	352.96	25.50	
2025-01-07 09:17:26.64	352.92	25.53	
2025-01-07 09:17:26.86	352.88	25.56	
2025-01-07 09:17:27.06	352.84	25.59	
2025-01-07 09:17:27.27	352.79	25.63	
2025-01-07 09:17:27.47	352.75	25.66	
2025-01-07 09:17:27.68	352.71	25.69	
2025-01-07 09:17:27.90	352.66	25.72	
2025-01-07 09:17:28.10	352.62	25.75	
2025-01-07 09:17:28.31	352.58	25.78	
2025-01-07 09:17:28.52	352.54	25.81	
2025-01-07 09:17:28.72	352.49	25.84	
2025-01-07 09:17:28.93	352.45	25.88	
2025-01-07 09:17:29.13	352.41	25.91	
2025-01-07 09:17:29.34	352.37	25.94	
2025-01-07 09:17:29.54	352.32	25.97	
2025-01-07 09:17:29.75	352.28	26.00	
2025-01-07 09:17:29.95	352.24	26.03	
2025-01-07 09:17:30.16	352.19	26.06	
2025-01-07 09:17:30.37	352.15	26.09	
2025-01-07 09:17:30.57	352.11	26.12	
2025-01-07 09:17:30.78	352.06	26.16	
2025-01-07 09:17:30.98	352.02	26.19	
2025-01-07 09:17:31.19	351.98	26.22	
2025-01-07 09:17:31.39	351.93	26.25	
2025-01-07 09:17:31.60	351.89	26.28	
2025-01-07 09:17:31.80	351.85	26.31	
2025-01-07 09:17:32.01	351.80	26.34	
2025-01-07 09:17:32.21	351.76	26.37	
2025-01-07 09:17:32.42	351.71	26.41	
2025-01-07 09:17:32.62	351.67	26.44	
2025-01-07 09:17:32.83	351.62	26.47	
2025-01-07 09:17:33.03	351.58	26.50	
2025-01-07 09:17:33.25	351.53	26.53	
2025-01-07 09:17:33.46	351.49	26.57	
2025-01-07 09:17:33.66	351.44	26.60	
2025-01-07 09:17:33.87	351.40	26.63	
2025-01-07 09:17:34.07	351.35	26.66	
2025-01-07 09:17:34.29	351.31	26.69	
2025-01-07 09:17:34.50	351.26	26.73	
2025-01-07 09:17:34.70	351.22	26.76	
2025-01-07 09:17:34.91	351.17	26.79	
2025-01-07 09:17:35.11	351.12	26.82	
2025-01-07 09:17:35.32	351.08	26.85	
2025-01-07 09:17:35.52	351.03	26.88	
2025-01-07 09:17:35.73	350.99	26.91	
2025-01-07 09:17:35.94	350.94	26.95	
2025-01-07 09:17:36.14	350.90	26.98	
2025-01-07 09:17:36.34	350.85	27.01	
2025-01-07 09:17:36.55	350.80	27.04	
2025-01-07 09:17:36.75	350.76	27.07	
2025-01-07 09:17:36.96	350.71	27.10	
2025-01-07 09:17:37.16	350.67	27.14	
2025-01-07 09:17:37.37	350.62	27.17	
2025-01-07 09:17:37.57	350.57	27.20	
2025-01-07 09:17:37.78	350.53	27.23	
2025-01-07 09:17:37.98	350.48	27.26	
2025-01-07 09:17:38.19	350.43	27.30	
2025-01-07 09:17:38.40	350.38	27.33	
2025-01-07 09:17:38.60	350.34	27.36	
2025-01-07 09:17:38.81	350.29	27.39	
2025-01-07 09:17:39.01	350.24	27.42	
2025-01-07 09:17:39.22	350.20	27.46	
2025-01-07 09:17:39.42	350.15	27.49	
2025-01-07 09:17:39.63	350.10	27.52	
2025-01-07 09:17:39.83	350.05	27.55	
2025-01-07 09:17:40.04	350.01	27.58	
2025-01-07 09:17:40.24	349.96	27.62	
2025-01-07 09:17:40.45	349.91	27.65	
2025-01-07 09:17:40.65	349.86	27.68	
2025-01-07 09:17:40.86	349.81	27.71	
2025-01-07 09:17:41.06	349.77	27.74	
2025-01-07 09:17:41.27	349.72	27.78	
2025-01-07 09:17:41.47	349.67	27.81	
2025-01-07 09:17:41.69	349.62	27.84	
2025-01-07 09:17:41.90	349.57	27.88	
2025-01-07 09:17:42.10	349.52	27.91	
2025-01-07 09:17:42.31	349.47	27.94	
2025-01-07 09:17:42.52	349.42	27.97	
2025-01-07 09:17:42.72	349.37	28.00	
2025-01-07 09:17:42.93	349.32	28.04	
2025-01-07 09:17:43.13	349.27	28.07	
2025-01-07 09:17:43.34	349.22	28.10	
2025-01-07 09:17:43.54	349.18	28.13	
2025-01-07 09:17:43.75	349.13	28.17	
2025-01-07 09:17:43.95	349.08	28.20	
2025-01-07 09:17:44.16	349.03	28.23	
2025-01-07 09:17:44.36	348.98	28.26	
2025-01-07 09:17:44.57	348.93	28.30	
2025-01-07 09:17:44.77	348.88	28.33	
2025-01-07 09:17:44.98	348.83	28.36	
2025-01-07 09:17:45.18	348.78	28.39	
2025-01-07 09:17:45.39	348.73	28.43	
2025-01-07 09:17:45.59	348.68	28.46	
2025-01-07 09:17:45.80	348.62	28.49	
2025-01-07 09:17:46.02	348.57	28.53	
2025-01-07 09:17:46.22	348.52	28.56	
2025-01-07 09:17:46.43	348.47	28.59	
2025-01-07 09:17:46.63	348.42	28.62	
2025-01-07 09:17:46.84	348.37	28.66	
2025-01-07 09:17:47.04	348.32	28.69	
2025-01-07 09:17:47.25	348.26	28.72	
2025-01-07 09:17:47.46	348.21	28.76	
2025-01-07 09:17:47.66	348.16	28.79	
2025-01-07 09:17:47.87	348.11	28.82	
2025-01-07 09:17:48.07	348.06	28.85	
2025-01-07 09:17:48.28	348.00	28.89	
2025-01-07 09:17:48.48	347.95	28.92	
2025-01-07 09:17:48.69	347.90	28.95	
2025-01-07 09:17:48.89	347.85	28.98	
2025-01-07 09:17:49.10	347.79	29.02	
2025-01-07 09:17:49.30	347.74	29.05	
2025-01-07 09:17:49.50	347.69	29.08	
2025-01-07 09:17:49.71	347.64	29.12	
2025-01-07 09:17:49.92	347.58	29.15	
2025-01-07 09:17:50.12	347.53	29.18	
2025-01-07 09:17:50.34	347.48	29.22	
2025-01-07 09:17:50.55	347.42	29.25	
2025-01-07 09:17:50.75	347.37	29.28	
2025-01-07 09:17:50.95	347.32	29.31	
2025-01-07 09:17:51.16	347.26	29.35	
2025-01-07 09:17:51.36	347.21	29.38	
2025-01-07 09:17:51.57	347.16	29.41	
2025-01-07 09:17:51.77	347.10	29.45	
2025-01-07 09:17:51.98	347.05	29.48	
2025-01-07 09:17:52.19	346.99	29.51	
2025-01-07 09:17:52.39	346.94	29.55	
2025-01-07 09:17:52.59	346.89	29.58	
2025-01-07 09:17:52.80	346.83	29.61	
2025-01-07 09:17:53.01	346.77	29.65	
2025-01-07 09:17:53.21	346.72	29.68	
2025-01-07 09:17:53.42	346.66	29.71	
2025-01-07 09:17:53.62	346.61	29.74	
2025-01-07 09:17:53.83	346.56	29.78	
2025-01-07 09:17:54.03	346.50	29.81	
2025-01-07 09:17:54.24	346.44	29.85	
2025-01-07 09:17:54.44	346.39	29.88	
2025-01-07 09:17:54.65	346.33	29.91	
2025-01-07 09:17:54.85	346.28	29.94	
2025-01-07 09:17:55.06	346.22	29.98	
2025-01-07 09:17:55.27	346.17	30.01	
2025-01-07 09:17:55.47	346.11	30.04	
2025-01-07 09:17:55.67	346.06	30.08	
2025-01-07 09:17:55.88	346.00	30.11	
2025-01-07 09:17:56.09	345.94	30.14	
2025-01-07 09:17:56.29	345.89	30.18	
2025-01-07 09:17:56.50	345.83	30.21	
2025-01-07 09:17:56.72	345.77	30.25	
2025-01-07 09:17:56.92	345.71	30.28	
2025-01-07 09:17:57.13	345.65	30.31	
2025-01-07 09:17:57.33	345.60	30.35	
2025-01-07 09:17:57.54	345.54	30.38	
2025-01-07 09:17:57.74	345.48	30.41	
2025-01-07 09:17:57.95	345.42	30.45	
2025-01-07 09:17:58.15	345.37	30.48	
2025-01-07 09:17:58.36	345.31	30.51	
2025-01-07 09:17:58.56	345.25	30.55	
2025-01-07 09:17:58.77	345.19	30.58	
2025-01-07 09:17:58.97	345.14	30.61	
2025-01-07 09:17:59.18	345.08	30.65	
2025-01-07 09:17:59.39	345.02	30.68	
2025-01-07 09:17:59.59	344.96	30.71	
2025-01-07 09:17:59.79	344.90	30.75	
2025-01-07 09:18:00.00	344.84	30.78	
2025-01-07 09:18:00.20	344.79	30.81	
2025-01-07 09:18:00.41	344.72	30.85	
2025-01-07 09:18:00.61	344.67	30.88	
2025-01-07 09:18:00.82	344.61	30.91	
2025-01-07 09:18:01.02	344.55	30.95	
2025-01-07 09:18:01.23	344.49	30.98	
2025-01-07 09:18:01.44	344.43	31.02	
2025-01-07 09:18:01.64	344.37	31.05	
2025-01-07 09:18:01.85	344.31	31.08	
2025-01-07 09:18:02.07	344.24	31.12	
2025-01-07 09:18:02.27	344.18	31.15	
2025-01-07 09:18:02.48	344.12	31.19	
2025-01-07 09:18:02.69	344.06	31.22	
2025-01-07 09:18:02.89	344.00	31.25	
2025-01-07 09:18:03.10	343.94	31.29	
2025-01-07 09:18:03.30	343.88	31.32	
2025-01-07 09:18:03.51	343.82	31.35	
2025-01-07 09:18:03.71	343.76	31.39	
2025-01-07 09:18:03.92	343.70	31.42	
2025-01-07 09:18:04.12	343.64	31.45	
2025-01-07 09:18:04.33	343.57	31.49	
2025-01-07 09:18:04.53	343.51	31.52	
2025-01-07 09:18:04.75	343.45	31.56	
2025-01-07 09:18:04.95	343.39	31.59	
2025-01-07 09:18:05.16	343.32	31.62	
2025-01-07 09:18:05.36	343.26	31.66	
2025-01-07 09:18:05.57	343.20	31.69	
2025-01-07 09:18:05.77	343.14	31.72	
2025-01-07 09:18:05.98	343.07	31.76	
2025-01-07 09:18:06.18	343.01	31.79	
2025-01-07 09:18:06.39	342.95	31.83	
2025-01-07 09:18:06.59	342.89	31.86	
2025-01-07 09:18:06.80	342.82	31.89	
2025-01-07 09:18:07.00	342.76	31.93	
2025-01-07 09:18:07.21	342.70	31.96	
2025-01-07 09:18:07.43	342.63	32.00	
2025-01-07 09:18:07.65	342.56	32.03	
2025-01-07 09:18:07.85	342.50	32.06	
2025-01-07 09:18:08.06	342.43	32.10	
2025-01-07 09:18:08.26	342.37	32.13	
2025-01-07 09:18:08.48	342.30	32.17	
2025-01-07 09:18:08.68	342.24	32.20	
2025-01-07 09:18:08.89	342.17	32.24	
2025-01-07 09:18:09.10	342.11	32.27	
2025-01-07 09:18:09.30	342.04	32.30	
2025-01-07 09:18:09.51	341.98	32.34	
2025-01-07 09:18:09.71	341.91	32.37	
2025-01-07 09:18:09.92	341.85	32.40	
2025-01-07 09:18:10.12	341.78	32.44	
2025-01-07 09:18:10.33	341.71	32.47	
2025-01-07 09:18:10.53	341.65	32.50	
2025-01-07 09:18:10.74	341.58	32.54	
2025-01-07 09:18:10.94	341.52	32.57	
2025-01-07 09:18:11.15	341.45	32.61	
2025-01-07 09:18:11.35	341.39	32.64	
2025-01-07 09:18:11.55	341.32	32.67	
2025-01-07 09:18:11.76	341.25	32.71	
2025-01-07 09:18:11.97	341.19	32.74	
2025-01-07 09:18:12.17	341.12	32.77	
2025-01-07 09:18:12.38	341.05	32.81	
2025-01-07 09:18:12.58	340.99	32.84	
2025-01-07 09:18:12.79	340.92	32.87	
2025-01-07 09:18:12.99	340.85	32.91	
2025-01-07 09:18:13.20	340.78	32.94	
2025-01-07 09:18:13.40	340.72	32.97	
2025-01-07 09:18:13.61	340.65	33.01	
2025-01-07 09:18:13.81	340.58	33.04	
2025-01-07 09:18:14.02	340.51	33.08	
2025-01-07 09:18:14.22	340.45	33.11	
2025-01-07 09:18:14.42	340.38	33.14	
2025-01-07 09:18:14.63	340.31	33.18	
2025-01-07 09:18:14.83	340.24	33.21	
2025-01-07 09:18:15.03	340.18	33.24	
2025-01-07 09:18:15.24	340.11	33.28	
2025-01-07 09:18:15.44	340.04	33.31	
2025-01-07 09:18:15.65	339.97	33.34	
2025-01-07 09:18:15.85	339.90	33.38	
2025-01-07 09:18:16.06	339.83	33.41	
2025-01-07 09:18:16.27	339.76	33.44	
2025-01-07 09:18:16.47	339.69	33.48	
2025-01-07 09:18:16.68	339.62	33.51	
2025-01-07 09:18:16.88	339.55	33.54	
2025-01-07 09:18:17.09	339.48	33.58	
2025-01-07 09:18:17.29	339.41	33.61	
2025-01-07 09:18:17.50	339.34	33.64	
2025-01-07 09:18:17.70	339.27	33.68	
2025-01-07 09:18:17.91	339.19	33.71	
2025-01-07 09:18:18.13	339.12	33.75	
2025-01-07 09:18:18.33	339.05	33.78	
2025-01-07 09:18:18.54	338.98	33.81	
2025-01-07 09:18:18.74	338.91	33.85	
2025-01-07 09:18:18.95	338.83	33.88	
2025-01-07 09:18:19.17	338.76	33.92	
2025-01-07 09:18:19.37	338.69	33.95	
2025-01-07 09:18:19.59	338.61	33.98	
2025-01-07 09:18:19.79	338.54	34.02	
2025-01-07 09:18:20.00	338.46	34.05	
2025-01-07 09:18:20.22	338.39	34.09	
2025-01-07 09:18:20.42	338.32	34.12	
2025-01-07 09:18:20.63	338.24	34.15	
2025-01-07 09:18:20.84	338.17	34.19	
2025-01-07 09:18:21.04	338.09	34.22	
2025-01-07 09:18:21.24	338.02	34.25	
2025-01-07 09:18:21.45	337.95	34.29	
2025-01-07 09:18:21.65	337.88	34.32	
2025-01-07 09:18:21.86	337.80	34.35	
2025-01-07 09:18:22.07	337.72	34.39	
2025-01-07 09:18:22.27	337.65	34.42	
2025-01-07 09:18:22.47	337.58	34.45	
2025-01-07 09:18:22.68	337.50	34.49	
2025-01-07 09:18:22.89	337.43	34.52	
2025-01-07 09:18:23.09	337.35	34.55	
2025-01-07 09:18:23.29	337.28	34.58	
2025-01-07 09:18:23.50	337.20	34.62	
2025-01-07 09:18:23.71	337.13	34.65	
2025-01-07 09:18:23.91	337.05	34.68	
2025-01-07 09:18:24.12	336.98	34.72	
2025-01-07 09:18:24.32	336.90	34.75	
2025-01-07 09:18:24.53	336.83	34.78	
2025-01-07 09:18:24.73	336.75	34.82	
2025-01-07 09:18:24.94	336.67	34.85	
2025-01-07 09:18:25.16	336.59	34.88	
2025-01-07 09:18:25.36	336.52	34.92	
2025-01-07 09:18:25.57	336.44	34.95	
2025-01-07 09:18:25.77	336.36	34.98	
2025-01-07 09:18:25.98	336.28	35.02	
2025-01-07 09:18:26.18	336.21	35.05	
2025-01-07 09:18:26.39	336.13	35.08	
2025-01-07 09:18:26.59	336.05	35.11	
2025-01-07 09:18:26.80	335.98	35.15	
2025-01-07 09:18:27.01	335.90	35.18	
2025-01-07 09:18:27.21	335.82	35.21	
2025-01-07 09:18:27.42	335.74	35.25	
2025-01-07 09:18:27.62	335.66	35.28	
2025-01-07 09:18:27.82	335.59	35.31	
2025-01-07 09:18:28.03	335.51	35.34	
2025-01-07 09:18:28.24	335.43	35.38	
2025-01-07 09:18:28.44	335.35	35.41	
2025-01-07 09:18:28.65	335.27	35.44	
2025-01-07 09:18:28.85	335.19	35.47	
2025-01-07 09:18:29.06	335.11	35.51	
2025-01-07 09:18:29.26	335.03	35.54	
2025-01-07 09:18:29.47	334.95	35.57	
2025-01-07 09:18:29.67	334.87	35.60	
2025-01-07 09:18:29.88	334.79	35.64	
2025-01-07 09:18:30.08	334.71	35.67	
2025-01-07 09:18:30.29	334.63	35.70	
2025-01-07 09:18:30.49	334.55	35.73	
2025-01-07 09:18:30.70	334.47	35.76	
2025-01-07 09:18:30.90	334.39	35.80	
2025-01-07 09:18:31.10	334.31	35.83	
2025-01-07 09:18:31.31	334.23	35.86	
2025-01-07 09:18:31.52	334.14	35.89	
2025-01-07 09:18:31.72	334.06	35.92	
2025-01-07 09:18:31.93	333.98	35.96	
2025-01-07 09:18:32.13	333.90	35.99	
2025-01-07 09:18:32.34	333.82	36.02	
2025-01-07 09:18:32.54	333.74	36.05	
2025-01-07 09:18:32.75	333.65	36.08	
2025-01-07 09:18:32.95	333.57	36.12	
2025-01-07 09:18:33.16	333.49	36.15	
2025-01-07 09:18:33.37	333.40	36.18	
2025-01-07 09:18:33.57	333.32	36.21	
2025-01-07 09:18:33.78	333.24	36.24	
2025-01-07 09:18:33.98	333.15	36.28	
2025-01-07 09:18:34.20	333.07	36.31	
2025-01-07 09:18:34.41	332.98	36.34	
2025-01-07 09:18:34.62	332.89	36.37	
2025-01-07 09:18:34.82	332.81	36.41	
2025-01-07 09:18:35.03	332.73	36.44	
2025-01-07 09:18:35.24	332.64	36.47	
2025-01-07 09:18:35.45	332.55	36.50	
2025-01-07 09:18:35.66	332.47	36.53	
2025-01-07 09:18:35.86	332.38	36.56	
2025-01-07 09:18:36.07	332.30	36.60	
2025-01-07 09:18:36.27	332.21	36.63	
2025-01-07 09:18:36.48	332.13	36.66	
2025-01-07 09:18:36.68	332.04	36.69	
2025-01-07 09:18:36.89	331.95	36.72	
2025-01-07 09:18:37.09	331.87	36.75	
2025-01-07 09:18:37.30	331.78	36.78	
2025-01-07 09:18:37.50	331.70	36.81	
2025-01-07 09:18:37.71	331.61	36.85	
2025-01-07 09:18:37.91	331.52	36.88	
2025-01-07 09:18:38.12	331.44	36.91	
2025-01-07 09:18:38.32	331.35	36.94	
2025-01-07 09:18:38.53	331.26	36.97	
2025-01-07 09:18:38.74	331.17	37.00	
2025-01-07 09:18:38.94	331.09	37.03	
2025-01-07 09:18:39.15	331.00	37.06	
2025-01-07 09:18:39.35	330.91	37.09	
2025-01-07 09:18:39.55	330.83	37.12	
2025-01-07 09:18:39.77	330.73	37.16	
2025-01-07 09:18:39.98	330.64	37.19	
2025-01-07 09:18:40.18	330.56	37.22	
2025-01-07 09:18:40.39	330.46	37.25	
2025-01-07 09:18:40.59	330.38	37.28	
2025-01-07 09:18:40.80	330.29	37.31	
2025-01-07 09:18:41.00	330.20	37.34	
2025-01-07 09:18:41.21	330.11	37.37	
2025-01-07 09:18:41.41	330.02	37.40	
2025-01-07 09:18:41.62	329.93	37.43	
2025-01-07 09:18:41.82	329.84	37.46	
2025-01-07 09:18:42.03	329.75	37.49	
2025-01-07 09:18:42.23	329.66	37.52	
2025-01-07 09:18:42.44	329.57	37.55	
2025-01-07 09:18:42.65	329.48	37.58	
2025-01-07 09:18:42.85	329.39	37.61	
2025-01-07 09:18:43.05	329.30	37.64	
2025-01-07 09:18:43.26	329.21	37.67	
2025-01-07 09:18:43.47	329.11	37.70	
2025-01-07 09:18:43.67	329.02	37.73	
2025-01-07 09:18:43.88	328.93	37.76	
2025-01-07 09:18:44.08	328.84	37.79	
2025-01-07 09:18:44.29	328.75	37.82	
2025-01-07 09:18:44.50	328.65	37.85	
2025-01-07 09:18:44.70	328.56	37.88	
2025-01-07 09:18:44.91	328.47	37.91	
2025-01-07 09:18:45.11	328.38	37.93	
2025-01-07 09:18:45.32	328.28	37.96	
2025-01-07 09:18:45.52	328.19	37.99	
2025-01-07 09:18:45.73	328.10	38.02	
2025-01-07 09:18:45.93	328.00	38.05	
2025-01-07 09:18:46.14	327.91	38.08	
2025-01-07 09:18:46.34	327.82	38.11	
2025-01-07 09:18:46.55	327.72	38.14	
2025-01-07 09:18:46.75	327.63	38.17	
2025-01-07 09:18:46.96	327.53	38.20	
2025-01-07 09:18:47.16	327.44	38.22	
2025-01-07 09:18:47.37	327.35	38.25	
2025-01-07 09:18:47.57	327.25	38.28	
2025-01-07 09:18:47.78	327.16	38.31	
2025-01-07 09:18:47.98	327.06	38.34	
2025-01-07 09:18:48.19	326.97	38.37	
2025-01-07 09:18:48.40	326.87	38.40	
2025-01-07 09:18:48.60	326.77	38.42	
2025-01-07 09:18:48.81	326.68	38.45	
2025-01-07 09:18:49.01	326.58	38.48	
2025-01-07 09:18:49.22	326.49	38.51	
2025-01-07 09:18:49.42	326.39	38.54	
2025-01-07 09:18:49.63	326.29	38.56	
2025-01-07 09:18:49.83	326.20	38.59	
2025-01-07 09:18:50.04	326.10	38.62	
2025-01-07 09:18:50.24	326.01	38.65	
2025-01-07 09:18:50.45	325.91	38.67	
2025-01-07 09:18:50.65	325.81	38.70	
2025-01-07 09:18:50.86	325.71	38.73	
2025-01-07 09:18:51.06	325.62	38.76	
2025-01-07 09:18:51.27	325.52	38.78	
2025-01-07 09:18:51.47	325.42	38.81	
2025-01-07 09:18:51.68	325.32	38.84	
2025-01-07 09:18:51.89	325.22	38.87	
2025-01-07 09:18:52.09	325.12	38.89	
2025-01-07 09:18:52.29	325.03	38.92	
2025-01-07 09:18:52.50	324.93	38.95	
2025-01-07 09:18:52.70	324.83	38.97	
2025-01-07 09:18:52.91	324.73	39.00	
2025-01-07 09:18:53.12	324.63	39.03	
2025-01-07 09:18:53.32	324.53	39.05	
2025-01-07 09:18:53.52	324.43	39.08	
2025-01-07 09:18:53.73	324.33	39.11	
2025-01-07 09:18:53.93	324.23	39.13	
2025-01-07 09:18:54.14	324.13	39.16	
2025-01-07 09:18:54.34	324.03	39.19	
2025-01-07 09:18:54.55	323.93	39.21	
2025-01-07 09:18:54.75	323.83	39.24	
2025-01-07 09:18:54.96	323.73	39.26	
2025-01-07 09:18:55.17	323.63	39.29	
2025-01-07 09:18:55.37	323.53	39.32	
2025-01-07 09:18:55.57	323.43	39.34	
2025-01-07 09:18:55.78	323.33	39.37	
2025-01-07 09:18:55.99	323.22	39.39	
2025-01-07 09:18:56.19	323.12	39.42	
2025-01-07 09:18:56.40	323.02	39.44	
2025-01-07 09:18:56.60	322.92	39.47	
2025-01-07 09:18:56.81	322.81	39.50	
2025-01-07 09:18:57.01	322.71	39.52	
2025-01-07 09:18:57.22	322.61	39.55	
2025-01-07 09:18:57.42	322.51	39.57	
2025-01-07 09:18:57.63	322.40	39.60	
2025-01-07 09:18:57.83	322.30	39.62	
2025-01-07 09:18:58.04	322.20	39.64	
2025-01-07 09:18:58.24	322.10	39.67	
2025-01-07 09:18:58.45	321.99	39.69	
2025-01-07 09:18:58.65	321.89	39.72	
2025-01-07 09:18:58.86	321.78	39.74	
2025-01-07 09:18:59.06	321.68	39.77	
2025-01-07 09:18:59.27	321.58	39.79	
2025-01-07 09:18:59.48	321.47	39.82	
2025-01-07 09:18:59.68	321.37	39.84	
2025-01-07 09:18:59.89	321.26	39.86	
2025-01-07 09:19:00.09	321.16	39.89	
2025-01-07 09:19:00.30	321.05	39.91	
2025-01-07 09:19:00.50	320.95	39.94	
2025-01-07 09:19:00.70	320.84	39.96	
2025-01-07 09:19:00.91	320.74	39.98	
2025-01-07 09:19:01.12	320.63	40.01	
2025-01-07 09:19:01.32	320.53	40.03	
2025-01-07 09:19:01.53	320.42	40.05	
2025-01-07 09:19:01.73	320.31	40.08	
2025-01-07 09:19:01.94	320.20	40.10	
2025-01-07 09:19:02.14	320.10	40.12	
2025-01-07 09:19:02.35	319.99	40.15	
2025-01-07 09:19:02.55	319.89	40.17	
2025-01-07 09:19:02.76	319.78	40.19	
2025-01-07 09:19:02.96	319.67	40.21	
2025-01-07 09:19:03.17	319.56	40.24	
2025-01-07 09:19:03.38	319.45	40.26	
2025-01-07 09:19:03.58	319.35	40.28	
2025-01-07 09:19:03.79	319.24	40.30	
2025-01-07 09:19:03.99	319.13	40.32	
2025-01-07 09:19:04.20	319.02	40.35	
2025-01-07 09:19:04.40	318.92	40.37	
2025-01-07 09:19:04.61	318.81	40.39	
2025-01-07 09:19:04.81	318.70	40.41	
2025-01-07 09:19:05.02	318.59	40.43	
2025-01-07 09:19:05.22	318.49	40.46	
2025-01-07 09:19:05.43	318.37	40.48	
2025-01-07 09:19:05.63	318.27	40.50	
2025-01-07 09:19:05.84	318.16	40.52	
2025-01-07 09:19:06.04	318.05	40.54	
2025-01-07 09:19:06.25	317.94	40.56	
2025-01-07 09:19:06.45	317.83	40.58	
2025-01-07 09:19:06.66	317.72	40.60	
2025-01-07 09:19:06.86	317.61	40.62	
2025-01-07 09:19:07.07	317.50	40.65	
2025-01-07 09:19:07.27	317.39	40.67	
2025-01-07 09:19:07.48	317.28	40.69	
2025-01-07 09:19:07.69	317.17	40.71	
2025-01-07 09:19:07.89	317.06	40.73	
2025-01-07 09:19:08.10	316.94	40.75	
2025-01-07 09:19:08.30	316.84	40.77	
2025-01-07 09:19:08.51	316.72	40.79	
2025-01-07 09:19:08.71	316.62	40.81	
2025-01-07 09:19:08.92	316.50	40.83	
2025-01-07 09:19:09.12	316.39	40.85	
2025-01-07 09:19:09.33	316.28	40.86	
2025-01-07 09:19:09.53	316.17	40.88	
2025-01-07 09:19:09.74	316.06	40.90	
2025-01-07 09:19:09.95	315.94	40.92	
2025-01-07 09:19:10.15	315.83	40.94	
2025-01-07 09:19:10.36	315.72	40.96	
2025-01-07 09:19:10.56	315.61	40.98	
2025-01-07 09:19:10.77	315.49	41.00	
2025-01-07 09:19:10.97	315.38	41.02	
2025-01-07 09:19:11.18	315.27	41.03	
2025-01-07 09:19:11.38	315.16	41.05	
2025-01-07 09:19:11.59	315.04	41.07	
2025-01-07 09:19:11.79	314.93	41.09	
2025-01-07 09:19:12.00	314.81	41.11	
2025-01-07 09:19:12.21	314.70	41.13	
2025-01-07 09:19:12.41	314.59	41.14	
2025-01-07 09:19:12.61	314.48	41.16	
2025-01-07 09:19:12.82	314.36	41.18	
2025-01-07 09:19:13.03	314.24	41.20	
2025-01-07 09:19:13.23	314.13	41.21	
2025-01-07 09:19:13.44	314.02	41.23	
2025-01-07 09:19:13.64	313.90	41.25	
2025-01-07 09:19:13.85	313.79	41.26	
2025-01-07 09:19:14.05	313.68	41.28	
2025-01-07 09:19:14.26	313.56	41.30	
2025-01-07 09:19:14.46	313.45	41.31	
2025-01-07 09:19:14.67	313.33	41.33	
2025-01-07 09:19:14.87	313.22	41.35	
2025-01-07 09:19:15.08	313.10	41.36	
2025-01-07 09:19:15.28	312.99	41.38	
2025-01-07 09:19:15.49	312.87	41.39	
2025-01-07 09:19:15.69	312.76	41.41	
2025-01-07 09:19:15.90	312.64	41.43	
2025-01-07 09:19:16.10	312.53	41.44	
2025-01-07 09:19:16.31	312.41	41.46	
2025-01-07 09:19:16.52	312.29	41.47	
2025-01-07 09:19:16.72	312.18	41.49	
2025-01-07 09:19:16.92	312.06	41.50	
2025-01-07 09:19:17.13	311.94	41.52	
2025-01-07 09:19:17.34	311.82	41.53	
2025-01-07 09:19:17.54	311.71	41.55	
2025-01-07 09:19:17.75	311.59	41.56	
2025-01-07 09:19:17.97	311.47	41.58	
2025-01-07 09:19:18.17	311.35	41.59	
2025-01-07 09:19:18.38	311.23	41.61	
2025-01-07 09:19:18.58	311.12	41.62	
2025-01-07 09:19:18.79	311.00	41.63	
2025-01-07 09:19:18.99	310.88	41.65	
2025-01-07 09:19:19.20	310.76	41.66	
2025-01-07 09:19:19.40	310.65	41.67	
2025-01-07 09:19:19.61	310.53	41.69	
2025-01-07 09:19:19.82	310.41	41.70	
2025-01-07 09:19:20.02	310.29	41.71	
2025-01-07 09:19:20.22	310.18	41.73	
2025-01-07 09:19:20.43	310.06	41.74	
2025-01-07 09:19:20.64	309.94	41.75	
2025-01-07 09:19:20.84	309.82	41.77	
2025-01-07 09:19:21.04	309.71	41.78	
2025-01-07 09:19:21.25	309.59	41.79	
2025-01-07 09:19:21.45	309.47	41.80	
2025-01-07 09:19:21.66	309.35	41.81	
2025-01-07 09:19:21.86	309.23	41.83	
2025-01-07 09:19:22.07	309.11	41.84	
2025-01-07 09:19:22.27	309.00	41.85	
2025-01-07 09:19:22.48	308.87	41.86	
2025-01-07 09:19:22.68	308.76	41.87	
2025-01-07 09:19:22.89	308.64	41.88	
2025-01-07 09:19:23.10	308.52	41.90	
2025-01-07 09:19:23.30	308.40	41.91	
2025-01-07 09:19:23.51	308.28	41.92	
2025-01-07 09:19:23.71	308.16	41.93	
2025-01-07 09:19:23.92	308.04	41.94	
2025-01-07 09:19:24.12	307.92	41.95	
2025-01-07 09:19:24.33	307.80	41.96	
2025-01-07 09:19:24.53	307.68	41.97	
2025-01-07 09:19:24.74	307.56	41.98	
2025-01-07 09:19:24.95	307.44	41.99	
2025-01-07 09:19:25.15	307.32	42.00	
2025-01-07 09:19:25.35	307.20	42.01	
2025-01-07 09:19:25.56	307.08	42.02	
2025-01-07 09:19:25.77	306.96	42.03	
2025-01-07 09:19:25.97	306.84	42.04	
2025-01-07 09:19:26.18	306.72	42.05	
2025-01-07 09:19:26.38	306.60	42.06	
2025-01-07 09:19:26.60	306.47	42.07	
2025-01-07 09:19:26.80	306.35	42.07	
2025-01-07 09:19:27.01	306.23	42.08	
2025-01-07 09:19:27.21	306.11	42.09	
2025-01-07 09:19:27.42	305.99	42.10	
2025-01-07 09:19:27.62	305.87	42.11	
2025-01-07 09:19:27.83	305.75	42.12	
2025-01-07 09:19:28.04	305.62	42.12	
2025-01-07 09:19:28.24	305.51	42.13	
2025-01-07 09:19:28.45	305.38	42.14	
2025-01-07 09:19:28.65	305.26	42.15	
2025-01-07 09:19:28.86	305.14	42.15	
2025-01-07 09:19:29.06	305.02	42.16	
2025-01-07 09:19:29.26	304.90	42.17	
2025-01-07 09:19:29.47	304.78	42.17	
2025-01-07 09:19:29.67	304.66	42.18	
2025-01-07 09:19:29.88	304.54	42.19	
2025-01-07 09:19:30.09	304.41	42.19	
2025-01-07 09:19:30.29	304.29	42.20	
2025-01-07 09:19:30.50	304.17	42.21	
2025-01-07 09:19:30.70	304.05	42.21	
2025-01-07 09:19:30.91	303.93	42.22	
2025-01-07 09:19:31.11	303.81	42.22	
2025-01-07 09:19:31.32	303.68	42.23	
2025-01-07 09:19:31.53	303.56	42.24	
2025-01-07 09:19:31.73	303.44	42.24	
2025-01-07 09:19:31.93	303.32	42.25	
2025-01-07 09:19:32.14	303.20	42.25	
2025-01-07 09:19:32.34	303.08	42.26	
2025-01-07 09:19:32.55	302.95	42.26	
2025-01-07 09:19:32.75	302.83	42.27	
2025-01-07 09:19:32.96	302.71	42.27	
2025-01-07 09:19:33.16	302.59	42.27	
2025-01-07 09:19:33.37	302.47	42.28	
