passes_logs/2025/01/07/SPB_Silybum_02/SPB_Silybum_02__20250107_093601_AQUA_rec.log

#Pass ID: 20250107_093601_AQUA
#Satellite: AQUA
#Configuration: AQUA
#Start time: 2025-01-07 09:36:00

#Version: 2.0.20230423
#Station: SPB_Silybum_02
#Location: 30.233357 lon 59.946436 lat
#TLE: 1 27424U 02022A   25006.84785145  .00002945  00000+0  61491-3 0  9993
#TLE: 2 27424  98.3576 323.4392 0001407 119.3107 268.2761 14.60650503206436

#Time	Az	El	Level	Level2	SNR	BER	Gain	Gain2
2025-01-07 09:36:02.28	105.83	4.08	
2025-01-07 09:36:02.48	105.81	4.09	
2025-01-07 09:36:02.69	105.79	4.10	
2025-01-07 09:36:02.89	105.78	4.12	
2025-01-07 09:36:03.10	105.76	4.13	
2025-01-07 09:36:03.31	105.74	4.14	
2025-01-07 09:36:03.51	105.72	4.15	
2025-01-07 09:36:03.72	105.70	4.17	
2025-01-07 09:36:03.92	105.69	4.18	
2025-01-07 09:36:04.13	105.67	4.19	
2025-01-07 09:36:04.34	105.65	4.21	
2025-01-07 09:36:04.54	105.63	4.22	
2025-01-07 09:36:04.74	105.61	4.23	
2025-01-07 09:36:04.95	105.60	4.24	
2025-01-07 09:36:05.15	105.58	4.26	
2025-01-07 09:36:05.36	105.56	4.27	
2025-01-07 09:36:05.56	105.54	4.28	
2025-01-07 09:36:05.77	105.52	4.29	
2025-01-07 09:36:05.97	105.51	4.31	
2025-01-07 09:36:06.17	105.49	4.32	
2025-01-07 09:36:06.39	105.47	4.33	
2025-01-07 09:36:06.60	105.45	4.35	
2025-01-07 09:36:06.80	105.43	4.36	
2025-01-07 09:36:07.00	105.41	4.37	
2025-01-07 09:36:07.21	105.40	4.38	
2025-01-07 09:36:07.41	105.38	4.40	
2025-01-07 09:36:07.62	105.36	4.41	
2025-01-07 09:36:07.84	105.34	4.42	
2025-01-07 09:36:08.04	105.32	4.43	
2025-01-07 09:36:08.25	105.30	4.45	
2025-01-07 09:36:08.45	105.29	4.46	
2025-01-07 09:36:08.66	105.27	4.47	
2025-01-07 09:36:08.86	105.25	4.49	
2025-01-07 09:36:09.07	105.23	4.50	
2025-01-07 09:36:09.27	105.21	4.51	
2025-01-07 09:36:09.48	105.19	4.52	
2025-01-07 09:36:09.68	105.18	4.54	
2025-01-07 09:36:09.89	105.16	4.55	
2025-01-07 09:36:10.09	105.14	4.56	
2025-01-07 09:36:10.31	105.12	4.58	
2025-01-07 09:36:10.52	105.10	4.59	
2025-01-07 09:36:10.72	105.08	4.60	
2025-01-07 09:36:10.93	105.06	4.61	
2025-01-07 09:36:11.14	105.04	4.63	
2025-01-07 09:36:11.34	105.03	4.64	
2025-01-07 09:36:11.55	105.01	4.65	
2025-01-07 09:36:11.75	104.99	4.66	
2025-01-07 09:36:11.96	104.97	4.68	
2025-01-07 09:36:12.17	104.95	4.69	
2025-01-07 09:36:12.37	104.93	4.70	
2025-01-07 09:36:12.57	104.91	4.72	
2025-01-07 09:36:12.78	104.89	4.73	
2025-01-07 09:36:12.99	104.88	4.74	
2025-01-07 09:36:13.19	104.86	4.75	
2025-01-07 09:36:13.39	104.84	4.77	
2025-01-07 09:36:13.60	104.82	4.78	
2025-01-07 09:36:13.81	104.80	4.79	
2025-01-07 09:36:14.01	104.78	4.81	
2025-01-07 09:36:14.21	104.76	4.82	
2025-01-07 09:36:14.42	104.74	4.83	
2025-01-07 09:36:14.64	104.72	4.85	
2025-01-07 09:36:14.84	104.71	4.86	
2025-01-07 09:36:15.05	104.69	4.87	
2025-01-07 09:36:15.25	104.67	4.88	
2025-01-07 09:36:15.46	104.65	4.90	
2025-01-07 09:36:15.66	104.63	4.91	
2025-01-07 09:36:15.87	104.61	4.92	
2025-01-07 09:36:16.07	104.59	4.94	
2025-01-07 09:36:16.28	104.57	4.95	
2025-01-07 09:36:16.48	104.55	4.96	
2025-01-07 09:36:16.69	104.53	4.97	
2025-01-07 09:36:16.89	104.52	4.99	
2025-01-07 09:36:17.10	104.50	5.00	
2025-01-07 09:36:17.30	104.48	5.01	
2025-01-07 09:36:17.51	104.46	5.03	
2025-01-07 09:36:17.71	104.44	5.04	
2025-01-07 09:36:17.92	104.42	5.05	
2025-01-07 09:36:18.12	104.40	5.06	
2025-01-07 09:36:18.33	104.38	5.08	
2025-01-07 09:36:18.53	104.36	5.09	
2025-01-07 09:36:18.74	104.34	5.10	
2025-01-07 09:36:18.94	104.32	5.12	
2025-01-07 09:36:19.14	104.30	5.13	
2025-01-07 09:36:19.35	104.29	5.14	
2025-01-07 09:36:19.56	104.27	5.15	
2025-01-07 09:36:19.76	104.25	5.17	
2025-01-07 09:36:19.97	104.23	5.18	
2025-01-07 09:36:20.17	104.21	5.19	
2025-01-07 09:36:20.38	104.19	5.21	
2025-01-07 09:36:20.59	104.17	5.22	
2025-01-07 09:36:20.79	104.15	5.23	
2025-01-07 09:36:20.99	104.13	5.24	
2025-01-07 09:36:21.20	104.11	5.26	
2025-01-07 09:36:21.41	104.09	5.27	
2025-01-07 09:36:21.61	104.07	5.28	
2025-01-07 09:36:21.82	104.05	5.30	
2025-01-07 09:36:22.02	104.03	5.31	
2025-01-07 09:36:22.23	104.01	5.32	
2025-01-07 09:36:22.43	103.99	5.34	
2025-01-07 09:36:22.64	103.97	5.35	
2025-01-07 09:36:22.84	103.95	5.36	
2025-01-07 09:36:23.05	103.93	5.38	
2025-01-07 09:36:23.25	103.91	5.39	
2025-01-07 09:36:23.46	103.89	5.40	
2025-01-07 09:36:23.66	103.87	5.41	
2025-01-07 09:36:23.87	103.85	5.43	
2025-01-07 09:36:24.08	103.83	5.44	
2025-01-07 09:36:24.28	103.81	5.45	
2025-01-07 09:36:24.48	103.80	5.47	
2025-01-07 09:36:24.69	103.78	5.48	
2025-01-07 09:36:24.90	103.76	5.49	
2025-01-07 09:36:25.10	103.74	5.51	
2025-01-07 09:36:25.31	103.72	5.52	
2025-01-07 09:36:25.51	103.70	5.53	
2025-01-07 09:36:25.72	103.68	5.55	
2025-01-07 09:36:25.93	103.66	5.56	
2025-01-07 09:36:26.14	103.63	5.57	
2025-01-07 09:36:26.34	103.62	5.58	
2025-01-07 09:36:26.55	103.59	5.60	
2025-01-07 09:36:26.76	103.57	5.61	
2025-01-07 09:36:26.96	103.55	5.62	
2025-01-07 09:36:27.17	103.53	5.64	
2025-01-07 09:36:27.37	103.51	5.65	
2025-01-07 09:36:27.58	103.49	5.66	
2025-01-07 09:36:27.78	103.47	5.68	
2025-01-07 09:36:27.99	103.45	5.69	
2025-01-07 09:36:28.19	103.43	5.70	
2025-01-07 09:36:28.40	103.41	5.72	
2025-01-07 09:36:28.60	103.39	5.73	
2025-01-07 09:36:28.81	103.37	5.74	
2025-01-07 09:36:29.01	103.35	5.76	
2025-01-07 09:36:29.22	103.33	5.77	
2025-01-07 09:36:29.42	103.31	5.78	
2025-01-07 09:36:29.63	103.29	5.79	
2025-01-07 09:36:29.83	103.27	5.81	
2025-01-07 09:36:30.04	103.25	5.82	
2025-01-07 09:36:30.24	103.23	5.83	
2025-01-07 09:36:30.45	103.21	5.85	
2025-01-07 09:36:30.65	103.19	5.86	
2025-01-07 09:36:30.86	103.17	5.87	
2025-01-07 09:36:31.07	103.15	5.89	
2025-01-07 09:36:31.27	103.13	5.90	
2025-01-07 09:36:31.48	103.11	5.91	
2025-01-07 09:36:31.68	103.09	5.93	
2025-01-07 09:36:31.89	103.07	5.94	
2025-01-07 09:36:32.09	103.05	5.95	
2025-01-07 09:36:32.30	103.03	5.97	
2025-01-07 09:36:32.50	103.01	5.98	
2025-01-07 09:36:32.71	102.98	5.99	
2025-01-07 09:36:32.91	102.96	6.01	
2025-01-07 09:36:33.12	102.94	6.02	
2025-01-07 09:36:33.33	102.92	6.03	
2025-01-07 09:36:33.53	102.90	6.05	
2025-01-07 09:36:33.74	102.88	6.06	
2025-01-07 09:36:33.94	102.86	6.07	
2025-01-07 09:36:34.15	102.84	6.09	
2025-01-07 09:36:34.35	102.82	6.10	
2025-01-07 09:36:34.55	102.80	6.11	
2025-01-07 09:36:34.76	102.78	6.13	
2025-01-07 09:36:34.97	102.76	6.14	
2025-01-07 09:36:35.17	102.74	6.15	
2025-01-07 09:36:35.38	102.71	6.17	
2025-01-07 09:36:35.58	102.69	6.18	
2025-01-07 09:36:35.79	102.67	6.19	
2025-01-07 09:36:36.01	102.65	6.21	
2025-01-07 09:36:36.21	102.63	6.22	
2025-01-07 09:36:36.42	102.61	6.23	
2025-01-07 09:36:36.62	102.59	6.25	
2025-01-07 09:36:36.83	102.57	6.26	
2025-01-07 09:36:37.03	102.55	6.27	
2025-01-07 09:36:37.24	102.52	6.29	
2025-01-07 09:36:37.44	102.50	6.30	
2025-01-07 09:36:37.65	102.48	6.31	
2025-01-07 09:36:37.85	102.46	6.33	
2025-01-07 09:36:38.06	102.44	6.34	
2025-01-07 09:36:38.26	102.42	6.35	
2025-01-07 09:36:38.47	102.40	6.37	
2025-01-07 09:36:38.68	102.38	6.38	
2025-01-07 09:36:38.88	102.35	6.39	
2025-01-07 09:36:39.09	102.33	6.41	
2025-01-07 09:36:39.29	102.31	6.42	
2025-01-07 09:36:39.50	102.29	6.43	
2025-01-07 09:36:39.70	102.27	6.45	
2025-01-07 09:36:39.91	102.25	6.46	
2025-01-07 09:36:40.11	102.23	6.47	
2025-01-07 09:36:40.32	102.20	6.49	
2025-01-07 09:36:40.52	102.18	6.50	
2025-01-07 09:36:40.73	102.16	6.51	
2025-01-07 09:36:40.93	102.14	6.53	
2025-01-07 09:36:41.14	102.12	6.54	
2025-01-07 09:36:41.35	102.10	6.55	
2025-01-07 09:36:41.56	102.07	6.57	
2025-01-07 09:36:41.76	102.05	6.58	
2025-01-07 09:36:41.97	102.03	6.59	
2025-01-07 09:36:42.17	102.01	6.61	
2025-01-07 09:36:42.38	101.99	6.62	
2025-01-07 09:36:42.59	101.97	6.63	
2025-01-07 09:36:42.79	101.95	6.65	
2025-01-07 09:36:43.00	101.92	6.66	
2025-01-07 09:36:43.20	101.90	6.67	
2025-01-07 09:36:43.41	101.88	6.69	
2025-01-07 09:36:43.61	101.86	6.70	
2025-01-07 09:36:43.82	101.84	6.71	
2025-01-07 09:36:44.02	101.81	6.73	
2025-01-07 09:36:44.23	101.79	6.74	
2025-01-07 09:36:44.43	101.77	6.75	
2025-01-07 09:36:44.64	101.75	6.77	
2025-01-07 09:36:44.84	101.73	6.78	
2025-01-07 09:36:45.05	101.70	6.79	
2025-01-07 09:36:45.26	101.68	6.81	
2025-01-07 09:36:45.46	101.66	6.82	
2025-01-07 09:36:45.66	101.64	6.83	
2025-01-07 09:36:45.87	101.62	6.85	
2025-01-07 09:36:46.08	101.59	6.86	
2025-01-07 09:36:46.28	101.57	6.88	
2025-01-07 09:36:46.49	101.55	6.89	
2025-01-07 09:36:46.69	101.53	6.90	
2025-01-07 09:36:46.90	101.51	6.92	
2025-01-07 09:36:47.10	101.48	6.93	
2025-01-07 09:36:47.31	101.46	6.94	
2025-01-07 09:36:47.51	101.44	6.96	
2025-01-07 09:36:47.72	101.42	6.97	
2025-01-07 09:36:47.93	101.39	6.98	
2025-01-07 09:36:48.13	101.37	7.00	
2025-01-07 09:36:48.34	101.35	7.01	
2025-01-07 09:36:48.54	101.33	7.02	
2025-01-07 09:36:48.74	101.31	7.04	
2025-01-07 09:36:48.95	101.28	7.05	
2025-01-07 09:36:49.16	101.26	7.07	
2025-01-07 09:36:49.36	101.24	7.08	
2025-01-07 09:36:49.57	101.22	7.09	
2025-01-07 09:36:49.77	101.19	7.11	
2025-01-07 09:36:49.98	101.17	7.12	
2025-01-07 09:36:50.18	101.15	7.13	
2025-01-07 09:36:50.39	101.13	7.15	
2025-01-07 09:36:50.59	101.10	7.16	
2025-01-07 09:36:50.80	101.08	7.17	
2025-01-07 09:36:51.00	101.06	7.19	
2025-01-07 09:36:51.21	101.04	7.20	
2025-01-07 09:36:51.41	101.01	7.21	
2025-01-07 09:36:51.62	100.99	7.23	
2025-01-07 09:36:51.82	100.97	7.24	
2025-01-07 09:36:52.04	100.94	7.26	
2025-01-07 09:36:52.25	100.92	7.27	
2025-01-07 09:36:52.45	100.90	7.28	
2025-01-07 09:36:52.66	100.88	7.30	
2025-01-07 09:36:52.86	100.85	7.31	
2025-01-07 09:36:53.07	100.83	7.32	
2025-01-07 09:36:53.27	100.81	7.34	
2025-01-07 09:36:53.48	100.78	7.35	
2025-01-07 09:36:53.69	100.76	7.37	
2025-01-07 09:36:53.89	100.74	7.38	
2025-01-07 09:36:54.10	100.71	7.39	
2025-01-07 09:36:54.30	100.69	7.41	
2025-01-07 09:36:54.51	100.67	7.42	
2025-01-07 09:36:54.72	100.65	7.43	
2025-01-07 09:36:54.92	100.62	7.45	
2025-01-07 09:36:55.12	100.60	7.46	
2025-01-07 09:36:55.33	100.58	7.47	
2025-01-07 09:36:55.53	100.55	7.49	
2025-01-07 09:36:55.74	100.53	7.50	
2025-01-07 09:36:55.94	100.51	7.51	
2025-01-07 09:36:56.15	100.48	7.53	
2025-01-07 09:36:56.36	100.46	7.54	
2025-01-07 09:36:56.56	100.44	7.56	
2025-01-07 09:36:56.77	100.41	7.57	
2025-01-07 09:36:56.97	100.39	7.58	
2025-01-07 09:36:57.17	100.37	7.60	
2025-01-07 09:36:57.38	100.34	7.61	
2025-01-07 09:36:57.58	100.32	7.62	
2025-01-07 09:36:57.79	100.30	7.64	
2025-01-07 09:36:57.99	100.28	7.65	
2025-01-07 09:36:58.20	100.25	7.67	
2025-01-07 09:36:58.42	100.23	7.68	
2025-01-07 09:36:58.62	100.20	7.69	
2025-01-07 09:36:58.83	100.18	7.71	
2025-01-07 09:36:59.03	100.16	7.72	
2025-01-07 09:36:59.24	100.13	7.74	
2025-01-07 09:36:59.46	100.11	7.75	
2025-01-07 09:36:59.66	100.08	7.76	
2025-01-07 09:36:59.87	100.06	7.78	
2025-01-07 09:37:00.07	100.04	7.79	
2025-01-07 09:37:00.28	100.01	7.81	
2025-01-07 09:37:00.48	99.99	7.82	
2025-01-07 09:37:00.70	99.96	7.83	
2025-01-07 09:37:00.90	99.94	7.85	
2025-01-07 09:37:01.11	99.92	7.86	
2025-01-07 09:37:01.32	99.89	7.87	
2025-01-07 09:37:01.52	99.87	7.89	
2025-01-07 09:37:01.73	99.84	7.90	
2025-01-07 09:37:01.93	99.82	7.92	
2025-01-07 09:37:02.14	99.80	7.93	
2025-01-07 09:37:02.34	99.77	7.94	
2025-01-07 09:37:02.55	99.75	7.96	
2025-01-07 09:37:02.75	99.73	7.97	
2025-01-07 09:37:02.96	99.70	7.99	
2025-01-07 09:37:03.16	99.68	8.00	
2025-01-07 09:37:03.37	99.65	8.01	
2025-01-07 09:37:03.57	99.63	8.03	
2025-01-07 09:37:03.78	99.60	8.04	
2025-01-07 09:37:03.98	99.58	8.05	
2025-01-07 09:37:04.19	99.56	8.07	
2025-01-07 09:37:04.39	99.53	8.08	
2025-01-07 09:37:04.60	99.51	8.10	
2025-01-07 09:37:04.82	99.48	8.11	
2025-01-07 09:37:05.03	99.46	8.12	
2025-01-07 09:37:05.23	99.43	8.14	
2025-01-07 09:37:05.44	99.41	8.15	
2025-01-07 09:37:05.64	99.38	8.17	
2025-01-07 09:37:05.86	99.36	8.18	
2025-01-07 09:37:06.07	99.33	8.19	
2025-01-07 09:37:06.27	99.31	8.21	
2025-01-07 09:37:06.48	99.29	8.22	
2025-01-07 09:37:06.68	99.26	8.24	
2025-01-07 09:37:06.88	99.24	8.25	
2025-01-07 09:37:07.09	99.21	8.26	
2025-01-07 09:37:07.30	99.19	8.28	
2025-01-07 09:37:07.50	99.16	8.29	
2025-01-07 09:37:07.71	99.14	8.31	
2025-01-07 09:37:07.91	99.11	8.32	
2025-01-07 09:37:08.12	99.09	8.33	
2025-01-07 09:37:08.32	99.06	8.35	
2025-01-07 09:37:08.53	99.04	8.36	
2025-01-07 09:37:08.73	99.02	8.37	
2025-01-07 09:37:08.94	98.99	8.39	
2025-01-07 09:37:09.14	98.97	8.40	
2025-01-07 09:37:09.35	98.94	8.42	
2025-01-07 09:37:09.55	98.92	8.43	
2025-01-07 09:37:09.76	98.89	8.44	
2025-01-07 09:37:09.96	98.87	8.46	
2025-01-07 09:37:10.17	98.84	8.47	
2025-01-07 09:37:10.37	98.82	8.49	
2025-01-07 09:37:10.58	98.79	8.50	
2025-01-07 09:37:10.79	98.77	8.51	
2025-01-07 09:37:10.99	98.74	8.53	
2025-01-07 09:37:11.19	98.72	8.54	
2025-01-07 09:37:11.40	98.69	8.56	
2025-01-07 09:37:11.60	98.67	8.57	
2025-01-07 09:37:11.81	98.64	8.58	
2025-01-07 09:37:12.02	98.62	8.60	
2025-01-07 09:37:12.23	98.59	8.61	
2025-01-07 09:37:12.44	98.56	8.63	
2025-01-07 09:37:12.65	98.54	8.64	
2025-01-07 09:37:12.85	98.51	8.66	
2025-01-07 09:37:13.06	98.49	8.67	
2025-01-07 09:37:13.26	98.46	8.68	
2025-01-07 09:37:13.46	98.44	8.70	
2025-01-07 09:37:13.67	98.41	8.71	
2025-01-07 09:37:13.88	98.39	8.73	
2025-01-07 09:37:14.08	98.36	8.74	
2025-01-07 09:37:14.29	98.34	8.75	
2025-01-07 09:37:14.49	98.31	8.77	
2025-01-07 09:37:14.70	98.28	8.78	
2025-01-07 09:37:14.90	98.26	8.80	
2025-01-07 09:37:15.11	98.23	8.81	
2025-01-07 09:37:15.31	98.21	8.82	
2025-01-07 09:37:15.52	98.18	8.84	
2025-01-07 09:37:15.72	98.16	8.85	
2025-01-07 09:37:15.93	98.13	8.87	
2025-01-07 09:37:16.13	98.11	8.88	
2025-01-07 09:37:16.34	98.08	8.89	
2025-01-07 09:37:16.56	98.05	8.91	
2025-01-07 09:37:16.76	98.03	8.92	
2025-01-07 09:37:16.97	98.00	8.94	
2025-01-07 09:37:17.17	97.98	8.95	
2025-01-07 09:37:17.38	97.95	8.96	
2025-01-07 09:37:17.58	97.92	8.98	
2025-01-07 09:37:17.79	97.90	8.99	
2025-01-07 09:37:17.99	97.87	9.01	
2025-01-07 09:37:18.20	97.85	9.02	
2025-01-07 09:37:18.40	97.82	9.03	
2025-01-07 09:37:18.61	97.79	9.05	
2025-01-07 09:37:18.81	97.77	9.06	
2025-01-07 09:37:19.02	97.74	9.08	
2025-01-07 09:37:19.23	97.71	9.09	
2025-01-07 09:37:19.43	97.69	9.11	
2025-01-07 09:37:19.64	97.66	9.12	
2025-01-07 09:37:19.84	97.64	9.13	
2025-01-07 09:37:20.06	97.61	9.15	
2025-01-07 09:37:20.26	97.58	9.16	
2025-01-07 09:37:20.47	97.56	9.18	
2025-01-07 09:37:20.67	97.53	9.19	
2025-01-07 09:37:20.88	97.50	9.21	
2025-01-07 09:37:21.08	97.48	9.22	
2025-01-07 09:37:21.29	97.45	9.23	
2025-01-07 09:37:21.50	97.42	9.25	
2025-01-07 09:37:21.70	97.40	9.26	
2025-01-07 09:37:21.92	97.37	9.28	
2025-01-07 09:37:22.12	97.34	9.29	
2025-01-07 09:37:22.33	97.32	9.31	
2025-01-07 09:37:22.54	97.29	9.32	
2025-01-07 09:37:22.74	97.26	9.33	
2025-01-07 09:37:22.95	97.24	9.35	
2025-01-07 09:37:23.15	97.21	9.36	
2025-01-07 09:37:23.36	97.18	9.38	
2025-01-07 09:37:23.57	97.16	9.39	
2025-01-07 09:37:23.77	97.13	9.40	
2025-01-07 09:37:23.98	97.10	9.42	
2025-01-07 09:37:24.18	97.08	9.43	
2025-01-07 09:37:24.39	97.05	9.45	
2025-01-07 09:37:24.59	97.02	9.46	
2025-01-07 09:37:24.80	97.00	9.48	
2025-01-07 09:37:25.00	96.97	9.49	
2025-01-07 09:37:25.20	96.94	9.50	
2025-01-07 09:37:25.41	96.92	9.52	
2025-01-07 09:37:25.62	96.89	9.53	
2025-01-07 09:37:25.82	96.86	9.55	
2025-01-07 09:37:26.03	96.83	9.56	
2025-01-07 09:37:26.23	96.81	9.57	
2025-01-07 09:37:26.44	96.78	9.59	
2025-01-07 09:37:26.64	96.75	9.60	
2025-01-07 09:37:26.85	96.73	9.62	
2025-01-07 09:37:27.05	96.70	9.63	
2025-01-07 09:37:27.25	96.67	9.65	
2025-01-07 09:37:27.46	96.64	9.66	
2025-01-07 09:37:27.66	96.62	9.67	
2025-01-07 09:37:27.87	96.59	9.69	
2025-01-07 09:37:28.07	96.56	9.70	
2025-01-07 09:37:28.28	96.54	9.72	
2025-01-07 09:37:28.48	96.51	9.73	
2025-01-07 09:37:28.69	96.48	9.75	
2025-01-07 09:37:28.89	96.45	9.76	
2025-01-07 09:37:29.10	96.43	9.77	
2025-01-07 09:37:29.30	96.40	9.79	
2025-01-07 09:37:29.51	96.37	9.80	
2025-01-07 09:37:29.72	96.34	9.82	
2025-01-07 09:37:29.92	96.32	9.83	
2025-01-07 09:37:30.13	96.29	9.85	
2025-01-07 09:37:30.33	96.26	9.86	
2025-01-07 09:37:30.53	96.23	9.87	
2025-01-07 09:37:30.74	96.21	9.89	
2025-01-07 09:37:30.95	96.18	9.90	
2025-01-07 09:37:31.15	96.15	9.92	
2025-01-07 09:37:31.36	96.12	9.93	
2025-01-07 09:37:31.56	96.09	9.95	
2025-01-07 09:37:31.77	96.07	9.96	
2025-01-07 09:37:31.97	96.04	9.97	
2025-01-07 09:37:32.18	96.01	9.99	
2025-01-07 09:37:32.38	95.98	10.00	
2025-01-07 09:37:32.59	95.95	10.02	
2025-01-07 09:37:32.79	95.93	10.03	
2025-01-07 09:37:33.00	95.90	10.05	
2025-01-07 09:37:33.21	95.87	10.06	
2025-01-07 09:37:33.41	95.84	10.07	
2025-01-07 09:37:33.62	95.81	10.09	
2025-01-07 09:37:33.82	95.79	10.10	
2025-01-07 09:37:34.03	95.76	10.12	
2025-01-07 09:37:34.24	95.73	10.13	
2025-01-07 09:37:34.45	95.70	10.15	
2025-01-07 09:37:34.65	95.67	10.16	
2025-01-07 09:37:34.85	95.64	10.17	
2025-01-07 09:37:35.06	95.61	10.19	
2025-01-07 09:37:35.26	95.59	10.20	
2025-01-07 09:37:35.47	95.56	10.22	
2025-01-07 09:37:35.67	95.53	10.23	
2025-01-07 09:37:35.88	95.50	10.25	
2025-01-07 09:37:36.09	95.47	10.26	
2025-01-07 09:37:36.29	95.44	10.28	
2025-01-07 09:37:36.50	95.42	10.29	
2025-01-07 09:37:36.70	95.39	10.30	
2025-01-07 09:37:36.91	95.36	10.32	
2025-01-07 09:37:37.11	95.33	10.33	
2025-01-07 09:37:37.32	95.30	10.35	
2025-01-07 09:37:37.52	95.27	10.36	
2025-01-07 09:37:37.73	95.24	10.38	
2025-01-07 09:37:37.93	95.22	10.39	
2025-01-07 09:37:38.14	95.19	10.40	
2025-01-07 09:37:38.35	95.16	10.42	
2025-01-07 09:37:38.55	95.13	10.43	
2025-01-07 09:37:38.76	95.10	10.45	
2025-01-07 09:37:38.96	95.07	10.46	
2025-01-07 09:37:39.17	95.04	10.48	
2025-01-07 09:37:39.37	95.01	10.49	
2025-01-07 09:37:39.58	94.98	10.51	
2025-01-07 09:37:39.78	94.95	10.52	
2025-01-07 09:37:40.00	94.92	10.54	
2025-01-07 09:37:40.21	94.89	10.55	
2025-01-07 09:37:40.41	94.87	10.56	
2025-01-07 09:37:40.62	94.84	10.58	
2025-01-07 09:37:40.82	94.81	10.59	
2025-01-07 09:37:41.03	94.78	10.61	
2025-01-07 09:37:41.23	94.75	10.62	
2025-01-07 09:37:41.44	94.72	10.64	
2025-01-07 09:37:41.64	94.69	10.65	
2025-01-07 09:37:41.85	94.66	10.67	
2025-01-07 09:37:42.05	94.63	10.68	
2025-01-07 09:37:42.25	94.60	10.69	
2025-01-07 09:37:42.46	94.57	10.71	
2025-01-07 09:37:42.67	94.54	10.72	
2025-01-07 09:37:42.87	94.51	10.74	
2025-01-07 09:37:43.08	94.48	10.75	
2025-01-07 09:37:43.29	94.45	10.77	
2025-01-07 09:37:43.50	94.42	10.78	
2025-01-07 09:37:43.71	94.39	10.80	
2025-01-07 09:37:43.91	94.36	10.81	
2025-01-07 09:37:44.12	94.33	10.83	
2025-01-07 09:37:44.32	94.30	10.84	
2025-01-07 09:37:44.53	94.27	10.85	
2025-01-07 09:37:44.73	94.24	10.87	
2025-01-07 09:37:44.94	94.21	10.88	
2025-01-07 09:37:45.14	94.18	10.90	
2025-01-07 09:37:45.35	94.15	10.91	
2025-01-07 09:37:45.56	94.12	10.93	
2025-01-07 09:37:45.76	94.09	10.94	
2025-01-07 09:37:45.97	94.06	10.96	
2025-01-07 09:37:46.17	94.03	10.97	
2025-01-07 09:37:46.38	94.00	10.98	
2025-01-07 09:37:46.58	93.97	11.00	
2025-01-07 09:37:46.79	93.94	11.01	
2025-01-07 09:37:46.99	93.91	11.03	
2025-01-07 09:37:47.20	93.88	11.04	
2025-01-07 09:37:47.41	93.85	11.06	
2025-01-07 09:37:47.61	93.82	11.07	
2025-01-07 09:37:47.82	93.79	11.09	
2025-01-07 09:37:48.02	93.76	11.10	
2025-01-07 09:37:48.23	93.73	11.12	
2025-01-07 09:37:48.43	93.70	11.13	
2025-01-07 09:37:48.64	93.67	11.14	
2025-01-07 09:37:48.84	93.64	11.16	
2025-01-07 09:37:49.05	93.61	11.17	
2025-01-07 09:37:49.25	93.58	11.19	
2025-01-07 09:37:49.46	93.55	11.20	
2025-01-07 09:37:49.66	93.52	11.22	
2025-01-07 09:37:49.87	93.49	11.23	
2025-01-07 09:37:50.08	93.46	11.25	
2025-01-07 09:37:50.28	93.43	11.26	
2025-01-07 09:37:50.49	93.39	11.28	
2025-01-07 09:37:50.69	93.36	11.29	
2025-01-07 09:37:50.89	93.33	11.30	
2025-01-07 09:37:51.10	93.30	11.32	
2025-01-07 09:37:51.31	93.27	11.33	
2025-01-07 09:37:51.51	93.24	11.35	
2025-01-07 09:37:51.71	93.21	11.36	
2025-01-07 09:37:51.92	93.18	11.38	
2025-01-07 09:37:52.13	93.15	11.39	
2025-01-07 09:37:52.33	93.12	11.41	
2025-01-07 09:37:52.54	93.09	11.42	
2025-01-07 09:37:52.74	93.05	11.43	
2025-01-07 09:37:52.95	93.02	11.45	
2025-01-07 09:37:53.15	92.99	11.46	
2025-01-07 09:37:53.36	92.96	11.48	
2025-01-07 09:37:53.57	92.93	11.49	
2025-01-07 09:37:53.78	92.90	11.51	
2025-01-07 09:37:53.99	92.86	11.52	
2025-01-07 09:37:54.19	92.83	11.54	
2025-01-07 09:37:54.40	92.80	11.55	
2025-01-07 09:37:54.60	92.77	11.57	
2025-01-07 09:37:54.81	92.74	11.58	
2025-01-07 09:37:55.01	92.71	11.60	
2025-01-07 09:37:55.22	92.68	11.61	
2025-01-07 09:37:55.42	92.65	11.62	
2025-01-07 09:37:55.63	92.61	11.64	
2025-01-07 09:37:55.83	92.58	11.65	
2025-01-07 09:37:56.04	92.55	11.67	
2025-01-07 09:37:56.24	92.52	11.68	
2025-01-07 09:37:56.44	92.49	11.70	
2025-01-07 09:37:56.65	92.46	11.71	
2025-01-07 09:37:56.86	92.42	11.73	
2025-01-07 09:37:57.06	92.39	11.74	
2025-01-07 09:37:57.27	92.36	11.76	
2025-01-07 09:37:57.47	92.33	11.77	
2025-01-07 09:37:57.68	92.30	11.79	
2025-01-07 09:37:57.88	92.26	11.80	
2025-01-07 09:37:58.08	92.23	11.81	
2025-01-07 09:37:58.29	92.20	11.83	
2025-01-07 09:37:58.50	92.17	11.84	
2025-01-07 09:37:58.71	92.14	11.86	
2025-01-07 09:37:58.91	92.10	11.87	
2025-01-07 09:37:59.12	92.07	11.89	
2025-01-07 09:37:59.32	92.04	11.90	
2025-01-07 09:37:59.53	92.01	11.92	
2025-01-07 09:37:59.73	91.98	11.93	
2025-01-07 09:37:59.94	91.94	11.95	
2025-01-07 09:38:00.14	91.91	11.96	
2025-01-07 09:38:00.34	91.88	11.97	
2025-01-07 09:38:00.55	91.85	11.99	
2025-01-07 09:38:00.75	91.81	12.00	
2025-01-07 09:38:00.96	91.78	12.02	
2025-01-07 09:38:01.16	91.75	12.03	
2025-01-07 09:38:01.37	91.72	12.05	
2025-01-07 09:38:01.57	91.68	12.06	
2025-01-07 09:38:01.78	91.65	12.08	
2025-01-07 09:38:01.98	91.62	12.09	
2025-01-07 09:38:02.19	91.59	12.11	
2025-01-07 09:38:02.39	91.55	12.12	
2025-01-07 09:38:02.60	91.52	12.14	
2025-01-07 09:38:02.80	91.49	12.15	
2025-01-07 09:38:03.01	91.45	12.16	
2025-01-07 09:38:03.21	91.42	12.18	
2025-01-07 09:38:03.42	91.39	12.19	
2025-01-07 09:38:03.63	91.36	12.21	
2025-01-07 09:38:03.84	91.32	12.22	
2025-01-07 09:38:04.04	91.29	12.24	
2025-01-07 09:38:04.25	91.26	12.25	
2025-01-07 09:38:04.46	91.22	12.27	
2025-01-07 09:38:04.66	91.19	12.28	
2025-01-07 09:38:04.87	91.16	12.30	
2025-01-07 09:38:05.07	91.12	12.31	
2025-01-07 09:38:05.28	91.09	12.33	
2025-01-07 09:38:05.49	91.06	12.34	
2025-01-07 09:38:05.70	91.02	12.36	
2025-01-07 09:38:05.91	90.99	12.37	
2025-01-07 09:38:06.12	90.95	12.39	
2025-01-07 09:38:06.32	90.92	12.40	
2025-01-07 09:38:06.53	90.89	12.42	
2025-01-07 09:38:06.74	90.85	12.43	
2025-01-07 09:38:06.94	90.82	12.44	
2025-01-07 09:38:07.15	90.78	12.46	
2025-01-07 09:38:07.35	90.75	12.47	
2025-01-07 09:38:07.56	90.72	12.49	
2025-01-07 09:38:07.76	90.68	12.50	
2025-01-07 09:38:07.97	90.65	12.52	
2025-01-07 09:38:08.17	90.62	12.53	
2025-01-07 09:38:08.38	90.58	12.55	
2025-01-07 09:38:08.59	90.55	12.56	
2025-01-07 09:38:08.79	90.52	12.58	
2025-01-07 09:38:09.00	90.48	12.59	
2025-01-07 09:38:09.20	90.45	12.61	
2025-01-07 09:38:09.41	90.41	12.62	
2025-01-07 09:38:09.61	90.38	12.63	
2025-01-07 09:38:09.82	90.34	12.65	
2025-01-07 09:38:10.02	90.31	12.66	
2025-01-07 09:38:10.23	90.28	12.68	
2025-01-07 09:38:10.43	90.24	12.69	
2025-01-07 09:38:10.64	90.21	12.71	
2025-01-07 09:38:10.84	90.18	12.72	
2025-01-07 09:38:11.05	90.14	12.74	
2025-01-07 09:38:11.25	90.11	12.75	
2025-01-07 09:38:11.46	90.07	12.77	
2025-01-07 09:38:11.66	90.04	12.78	
2025-01-07 09:38:11.87	90.00	12.80	
2025-01-07 09:38:12.07	89.97	12.81	
2025-01-07 09:38:12.28	89.93	12.83	
2025-01-07 09:38:12.48	89.90	12.84	
2025-01-07 09:38:12.69	89.87	12.85	
2025-01-07 09:38:12.89	89.83	12.87	
2025-01-07 09:38:13.10	89.80	12.88	
2025-01-07 09:38:13.30	89.76	12.90	
2025-01-07 09:38:13.51	89.73	12.91	
2025-01-07 09:38:13.72	89.69	12.93	
2025-01-07 09:38:13.92	89.66	12.94	
2025-01-07 09:38:14.13	89.62	12.96	
2025-01-07 09:38:14.33	89.59	12.97	
2025-01-07 09:38:14.54	89.55	12.99	
2025-01-07 09:38:14.74	89.52	13.00	
2025-01-07 09:38:14.95	89.48	13.02	
2025-01-07 09:38:15.16	89.45	13.03	
2025-01-07 09:38:15.36	89.41	13.04	
2025-01-07 09:38:15.57	89.38	13.06	
2025-01-07 09:38:15.77	89.34	13.07	
2025-01-07 09:38:15.98	89.31	13.09	
2025-01-07 09:38:16.18	89.27	13.10	
2025-01-07 09:38:16.39	89.24	13.12	
2025-01-07 09:38:16.59	89.20	13.13	
2025-01-07 09:38:16.80	89.17	13.15	
2025-01-07 09:38:17.00	89.13	13.16	
2025-01-07 09:38:17.21	89.10	13.18	
2025-01-07 09:38:17.41	89.06	13.19	
2025-01-07 09:38:17.62	89.02	13.21	
2025-01-07 09:38:17.82	88.99	13.22	
2025-01-07 09:38:18.03	88.95	13.24	
2025-01-07 09:38:18.23	88.92	13.25	
2025-01-07 09:38:18.44	88.88	13.26	
2025-01-07 09:38:18.64	88.85	13.28	
2025-01-07 09:38:18.84	88.81	13.29	
2025-01-07 09:38:19.05	88.78	13.31	
2025-01-07 09:38:19.26	88.74	13.32	
2025-01-07 09:38:19.46	88.70	13.34	
2025-01-07 09:38:19.67	88.67	13.35	
2025-01-07 09:38:19.87	88.63	13.37	
2025-01-07 09:38:20.08	88.60	13.38	
2025-01-07 09:38:20.29	88.56	13.40	
2025-01-07 09:38:20.49	88.52	13.41	
2025-01-07 09:38:20.70	88.49	13.43	
2025-01-07 09:38:20.90	88.45	13.44	
2025-01-07 09:38:21.11	88.42	13.45	
2025-01-07 09:38:21.32	88.38	13.47	
2025-01-07 09:38:21.52	88.34	13.48	
2025-01-07 09:38:21.73	88.31	13.50	
2025-01-07 09:38:21.93	88.27	13.51	
2025-01-07 09:38:22.14	88.23	13.53	
2025-01-07 09:38:22.34	88.20	13.54	
2025-01-07 09:38:22.55	88.16	13.56	
2025-01-07 09:38:22.77	88.12	13.57	
2025-01-07 09:38:22.97	88.09	13.59	
2025-01-07 09:38:23.18	88.05	13.60	
2025-01-07 09:38:23.39	88.01	13.62	
2025-01-07 09:38:23.59	87.98	13.63	
2025-01-07 09:38:23.80	87.94	13.65	
2025-01-07 09:38:24.00	87.90	13.66	
2025-01-07 09:38:24.21	87.87	13.68	
2025-01-07 09:38:24.41	87.83	13.69	
2025-01-07 09:38:24.62	87.79	13.70	
2025-01-07 09:38:24.82	87.76	13.72	
2025-01-07 09:38:25.03	87.72	13.73	
2025-01-07 09:38:25.23	87.68	13.75	
2025-01-07 09:38:25.44	87.65	13.76	
2025-01-07 09:38:25.64	87.61	13.78	
2025-01-07 09:38:25.85	87.57	13.79	
2025-01-07 09:38:26.05	87.54	13.81	
2025-01-07 09:38:26.26	87.50	13.82	
2025-01-07 09:38:26.47	87.46	13.84	
2025-01-07 09:38:26.67	87.42	13.85	
2025-01-07 09:38:26.88	87.39	13.87	
2025-01-07 09:38:27.08	87.35	13.88	
2025-01-07 09:38:27.29	87.31	13.89	
2025-01-07 09:38:27.49	87.27	13.91	
2025-01-07 09:38:27.70	87.24	13.92	
2025-01-07 09:38:27.90	87.20	13.94	
2025-01-07 09:38:28.11	87.16	13.95	
2025-01-07 09:38:28.32	87.12	13.97	
2025-01-07 09:38:28.52	87.09	13.98	
2025-01-07 09:38:28.73	87.05	14.00	
2025-01-07 09:38:28.94	87.01	14.01	
2025-01-07 09:38:29.14	86.97	14.03	
2025-01-07 09:38:29.34	86.94	14.04	
2025-01-07 09:38:29.55	86.90	14.05	
2025-01-07 09:38:29.76	86.86	14.07	
2025-01-07 09:38:29.96	86.82	14.08	
2025-01-07 09:38:30.16	86.79	14.10	
2025-01-07 09:38:30.37	86.75	14.11	
2025-01-07 09:38:30.58	86.71	14.13	
2025-01-07 09:38:30.78	86.67	14.14	
2025-01-07 09:38:30.99	86.63	14.16	
2025-01-07 09:38:31.19	86.60	14.17	
2025-01-07 09:38:31.40	86.56	14.19	
2025-01-07 09:38:31.60	86.52	14.20	
2025-01-07 09:38:31.81	86.48	14.21	
2025-01-07 09:38:32.01	86.44	14.23	
2025-01-07 09:38:32.22	86.40	14.24	
2025-01-07 09:38:32.42	86.37	14.26	
2025-01-07 09:38:32.63	86.33	14.27	
2025-01-07 09:38:32.84	86.29	14.29	
2025-01-07 09:38:33.04	86.25	14.30	
2025-01-07 09:38:33.25	86.21	14.32	
2025-01-07 09:38:33.45	86.17	14.33	
2025-01-07 09:38:33.66	86.13	14.35	
2025-01-07 09:38:33.86	86.10	14.36	
2025-01-07 09:38:34.07	86.06	14.37	
2025-01-07 09:38:34.27	86.02	14.39	
2025-01-07 09:38:34.49	85.98	14.40	
2025-01-07 09:38:34.70	85.94	14.42	
2025-01-07 09:38:34.90	85.90	14.43	
2025-01-07 09:38:35.11	85.86	14.45	
2025-01-07 09:38:35.32	85.82	14.46	
2025-01-07 09:38:35.52	85.78	14.48	
2025-01-07 09:38:35.72	85.75	14.49	
2025-01-07 09:38:35.93	85.71	14.51	
2025-01-07 09:38:36.14	85.67	14.52	
2025-01-07 09:38:36.34	85.63	14.53	
2025-01-07 09:38:36.54	85.59	14.55	
2025-01-07 09:38:36.75	85.55	14.56	
2025-01-07 09:38:36.95	85.51	14.58	
2025-01-07 09:38:37.16	85.47	14.59	
2025-01-07 09:38:37.36	85.43	14.61	
2025-01-07 09:38:37.57	85.39	14.62	
2025-01-07 09:38:37.77	85.35	14.64	
2025-01-07 09:38:37.98	85.31	14.65	
2025-01-07 09:38:38.18	85.28	14.66	
2025-01-07 09:38:38.39	85.24	14.68	
2025-01-07 09:38:38.59	85.20	14.69	
2025-01-07 09:38:38.80	85.16	14.71	
2025-01-07 09:38:39.00	85.12	14.72	
2025-01-07 09:38:39.21	85.08	14.74	
2025-01-07 09:38:39.42	85.04	14.75	
2025-01-07 09:38:39.62	85.00	14.77	
2025-01-07 09:38:39.84	84.96	14.78	
2025-01-07 09:38:40.05	84.91	14.80	
2025-01-07 09:38:40.25	84.88	14.81	
2025-01-07 09:38:40.46	84.84	14.82	
2025-01-07 09:38:40.66	84.80	14.84	
2025-01-07 09:38:40.87	84.76	14.85	
2025-01-07 09:38:41.07	84.72	14.87	
2025-01-07 09:38:41.28	84.68	14.88	
2025-01-07 09:38:41.48	84.64	14.90	
2025-01-07 09:38:41.69	84.60	14.91	
2025-01-07 09:38:41.89	84.56	14.92	
2025-01-07 09:38:42.11	84.51	14.94	
2025-01-07 09:38:42.31	84.47	14.95	
2025-01-07 09:38:42.52	84.43	14.97	
2025-01-07 09:38:42.72	84.39	14.98	
2025-01-07 09:38:42.93	84.35	15.00	
2025-01-07 09:38:43.13	84.31	15.01	
2025-01-07 09:38:43.34	84.27	15.03	
2025-01-07 09:38:43.55	84.23	15.04	
2025-01-07 09:38:43.75	84.19	15.05	
2025-01-07 09:38:43.96	84.15	15.07	
2025-01-07 09:38:44.16	84.11	15.08	
2025-01-07 09:38:44.36	84.07	15.10	
2025-01-07 09:38:44.57	84.03	15.11	
2025-01-07 09:38:44.78	83.99	15.13	
2025-01-07 09:38:44.98	83.95	15.14	
2025-01-07 09:38:45.20	83.90	15.16	
2025-01-07 09:38:45.40	83.86	15.17	
2025-01-07 09:38:45.61	83.82	15.18	
2025-01-07 09:38:45.82	83.78	15.20	
2025-01-07 09:38:46.02	83.74	15.21	
2025-01-07 09:38:46.23	83.70	15.23	
2025-01-07 09:38:46.43	83.66	15.24	
2025-01-07 09:38:46.64	83.62	15.26	
2025-01-07 09:38:46.84	83.58	15.27	
2025-01-07 09:38:47.05	83.53	15.28	
2025-01-07 09:38:47.25	83.49	15.30	
2025-01-07 09:38:47.46	83.45	15.31	
2025-01-07 09:38:47.66	83.41	15.33	
2025-01-07 09:38:47.87	83.37	15.34	
2025-01-07 09:38:48.07	83.33	15.36	
2025-01-07 09:38:48.28	83.29	15.37	
2025-01-07 09:38:48.48	83.24	15.38	
2025-01-07 09:38:48.69	83.20	15.40	
2025-01-07 09:38:48.89	83.16	15.41	
2025-01-07 09:38:49.10	83.12	15.43	
2025-01-07 09:38:49.30	83.08	15.44	
2025-01-07 09:38:49.52	83.03	15.46	
2025-01-07 09:38:49.72	82.99	15.47	
2025-01-07 09:38:49.93	82.95	15.48	
2025-01-07 09:38:50.14	82.91	15.50	
2025-01-07 09:38:50.34	82.87	15.51	
2025-01-07 09:38:50.55	82.82	15.53	
2025-01-07 09:38:50.75	82.78	15.54	
2025-01-07 09:38:50.96	82.74	15.55	
2025-01-07 09:38:51.17	82.70	15.57	
2025-01-07 09:38:51.37	82.66	15.58	
2025-01-07 09:38:51.59	82.61	15.60	
2025-01-07 09:38:51.79	82.57	15.61	
2025-01-07 09:38:52.00	82.53	15.63	
2025-01-07 09:38:52.20	82.49	15.64	
2025-01-07 09:38:52.41	82.44	15.65	
2025-01-07 09:38:52.61	82.40	15.67	
2025-01-07 09:38:52.82	82.36	15.68	
2025-01-07 09:38:53.03	82.31	15.70	
2025-01-07 09:38:53.23	82.27	15.71	
2025-01-07 09:38:53.44	82.23	15.73	
2025-01-07 09:38:53.64	82.19	15.74	
2025-01-07 09:38:53.85	82.14	15.75	
2025-01-07 09:38:54.05	82.10	15.77	
2025-01-07 09:38:54.26	82.06	15.78	
2025-01-07 09:38:54.46	82.02	15.80	
2025-01-07 09:38:54.67	81.97	15.81	
2025-01-07 09:38:54.87	81.93	15.82	
2025-01-07 09:38:55.08	81.89	15.84	
2025-01-07 09:38:55.28	81.85	15.85	
2025-01-07 09:38:55.49	81.80	15.87	
2025-01-07 09:38:55.69	81.76	15.88	
2025-01-07 09:38:55.90	81.72	15.89	
2025-01-07 09:38:56.10	81.67	15.91	
2025-01-07 09:38:56.31	81.63	15.92	
2025-01-07 09:38:56.51	81.59	15.94	
2025-01-07 09:38:56.72	81.54	15.95	
2025-01-07 09:38:56.92	81.50	15.96	
2025-01-07 09:38:57.13	81.46	15.98	
2025-01-07 09:38:57.33	81.41	15.99	
2025-01-07 09:38:57.54	81.37	16.01	
2025-01-07 09:38:57.75	81.33	16.02	
2025-01-07 09:38:57.95	81.28	16.03	
2025-01-07 09:38:58.15	81.24	16.05	
2025-01-07 09:38:58.36	81.20	16.06	
2025-01-07 09:38:58.57	81.15	16.08	
2025-01-07 09:38:58.77	81.11	16.09	
2025-01-07 09:38:58.98	81.06	16.10	
2025-01-07 09:38:59.18	81.02	16.12	
2025-01-07 09:38:59.39	80.98	16.13	
2025-01-07 09:38:59.60	80.93	16.14	
2025-01-07 09:38:59.80	80.89	16.16	
2025-01-07 09:39:00.01	80.84	16.17	
2025-01-07 09:39:00.21	80.80	16.19	
2025-01-07 09:39:00.41	80.76	16.20	
2025-01-07 09:39:00.62	80.71	16.21	
2025-01-07 09:39:00.83	80.67	16.23	
2025-01-07 09:39:01.03	80.63	16.24	
2025-01-07 09:39:01.23	80.58	16.25	
2025-01-07 09:39:01.44	80.54	16.27	
2025-01-07 09:39:01.65	80.49	16.28	
2025-01-07 09:39:01.85	80.45	16.30	
2025-01-07 09:39:02.06	80.40	16.31	
2025-01-07 09:39:02.26	80.36	16.32	
2025-01-07 09:39:02.47	80.31	16.34	
2025-01-07 09:39:02.67	80.27	16.35	
2025-01-07 09:39:02.88	80.23	16.37	
2025-01-07 09:39:03.08	80.18	16.38	
2025-01-07 09:39:03.29	80.14	16.39	
2025-01-07 09:39:03.49	80.09	16.41	
2025-01-07 09:39:03.70	80.05	16.42	
2025-01-07 09:39:03.90	80.00	16.43	
2025-01-07 09:39:04.11	79.96	16.45	
2025-01-07 09:39:04.31	79.91	16.46	
2025-01-07 09:39:04.52	79.87	16.47	
2025-01-07 09:39:04.72	79.82	16.49	
2025-01-07 09:39:04.93	79.78	16.50	
2025-01-07 09:39:05.14	79.73	16.52	
2025-01-07 09:39:05.34	79.69	16.53	
2025-01-07 09:39:05.55	79.64	16.54	
2025-01-07 09:39:05.75	79.60	16.56	
2025-01-07 09:39:05.96	79.55	16.57	
2025-01-07 09:39:06.16	79.51	16.58	
2025-01-07 09:39:06.37	79.46	16.60	
2025-01-07 09:39:06.58	79.42	16.61	
2025-01-07 09:39:06.79	79.37	16.63	
2025-01-07 09:39:07.00	79.32	16.64	
2025-01-07 09:39:07.20	79.28	16.65	
2025-01-07 09:39:07.41	79.23	16.67	
2025-01-07 09:39:07.61	79.19	16.68	
2025-01-07 09:39:07.82	79.14	16.69	
2025-01-07 09:39:08.02	79.10	16.71	
2025-01-07 09:39:08.23	79.05	16.72	
2025-01-07 09:39:08.44	79.00	16.73	
2025-01-07 09:39:08.65	78.96	16.75	
2025-01-07 09:39:08.86	78.91	16.76	
2025-01-07 09:39:09.07	78.86	16.78	
2025-01-07 09:39:09.27	78.82	16.79	
2025-01-07 09:39:09.48	78.77	16.80	
2025-01-07 09:39:09.68	78.73	16.82	
2025-01-07 09:39:09.89	78.68	16.83	
2025-01-07 09:39:10.09	78.63	16.84	
2025-01-07 09:39:10.30	78.59	16.86	
2025-01-07 09:39:10.50	78.54	16.87	
2025-01-07 09:39:10.71	78.49	16.88	
2025-01-07 09:39:10.91	78.45	16.90	
2025-01-07 09:39:11.12	78.40	16.91	
2025-01-07 09:39:11.32	78.36	16.92	
2025-01-07 09:39:11.53	78.31	16.94	
2025-01-07 09:39:11.74	78.26	16.95	
2025-01-07 09:39:11.94	78.22	16.96	
2025-01-07 09:39:12.15	78.17	16.98	
2025-01-07 09:39:12.35	78.12	16.99	
2025-01-07 09:39:12.56	78.08	17.00	
2025-01-07 09:39:12.76	78.03	17.02	
2025-01-07 09:39:12.97	77.98	17.03	
2025-01-07 09:39:13.17	77.94	17.04	
2025-01-07 09:39:13.38	77.89	17.06	
2025-01-07 09:39:13.58	77.84	17.07	
2025-01-07 09:39:13.79	77.80	17.08	
2025-01-07 09:39:13.99	77.75	17.10	
2025-01-07 09:39:14.20	77.70	17.11	
2025-01-07 09:39:14.41	77.65	17.12	
2025-01-07 09:39:14.61	77.61	17.14	
2025-01-07 09:39:14.82	77.56	17.15	
2025-01-07 09:39:15.02	77.51	17.16	
2025-01-07 09:39:15.23	77.47	17.18	
2025-01-07 09:39:15.43	77.42	17.19	
2025-01-07 09:39:15.64	77.37	17.20	
2025-01-07 09:39:15.85	77.32	17.22	
2025-01-07 09:39:16.05	77.28	17.23	
2025-01-07 09:39:16.25	77.23	17.24	
2025-01-07 09:39:16.46	77.18	17.25	
2025-01-07 09:39:16.67	77.13	17.27	
2025-01-07 09:39:16.87	77.09	17.28	
2025-01-07 09:39:17.08	77.04	17.29	
2025-01-07 09:39:17.29	76.99	17.31	
2025-01-07 09:39:17.50	76.94	17.32	
2025-01-07 09:39:17.71	76.89	17.33	
2025-01-07 09:39:17.91	76.85	17.35	
2025-01-07 09:39:18.12	76.80	17.36	
2025-01-07 09:39:18.32	76.75	17.37	
2025-01-07 09:39:18.52	76.70	17.38	
2025-01-07 09:39:18.73	76.66	17.40	
2025-01-07 09:39:18.94	76.61	17.41	
2025-01-07 09:39:19.14	76.56	17.42	
2025-01-07 09:39:19.36	76.51	17.44	
2025-01-07 09:39:19.56	76.46	17.45	
2025-01-07 09:39:19.77	76.41	17.46	
2025-01-07 09:39:19.97	76.37	17.48	
2025-01-07 09:39:20.18	76.32	17.49	
2025-01-07 09:39:20.38	76.27	17.50	
2025-01-07 09:39:20.59	76.22	17.51	
2025-01-07 09:39:20.79	76.17	17.53	
2025-01-07 09:39:21.00	76.12	17.54	
2025-01-07 09:39:21.21	76.07	17.55	
2025-01-07 09:39:21.41	76.03	17.57	
2025-01-07 09:39:21.61	75.98	17.58	
2025-01-07 09:39:21.82	75.93	17.59	
2025-01-07 09:39:22.03	75.88	17.60	
2025-01-07 09:39:22.23	75.83	17.62	
2025-01-07 09:39:22.43	75.78	17.63	
2025-01-07 09:39:22.64	75.73	17.64	
2025-01-07 09:39:22.84	75.69	17.65	
2025-01-07 09:39:23.05	75.64	17.67	
2025-01-07 09:39:23.26	75.59	17.68	
2025-01-07 09:39:23.46	75.54	17.69	
2025-01-07 09:39:23.68	75.49	17.71	
2025-01-07 09:39:23.89	75.44	17.72	
2025-01-07 09:39:24.09	75.39	17.73	
2025-01-07 09:39:24.29	75.34	17.74	
2025-01-07 09:39:24.50	75.29	17.76	
2025-01-07 09:39:24.70	75.24	17.77	
2025-01-07 09:39:24.91	75.19	17.78	
2025-01-07 09:39:25.11	75.14	17.79	
2025-01-07 09:39:25.32	75.09	17.81	
2025-01-07 09:39:25.52	75.05	17.82	
2025-01-07 09:39:25.73	75.00	17.83	
2025-01-07 09:39:25.93	74.95	17.84	
2025-01-07 09:39:26.14	74.90	17.86	
2025-01-07 09:39:26.34	74.85	17.87	
2025-01-07 09:39:26.55	74.80	17.88	
2025-01-07 09:39:26.75	74.75	17.89	
2025-01-07 09:39:26.96	74.70	17.91	
2025-01-07 09:39:27.16	74.65	17.92	
2025-01-07 09:39:27.37	74.60	17.93	
2025-01-07 09:39:27.57	74.55	17.94	
2025-01-07 09:39:27.78	74.50	17.96	
2025-01-07 09:39:27.98	74.45	17.97	
2025-01-07 09:39:28.19	74.40	17.98	
2025-01-07 09:39:28.40	74.35	17.99	
2025-01-07 09:39:28.60	74.30	18.01	
2025-01-07 09:39:28.81	74.25	18.02	
2025-01-07 09:39:29.02	74.20	18.03	
2025-01-07 09:39:29.23	74.15	18.04	
2025-01-07 09:39:29.44	74.10	18.06	
2025-01-07 09:39:29.64	74.05	18.07	
2025-01-07 09:39:29.85	74.00	18.08	
2025-01-07 09:39:30.05	73.95	18.09	
2025-01-07 09:39:30.26	73.89	18.11	
2025-01-07 09:39:30.46	73.85	18.12	
2025-01-07 09:39:30.67	73.79	18.13	
2025-01-07 09:39:30.87	73.74	18.14	
2025-01-07 09:39:31.08	73.69	18.15	
2025-01-07 09:39:31.28	73.64	18.17	
2025-01-07 09:39:31.49	73.59	18.18	
2025-01-07 09:39:31.69	73.54	18.19	
2025-01-07 09:39:31.90	73.49	18.20	
2025-01-07 09:39:32.10	73.44	18.21	
2025-01-07 09:39:32.31	73.39	18.23	
2025-01-07 09:39:32.52	73.34	18.24	
2025-01-07 09:39:32.72	73.29	18.25	
2025-01-07 09:39:32.93	73.24	18.26	
2025-01-07 09:39:33.13	73.19	18.27	
2025-01-07 09:39:33.34	73.13	18.29	
2025-01-07 09:39:33.54	73.08	18.30	
2025-01-07 09:39:33.75	73.03	18.31	
2025-01-07 09:39:33.95	72.98	18.32	
2025-01-07 09:39:34.16	72.93	18.33	
2025-01-07 09:39:34.36	72.88	18.35	
2025-01-07 09:39:34.57	72.83	18.36	
2025-01-07 09:39:34.77	72.78	18.37	
2025-01-07 09:39:34.98	72.73	18.38	
2025-01-07 09:39:35.18	72.67	18.39	
2025-01-07 09:39:35.39	72.62	18.40	
2025-01-07 09:39:35.59	72.57	18.42	
2025-01-07 09:39:35.80	72.52	18.43	
2025-01-07 09:39:36.00	72.47	18.44	
2025-01-07 09:39:36.21	72.42	18.45	
2025-01-07 09:39:36.41	72.37	18.46	
2025-01-07 09:39:36.62	72.31	18.48	
2025-01-07 09:39:36.82	72.26	18.49	
2025-01-07 09:39:37.03	72.21	18.50	
2025-01-07 09:39:37.24	72.16	18.51	
2025-01-07 09:39:37.44	72.11	18.52	
2025-01-07 09:39:37.65	72.05	18.53	
2025-01-07 09:39:37.85	72.00	18.54	
2025-01-07 09:39:38.06	71.95	18.56	
2025-01-07 09:39:38.26	71.90	18.57	
2025-01-07 09:39:38.47	71.85	18.58	
2025-01-07 09:39:38.67	71.80	18.59	
2025-01-07 09:39:38.88	71.74	18.60	
2025-01-07 09:39:39.08	71.69	18.61	
2025-01-07 09:39:39.29	71.64	18.63	
2025-01-07 09:39:39.49	71.59	18.64	
2025-01-07 09:39:39.70	71.53	18.65	
2025-01-07 09:39:39.90	71.48	18.66	
2025-01-07 09:39:40.11	71.43	18.67	
2025-01-07 09:39:40.31	71.38	18.68	
2025-01-07 09:39:40.52	71.32	18.69	
2025-01-07 09:39:40.72	71.27	18.71	
2025-01-07 09:39:40.93	71.22	18.72	
2025-01-07 09:39:41.14	71.17	18.73	
2025-01-07 09:39:41.34	71.11	18.74	
2025-01-07 09:39:41.55	71.06	18.75	
2025-01-07 09:39:41.75	71.01	18.76	
2025-01-07 09:39:41.96	70.95	18.77	
2025-01-07 09:39:42.16	70.90	18.78	
2025-01-07 09:39:42.37	70.85	18.80	
2025-01-07 09:39:42.58	70.80	18.81	
2025-01-07 09:39:42.78	70.74	18.82	
2025-01-07 09:39:42.98	70.69	18.83	
2025-01-07 09:39:43.19	70.64	18.84	
2025-01-07 09:39:43.40	70.58	18.85	
2025-01-07 09:39:43.60	70.53	18.86	
2025-01-07 09:39:43.81	70.48	18.87	
2025-01-07 09:39:44.01	70.43	18.88	
2025-01-07 09:39:44.22	70.37	18.90	
2025-01-07 09:39:44.42	70.32	18.91	
2025-01-07 09:39:44.63	70.26	18.92	
2025-01-07 09:39:44.83	70.21	18.93	
2025-01-07 09:39:45.04	70.16	18.94	
2025-01-07 09:39:45.24	70.11	18.95	
2025-01-07 09:39:45.45	70.05	18.96	
2025-01-07 09:39:45.65	70.00	18.97	
2025-01-07 09:39:45.86	69.94	18.98	
2025-01-07 09:39:46.06	69.89	18.99	
2025-01-07 09:39:46.27	69.84	19.00	
2025-01-07 09:39:46.48	69.78	19.02	
2025-01-07 09:39:46.68	69.73	19.03	
2025-01-07 09:39:46.88	69.68	19.04	
2025-01-07 09:39:47.09	69.62	19.05	
2025-01-07 09:39:47.30	69.57	19.06	
2025-01-07 09:39:47.50	69.52	19.07	
2025-01-07 09:39:47.70	69.46	19.08	
2025-01-07 09:39:47.91	69.41	19.09	
2025-01-07 09:39:48.11	69.36	19.10	
2025-01-07 09:39:48.32	69.30	19.11	
2025-01-07 09:39:48.52	69.25	19.12	
2025-01-07 09:39:48.73	69.19	19.13	
2025-01-07 09:39:48.94	69.14	19.14	
2025-01-07 09:39:49.14	69.08	19.15	
2025-01-07 09:39:49.34	69.03	19.16	
2025-01-07 09:39:49.55	68.98	19.18	
2025-01-07 09:39:49.75	68.92	19.19	
2025-01-07 09:39:49.96	68.87	19.20	
2025-01-07 09:39:50.17	68.81	19.21	
2025-01-07 09:39:50.39	68.75	19.22	
2025-01-07 09:39:50.59	68.70	19.23	
2025-01-07 09:39:50.80	68.64	19.24	
2025-01-07 09:39:51.00	68.59	19.25	
2025-01-07 09:39:51.21	68.54	19.26	
2025-01-07 09:39:51.41	68.48	19.27	
2025-01-07 09:39:51.62	68.43	19.28	
2025-01-07 09:39:51.83	68.37	19.29	
2025-01-07 09:39:52.03	68.32	19.30	
2025-01-07 09:39:52.24	68.26	19.31	
2025-01-07 09:39:52.44	68.21	19.32	
2025-01-07 09:39:52.65	68.15	19.33	
2025-01-07 09:39:52.85	68.10	19.34	
2025-01-07 09:39:53.06	68.04	19.35	
2025-01-07 09:39:53.26	67.99	19.36	
2025-01-07 09:39:53.47	67.93	19.37	
2025-01-07 09:39:53.67	67.88	19.38	
2025-01-07 09:39:53.88	67.82	19.39	
2025-01-07 09:39:54.08	67.77	19.40	
2025-01-07 09:39:54.29	67.71	19.41	
2025-01-07 09:39:54.50	67.66	19.42	
2025-01-07 09:39:54.71	67.60	19.43	
2025-01-07 09:39:54.92	67.54	19.44	
2025-01-07 09:39:55.12	67.49	19.45	
2025-01-07 09:39:55.33	67.43	19.46	
2025-01-07 09:39:55.53	67.38	19.47	
2025-01-07 09:39:55.74	67.32	19.48	
2025-01-07 09:39:55.94	67.27	19.49	
2025-01-07 09:39:56.15	67.21	19.50	
2025-01-07 09:39:56.35	67.16	19.51	
2025-01-07 09:39:56.56	67.10	19.52	
2025-01-07 09:39:56.76	67.05	19.53	
2025-01-07 09:39:56.97	66.99	19.54	
2025-01-07 09:39:57.18	66.93	19.55	
2025-01-07 09:39:57.38	66.88	19.56	
2025-01-07 09:39:57.59	66.82	19.57	
2025-01-07 09:39:57.79	66.77	19.58	
2025-01-07 09:39:57.99	66.71	19.59	
2025-01-07 09:39:58.20	66.65	19.60	
2025-01-07 09:39:58.40	66.60	19.61	
2025-01-07 09:39:58.61	66.54	19.62	
2025-01-07 09:39:58.82	66.49	19.63	
2025-01-07 09:39:59.02	66.43	19.64	
2025-01-07 09:39:59.23	66.37	19.65	
2025-01-07 09:39:59.43	66.32	19.66	
2025-01-07 09:39:59.64	66.26	19.66	
2025-01-07 09:39:59.84	66.21	19.67	
2025-01-07 09:40:00.04	66.15	19.68	
2025-01-07 09:40:00.25	66.09	19.69	
2025-01-07 09:40:00.45	66.04	19.70	
2025-01-07 09:40:00.66	65.98	19.71	
2025-01-07 09:40:00.86	65.93	19.72	
2025-01-07 09:40:01.08	65.87	19.73	
2025-01-07 09:40:01.29	65.81	19.74	
2025-01-07 09:40:01.49	65.75	19.75	
2025-01-07 09:40:01.70	65.70	19.76	
2025-01-07 09:40:01.90	65.64	19.77	
2025-01-07 09:40:02.11	65.58	19.78	
2025-01-07 09:40:02.31	65.53	19.79	
2025-01-07 09:40:02.52	65.47	19.79	
2025-01-07 09:40:02.73	65.41	19.80	
2025-01-07 09:40:02.93	65.36	19.81	
2025-01-07 09:40:03.14	65.30	19.82	
2025-01-07 09:40:03.34	65.24	19.83	
2025-01-07 09:40:03.55	65.19	19.84	
2025-01-07 09:40:03.75	65.13	19.85	
2025-01-07 09:40:03.96	65.07	19.86	
2025-01-07 09:40:04.16	65.02	19.87	
2025-01-07 09:40:04.37	64.96	19.88	
2025-01-07 09:40:04.57	64.90	19.88	
2025-01-07 09:40:04.78	64.85	19.89	
2025-01-07 09:40:04.98	64.79	19.90	
2025-01-07 09:40:05.19	64.73	19.91	
2025-01-07 09:40:05.39	64.68	19.92	
2025-01-07 09:40:05.60	64.62	19.93	
2025-01-07 09:40:05.80	64.56	19.94	
2025-01-07 09:40:06.01	64.50	19.95	
2025-01-07 09:40:06.21	64.45	19.95	
2025-01-07 09:40:06.42	64.39	19.96	
2025-01-07 09:40:06.62	64.33	19.97	
2025-01-07 09:40:06.83	64.27	19.98	
2025-01-07 09:40:07.03	64.22	19.99	
2025-01-07 09:40:07.24	64.16	20.00	
2025-01-07 09:40:07.44	64.10	20.00	
2025-01-07 09:40:07.65	64.04	20.01	
2025-01-07 09:40:07.85	63.99	20.02	
2025-01-07 09:40:08.06	63.93	20.03	
2025-01-07 09:40:08.26	63.87	20.04	
2025-01-07 09:40:08.47	63.81	20.05	
2025-01-07 09:40:08.67	63.76	20.05	
2025-01-07 09:40:08.88	63.70	20.06	
2025-01-07 09:40:09.09	63.64	20.07	
2025-01-07 09:40:09.29	63.58	20.08	
2025-01-07 09:40:09.50	63.53	20.09	
2025-01-07 09:40:09.70	63.47	20.10	
2025-01-07 09:40:09.90	63.41	20.10	
2025-01-07 09:40:10.11	63.35	20.11	
2025-01-07 09:40:10.32	63.29	20.12	
2025-01-07 09:40:10.52	63.24	20.13	
2025-01-07 09:40:10.73	63.18	20.14	
2025-01-07 09:40:10.93	63.12	20.14	
2025-01-07 09:40:11.14	63.06	20.15	
2025-01-07 09:40:11.34	63.01	20.16	
2025-01-07 09:40:11.55	62.95	20.17	
2025-01-07 09:40:11.75	62.89	20.18	
2025-01-07 09:40:11.96	62.83	20.18	
2025-01-07 09:40:12.17	62.77	20.19	
2025-01-07 09:40:12.37	62.71	20.20	
2025-01-07 09:40:12.58	62.65	20.21	
2025-01-07 09:40:12.78	62.60	20.22	
2025-01-07 09:40:12.99	62.54	20.22	
2025-01-07 09:40:13.19	62.48	20.23	
2025-01-07 09:40:13.40	62.42	20.24	
2025-01-07 09:40:13.60	62.36	20.25	
2025-01-07 09:40:13.81	62.30	20.25	
2025-01-07 09:40:14.01	62.25	20.26	
2025-01-07 09:40:14.22	62.19	20.27	
2025-01-07 09:40:14.42	62.13	20.28	
2025-01-07 09:40:14.63	62.07	20.28	
2025-01-07 09:40:14.83	62.01	20.29	
2025-01-07 09:40:15.05	61.95	20.30	
2025-01-07 09:40:15.26	61.89	20.31	
2025-01-07 09:40:15.46	61.83	20.32	
2025-01-07 09:40:15.67	61.77	20.32	
2025-01-07 09:40:15.87	61.72	20.33	
2025-01-07 09:40:16.07	61.66	20.34	
2025-01-07 09:40:16.28	61.60	20.34	
2025-01-07 09:40:16.49	61.54	20.35	
2025-01-07 09:40:16.69	61.48	20.36	
2025-01-07 09:40:16.90	61.42	20.37	
2025-01-07 09:40:17.10	61.36	20.37	
2025-01-07 09:40:17.31	61.30	20.38	
2025-01-07 09:40:17.51	61.25	20.39	
2025-01-07 09:40:17.72	61.19	20.39	
2025-01-07 09:40:17.92	61.13	20.40	
2025-01-07 09:40:18.13	61.07	20.41	
2025-01-07 09:40:18.33	61.01	20.42	
2025-01-07 09:40:18.54	60.95	20.42	
2025-01-07 09:40:18.74	60.89	20.43	
2025-01-07 09:40:18.95	60.83	20.44	
2025-01-07 09:40:19.15	60.77	20.44	
2025-01-07 09:40:19.36	60.71	20.45	
2025-01-07 09:40:19.56	60.66	20.46	
2025-01-07 09:40:19.77	60.60	20.46	
2025-01-07 09:40:19.97	60.54	20.47	
2025-01-07 09:40:20.18	60.48	20.48	
2025-01-07 09:40:20.38	60.42	20.48	
2025-01-07 09:40:20.59	60.36	20.49	
2025-01-07 09:40:20.79	60.30	20.50	
2025-01-07 09:40:21.00	60.24	20.50	
2025-01-07 09:40:21.21	60.18	20.51	
2025-01-07 09:40:21.41	60.12	20.52	
2025-01-07 09:40:21.61	60.06	20.52	
2025-01-07 09:40:21.82	60.00	20.53	
2025-01-07 09:40:22.03	59.94	20.54	
2025-01-07 09:40:22.23	59.88	20.54	
2025-01-07 09:40:22.44	59.82	20.55	
2025-01-07 09:40:22.64	59.76	20.56	
2025-01-07 09:40:22.85	59.70	20.56	
2025-01-07 09:40:23.05	59.64	20.57	
2025-01-07 09:40:23.26	59.58	20.58	
2025-01-07 09:40:23.47	59.52	20.58	
2025-01-07 09:40:23.67	59.46	20.59	
2025-01-07 09:40:23.87	59.41	20.59	
2025-01-07 09:40:24.08	59.34	20.60	
2025-01-07 09:40:24.29	59.28	20.61	
2025-01-07 09:40:24.49	59.22	20.61	
2025-01-07 09:40:24.69	59.17	20.62	
2025-01-07 09:40:24.90	59.10	20.63	
2025-01-07 09:40:25.10	59.05	20.63	
2025-01-07 09:40:25.31	58.99	20.64	
2025-01-07 09:40:25.51	58.93	20.64	
2025-01-07 09:40:25.72	58.87	20.65	
2025-01-07 09:40:25.92	58.81	20.66	
2025-01-07 09:40:26.12	58.75	20.66	
2025-01-07 09:40:26.33	58.69	20.67	
2025-01-07 09:40:26.54	58.63	20.67	
2025-01-07 09:40:26.74	58.57	20.68	
2025-01-07 09:40:26.94	58.51	20.68	
2025-01-07 09:40:27.15	58.45	20.69	
2025-01-07 09:40:27.36	58.38	20.70	
2025-01-07 09:40:27.56	58.33	20.70	
2025-01-07 09:40:27.77	58.26	20.71	
2025-01-07 09:40:27.97	58.21	20.71	
2025-01-07 09:40:28.18	58.14	20.72	
2025-01-07 09:40:28.38	58.09	20.72	
2025-01-07 09:40:28.59	58.02	20.73	
2025-01-07 09:40:28.80	57.96	20.74	
2025-01-07 09:40:29.00	57.90	20.74	
2025-01-07 09:40:29.21	57.84	20.75	
2025-01-07 09:40:29.41	57.78	20.75	
2025-01-07 09:40:29.62	57.72	20.76	
2025-01-07 09:40:29.83	57.66	20.76	
2025-01-07 09:40:30.04	57.60	20.77	
2025-01-07 09:40:30.25	57.53	20.77	
2025-01-07 09:40:30.45	57.48	20.78	
2025-01-07 09:40:30.66	57.41	20.78	
2025-01-07 09:40:30.86	57.35	20.79	
2025-01-07 09:40:31.06	57.30	20.79	
2025-01-07 09:40:31.27	57.23	20.80	
2025-01-07 09:40:31.48	57.17	20.80	
2025-01-07 09:40:31.68	57.11	20.81	
2025-01-07 09:40:31.89	57.05	20.81	
2025-01-07 09:40:32.11	56.98	20.82	
2025-01-07 09:40:32.31	56.93	20.83	
2025-01-07 09:40:32.52	56.86	20.83	
2025-01-07 09:40:32.72	56.80	20.83	
2025-01-07 09:40:32.93	56.74	20.84	
2025-01-07 09:40:33.13	56.68	20.84	
2025-01-07 09:40:33.34	56.62	20.85	
2025-01-07 09:40:33.54	56.56	20.85	
2025-01-07 09:40:33.75	56.50	20.86	
2025-01-07 09:40:33.96	56.44	20.86	
2025-01-07 09:40:34.16	56.38	20.87	
2025-01-07 09:40:34.36	56.32	20.87	
2025-01-07 09:40:34.57	56.26	20.88	
2025-01-07 09:40:34.77	56.20	20.88	
2025-01-07 09:40:34.98	56.13	20.89	
2025-01-07 09:40:35.19	56.07	20.89	
2025-01-07 09:40:35.39	56.01	20.90	
2025-01-07 09:40:35.60	55.95	20.90	
2025-01-07 09:40:35.80	55.89	20.90	
2025-01-07 09:40:36.01	55.83	20.91	
2025-01-07 09:40:36.22	55.76	20.91	
2025-01-07 09:40:36.43	55.70	20.92	
2025-01-07 09:40:36.64	55.64	20.92	
2025-01-07 09:40:36.85	55.58	20.93	
2025-01-07 09:40:37.05	55.52	20.93	
2025-01-07 09:40:37.26	55.45	20.94	
2025-01-07 09:40:37.46	55.40	20.94	
2025-01-07 09:40:37.67	55.33	20.94	
2025-01-07 09:40:37.87	55.27	20.95	
2025-01-07 09:40:38.08	55.21	20.95	
2025-01-07 09:40:38.28	55.15	20.96	
2025-01-07 09:40:38.49	55.09	20.96	
2025-01-07 09:40:38.69	55.03	20.96	
2025-01-07 09:40:38.90	54.97	20.97	
2025-01-07 09:40:39.10	54.91	20.97	
2025-01-07 09:40:39.31	54.84	20.98	
2025-01-07 09:40:39.51	54.78	20.98	
2025-01-07 09:40:39.71	54.72	20.98	
2025-01-07 09:40:39.92	54.66	20.99	
2025-01-07 09:40:40.12	54.60	20.99	
2025-01-07 09:40:40.33	54.54	20.99	
2025-01-07 09:40:40.53	54.48	21.00	
2025-01-07 09:40:40.74	54.41	21.00	
2025-01-07 09:40:40.94	54.35	21.01	
2025-01-07 09:40:41.15	54.29	21.01	
2025-01-07 09:40:41.36	54.23	21.01	
2025-01-07 09:40:41.56	54.17	21.02	
2025-01-07 09:40:41.76	54.11	21.02	
2025-01-07 09:40:41.97	54.05	21.02	
2025-01-07 09:40:42.18	53.98	21.03	
2025-01-07 09:40:42.38	53.92	21.03	
2025-01-07 09:40:42.59	53.86	21.03	
2025-01-07 09:40:42.79	53.80	21.04	
2025-01-07 09:40:43.00	53.74	21.04	
2025-01-07 09:40:43.21	53.67	21.04	
2025-01-07 09:40:43.41	53.61	21.05	
2025-01-07 09:40:43.62	53.55	21.05	
2025-01-07 09:40:43.82	53.49	21.05	
2025-01-07 09:40:44.03	53.43	21.06	
2025-01-07 09:40:44.24	53.36	21.06	
2025-01-07 09:40:44.44	53.30	21.06	
2025-01-07 09:40:44.65	53.24	21.07	
2025-01-07 09:40:44.85	53.18	21.07	
2025-01-07 09:40:45.05	53.12	21.07	
2025-01-07 09:40:45.26	53.06	21.07	
2025-01-07 09:40:45.47	52.99	21.08	
2025-01-07 09:40:45.67	52.93	21.08	
2025-01-07 09:40:45.88	52.87	21.08	
2025-01-07 09:40:46.08	52.81	21.09	
2025-01-07 09:40:46.29	52.75	21.09	
2025-01-07 09:40:46.49	52.69	21.09	
2025-01-07 09:40:46.71	52.62	21.09	
2025-01-07 09:40:46.92	52.56	21.10	
2025-01-07 09:40:47.12	52.50	21.10	
2025-01-07 09:40:47.33	52.43	21.10	
2025-01-07 09:40:47.53	52.37	21.10	
2025-01-07 09:40:47.74	52.31	21.11	
2025-01-07 09:40:47.94	52.25	21.11	
2025-01-07 09:40:48.15	52.19	21.11	
2025-01-07 09:40:48.35	52.13	21.11	
2025-01-07 09:40:48.56	52.06	21.12	
2025-01-07 09:40:48.76	52.00	21.12	
2025-01-07 09:40:48.97	51.94	21.12	
2025-01-07 09:40:49.17	51.88	21.12	
2025-01-07 09:40:49.38	51.81	21.13	
2025-01-07 09:40:49.58	51.75	21.13	
2025-01-07 09:40:49.79	51.69	21.13	
2025-01-07 09:40:49.99	51.63	21.13	
2025-01-07 09:40:50.20	51.57	21.13	
2025-01-07 09:40:50.40	51.51	21.14	
2025-01-07 09:40:50.61	51.44	21.14	
2025-01-07 09:40:50.81	51.38	21.14	
2025-01-07 09:40:51.02	51.32	21.14	
2025-01-07 09:40:51.22	51.26	21.14	
2025-01-07 09:40:51.44	51.19	21.15	
2025-01-07 09:40:51.65	51.13	21.15	
2025-01-07 09:40:51.85	51.07	21.15	
2025-01-07 09:40:52.06	51.00	21.15	
2025-01-07 09:40:52.26	50.94	21.15	
2025-01-07 09:40:52.47	50.88	21.16	
2025-01-07 09:40:52.68	50.82	21.16	
2025-01-07 09:40:52.88	50.76	21.16	
2025-01-07 09:40:53.09	50.69	21.16	
2025-01-07 09:40:53.29	50.63	21.16	
2025-01-07 09:40:53.50	50.57	21.16	
2025-01-07 09:40:53.70	50.51	21.16	
2025-01-07 09:40:53.91	50.44	21.17	
2025-01-07 09:40:54.11	50.38	21.17	
2025-01-07 09:40:54.32	50.32	21.17	
2025-01-07 09:40:54.52	50.26	21.17	
2025-01-07 09:40:54.73	50.20	21.17	
2025-01-07 09:40:54.93	50.14	21.17	
2025-01-07 09:40:55.14	50.07	21.17	
2025-01-07 09:40:55.34	50.01	21.18	
2025-01-07 09:40:55.55	49.95	21.18	
2025-01-07 09:40:55.75	49.89	21.18	
2025-01-07 09:40:55.96	49.82	21.18	
2025-01-07 09:40:56.16	49.76	21.18	
2025-01-07 09:40:56.37	49.70	21.18	
2025-01-07 09:40:56.58	49.64	21.18	
2025-01-07 09:40:56.78	49.57	21.18	
2025-01-07 09:40:56.98	49.51	21.18	
2025-01-07 09:40:57.19	49.45	21.19	
2025-01-07 09:40:57.39	49.39	21.19	
2025-01-07 09:40:57.60	49.33	21.19	
2025-01-07 09:40:57.80	49.27	21.19	
2025-01-07 09:40:58.01	49.20	21.19	
2025-01-07 09:40:58.21	49.14	21.19	
2025-01-07 09:40:58.42	49.08	21.19	
2025-01-07 09:40:58.63	49.01	21.19	
2025-01-07 09:40:58.83	48.95	21.19	
2025-01-07 09:40:59.03	48.89	21.19	
2025-01-07 09:40:59.24	48.83	21.19	
2025-01-07 09:40:59.45	48.76	21.19	
2025-01-07 09:40:59.65	48.70	21.19	
2025-01-07 09:40:59.85	48.64	21.19	
2025-01-07 09:41:00.06	48.58	21.20	
2025-01-07 09:41:00.27	48.52	21.20	
2025-01-07 09:41:00.47	48.46	21.20	
2025-01-07 09:41:00.68	48.39	21.20	
2025-01-07 09:41:00.88	48.33	21.20	
2025-01-07 09:41:01.09	48.27	21.20	
2025-01-07 09:41:01.29	48.21	21.20	
2025-01-07 09:41:01.50	48.14	21.20	
2025-01-07 09:41:01.70	48.08	21.20	
2025-01-07 09:41:01.91	48.02	21.20	
2025-01-07 09:41:02.11	47.96	21.20	
2025-01-07 09:41:02.32	47.89	21.20	
2025-01-07 09:41:02.52	47.83	21.20	
2025-01-07 09:41:02.73	47.77	21.20	
2025-01-07 09:41:02.94	47.71	21.20	
2025-01-07 09:41:03.15	47.64	21.20	
2025-01-07 09:41:03.36	47.58	21.20	
2025-01-07 09:41:03.56	47.52	21.20	
2025-01-07 09:41:03.77	47.45	21.20	
2025-01-07 09:41:03.98	47.39	21.20	
2025-01-07 09:41:04.18	47.33	21.20	
2025-01-07 09:41:04.38	47.27	21.20	
2025-01-07 09:41:04.59	47.20	21.20	
2025-01-07 09:41:04.80	47.14	21.20	
2025-01-07 09:41:05.00	47.08	21.20	
2025-01-07 09:41:05.20	47.02	21.20	
2025-01-07 09:41:05.41	46.96	21.20	
2025-01-07 09:41:05.61	46.90	21.19	
2025-01-07 09:41:05.82	46.83	21.19	
2025-01-07 09:41:06.03	46.77	21.19	
2025-01-07 09:41:06.23	46.71	21.19	
2025-01-07 09:41:06.43	46.65	21.19	
2025-01-07 09:41:06.64	46.58	21.19	
2025-01-07 09:41:06.85	46.52	21.19	
2025-01-07 09:41:07.05	46.46	21.19	
2025-01-07 09:41:07.25	46.40	21.19	
2025-01-07 09:41:07.46	46.33	21.19	
2025-01-07 09:41:07.66	46.27	21.19	
2025-01-07 09:41:07.87	46.21	21.19	
2025-01-07 09:41:08.08	46.15	21.19	
2025-01-07 09:41:08.28	46.09	21.19	
2025-01-07 09:41:08.48	46.02	21.18	
2025-01-07 09:41:08.69	45.96	21.18	
2025-01-07 09:41:08.89	45.90	21.18	
2025-01-07 09:41:09.10	45.84	21.18	
2025-01-07 09:41:09.30	45.78	21.18	
2025-01-07 09:41:09.51	45.71	21.18	
2025-01-07 09:41:09.71	45.65	21.18	
2025-01-07 09:41:09.92	45.59	21.18	
2025-01-07 09:41:10.12	45.53	21.18	
2025-01-07 09:41:10.33	45.46	21.17	
2025-01-07 09:41:10.53	45.40	21.17	
2025-01-07 09:41:10.74	45.34	21.17	
2025-01-07 09:41:10.94	45.28	21.17	
2025-01-07 09:41:11.15	45.22	21.17	
2025-01-07 09:41:11.35	45.16	21.17	
2025-01-07 09:41:11.55	45.09	21.17	
2025-01-07 09:41:11.76	45.03	21.16	
2025-01-07 09:41:11.97	44.97	21.16	
2025-01-07 09:41:12.17	44.91	21.16	
2025-01-07 09:41:12.38	44.84	21.16	
2025-01-07 09:41:12.58	44.78	21.16	
2025-01-07 09:41:12.79	44.72	21.16	
2025-01-07 09:41:13.00	44.66	21.16	
2025-01-07 09:41:13.20	44.60	21.15	
2025-01-07 09:41:13.41	44.53	21.15	
2025-01-07 09:41:13.61	44.47	21.15	
2025-01-07 09:41:13.82	44.41	21.15	
2025-01-07 09:41:14.02	44.35	21.15	
2025-01-07 09:41:14.23	44.28	21.14	
2025-01-07 09:41:14.43	44.22	21.14	
2025-01-07 09:41:14.64	44.16	21.14	
2025-01-07 09:41:14.84	44.10	21.14	
2025-01-07 09:41:15.05	44.04	21.14	
2025-01-07 09:41:15.25	43.98	21.13	
2025-01-07 09:41:15.46	43.91	21.13	
2025-01-07 09:41:15.66	43.85	21.13	
2025-01-07 09:41:15.87	43.79	21.13	
2025-01-07 09:41:16.07	43.73	21.13	
2025-01-07 09:41:16.28	43.66	21.12	
2025-01-07 09:41:16.48	43.60	21.12	
2025-01-07 09:41:16.69	43.54	21.12	
2025-01-07 09:41:16.89	43.48	21.12	
2025-01-07 09:41:17.10	43.42	21.11	
2025-01-07 09:41:17.30	43.36	21.11	
2025-01-07 09:41:17.51	43.29	21.11	
2025-01-07 09:41:17.72	43.23	21.11	
2025-01-07 09:41:17.92	43.17	21.10	
2025-01-07 09:41:18.13	43.11	21.10	
2025-01-07 09:41:18.33	43.05	21.10	
2025-01-07 09:41:18.54	42.98	21.10	
2025-01-07 09:41:18.74	42.92	21.09	
2025-01-07 09:41:18.95	42.86	21.09	
2025-01-07 09:41:19.15	42.80	21.09	
2025-01-07 09:41:19.36	42.74	21.09	
2025-01-07 09:41:19.56	42.68	21.08	
2025-01-07 09:41:19.77	42.61	21.08	
2025-01-07 09:41:19.97	42.55	21.08	
2025-01-07 09:41:20.18	42.49	21.07	
2025-01-07 09:41:20.38	42.43	21.07	
2025-01-07 09:41:20.59	42.37	21.07	
2025-01-07 09:41:20.80	42.30	21.07	
2025-01-07 09:41:21.00	42.24	21.06	
2025-01-07 09:41:21.20	42.18	21.06	
2025-01-07 09:41:21.41	42.12	21.06	
2025-01-07 09:41:21.62	42.06	21.05	
2025-01-07 09:41:21.82	42.00	21.05	
2025-01-07 09:41:22.03	41.93	21.05	
2025-01-07 09:41:22.23	41.87	21.04	
2025-01-07 09:41:22.44	41.81	21.04	
2025-01-07 09:41:22.64	41.75	21.04	
2025-01-07 09:41:22.85	41.69	21.03	
2025-01-07 09:41:23.05	41.63	21.03	
2025-01-07 09:41:23.26	41.56	21.03	
2025-01-07 09:41:23.46	41.50	21.02	
2025-01-07 09:41:23.67	41.44	21.02	
2025-01-07 09:41:23.87	41.38	21.02	
2025-01-07 09:41:24.08	41.32	21.01	
2025-01-07 09:41:24.28	41.26	21.01	
2025-01-07 09:41:24.49	41.20	21.01	
2025-01-07 09:41:24.69	41.14	21.00	
2025-01-07 09:41:24.90	41.07	21.00	
2025-01-07 09:41:25.10	41.01	21.00	
2025-01-07 09:41:25.31	40.95	20.99	
2025-01-07 09:41:25.51	40.89	20.99	
2025-01-07 09:41:25.72	40.83	20.98	
2025-01-07 09:41:25.92	40.77	20.98	
2025-01-07 09:41:26.13	40.71	20.98	
2025-01-07 09:41:26.33	40.65	20.97	
2025-01-07 09:41:26.54	40.58	20.97	
2025-01-07 09:41:26.74	40.52	20.96	
2025-01-07 09:41:26.95	40.46	20.96	
2025-01-07 09:41:27.15	40.40	20.96	
2025-01-07 09:41:27.36	40.34	20.95	
2025-01-07 09:41:27.56	40.28	20.95	
2025-01-07 09:41:27.77	40.22	20.94	
2025-01-07 09:41:27.97	40.16	20.94	
2025-01-07 09:41:28.18	40.09	20.94	
2025-01-07 09:41:28.38	40.03	20.93	
2025-01-07 09:41:28.59	39.97	20.93	
2025-01-07 09:41:28.79	39.91	20.92	
2025-01-07 09:41:29.00	39.85	20.92	
2025-01-07 09:41:29.21	39.79	20.91	
2025-01-07 09:41:29.41	39.73	20.91	
2025-01-07 09:41:29.62	39.67	20.91	
2025-01-07 09:41:29.82	39.61	20.90	
2025-01-07 09:41:30.03	39.54	20.90	
2025-01-07 09:41:30.23	39.48	20.89	
2025-01-07 09:41:30.44	39.42	20.89	
2025-01-07 09:41:30.64	39.36	20.88	
2025-01-07 09:41:30.85	39.30	20.88	
2025-01-07 09:41:31.05	39.24	20.87	
2025-01-07 09:41:31.26	39.18	20.87	
2025-01-07 09:41:31.47	39.12	20.87	
2025-01-07 09:41:31.67	39.06	20.86	
2025-01-07 09:41:31.87	39.00	20.86	
2025-01-07 09:41:32.08	38.94	20.85	
2025-01-07 09:41:32.29	38.87	20.85	
2025-01-07 09:41:32.49	38.81	20.84	
2025-01-07 09:41:32.70	38.75	20.84	
2025-01-07 09:41:32.90	38.69	20.83	
2025-01-07 09:41:33.11	38.63	20.83	
2025-01-07 09:41:33.31	38.57	20.82	
2025-01-07 09:41:33.52	38.51	20.82	
2025-01-07 09:41:33.72	38.45	20.81	
2025-01-07 09:41:33.93	38.39	20.81	
2025-01-07 09:41:34.13	38.33	20.80	
2025-01-07 09:41:34.34	38.27	20.80	
2025-01-07 09:41:34.54	38.21	20.79	
2025-01-07 09:41:34.75	38.15	20.79	
2025-01-07 09:41:34.95	38.09	20.78	
2025-01-07 09:41:35.16	38.03	20.78	
2025-01-07 09:41:35.36	37.97	20.77	
2025-01-07 09:41:35.57	37.90	20.77	
2025-01-07 09:41:35.78	37.84	20.76	
2025-01-07 09:41:35.98	37.78	20.75	
2025-01-07 09:41:36.20	37.72	20.75	
2025-01-07 09:41:36.41	37.66	20.74	
2025-01-07 09:41:36.61	37.60	20.74	
2025-01-07 09:41:36.82	37.54	20.73	
2025-01-07 09:41:37.02	37.48	20.73	
2025-01-07 09:41:37.23	37.42	20.72	
2025-01-07 09:41:37.43	37.36	20.72	
2025-01-07 09:41:37.64	37.30	20.71	
2025-01-07 09:41:37.85	37.23	20.70	
2025-01-07 09:41:38.05	37.18	20.70	
2025-01-07 09:41:38.26	37.11	20.69	
2025-01-07 09:41:38.46	37.06	20.69	
2025-01-07 09:41:38.67	36.99	20.68	
2025-01-07 09:41:38.87	36.94	20.68	
2025-01-07 09:41:39.08	36.87	20.67	
2025-01-07 09:41:39.28	36.82	20.66	
2025-01-07 09:41:39.49	36.75	20.66	
2025-01-07 09:41:39.70	36.69	20.65	
2025-01-07 09:41:39.90	36.63	20.65	
2025-01-07 09:41:40.11	36.57	20.64	
2025-01-07 09:41:40.31	36.52	20.63	
2025-01-07 09:41:40.52	36.45	20.63	
2025-01-07 09:41:40.72	36.40	20.62	
2025-01-07 09:41:40.93	36.33	20.62	
2025-01-07 09:41:41.13	36.28	20.61	
2025-01-07 09:41:41.34	36.22	20.60	
2025-01-07 09:41:41.54	36.16	20.60	
2025-01-07 09:41:41.75	36.10	20.59	
2025-01-07 09:41:41.95	36.04	20.58	
2025-01-07 09:41:42.16	35.98	20.58	
2025-01-07 09:41:42.36	35.92	20.57	
2025-01-07 09:41:42.58	35.85	20.57	
2025-01-07 09:41:42.79	35.79	20.56	
2025-01-07 09:41:42.99	35.74	20.55	
2025-01-07 09:41:43.20	35.67	20.55	
2025-01-07 09:41:43.40	35.62	20.54	
