passes_logs/2025/01/07/SPB_Silybum_02/SPB_Silybum_02__20250107_031336_AQUA_rec.log

#Pass ID: 20250107_031336_AQUA
#Satellite: AQUA
#Configuration: AQUA
#Start time: 2025-01-07 03:13:37

#Version: 2.0.20230423
#Station: SPB_Silybum_02
#Location: 30.233357 lon 59.946436 lat
#TLE: 1 27424U 02022A   25006.18177887  .00003054  00000+0  63725-3 0  9992
#TLE: 2 27424  98.3578 322.7671 0001358 119.7965   7.4247 14.60646386206336

#Time	Az	El	Level	Level2	SNR	BER	Gain	Gain2
2025-01-07 03:13:39.42	9.62	4.16	
2025-01-07 03:13:39.62	9.60	4.17	
2025-01-07 03:13:39.83	9.58	4.18	
2025-01-07 03:13:40.03	9.57	4.20	
2025-01-07 03:13:40.24	9.55	4.21	
2025-01-07 03:13:40.44	9.53	4.22	
2025-01-07 03:13:40.65	9.51	4.23	
2025-01-07 03:13:40.85	9.49	4.25	
2025-01-07 03:13:41.06	9.47	4.26	
2025-01-07 03:13:41.26	9.45	4.27	
2025-01-07 03:13:41.46	9.43	4.28	
2025-01-07 03:13:41.67	9.42	4.30	
2025-01-07 03:13:41.87	9.40	4.31	
2025-01-07 03:13:42.08	9.38	4.32	
2025-01-07 03:13:42.29	9.36	4.33	
2025-01-07 03:13:42.50	9.34	4.34	
2025-01-07 03:13:42.71	9.32	4.36	
2025-01-07 03:13:42.91	9.30	4.37	
2025-01-07 03:13:43.12	9.28	4.38	
2025-01-07 03:13:43.33	9.26	4.39	
2025-01-07 03:13:43.53	9.24	4.41	
2025-01-07 03:13:43.73	9.22	4.42	
2025-01-07 03:13:43.94	9.20	4.43	
2025-01-07 03:13:44.14	9.19	4.44	
2025-01-07 03:13:44.35	9.17	4.46	
2025-01-07 03:13:44.55	9.15	4.47	
2025-01-07 03:13:44.76	9.13	4.48	
2025-01-07 03:13:44.96	9.11	4.49	
2025-01-07 03:13:45.17	9.09	4.51	
2025-01-07 03:13:45.37	9.07	4.52	
2025-01-07 03:13:45.58	9.05	4.53	
2025-01-07 03:13:45.78	9.03	4.54	
2025-01-07 03:13:45.99	9.01	4.55	
2025-01-07 03:13:46.19	8.99	4.57	
2025-01-07 03:13:46.40	8.97	4.58	
2025-01-07 03:13:46.60	8.96	4.59	
2025-01-07 03:13:46.81	8.94	4.60	
2025-01-07 03:13:47.01	8.92	4.62	
2025-01-07 03:13:47.21	8.90	4.63	
2025-01-07 03:13:47.42	8.88	4.64	
2025-01-07 03:13:47.63	8.86	4.65	
2025-01-07 03:13:47.84	8.84	4.67	
2025-01-07 03:13:48.05	8.82	4.68	
2025-01-07 03:13:48.25	8.80	4.69	
2025-01-07 03:13:48.46	8.78	4.70	
2025-01-07 03:13:48.67	8.76	4.72	
2025-01-07 03:13:48.88	8.74	4.73	
2025-01-07 03:13:49.09	8.72	4.74	
2025-01-07 03:13:49.30	8.70	4.76	
2025-01-07 03:13:49.50	8.68	4.77	
2025-01-07 03:13:49.71	8.66	4.78	
2025-01-07 03:13:49.91	8.64	4.79	
2025-01-07 03:13:50.12	8.62	4.80	
2025-01-07 03:13:50.32	8.60	4.82	
2025-01-07 03:13:50.52	8.58	4.83	
2025-01-07 03:13:50.73	8.56	4.84	
2025-01-07 03:13:50.93	8.54	4.85	
2025-01-07 03:13:51.14	8.52	4.87	
2025-01-07 03:13:51.35	8.50	4.88	
2025-01-07 03:13:51.55	8.48	4.89	
2025-01-07 03:13:51.76	8.46	4.90	
2025-01-07 03:13:51.96	8.44	4.92	
2025-01-07 03:13:52.18	8.42	4.93	
2025-01-07 03:13:52.38	8.40	4.94	
2025-01-07 03:13:52.59	8.38	4.95	
2025-01-07 03:13:52.79	8.36	4.97	
2025-01-07 03:13:53.00	8.34	4.98	
2025-01-07 03:13:53.20	8.32	4.99	
2025-01-07 03:13:53.41	8.30	5.00	
2025-01-07 03:13:53.61	8.28	5.02	
2025-01-07 03:13:53.82	8.26	5.03	
2025-01-07 03:13:54.02	8.24	5.04	
2025-01-07 03:13:54.23	8.22	5.05	
2025-01-07 03:13:54.43	8.20	5.07	
2025-01-07 03:13:54.64	8.18	5.08	
2025-01-07 03:13:54.84	8.16	5.09	
2025-01-07 03:13:55.05	8.14	5.10	
2025-01-07 03:13:55.25	8.12	5.12	
2025-01-07 03:13:55.46	8.10	5.13	
2025-01-07 03:13:55.66	8.08	5.14	
2025-01-07 03:13:55.87	8.06	5.16	
2025-01-07 03:13:56.08	8.04	5.17	
2025-01-07 03:13:56.28	8.02	5.18	
2025-01-07 03:13:56.48	8.00	5.19	
2025-01-07 03:13:56.69	7.98	5.21	
2025-01-07 03:13:56.89	7.96	5.22	
2025-01-07 03:13:57.10	7.94	5.23	
2025-01-07 03:13:57.31	7.92	5.24	
2025-01-07 03:13:57.51	7.90	5.26	
2025-01-07 03:13:57.71	7.88	5.27	
2025-01-07 03:13:57.92	7.86	5.28	
2025-01-07 03:13:58.13	7.84	5.29	
2025-01-07 03:13:58.33	7.82	5.31	
2025-01-07 03:13:58.54	7.80	5.32	
2025-01-07 03:13:58.74	7.78	5.33	
2025-01-07 03:13:58.95	7.75	5.34	
2025-01-07 03:13:59.15	7.73	5.36	
2025-01-07 03:13:59.36	7.71	5.37	
2025-01-07 03:13:59.56	7.69	5.38	
2025-01-07 03:13:59.77	7.67	5.39	
2025-01-07 03:13:59.97	7.65	5.41	
2025-01-07 03:14:00.19	7.63	5.42	
2025-01-07 03:14:00.40	7.61	5.43	
2025-01-07 03:14:00.60	7.59	5.45	
2025-01-07 03:14:00.81	7.57	5.46	
2025-01-07 03:14:01.02	7.55	5.47	
2025-01-07 03:14:01.22	7.53	5.48	
2025-01-07 03:14:01.43	7.50	5.50	
2025-01-07 03:14:01.63	7.48	5.51	
2025-01-07 03:14:01.84	7.46	5.52	
2025-01-07 03:14:02.04	7.44	5.53	
2025-01-07 03:14:02.25	7.42	5.55	
2025-01-07 03:14:02.46	7.40	5.56	
2025-01-07 03:14:02.66	7.38	5.57	
2025-01-07 03:14:02.86	7.36	5.58	
2025-01-07 03:14:03.07	7.34	5.60	
2025-01-07 03:14:03.28	7.32	5.61	
2025-01-07 03:14:03.48	7.30	5.62	
2025-01-07 03:14:03.69	7.27	5.64	
2025-01-07 03:14:03.89	7.25	5.65	
2025-01-07 03:14:04.10	7.23	5.66	
2025-01-07 03:14:04.30	7.21	5.67	
2025-01-07 03:14:04.51	7.19	5.69	
2025-01-07 03:14:04.72	7.17	5.70	
2025-01-07 03:14:04.92	7.15	5.71	
2025-01-07 03:14:05.13	7.13	5.72	
2025-01-07 03:14:05.33	7.11	5.74	
2025-01-07 03:14:05.54	7.08	5.75	
2025-01-07 03:14:05.74	7.06	5.76	
2025-01-07 03:14:05.96	7.04	5.78	
2025-01-07 03:14:06.17	7.02	5.79	
2025-01-07 03:14:06.37	7.00	5.80	
2025-01-07 03:14:06.58	6.98	5.81	
2025-01-07 03:14:06.78	6.96	5.83	
2025-01-07 03:14:06.99	6.93	5.84	
2025-01-07 03:14:07.19	6.91	5.85	
2025-01-07 03:14:07.40	6.89	5.87	
2025-01-07 03:14:07.60	6.87	5.88	
2025-01-07 03:14:07.81	6.85	5.89	
2025-01-07 03:14:08.01	6.83	5.90	
2025-01-07 03:14:08.22	6.81	5.92	
2025-01-07 03:14:08.42	6.79	5.93	
2025-01-07 03:14:08.63	6.76	5.94	
2025-01-07 03:14:08.83	6.74	5.95	
2025-01-07 03:14:09.04	6.72	5.97	
2025-01-07 03:14:09.24	6.70	5.98	
2025-01-07 03:14:09.45	6.68	5.99	
2025-01-07 03:14:09.65	6.66	6.01	
2025-01-07 03:14:09.86	6.63	6.02	
2025-01-07 03:14:10.06	6.61	6.03	
2025-01-07 03:14:10.27	6.59	6.04	
2025-01-07 03:14:10.47	6.57	6.06	
2025-01-07 03:14:10.68	6.55	6.07	
2025-01-07 03:14:10.88	6.53	6.08	
2025-01-07 03:14:11.09	6.50	6.09	
2025-01-07 03:14:11.29	6.48	6.11	
2025-01-07 03:14:11.50	6.46	6.12	
2025-01-07 03:14:11.71	6.44	6.13	
2025-01-07 03:14:11.91	6.42	6.15	
2025-01-07 03:14:12.12	6.39	6.16	
2025-01-07 03:14:12.32	6.37	6.17	
2025-01-07 03:14:12.53	6.35	6.18	
2025-01-07 03:14:12.73	6.33	6.20	
2025-01-07 03:14:12.94	6.31	6.21	
2025-01-07 03:14:13.14	6.29	6.22	
2025-01-07 03:14:13.34	6.26	6.24	
2025-01-07 03:14:13.55	6.24	6.25	
2025-01-07 03:14:13.76	6.22	6.26	
2025-01-07 03:14:13.96	6.20	6.27	
2025-01-07 03:14:14.17	6.17	6.29	
2025-01-07 03:14:14.37	6.15	6.30	
2025-01-07 03:14:14.58	6.13	6.31	
2025-01-07 03:14:14.78	6.11	6.33	
2025-01-07 03:14:14.99	6.09	6.34	
2025-01-07 03:14:15.20	6.06	6.35	
2025-01-07 03:14:15.40	6.04	6.36	
2025-01-07 03:14:15.60	6.02	6.38	
2025-01-07 03:14:15.81	6.00	6.39	
2025-01-07 03:14:16.02	5.97	6.40	
2025-01-07 03:14:16.22	5.95	6.42	
2025-01-07 03:14:16.43	5.93	6.43	
2025-01-07 03:14:16.63	5.91	6.44	
2025-01-07 03:14:16.84	5.89	6.45	
2025-01-07 03:14:17.04	5.86	6.47	
2025-01-07 03:14:17.25	5.84	6.48	
2025-01-07 03:14:17.46	5.82	6.49	
2025-01-07 03:14:17.67	5.79	6.51	
2025-01-07 03:14:17.88	5.77	6.52	
2025-01-07 03:14:18.08	5.75	6.53	
2025-01-07 03:14:18.29	5.73	6.55	
2025-01-07 03:14:18.49	5.70	6.56	
2025-01-07 03:14:18.69	5.68	6.57	
2025-01-07 03:14:18.90	5.66	6.58	
2025-01-07 03:14:19.11	5.64	6.60	
2025-01-07 03:14:19.31	5.61	6.61	
2025-01-07 03:14:19.52	5.59	6.62	
2025-01-07 03:14:19.72	5.57	6.64	
2025-01-07 03:14:19.93	5.55	6.65	
2025-01-07 03:14:20.13	5.52	6.66	
2025-01-07 03:14:20.34	5.50	6.67	
2025-01-07 03:14:20.54	5.48	6.69	
2025-01-07 03:14:20.75	5.45	6.70	
2025-01-07 03:14:20.97	5.43	6.71	
2025-01-07 03:14:21.17	5.41	6.73	
2025-01-07 03:14:21.38	5.38	6.74	
2025-01-07 03:14:21.58	5.36	6.75	
2025-01-07 03:14:21.79	5.34	6.77	
2025-01-07 03:14:21.99	5.32	6.78	
2025-01-07 03:14:22.20	5.29	6.79	
2025-01-07 03:14:22.40	5.27	6.80	
2025-01-07 03:14:22.61	5.25	6.82	
2025-01-07 03:14:22.81	5.22	6.83	
2025-01-07 03:14:23.03	5.20	6.84	
2025-01-07 03:14:23.24	5.18	6.86	
2025-01-07 03:14:23.44	5.15	6.87	
2025-01-07 03:14:23.65	5.13	6.88	
2025-01-07 03:14:23.85	5.11	6.90	
2025-01-07 03:14:24.07	5.08	6.91	
2025-01-07 03:14:24.27	5.06	6.92	
2025-01-07 03:14:24.48	5.04	6.94	
2025-01-07 03:14:24.69	5.01	6.95	
2025-01-07 03:14:24.89	4.99	6.96	
2025-01-07 03:14:25.09	4.97	6.98	
2025-01-07 03:14:25.31	4.94	6.99	
2025-01-07 03:14:25.51	4.92	7.00	
2025-01-07 03:14:25.72	4.90	7.02	
2025-01-07 03:14:25.93	4.87	7.03	
2025-01-07 03:14:26.13	4.85	7.04	
2025-01-07 03:14:26.33	4.83	7.05	
2025-01-07 03:14:26.54	4.80	7.07	
2025-01-07 03:14:26.75	4.78	7.08	
2025-01-07 03:14:26.95	4.76	7.09	
2025-01-07 03:14:27.16	4.73	7.11	
2025-01-07 03:14:27.36	4.71	7.12	
2025-01-07 03:14:27.57	4.68	7.13	
2025-01-07 03:14:27.77	4.66	7.15	
2025-01-07 03:14:27.98	4.64	7.16	
2025-01-07 03:14:28.18	4.61	7.17	
2025-01-07 03:14:28.39	4.59	7.18	
2025-01-07 03:14:28.59	4.57	7.20	
2025-01-07 03:14:28.80	4.54	7.21	
2025-01-07 03:14:29.00	4.52	7.22	
2025-01-07 03:14:29.21	4.50	7.24	
2025-01-07 03:14:29.41	4.47	7.25	
2025-01-07 03:14:29.62	4.45	7.26	
2025-01-07 03:14:29.82	4.42	7.28	
2025-01-07 03:14:30.03	4.40	7.29	
2025-01-07 03:14:30.23	4.38	7.30	
2025-01-07 03:14:30.44	4.35	7.32	
2025-01-07 03:14:30.64	4.33	7.33	
2025-01-07 03:14:30.84	4.31	7.34	
2025-01-07 03:14:31.05	4.28	7.35	
2025-01-07 03:14:31.26	4.26	7.37	
2025-01-07 03:14:31.46	4.23	7.38	
2025-01-07 03:14:31.66	4.21	7.39	
2025-01-07 03:14:31.87	4.19	7.41	
2025-01-07 03:14:32.07	4.16	7.42	
2025-01-07 03:14:32.28	4.14	7.43	
2025-01-07 03:14:32.48	4.11	7.45	
2025-01-07 03:14:32.70	4.09	7.46	
2025-01-07 03:14:32.91	4.06	7.47	
2025-01-07 03:14:33.11	4.04	7.49	
2025-01-07 03:14:33.32	4.01	7.50	
2025-01-07 03:14:33.52	3.99	7.51	
2025-01-07 03:14:33.73	3.97	7.53	
2025-01-07 03:14:33.93	3.94	7.54	
2025-01-07 03:14:34.14	3.92	7.55	
2025-01-07 03:14:34.34	3.89	7.56	
2025-01-07 03:14:34.55	3.87	7.58	
2025-01-07 03:14:34.75	3.84	7.59	
2025-01-07 03:14:34.96	3.82	7.60	
2025-01-07 03:14:35.17	3.79	7.62	
2025-01-07 03:14:35.37	3.77	7.63	
2025-01-07 03:14:35.58	3.75	7.64	
2025-01-07 03:14:35.78	3.72	7.66	
2025-01-07 03:14:35.99	3.70	7.67	
2025-01-07 03:14:36.19	3.67	7.68	
2025-01-07 03:14:36.40	3.65	7.70	
2025-01-07 03:14:36.60	3.62	7.71	
2025-01-07 03:14:36.81	3.60	7.72	
2025-01-07 03:14:37.01	3.57	7.74	
2025-01-07 03:14:37.22	3.55	7.75	
2025-01-07 03:14:37.42	3.52	7.76	
2025-01-07 03:14:37.63	3.50	7.78	
2025-01-07 03:14:37.83	3.48	7.79	
2025-01-07 03:14:38.03	3.45	7.80	
2025-01-07 03:14:38.24	3.43	7.81	
2025-01-07 03:14:38.45	3.40	7.83	
2025-01-07 03:14:38.65	3.38	7.84	
2025-01-07 03:14:38.86	3.35	7.85	
2025-01-07 03:14:39.06	3.33	7.87	
2025-01-07 03:14:39.27	3.30	7.88	
2025-01-07 03:14:39.47	3.28	7.89	
2025-01-07 03:14:39.67	3.25	7.91	
2025-01-07 03:14:39.88	3.23	7.92	
2025-01-07 03:14:40.08	3.20	7.93	
2025-01-07 03:14:40.29	3.18	7.95	
2025-01-07 03:14:40.49	3.15	7.96	
2025-01-07 03:14:40.70	3.13	7.97	
2025-01-07 03:14:40.91	3.10	7.99	
2025-01-07 03:14:41.11	3.08	8.00	
2025-01-07 03:14:41.31	3.05	8.01	
2025-01-07 03:14:41.52	3.03	8.03	
2025-01-07 03:14:41.72	3.00	8.04	
2025-01-07 03:14:41.93	2.97	8.05	
2025-01-07 03:14:42.13	2.95	8.07	
2025-01-07 03:14:42.34	2.92	8.08	
2025-01-07 03:14:42.54	2.90	8.09	
2025-01-07 03:14:42.75	2.87	8.11	
2025-01-07 03:14:42.95	2.85	8.12	
2025-01-07 03:14:43.16	2.82	8.13	
2025-01-07 03:14:43.36	2.80	8.15	
2025-01-07 03:14:43.57	2.77	8.16	
2025-01-07 03:14:43.78	2.75	8.17	
2025-01-07 03:14:43.98	2.72	8.19	
2025-01-07 03:14:44.19	2.69	8.20	
2025-01-07 03:14:44.39	2.67	8.21	
2025-01-07 03:14:44.60	2.64	8.23	
2025-01-07 03:14:44.80	2.62	8.24	
2025-01-07 03:14:45.01	2.59	8.25	
2025-01-07 03:14:45.21	2.57	8.26	
2025-01-07 03:14:45.42	2.54	8.28	
2025-01-07 03:14:45.62	2.52	8.29	
2025-01-07 03:14:45.83	2.49	8.30	
2025-01-07 03:14:46.03	2.46	8.32	
2025-01-07 03:14:46.24	2.44	8.33	
2025-01-07 03:14:46.44	2.41	8.34	
2025-01-07 03:14:46.65	2.39	8.36	
2025-01-07 03:14:46.85	2.36	8.37	
2025-01-07 03:14:47.06	2.33	8.38	
2025-01-07 03:14:47.26	2.31	8.40	
2025-01-07 03:14:47.47	2.28	8.41	
2025-01-07 03:14:47.67	2.26	8.42	
2025-01-07 03:14:47.88	2.23	8.44	
2025-01-07 03:14:48.09	2.20	8.45	
2025-01-07 03:14:48.29	2.18	8.46	
2025-01-07 03:14:48.50	2.15	8.48	
2025-01-07 03:14:48.70	2.13	8.49	
2025-01-07 03:14:48.91	2.10	8.50	
2025-01-07 03:14:49.11	2.07	8.52	
2025-01-07 03:14:49.32	2.05	8.53	
2025-01-07 03:14:49.52	2.02	8.54	
2025-01-07 03:14:49.74	1.99	8.56	
2025-01-07 03:14:49.95	1.97	8.57	
2025-01-07 03:14:50.15	1.94	8.59	
2025-01-07 03:14:50.36	1.91	8.60	
2025-01-07 03:14:50.56	1.89	8.61	
2025-01-07 03:14:50.76	1.86	8.63	
2025-01-07 03:14:50.97	1.84	8.64	
2025-01-07 03:14:51.18	1.81	8.65	
2025-01-07 03:14:51.38	1.78	8.67	
2025-01-07 03:14:51.59	1.75	8.68	
2025-01-07 03:14:51.79	1.73	8.69	
2025-01-07 03:14:52.00	1.70	8.71	
2025-01-07 03:14:52.20	1.68	8.72	
2025-01-07 03:14:52.41	1.65	8.73	
2025-01-07 03:14:52.61	1.62	8.75	
2025-01-07 03:14:52.82	1.60	8.76	
2025-01-07 03:14:53.03	1.57	8.77	
2025-01-07 03:14:53.24	1.54	8.79	
2025-01-07 03:14:53.44	1.51	8.80	
2025-01-07 03:14:53.65	1.49	8.81	
2025-01-07 03:14:53.85	1.46	8.83	
2025-01-07 03:14:54.06	1.43	8.84	
2025-01-07 03:14:54.26	1.41	8.85	
2025-01-07 03:14:54.47	1.38	8.87	
2025-01-07 03:14:54.67	1.35	8.88	
2025-01-07 03:14:54.88	1.33	8.89	
2025-01-07 03:14:55.08	1.30	8.91	
2025-01-07 03:14:55.29	1.27	8.92	
2025-01-07 03:14:55.49	1.25	8.93	
2025-01-07 03:14:55.70	1.22	8.95	
2025-01-07 03:14:55.90	1.19	8.96	
2025-01-07 03:14:56.11	1.16	8.97	
2025-01-07 03:14:56.31	1.14	8.99	
2025-01-07 03:14:56.52	1.11	9.00	
2025-01-07 03:14:56.72	1.08	9.01	
2025-01-07 03:14:56.93	1.06	9.03	
2025-01-07 03:14:57.13	1.03	9.04	
2025-01-07 03:14:57.34	1.00	9.05	
2025-01-07 03:14:57.54	0.97	9.07	
2025-01-07 03:14:57.75	0.95	9.08	
2025-01-07 03:14:57.95	0.92	9.09	
2025-01-07 03:14:58.16	0.89	9.11	
2025-01-07 03:14:58.36	0.86	9.12	
2025-01-07 03:14:58.57	0.84	9.13	
2025-01-07 03:14:58.77	0.81	9.15	
2025-01-07 03:14:58.98	0.78	9.16	
2025-01-07 03:14:59.18	0.75	9.17	
2025-01-07 03:14:59.39	0.73	9.19	
2025-01-07 03:14:59.59	0.70	9.20	
2025-01-07 03:14:59.80	0.67	9.22	
2025-01-07 03:15:00.00	0.64	9.23	
2025-01-07 03:15:00.21	0.62	9.24	
2025-01-07 03:15:00.43	0.59	9.26	
2025-01-07 03:15:00.63	0.56	9.27	
2025-01-07 03:15:00.84	0.53	9.28	
2025-01-07 03:15:01.04	0.50	9.30	
2025-01-07 03:15:01.25	0.48	9.31	
2025-01-07 03:15:01.45	0.45	9.32	
2025-01-07 03:15:01.66	0.42	9.34	
2025-01-07 03:15:01.86	0.39	9.35	
2025-01-07 03:15:02.07	0.36	9.36	
2025-01-07 03:15:02.27	0.34	9.38	
2025-01-07 03:15:02.47	0.31	9.39	
2025-01-07 03:15:02.68	0.28	9.40	
2025-01-07 03:15:02.88	0.25	9.42	
2025-01-07 03:15:03.09	0.22	9.43	
2025-01-07 03:15:03.29	0.20	9.44	
2025-01-07 03:15:03.50	0.17	9.46	
2025-01-07 03:15:03.70	0.14	9.47	
2025-01-07 03:15:03.91	0.11	9.49	
2025-01-07 03:15:04.11	0.08	9.50	
2025-01-07 03:15:04.32	0.06	9.51	
2025-01-07 03:15:04.53	0.03	9.53	
2025-01-07 03:15:04.74	360.00	9.54	
2025-01-07 03:15:04.95	359.97	9.55	
2025-01-07 03:15:05.15	359.94	9.57	
2025-01-07 03:15:05.36	359.91	9.58	
2025-01-07 03:15:05.56	359.88	9.59	
2025-01-07 03:15:05.77	359.85	9.61	
2025-01-07 03:15:05.97	359.83	9.62	
2025-01-07 03:15:06.18	359.80	9.63	
2025-01-07 03:15:06.39	359.77	9.65	
2025-01-07 03:15:06.59	359.74	9.66	
2025-01-07 03:15:06.81	359.71	9.68	
2025-01-07 03:15:07.02	359.68	9.69	
2025-01-07 03:15:07.22	359.65	9.70	
2025-01-07 03:15:07.43	359.62	9.72	
2025-01-07 03:15:07.63	359.60	9.73	
2025-01-07 03:15:07.83	359.57	9.74	
2025-01-07 03:15:08.04	359.54	9.76	
2025-01-07 03:15:08.24	359.51	9.77	
2025-01-07 03:15:08.45	359.48	9.78	
2025-01-07 03:15:08.65	359.45	9.80	
2025-01-07 03:15:08.86	359.42	9.81	
2025-01-07 03:15:09.06	359.39	9.82	
2025-01-07 03:15:09.27	359.36	9.84	
2025-01-07 03:15:09.47	359.34	9.85	
2025-01-07 03:15:09.68	359.31	9.87	
2025-01-07 03:15:09.89	359.28	9.88	
2025-01-07 03:15:10.09	359.25	9.89	
2025-01-07 03:15:10.29	359.22	9.91	
2025-01-07 03:15:10.50	359.19	9.92	
2025-01-07 03:15:10.71	359.16	9.93	
2025-01-07 03:15:10.91	359.13	9.95	
2025-01-07 03:15:11.12	359.10	9.96	
2025-01-07 03:15:11.32	359.07	9.97	
2025-01-07 03:15:11.53	359.04	9.99	
2025-01-07 03:15:11.73	359.01	10.00	
2025-01-07 03:15:11.94	358.98	10.01	
2025-01-07 03:15:12.14	358.96	10.03	
2025-01-07 03:15:12.35	358.93	10.04	
2025-01-07 03:15:12.55	358.90	10.05	
2025-01-07 03:15:12.76	358.87	10.07	
2025-01-07 03:15:12.97	358.84	10.08	
2025-01-07 03:15:13.17	358.81	10.10	
2025-01-07 03:15:13.37	358.78	10.11	
2025-01-07 03:15:13.58	358.75	10.12	
2025-01-07 03:15:13.79	358.72	10.14	
2025-01-07 03:15:13.99	358.69	10.15	
2025-01-07 03:15:14.20	358.66	10.16	
2025-01-07 03:15:14.40	358.63	10.18	
2025-01-07 03:15:14.61	358.60	10.19	
2025-01-07 03:15:14.81	358.57	10.20	
2025-01-07 03:15:15.02	358.54	10.22	
2025-01-07 03:15:15.22	358.51	10.23	
2025-01-07 03:15:15.43	358.48	10.24	
2025-01-07 03:15:15.63	358.45	10.26	
2025-01-07 03:15:15.84	358.42	10.27	
2025-01-07 03:15:16.04	358.39	10.29	
2025-01-07 03:15:16.25	358.36	10.30	
2025-01-07 03:15:16.47	358.33	10.31	
2025-01-07 03:15:16.68	358.30	10.33	
2025-01-07 03:15:16.88	358.27	10.34	
2025-01-07 03:15:17.09	358.24	10.35	
2025-01-07 03:15:17.29	358.21	10.37	
2025-01-07 03:15:17.51	358.18	10.38	
2025-01-07 03:15:17.72	358.15	10.40	
2025-01-07 03:15:17.92	358.12	10.41	
2025-01-07 03:15:18.13	358.09	10.42	
2025-01-07 03:15:18.33	358.06	10.44	
2025-01-07 03:15:18.53	358.03	10.45	
2025-01-07 03:15:18.74	357.99	10.46	
2025-01-07 03:15:18.95	357.96	10.48	
2025-01-07 03:15:19.15	357.93	10.49	
2025-01-07 03:15:19.36	357.90	10.51	
2025-01-07 03:15:19.56	357.87	10.52	
2025-01-07 03:15:19.77	357.84	10.53	
2025-01-07 03:15:19.97	357.81	10.55	
2025-01-07 03:15:20.18	357.78	10.56	
2025-01-07 03:15:20.38	357.75	10.57	
2025-01-07 03:15:20.59	357.72	10.59	
2025-01-07 03:15:20.79	357.69	10.60	
2025-01-07 03:15:21.00	357.66	10.61	
2025-01-07 03:15:21.20	357.63	10.63	
2025-01-07 03:15:21.41	357.60	10.64	
2025-01-07 03:15:21.61	357.57	10.65	
2025-01-07 03:15:21.82	357.54	10.67	
2025-01-07 03:15:22.02	357.51	10.68	
2025-01-07 03:15:22.23	357.47	10.70	
2025-01-07 03:15:22.43	357.44	10.71	
2025-01-07 03:15:22.64	357.41	10.72	
2025-01-07 03:15:22.84	357.38	10.74	
2025-01-07 03:15:23.05	357.35	10.75	
2025-01-07 03:15:23.25	357.32	10.76	
2025-01-07 03:15:23.46	357.29	10.78	
2025-01-07 03:15:23.66	357.26	10.79	
2025-01-07 03:15:23.87	357.23	10.80	
2025-01-07 03:15:24.07	357.19	10.82	
2025-01-07 03:15:24.28	357.16	10.83	
2025-01-07 03:15:24.49	357.13	10.84	
2025-01-07 03:15:24.69	357.10	10.86	
2025-01-07 03:15:24.91	357.07	10.87	
2025-01-07 03:15:25.12	357.03	10.89	
2025-01-07 03:15:25.32	357.00	10.90	
2025-01-07 03:15:25.53	356.97	10.91	
2025-01-07 03:15:25.73	356.94	10.93	
2025-01-07 03:15:25.94	356.91	10.94	
2025-01-07 03:15:26.14	356.88	10.95	
2025-01-07 03:15:26.35	356.85	10.97	
2025-01-07 03:15:26.55	356.82	10.98	
2025-01-07 03:15:26.76	356.78	11.00	
2025-01-07 03:15:26.96	356.75	11.01	
2025-01-07 03:15:27.17	356.72	11.02	
2025-01-07 03:15:27.37	356.69	11.04	
2025-01-07 03:15:27.58	356.66	11.05	
2025-01-07 03:15:27.78	356.63	11.06	
2025-01-07 03:15:27.99	356.59	11.08	
2025-01-07 03:15:28.21	356.56	11.09	
2025-01-07 03:15:28.41	356.53	11.10	
2025-01-07 03:15:28.62	356.50	11.12	
2025-01-07 03:15:28.82	356.46	11.13	
2025-01-07 03:15:29.03	356.43	11.15	
2025-01-07 03:15:29.25	356.40	11.16	
2025-01-07 03:15:29.45	356.37	11.17	
2025-01-07 03:15:29.66	356.33	11.19	
2025-01-07 03:15:29.87	356.30	11.20	
2025-01-07 03:15:30.07	356.27	11.22	
2025-01-07 03:15:30.27	356.24	11.23	
2025-01-07 03:15:30.48	356.20	11.24	
2025-01-07 03:15:30.68	356.17	11.26	
2025-01-07 03:15:30.89	356.14	11.27	
2025-01-07 03:15:31.10	356.11	11.28	
2025-01-07 03:15:31.30	356.08	11.30	
2025-01-07 03:15:31.50	356.04	11.31	
2025-01-07 03:15:31.71	356.01	11.32	
2025-01-07 03:15:31.92	355.98	11.34	
2025-01-07 03:15:32.12	355.95	11.35	
2025-01-07 03:15:32.33	355.91	11.36	
2025-01-07 03:15:32.53	355.88	11.38	
2025-01-07 03:15:32.73	355.85	11.39	
2025-01-07 03:15:32.94	355.82	11.41	
2025-01-07 03:15:33.14	355.78	11.42	
2025-01-07 03:15:33.35	355.75	11.43	
2025-01-07 03:15:33.55	355.72	11.45	
2025-01-07 03:15:33.76	355.69	11.46	
2025-01-07 03:15:33.97	355.65	11.47	
2025-01-07 03:15:34.17	355.62	11.49	
2025-01-07 03:15:34.38	355.59	11.50	
2025-01-07 03:15:34.58	355.55	11.51	
2025-01-07 03:15:34.79	355.52	11.53	
2025-01-07 03:15:34.99	355.49	11.54	
2025-01-07 03:15:35.20	355.45	11.56	
2025-01-07 03:15:35.40	355.42	11.57	
2025-01-07 03:15:35.61	355.39	11.58	
2025-01-07 03:15:35.81	355.36	11.60	
2025-01-07 03:15:36.02	355.32	11.61	
2025-01-07 03:15:36.22	355.29	11.62	
2025-01-07 03:15:36.43	355.26	11.64	
2025-01-07 03:15:36.63	355.22	11.65	
2025-01-07 03:15:36.84	355.19	11.66	
2025-01-07 03:15:37.04	355.16	11.68	
2025-01-07 03:15:37.25	355.12	11.69	
2025-01-07 03:15:37.45	355.09	11.70	
2025-01-07 03:15:37.66	355.06	11.72	
2025-01-07 03:15:37.87	355.02	11.73	
2025-01-07 03:15:38.08	354.99	11.75	
2025-01-07 03:15:38.29	354.95	11.76	
2025-01-07 03:15:38.49	354.92	11.77	
2025-01-07 03:15:38.70	354.89	11.79	
2025-01-07 03:15:38.90	354.85	11.80	
2025-01-07 03:15:39.10	354.82	11.81	
2025-01-07 03:15:39.31	354.79	11.83	
2025-01-07 03:15:39.51	354.75	11.84	
2025-01-07 03:15:39.72	354.72	11.85	
2025-01-07 03:15:39.92	354.69	11.87	
2025-01-07 03:15:40.13	354.65	11.88	
2025-01-07 03:15:40.34	354.62	11.90	
2025-01-07 03:15:40.54	354.58	11.91	
2025-01-07 03:15:40.75	354.55	11.92	
2025-01-07 03:15:40.95	354.52	11.94	
2025-01-07 03:15:41.16	354.48	11.95	
2025-01-07 03:15:41.36	354.45	11.96	
2025-01-07 03:15:41.56	354.42	11.98	
2025-01-07 03:15:41.77	354.38	11.99	
2025-01-07 03:15:41.97	354.35	12.00	
2025-01-07 03:15:42.18	354.31	12.02	
2025-01-07 03:15:42.39	354.28	12.03	
2025-01-07 03:15:42.59	354.24	12.04	
2025-01-07 03:15:42.80	354.21	12.06	
2025-01-07 03:15:43.00	354.18	12.07	
2025-01-07 03:15:43.20	354.14	12.09	
2025-01-07 03:15:43.41	354.11	12.10	
2025-01-07 03:15:43.61	354.07	12.11	
2025-01-07 03:15:43.82	354.04	12.13	
2025-01-07 03:15:44.03	354.00	12.14	
2025-01-07 03:15:44.23	353.97	12.15	
2025-01-07 03:15:44.44	353.93	12.17	
2025-01-07 03:15:44.64	353.90	12.18	
2025-01-07 03:15:44.84	353.87	12.19	
2025-01-07 03:15:45.05	353.83	12.21	
2025-01-07 03:15:45.25	353.80	12.22	
2025-01-07 03:15:45.46	353.76	12.23	
2025-01-07 03:15:45.66	353.73	12.25	
2025-01-07 03:15:45.87	353.69	12.26	
2025-01-07 03:15:46.07	353.66	12.27	
2025-01-07 03:15:46.28	353.62	12.29	
2025-01-07 03:15:46.48	353.59	12.30	
2025-01-07 03:15:46.69	353.55	12.32	
2025-01-07 03:15:46.89	353.52	12.33	
2025-01-07 03:15:47.10	353.48	12.34	
2025-01-07 03:15:47.30	353.45	12.36	
2025-01-07 03:15:47.51	353.41	12.37	
2025-01-07 03:15:47.71	353.38	12.38	
2025-01-07 03:15:47.92	353.34	12.40	
2025-01-07 03:15:48.13	353.31	12.41	
2025-01-07 03:15:48.33	353.27	12.42	
2025-01-07 03:15:48.53	353.24	12.44	
2025-01-07 03:15:48.74	353.20	12.45	
2025-01-07 03:15:48.94	353.17	12.46	
2025-01-07 03:15:49.15	353.13	12.48	
2025-01-07 03:15:49.36	353.10	12.49	
2025-01-07 03:15:49.56	353.06	12.51	
2025-01-07 03:15:49.76	353.03	12.52	
2025-01-07 03:15:49.97	352.99	12.53	
2025-01-07 03:15:50.17	352.96	12.55	
2025-01-07 03:15:50.38	352.92	12.56	
2025-01-07 03:15:50.59	352.88	12.57	
2025-01-07 03:15:50.79	352.85	12.59	
2025-01-07 03:15:51.00	352.81	12.60	
2025-01-07 03:15:51.20	352.78	12.61	
2025-01-07 03:15:51.41	352.74	12.63	
2025-01-07 03:15:51.61	352.71	12.64	
2025-01-07 03:15:51.81	352.67	12.65	
2025-01-07 03:15:52.02	352.64	12.67	
2025-01-07 03:15:52.22	352.60	12.68	
2025-01-07 03:15:52.43	352.56	12.69	
2025-01-07 03:15:52.63	352.53	12.71	
2025-01-07 03:15:52.84	352.49	12.72	
2025-01-07 03:15:53.04	352.46	12.73	
2025-01-07 03:15:53.25	352.42	12.75	
2025-01-07 03:15:53.45	352.39	12.76	
2025-01-07 03:15:53.66	352.35	12.78	
2025-01-07 03:15:53.86	352.31	12.79	
2025-01-07 03:15:54.07	352.28	12.80	
2025-01-07 03:15:54.28	352.24	12.82	
2025-01-07 03:15:54.48	352.20	12.83	
2025-01-07 03:15:54.69	352.17	12.84	
2025-01-07 03:15:54.89	352.13	12.86	
2025-01-07 03:15:55.10	352.09	12.87	
2025-01-07 03:15:55.30	352.06	12.88	
2025-01-07 03:15:55.51	352.02	12.90	
2025-01-07 03:15:55.71	351.99	12.91	
2025-01-07 03:15:55.91	351.95	12.92	
2025-01-07 03:15:56.12	351.91	12.94	
2025-01-07 03:15:56.33	351.88	12.95	
2025-01-07 03:15:56.53	351.84	12.96	
2025-01-07 03:15:56.74	351.80	12.98	
2025-01-07 03:15:56.94	351.77	12.99	
2025-01-07 03:15:57.15	351.73	13.00	
2025-01-07 03:15:57.36	351.69	13.02	
2025-01-07 03:15:57.56	351.66	13.03	
2025-01-07 03:15:57.77	351.62	13.04	
2025-01-07 03:15:57.97	351.58	13.06	
2025-01-07 03:15:58.19	351.54	13.07	
2025-01-07 03:15:58.39	351.51	13.09	
2025-01-07 03:15:58.60	351.47	13.10	
2025-01-07 03:15:58.80	351.43	13.11	
2025-01-07 03:15:59.01	351.39	13.13	
2025-01-07 03:15:59.21	351.36	13.14	
2025-01-07 03:15:59.42	351.32	13.15	
2025-01-07 03:15:59.62	351.28	13.17	
2025-01-07 03:15:59.83	351.25	13.18	
2025-01-07 03:16:00.03	351.21	13.19	
2025-01-07 03:16:00.25	351.17	13.21	
2025-01-07 03:16:00.45	351.13	13.22	
2025-01-07 03:16:00.66	351.10	13.23	
2025-01-07 03:16:00.87	351.06	13.25	
2025-01-07 03:16:01.07	351.02	13.26	
2025-01-07 03:16:01.29	350.98	13.27	
2025-01-07 03:16:01.50	350.94	13.29	
2025-01-07 03:16:01.70	350.91	13.30	
2025-01-07 03:16:01.91	350.87	13.31	
2025-01-07 03:16:02.11	350.83	13.33	
2025-01-07 03:16:02.32	350.79	13.34	
2025-01-07 03:16:02.52	350.75	13.35	
2025-01-07 03:16:02.73	350.72	13.37	
2025-01-07 03:16:02.93	350.68	13.38	
2025-01-07 03:16:03.14	350.64	13.39	
2025-01-07 03:16:03.34	350.60	13.41	
2025-01-07 03:16:03.54	350.57	13.42	
2025-01-07 03:16:03.75	350.53	13.43	
2025-01-07 03:16:03.95	350.49	13.45	
2025-01-07 03:16:04.16	350.45	13.46	
2025-01-07 03:16:04.36	350.42	13.47	
2025-01-07 03:16:04.57	350.38	13.49	
2025-01-07 03:16:04.78	350.34	13.50	
2025-01-07 03:16:04.98	350.30	13.51	
2025-01-07 03:16:05.19	350.26	13.53	
2025-01-07 03:16:05.39	350.22	13.54	
2025-01-07 03:16:05.60	350.18	13.55	
2025-01-07 03:16:05.80	350.15	13.57	
2025-01-07 03:16:06.01	350.11	13.58	
2025-01-07 03:16:06.21	350.07	13.59	
2025-01-07 03:16:06.42	350.03	13.61	
2025-01-07 03:16:06.62	349.99	13.62	
2025-01-07 03:16:06.83	349.95	13.63	
2025-01-07 03:16:07.04	349.92	13.65	
2025-01-07 03:16:07.24	349.88	13.66	
2025-01-07 03:16:07.44	349.84	13.67	
2025-01-07 03:16:07.65	349.80	13.69	
2025-01-07 03:16:07.85	349.76	13.70	
2025-01-07 03:16:08.06	349.72	13.71	
2025-01-07 03:16:08.26	349.69	13.73	
2025-01-07 03:16:08.47	349.65	13.74	
2025-01-07 03:16:08.67	349.61	13.75	
2025-01-07 03:16:08.88	349.57	13.77	
2025-01-07 03:16:09.09	349.53	13.78	
2025-01-07 03:16:09.29	349.49	13.79	
2025-01-07 03:16:09.50	349.45	13.81	
2025-01-07 03:16:09.70	349.41	13.82	
2025-01-07 03:16:09.91	349.37	13.83	
2025-01-07 03:16:10.11	349.33	13.85	
2025-01-07 03:16:10.32	349.29	13.86	
2025-01-07 03:16:10.52	349.26	13.87	
2025-01-07 03:16:10.73	349.22	13.89	
2025-01-07 03:16:10.93	349.18	13.90	
2025-01-07 03:16:11.14	349.14	13.91	
2025-01-07 03:16:11.34	349.10	13.92	
2025-01-07 03:16:11.55	349.06	13.94	
2025-01-07 03:16:11.75	349.02	13.95	
2025-01-07 03:16:11.95	348.98	13.96	
2025-01-07 03:16:12.16	348.94	13.98	
2025-01-07 03:16:12.37	348.90	13.99	
2025-01-07 03:16:12.57	348.86	14.00	
2025-01-07 03:16:12.78	348.82	14.02	
2025-01-07 03:16:12.98	348.78	14.03	
2025-01-07 03:16:13.19	348.74	14.04	
2025-01-07 03:16:13.40	348.70	14.06	
2025-01-07 03:16:13.60	348.66	14.07	
2025-01-07 03:16:13.81	348.62	14.08	
2025-01-07 03:16:14.01	348.59	14.10	
2025-01-07 03:16:14.22	348.54	14.11	
2025-01-07 03:16:14.42	348.51	14.12	
2025-01-07 03:16:14.63	348.46	14.14	
2025-01-07 03:16:14.83	348.43	14.15	
2025-01-07 03:16:15.04	348.38	14.16	
2025-01-07 03:16:15.24	348.35	14.17	
2025-01-07 03:16:15.44	348.31	14.19	
2025-01-07 03:16:15.65	348.27	14.20	
2025-01-07 03:16:15.86	348.22	14.21	
2025-01-07 03:16:16.06	348.19	14.23	
2025-01-07 03:16:16.27	348.14	14.24	
2025-01-07 03:16:16.47	348.11	14.25	
2025-01-07 03:16:16.68	348.06	14.27	
2025-01-07 03:16:16.88	348.02	14.28	
2025-01-07 03:16:17.09	347.98	14.29	
2025-01-07 03:16:17.29	347.94	14.30	
2025-01-07 03:16:17.50	347.90	14.32	
2025-01-07 03:16:17.71	347.86	14.33	
2025-01-07 03:16:17.91	347.82	14.34	
2025-01-07 03:16:18.12	347.78	14.36	
2025-01-07 03:16:18.32	347.74	14.37	
2025-01-07 03:16:18.53	347.70	14.38	
2025-01-07 03:16:18.73	347.66	14.40	
2025-01-07 03:16:18.94	347.62	14.41	
2025-01-07 03:16:19.14	347.58	14.42	
2025-01-07 03:16:19.36	347.53	14.44	
2025-01-07 03:16:19.57	347.49	14.45	
2025-01-07 03:16:19.77	347.45	14.46	
2025-01-07 03:16:19.98	347.41	14.47	
2025-01-07 03:16:20.18	347.37	14.49	
2025-01-07 03:16:20.39	347.33	14.50	
2025-01-07 03:16:20.59	347.29	14.51	
2025-01-07 03:16:20.80	347.25	14.53	
2025-01-07 03:16:21.00	347.21	14.54	
2025-01-07 03:16:21.21	347.16	14.55	
2025-01-07 03:16:21.41	347.12	14.56	
2025-01-07 03:16:21.62	347.08	14.58	
2025-01-07 03:16:21.82	347.04	14.59	
2025-01-07 03:16:22.03	347.00	14.60	
2025-01-07 03:16:22.23	346.96	14.62	
2025-01-07 03:16:22.44	346.92	14.63	
2025-01-07 03:16:22.65	346.88	14.64	
2025-01-07 03:16:22.86	346.83	14.66	
2025-01-07 03:16:23.06	346.79	14.67	
2025-01-07 03:16:23.27	346.75	14.68	
2025-01-07 03:16:23.47	346.71	14.69	
2025-01-07 03:16:23.68	346.67	14.71	
2025-01-07 03:16:23.88	346.63	14.72	
2025-01-07 03:16:24.09	346.58	14.73	
2025-01-07 03:16:24.29	346.54	14.74	
2025-01-07 03:16:24.50	346.50	14.76	
2025-01-07 03:16:24.70	346.46	14.77	
2025-01-07 03:16:24.91	346.42	14.78	
2025-01-07 03:16:25.11	346.38	14.80	
2025-01-07 03:16:25.32	346.33	14.81	
2025-01-07 03:16:25.52	346.29	14.82	
2025-01-07 03:16:25.72	346.25	14.83	
2025-01-07 03:16:25.93	346.21	14.85	
2025-01-07 03:16:26.14	346.16	14.86	
2025-01-07 03:16:26.34	346.12	14.87	
2025-01-07 03:16:26.55	346.08	14.89	
2025-01-07 03:16:26.75	346.04	14.90	
2025-01-07 03:16:26.96	346.00	14.91	
2025-01-07 03:16:27.16	345.96	14.92	
2025-01-07 03:16:27.37	345.91	14.94	
2025-01-07 03:16:27.57	345.87	14.95	
2025-01-07 03:16:27.78	345.83	14.96	
2025-01-07 03:16:27.99	345.78	14.97	
2025-01-07 03:16:28.19	345.74	14.99	
2025-01-07 03:16:28.40	345.70	15.00	
2025-01-07 03:16:28.60	345.66	15.01	
2025-01-07 03:16:28.81	345.61	15.02	
2025-01-07 03:16:29.01	345.57	15.04	
2025-01-07 03:16:29.22	345.53	15.05	
2025-01-07 03:16:29.42	345.49	15.06	
2025-01-07 03:16:29.62	345.45	15.07	
2025-01-07 03:16:29.83	345.40	15.09	
2025-01-07 03:16:30.05	345.36	15.10	
2025-01-07 03:16:30.25	345.31	15.11	
2025-01-07 03:16:30.46	345.27	15.13	
2025-01-07 03:16:30.67	345.23	15.14	
2025-01-07 03:16:30.87	345.18	15.15	
2025-01-07 03:16:31.07	345.14	15.16	
2025-01-07 03:16:31.28	345.10	15.18	
2025-01-07 03:16:31.48	345.06	15.19	
2025-01-07 03:16:31.69	345.01	15.20	
2025-01-07 03:16:31.90	344.97	15.21	
2025-01-07 03:16:32.10	344.93	15.23	
2025-01-07 03:16:32.30	344.88	15.24	
2025-01-07 03:16:32.51	344.84	15.25	
2025-01-07 03:16:32.71	344.80	15.26	
2025-01-07 03:16:32.92	344.75	15.28	
2025-01-07 03:16:33.12	344.71	15.29	
2025-01-07 03:16:33.33	344.67	15.30	
2025-01-07 03:16:33.54	344.62	15.31	
2025-01-07 03:16:33.74	344.58	15.33	
2025-01-07 03:16:33.95	344.53	15.34	
2025-01-07 03:16:34.15	344.49	15.35	
2025-01-07 03:16:34.36	344.45	15.36	
2025-01-07 03:16:34.56	344.40	15.38	
2025-01-07 03:16:34.77	344.36	15.39	
2025-01-07 03:16:34.97	344.32	15.40	
2025-01-07 03:16:35.18	344.27	15.41	
2025-01-07 03:16:35.38	344.23	15.42	
2025-01-07 03:16:35.59	344.19	15.44	
2025-01-07 03:16:35.79	344.14	15.45	
2025-01-07 03:16:36.00	344.10	15.46	
2025-01-07 03:16:36.20	344.05	15.47	
2025-01-07 03:16:36.41	344.01	15.49	
2025-01-07 03:16:36.61	343.97	15.50	
2025-01-07 03:16:36.82	343.92	15.51	
2025-01-07 03:16:37.02	343.88	15.52	
2025-01-07 03:16:37.23	343.83	15.54	
2025-01-07 03:16:37.43	343.79	15.55	
2025-01-07 03:16:37.63	343.75	15.56	
2025-01-07 03:16:37.84	343.70	15.57	
2025-01-07 03:16:38.05	343.66	15.58	
2025-01-07 03:16:38.25	343.61	15.60	
2025-01-07 03:16:38.46	343.57	15.61	
2025-01-07 03:16:38.67	343.52	15.62	
2025-01-07 03:16:38.88	343.48	15.63	
2025-01-07 03:16:39.08	343.43	15.65	
2025-01-07 03:16:39.29	343.39	15.66	
2025-01-07 03:16:39.49	343.34	15.67	
2025-01-07 03:16:39.70	343.30	15.68	
2025-01-07 03:16:39.90	343.25	15.69	
2025-01-07 03:16:40.11	343.21	15.71	
2025-01-07 03:16:40.31	343.17	15.72	
2025-01-07 03:16:40.52	343.12	15.73	
2025-01-07 03:16:40.72	343.08	15.74	
2025-01-07 03:16:40.93	343.03	15.76	
2025-01-07 03:16:41.14	342.98	15.77	
2025-01-07 03:16:41.34	342.94	15.78	
2025-01-07 03:16:41.55	342.89	15.79	
2025-01-07 03:16:41.75	342.85	15.80	
2025-01-07 03:16:41.95	342.81	15.82	
2025-01-07 03:16:42.16	342.76	15.83	
2025-01-07 03:16:42.37	342.71	15.84	
2025-01-07 03:16:42.57	342.67	15.85	
2025-01-07 03:16:42.78	342.62	15.86	
2025-01-07 03:16:42.98	342.58	15.88	
2025-01-07 03:16:43.19	342.53	15.89	
2025-01-07 03:16:43.40	342.49	15.90	
2025-01-07 03:16:43.60	342.44	15.91	
2025-01-07 03:16:43.81	342.40	15.92	
2025-01-07 03:16:44.01	342.35	15.94	
2025-01-07 03:16:44.21	342.31	15.95	
2025-01-07 03:16:44.42	342.26	15.96	
2025-01-07 03:16:44.62	342.22	15.97	
2025-01-07 03:16:44.83	342.17	15.98	
2025-01-07 03:16:45.03	342.12	15.99	
2025-01-07 03:16:45.24	342.08	16.01	
2025-01-07 03:16:45.44	342.03	16.02	
2025-01-07 03:16:45.65	341.99	16.03	
2025-01-07 03:16:45.86	341.94	16.04	
2025-01-07 03:16:46.06	341.89	16.05	
2025-01-07 03:16:46.27	341.85	16.07	
2025-01-07 03:16:46.47	341.80	16.08	
2025-01-07 03:16:46.67	341.76	16.09	
2025-01-07 03:16:46.88	341.71	16.10	
2025-01-07 03:16:47.08	341.67	16.11	
2025-01-07 03:16:47.29	341.62	16.13	
2025-01-07 03:16:47.49	341.57	16.14	
2025-01-07 03:16:47.70	341.53	16.15	
2025-01-07 03:16:47.91	341.48	16.16	
2025-01-07 03:16:48.11	341.43	16.17	
2025-01-07 03:16:48.31	341.39	16.18	
2025-01-07 03:16:48.52	341.34	16.20	
2025-01-07 03:16:48.72	341.30	16.21	
2025-01-07 03:16:48.93	341.25	16.22	
2025-01-07 03:16:49.14	341.20	16.23	
2025-01-07 03:16:49.34	341.16	16.24	
2025-01-07 03:16:49.54	341.11	16.25	
2025-01-07 03:16:49.75	341.06	16.27	
2025-01-07 03:16:49.96	341.02	16.28	
2025-01-07 03:16:50.16	340.97	16.29	
2025-01-07 03:16:50.36	340.92	16.30	
2025-01-07 03:16:50.57	340.88	16.31	
2025-01-07 03:16:50.78	340.83	16.32	
2025-01-07 03:16:50.98	340.78	16.33	
2025-01-07 03:16:51.19	340.74	16.35	
2025-01-07 03:16:51.40	340.69	16.36	
2025-01-07 03:16:51.61	340.64	16.37	
2025-01-07 03:16:51.82	340.59	16.38	
2025-01-07 03:16:52.02	340.55	16.39	
2025-01-07 03:16:52.23	340.50	16.40	
2025-01-07 03:16:52.43	340.45	16.42	
2025-01-07 03:16:52.64	340.40	16.43	
2025-01-07 03:16:52.84	340.36	16.44	
2025-01-07 03:16:53.05	340.31	16.45	
2025-01-07 03:16:53.25	340.26	16.46	
2025-01-07 03:16:53.46	340.21	16.47	
2025-01-07 03:16:53.66	340.17	16.48	
2025-01-07 03:16:53.86	340.12	16.49	
2025-01-07 03:16:54.07	340.07	16.51	
2025-01-07 03:16:54.27	340.03	16.52	
2025-01-07 03:16:54.48	339.98	16.53	
2025-01-07 03:16:54.69	339.93	16.54	
2025-01-07 03:16:54.90	339.88	16.55	
2025-01-07 03:16:55.10	339.83	16.56	
2025-01-07 03:16:55.31	339.79	16.57	
2025-01-07 03:16:55.52	339.74	16.59	
2025-01-07 03:16:55.72	339.69	16.60	
2025-01-07 03:16:55.92	339.64	16.61	
2025-01-07 03:16:56.13	339.60	16.62	
2025-01-07 03:16:56.33	339.55	16.63	
2025-01-07 03:16:56.54	339.50	16.64	
2025-01-07 03:16:56.74	339.45	16.65	
2025-01-07 03:16:56.95	339.40	16.66	
2025-01-07 03:16:57.15	339.36	16.68	
2025-01-07 03:16:57.36	339.31	16.69	
2025-01-07 03:16:57.56	339.26	16.70	
2025-01-07 03:16:57.76	339.21	16.71	
2025-01-07 03:16:57.97	339.17	16.72	
2025-01-07 03:16:58.18	339.12	16.73	
2025-01-07 03:16:58.38	339.07	16.74	
2025-01-07 03:16:58.59	339.02	16.75	
2025-01-07 03:16:58.79	338.97	16.76	
2025-01-07 03:16:59.00	338.92	16.77	
2025-01-07 03:16:59.20	338.88	16.79	
2025-01-07 03:16:59.41	338.83	16.80	
2025-01-07 03:16:59.61	338.78	16.81	
2025-01-07 03:16:59.82	338.73	16.82	
2025-01-07 03:17:00.02	338.68	16.83	
2025-01-07 03:17:00.22	338.64	16.84	
2025-01-07 03:17:00.43	338.59	16.85	
2025-01-07 03:17:00.64	338.54	16.86	
2025-01-07 03:17:00.84	338.49	16.87	
2025-01-07 03:17:01.05	338.44	16.88	
2025-01-07 03:17:01.25	338.39	16.89	
2025-01-07 03:17:01.46	338.34	16.91	
2025-01-07 03:17:01.66	338.29	16.92	
2025-01-07 03:17:01.87	338.24	16.93	
2025-01-07 03:17:02.07	338.20	16.94	
2025-01-07 03:17:02.28	338.15	16.95	
2025-01-07 03:17:02.48	338.10	16.96	
2025-01-07 03:17:02.69	338.05	16.97	
2025-01-07 03:17:02.89	338.00	16.98	
2025-01-07 03:17:03.10	337.95	16.99	
2025-01-07 03:17:03.30	337.90	17.00	
2025-01-07 03:17:03.51	337.85	17.01	
2025-01-07 03:17:03.71	337.80	17.02	
2025-01-07 03:17:03.92	337.75	17.03	
2025-01-07 03:17:04.12	337.71	17.04	
2025-01-07 03:17:04.32	337.66	17.06	
2025-01-07 03:17:04.53	337.61	17.07	
2025-01-07 03:17:04.74	337.56	17.08	
2025-01-07 03:17:04.94	337.51	17.09	
2025-01-07 03:17:05.15	337.46	17.10	
2025-01-07 03:17:05.35	337.41	17.11	
2025-01-07 03:17:05.56	337.36	17.12	
2025-01-07 03:17:05.76	337.31	17.13	
2025-01-07 03:17:05.97	337.26	17.14	
2025-01-07 03:17:06.18	337.21	17.15	
2025-01-07 03:17:06.38	337.16	17.16	
2025-01-07 03:17:06.58	337.11	17.17	
2025-01-07 03:17:06.79	337.06	17.18	
2025-01-07 03:17:06.99	337.01	17.19	
2025-01-07 03:17:07.20	336.96	17.20	
2025-01-07 03:17:07.40	336.91	17.21	
2025-01-07 03:17:07.61	336.86	17.22	
2025-01-07 03:17:07.81	336.81	17.23	
2025-01-07 03:17:08.02	336.76	17.24	
2025-01-07 03:17:08.22	336.71	17.25	
2025-01-07 03:17:08.43	336.66	17.26	
2025-01-07 03:17:08.65	336.61	17.28	
2025-01-07 03:17:08.85	336.56	17.29	
2025-01-07 03:17:09.06	336.51	17.30	
2025-01-07 03:17:09.26	336.46	17.31	
2025-01-07 03:17:09.47	336.41	17.32	
2025-01-07 03:17:09.67	336.36	17.33	
2025-01-07 03:17:09.88	336.31	17.34	
2025-01-07 03:17:10.09	336.26	17.35	
2025-01-07 03:17:10.29	336.21	17.36	
2025-01-07 03:17:10.50	336.16	17.37	
2025-01-07 03:17:10.70	336.11	17.38	
2025-01-07 03:17:10.91	336.06	17.39	
2025-01-07 03:17:11.11	336.01	17.40	
2025-01-07 03:17:11.32	335.95	17.41	
2025-01-07 03:17:11.53	335.90	17.42	
2025-01-07 03:17:11.73	335.85	17.43	
2025-01-07 03:17:11.93	335.80	17.44	
2025-01-07 03:17:12.14	335.75	17.45	
2025-01-07 03:17:12.34	335.70	17.46	
2025-01-07 03:17:12.55	335.65	17.47	
2025-01-07 03:17:12.75	335.60	17.48	
2025-01-07 03:17:12.96	335.55	17.49	
2025-01-07 03:17:13.16	335.50	17.50	
2025-01-07 03:17:13.37	335.45	17.51	
2025-01-07 03:17:13.57	335.40	17.52	
2025-01-07 03:17:13.78	335.35	17.53	
2025-01-07 03:17:13.98	335.30	17.54	
2025-01-07 03:17:14.19	335.24	17.55	
2025-01-07 03:17:14.40	335.19	17.56	
2025-01-07 03:17:14.60	335.14	17.57	
2025-01-07 03:17:14.81	335.09	17.58	
2025-01-07 03:17:15.03	335.03	17.59	
2025-01-07 03:17:15.23	334.98	17.60	
2025-01-07 03:17:15.44	334.93	17.61	
2025-01-07 03:17:15.64	334.88	17.62	
2025-01-07 03:17:15.85	334.83	17.63	
2025-01-07 03:17:16.05	334.78	17.63	
2025-01-07 03:17:16.26	334.73	17.64	
2025-01-07 03:17:16.46	334.68	17.65	
2025-01-07 03:17:16.67	334.62	17.66	
2025-01-07 03:17:16.87	334.57	17.67	
2025-01-07 03:17:17.08	334.52	17.68	
2025-01-07 03:17:17.28	334.47	17.69	
2025-01-07 03:17:17.49	334.42	17.70	
2025-01-07 03:17:17.69	334.37	17.71	
2025-01-07 03:17:17.90	334.31	17.72	
2025-01-07 03:17:18.10	334.26	17.73	
2025-01-07 03:17:18.31	334.21	17.74	
2025-01-07 03:17:18.52	334.16	17.75	
2025-01-07 03:17:18.72	334.11	17.76	
2025-01-07 03:17:18.93	334.05	17.77	
2025-01-07 03:17:19.13	334.00	17.78	
2025-01-07 03:17:19.34	333.95	17.79	
2025-01-07 03:17:19.54	333.90	17.80	
2025-01-07 03:17:19.75	333.85	17.81	
2025-01-07 03:17:19.96	333.79	17.82	
2025-01-07 03:17:20.16	333.74	17.82	
2025-01-07 03:17:20.37	333.69	17.83	
2025-01-07 03:17:20.57	333.64	17.84	
2025-01-07 03:17:20.78	333.59	17.85	
2025-01-07 03:17:20.98	333.53	17.86	
2025-01-07 03:17:21.19	333.48	17.87	
2025-01-07 03:17:21.39	333.43	17.88	
2025-01-07 03:17:21.60	333.38	17.89	
2025-01-07 03:17:21.80	333.33	17.90	
2025-01-07 03:17:22.01	333.27	17.91	
2025-01-07 03:17:22.21	333.22	17.92	
2025-01-07 03:17:22.42	333.17	17.92	
2025-01-07 03:17:22.63	333.11	17.93	
2025-01-07 03:17:22.83	333.06	17.94	
2025-01-07 03:17:23.04	333.01	17.95	
2025-01-07 03:17:23.24	332.96	17.96	
2025-01-07 03:17:23.45	332.90	17.97	
2025-01-07 03:17:23.65	332.85	17.98	
2025-01-07 03:17:23.86	332.80	17.99	
2025-01-07 03:17:24.06	332.75	18.00	
2025-01-07 03:17:24.27	332.69	18.01	
2025-01-07 03:17:24.47	332.64	18.01	
2025-01-07 03:17:24.68	332.59	18.02	
2025-01-07 03:17:24.88	332.54	18.03	
2025-01-07 03:17:25.09	332.48	18.04	
2025-01-07 03:17:25.30	332.43	18.05	
2025-01-07 03:17:25.50	332.38	18.06	
2025-01-07 03:17:25.70	332.32	18.07	
2025-01-07 03:17:25.91	332.27	18.08	
2025-01-07 03:17:26.12	332.22	18.08	
2025-01-07 03:17:26.32	332.16	18.09	
2025-01-07 03:17:26.53	332.11	18.10	
2025-01-07 03:17:26.73	332.06	18.11	
2025-01-07 03:17:26.93	332.01	18.12	
2025-01-07 03:17:27.14	331.95	18.13	
2025-01-07 03:17:27.34	331.90	18.14	
2025-01-07 03:17:27.55	331.85	18.14	
2025-01-07 03:17:27.76	331.79	18.15	
2025-01-07 03:17:27.97	331.74	18.16	
2025-01-07 03:17:28.17	331.68	18.17	
2025-01-07 03:17:28.38	331.63	18.18	
2025-01-07 03:17:28.58	331.58	18.19	
2025-01-07 03:17:28.79	331.52	18.20	
2025-01-07 03:17:28.99	331.47	18.20	
2025-01-07 03:17:29.20	331.42	18.21	
2025-01-07 03:17:29.40	331.36	18.22	
2025-01-07 03:17:29.60	331.31	18.23	
2025-01-07 03:17:29.81	331.26	18.24	
2025-01-07 03:17:30.02	331.20	18.25	
2025-01-07 03:17:30.22	331.15	18.25	
2025-01-07 03:17:30.43	331.09	18.26	
2025-01-07 03:17:30.63	331.04	18.27	
2025-01-07 03:17:30.83	330.99	18.28	
2025-01-07 03:17:31.04	330.93	18.29	
2025-01-07 03:17:31.25	330.88	18.29	
2025-01-07 03:17:31.45	330.83	18.30	
2025-01-07 03:17:31.66	330.77	18.31	
2025-01-07 03:17:31.86	330.72	18.32	
2025-01-07 03:17:32.07	330.66	18.33	
2025-01-07 03:17:32.27	330.61	18.33	
2025-01-07 03:17:32.48	330.56	18.34	
2025-01-07 03:17:32.68	330.50	18.35	
2025-01-07 03:17:32.89	330.45	18.36	
2025-01-07 03:17:33.10	330.39	18.37	
2025-01-07 03:17:33.30	330.34	18.37	
2025-01-07 03:17:33.51	330.28	18.38	
2025-01-07 03:17:33.71	330.23	18.39	
2025-01-07 03:17:33.92	330.18	18.40	
2025-01-07 03:17:34.12	330.12	18.41	
2025-01-07 03:17:34.32	330.07	18.41	
2025-01-07 03:17:34.53	330.01	18.42	
2025-01-07 03:17:34.73	329.96	18.43	
2025-01-07 03:17:34.94	329.91	18.44	
2025-01-07 03:17:35.14	329.85	18.44	
2025-01-07 03:17:35.35	329.80	18.45	
2025-01-07 03:17:35.55	329.74	18.46	
2025-01-07 03:17:35.76	329.69	18.47	
2025-01-07 03:17:35.96	329.64	18.48	
2025-01-07 03:17:36.17	329.58	18.48	
2025-01-07 03:17:36.37	329.53	18.49	
2025-01-07 03:17:36.58	329.47	18.50	
2025-01-07 03:17:36.79	329.41	18.51	
2025-01-07 03:17:36.99	329.36	18.51	
2025-01-07 03:17:37.20	329.31	18.52	
2025-01-07 03:17:37.40	329.25	18.53	
2025-01-07 03:17:37.61	329.20	18.54	
2025-01-07 03:17:37.81	329.14	18.54	
2025-01-07 03:17:38.02	329.09	18.55	
2025-01-07 03:17:38.22	329.03	18.56	
2025-01-07 03:17:38.43	328.98	18.57	
2025-01-07 03:17:38.63	328.92	18.57	
2025-01-07 03:17:38.83	328.87	18.58	
2025-01-07 03:17:39.04	328.81	18.59	
2025-01-07 03:17:39.24	328.76	18.59	
2025-01-07 03:17:39.45	328.70	18.60	
2025-01-07 03:17:39.65	328.65	18.61	
2025-01-07 03:17:39.85	328.60	18.62	
2025-01-07 03:17:40.06	328.54	18.62	
2025-01-07 03:17:40.27	328.48	18.63	
2025-01-07 03:17:40.47	328.43	18.64	
2025-01-07 03:17:40.67	328.38	18.64	
2025-01-07 03:17:40.88	328.32	18.65	
2025-01-07 03:17:41.09	328.26	18.66	
2025-01-07 03:17:41.29	328.21	18.67	
2025-01-07 03:17:41.50	328.15	18.67	
2025-01-07 03:17:41.70	328.10	18.68	
2025-01-07 03:17:41.91	328.04	18.69	
2025-01-07 03:17:42.11	327.99	18.69	
2025-01-07 03:17:42.32	327.93	18.70	
2025-01-07 03:17:42.53	327.87	18.71	
2025-01-07 03:17:42.73	327.82	18.71	
2025-01-07 03:17:42.94	327.76	18.72	
2025-01-07 03:17:43.14	327.71	18.73	
2025-01-07 03:17:43.35	327.65	18.73	
2025-01-07 03:17:43.55	327.60	18.74	
2025-01-07 03:17:43.76	327.54	18.75	
2025-01-07 03:17:43.96	327.49	18.75	
2025-01-07 03:17:44.17	327.43	18.76	
2025-01-07 03:17:44.37	327.38	18.77	
2025-01-07 03:17:44.58	327.32	18.77	
2025-01-07 03:17:44.78	327.26	18.78	
2025-01-07 03:17:44.99	327.21	18.79	
2025-01-07 03:17:45.19	327.15	18.79	
2025-01-07 03:17:45.40	327.10	18.80	
2025-01-07 03:17:45.60	327.04	18.81	
2025-01-07 03:17:45.81	326.98	18.81	
2025-01-07 03:17:46.01	326.93	18.82	
2025-01-07 03:17:46.22	326.87	18.83	
2025-01-07 03:17:46.42	326.82	18.83	
2025-01-07 03:17:46.63	326.76	18.84	
2025-01-07 03:17:46.84	326.70	18.85	
2025-01-07 03:17:47.04	326.65	18.85	
2025-01-07 03:17:47.25	326.59	18.86	
2025-01-07 03:17:47.45	326.54	18.86	
2025-01-07 03:17:47.66	326.48	18.87	
2025-01-07 03:17:47.86	326.43	18.88	
2025-01-07 03:17:48.07	326.37	18.88	
2025-01-07 03:17:48.27	326.31	18.89	
2025-01-07 03:17:48.48	326.26	18.90	
2025-01-07 03:17:48.69	326.20	18.90	
2025-01-07 03:17:48.89	326.14	18.91	
2025-01-07 03:17:49.10	326.09	18.91	
2025-01-07 03:17:49.30	326.03	18.92	
2025-01-07 03:17:49.51	325.97	18.93	
2025-01-07 03:17:49.71	325.92	18.93	
2025-01-07 03:17:49.92	325.86	18.94	
2025-01-07 03:17:50.12	325.81	18.94	
2025-01-07 03:17:50.33	325.75	18.95	
2025-01-07 03:17:50.53	325.69	18.96	
2025-01-07 03:17:50.74	325.64	18.96	
2025-01-07 03:17:50.94	325.58	18.97	
2025-01-07 03:17:51.15	325.52	18.97	
2025-01-07 03:17:51.35	325.47	18.98	
2025-01-07 03:17:51.56	325.41	18.98	
2025-01-07 03:17:51.77	325.35	18.99	
2025-01-07 03:17:51.97	325.30	19.00	
2025-01-07 03:17:52.18	325.24	19.00	
2025-01-07 03:17:52.38	325.18	19.01	
2025-01-07 03:17:52.59	325.13	19.01	
2025-01-07 03:17:52.79	325.07	19.02	
2025-01-07 03:17:53.00	325.01	19.02	
2025-01-07 03:17:53.20	324.96	19.03	
2025-01-07 03:17:53.41	324.90	19.04	
2025-01-07 03:17:53.62	324.84	19.04	
2025-01-07 03:17:53.82	324.79	19.05	
2025-01-07 03:17:54.03	324.73	19.05	
2025-01-07 03:17:54.24	324.67	19.06	
2025-01-07 03:17:54.44	324.61	19.06	
2025-01-07 03:17:54.65	324.56	19.07	
2025-01-07 03:17:54.85	324.50	19.07	
2025-01-07 03:17:55.06	324.44	19.08	
2025-01-07 03:17:55.27	324.38	19.08	
2025-01-07 03:17:55.47	324.33	19.09	
2025-01-07 03:17:55.67	324.27	19.09	
2025-01-07 03:17:55.88	324.21	19.10	
2025-01-07 03:17:56.08	324.16	19.10	
2025-01-07 03:17:56.29	324.10	19.11	
2025-01-07 03:17:56.49	324.05	19.11	
2025-01-07 03:17:56.70	323.99	19.12	
2025-01-07 03:17:56.90	323.93	19.12	
2025-01-07 03:17:57.11	323.87	19.13	
2025-01-07 03:17:57.31	323.82	19.13	
2025-01-07 03:17:57.52	323.76	19.14	
2025-01-07 03:17:57.72	323.70	19.14	
2025-01-07 03:17:57.93	323.64	19.15	
2025-01-07 03:17:58.13	323.59	19.15	
2025-01-07 03:17:58.34	323.53	19.16	
2025-01-07 03:17:58.54	323.47	19.16	
2025-01-07 03:17:58.75	323.42	19.17	
2025-01-07 03:17:58.95	323.36	19.17	
2025-01-07 03:17:59.16	323.30	19.18	
2025-01-07 03:17:59.36	323.25	19.18	
2025-01-07 03:17:59.57	323.19	19.19	
2025-01-07 03:17:59.77	323.13	19.19	
2025-01-07 03:17:59.98	323.07	19.20	
2025-01-07 03:18:00.18	323.02	19.20	
2025-01-07 03:18:00.39	322.96	19.21	
2025-01-07 03:18:00.59	322.90	19.21	
2025-01-07 03:18:00.80	322.84	19.22	
2025-01-07 03:18:01.00	322.79	19.22	
2025-01-07 03:18:01.21	322.73	19.22	
2025-01-07 03:18:01.41	322.67	19.23	
2025-01-07 03:18:01.62	322.61	19.23	
2025-01-07 03:18:01.82	322.56	19.24	
2025-01-07 03:18:02.03	322.50	19.24	
2025-01-07 03:18:02.23	322.44	19.25	
2025-01-07 03:18:02.44	322.38	19.25	
2025-01-07 03:18:02.64	322.33	19.26	
2025-01-07 03:18:02.85	322.27	19.26	
2025-01-07 03:18:03.05	322.21	19.26	
2025-01-07 03:18:03.26	322.15	19.27	
2025-01-07 03:18:03.46	322.10	19.27	
2025-01-07 03:18:03.67	322.04	19.28	
2025-01-07 03:18:03.87	321.98	19.28	
2025-01-07 03:18:04.08	321.92	19.28	
2025-01-07 03:18:04.28	321.87	19.29	
2025-01-07 03:18:04.49	321.81	19.29	
2025-01-07 03:18:04.69	321.75	19.30	
2025-01-07 03:18:04.90	321.69	19.30	
2025-01-07 03:18:05.10	321.63	19.30	
2025-01-07 03:18:05.31	321.58	19.31	
2025-01-07 03:18:05.51	321.52	19.31	
2025-01-07 03:18:05.72	321.46	19.32	
2025-01-07 03:18:05.93	321.40	19.32	
2025-01-07 03:18:06.13	321.34	19.32	
2025-01-07 03:18:06.34	321.28	19.33	
2025-01-07 03:18:06.54	321.23	19.33	
2025-01-07 03:18:06.75	321.17	19.33	
2025-01-07 03:18:06.95	321.11	19.34	
2025-01-07 03:18:07.15	321.06	19.34	
2025-01-07 03:18:07.36	321.00	19.35	
2025-01-07 03:18:07.56	320.94	19.35	
2025-01-07 03:18:07.77	320.88	19.35	
2025-01-07 03:18:07.97	320.82	19.36	
2025-01-07 03:18:08.18	320.76	19.36	
2025-01-07 03:18:08.38	320.71	19.36	
2025-01-07 03:18:08.59	320.65	19.37	
2025-01-07 03:18:08.80	320.59	19.37	
2025-01-07 03:18:09.00	320.53	19.37	
2025-01-07 03:18:09.20	320.48	19.38	
2025-01-07 03:18:09.41	320.42	19.38	
2025-01-07 03:18:09.61	320.36	19.38	
2025-01-07 03:18:09.82	320.30	19.39	
2025-01-07 03:18:10.02	320.24	19.39	
2025-01-07 03:18:10.23	320.18	19.39	
2025-01-07 03:18:10.43	320.13	19.40	
2025-01-07 03:18:10.64	320.07	19.40	
2025-01-07 03:18:10.84	320.01	19.40	
2025-01-07 03:18:11.05	319.95	19.41	
2025-01-07 03:18:11.26	319.89	19.41	
2025-01-07 03:18:11.46	319.83	19.41	
2025-01-07 03:18:11.67	319.78	19.42	
2025-01-07 03:18:11.87	319.72	19.42	
2025-01-07 03:18:12.08	319.66	19.42	
2025-01-07 03:18:12.28	319.60	19.42	
2025-01-07 03:18:12.48	319.55	19.43	
2025-01-07 03:18:12.69	319.49	19.43	
2025-01-07 03:18:12.89	319.43	19.43	
2025-01-07 03:18:13.09	319.37	19.44	
2025-01-07 03:18:13.30	319.31	19.44	
2025-01-07 03:18:13.51	319.25	19.44	
2025-01-07 03:18:13.71	319.20	19.44	
2025-01-07 03:18:13.91	319.14	19.45	
2025-01-07 03:18:14.12	319.08	19.45	
2025-01-07 03:18:14.33	319.02	19.45	
2025-01-07 03:18:14.53	318.96	19.45	
2025-01-07 03:18:14.73	318.90	19.46	
2025-01-07 03:18:14.94	318.84	19.46	
2025-01-07 03:18:15.14	318.79	19.46	
2025-01-07 03:18:15.35	318.73	19.46	
2025-01-07 03:18:15.55	318.67	19.47	
2025-01-07 03:18:15.76	318.61	19.47	
2025-01-07 03:18:15.96	318.55	19.47	
2025-01-07 03:18:16.17	318.49	19.47	
2025-01-07 03:18:16.37	318.44	19.48	
2025-01-07 03:18:16.58	318.38	19.48	
2025-01-07 03:18:16.78	318.32	19.48	
2025-01-07 03:18:16.99	318.26	19.48	
2025-01-07 03:18:17.20	318.20	19.49	
2025-01-07 03:18:17.40	318.14	19.49	
2025-01-07 03:18:17.61	318.08	19.49	
2025-01-07 03:18:17.81	318.03	19.49	
2025-01-07 03:18:18.02	317.97	19.49	
2025-01-07 03:18:18.22	317.91	19.50	
2025-01-07 03:18:18.43	317.85	19.50	
2025-01-07 03:18:18.64	317.79	19.50	
2025-01-07 03:18:18.84	317.73	19.50	
2025-01-07 03:18:19.04	317.67	19.50	
2025-01-07 03:18:19.25	317.61	19.51	
2025-01-07 03:18:19.46	317.55	19.51	
2025-01-07 03:18:19.66	317.50	19.51	
2025-01-07 03:18:19.87	317.44	19.51	
2025-01-07 03:18:20.07	317.38	19.51	
2025-01-07 03:18:20.27	317.32	19.52	
2025-01-07 03:18:20.48	317.26	19.52	
2025-01-07 03:18:20.69	317.20	19.52	
2025-01-07 03:18:20.89	317.15	19.52	
2025-01-07 03:18:21.10	317.09	19.52	
2025-01-07 03:18:21.30	317.03	19.52	
2025-01-07 03:18:21.51	316.97	19.53	
2025-01-07 03:18:21.71	316.91	19.53	
2025-01-07 03:18:21.92	316.85	19.53	
2025-01-07 03:18:22.12	316.79	19.53	
2025-01-07 03:18:22.33	316.73	19.53	
2025-01-07 03:18:22.53	316.68	19.53	
2025-01-07 03:18:22.74	316.62	19.53	
2025-01-07 03:18:22.94	316.56	19.54	
2025-01-07 03:18:23.15	316.50	19.54	
2025-01-07 03:18:23.36	316.44	19.54	
2025-01-07 03:18:23.56	316.38	19.54	
2025-01-07 03:18:23.77	316.32	19.54	
2025-01-07 03:18:23.97	316.26	19.54	
2025-01-07 03:18:24.18	316.20	19.54	
2025-01-07 03:18:24.39	316.14	19.54	
2025-01-07 03:18:24.60	316.08	19.55	
2025-01-07 03:18:24.81	316.02	19.55	
2025-01-07 03:18:25.01	315.97	19.55	
2025-01-07 03:18:25.22	315.91	19.55	
2025-01-07 03:18:25.42	315.85	19.55	
2025-01-07 03:18:25.63	315.79	19.55	
2025-01-07 03:18:25.83	315.73	19.55	
2025-01-07 03:18:26.04	315.67	19.55	
2025-01-07 03:18:26.24	315.61	19.55	
2025-01-07 03:18:26.45	315.55	19.55	
2025-01-07 03:18:26.65	315.49	19.56	
2025-01-07 03:18:26.86	315.43	19.56	
2025-01-07 03:18:27.06	315.38	19.56	
2025-01-07 03:18:27.27	315.32	19.56	
2025-01-07 03:18:27.47	315.26	19.56	
2025-01-07 03:18:27.67	315.20	19.56	
2025-01-07 03:18:27.88	315.14	19.56	
2025-01-07 03:18:28.09	315.08	19.56	
2025-01-07 03:18:28.29	315.02	19.56	
2025-01-07 03:18:28.50	314.96	19.56	
2025-01-07 03:18:28.70	314.91	19.56	
2025-01-07 03:18:28.90	314.85	19.56	
2025-01-07 03:18:29.11	314.79	19.56	
2025-01-07 03:18:29.32	314.73	19.56	
2025-01-07 03:18:29.52	314.67	19.56	
2025-01-07 03:18:29.74	314.61	19.56	
2025-01-07 03:18:29.94	314.55	19.56	
2025-01-07 03:18:30.15	314.49	19.57	
2025-01-07 03:18:30.36	314.43	19.57	
2025-01-07 03:18:30.56	314.37	19.57	
2025-01-07 03:18:30.78	314.31	19.57	
2025-01-07 03:18:30.99	314.25	19.57	
2025-01-07 03:18:31.19	314.19	19.57	
2025-01-07 03:18:31.40	314.13	19.57	
2025-01-07 03:18:31.60	314.07	19.57	
2025-01-07 03:18:31.81	314.01	19.57	
2025-01-07 03:18:32.01	313.96	19.57	
2025-01-07 03:18:32.22	313.90	19.57	
2025-01-07 03:18:32.42	313.84	19.57	
2025-01-07 03:18:32.63	313.78	19.57	
2025-01-07 03:18:32.83	313.72	19.57	
2025-01-07 03:18:33.03	313.66	19.57	
2025-01-07 03:18:33.24	313.60	19.57	
2025-01-07 03:18:33.44	313.55	19.57	
2025-01-07 03:18:33.65	313.49	19.57	
2025-01-07 03:18:33.87	313.42	19.57	
2025-01-07 03:18:34.07	313.36	19.57	
2025-01-07 03:18:34.28	313.30	19.57	
2025-01-07 03:18:34.48	313.25	19.57	
2025-01-07 03:18:34.69	313.19	19.56	
2025-01-07 03:18:34.89	313.13	19.56	
2025-01-07 03:18:35.10	313.07	19.56	
2025-01-07 03:18:35.30	313.01	19.56	
2025-01-07 03:18:35.51	312.95	19.56	
2025-01-07 03:18:35.71	312.89	19.56	
2025-01-07 03:18:35.92	312.83	19.56	
2025-01-07 03:18:36.13	312.77	19.56	
2025-01-07 03:18:36.34	312.71	19.56	
2025-01-07 03:18:36.54	312.66	19.56	
2025-01-07 03:18:36.75	312.60	19.56	
2025-01-07 03:18:36.96	312.53	19.56	
2025-01-07 03:18:37.16	312.48	19.56	
2025-01-07 03:18:37.36	312.42	19.56	
2025-01-07 03:18:37.57	312.36	19.56	
2025-01-07 03:18:37.78	312.30	19.56	
2025-01-07 03:18:37.98	312.24	19.56	
2025-01-07 03:18:38.19	312.18	19.55	
2025-01-07 03:18:38.39	312.12	19.55	
2025-01-07 03:18:38.60	312.06	19.55	
2025-01-07 03:18:38.80	312.01	19.55	
2025-01-07 03:18:39.01	311.95	19.55	
2025-01-07 03:18:39.21	311.89	19.55	
2025-01-07 03:18:39.42	311.83	19.55	
2025-01-07 03:18:39.62	311.77	19.55	
2025-01-07 03:18:39.83	311.71	19.55	
2025-01-07 03:18:40.03	311.65	19.55	
2025-01-07 03:18:40.24	311.59	19.54	
2025-01-07 03:18:40.44	311.54	19.54	
2025-01-07 03:18:40.65	311.48	19.54	
2025-01-07 03:18:40.85	311.42	19.54	
2025-01-07 03:18:41.06	311.36	19.54	
2025-01-07 03:18:41.26	311.30	19.54	
2025-01-07 03:18:41.48	311.24	19.54	
2025-01-07 03:18:41.68	311.18	19.53	
2025-01-07 03:18:41.89	311.12	19.53	
2025-01-07 03:18:42.09	311.06	19.53	
2025-01-07 03:18:42.30	311.00	19.53	
2025-01-07 03:18:42.50	310.95	19.53	
2025-01-07 03:18:42.71	310.89	19.53	
2025-01-07 03:18:42.91	310.83	19.53	
2025-01-07 03:18:43.12	310.77	19.52	
2025-01-07 03:18:43.33	310.71	19.52	
2025-01-07 03:18:43.53	310.65	19.52	
2025-01-07 03:18:43.73	310.59	19.52	
2025-01-07 03:18:43.94	310.53	19.52	
2025-01-07 03:18:44.15	310.47	19.52	
2025-01-07 03:18:44.35	310.42	19.51	
2025-01-07 03:18:44.56	310.36	19.51	
2025-01-07 03:18:44.76	310.30	19.51	
2025-01-07 03:18:44.97	310.24	19.51	
2025-01-07 03:18:45.17	310.18	19.51	
2025-01-07 03:18:45.38	310.12	19.51	
2025-01-07 03:18:45.58	310.06	19.50	
2025-01-07 03:18:45.79	310.00	19.50	
2025-01-07 03:18:45.99	309.95	19.50	
2025-01-07 03:18:46.20	309.89	19.50	
2025-01-07 03:18:46.40	309.83	19.50	
2025-01-07 03:18:46.61	309.77	19.49	
2025-01-07 03:18:46.81	309.71	19.49	
2025-01-07 03:18:47.02	309.65	19.49	
2025-01-07 03:18:47.22	309.60	19.49	
2025-01-07 03:18:47.43	309.54	19.48	
2025-01-07 03:18:47.63	309.48	19.48	
2025-01-07 03:18:47.85	309.42	19.48	
2025-01-07 03:18:48.05	309.36	19.48	
2025-01-07 03:18:48.26	309.30	19.48	
2025-01-07 03:18:48.46	309.24	19.47	
2025-01-07 03:18:48.67	309.18	19.47	
2025-01-07 03:18:48.87	309.12	19.47	
2025-01-07 03:18:49.08	309.06	19.47	
2025-01-07 03:18:49.28	309.01	19.46	
2025-01-07 03:18:49.49	308.95	19.46	
2025-01-07 03:18:49.69	308.89	19.46	
2025-01-07 03:18:49.90	308.83	19.46	
2025-01-07 03:18:50.10	308.77	19.45	
2025-01-07 03:18:50.31	308.71	19.45	
2025-01-07 03:18:50.51	308.66	19.45	
2025-01-07 03:18:50.72	308.60	19.44	
2025-01-07 03:18:50.92	308.54	19.44	
2025-01-07 03:18:51.13	308.48	19.44	
2025-01-07 03:18:51.33	308.42	19.44	
2025-01-07 03:18:51.54	308.36	19.43	
2025-01-07 03:18:51.74	308.31	19.43	
2025-01-07 03:18:51.95	308.25	19.43	
2025-01-07 03:18:52.15	308.19	19.43	
2025-01-07 03:18:52.36	308.13	19.42	
2025-01-07 03:18:52.57	308.07	19.42	
2025-01-07 03:18:52.77	308.01	19.42	
2025-01-07 03:18:52.98	307.95	19.41	
2025-01-07 03:18:53.18	307.90	19.41	
2025-01-07 03:18:53.39	307.84	19.41	
2025-01-07 03:18:53.59	307.78	19.40	
2025-01-07 03:18:53.80	307.72	19.40	
2025-01-07 03:18:54.00	307.66	19.40	
2025-01-07 03:18:54.20	307.61	19.39	
2025-01-07 03:18:54.41	307.55	19.39	
2025-01-07 03:18:54.62	307.49	19.39	
2025-01-07 03:18:54.82	307.43	19.38	
2025-01-07 03:18:55.03	307.37	19.38	
2025-01-07 03:18:55.23	307.31	19.38	
2025-01-07 03:18:55.44	307.26	19.37	
2025-01-07 03:18:55.64	307.20	19.37	
2025-01-07 03:18:55.85	307.14	19.37	
2025-01-07 03:18:56.05	307.08	19.36	
2025-01-07 03:18:56.26	307.02	19.36	
2025-01-07 03:18:56.46	306.97	19.36	
2025-01-07 03:18:56.67	306.91	19.35	
2025-01-07 03:18:56.87	306.85	19.35	
2025-01-07 03:18:57.08	306.79	19.35	
2025-01-07 03:18:57.28	306.73	19.34	
2025-01-07 03:18:57.50	306.67	19.34	
2025-01-07 03:18:57.71	306.61	19.34	
2025-01-07 03:18:57.91	306.56	19.33	
2025-01-07 03:18:58.12	306.50	19.33	
2025-01-07 03:18:58.33	306.44	19.32	
2025-01-07 03:18:58.53	306.38	19.32	
2025-01-07 03:18:58.74	306.32	19.32	
2025-01-07 03:18:58.94	306.27	19.31	
2025-01-07 03:18:59.14	306.21	19.31	
2025-01-07 03:18:59.35	306.15	19.31	
2025-01-07 03:18:59.55	306.09	19.30	
2025-01-07 03:18:59.76	306.03	19.30	
2025-01-07 03:18:59.96	305.98	19.29	
2025-01-07 03:19:00.18	305.92	19.29	
2025-01-07 03:19:00.39	305.86	19.29	
2025-01-07 03:19:00.59	305.80	19.28	
2025-01-07 03:19:00.79	305.74	19.28	
2025-01-07 03:19:01.00	305.68	19.27	
2025-01-07 03:19:01.21	305.63	19.27	
2025-01-07 03:19:01.41	305.57	19.26	
2025-01-07 03:19:01.62	305.51	19.26	
2025-01-07 03:19:01.82	305.45	19.26	
2025-01-07 03:19:02.03	305.39	19.25	
2025-01-07 03:19:02.23	305.34	19.25	
2025-01-07 03:19:02.44	305.28	19.24	
2025-01-07 03:19:02.64	305.22	19.24	
2025-01-07 03:19:02.85	305.16	19.23	
2025-01-07 03:19:03.05	305.11	19.23	
2025-01-07 03:19:03.26	305.05	19.23	
2025-01-07 03:19:03.46	304.99	19.22	
2025-01-07 03:19:03.67	304.93	19.22	
2025-01-07 03:19:03.87	304.88	19.21	
2025-01-07 03:19:04.08	304.82	19.21	
2025-01-07 03:19:04.28	304.76	19.20	
2025-01-07 03:19:04.49	304.70	19.20	
2025-01-07 03:19:04.69	304.65	19.19	
2025-01-07 03:19:04.90	304.59	19.19	
2025-01-07 03:19:05.10	304.53	19.18	
2025-01-07 03:19:05.31	304.47	19.18	
2025-01-07 03:19:05.51	304.42	19.17	
2025-01-07 03:19:05.72	304.36	19.17	
2025-01-07 03:19:05.92	304.30	19.17	
2025-01-07 03:19:06.13	304.25	19.16	
2025-01-07 03:19:06.33	304.19	19.16	
2025-01-07 03:19:06.54	304.13	19.15	
2025-01-07 03:19:06.75	304.07	19.15	
2025-01-07 03:19:06.95	304.02	19.14	
2025-01-07 03:19:07.16	303.96	19.14	
2025-01-07 03:19:07.36	303.90	19.13	
2025-01-07 03:19:07.57	303.84	19.13	
2025-01-07 03:19:07.77	303.79	19.12	
2025-01-07 03:19:07.97	303.73	19.12	
2025-01-07 03:19:08.19	303.67	19.11	
2025-01-07 03:19:08.40	303.61	19.10	
2025-01-07 03:19:08.60	303.56	19.10	
2025-01-07 03:19:08.81	303.50	19.09	
2025-01-07 03:19:09.01	303.44	19.09	
2025-01-07 03:19:09.22	303.38	19.08	
2025-01-07 03:19:09.42	303.33	19.08	
2025-01-07 03:19:09.63	303.27	19.07	
2025-01-07 03:19:09.83	303.21	19.07	
2025-01-07 03:19:10.04	303.16	19.06	
2025-01-07 03:19:10.24	303.10	19.06	
2025-01-07 03:19:10.45	303.04	19.05	
2025-01-07 03:19:10.65	302.99	19.05	
2025-01-07 03:19:10.85	302.93	19.04	
2025-01-07 03:19:11.06	302.87	19.04	
2025-01-07 03:19:11.26	302.82	19.03	
2025-01-07 03:19:11.47	302.76	19.02	
2025-01-07 03:19:11.67	302.70	19.02	
2025-01-07 03:19:11.88	302.65	19.01	
2025-01-07 03:19:12.08	302.59	19.01	
2025-01-07 03:19:12.29	302.53	19.00	
2025-01-07 03:19:12.51	302.47	19.00	
2025-01-07 03:19:12.71	302.42	18.99	
2025-01-07 03:19:12.91	302.36	18.99	
2025-01-07 03:19:13.12	302.30	18.98	
2025-01-07 03:19:13.33	302.25	18.97	
2025-01-07 03:19:13.54	302.19	18.97	
2025-01-07 03:19:13.75	302.13	18.96	
2025-01-07 03:19:13.95	302.08	18.96	
2025-01-07 03:19:14.16	302.02	18.95	
2025-01-07 03:19:14.37	301.96	18.94	
2025-01-07 03:19:14.57	301.90	18.94	
2025-01-07 03:19:14.77	301.85	18.93	
2025-01-07 03:19:14.98	301.79	18.93	
2025-01-07 03:19:15.18	301.74	18.92	
2025-01-07 03:19:15.39	301.68	18.91	
2025-01-07 03:19:15.59	301.62	18.91	
2025-01-07 03:19:15.80	301.57	18.90	
2025-01-07 03:19:16.01	301.51	18.90	
2025-01-07 03:19:16.21	301.45	18.89	
2025-01-07 03:19:16.42	301.40	18.88	
2025-01-07 03:19:16.62	301.34	18.88	
2025-01-07 03:19:16.82	301.29	18.87	
2025-01-07 03:19:17.03	301.23	18.86	
2025-01-07 03:19:17.23	301.17	18.86	
