passes_logs/2025/01/07/SPB_Silybum_02/SPB_Silybum_02__20250107_105557_SUOMI_NPP_rec.log

#Pass ID: 20250107_105557_SUOMI NPP
#Satellite: SUOMI NPP
#Configuration: NPP
#Start time: 2025-01-07 11:00:32

#Version: 2.0.20230423
#Station: SPB_Silybum_02
#Location: 30.233357 lon 59.946436 lat
#TLE: 1 37849U 11061A   25006.81407247  .00000291  00000+0  15897-3 0  9990
#TLE: 2 37849  98.7438 307.9068 0001960  53.3600 306.7756 14.19534214683755

#Time	Az	El	Level	Level2	SNR	BER	Gain	Gain2
2025-01-07 11:00:34.03	202.76	35.02	
2025-01-07 11:00:34.24	202.81	35.06	
2025-01-07 11:00:34.45	202.86	35.10	
2025-01-07 11:00:34.65	202.90	35.14	
2025-01-07 11:00:34.86	202.95	35.18	
2025-01-07 11:00:35.06	203.00	35.22	
2025-01-07 11:00:35.27	203.05	35.26	
2025-01-07 11:00:35.47	203.10	35.29	
2025-01-07 11:00:35.68	203.14	35.33	
2025-01-07 11:00:35.88	203.19	35.37	
2025-01-07 11:00:36.09	203.24	35.41	
2025-01-07 11:00:36.30	203.29	35.45	
2025-01-07 11:00:36.50	203.34	35.49	
2025-01-07 11:00:36.71	203.39	35.52	
2025-01-07 11:00:36.91	203.43	35.56	
2025-01-07 11:00:37.12	203.48	35.60	
2025-01-07 11:00:37.32	203.53	35.64	
2025-01-07 11:00:37.53	203.58	35.68	
2025-01-07 11:00:37.73	203.63	35.72	
2025-01-07 11:00:37.94	203.68	35.76	
2025-01-07 11:00:38.14	203.73	35.79	
2025-01-07 11:00:38.35	203.78	35.83	
2025-01-07 11:00:38.55	203.83	35.87	
2025-01-07 11:00:38.76	203.88	35.91	
2025-01-07 11:00:38.96	203.93	35.95	
2025-01-07 11:00:39.17	203.98	35.99	
2025-01-07 11:00:39.38	204.03	36.03	
2025-01-07 11:00:39.58	204.08	36.07	
2025-01-07 11:00:39.79	204.13	36.11	
2025-01-07 11:00:39.99	204.18	36.14	
2025-01-07 11:00:40.20	204.23	36.18	
2025-01-07 11:00:40.40	204.28	36.22	
2025-01-07 11:00:40.61	204.33	36.26	
2025-01-07 11:00:40.81	204.38	36.30	
2025-01-07 11:00:41.02	204.43	36.34	
2025-01-07 11:00:41.23	204.48	36.38	
2025-01-07 11:00:41.44	204.54	36.42	
2025-01-07 11:00:41.64	204.59	36.46	
2025-01-07 11:00:41.85	204.64	36.50	
2025-01-07 11:00:42.05	204.69	36.54	
2025-01-07 11:00:42.26	204.74	36.58	
2025-01-07 11:00:42.46	204.79	36.61	
2025-01-07 11:00:42.67	204.85	36.65	
2025-01-07 11:00:42.88	204.90	36.69	
2025-01-07 11:00:43.08	204.95	36.73	
2025-01-07 11:00:43.29	205.00	36.77	
2025-01-07 11:00:43.49	205.06	36.81	
2025-01-07 11:00:43.70	205.11	36.85	
2025-01-07 11:00:43.90	205.16	36.89	
2025-01-07 11:00:44.11	205.21	36.93	
2025-01-07 11:00:44.33	205.27	36.97	
2025-01-07 11:00:44.53	205.32	37.01	
2025-01-07 11:00:44.74	205.38	37.05	
2025-01-07 11:00:44.94	205.43	37.09	
2025-01-07 11:00:45.15	205.48	37.13	
2025-01-07 11:00:45.35	205.54	37.17	
2025-01-07 11:00:45.56	205.59	37.21	
2025-01-07 11:00:45.76	205.64	37.25	
2025-01-07 11:00:45.97	205.70	37.29	
2025-01-07 11:00:46.17	205.75	37.33	
2025-01-07 11:00:46.38	205.81	37.37	
2025-01-07 11:00:46.58	205.86	37.40	
2025-01-07 11:00:46.79	205.92	37.44	
2025-01-07 11:00:47.00	205.97	37.49	
2025-01-07 11:00:47.20	206.02	37.52	
2025-01-07 11:00:47.41	206.08	37.56	
2025-01-07 11:00:47.61	206.13	37.60	
2025-01-07 11:00:47.82	206.19	37.64	
2025-01-07 11:00:48.03	206.25	37.68	
2025-01-07 11:00:48.23	206.30	37.72	
2025-01-07 11:00:48.44	206.36	37.76	
2025-01-07 11:00:48.64	206.41	37.80	
2025-01-07 11:00:48.84	206.47	37.84	
2025-01-07 11:00:49.05	206.52	37.88	
2025-01-07 11:00:49.26	206.58	37.92	
2025-01-07 11:00:49.46	206.64	37.96	
2025-01-07 11:00:49.67	206.69	38.00	
2025-01-07 11:00:49.87	206.75	38.04	
2025-01-07 11:00:50.08	206.81	38.08	
2025-01-07 11:00:50.28	206.86	38.12	
2025-01-07 11:00:50.49	206.92	38.16	
2025-01-07 11:00:50.69	206.98	38.20	
2025-01-07 11:00:50.90	207.03	38.24	
2025-01-07 11:00:51.10	207.09	38.28	
2025-01-07 11:00:51.31	207.15	38.32	
2025-01-07 11:00:51.51	207.21	38.36	
2025-01-07 11:00:51.72	207.26	38.40	
2025-01-07 11:00:51.92	207.32	38.44	
2025-01-07 11:00:52.13	207.38	38.48	
2025-01-07 11:00:52.33	207.44	38.52	
2025-01-07 11:00:52.54	207.50	38.56	
2025-01-07 11:00:52.74	207.55	38.60	
2025-01-07 11:00:52.95	207.61	38.64	
2025-01-07 11:00:53.15	207.67	38.68	
2025-01-07 11:00:53.36	207.73	38.72	
2025-01-07 11:00:53.56	207.79	38.76	
2025-01-07 11:00:53.77	207.85	38.80	
2025-01-07 11:00:53.97	207.91	38.84	
2025-01-07 11:00:54.18	207.97	38.88	
2025-01-07 11:00:54.39	208.03	38.92	
2025-01-07 11:00:54.59	208.09	38.96	
2025-01-07 11:00:54.80	208.15	39.00	
2025-01-07 11:00:55.00	208.21	39.04	
2025-01-07 11:00:55.21	208.27	39.08	
2025-01-07 11:00:55.42	208.33	39.12	
2025-01-07 11:00:55.62	208.39	39.16	
2025-01-07 11:00:55.83	208.45	39.21	
2025-01-07 11:00:56.03	208.51	39.24	
2025-01-07 11:00:56.24	208.57	39.29	
2025-01-07 11:00:56.44	208.63	39.32	
2025-01-07 11:00:56.65	208.69	39.37	
2025-01-07 11:00:56.85	208.75	39.41	
2025-01-07 11:00:57.06	208.82	39.45	
2025-01-07 11:00:57.26	208.88	39.49	
2025-01-07 11:00:57.47	208.94	39.53	
2025-01-07 11:00:57.67	209.00	39.57	
2025-01-07 11:00:57.88	209.06	39.61	
2025-01-07 11:00:58.08	209.12	39.65	
2025-01-07 11:00:58.29	209.19	39.69	
2025-01-07 11:00:58.49	209.25	39.73	
2025-01-07 11:00:58.70	209.31	39.77	
2025-01-07 11:00:58.90	209.37	39.81	
2025-01-07 11:00:59.11	209.44	39.85	
2025-01-07 11:00:59.33	209.51	39.89	
2025-01-07 11:00:59.53	209.57	39.93	
2025-01-07 11:00:59.74	209.63	39.97	
2025-01-07 11:00:59.94	209.69	40.01	
2025-01-07 11:01:00.15	209.76	40.06	
2025-01-07 11:01:00.35	209.82	40.09	
2025-01-07 11:01:00.55	209.88	40.13	
2025-01-07 11:01:00.76	209.95	40.18	
2025-01-07 11:01:00.97	210.02	40.22	
2025-01-07 11:01:01.17	210.08	40.26	
2025-01-07 11:01:01.37	210.14	40.30	
2025-01-07 11:01:01.58	210.21	40.34	
2025-01-07 11:01:01.78	210.27	40.38	
2025-01-07 11:01:01.99	210.34	40.42	
2025-01-07 11:01:02.20	210.41	40.46	
2025-01-07 11:01:02.40	210.47	40.50	
2025-01-07 11:01:02.61	210.54	40.54	
2025-01-07 11:01:02.81	210.60	40.58	
2025-01-07 11:01:03.02	210.67	40.62	
2025-01-07 11:01:03.22	210.73	40.66	
2025-01-07 11:01:03.42	210.80	40.70	
2025-01-07 11:01:03.63	210.87	40.74	
2025-01-07 11:01:03.84	210.93	40.78	
2025-01-07 11:01:04.04	211.00	40.82	
2025-01-07 11:01:04.25	211.07	40.87	
2025-01-07 11:01:04.45	211.13	40.90	
2025-01-07 11:01:04.65	211.20	40.94	
2025-01-07 11:01:04.86	211.27	40.99	
2025-01-07 11:01:05.06	211.33	41.03	
2025-01-07 11:01:05.27	211.40	41.07	
2025-01-07 11:01:05.48	211.47	41.11	
2025-01-07 11:01:05.68	211.54	41.15	
2025-01-07 11:01:05.88	211.61	41.19	
2025-01-07 11:01:06.09	211.68	41.23	
2025-01-07 11:01:06.29	211.74	41.27	
2025-01-07 11:01:06.50	211.81	41.31	
2025-01-07 11:01:06.70	211.88	41.35	
2025-01-07 11:01:06.91	211.95	41.39	
2025-01-07 11:01:07.11	212.02	41.43	
2025-01-07 11:01:07.32	212.09	41.47	
2025-01-07 11:01:07.52	212.16	41.51	
2025-01-07 11:01:07.73	212.23	41.55	
2025-01-07 11:01:07.93	212.30	41.59	
2025-01-07 11:01:08.14	212.37	41.63	
2025-01-07 11:01:08.34	212.44	41.67	
2025-01-07 11:01:08.55	212.51	41.72	
2025-01-07 11:01:08.75	212.58	41.76	
2025-01-07 11:01:08.96	212.65	41.80	
2025-01-07 11:01:09.16	212.72	41.84	
2025-01-07 11:01:09.37	212.79	41.88	
2025-01-07 11:01:09.57	212.86	41.92	
2025-01-07 11:01:09.78	212.94	41.96	
2025-01-07 11:01:09.98	213.01	42.00	
2025-01-07 11:01:10.19	213.08	42.04	
2025-01-07 11:01:10.39	213.15	42.08	
2025-01-07 11:01:10.60	213.22	42.12	
2025-01-07 11:01:10.80	213.29	42.16	
2025-01-07 11:01:11.01	213.37	42.20	
2025-01-07 11:01:11.22	213.44	42.24	
2025-01-07 11:01:11.42	213.51	42.28	
2025-01-07 11:01:11.63	213.59	42.32	
2025-01-07 11:01:11.83	213.66	42.36	
2025-01-07 11:01:12.04	213.74	42.41	
2025-01-07 11:01:12.24	213.81	42.44	
2025-01-07 11:01:12.45	213.88	42.49	
2025-01-07 11:01:12.65	213.96	42.53	
2025-01-07 11:01:12.86	214.03	42.57	
2025-01-07 11:01:13.06	214.10	42.61	
2025-01-07 11:01:13.27	214.18	42.65	
2025-01-07 11:01:13.47	214.25	42.69	
2025-01-07 11:01:13.68	214.33	42.73	
2025-01-07 11:01:13.88	214.40	42.77	
2025-01-07 11:01:14.08	214.48	42.81	
2025-01-07 11:01:14.29	214.56	42.85	
2025-01-07 11:01:14.50	214.63	42.89	
2025-01-07 11:01:14.70	214.71	42.93	
2025-01-07 11:01:14.91	214.78	42.97	
2025-01-07 11:01:15.11	214.86	43.01	
2025-01-07 11:01:15.32	214.94	43.05	
2025-01-07 11:01:15.52	215.01	43.09	
2025-01-07 11:01:15.73	215.09	43.13	
2025-01-07 11:01:15.93	215.17	43.17	
2025-01-07 11:01:16.14	215.25	43.21	
2025-01-07 11:01:16.34	215.32	43.25	
2025-01-07 11:01:16.55	215.40	43.29	
2025-01-07 11:01:16.76	215.48	43.33	
2025-01-07 11:01:16.96	215.56	43.37	
2025-01-07 11:01:17.17	215.64	43.41	
2025-01-07 11:01:17.39	215.72	43.46	
2025-01-07 11:01:17.59	215.80	43.50	
2025-01-07 11:01:17.80	215.88	43.54	
2025-01-07 11:01:18.00	215.96	43.58	
2025-01-07 11:01:18.21	216.04	43.62	
2025-01-07 11:01:18.41	216.11	43.66	
2025-01-07 11:01:18.62	216.20	43.70	
2025-01-07 11:01:18.83	216.28	43.74	
2025-01-07 11:01:19.03	216.35	43.78	
2025-01-07 11:01:19.24	216.44	43.82	
2025-01-07 11:01:19.44	216.52	43.86	
2025-01-07 11:01:19.65	216.60	43.90	
2025-01-07 11:01:19.85	216.68	43.94	
2025-01-07 11:01:20.06	216.76	43.98	
2025-01-07 11:01:20.26	216.84	44.02	
2025-01-07 11:01:20.47	216.92	44.06	
2025-01-07 11:01:20.67	217.00	44.10	
2025-01-07 11:01:20.88	217.09	44.14	
2025-01-07 11:01:21.09	217.17	44.18	
2025-01-07 11:01:21.29	217.25	44.22	
2025-01-07 11:01:21.50	217.33	44.26	
2025-01-07 11:01:21.70	217.41	44.30	
2025-01-07 11:01:21.91	217.50	44.34	
2025-01-07 11:01:22.11	217.58	44.38	
2025-01-07 11:01:22.32	217.67	44.42	
2025-01-07 11:01:22.52	217.75	44.46	
2025-01-07 11:01:22.73	217.83	44.50	
2025-01-07 11:01:22.93	217.91	44.54	
2025-01-07 11:01:23.14	218.00	44.58	
2025-01-07 11:01:23.34	218.08	44.61	
2025-01-07 11:01:23.55	218.17	44.66	
2025-01-07 11:01:23.75	218.25	44.69	
2025-01-07 11:01:23.96	218.34	44.73	
2025-01-07 11:01:24.16	218.42	44.77	
2025-01-07 11:01:24.37	218.51	44.81	
2025-01-07 11:01:24.57	218.59	44.85	
2025-01-07 11:01:24.78	218.68	44.89	
2025-01-07 11:01:24.98	218.76	44.93	
2025-01-07 11:01:25.19	218.85	44.97	
2025-01-07 11:01:25.39	218.94	45.01	
2025-01-07 11:01:25.60	219.03	45.05	
2025-01-07 11:01:25.80	219.11	45.09	
2025-01-07 11:01:26.01	219.20	45.13	
2025-01-07 11:01:26.21	219.28	45.16	
2025-01-07 11:01:26.42	219.37	45.20	
2025-01-07 11:01:26.63	219.46	45.24	
2025-01-07 11:01:26.83	219.55	45.28	
2025-01-07 11:01:27.05	219.64	45.32	
2025-01-07 11:01:27.26	219.73	45.36	
2025-01-07 11:01:27.46	219.82	45.40	
2025-01-07 11:01:27.67	219.91	45.44	
2025-01-07 11:01:27.87	220.00	45.48	
2025-01-07 11:01:28.09	220.09	45.52	
2025-01-07 11:01:28.30	220.18	45.56	
2025-01-07 11:01:28.50	220.27	45.60	
2025-01-07 11:01:28.70	220.36	45.64	
2025-01-07 11:01:28.91	220.45	45.68	
2025-01-07 11:01:29.11	220.54	45.71	
2025-01-07 11:01:29.32	220.63	45.75	
2025-01-07 11:01:29.53	220.73	45.79	
2025-01-07 11:01:29.73	220.81	45.83	
2025-01-07 11:01:29.94	220.91	45.87	
2025-01-07 11:01:30.14	221.00	45.91	
2025-01-07 11:01:30.34	221.09	45.94	
2025-01-07 11:01:30.55	221.18	45.98	
2025-01-07 11:01:30.76	221.27	46.02	
2025-01-07 11:01:30.96	221.36	46.06	
2025-01-07 11:01:31.16	221.45	46.10	
2025-01-07 11:01:31.37	221.55	46.14	
2025-01-07 11:01:31.58	221.64	46.18	
2025-01-07 11:01:31.78	221.73	46.21	
2025-01-07 11:01:31.99	221.83	46.25	
2025-01-07 11:01:32.19	221.92	46.29	
2025-01-07 11:01:32.40	222.02	46.33	
2025-01-07 11:01:32.60	222.11	46.36	
2025-01-07 11:01:32.81	222.21	46.40	
2025-01-07 11:01:33.01	222.30	46.44	
2025-01-07 11:01:33.22	222.39	46.48	
2025-01-07 11:01:33.43	222.49	46.52	
2025-01-07 11:01:33.63	222.58	46.55	
2025-01-07 11:01:33.84	222.68	46.59	
2025-01-07 11:01:34.04	222.78	46.63	
2025-01-07 11:01:34.25	222.87	46.67	
2025-01-07 11:01:34.45	222.97	46.70	
2025-01-07 11:01:34.66	223.07	46.74	
2025-01-07 11:01:34.87	223.16	46.78	
2025-01-07 11:01:35.07	223.26	46.82	
2025-01-07 11:01:35.27	223.35	46.85	
2025-01-07 11:01:35.48	223.45	46.89	
2025-01-07 11:01:35.68	223.55	46.93	
2025-01-07 11:01:35.89	223.65	46.96	
2025-01-07 11:01:36.09	223.74	47.00	
2025-01-07 11:01:36.30	223.84	47.04	
2025-01-07 11:01:36.50	223.94	47.07	
2025-01-07 11:01:36.71	224.04	47.11	
2025-01-07 11:01:36.91	224.14	47.15	
2025-01-07 11:01:37.12	224.24	47.19	
2025-01-07 11:01:37.33	224.34	47.22	
2025-01-07 11:01:37.53	224.44	47.26	
2025-01-07 11:01:37.73	224.53	47.29	
2025-01-07 11:01:37.94	224.64	47.33	
2025-01-07 11:01:38.15	224.74	47.37	
2025-01-07 11:01:38.35	224.84	47.40	
2025-01-07 11:01:38.56	224.94	47.44	
2025-01-07 11:01:38.76	225.04	47.48	
2025-01-07 11:01:38.97	225.14	47.51	
2025-01-07 11:01:39.17	225.24	47.55	
2025-01-07 11:01:39.38	225.34	47.59	
2025-01-07 11:01:39.58	225.44	47.62	
2025-01-07 11:01:39.79	225.55	47.66	
2025-01-07 11:01:39.99	225.65	47.69	
2025-01-07 11:01:40.20	225.75	47.73	
2025-01-07 11:01:40.40	225.85	47.76	
2025-01-07 11:01:40.61	225.96	47.80	
2025-01-07 11:01:40.81	226.06	47.83	
2025-01-07 11:01:41.02	226.16	47.87	
2025-01-07 11:01:41.22	226.27	47.91	
2025-01-07 11:01:41.43	226.37	47.94	
2025-01-07 11:01:41.64	226.48	47.98	
2025-01-07 11:01:41.84	226.58	48.01	
2025-01-07 11:01:42.04	226.68	48.05	
2025-01-07 11:01:42.25	226.79	48.08	
2025-01-07 11:01:42.46	226.90	48.12	
2025-01-07 11:01:42.66	227.00	48.15	
2025-01-07 11:01:42.87	227.11	48.19	
2025-01-07 11:01:43.07	227.21	48.22	
2025-01-07 11:01:43.28	227.32	48.26	
2025-01-07 11:01:43.48	227.42	48.29	
2025-01-07 11:01:43.69	227.53	48.33	
2025-01-07 11:01:43.89	227.64	48.36	
2025-01-07 11:01:44.11	227.75	48.40	
2025-01-07 11:01:44.31	227.86	48.43	
2025-01-07 11:01:44.52	227.97	48.46	
2025-01-07 11:01:44.73	228.08	48.50	
2025-01-07 11:01:44.93	228.18	48.53	
2025-01-07 11:01:45.14	228.29	48.57	
2025-01-07 11:01:45.34	228.40	48.60	
2025-01-07 11:01:45.55	228.51	48.64	
2025-01-07 11:01:45.75	228.61	48.67	
2025-01-07 11:01:45.96	228.73	48.70	
2025-01-07 11:01:46.16	228.83	48.73	
2025-01-07 11:01:46.37	228.94	48.77	
2025-01-07 11:01:46.57	229.05	48.80	
2025-01-07 11:01:46.78	229.16	48.84	
2025-01-07 11:01:46.98	229.27	48.87	
2025-01-07 11:01:47.20	229.39	48.90	
2025-01-07 11:01:47.40	229.50	48.94	
2025-01-07 11:01:47.61	229.61	48.97	
2025-01-07 11:01:47.81	229.72	49.00	
2025-01-07 11:01:48.02	229.83	49.03	
2025-01-07 11:01:48.22	229.94	49.07	
2025-01-07 11:01:48.43	230.06	49.10	
2025-01-07 11:01:48.63	230.17	49.13	
2025-01-07 11:01:48.84	230.28	49.16	
2025-01-07 11:01:49.04	230.39	49.20	
2025-01-07 11:01:49.25	230.51	49.23	
2025-01-07 11:01:49.46	230.62	49.26	
2025-01-07 11:01:49.66	230.73	49.29	
2025-01-07 11:01:49.87	230.85	49.33	
2025-01-07 11:01:50.07	230.96	49.36	
2025-01-07 11:01:50.28	231.08	49.39	
2025-01-07 11:01:50.48	231.19	49.42	
2025-01-07 11:01:50.69	231.31	49.45	
2025-01-07 11:01:50.89	231.42	49.48	
2025-01-07 11:01:51.10	231.54	49.52	
2025-01-07 11:01:51.30	231.65	49.55	
2025-01-07 11:01:51.51	231.77	49.58	
2025-01-07 11:01:51.71	231.88	49.61	
2025-01-07 11:01:51.92	232.00	49.64	
2025-01-07 11:01:52.12	232.11	49.67	
2025-01-07 11:01:52.33	232.23	49.70	
2025-01-07 11:01:52.53	232.34	49.73	
2025-01-07 11:01:52.74	232.46	49.76	
2025-01-07 11:01:52.94	232.58	49.79	
2025-01-07 11:01:53.15	232.70	49.82	
2025-01-07 11:01:53.35	232.81	49.85	
2025-01-07 11:01:53.56	232.93	49.88	
2025-01-07 11:01:53.76	233.05	49.91	
2025-01-07 11:01:53.97	233.17	49.94	
2025-01-07 11:01:54.17	233.28	49.97	
2025-01-07 11:01:54.38	233.41	50.00	
2025-01-07 11:01:54.58	233.52	50.03	
2025-01-07 11:01:54.79	233.64	50.06	
2025-01-07 11:01:54.99	233.76	50.09	
2025-01-07 11:01:55.20	233.88	50.12	
2025-01-07 11:01:55.40	234.00	50.15	
2025-01-07 11:01:55.61	234.12	50.18	
2025-01-07 11:01:55.81	234.24	50.21	
2025-01-07 11:01:56.02	234.36	50.24	
2025-01-07 11:01:56.23	234.49	50.26	
2025-01-07 11:01:56.43	234.60	50.29	
2025-01-07 11:01:56.64	234.73	50.32	
2025-01-07 11:01:56.84	234.85	50.35	
2025-01-07 11:01:57.05	234.97	50.38	
2025-01-07 11:01:57.25	235.09	50.41	
2025-01-07 11:01:57.46	235.21	50.43	
2025-01-07 11:01:57.66	235.33	50.46	
2025-01-07 11:01:57.87	235.46	50.49	
2025-01-07 11:01:58.07	235.58	50.52	
2025-01-07 11:01:58.28	235.70	50.54	
2025-01-07 11:01:58.49	235.83	50.57	
2025-01-07 11:01:58.69	235.95	50.60	
2025-01-07 11:01:58.90	236.08	50.63	
2025-01-07 11:01:59.10	236.20	50.65	
2025-01-07 11:01:59.31	236.32	50.68	
2025-01-07 11:01:59.51	236.45	50.71	
2025-01-07 11:01:59.72	236.57	50.73	
2025-01-07 11:01:59.93	236.70	50.76	
2025-01-07 11:02:00.13	236.82	50.79	
2025-01-07 11:02:00.33	236.94	50.81	
2025-01-07 11:02:00.54	237.07	50.84	
2025-01-07 11:02:00.75	237.20	50.87	
2025-01-07 11:02:00.95	237.32	50.89	
2025-01-07 11:02:01.15	237.45	50.92	
2025-01-07 11:02:01.36	237.58	50.94	
2025-01-07 11:02:01.57	237.71	50.97	
2025-01-07 11:02:01.77	237.83	50.99	
2025-01-07 11:02:01.98	237.96	51.02	
2025-01-07 11:02:02.18	238.08	51.04	
2025-01-07 11:02:02.39	238.21	51.07	
2025-01-07 11:02:02.59	238.34	51.09	
2025-01-07 11:02:02.80	238.47	51.12	
2025-01-07 11:02:03.00	238.59	51.14	
2025-01-07 11:02:03.21	238.72	51.17	
2025-01-07 11:02:03.43	238.86	51.19	
2025-01-07 11:02:03.63	238.99	51.22	
2025-01-07 11:02:03.84	239.12	51.24	
2025-01-07 11:02:04.04	239.24	51.26	
2025-01-07 11:02:04.25	239.38	51.29	
2025-01-07 11:02:04.47	239.52	51.31	
2025-01-07 11:02:04.67	239.64	51.34	
2025-01-07 11:02:04.88	239.77	51.36	
2025-01-07 11:02:05.09	239.91	51.38	
2025-01-07 11:02:05.29	240.03	51.41	
2025-01-07 11:02:05.50	240.17	51.43	
2025-01-07 11:02:05.70	240.30	51.45	
2025-01-07 11:02:05.91	240.43	51.48	
2025-01-07 11:02:06.11	240.56	51.50	
2025-01-07 11:02:06.32	240.69	51.52	
2025-01-07 11:02:06.52	240.82	51.54	
2025-01-07 11:02:06.73	240.95	51.56	
2025-01-07 11:02:06.93	241.08	51.59	
2025-01-07 11:02:07.14	241.22	51.61	
2025-01-07 11:02:07.34	241.35	51.63	
2025-01-07 11:02:07.55	241.48	51.65	
2025-01-07 11:02:07.75	241.61	51.67	
2025-01-07 11:02:07.96	241.75	51.69	
2025-01-07 11:02:08.16	241.88	51.71	
2025-01-07 11:02:08.37	242.01	51.74	
2025-01-07 11:02:08.57	242.14	51.76	
2025-01-07 11:02:08.78	242.28	51.78	
2025-01-07 11:02:08.98	242.41	51.80	
2025-01-07 11:02:09.19	242.55	51.82	
2025-01-07 11:02:09.39	242.68	51.84	
2025-01-07 11:02:09.60	242.81	51.86	
2025-01-07 11:02:09.80	242.94	51.88	
2025-01-07 11:02:10.01	243.08	51.90	
2025-01-07 11:02:10.21	243.21	51.92	
2025-01-07 11:02:10.42	243.35	51.94	
2025-01-07 11:02:10.62	243.48	51.95	
2025-01-07 11:02:10.83	243.62	51.97	
2025-01-07 11:02:11.03	243.75	51.99	
2025-01-07 11:02:11.24	243.89	52.01	
2025-01-07 11:02:11.45	244.03	52.03	
2025-01-07 11:02:11.65	244.16	52.05	
2025-01-07 11:02:11.85	244.30	52.07	
2025-01-07 11:02:12.06	244.43	52.08	
2025-01-07 11:02:12.26	244.57	52.10	
2025-01-07 11:02:12.47	244.71	52.12	
2025-01-07 11:02:12.68	244.85	52.14	
2025-01-07 11:02:12.88	244.98	52.16	
2025-01-07 11:02:13.09	245.12	52.17	
2025-01-07 11:02:13.29	245.25	52.19	
2025-01-07 11:02:13.50	245.40	52.21	
2025-01-07 11:02:13.70	245.53	52.22	
2025-01-07 11:02:13.91	245.67	52.24	
2025-01-07 11:02:14.11	245.80	52.26	
2025-01-07 11:02:14.32	245.95	52.27	
2025-01-07 11:02:14.52	246.08	52.29	
2025-01-07 11:02:14.73	246.22	52.31	
2025-01-07 11:02:14.94	246.36	52.32	
2025-01-07 11:02:15.14	246.50	52.34	
2025-01-07 11:02:15.35	246.64	52.35	
2025-01-07 11:02:15.55	246.78	52.37	
2025-01-07 11:02:15.75	246.91	52.38	
2025-01-07 11:02:15.96	247.05	52.40	
2025-01-07 11:02:16.16	247.19	52.41	
2025-01-07 11:02:16.37	247.33	52.43	
2025-01-07 11:02:16.58	247.47	52.44	
2025-01-07 11:02:16.78	247.61	52.46	
2025-01-07 11:02:16.99	247.75	52.47	
2025-01-07 11:02:17.19	247.89	52.48	
2025-01-07 11:02:17.40	248.03	52.50	
2025-01-07 11:02:17.61	248.18	52.51	
2025-01-07 11:02:17.81	248.31	52.53	
2025-01-07 11:02:18.02	248.46	52.54	
2025-01-07 11:02:18.22	248.59	52.55	
2025-01-07 11:02:18.42	248.73	52.57	
2025-01-07 11:02:18.63	248.88	52.58	
2025-01-07 11:02:18.84	249.02	52.59	
2025-01-07 11:02:19.04	249.16	52.60	
2025-01-07 11:02:19.25	249.30	52.62	
2025-01-07 11:02:19.45	249.44	52.63	
2025-01-07 11:02:19.65	249.58	52.64	
2025-01-07 11:02:19.86	249.72	52.65	
2025-01-07 11:02:20.07	249.87	52.66	
2025-01-07 11:02:20.27	250.00	52.67	
2025-01-07 11:02:20.48	250.15	52.69	
2025-01-07 11:02:20.68	250.29	52.70	
2025-01-07 11:02:20.89	250.43	52.71	
2025-01-07 11:02:21.10	250.58	52.72	
2025-01-07 11:02:21.30	250.72	52.73	
2025-01-07 11:02:21.51	250.86	52.74	
2025-01-07 11:02:21.71	251.00	52.75	
2025-01-07 11:02:21.92	251.15	52.76	
2025-01-07 11:02:22.12	251.29	52.77	
2025-01-07 11:02:22.33	251.43	52.78	
2025-01-07 11:02:22.53	251.57	52.79	
2025-01-07 11:02:22.74	251.72	52.80	
2025-01-07 11:02:22.94	251.86	52.81	
2025-01-07 11:02:23.15	252.00	52.82	
2025-01-07 11:02:23.36	252.15	52.83	
2025-01-07 11:02:23.56	252.29	52.83	
2025-01-07 11:02:23.77	252.44	52.84	
2025-01-07 11:02:23.97	252.58	52.85	
2025-01-07 11:02:24.18	252.72	52.86	
2025-01-07 11:02:24.38	252.86	52.87	
2025-01-07 11:02:24.59	253.01	52.87	
2025-01-07 11:02:24.79	253.15	52.88	
2025-01-07 11:02:25.00	253.30	52.89	
2025-01-07 11:02:25.20	253.44	52.90	
2025-01-07 11:02:25.41	253.59	52.90	
2025-01-07 11:02:25.62	253.73	52.91	
2025-01-07 11:02:25.82	253.87	52.92	
2025-01-07 11:02:26.03	254.02	52.92	
2025-01-07 11:02:26.23	254.16	52.93	
2025-01-07 11:02:26.44	254.31	52.94	
2025-01-07 11:02:26.65	254.46	52.94	
2025-01-07 11:02:26.85	254.60	52.95	
2025-01-07 11:02:27.05	254.74	52.95	
2025-01-07 11:02:27.26	254.89	52.96	
2025-01-07 11:02:27.46	255.03	52.96	
2025-01-07 11:02:27.67	255.17	52.97	
2025-01-07 11:02:27.87	255.32	52.97	
2025-01-07 11:02:28.08	255.46	52.98	
2025-01-07 11:02:28.28	255.60	52.98	
2025-01-07 11:02:28.49	255.75	52.99	
2025-01-07 11:02:28.70	255.90	52.99	
2025-01-07 11:02:28.90	256.04	52.99	
2025-01-07 11:02:29.11	256.19	53.00	
2025-01-07 11:02:29.32	256.34	53.00	
2025-01-07 11:02:29.53	256.49	53.00	
2025-01-07 11:02:29.74	256.63	53.01	
2025-01-07 11:02:29.94	256.78	53.01	
2025-01-07 11:02:30.15	256.92	53.01	
2025-01-07 11:02:30.35	257.07	53.02	
2025-01-07 11:02:30.56	257.21	53.02	
2025-01-07 11:02:30.76	257.36	53.02	
2025-01-07 11:02:30.97	257.50	53.02	
2025-01-07 11:02:31.17	257.65	53.02	
2025-01-07 11:02:31.38	257.79	53.03	
2025-01-07 11:02:31.58	257.94	53.03	
2025-01-07 11:02:31.79	258.08	53.03	
2025-01-07 11:02:31.99	258.23	53.03	
2025-01-07 11:02:32.20	258.37	53.03	
2025-01-07 11:02:32.40	258.52	53.03	
2025-01-07 11:02:32.61	258.66	53.03	
2025-01-07 11:02:32.82	258.81	53.03	
2025-01-07 11:02:33.02	258.95	53.03	
2025-01-07 11:02:33.23	259.10	53.03	
2025-01-07 11:02:33.43	259.24	53.03	
2025-01-07 11:02:33.64	259.39	53.03	
2025-01-07 11:02:33.84	259.53	53.03	
2025-01-07 11:02:34.05	259.68	53.03	
2025-01-07 11:02:34.25	259.82	53.03	
2025-01-07 11:02:34.46	259.97	53.03	
2025-01-07 11:02:34.66	260.11	53.03	
2025-01-07 11:02:34.87	260.26	53.03	
2025-01-07 11:02:35.07	260.40	53.02	
2025-01-07 11:02:35.28	260.55	53.02	
2025-01-07 11:02:35.48	260.69	53.02	
2025-01-07 11:02:35.69	260.84	53.02	
2025-01-07 11:02:35.89	260.98	53.02	
2025-01-07 11:02:36.10	261.13	53.01	
2025-01-07 11:02:36.30	261.27	53.01	
2025-01-07 11:02:36.51	261.42	53.01	
2025-01-07 11:02:36.71	261.56	53.00	
2025-01-07 11:02:36.92	261.71	53.00	
2025-01-07 11:02:37.12	261.85	53.00	
2025-01-07 11:02:37.33	262.00	52.99	
2025-01-07 11:02:37.53	262.14	52.99	
2025-01-07 11:02:37.74	262.29	52.99	
2025-01-07 11:02:37.94	262.43	52.98	
2025-01-07 11:02:38.15	262.58	52.98	
2025-01-07 11:02:38.35	262.72	52.97	
2025-01-07 11:02:38.56	262.87	52.97	
2025-01-07 11:02:38.76	263.01	52.96	
2025-01-07 11:02:38.97	263.16	52.96	
2025-01-07 11:02:39.18	263.30	52.95	
2025-01-07 11:02:39.38	263.45	52.95	
2025-01-07 11:02:39.59	263.59	52.94	
2025-01-07 11:02:39.79	263.73	52.93	
2025-01-07 11:02:40.00	263.88	52.93	
2025-01-07 11:02:40.20	264.02	52.92	
2025-01-07 11:02:40.41	264.17	52.92	
2025-01-07 11:02:40.61	264.31	52.91	
2025-01-07 11:02:40.83	264.46	52.90	
2025-01-07 11:02:41.04	264.61	52.89	
2025-01-07 11:02:41.25	264.76	52.89	
2025-01-07 11:02:41.45	264.90	52.88	
2025-01-07 11:02:41.66	265.04	52.87	
2025-01-07 11:02:41.86	265.18	52.86	
2025-01-07 11:02:42.07	265.33	52.86	
2025-01-07 11:02:42.28	265.48	52.85	
2025-01-07 11:02:42.48	265.62	52.84	
2025-01-07 11:02:42.69	265.76	52.83	
2025-01-07 11:02:42.89	265.90	52.82	
2025-01-07 11:02:43.10	266.05	52.81	
2025-01-07 11:02:43.30	266.19	52.81	
2025-01-07 11:02:43.51	266.34	52.80	
2025-01-07 11:02:43.71	266.48	52.79	
2025-01-07 11:02:43.92	266.62	52.78	
2025-01-07 11:02:44.12	266.76	52.77	
2025-01-07 11:02:44.33	266.91	52.76	
2025-01-07 11:02:44.53	267.04	52.75	
2025-01-07 11:02:44.74	267.19	52.74	
2025-01-07 11:02:44.95	267.34	52.73	
2025-01-07 11:02:45.15	267.47	52.72	
2025-01-07 11:02:45.36	267.62	52.71	
2025-01-07 11:02:45.56	267.76	52.69	
2025-01-07 11:02:45.77	267.90	52.68	
2025-01-07 11:02:45.97	268.04	52.67	
2025-01-07 11:02:46.18	268.19	52.66	
2025-01-07 11:02:46.38	268.32	52.65	
2025-01-07 11:02:46.59	268.47	52.64	
2025-01-07 11:02:46.79	268.61	52.63	
2025-01-07 11:02:47.00	268.75	52.61	
2025-01-07 11:02:47.20	268.89	52.60	
2025-01-07 11:02:47.41	269.03	52.59	
2025-01-07 11:02:47.62	269.18	52.58	
2025-01-07 11:02:47.82	269.31	52.56	
2025-01-07 11:02:48.03	269.46	52.55	
2025-01-07 11:02:48.23	269.59	52.54	
2025-01-07 11:02:48.44	269.74	52.52	
2025-01-07 11:02:48.64	269.87	52.51	
2025-01-07 11:02:48.85	270.02	52.50	
2025-01-07 11:02:49.06	270.16	52.48	
2025-01-07 11:02:49.26	270.30	52.47	
2025-01-07 11:02:49.46	270.43	52.45	
2025-01-07 11:02:49.67	270.58	52.44	
2025-01-07 11:02:49.87	270.71	52.43	
2025-01-07 11:02:50.08	270.85	52.41	
2025-01-07 11:02:50.29	271.00	52.40	
2025-01-07 11:02:50.49	271.13	52.38	
2025-01-07 11:02:50.70	271.27	52.36	
2025-01-07 11:02:50.90	271.41	52.35	
2025-01-07 11:02:51.11	271.55	52.33	
2025-01-07 11:02:51.31	271.69	52.32	
2025-01-07 11:02:51.52	271.83	52.30	
2025-01-07 11:02:51.72	271.96	52.29	
2025-01-07 11:02:51.93	272.10	52.27	
2025-01-07 11:02:52.13	272.24	52.25	
2025-01-07 11:02:52.34	272.38	52.24	
2025-01-07 11:02:52.55	272.52	52.22	
2025-01-07 11:02:52.75	272.65	52.20	
2025-01-07 11:02:52.96	272.79	52.19	
2025-01-07 11:02:53.16	272.93	52.17	
2025-01-07 11:02:53.37	273.07	52.15	
2025-01-07 11:02:53.58	273.21	52.13	
2025-01-07 11:02:53.79	273.35	52.12	
2025-01-07 11:02:53.99	273.48	52.10	
2025-01-07 11:02:54.20	273.62	52.08	
2025-01-07 11:02:54.40	273.75	52.06	
2025-01-07 11:02:54.60	273.88	52.05	
2025-01-07 11:02:54.81	274.02	52.03	
2025-01-07 11:02:55.02	274.16	52.01	
2025-01-07 11:02:55.22	274.29	51.99	
2025-01-07 11:02:55.43	274.43	51.97	
2025-01-07 11:02:55.63	274.56	51.95	
2025-01-07 11:02:55.84	274.70	51.93	
2025-01-07 11:02:56.04	274.83	51.91	
2025-01-07 11:02:56.25	274.97	51.89	
2025-01-07 11:02:56.45	275.10	51.87	
2025-01-07 11:02:56.66	275.24	51.85	
2025-01-07 11:02:56.88	275.38	51.83	
2025-01-07 11:02:57.08	275.51	51.81	
2025-01-07 11:02:57.29	275.65	51.79	
2025-01-07 11:02:57.49	275.78	51.77	
2025-01-07 11:02:57.70	275.91	51.75	
2025-01-07 11:02:57.91	276.05	51.73	
2025-01-07 11:02:58.12	276.19	51.71	
2025-01-07 11:02:58.32	276.32	51.69	
2025-01-07 11:02:58.53	276.45	51.67	
2025-01-07 11:02:58.74	276.59	51.64	
2025-01-07 11:02:58.96	276.73	51.62	
2025-01-07 11:02:59.16	276.86	51.60	
2025-01-07 11:02:59.37	276.99	51.58	
2025-01-07 11:02:59.57	277.12	51.56	
2025-01-07 11:02:59.78	277.25	51.53	
2025-01-07 11:02:59.98	277.38	51.51	
2025-01-07 11:03:00.19	277.52	51.49	
2025-01-07 11:03:00.39	277.64	51.47	
2025-01-07 11:03:00.60	277.78	51.44	
2025-01-07 11:03:00.80	277.90	51.42	
2025-01-07 11:03:01.01	278.04	51.40	
2025-01-07 11:03:01.21	278.16	51.38	
2025-01-07 11:03:01.42	278.30	51.35	
2025-01-07 11:03:01.62	278.42	51.33	
2025-01-07 11:03:01.83	278.55	51.31	
2025-01-07 11:03:02.03	278.68	51.28	
2025-01-07 11:03:02.24	278.81	51.26	
2025-01-07 11:03:02.44	278.94	51.24	
2025-01-07 11:03:02.65	279.07	51.21	
2025-01-07 11:03:02.85	279.19	51.19	
2025-01-07 11:03:03.06	279.32	51.16	
2025-01-07 11:03:03.26	279.45	51.14	
2025-01-07 11:03:03.46	279.57	51.11	
2025-01-07 11:03:03.67	279.70	51.09	
2025-01-07 11:03:03.87	279.83	51.07	
2025-01-07 11:03:04.08	279.96	51.04	
2025-01-07 11:03:04.28	280.08	51.02	
2025-01-07 11:03:04.49	280.21	50.99	
2025-01-07 11:03:04.70	280.34	50.96	
2025-01-07 11:03:04.90	280.46	50.94	
2025-01-07 11:03:05.11	280.59	50.91	
2025-01-07 11:03:05.31	280.72	50.89	
2025-01-07 11:03:05.51	280.84	50.86	
2025-01-07 11:03:05.72	280.97	50.84	
2025-01-07 11:03:05.92	281.09	50.81	
2025-01-07 11:03:06.13	281.22	50.78	
2025-01-07 11:03:06.33	281.34	50.76	
2025-01-07 11:03:06.54	281.46	50.73	
2025-01-07 11:03:06.74	281.59	50.70	
2025-01-07 11:03:06.95	281.71	50.68	
2025-01-07 11:03:07.15	281.83	50.65	
2025-01-07 11:03:07.36	281.96	50.62	
2025-01-07 11:03:07.56	282.08	50.60	
2025-01-07 11:03:07.77	282.21	50.57	
2025-01-07 11:03:07.97	282.33	50.54	
2025-01-07 11:03:08.18	282.45	50.51	
2025-01-07 11:03:08.39	282.58	50.49	
2025-01-07 11:03:08.59	282.70	50.46	
2025-01-07 11:03:08.80	282.82	50.43	
2025-01-07 11:03:09.00	282.94	50.40	
2025-01-07 11:03:09.21	283.06	50.38	
2025-01-07 11:03:09.41	283.18	50.35	
2025-01-07 11:03:09.61	283.30	50.32	
2025-01-07 11:03:09.82	283.42	50.29	
2025-01-07 11:03:10.02	283.54	50.26	
2025-01-07 11:03:10.23	283.67	50.23	
2025-01-07 11:03:10.44	283.79	50.20	
2025-01-07 11:03:10.65	283.91	50.18	
2025-01-07 11:03:10.86	284.03	50.15	
2025-01-07 11:03:11.06	284.15	50.12	
2025-01-07 11:03:11.27	284.27	50.09	
2025-01-07 11:03:11.48	284.39	50.06	
2025-01-07 11:03:11.69	284.52	50.03	
2025-01-07 11:03:11.89	284.63	50.00	
2025-01-07 11:03:12.10	284.75	49.97	
2025-01-07 11:03:12.31	284.87	49.94	
2025-01-07 11:03:12.51	284.99	49.91	
2025-01-07 11:03:12.72	285.11	49.88	
2025-01-07 11:03:12.92	285.22	49.85	
2025-01-07 11:03:13.13	285.34	49.82	
2025-01-07 11:03:13.34	285.46	49.79	
2025-01-07 11:03:13.54	285.58	49.76	
2025-01-07 11:03:13.74	285.69	49.73	
2025-01-07 11:03:13.95	285.81	49.70	
2025-01-07 11:03:14.16	285.93	49.67	
2025-01-07 11:03:14.36	286.04	49.64	
2025-01-07 11:03:14.57	286.16	49.60	
2025-01-07 11:03:14.77	286.27	49.57	
2025-01-07 11:03:14.98	286.39	49.54	
2025-01-07 11:03:15.18	286.50	49.51	
2025-01-07 11:03:15.39	286.62	49.48	
2025-01-07 11:03:15.59	286.73	49.45	
2025-01-07 11:03:15.80	286.85	49.42	
2025-01-07 11:03:16.00	286.96	49.39	
2025-01-07 11:03:16.21	287.07	49.35	
2025-01-07 11:03:16.42	287.19	49.32	
2025-01-07 11:03:16.62	287.30	49.29	
2025-01-07 11:03:16.83	287.42	49.26	
2025-01-07 11:03:17.03	287.53	49.23	
2025-01-07 11:03:17.23	287.64	49.19	
2025-01-07 11:03:17.44	287.75	49.16	
2025-01-07 11:03:17.66	287.87	49.13	
2025-01-07 11:03:17.87	287.99	49.09	
2025-01-07 11:03:18.07	288.10	49.06	
2025-01-07 11:03:18.28	288.21	49.03	
2025-01-07 11:03:18.48	288.32	49.00	
2025-01-07 11:03:18.69	288.43	48.96	
2025-01-07 11:03:18.89	288.54	48.93	
2025-01-07 11:03:19.10	288.65	48.90	
2025-01-07 11:03:19.30	288.76	48.87	
2025-01-07 11:03:19.51	288.87	48.83	
2025-01-07 11:03:19.71	288.98	48.80	
2025-01-07 11:03:19.92	289.09	48.77	
2025-01-07 11:03:20.12	289.20	48.73	
2025-01-07 11:03:20.34	289.31	48.70	
2025-01-07 11:03:20.55	289.43	48.66	
2025-01-07 11:03:20.75	289.53	48.63	
2025-01-07 11:03:20.96	289.64	48.60	
2025-01-07 11:03:21.16	289.75	48.56	
2025-01-07 11:03:21.37	289.86	48.53	
2025-01-07 11:03:21.57	289.96	48.50	
2025-01-07 11:03:21.78	290.07	48.46	
2025-01-07 11:03:21.98	290.18	48.43	
2025-01-07 11:03:22.19	290.29	48.39	
2025-01-07 11:03:22.39	290.39	48.36	
2025-01-07 11:03:22.60	290.50	48.32	
2025-01-07 11:03:22.80	290.60	48.29	
2025-01-07 11:03:23.00	290.71	48.26	
2025-01-07 11:03:23.21	290.81	48.22	
2025-01-07 11:03:23.41	290.92	48.19	
2025-01-07 11:03:23.62	291.02	48.15	
2025-01-07 11:03:23.82	291.13	48.12	
2025-01-07 11:03:24.03	291.23	48.08	
2025-01-07 11:03:24.23	291.34	48.05	
2025-01-07 11:03:24.44	291.44	48.01	
2025-01-07 11:03:24.64	291.54	47.98	
2025-01-07 11:03:24.85	291.65	47.94	
2025-01-07 11:03:25.06	291.76	47.91	
2025-01-07 11:03:25.26	291.86	47.87	
2025-01-07 11:03:25.47	291.96	47.84	
2025-01-07 11:03:25.67	292.06	47.80	
2025-01-07 11:03:25.88	292.17	47.76	
2025-01-07 11:03:26.08	292.27	47.73	
2025-01-07 11:03:26.29	292.37	47.69	
2025-01-07 11:03:26.49	292.47	47.66	
2025-01-07 11:03:26.70	292.58	47.62	
2025-01-07 11:03:26.90	292.68	47.59	
2025-01-07 11:03:27.11	292.78	47.55	
2025-01-07 11:03:27.31	292.88	47.52	
2025-01-07 11:03:27.52	292.98	47.48	
2025-01-07 11:03:27.72	293.08	47.44	
2025-01-07 11:03:27.93	293.18	47.41	
2025-01-07 11:03:28.13	293.28	47.37	
2025-01-07 11:03:28.34	293.38	47.33	
2025-01-07 11:03:28.54	293.48	47.30	
2025-01-07 11:03:28.75	293.58	47.26	
2025-01-07 11:03:28.96	293.68	47.22	
2025-01-07 11:03:29.16	293.78	47.19	
2025-01-07 11:03:29.37	293.88	47.15	
2025-01-07 11:03:29.58	293.98	47.11	
2025-01-07 11:03:29.78	294.08	47.08	
2025-01-07 11:03:29.99	294.18	47.04	
2025-01-07 11:03:30.19	294.27	47.00	
2025-01-07 11:03:30.40	294.37	46.97	
2025-01-07 11:03:30.60	294.47	46.93	
2025-01-07 11:03:30.81	294.57	46.89	
2025-01-07 11:03:31.01	294.66	46.86	
2025-01-07 11:03:31.22	294.76	46.82	
2025-01-07 11:03:31.42	294.85	46.78	
2025-01-07 11:03:31.63	294.95	46.74	
2025-01-07 11:03:31.83	295.05	46.71	
2025-01-07 11:03:32.04	295.14	46.67	
2025-01-07 11:03:32.24	295.24	46.63	
2025-01-07 11:03:32.45	295.33	46.60	
2025-01-07 11:03:32.66	295.43	46.56	
2025-01-07 11:03:32.86	295.52	46.52	
2025-01-07 11:03:33.07	295.62	46.48	
2025-01-07 11:03:33.27	295.71	46.45	
2025-01-07 11:03:33.48	295.81	46.41	
2025-01-07 11:03:33.69	295.91	46.37	
2025-01-07 11:03:33.89	296.00	46.33	
2025-01-07 11:03:34.10	296.09	46.29	
2025-01-07 11:03:34.30	296.18	46.26	
2025-01-07 11:03:34.51	296.28	46.22	
2025-01-07 11:03:34.71	296.37	46.18	
2025-01-07 11:03:34.92	296.46	46.14	
2025-01-07 11:03:35.12	296.55	46.11	
2025-01-07 11:03:35.33	296.65	46.07	
2025-01-07 11:03:35.54	296.74	46.03	
2025-01-07 11:03:35.74	296.83	45.99	
2025-01-07 11:03:35.95	296.93	45.95	
2025-01-07 11:03:36.15	297.01	45.91	
2025-01-07 11:03:36.37	297.11	45.87	
2025-01-07 11:03:36.58	297.21	45.83	
2025-01-07 11:03:36.78	297.29	45.80	
2025-01-07 11:03:36.99	297.39	45.76	
2025-01-07 11:03:37.19	297.47	45.72	
2025-01-07 11:03:37.41	297.57	45.68	
2025-01-07 11:03:37.62	297.66	45.64	
2025-01-07 11:03:37.82	297.75	45.60	
2025-01-07 11:03:38.03	297.84	45.56	
2025-01-07 11:03:38.24	297.93	45.52	
2025-01-07 11:03:38.44	298.02	45.48	
2025-01-07 11:03:38.64	298.11	45.45	
2025-01-07 11:03:38.85	298.20	45.41	
2025-01-07 11:03:39.06	298.29	45.37	
2025-01-07 11:03:39.27	298.38	45.33	
2025-01-07 11:03:39.48	298.47	45.29	
2025-01-07 11:03:39.68	298.55	45.25	
2025-01-07 11:03:39.89	298.64	45.21	
2025-01-07 11:03:40.09	298.73	45.17	
2025-01-07 11:03:40.30	298.81	45.13	
2025-01-07 11:03:40.50	298.90	45.09	
2025-01-07 11:03:40.71	298.99	45.05	
2025-01-07 11:03:40.91	299.07	45.02	
2025-01-07 11:03:41.12	299.16	44.98	
2025-01-07 11:03:41.32	299.24	44.94	
2025-01-07 11:03:41.53	299.33	44.90	
2025-01-07 11:03:41.75	299.42	44.86	
2025-01-07 11:03:41.95	299.51	44.82	
2025-01-07 11:03:42.16	299.59	44.78	
2025-01-07 11:03:42.36	299.68	44.74	
2025-01-07 11:03:42.57	299.76	44.70	
2025-01-07 11:03:42.77	299.84	44.66	
2025-01-07 11:03:42.98	299.93	44.62	
2025-01-07 11:03:43.18	300.01	44.58	
2025-01-07 11:03:43.39	300.10	44.54	
2025-01-07 11:03:43.59	300.18	44.50	
2025-01-07 11:03:43.80	300.27	44.46	
2025-01-07 11:03:44.00	300.35	44.42	
2025-01-07 11:03:44.21	300.43	44.38	
2025-01-07 11:03:44.42	300.52	44.34	
2025-01-07 11:03:44.62	300.60	44.31	
2025-01-07 11:03:44.82	300.68	44.27	
2025-01-07 11:03:45.03	300.76	44.23	
2025-01-07 11:03:45.23	300.84	44.19	
2025-01-07 11:03:45.44	300.92	44.15	
2025-01-07 11:03:45.65	301.01	44.11	
2025-01-07 11:03:45.85	301.09	44.07	
2025-01-07 11:03:46.06	301.17	44.03	
2025-01-07 11:03:46.26	301.25	43.99	
2025-01-07 11:03:46.47	301.33	43.95	
2025-01-07 11:03:46.67	301.41	43.91	
2025-01-07 11:03:46.88	301.49	43.87	
2025-01-07 11:03:47.08	301.57	43.83	
2025-01-07 11:03:47.29	301.65	43.79	
2025-01-07 11:03:47.50	301.73	43.75	
2025-01-07 11:03:47.70	301.81	43.71	
2025-01-07 11:03:47.91	301.89	43.67	
2025-01-07 11:03:48.11	301.97	43.63	
2025-01-07 11:03:48.32	302.05	43.59	
2025-01-07 11:03:48.52	302.13	43.55	
2025-01-07 11:03:48.73	302.21	43.51	
2025-01-07 11:03:48.93	302.29	43.47	
2025-01-07 11:03:49.14	302.37	43.43	
2025-01-07 11:03:49.34	302.44	43.39	
2025-01-07 11:03:49.55	302.52	43.35	
2025-01-07 11:03:49.75	302.60	43.31	
2025-01-07 11:03:49.96	302.68	43.27	
2025-01-07 11:03:50.16	302.75	43.23	
2025-01-07 11:03:50.37	302.83	43.19	
2025-01-07 11:03:50.57	302.90	43.15	
2025-01-07 11:03:50.78	302.98	43.11	
2025-01-07 11:03:50.99	303.06	43.07	
2025-01-07 11:03:51.19	303.14	43.03	
2025-01-07 11:03:51.40	303.21	42.99	
2025-01-07 11:03:51.60	303.29	42.95	
2025-01-07 11:03:51.81	303.37	42.91	
2025-01-07 11:03:52.01	303.44	42.87	
2025-01-07 11:03:52.22	303.52	42.83	
2025-01-07 11:03:52.42	303.59	42.79	
2025-01-07 11:03:52.63	303.67	42.75	
2025-01-07 11:03:52.84	303.74	42.70	
2025-01-07 11:03:53.04	303.82	42.67	
2025-01-07 11:03:53.25	303.89	42.62	
2025-01-07 11:03:53.45	303.96	42.58	
2025-01-07 11:03:53.66	304.04	42.54	
2025-01-07 11:03:53.86	304.11	42.50	
2025-01-07 11:03:54.07	304.19	42.46	
2025-01-07 11:03:54.27	304.26	42.42	
2025-01-07 11:03:54.48	304.33	42.38	
2025-01-07 11:03:54.68	304.41	42.34	
2025-01-07 11:03:54.89	304.48	42.30	
2025-01-07 11:03:55.09	304.55	42.26	
2025-01-07 11:03:55.30	304.63	42.22	
2025-01-07 11:03:55.50	304.70	42.18	
2025-01-07 11:03:55.71	304.77	42.14	
2025-01-07 11:03:55.91	304.84	42.10	
2025-01-07 11:03:56.12	304.91	42.06	
2025-01-07 11:03:56.32	304.98	42.02	
2025-01-07 11:03:56.53	305.06	41.98	
2025-01-07 11:03:56.73	305.13	41.94	
2025-01-07 11:03:56.94	305.20	41.90	
2025-01-07 11:03:57.15	305.27	41.86	
2025-01-07 11:03:57.35	305.34	41.82	
2025-01-07 11:03:57.55	305.41	41.78	
2025-01-07 11:03:57.76	305.48	41.74	
2025-01-07 11:03:57.96	305.55	41.70	
2025-01-07 11:03:58.17	305.62	41.66	
2025-01-07 11:03:58.37	305.69	41.62	
2025-01-07 11:03:58.58	305.76	41.58	
2025-01-07 11:03:58.80	305.84	41.53	
2025-01-07 11:03:59.00	305.90	41.49	
2025-01-07 11:03:59.21	305.97	41.45	
2025-01-07 11:03:59.41	306.04	41.41	
2025-01-07 11:03:59.62	306.11	41.37	
2025-01-07 11:03:59.82	306.18	41.33	
2025-01-07 11:04:00.03	306.25	41.29	
2025-01-07 11:04:00.24	306.32	41.25	
2025-01-07 11:04:00.45	306.39	41.21	
2025-01-07 11:04:00.66	306.46	41.17	
2025-01-07 11:04:00.86	306.53	41.13	
2025-01-07 11:04:01.07	306.60	41.09	
2025-01-07 11:04:01.27	306.66	41.05	
2025-01-07 11:04:01.48	306.73	41.01	
2025-01-07 11:04:01.69	306.80	40.96	
2025-01-07 11:04:01.89	306.86	40.92	
2025-01-07 11:04:02.09	306.93	40.89	
2025-01-07 11:04:02.30	307.00	40.84	
2025-01-07 11:04:02.51	307.07	40.80	
2025-01-07 11:04:02.71	307.13	40.76	
2025-01-07 11:04:02.92	307.20	40.72	
2025-01-07 11:04:03.12	307.26	40.68	
2025-01-07 11:04:03.33	307.33	40.64	
2025-01-07 11:04:03.53	307.39	40.60	
2025-01-07 11:04:03.74	307.46	40.56	
2025-01-07 11:04:03.94	307.53	40.52	
2025-01-07 11:04:04.16	307.60	40.48	
2025-01-07 11:04:04.37	307.66	40.44	
2025-01-07 11:04:04.57	307.73	40.40	
2025-01-07 11:04:04.78	307.79	40.36	
2025-01-07 11:04:04.98	307.85	40.32	
2025-01-07 11:04:05.20	307.92	40.27	
2025-01-07 11:04:05.41	307.99	40.23	
2025-01-07 11:04:05.61	308.05	40.19	
2025-01-07 11:04:05.82	308.12	40.15	
2025-01-07 11:04:06.03	308.18	40.11	
2025-01-07 11:04:06.23	308.24	40.07	
2025-01-07 11:04:06.44	308.31	40.03	
2025-01-07 11:04:06.64	308.37	39.99	
2025-01-07 11:04:06.84	308.43	39.95	
2025-01-07 11:04:07.05	308.50	39.91	
2025-01-07 11:04:07.25	308.56	39.87	
2025-01-07 11:04:07.46	308.62	39.83	
2025-01-07 11:04:07.67	308.69	39.79	
2025-01-07 11:04:07.87	308.75	39.75	
2025-01-07 11:04:08.08	308.81	39.71	
2025-01-07 11:04:08.28	308.87	39.67	
2025-01-07 11:04:08.49	308.94	39.63	
2025-01-07 11:04:08.69	309.00	39.59	
2025-01-07 11:04:08.90	309.06	39.55	
2025-01-07 11:04:09.10	309.12	39.51	
2025-01-07 11:04:09.31	309.18	39.47	
2025-01-07 11:04:09.51	309.24	39.43	
2025-01-07 11:04:09.72	309.30	39.39	
2025-01-07 11:04:09.93	309.37	39.35	
2025-01-07 11:04:10.13	309.43	39.31	
2025-01-07 11:04:10.34	309.49	39.27	
2025-01-07 11:04:10.54	309.55	39.23	
2025-01-07 11:04:10.75	309.61	39.19	
2025-01-07 11:04:10.95	309.67	39.15	
2025-01-07 11:04:11.16	309.73	39.11	
2025-01-07 11:04:11.37	309.79	39.07	
2025-01-07 11:04:11.58	309.85	39.03	
2025-01-07 11:04:11.79	309.91	38.98	
2025-01-07 11:04:11.99	309.97	38.95	
2025-01-07 11:04:12.20	310.03	38.90	
2025-01-07 11:04:12.40	310.09	38.87	
2025-01-07 11:04:12.61	310.15	38.83	
2025-01-07 11:04:12.81	310.21	38.79	
2025-01-07 11:04:13.02	310.27	38.75	
2025-01-07 11:04:13.22	310.32	38.71	
2025-01-07 11:04:13.43	310.38	38.67	
2025-01-07 11:04:13.63	310.44	38.63	
2025-01-07 11:04:13.84	310.50	38.59	
2025-01-07 11:04:14.04	310.56	38.55	
2025-01-07 11:04:14.25	310.62	38.51	
2025-01-07 11:04:14.45	310.67	38.47	
2025-01-07 11:04:14.66	310.73	38.43	
2025-01-07 11:04:14.86	310.79	38.39	
2025-01-07 11:04:15.07	310.85	38.35	
2025-01-07 11:04:15.28	310.90	38.31	
2025-01-07 11:04:15.48	310.96	38.27	
2025-01-07 11:04:15.69	311.02	38.23	
2025-01-07 11:04:15.91	311.08	38.19	
2025-01-07 11:04:16.11	311.13	38.15	
2025-01-07 11:04:16.32	311.19	38.11	
2025-01-07 11:04:16.52	311.25	38.07	
2025-01-07 11:04:16.73	311.30	38.03	
2025-01-07 11:04:16.93	311.36	37.99	
2025-01-07 11:04:17.14	311.42	37.95	
2025-01-07 11:04:17.34	311.47	37.91	
2025-01-07 11:04:17.55	311.53	37.87	
2025-01-07 11:04:17.75	311.58	37.83	
2025-01-07 11:04:17.95	311.64	37.79	
2025-01-07 11:04:18.16	311.69	37.75	
2025-01-07 11:04:18.36	311.75	37.71	
2025-01-07 11:04:18.57	311.80	37.67	
2025-01-07 11:04:18.78	311.86	37.63	
2025-01-07 11:04:18.98	311.91	37.59	
2025-01-07 11:04:19.19	311.97	37.55	
2025-01-07 11:04:19.39	312.02	37.51	
2025-01-07 11:04:19.60	312.08	37.47	
2025-01-07 11:04:19.80	312.13	37.44	
2025-01-07 11:04:20.01	312.19	37.40	
2025-01-07 11:04:20.21	312.24	37.36	
2025-01-07 11:04:20.42	312.29	37.32	
2025-01-07 11:04:20.62	312.35	37.28	
2025-01-07 11:04:20.83	312.40	37.24	
2025-01-07 11:04:21.03	312.45	37.20	
2025-01-07 11:04:21.25	312.51	37.16	
2025-01-07 11:04:21.46	312.56	37.12	
2025-01-07 11:04:21.66	312.62	37.08	
2025-01-07 11:04:21.87	312.67	37.04	
2025-01-07 11:04:22.08	312.72	37.00	
2025-01-07 11:04:22.28	312.78	36.96	
2025-01-07 11:04:22.49	312.83	36.92	
2025-01-07 11:04:22.69	312.88	36.88	
2025-01-07 11:04:22.90	312.93	36.84	
2025-01-07 11:04:23.10	312.99	36.81	
2025-01-07 11:04:23.31	313.04	36.77	
2025-01-07 11:04:23.51	313.09	36.73	
2025-01-07 11:04:23.72	313.14	36.69	
2025-01-07 11:04:23.92	313.19	36.65	
2025-01-07 11:04:24.14	313.25	36.61	
2025-01-07 11:04:24.34	313.30	36.57	
2025-01-07 11:04:24.55	313.35	36.53	
2025-01-07 11:04:24.75	313.40	36.49	
2025-01-07 11:04:24.96	313.45	36.45	
2025-01-07 11:04:25.17	313.51	36.41	
2025-01-07 11:04:25.37	313.56	36.38	
2025-01-07 11:04:25.58	313.61	36.34	
2025-01-07 11:04:25.78	313.66	36.30	
2025-01-07 11:04:25.99	313.71	36.26	
2025-01-07 11:04:26.19	313.76	36.22	
2025-01-07 11:04:26.40	313.81	36.18	
2025-01-07 11:04:26.60	313.86	36.14	
2025-01-07 11:04:26.81	313.91	36.10	
2025-01-07 11:04:27.01	313.96	36.07	
2025-01-07 11:04:27.22	314.01	36.03	
2025-01-07 11:04:27.42	314.06	35.99	
2025-01-07 11:04:27.63	314.11	35.95	
2025-01-07 11:04:27.83	314.16	35.91	
2025-01-07 11:04:28.04	314.21	35.87	
2025-01-07 11:04:28.25	314.26	35.83	
2025-01-07 11:04:28.45	314.31	35.80	
2025-01-07 11:04:28.66	314.36	35.76	
2025-01-07 11:04:28.86	314.40	35.72	
2025-01-07 11:04:29.07	314.45	35.68	
2025-01-07 11:04:29.27	314.50	35.64	
2025-01-07 11:04:29.48	314.55	35.60	
2025-01-07 11:04:29.68	314.60	35.57	
2025-01-07 11:04:29.89	314.65	35.53	
2025-01-07 11:04:30.09	314.69	35.49	
2025-01-07 11:04:30.30	314.74	35.45	
2025-01-07 11:04:30.50	314.79	35.41	
2025-01-07 11:04:30.71	314.84	35.37	
2025-01-07 11:04:30.92	314.89	35.33	
2025-01-07 11:04:31.13	314.94	35.30	
2025-01-07 11:04:31.34	314.99	35.26	
2025-01-07 11:04:31.54	315.03	35.22	
2025-01-07 11:04:31.75	315.08	35.18	
2025-01-07 11:04:31.95	315.13	35.14	
2025-01-07 11:04:32.16	315.18	35.10	
2025-01-07 11:04:32.36	315.22	35.07	
2025-01-07 11:04:32.57	315.27	35.03	
2025-01-07 11:04:32.77	315.31	34.99	
2025-01-07 11:04:32.98	315.36	34.95	
2025-01-07 11:04:33.18	315.41	34.92	
2025-01-07 11:04:33.39	315.46	34.88	
2025-01-07 11:04:33.60	315.50	34.84	
2025-01-07 11:04:33.80	315.55	34.80	
2025-01-07 11:04:34.02	315.60	34.76	
2025-01-07 11:04:34.23	315.64	34.72	
2025-01-07 11:04:34.43	315.69	34.69	
2025-01-07 11:04:34.64	315.74	34.65	
2025-01-07 11:04:34.85	315.78	34.61	
2025-01-07 11:04:35.05	315.83	34.57	
2025-01-07 11:04:35.26	315.87	34.53	
2025-01-07 11:04:35.47	315.92	34.50	
2025-01-07 11:04:35.67	315.97	34.46	
2025-01-07 11:04:35.88	316.01	34.42	
2025-01-07 11:04:36.08	316.06	34.38	
2025-01-07 11:04:36.28	316.10	34.35	
2025-01-07 11:04:36.49	316.15	34.31	
2025-01-07 11:04:36.69	316.19	34.27	
2025-01-07 11:04:36.90	316.23	34.23	
2025-01-07 11:04:37.10	316.28	34.20	
2025-01-07 11:04:37.31	316.32	34.16	
2025-01-07 11:04:37.52	316.37	34.12	
2025-01-07 11:04:37.72	316.41	34.08	
2025-01-07 11:04:37.93	316.46	34.05	
2025-01-07 11:04:38.13	316.50	34.01	
2025-01-07 11:04:38.34	316.55	33.97	
2025-01-07 11:04:38.55	316.59	33.93	
2025-01-07 11:04:38.75	316.63	33.90	
2025-01-07 11:04:38.96	316.68	33.86	
2025-01-07 11:04:39.17	316.72	33.82	
2025-01-07 11:04:39.38	316.77	33.78	
2025-01-07 11:04:39.59	316.81	33.75	
2025-01-07 11:04:39.79	316.85	33.71	
2025-01-07 11:04:40.00	316.90	33.67	
2025-01-07 11:04:40.21	316.94	33.63	
2025-01-07 11:04:40.41	316.99	33.60	
2025-01-07 11:04:40.61	317.03	33.56	
2025-01-07 11:04:40.82	317.07	33.52	
2025-01-07 11:04:41.03	317.11	33.49	
2025-01-07 11:04:41.23	317.16	33.45	
2025-01-07 11:04:41.43	317.20	33.41	
2025-01-07 11:04:41.64	317.24	33.38	
2025-01-07 11:04:41.85	317.28	33.34	
2025-01-07 11:04:42.05	317.33	33.30	
2025-01-07 11:04:42.26	317.37	33.27	
2025-01-07 11:04:42.46	317.41	33.23	
2025-01-07 11:04:42.67	317.45	33.19	
2025-01-07 11:04:42.87	317.49	33.16	
2025-01-07 11:04:43.08	317.54	33.12	
2025-01-07 11:04:43.29	317.58	33.08	
2025-01-07 11:04:43.49	317.62	33.05	
2025-01-07 11:04:43.70	317.66	33.01	
2025-01-07 11:04:43.90	317.70	32.97	
2025-01-07 11:04:44.11	317.75	32.94	
2025-01-07 11:04:44.31	317.79	32.90	
2025-01-07 11:04:44.51	317.83	32.87	
2025-01-07 11:04:44.72	317.87	32.83	
2025-01-07 11:04:44.92	317.91	32.79	
2025-01-07 11:04:45.13	317.95	32.76	
2025-01-07 11:04:45.33	317.99	32.72	
2025-01-07 11:04:45.54	318.03	32.68	
2025-01-07 11:04:45.74	318.07	32.65	
2025-01-07 11:04:45.95	318.11	32.61	
2025-01-07 11:04:46.15	318.15	32.58	
2025-01-07 11:04:46.36	318.19	32.54	
2025-01-07 11:04:46.56	318.23	32.50	
2025-01-07 11:04:46.77	318.27	32.47	
2025-01-07 11:04:46.97	318.31	32.43	
2025-01-07 11:04:47.18	318.35	32.39	
2025-01-07 11:04:47.38	318.39	32.36	
2025-01-07 11:04:47.59	318.43	32.32	
2025-01-07 11:04:47.79	318.47	32.29	
2025-01-07 11:04:48.00	318.51	32.25	
2025-01-07 11:04:48.20	318.55	32.22	
2025-01-07 11:04:48.41	318.59	32.18	
2025-01-07 11:04:48.61	318.63	32.14	
2025-01-07 11:04:48.82	318.67	32.11	
2025-01-07 11:04:49.04	318.71	32.07	
2025-01-07 11:04:49.24	318.75	32.03	
2025-01-07 11:04:49.45	318.79	32.00	
2025-01-07 11:04:49.66	318.83	31.96	
2025-01-07 11:04:49.86	318.87	31.93	
2025-01-07 11:04:50.06	318.91	31.89	
2025-01-07 11:04:50.27	318.95	31.86	
2025-01-07 11:04:50.48	318.99	31.82	
2025-01-07 11:04:50.68	319.02	31.78	
2025-01-07 11:04:50.89	319.06	31.75	
2025-01-07 11:04:51.09	319.10	31.71	
2025-01-07 11:04:51.30	319.14	31.68	
2025-01-07 11:04:51.50	319.18	31.64	
2025-01-07 11:04:51.71	319.22	31.61	
2025-01-07 11:04:51.92	319.26	31.57	
2025-01-07 11:04:52.12	319.29	31.54	
2025-01-07 11:04:52.33	319.33	31.50	
2025-01-07 11:04:52.53	319.37	31.47	
2025-01-07 11:04:52.74	319.41	31.43	
2025-01-07 11:04:52.95	319.45	31.39	
2025-01-07 11:04:53.15	319.48	31.36	
2025-01-07 11:04:53.35	319.52	31.33	
2025-01-07 11:04:53.56	319.56	31.29	
2025-01-07 11:04:53.77	319.60	31.25	
2025-01-07 11:04:53.97	319.63	31.22	
2025-01-07 11:04:54.18	319.67	31.18	
2025-01-07 11:04:54.38	319.71	31.15	
2025-01-07 11:04:54.59	319.74	31.11	
2025-01-07 11:04:54.79	319.78	31.08	
2025-01-07 11:04:55.00	319.82	31.04	
2025-01-07 11:04:55.21	319.86	31.01	
2025-01-07 11:04:55.41	319.89	30.97	
2025-01-07 11:04:55.62	319.93	30.94	
2025-01-07 11:04:55.82	319.96	30.90	
2025-01-07 11:04:56.03	320.00	30.87	
2025-01-07 11:04:56.23	320.04	30.83	
2025-01-07 11:04:56.45	320.08	30.80	
2025-01-07 11:04:56.66	320.11	30.76	
2025-01-07 11:04:56.87	320.15	30.73	
2025-01-07 11:04:57.07	320.19	30.69	
2025-01-07 11:04:57.28	320.22	30.66	
2025-01-07 11:04:57.48	320.26	30.62	
2025-01-07 11:04:57.69	320.29	30.59	
2025-01-07 11:04:57.89	320.33	30.55	
2025-01-07 11:04:58.10	320.37	30.52	
2025-01-07 11:04:58.31	320.40	30.48	
2025-01-07 11:04:58.51	320.44	30.45	
2025-01-07 11:04:58.71	320.47	30.42	
2025-01-07 11:04:58.92	320.51	30.38	
2025-01-07 11:04:59.13	320.54	30.35	
2025-01-07 11:04:59.33	320.58	30.31	
2025-01-07 11:04:59.54	320.62	30.28	
2025-01-07 11:04:59.74	320.65	30.25	
2025-01-07 11:04:59.95	320.69	30.21	
2025-01-07 11:05:00.15	320.72	30.18	
2025-01-07 11:05:00.35	320.75	30.14	
2025-01-07 11:05:00.56	320.79	30.11	
2025-01-07 11:05:00.76	320.82	30.08	
2025-01-07 11:05:00.97	320.86	30.04	
2025-01-07 11:05:01.17	320.89	30.01	
2025-01-07 11:05:01.38	320.93	29.97	
2025-01-07 11:05:01.58	320.96	29.94	
2025-01-07 11:05:01.78	321.00	29.91	
2025-01-07 11:05:01.99	321.03	29.87	
2025-01-07 11:05:02.20	321.07	29.84	
2025-01-07 11:05:02.40	321.10	29.80	
2025-01-07 11:05:02.61	321.13	29.77	
2025-01-07 11:05:02.82	321.17	29.74	
2025-01-07 11:05:03.03	321.20	29.70	
2025-01-07 11:05:03.24	321.24	29.67	
2025-01-07 11:05:03.44	321.27	29.63	
2025-01-07 11:05:03.65	321.31	29.60	
2025-01-07 11:05:03.85	321.34	29.57	
2025-01-07 11:05:04.05	321.37	29.53	
2025-01-07 11:05:04.26	321.41	29.50	
2025-01-07 11:05:04.46	321.44	29.47	
2025-01-07 11:05:04.67	321.47	29.43	
2025-01-07 11:05:04.88	321.51	29.40	
2025-01-07 11:05:05.08	321.54	29.36	
2025-01-07 11:05:05.29	321.57	29.33	
2025-01-07 11:05:05.49	321.61	29.30	
2025-01-07 11:05:05.70	321.64	29.26	
2025-01-07 11:05:05.90	321.67	29.23	
2025-01-07 11:05:06.11	321.71	29.20	
2025-01-07 11:05:06.31	321.74	29.17	
2025-01-07 11:05:06.52	321.77	29.13	
2025-01-07 11:05:06.72	321.80	29.10	
2025-01-07 11:05:06.93	321.84	29.06	
2025-01-07 11:05:07.13	321.87	29.03	
2025-01-07 11:05:07.34	321.90	29.00	
2025-01-07 11:05:07.54	321.94	28.97	
2025-01-07 11:05:07.75	321.97	28.93	
2025-01-07 11:05:07.95	322.00	28.90	
2025-01-07 11:05:08.16	322.03	28.87	
2025-01-07 11:05:08.36	322.06	28.83	
2025-01-07 11:05:08.57	322.10	28.80	
2025-01-07 11:05:08.77	322.13	28.77	
2025-01-07 11:05:08.98	322.16	28.73	
2025-01-07 11:05:09.18	322.19	28.70	
2025-01-07 11:05:09.38	322.22	28.67	
2025-01-07 11:05:09.59	322.26	28.64	
2025-01-07 11:05:09.80	322.29	28.60	
2025-01-07 11:05:10.00	322.32	28.57	
2025-01-07 11:05:10.21	322.35	28.54	
2025-01-07 11:05:10.42	322.39	28.50	
2025-01-07 11:05:10.62	322.42	28.47	
2025-01-07 11:05:10.83	322.45	28.44	
2025-01-07 11:05:11.03	322.48	28.41	
2025-01-07 11:05:11.24	322.51	28.37	
2025-01-07 11:05:11.45	322.54	28.34	
2025-01-07 11:05:11.65	322.57	28.31	
2025-01-07 11:05:11.86	322.61	28.28	
2025-01-07 11:05:12.06	322.64	28.24	
2025-01-07 11:05:12.27	322.67	28.21	
2025-01-07 11:05:12.49	322.70	28.18	
2025-01-07 11:05:12.69	322.73	28.15	
2025-01-07 11:05:12.90	322.76	28.11	
2025-01-07 11:05:13.11	322.79	28.08	
2025-01-07 11:05:13.31	322.82	28.05	
2025-01-07 11:05:13.51	322.85	28.02	
2025-01-07 11:05:13.72	322.89	27.98	
2025-01-07 11:05:13.92	322.92	27.95	
2025-01-07 11:05:14.13	322.95	27.92	
2025-01-07 11:05:14.34	322.98	27.89	
2025-01-07 11:05:14.54	323.01	27.85	
2025-01-07 11:05:14.75	323.04	27.82	
2025-01-07 11:05:14.96	323.07	27.79	
2025-01-07 11:05:15.16	323.10	27.76	
2025-01-07 11:05:15.37	323.13	27.73	
2025-01-07 11:05:15.57	323.16	27.69	
2025-01-07 11:05:15.78	323.19	27.66	
2025-01-07 11:05:15.98	323.22	27.63	
2025-01-07 11:05:16.19	323.25	27.60	
2025-01-07 11:05:16.39	323.28	27.57	
2025-01-07 11:05:16.60	323.31	27.53	
2025-01-07 11:05:16.80	323.34	27.50	
2025-01-07 11:05:17.01	323.37	27.47	
2025-01-07 11:05:17.21	323.40	27.44	
2025-01-07 11:05:17.42	323.43	27.41	
2025-01-07 11:05:17.63	323.46	27.37	
2025-01-07 11:05:17.83	323.49	27.34	
2025-01-07 11:05:18.04	323.52	27.31	
2025-01-07 11:05:18.24	323.55	27.28	
2025-01-07 11:05:18.45	323.58	27.25	
2025-01-07 11:05:18.65	323.61	27.22	
2025-01-07 11:05:18.87	323.64	27.18	
2025-01-07 11:05:19.08	323.67	27.15	
2025-01-07 11:05:19.28	323.70	27.12	
2025-01-07 11:05:19.49	323.72	27.09	
2025-01-07 11:05:19.69	323.75	27.06	
2025-01-07 11:05:19.90	323.78	27.03	
2025-01-07 11:05:20.10	323.81	27.00	
2025-01-07 11:05:20.31	323.84	26.96	
2025-01-07 11:05:20.51	323.87	26.93	
2025-01-07 11:05:20.72	323.90	26.90	
2025-01-07 11:05:20.92	323.93	26.87	
2025-01-07 11:05:21.13	323.96	26.84	
2025-01-07 11:05:21.33	323.98	26.81	
2025-01-07 11:05:21.54	324.01	26.78	
2025-01-07 11:05:21.74	324.04	26.75	
2025-01-07 11:05:21.95	324.07	26.72	
2025-01-07 11:05:22.15	324.10	26.68	
2025-01-07 11:05:22.36	324.13	26.65	
2025-01-07 11:05:22.56	324.15	26.62	
2025-01-07 11:05:22.77	324.18	26.59	
2025-01-07 11:05:22.98	324.21	26.56	
2025-01-07 11:05:23.18	324.24	26.53	
2025-01-07 11:05:23.38	324.27	26.50	
2025-01-07 11:05:23.59	324.29	26.47	
2025-01-07 11:05:23.80	324.32	26.44	
2025-01-07 11:05:24.00	324.35	26.41	
2025-01-07 11:05:24.21	324.38	26.37	
2025-01-07 11:05:24.41	324.41	26.35	
2025-01-07 11:05:24.62	324.43	26.31	
2025-01-07 11:05:24.82	324.46	26.28	
2025-01-07 11:05:25.03	324.49	26.25	
2025-01-07 11:05:25.23	324.52	26.22	
2025-01-07 11:05:25.44	324.54	26.19	
2025-01-07 11:05:25.65	324.57	26.16	
2025-01-07 11:05:25.85	324.60	26.13	
2025-01-07 11:05:26.06	324.63	26.10	
2025-01-07 11:05:26.26	324.65	26.07	
2025-01-07 11:05:26.47	324.68	26.04	
2025-01-07 11:05:26.67	324.71	26.01	
2025-01-07 11:05:26.88	324.74	25.98	
2025-01-07 11:05:27.08	324.76	25.95	
2025-01-07 11:05:27.29	324.79	25.92	
2025-01-07 11:05:27.49	324.82	25.89	
2025-01-07 11:05:27.70	324.84	25.86	
2025-01-07 11:05:27.90	324.87	25.83	
2025-01-07 11:05:28.11	324.90	25.80	
2025-01-07 11:05:28.31	324.92	25.77	
2025-01-07 11:05:28.52	324.95	25.74	
2025-01-07 11:05:28.72	324.98	25.71	
2025-01-07 11:05:28.93	325.00	25.68	
2025-01-07 11:05:29.14	325.03	25.65	
2025-01-07 11:05:29.34	325.06	25.62	
2025-01-07 11:05:29.54	325.08	25.59	
2025-01-07 11:05:29.75	325.11	25.56	
2025-01-07 11:05:29.96	325.14	25.53	
2025-01-07 11:05:30.16	325.16	25.50	
2025-01-07 11:05:30.36	325.19	25.47	
2025-01-07 11:05:30.57	325.22	25.44	
2025-01-07 11:05:30.78	325.24	25.41	
2025-01-07 11:05:30.98	325.27	25.38	
2025-01-07 11:05:31.19	325.29	25.35	
2025-01-07 11:05:31.39	325.32	25.32	
2025-01-07 11:05:31.60	325.35	25.29	
2025-01-07 11:05:31.80	325.37	25.26	
2025-01-07 11:05:32.01	325.40	25.23	
2025-01-07 11:05:32.21	325.42	25.20	
2025-01-07 11:05:32.42	325.45	25.17	
2025-01-07 11:05:32.62	325.48	25.14	
2025-01-07 11:05:32.84	325.50	25.11	
2025-01-07 11:05:33.05	325.53	25.08	
2025-01-07 11:05:33.25	325.55	25.05	
2025-01-07 11:05:33.46	325.58	25.02	
2025-01-07 11:05:33.66	325.61	24.99	
2025-01-07 11:05:33.88	325.63	24.96	
2025-01-07 11:05:34.09	325.66	24.93	
2025-01-07 11:05:34.29	325.68	24.90	
2025-01-07 11:05:34.50	325.71	24.87	
2025-01-07 11:05:34.71	325.74	24.84	
2025-01-07 11:05:34.91	325.76	24.81	
2025-01-07 11:05:35.12	325.79	24.78	
2025-01-07 11:05:35.32	325.81	24.75	
2025-01-07 11:05:35.53	325.84	24.72	
2025-01-07 11:05:35.73	325.86	24.69	
2025-01-07 11:05:35.94	325.89	24.66	
2025-01-07 11:05:36.14	325.91	24.64	
2025-01-07 11:05:36.35	325.94	24.61	
2025-01-07 11:05:36.56	325.96	24.58	
2025-01-07 11:05:36.76	325.99	24.55	
2025-01-07 11:05:36.96	326.01	24.52	
2025-01-07 11:05:37.17	326.04	24.49	
2025-01-07 11:05:37.38	326.06	24.46	
2025-01-07 11:05:37.58	326.09	24.43	
2025-01-07 11:05:37.79	326.11	24.40	
2025-01-07 11:05:37.99	326.13	24.37	
2025-01-07 11:05:38.20	326.16	24.35	
2025-01-07 11:05:38.40	326.18	24.32	
2025-01-07 11:05:38.61	326.21	24.29	
2025-01-07 11:05:38.82	326.23	24.26	
2025-01-07 11:05:39.02	326.26	24.23	
2025-01-07 11:05:39.22	326.28	24.20	
2025-01-07 11:05:39.43	326.31	24.17	
2025-01-07 11:05:39.64	326.33	24.14	
2025-01-07 11:05:39.84	326.35	24.12	
2025-01-07 11:05:40.05	326.38	24.09	
2025-01-07 11:05:40.25	326.40	24.06	
2025-01-07 11:05:40.46	326.43	24.03	
2025-01-07 11:05:40.66	326.45	24.00	
2025-01-07 11:05:40.87	326.48	23.97	
2025-01-07 11:05:41.08	326.50	23.94	
2025-01-07 11:05:41.28	326.52	23.92	
2025-01-07 11:05:41.49	326.55	23.89	
2025-01-07 11:05:41.69	326.57	23.86	
2025-01-07 11:05:41.90	326.60	23.83	
2025-01-07 11:05:42.10	326.62	23.80	
2025-01-07 11:05:42.31	326.64	23.77	
2025-01-07 11:05:42.52	326.67	23.74	
2025-01-07 11:05:42.73	326.69	23.71	
2025-01-07 11:05:42.93	326.71	23.69	
2025-01-07 11:05:43.14	326.74	23.66	
2025-01-07 11:05:43.35	326.76	23.63	
2025-01-07 11:05:43.55	326.79	23.60	
2025-01-07 11:05:43.75	326.81	23.57	
2025-01-07 11:05:43.96	326.83	23.55	
2025-01-07 11:05:44.16	326.85	23.52	
2025-01-07 11:05:44.37	326.88	23.49	
2025-01-07 11:05:44.57	326.90	23.46	
2025-01-07 11:05:44.78	326.93	23.43	
2025-01-07 11:05:44.98	326.95	23.41	
2025-01-07 11:05:45.19	326.97	23.38	
2025-01-07 11:05:45.40	327.00	23.35	
2025-01-07 11:05:45.60	327.02	23.32	
2025-01-07 11:05:45.80	327.04	23.30	
2025-01-07 11:05:46.01	327.06	23.27	
2025-01-07 11:05:46.22	327.09	23.24	
2025-01-07 11:05:46.42	327.11	23.21	
2025-01-07 11:05:46.63	327.13	23.18	
2025-01-07 11:05:46.83	327.16	23.16	
2025-01-07 11:05:47.04	327.18	23.13	
2025-01-07 11:05:47.24	327.20	23.10	
2025-01-07 11:05:47.45	327.22	23.07	
2025-01-07 11:05:47.65	327.25	23.04	
2025-01-07 11:05:47.86	327.27	23.02	
2025-01-07 11:05:48.06	327.29	22.99	
2025-01-07 11:05:48.27	327.31	22.96	
2025-01-07 11:05:48.47	327.34	22.93	
2025-01-07 11:05:48.67	327.36	22.91	
2025-01-07 11:05:48.88	327.38	22.88	
2025-01-07 11:05:49.08	327.40	22.85	
2025-01-07 11:05:49.29	327.43	22.82	
2025-01-07 11:05:49.50	327.45	22.80	
2025-01-07 11:05:49.70	327.47	22.77	
2025-01-07 11:05:49.91	327.49	22.74	
2025-01-07 11:05:50.11	327.52	22.72	
2025-01-07 11:05:50.32	327.54	22.69	
2025-01-07 11:05:50.52	327.56	22.66	
2025-01-07 11:05:50.73	327.58	22.63	
2025-01-07 11:05:50.93	327.60	22.61	
2025-01-07 11:05:51.14	327.63	22.58	
2025-01-07 11:05:51.34	327.65	22.55	
2025-01-07 11:05:51.55	327.67	22.52	
2025-01-07 11:05:51.75	327.69	22.50	
2025-01-07 11:05:51.96	327.71	22.47	
2025-01-07 11:05:52.16	327.74	22.44	
2025-01-07 11:05:52.37	327.76	22.42	
2025-01-07 11:05:52.57	327.78	22.39	
2025-01-07 11:05:52.78	327.80	22.36	
2025-01-07 11:05:52.98	327.82	22.34	
2025-01-07 11:05:53.19	327.84	22.31	
2025-01-07 11:05:53.39	327.87	22.28	
2025-01-07 11:05:53.60	327.89	22.25	
2025-01-07 11:05:53.81	327.91	22.23	
2025-01-07 11:05:54.01	327.93	22.20	
2025-01-07 11:05:54.22	327.95	22.17	
2025-01-07 11:05:54.42	327.97	22.15	
2025-01-07 11:05:54.63	328.00	22.12	
2025-01-07 11:05:54.83	328.02	22.09	
2025-01-07 11:05:55.04	328.04	22.07	
2025-01-07 11:05:55.24	328.06	22.04	
2025-01-07 11:05:55.45	328.08	22.01	
2025-01-07 11:05:55.65	328.10	21.99	
2025-01-07 11:05:55.86	328.12	21.96	
2025-01-07 11:05:56.06	328.14	21.93	
2025-01-07 11:05:56.27	328.17	21.91	
2025-01-07 11:05:56.47	328.19	21.88	
2025-01-07 11:05:56.68	328.21	21.85	
2025-01-07 11:05:56.88	328.23	21.83	
2025-01-07 11:05:57.09	328.25	21.80	
2025-01-07 11:05:57.29	328.27	21.77	
2025-01-07 11:05:57.50	328.29	21.75	
2025-01-07 11:05:57.70	328.31	21.72	
2025-01-07 11:05:57.91	328.33	21.69	
2025-01-07 11:05:58.11	328.35	21.67	
2025-01-07 11:05:58.32	328.37	21.64	
2025-01-07 11:05:58.53	328.40	21.61	
2025-01-07 11:05:58.73	328.42	21.59	
2025-01-07 11:05:58.94	328.44	21.56	
2025-01-07 11:05:59.14	328.46	21.54	
2025-01-07 11:05:59.35	328.48	21.51	
2025-01-07 11:05:59.55	328.50	21.48	
2025-01-07 11:05:59.76	328.52	21.46	
2025-01-07 11:05:59.96	328.54	21.43	
2025-01-07 11:06:00.18	328.56	21.40	
2025-01-07 11:06:00.38	328.58	21.38	
2025-01-07 11:06:00.60	328.60	21.35	
2025-01-07 11:06:00.81	328.62	21.32	
2025-01-07 11:06:01.02	328.65	21.30	
2025-01-07 11:06:01.22	328.67	21.27	
2025-01-07 11:06:01.43	328.69	21.24	
2025-01-07 11:06:01.63	328.71	21.22	
2025-01-07 11:06:01.84	328.73	21.19	
2025-01-07 11:06:02.04	328.75	21.17	
2025-01-07 11:06:02.25	328.77	21.14	
2025-01-07 11:06:02.45	328.79	21.12	
2025-01-07 11:06:02.65	328.81	21.09	
2025-01-07 11:06:02.86	328.83	21.06	
2025-01-07 11:06:03.07	328.85	21.04	
2025-01-07 11:06:03.27	328.87	21.01	
2025-01-07 11:06:03.48	328.89	20.99	
2025-01-07 11:06:03.70	328.91	20.96	
2025-01-07 11:06:03.90	328.93	20.93	
2025-01-07 11:06:04.11	328.95	20.91	
2025-01-07 11:06:04.31	328.97	20.88	
2025-01-07 11:06:04.52	328.99	20.86	
2025-01-07 11:06:04.72	329.01	20.83	
2025-01-07 11:06:04.93	329.03	20.80	
