passes_logs/2025/01/07/SPB_Silybum_02/SPB_Silybum_02__20250107_024332_SUOMI_NPP_rec.log

#Pass ID: 20250107_024332_SUOMI NPP
#Satellite: SUOMI NPP
#Configuration: NPP
#Start time: 2025-01-07 02:43:32

#Version: 2.0.20230423
#Station: SPB_Silybum_02
#Location: 30.233357 lon 59.946436 lat
#TLE: 1 37849U 11061A   25006.17970494  .00000315  00000+0  17023-3 0  9998
#TLE: 2 37849  98.7437 307.2805 0001982  54.5030 305.6331 14.19533747683667

#Time	Az	El	Level	Level2	SNR	BER	Gain	Gain2
2025-01-07 02:43:34.06	14.01	4.07	
2025-01-07 02:43:34.27	13.99	4.08	
2025-01-07 02:43:34.47	13.97	4.09	
2025-01-07 02:43:34.68	13.96	4.10	
2025-01-07 02:43:34.88	13.94	4.11	
2025-01-07 02:43:35.09	13.92	4.12	
2025-01-07 02:43:35.29	13.90	4.13	
2025-01-07 02:43:35.50	13.88	4.15	
2025-01-07 02:43:35.70	13.86	4.16	
2025-01-07 02:43:35.91	13.85	4.17	
2025-01-07 02:43:36.11	13.83	4.18	
2025-01-07 02:43:36.32	13.81	4.19	
2025-01-07 02:43:36.52	13.79	4.20	
2025-01-07 02:43:36.73	13.77	4.21	
2025-01-07 02:43:36.93	13.76	4.22	
2025-01-07 02:43:37.14	13.74	4.24	
2025-01-07 02:43:37.34	13.72	4.25	
2025-01-07 02:43:37.54	13.70	4.26	
2025-01-07 02:43:37.75	13.68	4.27	
2025-01-07 02:43:37.95	13.66	4.28	
2025-01-07 02:43:38.16	13.64	4.29	
2025-01-07 02:43:38.36	13.63	4.30	
2025-01-07 02:43:38.57	13.61	4.31	
2025-01-07 02:43:38.78	13.59	4.33	
2025-01-07 02:43:38.98	13.57	4.34	
2025-01-07 02:43:39.20	13.55	4.35	
2025-01-07 02:43:39.40	13.53	4.36	
2025-01-07 02:43:39.61	13.51	4.37	
2025-01-07 02:43:39.81	13.50	4.38	
2025-01-07 02:43:40.02	13.48	4.39	
2025-01-07 02:43:40.22	13.46	4.40	
2025-01-07 02:43:40.43	13.44	4.42	
2025-01-07 02:43:40.64	13.42	4.43	
2025-01-07 02:43:40.84	13.40	4.44	
2025-01-07 02:43:41.05	13.38	4.45	
2025-01-07 02:43:41.25	13.36	4.46	
2025-01-07 02:43:41.45	13.35	4.47	
2025-01-07 02:43:41.66	13.33	4.48	
2025-01-07 02:43:41.86	13.31	4.49	
2025-01-07 02:43:42.07	13.29	4.51	
2025-01-07 02:43:42.27	13.27	4.52	
2025-01-07 02:43:42.48	13.25	4.53	
2025-01-07 02:43:42.69	13.23	4.54	
2025-01-07 02:43:42.89	13.22	4.55	
2025-01-07 02:43:43.10	13.20	4.56	
2025-01-07 02:43:43.30	13.18	4.57	
2025-01-07 02:43:43.51	13.16	4.59	
2025-01-07 02:43:43.71	13.14	4.60	
2025-01-07 02:43:43.92	13.12	4.61	
2025-01-07 02:43:44.13	13.10	4.62	
2025-01-07 02:43:44.33	13.08	4.63	
2025-01-07 02:43:44.53	13.06	4.64	
2025-01-07 02:43:44.74	13.04	4.65	
2025-01-07 02:43:44.95	13.03	4.67	
2025-01-07 02:43:45.15	13.01	4.68	
2025-01-07 02:43:45.36	12.99	4.69	
2025-01-07 02:43:45.56	12.97	4.70	
2025-01-07 02:43:45.77	12.95	4.71	
2025-01-07 02:43:45.97	12.93	4.72	
2025-01-07 02:43:46.18	12.91	4.73	
2025-01-07 02:43:46.38	12.89	4.74	
2025-01-07 02:43:46.60	12.87	4.76	
2025-01-07 02:43:46.80	12.85	4.77	
2025-01-07 02:43:47.01	12.83	4.78	
2025-01-07 02:43:47.22	12.81	4.79	
2025-01-07 02:43:47.42	12.80	4.80	
2025-01-07 02:43:47.63	12.78	4.81	
2025-01-07 02:43:47.83	12.76	4.82	
2025-01-07 02:43:48.04	12.74	4.84	
2025-01-07 02:43:48.24	12.72	4.85	
2025-01-07 02:43:48.45	12.70	4.86	
2025-01-07 02:43:48.65	12.68	4.87	
2025-01-07 02:43:48.86	12.66	4.88	
2025-01-07 02:43:49.06	12.64	4.89	
2025-01-07 02:43:49.27	12.62	4.90	
2025-01-07 02:43:49.47	12.60	4.91	
2025-01-07 02:43:49.67	12.59	4.93	
2025-01-07 02:43:49.88	12.57	4.94	
2025-01-07 02:43:50.08	12.55	4.95	
2025-01-07 02:43:50.29	12.53	4.96	
2025-01-07 02:43:50.50	12.51	4.97	
2025-01-07 02:43:50.70	12.49	4.98	
2025-01-07 02:43:50.90	12.47	4.99	
2025-01-07 02:43:51.11	12.45	5.01	
2025-01-07 02:43:51.32	12.43	5.02	
2025-01-07 02:43:51.52	12.41	5.03	
2025-01-07 02:43:51.73	12.39	5.04	
2025-01-07 02:43:51.93	12.37	5.05	
2025-01-07 02:43:52.14	12.35	5.06	
2025-01-07 02:43:52.34	12.33	5.07	
2025-01-07 02:43:52.55	12.31	5.09	
2025-01-07 02:43:52.75	12.29	5.10	
2025-01-07 02:43:52.97	12.27	5.11	
2025-01-07 02:43:53.18	12.25	5.12	
2025-01-07 02:43:53.38	12.23	5.13	
2025-01-07 02:43:53.59	12.21	5.14	
2025-01-07 02:43:53.79	12.19	5.15	
2025-01-07 02:43:53.99	12.18	5.17	
2025-01-07 02:43:54.20	12.15	5.18	
2025-01-07 02:43:54.41	12.13	5.19	
2025-01-07 02:43:54.61	12.12	5.20	
2025-01-07 02:43:54.82	12.10	5.21	
2025-01-07 02:43:55.02	12.08	5.22	
2025-01-07 02:43:55.23	12.06	5.23	
2025-01-07 02:43:55.43	12.04	5.25	
2025-01-07 02:43:55.64	12.02	5.26	
2025-01-07 02:43:55.84	12.00	5.27	
2025-01-07 02:43:56.05	11.98	5.28	
2025-01-07 02:43:56.25	11.96	5.29	
2025-01-07 02:43:56.46	11.94	5.30	
2025-01-07 02:43:56.67	11.92	5.31	
2025-01-07 02:43:56.87	11.90	5.33	
2025-01-07 02:43:57.08	11.88	5.34	
2025-01-07 02:43:57.28	11.86	5.35	
2025-01-07 02:43:57.48	11.84	5.36	
2025-01-07 02:43:57.69	11.82	5.37	
2025-01-07 02:43:57.90	11.80	5.38	
2025-01-07 02:43:58.10	11.78	5.39	
2025-01-07 02:43:58.30	11.76	5.40	
2025-01-07 02:43:58.51	11.74	5.42	
2025-01-07 02:43:58.71	11.72	5.43	
2025-01-07 02:43:58.92	11.70	5.44	
2025-01-07 02:43:59.13	11.68	5.45	
2025-01-07 02:43:59.33	11.66	5.46	
2025-01-07 02:43:59.54	11.64	5.47	
2025-01-07 02:43:59.74	11.62	5.48	
2025-01-07 02:43:59.95	11.60	5.50	
2025-01-07 02:44:00.15	11.58	5.51	
2025-01-07 02:44:00.36	11.56	5.52	
2025-01-07 02:44:00.56	11.54	5.53	
2025-01-07 02:44:00.77	11.52	5.54	
2025-01-07 02:44:00.97	11.50	5.55	
2025-01-07 02:44:01.18	11.48	5.57	
2025-01-07 02:44:01.38	11.46	5.58	
2025-01-07 02:44:01.59	11.44	5.59	
2025-01-07 02:44:01.79	11.42	5.60	
2025-01-07 02:44:02.00	11.40	5.61	
2025-01-07 02:44:02.20	11.38	5.62	
2025-01-07 02:44:02.41	11.36	5.63	
2025-01-07 02:44:02.61	11.34	5.65	
2025-01-07 02:44:02.82	11.31	5.66	
2025-01-07 02:44:03.03	11.29	5.67	
2025-01-07 02:44:03.23	11.27	5.68	
2025-01-07 02:44:03.44	11.25	5.69	
2025-01-07 02:44:03.64	11.23	5.70	
2025-01-07 02:44:03.85	11.21	5.71	
2025-01-07 02:44:04.05	11.19	5.73	
2025-01-07 02:44:04.26	11.17	5.74	
2025-01-07 02:44:04.46	11.15	5.75	
2025-01-07 02:44:04.67	11.13	5.76	
2025-01-07 02:44:04.87	11.11	5.77	
2025-01-07 02:44:05.08	11.09	5.78	
2025-01-07 02:44:05.28	11.07	5.79	
2025-01-07 02:44:05.49	11.05	5.81	
2025-01-07 02:44:05.69	11.03	5.82	
2025-01-07 02:44:05.90	11.01	5.83	
2025-01-07 02:44:06.10	10.99	5.84	
2025-01-07 02:44:06.31	10.97	5.85	
2025-01-07 02:44:06.52	10.94	5.86	
2025-01-07 02:44:06.72	10.92	5.87	
2025-01-07 02:44:06.92	10.90	5.89	
2025-01-07 02:44:07.13	10.88	5.90	
2025-01-07 02:44:07.34	10.86	5.91	
2025-01-07 02:44:07.54	10.84	5.92	
2025-01-07 02:44:07.75	10.82	5.93	
2025-01-07 02:44:07.95	10.80	5.94	
2025-01-07 02:44:08.16	10.78	5.96	
2025-01-07 02:44:08.36	10.76	5.97	
2025-01-07 02:44:08.57	10.74	5.98	
2025-01-07 02:44:08.77	10.72	5.99	
2025-01-07 02:44:08.99	10.70	6.00	
2025-01-07 02:44:09.19	10.67	6.01	
2025-01-07 02:44:09.40	10.65	6.03	
2025-01-07 02:44:09.60	10.63	6.04	
2025-01-07 02:44:09.80	10.61	6.05	
2025-01-07 02:44:10.01	10.59	6.06	
2025-01-07 02:44:10.21	10.57	6.07	
2025-01-07 02:44:10.42	10.55	6.08	
2025-01-07 02:44:10.62	10.53	6.09	
2025-01-07 02:44:10.83	10.51	6.11	
2025-01-07 02:44:11.03	10.49	6.12	
2025-01-07 02:44:11.24	10.47	6.13	
2025-01-07 02:44:11.44	10.44	6.14	
2025-01-07 02:44:11.65	10.42	6.15	
2025-01-07 02:44:11.86	10.40	6.16	
2025-01-07 02:44:12.06	10.38	6.17	
2025-01-07 02:44:12.26	10.36	6.19	
2025-01-07 02:44:12.47	10.34	6.20	
2025-01-07 02:44:12.68	10.32	6.21	
2025-01-07 02:44:12.88	10.30	6.22	
2025-01-07 02:44:13.09	10.28	6.23	
2025-01-07 02:44:13.29	10.25	6.24	
2025-01-07 02:44:13.49	10.23	6.25	
2025-01-07 02:44:13.70	10.21	6.27	
2025-01-07 02:44:13.91	10.19	6.28	
2025-01-07 02:44:14.11	10.17	6.29	
2025-01-07 02:44:14.31	10.15	6.30	
2025-01-07 02:44:14.52	10.13	6.31	
2025-01-07 02:44:14.73	10.11	6.32	
2025-01-07 02:44:14.93	10.08	6.34	
2025-01-07 02:44:15.14	10.06	6.35	
2025-01-07 02:44:15.34	10.04	6.36	
2025-01-07 02:44:15.55	10.02	6.37	
2025-01-07 02:44:15.76	10.00	6.38	
2025-01-07 02:44:15.96	9.98	6.39	
2025-01-07 02:44:16.17	9.95	6.41	
2025-01-07 02:44:16.37	9.93	6.42	
2025-01-07 02:44:16.58	9.91	6.43	
2025-01-07 02:44:16.78	9.89	6.44	
2025-01-07 02:44:16.99	9.87	6.45	
2025-01-07 02:44:17.20	9.85	6.46	
2025-01-07 02:44:17.40	9.83	6.47	
2025-01-07 02:44:17.60	9.80	6.49	
2025-01-07 02:44:17.81	9.78	6.50	
2025-01-07 02:44:18.02	9.76	6.51	
2025-01-07 02:44:18.22	9.74	6.52	
2025-01-07 02:44:18.43	9.72	6.53	
2025-01-07 02:44:18.63	9.70	6.54	
2025-01-07 02:44:18.84	9.67	6.56	
2025-01-07 02:44:19.04	9.65	6.57	
2025-01-07 02:44:19.25	9.63	6.58	
2025-01-07 02:44:19.46	9.61	6.59	
2025-01-07 02:44:19.66	9.59	6.60	
2025-01-07 02:44:19.86	9.57	6.61	
2025-01-07 02:44:20.07	9.54	6.63	
2025-01-07 02:44:20.27	9.52	6.64	
2025-01-07 02:44:20.48	9.50	6.65	
2025-01-07 02:44:20.68	9.48	6.66	
2025-01-07 02:44:20.89	9.46	6.67	
2025-01-07 02:44:21.10	9.43	6.68	
2025-01-07 02:44:21.30	9.41	6.69	
2025-01-07 02:44:21.51	9.39	6.71	
2025-01-07 02:44:21.71	9.37	6.72	
2025-01-07 02:44:21.92	9.35	6.73	
2025-01-07 02:44:22.12	9.33	6.74	
2025-01-07 02:44:22.33	9.30	6.75	
2025-01-07 02:44:22.53	9.28	6.76	
2025-01-07 02:44:22.74	9.26	6.78	
2025-01-07 02:44:22.95	9.24	6.79	
2025-01-07 02:44:23.15	9.21	6.80	
2025-01-07 02:44:23.36	9.19	6.81	
2025-01-07 02:44:23.56	9.17	6.82	
2025-01-07 02:44:23.77	9.15	6.83	
2025-01-07 02:44:23.97	9.13	6.85	
2025-01-07 02:44:24.18	9.10	6.86	
2025-01-07 02:44:24.38	9.08	6.87	
2025-01-07 02:44:24.58	9.06	6.88	
2025-01-07 02:44:24.79	9.04	6.89	
2025-01-07 02:44:24.99	9.02	6.90	
2025-01-07 02:44:25.20	8.99	6.92	
2025-01-07 02:44:25.40	8.97	6.93	
2025-01-07 02:44:25.61	8.95	6.94	
2025-01-07 02:44:25.81	8.93	6.95	
2025-01-07 02:44:26.03	8.90	6.96	
2025-01-07 02:44:26.24	8.88	6.97	
2025-01-07 02:44:26.44	8.86	6.99	
2025-01-07 02:44:26.65	8.84	7.00	
2025-01-07 02:44:26.85	8.81	7.01	
2025-01-07 02:44:27.06	8.79	7.02	
2025-01-07 02:44:27.26	8.77	7.03	
2025-01-07 02:44:27.47	8.75	7.04	
2025-01-07 02:44:27.67	8.72	7.05	
2025-01-07 02:44:27.88	8.70	7.07	
2025-01-07 02:44:28.08	8.68	7.08	
2025-01-07 02:44:28.29	8.66	7.09	
2025-01-07 02:44:28.49	8.63	7.10	
2025-01-07 02:44:28.70	8.61	7.11	
2025-01-07 02:44:28.90	8.59	7.12	
2025-01-07 02:44:29.11	8.57	7.14	
2025-01-07 02:44:29.31	8.54	7.15	
2025-01-07 02:44:29.52	8.52	7.16	
2025-01-07 02:44:29.72	8.50	7.17	
2025-01-07 02:44:29.93	8.48	7.18	
2025-01-07 02:44:30.13	8.45	7.19	
2025-01-07 02:44:30.34	8.43	7.21	
2025-01-07 02:44:30.54	8.41	7.22	
2025-01-07 02:44:30.75	8.38	7.23	
2025-01-07 02:44:30.95	8.36	7.24	
2025-01-07 02:44:31.16	8.34	7.25	
2025-01-07 02:44:31.37	8.32	7.26	
2025-01-07 02:44:31.57	8.29	7.28	
2025-01-07 02:44:31.78	8.27	7.29	
2025-01-07 02:44:31.98	8.25	7.30	
2025-01-07 02:44:32.19	8.22	7.31	
2025-01-07 02:44:32.39	8.20	7.32	
2025-01-07 02:44:32.59	8.18	7.33	
2025-01-07 02:44:32.80	8.16	7.35	
2025-01-07 02:44:33.00	8.13	7.36	
2025-01-07 02:44:33.21	8.11	7.37	
2025-01-07 02:44:33.41	8.09	7.38	
2025-01-07 02:44:33.62	8.06	7.39	
2025-01-07 02:44:33.82	8.04	7.40	
2025-01-07 02:44:34.03	8.02	7.42	
2025-01-07 02:44:34.23	8.00	7.43	
2025-01-07 02:44:34.44	7.97	7.44	
2025-01-07 02:44:34.64	7.95	7.45	
2025-01-07 02:44:34.85	7.93	7.46	
2025-01-07 02:44:35.05	7.90	7.47	
2025-01-07 02:44:35.26	7.88	7.49	
2025-01-07 02:44:35.46	7.86	7.50	
2025-01-07 02:44:35.68	7.83	7.51	
2025-01-07 02:44:35.89	7.81	7.52	
2025-01-07 02:44:36.09	7.79	7.53	
2025-01-07 02:44:36.30	7.76	7.54	
2025-01-07 02:44:36.50	7.74	7.56	
2025-01-07 02:44:36.72	7.71	7.57	
2025-01-07 02:44:36.92	7.69	7.58	
2025-01-07 02:44:37.13	7.67	7.59	
2025-01-07 02:44:37.33	7.65	7.60	
2025-01-07 02:44:37.53	7.62	7.61	
2025-01-07 02:44:37.74	7.60	7.63	
2025-01-07 02:44:37.94	7.58	7.64	
2025-01-07 02:44:38.15	7.55	7.65	
2025-01-07 02:44:38.36	7.53	7.66	
2025-01-07 02:44:38.56	7.51	7.67	
2025-01-07 02:44:38.77	7.48	7.68	
2025-01-07 02:44:38.97	7.46	7.70	
2025-01-07 02:44:39.17	7.44	7.71	
2025-01-07 02:44:39.38	7.41	7.72	
2025-01-07 02:44:39.59	7.39	7.73	
2025-01-07 02:44:39.79	7.36	7.74	
2025-01-07 02:44:40.00	7.34	7.75	
2025-01-07 02:44:40.20	7.32	7.77	
2025-01-07 02:44:40.41	7.29	7.78	
2025-01-07 02:44:40.62	7.27	7.79	
2025-01-07 02:44:40.82	7.25	7.80	
2025-01-07 02:44:41.02	7.22	7.81	
2025-01-07 02:44:41.23	7.20	7.82	
2025-01-07 02:44:41.43	7.17	7.84	
2025-01-07 02:44:41.64	7.15	7.85	
2025-01-07 02:44:41.84	7.13	7.86	
2025-01-07 02:44:42.05	7.10	7.87	
2025-01-07 02:44:42.25	7.08	7.88	
2025-01-07 02:44:42.46	7.06	7.89	
2025-01-07 02:44:42.66	7.03	7.91	
2025-01-07 02:44:42.87	7.01	7.92	
2025-01-07 02:44:43.07	6.98	7.93	
2025-01-07 02:44:43.27	6.96	7.94	
2025-01-07 02:44:43.49	6.94	7.95	
2025-01-07 02:44:43.70	6.91	7.97	
2025-01-07 02:44:43.90	6.89	7.98	
2025-01-07 02:44:44.11	6.86	7.99	
2025-01-07 02:44:44.31	6.84	8.00	
2025-01-07 02:44:44.52	6.81	8.01	
2025-01-07 02:44:44.72	6.79	8.02	
2025-01-07 02:44:44.92	6.77	8.03	
2025-01-07 02:44:45.13	6.74	8.05	
2025-01-07 02:44:45.33	6.72	8.06	
2025-01-07 02:44:45.54	6.70	8.07	
2025-01-07 02:44:45.75	6.67	8.08	
2025-01-07 02:44:45.95	6.65	8.09	
2025-01-07 02:44:46.16	6.62	8.11	
2025-01-07 02:44:46.37	6.60	8.12	
2025-01-07 02:44:46.58	6.57	8.13	
2025-01-07 02:44:46.79	6.55	8.14	
2025-01-07 02:44:46.99	6.52	8.15	
2025-01-07 02:44:47.20	6.50	8.16	
2025-01-07 02:44:47.40	6.48	8.18	
2025-01-07 02:44:47.61	6.45	8.19	
2025-01-07 02:44:47.81	6.43	8.20	
2025-01-07 02:44:48.02	6.40	8.21	
2025-01-07 02:44:48.22	6.38	8.22	
2025-01-07 02:44:48.43	6.35	8.23	
2025-01-07 02:44:48.63	6.33	8.25	
2025-01-07 02:44:48.84	6.30	8.26	
2025-01-07 02:44:49.04	6.28	8.27	
2025-01-07 02:44:49.25	6.26	8.28	
2025-01-07 02:44:49.45	6.23	8.29	
2025-01-07 02:44:49.66	6.21	8.30	
2025-01-07 02:44:49.87	6.18	8.32	
2025-01-07 02:44:50.07	6.16	8.33	
2025-01-07 02:44:50.28	6.13	8.34	
2025-01-07 02:44:50.48	6.11	8.35	
2025-01-07 02:44:50.68	6.08	8.36	
2025-01-07 02:44:50.89	6.06	8.38	
2025-01-07 02:44:51.10	6.03	8.39	
2025-01-07 02:44:51.30	6.01	8.40	
2025-01-07 02:44:51.51	5.98	8.41	
2025-01-07 02:44:51.72	5.96	8.42	
2025-01-07 02:44:51.93	5.93	8.43	
2025-01-07 02:44:52.13	5.91	8.45	
2025-01-07 02:44:52.34	5.88	8.46	
2025-01-07 02:44:52.55	5.86	8.47	
2025-01-07 02:44:52.76	5.83	8.48	
2025-01-07 02:44:52.97	5.81	8.49	
2025-01-07 02:44:53.17	5.78	8.51	
2025-01-07 02:44:53.38	5.76	8.52	
2025-01-07 02:44:53.59	5.73	8.53	
2025-01-07 02:44:53.80	5.71	8.54	
2025-01-07 02:44:54.01	5.68	8.55	
2025-01-07 02:44:54.22	5.66	8.56	
2025-01-07 02:44:54.43	5.63	8.58	
2025-01-07 02:44:54.64	5.60	8.59	
2025-01-07 02:44:54.84	5.58	8.60	
2025-01-07 02:44:55.05	5.55	8.61	
2025-01-07 02:44:55.25	5.53	8.62	
2025-01-07 02:44:55.46	5.50	8.64	
2025-01-07 02:44:55.67	5.48	8.65	
2025-01-07 02:44:55.87	5.45	8.66	
2025-01-07 02:44:56.07	5.43	8.67	
2025-01-07 02:44:56.28	5.40	8.68	
2025-01-07 02:44:56.48	5.38	8.69	
2025-01-07 02:44:56.69	5.35	8.71	
2025-01-07 02:44:56.89	5.33	8.72	
2025-01-07 02:44:57.10	5.30	8.73	
2025-01-07 02:44:57.30	5.28	8.74	
2025-01-07 02:44:57.51	5.25	8.75	
2025-01-07 02:44:57.71	5.23	8.76	
2025-01-07 02:44:57.92	5.20	8.78	
2025-01-07 02:44:58.14	5.17	8.79	
2025-01-07 02:44:58.34	5.15	8.80	
2025-01-07 02:44:58.55	5.12	8.81	
2025-01-07 02:44:58.76	5.10	8.82	
2025-01-07 02:44:58.96	5.07	8.84	
2025-01-07 02:44:59.16	5.05	8.85	
2025-01-07 02:44:59.37	5.02	8.86	
2025-01-07 02:44:59.57	5.00	8.87	
2025-01-07 02:44:59.78	4.97	8.88	
2025-01-07 02:44:59.98	4.95	8.89	
2025-01-07 02:45:00.20	4.92	8.91	
2025-01-07 02:45:00.41	4.89	8.92	
2025-01-07 02:45:00.61	4.87	8.93	
2025-01-07 02:45:00.82	4.84	8.94	
2025-01-07 02:45:01.02	4.82	8.95	
2025-01-07 02:45:01.24	4.79	8.97	
2025-01-07 02:45:01.45	4.76	8.98	
2025-01-07 02:45:01.65	4.74	8.99	
2025-01-07 02:45:01.86	4.71	9.00	
2025-01-07 02:45:02.06	4.69	9.01	
2025-01-07 02:45:02.26	4.66	9.02	
2025-01-07 02:45:02.47	4.63	9.04	
2025-01-07 02:45:02.68	4.61	9.05	
2025-01-07 02:45:02.88	4.58	9.06	
2025-01-07 02:45:03.09	4.56	9.07	
2025-01-07 02:45:03.29	4.53	9.08	
2025-01-07 02:45:03.50	4.50	9.09	
2025-01-07 02:45:03.70	4.48	9.11	
2025-01-07 02:45:03.91	4.45	9.12	
2025-01-07 02:45:04.11	4.43	9.13	
2025-01-07 02:45:04.32	4.40	9.14	
2025-01-07 02:45:04.54	4.37	9.15	
2025-01-07 02:45:04.75	4.34	9.17	
2025-01-07 02:45:04.96	4.32	9.18	
2025-01-07 02:45:05.17	4.29	9.19	
2025-01-07 02:45:05.37	4.27	9.20	
2025-01-07 02:45:05.58	4.24	9.21	
2025-01-07 02:45:05.78	4.21	9.22	
2025-01-07 02:45:05.99	4.19	9.24	
2025-01-07 02:45:06.19	4.16	9.25	
2025-01-07 02:45:06.39	4.14	9.26	
2025-01-07 02:45:06.60	4.11	9.27	
2025-01-07 02:45:06.80	4.08	9.28	
2025-01-07 02:45:07.01	4.06	9.29	
2025-01-07 02:45:07.22	4.03	9.31	
2025-01-07 02:45:07.42	4.00	9.32	
2025-01-07 02:45:07.62	3.98	9.33	
2025-01-07 02:45:07.83	3.95	9.34	
2025-01-07 02:45:08.03	3.93	9.35	
2025-01-07 02:45:08.24	3.90	9.36	
2025-01-07 02:45:08.44	3.87	9.38	
2025-01-07 02:45:08.65	3.85	9.39	
2025-01-07 02:45:08.85	3.82	9.40	
2025-01-07 02:45:09.06	3.79	9.41	
2025-01-07 02:45:09.26	3.77	9.42	
2025-01-07 02:45:09.47	3.74	9.43	
2025-01-07 02:45:09.67	3.71	9.45	
2025-01-07 02:45:09.88	3.69	9.46	
2025-01-07 02:45:10.08	3.66	9.47	
2025-01-07 02:45:10.29	3.63	9.48	
2025-01-07 02:45:10.49	3.61	9.49	
2025-01-07 02:45:10.70	3.58	9.50	
2025-01-07 02:45:10.90	3.55	9.52	
2025-01-07 02:45:11.11	3.53	9.53	
2025-01-07 02:45:11.31	3.50	9.54	
2025-01-07 02:45:11.52	3.47	9.55	
2025-01-07 02:45:11.72	3.45	9.56	
2025-01-07 02:45:11.93	3.42	9.57	
2025-01-07 02:45:12.13	3.39	9.59	
2025-01-07 02:45:12.34	3.37	9.60	
2025-01-07 02:45:12.54	3.34	9.61	
2025-01-07 02:45:12.75	3.31	9.62	
2025-01-07 02:45:12.95	3.29	9.63	
2025-01-07 02:45:13.16	3.26	9.64	
2025-01-07 02:45:13.36	3.23	9.66	
2025-01-07 02:45:13.57	3.20	9.67	
2025-01-07 02:45:13.77	3.18	9.68	
2025-01-07 02:45:13.98	3.15	9.69	
2025-01-07 02:45:14.18	3.12	9.70	
2025-01-07 02:45:14.39	3.10	9.71	
2025-01-07 02:45:14.59	3.07	9.73	
2025-01-07 02:45:14.80	3.04	9.74	
2025-01-07 02:45:15.00	3.01	9.75	
2025-01-07 02:45:15.21	2.99	9.76	
2025-01-07 02:45:15.42	2.96	9.77	
2025-01-07 02:45:15.63	2.93	9.79	
2025-01-07 02:45:15.84	2.90	9.80	
2025-01-07 02:45:16.04	2.88	9.81	
2025-01-07 02:45:16.24	2.85	9.82	
2025-01-07 02:45:16.45	2.82	9.83	
2025-01-07 02:45:16.66	2.79	9.84	
2025-01-07 02:45:16.86	2.77	9.86	
2025-01-07 02:45:17.07	2.74	9.87	
2025-01-07 02:45:17.27	2.71	9.88	
2025-01-07 02:45:17.47	2.69	9.89	
2025-01-07 02:45:17.68	2.66	9.90	
2025-01-07 02:45:17.89	2.63	9.91	
2025-01-07 02:45:18.09	2.60	9.93	
2025-01-07 02:45:18.30	2.57	9.94	
2025-01-07 02:45:18.50	2.55	9.95	
2025-01-07 02:45:18.70	2.52	9.96	
2025-01-07 02:45:18.91	2.49	9.97	
2025-01-07 02:45:19.12	2.46	9.98	
2025-01-07 02:45:19.32	2.44	10.00	
2025-01-07 02:45:19.53	2.41	10.01	
2025-01-07 02:45:19.73	2.38	10.02	
2025-01-07 02:45:19.94	2.35	10.03	
2025-01-07 02:45:20.14	2.33	10.04	
2025-01-07 02:45:20.35	2.30	10.05	
2025-01-07 02:45:20.55	2.27	10.07	
2025-01-07 02:45:20.76	2.24	10.08	
2025-01-07 02:45:20.96	2.22	10.09	
2025-01-07 02:45:21.17	2.19	10.10	
2025-01-07 02:45:21.37	2.16	10.11	
2025-01-07 02:45:21.57	2.13	10.12	
2025-01-07 02:45:21.78	2.10	10.13	
2025-01-07 02:45:21.99	2.08	10.15	
2025-01-07 02:45:22.19	2.05	10.16	
2025-01-07 02:45:22.40	2.02	10.17	
2025-01-07 02:45:22.60	1.99	10.18	
2025-01-07 02:45:22.81	1.96	10.19	
2025-01-07 02:45:23.01	1.94	10.20	
2025-01-07 02:45:23.22	1.91	10.22	
2025-01-07 02:45:23.42	1.88	10.23	
2025-01-07 02:45:23.63	1.85	10.24	
2025-01-07 02:45:23.83	1.82	10.25	
2025-01-07 02:45:24.04	1.80	10.26	
2025-01-07 02:45:24.24	1.77	10.27	
2025-01-07 02:45:24.45	1.74	10.29	
2025-01-07 02:45:24.65	1.71	10.30	
2025-01-07 02:45:24.86	1.68	10.31	
2025-01-07 02:45:25.06	1.66	10.32	
2025-01-07 02:45:25.27	1.63	10.33	
2025-01-07 02:45:25.47	1.60	10.34	
2025-01-07 02:45:25.68	1.57	10.36	
2025-01-07 02:45:25.90	1.54	10.37	
2025-01-07 02:45:26.10	1.51	10.38	
2025-01-07 02:45:26.31	1.48	10.39	
2025-01-07 02:45:26.52	1.45	10.40	
2025-01-07 02:45:26.72	1.43	10.41	
2025-01-07 02:45:26.92	1.40	10.43	
2025-01-07 02:45:27.13	1.37	10.44	
2025-01-07 02:45:27.33	1.34	10.45	
2025-01-07 02:45:27.54	1.31	10.46	
2025-01-07 02:45:27.75	1.28	10.47	
2025-01-07 02:45:27.95	1.25	10.48	
2025-01-07 02:45:28.16	1.23	10.50	
2025-01-07 02:45:28.36	1.20	10.51	
2025-01-07 02:45:28.57	1.17	10.52	
2025-01-07 02:45:28.77	1.14	10.53	
2025-01-07 02:45:28.98	1.11	10.54	
2025-01-07 02:45:29.18	1.08	10.55	
2025-01-07 02:45:29.39	1.05	10.57	
2025-01-07 02:45:29.59	1.02	10.58	
2025-01-07 02:45:29.80	1.00	10.59	
2025-01-07 02:45:30.00	0.97	10.60	
2025-01-07 02:45:30.21	0.94	10.61	
2025-01-07 02:45:30.41	0.91	10.62	
2025-01-07 02:45:30.62	0.88	10.64	
2025-01-07 02:45:30.82	0.85	10.65	
2025-01-07 02:45:31.03	0.82	10.66	
2025-01-07 02:45:31.23	0.79	10.67	
2025-01-07 02:45:31.44	0.76	10.68	
2025-01-07 02:45:31.64	0.74	10.69	
2025-01-07 02:45:31.85	0.71	10.70	
2025-01-07 02:45:32.05	0.68	10.72	
2025-01-07 02:45:32.26	0.65	10.73	
2025-01-07 02:45:32.46	0.62	10.74	
2025-01-07 02:45:32.66	0.59	10.75	
2025-01-07 02:45:32.87	0.56	10.76	
2025-01-07 02:45:33.08	0.53	10.77	
2025-01-07 02:45:33.28	0.50	10.79	
2025-01-07 02:45:33.49	0.47	10.80	
2025-01-07 02:45:33.69	0.44	10.81	
2025-01-07 02:45:33.90	0.41	10.82	
2025-01-07 02:45:34.10	0.39	10.83	
2025-01-07 02:45:34.31	0.36	10.84	
2025-01-07 02:45:34.51	0.33	10.85	
2025-01-07 02:45:34.72	0.30	10.87	
2025-01-07 02:45:34.92	0.27	10.88	
2025-01-07 02:45:35.13	0.24	10.89	
2025-01-07 02:45:35.33	0.21	10.90	
2025-01-07 02:45:35.54	0.18	10.91	
2025-01-07 02:45:35.74	0.15	10.92	
2025-01-07 02:45:35.95	0.12	10.94	
2025-01-07 02:45:36.15	0.09	10.95	
2025-01-07 02:45:36.36	0.06	10.96	
2025-01-07 02:45:36.56	0.03	10.97	
2025-01-07 02:45:36.77	0.00	10.98	
2025-01-07 02:45:36.98	359.97	10.99	
2025-01-07 02:45:37.18	359.94	11.00	
2025-01-07 02:45:37.39	359.91	11.02	
2025-01-07 02:45:37.59	359.88	11.03	
2025-01-07 02:45:37.80	359.85	11.04	
2025-01-07 02:45:38.00	359.82	11.05	
2025-01-07 02:45:38.21	359.79	11.06	
2025-01-07 02:45:38.41	359.77	11.07	
2025-01-07 02:45:38.62	359.73	11.09	
2025-01-07 02:45:38.82	359.71	11.10	
2025-01-07 02:45:39.03	359.67	11.11	
2025-01-07 02:45:39.23	359.65	11.12	
2025-01-07 02:45:39.44	359.62	11.13	
2025-01-07 02:45:39.65	359.58	11.14	
2025-01-07 02:45:39.87	359.55	11.16	
2025-01-07 02:45:40.07	359.52	11.17	
2025-01-07 02:45:40.28	359.49	11.18	
2025-01-07 02:45:40.48	359.46	11.19	
2025-01-07 02:45:40.69	359.43	11.20	
2025-01-07 02:45:40.89	359.40	11.21	
2025-01-07 02:45:41.10	359.37	11.22	
2025-01-07 02:45:41.30	359.34	11.24	
2025-01-07 02:45:41.51	359.31	11.25	
2025-01-07 02:45:41.71	359.28	11.26	
2025-01-07 02:45:41.92	359.25	11.27	
2025-01-07 02:45:42.12	359.22	11.28	
2025-01-07 02:45:42.33	359.19	11.29	
2025-01-07 02:45:42.53	359.16	11.30	
2025-01-07 02:45:42.73	359.13	11.32	
2025-01-07 02:45:42.94	359.10	11.33	
2025-01-07 02:45:43.14	359.07	11.34	
2025-01-07 02:45:43.35	359.04	11.35	
2025-01-07 02:45:43.55	359.01	11.36	
2025-01-07 02:45:43.76	358.98	11.37	
2025-01-07 02:45:43.96	358.95	11.38	
2025-01-07 02:45:44.17	358.92	11.40	
2025-01-07 02:45:44.37	358.89	11.41	
2025-01-07 02:45:44.58	358.86	11.42	
2025-01-07 02:45:44.78	358.83	11.43	
2025-01-07 02:45:44.99	358.80	11.44	
2025-01-07 02:45:45.19	358.77	11.45	
2025-01-07 02:45:45.40	358.74	11.46	
2025-01-07 02:45:45.60	358.71	11.48	
2025-01-07 02:45:45.81	358.67	11.49	
2025-01-07 02:45:46.01	358.64	11.50	
2025-01-07 02:45:46.22	358.61	11.51	
2025-01-07 02:45:46.42	358.58	11.52	
2025-01-07 02:45:46.63	358.55	11.53	
2025-01-07 02:45:46.84	358.52	11.54	
2025-01-07 02:45:47.04	358.49	11.56	
2025-01-07 02:45:47.25	358.46	11.57	
2025-01-07 02:45:47.45	358.43	11.58	
2025-01-07 02:45:47.66	358.40	11.59	
2025-01-07 02:45:47.86	358.37	11.60	
2025-01-07 02:45:48.07	358.33	11.61	
2025-01-07 02:45:48.27	358.30	11.62	
2025-01-07 02:45:48.48	358.27	11.64	
2025-01-07 02:45:48.68	358.24	11.65	
2025-01-07 02:45:48.89	358.21	11.66	
2025-01-07 02:45:49.09	358.18	11.67	
2025-01-07 02:45:49.30	358.15	11.68	
2025-01-07 02:45:49.50	358.12	11.69	
2025-01-07 02:45:49.71	358.09	11.70	
2025-01-07 02:45:49.91	358.06	11.72	
2025-01-07 02:45:50.12	358.02	11.73	
2025-01-07 02:45:50.32	357.99	11.74	
2025-01-07 02:45:50.53	357.96	11.75	
2025-01-07 02:45:50.73	357.93	11.76	
2025-01-07 02:45:50.94	357.90	11.77	
2025-01-07 02:45:51.14	357.87	11.78	
2025-01-07 02:45:51.35	357.84	11.79	
2025-01-07 02:45:51.55	357.81	11.81	
2025-01-07 02:45:51.76	357.77	11.82	
2025-01-07 02:45:51.97	357.74	11.83	
2025-01-07 02:45:52.17	357.71	11.84	
2025-01-07 02:45:52.38	357.68	11.85	
2025-01-07 02:45:52.58	357.65	11.86	
2025-01-07 02:45:52.79	357.62	11.87	
2025-01-07 02:45:52.99	357.58	11.89	
2025-01-07 02:45:53.20	357.55	11.90	
2025-01-07 02:45:53.40	357.52	11.91	
2025-01-07 02:45:53.61	357.49	11.92	
2025-01-07 02:45:53.81	357.46	11.93	
2025-01-07 02:45:54.02	357.43	11.94	
2025-01-07 02:45:54.22	357.40	11.95	
2025-01-07 02:45:54.43	357.36	11.96	
2025-01-07 02:45:54.63	357.33	11.98	
2025-01-07 02:45:54.85	357.30	11.99	
2025-01-07 02:45:55.06	357.27	12.00	
2025-01-07 02:45:55.26	357.23	12.01	
2025-01-07 02:45:55.47	357.20	12.02	
2025-01-07 02:45:55.67	357.17	12.03	
2025-01-07 02:45:55.89	357.14	12.05	
2025-01-07 02:45:56.10	357.10	12.06	
2025-01-07 02:45:56.30	357.07	12.07	
2025-01-07 02:45:56.51	357.04	12.08	
2025-01-07 02:45:56.71	357.01	12.09	
2025-01-07 02:45:56.92	356.98	12.10	
2025-01-07 02:45:57.12	356.94	12.11	
2025-01-07 02:45:57.32	356.91	12.12	
2025-01-07 02:45:57.53	356.88	12.13	
2025-01-07 02:45:57.73	356.85	12.15	
2025-01-07 02:45:57.94	356.82	12.16	
2025-01-07 02:45:58.14	356.79	12.17	
2025-01-07 02:45:58.35	356.75	12.18	
2025-01-07 02:45:58.55	356.72	12.19	
2025-01-07 02:45:58.76	356.69	12.20	
2025-01-07 02:45:58.96	356.66	12.21	
2025-01-07 02:45:59.17	356.62	12.22	
2025-01-07 02:45:59.38	356.59	12.24	
2025-01-07 02:45:59.58	356.56	12.25	
2025-01-07 02:45:59.79	356.53	12.26	
2025-01-07 02:45:59.99	356.49	12.27	
2025-01-07 02:46:00.20	356.46	12.28	
2025-01-07 02:46:00.40	356.43	12.29	
2025-01-07 02:46:00.61	356.40	12.30	
2025-01-07 02:46:00.81	356.36	12.31	
2025-01-07 02:46:01.02	356.33	12.33	
2025-01-07 02:46:01.22	356.30	12.34	
2025-01-07 02:46:01.43	356.27	12.35	
2025-01-07 02:46:01.64	356.23	12.36	
2025-01-07 02:46:01.84	356.20	12.37	
2025-01-07 02:46:02.05	356.17	12.38	
2025-01-07 02:46:02.25	356.14	12.39	
2025-01-07 02:46:02.46	356.10	12.40	
2025-01-07 02:46:02.66	356.07	12.41	
2025-01-07 02:46:02.87	356.04	12.43	
2025-01-07 02:46:03.07	356.00	12.44	
2025-01-07 02:46:03.28	355.97	12.45	
2025-01-07 02:46:03.48	355.94	12.46	
2025-01-07 02:46:03.69	355.91	12.47	
2025-01-07 02:46:03.89	355.87	12.48	
2025-01-07 02:46:04.10	355.84	12.49	
2025-01-07 02:46:04.30	355.81	12.50	
2025-01-07 02:46:04.51	355.77	12.51	
2025-01-07 02:46:04.71	355.74	12.53	
2025-01-07 02:46:04.92	355.71	12.54	
2025-01-07 02:46:05.12	355.68	12.55	
2025-01-07 02:46:05.33	355.64	12.56	
2025-01-07 02:46:05.55	355.61	12.57	
2025-01-07 02:46:05.75	355.57	12.58	
2025-01-07 02:46:05.96	355.54	12.59	
2025-01-07 02:46:06.16	355.51	12.60	
2025-01-07 02:46:06.37	355.47	12.62	
2025-01-07 02:46:06.57	355.44	12.63	
2025-01-07 02:46:06.78	355.41	12.64	
2025-01-07 02:46:06.98	355.38	12.65	
2025-01-07 02:46:07.19	355.34	12.66	
2025-01-07 02:46:07.40	355.31	12.67	
2025-01-07 02:46:07.61	355.27	12.68	
2025-01-07 02:46:07.82	355.24	12.69	
2025-01-07 02:46:08.02	355.21	12.70	
2025-01-07 02:46:08.23	355.17	12.72	
2025-01-07 02:46:08.43	355.14	12.73	
2025-01-07 02:46:08.64	355.11	12.74	
2025-01-07 02:46:08.84	355.07	12.75	
2025-01-07 02:46:09.05	355.04	12.76	
2025-01-07 02:46:09.25	355.01	12.77	
2025-01-07 02:46:09.46	354.97	12.78	
2025-01-07 02:46:09.66	354.94	12.79	
2025-01-07 02:46:09.87	354.90	12.80	
2025-01-07 02:46:10.07	354.87	12.81	
2025-01-07 02:46:10.27	354.84	12.82	
2025-01-07 02:46:10.48	354.80	12.84	
2025-01-07 02:46:10.69	354.77	12.85	
2025-01-07 02:46:10.90	354.73	12.86	
2025-01-07 02:46:11.11	354.70	12.87	
2025-01-07 02:46:11.32	354.67	12.88	
2025-01-07 02:46:11.52	354.63	12.89	
2025-01-07 02:46:11.73	354.60	12.90	
2025-01-07 02:46:11.95	354.56	12.91	
2025-01-07 02:46:12.15	354.53	12.93	
2025-01-07 02:46:12.36	354.49	12.94	
2025-01-07 02:46:12.56	354.46	12.95	
2025-01-07 02:46:12.77	354.43	12.96	
2025-01-07 02:46:12.97	354.39	12.97	
2025-01-07 02:46:13.18	354.36	12.98	
2025-01-07 02:46:13.38	354.33	12.99	
2025-01-07 02:46:13.59	354.29	13.00	
2025-01-07 02:46:13.79	354.26	13.01	
2025-01-07 02:46:14.00	354.22	13.02	
2025-01-07 02:46:14.20	354.19	13.03	
2025-01-07 02:46:14.41	354.15	13.05	
2025-01-07 02:46:14.61	354.12	13.06	
2025-01-07 02:46:14.82	354.09	13.07	
2025-01-07 02:46:15.02	354.05	13.08	
2025-01-07 02:46:15.23	354.02	13.09	
2025-01-07 02:46:15.43	353.98	13.10	
2025-01-07 02:46:15.65	353.95	13.11	
2025-01-07 02:46:15.86	353.91	13.12	
2025-01-07 02:46:16.06	353.88	13.13	
2025-01-07 02:46:16.26	353.84	13.14	
2025-01-07 02:46:16.47	353.81	13.15	
2025-01-07 02:46:16.67	353.78	13.16	
2025-01-07 02:46:16.88	353.74	13.18	
2025-01-07 02:46:17.08	353.71	13.19	
2025-01-07 02:46:17.28	353.67	13.20	
2025-01-07 02:46:17.49	353.64	13.21	
2025-01-07 02:46:17.69	353.60	13.22	
2025-01-07 02:46:17.90	353.57	13.23	
2025-01-07 02:46:18.11	353.53	13.24	
2025-01-07 02:46:18.32	353.50	13.25	
2025-01-07 02:46:18.53	353.46	13.26	
2025-01-07 02:46:18.74	353.43	13.27	
2025-01-07 02:46:18.94	353.39	13.28	
2025-01-07 02:46:19.15	353.36	13.29	
2025-01-07 02:46:19.35	353.32	13.31	
2025-01-07 02:46:19.56	353.29	13.32	
2025-01-07 02:46:19.76	353.25	13.33	
2025-01-07 02:46:19.97	353.22	13.34	
2025-01-07 02:46:20.18	353.18	13.35	
2025-01-07 02:46:20.38	353.15	13.36	
2025-01-07 02:46:20.58	353.11	13.37	
2025-01-07 02:46:20.79	353.08	13.38	
2025-01-07 02:46:20.99	353.04	13.39	
2025-01-07 02:46:21.20	353.01	13.40	
2025-01-07 02:46:21.40	352.97	13.41	
2025-01-07 02:46:21.61	352.94	13.42	
2025-01-07 02:46:21.81	352.90	13.43	
2025-01-07 02:46:22.02	352.87	13.44	
2025-01-07 02:46:22.22	352.83	13.45	
2025-01-07 02:46:22.43	352.80	13.47	
2025-01-07 02:46:22.63	352.76	13.48	
2025-01-07 02:46:22.84	352.73	13.49	
2025-01-07 02:46:23.04	352.69	13.50	
2025-01-07 02:46:23.25	352.66	13.51	
2025-01-07 02:46:23.46	352.62	13.52	
2025-01-07 02:46:23.68	352.58	13.53	
2025-01-07 02:46:23.88	352.55	13.54	
2025-01-07 02:46:24.09	352.51	13.55	
2025-01-07 02:46:24.29	352.48	13.56	
2025-01-07 02:46:24.50	352.44	13.57	
2025-01-07 02:46:24.72	352.40	13.58	
2025-01-07 02:46:24.92	352.37	13.59	
2025-01-07 02:46:25.13	352.33	13.61	
2025-01-07 02:46:25.33	352.30	13.62	
2025-01-07 02:46:25.54	352.26	13.63	
2025-01-07 02:46:25.74	352.23	13.64	
2025-01-07 02:46:25.95	352.19	13.65	
2025-01-07 02:46:26.15	352.16	13.66	
2025-01-07 02:46:26.36	352.12	13.67	
2025-01-07 02:46:26.56	352.08	13.68	
2025-01-07 02:46:26.77	352.05	13.69	
2025-01-07 02:46:26.97	352.01	13.70	
2025-01-07 02:46:27.18	351.98	13.71	
2025-01-07 02:46:27.38	351.94	13.72	
2025-01-07 02:46:27.59	351.90	13.73	
2025-01-07 02:46:27.79	351.87	13.74	
2025-01-07 02:46:28.00	351.83	13.75	
2025-01-07 02:46:28.20	351.80	13.76	
2025-01-07 02:46:28.41	351.76	13.77	
2025-01-07 02:46:28.61	351.73	13.78	
2025-01-07 02:46:28.82	351.69	13.79	
2025-01-07 02:46:29.02	351.65	13.80	
2025-01-07 02:46:29.23	351.62	13.82	
2025-01-07 02:46:29.43	351.58	13.83	
2025-01-07 02:46:29.64	351.54	13.84	
2025-01-07 02:46:29.84	351.51	13.85	
2025-01-07 02:46:30.04	351.47	13.86	
2025-01-07 02:46:30.25	351.44	13.87	
2025-01-07 02:46:30.45	351.40	13.88	
2025-01-07 02:46:30.66	351.36	13.89	
2025-01-07 02:46:30.86	351.33	13.90	
2025-01-07 02:46:31.07	351.29	13.91	
2025-01-07 02:46:31.27	351.26	13.92	
2025-01-07 02:46:31.48	351.22	13.93	
2025-01-07 02:46:31.68	351.18	13.94	
2025-01-07 02:46:31.89	351.15	13.95	
2025-01-07 02:46:32.09	351.11	13.96	
2025-01-07 02:46:32.30	351.07	13.97	
2025-01-07 02:46:32.50	351.04	13.98	
2025-01-07 02:46:32.71	351.00	13.99	
2025-01-07 02:46:32.92	350.96	14.00	
2025-01-07 02:46:33.12	350.93	14.01	
2025-01-07 02:46:33.33	350.89	14.02	
2025-01-07 02:46:33.53	350.86	14.03	
2025-01-07 02:46:33.74	350.82	14.04	
2025-01-07 02:46:33.94	350.78	14.05	
2025-01-07 02:46:34.15	350.74	14.06	
2025-01-07 02:46:34.36	350.71	14.07	
2025-01-07 02:46:34.57	350.67	14.08	
2025-01-07 02:46:34.77	350.63	14.09	
2025-01-07 02:46:34.98	350.60	14.10	
2025-01-07 02:46:35.19	350.56	14.12	
2025-01-07 02:46:35.40	350.52	14.13	
2025-01-07 02:46:35.61	350.48	14.14	
2025-01-07 02:46:35.81	350.45	14.15	
2025-01-07 02:46:36.02	350.41	14.16	
2025-01-07 02:46:36.22	350.37	14.17	
2025-01-07 02:46:36.43	350.34	14.18	
2025-01-07 02:46:36.63	350.30	14.19	
2025-01-07 02:46:36.84	350.26	14.20	
2025-01-07 02:46:37.04	350.23	14.21	
2025-01-07 02:46:37.25	350.19	14.22	
2025-01-07 02:46:37.45	350.15	14.23	
2025-01-07 02:46:37.66	350.11	14.24	
2025-01-07 02:46:37.86	350.08	14.25	
2025-01-07 02:46:38.07	350.04	14.26	
2025-01-07 02:46:38.27	350.00	14.27	
2025-01-07 02:46:38.48	349.97	14.28	
2025-01-07 02:46:38.68	349.93	14.29	
2025-01-07 02:46:38.89	349.89	14.30	
2025-01-07 02:46:39.09	349.85	14.31	
2025-01-07 02:46:39.30	349.82	14.32	
2025-01-07 02:46:39.50	349.78	14.33	
2025-01-07 02:46:39.71	349.74	14.34	
2025-01-07 02:46:39.91	349.70	14.35	
2025-01-07 02:46:40.12	349.67	14.36	
2025-01-07 02:46:40.32	349.63	14.37	
2025-01-07 02:46:40.53	349.59	14.38	
2025-01-07 02:46:40.73	349.56	14.39	
2025-01-07 02:46:40.94	349.52	14.40	
2025-01-07 02:46:41.14	349.48	14.41	
2025-01-07 02:46:41.35	349.44	14.42	
2025-01-07 02:46:41.56	349.40	14.43	
2025-01-07 02:46:41.76	349.37	14.44	
2025-01-07 02:46:41.97	349.33	14.45	
2025-01-07 02:46:42.17	349.29	14.46	
2025-01-07 02:46:42.37	349.25	14.47	
2025-01-07 02:46:42.58	349.22	14.48	
2025-01-07 02:46:42.78	349.18	14.49	
2025-01-07 02:46:42.98	349.14	14.50	
2025-01-07 02:46:43.19	349.10	14.51	
2025-01-07 02:46:43.39	349.07	14.52	
2025-01-07 02:46:43.60	349.03	14.53	
2025-01-07 02:46:43.80	348.99	14.54	
2025-01-07 02:46:44.00	348.95	14.55	
2025-01-07 02:46:44.21	348.92	14.56	
2025-01-07 02:46:44.42	348.88	14.57	
2025-01-07 02:46:44.62	348.84	14.58	
2025-01-07 02:46:44.83	348.80	14.59	
2025-01-07 02:46:45.04	348.76	14.60	
2025-01-07 02:46:45.25	348.72	14.61	
2025-01-07 02:46:45.46	348.68	14.62	
2025-01-07 02:46:45.66	348.65	14.63	
2025-01-07 02:46:45.87	348.61	14.64	
2025-01-07 02:46:46.07	348.57	14.65	
2025-01-07 02:46:46.28	348.53	14.66	
2025-01-07 02:46:46.48	348.49	14.67	
2025-01-07 02:46:46.69	348.46	14.68	
2025-01-07 02:46:46.90	348.42	14.69	
2025-01-07 02:46:47.11	348.38	14.70	
2025-01-07 02:46:47.32	348.34	14.71	
2025-01-07 02:46:47.52	348.30	14.72	
2025-01-07 02:46:47.73	348.26	14.73	
2025-01-07 02:46:47.93	348.22	14.73	
2025-01-07 02:46:48.14	348.18	14.74	
2025-01-07 02:46:48.34	348.15	14.75	
2025-01-07 02:46:48.54	348.11	14.76	
2025-01-07 02:46:48.75	348.07	14.77	
2025-01-07 02:46:48.96	348.03	14.78	
2025-01-07 02:46:49.16	347.99	14.79	
2025-01-07 02:46:49.37	347.95	14.80	
2025-01-07 02:46:49.57	347.92	14.81	
2025-01-07 02:46:49.78	347.88	14.82	
2025-01-07 02:46:49.98	347.84	14.83	
2025-01-07 02:46:50.19	347.80	14.84	
2025-01-07 02:46:50.39	347.76	14.85	
2025-01-07 02:46:50.60	347.72	14.86	
2025-01-07 02:46:50.80	347.68	14.87	
2025-01-07 02:46:51.01	347.64	14.88	
2025-01-07 02:46:51.22	347.60	14.89	
2025-01-07 02:46:51.42	347.57	14.90	
2025-01-07 02:46:51.62	347.53	14.91	
2025-01-07 02:46:51.83	347.49	14.92	
2025-01-07 02:46:52.04	347.45	14.93	
2025-01-07 02:46:52.24	347.41	14.94	
2025-01-07 02:46:52.44	347.37	14.95	
2025-01-07 02:46:52.65	347.33	14.96	
2025-01-07 02:46:52.86	347.29	14.97	
2025-01-07 02:46:53.06	347.26	14.97	
2025-01-07 02:46:53.27	347.22	14.98	
2025-01-07 02:46:53.47	347.18	14.99	
2025-01-07 02:46:53.67	347.14	15.00	
2025-01-07 02:46:53.88	347.10	15.01	
2025-01-07 02:46:54.08	347.06	15.02	
2025-01-07 02:46:54.29	347.02	15.03	
2025-01-07 02:46:54.49	346.98	15.04	
2025-01-07 02:46:54.70	346.94	15.05	
2025-01-07 02:46:54.91	346.90	15.06	
2025-01-07 02:46:55.11	346.86	15.07	
2025-01-07 02:46:55.32	346.82	15.08	
2025-01-07 02:46:55.52	346.79	15.09	
2025-01-07 02:46:55.73	346.75	15.10	
2025-01-07 02:46:55.93	346.71	15.11	
2025-01-07 02:46:56.14	346.67	15.12	
2025-01-07 02:46:56.34	346.63	15.12	
2025-01-07 02:46:56.55	346.59	15.13	
2025-01-07 02:46:56.75	346.55	15.14	
2025-01-07 02:46:56.96	346.51	15.15	
2025-01-07 02:46:57.16	346.47	15.16	
2025-01-07 02:46:57.36	346.43	15.17	
2025-01-07 02:46:57.57	346.39	15.18	
2025-01-07 02:46:57.77	346.35	15.19	
2025-01-07 02:46:57.98	346.31	15.20	
2025-01-07 02:46:58.18	346.27	15.21	
2025-01-07 02:46:58.39	346.23	15.22	
2025-01-07 02:46:58.60	346.19	15.23	
2025-01-07 02:46:58.80	346.15	15.24	
2025-01-07 02:46:59.01	346.11	15.25	
2025-01-07 02:46:59.21	346.07	15.25	
2025-01-07 02:46:59.41	346.04	15.26	
2025-01-07 02:46:59.62	345.99	15.27	
2025-01-07 02:46:59.83	345.95	15.28	
2025-01-07 02:47:00.03	345.91	15.29	
2025-01-07 02:47:00.23	345.88	15.30	
2025-01-07 02:47:00.44	345.83	15.31	
2025-01-07 02:47:00.65	345.79	15.32	
2025-01-07 02:47:00.85	345.76	15.33	
2025-01-07 02:47:01.07	345.71	15.34	
2025-01-07 02:47:01.27	345.67	15.35	
2025-01-07 02:47:01.48	345.63	15.35	
2025-01-07 02:47:01.68	345.59	15.36	
2025-01-07 02:47:01.89	345.55	15.37	
2025-01-07 02:47:02.09	345.51	15.38	
2025-01-07 02:47:02.30	345.47	15.39	
2025-01-07 02:47:02.50	345.43	15.40	
2025-01-07 02:47:02.71	345.39	15.41	
2025-01-07 02:47:02.91	345.35	15.42	
2025-01-07 02:47:03.12	345.31	15.43	
2025-01-07 02:47:03.32	345.27	15.44	
2025-01-07 02:47:03.53	345.23	15.44	
2025-01-07 02:47:03.73	345.19	15.45	
2025-01-07 02:47:03.93	345.15	15.46	
2025-01-07 02:47:04.14	345.11	15.47	
2025-01-07 02:47:04.34	345.07	15.48	
2025-01-07 02:47:04.55	345.03	15.49	
2025-01-07 02:47:04.75	344.99	15.50	
2025-01-07 02:47:04.96	344.95	15.51	
2025-01-07 02:47:05.16	344.91	15.52	
2025-01-07 02:47:05.37	344.87	15.52	
2025-01-07 02:47:05.57	344.83	15.53	
2025-01-07 02:47:05.78	344.79	15.54	
2025-01-07 02:47:05.98	344.75	15.55	
2025-01-07 02:47:06.19	344.71	15.56	
2025-01-07 02:47:06.39	344.67	15.57	
2025-01-07 02:47:06.60	344.62	15.58	
2025-01-07 02:47:06.80	344.59	15.59	
2025-01-07 02:47:07.01	344.54	15.60	
2025-01-07 02:47:07.21	344.50	15.60	
2025-01-07 02:47:07.43	344.46	15.61	
2025-01-07 02:47:07.64	344.42	15.62	
2025-01-07 02:47:07.84	344.38	15.63	
2025-01-07 02:47:08.05	344.34	15.64	
2025-01-07 02:47:08.25	344.30	15.65	
2025-01-07 02:47:08.46	344.26	15.66	
2025-01-07 02:47:08.66	344.22	15.67	
2025-01-07 02:47:08.87	344.17	15.67	
2025-01-07 02:47:09.07	344.13	15.68	
2025-01-07 02:47:09.28	344.09	15.69	
2025-01-07 02:47:09.48	344.05	15.70	
2025-01-07 02:47:09.69	344.01	15.71	
2025-01-07 02:47:09.89	343.97	15.72	
2025-01-07 02:47:10.09	343.93	15.73	
2025-01-07 02:47:10.30	343.89	15.73	
2025-01-07 02:47:10.50	343.85	15.74	
2025-01-07 02:47:10.70	343.81	15.75	
2025-01-07 02:47:10.91	343.77	15.76	
2025-01-07 02:47:11.11	343.72	15.77	
2025-01-07 02:47:11.31	343.68	15.78	
2025-01-07 02:47:11.52	343.64	15.78	
2025-01-07 02:47:11.72	343.60	15.79	
2025-01-07 02:47:11.93	343.56	15.80	
2025-01-07 02:47:12.13	343.52	15.81	
2025-01-07 02:47:12.34	343.48	15.82	
2025-01-07 02:47:12.54	343.44	15.83	
2025-01-07 02:47:12.75	343.39	15.84	
2025-01-07 02:47:12.95	343.35	15.84	
2025-01-07 02:47:13.16	343.31	15.85	
2025-01-07 02:47:13.36	343.27	15.86	
2025-01-07 02:47:13.57	343.23	15.87	
2025-01-07 02:47:13.77	343.19	15.88	
2025-01-07 02:47:13.98	343.15	15.89	
2025-01-07 02:47:14.18	343.11	15.89	
2025-01-07 02:47:14.39	343.06	15.90	
2025-01-07 02:47:14.60	343.02	15.91	
2025-01-07 02:47:14.80	342.98	15.92	
2025-01-07 02:47:15.00	342.94	15.93	
2025-01-07 02:47:15.21	342.90	15.94	
2025-01-07 02:47:15.41	342.86	15.94	
2025-01-07 02:47:15.62	342.81	15.95	
2025-01-07 02:47:15.82	342.77	15.96	
2025-01-07 02:47:16.03	342.73	15.97	
2025-01-07 02:47:16.23	342.69	15.98	
2025-01-07 02:47:16.44	342.65	15.98	
2025-01-07 02:47:16.64	342.61	15.99	
2025-01-07 02:47:16.85	342.56	16.00	
2025-01-07 02:47:17.05	342.52	16.01	
2025-01-07 02:47:17.26	342.48	16.02	
2025-01-07 02:47:17.46	342.44	16.03	
2025-01-07 02:47:17.66	342.40	16.03	
2025-01-07 02:47:17.87	342.35	16.04	
2025-01-07 02:47:18.08	342.31	16.05	
2025-01-07 02:47:18.28	342.27	16.06	
2025-01-07 02:47:18.49	342.23	16.07	
2025-01-07 02:47:18.69	342.19	16.07	
2025-01-07 02:47:18.90	342.14	16.08	
2025-01-07 02:47:19.10	342.10	16.09	
2025-01-07 02:47:19.31	342.06	16.10	
2025-01-07 02:47:19.51	342.02	16.11	
2025-01-07 02:47:19.72	341.98	16.11	
2025-01-07 02:47:19.93	341.93	16.12	
2025-01-07 02:47:20.13	341.89	16.13	
2025-01-07 02:47:20.33	341.85	16.14	
2025-01-07 02:47:20.54	341.81	16.15	
2025-01-07 02:47:20.74	341.77	16.15	
2025-01-07 02:47:20.95	341.72	16.16	
2025-01-07 02:47:21.15	341.68	16.17	
2025-01-07 02:47:21.36	341.64	16.18	
2025-01-07 02:47:21.57	341.59	16.19	
2025-01-07 02:47:21.77	341.55	16.19	
2025-01-07 02:47:21.98	341.51	16.20	
2025-01-07 02:47:22.18	341.47	16.21	
2025-01-07 02:47:22.39	341.42	16.22	
2025-01-07 02:47:22.59	341.38	16.22	
2025-01-07 02:47:22.80	341.34	16.23	
2025-01-07 02:47:23.00	341.30	16.24	
2025-01-07 02:47:23.21	341.25	16.25	
2025-01-07 02:47:23.41	341.21	16.26	
2025-01-07 02:47:23.62	341.17	16.26	
2025-01-07 02:47:23.82	341.13	16.27	
2025-01-07 02:47:24.02	341.09	16.28	
2025-01-07 02:47:24.23	341.04	16.29	
2025-01-07 02:47:24.43	341.00	16.29	
2025-01-07 02:47:24.64	340.96	16.30	
2025-01-07 02:47:24.84	340.92	16.31	
2025-01-07 02:47:25.05	340.87	16.32	
2025-01-07 02:47:25.25	340.83	16.32	
2025-01-07 02:47:25.46	340.79	16.33	
2025-01-07 02:47:25.66	340.74	16.34	
2025-01-07 02:47:25.87	340.70	16.35	
2025-01-07 02:47:26.07	340.66	16.36	
2025-01-07 02:47:26.28	340.61	16.36	
2025-01-07 02:47:26.48	340.57	16.37	
2025-01-07 02:47:26.69	340.53	16.38	
2025-01-07 02:47:26.89	340.49	16.39	
2025-01-07 02:47:27.10	340.44	16.39	
2025-01-07 02:47:27.30	340.40	16.40	
2025-01-07 02:47:27.51	340.36	16.41	
2025-01-07 02:47:27.71	340.32	16.42	
2025-01-07 02:47:27.91	340.27	16.42	
2025-01-07 02:47:28.12	340.23	16.43	
2025-01-07 02:47:28.33	340.19	16.44	
2025-01-07 02:47:28.53	340.14	16.44	
2025-01-07 02:47:28.74	340.10	16.45	
2025-01-07 02:47:28.94	340.06	16.46	
2025-01-07 02:47:29.15	340.01	16.47	
2025-01-07 02:47:29.35	339.97	16.47	
2025-01-07 02:47:29.56	339.93	16.48	
2025-01-07 02:47:29.76	339.88	16.49	
2025-01-07 02:47:29.97	339.84	16.50	
2025-01-07 02:47:30.17	339.80	16.50	
2025-01-07 02:47:30.38	339.75	16.51	
2025-01-07 02:47:30.58	339.71	16.52	
2025-01-07 02:47:30.79	339.67	16.53	
2025-01-07 02:47:31.00	339.62	16.53	
2025-01-07 02:47:31.20	339.58	16.54	
2025-01-07 02:47:31.41	339.54	16.55	
2025-01-07 02:47:31.61	339.49	16.55	
2025-01-07 02:47:31.82	339.45	16.56	
2025-01-07 02:47:32.02	339.41	16.57	
2025-01-07 02:47:32.23	339.36	16.58	
2025-01-07 02:47:32.44	339.32	16.58	
2025-01-07 02:47:32.64	339.27	16.59	
2025-01-07 02:47:32.85	339.23	16.60	
2025-01-07 02:47:33.05	339.19	16.60	
2025-01-07 02:47:33.25	339.15	16.61	
2025-01-07 02:47:33.46	339.10	16.62	
2025-01-07 02:47:33.67	339.06	16.63	
2025-01-07 02:47:33.87	339.01	16.63	
2025-01-07 02:47:34.08	338.97	16.64	
2025-01-07 02:47:34.28	338.93	16.65	
2025-01-07 02:47:34.49	338.88	16.65	
2025-01-07 02:47:34.69	338.84	16.66	
2025-01-07 02:47:34.90	338.79	16.67	
2025-01-07 02:47:35.10	338.75	16.67	
2025-01-07 02:47:35.31	338.71	16.68	
2025-01-07 02:47:35.51	338.66	16.69	
2025-01-07 02:47:35.72	338.62	16.70	
2025-01-07 02:47:35.92	338.58	16.70	
2025-01-07 02:47:36.12	338.53	16.71	
2025-01-07 02:47:36.33	338.49	16.72	
2025-01-07 02:47:36.54	338.44	16.72	
2025-01-07 02:47:36.74	338.40	16.73	
2025-01-07 02:47:36.95	338.35	16.74	
2025-01-07 02:47:37.15	338.31	16.74	
2025-01-07 02:47:37.36	338.27	16.75	
2025-01-07 02:47:37.56	338.22	16.76	
2025-01-07 02:47:37.77	338.18	16.76	
2025-01-07 02:47:37.97	338.14	16.77	
2025-01-07 02:47:38.18	338.09	16.78	
2025-01-07 02:47:38.38	338.05	16.78	
2025-01-07 02:47:38.59	338.00	16.79	
2025-01-07 02:47:38.79	337.96	16.80	
2025-01-07 02:47:39.00	337.91	16.80	
2025-01-07 02:47:39.20	337.87	16.81	
2025-01-07 02:47:39.42	337.82	16.82	
2025-01-07 02:47:39.63	337.78	16.82	
2025-01-07 02:47:39.83	337.74	16.83	
2025-01-07 02:47:40.04	337.69	16.84	
2025-01-07 02:47:40.24	337.65	16.84	
2025-01-07 02:47:40.45	337.60	16.85	
2025-01-07 02:47:40.65	337.56	16.86	
2025-01-07 02:47:40.86	337.51	16.86	
2025-01-07 02:47:41.06	337.47	16.87	
2025-01-07 02:47:41.27	337.42	16.88	
2025-01-07 02:47:41.47	337.38	16.88	
2025-01-07 02:47:41.68	337.34	16.89	
2025-01-07 02:47:41.88	337.29	16.89	
2025-01-07 02:47:42.09	337.25	16.90	
2025-01-07 02:47:42.29	337.20	16.91	
2025-01-07 02:47:42.50	337.16	16.91	
2025-01-07 02:47:42.70	337.11	16.92	
2025-01-07 02:47:42.91	337.07	16.93	
2025-01-07 02:47:43.11	337.03	16.93	
2025-01-07 02:47:43.32	336.98	16.94	
2025-01-07 02:47:43.52	336.94	16.95	
2025-01-07 02:47:43.73	336.89	16.95	
2025-01-07 02:47:43.93	336.85	16.96	
2025-01-07 02:47:44.13	336.80	16.96	
2025-01-07 02:47:44.34	336.76	16.97	
2025-01-07 02:47:44.55	336.71	16.98	
2025-01-07 02:47:44.75	336.67	16.98	
2025-01-07 02:47:44.95	336.62	16.99	
2025-01-07 02:47:45.16	336.58	17.00	
2025-01-07 02:47:45.37	336.53	17.00	
2025-01-07 02:47:45.57	336.49	17.01	
2025-01-07 02:47:45.79	336.44	17.01	
2025-01-07 02:47:46.00	336.40	17.02	
2025-01-07 02:47:46.20	336.35	17.03	
2025-01-07 02:47:46.41	336.31	17.03	
2025-01-07 02:47:46.61	336.26	17.04	
2025-01-07 02:47:46.82	336.22	17.04	
2025-01-07 02:47:47.02	336.17	17.05	
2025-01-07 02:47:47.23	336.13	17.06	
2025-01-07 02:47:47.43	336.08	17.06	
2025-01-07 02:47:47.64	336.04	17.07	
2025-01-07 02:47:47.84	335.99	17.07	
2025-01-07 02:47:48.05	335.95	17.08	
2025-01-07 02:47:48.25	335.90	17.09	
2025-01-07 02:47:48.46	335.86	17.09	
2025-01-07 02:47:48.66	335.81	17.10	
2025-01-07 02:47:48.87	335.77	17.10	
2025-01-07 02:47:49.07	335.72	17.11	
2025-01-07 02:47:49.27	335.68	17.12	
2025-01-07 02:47:49.48	335.63	17.12	
2025-01-07 02:47:49.68	335.59	17.13	
2025-01-07 02:47:49.89	335.54	17.13	
2025-01-07 02:47:50.10	335.50	17.14	
2025-01-07 02:47:50.31	335.45	17.14	
2025-01-07 02:47:50.51	335.40	17.15	
2025-01-07 02:47:50.72	335.36	17.16	
2025-01-07 02:47:50.93	335.31	17.16	
2025-01-07 02:47:51.15	335.26	17.17	
2025-01-07 02:47:51.35	335.22	17.17	
2025-01-07 02:47:51.56	335.17	17.18	
2025-01-07 02:47:51.76	335.13	17.18	
2025-01-07 02:47:51.97	335.08	17.19	
2025-01-07 02:47:52.17	335.04	17.20	
2025-01-07 02:47:52.38	334.99	17.20	
2025-01-07 02:47:52.58	334.95	17.21	
2025-01-07 02:47:52.79	334.90	17.21	
2025-01-07 02:47:52.99	334.86	17.22	
2025-01-07 02:47:53.20	334.81	17.22	
2025-01-07 02:47:53.40	334.77	17.23	
2025-01-07 02:47:53.61	334.72	17.23	
2025-01-07 02:47:53.81	334.67	17.24	
2025-01-07 02:47:54.02	334.63	17.25	
2025-01-07 02:47:54.22	334.58	17.25	
2025-01-07 02:47:54.43	334.54	17.26	
2025-01-07 02:47:54.63	334.49	17.26	
2025-01-07 02:47:54.84	334.45	17.27	
2025-01-07 02:47:55.04	334.40	17.27	
2025-01-07 02:47:55.25	334.36	17.28	
2025-01-07 02:47:55.45	334.31	17.28	
2025-01-07 02:47:55.66	334.26	17.29	
2025-01-07 02:47:55.86	334.22	17.29	
2025-01-07 02:47:56.07	334.17	17.30	
2025-01-07 02:47:56.28	334.13	17.30	
2025-01-07 02:47:56.48	334.08	17.31	
2025-01-07 02:47:56.69	334.03	17.31	
2025-01-07 02:47:56.89	333.99	17.32	
2025-01-07 02:47:57.10	333.94	17.33	
2025-01-07 02:47:57.31	333.90	17.33	
2025-01-07 02:47:57.52	333.85	17.34	
2025-01-07 02:47:57.73	333.80	17.34	
2025-01-07 02:47:57.93	333.76	17.35	
2025-01-07 02:47:58.14	333.71	17.35	
2025-01-07 02:47:58.35	333.66	17.36	
2025-01-07 02:47:58.55	333.62	17.36	
2025-01-07 02:47:58.75	333.57	17.37	
2025-01-07 02:47:58.96	333.53	17.37	
2025-01-07 02:47:59.16	333.48	17.38	
2025-01-07 02:47:59.37	333.44	17.38	
2025-01-07 02:47:59.57	333.39	17.39	
2025-01-07 02:47:59.78	333.34	17.39	
2025-01-07 02:47:59.98	333.30	17.40	
2025-01-07 02:48:00.19	333.25	17.40	
2025-01-07 02:48:00.39	333.21	17.41	
2025-01-07 02:48:00.60	333.16	17.41	
2025-01-07 02:48:00.80	333.11	17.42	
2025-01-07 02:48:01.01	333.07	17.42	
2025-01-07 02:48:01.21	333.02	17.43	
2025-01-07 02:48:01.42	332.98	17.43	
2025-01-07 02:48:01.62	332.93	17.43	
2025-01-07 02:48:01.84	332.88	17.44	
2025-01-07 02:48:02.05	332.83	17.44	
2025-01-07 02:48:02.25	332.79	17.45	
2025-01-07 02:48:02.46	332.74	17.45	
2025-01-07 02:48:02.66	332.70	17.46	
2025-01-07 02:48:02.87	332.65	17.46	
2025-01-07 02:48:03.07	332.60	17.47	
2025-01-07 02:48:03.28	332.56	17.47	
2025-01-07 02:48:03.48	332.51	17.48	
2025-01-07 02:48:03.69	332.46	17.48	
2025-01-07 02:48:03.91	332.41	17.49	
2025-01-07 02:48:04.11	332.37	17.49	
2025-01-07 02:48:04.32	332.32	17.50	
2025-01-07 02:48:04.52	332.28	17.50	
2025-01-07 02:48:04.73	332.23	17.51	
2025-01-07 02:48:04.93	332.18	17.51	
2025-01-07 02:48:05.14	332.14	17.51	
2025-01-07 02:48:05.34	332.09	17.52	
2025-01-07 02:48:05.55	332.04	17.52	
2025-01-07 02:48:05.75	332.00	17.53	
2025-01-07 02:48:05.96	331.95	17.53	
2025-01-07 02:48:06.16	331.91	17.54	
2025-01-07 02:48:06.37	331.86	17.54	
2025-01-07 02:48:06.57	331.81	17.54	
2025-01-07 02:48:06.78	331.77	17.55	
2025-01-07 02:48:06.99	331.72	17.55	
2025-01-07 02:48:07.19	331.67	17.56	
2025-01-07 02:48:07.39	331.63	17.56	
2025-01-07 02:48:07.60	331.58	17.57	
2025-01-07 02:48:07.80	331.53	17.57	
2025-01-07 02:48:08.01	331.49	17.57	
2025-01-07 02:48:08.21	331.44	17.58	
2025-01-07 02:48:08.42	331.39	17.58	
2025-01-07 02:48:08.62	331.35	17.59	
2025-01-07 02:48:08.83	331.30	17.59	
2025-01-07 02:48:09.04	331.25	17.60	
2025-01-07 02:48:09.25	331.21	17.60	
2025-01-07 02:48:09.46	331.16	17.60	
2025-01-07 02:48:09.66	331.11	17.61	
2025-01-07 02:48:09.87	331.06	17.61	
2025-01-07 02:48:10.07	331.02	17.62	
2025-01-07 02:48:10.28	330.97	17.62	
2025-01-07 02:48:10.48	330.93	17.62	
2025-01-07 02:48:10.69	330.88	17.63	
2025-01-07 02:48:10.89	330.83	17.63	
2025-01-07 02:48:11.10	330.78	17.64	
2025-01-07 02:48:11.30	330.74	17.64	
2025-01-07 02:48:11.51	330.69	17.64	
2025-01-07 02:48:11.71	330.65	17.65	
2025-01-07 02:48:11.92	330.60	17.65	
2025-01-07 02:48:12.12	330.55	17.65	
2025-01-07 02:48:12.33	330.50	17.66	
2025-01-07 02:48:12.53	330.46	17.66	
2025-01-07 02:48:12.74	330.41	17.67	
2025-01-07 02:48:12.94	330.36	17.67	
2025-01-07 02:48:13.15	330.32	17.67	
2025-01-07 02:48:13.36	330.27	17.68	
2025-01-07 02:48:13.56	330.22	17.68	
2025-01-07 02:48:13.76	330.18	17.68	
2025-01-07 02:48:13.97	330.13	17.69	
2025-01-07 02:48:14.17	330.08	17.69	
2025-01-07 02:48:14.38	330.04	17.70	
2025-01-07 02:48:14.58	329.99	17.70	
2025-01-07 02:48:14.79	329.94	17.70	
2025-01-07 02:48:14.99	329.90	17.71	
2025-01-07 02:48:15.20	329.85	17.71	
2025-01-07 02:48:15.41	329.80	17.71	
2025-01-07 02:48:15.61	329.75	17.72	
2025-01-07 02:48:15.81	329.71	17.72	
2025-01-07 02:48:16.02	329.66	17.72	
2025-01-07 02:48:16.22	329.61	17.73	
2025-01-07 02:48:16.43	329.57	17.73	
2025-01-07 02:48:16.64	329.52	17.73	
2025-01-07 02:48:16.84	329.47	17.74	
2025-01-07 02:48:17.05	329.42	17.74	
2025-01-07 02:48:17.25	329.38	17.74	
2025-01-07 02:48:17.46	329.33	17.75	
2025-01-07 02:48:17.66	329.28	17.75	
2025-01-07 02:48:17.87	329.24	17.75	
2025-01-07 02:48:18.08	329.19	17.76	
2025-01-07 02:48:18.28	329.14	17.76	
2025-01-07 02:48:18.49	329.09	17.76	
2025-01-07 02:48:18.70	329.04	17.77	
2025-01-07 02:48:18.90	329.00	17.77	
2025-01-07 02:48:19.11	328.95	17.77	
2025-01-07 02:48:19.31	328.90	17.78	
2025-01-07 02:48:19.52	328.86	17.78	
2025-01-07 02:48:19.72	328.81	17.78	
2025-01-07 02:48:19.94	328.76	17.79	
2025-01-07 02:48:20.15	328.71	17.79	
2025-01-07 02:48:20.35	328.67	17.79	
2025-01-07 02:48:20.56	328.62	17.80	
2025-01-07 02:48:20.76	328.57	17.80	
2025-01-07 02:48:20.97	328.52	17.80	
2025-01-07 02:48:21.17	328.48	17.80	
2025-01-07 02:48:21.38	328.43	17.81	
2025-01-07 02:48:21.59	328.38	17.81	
2025-01-07 02:48:21.79	328.33	17.81	
2025-01-07 02:48:21.99	328.29	17.82	
2025-01-07 02:48:22.20	328.24	17.82	
2025-01-07 02:48:22.40	328.19	17.82	
2025-01-07 02:48:22.61	328.14	17.82	
2025-01-07 02:48:22.81	328.10	17.83	
2025-01-07 02:48:23.03	328.05	17.83	
2025-01-07 02:48:23.23	328.00	17.83	
2025-01-07 02:48:23.44	327.95	17.84	
2025-01-07 02:48:23.65	327.90	17.84	
2025-01-07 02:48:23.85	327.86	17.84	
2025-01-07 02:48:24.06	327.81	17.84	
2025-01-07 02:48:24.27	327.76	17.85	
2025-01-07 02:48:24.47	327.71	17.85	
2025-01-07 02:48:24.68	327.67	17.85	
2025-01-07 02:48:24.88	327.62	17.85	
2025-01-07 02:48:25.09	327.57	17.86	
2025-01-07 02:48:25.29	327.52	17.86	
2025-01-07 02:48:25.50	327.48	17.86	
2025-01-07 02:48:25.71	327.43	17.87	
2025-01-07 02:48:25.91	327.38	17.87	
2025-01-07 02:48:26.12	327.33	17.87	
2025-01-07 02:48:26.34	327.28	17.87	
2025-01-07 02:48:26.54	327.24	17.88	
2025-01-07 02:48:26.75	327.19	17.88	
2025-01-07 02:48:26.95	327.14	17.88	
2025-01-07 02:48:27.16	327.09	17.88	
2025-01-07 02:48:27.36	327.05	17.88	
2025-01-07 02:48:27.57	327.00	17.89	
2025-01-07 02:48:27.77	326.95	17.89	
2025-01-07 02:48:27.98	326.90	17.89	
2025-01-07 02:48:28.18	326.86	17.89	
2025-01-07 02:48:28.39	326.81	17.90	
2025-01-07 02:48:28.59	326.76	17.90	
2025-01-07 02:48:28.80	326.71	17.90	
2025-01-07 02:48:29.00	326.67	17.90	
2025-01-07 02:48:29.21	326.62	17.91	
2025-01-07 02:48:29.41	326.57	17.91	
2025-01-07 02:48:29.62	326.52	17.91	
2025-01-07 02:48:29.82	326.47	17.91	
2025-01-07 02:48:30.03	326.43	17.91	
2025-01-07 02:48:30.24	326.38	17.92	
2025-01-07 02:48:30.44	326.33	17.92	
2025-01-07 02:48:30.64	326.28	17.92	
2025-01-07 02:48:30.85	326.24	17.92	
2025-01-07 02:48:31.06	326.19	17.92	
2025-01-07 02:48:31.26	326.14	17.93	
2025-01-07 02:48:31.47	326.09	17.93	
2025-01-07 02:48:31.67	326.05	17.93	
2025-01-07 02:48:31.88	326.00	17.93	
2025-01-07 02:48:32.08	325.95	17.93	
2025-01-07 02:48:32.29	325.90	17.94	
2025-01-07 02:48:32.49	325.85	17.94	
2025-01-07 02:48:32.69	325.81	17.94	
2025-01-07 02:48:32.90	325.76	17.94	
2025-01-07 02:48:33.11	325.71	17.94	
2025-01-07 02:48:33.31	325.66	17.94	
2025-01-07 02:48:33.52	325.61	17.95	
2025-01-07 02:48:33.72	325.57	17.95	
2025-01-07 02:48:33.93	325.52	17.95	
2025-01-07 02:48:34.14	325.47	17.95	
2025-01-07 02:48:34.34	325.42	17.95	
2025-01-07 02:48:34.55	325.38	17.96	
2025-01-07 02:48:34.75	325.33	17.96	
2025-01-07 02:48:34.95	325.28	17.96	
2025-01-07 02:48:35.16	325.23	17.96	
2025-01-07 02:48:35.37	325.18	17.96	
2025-01-07 02:48:35.57	325.14	17.96	
2025-01-07 02:48:35.78	325.09	17.96	
2025-01-07 02:48:35.98	325.04	17.97	
2025-01-07 02:48:36.19	324.99	17.97	
2025-01-07 02:48:36.39	324.95	17.97	
2025-01-07 02:48:36.60	324.90	17.97	
2025-01-07 02:48:36.80	324.85	17.97	
2025-01-07 02:48:37.01	324.80	17.97	
2025-01-07 02:48:37.21	324.76	17.97	
2025-01-07 02:48:37.42	324.71	17.98	
2025-01-07 02:48:37.62	324.66	17.98	
2025-01-07 02:48:37.83	324.61	17.98	
2025-01-07 02:48:38.03	324.56	17.98	
2025-01-07 02:48:38.24	324.52	17.98	
2025-01-07 02:48:38.44	324.47	17.98	
2025-01-07 02:48:38.64	324.42	17.98	
2025-01-07 02:48:38.85	324.37	17.99	
2025-01-07 02:48:39.05	324.33	17.99	
2025-01-07 02:48:39.26	324.28	17.99	
2025-01-07 02:48:39.46	324.23	17.99	
2025-01-07 02:48:39.67	324.18	17.99	
2025-01-07 02:48:39.87	324.13	17.99	
2025-01-07 02:48:40.08	324.09	17.99	
2025-01-07 02:48:40.28	324.04	17.99	
2025-01-07 02:48:40.49	323.99	17.99	
2025-01-07 02:48:40.69	323.94	18.00	
2025-01-07 02:48:40.90	323.89	18.00	
2025-01-07 02:48:41.10	323.85	18.00	
2025-01-07 02:48:41.30	323.80	18.00	
2025-01-07 02:48:41.51	323.75	18.00	
2025-01-07 02:48:41.71	323.71	18.00	
2025-01-07 02:48:41.92	323.66	18.00	
2025-01-07 02:48:42.13	323.61	18.00	
2025-01-07 02:48:42.33	323.56	18.00	
2025-01-07 02:48:42.54	323.51	18.00	
2025-01-07 02:48:42.74	323.46	18.00	
2025-01-07 02:48:42.95	323.42	18.01	
2025-01-07 02:48:43.15	323.37	18.01	
2025-01-07 02:48:43.36	323.32	18.01	
2025-01-07 02:48:43.56	323.27	18.01	
2025-01-07 02:48:43.77	323.22	18.01	
2025-01-07 02:48:43.97	323.18	18.01	
2025-01-07 02:48:44.18	323.13	18.01	
2025-01-07 02:48:44.38	323.08	18.01	
2025-01-07 02:48:44.59	323.03	18.01	
2025-01-07 02:48:44.80	322.98	18.01	
2025-01-07 02:48:45.00	322.94	18.01	
2025-01-07 02:48:45.21	322.89	18.01	
2025-01-07 02:48:45.41	322.84	18.01	
2025-01-07 02:48:45.62	322.79	18.01	
2025-01-07 02:48:45.82	322.74	18.01	
2025-01-07 02:48:46.03	322.70	18.02	
2025-01-07 02:48:46.24	322.65	18.02	
2025-01-07 02:48:46.44	322.60	18.02	
2025-01-07 02:48:46.66	322.55	18.02	
2025-01-07 02:48:46.86	322.50	18.02	
2025-01-07 02:48:47.07	322.45	18.02	
2025-01-07 02:48:47.27	322.41	18.02	
2025-01-07 02:48:47.48	322.36	18.02	
2025-01-07 02:48:47.69	322.31	18.02	
2025-01-07 02:48:47.90	322.26	18.02	
2025-01-07 02:48:48.11	322.21	18.02	
2025-01-07 02:48:48.31	322.16	18.02	
2025-01-07 02:48:48.52	322.11	18.02	
2025-01-07 02:48:48.73	322.06	18.02	
2025-01-07 02:48:48.94	322.01	18.02	
2025-01-07 02:48:49.14	321.97	18.02	
2025-01-07 02:48:49.35	321.92	18.02	
2025-01-07 02:48:49.55	321.87	18.02	
2025-01-07 02:48:49.76	321.82	18.02	
2025-01-07 02:48:49.96	321.78	18.02	
2025-01-07 02:48:50.17	321.73	18.02	
2025-01-07 02:48:50.37	321.68	18.02	
2025-01-07 02:48:50.58	321.63	18.02	
2025-01-07 02:48:50.78	321.58	18.02	
2025-01-07 02:48:50.99	321.54	18.02	
2025-01-07 02:48:51.19	321.49	18.02	
2025-01-07 02:48:51.40	321.44	18.02	
2025-01-07 02:48:51.61	321.39	18.02	
2025-01-07 02:48:51.81	321.34	18.02	
2025-01-07 02:48:52.01	321.30	18.02	
2025-01-07 02:48:52.22	321.25	18.02	
2025-01-07 02:48:52.43	321.20	18.02	
2025-01-07 02:48:52.63	321.15	18.02	
2025-01-07 02:48:52.84	321.10	18.02	
2025-01-07 02:48:53.04	321.06	18.02	
2025-01-07 02:48:53.25	321.01	18.02	
2025-01-07 02:48:53.45	320.96	18.02	
2025-01-07 02:48:53.66	320.91	18.02	
2025-01-07 02:48:53.86	320.86	18.02	
2025-01-07 02:48:54.06	320.82	18.02	
2025-01-07 02:48:54.27	320.77	18.02	
2025-01-07 02:48:54.47	320.72	18.02	
2025-01-07 02:48:54.68	320.67	18.02	
2025-01-07 02:48:54.88	320.63	18.02	
2025-01-07 02:48:55.09	320.58	18.02	
2025-01-07 02:48:55.29	320.53	18.02	
2025-01-07 02:48:55.50	320.48	18.02	
2025-01-07 02:48:55.70	320.43	18.02	
2025-01-07 02:48:55.91	320.38	18.02	
2025-01-07 02:48:56.11	320.34	18.02	
2025-01-07 02:48:56.32	320.29	18.01	
2025-01-07 02:48:56.52	320.24	18.01	
2025-01-07 02:48:56.73	320.19	18.01	
2025-01-07 02:48:56.93	320.15	18.01	
2025-01-07 02:48:57.14	320.10	18.01	
2025-01-07 02:48:57.34	320.05	18.01	
2025-01-07 02:48:57.55	320.00	18.01	
2025-01-07 02:48:57.75	319.95	18.01	
2025-01-07 02:48:57.96	319.91	18.01	
2025-01-07 02:48:58.16	319.86	18.01	
2025-01-07 02:48:58.37	319.81	18.01	
2025-01-07 02:48:58.57	319.76	18.01	
2025-01-07 02:48:58.78	319.71	18.01	
2025-01-07 02:48:58.98	319.67	18.01	
2025-01-07 02:48:59.19	319.62	18.00	
2025-01-07 02:48:59.39	319.57	18.00	
2025-01-07 02:48:59.60	319.52	18.00	
2025-01-07 02:48:59.80	319.48	18.00	
2025-01-07 02:49:00.01	319.43	18.00	
2025-01-07 02:49:00.21	319.38	18.00	
2025-01-07 02:49:00.42	319.33	18.00	
2025-01-07 02:49:00.62	319.28	18.00	
2025-01-07 02:49:00.83	319.23	18.00	
2025-01-07 02:49:01.03	319.19	18.00	
2025-01-07 02:49:01.24	319.14	18.00	
2025-01-07 02:49:01.44	319.09	17.99	
2025-01-07 02:49:01.66	319.04	17.99	
2025-01-07 02:49:01.88	318.99	17.99	
2025-01-07 02:49:02.08	318.94	17.99	
2025-01-07 02:49:02.28	318.90	17.99	
2025-01-07 02:49:02.49	318.85	17.99	
2025-01-07 02:49:02.70	318.80	17.99	
2025-01-07 02:49:02.91	318.75	17.99	
2025-01-07 02:49:03.11	318.70	17.99	
2025-01-07 02:49:03.32	318.65	17.98	
2025-01-07 02:49:03.52	318.61	17.98	
2025-01-07 02:49:03.74	318.56	17.98	
2025-01-07 02:49:03.95	318.51	17.98	
2025-01-07 02:49:04.15	318.46	17.98	
2025-01-07 02:49:04.36	318.41	17.98	
2025-01-07 02:49:04.56	318.36	17.98	
2025-01-07 02:49:04.78	318.31	17.97	
2025-01-07 02:49:04.98	318.27	17.97	
2025-01-07 02:49:05.19	318.22	17.97	
2025-01-07 02:49:05.39	318.17	17.97	
2025-01-07 02:49:05.60	318.12	17.97	
2025-01-07 02:49:05.80	318.07	17.97	
2025-01-07 02:49:06.01	318.03	17.97	
2025-01-07 02:49:06.21	317.98	17.96	
2025-01-07 02:49:06.42	317.93	17.96	
2025-01-07 02:49:06.62	317.88	17.96	
2025-01-07 02:49:06.83	317.83	17.96	
2025-01-07 02:49:07.03	317.79	17.96	
2025-01-07 02:49:07.24	317.74	17.96	
2025-01-07 02:49:07.44	317.69	17.95	
2025-01-07 02:49:07.65	317.64	17.95	
2025-01-07 02:49:07.85	317.60	17.95	
2025-01-07 02:49:08.05	317.55	17.95	
2025-01-07 02:49:08.26	317.50	17.95	
2025-01-07 02:49:08.47	317.45	17.95	
2025-01-07 02:49:08.67	317.41	17.94	
2025-01-07 02:49:08.88	317.36	17.94	
2025-01-07 02:49:09.08	317.31	17.94	
2025-01-07 02:49:09.28	317.26	17.94	
2025-01-07 02:49:09.49	317.22	17.94	
2025-01-07 02:49:09.69	317.17	17.94	
2025-01-07 02:49:09.90	317.12	17.93	
2025-01-07 02:49:10.10	317.07	17.93	
2025-01-07 02:49:10.31	317.02	17.93	
2025-01-07 02:49:10.51	316.98	17.93	
2025-01-07 02:49:10.72	316.93	17.93	
2025-01-07 02:49:10.93	316.88	17.92	
2025-01-07 02:49:11.13	316.83	17.92	
2025-01-07 02:49:11.34	316.79	17.92	
2025-01-07 02:49:11.54	316.74	17.92	
2025-01-07 02:49:11.75	316.69	17.92	
2025-01-07 02:49:11.95	316.64	17.91	
2025-01-07 02:49:12.16	316.59	17.91	
2025-01-07 02:49:12.36	316.55	17.91	
2025-01-07 02:49:12.57	316.50	17.91	
2025-01-07 02:49:12.77	316.45	17.91	
2025-01-07 02:49:12.98	316.40	17.90	
2025-01-07 02:49:13.18	316.36	17.90	
