passes_logs/2025/01/07/SPB_Silybum_02/SPB_Silybum_02__20250107_125045_AQUA_rec.log

#Pass ID: 20250107_125045_AQUA
#Satellite: AQUA
#Configuration: AQUA
#Start time: 2025-01-07 12:50:46

#Version: 2.0.20230423
#Station: SPB_Silybum_02
#Location: 30.233357 lon 59.946436 lat
#TLE: 1 27424U 02022A   25006.84785145  .00002945  00000+0  61491-3 0  9993
#TLE: 2 27424  98.3576 323.4392 0001407 119.3107 268.2761 14.60650503206436

#Time	Az	El	Level	Level2	SNR	BER	Gain	Gain2
2025-01-07 12:50:48.23	208.08	4.16	
2025-01-07 12:50:48.44	208.10	4.17	
2025-01-07 12:50:48.64	208.12	4.18	
2025-01-07 12:50:48.85	208.14	4.19	
2025-01-07 12:50:49.05	208.15	4.21	
2025-01-07 12:50:49.25	208.17	4.22	
2025-01-07 12:50:49.46	208.19	4.23	
2025-01-07 12:50:49.67	208.21	4.24	
2025-01-07 12:50:49.88	208.23	4.26	
2025-01-07 12:50:50.09	208.24	4.27	
2025-01-07 12:50:50.29	208.26	4.28	
2025-01-07 12:50:50.50	208.28	4.30	
2025-01-07 12:50:50.71	208.30	4.31	
2025-01-07 12:50:50.91	208.32	4.32	
2025-01-07 12:50:51.12	208.33	4.33	
2025-01-07 12:50:51.34	208.35	4.35	
2025-01-07 12:50:51.54	208.37	4.36	
2025-01-07 12:50:51.74	208.39	4.37	
2025-01-07 12:50:51.95	208.41	4.39	
2025-01-07 12:50:52.16	208.43	4.40	
2025-01-07 12:50:52.38	208.45	4.41	
2025-01-07 12:50:52.58	208.46	4.43	
2025-01-07 12:50:52.79	208.48	4.44	
2025-01-07 12:50:52.99	208.50	4.45	
2025-01-07 12:50:53.20	208.52	4.46	
2025-01-07 12:50:53.42	208.54	4.48	
2025-01-07 12:50:53.62	208.56	4.49	
2025-01-07 12:50:53.83	208.58	4.50	
2025-01-07 12:50:54.03	208.59	4.52	
2025-01-07 12:50:54.24	208.61	4.53	
2025-01-07 12:50:54.44	208.63	4.54	
2025-01-07 12:50:54.65	208.65	4.55	
2025-01-07 12:50:54.85	208.67	4.57	
2025-01-07 12:50:55.06	208.69	4.58	
2025-01-07 12:50:55.26	208.70	4.59	
2025-01-07 12:50:55.47	208.72	4.61	
2025-01-07 12:50:55.68	208.74	4.62	
2025-01-07 12:50:55.88	208.76	4.63	
2025-01-07 12:50:56.09	208.78	4.64	
2025-01-07 12:50:56.29	208.80	4.66	
2025-01-07 12:50:56.50	208.81	4.67	
2025-01-07 12:50:56.70	208.83	4.68	
2025-01-07 12:50:56.91	208.85	4.70	
2025-01-07 12:50:57.11	208.87	4.71	
2025-01-07 12:50:57.32	208.89	4.72	
2025-01-07 12:50:57.52	208.91	4.73	
2025-01-07 12:50:57.73	208.93	4.75	
2025-01-07 12:50:57.93	208.94	4.76	
2025-01-07 12:50:58.14	208.96	4.77	
2025-01-07 12:50:58.34	208.98	4.79	
2025-01-07 12:50:58.55	209.00	4.80	
2025-01-07 12:50:58.75	209.02	4.81	
2025-01-07 12:50:58.96	209.04	4.83	
2025-01-07 12:50:59.16	209.06	4.84	
2025-01-07 12:50:59.37	209.08	4.85	
2025-01-07 12:50:59.58	209.10	4.86	
2025-01-07 12:50:59.78	209.11	4.88	
2025-01-07 12:50:59.99	209.13	4.89	
2025-01-07 12:51:00.19	209.15	4.90	
2025-01-07 12:51:00.40	209.17	4.92	
2025-01-07 12:51:00.60	209.19	4.93	
2025-01-07 12:51:00.81	209.21	4.94	
2025-01-07 12:51:01.01	209.23	4.95	
2025-01-07 12:51:01.22	209.25	4.97	
2025-01-07 12:51:01.43	209.27	4.98	
2025-01-07 12:51:01.63	209.28	4.99	
2025-01-07 12:51:01.84	209.30	5.01	
2025-01-07 12:51:02.04	209.32	5.02	
2025-01-07 12:51:02.25	209.34	5.03	
2025-01-07 12:51:02.45	209.36	5.05	
2025-01-07 12:51:02.66	209.38	5.06	
2025-01-07 12:51:02.86	209.40	5.07	
2025-01-07 12:51:03.07	209.42	5.08	
2025-01-07 12:51:03.27	209.44	5.10	
2025-01-07 12:51:03.48	209.46	5.11	
2025-01-07 12:51:03.68	209.47	5.12	
2025-01-07 12:51:03.89	209.49	5.14	
2025-01-07 12:51:04.09	209.51	5.15	
2025-01-07 12:51:04.29	209.53	5.16	
2025-01-07 12:51:04.50	209.55	5.18	
2025-01-07 12:51:04.71	209.57	5.19	
2025-01-07 12:51:04.91	209.59	5.20	
2025-01-07 12:51:05.12	209.61	5.22	
2025-01-07 12:51:05.32	209.63	5.23	
2025-01-07 12:51:05.53	209.65	5.24	
2025-01-07 12:51:05.73	209.67	5.25	
2025-01-07 12:51:05.94	209.69	5.27	
2025-01-07 12:51:06.14	209.70	5.28	
2025-01-07 12:51:06.35	209.72	5.29	
2025-01-07 12:51:06.55	209.74	5.31	
2025-01-07 12:51:06.76	209.76	5.32	
2025-01-07 12:51:06.96	209.78	5.33	
2025-01-07 12:51:07.17	209.80	5.35	
2025-01-07 12:51:07.38	209.82	5.36	
2025-01-07 12:51:07.58	209.84	5.37	
2025-01-07 12:51:07.79	209.86	5.39	
2025-01-07 12:51:07.99	209.88	5.40	
2025-01-07 12:51:08.20	209.90	5.41	
2025-01-07 12:51:08.42	209.92	5.43	
2025-01-07 12:51:08.62	209.94	5.44	
2025-01-07 12:51:08.83	209.96	5.45	
2025-01-07 12:51:09.03	209.98	5.46	
2025-01-07 12:51:09.24	210.00	5.48	
2025-01-07 12:51:09.44	210.02	5.49	
2025-01-07 12:51:09.65	210.04	5.50	
2025-01-07 12:51:09.86	210.06	5.52	
2025-01-07 12:51:10.06	210.08	5.53	
2025-01-07 12:51:10.26	210.10	5.54	
2025-01-07 12:51:10.47	210.12	5.56	
2025-01-07 12:51:10.67	210.14	5.57	
2025-01-07 12:51:10.88	210.16	5.58	
2025-01-07 12:51:11.08	210.18	5.60	
2025-01-07 12:51:11.29	210.20	5.61	
2025-01-07 12:51:11.49	210.22	5.62	
2025-01-07 12:51:11.70	210.24	5.64	
2025-01-07 12:51:11.91	210.26	5.65	
2025-01-07 12:51:12.11	210.28	5.66	
2025-01-07 12:51:12.32	210.30	5.68	
2025-01-07 12:51:12.52	210.32	5.69	
2025-01-07 12:51:12.73	210.34	5.70	
2025-01-07 12:51:12.93	210.36	5.72	
2025-01-07 12:51:13.14	210.38	5.73	
2025-01-07 12:51:13.34	210.40	5.74	
2025-01-07 12:51:13.54	210.41	5.76	
2025-01-07 12:51:13.75	210.44	5.77	
2025-01-07 12:51:13.96	210.46	5.78	
2025-01-07 12:51:14.16	210.48	5.80	
2025-01-07 12:51:14.37	210.50	5.81	
2025-01-07 12:51:14.57	210.52	5.82	
2025-01-07 12:51:14.77	210.54	5.83	
2025-01-07 12:51:14.98	210.56	5.85	
2025-01-07 12:51:15.19	210.58	5.86	
2025-01-07 12:51:15.39	210.60	5.87	
2025-01-07 12:51:15.60	210.62	5.89	
2025-01-07 12:51:15.80	210.64	5.90	
2025-01-07 12:51:16.01	210.66	5.92	
2025-01-07 12:51:16.21	210.68	5.93	
2025-01-07 12:51:16.42	210.70	5.94	
2025-01-07 12:51:16.62	210.72	5.95	
2025-01-07 12:51:16.83	210.74	5.97	
2025-01-07 12:51:17.03	210.76	5.98	
2025-01-07 12:51:17.24	210.78	5.99	
2025-01-07 12:51:17.44	210.80	6.01	
2025-01-07 12:51:17.65	210.82	6.02	
2025-01-07 12:51:17.85	210.84	6.03	
2025-01-07 12:51:18.06	210.86	6.05	
2025-01-07 12:51:18.27	210.88	6.06	
2025-01-07 12:51:18.47	210.90	6.08	
2025-01-07 12:51:18.68	210.92	6.09	
2025-01-07 12:51:18.89	210.94	6.10	
2025-01-07 12:51:19.09	210.96	6.12	
2025-01-07 12:51:19.29	210.98	6.13	
2025-01-07 12:51:19.50	211.00	6.14	
2025-01-07 12:51:19.70	211.02	6.16	
2025-01-07 12:51:19.91	211.05	6.17	
2025-01-07 12:51:20.12	211.07	6.18	
2025-01-07 12:51:20.32	211.09	6.20	
2025-01-07 12:51:20.53	211.11	6.21	
2025-01-07 12:51:20.73	211.13	6.22	
2025-01-07 12:51:20.94	211.15	6.24	
2025-01-07 12:51:21.14	211.17	6.25	
2025-01-07 12:51:21.35	211.19	6.26	
2025-01-07 12:51:21.55	211.21	6.28	
2025-01-07 12:51:21.76	211.23	6.29	
2025-01-07 12:51:21.96	211.25	6.30	
2025-01-07 12:51:22.17	211.27	6.32	
2025-01-07 12:51:22.37	211.29	6.33	
2025-01-07 12:51:22.58	211.32	6.34	
2025-01-07 12:51:22.79	211.34	6.36	
2025-01-07 12:51:22.99	211.36	6.37	
2025-01-07 12:51:23.20	211.38	6.38	
2025-01-07 12:51:23.40	211.40	6.40	
2025-01-07 12:51:23.61	211.42	6.41	
2025-01-07 12:51:23.81	211.44	6.42	
2025-01-07 12:51:24.02	211.46	6.44	
2025-01-07 12:51:24.22	211.48	6.45	
2025-01-07 12:51:24.43	211.50	6.47	
2025-01-07 12:51:24.63	211.53	6.48	
2025-01-07 12:51:24.84	211.55	6.49	
2025-01-07 12:51:25.05	211.57	6.51	
2025-01-07 12:51:25.25	211.59	6.52	
2025-01-07 12:51:25.46	211.61	6.53	
2025-01-07 12:51:25.66	211.63	6.55	
2025-01-07 12:51:25.87	211.65	6.56	
2025-01-07 12:51:26.07	211.67	6.57	
2025-01-07 12:51:26.28	211.70	6.59	
2025-01-07 12:51:26.48	211.72	6.60	
2025-01-07 12:51:26.69	211.74	6.61	
2025-01-07 12:51:26.89	211.76	6.63	
2025-01-07 12:51:27.09	211.78	6.64	
2025-01-07 12:51:27.30	211.80	6.65	
2025-01-07 12:51:27.50	211.82	6.67	
2025-01-07 12:51:27.71	211.84	6.68	
2025-01-07 12:51:27.92	211.87	6.70	
2025-01-07 12:51:28.12	211.89	6.71	
2025-01-07 12:51:28.32	211.91	6.72	
2025-01-07 12:51:28.53	211.93	6.74	
2025-01-07 12:51:28.73	211.95	6.75	
2025-01-07 12:51:28.94	211.97	6.76	
2025-01-07 12:51:29.15	212.00	6.78	
2025-01-07 12:51:29.35	212.02	6.79	
2025-01-07 12:51:29.56	212.04	6.80	
2025-01-07 12:51:29.76	212.06	6.82	
2025-01-07 12:51:29.97	212.08	6.83	
2025-01-07 12:51:30.17	212.10	6.85	
2025-01-07 12:51:30.38	212.12	6.86	
2025-01-07 12:51:30.60	212.15	6.87	
2025-01-07 12:51:30.80	212.17	6.89	
2025-01-07 12:51:31.01	212.19	6.90	
2025-01-07 12:51:31.21	212.21	6.91	
2025-01-07 12:51:31.42	212.23	6.93	
2025-01-07 12:51:31.63	212.26	6.94	
2025-01-07 12:51:31.83	212.28	6.96	
2025-01-07 12:51:32.03	212.30	6.97	
2025-01-07 12:51:32.24	212.32	6.98	
2025-01-07 12:51:32.45	212.34	7.00	
2025-01-07 12:51:32.65	212.37	7.01	
2025-01-07 12:51:32.85	212.39	7.02	
2025-01-07 12:51:33.06	212.41	7.04	
2025-01-07 12:51:33.27	212.43	7.05	
2025-01-07 12:51:33.47	212.45	7.07	
2025-01-07 12:51:33.68	212.48	7.08	
2025-01-07 12:51:33.88	212.50	7.09	
2025-01-07 12:51:34.08	212.52	7.11	
2025-01-07 12:51:34.29	212.54	7.12	
2025-01-07 12:51:34.49	212.56	7.13	
2025-01-07 12:51:34.70	212.59	7.15	
2025-01-07 12:51:34.91	212.61	7.16	
2025-01-07 12:51:35.11	212.63	7.18	
2025-01-07 12:51:35.32	212.65	7.19	
2025-01-07 12:51:35.52	212.67	7.20	
2025-01-07 12:51:35.73	212.70	7.22	
2025-01-07 12:51:35.93	212.72	7.23	
2025-01-07 12:51:36.14	212.74	7.24	
2025-01-07 12:51:36.34	212.76	7.26	
2025-01-07 12:51:36.55	212.79	7.27	
2025-01-07 12:51:36.76	212.81	7.29	
2025-01-07 12:51:36.96	212.83	7.30	
2025-01-07 12:51:37.17	212.85	7.31	
2025-01-07 12:51:37.37	212.88	7.33	
2025-01-07 12:51:37.58	212.90	7.34	
2025-01-07 12:51:37.78	212.92	7.35	
2025-01-07 12:51:37.99	212.94	7.37	
2025-01-07 12:51:38.20	212.97	7.38	
2025-01-07 12:51:38.41	212.99	7.40	
2025-01-07 12:51:38.61	213.01	7.41	
2025-01-07 12:51:38.82	213.03	7.42	
2025-01-07 12:51:39.03	213.06	7.44	
2025-01-07 12:51:39.23	213.08	7.45	
2025-01-07 12:51:39.44	213.10	7.47	
2025-01-07 12:51:39.64	213.13	7.48	
2025-01-07 12:51:39.85	213.15	7.49	
2025-01-07 12:51:40.05	213.17	7.51	
2025-01-07 12:51:40.26	213.19	7.52	
2025-01-07 12:51:40.48	213.22	7.54	
2025-01-07 12:51:40.68	213.24	7.55	
2025-01-07 12:51:40.89	213.26	7.56	
2025-01-07 12:51:41.09	213.29	7.58	
2025-01-07 12:51:41.30	213.31	7.59	
2025-01-07 12:51:41.50	213.33	7.61	
2025-01-07 12:51:41.71	213.35	7.62	
2025-01-07 12:51:41.91	213.38	7.63	
2025-01-07 12:51:42.12	213.40	7.65	
2025-01-07 12:51:42.32	213.42	7.66	
2025-01-07 12:51:42.53	213.45	7.68	
2025-01-07 12:51:42.74	213.47	7.69	
2025-01-07 12:51:42.94	213.49	7.70	
2025-01-07 12:51:43.15	213.52	7.72	
2025-01-07 12:51:43.35	213.54	7.73	
2025-01-07 12:51:43.56	213.56	7.75	
2025-01-07 12:51:43.76	213.58	7.76	
2025-01-07 12:51:43.97	213.61	7.77	
2025-01-07 12:51:44.18	213.63	7.79	
2025-01-07 12:51:44.38	213.65	7.80	
2025-01-07 12:51:44.58	213.68	7.82	
2025-01-07 12:51:44.79	213.70	7.83	
2025-01-07 12:51:45.00	213.72	7.84	
2025-01-07 12:51:45.20	213.75	7.86	
2025-01-07 12:51:45.41	213.77	7.87	
2025-01-07 12:51:45.61	213.79	7.89	
2025-01-07 12:51:45.82	213.82	7.90	
2025-01-07 12:51:46.02	213.84	7.91	
2025-01-07 12:51:46.23	213.86	7.93	
2025-01-07 12:51:46.44	213.89	7.94	
2025-01-07 12:51:46.64	213.91	7.96	
2025-01-07 12:51:46.85	213.94	7.97	
2025-01-07 12:51:47.05	213.96	7.98	
2025-01-07 12:51:47.26	213.98	8.00	
2025-01-07 12:51:47.46	214.01	8.01	
2025-01-07 12:51:47.67	214.03	8.03	
2025-01-07 12:51:47.87	214.05	8.04	
2025-01-07 12:51:48.08	214.08	8.05	
2025-01-07 12:51:48.29	214.10	8.07	
2025-01-07 12:51:48.49	214.12	8.08	
2025-01-07 12:51:48.70	214.15	8.10	
2025-01-07 12:51:48.92	214.17	8.11	
2025-01-07 12:51:49.12	214.20	8.13	
2025-01-07 12:51:49.33	214.22	8.14	
2025-01-07 12:51:49.53	214.24	8.15	
2025-01-07 12:51:49.74	214.27	8.17	
2025-01-07 12:51:49.94	214.29	8.18	
2025-01-07 12:51:50.15	214.32	8.20	
2025-01-07 12:51:50.36	214.34	8.21	
2025-01-07 12:51:50.56	214.36	8.23	
2025-01-07 12:51:50.77	214.39	8.24	
2025-01-07 12:51:50.97	214.41	8.25	
2025-01-07 12:51:51.18	214.44	8.27	
2025-01-07 12:51:51.38	214.46	8.28	
2025-01-07 12:51:51.59	214.48	8.30	
2025-01-07 12:51:51.79	214.51	8.31	
2025-01-07 12:51:52.00	214.53	8.32	
2025-01-07 12:51:52.20	214.56	8.34	
2025-01-07 12:51:52.41	214.58	8.35	
2025-01-07 12:51:52.62	214.61	8.37	
2025-01-07 12:51:52.82	214.63	8.38	
2025-01-07 12:51:53.03	214.65	8.40	
2025-01-07 12:51:53.23	214.68	8.41	
2025-01-07 12:51:53.44	214.70	8.42	
2025-01-07 12:51:53.64	214.73	8.44	
2025-01-07 12:51:53.85	214.75	8.45	
2025-01-07 12:51:54.05	214.77	8.47	
2025-01-07 12:51:54.26	214.80	8.48	
2025-01-07 12:51:54.46	214.82	8.49	
2025-01-07 12:51:54.67	214.85	8.51	
2025-01-07 12:51:54.88	214.87	8.52	
2025-01-07 12:51:55.08	214.90	8.54	
2025-01-07 12:51:55.29	214.92	8.55	
2025-01-07 12:51:55.49	214.95	8.57	
2025-01-07 12:51:55.70	214.97	8.58	
2025-01-07 12:51:55.90	214.99	8.59	
2025-01-07 12:51:56.11	215.02	8.61	
2025-01-07 12:51:56.31	215.04	8.62	
2025-01-07 12:51:56.52	215.07	8.64	
2025-01-07 12:51:56.72	215.09	8.65	
2025-01-07 12:51:56.92	215.12	8.67	
2025-01-07 12:51:57.13	215.14	8.68	
2025-01-07 12:51:57.33	215.17	8.69	
2025-01-07 12:51:57.54	215.19	8.71	
2025-01-07 12:51:57.74	215.22	8.72	
2025-01-07 12:51:57.95	215.24	8.74	
2025-01-07 12:51:58.15	215.27	8.75	
2025-01-07 12:51:58.36	215.29	8.77	
2025-01-07 12:51:58.58	215.32	8.78	
2025-01-07 12:51:58.78	215.34	8.79	
2025-01-07 12:51:58.99	215.37	8.81	
2025-01-07 12:51:59.20	215.39	8.82	
2025-01-07 12:51:59.40	215.42	8.84	
2025-01-07 12:51:59.61	215.44	8.85	
2025-01-07 12:51:59.81	215.47	8.87	
2025-01-07 12:52:00.02	215.49	8.88	
2025-01-07 12:52:00.22	215.52	8.90	
2025-01-07 12:52:00.43	215.54	8.91	
2025-01-07 12:52:00.63	215.57	8.92	
2025-01-07 12:52:00.84	215.59	8.94	
2025-01-07 12:52:01.04	215.62	8.95	
2025-01-07 12:52:01.25	215.64	8.97	
2025-01-07 12:52:01.45	215.67	8.98	
2025-01-07 12:52:01.66	215.69	9.00	
2025-01-07 12:52:01.86	215.72	9.01	
2025-01-07 12:52:02.07	215.74	9.02	
2025-01-07 12:52:02.27	215.77	9.04	
2025-01-07 12:52:02.48	215.79	9.05	
2025-01-07 12:52:02.69	215.82	9.07	
2025-01-07 12:52:02.89	215.85	9.08	
2025-01-07 12:52:03.10	215.87	9.10	
2025-01-07 12:52:03.30	215.90	9.11	
2025-01-07 12:52:03.51	215.92	9.13	
2025-01-07 12:52:03.72	215.95	9.14	
2025-01-07 12:52:03.93	215.97	9.16	
2025-01-07 12:52:04.14	216.00	9.17	
2025-01-07 12:52:04.35	216.03	9.19	
2025-01-07 12:52:04.55	216.05	9.20	
2025-01-07 12:52:04.76	216.08	9.21	
2025-01-07 12:52:04.96	216.10	9.23	
2025-01-07 12:52:05.17	216.13	9.24	
2025-01-07 12:52:05.37	216.15	9.26	
2025-01-07 12:52:05.58	216.18	9.27	
2025-01-07 12:52:05.79	216.21	9.29	
2025-01-07 12:52:05.99	216.23	9.30	
2025-01-07 12:52:06.19	216.26	9.31	
2025-01-07 12:52:06.40	216.28	9.33	
2025-01-07 12:52:06.60	216.31	9.34	
2025-01-07 12:52:06.81	216.34	9.36	
2025-01-07 12:52:07.01	216.36	9.37	
2025-01-07 12:52:07.22	216.39	9.39	
2025-01-07 12:52:07.42	216.41	9.40	
2025-01-07 12:52:07.63	216.44	9.42	
2025-01-07 12:52:07.84	216.47	9.43	
2025-01-07 12:52:08.04	216.49	9.45	
2025-01-07 12:52:08.24	216.52	9.46	
2025-01-07 12:52:08.45	216.54	9.47	
2025-01-07 12:52:08.66	216.57	9.49	
2025-01-07 12:52:08.86	216.60	9.50	
2025-01-07 12:52:09.07	216.62	9.52	
2025-01-07 12:52:09.27	216.65	9.53	
2025-01-07 12:52:09.47	216.67	9.55	
2025-01-07 12:52:09.68	216.70	9.56	
2025-01-07 12:52:09.89	216.73	9.58	
2025-01-07 12:52:10.09	216.75	9.59	
2025-01-07 12:52:10.30	216.78	9.61	
2025-01-07 12:52:10.50	216.81	9.62	
2025-01-07 12:52:10.71	216.83	9.63	
2025-01-07 12:52:10.91	216.86	9.65	
2025-01-07 12:52:11.12	216.89	9.66	
2025-01-07 12:52:11.32	216.91	9.68	
2025-01-07 12:52:11.53	216.94	9.69	
2025-01-07 12:52:11.74	216.97	9.71	
2025-01-07 12:52:11.94	216.99	9.72	
2025-01-07 12:52:12.15	217.02	9.74	
2025-01-07 12:52:12.35	217.05	9.75	
2025-01-07 12:52:12.57	217.07	9.77	
2025-01-07 12:52:12.77	217.10	9.78	
2025-01-07 12:52:12.98	217.13	9.80	
2025-01-07 12:52:13.18	217.15	9.81	
2025-01-07 12:52:13.39	217.18	9.83	
2025-01-07 12:52:13.61	217.21	9.84	
2025-01-07 12:52:13.81	217.24	9.86	
2025-01-07 12:52:14.02	217.26	9.87	
2025-01-07 12:52:14.22	217.29	9.89	
2025-01-07 12:52:14.43	217.32	9.90	
2025-01-07 12:52:14.63	217.34	9.91	
2025-01-07 12:52:14.84	217.37	9.93	
2025-01-07 12:52:15.04	217.40	9.94	
2025-01-07 12:52:15.25	217.43	9.96	
2025-01-07 12:52:15.46	217.45	9.97	
2025-01-07 12:52:15.66	217.48	9.99	
2025-01-07 12:52:15.86	217.51	10.00	
2025-01-07 12:52:16.07	217.53	10.02	
2025-01-07 12:52:16.28	217.56	10.03	
2025-01-07 12:52:16.48	217.59	10.05	
2025-01-07 12:52:16.68	217.61	10.06	
2025-01-07 12:52:16.89	217.64	10.08	
2025-01-07 12:52:17.10	217.67	10.09	
2025-01-07 12:52:17.30	217.70	10.11	
2025-01-07 12:52:17.51	217.73	10.12	
2025-01-07 12:52:17.71	217.75	10.14	
2025-01-07 12:52:17.92	217.78	10.15	
2025-01-07 12:52:18.12	217.81	10.16	
2025-01-07 12:52:18.33	217.84	10.18	
2025-01-07 12:52:18.53	217.86	10.19	
2025-01-07 12:52:18.74	217.89	10.21	
2025-01-07 12:52:18.94	217.92	10.22	
2025-01-07 12:52:19.15	217.95	10.24	
2025-01-07 12:52:19.35	217.97	10.25	
2025-01-07 12:52:19.56	218.00	10.27	
2025-01-07 12:52:19.76	218.03	10.28	
2025-01-07 12:52:19.97	218.06	10.30	
2025-01-07 12:52:20.17	218.08	10.31	
2025-01-07 12:52:20.37	218.11	10.33	
2025-01-07 12:52:20.58	218.14	10.34	
2025-01-07 12:52:20.79	218.17	10.36	
2025-01-07 12:52:20.99	218.19	10.37	
2025-01-07 12:52:21.19	218.22	10.39	
2025-01-07 12:52:21.40	218.25	10.40	
2025-01-07 12:52:21.61	218.28	10.42	
2025-01-07 12:52:21.81	218.31	10.43	
2025-01-07 12:52:22.02	218.33	10.45	
2025-01-07 12:52:22.22	218.36	10.46	
2025-01-07 12:52:22.43	218.39	10.48	
2025-01-07 12:52:22.63	218.42	10.49	
2025-01-07 12:52:22.84	218.45	10.50	
2025-01-07 12:52:23.04	218.47	10.52	
2025-01-07 12:52:23.25	218.50	10.53	
2025-01-07 12:52:23.45	218.53	10.55	
2025-01-07 12:52:23.66	218.56	10.56	
2025-01-07 12:52:23.86	218.59	10.58	
2025-01-07 12:52:24.07	218.62	10.59	
2025-01-07 12:52:24.28	218.64	10.61	
2025-01-07 12:52:24.48	218.67	10.62	
2025-01-07 12:52:24.69	218.70	10.64	
2025-01-07 12:52:24.89	218.73	10.65	
2025-01-07 12:52:25.10	218.76	10.67	
2025-01-07 12:52:25.30	218.79	10.68	
2025-01-07 12:52:25.51	218.82	10.70	
2025-01-07 12:52:25.71	218.84	10.71	
2025-01-07 12:52:25.92	218.87	10.73	
2025-01-07 12:52:26.12	218.90	10.74	
2025-01-07 12:52:26.34	218.93	10.76	
2025-01-07 12:52:26.55	218.96	10.77	
2025-01-07 12:52:26.75	218.99	10.79	
2025-01-07 12:52:26.96	219.02	10.80	
2025-01-07 12:52:27.16	219.05	10.82	
2025-01-07 12:52:27.37	219.08	10.83	
2025-01-07 12:52:27.57	219.10	10.85	
2025-01-07 12:52:27.78	219.13	10.86	
2025-01-07 12:52:27.98	219.16	10.88	
2025-01-07 12:52:28.19	219.19	10.89	
2025-01-07 12:52:28.39	219.22	10.91	
2025-01-07 12:52:28.60	219.25	10.92	
2025-01-07 12:52:28.80	219.28	10.94	
2025-01-07 12:52:29.01	219.31	10.95	
2025-01-07 12:52:29.21	219.33	10.97	
2025-01-07 12:52:29.42	219.36	10.98	
2025-01-07 12:52:29.62	219.39	11.00	
2025-01-07 12:52:29.83	219.42	11.01	
2025-01-07 12:52:30.03	219.45	11.03	
2025-01-07 12:52:30.24	219.48	11.04	
2025-01-07 12:52:30.44	219.51	11.06	
2025-01-07 12:52:30.65	219.54	11.07	
2025-01-07 12:52:30.86	219.57	11.09	
2025-01-07 12:52:31.06	219.60	11.10	
2025-01-07 12:52:31.26	219.63	11.12	
2025-01-07 12:52:31.47	219.66	11.13	
2025-01-07 12:52:31.67	219.69	11.15	
2025-01-07 12:52:31.88	219.72	11.16	
2025-01-07 12:52:32.08	219.74	11.18	
2025-01-07 12:52:32.29	219.77	11.19	
2025-01-07 12:52:32.50	219.80	11.21	
2025-01-07 12:52:32.70	219.83	11.22	
2025-01-07 12:52:32.91	219.86	11.24	
2025-01-07 12:52:33.11	219.89	11.25	
2025-01-07 12:52:33.32	219.92	11.27	
2025-01-07 12:52:33.52	219.95	11.28	
2025-01-07 12:52:33.73	219.98	11.30	
2025-01-07 12:52:33.93	220.01	11.31	
2025-01-07 12:52:34.14	220.04	11.33	
2025-01-07 12:52:34.34	220.07	11.34	
2025-01-07 12:52:34.55	220.10	11.36	
2025-01-07 12:52:34.75	220.13	11.37	
2025-01-07 12:52:34.96	220.16	11.39	
2025-01-07 12:52:35.16	220.19	11.40	
2025-01-07 12:52:35.37	220.22	11.42	
2025-01-07 12:52:35.57	220.25	11.43	
2025-01-07 12:52:35.78	220.28	11.45	
2025-01-07 12:52:35.98	220.31	11.46	
2025-01-07 12:52:36.19	220.34	11.48	
2025-01-07 12:52:36.40	220.37	11.49	
2025-01-07 12:52:36.60	220.40	11.51	
2025-01-07 12:52:36.81	220.43	11.52	
2025-01-07 12:52:37.01	220.46	11.54	
2025-01-07 12:52:37.22	220.49	11.55	
2025-01-07 12:52:37.42	220.52	11.57	
2025-01-07 12:52:37.63	220.55	11.58	
2025-01-07 12:52:37.84	220.59	11.60	
2025-01-07 12:52:38.04	220.62	11.62	
2025-01-07 12:52:38.25	220.65	11.63	
2025-01-07 12:52:38.46	220.68	11.65	
2025-01-07 12:52:38.66	220.71	11.66	
2025-01-07 12:52:38.87	220.74	11.68	
2025-01-07 12:52:39.07	220.77	11.69	
2025-01-07 12:52:39.28	220.80	11.71	
2025-01-07 12:52:39.48	220.83	11.72	
2025-01-07 12:52:39.69	220.86	11.74	
2025-01-07 12:52:39.89	220.89	11.75	
2025-01-07 12:52:40.10	220.92	11.77	
2025-01-07 12:52:40.31	220.95	11.78	
2025-01-07 12:52:40.51	220.98	11.80	
2025-01-07 12:52:40.72	221.02	11.81	
2025-01-07 12:52:40.92	221.05	11.83	
2025-01-07 12:52:41.13	221.08	11.84	
2025-01-07 12:52:41.33	221.11	11.86	
2025-01-07 12:52:41.54	221.14	11.87	
2025-01-07 12:52:41.74	221.17	11.89	
2025-01-07 12:52:41.95	221.20	11.90	
2025-01-07 12:52:42.16	221.23	11.92	
2025-01-07 12:52:42.36	221.26	11.93	
2025-01-07 12:52:42.57	221.30	11.95	
2025-01-07 12:52:42.77	221.33	11.96	
2025-01-07 12:52:42.98	221.36	11.98	
2025-01-07 12:52:43.18	221.39	12.00	
2025-01-07 12:52:43.38	221.42	12.01	
2025-01-07 12:52:43.59	221.45	12.03	
2025-01-07 12:52:43.80	221.48	12.04	
2025-01-07 12:52:44.00	221.51	12.06	
2025-01-07 12:52:44.21	221.55	12.07	
2025-01-07 12:52:44.41	221.58	12.09	
2025-01-07 12:52:44.61	221.61	12.10	
2025-01-07 12:52:44.82	221.64	12.12	
2025-01-07 12:52:45.03	221.67	12.13	
2025-01-07 12:52:45.23	221.70	12.15	
2025-01-07 12:52:45.44	221.74	12.16	
2025-01-07 12:52:45.64	221.77	12.18	
2025-01-07 12:52:45.84	221.80	12.19	
2025-01-07 12:52:46.05	221.83	12.21	
2025-01-07 12:52:46.26	221.86	12.22	
2025-01-07 12:52:46.46	221.89	12.24	
2025-01-07 12:52:46.67	221.93	12.25	
2025-01-07 12:52:46.87	221.96	12.27	
2025-01-07 12:52:47.07	221.99	12.28	
2025-01-07 12:52:47.27	222.02	12.30	
2025-01-07 12:52:47.48	222.05	12.31	
2025-01-07 12:52:47.68	222.08	12.33	
2025-01-07 12:52:47.89	222.12	12.35	
2025-01-07 12:52:48.09	222.15	12.36	
2025-01-07 12:52:48.30	222.18	12.38	
2025-01-07 12:52:48.51	222.21	12.39	
2025-01-07 12:52:48.71	222.24	12.41	
2025-01-07 12:52:48.91	222.28	12.42	
2025-01-07 12:52:49.12	222.31	12.44	
2025-01-07 12:52:49.32	222.34	12.45	
2025-01-07 12:52:49.53	222.37	12.47	
2025-01-07 12:52:49.73	222.40	12.48	
2025-01-07 12:52:49.94	222.44	12.50	
2025-01-07 12:52:50.15	222.47	12.51	
2025-01-07 12:52:50.35	222.50	12.53	
2025-01-07 12:52:50.56	222.54	12.54	
2025-01-07 12:52:50.78	222.57	12.56	
2025-01-07 12:52:50.98	222.60	12.58	
2025-01-07 12:52:51.19	222.64	12.59	
2025-01-07 12:52:51.39	222.67	12.61	
2025-01-07 12:52:51.60	222.70	12.62	
2025-01-07 12:52:51.80	222.73	12.64	
2025-01-07 12:52:52.01	222.77	12.65	
2025-01-07 12:52:52.21	222.80	12.67	
2025-01-07 12:52:52.42	222.83	12.68	
2025-01-07 12:52:52.62	222.86	12.70	
2025-01-07 12:52:52.83	222.90	12.71	
2025-01-07 12:52:53.04	222.93	12.73	
2025-01-07 12:52:53.24	222.96	12.74	
2025-01-07 12:52:53.45	223.00	12.76	
2025-01-07 12:52:53.65	223.03	12.78	
2025-01-07 12:52:53.86	223.06	12.79	
2025-01-07 12:52:54.06	223.10	12.81	
2025-01-07 12:52:54.27	223.13	12.82	
2025-01-07 12:52:54.47	223.16	12.84	
2025-01-07 12:52:54.68	223.20	12.85	
2025-01-07 12:52:54.88	223.23	12.87	
2025-01-07 12:52:55.10	223.26	12.88	
2025-01-07 12:52:55.31	223.30	12.90	
2025-01-07 12:52:55.51	223.33	12.91	
2025-01-07 12:52:55.72	223.36	12.93	
2025-01-07 12:52:55.92	223.40	12.95	
2025-01-07 12:52:56.13	223.43	12.96	
2025-01-07 12:52:56.33	223.46	12.98	
2025-01-07 12:52:56.54	223.50	12.99	
2025-01-07 12:52:56.75	223.53	13.01	
2025-01-07 12:52:56.95	223.57	13.02	
2025-01-07 12:52:57.16	223.60	13.04	
2025-01-07 12:52:57.36	223.63	13.05	
2025-01-07 12:52:57.57	223.67	13.07	
2025-01-07 12:52:57.77	223.70	13.08	
2025-01-07 12:52:57.98	223.73	13.10	
2025-01-07 12:52:58.18	223.77	13.12	
2025-01-07 12:52:58.39	223.80	13.13	
2025-01-07 12:52:58.59	223.84	13.15	
2025-01-07 12:52:58.80	223.87	13.16	
2025-01-07 12:52:59.00	223.90	13.18	
2025-01-07 12:52:59.21	223.94	13.19	
2025-01-07 12:52:59.41	223.97	13.21	
2025-01-07 12:52:59.62	224.01	13.22	
2025-01-07 12:52:59.82	224.04	13.24	
2025-01-07 12:53:00.03	224.07	13.25	
2025-01-07 12:53:00.23	224.11	13.27	
2025-01-07 12:53:00.44	224.14	13.28	
2025-01-07 12:53:00.64	224.18	13.30	
2025-01-07 12:53:00.85	224.21	13.32	
2025-01-07 12:53:01.05	224.25	13.33	
2025-01-07 12:53:01.26	224.28	13.35	
2025-01-07 12:53:01.46	224.31	13.36	
2025-01-07 12:53:01.66	224.35	13.38	
2025-01-07 12:53:01.87	224.38	13.39	
2025-01-07 12:53:02.08	224.42	13.41	
2025-01-07 12:53:02.28	224.45	13.42	
2025-01-07 12:53:02.49	224.49	13.44	
2025-01-07 12:53:02.69	224.52	13.45	
2025-01-07 12:53:02.90	224.56	13.47	
2025-01-07 12:53:03.10	224.59	13.49	
2025-01-07 12:53:03.31	224.63	13.50	
2025-01-07 12:53:03.51	224.66	13.52	
2025-01-07 12:53:03.72	224.70	13.53	
2025-01-07 12:53:03.92	224.73	13.55	
2025-01-07 12:53:04.13	224.77	13.56	
2025-01-07 12:53:04.33	224.80	13.58	
2025-01-07 12:53:04.54	224.84	13.59	
2025-01-07 12:53:04.74	224.87	13.61	
2025-01-07 12:53:04.95	224.91	13.62	
2025-01-07 12:53:05.16	224.94	13.64	
2025-01-07 12:53:05.36	224.98	13.66	
2025-01-07 12:53:05.56	225.01	13.67	
2025-01-07 12:53:05.77	225.05	13.69	
2025-01-07 12:53:05.97	225.08	13.70	
2025-01-07 12:53:06.18	225.12	13.72	
2025-01-07 12:53:06.39	225.15	13.73	
2025-01-07 12:53:06.59	225.19	13.75	
2025-01-07 12:53:06.80	225.22	13.76	
2025-01-07 12:53:07.00	225.26	13.78	
2025-01-07 12:53:07.21	225.29	13.80	
2025-01-07 12:53:07.42	225.33	13.81	
2025-01-07 12:53:07.62	225.36	13.83	
2025-01-07 12:53:07.83	225.40	13.84	
2025-01-07 12:53:08.03	225.44	13.86	
2025-01-07 12:53:08.24	225.47	13.87	
2025-01-07 12:53:08.44	225.51	13.89	
2025-01-07 12:53:08.65	225.54	13.90	
2025-01-07 12:53:08.85	225.58	13.92	
2025-01-07 12:53:09.06	225.62	13.93	
2025-01-07 12:53:09.26	225.65	13.95	
2025-01-07 12:53:09.46	225.69	13.96	
2025-01-07 12:53:09.67	225.72	13.98	
2025-01-07 12:53:09.88	225.76	14.00	
2025-01-07 12:53:10.08	225.79	14.01	
2025-01-07 12:53:10.28	225.83	14.03	
2025-01-07 12:53:10.49	225.87	14.04	
2025-01-07 12:53:10.69	225.90	14.06	
2025-01-07 12:53:10.90	225.94	14.07	
2025-01-07 12:53:11.10	225.97	14.09	
2025-01-07 12:53:11.31	226.01	14.10	
2025-01-07 12:53:11.51	226.05	14.12	
2025-01-07 12:53:11.72	226.08	14.14	
2025-01-07 12:53:11.92	226.12	14.15	
2025-01-07 12:53:12.13	226.16	14.17	
2025-01-07 12:53:12.33	226.19	14.18	
2025-01-07 12:53:12.54	226.23	14.20	
2025-01-07 12:53:12.75	226.27	14.21	
2025-01-07 12:53:12.95	226.30	14.23	
2025-01-07 12:53:13.16	226.34	14.24	
2025-01-07 12:53:13.36	226.38	14.26	
2025-01-07 12:53:13.56	226.41	14.27	
2025-01-07 12:53:13.77	226.45	14.29	
2025-01-07 12:53:13.97	226.48	14.31	
2025-01-07 12:53:14.17	226.52	14.32	
2025-01-07 12:53:14.39	226.56	14.34	
2025-01-07 12:53:14.60	226.60	14.35	
2025-01-07 12:53:14.80	226.63	14.37	
2025-01-07 12:53:15.01	226.67	14.38	
2025-01-07 12:53:15.22	226.71	14.40	
2025-01-07 12:53:15.42	226.75	14.42	
2025-01-07 12:53:15.63	226.78	14.43	
2025-01-07 12:53:15.83	226.82	14.45	
2025-01-07 12:53:16.04	226.86	14.46	
2025-01-07 12:53:16.24	226.89	14.48	
2025-01-07 12:53:16.45	226.93	14.49	
2025-01-07 12:53:16.65	226.97	14.51	
2025-01-07 12:53:16.86	227.01	14.52	
2025-01-07 12:53:17.07	227.05	14.54	
2025-01-07 12:53:17.27	227.08	14.56	
2025-01-07 12:53:17.48	227.12	14.57	
2025-01-07 12:53:17.68	227.16	14.59	
2025-01-07 12:53:17.89	227.20	14.60	
2025-01-07 12:53:18.09	227.23	14.62	
2025-01-07 12:53:18.30	227.27	14.63	
2025-01-07 12:53:18.50	227.31	14.65	
2025-01-07 12:53:18.71	227.35	14.66	
2025-01-07 12:53:18.91	227.38	14.68	
2025-01-07 12:53:19.12	227.42	14.70	
2025-01-07 12:53:19.32	227.46	14.71	
2025-01-07 12:53:19.53	227.50	14.73	
2025-01-07 12:53:19.73	227.53	14.74	
2025-01-07 12:53:19.94	227.57	14.76	
2025-01-07 12:53:20.14	227.61	14.77	
2025-01-07 12:53:20.35	227.65	14.79	
2025-01-07 12:53:20.55	227.69	14.80	
2025-01-07 12:53:20.75	227.72	14.82	
2025-01-07 12:53:20.96	227.76	14.83	
2025-01-07 12:53:21.17	227.80	14.85	
2025-01-07 12:53:21.37	227.84	14.87	
2025-01-07 12:53:21.58	227.88	14.88	
2025-01-07 12:53:21.78	227.91	14.90	
2025-01-07 12:53:21.99	227.95	14.91	
2025-01-07 12:53:22.19	227.99	14.93	
2025-01-07 12:53:22.40	228.03	14.94	
2025-01-07 12:53:22.60	228.07	14.96	
2025-01-07 12:53:22.81	228.11	14.97	
2025-01-07 12:53:23.01	228.15	14.99	
2025-01-07 12:53:23.22	228.18	15.01	
2025-01-07 12:53:23.42	228.22	15.02	
2025-01-07 12:53:23.63	228.26	15.04	
2025-01-07 12:53:23.83	228.30	15.05	
2025-01-07 12:53:24.04	228.34	15.07	
2025-01-07 12:53:24.24	228.38	15.08	
2025-01-07 12:53:24.45	228.42	15.10	
2025-01-07 12:53:24.65	228.46	15.11	
2025-01-07 12:53:24.86	228.50	15.13	
2025-01-07 12:53:25.06	228.53	15.14	
2025-01-07 12:53:25.27	228.57	15.16	
2025-01-07 12:53:25.48	228.61	15.18	
2025-01-07 12:53:25.68	228.65	15.19	
2025-01-07 12:53:25.89	228.69	15.21	
2025-01-07 12:53:26.09	228.73	15.22	
2025-01-07 12:53:26.29	228.77	15.24	
2025-01-07 12:53:26.50	228.81	15.25	
2025-01-07 12:53:26.71	228.85	15.27	
2025-01-07 12:53:26.91	228.89	15.28	
2025-01-07 12:53:27.12	228.93	15.30	
2025-01-07 12:53:27.32	228.97	15.32	
2025-01-07 12:53:27.53	229.01	15.33	
2025-01-07 12:53:27.73	229.04	15.35	
2025-01-07 12:53:27.94	229.08	15.36	
2025-01-07 12:53:28.14	229.12	15.38	
2025-01-07 12:53:28.35	229.16	15.39	
2025-01-07 12:53:28.55	229.20	15.41	
2025-01-07 12:53:28.76	229.24	15.42	
2025-01-07 12:53:28.96	229.28	15.44	
2025-01-07 12:53:29.17	229.32	15.45	
2025-01-07 12:53:29.39	229.37	15.47	
2025-01-07 12:53:29.59	229.40	15.49	
2025-01-07 12:53:29.80	229.45	15.50	
2025-01-07 12:53:30.01	229.49	15.52	
2025-01-07 12:53:30.21	229.53	15.53	
2025-01-07 12:53:30.42	229.57	15.55	
2025-01-07 12:53:30.62	229.61	15.56	
2025-01-07 12:53:30.83	229.65	15.58	
2025-01-07 12:53:31.04	229.69	15.60	
2025-01-07 12:53:31.24	229.73	15.61	
2025-01-07 12:53:31.45	229.77	15.63	
2025-01-07 12:53:31.65	229.81	15.64	
2025-01-07 12:53:31.86	229.85	15.66	
2025-01-07 12:53:32.06	229.89	15.67	
2025-01-07 12:53:32.27	229.93	15.69	
2025-01-07 12:53:32.48	229.97	15.70	
2025-01-07 12:53:32.68	230.01	15.72	
2025-01-07 12:53:32.88	230.05	15.73	
2025-01-07 12:53:33.09	230.09	15.75	
2025-01-07 12:53:33.29	230.13	15.77	
2025-01-07 12:53:33.50	230.17	15.78	
2025-01-07 12:53:33.70	230.21	15.80	
2025-01-07 12:53:33.91	230.26	15.81	
2025-01-07 12:53:34.12	230.30	15.83	
2025-01-07 12:53:34.32	230.34	15.84	
2025-01-07 12:53:34.53	230.38	15.86	
2025-01-07 12:53:34.73	230.42	15.87	
2025-01-07 12:53:34.94	230.46	15.89	
2025-01-07 12:53:35.14	230.50	15.90	
2025-01-07 12:53:35.35	230.54	15.92	
2025-01-07 12:53:35.55	230.58	15.94	
2025-01-07 12:53:35.76	230.63	15.95	
2025-01-07 12:53:35.96	230.67	15.97	
2025-01-07 12:53:36.17	230.71	15.98	
2025-01-07 12:53:36.38	230.75	16.00	
2025-01-07 12:53:36.58	230.79	16.01	
2025-01-07 12:53:36.79	230.83	16.03	
2025-01-07 12:53:36.99	230.87	16.04	
2025-01-07 12:53:37.20	230.92	16.06	
2025-01-07 12:53:37.40	230.96	16.07	
2025-01-07 12:53:37.61	231.00	16.09	
2025-01-07 12:53:37.81	231.04	16.10	
2025-01-07 12:53:38.03	231.08	16.12	
2025-01-07 12:53:38.24	231.13	16.14	
2025-01-07 12:53:38.45	231.17	16.15	
2025-01-07 12:53:38.65	231.21	16.17	
2025-01-07 12:53:38.86	231.25	16.18	
2025-01-07 12:53:39.06	231.29	16.20	
2025-01-07 12:53:39.27	231.34	16.21	
2025-01-07 12:53:39.47	231.38	16.23	
2025-01-07 12:53:39.68	231.42	16.25	
2025-01-07 12:53:39.88	231.46	16.26	
2025-01-07 12:53:40.08	231.50	16.27	
2025-01-07 12:53:40.29	231.55	16.29	
2025-01-07 12:53:40.50	231.59	16.31	
2025-01-07 12:53:40.70	231.63	16.32	
2025-01-07 12:53:40.91	231.67	16.34	
2025-01-07 12:53:41.11	231.72	16.35	
2025-01-07 12:53:41.31	231.76	16.37	
2025-01-07 12:53:41.52	231.80	16.38	
2025-01-07 12:53:41.72	231.84	16.40	
2025-01-07 12:53:41.93	231.89	16.41	
2025-01-07 12:53:42.13	231.93	16.43	
2025-01-07 12:53:42.33	231.97	16.44	
2025-01-07 12:53:42.54	232.01	16.46	
2025-01-07 12:53:42.74	232.05	16.47	
2025-01-07 12:53:42.95	232.10	16.49	
2025-01-07 12:53:43.16	232.14	16.50	
2025-01-07 12:53:43.36	232.18	16.52	
2025-01-07 12:53:43.57	232.23	16.54	
2025-01-07 12:53:43.77	232.27	16.55	
2025-01-07 12:53:43.98	232.31	16.57	
2025-01-07 12:53:44.18	232.36	16.58	
2025-01-07 12:53:44.39	232.40	16.60	
2025-01-07 12:53:44.59	232.44	16.61	
2025-01-07 12:53:44.80	232.49	16.63	
2025-01-07 12:53:45.00	232.53	16.64	
2025-01-07 12:53:45.21	232.57	16.66	
2025-01-07 12:53:45.41	232.61	16.67	
2025-01-07 12:53:45.62	232.66	16.69	
2025-01-07 12:53:45.82	232.70	16.70	
2025-01-07 12:53:46.03	232.75	16.72	
2025-01-07 12:53:46.23	232.79	16.73	
2025-01-07 12:53:46.44	232.83	16.75	
2025-01-07 12:53:46.64	232.88	16.76	
2025-01-07 12:53:46.84	232.92	16.78	
2025-01-07 12:53:47.05	232.96	16.79	
2025-01-07 12:53:47.25	233.01	16.81	
2025-01-07 12:53:47.45	233.05	16.82	
2025-01-07 12:53:47.66	233.09	16.84	
2025-01-07 12:53:47.86	233.14	16.85	
2025-01-07 12:53:48.07	233.18	16.87	
2025-01-07 12:53:48.28	233.23	16.89	
2025-01-07 12:53:48.48	233.27	16.90	
2025-01-07 12:53:48.69	233.31	16.92	
2025-01-07 12:53:48.89	233.36	16.93	
2025-01-07 12:53:49.10	233.40	16.95	
2025-01-07 12:53:49.30	233.44	16.96	
2025-01-07 12:53:49.51	233.49	16.98	
2025-01-07 12:53:49.71	233.53	16.99	
2025-01-07 12:53:49.92	233.58	17.01	
2025-01-07 12:53:50.12	233.62	17.02	
2025-01-07 12:53:50.33	233.67	17.04	
2025-01-07 12:53:50.53	233.71	17.05	
2025-01-07 12:53:50.74	233.76	17.07	
2025-01-07 12:53:50.94	233.80	17.08	
2025-01-07 12:53:51.15	233.85	17.10	
2025-01-07 12:53:51.35	233.89	17.11	
2025-01-07 12:53:51.56	233.93	17.13	
2025-01-07 12:53:51.76	233.98	17.14	
2025-01-07 12:53:51.96	234.02	17.16	
2025-01-07 12:53:52.17	234.07	17.17	
2025-01-07 12:53:52.38	234.11	17.19	
2025-01-07 12:53:52.58	234.16	17.20	
2025-01-07 12:53:52.79	234.20	17.22	
2025-01-07 12:53:52.99	234.25	17.23	
2025-01-07 12:53:53.20	234.29	17.25	
2025-01-07 12:53:53.40	234.34	17.26	
2025-01-07 12:53:53.61	234.38	17.28	
2025-01-07 12:53:53.82	234.43	17.29	
2025-01-07 12:53:54.02	234.47	17.31	
2025-01-07 12:53:54.23	234.52	17.32	
2025-01-07 12:53:54.43	234.56	17.34	
2025-01-07 12:53:54.64	234.61	17.35	
2025-01-07 12:53:54.84	234.66	17.37	
2025-01-07 12:53:55.06	234.70	17.38	
2025-01-07 12:53:55.27	234.75	17.40	
2025-01-07 12:53:55.47	234.80	17.41	
2025-01-07 12:53:55.68	234.84	17.43	
2025-01-07 12:53:55.88	234.89	17.44	
2025-01-07 12:53:56.09	234.93	17.46	
2025-01-07 12:53:56.29	234.98	17.47	
2025-01-07 12:53:56.50	235.02	17.49	
2025-01-07 12:53:56.70	235.07	17.50	
2025-01-07 12:53:56.91	235.12	17.52	
2025-01-07 12:53:57.11	235.16	17.53	
2025-01-07 12:53:57.31	235.21	17.55	
2025-01-07 12:53:57.52	235.25	17.56	
2025-01-07 12:53:57.73	235.30	17.58	
2025-01-07 12:53:57.93	235.35	17.59	
2025-01-07 12:53:58.14	235.39	17.61	
2025-01-07 12:53:58.34	235.44	17.62	
2025-01-07 12:53:58.55	235.49	17.64	
2025-01-07 12:53:58.75	235.53	17.65	
2025-01-07 12:53:58.96	235.58	17.67	
2025-01-07 12:53:59.16	235.62	17.68	
2025-01-07 12:53:59.37	235.67	17.70	
2025-01-07 12:53:59.57	235.72	17.71	
2025-01-07 12:53:59.78	235.76	17.73	
2025-01-07 12:53:59.98	235.81	17.74	
2025-01-07 12:54:00.19	235.86	17.76	
2025-01-07 12:54:00.39	235.90	17.77	
2025-01-07 12:54:00.60	235.95	17.79	
2025-01-07 12:54:00.80	236.00	17.80	
2025-01-07 12:54:01.01	236.04	17.82	
2025-01-07 12:54:01.21	236.09	17.83	
2025-01-07 12:54:01.42	236.14	17.84	
2025-01-07 12:54:01.62	236.18	17.86	
2025-01-07 12:54:01.83	236.23	17.87	
2025-01-07 12:54:02.04	236.28	17.89	
2025-01-07 12:54:02.24	236.33	17.90	
2025-01-07 12:54:02.45	236.37	17.92	
2025-01-07 12:54:02.65	236.42	17.93	
2025-01-07 12:54:02.86	236.47	17.95	
2025-01-07 12:54:03.06	236.51	17.96	
2025-01-07 12:54:03.27	236.56	17.98	
2025-01-07 12:54:03.47	236.61	17.99	
2025-01-07 12:54:03.68	236.66	18.01	
2025-01-07 12:54:03.88	236.70	18.02	
2025-01-07 12:54:04.08	236.75	18.04	
2025-01-07 12:54:04.29	236.80	18.05	
2025-01-07 12:54:04.50	236.85	18.07	
2025-01-07 12:54:04.70	236.89	18.08	
2025-01-07 12:54:04.91	236.94	18.09	
2025-01-07 12:54:05.11	236.99	18.11	
2025-01-07 12:54:05.32	237.04	18.12	
2025-01-07 12:54:05.52	237.09	18.14	
2025-01-07 12:54:05.74	237.14	18.15	
2025-01-07 12:54:05.95	237.19	18.17	
2025-01-07 12:54:06.15	237.23	18.18	
2025-01-07 12:54:06.36	237.28	18.20	
2025-01-07 12:54:06.57	237.33	18.21	
2025-01-07 12:54:06.77	237.38	18.23	
2025-01-07 12:54:06.98	237.43	18.24	
2025-01-07 12:54:07.18	237.47	18.26	
2025-01-07 12:54:07.38	237.52	18.27	
2025-01-07 12:54:07.59	237.57	18.28	
2025-01-07 12:54:07.79	237.62	18.30	
2025-01-07 12:54:08.00	237.67	18.31	
2025-01-07 12:54:08.21	237.72	18.33	
2025-01-07 12:54:08.41	237.77	18.34	
2025-01-07 12:54:08.62	237.82	18.36	
2025-01-07 12:54:08.82	237.86	18.37	
2025-01-07 12:54:09.02	237.91	18.39	
2025-01-07 12:54:09.23	237.96	18.40	
2025-01-07 12:54:09.44	238.01	18.41	
2025-01-07 12:54:09.64	238.06	18.43	
2025-01-07 12:54:09.85	238.11	18.44	
2025-01-07 12:54:10.05	238.16	18.46	
2025-01-07 12:54:10.26	238.21	18.47	
2025-01-07 12:54:10.46	238.25	18.49	
2025-01-07 12:54:10.66	238.30	18.50	
2025-01-07 12:54:10.87	238.35	18.51	
2025-01-07 12:54:11.08	238.40	18.53	
2025-01-07 12:54:11.28	238.45	18.54	
2025-01-07 12:54:11.49	238.50	18.56	
2025-01-07 12:54:11.69	238.55	18.57	
2025-01-07 12:54:11.90	238.60	18.59	
2025-01-07 12:54:12.10	238.65	18.60	
2025-01-07 12:54:12.31	238.70	18.62	
2025-01-07 12:54:12.51	238.75	18.63	
2025-01-07 12:54:12.72	238.80	18.64	
2025-01-07 12:54:12.92	238.84	18.66	
2025-01-07 12:54:13.13	238.90	18.67	
2025-01-07 12:54:13.33	238.94	18.69	
2025-01-07 12:54:13.54	238.99	18.70	
2025-01-07 12:54:13.74	239.04	18.71	
2025-01-07 12:54:13.95	239.09	18.73	
2025-01-07 12:54:14.15	239.14	18.74	
2025-01-07 12:54:14.36	239.19	18.76	
2025-01-07 12:54:14.56	239.24	18.77	
2025-01-07 12:54:14.77	239.29	18.79	
2025-01-07 12:54:14.97	239.34	18.80	
2025-01-07 12:54:15.18	239.39	18.81	
2025-01-07 12:54:15.40	239.45	18.83	
2025-01-07 12:54:15.60	239.50	18.84	
2025-01-07 12:54:15.81	239.55	18.86	
2025-01-07 12:54:16.01	239.60	18.87	
2025-01-07 12:54:16.22	239.65	18.88	
2025-01-07 12:54:16.42	239.70	18.90	
2025-01-07 12:54:16.63	239.75	18.91	
2025-01-07 12:54:16.83	239.80	18.93	
2025-01-07 12:54:17.04	239.85	18.94	
2025-01-07 12:54:17.24	239.90	18.95	
2025-01-07 12:54:17.44	239.95	18.97	
2025-01-07 12:54:17.65	240.00	18.98	
2025-01-07 12:54:17.86	240.05	19.00	
2025-01-07 12:54:18.06	240.10	19.01	
2025-01-07 12:54:18.27	240.16	19.02	
2025-01-07 12:54:18.47	240.20	19.04	
2025-01-07 12:54:18.68	240.26	19.05	
2025-01-07 12:54:18.88	240.31	19.07	
2025-01-07 12:54:19.09	240.36	19.08	
2025-01-07 12:54:19.29	240.41	19.09	
2025-01-07 12:54:19.49	240.46	19.11	
2025-01-07 12:54:19.70	240.51	19.12	
2025-01-07 12:54:19.91	240.56	19.13	
2025-01-07 12:54:20.11	240.61	19.15	
2025-01-07 12:54:20.32	240.67	19.16	
2025-01-07 12:54:20.52	240.72	19.18	
2025-01-07 12:54:20.73	240.77	19.19	
2025-01-07 12:54:20.93	240.82	19.20	
2025-01-07 12:54:21.14	240.87	19.22	
2025-01-07 12:54:21.34	240.92	19.23	
2025-01-07 12:54:21.55	240.97	19.24	
2025-01-07 12:54:21.75	241.02	19.26	
2025-01-07 12:54:21.96	241.08	19.27	
2025-01-07 12:54:22.17	241.13	19.29	
2025-01-07 12:54:22.37	241.18	19.30	
2025-01-07 12:54:22.58	241.23	19.31	
2025-01-07 12:54:22.78	241.29	19.33	
2025-01-07 12:54:22.99	241.34	19.34	
2025-01-07 12:54:23.19	241.39	19.35	
2025-01-07 12:54:23.40	241.44	19.37	
2025-01-07 12:54:23.60	241.49	19.38	
2025-01-07 12:54:23.81	241.55	19.39	
2025-01-07 12:54:24.01	241.60	19.41	
2025-01-07 12:54:24.22	241.65	19.42	
2025-01-07 12:54:24.42	241.70	19.43	
2025-01-07 12:54:24.63	241.76	19.45	
2025-01-07 12:54:24.84	241.81	19.46	
2025-01-07 12:54:25.04	241.86	19.48	
2025-01-07 12:54:25.25	241.91	19.49	
2025-01-07 12:54:25.45	241.96	19.50	
2025-01-07 12:54:25.66	242.02	19.52	
2025-01-07 12:54:25.86	242.07	19.53	
2025-01-07 12:54:26.07	242.12	19.54	
2025-01-07 12:54:26.27	242.18	19.56	
2025-01-07 12:54:26.48	242.23	19.57	
2025-01-07 12:54:26.68	242.28	19.58	
2025-01-07 12:54:26.89	242.33	19.60	
2025-01-07 12:54:27.09	242.39	19.61	
2025-01-07 12:54:27.30	242.44	19.62	
2025-01-07 12:54:27.51	242.49	19.64	
2025-01-07 12:54:27.71	242.55	19.65	
2025-01-07 12:54:27.92	242.60	19.66	
2025-01-07 12:54:28.12	242.65	19.68	
2025-01-07 12:54:28.33	242.71	19.69	
2025-01-07 12:54:28.53	242.76	19.70	
2025-01-07 12:54:28.74	242.81	19.72	
2025-01-07 12:54:28.94	242.87	19.73	
2025-01-07 12:54:29.15	242.92	19.74	
2025-01-07 12:54:29.35	242.97	19.75	
2025-01-07 12:54:29.56	243.03	19.77	
2025-01-07 12:54:29.77	243.08	19.78	
2025-01-07 12:54:29.97	243.13	19.79	
2025-01-07 12:54:30.18	243.19	19.81	
2025-01-07 12:54:30.38	243.24	19.82	
2025-01-07 12:54:30.58	243.29	19.83	
2025-01-07 12:54:30.79	243.35	19.85	
2025-01-07 12:54:30.99	243.40	19.86	
2025-01-07 12:54:31.20	243.46	19.87	
2025-01-07 12:54:31.41	243.51	19.89	
2025-01-07 12:54:31.61	243.56	19.90	
2025-01-07 12:54:31.82	243.62	19.91	
2025-01-07 12:54:32.02	243.67	19.92	
2025-01-07 12:54:32.23	243.73	19.94	
2025-01-07 12:54:32.44	243.78	19.95	
2025-01-07 12:54:32.65	243.84	19.96	
2025-01-07 12:54:32.86	243.89	19.98	
2025-01-07 12:54:33.06	243.95	19.99	
2025-01-07 12:54:33.27	244.00	20.00	
2025-01-07 12:54:33.47	244.05	20.02	
2025-01-07 12:54:33.68	244.11	20.03	
2025-01-07 12:54:33.88	244.16	20.04	
2025-01-07 12:54:34.09	244.22	20.05	
2025-01-07 12:54:34.30	244.28	20.07	
2025-01-07 12:54:34.50	244.33	20.08	
2025-01-07 12:54:34.71	244.38	20.09	
2025-01-07 12:54:34.91	244.44	20.10	
2025-01-07 12:54:35.12	244.49	20.12	
2025-01-07 12:54:35.32	244.55	20.13	
2025-01-07 12:54:35.53	244.60	20.14	
2025-01-07 12:54:35.73	244.66	20.15	
2025-01-07 12:54:35.94	244.71	20.17	
2025-01-07 12:54:36.14	244.77	20.18	
2025-01-07 12:54:36.35	244.82	20.19	
2025-01-07 12:54:36.55	244.88	20.21	
2025-01-07 12:54:36.76	244.93	20.22	
2025-01-07 12:54:36.96	244.99	20.23	
2025-01-07 12:54:37.17	245.04	20.24	
2025-01-07 12:54:37.37	245.10	20.25	
2025-01-07 12:54:37.58	245.15	20.27	
2025-01-07 12:54:37.78	245.21	20.28	
2025-01-07 12:54:37.99	245.26	20.29	
2025-01-07 12:54:38.19	245.32	20.30	
2025-01-07 12:54:38.40	245.37	20.32	
2025-01-07 12:54:38.60	245.43	20.33	
2025-01-07 12:54:38.81	245.49	20.34	
2025-01-07 12:54:39.01	245.54	20.35	
2025-01-07 12:54:39.22	245.60	20.37	
2025-01-07 12:54:39.43	245.65	20.38	
2025-01-07 12:54:39.63	245.71	20.39	
2025-01-07 12:54:39.83	245.76	20.40	
2025-01-07 12:54:40.04	245.82	20.42	
2025-01-07 12:54:40.25	245.88	20.43	
2025-01-07 12:54:40.45	245.93	20.44	
2025-01-07 12:54:40.65	245.99	20.45	
2025-01-07 12:54:40.86	246.04	20.46	
2025-01-07 12:54:41.06	246.10	20.48	
2025-01-07 12:54:41.26	246.15	20.49	
2025-01-07 12:54:41.47	246.21	20.50	
2025-01-07 12:54:41.67	246.26	20.51	
2025-01-07 12:54:41.88	246.32	20.52	
2025-01-07 12:54:42.08	246.38	20.54	
2025-01-07 12:54:42.29	246.43	20.55	
2025-01-07 12:54:42.49	246.49	20.56	
2025-01-07 12:54:42.70	246.55	20.57	
2025-01-07 12:54:42.91	246.61	20.58	
2025-01-07 12:54:43.11	246.66	20.60	
2025-01-07 12:54:43.31	246.72	20.61	
2025-01-07 12:54:43.52	246.77	20.62	
2025-01-07 12:54:43.72	246.83	20.63	
2025-01-07 12:54:43.93	246.89	20.64	
2025-01-07 12:54:44.13	246.94	20.65	
2025-01-07 12:54:44.34	247.00	20.67	
2025-01-07 12:54:44.55	247.06	20.68	
2025-01-07 12:54:44.75	247.11	20.69	
2025-01-07 12:54:44.96	247.17	20.70	
2025-01-07 12:54:45.16	247.23	20.71	
2025-01-07 12:54:45.37	247.29	20.73	
2025-01-07 12:54:45.57	247.34	20.74	
2025-01-07 12:54:45.78	247.40	20.75	
2025-01-07 12:54:45.98	247.46	20.76	
2025-01-07 12:54:46.19	247.51	20.77	
2025-01-07 12:54:46.39	247.57	20.78	
2025-01-07 12:54:46.60	247.63	20.79	
2025-01-07 12:54:46.80	247.68	20.81	
2025-01-07 12:54:47.01	247.74	20.82	
2025-01-07 12:54:47.21	247.80	20.83	
2025-01-07 12:54:47.42	247.86	20.84	
2025-01-07 12:54:47.62	247.91	20.85	
2025-01-07 12:54:47.83	247.97	20.86	
2025-01-07 12:54:48.04	248.03	20.88	
2025-01-07 12:54:48.24	248.09	20.89	
2025-01-07 12:54:48.44	248.14	20.90	
2025-01-07 12:54:48.65	248.20	20.91	
2025-01-07 12:54:48.85	248.26	20.92	
2025-01-07 12:54:49.06	248.32	20.93	
2025-01-07 12:54:49.26	248.37	20.94	
2025-01-07 12:54:49.47	248.43	20.95	
2025-01-07 12:54:49.68	248.49	20.97	
2025-01-07 12:54:49.88	248.55	20.98	
2025-01-07 12:54:50.09	248.61	20.99	
2025-01-07 12:54:50.29	248.67	21.00	
2025-01-07 12:54:50.50	248.73	21.01	
2025-01-07 12:54:50.70	248.78	21.02	
2025-01-07 12:54:50.91	248.84	21.03	
2025-01-07 12:54:51.11	248.90	21.04	
2025-01-07 12:54:51.32	248.96	21.05	
2025-01-07 12:54:51.52	249.01	21.06	
2025-01-07 12:54:51.73	249.07	21.08	
2025-01-07 12:54:51.93	249.13	21.09	
2025-01-07 12:54:52.14	249.19	21.10	
2025-01-07 12:54:52.34	249.25	21.11	
2025-01-07 12:54:52.55	249.31	21.12	
2025-01-07 12:54:52.77	249.37	21.13	
2025-01-07 12:54:52.97	249.43	21.14	
2025-01-07 12:54:53.18	249.49	21.15	
2025-01-07 12:54:53.38	249.54	21.16	
2025-01-07 12:54:53.59	249.61	21.17	
2025-01-07 12:54:53.80	249.67	21.19	
2025-01-07 12:54:54.00	249.72	21.20	
2025-01-07 12:54:54.21	249.78	21.21	
2025-01-07 12:54:54.41	249.84	21.22	
2025-01-07 12:54:54.62	249.90	21.23	
2025-01-07 12:54:54.82	249.96	21.24	
2025-01-07 12:54:55.03	250.02	21.25	
2025-01-07 12:54:55.23	250.08	21.26	
2025-01-07 12:54:55.44	250.14	21.27	
2025-01-07 12:54:55.65	250.20	21.28	
2025-01-07 12:54:55.85	250.25	21.29	
2025-01-07 12:54:56.05	250.31	21.30	
2025-01-07 12:54:56.26	250.37	21.31	
2025-01-07 12:54:56.46	250.43	21.32	
2025-01-07 12:54:56.67	250.49	21.33	
2025-01-07 12:54:56.88	250.55	21.34	
2025-01-07 12:54:57.08	250.61	21.35	
2025-01-07 12:54:57.28	250.67	21.36	
2025-01-07 12:54:57.49	250.73	21.37	
2025-01-07 12:54:57.70	250.79	21.39	
2025-01-07 12:54:57.90	250.85	21.39	
2025-01-07 12:54:58.11	250.91	21.41	
2025-01-07 12:54:58.31	250.97	21.42	
2025-01-07 12:54:58.52	251.03	21.43	
2025-01-07 12:54:58.72	251.09	21.44	
2025-01-07 12:54:58.93	251.15	21.45	
2025-01-07 12:54:59.13	251.21	21.46	
2025-01-07 12:54:59.34	251.27	21.47	
2025-01-07 12:54:59.54	251.33	21.48	
2025-01-07 12:54:59.75	251.39	21.49	
2025-01-07 12:54:59.96	251.45	21.50	
2025-01-07 12:55:00.16	251.51	21.51	
2025-01-07 12:55:00.36	251.57	21.52	
2025-01-07 12:55:00.57	251.63	21.53	
2025-01-07 12:55:00.78	251.69	21.54	
2025-01-07 12:55:00.98	251.75	21.55	
2025-01-07 12:55:01.18	251.81	21.56	
2025-01-07 12:55:01.39	251.87	21.57	
2025-01-07 12:55:01.59	251.93	21.57	
2025-01-07 12:55:01.80	251.99	21.58	
2025-01-07 12:55:02.01	252.05	21.59	
2025-01-07 12:55:02.21	252.11	21.60	
2025-01-07 12:55:02.42	252.17	21.61	
2025-01-07 12:55:02.62	252.23	21.62	
2025-01-07 12:55:02.83	252.29	21.63	
2025-01-07 12:55:03.03	252.35	21.64	
2025-01-07 12:55:03.24	252.41	21.65	
2025-01-07 12:55:03.44	252.47	21.66	
2025-01-07 12:55:03.65	252.53	21.67	
2025-01-07 12:55:03.86	252.60	21.68	
2025-01-07 12:55:04.06	252.66	21.69	
2025-01-07 12:55:04.27	252.72	21.70	
2025-01-07 12:55:04.47	252.78	21.71	
2025-01-07 12:55:04.68	252.84	21.72	
2025-01-07 12:55:04.88	252.90	21.73	
2025-01-07 12:55:05.09	252.96	21.74	
2025-01-07 12:55:05.29	253.02	21.75	
2025-01-07 12:55:05.50	253.08	21.76	
2025-01-07 12:55:05.70	253.14	21.76	
2025-01-07 12:55:05.91	253.21	21.77	
2025-01-07 12:55:06.11	253.26	21.78	
2025-01-07 12:55:06.32	253.33	21.79	
2025-01-07 12:55:06.52	253.39	21.80	
2025-01-07 12:55:06.73	253.45	21.81	
2025-01-07 12:55:06.93	253.51	21.82	
2025-01-07 12:55:07.14	253.57	21.83	
2025-01-07 12:55:07.35	253.63	21.84	
2025-01-07 12:55:07.55	253.69	21.85	
2025-01-07 12:55:07.77	253.76	21.86	
2025-01-07 12:55:07.97	253.82	21.86	
2025-01-07 12:55:08.18	253.88	21.87	
2025-01-07 12:55:08.38	253.94	21.88	
2025-01-07 12:55:08.59	254.01	21.89	
2025-01-07 12:55:08.79	254.07	21.90	
2025-01-07 12:55:09.00	254.13	21.91	
2025-01-07 12:55:09.20	254.19	21.92	
2025-01-07 12:55:09.41	254.25	21.93	
2025-01-07 12:55:09.61	254.31	21.93	
2025-01-07 12:55:09.82	254.38	21.94	
2025-01-07 12:55:10.02	254.44	21.95	
2025-01-07 12:55:10.23	254.50	21.96	
2025-01-07 12:55:10.44	254.56	21.97	
2025-01-07 12:55:10.64	254.62	21.98	
2025-01-07 12:55:10.84	254.68	21.99	
2025-01-07 12:55:11.05	254.75	21.99	
2025-01-07 12:55:11.26	254.81	22.00	
2025-01-07 12:55:11.46	254.87	22.01	
2025-01-07 12:55:11.67	254.94	22.02	
2025-01-07 12:55:11.87	255.00	22.03	
2025-01-07 12:55:12.07	255.06	22.04	
2025-01-07 12:55:12.28	255.12	22.05	
2025-01-07 12:55:12.49	255.18	22.05	
2025-01-07 12:55:12.69	255.24	22.06	
2025-01-07 12:55:12.90	255.31	22.07	
2025-01-07 12:55:13.10	255.37	22.08	
2025-01-07 12:55:13.31	255.43	22.09	
2025-01-07 12:55:13.51	255.49	22.09	
2025-01-07 12:55:13.72	255.56	22.10	
2025-01-07 12:55:13.93	255.62	22.11	
2025-01-07 12:55:14.13	255.68	22.12	
2025-01-07 12:55:14.33	255.74	22.13	
2025-01-07 12:55:14.54	255.81	22.13	
2025-01-07 12:55:14.74	255.87	22.14	
2025-01-07 12:55:14.95	255.93	22.15	
2025-01-07 12:55:15.16	256.00	22.16	
2025-01-07 12:55:15.36	256.06	22.17	
2025-01-07 12:55:15.57	256.12	22.17	
2025-01-07 12:55:15.77	256.18	22.18	
2025-01-07 12:55:15.98	256.25	22.19	
2025-01-07 12:55:16.18	256.31	22.20	
2025-01-07 12:55:16.39	256.37	22.20	
2025-01-07 12:55:16.59	256.43	22.21	
2025-01-07 12:55:16.80	256.50	22.22	
2025-01-07 12:55:17.00	256.56	22.23	
2025-01-07 12:55:17.21	256.62	22.24	
2025-01-07 12:55:17.42	256.69	22.24	
2025-01-07 12:55:17.62	256.75	22.25	
2025-01-07 12:55:17.83	256.81	22.26	
2025-01-07 12:55:18.03	256.88	22.26	
2025-01-07 12:55:18.24	256.94	22.27	
2025-01-07 12:55:18.44	257.00	22.28	
2025-01-07 12:55:18.65	257.07	22.29	
2025-01-07 12:55:18.85	257.13	22.29	
2025-01-07 12:55:19.06	257.19	22.30	
2025-01-07 12:55:19.27	257.26	22.31	
2025-01-07 12:55:19.47	257.32	22.32	
2025-01-07 12:55:19.67	257.38	22.32	
2025-01-07 12:55:19.88	257.45	22.33	
2025-01-07 12:55:20.09	257.51	22.34	
2025-01-07 12:55:20.29	257.57	22.34	
2025-01-07 12:55:20.49	257.64	22.35	
2025-01-07 12:55:20.70	257.70	22.36	
2025-01-07 12:55:20.91	257.77	22.37	
2025-01-07 12:55:21.11	257.83	22.37	
2025-01-07 12:55:21.32	257.89	22.38	
2025-01-07 12:55:21.52	257.95	22.39	
2025-01-07 12:55:21.73	258.02	22.39	
2025-01-07 12:55:21.93	258.08	22.40	
2025-01-07 12:55:22.14	258.15	22.41	
2025-01-07 12:55:22.34	258.21	22.41	
2025-01-07 12:55:22.55	258.27	22.42	
2025-01-07 12:55:22.75	258.34	22.43	
2025-01-07 12:55:22.96	258.40	22.43	
2025-01-07 12:55:23.16	258.46	22.44	
2025-01-07 12:55:23.37	258.53	22.45	
2025-01-07 12:55:23.57	258.59	22.45	
2025-01-07 12:55:23.78	258.66	22.46	
2025-01-07 12:55:23.98	258.72	22.47	
2025-01-07 12:55:24.19	258.78	22.47	
2025-01-07 12:55:24.39	258.85	22.48	
2025-01-07 12:55:24.60	258.91	22.49	
2025-01-07 12:55:24.82	258.98	22.49	
2025-01-07 12:55:25.02	259.04	22.50	
2025-01-07 12:55:25.23	259.11	22.50	
2025-01-07 12:55:25.43	259.17	22.51	
2025-01-07 12:55:25.64	259.24	22.52	
2025-01-07 12:55:25.84	259.30	22.52	
2025-01-07 12:55:26.05	259.37	22.53	
2025-01-07 12:55:26.25	259.43	22.54	
2025-01-07 12:55:26.45	259.49	22.54	
2025-01-07 12:55:26.66	259.56	22.55	
2025-01-07 12:55:26.86	259.62	22.55	
2025-01-07 12:55:27.07	259.69	22.56	
2025-01-07 12:55:27.28	259.75	22.57	
2025-01-07 12:55:27.48	259.81	22.57	
2025-01-07 12:55:27.69	259.88	22.58	
2025-01-07 12:55:27.89	259.94	22.58	
2025-01-07 12:55:28.10	260.01	22.59	
2025-01-07 12:55:28.30	260.07	22.59	
2025-01-07 12:55:28.51	260.14	22.60	
2025-01-07 12:55:28.71	260.20	22.61	
2025-01-07 12:55:28.92	260.27	22.61	
2025-01-07 12:55:29.12	260.33	22.62	
2025-01-07 12:55:29.33	260.40	22.62	
2025-01-07 12:55:29.53	260.46	22.63	
2025-01-07 12:55:29.74	260.52	22.63	
2025-01-07 12:55:29.94	260.59	22.64	
2025-01-07 12:55:30.15	260.65	22.65	
2025-01-07 12:55:30.35	260.72	22.65	
2025-01-07 12:55:30.56	260.78	22.66	
2025-01-07 12:55:30.76	260.85	22.66	
2025-01-07 12:55:30.97	260.91	22.67	
2025-01-07 12:55:31.17	260.98	22.67	
2025-01-07 12:55:31.38	261.04	22.68	
2025-01-07 12:55:31.58	261.11	22.68	
2025-01-07 12:55:31.79	261.17	22.69	
2025-01-07 12:55:31.99	261.23	22.69	
2025-01-07 12:55:32.20	261.30	22.70	
2025-01-07 12:55:32.40	261.36	22.70	
2025-01-07 12:55:32.61	261.43	22.71	
2025-01-07 12:55:32.81	261.49	22.71	
2025-01-07 12:55:33.02	261.56	22.72	
2025-01-07 12:55:33.22	261.62	22.72	
2025-01-07 12:55:33.43	261.69	22.73	
2025-01-07 12:55:33.63	261.75	22.73	
2025-01-07 12:55:33.84	261.82	22.74	
2025-01-07 12:55:34.05	261.89	22.74	
2025-01-07 12:55:34.25	261.95	22.75	
2025-01-07 12:55:34.45	262.01	22.75	
2025-01-07 12:55:34.66	262.08	22.76	
2025-01-07 12:55:34.87	262.15	22.76	
2025-01-07 12:55:35.07	262.21	22.77	
2025-01-07 12:55:35.28	262.28	22.77	
2025-01-07 12:55:35.48	262.34	22.77	
2025-01-07 12:55:35.69	262.41	22.78	
2025-01-07 12:55:35.89	262.47	22.78	
2025-01-07 12:55:36.10	262.54	22.79	
2025-01-07 12:55:36.30	262.60	22.79	
2025-01-07 12:55:36.51	262.67	22.80	
2025-01-07 12:55:36.71	262.73	22.80	
2025-01-07 12:55:36.92	262.80	22.81	
2025-01-07 12:55:37.12	262.86	22.81	
2025-01-07 12:55:37.33	262.93	22.81	
2025-01-07 12:55:37.53	262.99	22.82	
2025-01-07 12:55:37.74	263.06	22.82	
2025-01-07 12:55:37.94	263.13	22.83	
2025-01-07 12:55:38.15	263.19	22.83	
2025-01-07 12:55:38.35	263.26	22.83	
2025-01-07 12:55:38.56	263.32	22.84	
2025-01-07 12:55:38.76	263.39	22.84	
2025-01-07 12:55:38.97	263.45	22.85	
2025-01-07 12:55:39.17	263.52	22.85	
2025-01-07 12:55:39.38	263.59	22.85	
2025-01-07 12:55:39.58	263.65	22.86	
2025-01-07 12:55:39.79	263.72	22.86	
2025-01-07 12:55:39.99	263.78	22.87	
2025-01-07 12:55:40.20	263.85	22.87	
2025-01-07 12:55:40.40	263.91	22.87	
2025-01-07 12:55:40.61	263.98	22.88	
2025-01-07 12:55:40.81	264.04	22.88	
2025-01-07 12:55:41.02	264.11	22.88	
2025-01-07 12:55:41.22	264.17	22.89	
2025-01-07 12:55:41.43	264.24	22.89	
2025-01-07 12:55:41.64	264.31	22.89	
2025-01-07 12:55:41.84	264.37	22.90	
2025-01-07 12:55:42.05	264.44	22.90	
2025-01-07 12:55:42.25	264.50	22.90	
2025-01-07 12:55:42.46	264.57	22.91	
2025-01-07 12:55:42.66	264.64	22.91	
2025-01-07 12:55:42.86	264.70	22.91	
2025-01-07 12:55:43.07	264.77	22.92	
2025-01-07 12:55:43.28	264.83	22.92	
2025-01-07 12:55:43.48	264.90	22.92	
2025-01-07 12:55:43.69	264.97	22.93	
2025-01-07 12:55:43.89	265.03	22.93	
2025-01-07 12:55:44.10	265.10	22.93	
2025-01-07 12:55:44.30	265.16	22.94	
2025-01-07 12:55:44.51	265.23	22.94	
2025-01-07 12:55:44.71	265.29	22.94	
2025-01-07 12:55:44.92	265.36	22.94	
2025-01-07 12:55:45.13	265.43	22.95	
2025-01-07 12:55:45.34	265.50	22.95	
2025-01-07 12:55:45.54	265.56	22.95	
2025-01-07 12:55:45.75	265.63	22.96	
2025-01-07 12:55:45.95	265.69	22.96	
2025-01-07 12:55:46.17	265.76	22.96	
2025-01-07 12:55:46.38	265.83	22.96	
2025-01-07 12:55:46.58	265.90	22.97	
2025-01-07 12:55:46.79	265.96	22.97	
2025-01-07 12:55:46.99	266.03	22.97	
2025-01-07 12:55:47.20	266.10	22.97	
2025-01-07 12:55:47.40	266.16	22.98	
2025-01-07 12:55:47.61	266.23	22.98	
2025-01-07 12:55:47.82	266.30	22.98	
2025-01-07 12:55:48.02	266.36	22.98	
2025-01-07 12:55:48.22	266.42	22.99	
2025-01-07 12:55:48.43	266.49	22.99	
2025-01-07 12:55:48.64	266.56	22.99	
2025-01-07 12:55:48.84	266.62	22.99	
2025-01-07 12:55:49.05	266.69	22.99	
2025-01-07 12:55:49.25	266.76	23.00	
2025-01-07 12:55:49.46	266.82	23.00	
2025-01-07 12:55:49.66	266.89	23.00	
2025-01-07 12:55:49.87	266.96	23.00	
2025-01-07 12:55:50.07	267.02	23.00	
2025-01-07 12:55:50.28	267.09	23.01	
2025-01-07 12:55:50.48	267.15	23.01	
2025-01-07 12:55:50.69	267.22	23.01	
2025-01-07 12:55:50.89	267.29	23.01	
2025-01-07 12:55:51.10	267.35	23.01	
2025-01-07 12:55:51.30	267.42	23.01	
2025-01-07 12:55:51.52	267.49	23.02	
2025-01-07 12:55:51.73	267.56	23.02	
2025-01-07 12:55:51.93	267.62	23.02	
2025-01-07 12:55:52.14	267.69	23.02	
2025-01-07 12:55:52.34	267.75	23.02	
2025-01-07 12:55:52.54	267.82	23.02	
2025-01-07 12:55:52.75	267.89	23.03	
2025-01-07 12:55:52.96	267.95	23.03	
2025-01-07 12:55:53.16	268.02	23.03	
2025-01-07 12:55:53.37	268.09	23.03	
2025-01-07 12:55:53.57	268.15	23.03	
2025-01-07 12:55:53.77	268.22	23.03	
2025-01-07 12:55:53.98	268.28	23.03	
2025-01-07 12:55:54.19	268.35	23.03	
2025-01-07 12:55:54.39	268.42	23.04	
2025-01-07 12:55:54.60	268.48	23.04	
2025-01-07 12:55:54.80	268.55	23.04	
2025-01-07 12:55:55.01	268.62	23.04	
2025-01-07 12:55:55.21	268.68	23.04	
2025-01-07 12:55:55.42	268.75	23.04	
2025-01-07 12:55:55.62	268.81	23.04	
2025-01-07 12:55:55.83	268.88	23.04	
2025-01-07 12:55:56.03	268.95	23.04	
2025-01-07 12:55:56.24	269.01	23.04	
2025-01-07 12:55:56.44	269.08	23.04	
2025-01-07 12:55:56.65	269.15	23.05	
2025-01-07 12:55:56.85	269.21	23.05	
2025-01-07 12:55:57.05	269.28	23.05	
2025-01-07 12:55:57.26	269.34	23.05	
2025-01-07 12:55:57.47	269.41	23.05	
2025-01-07 12:55:57.67	269.48	23.05	
2025-01-07 12:55:57.88	269.55	23.05	
2025-01-07 12:55:58.08	269.61	23.05	
2025-01-07 12:55:58.29	269.68	23.05	
2025-01-07 12:55:58.49	269.74	23.05	
2025-01-07 12:55:58.70	269.81	23.05	
2025-01-07 12:55:58.90	269.88	23.05	
2025-01-07 12:55:59.11	269.94	23.05	
2025-01-07 12:55:59.31	270.01	23.05	
2025-01-07 12:55:59.52	270.08	23.05	
2025-01-07 12:55:59.73	270.14	23.05	
2025-01-07 12:55:59.93	270.21	23.05	
2025-01-07 12:56:00.13	270.27	23.05	
2025-01-07 12:56:00.34	270.34	23.05	
2025-01-07 12:56:00.55	270.41	23.05	
2025-01-07 12:56:00.75	270.47	23.05	
2025-01-07 12:56:00.96	270.54	23.05	
2025-01-07 12:56:01.16	270.61	23.05	
2025-01-07 12:56:01.37	270.67	23.05	
2025-01-07 12:56:01.57	270.74	23.05	
2025-01-07 12:56:01.78	270.81	23.05	
2025-01-07 12:56:01.99	270.88	23.05	
2025-01-07 12:56:02.20	270.94	23.05	
2025-01-07 12:56:02.41	271.01	23.05	
2025-01-07 12:56:02.62	271.08	23.05	
2025-01-07 12:56:02.82	271.14	23.05	
2025-01-07 12:56:03.03	271.21	23.05	
2025-01-07 12:56:03.23	271.28	23.05	
2025-01-07 12:56:03.43	271.34	23.05	
2025-01-07 12:56:03.64	271.41	23.05	
2025-01-07 12:56:03.85	271.48	23.05	
2025-01-07 12:56:04.05	271.54	23.05	
2025-01-07 12:56:04.26	271.61	23.05	
2025-01-07 12:56:04.46	271.67	23.04	
2025-01-07 12:56:04.67	271.74	23.04	
2025-01-07 12:56:04.88	271.81	23.04	
2025-01-07 12:56:05.08	271.87	23.04	
2025-01-07 12:56:05.29	271.94	23.04	
2025-01-07 12:56:05.49	272.01	23.04	
2025-01-07 12:56:05.70	272.08	23.04	
2025-01-07 12:56:05.90	272.14	23.04	
2025-01-07 12:56:06.11	272.21	23.04	
2025-01-07 12:56:06.32	272.28	23.04	
2025-01-07 12:56:06.52	272.34	23.04	
2025-01-07 12:56:06.72	272.41	23.03	
2025-01-07 12:56:06.93	272.47	23.03	
2025-01-07 12:56:07.13	272.54	23.03	
2025-01-07 12:56:07.34	272.61	23.03	
2025-01-07 12:56:07.56	272.68	23.03	
2025-01-07 12:56:07.76	272.74	23.03	
2025-01-07 12:56:07.97	272.81	23.03	
2025-01-07 12:56:08.18	272.88	23.02	
2025-01-07 12:56:08.38	272.94	23.02	
2025-01-07 12:56:08.60	273.01	23.02	
2025-01-07 12:56:08.80	273.08	23.02	
2025-01-07 12:56:09.01	273.14	23.02	
2025-01-07 12:56:09.21	273.21	23.02	
2025-01-07 12:56:09.42	273.28	23.02	
2025-01-07 12:56:09.62	273.34	23.01	
2025-01-07 12:56:09.83	273.41	23.01	
2025-01-07 12:56:10.03	273.47	23.01	
2025-01-07 12:56:10.24	273.54	23.01	
2025-01-07 12:56:10.44	273.61	23.01	
2025-01-07 12:56:10.65	273.67	23.00	
2025-01-07 12:56:10.85	273.74	23.00	
2025-01-07 12:56:11.06	273.81	23.00	
2025-01-07 12:56:11.27	273.87	23.00	
2025-01-07 12:56:11.47	273.94	23.00	
2025-01-07 12:56:11.68	274.01	22.99	
2025-01-07 12:56:11.88	274.07	22.99	
2025-01-07 12:56:12.09	274.14	22.99	
2025-01-07 12:56:12.29	274.20	22.99	
2025-01-07 12:56:12.50	274.27	22.99	
2025-01-07 12:56:12.71	274.34	22.98	
2025-01-07 12:56:12.91	274.40	22.98	
2025-01-07 12:56:13.12	274.47	22.98	
2025-01-07 12:56:13.32	274.53	22.98	
2025-01-07 12:56:13.53	274.60	22.97	
2025-01-07 12:56:13.73	274.67	22.97	
2025-01-07 12:56:13.94	274.73	22.97	
2025-01-07 12:56:14.14	274.80	22.97	
2025-01-07 12:56:14.34	274.86	22.96	
2025-01-07 12:56:14.55	274.93	22.96	
2025-01-07 12:56:14.76	275.00	22.96	
2025-01-07 12:56:14.96	275.06	22.96	
2025-01-07 12:56:15.17	275.13	22.95	
2025-01-07 12:56:15.37	275.19	22.95	
2025-01-07 12:56:15.58	275.26	22.95	
2025-01-07 12:56:15.78	275.33	22.95	
2025-01-07 12:56:15.99	275.39	22.94	
2025-01-07 12:56:16.19	275.46	22.94	
2025-01-07 12:56:16.40	275.52	22.94	
2025-01-07 12:56:16.61	275.59	22.93	
2025-01-07 12:56:16.81	275.66	22.93	
2025-01-07 12:56:17.02	275.72	22.93	
2025-01-07 12:56:17.22	275.79	22.92	
2025-01-07 12:56:17.43	275.86	22.92	
2025-01-07 12:56:17.63	275.92	22.92	
2025-01-07 12:56:17.84	275.99	22.92	
2025-01-07 12:56:18.04	276.05	22.91	
2025-01-07 12:56:18.25	276.12	22.91	
2025-01-07 12:56:18.45	276.18	22.91	
2025-01-07 12:56:18.66	276.25	22.90	
2025-01-07 12:56:18.86	276.31	22.90	
2025-01-07 12:56:19.07	276.38	22.90	
2025-01-07 12:56:19.28	276.45	22.89	
2025-01-07 12:56:19.49	276.51	22.89	
2025-01-07 12:56:19.70	276.58	22.88	
2025-01-07 12:56:19.90	276.65	22.88	
2025-01-07 12:56:20.11	276.71	22.88	
2025-01-07 12:56:20.31	276.78	22.87	
2025-01-07 12:56:20.52	276.84	22.87	
2025-01-07 12:56:20.72	276.91	22.87	
2025-01-07 12:56:20.93	276.98	22.86	
2025-01-07 12:56:21.13	277.04	22.86	
2025-01-07 12:56:21.34	277.11	22.86	
