passes_logs/2025/01/07/SPB_Silybum_02/SPB_Silybum_02__20250107_230046_AQUA_rec.log

#Pass ID: 20250107_230046_AQUA
#Satellite: AQUA
#Configuration: AQUA
#Start time: 2025-01-07 23:00:47

#Version: 2.0.20230423
#Station: SPB_Silybum_02
#Location: 30.233357 lon 59.946436 lat
#TLE: 1 27424U 02022A   25007.20663841  .00002684  00000+0  56113-3 0  9997
#TLE: 2 27424  98.3577 323.8011 0001408 118.8980 354.1988 14.60651824206481

#Time	Az	El	Level	Level2	SNR	BER	Gain	Gain2
2025-01-07 23:00:49.34	38.49	4.12	
2025-01-07 23:00:49.54	38.51	4.13	
2025-01-07 23:00:49.75	38.54	4.14	
2025-01-07 23:00:49.95	38.57	4.15	
2025-01-07 23:00:50.16	38.60	4.16	
2025-01-07 23:00:50.36	38.62	4.17	
2025-01-07 23:00:50.56	38.65	4.17	
2025-01-07 23:00:50.77	38.68	4.18	
2025-01-07 23:00:50.98	38.71	4.19	
2025-01-07 23:00:51.18	38.73	4.20	
2025-01-07 23:00:51.39	38.76	4.21	
2025-01-07 23:00:51.59	38.79	4.22	
2025-01-07 23:00:51.80	38.81	4.23	
2025-01-07 23:00:52.00	38.84	4.24	
2025-01-07 23:00:52.21	38.87	4.24	
2025-01-07 23:00:52.41	38.90	4.25	
2025-01-07 23:00:52.62	38.92	4.26	
2025-01-07 23:00:52.83	38.95	4.27	
2025-01-07 23:00:53.03	38.98	4.28	
2025-01-07 23:00:53.24	39.01	4.29	
2025-01-07 23:00:53.44	39.04	4.30	
2025-01-07 23:00:53.66	39.06	4.30	
2025-01-07 23:00:53.86	39.09	4.31	
2025-01-07 23:00:54.07	39.12	4.32	
2025-01-07 23:00:54.28	39.15	4.33	
2025-01-07 23:00:54.48	39.18	4.34	
2025-01-07 23:00:54.68	39.20	4.35	
2025-01-07 23:00:54.89	39.23	4.36	
2025-01-07 23:00:55.09	39.26	4.36	
2025-01-07 23:00:55.30	39.29	4.37	
2025-01-07 23:00:55.51	39.31	4.38	
2025-01-07 23:00:55.71	39.34	4.39	
2025-01-07 23:00:55.91	39.37	4.40	
2025-01-07 23:00:56.12	39.40	4.41	
2025-01-07 23:00:56.32	39.42	4.42	
2025-01-07 23:00:56.53	39.45	4.42	
2025-01-07 23:00:56.73	39.48	4.43	
2025-01-07 23:00:56.94	39.51	4.44	
2025-01-07 23:00:57.14	39.54	4.45	
2025-01-07 23:00:57.35	39.56	4.46	
2025-01-07 23:00:57.56	39.59	4.47	
2025-01-07 23:00:57.76	39.62	4.48	
2025-01-07 23:00:57.96	39.65	4.48	
2025-01-07 23:00:58.17	39.68	4.49	
2025-01-07 23:00:58.38	39.70	4.50	
2025-01-07 23:00:58.58	39.73	4.51	
2025-01-07 23:00:58.79	39.76	4.52	
2025-01-07 23:00:58.99	39.79	4.53	
2025-01-07 23:00:59.20	39.82	4.54	
2025-01-07 23:00:59.40	39.84	4.54	
2025-01-07 23:00:59.61	39.87	4.55	
2025-01-07 23:00:59.81	39.90	4.56	
2025-01-07 23:01:00.01	39.93	4.57	
2025-01-07 23:01:00.22	39.96	4.58	
2025-01-07 23:01:00.42	39.98	4.59	
2025-01-07 23:01:00.63	40.01	4.60	
2025-01-07 23:01:00.83	40.04	4.60	
2025-01-07 23:01:01.04	40.07	4.61	
2025-01-07 23:01:01.24	40.10	4.62	
2025-01-07 23:01:01.45	40.13	4.63	
2025-01-07 23:01:01.66	40.16	4.64	
2025-01-07 23:01:01.86	40.18	4.65	
2025-01-07 23:01:02.07	40.21	4.66	
2025-01-07 23:01:02.27	40.24	4.66	
2025-01-07 23:01:02.48	40.27	4.67	
2025-01-07 23:01:02.68	40.30	4.68	
2025-01-07 23:01:02.89	40.33	4.69	
2025-01-07 23:01:03.09	40.35	4.70	
2025-01-07 23:01:03.30	40.38	4.71	
2025-01-07 23:01:03.50	40.41	4.71	
2025-01-07 23:01:03.71	40.44	4.72	
2025-01-07 23:01:03.91	40.47	4.73	
2025-01-07 23:01:04.12	40.50	4.74	
2025-01-07 23:01:04.32	40.52	4.75	
2025-01-07 23:01:04.53	40.55	4.76	
2025-01-07 23:01:04.73	40.58	4.77	
2025-01-07 23:01:04.94	40.61	4.77	
2025-01-07 23:01:05.14	40.64	4.78	
2025-01-07 23:01:05.35	40.67	4.79	
2025-01-07 23:01:05.55	40.70	4.80	
2025-01-07 23:01:05.76	40.72	4.81	
2025-01-07 23:01:05.97	40.75	4.82	
2025-01-07 23:01:06.17	40.78	4.83	
2025-01-07 23:01:06.38	40.81	4.83	
2025-01-07 23:01:06.58	40.84	4.84	
2025-01-07 23:01:06.79	40.87	4.85	
2025-01-07 23:01:06.99	40.90	4.86	
2025-01-07 23:01:07.20	40.93	4.87	
2025-01-07 23:01:07.40	40.95	4.88	
2025-01-07 23:01:07.61	40.98	4.88	
2025-01-07 23:01:07.81	41.01	4.89	
2025-01-07 23:01:08.02	41.04	4.90	
2025-01-07 23:01:08.23	41.07	4.91	
2025-01-07 23:01:08.43	41.10	4.92	
2025-01-07 23:01:08.63	41.13	4.93	
2025-01-07 23:01:08.84	41.16	4.93	
2025-01-07 23:01:09.04	41.18	4.94	
2025-01-07 23:01:09.25	41.21	4.95	
2025-01-07 23:01:09.46	41.24	4.96	
2025-01-07 23:01:09.66	41.27	4.97	
2025-01-07 23:01:09.87	41.30	4.98	
2025-01-07 23:01:10.07	41.33	4.99	
2025-01-07 23:01:10.28	41.36	4.99	
2025-01-07 23:01:10.49	41.39	5.00	
2025-01-07 23:01:10.69	41.42	5.01	
2025-01-07 23:01:10.89	41.45	5.02	
2025-01-07 23:01:11.10	41.48	5.03	
2025-01-07 23:01:11.31	41.51	5.04	
2025-01-07 23:01:11.51	41.53	5.04	
2025-01-07 23:01:11.71	41.56	5.05	
2025-01-07 23:01:11.92	41.59	5.06	
2025-01-07 23:01:12.12	41.62	5.07	
2025-01-07 23:01:12.33	41.65	5.08	
2025-01-07 23:01:12.53	41.68	5.09	
2025-01-07 23:01:12.75	41.71	5.10	
2025-01-07 23:01:12.95	41.74	5.10	
2025-01-07 23:01:13.16	41.77	5.11	
2025-01-07 23:01:13.36	41.80	5.12	
2025-01-07 23:01:13.57	41.83	5.13	
2025-01-07 23:01:13.78	41.86	5.14	
2025-01-07 23:01:13.98	41.89	5.15	
2025-01-07 23:01:14.19	41.92	5.15	
2025-01-07 23:01:14.39	41.95	5.16	
2025-01-07 23:01:14.60	41.98	5.17	
2025-01-07 23:01:14.80	42.00	5.18	
2025-01-07 23:01:15.02	42.04	5.19	
2025-01-07 23:01:15.22	42.06	5.20	
2025-01-07 23:01:15.43	42.09	5.20	
2025-01-07 23:01:15.64	42.12	5.21	
2025-01-07 23:01:15.84	42.15	5.22	
2025-01-07 23:01:16.05	42.18	5.23	
2025-01-07 23:01:16.25	42.21	5.24	
2025-01-07 23:01:16.46	42.24	5.25	
2025-01-07 23:01:16.66	42.27	5.25	
2025-01-07 23:01:16.87	42.30	5.26	
2025-01-07 23:01:17.07	42.33	5.27	
2025-01-07 23:01:17.28	42.36	5.28	
2025-01-07 23:01:17.48	42.39	5.29	
2025-01-07 23:01:17.69	42.42	5.30	
2025-01-07 23:01:17.89	42.45	5.30	
2025-01-07 23:01:18.10	42.48	5.31	
2025-01-07 23:01:18.30	42.51	5.32	
2025-01-07 23:01:18.51	42.54	5.33	
2025-01-07 23:01:18.71	42.57	5.34	
2025-01-07 23:01:18.92	42.60	5.35	
2025-01-07 23:01:19.12	42.63	5.35	
2025-01-07 23:01:19.33	42.66	5.36	
2025-01-07 23:01:19.53	42.69	5.37	
2025-01-07 23:01:19.74	42.72	5.38	
2025-01-07 23:01:19.94	42.75	5.39	
2025-01-07 23:01:20.15	42.78	5.40	
2025-01-07 23:01:20.35	42.81	5.40	
2025-01-07 23:01:20.56	42.84	5.41	
2025-01-07 23:01:20.76	42.87	5.42	
2025-01-07 23:01:20.97	42.90	5.43	
2025-01-07 23:01:21.18	42.93	5.44	
2025-01-07 23:01:21.38	42.96	5.44	
2025-01-07 23:01:21.59	42.99	5.45	
2025-01-07 23:01:21.79	43.02	5.46	
2025-01-07 23:01:22.00	43.05	5.47	
2025-01-07 23:01:22.20	43.08	5.48	
2025-01-07 23:01:22.40	43.11	5.49	
2025-01-07 23:01:22.61	43.14	5.49	
2025-01-07 23:01:22.81	43.17	5.50	
2025-01-07 23:01:23.02	43.20	5.51	
2025-01-07 23:01:23.23	43.23	5.52	
2025-01-07 23:01:23.43	43.26	5.53	
2025-01-07 23:01:23.63	43.29	5.53	
2025-01-07 23:01:23.84	43.32	5.54	
2025-01-07 23:01:24.05	43.35	5.55	
2025-01-07 23:01:24.25	43.38	5.56	
2025-01-07 23:01:24.46	43.41	5.57	
2025-01-07 23:01:24.66	43.44	5.58	
2025-01-07 23:01:24.87	43.47	5.58	
2025-01-07 23:01:25.07	43.50	5.59	
2025-01-07 23:01:25.28	43.53	5.60	
2025-01-07 23:01:25.48	43.56	5.61	
2025-01-07 23:01:25.70	43.59	5.62	
2025-01-07 23:01:25.91	43.62	5.63	
2025-01-07 23:01:26.11	43.65	5.63	
2025-01-07 23:01:26.32	43.68	5.64	
2025-01-07 23:01:26.52	43.71	5.65	
2025-01-07 23:01:26.74	43.75	5.66	
2025-01-07 23:01:26.95	43.78	5.67	
2025-01-07 23:01:27.15	43.81	5.68	
2025-01-07 23:01:27.36	43.84	5.68	
2025-01-07 23:01:27.56	43.87	5.69	
2025-01-07 23:01:27.77	43.90	5.70	
2025-01-07 23:01:27.97	43.93	5.71	
2025-01-07 23:01:28.18	43.96	5.72	
2025-01-07 23:01:28.39	43.99	5.72	
2025-01-07 23:01:28.59	44.02	5.73	
2025-01-07 23:01:28.80	44.05	5.74	
2025-01-07 23:01:29.00	44.08	5.75	
2025-01-07 23:01:29.21	44.12	5.76	
2025-01-07 23:01:29.41	44.15	5.76	
2025-01-07 23:01:29.62	44.18	5.77	
2025-01-07 23:01:29.82	44.21	5.78	
2025-01-07 23:01:30.03	44.24	5.79	
2025-01-07 23:01:30.23	44.27	5.80	
2025-01-07 23:01:30.44	44.30	5.81	
2025-01-07 23:01:30.65	44.33	5.81	
2025-01-07 23:01:30.85	44.36	5.82	
2025-01-07 23:01:31.06	44.39	5.83	
2025-01-07 23:01:31.26	44.42	5.84	
2025-01-07 23:01:31.47	44.45	5.85	
2025-01-07 23:01:31.68	44.49	5.85	
2025-01-07 23:01:31.88	44.52	5.86	
2025-01-07 23:01:32.09	44.55	5.87	
2025-01-07 23:01:32.29	44.58	5.88	
2025-01-07 23:01:32.50	44.61	5.89	
2025-01-07 23:01:32.70	44.64	5.89	
2025-01-07 23:01:32.90	44.67	5.90	
2025-01-07 23:01:33.12	44.70	5.91	
2025-01-07 23:01:33.32	44.73	5.92	
2025-01-07 23:01:33.53	44.77	5.93	
2025-01-07 23:01:33.74	44.80	5.94	
2025-01-07 23:01:33.94	44.83	5.94	
2025-01-07 23:01:34.14	44.86	5.95	
2025-01-07 23:01:34.35	44.89	5.96	
2025-01-07 23:01:34.56	44.92	5.97	
2025-01-07 23:01:34.76	44.95	5.98	
2025-01-07 23:01:34.97	44.98	5.98	
2025-01-07 23:01:35.17	45.01	5.99	
2025-01-07 23:01:35.38	45.05	6.00	
2025-01-07 23:01:35.58	45.08	6.01	
2025-01-07 23:01:35.79	45.11	6.02	
2025-01-07 23:01:35.99	45.14	6.02	
2025-01-07 23:01:36.20	45.17	6.03	
2025-01-07 23:01:36.40	45.20	6.04	
2025-01-07 23:01:36.61	45.23	6.05	
2025-01-07 23:01:36.82	45.27	6.06	
2025-01-07 23:01:37.02	45.30	6.06	
2025-01-07 23:01:37.23	45.33	6.07	
2025-01-07 23:01:37.43	45.36	6.08	
2025-01-07 23:01:37.64	45.39	6.09	
2025-01-07 23:01:37.84	45.42	6.10	
2025-01-07 23:01:38.05	45.45	6.10	
2025-01-07 23:01:38.25	45.49	6.11	
2025-01-07 23:01:38.46	45.52	6.12	
2025-01-07 23:01:38.66	45.55	6.13	
2025-01-07 23:01:38.86	45.58	6.13	
2025-01-07 23:01:39.07	45.61	6.14	
2025-01-07 23:01:39.28	45.64	6.15	
2025-01-07 23:01:39.48	45.67	6.16	
2025-01-07 23:01:39.69	45.71	6.17	
2025-01-07 23:01:39.89	45.74	6.17	
2025-01-07 23:01:40.10	45.77	6.18	
2025-01-07 23:01:40.30	45.80	6.19	
2025-01-07 23:01:40.51	45.83	6.20	
2025-01-07 23:01:40.71	45.86	6.21	
2025-01-07 23:01:40.92	45.90	6.21	
2025-01-07 23:01:41.12	45.93	6.22	
2025-01-07 23:01:41.33	45.96	6.23	
2025-01-07 23:01:41.53	45.99	6.24	
2025-01-07 23:01:41.75	46.03	6.25	
2025-01-07 23:01:41.96	46.06	6.25	
2025-01-07 23:01:42.16	46.09	6.26	
2025-01-07 23:01:42.37	46.12	6.27	
2025-01-07 23:01:42.58	46.15	6.28	
2025-01-07 23:01:42.78	46.19	6.29	
2025-01-07 23:01:42.99	46.22	6.29	
2025-01-07 23:01:43.19	46.25	6.30	
2025-01-07 23:01:43.40	46.28	6.31	
2025-01-07 23:01:43.60	46.31	6.32	
2025-01-07 23:01:43.81	46.35	6.32	
2025-01-07 23:01:44.01	46.38	6.33	
2025-01-07 23:01:44.22	46.41	6.34	
2025-01-07 23:01:44.42	46.44	6.35	
2025-01-07 23:01:44.63	46.47	6.36	
2025-01-07 23:01:44.83	46.50	6.36	
2025-01-07 23:01:45.04	46.54	6.37	
2025-01-07 23:01:45.24	46.57	6.38	
2025-01-07 23:01:45.44	46.60	6.39	
2025-01-07 23:01:45.65	46.63	6.39	
2025-01-07 23:01:45.85	46.66	6.40	
2025-01-07 23:01:46.06	46.70	6.41	
2025-01-07 23:01:46.27	46.73	6.42	
2025-01-07 23:01:46.47	46.76	6.43	
2025-01-07 23:01:46.67	46.79	6.43	
2025-01-07 23:01:46.88	46.83	6.44	
2025-01-07 23:01:47.10	46.86	6.45	
2025-01-07 23:01:47.30	46.89	6.46	
2025-01-07 23:01:47.51	46.93	6.47	
2025-01-07 23:01:47.72	46.96	6.47	
2025-01-07 23:01:47.92	46.99	6.48	
2025-01-07 23:01:48.13	47.02	6.49	
2025-01-07 23:01:48.33	47.05	6.50	
2025-01-07 23:01:48.54	47.09	6.50	
2025-01-07 23:01:48.74	47.12	6.51	
2025-01-07 23:01:48.95	47.15	6.52	
2025-01-07 23:01:49.17	47.19	6.53	
2025-01-07 23:01:49.37	47.22	6.54	
2025-01-07 23:01:49.58	47.25	6.54	
2025-01-07 23:01:49.78	47.28	6.55	
2025-01-07 23:01:49.99	47.32	6.56	
2025-01-07 23:01:50.19	47.35	6.57	
2025-01-07 23:01:50.40	47.38	6.57	
2025-01-07 23:01:50.60	47.41	6.58	
2025-01-07 23:01:50.81	47.45	6.59	
2025-01-07 23:01:51.02	47.48	6.60	
2025-01-07 23:01:51.22	47.51	6.60	
2025-01-07 23:01:51.42	47.54	6.61	
2025-01-07 23:01:51.63	47.58	6.62	
2025-01-07 23:01:51.83	47.61	6.63	
2025-01-07 23:01:52.04	47.64	6.64	
2025-01-07 23:01:52.25	47.68	6.64	
2025-01-07 23:01:52.45	47.71	6.65	
2025-01-07 23:01:52.65	47.74	6.66	
2025-01-07 23:01:52.86	47.77	6.67	
2025-01-07 23:01:53.06	47.81	6.67	
2025-01-07 23:01:53.27	47.84	6.68	
2025-01-07 23:01:53.47	47.87	6.69	
2025-01-07 23:01:53.68	47.91	6.70	
2025-01-07 23:01:53.89	47.94	6.70	
2025-01-07 23:01:54.09	47.97	6.71	
2025-01-07 23:01:54.30	48.00	6.72	
2025-01-07 23:01:54.50	48.04	6.73	
2025-01-07 23:01:54.71	48.07	6.73	
2025-01-07 23:01:54.91	48.10	6.74	
2025-01-07 23:01:55.12	48.14	6.75	
2025-01-07 23:01:55.32	48.17	6.76	
2025-01-07 23:01:55.53	48.20	6.76	
2025-01-07 23:01:55.73	48.23	6.77	
2025-01-07 23:01:55.94	48.27	6.78	
2025-01-07 23:01:56.15	48.30	6.79	
2025-01-07 23:01:56.35	48.33	6.79	
2025-01-07 23:01:56.56	48.37	6.80	
2025-01-07 23:01:56.76	48.40	6.81	
2025-01-07 23:01:56.97	48.43	6.82	
2025-01-07 23:01:57.17	48.47	6.82	
2025-01-07 23:01:57.38	48.50	6.83	
2025-01-07 23:01:57.59	48.53	6.84	
2025-01-07 23:01:57.79	48.57	6.85	
2025-01-07 23:01:58.00	48.60	6.86	
2025-01-07 23:01:58.20	48.63	6.86	
2025-01-07 23:01:58.41	48.67	6.87	
2025-01-07 23:01:58.61	48.70	6.88	
2025-01-07 23:01:58.83	48.74	6.89	
2025-01-07 23:01:59.04	48.77	6.89	
2025-01-07 23:01:59.24	48.80	6.90	
2025-01-07 23:01:59.45	48.84	6.91	
2025-01-07 23:01:59.66	48.87	6.92	
2025-01-07 23:01:59.86	48.90	6.92	
2025-01-07 23:02:00.06	48.94	6.93	
2025-01-07 23:02:00.28	48.97	6.94	
2025-01-07 23:02:00.49	49.01	6.95	
2025-01-07 23:02:00.69	49.04	6.95	
2025-01-07 23:02:00.90	49.07	6.96	
2025-01-07 23:02:01.11	49.11	6.97	
2025-01-07 23:02:01.31	49.14	6.98	
2025-01-07 23:02:01.52	49.17	6.98	
2025-01-07 23:02:01.72	49.21	6.99	
2025-01-07 23:02:01.92	49.24	7.00	
2025-01-07 23:02:02.13	49.27	7.01	
2025-01-07 23:02:02.34	49.31	7.01	
2025-01-07 23:02:02.54	49.34	7.02	
2025-01-07 23:02:02.75	49.38	7.03	
2025-01-07 23:02:02.95	49.41	7.03	
2025-01-07 23:02:03.16	49.44	7.04	
2025-01-07 23:02:03.36	49.48	7.05	
2025-01-07 23:02:03.57	49.51	7.06	
2025-01-07 23:02:03.77	49.54	7.06	
2025-01-07 23:02:03.98	49.58	7.07	
2025-01-07 23:02:04.19	49.61	7.08	
2025-01-07 23:02:04.40	49.65	7.09	
2025-01-07 23:02:04.62	49.68	7.09	
2025-01-07 23:02:04.82	49.72	7.10	
2025-01-07 23:02:05.03	49.75	7.11	
2025-01-07 23:02:05.23	49.78	7.12	
2025-01-07 23:02:05.44	49.82	7.12	
2025-01-07 23:02:05.64	49.85	7.13	
2025-01-07 23:02:05.85	49.89	7.14	
2025-01-07 23:02:06.05	49.92	7.15	
2025-01-07 23:02:06.27	49.96	7.15	
2025-01-07 23:02:06.49	49.99	7.16	
2025-01-07 23:02:06.69	50.03	7.17	
2025-01-07 23:02:06.90	50.06	7.18	
2025-01-07 23:02:07.11	50.09	7.18	
2025-01-07 23:02:07.31	50.13	7.19	
2025-01-07 23:02:07.51	50.16	7.20	
2025-01-07 23:02:07.72	50.20	7.20	
2025-01-07 23:02:07.94	50.23	7.21	
2025-01-07 23:02:08.14	50.27	7.22	
2025-01-07 23:02:08.35	50.30	7.23	
2025-01-07 23:02:08.55	50.33	7.23	
2025-01-07 23:02:08.76	50.37	7.24	
2025-01-07 23:02:08.96	50.40	7.25	
2025-01-07 23:02:09.17	50.44	7.26	
2025-01-07 23:02:09.37	50.47	7.26	
2025-01-07 23:02:09.58	50.51	7.27	
2025-01-07 23:02:09.78	50.54	7.28	
2025-01-07 23:02:09.99	50.57	7.28	
2025-01-07 23:02:10.19	50.61	7.29	
2025-01-07 23:02:10.40	50.64	7.30	
2025-01-07 23:02:10.62	50.68	7.31	
2025-01-07 23:02:10.82	50.71	7.31	
2025-01-07 23:02:11.03	50.75	7.32	
2025-01-07 23:02:11.23	50.78	7.33	
2025-01-07 23:02:11.44	50.82	7.33	
2025-01-07 23:02:11.64	50.85	7.34	
2025-01-07 23:02:11.85	50.89	7.35	
2025-01-07 23:02:12.06	50.92	7.36	
2025-01-07 23:02:12.26	50.95	7.36	
2025-01-07 23:02:12.47	50.99	7.37	
2025-01-07 23:02:12.67	51.02	7.38	
2025-01-07 23:02:12.88	51.06	7.38	
2025-01-07 23:02:13.08	51.09	7.39	
2025-01-07 23:02:13.29	51.13	7.40	
2025-01-07 23:02:13.50	51.16	7.41	
2025-01-07 23:02:13.70	51.20	7.41	
2025-01-07 23:02:13.90	51.23	7.42	
2025-01-07 23:02:14.11	51.27	7.43	
2025-01-07 23:02:14.32	51.30	7.43	
2025-01-07 23:02:14.52	51.34	7.44	
2025-01-07 23:02:14.73	51.37	7.45	
2025-01-07 23:02:14.93	51.41	7.46	
2025-01-07 23:02:15.14	51.44	7.46	
2025-01-07 23:02:15.34	51.47	7.47	
2025-01-07 23:02:15.55	51.51	7.48	
2025-01-07 23:02:15.75	51.54	7.48	
2025-01-07 23:02:15.95	51.58	7.49	
2025-01-07 23:02:16.16	51.61	7.50	
2025-01-07 23:02:16.36	51.65	7.50	
2025-01-07 23:02:16.57	51.68	7.51	
2025-01-07 23:02:16.78	51.72	7.52	
2025-01-07 23:02:16.99	51.75	7.53	
2025-01-07 23:02:17.20	51.79	7.53	
2025-01-07 23:02:17.40	51.82	7.54	
2025-01-07 23:02:17.61	51.86	7.55	
2025-01-07 23:02:17.81	51.89	7.55	
2025-01-07 23:02:18.02	51.93	7.56	
2025-01-07 23:02:18.22	51.96	7.57	
2025-01-07 23:02:18.43	52.00	7.57	
2025-01-07 23:02:18.63	52.03	7.58	
2025-01-07 23:02:18.84	52.07	7.59	
2025-01-07 23:02:19.04	52.10	7.59	
2025-01-07 23:02:19.25	52.14	7.60	
2025-01-07 23:02:19.46	52.18	7.61	
2025-01-07 23:02:19.66	52.21	7.62	
2025-01-07 23:02:19.86	52.24	7.62	
2025-01-07 23:02:20.07	52.28	7.63	
2025-01-07 23:02:20.27	52.31	7.64	
2025-01-07 23:02:20.48	52.35	7.64	
2025-01-07 23:02:20.68	52.39	7.65	
2025-01-07 23:02:20.89	52.42	7.66	
2025-01-07 23:02:21.10	52.46	7.66	
2025-01-07 23:02:21.30	52.49	7.67	
2025-01-07 23:02:21.51	52.53	7.68	
2025-01-07 23:02:21.71	52.56	7.68	
2025-01-07 23:02:21.92	52.60	7.69	
2025-01-07 23:02:22.12	52.63	7.70	
2025-01-07 23:02:22.34	52.67	7.70	
2025-01-07 23:02:22.55	52.71	7.71	
2025-01-07 23:02:22.75	52.74	7.72	
2025-01-07 23:02:22.96	52.78	7.73	
2025-01-07 23:02:23.16	52.81	7.73	
2025-01-07 23:02:23.37	52.85	7.74	
2025-01-07 23:02:23.57	52.88	7.75	
2025-01-07 23:02:23.78	52.92	7.75	
2025-01-07 23:02:23.98	52.95	7.76	
2025-01-07 23:02:24.19	52.99	7.77	
2025-01-07 23:02:24.39	53.02	7.77	
2025-01-07 23:02:24.60	53.06	7.78	
2025-01-07 23:02:24.80	53.10	7.79	
2025-01-07 23:02:25.01	53.13	7.79	
2025-01-07 23:02:25.21	53.17	7.80	
2025-01-07 23:02:25.42	53.20	7.81	
2025-01-07 23:02:25.62	53.24	7.81	
2025-01-07 23:02:25.83	53.27	7.82	
2025-01-07 23:02:26.03	53.31	7.83	
2025-01-07 23:02:26.24	53.35	7.83	
2025-01-07 23:02:26.46	53.38	7.84	
2025-01-07 23:02:26.66	53.42	7.85	
2025-01-07 23:02:26.87	53.46	7.85	
2025-01-07 23:02:27.07	53.49	7.86	
2025-01-07 23:02:27.28	53.53	7.87	
2025-01-07 23:02:27.48	53.56	7.87	
2025-01-07 23:02:27.69	53.60	7.88	
2025-01-07 23:02:27.89	53.63	7.89	
2025-01-07 23:02:28.10	53.67	7.89	
2025-01-07 23:02:28.31	53.71	7.90	
2025-01-07 23:02:28.51	53.74	7.91	
2025-01-07 23:02:28.71	53.78	7.91	
2025-01-07 23:02:28.92	53.81	7.92	
2025-01-07 23:02:29.12	53.85	7.93	
2025-01-07 23:02:29.33	53.89	7.93	
2025-01-07 23:02:29.54	53.92	7.94	
2025-01-07 23:02:29.74	53.96	7.95	
2025-01-07 23:02:29.95	53.99	7.95	
2025-01-07 23:02:30.15	54.03	7.96	
2025-01-07 23:02:30.36	54.07	7.97	
2025-01-07 23:02:30.57	54.10	7.97	
2025-01-07 23:02:30.77	54.14	7.98	
2025-01-07 23:02:30.98	54.18	7.98	
2025-01-07 23:02:31.18	54.21	7.99	
2025-01-07 23:02:31.39	54.25	8.00	
2025-01-07 23:02:31.59	54.28	8.00	
2025-01-07 23:02:31.80	54.32	8.01	
2025-01-07 23:02:32.00	54.35	8.02	
2025-01-07 23:02:32.21	54.39	8.02	
2025-01-07 23:02:32.41	54.43	8.03	
2025-01-07 23:02:32.62	54.46	8.04	
2025-01-07 23:02:32.82	54.50	8.04	
2025-01-07 23:02:33.04	54.54	8.05	
2025-01-07 23:02:33.25	54.58	8.06	
2025-01-07 23:02:33.45	54.61	8.06	
2025-01-07 23:02:33.66	54.65	8.07	
2025-01-07 23:02:33.86	54.68	8.08	
2025-01-07 23:02:34.07	54.72	8.08	
2025-01-07 23:02:34.27	54.76	8.09	
2025-01-07 23:02:34.48	54.79	8.09	
2025-01-07 23:02:34.68	54.83	8.10	
2025-01-07 23:02:34.89	54.87	8.11	
2025-01-07 23:02:35.09	54.90	8.11	
2025-01-07 23:02:35.30	54.94	8.12	
2025-01-07 23:02:35.50	54.97	8.13	
2025-01-07 23:02:35.71	55.01	8.13	
2025-01-07 23:02:35.91	55.05	8.14	
2025-01-07 23:02:36.11	55.08	8.14	
2025-01-07 23:02:36.32	55.12	8.15	
2025-01-07 23:02:36.52	55.16	8.16	
2025-01-07 23:02:36.73	55.19	8.16	
2025-01-07 23:02:36.93	55.23	8.17	
2025-01-07 23:02:37.14	55.27	8.18	
2025-01-07 23:02:37.34	55.30	8.18	
2025-01-07 23:02:37.55	55.34	8.19	
2025-01-07 23:02:37.75	55.38	8.19	
2025-01-07 23:02:37.96	55.41	8.20	
2025-01-07 23:02:38.16	55.45	8.21	
2025-01-07 23:02:38.37	55.49	8.21	
2025-01-07 23:02:38.57	55.52	8.22	
2025-01-07 23:02:38.78	55.56	8.23	
2025-01-07 23:02:38.99	55.60	8.23	
2025-01-07 23:02:39.19	55.63	8.24	
2025-01-07 23:02:39.40	55.67	8.24	
2025-01-07 23:02:39.60	55.71	8.25	
2025-01-07 23:02:39.81	55.74	8.26	
2025-01-07 23:02:40.02	55.78	8.26	
2025-01-07 23:02:40.22	55.82	8.27	
2025-01-07 23:02:40.42	55.85	8.28	
2025-01-07 23:02:40.63	55.89	8.28	
2025-01-07 23:02:40.84	55.93	8.29	
2025-01-07 23:02:41.04	55.96	8.29	
2025-01-07 23:02:41.25	56.00	8.30	
2025-01-07 23:02:41.45	56.04	8.31	
2025-01-07 23:02:41.66	56.08	8.31	
2025-01-07 23:02:41.86	56.11	8.32	
2025-01-07 23:02:42.07	56.15	8.32	
2025-01-07 23:02:42.27	56.19	8.33	
2025-01-07 23:02:42.48	56.22	8.34	
2025-01-07 23:02:42.68	56.26	8.34	
2025-01-07 23:02:42.89	56.30	8.35	
2025-01-07 23:02:43.10	56.34	8.36	
2025-01-07 23:02:43.30	56.37	8.36	
2025-01-07 23:02:43.51	56.41	8.37	
2025-01-07 23:02:43.73	56.45	8.37	
2025-01-07 23:02:43.93	56.49	8.38	
2025-01-07 23:02:44.14	56.52	8.39	
2025-01-07 23:02:44.34	56.56	8.39	
2025-01-07 23:02:44.55	56.60	8.40	
2025-01-07 23:02:44.75	56.64	8.40	
2025-01-07 23:02:44.96	56.67	8.41	
2025-01-07 23:02:45.17	56.71	8.42	
2025-01-07 23:02:45.37	56.75	8.42	
2025-01-07 23:02:45.58	56.79	8.43	
2025-01-07 23:02:45.78	56.82	8.43	
2025-01-07 23:02:45.99	56.86	8.44	
2025-01-07 23:02:46.19	56.90	8.45	
2025-01-07 23:02:46.40	56.93	8.45	
2025-01-07 23:02:46.60	56.97	8.46	
2025-01-07 23:02:46.81	57.01	8.46	
2025-01-07 23:02:47.01	57.05	8.47	
2025-01-07 23:02:47.22	57.08	8.47	
2025-01-07 23:02:47.43	57.12	8.48	
2025-01-07 23:02:47.63	57.16	8.49	
2025-01-07 23:02:47.84	57.20	8.49	
2025-01-07 23:02:48.04	57.23	8.50	
2025-01-07 23:02:48.24	57.27	8.50	
2025-01-07 23:02:48.45	57.31	8.51	
2025-01-07 23:02:48.65	57.35	8.52	
2025-01-07 23:02:48.86	57.38	8.52	
2025-01-07 23:02:49.06	57.42	8.53	
2025-01-07 23:02:49.27	57.46	8.53	
2025-01-07 23:02:49.47	57.50	8.54	
2025-01-07 23:02:49.68	57.53	8.54	
2025-01-07 23:02:49.88	57.57	8.55	
2025-01-07 23:02:50.09	57.61	8.56	
2025-01-07 23:02:50.29	57.65	8.56	
2025-01-07 23:02:50.50	57.68	8.57	
2025-01-07 23:02:50.70	57.72	8.57	
2025-01-07 23:02:50.91	57.76	8.58	
2025-01-07 23:02:51.11	57.80	8.58	
2025-01-07 23:02:51.32	57.83	8.59	
2025-01-07 23:02:51.52	57.87	8.60	
2025-01-07 23:02:51.73	57.91	8.60	
2025-01-07 23:02:51.93	57.95	8.61	
2025-01-07 23:02:52.14	57.99	8.61	
2025-01-07 23:02:52.34	58.02	8.62	
2025-01-07 23:02:52.55	58.06	8.62	
2025-01-07 23:02:52.75	58.10	8.63	
2025-01-07 23:02:52.96	58.14	8.64	
2025-01-07 23:02:53.16	58.17	8.64	
2025-01-07 23:02:53.37	58.21	8.65	
2025-01-07 23:02:53.57	58.25	8.65	
2025-01-07 23:02:53.78	58.29	8.66	
2025-01-07 23:02:53.98	58.32	8.66	
2025-01-07 23:02:54.19	58.36	8.67	
2025-01-07 23:02:54.39	58.40	8.67	
2025-01-07 23:02:54.60	58.44	8.68	
2025-01-07 23:02:54.81	58.48	8.69	
2025-01-07 23:02:55.01	58.52	8.69	
2025-01-07 23:02:55.22	58.55	8.70	
2025-01-07 23:02:55.42	58.59	8.70	
2025-01-07 23:02:55.63	58.63	8.71	
2025-01-07 23:02:55.83	58.67	8.71	
2025-01-07 23:02:56.04	58.71	8.72	
2025-01-07 23:02:56.24	58.74	8.72	
2025-01-07 23:02:56.45	58.78	8.73	
2025-01-07 23:02:56.65	58.82	8.74	
2025-01-07 23:02:56.86	58.86	8.74	
2025-01-07 23:02:57.06	58.90	8.75	
2025-01-07 23:02:57.27	58.93	8.75	
2025-01-07 23:02:57.47	58.97	8.76	
2025-01-07 23:02:57.67	59.01	8.76	
2025-01-07 23:02:57.88	59.05	8.77	
2025-01-07 23:02:58.09	59.09	8.77	
2025-01-07 23:02:58.29	59.12	8.78	
2025-01-07 23:02:58.50	59.16	8.78	
2025-01-07 23:02:58.70	59.20	8.79	
2025-01-07 23:02:58.90	59.24	8.80	
2025-01-07 23:02:59.11	59.28	8.80	
2025-01-07 23:02:59.32	59.32	8.81	
2025-01-07 23:02:59.52	59.35	8.81	
2025-01-07 23:02:59.72	59.39	8.82	
2025-01-07 23:02:59.93	59.43	8.82	
2025-01-07 23:03:00.13	59.47	8.83	
2025-01-07 23:03:00.34	59.51	8.83	
2025-01-07 23:03:00.55	59.55	8.84	
2025-01-07 23:03:00.75	59.58	8.84	
2025-01-07 23:03:00.96	59.62	8.85	
2025-01-07 23:03:01.16	59.66	8.85	
2025-01-07 23:03:01.37	59.70	8.86	
2025-01-07 23:03:01.57	59.74	8.86	
2025-01-07 23:03:01.78	59.78	8.87	
2025-01-07 23:03:01.98	59.81	8.87	
2025-01-07 23:03:02.19	59.85	8.88	
2025-01-07 23:03:02.39	59.89	8.89	
2025-01-07 23:03:02.60	59.93	8.89	
2025-01-07 23:03:02.80	59.97	8.90	
2025-01-07 23:03:03.02	60.01	8.90	
2025-01-07 23:03:03.23	60.05	8.91	
2025-01-07 23:03:03.43	60.09	8.91	
2025-01-07 23:03:03.64	60.13	8.92	
2025-01-07 23:03:03.84	60.16	8.92	
2025-01-07 23:03:04.04	60.20	8.93	
2025-01-07 23:03:04.25	60.24	8.93	
2025-01-07 23:03:04.45	60.28	8.94	
2025-01-07 23:03:04.66	60.32	8.94	
2025-01-07 23:03:04.86	60.36	8.95	
2025-01-07 23:03:05.07	60.40	8.95	
2025-01-07 23:03:05.27	60.43	8.96	
2025-01-07 23:03:05.48	60.47	8.96	
2025-01-07 23:03:05.68	60.51	8.97	
2025-01-07 23:03:05.89	60.55	8.97	
2025-01-07 23:03:06.09	60.59	8.98	
2025-01-07 23:03:06.30	60.63	8.98	
2025-01-07 23:03:06.50	60.67	8.99	
2025-01-07 23:03:06.71	60.71	8.99	
2025-01-07 23:03:06.91	60.74	9.00	
2025-01-07 23:03:07.12	60.78	9.00	
2025-01-07 23:03:07.32	60.82	9.01	
2025-01-07 23:03:07.53	60.86	9.01	
2025-01-07 23:03:07.74	60.90	9.02	
2025-01-07 23:03:07.94	60.94	9.02	
2025-01-07 23:03:08.15	60.98	9.03	
2025-01-07 23:03:08.35	61.02	9.03	
2025-01-07 23:03:08.56	61.06	9.04	
2025-01-07 23:03:08.76	61.10	9.04	
2025-01-07 23:03:08.97	61.14	9.05	
2025-01-07 23:03:09.18	61.18	9.05	
2025-01-07 23:03:09.38	61.21	9.06	
2025-01-07 23:03:09.58	61.25	9.06	
2025-01-07 23:03:09.79	61.29	9.07	
2025-01-07 23:03:10.00	61.33	9.07	
2025-01-07 23:03:10.20	61.37	9.08	
2025-01-07 23:03:10.41	61.41	9.08	
2025-01-07 23:03:10.61	61.45	9.09	
2025-01-07 23:03:10.82	61.49	9.09	
2025-01-07 23:03:11.02	61.53	9.10	
2025-01-07 23:03:11.23	61.57	9.10	
2025-01-07 23:03:11.43	61.60	9.11	
2025-01-07 23:03:11.64	61.64	9.11	
2025-01-07 23:03:11.85	61.68	9.12	
2025-01-07 23:03:12.05	61.72	9.12	
2025-01-07 23:03:12.26	61.76	9.12	
2025-01-07 23:03:12.46	61.80	9.13	
2025-01-07 23:03:12.67	61.84	9.13	
2025-01-07 23:03:12.87	61.88	9.14	
2025-01-07 23:03:13.08	61.92	9.14	
2025-01-07 23:03:13.29	61.96	9.15	
2025-01-07 23:03:13.49	62.00	9.15	
2025-01-07 23:03:13.70	62.04	9.16	
2025-01-07 23:03:13.90	62.08	9.16	
2025-01-07 23:03:14.11	62.12	9.17	
2025-01-07 23:03:14.31	62.15	9.17	
2025-01-07 23:03:14.51	62.19	9.18	
2025-01-07 23:03:14.72	62.23	9.18	
2025-01-07 23:03:14.93	62.27	9.19	
2025-01-07 23:03:15.13	62.31	9.19	
2025-01-07 23:03:15.34	62.35	9.19	
2025-01-07 23:03:15.54	62.39	9.20	
2025-01-07 23:03:15.74	62.43	9.20	
2025-01-07 23:03:15.95	62.47	9.21	
2025-01-07 23:03:16.16	62.51	9.21	
2025-01-07 23:03:16.36	62.55	9.22	
2025-01-07 23:03:16.57	62.59	9.22	
2025-01-07 23:03:16.77	62.63	9.23	
2025-01-07 23:03:16.98	62.67	9.23	
2025-01-07 23:03:17.19	62.71	9.24	
2025-01-07 23:03:17.39	62.75	9.24	
2025-01-07 23:03:17.60	62.79	9.24	
2025-01-07 23:03:17.80	62.83	9.25	
2025-01-07 23:03:18.01	62.87	9.25	
2025-01-07 23:03:18.21	62.91	9.26	
2025-01-07 23:03:18.42	62.95	9.26	
2025-01-07 23:03:18.63	62.99	9.27	
2025-01-07 23:03:18.83	63.02	9.27	
2025-01-07 23:03:19.04	63.07	9.28	
2025-01-07 23:03:19.24	63.10	9.28	
2025-01-07 23:03:19.45	63.14	9.28	
2025-01-07 23:03:19.65	63.18	9.29	
2025-01-07 23:03:19.86	63.22	9.29	
2025-01-07 23:03:20.06	63.26	9.30	
2025-01-07 23:03:20.27	63.30	9.30	
2025-01-07 23:03:20.48	63.34	9.31	
2025-01-07 23:03:20.69	63.38	9.31	
2025-01-07 23:03:20.90	63.43	9.32	
2025-01-07 23:03:21.10	63.46	9.32	
2025-01-07 23:03:21.31	63.51	9.32	
2025-01-07 23:03:21.51	63.54	9.33	
2025-01-07 23:03:21.72	63.58	9.33	
2025-01-07 23:03:21.92	63.62	9.34	
2025-01-07 23:03:22.13	63.66	9.34	
2025-01-07 23:03:22.33	63.70	9.35	
2025-01-07 23:03:22.54	63.74	9.35	
2025-01-07 23:03:22.75	63.78	9.35	
2025-01-07 23:03:22.95	63.82	9.36	
2025-01-07 23:03:23.17	63.87	9.36	
2025-01-07 23:03:23.38	63.91	9.37	
2025-01-07 23:03:23.58	63.95	9.37	
2025-01-07 23:03:23.79	63.99	9.38	
2025-01-07 23:03:23.99	64.03	9.38	
2025-01-07 23:03:24.20	64.07	9.38	
2025-01-07 23:03:24.40	64.11	9.39	
2025-01-07 23:03:24.61	64.15	9.39	
2025-01-07 23:03:24.81	64.19	9.40	
2025-01-07 23:03:25.02	64.23	9.40	
2025-01-07 23:03:25.22	64.27	9.40	
2025-01-07 23:03:25.43	64.31	9.41	
2025-01-07 23:03:25.63	64.35	9.41	
2025-01-07 23:03:25.84	64.39	9.42	
2025-01-07 23:03:26.04	64.43	9.42	
2025-01-07 23:03:26.25	64.47	9.42	
2025-01-07 23:03:26.46	64.51	9.43	
2025-01-07 23:03:26.66	64.55	9.43	
2025-01-07 23:03:26.87	64.59	9.44	
2025-01-07 23:03:27.07	64.63	9.44	
2025-01-07 23:03:27.28	64.67	9.44	
2025-01-07 23:03:27.48	64.71	9.45	
2025-01-07 23:03:27.68	64.75	9.45	
2025-01-07 23:03:27.89	64.79	9.46	
2025-01-07 23:03:28.09	64.83	9.46	
2025-01-07 23:03:28.30	64.87	9.46	
2025-01-07 23:03:28.50	64.91	9.47	
2025-01-07 23:03:28.71	64.95	9.47	
2025-01-07 23:03:28.91	64.99	9.48	
2025-01-07 23:03:29.12	65.03	9.48	
2025-01-07 23:03:29.33	65.07	9.48	
2025-01-07 23:03:29.53	65.11	9.49	
2025-01-07 23:03:29.73	65.15	9.49	
2025-01-07 23:03:29.94	65.19	9.50	
2025-01-07 23:03:30.14	65.23	9.50	
2025-01-07 23:03:30.35	65.27	9.50	
2025-01-07 23:03:30.55	65.31	9.51	
2025-01-07 23:03:30.76	65.35	9.51	
2025-01-07 23:03:30.97	65.39	9.51	
2025-01-07 23:03:31.17	65.43	9.52	
2025-01-07 23:03:31.37	65.47	9.52	
2025-01-07 23:03:31.58	65.51	9.53	
2025-01-07 23:03:31.78	65.55	9.53	
2025-01-07 23:03:31.99	65.59	9.53	
2025-01-07 23:03:32.20	65.63	9.54	
2025-01-07 23:03:32.40	65.67	9.54	
2025-01-07 23:03:32.61	65.71	9.54	
2025-01-07 23:03:32.81	65.75	9.55	
2025-01-07 23:03:33.01	65.79	9.55	
2025-01-07 23:03:33.22	65.84	9.56	
2025-01-07 23:03:33.43	65.88	9.56	
2025-01-07 23:03:33.63	65.92	9.56	
2025-01-07 23:03:33.83	65.96	9.57	
2025-01-07 23:03:34.04	66.00	9.57	
2025-01-07 23:03:34.25	66.04	9.57	
2025-01-07 23:03:34.45	66.08	9.58	
2025-01-07 23:03:34.66	66.12	9.58	
2025-01-07 23:03:34.86	66.16	9.58	
2025-01-07 23:03:35.07	66.20	9.59	
2025-01-07 23:03:35.27	66.24	9.59	
2025-01-07 23:03:35.48	66.28	9.59	
2025-01-07 23:03:35.68	66.32	9.60	
2025-01-07 23:03:35.89	66.36	9.60	
2025-01-07 23:03:36.10	66.40	9.61	
2025-01-07 23:03:36.30	66.44	9.61	
2025-01-07 23:03:36.51	66.49	9.61	
2025-01-07 23:03:36.71	66.52	9.62	
2025-01-07 23:03:36.92	66.57	9.62	
2025-01-07 23:03:37.12	66.61	9.62	
2025-01-07 23:03:37.33	66.65	9.63	
2025-01-07 23:03:37.54	66.69	9.63	
2025-01-07 23:03:37.74	66.73	9.63	
2025-01-07 23:03:37.94	66.77	9.64	
2025-01-07 23:03:38.16	66.81	9.64	
2025-01-07 23:03:38.37	66.85	9.64	
2025-01-07 23:03:38.57	66.89	9.65	
2025-01-07 23:03:38.78	66.94	9.65	
2025-01-07 23:03:38.98	66.98	9.65	
2025-01-07 23:03:39.19	67.02	9.66	
2025-01-07 23:03:39.40	67.06	9.66	
2025-01-07 23:03:39.60	67.10	9.66	
2025-01-07 23:03:39.80	67.14	9.67	
2025-01-07 23:03:40.01	67.18	9.67	
2025-01-07 23:03:40.21	67.22	9.67	
2025-01-07 23:03:40.42	67.26	9.68	
2025-01-07 23:03:40.63	67.30	9.68	
2025-01-07 23:03:40.83	67.34	9.68	
2025-01-07 23:03:41.04	67.39	9.69	
2025-01-07 23:03:41.25	67.43	9.69	
2025-01-07 23:03:41.46	67.47	9.69	
2025-01-07 23:03:41.66	67.51	9.70	
2025-01-07 23:03:41.87	67.55	9.70	
2025-01-07 23:03:42.07	67.59	9.70	
2025-01-07 23:03:42.28	67.63	9.71	
2025-01-07 23:03:42.48	67.67	9.71	
2025-01-07 23:03:42.69	67.71	9.71	
2025-01-07 23:03:42.89	67.75	9.71	
2025-01-07 23:03:43.10	67.80	9.72	
2025-01-07 23:03:43.30	67.84	9.72	
2025-01-07 23:03:43.51	67.88	9.72	
2025-01-07 23:03:43.71	67.92	9.73	
2025-01-07 23:03:43.92	67.96	9.73	
2025-01-07 23:03:44.13	68.00	9.73	
2025-01-07 23:03:44.33	68.04	9.74	
2025-01-07 23:03:44.54	68.08	9.74	
2025-01-07 23:03:44.74	68.12	9.74	
2025-01-07 23:03:44.95	68.17	9.75	
2025-01-07 23:03:45.15	68.21	9.75	
2025-01-07 23:03:45.36	68.25	9.75	
2025-01-07 23:03:45.56	68.29	9.75	
2025-01-07 23:03:45.77	68.33	9.76	
2025-01-07 23:03:45.97	68.37	9.76	
2025-01-07 23:03:46.18	68.41	9.76	
2025-01-07 23:03:46.38	68.45	9.77	
2025-01-07 23:03:46.59	68.49	9.77	
2025-01-07 23:03:46.79	68.53	9.77	
2025-01-07 23:03:47.00	68.58	9.77	
2025-01-07 23:03:47.21	68.62	9.78	
2025-01-07 23:03:47.41	68.66	9.78	
2025-01-07 23:03:47.62	68.70	9.78	
2025-01-07 23:03:47.82	68.74	9.79	
2025-01-07 23:03:48.03	68.78	9.79	
2025-01-07 23:03:48.23	68.82	9.79	
2025-01-07 23:03:48.44	68.86	9.79	
2025-01-07 23:03:48.64	68.91	9.80	
2025-01-07 23:03:48.85	68.95	9.80	
2025-01-07 23:03:49.05	68.99	9.80	
2025-01-07 23:03:49.26	69.03	9.81	
2025-01-07 23:03:49.47	69.07	9.81	
2025-01-07 23:03:49.67	69.11	9.81	
2025-01-07 23:03:49.88	69.15	9.81	
2025-01-07 23:03:50.08	69.19	9.82	
2025-01-07 23:03:50.29	69.24	9.82	
2025-01-07 23:03:50.49	69.28	9.82	
2025-01-07 23:03:50.70	69.32	9.82	
2025-01-07 23:03:50.90	69.36	9.83	
2025-01-07 23:03:51.10	69.40	9.83	
2025-01-07 23:03:51.31	69.44	9.83	
2025-01-07 23:03:51.52	69.48	9.84	
2025-01-07 23:03:51.72	69.52	9.84	
2025-01-07 23:03:51.93	69.57	9.84	
2025-01-07 23:03:52.13	69.61	9.84	
2025-01-07 23:03:52.33	69.65	9.85	
2025-01-07 23:03:52.54	69.69	9.85	
2025-01-07 23:03:52.75	69.73	9.85	
2025-01-07 23:03:52.95	69.77	9.85	
2025-01-07 23:03:53.16	69.81	9.86	
2025-01-07 23:03:53.36	69.86	9.86	
2025-01-07 23:03:53.57	69.90	9.86	
2025-01-07 23:03:53.77	69.94	9.86	
2025-01-07 23:03:53.98	69.98	9.87	
2025-01-07 23:03:54.18	70.02	9.87	
2025-01-07 23:03:54.39	70.06	9.87	
2025-01-07 23:03:54.59	70.10	9.87	
2025-01-07 23:03:54.80	70.15	9.88	
2025-01-07 23:03:55.01	70.19	9.88	
2025-01-07 23:03:55.21	70.23	9.88	
2025-01-07 23:03:55.41	70.27	9.88	
2025-01-07 23:03:55.62	70.31	9.89	
2025-01-07 23:03:55.83	70.35	9.89	
2025-01-07 23:03:56.03	70.39	9.89	
2025-01-07 23:03:56.24	70.44	9.89	
2025-01-07 23:03:56.44	70.48	9.89	
2025-01-07 23:03:56.65	70.52	9.90	
2025-01-07 23:03:56.85	70.56	9.90	
2025-01-07 23:03:57.06	70.60	9.90	
2025-01-07 23:03:57.26	70.64	9.90	
2025-01-07 23:03:57.47	70.69	9.91	
2025-01-07 23:03:57.67	70.73	9.91	
2025-01-07 23:03:57.88	70.77	9.91	
2025-01-07 23:03:58.08	70.81	9.91	
2025-01-07 23:03:58.29	70.85	9.91	
2025-01-07 23:03:58.49	70.89	9.92	
2025-01-07 23:03:58.70	70.93	9.92	
2025-01-07 23:03:58.90	70.98	9.92	
2025-01-07 23:03:59.11	71.02	9.92	
2025-01-07 23:03:59.31	71.06	9.93	
2025-01-07 23:03:59.52	71.10	9.93	
2025-01-07 23:03:59.72	71.14	9.93	
2025-01-07 23:03:59.93	71.18	9.93	
2025-01-07 23:04:00.13	71.22	9.93	
2025-01-07 23:04:00.34	71.27	9.94	
2025-01-07 23:04:00.54	71.31	9.94	
2025-01-07 23:04:00.75	71.35	9.94	
2025-01-07 23:04:00.95	71.39	9.94	
2025-01-07 23:04:01.16	71.43	9.94	
2025-01-07 23:04:01.37	71.48	9.95	
2025-01-07 23:04:01.57	71.52	9.95	
2025-01-07 23:04:01.78	71.56	9.95	
2025-01-07 23:04:01.98	71.60	9.95	
2025-01-07 23:04:02.19	71.64	9.95	
2025-01-07 23:04:02.39	71.68	9.96	
2025-01-07 23:04:02.60	71.73	9.96	
2025-01-07 23:04:02.82	71.77	9.96	
2025-01-07 23:04:03.02	71.81	9.96	
2025-01-07 23:04:03.23	71.85	9.96	
2025-01-07 23:04:03.43	71.89	9.97	
2025-01-07 23:04:03.64	71.94	9.97	
2025-01-07 23:04:03.84	71.98	9.97	
2025-01-07 23:04:04.05	72.02	9.97	
2025-01-07 23:04:04.25	72.06	9.97	
2025-01-07 23:04:04.46	72.10	9.98	
2025-01-07 23:04:04.66	72.15	9.98	
2025-01-07 23:04:04.88	72.19	9.98	
2025-01-07 23:04:05.09	72.23	9.98	
2025-01-07 23:04:05.29	72.27	9.98	
2025-01-07 23:04:05.50	72.32	9.99	
2025-01-07 23:04:05.70	72.36	9.99	
2025-01-07 23:04:05.91	72.40	9.99	
2025-01-07 23:04:06.11	72.44	9.99	
2025-01-07 23:04:06.32	72.48	9.99	
2025-01-07 23:04:06.52	72.52	9.99	
2025-01-07 23:04:06.73	72.57	10.00	
2025-01-07 23:04:06.93	72.61	10.00	
2025-01-07 23:04:07.14	72.65	10.00	
2025-01-07 23:04:07.35	72.69	10.00	
2025-01-07 23:04:07.55	72.73	10.00	
2025-01-07 23:04:07.76	72.78	10.00	
2025-01-07 23:04:07.96	72.82	10.01	
2025-01-07 23:04:08.17	72.86	10.01	
2025-01-07 23:04:08.38	72.90	10.01	
2025-01-07 23:04:08.58	72.94	10.01	
2025-01-07 23:04:08.79	72.99	10.01	
2025-01-07 23:04:08.99	73.03	10.01	
2025-01-07 23:04:09.21	73.07	10.02	
2025-01-07 23:04:09.42	73.12	10.02	
2025-01-07 23:04:09.62	73.16	10.02	
2025-01-07 23:04:09.83	73.20	10.02	
2025-01-07 23:04:10.04	73.24	10.02	
2025-01-07 23:04:10.25	73.28	10.02	
2025-01-07 23:04:10.46	73.33	10.02	
2025-01-07 23:04:10.66	73.37	10.03	
2025-01-07 23:04:10.87	73.41	10.03	
2025-01-07 23:04:11.07	73.45	10.03	
2025-01-07 23:04:11.28	73.49	10.03	
2025-01-07 23:04:11.48	73.54	10.03	
2025-01-07 23:04:11.69	73.58	10.03	
2025-01-07 23:04:11.89	73.62	10.03	
2025-01-07 23:04:12.10	73.66	10.04	
2025-01-07 23:04:12.30	73.70	10.04	
2025-01-07 23:04:12.51	73.75	10.04	
2025-01-07 23:04:12.71	73.79	10.04	
2025-01-07 23:04:12.92	73.83	10.04	
2025-01-07 23:04:13.12	73.87	10.04	
2025-01-07 23:04:13.33	73.91	10.04	
2025-01-07 23:04:13.53	73.95	10.04	
2025-01-07 23:04:13.74	74.00	10.05	
2025-01-07 23:04:13.94	74.04	10.05	
2025-01-07 23:04:14.15	74.08	10.05	
2025-01-07 23:04:14.36	74.12	10.05	
2025-01-07 23:04:14.56	74.17	10.05	
2025-01-07 23:04:14.76	74.21	10.05	
2025-01-07 23:04:14.97	74.25	10.05	
2025-01-07 23:04:15.18	74.29	10.05	
2025-01-07 23:04:15.38	74.33	10.06	
2025-01-07 23:04:15.59	74.38	10.06	
2025-01-07 23:04:15.79	74.42	10.06	
2025-01-07 23:04:16.00	74.46	10.06	
2025-01-07 23:04:16.20	74.50	10.06	
2025-01-07 23:04:16.41	74.54	10.06	
2025-01-07 23:04:16.61	74.59	10.06	
2025-01-07 23:04:16.82	74.63	10.06	
2025-01-07 23:04:17.03	74.67	10.06	
2025-01-07 23:04:17.23	74.71	10.07	
2025-01-07 23:04:17.44	74.76	10.07	
2025-01-07 23:04:17.64	74.80	10.07	
2025-01-07 23:04:17.85	74.84	10.07	
2025-01-07 23:04:18.06	74.88	10.07	
2025-01-07 23:04:18.26	74.92	10.07	
2025-01-07 23:04:18.47	74.97	10.07	
2025-01-07 23:04:18.67	75.01	10.07	
2025-01-07 23:04:18.88	75.05	10.07	
2025-01-07 23:04:19.08	75.09	10.07	
2025-01-07 23:04:19.29	75.13	10.08	
2025-01-07 23:04:19.50	75.18	10.08	
2025-01-07 23:04:19.70	75.22	10.08	
2025-01-07 23:04:19.90	75.26	10.08	
2025-01-07 23:04:20.11	75.30	10.08	
2025-01-07 23:04:20.31	75.34	10.08	
2025-01-07 23:04:20.52	75.39	10.08	
2025-01-07 23:04:20.73	75.43	10.08	
2025-01-07 23:04:20.94	75.47	10.08	
2025-01-07 23:04:21.14	75.51	10.08	
2025-01-07 23:04:21.35	75.56	10.08	
2025-01-07 23:04:21.55	75.60	10.09	
2025-01-07 23:04:21.76	75.64	10.09	
2025-01-07 23:04:21.96	75.68	10.09	
2025-01-07 23:04:22.17	75.73	10.09	
2025-01-07 23:04:22.38	75.77	10.09	
2025-01-07 23:04:22.58	75.81	10.09	
2025-01-07 23:04:22.79	75.85	10.09	
2025-01-07 23:04:22.99	75.89	10.09	
2025-01-07 23:04:23.20	75.94	10.09	
2025-01-07 23:04:23.40	75.98	10.09	
2025-01-07 23:04:23.61	76.02	10.09	
2025-01-07 23:04:23.81	76.06	10.09	
2025-01-07 23:04:24.02	76.10	10.09	
2025-01-07 23:04:24.22	76.15	10.09	
2025-01-07 23:04:24.43	76.19	10.09	
2025-01-07 23:04:24.64	76.23	10.10	
2025-01-07 23:04:24.84	76.27	10.10	
2025-01-07 23:04:25.05	76.32	10.10	
2025-01-07 23:04:25.25	76.36	10.10	
2025-01-07 23:04:25.46	76.40	10.10	
2025-01-07 23:04:25.66	76.44	10.10	
2025-01-07 23:04:25.86	76.48	10.10	
2025-01-07 23:04:26.07	76.53	10.10	
2025-01-07 23:04:26.28	76.57	10.10	
2025-01-07 23:04:26.48	76.61	10.10	
2025-01-07 23:04:26.69	76.65	10.10	
2025-01-07 23:04:26.89	76.69	10.10	
2025-01-07 23:04:27.10	76.74	10.10	
2025-01-07 23:04:27.30	76.78	10.10	
2025-01-07 23:04:27.51	76.82	10.10	
2025-01-07 23:04:27.71	76.86	10.10	
2025-01-07 23:04:27.92	76.91	10.10	
2025-01-07 23:04:28.12	76.95	10.10	
2025-01-07 23:04:28.33	76.99	10.10	
2025-01-07 23:04:28.53	77.03	10.10	
2025-01-07 23:04:28.74	77.07	10.10	
2025-01-07 23:04:28.94	77.12	10.10	
2025-01-07 23:04:29.15	77.16	10.10	
2025-01-07 23:04:29.35	77.20	10.11	
2025-01-07 23:04:29.56	77.24	10.11	
2025-01-07 23:04:29.76	77.28	10.11	
2025-01-07 23:04:29.97	77.33	10.11	
2025-01-07 23:04:30.17	77.37	10.11	
2025-01-07 23:04:30.38	77.41	10.11	
2025-01-07 23:04:30.59	77.45	10.11	
2025-01-07 23:04:30.80	77.50	10.11	
2025-01-07 23:04:31.01	77.54	10.11	
2025-01-07 23:04:31.21	77.58	10.11	
2025-01-07 23:04:31.42	77.63	10.11	
2025-01-07 23:04:31.62	77.67	10.11	
2025-01-07 23:04:31.83	77.71	10.11	
2025-01-07 23:04:32.04	77.75	10.11	
2025-01-07 23:04:32.24	77.79	10.11	
2025-01-07 23:04:32.45	77.84	10.11	
2025-01-07 23:04:32.65	77.88	10.11	
2025-01-07 23:04:32.85	77.92	10.11	
2025-01-07 23:04:33.06	77.96	10.11	
2025-01-07 23:04:33.27	78.01	10.11	
2025-01-07 23:04:33.47	78.05	10.11	
2025-01-07 23:04:33.68	78.09	10.11	
2025-01-07 23:04:33.88	78.13	10.11	
2025-01-07 23:04:34.09	78.17	10.11	
2025-01-07 23:04:34.30	78.22	10.11	
2025-01-07 23:04:34.50	78.26	10.11	
2025-01-07 23:04:34.71	78.30	10.11	
2025-01-07 23:04:34.91	78.34	10.11	
2025-01-07 23:04:35.12	78.39	10.11	
2025-01-07 23:04:35.32	78.43	10.11	
2025-01-07 23:04:35.53	78.47	10.11	
2025-01-07 23:04:35.73	78.51	10.11	
2025-01-07 23:04:35.94	78.55	10.11	
2025-01-07 23:04:36.14	78.60	10.11	
2025-01-07 23:04:36.35	78.64	10.11	
2025-01-07 23:04:36.55	78.68	10.11	
2025-01-07 23:04:36.76	78.72	10.11	
2025-01-07 23:04:36.96	78.76	10.11	
2025-01-07 23:04:37.17	78.81	10.11	
2025-01-07 23:04:37.37	78.85	10.11	
2025-01-07 23:04:37.58	78.89	10.11	
2025-01-07 23:04:37.78	78.93	10.11	
2025-01-07 23:04:37.99	78.98	10.11	
2025-01-07 23:04:38.19	79.02	10.11	
2025-01-07 23:04:38.40	79.06	10.11	
2025-01-07 23:04:38.60	79.10	10.10	
2025-01-07 23:04:38.81	79.14	10.10	
2025-01-07 23:04:39.01	79.19	10.10	
2025-01-07 23:04:39.22	79.23	10.10	
2025-01-07 23:04:39.42	79.27	10.10	
2025-01-07 23:04:39.63	79.31	10.10	
2025-01-07 23:04:39.84	79.36	10.10	
2025-01-07 23:04:40.04	79.40	10.10	
2025-01-07 23:04:40.24	79.44	10.10	
2025-01-07 23:04:40.45	79.48	10.10	
2025-01-07 23:04:40.65	79.52	10.10	
2025-01-07 23:04:40.86	79.57	10.10	
2025-01-07 23:04:41.07	79.61	10.10	
2025-01-07 23:04:41.27	79.65	10.10	
2025-01-07 23:04:41.48	79.69	10.10	
2025-01-07 23:04:41.68	79.73	10.10	
2025-01-07 23:04:41.89	79.78	10.10	
2025-01-07 23:04:42.09	79.82	10.10	
2025-01-07 23:04:42.31	79.86	10.10	
2025-01-07 23:04:42.52	79.91	10.10	
2025-01-07 23:04:42.72	79.95	10.10	
2025-01-07 23:04:42.93	79.99	10.10	
2025-01-07 23:04:43.13	80.03	10.10	
2025-01-07 23:04:43.33	80.07	10.09	
2025-01-07 23:04:43.54	80.12	10.09	
2025-01-07 23:04:43.75	80.16	10.09	
2025-01-07 23:04:43.95	80.20	10.09	
2025-01-07 23:04:44.16	80.24	10.09	
2025-01-07 23:04:44.36	80.28	10.09	
2025-01-07 23:04:44.57	80.33	10.09	
2025-01-07 23:04:44.77	80.37	10.09	
2025-01-07 23:04:44.98	80.41	10.09	
2025-01-07 23:04:45.19	80.46	10.09	
2025-01-07 23:04:45.39	80.50	10.09	
2025-01-07 23:04:45.59	80.54	10.09	
2025-01-07 23:04:45.80	80.58	10.09	
2025-01-07 23:04:46.00	80.62	10.09	
2025-01-07 23:04:46.22	80.67	10.08	
2025-01-07 23:04:46.42	80.71	10.08	
2025-01-07 23:04:46.63	80.75	10.08	
2025-01-07 23:04:46.83	80.79	10.08	
2025-01-07 23:04:47.04	80.84	10.08	
2025-01-07 23:04:47.24	80.88	10.08	
2025-01-07 23:04:47.45	80.92	10.08	
2025-01-07 23:04:47.67	80.96	10.08	
2025-01-07 23:04:47.87	81.01	10.08	
2025-01-07 23:04:48.08	81.05	10.08	
2025-01-07 23:04:48.28	81.09	10.08	
2025-01-07 23:04:48.49	81.13	10.08	
2025-01-07 23:04:48.69	81.17	10.07	
2025-01-07 23:04:48.90	81.22	10.07	
2025-01-07 23:04:49.11	81.26	10.07	
2025-01-07 23:04:49.31	81.30	10.07	
2025-01-07 23:04:49.52	81.34	10.07	
2025-01-07 23:04:49.72	81.38	10.07	
2025-01-07 23:04:49.93	81.43	10.07	
2025-01-07 23:04:50.13	81.47	10.07	
2025-01-07 23:04:50.34	81.51	10.07	
2025-01-07 23:04:50.54	81.55	10.07	
2025-01-07 23:04:50.75	81.60	10.06	
2025-01-07 23:04:50.95	81.64	10.06	
2025-01-07 23:04:51.16	81.68	10.06	
2025-01-07 23:04:51.36	81.72	10.06	
2025-01-07 23:04:51.57	81.76	10.06	
2025-01-07 23:04:51.77	81.81	10.06	
2025-01-07 23:04:51.98	81.85	10.06	
2025-01-07 23:04:52.18	81.89	10.06	
2025-01-07 23:04:52.39	81.93	10.06	
2025-01-07 23:04:52.59	81.97	10.05	
2025-01-07 23:04:52.80	82.02	10.05	
2025-01-07 23:04:53.00	82.06	10.05	
2025-01-07 23:04:53.21	82.10	10.05	
2025-01-07 23:04:53.42	82.14	10.05	
2025-01-07 23:04:53.62	82.18	10.05	
2025-01-07 23:04:53.83	82.23	10.05	
2025-01-07 23:04:54.03	82.27	10.05	
2025-01-07 23:04:54.24	82.31	10.04	
2025-01-07 23:04:54.44	82.35	10.04	
2025-01-07 23:04:54.65	82.40	10.04	
2025-01-07 23:04:54.85	82.44	10.04	
2025-01-07 23:04:55.06	82.48	10.04	
2025-01-07 23:04:55.26	82.52	10.04	
2025-01-07 23:04:55.47	82.56	10.04	
2025-01-07 23:04:55.67	82.60	10.04	
2025-01-07 23:04:55.88	82.65	10.03	
2025-01-07 23:04:56.08	82.69	10.03	
2025-01-07 23:04:56.29	82.73	10.03	
2025-01-07 23:04:56.49	82.77	10.03	
2025-01-07 23:04:56.70	82.81	10.03	
2025-01-07 23:04:56.90	82.86	10.03	
2025-01-07 23:04:57.11	82.90	10.03	
2025-01-07 23:04:57.31	82.94	10.02	
2025-01-07 23:04:57.52	82.98	10.02	
2025-01-07 23:04:57.72	83.02	10.02	
2025-01-07 23:04:57.93	83.07	10.02	
2025-01-07 23:04:58.13	83.11	10.02	
2025-01-07 23:04:58.34	83.15	10.02	
2025-01-07 23:04:58.54	83.19	10.01	
2025-01-07 23:04:58.75	83.23	10.01	
2025-01-07 23:04:58.96	83.28	10.01	
2025-01-07 23:04:59.16	83.32	10.01	
2025-01-07 23:04:59.37	83.36	10.01	
2025-01-07 23:04:59.57	83.40	10.01	
2025-01-07 23:04:59.78	83.44	10.00	
2025-01-07 23:04:59.98	83.48	10.00	
2025-01-07 23:05:00.19	83.53	10.00	
2025-01-07 23:05:00.41	83.57	10.00	
2025-01-07 23:05:00.61	83.61	10.00	
2025-01-07 23:05:00.82	83.66	10.00	
2025-01-07 23:05:01.02	83.70	9.99	
2025-01-07 23:05:01.23	83.74	9.99	
2025-01-07 23:05:01.43	83.78	9.99	
2025-01-07 23:05:01.64	83.82	9.99	
2025-01-07 23:05:01.84	83.86	9.99	
2025-01-07 23:05:02.05	83.91	9.99	
2025-01-07 23:05:02.25	83.95	9.98	
2025-01-07 23:05:02.46	83.99	9.98	
2025-01-07 23:05:02.66	84.03	9.98	
2025-01-07 23:05:02.87	84.07	9.98	
2025-01-07 23:05:03.07	84.12	9.98	
2025-01-07 23:05:03.28	84.16	9.98	
2025-01-07 23:05:03.48	84.20	9.97	
2025-01-07 23:05:03.69	84.24	9.97	
2025-01-07 23:05:03.90	84.28	9.97	
2025-01-07 23:05:04.10	84.33	9.97	
2025-01-07 23:05:04.31	84.37	9.97	
2025-01-07 23:05:04.51	84.41	9.96	
2025-01-07 23:05:04.72	84.45	9.96	
2025-01-07 23:05:04.92	84.49	9.96	
2025-01-07 23:05:05.13	84.53	9.96	
2025-01-07 23:05:05.33	84.58	9.96	
2025-01-07 23:05:05.53	84.62	9.95	
2025-01-07 23:05:05.74	84.66	9.95	
2025-01-07 23:05:05.94	84.70	9.95	
2025-01-07 23:05:06.15	84.74	9.95	
2025-01-07 23:05:06.35	84.78	9.95	
2025-01-07 23:05:06.56	84.83	9.94	
2025-01-07 23:05:06.76	84.87	9.94	
2025-01-07 23:05:06.97	84.91	9.94	
2025-01-07 23:05:07.17	84.95	9.94	
2025-01-07 23:05:07.38	84.99	9.94	
2025-01-07 23:05:07.58	85.03	9.93	
2025-01-07 23:05:07.79	85.08	9.93	
2025-01-07 23:05:07.99	85.12	9.93	
2025-01-07 23:05:08.20	85.16	9.93	
2025-01-07 23:05:08.40	85.20	9.93	
2025-01-07 23:05:08.61	85.24	9.92	
2025-01-07 23:05:08.81	85.28	9.92	
2025-01-07 23:05:09.03	85.33	9.92	
2025-01-07 23:05:09.24	85.37	9.92	
2025-01-07 23:05:09.44	85.41	9.91	
2025-01-07 23:05:09.64	85.45	9.91	
2025-01-07 23:05:09.85	85.49	9.91	
2025-01-07 23:05:10.05	85.53	9.91	
2025-01-07 23:05:10.26	85.58	9.91	
2025-01-07 23:05:10.46	85.62	9.90	
2025-01-07 23:05:10.67	85.66	9.90	
2025-01-07 23:05:10.87	85.70	9.90	
2025-01-07 23:05:11.08	85.74	9.90	
2025-01-07 23:05:11.28	85.78	9.89	
2025-01-07 23:05:11.49	85.83	9.89	
2025-01-07 23:05:11.69	85.87	9.89	
2025-01-07 23:05:11.90	85.91	9.89	
2025-01-07 23:05:12.10	85.95	9.88	
2025-01-07 23:05:12.31	85.99	9.88	
2025-01-07 23:05:12.52	86.03	9.88	
2025-01-07 23:05:12.72	86.08	9.88	
2025-01-07 23:05:12.93	86.12	9.87	
2025-01-07 23:05:13.13	86.16	9.87	
2025-01-07 23:05:13.34	86.20	9.87	
2025-01-07 23:05:13.54	86.24	9.87	
2025-01-07 23:05:13.75	86.28	9.86	
2025-01-07 23:05:13.95	86.32	9.86	
2025-01-07 23:05:14.16	86.37	9.86	
2025-01-07 23:05:14.36	86.41	9.86	
2025-01-07 23:05:14.57	86.45	9.85	
2025-01-07 23:05:14.77	86.49	9.85	
2025-01-07 23:05:14.98	86.53	9.85	
2025-01-07 23:05:15.18	86.57	9.85	
2025-01-07 23:05:15.39	86.62	9.84	
2025-01-07 23:05:15.59	86.66	9.84	
2025-01-07 23:05:15.80	86.70	9.84	
2025-01-07 23:05:16.00	86.74	9.84	
2025-01-07 23:05:16.21	86.78	9.83	
2025-01-07 23:05:16.41	86.82	9.83	
2025-01-07 23:05:16.62	86.86	9.83	
2025-01-07 23:05:16.83	86.91	9.83	
2025-01-07 23:05:17.03	86.95	9.82	
2025-01-07 23:05:17.24	86.99	9.82	
2025-01-07 23:05:17.44	87.03	9.82	
2025-01-07 23:05:17.65	87.07	9.82	
2025-01-07 23:05:17.85	87.11	9.81	
2025-01-07 23:05:18.06	87.15	9.81	
2025-01-07 23:05:18.26	87.19	9.81	
2025-01-07 23:05:18.46	87.23	9.80	
2025-01-07 23:05:18.67	87.28	9.80	
2025-01-07 23:05:18.88	87.32	9.80	
2025-01-07 23:05:19.08	87.36	9.80	
2025-01-07 23:05:19.29	87.40	9.79	
2025-01-07 23:05:19.49	87.44	9.79	
2025-01-07 23:05:19.70	87.48	9.79	
2025-01-07 23:05:19.90	87.52	9.79	
2025-01-07 23:05:20.11	87.57	9.78	
2025-01-07 23:05:20.31	87.61	9.78	
2025-01-07 23:05:20.52	87.65	9.78	
2025-01-07 23:05:20.72	87.69	9.77	
2025-01-07 23:05:20.93	87.73	9.77	
2025-01-07 23:05:21.14	87.77	9.77	
2025-01-07 23:05:21.34	87.81	9.76	
2025-01-07 23:05:21.55	87.86	9.76	
2025-01-07 23:05:21.75	87.90	9.76	
2025-01-07 23:05:21.96	87.94	9.76	
2025-01-07 23:05:22.16	87.98	9.75	
2025-01-07 23:05:22.37	88.02	9.75	
2025-01-07 23:05:22.58	88.06	9.75	
2025-01-07 23:05:22.78	88.10	9.74	
2025-01-07 23:05:22.99	88.14	9.74	
2025-01-07 23:05:23.19	88.18	9.74	
2025-01-07 23:05:23.40	88.23	9.73	
2025-01-07 23:05:23.60	88.27	9.73	
2025-01-07 23:05:23.81	88.31	9.73	
2025-01-07 23:05:24.01	88.35	9.73	
2025-01-07 23:05:24.22	88.39	9.72	
2025-01-07 23:05:24.42	88.43	9.72	
2025-01-07 23:05:24.63	88.47	9.72	
2025-01-07 23:05:24.83	88.51	9.71	
2025-01-07 23:05:25.04	88.55	9.71	
2025-01-07 23:05:25.24	88.59	9.71	
2025-01-07 23:05:25.45	88.64	9.70	
2025-01-07 23:05:25.65	88.68	9.70	
2025-01-07 23:05:25.86	88.72	9.70	
2025-01-07 23:05:26.06	88.76	9.69	
2025-01-07 23:05:26.27	88.80	9.69	
2025-01-07 23:05:26.47	88.84	9.69	
2025-01-07 23:05:26.68	88.88	9.68	
2025-01-07 23:05:26.89	88.92	9.68	
2025-01-07 23:05:27.09	88.96	9.68	
2025-01-07 23:05:27.30	89.01	9.67	
2025-01-07 23:05:27.50	89.05	9.67	
2025-01-07 23:05:27.71	89.09	9.67	
2025-01-07 23:05:27.91	89.13	9.67	
2025-01-07 23:05:28.12	89.17	9.66	
2025-01-07 23:05:28.32	89.21	9.66	
2025-01-07 23:05:28.53	89.25	9.65	
2025-01-07 23:05:28.73	89.29	9.65	
2025-01-07 23:05:28.94	89.33	9.65	
2025-01-07 23:05:29.14	89.37	9.65	
2025-01-07 23:05:29.35	89.41	9.64	
2025-01-07 23:05:29.55	89.45	9.64	
2025-01-07 23:05:29.76	89.50	9.63	
2025-01-07 23:05:29.96	89.54	9.63	
2025-01-07 23:05:30.17	89.58	9.63	
2025-01-07 23:05:30.37	89.62	9.62	
2025-01-07 23:05:30.58	89.66	9.62	
2025-01-07 23:05:30.78	89.70	9.62	
2025-01-07 23:05:30.99	89.74	9.61	
2025-01-07 23:05:31.19	89.78	9.61	
2025-01-07 23:05:31.40	89.82	9.61	
2025-01-07 23:05:31.60	89.86	9.60	
2025-01-07 23:05:31.81	89.90	9.60	
2025-01-07 23:05:32.01	89.94	9.60	
2025-01-07 23:05:32.22	89.99	9.59	
2025-01-07 23:05:32.42	90.02	9.59	
2025-01-07 23:05:32.63	90.07	9.59	
2025-01-07 23:05:32.83	90.11	9.58	
2025-01-07 23:05:33.04	90.15	9.58	
2025-01-07 23:05:33.25	90.19	9.58	
2025-01-07 23:05:33.46	90.23	9.57	
2025-01-07 23:05:33.67	90.27	9.57	
2025-01-07 23:05:33.87	90.31	9.56	
2025-01-07 23:05:34.08	90.35	9.56	
2025-01-07 23:05:34.28	90.39	9.56	
2025-01-07 23:05:34.49	90.43	9.55	
2025-01-07 23:05:34.69	90.47	9.55	
2025-01-07 23:05:34.90	90.52	9.55	
2025-01-07 23:05:35.11	90.56	9.54	
2025-01-07 23:05:35.31	90.60	9.54	
2025-01-07 23:05:35.52	90.64	9.53	
2025-01-07 23:05:35.74	90.68	9.53	
2025-01-07 23:05:35.94	90.72	9.53	
2025-01-07 23:05:36.15	90.76	9.52	
2025-01-07 23:05:36.35	90.80	9.52	
2025-01-07 23:05:36.56	90.84	9.52	
2025-01-07 23:05:36.76	90.88	9.51	
2025-01-07 23:05:36.97	90.92	9.51	
2025-01-07 23:05:37.17	90.96	9.50	
2025-01-07 23:05:37.38	91.01	9.50	
2025-01-07 23:05:37.58	91.05	9.50	
2025-01-07 23:05:37.80	91.09	9.49	
2025-01-07 23:05:38.01	91.13	9.49	
2025-01-07 23:05:38.21	91.17	9.48	
2025-01-07 23:05:38.42	91.21	9.48	
2025-01-07 23:05:38.62	91.25	9.48	
2025-01-07 23:05:38.83	91.29	9.47	
2025-01-07 23:05:39.03	91.33	9.47	
2025-01-07 23:05:39.24	91.37	9.46	
2025-01-07 23:05:39.44	91.41	9.46	
2025-01-07 23:05:39.65	91.45	9.46	
2025-01-07 23:05:39.85	91.49	9.45	
2025-01-07 23:05:40.06	91.53	9.45	
2025-01-07 23:05:40.27	91.57	9.45	
2025-01-07 23:05:40.47	91.61	9.44	
2025-01-07 23:05:40.68	91.65	9.44	
2025-01-07 23:05:40.88	91.69	9.43	
2025-01-07 23:05:41.09	91.73	9.43	
2025-01-07 23:05:41.29	91.77	9.43	
2025-01-07 23:05:41.50	91.82	9.42	
2025-01-07 23:05:41.70	91.85	9.42	
2025-01-07 23:05:41.91	91.90	9.41	
2025-01-07 23:05:42.11	91.93	9.41	
2025-01-07 23:05:42.32	91.98	9.40	
2025-01-07 23:05:42.52	92.02	9.40	
2025-01-07 23:05:42.73	92.06	9.40	
2025-01-07 23:05:42.94	92.10	9.39	
2025-01-07 23:05:43.15	92.14	9.39	
2025-01-07 23:05:43.36	92.18	9.38	
2025-01-07 23:05:43.57	92.22	9.38	
2025-01-07 23:05:43.77	92.26	9.38	
2025-01-07 23:05:43.98	92.30	9.37	
2025-01-07 23:05:44.18	92.34	9.37	
2025-01-07 23:05:44.38	92.38	9.36	
2025-01-07 23:05:44.59	92.42	9.36	
2025-01-07 23:05:44.80	92.46	9.35	
2025-01-07 23:05:45.00	92.50	9.35	
2025-01-07 23:05:45.22	92.54	9.35	
2025-01-07 23:05:45.42	92.58	9.34	
2025-01-07 23:05:45.63	92.62	9.34	
2025-01-07 23:05:45.84	92.66	9.33	
2025-01-07 23:05:46.04	92.70	9.33	
2025-01-07 23:05:46.25	92.74	9.32	
2025-01-07 23:05:46.45	92.78	9.32	
2025-01-07 23:05:46.66	92.82	9.32	
2025-01-07 23:05:46.86	92.86	9.31	
2025-01-07 23:05:47.07	92.90	9.31	
2025-01-07 23:05:47.27	92.94	9.30	
2025-01-07 23:05:47.48	92.98	9.30	
2025-01-07 23:05:47.68	93.02	9.29	
2025-01-07 23:05:47.89	93.06	9.29	
2025-01-07 23:05:48.09	93.10	9.29	
2025-01-07 23:05:48.30	93.14	9.28	
2025-01-07 23:05:48.50	93.18	9.28	
2025-01-07 23:05:48.71	93.22	9.27	
2025-01-07 23:05:48.92	93.26	9.27	
2025-01-07 23:05:49.12	93.30	9.26	
2025-01-07 23:05:49.33	93.34	9.26	
2025-01-07 23:05:49.55	93.38	9.25	
2025-01-07 23:05:49.75	93.42	9.25	
2025-01-07 23:05:49.96	93.46	9.24	
2025-01-07 23:05:50.16	93.50	9.24	
2025-01-07 23:05:50.37	93.54	9.24	
2025-01-07 23:05:50.57	93.58	9.23	
2025-01-07 23:05:50.78	93.62	9.23	
2025-01-07 23:05:50.98	93.66	9.22	
2025-01-07 23:05:51.19	93.70	9.22	
2025-01-07 23:05:51.39	93.74	9.21	
2025-01-07 23:05:51.61	93.78	9.21	
2025-01-07 23:05:51.82	93.82	9.20	
2025-01-07 23:05:52.03	93.86	9.20	
2025-01-07 23:05:52.23	93.90	9.19	
2025-01-07 23:05:52.44	93.94	9.19	
2025-01-07 23:05:52.64	93.98	9.18	
2025-01-07 23:05:52.85	94.02	9.18	
2025-01-07 23:05:53.07	94.06	9.18	
2025-01-07 23:05:53.27	94.10	9.17	
2025-01-07 23:05:53.48	94.14	9.17	
2025-01-07 23:05:53.68	94.18	9.16	
2025-01-07 23:05:53.90	94.22	9.16	
2025-01-07 23:05:54.11	94.26	9.15	
2025-01-07 23:05:54.31	94.30	9.15	
2025-01-07 23:05:54.52	94.34	9.14	
2025-01-07 23:05:54.72	94.38	9.14	
2025-01-07 23:05:54.93	94.42	9.13	
2025-01-07 23:05:55.13	94.46	9.13	
2025-01-07 23:05:55.34	94.50	9.12	
2025-01-07 23:05:55.54	94.54	9.12	
2025-01-07 23:05:55.75	94.58	9.11	
2025-01-07 23:05:55.95	94.62	9.11	
2025-01-07 23:05:56.16	94.66	9.10	
2025-01-07 23:05:56.36	94.70	9.10	
2025-01-07 23:05:56.57	94.74	9.09	
2025-01-07 23:05:56.78	94.78	9.09	
2025-01-07 23:05:56.98	94.81	9.08	
2025-01-07 23:05:57.18	94.85	9.08	
2025-01-07 23:05:57.39	94.89	9.07	
2025-01-07 23:05:57.60	94.93	9.07	
2025-01-07 23:05:57.80	94.97	9.06	
2025-01-07 23:05:58.00	95.01	9.06	
2025-01-07 23:05:58.21	95.05	9.06	
2025-01-07 23:05:58.41	95.09	9.05	
2025-01-07 23:05:58.62	95.13	9.05	
2025-01-07 23:05:58.83	95.17	9.04	
2025-01-07 23:05:59.03	95.21	9.04	
2025-01-07 23:05:59.24	95.25	9.03	
2025-01-07 23:05:59.44	95.28	9.03	
2025-01-07 23:05:59.65	95.32	9.02	
2025-01-07 23:05:59.85	95.36	9.02	
2025-01-07 23:06:00.06	95.40	9.01	
2025-01-07 23:06:00.26	95.44	9.01	
2025-01-07 23:06:00.47	95.48	9.00	
2025-01-07 23:06:00.67	95.52	9.00	
2025-01-07 23:06:00.88	95.56	8.99	
2025-01-07 23:06:01.09	95.60	8.99	
2025-01-07 23:06:01.29	95.64	8.98	
2025-01-07 23:06:01.49	95.67	8.98	
2025-01-07 23:06:01.70	95.71	8.97	
2025-01-07 23:06:01.90	95.75	8.97	
2025-01-07 23:06:02.11	95.79	8.96	
2025-01-07 23:06:02.31	95.83	8.96	
2025-01-07 23:06:02.52	95.87	8.95	
2025-01-07 23:06:02.72	95.91	8.94	
2025-01-07 23:06:02.93	95.95	8.94	
2025-01-07 23:06:03.14	95.99	8.93	
2025-01-07 23:06:03.34	96.02	8.93	
2025-01-07 23:06:03.54	96.06	8.92	
2025-01-07 23:06:03.75	96.10	8.92	
2025-01-07 23:06:03.95	96.14	8.91	
2025-01-07 23:06:04.16	96.18	8.91	
2025-01-07 23:06:04.36	96.22	8.90	
2025-01-07 23:06:04.57	96.26	8.90	
2025-01-07 23:06:04.77	96.29	8.89	
2025-01-07 23:06:04.98	96.33	8.89	
2025-01-07 23:06:05.18	96.37	8.88	
2025-01-07 23:06:05.39	96.41	8.88	
2025-01-07 23:06:05.61	96.45	8.87	
2025-01-07 23:06:05.81	96.49	8.87	
2025-01-07 23:06:06.02	96.53	8.86	
2025-01-07 23:06:06.22	96.57	8.86	
2025-01-07 23:06:06.43	96.61	8.85	
2025-01-07 23:06:06.63	96.65	8.85	
2025-01-07 23:06:06.84	96.68	8.84	
2025-01-07 23:06:07.04	96.72	8.83	
2025-01-07 23:06:07.25	96.76	8.83	
2025-01-07 23:06:07.45	96.80	8.82	
2025-01-07 23:06:07.66	96.84	8.82	
2025-01-07 23:06:07.86	96.88	8.81	
2025-01-07 23:06:08.07	96.92	8.81	
2025-01-07 23:06:08.27	96.95	8.80	
2025-01-07 23:06:08.48	96.99	8.80	
2025-01-07 23:06:08.68	97.03	8.79	
2025-01-07 23:06:08.89	97.07	8.79	
2025-01-07 23:06:09.09	97.11	8.78	
2025-01-07 23:06:09.30	97.15	8.78	
2025-01-07 23:06:09.51	97.19	8.77	
2025-01-07 23:06:09.71	97.22	8.76	
2025-01-07 23:06:09.92	97.26	8.76	
2025-01-07 23:06:10.12	97.30	8.75	
2025-01-07 23:06:10.33	97.34	8.75	
2025-01-07 23:06:10.53	97.38	8.74	
2025-01-07 23:06:10.74	97.42	8.74	
2025-01-07 23:06:10.95	97.45	8.73	
2025-01-07 23:06:11.15	97.49	8.73	
2025-01-07 23:06:11.36	97.53	8.72	
2025-01-07 23:06:11.56	97.57	8.72	
2025-01-07 23:06:11.77	97.61	8.71	
2025-01-07 23:06:11.97	97.64	8.70	
2025-01-07 23:06:12.18	97.68	8.70	
2025-01-07 23:06:12.38	97.72	8.69	
2025-01-07 23:06:12.59	97.76	8.69	
2025-01-07 23:06:12.79	97.80	8.68	
2025-01-07 23:06:12.99	97.83	8.68	
2025-01-07 23:06:13.20	97.87	8.67	
2025-01-07 23:06:13.40	97.91	8.67	
2025-01-07 23:06:13.61	97.95	8.66	
2025-01-07 23:06:13.82	97.99	8.65	
2025-01-07 23:06:14.02	98.03	8.65	
2025-01-07 23:06:14.23	98.06	8.64	
2025-01-07 23:06:14.43	98.10	8.64	
2025-01-07 23:06:14.64	98.14	8.63	
2025-01-07 23:06:14.84	98.18	8.63	
2025-01-07 23:06:15.05	98.22	8.62	
2025-01-07 23:06:15.25	98.25	8.61	
2025-01-07 23:06:15.46	98.29	8.61	
2025-01-07 23:06:15.66	98.33	8.60	
2025-01-07 23:06:15.87	98.37	8.60	
2025-01-07 23:06:16.08	98.41	8.59	
2025-01-07 23:06:16.28	98.44	8.59	
2025-01-07 23:06:16.48	98.48	8.58	
2025-01-07 23:06:16.69	98.52	8.57	
2025-01-07 23:06:16.90	98.56	8.57	
2025-01-07 23:06:17.10	98.60	8.56	
2025-01-07 23:06:17.31	98.63	8.56	
2025-01-07 23:06:17.51	98.67	8.55	
2025-01-07 23:06:17.72	98.71	8.54	
2025-01-07 23:06:17.92	98.75	8.54	
2025-01-07 23:06:18.13	98.79	8.53	
2025-01-07 23:06:18.33	98.82	8.53	
2025-01-07 23:06:18.54	98.86	8.52	
2025-01-07 23:06:18.74	98.90	8.52	
2025-01-07 23:06:18.95	98.94	8.51	
2025-01-07 23:06:19.15	98.97	8.50	
2025-01-07 23:06:19.36	99.01	8.50	
2025-01-07 23:06:19.56	99.05	8.49	
2025-01-07 23:06:19.77	99.09	8.49	
2025-01-07 23:06:19.98	99.12	8.48	
2025-01-07 23:06:20.18	99.16	8.47	
2025-01-07 23:06:20.38	99.20	8.47	
2025-01-07 23:06:20.59	99.24	8.46	
2025-01-07 23:06:20.79	99.27	8.46	
2025-01-07 23:06:21.00	99.31	8.45	
2025-01-07 23:06:21.20	99.35	8.45	
2025-01-07 23:06:21.41	99.39	8.44	
2025-01-07 23:06:21.61	99.42	8.43	
2025-01-07 23:06:21.82	99.46	8.43	
2025-01-07 23:06:22.02	99.50	8.42	
2025-01-07 23:06:22.23	99.54	8.42	
2025-01-07 23:06:22.44	99.57	8.41	
2025-01-07 23:06:22.64	99.61	8.40	
2025-01-07 23:06:22.85	99.65	8.40	
2025-01-07 23:06:23.05	99.69	8.39	
2025-01-07 23:06:23.26	99.72	8.39	
2025-01-07 23:06:23.46	99.76	8.38	
2025-01-07 23:06:23.66	99.80	8.37	
2025-01-07 23:06:23.87	99.84	8.37	
2025-01-07 23:06:24.08	99.87	8.36	
2025-01-07 23:06:24.28	99.91	8.35	
2025-01-07 23:06:24.49	99.95	8.35	
2025-01-07 23:06:24.69	99.98	8.34	
2025-01-07 23:06:24.89	100.02	8.34	
2025-01-07 23:06:25.10	100.06	8.33	
2025-01-07 23:06:25.31	100.10	8.32	
2025-01-07 23:06:25.51	100.13	8.32	
2025-01-07 23:06:25.72	100.17	8.31	
2025-01-07 23:06:25.92	100.21	8.31	
2025-01-07 23:06:26.13	100.24	8.30	
2025-01-07 23:06:26.33	100.28	8.29	
2025-01-07 23:06:26.54	100.32	8.29	
2025-01-07 23:06:26.74	100.36	8.28	
2025-01-07 23:06:26.95	100.39	8.28	
2025-01-07 23:06:27.16	100.43	8.27	
2025-01-07 23:06:27.36	100.47	8.26	
2025-01-07 23:06:27.57	100.51	8.26	
2025-01-07 23:06:27.77	100.54	8.25	
2025-01-07 23:06:27.97	100.58	8.24	
2025-01-07 23:06:28.18	100.61	8.24	
2025-01-07 23:06:28.39	100.65	8.23	
2025-01-07 23:06:28.59	100.69	8.23	
2025-01-07 23:06:28.80	100.73	8.22	
2025-01-07 23:06:29.00	100.76	8.21	
2025-01-07 23:06:29.21	100.80	8.21	
2025-01-07 23:06:29.41	100.84	8.20	
2025-01-07 23:06:29.62	100.87	8.19	
2025-01-07 23:06:29.82	100.91	8.19	
2025-01-07 23:06:30.03	100.95	8.18	
2025-01-07 23:06:30.23	100.98	8.18	
2025-01-07 23:06:30.44	101.02	8.17	
2025-01-07 23:06:30.64	101.06	8.16	
2025-01-07 23:06:30.85	101.09	8.16	
2025-01-07 23:06:31.05	101.13	8.15	
2025-01-07 23:06:31.26	101.17	8.14	
2025-01-07 23:06:31.46	101.20	8.14	
2025-01-07 23:06:31.67	101.24	8.13	
2025-01-07 23:06:31.88	101.28	8.12	
2025-01-07 23:06:32.08	101.31	8.12	
2025-01-07 23:06:32.28	101.35	8.11	
2025-01-07 23:06:32.49	101.39	8.11	
2025-01-07 23:06:32.69	101.42	8.10	
2025-01-07 23:06:32.90	101.46	8.09	
2025-01-07 23:06:33.11	101.50	8.09	
2025-01-07 23:06:33.31	101.53	8.08	
2025-01-07 23:06:33.51	101.57	8.07	
2025-01-07 23:06:33.72	101.61	8.07	
2025-01-07 23:06:33.92	101.64	8.06	
2025-01-07 23:06:34.13	101.68	8.05	
2025-01-07 23:06:34.33	101.72	8.05	
2025-01-07 23:06:34.54	101.75	8.04	
2025-01-07 23:06:34.75	101.79	8.03	
2025-01-07 23:06:34.95	101.83	8.03	
2025-01-07 23:06:35.16	101.86	8.02	
2025-01-07 23:06:35.36	101.90	8.02	
2025-01-07 23:06:35.57	101.94	8.01	
2025-01-07 23:06:35.77	101.97	8.00	
2025-01-07 23:06:35.98	102.01	8.00	
2025-01-07 23:06:36.18	102.04	7.99	
2025-01-07 23:06:36.39	102.08	7.98	
2025-01-07 23:06:36.59	102.12	7.98	
2025-01-07 23:06:36.80	102.15	7.97	
2025-01-07 23:06:37.00	102.19	7.96	
2025-01-07 23:06:37.21	102.23	7.96	
