passes_logs/2025/01/07/SPB_Silybum_02/SPB_Silybum_02__20250107_010303_SUOMI_NPP_rec.log

#Pass ID: 20250107_010303_SUOMI NPP
#Satellite: SUOMI NPP
#Configuration: NPP
#Start time: 2025-01-07 01:03:03

#Version: 2.0.20230423
#Station: SPB_Silybum_02
#Location: 30.233357 lon 59.946436 lat
#TLE: 1 37849U 11061A   25006.17970494  .00000315  00000+0  17023-3 0  9998
#TLE: 2 37849  98.7437 307.2805 0001982  54.5030 305.6331 14.19533747683667

#Time	Az	El	Level	Level2	SNR	BER	Gain	Gain2
2025-01-07 01:03:05.67	15.90	4.18	
2025-01-07 01:03:05.88	15.90	4.19	
2025-01-07 01:03:06.08	15.89	4.20	
2025-01-07 01:03:06.29	15.89	4.22	
2025-01-07 01:03:06.49	15.88	4.23	
2025-01-07 01:03:06.70	15.87	4.24	
2025-01-07 01:03:06.90	15.87	4.26	
2025-01-07 01:03:07.11	15.86	4.27	
2025-01-07 01:03:07.32	15.86	4.29	
2025-01-07 01:03:07.52	15.85	4.30	
2025-01-07 01:03:07.73	15.85	4.31	
2025-01-07 01:03:07.93	15.84	4.33	
2025-01-07 01:03:08.14	15.83	4.34	
2025-01-07 01:03:08.34	15.83	4.36	
2025-01-07 01:03:08.55	15.82	4.37	
2025-01-07 01:03:08.76	15.82	4.39	
2025-01-07 01:03:08.96	15.81	4.40	
2025-01-07 01:03:09.16	15.80	4.41	
2025-01-07 01:03:09.38	15.80	4.43	
2025-01-07 01:03:09.59	15.79	4.44	
2025-01-07 01:03:09.79	15.79	4.46	
2025-01-07 01:03:10.00	15.78	4.47	
2025-01-07 01:03:10.20	15.78	4.48	
2025-01-07 01:03:10.40	15.77	4.50	
2025-01-07 01:03:10.61	15.76	4.51	
2025-01-07 01:03:10.82	15.76	4.53	
2025-01-07 01:03:11.02	15.75	4.54	
2025-01-07 01:03:11.23	15.75	4.55	
2025-01-07 01:03:11.43	15.74	4.57	
2025-01-07 01:03:11.64	15.73	4.58	
2025-01-07 01:03:11.85	15.73	4.60	
2025-01-07 01:03:12.05	15.72	4.61	
2025-01-07 01:03:12.25	15.72	4.62	
2025-01-07 01:03:12.46	15.71	4.64	
2025-01-07 01:03:12.66	15.70	4.65	
2025-01-07 01:03:12.87	15.70	4.67	
2025-01-07 01:03:13.08	15.69	4.68	
2025-01-07 01:03:13.28	15.69	4.69	
2025-01-07 01:03:13.48	15.68	4.71	
2025-01-07 01:03:13.69	15.67	4.72	
2025-01-07 01:03:13.90	15.67	4.74	
2025-01-07 01:03:14.10	15.66	4.75	
2025-01-07 01:03:14.30	15.66	4.77	
2025-01-07 01:03:14.51	15.65	4.78	
2025-01-07 01:03:14.72	15.64	4.79	
2025-01-07 01:03:14.92	15.64	4.81	
2025-01-07 01:03:15.13	15.63	4.82	
2025-01-07 01:03:15.33	15.63	4.84	
2025-01-07 01:03:15.53	15.62	4.85	
2025-01-07 01:03:15.74	15.61	4.87	
2025-01-07 01:03:15.94	15.61	4.88	
2025-01-07 01:03:16.15	15.60	4.89	
2025-01-07 01:03:16.35	15.60	4.91	
2025-01-07 01:03:16.56	15.59	4.92	
2025-01-07 01:03:16.76	15.58	4.94	
2025-01-07 01:03:16.97	15.58	4.95	
2025-01-07 01:03:17.18	15.57	4.97	
2025-01-07 01:03:17.38	15.56	4.98	
2025-01-07 01:03:17.58	15.56	4.99	
2025-01-07 01:03:17.79	15.55	5.01	
2025-01-07 01:03:18.00	15.55	5.02	
2025-01-07 01:03:18.20	15.54	5.04	
2025-01-07 01:03:18.40	15.53	5.05	
2025-01-07 01:03:18.61	15.53	5.06	
2025-01-07 01:03:18.81	15.52	5.08	
2025-01-07 01:03:19.02	15.52	5.09	
2025-01-07 01:03:19.23	15.51	5.11	
2025-01-07 01:03:19.43	15.50	5.12	
2025-01-07 01:03:19.63	15.50	5.14	
2025-01-07 01:03:19.84	15.49	5.15	
2025-01-07 01:03:20.04	15.48	5.17	
2025-01-07 01:03:20.25	15.48	5.18	
2025-01-07 01:03:20.45	15.47	5.19	
2025-01-07 01:03:20.66	15.47	5.21	
2025-01-07 01:03:20.86	15.46	5.22	
2025-01-07 01:03:21.07	15.45	5.24	
2025-01-07 01:03:21.27	15.45	5.25	
2025-01-07 01:03:21.48	15.44	5.27	
2025-01-07 01:03:21.68	15.43	5.28	
2025-01-07 01:03:21.89	15.43	5.30	
2025-01-07 01:03:22.09	15.42	5.31	
2025-01-07 01:03:22.30	15.42	5.32	
2025-01-07 01:03:22.51	15.41	5.34	
2025-01-07 01:03:22.71	15.40	5.35	
2025-01-07 01:03:22.92	15.40	5.37	
2025-01-07 01:03:23.12	15.39	5.38	
2025-01-07 01:03:23.33	15.38	5.40	
2025-01-07 01:03:23.53	15.38	5.41	
2025-01-07 01:03:23.74	15.37	5.43	
2025-01-07 01:03:23.95	15.36	5.44	
2025-01-07 01:03:24.15	15.36	5.45	
2025-01-07 01:03:24.36	15.35	5.47	
2025-01-07 01:03:24.56	15.35	5.48	
2025-01-07 01:03:24.77	15.34	5.50	
2025-01-07 01:03:24.98	15.33	5.51	
2025-01-07 01:03:25.18	15.33	5.53	
2025-01-07 01:03:25.39	15.32	5.54	
2025-01-07 01:03:25.59	15.31	5.56	
2025-01-07 01:03:25.80	15.31	5.57	
2025-01-07 01:03:26.00	15.30	5.59	
2025-01-07 01:03:26.21	15.29	5.60	
2025-01-07 01:03:26.41	15.29	5.62	
2025-01-07 01:03:26.62	15.28	5.63	
2025-01-07 01:03:26.83	15.27	5.65	
2025-01-07 01:03:27.03	15.27	5.66	
2025-01-07 01:03:27.23	15.26	5.67	
2025-01-07 01:03:27.44	15.26	5.69	
2025-01-07 01:03:27.65	15.25	5.70	
2025-01-07 01:03:27.85	15.24	5.72	
2025-01-07 01:03:28.06	15.24	5.73	
2025-01-07 01:03:28.26	15.23	5.75	
2025-01-07 01:03:28.47	15.22	5.76	
2025-01-07 01:03:28.67	15.22	5.78	
2025-01-07 01:03:28.88	15.21	5.79	
2025-01-07 01:03:29.08	15.20	5.81	
2025-01-07 01:03:29.29	15.20	5.82	
2025-01-07 01:03:29.49	15.19	5.84	
2025-01-07 01:03:29.70	15.18	5.85	
2025-01-07 01:03:29.91	15.18	5.87	
2025-01-07 01:03:30.11	15.17	5.88	
2025-01-07 01:03:30.32	15.16	5.90	
2025-01-07 01:03:30.52	15.16	5.91	
2025-01-07 01:03:30.73	15.15	5.93	
2025-01-07 01:03:30.93	15.14	5.94	
2025-01-07 01:03:31.14	15.14	5.95	
2025-01-07 01:03:31.34	15.13	5.97	
2025-01-07 01:03:31.55	15.12	5.98	
2025-01-07 01:03:31.75	15.12	6.00	
2025-01-07 01:03:31.96	15.11	6.01	
2025-01-07 01:03:32.16	15.10	6.03	
2025-01-07 01:03:32.37	15.10	6.04	
2025-01-07 01:03:32.59	15.09	6.06	
2025-01-07 01:03:32.80	15.08	6.07	
2025-01-07 01:03:33.00	15.08	6.09	
2025-01-07 01:03:33.21	15.07	6.10	
2025-01-07 01:03:33.41	15.06	6.12	
2025-01-07 01:03:33.62	15.06	6.13	
2025-01-07 01:03:33.82	15.05	6.15	
2025-01-07 01:03:34.03	15.04	6.16	
2025-01-07 01:03:34.23	15.04	6.18	
2025-01-07 01:03:34.44	15.03	6.19	
2025-01-07 01:03:34.65	15.02	6.21	
2025-01-07 01:03:34.86	15.02	6.22	
2025-01-07 01:03:35.07	15.01	6.24	
2025-01-07 01:03:35.27	15.00	6.25	
2025-01-07 01:03:35.48	15.00	6.27	
2025-01-07 01:03:35.68	14.99	6.28	
2025-01-07 01:03:35.88	14.98	6.30	
2025-01-07 01:03:36.09	14.98	6.31	
2025-01-07 01:03:36.29	14.97	6.33	
2025-01-07 01:03:36.50	14.96	6.34	
2025-01-07 01:03:36.71	14.95	6.36	
2025-01-07 01:03:36.91	14.95	6.37	
2025-01-07 01:03:37.11	14.94	6.39	
2025-01-07 01:03:37.32	14.93	6.40	
2025-01-07 01:03:37.52	14.93	6.42	
2025-01-07 01:03:37.73	14.92	6.43	
2025-01-07 01:03:37.93	14.91	6.45	
2025-01-07 01:03:38.14	14.91	6.46	
2025-01-07 01:03:38.35	14.90	6.48	
2025-01-07 01:03:38.55	14.89	6.49	
2025-01-07 01:03:38.76	14.89	6.51	
2025-01-07 01:03:38.96	14.88	6.52	
2025-01-07 01:03:39.17	14.87	6.54	
2025-01-07 01:03:39.37	14.87	6.55	
2025-01-07 01:03:39.57	14.86	6.57	
2025-01-07 01:03:39.78	14.85	6.59	
2025-01-07 01:03:39.98	14.84	6.60	
2025-01-07 01:03:40.19	14.84	6.62	
2025-01-07 01:03:40.40	14.83	6.63	
2025-01-07 01:03:40.60	14.82	6.65	
2025-01-07 01:03:40.80	14.82	6.66	
2025-01-07 01:03:41.01	14.81	6.68	
2025-01-07 01:03:41.21	14.80	6.69	
2025-01-07 01:03:41.42	14.80	6.71	
2025-01-07 01:03:41.63	14.79	6.72	
2025-01-07 01:03:41.83	14.78	6.74	
2025-01-07 01:03:42.04	14.77	6.75	
2025-01-07 01:03:42.24	14.77	6.77	
2025-01-07 01:03:42.45	14.76	6.78	
2025-01-07 01:03:42.65	14.75	6.80	
2025-01-07 01:03:42.86	14.75	6.81	
2025-01-07 01:03:43.07	14.74	6.83	
2025-01-07 01:03:43.27	14.73	6.84	
2025-01-07 01:03:43.47	14.73	6.86	
2025-01-07 01:03:43.68	14.72	6.87	
2025-01-07 01:03:43.88	14.71	6.89	
2025-01-07 01:03:44.09	14.70	6.91	
2025-01-07 01:03:44.29	14.70	6.92	
2025-01-07 01:03:44.50	14.69	6.94	
2025-01-07 01:03:44.70	14.68	6.95	
2025-01-07 01:03:44.91	14.68	6.97	
2025-01-07 01:03:45.12	14.67	6.98	
2025-01-07 01:03:45.32	14.66	7.00	
2025-01-07 01:03:45.53	14.65	7.01	
2025-01-07 01:03:45.73	14.65	7.03	
2025-01-07 01:03:45.94	14.64	7.04	
2025-01-07 01:03:46.14	14.63	7.06	
2025-01-07 01:03:46.35	14.62	7.07	
2025-01-07 01:03:46.55	14.62	7.09	
2025-01-07 01:03:46.76	14.61	7.11	
2025-01-07 01:03:46.96	14.60	7.12	
2025-01-07 01:03:47.17	14.60	7.14	
2025-01-07 01:03:47.37	14.59	7.15	
2025-01-07 01:03:47.59	14.58	7.17	
2025-01-07 01:03:47.80	14.57	7.18	
2025-01-07 01:03:48.00	14.57	7.20	
2025-01-07 01:03:48.21	14.56	7.21	
2025-01-07 01:03:48.42	14.55	7.23	
2025-01-07 01:03:48.62	14.54	7.25	
2025-01-07 01:03:48.82	14.54	7.26	
2025-01-07 01:03:49.03	14.53	7.28	
2025-01-07 01:03:49.24	14.52	7.29	
2025-01-07 01:03:49.44	14.52	7.31	
2025-01-07 01:03:49.64	14.51	7.32	
2025-01-07 01:03:49.85	14.50	7.34	
2025-01-07 01:03:50.06	14.49	7.36	
2025-01-07 01:03:50.26	14.49	7.37	
2025-01-07 01:03:50.47	14.48	7.39	
2025-01-07 01:03:50.67	14.47	7.40	
2025-01-07 01:03:50.88	14.46	7.42	
2025-01-07 01:03:51.08	14.46	7.43	
2025-01-07 01:03:51.29	14.45	7.45	
2025-01-07 01:03:51.49	14.44	7.46	
2025-01-07 01:03:51.70	14.43	7.48	
2025-01-07 01:03:51.90	14.43	7.50	
2025-01-07 01:03:52.11	14.42	7.51	
2025-01-07 01:03:52.31	14.41	7.53	
2025-01-07 01:03:52.52	14.40	7.54	
2025-01-07 01:03:52.72	14.40	7.56	
2025-01-07 01:03:52.93	14.39	7.57	
2025-01-07 01:03:53.13	14.38	7.59	
2025-01-07 01:03:53.34	14.37	7.61	
2025-01-07 01:03:53.54	14.37	7.62	
2025-01-07 01:03:53.75	14.36	7.64	
2025-01-07 01:03:53.95	14.35	7.65	
2025-01-07 01:03:54.16	14.34	7.67	
2025-01-07 01:03:54.36	14.34	7.68	
2025-01-07 01:03:54.57	14.33	7.70	
2025-01-07 01:03:54.78	14.32	7.72	
2025-01-07 01:03:54.98	14.31	7.73	
2025-01-07 01:03:55.19	14.31	7.75	
2025-01-07 01:03:55.39	14.30	7.76	
2025-01-07 01:03:55.60	14.29	7.78	
2025-01-07 01:03:55.80	14.28	7.79	
2025-01-07 01:03:56.01	14.28	7.81	
2025-01-07 01:03:56.21	14.27	7.83	
2025-01-07 01:03:56.42	14.26	7.84	
2025-01-07 01:03:56.62	14.25	7.86	
2025-01-07 01:03:56.83	14.25	7.87	
2025-01-07 01:03:57.03	14.24	7.89	
2025-01-07 01:03:57.24	14.23	7.91	
2025-01-07 01:03:57.44	14.22	7.92	
2025-01-07 01:03:57.65	14.21	7.94	
2025-01-07 01:03:57.85	14.21	7.95	
2025-01-07 01:03:58.06	14.20	7.97	
2025-01-07 01:03:58.26	14.19	7.99	
2025-01-07 01:03:58.47	14.18	8.00	
2025-01-07 01:03:58.67	14.18	8.02	
2025-01-07 01:03:58.88	14.17	8.03	
2025-01-07 01:03:59.08	14.16	8.05	
2025-01-07 01:03:59.29	14.15	8.07	
2025-01-07 01:03:59.49	14.14	8.08	
2025-01-07 01:03:59.70	14.14	8.10	
2025-01-07 01:03:59.90	14.13	8.11	
2025-01-07 01:04:00.11	14.12	8.13	
2025-01-07 01:04:00.31	14.11	8.15	
2025-01-07 01:04:00.52	14.11	8.16	
2025-01-07 01:04:00.72	14.10	8.18	
2025-01-07 01:04:00.93	14.09	8.19	
2025-01-07 01:04:01.13	14.08	8.21	
2025-01-07 01:04:01.34	14.07	8.23	
2025-01-07 01:04:01.54	14.07	8.24	
2025-01-07 01:04:01.75	14.06	8.26	
2025-01-07 01:04:01.95	14.05	8.27	
2025-01-07 01:04:02.16	14.04	8.29	
2025-01-07 01:04:02.37	14.03	8.31	
2025-01-07 01:04:02.57	14.03	8.32	
2025-01-07 01:04:02.78	14.02	8.34	
2025-01-07 01:04:02.98	14.01	8.36	
2025-01-07 01:04:03.19	14.00	8.37	
2025-01-07 01:04:03.40	13.99	8.39	
2025-01-07 01:04:03.60	13.99	8.40	
2025-01-07 01:04:03.80	13.98	8.42	
2025-01-07 01:04:04.01	13.97	8.44	
2025-01-07 01:04:04.22	13.96	8.45	
2025-01-07 01:04:04.42	13.95	8.47	
2025-01-07 01:04:04.64	13.95	8.49	
2025-01-07 01:04:04.84	13.94	8.50	
2025-01-07 01:04:05.05	13.93	8.52	
2025-01-07 01:04:05.26	13.92	8.54	
2025-01-07 01:04:05.46	13.91	8.55	
2025-01-07 01:04:05.67	13.91	8.57	
2025-01-07 01:04:05.87	13.90	8.58	
2025-01-07 01:04:06.08	13.89	8.60	
2025-01-07 01:04:06.28	13.88	8.62	
2025-01-07 01:04:06.49	13.87	8.63	
2025-01-07 01:04:06.69	13.87	8.65	
2025-01-07 01:04:06.90	13.86	8.67	
2025-01-07 01:04:07.10	13.85	8.68	
2025-01-07 01:04:07.31	13.84	8.70	
2025-01-07 01:04:07.51	13.83	8.71	
2025-01-07 01:04:07.72	13.82	8.73	
2025-01-07 01:04:07.92	13.82	8.75	
2025-01-07 01:04:08.13	13.81	8.76	
2025-01-07 01:04:08.33	13.80	8.78	
2025-01-07 01:04:08.54	13.79	8.80	
2025-01-07 01:04:08.74	13.78	8.81	
2025-01-07 01:04:08.95	13.78	8.83	
2025-01-07 01:04:09.15	13.77	8.85	
2025-01-07 01:04:09.36	13.76	8.86	
2025-01-07 01:04:09.57	13.75	8.88	
2025-01-07 01:04:09.77	13.74	8.90	
2025-01-07 01:04:09.98	13.73	8.91	
2025-01-07 01:04:10.18	13.73	8.93	
2025-01-07 01:04:10.39	13.72	8.95	
2025-01-07 01:04:10.59	13.71	8.96	
2025-01-07 01:04:10.80	13.70	8.98	
2025-01-07 01:04:11.00	13.69	9.00	
2025-01-07 01:04:11.21	13.68	9.01	
2025-01-07 01:04:11.42	13.68	9.03	
2025-01-07 01:04:11.62	13.67	9.05	
2025-01-07 01:04:11.82	13.66	9.06	
2025-01-07 01:04:12.03	13.65	9.08	
2025-01-07 01:04:12.23	13.64	9.09	
2025-01-07 01:04:12.44	13.63	9.11	
2025-01-07 01:04:12.65	13.62	9.13	
2025-01-07 01:04:12.85	13.62	9.14	
2025-01-07 01:04:13.06	13.61	9.16	
2025-01-07 01:04:13.26	13.60	9.18	
2025-01-07 01:04:13.47	13.59	9.20	
2025-01-07 01:04:13.67	13.58	9.21	
2025-01-07 01:04:13.88	13.57	9.23	
2025-01-07 01:04:14.08	13.57	9.24	
2025-01-07 01:04:14.29	13.56	9.26	
2025-01-07 01:04:14.49	13.55	9.28	
2025-01-07 01:04:14.70	13.54	9.30	
2025-01-07 01:04:14.90	13.53	9.31	
2025-01-07 01:04:15.11	13.52	9.33	
2025-01-07 01:04:15.31	13.51	9.35	
2025-01-07 01:04:15.52	13.51	9.36	
2025-01-07 01:04:15.73	13.50	9.38	
2025-01-07 01:04:15.93	13.49	9.40	
2025-01-07 01:04:16.14	13.48	9.41	
2025-01-07 01:04:16.34	13.47	9.43	
2025-01-07 01:04:16.55	13.46	9.45	
2025-01-07 01:04:16.75	13.45	9.46	
2025-01-07 01:04:16.96	13.45	9.48	
2025-01-07 01:04:17.17	13.44	9.50	
2025-01-07 01:04:17.37	13.43	9.51	
2025-01-07 01:04:17.58	13.42	9.53	
2025-01-07 01:04:17.78	13.41	9.55	
2025-01-07 01:04:17.99	13.40	9.57	
2025-01-07 01:04:18.19	13.39	9.58	
2025-01-07 01:04:18.40	13.38	9.60	
2025-01-07 01:04:18.60	13.38	9.62	
2025-01-07 01:04:18.81	13.37	9.63	
2025-01-07 01:04:19.02	13.36	9.65	
2025-01-07 01:04:19.22	13.35	9.67	
2025-01-07 01:04:19.43	13.34	9.68	
2025-01-07 01:04:19.63	13.33	9.70	
2025-01-07 01:04:19.83	13.32	9.72	
2025-01-07 01:04:20.04	13.31	9.74	
2025-01-07 01:04:20.25	13.31	9.75	
2025-01-07 01:04:20.45	13.30	9.77	
2025-01-07 01:04:20.66	13.29	9.79	
2025-01-07 01:04:20.86	13.28	9.80	
2025-01-07 01:04:21.07	13.27	9.82	
2025-01-07 01:04:21.28	13.26	9.84	
2025-01-07 01:04:21.48	13.25	9.86	
2025-01-07 01:04:21.69	13.24	9.87	
2025-01-07 01:04:21.89	13.23	9.89	
2025-01-07 01:04:22.10	13.22	9.91	
2025-01-07 01:04:22.30	13.22	9.92	
2025-01-07 01:04:22.51	13.21	9.94	
2025-01-07 01:04:22.71	13.20	9.96	
2025-01-07 01:04:22.92	13.19	9.98	
2025-01-07 01:04:23.12	13.18	9.99	
2025-01-07 01:04:23.33	13.17	10.01	
2025-01-07 01:04:23.53	13.16	10.03	
2025-01-07 01:04:23.74	13.15	10.04	
2025-01-07 01:04:23.94	13.14	10.06	
2025-01-07 01:04:24.15	13.14	10.08	
2025-01-07 01:04:24.36	13.13	10.10	
2025-01-07 01:04:24.56	13.12	10.11	
2025-01-07 01:04:24.77	13.11	10.13	
2025-01-07 01:04:24.97	13.10	10.15	
2025-01-07 01:04:25.18	13.09	10.17	
2025-01-07 01:04:25.38	13.08	10.18	
2025-01-07 01:04:25.59	13.07	10.20	
2025-01-07 01:04:25.80	13.06	10.22	
2025-01-07 01:04:26.00	13.05	10.24	
2025-01-07 01:04:26.20	13.04	10.25	
2025-01-07 01:04:26.41	13.03	10.27	
2025-01-07 01:04:26.61	13.03	10.29	
2025-01-07 01:04:26.82	13.02	10.30	
2025-01-07 01:04:27.02	13.01	10.32	
2025-01-07 01:04:27.23	13.00	10.34	
2025-01-07 01:04:27.44	12.99	10.36	
2025-01-07 01:04:27.64	12.98	10.37	
2025-01-07 01:04:27.85	12.97	10.39	
2025-01-07 01:04:28.05	12.96	10.41	
2025-01-07 01:04:28.25	12.95	10.43	
2025-01-07 01:04:28.46	12.94	10.44	
2025-01-07 01:04:28.66	12.93	10.46	
2025-01-07 01:04:28.87	12.92	10.48	
2025-01-07 01:04:29.07	12.91	10.50	
2025-01-07 01:04:29.28	12.90	10.51	
2025-01-07 01:04:29.48	12.90	10.53	
2025-01-07 01:04:29.69	12.89	10.55	
2025-01-07 01:04:29.89	12.88	10.57	
2025-01-07 01:04:30.09	12.87	10.58	
2025-01-07 01:04:30.30	12.86	10.60	
2025-01-07 01:04:30.50	12.85	10.62	
2025-01-07 01:04:30.71	12.84	10.64	
2025-01-07 01:04:30.91	12.83	10.65	
2025-01-07 01:04:31.13	12.82	10.67	
2025-01-07 01:04:31.34	12.81	10.69	
2025-01-07 01:04:31.54	12.80	10.71	
2025-01-07 01:04:31.75	12.79	10.73	
2025-01-07 01:04:31.95	12.78	10.74	
2025-01-07 01:04:32.16	12.77	10.76	
2025-01-07 01:04:32.38	12.76	10.78	
2025-01-07 01:04:32.58	12.75	10.80	
2025-01-07 01:04:32.79	12.74	10.82	
2025-01-07 01:04:32.99	12.73	10.83	
2025-01-07 01:04:33.20	12.72	10.85	
2025-01-07 01:04:33.40	12.71	10.87	
2025-01-07 01:04:33.61	12.70	10.89	
2025-01-07 01:04:33.81	12.70	10.90	
2025-01-07 01:04:34.02	12.69	10.92	
2025-01-07 01:04:34.22	12.68	10.94	
2025-01-07 01:04:34.43	12.67	10.96	
2025-01-07 01:04:34.63	12.66	10.98	
2025-01-07 01:04:34.84	12.65	10.99	
2025-01-07 01:04:35.04	12.64	11.01	
2025-01-07 01:04:35.25	12.63	11.03	
2025-01-07 01:04:35.45	12.62	11.05	
2025-01-07 01:04:35.66	12.61	11.07	
2025-01-07 01:04:35.86	12.60	11.08	
2025-01-07 01:04:36.07	12.59	11.10	
2025-01-07 01:04:36.28	12.58	11.12	
2025-01-07 01:04:36.48	12.57	11.14	
2025-01-07 01:04:36.69	12.56	11.16	
2025-01-07 01:04:36.89	12.55	11.17	
2025-01-07 01:04:37.09	12.54	11.19	
2025-01-07 01:04:37.30	12.53	11.21	
2025-01-07 01:04:37.51	12.52	11.23	
2025-01-07 01:04:37.71	12.51	11.25	
2025-01-07 01:04:37.92	12.50	11.26	
2025-01-07 01:04:38.12	12.49	11.28	
2025-01-07 01:04:38.33	12.48	11.30	
2025-01-07 01:04:38.53	12.47	11.32	
2025-01-07 01:04:38.74	12.46	11.34	
2025-01-07 01:04:38.94	12.45	11.35	
2025-01-07 01:04:39.15	12.44	11.37	
2025-01-07 01:04:39.35	12.43	11.39	
2025-01-07 01:04:39.56	12.42	11.41	
2025-01-07 01:04:39.77	12.41	11.43	
2025-01-07 01:04:39.97	12.40	11.45	
2025-01-07 01:04:40.18	12.39	11.46	
2025-01-07 01:04:40.38	12.38	11.48	
2025-01-07 01:04:40.59	12.37	11.50	
2025-01-07 01:04:40.79	12.36	11.52	
2025-01-07 01:04:41.00	12.35	11.54	
2025-01-07 01:04:41.20	12.34	11.55	
2025-01-07 01:04:41.41	12.33	11.57	
2025-01-07 01:04:41.61	12.32	11.59	
2025-01-07 01:04:41.82	12.31	11.61	
2025-01-07 01:04:42.04	12.30	11.63	
2025-01-07 01:04:42.24	12.29	11.65	
2025-01-07 01:04:42.45	12.28	11.67	
2025-01-07 01:04:42.66	12.27	11.68	
2025-01-07 01:04:42.86	12.26	11.70	
2025-01-07 01:04:43.07	12.25	11.72	
2025-01-07 01:04:43.27	12.24	11.74	
2025-01-07 01:04:43.48	12.23	11.76	
2025-01-07 01:04:43.68	12.22	11.78	
2025-01-07 01:04:43.89	12.21	11.79	
2025-01-07 01:04:44.09	12.20	11.81	
2025-01-07 01:04:44.30	12.19	11.83	
2025-01-07 01:04:44.50	12.18	11.85	
2025-01-07 01:04:44.71	12.17	11.87	
2025-01-07 01:04:44.92	12.15	11.89	
2025-01-07 01:04:45.12	12.14	11.91	
2025-01-07 01:04:45.33	12.13	11.92	
2025-01-07 01:04:45.53	12.12	11.94	
2025-01-07 01:04:45.74	12.11	11.96	
2025-01-07 01:04:45.95	12.10	11.98	
2025-01-07 01:04:46.15	12.09	12.00	
2025-01-07 01:04:46.37	12.08	12.02	
2025-01-07 01:04:46.57	12.07	12.04	
2025-01-07 01:04:46.78	12.06	12.06	
2025-01-07 01:04:46.98	12.05	12.07	
2025-01-07 01:04:47.19	12.04	12.09	
2025-01-07 01:04:47.40	12.03	12.11	
2025-01-07 01:04:47.60	12.02	12.13	
2025-01-07 01:04:47.81	12.01	12.15	
2025-01-07 01:04:48.01	12.00	12.17	
2025-01-07 01:04:48.22	11.99	12.19	
2025-01-07 01:04:48.42	11.98	12.20	
2025-01-07 01:04:48.63	11.97	12.22	
2025-01-07 01:04:48.83	11.95	12.24	
2025-01-07 01:04:49.04	11.94	12.26	
2025-01-07 01:04:49.25	11.93	12.28	
2025-01-07 01:04:49.46	11.92	12.30	
2025-01-07 01:04:49.67	11.91	12.32	
2025-01-07 01:04:49.87	11.90	12.34	
2025-01-07 01:04:50.08	11.89	12.36	
2025-01-07 01:04:50.28	11.88	12.38	
2025-01-07 01:04:50.49	11.87	12.39	
2025-01-07 01:04:50.69	11.86	12.41	
2025-01-07 01:04:50.90	11.85	12.43	
2025-01-07 01:04:51.10	11.84	12.45	
2025-01-07 01:04:51.31	11.83	12.47	
2025-01-07 01:04:51.52	11.81	12.49	
2025-01-07 01:04:51.72	11.80	12.51	
2025-01-07 01:04:51.93	11.79	12.53	
2025-01-07 01:04:52.13	11.78	12.55	
2025-01-07 01:04:52.34	11.77	12.56	
2025-01-07 01:04:52.54	11.76	12.58	
2025-01-07 01:04:52.75	11.75	12.60	
2025-01-07 01:04:52.95	11.74	12.62	
2025-01-07 01:04:53.16	11.73	12.64	
2025-01-07 01:04:53.36	11.72	12.66	
2025-01-07 01:04:53.57	11.71	12.68	
2025-01-07 01:04:53.77	11.69	12.70	
2025-01-07 01:04:53.98	11.68	12.72	
2025-01-07 01:04:54.18	11.67	12.74	
2025-01-07 01:04:54.39	11.66	12.76	
2025-01-07 01:04:54.59	11.65	12.77	
2025-01-07 01:04:54.79	11.64	12.79	
2025-01-07 01:04:55.00	11.63	12.81	
2025-01-07 01:04:55.20	11.62	12.83	
2025-01-07 01:04:55.41	11.61	12.85	
2025-01-07 01:04:55.61	11.60	12.87	
2025-01-07 01:04:55.82	11.58	12.89	
2025-01-07 01:04:56.02	11.57	12.91	
2025-01-07 01:04:56.23	11.56	12.93	
2025-01-07 01:04:56.44	11.55	12.95	
2025-01-07 01:04:56.64	11.54	12.97	
2025-01-07 01:04:56.85	11.53	12.99	
2025-01-07 01:04:57.05	11.52	13.00	
2025-01-07 01:04:57.26	11.51	13.02	
2025-01-07 01:04:57.46	11.49	13.04	
2025-01-07 01:04:57.67	11.48	13.06	
2025-01-07 01:04:57.87	11.47	13.08	
2025-01-07 01:04:58.08	11.46	13.10	
2025-01-07 01:04:58.28	11.45	13.12	
2025-01-07 01:04:58.49	11.44	13.14	
2025-01-07 01:04:58.70	11.43	13.16	
2025-01-07 01:04:58.90	11.42	13.18	
2025-01-07 01:04:59.10	11.40	13.20	
2025-01-07 01:04:59.31	11.39	13.22	
2025-01-07 01:04:59.52	11.38	13.24	
2025-01-07 01:04:59.72	11.37	13.26	
2025-01-07 01:04:59.93	11.36	13.28	
2025-01-07 01:05:00.13	11.35	13.30	
2025-01-07 01:05:00.34	11.34	13.32	
2025-01-07 01:05:00.54	11.32	13.33	
2025-01-07 01:05:00.75	11.31	13.35	
2025-01-07 01:05:00.95	11.30	13.37	
2025-01-07 01:05:01.16	11.29	13.39	
2025-01-07 01:05:01.36	11.28	13.41	
2025-01-07 01:05:01.57	11.27	13.43	
2025-01-07 01:05:01.78	11.25	13.45	
2025-01-07 01:05:01.98	11.24	13.47	
2025-01-07 01:05:02.19	11.23	13.49	
2025-01-07 01:05:02.39	11.22	13.51	
2025-01-07 01:05:02.60	11.21	13.53	
2025-01-07 01:05:02.80	11.20	13.55	
2025-01-07 01:05:03.01	11.18	13.57	
2025-01-07 01:05:03.22	11.17	13.59	
2025-01-07 01:05:03.42	11.16	13.61	
2025-01-07 01:05:03.62	11.15	13.63	
2025-01-07 01:05:03.83	11.14	13.65	
2025-01-07 01:05:04.04	11.13	13.67	
2025-01-07 01:05:04.24	11.11	13.69	
2025-01-07 01:05:04.45	11.10	13.71	
2025-01-07 01:05:04.65	11.09	13.73	
2025-01-07 01:05:04.86	11.08	13.75	
2025-01-07 01:05:05.06	11.07	13.77	
2025-01-07 01:05:05.27	11.05	13.79	
2025-01-07 01:05:05.47	11.04	13.81	
2025-01-07 01:05:05.68	11.03	13.83	
2025-01-07 01:05:05.88	11.02	13.85	
2025-01-07 01:05:06.09	11.01	13.87	
2025-01-07 01:05:06.29	11.00	13.89	
2025-01-07 01:05:06.50	10.98	13.91	
2025-01-07 01:05:06.70	10.97	13.93	
2025-01-07 01:05:06.91	10.96	13.95	
2025-01-07 01:05:07.11	10.95	13.97	
2025-01-07 01:05:07.32	10.93	13.99	
2025-01-07 01:05:07.52	10.92	14.01	
2025-01-07 01:05:07.74	10.91	14.03	
2025-01-07 01:05:07.95	10.90	14.05	
2025-01-07 01:05:08.15	10.89	14.07	
2025-01-07 01:05:08.36	10.87	14.09	
2025-01-07 01:05:08.56	10.86	14.11	
2025-01-07 01:05:08.77	10.85	14.13	
2025-01-07 01:05:08.97	10.84	14.15	
2025-01-07 01:05:09.18	10.82	14.17	
2025-01-07 01:05:09.38	10.81	14.19	
2025-01-07 01:05:09.59	10.80	14.21	
2025-01-07 01:05:09.80	10.79	14.23	
2025-01-07 01:05:10.00	10.78	14.25	
2025-01-07 01:05:10.21	10.76	14.27	
2025-01-07 01:05:10.41	10.75	14.29	
2025-01-07 01:05:10.62	10.74	14.31	
2025-01-07 01:05:10.82	10.73	14.33	
2025-01-07 01:05:11.03	10.71	14.35	
2025-01-07 01:05:11.23	10.70	14.37	
2025-01-07 01:05:11.44	10.69	14.39	
2025-01-07 01:05:11.65	10.68	14.41	
2025-01-07 01:05:11.85	10.66	14.43	
2025-01-07 01:05:12.06	10.65	14.45	
2025-01-07 01:05:12.26	10.64	14.47	
2025-01-07 01:05:12.47	10.63	14.50	
2025-01-07 01:05:12.67	10.61	14.52	
2025-01-07 01:05:12.88	10.60	14.54	
2025-01-07 01:05:13.08	10.59	14.56	
2025-01-07 01:05:13.29	10.58	14.58	
2025-01-07 01:05:13.50	10.56	14.60	
2025-01-07 01:05:13.70	10.55	14.62	
2025-01-07 01:05:13.90	10.54	14.64	
2025-01-07 01:05:14.11	10.53	14.66	
2025-01-07 01:05:14.32	10.51	14.68	
2025-01-07 01:05:14.52	10.50	14.70	
2025-01-07 01:05:14.73	10.49	14.72	
2025-01-07 01:05:14.93	10.48	14.74	
2025-01-07 01:05:15.14	10.46	14.76	
2025-01-07 01:05:15.34	10.45	14.78	
2025-01-07 01:05:15.55	10.44	14.80	
2025-01-07 01:05:15.75	10.42	14.82	
2025-01-07 01:05:15.96	10.41	14.84	
2025-01-07 01:05:16.16	10.40	14.87	
2025-01-07 01:05:16.37	10.39	14.89	
2025-01-07 01:05:16.57	10.37	14.91	
2025-01-07 01:05:16.78	10.36	14.93	
2025-01-07 01:05:16.98	10.35	14.95	
2025-01-07 01:05:17.19	10.33	14.97	
2025-01-07 01:05:17.39	10.32	14.99	
2025-01-07 01:05:17.60	10.31	15.01	
2025-01-07 01:05:17.81	10.29	15.03	
2025-01-07 01:05:18.01	10.28	15.05	
2025-01-07 01:05:18.22	10.27	15.07	
2025-01-07 01:05:18.42	10.26	15.09	
2025-01-07 01:05:18.63	10.24	15.12	
2025-01-07 01:05:18.83	10.23	15.14	
2025-01-07 01:05:19.04	10.22	15.16	
2025-01-07 01:05:19.25	10.20	15.18	
2025-01-07 01:05:19.45	10.19	15.20	
2025-01-07 01:05:19.65	10.18	15.22	
2025-01-07 01:05:19.86	10.16	15.24	
2025-01-07 01:05:20.06	10.15	15.26	
2025-01-07 01:05:20.27	10.14	15.28	
2025-01-07 01:05:20.47	10.12	15.30	
2025-01-07 01:05:20.68	10.11	15.33	
2025-01-07 01:05:20.89	10.10	15.35	
2025-01-07 01:05:21.09	10.08	15.37	
2025-01-07 01:05:21.30	10.07	15.39	
2025-01-07 01:05:21.50	10.06	15.41	
2025-01-07 01:05:21.71	10.04	15.43	
2025-01-07 01:05:21.91	10.03	15.45	
2025-01-07 01:05:22.12	10.02	15.47	
2025-01-07 01:05:22.33	10.00	15.49	
2025-01-07 01:05:22.53	9.99	15.52	
2025-01-07 01:05:22.74	9.98	15.54	
2025-01-07 01:05:22.94	9.96	15.56	
2025-01-07 01:05:23.15	9.95	15.58	
2025-01-07 01:05:23.35	9.94	15.60	
2025-01-07 01:05:23.56	9.92	15.62	
2025-01-07 01:05:23.76	9.91	15.64	
2025-01-07 01:05:23.97	9.90	15.66	
2025-01-07 01:05:24.17	9.88	15.69	
2025-01-07 01:05:24.38	9.87	15.71	
2025-01-07 01:05:24.58	9.86	15.73	
2025-01-07 01:05:24.79	9.84	15.75	
2025-01-07 01:05:24.99	9.83	15.77	
2025-01-07 01:05:25.20	9.81	15.79	
2025-01-07 01:05:25.40	9.80	15.81	
2025-01-07 01:05:25.61	9.79	15.84	
2025-01-07 01:05:25.81	9.77	15.86	
2025-01-07 01:05:26.02	9.76	15.88	
2025-01-07 01:05:26.23	9.75	15.90	
2025-01-07 01:05:26.43	9.73	15.92	
2025-01-07 01:05:26.64	9.72	15.94	
2025-01-07 01:05:26.84	9.70	15.96	
2025-01-07 01:05:27.05	9.69	15.99	
2025-01-07 01:05:27.25	9.68	16.01	
2025-01-07 01:05:27.46	9.66	16.03	
2025-01-07 01:05:27.67	9.65	16.05	
2025-01-07 01:05:27.87	9.63	16.07	
2025-01-07 01:05:28.08	9.62	16.10	
2025-01-07 01:05:28.28	9.61	16.12	
2025-01-07 01:05:28.49	9.59	16.14	
2025-01-07 01:05:28.69	9.58	16.16	
2025-01-07 01:05:28.90	9.56	16.18	
2025-01-07 01:05:29.12	9.55	16.21	
2025-01-07 01:05:29.32	9.53	16.23	
2025-01-07 01:05:29.53	9.52	16.25	
2025-01-07 01:05:29.73	9.51	16.27	
2025-01-07 01:05:29.94	9.49	16.29	
2025-01-07 01:05:30.14	9.48	16.31	
2025-01-07 01:05:30.35	9.46	16.34	
2025-01-07 01:05:30.55	9.45	16.36	
2025-01-07 01:05:30.76	9.43	16.38	
2025-01-07 01:05:30.96	9.42	16.40	
2025-01-07 01:05:31.17	9.41	16.42	
2025-01-07 01:05:31.38	9.39	16.45	
2025-01-07 01:05:31.58	9.38	16.47	
2025-01-07 01:05:31.79	9.36	16.49	
2025-01-07 01:05:31.99	9.35	16.51	
2025-01-07 01:05:32.20	9.33	16.53	
2025-01-07 01:05:32.40	9.32	16.56	
2025-01-07 01:05:32.61	9.31	16.58	
2025-01-07 01:05:32.81	9.29	16.60	
2025-01-07 01:05:33.02	9.28	16.62	
2025-01-07 01:05:33.22	9.26	16.64	
2025-01-07 01:05:33.43	9.25	16.67	
2025-01-07 01:05:33.63	9.23	16.69	
2025-01-07 01:05:33.84	9.22	16.71	
2025-01-07 01:05:34.04	9.20	16.73	
2025-01-07 01:05:34.25	9.19	16.76	
2025-01-07 01:05:34.47	9.17	16.78	
2025-01-07 01:05:34.67	9.16	16.80	
2025-01-07 01:05:34.88	9.14	16.82	
2025-01-07 01:05:35.08	9.13	16.85	
2025-01-07 01:05:35.29	9.11	16.87	
2025-01-07 01:05:35.49	9.10	16.89	
2025-01-07 01:05:35.70	9.08	16.91	
2025-01-07 01:05:35.91	9.07	16.94	
2025-01-07 01:05:36.11	9.05	16.96	
2025-01-07 01:05:36.32	9.04	16.98	
2025-01-07 01:05:36.52	9.02	17.00	
2025-01-07 01:05:36.73	9.01	17.03	
2025-01-07 01:05:36.93	8.99	17.05	
2025-01-07 01:05:37.14	8.98	17.07	
2025-01-07 01:05:37.35	8.96	17.09	
2025-01-07 01:05:37.56	8.95	17.12	
2025-01-07 01:05:37.76	8.93	17.14	
2025-01-07 01:05:37.97	8.92	17.16	
2025-01-07 01:05:38.18	8.90	17.18	
2025-01-07 01:05:38.38	8.89	17.21	
2025-01-07 01:05:38.60	8.87	17.23	
2025-01-07 01:05:38.80	8.86	17.25	
2025-01-07 01:05:39.01	8.84	17.28	
2025-01-07 01:05:39.21	8.83	17.30	
2025-01-07 01:05:39.42	8.81	17.32	
2025-01-07 01:05:39.62	8.80	17.34	
2025-01-07 01:05:39.83	8.78	17.37	
2025-01-07 01:05:40.03	8.77	17.39	
2025-01-07 01:05:40.24	8.75	17.41	
2025-01-07 01:05:40.44	8.74	17.43	
2025-01-07 01:05:40.65	8.72	17.46	
2025-01-07 01:05:40.85	8.70	17.48	
2025-01-07 01:05:41.06	8.69	17.50	
2025-01-07 01:05:41.27	8.67	17.53	
2025-01-07 01:05:41.47	8.66	17.55	
2025-01-07 01:05:41.67	8.64	17.57	
2025-01-07 01:05:41.89	8.63	17.60	
2025-01-07 01:05:42.10	8.61	17.62	
2025-01-07 01:05:42.30	8.59	17.64	
2025-01-07 01:05:42.51	8.58	17.66	
2025-01-07 01:05:42.71	8.56	17.69	
2025-01-07 01:05:42.92	8.55	17.71	
2025-01-07 01:05:43.13	8.53	17.73	
2025-01-07 01:05:43.33	8.52	17.76	
2025-01-07 01:05:43.54	8.50	17.78	
2025-01-07 01:05:43.74	8.48	17.80	
2025-01-07 01:05:43.95	8.47	17.83	
2025-01-07 01:05:44.15	8.45	17.85	
2025-01-07 01:05:44.36	8.44	17.87	
2025-01-07 01:05:44.56	8.42	17.89	
2025-01-07 01:05:44.77	8.41	17.92	
2025-01-07 01:05:44.97	8.39	17.94	
2025-01-07 01:05:45.18	8.37	17.96	
2025-01-07 01:05:45.38	8.36	17.99	
2025-01-07 01:05:45.59	8.34	18.01	
2025-01-07 01:05:45.79	8.33	18.03	
2025-01-07 01:05:46.00	8.31	18.06	
2025-01-07 01:05:46.20	8.29	18.08	
2025-01-07 01:05:46.41	8.28	18.10	
2025-01-07 01:05:46.61	8.26	18.13	
2025-01-07 01:05:46.82	8.25	18.15	
2025-01-07 01:05:47.02	8.23	18.17	
2025-01-07 01:05:47.23	8.21	18.20	
2025-01-07 01:05:47.43	8.20	18.22	
2025-01-07 01:05:47.64	8.18	18.24	
2025-01-07 01:05:47.84	8.16	18.27	
2025-01-07 01:05:48.05	8.15	18.29	
2025-01-07 01:05:48.26	8.13	18.32	
2025-01-07 01:05:48.46	8.11	18.34	
2025-01-07 01:05:48.67	8.10	18.36	
2025-01-07 01:05:48.87	8.08	18.39	
2025-01-07 01:05:49.08	8.07	18.41	
2025-01-07 01:05:49.28	8.05	18.43	
2025-01-07 01:05:49.49	8.03	18.46	
2025-01-07 01:05:49.70	8.02	18.48	
2025-01-07 01:05:49.90	8.00	18.50	
2025-01-07 01:05:50.11	7.98	18.53	
2025-01-07 01:05:50.31	7.97	18.55	
2025-01-07 01:05:50.52	7.95	18.58	
2025-01-07 01:05:50.72	7.93	18.60	
2025-01-07 01:05:50.93	7.92	18.62	
2025-01-07 01:05:51.14	7.90	18.65	
2025-01-07 01:05:51.34	7.88	18.67	
2025-01-07 01:05:51.55	7.87	18.69	
2025-01-07 01:05:51.75	7.85	18.72	
2025-01-07 01:05:51.96	7.83	18.74	
2025-01-07 01:05:52.16	7.82	18.77	
2025-01-07 01:05:52.37	7.80	18.79	
2025-01-07 01:05:52.57	7.78	18.81	
2025-01-07 01:05:52.78	7.76	18.84	
2025-01-07 01:05:52.98	7.75	18.86	
2025-01-07 01:05:53.18	7.73	18.88	
2025-01-07 01:05:53.39	7.71	18.91	
2025-01-07 01:05:53.59	7.70	18.93	
2025-01-07 01:05:53.80	7.68	18.96	
2025-01-07 01:05:54.00	7.66	18.98	
2025-01-07 01:05:54.21	7.65	19.01	
2025-01-07 01:05:54.42	7.63	19.03	
2025-01-07 01:05:54.62	7.61	19.05	
2025-01-07 01:05:54.82	7.59	19.08	
2025-01-07 01:05:55.03	7.58	19.10	
2025-01-07 01:05:55.23	7.56	19.13	
2025-01-07 01:05:55.44	7.54	19.15	
2025-01-07 01:05:55.64	7.53	19.17	
2025-01-07 01:05:55.85	7.51	19.20	
2025-01-07 01:05:56.05	7.49	19.22	
2025-01-07 01:05:56.26	7.47	19.25	
2025-01-07 01:05:56.47	7.45	19.27	
2025-01-07 01:05:56.67	7.44	19.30	
2025-01-07 01:05:56.87	7.42	19.32	
2025-01-07 01:05:57.08	7.40	19.34	
2025-01-07 01:05:57.28	7.39	19.37	
2025-01-07 01:05:57.49	7.37	19.39	
2025-01-07 01:05:57.70	7.35	19.42	
2025-01-07 01:05:57.92	7.33	19.44	
2025-01-07 01:05:58.12	7.31	19.47	
2025-01-07 01:05:58.33	7.30	19.49	
2025-01-07 01:05:58.53	7.28	19.52	
2025-01-07 01:05:58.74	7.26	19.54	
2025-01-07 01:05:58.94	7.24	19.57	
2025-01-07 01:05:59.14	7.23	19.59	
2025-01-07 01:05:59.35	7.21	19.62	
2025-01-07 01:05:59.56	7.19	19.64	
2025-01-07 01:05:59.76	7.17	19.67	
2025-01-07 01:05:59.96	7.15	19.69	
2025-01-07 01:06:00.17	7.14	19.71	
2025-01-07 01:06:00.37	7.12	19.74	
2025-01-07 01:06:00.58	7.10	19.76	
2025-01-07 01:06:00.78	7.08	19.79	
2025-01-07 01:06:00.99	7.06	19.81	
2025-01-07 01:06:01.19	7.05	19.84	
2025-01-07 01:06:01.40	7.03	19.86	
2025-01-07 01:06:01.60	7.01	19.89	
2025-01-07 01:06:01.81	6.99	19.91	
2025-01-07 01:06:02.01	6.97	19.94	
2025-01-07 01:06:02.22	6.95	19.96	
2025-01-07 01:06:02.42	6.94	19.99	
2025-01-07 01:06:02.63	6.92	20.01	
2025-01-07 01:06:02.84	6.90	20.04	
2025-01-07 01:06:03.04	6.88	20.06	
2025-01-07 01:06:03.25	6.86	20.09	
2025-01-07 01:06:03.45	6.84	20.11	
2025-01-07 01:06:03.66	6.82	20.14	
2025-01-07 01:06:03.87	6.81	20.16	
2025-01-07 01:06:04.07	6.79	20.19	
2025-01-07 01:06:04.28	6.77	20.21	
2025-01-07 01:06:04.48	6.75	20.24	
2025-01-07 01:06:04.69	6.73	20.26	
2025-01-07 01:06:04.89	6.71	20.29	
2025-01-07 01:06:05.10	6.69	20.31	
2025-01-07 01:06:05.30	6.68	20.34	
2025-01-07 01:06:05.51	6.66	20.36	
2025-01-07 01:06:05.71	6.64	20.39	
2025-01-07 01:06:05.92	6.62	20.42	
2025-01-07 01:06:06.13	6.60	20.44	
2025-01-07 01:06:06.33	6.58	20.47	
2025-01-07 01:06:06.54	6.56	20.49	
2025-01-07 01:06:06.74	6.54	20.52	
2025-01-07 01:06:06.95	6.52	20.54	
2025-01-07 01:06:07.16	6.50	20.57	
2025-01-07 01:06:07.36	6.49	20.59	
2025-01-07 01:06:07.56	6.47	20.62	
2025-01-07 01:06:07.77	6.45	20.64	
2025-01-07 01:06:07.97	6.43	20.67	
2025-01-07 01:06:08.18	6.41	20.70	
2025-01-07 01:06:08.38	6.39	20.72	
2025-01-07 01:06:08.59	6.37	20.75	
2025-01-07 01:06:08.79	6.35	20.77	
2025-01-07 01:06:09.00	6.33	20.80	
2025-01-07 01:06:09.20	6.31	20.82	
2025-01-07 01:06:09.41	6.29	20.85	
2025-01-07 01:06:09.61	6.27	20.87	
2025-01-07 01:06:09.82	6.25	20.90	
2025-01-07 01:06:10.02	6.24	20.93	
2025-01-07 01:06:10.23	6.22	20.95	
2025-01-07 01:06:10.44	6.20	20.98	
2025-01-07 01:06:10.64	6.18	21.00	
2025-01-07 01:06:10.84	6.16	21.03	
2025-01-07 01:06:11.05	6.14	21.06	
2025-01-07 01:06:11.26	6.12	21.08	
2025-01-07 01:06:11.46	6.10	21.11	
2025-01-07 01:06:11.67	6.08	21.13	
2025-01-07 01:06:11.87	6.06	21.16	
2025-01-07 01:06:12.08	6.04	21.19	
2025-01-07 01:06:12.28	6.02	21.21	
2025-01-07 01:06:12.49	6.00	21.24	
2025-01-07 01:06:12.69	5.98	21.26	
2025-01-07 01:06:12.91	5.96	21.29	
2025-01-07 01:06:13.12	5.94	21.32	
2025-01-07 01:06:13.32	5.92	21.34	
2025-01-07 01:06:13.53	5.90	21.37	
2025-01-07 01:06:13.73	5.88	21.40	
2025-01-07 01:06:13.94	5.86	21.42	
2025-01-07 01:06:14.14	5.84	21.45	
2025-01-07 01:06:14.35	5.82	21.48	
2025-01-07 01:06:14.55	5.80	21.50	
2025-01-07 01:06:14.76	5.77	21.53	
2025-01-07 01:06:14.96	5.76	21.55	
2025-01-07 01:06:15.17	5.73	21.58	
2025-01-07 01:06:15.37	5.71	21.61	
2025-01-07 01:06:15.58	5.69	21.63	
2025-01-07 01:06:15.78	5.67	21.66	
2025-01-07 01:06:15.99	5.65	21.69	
2025-01-07 01:06:16.19	5.63	21.71	
2025-01-07 01:06:16.40	5.61	21.74	
2025-01-07 01:06:16.60	5.59	21.76	
2025-01-07 01:06:16.81	5.57	21.79	
2025-01-07 01:06:17.01	5.55	21.82	
2025-01-07 01:06:17.22	5.53	21.84	
2025-01-07 01:06:17.42	5.51	21.87	
2025-01-07 01:06:17.62	5.49	21.90	
2025-01-07 01:06:17.84	5.47	21.93	
2025-01-07 01:06:18.05	5.44	21.95	
2025-01-07 01:06:18.25	5.42	21.98	
2025-01-07 01:06:18.46	5.40	22.01	
2025-01-07 01:06:18.66	5.38	22.03	
2025-01-07 01:06:18.87	5.36	22.06	
2025-01-07 01:06:19.07	5.34	22.09	
2025-01-07 01:06:19.28	5.32	22.11	
2025-01-07 01:06:19.48	5.30	22.14	
2025-01-07 01:06:19.69	5.28	22.17	
2025-01-07 01:06:19.90	5.25	22.19	
2025-01-07 01:06:20.10	5.23	22.22	
2025-01-07 01:06:20.31	5.21	22.25	
2025-01-07 01:06:20.51	5.19	22.27	
2025-01-07 01:06:20.71	5.17	22.30	
2025-01-07 01:06:20.92	5.15	22.33	
2025-01-07 01:06:21.13	5.13	22.36	
2025-01-07 01:06:21.33	5.10	22.38	
2025-01-07 01:06:21.53	5.08	22.41	
2025-01-07 01:06:21.74	5.06	22.44	
2025-01-07 01:06:21.95	5.04	22.46	
2025-01-07 01:06:22.15	5.02	22.49	
2025-01-07 01:06:22.36	5.00	22.52	
2025-01-07 01:06:22.56	4.98	22.54	
2025-01-07 01:06:22.77	4.95	22.57	
2025-01-07 01:06:22.97	4.93	22.60	
2025-01-07 01:06:23.18	4.91	22.63	
2025-01-07 01:06:23.38	4.89	22.65	
2025-01-07 01:06:23.59	4.87	22.68	
2025-01-07 01:06:23.79	4.84	22.71	
2025-01-07 01:06:24.00	4.82	22.74	
2025-01-07 01:06:24.21	4.80	22.76	
2025-01-07 01:06:24.41	4.78	22.79	
2025-01-07 01:06:24.61	4.76	22.82	
2025-01-07 01:06:24.82	4.73	22.85	
2025-01-07 01:06:25.02	4.71	22.87	
2025-01-07 01:06:25.23	4.69	22.90	
2025-01-07 01:06:25.43	4.67	22.93	
2025-01-07 01:06:25.64	4.64	22.96	
2025-01-07 01:06:25.85	4.62	22.98	
2025-01-07 01:06:26.06	4.60	23.01	
2025-01-07 01:06:26.27	4.58	23.04	
2025-01-07 01:06:26.47	4.55	23.07	
2025-01-07 01:06:26.67	4.53	23.09	
2025-01-07 01:06:26.88	4.51	23.12	
2025-01-07 01:06:27.08	4.49	23.15	
2025-01-07 01:06:27.29	4.46	23.18	
2025-01-07 01:06:27.50	4.44	23.21	
2025-01-07 01:06:27.70	4.42	23.23	
2025-01-07 01:06:27.90	4.40	23.26	
2025-01-07 01:06:28.11	4.37	23.29	
2025-01-07 01:06:28.31	4.35	23.32	
2025-01-07 01:06:28.52	4.33	23.35	
2025-01-07 01:06:28.72	4.30	23.37	
2025-01-07 01:06:28.92	4.28	23.40	
2025-01-07 01:06:29.13	4.26	23.43	
2025-01-07 01:06:29.33	4.24	23.46	
2025-01-07 01:06:29.54	4.21	23.48	
2025-01-07 01:06:29.75	4.19	23.51	
2025-01-07 01:06:29.96	4.16	23.54	
2025-01-07 01:06:30.17	4.14	23.57	
2025-01-07 01:06:30.38	4.12	23.60	
2025-01-07 01:06:30.58	4.09	23.63	
2025-01-07 01:06:30.79	4.07	23.66	
2025-01-07 01:06:30.99	4.05	23.68	
2025-01-07 01:06:31.20	4.02	23.71	
2025-01-07 01:06:31.41	4.00	23.74	
2025-01-07 01:06:31.61	3.98	23.77	
2025-01-07 01:06:31.82	3.95	23.80	
2025-01-07 01:06:32.02	3.93	23.83	
2025-01-07 01:06:32.23	3.90	23.85	
2025-01-07 01:06:32.43	3.88	23.88	
2025-01-07 01:06:32.64	3.86	23.91	
2025-01-07 01:06:32.84	3.83	23.94	
2025-01-07 01:06:33.05	3.81	23.97	
2025-01-07 01:06:33.25	3.79	24.00	
2025-01-07 01:06:33.46	3.76	24.03	
2025-01-07 01:06:33.66	3.74	24.05	
2025-01-07 01:06:33.87	3.71	24.08	
2025-01-07 01:06:34.07	3.69	24.11	
2025-01-07 01:06:34.28	3.66	24.14	
2025-01-07 01:06:34.48	3.64	24.17	
2025-01-07 01:06:34.69	3.62	24.20	
2025-01-07 01:06:34.90	3.59	24.23	
2025-01-07 01:06:35.10	3.57	24.25	
2025-01-07 01:06:35.30	3.54	24.28	
2025-01-07 01:06:35.51	3.52	24.31	
2025-01-07 01:06:35.71	3.50	24.34	
2025-01-07 01:06:35.92	3.47	24.37	
2025-01-07 01:06:36.12	3.45	24.40	
2025-01-07 01:06:36.33	3.42	24.43	
2025-01-07 01:06:36.53	3.40	24.46	
2025-01-07 01:06:36.74	3.37	24.49	
2025-01-07 01:06:36.94	3.35	24.51	
2025-01-07 01:06:37.15	3.32	24.54	
2025-01-07 01:06:37.35	3.30	24.57	
2025-01-07 01:06:37.56	3.27	24.60	
2025-01-07 01:06:37.76	3.25	24.63	
2025-01-07 01:06:37.97	3.22	24.66	
2025-01-07 01:06:38.18	3.20	24.69	
2025-01-07 01:06:38.38	3.17	24.72	
2025-01-07 01:06:38.59	3.15	24.75	
2025-01-07 01:06:38.79	3.12	24.78	
2025-01-07 01:06:39.00	3.10	24.81	
2025-01-07 01:06:39.20	3.07	24.83	
2025-01-07 01:06:39.41	3.05	24.86	
2025-01-07 01:06:39.61	3.02	24.89	
2025-01-07 01:06:39.82	2.99	24.92	
2025-01-07 01:06:40.03	2.97	24.95	
2025-01-07 01:06:40.23	2.94	24.98	
2025-01-07 01:06:40.44	2.92	25.01	
2025-01-07 01:06:40.64	2.89	25.04	
2025-01-07 01:06:40.85	2.87	25.07	
2025-01-07 01:06:41.05	2.84	25.10	
2025-01-07 01:06:41.26	2.82	25.13	
2025-01-07 01:06:41.46	2.79	25.16	
2025-01-07 01:06:41.67	2.76	25.19	
2025-01-07 01:06:41.87	2.74	25.22	
2025-01-07 01:06:42.08	2.71	25.25	
2025-01-07 01:06:42.28	2.69	25.28	
2025-01-07 01:06:42.49	2.66	25.31	
2025-01-07 01:06:42.69	2.63	25.34	
2025-01-07 01:06:42.90	2.61	25.37	
2025-01-07 01:06:43.10	2.58	25.40	
2025-01-07 01:06:43.31	2.55	25.43	
2025-01-07 01:06:43.51	2.53	25.46	
2025-01-07 01:06:43.72	2.50	25.49	
2025-01-07 01:06:43.92	2.48	25.51	
2025-01-07 01:06:44.13	2.45	25.55	
2025-01-07 01:06:44.33	2.42	25.57	
2025-01-07 01:06:44.54	2.40	25.61	
2025-01-07 01:06:44.75	2.37	25.64	
2025-01-07 01:06:44.95	2.34	25.67	
2025-01-07 01:06:45.15	2.32	25.69	
2025-01-07 01:06:45.36	2.29	25.73	
2025-01-07 01:06:45.56	2.26	25.75	
2025-01-07 01:06:45.77	2.24	25.79	
2025-01-07 01:06:45.97	2.21	25.81	
2025-01-07 01:06:46.18	2.18	25.85	
2025-01-07 01:06:46.39	2.15	25.88	
2025-01-07 01:06:46.59	2.13	25.91	
2025-01-07 01:06:46.80	2.10	25.94	
2025-01-07 01:06:47.01	2.07	25.97	
2025-01-07 01:06:47.22	2.04	26.00	
2025-01-07 01:06:47.42	2.02	26.03	
2025-01-07 01:06:47.63	1.99	26.06	
2025-01-07 01:06:47.83	1.96	26.09	
2025-01-07 01:06:48.04	1.93	26.12	
2025-01-07 01:06:48.24	1.91	26.15	
2025-01-07 01:06:48.45	1.88	26.18	
2025-01-07 01:06:48.65	1.85	26.21	
2025-01-07 01:06:48.86	1.82	26.24	
2025-01-07 01:06:49.06	1.80	26.27	
2025-01-07 01:06:49.27	1.77	26.30	
2025-01-07 01:06:49.47	1.74	26.33	
2025-01-07 01:06:49.68	1.71	26.36	
2025-01-07 01:06:49.88	1.69	26.39	
2025-01-07 01:06:50.09	1.66	26.43	
2025-01-07 01:06:50.29	1.63	26.46	
2025-01-07 01:06:50.50	1.60	26.49	
2025-01-07 01:06:50.71	1.57	26.52	
2025-01-07 01:06:50.91	1.54	26.55	
2025-01-07 01:06:51.12	1.52	26.58	
2025-01-07 01:06:51.34	1.49	26.61	
2025-01-07 01:06:51.54	1.46	26.64	
2025-01-07 01:06:51.75	1.43	26.68	
2025-01-07 01:06:51.95	1.40	26.71	
2025-01-07 01:06:52.16	1.37	26.74	
2025-01-07 01:06:52.37	1.34	26.77	
2025-01-07 01:06:52.57	1.31	26.80	
2025-01-07 01:06:52.78	1.28	26.83	
2025-01-07 01:06:52.98	1.26	26.86	
2025-01-07 01:06:53.19	1.23	26.89	
2025-01-07 01:06:53.39	1.20	26.92	
2025-01-07 01:06:53.60	1.17	26.95	
2025-01-07 01:06:53.81	1.14	26.99	
2025-01-07 01:06:54.01	1.11	27.02	
2025-01-07 01:06:54.22	1.08	27.05	
2025-01-07 01:06:54.42	1.05	27.08	
2025-01-07 01:06:54.62	1.02	27.11	
2025-01-07 01:06:54.83	0.99	27.14	
2025-01-07 01:06:55.04	0.96	27.17	
2025-01-07 01:06:55.24	0.94	27.21	
2025-01-07 01:06:55.45	0.91	27.24	
2025-01-07 01:06:55.65	0.88	27.27	
2025-01-07 01:06:55.86	0.85	27.30	
2025-01-07 01:06:56.06	0.82	27.33	
2025-01-07 01:06:56.27	0.79	27.36	
2025-01-07 01:06:56.47	0.76	27.39	
2025-01-07 01:06:56.68	0.73	27.43	
2025-01-07 01:06:56.88	0.70	27.46	
2025-01-07 01:06:57.09	0.67	27.49	
2025-01-07 01:06:57.29	0.64	27.52	
2025-01-07 01:06:57.50	0.61	27.55	
2025-01-07 01:06:57.72	0.57	27.59	
2025-01-07 01:06:57.92	0.54	27.62	
2025-01-07 01:06:58.13	0.51	27.65	
2025-01-07 01:06:58.33	0.48	27.68	
2025-01-07 01:06:58.54	0.45	27.71	
2025-01-07 01:06:58.74	0.42	27.74	
2025-01-07 01:06:58.95	0.39	27.78	
2025-01-07 01:06:59.15	0.36	27.81	
2025-01-07 01:06:59.36	0.33	27.84	
2025-01-07 01:06:59.56	0.30	27.87	
2025-01-07 01:06:59.77	0.27	27.90	
2025-01-07 01:06:59.99	0.24	27.94	
2025-01-07 01:07:00.19	0.21	27.97	
2025-01-07 01:07:00.39	0.18	28.00	
2025-01-07 01:07:00.60	0.14	28.03	
2025-01-07 01:07:00.81	0.11	28.07	
2025-01-07 01:07:01.02	0.08	28.10	
2025-01-07 01:07:01.23	0.05	28.13	
2025-01-07 01:07:01.44	0.02	28.17	
2025-01-07 01:07:01.64	359.99	28.20	
2025-01-07 01:07:01.85	359.95	28.23	
2025-01-07 01:07:02.05	359.92	28.26	
2025-01-07 01:07:02.26	359.89	28.30	
2025-01-07 01:07:02.46	359.86	28.33	
2025-01-07 01:07:02.67	359.83	28.36	
2025-01-07 01:07:02.87	359.80	28.39	
2025-01-07 01:07:03.07	359.76	28.42	
2025-01-07 01:07:03.28	359.73	28.46	
2025-01-07 01:07:03.49	359.70	28.49	
2025-01-07 01:07:03.69	359.67	28.52	
2025-01-07 01:07:03.90	359.64	28.55	
2025-01-07 01:07:04.10	359.60	28.59	
2025-01-07 01:07:04.31	359.57	28.62	
2025-01-07 01:07:04.51	359.54	28.65	
2025-01-07 01:07:04.72	359.51	28.68	
2025-01-07 01:07:04.93	359.47	28.72	
2025-01-07 01:07:05.13	359.44	28.75	
2025-01-07 01:07:05.34	359.41	28.78	
2025-01-07 01:07:05.54	359.38	28.82	
2025-01-07 01:07:05.75	359.34	28.85	
2025-01-07 01:07:05.95	359.31	28.88	
2025-01-07 01:07:06.16	359.28	28.91	
2025-01-07 01:07:06.36	359.25	28.95	
2025-01-07 01:07:06.56	359.21	28.98	
2025-01-07 01:07:06.77	359.18	29.01	
2025-01-07 01:07:06.98	359.15	29.05	
2025-01-07 01:07:07.18	359.11	29.08	
2025-01-07 01:07:07.40	359.08	29.11	
2025-01-07 01:07:07.61	359.04	29.15	
2025-01-07 01:07:07.81	359.01	29.18	
2025-01-07 01:07:08.02	358.98	29.21	
2025-01-07 01:07:08.22	358.94	29.25	
2025-01-07 01:07:08.42	358.91	29.28	
2025-01-07 01:07:08.63	358.88	29.31	
2025-01-07 01:07:08.84	358.84	29.35	
2025-01-07 01:07:09.04	358.81	29.38	
2025-01-07 01:07:09.25	358.77	29.41	
2025-01-07 01:07:09.45	358.74	29.45	
2025-01-07 01:07:09.66	358.71	29.48	
2025-01-07 01:07:09.86	358.67	29.51	
2025-01-07 01:07:10.07	358.64	29.55	
2025-01-07 01:07:10.27	358.60	29.58	
2025-01-07 01:07:10.47	358.57	29.61	
2025-01-07 01:07:10.68	358.54	29.65	
2025-01-07 01:07:10.89	358.50	29.68	
2025-01-07 01:07:11.09	358.47	29.71	
2025-01-07 01:07:11.30	358.43	29.75	
2025-01-07 01:07:11.50	358.40	29.78	
2025-01-07 01:07:11.71	358.36	29.81	
2025-01-07 01:07:11.91	358.33	29.85	
2025-01-07 01:07:12.12	358.29	29.88	
2025-01-07 01:07:12.33	358.26	29.92	
2025-01-07 01:07:12.53	358.22	29.95	
2025-01-07 01:07:12.75	358.18	29.98	
2025-01-07 01:07:12.96	358.15	30.02	
2025-01-07 01:07:13.16	358.11	30.05	
2025-01-07 01:07:13.37	358.08	30.09	
2025-01-07 01:07:13.57	358.04	30.12	
2025-01-07 01:07:13.78	358.01	30.15	
2025-01-07 01:07:13.98	357.97	30.19	
2025-01-07 01:07:14.18	357.94	30.22	
2025-01-07 01:07:14.39	357.90	30.26	
2025-01-07 01:07:14.59	357.87	30.29	
2025-01-07 01:07:14.80	357.83	30.32	
2025-01-07 01:07:15.00	357.79	30.36	
2025-01-07 01:07:15.21	357.76	30.39	
2025-01-07 01:07:15.41	357.72	30.42	
2025-01-07 01:07:15.62	357.68	30.46	
2025-01-07 01:07:15.82	357.65	30.49	
2025-01-07 01:07:16.03	357.61	30.53	
2025-01-07 01:07:16.23	357.58	30.56	
2025-01-07 01:07:16.44	357.54	30.60	
2025-01-07 01:07:16.64	357.50	30.63	
2025-01-07 01:07:16.85	357.47	30.66	
2025-01-07 01:07:17.05	357.43	30.70	
2025-01-07 01:07:17.26	357.39	30.73	
2025-01-07 01:07:17.46	357.36	30.77	
2025-01-07 01:07:17.67	357.32	30.80	
2025-01-07 01:07:17.87	357.28	30.84	
2025-01-07 01:07:18.08	357.24	30.87	
2025-01-07 01:07:18.28	357.21	30.90	
2025-01-07 01:07:18.49	357.17	30.94	
2025-01-07 01:07:18.69	357.13	30.97	
2025-01-07 01:07:18.89	357.10	31.01	
2025-01-07 01:07:19.10	357.06	31.04	
2025-01-07 01:07:19.30	357.02	31.08	
2025-01-07 01:07:19.51	356.98	31.11	
2025-01-07 01:07:19.72	356.94	31.15	
2025-01-07 01:07:19.92	356.91	31.18	
2025-01-07 01:07:20.12	356.87	31.21	
2025-01-07 01:07:20.33	356.83	31.25	
2025-01-07 01:07:20.54	356.79	31.29	
2025-01-07 01:07:20.74	356.75	31.32	
2025-01-07 01:07:20.95	356.71	31.36	
2025-01-07 01:07:21.15	356.68	31.39	
2025-01-07 01:07:21.36	356.64	31.43	
2025-01-07 01:07:21.56	356.60	31.46	
2025-01-07 01:07:21.77	356.56	31.50	
2025-01-07 01:07:21.97	356.52	31.53	
2025-01-07 01:07:22.18	356.48	31.57	
2025-01-07 01:07:22.38	356.45	31.60	
2025-01-07 01:07:22.59	356.41	31.64	
2025-01-07 01:07:22.80	356.37	31.67	
2025-01-07 01:07:23.00	356.33	31.71	
2025-01-07 01:07:23.21	356.29	31.74	
2025-01-07 01:07:23.41	356.25	31.78	
2025-01-07 01:07:23.62	356.21	31.81	
2025-01-07 01:07:23.82	356.17	31.85	
2025-01-07 01:07:24.03	356.13	31.88	
2025-01-07 01:07:24.23	356.09	31.92	
2025-01-07 01:07:24.45	356.05	31.95	
2025-01-07 01:07:24.66	356.01	31.99	
2025-01-07 01:07:24.86	355.97	32.02	
2025-01-07 01:07:25.07	355.93	32.06	
2025-01-07 01:07:25.27	355.89	32.10	
2025-01-07 01:07:25.48	355.85	32.13	
2025-01-07 01:07:25.68	355.81	32.17	
2025-01-07 01:07:25.89	355.77	32.20	
2025-01-07 01:07:26.09	355.73	32.24	
2025-01-07 01:07:26.30	355.68	32.27	
2025-01-07 01:07:26.52	355.64	32.31	
2025-01-07 01:07:26.72	355.60	32.35	
2025-01-07 01:07:26.93	355.56	32.38	
2025-01-07 01:07:27.14	355.52	32.42	
2025-01-07 01:07:27.34	355.48	32.45	
2025-01-07 01:07:27.55	355.44	32.49	
2025-01-07 01:07:27.75	355.39	32.53	
2025-01-07 01:07:27.96	355.35	32.56	
2025-01-07 01:07:28.16	355.31	32.60	
2025-01-07 01:07:28.37	355.27	32.63	
2025-01-07 01:07:28.57	355.23	32.67	
2025-01-07 01:07:28.78	355.19	32.70	
2025-01-07 01:07:28.98	355.15	32.74	
2025-01-07 01:07:29.19	355.10	32.78	
2025-01-07 01:07:29.39	355.06	32.81	
2025-01-07 01:07:29.60	355.02	32.85	
2025-01-07 01:07:29.82	354.97	32.89	
2025-01-07 01:07:30.02	354.93	32.92	
2025-01-07 01:07:30.23	354.89	32.96	
2025-01-07 01:07:30.43	354.85	32.99	
2025-01-07 01:07:30.64	354.80	33.03	
2025-01-07 01:07:30.84	354.76	33.07	
2025-01-07 01:07:31.05	354.72	33.10	
2025-01-07 01:07:31.25	354.68	33.14	
2025-01-07 01:07:31.46	354.63	33.17	
2025-01-07 01:07:31.67	354.59	33.21	
2025-01-07 01:07:31.87	354.55	33.25	
2025-01-07 01:07:32.07	354.50	33.28	
2025-01-07 01:07:32.28	354.46	33.32	
2025-01-07 01:07:32.49	354.42	33.36	
2025-01-07 01:07:32.69	354.37	33.39	
2025-01-07 01:07:32.90	354.33	33.43	
2025-01-07 01:07:33.10	354.29	33.46	
2025-01-07 01:07:33.31	354.24	33.50	
2025-01-07 01:07:33.51	354.20	33.54	
2025-01-07 01:07:33.72	354.15	33.57	
2025-01-07 01:07:33.92	354.11	33.61	
2025-01-07 01:07:34.13	354.06	33.65	
2025-01-07 01:07:34.33	354.02	33.68	
2025-01-07 01:07:34.54	353.98	33.72	
2025-01-07 01:07:34.74	353.93	33.76	
2025-01-07 01:07:34.95	353.89	33.79	
2025-01-07 01:07:35.16	353.84	33.83	
2025-01-07 01:07:35.36	353.80	33.87	
2025-01-07 01:07:35.57	353.75	33.90	
2025-01-07 01:07:35.77	353.71	33.94	
2025-01-07 01:07:35.98	353.66	33.98	
2025-01-07 01:07:36.18	353.62	34.01	
2025-01-07 01:07:36.39	353.57	34.05	
2025-01-07 01:07:36.60	353.52	34.09	
2025-01-07 01:07:36.80	353.48	34.12	
2025-01-07 01:07:37.01	353.43	34.16	
2025-01-07 01:07:37.21	353.39	34.20	
2025-01-07 01:07:37.42	353.34	34.24	
2025-01-07 01:07:37.62	353.30	34.27	
2025-01-07 01:07:37.83	353.25	34.31	
2025-01-07 01:07:38.04	353.20	34.35	
2025-01-07 01:07:38.24	353.16	34.38	
2025-01-07 01:07:38.45	353.11	34.42	
2025-01-07 01:07:38.65	353.06	34.46	
2025-01-07 01:07:38.86	353.02	34.49	
2025-01-07 01:07:39.06	352.97	34.53	
2025-01-07 01:07:39.27	352.92	34.57	
2025-01-07 01:07:39.49	352.87	34.61	
2025-01-07 01:07:39.69	352.83	34.64	
2025-01-07 01:07:39.90	352.78	34.68	
2025-01-07 01:07:40.10	352.73	34.72	
2025-01-07 01:07:40.31	352.68	34.76	
2025-01-07 01:07:40.51	352.64	34.79	
2025-01-07 01:07:40.72	352.59	34.83	
2025-01-07 01:07:40.92	352.54	34.87	
2025-01-07 01:07:41.13	352.49	34.91	
2025-01-07 01:07:41.34	352.44	34.94	
2025-01-07 01:07:41.54	352.40	34.98	
2025-01-07 01:07:41.75	352.35	35.02	
2025-01-07 01:07:41.95	352.30	35.05	
2025-01-07 01:07:42.16	352.25	35.09	
2025-01-07 01:07:42.37	352.20	35.13	
2025-01-07 01:07:42.58	352.15	35.17	
2025-01-07 01:07:42.79	352.10	35.21	
2025-01-07 01:07:43.00	352.05	35.25	
2025-01-07 01:07:43.20	352.00	35.28	
2025-01-07 01:07:43.41	351.95	35.32	
2025-01-07 01:07:43.61	351.90	35.36	
2025-01-07 01:07:43.82	351.85	35.40	
2025-01-07 01:07:44.02	351.81	35.43	
2025-01-07 01:07:44.23	351.76	35.47	
2025-01-07 01:07:44.43	351.71	35.51	
2025-01-07 01:07:44.64	351.66	35.55	
2025-01-07 01:07:44.85	351.60	35.58	
2025-01-07 01:07:45.05	351.56	35.62	
2025-01-07 01:07:45.26	351.50	35.66	
2025-01-07 01:07:45.46	351.46	35.70	
2025-01-07 01:07:45.67	351.40	35.74	
2025-01-07 01:07:45.89	351.35	35.78	
2025-01-07 01:07:46.09	351.30	35.81	
2025-01-07 01:07:46.30	351.25	35.85	
2025-01-07 01:07:46.50	351.20	35.89	
2025-01-07 01:07:46.71	351.15	35.93	
2025-01-07 01:07:46.92	351.09	35.97	
2025-01-07 01:07:47.13	351.04	36.00	
2025-01-07 01:07:47.33	350.99	36.04	
2025-01-07 01:07:47.54	350.94	36.08	
2025-01-07 01:07:47.74	350.89	36.12	
2025-01-07 01:07:47.95	350.84	36.16	
2025-01-07 01:07:48.16	350.78	36.19	
2025-01-07 01:07:48.36	350.73	36.23	
2025-01-07 01:07:48.57	350.68	36.27	
2025-01-07 01:07:48.77	350.63	36.31	
2025-01-07 01:07:48.98	350.57	36.35	
2025-01-07 01:07:49.18	350.52	36.38	
2025-01-07 01:07:49.39	350.47	36.42	
2025-01-07 01:07:49.60	350.42	36.46	
2025-01-07 01:07:49.80	350.36	36.50	
2025-01-07 01:07:50.00	350.31	36.53	
2025-01-07 01:07:50.21	350.26	36.57	
2025-01-07 01:07:50.41	350.21	36.61	
2025-01-07 01:07:50.62	350.15	36.65	
2025-01-07 01:07:50.82	350.10	36.69	
2025-01-07 01:07:51.03	350.04	36.73	
2025-01-07 01:07:51.23	349.99	36.76	
2025-01-07 01:07:51.44	349.94	36.80	
2025-01-07 01:07:51.64	349.88	36.84	
2025-01-07 01:07:51.85	349.83	36.88	
2025-01-07 01:07:52.05	349.78	36.92	
2025-01-07 01:07:52.26	349.72	36.96	
2025-01-07 01:07:52.46	349.67	36.99	
2025-01-07 01:07:52.67	349.61	37.03	
2025-01-07 01:07:52.88	349.56	37.07	
2025-01-07 01:07:53.08	349.50	37.11	
2025-01-07 01:07:53.28	349.45	37.15	
2025-01-07 01:07:53.49	349.39	37.18	
2025-01-07 01:07:53.69	349.34	37.22	
2025-01-07 01:07:53.90	349.28	37.26	
2025-01-07 01:07:54.10	349.23	37.30	
2025-01-07 01:07:54.31	349.17	37.34	
2025-01-07 01:07:54.51	349.12	37.38	
2025-01-07 01:07:54.72	349.06	37.41	
2025-01-07 01:07:54.92	349.00	37.45	
2025-01-07 01:07:55.13	348.95	37.49	
2025-01-07 01:07:55.33	348.89	37.53	
2025-01-07 01:07:55.54	348.83	37.57	
2025-01-07 01:07:55.74	348.78	37.61	
2025-01-07 01:07:55.95	348.72	37.65	
2025-01-07 01:07:56.15	348.67	37.68	
2025-01-07 01:07:56.36	348.61	37.72	
2025-01-07 01:07:56.56	348.55	37.76	
2025-01-07 01:07:56.77	348.49	37.80	
2025-01-07 01:07:56.97	348.44	37.84	
2025-01-07 01:07:57.18	348.38	37.88	
2025-01-07 01:07:57.38	348.32	37.91	
2025-01-07 01:07:57.58	348.26	37.95	
2025-01-07 01:07:57.79	348.21	37.99	
2025-01-07 01:07:57.99	348.15	38.03	
2025-01-07 01:07:58.20	348.09	38.07	
2025-01-07 01:07:58.41	348.03	38.11	
2025-01-07 01:07:58.62	347.97	38.15	
2025-01-07 01:07:58.83	347.91	38.19	
2025-01-07 01:07:59.04	347.85	38.23	
2025-01-07 01:07:59.24	347.79	38.26	
2025-01-07 01:07:59.45	347.73	38.30	
2025-01-07 01:07:59.65	347.67	38.34	
2025-01-07 01:07:59.85	347.62	38.38	
2025-01-07 01:08:00.06	347.55	38.42	
2025-01-07 01:08:00.27	347.49	38.46	
2025-01-07 01:08:00.47	347.44	38.50	
2025-01-07 01:08:00.68	347.37	38.54	
2025-01-07 01:08:00.88	347.32	38.57	
2025-01-07 01:08:01.09	347.25	38.61	
2025-01-07 01:08:01.29	347.19	38.65	
2025-01-07 01:08:01.50	347.13	38.69	
2025-01-07 01:08:01.70	347.07	38.73	
2025-01-07 01:08:01.91	347.01	38.77	
2025-01-07 01:08:02.11	346.95	38.81	
2025-01-07 01:08:02.32	346.89	38.85	
2025-01-07 01:08:02.53	346.83	38.88	
2025-01-07 01:08:02.73	346.77	38.92	
2025-01-07 01:08:02.94	346.70	38.96	
2025-01-07 01:08:03.14	346.64	39.00	
2025-01-07 01:08:03.35	346.58	39.04	
2025-01-07 01:08:03.55	346.52	39.08	
2025-01-07 01:08:03.76	346.46	39.12	
2025-01-07 01:08:03.96	346.40	39.16	
2025-01-07 01:08:04.17	346.33	39.20	
2025-01-07 01:08:04.38	346.27	39.23	
2025-01-07 01:08:04.58	346.21	39.27	
2025-01-07 01:08:04.78	346.14	39.31	
2025-01-07 01:08:04.99	346.08	39.35	
2025-01-07 01:08:05.19	346.02	39.39	
2025-01-07 01:08:05.40	345.95	39.43	
2025-01-07 01:08:05.60	345.89	39.47	
2025-01-07 01:08:05.81	345.83	39.51	
2025-01-07 01:08:06.01	345.76	39.54	
2025-01-07 01:08:06.23	345.70	39.59	
2025-01-07 01:08:06.43	345.63	39.62	
2025-01-07 01:08:06.64	345.57	39.66	
2025-01-07 01:08:06.84	345.50	39.70	
2025-01-07 01:08:07.05	345.44	39.74	
2025-01-07 01:08:07.25	345.38	39.78	
2025-01-07 01:08:07.46	345.31	39.82	
2025-01-07 01:08:07.67	345.24	39.86	
2025-01-07 01:08:07.87	345.18	39.90	
2025-01-07 01:08:08.08	345.11	39.94	
2025-01-07 01:08:08.28	345.05	39.97	
2025-01-07 01:08:08.49	344.98	40.01	
2025-01-07 01:08:08.69	344.92	40.05	
2025-01-07 01:08:08.90	344.85	40.09	
2025-01-07 01:08:09.10	344.78	40.13	
2025-01-07 01:08:09.31	344.72	40.17	
2025-01-07 01:08:09.51	344.65	40.21	
2025-01-07 01:08:09.72	344.58	40.25	
2025-01-07 01:08:09.92	344.52	40.28	
2025-01-07 01:08:10.13	344.45	40.32	
2025-01-07 01:08:10.33	344.38	40.36	
2025-01-07 01:08:10.54	344.31	40.40	
2025-01-07 01:08:10.75	344.25	40.44	
2025-01-07 01:08:10.95	344.18	40.48	
2025-01-07 01:08:11.16	344.11	40.52	
2025-01-07 01:08:11.36	344.04	40.56	
2025-01-07 01:08:11.57	343.97	40.60	
2025-01-07 01:08:11.77	343.91	40.63	
2025-01-07 01:08:11.98	343.84	40.67	
2025-01-07 01:08:12.19	343.77	40.71	
2025-01-07 01:08:12.39	343.70	40.75	
2025-01-07 01:08:12.61	343.63	40.79	
2025-01-07 01:08:12.81	343.56	40.83	
2025-01-07 01:08:13.02	343.49	40.87	
2025-01-07 01:08:13.22	343.42	40.91	
2025-01-07 01:08:13.43	343.35	40.95	
2025-01-07 01:08:13.63	343.28	40.99	
2025-01-07 01:08:13.84	343.21	41.03	
2025-01-07 01:08:14.05	343.14	41.07	
2025-01-07 01:08:14.25	343.07	41.10	
2025-01-07 01:08:14.46	343.00	41.14	
2025-01-07 01:08:14.66	342.93	41.18	
2025-01-07 01:08:14.87	342.85	41.22	
2025-01-07 01:08:15.07	342.79	41.26	
2025-01-07 01:08:15.28	342.71	41.30	
2025-01-07 01:08:15.48	342.64	41.34	
2025-01-07 01:08:15.69	342.57	41.38	
2025-01-07 01:08:15.89	342.50	41.41	
2025-01-07 01:08:16.10	342.43	41.45	
2025-01-07 01:08:16.30	342.36	41.49	
2025-01-07 01:08:16.51	342.28	41.53	
2025-01-07 01:08:16.71	342.21	41.57	
2025-01-07 01:08:16.92	342.14	41.61	
2025-01-07 01:08:17.12	342.07	41.65	
2025-01-07 01:08:17.33	341.99	41.69	
2025-01-07 01:08:17.53	341.92	41.72	
2025-01-07 01:08:17.74	341.84	41.76	
2025-01-07 01:08:17.94	341.77	41.80	
2025-01-07 01:08:18.15	341.70	41.84	
2025-01-07 01:08:18.35	341.63	41.88	
2025-01-07 01:08:18.56	341.55	41.92	
2025-01-07 01:08:18.76	341.48	41.95	
2025-01-07 01:08:18.97	341.40	41.99	
2025-01-07 01:08:19.17	341.33	42.03	
2025-01-07 01:08:19.38	341.25	42.07	
2025-01-07 01:08:19.58	341.18	42.11	
2025-01-07 01:08:19.79	341.10	42.15	
2025-01-07 01:08:19.99	341.03	42.18	
2025-01-07 01:08:20.20	340.95	42.22	
2025-01-07 01:08:20.40	340.88	42.26	
2025-01-07 01:08:20.61	340.80	42.30	
2025-01-07 01:08:20.81	340.73	42.34	
2025-01-07 01:08:21.02	340.65	42.38	
2025-01-07 01:08:21.22	340.57	42.41	
2025-01-07 01:08:21.43	340.50	42.45	
2025-01-07 01:08:21.63	340.42	42.49	
2025-01-07 01:08:21.84	340.34	42.53	
2025-01-07 01:08:22.05	340.26	42.57	
2025-01-07 01:08:22.25	340.19	42.61	
2025-01-07 01:08:22.46	340.11	42.65	
2025-01-07 01:08:22.66	340.03	42.68	
2025-01-07 01:08:22.87	339.95	42.72	
2025-01-07 01:08:23.08	339.87	42.76	
2025-01-07 01:08:23.28	339.80	42.80	
2025-01-07 01:08:23.50	339.71	42.84	
2025-01-07 01:08:23.70	339.64	42.88	
2025-01-07 01:08:23.91	339.56	42.92	
2025-01-07 01:08:24.11	339.48	42.95	
2025-01-07 01:08:24.32	339.40	42.99	
2025-01-07 01:08:24.53	339.32	43.03	
2025-01-07 01:08:24.73	339.24	43.07	
2025-01-07 01:08:24.94	339.16	43.11	
2025-01-07 01:08:25.14	339.08	43.14	
2025-01-07 01:08:25.36	338.99	43.18	
2025-01-07 01:08:25.57	338.91	43.22	
2025-01-07 01:08:25.77	338.83	43.26	
2025-01-07 01:08:25.98	338.75	43.30	
2025-01-07 01:08:26.19	338.67	43.34	
2025-01-07 01:08:26.39	338.59	43.37	
2025-01-07 01:08:26.60	338.50	43.41	
2025-01-07 01:08:26.80	338.42	43.45	
2025-01-07 01:08:27.01	338.34	43.49	
2025-01-07 01:08:27.21	338.26	43.53	
2025-01-07 01:08:27.41	338.18	43.56	
2025-01-07 01:08:27.62	338.10	43.60	
2025-01-07 01:08:27.83	338.01	43.64	
2025-01-07 01:08:28.03	337.93	43.68	
2025-01-07 01:08:28.24	337.85	43.71	
2025-01-07 01:08:28.44	337.77	43.75	
2025-01-07 01:08:28.64	337.69	43.79	
2025-01-07 01:08:28.85	337.60	43.83	
2025-01-07 01:08:29.05	337.52	43.86	
2025-01-07 01:08:29.26	337.43	43.90	
2025-01-07 01:08:29.46	337.35	43.94	
2025-01-07 01:08:29.67	337.26	43.97	
2025-01-07 01:08:29.87	337.18	44.01	
2025-01-07 01:08:30.08	337.10	44.05	
2025-01-07 01:08:30.29	337.01	44.09	
2025-01-07 01:08:30.49	336.93	44.12	
2025-01-07 01:08:30.69	336.84	44.16	
2025-01-07 01:08:30.90	336.75	44.20	
2025-01-07 01:08:31.11	336.67	44.24	
2025-01-07 01:08:31.31	336.58	44.27	
2025-01-07 01:08:31.52	336.50	44.31	
2025-01-07 01:08:31.74	336.40	44.35	
2025-01-07 01:08:31.94	336.32	44.38	
2025-01-07 01:08:32.15	336.23	44.42	
2025-01-07 01:08:32.35	336.15	44.46	
2025-01-07 01:08:32.56	336.06	44.50	
2025-01-07 01:08:32.76	335.97	44.53	
2025-01-07 01:08:32.97	335.88	44.57	
2025-01-07 01:08:33.17	335.80	44.61	
2025-01-07 01:08:33.38	335.71	44.64	
2025-01-07 01:08:33.59	335.62	44.68	
2025-01-07 01:08:33.79	335.53	44.72	
2025-01-07 01:08:33.99	335.44	44.75	
2025-01-07 01:08:34.20	335.35	44.79	
2025-01-07 01:08:34.41	335.26	44.83	
2025-01-07 01:08:34.61	335.17	44.86	
2025-01-07 01:08:34.82	335.08	44.90	
2025-01-07 01:08:35.02	335.00	44.93	
2025-01-07 01:08:35.23	334.90	44.97	
2025-01-07 01:08:35.43	334.82	45.01	
2025-01-07 01:08:35.64	334.72	45.04	
2025-01-07 01:08:35.85	334.63	45.08	
2025-01-07 01:08:36.06	334.54	45.12	
2025-01-07 01:08:36.27	334.45	45.15	
2025-01-07 01:08:36.47	334.36	45.19	
2025-01-07 01:08:36.68	334.26	45.23	
2025-01-07 01:08:36.89	334.17	45.26	
2025-01-07 01:08:37.09	334.08	45.30	
2025-01-07 01:08:37.30	333.99	45.33	
2025-01-07 01:08:37.50	333.90	45.37	
2025-01-07 01:08:37.71	333.80	45.41	
2025-01-07 01:08:37.91	333.71	45.44	
2025-01-07 01:08:38.12	333.62	45.48	
2025-01-07 01:08:38.32	333.53	45.51	
2025-01-07 01:08:38.53	333.43	45.55	
2025-01-07 01:08:38.73	333.34	45.58	
2025-01-07 01:08:38.94	333.25	45.62	
2025-01-07 01:08:39.14	333.15	45.65	
2025-01-07 01:08:39.35	333.06	45.69	
2025-01-07 01:08:39.55	332.97	45.72	
2025-01-07 01:08:39.76	332.87	45.76	
2025-01-07 01:08:39.96	332.78	45.79	
2025-01-07 01:08:40.17	332.68	45.83	
2025-01-07 01:08:40.37	332.59	45.86	
2025-01-07 01:08:40.58	332.49	45.90	
2025-01-07 01:08:40.78	332.40	45.93	
2025-01-07 01:08:40.99	332.30	45.97	
2025-01-07 01:08:41.19	332.21	46.00	
2025-01-07 01:08:41.39	332.11	46.04	
2025-01-07 01:08:41.60	332.01	46.07	
2025-01-07 01:08:41.80	331.92	46.10	
2025-01-07 01:08:42.01	331.82	46.14	
2025-01-07 01:08:42.22	331.72	46.18	
2025-01-07 01:08:42.42	331.63	46.21	
2025-01-07 01:08:42.63	331.53	46.24	
2025-01-07 01:08:42.83	331.43	46.28	
2025-01-07 01:08:43.04	331.33	46.31	
2025-01-07 01:08:43.24	331.24	46.35	
2025-01-07 01:08:43.45	331.14	46.38	
2025-01-07 01:08:43.65	331.04	46.41	
2025-01-07 01:08:43.86	330.94	46.45	
2025-01-07 01:08:44.06	330.84	46.48	
2025-01-07 01:08:44.27	330.74	46.52	
2025-01-07 01:08:44.48	330.64	46.55	
2025-01-07 01:08:44.68	330.54	46.58	
2025-01-07 01:08:44.89	330.44	46.62	
2025-01-07 01:08:45.09	330.34	46.65	
2025-01-07 01:08:45.30	330.24	46.68	
2025-01-07 01:08:45.50	330.14	46.72	
2025-01-07 01:08:45.72	330.04	46.75	
2025-01-07 01:08:45.92	329.94	46.78	
2025-01-07 01:08:46.13	329.83	46.82	
2025-01-07 01:08:46.34	329.73	46.85	
2025-01-07 01:08:46.54	329.63	46.88	
2025-01-07 01:08:46.74	329.53	46.92	
2025-01-07 01:08:46.95	329.43	46.95	
2025-01-07 01:08:47.15	329.33	46.98	
2025-01-07 01:08:47.36	329.22	47.02	
2025-01-07 01:08:47.57	329.12	47.05	
2025-01-07 01:08:47.78	329.01	47.08	
