passes_logs/2025/01/07/SPB_Silybum_02/SPB_Silybum_02__20250107_171327_TERRA_rec.log

#Pass ID: 20250107_171327_TERRA
#Satellite: TERRA
#Configuration: TERRA
#Start time: 2025-01-07 17:13:25

#Version: 2.0.20230423
#Station: SPB_Silybum_02
#Location: 30.233357 lon 59.946436 lat
#TLE: 1 25994U 99068A   25006.77118991  .00001382  00000+0  29492-3 0  9999
#TLE: 2 25994  98.0231  70.0628 0003576  88.8854  23.4584 14.60378914332871

#Time	Az	El	Level	Level2	SNR	BER	Gain	Gain2
2025-01-07 17:13:27.72	121.09	4.02	
2025-01-07 17:13:27.92	121.08	4.03	
2025-01-07 17:13:28.13	121.06	4.04	
2025-01-07 17:13:28.34	121.05	4.06	
2025-01-07 17:13:28.54	121.04	4.07	
2025-01-07 17:13:28.75	121.02	4.08	
2025-01-07 17:13:28.95	121.01	4.10	
2025-01-07 17:13:29.16	121.00	4.11	
2025-01-07 17:13:29.36	120.98	4.12	
2025-01-07 17:13:29.57	120.97	4.14	
2025-01-07 17:13:29.77	120.96	4.15	
2025-01-07 17:13:29.99	120.94	4.17	
2025-01-07 17:13:30.20	120.93	4.18	
2025-01-07 17:13:30.40	120.91	4.19	
2025-01-07 17:13:30.61	120.90	4.21	
2025-01-07 17:13:30.81	120.89	4.22	
2025-01-07 17:13:31.02	120.87	4.23	
2025-01-07 17:13:31.22	120.86	4.25	
2025-01-07 17:13:31.43	120.85	4.26	
2025-01-07 17:13:31.63	120.83	4.28	
2025-01-07 17:13:31.84	120.82	4.29	
2025-01-07 17:13:32.04	120.81	4.30	
2025-01-07 17:13:32.25	120.79	4.32	
2025-01-07 17:13:32.45	120.78	4.33	
2025-01-07 17:13:32.66	120.76	4.34	
2025-01-07 17:13:32.87	120.75	4.36	
2025-01-07 17:13:33.07	120.74	4.37	
2025-01-07 17:13:33.28	120.72	4.39	
2025-01-07 17:13:33.48	120.71	4.40	
2025-01-07 17:13:33.69	120.70	4.41	
2025-01-07 17:13:33.90	120.68	4.43	
2025-01-07 17:13:34.10	120.67	4.44	
2025-01-07 17:13:34.31	120.65	4.45	
2025-01-07 17:13:34.51	120.64	4.47	
2025-01-07 17:13:34.72	120.63	4.48	
2025-01-07 17:13:34.92	120.61	4.50	
2025-01-07 17:13:35.13	120.60	4.51	
2025-01-07 17:13:35.34	120.58	4.52	
2025-01-07 17:13:35.55	120.57	4.54	
2025-01-07 17:13:35.75	120.56	4.55	
2025-01-07 17:13:35.96	120.54	4.57	
2025-01-07 17:13:36.17	120.53	4.58	
2025-01-07 17:13:36.37	120.51	4.59	
2025-01-07 17:13:36.57	120.50	4.61	
2025-01-07 17:13:36.78	120.49	4.62	
2025-01-07 17:13:36.99	120.47	4.64	
2025-01-07 17:13:37.19	120.46	4.65	
2025-01-07 17:13:37.41	120.44	4.66	
2025-01-07 17:13:37.62	120.43	4.68	
2025-01-07 17:13:37.82	120.42	4.69	
2025-01-07 17:13:38.03	120.40	4.71	
2025-01-07 17:13:38.23	120.39	4.72	
2025-01-07 17:13:38.44	120.37	4.73	
2025-01-07 17:13:38.65	120.36	4.75	
2025-01-07 17:13:38.85	120.35	4.76	
2025-01-07 17:13:39.06	120.33	4.78	
2025-01-07 17:13:39.26	120.32	4.79	
2025-01-07 17:13:39.47	120.30	4.80	
2025-01-07 17:13:39.67	120.29	4.82	
2025-01-07 17:13:39.88	120.27	4.83	
2025-01-07 17:13:40.08	120.26	4.85	
2025-01-07 17:13:40.29	120.25	4.86	
2025-01-07 17:13:40.49	120.23	4.87	
2025-01-07 17:13:40.70	120.22	4.89	
2025-01-07 17:13:40.90	120.20	4.90	
2025-01-07 17:13:41.11	120.19	4.92	
2025-01-07 17:13:41.32	120.17	4.93	
2025-01-07 17:13:41.52	120.16	4.94	
2025-01-07 17:13:41.72	120.15	4.96	
2025-01-07 17:13:41.93	120.13	4.97	
2025-01-07 17:13:42.14	120.12	4.99	
2025-01-07 17:13:42.34	120.10	5.00	
2025-01-07 17:13:42.55	120.09	5.01	
2025-01-07 17:13:42.75	120.07	5.03	
2025-01-07 17:13:42.95	120.06	5.04	
2025-01-07 17:13:43.16	120.04	5.06	
2025-01-07 17:13:43.36	120.03	5.07	
2025-01-07 17:13:43.57	120.02	5.08	
2025-01-07 17:13:43.77	120.00	5.10	
2025-01-07 17:13:43.98	119.99	5.11	
2025-01-07 17:13:44.18	119.97	5.13	
2025-01-07 17:13:44.38	119.96	5.14	
2025-01-07 17:13:44.59	119.94	5.15	
2025-01-07 17:13:44.80	119.93	5.17	
2025-01-07 17:13:45.00	119.91	5.18	
2025-01-07 17:13:45.21	119.90	5.20	
2025-01-07 17:13:45.41	119.88	5.21	
2025-01-07 17:13:45.62	119.87	5.22	
2025-01-07 17:13:45.82	119.86	5.24	
2025-01-07 17:13:46.03	119.84	5.25	
2025-01-07 17:13:46.23	119.83	5.27	
2025-01-07 17:13:46.44	119.81	5.28	
2025-01-07 17:13:46.64	119.80	5.30	
2025-01-07 17:13:46.85	119.78	5.31	
2025-01-07 17:13:47.05	119.77	5.32	
2025-01-07 17:13:47.26	119.75	5.34	
2025-01-07 17:13:47.46	119.74	5.35	
2025-01-07 17:13:47.67	119.72	5.37	
2025-01-07 17:13:47.88	119.71	5.38	
2025-01-07 17:13:48.08	119.69	5.39	
2025-01-07 17:13:48.28	119.68	5.41	
2025-01-07 17:13:48.49	119.66	5.42	
2025-01-07 17:13:48.70	119.65	5.44	
2025-01-07 17:13:48.90	119.63	5.45	
2025-01-07 17:13:49.11	119.62	5.47	
2025-01-07 17:13:49.32	119.60	5.48	
2025-01-07 17:13:49.53	119.59	5.50	
2025-01-07 17:13:49.74	119.57	5.51	
2025-01-07 17:13:49.94	119.56	5.52	
2025-01-07 17:13:50.15	119.54	5.54	
2025-01-07 17:13:50.35	119.53	5.55	
2025-01-07 17:13:50.56	119.51	5.57	
2025-01-07 17:13:50.76	119.50	5.58	
2025-01-07 17:13:50.97	119.48	5.60	
2025-01-07 17:13:51.17	119.47	5.61	
2025-01-07 17:13:51.38	119.45	5.62	
2025-01-07 17:13:51.58	119.44	5.64	
2025-01-07 17:13:51.79	119.42	5.65	
2025-01-07 17:13:51.99	119.41	5.67	
2025-01-07 17:13:52.20	119.39	5.68	
2025-01-07 17:13:52.40	119.38	5.70	
2025-01-07 17:13:52.60	119.36	5.71	
2025-01-07 17:13:52.81	119.35	5.72	
2025-01-07 17:13:53.01	119.33	5.74	
2025-01-07 17:13:53.22	119.32	5.75	
2025-01-07 17:13:53.42	119.30	5.77	
2025-01-07 17:13:53.63	119.29	5.78	
2025-01-07 17:13:53.83	119.27	5.80	
2025-01-07 17:13:54.04	119.25	5.81	
2025-01-07 17:13:54.24	119.24	5.83	
2025-01-07 17:13:54.45	119.22	5.84	
2025-01-07 17:13:54.65	119.21	5.85	
2025-01-07 17:13:54.86	119.19	5.87	
2025-01-07 17:13:55.06	119.18	5.88	
2025-01-07 17:13:55.27	119.16	5.90	
2025-01-07 17:13:55.47	119.15	5.91	
2025-01-07 17:13:55.69	119.13	5.93	
2025-01-07 17:13:55.89	119.12	5.94	
2025-01-07 17:13:56.10	119.10	5.96	
2025-01-07 17:13:56.30	119.08	5.97	
2025-01-07 17:13:56.51	119.07	5.99	
2025-01-07 17:13:56.72	119.05	6.00	
2025-01-07 17:13:56.92	119.04	6.01	
2025-01-07 17:13:57.13	119.02	6.03	
2025-01-07 17:13:57.33	119.01	6.04	
2025-01-07 17:13:57.54	118.99	6.06	
2025-01-07 17:13:57.75	118.97	6.07	
2025-01-07 17:13:57.95	118.96	6.09	
2025-01-07 17:13:58.16	118.94	6.10	
2025-01-07 17:13:58.36	118.93	6.12	
2025-01-07 17:13:58.57	118.91	6.13	
2025-01-07 17:13:58.78	118.90	6.15	
2025-01-07 17:13:58.98	118.88	6.16	
2025-01-07 17:13:59.19	118.86	6.18	
2025-01-07 17:13:59.39	118.85	6.19	
2025-01-07 17:13:59.60	118.83	6.20	
2025-01-07 17:13:59.80	118.82	6.22	
2025-01-07 17:14:00.02	118.80	6.23	
2025-01-07 17:14:00.22	118.78	6.25	
2025-01-07 17:14:00.43	118.77	6.26	
2025-01-07 17:14:00.63	118.75	6.28	
2025-01-07 17:14:00.84	118.74	6.29	
2025-01-07 17:14:01.04	118.72	6.31	
2025-01-07 17:14:01.25	118.70	6.32	
2025-01-07 17:14:01.45	118.69	6.34	
2025-01-07 17:14:01.66	118.67	6.35	
2025-01-07 17:14:01.86	118.66	6.37	
2025-01-07 17:14:02.07	118.64	6.38	
2025-01-07 17:14:02.27	118.63	6.40	
2025-01-07 17:14:02.48	118.61	6.41	
2025-01-07 17:14:02.68	118.59	6.43	
2025-01-07 17:14:02.89	118.58	6.44	
2025-01-07 17:14:03.11	118.56	6.46	
2025-01-07 17:14:03.31	118.54	6.47	
2025-01-07 17:14:03.52	118.53	6.49	
2025-01-07 17:14:03.72	118.51	6.50	
2025-01-07 17:14:03.93	118.49	6.52	
2025-01-07 17:14:04.13	118.48	6.53	
2025-01-07 17:14:04.34	118.46	6.54	
2025-01-07 17:14:04.54	118.45	6.56	
2025-01-07 17:14:04.75	118.43	6.57	
2025-01-07 17:14:04.95	118.41	6.59	
2025-01-07 17:14:05.16	118.40	6.60	
2025-01-07 17:14:05.36	118.38	6.62	
2025-01-07 17:14:05.57	118.36	6.63	
2025-01-07 17:14:05.77	118.35	6.65	
2025-01-07 17:14:05.98	118.33	6.66	
2025-01-07 17:14:06.19	118.32	6.68	
2025-01-07 17:14:06.39	118.30	6.69	
2025-01-07 17:14:06.60	118.28	6.71	
2025-01-07 17:14:06.80	118.27	6.72	
2025-01-07 17:14:07.01	118.25	6.74	
2025-01-07 17:14:07.21	118.23	6.75	
2025-01-07 17:14:07.43	118.22	6.77	
2025-01-07 17:14:07.64	118.20	6.78	
2025-01-07 17:14:07.84	118.18	6.80	
2025-01-07 17:14:08.05	118.17	6.81	
2025-01-07 17:14:08.25	118.15	6.83	
2025-01-07 17:14:08.46	118.13	6.84	
2025-01-07 17:14:08.66	118.12	6.86	
2025-01-07 17:14:08.87	118.10	6.87	
2025-01-07 17:14:09.08	118.08	6.89	
2025-01-07 17:14:09.28	118.07	6.90	
2025-01-07 17:14:09.48	118.05	6.92	
2025-01-07 17:14:09.69	118.03	6.93	
2025-01-07 17:14:09.89	118.02	6.95	
2025-01-07 17:14:10.10	118.00	6.96	
2025-01-07 17:14:10.31	117.98	6.98	
2025-01-07 17:14:10.51	117.97	6.99	
2025-01-07 17:14:10.72	117.95	7.01	
2025-01-07 17:14:10.92	117.93	7.02	
2025-01-07 17:14:11.13	117.91	7.04	
2025-01-07 17:14:11.33	117.90	7.05	
2025-01-07 17:14:11.54	117.88	7.07	
2025-01-07 17:14:11.75	117.86	7.08	
2025-01-07 17:14:11.96	117.85	7.10	
2025-01-07 17:14:12.16	117.83	7.11	
2025-01-07 17:14:12.37	117.81	7.13	
2025-01-07 17:14:12.57	117.80	7.14	
2025-01-07 17:14:12.79	117.78	7.16	
2025-01-07 17:14:12.99	117.76	7.18	
2025-01-07 17:14:13.20	117.74	7.19	
2025-01-07 17:14:13.40	117.73	7.21	
2025-01-07 17:14:13.61	117.71	7.22	
2025-01-07 17:14:13.81	117.69	7.24	
2025-01-07 17:14:14.02	117.68	7.25	
2025-01-07 17:14:14.22	117.66	7.27	
2025-01-07 17:14:14.43	117.64	7.28	
2025-01-07 17:14:14.63	117.62	7.30	
2025-01-07 17:14:14.83	117.61	7.31	
2025-01-07 17:14:15.04	117.59	7.33	
2025-01-07 17:14:15.25	117.57	7.34	
2025-01-07 17:14:15.45	117.56	7.36	
2025-01-07 17:14:15.66	117.54	7.37	
2025-01-07 17:14:15.86	117.52	7.39	
2025-01-07 17:14:16.07	117.50	7.40	
2025-01-07 17:14:16.27	117.49	7.42	
2025-01-07 17:14:16.48	117.47	7.43	
2025-01-07 17:14:16.68	117.45	7.45	
2025-01-07 17:14:16.89	117.43	7.46	
2025-01-07 17:14:17.11	117.42	7.48	
2025-01-07 17:14:17.31	117.40	7.49	
2025-01-07 17:14:17.52	117.38	7.51	
2025-01-07 17:14:17.72	117.36	7.53	
2025-01-07 17:14:17.93	117.35	7.54	
2025-01-07 17:14:18.14	117.33	7.56	
2025-01-07 17:14:18.35	117.31	7.57	
2025-01-07 17:14:18.56	117.29	7.59	
2025-01-07 17:14:18.76	117.27	7.60	
2025-01-07 17:14:18.97	117.26	7.62	
2025-01-07 17:14:19.17	117.24	7.63	
2025-01-07 17:14:19.38	117.22	7.65	
2025-01-07 17:14:19.58	117.20	7.66	
2025-01-07 17:14:19.79	117.19	7.68	
2025-01-07 17:14:19.99	117.17	7.69	
2025-01-07 17:14:20.20	117.15	7.71	
2025-01-07 17:14:20.40	117.13	7.73	
2025-01-07 17:14:20.61	117.11	7.74	
2025-01-07 17:14:20.81	117.10	7.76	
2025-01-07 17:14:21.02	117.08	7.77	
2025-01-07 17:14:21.22	117.06	7.79	
2025-01-07 17:14:21.43	117.04	7.80	
2025-01-07 17:14:21.63	117.03	7.82	
2025-01-07 17:14:21.84	117.01	7.83	
2025-01-07 17:14:22.04	116.99	7.85	
2025-01-07 17:14:22.25	116.97	7.86	
2025-01-07 17:14:22.45	116.95	7.88	
2025-01-07 17:14:22.66	116.94	7.90	
2025-01-07 17:14:22.86	116.92	7.91	
2025-01-07 17:14:23.07	116.90	7.93	
2025-01-07 17:14:23.27	116.88	7.94	
2025-01-07 17:14:23.48	116.86	7.96	
2025-01-07 17:14:23.68	116.85	7.97	
2025-01-07 17:14:23.89	116.83	7.99	
2025-01-07 17:14:24.09	116.81	8.00	
2025-01-07 17:14:24.30	116.79	8.02	
2025-01-07 17:14:24.50	116.77	8.03	
2025-01-07 17:14:24.71	116.75	8.05	
2025-01-07 17:14:24.91	116.74	8.07	
2025-01-07 17:14:25.12	116.72	8.08	
2025-01-07 17:14:25.32	116.70	8.10	
2025-01-07 17:14:25.53	116.68	8.11	
2025-01-07 17:14:25.73	116.66	8.13	
2025-01-07 17:14:25.94	116.65	8.14	
2025-01-07 17:14:26.14	116.63	8.16	
2025-01-07 17:14:26.35	116.61	8.18	
2025-01-07 17:14:26.55	116.59	8.19	
2025-01-07 17:14:26.76	116.57	8.21	
2025-01-07 17:14:26.96	116.55	8.22	
2025-01-07 17:14:27.17	116.53	8.24	
2025-01-07 17:14:27.37	116.52	8.25	
2025-01-07 17:14:27.58	116.50	8.27	
2025-01-07 17:14:27.78	116.48	8.28	
2025-01-07 17:14:27.99	116.46	8.30	
2025-01-07 17:14:28.19	116.44	8.32	
2025-01-07 17:14:28.39	116.42	8.33	
2025-01-07 17:14:28.60	116.41	8.35	
2025-01-07 17:14:28.81	116.39	8.36	
2025-01-07 17:14:29.02	116.37	8.38	
2025-01-07 17:14:29.22	116.35	8.39	
2025-01-07 17:14:29.43	116.33	8.41	
2025-01-07 17:14:29.64	116.31	8.43	
2025-01-07 17:14:29.84	116.29	8.44	
2025-01-07 17:14:30.04	116.27	8.46	
2025-01-07 17:14:30.25	116.25	8.47	
2025-01-07 17:14:30.45	116.24	8.49	
2025-01-07 17:14:30.66	116.22	8.51	
2025-01-07 17:14:30.86	116.20	8.52	
2025-01-07 17:14:31.07	116.18	8.54	
2025-01-07 17:14:31.27	116.16	8.55	
2025-01-07 17:14:31.48	116.14	8.57	
2025-01-07 17:14:31.68	116.12	8.58	
2025-01-07 17:14:31.89	116.10	8.60	
2025-01-07 17:14:32.10	116.08	8.62	
2025-01-07 17:14:32.30	116.07	8.63	
2025-01-07 17:14:32.51	116.05	8.65	
2025-01-07 17:14:32.71	116.03	8.66	
2025-01-07 17:14:32.91	116.01	8.68	
2025-01-07 17:14:33.12	115.99	8.70	
2025-01-07 17:14:33.32	115.97	8.71	
2025-01-07 17:14:33.53	115.95	8.73	
2025-01-07 17:14:33.73	115.93	8.74	
2025-01-07 17:14:33.94	115.91	8.76	
2025-01-07 17:14:34.14	115.89	8.77	
2025-01-07 17:14:34.35	115.87	8.79	
2025-01-07 17:14:34.55	115.86	8.81	
2025-01-07 17:14:34.75	115.84	8.82	
2025-01-07 17:14:34.96	115.82	8.84	
2025-01-07 17:14:35.16	115.80	8.85	
2025-01-07 17:14:35.37	115.78	8.87	
2025-01-07 17:14:35.57	115.76	8.89	
2025-01-07 17:14:35.78	115.74	8.90	
2025-01-07 17:14:35.99	115.72	8.92	
2025-01-07 17:14:36.19	115.70	8.93	
2025-01-07 17:14:36.39	115.68	8.95	
2025-01-07 17:14:36.60	115.66	8.97	
2025-01-07 17:14:36.81	115.64	8.98	
2025-01-07 17:14:37.01	115.62	9.00	
2025-01-07 17:14:37.22	115.60	9.01	
2025-01-07 17:14:37.43	115.58	9.03	
2025-01-07 17:14:37.64	115.56	9.05	
2025-01-07 17:14:37.84	115.54	9.06	
2025-01-07 17:14:38.05	115.52	9.08	
2025-01-07 17:14:38.25	115.50	9.10	
2025-01-07 17:14:38.46	115.48	9.11	
2025-01-07 17:14:38.66	115.46	9.13	
2025-01-07 17:14:38.87	115.44	9.14	
2025-01-07 17:14:39.08	115.42	9.16	
2025-01-07 17:14:39.28	115.40	9.18	
2025-01-07 17:14:39.48	115.38	9.19	
2025-01-07 17:14:39.69	115.36	9.21	
2025-01-07 17:14:39.90	115.34	9.22	
2025-01-07 17:14:40.10	115.32	9.24	
2025-01-07 17:14:40.31	115.30	9.26	
2025-01-07 17:14:40.51	115.28	9.27	
2025-01-07 17:14:40.72	115.26	9.29	
2025-01-07 17:14:40.93	115.24	9.31	
2025-01-07 17:14:41.13	115.22	9.32	
2025-01-07 17:14:41.34	115.20	9.34	
2025-01-07 17:14:41.54	115.18	9.35	
2025-01-07 17:14:41.74	115.16	9.37	
2025-01-07 17:14:41.95	115.14	9.39	
2025-01-07 17:14:42.15	115.12	9.40	
2025-01-07 17:14:42.36	115.10	9.42	
2025-01-07 17:14:42.57	115.08	9.44	
2025-01-07 17:14:42.77	115.06	9.45	
2025-01-07 17:14:42.98	115.04	9.47	
2025-01-07 17:14:43.18	115.02	9.48	
2025-01-07 17:14:43.39	115.00	9.50	
2025-01-07 17:14:43.59	114.98	9.52	
2025-01-07 17:14:43.81	114.96	9.53	
2025-01-07 17:14:44.01	114.94	9.55	
2025-01-07 17:14:44.22	114.92	9.57	
2025-01-07 17:14:44.43	114.90	9.58	
2025-01-07 17:14:44.63	114.88	9.60	
2025-01-07 17:14:44.84	114.86	9.62	
2025-01-07 17:14:45.04	114.84	9.63	
2025-01-07 17:14:45.24	114.82	9.65	
2025-01-07 17:14:45.45	114.80	9.67	
2025-01-07 17:14:45.65	114.78	9.68	
2025-01-07 17:14:45.86	114.75	9.70	
2025-01-07 17:14:46.06	114.73	9.71	
2025-01-07 17:14:46.27	114.71	9.73	
2025-01-07 17:14:46.47	114.69	9.75	
2025-01-07 17:14:46.68	114.67	9.76	
2025-01-07 17:14:46.88	114.65	9.78	
2025-01-07 17:14:47.08	114.63	9.80	
2025-01-07 17:14:47.29	114.61	9.81	
2025-01-07 17:14:47.50	114.59	9.83	
2025-01-07 17:14:47.70	114.57	9.85	
2025-01-07 17:14:47.91	114.55	9.86	
2025-01-07 17:14:48.11	114.53	9.88	
2025-01-07 17:14:48.32	114.51	9.90	
2025-01-07 17:14:48.52	114.48	9.91	
2025-01-07 17:14:48.73	114.46	9.93	
2025-01-07 17:14:48.93	114.44	9.94	
2025-01-07 17:14:49.13	114.42	9.96	
2025-01-07 17:14:49.34	114.40	9.98	
2025-01-07 17:14:49.54	114.38	9.99	
2025-01-07 17:14:49.74	114.36	10.01	
2025-01-07 17:14:49.95	114.34	10.03	
2025-01-07 17:14:50.15	114.32	10.04	
2025-01-07 17:14:50.36	114.30	10.06	
2025-01-07 17:14:50.56	114.27	10.08	
2025-01-07 17:14:50.77	114.25	10.09	
2025-01-07 17:14:50.98	114.23	10.11	
2025-01-07 17:14:51.18	114.21	10.13	
2025-01-07 17:14:51.38	114.19	10.14	
2025-01-07 17:14:51.59	114.17	10.16	
2025-01-07 17:14:51.80	114.15	10.18	
2025-01-07 17:14:52.00	114.12	10.19	
2025-01-07 17:14:52.20	114.10	10.21	
2025-01-07 17:14:52.41	114.08	10.23	
2025-01-07 17:14:52.62	114.06	10.24	
2025-01-07 17:14:52.82	114.04	10.26	
2025-01-07 17:14:53.02	114.02	10.28	
2025-01-07 17:14:53.23	114.00	10.29	
2025-01-07 17:14:53.43	113.97	10.31	
2025-01-07 17:14:53.64	113.95	10.33	
2025-01-07 17:14:53.84	113.93	10.34	
2025-01-07 17:14:54.05	113.91	10.36	
2025-01-07 17:14:54.26	113.89	10.38	
2025-01-07 17:14:54.46	113.87	10.39	
2025-01-07 17:14:54.67	113.84	10.41	
2025-01-07 17:14:54.87	113.82	10.43	
2025-01-07 17:14:55.08	113.80	10.44	
2025-01-07 17:14:55.28	113.78	10.46	
2025-01-07 17:14:55.50	113.75	10.48	
2025-01-07 17:14:55.70	113.73	10.50	
2025-01-07 17:14:55.91	113.71	10.51	
2025-01-07 17:14:56.11	113.69	10.53	
2025-01-07 17:14:56.32	113.67	10.55	
2025-01-07 17:14:56.52	113.65	10.56	
2025-01-07 17:14:56.73	113.62	10.58	
2025-01-07 17:14:56.93	113.60	10.60	
2025-01-07 17:14:57.14	113.58	10.61	
2025-01-07 17:14:57.35	113.56	10.63	
2025-01-07 17:14:57.55	113.53	10.65	
2025-01-07 17:14:57.75	113.51	10.66	
2025-01-07 17:14:57.96	113.49	10.68	
2025-01-07 17:14:58.16	113.47	10.70	
2025-01-07 17:14:58.37	113.45	10.72	
2025-01-07 17:14:58.58	113.42	10.73	
2025-01-07 17:14:58.78	113.40	10.75	
2025-01-07 17:14:58.98	113.38	10.77	
2025-01-07 17:14:59.19	113.36	10.78	
2025-01-07 17:14:59.39	113.33	10.80	
2025-01-07 17:14:59.60	113.31	10.82	
2025-01-07 17:14:59.80	113.29	10.83	
2025-01-07 17:15:00.01	113.27	10.85	
2025-01-07 17:15:00.21	113.24	10.87	
2025-01-07 17:15:00.42	113.22	10.89	
2025-01-07 17:15:00.62	113.20	10.90	
2025-01-07 17:15:00.83	113.18	10.92	
2025-01-07 17:15:01.03	113.15	10.94	
2025-01-07 17:15:01.23	113.13	10.95	
2025-01-07 17:15:01.44	113.11	10.97	
2025-01-07 17:15:01.64	113.09	10.99	
2025-01-07 17:15:01.85	113.06	11.00	
2025-01-07 17:15:02.05	113.04	11.02	
2025-01-07 17:15:02.26	113.02	11.04	
2025-01-07 17:15:02.47	112.99	11.06	
2025-01-07 17:15:02.67	112.97	11.07	
2025-01-07 17:15:02.88	112.95	11.09	
2025-01-07 17:15:03.08	112.93	11.11	
2025-01-07 17:15:03.29	112.90	11.12	
2025-01-07 17:15:03.49	112.88	11.14	
2025-01-07 17:15:03.71	112.86	11.16	
2025-01-07 17:15:03.91	112.83	11.18	
2025-01-07 17:15:04.13	112.81	11.20	
2025-01-07 17:15:04.33	112.79	11.21	
2025-01-07 17:15:04.54	112.76	11.23	
2025-01-07 17:15:04.74	112.74	11.25	
2025-01-07 17:15:04.95	112.72	11.26	
2025-01-07 17:15:05.15	112.69	11.28	
2025-01-07 17:15:05.35	112.67	11.30	
2025-01-07 17:15:05.56	112.65	11.32	
2025-01-07 17:15:05.77	112.62	11.33	
2025-01-07 17:15:05.97	112.60	11.35	
2025-01-07 17:15:06.17	112.58	11.37	
2025-01-07 17:15:06.38	112.55	11.38	
2025-01-07 17:15:06.59	112.53	11.40	
2025-01-07 17:15:06.79	112.51	11.42	
2025-01-07 17:15:06.99	112.48	11.44	
2025-01-07 17:15:07.20	112.46	11.45	
2025-01-07 17:15:07.40	112.44	11.47	
2025-01-07 17:15:07.61	112.41	11.49	
2025-01-07 17:15:07.82	112.39	11.51	
2025-01-07 17:15:08.02	112.36	11.52	
2025-01-07 17:15:08.23	112.34	11.54	
2025-01-07 17:15:08.43	112.32	11.56	
2025-01-07 17:15:08.63	112.29	11.57	
2025-01-07 17:15:08.84	112.27	11.59	
2025-01-07 17:15:09.05	112.25	11.61	
2025-01-07 17:15:09.25	112.22	11.63	
2025-01-07 17:15:09.47	112.20	11.65	
2025-01-07 17:15:09.67	112.17	11.66	
2025-01-07 17:15:09.89	112.15	11.68	
2025-01-07 17:15:10.10	112.12	11.70	
2025-01-07 17:15:10.30	112.10	11.72	
2025-01-07 17:15:10.50	112.08	11.73	
2025-01-07 17:15:10.71	112.05	11.75	
2025-01-07 17:15:10.91	112.03	11.77	
2025-01-07 17:15:11.12	112.00	11.79	
2025-01-07 17:15:11.33	111.98	11.80	
2025-01-07 17:15:11.53	111.95	11.82	
2025-01-07 17:15:11.73	111.93	11.84	
2025-01-07 17:15:11.94	111.91	11.86	
2025-01-07 17:15:12.15	111.88	11.87	
2025-01-07 17:15:12.35	111.86	11.89	
2025-01-07 17:15:12.56	111.83	11.91	
2025-01-07 17:15:12.76	111.81	11.93	
2025-01-07 17:15:12.97	111.78	11.94	
2025-01-07 17:15:13.17	111.76	11.96	
2025-01-07 17:15:13.38	111.74	11.98	
2025-01-07 17:15:13.58	111.71	12.00	
2025-01-07 17:15:13.79	111.69	12.02	
2025-01-07 17:15:13.99	111.66	12.03	
2025-01-07 17:15:14.20	111.64	12.05	
2025-01-07 17:15:14.40	111.61	12.07	
2025-01-07 17:15:14.61	111.59	12.09	
2025-01-07 17:15:14.81	111.56	12.10	
2025-01-07 17:15:15.02	111.54	12.12	
2025-01-07 17:15:15.22	111.51	12.14	
2025-01-07 17:15:15.43	111.49	12.16	
2025-01-07 17:15:15.64	111.46	12.17	
2025-01-07 17:15:15.85	111.44	12.19	
2025-01-07 17:15:16.06	111.41	12.21	
2025-01-07 17:15:16.27	111.39	12.23	
2025-01-07 17:15:16.47	111.36	12.25	
2025-01-07 17:15:16.68	111.34	12.26	
2025-01-07 17:15:16.89	111.31	12.28	
2025-01-07 17:15:17.10	111.29	12.30	
2025-01-07 17:15:17.31	111.26	12.32	
2025-01-07 17:15:17.51	111.23	12.34	
2025-01-07 17:15:17.72	111.21	12.35	
2025-01-07 17:15:17.93	111.18	12.37	
2025-01-07 17:15:18.14	111.16	12.39	
2025-01-07 17:15:18.35	111.13	12.41	
2025-01-07 17:15:18.55	111.11	12.43	
2025-01-07 17:15:18.76	111.08	12.45	
2025-01-07 17:15:18.96	111.06	12.46	
2025-01-07 17:15:19.17	111.03	12.48	
2025-01-07 17:15:19.37	111.01	12.50	
2025-01-07 17:15:19.58	110.98	12.52	
2025-01-07 17:15:19.78	110.95	12.53	
2025-01-07 17:15:19.99	110.93	12.55	
2025-01-07 17:15:20.19	110.90	12.57	
2025-01-07 17:15:20.40	110.88	12.59	
2025-01-07 17:15:20.60	110.85	12.61	
2025-01-07 17:15:20.81	110.83	12.62	
2025-01-07 17:15:21.01	110.80	12.64	
2025-01-07 17:15:21.22	110.77	12.66	
2025-01-07 17:15:21.42	110.75	12.68	
2025-01-07 17:15:21.63	110.72	12.70	
2025-01-07 17:15:21.83	110.70	12.71	
2025-01-07 17:15:22.04	110.67	12.73	
2025-01-07 17:15:22.24	110.65	12.75	
2025-01-07 17:15:22.45	110.62	12.77	
2025-01-07 17:15:22.65	110.59	12.79	
2025-01-07 17:15:22.86	110.57	12.80	
2025-01-07 17:15:23.08	110.54	12.82	
2025-01-07 17:15:23.28	110.51	12.84	
2025-01-07 17:15:23.49	110.49	12.86	
2025-01-07 17:15:23.69	110.46	12.88	
2025-01-07 17:15:23.90	110.43	12.90	
2025-01-07 17:15:24.10	110.41	12.91	
2025-01-07 17:15:24.31	110.38	12.93	
2025-01-07 17:15:24.51	110.36	12.95	
2025-01-07 17:15:24.72	110.33	12.97	
2025-01-07 17:15:24.92	110.30	12.99	
2025-01-07 17:15:25.13	110.28	13.00	
2025-01-07 17:15:25.33	110.25	13.02	
2025-01-07 17:15:25.54	110.22	13.04	
2025-01-07 17:15:25.74	110.20	13.06	
2025-01-07 17:15:25.95	110.17	13.08	
2025-01-07 17:15:26.15	110.14	13.09	
2025-01-07 17:15:26.36	110.12	13.11	
2025-01-07 17:15:26.56	110.09	13.13	
2025-01-07 17:15:26.77	110.06	13.15	
2025-01-07 17:15:26.97	110.04	13.17	
2025-01-07 17:15:27.18	110.01	13.19	
2025-01-07 17:15:27.39	109.98	13.20	
2025-01-07 17:15:27.59	109.96	13.22	
2025-01-07 17:15:27.80	109.93	13.24	
2025-01-07 17:15:28.00	109.90	13.26	
2025-01-07 17:15:28.21	109.88	13.28	
2025-01-07 17:15:28.42	109.85	13.30	
2025-01-07 17:15:28.62	109.82	13.31	
2025-01-07 17:15:28.83	109.79	13.33	
2025-01-07 17:15:29.03	109.77	13.35	
2025-01-07 17:15:29.23	109.74	13.37	
2025-01-07 17:15:29.44	109.71	13.39	
2025-01-07 17:15:29.64	109.69	13.41	
2025-01-07 17:15:29.85	109.66	13.42	
2025-01-07 17:15:30.06	109.63	13.44	
2025-01-07 17:15:30.26	109.60	13.46	
2025-01-07 17:15:30.47	109.58	13.48	
2025-01-07 17:15:30.68	109.55	13.50	
2025-01-07 17:15:30.89	109.52	13.52	
2025-01-07 17:15:31.10	109.49	13.54	
2025-01-07 17:15:31.30	109.47	13.55	
2025-01-07 17:15:31.51	109.44	13.57	
2025-01-07 17:15:31.71	109.41	13.59	
2025-01-07 17:15:31.92	109.38	13.61	
2025-01-07 17:15:32.12	109.35	13.63	
2025-01-07 17:15:32.33	109.33	13.65	
2025-01-07 17:15:32.54	109.30	13.67	
2025-01-07 17:15:32.74	109.27	13.68	
2025-01-07 17:15:32.94	109.24	13.70	
2025-01-07 17:15:33.15	109.22	13.72	
2025-01-07 17:15:33.35	109.19	13.74	
2025-01-07 17:15:33.56	109.16	13.76	
2025-01-07 17:15:33.77	109.13	13.78	
2025-01-07 17:15:33.97	109.10	13.79	
2025-01-07 17:15:34.17	109.08	13.81	
2025-01-07 17:15:34.38	109.05	13.83	
2025-01-07 17:15:34.59	109.02	13.85	
2025-01-07 17:15:34.79	108.99	13.87	
2025-01-07 17:15:34.99	108.96	13.89	
2025-01-07 17:15:35.20	108.93	13.91	
2025-01-07 17:15:35.40	108.91	13.92	
2025-01-07 17:15:35.61	108.88	13.94	
2025-01-07 17:15:35.82	108.85	13.96	
2025-01-07 17:15:36.02	108.82	13.98	
2025-01-07 17:15:36.22	108.79	14.00	
2025-01-07 17:15:36.43	108.76	14.02	
2025-01-07 17:15:36.64	108.74	14.04	
2025-01-07 17:15:36.84	108.71	14.05	
2025-01-07 17:15:37.05	108.68	14.07	
2025-01-07 17:15:37.25	108.65	14.09	
2025-01-07 17:15:37.46	108.62	14.11	
2025-01-07 17:15:37.66	108.59	14.13	
2025-01-07 17:15:37.87	108.56	14.15	
2025-01-07 17:15:38.07	108.54	14.17	
2025-01-07 17:15:38.28	108.51	14.19	
2025-01-07 17:15:38.48	108.48	14.20	
2025-01-07 17:15:38.69	108.45	14.22	
2025-01-07 17:15:38.89	108.42	14.24	
2025-01-07 17:15:39.10	108.39	14.26	
2025-01-07 17:15:39.30	108.36	14.28	
2025-01-07 17:15:39.50	108.33	14.30	
2025-01-07 17:15:39.71	108.30	14.32	
2025-01-07 17:15:39.91	108.28	14.34	
2025-01-07 17:15:40.12	108.25	14.35	
2025-01-07 17:15:40.32	108.22	14.37	
2025-01-07 17:15:40.53	108.19	14.39	
2025-01-07 17:15:40.73	108.16	14.41	
2025-01-07 17:15:40.94	108.13	14.43	
2025-01-07 17:15:41.14	108.10	14.45	
2025-01-07 17:15:41.35	108.07	14.47	
2025-01-07 17:15:41.55	108.04	14.49	
2025-01-07 17:15:41.76	108.01	14.51	
2025-01-07 17:15:41.96	107.98	14.52	
2025-01-07 17:15:42.17	107.95	14.54	
2025-01-07 17:15:42.37	107.92	14.56	
2025-01-07 17:15:42.57	107.89	14.58	
2025-01-07 17:15:42.78	107.86	14.60	
2025-01-07 17:15:42.99	107.83	14.62	
2025-01-07 17:15:43.19	107.80	14.64	
2025-01-07 17:15:43.40	107.77	14.66	
2025-01-07 17:15:43.62	107.74	14.68	
2025-01-07 17:15:43.82	107.71	14.70	
2025-01-07 17:15:44.02	107.68	14.71	
2025-01-07 17:15:44.23	107.65	14.73	
2025-01-07 17:15:44.44	107.62	14.75	
2025-01-07 17:15:44.64	107.59	14.77	
2025-01-07 17:15:44.85	107.56	14.79	
2025-01-07 17:15:45.05	107.53	14.81	
2025-01-07 17:15:45.26	107.50	14.83	
2025-01-07 17:15:45.46	107.47	14.85	
2025-01-07 17:15:45.66	107.44	14.87	
2025-01-07 17:15:45.87	107.41	14.89	
2025-01-07 17:15:46.08	107.38	14.90	
2025-01-07 17:15:46.28	107.35	14.92	
2025-01-07 17:15:46.49	107.32	14.94	
2025-01-07 17:15:46.69	107.29	14.96	
2025-01-07 17:15:46.90	107.26	14.98	
2025-01-07 17:15:47.10	107.23	15.00	
2025-01-07 17:15:47.31	107.20	15.02	
2025-01-07 17:15:47.51	107.17	15.04	
2025-01-07 17:15:47.72	107.14	15.06	
2025-01-07 17:15:47.92	107.11	15.08	
2025-01-07 17:15:48.13	107.07	15.10	
2025-01-07 17:15:48.33	107.04	15.11	
2025-01-07 17:15:48.54	107.01	15.13	
2025-01-07 17:15:48.74	106.98	15.15	
2025-01-07 17:15:48.95	106.95	15.17	
2025-01-07 17:15:49.15	106.92	15.19	
2025-01-07 17:15:49.36	106.89	15.21	
2025-01-07 17:15:49.56	106.86	15.23	
2025-01-07 17:15:49.77	106.83	15.25	
2025-01-07 17:15:49.98	106.80	15.27	
2025-01-07 17:15:50.18	106.76	15.29	
2025-01-07 17:15:50.39	106.73	15.31	
2025-01-07 17:15:50.59	106.70	15.33	
2025-01-07 17:15:50.80	106.67	15.35	
2025-01-07 17:15:51.00	106.64	15.36	
2025-01-07 17:15:51.21	106.61	15.38	
2025-01-07 17:15:51.41	106.58	15.40	
2025-01-07 17:15:51.62	106.54	15.42	
2025-01-07 17:15:51.82	106.51	15.44	
2025-01-07 17:15:52.03	106.48	15.46	
2025-01-07 17:15:52.23	106.45	15.48	
2025-01-07 17:15:52.44	106.42	15.50	
2025-01-07 17:15:52.64	106.39	15.52	
2025-01-07 17:15:52.85	106.35	15.54	
2025-01-07 17:15:53.05	106.32	15.56	
2025-01-07 17:15:53.26	106.29	15.58	
2025-01-07 17:15:53.46	106.26	15.60	
2025-01-07 17:15:53.67	106.23	15.62	
2025-01-07 17:15:53.87	106.20	15.63	
2025-01-07 17:15:54.08	106.16	15.65	
2025-01-07 17:15:54.28	106.13	15.67	
2025-01-07 17:15:54.49	106.10	15.69	
2025-01-07 17:15:54.69	106.07	15.71	
2025-01-07 17:15:54.90	106.03	15.73	
2025-01-07 17:15:55.10	106.00	15.75	
2025-01-07 17:15:55.32	105.97	15.77	
2025-01-07 17:15:55.53	105.94	15.79	
2025-01-07 17:15:55.73	105.90	15.81	
2025-01-07 17:15:55.94	105.87	15.83	
2025-01-07 17:15:56.15	105.84	15.85	
2025-01-07 17:15:56.35	105.81	15.87	
2025-01-07 17:15:56.55	105.77	15.89	
2025-01-07 17:15:56.76	105.74	15.91	
2025-01-07 17:15:56.96	105.71	15.93	
2025-01-07 17:15:57.17	105.67	15.95	
2025-01-07 17:15:57.37	105.64	15.97	
2025-01-07 17:15:57.58	105.61	15.99	
2025-01-07 17:15:57.79	105.58	16.01	
2025-01-07 17:15:57.99	105.54	16.03	
2025-01-07 17:15:58.20	105.51	16.05	
2025-01-07 17:15:58.40	105.48	16.06	
2025-01-07 17:15:58.61	105.44	16.08	
2025-01-07 17:15:58.81	105.41	16.10	
2025-01-07 17:15:59.02	105.38	16.12	
2025-01-07 17:15:59.22	105.34	16.14	
2025-01-07 17:15:59.43	105.31	16.16	
2025-01-07 17:15:59.63	105.28	16.18	
2025-01-07 17:15:59.84	105.24	16.20	
2025-01-07 17:16:00.04	105.21	16.22	
2025-01-07 17:16:00.24	105.18	16.24	
2025-01-07 17:16:00.45	105.14	16.26	
2025-01-07 17:16:00.65	105.11	16.28	
2025-01-07 17:16:00.86	105.08	16.30	
2025-01-07 17:16:01.06	105.04	16.32	
2025-01-07 17:16:01.27	105.01	16.34	
2025-01-07 17:16:01.47	104.98	16.36	
2025-01-07 17:16:01.69	104.94	16.38	
2025-01-07 17:16:01.90	104.91	16.40	
2025-01-07 17:16:02.10	104.87	16.42	
2025-01-07 17:16:02.31	104.84	16.44	
2025-01-07 17:16:02.51	104.81	16.46	
2025-01-07 17:16:02.72	104.77	16.48	
2025-01-07 17:16:02.92	104.74	16.50	
2025-01-07 17:16:03.13	104.70	16.52	
2025-01-07 17:16:03.33	104.67	16.54	
2025-01-07 17:16:03.54	104.63	16.56	
2025-01-07 17:16:03.75	104.60	16.58	
2025-01-07 17:16:03.95	104.57	16.60	
2025-01-07 17:16:04.16	104.53	16.62	
2025-01-07 17:16:04.36	104.50	16.64	
2025-01-07 17:16:04.56	104.46	16.66	
2025-01-07 17:16:04.77	104.43	16.68	
2025-01-07 17:16:04.97	104.39	16.70	
2025-01-07 17:16:05.18	104.36	16.72	
2025-01-07 17:16:05.39	104.32	16.74	
2025-01-07 17:16:05.59	104.29	16.76	
2025-01-07 17:16:05.80	104.25	16.78	
2025-01-07 17:16:06.00	104.22	16.80	
2025-01-07 17:16:06.20	104.19	16.81	
2025-01-07 17:16:06.41	104.15	16.83	
2025-01-07 17:16:06.62	104.12	16.86	
2025-01-07 17:16:06.82	104.08	16.87	
2025-01-07 17:16:07.02	104.05	16.89	
2025-01-07 17:16:07.23	104.01	16.91	
2025-01-07 17:16:07.43	103.98	16.93	
2025-01-07 17:16:07.64	103.94	16.95	
2025-01-07 17:16:07.85	103.90	16.97	
2025-01-07 17:16:08.05	103.87	16.99	
2025-01-07 17:16:08.26	103.83	17.01	
2025-01-07 17:16:08.46	103.80	17.03	
2025-01-07 17:16:08.66	103.77	17.05	
2025-01-07 17:16:08.87	103.73	17.07	
2025-01-07 17:16:09.07	103.69	17.09	
2025-01-07 17:16:09.29	103.66	17.11	
2025-01-07 17:16:09.49	103.62	17.13	
2025-01-07 17:16:09.70	103.58	17.15	
2025-01-07 17:16:09.91	103.55	17.17	
2025-01-07 17:16:10.11	103.51	17.19	
2025-01-07 17:16:10.31	103.48	17.21	
2025-01-07 17:16:10.52	103.44	17.23	
2025-01-07 17:16:10.73	103.40	17.25	
2025-01-07 17:16:10.93	103.37	17.27	
2025-01-07 17:16:11.14	103.33	17.29	
2025-01-07 17:16:11.34	103.30	17.31	
2025-01-07 17:16:11.55	103.26	17.34	
2025-01-07 17:16:11.75	103.23	17.35	
2025-01-07 17:16:11.96	103.19	17.38	
2025-01-07 17:16:12.16	103.15	17.39	
2025-01-07 17:16:12.37	103.12	17.42	
2025-01-07 17:16:12.57	103.08	17.43	
2025-01-07 17:16:12.78	103.04	17.46	
2025-01-07 17:16:12.99	103.01	17.48	
2025-01-07 17:16:13.19	102.97	17.50	
2025-01-07 17:16:13.39	102.93	17.52	
2025-01-07 17:16:13.60	102.90	17.54	
2025-01-07 17:16:13.81	102.86	17.56	
2025-01-07 17:16:14.01	102.82	17.58	
2025-01-07 17:16:14.22	102.79	17.60	
2025-01-07 17:16:14.42	102.75	17.62	
2025-01-07 17:16:14.62	102.71	17.64	
2025-01-07 17:16:14.83	102.68	17.66	
2025-01-07 17:16:15.03	102.64	17.68	
2025-01-07 17:16:15.24	102.60	17.70	
2025-01-07 17:16:15.45	102.56	17.72	
2025-01-07 17:16:15.66	102.53	17.74	
2025-01-07 17:16:15.86	102.49	17.76	
2025-01-07 17:16:16.07	102.45	17.78	
2025-01-07 17:16:16.27	102.41	17.80	
2025-01-07 17:16:16.48	102.38	17.82	
2025-01-07 17:16:16.70	102.34	17.84	
2025-01-07 17:16:16.90	102.30	17.86	
2025-01-07 17:16:17.11	102.26	17.88	
2025-01-07 17:16:17.31	102.22	17.90	
2025-01-07 17:16:17.52	102.19	17.92	
2025-01-07 17:16:17.72	102.15	17.94	
2025-01-07 17:16:17.93	102.11	17.96	
2025-01-07 17:16:18.13	102.07	17.98	
2025-01-07 17:16:18.34	102.03	18.00	
2025-01-07 17:16:18.55	102.00	18.02	
2025-01-07 17:16:18.75	101.96	18.04	
2025-01-07 17:16:18.95	101.92	18.06	
2025-01-07 17:16:19.16	101.88	18.08	
2025-01-07 17:16:19.37	101.84	18.10	
2025-01-07 17:16:19.57	101.81	18.12	
2025-01-07 17:16:19.77	101.77	18.14	
2025-01-07 17:16:19.98	101.73	18.16	
2025-01-07 17:16:20.18	101.69	18.18	
2025-01-07 17:16:20.39	101.65	18.20	
2025-01-07 17:16:20.59	101.62	18.22	
2025-01-07 17:16:20.80	101.58	18.25	
2025-01-07 17:16:21.00	101.54	18.27	
2025-01-07 17:16:21.21	101.50	18.29	
2025-01-07 17:16:21.41	101.46	18.31	
2025-01-07 17:16:21.62	101.42	18.33	
2025-01-07 17:16:21.83	101.38	18.35	
2025-01-07 17:16:22.04	101.34	18.37	
2025-01-07 17:16:22.25	101.30	18.39	
2025-01-07 17:16:22.45	101.26	18.41	
2025-01-07 17:16:22.66	101.22	18.43	
2025-01-07 17:16:22.86	101.19	18.45	
2025-01-07 17:16:23.07	101.15	18.47	
2025-01-07 17:16:23.27	101.11	18.49	
2025-01-07 17:16:23.48	101.07	18.51	
2025-01-07 17:16:23.68	101.03	18.53	
2025-01-07 17:16:23.89	100.99	18.55	
2025-01-07 17:16:24.09	100.95	18.57	
2025-01-07 17:16:24.29	100.91	18.59	
2025-01-07 17:16:24.50	100.87	18.61	
2025-01-07 17:16:24.71	100.83	18.63	
2025-01-07 17:16:24.91	100.79	18.65	
2025-01-07 17:16:25.13	100.75	18.68	
2025-01-07 17:16:25.33	100.71	18.70	
2025-01-07 17:16:25.54	100.67	18.72	
2025-01-07 17:16:25.74	100.63	18.74	
2025-01-07 17:16:25.95	100.59	18.76	
2025-01-07 17:16:26.15	100.55	18.78	
2025-01-07 17:16:26.36	100.51	18.80	
2025-01-07 17:16:26.56	100.47	18.82	
2025-01-07 17:16:26.77	100.43	18.84	
2025-01-07 17:16:26.97	100.39	18.86	
2025-01-07 17:16:27.18	100.35	18.88	
2025-01-07 17:16:27.38	100.31	18.90	
2025-01-07 17:16:27.59	100.27	18.92	
2025-01-07 17:16:27.79	100.23	18.94	
2025-01-07 17:16:28.00	100.19	18.96	
2025-01-07 17:16:28.21	100.15	18.98	
2025-01-07 17:16:28.41	100.11	19.00	
2025-01-07 17:16:28.61	100.07	19.02	
2025-01-07 17:16:28.82	100.02	19.04	
2025-01-07 17:16:29.03	99.98	19.06	
2025-01-07 17:16:29.23	99.94	19.08	
2025-01-07 17:16:29.44	99.90	19.11	
2025-01-07 17:16:29.64	99.86	19.13	
2025-01-07 17:16:29.85	99.82	19.15	
2025-01-07 17:16:30.05	99.78	19.17	
2025-01-07 17:16:30.26	99.74	19.19	
2025-01-07 17:16:30.46	99.70	19.21	
2025-01-07 17:16:30.67	99.65	19.23	
2025-01-07 17:16:30.87	99.61	19.25	
2025-01-07 17:16:31.08	99.57	19.27	
2025-01-07 17:16:31.28	99.53	19.29	
2025-01-07 17:16:31.49	99.49	19.31	
2025-01-07 17:16:31.69	99.45	19.33	
2025-01-07 17:16:31.90	99.41	19.35	
2025-01-07 17:16:32.10	99.36	19.37	
2025-01-07 17:16:32.31	99.32	19.39	
2025-01-07 17:16:32.51	99.28	19.41	
2025-01-07 17:16:32.72	99.24	19.43	
2025-01-07 17:16:32.92	99.20	19.45	
2025-01-07 17:16:33.13	99.15	19.48	
2025-01-07 17:16:33.34	99.11	19.50	
2025-01-07 17:16:33.54	99.07	19.52	
2025-01-07 17:16:33.74	99.03	19.54	
2025-01-07 17:16:33.95	98.99	19.56	
2025-01-07 17:16:34.15	98.94	19.58	
2025-01-07 17:16:34.36	98.90	19.60	
2025-01-07 17:16:34.57	98.86	19.62	
2025-01-07 17:16:34.77	98.82	19.64	
2025-01-07 17:16:34.97	98.78	19.66	
2025-01-07 17:16:35.18	98.73	19.68	
2025-01-07 17:16:35.38	98.69	19.70	
2025-01-07 17:16:35.59	98.65	19.72	
2025-01-07 17:16:35.79	98.60	19.74	
2025-01-07 17:16:36.00	98.56	19.76	
2025-01-07 17:16:36.20	98.52	19.78	
2025-01-07 17:16:36.41	98.47	19.80	
2025-01-07 17:16:36.61	98.43	19.83	
2025-01-07 17:16:36.82	98.39	19.85	
2025-01-07 17:16:37.02	98.35	19.87	
2025-01-07 17:16:37.23	98.30	19.89	
2025-01-07 17:16:37.43	98.26	19.91	
2025-01-07 17:16:37.63	98.22	19.93	
2025-01-07 17:16:37.84	98.17	19.95	
2025-01-07 17:16:38.04	98.13	19.97	
2025-01-07 17:16:38.25	98.09	19.99	
2025-01-07 17:16:38.45	98.04	20.01	
2025-01-07 17:16:38.66	98.00	20.03	
2025-01-07 17:16:38.86	97.96	20.05	
2025-01-07 17:16:39.06	97.91	20.07	
2025-01-07 17:16:39.27	97.87	20.09	
2025-01-07 17:16:39.47	97.83	20.11	
2025-01-07 17:16:39.68	97.78	20.13	
2025-01-07 17:16:39.88	97.74	20.15	
2025-01-07 17:16:40.09	97.69	20.18	
2025-01-07 17:16:40.29	97.65	20.20	
2025-01-07 17:16:40.50	97.60	20.22	
2025-01-07 17:16:40.70	97.56	20.24	
2025-01-07 17:16:40.91	97.52	20.26	
2025-01-07 17:16:41.11	97.47	20.28	
2025-01-07 17:16:41.32	97.43	20.30	
2025-01-07 17:16:41.52	97.38	20.32	
2025-01-07 17:16:41.73	97.34	20.34	
2025-01-07 17:16:41.93	97.29	20.36	
2025-01-07 17:16:42.14	97.25	20.38	
2025-01-07 17:16:42.34	97.21	20.40	
2025-01-07 17:16:42.55	97.16	20.42	
2025-01-07 17:16:42.75	97.12	20.44	
2025-01-07 17:16:42.96	97.07	20.46	
2025-01-07 17:16:43.16	97.03	20.48	
2025-01-07 17:16:43.37	96.98	20.51	
2025-01-07 17:16:43.57	96.94	20.53	
2025-01-07 17:16:43.77	96.89	20.55	
2025-01-07 17:16:43.98	96.84	20.57	
2025-01-07 17:16:44.18	96.80	20.59	
2025-01-07 17:16:44.39	96.75	20.61	
2025-01-07 17:16:44.59	96.71	20.63	
2025-01-07 17:16:44.80	96.66	20.65	
2025-01-07 17:16:45.00	96.62	20.67	
2025-01-07 17:16:45.21	96.57	20.69	
2025-01-07 17:16:45.41	96.53	20.71	
2025-01-07 17:16:45.62	96.48	20.73	
2025-01-07 17:16:45.82	96.44	20.75	
2025-01-07 17:16:46.03	96.39	20.77	
2025-01-07 17:16:46.24	96.34	20.80	
2025-01-07 17:16:46.44	96.30	20.82	
2025-01-07 17:16:46.64	96.25	20.84	
2025-01-07 17:16:46.85	96.20	20.86	
2025-01-07 17:16:47.05	96.16	20.88	
2025-01-07 17:16:47.26	96.11	20.90	
2025-01-07 17:16:47.46	96.07	20.92	
2025-01-07 17:16:47.68	96.02	20.94	
2025-01-07 17:16:47.89	95.97	20.96	
2025-01-07 17:16:48.09	95.92	20.98	
2025-01-07 17:16:48.30	95.88	21.00	
2025-01-07 17:16:48.50	95.83	21.02	
2025-01-07 17:16:48.71	95.78	21.04	
2025-01-07 17:16:48.91	95.74	21.06	
2025-01-07 17:16:49.12	95.69	21.09	
2025-01-07 17:16:49.32	95.64	21.11	
2025-01-07 17:16:49.53	95.59	21.13	
2025-01-07 17:16:49.73	95.55	21.15	
2025-01-07 17:16:49.94	95.50	21.17	
2025-01-07 17:16:50.14	95.45	21.19	
2025-01-07 17:16:50.35	95.41	21.21	
2025-01-07 17:16:50.55	95.36	21.23	
2025-01-07 17:16:50.76	95.31	21.25	
2025-01-07 17:16:50.96	95.26	21.27	
2025-01-07 17:16:51.17	95.22	21.29	
2025-01-07 17:16:51.37	95.17	21.31	
2025-01-07 17:16:51.58	95.12	21.33	
2025-01-07 17:16:51.78	95.07	21.35	
2025-01-07 17:16:51.99	95.02	21.37	
2025-01-07 17:16:52.19	94.98	21.39	
2025-01-07 17:16:52.40	94.93	21.42	
2025-01-07 17:16:52.61	94.88	21.44	
2025-01-07 17:16:52.81	94.83	21.46	
2025-01-07 17:16:53.02	94.78	21.48	
2025-01-07 17:16:53.22	94.74	21.50	
2025-01-07 17:16:53.43	94.69	21.52	
2025-01-07 17:16:53.64	94.64	21.54	
2025-01-07 17:16:53.84	94.59	21.56	
2025-01-07 17:16:54.05	94.54	21.58	
2025-01-07 17:16:54.25	94.49	21.60	
2025-01-07 17:16:54.46	94.44	21.62	
2025-01-07 17:16:54.66	94.39	21.64	
2025-01-07 17:16:54.87	94.34	21.66	
2025-01-07 17:16:55.09	94.29	21.69	
2025-01-07 17:16:55.29	94.24	21.71	
2025-01-07 17:16:55.50	94.19	21.73	
2025-01-07 17:16:55.70	94.15	21.75	
2025-01-07 17:16:55.91	94.10	21.77	
2025-01-07 17:16:56.11	94.05	21.79	
2025-01-07 17:16:56.32	94.00	21.81	
2025-01-07 17:16:56.54	93.94	21.83	
2025-01-07 17:16:56.74	93.90	21.85	
2025-01-07 17:16:56.95	93.85	21.87	
2025-01-07 17:16:57.15	93.80	21.89	
2025-01-07 17:16:57.35	93.75	21.91	
2025-01-07 17:16:57.56	93.70	21.93	
2025-01-07 17:16:57.77	93.65	21.95	
2025-01-07 17:16:57.98	93.60	21.98	
2025-01-07 17:16:58.18	93.55	22.00	
2025-01-07 17:16:58.38	93.50	22.02	
2025-01-07 17:16:58.59	93.45	22.04	
2025-01-07 17:16:58.79	93.40	22.06	
2025-01-07 17:16:59.00	93.35	22.08	
2025-01-07 17:16:59.21	93.30	22.10	
2025-01-07 17:16:59.42	93.24	22.12	
2025-01-07 17:16:59.63	93.19	22.14	
2025-01-07 17:16:59.83	93.14	22.16	
2025-01-07 17:17:00.04	93.09	22.18	
2025-01-07 17:17:00.24	93.04	22.20	
2025-01-07 17:17:00.45	92.99	22.22	
2025-01-07 17:17:00.65	92.94	22.24	
2025-01-07 17:17:00.86	92.89	22.26	
2025-01-07 17:17:01.06	92.84	22.28	
2025-01-07 17:17:01.27	92.79	22.30	
2025-01-07 17:17:01.49	92.73	22.33	
2025-01-07 17:17:01.69	92.68	22.35	
2025-01-07 17:17:01.90	92.63	22.37	
2025-01-07 17:17:02.10	92.58	22.39	
2025-01-07 17:17:02.31	92.53	22.41	
2025-01-07 17:17:02.53	92.47	22.43	
2025-01-07 17:17:02.73	92.42	22.45	
2025-01-07 17:17:02.93	92.37	22.47	
2025-01-07 17:17:03.14	92.32	22.49	
2025-01-07 17:17:03.35	92.27	22.51	
2025-01-07 17:17:03.55	92.21	22.53	
2025-01-07 17:17:03.75	92.16	22.55	
2025-01-07 17:17:03.96	92.11	22.57	
2025-01-07 17:17:04.17	92.06	22.59	
2025-01-07 17:17:04.37	92.01	22.61	
2025-01-07 17:17:04.57	91.96	22.63	
2025-01-07 17:17:04.78	91.90	22.65	
2025-01-07 17:17:04.99	91.85	22.68	
2025-01-07 17:17:05.19	91.80	22.70	
2025-01-07 17:17:05.40	91.74	22.72	
2025-01-07 17:17:05.60	91.69	22.74	
2025-01-07 17:17:05.81	91.64	22.76	
2025-01-07 17:17:06.01	91.59	22.78	
2025-01-07 17:17:06.22	91.53	22.80	
2025-01-07 17:17:06.42	91.48	22.82	
2025-01-07 17:17:06.63	91.43	22.84	
2025-01-07 17:17:06.85	91.37	22.86	
2025-01-07 17:17:07.05	91.32	22.88	
2025-01-07 17:17:07.26	91.27	22.90	
2025-01-07 17:17:07.47	91.21	22.92	
2025-01-07 17:17:07.67	91.16	22.94	
2025-01-07 17:17:07.89	91.10	22.96	
2025-01-07 17:17:08.09	91.05	22.98	
2025-01-07 17:17:08.30	90.99	23.00	
2025-01-07 17:17:08.50	90.94	23.02	
2025-01-07 17:17:08.71	90.89	23.04	
2025-01-07 17:17:08.91	90.84	23.06	
2025-01-07 17:17:09.11	90.78	23.08	
2025-01-07 17:17:09.32	90.73	23.10	
2025-01-07 17:17:09.52	90.68	23.12	
2025-01-07 17:17:09.73	90.62	23.14	
2025-01-07 17:17:09.93	90.57	23.16	
2025-01-07 17:17:10.14	90.51	23.18	
2025-01-07 17:17:10.34	90.46	23.20	
2025-01-07 17:17:10.55	90.40	23.22	
2025-01-07 17:17:10.75	90.35	23.24	
2025-01-07 17:17:10.96	90.29	23.26	
2025-01-07 17:17:11.16	90.24	23.28	
2025-01-07 17:17:11.36	90.19	23.30	
2025-01-07 17:17:11.57	90.13	23.32	
2025-01-07 17:17:11.78	90.08	23.34	
2025-01-07 17:17:11.98	90.02	23.36	
2025-01-07 17:17:12.18	89.97	23.38	
2025-01-07 17:17:12.39	89.91	23.40	
2025-01-07 17:17:12.60	89.86	23.42	
2025-01-07 17:17:12.80	89.80	23.44	
2025-01-07 17:17:13.01	89.75	23.46	
2025-01-07 17:17:13.21	89.69	23.48	
2025-01-07 17:17:13.42	89.64	23.50	
2025-01-07 17:17:13.62	89.58	23.52	
2025-01-07 17:17:13.83	89.53	23.54	
2025-01-07 17:17:14.04	89.47	23.56	
2025-01-07 17:17:14.25	89.41	23.59	
2025-01-07 17:17:14.46	89.35	23.61	
2025-01-07 17:17:14.67	89.30	23.63	
2025-01-07 17:17:14.87	89.24	23.65	
2025-01-07 17:17:15.08	89.19	23.67	
2025-01-07 17:17:15.29	89.13	23.69	
2025-01-07 17:17:15.50	89.07	23.71	
2025-01-07 17:17:15.70	89.02	23.73	
2025-01-07 17:17:15.91	88.96	23.75	
2025-01-07 17:17:16.11	88.90	23.77	
2025-01-07 17:17:16.31	88.85	23.78	
2025-01-07 17:17:16.52	88.79	23.80	
2025-01-07 17:17:16.72	88.74	23.82	
2025-01-07 17:17:16.93	88.68	23.84	
2025-01-07 17:17:17.14	88.62	23.86	
2025-01-07 17:17:17.34	88.57	23.88	
2025-01-07 17:17:17.55	88.51	23.90	
2025-01-07 17:17:17.75	88.45	23.92	
2025-01-07 17:17:17.96	88.39	23.94	
2025-01-07 17:17:18.16	88.34	23.96	
2025-01-07 17:17:18.37	88.28	23.98	
2025-01-07 17:17:18.58	88.22	24.00	
2025-01-07 17:17:18.79	88.16	24.02	
2025-01-07 17:17:18.99	88.11	24.04	
2025-01-07 17:17:19.20	88.05	24.06	
2025-01-07 17:17:19.40	87.99	24.08	
2025-01-07 17:17:19.61	87.93	24.10	
2025-01-07 17:17:19.81	87.88	24.12	
2025-01-07 17:17:20.02	87.82	24.14	
2025-01-07 17:17:20.22	87.76	24.16	
2025-01-07 17:17:20.43	87.70	24.18	
2025-01-07 17:17:20.63	87.65	24.20	
2025-01-07 17:17:20.84	87.59	24.22	
2025-01-07 17:17:21.04	87.53	24.24	
2025-01-07 17:17:21.25	87.47	24.26	
2025-01-07 17:17:21.45	87.41	24.28	
2025-01-07 17:17:21.66	87.35	24.30	
2025-01-07 17:17:21.86	87.30	24.32	
2025-01-07 17:17:22.07	87.24	24.34	
2025-01-07 17:17:22.27	87.18	24.35	
2025-01-07 17:17:22.48	87.12	24.37	
2025-01-07 17:17:22.68	87.06	24.39	
2025-01-07 17:17:22.89	87.00	24.41	
2025-01-07 17:17:23.09	86.94	24.43	
2025-01-07 17:17:23.30	86.88	24.45	
2025-01-07 17:17:23.50	86.83	24.47	
2025-01-07 17:17:23.71	86.77	24.49	
2025-01-07 17:17:23.91	86.71	24.51	
2025-01-07 17:17:24.12	86.65	24.53	
2025-01-07 17:17:24.32	86.59	24.55	
2025-01-07 17:17:24.53	86.53	24.57	
2025-01-07 17:17:24.73	86.47	24.59	
2025-01-07 17:17:24.94	86.41	24.61	
2025-01-07 17:17:25.14	86.35	24.62	
2025-01-07 17:17:25.35	86.29	24.64	
2025-01-07 17:17:25.55	86.23	24.66	
2025-01-07 17:17:25.76	86.17	24.68	
2025-01-07 17:17:25.98	86.11	24.70	
2025-01-07 17:17:26.18	86.05	24.72	
2025-01-07 17:17:26.39	85.99	24.74	
2025-01-07 17:17:26.59	85.93	24.76	
2025-01-07 17:17:26.80	85.87	24.78	
2025-01-07 17:17:27.00	85.81	24.80	
2025-01-07 17:17:27.21	85.75	24.82	
2025-01-07 17:17:27.42	85.68	24.84	
2025-01-07 17:17:27.62	85.63	24.85	
2025-01-07 17:17:27.83	85.56	24.87	
2025-01-07 17:17:28.03	85.50	24.89	
2025-01-07 17:17:28.24	85.44	24.91	
2025-01-07 17:17:28.44	85.38	24.93	
2025-01-07 17:17:28.65	85.32	24.95	
2025-01-07 17:17:28.85	85.26	24.97	
2025-01-07 17:17:29.06	85.20	24.99	
2025-01-07 17:17:29.26	85.14	25.01	
2025-01-07 17:17:29.47	85.08	25.02	
2025-01-07 17:17:29.67	85.02	25.04	
2025-01-07 17:17:29.88	84.95	25.06	
2025-01-07 17:17:30.08	84.89	25.08	
2025-01-07 17:17:30.28	84.83	25.10	
2025-01-07 17:17:30.49	84.77	25.12	
2025-01-07 17:17:30.70	84.71	25.14	
2025-01-07 17:17:30.90	84.65	25.15	
2025-01-07 17:17:31.11	84.58	25.17	
2025-01-07 17:17:31.31	84.52	25.19	
2025-01-07 17:17:31.51	84.46	25.21	
2025-01-07 17:17:31.72	84.40	25.23	
2025-01-07 17:17:31.92	84.34	25.25	
2025-01-07 17:17:32.13	84.28	25.27	
2025-01-07 17:17:32.35	84.21	25.29	
2025-01-07 17:17:32.55	84.15	25.30	
2025-01-07 17:17:32.76	84.08	25.32	
2025-01-07 17:17:32.96	84.02	25.34	
2025-01-07 17:17:33.17	83.96	25.36	
2025-01-07 17:17:33.37	83.90	25.38	
2025-01-07 17:17:33.58	83.83	25.40	
2025-01-07 17:17:33.78	83.77	25.41	
2025-01-07 17:17:33.99	83.71	25.43	
2025-01-07 17:17:34.19	83.65	25.45	
2025-01-07 17:17:34.40	83.58	25.47	
2025-01-07 17:17:34.60	83.52	25.49	
2025-01-07 17:17:34.81	83.46	25.51	
2025-01-07 17:17:35.01	83.39	25.52	
2025-01-07 17:17:35.22	83.33	25.54	
2025-01-07 17:17:35.43	83.27	25.56	
2025-01-07 17:17:35.63	83.20	25.58	
2025-01-07 17:17:35.83	83.14	25.60	
2025-01-07 17:17:36.04	83.08	25.61	
2025-01-07 17:17:36.24	83.01	25.63	
2025-01-07 17:17:36.45	82.95	25.65	
2025-01-07 17:17:36.67	82.88	25.67	
2025-01-07 17:17:36.87	82.82	25.69	
2025-01-07 17:17:37.08	82.75	25.71	
2025-01-07 17:17:37.28	82.69	25.72	
2025-01-07 17:17:37.49	82.62	25.74	
2025-01-07 17:17:37.69	82.56	25.76	
2025-01-07 17:17:37.90	82.50	25.78	
2025-01-07 17:17:38.10	82.43	25.79	
2025-01-07 17:17:38.31	82.37	25.81	
2025-01-07 17:17:38.51	82.30	25.83	
2025-01-07 17:17:38.71	82.24	25.85	
2025-01-07 17:17:38.92	82.17	25.87	
2025-01-07 17:17:39.13	82.11	25.88	
2025-01-07 17:17:39.33	82.05	25.90	
2025-01-07 17:17:39.54	81.98	25.92	
2025-01-07 17:17:39.74	81.92	25.94	
2025-01-07 17:17:39.94	81.85	25.95	
2025-01-07 17:17:40.15	81.79	25.97	
2025-01-07 17:17:40.36	81.72	25.99	
2025-01-07 17:17:40.56	81.65	26.01	
2025-01-07 17:17:40.77	81.59	26.02	
2025-01-07 17:17:40.97	81.52	26.04	
2025-01-07 17:17:41.18	81.46	26.06	
2025-01-07 17:17:41.38	81.39	26.08	
2025-01-07 17:17:41.59	81.33	26.09	
2025-01-07 17:17:41.79	81.26	26.11	
2025-01-07 17:17:41.99	81.20	26.13	
2025-01-07 17:17:42.20	81.13	26.14	
2025-01-07 17:17:42.40	81.07	26.16	
2025-01-07 17:17:42.61	81.00	26.18	
2025-01-07 17:17:42.82	80.93	26.20	
2025-01-07 17:17:43.02	80.87	26.21	
2025-01-07 17:17:43.23	80.80	26.23	
2025-01-07 17:17:43.43	80.73	26.25	
2025-01-07 17:17:43.63	80.67	26.26	
2025-01-07 17:17:43.84	80.60	26.28	
2025-01-07 17:17:44.04	80.54	26.30	
2025-01-07 17:17:44.25	80.47	26.32	
2025-01-07 17:17:44.45	80.40	26.33	
2025-01-07 17:17:44.66	80.33	26.35	
2025-01-07 17:17:44.86	80.27	26.37	
2025-01-07 17:17:45.07	80.20	26.38	
2025-01-07 17:17:45.27	80.13	26.40	
2025-01-07 17:17:45.48	80.07	26.42	
2025-01-07 17:17:45.68	80.00	26.43	
2025-01-07 17:17:45.89	79.93	26.45	
2025-01-07 17:17:46.10	79.86	26.47	
2025-01-07 17:17:46.30	79.80	26.48	
2025-01-07 17:17:46.51	79.73	26.50	
2025-01-07 17:17:46.71	79.66	26.52	
2025-01-07 17:17:46.91	79.60	26.53	
2025-01-07 17:17:47.12	79.53	26.55	
2025-01-07 17:17:47.32	79.46	26.57	
2025-01-07 17:17:47.53	79.39	26.58	
2025-01-07 17:17:47.74	79.32	26.60	
2025-01-07 17:17:47.94	79.26	26.62	
2025-01-07 17:17:48.15	79.19	26.63	
2025-01-07 17:17:48.35	79.12	26.65	
2025-01-07 17:17:48.56	79.05	26.67	
2025-01-07 17:17:48.76	78.98	26.68	
2025-01-07 17:17:48.96	78.92	26.70	
2025-01-07 17:17:49.17	78.85	26.71	
2025-01-07 17:17:49.37	78.78	26.73	
2025-01-07 17:17:49.58	78.71	26.75	
2025-01-07 17:17:49.78	78.64	26.76	
2025-01-07 17:17:49.99	78.57	26.78	
2025-01-07 17:17:50.19	78.51	26.79	
2025-01-07 17:17:50.40	78.44	26.81	
2025-01-07 17:17:50.60	78.37	26.83	
2025-01-07 17:17:50.81	78.30	26.84	
2025-01-07 17:17:51.01	78.23	26.86	
2025-01-07 17:17:51.22	78.16	26.87	
2025-01-07 17:17:51.42	78.09	26.89	
2025-01-07 17:17:51.63	78.02	26.91	
2025-01-07 17:17:51.83	77.95	26.92	
2025-01-07 17:17:52.04	77.88	26.94	
2025-01-07 17:17:52.25	77.81	26.95	
2025-01-07 17:17:52.45	77.74	26.97	
2025-01-07 17:17:52.65	77.68	26.98	
2025-01-07 17:17:52.86	77.60	27.00	
2025-01-07 17:17:53.07	77.53	27.02	
2025-01-07 17:17:53.27	77.46	27.03	
2025-01-07 17:17:53.48	77.39	27.05	
2025-01-07 17:17:53.68	77.33	27.06	
2025-01-07 17:17:53.89	77.25	27.08	
2025-01-07 17:17:54.09	77.18	27.09	
2025-01-07 17:17:54.30	77.11	27.11	
2025-01-07 17:17:54.50	77.04	27.12	
2025-01-07 17:17:54.71	76.97	27.14	
2025-01-07 17:17:54.93	76.90	27.16	
2025-01-07 17:17:55.13	76.83	27.17	
2025-01-07 17:17:55.33	76.76	27.18	
2025-01-07 17:17:55.54	76.69	27.20	
2025-01-07 17:17:55.75	76.62	27.22	
2025-01-07 17:17:55.95	76.55	27.23	
2025-01-07 17:17:56.16	76.47	27.25	
2025-01-07 17:17:56.36	76.40	27.26	
2025-01-07 17:17:56.57	76.33	27.28	
2025-01-07 17:17:56.77	76.26	27.29	
2025-01-07 17:17:56.97	76.19	27.30	
2025-01-07 17:17:57.18	76.12	27.32	
2025-01-07 17:17:57.39	76.05	27.33	
2025-01-07 17:17:57.59	75.98	27.35	
2025-01-07 17:17:57.80	75.90	27.36	
2025-01-07 17:17:58.00	75.84	27.38	
2025-01-07 17:17:58.21	75.76	27.39	
2025-01-07 17:17:58.41	75.69	27.41	
2025-01-07 17:17:58.62	75.62	27.42	
2025-01-07 17:17:58.82	75.55	27.44	
2025-01-07 17:17:59.02	75.48	27.45	
2025-01-07 17:17:59.23	75.41	27.47	
2025-01-07 17:17:59.44	75.33	27.48	
2025-01-07 17:17:59.64	75.26	27.49	
2025-01-07 17:17:59.85	75.19	27.51	
2025-01-07 17:18:00.05	75.12	27.52	
2025-01-07 17:18:00.26	75.04	27.54	
2025-01-07 17:18:00.46	74.97	27.55	
2025-01-07 17:18:00.67	74.90	27.57	
2025-01-07 17:18:00.88	74.83	27.58	
2025-01-07 17:18:01.08	74.75	27.59	
2025-01-07 17:18:01.30	74.68	27.61	
2025-01-07 17:18:01.51	74.60	27.62	
2025-01-07 17:18:01.71	74.53	27.64	
2025-01-07 17:18:01.92	74.46	27.65	
2025-01-07 17:18:02.12	74.39	27.66	
2025-01-07 17:18:02.34	74.31	27.68	
2025-01-07 17:18:02.55	74.23	27.69	
2025-01-07 17:18:02.75	74.16	27.71	
2025-01-07 17:18:02.96	74.09	27.72	
2025-01-07 17:18:03.16	74.02	27.73	
2025-01-07 17:18:03.36	73.95	27.75	
2025-01-07 17:18:03.57	73.87	27.76	
2025-01-07 17:18:03.77	73.80	27.77	
2025-01-07 17:18:03.98	73.72	27.79	
2025-01-07 17:18:04.19	73.65	27.80	
2025-01-07 17:18:04.41	73.57	27.82	
2025-01-07 17:18:04.61	73.50	27.83	
2025-01-07 17:18:04.82	73.42	27.84	
2025-01-07 17:18:05.02	73.35	27.86	
2025-01-07 17:18:05.23	73.28	27.87	
2025-01-07 17:18:05.43	73.20	27.88	
2025-01-07 17:18:05.64	73.13	27.90	
2025-01-07 17:18:05.84	73.06	27.91	
2025-01-07 17:18:06.05	72.98	27.92	
2025-01-07 17:18:06.25	72.91	27.93	
2025-01-07 17:18:06.47	72.83	27.95	
2025-01-07 17:18:06.67	72.76	27.96	
2025-01-07 17:18:06.88	72.68	27.97	
2025-01-07 17:18:07.08	72.61	27.99	
2025-01-07 17:18:07.28	72.53	28.00	
2025-01-07 17:18:07.49	72.46	28.01	
2025-01-07 17:18:07.69	72.39	28.02	
2025-01-07 17:18:07.90	72.31	28.04	
2025-01-07 17:18:08.10	72.24	28.05	
2025-01-07 17:18:08.31	72.16	28.06	
2025-01-07 17:18:08.51	72.09	28.07	
2025-01-07 17:18:08.73	72.01	28.09	
2025-01-07 17:18:08.94	71.93	28.10	
2025-01-07 17:18:09.14	71.86	28.11	
2025-01-07 17:18:09.35	71.78	28.12	
2025-01-07 17:18:09.55	71.71	28.14	
2025-01-07 17:18:09.75	71.63	28.15	
2025-01-07 17:18:09.96	71.56	28.16	
2025-01-07 17:18:10.16	71.48	28.17	
2025-01-07 17:18:10.37	71.41	28.18	
2025-01-07 17:18:10.57	71.33	28.20	
2025-01-07 17:18:10.78	71.26	28.21	
2025-01-07 17:18:10.98	71.18	28.22	
2025-01-07 17:18:11.19	71.11	28.23	
2025-01-07 17:18:11.39	71.03	28.24	
2025-01-07 17:18:11.60	70.95	28.26	
2025-01-07 17:18:11.80	70.88	28.27	
2025-01-07 17:18:12.01	70.80	28.28	
2025-01-07 17:18:12.21	70.73	28.29	
2025-01-07 17:18:12.42	70.65	28.30	
2025-01-07 17:18:12.62	70.58	28.31	
2025-01-07 17:18:12.83	70.50	28.33	
2025-01-07 17:18:13.03	70.43	28.34	
2025-01-07 17:18:13.23	70.35	28.35	
2025-01-07 17:18:13.44	70.27	28.36	
2025-01-07 17:18:13.65	70.20	28.37	
2025-01-07 17:18:13.85	70.12	28.38	
2025-01-07 17:18:14.05	70.05	28.39	
2025-01-07 17:18:14.26	69.97	28.40	
2025-01-07 17:18:14.47	69.89	28.42	
2025-01-07 17:18:14.67	69.82	28.43	
2025-01-07 17:18:14.87	69.74	28.44	
2025-01-07 17:18:15.08	69.66	28.45	
2025-01-07 17:18:15.28	69.59	28.46	
2025-01-07 17:18:15.49	69.51	28.47	
2025-01-07 17:18:15.70	69.43	28.48	
2025-01-07 17:18:15.90	69.36	28.49	
2025-01-07 17:18:16.10	69.28	28.50	
2025-01-07 17:18:16.31	69.20	28.51	
2025-01-07 17:18:16.52	69.12	28.52	
2025-01-07 17:18:16.72	69.05	28.53	
2025-01-07 17:18:16.92	68.97	28.54	
2025-01-07 17:18:17.13	68.90	28.55	
2025-01-07 17:18:17.33	68.82	28.56	
2025-01-07 17:18:17.54	68.74	28.57	
2025-01-07 17:18:17.74	68.67	28.58	
2025-01-07 17:18:17.95	68.59	28.59	
2025-01-07 17:18:18.15	68.51	28.60	
2025-01-07 17:18:18.36	68.43	28.61	
2025-01-07 17:18:18.56	68.36	28.62	
2025-01-07 17:18:18.77	68.28	28.63	
2025-01-07 17:18:18.98	68.20	28.65	
2025-01-07 17:18:19.18	68.12	28.65	
2025-01-07 17:18:19.39	68.04	28.66	
2025-01-07 17:18:19.59	67.97	28.67	
2025-01-07 17:18:19.80	67.89	28.68	
2025-01-07 17:18:20.00	67.81	28.69	
2025-01-07 17:18:20.21	67.73	28.70	
2025-01-07 17:18:20.43	67.65	28.71	
2025-01-07 17:18:20.63	67.57	28.72	
2025-01-07 17:18:20.84	67.49	28.73	
2025-01-07 17:18:21.04	67.42	28.74	
2025-01-07 17:18:21.25	67.34	28.75	
2025-01-07 17:18:21.45	67.26	28.76	
2025-01-07 17:18:21.65	67.18	28.77	
2025-01-07 17:18:21.86	67.10	28.78	
2025-01-07 17:18:22.06	67.03	28.79	
2025-01-07 17:18:22.27	66.95	28.80	
2025-01-07 17:18:22.47	66.87	28.81	
2025-01-07 17:18:22.68	66.79	28.81	
2025-01-07 17:18:22.89	66.71	28.82	
2025-01-07 17:18:23.09	66.63	28.83	
2025-01-07 17:18:23.30	66.55	28.84	
2025-01-07 17:18:23.50	66.48	28.85	
2025-01-07 17:18:23.71	66.40	28.86	
2025-01-07 17:18:23.91	66.32	28.87	
2025-01-07 17:18:24.12	66.24	28.88	
2025-01-07 17:18:24.32	66.16	28.88	
2025-01-07 17:18:24.53	66.08	28.89	
2025-01-07 17:18:24.73	66.01	28.90	
2025-01-07 17:18:24.94	65.92	28.91	
2025-01-07 17:18:25.14	65.85	28.92	
2025-01-07 17:18:25.35	65.77	28.93	
2025-01-07 17:18:25.55	65.69	28.93	
2025-01-07 17:18:25.77	65.61	28.94	
2025-01-07 17:18:25.98	65.52	28.95	
2025-01-07 17:18:26.18	65.45	28.96	
2025-01-07 17:18:26.39	65.37	28.97	
2025-01-07 17:18:26.60	65.29	28.97	
2025-01-07 17:18:26.80	65.21	28.98	
2025-01-07 17:18:27.01	65.13	28.99	
2025-01-07 17:18:27.21	65.05	29.00	
2025-01-07 17:18:27.42	64.97	29.01	
2025-01-07 17:18:27.62	64.89	29.01	
2025-01-07 17:18:27.83	64.81	29.02	
2025-01-07 17:18:28.03	64.73	29.03	
2025-01-07 17:18:28.24	64.65	29.04	
2025-01-07 17:18:28.44	64.57	29.04	
2025-01-07 17:18:28.65	64.49	29.05	
2025-01-07 17:18:28.85	64.41	29.06	
2025-01-07 17:18:29.06	64.33	29.06	
2025-01-07 17:18:29.27	64.25	29.07	
2025-01-07 17:18:29.47	64.17	29.08	
2025-01-07 17:18:29.68	64.09	29.09	
2025-01-07 17:18:29.88	64.01	29.09	
2025-01-07 17:18:30.10	63.93	29.10	
2025-01-07 17:18:30.31	63.85	29.11	
2025-01-07 17:18:30.51	63.77	29.11	
2025-01-07 17:18:30.72	63.69	29.12	
2025-01-07 17:18:30.92	63.61	29.13	
2025-01-07 17:18:31.13	63.53	29.13	
2025-01-07 17:18:31.33	63.45	29.14	
2025-01-07 17:18:31.54	63.37	29.15	
2025-01-07 17:18:31.74	63.29	29.15	
2025-01-07 17:18:31.95	63.21	29.16	
2025-01-07 17:18:32.15	63.13	29.17	
2025-01-07 17:18:32.36	63.05	29.17	
2025-01-07 17:18:32.57	62.96	29.18	
2025-01-07 17:18:32.77	62.89	29.18	
2025-01-07 17:18:32.98	62.80	29.19	
2025-01-07 17:18:33.18	62.73	29.20	
2025-01-07 17:18:33.39	62.64	29.20	
2025-01-07 17:18:33.59	62.56	29.21	
2025-01-07 17:18:33.80	62.48	29.21	
2025-01-07 17:18:34.00	62.40	29.22	
2025-01-07 17:18:34.21	62.32	29.23	
2025-01-07 17:18:34.41	62.24	29.23	
2025-01-07 17:18:34.62	62.16	29.24	
2025-01-07 17:18:34.82	62.08	29.24	
2025-01-07 17:18:35.03	62.00	29.25	
2025-01-07 17:18:35.24	61.92	29.25	
2025-01-07 17:18:35.44	61.84	29.26	
2025-01-07 17:18:35.64	61.76	29.26	
2025-01-07 17:18:35.85	61.68	29.27	
2025-01-07 17:18:36.05	61.60	29.27	
2025-01-07 17:18:36.26	61.52	29.28	
2025-01-07 17:18:36.48	61.43	29.28	
2025-01-07 17:18:36.68	61.35	29.29	
2025-01-07 17:18:36.89	61.27	29.29	
2025-01-07 17:18:37.09	61.19	29.30	
2025-01-07 17:18:37.30	61.11	29.30	
2025-01-07 17:18:37.50	61.03	29.31	
2025-01-07 17:18:37.71	60.94	29.31	
2025-01-07 17:18:37.91	60.87	29.32	
2025-01-07 17:18:38.12	60.78	29.32	
2025-01-07 17:18:38.32	60.70	29.33	
2025-01-07 17:18:38.52	60.62	29.33	
2025-01-07 17:18:38.73	60.54	29.34	
2025-01-07 17:18:38.94	60.46	29.34	
2025-01-07 17:18:39.14	60.38	29.34	
2025-01-07 17:18:39.35	60.30	29.35	
2025-01-07 17:18:39.55	60.22	29.35	
2025-01-07 17:18:39.76	60.13	29.36	
2025-01-07 17:18:39.96	60.05	29.36	
2025-01-07 17:18:40.16	59.98	29.36	
2025-01-07 17:18:40.37	59.89	29.37	
2025-01-07 17:18:40.58	59.81	29.37	
2025-01-07 17:18:40.78	59.73	29.38	
2025-01-07 17:18:40.99	59.65	29.38	
2025-01-07 17:18:41.19	59.57	29.38	
2025-01-07 17:18:41.40	59.48	29.39	
2025-01-07 17:18:41.60	59.41	29.39	
2025-01-07 17:18:41.81	59.32	29.39	
2025-01-07 17:18:42.01	59.24	29.40	
2025-01-07 17:18:42.22	59.16	29.40	
2025-01-07 17:18:42.42	59.08	29.40	
2025-01-07 17:18:42.63	59.00	29.41	
2025-01-07 17:18:42.83	58.92	29.41	
2025-01-07 17:18:43.04	58.83	29.41	
2025-01-07 17:18:43.25	58.75	29.42	
2025-01-07 17:18:43.45	58.67	29.42	
2025-01-07 17:18:43.66	58.59	29.42	
2025-01-07 17:18:43.86	58.51	29.42	
2025-01-07 17:18:44.07	58.42	29.43	
2025-01-07 17:18:44.28	58.34	29.43	
2025-01-07 17:18:44.48	58.26	29.43	
2025-01-07 17:18:44.69	58.18	29.43	
2025-01-07 17:18:44.89	58.10	29.44	
2025-01-07 17:18:45.09	58.02	29.44	
2025-01-07 17:18:45.30	57.94	29.44	
2025-01-07 17:18:45.51	57.85	29.44	
2025-01-07 17:18:45.71	57.77	29.45	
2025-01-07 17:18:45.92	57.69	29.45	
2025-01-07 17:18:46.12	57.61	29.45	
2025-01-07 17:18:46.33	57.53	29.45	
2025-01-07 17:18:46.53	57.45	29.45	
2025-01-07 17:18:46.74	57.36	29.46	
2025-01-07 17:18:46.95	57.28	29.46	
2025-01-07 17:18:47.15	57.20	29.46	
2025-01-07 17:18:47.36	57.12	29.46	
2025-01-07 17:18:47.56	57.04	29.46	
2025-01-07 17:18:47.77	56.95	29.47	
2025-01-07 17:18:47.97	56.87	29.47	
2025-01-07 17:18:48.18	56.79	29.47	
2025-01-07 17:18:48.38	56.71	29.47	
2025-01-07 17:18:48.59	56.63	29.47	
2025-01-07 17:18:48.79	56.55	29.47	
2025-01-07 17:18:49.00	56.46	29.47	
2025-01-07 17:18:49.20	56.38	29.47	
2025-01-07 17:18:49.41	56.30	29.48	
2025-01-07 17:18:49.61	56.22	29.48	
2025-01-07 17:18:49.82	56.14	29.48	
2025-01-07 17:18:50.02	56.06	29.48	
2025-01-07 17:18:50.24	55.97	29.48	
2025-01-07 17:18:50.44	55.89	29.48	
2025-01-07 17:18:50.65	55.80	29.48	
2025-01-07 17:18:50.85	55.72	29.48	
2025-01-07 17:18:51.06	55.64	29.48	
2025-01-07 17:18:51.26	55.56	29.48	
2025-01-07 17:18:51.47	55.48	29.48	
2025-01-07 17:18:51.68	55.39	29.48	
2025-01-07 17:18:51.88	55.31	29.48	
2025-01-07 17:18:52.09	55.23	29.48	
2025-01-07 17:18:52.29	55.15	29.48	
2025-01-07 17:18:52.51	55.06	29.48	
2025-01-07 17:18:52.72	54.98	29.48	
2025-01-07 17:18:52.92	54.90	29.48	
2025-01-07 17:18:53.13	54.82	29.48	
2025-01-07 17:18:53.33	54.74	29.48	
2025-01-07 17:18:53.54	54.65	29.48	
2025-01-07 17:18:53.74	54.57	29.48	
2025-01-07 17:18:53.95	54.49	29.48	
2025-01-07 17:18:54.15	54.41	29.48	
2025-01-07 17:18:54.36	54.32	29.48	
2025-01-07 17:18:54.56	54.24	29.48	
2025-01-07 17:18:54.77	54.16	29.48	
2025-01-07 17:18:54.97	54.08	29.48	
2025-01-07 17:18:55.18	54.00	29.48	
2025-01-07 17:18:55.38	53.92	29.48	
2025-01-07 17:18:55.59	53.83	29.48	
2025-01-07 17:18:55.79	53.75	29.48	
2025-01-07 17:18:56.00	53.67	29.48	
2025-01-07 17:18:56.21	53.59	29.48	
2025-01-07 17:18:56.41	53.51	29.47	
2025-01-07 17:18:56.61	53.43	29.47	
2025-01-07 17:18:56.82	53.34	29.47	
2025-01-07 17:18:57.02	53.26	29.47	
2025-01-07 17:18:57.23	53.18	29.47	
2025-01-07 17:18:57.43	53.10	29.47	
2025-01-07 17:18:57.64	53.02	29.47	
2025-01-07 17:18:57.84	52.94	29.47	
2025-01-07 17:18:58.05	52.85	29.46	
2025-01-07 17:18:58.26	52.77	29.46	
2025-01-07 17:18:58.46	52.69	29.46	
2025-01-07 17:18:58.67	52.61	29.46	
2025-01-07 17:18:58.88	52.52	29.46	
2025-01-07 17:18:59.09	52.44	29.45	
2025-01-07 17:18:59.30	52.36	29.45	
2025-01-07 17:18:59.50	52.28	29.45	
2025-01-07 17:18:59.71	52.19	29.45	
2025-01-07 17:18:59.91	52.11	29.45	
2025-01-07 17:19:00.13	52.03	29.44	
2025-01-07 17:19:00.33	51.95	29.44	
2025-01-07 17:19:00.54	51.86	29.44	
2025-01-07 17:19:00.74	51.78	29.44	
2025-01-07 17:19:00.95	51.70	29.43	
2025-01-07 17:19:01.16	51.62	29.43	
2025-01-07 17:19:01.36	51.54	29.43	
2025-01-07 17:19:01.57	51.45	29.43	
2025-01-07 17:19:01.77	51.37	29.42	
2025-01-07 17:19:01.98	51.29	29.42	
2025-01-07 17:19:02.18	51.21	29.42	
2025-01-07 17:19:02.39	51.13	29.42	
2025-01-07 17:19:02.59	51.05	29.41	
2025-01-07 17:19:02.80	50.97	29.41	
2025-01-07 17:19:03.01	50.88	29.41	
2025-01-07 17:19:03.21	50.80	29.40	
2025-01-07 17:19:03.42	50.72	29.40	
2025-01-07 17:19:03.62	50.64	29.40	
2025-01-07 17:19:03.83	50.56	29.39	
2025-01-07 17:19:04.03	50.48	29.39	
2025-01-07 17:19:04.24	50.39	29.39	
2025-01-07 17:19:04.44	50.32	29.38	
2025-01-07 17:19:04.65	50.23	29.38	
2025-01-07 17:19:04.85	50.15	29.38	
2025-01-07 17:19:05.06	50.07	29.37	
