passes_logs/2025/01/07/SPB_Silybum_02/SPB_Silybum_02__20250107_105155_TERRA_rec.log

#Pass ID: 20250107_105155_TERRA
#Satellite: TERRA
#Configuration: TERRA
#Start time: 2025-01-07 10:51:55

#Version: 2.0.20230423
#Station: SPB_Silybum_02
#Location: 30.233357 lon 59.946436 lat
#TLE: 1 25994U 99068A   25006.77118991  .00001382  00000+0  29492-3 0  9999
#TLE: 2 25994  98.0231  70.0628 0003576  88.8854  23.4584 14.60378914332871

#Time	Az	El	Level	Level2	SNR	BER	Gain	Gain2
2025-01-07 10:51:57.99	6.76	4.15	
2025-01-07 10:51:58.19	6.74	4.16	
2025-01-07 10:51:58.40	6.71	4.17	
2025-01-07 10:51:58.60	6.69	4.18	
2025-01-07 10:51:58.81	6.66	4.19	
2025-01-07 10:51:59.01	6.64	4.20	
2025-01-07 10:51:59.22	6.62	4.21	
2025-01-07 10:51:59.42	6.59	4.22	
2025-01-07 10:51:59.63	6.57	4.23	
2025-01-07 10:51:59.83	6.55	4.25	
2025-01-07 10:52:00.04	6.52	4.26	
2025-01-07 10:52:00.25	6.50	4.27	
2025-01-07 10:52:00.46	6.47	4.28	
2025-01-07 10:52:00.66	6.45	4.29	
2025-01-07 10:52:00.87	6.43	4.30	
2025-01-07 10:52:01.08	6.40	4.31	
2025-01-07 10:52:01.28	6.38	4.32	
2025-01-07 10:52:01.49	6.35	4.33	
2025-01-07 10:52:01.69	6.33	4.34	
2025-01-07 10:52:01.89	6.31	4.35	
2025-01-07 10:52:02.10	6.28	4.36	
2025-01-07 10:52:02.31	6.26	4.37	
2025-01-07 10:52:02.51	6.24	4.38	
2025-01-07 10:52:02.71	6.21	4.39	
2025-01-07 10:52:02.92	6.19	4.40	
2025-01-07 10:52:03.12	6.16	4.42	
2025-01-07 10:52:03.33	6.14	4.43	
2025-01-07 10:52:03.53	6.12	4.44	
2025-01-07 10:52:03.74	6.09	4.45	
2025-01-07 10:52:03.94	6.07	4.46	
2025-01-07 10:52:04.15	6.04	4.47	
2025-01-07 10:52:04.36	6.02	4.48	
2025-01-07 10:52:04.56	6.00	4.49	
2025-01-07 10:52:04.76	5.97	4.50	
2025-01-07 10:52:04.97	5.95	4.51	
2025-01-07 10:52:05.18	5.92	4.52	
2025-01-07 10:52:05.38	5.90	4.53	
2025-01-07 10:52:05.59	5.87	4.54	
2025-01-07 10:52:05.79	5.85	4.55	
2025-01-07 10:52:06.00	5.83	4.56	
2025-01-07 10:52:06.20	5.80	4.57	
2025-01-07 10:52:06.41	5.78	4.59	
2025-01-07 10:52:06.61	5.75	4.60	
2025-01-07 10:52:06.82	5.73	4.61	
2025-01-07 10:52:07.02	5.71	4.62	
2025-01-07 10:52:07.23	5.68	4.63	
2025-01-07 10:52:07.43	5.66	4.64	
2025-01-07 10:52:07.64	5.63	4.65	
2025-01-07 10:52:07.85	5.61	4.66	
2025-01-07 10:52:08.05	5.58	4.67	
2025-01-07 10:52:08.26	5.56	4.68	
2025-01-07 10:52:08.46	5.53	4.69	
2025-01-07 10:52:08.67	5.51	4.70	
2025-01-07 10:52:08.87	5.49	4.71	
2025-01-07 10:52:09.08	5.46	4.72	
2025-01-07 10:52:09.28	5.44	4.73	
2025-01-07 10:52:09.49	5.41	4.74	
2025-01-07 10:52:09.69	5.39	4.75	
2025-01-07 10:52:09.90	5.36	4.77	
2025-01-07 10:52:10.11	5.34	4.78	
2025-01-07 10:52:10.31	5.31	4.79	
2025-01-07 10:52:10.52	5.29	4.80	
2025-01-07 10:52:10.72	5.26	4.81	
2025-01-07 10:52:10.93	5.24	4.82	
2025-01-07 10:52:11.13	5.21	4.83	
2025-01-07 10:52:11.34	5.19	4.84	
2025-01-07 10:52:11.54	5.16	4.85	
2025-01-07 10:52:11.74	5.14	4.86	
2025-01-07 10:52:11.95	5.11	4.87	
2025-01-07 10:52:12.16	5.09	4.88	
2025-01-07 10:52:12.36	5.06	4.89	
2025-01-07 10:52:12.56	5.04	4.90	
2025-01-07 10:52:12.77	5.02	4.91	
2025-01-07 10:52:12.98	4.99	4.92	
2025-01-07 10:52:13.18	4.97	4.93	
2025-01-07 10:52:13.39	4.94	4.95	
2025-01-07 10:52:13.59	4.92	4.96	
2025-01-07 10:52:13.80	4.89	4.97	
2025-01-07 10:52:14.00	4.87	4.98	
2025-01-07 10:52:14.21	4.84	4.99	
2025-01-07 10:52:14.41	4.82	5.00	
2025-01-07 10:52:14.62	4.79	5.01	
2025-01-07 10:52:14.82	4.77	5.02	
2025-01-07 10:52:15.03	4.74	5.03	
2025-01-07 10:52:15.23	4.72	5.04	
2025-01-07 10:52:15.44	4.69	5.05	
2025-01-07 10:52:15.64	4.66	5.06	
2025-01-07 10:52:15.85	4.64	5.07	
2025-01-07 10:52:16.05	4.61	5.08	
2025-01-07 10:52:16.26	4.59	5.09	
2025-01-07 10:52:16.46	4.56	5.10	
2025-01-07 10:52:16.67	4.54	5.11	
2025-01-07 10:52:16.87	4.51	5.13	
2025-01-07 10:52:17.08	4.49	5.14	
2025-01-07 10:52:17.28	4.46	5.15	
2025-01-07 10:52:17.49	4.44	5.16	
2025-01-07 10:52:17.69	4.41	5.17	
2025-01-07 10:52:17.90	4.39	5.18	
2025-01-07 10:52:18.10	4.36	5.19	
2025-01-07 10:52:18.31	4.34	5.20	
2025-01-07 10:52:18.52	4.31	5.21	
2025-01-07 10:52:18.72	4.28	5.22	
2025-01-07 10:52:18.93	4.26	5.23	
2025-01-07 10:52:19.13	4.23	5.24	
2025-01-07 10:52:19.34	4.21	5.25	
2025-01-07 10:52:19.55	4.18	5.26	
2025-01-07 10:52:19.75	4.16	5.27	
2025-01-07 10:52:19.95	4.13	5.28	
2025-01-07 10:52:20.16	4.10	5.30	
2025-01-07 10:52:20.37	4.08	5.31	
2025-01-07 10:52:20.57	4.05	5.32	
2025-01-07 10:52:20.78	4.03	5.33	
2025-01-07 10:52:20.98	4.00	5.34	
2025-01-07 10:52:21.19	3.98	5.35	
2025-01-07 10:52:21.39	3.95	5.36	
2025-01-07 10:52:21.60	3.92	5.37	
2025-01-07 10:52:21.80	3.90	5.38	
2025-01-07 10:52:22.01	3.87	5.39	
2025-01-07 10:52:22.21	3.85	5.40	
2025-01-07 10:52:22.42	3.82	5.41	
2025-01-07 10:52:22.62	3.80	5.42	
2025-01-07 10:52:22.83	3.77	5.43	
2025-01-07 10:52:23.03	3.74	5.44	
2025-01-07 10:52:23.24	3.72	5.45	
2025-01-07 10:52:23.44	3.69	5.46	
2025-01-07 10:52:23.65	3.67	5.48	
2025-01-07 10:52:23.85	3.64	5.49	
2025-01-07 10:52:24.05	3.61	5.50	
2025-01-07 10:52:24.26	3.59	5.51	
2025-01-07 10:52:24.47	3.56	5.52	
2025-01-07 10:52:24.67	3.54	5.53	
2025-01-07 10:52:24.88	3.51	5.54	
2025-01-07 10:52:25.08	3.48	5.55	
2025-01-07 10:52:25.29	3.46	5.56	
2025-01-07 10:52:25.50	3.43	5.57	
2025-01-07 10:52:25.70	3.40	5.58	
2025-01-07 10:52:25.91	3.38	5.59	
2025-01-07 10:52:26.11	3.35	5.60	
2025-01-07 10:52:26.32	3.33	5.61	
2025-01-07 10:52:26.52	3.30	5.62	
2025-01-07 10:52:26.73	3.27	5.63	
2025-01-07 10:52:26.94	3.25	5.64	
2025-01-07 10:52:27.14	3.22	5.66	
2025-01-07 10:52:27.34	3.19	5.67	
2025-01-07 10:52:27.55	3.17	5.68	
2025-01-07 10:52:27.76	3.14	5.69	
2025-01-07 10:52:27.96	3.11	5.70	
2025-01-07 10:52:28.17	3.09	5.71	
2025-01-07 10:52:28.37	3.06	5.72	
2025-01-07 10:52:28.57	3.04	5.73	
2025-01-07 10:52:28.78	3.01	5.74	
2025-01-07 10:52:28.98	2.98	5.75	
2025-01-07 10:52:29.19	2.96	5.76	
2025-01-07 10:52:29.39	2.93	5.77	
2025-01-07 10:52:29.60	2.90	5.78	
2025-01-07 10:52:29.80	2.88	5.79	
2025-01-07 10:52:30.01	2.85	5.80	
2025-01-07 10:52:30.21	2.82	5.81	
2025-01-07 10:52:30.42	2.80	5.82	
2025-01-07 10:52:30.62	2.77	5.83	
2025-01-07 10:52:30.83	2.74	5.85	
2025-01-07 10:52:31.03	2.72	5.86	
2025-01-07 10:52:31.24	2.69	5.87	
2025-01-07 10:52:31.45	2.66	5.88	
2025-01-07 10:52:31.65	2.63	5.89	
2025-01-07 10:52:31.85	2.61	5.90	
2025-01-07 10:52:32.06	2.58	5.91	
2025-01-07 10:52:32.26	2.56	5.92	
2025-01-07 10:52:32.47	2.53	5.93	
2025-01-07 10:52:32.67	2.50	5.94	
2025-01-07 10:52:32.88	2.47	5.95	
2025-01-07 10:52:33.08	2.45	5.96	
2025-01-07 10:52:33.29	2.42	5.97	
2025-01-07 10:52:33.49	2.39	5.98	
2025-01-07 10:52:33.70	2.37	5.99	
2025-01-07 10:52:33.90	2.34	6.00	
2025-01-07 10:52:34.11	2.31	6.01	
2025-01-07 10:52:34.32	2.28	6.02	
2025-01-07 10:52:34.52	2.26	6.03	
2025-01-07 10:52:34.73	2.23	6.05	
2025-01-07 10:52:34.93	2.20	6.06	
2025-01-07 10:52:35.14	2.18	6.07	
2025-01-07 10:52:35.34	2.15	6.08	
2025-01-07 10:52:35.55	2.12	6.09	
2025-01-07 10:52:35.75	2.09	6.10	
2025-01-07 10:52:35.96	2.07	6.11	
2025-01-07 10:52:36.16	2.04	6.12	
2025-01-07 10:52:36.37	2.01	6.13	
2025-01-07 10:52:36.57	1.98	6.14	
2025-01-07 10:52:36.77	1.96	6.15	
2025-01-07 10:52:36.98	1.93	6.16	
2025-01-07 10:52:37.19	1.90	6.17	
2025-01-07 10:52:37.39	1.88	6.18	
2025-01-07 10:52:37.60	1.85	6.19	
2025-01-07 10:52:37.80	1.82	6.20	
2025-01-07 10:52:38.00	1.79	6.21	
2025-01-07 10:52:38.21	1.77	6.22	
2025-01-07 10:52:38.42	1.74	6.24	
2025-01-07 10:52:38.62	1.71	6.25	
2025-01-07 10:52:38.83	1.68	6.26	
2025-01-07 10:52:39.03	1.66	6.27	
2025-01-07 10:52:39.24	1.63	6.28	
2025-01-07 10:52:39.44	1.60	6.29	
2025-01-07 10:52:39.65	1.57	6.30	
2025-01-07 10:52:39.85	1.54	6.31	
2025-01-07 10:52:40.06	1.52	6.32	
2025-01-07 10:52:40.26	1.49	6.33	
2025-01-07 10:52:40.47	1.46	6.34	
2025-01-07 10:52:40.68	1.43	6.35	
2025-01-07 10:52:40.88	1.41	6.36	
2025-01-07 10:52:41.09	1.38	6.37	
2025-01-07 10:52:41.29	1.35	6.38	
2025-01-07 10:52:41.50	1.32	6.39	
2025-01-07 10:52:41.70	1.29	6.40	
2025-01-07 10:52:41.91	1.27	6.41	
2025-01-07 10:52:42.12	1.24	6.42	
2025-01-07 10:52:42.32	1.21	6.43	
2025-01-07 10:52:42.52	1.18	6.45	
2025-01-07 10:52:42.73	1.15	6.46	
2025-01-07 10:52:42.93	1.13	6.47	
2025-01-07 10:52:43.14	1.10	6.48	
2025-01-07 10:52:43.34	1.07	6.49	
2025-01-07 10:52:43.55	1.04	6.50	
2025-01-07 10:52:43.75	1.01	6.51	
2025-01-07 10:52:43.96	0.98	6.52	
2025-01-07 10:52:44.17	0.96	6.53	
2025-01-07 10:52:44.38	0.93	6.54	
2025-01-07 10:52:44.59	0.90	6.55	
2025-01-07 10:52:44.79	0.87	6.56	
2025-01-07 10:52:45.00	0.84	6.57	
2025-01-07 10:52:45.20	0.81	6.58	
2025-01-07 10:52:45.41	0.78	6.59	
2025-01-07 10:52:45.61	0.76	6.60	
2025-01-07 10:52:45.82	0.73	6.61	
2025-01-07 10:52:46.02	0.70	6.62	
2025-01-07 10:52:46.23	0.67	6.63	
2025-01-07 10:52:46.43	0.64	6.65	
2025-01-07 10:52:46.63	0.62	6.66	
2025-01-07 10:52:46.84	0.59	6.67	
2025-01-07 10:52:47.04	0.56	6.68	
2025-01-07 10:52:47.25	0.53	6.69	
2025-01-07 10:52:47.46	0.50	6.70	
2025-01-07 10:52:47.67	0.47	6.71	
2025-01-07 10:52:47.88	0.44	6.72	
2025-01-07 10:52:48.08	0.41	6.73	
2025-01-07 10:52:48.29	0.38	6.74	
2025-01-07 10:52:48.49	0.36	6.75	
2025-01-07 10:52:48.70	0.33	6.76	
2025-01-07 10:52:48.90	0.30	6.77	
2025-01-07 10:52:49.11	0.27	6.78	
2025-01-07 10:52:49.32	0.24	6.79	
2025-01-07 10:52:49.52	0.21	6.80	
2025-01-07 10:52:49.73	0.18	6.81	
2025-01-07 10:52:49.93	0.16	6.82	
2025-01-07 10:52:50.14	0.13	6.83	
2025-01-07 10:52:50.34	0.10	6.84	
2025-01-07 10:52:50.55	0.07	6.86	
2025-01-07 10:52:50.75	0.04	6.87	
2025-01-07 10:52:50.96	0.01	6.88	
2025-01-07 10:52:51.16	359.98	6.89	
2025-01-07 10:52:51.37	359.95	6.90	
2025-01-07 10:52:51.57	359.92	6.91	
2025-01-07 10:52:51.78	359.89	6.92	
2025-01-07 10:52:51.98	359.87	6.93	
2025-01-07 10:52:52.19	359.84	6.94	
2025-01-07 10:52:52.39	359.81	6.95	
2025-01-07 10:52:52.60	359.78	6.96	
2025-01-07 10:52:52.80	359.75	6.97	
2025-01-07 10:52:53.01	359.72	6.98	
2025-01-07 10:52:53.22	359.69	6.99	
2025-01-07 10:52:53.42	359.66	7.00	
2025-01-07 10:52:53.63	359.63	7.01	
2025-01-07 10:52:53.83	359.60	7.02	
2025-01-07 10:52:54.05	359.57	7.03	
2025-01-07 10:52:54.26	359.54	7.04	
2025-01-07 10:52:54.46	359.51	7.05	
2025-01-07 10:52:54.67	359.48	7.06	
2025-01-07 10:52:54.87	359.45	7.07	
2025-01-07 10:52:55.07	359.43	7.08	
2025-01-07 10:52:55.28	359.40	7.10	
2025-01-07 10:52:55.49	359.37	7.11	
2025-01-07 10:52:55.69	359.34	7.12	
2025-01-07 10:52:55.90	359.31	7.13	
2025-01-07 10:52:56.10	359.28	7.14	
2025-01-07 10:52:56.30	359.25	7.15	
2025-01-07 10:52:56.51	359.22	7.16	
2025-01-07 10:52:56.72	359.19	7.17	
2025-01-07 10:52:56.92	359.16	7.18	
2025-01-07 10:52:57.12	359.13	7.19	
2025-01-07 10:52:57.33	359.10	7.20	
2025-01-07 10:52:57.53	359.07	7.21	
2025-01-07 10:52:57.74	359.04	7.22	
2025-01-07 10:52:57.95	359.01	7.23	
2025-01-07 10:52:58.15	358.98	7.24	
2025-01-07 10:52:58.36	358.95	7.25	
2025-01-07 10:52:58.56	358.92	7.26	
2025-01-07 10:52:58.76	358.89	7.27	
2025-01-07 10:52:58.97	358.86	7.28	
2025-01-07 10:52:59.17	358.83	7.29	
2025-01-07 10:52:59.38	358.80	7.30	
2025-01-07 10:52:59.59	358.77	7.31	
2025-01-07 10:52:59.79	358.74	7.32	
2025-01-07 10:53:00.00	358.71	7.33	
2025-01-07 10:53:00.20	358.68	7.34	
2025-01-07 10:53:00.40	358.65	7.35	
2025-01-07 10:53:00.61	358.62	7.36	
2025-01-07 10:53:00.81	358.59	7.37	
2025-01-07 10:53:01.02	358.56	7.39	
2025-01-07 10:53:01.22	358.53	7.40	
2025-01-07 10:53:01.43	358.50	7.41	
2025-01-07 10:53:01.63	358.47	7.42	
2025-01-07 10:53:01.84	358.44	7.43	
2025-01-07 10:53:02.04	358.41	7.44	
2025-01-07 10:53:02.25	358.38	7.45	
2025-01-07 10:53:02.45	358.35	7.46	
2025-01-07 10:53:02.66	358.32	7.47	
2025-01-07 10:53:02.86	358.29	7.48	
2025-01-07 10:53:03.08	358.26	7.49	
2025-01-07 10:53:03.29	358.23	7.50	
2025-01-07 10:53:03.49	358.20	7.51	
2025-01-07 10:53:03.70	358.17	7.52	
2025-01-07 10:53:03.90	358.14	7.53	
2025-01-07 10:53:04.11	358.11	7.54	
2025-01-07 10:53:04.31	358.08	7.55	
2025-01-07 10:53:04.52	358.05	7.56	
2025-01-07 10:53:04.72	358.02	7.57	
2025-01-07 10:53:04.93	357.98	7.58	
2025-01-07 10:53:05.13	357.95	7.59	
2025-01-07 10:53:05.34	357.92	7.60	
2025-01-07 10:53:05.54	357.89	7.61	
2025-01-07 10:53:05.75	357.86	7.62	
2025-01-07 10:53:05.95	357.83	7.63	
2025-01-07 10:53:06.16	357.80	7.64	
2025-01-07 10:53:06.36	357.77	7.65	
2025-01-07 10:53:06.57	357.74	7.66	
2025-01-07 10:53:06.77	357.71	7.67	
2025-01-07 10:53:06.98	357.68	7.68	
2025-01-07 10:53:07.18	357.65	7.69	
2025-01-07 10:53:07.39	357.62	7.70	
2025-01-07 10:53:07.60	357.58	7.72	
2025-01-07 10:53:07.80	357.55	7.73	
2025-01-07 10:53:08.01	357.52	7.74	
2025-01-07 10:53:08.21	357.49	7.75	
2025-01-07 10:53:08.42	357.46	7.76	
2025-01-07 10:53:08.62	357.43	7.77	
2025-01-07 10:53:08.83	357.40	7.78	
2025-01-07 10:53:09.03	357.37	7.79	
2025-01-07 10:53:09.24	357.34	7.80	
2025-01-07 10:53:09.44	357.31	7.81	
2025-01-07 10:53:09.65	357.27	7.82	
2025-01-07 10:53:09.85	357.24	7.83	
2025-01-07 10:53:10.06	357.21	7.84	
2025-01-07 10:53:10.27	357.18	7.85	
2025-01-07 10:53:10.47	357.15	7.86	
2025-01-07 10:53:10.68	357.12	7.87	
2025-01-07 10:53:10.88	357.09	7.88	
2025-01-07 10:53:11.09	357.06	7.89	
2025-01-07 10:53:11.29	357.03	7.90	
2025-01-07 10:53:11.50	356.99	7.91	
2025-01-07 10:53:11.70	356.96	7.92	
2025-01-07 10:53:11.91	356.93	7.93	
2025-01-07 10:53:12.11	356.90	7.94	
2025-01-07 10:53:12.32	356.87	7.95	
2025-01-07 10:53:12.52	356.84	7.96	
2025-01-07 10:53:12.73	356.81	7.97	
2025-01-07 10:53:12.93	356.77	7.98	
2025-01-07 10:53:13.14	356.74	7.99	
2025-01-07 10:53:13.34	356.71	8.00	
2025-01-07 10:53:13.55	356.68	8.01	
2025-01-07 10:53:13.75	356.65	8.02	
2025-01-07 10:53:13.95	356.62	8.03	
2025-01-07 10:53:14.15	356.59	8.04	
2025-01-07 10:53:14.37	356.55	8.05	
2025-01-07 10:53:14.57	356.52	8.06	
2025-01-07 10:53:14.78	356.49	8.07	
2025-01-07 10:53:14.98	356.46	8.08	
2025-01-07 10:53:15.19	356.43	8.09	
2025-01-07 10:53:15.39	356.40	8.10	
2025-01-07 10:53:15.59	356.36	8.11	
2025-01-07 10:53:15.80	356.33	8.12	
2025-01-07 10:53:16.00	356.30	8.13	
2025-01-07 10:53:16.21	356.27	8.14	
2025-01-07 10:53:16.41	356.24	8.15	
2025-01-07 10:53:16.62	356.20	8.16	
2025-01-07 10:53:16.82	356.17	8.17	
2025-01-07 10:53:17.03	356.14	8.18	
2025-01-07 10:53:17.23	356.11	8.19	
2025-01-07 10:53:17.44	356.08	8.20	
2025-01-07 10:53:17.64	356.04	8.21	
2025-01-07 10:53:17.85	356.01	8.22	
2025-01-07 10:53:18.05	355.98	8.23	
2025-01-07 10:53:18.26	355.95	8.24	
2025-01-07 10:53:18.46	355.92	8.25	
2025-01-07 10:53:18.67	355.88	8.26	
2025-01-07 10:53:18.87	355.85	8.27	
2025-01-07 10:53:19.08	355.82	8.28	
2025-01-07 10:53:19.29	355.79	8.29	
2025-01-07 10:53:19.49	355.75	8.30	
2025-01-07 10:53:19.69	355.72	8.31	
2025-01-07 10:53:19.90	355.69	8.32	
2025-01-07 10:53:20.11	355.66	8.33	
2025-01-07 10:53:20.31	355.63	8.34	
2025-01-07 10:53:20.52	355.59	8.35	
2025-01-07 10:53:20.72	355.56	8.36	
2025-01-07 10:53:20.93	355.53	8.37	
2025-01-07 10:53:21.13	355.50	8.38	
2025-01-07 10:53:21.34	355.46	8.39	
2025-01-07 10:53:21.54	355.43	8.40	
2025-01-07 10:53:21.74	355.40	8.41	
2025-01-07 10:53:21.95	355.37	8.42	
2025-01-07 10:53:22.16	355.33	8.43	
2025-01-07 10:53:22.36	355.30	8.44	
2025-01-07 10:53:22.57	355.27	8.45	
2025-01-07 10:53:22.77	355.24	8.46	
2025-01-07 10:53:22.98	355.20	8.47	
2025-01-07 10:53:23.18	355.17	8.48	
2025-01-07 10:53:23.39	355.14	8.49	
2025-01-07 10:53:23.59	355.10	8.50	
2025-01-07 10:53:23.80	355.07	8.51	
2025-01-07 10:53:24.00	355.04	8.52	
2025-01-07 10:53:24.21	355.01	8.53	
2025-01-07 10:53:24.42	354.97	8.54	
2025-01-07 10:53:24.62	354.94	8.55	
2025-01-07 10:53:24.83	354.91	8.56	
2025-01-07 10:53:25.03	354.87	8.57	
2025-01-07 10:53:25.24	354.84	8.58	
2025-01-07 10:53:25.44	354.81	8.59	
2025-01-07 10:53:25.65	354.77	8.60	
2025-01-07 10:53:25.85	354.74	8.61	
2025-01-07 10:53:26.06	354.71	8.62	
2025-01-07 10:53:26.26	354.68	8.63	
2025-01-07 10:53:26.47	354.64	8.64	
2025-01-07 10:53:26.68	354.61	8.65	
2025-01-07 10:53:26.88	354.58	8.66	
2025-01-07 10:53:27.08	354.54	8.67	
2025-01-07 10:53:27.29	354.51	8.68	
2025-01-07 10:53:27.50	354.48	8.69	
2025-01-07 10:53:27.70	354.44	8.70	
2025-01-07 10:53:27.91	354.41	8.71	
2025-01-07 10:53:28.11	354.38	8.72	
2025-01-07 10:53:28.32	354.34	8.73	
2025-01-07 10:53:28.52	354.31	8.74	
2025-01-07 10:53:28.73	354.28	8.75	
2025-01-07 10:53:28.94	354.24	8.76	
2025-01-07 10:53:29.14	354.21	8.77	
2025-01-07 10:53:29.36	354.17	8.78	
2025-01-07 10:53:29.56	354.14	8.79	
2025-01-07 10:53:29.77	354.11	8.80	
2025-01-07 10:53:29.97	354.07	8.81	
2025-01-07 10:53:30.18	354.04	8.82	
2025-01-07 10:53:30.40	354.00	8.83	
2025-01-07 10:53:30.60	353.97	8.84	
2025-01-07 10:53:30.81	353.94	8.85	
2025-01-07 10:53:31.02	353.90	8.86	
2025-01-07 10:53:31.22	353.87	8.87	
2025-01-07 10:53:31.44	353.83	8.88	
2025-01-07 10:53:31.65	353.80	8.89	
2025-01-07 10:53:31.85	353.76	8.90	
2025-01-07 10:53:32.06	353.73	8.91	
2025-01-07 10:53:32.26	353.70	8.92	
2025-01-07 10:53:32.47	353.66	8.93	
2025-01-07 10:53:32.68	353.63	8.94	
2025-01-07 10:53:32.88	353.59	8.95	
2025-01-07 10:53:33.08	353.56	8.96	
2025-01-07 10:53:33.29	353.53	8.97	
2025-01-07 10:53:33.50	353.49	8.98	
2025-01-07 10:53:33.70	353.46	8.99	
2025-01-07 10:53:33.91	353.42	9.00	
2025-01-07 10:53:34.12	353.39	9.01	
2025-01-07 10:53:34.32	353.36	9.02	
2025-01-07 10:53:34.53	353.32	9.03	
2025-01-07 10:53:34.73	353.29	9.04	
2025-01-07 10:53:34.94	353.25	9.05	
2025-01-07 10:53:35.14	353.22	9.06	
2025-01-07 10:53:35.35	353.18	9.07	
2025-01-07 10:53:35.55	353.15	9.08	
2025-01-07 10:53:35.76	353.12	9.09	
2025-01-07 10:53:35.96	353.08	9.10	
2025-01-07 10:53:36.17	353.05	9.11	
2025-01-07 10:53:36.37	353.01	9.12	
2025-01-07 10:53:36.57	352.98	9.13	
2025-01-07 10:53:36.78	352.95	9.14	
2025-01-07 10:53:36.98	352.91	9.15	
2025-01-07 10:53:37.18	352.88	9.16	
2025-01-07 10:53:37.39	352.84	9.17	
2025-01-07 10:53:37.60	352.81	9.18	
2025-01-07 10:53:37.81	352.77	9.19	
2025-01-07 10:53:38.01	352.74	9.20	
2025-01-07 10:53:38.22	352.70	9.21	
2025-01-07 10:53:38.42	352.67	9.21	
2025-01-07 10:53:38.63	352.63	9.22	
2025-01-07 10:53:38.83	352.60	9.23	
2025-01-07 10:53:39.04	352.57	9.24	
2025-01-07 10:53:39.24	352.53	9.25	
2025-01-07 10:53:39.45	352.50	9.26	
2025-01-07 10:53:39.65	352.46	9.27	
2025-01-07 10:53:39.86	352.43	9.28	
2025-01-07 10:53:40.06	352.39	9.29	
2025-01-07 10:53:40.26	352.36	9.30	
2025-01-07 10:53:40.47	352.32	9.31	
2025-01-07 10:53:40.67	352.29	9.32	
2025-01-07 10:53:40.88	352.25	9.33	
2025-01-07 10:53:41.08	352.22	9.34	
2025-01-07 10:53:41.29	352.18	9.35	
2025-01-07 10:53:41.49	352.15	9.36	
2025-01-07 10:53:41.70	352.11	9.37	
2025-01-07 10:53:41.90	352.08	9.38	
2025-01-07 10:53:42.11	352.04	9.39	
2025-01-07 10:53:42.31	352.01	9.40	
2025-01-07 10:53:42.52	351.97	9.41	
2025-01-07 10:53:42.72	351.94	9.42	
2025-01-07 10:53:42.94	351.90	9.43	
2025-01-07 10:53:43.14	351.87	9.44	
2025-01-07 10:53:43.34	351.83	9.44	
2025-01-07 10:53:43.54	351.80	9.45	
2025-01-07 10:53:43.75	351.76	9.46	
2025-01-07 10:53:43.95	351.73	9.47	
2025-01-07 10:53:44.17	351.69	9.48	
2025-01-07 10:53:44.37	351.66	9.49	
2025-01-07 10:53:44.57	351.62	9.50	
2025-01-07 10:53:44.78	351.59	9.51	
2025-01-07 10:53:44.99	351.55	9.52	
2025-01-07 10:53:45.19	351.51	9.53	
2025-01-07 10:53:45.39	351.48	9.54	
2025-01-07 10:53:45.60	351.44	9.55	
2025-01-07 10:53:45.80	351.41	9.56	
2025-01-07 10:53:46.01	351.37	9.57	
2025-01-07 10:53:46.21	351.34	9.58	
2025-01-07 10:53:46.42	351.30	9.59	
2025-01-07 10:53:46.62	351.27	9.60	
2025-01-07 10:53:46.83	351.23	9.61	
2025-01-07 10:53:47.03	351.20	9.61	
2025-01-07 10:53:47.24	351.16	9.62	
2025-01-07 10:53:47.44	351.12	9.63	
2025-01-07 10:53:47.65	351.09	9.64	
2025-01-07 10:53:47.85	351.05	9.65	
2025-01-07 10:53:48.06	351.02	9.66	
2025-01-07 10:53:48.27	350.98	9.67	
2025-01-07 10:53:48.47	350.95	9.68	
2025-01-07 10:53:48.68	350.91	9.69	
2025-01-07 10:53:48.88	350.87	9.70	
2025-01-07 10:53:49.09	350.84	9.71	
2025-01-07 10:53:49.29	350.80	9.72	
2025-01-07 10:53:49.50	350.77	9.73	
2025-01-07 10:53:49.70	350.73	9.74	
2025-01-07 10:53:49.91	350.69	9.75	
2025-01-07 10:53:50.11	350.66	9.76	
2025-01-07 10:53:50.32	350.62	9.76	
2025-01-07 10:53:50.53	350.58	9.77	
2025-01-07 10:53:50.74	350.55	9.78	
2025-01-07 10:53:50.95	350.51	9.79	
2025-01-07 10:53:51.15	350.48	9.80	
2025-01-07 10:53:51.36	350.44	9.81	
2025-01-07 10:53:51.56	350.40	9.82	
2025-01-07 10:53:51.76	350.37	9.83	
2025-01-07 10:53:51.97	350.33	9.84	
2025-01-07 10:53:52.18	350.29	9.85	
2025-01-07 10:53:52.38	350.26	9.86	
2025-01-07 10:53:52.58	350.22	9.87	
2025-01-07 10:53:52.79	350.19	9.88	
2025-01-07 10:53:52.99	350.15	9.89	
2025-01-07 10:53:53.20	350.11	9.90	
2025-01-07 10:53:53.40	350.08	9.90	
2025-01-07 10:53:53.61	350.04	9.91	
2025-01-07 10:53:53.81	350.00	9.92	
2025-01-07 10:53:54.02	349.97	9.93	
2025-01-07 10:53:54.22	349.93	9.94	
2025-01-07 10:53:54.43	349.89	9.95	
2025-01-07 10:53:54.63	349.86	9.96	
2025-01-07 10:53:54.84	349.82	9.97	
2025-01-07 10:53:55.04	349.78	9.98	
2025-01-07 10:53:55.25	349.75	9.99	
2025-01-07 10:53:55.45	349.71	10.00	
2025-01-07 10:53:55.66	349.67	10.01	
2025-01-07 10:53:55.88	349.63	10.01	
2025-01-07 10:53:56.08	349.60	10.02	
2025-01-07 10:53:56.28	349.56	10.03	
2025-01-07 10:53:56.49	349.53	10.04	
2025-01-07 10:53:56.69	349.49	10.05	
2025-01-07 10:53:56.90	349.45	10.06	
2025-01-07 10:53:57.10	349.42	10.07	
2025-01-07 10:53:57.31	349.38	10.08	
2025-01-07 10:53:57.52	349.34	10.09	
2025-01-07 10:53:57.72	349.30	10.10	
2025-01-07 10:53:57.93	349.27	10.11	
2025-01-07 10:53:58.13	349.23	10.11	
2025-01-07 10:53:58.34	349.19	10.12	
2025-01-07 10:53:58.54	349.16	10.13	
2025-01-07 10:53:58.75	349.12	10.14	
2025-01-07 10:53:58.96	349.08	10.15	
2025-01-07 10:53:59.16	349.04	10.16	
2025-01-07 10:53:59.36	349.01	10.17	
2025-01-07 10:53:59.57	348.97	10.18	
2025-01-07 10:53:59.78	348.93	10.19	
2025-01-07 10:53:59.98	348.90	10.20	
2025-01-07 10:54:00.19	348.86	10.21	
2025-01-07 10:54:00.39	348.82	10.21	
2025-01-07 10:54:00.60	348.78	10.22	
2025-01-07 10:54:00.80	348.75	10.23	
2025-01-07 10:54:01.01	348.71	10.24	
2025-01-07 10:54:01.21	348.67	10.25	
2025-01-07 10:54:01.42	348.63	10.26	
2025-01-07 10:54:01.62	348.60	10.27	
2025-01-07 10:54:01.84	348.56	10.28	
2025-01-07 10:54:02.05	348.52	10.29	
2025-01-07 10:54:02.25	348.48	10.30	
2025-01-07 10:54:02.45	348.45	10.30	
2025-01-07 10:54:02.66	348.41	10.31	
2025-01-07 10:54:02.87	348.37	10.32	
2025-01-07 10:54:03.07	348.33	10.33	
2025-01-07 10:54:03.28	348.29	10.34	
2025-01-07 10:54:03.48	348.26	10.35	
2025-01-07 10:54:03.69	348.22	10.36	
2025-01-07 10:54:03.89	348.18	10.37	
2025-01-07 10:54:04.10	348.14	10.37	
2025-01-07 10:54:04.31	348.10	10.38	
2025-01-07 10:54:04.51	348.07	10.39	
2025-01-07 10:54:04.72	348.03	10.40	
2025-01-07 10:54:04.92	347.99	10.41	
2025-01-07 10:54:05.13	347.95	10.42	
2025-01-07 10:54:05.34	347.91	10.43	
2025-01-07 10:54:05.55	347.87	10.44	
2025-01-07 10:54:05.76	347.84	10.45	
2025-01-07 10:54:05.96	347.80	10.45	
2025-01-07 10:54:06.17	347.76	10.46	
2025-01-07 10:54:06.37	347.72	10.47	
2025-01-07 10:54:06.57	347.69	10.48	
2025-01-07 10:54:06.78	347.65	10.49	
2025-01-07 10:54:06.98	347.61	10.50	
2025-01-07 10:54:07.19	347.57	10.51	
2025-01-07 10:54:07.40	347.53	10.52	
2025-01-07 10:54:07.60	347.49	10.52	
2025-01-07 10:54:07.81	347.46	10.53	
2025-01-07 10:54:08.01	347.42	10.54	
2025-01-07 10:54:08.22	347.38	10.55	
2025-01-07 10:54:08.43	347.34	10.56	
2025-01-07 10:54:08.63	347.30	10.57	
2025-01-07 10:54:08.85	347.26	10.58	
2025-01-07 10:54:09.05	347.22	10.59	
2025-01-07 10:54:09.26	347.18	10.59	
2025-01-07 10:54:09.46	347.15	10.60	
2025-01-07 10:54:09.67	347.11	10.61	
2025-01-07 10:54:09.87	347.07	10.62	
2025-01-07 10:54:10.08	347.03	10.63	
2025-01-07 10:54:10.29	346.99	10.64	
2025-01-07 10:54:10.49	346.95	10.65	
2025-01-07 10:54:10.70	346.91	10.66	
2025-01-07 10:54:10.90	346.88	10.66	
2025-01-07 10:54:11.11	346.84	10.67	
2025-01-07 10:54:11.31	346.80	10.68	
2025-01-07 10:54:11.52	346.76	10.69	
2025-01-07 10:54:11.72	346.72	10.70	
2025-01-07 10:54:11.93	346.68	10.71	
2025-01-07 10:54:12.13	346.65	10.71	
2025-01-07 10:54:12.34	346.61	10.72	
2025-01-07 10:54:12.54	346.57	10.73	
2025-01-07 10:54:12.75	346.53	10.74	
2025-01-07 10:54:12.95	346.49	10.75	
2025-01-07 10:54:13.16	346.45	10.76	
2025-01-07 10:54:13.37	346.41	10.77	
2025-01-07 10:54:13.57	346.37	10.77	
2025-01-07 10:54:13.78	346.33	10.78	
2025-01-07 10:54:13.98	346.30	10.79	
2025-01-07 10:54:14.19	346.26	10.80	
2025-01-07 10:54:14.40	346.22	10.81	
2025-01-07 10:54:14.60	346.18	10.82	
2025-01-07 10:54:14.81	346.14	10.83	
2025-01-07 10:54:15.01	346.10	10.83	
2025-01-07 10:54:15.22	346.06	10.84	
2025-01-07 10:54:15.42	346.02	10.85	
2025-01-07 10:54:15.63	345.98	10.86	
2025-01-07 10:54:15.83	345.94	10.87	
2025-01-07 10:54:16.04	345.90	10.88	
2025-01-07 10:54:16.24	345.86	10.88	
2025-01-07 10:54:16.45	345.82	10.89	
2025-01-07 10:54:16.65	345.79	10.90	
2025-01-07 10:54:16.86	345.75	10.91	
2025-01-07 10:54:17.06	345.71	10.92	
2025-01-07 10:54:17.27	345.67	10.93	
2025-01-07 10:54:17.47	345.63	10.93	
2025-01-07 10:54:17.68	345.59	10.94	
2025-01-07 10:54:17.88	345.55	10.95	
2025-01-07 10:54:18.09	345.51	10.96	
2025-01-07 10:54:18.29	345.47	10.97	
2025-01-07 10:54:18.50	345.43	10.97	
2025-01-07 10:54:18.70	345.39	10.98	
2025-01-07 10:54:18.91	345.35	10.99	
2025-01-07 10:54:19.11	345.31	11.00	
2025-01-07 10:54:19.32	345.27	11.01	
2025-01-07 10:54:19.52	345.23	11.02	
2025-01-07 10:54:19.73	345.19	11.02	
2025-01-07 10:54:19.93	345.16	11.03	
2025-01-07 10:54:20.14	345.12	11.04	
2025-01-07 10:54:20.34	345.08	11.05	
2025-01-07 10:54:20.56	345.03	11.06	
2025-01-07 10:54:20.77	344.99	11.07	
2025-01-07 10:54:20.97	344.95	11.07	
2025-01-07 10:54:21.18	344.91	11.08	
2025-01-07 10:54:21.39	344.87	11.09	
2025-01-07 10:54:21.60	344.83	11.10	
2025-01-07 10:54:21.81	344.79	11.11	
2025-01-07 10:54:22.02	344.75	11.11	
2025-01-07 10:54:22.22	344.71	11.12	
2025-01-07 10:54:22.43	344.67	11.13	
2025-01-07 10:54:22.63	344.63	11.14	
2025-01-07 10:54:22.84	344.59	11.15	
2025-01-07 10:54:23.04	344.55	11.15	
2025-01-07 10:54:23.25	344.51	11.16	
2025-01-07 10:54:23.45	344.47	11.17	
2025-01-07 10:54:23.66	344.43	11.18	
2025-01-07 10:54:23.86	344.39	11.19	
2025-01-07 10:54:24.07	344.35	11.19	
2025-01-07 10:54:24.27	344.31	11.20	
2025-01-07 10:54:24.48	344.27	11.21	
2025-01-07 10:54:24.68	344.23	11.22	
2025-01-07 10:54:24.89	344.19	11.23	
2025-01-07 10:54:25.09	344.15	11.23	
2025-01-07 10:54:25.30	344.11	11.24	
2025-01-07 10:54:25.51	344.07	11.25	
2025-01-07 10:54:25.71	344.03	11.26	
2025-01-07 10:54:25.92	343.99	11.27	
2025-01-07 10:54:26.12	343.95	11.27	
2025-01-07 10:54:26.33	343.91	11.28	
2025-01-07 10:54:26.54	343.87	11.29	
2025-01-07 10:54:26.74	343.83	11.30	
2025-01-07 10:54:26.95	343.78	11.31	
2025-01-07 10:54:27.15	343.75	11.31	
2025-01-07 10:54:27.36	343.70	11.32	
2025-01-07 10:54:27.56	343.66	11.33	
2025-01-07 10:54:27.77	343.62	11.34	
2025-01-07 10:54:27.97	343.58	11.34	
2025-01-07 10:54:28.18	343.54	11.35	
2025-01-07 10:54:28.39	343.50	11.36	
2025-01-07 10:54:28.59	343.46	11.37	
2025-01-07 10:54:28.80	343.42	11.38	
2025-01-07 10:54:29.00	343.38	11.38	
2025-01-07 10:54:29.21	343.34	11.39	
2025-01-07 10:54:29.41	343.30	11.40	
2025-01-07 10:54:29.62	343.26	11.41	
2025-01-07 10:54:29.82	343.22	11.41	
2025-01-07 10:54:30.03	343.17	11.42	
2025-01-07 10:54:30.23	343.13	11.43	
2025-01-07 10:54:30.44	343.09	11.44	
2025-01-07 10:54:30.65	343.05	11.44	
2025-01-07 10:54:30.85	343.01	11.45	
2025-01-07 10:54:31.05	342.97	11.46	
2025-01-07 10:54:31.26	342.93	11.47	
2025-01-07 10:54:31.47	342.89	11.48	
2025-01-07 10:54:31.67	342.85	11.48	
2025-01-07 10:54:31.88	342.81	11.49	
2025-01-07 10:54:32.09	342.76	11.50	
2025-01-07 10:54:32.29	342.72	11.51	
2025-01-07 10:54:32.50	342.68	11.51	
2025-01-07 10:54:32.70	342.64	11.52	
2025-01-07 10:54:32.90	342.60	11.53	
2025-01-07 10:54:33.11	342.56	11.54	
2025-01-07 10:54:33.31	342.52	11.54	
2025-01-07 10:54:33.52	342.48	11.55	
2025-01-07 10:54:33.73	342.43	11.56	
2025-01-07 10:54:33.93	342.39	11.57	
2025-01-07 10:54:34.14	342.35	11.57	
2025-01-07 10:54:34.34	342.31	11.58	
2025-01-07 10:54:34.55	342.27	11.59	
2025-01-07 10:54:34.75	342.23	11.60	
2025-01-07 10:54:34.96	342.19	11.60	
2025-01-07 10:54:35.16	342.15	11.61	
2025-01-07 10:54:35.37	342.10	11.62	
2025-01-07 10:54:35.57	342.06	11.62	
2025-01-07 10:54:35.78	342.02	11.63	
2025-01-07 10:54:35.98	341.98	11.64	
2025-01-07 10:54:36.19	341.94	11.65	
2025-01-07 10:54:36.39	341.90	11.65	
2025-01-07 10:54:36.60	341.86	11.66	
2025-01-07 10:54:36.80	341.81	11.67	
2025-01-07 10:54:37.01	341.77	11.68	
2025-01-07 10:54:37.21	341.73	11.68	
2025-01-07 10:54:37.42	341.69	11.69	
2025-01-07 10:54:37.62	341.65	11.70	
2025-01-07 10:54:37.83	341.61	11.71	
2025-01-07 10:54:38.03	341.56	11.71	
2025-01-07 10:54:38.24	341.52	11.72	
2025-01-07 10:54:38.45	341.48	11.73	
2025-01-07 10:54:38.65	341.44	11.73	
2025-01-07 10:54:38.85	341.40	11.74	
2025-01-07 10:54:39.06	341.36	11.75	
2025-01-07 10:54:39.26	341.31	11.76	
2025-01-07 10:54:39.47	341.27	11.76	
2025-01-07 10:54:39.67	341.23	11.77	
2025-01-07 10:54:39.88	341.19	11.78	
2025-01-07 10:54:40.09	341.14	11.78	
2025-01-07 10:54:40.29	341.10	11.79	
2025-01-07 10:54:40.50	341.06	11.80	
2025-01-07 10:54:40.70	341.02	11.81	
2025-01-07 10:54:40.90	340.98	11.81	
2025-01-07 10:54:41.11	340.94	11.82	
2025-01-07 10:54:41.31	340.89	11.83	
2025-01-07 10:54:41.52	340.85	11.83	
2025-01-07 10:54:41.72	340.81	11.84	
2025-01-07 10:54:41.93	340.77	11.85	
2025-01-07 10:54:42.13	340.73	11.85	
2025-01-07 10:54:42.34	340.68	11.86	
2025-01-07 10:54:42.55	340.64	11.87	
2025-01-07 10:54:42.75	340.60	11.88	
2025-01-07 10:54:42.96	340.56	11.88	
2025-01-07 10:54:43.16	340.51	11.89	
2025-01-07 10:54:43.37	340.47	11.90	
2025-01-07 10:54:43.58	340.43	11.90	
2025-01-07 10:54:43.78	340.39	11.91	
2025-01-07 10:54:43.99	340.34	11.92	
2025-01-07 10:54:44.19	340.30	11.92	
2025-01-07 10:54:44.40	340.26	11.93	
2025-01-07 10:54:44.60	340.22	11.94	
2025-01-07 10:54:44.81	340.17	11.94	
2025-01-07 10:54:45.01	340.13	11.95	
2025-01-07 10:54:45.22	340.09	11.96	
2025-01-07 10:54:45.42	340.05	11.97	
2025-01-07 10:54:45.63	340.00	11.97	
2025-01-07 10:54:45.84	339.96	11.98	
2025-01-07 10:54:46.04	339.92	11.99	
2025-01-07 10:54:46.24	339.88	11.99	
2025-01-07 10:54:46.45	339.83	12.00	
2025-01-07 10:54:46.66	339.79	12.01	
2025-01-07 10:54:46.86	339.75	12.01	
2025-01-07 10:54:47.07	339.71	12.02	
2025-01-07 10:54:47.27	339.66	12.03	
2025-01-07 10:54:47.48	339.62	12.03	
2025-01-07 10:54:47.68	339.58	12.04	
2025-01-07 10:54:47.89	339.53	12.05	
2025-01-07 10:54:48.10	339.49	12.05	
2025-01-07 10:54:48.30	339.45	12.06	
2025-01-07 10:54:48.51	339.40	12.07	
2025-01-07 10:54:48.71	339.36	12.07	
2025-01-07 10:54:48.92	339.32	12.08	
2025-01-07 10:54:49.12	339.28	12.09	
2025-01-07 10:54:49.34	339.23	12.09	
2025-01-07 10:54:49.54	339.19	12.10	
2025-01-07 10:54:49.75	339.15	12.11	
2025-01-07 10:54:49.96	339.10	12.11	
2025-01-07 10:54:50.16	339.06	12.12	
2025-01-07 10:54:50.37	339.02	12.13	
2025-01-07 10:54:50.57	338.97	12.13	
2025-01-07 10:54:50.78	338.93	12.14	
2025-01-07 10:54:50.98	338.89	12.14	
2025-01-07 10:54:51.19	338.84	12.15	
2025-01-07 10:54:51.39	338.80	12.16	
2025-01-07 10:54:51.60	338.76	12.16	
2025-01-07 10:54:51.81	338.71	12.17	
2025-01-07 10:54:52.01	338.67	12.18	
2025-01-07 10:54:52.22	338.63	12.18	
2025-01-07 10:54:52.42	338.58	12.19	
2025-01-07 10:54:52.62	338.54	12.20	
2025-01-07 10:54:52.83	338.50	12.20	
2025-01-07 10:54:53.04	338.45	12.21	
2025-01-07 10:54:53.24	338.41	12.22	
2025-01-07 10:54:53.45	338.37	12.22	
2025-01-07 10:54:53.67	338.32	12.23	
2025-01-07 10:54:53.87	338.28	12.23	
2025-01-07 10:54:54.08	338.23	12.24	
2025-01-07 10:54:54.28	338.19	12.25	
2025-01-07 10:54:54.49	338.15	12.25	
2025-01-07 10:54:54.71	338.10	12.26	
2025-01-07 10:54:54.91	338.06	12.27	
2025-01-07 10:54:55.12	338.01	12.27	
2025-01-07 10:54:55.32	337.97	12.28	
2025-01-07 10:54:55.53	337.93	12.28	
2025-01-07 10:54:55.73	337.88	12.29	
2025-01-07 10:54:55.94	337.84	12.30	
2025-01-07 10:54:56.14	337.80	12.30	
2025-01-07 10:54:56.35	337.75	12.31	
2025-01-07 10:54:56.55	337.71	12.32	
2025-01-07 10:54:56.76	337.67	12.32	
2025-01-07 10:54:56.96	337.62	12.33	
2025-01-07 10:54:57.17	337.58	12.33	
2025-01-07 10:54:57.38	337.53	12.34	
2025-01-07 10:54:57.58	337.49	12.35	
2025-01-07 10:54:57.79	337.45	12.35	
2025-01-07 10:54:57.99	337.40	12.36	
2025-01-07 10:54:58.20	337.36	12.36	
2025-01-07 10:54:58.40	337.32	12.37	
2025-01-07 10:54:58.61	337.27	12.38	
2025-01-07 10:54:58.81	337.23	12.38	
2025-01-07 10:54:59.03	337.18	12.39	
2025-01-07 10:54:59.24	337.14	12.39	
2025-01-07 10:54:59.44	337.09	12.40	
2025-01-07 10:54:59.65	337.05	12.41	
2025-01-07 10:54:59.85	337.01	12.41	
2025-01-07 10:55:00.06	336.96	12.42	
2025-01-07 10:55:00.26	336.92	12.42	
2025-01-07 10:55:00.46	336.88	12.43	
2025-01-07 10:55:00.67	336.83	12.43	
2025-01-07 10:55:00.88	336.79	12.44	
2025-01-07 10:55:01.09	336.74	12.45	
2025-01-07 10:55:01.30	336.70	12.45	
2025-01-07 10:55:01.50	336.65	12.46	
2025-01-07 10:55:01.71	336.61	12.46	
2025-01-07 10:55:01.92	336.56	12.47	
2025-01-07 10:55:02.12	336.52	12.48	
2025-01-07 10:55:02.32	336.48	12.48	
2025-01-07 10:55:02.53	336.43	12.49	
2025-01-07 10:55:02.74	336.39	12.49	
2025-01-07 10:55:02.94	336.34	12.50	
2025-01-07 10:55:03.15	336.30	12.50	
2025-01-07 10:55:03.35	336.25	12.51	
2025-01-07 10:55:03.56	336.21	12.51	
2025-01-07 10:55:03.76	336.17	12.52	
2025-01-07 10:55:03.97	336.12	12.53	
2025-01-07 10:55:04.18	336.07	12.53	
2025-01-07 10:55:04.38	336.03	12.54	
2025-01-07 10:55:04.59	335.99	12.54	
2025-01-07 10:55:04.80	335.94	12.55	
2025-01-07 10:55:05.00	335.90	12.55	
2025-01-07 10:55:05.20	335.85	12.56	
2025-01-07 10:55:05.42	335.81	12.57	
2025-01-07 10:55:05.63	335.76	12.57	
2025-01-07 10:55:05.83	335.72	12.58	
2025-01-07 10:55:06.04	335.67	12.58	
2025-01-07 10:55:06.24	335.63	12.59	
2025-01-07 10:55:06.45	335.58	12.59	
2025-01-07 10:55:06.65	335.54	12.60	
2025-01-07 10:55:06.86	335.49	12.60	
2025-01-07 10:55:07.06	335.45	12.61	
2025-01-07 10:55:07.27	335.40	12.61	
2025-01-07 10:55:07.47	335.36	12.62	
2025-01-07 10:55:07.68	335.32	12.62	
2025-01-07 10:55:07.88	335.27	12.63	
2025-01-07 10:55:08.09	335.23	12.64	
2025-01-07 10:55:08.29	335.18	12.64	
2025-01-07 10:55:08.50	335.14	12.65	
2025-01-07 10:55:08.70	335.09	12.65	
2025-01-07 10:55:08.91	335.05	12.66	
2025-01-07 10:55:09.11	335.00	12.66	
2025-01-07 10:55:09.32	334.96	12.67	
2025-01-07 10:55:09.52	334.91	12.67	
2025-01-07 10:55:09.73	334.87	12.68	
2025-01-07 10:55:09.94	334.82	12.68	
2025-01-07 10:55:10.15	334.78	12.69	
2025-01-07 10:55:10.35	334.73	12.69	
2025-01-07 10:55:10.56	334.69	12.70	
2025-01-07 10:55:10.76	334.64	12.70	
2025-01-07 10:55:10.97	334.60	12.71	
2025-01-07 10:55:11.17	334.55	12.71	
2025-01-07 10:55:11.38	334.51	12.72	
2025-01-07 10:55:11.58	334.46	12.72	
2025-01-07 10:55:11.79	334.42	12.73	
2025-01-07 10:55:11.99	334.37	12.73	
2025-01-07 10:55:12.20	334.33	12.74	
2025-01-07 10:55:12.40	334.28	12.74	
2025-01-07 10:55:12.61	334.24	12.75	
2025-01-07 10:55:12.81	334.19	12.75	
2025-01-07 10:55:13.02	334.15	12.76	
2025-01-07 10:55:13.23	334.10	12.76	
2025-01-07 10:55:13.43	334.06	12.77	
2025-01-07 10:55:13.64	334.01	12.77	
2025-01-07 10:55:13.84	333.97	12.78	
2025-01-07 10:55:14.05	333.92	12.78	
2025-01-07 10:55:14.25	333.88	12.79	
2025-01-07 10:55:14.46	333.83	12.79	
2025-01-07 10:55:14.66	333.79	12.80	
2025-01-07 10:55:14.87	333.74	12.80	
2025-01-07 10:55:15.07	333.70	12.81	
2025-01-07 10:55:15.28	333.65	12.81	
2025-01-07 10:55:15.48	333.61	12.82	
2025-01-07 10:55:15.69	333.56	12.82	
2025-01-07 10:55:15.90	333.51	12.83	
2025-01-07 10:55:16.10	333.47	12.83	
2025-01-07 10:55:16.31	333.42	12.83	
2025-01-07 10:55:16.51	333.38	12.84	
2025-01-07 10:55:16.72	333.33	12.84	
2025-01-07 10:55:16.92	333.29	12.85	
2025-01-07 10:55:17.14	333.24	12.85	
2025-01-07 10:55:17.34	333.19	12.86	
2025-01-07 10:55:17.55	333.15	12.86	
2025-01-07 10:55:17.76	333.10	12.87	
2025-01-07 10:55:17.96	333.06	12.87	
2025-01-07 10:55:18.16	333.01	12.88	
2025-01-07 10:55:18.37	332.97	12.88	
2025-01-07 10:55:18.58	332.92	12.89	
2025-01-07 10:55:18.78	332.88	12.89	
2025-01-07 10:55:18.99	332.83	12.89	
2025-01-07 10:55:19.20	332.78	12.90	
2025-01-07 10:55:19.41	332.74	12.90	
2025-01-07 10:55:19.62	332.69	12.91	
2025-01-07 10:55:19.82	332.64	12.91	
2025-01-07 10:55:20.03	332.60	12.92	
2025-01-07 10:55:20.23	332.55	12.92	
2025-01-07 10:55:20.44	332.51	12.93	
2025-01-07 10:55:20.64	332.46	12.93	
2025-01-07 10:55:20.85	332.42	12.93	
2025-01-07 10:55:21.05	332.37	12.94	
2025-01-07 10:55:21.26	332.32	12.94	
2025-01-07 10:55:21.46	332.28	12.95	
2025-01-07 10:55:21.67	332.23	12.95	
2025-01-07 10:55:21.87	332.19	12.96	
2025-01-07 10:55:22.08	332.14	12.96	
2025-01-07 10:55:22.28	332.10	12.96	
2025-01-07 10:55:22.48	332.05	12.97	
2025-01-07 10:55:22.69	332.00	12.97	
2025-01-07 10:55:22.89	331.96	12.98	
2025-01-07 10:55:23.10	331.91	12.98	
2025-01-07 10:55:23.31	331.87	12.98	
2025-01-07 10:55:23.51	331.82	12.99	
2025-01-07 10:55:23.72	331.77	12.99	
2025-01-07 10:55:23.92	331.73	13.00	
2025-01-07 10:55:24.13	331.68	13.00	
2025-01-07 10:55:24.33	331.64	13.00	
2025-01-07 10:55:24.54	331.59	13.01	
2025-01-07 10:55:24.74	331.55	13.01	
2025-01-07 10:55:24.95	331.50	13.02	
2025-01-07 10:55:25.16	331.45	13.02	
2025-01-07 10:55:25.36	331.41	13.02	
2025-01-07 10:55:25.57	331.36	13.03	
2025-01-07 10:55:25.77	331.32	13.03	
2025-01-07 10:55:25.97	331.27	13.04	
2025-01-07 10:55:26.19	331.22	13.04	
2025-01-07 10:55:26.40	331.17	13.04	
2025-01-07 10:55:26.60	331.13	13.05	
2025-01-07 10:55:26.80	331.08	13.05	
2025-01-07 10:55:27.01	331.04	13.06	
2025-01-07 10:55:27.22	330.99	13.06	
2025-01-07 10:55:27.42	330.95	13.06	
2025-01-07 10:55:27.63	330.90	13.07	
2025-01-07 10:55:27.83	330.85	13.07	
2025-01-07 10:55:28.04	330.81	13.08	
2025-01-07 10:55:28.24	330.76	13.08	
2025-01-07 10:55:28.45	330.71	13.08	
2025-01-07 10:55:28.65	330.67	13.09	
2025-01-07 10:55:28.87	330.62	13.09	
2025-01-07 10:55:29.08	330.57	13.09	
2025-01-07 10:55:29.28	330.53	13.10	
2025-01-07 10:55:29.49	330.48	13.10	
2025-01-07 10:55:29.69	330.43	13.10	
2025-01-07 10:55:29.90	330.39	13.11	
2025-01-07 10:55:30.10	330.34	13.11	
2025-01-07 10:55:30.31	330.29	13.12	
2025-01-07 10:55:30.51	330.25	13.12	
2025-01-07 10:55:30.72	330.20	13.12	
2025-01-07 10:55:30.92	330.16	13.13	
2025-01-07 10:55:31.13	330.11	13.13	
2025-01-07 10:55:31.33	330.06	13.13	
2025-01-07 10:55:31.54	330.02	13.14	
2025-01-07 10:55:31.75	329.97	13.14	
2025-01-07 10:55:31.95	329.92	13.14	
2025-01-07 10:55:32.15	329.88	13.15	
2025-01-07 10:55:32.36	329.83	13.15	
2025-01-07 10:55:32.56	329.79	13.15	
2025-01-07 10:55:32.77	329.74	13.16	
2025-01-07 10:55:32.98	329.69	13.16	
2025-01-07 10:55:33.18	329.65	13.16	
2025-01-07 10:55:33.39	329.60	13.17	
2025-01-07 10:55:33.59	329.55	13.17	
2025-01-07 10:55:33.80	329.50	13.17	
2025-01-07 10:55:34.00	329.46	13.18	
2025-01-07 10:55:34.22	329.41	13.18	
2025-01-07 10:55:34.42	329.36	13.18	
2025-01-07 10:55:34.63	329.32	13.19	
2025-01-07 10:55:34.84	329.27	13.19	
2025-01-07 10:55:35.04	329.22	13.19	
2025-01-07 10:55:35.25	329.18	13.20	
2025-01-07 10:55:35.45	329.13	13.20	
2025-01-07 10:55:35.66	329.08	13.20	
2025-01-07 10:55:35.86	329.04	13.21	
2025-01-07 10:55:36.08	328.99	13.21	
2025-01-07 10:55:36.29	328.94	13.21	
2025-01-07 10:55:36.49	328.89	13.21	
2025-01-07 10:55:36.70	328.85	13.22	
2025-01-07 10:55:36.90	328.80	13.22	
2025-01-07 10:55:37.11	328.75	13.22	
2025-01-07 10:55:37.31	328.71	13.23	
2025-01-07 10:55:37.52	328.66	13.23	
2025-01-07 10:55:37.72	328.61	13.23	
2025-01-07 10:55:37.93	328.57	13.24	
2025-01-07 10:55:38.13	328.52	13.24	
2025-01-07 10:55:38.34	328.47	13.24	
2025-01-07 10:55:38.54	328.43	13.24	
2025-01-07 10:55:38.75	328.38	13.25	
2025-01-07 10:55:38.95	328.33	13.25	
2025-01-07 10:55:39.16	328.29	13.25	
2025-01-07 10:55:39.36	328.24	13.26	
2025-01-07 10:55:39.57	328.19	13.26	
2025-01-07 10:55:39.77	328.15	13.26	
2025-01-07 10:55:39.98	328.10	13.26	
2025-01-07 10:55:40.18	328.05	13.27	
2025-01-07 10:55:40.39	328.01	13.27	
2025-01-07 10:55:40.60	327.96	13.27	
2025-01-07 10:55:40.80	327.91	13.27	
2025-01-07 10:55:41.01	327.86	13.28	
2025-01-07 10:55:41.21	327.82	13.28	
2025-01-07 10:55:41.42	327.77	13.28	
2025-01-07 10:55:41.64	327.72	13.29	
2025-01-07 10:55:41.84	327.67	13.29	
2025-01-07 10:55:42.05	327.63	13.29	
2025-01-07 10:55:42.25	327.58	13.29	
2025-01-07 10:55:42.46	327.53	13.30	
2025-01-07 10:55:42.67	327.48	13.30	
2025-01-07 10:55:42.87	327.44	13.30	
2025-01-07 10:55:43.08	327.39	13.30	
2025-01-07 10:55:43.28	327.34	13.31	
2025-01-07 10:55:43.48	327.30	13.31	
2025-01-07 10:55:43.69	327.25	13.31	
2025-01-07 10:55:43.89	327.21	13.31	
2025-01-07 10:55:44.10	327.16	13.32	
2025-01-07 10:55:44.30	327.11	13.32	
2025-01-07 10:55:44.51	327.06	13.32	
2025-01-07 10:55:44.71	327.02	13.32	
2025-01-07 10:55:44.92	326.97	13.32	
2025-01-07 10:55:45.12	326.92	13.33	
2025-01-07 10:55:45.33	326.88	13.33	
2025-01-07 10:55:45.53	326.83	13.33	
2025-01-07 10:55:45.74	326.78	13.33	
2025-01-07 10:55:45.94	326.74	13.34	
2025-01-07 10:55:46.15	326.69	13.34	
2025-01-07 10:55:46.35	326.64	13.34	
2025-01-07 10:55:46.56	326.59	13.34	
2025-01-07 10:55:46.77	326.54	13.35	
2025-01-07 10:55:46.97	326.50	13.35	
2025-01-07 10:55:47.18	326.45	13.35	
2025-01-07 10:55:47.38	326.40	13.35	
2025-01-07 10:55:47.59	326.36	13.35	
2025-01-07 10:55:47.79	326.31	13.36	
2025-01-07 10:55:48.01	326.26	13.36	
2025-01-07 10:55:48.22	326.21	13.36	
2025-01-07 10:55:48.42	326.17	13.36	
2025-01-07 10:55:48.63	326.12	13.36	
2025-01-07 10:55:48.84	326.07	13.37	
2025-01-07 10:55:49.04	326.02	13.37	
2025-01-07 10:55:49.24	325.98	13.37	
2025-01-07 10:55:49.45	325.93	13.37	
2025-01-07 10:55:49.66	325.88	13.37	
2025-01-07 10:55:49.86	325.83	13.38	
2025-01-07 10:55:50.07	325.79	13.38	
2025-01-07 10:55:50.27	325.74	13.38	
2025-01-07 10:55:50.47	325.69	13.38	
2025-01-07 10:55:50.68	325.65	13.38	
2025-01-07 10:55:50.89	325.60	13.38	
2025-01-07 10:55:51.09	325.55	13.39	
2025-01-07 10:55:51.30	325.50	13.39	
2025-01-07 10:55:51.50	325.46	13.39	
2025-01-07 10:55:51.71	325.41	13.39	
2025-01-07 10:55:51.91	325.36	13.39	
2025-01-07 10:55:52.12	325.31	13.40	
2025-01-07 10:55:52.33	325.27	13.40	
2025-01-07 10:55:52.53	325.22	13.40	
2025-01-07 10:55:52.74	325.17	13.40	
2025-01-07 10:55:52.94	325.13	13.40	
2025-01-07 10:55:53.15	325.08	13.40	
2025-01-07 10:55:53.35	325.03	13.40	
2025-01-07 10:55:53.56	324.98	13.41	
2025-01-07 10:55:53.76	324.94	13.41	
2025-01-07 10:55:53.97	324.89	13.41	
2025-01-07 10:55:54.17	324.84	13.41	
2025-01-07 10:55:54.38	324.79	13.41	
2025-01-07 10:55:54.58	324.75	13.41	
2025-01-07 10:55:54.79	324.70	13.42	
2025-01-07 10:55:54.99	324.65	13.42	
2025-01-07 10:55:55.20	324.60	13.42	
2025-01-07 10:55:55.40	324.56	13.42	
2025-01-07 10:55:55.61	324.51	13.42	
2025-01-07 10:55:55.81	324.46	13.42	
2025-01-07 10:55:56.02	324.41	13.42	
2025-01-07 10:55:56.22	324.37	13.43	
2025-01-07 10:55:56.43	324.32	13.43	
2025-01-07 10:55:56.63	324.27	13.43	
2025-01-07 10:55:56.84	324.23	13.43	
2025-01-07 10:55:57.05	324.18	13.43	
2025-01-07 10:55:57.25	324.13	13.43	
2025-01-07 10:55:57.46	324.08	13.43	
2025-01-07 10:55:57.66	324.04	13.43	
2025-01-07 10:55:57.87	323.99	13.44	
2025-01-07 10:55:58.07	323.94	13.44	
2025-01-07 10:55:58.28	323.89	13.44	
2025-01-07 10:55:58.49	323.84	13.44	
2025-01-07 10:55:58.70	323.80	13.44	
2025-01-07 10:55:58.90	323.75	13.44	
2025-01-07 10:55:59.11	323.70	13.44	
2025-01-07 10:55:59.31	323.65	13.44	
2025-01-07 10:55:59.52	323.61	13.44	
2025-01-07 10:55:59.72	323.56	13.45	
2025-01-07 10:55:59.93	323.51	13.45	
2025-01-07 10:56:00.13	323.46	13.45	
2025-01-07 10:56:00.34	323.42	13.45	
2025-01-07 10:56:00.55	323.37	13.45	
2025-01-07 10:56:00.75	323.32	13.45	
2025-01-07 10:56:00.96	323.27	13.45	
2025-01-07 10:56:01.16	323.23	13.45	
2025-01-07 10:56:01.37	323.18	13.45	
2025-01-07 10:56:01.57	323.13	13.45	
2025-01-07 10:56:01.78	323.08	13.45	
2025-01-07 10:56:01.98	323.04	13.46	
2025-01-07 10:56:02.19	322.99	13.46	
2025-01-07 10:56:02.39	322.94	13.46	
2025-01-07 10:56:02.60	322.89	13.46	
2025-01-07 10:56:02.81	322.84	13.46	
2025-01-07 10:56:03.01	322.80	13.46	
2025-01-07 10:56:03.22	322.75	13.46	
2025-01-07 10:56:03.42	322.70	13.46	
2025-01-07 10:56:03.63	322.65	13.46	
2025-01-07 10:56:03.83	322.61	13.46	
2025-01-07 10:56:04.04	322.56	13.46	
2025-01-07 10:56:04.24	322.51	13.46	
2025-01-07 10:56:04.45	322.46	13.46	
2025-01-07 10:56:04.65	322.42	13.46	
2025-01-07 10:56:04.86	322.37	13.46	
2025-01-07 10:56:05.06	322.32	13.47	
2025-01-07 10:56:05.27	322.27	13.47	
2025-01-07 10:56:05.48	322.23	13.47	
2025-01-07 10:56:05.68	322.18	13.47	
2025-01-07 10:56:05.89	322.13	13.47	
2025-01-07 10:56:06.09	322.08	13.47	
2025-01-07 10:56:06.30	322.04	13.47	
2025-01-07 10:56:06.50	321.99	13.47	
2025-01-07 10:56:06.71	321.94	13.47	
2025-01-07 10:56:06.91	321.89	13.47	
2025-01-07 10:56:07.12	321.85	13.47	
2025-01-07 10:56:07.32	321.80	13.47	
2025-01-07 10:56:07.53	321.75	13.47	
2025-01-07 10:56:07.73	321.70	13.47	
2025-01-07 10:56:07.94	321.66	13.47	
2025-01-07 10:56:08.15	321.61	13.47	
2025-01-07 10:56:08.36	321.56	13.47	
2025-01-07 10:56:08.57	321.51	13.47	
2025-01-07 10:56:08.78	321.46	13.47	
2025-01-07 10:56:08.98	321.42	13.47	
2025-01-07 10:56:09.19	321.37	13.47	
2025-01-07 10:56:09.39	321.32	13.47	
2025-01-07 10:56:09.60	321.27	13.47	
2025-01-07 10:56:09.80	321.23	13.47	
2025-01-07 10:56:10.01	321.18	13.47	
2025-01-07 10:56:10.21	321.13	13.47	
2025-01-07 10:56:10.42	321.08	13.47	
2025-01-07 10:56:10.62	321.04	13.47	
2025-01-07 10:56:10.83	320.99	13.47	
2025-01-07 10:56:11.03	320.94	13.47	
2025-01-07 10:56:11.24	320.89	13.47	
2025-01-07 10:56:11.44	320.84	13.47	
2025-01-07 10:56:11.65	320.80	13.47	
2025-01-07 10:56:11.85	320.75	13.47	
2025-01-07 10:56:12.06	320.70	13.47	
2025-01-07 10:56:12.27	320.65	13.47	
2025-01-07 10:56:12.47	320.61	13.47	
2025-01-07 10:56:12.69	320.56	13.47	
2025-01-07 10:56:12.89	320.51	13.47	
2025-01-07 10:56:13.10	320.46	13.47	
2025-01-07 10:56:13.30	320.41	13.47	
2025-01-07 10:56:13.51	320.37	13.47	
2025-01-07 10:56:13.71	320.32	13.47	
2025-01-07 10:56:13.92	320.27	13.47	
2025-01-07 10:56:14.12	320.22	13.47	
2025-01-07 10:56:14.33	320.18	13.47	
2025-01-07 10:56:14.53	320.13	13.47	
2025-01-07 10:56:14.74	320.08	13.47	
2025-01-07 10:56:14.94	320.03	13.47	
2025-01-07 10:56:15.15	319.99	13.47	
2025-01-07 10:56:15.36	319.94	13.47	
2025-01-07 10:56:15.56	319.89	13.47	
2025-01-07 10:56:15.76	319.84	13.47	
2025-01-07 10:56:15.97	319.79	13.47	
2025-01-07 10:56:16.18	319.75	13.47	
2025-01-07 10:56:16.38	319.70	13.47	
2025-01-07 10:56:16.59	319.65	13.47	
2025-01-07 10:56:16.79	319.60	13.47	
2025-01-07 10:56:17.00	319.56	13.46	
2025-01-07 10:56:17.20	319.51	13.46	
2025-01-07 10:56:17.41	319.46	13.46	
2025-01-07 10:56:17.61	319.42	13.46	
2025-01-07 10:56:17.82	319.37	13.46	
2025-01-07 10:56:18.02	319.32	13.46	
2025-01-07 10:56:18.23	319.27	13.46	
2025-01-07 10:56:18.43	319.23	13.46	
2025-01-07 10:56:18.64	319.18	13.46	
2025-01-07 10:56:18.84	319.13	13.46	
2025-01-07 10:56:19.05	319.08	13.46	
2025-01-07 10:56:19.27	319.03	13.46	
2025-01-07 10:56:19.47	318.98	13.46	
2025-01-07 10:56:19.68	318.94	13.46	
2025-01-07 10:56:19.88	318.89	13.46	
2025-01-07 10:56:20.10	318.84	13.45	
2025-01-07 10:56:20.31	318.79	13.45	
2025-01-07 10:56:20.51	318.74	13.45	
2025-01-07 10:56:20.72	318.69	13.45	
2025-01-07 10:56:20.92	318.65	13.45	
2025-01-07 10:56:21.13	318.60	13.45	
2025-01-07 10:56:21.33	318.55	13.45	
2025-01-07 10:56:21.54	318.51	13.45	
2025-01-07 10:56:21.74	318.46	13.45	
2025-01-07 10:56:21.95	318.41	13.45	
2025-01-07 10:56:22.15	318.36	13.45	
2025-01-07 10:56:22.36	318.32	13.44	
2025-01-07 10:56:22.56	318.27	13.44	
2025-01-07 10:56:22.77	318.22	13.44	
2025-01-07 10:56:22.97	318.17	13.44	
2025-01-07 10:56:23.17	318.13	13.44	
2025-01-07 10:56:23.38	318.08	13.44	
2025-01-07 10:56:23.59	318.03	13.44	
2025-01-07 10:56:23.79	317.98	13.44	
2025-01-07 10:56:24.00	317.94	13.44	
2025-01-07 10:56:24.21	317.89	13.43	
2025-01-07 10:56:24.41	317.84	13.43	
2025-01-07 10:56:24.61	317.79	13.43	
2025-01-07 10:56:24.82	317.75	13.43	
2025-01-07 10:56:25.03	317.70	13.43	
2025-01-07 10:56:25.23	317.65	13.43	
2025-01-07 10:56:25.44	317.60	13.43	
2025-01-07 10:56:25.64	317.56	13.43	
2025-01-07 10:56:25.85	317.51	13.42	
2025-01-07 10:56:26.05	317.46	13.42	
2025-01-07 10:56:26.26	317.41	13.42	
2025-01-07 10:56:26.47	317.37	13.42	
2025-01-07 10:56:26.68	317.32	13.42	
2025-01-07 10:56:26.88	317.27	13.42	
2025-01-07 10:56:27.09	317.22	13.42	
2025-01-07 10:56:27.29	317.18	13.41	
2025-01-07 10:56:27.50	317.13	13.41	
2025-01-07 10:56:27.70	317.08	13.41	
2025-01-07 10:56:27.91	317.03	13.41	
2025-01-07 10:56:28.12	316.98	13.41	
2025-01-07 10:56:28.32	316.94	13.41	
2025-01-07 10:56:28.53	316.89	13.41	
2025-01-07 10:56:28.73	316.84	13.40	
2025-01-07 10:56:28.94	316.80	13.40	
2025-01-07 10:56:29.14	316.75	13.40	
2025-01-07 10:56:29.35	316.70	13.40	
2025-01-07 10:56:29.55	316.65	13.40	
2025-01-07 10:56:29.77	316.60	13.40	
2025-01-07 10:56:29.98	316.56	13.39	
2025-01-07 10:56:30.18	316.51	13.39	
2025-01-07 10:56:30.39	316.46	13.39	
2025-01-07 10:56:30.59	316.41	13.39	
2025-01-07 10:56:30.80	316.37	13.39	
2025-01-07 10:56:31.00	316.32	13.38	
2025-01-07 10:56:31.21	316.27	13.38	
2025-01-07 10:56:31.41	316.23	13.38	
2025-01-07 10:56:31.62	316.18	13.38	
2025-01-07 10:56:31.82	316.13	13.38	
2025-01-07 10:56:32.03	316.08	13.38	
2025-01-07 10:56:32.24	316.03	13.37	
2025-01-07 10:56:32.44	315.99	13.37	
2025-01-07 10:56:32.64	315.94	13.37	
2025-01-07 10:56:32.85	315.89	13.37	
2025-01-07 10:56:33.05	315.85	13.37	
2025-01-07 10:56:33.26	315.80	13.36	
2025-01-07 10:56:33.46	315.75	13.36	
2025-01-07 10:56:33.67	315.71	13.36	
2025-01-07 10:56:33.87	315.66	13.36	
2025-01-07 10:56:34.08	315.61	13.36	
2025-01-07 10:56:34.28	315.57	13.35	
2025-01-07 10:56:34.49	315.52	13.35	
2025-01-07 10:56:34.69	315.47	13.35	
2025-01-07 10:56:34.90	315.42	13.35	
2025-01-07 10:56:35.10	315.38	13.35	
2025-01-07 10:56:35.31	315.33	13.34	
2025-01-07 10:56:35.51	315.28	13.34	
2025-01-07 10:56:35.72	315.23	13.34	
2025-01-07 10:56:35.93	315.19	13.34	
2025-01-07 10:56:36.14	315.14	13.33	
2025-01-07 10:56:36.35	315.09	13.33	
2025-01-07 10:56:36.56	315.04	13.33	
2025-01-07 10:56:36.76	315.00	13.33	
2025-01-07 10:56:36.97	314.95	13.33	
2025-01-07 10:56:37.17	314.90	13.32	
2025-01-07 10:56:37.38	314.85	13.32	
2025-01-07 10:56:37.58	314.81	13.32	
2025-01-07 10:56:37.79	314.76	13.32	
2025-01-07 10:56:37.99	314.71	13.31	
2025-01-07 10:56:38.20	314.67	13.31	
2025-01-07 10:56:38.40	314.62	13.31	
2025-01-07 10:56:38.61	314.57	13.31	
2025-01-07 10:56:38.81	314.53	13.30	
2025-01-07 10:56:39.02	314.48	13.30	
2025-01-07 10:56:39.22	314.43	13.30	
2025-01-07 10:56:39.43	314.38	13.30	
2025-01-07 10:56:39.63	314.34	13.29	
2025-01-07 10:56:39.84	314.29	13.29	
2025-01-07 10:56:40.04	314.24	13.29	
2025-01-07 10:56:40.25	314.20	13.29	
2025-01-07 10:56:40.45	314.15	13.28	
2025-01-07 10:56:40.66	314.10	13.28	
2025-01-07 10:56:40.86	314.06	13.28	
2025-01-07 10:56:41.07	314.01	13.28	
2025-01-07 10:56:41.27	313.96	13.27	
2025-01-07 10:56:41.48	313.91	13.27	
2025-01-07 10:56:41.68	313.87	13.27	
2025-01-07 10:56:41.89	313.82	13.26	
2025-01-07 10:56:42.10	313.77	13.26	
2025-01-07 10:56:42.30	313.73	13.26	
2025-01-07 10:56:42.51	313.68	13.26	
2025-01-07 10:56:42.71	313.63	13.25	
2025-01-07 10:56:42.92	313.59	13.25	
2025-01-07 10:56:43.12	313.54	13.25	
2025-01-07 10:56:43.33	313.49	13.24	
2025-01-07 10:56:43.53	313.45	13.24	
2025-01-07 10:56:43.74	313.40	13.24	
2025-01-07 10:56:43.94	313.35	13.24	
2025-01-07 10:56:44.15	313.31	13.23	
2025-01-07 10:56:44.35	313.26	13.23	
2025-01-07 10:56:44.56	313.21	13.23	
2025-01-07 10:56:44.76	313.17	13.22	
2025-01-07 10:56:44.97	313.12	13.22	
2025-01-07 10:56:45.18	313.07	13.22	
2025-01-07 10:56:45.38	313.03	13.22	
2025-01-07 10:56:45.59	312.98	13.21	
2025-01-07 10:56:45.79	312.93	13.21	
2025-01-07 10:56:46.00	312.88	13.21	
2025-01-07 10:56:46.20	312.84	13.20	
2025-01-07 10:56:46.41	312.79	13.20	
2025-01-07 10:56:46.61	312.75	13.20	
2025-01-07 10:56:46.82	312.70	13.19	
2025-01-07 10:56:47.02	312.65	13.19	
2025-01-07 10:56:47.23	312.60	13.19	
2025-01-07 10:56:47.44	312.56	13.18	
2025-01-07 10:56:47.64	312.51	13.18	
2025-01-07 10:56:47.86	312.46	13.18	
2025-01-07 10:56:48.07	312.41	13.17	
2025-01-07 10:56:48.27	312.37	13.17	
2025-01-07 10:56:48.48	312.32	13.17	
2025-01-07 10:56:48.68	312.28	13.16	
2025-01-07 10:56:48.89	312.23	13.16	
2025-01-07 10:56:49.09	312.18	13.16	
2025-01-07 10:56:49.30	312.14	13.15	
2025-01-07 10:56:49.50	312.09	13.15	
2025-01-07 10:56:49.71	312.04	13.15	
2025-01-07 10:56:49.91	312.00	13.14	
2025-01-07 10:56:50.12	311.95	13.14	
2025-01-07 10:56:50.32	311.90	13.14	
2025-01-07 10:56:50.53	311.86	13.13	
2025-01-07 10:56:50.74	311.81	13.13	
2025-01-07 10:56:50.94	311.76	13.13	
2025-01-07 10:56:51.15	311.72	13.12	
2025-01-07 10:56:51.35	311.67	13.12	
2025-01-07 10:56:51.56	311.62	13.12	
2025-01-07 10:56:51.76	311.58	13.11	
2025-01-07 10:56:51.97	311.53	13.11	
2025-01-07 10:56:52.17	311.49	13.11	
2025-01-07 10:56:52.38	311.44	13.10	
2025-01-07 10:56:52.58	311.39	13.10	
2025-01-07 10:56:52.79	311.35	13.09	
2025-01-07 10:56:53.00	311.30	13.09	
2025-01-07 10:56:53.22	311.25	13.09	
2025-01-07 10:56:53.42	311.20	13.08	
2025-01-07 10:56:53.63	311.16	13.08	
2025-01-07 10:56:53.83	311.11	13.08	
2025-01-07 10:56:54.04	311.06	13.07	
2025-01-07 10:56:54.24	311.02	13.07	
2025-01-07 10:56:54.45	310.97	13.06	
2025-01-07 10:56:54.65	310.93	13.06	
2025-01-07 10:56:54.86	310.88	13.06	
2025-01-07 10:56:55.07	310.83	13.05	
2025-01-07 10:56:55.27	310.79	13.05	
2025-01-07 10:56:55.47	310.74	13.05	
2025-01-07 10:56:55.68	310.70	13.04	
2025-01-07 10:56:55.88	310.65	13.04	
2025-01-07 10:56:56.09	310.60	13.03	
2025-01-07 10:56:56.29	310.56	13.03	
2025-01-07 10:56:56.50	310.51	13.03	
2025-01-07 10:56:56.70	310.47	13.02	
2025-01-07 10:56:56.91	310.42	13.02	
2025-01-07 10:56:57.11	310.37	13.01	
2025-01-07 10:56:57.32	310.33	13.01	
2025-01-07 10:56:57.52	310.28	13.01	
2025-01-07 10:56:57.73	310.24	13.00	
2025-01-07 10:56:57.94	310.19	13.00	
2025-01-07 10:56:58.14	310.14	12.99	
2025-01-07 10:56:58.35	310.10	12.99	
2025-01-07 10:56:58.55	310.05	12.99	
2025-01-07 10:56:58.76	310.00	12.98	
2025-01-07 10:56:58.97	309.96	12.98	
2025-01-07 10:56:59.17	309.91	12.97	
2025-01-07 10:56:59.38	309.87	12.97	
2025-01-07 10:56:59.58	309.82	12.96	
2025-01-07 10:56:59.79	309.77	12.96	
2025-01-07 10:56:59.99	309.73	12.96	
2025-01-07 10:57:00.20	309.68	12.95	
2025-01-07 10:57:00.40	309.64	12.95	
2025-01-07 10:57:00.61	309.59	12.94	
2025-01-07 10:57:00.81	309.55	12.94	
2025-01-07 10:57:01.02	309.50	12.93	
2025-01-07 10:57:01.22	309.45	12.93	
2025-01-07 10:57:01.43	309.41	12.93	
2025-01-07 10:57:01.63	309.36	12.92	
2025-01-07 10:57:01.84	309.32	12.92	
2025-01-07 10:57:02.04	309.27	12.91	
2025-01-07 10:57:02.25	309.23	12.91	
2025-01-07 10:57:02.46	309.18	12.90	
2025-01-07 10:57:02.66	309.13	12.90	
2025-01-07 10:57:02.88	309.09	12.89	
2025-01-07 10:57:03.09	309.04	12.89	
2025-01-07 10:57:03.29	308.99	12.89	
2025-01-07 10:57:03.50	308.95	12.88	
2025-01-07 10:57:03.70	308.90	12.88	
2025-01-07 10:57:03.92	308.85	12.87	
2025-01-07 10:57:04.13	308.81	12.87	
2025-01-07 10:57:04.33	308.76	12.86	
2025-01-07 10:57:04.54	308.72	12.86	
2025-01-07 10:57:04.74	308.67	12.85	
2025-01-07 10:57:04.96	308.62	12.85	
2025-01-07 10:57:05.17	308.58	12.84	
2025-01-07 10:57:05.38	308.53	12.84	
2025-01-07 10:57:05.58	308.49	12.83	
2025-01-07 10:57:05.79	308.44	12.83	
2025-01-07 10:57:05.99	308.40	12.83	
2025-01-07 10:57:06.20	308.35	12.82	
2025-01-07 10:57:06.40	308.30	12.82	
2025-01-07 10:57:06.61	308.26	12.81	
2025-01-07 10:57:06.81	308.21	12.81	
2025-01-07 10:57:07.02	308.17	12.80	
2025-01-07 10:57:07.22	308.12	12.80	
2025-01-07 10:57:07.43	308.08	12.79	
2025-01-07 10:57:07.63	308.03	12.79	
2025-01-07 10:57:07.84	307.99	12.78	
2025-01-07 10:57:08.04	307.94	12.78	
2025-01-07 10:57:08.25	307.90	12.77	
2025-01-07 10:57:08.45	307.85	12.77	
2025-01-07 10:57:08.66	307.81	12.76	
2025-01-07 10:57:08.87	307.76	12.76	
2025-01-07 10:57:09.07	307.72	12.75	
2025-01-07 10:57:09.27	307.67	12.75	
2025-01-07 10:57:09.48	307.63	12.74	
2025-01-07 10:57:09.68	307.58	12.74	
2025-01-07 10:57:09.89	307.54	12.73	
2025-01-07 10:57:10.09	307.49	12.73	
2025-01-07 10:57:10.29	307.45	12.72	
2025-01-07 10:57:10.50	307.40	12.72	
2025-01-07 10:57:10.71	307.36	12.71	
2025-01-07 10:57:10.91	307.31	12.71	
2025-01-07 10:57:11.12	307.27	12.70	
2025-01-07 10:57:11.32	307.22	12.70	
2025-01-07 10:57:11.53	307.18	12.69	
2025-01-07 10:57:11.73	307.13	12.69	
2025-01-07 10:57:11.94	307.09	12.68	
2025-01-07 10:57:12.15	307.04	12.68	
2025-01-07 10:57:12.35	307.00	12.67	
2025-01-07 10:57:12.56	306.95	12.67	
2025-01-07 10:57:12.76	306.91	12.66	
2025-01-07 10:57:12.96	306.86	12.66	
2025-01-07 10:57:13.17	306.82	12.65	
2025-01-07 10:57:13.38	306.77	12.65	
2025-01-07 10:57:13.58	306.73	12.64	
2025-01-07 10:57:13.78	306.68	12.64	
2025-01-07 10:57:13.99	306.64	12.63	
2025-01-07 10:57:14.20	306.59	12.62	
2025-01-07 10:57:14.40	306.55	12.62	
2025-01-07 10:57:14.61	306.50	12.61	
2025-01-07 10:57:14.81	306.46	12.61	
2025-01-07 10:57:15.02	306.41	12.60	
2025-01-07 10:57:15.22	306.37	12.60	
2025-01-07 10:57:15.43	306.32	12.59	
2025-01-07 10:57:15.63	306.28	12.59	
2025-01-07 10:57:15.83	306.24	12.58	
2025-01-07 10:57:16.04	306.19	12.58	
2025-01-07 10:57:16.24	306.15	12.57	
2025-01-07 10:57:16.45	306.10	12.57	
2025-01-07 10:57:16.65	306.06	12.56	
2025-01-07 10:57:16.86	306.01	12.55	
2025-01-07 10:57:17.06	305.97	12.55	
2025-01-07 10:57:17.27	305.92	12.54	
2025-01-07 10:57:17.47	305.88	12.54	
2025-01-07 10:57:17.68	305.84	12.53	
2025-01-07 10:57:17.88	305.79	12.53	
2025-01-07 10:57:18.09	305.75	12.52	
2025-01-07 10:57:18.29	305.70	12.52	
2025-01-07 10:57:18.50	305.66	12.51	
2025-01-07 10:57:18.70	305.61	12.50	
2025-01-07 10:57:18.91	305.57	12.50	
2025-01-07 10:57:19.11	305.53	12.49	
2025-01-07 10:57:19.32	305.48	12.49	
2025-01-07 10:57:19.53	305.44	12.48	
2025-01-07 10:57:19.73	305.39	12.48	
2025-01-07 10:57:19.93	305.35	12.47	
2025-01-07 10:57:20.14	305.30	12.46	
2025-01-07 10:57:20.34	305.26	12.46	
2025-01-07 10:57:20.55	305.22	12.45	
2025-01-07 10:57:20.75	305.17	12.45	
2025-01-07 10:57:20.97	305.13	12.44	
2025-01-07 10:57:21.18	305.08	12.44	
2025-01-07 10:57:21.38	305.04	12.43	
2025-01-07 10:57:21.59	304.99	12.42	
2025-01-07 10:57:21.79	304.95	12.42	
2025-01-07 10:57:22.00	304.90	12.41	
2025-01-07 10:57:22.21	304.86	12.41	
2025-01-07 10:57:22.41	304.82	12.40	
2025-01-07 10:57:22.62	304.77	12.39	
2025-01-07 10:57:22.82	304.73	12.39	
2025-01-07 10:57:23.03	304.68	12.38	
2025-01-07 10:57:23.23	304.64	12.38	
2025-01-07 10:57:23.44	304.60	12.37	
2025-01-07 10:57:23.65	304.55	12.36	
2025-01-07 10:57:23.85	304.51	12.36	
2025-01-07 10:57:24.06	304.46	12.35	
2025-01-07 10:57:24.26	304.42	12.35	
2025-01-07 10:57:24.47	304.37	12.34	
2025-01-07 10:57:24.67	304.33	12.33	
2025-01-07 10:57:24.88	304.29	12.33	
2025-01-07 10:57:25.09	304.24	12.32	
2025-01-07 10:57:25.29	304.20	12.32	
2025-01-07 10:57:25.50	304.16	12.31	
2025-01-07 10:57:25.70	304.11	12.30	
2025-01-07 10:57:25.91	304.07	12.30	
2025-01-07 10:57:26.11	304.03	12.29	
2025-01-07 10:57:26.32	303.98	12.29	
2025-01-07 10:57:26.52	303.94	12.28	
2025-01-07 10:57:26.73	303.89	12.27	
2025-01-07 10:57:26.93	303.85	12.27	
2025-01-07 10:57:27.14	303.81	12.26	
2025-01-07 10:57:27.34	303.76	12.25	
2025-01-07 10:57:27.55	303.72	12.25	
2025-01-07 10:57:27.76	303.67	12.24	
2025-01-07 10:57:27.96	303.63	12.24	
2025-01-07 10:57:28.17	303.59	12.23	
2025-01-07 10:57:28.37	303.55	12.22	
2025-01-07 10:57:28.58	303.50	12.22	
2025-01-07 10:57:28.78	303.46	12.21	
2025-01-07 10:57:28.99	303.41	12.20	
2025-01-07 10:57:29.19	303.37	12.20	
2025-01-07 10:57:29.40	303.33	12.19	
2025-01-07 10:57:29.60	303.29	12.18	
2025-01-07 10:57:29.81	303.24	12.18	
2025-01-07 10:57:30.01	303.20	12.17	
2025-01-07 10:57:30.22	303.15	12.17	
2025-01-07 10:57:30.42	303.11	12.16	
2025-01-07 10:57:30.63	303.07	12.15	
2025-01-07 10:57:30.84	303.02	12.15	
2025-01-07 10:57:31.04	302.98	12.14	
2025-01-07 10:57:31.25	302.94	12.13	
2025-01-07 10:57:31.46	302.89	12.13	
2025-01-07 10:57:31.66	302.85	12.12	
2025-01-07 10:57:31.87	302.81	12.11	
2025-01-07 10:57:32.07	302.77	12.11	
2025-01-07 10:57:32.28	302.72	12.10	
2025-01-07 10:57:32.48	302.68	12.09	
2025-01-07 10:57:32.68	302.64	12.09	
2025-01-07 10:57:32.89	302.59	12.08	
2025-01-07 10:57:33.09	302.55	12.07	
2025-01-07 10:57:33.30	302.51	12.07	
2025-01-07 10:57:33.51	302.46	12.06	
2025-01-07 10:57:33.71	302.42	12.05	
2025-01-07 10:57:33.92	302.38	12.05	
2025-01-07 10:57:34.12	302.34	12.04	
2025-01-07 10:57:34.33	302.29	12.03	
2025-01-07 10:57:34.53	302.25	12.03	
2025-01-07 10:57:34.74	302.21	12.02	
2025-01-07 10:57:34.94	302.16	12.01	
