passes_logs/2025/01/07/SPB_Silybum_02/SPB_Silybum_02__20250107_153858_TERRA_rec.log

#Pass ID: 20250107_153858_TERRA
#Satellite: TERRA
#Configuration: TERRA
#Start time: 2025-01-07 15:38:57

#Version: 2.0.20230423
#Station: SPB_Silybum_02
#Location: 30.233357 lon 59.946436 lat
#TLE: 1 25994U 99068A   25006.77118991  .00001382  00000+0  29492-3 0  9999
#TLE: 2 25994  98.0231  70.0628 0003576  88.8854  23.4584 14.60378914332871

#Time	Az	El	Level	Level2	SNR	BER	Gain	Gain2
2025-01-07 15:38:59.57	70.78	4.05	
2025-01-07 15:38:59.77	70.75	4.06	
2025-01-07 15:38:59.98	70.72	4.07	
2025-01-07 15:39:00.20	70.70	4.08	
2025-01-07 15:39:00.40	70.67	4.09	
2025-01-07 15:39:00.62	70.64	4.10	
2025-01-07 15:39:00.82	70.61	4.10	
2025-01-07 15:39:01.03	70.59	4.11	
2025-01-07 15:39:01.23	70.56	4.12	
2025-01-07 15:39:01.44	70.53	4.13	
2025-01-07 15:39:01.64	70.51	4.14	
2025-01-07 15:39:01.85	70.48	4.15	
2025-01-07 15:39:02.06	70.45	4.16	
2025-01-07 15:39:02.26	70.43	4.17	
2025-01-07 15:39:02.46	70.40	4.18	
2025-01-07 15:39:02.67	70.37	4.19	
2025-01-07 15:39:02.88	70.34	4.20	
2025-01-07 15:39:03.08	70.32	4.20	
2025-01-07 15:39:03.28	70.29	4.21	
2025-01-07 15:39:03.49	70.26	4.22	
2025-01-07 15:39:03.70	70.24	4.23	
2025-01-07 15:39:03.90	70.21	4.24	
2025-01-07 15:39:04.11	70.18	4.25	
2025-01-07 15:39:04.31	70.16	4.26	
2025-01-07 15:39:04.52	70.13	4.27	
2025-01-07 15:39:04.72	70.10	4.28	
2025-01-07 15:39:04.93	70.07	4.29	
2025-01-07 15:39:05.13	70.05	4.29	
2025-01-07 15:39:05.34	70.02	4.30	
2025-01-07 15:39:05.54	69.99	4.31	
2025-01-07 15:39:05.74	69.97	4.32	
2025-01-07 15:39:05.95	69.94	4.33	
2025-01-07 15:39:06.16	69.91	4.34	
2025-01-07 15:39:06.36	69.88	4.35	
2025-01-07 15:39:06.56	69.86	4.36	
2025-01-07 15:39:06.77	69.83	4.37	
2025-01-07 15:39:06.97	69.80	4.37	
2025-01-07 15:39:07.18	69.78	4.38	
2025-01-07 15:39:07.39	69.75	4.39	
2025-01-07 15:39:07.59	69.72	4.40	
2025-01-07 15:39:07.80	69.69	4.41	
2025-01-07 15:39:08.00	69.67	4.42	
2025-01-07 15:39:08.21	69.64	4.43	
2025-01-07 15:39:08.41	69.61	4.44	
2025-01-07 15:39:08.61	69.58	4.45	
2025-01-07 15:39:08.82	69.56	4.46	
2025-01-07 15:39:09.02	69.53	4.46	
2025-01-07 15:39:09.23	69.50	4.47	
2025-01-07 15:39:09.43	69.47	4.48	
2025-01-07 15:39:09.64	69.45	4.49	
2025-01-07 15:39:09.84	69.42	4.50	
2025-01-07 15:39:10.05	69.39	4.51	
2025-01-07 15:39:10.25	69.36	4.52	
2025-01-07 15:39:10.46	69.34	4.53	
2025-01-07 15:39:10.66	69.31	4.54	
2025-01-07 15:39:10.87	69.28	4.54	
2025-01-07 15:39:11.07	69.25	4.55	
2025-01-07 15:39:11.28	69.23	4.56	
2025-01-07 15:39:11.48	69.20	4.57	
2025-01-07 15:39:11.69	69.17	4.58	
2025-01-07 15:39:11.89	69.14	4.59	
2025-01-07 15:39:12.10	69.11	4.60	
2025-01-07 15:39:12.30	69.09	4.61	
2025-01-07 15:39:12.51	69.06	4.62	
2025-01-07 15:39:12.71	69.03	4.62	
2025-01-07 15:39:12.92	69.00	4.63	
2025-01-07 15:39:13.12	68.98	4.64	
2025-01-07 15:39:13.32	68.95	4.65	
2025-01-07 15:39:13.53	68.92	4.66	
2025-01-07 15:39:13.73	68.89	4.67	
2025-01-07 15:39:13.94	68.86	4.68	
2025-01-07 15:39:14.14	68.84	4.69	
2025-01-07 15:39:14.35	68.81	4.70	
2025-01-07 15:39:14.55	68.78	4.70	
2025-01-07 15:39:14.76	68.75	4.71	
2025-01-07 15:39:14.96	68.73	4.72	
2025-01-07 15:39:15.17	68.70	4.73	
2025-01-07 15:39:15.37	68.67	4.74	
2025-01-07 15:39:15.58	68.64	4.75	
2025-01-07 15:39:15.79	68.61	4.76	
2025-01-07 15:39:15.99	68.58	4.77	
2025-01-07 15:39:16.21	68.55	4.78	
2025-01-07 15:39:16.41	68.53	4.78	
2025-01-07 15:39:16.62	68.50	4.79	
2025-01-07 15:39:16.82	68.47	4.80	
2025-01-07 15:39:17.03	68.44	4.81	
2025-01-07 15:39:17.23	68.41	4.82	
2025-01-07 15:39:17.44	68.38	4.83	
2025-01-07 15:39:17.64	68.36	4.84	
2025-01-07 15:39:17.85	68.33	4.85	
2025-01-07 15:39:18.05	68.30	4.86	
2025-01-07 15:39:18.26	68.27	4.86	
2025-01-07 15:39:18.46	68.24	4.87	
2025-01-07 15:39:18.67	68.21	4.88	
2025-01-07 15:39:18.87	68.19	4.89	
2025-01-07 15:39:19.08	68.16	4.90	
2025-01-07 15:39:19.29	68.13	4.91	
2025-01-07 15:39:19.49	68.10	4.92	
2025-01-07 15:39:19.70	68.07	4.93	
2025-01-07 15:39:19.90	68.04	4.94	
2025-01-07 15:39:20.11	68.02	4.94	
2025-01-07 15:39:20.32	67.99	4.95	
2025-01-07 15:39:20.52	67.96	4.96	
2025-01-07 15:39:20.72	67.93	4.97	
2025-01-07 15:39:20.93	67.90	4.98	
2025-01-07 15:39:21.14	67.87	4.99	
2025-01-07 15:39:21.34	67.84	5.00	
2025-01-07 15:39:21.54	67.82	5.01	
2025-01-07 15:39:21.75	67.79	5.01	
2025-01-07 15:39:21.95	67.76	5.02	
2025-01-07 15:39:22.16	67.73	5.03	
2025-01-07 15:39:22.36	67.70	5.04	
2025-01-07 15:39:22.57	67.67	5.05	
2025-01-07 15:39:22.77	67.64	5.06	
2025-01-07 15:39:22.98	67.61	5.07	
2025-01-07 15:39:23.18	67.59	5.08	
2025-01-07 15:39:23.39	67.56	5.08	
2025-01-07 15:39:23.59	67.53	5.09	
2025-01-07 15:39:23.80	67.50	5.10	
2025-01-07 15:39:24.00	67.47	5.11	
2025-01-07 15:39:24.21	67.44	5.12	
2025-01-07 15:39:24.41	67.41	5.13	
2025-01-07 15:39:24.62	67.38	5.14	
2025-01-07 15:39:24.82	67.36	5.15	
2025-01-07 15:39:25.03	67.33	5.15	
2025-01-07 15:39:25.23	67.30	5.16	
2025-01-07 15:39:25.44	67.27	5.17	
2025-01-07 15:39:25.64	67.24	5.18	
2025-01-07 15:39:25.84	67.21	5.19	
2025-01-07 15:39:26.05	67.18	5.20	
2025-01-07 15:39:26.25	67.15	5.21	
2025-01-07 15:39:26.46	67.12	5.22	
2025-01-07 15:39:26.67	67.09	5.22	
2025-01-07 15:39:26.87	67.06	5.23	
2025-01-07 15:39:27.07	67.04	5.24	
2025-01-07 15:39:27.28	67.01	5.25	
2025-01-07 15:39:27.48	66.98	5.26	
2025-01-07 15:39:27.69	66.95	5.27	
2025-01-07 15:39:27.89	66.92	5.28	
2025-01-07 15:39:28.10	66.89	5.28	
2025-01-07 15:39:28.31	66.86	5.29	
2025-01-07 15:39:28.51	66.83	5.30	
2025-01-07 15:39:28.72	66.80	5.31	
2025-01-07 15:39:28.92	66.77	5.32	
2025-01-07 15:39:29.13	66.74	5.33	
2025-01-07 15:39:29.33	66.71	5.34	
2025-01-07 15:39:29.54	66.68	5.35	
2025-01-07 15:39:29.74	66.65	5.35	
2025-01-07 15:39:29.96	66.62	5.36	
2025-01-07 15:39:30.17	66.59	5.37	
2025-01-07 15:39:30.37	66.56	5.38	
2025-01-07 15:39:30.58	66.53	5.39	
2025-01-07 15:39:30.78	66.51	5.40	
2025-01-07 15:39:30.99	66.48	5.41	
2025-01-07 15:39:31.19	66.45	5.41	
2025-01-07 15:39:31.40	66.42	5.42	
2025-01-07 15:39:31.60	66.39	5.43	
2025-01-07 15:39:31.81	66.36	5.44	
2025-01-07 15:39:32.01	66.33	5.45	
2025-01-07 15:39:32.22	66.30	5.46	
2025-01-07 15:39:32.42	66.27	5.47	
2025-01-07 15:39:32.63	66.24	5.48	
2025-01-07 15:39:32.83	66.21	5.48	
2025-01-07 15:39:33.04	66.18	5.49	
2025-01-07 15:39:33.26	66.15	5.50	
2025-01-07 15:39:33.46	66.12	5.51	
2025-01-07 15:39:33.67	66.09	5.52	
2025-01-07 15:39:33.87	66.06	5.53	
2025-01-07 15:39:34.08	66.03	5.54	
2025-01-07 15:39:34.28	66.00	5.54	
2025-01-07 15:39:34.49	65.97	5.55	
2025-01-07 15:39:34.69	65.94	5.56	
2025-01-07 15:39:34.90	65.91	5.57	
2025-01-07 15:39:35.10	65.88	5.58	
2025-01-07 15:39:35.31	65.85	5.59	
2025-01-07 15:39:35.51	65.82	5.60	
2025-01-07 15:39:35.72	65.79	5.60	
2025-01-07 15:39:35.92	65.76	5.61	
2025-01-07 15:39:36.13	65.73	5.62	
2025-01-07 15:39:36.33	65.70	5.63	
2025-01-07 15:39:36.54	65.67	5.64	
2025-01-07 15:39:36.75	65.64	5.65	
2025-01-07 15:39:36.95	65.61	5.66	
2025-01-07 15:39:37.16	65.58	5.66	
2025-01-07 15:39:37.37	65.55	5.67	
2025-01-07 15:39:37.57	65.52	5.68	
2025-01-07 15:39:37.77	65.49	5.69	
2025-01-07 15:39:37.98	65.46	5.70	
2025-01-07 15:39:38.19	65.43	5.71	
2025-01-07 15:39:38.39	65.40	5.72	
2025-01-07 15:39:38.60	65.37	5.72	
2025-01-07 15:39:38.80	65.34	5.73	
2025-01-07 15:39:39.01	65.31	5.74	
2025-01-07 15:39:39.21	65.28	5.75	
2025-01-07 15:39:39.42	65.24	5.76	
2025-01-07 15:39:39.62	65.22	5.77	
2025-01-07 15:39:39.83	65.18	5.78	
2025-01-07 15:39:40.04	65.15	5.78	
2025-01-07 15:39:40.24	65.12	5.79	
2025-01-07 15:39:40.45	65.09	5.80	
2025-01-07 15:39:40.65	65.06	5.81	
2025-01-07 15:39:40.86	65.03	5.82	
2025-01-07 15:39:41.06	65.00	5.83	
2025-01-07 15:39:41.27	64.97	5.83	
2025-01-07 15:39:41.47	64.94	5.84	
2025-01-07 15:39:41.68	64.91	5.85	
2025-01-07 15:39:41.88	64.88	5.86	
2025-01-07 15:39:42.09	64.85	5.87	
2025-01-07 15:39:42.29	64.82	5.88	
2025-01-07 15:39:42.50	64.79	5.88	
2025-01-07 15:39:42.71	64.76	5.89	
2025-01-07 15:39:42.91	64.73	5.90	
2025-01-07 15:39:43.12	64.69	5.91	
2025-01-07 15:39:43.32	64.66	5.92	
2025-01-07 15:39:43.53	64.63	5.93	
2025-01-07 15:39:43.74	64.60	5.94	
2025-01-07 15:39:43.94	64.57	5.94	
2025-01-07 15:39:44.14	64.54	5.95	
2025-01-07 15:39:44.35	64.51	5.96	
2025-01-07 15:39:44.55	64.48	5.97	
2025-01-07 15:39:44.76	64.45	5.98	
2025-01-07 15:39:44.96	64.42	5.99	
2025-01-07 15:39:45.17	64.39	5.99	
2025-01-07 15:39:45.37	64.36	6.00	
2025-01-07 15:39:45.58	64.32	6.01	
2025-01-07 15:39:45.79	64.29	6.02	
2025-01-07 15:39:45.99	64.26	6.03	
2025-01-07 15:39:46.19	64.23	6.04	
2025-01-07 15:39:46.40	64.20	6.04	
2025-01-07 15:39:46.61	64.17	6.05	
2025-01-07 15:39:46.81	64.14	6.06	
2025-01-07 15:39:47.02	64.11	6.07	
2025-01-07 15:39:47.22	64.08	6.08	
2025-01-07 15:39:47.43	64.05	6.09	
2025-01-07 15:39:47.63	64.01	6.09	
2025-01-07 15:39:47.84	63.98	6.10	
2025-01-07 15:39:48.04	63.95	6.11	
2025-01-07 15:39:48.25	63.92	6.12	
2025-01-07 15:39:48.45	63.89	6.13	
2025-01-07 15:39:48.66	63.86	6.14	
2025-01-07 15:39:48.86	63.83	6.14	
2025-01-07 15:39:49.07	63.80	6.15	
2025-01-07 15:39:49.27	63.77	6.16	
2025-01-07 15:39:49.48	63.73	6.17	
2025-01-07 15:39:49.68	63.70	6.18	
2025-01-07 15:39:49.89	63.67	6.19	
2025-01-07 15:39:50.09	63.64	6.19	
2025-01-07 15:39:50.30	63.61	6.20	
2025-01-07 15:39:50.50	63.58	6.21	
2025-01-07 15:39:50.72	63.54	6.22	
2025-01-07 15:39:50.93	63.51	6.23	
2025-01-07 15:39:51.13	63.48	6.24	
2025-01-07 15:39:51.33	63.45	6.24	
2025-01-07 15:39:51.54	63.42	6.25	
2025-01-07 15:39:51.75	63.39	6.26	
2025-01-07 15:39:51.95	63.35	6.27	
2025-01-07 15:39:52.16	63.32	6.28	
2025-01-07 15:39:52.36	63.29	6.28	
2025-01-07 15:39:52.57	63.26	6.29	
2025-01-07 15:39:52.77	63.23	6.30	
2025-01-07 15:39:52.98	63.20	6.31	
2025-01-07 15:39:53.18	63.17	6.32	
2025-01-07 15:39:53.39	63.13	6.33	
2025-01-07 15:39:53.59	63.10	6.33	
2025-01-07 15:39:53.80	63.07	6.34	
2025-01-07 15:39:54.00	63.04	6.35	
2025-01-07 15:39:54.21	63.01	6.36	
2025-01-07 15:39:54.41	62.98	6.37	
2025-01-07 15:39:54.62	62.94	6.37	
2025-01-07 15:39:54.82	62.91	6.38	
2025-01-07 15:39:55.03	62.88	6.39	
2025-01-07 15:39:55.24	62.85	6.40	
2025-01-07 15:39:55.44	62.82	6.41	
2025-01-07 15:39:55.64	62.78	6.42	
2025-01-07 15:39:55.85	62.75	6.42	
2025-01-07 15:39:56.05	62.72	6.43	
2025-01-07 15:39:56.26	62.69	6.44	
2025-01-07 15:39:56.46	62.66	6.45	
2025-01-07 15:39:56.67	62.62	6.46	
2025-01-07 15:39:56.87	62.59	6.46	
2025-01-07 15:39:57.08	62.56	6.47	
2025-01-07 15:39:57.28	62.53	6.48	
2025-01-07 15:39:57.50	62.49	6.49	
2025-01-07 15:39:57.70	62.46	6.50	
2025-01-07 15:39:57.91	62.43	6.50	
2025-01-07 15:39:58.11	62.40	6.51	
2025-01-07 15:39:58.32	62.37	6.52	
2025-01-07 15:39:58.52	62.33	6.53	
2025-01-07 15:39:58.72	62.30	6.54	
2025-01-07 15:39:58.93	62.27	6.54	
2025-01-07 15:39:59.13	62.24	6.55	
2025-01-07 15:39:59.34	62.21	6.56	
2025-01-07 15:39:59.56	62.17	6.57	
2025-01-07 15:39:59.76	62.14	6.58	
2025-01-07 15:39:59.97	62.11	6.59	
2025-01-07 15:40:00.17	62.08	6.59	
2025-01-07 15:40:00.37	62.04	6.60	
2025-01-07 15:40:00.58	62.01	6.61	
2025-01-07 15:40:00.78	61.98	6.62	
2025-01-07 15:40:01.00	61.94	6.63	
2025-01-07 15:40:01.21	61.91	6.63	
2025-01-07 15:40:01.41	61.88	6.64	
2025-01-07 15:40:01.62	61.85	6.65	
2025-01-07 15:40:01.82	61.81	6.66	
2025-01-07 15:40:02.04	61.78	6.67	
2025-01-07 15:40:02.25	61.75	6.67	
2025-01-07 15:40:02.45	61.71	6.68	
2025-01-07 15:40:02.66	61.68	6.69	
2025-01-07 15:40:02.86	61.65	6.70	
2025-01-07 15:40:03.07	61.62	6.71	
2025-01-07 15:40:03.28	61.58	6.71	
2025-01-07 15:40:03.48	61.55	6.72	
2025-01-07 15:40:03.69	61.52	6.73	
2025-01-07 15:40:03.89	61.49	6.74	
2025-01-07 15:40:04.10	61.45	6.75	
2025-01-07 15:40:04.30	61.42	6.75	
2025-01-07 15:40:04.51	61.39	6.76	
2025-01-07 15:40:04.71	61.36	6.77	
2025-01-07 15:40:04.92	61.32	6.78	
2025-01-07 15:40:05.12	61.29	6.79	
2025-01-07 15:40:05.33	61.26	6.79	
2025-01-07 15:40:05.53	61.22	6.80	
2025-01-07 15:40:05.74	61.19	6.81	
2025-01-07 15:40:05.94	61.16	6.82	
2025-01-07 15:40:06.15	61.12	6.82	
2025-01-07 15:40:06.35	61.09	6.83	
2025-01-07 15:40:06.56	61.06	6.84	
2025-01-07 15:40:06.77	61.03	6.85	
2025-01-07 15:40:06.97	60.99	6.86	
2025-01-07 15:40:07.17	60.96	6.86	
2025-01-07 15:40:07.38	60.93	6.87	
2025-01-07 15:40:07.58	60.90	6.88	
2025-01-07 15:40:07.79	60.86	6.89	
2025-01-07 15:40:07.99	60.83	6.90	
2025-01-07 15:40:08.20	60.80	6.90	
2025-01-07 15:40:08.40	60.76	6.91	
2025-01-07 15:40:08.61	60.73	6.92	
2025-01-07 15:40:08.81	60.70	6.93	
2025-01-07 15:40:09.02	60.66	6.93	
2025-01-07 15:40:09.22	60.63	6.94	
2025-01-07 15:40:09.43	60.60	6.95	
2025-01-07 15:40:09.63	60.56	6.96	
2025-01-07 15:40:09.84	60.53	6.97	
2025-01-07 15:40:10.04	60.50	6.97	
2025-01-07 15:40:10.25	60.46	6.98	
2025-01-07 15:40:10.45	60.43	6.99	
2025-01-07 15:40:10.66	60.40	7.00	
2025-01-07 15:40:10.86	60.36	7.00	
2025-01-07 15:40:11.07	60.33	7.01	
2025-01-07 15:40:11.27	60.30	7.02	
2025-01-07 15:40:11.48	60.26	7.03	
2025-01-07 15:40:11.68	60.23	7.03	
2025-01-07 15:40:11.89	60.20	7.04	
2025-01-07 15:40:12.09	60.16	7.05	
2025-01-07 15:40:12.30	60.13	7.06	
2025-01-07 15:40:12.50	60.10	7.07	
2025-01-07 15:40:12.71	60.06	7.07	
2025-01-07 15:40:12.91	60.03	7.08	
2025-01-07 15:40:13.12	60.00	7.09	
2025-01-07 15:40:13.33	59.96	7.10	
2025-01-07 15:40:13.53	59.93	7.10	
2025-01-07 15:40:13.73	59.90	7.11	
2025-01-07 15:40:13.94	59.86	7.12	
2025-01-07 15:40:14.15	59.83	7.13	
2025-01-07 15:40:14.35	59.79	7.13	
2025-01-07 15:40:14.56	59.76	7.14	
2025-01-07 15:40:14.76	59.73	7.15	
2025-01-07 15:40:14.97	59.69	7.16	
2025-01-07 15:40:15.17	59.66	7.16	
2025-01-07 15:40:15.38	59.63	7.17	
2025-01-07 15:40:15.59	59.59	7.18	
2025-01-07 15:40:15.79	59.56	7.19	
2025-01-07 15:40:15.99	59.52	7.20	
2025-01-07 15:40:16.20	59.49	7.20	
2025-01-07 15:40:16.41	59.46	7.21	
2025-01-07 15:40:16.61	59.42	7.22	
2025-01-07 15:40:16.82	59.39	7.23	
2025-01-07 15:40:17.02	59.35	7.23	
2025-01-07 15:40:17.23	59.32	7.24	
2025-01-07 15:40:17.43	59.29	7.25	
2025-01-07 15:40:17.64	59.25	7.26	
2025-01-07 15:40:17.84	59.22	7.26	
2025-01-07 15:40:18.05	59.18	7.27	
2025-01-07 15:40:18.25	59.15	7.28	
2025-01-07 15:40:18.46	59.12	7.29	
2025-01-07 15:40:18.66	59.08	7.29	
2025-01-07 15:40:18.87	59.05	7.30	
2025-01-07 15:40:19.07	59.01	7.31	
2025-01-07 15:40:19.28	58.98	7.32	
2025-01-07 15:40:19.48	58.95	7.32	
2025-01-07 15:40:19.69	58.91	7.33	
2025-01-07 15:40:19.89	58.88	7.34	
2025-01-07 15:40:20.10	58.84	7.35	
2025-01-07 15:40:20.30	58.81	7.35	
2025-01-07 15:40:20.50	58.78	7.36	
2025-01-07 15:40:20.71	58.74	7.37	
2025-01-07 15:40:20.91	58.71	7.37	
2025-01-07 15:40:21.12	58.67	7.38	
2025-01-07 15:40:21.33	58.64	7.39	
2025-01-07 15:40:21.53	58.60	7.40	
2025-01-07 15:40:21.74	58.57	7.40	
2025-01-07 15:40:21.94	58.54	7.41	
2025-01-07 15:40:22.15	58.50	7.42	
2025-01-07 15:40:22.37	58.46	7.43	
2025-01-07 15:40:22.57	58.43	7.43	
2025-01-07 15:40:22.78	58.39	7.44	
2025-01-07 15:40:22.98	58.36	7.45	
2025-01-07 15:40:23.19	58.33	7.46	
2025-01-07 15:40:23.39	58.29	7.46	
2025-01-07 15:40:23.59	58.26	7.47	
2025-01-07 15:40:23.80	58.22	7.48	
2025-01-07 15:40:24.00	58.19	7.49	
2025-01-07 15:40:24.21	58.15	7.49	
2025-01-07 15:40:24.41	58.12	7.50	
2025-01-07 15:40:24.63	58.08	7.51	
2025-01-07 15:40:24.83	58.05	7.52	
2025-01-07 15:40:25.04	58.01	7.52	
2025-01-07 15:40:25.24	57.98	7.53	
2025-01-07 15:40:25.45	57.94	7.54	
2025-01-07 15:40:25.65	57.91	7.54	
2025-01-07 15:40:25.86	57.88	7.55	
2025-01-07 15:40:26.07	57.84	7.56	
2025-01-07 15:40:26.27	57.81	7.57	
2025-01-07 15:40:26.48	57.77	7.57	
2025-01-07 15:40:26.68	57.74	7.58	
2025-01-07 15:40:26.88	57.70	7.59	
2025-01-07 15:40:27.09	57.67	7.60	
2025-01-07 15:40:27.29	57.63	7.60	
2025-01-07 15:40:27.50	57.60	7.61	
2025-01-07 15:40:27.72	57.56	7.62	
2025-01-07 15:40:27.92	57.53	7.62	
2025-01-07 15:40:28.13	57.49	7.63	
2025-01-07 15:40:28.33	57.46	7.64	
2025-01-07 15:40:28.54	57.42	7.65	
2025-01-07 15:40:28.74	57.39	7.65	
2025-01-07 15:40:28.95	57.35	7.66	
2025-01-07 15:40:29.15	57.32	7.67	
2025-01-07 15:40:29.36	57.28	7.67	
2025-01-07 15:40:29.57	57.24	7.68	
2025-01-07 15:40:29.78	57.21	7.69	
2025-01-07 15:40:29.99	57.17	7.70	
2025-01-07 15:40:30.19	57.14	7.70	
2025-01-07 15:40:30.40	57.10	7.71	
2025-01-07 15:40:30.60	57.07	7.72	
2025-01-07 15:40:30.81	57.03	7.72	
2025-01-07 15:40:31.02	57.00	7.73	
2025-01-07 15:40:31.22	56.96	7.74	
2025-01-07 15:40:31.43	56.92	7.75	
2025-01-07 15:40:31.63	56.89	7.75	
2025-01-07 15:40:31.85	56.85	7.76	
2025-01-07 15:40:32.05	56.82	7.77	
2025-01-07 15:40:32.26	56.78	7.77	
2025-01-07 15:40:32.46	56.75	7.78	
2025-01-07 15:40:32.67	56.71	7.79	
2025-01-07 15:40:32.87	56.68	7.80	
2025-01-07 15:40:33.08	56.64	7.80	
2025-01-07 15:40:33.28	56.61	7.81	
2025-01-07 15:40:33.49	56.57	7.82	
2025-01-07 15:40:33.69	56.54	7.82	
2025-01-07 15:40:33.90	56.50	7.83	
2025-01-07 15:40:34.12	56.46	7.84	
2025-01-07 15:40:34.33	56.42	7.85	
2025-01-07 15:40:34.53	56.39	7.85	
2025-01-07 15:40:34.74	56.35	7.86	
2025-01-07 15:40:34.94	56.32	7.87	
2025-01-07 15:40:35.16	56.28	7.87	
2025-01-07 15:40:35.36	56.25	7.88	
2025-01-07 15:40:35.57	56.21	7.89	
2025-01-07 15:40:35.77	56.17	7.89	
2025-01-07 15:40:35.98	56.14	7.90	
2025-01-07 15:40:36.18	56.10	7.91	
2025-01-07 15:40:36.39	56.07	7.91	
2025-01-07 15:40:36.59	56.03	7.92	
2025-01-07 15:40:36.80	56.00	7.93	
2025-01-07 15:40:37.00	55.96	7.94	
2025-01-07 15:40:37.21	55.92	7.94	
2025-01-07 15:40:37.41	55.89	7.95	
2025-01-07 15:40:37.62	55.85	7.96	
2025-01-07 15:40:37.82	55.82	7.96	
2025-01-07 15:40:38.03	55.78	7.97	
2025-01-07 15:40:38.23	55.75	7.98	
2025-01-07 15:40:38.44	55.71	7.98	
2025-01-07 15:40:38.64	55.67	7.99	
2025-01-07 15:40:38.85	55.64	8.00	
2025-01-07 15:40:39.05	55.60	8.00	
2025-01-07 15:40:39.26	55.57	8.01	
2025-01-07 15:40:39.46	55.53	8.02	
2025-01-07 15:40:39.67	55.49	8.02	
2025-01-07 15:40:39.87	55.46	8.03	
2025-01-07 15:40:40.08	55.42	8.04	
2025-01-07 15:40:40.28	55.39	8.04	
2025-01-07 15:40:40.49	55.35	8.05	
2025-01-07 15:40:40.69	55.31	8.06	
2025-01-07 15:40:40.90	55.28	8.06	
2025-01-07 15:40:41.11	55.24	8.07	
2025-01-07 15:40:41.31	55.21	8.08	
2025-01-07 15:40:41.52	55.17	8.08	
2025-01-07 15:40:41.72	55.13	8.09	
2025-01-07 15:40:41.93	55.10	8.10	
2025-01-07 15:40:42.13	55.06	8.10	
2025-01-07 15:40:42.34	55.02	8.11	
2025-01-07 15:40:42.54	54.99	8.12	
2025-01-07 15:40:42.75	54.95	8.12	
2025-01-07 15:40:42.95	54.92	8.13	
2025-01-07 15:40:43.16	54.88	8.14	
2025-01-07 15:40:43.36	54.84	8.14	
2025-01-07 15:40:43.57	54.81	8.15	
2025-01-07 15:40:43.77	54.77	8.16	
2025-01-07 15:40:43.98	54.73	8.16	
2025-01-07 15:40:44.18	54.70	8.17	
2025-01-07 15:40:44.39	54.66	8.18	
2025-01-07 15:40:44.59	54.62	8.18	
2025-01-07 15:40:44.80	54.59	8.19	
2025-01-07 15:40:45.00	54.55	8.20	
2025-01-07 15:40:45.21	54.51	8.20	
2025-01-07 15:40:45.41	54.48	8.21	
2025-01-07 15:40:45.62	54.44	8.22	
2025-01-07 15:40:45.83	54.40	8.22	
2025-01-07 15:40:46.04	54.37	8.23	
2025-01-07 15:40:46.24	54.33	8.24	
2025-01-07 15:40:46.45	54.29	8.24	
2025-01-07 15:40:46.66	54.26	8.25	
2025-01-07 15:40:46.86	54.22	8.25	
2025-01-07 15:40:47.07	54.18	8.26	
2025-01-07 15:40:47.27	54.15	8.27	
2025-01-07 15:40:47.48	54.11	8.27	
2025-01-07 15:40:47.68	54.07	8.28	
2025-01-07 15:40:47.89	54.04	8.29	
2025-01-07 15:40:48.09	54.00	8.29	
2025-01-07 15:40:48.30	53.96	8.30	
2025-01-07 15:40:48.50	53.93	8.31	
2025-01-07 15:40:48.71	53.89	8.31	
2025-01-07 15:40:48.91	53.85	8.32	
2025-01-07 15:40:49.12	53.82	8.33	
2025-01-07 15:40:49.32	53.78	8.33	
2025-01-07 15:40:49.53	53.74	8.34	
2025-01-07 15:40:49.73	53.71	8.34	
2025-01-07 15:40:49.94	53.67	8.35	
2025-01-07 15:40:50.14	53.63	8.36	
2025-01-07 15:40:50.35	53.59	8.36	
2025-01-07 15:40:50.55	53.56	8.37	
2025-01-07 15:40:50.76	53.52	8.38	
2025-01-07 15:40:50.96	53.48	8.38	
2025-01-07 15:40:51.17	53.45	8.39	
2025-01-07 15:40:51.37	53.41	8.39	
2025-01-07 15:40:51.58	53.37	8.40	
2025-01-07 15:40:51.78	53.34	8.41	
2025-01-07 15:40:51.99	53.30	8.41	
2025-01-07 15:40:52.20	53.26	8.42	
2025-01-07 15:40:52.40	53.22	8.43	
2025-01-07 15:40:52.61	53.19	8.43	
2025-01-07 15:40:52.81	53.15	8.44	
2025-01-07 15:40:53.02	53.11	8.44	
2025-01-07 15:40:53.23	53.07	8.45	
2025-01-07 15:40:53.44	53.04	8.46	
2025-01-07 15:40:53.65	53.00	8.46	
2025-01-07 15:40:53.85	52.96	8.47	
2025-01-07 15:40:54.06	52.92	8.48	
2025-01-07 15:40:54.26	52.89	8.48	
2025-01-07 15:40:54.47	52.85	8.49	
2025-01-07 15:40:54.67	52.81	8.49	
2025-01-07 15:40:54.88	52.78	8.50	
2025-01-07 15:40:55.08	52.74	8.51	
2025-01-07 15:40:55.29	52.70	8.51	
2025-01-07 15:40:55.49	52.66	8.52	
2025-01-07 15:40:55.70	52.63	8.53	
2025-01-07 15:40:55.90	52.59	8.53	
2025-01-07 15:40:56.11	52.55	8.54	
2025-01-07 15:40:56.31	52.51	8.54	
2025-01-07 15:40:56.53	52.47	8.55	
2025-01-07 15:40:56.73	52.44	8.56	
2025-01-07 15:40:56.94	52.40	8.56	
2025-01-07 15:40:57.15	52.36	8.57	
2025-01-07 15:40:57.35	52.32	8.57	
2025-01-07 15:40:57.55	52.29	8.58	
2025-01-07 15:40:57.76	52.25	8.59	
2025-01-07 15:40:57.97	52.21	8.59	
2025-01-07 15:40:58.17	52.17	8.60	
2025-01-07 15:40:58.38	52.14	8.60	
2025-01-07 15:40:58.58	52.10	8.61	
2025-01-07 15:40:58.79	52.06	8.62	
2025-01-07 15:40:58.99	52.02	8.62	
2025-01-07 15:40:59.20	51.99	8.63	
2025-01-07 15:40:59.40	51.95	8.63	
2025-01-07 15:40:59.61	51.91	8.64	
2025-01-07 15:40:59.81	51.87	8.64	
2025-01-07 15:41:00.02	51.83	8.65	
2025-01-07 15:41:00.22	51.80	8.66	
2025-01-07 15:41:00.43	51.76	8.66	
2025-01-07 15:41:00.63	51.72	8.67	
2025-01-07 15:41:00.84	51.68	8.67	
2025-01-07 15:41:01.04	51.65	8.68	
2025-01-07 15:41:01.25	51.61	8.69	
2025-01-07 15:41:01.45	51.57	8.69	
2025-01-07 15:41:01.66	51.53	8.70	
2025-01-07 15:41:01.86	51.50	8.70	
2025-01-07 15:41:02.07	51.46	8.71	
2025-01-07 15:41:02.27	51.42	8.71	
2025-01-07 15:41:02.48	51.38	8.72	
2025-01-07 15:41:02.69	51.34	8.73	
2025-01-07 15:41:02.89	51.31	8.73	
2025-01-07 15:41:03.10	51.27	8.74	
2025-01-07 15:41:03.30	51.23	8.74	
2025-01-07 15:41:03.51	51.19	8.75	
2025-01-07 15:41:03.72	51.15	8.76	
2025-01-07 15:41:03.92	51.11	8.76	
2025-01-07 15:41:04.12	51.08	8.77	
2025-01-07 15:41:04.33	51.04	8.77	
2025-01-07 15:41:04.53	51.00	8.78	
2025-01-07 15:41:04.74	50.96	8.78	
2025-01-07 15:41:04.95	50.92	8.79	
2025-01-07 15:41:05.15	50.89	8.79	
2025-01-07 15:41:05.36	50.85	8.80	
2025-01-07 15:41:05.56	50.81	8.81	
2025-01-07 15:41:05.77	50.77	8.81	
2025-01-07 15:41:05.97	50.73	8.82	
2025-01-07 15:41:06.18	50.69	8.82	
2025-01-07 15:41:06.38	50.66	8.83	
2025-01-07 15:41:06.59	50.62	8.83	
2025-01-07 15:41:06.79	50.58	8.84	
2025-01-07 15:41:07.00	50.54	8.85	
2025-01-07 15:41:07.20	50.50	8.85	
2025-01-07 15:41:07.41	50.46	8.86	
2025-01-07 15:41:07.61	50.43	8.86	
2025-01-07 15:41:07.82	50.39	8.87	
2025-01-07 15:41:08.02	50.35	8.87	
2025-01-07 15:41:08.23	50.31	8.88	
2025-01-07 15:41:08.43	50.27	8.88	
2025-01-07 15:41:08.64	50.23	8.89	
2025-01-07 15:41:08.84	50.20	8.89	
2025-01-07 15:41:09.05	50.16	8.90	
2025-01-07 15:41:09.25	50.12	8.91	
2025-01-07 15:41:09.46	50.08	8.91	
2025-01-07 15:41:09.67	50.04	8.92	
2025-01-07 15:41:09.87	50.00	8.92	
2025-01-07 15:41:10.08	49.96	8.93	
2025-01-07 15:41:10.29	49.93	8.93	
2025-01-07 15:41:10.49	49.89	8.94	
2025-01-07 15:41:10.70	49.85	8.94	
2025-01-07 15:41:10.91	49.81	8.95	
2025-01-07 15:41:11.11	49.77	8.95	
2025-01-07 15:41:11.32	49.73	8.96	
2025-01-07 15:41:11.52	49.69	8.96	
2025-01-07 15:41:11.73	49.65	8.97	
2025-01-07 15:41:11.93	49.62	8.98	
2025-01-07 15:41:12.14	49.58	8.98	
2025-01-07 15:41:12.34	49.54	8.99	
2025-01-07 15:41:12.55	49.50	8.99	
2025-01-07 15:41:12.75	49.46	9.00	
2025-01-07 15:41:12.96	49.42	9.00	
2025-01-07 15:41:13.16	49.38	9.01	
2025-01-07 15:41:13.37	49.35	9.01	
2025-01-07 15:41:13.57	49.31	9.02	
2025-01-07 15:41:13.78	49.27	9.02	
2025-01-07 15:41:13.98	49.23	9.03	
2025-01-07 15:41:14.19	49.19	9.03	
2025-01-07 15:41:14.39	49.15	9.04	
2025-01-07 15:41:14.60	49.11	9.04	
2025-01-07 15:41:14.80	49.07	9.05	
2025-01-07 15:41:15.01	49.03	9.05	
2025-01-07 15:41:15.22	48.99	9.06	
2025-01-07 15:41:15.42	48.96	9.06	
2025-01-07 15:41:15.62	48.92	9.07	
2025-01-07 15:41:15.83	48.88	9.07	
2025-01-07 15:41:16.04	48.84	9.08	
2025-01-07 15:41:16.24	48.80	9.08	
2025-01-07 15:41:16.45	48.76	9.09	
2025-01-07 15:41:16.65	48.72	9.09	
2025-01-07 15:41:16.86	48.68	9.10	
2025-01-07 15:41:17.06	48.65	9.10	
2025-01-07 15:41:17.27	48.61	9.11	
2025-01-07 15:41:17.47	48.57	9.11	
2025-01-07 15:41:17.68	48.53	9.12	
2025-01-07 15:41:17.90	48.49	9.12	
2025-01-07 15:41:18.10	48.45	9.13	
2025-01-07 15:41:18.31	48.41	9.13	
2025-01-07 15:41:18.51	48.37	9.14	
2025-01-07 15:41:18.72	48.33	9.14	
2025-01-07 15:41:18.92	48.29	9.15	
2025-01-07 15:41:19.13	48.25	9.15	
2025-01-07 15:41:19.34	48.21	9.16	
2025-01-07 15:41:19.54	48.17	9.16	
2025-01-07 15:41:19.75	48.13	9.17	
2025-01-07 15:41:19.95	48.09	9.17	
2025-01-07 15:41:20.16	48.05	9.18	
2025-01-07 15:41:20.36	48.02	9.18	
2025-01-07 15:41:20.57	47.98	9.19	
2025-01-07 15:41:20.77	47.94	9.19	
2025-01-07 15:41:20.98	47.90	9.20	
2025-01-07 15:41:21.18	47.86	9.20	
2025-01-07 15:41:21.39	47.82	9.21	
2025-01-07 15:41:21.59	47.78	9.21	
2025-01-07 15:41:21.80	47.74	9.22	
2025-01-07 15:41:22.00	47.70	9.22	
2025-01-07 15:41:22.21	47.66	9.23	
2025-01-07 15:41:22.41	47.62	9.23	
2025-01-07 15:41:22.62	47.58	9.24	
2025-01-07 15:41:22.82	47.54	9.24	
2025-01-07 15:41:23.03	47.50	9.25	
2025-01-07 15:41:23.23	47.46	9.25	
2025-01-07 15:41:23.44	47.42	9.26	
2025-01-07 15:41:23.64	47.39	9.26	
2025-01-07 15:41:23.85	47.35	9.26	
2025-01-07 15:41:24.05	47.31	9.27	
2025-01-07 15:41:24.25	47.27	9.27	
2025-01-07 15:41:24.46	47.23	9.28	
2025-01-07 15:41:24.67	47.19	9.28	
2025-01-07 15:41:24.87	47.15	9.29	
2025-01-07 15:41:25.08	47.11	9.29	
2025-01-07 15:41:25.28	47.07	9.30	
2025-01-07 15:41:25.49	47.03	9.30	
2025-01-07 15:41:25.69	46.99	9.31	
2025-01-07 15:41:25.90	46.95	9.31	
2025-01-07 15:41:26.10	46.91	9.32	
2025-01-07 15:41:26.30	46.87	9.32	
2025-01-07 15:41:26.51	46.83	9.32	
2025-01-07 15:41:26.71	46.79	9.33	
2025-01-07 15:41:26.92	46.75	9.33	
2025-01-07 15:41:27.13	46.71	9.34	
2025-01-07 15:41:27.33	46.67	9.34	
2025-01-07 15:41:27.53	46.63	9.35	
2025-01-07 15:41:27.74	46.59	9.35	
2025-01-07 15:41:27.95	46.55	9.36	
2025-01-07 15:41:28.15	46.51	9.36	
2025-01-07 15:41:28.36	46.47	9.36	
2025-01-07 15:41:28.56	46.44	9.37	
2025-01-07 15:41:28.77	46.39	9.37	
2025-01-07 15:41:28.97	46.36	9.38	
2025-01-07 15:41:29.18	46.31	9.38	
2025-01-07 15:41:29.38	46.28	9.39	
2025-01-07 15:41:29.60	46.23	9.39	
2025-01-07 15:41:29.80	46.19	9.40	
2025-01-07 15:41:30.01	46.15	9.40	
2025-01-07 15:41:30.21	46.11	9.40	
2025-01-07 15:41:30.42	46.07	9.41	
2025-01-07 15:41:30.62	46.03	9.41	
2025-01-07 15:41:30.83	45.99	9.42	
2025-01-07 15:41:31.03	45.95	9.42	
2025-01-07 15:41:31.24	45.91	9.43	
2025-01-07 15:41:31.45	45.87	9.43	
2025-01-07 15:41:31.65	45.83	9.43	
2025-01-07 15:41:31.86	45.79	9.44	
2025-01-07 15:41:32.06	45.75	9.44	
2025-01-07 15:41:32.27	45.71	9.45	
2025-01-07 15:41:32.47	45.67	9.45	
2025-01-07 15:41:32.68	45.63	9.46	
2025-01-07 15:41:32.88	45.59	9.46	
2025-01-07 15:41:33.09	45.55	9.46	
2025-01-07 15:41:33.29	45.51	9.47	
2025-01-07 15:41:33.50	45.47	9.47	
2025-01-07 15:41:33.70	45.43	9.48	
2025-01-07 15:41:33.91	45.39	9.48	
2025-01-07 15:41:34.11	45.35	9.48	
2025-01-07 15:41:34.32	45.31	9.49	
2025-01-07 15:41:34.52	45.27	9.49	
2025-01-07 15:41:34.73	45.23	9.50	
2025-01-07 15:41:34.94	45.19	9.50	
2025-01-07 15:41:35.15	45.15	9.50	
2025-01-07 15:41:35.36	45.11	9.51	
2025-01-07 15:41:35.56	45.07	9.51	
2025-01-07 15:41:35.77	45.03	9.52	
2025-01-07 15:41:35.98	44.99	9.52	
2025-01-07 15:41:36.19	44.95	9.52	
2025-01-07 15:41:36.39	44.91	9.53	
2025-01-07 15:41:36.60	44.87	9.53	
2025-01-07 15:41:36.80	44.83	9.54	
2025-01-07 15:41:37.02	44.78	9.54	
2025-01-07 15:41:37.23	44.74	9.54	
2025-01-07 15:41:37.43	44.70	9.55	
2025-01-07 15:41:37.64	44.66	9.55	
2025-01-07 15:41:37.84	44.62	9.56	
2025-01-07 15:41:38.05	44.58	9.56	
2025-01-07 15:41:38.25	44.54	9.56	
2025-01-07 15:41:38.45	44.50	9.57	
2025-01-07 15:41:38.66	44.46	9.57	
2025-01-07 15:41:38.87	44.42	9.58	
2025-01-07 15:41:39.07	44.38	9.58	
2025-01-07 15:41:39.28	44.34	9.58	
2025-01-07 15:41:39.48	44.30	9.59	
2025-01-07 15:41:39.69	44.26	9.59	
2025-01-07 15:41:39.89	44.22	9.59	
2025-01-07 15:41:40.10	44.18	9.60	
2025-01-07 15:41:40.32	44.13	9.60	
2025-01-07 15:41:40.52	44.09	9.61	
2025-01-07 15:41:40.73	44.05	9.61	
2025-01-07 15:41:40.93	44.01	9.61	
2025-01-07 15:41:41.14	43.97	9.62	
2025-01-07 15:41:41.34	43.93	9.62	
2025-01-07 15:41:41.55	43.89	9.62	
2025-01-07 15:41:41.75	43.85	9.63	
2025-01-07 15:41:41.96	43.81	9.63	
2025-01-07 15:41:42.16	43.77	9.63	
2025-01-07 15:41:42.38	43.73	9.64	
2025-01-07 15:41:42.59	43.68	9.64	
2025-01-07 15:41:42.79	43.64	9.65	
2025-01-07 15:41:43.00	43.60	9.65	
2025-01-07 15:41:43.20	43.56	9.65	
2025-01-07 15:41:43.41	43.52	9.66	
2025-01-07 15:41:43.61	43.48	9.66	
2025-01-07 15:41:43.82	43.44	9.66	
2025-01-07 15:41:44.02	43.40	9.67	
2025-01-07 15:41:44.23	43.36	9.67	
2025-01-07 15:41:44.43	43.32	9.67	
2025-01-07 15:41:44.64	43.28	9.68	
2025-01-07 15:41:44.84	43.24	9.68	
2025-01-07 15:41:45.05	43.20	9.68	
2025-01-07 15:41:45.25	43.16	9.69	
2025-01-07 15:41:45.46	43.11	9.69	
2025-01-07 15:41:45.66	43.07	9.69	
2025-01-07 15:41:45.87	43.03	9.70	
2025-01-07 15:41:46.08	42.99	9.70	
2025-01-07 15:41:46.28	42.95	9.70	
2025-01-07 15:41:46.49	42.91	9.71	
2025-01-07 15:41:46.70	42.87	9.71	
2025-01-07 15:41:46.91	42.83	9.72	
2025-01-07 15:41:47.12	42.78	9.72	
2025-01-07 15:41:47.32	42.74	9.72	
2025-01-07 15:41:47.53	42.70	9.73	
2025-01-07 15:41:47.73	42.66	9.73	
2025-01-07 15:41:47.94	42.62	9.73	
2025-01-07 15:41:48.14	42.58	9.73	
2025-01-07 15:41:48.35	42.54	9.74	
2025-01-07 15:41:48.55	42.50	9.74	
2025-01-07 15:41:48.76	42.46	9.74	
2025-01-07 15:41:48.96	42.42	9.75	
2025-01-07 15:41:49.17	42.38	9.75	
2025-01-07 15:41:49.37	42.34	9.75	
2025-01-07 15:41:49.58	42.29	9.76	
2025-01-07 15:41:49.78	42.25	9.76	
2025-01-07 15:41:49.98	42.21	9.76	
2025-01-07 15:41:50.19	42.17	9.77	
2025-01-07 15:41:50.40	42.13	9.77	
2025-01-07 15:41:50.60	42.09	9.77	
2025-01-07 15:41:50.81	42.05	9.78	
2025-01-07 15:41:51.01	42.01	9.78	
2025-01-07 15:41:51.22	41.97	9.78	
2025-01-07 15:41:51.42	41.93	9.79	
2025-01-07 15:41:51.63	41.88	9.79	
2025-01-07 15:41:51.84	41.84	9.79	
2025-01-07 15:41:52.04	41.80	9.79	
2025-01-07 15:41:52.24	41.76	9.80	
2025-01-07 15:41:52.45	41.72	9.80	
2025-01-07 15:41:52.65	41.68	9.80	
2025-01-07 15:41:52.86	41.64	9.81	
2025-01-07 15:41:53.08	41.59	9.81	
2025-01-07 15:41:53.28	41.55	9.81	
2025-01-07 15:41:53.49	41.51	9.82	
2025-01-07 15:41:53.70	41.47	9.82	
2025-01-07 15:41:53.90	41.43	9.82	
2025-01-07 15:41:54.10	41.39	9.82	
2025-01-07 15:41:54.31	41.35	9.83	
2025-01-07 15:41:54.52	41.30	9.83	
2025-01-07 15:41:54.72	41.26	9.83	
2025-01-07 15:41:54.93	41.22	9.84	
2025-01-07 15:41:55.13	41.18	9.84	
2025-01-07 15:41:55.34	41.14	9.84	
2025-01-07 15:41:55.54	41.10	9.84	
2025-01-07 15:41:55.75	41.06	9.85	
2025-01-07 15:41:55.95	41.02	9.85	
2025-01-07 15:41:56.16	40.97	9.85	
2025-01-07 15:41:56.36	40.93	9.85	
2025-01-07 15:41:56.57	40.89	9.86	
2025-01-07 15:41:56.78	40.85	9.86	
2025-01-07 15:41:56.98	40.81	9.86	
2025-01-07 15:41:57.19	40.77	9.87	
2025-01-07 15:41:57.39	40.73	9.87	
2025-01-07 15:41:57.60	40.68	9.87	
2025-01-07 15:41:57.80	40.64	9.87	
2025-01-07 15:41:58.01	40.60	9.88	
2025-01-07 15:41:58.21	40.56	9.88	
2025-01-07 15:41:58.42	40.52	9.88	
2025-01-07 15:41:58.62	40.48	9.88	
2025-01-07 15:41:58.83	40.44	9.89	
2025-01-07 15:41:59.04	40.39	9.89	
2025-01-07 15:41:59.24	40.35	9.89	
2025-01-07 15:41:59.46	40.31	9.89	
2025-01-07 15:41:59.67	40.27	9.90	
2025-01-07 15:41:59.87	40.23	9.90	
2025-01-07 15:42:00.08	40.18	9.90	
2025-01-07 15:42:00.28	40.14	9.90	
2025-01-07 15:42:00.48	40.10	9.91	
2025-01-07 15:42:00.69	40.06	9.91	
2025-01-07 15:42:00.89	40.02	9.91	
2025-01-07 15:42:01.10	39.98	9.91	
2025-01-07 15:42:01.30	39.94	9.92	
2025-01-07 15:42:01.51	39.90	9.92	
2025-01-07 15:42:01.71	39.85	9.92	
2025-01-07 15:42:01.92	39.81	9.92	
2025-01-07 15:42:02.12	39.77	9.93	
2025-01-07 15:42:02.33	39.73	9.93	
2025-01-07 15:42:02.54	39.69	9.93	
2025-01-07 15:42:02.74	39.65	9.93	
2025-01-07 15:42:02.95	39.60	9.94	
2025-01-07 15:42:03.15	39.56	9.94	
2025-01-07 15:42:03.36	39.52	9.94	
2025-01-07 15:42:03.56	39.48	9.94	
2025-01-07 15:42:03.77	39.44	9.94	
2025-01-07 15:42:03.97	39.40	9.95	
2025-01-07 15:42:04.18	39.36	9.95	
2025-01-07 15:42:04.38	39.31	9.95	
2025-01-07 15:42:04.59	39.27	9.95	
2025-01-07 15:42:04.81	39.23	9.96	
2025-01-07 15:42:05.01	39.19	9.96	
2025-01-07 15:42:05.22	39.14	9.96	
2025-01-07 15:42:05.42	39.10	9.96	
2025-01-07 15:42:05.63	39.06	9.96	
2025-01-07 15:42:05.84	39.02	9.97	
2025-01-07 15:42:06.04	38.98	9.97	
2025-01-07 15:42:06.25	38.94	9.97	
2025-01-07 15:42:06.45	38.89	9.97	
2025-01-07 15:42:06.66	38.85	9.98	
2025-01-07 15:42:06.86	38.81	9.98	
2025-01-07 15:42:07.07	38.77	9.98	
2025-01-07 15:42:07.27	38.73	9.98	
2025-01-07 15:42:07.48	38.69	9.98	
2025-01-07 15:42:07.68	38.65	9.99	
2025-01-07 15:42:07.89	38.60	9.99	
2025-01-07 15:42:08.09	38.56	9.99	
2025-01-07 15:42:08.30	38.52	9.99	
2025-01-07 15:42:08.50	38.48	9.99	
2025-01-07 15:42:08.71	38.44	10.00	
2025-01-07 15:42:08.91	38.40	10.00	
2025-01-07 15:42:09.12	38.35	10.00	
2025-01-07 15:42:09.32	38.31	10.00	
2025-01-07 15:42:09.53	38.27	10.00	
2025-01-07 15:42:09.73	38.23	10.00	
2025-01-07 15:42:09.94	38.19	10.01	
2025-01-07 15:42:10.14	38.14	10.01	
2025-01-07 15:42:10.35	38.10	10.01	
2025-01-07 15:42:10.55	38.06	10.01	
2025-01-07 15:42:10.76	38.02	10.01	
2025-01-07 15:42:10.96	37.98	10.02	
2025-01-07 15:42:11.17	37.94	10.02	
2025-01-07 15:42:11.37	37.89	10.02	
2025-01-07 15:42:11.58	37.85	10.02	
2025-01-07 15:42:11.79	37.81	10.02	
2025-01-07 15:42:11.99	37.77	10.02	
2025-01-07 15:42:12.19	37.73	10.03	
2025-01-07 15:42:12.40	37.68	10.03	
2025-01-07 15:42:12.61	37.64	10.03	
2025-01-07 15:42:12.81	37.60	10.03	
2025-01-07 15:42:13.02	37.56	10.03	
2025-01-07 15:42:13.22	37.52	10.03	
2025-01-07 15:42:13.43	37.47	10.04	
2025-01-07 15:42:13.63	37.43	10.04	
2025-01-07 15:42:13.84	37.39	10.04	
2025-01-07 15:42:14.04	37.35	10.04	
2025-01-07 15:42:14.25	37.31	10.04	
2025-01-07 15:42:14.45	37.27	10.04	
2025-01-07 15:42:14.66	37.22	10.05	
2025-01-07 15:42:14.86	37.18	10.05	
2025-01-07 15:42:15.07	37.14	10.05	
2025-01-07 15:42:15.27	37.10	10.05	
2025-01-07 15:42:15.47	37.06	10.05	
2025-01-07 15:42:15.68	37.02	10.05	
2025-01-07 15:42:15.89	36.97	10.05	
2025-01-07 15:42:16.09	36.93	10.06	
2025-01-07 15:42:16.30	36.89	10.06	
2025-01-07 15:42:16.50	36.85	10.06	
2025-01-07 15:42:16.71	36.81	10.06	
2025-01-07 15:42:16.91	36.76	10.06	
2025-01-07 15:42:17.12	36.72	10.06	
2025-01-07 15:42:17.32	36.68	10.06	
2025-01-07 15:42:17.53	36.64	10.07	
2025-01-07 15:42:17.73	36.60	10.07	
2025-01-07 15:42:17.94	36.55	10.07	
2025-01-07 15:42:18.14	36.51	10.07	
2025-01-07 15:42:18.35	36.47	10.07	
2025-01-07 15:42:18.55	36.43	10.07	
2025-01-07 15:42:18.76	36.39	10.07	
2025-01-07 15:42:18.96	36.35	10.07	
2025-01-07 15:42:19.17	36.30	10.08	
2025-01-07 15:42:19.37	36.26	10.08	
2025-01-07 15:42:19.58	36.22	10.08	
2025-01-07 15:42:19.78	36.18	10.08	
2025-01-07 15:42:19.99	36.14	10.08	
2025-01-07 15:42:20.19	36.09	10.08	
2025-01-07 15:42:20.40	36.05	10.08	
2025-01-07 15:42:20.60	36.01	10.08	
2025-01-07 15:42:20.81	35.97	10.09	
2025-01-07 15:42:21.01	35.93	10.09	
2025-01-07 15:42:21.22	35.88	10.09	
2025-01-07 15:42:21.42	35.84	10.09	
2025-01-07 15:42:21.63	35.80	10.09	
2025-01-07 15:42:21.83	35.76	10.09	
2025-01-07 15:42:22.03	35.72	10.09	
2025-01-07 15:42:22.24	35.67	10.09	
2025-01-07 15:42:22.45	35.63	10.09	
2025-01-07 15:42:22.65	35.59	10.09	
2025-01-07 15:42:22.86	35.55	10.10	
2025-01-07 15:42:23.06	35.51	10.10	
2025-01-07 15:42:23.26	35.47	10.10	
2025-01-07 15:42:23.47	35.42	10.10	
2025-01-07 15:42:23.67	35.38	10.10	
2025-01-07 15:42:23.88	35.34	10.10	
2025-01-07 15:42:24.08	35.30	10.10	
2025-01-07 15:42:24.29	35.25	10.10	
2025-01-07 15:42:24.49	35.21	10.10	
2025-01-07 15:42:24.70	35.17	10.10	
2025-01-07 15:42:24.90	35.13	10.10	
2025-01-07 15:42:25.10	35.09	10.11	
2025-01-07 15:42:25.31	35.05	10.11	
2025-01-07 15:42:25.51	35.01	10.11	
2025-01-07 15:42:25.72	34.96	10.11	
2025-01-07 15:42:25.93	34.92	10.11	
2025-01-07 15:42:26.13	34.88	10.11	
2025-01-07 15:42:26.34	34.83	10.11	
2025-01-07 15:42:26.54	34.79	10.11	
2025-01-07 15:42:26.75	34.75	10.11	
2025-01-07 15:42:26.95	34.71	10.11	
2025-01-07 15:42:27.16	34.67	10.11	
2025-01-07 15:42:27.36	34.63	10.11	
2025-01-07 15:42:27.57	34.58	10.11	
2025-01-07 15:42:27.77	34.54	10.12	
2025-01-07 15:42:27.98	34.50	10.12	
2025-01-07 15:42:28.18	34.46	10.12	
2025-01-07 15:42:28.39	34.41	10.12	
2025-01-07 15:42:28.59	34.37	10.12	
2025-01-07 15:42:28.80	34.33	10.12	
2025-01-07 15:42:29.00	34.29	10.12	
2025-01-07 15:42:29.21	34.25	10.12	
2025-01-07 15:42:29.41	34.21	10.12	
2025-01-07 15:42:29.62	34.16	10.12	
2025-01-07 15:42:29.82	34.12	10.12	
2025-01-07 15:42:30.03	34.08	10.12	
2025-01-07 15:42:30.23	34.04	10.12	
2025-01-07 15:42:30.44	33.99	10.12	
2025-01-07 15:42:30.64	33.95	10.12	
2025-01-07 15:42:30.85	33.91	10.12	
2025-01-07 15:42:31.06	33.87	10.12	
2025-01-07 15:42:31.26	33.83	10.12	
2025-01-07 15:42:31.47	33.78	10.12	
2025-01-07 15:42:31.67	33.74	10.12	
2025-01-07 15:42:31.88	33.70	10.13	
2025-01-07 15:42:32.08	33.66	10.13	
2025-01-07 15:42:32.29	33.61	10.13	
2025-01-07 15:42:32.49	33.57	10.13	
2025-01-07 15:42:32.70	33.53	10.13	
2025-01-07 15:42:32.90	33.49	10.13	
2025-01-07 15:42:33.11	33.45	10.13	
2025-01-07 15:42:33.31	33.41	10.13	
2025-01-07 15:42:33.52	33.36	10.13	
2025-01-07 15:42:33.72	33.32	10.13	
2025-01-07 15:42:33.93	33.28	10.13	
2025-01-07 15:42:34.13	33.24	10.13	
2025-01-07 15:42:34.34	33.19	10.13	
2025-01-07 15:42:34.54	33.15	10.13	
2025-01-07 15:42:34.75	33.11	10.13	
2025-01-07 15:42:34.95	33.07	10.13	
2025-01-07 15:42:35.16	33.03	10.13	
2025-01-07 15:42:35.36	32.98	10.13	
2025-01-07 15:42:35.57	32.94	10.13	
2025-01-07 15:42:35.77	32.90	10.13	
2025-01-07 15:42:35.98	32.86	10.13	
2025-01-07 15:42:36.18	32.82	10.13	
2025-01-07 15:42:36.39	32.77	10.13	
2025-01-07 15:42:36.59	32.73	10.13	
2025-01-07 15:42:36.80	32.69	10.13	
2025-01-07 15:42:37.00	32.65	10.13	
2025-01-07 15:42:37.21	32.60	10.13	
2025-01-07 15:42:37.43	32.56	10.13	
2025-01-07 15:42:37.63	32.52	10.13	
2025-01-07 15:42:37.83	32.48	10.13	
2025-01-07 15:42:38.04	32.43	10.13	
2025-01-07 15:42:38.24	32.39	10.13	
2025-01-07 15:42:38.45	32.35	10.13	
2025-01-07 15:42:38.66	32.31	10.13	
2025-01-07 15:42:38.86	32.27	10.13	
2025-01-07 15:42:39.08	32.22	10.13	
2025-01-07 15:42:39.28	32.18	10.13	
2025-01-07 15:42:39.49	32.14	10.13	
2025-01-07 15:42:39.70	32.09	10.13	
2025-01-07 15:42:39.90	32.05	10.13	
2025-01-07 15:42:40.11	32.01	10.13	
2025-01-07 15:42:40.31	31.97	10.13	
2025-01-07 15:42:40.52	31.93	10.13	
2025-01-07 15:42:40.72	31.88	10.13	
2025-01-07 15:42:40.93	31.84	10.13	
2025-01-07 15:42:41.13	31.80	10.13	
2025-01-07 15:42:41.33	31.76	10.13	
2025-01-07 15:42:41.54	31.72	10.13	
2025-01-07 15:42:41.75	31.67	10.13	
2025-01-07 15:42:41.95	31.63	10.13	
2025-01-07 15:42:42.16	31.59	10.13	
2025-01-07 15:42:42.36	31.55	10.13	
2025-01-07 15:42:42.57	31.50	10.13	
2025-01-07 15:42:42.77	31.46	10.13	
2025-01-07 15:42:42.97	31.42	10.12	
2025-01-07 15:42:43.18	31.38	10.12	
2025-01-07 15:42:43.38	31.34	10.12	
2025-01-07 15:42:43.59	31.30	10.12	
2025-01-07 15:42:43.79	31.25	10.12	
2025-01-07 15:42:44.00	31.21	10.12	
2025-01-07 15:42:44.20	31.17	10.12	
2025-01-07 15:42:44.41	31.13	10.12	
2025-01-07 15:42:44.61	31.09	10.12	
2025-01-07 15:42:44.82	31.04	10.12	
2025-01-07 15:42:45.03	31.00	10.12	
2025-01-07 15:42:45.23	30.96	10.12	
2025-01-07 15:42:45.43	30.92	10.12	
2025-01-07 15:42:45.64	30.88	10.12	
2025-01-07 15:42:45.85	30.83	10.12	
2025-01-07 15:42:46.05	30.79	10.12	
2025-01-07 15:42:46.26	30.75	10.12	
2025-01-07 15:42:46.46	30.71	10.12	
2025-01-07 15:42:46.67	30.66	10.12	
2025-01-07 15:42:46.88	30.62	10.11	
2025-01-07 15:42:47.08	30.58	10.11	
2025-01-07 15:42:47.29	30.54	10.11	
2025-01-07 15:42:47.49	30.50	10.11	
2025-01-07 15:42:47.70	30.45	10.11	
2025-01-07 15:42:47.91	30.41	10.11	
2025-01-07 15:42:48.11	30.37	10.11	
2025-01-07 15:42:48.32	30.33	10.11	
2025-01-07 15:42:48.52	30.28	10.11	
2025-01-07 15:42:48.73	30.24	10.11	
2025-01-07 15:42:48.93	30.20	10.11	
2025-01-07 15:42:49.14	30.16	10.11	
2025-01-07 15:42:49.34	30.12	10.11	
2025-01-07 15:42:49.55	30.07	10.11	
2025-01-07 15:42:49.75	30.03	10.10	
2025-01-07 15:42:49.96	29.99	10.10	
2025-01-07 15:42:50.16	29.95	10.10	
2025-01-07 15:42:50.37	29.91	10.10	
2025-01-07 15:42:50.57	29.86	10.10	
2025-01-07 15:42:50.77	29.82	10.10	
2025-01-07 15:42:50.98	29.78	10.10	
2025-01-07 15:42:51.19	29.74	10.10	
2025-01-07 15:42:51.39	29.70	10.10	
2025-01-07 15:42:51.60	29.65	10.10	
2025-01-07 15:42:51.82	29.61	10.10	
2025-01-07 15:42:52.02	29.57	10.09	
2025-01-07 15:42:52.23	29.53	10.09	
2025-01-07 15:42:52.43	29.48	10.09	
2025-01-07 15:42:52.64	29.44	10.09	
2025-01-07 15:42:52.84	29.40	10.09	
2025-01-07 15:42:53.05	29.36	10.09	
2025-01-07 15:42:53.25	29.32	10.09	
2025-01-07 15:42:53.46	29.27	10.09	
2025-01-07 15:42:53.66	29.23	10.09	
2025-01-07 15:42:53.87	29.19	10.08	
2025-01-07 15:42:54.07	29.15	10.08	
2025-01-07 15:42:54.28	29.11	10.08	
2025-01-07 15:42:54.48	29.06	10.08	
2025-01-07 15:42:54.69	29.02	10.08	
2025-01-07 15:42:54.90	28.98	10.08	
2025-01-07 15:42:55.10	28.94	10.08	
2025-01-07 15:42:55.30	28.90	10.08	
2025-01-07 15:42:55.51	28.85	10.08	
2025-01-07 15:42:55.71	28.81	10.07	
2025-01-07 15:42:55.92	28.77	10.07	
2025-01-07 15:42:56.12	28.73	10.07	
2025-01-07 15:42:56.33	28.69	10.07	
2025-01-07 15:42:56.53	28.65	10.07	
2025-01-07 15:42:56.74	28.60	10.07	
2025-01-07 15:42:56.95	28.56	10.07	
2025-01-07 15:42:57.16	28.52	10.06	
2025-01-07 15:42:57.37	28.47	10.06	
2025-01-07 15:42:57.57	28.43	10.06	
2025-01-07 15:42:57.78	28.39	10.06	
2025-01-07 15:42:57.99	28.35	10.06	
2025-01-07 15:42:58.19	28.31	10.06	
2025-01-07 15:42:58.39	28.27	10.06	
2025-01-07 15:42:58.60	28.22	10.06	
2025-01-07 15:42:58.80	28.18	10.05	
2025-01-07 15:42:59.01	28.14	10.05	
2025-01-07 15:42:59.21	28.10	10.05	
2025-01-07 15:42:59.42	28.06	10.05	
2025-01-07 15:42:59.62	28.02	10.05	
2025-01-07 15:42:59.83	27.97	10.05	
2025-01-07 15:43:00.03	27.93	10.04	
2025-01-07 15:43:00.24	27.89	10.04	
2025-01-07 15:43:00.44	27.85	10.04	
2025-01-07 15:43:00.65	27.81	10.04	
2025-01-07 15:43:00.85	27.76	10.04	
2025-01-07 15:43:01.06	27.72	10.04	
2025-01-07 15:43:01.26	27.68	10.04	
2025-01-07 15:43:01.47	27.64	10.03	
2025-01-07 15:43:01.67	27.60	10.03	
2025-01-07 15:43:01.88	27.55	10.03	
2025-01-07 15:43:02.09	27.51	10.03	
2025-01-07 15:43:02.29	27.47	10.03	
2025-01-07 15:43:02.50	27.43	10.03	
2025-01-07 15:43:02.70	27.39	10.02	
2025-01-07 15:43:02.91	27.35	10.02	
2025-01-07 15:43:03.11	27.30	10.02	
2025-01-07 15:43:03.32	27.26	10.02	
2025-01-07 15:43:03.52	27.22	10.02	
2025-01-07 15:43:03.73	27.18	10.01	
2025-01-07 15:43:03.93	27.14	10.01	
2025-01-07 15:43:04.14	27.09	10.01	
2025-01-07 15:43:04.35	27.05	10.01	
2025-01-07 15:43:04.55	27.01	10.01	
2025-01-07 15:43:04.76	26.97	10.01	
2025-01-07 15:43:04.96	26.93	10.00	
2025-01-07 15:43:05.16	26.89	10.00	
2025-01-07 15:43:05.37	26.84	10.00	
2025-01-07 15:43:05.57	26.80	10.00	
2025-01-07 15:43:05.78	26.76	10.00	
2025-01-07 15:43:05.98	26.72	9.99	
2025-01-07 15:43:06.19	26.68	9.99	
2025-01-07 15:43:06.40	26.64	9.99	
2025-01-07 15:43:06.60	26.59	9.99	
2025-01-07 15:43:06.80	26.55	9.99	
2025-01-07 15:43:07.01	26.51	9.98	
2025-01-07 15:43:07.21	26.47	9.98	
2025-01-07 15:43:07.42	26.43	9.98	
2025-01-07 15:43:07.62	26.39	9.98	
2025-01-07 15:43:07.83	26.35	9.98	
2025-01-07 15:43:08.03	26.30	9.97	
2025-01-07 15:43:08.24	26.26	9.97	
2025-01-07 15:43:08.44	26.22	9.97	
2025-01-07 15:43:08.65	26.18	9.97	
2025-01-07 15:43:08.85	26.14	9.97	
2025-01-07 15:43:09.06	26.10	9.96	
2025-01-07 15:43:09.26	26.06	9.96	
2025-01-07 15:43:09.47	26.01	9.96	
2025-01-07 15:43:09.67	25.97	9.96	
2025-01-07 15:43:09.88	25.93	9.96	
2025-01-07 15:43:10.08	25.89	9.95	
2025-01-07 15:43:10.31	25.84	9.95	
2025-01-07 15:43:10.52	25.80	9.95	
2025-01-07 15:43:10.73	25.76	9.95	
2025-01-07 15:43:10.93	25.72	9.94	
2025-01-07 15:43:11.14	25.67	9.94	
2025-01-07 15:43:11.34	25.63	9.94	
2025-01-07 15:43:11.55	25.59	9.94	
2025-01-07 15:43:11.75	25.55	9.93	
2025-01-07 15:43:11.96	25.51	9.93	
2025-01-07 15:43:12.17	25.47	9.93	
2025-01-07 15:43:12.37	25.43	9.93	
2025-01-07 15:43:12.58	25.38	9.93	
2025-01-07 15:43:12.78	25.34	9.92	
2025-01-07 15:43:12.99	25.30	9.92	
2025-01-07 15:43:13.19	25.26	9.92	
2025-01-07 15:43:13.40	25.22	9.92	
2025-01-07 15:43:13.60	25.18	9.91	
2025-01-07 15:43:13.81	25.14	9.91	
2025-01-07 15:43:14.01	25.10	9.91	
2025-01-07 15:43:14.22	25.05	9.91	
2025-01-07 15:43:14.42	25.01	9.90	
2025-01-07 15:43:14.63	24.97	9.90	
2025-01-07 15:43:14.84	24.93	9.90	
2025-01-07 15:43:15.04	24.89	9.90	
2025-01-07 15:43:15.24	24.85	9.89	
2025-01-07 15:43:15.45	24.80	9.89	
2025-01-07 15:43:15.66	24.76	9.89	
2025-01-07 15:43:15.86	24.72	9.89	
2025-01-07 15:43:16.07	24.68	9.88	
2025-01-07 15:43:16.27	24.64	9.88	
2025-01-07 15:43:16.48	24.60	9.88	
2025-01-07 15:43:16.68	24.56	9.88	
2025-01-07 15:43:16.89	24.51	9.87	
2025-01-07 15:43:17.09	24.47	9.87	
2025-01-07 15:43:17.30	24.43	9.87	
2025-01-07 15:43:17.50	24.39	9.86	
2025-01-07 15:43:17.71	24.35	9.86	
2025-01-07 15:43:17.91	24.31	9.86	
2025-01-07 15:43:18.12	24.27	9.86	
2025-01-07 15:43:18.32	24.23	9.85	
2025-01-07 15:43:18.54	24.18	9.85	
2025-01-07 15:43:18.74	24.14	9.85	
2025-01-07 15:43:18.95	24.10	9.85	
2025-01-07 15:43:19.15	24.06	9.84	
2025-01-07 15:43:19.36	24.02	9.84	
2025-01-07 15:43:19.58	23.97	9.84	
2025-01-07 15:43:19.78	23.93	9.83	
2025-01-07 15:43:19.99	23.89	9.83	
2025-01-07 15:43:20.20	23.85	9.83	
2025-01-07 15:43:20.40	23.81	9.83	
2025-01-07 15:43:20.61	23.77	9.82	
2025-01-07 15:43:20.81	23.73	9.82	
2025-01-07 15:43:21.02	23.69	9.82	
2025-01-07 15:43:21.23	23.64	9.81	
2025-01-07 15:43:21.43	23.60	9.81	
2025-01-07 15:43:21.64	23.56	9.81	
2025-01-07 15:43:21.85	23.52	9.80	
2025-01-07 15:43:22.06	23.48	9.80	
2025-01-07 15:43:22.26	23.44	9.80	
2025-01-07 15:43:22.47	23.40	9.80	
2025-01-07 15:43:22.67	23.36	9.79	
2025-01-07 15:43:22.87	23.32	9.79	
2025-01-07 15:43:23.08	23.27	9.79	
2025-01-07 15:43:23.28	23.23	9.78	
2025-01-07 15:43:23.49	23.19	9.78	
2025-01-07 15:43:23.69	23.15	9.78	
2025-01-07 15:43:23.90	23.11	9.77	
2025-01-07 15:43:24.10	23.07	9.77	
2025-01-07 15:43:24.31	23.03	9.77	
2025-01-07 15:43:24.52	22.99	9.77	
2025-01-07 15:43:24.72	22.95	9.76	
2025-01-07 15:43:24.93	22.90	9.76	
2025-01-07 15:43:25.13	22.86	9.76	
2025-01-07 15:43:25.34	22.82	9.75	
2025-01-07 15:43:25.55	22.78	9.75	
2025-01-07 15:43:25.75	22.74	9.75	
2025-01-07 15:43:25.96	22.70	9.74	
2025-01-07 15:43:26.16	22.66	9.74	
2025-01-07 15:43:26.37	22.62	9.74	
2025-01-07 15:43:26.57	22.58	9.73	
2025-01-07 15:43:26.78	22.53	9.73	
2025-01-07 15:43:27.00	22.49	9.73	
2025-01-07 15:43:27.20	22.45	9.72	
2025-01-07 15:43:27.41	22.41	9.72	
2025-01-07 15:43:27.62	22.37	9.72	
2025-01-07 15:43:27.82	22.33	9.71	
2025-01-07 15:43:28.03	22.29	9.71	
2025-01-07 15:43:28.23	22.25	9.71	
2025-01-07 15:43:28.44	22.20	9.70	
2025-01-07 15:43:28.65	22.16	9.70	
2025-01-07 15:43:28.85	22.12	9.70	
2025-01-07 15:43:29.06	22.08	9.69	
2025-01-07 15:43:29.26	22.04	9.69	
2025-01-07 15:43:29.47	22.00	9.69	
2025-01-07 15:43:29.67	21.96	9.68	
2025-01-07 15:43:29.88	21.92	9.68	
2025-01-07 15:43:30.08	21.88	9.68	
2025-01-07 15:43:30.29	21.84	9.67	
2025-01-07 15:43:30.49	21.80	9.67	
2025-01-07 15:43:30.70	21.76	9.67	
2025-01-07 15:43:30.90	21.72	9.66	
2025-01-07 15:43:31.11	21.68	9.66	
2025-01-07 15:43:31.31	21.64	9.65	
2025-01-07 15:43:31.52	21.59	9.65	
2025-01-07 15:43:31.72	21.55	9.65	
2025-01-07 15:43:31.93	21.51	9.64	
2025-01-07 15:43:32.13	21.47	9.64	
2025-01-07 15:43:32.34	21.43	9.64	
2025-01-07 15:43:32.54	21.39	9.63	
2025-01-07 15:43:32.74	21.35	9.63	
2025-01-07 15:43:32.95	21.31	9.63	
2025-01-07 15:43:33.15	21.27	9.62	
2025-01-07 15:43:33.36	21.23	9.62	
2025-01-07 15:43:33.56	21.19	9.62	
2025-01-07 15:43:33.77	21.15	9.61	
2025-01-07 15:43:33.97	21.11	9.61	
2025-01-07 15:43:34.18	21.07	9.60	
2025-01-07 15:43:34.38	21.03	9.60	
2025-01-07 15:43:34.59	20.99	9.60	
2025-01-07 15:43:34.79	20.95	9.59	
2025-01-07 15:43:35.00	20.91	9.59	
2025-01-07 15:43:35.20	20.87	9.59	
2025-01-07 15:43:35.41	20.83	9.58	
2025-01-07 15:43:35.61	20.79	9.58	
2025-01-07 15:43:35.82	20.75	9.57	
2025-01-07 15:43:36.03	20.70	9.57	
2025-01-07 15:43:36.23	20.67	9.57	
2025-01-07 15:43:36.44	20.62	9.56	
2025-01-07 15:43:36.64	20.58	9.56	
2025-01-07 15:43:36.85	20.54	9.55	
2025-01-07 15:43:37.05	20.50	9.55	
2025-01-07 15:43:37.26	20.46	9.55	
2025-01-07 15:43:37.46	20.42	9.54	
2025-01-07 15:43:37.67	20.38	9.54	
2025-01-07 15:43:37.87	20.34	9.54	
2025-01-07 15:43:38.08	20.30	9.53	
2025-01-07 15:43:38.28	20.26	9.53	
2025-01-07 15:43:38.49	20.22	9.52	
2025-01-07 15:43:38.69	20.18	9.52	
2025-01-07 15:43:38.90	20.14	9.52	
2025-01-07 15:43:39.10	20.10	9.51	
2025-01-07 15:43:39.31	20.06	9.51	
2025-01-07 15:43:39.51	20.02	9.50	
2025-01-07 15:43:39.72	19.98	9.50	
2025-01-07 15:43:39.92	19.94	9.50	
2025-01-07 15:43:40.13	19.90	9.49	
2025-01-07 15:43:40.34	19.86	9.49	
2025-01-07 15:43:40.54	19.82	9.48	
2025-01-07 15:43:40.75	19.78	9.48	
2025-01-07 15:43:40.95	19.74	9.48	
2025-01-07 15:43:41.15	19.70	9.47	
2025-01-07 15:43:41.36	19.66	9.47	
2025-01-07 15:43:41.56	19.62	9.46	
2025-01-07 15:43:41.77	19.58	9.46	
2025-01-07 15:43:41.99	19.54	9.45	
2025-01-07 15:43:42.19	19.50	9.45	
2025-01-07 15:43:42.40	19.46	9.45	
2025-01-07 15:43:42.60	19.42	9.44	
2025-01-07 15:43:42.81	19.38	9.44	
2025-01-07 15:43:43.01	19.34	9.43	
2025-01-07 15:43:43.22	19.30	9.43	
2025-01-07 15:43:43.43	19.26	9.42	
2025-01-07 15:43:43.63	19.22	9.42	
2025-01-07 15:43:43.84	19.18	9.42	
2025-01-07 15:43:44.04	19.14	9.41	
2025-01-07 15:43:44.25	19.10	9.41	
2025-01-07 15:43:44.45	19.06	9.40	
2025-01-07 15:43:44.66	19.02	9.40	
2025-01-07 15:43:44.86	18.98	9.39	
2025-01-07 15:43:45.07	18.94	9.39	
2025-01-07 15:43:45.27	18.90	9.39	
2025-01-07 15:43:45.48	18.86	9.38	
2025-01-07 15:43:45.68	18.82	9.38	
2025-01-07 15:43:45.89	18.78	9.37	
2025-01-07 15:43:46.10	18.74	9.37	
2025-01-07 15:43:46.30	18.70	9.36	
2025-01-07 15:43:46.50	18.66	9.36	
2025-01-07 15:43:46.71	18.62	9.36	
2025-01-07 15:43:46.91	18.58	9.35	
2025-01-07 15:43:47.12	18.54	9.35	
2025-01-07 15:43:47.32	18.50	9.34	
2025-01-07 15:43:47.53	18.46	9.34	
2025-01-07 15:43:47.74	18.42	9.33	
2025-01-07 15:43:47.94	18.38	9.33	
2025-01-07 15:43:48.15	18.34	9.32	
2025-01-07 15:43:48.36	18.30	9.32	
2025-01-07 15:43:48.57	18.26	9.31	
2025-01-07 15:43:48.77	18.22	9.31	
2025-01-07 15:43:48.98	18.18	9.31	
2025-01-07 15:43:49.19	18.14	9.30	
2025-01-07 15:43:49.39	18.10	9.30	
2025-01-07 15:43:49.60	18.06	9.29	
2025-01-07 15:43:49.80	18.02	9.29	
2025-01-07 15:43:50.01	17.98	9.28	
2025-01-07 15:43:50.21	17.95	9.28	
2025-01-07 15:43:50.42	17.90	9.27	
2025-01-07 15:43:50.63	17.86	9.27	
2025-01-07 15:43:50.83	17.83	9.26	
2025-01-07 15:43:51.04	17.79	9.26	
2025-01-07 15:43:51.24	17.75	9.25	
2025-01-07 15:43:51.45	17.71	9.25	
2025-01-07 15:43:51.65	17.67	9.25	
2025-01-07 15:43:51.86	17.63	9.24	
2025-01-07 15:43:52.06	17.59	9.24	
2025-01-07 15:43:52.27	17.55	9.23	
2025-01-07 15:43:52.47	17.51	9.23	
2025-01-07 15:43:52.69	17.47	9.22	
2025-01-07 15:43:52.90	17.43	9.22	
2025-01-07 15:43:53.10	17.39	9.21	
2025-01-07 15:43:53.31	17.35	9.21	
2025-01-07 15:43:53.51	17.31	9.20	
2025-01-07 15:43:53.72	17.27	9.20	
2025-01-07 15:43:53.92	17.23	9.19	
2025-01-07 15:43:54.13	17.19	9.19	
2025-01-07 15:43:54.33	17.16	9.18	
2025-01-07 15:43:54.54	17.12	9.18	
2025-01-07 15:43:54.74	17.08	9.17	
2025-01-07 15:43:54.95	17.04	9.17	
2025-01-07 15:43:55.15	17.00	9.16	
2025-01-07 15:43:55.36	16.96	9.16	
2025-01-07 15:43:55.56	16.92	9.15	
2025-01-07 15:43:55.77	16.88	9.15	
2025-01-07 15:43:55.97	16.84	9.14	
2025-01-07 15:43:56.18	16.80	9.14	
2025-01-07 15:43:56.39	16.76	9.13	
2025-01-07 15:43:56.59	16.72	9.13	
2025-01-07 15:43:56.80	16.68	9.12	
2025-01-07 15:43:57.00	16.65	9.12	
2025-01-07 15:43:57.20	16.61	9.11	
2025-01-07 15:43:57.41	16.57	9.11	
2025-01-07 15:43:57.62	16.53	9.10	
2025-01-07 15:43:57.82	16.49	9.10	
2025-01-07 15:43:58.03	16.45	9.09	
2025-01-07 15:43:58.23	16.41	9.09	
2025-01-07 15:43:58.44	16.37	9.08	
2025-01-07 15:43:58.64	16.34	9.08	
2025-01-07 15:43:58.85	16.30	9.07	
2025-01-07 15:43:59.05	16.26	9.07	
2025-01-07 15:43:59.26	16.22	9.06	
2025-01-07 15:43:59.46	16.18	9.06	
2025-01-07 15:43:59.67	16.14	9.05	
2025-01-07 15:43:59.87	16.10	9.05	
2025-01-07 15:44:00.08	16.06	9.04	
2025-01-07 15:44:00.28	16.03	9.04	
2025-01-07 15:44:00.49	15.99	9.03	
2025-01-07 15:44:00.69	15.95	9.03	
2025-01-07 15:44:00.90	15.91	9.02	
2025-01-07 15:44:01.10	15.87	9.02	
2025-01-07 15:44:01.31	15.83	9.01	
2025-01-07 15:44:01.51	15.79	9.01	
2025-01-07 15:44:01.72	15.75	9.00	
2025-01-07 15:44:01.92	15.72	9.00	
2025-01-07 15:44:02.13	15.68	8.99	
2025-01-07 15:44:02.33	15.64	8.99	
2025-01-07 15:44:02.54	15.60	8.98	
2025-01-07 15:44:02.74	15.56	8.97	
2025-01-07 15:44:02.95	15.52	8.97	
2025-01-07 15:44:03.15	15.48	8.96	
2025-01-07 15:44:03.36	15.44	8.96	
2025-01-07 15:44:03.56	15.41	8.95	
2025-01-07 15:44:03.77	15.37	8.95	
2025-01-07 15:44:03.97	15.33	8.94	
2025-01-07 15:44:04.18	15.29	8.94	
2025-01-07 15:44:04.38	15.25	8.93	
2025-01-07 15:44:04.59	15.21	8.93	
2025-01-07 15:44:04.79	15.18	8.92	
2025-01-07 15:44:05.00	15.14	8.92	
2025-01-07 15:44:05.21	15.10	8.91	
2025-01-07 15:44:05.41	15.06	8.90	
2025-01-07 15:44:05.62	15.02	8.90	
2025-01-07 15:44:05.82	14.98	8.89	
2025-01-07 15:44:06.03	14.94	8.89	
2025-01-07 15:44:06.24	14.91	8.88	
2025-01-07 15:44:06.44	14.87	8.88	
2025-01-07 15:44:06.65	14.83	8.87	
2025-01-07 15:44:06.85	14.79	8.87	
2025-01-07 15:44:07.06	14.75	8.86	
2025-01-07 15:44:07.27	14.71	8.86	
2025-01-07 15:44:07.47	14.68	8.85	
2025-01-07 15:44:07.67	14.64	8.84	
2025-01-07 15:44:07.88	14.60	8.84	
2025-01-07 15:44:08.08	14.56	8.83	
2025-01-07 15:44:08.29	14.52	8.83	
2025-01-07 15:44:08.50	14.48	8.82	
2025-01-07 15:44:08.71	14.45	8.82	
2025-01-07 15:44:08.92	14.41	8.81	
2025-01-07 15:44:09.12	14.37	8.81	
2025-01-07 15:44:09.33	14.33	8.80	
2025-01-07 15:44:09.53	14.29	8.79	
2025-01-07 15:44:09.74	14.25	8.79	
2025-01-07 15:44:09.94	14.22	8.78	
2025-01-07 15:44:10.15	14.18	8.78	
2025-01-07 15:44:10.36	14.14	8.77	
2025-01-07 15:44:10.56	14.10	8.77	
2025-01-07 15:44:10.77	14.06	8.76	
2025-01-07 15:44:10.97	14.03	8.75	
2025-01-07 15:44:11.18	13.99	8.75	
2025-01-07 15:44:11.38	13.95	8.74	
2025-01-07 15:44:11.59	13.91	8.74	
2025-01-07 15:44:11.79	13.88	8.73	
2025-01-07 15:44:12.00	13.84	8.73	
2025-01-07 15:44:12.20	13.80	8.72	
2025-01-07 15:44:12.40	13.76	8.71	
2025-01-07 15:44:12.61	13.72	8.71	
2025-01-07 15:44:12.81	13.69	8.70	
2025-01-07 15:44:13.02	13.65	8.70	
2025-01-07 15:44:13.23	13.61	8.69	
2025-01-07 15:44:13.43	13.57	8.69	
2025-01-07 15:44:13.64	13.53	8.68	
2025-01-07 15:44:13.84	13.50	8.67	
2025-01-07 15:44:14.05	13.46	8.67	
2025-01-07 15:44:14.25	13.42	8.66	
2025-01-07 15:44:14.46	13.38	8.66	
2025-01-07 15:44:14.66	13.35	8.65	
2025-01-07 15:44:14.87	13.31	8.64	
2025-01-07 15:44:15.07	13.27	8.64	
2025-01-07 15:44:15.27	13.24	8.63	
2025-01-07 15:44:15.48	13.20	8.63	
2025-01-07 15:44:15.69	13.16	8.62	
2025-01-07 15:44:15.89	13.12	8.61	
2025-01-07 15:44:16.09	13.09	8.61	
2025-01-07 15:44:16.30	13.05	8.60	
2025-01-07 15:44:16.51	13.01	8.60	
2025-01-07 15:44:16.71	12.97	8.59	
2025-01-07 15:44:16.92	12.93	8.58	
2025-01-07 15:44:17.12	12.90	8.58	
2025-01-07 15:44:17.33	12.86	8.57	
2025-01-07 15:44:17.53	12.82	8.57	
2025-01-07 15:44:17.74	12.78	8.56	
2025-01-07 15:44:17.95	12.75	8.55	
2025-01-07 15:44:18.15	12.71	8.55	
2025-01-07 15:44:18.36	12.67	8.54	
2025-01-07 15:44:18.56	12.63	8.54	
2025-01-07 15:44:18.76	12.60	8.53	
2025-01-07 15:44:18.97	12.56	8.52	
2025-01-07 15:44:19.17	12.52	8.52	
2025-01-07 15:44:19.38	12.49	8.51	
2025-01-07 15:44:19.58	12.45	8.51	
2025-01-07 15:44:19.79	12.41	8.50	
2025-01-07 15:44:20.00	12.37	8.49	
2025-01-07 15:44:20.20	12.34	8.49	
2025-01-07 15:44:20.41	12.30	8.48	
2025-01-07 15:44:20.61	12.26	8.48	
2025-01-07 15:44:20.82	12.22	8.47	
2025-01-07 15:44:21.02	12.19	8.46	
2025-01-07 15:44:21.23	12.15	8.46	
2025-01-07 15:44:21.43	12.11	8.45	
2025-01-07 15:44:21.64	12.08	8.44	
2025-01-07 15:44:21.84	12.04	8.44	
2025-01-07 15:44:22.05	12.00	8.43	
2025-01-07 15:44:22.25	11.97	8.43	
2025-01-07 15:44:22.46	11.93	8.42	
2025-01-07 15:44:22.66	11.89	8.41	
2025-01-07 15:44:22.87	11.85	8.41	
2025-01-07 15:44:23.07	11.82	8.40	
2025-01-07 15:44:23.28	11.78	8.40	
2025-01-07 15:44:23.49	11.74	8.39	
2025-01-07 15:44:23.69	11.71	8.38	
2025-01-07 15:44:23.89	11.67	8.38	
2025-01-07 15:44:24.10	11.63	8.37	
2025-01-07 15:44:24.31	11.60	8.36	
2025-01-07 15:44:24.51	11.56	8.36	
2025-01-07 15:44:24.72	11.52	8.35	
2025-01-07 15:44:24.92	11.49	8.34	
2025-01-07 15:44:25.13	11.45	8.34	
2025-01-07 15:44:25.33	11.41	8.33	
2025-01-07 15:44:25.54	11.38	8.33	
2025-01-07 15:44:25.74	11.34	8.32	
2025-01-07 15:44:25.95	11.30	8.31	
2025-01-07 15:44:26.15	11.27	8.31	
2025-01-07 15:44:26.36	11.23	8.30	
2025-01-07 15:44:26.56	11.19	8.29	
2025-01-07 15:44:26.76	11.16	8.29	
2025-01-07 15:44:26.97	11.12	8.28	
2025-01-07 15:44:27.18	11.08	8.27	
2025-01-07 15:44:27.38	11.05	8.27	
2025-01-07 15:44:27.59	11.01	8.26	
2025-01-07 15:44:27.79	10.97	8.26	
2025-01-07 15:44:28.00	10.94	8.25	
2025-01-07 15:44:28.21	10.90	8.24	
2025-01-07 15:44:28.41	10.86	8.24	
2025-01-07 15:44:28.62	10.83	8.23	
2025-01-07 15:44:28.82	10.79	8.22	
2025-01-07 15:44:29.03	10.75	8.22	
2025-01-07 15:44:29.23	10.72	8.21	
2025-01-07 15:44:29.44	10.68	8.20	
2025-01-07 15:44:29.64	10.64	8.20	
2025-01-07 15:44:29.85	10.61	8.19	
2025-01-07 15:44:30.05	10.57	8.18	
2025-01-07 15:44:30.26	10.54	8.18	
2025-01-07 15:44:30.46	10.50	8.17	
2025-01-07 15:44:30.67	10.46	8.16	
2025-01-07 15:44:30.88	10.43	8.16	
2025-01-07 15:44:31.08	10.39	8.15	
2025-01-07 15:44:31.28	10.35	8.14	
2025-01-07 15:44:31.49	10.32	8.14	
2025-01-07 15:44:31.70	10.28	8.13	
2025-01-07 15:44:31.90	10.25	8.12	
2025-01-07 15:44:32.10	10.21	8.12	
2025-01-07 15:44:32.31	10.17	8.11	
2025-01-07 15:44:32.51	10.14	8.11	
2025-01-07 15:44:32.72	10.10	8.10	
2025-01-07 15:44:32.92	10.07	8.09	
2025-01-07 15:44:33.13	10.03	8.08	
2025-01-07 15:44:33.33	9.99	8.08	
2025-01-07 15:44:33.54	9.96	8.07	
2025-01-07 15:44:33.75	9.92	8.06	
2025-01-07 15:44:33.95	9.88	8.06	
2025-01-07 15:44:34.16	9.85	8.05	
2025-01-07 15:44:34.36	9.81	8.04	
2025-01-07 15:44:34.57	9.78	8.04	
2025-01-07 15:44:34.77	9.74	8.03	
2025-01-07 15:44:34.98	9.70	8.02	
2025-01-07 15:44:35.18	9.67	8.02	
2025-01-07 15:44:35.39	9.63	8.01	
2025-01-07 15:44:35.59	9.60	8.00	
2025-01-07 15:44:35.80	9.56	8.00	
2025-01-07 15:44:36.00	9.53	7.99	
2025-01-07 15:44:36.21	9.49	7.98	
2025-01-07 15:44:36.41	9.45	7.98	
2025-01-07 15:44:36.62	9.42	7.97	
2025-01-07 15:44:36.83	9.38	7.96	
2025-01-07 15:44:37.03	9.35	7.96	
2025-01-07 15:44:37.24	9.31	7.95	
2025-01-07 15:44:37.44	9.28	7.94	
2025-01-07 15:44:37.64	9.24	7.94	
2025-01-07 15:44:37.85	9.20	7.93	
2025-01-07 15:44:38.06	9.17	7.92	
2025-01-07 15:44:38.26	9.13	7.92	
2025-01-07 15:44:38.47	9.10	7.91	
2025-01-07 15:44:38.67	9.06	7.90	
2025-01-07 15:44:38.88	9.03	7.89	
2025-01-07 15:44:39.08	8.99	7.89	
2025-01-07 15:44:39.29	8.95	7.88	
2025-01-07 15:44:39.49	8.92	7.87	
2025-01-07 15:44:39.71	8.88	7.87	
2025-01-07 15:44:39.92	8.85	7.86	
2025-01-07 15:44:40.12	8.81	7.85	
2025-01-07 15:44:40.33	8.77	7.85	
2025-01-07 15:44:40.54	8.74	7.84	
2025-01-07 15:44:40.74	8.70	7.83	
2025-01-07 15:44:40.94	8.67	7.83	
2025-01-07 15:44:41.15	8.63	7.82	
2025-01-07 15:44:41.35	8.60	7.81	
2025-01-07 15:44:41.56	8.56	7.80	
2025-01-07 15:44:41.76	8.53	7.80	
2025-01-07 15:44:41.97	8.49	7.79	
2025-01-07 15:44:42.18	8.46	7.78	
2025-01-07 15:44:42.38	8.42	7.78	
2025-01-07 15:44:42.59	8.39	7.77	
2025-01-07 15:44:42.79	8.35	7.76	
2025-01-07 15:44:43.00	8.32	7.76	
2025-01-07 15:44:43.20	8.28	7.75	
2025-01-07 15:44:43.41	8.25	7.74	
2025-01-07 15:44:43.61	8.21	7.73	
2025-01-07 15:44:43.81	8.18	7.73	
2025-01-07 15:44:44.02	8.14	7.72	
2025-01-07 15:44:44.23	8.11	7.71	
2025-01-07 15:44:44.43	8.07	7.71	
2025-01-07 15:44:44.64	8.04	7.70	
2025-01-07 15:44:44.84	8.00	7.69	
2025-01-07 15:44:45.05	7.97	7.68	
2025-01-07 15:44:45.25	7.93	7.68	
2025-01-07 15:44:45.46	7.90	7.67	
2025-01-07 15:44:45.66	7.86	7.66	
2025-01-07 15:44:45.87	7.83	7.66	
2025-01-07 15:44:46.07	7.79	7.65	
2025-01-07 15:44:46.28	7.76	7.64	
2025-01-07 15:44:46.48	7.72	7.63	
2025-01-07 15:44:46.69	7.69	7.63	
2025-01-07 15:44:46.89	7.65	7.62	
2025-01-07 15:44:47.11	7.61	7.61	
2025-01-07 15:44:47.31	7.58	7.61	
2025-01-07 15:44:47.52	7.55	7.60	
2025-01-07 15:44:47.72	7.51	7.59	
2025-01-07 15:44:47.93	7.48	7.58	
2025-01-07 15:44:48.13	7.44	7.58	
