passes_logs/2025/01/07/SPB_Silybum_02/SPB_Silybum_02__20250107_123917_SUOMI_NPP_rec.log

#Pass ID: 20250107_123917_SUOMI NPP
#Satellite: SUOMI NPP
#Configuration: NPP
#Start time: 2025-01-07 12:39:17

#Version: 2.0.20230423
#Station: SPB_Silybum_02
#Location: 30.233357 lon 59.946436 lat
#TLE: 1 37849U 11061A   25006.81407247  .00000291  00000+0  15897-3 0  9990
#TLE: 2 37849  98.7438 307.9068 0001960  53.3600 306.7756 14.19534214683755

#Time	Az	El	Level	Level2	SNR	BER	Gain	Gain2
2025-01-07 12:39:19.99	235.23	4.13	
2025-01-07 12:39:20.19	235.25	4.14	
2025-01-07 12:39:20.41	235.27	4.15	
2025-01-07 12:39:20.61	235.30	4.16	
2025-01-07 12:39:20.82	235.32	4.17	
2025-01-07 12:39:21.02	235.34	4.18	
2025-01-07 12:39:21.23	235.36	4.19	
2025-01-07 12:39:21.43	235.39	4.20	
2025-01-07 12:39:21.63	235.41	4.20	
2025-01-07 12:39:21.85	235.43	4.21	
2025-01-07 12:39:22.07	235.46	4.22	
2025-01-07 12:39:22.27	235.48	4.23	
2025-01-07 12:39:22.47	235.50	4.24	
2025-01-07 12:39:22.68	235.53	4.25	
2025-01-07 12:39:22.90	235.55	4.26	
2025-01-07 12:39:23.11	235.57	4.27	
2025-01-07 12:39:23.33	235.60	4.28	
2025-01-07 12:39:23.53	235.62	4.29	
2025-01-07 12:39:23.75	235.65	4.30	
2025-01-07 12:39:23.95	235.67	4.31	
2025-01-07 12:39:24.16	235.69	4.32	
2025-01-07 12:39:24.37	235.72	4.33	
2025-01-07 12:39:24.58	235.74	4.34	
2025-01-07 12:39:24.80	235.76	4.35	
2025-01-07 12:39:25.00	235.79	4.36	
2025-01-07 12:39:25.20	235.81	4.37	
2025-01-07 12:39:25.42	235.83	4.38	
2025-01-07 12:39:25.62	235.86	4.39	
2025-01-07 12:39:25.83	235.88	4.40	
2025-01-07 12:39:26.03	235.90	4.41	
2025-01-07 12:39:26.23	235.92	4.42	
2025-01-07 12:39:26.44	235.95	4.43	
2025-01-07 12:39:26.65	235.97	4.44	
2025-01-07 12:39:26.86	236.00	4.44	
2025-01-07 12:39:27.08	236.02	4.45	
2025-01-07 12:39:27.29	236.04	4.46	
2025-01-07 12:39:27.50	236.07	4.47	
2025-01-07 12:39:27.72	236.09	4.48	
2025-01-07 12:39:27.93	236.12	4.49	
2025-01-07 12:39:28.13	236.14	4.50	
2025-01-07 12:39:28.34	236.16	4.51	
2025-01-07 12:39:28.54	236.19	4.52	
2025-01-07 12:39:28.74	236.21	4.53	
2025-01-07 12:39:28.95	236.23	4.54	
2025-01-07 12:39:29.15	236.26	4.55	
2025-01-07 12:39:29.35	236.28	4.56	
2025-01-07 12:39:29.55	236.30	4.57	
2025-01-07 12:39:29.77	236.33	4.58	
2025-01-07 12:39:29.99	236.35	4.59	
2025-01-07 12:39:30.20	236.37	4.60	
2025-01-07 12:39:30.42	236.40	4.61	
2025-01-07 12:39:30.64	236.43	4.62	
2025-01-07 12:39:30.86	236.45	4.63	
2025-01-07 12:39:31.07	236.47	4.64	
2025-01-07 12:39:31.28	236.50	4.65	
2025-01-07 12:39:31.49	236.52	4.66	
2025-01-07 12:39:31.71	236.55	4.67	
2025-01-07 12:39:31.92	236.57	4.68	
2025-01-07 12:39:32.13	236.60	4.69	
2025-01-07 12:39:32.35	236.62	4.70	
2025-01-07 12:39:32.55	236.64	4.71	
2025-01-07 12:39:32.77	236.67	4.72	
2025-01-07 12:39:32.97	236.69	4.72	
2025-01-07 12:39:33.18	236.72	4.73	
2025-01-07 12:39:33.40	236.74	4.74	
2025-01-07 12:39:33.61	236.77	4.75	
2025-01-07 12:39:33.83	236.79	4.76	
2025-01-07 12:39:34.03	236.81	4.77	
2025-01-07 12:39:34.25	236.84	4.78	
2025-01-07 12:39:34.45	236.86	4.79	
2025-01-07 12:39:34.65	236.89	4.80	
2025-01-07 12:39:34.86	236.91	4.81	
2025-01-07 12:39:35.07	236.93	4.82	
2025-01-07 12:39:35.27	236.96	4.83	
2025-01-07 12:39:35.47	236.98	4.84	
2025-01-07 12:39:35.67	237.00	4.85	
2025-01-07 12:39:35.88	237.03	4.86	
2025-01-07 12:39:36.08	237.05	4.87	
2025-01-07 12:39:36.29	237.08	4.88	
2025-01-07 12:39:36.49	237.10	4.89	
2025-01-07 12:39:36.69	237.12	4.90	
2025-01-07 12:39:36.90	237.15	4.90	
2025-01-07 12:39:37.10	237.17	4.91	
2025-01-07 12:39:37.30	237.19	4.92	
2025-01-07 12:39:37.51	237.22	4.93	
2025-01-07 12:39:37.71	237.24	4.94	
2025-01-07 12:39:37.91	237.27	4.95	
2025-01-07 12:39:38.12	237.29	4.96	
2025-01-07 12:39:38.32	237.31	4.97	
2025-01-07 12:39:38.52	237.34	4.98	
2025-01-07 12:39:38.72	237.36	4.99	
2025-01-07 12:39:38.94	237.39	5.00	
2025-01-07 12:39:39.16	237.41	5.01	
2025-01-07 12:39:39.36	237.43	5.02	
2025-01-07 12:39:39.56	237.46	5.03	
2025-01-07 12:39:39.78	237.48	5.04	
2025-01-07 12:39:39.98	237.51	5.05	
2025-01-07 12:39:40.18	237.53	5.05	
2025-01-07 12:39:40.38	237.55	5.06	
2025-01-07 12:39:40.59	237.58	5.07	
2025-01-07 12:39:40.79	237.60	5.08	
2025-01-07 12:39:40.99	237.63	5.09	
2025-01-07 12:39:41.19	237.65	5.10	
2025-01-07 12:39:41.40	237.68	5.11	
2025-01-07 12:39:41.60	237.70	5.12	
2025-01-07 12:39:41.80	237.72	5.13	
2025-01-07 12:39:42.01	237.75	5.14	
2025-01-07 12:39:42.21	237.77	5.15	
2025-01-07 12:39:42.41	237.79	5.16	
2025-01-07 12:39:42.61	237.82	5.17	
2025-01-07 12:39:42.81	237.84	5.17	
2025-01-07 12:39:43.02	237.87	5.18	
2025-01-07 12:39:43.23	237.89	5.19	
2025-01-07 12:39:43.44	237.92	5.20	
2025-01-07 12:39:43.64	237.94	5.21	
2025-01-07 12:39:43.86	237.97	5.22	
2025-01-07 12:39:44.06	237.99	5.23	
2025-01-07 12:39:44.28	238.02	5.24	
2025-01-07 12:39:44.50	238.04	5.25	
2025-01-07 12:39:44.70	238.07	5.26	
2025-01-07 12:39:44.90	238.09	5.27	
2025-01-07 12:39:45.11	238.12	5.28	
2025-01-07 12:39:45.31	238.14	5.29	
2025-01-07 12:39:45.52	238.16	5.30	
2025-01-07 12:39:45.72	238.19	5.31	
2025-01-07 12:39:45.94	238.21	5.32	
2025-01-07 12:39:46.14	238.24	5.33	
2025-01-07 12:39:46.36	238.26	5.34	
2025-01-07 12:39:46.57	238.29	5.35	
2025-01-07 12:39:46.79	238.32	5.36	
2025-01-07 12:39:46.99	238.34	5.37	
2025-01-07 12:39:47.20	238.37	5.37	
2025-01-07 12:39:47.40	238.39	5.38	
2025-01-07 12:39:47.60	238.41	5.39	
2025-01-07 12:39:47.81	238.44	5.40	
2025-01-07 12:39:48.02	238.46	5.41	
2025-01-07 12:39:48.24	238.49	5.42	
2025-01-07 12:39:48.44	238.51	5.43	
2025-01-07 12:39:48.65	238.54	5.44	
2025-01-07 12:39:48.85	238.56	5.45	
2025-01-07 12:39:49.07	238.59	5.46	
2025-01-07 12:39:49.28	238.62	5.47	
2025-01-07 12:39:49.50	238.64	5.48	
2025-01-07 12:39:49.72	238.67	5.49	
2025-01-07 12:39:49.92	238.69	5.50	
2025-01-07 12:39:50.14	238.72	5.51	
2025-01-07 12:39:50.36	238.75	5.52	
2025-01-07 12:39:50.58	238.77	5.53	
2025-01-07 12:39:50.78	238.80	5.54	
2025-01-07 12:39:51.00	238.82	5.55	
2025-01-07 12:39:51.21	238.85	5.56	
2025-01-07 12:39:51.42	238.88	5.57	
2025-01-07 12:39:51.62	238.90	5.58	
2025-01-07 12:39:51.82	238.92	5.58	
2025-01-07 12:39:52.03	238.95	5.59	
2025-01-07 12:39:52.23	238.97	5.60	
2025-01-07 12:39:52.44	239.00	5.61	
2025-01-07 12:39:52.64	239.02	5.62	
2025-01-07 12:39:52.85	239.05	5.63	
2025-01-07 12:39:53.05	239.07	5.64	
2025-01-07 12:39:53.26	239.10	5.65	
2025-01-07 12:39:53.46	239.12	5.66	
2025-01-07 12:39:53.67	239.15	5.67	
2025-01-07 12:39:53.87	239.18	5.68	
2025-01-07 12:39:54.08	239.20	5.69	
2025-01-07 12:39:54.28	239.23	5.70	
2025-01-07 12:39:54.48	239.25	5.71	
2025-01-07 12:39:54.69	239.28	5.71	
2025-01-07 12:39:54.90	239.30	5.72	
2025-01-07 12:39:55.10	239.33	5.73	
2025-01-07 12:39:55.31	239.35	5.74	
2025-01-07 12:39:55.51	239.38	5.75	
2025-01-07 12:39:55.71	239.40	5.76	
2025-01-07 12:39:55.92	239.43	5.77	
2025-01-07 12:39:56.12	239.45	5.78	
2025-01-07 12:39:56.33	239.48	5.79	
2025-01-07 12:39:56.53	239.50	5.80	
2025-01-07 12:39:56.74	239.53	5.81	
2025-01-07 12:39:56.94	239.55	5.82	
2025-01-07 12:39:57.15	239.58	5.83	
2025-01-07 12:39:57.36	239.61	5.84	
2025-01-07 12:39:57.56	239.63	5.84	
2025-01-07 12:39:57.76	239.65	5.85	
2025-01-07 12:39:57.97	239.68	5.86	
2025-01-07 12:39:58.17	239.71	5.87	
2025-01-07 12:39:58.38	239.73	5.88	
2025-01-07 12:39:58.58	239.76	5.89	
2025-01-07 12:39:58.79	239.78	5.90	
2025-01-07 12:39:58.99	239.81	5.91	
2025-01-07 12:39:59.20	239.83	5.92	
2025-01-07 12:39:59.40	239.86	5.93	
2025-01-07 12:39:59.61	239.88	5.94	
2025-01-07 12:39:59.81	239.91	5.95	
2025-01-07 12:40:00.02	239.94	5.96	
2025-01-07 12:40:00.22	239.96	5.96	
2025-01-07 12:40:00.43	239.99	5.97	
2025-01-07 12:40:00.63	240.01	5.98	
2025-01-07 12:40:00.83	240.04	5.99	
2025-01-07 12:40:01.04	240.06	6.00	
2025-01-07 12:40:01.24	240.09	6.01	
2025-01-07 12:40:01.45	240.11	6.02	
2025-01-07 12:40:01.65	240.14	6.03	
2025-01-07 12:40:01.86	240.17	6.04	
2025-01-07 12:40:02.06	240.19	6.05	
2025-01-07 12:40:02.27	240.22	6.06	
2025-01-07 12:40:02.48	240.24	6.07	
2025-01-07 12:40:02.68	240.27	6.08	
2025-01-07 12:40:02.89	240.30	6.08	
2025-01-07 12:40:03.09	240.32	6.09	
2025-01-07 12:40:03.30	240.35	6.10	
2025-01-07 12:40:03.50	240.37	6.11	
2025-01-07 12:40:03.71	240.40	6.12	
2025-01-07 12:40:03.93	240.43	6.13	
2025-01-07 12:40:04.13	240.45	6.14	
2025-01-07 12:40:04.34	240.48	6.15	
2025-01-07 12:40:04.54	240.50	6.16	
2025-01-07 12:40:04.75	240.53	6.17	
2025-01-07 12:40:04.95	240.56	6.18	
2025-01-07 12:40:05.16	240.58	6.19	
2025-01-07 12:40:05.36	240.61	6.20	
2025-01-07 12:40:05.57	240.63	6.21	
2025-01-07 12:40:05.77	240.66	6.21	
2025-01-07 12:40:05.98	240.69	6.22	
2025-01-07 12:40:06.18	240.71	6.23	
2025-01-07 12:40:06.39	240.74	6.24	
2025-01-07 12:40:06.59	240.76	6.25	
2025-01-07 12:40:06.80	240.79	6.26	
2025-01-07 12:40:07.01	240.82	6.27	
2025-01-07 12:40:07.21	240.84	6.28	
2025-01-07 12:40:07.42	240.87	6.29	
2025-01-07 12:40:07.62	240.90	6.30	
2025-01-07 12:40:07.83	240.92	6.31	
2025-01-07 12:40:08.03	240.95	6.32	
2025-01-07 12:40:08.24	240.97	6.33	
2025-01-07 12:40:08.44	241.00	6.33	
2025-01-07 12:40:08.65	241.03	6.34	
2025-01-07 12:40:08.86	241.05	6.35	
2025-01-07 12:40:09.06	241.08	6.36	
2025-01-07 12:40:09.27	241.11	6.37	
2025-01-07 12:40:09.48	241.13	6.38	
2025-01-07 12:40:09.69	241.16	6.39	
2025-01-07 12:40:09.90	241.19	6.40	
2025-01-07 12:40:10.10	241.21	6.41	
2025-01-07 12:40:10.31	241.24	6.42	
2025-01-07 12:40:10.53	241.27	6.43	
2025-01-07 12:40:10.73	241.29	6.44	
2025-01-07 12:40:10.94	241.32	6.45	
2025-01-07 12:40:11.14	241.35	6.46	
2025-01-07 12:40:11.35	241.37	6.46	
2025-01-07 12:40:11.55	241.40	6.47	
2025-01-07 12:40:11.76	241.43	6.48	
2025-01-07 12:40:11.96	241.45	6.49	
2025-01-07 12:40:12.17	241.48	6.50	
2025-01-07 12:40:12.38	241.51	6.51	
2025-01-07 12:40:12.60	241.54	6.52	
2025-01-07 12:40:12.80	241.56	6.53	
2025-01-07 12:40:13.01	241.59	6.54	
2025-01-07 12:40:13.21	241.61	6.55	
2025-01-07 12:40:13.42	241.64	6.56	
2025-01-07 12:40:13.63	241.67	6.57	
2025-01-07 12:40:13.84	241.70	6.58	
2025-01-07 12:40:14.05	241.72	6.58	
2025-01-07 12:40:14.25	241.75	6.59	
2025-01-07 12:40:14.46	241.78	6.60	
2025-01-07 12:40:14.66	241.80	6.61	
2025-01-07 12:40:14.86	241.83	6.62	
2025-01-07 12:40:15.07	241.86	6.63	
2025-01-07 12:40:15.28	241.88	6.64	
2025-01-07 12:40:15.48	241.91	6.65	
2025-01-07 12:40:15.69	241.94	6.66	
2025-01-07 12:40:15.89	241.96	6.67	
2025-01-07 12:40:16.09	241.99	6.68	
2025-01-07 12:40:16.30	242.02	6.68	
2025-01-07 12:40:16.51	242.05	6.69	
2025-01-07 12:40:16.71	242.07	6.70	
2025-01-07 12:40:16.93	242.10	6.71	
2025-01-07 12:40:17.14	242.13	6.72	
2025-01-07 12:40:17.34	242.15	6.73	
2025-01-07 12:40:17.55	242.18	6.74	
2025-01-07 12:40:17.75	242.21	6.75	
2025-01-07 12:40:17.97	242.24	6.76	
2025-01-07 12:40:18.18	242.26	6.77	
2025-01-07 12:40:18.38	242.29	6.78	
2025-01-07 12:40:18.59	242.32	6.79	
2025-01-07 12:40:18.80	242.35	6.80	
2025-01-07 12:40:19.00	242.37	6.80	
2025-01-07 12:40:19.20	242.40	6.81	
2025-01-07 12:40:19.41	242.43	6.82	
2025-01-07 12:40:19.61	242.45	6.83	
2025-01-07 12:40:19.82	242.48	6.84	
2025-01-07 12:40:20.03	242.51	6.85	
2025-01-07 12:40:20.23	242.54	6.86	
2025-01-07 12:40:20.44	242.56	6.87	
2025-01-07 12:40:20.64	242.59	6.88	
2025-01-07 12:40:20.85	242.62	6.89	
2025-01-07 12:40:21.05	242.64	6.90	
2025-01-07 12:40:21.26	242.67	6.90	
2025-01-07 12:40:21.46	242.70	6.91	
2025-01-07 12:40:21.67	242.73	6.92	
2025-01-07 12:40:21.87	242.75	6.93	
2025-01-07 12:40:22.08	242.78	6.94	
2025-01-07 12:40:22.30	242.81	6.95	
2025-01-07 12:40:22.50	242.84	6.96	
2025-01-07 12:40:22.71	242.87	6.97	
2025-01-07 12:40:22.91	242.89	6.98	
2025-01-07 12:40:23.12	242.92	6.99	
2025-01-07 12:40:23.32	242.95	7.00	
2025-01-07 12:40:23.53	242.97	7.00	
2025-01-07 12:40:23.73	243.00	7.01	
2025-01-07 12:40:23.94	243.03	7.02	
2025-01-07 12:40:24.15	243.06	7.03	
2025-01-07 12:40:24.36	243.09	7.04	
2025-01-07 12:40:24.58	243.12	7.05	
2025-01-07 12:40:24.78	243.14	7.06	
2025-01-07 12:40:24.99	243.17	7.07	
2025-01-07 12:40:25.19	243.20	7.08	
2025-01-07 12:40:25.40	243.23	7.09	
2025-01-07 12:40:25.61	243.25	7.10	
2025-01-07 12:40:25.81	243.28	7.11	
2025-01-07 12:40:26.02	243.31	7.11	
2025-01-07 12:40:26.23	243.34	7.12	
2025-01-07 12:40:26.44	243.37	7.13	
2025-01-07 12:40:26.65	243.39	7.14	
2025-01-07 12:40:26.85	243.42	7.15	
2025-01-07 12:40:27.06	243.45	7.16	
2025-01-07 12:40:27.26	243.48	7.17	
2025-01-07 12:40:27.47	243.51	7.18	
2025-01-07 12:40:27.67	243.53	7.19	
2025-01-07 12:40:27.88	243.56	7.20	
2025-01-07 12:40:28.08	243.59	7.20	
2025-01-07 12:40:28.29	243.62	7.21	
2025-01-07 12:40:28.49	243.64	7.22	
2025-01-07 12:40:28.70	243.67	7.23	
2025-01-07 12:40:28.91	243.70	7.24	
2025-01-07 12:40:29.11	243.73	7.25	
2025-01-07 12:40:29.32	243.76	7.26	
2025-01-07 12:40:29.52	243.78	7.27	
2025-01-07 12:40:29.73	243.81	7.28	
2025-01-07 12:40:29.93	243.84	7.29	
2025-01-07 12:40:30.14	243.87	7.29	
2025-01-07 12:40:30.34	243.90	7.30	
2025-01-07 12:40:30.55	243.92	7.31	
2025-01-07 12:40:30.77	243.95	7.32	
2025-01-07 12:40:30.97	243.98	7.33	
2025-01-07 12:40:31.18	244.01	7.34	
2025-01-07 12:40:31.38	244.04	7.35	
2025-01-07 12:40:31.59	244.07	7.36	
2025-01-07 12:40:31.79	244.09	7.37	
2025-01-07 12:40:32.00	244.12	7.38	
2025-01-07 12:40:32.20	244.15	7.38	
2025-01-07 12:40:32.41	244.18	7.39	
2025-01-07 12:40:32.61	244.21	7.40	
2025-01-07 12:40:32.82	244.23	7.41	
2025-01-07 12:40:33.02	244.26	7.42	
2025-01-07 12:40:33.23	244.29	7.43	
2025-01-07 12:40:33.43	244.32	7.44	
2025-01-07 12:40:33.64	244.35	7.45	
2025-01-07 12:40:33.85	244.38	7.46	
2025-01-07 12:40:34.05	244.40	7.47	
2025-01-07 12:40:34.26	244.43	7.47	
2025-01-07 12:40:34.46	244.46	7.48	
2025-01-07 12:40:34.67	244.49	7.49	
2025-01-07 12:40:34.87	244.52	7.50	
2025-01-07 12:40:35.08	244.55	7.51	
2025-01-07 12:40:35.28	244.57	7.52	
2025-01-07 12:40:35.49	244.60	7.53	
2025-01-07 12:40:35.70	244.63	7.54	
2025-01-07 12:40:35.90	244.66	7.55	
2025-01-07 12:40:36.11	244.69	7.55	
2025-01-07 12:40:36.31	244.72	7.56	
2025-01-07 12:40:36.52	244.75	7.57	
2025-01-07 12:40:36.72	244.77	7.58	
2025-01-07 12:40:36.93	244.80	7.59	
2025-01-07 12:40:37.13	244.83	7.60	
2025-01-07 12:40:37.34	244.86	7.61	
2025-01-07 12:40:37.55	244.89	7.62	
2025-01-07 12:40:37.75	244.92	7.63	
2025-01-07 12:40:37.96	244.95	7.63	
2025-01-07 12:40:38.16	244.97	7.64	
2025-01-07 12:40:38.36	245.00	7.65	
2025-01-07 12:40:38.57	245.03	7.66	
2025-01-07 12:40:38.78	245.06	7.67	
2025-01-07 12:40:38.98	245.09	7.68	
2025-01-07 12:40:39.19	245.12	7.69	
2025-01-07 12:40:39.39	245.15	7.70	
2025-01-07 12:40:39.60	245.18	7.71	
2025-01-07 12:40:39.80	245.20	7.71	
2025-01-07 12:40:40.01	245.23	7.72	
2025-01-07 12:40:40.21	245.26	7.73	
2025-01-07 12:40:40.42	245.29	7.74	
2025-01-07 12:40:40.62	245.32	7.75	
2025-01-07 12:40:40.83	245.35	7.76	
2025-01-07 12:40:41.03	245.38	7.77	
2025-01-07 12:40:41.24	245.41	7.78	
2025-01-07 12:40:41.44	245.43	7.78	
2025-01-07 12:40:41.65	245.46	7.79	
2025-01-07 12:40:41.85	245.49	7.80	
2025-01-07 12:40:42.06	245.52	7.81	
2025-01-07 12:40:42.26	245.55	7.82	
2025-01-07 12:40:42.47	245.58	7.83	
2025-01-07 12:40:42.67	245.61	7.84	
2025-01-07 12:40:42.88	245.64	7.85	
2025-01-07 12:40:43.08	245.67	7.85	
2025-01-07 12:40:43.29	245.70	7.86	
2025-01-07 12:40:43.49	245.72	7.87	
2025-01-07 12:40:43.70	245.75	7.88	
2025-01-07 12:40:43.90	245.78	7.89	
2025-01-07 12:40:44.11	245.81	7.90	
2025-01-07 12:40:44.32	245.84	7.91	
2025-01-07 12:40:44.52	245.87	7.92	
2025-01-07 12:40:44.73	245.90	7.92	
2025-01-07 12:40:44.93	245.93	7.93	
2025-01-07 12:40:45.14	245.96	7.94	
2025-01-07 12:40:45.34	245.99	7.95	
2025-01-07 12:40:45.55	246.02	7.96	
2025-01-07 12:40:45.75	246.04	7.97	
2025-01-07 12:40:45.96	246.07	7.98	
2025-01-07 12:40:46.16	246.10	7.99	
2025-01-07 12:40:46.37	246.13	7.99	
2025-01-07 12:40:46.57	246.16	8.00	
2025-01-07 12:40:46.78	246.19	8.01	
2025-01-07 12:40:46.98	246.22	8.02	
2025-01-07 12:40:47.19	246.25	8.03	
2025-01-07 12:40:47.39	246.28	8.04	
2025-01-07 12:40:47.60	246.31	8.05	
2025-01-07 12:40:47.80	246.34	8.06	
2025-01-07 12:40:48.01	246.37	8.06	
2025-01-07 12:40:48.21	246.40	8.07	
2025-01-07 12:40:48.42	246.43	8.08	
2025-01-07 12:40:48.62	246.46	8.09	
2025-01-07 12:40:48.83	246.49	8.10	
2025-01-07 12:40:49.03	246.51	8.11	
2025-01-07 12:40:49.24	246.55	8.12	
2025-01-07 12:40:49.44	246.57	8.12	
2025-01-07 12:40:49.65	246.60	8.13	
2025-01-07 12:40:49.85	246.63	8.14	
2025-01-07 12:40:50.06	246.66	8.15	
2025-01-07 12:40:50.27	246.69	8.16	
2025-01-07 12:40:50.47	246.72	8.17	
2025-01-07 12:40:50.68	246.75	8.18	
2025-01-07 12:40:50.88	246.78	8.19	
2025-01-07 12:40:51.09	246.81	8.19	
2025-01-07 12:40:51.29	246.84	8.20	
2025-01-07 12:40:51.50	246.87	8.21	
2025-01-07 12:40:51.71	246.90	8.22	
2025-01-07 12:40:51.91	246.93	8.23	
2025-01-07 12:40:52.11	246.96	8.24	
2025-01-07 12:40:52.32	246.99	8.25	
2025-01-07 12:40:52.53	247.02	8.25	
2025-01-07 12:40:52.73	247.05	8.26	
2025-01-07 12:40:52.94	247.08	8.27	
2025-01-07 12:40:53.14	247.11	8.28	
2025-01-07 12:40:53.35	247.14	8.29	
2025-01-07 12:40:53.55	247.17	8.30	
2025-01-07 12:40:53.76	247.20	8.31	
2025-01-07 12:40:53.97	247.23	8.32	
2025-01-07 12:40:54.17	247.26	8.32	
2025-01-07 12:40:54.37	247.29	8.33	
2025-01-07 12:40:54.58	247.32	8.34	
2025-01-07 12:40:54.78	247.35	8.35	
2025-01-07 12:40:54.99	247.38	8.36	
2025-01-07 12:40:55.19	247.41	8.37	
2025-01-07 12:40:55.40	247.44	8.38	
2025-01-07 12:40:55.60	247.47	8.38	
2025-01-07 12:40:55.81	247.50	8.39	
2025-01-07 12:40:56.01	247.53	8.40	
2025-01-07 12:40:56.22	247.56	8.41	
2025-01-07 12:40:56.42	247.59	8.42	
2025-01-07 12:40:56.63	247.62	8.43	
2025-01-07 12:40:56.83	247.65	8.43	
2025-01-07 12:40:57.04	247.68	8.44	
2025-01-07 12:40:57.25	247.71	8.45	
2025-01-07 12:40:57.45	247.74	8.46	
2025-01-07 12:40:57.65	247.77	8.47	
2025-01-07 12:40:57.86	247.80	8.48	
2025-01-07 12:40:58.07	247.83	8.49	
2025-01-07 12:40:58.27	247.86	8.49	
2025-01-07 12:40:58.47	247.89	8.50	
2025-01-07 12:40:58.68	247.92	8.51	
2025-01-07 12:40:58.89	247.95	8.52	
2025-01-07 12:40:59.09	247.98	8.53	
2025-01-07 12:40:59.30	248.01	8.54	
2025-01-07 12:40:59.50	248.04	8.55	
2025-01-07 12:40:59.71	248.07	8.55	
2025-01-07 12:40:59.91	248.10	8.56	
2025-01-07 12:41:00.12	248.14	8.57	
2025-01-07 12:41:00.32	248.17	8.58	
2025-01-07 12:41:00.53	248.20	8.59	
2025-01-07 12:41:00.73	248.23	8.60	
2025-01-07 12:41:00.94	248.26	8.60	
2025-01-07 12:41:01.14	248.29	8.61	
2025-01-07 12:41:01.35	248.32	8.62	
2025-01-07 12:41:01.55	248.35	8.63	
2025-01-07 12:41:01.76	248.38	8.64	
2025-01-07 12:41:01.96	248.41	8.65	
2025-01-07 12:41:02.17	248.44	8.66	
2025-01-07 12:41:02.37	248.47	8.66	
2025-01-07 12:41:02.58	248.50	8.67	
2025-01-07 12:41:02.79	248.53	8.68	
2025-01-07 12:41:02.99	248.56	8.69	
2025-01-07 12:41:03.20	248.59	8.70	
2025-01-07 12:41:03.40	248.62	8.71	
2025-01-07 12:41:03.61	248.66	8.71	
2025-01-07 12:41:03.81	248.69	8.72	
2025-01-07 12:41:04.02	248.72	8.73	
2025-01-07 12:41:04.22	248.75	8.74	
2025-01-07 12:41:04.43	248.78	8.75	
2025-01-07 12:41:04.63	248.81	8.76	
2025-01-07 12:41:04.84	248.84	8.76	
2025-01-07 12:41:05.04	248.87	8.77	
2025-01-07 12:41:05.25	248.90	8.78	
2025-01-07 12:41:05.46	248.93	8.79	
2025-01-07 12:41:05.66	248.96	8.80	
2025-01-07 12:41:05.87	249.00	8.81	
2025-01-07 12:41:06.07	249.03	8.81	
2025-01-07 12:41:06.28	249.06	8.82	
2025-01-07 12:41:06.48	249.09	8.83	
2025-01-07 12:41:06.69	249.12	8.84	
2025-01-07 12:41:06.89	249.15	8.85	
2025-01-07 12:41:07.10	249.18	8.86	
2025-01-07 12:41:07.30	249.21	8.86	
2025-01-07 12:41:07.51	249.24	8.87	
2025-01-07 12:41:07.72	249.28	8.88	
2025-01-07 12:41:07.92	249.31	8.89	
2025-01-07 12:41:08.12	249.34	8.90	
2025-01-07 12:41:08.33	249.37	8.91	
2025-01-07 12:41:08.54	249.40	8.92	
2025-01-07 12:41:08.74	249.43	8.92	
2025-01-07 12:41:08.95	249.46	8.93	
2025-01-07 12:41:09.15	249.49	8.94	
2025-01-07 12:41:09.36	249.52	8.95	
2025-01-07 12:41:09.56	249.55	8.96	
2025-01-07 12:41:09.77	249.59	8.96	
2025-01-07 12:41:09.97	249.62	8.97	
2025-01-07 12:41:10.18	249.65	8.98	
2025-01-07 12:41:10.38	249.68	8.99	
2025-01-07 12:41:10.59	249.71	9.00	
2025-01-07 12:41:10.80	249.74	9.01	
2025-01-07 12:41:11.00	249.77	9.01	
2025-01-07 12:41:11.20	249.80	9.02	
2025-01-07 12:41:11.41	249.84	9.03	
2025-01-07 12:41:11.62	249.87	9.04	
2025-01-07 12:41:11.82	249.90	9.05	
2025-01-07 12:41:12.03	249.93	9.06	
2025-01-07 12:41:12.23	249.96	9.06	
2025-01-07 12:41:12.44	249.99	9.07	
2025-01-07 12:41:12.64	250.03	9.08	
2025-01-07 12:41:12.85	250.06	9.09	
2025-01-07 12:41:13.05	250.09	9.10	
2025-01-07 12:41:13.26	250.12	9.10	
2025-01-07 12:41:13.46	250.15	9.11	
2025-01-07 12:41:13.67	250.18	9.12	
2025-01-07 12:41:13.87	250.21	9.13	
2025-01-07 12:41:14.08	250.25	9.14	
2025-01-07 12:41:14.28	250.28	9.15	
2025-01-07 12:41:14.49	250.31	9.15	
2025-01-07 12:41:14.69	250.34	9.16	
2025-01-07 12:41:14.90	250.37	9.17	
2025-01-07 12:41:15.11	250.41	9.18	
2025-01-07 12:41:15.31	250.44	9.19	
2025-01-07 12:41:15.52	250.47	9.19	
2025-01-07 12:41:15.72	250.50	9.20	
2025-01-07 12:41:15.93	250.53	9.21	
2025-01-07 12:41:16.13	250.56	9.22	
2025-01-07 12:41:16.34	250.60	9.23	
2025-01-07 12:41:16.54	250.63	9.23	
2025-01-07 12:41:16.75	250.66	9.24	
2025-01-07 12:41:16.96	250.69	9.25	
2025-01-07 12:41:17.16	250.72	9.26	
2025-01-07 12:41:17.37	250.76	9.27	
2025-01-07 12:41:17.57	250.79	9.28	
2025-01-07 12:41:17.78	250.82	9.28	
2025-01-07 12:41:17.98	250.85	9.29	
2025-01-07 12:41:18.19	250.88	9.30	
2025-01-07 12:41:18.39	250.91	9.31	
2025-01-07 12:41:18.60	250.95	9.32	
2025-01-07 12:41:18.80	250.98	9.32	
2025-01-07 12:41:19.01	251.01	9.33	
2025-01-07 12:41:19.21	251.04	9.34	
2025-01-07 12:41:19.42	251.08	9.35	
2025-01-07 12:41:19.63	251.11	9.36	
2025-01-07 12:41:19.83	251.14	9.36	
2025-01-07 12:41:20.03	251.17	9.37	
2025-01-07 12:41:20.24	251.20	9.38	
2025-01-07 12:41:20.45	251.24	9.39	
2025-01-07 12:41:20.65	251.27	9.40	
2025-01-07 12:41:20.86	251.30	9.40	
2025-01-07 12:41:21.06	251.33	9.41	
2025-01-07 12:41:21.27	251.36	9.42	
2025-01-07 12:41:21.47	251.40	9.43	
2025-01-07 12:41:21.68	251.43	9.44	
2025-01-07 12:41:21.89	251.46	9.44	
2025-01-07 12:41:22.09	251.49	9.45	
2025-01-07 12:41:22.29	251.53	9.46	
2025-01-07 12:41:22.50	251.56	9.47	
2025-01-07 12:41:22.71	251.59	9.48	
2025-01-07 12:41:22.91	251.62	9.48	
2025-01-07 12:41:23.12	251.66	9.49	
2025-01-07 12:41:23.32	251.69	9.50	
2025-01-07 12:41:23.53	251.72	9.51	
2025-01-07 12:41:23.73	251.75	9.52	
2025-01-07 12:41:23.94	251.79	9.52	
2025-01-07 12:41:24.14	251.82	9.53	
2025-01-07 12:41:24.35	251.85	9.54	
2025-01-07 12:41:24.56	251.88	9.55	
2025-01-07 12:41:24.76	251.92	9.56	
2025-01-07 12:41:24.97	251.95	9.56	
2025-01-07 12:41:25.17	251.98	9.57	
2025-01-07 12:41:25.38	252.01	9.58	
2025-01-07 12:41:25.58	252.05	9.59	
2025-01-07 12:41:25.79	252.08	9.60	
2025-01-07 12:41:25.99	252.11	9.60	
2025-01-07 12:41:26.20	252.14	9.61	
2025-01-07 12:41:26.40	252.18	9.62	
2025-01-07 12:41:26.61	252.21	9.63	
2025-01-07 12:41:26.82	252.24	9.63	
2025-01-07 12:41:27.02	252.27	9.64	
2025-01-07 12:41:27.23	252.31	9.65	
2025-01-07 12:41:27.44	252.34	9.66	
2025-01-07 12:41:27.65	252.37	9.67	
2025-01-07 12:41:27.86	252.41	9.67	
2025-01-07 12:41:28.06	252.44	9.68	
2025-01-07 12:41:28.27	252.47	9.69	
2025-01-07 12:41:28.47	252.51	9.70	
2025-01-07 12:41:28.68	252.54	9.71	
2025-01-07 12:41:28.88	252.57	9.71	
2025-01-07 12:41:29.09	252.60	9.72	
2025-01-07 12:41:29.30	252.64	9.73	
2025-01-07 12:41:29.51	252.67	9.74	
2025-01-07 12:41:29.72	252.71	9.74	
2025-01-07 12:41:29.92	252.74	9.75	
2025-01-07 12:41:30.13	252.77	9.76	
2025-01-07 12:41:30.34	252.80	9.77	
2025-01-07 12:41:30.54	252.84	9.78	
2025-01-07 12:41:30.74	252.87	9.78	
2025-01-07 12:41:30.95	252.90	9.79	
2025-01-07 12:41:31.16	252.94	9.80	
2025-01-07 12:41:31.36	252.97	9.81	
2025-01-07 12:41:31.56	253.00	9.81	
2025-01-07 12:41:31.77	253.04	9.82	
2025-01-07 12:41:31.98	253.07	9.83	
2025-01-07 12:41:32.18	253.10	9.84	
2025-01-07 12:41:32.39	253.14	9.85	
2025-01-07 12:41:32.60	253.17	9.85	
2025-01-07 12:41:32.80	253.20	9.86	
2025-01-07 12:41:33.01	253.24	9.87	
2025-01-07 12:41:33.21	253.27	9.88	
2025-01-07 12:41:33.42	253.30	9.88	
2025-01-07 12:41:33.63	253.34	9.89	
2025-01-07 12:41:33.84	253.37	9.90	
2025-01-07 12:41:34.05	253.40	9.91	
2025-01-07 12:41:34.25	253.44	9.91	
2025-01-07 12:41:34.46	253.47	9.92	
2025-01-07 12:41:34.67	253.50	9.93	
2025-01-07 12:41:34.87	253.54	9.94	
2025-01-07 12:41:35.08	253.57	9.95	
2025-01-07 12:41:35.28	253.60	9.95	
2025-01-07 12:41:35.49	253.64	9.96	
2025-01-07 12:41:35.69	253.67	9.97	
2025-01-07 12:41:35.89	253.70	9.98	
2025-01-07 12:41:36.10	253.74	9.98	
2025-01-07 12:41:36.31	253.77	9.99	
2025-01-07 12:41:36.51	253.80	10.00	
2025-01-07 12:41:36.72	253.84	10.01	
2025-01-07 12:41:36.92	253.87	10.01	
2025-01-07 12:41:37.13	253.90	10.02	
2025-01-07 12:41:37.33	253.94	10.03	
2025-01-07 12:41:37.54	253.97	10.04	
2025-01-07 12:41:37.75	254.01	10.04	
2025-01-07 12:41:37.95	254.04	10.05	
2025-01-07 12:41:38.15	254.07	10.06	
2025-01-07 12:41:38.36	254.11	10.07	
2025-01-07 12:41:38.57	254.14	10.07	
2025-01-07 12:41:38.77	254.17	10.08	
2025-01-07 12:41:38.98	254.21	10.09	
2025-01-07 12:41:39.20	254.24	10.10	
2025-01-07 12:41:39.40	254.28	10.10	
2025-01-07 12:41:39.61	254.31	10.11	
2025-01-07 12:41:39.81	254.34	10.12	
2025-01-07 12:41:40.02	254.38	10.13	
2025-01-07 12:41:40.22	254.41	10.13	
2025-01-07 12:41:40.43	254.45	10.14	
2025-01-07 12:41:40.63	254.48	10.15	
2025-01-07 12:41:40.84	254.51	10.16	
2025-01-07 12:41:41.04	254.55	10.16	
2025-01-07 12:41:41.25	254.58	10.17	
2025-01-07 12:41:41.45	254.61	10.18	
2025-01-07 12:41:41.66	254.65	10.19	
2025-01-07 12:41:41.87	254.68	10.19	
2025-01-07 12:41:42.07	254.72	10.20	
2025-01-07 12:41:42.27	254.75	10.21	
2025-01-07 12:41:42.48	254.78	10.22	
2025-01-07 12:41:42.69	254.82	10.22	
2025-01-07 12:41:42.89	254.85	10.23	
2025-01-07 12:41:43.10	254.89	10.24	
2025-01-07 12:41:43.31	254.92	10.25	
2025-01-07 12:41:43.51	254.95	10.25	
2025-01-07 12:41:43.72	254.99	10.26	
2025-01-07 12:41:43.92	255.02	10.27	
2025-01-07 12:41:44.13	255.06	10.27	
2025-01-07 12:41:44.33	255.09	10.28	
2025-01-07 12:41:44.54	255.13	10.29	
2025-01-07 12:41:44.74	255.16	10.30	
2025-01-07 12:41:44.95	255.19	10.30	
2025-01-07 12:41:45.16	255.23	10.31	
2025-01-07 12:41:45.36	255.26	10.32	
2025-01-07 12:41:45.58	255.30	10.33	
2025-01-07 12:41:45.79	255.33	10.33	
2025-01-07 12:41:45.99	255.37	10.34	
2025-01-07 12:41:46.20	255.40	10.35	
2025-01-07 12:41:46.40	255.44	10.36	
2025-01-07 12:41:46.61	255.47	10.36	
2025-01-07 12:41:46.81	255.50	10.37	
2025-01-07 12:41:47.02	255.54	10.38	
2025-01-07 12:41:47.23	255.57	10.38	
2025-01-07 12:41:47.43	255.61	10.39	
2025-01-07 12:41:47.64	255.64	10.40	
2025-01-07 12:41:47.84	255.68	10.41	
2025-01-07 12:41:48.05	255.71	10.41	
2025-01-07 12:41:48.25	255.75	10.42	
2025-01-07 12:41:48.46	255.78	10.43	
2025-01-07 12:41:48.66	255.81	10.43	
2025-01-07 12:41:48.87	255.85	10.44	
2025-01-07 12:41:49.07	255.88	10.45	
2025-01-07 12:41:49.28	255.92	10.46	
2025-01-07 12:41:49.48	255.95	10.46	
2025-01-07 12:41:49.69	255.99	10.47	
2025-01-07 12:41:49.89	256.02	10.48	
2025-01-07 12:41:50.10	256.06	10.48	
2025-01-07 12:41:50.30	256.09	10.49	
2025-01-07 12:41:50.51	256.12	10.50	
2025-01-07 12:41:50.71	256.16	10.51	
2025-01-07 12:41:50.93	256.20	10.51	
2025-01-07 12:41:51.13	256.23	10.52	
2025-01-07 12:41:51.34	256.26	10.53	
2025-01-07 12:41:51.54	256.30	10.53	
2025-01-07 12:41:51.75	256.33	10.54	
2025-01-07 12:41:51.97	256.37	10.55	
2025-01-07 12:41:52.17	256.41	10.56	
2025-01-07 12:41:52.38	256.44	10.56	
2025-01-07 12:41:52.58	256.47	10.57	
2025-01-07 12:41:52.79	256.51	10.58	
2025-01-07 12:41:52.99	256.54	10.58	
2025-01-07 12:41:53.20	256.58	10.59	
2025-01-07 12:41:53.40	256.61	10.60	
2025-01-07 12:41:53.61	256.65	10.61	
2025-01-07 12:41:53.81	256.68	10.61	
2025-01-07 12:41:54.02	256.72	10.62	
2025-01-07 12:41:54.22	256.75	10.63	
2025-01-07 12:41:54.43	256.79	10.63	
2025-01-07 12:41:54.63	256.82	10.64	
2025-01-07 12:41:54.84	256.86	10.65	
2025-01-07 12:41:55.04	256.89	10.65	
2025-01-07 12:41:55.25	256.93	10.66	
2025-01-07 12:41:55.45	256.96	10.67	
2025-01-07 12:41:55.66	257.00	10.67	
2025-01-07 12:41:55.86	257.03	10.68	
2025-01-07 12:41:56.07	257.07	10.69	
2025-01-07 12:41:56.27	257.10	10.70	
2025-01-07 12:41:56.48	257.14	10.70	
2025-01-07 12:41:56.68	257.17	10.71	
2025-01-07 12:41:56.89	257.21	10.72	
2025-01-07 12:41:57.09	257.24	10.72	
2025-01-07 12:41:57.31	257.28	10.73	
2025-01-07 12:41:57.52	257.32	10.74	
2025-01-07 12:41:57.73	257.35	10.74	
2025-01-07 12:41:57.93	257.39	10.75	
2025-01-07 12:41:58.14	257.42	10.76	
2025-01-07 12:41:58.34	257.46	10.76	
2025-01-07 12:41:58.55	257.49	10.77	
2025-01-07 12:41:58.75	257.53	10.78	
2025-01-07 12:41:58.96	257.56	10.79	
2025-01-07 12:41:59.17	257.60	10.79	
2025-01-07 12:41:59.37	257.63	10.80	
2025-01-07 12:41:59.58	257.67	10.81	
2025-01-07 12:41:59.78	257.70	10.81	
2025-01-07 12:41:59.99	257.74	10.82	
2025-01-07 12:42:00.19	257.77	10.83	
2025-01-07 12:42:00.39	257.81	10.83	
2025-01-07 12:42:00.60	257.84	10.84	
2025-01-07 12:42:00.80	257.88	10.85	
2025-01-07 12:42:01.01	257.92	10.85	
2025-01-07 12:42:01.21	257.95	10.86	
2025-01-07 12:42:01.42	257.99	10.87	
2025-01-07 12:42:01.62	258.02	10.87	
2025-01-07 12:42:01.83	258.06	10.88	
2025-01-07 12:42:02.03	258.09	10.89	
2025-01-07 12:42:02.24	258.13	10.89	
2025-01-07 12:42:02.45	258.16	10.90	
2025-01-07 12:42:02.65	258.20	10.91	
2025-01-07 12:42:02.86	258.24	10.91	
2025-01-07 12:42:03.06	258.27	10.92	
2025-01-07 12:42:03.27	258.31	10.93	
2025-01-07 12:42:03.47	258.34	10.93	
2025-01-07 12:42:03.68	258.38	10.94	
2025-01-07 12:42:03.88	258.41	10.95	
2025-01-07 12:42:04.09	258.45	10.95	
2025-01-07 12:42:04.29	258.48	10.96	
2025-01-07 12:42:04.50	258.52	10.97	
2025-01-07 12:42:04.72	258.56	10.97	
2025-01-07 12:42:04.92	258.59	10.98	
2025-01-07 12:42:05.13	258.63	10.99	
2025-01-07 12:42:05.34	258.67	10.99	
2025-01-07 12:42:05.54	258.70	11.00	
2025-01-07 12:42:05.75	258.74	11.01	
2025-01-07 12:42:05.95	258.77	11.01	
2025-01-07 12:42:06.16	258.81	11.02	
2025-01-07 12:42:06.36	258.84	11.03	
2025-01-07 12:42:06.57	258.88	11.03	
2025-01-07 12:42:06.77	258.92	11.04	
2025-01-07 12:42:06.98	258.95	11.04	
2025-01-07 12:42:07.18	258.99	11.05	
2025-01-07 12:42:07.39	259.02	11.06	
2025-01-07 12:42:07.59	259.06	11.06	
2025-01-07 12:42:07.80	259.10	11.07	
2025-01-07 12:42:08.00	259.13	11.08	
2025-01-07 12:42:08.21	259.17	11.08	
2025-01-07 12:42:08.41	259.20	11.09	
2025-01-07 12:42:08.62	259.24	11.10	
2025-01-07 12:42:08.83	259.28	11.10	
2025-01-07 12:42:09.04	259.31	11.11	
2025-01-07 12:42:09.25	259.35	11.12	
2025-01-07 12:42:09.45	259.38	11.12	
2025-01-07 12:42:09.66	259.42	11.13	
2025-01-07 12:42:09.87	259.46	11.14	
2025-01-07 12:42:10.07	259.49	11.14	
2025-01-07 12:42:10.28	259.53	11.15	
2025-01-07 12:42:10.48	259.57	11.15	
2025-01-07 12:42:10.69	259.60	11.16	
2025-01-07 12:42:10.89	259.64	11.17	
2025-01-07 12:42:11.10	259.67	11.17	
2025-01-07 12:42:11.30	259.71	11.18	
2025-01-07 12:42:11.51	259.75	11.19	
2025-01-07 12:42:11.71	259.78	11.19	
2025-01-07 12:42:11.92	259.82	11.20	
2025-01-07 12:42:12.12	259.85	11.20	
2025-01-07 12:42:12.33	259.89	11.21	
2025-01-07 12:42:12.53	259.93	11.22	
2025-01-07 12:42:12.74	259.96	11.22	
2025-01-07 12:42:12.94	260.00	11.23	
2025-01-07 12:42:13.15	260.04	11.24	
2025-01-07 12:42:13.35	260.07	11.24	
2025-01-07 12:42:13.56	260.11	11.25	
2025-01-07 12:42:13.77	260.15	11.25	
2025-01-07 12:42:13.97	260.18	11.26	
2025-01-07 12:42:14.18	260.22	11.27	
2025-01-07 12:42:14.38	260.25	11.27	
2025-01-07 12:42:14.59	260.29	11.28	
2025-01-07 12:42:14.79	260.33	11.29	
2025-01-07 12:42:15.00	260.36	11.29	
2025-01-07 12:42:15.20	260.40	11.30	
2025-01-07 12:42:15.41	260.44	11.30	
2025-01-07 12:42:15.62	260.47	11.31	
2025-01-07 12:42:15.82	260.51	11.32	
2025-01-07 12:42:16.03	260.55	11.32	
2025-01-07 12:42:16.23	260.58	11.33	
2025-01-07 12:42:16.44	260.62	11.33	
2025-01-07 12:42:16.64	260.66	11.34	
2025-01-07 12:42:16.85	260.69	11.35	
2025-01-07 12:42:17.05	260.73	11.35	
2025-01-07 12:42:17.26	260.77	11.36	
2025-01-07 12:42:17.46	260.80	11.37	
2025-01-07 12:42:17.67	260.84	11.37	
2025-01-07 12:42:17.88	260.88	11.38	
2025-01-07 12:42:18.08	260.91	11.38	
2025-01-07 12:42:18.29	260.95	11.39	
2025-01-07 12:42:18.49	260.99	11.40	
2025-01-07 12:42:18.70	261.02	11.40	
2025-01-07 12:42:18.90	261.06	11.41	
2025-01-07 12:42:19.11	261.10	11.41	
2025-01-07 12:42:19.32	261.13	11.42	
2025-01-07 12:42:19.52	261.17	11.43	
2025-01-07 12:42:19.72	261.21	11.43	
2025-01-07 12:42:19.93	261.24	11.44	
2025-01-07 12:42:20.14	261.28	11.44	
2025-01-07 12:42:20.34	261.32	11.45	
2025-01-07 12:42:20.55	261.36	11.46	
2025-01-07 12:42:20.75	261.39	11.46	
2025-01-07 12:42:20.96	261.43	11.47	
2025-01-07 12:42:21.16	261.47	11.47	
2025-01-07 12:42:21.37	261.50	11.48	
2025-01-07 12:42:21.57	261.54	11.48	
2025-01-07 12:42:21.77	261.57	11.49	
2025-01-07 12:42:21.98	261.61	11.50	
2025-01-07 12:42:22.19	261.65	11.50	
2025-01-07 12:42:22.39	261.69	11.51	
2025-01-07 12:42:22.60	261.72	11.51	
2025-01-07 12:42:22.80	261.76	11.52	
2025-01-07 12:42:23.01	261.80	11.53	
2025-01-07 12:42:23.21	261.83	11.53	
2025-01-07 12:42:23.42	261.87	11.54	
2025-01-07 12:42:23.62	261.91	11.54	
2025-01-07 12:42:23.83	261.95	11.55	
2025-01-07 12:42:24.03	261.98	11.55	
2025-01-07 12:42:24.24	262.02	11.56	
2025-01-07 12:42:24.44	262.06	11.57	
2025-01-07 12:42:24.65	262.09	11.57	
2025-01-07 12:42:24.85	262.13	11.58	
2025-01-07 12:42:25.06	262.17	11.58	
2025-01-07 12:42:25.26	262.20	11.59	
2025-01-07 12:42:25.47	262.24	11.59	
2025-01-07 12:42:25.67	262.28	11.60	
2025-01-07 12:42:25.88	262.32	11.61	
2025-01-07 12:42:26.08	262.35	11.61	
2025-01-07 12:42:26.29	262.39	11.62	
2025-01-07 12:42:26.49	262.43	11.62	
2025-01-07 12:42:26.70	262.47	11.63	
2025-01-07 12:42:26.91	262.50	11.63	
2025-01-07 12:42:27.11	262.54	11.64	
2025-01-07 12:42:27.32	262.58	11.64	
2025-01-07 12:42:27.52	262.61	11.65	
2025-01-07 12:42:27.73	262.65	11.66	
2025-01-07 12:42:27.94	262.69	11.66	
2025-01-07 12:42:28.14	262.73	11.67	
2025-01-07 12:42:28.35	262.77	11.67	
2025-01-07 12:42:28.55	262.80	11.68	
2025-01-07 12:42:28.75	262.84	11.68	
2025-01-07 12:42:28.96	262.88	11.69	
2025-01-07 12:42:29.16	262.91	11.69	
2025-01-07 12:42:29.37	262.95	11.70	
2025-01-07 12:42:29.57	262.99	11.71	
2025-01-07 12:42:29.78	263.03	11.71	
2025-01-07 12:42:29.98	263.06	11.72	
2025-01-07 12:42:30.19	263.10	11.72	
2025-01-07 12:42:30.40	263.14	11.73	
2025-01-07 12:42:30.60	263.18	11.73	
2025-01-07 12:42:30.81	263.21	11.74	
2025-01-07 12:42:31.01	263.25	11.74	
2025-01-07 12:42:31.22	263.29	11.75	
2025-01-07 12:42:31.42	263.33	11.75	
2025-01-07 12:42:31.62	263.36	11.76	
2025-01-07 12:42:31.83	263.40	11.77	
2025-01-07 12:42:32.04	263.44	11.77	
2025-01-07 12:42:32.24	263.48	11.78	
2025-01-07 12:42:32.45	263.51	11.78	
2025-01-07 12:42:32.65	263.55	11.79	
2025-01-07 12:42:32.86	263.59	11.79	
2025-01-07 12:42:33.07	263.63	11.80	
2025-01-07 12:42:33.27	263.67	11.80	
2025-01-07 12:42:33.47	263.70	11.81	
2025-01-07 12:42:33.68	263.74	11.81	
2025-01-07 12:42:33.88	263.78	11.82	
2025-01-07 12:42:34.09	263.82	11.82	
2025-01-07 12:42:34.30	263.85	11.83	
2025-01-07 12:42:34.50	263.89	11.83	
2025-01-07 12:42:34.70	263.93	11.84	
2025-01-07 12:42:34.91	263.97	11.85	
2025-01-07 12:42:35.12	264.01	11.85	
2025-01-07 12:42:35.32	264.04	11.86	
2025-01-07 12:42:35.53	264.08	11.86	
2025-01-07 12:42:35.73	264.12	11.87	
2025-01-07 12:42:35.94	264.16	11.87	
2025-01-07 12:42:36.14	264.19	11.88	
2025-01-07 12:42:36.35	264.23	11.88	
2025-01-07 12:42:36.56	264.27	11.89	
2025-01-07 12:42:36.76	264.31	11.89	
2025-01-07 12:42:36.97	264.35	11.90	
2025-01-07 12:42:37.17	264.38	11.90	
2025-01-07 12:42:37.38	264.42	11.91	
2025-01-07 12:42:37.59	264.46	11.91	
2025-01-07 12:42:37.79	264.50	11.92	
2025-01-07 12:42:38.00	264.54	11.92	
2025-01-07 12:42:38.20	264.57	11.93	
2025-01-07 12:42:38.41	264.61	11.93	
2025-01-07 12:42:38.61	264.65	11.94	
2025-01-07 12:42:38.83	264.69	11.94	
2025-01-07 12:42:39.04	264.73	11.95	
2025-01-07 12:42:39.25	264.77	11.95	
2025-01-07 12:42:39.45	264.81	11.96	
2025-01-07 12:42:39.66	264.84	11.96	
2025-01-07 12:42:39.86	264.88	11.97	
2025-01-07 12:42:40.07	264.92	11.97	
2025-01-07 12:42:40.27	264.96	11.98	
2025-01-07 12:42:40.48	265.00	11.98	
2025-01-07 12:42:40.69	265.04	11.99	
2025-01-07 12:42:40.89	265.07	11.99	
2025-01-07 12:42:41.09	265.11	12.00	
2025-01-07 12:42:41.30	265.15	12.00	
2025-01-07 12:42:41.50	265.19	12.01	
2025-01-07 12:42:41.71	265.23	12.01	
2025-01-07 12:42:41.91	265.26	12.02	
2025-01-07 12:42:42.12	265.30	12.02	
2025-01-07 12:42:42.32	265.34	12.03	
2025-01-07 12:42:42.53	265.38	12.03	
2025-01-07 12:42:42.73	265.42	12.04	
2025-01-07 12:42:42.94	265.45	12.04	
2025-01-07 12:42:43.14	265.49	12.05	
2025-01-07 12:42:43.35	265.53	12.05	
2025-01-07 12:42:43.55	265.57	12.06	
2025-01-07 12:42:43.76	265.61	12.06	
2025-01-07 12:42:43.97	265.65	12.07	
2025-01-07 12:42:44.17	265.68	12.07	
2025-01-07 12:42:44.38	265.72	12.08	
2025-01-07 12:42:44.58	265.76	12.08	
2025-01-07 12:42:44.79	265.80	12.09	
2025-01-07 12:42:45.00	265.84	12.09	
2025-01-07 12:42:45.20	265.88	12.10	
2025-01-07 12:42:45.40	265.91	12.10	
2025-01-07 12:42:45.61	265.95	12.10	
2025-01-07 12:42:45.82	265.99	12.11	
2025-01-07 12:42:46.02	266.03	12.11	
2025-01-07 12:42:46.24	266.07	12.12	
2025-01-07 12:42:46.46	266.11	12.12	
2025-01-07 12:42:46.66	266.15	12.13	
2025-01-07 12:42:46.87	266.19	12.13	
2025-01-07 12:42:47.08	266.23	12.14	
2025-01-07 12:42:47.28	266.27	12.14	
2025-01-07 12:42:47.49	266.31	12.15	
2025-01-07 12:42:47.69	266.34	12.15	
2025-01-07 12:42:47.90	266.38	12.16	
2025-01-07 12:42:48.10	266.42	12.16	
2025-01-07 12:42:48.30	266.46	12.17	
2025-01-07 12:42:48.51	266.50	12.17	
2025-01-07 12:42:48.71	266.54	12.17	
2025-01-07 12:42:48.92	266.58	12.18	
2025-01-07 12:42:49.13	266.61	12.18	
2025-01-07 12:42:49.33	266.65	12.19	
2025-01-07 12:42:49.53	266.69	12.19	
2025-01-07 12:42:49.74	266.73	12.20	
2025-01-07 12:42:49.95	266.77	12.20	
2025-01-07 12:42:50.15	266.81	12.21	
2025-01-07 12:42:50.36	266.85	12.21	
2025-01-07 12:42:50.56	266.88	12.21	
2025-01-07 12:42:50.77	266.92	12.22	
2025-01-07 12:42:50.97	266.96	12.22	
2025-01-07 12:42:51.18	267.00	12.23	
2025-01-07 12:42:51.38	267.04	12.23	
2025-01-07 12:42:51.58	267.08	12.24	
2025-01-07 12:42:51.79	267.12	12.24	
2025-01-07 12:42:52.00	267.16	12.25	
2025-01-07 12:42:52.20	267.19	12.25	
2025-01-07 12:42:52.41	267.23	12.25	
2025-01-07 12:42:52.61	267.27	12.26	
2025-01-07 12:42:52.82	267.31	12.26	
2025-01-07 12:42:53.03	267.35	12.27	
2025-01-07 12:42:53.23	267.39	12.27	
2025-01-07 12:42:53.44	267.43	12.28	
2025-01-07 12:42:53.64	267.47	12.28	
2025-01-07 12:42:53.85	267.51	12.28	
2025-01-07 12:42:54.05	267.54	12.29	
2025-01-07 12:42:54.26	267.58	12.29	
2025-01-07 12:42:54.46	267.62	12.30	
2025-01-07 12:42:54.67	267.66	12.30	
2025-01-07 12:42:54.87	267.70	12.31	
2025-01-07 12:42:55.08	267.74	12.31	
2025-01-07 12:42:55.28	267.78	12.31	
2025-01-07 12:42:55.49	267.82	12.32	
2025-01-07 12:42:55.70	267.86	12.32	
2025-01-07 12:42:55.90	267.90	12.33	
2025-01-07 12:42:56.11	267.93	12.33	
2025-01-07 12:42:56.31	267.97	12.33	
2025-01-07 12:42:56.52	268.01	12.34	
2025-01-07 12:42:56.72	268.05	12.34	
2025-01-07 12:42:56.93	268.09	12.35	
2025-01-07 12:42:57.13	268.13	12.35	
2025-01-07 12:42:57.34	268.17	12.36	
2025-01-07 12:42:57.54	268.21	12.36	
2025-01-07 12:42:57.75	268.25	12.36	
2025-01-07 12:42:57.95	268.29	12.37	
2025-01-07 12:42:58.16	268.33	12.37	
2025-01-07 12:42:58.36	268.36	12.38	
2025-01-07 12:42:58.57	268.40	12.38	
2025-01-07 12:42:58.78	268.44	12.38	
2025-01-07 12:42:58.98	268.48	12.39	
2025-01-07 12:42:59.18	268.52	12.39	
2025-01-07 12:42:59.39	268.56	12.40	
2025-01-07 12:42:59.60	268.60	12.40	
2025-01-07 12:42:59.80	268.64	12.40	
2025-01-07 12:43:00.01	268.68	12.41	
2025-01-07 12:43:00.21	268.72	12.41	
2025-01-07 12:43:00.42	268.76	12.42	
2025-01-07 12:43:00.62	268.79	12.42	
2025-01-07 12:43:00.83	268.83	12.42	
2025-01-07 12:43:01.03	268.87	12.43	
2025-01-07 12:43:01.24	268.91	12.43	
2025-01-07 12:43:01.44	268.95	12.43	
2025-01-07 12:43:01.65	268.99	12.44	
2025-01-07 12:43:01.85	269.03	12.44	
2025-01-07 12:43:02.06	269.07	12.45	
2025-01-07 12:43:02.26	269.11	12.45	
2025-01-07 12:43:02.47	269.15	12.45	
2025-01-07 12:43:02.68	269.19	12.46	
2025-01-07 12:43:02.88	269.23	12.46	
2025-01-07 12:43:03.09	269.27	12.46	
2025-01-07 12:43:03.29	269.31	12.47	
2025-01-07 12:43:03.49	269.34	12.47	
2025-01-07 12:43:03.70	269.38	12.48	
2025-01-07 12:43:03.90	269.42	12.48	
2025-01-07 12:43:04.11	269.46	12.48	
2025-01-07 12:43:04.31	269.50	12.49	
2025-01-07 12:43:04.52	269.54	12.49	
2025-01-07 12:43:04.72	269.58	12.49	
2025-01-07 12:43:04.93	269.62	12.50	
2025-01-07 12:43:05.14	269.66	12.50	
2025-01-07 12:43:05.34	269.70	12.51	
2025-01-07 12:43:05.54	269.74	12.51	
2025-01-07 12:43:05.75	269.78	12.51	
2025-01-07 12:43:05.95	269.82	12.52	
2025-01-07 12:43:06.16	269.86	12.52	
2025-01-07 12:43:06.36	269.90	12.52	
2025-01-07 12:43:06.58	269.94	12.53	
2025-01-07 12:43:06.79	269.98	12.53	
2025-01-07 12:43:06.99	270.02	12.53	
2025-01-07 12:43:07.19	270.06	12.54	
2025-01-07 12:43:07.40	270.10	12.54	
2025-01-07 12:43:07.61	270.14	12.54	
2025-01-07 12:43:07.81	270.17	12.55	
2025-01-07 12:43:08.03	270.22	12.55	
2025-01-07 12:43:08.24	270.26	12.56	
2025-01-07 12:43:08.44	270.30	12.56	
2025-01-07 12:43:08.65	270.34	12.56	
2025-01-07 12:43:08.85	270.38	12.57	
2025-01-07 12:43:09.06	270.42	12.57	
2025-01-07 12:43:09.26	270.45	12.57	
2025-01-07 12:43:09.47	270.49	12.58	
2025-01-07 12:43:09.67	270.53	12.58	
2025-01-07 12:43:09.88	270.57	12.58	
2025-01-07 12:43:10.08	270.61	12.59	
2025-01-07 12:43:10.29	270.65	12.59	
2025-01-07 12:43:10.49	270.69	12.59	
2025-01-07 12:43:10.70	270.73	12.60	
2025-01-07 12:43:10.90	270.77	12.60	
2025-01-07 12:43:11.11	270.81	12.60	
2025-01-07 12:43:11.31	270.85	12.61	
2025-01-07 12:43:11.52	270.89	12.61	
2025-01-07 12:43:11.73	270.93	12.61	
2025-01-07 12:43:11.93	270.97	12.62	
2025-01-07 12:43:12.13	271.01	12.62	
2025-01-07 12:43:12.34	271.05	12.62	
2025-01-07 12:43:12.55	271.09	12.62	
2025-01-07 12:43:12.75	271.13	12.63	
2025-01-07 12:43:12.96	271.17	12.63	
2025-01-07 12:43:13.16	271.21	12.63	
2025-01-07 12:43:13.36	271.25	12.64	
2025-01-07 12:43:13.57	271.29	12.64	
2025-01-07 12:43:13.77	271.33	12.64	
2025-01-07 12:43:13.98	271.37	12.65	
2025-01-07 12:43:14.18	271.41	12.65	
2025-01-07 12:43:14.39	271.45	12.65	
2025-01-07 12:43:14.59	271.49	12.66	
2025-01-07 12:43:14.80	271.53	12.66	
2025-01-07 12:43:15.00	271.57	12.66	
2025-01-07 12:43:15.21	271.61	12.67	
2025-01-07 12:43:15.42	271.65	12.67	
2025-01-07 12:43:15.62	271.69	12.67	
2025-01-07 12:43:15.83	271.73	12.67	
2025-01-07 12:43:16.03	271.77	12.68	
2025-01-07 12:43:16.24	271.81	12.68	
2025-01-07 12:43:16.44	271.85	12.68	
2025-01-07 12:43:16.65	271.89	12.69	
2025-01-07 12:43:16.85	271.93	12.69	
2025-01-07 12:43:17.06	271.97	12.69	
2025-01-07 12:43:17.26	272.01	12.70	
2025-01-07 12:43:17.47	272.05	12.70	
2025-01-07 12:43:17.67	272.08	12.70	
2025-01-07 12:43:17.88	272.13	12.70	
2025-01-07 12:43:18.08	272.16	12.71	
2025-01-07 12:43:18.29	272.21	12.71	
2025-01-07 12:43:18.49	272.24	12.71	
2025-01-07 12:43:18.70	272.29	12.72	
2025-01-07 12:43:18.90	272.32	12.72	
2025-01-07 12:43:19.11	272.37	12.72	
2025-01-07 12:43:19.32	272.41	12.72	
2025-01-07 12:43:19.53	272.45	12.73	
2025-01-07 12:43:19.74	272.49	12.73	
2025-01-07 12:43:19.94	272.53	12.73	
2025-01-07 12:43:20.15	272.57	12.73	
2025-01-07 12:43:20.35	272.61	12.74	
2025-01-07 12:43:20.56	272.65	12.74	
2025-01-07 12:43:20.76	272.69	12.74	
2025-01-07 12:43:20.97	272.73	12.75	
2025-01-07 12:43:21.17	272.77	12.75	
2025-01-07 12:43:21.38	272.81	12.75	
2025-01-07 12:43:21.59	272.85	12.75	
2025-01-07 12:43:21.80	272.89	12.76	
2025-01-07 12:43:22.00	272.93	12.76	
2025-01-07 12:43:22.21	272.97	12.76	
2025-01-07 12:43:22.41	273.01	12.76	
2025-01-07 12:43:22.61	273.05	12.77	
2025-01-07 12:43:22.82	273.09	12.77	
2025-01-07 12:43:23.03	273.13	12.77	
2025-01-07 12:43:23.23	273.17	12.77	
2025-01-07 12:43:23.44	273.21	12.78	
2025-01-07 12:43:23.64	273.25	12.78	
2025-01-07 12:43:23.85	273.29	12.78	
2025-01-07 12:43:24.05	273.33	12.78	
2025-01-07 12:43:24.26	273.37	12.79	
2025-01-07 12:43:24.46	273.41	12.79	
2025-01-07 12:43:24.67	273.45	12.79	
2025-01-07 12:43:24.87	273.49	12.79	
2025-01-07 12:43:25.08	273.53	12.80	
2025-01-07 12:43:25.29	273.57	12.80	
2025-01-07 12:43:25.49	273.61	12.80	
2025-01-07 12:43:25.71	273.66	12.80	
2025-01-07 12:43:25.92	273.70	12.81	
2025-01-07 12:43:26.12	273.74	12.81	
2025-01-07 12:43:26.33	273.78	12.81	
2025-01-07 12:43:26.53	273.82	12.81	
2025-01-07 12:43:26.74	273.86	12.82	
2025-01-07 12:43:26.94	273.90	12.82	
2025-01-07 12:43:27.15	273.94	12.82	
2025-01-07 12:43:27.36	273.98	12.82	
2025-01-07 12:43:27.56	274.02	12.83	
2025-01-07 12:43:27.77	274.06	12.83	
2025-01-07 12:43:27.97	274.10	12.83	
2025-01-07 12:43:28.18	274.14	12.83	
2025-01-07 12:43:28.38	274.18	12.84	
2025-01-07 12:43:28.59	274.22	12.84	
2025-01-07 12:43:28.79	274.26	12.84	
2025-01-07 12:43:29.01	274.30	12.84	
2025-01-07 12:43:29.22	274.34	12.84	
2025-01-07 12:43:29.42	274.38	12.85	
2025-01-07 12:43:29.63	274.42	12.85	
2025-01-07 12:43:29.83	274.46	12.85	
2025-01-07 12:43:30.04	274.51	12.85	
2025-01-07 12:43:30.24	274.54	12.85	
2025-01-07 12:43:30.45	274.59	12.86	
2025-01-07 12:43:30.65	274.63	12.86	
2025-01-07 12:43:30.86	274.67	12.86	
2025-01-07 12:43:31.08	274.71	12.86	
2025-01-07 12:43:31.28	274.75	12.87	
2025-01-07 12:43:31.49	274.79	12.87	
2025-01-07 12:43:31.70	274.83	12.87	
2025-01-07 12:43:31.90	274.87	12.87	
2025-01-07 12:43:32.11	274.91	12.87	
2025-01-07 12:43:32.31	274.95	12.88	
2025-01-07 12:43:32.52	274.99	12.88	
2025-01-07 12:43:32.72	275.03	12.88	
2025-01-07 12:43:32.93	275.07	12.88	
2025-01-07 12:43:33.13	275.11	12.88	
2025-01-07 12:43:33.34	275.15	12.89	
2025-01-07 12:43:33.54	275.19	12.89	
2025-01-07 12:43:33.75	275.24	12.89	
2025-01-07 12:43:33.96	275.28	12.89	
2025-01-07 12:43:34.16	275.32	12.89	
2025-01-07 12:43:34.37	275.36	12.90	
2025-01-07 12:43:34.57	275.40	12.90	
2025-01-07 12:43:34.78	275.44	12.90	
2025-01-07 12:43:34.98	275.48	12.90	
2025-01-07 12:43:35.19	275.52	12.90	
2025-01-07 12:43:35.39	275.56	12.90	
2025-01-07 12:43:35.60	275.60	12.91	
2025-01-07 12:43:35.80	275.64	12.91	
2025-01-07 12:43:36.01	275.68	12.91	
2025-01-07 12:43:36.22	275.72	12.91	
2025-01-07 12:43:36.42	275.76	12.91	
2025-01-07 12:43:36.63	275.80	12.91	
2025-01-07 12:43:36.83	275.84	12.92	
2025-01-07 12:43:37.04	275.88	12.92	
2025-01-07 12:43:37.24	275.92	12.92	
2025-01-07 12:43:37.45	275.97	12.92	
2025-01-07 12:43:37.65	276.00	12.92	
2025-01-07 12:43:37.86	276.05	12.93	
2025-01-07 12:43:38.07	276.09	12.93	
2025-01-07 12:43:38.27	276.13	12.93	
2025-01-07 12:43:38.47	276.17	12.93	
2025-01-07 12:43:38.68	276.21	12.93	
2025-01-07 12:43:38.88	276.25	12.93	
2025-01-07 12:43:39.09	276.29	12.93	
2025-01-07 12:43:39.29	276.33	12.94	
2025-01-07 12:43:39.50	276.37	12.94	
2025-01-07 12:43:39.70	276.41	12.94	
2025-01-07 12:43:39.91	276.45	12.94	
2025-01-07 12:43:40.12	276.49	12.94	
2025-01-07 12:43:40.32	276.53	12.94	
2025-01-07 12:43:40.53	276.57	12.95	
2025-01-07 12:43:40.73	276.61	12.95	
2025-01-07 12:43:40.94	276.65	12.95	
2025-01-07 12:43:41.14	276.69	12.95	
2025-01-07 12:43:41.35	276.74	12.95	
2025-01-07 12:43:41.55	276.78	12.95	
2025-01-07 12:43:41.76	276.82	12.95	
2025-01-07 12:43:41.96	276.86	12.96	
2025-01-07 12:43:42.17	276.90	12.96	
2025-01-07 12:43:42.37	276.94	12.96	
2025-01-07 12:43:42.58	276.98	12.96	
2025-01-07 12:43:42.78	277.02	12.96	
2025-01-07 12:43:42.99	277.06	12.96	
2025-01-07 12:43:43.20	277.10	12.96	
2025-01-07 12:43:43.40	277.14	12.96	
2025-01-07 12:43:43.61	277.18	12.97	
2025-01-07 12:43:43.81	277.22	12.97	
2025-01-07 12:43:44.02	277.26	12.97	
2025-01-07 12:43:44.22	277.30	12.97	
2025-01-07 12:43:44.43	277.35	12.97	
2025-01-07 12:43:44.64	277.39	12.97	
2025-01-07 12:43:44.84	277.43	12.97	
2025-01-07 12:43:45.05	277.47	12.98	
2025-01-07 12:43:45.25	277.51	12.98	
2025-01-07 12:43:45.46	277.55	12.98	
2025-01-07 12:43:45.66	277.59	12.98	
2025-01-07 12:43:45.87	277.63	12.98	
2025-01-07 12:43:46.07	277.67	12.98	
2025-01-07 12:43:46.28	277.71	12.98	
2025-01-07 12:43:46.48	277.75	12.98	
2025-01-07 12:43:46.69	277.79	12.98	
2025-01-07 12:43:46.90	277.83	12.99	
2025-01-07 12:43:47.10	277.87	12.99	
2025-01-07 12:43:47.31	277.92	12.99	
2025-01-07 12:43:47.51	277.96	12.99	
2025-01-07 12:43:47.72	278.00	12.99	
2025-01-07 12:43:47.92	278.04	12.99	
2025-01-07 12:43:48.12	278.08	12.99	
2025-01-07 12:43:48.33	278.12	12.99	
2025-01-07 12:43:48.54	278.16	12.99	
2025-01-07 12:43:48.74	278.20	12.99	
2025-01-07 12:43:48.95	278.24	13.00	
2025-01-07 12:43:49.16	278.28	13.00	
2025-01-07 12:43:49.36	278.32	13.00	
2025-01-07 12:43:49.57	278.36	13.00	
2025-01-07 12:43:49.77	278.40	13.00	
2025-01-07 12:43:49.98	278.45	13.00	
2025-01-07 12:43:50.18	278.49	13.00	
2025-01-07 12:43:50.39	278.53	13.00	
2025-01-07 12:43:50.59	278.57	13.00	
2025-01-07 12:43:50.80	278.61	13.00	
2025-01-07 12:43:51.01	278.65	13.00	
2025-01-07 12:43:51.21	278.69	13.01	
2025-01-07 12:43:51.42	278.73	13.01	
2025-01-07 12:43:51.62	278.77	13.01	
2025-01-07 12:43:51.83	278.81	13.01	
2025-01-07 12:43:52.04	278.85	13.01	
2025-01-07 12:43:52.24	278.89	13.01	
2025-01-07 12:43:52.45	278.94	13.01	
2025-01-07 12:43:52.65	278.98	13.01	
2025-01-07 12:43:52.86	279.02	13.01	
2025-01-07 12:43:53.06	279.06	13.01	
2025-01-07 12:43:53.27	279.10	13.01	
2025-01-07 12:43:53.47	279.14	13.01	
2025-01-07 12:43:53.68	279.18	13.01	
2025-01-07 12:43:53.88	279.22	13.01	
2025-01-07 12:43:54.09	279.26	13.02	
2025-01-07 12:43:54.30	279.30	13.02	
2025-01-07 12:43:54.50	279.34	13.02	
2025-01-07 12:43:54.70	279.38	13.02	
2025-01-07 12:43:54.91	279.42	13.02	
2025-01-07 12:43:55.11	279.46	13.02	
2025-01-07 12:43:55.32	279.51	13.02	
2025-01-07 12:43:55.52	279.55	13.02	
2025-01-07 12:43:55.72	279.59	13.02	
2025-01-07 12:43:55.93	279.63	13.02	
2025-01-07 12:43:56.13	279.67	13.02	
2025-01-07 12:43:56.33	279.71	13.02	
2025-01-07 12:43:56.53	279.75	13.02	
2025-01-07 12:43:56.74	279.79	13.02	
2025-01-07 12:43:56.94	279.83	13.02	
2025-01-07 12:43:57.15	279.87	13.02	
2025-01-07 12:43:57.35	279.91	13.02	
2025-01-07 12:43:57.56	279.95	13.02	
2025-01-07 12:43:57.76	279.99	13.02	
2025-01-07 12:43:57.97	280.03	13.02	
2025-01-07 12:43:58.17	280.07	13.02	
2025-01-07 12:43:58.38	280.11	13.03	
2025-01-07 12:43:58.60	280.16	13.03	
2025-01-07 12:43:58.81	280.20	13.03	
2025-01-07 12:43:59.02	280.24	13.03	
2025-01-07 12:43:59.24	280.28	13.03	
2025-01-07 12:43:59.44	280.32	13.03	
2025-01-07 12:43:59.65	280.37	13.03	
2025-01-07 12:43:59.85	280.41	13.03	
2025-01-07 12:44:00.05	280.45	13.03	
2025-01-07 12:44:00.26	280.49	13.03	
2025-01-07 12:44:00.46	280.53	13.03	
2025-01-07 12:44:00.67	280.57	13.03	
2025-01-07 12:44:00.87	280.61	13.03	
2025-01-07 12:44:01.08	280.65	13.03	
2025-01-07 12:44:01.29	280.69	13.03	
2025-01-07 12:44:01.49	280.73	13.03	
2025-01-07 12:44:01.70	280.77	13.03	
2025-01-07 12:44:01.90	280.81	13.03	
2025-01-07 12:44:02.11	280.85	13.03	
2025-01-07 12:44:02.31	280.89	13.03	
2025-01-07 12:44:02.52	280.94	13.03	
2025-01-07 12:44:02.72	280.98	13.03	
2025-01-07 12:44:02.93	281.02	13.03	
2025-01-07 12:44:03.13	281.06	13.03	
2025-01-07 12:44:03.34	281.10	13.03	
2025-01-07 12:44:03.54	281.14	13.03	
2025-01-07 12:44:03.75	281.18	13.03	
2025-01-07 12:44:03.96	281.22	13.03	
2025-01-07 12:44:04.17	281.26	13.03	
2025-01-07 12:44:04.38	281.31	13.03	
2025-01-07 12:44:04.58	281.35	13.03	
2025-01-07 12:44:04.79	281.39	13.03	
2025-01-07 12:44:04.99	281.43	13.03	
2025-01-07 12:44:05.20	281.47	13.03	
2025-01-07 12:44:05.40	281.51	13.03	
2025-01-07 12:44:05.61	281.55	13.03	
2025-01-07 12:44:05.82	281.59	13.03	
2025-01-07 12:44:06.02	281.63	13.03	
2025-01-07 12:44:06.23	281.67	13.03	
2025-01-07 12:44:06.43	281.71	13.03	
2025-01-07 12:44:06.64	281.75	13.03	
2025-01-07 12:44:06.84	281.79	13.03	
2025-01-07 12:44:07.05	281.84	13.03	
2025-01-07 12:44:07.25	281.88	13.03	
2025-01-07 12:44:07.47	281.92	13.03	
2025-01-07 12:44:07.68	281.96	13.03	
2025-01-07 12:44:07.88	282.00	13.03	
2025-01-07 12:44:08.09	282.04	13.03	
2025-01-07 12:44:08.30	282.08	13.03	
2025-01-07 12:44:08.51	282.13	13.03	
2025-01-07 12:44:08.72	282.17	13.03	
2025-01-07 12:44:08.92	282.21	13.03	
2025-01-07 12:44:09.13	282.25	13.03	
2025-01-07 12:44:09.34	282.29	13.02	
2025-01-07 12:44:09.54	282.33	13.02	
2025-01-07 12:44:09.75	282.37	13.02	
2025-01-07 12:44:09.95	282.41	13.02	
2025-01-07 12:44:10.16	282.45	13.02	
2025-01-07 12:44:10.36	282.49	13.02	
2025-01-07 12:44:10.56	282.53	13.02	
2025-01-07 12:44:10.77	282.58	13.02	
2025-01-07 12:44:10.98	282.62	13.02	
2025-01-07 12:44:11.18	282.66	13.02	
2025-01-07 12:44:11.39	282.70	13.02	
2025-01-07 12:44:11.59	282.74	13.02	
2025-01-07 12:44:11.80	282.78	13.02	
2025-01-07 12:44:12.00	282.82	13.02	
2025-01-07 12:44:12.21	282.86	13.02	
2025-01-07 12:44:12.42	282.90	13.02	
2025-01-07 12:44:12.62	282.94	13.02	
2025-01-07 12:44:12.82	282.98	13.02	
2025-01-07 12:44:13.03	283.02	13.02	
2025-01-07 12:44:13.24	283.07	13.02	
2025-01-07 12:44:13.44	283.11	13.01	
2025-01-07 12:44:13.65	283.15	13.01	
2025-01-07 12:44:13.85	283.19	13.01	
2025-01-07 12:44:14.06	283.23	13.01	
2025-01-07 12:44:14.26	283.27	13.01	
2025-01-07 12:44:14.47	283.31	13.01	
2025-01-07 12:44:14.67	283.35	13.01	
2025-01-07 12:44:14.89	283.39	13.01	
2025-01-07 12:44:15.10	283.43	13.01	
2025-01-07 12:44:15.30	283.47	13.01	
2025-01-07 12:44:15.51	283.52	13.01	
2025-01-07 12:44:15.71	283.56	13.01	
2025-01-07 12:44:15.92	283.60	13.01	
2025-01-07 12:44:16.12	283.64	13.01	
2025-01-07 12:44:16.33	283.68	13.00	
2025-01-07 12:44:16.53	283.72	13.00	
2025-01-07 12:44:16.74	283.76	13.00	
2025-01-07 12:44:16.94	283.80	13.00	
2025-01-07 12:44:17.15	283.84	13.00	
2025-01-07 12:44:17.35	283.88	13.00	
2025-01-07 12:44:17.56	283.92	13.00	
2025-01-07 12:44:17.76	283.96	13.00	
2025-01-07 12:44:17.97	284.00	13.00	
2025-01-07 12:44:18.17	284.04	13.00	
2025-01-07 12:44:18.38	284.09	13.00	
2025-01-07 12:44:18.59	284.13	13.00	
2025-01-07 12:44:18.79	284.17	12.99	
2025-01-07 12:44:19.00	284.21	12.99	
2025-01-07 12:44:19.22	284.25	12.99	
2025-01-07 12:44:19.42	284.29	12.99	
2025-01-07 12:44:19.63	284.33	12.99	
2025-01-07 12:44:19.83	284.37	12.99	
2025-01-07 12:44:20.04	284.41	12.99	
2025-01-07 12:44:20.24	284.45	12.99	
2025-01-07 12:44:20.44	284.49	12.99	
2025-01-07 12:44:20.65	284.54	12.99	
2025-01-07 12:44:20.86	284.58	12.98	
2025-01-07 12:44:21.06	284.62	12.98	
2025-01-07 12:44:21.27	284.66	12.98	
2025-01-07 12:44:21.47	284.70	12.98	
2025-01-07 12:44:21.68	284.74	12.98	
2025-01-07 12:44:21.88	284.78	12.98	
2025-01-07 12:44:22.09	284.82	12.98	
2025-01-07 12:44:22.29	284.86	12.98	
2025-01-07 12:44:22.50	284.90	12.97	
2025-01-07 12:44:22.70	284.94	12.97	
2025-01-07 12:44:22.91	284.98	12.97	
2025-01-07 12:44:23.11	285.02	12.97	
2025-01-07 12:44:23.32	285.06	12.97	
2025-01-07 12:44:23.52	285.10	12.97	
2025-01-07 12:44:23.73	285.14	12.97	
2025-01-07 12:44:23.94	285.19	12.97	
2025-01-07 12:44:24.14	285.23	12.96	
2025-01-07 12:44:24.35	285.27	12.96	
2025-01-07 12:44:24.55	285.31	12.96	
2025-01-07 12:44:24.76	285.35	12.96	
2025-01-07 12:44:24.97	285.39	12.96	
2025-01-07 12:44:25.17	285.43	12.96	
2025-01-07 12:44:25.38	285.47	12.96	
2025-01-07 12:44:25.58	285.51	12.96	
2025-01-07 12:44:25.79	285.55	12.95	
2025-01-07 12:44:25.99	285.59	12.95	
2025-01-07 12:44:26.20	285.63	12.95	
2025-01-07 12:44:26.41	285.67	12.95	
2025-01-07 12:44:26.61	285.71	12.95	
2025-01-07 12:44:26.82	285.76	12.95	
2025-01-07 12:44:27.02	285.80	12.95	
2025-01-07 12:44:27.23	285.84	12.94	
2025-01-07 12:44:27.43	285.88	12.94	
2025-01-07 12:44:27.64	285.92	12.94	
2025-01-07 12:44:27.84	285.96	12.94	
2025-01-07 12:44:28.05	286.00	12.94	
2025-01-07 12:44:28.25	286.04	12.94	
2025-01-07 12:44:28.46	286.08	12.93	
2025-01-07 12:44:28.66	286.12	12.93	
2025-01-07 12:44:28.86	286.16	12.93	
2025-01-07 12:44:29.07	286.20	12.93	
2025-01-07 12:44:29.28	286.24	12.93	
2025-01-07 12:44:29.48	286.28	12.93	
2025-01-07 12:44:29.69	286.32	12.92	
2025-01-07 12:44:29.89	286.36	12.92	
2025-01-07 12:44:30.10	286.40	12.92	
2025-01-07 12:44:30.30	286.44	12.92	
2025-01-07 12:44:30.51	286.48	12.92	
2025-01-07 12:44:30.71	286.52	12.92	
2025-01-07 12:44:30.92	286.56	12.91	
2025-01-07 12:44:31.12	286.60	12.91	
2025-01-07 12:44:31.33	286.65	12.91	
2025-01-07 12:44:31.54	286.69	12.91	
2025-01-07 12:44:31.74	286.73	12.91	
2025-01-07 12:44:31.95	286.77	12.91	
2025-01-07 12:44:32.15	286.81	12.90	
2025-01-07 12:44:32.36	286.85	12.90	
2025-01-07 12:44:32.57	286.89	12.90	
2025-01-07 12:44:32.77	286.93	12.90	
2025-01-07 12:44:32.97	286.97	12.90	
2025-01-07 12:44:33.18	287.01	12.89	
2025-01-07 12:44:33.39	287.05	12.89	
2025-01-07 12:44:33.59	287.09	12.89	
2025-01-07 12:44:33.80	287.13	12.89	
2025-01-07 12:44:34.00	287.17	12.89	
2025-01-07 12:44:34.21	287.21	12.89	
2025-01-07 12:44:34.41	287.25	12.88	
2025-01-07 12:44:34.62	287.29	12.88	
2025-01-07 12:44:34.83	287.33	12.88	
2025-01-07 12:44:35.03	287.37	12.88	
2025-01-07 12:44:35.25	287.42	12.88	
2025-01-07 12:44:35.46	287.46	12.87	
2025-01-07 12:44:35.66	287.50	12.87	
2025-01-07 12:44:35.87	287.54	12.87	
2025-01-07 12:44:36.07	287.58	12.87	
2025-01-07 12:44:36.28	287.62	12.86	
2025-01-07 12:44:36.48	287.66	12.86	
2025-01-07 12:44:36.69	287.70	12.86	
2025-01-07 12:44:36.90	287.74	12.86	
2025-01-07 12:44:37.10	287.78	12.86	
2025-01-07 12:44:37.32	287.82	12.85	
2025-01-07 12:44:37.52	287.86	12.85	
2025-01-07 12:44:37.73	287.90	12.85	
2025-01-07 12:44:37.94	287.95	12.85	
2025-01-07 12:44:38.14	287.98	12.85	
2025-01-07 12:44:38.35	288.03	12.84	
2025-01-07 12:44:38.55	288.06	12.84	
2025-01-07 12:44:38.76	288.11	12.84	
2025-01-07 12:44:38.97	288.15	12.84	
2025-01-07 12:44:39.17	288.19	12.83	
2025-01-07 12:44:39.37	288.23	12.83	
2025-01-07 12:44:39.58	288.27	12.83	
2025-01-07 12:44:39.78	288.31	12.83	
2025-01-07 12:44:39.99	288.35	12.83	
2025-01-07 12:44:40.20	288.39	12.82	
2025-01-07 12:44:40.40	288.43	12.82	
2025-01-07 12:44:40.60	288.47	12.82	
2025-01-07 12:44:40.81	288.51	12.82	
2025-01-07 12:44:41.02	288.55	12.81	
2025-01-07 12:44:41.22	288.59	12.81	
2025-01-07 12:44:41.43	288.63	12.81	
2025-01-07 12:44:41.63	288.67	12.81	
2025-01-07 12:44:41.84	288.71	12.80	
2025-01-07 12:44:42.04	288.75	12.80	
2025-01-07 12:44:42.25	288.79	12.80	
2025-01-07 12:44:42.46	288.83	12.80	
2025-01-07 12:44:42.66	288.87	12.79	
2025-01-07 12:44:42.87	288.91	12.79	
2025-01-07 12:44:43.07	288.95	12.79	
2025-01-07 12:44:43.28	288.99	12.79	
2025-01-07 12:44:43.48	289.03	12.78	
2025-01-07 12:44:43.69	289.07	12.78	
2025-01-07 12:44:43.89	289.11	12.78	
2025-01-07 12:44:44.10	289.15	12.78	
2025-01-07 12:44:44.31	289.19	12.77	
2025-01-07 12:44:44.51	289.23	12.77	
2025-01-07 12:44:44.71	289.27	12.77	
2025-01-07 12:44:44.92	289.31	12.77	
2025-01-07 12:44:45.12	289.35	12.76	
2025-01-07 12:44:45.33	289.39	12.76	
2025-01-07 12:44:45.53	289.43	12.76	
2025-01-07 12:44:45.74	289.47	12.76	
2025-01-07 12:44:45.94	289.51	12.75	
2025-01-07 12:44:46.15	289.55	12.75	
2025-01-07 12:44:46.36	289.59	12.75	
2025-01-07 12:44:46.56	289.63	12.75	
2025-01-07 12:44:46.77	289.67	12.74	
2025-01-07 12:44:46.97	289.71	12.74	
2025-01-07 12:44:47.18	289.75	12.74	
2025-01-07 12:44:47.39	289.79	12.73	
2025-01-07 12:44:47.59	289.83	12.73	
2025-01-07 12:44:47.80	289.87	12.73	
2025-01-07 12:44:48.00	289.91	12.73	
2025-01-07 12:44:48.21	289.95	12.72	
2025-01-07 12:44:48.42	289.99	12.72	
2025-01-07 12:44:48.62	290.03	12.72	
2025-01-07 12:44:48.83	290.07	12.72	
2025-01-07 12:44:49.05	290.12	12.71	
2025-01-07 12:44:49.25	290.15	12.71	
2025-01-07 12:44:49.46	290.20	12.71	
2025-01-07 12:44:49.66	290.23	12.70	
2025-01-07 12:44:49.87	290.27	12.70	
2025-01-07 12:44:50.07	290.31	12.70	
2025-01-07 12:44:50.28	290.35	12.70	
2025-01-07 12:44:50.48	290.39	12.69	
2025-01-07 12:44:50.69	290.43	12.69	
2025-01-07 12:44:50.90	290.47	12.69	
2025-01-07 12:44:51.10	290.51	12.68	
2025-01-07 12:44:51.31	290.55	12.68	
2025-01-07 12:44:51.51	290.59	12.68	
2025-01-07 12:44:51.72	290.63	12.67	
2025-01-07 12:44:51.92	290.67	12.67	
2025-01-07 12:44:52.13	290.71	12.67	
2025-01-07 12:44:52.33	290.75	12.67	
2025-01-07 12:44:52.54	290.79	12.66	
2025-01-07 12:44:52.75	290.83	12.66	
2025-01-07 12:44:52.95	290.87	12.66	
2025-01-07 12:44:53.16	290.91	12.65	
2025-01-07 12:44:53.38	290.96	12.65	
2025-01-07 12:44:53.58	290.99	12.65	
2025-01-07 12:44:53.79	291.03	12.64	
2025-01-07 12:44:53.99	291.07	12.64	
2025-01-07 12:44:54.20	291.11	12.64	
2025-01-07 12:44:54.40	291.15	12.63	
2025-01-07 12:44:54.61	291.19	12.63	
2025-01-07 12:44:54.81	291.23	12.63	
2025-01-07 12:44:55.02	291.27	12.62	
