passes_logs/2025/01/07/SPB_Silybum_02/SPB_Silybum_02__20250107_055939_TERRA_rec.log

#Pass ID: 20250107_055939_TERRA
#Satellite: TERRA
#Configuration: TERRA
#Start time: 2025-01-07 05:59:39

#Version: 2.0.20230423
#Station: SPB_Silybum_02
#Location: 30.233357 lon 59.946436 lat
#TLE: 1 25994U 99068A   25006.77118991  .00001382  00000+0  29492-3 0  9999
#TLE: 2 25994  98.0231  70.0628 0003576  88.8854  23.4584 14.60378914332871

#Time	Az	El	Level	Level2	SNR	BER	Gain	Gain2
2025-01-07 05:59:41.75	39.53	4.09	
2025-01-07 05:59:41.96	39.56	4.09	
2025-01-07 05:59:42.16	39.59	4.10	
2025-01-07 05:59:42.37	39.62	4.11	
2025-01-07 05:59:42.57	39.64	4.12	
2025-01-07 05:59:42.79	39.67	4.13	
2025-01-07 05:59:43.00	39.70	4.13	
2025-01-07 05:59:43.20	39.73	4.14	
2025-01-07 05:59:43.41	39.76	4.15	
2025-01-07 05:59:43.61	39.79	4.16	
2025-01-07 05:59:43.82	39.82	4.17	
2025-01-07 05:59:44.02	39.84	4.17	
2025-01-07 05:59:44.23	39.87	4.18	
2025-01-07 05:59:44.43	39.90	4.19	
2025-01-07 05:59:44.64	39.93	4.20	
2025-01-07 05:59:44.84	39.96	4.21	
2025-01-07 05:59:45.05	39.99	4.21	
2025-01-07 05:59:45.26	40.01	4.22	
2025-01-07 05:59:45.46	40.04	4.23	
2025-01-07 05:59:45.67	40.07	4.24	
2025-01-07 05:59:45.87	40.10	4.25	
2025-01-07 05:59:46.07	40.13	4.25	
2025-01-07 05:59:46.28	40.16	4.26	
2025-01-07 05:59:46.48	40.18	4.27	
2025-01-07 05:59:46.69	40.21	4.28	
2025-01-07 05:59:46.89	40.24	4.29	
2025-01-07 05:59:47.10	40.27	4.29	
2025-01-07 05:59:47.31	40.30	4.30	
2025-01-07 05:59:47.51	40.33	4.31	
2025-01-07 05:59:47.72	40.36	4.32	
2025-01-07 05:59:47.92	40.39	4.33	
2025-01-07 05:59:48.13	40.41	4.33	
2025-01-07 05:59:48.33	40.44	4.34	
2025-01-07 05:59:48.54	40.47	4.35	
2025-01-07 05:59:48.74	40.50	4.36	
2025-01-07 05:59:48.95	40.53	4.37	
2025-01-07 05:59:49.15	40.56	4.37	
2025-01-07 05:59:49.35	40.59	4.38	
2025-01-07 05:59:49.56	40.62	4.39	
2025-01-07 05:59:49.77	40.64	4.40	
2025-01-07 05:59:49.97	40.67	4.40	
2025-01-07 05:59:50.18	40.70	4.41	
2025-01-07 05:59:50.38	40.73	4.42	
2025-01-07 05:59:50.59	40.76	4.43	
2025-01-07 05:59:50.80	40.79	4.44	
2025-01-07 05:59:51.00	40.82	4.44	
2025-01-07 05:59:51.20	40.85	4.45	
2025-01-07 05:59:51.41	40.88	4.46	
2025-01-07 05:59:51.62	40.91	4.47	
2025-01-07 05:59:51.82	40.93	4.48	
2025-01-07 05:59:52.03	40.96	4.48	
2025-01-07 05:59:52.23	40.99	4.49	
2025-01-07 05:59:52.44	41.02	4.50	
2025-01-07 05:59:52.64	41.05	4.51	
2025-01-07 05:59:52.85	41.08	4.52	
2025-01-07 05:59:53.05	41.11	4.52	
2025-01-07 05:59:53.26	41.14	4.53	
2025-01-07 05:59:53.48	41.17	4.54	
2025-01-07 05:59:53.68	41.20	4.55	
2025-01-07 05:59:53.89	41.23	4.56	
2025-01-07 05:59:54.09	41.26	4.56	
2025-01-07 05:59:54.30	41.29	4.57	
2025-01-07 05:59:54.50	41.31	4.58	
2025-01-07 05:59:54.71	41.34	4.59	
2025-01-07 05:59:54.91	41.37	4.59	
2025-01-07 05:59:55.12	41.40	4.60	
2025-01-07 05:59:55.32	41.43	4.61	
2025-01-07 05:59:55.53	41.46	4.62	
2025-01-07 05:59:55.73	41.49	4.63	
2025-01-07 05:59:55.94	41.52	4.63	
2025-01-07 05:59:56.15	41.55	4.64	
2025-01-07 05:59:56.35	41.58	4.65	
2025-01-07 05:59:56.56	41.61	4.66	
2025-01-07 05:59:56.76	41.64	4.66	
2025-01-07 05:59:56.97	41.67	4.67	
2025-01-07 05:59:57.17	41.70	4.68	
2025-01-07 05:59:57.38	41.73	4.69	
2025-01-07 05:59:57.58	41.75	4.70	
2025-01-07 05:59:57.79	41.78	4.70	
2025-01-07 05:59:57.99	41.81	4.71	
2025-01-07 05:59:58.20	41.84	4.72	
2025-01-07 05:59:58.40	41.87	4.73	
2025-01-07 05:59:58.60	41.90	4.73	
2025-01-07 05:59:58.81	41.93	4.74	
2025-01-07 05:59:59.01	41.96	4.75	
2025-01-07 05:59:59.22	41.99	4.76	
2025-01-07 05:59:59.43	42.02	4.77	
2025-01-07 05:59:59.63	42.05	4.77	
2025-01-07 05:59:59.85	42.08	4.78	
2025-01-07 06:00:00.05	42.11	4.79	
2025-01-07 06:00:00.26	42.14	4.80	
2025-01-07 06:00:00.46	42.17	4.80	
2025-01-07 06:00:00.67	42.20	4.81	
2025-01-07 06:00:00.87	42.23	4.82	
2025-01-07 06:00:01.08	42.26	4.83	
2025-01-07 06:00:01.28	42.29	4.84	
2025-01-07 06:00:01.49	42.32	4.84	
2025-01-07 06:00:01.69	42.35	4.85	
2025-01-07 06:00:01.90	42.38	4.86	
2025-01-07 06:00:02.10	42.41	4.87	
2025-01-07 06:00:02.31	42.44	4.87	
2025-01-07 06:00:02.51	42.47	4.88	
2025-01-07 06:00:02.72	42.50	4.89	
2025-01-07 06:00:02.92	42.53	4.90	
2025-01-07 06:00:03.13	42.56	4.91	
2025-01-07 06:00:03.33	42.59	4.91	
2025-01-07 06:00:03.54	42.62	4.92	
2025-01-07 06:00:03.74	42.65	4.93	
2025-01-07 06:00:03.95	42.68	4.94	
2025-01-07 06:00:04.15	42.71	4.94	
2025-01-07 06:00:04.36	42.74	4.95	
2025-01-07 06:00:04.56	42.77	4.96	
2025-01-07 06:00:04.77	42.80	4.97	
2025-01-07 06:00:04.97	42.83	4.97	
2025-01-07 06:00:05.19	42.86	4.98	
2025-01-07 06:00:05.40	42.89	4.99	
2025-01-07 06:00:05.60	42.92	5.00	
2025-01-07 06:00:05.81	42.95	5.01	
2025-01-07 06:00:06.01	42.98	5.01	
2025-01-07 06:00:06.22	43.01	5.02	
2025-01-07 06:00:06.42	43.04	5.03	
2025-01-07 06:00:06.63	43.07	5.04	
2025-01-07 06:00:06.83	43.10	5.04	
2025-01-07 06:00:07.04	43.13	5.05	
2025-01-07 06:00:07.24	43.16	5.06	
2025-01-07 06:00:07.45	43.19	5.07	
2025-01-07 06:00:07.65	43.22	5.07	
2025-01-07 06:00:07.86	43.25	5.08	
2025-01-07 06:00:08.06	43.28	5.09	
2025-01-07 06:00:08.27	43.31	5.10	
2025-01-07 06:00:08.48	43.34	5.10	
2025-01-07 06:00:08.68	43.37	5.11	
2025-01-07 06:00:08.89	43.40	5.12	
2025-01-07 06:00:09.09	43.43	5.13	
2025-01-07 06:00:09.29	43.46	5.13	
2025-01-07 06:00:09.50	43.50	5.14	
2025-01-07 06:00:09.71	43.53	5.15	
2025-01-07 06:00:09.91	43.56	5.16	
2025-01-07 06:00:10.11	43.59	5.17	
2025-01-07 06:00:10.32	43.62	5.17	
2025-01-07 06:00:10.52	43.65	5.18	
2025-01-07 06:00:10.73	43.68	5.19	
2025-01-07 06:00:10.93	43.71	5.20	
2025-01-07 06:00:11.14	43.74	5.20	
2025-01-07 06:00:11.35	43.77	5.21	
2025-01-07 06:00:11.55	43.80	5.22	
2025-01-07 06:00:11.75	43.83	5.23	
2025-01-07 06:00:11.96	43.86	5.23	
2025-01-07 06:00:12.16	43.89	5.24	
2025-01-07 06:00:12.37	43.92	5.25	
2025-01-07 06:00:12.57	43.95	5.26	
2025-01-07 06:00:12.78	43.98	5.26	
2025-01-07 06:00:12.98	44.01	5.27	
2025-01-07 06:00:13.19	44.05	5.28	
2025-01-07 06:00:13.39	44.08	5.29	
2025-01-07 06:00:13.60	44.11	5.29	
2025-01-07 06:00:13.80	44.14	5.30	
2025-01-07 06:00:14.01	44.17	5.31	
2025-01-07 06:00:14.21	44.20	5.32	
2025-01-07 06:00:14.42	44.23	5.32	
2025-01-07 06:00:14.62	44.26	5.33	
2025-01-07 06:00:14.82	44.29	5.34	
2025-01-07 06:00:15.03	44.32	5.35	
2025-01-07 06:00:15.24	44.35	5.35	
2025-01-07 06:00:15.44	44.38	5.36	
2025-01-07 06:00:15.65	44.42	5.37	
2025-01-07 06:00:15.85	44.45	5.38	
2025-01-07 06:00:16.06	44.48	5.38	
2025-01-07 06:00:16.26	44.51	5.39	
2025-01-07 06:00:16.47	44.54	5.40	
2025-01-07 06:00:16.67	44.57	5.41	
2025-01-07 06:00:16.88	44.60	5.41	
2025-01-07 06:00:17.08	44.63	5.42	
2025-01-07 06:00:17.29	44.66	5.43	
2025-01-07 06:00:17.49	44.69	5.44	
2025-01-07 06:00:17.70	44.73	5.44	
2025-01-07 06:00:17.90	44.76	5.45	
2025-01-07 06:00:18.10	44.79	5.46	
2025-01-07 06:00:18.31	44.82	5.46	
2025-01-07 06:00:18.52	44.85	5.47	
2025-01-07 06:00:18.72	44.88	5.48	
2025-01-07 06:00:18.93	44.91	5.49	
2025-01-07 06:00:19.13	44.94	5.49	
2025-01-07 06:00:19.34	44.97	5.50	
2025-01-07 06:00:19.55	45.01	5.51	
2025-01-07 06:00:19.75	45.04	5.52	
2025-01-07 06:00:19.96	45.07	5.52	
2025-01-07 06:00:20.16	45.10	5.53	
2025-01-07 06:00:20.37	45.13	5.54	
2025-01-07 06:00:20.57	45.16	5.55	
2025-01-07 06:00:20.78	45.19	5.55	
2025-01-07 06:00:20.98	45.22	5.56	
2025-01-07 06:00:21.20	45.26	5.57	
2025-01-07 06:00:21.41	45.29	5.58	
2025-01-07 06:00:21.61	45.32	5.58	
2025-01-07 06:00:21.82	45.35	5.59	
2025-01-07 06:00:22.02	45.38	5.60	
2025-01-07 06:00:22.23	45.42	5.61	
2025-01-07 06:00:22.43	45.45	5.61	
2025-01-07 06:00:22.64	45.48	5.62	
2025-01-07 06:00:22.84	45.51	5.63	
2025-01-07 06:00:23.05	45.54	5.63	
2025-01-07 06:00:23.25	45.57	5.64	
2025-01-07 06:00:23.46	45.61	5.65	
2025-01-07 06:00:23.66	45.64	5.66	
2025-01-07 06:00:23.87	45.67	5.66	
2025-01-07 06:00:24.07	45.70	5.67	
2025-01-07 06:00:24.28	45.73	5.68	
2025-01-07 06:00:24.49	45.76	5.69	
2025-01-07 06:00:24.69	45.79	5.69	
2025-01-07 06:00:24.89	45.83	5.70	
2025-01-07 06:00:25.10	45.86	5.71	
2025-01-07 06:00:25.30	45.89	5.71	
2025-01-07 06:00:25.51	45.92	5.72	
2025-01-07 06:00:25.71	45.95	5.73	
2025-01-07 06:00:25.92	45.98	5.74	
2025-01-07 06:00:26.13	46.02	5.74	
2025-01-07 06:00:26.33	46.05	5.75	
2025-01-07 06:00:26.54	46.08	5.76	
2025-01-07 06:00:26.75	46.11	5.77	
2025-01-07 06:00:26.95	46.14	5.77	
2025-01-07 06:00:27.16	46.18	5.78	
2025-01-07 06:00:27.36	46.21	5.79	
2025-01-07 06:00:27.58	46.24	5.80	
2025-01-07 06:00:27.79	46.28	5.80	
2025-01-07 06:00:27.99	46.31	5.81	
2025-01-07 06:00:28.20	46.34	5.82	
2025-01-07 06:00:28.40	46.37	5.82	
2025-01-07 06:00:28.61	46.40	5.83	
2025-01-07 06:00:28.81	46.43	5.84	
2025-01-07 06:00:29.02	46.47	5.85	
2025-01-07 06:00:29.22	46.50	5.85	
2025-01-07 06:00:29.43	46.53	5.86	
2025-01-07 06:00:29.63	46.56	5.87	
2025-01-07 06:00:29.84	46.60	5.87	
2025-01-07 06:00:30.04	46.63	5.88	
2025-01-07 06:00:30.25	46.66	5.89	
2025-01-07 06:00:30.46	46.69	5.90	
2025-01-07 06:00:30.66	46.72	5.90	
2025-01-07 06:00:30.86	46.75	5.91	
2025-01-07 06:00:31.07	46.79	5.92	
2025-01-07 06:00:31.28	46.82	5.92	
2025-01-07 06:00:31.48	46.85	5.93	
2025-01-07 06:00:31.69	46.89	5.94	
2025-01-07 06:00:31.89	46.92	5.95	
2025-01-07 06:00:32.10	46.95	5.95	
2025-01-07 06:00:32.30	46.98	5.96	
2025-01-07 06:00:32.51	47.01	5.97	
2025-01-07 06:00:32.71	47.05	5.97	
2025-01-07 06:00:32.93	47.08	5.98	
2025-01-07 06:00:33.14	47.11	5.99	
2025-01-07 06:00:33.34	47.15	6.00	
2025-01-07 06:00:33.55	47.18	6.00	
2025-01-07 06:00:33.75	47.21	6.01	
2025-01-07 06:00:33.96	47.24	6.02	
2025-01-07 06:00:34.16	47.27	6.02	
2025-01-07 06:00:34.37	47.31	6.03	
2025-01-07 06:00:34.57	47.34	6.04	
2025-01-07 06:00:34.78	47.37	6.05	
2025-01-07 06:00:34.98	47.40	6.05	
2025-01-07 06:00:35.19	47.44	6.06	
2025-01-07 06:00:35.39	47.47	6.07	
2025-01-07 06:00:35.60	47.50	6.07	
2025-01-07 06:00:35.81	47.54	6.08	
2025-01-07 06:00:36.01	47.57	6.09	
2025-01-07 06:00:36.21	47.60	6.09	
2025-01-07 06:00:36.42	47.63	6.10	
2025-01-07 06:00:36.63	47.67	6.11	
2025-01-07 06:00:36.83	47.70	6.12	
2025-01-07 06:00:37.03	47.73	6.12	
2025-01-07 06:00:37.24	47.76	6.13	
2025-01-07 06:00:37.45	47.80	6.14	
2025-01-07 06:00:37.65	47.83	6.14	
2025-01-07 06:00:37.86	47.86	6.15	
2025-01-07 06:00:38.06	47.89	6.16	
2025-01-07 06:00:38.28	47.93	6.16	
2025-01-07 06:00:38.49	47.96	6.17	
2025-01-07 06:00:38.69	48.00	6.18	
2025-01-07 06:00:38.90	48.03	6.19	
2025-01-07 06:00:39.10	48.06	6.19	
2025-01-07 06:00:39.32	48.10	6.20	
2025-01-07 06:00:39.53	48.13	6.21	
2025-01-07 06:00:39.73	48.16	6.21	
2025-01-07 06:00:39.94	48.20	6.22	
2025-01-07 06:00:40.14	48.23	6.23	
2025-01-07 06:00:40.36	48.26	6.23	
2025-01-07 06:00:40.57	48.30	6.24	
2025-01-07 06:00:40.77	48.33	6.25	
2025-01-07 06:00:40.98	48.36	6.26	
2025-01-07 06:00:41.18	48.39	6.26	
2025-01-07 06:00:41.40	48.43	6.27	
2025-01-07 06:00:41.61	48.46	6.28	
2025-01-07 06:00:41.81	48.50	6.28	
2025-01-07 06:00:42.02	48.53	6.29	
2025-01-07 06:00:42.22	48.56	6.30	
2025-01-07 06:00:42.43	48.60	6.30	
2025-01-07 06:00:42.63	48.63	6.31	
2025-01-07 06:00:42.84	48.66	6.32	
2025-01-07 06:00:43.05	48.70	6.32	
2025-01-07 06:00:43.25	48.73	6.33	
2025-01-07 06:00:43.47	48.76	6.34	
2025-01-07 06:00:43.67	48.80	6.34	
2025-01-07 06:00:43.88	48.83	6.35	
2025-01-07 06:00:44.09	48.86	6.36	
2025-01-07 06:00:44.29	48.90	6.37	
2025-01-07 06:00:44.50	48.93	6.37	
2025-01-07 06:00:44.70	48.96	6.38	
2025-01-07 06:00:44.91	49.00	6.39	
2025-01-07 06:00:45.11	49.03	6.39	
2025-01-07 06:00:45.32	49.06	6.40	
2025-01-07 06:00:45.52	49.10	6.41	
2025-01-07 06:00:45.72	49.13	6.41	
2025-01-07 06:00:45.93	49.16	6.42	
2025-01-07 06:00:46.13	49.20	6.43	
2025-01-07 06:00:46.34	49.23	6.43	
2025-01-07 06:00:46.54	49.26	6.44	
2025-01-07 06:00:46.75	49.30	6.45	
2025-01-07 06:00:46.95	49.33	6.45	
2025-01-07 06:00:47.16	49.36	6.46	
2025-01-07 06:00:47.38	49.40	6.47	
2025-01-07 06:00:47.59	49.43	6.47	
2025-01-07 06:00:47.79	49.47	6.48	
2025-01-07 06:00:47.99	49.50	6.49	
2025-01-07 06:00:48.20	49.53	6.49	
2025-01-07 06:00:48.41	49.57	6.50	
2025-01-07 06:00:48.61	49.60	6.51	
2025-01-07 06:00:48.82	49.64	6.51	
2025-01-07 06:00:49.02	49.67	6.52	
2025-01-07 06:00:49.23	49.70	6.53	
2025-01-07 06:00:49.44	49.74	6.53	
2025-01-07 06:00:49.64	49.77	6.54	
2025-01-07 06:00:49.84	49.80	6.55	
2025-01-07 06:00:50.05	49.84	6.55	
2025-01-07 06:00:50.26	49.87	6.56	
2025-01-07 06:00:50.46	49.90	6.57	
2025-01-07 06:00:50.67	49.94	6.57	
2025-01-07 06:00:50.87	49.97	6.58	
2025-01-07 06:00:51.08	50.01	6.59	
2025-01-07 06:00:51.28	50.04	6.59	
2025-01-07 06:00:51.49	50.07	6.60	
2025-01-07 06:00:51.69	50.11	6.61	
2025-01-07 06:00:51.90	50.14	6.61	
2025-01-07 06:00:52.10	50.18	6.62	
2025-01-07 06:00:52.31	50.21	6.63	
2025-01-07 06:00:52.51	50.24	6.63	
2025-01-07 06:00:52.72	50.28	6.64	
2025-01-07 06:00:52.92	50.31	6.65	
2025-01-07 06:00:53.13	50.35	6.65	
2025-01-07 06:00:53.33	50.38	6.66	
2025-01-07 06:00:53.54	50.41	6.67	
2025-01-07 06:00:53.75	50.45	6.67	
2025-01-07 06:00:53.95	50.48	6.68	
2025-01-07 06:00:54.15	50.51	6.68	
2025-01-07 06:00:54.36	50.55	6.69	
2025-01-07 06:00:54.57	50.58	6.70	
2025-01-07 06:00:54.77	50.62	6.70	
2025-01-07 06:00:54.98	50.65	6.71	
2025-01-07 06:00:55.18	50.69	6.72	
2025-01-07 06:00:55.39	50.72	6.72	
2025-01-07 06:00:55.59	50.75	6.73	
2025-01-07 06:00:55.80	50.79	6.74	
2025-01-07 06:00:56.00	50.82	6.74	
2025-01-07 06:00:56.21	50.86	6.75	
2025-01-07 06:00:56.41	50.89	6.76	
2025-01-07 06:00:56.62	50.93	6.76	
2025-01-07 06:00:56.82	50.96	6.77	
2025-01-07 06:00:57.03	50.99	6.78	
2025-01-07 06:00:57.23	51.03	6.78	
2025-01-07 06:00:57.45	51.06	6.79	
2025-01-07 06:00:57.65	51.10	6.79	
2025-01-07 06:00:57.86	51.13	6.80	
2025-01-07 06:00:58.07	51.17	6.81	
2025-01-07 06:00:58.27	51.20	6.81	
2025-01-07 06:00:58.48	51.24	6.82	
2025-01-07 06:00:58.68	51.27	6.83	
2025-01-07 06:00:58.89	51.31	6.83	
2025-01-07 06:00:59.09	51.34	6.84	
2025-01-07 06:00:59.30	51.37	6.85	
2025-01-07 06:00:59.52	51.41	6.85	
2025-01-07 06:00:59.72	51.44	6.86	
2025-01-07 06:00:59.92	51.48	6.87	
2025-01-07 06:01:00.13	51.51	6.87	
2025-01-07 06:01:00.33	51.55	6.88	
2025-01-07 06:01:00.54	51.58	6.88	
2025-01-07 06:01:00.74	51.62	6.89	
2025-01-07 06:01:00.95	51.65	6.90	
2025-01-07 06:01:01.15	51.69	6.90	
2025-01-07 06:01:01.36	51.72	6.91	
2025-01-07 06:01:01.56	51.75	6.92	
2025-01-07 06:01:01.77	51.79	6.92	
2025-01-07 06:01:01.97	51.82	6.93	
2025-01-07 06:01:02.18	51.86	6.93	
2025-01-07 06:01:02.38	51.89	6.94	
2025-01-07 06:01:02.59	51.93	6.95	
2025-01-07 06:01:02.80	51.96	6.95	
2025-01-07 06:01:03.01	52.00	6.96	
2025-01-07 06:01:03.22	52.04	6.97	
2025-01-07 06:01:03.42	52.07	6.97	
2025-01-07 06:01:03.63	52.10	6.98	
2025-01-07 06:01:03.83	52.14	6.98	
2025-01-07 06:01:04.04	52.17	6.99	
2025-01-07 06:01:04.24	52.21	7.00	
2025-01-07 06:01:04.45	52.24	7.00	
2025-01-07 06:01:04.65	52.28	7.01	
2025-01-07 06:01:04.86	52.31	7.02	
2025-01-07 06:01:05.06	52.35	7.02	
2025-01-07 06:01:05.27	52.38	7.03	
2025-01-07 06:01:05.47	52.42	7.03	
2025-01-07 06:01:05.68	52.45	7.04	
2025-01-07 06:01:05.90	52.49	7.05	
2025-01-07 06:01:06.10	52.52	7.05	
2025-01-07 06:01:06.31	52.56	7.06	
2025-01-07 06:01:06.51	52.59	7.06	
2025-01-07 06:01:06.72	52.63	7.07	
2025-01-07 06:01:06.92	52.66	7.08	
2025-01-07 06:01:07.13	52.70	7.08	
2025-01-07 06:01:07.33	52.73	7.09	
2025-01-07 06:01:07.54	52.77	7.10	
2025-01-07 06:01:07.75	52.81	7.10	
2025-01-07 06:01:07.95	52.84	7.11	
2025-01-07 06:01:08.16	52.88	7.11	
2025-01-07 06:01:08.36	52.91	7.12	
2025-01-07 06:01:08.57	52.95	7.13	
2025-01-07 06:01:08.77	52.98	7.13	
2025-01-07 06:01:08.98	53.02	7.14	
2025-01-07 06:01:09.18	53.05	7.14	
2025-01-07 06:01:09.39	53.09	7.15	
2025-01-07 06:01:09.59	53.12	7.16	
2025-01-07 06:01:09.80	53.16	7.16	
2025-01-07 06:01:10.00	53.19	7.17	
2025-01-07 06:01:10.21	53.23	7.17	
2025-01-07 06:01:10.41	53.26	7.18	
2025-01-07 06:01:10.62	53.30	7.19	
2025-01-07 06:01:10.82	53.33	7.19	
2025-01-07 06:01:11.03	53.37	7.20	
2025-01-07 06:01:11.23	53.40	7.20	
2025-01-07 06:01:11.44	53.44	7.21	
2025-01-07 06:01:11.64	53.47	7.22	
2025-01-07 06:01:11.85	53.51	7.22	
2025-01-07 06:01:12.05	53.55	7.23	
2025-01-07 06:01:12.25	53.58	7.23	
2025-01-07 06:01:12.46	53.62	7.24	
2025-01-07 06:01:12.66	53.65	7.24	
2025-01-07 06:01:12.87	53.69	7.25	
2025-01-07 06:01:13.08	53.72	7.26	
2025-01-07 06:01:13.28	53.76	7.26	
2025-01-07 06:01:13.48	53.79	7.27	
2025-01-07 06:01:13.69	53.83	7.27	
2025-01-07 06:01:13.90	53.87	7.28	
2025-01-07 06:01:14.10	53.90	7.29	
2025-01-07 06:01:14.31	53.94	7.29	
2025-01-07 06:01:14.51	53.97	7.30	
2025-01-07 06:01:14.71	54.01	7.30	
2025-01-07 06:01:14.92	54.04	7.31	
2025-01-07 06:01:15.13	54.08	7.32	
2025-01-07 06:01:15.33	54.11	7.32	
2025-01-07 06:01:15.53	54.15	7.33	
2025-01-07 06:01:15.74	54.18	7.33	
2025-01-07 06:01:15.94	54.22	7.34	
2025-01-07 06:01:16.15	54.26	7.34	
2025-01-07 06:01:16.35	54.29	7.35	
2025-01-07 06:01:16.56	54.33	7.36	
2025-01-07 06:01:16.76	54.36	7.36	
2025-01-07 06:01:16.97	54.40	7.37	
2025-01-07 06:01:17.18	54.44	7.37	
2025-01-07 06:01:17.38	54.47	7.38	
2025-01-07 06:01:17.58	54.51	7.38	
2025-01-07 06:01:17.79	54.54	7.39	
2025-01-07 06:01:18.00	54.58	7.40	
2025-01-07 06:01:18.20	54.61	7.40	
2025-01-07 06:01:18.41	54.65	7.41	
2025-01-07 06:01:18.61	54.69	7.41	
2025-01-07 06:01:18.82	54.72	7.42	
2025-01-07 06:01:19.02	54.76	7.42	
2025-01-07 06:01:19.23	54.79	7.43	
2025-01-07 06:01:19.43	54.83	7.44	
2025-01-07 06:01:19.64	54.87	7.44	
2025-01-07 06:01:19.84	54.90	7.45	
2025-01-07 06:01:20.05	54.94	7.45	
2025-01-07 06:01:20.25	54.97	7.46	
2025-01-07 06:01:20.45	55.01	7.46	
2025-01-07 06:01:20.66	55.05	7.47	
2025-01-07 06:01:20.88	55.08	7.47	
2025-01-07 06:01:21.08	55.12	7.48	
2025-01-07 06:01:21.29	55.16	7.49	
2025-01-07 06:01:21.50	55.19	7.49	
2025-01-07 06:01:21.70	55.23	7.50	
2025-01-07 06:01:21.91	55.26	7.50	
2025-01-07 06:01:22.11	55.30	7.51	
2025-01-07 06:01:22.32	55.34	7.51	
2025-01-07 06:01:22.52	55.37	7.52	
2025-01-07 06:01:22.73	55.41	7.52	
2025-01-07 06:01:22.93	55.44	7.53	
2025-01-07 06:01:23.14	55.48	7.54	
2025-01-07 06:01:23.35	55.52	7.54	
2025-01-07 06:01:23.55	55.55	7.55	
2025-01-07 06:01:23.76	55.59	7.55	
2025-01-07 06:01:23.96	55.63	7.56	
2025-01-07 06:01:24.16	55.66	7.56	
2025-01-07 06:01:24.37	55.70	7.57	
2025-01-07 06:01:24.57	55.73	7.57	
2025-01-07 06:01:24.78	55.77	7.58	
2025-01-07 06:01:24.98	55.81	7.58	
2025-01-07 06:01:25.19	55.84	7.59	
2025-01-07 06:01:25.39	55.88	7.60	
2025-01-07 06:01:25.60	55.92	7.60	
2025-01-07 06:01:25.80	55.95	7.61	
2025-01-07 06:01:26.02	55.99	7.61	
2025-01-07 06:01:26.22	56.03	7.62	
2025-01-07 06:01:26.43	56.06	7.62	
2025-01-07 06:01:26.63	56.10	7.63	
2025-01-07 06:01:26.84	56.14	7.63	
2025-01-07 06:01:27.04	56.17	7.64	
2025-01-07 06:01:27.24	56.21	7.64	
2025-01-07 06:01:27.45	56.25	7.65	
2025-01-07 06:01:27.65	56.28	7.65	
2025-01-07 06:01:27.86	56.32	7.66	
2025-01-07 06:01:28.06	56.35	7.67	
2025-01-07 06:01:28.26	56.39	7.67	
2025-01-07 06:01:28.47	56.43	7.68	
2025-01-07 06:01:28.67	56.46	7.68	
2025-01-07 06:01:28.88	56.50	7.69	
2025-01-07 06:01:29.09	56.54	7.69	
2025-01-07 06:01:29.29	56.57	7.70	
2025-01-07 06:01:29.49	56.61	7.70	
2025-01-07 06:01:29.70	56.65	7.71	
2025-01-07 06:01:29.91	56.69	7.71	
2025-01-07 06:01:30.11	56.72	7.72	
2025-01-07 06:01:30.32	56.76	7.72	
2025-01-07 06:01:30.52	56.79	7.73	
2025-01-07 06:01:30.73	56.83	7.73	
2025-01-07 06:01:30.93	56.87	7.74	
2025-01-07 06:01:31.14	56.91	7.74	
2025-01-07 06:01:31.34	56.94	7.75	
2025-01-07 06:01:31.55	56.98	7.75	
2025-01-07 06:01:31.75	57.01	7.76	
2025-01-07 06:01:31.96	57.05	7.77	
2025-01-07 06:01:32.16	57.09	7.77	
2025-01-07 06:01:32.37	57.13	7.78	
2025-01-07 06:01:32.57	57.16	7.78	
2025-01-07 06:01:32.78	57.20	7.79	
2025-01-07 06:01:32.98	57.24	7.79	
2025-01-07 06:01:33.19	57.27	7.80	
2025-01-07 06:01:33.39	57.31	7.80	
2025-01-07 06:01:33.60	57.35	7.81	
2025-01-07 06:01:33.80	57.38	7.81	
2025-01-07 06:01:34.01	57.42	7.82	
2025-01-07 06:01:34.21	57.46	7.82	
2025-01-07 06:01:34.42	57.50	7.83	
2025-01-07 06:01:34.63	57.53	7.83	
2025-01-07 06:01:34.83	57.57	7.84	
2025-01-07 06:01:35.03	57.61	7.84	
2025-01-07 06:01:35.24	57.64	7.85	
2025-01-07 06:01:35.44	57.68	7.85	
2025-01-07 06:01:35.65	57.72	7.86	
2025-01-07 06:01:35.87	57.76	7.86	
2025-01-07 06:01:36.07	57.79	7.87	
2025-01-07 06:01:36.28	57.83	7.87	
2025-01-07 06:01:36.48	57.87	7.88	
2025-01-07 06:01:36.69	57.91	7.88	
2025-01-07 06:01:36.89	57.94	7.89	
2025-01-07 06:01:37.10	57.98	7.89	
2025-01-07 06:01:37.30	58.02	7.90	
2025-01-07 06:01:37.51	58.05	7.90	
2025-01-07 06:01:37.71	58.09	7.91	
2025-01-07 06:01:37.92	58.13	7.91	
2025-01-07 06:01:38.12	58.16	7.92	
2025-01-07 06:01:38.33	58.20	7.92	
2025-01-07 06:01:38.53	58.24	7.93	
2025-01-07 06:01:38.74	58.28	7.93	
2025-01-07 06:01:38.94	58.31	7.94	
2025-01-07 06:01:39.14	58.35	7.94	
2025-01-07 06:01:39.35	58.39	7.95	
2025-01-07 06:01:39.55	58.42	7.95	
2025-01-07 06:01:39.76	58.46	7.96	
2025-01-07 06:01:39.96	58.50	7.96	
2025-01-07 06:01:40.17	58.54	7.96	
2025-01-07 06:01:40.37	58.57	7.97	
2025-01-07 06:01:40.58	58.61	7.97	
2025-01-07 06:01:40.78	58.65	7.98	
2025-01-07 06:01:40.99	58.69	7.98	
2025-01-07 06:01:41.19	58.72	7.99	
2025-01-07 06:01:41.40	58.76	7.99	
2025-01-07 06:01:41.60	58.80	8.00	
2025-01-07 06:01:41.81	58.84	8.00	
2025-01-07 06:01:42.01	58.87	8.01	
2025-01-07 06:01:42.21	58.91	8.01	
2025-01-07 06:01:42.42	58.95	8.02	
2025-01-07 06:01:42.63	58.99	8.02	
2025-01-07 06:01:42.83	59.02	8.03	
2025-01-07 06:01:43.04	59.06	8.03	
2025-01-07 06:01:43.24	59.10	8.04	
2025-01-07 06:01:43.45	59.14	8.04	
2025-01-07 06:01:43.65	59.17	8.04	
2025-01-07 06:01:43.86	59.21	8.05	
2025-01-07 06:01:44.06	59.25	8.05	
2025-01-07 06:01:44.28	59.29	8.06	
2025-01-07 06:01:44.49	59.33	8.06	
2025-01-07 06:01:44.69	59.36	8.07	
2025-01-07 06:01:44.90	59.40	8.07	
2025-01-07 06:01:45.10	59.44	8.08	
2025-01-07 06:01:45.31	59.48	8.08	
2025-01-07 06:01:45.51	59.51	8.09	
2025-01-07 06:01:45.72	59.55	8.09	
2025-01-07 06:01:45.92	59.59	8.10	
2025-01-07 06:01:46.13	59.63	8.10	
2025-01-07 06:01:46.34	59.67	8.11	
2025-01-07 06:01:46.54	59.70	8.11	
2025-01-07 06:01:46.75	59.74	8.11	
2025-01-07 06:01:46.95	59.78	8.12	
2025-01-07 06:01:47.16	59.82	8.12	
2025-01-07 06:01:47.37	59.86	8.13	
2025-01-07 06:01:47.57	59.89	8.13	
2025-01-07 06:01:47.77	59.93	8.14	
2025-01-07 06:01:47.98	59.97	8.14	
2025-01-07 06:01:48.18	60.01	8.15	
2025-01-07 06:01:48.39	60.05	8.15	
2025-01-07 06:01:48.59	60.08	8.15	
2025-01-07 06:01:48.80	60.12	8.16	
2025-01-07 06:01:49.00	60.16	8.16	
2025-01-07 06:01:49.21	60.20	8.17	
2025-01-07 06:01:49.41	60.23	8.17	
2025-01-07 06:01:49.62	60.27	8.18	
2025-01-07 06:01:49.82	60.31	8.18	
2025-01-07 06:01:50.03	60.35	8.19	
2025-01-07 06:01:50.23	60.39	8.19	
2025-01-07 06:01:50.44	60.42	8.19	
2025-01-07 06:01:50.65	60.46	8.20	
2025-01-07 06:01:50.85	60.50	8.20	
2025-01-07 06:01:51.05	60.54	8.21	
2025-01-07 06:01:51.26	60.58	8.21	
2025-01-07 06:01:51.47	60.62	8.22	
2025-01-07 06:01:51.67	60.65	8.22	
2025-01-07 06:01:51.88	60.69	8.22	
2025-01-07 06:01:52.08	60.73	8.23	
2025-01-07 06:01:52.29	60.77	8.23	
2025-01-07 06:01:52.49	60.81	8.24	
2025-01-07 06:01:52.70	60.84	8.24	
2025-01-07 06:01:52.90	60.88	8.25	
2025-01-07 06:01:53.11	60.92	8.25	
2025-01-07 06:01:53.31	60.96	8.25	
2025-01-07 06:01:53.52	61.00	8.26	
2025-01-07 06:01:53.72	61.03	8.26	
2025-01-07 06:01:53.92	61.07	8.27	
2025-01-07 06:01:54.13	61.11	8.27	
2025-01-07 06:01:54.34	61.15	8.28	
2025-01-07 06:01:54.55	61.19	8.28	
2025-01-07 06:01:54.76	61.23	8.28	
2025-01-07 06:01:54.96	61.26	8.29	
2025-01-07 06:01:55.17	61.30	8.29	
2025-01-07 06:01:55.37	61.34	8.30	
2025-01-07 06:01:55.58	61.38	8.30	
2025-01-07 06:01:55.78	61.42	8.30	
2025-01-07 06:01:55.99	61.46	8.31	
2025-01-07 06:01:56.19	61.49	8.31	
2025-01-07 06:01:56.40	61.53	8.32	
2025-01-07 06:01:56.60	61.57	8.32	
2025-01-07 06:01:56.81	61.61	8.32	
2025-01-07 06:01:57.01	61.65	8.33	
2025-01-07 06:01:57.22	61.69	8.33	
2025-01-07 06:01:57.42	61.72	8.34	
2025-01-07 06:01:57.63	61.76	8.34	
2025-01-07 06:01:57.84	61.80	8.35	
2025-01-07 06:01:58.04	61.84	8.35	
2025-01-07 06:01:58.25	61.88	8.35	
2025-01-07 06:01:58.45	61.92	8.36	
2025-01-07 06:01:58.65	61.96	8.36	
2025-01-07 06:01:58.86	61.99	8.36	
2025-01-07 06:01:59.07	62.03	8.37	
2025-01-07 06:01:59.27	62.07	8.37	
2025-01-07 06:01:59.47	62.11	8.38	
2025-01-07 06:01:59.68	62.15	8.38	
2025-01-07 06:01:59.88	62.19	8.38	
2025-01-07 06:02:00.09	62.23	8.39	
2025-01-07 06:02:00.29	62.26	8.39	
2025-01-07 06:02:00.50	62.30	8.40	
2025-01-07 06:02:00.70	62.34	8.40	
2025-01-07 06:02:00.91	62.38	8.40	
2025-01-07 06:02:01.11	62.42	8.41	
2025-01-07 06:02:01.32	62.46	8.41	
2025-01-07 06:02:01.52	62.49	8.42	
2025-01-07 06:02:01.73	62.53	8.42	
2025-01-07 06:02:01.93	62.57	8.42	
2025-01-07 06:02:02.14	62.61	8.43	
2025-01-07 06:02:02.34	62.65	8.43	
2025-01-07 06:02:02.55	62.69	8.43	
2025-01-07 06:02:02.75	62.73	8.44	
2025-01-07 06:02:02.96	62.77	8.44	
2025-01-07 06:02:03.16	62.80	8.45	
2025-01-07 06:02:03.37	62.84	8.45	
2025-01-07 06:02:03.57	62.88	8.45	
2025-01-07 06:02:03.78	62.92	8.46	
2025-01-07 06:02:03.98	62.96	8.46	
2025-01-07 06:02:04.19	63.00	8.46	
2025-01-07 06:02:04.40	63.04	8.47	
2025-01-07 06:02:04.60	63.08	8.47	
2025-01-07 06:02:04.80	63.11	8.48	
2025-01-07 06:02:05.01	63.15	8.48	
2025-01-07 06:02:05.22	63.19	8.48	
2025-01-07 06:02:05.42	63.23	8.49	
2025-01-07 06:02:05.63	63.27	8.49	
2025-01-07 06:02:05.83	63.31	8.49	
2025-01-07 06:02:06.04	63.35	8.50	
2025-01-07 06:02:06.24	63.39	8.50	
2025-01-07 06:02:06.45	63.43	8.50	
2025-01-07 06:02:06.65	63.46	8.51	
2025-01-07 06:02:06.86	63.50	8.51	
2025-01-07 06:02:07.06	63.54	8.52	
2025-01-07 06:02:07.27	63.58	8.52	
2025-01-07 06:02:07.47	63.62	8.52	
2025-01-07 06:02:07.68	63.66	8.53	
2025-01-07 06:02:07.88	63.70	8.53	
2025-01-07 06:02:08.09	63.74	8.53	
2025-01-07 06:02:08.29	63.78	8.54	
2025-01-07 06:02:08.50	63.81	8.54	
2025-01-07 06:02:08.70	63.85	8.54	
2025-01-07 06:02:08.91	63.89	8.55	
2025-01-07 06:02:09.11	63.93	8.55	
2025-01-07 06:02:09.32	63.97	8.55	
2025-01-07 06:02:09.52	64.01	8.56	
2025-01-07 06:02:09.73	64.05	8.56	
2025-01-07 06:02:09.93	64.09	8.56	
2025-01-07 06:02:10.14	64.13	8.57	
2025-01-07 06:02:10.34	64.16	8.57	
2025-01-07 06:02:10.55	64.20	8.57	
2025-01-07 06:02:10.75	64.24	8.58	
2025-01-07 06:02:10.96	64.28	8.58	
2025-01-07 06:02:11.16	64.32	8.58	
2025-01-07 06:02:11.37	64.36	8.59	
2025-01-07 06:02:11.57	64.40	8.59	
2025-01-07 06:02:11.78	64.44	8.59	
2025-01-07 06:02:11.98	64.48	8.60	
2025-01-07 06:02:12.19	64.52	8.60	
2025-01-07 06:02:12.39	64.56	8.60	
2025-01-07 06:02:12.60	64.60	8.61	
2025-01-07 06:02:12.80	64.63	8.61	
2025-01-07 06:02:13.01	64.67	8.61	
2025-01-07 06:02:13.21	64.71	8.62	
2025-01-07 06:02:13.42	64.75	8.62	
2025-01-07 06:02:13.62	64.79	8.62	
2025-01-07 06:02:13.84	64.83	8.63	
2025-01-07 06:02:14.05	64.87	8.63	
2025-01-07 06:02:14.25	64.91	8.63	
2025-01-07 06:02:14.46	64.95	8.64	
2025-01-07 06:02:14.66	64.99	8.64	
2025-01-07 06:02:14.87	65.03	8.64	
2025-01-07 06:02:15.07	65.07	8.65	
2025-01-07 06:02:15.28	65.11	8.65	
2025-01-07 06:02:15.49	65.15	8.65	
2025-01-07 06:02:15.69	65.19	8.66	
2025-01-07 06:02:15.90	65.23	8.66	
2025-01-07 06:02:16.10	65.27	8.66	
2025-01-07 06:02:16.31	65.31	8.67	
2025-01-07 06:02:16.51	65.34	8.67	
2025-01-07 06:02:16.72	65.38	8.67	
2025-01-07 06:02:16.92	65.42	8.67	
2025-01-07 06:02:17.13	65.46	8.68	
2025-01-07 06:02:17.33	65.50	8.68	
2025-01-07 06:02:17.54	65.54	8.68	
2025-01-07 06:02:17.75	65.58	8.69	
2025-01-07 06:02:17.95	65.62	8.69	
2025-01-07 06:02:18.16	65.66	8.69	
2025-01-07 06:02:18.36	65.70	8.70	
2025-01-07 06:02:18.57	65.74	8.70	
2025-01-07 06:02:18.77	65.78	8.70	
2025-01-07 06:02:18.98	65.82	8.70	
2025-01-07 06:02:19.19	65.86	8.71	
2025-01-07 06:02:19.39	65.90	8.71	
2025-01-07 06:02:19.59	65.94	8.71	
2025-01-07 06:02:19.80	65.98	8.72	
2025-01-07 06:02:20.01	66.02	8.72	
2025-01-07 06:02:20.21	66.06	8.72	
2025-01-07 06:02:20.42	66.10	8.72	
2025-01-07 06:02:20.62	66.13	8.73	
2025-01-07 06:02:20.83	66.17	8.73	
2025-01-07 06:02:21.03	66.21	8.73	
2025-01-07 06:02:21.24	66.25	8.74	
2025-01-07 06:02:21.44	66.29	8.74	
2025-01-07 06:02:21.65	66.33	8.74	
2025-01-07 06:02:21.86	66.37	8.74	
2025-01-07 06:02:22.07	66.41	8.75	
2025-01-07 06:02:22.27	66.45	8.75	
2025-01-07 06:02:22.48	66.49	8.75	
2025-01-07 06:02:22.68	66.53	8.76	
2025-01-07 06:02:22.89	66.57	8.76	
2025-01-07 06:02:23.09	66.61	8.76	
2025-01-07 06:02:23.30	66.65	8.76	
2025-01-07 06:02:23.50	66.69	8.77	
2025-01-07 06:02:23.71	66.73	8.77	
2025-01-07 06:02:23.91	66.77	8.77	
2025-01-07 06:02:24.12	66.81	8.77	
2025-01-07 06:02:24.32	66.85	8.78	
2025-01-07 06:02:24.52	66.89	8.78	
2025-01-07 06:02:24.73	66.93	8.78	
2025-01-07 06:02:24.93	66.97	8.79	
2025-01-07 06:02:25.14	67.01	8.79	
2025-01-07 06:02:25.34	67.05	8.79	
2025-01-07 06:02:25.55	67.09	8.79	
2025-01-07 06:02:25.76	67.13	8.80	
2025-01-07 06:02:25.96	67.17	8.80	
2025-01-07 06:02:26.16	67.20	8.80	
2025-01-07 06:02:26.37	67.25	8.80	
2025-01-07 06:02:26.57	67.28	8.81	
2025-01-07 06:02:26.78	67.32	8.81	
2025-01-07 06:02:26.98	67.36	8.81	
2025-01-07 06:02:27.19	67.40	8.81	
2025-01-07 06:02:27.39	67.44	8.82	
2025-01-07 06:02:27.60	67.48	8.82	
2025-01-07 06:02:27.81	67.52	8.82	
2025-01-07 06:02:28.01	67.56	8.82	
2025-01-07 06:02:28.22	67.60	8.83	
2025-01-07 06:02:28.42	67.64	8.83	
2025-01-07 06:02:28.63	67.68	8.83	
2025-01-07 06:02:28.83	67.72	8.83	
2025-01-07 06:02:29.04	67.76	8.84	
2025-01-07 06:02:29.24	67.80	8.84	
2025-01-07 06:02:29.45	67.84	8.84	
2025-01-07 06:02:29.65	67.88	8.84	
2025-01-07 06:02:29.86	67.92	8.85	
2025-01-07 06:02:30.06	67.96	8.85	
2025-01-07 06:02:30.27	68.00	8.85	
2025-01-07 06:02:30.48	68.04	8.85	
2025-01-07 06:02:30.68	68.08	8.85	
2025-01-07 06:02:30.89	68.12	8.86	
2025-01-07 06:02:31.09	68.16	8.86	
2025-01-07 06:02:31.30	68.20	8.86	
2025-01-07 06:02:31.50	68.24	8.86	
2025-01-07 06:02:31.71	68.28	8.87	
2025-01-07 06:02:31.91	68.32	8.87	
2025-01-07 06:02:32.12	68.36	8.87	
2025-01-07 06:02:32.32	68.40	8.87	
2025-01-07 06:02:32.52	68.44	8.88	
2025-01-07 06:02:32.73	68.48	8.88	
2025-01-07 06:02:32.93	68.52	8.88	
2025-01-07 06:02:33.14	68.56	8.88	
2025-01-07 06:02:33.35	68.60	8.88	
2025-01-07 06:02:33.55	68.64	8.89	
2025-01-07 06:02:33.76	68.68	8.89	
2025-01-07 06:02:33.96	68.72	8.89	
2025-01-07 06:02:34.17	68.76	8.89	
2025-01-07 06:02:34.37	68.80	8.89	
2025-01-07 06:02:34.58	68.84	8.90	
2025-01-07 06:02:34.78	68.88	8.90	
2025-01-07 06:02:34.99	68.92	8.90	
2025-01-07 06:02:35.19	68.96	8.90	
2025-01-07 06:02:35.40	69.00	8.91	
2025-01-07 06:02:35.60	69.04	8.91	
2025-01-07 06:02:35.81	69.08	8.91	
2025-01-07 06:02:36.01	69.12	8.91	
2025-01-07 06:02:36.22	69.16	8.91	
2025-01-07 06:02:36.42	69.20	8.92	
2025-01-07 06:02:36.64	69.24	8.92	
2025-01-07 06:02:36.84	69.28	8.92	
2025-01-07 06:02:37.05	69.32	8.92	
2025-01-07 06:02:37.26	69.37	8.92	
2025-01-07 06:02:37.46	69.40	8.93	
2025-01-07 06:02:37.66	69.44	8.93	
2025-01-07 06:02:37.87	69.48	8.93	
2025-01-07 06:02:38.07	69.52	8.93	
2025-01-07 06:02:38.28	69.56	8.93	
2025-01-07 06:02:38.48	69.60	8.93	
2025-01-07 06:02:38.69	69.64	8.94	
2025-01-07 06:02:38.90	69.69	8.94	
2025-01-07 06:02:39.10	69.73	8.94	
2025-01-07 06:02:39.31	69.77	8.94	
2025-01-07 06:02:39.51	69.81	8.94	
2025-01-07 06:02:39.72	69.85	8.95	
2025-01-07 06:02:39.92	69.89	8.95	
2025-01-07 06:02:40.13	69.93	8.95	
2025-01-07 06:02:40.33	69.97	8.95	
2025-01-07 06:02:40.54	70.01	8.95	
2025-01-07 06:02:40.75	70.05	8.96	
2025-01-07 06:02:40.96	70.09	8.96	
2025-01-07 06:02:41.17	70.13	8.96	
2025-01-07 06:02:41.37	70.17	8.96	
2025-01-07 06:02:41.58	70.21	8.96	
2025-01-07 06:02:41.78	70.25	8.96	
2025-01-07 06:02:41.99	70.29	8.97	
2025-01-07 06:02:42.19	70.33	8.97	
2025-01-07 06:02:42.40	70.37	8.97	
2025-01-07 06:02:42.60	70.41	8.97	
2025-01-07 06:02:42.81	70.45	8.97	
2025-01-07 06:02:43.01	70.49	8.97	
2025-01-07 06:02:43.22	70.53	8.98	
2025-01-07 06:02:43.43	70.57	8.98	
2025-01-07 06:02:43.63	70.61	8.98	
2025-01-07 06:02:43.84	70.65	8.98	
2025-01-07 06:02:44.04	70.69	8.98	
2025-01-07 06:02:44.24	70.73	8.98	
2025-01-07 06:02:44.44	70.77	8.99	
2025-01-07 06:02:44.65	70.81	8.99	
2025-01-07 06:02:44.85	70.85	8.99	
2025-01-07 06:02:45.05	70.89	8.99	
2025-01-07 06:02:45.25	70.93	8.99	
2025-01-07 06:02:45.46	70.97	8.99	
2025-01-07 06:02:45.66	71.01	8.99	
2025-01-07 06:02:45.86	71.05	9.00	
2025-01-07 06:02:46.06	71.09	9.00	
2025-01-07 06:02:46.27	71.13	9.00	
2025-01-07 06:02:46.47	71.17	9.00	
2025-01-07 06:02:46.67	71.21	9.00	
2025-01-07 06:02:46.88	71.25	9.00	
2025-01-07 06:02:47.08	71.29	9.00	
2025-01-07 06:02:47.28	71.33	9.01	
2025-01-07 06:02:47.49	71.37	9.01	
2025-01-07 06:02:47.69	71.41	9.01	
2025-01-07 06:02:47.89	71.45	9.01	
2025-01-07 06:02:48.10	71.49	9.01	
2025-01-07 06:02:48.30	71.53	9.01	
2025-01-07 06:02:48.50	71.57	9.01	
2025-01-07 06:02:48.71	71.61	9.02	
2025-01-07 06:02:48.92	71.65	9.02	
2025-01-07 06:02:49.13	71.69	9.02	
2025-01-07 06:02:49.35	71.74	9.02	
2025-01-07 06:02:49.56	71.78	9.02	
2025-01-07 06:02:49.78	71.82	9.02	
2025-01-07 06:02:49.98	71.86	9.02	
2025-01-07 06:02:50.19	71.90	9.02	
2025-01-07 06:02:50.39	71.94	9.03	
2025-01-07 06:02:50.60	71.98	9.03	
2025-01-07 06:02:50.80	72.02	9.03	
2025-01-07 06:02:51.01	72.06	9.03	
2025-01-07 06:02:51.21	72.10	9.03	
2025-01-07 06:02:51.41	72.14	9.03	
2025-01-07 06:02:51.62	72.18	9.03	
2025-01-07 06:02:51.83	72.23	9.03	
2025-01-07 06:02:52.03	72.27	9.03	
2025-01-07 06:02:52.24	72.31	9.04	
2025-01-07 06:02:52.44	72.35	9.04	
2025-01-07 06:02:52.65	72.39	9.04	
2025-01-07 06:02:52.85	72.43	9.04	
2025-01-07 06:02:53.06	72.47	9.04	
2025-01-07 06:02:53.26	72.51	9.04	
2025-01-07 06:02:53.47	72.55	9.04	
2025-01-07 06:02:53.67	72.59	9.04	
2025-01-07 06:02:53.88	72.63	9.04	
2025-01-07 06:02:54.09	72.67	9.05	
2025-01-07 06:02:54.29	72.71	9.05	
2025-01-07 06:02:54.50	72.75	9.05	
2025-01-07 06:02:54.70	72.79	9.05	
2025-01-07 06:02:54.91	72.83	9.05	
2025-01-07 06:02:55.11	72.87	9.05	
2025-01-07 06:02:55.32	72.91	9.05	
2025-01-07 06:02:55.52	72.95	9.05	
2025-01-07 06:02:55.74	73.00	9.05	
2025-01-07 06:02:55.95	73.04	9.05	
2025-01-07 06:02:56.15	73.08	9.06	
2025-01-07 06:02:56.36	73.12	9.06	
2025-01-07 06:02:56.56	73.16	9.06	
2025-01-07 06:02:56.77	73.20	9.06	
2025-01-07 06:02:56.97	73.24	9.06	
2025-01-07 06:02:57.17	73.28	9.06	
2025-01-07 06:02:57.37	73.32	9.06	
2025-01-07 06:02:57.59	73.36	9.06	
2025-01-07 06:02:57.81	73.41	9.06	
2025-01-07 06:02:58.01	73.45	9.06	
2025-01-07 06:02:58.22	73.49	9.06	
2025-01-07 06:02:58.43	73.53	9.06	
2025-01-07 06:02:58.64	73.57	9.07	
2025-01-07 06:02:58.84	73.61	9.07	
2025-01-07 06:02:59.04	73.65	9.07	
2025-01-07 06:02:59.25	73.69	9.07	
2025-01-07 06:02:59.45	73.73	9.07	
2025-01-07 06:02:59.66	73.77	9.07	
2025-01-07 06:02:59.86	73.81	9.07	
2025-01-07 06:03:00.07	73.85	9.07	
2025-01-07 06:03:00.27	73.89	9.07	
2025-01-07 06:03:00.47	73.93	9.07	
2025-01-07 06:03:00.68	73.97	9.07	
2025-01-07 06:03:00.88	74.01	9.07	
2025-01-07 06:03:01.08	74.05	9.07	
2025-01-07 06:03:01.29	74.09	9.07	
2025-01-07 06:03:01.49	74.13	9.07	
2025-01-07 06:03:01.70	74.18	9.08	
2025-01-07 06:03:01.91	74.22	9.08	
2025-01-07 06:03:02.11	74.26	9.08	
2025-01-07 06:03:02.31	74.30	9.08	
2025-01-07 06:03:02.52	74.34	9.08	
2025-01-07 06:03:02.72	74.38	9.08	
2025-01-07 06:03:02.93	74.42	9.08	
2025-01-07 06:03:03.13	74.46	9.08	
2025-01-07 06:03:03.33	74.50	9.08	
2025-01-07 06:03:03.54	74.54	9.08	
2025-01-07 06:03:03.75	74.58	9.08	
2025-01-07 06:03:03.95	74.62	9.08	
2025-01-07 06:03:04.16	74.66	9.08	
2025-01-07 06:03:04.36	74.70	9.08	
2025-01-07 06:03:04.56	74.74	9.08	
2025-01-07 06:03:04.77	74.78	9.08	
2025-01-07 06:03:04.98	74.82	9.08	
2025-01-07 06:03:05.18	74.86	9.08	
2025-01-07 06:03:05.40	74.91	9.08	
2025-01-07 06:03:05.61	74.95	9.08	
2025-01-07 06:03:05.81	74.99	9.08	
2025-01-07 06:03:06.02	75.03	9.08	
2025-01-07 06:03:06.22	75.07	9.08	
2025-01-07 06:03:06.43	75.11	9.09	
2025-01-07 06:03:06.63	75.15	9.09	
2025-01-07 06:03:06.84	75.19	9.09	
2025-01-07 06:03:07.04	75.23	9.09	
2025-01-07 06:03:07.25	75.27	9.09	
2025-01-07 06:03:07.45	75.31	9.09	
2025-01-07 06:03:07.66	75.35	9.09	
2025-01-07 06:03:07.86	75.39	9.09	
2025-01-07 06:03:08.07	75.44	9.09	
2025-01-07 06:03:08.27	75.48	9.09	
2025-01-07 06:03:08.48	75.52	9.09	
2025-01-07 06:03:08.68	75.56	9.09	
2025-01-07 06:03:08.89	75.60	9.09	
2025-01-07 06:03:09.09	75.64	9.09	
2025-01-07 06:03:09.30	75.68	9.09	
2025-01-07 06:03:09.50	75.72	9.09	
2025-01-07 06:03:09.72	75.76	9.09	
2025-01-07 06:03:09.92	75.80	9.09	
2025-01-07 06:03:10.13	75.84	9.09	
2025-01-07 06:03:10.34	75.88	9.09	
2025-01-07 06:03:10.56	75.93	9.09	
2025-01-07 06:03:10.77	75.97	9.09	
2025-01-07 06:03:10.97	76.01	9.09	
2025-01-07 06:03:11.18	76.05	9.09	
2025-01-07 06:03:11.38	76.09	9.09	
2025-01-07 06:03:11.59	76.13	9.09	
2025-01-07 06:03:11.81	76.18	9.09	
2025-01-07 06:03:12.01	76.22	9.09	
2025-01-07 06:03:12.22	76.26	9.09	
2025-01-07 06:03:12.42	76.30	9.09	
2025-01-07 06:03:12.63	76.34	9.09	
2025-01-07 06:03:12.83	76.38	9.09	
2025-01-07 06:03:13.04	76.42	9.09	
2025-01-07 06:03:13.24	76.46	9.09	
2025-01-07 06:03:13.45	76.50	9.09	
2025-01-07 06:03:13.65	76.54	9.09	
2025-01-07 06:03:13.86	76.58	9.09	
2025-01-07 06:03:14.06	76.62	9.09	
2025-01-07 06:03:14.27	76.66	9.09	
2025-01-07 06:03:14.47	76.70	9.09	
2025-01-07 06:03:14.68	76.74	9.09	
2025-01-07 06:03:14.88	76.78	9.09	
2025-01-07 06:03:15.09	76.83	9.09	
2025-01-07 06:03:15.29	76.86	9.09	
2025-01-07 06:03:15.50	76.91	9.09	
2025-01-07 06:03:15.70	76.95	9.09	
2025-01-07 06:03:15.91	76.99	9.09	
2025-01-07 06:03:16.11	77.03	9.09	
2025-01-07 06:03:16.32	77.07	9.09	
2025-01-07 06:03:16.52	77.11	9.09	
2025-01-07 06:03:16.73	77.15	9.09	
2025-01-07 06:03:16.93	77.19	9.09	
2025-01-07 06:03:17.15	77.23	9.08	
2025-01-07 06:03:17.35	77.27	9.08	
2025-01-07 06:03:17.56	77.31	9.08	
2025-01-07 06:03:17.76	77.35	9.08	
2025-01-07 06:03:17.97	77.40	9.08	
2025-01-07 06:03:18.19	77.44	9.08	
2025-01-07 06:03:18.39	77.48	9.08	
2025-01-07 06:03:18.60	77.52	9.08	
2025-01-07 06:03:18.81	77.56	9.08	
2025-01-07 06:03:19.01	77.60	9.08	
2025-01-07 06:03:19.21	77.64	9.08	
2025-01-07 06:03:19.42	77.68	9.08	
2025-01-07 06:03:19.63	77.72	9.08	
2025-01-07 06:03:19.83	77.76	9.08	
2025-01-07 06:03:20.03	77.80	9.08	
2025-01-07 06:03:20.24	77.84	9.08	
2025-01-07 06:03:20.44	77.88	9.08	
2025-01-07 06:03:20.65	77.93	9.08	
2025-01-07 06:03:20.85	77.97	9.08	
2025-01-07 06:03:21.06	78.01	9.08	
2025-01-07 06:03:21.26	78.05	9.08	
2025-01-07 06:03:21.46	78.09	9.08	
2025-01-07 06:03:21.67	78.13	9.07	
2025-01-07 06:03:21.88	78.17	9.07	
2025-01-07 06:03:22.08	78.21	9.07	
2025-01-07 06:03:22.29	78.25	9.07	
2025-01-07 06:03:22.49	78.29	9.07	
2025-01-07 06:03:22.70	78.33	9.07	
2025-01-07 06:03:22.90	78.37	9.07	
2025-01-07 06:03:23.11	78.41	9.07	
2025-01-07 06:03:23.31	78.45	9.07	
2025-01-07 06:03:23.52	78.49	9.07	
2025-01-07 06:03:23.72	78.53	9.07	
2025-01-07 06:03:23.93	78.57	9.07	
2025-01-07 06:03:24.13	78.61	9.07	
2025-01-07 06:03:24.34	78.66	9.07	
2025-01-07 06:03:24.54	78.70	9.07	
2025-01-07 06:03:24.75	78.74	9.06	
2025-01-07 06:03:24.96	78.78	9.06	
2025-01-07 06:03:25.16	78.82	9.06	
2025-01-07 06:03:25.37	78.86	9.06	
2025-01-07 06:03:25.57	78.90	9.06	
2025-01-07 06:03:25.78	78.94	9.06	
2025-01-07 06:03:25.98	78.98	9.06	
2025-01-07 06:03:26.19	79.02	9.06	
2025-01-07 06:03:26.39	79.06	9.06	
2025-01-07 06:03:26.60	79.10	9.06	
2025-01-07 06:03:26.80	79.14	9.06	
2025-01-07 06:03:27.01	79.18	9.06	
2025-01-07 06:03:27.21	79.22	9.06	
2025-01-07 06:03:27.42	79.26	9.05	
2025-01-07 06:03:27.62	79.30	9.05	
2025-01-07 06:03:27.83	79.35	9.05	
2025-01-07 06:03:28.03	79.38	9.05	
2025-01-07 06:03:28.24	79.43	9.05	
2025-01-07 06:03:28.44	79.47	9.05	
2025-01-07 06:03:28.65	79.51	9.05	
2025-01-07 06:03:28.86	79.55	9.05	
2025-01-07 06:03:29.07	79.59	9.05	
2025-01-07 06:03:29.28	79.63	9.05	
2025-01-07 06:03:29.48	79.67	9.04	
2025-01-07 06:03:29.69	79.71	9.04	
2025-01-07 06:03:29.89	79.75	9.04	
2025-01-07 06:03:30.10	79.79	9.04	
2025-01-07 06:03:30.30	79.83	9.04	
2025-01-07 06:03:30.51	79.87	9.04	
2025-01-07 06:03:30.71	79.91	9.04	
2025-01-07 06:03:30.92	79.96	9.04	
2025-01-07 06:03:31.12	79.99	9.04	
2025-01-07 06:03:31.33	80.04	9.03	
2025-01-07 06:03:31.53	80.08	9.03	
2025-01-07 06:03:31.74	80.12	9.03	
2025-01-07 06:03:31.94	80.16	9.03	
2025-01-07 06:03:32.15	80.20	9.03	
2025-01-07 06:03:32.35	80.24	9.03	
2025-01-07 06:03:32.56	80.28	9.03	
2025-01-07 06:03:32.76	80.32	9.03	
2025-01-07 06:03:32.97	80.36	9.03	
2025-01-07 06:03:33.19	80.40	9.02	
2025-01-07 06:03:33.39	80.44	9.02	
2025-01-07 06:03:33.60	80.48	9.02	
2025-01-07 06:03:33.80	80.52	9.02	
2025-01-07 06:03:34.01	80.56	9.02	
2025-01-07 06:03:34.22	80.61	9.02	
2025-01-07 06:03:34.42	80.65	9.02	
2025-01-07 06:03:34.63	80.69	9.01	
2025-01-07 06:03:34.83	80.73	9.01	
2025-01-07 06:03:35.04	80.77	9.01	
2025-01-07 06:03:35.24	80.81	9.01	
2025-01-07 06:03:35.45	80.85	9.01	
2025-01-07 06:03:35.65	80.89	9.01	
2025-01-07 06:03:35.86	80.93	9.01	
2025-01-07 06:03:36.06	80.97	9.01	
2025-01-07 06:03:36.27	81.01	9.00	
2025-01-07 06:03:36.47	81.05	9.00	
2025-01-07 06:03:36.68	81.09	9.00	
2025-01-07 06:03:36.88	81.13	9.00	
2025-01-07 06:03:37.09	81.17	9.00	
2025-01-07 06:03:37.29	81.21	9.00	
2025-01-07 06:03:37.50	81.25	9.00	
2025-01-07 06:03:37.70	81.29	8.99	
2025-01-07 06:03:37.91	81.33	8.99	
2025-01-07 06:03:38.12	81.37	8.99	
2025-01-07 06:03:38.32	81.41	8.99	
2025-01-07 06:03:38.52	81.45	8.99	
2025-01-07 06:03:38.73	81.49	8.99	
2025-01-07 06:03:38.94	81.54	8.98	
2025-01-07 06:03:39.14	81.57	8.98	
2025-01-07 06:03:39.35	81.62	8.98	
2025-01-07 06:03:39.55	81.66	8.98	
2025-01-07 06:03:39.76	81.70	8.98	
2025-01-07 06:03:39.96	81.74	8.98	
2025-01-07 06:03:40.17	81.78	8.97	
2025-01-07 06:03:40.37	81.82	8.97	
2025-01-07 06:03:40.58	81.86	8.97	
2025-01-07 06:03:40.79	81.90	8.97	
2025-01-07 06:03:40.99	81.94	8.97	
2025-01-07 06:03:41.20	81.98	8.97	
2025-01-07 06:03:41.40	82.02	8.96	
2025-01-07 06:03:41.61	82.06	8.96	
2025-01-07 06:03:41.81	82.10	8.96	
2025-01-07 06:03:42.02	82.14	8.96	
2025-01-07 06:03:42.22	82.18	8.96	
2025-01-07 06:03:42.43	82.22	8.96	
2025-01-07 06:03:42.63	82.26	8.95	
2025-01-07 06:03:42.84	82.30	8.95	
2025-01-07 06:03:43.04	82.34	8.95	
2025-01-07 06:03:43.25	82.38	8.95	
2025-01-07 06:03:43.45	82.42	8.95	
2025-01-07 06:03:43.66	82.46	8.95	
2025-01-07 06:03:43.87	82.50	8.94	
2025-01-07 06:03:44.08	82.54	8.94	
2025-01-07 06:03:44.28	82.58	8.94	
2025-01-07 06:03:44.49	82.62	8.94	
2025-01-07 06:03:44.70	82.67	8.94	
2025-01-07 06:03:44.91	82.71	8.93	
2025-01-07 06:03:45.12	82.75	8.93	
2025-01-07 06:03:45.32	82.79	8.93	
2025-01-07 06:03:45.53	82.83	8.93	
2025-01-07 06:03:45.73	82.87	8.93	
2025-01-07 06:03:45.94	82.91	8.92	
2025-01-07 06:03:46.14	82.95	8.92	
2025-01-07 06:03:46.35	82.99	8.92	
2025-01-07 06:03:46.55	83.03	8.92	
2025-01-07 06:03:46.75	83.07	8.92	
2025-01-07 06:03:46.96	83.11	8.91	
2025-01-07 06:03:47.16	83.15	8.91	
2025-01-07 06:03:47.37	83.19	8.91	
2025-01-07 06:03:47.57	83.23	8.91	
2025-01-07 06:03:47.78	83.27	8.91	
2025-01-07 06:03:47.98	83.31	8.90	
2025-01-07 06:03:48.18	83.35	8.90	
2025-01-07 06:03:48.39	83.39	8.90	
2025-01-07 06:03:48.60	83.43	8.90	
2025-01-07 06:03:48.80	83.47	8.90	
2025-01-07 06:03:49.01	83.51	8.89	
2025-01-07 06:03:49.21	83.55	8.89	
2025-01-07 06:03:49.42	83.59	8.89	
2025-01-07 06:03:49.62	83.63	8.89	
2025-01-07 06:03:49.83	83.67	8.89	
2025-01-07 06:03:50.03	83.71	8.88	
2025-01-07 06:03:50.24	83.75	8.88	
2025-01-07 06:03:50.44	83.79	8.88	
2025-01-07 06:03:50.65	83.83	8.88	
2025-01-07 06:03:50.86	83.87	8.87	
2025-01-07 06:03:51.06	83.91	8.87	
2025-01-07 06:03:51.27	83.95	8.87	
2025-01-07 06:03:51.47	83.99	8.87	
2025-01-07 06:03:51.68	84.03	8.86	
2025-01-07 06:03:51.88	84.07	8.86	
2025-01-07 06:03:52.09	84.11	8.86	
2025-01-07 06:03:52.29	84.15	8.86	
2025-01-07 06:03:52.49	84.19	8.86	
2025-01-07 06:03:52.70	84.23	8.85	
2025-01-07 06:03:52.91	84.27	8.85	
2025-01-07 06:03:53.11	84.31	8.85	
2025-01-07 06:03:53.32	84.35	8.85	
2025-01-07 06:03:53.52	84.39	8.84	
2025-01-07 06:03:53.72	84.43	8.84	
2025-01-07 06:03:53.93	84.47	8.84	
2025-01-07 06:03:54.13	84.51	8.84	
2025-01-07 06:03:54.34	84.55	8.83	
2025-01-07 06:03:54.54	84.59	8.83	
2025-01-07 06:03:54.75	84.63	8.83	
2025-01-07 06:03:54.95	84.67	8.83	
2025-01-07 06:03:55.16	84.71	8.82	
2025-01-07 06:03:55.37	84.75	8.82	
2025-01-07 06:03:55.57	84.79	8.82	
2025-01-07 06:03:55.77	84.83	8.82	
2025-01-07 06:03:55.98	84.87	8.81	
2025-01-07 06:03:56.19	84.91	8.81	
2025-01-07 06:03:56.39	84.95	8.81	
2025-01-07 06:03:56.59	84.99	8.81	
2025-01-07 06:03:56.80	85.03	8.80	
2025-01-07 06:03:57.01	85.07	8.80	
2025-01-07 06:03:57.21	85.11	8.80	
2025-01-07 06:03:57.42	85.15	8.80	
2025-01-07 06:03:57.62	85.19	8.79	
2025-01-07 06:03:57.82	85.22	8.79	
2025-01-07 06:03:58.03	85.27	8.79	
2025-01-07 06:03:58.24	85.31	8.79	
2025-01-07 06:03:58.44	85.34	8.78	
2025-01-07 06:03:58.64	85.38	8.78	
2025-01-07 06:03:58.85	85.42	8.78	
2025-01-07 06:03:59.06	85.46	8.78	
2025-01-07 06:03:59.26	85.50	8.77	
2025-01-07 06:03:59.47	85.54	8.77	
2025-01-07 06:03:59.67	85.58	8.77	
2025-01-07 06:03:59.88	85.62	8.76	
2025-01-07 06:04:00.08	85.66	8.76	
2025-01-07 06:04:00.28	85.70	8.76	
2025-01-07 06:04:00.49	85.74	8.76	
2025-01-07 06:04:00.70	85.78	8.75	
2025-01-07 06:04:00.90	85.82	8.75	
2025-01-07 06:04:01.11	85.86	8.75	
2025-01-07 06:04:01.32	85.90	8.75	
2025-01-07 06:04:01.53	85.94	8.74	
2025-01-07 06:04:01.73	85.98	8.74	
2025-01-07 06:04:01.95	86.02	8.74	
2025-01-07 06:04:02.15	86.06	8.73	
2025-01-07 06:04:02.36	86.10	8.73	
2025-01-07 06:04:02.56	86.14	8.73	
2025-01-07 06:04:02.77	86.18	8.73	
2025-01-07 06:04:02.97	86.22	8.72	
2025-01-07 06:04:03.18	86.26	8.72	
2025-01-07 06:04:03.38	86.30	8.72	
2025-01-07 06:04:03.59	86.34	8.71	
2025-01-07 06:04:03.80	86.38	8.71	
2025-01-07 06:04:04.00	86.42	8.71	
2025-01-07 06:04:04.20	86.46	8.71	
2025-01-07 06:04:04.41	86.50	8.70	
2025-01-07 06:04:04.62	86.54	8.70	
2025-01-07 06:04:04.82	86.58	8.70	
2025-01-07 06:04:05.03	86.62	8.69	
2025-01-07 06:04:05.23	86.66	8.69	
2025-01-07 06:04:05.44	86.70	8.69	
2025-01-07 06:04:05.64	86.74	8.68	
2025-01-07 06:04:05.85	86.78	8.68	
2025-01-07 06:04:06.06	86.82	8.68	
2025-01-07 06:04:06.26	86.86	8.67	
2025-01-07 06:04:06.46	86.89	8.67	
2025-01-07 06:04:06.67	86.93	8.67	
2025-01-07 06:04:06.87	86.97	8.67	
2025-01-07 06:04:07.08	87.01	8.66	
2025-01-07 06:04:07.29	87.05	8.66	
2025-01-07 06:04:07.50	87.09	8.66	
2025-01-07 06:04:07.70	87.13	8.65	
2025-01-07 06:04:07.91	87.17	8.65	
2025-01-07 06:04:08.11	87.21	8.65	
2025-01-07 06:04:08.33	87.25	8.64	
2025-01-07 06:04:08.54	87.29	8.64	
2025-01-07 06:04:08.74	87.33	8.64	
2025-01-07 06:04:08.95	87.37	8.63	
2025-01-07 06:04:09.15	87.41	8.63	
2025-01-07 06:04:09.36	87.45	8.63	
2025-01-07 06:04:09.56	87.49	8.62	
2025-01-07 06:04:09.77	87.53	8.62	
2025-01-07 06:04:09.97	87.57	8.62	
2025-01-07 06:04:10.18	87.61	8.61	
2025-01-07 06:04:10.38	87.65	8.61	
2025-01-07 06:04:10.59	87.69	8.61	
2025-01-07 06:04:10.79	87.72	8.60	
2025-01-07 06:04:10.99	87.76	8.60	
2025-01-07 06:04:11.20	87.80	8.60	
2025-01-07 06:04:11.40	87.84	8.59	
2025-01-07 06:04:11.61	87.88	8.59	
2025-01-07 06:04:11.81	87.92	8.59	
2025-01-07 06:04:12.02	87.96	8.58	
2025-01-07 06:04:12.22	88.00	8.58	
2025-01-07 06:04:12.43	88.04	8.58	
2025-01-07 06:04:12.65	88.08	8.57	
2025-01-07 06:04:12.85	88.12	8.57	
2025-01-07 06:04:13.06	88.16	8.57	
2025-01-07 06:04:13.26	88.20	8.56	
2025-01-07 06:04:13.47	88.24	8.56	
2025-01-07 06:04:13.68	88.28	8.56	
2025-01-07 06:04:13.89	88.32	8.55	
2025-01-07 06:04:14.10	88.36	8.55	
2025-01-07 06:04:14.30	88.40	8.55	
2025-01-07 06:04:14.51	88.44	8.54	
2025-01-07 06:04:14.71	88.47	8.54	
2025-01-07 06:04:14.91	88.51	8.54	
2025-01-07 06:04:15.12	88.55	8.53	
2025-01-07 06:04:15.33	88.59	8.53	
2025-01-07 06:04:15.53	88.63	8.53	
2025-01-07 06:04:15.73	88.67	8.52	
2025-01-07 06:04:15.94	88.71	8.52	
2025-01-07 06:04:16.15	88.75	8.52	
2025-01-07 06:04:16.35	88.79	8.51	
2025-01-07 06:04:16.56	88.83	8.51	
2025-01-07 06:04:16.76	88.86	8.50	
2025-01-07 06:04:16.97	88.90	8.50	
2025-01-07 06:04:17.17	88.94	8.50	
2025-01-07 06:04:17.38	88.98	8.49	
2025-01-07 06:04:17.58	89.02	8.49	
2025-01-07 06:04:17.79	89.06	8.49	
2025-01-07 06:04:18.01	89.10	8.48	
2025-01-07 06:04:18.21	89.14	8.48	
2025-01-07 06:04:18.42	89.18	8.47	
2025-01-07 06:04:18.62	89.22	8.47	
2025-01-07 06:04:18.83	89.26	8.47	
2025-01-07 06:04:19.03	89.29	8.46	
2025-01-07 06:04:19.24	89.33	8.46	
2025-01-07 06:04:19.44	89.37	8.46	
2025-01-07 06:04:19.65	89.41	8.45	
2025-01-07 06:04:19.86	89.45	8.45	
2025-01-07 06:04:20.06	89.49	8.45	
2025-01-07 06:04:20.26	89.53	8.44	
2025-01-07 06:04:20.47	89.57	8.44	
2025-01-07 06:04:20.68	89.61	8.43	
2025-01-07 06:04:20.88	89.64	8.43	
2025-01-07 06:04:21.09	89.68	8.43	
2025-01-07 06:04:21.29	89.72	8.42	
2025-01-07 06:04:21.50	89.76	8.42	
2025-01-07 06:04:21.71	89.80	8.41	
2025-01-07 06:04:21.91	89.84	8.41	
2025-01-07 06:04:22.12	89.88	8.41	
2025-01-07 06:04:22.32	89.92	8.40	
2025-01-07 06:04:22.53	89.96	8.40	
2025-01-07 06:04:22.73	89.99	8.40	
2025-01-07 06:04:22.94	90.03	8.39	
2025-01-07 06:04:23.15	90.07	8.39	
2025-01-07 06:04:23.35	90.11	8.38	
2025-01-07 06:04:23.55	90.15	8.38	
2025-01-07 06:04:23.76	90.19	8.38	
2025-01-07 06:04:23.97	90.23	8.37	
2025-01-07 06:04:24.17	90.26	8.37	
2025-01-07 06:04:24.37	90.30	8.36	
2025-01-07 06:04:24.58	90.34	8.36	
2025-01-07 06:04:24.78	90.38	8.36	
2025-01-07 06:04:24.99	90.42	8.35	
2025-01-07 06:04:25.19	90.46	8.35	
2025-01-07 06:04:25.41	90.50	8.34	
2025-01-07 06:04:25.62	90.54	8.34	
2025-01-07 06:04:25.82	90.58	8.34	
2025-01-07 06:04:26.03	90.61	8.33	
2025-01-07 06:04:26.24	90.65	8.33	
2025-01-07 06:04:26.44	90.69	8.32	
2025-01-07 06:04:26.65	90.73	8.32	
2025-01-07 06:04:26.85	90.77	8.32	
2025-01-07 06:04:27.06	90.81	8.31	
2025-01-07 06:04:27.26	90.85	8.31	
2025-01-07 06:04:27.48	90.89	8.30	
2025-01-07 06:04:27.68	90.92	8.30	
2025-01-07 06:04:27.89	90.96	8.29	
2025-01-07 06:04:28.09	91.00	8.29	
2025-01-07 06:04:28.30	91.04	8.29	
2025-01-07 06:04:28.50	91.08	8.28	
2025-01-07 06:04:28.71	91.12	8.28	
2025-01-07 06:04:28.91	91.15	8.27	
2025-01-07 06:04:29.12	91.19	8.27	
2025-01-07 06:04:29.32	91.23	8.27	
2025-01-07 06:04:29.53	91.27	8.26	
2025-01-07 06:04:29.73	91.31	8.26	
2025-01-07 06:04:29.93	91.34	8.25	
2025-01-07 06:04:30.14	91.38	8.25	
2025-01-07 06:04:30.35	91.42	8.24	
2025-01-07 06:04:30.55	91.46	8.24	
2025-01-07 06:04:30.75	91.50	8.24	
2025-01-07 06:04:30.96	91.54	8.23	
2025-01-07 06:04:31.16	91.57	8.23	
2025-01-07 06:04:31.37	91.61	8.22	
2025-01-07 06:04:31.57	91.65	8.22	
2025-01-07 06:04:31.78	91.69	8.21	
2025-01-07 06:04:31.99	91.73	8.21	
2025-01-07 06:04:32.19	91.77	8.21	
2025-01-07 06:04:32.40	91.80	8.20	
2025-01-07 06:04:32.60	91.84	8.20	
2025-01-07 06:04:32.80	91.88	8.19	
2025-01-07 06:04:33.01	91.92	8.19	
2025-01-07 06:04:33.21	91.96	8.18	
2025-01-07 06:04:33.42	91.99	8.18	
2025-01-07 06:04:33.62	92.03	8.17	
2025-01-07 06:04:33.83	92.07	8.17	
2025-01-07 06:04:34.03	92.11	8.17	
2025-01-07 06:04:34.24	92.15	8.16	
2025-01-07 06:04:34.45	92.19	8.16	
2025-01-07 06:04:34.65	92.22	8.15	
2025-01-07 06:04:34.86	92.26	8.15	
2025-01-07 06:04:35.07	92.30	8.14	
2025-01-07 06:04:35.28	92.34	8.14	
2025-01-07 06:04:35.49	92.38	8.13	
2025-01-07 06:04:35.69	92.42	8.13	
2025-01-07 06:04:35.90	92.45	8.12	
2025-01-07 06:04:36.10	92.49	8.12	
2025-01-07 06:04:36.31	92.53	8.12	
2025-01-07 06:04:36.51	92.57	8.11	
2025-01-07 06:04:36.72	92.61	8.11	
2025-01-07 06:04:36.92	92.64	8.10	
2025-01-07 06:04:37.13	92.68	8.10	
2025-01-07 06:04:37.33	92.72	8.09	
2025-01-07 06:04:37.54	92.76	8.09	
2025-01-07 06:04:37.74	92.79	8.08	
2025-01-07 06:04:37.95	92.83	8.08	
2025-01-07 06:04:38.15	92.87	8.07	
2025-01-07 06:04:38.36	92.91	8.07	
2025-01-07 06:04:38.56	92.95	8.07	
2025-01-07 06:04:38.77	92.98	8.06	
2025-01-07 06:04:38.97	93.02	8.06	
2025-01-07 06:04:39.18	93.06	8.05	
2025-01-07 06:04:39.38	93.10	8.05	
2025-01-07 06:04:39.59	93.13	8.04	
2025-01-07 06:04:39.79	93.17	8.04	
2025-01-07 06:04:40.00	93.21	8.03	
2025-01-07 06:04:40.21	93.25	8.03	
2025-01-07 06:04:40.41	93.29	8.02	
2025-01-07 06:04:40.61	93.32	8.02	
2025-01-07 06:04:40.82	93.36	8.01	
2025-01-07 06:04:41.03	93.40	8.01	
2025-01-07 06:04:41.23	93.44	8.00	
2025-01-07 06:04:41.43	93.47	8.00	
2025-01-07 06:04:41.64	93.51	7.99	
2025-01-07 06:04:41.85	93.55	7.99	
2025-01-07 06:04:42.05	93.59	7.99	
2025-01-07 06:04:42.26	93.62	7.98	
2025-01-07 06:04:42.48	93.67	7.98	
2025-01-07 06:04:42.68	93.70	7.97	
2025-01-07 06:04:42.89	93.74	7.97	
2025-01-07 06:04:43.09	93.78	7.96	
2025-01-07 06:04:43.30	93.82	7.96	
2025-01-07 06:04:43.50	93.85	7.95	
2025-01-07 06:04:43.71	93.89	7.95	
2025-01-07 06:04:43.91	93.93	7.94	
2025-01-07 06:04:44.12	93.96	7.94	
2025-01-07 06:04:44.32	94.00	7.93	
2025-01-07 06:04:44.53	94.04	7.93	
2025-01-07 06:04:44.73	94.08	7.92	
2025-01-07 06:04:44.94	94.11	7.92	
2025-01-07 06:04:45.15	94.15	7.91	
2025-01-07 06:04:45.35	94.19	7.91	
2025-01-07 06:04:45.56	94.23	7.90	
2025-01-07 06:04:45.76	94.26	7.90	
2025-01-07 06:04:45.96	94.30	7.89	
2025-01-07 06:04:46.17	94.34	7.89	
2025-01-07 06:04:46.37	94.37	7.88	
2025-01-07 06:04:46.58	94.41	7.88	
2025-01-07 06:04:46.78	94.45	7.87	
2025-01-07 06:04:46.99	94.49	7.87	
2025-01-07 06:04:47.19	94.52	7.86	
2025-01-07 06:04:47.39	94.56	7.86	
2025-01-07 06:04:47.60	94.60	7.85	
2025-01-07 06:04:47.80	94.63	7.85	
2025-01-07 06:04:48.01	94.67	7.84	
2025-01-07 06:04:48.21	94.71	7.84	
2025-01-07 06:04:48.43	94.75	7.83	
2025-01-07 06:04:48.64	94.79	7.83	
2025-01-07 06:04:48.84	94.82	7.82	
2025-01-07 06:04:49.05	94.86	7.82	
2025-01-07 06:04:49.25	94.90	7.81	
2025-01-07 06:04:49.46	94.93	7.81	
2025-01-07 06:04:49.67	94.97	7.80	
2025-01-07 06:04:49.87	95.01	7.80	
2025-01-07 06:04:50.07	95.05	7.79	
2025-01-07 06:04:50.28	95.08	7.79	
2025-01-07 06:04:50.48	95.12	7.78	
2025-01-07 06:04:50.69	95.16	7.78	
2025-01-07 06:04:50.90	95.19	7.77	
2025-01-07 06:04:51.10	95.23	7.77	
2025-01-07 06:04:51.30	95.27	7.76	
2025-01-07 06:04:51.51	95.30	7.75	
2025-01-07 06:04:51.72	95.34	7.75	
2025-01-07 06:04:51.92	95.38	7.74	
2025-01-07 06:04:52.12	95.41	7.74	
2025-01-07 06:04:52.33	95.45	7.73	
2025-01-07 06:04:52.53	95.49	7.73	
2025-01-07 06:04:52.74	95.53	7.72	
2025-01-07 06:04:52.94	95.56	7.72	
2025-01-07 06:04:53.15	95.60	7.71	
2025-01-07 06:04:53.35	95.64	7.71	
2025-01-07 06:04:53.56	95.67	7.70	
2025-01-07 06:04:53.76	95.71	7.70	
2025-01-07 06:04:53.97	95.75	7.69	
2025-01-07 06:04:54.17	95.78	7.69	
2025-01-07 06:04:54.38	95.82	7.68	
2025-01-07 06:04:54.58	95.86	7.68	
2025-01-07 06:04:54.79	95.89	7.67	
2025-01-07 06:04:54.99	95.93	7.67	
2025-01-07 06:04:55.20	95.97	7.66	
2025-01-07 06:04:55.40	96.00	7.65	
2025-01-07 06:04:55.61	96.04	7.65	
2025-01-07 06:04:55.81	96.08	7.64	
2025-01-07 06:04:56.02	96.11	7.64	
2025-01-07 06:04:56.23	96.15	7.63	
2025-01-07 06:04:56.43	96.19	7.63	
2025-01-07 06:04:56.63	96.22	7.62	
2025-01-07 06:04:56.84	96.26	7.62	
2025-01-07 06:04:57.05	96.30	7.61	
2025-01-07 06:04:57.25	96.33	7.61	
2025-01-07 06:04:57.45	96.37	7.60	
2025-01-07 06:04:57.66	96.41	7.60	
2025-01-07 06:04:57.87	96.44	7.59	
2025-01-07 06:04:58.07	96.48	7.58	
2025-01-07 06:04:58.28	96.52	7.58	
2025-01-07 06:04:58.48	96.55	7.57	
2025-01-07 06:04:58.69	96.59	7.57	
2025-01-07 06:04:58.89	96.63	7.56	
2025-01-07 06:04:59.10	96.66	7.56	
2025-01-07 06:04:59.30	96.70	7.55	
2025-01-07 06:04:59.51	96.74	7.55	
2025-01-07 06:04:59.71	96.77	7.54	
2025-01-07 06:04:59.92	96.81	7.53	
2025-01-07 06:05:00.12	96.84	7.53	
2025-01-07 06:05:00.33	96.88	7.52	
2025-01-07 06:05:00.53	96.92	7.52	
2025-01-07 06:05:00.74	96.95	7.51	
2025-01-07 06:05:00.94	96.99	7.51	
2025-01-07 06:05:01.14	97.02	7.50	
2025-01-07 06:05:01.35	97.06	7.50	
2025-01-07 06:05:01.55	97.10	7.49	
2025-01-07 06:05:01.76	97.13	7.48	
2025-01-07 06:05:01.96	97.17	7.48	
2025-01-07 06:05:02.17	97.21	7.47	
2025-01-07 06:05:02.38	97.24	7.47	
2025-01-07 06:05:02.58	97.28	7.46	
2025-01-07 06:05:02.80	97.32	7.46	
2025-01-07 06:05:03.00	97.35	7.45	
2025-01-07 06:05:03.21	97.39	7.45	
2025-01-07 06:05:03.42	97.43	7.44	
2025-01-07 06:05:03.62	97.46	7.43	
2025-01-07 06:05:03.84	97.50	7.43	
2025-01-07 06:05:04.04	97.54	7.42	
2025-01-07 06:05:04.25	97.57	7.42	
2025-01-07 06:05:04.46	97.61	7.41	
2025-01-07 06:05:04.66	97.64	7.40	
2025-01-07 06:05:04.87	97.68	7.40	
2025-01-07 06:05:05.07	97.72	7.39	
2025-01-07 06:05:05.28	97.75	7.39	
2025-01-07 06:05:05.48	97.79	7.38	
2025-01-07 06:05:05.69	97.83	7.38	
2025-01-07 06:05:05.89	97.86	7.37	
2025-01-07 06:05:06.10	97.90	7.36	
2025-01-07 06:05:06.30	97.93	7.36	
2025-01-07 06:05:06.51	97.97	7.35	
2025-01-07 06:05:06.72	98.01	7.35	
2025-01-07 06:05:06.92	98.04	7.34	
2025-01-07 06:05:07.13	98.08	7.34	
2025-01-07 06:05:07.33	98.11	7.33	
2025-01-07 06:05:07.54	98.15	7.32	
2025-01-07 06:05:07.74	98.18	7.32	
2025-01-07 06:05:07.95	98.22	7.31	
2025-01-07 06:05:08.17	98.26	7.31	
2025-01-07 06:05:08.38	98.30	7.30	
2025-01-07 06:05:08.58	98.33	7.29	
2025-01-07 06:05:08.79	98.37	7.29	
2025-01-07 06:05:08.99	98.40	7.28	
2025-01-07 06:05:09.19	98.44	7.28	
2025-01-07 06:05:09.40	98.47	7.27	
2025-01-07 06:05:09.61	98.51	7.26	
2025-01-07 06:05:09.82	98.55	7.26	
2025-01-07 06:05:10.02	98.58	7.25	
2025-01-07 06:05:10.23	98.62	7.25	
2025-01-07 06:05:10.43	98.65	7.24	
2025-01-07 06:05:10.65	98.69	7.23	
2025-01-07 06:05:10.85	98.73	7.23	
2025-01-07 06:05:11.06	98.76	7.22	
2025-01-07 06:05:11.28	98.80	7.22	
2025-01-07 06:05:11.48	98.83	7.21	
2025-01-07 06:05:11.69	98.87	7.20	
2025-01-07 06:05:11.89	98.91	7.20	
2025-01-07 06:05:12.10	98.94	7.19	
2025-01-07 06:05:12.30	98.98	7.19	
2025-01-07 06:05:12.50	99.01	7.18	
2025-01-07 06:05:12.71	99.05	7.17	
2025-01-07 06:05:12.92	99.08	7.17	
2025-01-07 06:05:13.12	99.12	7.16	
2025-01-07 06:05:13.33	99.15	7.16	
2025-01-07 06:05:13.53	99.19	7.15	
2025-01-07 06:05:13.74	99.23	7.14	
2025-01-07 06:05:13.95	99.26	7.14	
2025-01-07 06:05:14.15	99.30	7.13	
2025-01-07 06:05:14.36	99.33	7.13	
2025-01-07 06:05:14.56	99.37	7.12	
2025-01-07 06:05:14.78	99.40	7.11	
2025-01-07 06:05:14.98	99.44	7.11	
2025-01-07 06:05:15.19	99.48	7.10	
2025-01-07 06:05:15.40	99.51	7.10	
2025-01-07 06:05:15.60	99.55	7.09	
2025-01-07 06:05:15.81	99.58	7.08	
2025-01-07 06:05:16.01	99.62	7.08	
2025-01-07 06:05:16.22	99.65	7.07	
2025-01-07 06:05:16.42	99.69	7.06	
2025-01-07 06:05:16.63	99.72	7.06	
2025-01-07 06:05:16.83	99.76	7.05	
2025-01-07 06:05:17.04	99.79	7.05	
2025-01-07 06:05:17.24	99.83	7.04	
2025-01-07 06:05:17.45	99.86	7.03	
2025-01-07 06:05:17.65	99.90	7.03	
2025-01-07 06:05:17.86	99.93	7.02	
2025-01-07 06:05:18.06	99.97	7.02	
2025-01-07 06:05:18.27	100.00	7.01	
2025-01-07 06:05:18.47	100.04	7.00	
2025-01-07 06:05:18.67	100.07	7.00	
2025-01-07 06:05:18.88	100.11	6.99	
2025-01-07 06:05:19.09	100.14	6.98	
2025-01-07 06:05:19.29	100.18	6.98	
2025-01-07 06:05:19.49	100.21	6.97	
2025-01-07 06:05:19.70	100.25	6.97	
2025-01-07 06:05:19.90	100.28	6.96	
2025-01-07 06:05:20.11	100.32	6.95	
2025-01-07 06:05:20.31	100.35	6.95	
2025-01-07 06:05:20.52	100.39	6.94	
2025-01-07 06:05:20.73	100.42	6.93	
2025-01-07 06:05:20.93	100.46	6.93	
2025-01-07 06:05:21.14	100.49	6.92	
2025-01-07 06:05:21.34	100.53	6.92	
2025-01-07 06:05:21.55	100.56	6.91	
2025-01-07 06:05:21.75	100.59	6.90	
2025-01-07 06:05:21.95	100.63	6.90	
2025-01-07 06:05:22.16	100.66	6.89	
2025-01-07 06:05:22.37	100.70	6.88	
2025-01-07 06:05:22.57	100.73	6.88	
2025-01-07 06:05:22.78	100.77	6.87	
2025-01-07 06:05:22.99	100.80	6.86	
2025-01-07 06:05:23.20	100.84	6.86	
2025-01-07 06:05:23.41	100.88	6.85	
2025-01-07 06:05:23.61	100.91	6.85	
2025-01-07 06:05:23.82	100.94	6.84	
2025-01-07 06:05:24.02	100.98	6.83	
2025-01-07 06:05:24.23	101.01	6.83	
2025-01-07 06:05:24.43	101.05	6.82	
2025-01-07 06:05:24.64	101.08	6.81	
2025-01-07 06:05:24.85	101.12	6.81	
2025-01-07 06:05:25.05	101.15	6.80	
2025-01-07 06:05:25.26	101.19	6.79	
2025-01-07 06:05:25.46	101.22	6.79	
2025-01-07 06:05:25.67	101.26	6.78	
2025-01-07 06:05:25.87	101.29	6.77	
2025-01-07 06:05:26.08	101.33	6.77	
2025-01-07 06:05:26.28	101.36	6.76	
2025-01-07 06:05:26.49	101.39	6.76	
2025-01-07 06:05:26.69	101.43	6.75	
2025-01-07 06:05:26.90	101.46	6.74	
2025-01-07 06:05:27.10	101.50	6.74	
2025-01-07 06:05:27.32	101.53	6.73	
2025-01-07 06:05:27.53	101.57	6.72	
2025-01-07 06:05:27.73	101.60	6.72	
2025-01-07 06:05:27.94	101.64	6.71	
2025-01-07 06:05:28.14	101.67	6.70	
2025-01-07 06:05:28.34	101.70	6.70	
2025-01-07 06:05:28.55	101.74	6.69	
2025-01-07 06:05:28.76	101.77	6.68	
2025-01-07 06:05:28.96	101.81	6.68	
2025-01-07 06:05:29.17	101.84	6.67	
2025-01-07 06:05:29.37	101.88	6.66	
2025-01-07 06:05:29.58	101.91	6.66	
2025-01-07 06:05:29.79	101.95	6.65	
2025-01-07 06:05:29.99	101.98	6.64	
2025-01-07 06:05:30.19	102.01	6.64	
2025-01-07 06:05:30.40	102.05	6.63	
2025-01-07 06:05:30.60	102.08	6.62	
2025-01-07 06:05:30.80	102.11	6.62	
2025-01-07 06:05:31.01	102.15	6.61	
2025-01-07 06:05:31.22	102.18	6.60	
