passes_logs/2026/01/22/planumMaritime01/planumMaritime01__20260122_103613_METEOR-M2_4_rec.log

#Pass ID: 20260122_103613_METEOR-M2 4
#Satellite: METEOR-M2 4
#Configuration: METEOR-M2 4
#Start time: 2026-01-22 10:36:18.658082

#LorettStation: 1.0.0 05.05.2024
#Station: planumMaritime01
#Location: 37.49445 lon 55.92918 lat
#TLE: 1 59051U 24039A   26020.95667625  .00000091  00000+0  60497-4 0  9993
#TLE: 2 59051  98.6825 342.2619 0006126 231.1027 128.9605 14.22408473 98337

#Time	Az	El	Level	SNR
2026-01-22 10:36:20.836111	135.0	10.2	-77.4	0.0
2026-01-22 10:36:21.964804	134.9	10.3	-76.3	0.0
2026-01-22 10:36:23.092362	134.9	10.4	-75.8	0.0
2026-01-22 10:36:24.222003	134.8	10.5	-75.7	0.0
2026-01-22 10:36:25.354255	134.7	10.6	-75.7	0.0
2026-01-22 10:36:26.487956	134.7	10.7	-75.6	0.0
2026-01-22 10:36:27.615817	134.6	10.8	-76.1	2.1
2026-01-22 10:36:28.746353	134.6	10.9	-75.9	1.6
2026-01-22 10:36:29.875704	134.5	11.0	-75.0	1.8
2026-01-22 10:36:31.002276	134.4	11.1	-76.1	1.2
2026-01-22 10:36:32.132744	134.4	11.2	-75.4	0.5
2026-01-22 10:36:33.263006	134.3	11.3	-75.7	0.1
2026-01-22 10:36:34.390531	134.2	11.4	-74.5	0.0
2026-01-22 10:36:35.521771	134.2	11.5	-74.8	0.0
2026-01-22 10:36:36.651031	134.1	11.6	-74.7	0.0
2026-01-22 10:36:37.782033	134.0	11.7	-74.7	0.4
2026-01-22 10:36:38.911612	134.0	11.8	-75.9	1.5
2026-01-22 10:36:40.041968	133.9	11.9	-75.0	0.0
2026-01-22 10:36:41.173278	133.8	12.0	-75.3	1.1
2026-01-22 10:36:42.312886	133.8	12.1	-75.2	0.8
2026-01-22 10:36:43.449674	133.7	12.2	-75.2	1.3
2026-01-22 10:36:44.588927	133.6	12.3	-75.2	0.0
2026-01-22 10:36:45.727463	133.5	12.4	-75.2	1.2
2026-01-22 10:36:46.865692	133.5	12.5	-74.5	0.0
2026-01-22 10:36:48.003799	133.4	12.6	-73.3	0.0
2026-01-22 10:36:49.140889	133.3	12.7	-74.1	0.0
2026-01-22 10:36:50.279329	133.3	12.8	-73.8	0.0
2026-01-22 10:36:51.416532	133.2	12.9	-74.0	0.0
2026-01-22 10:36:52.556509	133.1	13.0	-74.2	0.0
2026-01-22 10:36:53.695188	133.0	13.1	-73.9	0.0
2026-01-22 10:36:54.832159	133.0	13.2	-73.8	0.0
2026-01-22 10:36:55.969293	132.9	13.3	-76.9	4.5
2026-01-22 10:36:57.106217	132.8	13.4	-76.4	2.6
2026-01-22 10:36:58.240297	132.7	13.5	-76.7	5.4
2026-01-22 10:36:59.370846	132.7	13.6	-76.5	5.1
2026-01-22 10:37:00.500811	132.6	13.8	-76.4	4.2
2026-01-22 10:37:01.631360	132.5	13.9	-76.6	3.9
2026-01-22 10:37:02.761904	132.4	14.0	-77.2	4.7
2026-01-22 10:37:03.893671	132.3	14.1	-76.4	2.8
2026-01-22 10:37:05.024005	132.3	14.2	-77.0	4.5
2026-01-22 10:37:06.158838	132.2	14.3	-76.7	4.6
2026-01-22 10:37:07.291389	132.1	14.4	-77.2	4.9
2026-01-22 10:37:08.423734	132.0	14.5	-76.7	4.6
2026-01-22 10:37:09.556017	131.9	14.6	-77.0	6.6
2026-01-22 10:37:10.689439	131.9	14.8	-76.9	6.1
2026-01-22 10:37:11.822600	131.8	14.9	-76.7	3.8
2026-01-22 10:37:12.956115	131.7	15.0	-77.0	6.6
2026-01-22 10:37:14.086992	131.6	15.1	-76.5	6.9
2026-01-22 10:37:15.221562	131.5	15.2	-77.0	6.9
2026-01-22 10:37:16.352204	131.4	15.3	-76.5	5.3
2026-01-22 10:37:17.488208	131.3	15.4	-76.4	6.2
2026-01-22 10:37:18.620993	131.3	15.6	-76.6	4.9
2026-01-22 10:37:19.760518	131.2	15.7	-76.0	4.3
2026-01-22 10:37:20.897271	131.1	15.8	-76.7	5.1
2026-01-22 10:37:22.033732	131.0	15.9	-76.9	6.5
2026-01-22 10:37:23.172242	130.9	16.0	-77.5	8.1
2026-01-22 10:37:24.309726	130.8	16.1	-76.4	5.9
2026-01-22 10:37:25.448886	130.7	16.3	-76.7	6.4
2026-01-22 10:37:26.584170	130.6	16.4	-77.0	6.6
2026-01-22 10:37:27.720052	130.5	16.5	-76.6	5.6
2026-01-22 10:37:28.859660	130.4	16.6	-77.1	7.0
2026-01-22 10:37:29.996173	130.3	16.7	-76.7	5.0
2026-01-22 10:37:31.133680	130.2	16.9	-76.6	5.7
2026-01-22 10:37:32.271046	130.1	17.0	-76.3	3.8
2026-01-22 10:37:33.409473	130.0	17.1	-77.1	7.0
2026-01-22 10:37:34.545271	129.9	17.2	-77.1	6.7
2026-01-22 10:37:35.681225	129.8	17.4	-77.2	6.6
2026-01-22 10:37:36.817394	129.7	17.5	-76.8	5.7
2026-01-22 10:37:37.953584	129.6	17.6	-76.9	7.1
2026-01-22 10:37:39.092310	129.5	17.7	-76.5	6.4
2026-01-22 10:37:40.230169	129.4	17.9	-76.2	5.5
2026-01-22 10:37:41.365461	129.3	18.0	-76.9	6.1
2026-01-22 10:37:42.503312	129.2	18.1	-77.1	6.9
2026-01-22 10:37:43.637293	129.1	18.3	-77.0	6.3
2026-01-22 10:37:44.776547	129.0	18.4	-76.8	6.6
2026-01-22 10:37:45.918390	128.9	18.5	-77.4	6.5
2026-01-22 10:37:47.056431	128.8	18.6	-77.7	7.9
2026-01-22 10:37:48.194648	128.7	18.8	-77.7	7.1
2026-01-22 10:37:49.330990	128.6	18.9	-77.2	7.1
2026-01-22 10:37:50.470122	128.5	19.0	-77.2	6.9
2026-01-22 10:37:51.610854	128.3	19.2	-76.8	6.8
2026-01-22 10:37:52.750321	128.2	19.3	-76.8	5.6
2026-01-22 10:37:53.888607	128.1	19.4	-77.4	6.6
2026-01-22 10:37:55.026955	128.0	19.6	-77.3	6.3
2026-01-22 10:37:56.163778	127.9	19.7	-77.3	7.2
2026-01-22 10:37:57.300860	127.8	19.8	-77.5	6.7
2026-01-22 10:37:58.437124	127.6	20.0	-77.1	6.8
2026-01-22 10:37:59.573951	127.5	20.1	-77.4	7.5
2026-01-22 10:38:00.710993	127.4	20.2	-77.2	6.3
2026-01-22 10:38:01.849942	127.3	20.4	-77.5	8.4
2026-01-22 10:38:02.986423	127.2	20.5	-77.9	8.3
2026-01-22 10:38:04.121512	127.0	20.7	-77.5	7.5
2026-01-22 10:38:05.260187	126.9	20.8	-77.3	7.5
2026-01-22 10:38:06.395405	126.8	20.9	-76.8	6.4
2026-01-22 10:38:07.535014	126.6	21.1	-77.6	7.8
2026-01-22 10:38:08.672780	126.5	21.2	-77.0	8.2
2026-01-22 10:38:09.810431	126.4	21.4	-77.3	7.9
2026-01-22 10:38:10.945806	126.3	21.5	-77.5	7.8
2026-01-22 10:38:12.083878	126.1	21.7	-77.0	7.2
2026-01-22 10:38:13.223146	126.0	21.8	-77.3	7.3
2026-01-22 10:38:14.361032	125.8	21.9	-77.3	7.4
2026-01-22 10:38:15.499186	125.7	22.1	-77.3	8.3
2026-01-22 10:38:16.635286	125.6	22.2	-77.5	8.5
2026-01-22 10:38:17.773139	125.4	22.4	-77.4	8.6
2026-01-22 10:38:18.911637	125.3	22.5	-77.2	8.6
2026-01-22 10:38:20.050582	125.2	22.7	-77.2	9.3
2026-01-22 10:38:21.189020	125.0	22.8	-77.7	8.5
2026-01-22 10:38:22.327026	124.9	23.0	-77.9	8.8
2026-01-22 10:38:23.467406	124.7	23.1	-77.3	8.0
2026-01-22 10:38:24.605825	124.6	23.3	-77.3	8.6
2026-01-22 10:38:25.744071	124.4	23.4	-78.1	9.5
2026-01-22 10:38:26.879923	124.3	23.6	-77.8	8.6
2026-01-22 10:38:28.009985	124.1	23.7	-77.8	9.0
2026-01-22 10:38:29.141164	124.0	23.9	-78.0	9.4
2026-01-22 10:38:30.273335	123.8	24.0	-77.7	8.4
2026-01-22 10:38:31.408939	123.6	24.2	-77.8	7.5
2026-01-22 10:38:32.538458	123.5	24.3	-78.2	9.7
2026-01-22 10:38:33.672872	123.3	24.5	-77.6	8.1
2026-01-22 10:38:34.807166	123.2	24.7	-77.6	9.0
2026-01-22 10:38:35.938920	123.0	24.8	-77.6	9.1
2026-01-22 10:38:37.073106	122.8	25.0	-78.0	9.5
2026-01-22 10:38:38.208366	122.7	25.1	-78.2	10.2
2026-01-22 10:38:39.343278	122.5	25.3	-77.9	9.0
2026-01-22 10:38:40.476026	122.3	25.4	-78.0	9.6
2026-01-22 10:38:41.610476	122.2	25.6	-77.4	8.8
2026-01-22 10:38:42.746741	122.0	25.8	-77.4	9.9
2026-01-22 10:38:43.882275	121.8	25.9	-77.4	9.6
2026-01-22 10:38:45.018030	121.6	26.1	-77.8	9.8
2026-01-22 10:38:46.152370	121.5	26.3	-77.6	9.2
2026-01-22 10:38:47.287191	121.3	26.4	-77.2	8.9
2026-01-22 10:38:48.422403	121.1	26.6	-77.4	9.4
2026-01-22 10:38:49.558679	120.9	26.8	-77.2	9.2
2026-01-22 10:38:50.690942	120.7	26.9	-77.1	10.3
2026-01-22 10:38:51.826466	120.5	27.1	-76.9	8.9
2026-01-22 10:38:52.962797	120.3	27.3	-76.7	7.5
2026-01-22 10:38:54.102175	120.2	27.4	-76.8	8.3
2026-01-22 10:38:55.239592	120.0	27.6	-76.8	7.4
2026-01-22 10:38:56.377223	119.8	27.8	-76.9	8.3
2026-01-22 10:38:57.514723	119.6	27.9	-76.9	7.9
2026-01-22 10:38:58.651872	119.4	28.1	-77.1	9.7
2026-01-22 10:38:59.788080	119.2	28.3	-77.0	9.3
2026-01-22 10:39:00.923686	118.9	28.4	-77.2	9.0
2026-01-22 10:39:02.063990	118.7	28.6	-77.3	9.4
2026-01-22 10:39:03.201711	118.5	28.8	-77.8	10.1
2026-01-22 10:39:04.338276	118.3	29.0	-77.3	9.3
2026-01-22 10:39:05.474094	118.1	29.1	-77.4	9.3
2026-01-22 10:39:06.609469	117.9	29.3	-77.4	9.3
2026-01-22 10:39:07.746439	117.7	29.5	-77.0	8.6
2026-01-22 10:39:08.879224	117.4	29.7	-76.7	8.5
2026-01-22 10:39:10.014290	117.2	29.8	-76.9	9.3
2026-01-22 10:39:11.148880	117.0	30.0	-76.8	8.7
2026-01-22 10:39:12.285120	116.8	30.2	-76.8	9.0
2026-01-22 10:39:13.417483	116.5	30.4	-77.0	9.7
2026-01-22 10:39:14.555213	116.3	30.6	-77.2	10.0
2026-01-22 10:39:15.689566	116.1	30.7	-76.8	10.3
2026-01-22 10:39:16.824191	115.8	30.9	-76.5	9.7
2026-01-22 10:39:17.957013	115.6	31.1	-76.5	8.8
2026-01-22 10:39:19.091804	115.3	31.3	-76.1	8.2
2026-01-22 10:39:20.225378	115.1	31.5	-76.5	8.6
2026-01-22 10:39:21.361154	114.8	31.6	-76.3	8.2
2026-01-22 10:39:22.493902	114.6	31.8	-76.8	9.4
2026-01-22 10:39:23.628789	114.3	32.0	-76.5	8.6
2026-01-22 10:39:24.764693	114.1	32.2	-75.4	7.0
2026-01-22 10:39:25.897341	113.8	32.4	-76.0	6.3
2026-01-22 10:39:27.032531	113.5	32.6	-76.1	7.9
2026-01-22 10:39:28.166689	113.3	32.8	-76.6	7.9
2026-01-22 10:39:29.304978	113.0	32.9	-76.0	5.8
2026-01-22 10:39:30.440306	112.7	33.1	-75.7	5.8
2026-01-22 10:39:31.574161	112.4	33.3	-75.1	4.3
2026-01-22 10:39:32.710350	112.2	33.5	-75.3	4.1
2026-01-22 10:39:33.847467	111.9	33.7	-73.7	1.4
2026-01-22 10:39:34.981942	111.6	33.9	-76.0	6.3
2026-01-22 10:39:36.116470	111.3	34.1	-76.1	5.7
2026-01-22 10:39:37.253365	111.0	34.2	-75.0	5.4
2026-01-22 10:39:38.388460	110.7	34.4	-74.3	3.0
2026-01-22 10:39:39.523854	110.4	34.6	-75.7	7.3
2026-01-22 10:39:40.662186	110.1	34.8	-75.6	4.7
2026-01-22 10:39:41.797530	109.8	35.0	-74.0	3.1
2026-01-22 10:39:42.931190	109.5	35.2	-75.8	6.5
2026-01-22 10:39:44.068903	109.1	35.4	-75.1	4.5
2026-01-22 10:39:45.203445	108.8	35.6	-76.3	3.5
2026-01-22 10:39:46.338085	108.5	35.8	-76.1	5.9
2026-01-22 10:39:47.475259	108.2	36.0	-77.0	6.1
2026-01-22 10:39:48.611301	107.8	36.1	-77.2	6.1
2026-01-22 10:39:49.746227	107.5	36.3	-75.3	1.8
2026-01-22 10:39:50.880963	107.2	36.5	-76.7	6.1
2026-01-22 10:39:52.017426	106.8	36.7	-76.5	3.4
2026-01-22 10:39:53.149757	106.5	36.9	-76.5	5.5
2026-01-22 10:39:54.284961	106.1	37.1	-76.4	5.0
2026-01-22 10:39:55.422949	105.8	37.3	-76.3	2.5
2026-01-22 10:39:56.561512	105.4	37.5	-76.8	4.2
2026-01-22 10:39:57.698004	105.0	37.7	-76.9	4.9
2026-01-22 10:39:58.832071	104.7	37.9	-76.6	3.2
2026-01-22 10:39:59.967490	104.3	38.0	-76.5	4.4
2026-01-22 10:40:01.101417	103.9	38.2	-76.1	3.0
2026-01-22 10:40:02.239442	103.5	38.4	-76.0	3.5
2026-01-22 10:40:03.376267	103.1	38.6	-76.3	2.6
2026-01-22 10:40:04.514344	102.8	38.8	-76.4	3.4
2026-01-22 10:40:05.652664	102.4	39.0	-76.5	2.9
2026-01-22 10:40:06.792299	102.0	39.2	-76.0	2.3
2026-01-22 10:40:07.928966	101.6	39.3	-75.2	1.1
2026-01-22 10:40:09.065236	101.1	39.5	-75.9	3.1
2026-01-22 10:40:10.205486	100.7	39.7	-75.3	1.4
2026-01-22 10:40:11.340479	100.3	39.9	-74.9	1.3
2026-01-22 10:40:12.479342	99.9	40.1	-75.7	1.9
2026-01-22 10:40:13.617034	99.5	40.3	-76.7	4.6
2026-01-22 10:40:14.754761	99.0	40.4	-76.3	3.8
2026-01-22 10:40:15.890658	98.6	40.6	-76.7	4.8
2026-01-22 10:40:17.029276	98.1	40.8	-76.2	2.1
2026-01-22 10:40:18.167755	97.7	41.0	-74.6	1.0
2026-01-22 10:40:19.304881	97.2	41.2	-74.8	1.6
2026-01-22 10:40:20.445552	96.8	41.3	-74.4	1.2
2026-01-22 10:40:21.583315	96.3	41.5	-74.1	0.0
2026-01-22 10:40:22.721545	95.8	41.7	-73.2	0.0
2026-01-22 10:40:23.860972	95.4	41.9	-73.9	0.0
2026-01-22 10:40:25.000497	94.9	42.0	-74.3	0.6
2026-01-22 10:40:26.138381	94.4	42.2	-74.9	1.3
2026-01-22 10:40:27.278736	93.9	42.4	-75.3	2.7
2026-01-22 10:40:28.415917	93.4	42.5	-75.6	0.5
2026-01-22 10:40:29.554811	92.9	42.7	-75.3	0.0
2026-01-22 10:40:30.692562	92.4	42.8	-74.3	0.0
2026-01-22 10:40:31.832358	91.9	43.0	-74.7	0.6
2026-01-22 10:40:32.970571	91.4	43.2	-75.7	0.0
2026-01-22 10:40:34.110051	90.9	43.3	-75.1	0.0
2026-01-22 10:40:35.246224	90.3	43.5	-75.0	0.0
2026-01-22 10:40:36.381738	89.8	43.6	-73.8	0.0
2026-01-22 10:40:37.514163	89.3	43.8	-74.6	0.0
2026-01-22 10:40:38.642018	88.8	43.9	-74.8	0.0
2026-01-22 10:40:39.772758	88.2	44.1	-73.2	0.0
2026-01-22 10:40:40.901919	87.7	44.2	-73.1	0.0
2026-01-22 10:40:42.030755	87.1	44.3	-74.8	0.0
2026-01-22 10:40:43.156601	86.6	44.5	-73.2	0.0
2026-01-22 10:40:44.285711	86.0	44.6	-72.9	0.0
2026-01-22 10:40:45.416937	85.4	44.7	-74.6	0.0
2026-01-22 10:40:46.547211	84.9	44.9	-73.8	0.0
2026-01-22 10:40:47.675340	84.3	45.0	-74.9	1.4
2026-01-22 10:40:48.804768	83.7	45.1	-74.8	0.2
2026-01-22 10:40:49.934747	83.1	45.2	-74.9	1.1
2026-01-22 10:40:51.063110	82.6	45.4	-73.8	0.0
2026-01-22 10:40:52.192203	82.0	45.5	-72.8	0.0
2026-01-22 10:40:53.319361	81.4	45.6	-74.5	0.0
2026-01-22 10:40:54.448532	80.8	45.7	-75.0	0.1
2026-01-22 10:40:55.577965	80.2	45.8	-73.9	0.0
2026-01-22 10:40:56.707552	79.6	45.9	-74.0	0.0
2026-01-22 10:40:57.843248	78.9	46.0	-73.3	0.0
2026-01-22 10:40:58.971814	78.3	46.1	-72.6	0.0
2026-01-22 10:41:00.109350	77.7	46.2	-73.2	0.0
2026-01-22 10:41:01.247629	77.1	46.3	-73.5	0.0
2026-01-22 10:41:02.392006	76.4	46.4	-73.0	0.0
2026-01-22 10:41:03.530836	75.8	46.4	-73.6	0.7
2026-01-22 10:41:04.672055	75.2	46.5	-73.4	0.0
2026-01-22 10:41:05.809915	74.5	46.6	-73.2	0.0
2026-01-22 10:41:06.947256	73.9	46.7	-72.8	0.0
2026-01-22 10:41:08.084884	73.2	46.7	-73.1	0.0
2026-01-22 10:41:09.221630	72.6	46.8	-71.3	0.0
2026-01-22 10:41:10.358915	71.9	46.9	-71.1	0.0
2026-01-22 10:41:11.498176	71.3	46.9	-72.0	0.0
2026-01-22 10:41:12.636802	70.6	47.0	-72.7	0.0
2026-01-22 10:41:13.771013	70.0	47.0	-73.1	0.4
2026-01-22 10:41:14.908940	69.3	47.0	-72.4	0.0
2026-01-22 10:41:16.045331	68.7	47.1	-73.1	0.0
2026-01-22 10:41:17.178901	68.0	47.1	-72.7	0.0
2026-01-22 10:41:18.313327	67.3	47.1	-72.3	0.0
2026-01-22 10:41:19.446937	66.7	47.2	-73.1	0.0
2026-01-22 10:41:20.580925	66.0	47.2	-72.6	0.0
2026-01-22 10:41:21.713517	65.3	47.2	-73.0	0.0
2026-01-22 10:41:22.850395	64.7	47.2	-72.1	0.0
2026-01-22 10:41:23.985357	64.0	47.2	-72.0	0.0
2026-01-22 10:41:25.119483	63.3	47.2	-71.9	0.0
2026-01-22 10:41:26.251841	62.7	47.2	-72.2	0.0
2026-01-22 10:41:27.385340	62.0	47.2	-73.2	0.0
2026-01-22 10:41:28.519853	61.3	47.2	-72.2	0.0
2026-01-22 10:41:29.654422	60.7	47.2	-72.8	0.0
2026-01-22 10:41:30.788574	60.0	47.2	-73.3	0.0
2026-01-22 10:41:31.923272	59.4	47.2	-73.4	0.0
2026-01-22 10:41:33.056557	58.7	47.1	-72.7	0.0
2026-01-22 10:41:34.189996	58.0	47.1	-73.2	0.0
2026-01-22 10:41:35.321377	57.4	47.1	-73.3	0.0
2026-01-22 10:41:36.456306	56.7	47.0	-73.9	0.0
2026-01-22 10:41:37.589672	56.1	47.0	-73.1	0.0
2026-01-22 10:41:38.726559	55.4	47.0	-73.2	0.0
2026-01-22 10:41:39.861492	54.7	46.9	-73.5	0.0
2026-01-22 10:41:40.998242	54.1	46.9	-73.2	0.0
2026-01-22 10:41:42.137467	53.4	46.8	-72.1	0.0
2026-01-22 10:41:43.273827	52.8	46.7	-71.8	0.0
2026-01-22 10:41:44.410276	52.1	46.7	-73.3	0.0
2026-01-22 10:41:45.546477	51.5	46.6	-74.5	0.0
2026-01-22 10:41:46.683783	50.9	46.5	-74.0	0.0
2026-01-22 10:41:47.819799	50.2	46.4	-74.1	0.0
2026-01-22 10:41:48.955225	49.6	46.4	-73.7	0.0
2026-01-22 10:41:50.091024	49.0	46.3	-73.6	0.0
2026-01-22 10:41:51.228257	48.3	46.2	-72.8	0.0
2026-01-22 10:41:52.366487	47.7	46.1	-72.8	0.0
2026-01-22 10:41:53.502067	47.1	46.0	-73.6	0.0
2026-01-22 10:41:54.638304	46.5	45.9	-73.3	0.0
2026-01-22 10:41:55.775733	45.9	45.8	-73.0	0.0
2026-01-22 10:41:56.913271	45.3	45.7	-74.4	0.0
2026-01-22 10:41:58.049739	44.7	45.6	-74.3	0.0
2026-01-22 10:41:59.191196	44.1	45.5	-73.7	0.0
2026-01-22 10:42:00.329370	43.5	45.4	-74.9	0.0
2026-01-22 10:42:01.465388	42.9	45.2	-74.3	0.0
2026-01-22 10:42:02.604240	42.3	45.1	-74.3	0.0
2026-01-22 10:42:03.741952	41.7	45.0	-73.8	0.0
2026-01-22 10:42:04.879252	41.1	44.9	-74.8	0.0
2026-01-22 10:42:06.015108	40.6	44.7	-74.0	0.0
2026-01-22 10:42:07.153653	40.0	44.6	-74.6	0.0
2026-01-22 10:42:08.291735	39.4	44.5	-74.7	0.0
2026-01-22 10:42:09.428202	38.9	44.3	-74.3	0.0
2026-01-22 10:42:10.564304	38.3	44.2	-74.7	0.9
2026-01-22 10:42:11.699985	37.8	44.1	-74.4	1.2
2026-01-22 10:42:12.836020	37.2	43.9	-74.7	0.0
2026-01-22 10:42:13.969091	36.7	43.8	-74.5	0.0
2026-01-22 10:42:15.106926	36.2	43.6	-74.6	0.0
2026-01-22 10:42:16.240370	35.6	43.5	-74.8	0.0
2026-01-22 10:42:17.377343	35.1	43.3	-74.8	0.0
2026-01-22 10:42:18.511858	34.6	43.2	-75.0	0.0
2026-01-22 10:42:19.648937	34.1	43.0	-74.9	0.0
2026-01-22 10:42:20.784081	33.6	42.8	-75.5	1.4
2026-01-22 10:42:21.921511	33.1	42.7	-74.6	0.0
2026-01-22 10:42:23.058665	32.6	42.5	-75.5	1.7
2026-01-22 10:42:24.195891	32.1	42.3	-74.1	0.0
2026-01-22 10:42:25.335969	31.6	42.2	-74.2	0.0
2026-01-22 10:42:26.471202	31.1	42.0	-73.4	0.0
2026-01-22 10:42:27.606878	30.7	41.8	-74.5	0.3
2026-01-22 10:42:28.741275	30.2	41.7	-73.8	0.0
2026-01-22 10:42:29.878231	29.7	41.5	-74.4	1.7
2026-01-22 10:42:31.013648	29.3	41.3	-74.1	1.5
2026-01-22 10:42:32.149151	28.8	41.2	-74.4	0.4
2026-01-22 10:42:33.286902	28.4	41.0	-74.4	0.4
2026-01-22 10:42:34.422623	27.9	40.8	-74.6	0.6
2026-01-22 10:42:35.558680	27.5	40.6	-74.2	0.7
2026-01-22 10:42:36.695029	27.0	40.4	-73.8	1.2
2026-01-22 10:42:37.829412	26.6	40.3	-72.8	0.0
2026-01-22 10:42:38.966348	26.2	40.1	-73.3	0.0
2026-01-22 10:42:40.102645	25.7	39.9	-70.5	0.0
2026-01-22 10:42:41.238583	25.3	39.7	-72.7	0.0
2026-01-22 10:42:42.376998	24.9	39.5	-73.8	0.0
2026-01-22 10:42:43.511247	24.5	39.4	-72.9	0.0
2026-01-22 10:42:44.640248	24.1	39.2	-73.5	0.0
2026-01-22 10:42:45.769533	23.7	39.0	-73.5	0.0
2026-01-22 10:42:46.897411	23.3	38.8	-73.9	0.0
2026-01-22 10:42:48.025554	22.9	38.6	-74.1	0.0
2026-01-22 10:42:49.156118	22.5	38.4	-74.4	0.0
2026-01-22 10:42:50.284102	22.2	38.2	-74.0	0.0
2026-01-22 10:42:51.412650	21.8	38.1	-74.2	0.0
2026-01-22 10:42:52.541575	21.4	37.9	-73.5	0.0
2026-01-22 10:42:53.670144	21.1	37.7	-73.1	0.0
2026-01-22 10:42:54.798734	20.7	37.5	-70.2	0.0
2026-01-22 10:42:55.928800	20.3	37.3	-70.9	0.0
2026-01-22 10:42:57.058369	20.0	37.1	-72.7	0.0
2026-01-22 10:42:58.188827	19.6	36.9	-71.8	0.0
2026-01-22 10:42:59.320147	19.3	36.7	-72.6	0.0
2026-01-22 10:43:00.450222	19.0	36.6	-70.9	0.0
2026-01-22 10:43:01.581527	18.6	36.4	-70.8	0.0
2026-01-22 10:43:02.711687	18.3	36.2	-71.9	0.0
2026-01-22 10:43:03.838404	18.0	36.0	-70.6	0.0
2026-01-22 10:43:04.966799	17.6	35.8	-70.2	0.0
2026-01-22 10:43:06.098868	17.3	35.6	-70.9	0.0
2026-01-22 10:43:07.237551	17.0	35.4	-70.5	0.0
2026-01-22 10:43:08.375229	16.7	35.2	-66.5	0.0
2026-01-22 10:43:09.511232	16.4	35.0	-70.2	0.0
2026-01-22 10:43:10.645689	16.0	34.9	-69.8	0.0
2026-01-22 10:43:11.784740	15.7	34.7	-68.7	0.0
2026-01-22 10:43:12.922941	15.4	34.5	-69.7	0.0
2026-01-22 10:43:14.062161	15.1	34.3	-71.6	0.0
2026-01-22 10:43:15.197233	14.8	34.1	-69.8	0.0
2026-01-22 10:43:16.337438	14.6	33.9	-70.9	0.0
2026-01-22 10:43:17.474554	14.3	33.7	-68.2	0.0
2026-01-22 10:43:18.612310	14.0	33.5	-67.1	0.0
2026-01-22 10:43:19.751269	13.7	33.4	-70.1	0.0
2026-01-22 10:43:20.888795	13.4	33.2	-67.8	0.0
2026-01-22 10:43:22.026410	13.1	33.0	-69.2	0.0
2026-01-22 10:43:23.159112	12.9	32.8	-68.5	0.0
2026-01-22 10:43:24.288589	12.6	32.6	-68.9	0.0
2026-01-22 10:43:25.418091	12.3	32.4	-68.0	0.0
2026-01-22 10:43:26.546682	12.1	32.3	-69.8	0.0
2026-01-22 10:43:27.676002	11.8	32.1	-69.0	0.0
2026-01-22 10:43:28.806723	11.6	31.9	-71.1	0.0
2026-01-22 10:43:29.940183	11.3	31.7	-69.1	0.0
2026-01-22 10:43:31.070486	11.1	31.5	-69.6	0.0
2026-01-22 10:43:32.199097	10.8	31.3	-71.0	0.0
2026-01-22 10:43:33.331830	10.6	31.2	-69.9	0.0
2026-01-22 10:43:34.462153	10.3	31.0	-70.3	0.0
2026-01-22 10:43:35.592527	10.1	30.8	-70.3	0.0
2026-01-22 10:43:36.722468	9.9	30.6	-70.1	0.0
2026-01-22 10:43:37.853525	9.6	30.4	-69.2	0.0
2026-01-22 10:43:38.982540	9.4	30.3	-67.6	0.0
2026-01-22 10:43:40.110915	9.2	30.1	-68.6	0.0
2026-01-22 10:43:41.239360	8.9	29.9	-68.3	0.0
2026-01-22 10:43:42.370285	8.7	29.7	-69.5	0.0
2026-01-22 10:43:43.501636	8.5	29.6	-70.6	0.0
2026-01-22 10:43:44.632469	8.3	29.4	-69.8	0.0
2026-01-22 10:43:45.765180	8.1	29.2	-70.7	0.0
2026-01-22 10:43:46.894250	7.9	29.0	-69.0	0.0
2026-01-22 10:43:48.032993	7.6	28.9	-69.7	0.0
2026-01-22 10:43:49.170537	7.4	28.7	-70.8	0.0
2026-01-22 10:43:50.307405	7.2	28.5	-70.2	0.0
2026-01-22 10:43:51.443976	7.0	28.4	-70.4	0.0
2026-01-22 10:43:52.584543	6.8	28.2	-69.4	0.0
2026-01-22 10:43:53.721665	6.6	28.0	-70.0	0.0
2026-01-22 10:43:54.861034	6.4	27.8	-66.6	0.0
2026-01-22 10:43:55.997707	6.2	27.7	-70.4	0.0
2026-01-22 10:43:57.132000	6.0	27.5	-70.6	0.0
2026-01-22 10:43:58.266235	5.8	27.3	-70.6	0.0
2026-01-22 10:43:59.403276	5.6	27.2	-71.1	0.0
2026-01-22 10:44:00.535135	5.5	27.0	-68.5	0.0
2026-01-22 10:44:01.670604	5.3	26.8	-69.4	0.0
2026-01-22 10:44:02.807426	5.1	26.7	-68.8	0.0
2026-01-22 10:44:03.943033	4.9	26.5	-70.2	0.0
2026-01-22 10:44:05.077211	4.7	26.3	-68.0	0.0
2026-01-22 10:44:06.210888	4.5	26.2	-69.2	0.0
2026-01-22 10:44:07.349327	4.4	26.0	-70.4	0.0
2026-01-22 10:44:08.484322	4.2	25.9	-66.3	0.0
2026-01-22 10:44:09.619963	4.0	25.7	-69.4	0.0
2026-01-22 10:44:10.756661	3.9	25.5	-70.5	0.0
2026-01-22 10:44:11.895741	3.7	25.4	-70.0	0.0
2026-01-22 10:44:13.031826	3.5	25.2	-68.9	0.0
2026-01-22 10:44:14.169350	3.3	25.1	-68.6	0.0
2026-01-22 10:44:15.306038	3.2	24.9	-69.4	0.0
2026-01-22 10:44:16.440832	3.0	24.7	-69.9	0.0
2026-01-22 10:44:17.578092	2.9	24.6	-70.1	0.0
2026-01-22 10:44:18.717974	2.7	24.4	-69.7	0.0
2026-01-22 10:44:19.857300	2.5	24.3	-70.1	0.0
2026-01-22 10:44:20.998153	2.4	24.1	-71.1	0.0
2026-01-22 10:44:22.137235	2.2	24.0	-69.9	0.0
2026-01-22 10:44:23.276507	2.1	23.8	-69.1	0.0
2026-01-22 10:44:24.417873	1.9	23.7	-70.2	0.0
2026-01-22 10:44:25.558532	1.8	23.5	-69.3	0.0
2026-01-22 10:44:26.698091	1.6	23.4	-69.4	0.0
2026-01-22 10:44:27.838050	1.5	23.2	-70.1	0.0
2026-01-22 10:44:28.974681	1.3	23.1	-70.0	0.0
2026-01-22 10:44:30.113292	1.2	22.9	-69.1	0.0
2026-01-22 10:44:31.252210	1.0	22.8	-70.1	0.0
2026-01-22 10:44:32.390181	0.9	22.6	-69.4	0.0
2026-01-22 10:44:33.532039	0.8	22.5	-70.1	0.0
2026-01-22 10:44:34.671979	0.6	22.3	-66.8	0.0
2026-01-22 10:44:35.804891	0.5	22.2	-67.3	0.0
2026-01-22 10:44:36.936756	0.3	22.0	-68.9	0.0
2026-01-22 10:44:38.067804	0.2	21.9	-71.4	0.0
2026-01-22 10:44:39.203062	0.1	21.7	-70.8	0.0
2026-01-22 10:44:40.341332	359.9	21.6	-69.1	0.0
2026-01-22 10:44:41.480462	359.8	21.5	-70.2	0.0
2026-01-22 10:44:42.618732	359.7	21.3	-69.8	0.0
2026-01-22 10:44:43.755172	359.6	21.2	-69.6	0.0
2026-01-22 10:44:44.891942	359.4	21.0	-70.0	0.0
2026-01-22 10:44:46.029603	359.3	20.9	-68.8	0.0
2026-01-22 10:44:47.166608	359.2	20.8	-69.6	0.0
2026-01-22 10:44:48.306728	359.1	20.6	-69.3	0.0
2026-01-22 10:44:49.446199	358.9	20.5	-70.0	0.0
2026-01-22 10:44:50.585187	358.8	20.3	-69.7	0.0
2026-01-22 10:44:51.722626	358.7	20.2	-69.9	0.0
2026-01-22 10:44:52.863395	358.6	20.1	-67.6	0.0
2026-01-22 10:44:54.000717	358.5	19.9	-69.8	0.0
2026-01-22 10:44:55.138862	358.3	19.8	-69.4	0.0
2026-01-22 10:44:56.276235	358.2	19.7	-68.8	0.0
2026-01-22 10:44:57.403172	358.1	19.5	-70.0	0.0
2026-01-22 10:44:58.531209	358.0	19.4	-70.7	0.0
2026-01-22 10:44:59.661285	357.9	19.3	-70.6	0.0
2026-01-22 10:45:00.791299	357.8	19.1	-70.3	0.0
2026-01-22 10:45:01.919353	357.7	19.0	-71.2	0.0
2026-01-22 10:45:03.050094	357.5	18.9	-70.3	0.0
2026-01-22 10:45:04.179520	357.4	18.8	-69.4	0.0
2026-01-22 10:45:05.308362	357.3	18.6	-70.4	0.0
2026-01-22 10:45:06.442006	357.2	18.5	-70.2	0.0
2026-01-22 10:45:07.570329	357.1	18.4	-71.3	0.0
2026-01-22 10:45:08.701656	357.0	18.2	-70.7	0.0
2026-01-22 10:45:09.833389	356.9	18.1	-70.5	0.0
2026-01-22 10:45:10.961558	356.8	18.0	-70.2	0.0
2026-01-22 10:45:12.088499	356.7	17.9	-71.1	0.0
2026-01-22 10:45:13.218547	356.6	17.7	-71.6	0.0
2026-01-22 10:45:14.349312	356.5	17.6	-72.3	0.0
2026-01-22 10:45:15.478639	356.4	17.5	-71.7	0.0
2026-01-22 10:45:16.605104	356.3	17.4	-72.4	0.0
2026-01-22 10:45:17.734514	356.2	17.2	-72.9	0.0
2026-01-22 10:45:18.870922	356.1	17.1	-71.5	0.0
2026-01-22 10:45:20.006994	356.0	17.0	-71.6	0.0
2026-01-22 10:45:21.141139	355.9	16.9	-70.9	0.0
2026-01-22 10:45:22.276374	355.8	16.8	-70.8	0.0
2026-01-22 10:45:23.412472	355.7	16.6	-71.2	0.0
2026-01-22 10:45:24.546396	355.6	16.5	-70.9	0.0
2026-01-22 10:45:25.678397	355.5	16.4	-70.1	0.0
2026-01-22 10:45:26.814723	355.5	16.3	-71.0	0.0
2026-01-22 10:45:27.954061	355.4	16.2	-69.9	0.0
2026-01-22 10:45:29.089276	355.3	16.0	-70.5	0.0
2026-01-22 10:45:30.221327	355.2	15.9	-72.0	0.0
2026-01-22 10:45:31.353672	355.1	15.8	-71.3	0.0
2026-01-22 10:45:32.489764	355.0	15.7	-71.6	0.0
2026-01-22 10:45:33.625096	354.9	15.6	-71.7	0.0
2026-01-22 10:45:34.760644	354.8	15.5	-71.8	0.0
2026-01-22 10:45:35.891559	354.7	15.3	-71.8	0.0
2026-01-22 10:45:37.020882	354.7	15.2	-72.1	0.0
2026-01-22 10:45:38.150359	354.6	15.1	-71.2	0.0
2026-01-22 10:45:39.277005	354.5	15.0	-72.7	0.0
2026-01-22 10:45:40.406045	354.4	14.9	-71.8	0.0
2026-01-22 10:45:41.535862	354.3	14.8	-72.5	0.0
2026-01-22 10:45:42.664905	354.2	14.7	-72.0	0.0
2026-01-22 10:45:43.793836	354.2	14.6	-72.0	0.0
2026-01-22 10:45:44.925229	354.1	14.4	-71.3	0.0
2026-01-22 10:45:46.055918	354.0	14.3	-72.1	0.0
2026-01-22 10:45:47.190296	353.9	14.2	-71.8	0.0
2026-01-22 10:45:48.318316	353.8	14.1	-72.2	0.0
2026-01-22 10:45:49.446214	353.8	14.0	-71.7	0.0
2026-01-22 10:45:50.573805	353.7	13.9	-72.6	0.0
2026-01-22 10:45:51.701726	353.6	13.8	-72.8	0.0
2026-01-22 10:45:52.830914	353.5	13.7	-72.2	0.0
2026-01-22 10:45:53.960288	353.5	13.6	-73.7	0.0
2026-01-22 10:45:55.088553	353.4	13.5	-71.1	0.0
2026-01-22 10:45:56.218036	353.3	13.4	-72.8	0.0
2026-01-22 10:45:57.344409	353.2	13.3	-72.4	0.0
2026-01-22 10:45:58.480584	353.2	13.1	-72.2	0.0
2026-01-22 10:45:59.613008	353.1	13.0	-72.2	0.0
2026-01-22 10:46:00.749994	353.0	12.9	-72.1	0.0
2026-01-22 10:46:01.887517	353.0	12.8	-72.2	0.0
2026-01-22 10:46:03.023832	352.9	12.7	-72.0	0.0
2026-01-22 10:46:04.159305	352.8	12.6	-71.6	0.0
2026-01-22 10:46:05.297182	352.7	12.5	-72.0	0.0
2026-01-22 10:46:06.430893	352.7	12.4	-72.4	0.0
2026-01-22 10:46:07.568329	352.6	12.3	-71.3	0.0
2026-01-22 10:46:08.705537	352.5	12.2	-70.7	0.0
2026-01-22 10:46:09.843416	352.5	12.1	-70.9	0.0
2026-01-22 10:46:10.979928	352.4	12.0	-71.2	0.0
2026-01-22 10:46:12.119237	352.3	11.9	-69.6	0.0
2026-01-22 10:46:13.255858	352.3	11.8	-70.1	0.0
2026-01-22 10:46:14.394285	352.2	11.7	-70.9	0.0
2026-01-22 10:46:15.535102	352.1	11.6	-70.7	0.0
2026-01-22 10:46:16.669871	352.1	11.5	-72.0	0.0
2026-01-22 10:46:17.809058	352.0	11.4	-69.3	0.0
2026-01-22 10:46:18.946378	351.9	11.3	-71.6	0.0
2026-01-22 10:46:20.084928	351.9	11.2	-70.5	0.0
2026-01-22 10:46:21.224202	351.8	11.1	-71.4	0.0
2026-01-22 10:46:22.362215	351.7	11.0	-69.5	0.0
2026-01-22 10:46:23.502746	351.7	10.9	-71.9	0.0
2026-01-22 10:46:24.641651	351.6	10.8	-71.2	0.0
2026-01-22 10:46:25.778414	351.6	10.7	-70.5	0.0
2026-01-22 10:46:26.919245	351.5	10.6	-70.1	0.0
2026-01-22 10:46:28.056446	351.4	10.5	-69.9	0.0
2026-01-22 10:46:29.193977	351.4	10.4	-69.6	0.0
2026-01-22 10:46:30.335857	351.3	10.3	-71.0	0.0
2026-01-22 10:46:31.472745	351.3	10.2	-75.2	0.0
2026-01-22 10:46:32.612283	351.2	10.1	-77.6	0.0
2026-01-22 10:46:33.751158	351.1	10.0	-78.1	0.0
#Closed at: 2026-01-22 10:36:13.663711