passes_logs/2026/01/22/planumMaritime01/planumMaritime01__20260122_004624_METEOR-M2_4_rec.log

#Pass ID: 20260122_004624_METEOR-M2 4
#Satellite: METEOR-M2 4
#Configuration: METEOR-M2 4
#Start time: 2026-01-22 00:46:29.706402

#LorettStation: 1.0.0 05.05.2024
#Station: planumMaritime01
#Location: 37.49445 lon 55.92918 lat
#TLE: 1 59051U 24039A   26020.95667625  .00000091  00000+0  60497-4 0  9993
#TLE: 2 59051  98.6825 342.2619 0006126 231.1027 128.9605 14.22408473 98337

#Time	Az	El	Level	SNR
2026-01-22 00:46:31.872125	19.9	10.2	-80.3	0.0
2026-01-22 00:46:33.004892	19.9	10.3	-78.3	0.0
2026-01-22 00:46:34.142890	19.9	10.4	-79.8	0.0
2026-01-22 00:46:35.280009	20.0	10.5	-79.1	0.0
2026-01-22 00:46:36.420011	20.0	10.6	-76.6	0.0
2026-01-22 00:46:37.557676	20.0	10.7	-76.4	0.0
2026-01-22 00:46:38.694065	20.1	10.8	-76.0	0.0
2026-01-22 00:46:39.830006	20.1	10.9	-71.8	0.0
2026-01-22 00:46:40.969559	20.1	11.0	-73.0	0.0
2026-01-22 00:46:42.106235	20.2	11.1	-72.8	0.0
2026-01-22 00:46:43.243729	20.2	11.2	-71.9	0.0
2026-01-22 00:46:44.379408	20.2	11.3	-73.1	0.0
2026-01-22 00:46:45.513895	20.3	11.4	-71.6	0.0
2026-01-22 00:46:46.650687	20.3	11.5	-71.8	0.0
2026-01-22 00:46:47.785548	20.3	11.6	-68.9	0.0
2026-01-22 00:46:48.915928	20.4	11.7	-71.1	0.0
2026-01-22 00:46:50.047705	20.4	11.8	-71.9	0.0
2026-01-22 00:46:51.175553	20.4	11.9	-71.6	0.0
2026-01-22 00:46:52.304452	20.5	12.0	-71.6	0.0
2026-01-22 00:46:53.434633	20.5	12.1	-69.2	0.0
2026-01-22 00:46:54.564704	20.5	12.2	-71.3	0.0
2026-01-22 00:46:55.694678	20.6	12.3	-72.6	0.0
2026-01-22 00:46:56.822808	20.6	12.4	-71.1	0.0
2026-01-22 00:46:57.954202	20.6	12.5	-72.9	0.0
2026-01-22 00:46:59.082001	20.7	12.7	-71.7	0.0
2026-01-22 00:47:00.211359	20.7	12.8	-73.0	0.0
2026-01-22 00:47:01.342048	20.7	12.9	-70.2	0.0
2026-01-22 00:47:02.470520	20.8	13.0	-69.9	0.0
2026-01-22 00:47:03.600399	20.8	13.1	-72.6	0.0
2026-01-22 00:47:04.730562	20.8	13.2	-70.7	0.0
2026-01-22 00:47:05.860319	20.9	13.3	-71.4	0.0
2026-01-22 00:47:06.989609	20.9	13.4	-71.2	0.0
2026-01-22 00:47:08.118086	21.0	13.5	-71.7	0.0
2026-01-22 00:47:09.247730	21.0	13.6	-69.4	0.0
2026-01-22 00:47:10.380271	21.0	13.8	-72.0	0.0
2026-01-22 00:47:11.507795	21.1	13.9	-72.6	0.0
2026-01-22 00:47:12.638091	21.1	14.0	-70.9	0.0
2026-01-22 00:47:13.771385	21.1	14.1	-73.2	0.0
2026-01-22 00:47:14.906297	21.2	14.2	-72.0	0.0
2026-01-22 00:47:16.044486	21.2	14.3	-71.9	0.0
2026-01-22 00:47:17.179849	21.3	14.4	-73.1	0.0
2026-01-22 00:47:18.317137	21.3	14.6	-72.5	0.0
2026-01-22 00:47:19.451042	21.3	14.7	-71.4	0.0
2026-01-22 00:47:20.591549	21.4	14.8	-70.9	0.0
2026-01-22 00:47:21.726962	21.4	14.9	-71.5	0.0
2026-01-22 00:47:22.863903	21.5	15.0	-70.4	0.0
2026-01-22 00:47:24.003055	21.5	15.2	-73.3	0.0
2026-01-22 00:47:25.141876	21.5	15.3	-72.9	0.0
2026-01-22 00:47:26.278633	21.6	15.4	-73.4	0.0
2026-01-22 00:47:27.417334	21.6	15.5	-72.4	0.0
2026-01-22 00:47:28.554235	21.7	15.6	-70.8	0.0
2026-01-22 00:47:29.690585	21.7	15.8	-72.4	0.0
2026-01-22 00:47:30.827900	21.8	15.9	-71.5	0.0
2026-01-22 00:47:31.967629	21.8	16.0	-73.6	0.0
2026-01-22 00:47:33.108822	21.8	16.1	-73.2	0.0
2026-01-22 00:47:34.245502	21.9	16.3	-73.6	0.0
2026-01-22 00:47:35.384161	21.9	16.4	-69.4	0.0
2026-01-22 00:47:36.522436	22.0	16.5	-70.8	0.0
2026-01-22 00:47:37.659700	22.0	16.6	-71.9	0.0
2026-01-22 00:47:38.798921	22.1	16.8	-70.2	0.0
2026-01-22 00:47:39.938088	22.1	16.9	-72.2	0.0
2026-01-22 00:47:41.075172	22.2	17.0	-71.4	0.0
2026-01-22 00:47:42.213667	22.2	17.2	-71.1	0.0
2026-01-22 00:47:43.351682	22.3	17.3	-71.0	0.0
2026-01-22 00:47:44.487411	22.3	17.4	-71.7	0.0
2026-01-22 00:47:45.626366	22.3	17.6	-72.2	0.0
2026-01-22 00:47:46.763897	22.4	17.7	-72.3	0.0
2026-01-22 00:47:47.902753	22.4	17.8	-73.1	0.0
2026-01-22 00:47:49.039060	22.5	18.0	-72.7	0.0
2026-01-22 00:47:50.178738	22.5	18.1	-72.5	0.0
2026-01-22 00:47:51.316056	22.6	18.2	-71.3	0.0
2026-01-22 00:47:52.457367	22.6	18.4	-71.3	0.0
2026-01-22 00:47:53.596040	22.7	18.5	-71.4	0.0
2026-01-22 00:47:54.732458	22.7	18.6	-73.8	0.0
2026-01-22 00:47:55.868056	22.8	18.8	-74.0	0.0
2026-01-22 00:47:57.006049	22.8	18.9	-72.8	0.0
2026-01-22 00:47:58.142593	22.9	19.1	-73.9	0.0
2026-01-22 00:47:59.278510	22.9	19.2	-74.7	0.0
2026-01-22 00:48:00.416665	23.0	19.3	-73.5	0.0
2026-01-22 00:48:01.555094	23.1	19.5	-73.1	0.0
2026-01-22 00:48:02.693236	23.1	19.6	-73.7	0.0
2026-01-22 00:48:03.828669	23.2	19.8	-72.2	0.0
2026-01-22 00:48:04.963268	23.2	19.9	-71.1	0.0
2026-01-22 00:48:06.102456	23.3	20.1	-74.0	0.0
2026-01-22 00:48:07.241285	23.3	20.2	-72.8	0.0
2026-01-22 00:48:08.380027	23.4	20.4	-71.5	0.0
2026-01-22 00:48:09.518174	23.4	20.5	-74.2	0.0
2026-01-22 00:48:10.654361	23.5	20.7	-73.5	0.0
2026-01-22 00:48:11.792263	23.6	20.8	-71.9	0.0
2026-01-22 00:48:12.932178	23.6	21.0	-73.4	0.7
2026-01-22 00:48:14.069715	23.7	21.1	-73.9	0.0
2026-01-22 00:48:15.206156	23.7	21.3	-72.6	0.0
2026-01-22 00:48:16.339001	23.8	21.4	-73.5	0.0
2026-01-22 00:48:17.474833	23.8	21.6	-72.2	0.0
2026-01-22 00:48:18.611165	23.9	21.7	-74.4	0.0
2026-01-22 00:48:19.746790	24.0	21.9	-74.6	1.7
2026-01-22 00:48:20.883364	24.0	22.0	-71.5	0.0
2026-01-22 00:48:22.021722	24.1	22.2	-73.5	0.0
2026-01-22 00:48:23.157052	24.2	22.4	-72.1	0.0
2026-01-22 00:48:24.289041	24.2	22.5	-72.7	0.0
2026-01-22 00:48:25.420926	24.3	22.7	-72.7	0.0
2026-01-22 00:48:26.551616	24.4	22.8	-71.3	0.0
2026-01-22 00:48:27.682072	24.4	23.0	-73.9	0.0
2026-01-22 00:48:28.810161	24.5	23.2	-71.6	0.0
2026-01-22 00:48:29.940971	24.5	23.3	-75.3	0.0
2026-01-22 00:48:31.069258	24.6	23.5	-74.3	2.6
2026-01-22 00:48:32.200834	24.7	23.7	-74.2	1.5
2026-01-22 00:48:33.327860	24.8	23.8	-73.3	0.0
2026-01-22 00:48:34.456523	24.8	24.0	-74.1	0.0
2026-01-22 00:48:35.584075	24.9	24.2	-74.6	3.6
2026-01-22 00:48:36.713079	25.0	24.3	-74.9	2.7
2026-01-22 00:48:37.842399	25.0	24.5	-75.2	4.1
2026-01-22 00:48:38.971770	25.1	24.7	-74.4	3.4
2026-01-22 00:48:40.101076	25.2	24.9	-74.7	0.0
2026-01-22 00:48:41.228275	25.2	25.0	-73.0	0.7
2026-01-22 00:48:42.358336	25.3	25.2	-74.5	1.6
2026-01-22 00:48:43.486717	25.4	25.4	-72.0	0.0
2026-01-22 00:48:44.614235	25.5	25.6	-74.3	3.9
2026-01-22 00:48:45.747075	25.6	25.7	-74.7	4.1
2026-01-22 00:48:46.880685	25.6	25.9	-74.0	0.0
2026-01-22 00:48:48.017475	25.7	26.1	-73.8	2.7
2026-01-22 00:48:49.154389	25.8	26.3	-73.8	2.2
2026-01-22 00:48:50.288541	25.9	26.5	-74.0	1.6
2026-01-22 00:48:51.424728	25.9	26.7	-74.9	4.0
2026-01-22 00:48:52.563555	26.0	26.9	-75.5	5.3
2026-01-22 00:48:53.699810	26.1	27.0	-74.8	0.8
2026-01-22 00:48:54.836850	26.2	27.2	-75.0	3.7
2026-01-22 00:48:55.977752	26.3	27.4	-74.9	4.1
2026-01-22 00:48:57.114988	26.4	27.6	-75.5	5.0
2026-01-22 00:48:58.251866	26.5	27.8	-75.3	6.4
2026-01-22 00:48:59.391972	26.5	28.0	-75.1	2.8
2026-01-22 00:49:00.528519	26.6	28.2	-75.3	4.4
2026-01-22 00:49:01.668378	26.7	28.4	-76.5	4.7
2026-01-22 00:49:02.803354	26.8	28.6	-75.8	6.7
2026-01-22 00:49:03.939461	26.9	28.8	-76.1	2.6
2026-01-22 00:49:05.075028	27.0	29.0	-76.0	5.7
2026-01-22 00:49:06.207582	27.1	29.2	-76.0	2.2
2026-01-22 00:49:07.341158	27.2	29.4	-75.4	6.0
2026-01-22 00:49:08.473811	27.3	29.6	-76.2	7.1
2026-01-22 00:49:09.608820	27.4	29.8	-76.4	8.2
2026-01-22 00:49:10.744657	27.5	30.1	-76.5	8.0
2026-01-22 00:49:11.875722	27.6	30.3	-76.0	7.6
2026-01-22 00:49:13.010429	27.7	30.5	-76.2	8.5
2026-01-22 00:49:14.145419	27.8	30.7	-76.5	7.7
2026-01-22 00:49:15.277025	27.9	30.9	-76.0	7.0
2026-01-22 00:49:16.410094	28.0	31.1	-76.9	8.8
2026-01-22 00:49:17.543185	28.1	31.3	-76.8	4.7
2026-01-22 00:49:18.675093	28.2	31.6	-76.7	6.6
2026-01-22 00:49:19.808905	28.3	31.8	-76.7	9.0
2026-01-22 00:49:20.941299	28.4	32.0	-76.8	7.9
2026-01-22 00:49:22.072447	28.6	32.2	-77.5	8.6
2026-01-22 00:49:23.206909	28.7	32.5	-76.8	7.7
2026-01-22 00:49:24.339952	28.8	32.7	-77.2	10.0
2026-01-22 00:49:25.472750	28.9	32.9	-76.9	9.0
2026-01-22 00:49:26.605233	29.0	33.1	-77.4	9.1
2026-01-22 00:49:27.738939	29.1	33.4	-77.5	8.2
2026-01-22 00:49:28.873078	29.3	33.6	-77.5	8.9
2026-01-22 00:49:30.006465	29.4	33.9	-77.5	8.7
2026-01-22 00:49:31.138628	29.5	34.1	-77.6	6.5
2026-01-22 00:49:32.272026	29.6	34.3	-77.3	6.8
2026-01-22 00:49:33.405625	29.8	34.6	-76.9	5.4
2026-01-22 00:49:34.537463	29.9	34.8	-77.9	8.0
2026-01-22 00:49:35.669679	30.0	35.1	-77.6	9.3
2026-01-22 00:49:36.803187	30.2	35.3	-77.1	7.1
2026-01-22 00:49:37.938661	30.3	35.6	-78.2	10.0
2026-01-22 00:49:39.072037	30.4	35.8	-77.7	8.8
2026-01-22 00:49:40.204995	30.6	36.1	-77.9	9.5
2026-01-22 00:49:41.337756	30.7	36.3	-77.4	9.1
2026-01-22 00:49:42.470283	30.9	36.6	-77.5	9.7
2026-01-22 00:49:43.605600	31.0	36.8	-77.7	9.7
2026-01-22 00:49:44.741700	31.2	37.1	-78.1	8.6
2026-01-22 00:49:45.875673	31.3	37.3	-77.5	8.7
2026-01-22 00:49:47.007255	31.5	37.6	-77.9	10.5
2026-01-22 00:49:48.142665	31.6	37.9	-78.1	9.5
2026-01-22 00:49:49.273662	31.8	38.1	-78.0	9.5
2026-01-22 00:49:50.406352	32.0	38.4	-78.3	9.3
2026-01-22 00:49:51.539806	32.1	38.7	-78.1	9.5
2026-01-22 00:49:52.671926	32.3	39.0	-78.2	10.6
2026-01-22 00:49:53.804488	32.5	39.2	-77.2	9.4
2026-01-22 00:49:54.936662	32.6	39.5	-77.2	7.5
2026-01-22 00:49:56.068026	32.8	39.8	-78.0	7.7
2026-01-22 00:49:57.204189	33.0	40.1	-77.6	9.2
2026-01-22 00:49:58.338409	33.2	40.4	-77.9	10.1
2026-01-22 00:49:59.471614	33.4	40.6	-77.8	9.6
2026-01-22 00:50:00.605369	33.6	40.9	-77.2	9.9
2026-01-22 00:50:01.736848	33.7	41.2	-77.8	10.0
2026-01-22 00:50:02.868373	33.9	41.5	-77.5	10.5
2026-01-22 00:50:04.000718	34.1	41.8	-77.9	9.7
2026-01-22 00:50:05.133968	34.3	42.1	-77.9	10.7
2026-01-22 00:50:06.264749	34.6	42.4	-78.0	11.0
2026-01-22 00:50:07.398840	34.8	42.7	-77.7	10.3
2026-01-22 00:50:08.528965	35.0	43.0	-77.4	7.8
2026-01-22 00:50:09.658602	35.2	43.3	-77.1	10.3
2026-01-22 00:50:10.790500	35.4	43.6	-78.0	10.1
2026-01-22 00:50:11.923561	35.6	43.9	-77.6	10.2
2026-01-22 00:50:13.055008	35.9	44.2	-77.8	9.5
2026-01-22 00:50:14.187006	36.1	44.5	-76.2	9.1
2026-01-22 00:50:15.318613	36.3	44.8	-77.9	9.2
2026-01-22 00:50:16.450915	36.6	45.1	-78.4	8.8
2026-01-22 00:50:17.584787	36.8	45.5	-78.3	8.5
2026-01-22 00:50:18.716161	37.1	45.8	-78.6	9.1
2026-01-22 00:50:19.846905	37.4	46.1	-78.5	8.5
2026-01-22 00:50:20.984358	37.6	46.4	-78.7	7.5
2026-01-22 00:50:22.115777	37.9	46.7	-78.1	6.1
2026-01-22 00:50:23.250100	38.2	47.1	-76.8	1.8
2026-01-22 00:50:24.380086	38.4	47.4	-78.1	6.3
2026-01-22 00:50:25.514013	38.7	47.7	-77.8	6.0
2026-01-22 00:50:26.646437	39.0	48.1	-77.1	5.9
2026-01-22 00:50:27.779366	39.3	48.4	-78.1	6.0
2026-01-22 00:50:28.910047	39.6	48.7	-78.6	6.8
2026-01-22 00:50:30.043800	39.9	49.1	-78.3	5.5
2026-01-22 00:50:31.174927	40.3	49.4	-78.1	4.9
2026-01-22 00:50:32.306519	40.6	49.7	-78.3	7.1
2026-01-22 00:50:33.437333	40.9	50.1	-77.3	6.5
2026-01-22 00:50:34.566865	41.3	50.4	-78.1	8.1
2026-01-22 00:50:35.700807	41.6	50.8	-77.7	6.3
2026-01-22 00:50:36.832328	42.0	51.1	-77.4	6.8
2026-01-22 00:50:37.961025	42.3	51.5	-77.4	6.8
2026-01-22 00:50:39.093098	42.7	51.8	-77.5	8.1
2026-01-22 00:50:40.224995	43.1	52.2	-74.0	1.4
2026-01-22 00:50:41.360140	43.5	52.5	-75.9	2.1
2026-01-22 00:50:42.493193	43.9	52.9	-77.6	6.0
2026-01-22 00:50:43.623997	44.3	53.2	-74.6	0.0
2026-01-22 00:50:44.755450	44.7	53.6	-77.3	6.6
2026-01-22 00:50:45.888859	45.1	53.9	-76.7	3.7
2026-01-22 00:50:47.025749	45.6	54.3	-76.3	4.8
2026-01-22 00:50:48.162047	46.0	54.6	-77.8	2.5
2026-01-22 00:50:49.302649	46.5	55.0	-77.1	0.0
2026-01-22 00:50:50.438858	47.0	55.4	-77.9	2.3
2026-01-22 00:50:51.574418	47.5	55.7	-77.7	2.3
2026-01-22 00:50:52.710431	48.0	56.1	-78.3	2.3
2026-01-22 00:50:53.846768	48.5	56.4	-78.6	3.8
2026-01-22 00:50:54.983790	49.0	56.8	-78.5	3.6
2026-01-22 00:50:56.120903	49.6	57.2	-77.7	0.0
2026-01-22 00:50:57.257870	50.1	57.5	-77.7	2.6
2026-01-22 00:50:58.395445	50.7	57.9	-76.4	0.7
2026-01-22 00:50:59.534230	51.3	58.3	-77.6	2.1
2026-01-22 00:51:00.670062	51.9	58.6	-78.6	5.1
2026-01-22 00:51:01.805088	52.5	59.0	-78.6	3.5
2026-01-22 00:51:02.940788	53.2	59.3	-78.0	3.5
2026-01-22 00:51:04.069101	53.8	59.7	-77.4	1.3
2026-01-22 00:51:05.199596	54.5	60.0	-76.4	0.0
2026-01-22 00:51:06.328114	55.2	60.4	-77.9	5.0
2026-01-22 00:51:07.456257	55.9	60.7	-77.8	4.1
2026-01-22 00:51:08.584674	56.6	61.1	-76.5	4.7
2026-01-22 00:51:09.713540	57.3	61.4	-78.2	6.1
2026-01-22 00:51:10.843078	58.1	61.8	-78.1	4.6
2026-01-22 00:51:11.972518	58.9	62.1	-76.9	2.3
2026-01-22 00:51:13.102834	59.7	62.4	-78.8	7.1
2026-01-22 00:51:14.232389	60.6	62.8	-76.1	4.3
2026-01-22 00:51:15.361611	61.4	63.1	-76.5	2.7
2026-01-22 00:51:16.490791	62.3	63.4	-78.3	6.3
2026-01-22 00:51:17.621771	63.2	63.8	-78.5	5.8
2026-01-22 00:51:18.751109	64.1	64.1	-77.7	6.1
2026-01-22 00:51:19.879009	65.1	64.4	-76.1	1.1
2026-01-22 00:51:21.005459	66.1	64.7	-78.9	4.8
2026-01-22 00:51:22.132999	67.1	65.0	-78.0	5.6
2026-01-22 00:51:23.262551	68.1	65.3	-78.8	5.8
2026-01-22 00:51:24.392607	69.2	65.6	-78.6	7.8
2026-01-22 00:51:25.524511	70.3	65.9	-78.8	6.5
2026-01-22 00:51:26.659687	71.4	66.1	-77.1	0.1
2026-01-22 00:51:27.792404	72.6	66.4	-76.7	4.4
2026-01-22 00:51:28.930086	73.7	66.7	-78.4	8.5
2026-01-22 00:51:30.066415	75.0	66.9	-77.0	5.0
2026-01-22 00:51:31.200874	76.2	67.2	-78.0	7.2
2026-01-22 00:51:32.335541	77.5	67.4	-76.7	1.5
2026-01-22 00:51:33.468909	78.8	67.6	-76.7	4.3
2026-01-22 00:51:34.602664	80.1	67.9	-78.5	7.3
2026-01-22 00:51:35.736478	81.4	68.1	-77.9	8.4
2026-01-22 00:51:36.869041	82.8	68.3	-77.3	2.2
2026-01-22 00:51:38.000406	84.2	68.4	-78.8	7.5
2026-01-22 00:51:39.135075	85.7	68.6	-78.8	9.0
2026-01-22 00:51:40.268917	87.1	68.8	-78.8	5.3
2026-01-22 00:51:41.403953	88.6	68.9	-79.2	8.5
2026-01-22 00:51:42.536891	90.1	69.0	-79.6	9.0
2026-01-22 00:51:43.671015	91.6	69.2	-79.6	8.6
2026-01-22 00:51:44.804795	93.2	69.3	-78.0	5.1
2026-01-22 00:51:45.939508	94.7	69.4	-78.6	7.9
2026-01-22 00:51:47.074095	96.3	69.4	-80.0	8.0
2026-01-22 00:51:48.206928	97.9	69.5	-80.2	9.1
2026-01-22 00:51:49.342868	99.5	69.6	-79.4	3.7
2026-01-22 00:51:50.474829	101.0	69.6	-80.5	8.9
2026-01-22 00:51:51.610064	102.6	69.6	-80.3	8.8
2026-01-22 00:51:52.747140	104.3	69.6	-80.2	9.2
2026-01-22 00:51:53.883558	105.9	69.6	-80.1	8.7
2026-01-22 00:51:55.018688	107.5	69.6	-80.5	10.4
2026-01-22 00:51:56.147686	109.1	69.5	-80.5	9.2
2026-01-22 00:51:57.279244	110.6	69.5	-80.5	9.3
2026-01-22 00:51:58.406589	112.2	69.4	-80.4	8.2
2026-01-22 00:51:59.540193	113.8	69.3	-80.0	10.2
2026-01-22 00:52:00.671598	115.3	69.2	-80.1	8.2
2026-01-22 00:52:01.804260	116.9	69.1	-80.6	11.0
2026-01-22 00:52:02.933122	118.4	69.0	-80.6	9.6
2026-01-22 00:52:04.064307	119.9	68.9	-80.6	9.1
2026-01-22 00:52:05.198582	121.3	68.7	-81.0	9.9
2026-01-22 00:52:06.330710	122.8	68.6	-80.4	10.2
2026-01-22 00:52:07.460981	124.2	68.4	-80.9	9.4
2026-01-22 00:52:08.592433	125.6	68.2	-80.1	8.9
2026-01-22 00:52:09.723871	127.0	68.0	-81.0	10.9
2026-01-22 00:52:10.854612	128.3	67.8	-80.7	10.6
2026-01-22 00:52:11.984915	129.6	67.6	-80.8	11.4
2026-01-22 00:52:13.119427	130.9	67.4	-80.2	11.1
2026-01-22 00:52:14.256593	132.2	67.1	-80.6	9.7
2026-01-22 00:52:15.394361	133.5	66.9	-80.4	12.1
2026-01-22 00:52:16.534109	134.7	66.6	-80.3	12.0
2026-01-22 00:52:17.671794	135.9	66.4	-80.1	12.9
2026-01-22 00:52:18.809684	137.0	66.1	-80.2	12.1
2026-01-22 00:52:19.948644	138.1	65.8	-80.1	12.0
2026-01-22 00:52:21.088145	139.2	65.5	-80.4	12.4
2026-01-22 00:52:22.223817	140.3	65.2	-80.5	12.8
2026-01-22 00:52:23.363799	141.3	64.9	-80.3	11.1
2026-01-22 00:52:24.507199	142.4	64.6	-80.7	12.2
2026-01-22 00:52:25.643460	143.3	64.3	-80.6	12.3
2026-01-22 00:52:26.781927	144.3	64.0	-80.9	11.4
2026-01-22 00:52:27.922945	145.2	63.7	-80.9	12.1
2026-01-22 00:52:29.060794	146.1	63.3	-81.2	12.5
2026-01-22 00:52:30.200080	147.0	63.0	-81.1	12.1
2026-01-22 00:52:31.338362	147.9	62.7	-80.9	13.1
2026-01-22 00:52:32.477730	148.7	62.3	-80.6	10.4
2026-01-22 00:52:33.613557	149.5	62.0	-80.6	11.8
2026-01-22 00:52:34.749769	150.3	61.6	-80.6	12.0
2026-01-22 00:52:35.888808	151.1	61.3	-81.0	13.0
2026-01-22 00:52:37.028554	151.8	60.9	-80.7	11.9
2026-01-22 00:52:38.164443	152.6	60.6	-81.1	12.7
2026-01-22 00:52:39.305175	153.3	60.2	-81.0	11.6
2026-01-22 00:52:40.441336	153.9	59.9	-81.3	12.2
2026-01-22 00:52:41.582186	154.6	59.5	-81.1	12.0
2026-01-22 00:52:42.722839	155.3	59.2	-81.2	11.7
2026-01-22 00:52:43.860813	155.9	58.8	-81.1	12.6
2026-01-22 00:52:45.000817	156.5	58.4	-81.1	12.1
2026-01-22 00:52:46.136901	157.1	58.1	-81.1	12.2
2026-01-22 00:52:47.274337	157.7	57.7	-81.2	12.2
2026-01-22 00:52:48.410278	158.3	57.3	-81.1	12.1
2026-01-22 00:52:49.548947	158.8	57.0	-80.9	12.3
2026-01-22 00:52:50.688057	159.4	56.6	-81.1	12.2
2026-01-22 00:52:51.826148	159.9	56.3	-80.9	11.9
2026-01-22 00:52:52.960566	160.4	55.9	-80.9	12.3
2026-01-22 00:52:54.098703	160.9	55.5	-81.0	12.2
2026-01-22 00:52:55.238743	161.4	55.2	-80.8	11.4
2026-01-22 00:52:56.379696	161.9	54.8	-80.7	12.0
2026-01-22 00:52:57.515240	162.3	54.4	-81.0	12.7
2026-01-22 00:52:58.652832	162.8	54.1	-81.0	12.6
2026-01-22 00:52:59.790921	163.2	53.7	-80.8	12.4
2026-01-22 00:53:00.929031	163.6	53.4	-81.0	12.1
2026-01-22 00:53:02.067821	164.1	53.0	-81.1	12.6
2026-01-22 00:53:03.204966	164.5	52.6	-81.3	12.2
2026-01-22 00:53:04.345407	164.9	52.3	-81.2	12.9
2026-01-22 00:53:05.482191	165.3	51.9	-81.3	11.6
2026-01-22 00:53:06.621543	165.6	51.6	-81.3	12.3
2026-01-22 00:53:07.758843	166.0	51.2	-81.0	12.3
2026-01-22 00:53:08.890311	166.4	50.9	-81.2	11.8
2026-01-22 00:53:10.019091	166.7	50.5	-81.3	12.1
2026-01-22 00:53:11.147569	167.1	50.2	-81.5	11.9
2026-01-22 00:53:12.278281	167.4	49.8	-81.5	12.4
2026-01-22 00:53:13.407403	167.7	49.5	-81.7	12.0
2026-01-22 00:53:14.536380	168.1	49.2	-81.7	12.2
2026-01-22 00:53:15.666002	168.4	48.8	-81.5	11.6
2026-01-22 00:53:16.794213	168.7	48.5	-81.4	11.9
2026-01-22 00:53:17.921893	169.0	48.2	-81.6	11.9
2026-01-22 00:53:19.053133	169.3	47.8	-81.5	12.4
2026-01-22 00:53:20.182584	169.6	47.5	-81.6	12.7
2026-01-22 00:53:21.311958	169.9	47.2	-81.3	12.9
2026-01-22 00:53:22.443085	170.1	46.8	-81.0	13.0
2026-01-22 00:53:23.571119	170.4	46.5	-80.9	13.1
2026-01-22 00:53:24.700381	170.7	46.2	-80.6	13.6
2026-01-22 00:53:25.828706	170.9	45.9	-80.7	13.4
2026-01-22 00:53:26.956652	171.2	45.5	-80.9	13.4
2026-01-22 00:53:28.084476	171.5	45.2	-80.6	13.5
2026-01-22 00:53:29.214392	171.7	44.9	-81.0	13.4
2026-01-22 00:53:30.341741	171.9	44.6	-80.7	13.4
2026-01-22 00:53:31.470211	172.2	44.3	-80.7	13.9
2026-01-22 00:53:32.607616	172.4	44.0	-80.8	13.8
2026-01-22 00:53:33.745422	172.6	43.7	-80.3	13.7
2026-01-22 00:53:34.882802	172.9	43.4	-80.4	14.0
2026-01-22 00:53:36.020726	173.1	43.0	-80.2	14.4
2026-01-22 00:53:37.156168	173.3	42.7	-80.0	14.1
2026-01-22 00:53:38.294771	173.5	42.4	-80.0	13.7
2026-01-22 00:53:39.430845	173.7	42.1	-79.7	14.3
2026-01-22 00:53:40.567047	173.9	41.8	-79.8	14.0
2026-01-22 00:53:41.705111	174.1	41.5	-79.9	13.5
2026-01-22 00:53:42.841194	174.3	41.2	-79.5	14.0
2026-01-22 00:53:43.975231	174.5	41.0	-79.8	14.1
2026-01-22 00:53:45.110687	174.7	40.7	-79.8	14.2
2026-01-22 00:53:46.248383	174.9	40.4	-79.7	13.6
2026-01-22 00:53:47.385210	175.1	40.1	-79.4	13.5
2026-01-22 00:53:48.522579	175.3	39.8	-79.8	13.4
2026-01-22 00:53:49.658883	175.5	39.5	-79.8	13.0
2026-01-22 00:53:50.793561	175.6	39.2	-79.9	13.7
2026-01-22 00:53:51.924298	175.8	39.0	-79.4	13.2
2026-01-22 00:53:53.057687	176.0	38.7	-79.3	12.8
2026-01-22 00:53:54.191404	176.1	38.4	-79.6	13.7
2026-01-22 00:53:55.325500	176.3	38.1	-79.0	13.2
2026-01-22 00:53:56.457739	176.5	37.9	-79.0	14.5
2026-01-22 00:53:57.588851	176.6	37.6	-79.0	14.0
2026-01-22 00:53:58.720930	176.8	37.3	-78.9	14.6
2026-01-22 00:53:59.853702	176.9	37.1	-79.1	14.1
2026-01-22 00:54:00.989578	177.1	36.8	-78.9	13.7
2026-01-22 00:54:02.121200	177.2	36.6	-78.7	14.2
2026-01-22 00:54:03.252754	177.4	36.3	-78.7	13.6
2026-01-22 00:54:04.389086	177.5	36.0	-78.3	14.6
2026-01-22 00:54:05.520347	177.7	35.8	-78.9	13.5
2026-01-22 00:54:06.653745	177.8	35.5	-79.0	12.9
2026-01-22 00:54:07.790341	177.9	35.3	-79.0	12.5
2026-01-22 00:54:08.923784	178.1	35.0	-78.8	13.6
2026-01-22 00:54:10.058073	178.2	34.8	-79.0	14.4
2026-01-22 00:54:11.191728	178.3	34.5	-78.9	13.3
2026-01-22 00:54:12.324957	178.5	34.3	-78.6	12.8
2026-01-22 00:54:13.460108	178.6	34.0	-78.8	12.4
2026-01-22 00:54:14.599027	178.7	33.8	-78.6	14.4
2026-01-22 00:54:15.733913	178.9	33.6	-78.8	14.4
2026-01-22 00:54:16.873427	179.0	33.3	-78.6	11.4
2026-01-22 00:54:18.013165	179.1	33.1	-78.4	13.4
2026-01-22 00:54:19.148645	179.2	32.9	-78.6	11.9
2026-01-22 00:54:20.284144	179.3	32.6	-78.6	14.5
2026-01-22 00:54:21.423803	179.5	32.4	-78.6	12.6
2026-01-22 00:54:22.563109	179.6	32.2	-78.5	14.2
2026-01-22 00:54:23.700058	179.7	31.9	-78.3	13.3
2026-01-22 00:54:24.839804	179.8	31.7	-78.5	14.0
2026-01-22 00:54:25.980521	179.9	31.5	-78.5	12.3
2026-01-22 00:54:27.116106	180.0	31.3	-78.5	13.5
2026-01-22 00:54:28.253779	180.1	31.0	-78.8	11.7
2026-01-22 00:54:29.390433	180.2	30.8	-78.8	14.1
2026-01-22 00:54:30.529313	180.3	30.6	-78.4	13.3
2026-01-22 00:54:31.667219	180.4	30.4	-78.9	11.4
2026-01-22 00:54:32.806576	180.5	30.2	-78.7	12.2
2026-01-22 00:54:33.944820	180.6	30.0	-79.0	11.2
2026-01-22 00:54:35.083799	180.7	29.7	-78.5	12.6
2026-01-22 00:54:36.222122	180.8	29.5	-78.5	13.8
2026-01-22 00:54:37.359185	180.9	29.3	-78.7	12.5
2026-01-22 00:54:38.500222	181.0	29.1	-78.5	12.6
2026-01-22 00:54:39.636837	181.1	28.9	-78.4	12.1
2026-01-22 00:54:40.774237	181.2	28.7	-78.6	12.3
2026-01-22 00:54:41.913106	181.3	28.5	-78.5	11.2
2026-01-22 00:54:43.048043	181.4	28.3	-78.4	13.2
2026-01-22 00:54:44.188630	181.5	28.1	-78.1	9.8
2026-01-22 00:54:45.327239	181.6	27.9	-78.6	12.5
2026-01-22 00:54:46.465943	181.7	27.7	-78.6	12.9
2026-01-22 00:54:47.607394	181.8	27.5	-78.5	11.3
2026-01-22 00:54:48.747474	181.8	27.3	-78.7	10.7
2026-01-22 00:54:49.886840	181.9	27.1	-78.3	12.7
2026-01-22 00:54:51.025124	182.0	26.9	-78.7	11.2
2026-01-22 00:54:52.165606	182.1	26.7	-78.5	11.3
2026-01-22 00:54:53.303842	182.2	26.5	-78.5	11.5
2026-01-22 00:54:54.445554	182.3	26.4	-78.7	11.4
2026-01-22 00:54:55.581664	182.3	26.2	-78.4	12.9
2026-01-22 00:54:56.714461	182.4	26.0	-78.6	13.6
2026-01-22 00:54:57.848816	182.5	25.8	-78.3	13.7
2026-01-22 00:54:58.982841	182.6	25.6	-78.5	11.5
2026-01-22 00:55:00.115959	182.7	25.4	-78.3	11.9
2026-01-22 00:55:01.250648	182.7	25.2	-78.6	12.9
2026-01-22 00:55:02.383805	182.8	25.1	-78.5	11.5
2026-01-22 00:55:03.518804	182.9	24.9	-78.9	10.1
2026-01-22 00:55:04.651628	183.0	24.7	-78.7	13.7
2026-01-22 00:55:05.785531	183.0	24.5	-78.5	12.1
2026-01-22 00:55:06.920411	183.1	24.4	-78.6	10.9
2026-01-22 00:55:08.055421	183.2	24.2	-79.0	12.5
2026-01-22 00:55:09.189034	183.2	24.0	-78.6	10.4
2026-01-22 00:55:10.322704	183.3	23.8	-78.8	11.0
2026-01-22 00:55:11.458152	183.4	23.7	-78.8	13.2
2026-01-22 00:55:12.592810	183.5	23.5	-78.7	11.9
2026-01-22 00:55:13.728882	183.5	23.3	-78.7	11.7
2026-01-22 00:55:14.863040	183.6	23.2	-78.5	12.4
2026-01-22 00:55:15.996914	183.7	23.0	-78.8	12.5
2026-01-22 00:55:17.129390	183.7	22.8	-78.9	10.3
2026-01-22 00:55:18.265440	183.8	22.7	-79.4	10.5
2026-01-22 00:55:19.397913	183.8	22.5	-79.0	10.3
2026-01-22 00:55:20.529727	183.9	22.3	-79.1	12.7
2026-01-22 00:55:21.660876	184.0	22.2	-78.7	12.1
2026-01-22 00:55:22.791478	184.0	22.0	-79.0	13.4
2026-01-22 00:55:23.922535	184.1	21.9	-78.7	11.5
2026-01-22 00:55:25.054348	184.2	21.7	-78.6	13.2
2026-01-22 00:55:26.181940	184.2	21.6	-78.9	10.3
2026-01-22 00:55:27.314231	184.3	21.4	-78.4	10.5
2026-01-22 00:55:28.447186	184.3	21.2	-79.3	13.0
2026-01-22 00:55:29.581419	184.4	21.1	-79.1	12.2
2026-01-22 00:55:30.713569	184.5	20.9	-79.3	12.5
2026-01-22 00:55:31.841947	184.5	20.8	-79.4	12.6
2026-01-22 00:55:32.971360	184.6	20.6	-78.7	12.7
2026-01-22 00:55:34.100562	184.6	20.5	-79.0	13.0
2026-01-22 00:55:35.231423	184.7	20.3	-79.0	13.2
2026-01-22 00:55:36.364664	184.7	20.2	-79.1	12.2
2026-01-22 00:55:37.494625	184.8	20.0	-78.7	11.3
2026-01-22 00:55:38.625905	184.8	19.9	-79.1	12.2
2026-01-22 00:55:39.757561	184.9	19.7	-79.0	11.3
2026-01-22 00:55:40.891792	185.0	19.6	-79.1	12.5
2026-01-22 00:55:42.028667	185.0	19.4	-79.0	11.1
2026-01-22 00:55:43.161996	185.1	19.3	-78.8	12.3
2026-01-22 00:55:44.298091	185.1	19.2	-78.9	12.4
2026-01-22 00:55:45.433939	185.2	19.0	-79.3	12.3
2026-01-22 00:55:46.568542	185.2	18.9	-79.2	12.4
2026-01-22 00:55:47.703448	185.3	18.7	-79.0	11.3
2026-01-22 00:55:48.837998	185.3	18.6	-79.4	12.3
2026-01-22 00:55:49.974055	185.4	18.5	-79.4	12.4
2026-01-22 00:55:51.106346	185.4	18.3	-79.3	12.7
2026-01-22 00:55:52.242650	185.5	18.2	-79.3	10.5
2026-01-22 00:55:53.378932	185.5	18.0	-79.6	10.2
2026-01-22 00:55:54.516518	185.6	17.9	-79.7	12.3
2026-01-22 00:55:55.651050	185.6	17.8	-79.4	10.9
2026-01-22 00:55:56.784381	185.7	17.6	-79.4	11.3
2026-01-22 00:55:57.919387	185.7	17.5	-79.3	11.2
2026-01-22 00:55:59.054803	185.8	17.4	-79.3	11.4
2026-01-22 00:56:00.189468	185.8	17.2	-79.6	12.1
2026-01-22 00:56:01.323546	185.8	17.1	-79.7	11.0
2026-01-22 00:56:02.459860	185.9	17.0	-79.4	12.2
2026-01-22 00:56:03.595686	185.9	16.8	-79.7	11.6
2026-01-22 00:56:04.731444	186.0	16.7	-79.7	11.7
2026-01-22 00:56:05.865692	186.0	16.6	-79.3	11.5
2026-01-22 00:56:06.997921	186.1	16.5	-79.8	10.7
2026-01-22 00:56:08.133006	186.1	16.3	-79.3	10.6
2026-01-22 00:56:09.268709	186.2	16.2	-79.6	10.9
2026-01-22 00:56:10.404086	186.2	16.1	-79.4	11.8
2026-01-22 00:56:11.535106	186.2	15.9	-79.5	11.1
2026-01-22 00:56:12.667889	186.3	15.8	-79.4	11.0
2026-01-22 00:56:13.801290	186.3	15.7	-79.4	11.2
2026-01-22 00:56:14.934410	186.4	15.6	-79.3	10.9
2026-01-22 00:56:16.068099	186.4	15.4	-79.4	11.7
2026-01-22 00:56:17.200041	186.5	15.3	-79.4	11.9
2026-01-22 00:56:18.334720	186.5	15.2	-79.5	10.7
2026-01-22 00:56:19.469694	186.5	15.1	-79.4	10.5
2026-01-22 00:56:20.601834	186.6	15.0	-79.4	8.7
2026-01-22 00:56:21.735673	186.6	14.8	-79.7	10.8
2026-01-22 00:56:22.866933	186.7	14.7	-79.6	11.5
2026-01-22 00:56:23.994667	186.7	14.6	-79.7	11.2
2026-01-22 00:56:25.124098	186.7	14.5	-79.4	11.9
2026-01-22 00:56:26.254684	186.8	14.4	-79.2	9.9
2026-01-22 00:56:27.382580	186.8	14.2	-79.3	11.3
2026-01-22 00:56:28.510898	186.9	14.1	-79.4	10.6
2026-01-22 00:56:29.640683	186.9	14.0	-79.9	11.0
2026-01-22 00:56:30.769942	186.9	13.9	-79.6	10.8
2026-01-22 00:56:31.899910	187.0	13.8	-79.7	10.4
2026-01-22 00:56:33.029954	187.0	13.7	-79.5	12.1
2026-01-22 00:56:34.161052	187.0	13.6	-79.5	11.1
2026-01-22 00:56:35.288336	187.1	13.4	-79.7	9.7
2026-01-22 00:56:36.418049	187.1	13.3	-79.7	10.2
2026-01-22 00:56:37.547003	187.2	13.2	-80.0	8.8
2026-01-22 00:56:38.677990	187.2	13.1	-79.5	10.1
2026-01-22 00:56:39.807091	187.2	13.0	-79.8	10.3
2026-01-22 00:56:40.937470	187.3	12.9	-80.0	9.7
2026-01-22 00:56:42.072239	187.3	12.8	-79.8	10.8
2026-01-22 00:56:43.209612	187.3	12.7	-79.7	10.0
2026-01-22 00:56:44.349862	187.4	12.6	-79.8	9.3
2026-01-22 00:56:45.489309	187.4	12.4	-79.9	7.9
2026-01-22 00:56:46.625078	187.4	12.3	-79.3	8.9
2026-01-22 00:56:47.762902	187.5	12.2	-79.4	8.5
2026-01-22 00:56:48.899771	187.5	12.1	-79.1	9.7
2026-01-22 00:56:50.036012	187.5	12.0	-79.3	6.3
2026-01-22 00:56:51.175132	187.6	11.9	-79.8	8.3
2026-01-22 00:56:52.313168	187.6	11.8	-79.8	7.2
2026-01-22 00:56:53.451298	187.6	11.7	-79.8	10.0
2026-01-22 00:56:54.588209	187.7	11.6	-79.9	9.9
2026-01-22 00:56:55.727593	187.7	11.5	-79.7	8.5
2026-01-22 00:56:56.864397	187.7	11.4	-79.7	10.1
2026-01-22 00:56:58.001038	187.8	11.3	-80.3	3.8
2026-01-22 00:56:59.136091	187.8	11.2	-79.9	10.1
2026-01-22 00:57:00.279068	187.8	11.1	-80.0	7.3
2026-01-22 00:57:01.417093	187.9	11.0	-79.8	9.6
2026-01-22 00:57:02.556235	187.9	10.9	-79.6	10.9
2026-01-22 00:57:03.696210	187.9	10.8	-80.5	3.8
2026-01-22 00:57:04.833670	188.0	10.7	-83.6	0.0
2026-01-22 00:57:05.969521	188.0	10.6	-83.0	0.0
2026-01-22 00:57:07.109268	188.0	10.5	-84.9	0.0
2026-01-22 00:57:08.246070	188.0	10.4	-84.4	2.3
2026-01-22 00:57:09.383793	188.1	10.3	-85.6	2.2
2026-01-22 00:57:10.522841	188.1	10.2	-86.0	0.0
2026-01-22 00:57:11.658574	188.1	10.1	-86.4	0.0
#Closed at: 2026-01-22 00:46:24.712039