passes_logs/2026/01/05/R4.6S_Anadyr/R4.6S_Anadyr__20260105_022800_SUOMI_NPP_rec.log

#Pass ID: 20260105_022800_SUOMI NPP
#Satellite: SUOMI NPP
#Configuration: NPP
#almurnet v.1.7.20251203
#Start time: 2026-01-05 02:30:56

#Version: 2.2.20231116
#Station: R4.6S_Anadyr
#Location: 177.4865 lon 64.73178 lat
#TLE: 1 37849U 11061A   26001.07732418  .00000182  00000+0  10735-3 0  9990
#TLE: 2 37849  98.7795 303.2470 0002580  87.2016 272.9455 14.19520779734739

#Time	Az	El	Level	Level2	SNR	BER	BlckErr	Temp	State	Recorded	gain1	gain2
2026-01-05 02:30:56.85	229.76	9.91	-49.0	-66.8	3.5	3.02e+01	0	28	0	0	60	84021
2026-01-05 02:30:57.85	229.89	9.97	-49.1	-64.3	3.6	1.51e+00	0	29	104	0	60	59353
2026-01-05 02:30:58.86	230.02	10.03	-49.4	-64.6	3.6	1.51e+00	0	29	104	0	60	61689
2026-01-05 02:30:59.87	230.15	10.09	-49.1	-64.3	3.6	1.51e+00	0	29	104	0	60	58961
2026-01-05 02:31:00.88	230.29	10.15	-48.7	-64.1	3.6	1.51e+00	0	29	104	0	60	57812
2026-01-05 02:31:01.89	230.42	10.21	-49.1	-64.4	3.6	1.51e+00	0	29	104	0	60	59769
2026-01-05 02:31:02.90	230.55	10.27	-49.2	-64.5	3.6	1.51e+00	0	29	104	0	60	60598
2026-01-05 02:31:03.91	230.69	10.33	-49.3	-64.5	3.6	1.51e+00	0	29	104	0	60	60922
2026-01-05 02:31:04.92	230.82	10.39	-48.7	-64.0	3.6	1.51e+00	0	29	104	0	60	57321
2026-01-05 02:31:05.93	230.96	10.45	-48.6	-64.0	3.6	1.51e+00	0	29	104	0	60	57332
2026-01-05 02:31:06.94	231.09	10.52	-48.5	-63.9	3.6	1.51e+00	0	29	104	0	60	56746
2026-01-05 02:31:07.95	231.23	10.58	-48.4	-63.9	3.6	1.51e+00	0	29	104	0	60	56519
2026-01-05 02:31:08.96	231.37	10.64	-48.6	-63.8	3.6	1.51e+00	0	29	104	0	60	56140
2026-01-05 02:31:09.97	231.50	10.70	-48.7	-63.9	3.6	1.51e+00	0	29	104	0	60	56312
2026-01-05 02:31:10.98	231.64	10.76	-48.7	-63.8	3.6	1.51e+00	0	29	104	0	60	56138
2026-01-05 02:31:11.99	231.78	10.82	-48.6	-63.8	3.6	1.51e+00	0	29	104	0	60	55855
2026-01-05 02:31:12.99	231.92	10.88	-48.5	-63.7	3.6	1.51e+00	0	29	104	0	60	55045
2026-01-05 02:31:14.01	232.06	10.94	-48.4	-63.4	3.6	1.51e+00	0	29	104	0	60	53621
2026-01-05 02:31:15.01	232.20	11.00	-48.3	-63.5	3.6	1.51e+00	0	29	104	0	60	53798
2026-01-05 02:31:16.03	232.34	11.06	-48.2	-63.4	3.6	1.51e+00	0	29	104	0	60	53539
2026-01-05 02:31:17.03	232.48	11.12	-48.2	-63.3	3.6	1.51e+00	0	29	104	0	60	52916
2026-01-05 02:31:18.04	232.62	11.19	-48.3	-63.4	3.6	1.51e+00	0	29	104	0	60	53545
2026-01-05 02:31:19.05	232.76	11.25	-48.2	-63.4	3.5	1.51e+00	0	29	104	0	60	53209
2026-01-05 02:31:20.06	232.91	11.31	-48.2	-63.3	3.6	1.51e+00	0	29	104	0	60	52981
2026-01-05 02:31:21.07	233.05	11.37	-48.2	-63.3	3.6	1.51e+00	0	29	104	0	60	52839
2026-01-05 02:31:22.08	233.19	11.43	-48.2	-63.2	3.6	1.51e+00	0	29	104	0	60	52456
2026-01-05 02:31:23.09	233.34	11.49	-48.2	-63.1	3.6	1.51e+00	0	29	104	0	60	51904
2026-01-05 02:31:24.10	233.48	11.55	-48.2	-63.2	3.6	1.51e+00	0	29	104	0	60	52548
2026-01-05 02:31:25.11	233.63	11.61	-48.2	-63.4	3.6	1.51e+00	0	29	104	0	60	53217
2026-01-05 02:31:26.12	233.78	11.67	-48.3	-63.5	3.6	1.51e+00	0	29	104	0	60	53967
2026-01-05 02:31:27.13	233.92	11.73	-48.3	-63.5	3.6	1.51e+00	0	29	104	0	60	53850
2026-01-05 02:31:28.14	234.07	11.80	-48.3	-63.5	3.6	1.51e+00	0	29	104	0	60	53818
2026-01-05 02:31:29.15	234.22	11.86	-48.5	-63.7	3.6	1.51e+00	0	29	104	0	60	55028
2026-01-05 02:31:30.16	234.37	11.92	-48.5	-63.6	3.6	1.51e+00	0	29	104	0	60	54696
2026-01-05 02:31:31.17	234.52	11.98	-48.6	-63.7	3.6	1.51e+00	0	29	104	0	60	55392
2026-01-05 02:31:32.18	234.67	12.04	-48.5	-63.7	3.6	1.51e+00	0	29	104	0	60	55319
2026-01-05 02:31:33.19	234.82	12.10	-48.5	-63.7	3.6	1.51e+00	0	29	104	0	60	55447
2026-01-05 02:31:34.19	234.97	12.16	-48.3	-63.4	3.6	1.51e+00	0	29	104	0	60	53545
2026-01-05 02:31:35.20	235.12	12.22	-48.3	-63.3	3.6	1.51e+00	0	29	104	0	60	53046
2026-01-05 02:31:36.21	235.27	12.28	-48.4	-63.5	3.6	1.51e+00	0	29	104	0	60	53854
2026-01-05 02:31:37.22	235.43	12.34	-48.3	-63.5	3.6	1.51e+00	0	28	104	0	60	53882
2026-01-05 02:31:38.23	235.58	12.40	-48.4	-63.4	3.6	1.51e+00	0	28	104	0	60	53770
2026-01-05 02:31:39.24	235.74	12.46	-48.3	-63.5	3.6	1.51e+00	0	29	104	0	60	54133
2026-01-05 02:31:40.25	235.89	12.52	-48.4	-63.6	3.6	1.51e+00	0	29	104	0	60	54476
2026-01-05 02:31:41.26	236.05	12.58	-48.5	-63.6	3.6	1.51e+00	0	29	104	0	60	54559
2026-01-05 02:31:42.27	236.20	12.64	-48.3	-63.4	3.6	1.51e+00	0	29	104	0	60	53699
2026-01-05 02:31:43.28	236.36	12.71	-48.3	-63.3	3.6	1.51e+00	0	29	104	0	60	52656
2026-01-05 02:31:44.29	236.52	12.77	-48.3	-63.3	3.6	1.51e+00	0	29	104	0	60	52784
2026-01-05 02:31:45.30	236.67	12.83	-48.3	-63.1	3.6	1.51e+00	0	28	104	0	60	51909
2026-01-05 02:31:46.31	236.83	12.89	-48.3	-62.5	3.6	1.51e+00	0	29	104	0	60	48365
2026-01-05 02:31:47.32	236.99	12.95	-48.2	-62.5	3.6	1.51e+00	0	29	104	0	60	48279
2026-01-05 02:31:48.33	237.15	13.01	-48.2	-62.9	3.6	1.51e+00	0	28	104	0	60	50627
2026-01-05 02:31:49.34	237.31	13.07	-48.1	-60.4	4.0	1.50e+00	0	29	104	0	60	38016
2026-01-05 02:31:50.35	237.47	13.13	-48.0	-57.7	4.3	8.42e-01	91	29	0	0	60	27619
2026-01-05 02:31:51.36	237.64	13.19	-47.8	-56.5	4.9	1.32e+00	1	29	0	2097152	60	24024
2026-01-05 02:31:52.37	237.80	13.25	-45.5	-49.0	13.3	4.04e-02	92	29	0	3145728	60	10154
2026-01-05 02:31:53.38	237.96	13.31	-42.5	-44.3	17.8	0.00e+00	0	29	0	5242880	60	5957
2026-01-05 02:31:54.39	238.13	13.37	-41.3	-42.8	20.0	0.00e+00	92	28	0	7340032	56	6246
2026-01-05 02:31:55.40	238.29	13.43	-39.1	-40.2	21.8	0.00e+00	0	28	0	9437184	52	5853
2026-01-05 02:31:56.41	238.46	13.49	-40.8	-42.2	19.7	0.00e+00	92	29	0	11534336	56	5835
2026-01-05 02:31:57.42	238.62	13.55	-40.2	-41.5	21.0	2.28e-05	92	29	0	12582912	56	5382
2026-01-05 02:31:58.43	238.79	13.61	-45.6	-49.3	12.6	0.00e+00	0	29	0	14680064	60	10494
2026-01-05 02:31:59.44	238.95	13.67	-43.5	-45.6	17.6	1.13e+00	92	28	104	15728640	60	6860
2026-01-05 02:32:00.45	239.12	13.73	-42.1	-43.7	18.6	0.00e+00	0	28	0	15728640	58	6208
2026-01-05 02:32:01.46	239.29	13.78	-41.3	-42.7	19.3	0.00e+00	92	29	0	17825792	56	6226
2026-01-05 02:32:02.47	239.46	13.84	-41.4	-42.8	19.3	0.00e+00	0	28	0	19922944	56	6275
2026-01-05 02:32:03.48	239.63	13.90	-40.9	-42.3	19.6	0.00e+00	92	28	0	22020096	56	5921
2026-01-05 02:32:04.49	239.80	13.96	-41.0	-42.4	20.0	0.00e+00	92	28	0	24117248	54	6729
2026-01-05 02:32:05.50	239.97	14.02	-40.9	-42.2	20.0	0.00e+00	92	28	0	25165824	54	6615
2026-01-05 02:32:06.51	240.14	14.08	-41.1	-42.5	19.8	0.00e+00	92	28	0	27262976	54	6830
2026-01-05 02:32:07.51	240.31	14.14	-40.6	-41.8	20.4	0.00e+00	0	28	0	29360128	54	6301
2026-01-05 02:32:08.52	240.49	14.20	-39.8	-41.0	20.8	0.00e+00	92	29	0	31457280	54	5711
2026-01-05 02:32:09.53	240.66	14.26	-39.8	-40.9	20.9	0.00e+00	0	28	0	33554432	52	6386
2026-01-05 02:32:10.54	240.83	14.31	-39.6	-40.7	21.5	0.00e+00	92	28	0	35651584	52	6194
2026-01-05 02:32:11.55	241.01	14.37	-39.3	-40.4	21.1	0.00e+00	0	28	0	36700160	52	6019
2026-01-05 02:32:12.56	241.18	14.43	-39.4	-40.4	21.3	0.00e+00	92	28	0	38797312	52	6031
2026-01-05 02:32:13.57	241.36	14.49	-39.4	-40.5	21.6	0.00e+00	92	28	0	40894464	52	6053
2026-01-05 02:32:14.58	241.54	14.55	-39.5	-40.6	21.3	0.00e+00	0	28	0	42991616	52	6150
2026-01-05 02:32:15.59	241.72	14.61	-39.8	-41.0	21.2	0.00e+00	90	28	0	45088768	52	6417
2026-01-05 02:32:16.60	241.89	14.66	-39.1	-40.1	21.8	0.00e+00	0	28	0	46137344	52	5827
2026-01-05 02:32:17.61	242.07	14.72	-39.2	-40.3	21.9	0.00e+00	91	29	0	48234496	52	5932
2026-01-05 02:32:18.62	242.25	14.78	-38.4	-39.4	22.4	0.00e+00	65	28	0	50331648	50	5983
2026-01-05 02:32:19.63	242.43	14.84	-38.1	-39.1	22.6	0.00e+00	76	28	0	52428800	50	5792
2026-01-05 02:32:20.64	242.61	14.89	-37.9	-38.9	22.8	0.00e+00	92	28	0	54525952	50	5653
2026-01-05 02:32:21.65	242.79	14.95	-37.7	-38.7	23.0	0.00e+00	0	28	0	55574528	48	6196
2026-01-05 02:32:22.66	242.98	15.01	-37.5	-38.4	23.2	0.00e+00	69	28	0	57671680	48	6016
2026-01-05 02:32:23.67	243.16	15.06	-37.5	-38.4	23.2	0.00e+00	0	28	0	59768832	48	6004
2026-01-05 02:32:24.68	243.34	15.12	-37.6	-38.5	23.3	0.00e+00	90	28	0	61865984	48	6047
2026-01-05 02:32:25.69	243.53	15.18	-37.7	-38.6	23.2	0.00e+00	0	28	0	63963136	48	6128
2026-01-05 02:32:26.70	243.71	15.23	-37.6	-38.5	23.2	0.00e+00	90	28	0	65011712	48	6084
2026-01-05 02:32:27.71	243.90	15.29	-37.6	-38.6	23.2	0.00e+00	92	28	0	67108864	48	6116
2026-01-05 02:32:28.72	244.09	15.35	-37.4	-38.4	23.1	0.00e+00	0	28	0	69206016	48	5971
2026-01-05 02:32:29.73	244.27	15.40	-37.4	-38.4	23.3	0.00e+00	73	28	0	71303168	48	5971
2026-01-05 02:32:30.74	244.46	15.46	-37.4	-38.3	23.3	0.00e+00	0	28	0	73400320	48	5924
2026-01-05 02:32:31.74	244.65	15.51	-37.6	-38.5	23.2	0.00e+00	92	28	0	74448896	48	6094
2026-01-05 02:32:32.75	244.84	15.57	-37.7	-38.6	23.2	0.00e+00	0	28	0	76546048	48	6121
2026-01-05 02:32:33.76	245.03	15.63	-37.6	-38.5	23.3	0.00e+00	92	28	0	78643200	48	6050
2026-01-05 02:32:34.78	245.22	15.68	-37.4	-38.4	23.2	0.00e+00	81	28	0	80740352	48	5973
2026-01-05 02:32:35.78	245.41	15.74	-37.5	-38.5	23.2	0.00e+00	0	28	0	82837504	48	6035
2026-01-05 02:32:36.79	245.60	15.79	-37.7	-38.6	23.0	0.00e+00	74	28	0	83886080	48	6152
2026-01-05 02:32:37.80	245.79	15.85	-37.6	-38.5	23.1	0.00e+00	0	28	0	85983232	48	6066
2026-01-05 02:32:38.81	245.99	15.90	-37.4	-38.3	23.2	0.00e+00	82	28	0	88080384	48	5950
2026-01-05 02:32:39.82	246.18	15.96	-37.5	-38.5	23.2	0.00e+00	0	28	0	90177536	48	6041
2026-01-05 02:32:40.83	246.37	16.01	-37.3	-38.2	23.4	0.00e+00	92	28	0	92274688	48	5871
2026-01-05 02:32:41.84	246.57	16.06	-37.4	-38.3	23.3	0.00e+00	92	28	0	93323264	48	5942
2026-01-05 02:32:42.85	246.76	16.12	-37.5	-38.4	23.3	0.00e+00	0	28	0	95420416	48	5985
2026-01-05 02:32:43.86	246.96	16.17	-37.5	-38.4	23.3	0.00e+00	92	28	0	97517568	48	6013
2026-01-05 02:32:44.87	247.16	16.22	-37.9	-38.8	22.8	0.00e+00	0	28	0	99614720	48	6288
2026-01-05 02:32:45.88	247.36	16.28	-38.0	-39.0	22.8	0.00e+00	88	28	0	101711872	48	6407
2026-01-05 02:32:46.89	247.56	16.33	-38.0	-39.0	22.7	0.00e+00	0	28	0	103809024	48	6414
2026-01-05 02:32:47.89	247.75	16.38	-38.0	-39.0	22.7	0.00e+00	92	28	0	104857600	48	6434
2026-01-05 02:32:48.90	247.95	16.44	-38.2	-39.2	22.5	0.00e+00	74	28	0	106954752	48	6579
2026-01-05 02:32:49.91	248.15	16.49	-38.0	-39.0	22.7	0.00e+00	24	28	0	109051904	48	6426
2026-01-05 02:32:50.92	248.35	16.54	-38.1	-39.1	22.8	0.00e+00	92	28	0	111149056	48	6497
2026-01-05 02:32:51.93	248.56	16.59	-38.0	-39.0	22.8	0.00e+00	0	28	0	113246208	48	6404
2026-01-05 02:32:52.94	248.76	16.64	-38.2	-39.2	22.6	0.00e+00	78	28	0	114294784	48	6547
2026-01-05 02:32:53.94	248.96	16.69	-38.0	-38.9	22.8	0.00e+00	0	28	0	116391936	48	6364
2026-01-05 02:32:54.95	249.17	16.75	-38.3	-39.3	22.4	0.00e+00	92	28	0	118489088	48	6648
2026-01-05 02:32:55.96	249.37	16.80	-38.6	-39.6	22.1	0.00e+00	73	28	0	120586240	48	6901
2026-01-05 02:32:56.97	249.58	16.85	-38.9	-40.0	22.2	0.00e+00	91	28	0	122683392	50	6416
2026-01-05 02:32:57.98	249.78	16.90	-38.7	-39.7	22.2	0.00e+00	91	28	0	123731968	50	6211
2026-01-05 02:32:59.00	249.99	16.95	-39.0	-40.0	21.6	0.00e+00	0	28	0	125829120	50	6423
2026-01-05 02:33:00.01	250.20	17.00	-38.7	-39.8	22.1	0.00e+00	74	28	0	127926272	50	6257
2026-01-05 02:33:01.02	250.41	17.05	-38.8	-39.9	22.1	0.00e+00	0	28	0	130023424	50	6319
2026-01-05 02:33:02.03	250.61	17.10	-38.7	-39.7	22.1	0.00e+00	92	28	0	132120576	50	6214
2026-01-05 02:33:03.03	250.82	17.15	-38.7	-39.7	22.3	0.00e+00	0	28	0	133169152	50	6200
2026-01-05 02:33:04.04	251.03	17.20	-38.9	-40.0	21.9	0.00e+00	92	28	0	135266304	50	6396
2026-01-05 02:33:05.05	251.24	17.24	-38.9	-40.0	21.9	0.00e+00	92	28	0	137363456	50	6420
2026-01-05 02:33:06.06	251.45	17.29	-38.8	-39.9	22.1	0.00e+00	0	28	0	139460608	50	6322
2026-01-05 02:33:07.07	251.67	17.34	-39.1	-40.2	21.7	0.00e+00	41	28	0	141557760	50	6564
2026-01-05 02:33:08.08	251.88	17.39	-39.1	-40.2	21.8	0.00e+00	0	28	0	142606336	50	6562
2026-01-05 02:33:09.09	252.09	17.44	-39.4	-40.5	21.7	0.00e+00	67	28	0	144703488	50	6806
2026-01-05 02:33:10.10	252.31	17.48	-39.3	-40.4	21.7	0.00e+00	0	28	0	146800640	50	6693
2026-01-05 02:33:11.11	252.52	17.53	-39.4	-40.5	21.6	0.00e+00	92	28	0	148897792	50	6772
2026-01-05 02:33:12.12	252.74	17.58	-39.6	-40.7	21.5	0.00e+00	92	28	0	150994944	50	6937
2026-01-05 02:33:13.13	252.95	17.62	-39.6	-40.7	21.4	0.00e+00	0	28	0	152043520	52	6201
2026-01-05 02:33:14.15	253.17	17.67	-39.6	-40.8	21.3	0.00e+00	91	28	0	154140672	52	6247
2026-01-05 02:33:15.16	253.39	17.72	-39.6	-40.7	21.7	0.00e+00	0	28	0	156237824	52	6183
2026-01-05 02:33:16.17	253.61	17.76	-39.5	-40.6	21.6	0.00e+00	92	28	0	158334976	52	6121
2026-01-05 02:33:17.18	253.82	17.81	-39.5	-40.6	21.6	0.00e+00	0	28	0	160432128	52	6115
2026-01-05 02:33:18.19	254.04	17.85	-39.6	-40.7	21.2	0.00e+00	90	28	0	161480704	52	6217
2026-01-05 02:33:19.20	254.26	17.90	-40.1	-41.2	21.2	0.00e+00	71	28	0	163577856	52	6592
2026-01-05 02:33:20.21	254.48	17.94	-40.3	-41.5	20.9	0.00e+00	0	28	0	165675008	52	6814
2026-01-05 02:33:21.22	254.70	17.98	-39.9	-41.1	21.2	0.00e+00	92	28	0	167772160	52	6472
2026-01-05 02:33:22.22	254.92	18.03	-39.5	-40.6	21.6	0.00e+00	0	28	0	169869312	52	6127
2026-01-05 02:33:23.23	255.15	18.07	-39.1	-40.2	22.0	0.00e+00	92	28	0	171966464	52	5831
2026-01-05 02:33:24.24	255.37	18.11	-39.3	-40.4	21.9	0.00e+00	0	28	0	173015040	52	5976
2026-01-05 02:33:25.25	255.59	18.16	-38.7	-39.7	22.4	0.00e+00	92	28	0	175112192	50	6191
2026-01-05 02:33:26.26	255.82	18.20	-38.7	-39.7	22.3	0.00e+00	92	28	0	177209344	50	6232
2026-01-05 02:33:27.27	256.04	18.24	-39.0	-40.1	21.9	0.00e+00	8	28	0	179306496	50	6471
2026-01-05 02:33:28.28	256.27	18.28	-39.1	-40.2	21.9	0.00e+00	92	28	0	181403648	50	6563
2026-01-05 02:33:29.29	256.49	18.32	-39.1	-40.1	21.9	0.00e+00	0	28	0	182452224	50	6519
2026-01-05 02:33:30.30	256.72	18.36	-38.7	-39.7	22.0	0.00e+00	75	28	0	184549376	50	6243
2026-01-05 02:33:31.31	256.95	18.40	-38.7	-39.7	22.4	0.00e+00	0	28	0	186646528	50	6198
2026-01-05 02:33:32.32	257.17	18.44	-38.6	-39.6	22.3	0.00e+00	92	28	0	188743680	50	6140
2026-01-05 02:33:33.33	257.40	18.48	-38.5	-39.5	22.4	0.00e+00	75	28	0	190840832	50	6055
2026-01-05 02:33:34.34	257.63	18.52	-38.7	-39.8	22.4	0.00e+00	92	28	0	191889408	50	6251
2026-01-05 02:33:35.35	257.86	18.56	-39.0	-40.0	22.0	0.00e+00	92	28	0	193986560	50	6430
2026-01-05 02:33:36.36	258.09	18.60	-39.5	-40.6	21.4	0.00e+00	0	28	0	196083712	50	6902
2026-01-05 02:33:37.37	258.32	18.64	-39.9	-41.0	21.7	0.00e+00	75	28	0	198180864	52	6423
2026-01-05 02:33:38.38	258.55	18.67	-39.1	-40.2	21.5	0.00e+00	0	28	0	200278016	52	5854
2026-01-05 02:33:39.39	258.78	18.71	-38.7	-39.7	22.3	0.00e+00	91	28	0	201326592	52	5522
2026-01-05 02:33:40.40	259.02	18.75	-38.1	-39.1	22.8	0.00e+00	0	28	0	203423744	50	5778
2026-01-05 02:33:41.41	259.25	18.78	-37.5	-38.4	23.3	0.00e+00	92	28	0	205520896	48	5993
2026-01-05 02:33:42.42	259.48	18.82	-37.5	-38.4	23.3	0.00e+00	92	28	0	207618048	48	5985
2026-01-05 02:33:43.43	259.71	18.86	-37.7	-38.6	23.2	0.00e+00	0	28	0	209715200	48	6117
2026-01-05 02:33:44.44	259.95	18.89	-37.8	-38.7	23.1	0.00e+00	92	28	0	210763776	48	6187
2026-01-05 02:33:45.45	260.18	18.93	-38.1	-39.1	22.9	0.00e+00	0	28	0	212860928	48	6483
2026-01-05 02:33:46.46	260.42	18.96	-38.2	-39.1	22.9	0.00e+00	92	28	0	214958080	48	6509
2026-01-05 02:33:47.47	260.66	18.99	-37.9	-38.8	23.1	0.00e+00	0	28	0	217055232	48	6269
2026-01-05 02:33:48.48	260.89	19.03	-37.5	-38.3	23.3	0.00e+00	92	28	0	219152384	48	5958
2026-01-05 02:33:49.48	261.13	19.06	-37.6	-38.5	23.4	0.00e+00	59	28	0	220200960	48	6040
2026-01-05 02:33:50.49	261.36	19.09	-37.3	-38.2	23.4	0.00e+00	0	28	0	222298112	48	5846
2026-01-05 02:33:51.50	261.60	19.13	-37.3	-38.2	23.5	0.00e+00	92	28	0	224395264	48	5842
2026-01-05 02:33:52.51	261.84	19.16	-37.4	-38.3	23.5	0.00e+00	0	28	0	226492416	48	5909
2026-01-05 02:33:53.52	262.08	19.19	-37.3	-38.1	23.7	0.00e+00	92	28	0	228589568	48	5821
2026-01-05 02:33:54.53	262.32	19.22	-37.3	-38.2	23.6	0.00e+00	0	28	0	229638144	48	5845
2026-01-05 02:33:55.54	262.56	19.25	-36.8	-37.7	24.0	0.00e+00	92	28	0	231735296	48	5515
2026-01-05 02:33:56.55	262.80	19.28	-37.0	-37.8	23.8	0.00e+00	70	28	0	233832448	46	6312
2026-01-05 02:33:57.56	263.04	19.31	-36.8	-37.6	23.9	0.00e+00	0	28	0	235929600	46	6153
2026-01-05 02:33:58.57	263.28	19.34	-37.0	-37.8	23.8	0.00e+00	90	28	0	238026752	46	6312
2026-01-05 02:33:59.58	263.52	19.37	-37.2	-38.1	23.5	0.00e+00	0	28	0	240123904	46	6480
2026-01-05 02:34:00.59	263.76	19.40	-37.4	-38.3	23.3	0.00e+00	70	28	0	241172480	46	6628
2026-01-05 02:34:01.60	264.00	19.42	-37.2	-38.1	23.2	0.00e+00	0	28	0	243269632	46	6519
2026-01-05 02:34:02.61	264.25	19.45	-37.1	-38.0	23.5	0.00e+00	90	28	0	245366784	46	6451
2026-01-05 02:34:03.62	264.49	19.48	-37.2	-38.0	23.6	0.00e+00	4	28	0	247463936	46	6446
2026-01-05 02:34:04.63	264.73	19.50	-37.0	-37.9	23.6	0.00e+00	34	28	0	249561088	46	6346
2026-01-05 02:34:05.64	264.98	19.53	-37.3	-38.2	23.6	0.00e+00	92	28	0	250609664	46	6557
2026-01-05 02:34:06.65	265.22	19.55	-37.7	-38.6	23.1	0.00e+00	0	28	0	252706816	48	6139
2026-01-05 02:34:07.66	265.47	19.58	-38.0	-39.0	22.9	0.00e+00	92	28	0	254803968	48	6403
2026-01-05 02:34:08.67	265.71	19.60	-37.7	-38.6	23.3	0.00e+00	0	28	0	256901120	48	6156
2026-01-05 02:34:09.68	265.96	19.63	-37.9	-38.8	23.1	0.00e+00	92	28	0	258998272	48	6279
2026-01-05 02:34:10.69	266.20	19.65	-37.4	-38.3	23.5	0.00e+00	0	28	0	260046848	48	5942
2026-01-05 02:34:11.70	266.45	19.67	-37.1	-38.0	23.7	0.00e+00	67	28	0	262144000	48	5736
2026-01-05 02:34:12.71	266.70	19.70	-37.3	-38.2	23.5	0.00e+00	90	28	0	264241152	48	5846
2026-01-05 02:34:13.72	266.94	19.72	-37.5	-38.4	23.2	0.00e+00	0	28	0	266338304	48	6026
2026-01-05 02:34:14.73	267.19	19.74	-37.6	-38.5	23.3	0.00e+00	71	28	0	268435456	48	6090
2026-01-05 02:34:15.74	267.44	19.76	-37.4	-38.3	23.4	0.00e+00	0	28	0	269484032	48	5945
2026-01-05 02:34:16.75	267.69	19.78	-37.3	-38.2	23.5	0.00e+00	90	28	0	271581184	48	5840
2026-01-05 02:34:17.76	267.93	19.80	-37.1	-38.0	23.7	0.00e+00	17	28	0	273678336	48	5716
2026-01-05 02:34:18.77	268.18	19.82	-37.2	-38.1	23.5	0.00e+00	92	28	0	275775488	48	5780
2026-01-05 02:34:19.78	268.43	19.84	-37.2	-38.1	23.5	0.00e+00	92	28	0	277872640	48	5802
2026-01-05 02:34:20.79	268.68	19.86	-37.5	-38.4	23.3	0.00e+00	0	28	0	278921216	48	6019
2026-01-05 02:34:21.80	268.93	19.87	-38.0	-39.0	22.5	0.00e+00	92	28	0	281018368	48	6434
2026-01-05 02:34:22.81	269.18	19.89	-38.3	-39.2	22.7	0.00e+00	0	28	0	283115520	48	6615
2026-01-05 02:34:23.82	269.43	19.91	-38.0	-38.9	22.9	0.00e+00	90	28	0	285212672	48	6362
2026-01-05 02:34:24.83	269.68	19.92	-38.1	-39.1	22.7	0.00e+00	0	28	0	287309824	48	6467
2026-01-05 02:34:25.84	269.93	19.94	-38.1	-39.0	22.8	0.00e+00	90	28	0	288358400	48	6446
2026-01-05 02:34:26.85	270.18	19.95	-38.1	-39.1	22.8	0.00e+00	88	28	0	290455552	48	6487
2026-01-05 02:34:27.86	270.43	19.97	-38.4	-39.4	22.4	0.00e+00	0	28	0	292552704	48	6699
2026-01-05 02:34:28.87	270.68	19.98	-38.8	-39.8	22.2	0.00e+00	92	28	0	294649856	50	6284
2026-01-05 02:34:29.88	270.93	20.00	-38.7	-39.8	22.2	0.00e+00	0	28	0	296747008	50	6246
2026-01-05 02:34:30.89	271.19	20.01	-38.4	-39.4	22.5	0.00e+00	92	28	0	297795584	50	5988
2026-01-05 02:34:31.90	271.44	20.02	-38.2	-39.1	22.8	0.00e+00	0	28	0	299892736	50	5787
2026-01-05 02:34:32.91	271.69	20.03	-37.8	-38.7	23.0	0.00e+00	92	28	0	301989888	50	5554
2026-01-05 02:34:33.92	271.94	20.05	-37.8	-38.7	23.2	0.00e+00	90	28	0	304087040	50	5507
2026-01-05 02:34:34.92	272.19	20.06	-37.9	-38.8	23.2	0.00e+00	0	28	0	306184192	50	5583
2026-01-05 02:34:35.93	272.44	20.07	-37.8	-38.7	23.1	0.00e+00	90	28	0	308281344	48	6216
2026-01-05 02:34:36.94	272.70	20.08	-37.8	-38.7	23.3	0.00e+00	0	28	0	309329920	48	6210
2026-01-05 02:34:37.95	272.95	20.08	-37.9	-38.8	23.1	0.00e+00	91	28	0	311427072	48	6298
2026-01-05 02:34:38.96	273.20	20.09	-37.6	-38.5	23.4	0.00e+00	0	28	0	313524224	48	6083
2026-01-05 02:34:39.97	273.46	20.10	-37.6	-38.5	23.2	0.00e+00	92	28	0	315621376	48	6049
2026-01-05 02:34:40.98	273.71	20.11	-37.8	-38.7	23.1	0.00e+00	73	28	0	317718528	48	6188
2026-01-05 02:34:41.99	273.96	20.12	-37.4	-38.3	23.5	0.00e+00	0	28	0	318767104	48	5916
2026-01-05 02:34:43.00	274.22	20.12	-37.6	-38.5	23.1	0.00e+00	90	28	0	320864256	48	6100
2026-01-05 02:34:44.01	274.47	20.13	-38.1	-39.1	22.9	0.00e+00	0	28	0	322961408	48	6496
2026-01-05 02:34:45.02	274.72	20.13	-38.5	-39.5	22.5	0.00e+00	90	28	0	325058560	48	6806
2026-01-05 02:34:46.03	274.98	20.14	-38.8	-39.8	22.4	0.00e+00	0	28	0	327155712	50	6249
2026-01-05 02:34:47.04	275.23	20.14	-39.0	-40.0	22.1	0.00e+00	84	28	0	328204288	50	6457
2026-01-05 02:34:48.05	275.48	20.15	-38.7	-39.7	22.3	0.00e+00	40	28	0	330301440	50	6240
2026-01-05 02:34:49.06	275.74	20.15	-38.7	-39.7	22.4	0.00e+00	0	28	0	332398592	50	6214
2026-01-05 02:34:50.07	275.99	20.15	-38.6	-39.6	22.4	0.00e+00	92	28	0	334495744	50	6169
2026-01-05 02:34:51.09	276.25	20.15	-38.8	-39.8	22.3	0.00e+00	0	28	0	336592896	50	6268
2026-01-05 02:34:52.10	276.50	20.15	-38.7	-39.7	22.5	0.00e+00	41	28	0	337641472	50	6183
2026-01-05 02:34:53.11	276.76	20.16	-38.7	-39.7	22.4	0.00e+00	0	28	0	339738624	50	6214
2026-01-05 02:34:54.12	277.01	20.16	-38.4	-39.3	22.6	0.00e+00	92	28	0	341835776	50	5950
2026-01-05 02:34:55.13	277.26	20.16	-38.5	-39.4	22.5	0.00e+00	0	28	0	343932928	50	6004
2026-01-05 02:34:56.14	277.52	20.16	-38.9	-39.9	22.5	0.00e+00	92	28	0	346030080	50	6335
2026-01-05 02:34:57.15	277.77	20.15	-38.8	-39.8	22.3	0.00e+00	92	28	0	347078656	50	6256
2026-01-05 02:34:58.16	278.02	20.15	-38.8	-39.8	22.5	0.00e+00	0	28	0	349175808	50	6271
2026-01-05 02:34:59.17	278.28	20.15	-38.8	-39.8	22.2	0.00e+00	55	28	0	351272960	50	6284
2026-01-05 02:35:00.18	278.53	20.15	-39.1	-40.1	22.0	0.00e+00	0	28	0	353370112	50	6535
2026-01-05 02:35:01.19	278.79	20.14	-38.7	-39.7	22.3	0.00e+00	90	28	0	355467264	50	6209
2026-01-05 02:35:02.19	279.04	20.14	-38.8	-39.8	22.4	0.00e+00	0	28	0	356515840	50	6260
2026-01-05 02:35:03.20	279.29	20.13	-38.7	-39.7	22.4	0.00e+00	90	28	0	358612992	50	6231
2026-01-05 02:35:04.21	279.54	20.13	-38.7	-39.7	22.2	0.00e+00	92	28	0	360710144	50	6207
2026-01-05 02:35:05.22	279.80	20.12	-38.8	-39.8	22.4	0.00e+00	0	28	0	362807296	50	6279
2026-01-05 02:35:06.23	280.05	20.12	-39.1	-40.2	21.8	0.00e+00	75	28	0	364904448	50	6564
2026-01-05 02:35:07.24	280.30	20.11	-38.8	-39.9	22.2	0.00e+00	0	28	0	365953024	50	6335
2026-01-05 02:35:08.25	280.56	20.10	-38.9	-40.0	22.1	0.00e+00	88	28	0	368050176	50	6404
2026-01-05 02:35:09.26	280.81	20.09	-38.9	-39.9	22.2	0.00e+00	0	28	0	370147328	50	6343
2026-01-05 02:35:10.27	281.06	20.09	-38.6	-39.6	22.5	0.00e+00	92	28	0	372244480	50	6114
2026-01-05 02:35:11.28	281.31	20.08	-38.6	-39.6	22.4	0.00e+00	92	28	0	374341632	50	6173
2026-01-05 02:35:12.29	281.57	20.07	-38.6	-39.6	22.4	0.00e+00	0	28	0	376438784	50	6115
2026-01-05 02:35:13.30	281.82	20.06	-38.9	-39.9	22.2	0.00e+00	92	28	0	377487360	50	6343
2026-01-05 02:35:14.31	282.07	20.05	-38.9	-39.9	22.1	0.00e+00	0	28	0	379584512	50	6360
2026-01-05 02:35:15.32	282.32	20.03	-38.7	-39.7	22.4	0.00e+00	79	28	0	381681664	50	6194
2026-01-05 02:35:16.33	282.58	20.02	-38.4	-39.4	22.6	0.00e+00	0	28	0	383778816	50	6011
2026-01-05 02:35:17.34	282.83	20.01	-38.4	-39.4	22.5	0.00e+00	92	28	0	385875968	50	6004
2026-01-05 02:35:18.35	283.08	20.00	-38.0	-39.0	22.8	0.00e+00	74	28	0	386924544	50	5724
2026-01-05 02:35:19.35	283.33	19.98	-38.0	-38.9	22.8	0.00e+00	0	28	0	389021696	50	5692
2026-01-05 02:35:20.35	283.58	19.97	-37.9	-38.8	23.0	0.00e+00	30	28	0	391118848	50	5629
2026-01-05 02:35:21.37	283.83	19.96	-37.8	-38.7	23.1	0.00e+00	0	28	0	393216000	50	5534
2026-01-05 02:35:22.38	284.08	19.94	-37.7	-38.6	23.1	0.00e+00	74	28	0	395313152	48	6133
2026-01-05 02:35:23.38	284.33	19.93	-37.8	-38.8	23.0	0.00e+00	0	28	0	396361728	48	6263
2026-01-05 02:35:24.40	284.58	19.91	-38.1	-39.0	22.9	0.00e+00	92	28	0	398458880	48	6458
2026-01-05 02:35:25.41	284.83	19.89	-38.1	-39.0	22.6	0.00e+00	0	28	0	400556032	48	6456
2026-01-05 02:35:26.42	285.08	19.88	-38.3	-39.3	22.6	0.00e+00	0	28	0	402653184	48	6658
2026-01-05 02:35:27.43	285.33	19.86	-38.4	-39.4	22.6	0.00e+00	92	28	0	404750336	48	6745
2026-01-05 02:35:28.43	285.57	19.84	-38.4	-39.4	22.6	0.00e+00	0	28	0	405798912	48	6734
2026-01-05 02:35:29.45	285.82	19.82	-38.4	-39.4	22.6	0.00e+00	86	28	0	407896064	48	6710
2026-01-05 02:35:30.45	286.07	19.80	-38.3	-39.3	22.4	0.00e+00	0	28	0	409993216	48	6663
2026-01-05 02:35:31.46	286.32	19.78	-38.1	-39.1	22.8	0.00e+00	92	28	0	412090368	48	6479
2026-01-05 02:35:32.47	286.57	19.76	-38.2	-39.2	22.8	0.00e+00	9	28	0	414187520	48	6551
2026-01-05 02:35:33.48	286.81	19.74	-38.2	-39.1	22.8	0.00e+00	0	28	0	415236096	48	6507
2026-01-05 02:35:34.49	287.06	19.72	-38.0	-38.9	23.0	0.00e+00	92	28	0	417333248	48	6337
2026-01-05 02:35:35.50	287.31	19.70	-38.0	-39.0	22.9	0.00e+00	0	28	0	419430400	48	6403
2026-01-05 02:35:36.50	287.55	19.68	-38.3	-39.2	22.8	0.00e+00	61	28	0	421527552	48	6583
2026-01-05 02:35:37.52	287.80	19.65	-38.3	-39.2	22.9	0.00e+00	0	28	0	423624704	48	6574
2026-01-05 02:35:38.53	288.04	19.63	-38.1	-39.1	22.9	0.00e+00	92	28	0	424673280	48	6484
2026-01-05 02:35:39.54	288.29	19.61	-38.0	-39.0	23.0	0.00e+00	0	28	0	426770432	48	6395
2026-01-05 02:35:40.55	288.53	19.58	-38.1	-39.1	23.0	0.00e+00	0	28	0	428867584	48	6465
2026-01-05 02:35:41.55	288.78	19.56	-38.0	-38.9	23.2	0.00e+00	92	28	0	430964736	48	6350
2026-01-05 02:35:42.56	289.02	19.53	-38.0	-38.9	23.1	0.00e+00	0	28	0	433061888	48	6361
2026-01-05 02:35:43.57	289.26	19.51	-37.7	-38.6	23.3	0.00e+00	68	28	0	434110464	48	6124
2026-01-05 02:35:44.58	289.51	19.48	-37.9	-38.9	22.9	0.00e+00	0	28	0	436207616	48	6335
2026-01-05 02:35:45.59	289.75	19.46	-38.2	-39.1	22.7	0.00e+00	92	28	0	438304768	48	6510
2026-01-05 02:35:46.60	289.99	19.43	-38.0	-39.0	22.9	0.00e+00	0	28	0	440401920	48	6414
2026-01-05 02:35:47.61	290.23	19.40	-37.8	-38.8	23.0	0.00e+00	59	28	0	442499072	48	6270
2026-01-05 02:35:48.62	290.47	19.37	-37.8	-38.8	23.0	0.00e+00	70	28	0	443547648	48	6268
2026-01-05 02:35:49.63	290.72	19.34	-37.9	-38.8	23.0	0.00e+00	0	28	0	445644800	48	6290
2026-01-05 02:35:50.64	290.96	19.32	-38.1	-39.1	22.7	0.00e+00	13	28	0	447741952	48	6476
2026-01-05 02:35:51.65	291.20	19.29	-38.4	-39.4	22.5	0.00e+00	0	28	0	449839104	48	6768
2026-01-05 02:35:52.66	291.44	19.26	-38.7	-39.7	22.3	0.00e+00	92	28	0	451936256	48	7004
2026-01-05 02:35:53.67	291.67	19.23	-39.1	-40.2	21.9	0.00e+00	0	28	0	454033408	50	6549
2026-01-05 02:35:54.68	291.91	19.20	-39.4	-40.5	21.8	0.00e+00	92	28	0	455081984	50	6798
2026-01-05 02:35:55.69	292.15	19.16	-39.2	-40.3	21.8	0.00e+00	70	28	0	457179136	50	6623
2026-01-05 02:35:56.70	292.39	19.13	-38.8	-39.8	22.3	0.00e+00	0	28	0	459276288	50	6308
2026-01-05 02:35:57.71	292.63	19.10	-38.4	-39.3	22.6	0.00e+00	0	28	0	461373440	50	5961
2026-01-05 02:35:58.72	292.86	19.07	-38.1	-39.1	22.9	0.00e+00	0	28	0	463470592	50	5776
2026-01-05 02:35:59.73	293.10	19.04	-37.8	-38.8	23.0	0.00e+00	91	28	0	464519168	48	6259
2026-01-05 02:36:00.74	293.34	19.00	-37.7	-38.6	23.3	0.00e+00	0	28	0	466616320	48	6128
2026-01-05 02:36:01.75	293.57	18.97	-38.0	-39.0	23.1	0.00e+00	92	28	0	468713472	48	6407
2026-01-05 02:36:02.76	293.81	18.93	-38.4	-39.3	22.7	0.00e+00	30	28	0	470810624	48	6680
2026-01-05 02:36:03.77	294.04	18.90	-38.6	-39.6	22.6	0.00e+00	0	28	0	472907776	48	6864
2026-01-05 02:36:04.78	294.27	18.86	-38.4	-39.4	22.6	0.00e+00	36	28	0	473956352	48	6708
2026-01-05 02:36:05.79	294.51	18.83	-38.5	-39.5	22.6	0.00e+00	0	28	0	476053504	48	6784
2026-01-05 02:36:06.80	294.74	18.79	-38.1	-39.0	22.8	0.00e+00	84	28	0	478150656	48	6421
2026-01-05 02:36:07.81	294.97	18.76	-38.2	-39.2	23.0	0.00e+00	0	28	0	480247808	48	6546
2026-01-05 02:36:08.82	295.20	18.72	-38.0	-38.9	23.1	0.00e+00	92	28	0	482344960	48	6336
2026-01-05 02:36:09.83	295.43	18.68	-38.5	-39.5	22.6	0.00e+00	57	28	0	483393536	48	6826
2026-01-05 02:36:10.84	295.66	18.65	-38.4	-39.4	22.6	0.00e+00	0	28	0	485490688	48	6754
2026-01-05 02:36:11.85	295.89	18.61	-38.2	-39.2	22.8	0.00e+00	92	28	0	487587840	48	6588
2026-01-05 02:36:12.86	296.12	18.57	-38.4	-39.4	22.8	0.00e+00	0	28	0	489684992	48	6717
2026-01-05 02:36:13.87	296.35	18.53	-38.5	-39.5	22.5	0.00e+00	91	28	0	491782144	50	6092
2026-01-05 02:36:14.88	296.58	18.49	-38.0	-38.9	23.0	0.00e+00	0	28	0	492830720	50	5695
2026-01-05 02:36:15.89	296.81	18.45	-37.3	-38.2	23.5	0.00e+00	91	28	0	494927872	48	5872
2026-01-05 02:36:16.90	297.03	18.41	-37.1	-38.0	23.7	0.00e+00	0	28	0	497025024	48	5727
2026-01-05 02:36:17.91	297.26	18.37	-36.9	-37.8	23.9	0.00e+00	0	28	0	499122176	48	5575
2026-01-05 02:36:18.92	297.49	18.33	-36.9	-37.8	23.8	0.00e+00	92	28	0	501219328	48	5570
2026-01-05 02:36:19.93	297.71	18.29	-37.0	-37.9	23.7	0.00e+00	0	28	0	502267904	48	5636
2026-01-05 02:36:20.94	297.94	18.25	-37.1	-38.0	23.6	0.00e+00	40	28	0	504365056	48	5722
2026-01-05 02:36:21.95	298.16	18.21	-37.2	-38.1	23.6	0.00e+00	0	28	0	506462208	48	5789
2026-01-05 02:36:22.96	298.38	18.17	-37.4	-38.3	23.4	0.00e+00	92	28	0	508559360	48	5927
2026-01-05 02:36:23.97	298.61	18.13	-37.5	-38.4	23.4	0.00e+00	0	28	0	510656512	48	6017
2026-01-05 02:36:24.98	298.83	18.08	-37.5	-38.4	23.4	0.00e+00	0	28	0	511705088	48	6003
2026-01-05 02:36:25.99	299.05	18.04	-37.3	-38.1	23.5	0.00e+00	90	28	0	513802240	48	5828
2026-01-05 02:36:27.01	299.27	18.00	-37.2	-38.1	23.5	0.00e+00	0	28	0	515899392	48	5803
2026-01-05 02:36:28.01	299.49	17.95	-37.2	-38.1	23.5	0.00e+00	38	28	0	517996544	48	5799
2026-01-05 02:36:29.02	299.71	17.91	-37.7	-38.6	23.1	0.00e+00	0	28	0	520093696	48	6144
2026-01-05 02:36:30.04	299.93	17.86	-37.8	-38.7	23.2	0.00e+00	55	28	0	522190848	48	6213
2026-01-05 02:36:31.05	300.15	17.82	-37.7	-38.7	23.0	0.00e+00	0	28	0	523239424	48	6174
2026-01-05 02:36:32.06	300.37	17.78	-37.7	-38.6	23.1	0.00e+00	39	28	0	525336576	48	6138
2026-01-05 02:36:33.07	300.59	17.73	-37.8	-38.7	23.0	0.00e+00	92	28	0	527433728	48	6201
2026-01-05 02:36:34.08	300.80	17.68	-37.5	-38.4	23.2	0.00e+00	0	28	0	529530880	48	5984
2026-01-05 02:36:35.09	301.02	17.64	-37.5	-38.4	23.2	0.00e+00	25	28	0	531628032	48	6009
2026-01-05 02:36:36.10	301.23	17.59	-37.7	-38.7	23.1	0.00e+00	0	28	0	532676608	48	6180
2026-01-05 02:36:37.11	301.45	17.55	-37.8	-38.7	23.2	0.00e+00	91	28	0	534773760	48	6202
2026-01-05 02:36:38.12	301.66	17.50	-37.7	-38.7	23.1	0.00e+00	0	28	0	536870912	48	6190
2026-01-05 02:36:39.13	301.88	17.45	-37.8	-38.7	23.1	0.00e+00	92	28	0	538968064	48	6195
2026-01-05 02:36:40.14	302.09	17.41	-37.8	-38.7	23.1	0.00e+00	72	28	0	541065216	48	6217
2026-01-05 02:36:41.15	302.30	17.36	-37.7	-38.6	23.1	0.00e+00	0	28	0	542113792	48	6146
2026-01-05 02:36:42.16	302.51	17.31	-38.2	-39.1	23.0	0.00e+00	4	28	0	544210944	48	6498
2026-01-05 02:36:43.17	302.72	17.26	-38.2	-39.2	22.8	0.00e+00	0	28	0	546308096	48	6575
2026-01-05 02:36:44.18	302.93	17.21	-38.3	-39.3	22.6	0.00e+00	92	28	0	548405248	48	6658
2026-01-05 02:36:45.19	303.14	17.17	-38.8	-39.8	22.3	0.00e+00	0	28	0	550502400	48	7047
2026-01-05 02:36:46.20	303.35	17.12	-38.8	-39.9	22.3	0.00e+00	89	28	0	551550976	50	6334
2026-01-05 02:36:47.21	303.56	17.07	-39.3	-40.4	22.0	0.00e+00	72	28	0	553648128	50	6707
2026-01-05 02:36:48.22	303.77	17.02	-39.2	-40.3	22.2	0.00e+00	0	28	0	555745280	50	6618
2026-01-05 02:36:49.23	303.97	16.97	-38.8	-39.8	22.5	0.00e+00	90	28	0	557842432	50	6280
2026-01-05 02:36:50.24	304.18	16.92	-39.1	-40.1	22.3	0.00e+00	0	28	0	559939584	50	6476
2026-01-05 02:36:51.25	304.39	16.87	-38.5	-39.5	22.5	0.00e+00	71	28	0	562036736	50	6056
2026-01-05 02:36:52.26	304.59	16.82	-38.7	-39.7	22.5	0.00e+00	0	28	0	563085312	50	6191
2026-01-05 02:36:53.27	304.79	16.77	-38.6	-39.5	22.6	0.00e+00	91	28	0	565182464	50	6102
2026-01-05 02:36:54.28	305.00	16.72	-38.4	-39.4	22.8	0.00e+00	0	28	0	567279616	50	5982
2026-01-05 02:36:55.29	305.20	16.67	-38.2	-39.1	23.0	0.00e+00	0	28	0	569376768	50	5790
2026-01-05 02:36:56.30	305.40	16.61	-38.4	-39.3	22.7	0.00e+00	91	28	0	571473920	50	5963
2026-01-05 02:36:57.30	305.60	16.56	-37.9	-38.9	23.0	0.00e+00	0	28	0	572522496	50	5643
2026-01-05 02:36:58.32	305.80	16.51	-38.1	-39.0	22.9	0.00e+00	55	28	0	574619648	50	5758
2026-01-05 02:36:59.32	306.00	16.46	-38.1	-39.1	22.9	0.00e+00	0	28	0	576716800	50	5780
2026-01-05 02:37:00.33	306.20	16.41	-38.3	-39.3	22.7	0.00e+00	92	28	0	578813952	50	5925
2026-01-05 02:37:01.34	306.40	16.35	-38.5	-39.5	22.6	0.00e+00	0	28	0	580911104	50	6066
2026-01-05 02:37:02.35	306.60	16.30	-38.7	-39.7	22.4	0.00e+00	0	28	0	581959680	50	6227
2026-01-05 02:37:03.36	306.80	16.25	-39.1	-40.2	22.0	0.00e+00	71	28	0	584056832	50	6549
2026-01-05 02:37:04.38	306.99	16.20	-40.0	-41.1	21.5	0.00e+00	0	28	0	586153984	52	6519
2026-01-05 02:37:05.38	307.19	16.14	-40.3	-41.4	21.5	0.00e+00	66	28	0	588251136	52	6742
2026-01-05 02:37:06.39	307.38	16.09	-40.5	-41.7	21.3	0.00e+00	0	28	0	590348288	52	6949
2026-01-05 02:37:07.40	307.58	16.04	-39.9	-41.1	21.3	0.00e+00	90	28	0	591396864	52	6488
2026-01-05 02:37:08.41	307.77	15.98	-39.6	-40.8	21.5	0.00e+00	0	28	0	593494016	52	6284
2026-01-05 02:37:09.42	307.97	15.93	-39.7	-40.8	21.7	0.00e+00	0	28	0	595591168	52	6287
2026-01-05 02:37:10.43	308.16	15.87	-39.6	-40.7	21.9	0.00e+00	34	28	0	597688320	52	6186
2026-01-05 02:37:11.44	308.35	15.82	-39.4	-40.5	22.1	0.00e+00	0	28	0	599785472	52	6034
2026-01-05 02:37:12.44	308.54	15.77	-39.2	-40.2	22.3	0.00e+00	41	28	0	600834048	52	5876
2026-01-05 02:37:13.45	308.73	15.71	-39.0	-40.0	22.3	0.00e+00	0	28	0	602931200	52	5744
2026-01-05 02:37:14.46	308.92	15.66	-39.2	-40.2	22.5	0.00e+00	70	28	0	605028352	50	6569
2026-01-05 02:37:15.47	309.11	15.60	-38.4	-39.4	22.7	0.00e+00	0	28	0	607125504	50	5968
2026-01-05 02:37:16.48	309.30	15.55	-38.3	-39.3	22.8	0.00e+00	66	28	0	609222656	50	5936
2026-01-05 02:37:17.49	309.49	15.49	-38.1	-39.1	22.9	0.00e+00	0	28	0	610271232	50	5794
2026-01-05 02:37:18.50	309.67	15.44	-38.4	-39.4	22.6	0.00e+00	0	28	0	612368384	50	5994
2026-01-05 02:37:19.51	309.86	15.38	-38.4	-39.4	22.7	0.00e+00	50	28	0	614465536	50	5992
2026-01-05 02:37:20.53	310.05	15.32	-38.7	-39.8	22.2	0.00e+00	0	28	0	616562688	50	6249
2026-01-05 02:37:21.54	310.23	15.27	-39.2	-40.3	22.0	0.00e+00	92	28	0	618659840	50	6641
2026-01-05 02:37:22.54	310.41	15.21	-40.0	-41.1	21.5	0.00e+00	0	28	0	619708416	52	6484
2026-01-05 02:37:23.55	310.60	15.16	-39.9	-41.1	21.4	0.00e+00	67	28	0	621805568	52	6477
2026-01-05 02:37:24.56	310.78	15.10	-40.1	-41.2	21.4	0.00e+00	17	28	0	623902720	52	6610
2026-01-05 02:37:25.57	310.96	15.04	-40.0	-41.1	21.8	0.00e+00	0	28	0	625999872	52	6512
2026-01-05 02:37:26.58	311.15	14.99	-39.1	-40.1	22.0	0.00e+00	74	28	0	628097024	52	5801
2026-01-05 02:37:27.59	311.33	14.93	-39.0	-40.0	22.2	0.00e+00	0	28	0	630194176	52	5729
2026-01-05 02:37:28.60	311.51	14.87	-38.8	-39.8	22.3	0.00e+00	62	28	0	631242752	50	6282
2026-01-05 02:37:29.61	311.69	14.82	-38.9	-39.9	22.4	0.00e+00	0	28	0	633339904	50	6368
2026-01-05 02:37:30.62	311.87	14.76	-38.8	-39.8	22.3	0.00e+00	65	28	0	635437056	50	6317
2026-01-05 02:37:31.63	312.04	14.70	-38.6	-39.7	22.2	0.00e+00	17	28	0	637534208	50	6189
2026-01-05 02:37:32.64	312.22	14.64	-38.7	-39.8	22.0	0.00e+00	0	28	0	638582784	50	6282
2026-01-05 02:37:33.65	312.40	14.59	-38.6	-39.7	22.2	0.00e+00	92	28	0	640679936	50	6175
2026-01-05 02:37:34.66	312.58	14.53	-38.6	-39.7	22.1	0.00e+00	0	28	0	642777088	50	6175
2026-01-05 02:37:35.67	312.75	14.47	-38.3	-39.3	22.3	0.00e+00	92	28	0	644874240	50	5948
2026-01-05 02:37:36.68	312.93	14.41	-38.2	-39.2	22.7	0.00e+00	0	28	0	646971392	50	5868
2026-01-05 02:37:37.69	313.10	14.35	-37.8	-38.8	22.8	0.00e+00	87	28	0	648019968	50	5588
2026-01-05 02:37:38.70	313.27	14.30	-37.9	-38.9	22.8	0.00e+00	0	28	0	650117120	50	5635
2026-01-05 02:37:39.71	313.45	14.24	-38.4	-39.4	22.6	0.00e+00	0	28	0	652214272	50	5969
2026-01-05 02:37:40.72	313.62	14.18	-38.6	-39.6	22.4	0.00e+00	84	28	0	654311424	50	6133
2026-01-05 02:37:41.73	313.79	14.12	-38.5	-39.5	22.4	0.00e+00	0	28	0	656408576	50	6091
2026-01-05 02:37:42.74	313.96	14.06	-38.7	-39.8	22.1	0.00e+00	0	28	0	658505728	50	6247
2026-01-05 02:37:43.75	314.13	14.00	-38.9	-39.9	22.1	0.00e+00	0	28	0	659554304	50	6372
2026-01-05 02:37:44.76	314.30	13.95	-38.6	-39.6	22.2	0.00e+00	77	28	0	661651456	50	6134
2026-01-05 02:37:45.77	314.47	13.89	-38.7	-39.8	22.3	0.00e+00	0	28	0	663748608	50	6265
2026-01-05 02:37:46.78	314.64	13.83	-38.6	-39.6	22.6	0.00e+00	0	28	0	665845760	50	6114
2026-01-05 02:37:47.79	314.81	13.77	-38.3	-39.2	22.6	0.00e+00	68	28	0	667942912	50	5885
2026-01-05 02:37:48.80	314.98	13.71	-38.0	-39.0	22.6	0.00e+00	0	28	0	668991488	50	5696
2026-01-05 02:37:49.81	315.14	13.65	-37.8	-38.8	22.8	0.00e+00	0	28	0	671088640	50	5602
2026-01-05 02:37:50.82	315.31	13.59	-38.3	-39.3	22.4	0.00e+00	0	28	0	673185792	50	5920
2026-01-05 02:37:51.83	315.47	13.53	-38.5	-39.5	22.4	0.00e+00	90	28	0	675282944	50	6064
2026-01-05 02:37:52.84	315.64	13.47	-38.4	-39.4	22.2	0.00e+00	0	28	0	677380096	50	6008
2026-01-05 02:37:53.85	315.80	13.42	-38.6	-39.7	22.2	0.00e+00	57	28	0	678428672	50	6183
2026-01-05 02:37:54.86	315.96	13.36	-38.7	-39.8	22.1	0.00e+00	41	28	0	680525824	50	6268
2026-01-05 02:37:55.87	316.13	13.30	-38.8	-39.9	22.3	0.00e+00	0	28	0	682622976	50	6319
2026-01-05 02:37:56.88	316.29	13.24	-38.6	-39.6	22.4	0.00e+00	77	28	0	684720128	50	6171
2026-01-05 02:37:57.89	316.45	13.18	-39.2	-40.2	22.2	0.00e+00	0	28	0	686817280	50	6600
2026-01-05 02:37:58.90	316.61	13.12	-38.8	-39.8	22.3	0.00e+00	83	28	0	687865856	50	6312
2026-01-05 02:37:59.91	316.77	13.06	-38.9	-39.9	22.0	0.00e+00	0	28	0	689963008	50	6357
2026-01-05 02:38:00.92	316.93	13.00	-39.5	-40.5	22.2	0.00e+00	0	28	0	692060160	50	6835
2026-01-05 02:38:01.93	317.09	12.94	-39.2	-40.2	22.3	0.00e+00	70	28	0	694157312	52	5836
2026-01-05 02:38:02.94	317.25	12.88	-40.0	-41.1	22.0	0.00e+00	0	28	0	696254464	52	6484
2026-01-05 02:38:03.95	317.41	12.82	-39.9	-41.0	21.9	0.00e+00	68	28	0	698351616	52	6412
2026-01-05 02:38:04.95	317.56	12.76	-39.2	-40.2	22.2	0.00e+00	0	28	0	699400192	52	5884
2026-01-05 02:38:05.96	317.72	12.70	-39.1	-40.1	21.8	0.00e+00	63	28	0	701497344	52	5807
2026-01-05 02:38:06.97	317.87	12.64	-38.7	-39.7	22.7	0.00e+00	0	28	0	703594496	52	5539
2026-01-05 02:38:07.98	318.03	12.58	-38.4	-39.4	22.9	0.00e+00	0	28	0	705691648	50	5970
2026-01-05 02:38:08.99	318.18	12.52	-38.1	-39.0	23.1	0.00e+00	0	28	0	707788800	50	5740
2026-01-05 02:38:10.00	318.34	12.46	-38.4	-39.3	23.2	0.00e+00	0	28	0	708837376	48	6660
2026-01-05 02:38:11.01	318.49	12.40	-37.6	-38.5	23.3	0.00e+00	39	28	0	710934528	48	6063
2026-01-05 02:38:12.02	318.64	12.34	-37.9	-38.8	23.3	0.00e+00	0	28	0	713031680	48	6302
2026-01-05 02:38:13.03	318.80	12.28	-37.8	-38.7	23.0	0.00e+00	92	28	0	715128832	48	6244
2026-01-05 02:38:14.04	318.95	12.22	-37.9	-38.9	22.9	0.00e+00	0	28	0	716177408	48	6337
2026-01-05 02:38:15.05	319.10	12.16	-38.1	-39.1	22.9	0.00e+00	0	28	0	718274560	48	6480
2026-01-05 02:38:16.06	319.25	12.10	-38.1	-39.1	22.7	0.00e+00	0	28	0	720371712	48	6476
2026-01-05 02:38:17.06	319.40	12.04	-38.2	-39.2	22.6	0.00e+00	0	28	0	722468864	48	6613
2026-01-05 02:38:18.07	319.55	11.98	-38.3	-39.3	22.5	0.00e+00	52	28	0	724566016	48	6654
2026-01-05 02:38:19.09	319.70	11.92	-38.3	-39.3	22.5	0.00e+00	0	28	0	726663168	48	6668
2026-01-05 02:38:20.10	319.84	11.86	-38.3	-39.3	22.6	0.00e+00	92	28	0	727711744	48	6664
2026-01-05 02:38:21.11	319.99	11.80	-37.9	-38.9	22.8	0.00e+00	33	28	0	729808896	48	6365
2026-01-05 02:38:22.11	320.14	11.74	-38.0	-38.9	22.9	0.00e+00	0	28	0	731906048	48	6370
2026-01-05 02:38:23.12	320.28	11.68	-37.8	-38.8	22.9	0.00e+00	0	28	0	734003200	48	6265
2026-01-05 02:38:24.13	320.43	11.62	-38.6	-39.6	22.8	0.00e+00	0	28	0	736100352	48	6853
2026-01-05 02:38:25.14	320.57	11.56	-38.4	-39.4	22.8	0.00e+00	37	28	0	737148928	48	6708
2026-01-05 02:38:26.15	320.72	11.49	-38.2	-39.2	22.7	0.00e+00	0	28	0	739246080	48	6576
2026-01-05 02:38:27.16	320.86	11.43	-38.6	-39.6	22.3	0.00e+00	90	28	0	741343232	48	6898
2026-01-05 02:38:28.17	321.01	11.37	-38.9	-40.0	22.0	0.00e+00	0	28	0	743440384	50	6402
2026-01-05 02:38:29.18	321.15	11.31	-38.5	-39.5	22.4	0.00e+00	0	28	0	745537536	50	6072
2026-01-05 02:38:30.19	321.29	11.25	-38.8	-39.9	22.2	0.00e+00	0	28	0	746586112	50	6332
2026-01-05 02:38:31.20	321.43	11.19	-38.8	-39.9	22.2	0.00e+00	0	28	0	748683264	50	6336
2026-01-05 02:38:32.21	321.57	11.13	-38.6	-39.7	22.3	0.00e+00	0	28	0	750780416	50	6198
2026-01-05 02:38:33.22	321.71	11.07	-38.7	-39.7	22.6	0.00e+00	0	28	0	752877568	50	6184
2026-01-05 02:38:34.23	321.85	11.01	-38.0	-38.9	22.8	0.00e+00	92	28	0	754974720	50	5693
2026-01-05 02:38:35.24	321.99	10.95	-38.0	-39.0	22.9	0.00e+00	0	28	0	756023296	50	5720
2026-01-05 02:38:36.25	322.13	10.89	-38.1	-39.1	22.9	0.00e+00	0	28	0	758120448	50	5784
2026-01-05 02:38:37.26	322.27	10.83	-38.1	-39.0	22.8	0.00e+00	0	28	0	760217600	50	5737
2026-01-05 02:38:38.27	322.41	10.77	-38.2	-39.2	22.6	0.00e+00	0	28	0	762314752	50	5859
2026-01-05 02:38:39.28	322.55	10.71	-38.3	-39.3	22.4	0.00e+00	41	28	0	764411904	50	5913
2026-01-05 02:38:40.29	322.68	10.65	-38.3	-39.3	22.3	0.00e+00	0	28	0	765460480	50	5955
2026-01-05 02:38:41.30	322.82	10.59	-38.9	-39.9	22.1	0.00e+00	91	28	0	767557632	50	6379
2026-01-05 02:38:42.30	322.95	10.53	-39.1	-40.2	21.8	0.00e+00	0	28	0	769654784	50	6540
2026-01-05 02:38:43.31	323.09	10.47	-39.8	-40.9	21.1	0.00e+00	0	28	0	771751936	50	7160
2026-01-05 02:38:44.32	323.22	10.41	-39.4	-40.5	21.4	0.00e+00	0	28	0	773849088	52	6074
2026-01-05 02:38:45.33	323.36	10.35	-39.5	-40.7	21.4	0.00e+00	0	28	0	774897664	52	6221
2026-01-05 02:38:46.34	323.49	10.29	-39.7	-40.8	21.3	0.00e+00	0	28	0	776994816	52	6313
2026-01-05 02:38:47.35	323.62	10.23	-39.5	-40.6	21.5	0.00e+00	0	28	0	779091968	52	6164
2026-01-05 02:38:48.36	323.76	10.17	-39.3	-40.4	21.7	0.00e+00	67	28	0	781189120	52	6028
2026-01-05 02:38:49.37	323.89	10.10	-39.2	-40.4	21.6	0.00e+00	0	28	0	783286272	52	5976
2026-01-05 02:38:50.38	324.02	10.04	-38.8	-39.8	21.9	0.00e+00	92	28	0	784334848	52	5616
2026-01-05 02:38:51.39	324.15	9.98	-39.1	-40.2	21.7	0.00e+00	0	28	0	786432000	52	5885
2026-01-05 02:38:52.40	324.28	9.92	-39.1	-40.1	21.6	0.00e+00	0	28	0	788529152	52	5824
2026-01-05 02:38:53.41	324.41	9.86	-39.0	-40.2	21.7	0.00e+00	0	28	0	790626304	52	5829
2026-01-05 02:38:54.42	324.54	9.80	-39.2	-40.3	21.4	0.00e+00	0	28	0	792723456	52	5956
2026-01-05 02:38:55.43	324.67	9.74	-39.2	-40.3	21.4	0.00e+00	29	28	0	794820608	52	5950
2026-01-05 02:38:56.44	324.80	9.68	-39.2	-40.4	21.4	0.00e+00	0	28	0	795869184	52	5985
2026-01-05 02:38:57.45	324.92	9.62	-39.1	-40.2	21.4	0.00e+00	62	28	0	797966336	52	5880
2026-01-05 02:38:58.46	325.05	9.56	-39.0	-40.1	21.4	0.00e+00	0	28	0	800063488	52	5801
2026-01-05 02:38:59.47	325.18	9.50	-38.8	-39.9	21.6	0.00e+00	0	28	0	802160640	52	5670
2026-01-05 02:39:00.48	325.30	9.44	-38.8	-39.9	21.7	0.00e+00	0	28	0	804257792	52	5685
2026-01-05 02:39:01.49	325.43	9.38	-38.7	-39.8	21.8	0.00e+00	0	28	0	805306368	50	6249
2026-01-05 02:39:02.50	325.56	9.32	-38.5	-39.6	21.9	0.00e+00	62	28	0	807403520	50	6136
2026-01-05 02:39:03.51	325.68	9.26	-38.9	-40.0	21.6	0.00e+00	0	28	0	809500672	50	6398
2026-01-05 02:39:04.52	325.80	9.20	-38.9	-40.0	21.6	0.00e+00	64	28	0	811597824	50	6395
2026-01-05 02:39:05.53	325.93	9.14	-39.0	-40.2	21.1	0.00e+00	0	28	0	813694976	50	6546
2026-01-05 02:39:06.54	326.05	9.08	-39.1	-40.2	21.0	0.00e+00	0	28	0	814743552	50	6571
2026-01-05 02:39:07.54	326.17	9.02	-39.1	-40.2	21.2	0.00e+00	0	28	0	816840704	50	6565
2026-01-05 02:39:08.55	326.30	8.96	-39.1	-40.3	21.3	0.00e+00	0	28	0	818937856	50	6646
2026-01-05 02:39:09.57	326.42	8.90	-39.0	-40.1	21.5	0.00e+00	63	28	0	821035008	50	6521
2026-01-05 02:39:10.58	326.54	8.84	-39.0	-40.2	21.3	0.00e+00	0	28	0	823132160	50	6575
2026-01-05 02:39:11.59	326.66	8.78	-38.9	-40.0	21.5	0.00e+00	92	28	0	824180736	50	6405
2026-01-05 02:39:12.59	326.78	8.72	-38.9	-40.0	21.6	0.00e+00	0	28	0	826277888	50	6458
2026-01-05 02:39:13.60	326.90	8.66	-38.6	-39.7	21.8	0.00e+00	27	28	0	828375040	50	6176
2026-01-05 02:39:14.61	327.02	8.61	-38.7	-39.8	21.8	0.00e+00	0	28	0	830472192	50	6275
2026-01-05 02:39:15.62	327.14	8.55	-38.4	-39.5	21.9	0.00e+00	0	28	0	832569344	50	6038
2026-01-05 02:39:16.63	327.26	8.49	-38.5	-39.6	22.0	0.00e+00	0	28	0	833617920	50	6107
2026-01-05 02:39:17.64	327.38	8.43	-38.6	-39.6	21.9	0.00e+00	0	28	0	835715072	50	6130
2026-01-05 02:39:18.65	327.49	8.37	-38.7	-39.7	22.0	0.00e+00	60	28	0	837812224	50	6203
2026-01-05 02:39:19.66	327.61	8.31	-38.7	-39.8	22.0	0.00e+00	0	28	0	839909376	50	6250
2026-01-05 02:39:20.66	327.73	8.25	-38.8	-39.8	21.8	0.00e+00	34	28	0	842006528	50	6303
2026-01-05 02:39:21.67	327.84	8.19	-38.7	-39.7	21.7	0.00e+00	0	28	0	843055104	50	6243
2026-01-05 02:39:22.68	327.96	8.13	-39.0	-40.1	21.4	0.00e+00	0	28	0	845152256	50	6478
2026-01-05 02:39:23.69	328.07	8.07	-39.5	-40.7	21.1	0.00e+00	0	28	0	847249408	50	6964
2026-01-05 02:39:24.70	328.19	8.01	-39.4	-40.5	21.1	0.00e+00	0	28	0	849346560	50	6837
2026-01-05 02:39:25.72	328.30	7.95	-39.6	-40.8	20.8	0.00e+00	64	28	0	851443712	50	7053
2026-01-05 02:39:26.72	328.42	7.89	-39.4	-40.6	20.9	0.00e+00	0	28	0	852492288	50	6920
2026-01-05 02:39:27.74	328.53	7.83	-39.6	-40.8	20.9	0.00e+00	91	28	0	854589440	50	7078
2026-01-05 02:39:28.75	328.64	7.77	-39.4	-40.6	20.9	0.00e+00	0	28	0	856686592	50	6894
2026-01-05 02:39:29.75	328.76	7.72	-39.3	-40.5	21.3	0.00e+00	0	28	0	858783744	50	6795
2026-01-05 02:39:30.77	328.87	7.66	-39.5	-40.6	21.3	0.00e+00	0	28	0	860880896	50	6907
2026-01-05 02:39:31.78	328.98	7.60	-39.4	-40.5	21.4	0.00e+00	0	28	0	862978048	50	6771
2026-01-05 02:39:32.79	329.09	7.54	-39.0	-40.1	21.7	0.00e+00	62	28	0	864026624	50	6512
2026-01-05 02:39:33.80	329.20	7.48	-39.4	-40.4	21.7	0.00e+00	0	28	0	866123776	50	6752
2026-01-05 02:39:34.81	329.31	7.42	-39.0	-40.1	21.9	0.00e+00	90	28	0	868220928	50	6498
2026-01-05 02:39:35.82	329.42	7.36	-38.9	-40.0	21.6	0.00e+00	0	28	0	870318080	50	6431
2026-01-05 02:39:36.83	329.53	7.30	-38.9	-39.9	21.7	0.00e+00	0	28	0	872415232	50	6370
2026-01-05 02:39:37.84	329.64	7.25	-39.1	-40.1	21.6	0.00e+00	0	28	0	873463808	50	6527
2026-01-05 02:39:38.84	329.75	7.19	-39.4	-40.5	21.3	0.00e+00	0	28	0	875560960	50	6818
2026-01-05 02:39:39.85	329.86	7.13	-39.3	-40.4	21.0	0.00e+00	23	28	0	877658112	50	6733
2026-01-05 02:39:40.86	329.97	7.07	-39.5	-40.7	20.9	0.00e+00	0	28	0	879755264	50	6968
2026-01-05 02:39:41.87	330.07	7.01	-39.8	-41.1	20.7	0.00e+00	80	28	0	881852416	52	6482
2026-01-05 02:39:42.89	330.18	6.95	-39.9	-41.2	20.7	0.00e+00	0	28	0	882900992	52	6542
2026-01-05 02:39:43.89	330.29	6.90	-40.0	-41.3	20.6	0.00e+00	0	28	0	884998144	52	6641
2026-01-05 02:39:44.90	330.40	6.84	-40.0	-41.3	20.3	0.00e+00	0	28	0	887095296	52	6673
2026-01-05 02:39:45.91	330.50	6.78	-40.3	-41.6	20.3	0.00e+00	0	28	0	889192448	52	6886
2026-01-05 02:39:46.92	330.61	6.72	-40.3	-41.6	20.2	0.00e+00	68	28	0	891289600	52	6895
2026-01-05 02:39:47.93	330.71	6.66	-40.3	-41.6	20.2	0.00e+00	0	28	0	892338176	52	6864
2026-01-05 02:39:48.94	330.82	6.61	-40.5	-41.8	20.3	0.00e+00	79	28	0	894435328	52	7041
2026-01-05 02:39:49.95	330.92	6.55	-40.3	-41.6	20.2	0.00e+00	0	28	0	896532480	52	6872
2026-01-05 02:39:50.96	331.03	6.49	-40.4	-41.7	20.0	0.00e+00	0	28	0	898629632	52	6994
2026-01-05 02:39:51.97	331.13	6.43	-40.5	-41.9	19.6	0.00e+00	0	28	0	900726784	54	6367
2026-01-05 02:39:52.98	331.23	6.37	-41.1	-42.6	19.5	0.00e+00	0	28	0	901775360	54	6865
2026-01-05 02:39:53.99	331.33	6.32	-41.0	-42.5	19.4	0.00e+00	0	28	0	903872512	54	6811
2026-01-05 02:39:55.00	331.44	6.26	-41.1	-42.7	18.9	0.00e+00	0	28	0	905969664	54	6930
2026-01-05 02:39:56.01	331.54	6.20	-41.1	-42.7	18.8	0.00e+00	79	28	0	908066816	54	6987
2026-01-05 02:39:57.02	331.64	6.14	-41.0	-42.6	18.9	0.00e+00	0	28	0	910163968	54	6890
2026-01-05 02:39:58.03	331.74	6.09	-41.4	-43.1	18.6	0.00e+00	92	28	0	911212544	54	7299
2026-01-05 02:39:59.04	331.84	6.03	-41.3	-42.9	18.8	0.00e+00	33	28	0	913309696	54	7163
2026-01-05 02:40:00.05	331.94	5.97	-41.3	-42.9	18.7	0.00e+00	0	28	0	915406848	54	7169
2026-01-05 02:40:01.06	332.04	5.91	-41.3	-43.0	18.7	0.00e+00	0	28	0	917504000	54	7212
2026-01-05 02:40:02.07	332.14	5.86	-41.1	-42.7	18.9	0.00e+00	0	28	0	919601152	54	6945
2026-01-05 02:40:03.08	332.24	5.80	-40.9	-42.5	19.0	0.00e+00	76	28	0	920649728	54	6828
2026-01-05 02:40:04.09	332.34	5.74	-40.7	-42.2	19.1	0.00e+00	0	28	0	922746880	54	6611
2026-01-05 02:40:05.10	332.44	5.68	-40.6	-42.2	19.2	0.00e+00	92	28	0	924844032	54	6560
2026-01-05 02:40:06.11	332.54	5.63	-40.8	-42.4	18.8	0.00e+00	0	28	0	926941184	54	6753
2026-01-05 02:40:07.12	332.64	5.57	-40.6	-42.1	18.8	0.00e+00	0	28	0	929038336	54	6533
2026-01-05 02:40:08.13	332.73	5.51	-41.1	-42.8	18.2	0.00e+00	33	28	0	931135488	54	7060
2026-01-05 02:40:09.14	332.83	5.46	-41.0	-42.7	18.0	0.00e+00	0	28	0	932184064	54	6985
2026-01-05 02:40:10.15	332.93	5.40	-41.1	-43.0	17.8	0.00e+00	53	28	0	934281216	54	7184
2026-01-05 02:40:11.16	333.02	5.34	-41.6	-43.7	16.7	0.00e+00	0	28	0	936378368	54	7859
2026-01-05 02:40:12.17	333.12	5.29	-41.9	-44.4	15.6	0.00e+00	90	28	0	938475520	56	7584
2026-01-05 02:40:13.18	333.22	5.23	-42.2	-45.0	14.7	7.00e-07	0	28	0	940572672	56	8105
2026-01-05 02:40:14.19	333.31	5.17	-42.6	-46.2	13.1	7.00e-07	0	28	0	941621248	56	9246
2026-01-05 02:40:15.20	333.41	5.12	-42.8	-46.6	12.4	2.74e-05	0	28	0	943718400	58	8663
2026-01-05 02:40:16.21	333.50	5.06	-43.2	-47.9	10.7	5.82e-04	0	28	0	945815552	58	10088
2026-01-05 02:40:17.22	333.60	5.00	-43.3	-48.7	9.4	9.12e-03	65	28	0	947912704	58	11007
2026-01-05 02:40:18.23	333.69	4.95	-43.3	-49.1	8.9	1.89e-02	0	28	0	950009856	58	11596
2026-01-05 02:40:19.23	333.78	4.89	-43.5	-50.1	7.4	5.19e-02	92	28	0	951058432	58	12906
2026-01-05 02:40:20.25	333.88	4.83	-43.6	-50.6	6.9	1.91e-01	0	28	0	953155584	58	13730
2026-01-05 02:40:21.26	333.97	4.78	-43.5	-51.2	5.8	2.69e-01	0	28	0	955252736	58	14784
2026-01-05 02:40:22.27	334.06	4.72	-43.6	-52.0	5.1	4.48e-01	0	28	0	957349888	58	16056
2026-01-05 02:40:23.27	334.15	4.67	-43.5	-52.3	4.6	6.45e-01	0	28	0	959447040	58	16620
2026-01-05 02:40:24.28	334.25	4.61	-43.5	-53.1	4.1	9.51e-01	0	28	0	960495616	58	18360
2026-01-05 02:40:25.29	334.34	4.55	-43.5	-53.8	3.9	1.36e+00	0	28	0	961544192	58	19796
2026-01-05 02:40:26.30	334.43	4.50	-43.6	-55.7	3.9	1.48e+00	0	28	104	961544192	58	24838
2026-01-05 02:40:27.31	334.52	4.44	-43.5	-56.3	3.7	1.49e+00	0	28	104	961544192	58	26354
2026-01-05 02:40:28.32	334.61	4.39	-43.5	-56.5	3.6	1.49e+00	0	28	104	961544192	58	26963
2026-01-05 02:40:29.33	334.70	4.33	-43.5	-57.0	3.6	1.50e+00	0	28	104	961544192	58	28853
2026-01-05 02:40:30.34	334.79	4.27	-43.7	-57.4	3.6	1.51e+00	0	28	104	961544192	58	30230
2026-01-05 02:40:31.35	334.88	4.22	-44.0	-57.9	3.6	1.51e+00	0	28	104	961544192	60	28490
2026-01-05 02:40:32.35	334.97	4.16	-43.7	-58.0	3.6	1.51e+00	0	28	104	961544192	60	28598
2026-01-05 02:40:33.37	335.06	4.11	-43.7	-58.1	3.5	1.51e+00	0	28	104	961544192	60	29140
2026-01-05 02:40:34.38	335.15	4.05	-43.6	-58.3	3.5	1.51e+00	0	28	104	961544192	60	29886
2026-01-05 02:40:35.38	335.24	4.00	-43.7	-58.8	3.6	1.51e+00	0	28	104	961544192	60	31640
2026-01-05 02:40:36.39	335.32	3.94	-43.9	-58.9	3.6	1.51e+00	0	28	104	961544192	60	31825
2026-01-05 02:40:37.40	335.41	3.89	-43.8	-58.8	3.6	1.51e+00	0	28	104	961544192	60	31531
2026-01-05 02:40:38.41	335.50	3.83	-43.7	-58.6	3.6	1.51e+00	0	28	104	961544192	60	30910
2026-01-05 02:40:39.42	335.59	3.78	-43.7	-58.7	3.6	1.51e+00	0	28	104	961544192	60	30966
2026-01-05 02:40:40.42	335.67	3.72	-43.6	-58.7	3.6	1.51e+00	0	28	104	961544192	60	31006
2026-01-05 02:40:41.43	335.76	3.67	-43.7	-58.7	3.6	1.51e+00	0	28	104	961544192	60	31208
2026-01-05 02:40:42.44	335.85	3.61	-43.7	-58.8	3.6	1.51e+00	0	28	104	961544192	60	31342
2026-01-05 02:40:43.45	335.93	3.56	-43.6	-58.7	3.6	1.51e+00	0	28	104	961544192	60	31202
2026-01-05 02:40:44.46	336.02	3.50	-43.7	-58.8	3.6	1.51e+00	0	28	104	961544192	60	31405
2026-01-05 02:40:45.47	336.10	3.45	-43.6	-58.7	3.6	1.51e+00	0	28	104	961544192	60	31142
2026-01-05 02:40:46.48	336.19	3.39	-43.6	-58.7	3.6	1.51e+00	0	28	104	961544192	60	31093
2026-01-05 02:40:47.49	336.27	3.34	-43.8	-58.9	3.6	1.51e+00	0	28	104	961544192	60	31768
2026-01-05 02:40:48.50	336.36	3.28	-43.8	-58.9	3.6	1.51e+00	0	28	104	961544192	60	31832
2026-01-05 02:40:49.51	336.44	3.23	-43.7	-58.9	3.6	1.51e+00	0	28	104	961544192	60	31748
2026-01-05 02:40:50.52	336.53	3.17	-43.6	-58.7	3.6	1.51e+00	0	28	104	961544192	60	31150
2026-01-05 02:40:51.53	336.61	3.12	-43.5	-58.7	3.6	1.51e+00	0	28	104	961544192	60	31006
2026-01-05 02:40:52.54	336.69	3.07	-43.6	-58.7	3.6	1.51e+00	0	28	104	961544192	60	31286
2026-01-05 02:40:53.55	336.78	3.01	-43.5	-58.6	3.6	1.51e+00	0	28	104	961544192	60	30891
2026-01-05 02:40:54.56	336.86	2.96	-47.8	-62.9	3.6	1.51e+00	0	28	104	961544192	60	50594
2026-01-05 02:40:55.57	336.94	2.90	-48.3	-63.5	3.6	1.51e+00	0	28	104	961544192	60	53776
2026-01-05 02:40:56.58	337.02	2.85	-48.5	-63.7	3.6	1.51e+00	0	28	104	961544192	60	55187
2026-01-05 02:40:57.59	337.11	2.80	-48.7	-63.9	3.6	1.51e+00	0	28	104	961544192	60	56753
2026-01-05 02:40:58.60	337.19	2.74	-48.6	-63.8	3.6	1.51e+00	0	28	104	961544192	60	55958
2026-01-05 02:40:59.60	337.27	2.69	-48.7	-63.9	3.6	1.51e+00	0	28	104	961544192	60	56492
2026-01-05 02:41:00.61	337.35	2.63	-48.8	-64.0	3.6	1.51e+00	0	28	104	961544192	60	57010
2026-01-05 02:41:01.62	337.43	2.58	-49.0	-64.2	3.6	1.51e+00	0	28	104	961544192	60	58304
2026-01-05 02:41:02.63	337.51	2.53	-49.0	-64.2	3.6	1.51e+00	0	28	104	961544192	60	58809
2026-01-05 02:41:03.64	337.59	2.47	-49.2	-64.5	3.6	1.51e+00	0	28	104	961544192	60	60966
2026-01-05 02:41:04.65	337.67	2.42	-48.5	-64.0	3.6	1.51e+00	0	28	104	961544192	60	57136
2026-01-05 02:41:05.66	337.75	2.37	-48.9	-64.2	3.6	1.51e+00	0	28	104	961544192	60	58735
2026-01-05 02:41:06.67	337.83	2.31	-49.0	-64.2	3.6	1.51e+00	0	28	104	961544192	60	58461
2026-01-05 02:41:07.68	337.91	2.26	-48.9	-64.1	3.6	1.51e+00	0	28	104	961544192	60	58228
2026-01-05 02:41:08.69	337.99	2.21	-49.0	-64.2	3.6	1.51e+00	0	28	104	961544192	60	58719
2026-01-05 02:41:09.70	338.07	2.15	-49.0	-64.2	3.6	1.51e+00	0	28	104	961544192	60	58308
2026-01-05 02:41:10.71	338.14	2.10	-48.7	-63.9	3.6	1.51e+00	0	28	104	961544192	60	56473
2026-01-05 02:41:11.72	338.22	2.05	-48.8	-64.1	3.6	1.51e+00	0	28	104	961544192	60	57728
2026-01-05 02:41:12.73	338.30	1.99	-49.1	-64.2	3.6	1.51e+00	0	28	104	961544192	60	58860
2026-01-05 02:41:13.74	338.38	1.94	-48.8	-64.0	3.6	1.51e+00	0	28	104	961544192	60	57083
2026-01-05 02:41:14.74	338.45	1.89	-49.0	-64.1	3.6	1.51e+00	0	28	104	961544192	60	58145
2026-01-05 02:41:15.75	338.53	1.83	-48.9	-64.0	3.6	1.51e+00	0	28	104	961544192	60	57464
2026-01-05 02:41:16.76	338.61	1.78	-49.2	-64.4	3.6	1.51e+00	0	28	104	961544192	60	59669
2026-01-05 02:41:17.77	338.68	1.73	-48.9	-64.0	3.6	1.51e+00	0	28	104	961544192	60	57291
2026-01-05 02:41:18.78	338.76	1.68	-49.5	-64.7	3.6	1.51e+00	0	28	104	961544192	60	61915
2026-01-05 02:41:19.79	338.84	1.62	-49.1	-64.3	3.6	1.51e+00	0	28	104	961544192	60	59165
2026-01-05 02:41:20.80	338.91	1.57	-48.9	-64.0	3.6	1.51e+00	0	28	104	961544192	60	57409
2026-01-05 02:41:21.81	338.99	1.52	-48.8	-63.9	3.6	1.51e+00	0	28	104	961544192	60	56813
2026-01-05 02:41:22.82	339.06	1.46	-48.7	-63.9	3.6	1.51e+00	0	28	104	961544192	60	56539
2026-01-05 02:41:23.83	339.14	1.41	-49.0	-64.2	3.6	1.51e+00	0	28	104	961544192	60	58441
2026-01-05 02:41:24.84	339.21	1.36	-49.2	-64.3	3.6	1.51e+00	0	28	104	961544192	60	59492
2026-01-05 02:41:25.85	339.29	1.31	-49.5	-64.7	3.6	1.51e+00	0	28	104	961544192	60	61859
2026-01-05 02:41:26.86	339.36	1.26	-49.0	-64.2	3.6	1.51e+00	0	28	104	961544192	60	58592
2026-01-05 02:41:27.87	339.44	1.20	-48.8	-64.0	3.6	1.51e+00	0	28	104	961544192	60	57328
2026-01-05 02:41:28.87	339.51	1.15	-48.9	-64.1	3.6	1.51e+00	0	28	104	961544192	60	57724
2026-01-05 02:41:29.88	339.58	1.10	-49.1	-64.3	3.6	1.51e+00	0	28	104	961544192	60	59052
2026-01-05 02:41:30.89	339.66	1.05	-49.1	-64.2	3.6	1.51e+00	0	28	104	961544192	60	58742
2026-01-05 02:41:31.90	339.73	0.99	-49.4	-64.5	3.6	1.51e+00	0	28	104	961544192	60	60799
2026-01-05 02:41:32.91	339.80	0.94	-50.0	-65.1	3.6	1.51e+00	0	28	104	961544192	60	65387
2026-01-05 02:41:33.92	339.87	0.89	-49.6	-64.7	3.6	1.51e+00	0	28	104	961544192	60	62394
2026-01-05 02:41:34.93	339.95	0.84	-49.0	-64.2	3.6	1.51e+00	0	28	104	961544192	60	58466
2026-01-05 02:41:35.94	340.02	0.79	-50.5	-65.7	3.6	1.51e+00	0	28	104	961544192	60	69752
2026-01-05 02:41:36.95	340.09	0.74	-49.4	-64.5	3.6	1.51e+00	0	28	104	961544192	60	60970
2026-01-05 02:41:37.96	340.16	0.68	-49.0	-64.2	3.6	1.51e+00	0	28	104	961544192	60	58652
2026-01-05 02:41:38.97	340.23	0.63	-49.6	-64.8	3.6	1.51e+00	0	28	104	961544192	60	62647
2026-01-05 02:41:39.98	340.31	0.58	-49.3	-64.5	3.6	1.51e+00	0	29	104	961544192	60	60851
2026-01-05 02:41:41.00	340.38	0.53	-49.1	-64.2	3.6	1.51e+00	0	28	104	961544192	60	58835
2026-01-05 02:41:42.00	340.45	0.48	-49.5	-64.7	3.6	1.51e+00	0	28	104	961544192	60	61982
2026-01-05 02:41:43.01	340.52	0.43	-49.1	-64.3	3.6	1.51e+00	0	28	104	961544192	60	59427
2026-01-05 02:41:44.02	340.59	0.38	-49.4	-64.5	3.6	1.51e+00	0	28	104	961544192	60	60960
2026-01-05 02:41:45.03	340.66	0.32	-49.6	-64.8	3.6	1.51e+00	0	28	104	961544192	60	62988
2026-01-05 02:41:46.04	340.73	0.27	-49.0	-64.2	3.6	1.51e+00	0	28	104	961544192	60	58872
2026-01-05 02:41:47.05	340.80	0.22	-49.8	-65.0	3.6	1.51e+00	0	28	104	961544192	60	63952
2026-01-05 02:41:48.06	340.87	0.17	-49.3	-64.4	3.6	1.51e+00	0	28	104	961544192	60	60303
2026-01-05 02:41:49.07	340.94	0.12	-50.5	-65.6	3.6	1.51e+00	0	28	104	961544192	60	69086
2026-01-05 02:41:50.08	341.01	0.07	-49.5	-64.7	3.6	1.51e+00	0	28	104	961544192	60	62059
2026-01-05 02:41:51.09	341.07	0.02	-49.7	-64.9	3.6	1.51e+00	0	28	104	961544192	60	63259
2026-01-05 02:41:52.10	341.14	-0.03	-49.0	-64.2	3.6	1.51e+00	0	28	104	961544192	60	58771
2026-01-05 02:41:53.11	341.21	-0.08	-49.1	-64.3	3.6	1.51e+00	0	28	104	961544192	60	58969

#Closed at: 2026-01-05 02:41:54
#Recorded file [961 MB]: D:/lorett/data/35029_260105_143056.dat