passes_logs/2026/01/05/R4.6S_Anadyr/R4.6S_Anadyr__20260105_004554_SUOMI_NPP_rec.log

#Pass ID: 20260105_004554_SUOMI NPP
#Satellite: SUOMI NPP
#Configuration: NPP
#almurnet v.1.7.20251203
#Start time: 2026-01-05 00:53:22

#Version: 2.2.20231116
#Station: R4.6S_Anadyr
#Location: 177.4865 lon 64.73178 lat
#TLE: 1 37849U 11061A   26001.07732418  .00000182  00000+0  10735-3 0  9990
#TLE: 2 37849  98.7795 303.2470 0002580  87.2016 272.9455 14.19520779734739

#Time	Az	El	Level	Level2	SNR	BER	BlckErr	Temp	State	Recorded	gain1	gain2
2026-01-05 00:53:22.47	236.68	64.37	-49.2	-67.0	3.5	3.03e+01	0	30	0	0	60	86152
2026-01-05 00:53:23.48	237.73	64.50	-48.9	-64.1	3.6	1.51e+00	0	31	104	0	60	58109
2026-01-05 00:53:24.49	238.80	64.62	-48.7	-64.0	3.6	1.51e+00	0	31	104	0	60	57285
2026-01-05 00:53:25.50	239.88	64.73	-48.8	-63.9	3.6	1.51e+00	0	31	104	0	60	56869
2026-01-05 00:53:26.51	240.97	64.84	-48.8	-64.0	3.6	1.51e+00	0	31	104	0	60	57177
2026-01-05 00:53:27.52	242.07	64.93	-48.7	-64.1	3.6	1.51e+00	0	31	104	0	60	58129
2026-01-05 00:53:28.53	243.17	65.02	-48.6	-64.0	3.6	1.51e+00	0	31	104	0	60	57585
2026-01-05 00:53:29.54	244.29	65.10	-48.5	-63.9	3.6	1.51e+00	0	31	104	0	60	56526
2026-01-05 00:53:30.55	245.41	65.17	-48.5	-63.9	3.6	1.51e+00	0	31	104	0	60	56762
2026-01-05 00:53:31.56	246.54	65.23	-48.5	-64.0	3.6	1.51e+00	0	31	104	0	60	57144
2026-01-05 00:53:32.57	247.68	65.29	-48.4	-63.9	3.6	1.51e+00	0	31	104	0	60	56569
2026-01-05 00:53:33.58	248.82	65.33	-48.6	-64.0	3.6	1.51e+00	0	31	104	0	60	57575
2026-01-05 00:53:34.59	249.96	65.37	-48.5	-63.9	3.6	1.51e+00	0	31	104	0	60	56898
2026-01-05 00:53:35.60	251.11	65.40	-48.5	-64.0	3.6	1.51e+00	0	31	104	0	60	57132
2026-01-05 00:53:36.61	252.26	65.42	-48.8	-64.2	3.6	1.51e+00	0	31	104	0	60	58553
2026-01-05 00:53:37.62	253.42	65.43	-48.6	-64.1	3.6	1.51e+00	0	31	104	0	60	57816
2026-01-05 00:53:38.63	254.57	65.43	-48.7	-64.1	3.6	1.51e+00	0	31	104	0	60	58164
2026-01-05 00:53:39.64	255.72	65.42	-48.9	-64.3	3.6	1.51e+00	0	31	104	0	60	59575
2026-01-05 00:53:40.65	256.87	65.40	-48.6	-64.0	3.6	1.51e+00	0	31	104	0	60	57294
2026-01-05 00:53:41.66	258.02	65.38	-48.8	-64.2	3.6	1.51e+00	0	31	104	0	60	58552
2026-01-05 00:53:42.67	259.17	65.34	-48.9	-64.3	3.6	1.51e+00	0	31	104	0	60	59446
2026-01-05 00:53:43.68	260.31	65.30	-48.6	-64.1	3.6	1.51e+00	0	31	104	0	60	57656
2026-01-05 00:53:44.69	261.45	65.25	-48.5	-64.0	3.6	1.51e+00	0	31	104	0	60	57075
2026-01-05 00:53:45.70	262.58	65.19	-49.2	-64.6	3.6	1.51e+00	0	31	104	0	60	61632
2026-01-05 00:53:46.71	263.70	65.12	-49.0	-64.4	3.6	1.51e+00	0	31	104	0	60	59735
2026-01-05 00:53:47.72	264.82	65.04	-49.5	-64.9	3.6	1.51e+00	0	31	104	0	60	63489
2026-01-05 00:53:48.73	265.93	64.96	-49.0	-64.4	3.6	1.51e+00	0	31	104	0	60	60191
2026-01-05 00:53:49.74	267.03	64.86	-49.1	-64.5	3.6	1.51e+00	0	31	104	0	60	60821
2026-01-05 00:53:50.75	268.12	64.76	-49.1	-64.5	3.6	1.51e+00	0	31	104	0	60	60545
2026-01-05 00:53:51.76	269.20	64.65	-49.1	-64.5	3.6	1.51e+00	0	31	104	0	60	60578
2026-01-05 00:53:52.77	270.27	64.53	-48.9	-64.3	3.6	1.51e+00	0	31	104	0	60	58966
2026-01-05 00:53:53.78	271.33	64.41	-48.8	-64.1	3.6	1.51e+00	0	31	104	0	60	58257
2026-01-05 00:53:54.79	272.38	64.28	-48.7	-64.0	3.6	1.51e+00	0	31	104	0	60	57538
2026-01-05 00:53:55.80	273.41	64.14	-48.7	-63.9	3.6	1.51e+00	0	31	104	0	60	56871
2026-01-05 00:53:56.81	274.43	63.99	-48.9	-64.2	3.6	1.51e+00	0	31	104	0	60	58514
2026-01-05 00:53:57.82	275.44	63.83	-48.8	-64.0	3.6	1.51e+00	0	31	104	0	60	57380
2026-01-05 00:53:58.83	276.44	63.67	-48.6	-64.0	3.6	1.51e+00	0	31	104	0	60	57137
2026-01-05 00:53:59.84	277.42	63.51	-48.9	-64.2	3.6	1.51e+00	0	31	104	0	60	58456
2026-01-05 00:54:00.85	278.38	63.33	-48.8	-64.2	3.6	1.51e+00	0	31	104	0	60	58418
2026-01-05 00:54:01.86	279.34	63.15	-48.8	-64.1	3.6	1.51e+00	0	31	104	0	60	57871
2026-01-05 00:54:02.87	280.28	62.97	-48.7	-63.9	3.6	1.51e+00	0	31	104	0	60	56903
2026-01-05 00:54:03.88	281.20	62.78	-49.1	-64.4	3.6	1.51e+00	0	31	104	0	60	60081
2026-01-05 00:54:04.89	282.11	62.58	-49.1	-64.5	3.6	1.51e+00	0	31	104	0	60	60400
2026-01-05 00:54:05.89	282.99	62.38	-49.0	-64.3	3.6	1.51e+00	0	31	104	0	60	59476
2026-01-05 00:54:06.90	283.87	62.17	-49.1	-64.2	3.6	1.51e+00	0	31	104	0	60	58573
2026-01-05 00:54:07.91	284.74	61.96	-49.0	-64.2	3.6	1.51e+00	0	31	104	0	60	58737
2026-01-05 00:54:08.92	285.59	61.75	-48.7	-64.0	3.6	1.51e+00	0	31	104	0	60	57471
2026-01-05 00:54:09.93	286.42	61.52	-48.7	-63.7	3.6	1.51e+00	0	31	104	0	60	55197
2026-01-05 00:54:10.94	287.24	61.30	-48.8	-63.9	3.6	1.51e+00	0	31	104	0	60	56517
2026-01-05 00:54:11.95	288.05	61.07	-48.6	-62.8	3.6	1.51e+00	0	31	104	0	60	50078
2026-01-05 00:54:12.96	288.84	60.84	-48.5	-63.7	3.6	1.51e+00	0	31	104	0	60	55562
2026-01-05 00:54:13.97	289.61	60.60	-48.9	-63.7	3.6	1.51e+00	0	31	104	0	60	55395
2026-01-05 00:54:14.98	290.38	60.36	-48.7	-63.7	3.6	1.51e+00	0	31	104	0	60	55249
2026-01-05 00:54:15.99	291.12	60.11	-48.5	-61.2	3.8	1.48e+00	0	31	104	0	60	41274
2026-01-05 00:54:17.00	291.86	59.86	-48.7	-63.5	3.6	1.51e+00	0	31	104	0	60	54083
2026-01-05 00:54:18.01	292.58	59.61	-48.5	-61.5	3.6	1.51e+00	0	31	104	0	60	42714
2026-01-05 00:54:19.02	293.28	59.36	-46.9	-52.0	11.0	9.76e-01	0	31	104	0	60	14455
2026-01-05 00:54:20.03	293.97	59.10	-35.4	-36.1	25.2	0.00e+00	0	31	0	1048576	44	5783
2026-01-05 00:54:21.04	294.65	58.84	-49.2	-64.5	3.6	1.06e+00	0	31	104	2097152	60	60525
2026-01-05 00:54:22.05	295.32	58.58	-47.9	-55.4	9.2	5.07e-01	0	31	104	2097152	60	21396
2026-01-05 00:54:23.06	295.97	58.32	-45.0	-47.7	15.2	0.00e+00	0	31	0	3145728	60	8819
2026-01-05 00:54:24.07	296.61	58.05	-48.3	-59.7	3.8	8.16e-01	0	31	104	4194304	60	34735
2026-01-05 00:54:25.07	297.23	57.79	-42.1	-43.7	18.8	7.00e-07	0	31	0	4194304	54	7838
2026-01-05 00:54:26.09	297.85	57.51	-38.8	-39.8	22.6	0.00e+00	0	31	0	6291456	50	6295
2026-01-05 00:54:27.10	298.45	57.24	-38.3	-39.3	22.9	0.00e+00	0	31	0	8388608	50	5911
2026-01-05 00:54:28.10	299.04	56.97	-37.7	-38.7	22.9	0.00e+00	0	31	0	10485760	50	5552
2026-01-05 00:54:29.11	299.62	56.70	-38.6	-39.6	22.2	0.00e+00	0	31	0	11534336	48	6911
2026-01-05 00:54:30.12	300.18	56.42	-37.3	-38.2	23.0	0.00e+00	0	31	0	13631488	48	5895
2026-01-05 00:54:31.13	300.74	56.14	-38.6	-39.5	23.3	0.00e+00	0	31	0	15728640	50	6098
2026-01-05 00:54:32.14	301.29	55.87	-37.3	-38.2	23.7	0.00e+00	0	31	0	17825792	48	5851
2026-01-05 00:54:33.15	301.82	55.59	-37.3	-38.1	24.0	0.00e+00	0	31	0	19922944	46	6491
2026-01-05 00:54:34.16	302.34	55.31	-36.8	-37.7	24.3	0.00e+00	0	31	0	20971520	46	6183
2026-01-05 00:54:35.17	302.86	55.02	-36.6	-37.4	24.4	0.00e+00	0	31	0	23068672	46	5987
2026-01-05 00:54:36.18	303.36	54.74	-35.5	-36.3	25.1	0.00e+00	0	31	0	25165824	44	5921
2026-01-05 00:54:37.19	303.86	54.46	-36.0	-36.7	24.8	0.00e+00	0	31	0	27262976	44	6244
2026-01-05 00:54:38.20	304.34	54.18	-37.5	-38.4	23.6	0.00e+00	0	31	0	29360128	48	5976
2026-01-05 00:54:39.21	304.82	53.89	-38.5	-39.5	22.7	0.00e+00	0	31	0	30408704	48	6832
2026-01-05 00:54:40.22	305.28	53.61	-37.7	-38.6	23.7	0.00e+00	0	31	0	32505856	48	6150
2026-01-05 00:54:41.23	305.74	53.33	-35.6	-36.4	25.0	0.00e+00	0	31	0	34603008	46	5327
2026-01-05 00:54:42.24	306.19	53.04	-35.1	-35.8	25.3	0.00e+00	0	31	0	36700160	44	5611
2026-01-05 00:54:43.25	306.63	52.76	-36.9	-37.7	24.4	0.00e+00	0	31	0	38797312	44	6970
2026-01-05 00:54:44.26	307.06	52.47	-36.7	-37.5	24.5	0.00e+00	0	31	0	39845888	46	6045
2026-01-05 00:54:45.27	307.49	52.19	-36.2	-37.0	24.8	0.00e+00	0	31	0	41943040	46	5705
2026-01-05 00:54:46.28	307.90	51.91	-36.2	-37.0	24.5	7.00e-07	0	31	0	44040192	46	5719
2026-01-05 00:54:47.29	308.31	51.62	-37.6	-38.4	24.2	0.00e+00	0	31	0	46137344	46	6753
2026-01-05 00:54:48.30	308.71	51.34	-36.2	-37.0	24.6	0.00e+00	0	31	0	48234496	46	5727
2026-01-05 00:54:49.30	309.10	51.06	-35.8	-36.6	25.0	0.00e+00	0	31	0	49283072	44	6124
2026-01-05 00:54:50.31	309.48	50.78	-36.5	-37.3	23.0	0.00e+00	0	31	0	51380224	44	6624
2026-01-05 00:54:51.32	309.86	50.49	-36.8	-37.6	23.8	0.00e+00	0	31	0	53477376	46	6142
2026-01-05 00:54:52.33	310.23	50.21	-37.4	-38.3	23.8	0.00e+00	0	31	0	55574528	46	6684
2026-01-05 00:54:53.34	310.60	49.93	-37.0	-37.8	23.9	0.00e+00	0	31	0	57671680	46	6275
2026-01-05 00:54:54.35	310.96	49.65	-36.9	-37.8	24.0	0.00e+00	0	31	0	58720256	46	6257
2026-01-05 00:54:55.36	311.31	49.37	-38.3	-39.3	23.0	0.00e+00	0	31	0	60817408	48	6667
2026-01-05 00:54:56.37	311.65	49.09	-38.8	-39.9	22.5	0.00e+00	0	31	0	62914560	50	6335
2026-01-05 00:54:57.38	311.99	48.81	-38.7	-39.7	22.7	0.00e+00	0	31	0	65011712	50	6238
2026-01-05 00:54:58.39	312.33	48.53	-38.1	-39.1	23.2	0.00e+00	0	31	0	67108864	50	5773
2026-01-05 00:54:59.40	312.65	48.25	-37.2	-38.1	23.7	0.00e+00	0	31	0	69206016	48	5793
2026-01-05 00:55:00.41	312.97	47.98	-37.5	-38.4	23.9	0.00e+00	0	31	0	70254592	48	6015
2026-01-05 00:55:01.42	313.29	47.70	-37.7	-38.6	23.5	0.00e+00	0	31	0	72351744	48	6158
2026-01-05 00:55:02.43	313.60	47.43	-38.0	-38.9	23.4	0.00e+00	0	31	0	74448896	48	6378
2026-01-05 00:55:03.44	313.91	47.15	-38.8	-39.8	22.8	0.00e+00	0	31	0	76546048	50	6275
2026-01-05 00:55:04.45	314.21	46.88	-39.4	-40.5	21.8	0.00e+00	0	31	0	78643200	50	6784
2026-01-05 00:55:05.46	314.50	46.61	-40.5	-41.7	20.8	0.00e+00	0	31	0	79691776	52	6992
2026-01-05 00:55:06.47	314.79	46.34	-40.7	-42.0	20.6	0.00e+00	0	31	0	81788928	54	6408
2026-01-05 00:55:07.48	315.07	46.07	-39.8	-40.9	21.5	0.00e+00	0	31	0	83886080	54	5660
2026-01-05 00:55:08.48	315.35	45.80	-38.7	-39.6	22.8	0.00e+00	0	31	0	85983232	52	5475
2026-01-05 00:55:09.49	315.63	45.53	-37.7	-38.6	23.4	0.00e+00	0	31	0	88080384	50	5478
2026-01-05 00:55:10.50	315.90	45.27	-37.9	-38.9	23.1	0.00e+00	0	31	0	89128960	48	6333
2026-01-05 00:55:11.51	316.17	45.00	-38.0	-38.9	23.2	0.00e+00	0	31	0	91226112	48	6390
2026-01-05 00:55:12.52	316.43	44.74	-38.1	-39.1	23.0	0.00e+00	0	31	0	93323264	48	6487
2026-01-05 00:55:13.53	316.69	44.47	-39.0	-40.0	22.2	0.00e+00	0	31	0	95420416	50	6449
2026-01-05 00:55:14.54	316.94	44.21	-39.8	-40.9	21.4	0.00e+00	0	31	0	97517568	50	7161
2026-01-05 00:55:15.55	317.19	43.95	-40.5	-41.7	21.0	0.00e+00	0	31	0	98566144	52	7007
2026-01-05 00:55:16.56	317.44	43.69	-40.2	-41.3	21.3	0.00e+00	0	31	0	100663296	52	6679
2026-01-05 00:55:17.57	317.68	43.43	-39.0	-40.0	22.4	0.00e+00	0	31	0	102760448	52	5711
2026-01-05 00:55:18.58	317.92	43.17	-38.2	-39.1	23.0	0.00e+00	0	31	0	104857600	50	5805
2026-01-05 00:55:19.59	318.15	42.92	-38.0	-38.8	23.1	0.00e+00	0	31	0	106954752	50	5620
2026-01-05 00:55:20.60	318.38	42.66	-38.9	-39.9	22.3	0.00e+00	0	31	0	108003328	50	6323
2026-01-05 00:55:21.61	318.61	42.41	-39.2	-40.2	22.1	0.00e+00	0	31	0	110100480	50	6575
2026-01-05 00:55:22.62	318.83	42.16	-39.1	-40.2	22.1	0.00e+00	0	31	0	112197632	50	6589
2026-01-05 00:55:23.63	319.05	41.90	-38.2	-39.2	23.0	0.00e+00	0	31	0	114294784	50	5888
2026-01-05 00:55:24.64	319.27	41.65	-37.1	-38.0	23.8	0.00e+00	0	31	0	116391936	48	5758
2026-01-05 00:55:25.65	319.48	41.41	-36.3	-37.1	24.6	0.00e+00	0	31	0	117440512	46	5804
2026-01-05 00:55:26.66	319.69	41.16	-35.1	-35.8	25.3	0.00e+00	0	31	0	119537664	44	5571
2026-01-05 00:55:27.67	319.90	40.91	-35.4	-36.1	25.1	0.00e+00	0	31	0	121634816	44	5826
2026-01-05 00:55:28.68	320.10	40.67	-36.3	-37.1	24.4	0.00e+00	0	31	0	123731968	44	6523
2026-01-05 00:55:29.69	320.31	40.42	-38.2	-39.2	22.8	0.00e+00	0	31	0	125829120	48	6540
2026-01-05 00:55:30.70	320.50	40.18	-39.7	-40.8	21.6	0.00e+00	0	31	0	126877696	50	7068
2026-01-05 00:55:31.71	320.70	39.94	-40.0	-41.2	21.3	0.00e+00	0	31	0	128974848	52	6588
2026-01-05 00:55:32.72	320.89	39.70	-39.6	-40.7	21.1	0.00e+00	0	31	0	131072000	52	6245
2026-01-05 00:55:33.72	321.08	39.46	-39.2	-40.2	22.1	0.00e+00	0	31	0	133169152	52	5885
2026-01-05 00:55:34.73	321.27	39.23	-37.5	-38.4	23.6	0.00e+00	0	31	0	135266304	48	5980
2026-01-05 00:55:35.74	321.45	38.99	-36.0	-36.7	24.6	0.00e+00	0	31	0	137363456	46	5559
2026-01-05 00:55:36.75	321.63	38.76	-35.1	-35.9	25.3	0.00e+00	0	31	0	138412032	44	5635
2026-01-05 00:55:37.76	321.81	38.52	-35.0	-35.8	25.2	0.00e+00	0	31	0	140509184	44	5585
2026-01-05 00:55:38.77	321.99	38.29	-36.1	-36.9	24.5	0.00e+00	0	31	0	142606336	44	6360
2026-01-05 00:55:39.78	322.17	38.06	-37.6	-38.5	23.3	0.00e+00	0	31	0	144703488	46	6815
2026-01-05 00:55:40.79	322.34	37.83	-39.9	-41.2	21.3	0.00e+00	0	31	0	146800640	50	7359
2026-01-05 00:55:41.80	322.51	37.60	-40.6	-42.0	20.6	0.00e+00	0	31	0	147849216	52	7229
2026-01-05 00:55:42.81	322.68	37.38	-39.6	-40.8	21.6	0.00e+00	0	31	0	149946368	52	6313
2026-01-05 00:55:43.82	322.84	37.15	-38.7	-39.7	22.7	0.00e+00	0	31	0	152043520	52	5560
2026-01-05 00:55:44.83	323.00	36.93	-37.7	-38.7	23.6	0.00e+00	0	31	0	154140672	48	6181
2026-01-05 00:55:45.83	323.16	36.71	-36.4	-37.2	24.3	0.00e+00	0	31	0	155189248	46	5871
2026-01-05 00:55:46.84	323.32	36.49	-36.3	-37.1	24.4	0.00e+00	0	31	0	157286400	46	5810
2026-01-05 00:55:47.85	323.48	36.27	-36.6	-37.4	24.2	0.00e+00	0	31	0	159383552	46	5996
2026-01-05 00:55:48.86	323.63	36.05	-37.6	-38.5	23.3	0.00e+00	0	31	0	161480704	46	6808
2026-01-05 00:55:49.87	323.79	35.83	-38.7	-39.7	22.5	0.00e+00	0	31	0	163577856	48	6952
2026-01-05 00:55:50.88	323.94	35.61	-39.2	-40.3	22.0	0.00e+00	0	31	0	165675008	50	6669
2026-01-05 00:55:51.89	324.09	35.40	-39.3	-40.4	21.9	0.00e+00	0	31	0	166723584	50	6723
2026-01-05 00:55:52.90	324.23	35.18	-39.2	-40.3	22.0	0.00e+00	0	31	0	168820736	50	6639
2026-01-05 00:55:53.91	324.38	34.97	-39.0	-40.0	22.4	0.00e+00	0	31	0	170917888	50	6417
2026-01-05 00:55:54.92	324.52	34.76	-38.4	-39.4	22.8	0.00e+00	0	31	0	173015040	50	6004
2026-01-05 00:55:55.93	324.66	34.55	-38.1	-39.0	23.3	0.00e+00	0	31	0	175112192	50	5751
2026-01-05 00:55:56.94	324.80	34.34	-37.2	-38.0	23.9	0.00e+00	0	31	0	176160768	48	5742
2026-01-05 00:55:57.95	324.94	34.13	-37.0	-37.9	23.8	0.00e+00	0	31	0	178257920	48	5635
2026-01-05 00:55:58.96	325.08	33.92	-37.1	-37.9	23.9	0.00e+00	0	31	0	180355072	48	5655
2026-01-05 00:55:59.97	325.21	33.72	-37.2	-38.1	23.9	0.00e+00	0	31	0	182452224	48	5774
2026-01-05 00:56:00.98	325.35	33.52	-37.7	-38.5	23.6	0.00e+00	0	31	0	184549376	48	6094
2026-01-05 00:56:01.99	325.48	33.31	-38.1	-39.0	22.9	0.00e+00	0	31	0	185597952	48	6420
2026-01-05 00:56:03.00	325.61	33.11	-39.4	-40.4	22.7	0.00e+00	0	31	0	187695104	50	6698
2026-01-05 00:56:04.01	325.74	32.91	-38.1	-39.0	23.3	0.00e+00	0	31	0	189792256	50	5715
2026-01-05 00:56:05.02	325.86	32.71	-38.1	-39.0	23.3	0.00e+00	0	31	0	191889408	50	5723
2026-01-05 00:56:06.03	325.99	32.51	-37.8	-38.7	23.4	0.00e+00	0	31	0	193986560	50	5520
2026-01-05 00:56:07.04	326.11	32.32	-37.9	-38.8	23.5	0.00e+00	0	31	0	195035136	48	6280
2026-01-05 00:56:08.05	326.23	32.12	-38.7	-39.6	23.4	0.00e+00	0	31	0	197132288	48	6875
2026-01-05 00:56:09.06	326.36	31.92	-38.0	-38.8	23.5	0.00e+00	0	31	0	199229440	48	6288
2026-01-05 00:56:10.07	326.48	31.73	-38.2	-39.1	23.0	0.00e+00	0	31	0	201326592	48	6513
2026-01-05 00:56:11.08	326.59	31.54	-38.4	-39.3	22.8	0.00e+00	0	31	0	203423744	48	6668
2026-01-05 00:56:12.09	326.71	31.35	-39.2	-40.3	22.0	0.00e+00	0	31	0	205520896	50	6623
2026-01-05 00:56:13.10	326.83	31.16	-39.2	-40.2	22.0	0.00e+00	0	31	0	206569472	50	6608
2026-01-05 00:56:14.11	326.94	30.97	-39.2	-40.2	22.0	0.00e+00	0	31	0	208666624	50	6595
2026-01-05 00:56:15.12	327.05	30.78	-40.3	-41.5	21.4	0.00e+00	0	31	0	210763776	52	6779
2026-01-05 00:56:16.13	327.17	30.59	-39.7	-40.8	21.7	0.00e+00	0	31	0	212860928	52	6285
2026-01-05 00:56:17.14	327.28	30.41	-39.9	-41.0	21.9	0.00e+00	0	31	0	214958080	52	6462
2026-01-05 00:56:18.15	327.39	30.22	-39.6	-40.6	22.2	0.00e+00	0	31	0	216006656	52	6160
2026-01-05 00:56:19.16	327.49	30.04	-38.5	-39.5	22.7	0.00e+00	0	31	0	218103808	50	6053
2026-01-05 00:56:20.17	327.60	29.86	-38.7	-39.7	22.7	0.00e+00	0	31	0	220200960	50	6207
2026-01-05 00:56:21.18	327.71	29.68	-38.7	-39.7	22.8	0.00e+00	0	31	0	222298112	50	6175
2026-01-05 00:56:22.19	327.81	29.49	-38.6	-39.5	22.8	0.00e+00	0	31	0	224395264	50	6051
2026-01-05 00:56:23.20	327.91	29.32	-38.5	-39.4	23.1	0.00e+00	0	31	0	225443840	50	6027
2026-01-05 00:56:24.21	328.02	29.14	-38.8	-39.8	22.7	0.00e+00	0	31	0	227540992	50	6252
2026-01-05 00:56:25.22	328.12	28.96	-39.1	-40.1	22.5	0.00e+00	0	31	0	229638144	50	6509
2026-01-05 00:56:26.23	328.22	28.78	-39.1	-40.1	22.3	0.00e+00	0	31	0	231735296	50	6521
2026-01-05 00:56:27.24	328.32	28.61	-39.2	-40.3	22.0	0.00e+00	0	31	0	233832448	50	6624
2026-01-05 00:56:28.25	328.42	28.43	-39.1	-40.2	22.2	0.00e+00	0	31	0	234881024	50	6557
2026-01-05 00:56:29.26	328.51	28.26	-39.7	-40.8	22.0	0.00e+00	0	31	0	236978176	50	7008
2026-01-05 00:56:30.27	328.61	28.09	-39.2	-40.3	21.9	0.00e+00	0	31	0	239075328	50	6621
2026-01-05 00:56:31.28	328.71	27.92	-38.9	-40.0	22.4	0.00e+00	0	31	0	241172480	50	6406
2026-01-05 00:56:32.29	328.80	27.75	-39.3	-40.4	21.9	0.00e+00	0	31	0	243269632	50	6715
2026-01-05 00:56:33.30	328.89	27.58	-38.3	-39.3	22.6	0.00e+00	0	31	0	244318208	50	5934
2026-01-05 00:56:34.31	328.99	27.41	-38.3	-39.2	22.7	0.00e+00	0	31	0	246415360	50	5882
2026-01-05 00:56:35.32	329.08	27.24	-38.0	-39.0	22.9	0.00e+00	0	31	0	248512512	50	5712
2026-01-05 00:56:36.33	329.17	27.08	-37.4	-38.3	23.4	0.00e+00	0	31	0	250609664	48	5907
2026-01-05 00:56:37.34	329.26	26.91	-37.6	-38.5	23.3	0.00e+00	0	31	0	252706816	48	6092
2026-01-05 00:56:38.35	329.35	26.75	-37.2	-38.1	23.6	0.00e+00	0	31	0	253755392	48	5775
2026-01-05 00:56:39.36	329.43	26.58	-37.4	-38.3	23.3	0.00e+00	0	31	0	255852544	48	5916
2026-01-05 00:56:40.37	329.52	26.42	-37.4	-38.3	23.3	0.00e+00	0	31	0	257949696	48	5912
2026-01-05 00:56:41.38	329.61	26.26	-37.6	-38.6	23.1	0.00e+00	0	31	0	260046848	48	6106
2026-01-05 00:56:42.39	329.69	26.10	-37.6	-38.5	23.2	0.00e+00	0	31	0	262144000	48	6098
2026-01-05 00:56:43.39	329.78	25.94	-37.8	-38.8	23.1	0.00e+00	0	31	0	263192576	48	6281
2026-01-05 00:56:44.40	329.86	25.78	-38.0	-39.0	23.1	0.00e+00	0	31	0	265289728	48	6433
2026-01-05 00:56:45.42	329.95	25.62	-37.6	-38.5	23.4	0.00e+00	0	31	0	267386880	48	6071
2026-01-05 00:56:46.42	330.03	25.46	-37.8	-38.7	23.1	0.00e+00	0	31	0	269484032	48	6211
2026-01-05 00:56:47.43	330.11	25.31	-37.8	-38.7	23.2	0.00e+00	0	31	0	271581184	48	6203
2026-01-05 00:56:48.44	330.19	25.15	-37.6	-38.5	23.2	0.00e+00	0	31	0	273678336	48	6099
2026-01-05 00:56:49.45	330.27	25.00	-37.8	-38.7	23.1	0.00e+00	0	31	0	274726912	48	6244
2026-01-05 00:56:50.46	330.35	24.84	-37.6	-38.5	23.3	0.00e+00	0	31	0	276824064	48	6089
2026-01-05 00:56:51.46	330.43	24.69	-37.7	-38.6	23.1	0.00e+00	0	31	0	278921216	48	6164
2026-01-05 00:56:52.47	330.50	24.54	-37.6	-38.6	23.1	0.00e+00	0	31	0	281018368	48	6128
2026-01-05 00:56:53.48	330.58	24.39	-37.6	-38.6	23.1	0.00e+00	0	31	0	282066944	48	6112
2026-01-05 00:56:54.49	330.66	24.24	-37.9	-38.9	22.9	0.00e+00	0	31	0	284164096	48	6339
2026-01-05 00:56:55.50	330.73	24.09	-37.9	-38.9	22.9	0.00e+00	0	31	0	286261248	48	6389
2026-01-05 00:56:56.51	330.81	23.94	-37.7	-38.7	23.0	0.00e+00	0	31	0	288358400	48	6209
2026-01-05 00:56:57.52	330.88	23.79	-37.7	-38.6	23.1	0.00e+00	0	31	0	290455552	48	6164
2026-01-05 00:56:58.53	330.96	23.64	-37.5	-38.4	23.2	0.00e+00	0	31	0	291504128	48	6026
2026-01-05 00:56:59.54	331.03	23.50	-36.8	-37.7	23.8	0.00e+00	0	31	0	293601280	48	5520
2026-01-05 00:57:00.55	331.10	23.35	-36.3	-37.2	24.2	0.00e+00	0	31	0	295698432	46	5838
2026-01-05 00:57:01.56	331.17	23.21	-36.0	-36.8	24.5	0.00e+00	0	31	0	297795584	46	5610
2026-01-05 00:57:02.57	331.25	23.06	-35.5	-36.3	24.8	0.00e+00	0	31	0	299892736	44	5908
2026-01-05 00:57:03.58	331.32	22.92	-35.0	-35.7	25.2	0.00e+00	0	31	0	301989888	44	5559
2026-01-05 00:57:04.59	331.39	22.78	-34.8	-35.5	25.3	0.00e+00	0	31	0	303038464	42	6070
2026-01-05 00:57:05.60	331.46	22.64	-34.4	-35.1	25.5	0.00e+00	0	31	0	305135616	42	5828
2026-01-05 00:57:06.61	331.52	22.49	-34.3	-35.0	25.5	0.00e+00	0	31	0	307232768	42	5755
2026-01-05 00:57:07.62	331.59	22.35	-34.2	-34.9	25.7	0.00e+00	0	31	0	309329920	42	5646
2026-01-05 00:57:08.63	331.66	22.21	-34.5	-35.2	25.5	0.00e+00	0	31	0	311427072	42	5851
2026-01-05 00:57:09.64	331.73	22.08	-34.7	-35.4	25.4	0.00e+00	0	31	0	312475648	42	6012
2026-01-05 00:57:10.65	331.79	21.94	-35.1	-35.8	25.2	0.00e+00	0	31	0	314572800	42	6301
2026-01-05 00:57:11.66	331.86	21.80	-35.2	-35.9	25.0	0.00e+00	0	31	0	316669952	42	6387
2026-01-05 00:57:12.67	331.93	21.66	-35.7	-36.4	24.8	0.00e+00	0	31	0	318767104	42	6759
2026-01-05 00:57:13.68	331.99	21.53	-35.7	-36.5	24.6	0.00e+00	0	31	0	320864256	42	6787
2026-01-05 00:57:14.69	332.06	21.39	-35.8	-36.6	24.5	0.00e+00	0	31	0	321912832	44	6163
2026-01-05 00:57:15.70	332.12	21.26	-36.1	-36.9	24.4	0.00e+00	0	31	0	324009984	44	6352
2026-01-05 00:57:16.71	332.18	21.12	-36.0	-36.9	24.4	0.00e+00	0	31	0	326107136	44	6325
2026-01-05 00:57:17.72	332.25	20.99	-36.2	-37.0	24.2	0.00e+00	0	31	0	328204288	44	6420
2026-01-05 00:57:18.73	332.31	20.86	-36.3	-37.2	24.2	0.00e+00	0	31	0	330301440	44	6557
2026-01-05 00:57:19.74	332.37	20.73	-36.4	-37.2	24.1	0.00e+00	0	31	0	331350016	44	6593
2026-01-05 00:57:20.75	332.43	20.59	-36.1	-36.9	24.3	0.00e+00	0	31	0	333447168	44	6380
2026-01-05 00:57:21.76	332.49	20.46	-36.0	-36.8	24.5	0.00e+00	0	31	0	335544320	44	6280
2026-01-05 00:57:22.77	332.55	20.33	-36.0	-36.9	24.5	0.00e+00	0	31	0	337641472	44	6324
2026-01-05 00:57:23.78	332.61	20.20	-35.7	-36.5	24.5	0.00e+00	0	31	0	339738624	44	6057
2026-01-05 00:57:24.79	332.67	20.08	-35.9	-36.7	24.5	0.00e+00	0	31	0	340787200	44	6235
2026-01-05 00:57:25.80	332.73	19.95	-36.1	-37.0	24.4	0.00e+00	0	31	0	342884352	44	6391
2026-01-05 00:57:26.80	332.79	19.82	-35.9	-36.7	24.4	0.00e+00	0	31	0	344981504	44	6221
2026-01-05 00:57:27.82	332.85	19.69	-35.9	-36.7	24.5	0.00e+00	0	31	0	347078656	44	6208
2026-01-05 00:57:28.82	332.90	19.57	-35.7	-36.6	24.5	0.00e+00	0	31	0	349175808	44	6104
2026-01-05 00:57:29.84	332.96	19.44	-35.9	-36.7	24.5	0.00e+00	0	31	0	351272960	44	6192
2026-01-05 00:57:30.84	333.02	19.32	-35.9	-36.7	24.5	0.00e+00	0	31	0	352321536	44	6208
2026-01-05 00:57:31.85	333.08	19.19	-36.0	-36.9	24.3	0.00e+00	0	31	0	354418688	44	6333
2026-01-05 00:57:32.86	333.13	19.07	-35.9	-36.7	24.3	0.00e+00	0	31	0	356515840	44	6207
2026-01-05 00:57:33.87	333.19	18.95	-36.0	-36.8	24.3	0.00e+00	0	31	0	358612992	44	6301
2026-01-05 00:57:34.88	333.24	18.82	-36.3	-37.1	24.2	0.00e+00	0	31	0	359661568	44	6520
2026-01-05 00:57:35.89	333.30	18.70	-36.5	-37.4	23.9	0.00e+00	0	31	0	361758720	44	6693
2026-01-05 00:57:36.90	333.35	18.58	-36.4	-37.2	24.1	0.00e+00	0	31	0	363855872	44	6610
2026-01-05 00:57:37.91	333.40	18.46	-36.5	-37.4	24.0	0.00e+00	0	31	0	365953024	44	6715
2026-01-05 00:57:38.92	333.46	18.34	-36.7	-37.5	23.9	0.00e+00	0	31	0	368050176	44	6826
2026-01-05 00:57:39.93	333.51	18.22	-36.8	-37.7	23.8	0.00e+00	0	31	0	369098752	46	6204
2026-01-05 00:57:40.94	333.56	18.10	-36.8	-37.7	23.7	0.00e+00	0	30	0	371195904	46	6224
2026-01-05 00:57:41.95	333.62	17.98	-37.2	-38.1	23.4	0.00e+00	0	31	0	373293056	46	6496
2026-01-05 00:57:42.96	333.67	17.86	-37.2	-38.1	23.6	0.00e+00	0	31	0	375390208	46	6482
2026-01-05 00:57:43.97	333.72	17.75	-37.2	-38.2	23.3	0.00e+00	0	31	0	377487360	46	6548
2026-01-05 00:57:44.97	333.77	17.63	-37.2	-38.1	23.5	0.00e+00	0	31	0	379584512	46	6517
2026-01-05 00:57:45.98	333.82	17.51	-37.4	-38.3	23.4	0.00e+00	0	31	0	380633088	46	6651
2026-01-05 00:57:46.99	333.87	17.40	-37.4	-38.3	23.4	0.00e+00	0	31	0	382730240	46	6668
2026-01-05 00:57:48.00	333.92	17.28	-37.3	-38.2	23.3	0.00e+00	0	31	0	384827392	46	6583
2026-01-05 00:57:49.01	333.97	17.17	-37.2	-38.1	23.5	0.00e+00	0	31	0	386924544	46	6523
2026-01-05 00:57:50.02	334.02	17.05	-37.4	-38.3	23.2	0.00e+00	0	31	0	389021696	46	6652
2026-01-05 00:57:51.03	334.07	16.94	-37.3	-38.2	23.4	0.00e+00	0	31	0	390070272	46	6603
2026-01-05 00:57:52.04	334.12	16.83	-37.0	-37.9	23.6	0.00e+00	0	31	0	392167424	46	6367
2026-01-05 00:57:53.05	334.17	16.71	-37.2	-38.1	23.4	0.00e+00	0	31	0	394264576	46	6504
2026-01-05 00:57:54.06	334.22	16.60	-36.9	-37.8	23.6	0.00e+00	0	31	0	396361728	46	6247
2026-01-05 00:57:55.07	334.27	16.49	-36.8	-37.7	23.9	0.00e+00	0	31	0	398458880	46	6174
2026-01-05 00:57:56.08	334.31	16.38	-36.4	-37.2	24.0	0.00e+00	0	31	0	399507456	46	5866
2026-01-05 00:57:57.09	334.36	16.27	-36.4	-37.2	24.1	0.00e+00	0	31	0	401604608	46	5869
2026-01-05 00:57:58.10	334.41	16.16	-36.5	-37.3	24.2	0.00e+00	0	31	0	403701760	46	5946
2026-01-05 00:57:59.11	334.45	16.05	-36.1	-36.9	24.4	0.00e+00	0	31	0	405798912	46	5679
2026-01-05 00:58:00.12	334.50	15.94	-36.1	-36.9	24.3	0.00e+00	0	31	0	407896064	46	5668
2026-01-05 00:58:01.13	334.55	15.83	-36.0	-36.8	24.3	0.00e+00	0	31	0	408944640	46	5592
2026-01-05 00:58:02.14	334.59	15.72	-35.9	-36.7	24.3	0.00e+00	0	31	0	411041792	46	5541
2026-01-05 00:58:03.15	334.64	15.61	-35.8	-36.6	24.4	0.00e+00	0	31	0	413138944	46	5499
2026-01-05 00:58:04.15	334.68	15.51	-36.0	-36.8	24.3	0.00e+00	0	31	0	415236096	46	5627
2026-01-05 00:58:05.17	334.73	15.40	-35.6	-36.4	24.5	0.00e+00	0	31	0	417333248	44	6015
2026-01-05 00:58:06.18	334.77	15.29	-35.8	-36.6	24.4	0.00e+00	0	31	0	418381824	44	6168
2026-01-05 00:58:07.19	334.82	15.19	-35.9	-36.7	24.0	0.00e+00	0	31	0	420478976	44	6193
2026-01-05 00:58:08.20	334.86	15.08	-35.8	-36.6	24.0	0.00e+00	0	31	0	422576128	44	6161
2026-01-05 00:58:09.21	334.90	14.98	-36.0	-36.8	24.1	0.00e+00	0	31	0	424673280	44	6267
2026-01-05 00:58:10.22	334.95	14.87	-36.2	-37.0	24.1	0.00e+00	0	31	0	426770432	44	6460
2026-01-05 00:58:11.23	334.99	14.77	-36.1	-37.0	24.1	0.00e+00	0	31	0	427819008	44	6412
2026-01-05 00:58:12.24	335.03	14.66	-36.2	-37.1	24.0	0.00e+00	0	31	0	429916160	44	6476
2026-01-05 00:58:13.25	335.08	14.56	-36.4	-37.2	23.9	0.00e+00	0	31	0	432013312	44	6570
2026-01-05 00:58:14.26	335.12	14.46	-36.5	-37.3	23.8	0.00e+00	0	31	0	434110464	44	6687
2026-01-05 00:58:15.27	335.16	14.35	-36.4	-37.3	23.8	0.00e+00	0	31	0	436207616	44	6635
2026-01-05 00:58:16.28	335.20	14.25	-36.6	-37.4	23.7	0.00e+00	0	31	0	437256192	44	6757
2026-01-05 00:58:17.29	335.24	14.15	-36.9	-37.8	23.6	0.00e+00	0	30	0	439353344	46	6284
2026-01-05 00:58:18.30	335.29	14.05	-37.1	-38.0	23.5	0.00e+00	0	30	0	441450496	46	6391
2026-01-05 00:58:19.31	335.33	13.95	-37.3	-38.2	23.2	0.00e+00	0	30	0	443547648	46	6546
2026-01-05 00:58:20.32	335.37	13.85	-37.2	-38.1	23.4	0.00e+00	0	30	0	445644800	46	6498
2026-01-05 00:58:21.33	335.41	13.75	-37.1	-38.0	23.5	0.00e+00	0	30	0	447741952	46	6425
2026-01-05 00:58:22.34	335.45	13.65	-37.6	-38.5	23.2	0.00e+00	0	30	0	448790528	46	6846
2026-01-05 00:58:23.35	335.49	13.55	-37.7	-38.6	23.1	0.00e+00	0	30	0	450887680	46	6880
2026-01-05 00:58:24.36	335.53	13.45	-37.6	-38.5	22.9	0.00e+00	0	31	0	452984832	48	6071
2026-01-05 00:58:25.36	335.57	13.35	-37.4	-38.3	23.1	0.00e+00	0	31	0	455081984	48	5934
2026-01-05 00:58:26.38	335.61	13.25	-37.4	-38.3	22.9	0.00e+00	0	30	0	457179136	48	5943
2026-01-05 00:58:27.39	335.65	13.15	-37.5	-38.4	23.0	0.00e+00	0	30	0	458227712	48	6031
2026-01-05 00:58:28.40	335.69	13.06	-38.0	-39.0	22.5	0.00e+00	0	30	0	460324864	48	6406
2026-01-05 00:58:29.40	335.72	12.96	-37.8	-38.8	22.6	0.00e+00	0	30	0	462422016	48	6270
2026-01-05 00:58:30.41	335.76	12.86	-38.0	-38.9	22.6	0.00e+00	0	30	0	464519168	48	6384
2026-01-05 00:58:31.42	335.80	12.77	-37.9	-38.9	22.7	0.00e+00	0	31	0	466616320	48	6364
2026-01-05 00:58:32.43	335.84	12.67	-38.2	-39.3	22.5	0.00e+00	0	30	0	467664896	48	6630
2026-01-05 00:58:33.44	335.88	12.58	-38.1	-39.2	22.4	0.00e+00	0	31	0	469762048	48	6544
2026-01-05 00:58:34.45	335.91	12.48	-38.1	-39.2	22.5	0.00e+00	0	30	0	471859200	48	6549
2026-01-05 00:58:35.46	335.95	12.39	-38.4	-39.5	22.2	0.00e+00	0	31	0	473956352	48	6774
2026-01-05 00:58:36.47	335.99	12.29	-38.4	-39.4	22.1	0.00e+00	0	30	0	476053504	48	6749
2026-01-05 00:58:37.48	336.03	12.20	-38.5	-39.6	22.1	0.00e+00	0	30	0	477102080	48	6855
2026-01-05 00:58:38.49	336.06	12.10	-38.5	-39.6	21.9	0.00e+00	0	30	0	479199232	48	6924
2026-01-05 00:58:39.50	336.10	12.01	-38.6	-39.7	21.7	0.00e+00	0	31	0	481296384	50	6236
2026-01-05 00:58:40.51	336.14	11.92	-39.4	-40.6	21.4	0.00e+00	0	30	0	483393536	50	6898
2026-01-05 00:58:41.51	336.17	11.83	-39.2	-40.3	21.4	0.00e+00	0	30	0	485490688	50	6671
2026-01-05 00:58:42.52	336.21	11.73	-39.2	-40.3	21.8	0.00e+00	0	31	0	486539264	50	6669
2026-01-05 00:58:43.53	336.24	11.64	-39.2	-40.4	21.5	0.00e+00	0	31	0	488636416	50	6711
2026-01-05 00:58:44.54	336.28	11.55	-39.4	-40.6	21.4	0.00e+00	0	31	0	490733568	50	6865
2026-01-05 00:58:45.55	336.31	11.46	-39.9	-41.2	20.8	0.00e+00	0	30	0	492830720	52	6562
2026-01-05 00:58:46.56	336.35	11.37	-39.7	-41.0	20.8	0.00e+00	0	31	0	494927872	52	6402
2026-01-05 00:58:47.56	336.38	11.28	-39.6	-40.8	21.0	0.00e+00	0	30	0	495976448	52	6292
2026-01-05 00:58:48.57	336.42	11.19	-39.6	-40.9	20.8	0.00e+00	0	30	0	498073600	52	6348
2026-01-05 00:58:49.58	336.45	11.10	-39.7	-40.9	21.0	0.00e+00	0	31	0	500170752	52	6377
2026-01-05 00:58:50.60	336.49	11.01	-39.8	-41.1	20.7	0.00e+00	0	31	0	502267904	52	6508
2026-01-05 00:58:51.61	336.52	10.92	-40.2	-41.6	20.2	0.00e+00	0	31	0	504365056	52	6861
2026-01-05 00:58:52.62	336.56	10.83	-40.2	-41.6	20.4	0.00e+00	0	31	0	505413632	52	6854
2026-01-05 00:58:53.63	336.59	10.74	-39.5	-40.7	21.0	0.00e+00	0	31	0	507510784	52	6236
2026-01-05 00:58:54.64	336.62	10.65	-39.1	-40.3	21.4	0.00e+00	0	31	0	509607936	52	5923
2026-01-05 00:58:55.65	336.66	10.56	-39.5	-40.7	21.2	0.00e+00	0	31	0	511705088	52	6216
2026-01-05 00:58:56.65	336.69	10.48	-39.1	-40.3	21.3	0.00e+00	0	31	0	513802240	52	5912
2026-01-05 00:58:57.66	336.72	10.39	-39.0	-40.2	21.5	0.00e+00	0	31	0	515899392	52	5834
2026-01-05 00:58:58.68	336.76	10.30	-38.9	-40.0	21.6	0.00e+00	0	31	0	516947968	52	5759
2026-01-05 00:58:59.68	336.79	10.22	-38.8	-39.9	21.6	0.00e+00	0	31	0	519045120	52	5684
2026-01-05 00:59:00.69	336.82	10.13	-38.6	-39.7	21.9	0.00e+00	0	31	0	521142272	50	6201
2026-01-05 00:59:01.70	336.86	10.04	-38.8	-39.9	21.7	0.00e+00	0	30	0	523239424	50	6358
2026-01-05 00:59:02.72	336.89	9.96	-38.6	-39.7	21.8	0.00e+00	0	31	0	525336576	50	6201
2026-01-05 00:59:03.72	336.92	9.87	-38.5	-39.6	22.0	0.00e+00	0	31	0	526385152	50	6131
2026-01-05 00:59:04.74	336.95	9.78	-38.6	-39.7	21.9	0.00e+00	0	31	0	528482304	50	6201
2026-01-05 00:59:05.75	336.98	9.70	-38.7	-39.8	21.8	0.00e+00	0	31	0	530579456	50	6304
2026-01-05 00:59:06.76	337.02	9.61	-38.7	-39.8	21.8	0.00e+00	0	31	0	532676608	50	6271
2026-01-05 00:59:07.77	337.05	9.53	-38.8	-39.9	21.7	0.00e+00	0	31	0	534773760	50	6388
2026-01-05 00:59:08.78	337.08	9.45	-38.6	-39.7	22.0	0.00e+00	0	31	0	535822336	50	6204
2026-01-05 00:59:09.79	337.11	9.36	-38.6	-39.7	21.9	0.00e+00	0	31	0	537919488	50	6190
2026-01-05 00:59:10.79	337.14	9.28	-38.6	-39.6	21.9	0.00e+00	0	31	0	540016640	50	6149
2026-01-05 00:59:11.80	337.17	9.20	-38.3	-39.4	22.1	0.00e+00	0	31	0	542113792	50	5974
2026-01-05 00:59:12.81	337.20	9.11	-38.4	-39.4	22.1	0.00e+00	0	31	0	544210944	50	6031
2026-01-05 00:59:13.82	337.23	9.03	-38.2	-39.2	22.1	0.00e+00	0	31	0	545259520	50	5862
2026-01-05 00:59:14.83	337.26	8.95	-38.3	-39.4	22.1	0.00e+00	0	31	0	547356672	50	5990
2026-01-05 00:59:15.84	337.29	8.86	-38.1	-39.1	22.4	0.00e+00	0	31	0	549453824	50	5825
2026-01-05 00:59:16.85	337.32	8.78	-38.0	-39.0	22.3	0.00e+00	0	31	0	551550976	50	5756
2026-01-05 00:59:17.86	337.36	8.70	-38.3	-39.4	22.2	0.00e+00	0	31	0	553648128	50	5978
2026-01-05 00:59:18.87	337.38	8.62	-38.2	-39.2	22.2	0.00e+00	0	31	0	554696704	50	5847
2026-01-05 00:59:19.88	337.41	8.54	-38.1	-39.1	22.3	0.00e+00	0	31	0	556793856	50	5782
2026-01-05 00:59:20.89	337.44	8.46	-38.4	-39.4	22.0	0.00e+00	0	31	0	558891008	50	6003
2026-01-05 00:59:21.90	337.47	8.38	-37.9	-38.9	22.4	0.00e+00	0	31	0	560988160	50	5688
2026-01-05 00:59:22.91	337.50	8.30	-38.1	-39.2	22.2	0.00e+00	0	31	0	563085312	50	5831
2026-01-05 00:59:23.92	337.53	8.22	-38.1	-39.1	22.2	0.00e+00	0	31	0	564133888	50	5787
2026-01-05 00:59:24.93	337.56	8.14	-38.1	-39.1	22.2	0.00e+00	0	31	0	566231040	50	5794
2026-01-05 00:59:25.93	337.59	8.06	-38.4	-39.5	22.0	0.00e+00	0	31	0	568328192	50	6065
2026-01-05 00:59:26.95	337.62	7.98	-38.4	-39.4	22.0	0.00e+00	0	30	0	570425344	50	5998
2026-01-05 00:59:27.95	337.65	7.90	-38.4	-39.4	22.0	0.00e+00	0	31	0	572522496	50	6005
2026-01-05 00:59:28.96	337.68	7.82	-38.2	-39.2	22.2	0.00e+00	0	31	0	573571072	50	5864
2026-01-05 00:59:29.97	337.71	7.74	-38.2	-39.2	22.2	0.00e+00	0	31	0	575668224	50	5868
2026-01-05 00:59:30.98	337.73	7.66	-38.5	-39.5	22.0	0.00e+00	0	31	0	577765376	50	6076
2026-01-05 00:59:31.99	337.76	7.58	-38.4	-39.4	22.2	0.00e+00	0	31	0	579862528	50	6031
2026-01-05 00:59:33.00	337.79	7.50	-38.4	-39.5	22.1	0.00e+00	0	31	0	581959680	50	6048
2026-01-05 00:59:34.01	337.82	7.43	-38.5	-39.5	22.1	0.00e+00	0	30	0	584056832	50	6080
2026-01-05 00:59:35.02	337.85	7.35	-38.4	-39.4	22.0	0.00e+00	0	31	0	585105408	50	5991
2026-01-05 00:59:36.03	337.87	7.27	-38.5	-39.6	22.1	0.00e+00	0	31	0	587202560	50	6110
2026-01-05 00:59:37.04	337.90	7.19	-38.5	-39.5	21.8	0.00e+00	0	31	0	589299712	50	6091
2026-01-05 00:59:38.05	337.93	7.12	-38.5	-39.6	21.8	0.00e+00	0	31	0	591396864	50	6119
2026-01-05 00:59:39.06	337.96	7.04	-38.6	-39.7	21.6	0.00e+00	0	31	0	593494016	50	6193
2026-01-05 00:59:40.07	337.98	6.96	-38.8	-39.9	21.7	0.00e+00	0	31	0	594542592	50	6340
2026-01-05 00:59:41.08	338.01	6.89	-39.0	-40.1	21.1	0.00e+00	0	31	0	596639744	50	6535
2026-01-05 00:59:42.09	338.04	6.81	-38.6	-39.7	21.5	0.00e+00	0	31	0	598736896	50	6224
2026-01-05 00:59:43.10	338.06	6.74	-38.6	-39.8	21.5	0.00e+00	0	31	0	600834048	50	6248
2026-01-05 00:59:44.11	338.09	6.66	-38.7	-39.8	21.5	0.00e+00	0	31	0	602931200	50	6309
2026-01-05 00:59:45.12	338.12	6.59	-38.3	-39.4	21.8	0.00e+00	0	31	0	603979776	50	5988
2026-01-05 00:59:46.13	338.14	6.51	-38.4	-39.5	21.6	0.00e+00	0	31	0	606076928	50	6094
2026-01-05 00:59:47.14	338.17	6.43	-38.8	-40.0	21.3	0.00e+00	0	31	0	608174080	50	6403
2026-01-05 00:59:48.15	338.20	6.36	-38.6	-39.7	21.6	0.00e+00	0	31	0	610271232	50	6229
2026-01-05 00:59:49.16	338.22	6.29	-39.0	-40.2	21.2	0.00e+00	0	31	0	612368384	50	6552
2026-01-05 00:59:50.17	338.25	6.21	-38.7	-39.9	21.3	0.00e+00	0	31	0	613416960	50	6339
2026-01-05 00:59:51.18	338.27	6.14	-38.4	-39.5	21.6	0.00e+00	0	31	0	615514112	50	6098
2026-01-05 00:59:52.19	338.30	6.06	-38.8	-39.9	21.2	0.00e+00	0	31	0	617611264	50	6375
2026-01-05 00:59:53.20	338.33	5.99	-38.9	-40.1	21.1	0.00e+00	0	31	0	619708416	50	6486
2026-01-05 00:59:54.21	338.35	5.92	-38.6	-39.8	21.3	0.00e+00	0	31	0	621805568	50	6246
2026-01-05 00:59:55.22	338.38	5.84	-39.3	-40.6	20.7	0.00e+00	0	31	0	622854144	50	6853
2026-01-05 00:59:56.23	338.40	5.77	-38.7	-39.9	21.0	0.00e+00	0	31	0	624951296	50	6365
2026-01-05 00:59:57.24	338.43	5.70	-38.9	-40.2	20.7	0.00e+00	0	31	0	627048448	50	6577
2026-01-05 00:59:58.25	338.45	5.62	-39.4	-40.8	20.2	0.00e+00	0	31	0	629145600	50	7016
2026-01-05 00:59:59.26	338.48	5.55	-39.7	-41.1	19.7	0.00e+00	0	31	0	631242752	50	7322
2026-01-05 01:00:00.27	338.50	5.48	-39.4	-40.8	19.9	0.00e+00	0	31	0	632291328	52	6269
2026-01-05 01:00:01.28	338.53	5.41	-39.6	-41.0	19.5	0.00e+00	0	31	0	634388480	52	6452
2026-01-05 01:00:02.29	338.55	5.34	-40.0	-41.6	18.9	0.00e+00	0	31	0	636485632	52	6923
2026-01-05 01:00:03.30	338.58	5.26	-40.4	-42.1	18.5	0.00e+00	0	31	0	638582784	52	7282
2026-01-05 01:00:04.31	338.60	5.19	-40.6	-42.4	17.8	0.00e+00	0	31	0	640679936	52	7587
2026-01-05 01:00:05.32	338.63	5.12	-40.8	-42.8	17.2	0.00e+00	0	31	0	641728512	54	7076
2026-01-05 01:00:06.33	338.65	5.05	-41.3	-43.7	16.0	0.00e+00	0	31	0	643825664	54	7781
2026-01-05 01:00:07.34	338.68	4.98	-41.4	-44.0	15.6	0.00e+00	0	31	0	645922816	54	8081
2026-01-05 01:00:08.35	338.70	4.91	-42.1	-45.1	14.6	0.00e+00	0	31	0	648019968	56	8220
2026-01-05 01:00:09.36	338.72	4.84	-42.1	-45.2	13.8	0.00e+00	0	31	0	650117120	56	8322
2026-01-05 01:00:10.37	338.75	4.77	-42.6	-46.3	12.4	1.67e-05	0	31	0	652214272	56	9450
2026-01-05 01:00:11.38	338.77	4.70	-42.6	-46.9	11.8	3.97e-04	0	31	0	653262848	56	10018
2026-01-05 01:00:12.39	338.80	4.63	-42.9	-47.8	10.7	1.51e-03	0	31	0	655360000	58	9981
2026-01-05 01:00:13.40	338.82	4.56	-43.1	-48.7	9.2	5.53e-03	0	31	0	657457152	58	11024
2026-01-05 01:00:14.41	338.84	4.49	-43.2	-49.5	8.2	4.83e-02	0	31	0	659554304	58	12066
2026-01-05 01:00:15.41	338.87	4.42	-43.4	-50.1	7.6	1.08e-01	0	31	0	661651456	58	12904
2026-01-05 01:00:16.42	338.89	4.35	-43.5	-50.9	6.4	1.64e-01	0	31	0	662700032	58	14234
2026-01-05 01:00:17.43	338.91	4.28	-43.6	-51.8	5.5	3.10e-01	0	31	0	664797184	58	15764
2026-01-05 01:00:18.44	338.94	4.21	-43.6	-52.2	5.0	4.02e-01	0	31	0	666894336	58	16503
2026-01-05 01:00:19.45	338.96	4.14	-43.8	-52.9	4.5	7.98e-01	0	31	0	668991488	60	15944
2026-01-05 01:00:20.46	338.98	4.07	-43.7	-53.9	4.0	8.87e-01	92	31	0	671088640	60	17873
2026-01-05 01:00:21.47	339.01	4.01	-43.7	-54.4	3.7	1.41e+00	0	31	104	671088640	60	19066
2026-01-05 01:00:22.48	339.03	3.94	-43.7	-56.6	3.7	1.48e+00	0	31	104	671088640	60	24371
2026-01-05 01:00:23.49	339.05	3.87	-43.7	-57.0	3.7	1.50e+00	0	31	104	671088640	60	25668
2026-01-05 01:00:24.50	339.08	3.80	-43.7	-57.6	3.6	1.51e+00	0	31	104	671088640	60	27321
2026-01-05 01:00:25.51	339.10	3.73	-43.7	-57.9	3.6	1.51e+00	0	31	104	671088640	60	28389
2026-01-05 01:00:26.52	339.12	3.67	-43.7	-58.2	3.6	1.51e+00	0	31	104	671088640	60	29288
2026-01-05 01:00:27.53	339.14	3.60	-43.7	-58.1	3.6	1.51e+00	0	31	104	671088640	60	28952
2026-01-05 01:00:28.54	339.17	3.53	-43.7	-58.6	3.6	1.51e+00	0	31	104	671088640	60	30806
2026-01-05 01:00:29.55	339.19	3.46	-43.7	-58.8	3.6	1.51e+00	0	31	104	671088640	60	31382
2026-01-05 01:00:30.56	339.21	3.40	-43.8	-58.6	3.6	1.51e+00	0	31	104	671088640	60	30656
2026-01-05 01:00:31.57	339.23	3.33	-43.8	-58.7	3.6	1.51e+00	0	31	104	671088640	60	31262
2026-01-05 01:00:32.57	339.26	3.26	-43.7	-58.7	3.6	1.51e+00	0	31	104	671088640	60	31150
2026-01-05 01:00:33.58	339.28	3.20	-43.7	-58.6	3.6	1.51e+00	0	31	104	671088640	60	30822
2026-01-05 01:00:34.59	339.30	3.13	-43.7	-58.7	3.6	1.51e+00	0	31	104	671088640	60	31202
2026-01-05 01:00:35.60	339.32	3.06	-43.7	-58.8	3.6	1.51e+00	0	31	104	671088640	60	31409
2026-01-05 01:00:36.61	339.34	3.00	-43.7	-58.9	3.6	1.51e+00	0	31	104	671088640	60	31709
2026-01-05 01:00:37.62	339.36	2.93	-47.7	-62.9	3.6	1.51e+00	0	31	104	671088640	60	50721
2026-01-05 01:00:38.63	339.39	2.87	-48.1	-63.3	3.6	1.51e+00	0	31	104	671088640	60	52853
2026-01-05 01:00:39.65	339.41	2.80	-48.4	-63.6	3.6	1.51e+00	0	31	104	671088640	60	54461
2026-01-05 01:00:40.66	339.43	2.74	-48.5	-63.7	3.6	1.51e+00	0	31	104	671088640	60	55449
2026-01-05 01:00:41.67	339.45	2.67	-48.7	-63.9	3.6	1.51e+00	0	31	104	671088640	60	56636
2026-01-05 01:00:42.68	339.47	2.61	-48.7	-63.9	3.6	1.51e+00	0	31	104	671088640	60	56760
2026-01-05 01:00:43.69	339.49	2.54	-48.7	-63.9	3.6	1.51e+00	0	31	104	671088640	60	56873
2026-01-05 01:00:44.70	339.52	2.48	-48.7	-64.0	3.6	1.51e+00	0	31	104	671088640	60	56987
2026-01-05 01:00:45.70	339.54	2.41	-48.5	-63.9	3.6	1.51e+00	0	31	104	671088640	60	56766
2026-01-05 01:00:46.71	339.56	2.35	-48.3	-64.0	3.6	1.51e+00	0	31	104	671088640	60	57296
2026-01-05 01:00:47.72	339.58	2.28	-48.7	-64.0	3.6	1.51e+00	0	31	104	671088640	60	57109
2026-01-05 01:00:48.73	339.60	2.22	-48.8	-64.0	3.6	1.51e+00	0	31	104	671088640	60	57468
2026-01-05 01:00:49.74	339.62	2.15	-48.7	-63.9	3.6	1.51e+00	0	31	104	671088640	60	56342
2026-01-05 01:00:50.75	339.64	2.09	-48.8	-64.0	3.6	1.51e+00	0	31	104	671088640	60	57171
2026-01-05 01:00:51.76	339.66	2.03	-48.8	-63.9	3.6	1.51e+00	0	31	104	671088640	60	56767
2026-01-05 01:00:52.77	339.68	1.96	-48.9	-64.1	3.6	1.51e+00	0	31	104	671088640	60	57957
2026-01-05 01:00:53.78	339.70	1.90	-49.1	-64.3	3.6	1.51e+00	0	31	104	671088640	60	59160
2026-01-05 01:00:54.79	339.72	1.84	-48.9	-64.1	3.6	1.51e+00	0	31	104	671088640	60	57975
2026-01-05 01:00:55.80	339.74	1.77	-49.1	-64.3	3.6	1.51e+00	0	31	104	671088640	60	59001
2026-01-05 01:00:56.81	339.76	1.71	-49.5	-64.7	3.5	1.51e+00	0	31	104	671088640	60	62245
2026-01-05 01:00:57.82	339.79	1.65	-49.0	-64.2	3.6	1.51e+00	0	31	104	671088640	60	58537
2026-01-05 01:00:58.84	339.81	1.58	-48.7	-63.9	3.6	1.51e+00	0	31	104	671088640	60	56633
2026-01-05 01:00:59.84	339.83	1.52	-48.9	-64.1	3.6	1.51e+00	0	31	104	671088640	60	57662
2026-01-05 01:01:00.85	339.85	1.46	-48.8	-63.9	3.6	1.51e+00	0	31	104	671088640	60	56956
2026-01-05 01:01:01.86	339.87	1.40	-49.0	-64.2	3.6	1.51e+00	0	31	104	671088640	60	58394
2026-01-05 01:01:02.87	339.89	1.33	-48.9	-64.1	3.6	1.51e+00	0	31	104	671088640	60	57874
2026-01-05 01:01:03.88	339.91	1.27	-48.9	-64.2	3.6	1.51e+00	0	31	104	671088640	60	58313
2026-01-05 01:01:04.89	339.93	1.21	-48.9	-64.1	3.6	1.51e+00	0	31	104	671088640	60	57825
2026-01-05 01:01:05.90	339.95	1.15	-49.0	-64.2	3.6	1.51e+00	0	31	104	671088640	60	58833
2026-01-05 01:01:06.91	339.97	1.09	-49.1	-64.3	3.6	1.51e+00	0	31	104	671088640	60	59215
2026-01-05 01:01:07.92	339.99	1.02	-48.8	-63.9	3.5	1.51e+00	0	31	104	671088640	60	56789
2026-01-05 01:01:08.92	340.00	0.96	-48.8	-64.0	3.6	1.51e+00	0	31	104	671088640	60	57018
2026-01-05 01:01:09.93	340.02	0.90	-49.3	-64.4	3.6	1.51e+00	0	31	104	671088640	60	60233
2026-01-05 01:01:10.95	340.04	0.84	-49.1	-64.2	3.5	1.51e+00	0	31	104	671088640	60	58844
2026-01-05 01:01:11.95	340.06	0.78	-49.7	-64.9	3.6	1.51e+00	0	31	104	671088640	60	63335
2026-01-05 01:01:12.96	340.08	0.72	-49.5	-64.7	3.6	1.51e+00	0	31	104	671088640	60	62055
2026-01-05 01:01:13.97	340.10	0.66	-49.7	-64.8	3.6	1.51e+00	0	31	104	671088640	60	63020
2026-01-05 01:01:14.98	340.12	0.60	-49.4	-64.6	3.6	1.51e+00	0	31	104	671088640	60	61432
2026-01-05 01:01:15.99	340.14	0.54	-49.0	-64.1	3.6	1.51e+00	0	31	104	671088640	60	58126
2026-01-05 01:01:17.00	340.16	0.48	-48.9	-64.1	3.6	1.51e+00	0	31	104	671088640	60	57785
2026-01-05 01:01:18.01	340.18	0.42	-48.9	-64.0	3.6	1.51e+00	0	31	104	671088640	60	57090
2026-01-05 01:01:19.02	340.20	0.35	-48.9	-64.0	3.6	1.51e+00	0	31	104	671088640	60	57477
2026-01-05 01:01:20.03	340.22	0.29	-49.0	-64.2	3.6	1.51e+00	0	31	104	671088640	60	58769
2026-01-05 01:01:21.04	340.24	0.23	-49.1	-64.2	3.6	1.51e+00	0	31	104	671088640	60	58832
2026-01-05 01:01:22.05	340.25	0.17	-48.9	-64.1	3.6	1.51e+00	0	31	104	671088640	60	57965
2026-01-05 01:01:23.06	340.27	0.11	-48.7	-63.9	3.6	1.51e+00	0	31	104	671088640	60	56766
2026-01-05 01:01:24.07	340.29	0.06	-48.8	-64.0	3.5	1.51e+00	0	31	104	671088640	60	57149
2026-01-05 01:01:25.08	340.31	-0.00	-48.8	-63.9	3.6	1.51e+00	0	31	104	671088640	60	56830
2026-01-05 01:01:26.09	340.33	-0.06	-49.2	-64.4	3.6	1.51e+00	0	31	104	671088640	60	59770

#Closed at: 2026-01-05 01:01:26
#Recorded file [671 MB]: D:/lorett/data/35029_260105_125322.dat