passes_logs/2026/01/05/R4.6S_Anadyr/R4.6S_Anadyr__20260105_140209_NOAA_21_JPSS-2_rec.log

#Pass ID: 20260105_140209_NOAA 21 (JPSS-2)
#Satellite: NOAA 21 (JPSS-2)
#Configuration: NOAA-21
#almurnet v.1.7.20251203
#Start time: 2026-01-05 14:02:12

#Version: 2.2.20231116
#Station: R4.6S_Anadyr
#Location: 177.4865 lon 64.73178 lat
#TLE: 1 54234U 22150A   26004.93331070  .00000143  00000+0  88672-4 0  9998
#TLE: 2 54234  98.7489 305.9554 0001075 342.5085  17.6054 14.19532053163383

#Time	Az	El	Level	Level2	SNR	BER	BlckErr	Temp	State	Recorded	gain1	gain2
2026-01-05 14:02:12.74	19.41	0.20	-48.6	-59.9	3.2	1.54e+00	0	26	0	0	60	34562
2026-01-05 14:02:13.74	19.44	0.26	-48.5	-61.3	3.5	1.52e+00	0	26	104	0	60	40948
2026-01-05 14:02:14.76	19.46	0.32	-48.5	-61.3	3.5	1.52e+00	0	26	104	0	60	40884
2026-01-05 14:02:15.76	19.49	0.38	-48.5	-61.3	3.5	1.52e+00	0	26	104	0	60	40881
2026-01-05 14:02:16.77	19.51	0.44	-48.5	-61.3	3.5	1.51e+00	0	26	104	0	60	40931
2026-01-05 14:02:17.79	19.54	0.50	-48.5	-61.3	3.5	1.52e+00	0	26	104	0	60	40616
2026-01-05 14:02:18.79	19.56	0.56	-48.4	-61.3	3.5	1.52e+00	0	26	104	0	60	40543
2026-01-05 14:02:19.80	19.59	0.62	-48.3	-61.1	3.5	1.52e+00	0	26	104	0	60	40036
2026-01-05 14:02:20.81	19.61	0.68	-48.2	-61.0	3.5	1.52e+00	0	26	104	0	60	39518
2026-01-05 14:02:21.83	19.64	0.74	-48.1	-60.9	3.5	1.52e+00	0	26	104	0	60	38819
2026-01-05 14:02:22.84	19.66	0.80	-47.9	-60.8	3.5	1.52e+00	0	26	104	0	60	38267
2026-01-05 14:02:23.85	19.69	0.86	-47.8	-60.6	3.5	1.52e+00	0	27	104	0	60	37480
2026-01-05 14:02:24.86	19.72	0.92	-47.5	-60.3	3.5	1.52e+00	0	26	104	0	60	36440
2026-01-05 14:02:25.87	19.74	0.98	-47.1	-59.9	3.5	1.52e+00	0	27	104	0	60	34555
2026-01-05 14:02:26.88	19.77	1.04	-47.0	-59.9	3.5	1.52e+00	0	27	104	0	60	34532
2026-01-05 14:02:27.88	19.79	1.10	-47.0	-59.8	3.5	1.52e+00	0	26	104	0	60	34330
2026-01-05 14:02:28.89	19.82	1.16	-47.0	-59.8	3.5	1.52e+00	0	27	104	0	60	34145
2026-01-05 14:02:29.91	19.85	1.22	-47.0	-59.8	3.5	1.52e+00	0	27	104	0	60	34150
2026-01-05 14:02:30.91	19.87	1.29	-47.0	-59.7	3.5	1.51e+00	0	27	104	0	60	34082
2026-01-05 14:02:31.92	19.90	1.35	-47.0	-59.7	3.5	1.52e+00	0	27	104	0	60	34057
2026-01-05 14:02:32.93	19.93	1.41	-47.0	-59.8	3.5	1.52e+00	0	27	104	0	60	34278
2026-01-05 14:02:33.94	19.95	1.47	-47.0	-59.8	3.5	1.52e+00	0	27	104	0	60	34186
2026-01-05 14:02:34.96	19.98	1.53	-47.0	-59.8	3.5	1.52e+00	0	27	104	0	60	34215
2026-01-05 14:02:35.96	20.01	1.59	-47.0	-59.8	3.5	1.52e+00	0	27	104	0	60	34463
2026-01-05 14:02:36.97	20.03	1.66	-47.0	-59.8	3.5	1.52e+00	0	27	104	0	60	34403
2026-01-05 14:02:37.98	20.06	1.72	-47.0	-59.8	3.5	1.52e+00	0	27	104	0	60	34288
2026-01-05 14:02:38.99	20.09	1.78	-47.0	-59.8	3.5	1.52e+00	0	27	104	0	60	34269
2026-01-05 14:02:40.00	20.11	1.84	-47.0	-59.8	3.5	1.52e+00	0	27	104	0	60	34433
2026-01-05 14:02:41.01	20.14	1.91	-47.0	-59.8	3.5	1.52e+00	0	27	104	0	60	34471
2026-01-05 14:02:42.02	20.17	1.97	-47.0	-59.8	3.5	1.52e+00	0	27	104	0	60	34315
2026-01-05 14:02:43.03	20.20	2.03	-47.0	-59.6	3.5	1.52e+00	0	27	104	0	60	33359
2026-01-05 14:02:44.04	20.22	2.10	-47.0	-59.1	3.6	1.52e+00	0	27	104	0	60	31499
2026-01-05 14:02:45.05	20.25	2.16	-46.9	-58.5	3.5	1.51e+00	0	27	104	0	60	29670
2026-01-05 14:02:46.06	20.28	2.22	-46.9	-58.1	3.5	1.51e+00	0	27	104	0	60	28065
2026-01-05 14:02:47.07	20.31	2.29	-46.8	-57.6	3.6	1.50e+00	0	27	104	0	60	26482
2026-01-05 14:02:48.08	20.33	2.35	-46.9	-57.9	3.7	1.50e+00	0	27	104	0	60	27609
2026-01-05 14:02:49.09	20.36	2.42	-46.9	-58.3	3.5	1.51e+00	0	27	104	0	60	28711
2026-01-05 14:02:50.10	20.39	2.48	-46.9	-57.9	3.5	1.51e+00	0	27	104	0	60	27653
2026-01-05 14:02:51.11	20.42	2.54	-46.7	-56.3	4.2	1.47e+00	0	27	104	0	60	22926
2026-01-05 14:02:52.12	20.45	2.61	-46.1	-53.1	6.2	5.39e-01	123	27	104	0	60	15864
2026-01-05 14:02:53.14	20.48	2.67	-45.5	-50.2	8.1	7.07e-02	123	27	0	2097152	60	11413
2026-01-05 14:02:54.15	20.50	2.74	-44.0	-47.2	11.8	1.19e-03	123	27	0	5242880	60	8041
2026-01-05 14:02:55.16	20.53	2.80	-42.6	-45.0	14.2	2.28e-05	122	27	0	9437184	60	6271
2026-01-05 14:02:56.17	20.56	2.87	-41.8	-43.9	15.4	2.20e-06	123	27	0	12582912	58	6155
2026-01-05 14:02:57.18	20.59	2.93	-40.7	-42.5	16.7	0.00e+00	123	27	0	14680064	56	5881
2026-01-05 14:02:58.19	20.62	3.00	-39.8	-41.3	17.7	0.00e+00	123	27	0	17825792	54	5771
2026-01-05 14:02:59.20	20.65	3.06	-39.1	-40.5	18.4	0.00e+00	122	27	0	20971520	52	5917
2026-01-05 14:03:00.21	20.68	3.13	-38.7	-40.1	19.0	0.00e+00	122	27	0	25165824	52	5623
2026-01-05 14:03:01.22	20.71	3.19	-38.8	-40.2	18.6	0.00e+00	120	27	0	28311552	50	6392
2026-01-05 14:03:02.23	20.74	3.26	-39.7	-41.3	17.8	0.00e+00	122	27	0	31457280	52	6443
2026-01-05 14:03:03.24	20.77	3.33	-40.0	-41.5	17.5	0.00e+00	122	27	0	34603008	52	6638
2026-01-05 14:03:04.25	20.80	3.39	-40.6	-42.4	16.6	0.00e+00	122	27	0	36700160	52	7294
2026-01-05 14:03:05.26	20.83	3.46	-42.0	-44.2	14.8	0.00e+00	122	27	0	40894464	56	7146
2026-01-05 14:03:06.27	20.86	3.52	-43.4	-46.3	12.6	2.36e-05	123	27	0	44040192	58	8156
2026-01-05 14:03:07.28	20.89	3.59	-44.7	-48.6	10.1	3.16e-03	123	27	0	47185920	60	9465
2026-01-05 14:03:08.29	20.92	3.66	-40.2	-41.9	17.1	0.00e+00	121	27	0	50331648	54	6144
2026-01-05 14:03:09.30	20.95	3.72	-46.5	-55.6	3.7	1.10e+00	0	27	104	52428800	60	21202
2026-01-05 14:03:10.31	20.98	3.79	-47.1	-59.4	3.5	1.51e+00	0	27	104	52428800	60	32881
2026-01-05 14:03:11.31	21.01	3.86	-39.0	-40.7	18.2	1.41e+00	122	27	104	52428800	52	6045
2026-01-05 14:03:12.33	21.04	3.93	-47.0	-59.1	3.5	1.52e+00	0	27	104	52428800	60	31708
2026-01-05 14:03:13.33	21.07	3.99	-38.7	-40.0	19.1	0.00e+00	122	27	0	53477376	50	6229
2026-01-05 14:03:14.34	21.10	4.06	-38.5	-39.8	19.2	0.00e+00	123	27	0	56623104	50	6097
2026-01-05 14:03:15.35	21.13	4.13	-38.1	-39.4	19.7	0.00e+00	122	27	0	59768832	50	5804
2026-01-05 14:03:16.36	21.16	4.20	-37.6	-38.8	20.3	0.00e+00	120	27	0	62914560	48	6066
2026-01-05 14:03:17.37	21.19	4.27	-37.6	-38.8	20.2	0.00e+00	120	27	0	66060288	48	6120
2026-01-05 14:03:18.37	21.22	4.33	-38.0	-39.2	20.0	0.00e+00	122	27	0	69206016	48	6412
2026-01-05 14:03:19.38	21.25	4.40	-37.8	-39.0	20.1	0.00e+00	122	27	0	72351744	48	6231
2026-01-05 14:03:20.39	21.29	4.47	-37.6	-38.8	20.3	0.00e+00	123	27	0	75497472	48	6070
2026-01-05 14:03:21.40	21.32	4.54	-37.2	-38.4	20.7	0.00e+00	123	27	0	78643200	48	5810
2026-01-05 14:03:22.41	21.35	4.61	-37.4	-38.6	20.5	0.00e+00	123	27	0	81788928	48	5970
2026-01-05 14:03:23.42	21.38	4.68	-37.5	-38.7	20.4	0.00e+00	122	27	0	84934656	48	6046
2026-01-05 14:03:24.43	21.41	4.75	-37.0	-38.2	20.9	0.00e+00	124	27	0	88080384	48	5675
2026-01-05 14:03:25.44	21.45	4.82	-36.9	-38.1	21.0	0.00e+00	123	27	0	91226112	48	5602
2026-01-05 14:03:26.45	21.48	4.89	-37.0	-38.2	20.9	0.00e+00	123	27	0	94371840	48	5675
2026-01-05 14:03:27.46	21.51	4.96	-36.9	-38.0	20.9	0.00e+00	120	27	0	97517568	48	5588
2026-01-05 14:03:28.47	21.54	5.03	-37.3	-38.5	20.7	0.00e+00	122	27	0	100663296	48	5880
2026-01-05 14:03:29.48	21.58	5.10	-37.1	-38.3	20.8	0.00e+00	122	27	0	103809024	48	5732
2026-01-05 14:03:30.49	21.61	5.17	-37.3	-38.4	20.8	0.00e+00	120	27	0	106954752	48	5838
2026-01-05 14:03:31.50	21.64	5.24	-37.1	-38.2	20.9	0.00e+00	122	27	0	110100480	48	5686
2026-01-05 14:03:32.51	21.68	5.31	-36.8	-37.9	21.2	0.00e+00	120	27	0	113246208	48	5506
2026-01-05 14:03:33.52	21.71	5.38	-37.0	-38.1	21.0	0.00e+00	123	27	0	116391936	48	5636
2026-01-05 14:03:34.53	21.74	5.45	-36.9	-38.0	21.3	0.00e+00	123	27	0	119537664	48	5568
2026-01-05 14:03:35.54	21.78	5.52	-36.8	-37.8	21.2	0.00e+00	123	27	0	122683392	48	5464
2026-01-05 14:03:36.55	21.81	5.59	-36.8	-37.9	21.2	0.00e+00	122	27	0	125829120	48	5475
2026-01-05 14:03:37.56	21.84	5.67	-36.6	-37.7	21.4	0.00e+00	123	27	0	128974848	46	6000
2026-01-05 14:03:38.57	21.88	5.74	-36.7	-37.8	21.4	0.00e+00	121	27	0	132120576	46	6098
2026-01-05 14:03:39.58	21.91	5.81	-36.9	-38.0	21.3	0.00e+00	120	27	0	135266304	46	6206
2026-01-05 14:03:40.59	21.95	5.88	-36.7	-37.8	21.3	0.00e+00	123	27	0	138412032	46	6101
2026-01-05 14:03:41.60	21.98	5.95	-36.7	-37.8	21.2	0.00e+00	120	27	0	141557760	46	6094
2026-01-05 14:03:42.61	22.01	6.03	-36.8	-37.9	21.3	0.00e+00	123	27	0	144703488	46	6157
2026-01-05 14:03:43.61	22.05	6.10	-37.0	-38.1	21.2	0.00e+00	121	27	0	147849216	46	6292
2026-01-05 14:03:44.62	22.08	6.17	-36.8	-37.9	21.3	0.00e+00	122	27	0	150994944	46	6171
2026-01-05 14:03:45.63	22.12	6.25	-36.4	-37.4	21.8	0.00e+00	122	27	0	154140672	46	5831
2026-01-05 14:03:46.64	22.15	6.32	-36.6	-37.7	21.6	0.00e+00	120	27	0	157286400	46	5996
2026-01-05 14:03:47.65	22.19	6.39	-36.6	-37.7	21.6	0.00e+00	122	27	0	160432128	46	6006
2026-01-05 14:03:48.66	22.22	6.47	-36.2	-37.2	21.9	0.00e+00	120	27	0	163577856	46	5713
2026-01-05 14:03:49.68	22.26	6.54	-36.3	-37.4	21.9	0.00e+00	123	27	0	166723584	46	5819
2026-01-05 14:03:50.69	22.30	6.62	-36.4	-37.4	21.8	0.00e+00	120	27	0	169869312	46	5845
2026-01-05 14:03:51.69	22.33	6.69	-36.2	-37.2	21.9	0.00e+00	123	27	0	173015040	46	5708
2026-01-05 14:03:52.70	22.37	6.76	-36.2	-37.3	21.9	0.00e+00	120	27	0	176160768	46	5758
2026-01-05 14:03:53.71	22.40	6.84	-36.3	-37.3	21.9	0.00e+00	122	27	0	179306496	46	5785
2026-01-05 14:03:54.72	22.44	6.91	-36.1	-37.2	22.0	0.00e+00	120	27	0	182452224	46	5660
2026-01-05 14:03:55.73	22.48	6.99	-36.2	-37.2	22.0	0.00e+00	123	27	0	185597952	46	5692
2026-01-05 14:03:56.74	22.51	7.07	-36.2	-37.2	22.1	0.00e+00	120	27	0	188743680	46	5687
2026-01-05 14:03:57.75	22.55	7.14	-36.1	-37.1	22.1	0.00e+00	123	27	0	191889408	46	5620
2026-01-05 14:03:58.76	22.59	7.22	-36.2	-37.3	22.0	0.00e+00	120	27	0	195035136	46	5740
2026-01-05 14:03:59.77	22.63	7.29	-36.1	-37.1	22.1	0.00e+00	122	27	0	198180864	46	5657
2026-01-05 14:04:00.78	22.66	7.37	-36.0	-37.1	22.2	0.00e+00	123	28	0	201326592	46	5615
2026-01-05 14:04:01.79	22.70	7.45	-36.0	-37.0	22.2	0.00e+00	122	28	0	204472320	46	5553
2026-01-05 14:04:02.80	22.74	7.52	-36.0	-37.0	22.1	0.00e+00	120	27	0	207618048	46	5588
2026-01-05 14:04:03.81	22.78	7.60	-35.9	-37.0	22.2	0.00e+00	123	27	0	210763776	46	5534
2026-01-05 14:04:04.82	22.81	7.68	-35.9	-37.0	22.2	0.00e+00	120	27	0	213909504	46	5540
2026-01-05 14:04:05.83	22.85	7.76	-35.9	-36.9	22.3	0.00e+00	123	27	0	217055232	46	5481
2026-01-05 14:04:06.84	22.89	7.83	-35.8	-36.8	22.3	0.00e+00	123	27	0	220200960	46	5443
2026-01-05 14:04:07.85	22.93	7.91	-35.6	-36.6	22.5	0.00e+00	122	27	0	223346688	44	5966
2026-01-05 14:04:08.86	22.97	7.99	-35.7	-36.8	22.5	0.00e+00	121	27	0	226492416	44	6065
2026-01-05 14:04:09.87	23.01	8.07	-35.6	-36.6	22.7	0.00e+00	123	27	0	229638144	44	5945
2026-01-05 14:04:10.87	23.05	8.15	-35.7	-36.7	22.5	0.00e+00	120	27	0	232783872	44	6045
2026-01-05 14:04:11.88	23.09	8.23	-35.6	-36.6	22.5	0.00e+00	122	27	0	235929600	44	5944
2026-01-05 14:04:12.89	23.13	8.30	-35.5	-36.4	22.6	0.00e+00	122	28	0	239075328	44	5842
2026-01-05 14:04:13.90	23.17	8.38	-35.6	-36.6	22.5	0.00e+00	123	28	0	242221056	44	5945
2026-01-05 14:04:14.91	23.21	8.46	-35.5	-36.5	22.6	0.00e+00	120	28	0	245366784	44	5884
2026-01-05 14:04:15.92	23.25	8.54	-35.6	-36.6	22.5	0.00e+00	122	28	0	248512512	44	5931
2026-01-05 14:04:16.93	23.29	8.62	-35.3	-36.3	22.9	0.00e+00	123	27	0	251658240	44	5731
2026-01-05 14:04:17.94	23.33	8.70	-35.4	-36.4	22.7	0.00e+00	123	28	0	254803968	44	5846
2026-01-05 14:04:18.95	23.37	8.78	-35.3	-36.2	22.9	0.00e+00	121	28	0	257949696	44	5714
2026-01-05 14:04:19.96	23.41	8.87	-35.2	-36.2	22.8	0.00e+00	123	27	0	261095424	44	5701
2026-01-05 14:04:20.97	23.45	8.95	-35.2	-36.2	22.9	0.00e+00	122	28	0	264241152	44	5699
2026-01-05 14:04:21.98	23.49	9.03	-35.4	-36.3	22.8	0.00e+00	123	27	0	267386880	44	5782
2026-01-05 14:04:22.99	23.53	9.11	-35.1	-36.0	23.0	0.00e+00	122	27	0	270532608	44	5594
2026-01-05 14:04:23.99	23.57	9.19	-35.2	-36.2	22.9	0.00e+00	123	27	0	273678336	44	5674
2026-01-05 14:04:25.00	23.62	9.27	-35.2	-36.2	22.9	0.00e+00	122	27	0	276824064	44	5698
2026-01-05 14:04:26.01	23.66	9.36	-35.2	-36.1	23.0	0.00e+00	122	28	0	279969792	44	5649
2026-01-05 14:04:27.02	23.70	9.44	-35.1	-36.1	23.0	0.00e+00	123	28	0	283115520	44	5631
2026-01-05 14:04:28.03	23.74	9.52	-35.0	-36.0	23.2	0.00e+00	122	27	0	286261248	44	5548
2026-01-05 14:04:29.04	23.79	9.60	-35.0	-36.0	23.1	0.00e+00	120	28	0	289406976	44	5575
2026-01-05 14:04:30.05	23.83	9.69	-35.0	-36.0	23.1	0.00e+00	123	28	0	293601280	44	5561
2026-01-05 14:04:31.06	23.87	9.77	-35.1	-36.1	23.0	0.00e+00	122	27	0	295698432	44	5596
2026-01-05 14:04:32.07	23.92	9.86	-35.2	-36.2	22.9	0.00e+00	123	28	0	298844160	44	5686
2026-01-05 14:04:33.08	23.96	9.94	-35.1	-36.1	23.0	0.00e+00	123	28	0	301989888	44	5620
2026-01-05 14:04:34.09	24.00	10.03	-34.8	-35.8	23.3	0.00e+00	123	28	0	305135616	44	5430
2026-01-05 14:04:35.10	24.05	10.11	-35.0	-35.9	23.2	0.00e+00	121	28	0	308281344	44	5529
2026-01-05 14:04:36.11	24.09	10.20	-34.8	-35.8	23.3	0.00e+00	123	28	0	312475648	42	6075
2026-01-05 14:04:37.12	24.14	10.28	-34.9	-35.9	23.3	0.00e+00	123	28	0	315621376	42	6151
2026-01-05 14:04:38.13	24.18	10.37	-34.8	-35.8	23.3	0.00e+00	123	28	0	318767104	42	6101
2026-01-05 14:04:39.14	24.23	10.45	-34.8	-35.8	23.3	0.00e+00	123	28	0	320864256	42	6090
2026-01-05 14:04:40.15	24.27	10.54	-34.7	-35.6	23.4	0.00e+00	121	27	0	324009984	42	5971
2026-01-05 14:04:41.16	24.32	10.63	-34.7	-35.7	23.4	0.00e+00	123	28	0	328204288	42	6016
2026-01-05 14:04:42.17	24.36	10.71	-34.8	-35.8	23.4	0.00e+00	123	27	0	331350016	42	6073
2026-01-05 14:04:43.18	24.41	10.80	-34.7	-35.7	23.4	0.00e+00	122	27	0	334495744	42	5996
2026-01-05 14:04:44.19	24.46	10.89	-34.8	-35.7	23.4	0.00e+00	122	28	0	337641472	42	6059
2026-01-05 14:04:45.20	24.50	10.97	-34.7	-35.7	23.4	0.00e+00	123	28	0	340787200	42	6013
2026-01-05 14:04:46.21	24.55	11.06	-34.6	-35.6	23.5	0.00e+00	122	28	0	343932928	42	5937
2026-01-05 14:04:47.22	24.60	11.15	-34.8	-35.7	23.4	0.00e+00	122	28	0	347078656	42	6029
2026-01-05 14:04:48.23	24.64	11.24	-34.8	-35.7	23.4	0.00e+00	123	28	0	350224384	42	6042
2026-01-05 14:04:49.24	24.69	11.33	-34.6	-35.6	23.5	0.00e+00	123	28	0	353370112	42	5928
2026-01-05 14:04:50.25	24.74	11.42	-34.7	-35.6	23.5	0.00e+00	123	28	0	356515840	42	5961
2026-01-05 14:04:51.26	24.79	11.51	-34.8	-35.7	23.5	0.00e+00	123	28	0	359661568	42	6026
2026-01-05 14:04:52.27	24.84	11.60	-34.6	-35.5	23.6	0.00e+00	122	28	0	362807296	42	5914
2026-01-05 14:04:53.28	24.89	11.69	-34.7	-35.6	23.5	0.00e+00	123	28	0	365953024	42	5968
2026-01-05 14:04:54.29	24.93	11.78	-34.7	-35.6	23.4	0.00e+00	123	28	0	369098752	42	5992
2026-01-05 14:04:55.29	24.98	11.87	-34.7	-35.7	23.5	0.00e+00	122	28	0	372244480	42	6001
2026-01-05 14:04:56.30	25.03	11.96	-34.7	-35.6	23.5	0.00e+00	123	28	0	375390208	42	5978
2026-01-05 14:04:57.31	25.08	12.05	-34.7	-35.6	23.6	0.00e+00	123	28	0	378535936	42	5993
2026-01-05 14:04:58.32	25.13	12.14	-34.5	-35.5	23.7	0.00e+00	121	28	0	381681664	42	5873
2026-01-05 14:04:59.33	25.18	12.24	-34.6	-35.5	23.6	0.00e+00	122	28	0	384827392	42	5906
2026-01-05 14:05:00.34	25.23	12.33	-34.5	-35.5	23.7	0.00e+00	123	28	0	387973120	42	5859
2026-01-05 14:05:01.35	25.28	12.42	-34.6	-35.5	23.6	0.00e+00	122	28	0	391118848	42	5890
2026-01-05 14:05:02.36	25.34	12.51	-34.7	-35.6	23.6	0.00e+00	123	28	0	394264576	42	5952
2026-01-05 14:05:03.37	25.39	12.61	-34.5	-35.4	23.7	0.00e+00	123	28	0	397410304	42	5855
2026-01-05 14:05:04.38	25.44	12.70	-34.5	-35.5	23.7	0.00e+00	120	28	0	400556032	42	5870
2026-01-05 14:05:05.39	25.49	12.80	-34.3	-35.2	23.9	0.00e+00	123	27	0	403701760	42	5699
2026-01-05 14:05:06.40	25.54	12.89	-34.5	-35.4	23.7	0.00e+00	122	28	0	406847488	42	5851
2026-01-05 14:05:07.41	25.60	12.99	-34.4	-35.3	23.9	0.00e+00	123	28	0	409993216	42	5761
2026-01-05 14:05:08.42	25.65	13.08	-34.5	-35.4	23.7	0.00e+00	120	28	0	413138944	42	5846
2026-01-05 14:05:09.42	25.70	13.18	-34.3	-35.2	23.9	0.00e+00	123	28	0	416284672	42	5693
2026-01-05 14:05:10.43	25.76	13.27	-34.3	-35.3	23.9	0.00e+00	122	28	0	419430400	42	5739
2026-01-05 14:05:11.44	25.81	13.37	-34.3	-35.2	23.9	0.00e+00	122	28	0	422576128	42	5674
2026-01-05 14:05:12.45	25.86	13.46	-34.2	-35.1	24.1	0.00e+00	123	28	0	425721856	42	5618
2026-01-05 14:05:13.46	25.92	13.56	-34.3	-35.2	23.9	0.00e+00	122	28	0	428867584	42	5718
2026-01-05 14:05:14.47	25.97	13.66	-34.3	-35.3	23.9	0.00e+00	122	28	0	432013312	42	5740
2026-01-05 14:05:15.48	26.03	13.76	-34.3	-35.2	23.9	0.00e+00	120	28	0	435159040	42	5702
2026-01-05 14:05:16.49	26.08	13.86	-34.4	-35.3	23.9	0.00e+00	122	28	0	438304768	42	5767
2026-01-05 14:05:17.50	26.14	13.95	-34.2	-35.1	24.1	0.00e+00	121	28	0	441450496	42	5621
2026-01-05 14:05:18.51	26.20	14.05	-34.3	-35.3	23.9	0.00e+00	122	28	0	444596224	42	5735
2026-01-05 14:05:19.52	26.25	14.15	-34.2	-35.1	24.0	0.00e+00	123	27	0	447741952	42	5629
2026-01-05 14:05:20.53	26.31	14.25	-34.1	-35.0	24.1	0.00e+00	122	28	0	450887680	42	5576
2026-01-05 14:05:21.54	26.37	14.35	-34.2	-35.1	24.1	0.00e+00	119	28	0	454033408	42	5610
2026-01-05 14:05:22.55	26.43	14.45	-34.1	-35.0	24.1	0.00e+00	122	28	0	457179136	42	5591
2026-01-05 14:05:23.56	26.48	14.55	-34.2	-35.1	24.0	0.00e+00	123	28	0	460324864	42	5638
2026-01-05 14:05:24.57	26.54	14.65	-34.2	-35.2	24.0	0.00e+00	123	28	0	463470592	42	5663
2026-01-05 14:05:25.58	26.60	14.76	-34.3	-35.2	24.0	0.00e+00	122	28	0	466616320	42	5706
2026-01-05 14:05:26.59	26.66	14.86	-34.3	-35.2	24.0	0.00e+00	120	28	0	469762048	42	5703
2026-01-05 14:05:27.60	26.72	14.96	-34.3	-35.2	24.1	0.00e+00	122	28	0	472907776	42	5671
2026-01-05 14:05:28.61	26.78	15.06	-34.3	-35.2	23.9	0.00e+00	123	28	0	476053504	42	5710
2026-01-05 14:05:29.62	26.84	15.17	-34.3	-35.3	24.0	0.00e+00	122	28	0	479199232	42	5735
2026-01-05 14:05:30.63	26.90	15.27	-34.2	-35.1	24.0	0.00e+00	123	28	0	482344960	42	5655
2026-01-05 14:05:31.63	26.96	15.37	-34.4	-35.3	23.9	0.00e+00	120	28	0	485490688	42	5767
2026-01-05 14:05:32.64	27.02	15.48	-34.1	-35.0	24.1	0.00e+00	122	28	0	488636416	42	5584
2026-01-05 14:05:33.65	27.09	15.58	-34.2	-35.1	24.0	0.00e+00	122	28	0	491782144	42	5644
2026-01-05 14:05:34.66	27.15	15.69	-34.2	-35.1	24.0	0.00e+00	123	28	0	494927872	42	5632
2026-01-05 14:05:35.67	27.21	15.79	-34.3	-35.2	23.9	0.00e+00	121	28	0	498073600	42	5694
2026-01-05 14:05:36.68	27.27	15.90	-34.2	-35.1	24.0	0.00e+00	122	28	0	501219328	42	5659
2026-01-05 14:05:37.69	27.34	16.01	-34.4	-35.3	23.9	0.00e+00	123	28	0	504365056	42	5759
2026-01-05 14:05:38.70	27.40	16.12	-34.4	-35.3	23.9	0.00e+00	123	28	0	507510784	42	5744
2026-01-05 14:05:39.71	27.47	16.22	-34.4	-35.3	23.9	0.00e+00	122	28	0	510656512	42	5783
2026-01-05 14:05:40.72	27.53	16.33	-34.3	-35.2	23.9	0.00e+00	123	28	0	513802240	42	5697
2026-01-05 14:05:41.73	27.60	16.44	-34.5	-35.4	23.7	0.00e+00	120	28	0	516947968	42	5846
2026-01-05 14:05:42.74	27.66	16.55	-34.2	-35.1	24.0	0.00e+00	123	28	0	520093696	42	5644
2026-01-05 14:05:43.75	27.73	16.66	-34.3	-35.2	24.0	0.00e+00	122	28	0	523239424	42	5712
2026-01-05 14:05:44.76	27.79	16.77	-34.3	-35.2	23.9	0.00e+00	122	28	0	526385152	42	5693
2026-01-05 14:05:45.77	27.86	16.88	-34.3	-35.2	23.9	0.00e+00	122	28	0	529530880	42	5724
2026-01-05 14:05:46.77	27.93	16.99	-34.1	-35.0	24.1	0.00e+00	123	28	0	532676608	42	5575
2026-01-05 14:05:47.79	28.00	17.10	-34.2	-35.1	24.0	0.00e+00	120	28	0	535822336	42	5643
2026-01-05 14:05:48.79	28.06	17.21	-34.3	-35.2	23.9	0.00e+00	123	28	0	538968064	42	5667
2026-01-05 14:05:49.80	28.13	17.32	-34.4	-35.3	23.9	0.00e+00	120	28	0	542113792	42	5754
2026-01-05 14:05:50.81	28.20	17.44	-34.2	-35.1	24.0	0.00e+00	122	28	0	545259520	42	5655
2026-01-05 14:05:51.82	28.27	17.55	-34.2	-35.1	24.0	0.00e+00	123	28	0	548405248	42	5649
2026-01-05 14:05:52.83	28.34	17.66	-34.2	-35.1	24.0	0.00e+00	123	28	0	551550976	42	5651
2026-01-05 14:05:53.84	28.41	17.78	-34.2	-35.1	24.1	0.00e+00	122	28	0	554696704	42	5623
2026-01-05 14:05:54.85	28.49	17.89	-34.4	-35.3	23.9	0.00e+00	122	28	0	557842432	42	5744
2026-01-05 14:05:55.86	28.56	18.01	-34.3	-35.2	23.9	0.00e+00	122	28	0	560988160	42	5702
2026-01-05 14:05:56.87	28.63	18.12	-34.4	-35.3	23.9	0.00e+00	120	28	0	564133888	42	5784
2026-01-05 14:05:57.88	28.70	18.24	-34.3	-35.3	23.9	0.00e+00	123	28	0	567279616	42	5733
2026-01-05 14:05:58.89	28.78	18.35	-34.4	-35.3	23.9	0.00e+00	120	28	0	570425344	42	5784
2026-01-05 14:05:59.90	28.85	18.47	-34.5	-35.4	23.8	0.00e+00	123	28	0	573571072	42	5825
2026-01-05 14:06:00.91	28.92	18.59	-34.3	-35.2	23.9	0.00e+00	120	28	0	576716800	42	5682
2026-01-05 14:06:01.92	29.00	18.71	-34.5	-35.4	23.7	0.00e+00	122	28	0	579862528	42	5857
2026-01-05 14:06:02.93	29.08	18.83	-34.3	-35.3	23.9	0.00e+00	120	28	0	583008256	42	5734
2026-01-05 14:06:03.94	29.15	18.95	-34.3	-35.2	24.0	0.00e+00	123	28	0	586153984	42	5719
2026-01-05 14:06:04.96	29.23	19.07	-34.4	-35.3	23.8	0.00e+00	120	28	0	589299712	42	5756
2026-01-05 14:06:05.96	29.31	19.19	-34.2	-35.1	24.0	0.00e+00	123	28	0	592445440	42	5630
2026-01-05 14:06:06.97	29.38	19.31	-34.4	-35.3	23.9	0.00e+00	123	28	0	595591168	42	5740
2026-01-05 14:06:07.98	29.46	19.43	-34.1	-35.0	24.0	0.00e+00	122	28	0	598736896	42	5572
2026-01-05 14:06:08.99	29.54	19.55	-34.1	-35.0	24.0	0.00e+00	122	28	0	601882624	42	5549
2026-01-05 14:06:10.00	29.62	19.67	-34.3	-35.2	23.9	0.00e+00	123	28	0	605028352	42	5688
2026-01-05 14:06:11.01	29.70	19.80	-33.9	-34.9	24.2	0.00e+00	120	28	0	608174080	42	5468
2026-01-05 14:06:12.02	29.78	19.92	-34.1	-35.0	24.2	0.00e+00	123	28	0	611319808	42	5558
2026-01-05 14:06:13.03	29.86	20.04	-34.1	-35.0	24.2	0.00e+00	122	28	0	614465536	42	5545
2026-01-05 14:06:14.04	29.95	20.17	-34.1	-35.0	24.1	0.00e+00	122	28	0	617611264	42	5577
2026-01-05 14:06:15.05	30.03	20.29	-34.0	-34.9	24.1	0.00e+00	123	28	0	620756992	42	5502
2026-01-05 14:06:16.06	30.11	20.42	-34.0	-34.9	24.1	0.00e+00	122	28	0	623902720	42	5503
2026-01-05 14:06:17.07	30.20	20.55	-34.0	-34.9	24.1	0.00e+00	123	28	0	627048448	42	5496
2026-01-05 14:06:18.08	30.28	20.67	-34.1	-35.0	24.0	0.00e+00	122	28	0	630194176	42	5543
2026-01-05 14:06:19.09	30.37	20.80	-33.7	-34.6	24.3	0.00e+00	120	28	0	633339904	42	5311
2026-01-05 14:06:20.10	30.45	20.93	-33.8	-34.7	24.3	0.00e+00	122	28	0	636485632	40	6026
2026-01-05 14:06:21.11	30.54	21.06	-33.7	-34.5	24.4	0.00e+00	123	28	0	639631360	40	5909
2026-01-05 14:06:22.12	30.63	21.19	-33.5	-34.4	24.4	0.00e+00	123	28	0	642777088	40	5824
2026-01-05 14:06:23.13	30.71	21.32	-33.5	-34.4	24.5	0.00e+00	122	28	0	645922816	40	5811
2026-01-05 14:06:24.14	30.80	21.45	-33.4	-34.3	24.5	0.00e+00	122	28	0	649068544	40	5761
2026-01-05 14:06:25.15	30.89	21.58	-33.4	-34.3	24.5	0.00e+00	120	28	0	652214272	40	5787
2026-01-05 14:06:26.15	30.98	21.71	-33.3	-34.1	24.6	0.00e+00	122	28	0	656408576	40	5652
2026-01-05 14:06:27.16	31.07	21.84	-33.3	-34.2	24.7	0.00e+00	123	28	0	659554304	40	5694
2026-01-05 14:06:28.17	31.16	21.98	-33.2	-34.1	24.8	0.00e+00	123	28	0	661651456	40	5610
2026-01-05 14:06:29.18	31.26	22.11	-33.4	-34.3	24.8	0.00e+00	120	28	0	664797184	40	5730
2026-01-05 14:06:30.19	31.35	22.25	-33.2	-34.0	24.9	0.00e+00	123	28	0	667942912	40	5583
2026-01-05 14:06:31.20	31.44	22.38	-33.2	-34.1	24.8	0.00e+00	122	28	0	672137216	40	5595
2026-01-05 14:06:32.21	31.54	22.52	-33.1	-34.0	24.9	0.00e+00	123	28	0	675282944	40	5545
2026-01-05 14:06:33.22	31.63	22.65	-33.0	-33.9	24.9	0.00e+00	122	28	0	678428672	40	5515
2026-01-05 14:06:34.23	31.73	22.79	-33.0	-33.8	25.0	0.00e+00	123	28	0	681574400	40	5465
2026-01-05 14:06:35.24	31.83	22.93	-32.9	-33.7	25.0	0.00e+00	123	28	0	683671552	40	5389
2026-01-05 14:06:36.25	31.93	23.07	-32.9	-33.8	25.1	0.00e+00	120	28	0	686817280	40	5414
2026-01-05 14:06:37.26	32.03	23.21	-32.7	-33.6	25.2	0.00e+00	123	28	0	691011584	40	5319
2026-01-05 14:06:38.27	32.13	23.34	-32.8	-33.7	25.2	0.00e+00	123	28	0	694157312	38	6012
2026-01-05 14:06:39.28	32.23	23.49	-32.9	-33.8	25.1	0.00e+00	123	28	0	697303040	38	6066
2026-01-05 14:06:40.29	32.33	23.63	-32.7	-33.6	25.3	0.00e+00	120	28	0	700448768	38	5937
2026-01-05 14:06:41.30	32.43	23.77	-32.9	-33.7	25.1	0.00e+00	123	28	0	703594496	38	6062
2026-01-05 14:06:42.31	32.53	23.91	-32.9	-33.7	25.1	0.00e+00	123	28	0	706740224	38	6062
2026-01-05 14:06:43.32	32.64	24.05	-32.8	-33.7	25.2	0.00e+00	123	28	0	709885952	38	6006
2026-01-05 14:06:44.33	32.74	24.20	-32.8	-33.7	25.3	0.00e+00	122	28	0	713031680	38	6046
2026-01-05 14:06:45.34	32.85	24.34	-32.8	-33.6	25.2	0.00e+00	123	28	0	716177408	38	5974
2026-01-05 14:06:46.34	32.95	24.49	-33.0	-33.8	25.2	0.00e+00	122	28	0	719323136	38	6117
2026-01-05 14:06:47.35	33.06	24.63	-32.9	-33.7	25.2	0.00e+00	123	28	0	722468864	38	6041
2026-01-05 14:06:48.36	33.17	24.78	-33.0	-33.9	25.1	0.00e+00	122	28	0	725614592	38	6166
2026-01-05 14:06:49.37	33.28	24.93	-32.8	-33.7	25.2	0.00e+00	122	28	0	728760320	38	6024
2026-01-05 14:06:50.38	33.39	25.07	-33.1	-33.9	25.1	0.00e+00	123	28	0	731906048	38	6184
2026-01-05 14:06:51.39	33.50	25.22	-33.0	-33.9	25.1	0.00e+00	123	28	0	735051776	38	6172
2026-01-05 14:06:52.40	33.62	25.37	-32.8	-33.7	25.2	0.00e+00	123	28	0	738197504	38	6012
2026-01-05 14:06:53.41	33.73	25.52	-33.0	-33.9	25.1	0.00e+00	123	28	0	741343232	38	6167
2026-01-05 14:06:54.42	33.84	25.67	-33.1	-33.9	25.1	0.00e+00	122	28	0	744488960	38	6202
2026-01-05 14:06:55.43	33.96	25.83	-33.3	-34.2	25.0	0.00e+00	123	28	0	747634688	38	6353
2026-01-05 14:06:56.44	34.08	25.98	-33.4	-34.3	24.9	0.00e+00	122	28	0	750780416	38	6443
2026-01-05 14:06:57.45	34.20	26.13	-33.5	-34.4	24.8	0.00e+00	123	28	0	753926144	38	6503
2026-01-05 14:06:58.46	34.31	26.29	-33.5	-34.3	24.8	0.00e+00	123	28	0	757071872	38	6496
2026-01-05 14:06:59.47	34.43	26.44	-33.5	-34.4	24.8	0.00e+00	123	28	0	760217600	38	6527
2026-01-05 14:07:00.48	34.56	26.60	-33.6	-34.5	24.7	0.00e+00	123	28	0	763363328	38	6576
2026-01-05 14:07:01.49	34.68	26.75	-33.7	-34.6	24.7	0.00e+00	123	28	0	766509056	40	5940
2026-01-05 14:07:02.50	34.80	26.91	-33.8	-34.8	24.5	0.00e+00	123	28	0	769654784	40	6067
2026-01-05 14:07:03.51	34.93	27.07	-33.9	-34.8	24.4	0.00e+00	123	28	0	772800512	40	6126
2026-01-05 14:07:04.51	35.05	27.23	-33.9	-34.8	24.5	0.00e+00	123	28	0	775946240	40	6075
2026-01-05 14:07:05.53	35.18	27.39	-33.7	-34.6	24.7	0.00e+00	122	28	0	779091968	40	5952
2026-01-05 14:07:06.54	35.31	27.55	-33.7	-34.6	24.6	0.00e+00	121	28	0	782237696	40	5963
2026-01-05 14:07:07.55	35.44	27.71	-33.7	-34.6	24.6	0.00e+00	123	28	0	785383424	40	5931
2026-01-05 14:07:08.55	35.57	27.87	-33.9	-34.7	24.5	0.00e+00	123	28	0	788529152	40	6057
2026-01-05 14:07:09.56	35.70	28.03	-33.8	-34.6	24.6	0.00e+00	122	28	0	791674880	40	5980
2026-01-05 14:07:10.57	35.84	28.19	-33.8	-34.7	24.5	0.00e+00	123	28	0	794820608	40	6040
2026-01-05 14:07:11.58	35.97	28.36	-33.8	-34.6	24.6	0.00e+00	123	28	0	797966336	40	5989
2026-01-05 14:07:12.59	36.11	28.52	-33.8	-34.6	24.5	0.00e+00	123	28	0	801112064	40	5992
2026-01-05 14:07:13.60	36.24	28.69	-33.9	-34.7	24.5	0.00e+00	123	28	0	804257792	40	6062
2026-01-05 14:07:14.61	36.38	28.86	-34.0	-34.8	24.4	0.00e+00	123	28	0	807403520	40	6131
2026-01-05 14:07:15.62	36.52	29.02	-34.0	-34.9	24.3	0.00e+00	123	28	0	810549248	40	6143
2026-01-05 14:07:16.63	36.67	29.19	-34.0	-34.9	24.2	0.00e+00	122	28	0	813694976	40	6164
2026-01-05 14:07:17.63	36.81	29.36	-34.0	-34.9	24.3	0.00e+00	123	28	0	816840704	40	6157
2026-01-05 14:07:18.64	36.95	29.53	-34.0	-34.9	24.3	0.00e+00	123	28	0	819986432	40	6176
2026-01-05 14:07:19.65	37.10	29.70	-33.9	-34.8	24.4	0.00e+00	122	28	0	823132160	40	6081
2026-01-05 14:07:20.66	37.25	29.87	-33.9	-34.8	24.3	0.00e+00	123	28	0	826277888	40	6129
2026-01-05 14:07:21.67	37.40	30.05	-33.9	-34.8	24.3	0.00e+00	122	28	0	829423616	40	6126
2026-01-05 14:07:22.67	37.55	30.22	-34.0	-34.9	24.2	0.00e+00	123	28	0	832569344	40	6177
2026-01-05 14:07:23.69	37.70	30.39	-33.8	-34.7	24.5	0.00e+00	122	28	0	835715072	40	6006
2026-01-05 14:07:24.69	37.85	30.57	-33.7	-34.6	24.5	0.00e+00	123	28	0	838860800	40	5961
2026-01-05 14:07:25.70	38.01	30.74	-33.7	-34.5	24.6	0.00e+00	123	28	0	842006528	40	5924
2026-01-05 14:07:26.71	38.17	30.92	-33.7	-34.6	24.6	0.00e+00	123	28	0	845152256	40	5960
2026-01-05 14:07:27.72	38.33	31.10	-33.8	-34.7	24.5	0.00e+00	123	28	0	848297984	40	6000
2026-01-05 14:07:28.73	38.49	31.28	-33.9	-34.8	24.4	0.00e+00	122	28	0	851443712	40	6085
2026-01-05 14:07:29.74	38.65	31.46	-33.8	-34.7	24.4	0.00e+00	122	28	0	854589440	40	6058
2026-01-05 14:07:30.75	38.81	31.64	-33.7	-34.6	24.5	0.00e+00	123	28	0	857735168	40	5949
2026-01-05 14:07:31.76	38.98	31.82	-33.9	-34.8	24.4	0.00e+00	123	28	0	860880896	40	6066
2026-01-05 14:07:32.77	39.15	32.00	-33.7	-34.6	24.6	0.00e+00	122	28	0	864026624	40	5970
2026-01-05 14:07:33.78	39.32	32.18	-33.6	-34.5	24.7	0.00e+00	123	28	0	867172352	40	5890
2026-01-05 14:07:34.79	39.49	32.37	-33.6	-34.5	24.7	0.00e+00	122	28	0	870318080	40	5886
2026-01-05 14:07:35.80	39.66	32.55	-33.9	-34.8	24.6	0.00e+00	123	28	0	873463808	40	6074
2026-01-05 14:07:36.81	39.84	32.74	-34.0	-34.9	24.6	0.00e+00	123	28	0	876609536	40	6171
2026-01-05 14:07:37.82	40.02	32.92	-34.0	-34.9	24.5	0.00e+00	123	28	0	879755264	40	6181
2026-01-05 14:07:38.83	40.20	33.11	-34.2	-35.1	24.3	0.00e+00	123	28	0	882900992	40	6317
2026-01-05 14:07:39.84	40.38	33.30	-34.4	-35.3	24.2	0.00e+00	123	28	0	886046720	40	6447
2026-01-05 14:07:40.85	40.56	33.49	-34.6	-35.5	24.1	0.00e+00	123	28	0	889192448	40	6633
2026-01-05 14:07:41.86	40.75	33.68	-34.7	-35.6	24.0	0.00e+00	122	28	0	892338176	40	6700
2026-01-05 14:07:42.87	40.93	33.87	-34.7	-35.6	23.9	0.00e+00	123	28	0	895483904	42	5991
2026-01-05 14:07:43.87	41.12	34.06	-34.9	-35.8	23.8	0.00e+00	123	28	0	898629632	42	6121
2026-01-05 14:07:44.88	41.32	34.25	-35.1	-36.0	23.7	0.00e+00	122	28	0	901775360	42	6262
2026-01-05 14:07:45.89	41.51	34.44	-35.1	-36.1	23.6	0.00e+00	122	28	0	904921088	42	6287
2026-01-05 14:07:46.90	41.71	34.64	-35.2	-36.1	23.6	0.00e+00	123	28	0	908066816	42	6319
2026-01-05 14:07:47.91	41.91	34.83	-35.3	-36.3	23.4	0.00e+00	120	28	0	911212544	42	6431
2026-01-05 14:07:48.92	42.11	35.03	-35.3	-36.3	23.5	0.00e+00	123	28	0	914358272	42	6439
2026-01-05 14:07:49.93	42.31	35.22	-35.4	-36.4	23.4	0.00e+00	122	28	0	917504000	42	6519
2026-01-05 14:07:50.94	42.52	35.42	-35.5	-36.5	23.3	0.00e+00	123	28	0	920649728	42	6594
2026-01-05 14:07:51.95	42.73	35.62	-35.5	-36.4	23.3	0.00e+00	123	28	0	923795456	42	6544
2026-01-05 14:07:52.96	42.94	35.82	-35.5	-36.5	23.3	0.00e+00	120	28	0	926941184	42	6599
2026-01-05 14:07:53.97	43.15	36.02	-35.6	-36.5	23.2	0.00e+00	123	28	0	930086912	42	6636
2026-01-05 14:07:54.97	43.36	36.22	-35.6	-36.6	23.2	0.00e+00	122	28	0	933232640	44	5940
2026-01-05 14:07:55.98	43.58	36.42	-35.6	-36.6	23.2	0.00e+00	123	28	0	936378368	44	5970
2026-01-05 14:07:56.99	43.80	36.62	-35.5	-36.5	23.3	0.00e+00	123	28	0	939524096	44	5908
2026-01-05 14:07:58.00	44.03	36.82	-35.6	-36.6	23.2	0.00e+00	123	28	0	942669824	44	5937
2026-01-05 14:07:59.01	44.26	37.03	-35.7	-36.6	23.2	0.00e+00	122	28	0	945815552	44	5978
2026-01-05 14:08:00.02	44.49	37.23	-35.8	-36.8	23.1	0.00e+00	122	28	0	948961280	44	6066
2026-01-05 14:08:01.03	44.72	37.44	-36.0	-37.0	22.8	0.00e+00	122	28	0	952107008	44	6248
2026-01-05 14:08:02.04	44.95	37.65	-36.3	-37.3	22.7	0.00e+00	123	28	0	955252736	44	6428
2026-01-05 14:08:03.05	45.19	37.85	-36.4	-37.5	22.4	0.00e+00	122	28	0	958398464	44	6591
2026-01-05 14:08:04.06	45.43	38.06	-36.3	-37.3	22.3	0.00e+00	123	28	0	961544192	44	6450
2026-01-05 14:08:05.07	45.68	38.27	-36.2	-37.2	22.2	0.00e+00	123	28	0	964689920	44	6391
2026-01-05 14:08:06.08	45.93	38.48	-36.3	-37.4	22.1	0.00e+00	122	28	0	967835648	44	6509
2026-01-05 14:08:07.09	46.18	38.69	-36.3	-37.4	22.2	0.00e+00	122	28	0	970981376	44	6510
2026-01-05 14:08:08.10	46.43	38.90	-36.4	-37.4	22.2	0.00e+00	124	28	0	974127104	44	6551
2026-01-05 14:08:09.10	46.69	39.11	-36.5	-37.6	22.2	0.00e+00	122	28	0	977272832	44	6684
2026-01-05 14:08:10.11	46.95	39.32	-36.6	-37.7	22.2	0.00e+00	122	28	0	980418560	44	6728
2026-01-05 14:08:11.12	47.21	39.53	-36.6	-37.7	22.1	0.00e+00	118	28	0	983564288	44	6750
2026-01-05 14:08:12.13	47.48	39.75	-36.3	-37.4	22.3	0.00e+00	123	28	0	986710016	44	6534
2026-01-05 14:08:13.14	47.75	39.96	-36.3	-37.4	22.3	0.00e+00	122	28	0	989855744	44	6507
2026-01-05 14:08:14.15	48.02	40.17	-36.1	-37.1	22.6	0.00e+00	122	28	0	993001472	44	6350
2026-01-05 14:08:15.16	48.30	40.39	-35.8	-36.8	22.9	0.00e+00	120	28	0	996147200	44	6077
2026-01-05 14:08:16.17	48.58	40.60	-35.8	-36.8	22.9	0.00e+00	122	28	0	999292928	44	6110
2026-01-05 14:08:17.18	48.87	40.82	-35.9	-36.8	22.8	0.00e+00	122	28	0	1002438656	44	6126
2026-01-05 14:08:18.19	49.16	41.04	-35.8	-36.8	23.0	0.00e+00	122	28	0	1005584384	44	6078
2026-01-05 14:08:19.20	49.45	41.25	-36.0	-37.0	22.9	0.00e+00	120	28	0	1008730112	44	6240
2026-01-05 14:08:20.21	49.75	41.47	-36.3	-37.3	22.5	0.00e+00	123	28	0	1011875840	44	6456
2026-01-05 14:08:21.22	50.05	41.69	-36.4	-37.4	22.5	0.00e+00	120	28	0	1015021568	44	6558
2026-01-05 14:08:22.23	50.35	41.91	-36.0	-37.0	22.7	0.00e+00	122	28	0	1018167296	44	6231
2026-01-05 14:08:23.24	50.66	42.13	-36.0	-37.0	22.8	0.00e+00	123	28	0	1021313024	44	6237
2026-01-05 14:08:24.25	50.97	42.35	-35.9	-36.9	22.9	0.00e+00	122	28	0	1024458752	44	6145
2026-01-05 14:08:25.27	51.29	42.57	-36.0	-37.0	22.8	0.00e+00	120	28	0	1027604480	44	6208
2026-01-05 14:08:26.27	51.61	42.79	-36.2	-37.1	22.7	0.00e+00	122	28	0	1030750208	44	6337
2026-01-05 14:08:27.28	51.94	43.01	-36.5	-37.5	22.3	0.00e+00	120	28	0	1033895936	44	6603
2026-01-05 14:08:28.29	52.27	43.23	-37.2	-38.2	21.8	0.00e+00	123	28	0	1037041664	46	6393
2026-01-05 14:08:29.30	52.60	43.45	-37.3	-38.4	21.7	0.00e+00	122	28	0	1040187392	46	6556
2026-01-05 14:08:30.31	52.94	43.67	-37.2	-38.3	21.8	0.00e+00	123	28	0	1044381696	46	6446
2026-01-05 14:08:31.31	53.28	43.89	-37.1	-38.2	21.9	0.00e+00	120	28	0	1047527424	46	6371
2026-01-05 14:08:32.32	53.63	44.11	-36.8	-37.9	22.0	0.00e+00	123	28	0	1049624576	46	6139
2026-01-05 14:08:33.33	53.99	44.33	-36.7	-37.7	22.2	0.00e+00	123	28	0	1052770304	46	6039
2026-01-05 14:08:34.34	54.35	44.55	-36.5	-37.5	22.4	0.00e+00	123	28	0	1055916032	46	5909
2026-01-05 14:08:35.35	54.71	44.78	-36.4	-37.4	22.5	0.00e+00	120	28	0	1060110336	46	5817
2026-01-05 14:08:36.36	55.08	45.00	-36.5	-37.5	22.5	0.00e+00	123	28	0	1063256064	46	5918
2026-01-05 14:08:37.37	55.45	45.22	-36.6	-37.7	22.3	0.00e+00	123	28	0	1066401792	46	6008
2026-01-05 14:08:38.38	55.83	45.44	-36.4	-37.4	22.5	0.00e+00	122	28	0	1069547520	46	5850
2026-01-05 14:08:39.39	56.22	45.66	-35.9	-36.8	22.9	0.00e+00	122	28	0	1071644672	46	5445
2026-01-05 14:08:40.40	56.61	45.88	-35.6	-36.6	23.0	0.00e+00	123	28	0	1074790400	44	5970
2026-01-05 14:08:41.41	57.00	46.10	-35.5	-36.5	23.1	0.00e+00	120	28	0	1078984704	44	5862
2026-01-05 14:08:42.42	57.40	46.33	-35.4	-36.4	23.3	0.00e+00	122	28	0	1082130432	44	5822
2026-01-05 14:08:43.43	57.81	46.55	-35.5	-36.5	23.3	0.00e+00	123	28	0	1085276160	44	5870
2026-01-05 14:08:44.44	58.22	46.77	-35.6	-36.5	23.2	0.00e+00	123	28	0	1088421888	44	5917
2026-01-05 14:08:45.45	58.64	46.99	-35.9	-36.8	22.9	0.00e+00	123	28	0	1091567616	44	6100
2026-01-05 14:08:46.46	59.06	47.20	-36.0	-36.9	22.9	0.00e+00	123	28	0	1094713344	44	6185
2026-01-05 14:08:47.47	59.49	47.42	-36.2	-37.1	22.6	0.00e+00	120	28	0	1097859072	44	6349
2026-01-05 14:08:48.47	59.92	47.64	-36.2	-37.3	22.5	0.00e+00	123	28	0	1101004800	44	6424
2026-01-05 14:08:49.49	60.37	47.86	-36.1	-37.1	22.4	0.00e+00	123	28	0	1104150528	44	6288
2026-01-05 14:08:50.49	60.81	48.07	-35.8	-36.8	22.6	0.00e+00	122	28	0	1107296256	44	6110
2026-01-05 14:08:51.50	61.26	48.29	-35.8	-36.8	22.7	0.00e+00	120	28	0	1110441984	44	6108
2026-01-05 14:08:52.51	61.72	48.50	-35.7	-36.7	22.9	0.00e+00	123	28	0	1113587712	44	6014
2026-01-05 14:08:53.52	62.19	48.72	-35.8	-36.8	22.9	0.00e+00	121	28	0	1116733440	44	6066
2026-01-05 14:08:54.53	62.66	48.93	-35.8	-36.8	22.8	0.00e+00	123	28	0	1119879168	44	6083
2026-01-05 14:08:55.54	63.14	49.14	-35.9	-36.9	22.8	0.00e+00	123	28	0	1123024896	44	6145
2026-01-05 14:08:56.55	63.63	49.35	-36.2	-37.2	22.4	0.00e+00	122	28	0	1126170624	44	6393
2026-01-05 14:08:57.57	64.13	49.56	-36.1	-37.1	22.5	0.00e+00	120	28	0	1129316352	44	6334
2026-01-05 14:08:58.58	64.63	49.77	-36.0	-37.0	22.6	0.00e+00	123	28	0	1132462080	44	6240
2026-01-05 14:08:59.59	65.13	49.98	-35.4	-36.3	23.1	0.00e+00	123	28	0	1135607808	44	5782
2026-01-05 14:09:00.59	65.64	50.18	-35.7	-36.7	22.9	0.00e+00	123	28	0	1138753536	44	6006
2026-01-05 14:09:01.60	66.16	50.39	-35.5	-36.5	23.2	0.00e+00	123	28	0	1141899264	44	5878
2026-01-05 14:09:02.61	66.69	50.59	-35.5	-36.4	23.3	0.00e+00	123	28	0	1145044992	44	5854
2026-01-05 14:09:03.62	67.22	50.79	-35.5	-36.4	23.3	0.00e+00	122	28	0	1148190720	44	5846
2026-01-05 14:09:04.63	67.76	50.99	-35.4	-36.3	23.4	0.00e+00	123	28	0	1151336448	44	5742
2026-01-05 14:09:05.65	68.32	51.19	-35.2	-36.1	23.5	0.00e+00	120	28	0	1154482176	44	5613
2026-01-05 14:09:06.66	68.87	51.38	-34.9	-35.8	23.8	0.00e+00	122	28	0	1157627904	44	5423
2026-01-05 14:09:07.67	69.44	51.58	-34.8	-35.8	23.7	0.00e+00	120	28	0	1160773632	44	5409
2026-01-05 14:09:08.68	70.01	51.77	-34.7	-35.6	23.9	0.00e+00	120	28	0	1163919360	42	5953
2026-01-05 14:09:09.69	70.58	51.96	-34.7	-35.6	23.8	0.00e+00	122	28	0	1167065088	42	5978
2026-01-05 14:09:10.70	71.17	52.15	-34.7	-35.6	23.9	0.00e+00	120	28	0	1170210816	42	5978
2026-01-05 14:09:11.71	71.76	52.33	-34.8	-35.7	23.8	0.00e+00	122	28	0	1173356544	42	6022
2026-01-05 14:09:12.71	72.36	52.51	-35.0	-36.0	23.6	0.00e+00	123	28	0	1176502272	42	6215
2026-01-05 14:09:13.72	72.96	52.69	-35.1	-36.1	23.6	0.00e+00	122	28	0	1179648000	42	6282
2026-01-05 14:09:14.73	73.58	52.87	-35.1	-36.0	23.6	0.00e+00	120	28	0	1182793728	42	6275
2026-01-05 14:09:15.74	74.20	53.04	-34.8	-35.7	23.9	0.00e+00	123	28	0	1185939456	42	6061
2026-01-05 14:09:16.75	74.83	53.21	-35.0	-35.9	23.7	0.00e+00	122	28	0	1189085184	42	6168
2026-01-05 14:09:17.76	75.46	53.38	-34.7	-35.7	23.9	0.00e+00	122	28	0	1192230912	42	5996
2026-01-05 14:09:18.77	76.11	53.55	-34.5	-35.4	24.1	0.00e+00	123	28	0	1195376640	42	5804
2026-01-05 14:09:19.78	76.76	53.71	-34.4	-35.3	24.3	0.00e+00	123	28	0	1198522368	42	5737
2026-01-05 14:09:20.79	77.41	53.87	-34.2	-35.1	24.2	0.00e+00	122	28	0	1201668096	42	5631
2026-01-05 14:09:21.80	78.08	54.03	-34.1	-35.1	24.2	0.00e+00	123	28	0	1204813824	42	5604
2026-01-05 14:09:22.81	78.75	54.18	-34.2	-35.2	24.0	0.00e+00	120	28	0	1207959552	42	5665
2026-01-05 14:09:23.82	79.43	54.33	-34.1	-35.0	24.3	0.00e+00	120	28	0	1211105280	42	5552
2026-01-05 14:09:24.83	80.12	54.47	-34.2	-35.1	24.2	0.00e+00	122	28	0	1214251008	42	5626
2026-01-05 14:09:25.84	80.81	54.61	-33.9	-34.8	24.1	0.00e+00	123	28	0	1217396736	42	5410
2026-01-05 14:09:26.85	81.51	54.75	-34.1	-35.0	23.8	0.00e+00	123	28	0	1220542464	42	5555
2026-01-05 14:09:27.86	82.22	54.89	-34.2	-35.1	24.0	0.00e+00	122	28	0	1223688192	42	5638
2026-01-05 14:09:28.87	82.93	55.02	-34.1	-35.0	24.2	0.00e+00	123	28	0	1226833920	42	5539
2026-01-05 14:09:29.88	83.65	55.14	-33.8	-34.7	24.4	0.00e+00	122	28	0	1229979648	42	5389
2026-01-05 14:09:30.89	84.38	55.27	-33.7	-34.6	24.6	0.00e+00	120	28	0	1233125376	40	5939
2026-01-05 14:09:31.90	85.11	55.38	-33.7	-34.5	24.5	0.00e+00	122	28	0	1236271104	40	5912
2026-01-05 14:09:32.91	85.85	55.50	-33.9	-34.8	24.5	0.00e+00	122	28	0	1239416832	40	6085
2026-01-05 14:09:33.92	86.59	55.61	-33.8	-34.8	24.6	0.00e+00	122	28	0	1242562560	40	6065
2026-01-05 14:09:34.93	87.34	55.71	-33.8	-34.7	24.5	0.00e+00	123	28	0	1245708288	40	6015
2026-01-05 14:09:35.94	88.10	55.81	-33.9	-34.8	24.2	0.00e+00	123	28	0	1248854016	40	6120
2026-01-05 14:09:36.95	88.86	55.91	-33.9	-34.8	24.4	0.00e+00	120	28	0	1251999744	40	6084
2026-01-05 14:09:37.95	89.62	56.00	-33.8	-34.7	24.5	0.00e+00	122	28	0	1255145472	40	6030
2026-01-05 14:09:38.96	90.39	56.08	-33.7	-34.6	24.7	0.00e+00	122	28	0	1258291200	40	5932
2026-01-05 14:09:39.97	91.16	56.16	-33.4	-34.2	25.0	0.00e+00	122	28	0	1261436928	40	5718
2026-01-05 14:09:40.98	91.94	56.24	-33.7	-34.6	24.7	0.00e+00	120	28	0	1264582656	40	5951
2026-01-05 14:09:41.99	92.72	56.31	-33.6	-34.5	24.7	0.00e+00	122	28	0	1267728384	40	5906
2026-01-05 14:09:43.00	93.51	56.38	-33.7	-34.5	24.6	0.00e+00	120	28	0	1270874112	40	5919
2026-01-05 14:09:44.01	94.30	56.44	-33.3	-34.2	24.8	0.00e+00	123	28	0	1274019840	40	5667
2026-01-05 14:09:45.02	95.10	56.49	-33.2	-34.0	24.8	0.00e+00	120	28	0	1277165568	40	5592
2026-01-05 14:09:46.03	95.89	56.54	-33.4	-34.2	24.7	0.00e+00	122	28	0	1280311296	40	5721
2026-01-05 14:09:47.04	96.69	56.59	-33.6	-34.5	24.5	0.00e+00	120	28	0	1283457024	40	5890
2026-01-05 14:09:48.05	97.50	56.63	-34.2	-35.2	24.2	0.00e+00	121	28	0	1286602752	40	6360
2026-01-05 14:09:49.05	98.29	56.66	-34.4	-35.3	24.1	0.00e+00	122	28	0	1289748480	40	6495
2026-01-05 14:09:50.07	99.11	56.69	-34.0	-34.9	24.5	0.00e+00	121	28	0	1292894208	40	6180
2026-01-05 14:09:51.07	99.91	56.72	-33.6	-34.5	24.7	0.00e+00	123	28	0	1296039936	40	5911
2026-01-05 14:09:52.08	100.72	56.73	-33.3	-34.2	24.9	0.00e+00	123	28	0	1299185664	40	5661
2026-01-05 14:09:53.09	101.53	56.75	-33.4	-34.3	24.8	0.00e+00	122	28	0	1302331392	40	5755
2026-01-05 14:09:54.10	102.34	56.76	-33.6	-34.5	24.7	0.00e+00	122	28	0	1305477120	40	5878
2026-01-05 14:09:55.11	103.15	56.76	-33.7	-34.6	24.5	0.00e+00	123	28	0	1308622848	40	5937
2026-01-05 14:09:56.12	103.96	56.75	-33.7	-34.6	24.5	0.00e+00	120	28	0	1311768576	40	5975
2026-01-05 14:09:57.13	104.77	56.75	-33.7	-34.6	24.4	0.00e+00	123	28	0	1314914304	40	5948
2026-01-05 14:09:58.14	105.58	56.73	-33.7	-34.6	24.7	0.00e+00	120	28	0	1318060032	40	5976
2026-01-05 14:09:59.15	106.39	56.71	-33.5	-34.4	24.7	0.00e+00	123	28	0	1321205760	40	5794
2026-01-05 14:10:00.16	107.20	56.69	-33.3	-34.2	24.9	0.00e+00	123	28	0	1324351488	40	5681
2026-01-05 14:10:01.17	108.01	56.66	-33.6	-34.4	24.6	0.00e+00	123	28	0	1327497216	40	5852
2026-01-05 14:10:02.18	108.81	56.62	-33.7	-34.6	24.6	0.00e+00	122	28	0	1330642944	40	5985
2026-01-05 14:10:03.19	109.62	56.58	-33.6	-34.5	24.7	0.00e+00	123	28	0	1333788672	40	5860
2026-01-05 14:10:04.21	110.42	56.53	-33.5	-34.4	24.8	0.00e+00	123	28	0	1336934400	40	5794
2026-01-05 14:10:05.21	111.21	56.48	-32.8	-33.7	25.1	0.00e+00	123	28	0	1340080128	40	5368
2026-01-05 14:10:06.22	112.01	56.43	-33.2	-34.1	24.7	0.00e+00	122	28	0	1343225856	40	5620
2026-01-05 14:10:07.23	112.80	56.36	-33.7	-34.6	24.6	0.00e+00	118	28	0	1346371584	40	5955
2026-01-05 14:10:08.24	113.59	56.30	-33.6	-34.5	24.6	0.00e+00	123	28	0	1349517312	40	5883
2026-01-05 14:10:09.25	114.37	56.22	-33.5	-34.3	24.8	0.00e+00	120	28	0	1352663040	40	5781
2026-01-05 14:10:10.26	115.15	56.15	-33.9	-34.8	24.4	0.00e+00	123	28	0	1355808768	40	6081
2026-01-05 14:10:11.27	115.92	56.07	-34.0	-34.9	24.4	0.00e+00	123	28	0	1358954496	40	6205
2026-01-05 14:10:12.28	116.69	55.98	-33.8	-34.7	24.5	0.00e+00	123	28	0	1362100224	40	6019
2026-01-05 14:10:13.29	117.46	55.89	-33.5	-34.4	24.3	0.00e+00	123	28	0	1365245952	40	5830
2026-01-05 14:10:14.30	118.22	55.79	-33.4	-34.3	24.5	0.00e+00	122	28	0	1368391680	40	5776
2026-01-05 14:10:15.31	118.97	55.69	-34.0	-34.9	24.2	0.00e+00	122	28	0	1371537408	40	6202
2026-01-05 14:10:16.31	119.72	55.59	-34.4	-35.3	24.2	0.00e+00	123	28	0	1374683136	40	6476
2026-01-05 14:10:17.33	120.47	55.47	-34.3	-35.2	24.2	0.00e+00	123	28	0	1377828864	40	6405
2026-01-05 14:10:18.33	121.20	55.36	-34.3	-35.3	24.1	0.00e+00	123	28	0	1380974592	40	6427
2026-01-05 14:10:19.34	121.93	55.24	-34.3	-35.2	24.1	0.00e+00	123	28	0	1384120320	40	6362
2026-01-05 14:10:20.35	122.65	55.12	-34.3	-35.2	24.2	0.00e+00	120	28	0	1388314624	40	6419
2026-01-05 14:10:21.36	123.37	54.99	-34.4	-35.3	24.0	0.00e+00	123	28	0	1390411776	40	6458
2026-01-05 14:10:22.37	124.09	54.86	-34.5	-35.4	24.2	0.00e+00	123	28	0	1393557504	40	6556
2026-01-05 14:10:23.38	124.79	54.73	-34.2	-35.1	24.3	0.00e+00	123	28	0	1396703232	40	6341
2026-01-05 14:10:24.39	125.49	54.59	-34.5	-35.4	24.2	0.00e+00	123	28	0	1399848960	40	6506
2026-01-05 14:10:25.40	126.19	54.44	-34.3	-35.2	24.3	0.00e+00	123	28	0	1402994688	40	6398
2026-01-05 14:10:26.41	126.87	54.30	-33.9	-34.8	24.6	0.00e+00	122	28	0	1407188992	40	6108
2026-01-05 14:10:27.42	127.55	54.15	-33.6	-34.4	24.8	0.00e+00	123	28	0	1410334720	40	5843
2026-01-05 14:10:28.43	128.22	53.99	-33.4	-34.2	24.9	0.00e+00	123	28	0	1412431872	40	5684
2026-01-05 14:10:29.44	128.89	53.84	-33.7	-34.6	24.7	0.00e+00	122	28	0	1415577600	40	5974
2026-01-05 14:10:30.45	129.55	53.68	-33.8	-34.6	24.7	0.00e+00	123	28	0	1418723328	40	5990
2026-01-05 14:10:31.45	130.19	53.52	-34.4	-35.3	24.2	0.00e+00	123	28	0	1422917632	40	6478
2026-01-05 14:10:32.46	130.83	53.35	-34.6	-35.6	23.9	0.00e+00	122	28	0	1426063360	40	6684
2026-01-05 14:10:33.47	131.47	53.18	-34.8	-35.8	23.4	0.00e+00	123	28	0	1429209088	42	6094
2026-01-05 14:10:34.49	132.10	53.01	-34.9	-35.9	23.5	0.00e+00	122	28	0	1432354816	42	6168
2026-01-05 14:10:35.50	132.73	52.83	-34.8	-35.7	23.8	0.00e+00	123	28	0	1435500544	42	6055
2026-01-05 14:10:36.51	133.34	52.65	-34.7	-35.7	23.9	0.00e+00	123	28	0	1438646272	42	6009
2026-01-05 14:10:37.51	133.94	52.47	-35.1	-36.0	23.6	0.00e+00	123	28	0	1441792000	42	6276
2026-01-05 14:10:38.52	134.54	52.29	-35.6	-36.5	23.3	0.00e+00	122	28	0	1444937728	42	6645
2026-01-05 14:10:39.53	135.13	52.10	-35.6	-36.6	23.2	0.00e+00	123	28	0	1448083456	42	6697
2026-01-05 14:10:40.54	135.71	51.92	-35.3	-36.3	23.3	0.00e+00	123	28	0	1451229184	42	6469
2026-01-05 14:10:41.55	136.29	51.73	-35.2	-36.2	23.1	0.00e+00	121	28	0	1454374912	42	6408
2026-01-05 14:10:42.56	136.86	51.53	-34.8	-35.8	23.4	0.00e+00	123	28	0	1457520640	42	6097
2026-01-05 14:10:43.57	137.42	51.34	-34.7	-35.7	23.6	0.00e+00	123	28	0	1460666368	42	6002
2026-01-05 14:10:44.58	137.98	51.14	-34.9	-35.9	23.4	0.00e+00	123	28	0	1463812096	42	6143
2026-01-05 14:10:45.59	138.53	50.94	-35.2	-36.2	23.5	0.00e+00	122	28	0	1466957824	42	6386
2026-01-05 14:10:46.60	139.07	50.74	-35.5	-36.4	23.2	0.00e+00	122	28	0	1470103552	42	6554
2026-01-05 14:10:47.61	139.60	50.54	-35.7	-36.7	23.1	0.00e+00	123	28	0	1473249280	42	6741
2026-01-05 14:10:48.62	140.13	50.34	-35.8	-36.8	22.8	0.00e+00	123	28	0	1476395008	44	6100
2026-01-05 14:10:49.63	140.65	50.13	-36.1	-37.2	22.6	0.00e+00	123	28	0	1479540736	44	6372
2026-01-05 14:10:50.63	141.16	49.93	-35.9	-36.9	22.9	0.00e+00	123	28	0	1482686464	44	6140
2026-01-05 14:10:51.64	141.66	49.72	-35.7	-36.6	22.9	0.00e+00	123	28	0	1485832192	44	5989
2026-01-05 14:10:52.65	142.16	49.51	-35.6	-36.5	23.0	0.00e+00	122	28	0	1488977920	44	5908
2026-01-05 14:10:53.66	142.65	49.30	-35.6	-36.6	23.2	0.00e+00	120	28	0	1492123648	44	5948
2026-01-05 14:10:54.67	143.14	49.09	-35.7	-36.7	23.0	0.00e+00	123	28	0	1495269376	44	6044
2026-01-05 14:10:55.68	143.62	48.88	-35.9	-36.9	22.9	0.00e+00	123	28	0	1498415104	44	6153
2026-01-05 14:10:56.69	144.09	48.66	-36.0	-37.0	22.5	0.00e+00	123	28	0	1501560832	44	6226
2026-01-05 14:10:57.70	144.56	48.45	-36.0	-37.0	22.6	0.00e+00	123	28	0	1504706560	44	6273
2026-01-05 14:10:58.71	145.02	48.23	-35.9	-36.8	22.8	0.00e+00	123	28	0	1507852288	44	6127
2026-01-05 14:10:59.72	145.47	48.02	-35.7	-36.7	22.6	0.00e+00	122	28	0	1510998016	44	6000
2026-01-05 14:11:00.72	145.92	47.80	-35.6	-36.6	22.9	0.00e+00	122	28	0	1514143744	44	5945
2026-01-05 14:11:01.74	146.36	47.58	-35.1	-36.0	23.6	0.00e+00	122	28	0	1517289472	44	5573
2026-01-05 14:11:02.75	146.80	47.36	-34.9	-35.8	23.9	0.00e+00	122	28	0	1520435200	44	5414
2026-01-05 14:11:03.75	147.22	47.14	-34.8	-35.7	23.9	0.00e+00	123	28	0	1523580928	42	6049
2026-01-05 14:11:04.76	147.64	46.92	-34.8	-35.7	23.9	0.00e+00	122	28	0	1526726656	42	6050
2026-01-05 14:11:05.77	148.06	46.70	-35.6	-36.5	23.1	0.00e+00	123	28	0	1529872384	42	6621
2026-01-05 14:11:06.78	148.47	46.48	-36.6	-37.6	22.0	0.00e+00	123	28	0	1533018112	44	6691
2026-01-05 14:11:07.79	148.88	46.26	-36.8	-38.0	21.5	0.00e+00	122	28	0	1536163840	46	6208
2026-01-05 14:11:08.80	149.28	46.04	-36.7	-37.7	21.7	0.00e+00	123	28	0	1539309568	46	6052
2026-01-05 14:11:09.81	149.67	45.82	-36.0	-37.0	22.4	0.00e+00	121	28	0	1542455296	46	5534
2026-01-05 14:11:10.82	150.06	45.60	-35.8	-36.7	22.5	0.00e+00	122	28	0	1545601024	44	6061
2026-01-05 14:11:11.83	150.45	45.37	-36.0	-37.0	22.6	0.00e+00	123	28	0	1548746752	44	6273
2026-01-05 14:11:12.84	150.83	45.15	-36.1	-37.1	22.8	0.00e+00	123	28	0	1551892480	44	6318
2026-01-05 14:11:13.85	151.20	44.93	-35.9	-36.9	22.9	0.00e+00	123	28	0	1555038208	44	6147
2026-01-05 14:11:14.86	151.57	44.71	-36.3	-37.4	22.6	0.00e+00	123	28	0	1558183936	44	6509
2026-01-05 14:11:15.87	151.93	44.48	-36.9	-38.0	22.0	0.00e+00	122	28	0	1561329664	46	6226
2026-01-05 14:11:16.87	152.29	44.26	-37.1	-38.2	21.8	0.00e+00	123	28	0	1564475392	46	6399
2026-01-05 14:11:17.88	152.64	44.04	-37.0	-38.1	22.0	0.00e+00	124	28	0	1567621120	46	6283
2026-01-05 14:11:18.89	152.99	43.82	-36.5	-37.5	22.0	0.00e+00	123	28	0	1570766848	46	5863
2026-01-05 14:11:19.90	153.33	43.60	-36.0	-37.0	22.1	0.00e+00	123	28	0	1573912576	46	5538
2026-01-05 14:11:20.91	153.67	43.37	-35.5	-36.5	22.7	0.00e+00	122	28	0	1577058304	44	5902
2026-01-05 14:11:21.92	154.01	43.15	-35.6	-36.5	23.2	0.00e+00	122	28	0	1580204032	44	5898
2026-01-05 14:11:22.93	154.34	42.93	-35.7	-36.7	23.1	0.00e+00	123	28	0	1583349760	44	6006
2026-01-05 14:11:23.94	154.66	42.71	-36.1	-37.1	22.7	0.00e+00	120	28	0	1586495488	44	6318
2026-01-05 14:11:24.95	154.99	42.49	-36.8	-37.8	22.2	0.00e+00	120	28	0	1589641216	46	6122
2026-01-05 14:11:25.96	155.30	42.27	-36.9	-37.9	22.1	0.00e+00	123	28	0	1592786944	46	6160
2026-01-05 14:11:26.96	155.61	42.05	-37.1	-38.2	21.9	0.00e+00	122	28	0	1595932672	46	6385
2026-01-05 14:11:27.98	155.92	41.83	-37.2	-38.3	21.8	0.00e+00	120	28	0	1599078400	46	6448
2026-01-05 14:11:28.99	156.23	41.61	-37.2	-38.3	21.6	0.00e+00	123	28	0	1602224128	46	6465
2026-01-05 14:11:29.99	156.53	41.39	-37.4	-38.5	21.3	0.00e+00	123	28	0	1605369856	46	6591
2026-01-05 14:11:31.00	156.82	41.17	-37.2	-38.3	21.6	0.00e+00	122	28	0	1608515584	46	6461
2026-01-05 14:11:32.01	157.12	40.95	-36.9	-38.0	22.1	0.00e+00	121	28	0	1611661312	46	6216
2026-01-05 14:11:33.02	157.40	40.74	-36.5	-37.5	22.4	0.00e+00	122	28	0	1614807040	46	5906
2026-01-05 14:11:34.03	157.69	40.52	-36.1	-37.0	22.8	0.00e+00	120	28	0	1617952768	46	5594
2026-01-05 14:11:35.04	157.97	40.30	-35.9	-36.9	23.0	0.00e+00	120	28	0	1621098496	46	5487
2026-01-05 14:11:36.05	158.25	40.09	-36.3	-37.3	22.6	0.00e+00	123	28	0	1624244224	46	5780
2026-01-05 14:11:37.06	158.52	39.87	-36.6	-37.7	22.3	0.00e+00	120	28	0	1627389952	46	6014
2026-01-05 14:11:38.07	158.79	39.66	-36.8	-37.8	22.2	0.00e+00	123	28	0	1630535680	46	6091
2026-01-05 14:11:39.08	159.06	39.44	-36.5	-37.5	22.4	0.00e+00	122	28	0	1633681408	46	5926
2026-01-05 14:11:40.09	159.32	39.23	-36.1	-37.1	22.9	0.00e+00	123	28	0	1636827136	46	5627
2026-01-05 14:11:41.10	159.58	39.02	-35.8	-36.8	23.0	0.00e+00	122	28	0	1639972864	46	5421
2026-01-05 14:11:42.11	159.84	38.81	-35.5	-36.4	23.1	0.00e+00	123	28	0	1643118592	44	5840
2026-01-05 14:11:43.11	160.09	38.60	-35.2	-36.2	23.5	0.00e+00	122	28	0	1646264320	44	5675
2026-01-05 14:11:44.12	160.34	38.39	-35.0	-35.9	23.7	0.00e+00	123	28	0	1649410048	44	5524
2026-01-05 14:11:45.13	160.59	38.18	-35.1	-36.0	23.6	0.00e+00	123	28	0	1652555776	44	5578
2026-01-05 14:11:46.14	160.83	37.97	-35.2	-36.1	23.5	0.00e+00	121	28	0	1655701504	44	5625
2026-01-05 14:11:47.15	161.08	37.76	-35.2	-36.1	23.6	0.00e+00	123	28	0	1658847232	44	5650
2026-01-05 14:11:48.16	161.31	37.55	-34.9	-35.8	23.6	0.00e+00	121	28	0	1661992960	44	5451
2026-01-05 14:11:49.17	161.55	37.34	-35.0	-35.9	23.6	0.00e+00	122	28	0	1665138688	44	5488
2026-01-05 14:11:50.18	161.78	37.14	-35.0	-35.9	23.7	0.00e+00	123	28	0	1668284416	44	5500
2026-01-05 14:11:51.19	162.01	36.93	-34.8	-35.7	23.9	0.00e+00	122	28	0	1671430144	42	6016
2026-01-05 14:11:52.20	162.24	36.73	-34.8	-35.7	23.8	0.00e+00	122	28	0	1674575872	42	6045
2026-01-05 14:11:53.20	162.46	36.52	-35.0	-35.9	23.6	0.00e+00	120	28	0	1677721600	42	6174
2026-01-05 14:11:54.21	162.68	36.32	-35.0	-35.9	23.7	0.00e+00	120	28	0	1680867328	42	6170
2026-01-05 14:11:55.22	162.90	36.12	-35.0	-35.9	23.7	0.00e+00	122	28	0	1684013056	42	6205
2026-01-05 14:11:56.24	163.12	35.92	-34.9	-35.8	23.8	0.00e+00	123	28	0	1687158784	42	6124
2026-01-05 14:11:57.25	163.33	35.71	-34.4	-35.3	24.2	0.00e+00	120	28	0	1690304512	42	5756
2026-01-05 14:11:58.25	163.54	35.52	-34.3	-35.2	24.3	0.00e+00	122	28	0	1693450240	42	5673
2026-01-05 14:11:59.27	163.75	35.32	-34.3	-35.2	24.3	0.00e+00	120	28	0	1696595968	42	5667
2026-01-05 14:12:00.27	163.95	35.12	-34.3	-35.2	24.2	0.00e+00	122	28	0	1699741696	42	5671
2026-01-05 14:12:01.29	164.16	34.92	-34.6	-35.5	23.9	0.00e+00	122	28	0	1702887424	42	5881
2026-01-05 14:12:02.30	164.36	34.72	-35.0	-36.0	23.1	0.00e+00	123	28	0	1706033152	42	6240
2026-01-05 14:12:03.31	164.56	34.53	-35.5	-36.5	22.7	0.00e+00	120	28	0	1709178880	42	6643
2026-01-05 14:12:04.32	164.75	34.33	-35.6	-36.7	22.5	0.00e+00	122	28	0	1712324608	42	6737
2026-01-05 14:12:05.33	164.95	34.14	-35.6	-36.6	22.4	0.00e+00	123	28	0	1715470336	42	6674
2026-01-05 14:12:06.34	165.14	33.95	-35.4	-36.4	22.7	0.00e+00	123	28	0	1718616064	42	6569
2026-01-05 14:12:07.35	165.33	33.75	-35.2	-36.2	23.1	0.00e+00	120	28	0	1721761792	42	6373
2026-01-05 14:12:08.35	165.52	33.56	-35.0	-36.0	23.3	0.00e+00	123	28	0	1724907520	42	6227
2026-01-05 14:12:09.36	165.70	33.37	-34.6	-35.6	23.7	0.00e+00	122	28	0	1728053248	42	5936
2026-01-05 14:12:10.37	165.88	33.18	-34.6	-35.5	24.0	0.00e+00	123	28	0	1731198976	42	5872
2026-01-05 14:12:11.38	166.07	33.00	-34.7	-35.6	23.9	0.00e+00	122	28	0	1734344704	42	5981
2026-01-05 14:12:12.39	166.24	32.81	-34.7	-35.7	23.9	0.00e+00	120	28	0	1737490432	42	6011
2026-01-05 14:12:13.40	166.42	32.62	-34.8	-35.7	23.8	0.00e+00	124	28	0	1740636160	42	6050
2026-01-05 14:12:14.41	166.60	32.43	-35.0	-35.9	23.7	0.00e+00	122	28	0	1743781888	42	6188
2026-01-05 14:12:15.42	166.77	32.25	-35.1	-36.1	23.6	0.00e+00	123	28	0	1746927616	42	6317
2026-01-05 14:12:16.43	166.94	32.06	-35.1	-36.0	23.7	0.00e+00	122	28	0	1750073344	42	6266
2026-01-05 14:12:17.44	167.11	31.88	-35.1	-36.0	23.7	0.00e+00	123	28	0	1753219072	42	6258
2026-01-05 14:12:18.45	167.28	31.70	-34.8	-35.8	23.8	0.00e+00	122	28	0	1756364800	42	6101
2026-01-05 14:12:19.46	167.44	31.52	-34.5	-35.4	24.0	0.00e+00	123	28	0	1759510528	42	5845
2026-01-05 14:12:20.46	167.61	31.34	-34.5	-35.4	24.0	0.00e+00	120	28	0	1762656256	42	5840
2026-01-05 14:12:21.47	167.77	31.16	-34.3	-35.3	24.0	0.00e+00	123	28	0	1765801984	42	5731
2026-01-05 14:12:22.48	167.93	30.98	-33.9	-34.8	24.3	0.00e+00	120	28	0	1768947712	42	5443
2026-01-05 14:12:23.49	168.09	30.80	-33.9	-34.8	24.3	0.00e+00	123	28	0	1772093440	42	5456
2026-01-05 14:12:24.50	168.25	30.62	-33.7	-34.6	24.4	0.00e+00	120	28	0	1775239168	40	5951
2026-01-05 14:12:25.51	168.40	30.45	-33.5	-34.4	24.3	0.00e+00	122	28	0	1778384896	40	5833
2026-01-05 14:12:26.53	168.56	30.27	-33.6	-34.5	24.1	0.00e+00	122	28	0	1781530624	40	5872
2026-01-05 14:12:27.53	168.71	30.10	-33.7	-34.6	24.2	0.00e+00	122	29	0	1784676352	40	5941
2026-01-05 14:12:28.55	168.86	29.92	-33.8	-34.7	24.2	0.00e+00	123	28	0	1787822080	40	6058
2026-01-05 14:12:29.56	169.01	29.75	-33.5	-34.4	24.4	0.00e+00	122	28	0	1792016384	40	5809
2026-01-05 14:12:30.56	169.15	29.58	-33.4	-34.3	24.4	0.00e+00	123	28	0	1795162112	40	5775
2026-01-05 14:12:31.57	169.30	29.40	-33.3	-34.2	24.5	0.00e+00	123	28	0	1798307840	40	5695
2026-01-05 14:12:32.58	169.45	29.23	-33.4	-34.3	24.4	0.00e+00	120	28	0	1800404992	40	5767
2026-01-05 14:12:33.59	169.59	29.06	-33.5	-34.4	24.3	0.00e+00	122	28	0	1803550720	40	5819
2026-01-05 14:12:34.60	169.73	28.89	-33.6	-34.5	24.3	0.00e+00	122	28	0	1806696448	40	5918
2026-01-05 14:12:35.61	169.87	28.73	-33.8	-34.7	24.3	0.00e+00	122	28	0	1810890752	40	6010
2026-01-05 14:12:36.61	170.01	28.56	-33.6	-34.5	24.5	0.00e+00	123	28	0	1814036480	40	5882
2026-01-05 14:12:37.62	170.14	28.39	-33.7	-34.6	24.4	0.00e+00	123	28	0	1817182208	40	5978
2026-01-05 14:12:38.63	170.28	28.23	-33.8	-34.7	24.4	0.00e+00	120	28	0	1820327936	40	6014
2026-01-05 14:12:39.64	170.42	28.06	-33.7	-34.6	24.5	0.00e+00	122	28	0	1822425088	40	5987
2026-01-05 14:12:40.65	170.55	27.90	-33.8	-34.7	24.4	0.00e+00	120	28	0	1825570816	40	6050
2026-01-05 14:12:41.66	170.68	27.74	-33.9	-34.8	24.4	0.00e+00	123	28	0	1829765120	40	6108
2026-01-05 14:12:42.67	170.81	27.57	-33.7	-34.6	24.6	0.00e+00	122	28	0	1832910848	40	5971
2026-01-05 14:12:43.68	170.94	27.41	-33.8	-34.7	24.5	0.00e+00	123	28	0	1836056576	40	6031
2026-01-05 14:12:44.69	171.07	27.25	-33.7	-34.5	24.6	0.00e+00	120	28	0	1839202304	40	5920
2026-01-05 14:12:45.70	171.20	27.09	-33.7	-34.6	24.7	0.00e+00	122	28	0	1842348032	40	5952
2026-01-05 14:12:46.71	171.32	26.93	-33.4	-34.3	24.8	0.00e+00	123	28	0	1845493760	40	5749
2026-01-05 14:12:47.72	171.45	26.77	-33.2	-34.1	25.0	0.00e+00	122	28	0	1848639488	40	5613
2026-01-05 14:12:48.73	171.57	26.62	-33.4	-34.2	24.9	0.00e+00	120	28	0	1851785216	40	5708
2026-01-05 14:12:49.74	171.69	26.46	-33.2	-34.1	25.0	0.00e+00	122	28	0	1854930944	40	5599
2026-01-05 14:12:50.75	171.81	26.30	-33.3	-34.1	24.9	0.00e+00	122	29	0	1858076672	40	5650
2026-01-05 14:12:51.76	171.93	26.15	-33.1	-34.0	25.0	0.00e+00	123	28	0	1861222400	40	5543
2026-01-05 14:12:52.77	172.05	25.99	-33.2	-34.1	24.9	0.00e+00	121	28	0	1864368128	40	5625
2026-01-05 14:12:53.78	172.17	25.84	-33.0	-33.9	25.1	0.00e+00	123	28	0	1867513856	40	5509
2026-01-05 14:12:54.79	172.29	25.69	-33.0	-33.9	25.1	0.00e+00	122	28	0	1870659584	40	5476
2026-01-05 14:12:55.79	172.40	25.53	-33.0	-33.9	25.1	0.00e+00	123	28	0	1873805312	40	5486
2026-01-05 14:12:56.80	172.51	25.38	-33.1	-33.9	25.1	0.00e+00	122	28	0	1876951040	40	5521
2026-01-05 14:12:57.81	172.63	25.23	-32.9	-33.8	25.1	0.00e+00	120	28	0	1880096768	40	5422
2026-01-05 14:12:58.82	172.74	25.08	-32.9	-33.8	25.2	0.00e+00	123	28	0	1883242496	40	5437
2026-01-05 14:12:59.83	172.85	24.93	-32.7	-33.6	25.2	0.00e+00	121	28	0	1886388224	38	5956
2026-01-05 14:13:00.84	172.96	24.78	-32.8	-33.7	25.1	0.00e+00	123	28	0	1889533952	38	6017
2026-01-05 14:13:01.85	173.07	24.64	-32.9	-33.8	25.1	0.00e+00	122	28	0	1892679680	38	6075
2026-01-05 14:13:02.86	173.18	24.49	-32.9	-33.8	25.1	0.00e+00	123	28	0	1895825408	38	6085
2026-01-05 14:13:03.87	173.29	24.34	-33.0	-33.9	24.9	0.00e+00	122	28	0	1898971136	38	6149
2026-01-05 14:13:04.88	173.39	24.20	-33.1	-34.0	24.8	0.00e+00	120	28	0	1902116864	38	6257
2026-01-05 14:13:05.89	173.50	24.05	-33.1	-34.0	24.9	0.00e+00	122	28	0	1905262592	38	6250
2026-01-05 14:13:06.90	173.60	23.91	-33.3	-34.2	24.8	0.00e+00	120	28	0	1908408320	38	6375
2026-01-05 14:13:07.91	173.71	23.76	-33.3	-34.2	24.8	0.00e+00	122	28	0	1911554048	38	6396
2026-01-05 14:13:08.92	173.81	23.62	-33.4	-34.3	24.8	0.00e+00	120	28	0	1914699776	38	6440
2026-01-05 14:13:09.93	173.91	23.48	-33.5	-34.4	24.8	0.00e+00	122	28	0	1917845504	38	6512
2026-01-05 14:13:10.94	174.01	23.34	-33.4	-34.3	24.8	0.00e+00	120	28	0	1920991232	38	6466
2026-01-05 14:13:11.94	174.11	23.20	-33.5	-34.4	24.8	0.00e+00	123	28	0	1924136960	38	6531
2026-01-05 14:13:12.95	174.21	23.06	-33.7	-34.6	24.7	0.00e+00	120	28	0	1927282688	38	6652
2026-01-05 14:13:13.96	174.31	22.92	-33.5	-34.4	24.8	0.00e+00	123	28	0	1930428416	38	6530
2026-01-05 14:13:14.97	174.41	22.78	-33.7	-34.6	24.7	0.00e+00	123	28	0	1933574144	38	6685
2026-01-05 14:13:15.98	174.50	22.64	-33.7	-34.6	24.7	0.00e+00	123	28	0	1936719872	38	6661
2026-01-05 14:13:16.99	174.60	22.50	-33.7	-34.6	24.6	0.00e+00	122	28	0	1939865600	40	5935
2026-01-05 14:13:18.00	174.69	22.37	-33.6	-34.5	24.6	0.00e+00	122	28	0	1943011328	40	5904
2026-01-05 14:13:19.01	174.79	22.23	-33.6	-34.5	24.6	0.00e+00	123	28	0	1946157056	40	5889
2026-01-05 14:13:20.02	174.88	22.09	-33.6	-34.5	24.5	0.00e+00	123	28	0	1949302784	40	5891
2026-01-05 14:13:21.03	174.97	21.96	-33.6	-34.4	24.5	0.00e+00	123	28	0	1952448512	40	5858
2026-01-05 14:13:22.04	175.07	21.83	-33.6	-34.5	24.4	0.00e+00	123	28	0	1955594240	40	5913
2026-01-05 14:13:23.05	175.16	21.69	-33.6	-34.5	24.4	0.00e+00	123	28	0	1958739968	40	5902
2026-01-05 14:13:24.06	175.25	21.56	-33.7	-34.6	24.3	0.00e+00	123	28	0	1961885696	40	5944
2026-01-05 14:13:25.07	175.34	21.43	-33.8	-34.7	24.2	0.00e+00	123	28	0	1965031424	40	6030
2026-01-05 14:13:26.08	175.43	21.30	-33.8	-34.7	24.2	0.00e+00	123	28	0	1968177152	40	6039
2026-01-05 14:13:27.09	175.52	21.16	-33.6	-34.5	24.3	0.00e+00	123	28	0	1971322880	40	5868
2026-01-05 14:13:28.10	175.60	21.03	-33.7	-34.6	24.3	0.00e+00	122	28	0	1974468608	40	5936
2026-01-05 14:13:29.11	175.69	20.90	-33.5	-34.4	24.5	0.00e+00	123	28	0	1977614336	40	5839
2026-01-05 14:13:30.12	175.78	20.77	-33.5	-34.4	24.4	0.00e+00	123	28	0	1980760064	40	5836
2026-01-05 14:13:31.13	175.86	20.65	-33.4	-34.3	24.6	0.00e+00	123	28	0	1983905792	40	5773
2026-01-05 14:13:32.14	175.95	20.52	-33.3	-34.2	24.7	0.00e+00	123	28	0	1987051520	40	5710
2026-01-05 14:13:33.15	176.03	20.39	-33.3	-34.2	24.8	0.00e+00	122	28	0	1990197248	40	5682
2026-01-05 14:13:34.16	176.11	20.26	-33.2	-34.1	24.9	0.00e+00	123	28	0	1993342976	40	5618
