passes_logs/2026/01/05/R4.6S_Anadyr/R4.6S_Anadyr__20260105_004001_AQUA_rec.log

#Pass ID: 20260105_004001_AQUA
#Satellite: AQUA
#Configuration: AQUA
#almurnet v.1.7.20251203
#Start time: 2026-01-05 00:40:02

#Version: 2.2.20231116
#Station: R4.6S_Anadyr
#Location: 177.4865 lon 64.73178 lat
#TLE: 1 27424U 02022A   25365.92641127  .00002078  00000+0  42628-3 0  9999
#TLE: 2 27424  98.4058 327.1196 0001962  94.7781 340.6230 14.61783896258835

#Time	Az	El	Level	Level2	SNR	BER	BlckErr	Temp	State	Recorded	gain1	gain2
2026-01-05 00:40:02.22	124.06	0.07	-49.4	-61.9	3.5	1.52e+00	0	28	0	0	60	43914
2026-01-05 00:40:03.22	124.03	0.13	-50.1	-68.0	3.5	3.03e+01	0	29	104	0	60	97008
2026-01-05 00:40:04.23	123.99	0.19	-49.5	-67.3	3.5	3.03e+01	0	29	104	0	60	89674
2026-01-05 00:40:05.24	123.95	0.25	-49.4	-67.3	3.5	3.03e+01	0	29	104	0	60	89040
2026-01-05 00:40:06.25	123.91	0.31	-49.5	-67.4	3.5	3.03e+01	0	29	104	0	60	90126
2026-01-05 00:40:07.26	123.87	0.37	-49.7	-67.6	3.5	3.03e+01	0	29	104	0	60	92047
2026-01-05 00:40:08.27	123.83	0.43	-49.4	-67.2	3.5	3.03e+01	0	29	104	0	60	88517
2026-01-05 00:40:09.28	123.79	0.49	-49.1	-67.0	3.5	3.03e+01	0	29	104	0	60	85876
2026-01-05 00:40:10.29	123.75	0.55	-49.3	-67.3	3.5	3.03e+01	0	29	104	0	60	89103
2026-01-05 00:40:11.30	123.71	0.61	-49.0	-66.9	3.5	3.03e+01	0	29	104	0	60	84850
2026-01-05 00:40:12.31	123.67	0.67	-49.0	-66.9	3.5	3.03e+01	0	29	104	0	60	84929
2026-01-05 00:40:13.32	123.63	0.74	-49.0	-66.9	3.5	3.03e+01	0	29	104	0	60	85631
2026-01-05 00:40:14.33	123.58	0.80	-48.8	-66.7	3.5	3.03e+01	0	29	104	0	60	83691
2026-01-05 00:40:15.34	123.54	0.86	-48.7	-66.6	3.5	3.03e+01	0	29	104	0	60	82069
2026-01-05 00:40:16.35	123.50	0.92	-48.7	-66.5	3.5	3.03e+01	0	30	104	0	60	81520
2026-01-05 00:40:17.36	123.46	0.98	-48.2	-66.2	3.5	3.03e+01	0	30	104	0	60	78769
2026-01-05 00:40:18.37	123.42	1.05	-47.7	-65.6	3.5	3.03e+01	0	29	104	0	60	73723
2026-01-05 00:40:19.38	123.38	1.11	-47.6	-65.5	3.5	3.03e+01	0	30	104	0	60	72854
2026-01-05 00:40:20.39	123.33	1.17	-47.6	-65.5	3.5	3.03e+01	0	30	104	0	60	72183
2026-01-05 00:40:21.40	123.29	1.23	-47.5	-65.4	3.5	3.03e+01	0	29	104	0	60	72070
2026-01-05 00:40:22.41	123.25	1.30	-47.5	-65.4	3.5	3.03e+01	0	30	104	0	60	71595
2026-01-05 00:40:23.42	123.20	1.36	-47.6	-65.4	3.5	3.03e+01	0	30	104	0	60	71799
2026-01-05 00:40:24.43	123.16	1.42	-47.6	-65.4	3.5	3.03e+01	0	30	104	0	60	71986
2026-01-05 00:40:25.44	123.12	1.48	-47.6	-65.5	3.5	3.03e+01	0	30	104	0	60	72377
2026-01-05 00:40:26.45	123.07	1.55	-47.6	-65.4	3.5	3.03e+01	0	30	104	0	60	72057
2026-01-05 00:40:27.46	123.03	1.61	-47.6	-65.5	3.5	3.03e+01	0	30	104	0	60	72207
2026-01-05 00:40:28.47	122.99	1.67	-47.5	-65.4	3.5	3.03e+01	0	29	104	0	60	72011
2026-01-05 00:40:29.48	122.94	1.74	-47.6	-65.5	3.5	3.03e+01	0	30	104	0	60	72194
2026-01-05 00:40:30.49	122.90	1.80	-47.6	-65.5	3.5	3.03e+01	0	30	104	0	60	72137
2026-01-05 00:40:31.50	122.85	1.87	-47.6	-65.5	3.5	3.03e+01	0	30	104	0	60	72664
2026-01-05 00:40:32.51	122.81	1.93	-47.6	-65.5	3.5	3.03e+01	0	30	104	0	60	72305
2026-01-05 00:40:33.52	122.76	1.99	-47.6	-65.5	3.5	3.03e+01	0	30	104	0	60	72275
2026-01-05 00:40:34.53	122.72	2.06	-47.6	-65.4	3.5	3.03e+01	0	30	104	0	60	71737
2026-01-05 00:40:35.54	122.67	2.12	-47.6	-65.4	3.5	3.03e+01	0	30	104	0	60	71784
2026-01-05 00:40:36.55	122.63	2.19	-47.5	-65.4	3.5	3.03e+01	0	30	104	0	60	71316
2026-01-05 00:40:37.56	122.58	2.25	-47.6	-65.4	3.5	3.03e+01	0	30	104	0	60	71503
2026-01-05 00:40:38.57	122.53	2.32	-47.5	-65.3	3.5	3.03e+01	0	30	104	0	60	70534
2026-01-05 00:40:39.58	122.49	2.38	-47.5	-65.2	3.5	3.03e+01	0	30	104	0	60	69661
2026-01-05 00:40:40.59	122.44	2.45	-47.5	-65.2	3.5	3.03e+01	0	30	104	0	60	70132
2026-01-05 00:40:41.60	122.39	2.51	-47.5	-65.3	3.5	3.03e+01	0	30	104	0	60	70625
2026-01-05 00:40:42.61	122.35	2.58	-47.5	-65.3	3.5	3.03e+01	0	30	104	0	60	71089
2026-01-05 00:40:43.62	122.30	2.64	-47.5	-65.4	3.5	3.03e+01	0	30	104	0	60	71783
2026-01-05 00:40:44.63	122.25	2.71	-47.5	-65.3	3.5	3.03e+01	0	30	104	0	60	71231
2026-01-05 00:40:45.64	122.20	2.78	-47.5	-65.4	3.5	3.03e+01	0	30	104	0	60	71452
2026-01-05 00:40:46.65	122.15	2.84	-47.5	-65.3	3.5	3.03e+01	0	30	104	0	60	71063
2026-01-05 00:40:47.66	122.11	2.91	-47.5	-65.4	3.5	3.03e+01	0	30	104	0	60	71492
2026-01-05 00:40:48.67	122.06	2.98	-47.5	-65.4	3.5	3.03e+01	0	30	104	0	60	71676
2026-01-05 00:40:49.68	122.01	3.04	-47.5	-65.4	3.5	3.03e+01	0	30	104	0	60	71537
2026-01-05 00:40:50.69	121.96	3.11	-47.5	-65.4	3.5	3.03e+01	0	30	104	0	60	71877
2026-01-05 00:40:51.70	121.91	3.18	-47.4	-64.9	3.5	3.03e+01	0	30	104	0	60	67416
2026-01-05 00:40:52.71	121.86	3.24	-47.4	-64.6	3.5	3.03e+01	0	30	104	0	60	65578
2026-01-05 00:40:53.72	121.81	3.31	-47.4	-64.6	3.5	3.03e+01	0	30	104	0	60	65338
2026-01-05 00:40:54.73	121.76	3.38	-47.5	-65.2	3.5	3.03e+01	0	30	104	0	60	70008
2026-01-05 00:40:55.74	121.71	3.44	-47.4	-65.0	3.5	3.03e+01	0	30	104	0	60	68376
2026-01-05 00:40:56.75	121.66	3.51	-46.5	-61.2	3.5	3.03e+01	0	30	104	0	60	44434
2026-01-05 00:40:57.76	121.61	3.58	-45.3	-58.3	3.5	3.03e+01	0	30	104	0	60	31802
2026-01-05 00:40:58.77	121.55	3.65	-44.1	-56.1	3.5	3.03e+01	0	30	104	0	60	24575
2026-01-05 00:40:59.78	121.50	3.72	-43.4	-55.0	3.5	3.03e+01	0	30	104	0	60	21744
2026-01-05 00:41:00.79	121.45	3.79	-47.6	-65.0	3.5	3.03e+01	0	30	104	0	60	68564
2026-01-05 00:41:01.80	121.40	3.85	-41.9	-52.9	3.5	3.03e+01	0	30	104	0	60	17040
2026-01-05 00:41:02.81	121.35	3.92	-47.3	-65.0	3.5	3.03e+01	0	30	104	0	60	68672
2026-01-05 00:41:03.82	121.29	3.99	-47.7	-65.6	3.5	3.03e+01	0	30	104	0	60	73729
2026-01-05 00:41:04.83	121.24	4.06	-39.7	-50.4	3.5	3.03e+01	0	30	104	0	50	22564
2026-01-05 00:41:05.84	121.19	4.13	-39.2	-49.8	3.5	3.03e+01	0	30	104	0	54	16786
2026-01-05 00:41:06.85	121.13	4.20	-39.3	-49.9	3.5	3.03e+01	0	30	104	0	52	19117
2026-01-05 00:41:07.86	121.08	4.27	-38.9	-49.4	3.5	3.03e+01	0	30	104	0	52	18063
2026-01-05 00:41:08.87	121.02	4.34	-38.8	-49.3	3.5	3.03e+01	0	30	104	0	52	17802
2026-01-05 00:41:09.88	120.97	4.41	-45.6	-58.7	3.5	3.03e+01	0	30	104	0	60	33036
2026-01-05 00:41:10.89	120.91	4.48	-45.9	-59.5	3.5	3.03e+01	0	30	104	0	60	36178
2026-01-05 00:41:11.90	120.86	4.55	-47.8	-65.4	3.5	3.03e+01	0	30	104	0	60	71317
2026-01-05 00:41:12.90	120.80	4.62	-40.9	-51.8	3.5	3.03e+01	0	30	104	0	58	16774
2026-01-05 00:41:13.91	120.75	4.69	-47.4	-64.9	3.5	3.03e+01	0	30	104	0	60	67383
2026-01-05 00:41:14.92	120.69	4.76	-39.7	-50.3	3.5	3.03e+01	0	30	104	0	54	17744
2026-01-05 00:41:15.94	120.63	4.83	-39.5	-50.1	3.5	3.03e+01	0	30	104	0	54	17370
2026-01-05 00:41:16.95	120.58	4.90	-40.2	-51.0	3.5	3.03e+01	0	30	104	0	54	19196
2026-01-05 00:41:17.95	120.52	4.97	-38.7	-49.2	3.5	3.03e+01	0	30	104	0	52	17607
2026-01-05 00:41:18.96	120.46	5.05	-47.6	-64.3	3.5	3.03e+01	0	30	104	0	60	62903
2026-01-05 00:41:19.98	120.40	5.12	-41.7	-52.7	3.5	3.03e+01	0	30	104	0	60	16538
2026-01-05 00:41:20.99	120.35	5.19	-47.6	-65.0	3.5	3.03e+01	0	30	104	0	60	68619
2026-01-05 00:41:21.99	120.29	5.26	-47.9	-65.7	3.5	3.03e+01	0	30	104	0	60	74580
2026-01-05 00:41:23.01	120.23	5.34	-40.3	-51.0	3.5	3.03e+01	0	30	104	0	52	21571
2026-01-05 00:41:24.01	120.17	5.41	-38.6	-49.1	3.5	3.03e+01	0	30	104	0	52	17418
2026-01-05 00:41:25.02	120.11	5.48	-38.0	-48.4	3.5	3.03e+01	0	30	104	0	52	16128
2026-01-05 00:41:26.03	120.05	5.55	-37.2	-47.5	3.5	3.03e+01	0	30	104	0	50	16262
2026-01-05 00:41:27.04	119.99	5.63	-36.8	-47.1	3.5	3.03e+01	0	30	104	0	48	17420
2026-01-05 00:41:28.06	119.93	5.70	-37.7	-48.0	3.5	3.03e+01	0	30	104	0	48	19361
2026-01-05 00:41:29.06	119.87	5.77	-41.3	-52.2	3.5	3.03e+01	0	30	104	0	56	19803
2026-01-05 00:41:30.07	119.81	5.85	-47.8	-65.2	3.5	3.03e+01	0	30	104	0	60	69771
2026-01-05 00:41:31.08	119.75	5.92	-47.6	-65.7	3.5	3.03e+01	0	30	104	0	60	73844
2026-01-05 00:41:32.10	119.68	6.00	-39.5	-50.1	3.5	3.03e+01	0	30	104	0	52	19465
2026-01-05 00:41:33.10	119.62	6.07	-38.7	-49.2	3.5	3.03e+01	0	30	104	0	52	17608
2026-01-05 00:41:34.11	119.56	6.14	-37.8	-48.2	3.5	3.03e+01	0	30	104	0	50	17500
2026-01-05 00:41:35.13	119.50	6.22	-37.8	-48.2	3.5	3.03e+01	0	30	104	0	50	17507
2026-01-05 00:41:36.13	119.43	6.29	-37.2	-47.6	3.5	3.03e+01	0	30	104	0	50	16331
2026-01-05 00:41:37.14	119.37	6.37	-37.2	-47.6	3.5	3.03e+01	0	30	104	0	48	18331
2026-01-05 00:41:38.15	119.31	6.44	-43.3	-55.0	3.5	3.03e+01	0	30	104	0	60	21537
2026-01-05 00:41:39.16	119.24	6.52	-48.1	-65.8	3.5	3.03e+01	0	30	104	0	60	74745
2026-01-05 00:41:40.17	119.18	6.60	-39.7	-50.3	3.5	3.03e+01	0	30	104	0	54	17720
2026-01-05 00:41:41.18	119.11	6.67	-47.5	-65.8	3.5	3.03e+01	0	30	104	0	60	75110
2026-01-05 00:41:42.19	119.05	6.75	-39.1	-49.6	3.5	3.03e+01	0	30	104	0	52	18434
2026-01-05 00:41:43.20	118.98	6.83	-40.7	-51.5	3.5	3.03e+01	0	30	104	0	54	20355
2026-01-05 00:41:44.21	118.91	6.90	-42.4	-53.5	3.5	3.03e+01	0	30	104	0	58	20375
2026-01-05 00:41:45.22	118.85	6.98	-41.5	-52.4	3.5	3.03e+01	0	30	104	0	58	17995
2026-01-05 00:41:46.23	118.78	7.06	-48.0	-64.8	3.5	3.03e+01	0	30	104	0	60	67126
2026-01-05 00:41:47.24	118.71	7.13	-42.0	-52.9	3.5	3.03e+01	0	30	104	0	58	19140
2026-01-05 00:41:48.26	118.64	7.21	-47.8	-65.0	3.5	3.03e+01	0	30	104	0	60	68602
2026-01-05 00:41:49.26	118.57	7.29	-48.1	-65.3	3.5	3.03e+01	0	30	104	0	60	70654
2026-01-05 00:41:50.27	118.51	7.37	-37.3	-47.6	3.5	3.03e+01	0	30	104	0	48	18517
2026-01-05 00:41:51.28	118.44	7.45	-36.8	-47.2	3.5	3.03e+01	0	30	104	0	48	17491
2026-01-05 00:41:52.30	118.37	7.52	-37.0	-47.3	3.5	3.03e+01	0	30	104	0	48	17744
2026-01-05 00:41:53.30	118.30	7.60	-36.6	-46.9	3.5	3.03e+01	0	30	104	0	48	17069
2026-01-05 00:41:54.31	118.23	7.68	-36.4	-46.6	3.5	3.03e+01	0	30	104	0	48	16474
2026-01-05 00:41:55.32	118.16	7.76	-37.1	-47.5	3.5	3.03e+01	0	30	104	0	50	16137
2026-01-05 00:41:56.33	118.08	7.84	-41.1	-51.9	3.6	3.03e+01	0	30	104	0	58	16951
2026-01-05 00:41:57.34	118.01	7.92	-48.3	-66.1	3.5	3.03e+01	0	30	104	0	60	78008
2026-01-05 00:41:58.35	117.94	8.00	-39.5	-50.0	3.5	3.03e+01	0	30	104	0	54	17121
2026-01-05 00:41:59.36	117.87	8.08	-48.2	-66.0	3.5	3.03e+01	0	30	104	0	60	76367
2026-01-05 00:42:00.38	117.79	8.16	-39.5	-50.0	3.5	3.03e+01	0	30	104	0	52	19332
2026-01-05 00:42:01.39	117.72	8.24	-38.6	-49.0	3.5	3.03e+01	0	30	104	0	52	17275
2026-01-05 00:42:02.40	117.64	8.32	-37.8	-48.2	3.5	3.03e+01	0	30	104	0	52	15656
2026-01-05 00:42:03.41	117.57	8.40	-41.1	-51.9	3.5	3.03e+01	0	30	104	0	56	19030
2026-01-05 00:42:04.42	117.49	8.49	-46.1	-59.3	3.5	3.03e+01	0	30	104	0	60	35322
2026-01-05 00:42:05.43	117.42	8.57	-41.9	-52.8	3.5	3.03e+01	0	30	104	0	58	18939
2026-01-05 00:42:06.44	117.34	8.65	-48.0	-64.7	3.5	3.03e+01	0	30	104	0	60	65975
2026-01-05 00:42:07.45	117.27	8.73	-45.9	-58.8	3.6	3.03e+01	0	30	104	0	60	33380
2026-01-05 00:42:08.46	117.19	8.81	-38.0	-48.3	3.5	3.03e+01	0	30	104	0	50	17789
2026-01-05 00:42:09.47	117.11	8.90	-37.1	-47.4	3.5	3.03e+01	0	30	104	0	50	16002
2026-01-05 00:42:10.48	117.03	8.98	-36.8	-47.1	3.5	3.03e+01	0	30	104	0	50	15487
2026-01-05 00:42:11.49	116.96	9.06	-36.9	-47.1	3.6	3.03e+01	0	30	104	0	48	17431
2026-01-05 00:42:12.50	116.88	9.15	-36.1	-46.4	3.5	3.03e+01	0	30	104	0	48	15970
2026-01-05 00:42:13.51	116.80	9.23	-37.5	-47.8	3.5	3.03e+01	0	30	104	0	48	18866
2026-01-05 00:42:14.52	116.72	9.31	-41.3	-51.9	3.5	3.03e+01	0	30	104	0	56	19090
2026-01-05 00:42:15.53	116.64	9.40	-47.8	-64.1	3.5	3.03e+01	0	30	104	0	60	61651
2026-01-05 00:42:16.54	116.55	9.48	-45.3	-57.7	3.5	3.03e+01	0	30	104	0	56	37078
2026-01-05 00:42:17.54	116.47	9.57	-46.9	-60.8	3.5	3.03e+01	0	30	104	0	60	42424
2026-01-05 00:42:18.55	116.39	9.65	-41.7	-52.6	3.5	3.03e+01	0	30	104	0	60	16346
2026-01-05 00:42:19.57	116.31	9.74	-40.6	-51.2	3.5	3.03e+01	0	30	104	0	54	19775
2026-01-05 00:42:20.58	116.22	9.82	-40.8	-51.5	3.5	3.03e+01	0	30	104	0	56	18244
2026-01-05 00:42:21.59	116.14	9.91	-39.8	-50.4	3.5	3.03e+01	0	30	104	0	52	20089
2026-01-05 00:42:22.59	116.06	9.99	-37.0	-47.4	3.6	3.03e+01	0	30	104	0	48	17933
2026-01-05 00:42:23.60	115.97	10.08	-45.8	-58.5	3.4	3.03e+01	0	30	104	0	58	36148
2026-01-05 00:42:24.61	115.89	10.17	-41.2	-52.1	3.6	3.03e+01	0	30	104	0	60	15437
2026-01-05 00:42:25.62	115.80	10.25	-44.7	-56.6	3.5	3.03e+01	0	30	104	0	52	41389
2026-01-05 00:42:26.63	115.71	10.34	-42.1	-53.0	3.5	3.03e+01	0	30	104	0	60	17112
2026-01-05 00:42:27.64	115.63	10.43	-37.0	-47.3	3.5	3.03e+01	0	30	104	0	50	15874
2026-01-05 00:42:28.65	115.54	10.52	-36.4	-46.6	3.6	3.03e+01	0	30	104	0	48	16496
2026-01-05 00:42:29.66	115.45	10.61	-36.2	-46.5	3.5	3.03e+01	0	30	104	0	48	16186
2026-01-05 00:42:30.67	115.36	10.69	-39.2	-49.6	3.5	3.03e+01	0	30	104	0	46	26002
2026-01-05 00:42:31.68	115.27	10.78	-37.0	-47.3	3.5	3.03e+01	0	30	104	0	46	19932
2026-01-05 00:42:32.69	115.18	10.87	-48.4	-65.7	3.5	3.03e+01	0	30	104	0	60	73760
2026-01-05 00:42:33.70	115.09	10.96	-37.9	-48.4	3.5	3.03e+01	0	30	104	0	52	15958
2026-01-05 00:42:34.71	115.00	11.05	-48.0	-64.3	3.5	3.03e+01	0	30	104	0	60	63086
2026-01-05 00:42:35.72	114.91	11.14	-37.8	-48.1	3.3	3.03e+01	0	30	104	0	54	13839
2026-01-05 00:42:36.73	114.82	11.23	-35.9	-46.1	3.5	3.03e+01	0	30	104	0	46	17384
2026-01-05 00:42:37.74	114.72	11.32	-35.7	-45.9	3.5	3.03e+01	0	30	104	0	46	17051
2026-01-05 00:42:38.75	114.63	11.41	-35.7	-45.9	3.6	3.03e+01	0	30	104	0	46	17062
2026-01-05 00:42:39.76	114.53	11.50	-44.6	-56.5	3.5	3.03e+01	0	30	104	0	58	29001
2026-01-05 00:42:40.76	114.44	11.59	-37.1	-47.4	3.5	3.03e+01	0	30	104	0	46	20096
2026-01-05 00:42:41.78	114.34	11.69	-48.4	-66.1	3.5	3.03e+01	0	31	104	0	60	77289
2026-01-05 00:42:42.79	114.25	11.78	-43.5	-54.9	3.5	3.03e+01	0	30	104	0	60	21489
2026-01-05 00:42:43.79	114.15	11.87	-48.3	-65.9	3.5	3.03e+01	0	30	104	0	60	75982
2026-01-05 00:42:44.80	114.05	11.96	-41.8	-52.7	3.5	3.03e+01	0	31	104	0	60	16549
2026-01-05 00:42:45.81	113.95	12.05	-38.7	-49.1	3.5	3.03e+01	0	30	104	0	52	17355
2026-01-05 00:42:46.82	113.85	12.15	-38.8	-49.3	3.5	3.03e+01	0	30	104	0	52	17729
2026-01-05 00:42:47.83	113.75	12.24	-41.4	-52.2	3.6	3.03e+01	0	30	104	0	56	19714
2026-01-05 00:42:48.84	113.65	12.34	-43.4	-54.7	3.6	3.03e+01	0	30	104	0	58	23561
2026-01-05 00:42:49.85	113.55	12.43	-39.1	-49.5	3.6	3.03e+01	0	30	104	0	50	20439
2026-01-05 00:42:50.86	113.45	12.52	-48.1	-65.0	3.5	3.03e+01	0	30	104	0	60	68586
2026-01-05 00:42:51.87	113.35	12.62	-43.5	-55.0	3.5	3.03e+01	0	30	104	0	60	21625
2026-01-05 00:42:52.88	113.24	12.71	-48.2	-66.1	3.5	3.03e+01	0	30	104	0	60	77315
2026-01-05 00:42:53.89	113.14	12.81	-41.8	-52.7	3.5	3.03e+01	0	30	104	0	60	16594
2026-01-05 00:42:54.90	113.03	12.91	-41.1	-51.9	3.5	3.03e+01	0	30	104	0	56	18969
2026-01-05 00:42:55.91	112.93	13.00	-41.4	-52.2	3.5	3.03e+01	0	30	104	0	56	19651
2026-01-05 00:42:56.92	112.82	13.10	-41.3	-52.0	3.5	3.03e+01	0	30	104	0	56	19246
2026-01-05 00:42:57.93	112.71	13.19	-46.9	-61.1	3.5	3.03e+01	0	30	104	0	60	43803
2026-01-05 00:42:58.94	112.61	13.29	-44.1	-55.9	3.5	3.03e+01	0	30	104	0	60	23920
2026-01-05 00:42:59.95	112.50	13.39	-48.2	-65.3	3.5	3.03e+01	0	30	104	0	60	70959
2026-01-05 00:43:00.96	112.39	13.49	-48.2	-65.1	3.5	3.03e+01	0	30	104	0	60	68961
2026-01-05 00:43:01.97	112.28	13.58	-35.6	-45.9	3.5	3.03e+01	0	30	104	0	46	16899
2026-01-05 00:43:02.98	112.17	13.68	-35.1	-45.3	3.6	3.03e+01	0	30	104	0	46	15807
2026-01-05 00:43:03.99	112.05	13.78	-34.8	-45.0	3.6	3.03e+01	0	30	104	0	44	17111
2026-01-05 00:43:05.00	111.94	13.88	-34.8	-45.0	3.5	3.03e+01	0	30	104	0	44	17178
2026-01-05 00:43:06.01	111.83	13.98	-34.6	-44.8	3.5	3.03e+01	0	30	104	0	44	16813
2026-01-05 00:43:07.01	111.71	14.08	-37.3	-47.5	3.5	3.03e+01	0	30	104	0	46	20515
2026-01-05 00:43:08.02	111.60	14.18	-39.0	-49.4	3.6	3.03e+01	0	30	104	0	50	20278
2026-01-05 00:43:09.03	111.48	14.28	-48.0	-64.5	3.5	3.03e+01	0	30	104	0	60	64891
2026-01-05 00:43:10.04	111.36	14.38	-42.0	-52.9	3.5	3.03e+01	0	30	104	0	60	17089
2026-01-05 00:43:11.05	111.25	14.48	-48.2	-65.5	3.5	3.03e+01	0	30	104	0	60	72828
2026-01-05 00:43:12.07	111.13	14.58	-39.7	-50.3	3.5	3.03e+01	0	30	104	0	56	15774
2026-01-05 00:43:13.07	111.01	14.69	-39.8	-50.3	3.6	3.03e+01	0	30	104	0	54	17770
2026-01-05 00:43:14.08	110.89	14.79	-40.3	-50.9	3.6	3.03e+01	0	30	104	0	54	19000
2026-01-05 00:43:15.09	110.76	14.89	-39.2	-49.7	3.5	3.03e+01	0	30	104	0	52	18621
2026-01-05 00:43:16.11	110.64	14.99	-47.3	-62.4	3.5	3.03e+01	0	30	104	0	60	50802
2026-01-05 00:43:17.12	110.52	15.10	-42.9	-54.2	3.5	3.03e+01	0	30	104	0	60	19788
2026-01-05 00:43:18.13	110.39	15.20	-48.1	-65.4	3.5	3.03e+01	0	30	104	0	60	71324
2026-01-05 00:43:19.14	110.27	15.30	-48.2	-65.1	3.5	3.03e+01	0	30	104	0	60	69405
2026-01-05 00:43:20.15	110.14	15.41	-37.9	-48.3	3.6	3.03e+01	0	30	104	0	48	19875
2026-01-05 00:43:21.16	110.01	15.51	-37.7	-48.1	3.5	3.03e+01	0	30	104	0	50	17303
2026-01-05 00:43:22.17	109.89	15.62	-37.9	-48.3	3.5	3.03e+01	0	31	104	0	50	17795
2026-01-05 00:43:23.18	109.76	15.72	-38.0	-48.3	3.5	3.03e+01	0	30	104	0	50	17823
2026-01-05 00:43:24.18	109.63	15.83	-38.7	-49.1	3.5	3.03e+01	0	30	104	0	50	19472
2026-01-05 00:43:25.20	109.50	15.94	-40.0	-50.5	3.5	3.03e+01	0	30	104	0	54	18177
2026-01-05 00:43:26.21	109.36	16.04	-38.8	-49.2	3.5	3.03e+01	0	30	104	0	52	17529
2026-01-05 00:43:27.22	109.23	16.15	-48.1	-64.8	3.5	3.03e+01	0	31	104	0	60	67061
2026-01-05 00:43:28.23	109.10	16.26	-36.8	-47.1	3.5	3.03e+01	0	30	104	0	52	13789
2026-01-05 00:43:29.24	108.96	16.36	-48.4	-66.0	3.5	3.03e+01	0	30	104	0	60	76997
2026-01-05 00:43:30.25	108.82	16.47	-37.1	-47.4	3.5	3.03e+01	0	30	104	0	48	17961
2026-01-05 00:43:31.26	108.69	16.58	-35.8	-46.1	3.6	3.03e+01	0	30	104	0	46	17312
2026-01-05 00:43:32.27	108.55	16.69	-35.5	-45.7	3.5	3.03e+01	0	30	104	0	46	16690
2026-01-05 00:43:33.28	108.41	16.80	-35.6	-45.8	3.5	3.03e+01	0	30	104	0	46	16801
2026-01-05 00:43:34.29	108.27	16.91	-40.0	-50.6	3.6	3.03e+01	0	30	104	0	60	12981
2026-01-05 00:43:35.30	108.13	17.02	-39.3	-49.7	3.5	3.03e+01	0	30	104	0	52	18611
2026-01-05 00:43:36.31	107.98	17.13	-48.5	-66.0	3.5	3.03e+01	0	30	104	0	60	76937
2026-01-05 00:43:37.32	107.84	17.24	-34.7	-44.9	3.5	3.03e+01	0	30	104	0	44	17067
2026-01-05 00:43:38.33	107.69	17.35	-48.2	-64.8	3.5	3.03e+01	0	30	104	0	60	66549
2026-01-05 00:43:39.34	107.55	17.46	-35.0	-45.2	3.5	3.03e+01	0	30	104	0	46	15698
2026-01-05 00:43:40.35	107.40	17.57	-35.0	-45.2	3.5	3.03e+01	0	30	104	0	44	17596
2026-01-05 00:43:41.35	107.25	17.68	-34.8	-45.0	3.5	3.03e+01	0	30	104	0	44	17224
2026-01-05 00:43:42.36	107.10	17.80	-34.9	-45.2	3.5	3.03e+01	0	31	104	0	44	17546
2026-01-05 00:43:43.37	106.95	17.91	-38.1	-48.5	3.3	3.03e+01	0	30	104	0	56	12867
2026-01-05 00:43:44.38	106.80	18.02	-38.7	-49.1	3.5	3.03e+01	0	30	104	0	50	19594
2026-01-05 00:43:45.39	106.64	18.13	-48.5	-66.5	3.5	3.03e+01	0	31	104	0	60	80899
2026-01-05 00:43:46.40	106.49	18.25	-36.3	-46.5	3.5	3.03e+01	0	31	104	0	46	18223
2026-01-05 00:43:47.41	106.33	18.36	-48.2	-64.2	3.5	3.03e+01	0	30	104	0	60	62184
2026-01-05 00:43:48.42	106.18	18.48	-38.4	-48.8	3.5	3.03e+01	0	30	104	0	50	18949
2026-01-05 00:43:49.43	106.02	18.59	-37.1	-47.4	3.5	3.03e+01	0	30	104	0	50	15988
2026-01-05 00:43:50.44	105.86	18.71	-37.1	-47.4	3.5	3.03e+01	0	30	104	0	48	18082
2026-01-05 00:43:51.45	105.70	18.82	-35.9	-46.1	3.5	3.03e+01	0	30	104	0	48	15575
2026-01-05 00:43:52.46	105.53	18.94	-35.2	-45.4	3.5	3.03e+01	0	30	104	0	46	16065
2026-01-05 00:43:53.47	105.37	19.06	-37.5	-47.8	3.5	3.03e+01	0	30	104	0	48	18834
2026-01-05 00:43:54.48	105.20	19.17	-47.3	-61.6	3.5	3.03e+01	0	30	104	0	60	46526
2026-01-05 00:43:55.49	105.04	19.29	-38.3	-48.6	3.5	3.03e+01	0	30	104	0	46	23117
2026-01-05 00:43:56.50	104.87	19.41	-40.9	-51.6	3.4	3.03e+01	0	30	104	0	60	14588
2026-01-05 00:43:57.51	104.70	19.53	-35.3	-45.5	3.5	3.03e+01	0	30	104	0	46	16251
2026-01-05 00:43:58.52	104.53	19.64	-35.4	-45.6	3.5	3.03e+01	0	30	104	0	46	16346
2026-01-05 00:43:59.53	104.36	19.76	-34.8	-45.0	3.5	3.03e+01	0	30	104	0	44	17103
2026-01-05 00:44:00.54	104.18	19.88	-38.8	-49.2	3.5	3.03e+01	0	30	104	0	46	24732
2026-01-05 00:44:01.55	104.01	20.00	-42.0	-52.9	3.5	3.03e+01	0	31	104	0	60	16967
2026-01-05 00:44:02.56	103.83	20.12	-43.3	-54.5	3.5	3.03e+01	0	31	104	0	50	36270
2026-01-05 00:44:03.57	103.65	20.24	-47.6	-62.6	3.6	3.03e+01	0	31	104	0	60	51742
2026-01-05 00:44:04.57	103.48	20.36	-42.9	-54.0	3.5	3.03e+01	0	30	104	0	56	24339
2026-01-05 00:44:05.58	103.30	20.48	-45.6	-57.8	3.5	3.03e+01	0	31	104	0	60	29985
2026-01-05 00:44:06.59	103.11	20.60	-40.0	-50.4	3.6	3.03e+01	0	30	104	0	54	18097
2026-01-05 00:44:07.60	102.93	20.72	-41.2	-51.9	3.5	3.03e+01	0	30	104	0	56	19067
2026-01-05 00:44:08.61	102.74	20.84	-41.3	-52.0	3.5	3.03e+01	0	30	104	0	58	17223
2026-01-05 00:44:09.62	102.56	20.97	-42.4	-53.5	3.5	3.03e+01	0	30	104	0	56	22861
2026-01-05 00:44:10.63	102.37	21.09	-45.9	-58.5	3.5	3.03e+01	0	31	104	0	60	32554
2026-01-05 00:44:11.64	102.18	21.21	-48.6	-65.4	3.5	3.03e+01	0	30	104	0	60	71686
2026-01-05 00:44:12.65	101.98	21.33	-48.1	-64.3	3.5	3.03e+01	0	30	104	0	60	62827
2026-01-05 00:44:13.66	101.79	21.46	-37.1	-47.4	3.5	3.03e+01	0	30	104	0	52	14250
2026-01-05 00:44:14.67	101.60	21.58	-36.8	-47.1	3.5	3.03e+01	0	31	104	0	48	17488
2026-01-05 00:44:15.68	101.40	21.71	-37.9	-48.2	3.5	3.03e+01	0	30	104	0	50	17574
2026-01-05 00:44:16.69	101.20	21.83	-37.1	-47.3	3.5	3.03e+01	0	31	104	0	48	17838
2026-01-05 00:44:17.70	101.00	21.95	-37.8	-48.0	3.6	3.03e+01	0	30	104	0	48	19391
2026-01-05 00:44:18.71	100.80	22.08	-42.1	-52.9	3.5	3.03e+01	0	31	104	0	56	21403
2026-01-05 00:44:19.72	100.59	22.20	-38.7	-49.1	3.5	3.03e+01	0	31	104	0	54	15574
2026-01-05 00:44:20.73	100.39	22.33	-48.3	-65.3	3.5	3.03e+01	0	31	104	0	60	71184
2026-01-05 00:44:21.74	100.18	22.46	-40.1	-50.7	3.5	3.03e+01	0	30	104	0	58	14806
2026-01-05 00:44:22.75	99.97	22.58	-47.9	-63.2	3.5	3.03e+01	0	31	104	0	60	55623
2026-01-05 00:44:23.76	99.76	22.71	-37.4	-47.7	3.5	3.03e+01	0	31	104	0	52	14797
2026-01-05 00:44:24.77	99.55	22.83	-35.3	-45.5	3.6	3.03e+01	0	31	104	0	46	16214
2026-01-05 00:44:25.78	99.33	22.96	-35.4	-45.7	3.5	3.03e+01	0	31	104	0	46	16538
2026-01-05 00:44:26.80	99.12	23.09	-35.4	-45.6	3.5	3.03e+01	0	30	104	0	46	16368
2026-01-05 00:44:27.80	98.90	23.22	-45.4	-57.8	3.5	3.03e+01	0	31	104	0	60	29708
2026-01-05 00:44:28.81	98.68	23.34	-36.3	-46.5	3.5	3.03e+01	0	31	104	0	44	20510
2026-01-05 00:44:29.82	98.46	23.47	-48.4	-65.3	3.5	3.03e+01	0	30	104	0	60	70470
2026-01-05 00:44:30.83	98.23	23.60	-39.2	-49.7	3.5	3.03e+01	0	31	104	0	56	14740
2026-01-05 00:44:31.84	98.01	23.73	-48.6	-66.3	3.5	3.03e+01	0	31	104	0	60	79282
2026-01-05 00:44:32.85	97.78	23.86	-37.3	-47.6	3.5	3.03e+01	0	31	104	0	52	14582
2026-01-05 00:44:33.86	97.55	23.98	-36.0	-46.3	3.5	3.03e+01	0	31	104	0	46	17701
2026-01-05 00:44:34.87	97.32	24.11	-36.0	-46.2	3.5	3.03e+01	0	30	104	0	46	17595
2026-01-05 00:44:35.88	97.08	24.24	-39.9	-50.5	3.5	3.03e+01	0	30	104	0	50	22950
2026-01-05 00:44:36.89	96.85	24.37	-48.3	-65.6	3.5	3.03e+01	0	30	104	0	60	73204
2026-01-05 00:44:37.90	96.61	24.50	-37.6	-47.9	3.5	3.03e+01	0	31	104	0	52	15208
2026-01-05 00:44:38.91	96.37	24.63	-48.6	-66.0	3.5	3.03e+01	0	30	104	0	60	76636
2026-01-05 00:44:39.92	96.13	24.76	-38.4	-48.8	3.5	3.03e+01	0	31	104	0	52	16838
2026-01-05 00:44:40.93	95.88	24.89	-48.7	-65.9	3.5	3.03e+01	0	31	104	0	60	75591
2026-01-05 00:44:41.94	95.64	25.02	-38.1	-48.5	3.5	3.03e+01	0	30	104	0	52	16206
2026-01-05 00:44:42.95	95.39	25.15	-37.5	-47.8	3.5	3.03e+01	0	31	104	0	50	16744
2026-01-05 00:44:43.96	95.14	25.28	-38.0	-48.3	3.5	3.03e+01	0	31	104	0	48	20055
2026-01-05 00:44:44.97	94.89	25.41	-37.4	-47.7	3.5	3.03e+01	0	30	104	0	50	16539
2026-01-05 00:44:45.98	94.63	25.54	-36.2	-46.5	3.5	3.03e+01	0	31	104	0	46	18174
2026-01-05 00:44:46.99	94.37	25.67	-38.5	-48.9	3.5	3.03e+01	0	31	104	0	50	19004
2026-01-05 00:44:48.00	94.11	25.80	-48.5	-65.3	3.5	3.03e+01	0	31	104	0	60	70572
2026-01-05 00:44:49.01	93.85	25.93	-39.2	-49.7	3.5	3.03e+01	0	31	104	0	52	18629
2026-01-05 00:44:50.02	93.59	26.07	-47.6	-65.4	3.5	3.03e+01	0	31	104	0	60	72010
2026-01-05 00:44:51.03	93.32	26.20	-36.6	-46.8	3.5	3.03e+01	0	31	104	0	46	18906
2026-01-05 00:44:52.04	93.05	26.33	-36.0	-46.2	3.5	3.03e+01	0	30	104	0	46	17617
2026-01-05 00:44:53.05	92.78	26.46	-35.5	-45.7	3.5	3.03e+01	0	31	104	0	46	16530
2026-01-05 00:44:54.06	92.51	26.59	-35.0	-45.2	3.5	3.03e+01	0	31	104	0	44	17648
2026-01-05 00:44:55.07	92.23	26.72	-43.5	-54.7	3.5	3.03e+01	0	30	104	0	60	20829
2026-01-05 00:44:56.08	91.96	26.85	-37.3	-47.6	3.5	3.03e+01	0	30	104	0	48	18377
2026-01-05 00:44:57.09	91.67	26.98	-48.2	-64.5	3.5	3.03e+01	0	31	104	0	60	64692
2026-01-05 00:44:58.09	91.39	27.11	-37.6	-47.8	3.5	3.03e+01	0	31	104	0	48	18932
2026-01-05 00:44:59.11	91.11	27.24	-48.5	-64.9	3.5	3.03e+01	0	31	104	0	60	67932
2026-01-05 00:45:00.11	90.82	27.37	-36.4	-46.7	3.5	3.03e+01	0	31	104	0	48	16631
2026-01-05 00:45:01.12	90.53	27.50	-35.0	-45.1	3.6	3.03e+01	0	30	104	0	46	15506
2026-01-05 00:45:02.14	90.24	27.63	-34.3	-44.4	3.5	3.03e+01	0	30	104	0	44	16050
2026-01-05 00:45:03.14	89.94	27.76	-34.3	-44.4	3.5	3.03e+01	0	30	104	0	44	16007
2026-01-05 00:45:04.15	89.65	27.89	-37.9	-48.2	3.5	3.03e+01	0	31	104	0	52	15702
2026-01-05 00:45:05.16	89.35	28.02	-37.3	-47.6	3.5	3.03e+01	0	30	104	0	48	18419
2026-01-05 00:45:06.17	89.04	28.15	-48.1	-64.4	3.5	3.03e+01	0	30	104	0	60	64141
2026-01-05 00:45:07.18	88.74	28.28	-37.6	-47.9	3.6	3.03e+01	0	31	104	0	54	13507
2026-01-05 00:45:08.19	88.43	28.41	-48.5	-65.9	3.5	3.03e+01	0	30	104	0	60	75818
2026-01-05 00:45:09.20	88.12	28.54	-37.7	-48.0	3.5	3.03e+01	0	30	104	0	50	17268
2026-01-05 00:45:10.21	87.81	28.67	-37.6	-47.9	3.5	3.03e+01	0	30	104	0	50	17038
2026-01-05 00:45:11.22	87.49	28.79	-36.1	-46.4	3.6	3.03e+01	0	31	104	0	48	15984
2026-01-05 00:45:12.23	87.17	28.92	-35.9	-46.1	3.5	3.03e+01	0	31	104	0	46	17411
2026-01-05 00:45:13.23	86.86	29.05	-40.6	-51.3	3.7	3.03e+01	0	30	104	0	60	14076
2026-01-05 00:45:14.24	86.53	29.18	-36.9	-47.0	3.6	3.03e+01	0	30	104	0	48	17286
2026-01-05 00:45:15.25	86.21	29.30	-48.3	-64.9	3.5	3.03e+01	0	30	104	0	60	67284
2026-01-05 00:45:16.26	85.88	29.43	-35.4	-45.5	3.5	3.03e+01	0	30	104	0	48	14423
2026-01-05 00:45:17.27	85.55	29.55	-48.1	-65.4	3.5	3.03e+01	0	30	104	0	60	71276
2026-01-05 00:45:18.28	85.21	29.68	-34.5	-44.6	3.5	3.03e+01	0	30	104	0	44	16441
2026-01-05 00:45:19.29	84.87	29.81	-34.8	-45.0	3.5	3.03e+01	0	30	104	0	44	17175
2026-01-05 00:45:20.30	84.54	29.93	-34.3	-44.5	3.5	3.03e+01	0	30	104	0	44	16175
2026-01-05 00:45:21.31	84.19	30.05	-34.3	-44.4	3.5	3.03e+01	0	30	104	0	42	17960
2026-01-05 00:45:22.32	83.85	30.18	-38.5	-48.9	3.2	3.03e+01	0	30	104	0	58	11963
2026-01-05 00:45:23.33	83.50	30.30	-38.0	-48.3	3.6	3.03e+01	0	30	104	0	48	20075
2026-01-05 00:45:24.34	83.15	30.42	-48.7	-66.6	3.5	3.03e+01	0	31	104	0	60	82010
2026-01-05 00:45:25.35	82.80	30.54	-34.0	-44.2	3.5	3.03e+01	0	30	104	0	44	15617
2026-01-05 00:45:26.36	82.44	30.66	-48.2	-63.7	3.5	3.03e+01	0	31	104	0	60	58928
2026-01-05 00:45:27.37	82.08	30.78	-35.6	-45.8	3.5	3.03e+01	0	30	104	0	46	16879
2026-01-05 00:45:28.38	81.72	30.90	-35.1	-45.3	3.5	3.03e+01	0	30	104	0	46	15799
2026-01-05 00:45:29.39	81.36	31.02	-34.7	-44.8	3.5	3.03e+01	0	30	104	0	44	16861
2026-01-05 00:45:30.40	80.99	31.14	-33.9	-44.1	3.5	3.03e+01	0	30	104	0	44	15412
2026-01-05 00:45:31.41	80.62	31.26	-35.0	-45.2	3.5	3.03e+01	0	31	104	0	48	13969
2026-01-05 00:45:32.42	80.25	31.37	-36.5	-46.8	3.5	3.03e+01	0	30	104	0	48	16735
2026-01-05 00:45:33.43	79.87	31.49	-44.0	-56.5	3.5	3.03e+01	0	30	104	0	60	25760
2026-01-05 00:45:34.44	79.49	31.60	-35.3	-45.5	3.5	3.03e+01	0	30	104	0	44	18223
2026-01-05 00:45:35.45	79.11	31.72	-45.0	-58.4	3.5	3.03e+01	0	31	104	0	60	31920
2026-01-05 00:45:36.46	78.73	31.83	-36.2	-46.4	3.5	3.03e+01	0	31	104	0	46	18062
2026-01-05 00:45:37.47	78.34	31.94	-34.9	-45.1	3.4	3.03e+01	0	30	104	0	46	15494
2026-01-05 00:45:38.48	77.95	32.05	-34.8	-44.9	3.5	3.03e+01	0	30	104	0	44	17018
2026-01-05 00:45:39.49	77.56	32.16	-35.9	-46.1	3.5	3.03e+01	0	30	104	0	44	19573
2026-01-05 00:45:40.50	77.17	32.27	-34.9	-45.1	3.5	3.03e+01	0	30	104	0	46	15560
2026-01-05 00:45:41.51	76.77	32.38	-41.9	-52.7	3.4	3.03e+01	0	30	104	0	48	33277
2026-01-05 00:45:42.52	76.37	32.49	-44.0	-55.5	3.6	3.03e+01	0	31	104	0	60	22921
2026-01-05 00:45:43.53	75.97	32.59	-37.2	-47.4	3.5	3.03e+01	0	31	104	0	44	22687
2026-01-05 00:45:44.54	75.56	32.69	-45.8	-58.3	3.5	3.03e+01	0	31	104	0	60	31751
2026-01-05 00:45:45.55	75.15	32.80	-35.7	-46.0	3.5	3.03e+01	0	31	104	0	46	17103
2026-01-05 00:45:46.56	74.74	32.90	-34.5	-44.7	3.5	3.03e+01	0	31	104	0	44	16645
2026-01-05 00:45:47.56	74.33	33.00	-34.4	-44.5	3.5	3.03e+01	0	31	104	0	44	16212
2026-01-05 00:45:48.58	73.91	33.10	-40.7	-51.3	3.5	3.03e+01	0	31	104	0	50	25077
2026-01-05 00:45:49.59	73.49	33.20	-34.6	-44.7	3.5	3.03e+01	0	30	104	0	44	16545
2026-01-05 00:45:50.60	73.07	33.29	-48.2	-64.5	3.5	3.03e+01	0	30	104	0	60	64594
2026-01-05 00:45:51.61	72.65	33.39	-43.0	-54.1	3.5	3.03e+01	0	30	104	0	60	19514
2026-01-05 00:45:52.62	72.22	33.48	-45.5	-57.7	3.4	3.03e+01	0	31	104	0	54	41477
2026-01-05 00:45:53.63	71.79	33.57	-41.5	-52.4	3.8	3.03e+01	0	30	104	0	60	15961
2026-01-05 00:45:54.64	71.36	33.66	-36.1	-46.4	3.5	3.03e+01	0	31	104	0	48	15958
2026-01-05 00:45:55.65	70.93	33.75	-36.6	-46.8	3.5	3.03e+01	0	30	104	0	48	16789
2026-01-05 00:45:56.65	70.50	33.84	-35.6	-45.8	3.5	3.03e+01	0	30	104	0	46	16815
2026-01-05 00:45:57.66	70.06	33.92	-40.4	-50.9	3.5	3.03e+01	0	30	104	0	50	24113
2026-01-05 00:45:58.67	69.62	34.01	-35.0	-45.1	3.5	3.03e+01	0	31	104	0	44	17400
2026-01-05 00:45:59.68	69.17	34.09	-48.6	-66.4	3.5	3.03e+01	0	31	104	0	60	80370
2026-01-05 00:46:00.69	68.73	34.17	-42.7	-53.6	3.5	3.03e+01	0	30	104	0	60	18501
2026-01-05 00:46:01.70	68.28	34.25	-46.9	-60.4	3.5	3.03e+01	0	31	104	0	56	50649
2026-01-05 00:46:02.71	67.83	34.33	-41.3	-52.0	3.5	3.03e+01	0	30	104	0	60	15309
2026-01-05 00:46:03.72	67.38	34.40	-37.9	-48.2	3.5	3.03e+01	0	31	104	0	50	17543
2026-01-05 00:46:04.73	66.92	34.48	-37.9	-48.1	3.5	3.03e+01	0	30	104	0	50	17438
2026-01-05 00:46:05.74	66.47	34.55	-38.3	-48.6	3.5	3.03e+01	0	30	104	0	50	18359
2026-01-05 00:46:06.75	66.01	34.62	-40.9	-51.5	3.4	3.03e+01	0	31	104	0	54	20382
2026-01-05 00:46:07.76	65.55	34.69	-35.4	-45.6	3.5	3.03e+01	0	30	104	0	46	16386
2026-01-05 00:46:08.77	65.09	34.75	-48.5	-65.5	3.5	3.03e+01	0	30	104	0	60	72760
2026-01-05 00:46:09.78	64.62	34.82	-39.9	-50.4	3.5	3.03e+01	0	31	104	0	58	14336
2026-01-05 00:46:10.79	64.16	34.88	-48.7	-66.1	3.5	3.03e+01	0	30	104	0	60	77649
2026-01-05 00:46:11.80	63.69	34.94	-38.2	-48.5	3.5	3.03e+01	0	30	104	0	54	14524
2026-01-05 00:46:12.81	63.22	35.00	-37.0	-47.3	3.5	3.03e+01	0	31	104	0	48	17731
2026-01-05 00:46:13.82	62.75	35.05	-35.7	-45.9	3.5	3.03e+01	0	31	104	0	46	17064
2026-01-05 00:46:14.82	62.28	35.11	-35.1	-45.3	3.5	3.03e+01	0	31	104	0	46	15808
2026-01-05 00:46:15.83	61.81	35.16	-47.4	-61.5	3.5	3.03e+01	0	31	104	0	60	45633
2026-01-05 00:46:16.84	61.33	35.21	-36.3	-46.4	3.5	3.03e+01	0	31	104	0	46	17979
2026-01-05 00:46:17.85	60.85	35.26	-48.3	-64.9	3.5	3.03e+01	0	31	104	0	60	67621
2026-01-05 00:46:18.86	60.37	35.30	-39.9	-50.2	3.5	3.03e+01	0	31	104	0	56	15698
2026-01-05 00:46:19.87	59.89	35.35	-48.7	-66.2	3.5	3.03e+01	0	31	104	0	60	78143
2026-01-05 00:46:20.88	59.41	35.39	-35.7	-45.8	3.4	3.03e+01	0	31	104	0	48	15036
2026-01-05 00:46:21.89	58.93	35.43	-35.2	-45.3	3.6	3.03e+01	0	31	104	0	46	15884
2026-01-05 00:46:22.90	58.44	35.47	-35.2	-45.2	5.3	3.03e+01	0	31	104	0	46	15660
2026-01-05 00:46:23.91	57.96	35.50	-34.7	-36.2	24.7	3.03e+01	0	30	104	0	44	6269
2026-01-05 00:46:24.92	57.47	35.53	-35.1	-36.3	29.4	3.03e+01	0	30	0	1048576	44	6333
2026-01-05 00:46:25.93	56.99	35.56	-34.9	-36.2	29.3	3.03e+01	0	30	0	3145728	44	6229
2026-01-05 00:46:26.94	56.50	35.59	-34.7	-35.9	29.6	3.03e+01	0	31	0	4718592	44	6015
2026-01-05 00:46:27.95	56.01	35.62	-34.8	-36.0	29.5	3.03e+01	0	31	0	6815744	44	6078
2026-01-05 00:46:28.96	55.52	35.64	-34.9	-36.1	29.5	3.03e+01	0	31	0	8912896	44	6146
2026-01-05 00:46:29.97	55.03	35.66	-35.1	-36.3	29.2	3.03e+01	0	30	0	10485760	44	6313
2026-01-05 00:46:30.98	54.54	35.68	-34.9	-36.1	29.5	3.03e+01	0	30	0	12582912	44	6154
2026-01-05 00:46:31.99	54.05	35.70	-34.8	-36.0	29.5	3.03e+01	0	31	0	14155776	44	6086
2026-01-05 00:46:33.00	53.56	35.71	-34.7	-36.0	29.6	3.03e+01	0	30	0	16252928	44	6070
2026-01-05 00:46:34.01	53.07	35.72	-34.7	-36.0	29.5	3.03e+01	0	30	0	18350080	44	6110
2026-01-05 00:46:35.02	52.57	35.73	-34.8	-36.1	29.4	3.03e+01	0	31	0	19922944	44	6142
2026-01-05 00:46:36.03	52.08	35.74	-34.8	-36.0	29.5	3.03e+01	0	30	0	22020096	44	6100
2026-01-05 00:46:37.04	51.59	35.74	-35.0	-36.2	29.4	3.03e+01	0	30	0	24117248	44	6242
2026-01-05 00:46:38.05	51.10	35.74	-34.7	-35.9	29.6	3.03e+01	0	30	0	25690112	44	5998
2026-01-05 00:46:39.06	50.60	35.74	-34.9	-36.1	29.4	3.03e+01	0	30	0	27787264	44	6168
2026-01-05 00:46:40.07	50.11	35.74	-34.9	-36.1	29.4	3.03e+01	0	30	0	29360128	44	6179
2026-01-05 00:46:41.08	49.62	35.74	-35.0	-36.2	29.3	3.03e+01	0	30	0	31457280	44	6275
2026-01-05 00:46:42.09	49.12	35.73	-34.9	-36.1	29.4	3.03e+01	0	30	0	33554432	44	6203
2026-01-05 00:46:43.10	48.63	35.72	-35.1	-36.3	29.2	3.03e+01	0	30	0	35127296	44	6313
2026-01-05 00:46:44.11	48.14	35.71	-34.7	-35.9	29.6	3.03e+01	0	31	0	37224448	44	6055
2026-01-05 00:46:45.12	47.65	35.69	-34.9	-36.2	29.4	3.03e+01	0	31	0	38797312	44	6212
2026-01-05 00:46:46.13	47.16	35.68	-35.0	-36.2	29.2	3.03e+01	0	31	0	40894464	44	6232
2026-01-05 00:46:47.14	46.67	35.66	-34.9	-36.2	29.3	3.03e+01	0	31	0	42991616	44	6236
2026-01-05 00:46:48.15	46.18	35.64	-34.9	-36.1	29.4	3.03e+01	0	31	0	44564480	44	6180
2026-01-05 00:46:49.16	45.69	35.61	-35.2	-36.4	29.2	3.03e+01	0	30	0	46661632	44	6396
2026-01-05 00:46:50.17	45.20	35.59	-35.2	-36.5	29.1	3.03e+01	0	30	0	48234496	44	6424
2026-01-05 00:46:51.18	44.71	35.56	-34.9	-36.2	29.4	3.03e+01	0	30	0	50331648	44	6220
2026-01-05 00:46:52.19	44.23	35.53	-34.8	-36.0	29.4	3.03e+01	0	31	0	52428800	44	6109
2026-01-05 00:46:53.20	43.74	35.50	-34.9	-36.1	29.4	3.03e+01	0	31	0	54001664	44	6202
2026-01-05 00:46:54.21	43.26	35.46	-34.9	-36.1	29.4	3.03e+01	0	30	0	56098816	44	6192
2026-01-05 00:46:55.22	42.77	35.42	-35.0	-36.2	29.4	3.03e+01	0	31	0	57671680	44	6242
2026-01-05 00:46:56.23	42.29	35.38	-34.8	-36.0	29.5	3.03e+01	0	30	0	59768832	44	6109
2026-01-05 00:46:57.24	41.81	35.34	-35.2	-36.4	29.2	3.03e+01	0	30	0	61865984	44	6384
2026-01-05 00:46:58.25	41.33	35.30	-35.1	-36.3	29.2	3.03e+01	0	31	0	63438848	44	6334
2026-01-05 00:46:59.26	40.85	35.25	-34.9	-36.2	29.4	3.03e+01	0	30	0	65536000	44	6208
2026-01-05 00:47:00.27	40.38	35.20	-35.0	-36.2	29.3	3.03e+01	0	31	0	67633152	44	6226
2026-01-05 00:47:01.28	39.90	35.15	-34.9	-36.1	29.4	3.03e+01	0	30	0	69206016	44	6189
2026-01-05 00:47:02.29	39.43	35.10	-34.8	-36.0	29.5	3.03e+01	0	30	0	71303168	44	6096
2026-01-05 00:47:03.30	38.96	35.05	-35.1	-36.4	29.1	3.03e+01	0	30	0	72876032	44	6365
2026-01-05 00:47:04.30	38.49	34.99	-35.0	-36.2	29.3	3.03e+01	0	30	0	74973184	44	6245
2026-01-05 00:47:05.31	38.02	34.93	-34.9	-36.1	29.3	3.03e+01	0	30	0	77070336	44	6195
2026-01-05 00:47:06.32	37.55	34.87	-35.0	-36.2	29.3	3.03e+01	0	31	0	78643200	44	6276
2026-01-05 00:47:07.33	37.09	34.81	-34.8	-36.1	29.5	3.03e+01	0	31	0	80740352	44	6135
2026-01-05 00:47:08.34	36.63	34.75	-35.0	-36.2	29.3	3.03e+01	0	31	0	82313216	44	6275
2026-01-05 00:47:09.35	36.16	34.68	-35.0	-36.3	29.2	3.03e+01	0	30	0	84410368	44	6299
2026-01-05 00:47:10.36	35.70	34.61	-34.8	-36.0	29.5	3.03e+01	0	30	0	86507520	44	6084
2026-01-05 00:47:11.37	35.25	34.54	-34.9	-36.1	29.4	3.03e+01	0	30	0	88080384	44	6170
2026-01-05 00:47:12.38	34.79	34.47	-35.0	-36.2	29.4	3.03e+01	0	30	0	90177536	44	6247
2026-01-05 00:47:13.39	34.34	34.39	-35.1	-36.4	29.2	3.03e+01	0	30	0	92274688	44	6361
2026-01-05 00:47:14.40	33.89	34.32	-34.9	-36.1	29.4	3.03e+01	0	31	0	93847552	44	6192
2026-01-05 00:47:15.41	33.44	34.24	-34.9	-36.2	29.4	3.03e+01	0	31	0	95944704	44	6207
2026-01-05 00:47:16.42	32.99	34.16	-35.1	-36.3	29.3	3.03e+01	0	31	0	97517568	44	6310
2026-01-05 00:47:17.43	32.55	34.08	-35.2	-36.4	29.1	3.03e+01	0	30	0	99614720	44	6384
2026-01-05 00:47:18.44	32.11	34.00	-35.3	-36.6	29.0	3.03e+01	0	30	0	101711872	44	6507
2026-01-05 00:47:19.45	31.67	33.91	-34.9	-36.1	29.4	3.03e+01	0	31	0	103284736	44	6138
2026-01-05 00:47:20.45	31.23	33.83	-35.0	-36.2	29.3	3.03e+01	0	30	0	105381888	44	6273
2026-01-05 00:47:21.46	30.80	33.74	-34.9	-36.1	29.4	3.03e+01	0	30	0	106954752	44	6163
2026-01-05 00:47:22.47	30.37	33.65	-34.8	-36.0	29.4	3.03e+01	0	31	0	109051904	44	6108
2026-01-05 00:47:23.48	29.94	33.56	-35.0	-36.2	29.4	3.03e+01	0	30	0	111149056	44	6271
2026-01-05 00:47:24.49	29.51	33.47	-35.3	-36.5	29.0	3.03e+01	0	31	0	112721920	44	6462
2026-01-05 00:47:25.50	29.08	33.38	-35.1	-36.3	29.2	3.03e+01	0	30	0	114819072	44	6299
2026-01-05 00:47:26.51	28.66	33.28	-34.7	-35.9	29.5	3.03e+01	0	31	0	116391936	44	6047
2026-01-05 00:47:27.52	28.24	33.19	-35.0	-36.2	29.3	3.03e+01	0	31	0	118489088	44	6229
2026-01-05 00:47:28.53	27.82	33.09	-35.0	-36.2	29.4	3.03e+01	0	31	0	120586240	44	6240
2026-01-05 00:47:29.54	27.41	32.99	-35.1	-36.3	29.3	3.03e+01	0	30	0	122159104	44	6330
2026-01-05 00:47:30.55	27.00	32.89	-35.2	-36.4	29.2	3.03e+01	0	30	0	124256256	44	6368
2026-01-05 00:47:31.56	26.59	32.79	-34.8	-36.0	29.4	3.03e+01	0	31	0	125829120	44	6082
2026-01-05 00:47:32.57	26.18	32.69	-34.8	-36.0	29.4	3.03e+01	0	31	0	127926272	44	6134
2026-01-05 00:47:33.58	25.78	32.58	-35.1	-36.3	29.3	3.03e+01	0	30	0	130023424	44	6320
2026-01-05 00:47:34.59	25.37	32.48	-35.0	-36.2	29.3	3.03e+01	0	30	0	131596288	44	6247
2026-01-05 00:47:35.60	24.97	32.37	-35.0	-36.2	29.3	3.03e+01	0	30	0	133693440	44	6256
2026-01-05 00:47:36.61	24.58	32.26	-35.0	-36.2	29.3	3.03e+01	0	31	0	135790592	44	6220
2026-01-05 00:47:37.62	24.19	32.15	-34.8	-36.0	29.5	3.03e+01	0	30	0	137363456	44	6087
2026-01-05 00:47:38.63	23.79	32.05	-34.8	-36.0	29.5	3.03e+01	0	30	0	139460608	44	6069
2026-01-05 00:47:39.64	23.41	31.93	-35.0	-36.2	29.2	3.03e+01	0	30	0	141033472	44	6266
2026-01-05 00:47:40.65	23.02	31.82	-35.0	-36.2	29.3	3.03e+01	0	31	0	143130624	44	6269
2026-01-05 00:47:41.66	22.64	31.71	-34.8	-36.0	29.5	3.03e+01	0	31	0	145227776	44	6087
2026-01-05 00:47:42.67	22.26	31.60	-34.8	-36.0	29.5	3.03e+01	0	30	0	146800640	44	6103
2026-01-05 00:47:43.68	21.88	31.48	-34.9	-36.1	29.4	3.03e+01	0	31	0	148897792	44	6154
2026-01-05 00:47:44.69	21.51	31.37	-34.8	-36.0	29.3	3.03e+01	0	30	0	150470656	44	6131
2026-01-05 00:47:45.70	21.14	31.25	-35.3	-36.5	29.1	3.03e+01	0	31	0	152567808	44	6463
2026-01-05 00:47:46.71	20.77	31.13	-34.7	-35.9	29.5	3.03e+01	0	31	0	154664960	44	6055
2026-01-05 00:47:47.72	20.40	31.02	-34.9	-36.1	29.5	3.03e+01	0	30	0	156237824	44	6148
2026-01-05 00:47:48.73	20.04	30.90	-35.0	-36.2	29.1	3.03e+01	0	30	0	158334976	44	6269
2026-01-05 00:47:49.74	19.68	30.78	-35.1	-36.3	29.1	3.03e+01	0	30	0	160432128	44	6338
2026-01-05 00:47:50.75	19.32	30.66	-35.1	-36.3	29.3	3.03e+01	0	30	0	162004992	44	6308
2026-01-05 00:47:51.76	18.97	30.54	-34.8	-36.1	29.4	3.03e+01	0	30	0	164102144	44	6137
2026-01-05 00:47:52.77	18.62	30.42	-34.9	-36.1	29.4	3.03e+01	0	30	0	165675008	44	6183
2026-01-05 00:47:53.78	18.27	30.30	-35.0	-36.2	29.4	3.03e+01	0	30	0	167772160	44	6222
2026-01-05 00:47:54.79	17.92	30.17	-34.9	-36.1	29.3	3.03e+01	0	30	0	169869312	44	6177
2026-01-05 00:47:55.80	17.58	30.05	-34.7	-35.9	29.6	3.03e+01	0	30	0	171442176	44	6024
2026-01-05 00:47:56.81	17.24	29.93	-34.7	-35.9	29.6	3.03e+01	0	30	0	173539328	44	6001
2026-01-05 00:47:57.82	16.90	29.80	-34.9	-36.1	29.5	3.03e+01	0	30	0	175112192	44	6160
2026-01-05 00:47:58.83	16.56	29.68	-35.5	-36.8	28.7	3.03e+01	0	31	0	177209344	44	6665
2026-01-05 00:47:59.84	16.23	29.55	-35.1	-36.3	29.1	3.03e+01	0	30	0	179306496	44	6350
2026-01-05 00:48:00.85	15.90	29.43	-35.0	-36.2	29.5	3.03e+01	0	30	0	180879360	44	6261
2026-01-05 00:48:01.86	15.57	29.30	-34.8	-36.0	29.3	3.03e+01	0	31	0	182976512	44	6131
2026-01-05 00:48:02.87	15.25	29.18	-35.2	-36.4	29.3	3.03e+01	0	30	0	184549376	44	6380
2026-01-05 00:48:03.88	14.92	29.05	-35.4	-36.6	29.0	3.03e+01	0	30	0	186646528	44	6528
2026-01-05 00:48:04.89	14.61	28.92	-35.1	-36.4	29.2	3.03e+01	0	31	0	188743680	44	6354
2026-01-05 00:48:05.90	14.29	28.79	-35.1	-36.3	29.2	3.03e+01	0	31	0	190316544	44	6318
2026-01-05 00:48:06.91	13.97	28.67	-34.9	-36.1	29.3	3.03e+01	0	31	0	192413696	44	6141
2026-01-05 00:48:07.91	13.67	28.54	-34.9	-36.1	29.4	3.03e+01	0	31	0	193986560	44	6164
2026-01-05 00:48:08.92	13.36	28.41	-34.9	-36.1	29.4	3.03e+01	0	31	0	196083712	44	6150
2026-01-05 00:48:09.93	13.05	28.28	-35.0	-36.2	29.3	3.03e+01	0	30	0	198180864	44	6243
2026-01-05 00:48:10.94	12.75	28.15	-34.9	-36.1	29.4	3.03e+01	0	31	0	199753728	44	6188
2026-01-05 00:48:11.95	12.44	28.02	-34.8	-36.0	29.5	3.03e+01	0	30	0	201850880	44	6117
2026-01-05 00:48:12.96	12.15	27.90	-34.8	-36.0	29.4	3.03e+01	0	30	0	203948032	44	6120
2026-01-05 00:48:13.97	11.85	27.77	-35.1	-36.4	29.2	3.03e+01	0	30	0	205520896	44	6351
2026-01-05 00:48:14.98	11.56	27.64	-35.3	-36.6	28.9	3.03e+01	0	31	0	207618048	44	6511
2026-01-05 00:48:15.99	11.26	27.51	-34.9	-36.1	29.3	3.03e+01	0	31	0	209190912	44	6167
2026-01-05 00:48:17.00	10.98	27.38	-34.6	-35.8	29.7	3.03e+01	0	30	0	211288064	44	5961
2026-01-05 00:48:18.01	10.69	27.25	-34.9	-36.1	29.5	3.03e+01	0	30	0	213385216	44	6177
2026-01-05 00:48:19.02	10.41	27.12	-35.1	-36.4	29.2	3.03e+01	0	30	0	214958080	44	6359
2026-01-05 00:48:20.03	10.12	26.99	-35.3	-36.5	29.0	3.03e+01	0	30	0	217055232	44	6498
2026-01-05 00:48:21.04	9.84	26.86	-35.3	-36.5	29.0	3.03e+01	0	31	0	218628096	44	6463
2026-01-05 00:48:22.05	9.57	26.73	-35.1	-36.3	29.3	3.03e+01	0	30	0	220725248	44	6283
2026-01-05 00:48:23.06	9.29	26.60	-35.0	-36.2	29.2	3.03e+01	0	31	0	222822400	44	6224
2026-01-05 00:48:24.07	9.02	26.47	-34.9	-36.1	29.4	3.03e+01	0	30	0	224395264	44	6186
2026-01-05 00:48:25.08	8.75	26.34	-35.0	-36.2	29.3	3.03e+01	0	31	0	226492416	44	6253
2026-01-05 00:48:26.09	8.48	26.21	-35.1	-36.4	29.2	3.03e+01	0	31	0	228589568	44	6364
2026-01-05 00:48:27.10	8.22	26.07	-35.1	-36.3	29.2	3.03e+01	0	30	0	230162432	44	6310
2026-01-05 00:48:28.11	7.96	25.94	-35.0	-36.2	29.3	3.03e+01	0	30	0	232259584	44	6259
2026-01-05 00:48:29.12	7.70	25.81	-35.0	-36.2	29.3	3.03e+01	0	30	0	233832448	44	6228
2026-01-05 00:48:30.13	7.44	25.68	-35.1	-36.3	29.3	3.03e+01	0	31	0	235929600	44	6346
2026-01-05 00:48:31.14	7.18	25.55	-35.1	-36.3	29.2	3.03e+01	0	30	0	238026752	44	6336
2026-01-05 00:48:32.15	6.93	25.42	-35.0	-36.2	29.2	3.03e+01	0	31	0	239599616	44	6239
2026-01-05 00:48:33.16	6.68	25.29	-35.1	-36.3	29.2	3.03e+01	0	31	0	241696768	44	6336
2026-01-05 00:48:34.17	6.43	25.16	-35.2	-36.4	29.1	3.03e+01	0	30	0	243269632	44	6405
2026-01-05 00:48:35.18	6.18	25.03	-35.4	-36.6	28.9	3.03e+01	0	31	0	245366784	44	6558
2026-01-05 00:48:36.19	5.93	24.91	-35.3	-36.5	29.0	3.03e+01	0	30	0	247463936	44	6455
2026-01-05 00:48:37.20	5.69	24.78	-35.2	-36.4	29.1	3.03e+01	0	30	0	249036800	44	6400
2026-01-05 00:48:38.21	5.45	24.65	-35.1	-36.4	29.2	3.03e+01	0	31	0	251133952	44	6351
2026-01-05 00:48:39.22	5.21	24.52	-35.2	-36.5	29.1	3.03e+01	0	30	0	252706816	44	6429
2026-01-05 00:48:40.23	4.98	24.39	-35.2	-36.4	29.1	3.03e+01	0	31	0	254803968	44	6401
2026-01-05 00:48:41.24	4.74	24.26	-35.3	-36.6	29.0	3.03e+01	0	30	0	256901120	44	6508
2026-01-05 00:48:42.25	4.51	24.13	-35.3	-36.5	29.0	3.03e+01	0	30	0	258473984	44	6487
2026-01-05 00:48:43.26	4.28	24.00	-35.7	-36.9	28.6	3.03e+01	0	31	0	260571136	44	6783
2026-01-05 00:48:44.27	4.05	23.87	-35.1	-36.4	29.1	3.03e+01	0	30	0	262144000	44	6353
2026-01-05 00:48:45.28	3.82	23.75	-35.5	-36.7	29.1	3.03e+01	0	31	0	264241152	44	6631
2026-01-05 00:48:46.29	3.60	23.62	-35.1	-36.3	29.2	3.03e+01	0	31	0	266338304	44	6334
2026-01-05 00:48:47.30	3.37	23.49	-35.2	-36.5	28.9	3.03e+01	0	30	0	267911168	44	6430
2026-01-05 00:48:48.31	3.15	23.36	-35.3	-36.5	29.1	3.03e+01	0	30	0	270008320	44	6429
2026-01-05 00:48:49.32	2.93	23.24	-35.2	-36.4	29.1	3.03e+01	0	30	0	272105472	44	6403
2026-01-05 00:48:50.33	2.72	23.11	-35.3	-36.6	29.0	3.03e+01	0	30	0	273678336	44	6504
2026-01-05 00:48:51.34	2.50	22.98	-35.4	-36.7	28.8	3.03e+01	0	30	0	275775488	44	6601
2026-01-05 00:48:52.35	2.29	22.86	-35.4	-36.7	28.9	3.03e+01	0	30	0	277348352	44	6583
2026-01-05 00:48:53.36	2.08	22.73	-35.4	-36.7	28.7	3.03e+01	0	30	0	279445504	44	6585
2026-01-05 00:48:54.37	1.87	22.61	-35.3	-36.5	28.9	3.03e+01	0	30	0	281542656	44	6476
2026-01-05 00:48:55.38	1.66	22.48	-35.2	-36.4	29.1	3.03e+01	0	30	0	283115520	44	6409
2026-01-05 00:48:56.39	1.45	22.35	-35.3	-36.5	29.0	3.03e+01	0	30	0	285212672	44	6486
2026-01-05 00:48:57.40	1.25	22.23	-35.1	-36.3	29.1	3.03e+01	0	30	0	286785536	44	6301
2026-01-05 00:48:58.41	1.05	22.11	-35.3	-36.5	28.9	3.03e+01	0	30	0	288882688	44	6445
2026-01-05 00:48:59.42	0.84	21.98	-35.3	-36.5	29.0	3.03e+01	0	31	0	290979840	44	6478
2026-01-05 00:49:00.43	0.65	21.86	-35.2	-36.5	28.9	3.03e+01	0	31	0	292552704	44	6444
2026-01-05 00:49:01.44	0.45	21.73	-35.2	-36.4	29.0	3.03e+01	0	30	0	294649856	44	6400
2026-01-05 00:49:02.45	0.25	21.61	-35.0	-36.2	29.1	3.03e+01	0	30	0	296747008	44	6261
2026-01-05 00:49:03.45	0.06	21.49	-34.9	-36.1	29.4	3.03e+01	0	30	0	298319872	44	6163
2026-01-05 00:49:04.46	359.87	21.36	-35.0	-36.2	29.2	3.03e+01	0	30	0	300417024	44	6241
2026-01-05 00:49:05.47	359.68	21.24	-35.1	-36.3	29.0	3.03e+01	0	30	0	301989888	44	6350
2026-01-05 00:49:06.48	359.49	21.12	-35.2	-36.5	29.0	3.03e+01	0	30	0	304087040	44	6434
2026-01-05 00:49:07.49	359.30	21.00	-35.1	-36.4	29.0	3.03e+01	0	30	0	306184192	44	6374
2026-01-05 00:49:08.50	359.11	20.88	-34.9	-36.1	29.2	3.03e+01	0	30	0	307757056	44	6201
2026-01-05 00:49:09.51	358.93	20.76	-34.9	-36.1	29.3	3.03e+01	0	30	0	309854208	44	6172
2026-01-05 00:49:10.52	358.74	20.63	-34.8	-36.0	29.4	3.03e+01	0	30	0	311427072	44	6085
2026-01-05 00:49:11.53	358.56	20.51	-35.0	-36.3	29.1	3.03e+01	0	30	0	313524224	44	6281
2026-01-05 00:49:12.54	358.38	20.39	-35.0	-36.3	29.2	3.03e+01	0	30	0	315621376	44	6291
2026-01-05 00:49:13.55	358.20	20.27	-35.1	-36.3	29.2	3.03e+01	0	30	0	317194240	44	6307
2026-01-05 00:49:14.56	358.03	20.15	-35.0	-36.2	29.1	3.03e+01	0	30	0	319291392	44	6225
2026-01-05 00:49:15.57	357.85	20.04	-34.9	-36.1	29.2	3.03e+01	0	30	0	320864256	44	6166
2026-01-05 00:49:16.58	357.68	19.92	-34.9	-36.1	29.3	3.03e+01	0	30	0	322961408	44	6159
2026-01-05 00:49:17.59	357.50	19.80	-34.9	-36.1	29.3	3.03e+01	0	30	0	325058560	44	6171
2026-01-05 00:49:18.60	357.33	19.68	-34.9	-36.1	29.3	3.03e+01	0	30	0	326631424	44	6176
2026-01-05 00:49:19.61	357.16	19.56	-35.0	-36.2	29.3	3.03e+01	0	30	0	328728576	44	6263
2026-01-05 00:49:20.62	357.00	19.44	-34.9	-36.1	29.1	3.03e+01	0	30	0	330301440	44	6195
2026-01-05 00:49:21.63	356.83	19.33	-34.6	-35.8	29.5	3.03e+01	0	30	0	332398592	44	5974
2026-01-05 00:49:22.64	356.66	19.21	-34.6	-35.8	29.5	3.03e+01	0	30	0	334495744	44	5937
2026-01-05 00:49:23.65	356.50	19.09	-34.7	-35.9	29.4	3.03e+01	0	30	0	336068608	44	6041
2026-01-05 00:49:24.66	356.34	18.98	-34.8	-36.0	29.4	3.03e+01	0	30	0	338165760	44	6075
2026-01-05 00:49:25.67	356.17	18.86	-34.9	-36.2	29.2	3.03e+01	0	30	0	340262912	44	6222
2026-01-05 00:49:26.68	356.01	18.75	-35.1	-36.3	29.0	3.03e+01	0	30	0	341835776	44	6337
2026-01-05 00:49:27.69	355.85	18.63	-35.0	-36.2	29.1	3.03e+01	0	31	0	343932928	44	6220
2026-01-05 00:49:28.70	355.70	18.52	-34.8	-35.9	29.3	3.03e+01	0	30	0	345505792	44	6061
2026-01-05 00:49:29.71	355.54	18.40	-35.4	-36.6	28.8	3.03e+01	0	30	0	347602944	44	6535
2026-01-05 00:49:30.72	355.38	18.29	-34.8	-36.0	29.3	3.03e+01	0	30	0	349700096	44	6069
2026-01-05 00:49:31.73	355.23	18.18	-35.1	-36.3	29.1	3.03e+01	0	30	0	351272960	44	6338
2026-01-05 00:49:32.74	355.08	18.06	-35.1	-36.3	29.1	3.03e+01	0	30	0	353370112	44	6329
2026-01-05 00:49:33.75	354.93	17.95	-35.2	-36.4	29.0	3.03e+01	0	30	0	354942976	44	6390
2026-01-05 00:49:34.76	354.78	17.84	-35.0	-36.2	29.0	3.03e+01	0	30	0	357040128	44	6257
2026-01-05 00:49:35.77	354.63	17.73	-35.0	-36.2	29.0	3.03e+01	0	30	0	359137280	44	6245
2026-01-05 00:49:36.78	354.48	17.62	-34.8	-36.0	29.1	3.03e+01	0	30	0	360710144	44	6115
2026-01-05 00:49:37.79	354.33	17.50	-34.8	-36.0	29.2	3.03e+01	0	30	0	362807296	44	6080
2026-01-05 00:49:38.80	354.19	17.39	-34.8	-36.0	29.3	3.03e+01	0	31	0	364904448	44	6092
2026-01-05 00:49:39.81	354.04	17.28	-34.8	-36.0	29.3	3.03e+01	0	30	0	366477312	44	6096
2026-01-05 00:49:40.81	353.90	17.17	-34.8	-36.0	29.3	3.03e+01	0	30	0	368574464	44	6103
2026-01-05 00:49:41.82	353.76	17.06	-34.9	-36.1	29.2	3.03e+01	0	30	0	370147328	44	6164
2026-01-05 00:49:42.83	353.62	16.96	-34.8	-36.0	29.2	3.03e+01	0	30	0	372244480	44	6118
2026-01-05 00:49:43.84	353.48	16.85	-34.8	-36.0	29.2	3.03e+01	0	30	0	374341632	44	6115
2026-01-05 00:49:44.85	353.34	16.74	-35.0	-36.2	29.1	3.03e+01	0	30	0	375914496	44	6247
2026-01-05 00:49:45.86	353.20	16.63	-34.9	-36.2	29.1	3.03e+01	0	31	0	378011648	44	6219
2026-01-05 00:49:46.87	353.06	16.52	-35.0	-36.2	29.0	3.03e+01	0	30	0	379584512	44	6263
2026-01-05 00:49:47.88	352.93	16.41	-35.2	-36.5	28.9	3.03e+01	0	30	0	381681664	44	6454
2026-01-05 00:49:48.88	352.80	16.31	-35.1	-36.3	28.9	3.03e+01	0	30	0	383778816	44	6314
2026-01-05 00:49:49.89	352.66	16.20	-35.0	-36.2	29.1	3.03e+01	0	31	0	385351680	44	6213
2026-01-05 00:49:50.90	352.53	16.09	-34.9	-36.2	29.0	3.03e+01	0	31	0	387448832	44	6213
2026-01-05 00:49:51.91	352.40	15.99	-34.8	-36.0	29.1	3.03e+01	0	30	0	389021696	44	6120
2026-01-05 00:49:52.92	352.27	15.88	-35.0	-36.2	29.0	3.03e+01	0	30	0	391118848	44	6271
2026-01-05 00:49:53.93	352.14	15.78	-34.9	-36.1	29.2	3.03e+01	0	30	0	393216000	44	6136
2026-01-05 00:49:54.94	352.01	15.67	-34.7	-35.9	29.3	3.03e+01	0	30	0	394788864	44	6038
2026-01-05 00:49:55.95	351.88	15.57	-35.1	-36.3	29.0	3.03e+01	0	30	0	396886016	44	6326
2026-01-05 00:49:56.96	351.76	15.46	-35.1	-36.3	29.0	3.03e+01	0	30	0	398458880	44	6328
2026-01-05 00:49:57.97	351.63	15.36	-35.0	-36.3	29.0	3.03e+01	0	30	0	400556032	44	6285
2026-01-05 00:49:58.98	351.51	15.26	-35.1	-36.3	28.9	3.03e+01	0	30	0	402653184	44	6348
2026-01-05 00:49:59.99	351.38	15.15	-34.9	-36.1	29.0	3.03e+01	0	30	0	404226048	44	6200
2026-01-05 00:50:01.00	351.26	15.05	-34.8	-36.1	29.2	3.03e+01	0	30	0	406323200	44	6139
2026-01-05 00:50:02.01	351.14	14.95	-34.9	-36.1	29.1	3.03e+01	0	30	0	408420352	44	6196
2026-01-05 00:50:03.02	351.02	14.85	-34.8	-36.0	29.2	3.03e+01	0	31	0	409993216	44	6093
2026-01-05 00:50:04.03	350.90	14.74	-34.9	-36.1	29.1	3.03e+01	0	30	0	412090368	44	6190
2026-01-05 00:50:05.04	350.78	14.64	-35.0	-36.2	29.1	3.03e+01	0	30	0	413663232	44	6237
2026-01-05 00:50:06.05	350.66	14.54	-35.1	-36.4	28.9	3.03e+01	0	30	0	415760384	44	6358
2026-01-05 00:50:07.06	350.54	14.44	-35.3	-36.6	28.7	3.03e+01	0	30	0	417857536	44	6510
2026-01-05 00:50:08.07	350.43	14.34	-35.1	-36.4	28.9	3.03e+01	0	30	0	419430400	44	6358
2026-01-05 00:50:09.08	350.31	14.24	-35.1	-36.3	29.0	3.03e+01	0	31	0	421527552	44	6322
2026-01-05 00:50:10.09	350.20	14.14	-35.3	-36.5	28.7	3.03e+01	0	30	0	423100416	44	6460
2026-01-05 00:50:11.10	350.08	14.04	-34.9	-36.1	29.0	3.03e+01	0	30	0	425197568	44	6163
2026-01-05 00:50:12.11	349.97	13.94	-35.0	-36.2	29.0	3.03e+01	0	30	0	427294720	44	6275
2026-01-05 00:50:13.12	349.86	13.84	-35.0	-36.2	29.0	3.03e+01	0	30	0	428867584	44	6245
2026-01-05 00:50:14.13	349.75	13.74	-35.1	-36.3	29.0	3.03e+01	0	30	0	430964736	44	6298
2026-01-05 00:50:15.14	349.64	13.65	-35.2	-36.4	28.9	3.03e+01	0	31	0	433061888	44	6382
2026-01-05 00:50:16.15	349.53	13.55	-35.3	-36.5	28.7	3.03e+01	0	30	0	434634752	44	6485
2026-01-05 00:50:17.16	349.42	13.45	-35.0	-36.2	29.0	3.03e+01	0	30	0	436731904	44	6224
2026-01-05 00:50:18.17	349.31	13.35	-35.1	-36.3	28.9	3.03e+01	0	30	0	438304768	44	6336
2026-01-05 00:50:19.18	349.20	13.26	-35.3	-36.6	28.7	3.03e+01	0	30	0	440401920	44	6501
2026-01-05 00:50:20.19	349.10	13.16	-35.2	-36.4	28.8	3.03e+01	0	30	0	442499072	44	6423
2026-01-05 00:50:21.20	348.99	13.06	-35.2	-36.5	28.8	3.03e+01	0	30	0	444071936	44	6439
2026-01-05 00:50:22.21	348.88	12.97	-35.4	-36.7	28.6	3.03e+01	0	30	0	446169088	44	6586
2026-01-05 00:50:23.22	348.78	12.87	-35.4	-36.6	28.6	3.03e+01	0	30	0	447741952	44	6547
2026-01-05 00:50:24.23	348.68	12.78	-35.3	-36.5	28.8	3.03e+01	0	30	0	449839104	44	6476
2026-01-05 00:50:25.24	348.57	12.68	-35.5	-36.7	28.6	3.03e+01	0	30	0	451936256	44	6634
2026-01-05 00:50:26.25	348.47	12.59	-35.4	-36.7	28.6	3.03e+01	0	30	0	453509120	44	6601
2026-01-05 00:50:27.26	348.37	12.50	-35.2	-36.5	28.7	3.03e+01	0	30	0	455606272	44	6450
2026-01-05 00:50:28.27	348.27	12.40	-35.4	-36.6	28.7	3.03e+01	0	30	0	457179136	44	6545
2026-01-05 00:50:29.28	348.17	12.31	-35.3	-36.6	28.7	3.03e+01	0	30	0	459276288	44	6519
2026-01-05 00:50:30.29	348.07	12.21	-35.2	-36.4	28.8	3.03e+01	0	30	0	461373440	44	6413
2026-01-05 00:50:31.29	347.97	12.12	-35.3	-36.6	28.5	3.03e+01	0	30	0	462946304	44	6520
2026-01-05 00:50:32.30	347.88	12.03	-35.2	-36.5	28.7	3.03e+01	0	30	0	465043456	44	6450
2026-01-05 00:50:33.31	347.78	11.94	-35.3	-36.6	28.6	3.03e+01	0	30	0	466616320	44	6510
2026-01-05 00:50:34.32	347.68	11.85	-35.9	-37.2	28.1	3.03e+01	0	30	0	468713472	44	6973
2026-01-05 00:50:35.33	347.59	11.75	-36.0	-37.3	28.1	3.03e+01	0	31	0	470810624	44	7078
2026-01-05 00:50:36.34	347.49	11.66	-35.7	-37.0	28.2	3.03e+01	0	30	0	472383488	46	6094
2026-01-05 00:50:37.35	347.40	11.57	-35.7	-37.0	28.3	3.03e+01	0	30	0	474480640	46	6073
2026-01-05 00:50:38.36	347.30	11.48	-35.6	-36.8	28.3	3.03e+01	0	30	0	476053504	46	5989
2026-01-05 00:50:39.37	347.21	11.39	-35.8	-37.1	28.1	3.03e+01	0	30	0	478150656	46	6155
2026-01-05 00:50:40.38	347.12	11.30	-35.8	-37.0	28.1	3.03e+01	0	30	0	480247808	46	6123
2026-01-05 00:50:41.39	347.02	11.21	-35.7	-36.9	28.3	3.03e+01	0	30	0	481820672	46	6028
2026-01-05 00:50:42.40	346.93	11.12	-35.7	-36.9	28.2	3.03e+01	0	31	0	483917824	46	6062
2026-01-05 00:50:43.41	346.84	11.03	-35.8	-37.0	28.2	3.03e+01	0	30	0	486014976	46	6130
2026-01-05 00:50:44.42	346.75	10.94	-35.6	-36.9	28.4	3.03e+01	0	31	0	487587840	46	6025
2026-01-05 00:50:45.43	346.66	10.85	-35.5	-36.7	28.5	3.03e+01	0	30	0	489684992	46	5912
2026-01-05 00:50:46.44	346.57	10.77	-35.5	-36.7	28.6	3.03e+01	0	30	0	491257856	46	5918
2026-01-05 00:50:47.45	346.49	10.68	-35.6	-36.8	28.4	3.03e+01	0	31	0	493355008	46	5979
2026-01-05 00:50:48.46	346.40	10.59	-35.7	-37.0	28.3	3.03e+01	0	30	0	495452160	46	6068
2026-01-05 00:50:49.47	346.31	10.50	-35.8	-37.1	28.1	3.03e+01	0	30	0	497025024	46	6177
2026-01-05 00:50:50.47	346.23	10.42	-35.9	-37.2	28.1	3.03e+01	0	30	0	499122176	46	6268
2026-01-05 00:50:51.49	346.14	10.33	-35.8	-37.1	28.1	3.03e+01	0	31	0	501219328	46	6146
2026-01-05 00:50:52.49	346.05	10.24	-35.7	-37.0	28.3	3.03e+01	0	30	0	502792192	46	6099
2026-01-05 00:50:53.51	345.97	10.15	-35.9	-37.1	28.1	3.03e+01	0	30	0	504889344	46	6205
2026-01-05 00:50:54.51	345.89	10.07	-36.1	-37.4	27.9	3.03e+01	0	31	0	506462208	46	6366
2026-01-05 00:50:55.52	345.80	9.98	-35.9	-37.2	28.0	3.03e+01	0	30	0	508559360	46	6261
2026-01-05 00:50:56.53	345.72	9.90	-35.8	-37.1	28.2	3.03e+01	0	30	0	510656512	46	6164
2026-01-05 00:50:57.54	345.64	9.81	-35.7	-37.0	28.3	3.03e+01	0	30	0	512229376	46	6077
2026-01-05 00:50:58.55	345.55	9.73	-35.9	-37.2	28.1	3.03e+01	0	30	0	514326528	46	6235
2026-01-05 00:50:59.56	345.47	9.64	-35.8	-37.1	28.2	3.03e+01	0	31	0	515899392	46	6155
2026-01-05 00:51:00.57	345.39	9.56	-35.6	-36.8	28.4	3.03e+01	0	31	0	517996544	46	5968
2026-01-05 00:51:01.58	345.31	9.47	-35.6	-36.9	28.3	3.03e+01	0	30	0	519569408	46	6002
2026-01-05 00:51:02.58	345.23	9.39	-35.7	-36.9	28.3	3.03e+01	0	30	0	521666560	46	6062
2026-01-05 00:51:03.59	345.15	9.31	-35.7	-36.9	28.3	3.03e+01	0	30	0	523763712	46	6059
2026-01-05 00:51:04.61	345.07	9.22	-36.1	-37.4	28.0	3.03e+01	0	30	0	525336576	46	6397
2026-01-05 00:51:05.61	345.00	9.14	-36.1	-37.3	27.8	3.03e+01	0	31	0	527433728	46	6344
2026-01-05 00:51:06.62	344.92	9.06	-36.1	-37.4	27.6	3.03e+01	0	31	0	529530880	46	6402
2026-01-05 00:51:07.63	344.84	8.97	-36.3	-37.6	27.7	3.03e+01	0	30	0	531103744	46	6520
2026-01-05 00:51:08.64	344.76	8.89	-35.8	-37.1	28.1	3.03e+01	0	30	0	533200896	46	6174
2026-01-05 00:51:09.65	344.69	8.81	-36.1	-37.4	27.9	3.03e+01	0	30	0	534773760	46	6410
2026-01-05 00:51:10.66	344.61	8.73	-35.9	-37.1	28.1	3.03e+01	0	31	0	536870912	46	6204
2026-01-05 00:51:11.67	344.54	8.65	-36.1	-37.4	27.8	3.03e+01	0	30	0	538968064	46	6397
2026-01-05 00:51:12.68	344.46	8.57	-36.0	-37.3	27.9	3.03e+01	0	30	0	540540928	46	6306
2026-01-05 00:51:13.69	344.39	8.48	-35.8	-37.1	28.1	3.03e+01	0	30	0	542638080	46	6172
2026-01-05 00:51:14.70	344.31	8.40	-36.1	-37.4	27.9	3.03e+01	0	30	0	544210944	46	6401
2026-01-05 00:51:15.71	344.24	8.32	-36.1	-37.4	27.7	3.03e+01	0	30	0	546308096	46	6417
2026-01-05 00:51:16.72	344.17	8.24	-36.2	-37.5	27.6	3.03e+01	0	30	0	548405248	46	6453
2026-01-05 00:51:17.73	344.09	8.16	-36.1	-37.4	27.8	3.03e+01	0	30	0	549978112	46	6378
2026-01-05 00:51:18.74	344.02	8.08	-36.4	-37.7	27.4	3.03e+01	0	30	0	552075264	46	6608
2026-01-05 00:51:19.75	343.95	8.00	-36.2	-37.5	27.7	3.03e+01	0	30	0	554172416	46	6464
2026-01-05 00:51:20.76	343.88	7.92	-36.3	-37.7	27.6	3.03e+01	0	31	0	555745280	46	6575
2026-01-05 00:51:21.77	343.81	7.84	-36.3	-37.7	27.4	3.03e+01	0	30	0	557842432	46	6588
2026-01-05 00:51:22.78	343.74	7.76	-36.5	-37.9	27.4	3.03e+01	0	31	0	559415296	46	6740
2026-01-05 00:51:23.78	343.67	7.69	-36.3	-37.6	27.6	3.03e+01	0	30	0	561512448	46	6570
2026-01-05 00:51:24.80	343.60	7.61	-36.4	-37.7	27.5	3.03e+01	0	30	0	563609600	46	6622
2026-01-05 00:51:25.80	343.53	7.53	-36.5	-37.8	27.4	3.03e+01	0	30	0	565182464	46	6679
2026-01-05 00:51:26.81	343.46	7.45	-36.6	-38.0	27.3	3.03e+01	0	31	0	567279616	46	6806
2026-01-05 00:51:27.82	343.39	7.37	-36.7	-38.1	27.0	3.03e+01	0	30	0	568852480	46	6889
2026-01-05 00:51:28.83	343.33	7.30	-36.5	-37.8	27.3	3.03e+01	0	31	0	570949632	46	6681
2026-01-05 00:51:29.84	343.26	7.22	-36.5	-37.8	27.3	3.03e+01	0	31	0	573046784	46	6686
2026-01-05 00:51:30.85	343.19	7.14	-36.4	-37.7	27.4	3.03e+01	0	31	0	574619648	46	6594
2026-01-05 00:51:31.86	343.13	7.06	-36.8	-38.2	26.9	3.03e+01	0	31	0	576716800	46	6974
2026-01-05 00:51:32.87	343.06	6.99	-37.0	-38.4	26.8	3.03e+01	0	31	0	578289664	48	6376
2026-01-05 00:51:33.88	342.99	6.91	-37.3	-38.7	26.6	3.03e+01	0	31	0	580386816	48	6616
2026-01-05 00:51:34.88	342.93	6.84	-37.0	-38.4	26.6	3.03e+01	0	30	0	582483968	48	6421
2026-01-05 00:51:35.90	342.86	6.76	-36.9	-38.3	26.6	3.03e+01	0	31	0	584056832	48	6341
2026-01-05 00:51:36.90	342.80	6.68	-37.2	-38.6	26.6	3.03e+01	0	31	0	586153984	48	6503
2026-01-05 00:51:37.92	342.74	6.61	-36.9	-38.3	26.9	3.03e+01	0	31	0	587726848	48	6299
2026-01-05 00:51:38.92	342.67	6.53	-37.3	-38.8	26.4	3.03e+01	0	31	0	589824000	48	6651
2026-01-05 00:51:39.93	342.61	6.46	-37.0	-38.4	26.6	3.03e+01	0	31	0	591921152	48	6361
2026-01-05 00:51:40.94	342.55	6.38	-37.4	-38.8	26.1	3.03e+01	0	31	0	593494016	48	6693
2026-01-05 00:51:41.95	342.48	6.31	-37.4	-38.8	25.9	3.03e+01	0	31	0	595591168	48	6719
2026-01-05 00:51:42.96	342.42	6.23	-37.5	-38.9	25.7	3.03e+01	0	31	0	597688320	48	6804
2026-01-05 00:51:43.97	342.36	6.16	-37.5	-39.0	25.8	3.03e+01	0	31	0	599261184	48	6837
2026-01-05 00:51:44.98	342.30	6.08	-37.9	-39.5	25.2	3.03e+01	0	31	0	601358336	50	6424
2026-01-05 00:51:45.99	342.24	6.01	-38.0	-39.5	25.1	3.03e+01	0	31	0	602931200	50	6498
2026-01-05 00:51:47.00	342.18	5.94	-38.3	-39.9	24.7	3.03e+01	0	31	0	605028352	50	6738
2026-01-05 00:51:48.01	342.12	5.86	-38.3	-39.9	24.5	3.03e+01	0	31	0	607125504	50	6742
2026-01-05 00:51:49.02	342.06	5.79	-38.7	-40.4	24.0	3.03e+01	0	30	0	608698368	50	7200
2026-01-05 00:51:50.03	342.00	5.72	-39.0	-40.7	23.6	3.03e+01	0	31	0	610795520	52	6646
2026-01-05 00:51:51.03	341.94	5.64	-39.5	-41.3	23.1	3.03e+01	0	31	0	612368384	52	7118
2026-01-05 00:51:52.05	341.88	5.57	-40.2	-42.2	22.2	3.03e+01	0	31	0	614465536	54	7036
2026-01-05 00:51:53.05	341.82	5.50	-40.0	-42.1	21.8	3.03e+01	0	31	0	616562688	54	6889
2026-01-05 00:51:54.06	341.76	5.43	-40.4	-42.5	21.6	3.03e+01	0	30	0	618135552	54	7289
2026-01-05 00:51:55.07	341.70	5.35	-40.9	-43.3	20.9	3.03e+01	0	31	0	620232704	54	7955
2026-01-05 00:51:56.08	341.64	5.28	-41.3	-43.8	19.4	3.03e+01	0	31	0	622329856	56	7514
2026-01-05 00:51:57.09	341.59	5.21	-41.6	-44.4	19.5	3.03e+01	0	30	0	623902720	58	7143
2026-01-05 00:51:58.10	341.53	5.14	-42.3	-45.6	17.6	3.03e+01	0	30	0	625999872	58	8194
2026-01-05 00:51:59.11	341.47	5.07	-42.6	-46.0	17.7	3.03e+01	0	31	0	627572736	58	8573
2026-01-05 00:52:00.12	341.42	4.99	-42.3	-45.6	17.5	3.03e+01	0	31	0	629669888	60	7341
2026-01-05 00:52:01.13	341.36	4.92	-42.6	-46.3	16.8	3.03e+01	0	31	0	631767040	60	7969
2026-01-05 00:52:02.14	341.31	4.85	-43.0	-47.1	15.9	3.03e+01	0	31	0	633339904	60	8743
2026-01-05 00:52:03.15	341.25	4.78	-43.3	-47.9	14.9	3.03e+01	0	31	0	635437056	60	9611
2026-01-05 00:52:04.16	341.20	4.71	-43.4	-48.2	14.5	3.03e+01	0	31	0	637009920	60	9851
2026-01-05 00:52:05.17	341.14	4.64	-43.6	-48.9	13.6	3.03e+01	0	31	0	639107072	60	10745
