passes_logs/2026/01/05/R4.6S_Anadyr/R4.6S_Anadyr__20260105_001616_NOAA_21_JPSS-2_rec.log

#Pass ID: 20260105_001616_NOAA 21 (JPSS-2)
#Satellite: NOAA 21 (JPSS-2)
#Configuration: NOAA-21
#almurnet v.1.7.20251203
#Start time: 2026-01-05 00:16:17

#Version: 2.2.20231116
#Station: R4.6S_Anadyr
#Location: 177.4865 lon 64.73178 lat
#TLE: 1 54234U 22150A   26003.45311712  .00000198  00000+0  11468-3 0  9993
#TLE: 2 54234  98.7487 304.4932 0001159 347.5017  12.6130 14.19531745163172

#Time	Az	El	Level	Level2	SNR	BER	BlckErr	Temp	State	Recorded	gain1	gain2
2026-01-05 00:16:17.72	157.65	0.09	-49.1	-63.9	3.5	1.51e+00	0	28	0	0	60	56850
2026-01-05 00:16:18.73	157.66	0.15	-49.9	-62.8	3.5	1.51e+00	0	29	104	0	60	48410
2026-01-05 00:16:19.74	157.66	0.21	-49.8	-62.6	3.5	1.52e+00	0	29	104	0	60	47397
2026-01-05 00:16:20.75	157.67	0.27	-49.6	-62.5	3.5	1.52e+00	0	30	104	0	60	46905
2026-01-05 00:16:21.76	157.67	0.33	-50.1	-62.9	3.5	1.52e+00	0	30	104	0	60	49099
2026-01-05 00:16:22.77	157.68	0.39	-49.1	-62.0	3.5	1.52e+00	0	30	104	0	60	43934
2026-01-05 00:16:23.78	157.68	0.45	-49.0	-61.9	3.5	1.52e+00	0	30	104	0	60	43494
2026-01-05 00:16:24.79	157.69	0.52	-49.3	-62.2	3.5	1.52e+00	0	30	104	0	60	45271
2026-01-05 00:16:25.79	157.69	0.58	-49.1	-62.0	3.5	1.52e+00	0	30	104	0	60	43996
2026-01-05 00:16:26.80	157.70	0.64	-49.1	-62.0	3.5	1.52e+00	0	30	104	0	60	43983
2026-01-05 00:16:27.81	157.70	0.70	-48.9	-61.7	3.5	1.52e+00	0	30	104	0	60	42836
2026-01-05 00:16:28.82	157.71	0.76	-49.0	-61.9	3.5	1.52e+00	0	30	104	0	60	43859
2026-01-05 00:16:29.83	157.71	0.82	-48.6	-61.4	3.5	1.52e+00	0	30	104	0	60	41419
2026-01-05 00:16:30.84	157.72	0.89	-47.6	-60.4	3.5	1.52e+00	0	30	104	0	60	36944
2026-01-05 00:16:31.85	157.73	0.95	-47.9	-60.8	3.5	1.52e+00	0	30	104	0	60	38382
2026-01-05 00:16:32.86	157.73	1.01	-47.5	-60.3	3.5	1.52e+00	0	30	104	0	60	36500
2026-01-05 00:16:33.87	157.74	1.07	-47.4	-60.2	3.5	1.51e+00	0	30	104	0	60	35985
2026-01-05 00:16:34.88	157.74	1.14	-47.3	-60.2	3.5	1.52e+00	0	30	104	0	60	35808
2026-01-05 00:16:35.89	157.75	1.20	-47.3	-60.1	3.5	1.52e+00	0	30	104	0	60	35492
2026-01-05 00:16:36.90	157.75	1.26	-47.4	-60.2	3.5	1.52e+00	0	30	104	0	60	35960
2026-01-05 00:16:37.91	157.76	1.33	-47.4	-60.2	3.5	1.52e+00	0	30	104	0	60	35831
2026-01-05 00:16:38.92	157.76	1.39	-47.6	-60.4	3.5	1.52e+00	0	30	104	0	60	36730
2026-01-05 00:16:39.93	157.77	1.45	-47.4	-60.1	3.5	1.52e+00	0	30	104	0	60	35348
2026-01-05 00:16:40.94	157.77	1.52	-47.3	-60.0	3.5	1.52e+00	0	30	104	0	60	34938
2026-01-05 00:16:41.95	157.78	1.58	-47.3	-60.0	3.5	1.52e+00	0	30	104	0	60	35045
2026-01-05 00:16:42.95	157.78	1.65	-47.4	-60.1	3.5	1.52e+00	0	30	104	0	60	35452
2026-01-05 00:16:43.97	157.79	1.71	-47.2	-60.0	3.5	1.52e+00	0	30	104	0	60	34932
2026-01-05 00:16:44.97	157.80	1.77	-47.3	-59.8	3.5	1.51e+00	0	30	104	0	60	34456
2026-01-05 00:16:45.98	157.80	1.84	-47.2	-59.9	3.5	1.52e+00	0	30	104	0	60	34636
2026-01-05 00:16:46.99	157.81	1.90	-47.1	-59.8	3.5	1.52e+00	0	30	104	0	60	34220
2026-01-05 00:16:48.00	157.81	1.97	-47.1	-59.7	3.5	1.52e+00	0	30	104	0	60	34061
2026-01-05 00:16:49.01	157.82	2.03	-47.2	-59.8	3.5	1.52e+00	0	30	104	0	60	34280
2026-01-05 00:16:50.02	157.82	2.10	-47.2	-59.7	3.5	1.52e+00	0	30	104	0	60	33894
2026-01-05 00:16:51.03	157.83	2.16	-47.3	-59.7	3.5	1.52e+00	0	30	104	0	60	33967
2026-01-05 00:16:52.04	157.83	2.23	-47.4	-59.9	3.5	1.52e+00	0	30	104	0	60	34753
2026-01-05 00:16:53.05	157.84	2.29	-47.2	-59.5	3.5	1.51e+00	0	30	104	0	60	33255
2026-01-05 00:16:54.06	157.85	2.36	-47.4	-59.7	3.5	1.52e+00	0	30	104	0	60	33820
2026-01-05 00:16:55.07	157.85	2.43	-47.3	-59.3	3.5	1.51e+00	0	30	104	0	60	32544
2026-01-05 00:16:56.08	157.86	2.49	-47.2	-58.8	3.6	1.51e+00	0	30	104	0	60	30415
2026-01-05 00:16:57.09	157.86	2.56	-47.2	-58.9	3.5	1.51e+00	0	30	104	0	60	30752
2026-01-05 00:16:58.10	157.87	2.62	-47.3	-59.2	3.5	1.51e+00	0	30	104	0	60	31909
2026-01-05 00:16:59.11	157.87	2.69	-47.3	-59.3	3.5	1.51e+00	0	30	104	0	60	32209
2026-01-05 00:17:00.12	157.88	2.76	-47.1	-59.2	3.5	1.51e+00	0	30	104	0	60	32190
2026-01-05 00:17:01.13	157.88	2.82	-47.2	-59.1	3.5	1.52e+00	0	30	104	0	60	31798
2026-01-05 00:17:02.14	157.89	2.89	-47.2	-58.1	3.5	1.51e+00	0	30	104	0	60	28212
2026-01-05 00:17:03.15	157.90	2.96	-46.7	-55.1	3.9	1.09e+00	0	30	104	0	60	20061
2026-01-05 00:17:04.16	157.90	3.02	-46.2	-52.3	6.2	3.14e-01	122	30	0	0	60	14547
2026-01-05 00:17:05.17	157.91	3.09	-45.4	-49.8	8.6	4.91e-02	123	30	0	3145728	60	10822
2026-01-05 00:17:06.17	157.91	3.16	-44.5	-48.0	11.0	6.40e-03	120	30	0	6291456	60	8816
2026-01-05 00:17:07.18	157.92	3.23	-43.2	-45.7	13.8	9.38e-05	122	30	0	9437184	60	6765
2026-01-05 00:17:08.19	157.92	3.29	-43.0	-45.6	14.2	2.20e-06	123	30	0	12582912	58	7462
2026-01-05 00:17:09.20	157.93	3.36	-42.0	-44.1	15.3	0.00e+00	122	30	0	15728640	56	7060
2026-01-05 00:17:10.21	157.94	3.43	-40.8	-42.5	16.4	0.00e+00	122	30	0	18874368	54	6623
2026-01-05 00:17:11.22	157.94	3.50	-40.5	-42.2	17.1	0.00e+00	123	30	0	22020096	54	6372
2026-01-05 00:17:12.23	157.95	3.57	-40.4	-42.0	17.4	0.00e+00	122	30	0	25165824	54	6212
2026-01-05 00:17:13.24	157.95	3.64	-40.6	-42.3	17.0	0.00e+00	122	30	0	28311552	52	7220
2026-01-05 00:17:14.25	157.96	3.70	-40.5	-42.2	17.1	0.00e+00	123	30	0	31457280	52	7134
2026-01-05 00:17:15.26	157.96	3.77	-41.2	-43.0	16.1	0.00e+00	122	30	0	34603008	54	7024
2026-01-05 00:17:16.27	157.97	3.84	-47.2	-59.2	3.5	1.51e+00	0	30	104	35651584	60	32057
2026-01-05 00:17:17.28	157.98	3.91	-40.2	-42.2	17.1	0.00e+00	123	30	104	35651584	52	7138
2026-01-05 00:17:18.29	157.98	3.98	-45.5	-50.8	4.7	1.41e+00	0	30	104	36700160	60	12142
2026-01-05 00:17:19.30	157.99	4.05	-39.3	-40.6	19.5	7.00e-07	122	30	0	36700160	56	4754
2026-01-05 00:17:20.31	157.99	4.12	-46.9	-57.5	4.0	1.49e+00	0	30	104	38797312	60	26217
2026-01-05 00:17:21.32	158.00	4.19	-39.8	-41.2	18.1	0.00e+00	122	31	0	39845888	52	6408
2026-01-05 00:17:22.33	158.01	4.26	-40.0	-41.4	18.3	0.00e+00	122	30	0	42991616	52	6570
2026-01-05 00:17:23.35	158.01	4.33	-39.4	-40.8	18.7	0.00e+00	123	30	0	46137344	52	6114
2026-01-05 00:17:24.36	158.02	4.40	-39.6	-41.0	18.2	0.00e+00	123	30	0	49283072	52	6226
2026-01-05 00:17:25.36	158.02	4.47	-39.5	-40.9	19.0	0.00e+00	123	30	0	52428800	52	6181
2026-01-05 00:17:26.37	158.03	4.55	-39.9	-41.3	18.8	0.00e+00	122	30	0	55574528	52	6492
2026-01-05 00:17:27.38	158.04	4.62	-40.7	-42.3	17.9	0.00e+00	124	30	0	58720256	54	6445
2026-01-05 00:17:28.39	158.04	4.69	-40.0	-41.5	18.4	0.00e+00	122	30	0	61865984	52	6592
2026-01-05 00:17:29.40	158.05	4.76	-40.0	-41.4	18.3	0.00e+00	122	31	0	65011712	54	5849
2026-01-05 00:17:30.41	158.05	4.83	-40.1	-41.6	18.1	0.00e+00	123	30	0	68157440	52	6660
2026-01-05 00:17:31.42	158.06	4.90	-39.5	-40.9	18.5	0.00e+00	122	31	0	71303168	52	6140
2026-01-05 00:17:32.43	158.07	4.98	-40.8	-42.3	17.8	0.00e+00	123	30	0	74448896	54	6476
2026-01-05 00:17:33.44	158.07	5.05	-39.4	-40.8	19.1	0.00e+00	122	31	0	77594624	52	6077
2026-01-05 00:17:34.45	158.08	5.12	-39.5	-40.8	19.4	0.00e+00	123	31	0	80740352	52	6120
2026-01-05 00:17:35.46	158.08	5.19	-39.0	-40.3	19.2	0.00e+00	124	31	0	83886080	52	5746
2026-01-05 00:17:36.47	158.09	5.27	-38.9	-40.2	19.8	0.00e+00	122	31	0	87031808	50	6382
2026-01-05 00:17:37.48	158.10	5.34	-38.4	-39.6	19.7	0.00e+00	123	30	0	90177536	50	5968
2026-01-05 00:17:38.49	158.10	5.41	-38.3	-39.5	20.0	0.00e+00	123	31	0	93323264	50	5875
2026-01-05 00:17:39.50	158.11	5.49	-38.7	-39.9	19.4	0.00e+00	122	31	0	96468992	50	6195
2026-01-05 00:17:40.51	158.11	5.56	-38.7	-39.9	19.8	0.00e+00	122	31	0	99614720	50	6194
2026-01-05 00:17:41.52	158.12	5.64	-38.4	-39.6	19.8	0.00e+00	123	31	0	102760448	50	5993
2026-01-05 00:17:42.53	158.13	5.71	-38.4	-39.6	19.9	0.00e+00	122	31	0	105906176	50	5991
2026-01-05 00:17:43.54	158.13	5.78	-38.4	-39.7	20.0	0.00e+00	123	31	0	109051904	50	6020
2026-01-05 00:17:44.55	158.14	5.86	-38.4	-39.6	20.0	0.00e+00	123	30	0	112197632	50	5991
2026-01-05 00:17:45.56	158.15	5.93	-38.5	-39.7	20.2	0.00e+00	123	30	0	115343360	50	6041
2026-01-05 00:17:46.57	158.15	6.01	-37.8	-39.0	20.5	0.00e+00	122	31	0	118489088	50	5531
2026-01-05 00:17:47.58	158.16	6.08	-38.2	-39.3	20.6	0.00e+00	122	31	0	121634816	50	5780
2026-01-05 00:17:48.59	158.16	6.16	-37.7	-38.9	20.7	0.00e+00	121	31	0	124780544	48	6155
2026-01-05 00:17:49.60	158.17	6.24	-37.8	-38.9	20.8	0.00e+00	123	30	0	127926272	48	6196
2026-01-05 00:17:50.61	158.18	6.31	-37.8	-38.9	20.5	0.00e+00	123	30	0	131072000	48	6193
2026-01-05 00:17:51.62	158.18	6.39	-37.9	-39.0	20.7	0.00e+00	123	31	0	134217728	48	6262
2026-01-05 00:17:52.63	158.19	6.46	-37.6	-38.8	20.8	0.00e+00	120	30	0	137363456	48	6086
2026-01-05 00:17:53.64	158.20	6.54	-37.9	-39.1	20.8	0.00e+00	122	31	0	140509184	48	6318
2026-01-05 00:17:54.65	158.20	6.62	-38.0	-39.2	20.6	0.00e+00	123	30	0	143654912	48	6351
2026-01-05 00:17:55.66	158.21	6.69	-37.8	-38.9	20.9	0.00e+00	123	30	0	146800640	48	6180
2026-01-05 00:17:56.67	158.22	6.77	-37.6	-38.7	20.9	0.00e+00	123	31	0	149946368	48	6049
2026-01-05 00:17:57.68	158.22	6.85	-37.9	-39.0	21.0	0.00e+00	123	31	0	153092096	48	6243
2026-01-05 00:17:58.69	158.23	6.93	-37.4	-38.6	21.0	0.00e+00	123	30	0	156237824	48	5933
2026-01-05 00:17:59.70	158.23	7.01	-36.9	-38.0	21.5	0.00e+00	123	31	0	159383552	48	5574
2026-01-05 00:18:00.71	158.24	7.08	-37.0	-38.1	21.5	0.00e+00	123	31	0	162529280	48	5653
2026-01-05 00:18:01.72	158.25	7.16	-36.9	-38.0	21.7	0.00e+00	121	31	0	165675008	48	5548
2026-01-05 00:18:02.73	158.25	7.24	-36.9	-38.0	21.6	0.00e+00	123	31	0	168820736	46	6254
2026-01-05 00:18:03.74	158.26	7.32	-36.9	-38.0	21.7	0.00e+00	123	31	0	171966464	46	6219
2026-01-05 00:18:04.75	158.27	7.40	-37.2	-38.2	21.5	0.00e+00	122	31	0	175112192	46	6413
2026-01-05 00:18:05.76	158.27	7.48	-37.2	-38.3	21.6	0.00e+00	120	31	0	178257920	46	6431
2026-01-05 00:18:06.77	158.28	7.56	-37.2	-38.3	21.5	0.00e+00	122	31	0	181403648	46	6447
2026-01-05 00:18:07.78	158.29	7.64	-37.1	-38.2	21.7	0.00e+00	123	31	0	184549376	46	6374
2026-01-05 00:18:08.79	158.29	7.72	-37.0	-38.1	21.7	0.00e+00	122	31	0	187695104	46	6308
2026-01-05 00:18:09.80	158.30	7.80	-37.2	-38.2	21.7	0.00e+00	121	31	0	190840832	46	6396
2026-01-05 00:18:10.81	158.31	7.88	-37.0	-38.1	21.7	0.00e+00	123	31	0	193986560	46	6308
2026-01-05 00:18:11.82	158.31	7.96	-37.4	-38.5	21.5	0.00e+00	120	31	0	197132288	46	6615
2026-01-05 00:18:12.83	158.32	8.04	-37.7	-38.8	21.3	0.00e+00	122	31	0	200278016	48	6076
2026-01-05 00:18:13.84	158.33	8.12	-37.7	-38.8	21.2	0.00e+00	120	31	0	203423744	48	6069
2026-01-05 00:18:14.85	158.33	8.21	-37.6	-38.7	21.4	0.00e+00	123	31	0	206569472	48	6003
2026-01-05 00:18:15.86	158.34	8.29	-36.8	-37.9	21.9	0.00e+00	120	31	0	209715200	48	5495
2026-01-05 00:18:16.87	158.35	8.37	-37.2	-38.2	21.7	0.00e+00	122	31	0	212860928	48	5723
2026-01-05 00:18:17.88	158.35	8.45	-37.1	-38.1	21.4	0.00e+00	120	31	0	216006656	48	5658
2026-01-05 00:18:18.89	158.36	8.54	-37.3	-38.4	21.3	0.00e+00	122	31	0	219152384	48	5820
2026-01-05 00:18:19.90	158.37	8.62	-37.0	-38.1	21.9	0.00e+00	121	31	0	222298112	48	5608
2026-01-05 00:18:20.91	158.38	8.70	-37.2	-38.3	21.6	0.00e+00	122	31	0	225443840	48	5776
2026-01-05 00:18:21.92	158.38	8.79	-37.3	-38.4	21.3	0.00e+00	121	31	0	228589568	48	5822
2026-01-05 00:18:22.92	158.39	8.87	-37.0	-38.1	21.7	0.00e+00	120	31	0	231735296	48	5599
2026-01-05 00:18:23.93	158.40	8.95	-37.1	-38.2	21.7	0.00e+00	123	31	0	234881024	48	5688
2026-01-05 00:18:24.94	158.40	9.04	-37.1	-38.2	21.7	0.00e+00	120	31	0	238026752	48	5703
2026-01-05 00:18:25.95	158.41	9.12	-37.0	-38.1	22.1	0.00e+00	123	31	0	241172480	46	6279
2026-01-05 00:18:26.96	158.42	9.21	-36.4	-37.4	22.2	0.00e+00	121	31	0	244318208	46	5856
2026-01-05 00:18:27.97	158.42	9.29	-36.8	-37.8	22.3	0.00e+00	123	31	0	247463936	46	6131
2026-01-05 00:18:28.98	158.43	9.38	-36.6	-37.7	22.2	0.00e+00	123	31	0	250609664	46	6008
2026-01-05 00:18:29.99	158.44	9.47	-36.7	-37.7	22.1	0.00e+00	122	31	0	254803968	46	6052
2026-01-05 00:18:31.00	158.45	9.55	-36.2	-37.2	22.4	0.00e+00	122	31	0	257949696	46	5707
2026-01-05 00:18:32.01	158.45	9.64	-36.1	-37.1	22.5	0.00e+00	122	31	0	260046848	46	5645
2026-01-05 00:18:33.02	158.46	9.73	-35.9	-36.9	22.6	0.00e+00	123	31	0	263192576	46	5508
2026-01-05 00:18:34.03	158.47	9.81	-36.0	-37.0	22.7	0.00e+00	123	31	0	266338304	46	5577
2026-01-05 00:18:35.04	158.47	9.90	-35.9	-36.9	22.6	0.00e+00	123	31	0	270532608	46	5496
2026-01-05 00:18:36.06	158.48	9.99	-36.2	-37.2	22.5	0.00e+00	123	31	0	273678336	46	5674
2026-01-05 00:18:37.06	158.49	10.08	-35.8	-36.7	22.8	0.00e+00	123	31	0	276824064	46	5404
2026-01-05 00:18:38.07	158.50	10.17	-35.7	-36.7	22.8	0.00e+00	123	31	0	279969792	46	5363
2026-01-05 00:18:39.08	158.50	10.25	-35.7	-36.7	22.8	0.00e+00	123	31	0	282066944	44	6051
2026-01-05 00:18:40.09	158.51	10.34	-35.7	-36.7	22.8	0.00e+00	121	31	0	286261248	44	6027
2026-01-05 00:18:41.10	158.52	10.43	-35.7	-36.6	22.8	0.00e+00	123	31	0	289406976	44	5986
2026-01-05 00:18:42.11	158.53	10.52	-35.7	-36.7	22.7	0.00e+00	123	31	0	292552704	44	6033
2026-01-05 00:18:43.12	158.53	10.61	-35.5	-36.5	23.0	0.00e+00	122	31	0	295698432	44	5878
2026-01-05 00:18:44.13	158.54	10.70	-35.5	-36.5	23.0	0.00e+00	122	31	0	298844160	44	5902
2026-01-05 00:18:45.14	158.55	10.79	-35.5	-36.4	23.0	0.00e+00	123	31	0	301989888	44	5849
2026-01-05 00:18:46.15	158.55	10.89	-35.4	-36.4	23.0	0.00e+00	123	31	0	305135616	44	5828
2026-01-05 00:18:47.16	158.56	10.98	-35.3	-36.3	23.2	0.00e+00	123	31	0	308281344	44	5754
2026-01-05 00:18:48.17	158.57	11.07	-35.6	-36.6	23.0	0.00e+00	121	31	0	311427072	44	5928
2026-01-05 00:18:49.18	158.58	11.16	-35.5	-36.4	23.0	0.00e+00	122	31	0	314572800	44	5846
2026-01-05 00:18:50.19	158.59	11.25	-35.4	-36.4	23.1	0.00e+00	120	31	0	317718528	44	5806
2026-01-05 00:18:51.19	158.59	11.35	-35.3	-36.2	23.3	0.00e+00	123	31	0	320864256	44	5703
2026-01-05 00:18:52.20	158.60	11.44	-35.2	-36.2	23.3	0.00e+00	120	31	0	324009984	44	5683
2026-01-05 00:18:53.22	158.61	11.53	-35.2	-36.1	23.3	0.00e+00	123	31	0	327155712	44	5632
2026-01-05 00:18:54.22	158.62	11.63	-34.9	-35.9	23.4	0.00e+00	122	31	0	330301440	44	5479
2026-01-05 00:18:55.24	158.62	11.72	-35.0	-35.9	23.4	0.00e+00	123	31	0	333447168	44	5495
2026-01-05 00:18:56.25	158.63	11.82	-35.1	-36.1	23.4	0.00e+00	120	31	0	336592896	44	5629
2026-01-05 00:18:57.26	158.64	11.91	-35.1	-36.1	23.4	0.00e+00	122	31	0	339738624	44	5605
2026-01-05 00:18:58.27	158.65	12.01	-35.0	-35.9	23.4	0.00e+00	120	31	0	342884352	44	5530
2026-01-05 00:18:59.28	158.65	12.10	-35.1	-36.0	23.4	0.00e+00	123	31	0	346030080	44	5563
2026-01-05 00:19:00.29	158.66	12.20	-35.0	-35.9	23.5	0.00e+00	122	31	0	349175808	44	5511
2026-01-05 00:19:01.30	158.67	12.29	-34.9	-35.8	23.6	0.00e+00	123	31	0	352321536	44	5464
2026-01-05 00:19:02.31	158.68	12.39	-34.9	-35.9	23.5	0.00e+00	123	31	0	355467264	44	5480
2026-01-05 00:19:03.32	158.69	12.49	-35.0	-35.9	23.5	0.00e+00	123	31	0	358612992	44	5505
2026-01-05 00:19:04.33	158.69	12.59	-34.8	-35.7	23.7	0.00e+00	121	31	0	361758720	42	6036
2026-01-05 00:19:05.34	158.70	12.68	-34.9	-35.9	23.6	0.00e+00	123	31	0	364904448	42	6135
2026-01-05 00:19:06.35	158.71	12.78	-35.0	-35.9	23.6	0.00e+00	123	31	0	368050176	42	6193
2026-01-05 00:19:07.36	158.72	12.88	-34.9	-35.9	23.7	0.00e+00	123	31	0	371195904	42	6145
2026-01-05 00:19:08.37	158.73	12.98	-35.0	-35.9	23.7	0.00e+00	120	31	0	374341632	42	6164
2026-01-05 00:19:09.38	158.73	13.08	-35.0	-35.9	23.6	0.00e+00	123	31	0	377487360	42	6152
2026-01-05 00:19:10.39	158.74	13.18	-35.0	-35.9	23.6	0.00e+00	122	31	0	380633088	42	6176
2026-01-05 00:19:11.40	158.75	13.28	-34.9	-35.8	23.8	0.00e+00	122	31	0	383778816	42	6088
2026-01-05 00:19:12.41	158.76	13.38	-35.1	-36.0	23.7	0.00e+00	120	31	0	386924544	42	6273
2026-01-05 00:19:13.42	158.77	13.48	-35.1	-36.1	23.6	0.00e+00	120	31	0	390070272	42	6279
2026-01-05 00:19:14.43	158.78	13.59	-35.3	-36.3	23.7	0.00e+00	122	31	0	393216000	42	6452
2026-01-05 00:19:15.44	158.78	13.69	-35.1	-36.0	23.7	0.00e+00	120	31	0	396361728	42	6250
2026-01-05 00:19:16.45	158.79	13.79	-34.8	-35.7	23.9	0.00e+00	122	31	0	399507456	42	6034
2026-01-05 00:19:17.46	158.80	13.89	-35.2	-36.1	23.9	0.00e+00	123	31	0	402653184	42	6308
2026-01-05 00:19:18.47	158.81	14.00	-35.1	-36.0	23.9	0.00e+00	123	31	0	405798912	42	6249
2026-01-05 00:19:19.48	158.82	14.10	-35.1	-36.0	24.0	0.00e+00	123	31	0	408944640	42	6273
2026-01-05 00:19:20.49	158.83	14.21	-34.9	-35.8	23.9	0.00e+00	122	31	0	412090368	42	6095
2026-01-05 00:19:21.50	158.83	14.31	-34.8	-35.7	23.8	0.00e+00	123	31	0	415236096	42	6010
2026-01-05 00:19:22.51	158.84	14.42	-34.8	-35.8	23.9	0.00e+00	123	31	0	418381824	42	6069
2026-01-05 00:19:23.52	158.85	14.52	-35.0	-35.9	23.7	0.00e+00	122	31	0	421527552	42	6161
2026-01-05 00:19:24.53	158.86	14.63	-34.7	-35.6	24.0	0.00e+00	122	31	0	424673280	42	5971
2026-01-05 00:19:25.54	158.87	14.73	-34.7	-35.6	23.9	0.00e+00	123	31	0	427819008	42	5985
2026-01-05 00:19:26.55	158.88	14.84	-34.5	-35.4	24.0	0.00e+00	123	31	0	430964736	42	5812
2026-01-05 00:19:27.56	158.89	14.95	-34.6	-35.5	24.1	0.00e+00	123	31	0	434110464	42	5887
2026-01-05 00:19:28.57	158.90	15.06	-34.8	-35.7	24.1	0.00e+00	122	31	0	437256192	42	6007
2026-01-05 00:19:29.58	158.90	15.17	-34.7	-35.6	23.9	0.00e+00	122	31	0	440401920	42	5982
2026-01-05 00:19:30.59	158.91	15.27	-35.0	-35.9	24.0	0.00e+00	123	31	0	443547648	42	6190
2026-01-05 00:19:31.60	158.92	15.38	-35.3	-36.2	24.1	0.00e+00	123	31	0	446693376	42	6355
2026-01-05 00:19:32.61	158.93	15.49	-34.8	-35.7	24.1	0.00e+00	123	31	0	449839104	42	6003
2026-01-05 00:19:33.62	158.94	15.60	-34.8	-35.7	24.1	0.00e+00	120	31	0	452984832	42	6001
2026-01-05 00:19:34.63	158.95	15.72	-34.9	-35.8	24.0	0.00e+00	122	31	0	456130560	42	6077
2026-01-05 00:19:35.64	158.96	15.83	-35.2	-36.1	23.9	0.00e+00	123	31	0	459276288	42	6316
2026-01-05 00:19:36.65	158.97	15.94	-35.5	-36.4	23.9	0.00e+00	122	31	0	462422016	42	6531
2026-01-05 00:19:37.66	158.98	16.05	-35.0	-35.9	24.1	0.00e+00	121	31	0	465567744	42	6202
2026-01-05 00:19:38.67	158.99	16.17	-34.7	-35.6	24.0	0.00e+00	123	31	0	468713472	42	5951
2026-01-05 00:19:39.68	159.00	16.28	-34.7	-35.6	24.1	0.00e+00	123	31	0	471859200	42	5960
2026-01-05 00:19:40.69	159.00	16.39	-34.6	-35.6	24.0	0.00e+00	120	31	0	475004928	42	5936
2026-01-05 00:19:41.70	159.01	16.51	-35.2	-36.2	23.7	0.00e+00	123	31	0	478150656	42	6371
2026-01-05 00:19:42.71	159.02	16.62	-34.8	-35.7	24.1	0.00e+00	122	31	0	481296384	42	6025
2026-01-05 00:19:43.72	159.03	16.74	-34.9	-35.8	24.0	0.00e+00	123	31	0	484442112	42	6106
2026-01-05 00:19:44.73	159.04	16.86	-35.1	-36.1	23.8	0.00e+00	123	31	0	487587840	42	6288
2026-01-05 00:19:45.74	159.05	16.97	-35.0	-35.9	23.7	0.00e+00	122	31	0	490733568	42	6150
2026-01-05 00:19:46.75	159.06	17.09	-34.9	-35.8	23.8	0.00e+00	122	31	0	493879296	42	6126
2026-01-05 00:19:47.76	159.07	17.21	-35.0	-36.0	23.7	0.00e+00	123	31	0	497025024	42	6226
2026-01-05 00:19:48.77	159.08	17.33	-35.4	-36.3	23.5	0.00e+00	123	31	0	500170752	42	6464
2026-01-05 00:19:49.78	159.09	17.45	-35.5	-36.4	23.5	0.00e+00	123	31	0	503316480	42	6568
2026-01-05 00:19:50.79	159.10	17.57	-35.4	-36.4	23.5	0.00e+00	123	31	0	506462208	42	6505
2026-01-05 00:19:51.80	159.11	17.69	-35.6	-36.6	23.6	0.00e+00	122	31	0	509607936	42	6656
2026-01-05 00:19:52.81	159.12	17.81	-35.1	-36.1	23.8	0.00e+00	123	31	0	512753664	42	6280
2026-01-05 00:19:53.82	159.13	17.93	-35.3	-36.2	23.7	0.00e+00	123	31	0	515899392	42	6399
2026-01-05 00:19:54.83	159.14	18.05	-35.6	-36.5	23.7	0.00e+00	123	31	0	519045120	42	6604
2026-01-05 00:19:55.84	159.15	18.17	-35.3	-36.2	23.7	0.00e+00	120	31	0	522190848	42	6388
2026-01-05 00:19:56.85	159.16	18.30	-35.0	-35.9	23.8	0.00e+00	122	31	0	525336576	42	6205
2026-01-05 00:19:57.86	159.17	18.42	-35.0	-35.9	23.8	0.00e+00	123	31	0	528482304	42	6150
2026-01-05 00:19:58.87	159.18	18.55	-35.2	-36.1	23.7	0.00e+00	122	31	0	531628032	42	6338
2026-01-05 00:19:59.88	159.19	18.67	-34.9	-35.8	23.7	0.00e+00	122	31	0	534773760	42	6130
2026-01-05 00:20:00.89	159.20	18.80	-35.2	-36.1	23.8	0.00e+00	123	31	0	537919488	42	6309
2026-01-05 00:20:01.90	159.21	18.92	-35.2	-36.1	23.6	0.00e+00	123	31	0	541065216	42	6318
2026-01-05 00:20:02.91	159.22	19.05	-35.0	-35.9	23.8	0.00e+00	122	31	0	544210944	42	6194
2026-01-05 00:20:03.92	159.23	19.18	-35.0	-36.0	23.7	0.00e+00	123	31	0	547356672	42	6218
2026-01-05 00:20:04.93	159.24	19.31	-35.1	-36.1	23.8	0.00e+00	120	31	0	550502400	42	6287
2026-01-05 00:20:05.94	159.25	19.44	-34.9	-35.8	23.9	0.00e+00	123	31	0	553648128	42	6128
2026-01-05 00:20:06.95	159.27	19.57	-34.8	-35.7	23.9	0.00e+00	123	31	0	556793856	42	6035
2026-01-05 00:20:07.96	159.28	19.70	-35.0	-36.0	23.8	0.00e+00	123	31	0	559939584	42	6218
2026-01-05 00:20:08.96	159.29	19.83	-35.1	-36.0	23.8	0.00e+00	120	31	0	563085312	42	6242
2026-01-05 00:20:09.98	159.30	19.96	-35.1	-36.0	23.9	0.00e+00	123	31	0	566231040	42	6260
2026-01-05 00:20:10.99	159.31	20.09	-34.9	-35.8	23.9	0.00e+00	123	31	0	570425344	42	6095
2026-01-05 00:20:12.00	159.32	20.23	-34.9	-35.8	24.0	0.00e+00	123	31	0	573571072	42	6128
2026-01-05 00:20:13.01	159.33	20.36	-34.6	-35.6	24.2	0.00e+00	123	31	0	575668224	42	5927
2026-01-05 00:20:14.02	159.34	20.49	-34.6	-35.5	24.3	0.00e+00	120	31	0	578813952	42	5905
2026-01-05 00:20:15.03	159.35	20.63	-34.5	-35.4	24.3	0.00e+00	123	31	0	581959680	42	5818
2026-01-05 00:20:16.04	159.36	20.77	-34.4	-35.3	24.3	0.00e+00	122	31	0	586153984	42	5765
2026-01-05 00:20:17.05	159.38	20.90	-34.1	-35.0	24.4	0.00e+00	123	31	0	589299712	42	5555
2026-01-05 00:20:18.06	159.39	21.04	-34.5	-35.4	24.4	0.00e+00	122	31	0	592445440	42	5804
2026-01-05 00:20:19.07	159.40	21.18	-34.5	-35.4	24.4	0.00e+00	123	31	0	595591168	42	5803
2026-01-05 00:20:20.08	159.41	21.32	-34.5	-35.4	24.5	0.00e+00	123	31	0	598736896	42	5841
2026-01-05 00:20:21.09	159.42	21.46	-34.2	-35.1	24.4	0.00e+00	122	31	0	601882624	42	5610
2026-01-05 00:20:22.10	159.43	21.60	-34.0	-34.9	24.7	0.00e+00	122	31	0	605028352	42	5494
2026-01-05 00:20:23.11	159.45	21.74	-34.0	-34.9	24.8	0.00e+00	122	31	0	608174080	42	5528
2026-01-05 00:20:24.12	159.46	21.88	-34.1	-34.9	24.8	0.00e+00	122	31	0	611319808	42	5517
2026-01-05 00:20:25.13	159.47	22.03	-33.9	-34.8	25.0	0.00e+00	122	31	0	614465536	40	6070
2026-01-05 00:20:26.15	159.48	22.17	-33.9	-34.7	24.9	0.00e+00	123	31	0	617611264	40	6064
2026-01-05 00:20:27.15	159.49	22.32	-33.5	-34.4	24.9	0.00e+00	123	31	0	620756992	40	5841
2026-01-05 00:20:28.16	159.51	22.46	-33.6	-34.5	24.8	0.00e+00	123	31	0	623902720	40	5897
2026-01-05 00:20:29.17	159.52	22.61	-33.8	-34.6	24.8	0.00e+00	122	31	0	627048448	40	5974
2026-01-05 00:20:30.18	159.53	22.75	-34.1	-35.0	24.7	0.00e+00	122	31	0	630194176	40	6218
2026-01-05 00:20:31.19	159.54	22.90	-33.8	-34.7	25.0	0.00e+00	123	31	0	633339904	40	6001
2026-01-05 00:20:32.20	159.56	23.05	-33.4	-34.3	25.0	0.00e+00	122	31	0	636485632	40	5740
2026-01-05 00:20:33.21	159.57	23.20	-34.0	-34.9	24.5	0.00e+00	123	31	0	639631360	40	6182
2026-01-05 00:20:34.22	159.58	23.35	-34.0	-34.9	24.8	0.00e+00	122	31	0	642777088	40	6166
2026-01-05 00:20:35.23	159.59	23.50	-34.2	-35.1	24.6	0.00e+00	123	31	0	645922816	40	6307
2026-01-05 00:20:36.24	159.61	23.66	-34.3	-35.1	24.6	0.00e+00	123	31	0	649068544	40	6340
2026-01-05 00:20:37.25	159.62	23.81	-33.3	-34.1	25.1	0.00e+00	122	31	0	652214272	40	5651
2026-01-05 00:20:38.26	159.63	23.96	-33.6	-34.5	25.0	0.00e+00	123	31	0	655360000	40	5878
2026-01-05 00:20:39.27	159.65	24.12	-33.3	-34.2	25.2	0.00e+00	123	31	0	658505728	40	5670
2026-01-05 00:20:40.28	159.66	24.28	-33.1	-34.0	25.4	0.00e+00	122	31	0	661651456	40	5558
2026-01-05 00:20:41.29	159.67	24.43	-33.3	-34.1	25.2	0.00e+00	123	31	0	664797184	40	5646
2026-01-05 00:20:42.30	159.69	24.59	-33.2	-34.0	25.3	0.00e+00	123	31	0	667942912	40	5592
2026-01-05 00:20:43.31	159.70	24.75	-33.2	-34.0	25.2	0.00e+00	122	31	0	671088640	40	5565
2026-01-05 00:20:44.32	159.71	24.91	-33.1	-34.0	25.3	0.00e+00	122	31	0	674234368	40	5531
2026-01-05 00:20:45.33	159.73	25.07	-33.3	-34.1	25.2	0.00e+00	123	31	0	677380096	40	5656
2026-01-05 00:20:46.34	159.74	25.23	-33.5	-34.4	25.1	0.00e+00	123	31	0	680525824	40	5808
2026-01-05 00:20:47.35	159.75	25.40	-33.8	-34.6	25.0	0.00e+00	122	31	0	683671552	40	5964
2026-01-05 00:20:48.36	159.77	25.56	-33.6	-34.5	24.9	0.00e+00	123	31	0	686817280	40	5860
2026-01-05 00:20:49.37	159.78	25.73	-33.9	-34.7	24.9	0.00e+00	123	31	0	689963008	40	6033
2026-01-05 00:20:50.38	159.80	25.89	-33.8	-34.7	24.8	0.00e+00	123	31	0	693108736	40	6037
2026-01-05 00:20:51.39	159.81	26.06	-34.2	-35.0	24.7	0.00e+00	123	31	0	696254464	40	6274
2026-01-05 00:20:52.40	159.83	26.23	-34.4	-35.2	24.9	0.00e+00	123	31	0	699400192	40	6422
2026-01-05 00:20:53.41	159.84	26.40	-34.3	-35.2	24.7	0.00e+00	122	31	0	702545920	42	5686
2026-01-05 00:20:54.42	159.85	26.57	-34.2	-35.1	24.7	0.00e+00	123	31	0	705691648	42	5598
2026-01-05 00:20:55.43	159.87	26.74	-34.4	-35.3	24.6	0.00e+00	122	31	0	708837376	42	5756
2026-01-05 00:20:56.44	159.88	26.91	-34.6	-35.4	24.4	0.00e+00	122	31	0	711983104	42	5846
2026-01-05 00:20:57.45	159.90	27.08	-34.6	-35.5	24.3	0.00e+00	120	31	0	715128832	42	5879
2026-01-05 00:20:58.46	159.92	27.26	-34.9	-35.7	24.2	0.00e+00	123	31	0	718274560	42	6047
2026-01-05 00:20:59.47	159.93	27.43	-34.8	-35.7	24.2	0.00e+00	123	31	0	721420288	42	6041
2026-01-05 00:21:00.48	159.95	27.61	-34.9	-35.8	24.2	0.00e+00	122	31	0	724566016	42	6120
2026-01-05 00:21:01.49	159.96	27.79	-35.0	-35.9	24.1	0.00e+00	123	31	0	727711744	42	6193
2026-01-05 00:21:02.50	159.98	27.97	-35.0	-35.9	24.0	0.00e+00	120	31	0	730857472	42	6193
2026-01-05 00:21:03.51	159.99	28.15	-35.2	-36.1	24.0	0.00e+00	123	31	0	734003200	42	6340
2026-01-05 00:21:04.52	160.01	28.33	-34.9	-35.8	24.0	0.00e+00	120	31	0	737148928	42	6085
2026-01-05 00:21:05.53	160.03	28.51	-35.1	-36.0	23.9	0.00e+00	122	31	0	740294656	42	6229
2026-01-05 00:21:06.54	160.04	28.70	-35.0	-35.9	24.1	0.00e+00	123	31	0	743440384	42	6197
2026-01-05 00:21:07.55	160.06	28.88	-35.0	-35.9	23.9	0.00e+00	123	31	0	746586112	42	6178
2026-01-05 00:21:08.56	160.08	29.07	-35.3	-36.2	24.0	0.00e+00	122	31	0	749731840	42	6378
2026-01-05 00:21:09.57	160.09	29.25	-35.2	-36.2	24.0	0.00e+00	122	31	0	752877568	42	6365
2026-01-05 00:21:10.58	160.11	29.44	-35.0	-35.9	24.2	0.00e+00	120	31	0	756023296	42	6175
2026-01-05 00:21:11.59	160.13	29.63	-35.1	-36.0	24.2	0.00e+00	122	31	0	759169024	42	6232
2026-01-05 00:21:12.60	160.14	29.82	-35.2	-36.1	24.2	0.00e+00	123	31	0	762314752	42	6320
2026-01-05 00:21:13.61	160.16	30.02	-34.9	-35.8	24.2	0.00e+00	123	31	0	765460480	42	6090
2026-01-05 00:21:14.62	160.18	30.21	-34.6	-35.6	24.3	0.00e+00	123	31	0	768606208	42	5935
2026-01-05 00:21:15.63	160.20	30.41	-34.7	-35.6	24.3	0.00e+00	122	31	0	771751936	42	5975
2026-01-05 00:21:16.64	160.21	30.60	-34.7	-35.6	24.2	0.00e+00	123	31	0	774897664	42	5946
2026-01-05 00:21:17.65	160.23	30.80	-34.4	-35.3	24.6	0.00e+00	123	31	0	778043392	42	5745
2026-01-05 00:21:18.66	160.25	31.00	-34.5	-35.3	24.8	0.00e+00	123	31	0	781189120	42	5774
2026-01-05 00:21:19.67	160.27	31.20	-34.6	-35.4	24.8	0.00e+00	120	31	0	784334848	42	5834
2026-01-05 00:21:20.68	160.29	31.40	-34.6	-35.4	24.8	0.00e+00	123	31	0	787480576	42	5845
2026-01-05 00:21:21.69	160.31	31.61	-34.1	-35.0	24.9	0.00e+00	123	31	0	790626304	42	5544
2026-01-05 00:21:22.70	160.33	31.81	-34.2	-35.0	24.9	0.00e+00	122	31	0	793772032	42	5567
2026-01-05 00:21:23.71	160.35	32.02	-34.1	-35.0	24.8	0.00e+00	122	31	0	796917760	42	5580
2026-01-05 00:21:24.72	160.36	32.23	-34.2	-35.1	24.8	0.00e+00	120	31	0	800063488	42	5610
2026-01-05 00:21:25.72	160.38	32.43	-34.0	-34.9	24.8	0.00e+00	122	31	0	803209216	42	5476
2026-01-05 00:21:26.73	160.40	32.64	-34.2	-35.1	24.6	0.00e+00	122	31	0	806354944	42	5596
2026-01-05 00:21:27.74	160.42	32.86	-34.5	-35.4	24.7	0.00e+00	120	31	0	809500672	42	5811
2026-01-05 00:21:28.75	160.44	33.07	-34.6	-35.5	24.4	0.00e+00	123	31	0	812646400	42	5867
2026-01-05 00:21:29.76	160.46	33.28	-34.9	-35.8	24.3	0.00e+00	123	31	0	815792128	42	6105
2026-01-05 00:21:30.77	160.49	33.50	-34.7	-35.6	24.4	0.00e+00	123	31	0	818937856	42	5950
2026-01-05 00:21:31.78	160.51	33.72	-35.1	-36.0	24.2	0.00e+00	122	31	0	822083584	42	6231
2026-01-05 00:21:32.79	160.53	33.94	-35.0	-35.9	24.2	0.00e+00	123	31	0	825229312	42	6190
2026-01-05 00:21:33.80	160.55	34.16	-35.2	-36.1	24.0	0.00e+00	123	31	0	828375040	42	6330
2026-01-05 00:21:34.81	160.57	34.38	-35.6	-36.6	23.6	0.00e+00	122	31	0	831520768	42	6661
2026-01-05 00:21:35.82	160.59	34.61	-35.7	-36.7	23.5	0.00e+00	120	31	0	834666496	44	6009
2026-01-05 00:21:36.83	160.61	34.83	-35.5	-36.4	23.6	0.00e+00	123	31	0	837812224	44	5847
2026-01-05 00:21:37.84	160.64	35.06	-35.6	-36.6	23.6	0.00e+00	122	31	0	840957952	44	5940
2026-01-05 00:21:38.85	160.66	35.29	-35.8	-36.8	23.5	0.00e+00	122	31	0	844103680	44	6089
2026-01-05 00:21:39.86	160.68	35.52	-36.2	-37.2	23.4	0.00e+00	120	31	0	847249408	44	6371
2026-01-05 00:21:40.87	160.71	35.75	-36.3	-37.3	23.4	0.00e+00	123	31	0	850395136	44	6424
2026-01-05 00:21:41.87	160.73	35.99	-36.6	-37.5	23.2	0.00e+00	120	31	0	853540864	46	5919
2026-01-05 00:21:42.88	160.75	36.22	-37.0	-38.0	23.0	0.00e+00	120	31	0	856686592	46	6220
2026-01-05 00:21:43.89	160.78	36.46	-36.7	-37.7	22.8	0.00e+00	122	31	0	859832320	46	6024
2026-01-05 00:21:44.90	160.80	36.70	-37.2	-38.2	22.8	0.00e+00	120	31	0	862978048	46	6390
2026-01-05 00:21:45.91	160.83	36.94	-37.3	-38.3	22.6	0.00e+00	122	31	0	866123776	46	6497
2026-01-05 00:21:46.92	160.85	37.18	-37.4	-38.4	22.5	0.00e+00	120	31	0	869269504	48	5803
2026-01-05 00:21:47.93	160.88	37.43	-37.2	-38.2	22.4	0.00e+00	122	31	0	872415232	48	5713
2026-01-05 00:21:48.94	160.90	37.68	-37.5	-38.5	22.5	0.00e+00	123	31	0	875560960	48	5926
2026-01-05 00:21:49.95	160.93	37.93	-37.1	-38.2	22.5	0.00e+00	122	31	0	878706688	48	5671
2026-01-05 00:21:50.95	160.96	38.17	-37.0	-38.0	22.5	0.00e+00	121	31	0	881852416	48	5590
2026-01-05 00:21:51.96	160.98	38.43	-36.7	-37.7	22.7	0.00e+00	123	31	0	884998144	46	6021
2026-01-05 00:21:52.97	161.01	38.68	-36.4	-37.4	23.0	0.00e+00	123	31	0	888143872	46	5824
2026-01-05 00:21:53.99	161.04	38.94	-36.5	-37.4	23.0	0.00e+00	123	31	0	892338176	46	5848
2026-01-05 00:21:55.00	161.06	39.20	-36.5	-37.5	23.1	0.00e+00	123	31	0	894435328	46	5870
2026-01-05 00:21:56.00	161.09	39.45	-36.6	-37.5	23.2	0.00e+00	121	31	0	897581056	46	5924
2026-01-05 00:21:57.01	161.12	39.72	-36.2	-37.1	23.3	0.00e+00	123	31	0	900726784	46	5629
2026-01-05 00:21:58.02	161.15	39.98	-36.3	-37.3	23.3	0.00e+00	123	31	0	903872512	46	5748
2026-01-05 00:21:59.03	161.18	40.25	-36.0	-36.9	23.3	0.00e+00	123	31	0	907018240	46	5521
2026-01-05 00:22:00.04	161.21	40.51	-35.7	-36.6	23.4	0.00e+00	120	31	0	911212544	44	5968
2026-01-05 00:22:01.05	161.24	40.78	-35.7	-36.6	23.6	0.00e+00	122	31	0	914358272	44	5989
2026-01-05 00:22:02.06	161.27	41.05	-35.4	-36.3	23.8	0.00e+00	122	31	0	916455424	44	5749
2026-01-05 00:22:03.07	161.30	41.33	-35.4	-36.3	23.7	0.00e+00	123	31	0	919601152	44	5786
2026-01-05 00:22:04.08	161.33	41.60	-35.7	-36.6	23.5	0.00e+00	123	31	0	922746880	44	5980
2026-01-05 00:22:05.09	161.37	41.88	-36.2	-37.1	23.3	0.00e+00	122	31	0	926941184	44	6310
2026-01-05 00:22:06.10	161.40	42.16	-36.4	-37.4	23.0	0.00e+00	123	31	0	930086912	44	6526
2026-01-05 00:22:07.11	161.43	42.45	-37.2	-38.2	22.5	0.00e+00	123	31	0	933232640	46	6395
2026-01-05 00:22:08.12	161.47	42.73	-37.4	-38.4	22.0	0.00e+00	121	31	0	936378368	46	6554
2026-01-05 00:22:09.13	161.50	43.02	-37.5	-38.6	21.9	0.00e+00	123	31	0	939524096	46	6650
2026-01-05 00:22:10.15	161.53	43.31	-37.7	-38.7	21.6	0.00e+00	120	31	0	942669824	48	6064
2026-01-05 00:22:11.16	161.57	43.60	-37.7	-38.8	21.7	0.00e+00	123	31	0	945815552	48	6097
2026-01-05 00:22:12.16	161.61	43.89	-37.7	-38.8	21.8	0.00e+00	122	31	0	948961280	48	6094
2026-01-05 00:22:13.18	161.64	44.19	-37.4	-38.5	22.1	0.00e+00	123	31	0	952107008	48	5896
2026-01-05 00:22:14.19	161.68	44.49	-37.5	-38.6	22.1	0.00e+00	120	31	0	955252736	48	5957
2026-01-05 00:22:15.19	161.72	44.78	-37.5	-38.5	22.3	0.00e+00	123	31	0	958398464	48	5903
2026-01-05 00:22:16.20	161.76	45.09	-37.4	-38.5	22.3	0.00e+00	122	31	0	961544192	48	5880
2026-01-05 00:22:17.22	161.80	45.39	-37.1	-38.1	22.3	0.00e+00	123	31	0	964689920	48	5652
2026-01-05 00:22:18.22	161.83	45.70	-37.8	-38.9	22.3	0.00e+00	123	31	0	967835648	48	6146
2026-01-05 00:22:19.24	161.88	46.01	-37.3	-38.4	22.1	0.00e+00	123	31	0	970981376	48	5813
2026-01-05 00:22:20.25	161.92	46.32	-37.3	-38.3	21.9	0.00e+00	123	31	0	974127104	48	5766
2026-01-05 00:22:21.26	161.96	46.63	-37.2	-38.2	22.0	0.00e+00	122	31	0	977272832	48	5671
2026-01-05 00:22:22.27	162.00	46.95	-37.7	-38.7	21.7	0.00e+00	122	31	0	980418560	48	6054
2026-01-05 00:22:23.28	162.05	47.27	-37.3	-38.3	22.2	0.00e+00	123	31	0	983564288	48	5781
2026-01-05 00:22:24.29	162.09	47.59	-36.9	-38.0	22.2	0.00e+00	123	31	0	986710016	48	5534
2026-01-05 00:22:25.30	162.13	47.91	-36.5	-37.5	22.7	0.00e+00	123	31	0	989855744	46	5897
2026-01-05 00:22:26.31	162.18	48.24	-36.3	-37.2	23.1	0.00e+00	122	31	0	993001472	46	5724
2026-01-05 00:22:27.32	162.23	48.57	-36.6	-37.5	23.3	0.00e+00	123	31	0	996147200	46	5924
2026-01-05 00:22:28.33	162.28	48.90	-36.2	-37.1	23.3	0.00e+00	127	31	0	999292928	46	5659
2026-01-05 00:22:29.34	162.33	49.23	-36.1	-37.1	23.3	0.00e+00	122	31	0	1002438656	46	5620
2026-01-05 00:22:30.35	162.37	49.57	-36.2	-37.2	23.4	0.00e+00	122	31	0	1005584384	46	5667
2026-01-05 00:22:31.36	162.43	49.91	-36.6	-37.5	23.5	0.00e+00	123	31	0	1008730112	46	5894
2026-01-05 00:22:32.37	162.48	50.25	-36.1	-37.1	23.3	0.00e+00	120	31	0	1011875840	46	5618
2026-01-05 00:22:33.38	162.53	50.59	-35.7	-36.6	23.6	0.00e+00	123	31	0	1015021568	44	5982
2026-01-05 00:22:34.39	162.59	50.94	-36.0	-36.9	23.6	0.00e+00	122	31	0	1018167296	44	6177
2026-01-05 00:22:35.40	162.64	51.28	-36.4	-37.3	23.5	0.00e+00	123	31	0	1021313024	44	6468
2026-01-05 00:22:36.41	162.70	51.63	-35.7	-36.6	23.8	0.00e+00	123	31	0	1024458752	44	5944
2026-01-05 00:22:37.42	162.76	51.99	-35.3	-36.2	24.0	0.00e+00	123	31	0	1027604480	44	5689
2026-01-05 00:22:38.43	162.81	52.34	-35.4	-36.3	24.0	0.00e+00	122	31	0	1030750208	44	5728
2026-01-05 00:22:39.45	162.88	52.71	-35.4	-36.3	23.9	0.00e+00	123	31	0	1033895936	44	5737
2026-01-05 00:22:40.46	162.94	53.07	-35.4	-36.3	24.0	0.00e+00	123	31	0	1037041664	44	5731
2026-01-05 00:22:41.47	163.00	53.43	-35.4	-36.3	23.9	0.00e+00	123	31	0	1040187392	44	5745
2026-01-05 00:22:42.48	163.07	53.80	-35.7	-36.6	23.8	0.00e+00	122	31	0	1043333120	44	5951
2026-01-05 00:22:43.49	163.13	54.17	-35.7	-36.7	23.6	0.00e+00	123	31	0	1046478848	44	6015
2026-01-05 00:22:44.50	163.20	54.54	-35.8	-36.7	23.7	0.00e+00	122	31	0	1049624576	44	6039
2026-01-05 00:22:45.51	163.27	54.91	-35.8	-36.8	23.7	0.00e+00	123	31	0	1052770304	44	6070
2026-01-05 00:22:46.51	163.34	55.29	-35.3	-36.2	24.0	0.00e+00	122	31	0	1055916032	44	5677
2026-01-05 00:22:47.52	163.42	55.66	-34.8	-35.7	24.2	0.00e+00	123	31	0	1059061760	42	6047
2026-01-05 00:22:48.53	163.49	56.05	-34.7	-35.6	24.3	0.00e+00	120	31	0	1062207488	42	5984
2026-01-05 00:22:49.54	163.57	56.43	-34.8	-35.7	23.9	0.00e+00	122	31	0	1065353216	42	6044
2026-01-05 00:22:50.56	163.65	56.82	-35.4	-36.3	23.8	0.00e+00	123	31	0	1068498944	42	6492
2026-01-05 00:22:51.57	163.73	57.21	-35.0	-36.0	24.1	0.00e+00	123	31	0	1071644672	42	6214
2026-01-05 00:22:52.58	163.81	57.61	-34.3	-35.2	24.5	0.00e+00	123	31	0	1074790400	42	5720
2026-01-05 00:22:53.59	163.90	58.00	-34.1	-35.0	24.7	0.00e+00	123	31	0	1077936128	42	5574
2026-01-05 00:22:54.60	163.99	58.40	-34.4	-35.4	24.5	0.00e+00	122	31	0	1081081856	42	5797
2026-01-05 00:22:55.61	164.08	58.80	-34.8	-35.6	24.7	0.00e+00	123	31	0	1084227584	42	5992
2026-01-05 00:22:56.62	164.18	59.20	-34.4	-35.2	24.7	0.00e+00	122	31	0	1087373312	42	5720
2026-01-05 00:22:57.63	164.27	59.61	-34.7	-35.6	24.5	0.00e+00	122	31	0	1090519040	42	5979
2026-01-05 00:22:58.64	164.37	60.02	-34.0	-34.9	24.9	0.00e+00	122	31	0	1093664768	42	5498
2026-01-05 00:22:59.65	164.48	60.43	-33.9	-34.7	25.1	0.00e+00	123	31	0	1096810496	42	5404
2026-01-05 00:23:00.66	164.58	60.84	-33.5	-34.4	25.2	0.00e+00	123	31	0	1099956224	40	5813
2026-01-05 00:23:01.66	164.69	61.25	-33.7	-34.6	25.0	0.00e+00	123	31	0	1103101952	40	5968
2026-01-05 00:23:02.67	164.80	61.67	-33.4	-34.3	25.1	0.00e+00	123	31	0	1106247680	40	5762
2026-01-05 00:23:03.68	164.92	62.09	-33.9	-34.8	25.2	0.00e+00	122	31	0	1109393408	40	6080
2026-01-05 00:23:04.69	165.04	62.52	-33.9	-34.8	25.2	0.00e+00	122	31	0	1112539136	40	6070
2026-01-05 00:23:05.70	165.17	62.94	-33.4	-34.2	25.4	0.00e+00	123	31	0	1115684864	40	5710
2026-01-05 00:23:06.71	165.30	63.37	-33.2	-34.1	25.2	0.00e+00	123	31	0	1118830592	40	5615
2026-01-05 00:23:07.72	165.43	63.80	-33.0	-33.8	25.4	0.00e+00	123	31	0	1121976320	40	5461
2026-01-05 00:23:08.73	165.57	64.23	-33.1	-34.0	25.4	0.00e+00	123	31	0	1125122048	40	5532
2026-01-05 00:23:09.74	165.71	64.67	-33.3	-34.2	25.3	0.00e+00	121	31	0	1128267776	40	5676
2026-01-05 00:23:10.76	165.87	65.11	-33.5	-34.4	24.9	0.00e+00	123	31	0	1131413504	40	5813
2026-01-05 00:23:11.76	166.02	65.55	-33.0	-33.9	25.0	0.00e+00	123	31	0	1134559232	40	5520
2026-01-05 00:23:12.77	166.18	65.99	-33.2	-34.1	25.2	0.00e+00	123	31	0	1137704960	40	5603
2026-01-05 00:23:13.78	166.35	66.44	-33.5	-34.4	25.1	0.00e+00	123	31	0	1140850688	40	5856
2026-01-05 00:23:14.79	166.53	66.88	-33.7	-34.5	25.2	0.00e+00	122	31	0	1143996416	40	5922
2026-01-05 00:23:15.80	166.71	67.33	-33.2	-34.1	25.5	0.00e+00	122	31	0	1147142144	40	5596
2026-01-05 00:23:16.81	166.90	67.79	-33.4	-34.2	25.3	0.00e+00	122	31	0	1150287872	40	5718
2026-01-05 00:23:17.82	167.10	68.24	-33.0	-33.8	25.2	0.00e+00	123	31	0	1153433600	38	6117
2026-01-05 00:23:18.83	167.31	68.70	-33.3	-34.1	25.5	0.00e+00	122	31	0	1156579328	40	5655
2026-01-05 00:23:19.84	167.53	69.15	-33.7	-34.6	25.5	0.00e+00	123	31	0	1159725056	40	5946
2026-01-05 00:23:20.85	167.75	69.61	-33.4	-34.3	25.4	0.00e+00	122	31	0	1162870784	40	5731
2026-01-05 00:23:21.86	167.99	70.08	-33.9	-34.8	25.2	0.00e+00	122	31	0	1166016512	40	6075
2026-01-05 00:23:22.87	168.25	70.54	-33.6	-34.5	25.3	0.00e+00	123	31	0	1169162240	40	5900
2026-01-05 00:23:23.88	168.51	71.01	-33.8	-34.7	25.5	0.00e+00	123	31	0	1172307968	40	6011
2026-01-05 00:23:24.89	168.79	71.47	-33.3	-34.1	25.7	0.00e+00	123	31	0	1175453696	40	5635
2026-01-05 00:23:25.90	169.08	71.94	-33.6	-34.4	25.5	0.00e+00	122	31	0	1178599424	40	5829
2026-01-05 00:23:26.91	169.39	72.41	-32.8	-33.6	25.6	0.00e+00	122	31	0	1181745152	38	5988
2026-01-05 00:23:27.92	169.72	72.89	-33.2	-34.1	25.2	0.00e+00	123	31	0	1184890880	38	6285
2026-01-05 00:23:28.93	170.07	73.36	-32.8	-33.6	25.7	0.00e+00	123	31	0	1188036608	38	5976
2026-01-05 00:23:29.94	170.44	73.83	-33.1	-33.9	25.9	0.00e+00	120	31	0	1191182336	38	6155
2026-01-05 00:23:30.95	170.83	74.31	-32.7	-33.5	26.0	0.00e+00	123	31	0	1194328064	38	5864
2026-01-05 00:23:31.96	171.25	74.79	-32.9	-33.7	26.0	0.00e+00	121	31	0	1197473792	38	6024
2026-01-05 00:23:32.97	171.69	75.27	-32.6	-33.4	25.4	0.00e+00	123	31	0	1200619520	38	5824
2026-01-05 00:23:33.98	172.17	75.74	-32.7	-33.5	25.5	0.00e+00	123	31	0	1203765248	38	5916
2026-01-05 00:23:34.99	172.68	76.22	-33.6	-34.4	25.5	0.00e+00	123	31	0	1207959552	40	5831
2026-01-05 00:23:36.00	173.23	76.70	-32.9	-33.7	25.8	0.00e+00	122	31	0	1210056704	40	5401
2026-01-05 00:23:37.01	173.82	77.18	-33.1	-34.0	25.1	0.00e+00	122	31	0	1213202432	38	6221
2026-01-05 00:23:38.02	174.45	77.67	-33.3	-34.2	24.7	1.50e-06	120	31	0	1216348160	38	6370
2026-01-05 00:23:39.03	175.14	78.15	-33.7	-34.6	24.6	0.00e+00	120	31	0	1219493888	38	6679
2026-01-05 00:23:40.04	175.89	78.63	-33.9	-34.8	24.7	0.00e+00	122	31	0	1223688192	40	6126
2026-01-05 00:23:41.05	176.70	79.10	-33.7	-34.5	25.0	0.00e+00	120	31	0	1226833920	40	5907
2026-01-05 00:23:42.06	177.60	79.58	-33.8	-34.7	24.6	0.00e+00	121	31	0	1229979648	40	6021
2026-01-05 00:23:43.07	178.57	80.06	-33.9	-34.8	24.2	0.00e+00	123	31	0	1233125376	40	6106
2026-01-05 00:23:44.08	179.65	80.53	-34.0	-34.9	24.4	0.00e+00	123	31	0	1235222528	40	6162
2026-01-05 00:23:45.09	180.85	81.01	-34.2	-35.1	24.4	0.00e+00	120	31	0	1239416832	40	6332
2026-01-05 00:23:46.10	182.17	81.48	-34.4	-35.3	24.4	0.00e+00	123	31	0	1242562560	40	6467
2026-01-05 00:23:47.11	183.65	81.94	-34.6	-35.5	24.3	0.00e+00	120	31	0	1245708288	42	5900
2026-01-05 00:23:48.11	185.30	82.40	-35.2	-36.2	23.8	0.00e+00	123	31	0	1248854016	42	6384
2026-01-05 00:23:49.12	187.17	82.85	-34.2	-35.1	24.7	0.00e+00	123	31	0	1251999744	42	5637
2026-01-05 00:23:50.13	189.30	83.29	-34.0	-34.9	24.5	0.00e+00	122	31	0	1255145472	40	6190
2026-01-05 00:23:51.14	191.73	83.73	-34.4	-35.4	24.8	0.00e+00	120	31	0	1258291200	40	6504
2026-01-05 00:23:52.15	194.52	84.15	-34.2	-35.0	24.8	0.00e+00	123	31	0	1261436928	42	5580
2026-01-05 00:23:53.16	197.74	84.56	-34.5	-35.4	25.0	0.00e+00	120	31	0	1264582656	40	6541
2026-01-05 00:23:54.17	201.47	84.95	-33.8	-34.8	24.5	0.00e+00	123	31	0	1267728384	40	6075
2026-01-05 00:23:55.18	205.80	85.31	-34.9	-35.9	24.5	0.00e+00	123	31	0	1270874112	42	6163
2026-01-05 00:23:56.19	210.82	85.65	-34.4	-35.3	24.7	0.00e+00	123	31	0	1274019840	42	5751
2026-01-05 00:23:57.20	216.64	85.94	-35.3	-36.1	24.8	0.00e+00	123	31	0	1277165568	42	6329
2026-01-05 00:23:58.21	223.28	86.19	-35.1	-35.9	24.5	0.00e+00	123	31	0	1280311296	42	6184
2026-01-05 00:23:59.22	230.74	86.38	-35.3	-36.2	24.5	0.00e+00	123	31	0	1283457024	42	6408
2026-01-05 00:24:00.23	238.87	86.50	-34.7	-35.6	24.4	0.00e+00	122	31	0	1286602752	42	5977
2026-01-05 00:24:01.24	247.40	86.55	-34.3	-35.1	24.8	0.00e+00	123	31	0	1289748480	42	5645
2026-01-05 00:24:02.25	255.99	86.52	-33.2	-34.1	25.1	0.00e+00	122	31	0	1292894208	40	5605
2026-01-05 00:24:03.26	264.25	86.42	-34.1	-35.0	24.6	0.00e+00	122	31	0	1296039936	40	6236
2026-01-05 00:24:04.27	271.90	86.25	-34.2	-35.1	25.1	0.00e+00	120	31	0	1299185664	40	6312
2026-01-05 00:24:05.28	278.76	86.01	-33.9	-34.7	25.0	0.00e+00	123	31	0	1302331392	40	6053
2026-01-05 00:24:06.29	284.78	85.73	-35.0	-35.9	24.9	0.00e+00	122	31	0	1305477120	44	5479
2026-01-05 00:24:07.30	290.00	85.40	-34.1	-35.0	25.3	0.00e+00	122	31	0	1308622848	40	6251
2026-01-05 00:24:08.31	294.50	85.05	-34.1	-35.0	25.1	0.00e+00	122	31	0	1311768576	40	6219
2026-01-05 00:24:09.32	298.38	84.66	-34.0	-34.9	25.1	0.00e+00	120	31	0	1314914304	40	6147
2026-01-05 00:24:10.33	301.72	84.26	-34.6	-35.4	25.2	0.00e+00	122	31	0	1318060032	40	6531
2026-01-05 00:24:11.34	304.61	83.84	-33.3	-34.2	25.3	0.00e+00	122	31	0	1321205760	40	5684
2026-01-05 00:24:12.35	307.12	83.41	-32.8	-33.7	25.1	0.00e+00	123	31	0	1324351488	40	5345
2026-01-05 00:24:13.36	309.32	82.97	-33.3	-34.2	25.0	0.00e+00	122	31	0	1327497216	40	5685
2026-01-05 00:24:14.37	311.26	82.51	-33.8	-34.7	24.8	0.00e+00	123	31	0	1330642944	40	5997
2026-01-05 00:24:15.38	312.97	82.06	-33.9	-34.8	24.3	0.00e+00	122	31	0	1333788672	40	6099
2026-01-05 00:24:16.39	314.50	81.59	-34.2	-35.1	24.6	0.00e+00	123	31	0	1336934400	40	6330
2026-01-05 00:24:17.40	315.86	81.13	-34.0	-34.9	24.7	0.00e+00	122	31	0	1340080128	40	6168
2026-01-05 00:24:18.41	317.08	80.66	-33.6	-34.5	25.0	0.00e+00	123	31	0	1343225856	40	5869
2026-01-05 00:24:19.42	318.19	80.18	-34.4	-35.2	25.4	0.00e+00	123	31	0	1346371584	40	6415
2026-01-05 00:24:20.43	319.19	79.71	-33.5	-34.3	25.7	0.00e+00	122	31	0	1349517312	40	5773
2026-01-05 00:24:21.44	320.10	79.23	-33.1	-33.9	25.8	0.00e+00	122	31	0	1352663040	40	5530
2026-01-05 00:24:22.45	320.94	78.75	-34.0	-34.9	25.3	0.00e+00	122	31	0	1355808768	40	6158
2026-01-05 00:24:23.46	321.70	78.27	-33.4	-34.2	25.3	0.00e+00	123	31	0	1358954496	40	5718
2026-01-05 00:24:24.47	322.40	77.79	-33.5	-34.3	25.5	0.00e+00	123	31	0	1362100224	40	5774
2026-01-05 00:24:25.48	323.05	77.31	-33.3	-34.1	25.6	0.00e+00	122	31	0	1365245952	40	5634
2026-01-05 00:24:26.49	323.65	76.83	-33.7	-34.5	25.4	0.00e+00	123	31	0	1368391680	40	5889
2026-01-05 00:24:27.50	324.21	76.35	-33.8	-34.7	25.3	0.00e+00	120	31	0	1371537408	40	6032
2026-01-05 00:24:28.51	324.73	75.87	-34.1	-35.0	25.1	0.00e+00	123	31	0	1374683136	40	6208
2026-01-05 00:24:29.52	325.21	75.40	-34.1	-34.9	25.1	0.00e+00	120	31	0	1377828864	40	6204
2026-01-05 00:24:30.53	325.66	74.92	-33.8	-34.6	25.1	0.00e+00	123	31	0	1380974592	40	5990
2026-01-05 00:24:31.54	326.09	74.44	-33.4	-34.3	25.4	0.00e+00	122	31	0	1384120320	40	5731
2026-01-05 00:24:32.55	326.49	73.97	-33.7	-34.6	25.3	1.50e-06	123	31	0	1387266048	40	5941
2026-01-05 00:24:33.56	326.86	73.49	-34.6	-35.4	24.8	0.00e+00	122	31	0	1390411776	40	6566
2026-01-05 00:24:34.57	327.21	73.02	-35.2	-36.0	24.5	0.00e+00	122	31	0	1393557504	44	5574
2026-01-05 00:24:35.58	327.55	72.55	-34.6	-35.4	25.0	0.00e+00	123	31	0	1396703232	42	5850
2026-01-05 00:24:36.59	327.86	72.08	-33.6	-34.5	25.1	0.00e+00	123	31	0	1399848960	40	5877
2026-01-05 00:24:37.60	328.16	71.61	-32.7	-33.6	25.4	0.00e+00	120	31	0	1402994688	40	5320
2026-01-05 00:24:38.61	328.44	71.14	-32.9	-33.8	25.7	0.00e+00	123	31	0	1406140416	38	6082
2026-01-05 00:24:39.62	328.71	70.68	-33.1	-33.9	25.7	0.00e+00	122	31	0	1409286144	40	5493
2026-01-05 00:24:40.63	328.96	70.21	-33.6	-34.4	25.3	0.00e+00	122	31	0	1412431872	40	5831
2026-01-05 00:24:41.64	329.21	69.75	-34.9	-35.8	24.7	0.00e+00	123	31	0	1415577600	42	6125
2026-01-05 00:24:42.65	329.44	69.29	-35.3	-36.3	23.7	0.00e+00	123	31	0	1418723328	44	5748
2026-01-05 00:24:43.66	329.66	68.83	-35.6	-36.6	24.5	0.00e+00	123	31	0	1421869056	44	5934
2026-01-05 00:24:44.67	329.87	68.38	-33.9	-34.7	25.2	0.00e+00	123	31	0	1425014784	42	5402
2026-01-05 00:24:45.68	330.07	67.92	-33.7	-34.5	25.7	0.00e+00	123	31	0	1428160512	40	5913
2026-01-05 00:24:46.69	330.27	67.47	-33.1	-33.9	25.6	0.00e+00	123	31	0	1431306240	40	5495
2026-01-05 00:24:47.70	330.45	67.02	-33.5	-34.4	25.2	0.00e+00	123	31	0	1434451968	38	6506
2026-01-05 00:24:48.71	330.63	66.58	-35.0	-36.0	24.4	0.00e+00	123	31	0	1437597696	42	6252
2026-01-05 00:24:49.72	330.80	66.13	-34.6	-35.5	24.2	0.00e+00	123	31	0	1440743424	42	5916
2026-01-05 00:24:50.73	330.96	65.69	-33.6	-34.5	25.0	0.00e+00	120	31	0	1443889152	40	5904
2026-01-05 00:24:51.74	331.12	65.25	-32.7	-33.6	25.6	0.00e+00	122	31	0	1447034880	40	5304
2026-01-05 00:24:52.75	331.27	64.81	-33.2	-34.0	25.8	0.00e+00	122	31	0	1450180608	38	6254
2026-01-05 00:24:53.76	331.42	64.38	-31.9	-32.7	26.3	0.00e+00	123	31	0	1453326336	38	5363
2026-01-05 00:24:54.77	331.56	63.94	-31.9	-32.8	26.3	0.00e+00	123	31	0	1456472064	36	6066
2026-01-05 00:24:55.78	331.69	63.51	-32.3	-33.1	25.9	0.00e+00	122	31	0	1459617792	36	6335
2026-01-05 00:24:56.79	331.82	63.08	-33.4	-34.3	25.1	0.00e+00	122	31	0	1462763520	38	6453
2026-01-05 00:24:57.80	331.95	62.66	-34.9	-35.9	24.5	0.00e+00	122	31	0	1465909248	42	6144
2026-01-05 00:24:58.81	332.07	62.23	-34.8	-35.8	24.2	0.00e+00	122	31	0	1469054976	42	6093
2026-01-05 00:24:59.82	332.19	61.81	-34.5	-35.4	24.5	0.00e+00	123	31	0	1472200704	42	5817
2026-01-05 00:25:00.82	332.30	61.40	-33.5	-34.4	25.3	0.00e+00	122	31	0	1475346432	42	5200
2026-01-05 00:25:01.84	332.42	60.98	-33.6	-34.4	25.9	0.00e+00	123	31	0	1478492160	40	5793
2026-01-05 00:25:02.85	332.52	60.57	-32.6	-33.5	25.9	0.00e+00	122	31	0	1481637888	40	5225
2026-01-05 00:25:03.86	332.63	60.16	-33.5	-34.4	25.0	0.00e+00	123	31	0	1484783616	38	6525
2026-01-05 00:25:04.87	332.73	59.75	-34.2	-35.1	24.8	0.00e+00	123	31	0	1487929344	40	6287
2026-01-05 00:25:05.88	332.83	59.34	-34.6	-35.5	24.8	0.00e+00	122	31	0	1491075072	40	6643
2026-01-05 00:25:06.89	332.92	58.94	-34.3	-35.2	24.9	0.00e+00	122	31	0	1494220800	40	6355
2026-01-05 00:25:07.90	333.01	58.54	-34.5	-35.4	24.7	0.00e+00	122	31	0	1497366528	40	6506
2026-01-05 00:25:08.91	333.10	58.14	-34.4	-35.3	24.5	0.00e+00	122	31	0	1500512256	40	6477
2026-01-05 00:25:09.92	333.19	57.75	-34.0	-34.8	25.0	0.00e+00	123	31	0	1503657984	40	6119
2026-01-05 00:25:10.93	333.27	57.36	-33.8	-34.6	25.1	0.00e+00	123	31	0	1506803712	40	5980
2026-01-05 00:25:11.94	333.36	56.97	-33.7	-34.5	25.0	0.00e+00	122	31	0	1509949440	40	5912
2026-01-05 00:25:12.95	333.44	56.58	-34.7	-35.6	24.4	0.00e+00	122	31	0	1513095168	40	6656
2026-01-05 00:25:13.96	333.51	56.20	-35.2	-36.1	23.5	0.00e+00	122	31	0	1516240896	42	6339
2026-01-05 00:25:14.97	333.59	55.82	-35.9	-36.9	22.9	0.00e+00	123	31	0	1519386624	44	6146
2026-01-05 00:25:15.98	333.66	55.44	-35.8	-36.8	23.1	0.00e+00	123	31	0	1522532352	44	6080
2026-01-05 00:25:16.99	333.74	55.06	-35.9	-36.9	23.2	0.00e+00	122	31	0	1525678080	44	6155
2026-01-05 00:25:18.00	333.81	54.69	-36.2	-37.2	23.2	7.00e-07	120	31	0	1528823808	44	6357
2026-01-05 00:25:19.01	333.88	54.32	-35.9	-36.8	23.5	0.00e+00	123	31	0	1531969536	44	6131
2026-01-05 00:25:20.02	333.94	53.95	-35.4	-36.4	23.5	0.00e+00	123	31	0	1535115264	44	5808
2026-01-05 00:25:21.03	334.01	53.58	-35.7	-36.7	23.1	0.00e+00	120	31	0	1538260992	44	6010
2026-01-05 00:25:22.04	334.07	53.22	-34.9	-35.8	23.9	0.00e+00	122	31	0	1542455296	44	5453
2026-01-05 00:25:23.05	334.14	52.86	-34.4	-35.3	24.5	0.00e+00	123	31	0	1545601024	42	5780
2026-01-05 00:25:24.06	334.20	52.50	-34.9	-35.8	24.2	0.00e+00	123	31	0	1548746752	42	6075
2026-01-05 00:25:25.07	334.26	52.14	-35.9	-36.8	23.9	0.00e+00	123	31	0	1550843904	44	6080
2026-01-05 00:25:26.08	334.32	51.79	-35.9	-36.8	23.5	0.00e+00	121	31	0	1553989632	44	6126
2026-01-05 00:25:27.10	334.37	51.44	-36.2	-37.1	23.0	0.00e+00	123	31	0	1558183936	44	6345
2026-01-05 00:25:28.11	334.43	51.09	-36.3	-37.3	22.7	0.00e+00	123	31	0	1561329664	44	6443
2026-01-05 00:25:29.11	334.48	50.75	-36.3	-37.3	22.5	0.00e+00	123	31	0	1564475392	44	6443
2026-01-05 00:25:30.12	334.54	50.40	-36.5	-37.5	22.2	0.00e+00	123	31	0	1567621120	44	6608
2026-01-05 00:25:31.13	334.59	50.06	-36.9	-37.9	22.4	0.00e+00	123	31	0	1570766848	46	6200
2026-01-05 00:25:32.14	334.64	49.73	-37.2	-38.2	22.4	0.00e+00	122	31	0	1573912576	46	6419
2026-01-05 00:25:33.15	334.69	49.39	-37.2	-38.2	22.3	0.00e+00	122	31	0	1577058304	46	6372
2026-01-05 00:25:34.16	334.74	49.06	-37.4	-38.5	22.1	0.00e+00	123	31	0	1580204032	46	6620
2026-01-05 00:25:35.17	334.79	48.73	-36.8	-37.8	22.9	0.00e+00	122	31	0	1583349760	46	6088
2026-01-05 00:25:36.18	334.84	48.40	-36.5	-37.5	23.1	0.00e+00	120	31	0	1586495488	46	5904
2026-01-05 00:25:37.19	334.88	48.07	-37.3	-38.3	22.8	0.00e+00	123	31	0	1589641216	46	6457
2026-01-05 00:25:38.20	334.93	47.75	-37.2	-38.2	22.6	0.00e+00	120	31	0	1592786944	46	6400
2026-01-05 00:25:39.21	334.97	47.43	-37.8	-38.9	21.7	0.00e+00	122	31	0	1595932672	48	6199
2026-01-05 00:25:40.22	335.02	47.11	-38.6	-39.8	21.0	0.00e+00	120	31	0	1599078400	50	6089
2026-01-05 00:25:41.23	335.06	46.80	-38.6	-39.8	21.3	0.00e+00	123	31	0	1602224128	50	6083
2026-01-05 00:25:42.24	335.10	46.48	-38.6	-39.8	21.1	0.00e+00	123	31	0	1605369856	50	6120
2026-01-05 00:25:43.25	335.14	46.17	-38.9	-40.0	21.3	0.00e+00	123	31	0	1608515584	50	6266
2026-01-05 00:25:44.26	335.19	45.86	-38.1	-39.2	21.8	0.00e+00	122	31	0	1611661312	50	5662
2026-01-05 00:25:45.27	335.23	45.56	-37.4	-38.4	22.1	0.00e+00	122	31	0	1614807040	48	5848
2026-01-05 00:25:46.28	335.27	45.25	-37.2	-38.3	21.9	0.00e+00	123	31	0	1617952768	48	5744
2026-01-05 00:25:47.29	335.30	44.95	-37.8	-38.8	21.8	0.00e+00	123	31	0	1621098496	48	6126
2026-01-05 00:25:48.30	335.34	44.65	-38.6	-39.7	21.2	0.00e+00	123	31	0	1624244224	48	6764
2026-01-05 00:25:49.31	335.38	44.35	-39.8	-41.0	20.7	0.00e+00	122	31	0	1627389952	52	6236
2026-01-05 00:25:50.32	335.42	44.06	-40.0	-41.2	20.4	0.00e+00	123	31	0	1630535680	52	6404
2026-01-05 00:25:51.34	335.45	43.76	-39.2	-40.4	20.4	0.00e+00	121	31	0	1633681408	52	5858
2026-01-05 00:25:52.35	335.49	43.47	-38.9	-40.2	20.7	0.00e+00	123	31	0	1636827136	52	5675
2026-01-05 00:25:53.36	335.52	43.18	-37.9	-39.0	21.5	0.00e+00	120	31	0	1639972864	50	5560
2026-01-05 00:25:54.36	335.56	42.90	-37.4	-38.5	22.3	0.00e+00	122	31	0	1643118592	48	5863
2026-01-05 00:25:55.37	335.59	42.62	-36.7	-37.7	22.7	0.00e+00	123	31	0	1646264320	46	6050
2026-01-05 00:25:56.38	335.63	42.33	-36.2	-37.2	23.2	0.00e+00	122	31	0	1649410048	46	5680
2026-01-05 00:25:57.39	335.66	42.05	-37.3	-38.3	22.3	0.00e+00	123	31	0	1652555776	46	6478
2026-01-05 00:25:58.40	335.69	41.78	-37.0	-38.0	22.4	0.00e+00	122	31	0	1655701504	46	6246
2026-01-05 00:25:59.42	335.72	41.50	-37.3	-38.4	21.9	0.00e+00	122	31	0	1658847232	46	6511
2026-01-05 00:26:00.43	335.76	41.23	-37.0	-38.1	21.9	0.00e+00	122	31	0	1661992960	46	6302
2026-01-05 00:26:01.43	335.79	40.96	-37.7	-38.8	21.7	0.00e+00	123	31	0	1665138688	48	6086
2026-01-05 00:26:02.44	335.82	40.69	-38.0	-39.1	21.5	0.00e+00	123	31	0	1668284416	48	6307
2026-01-05 00:26:03.45	335.85	40.42	-37.4	-38.5	21.9	0.00e+00	120	31	0	1671430144	48	5861
2026-01-05 00:26:04.47	335.88	40.15	-37.6	-38.6	22.0	0.00e+00	120	31	0	1674575872	48	5969
2026-01-05 00:26:05.48	335.91	39.89	-37.2	-38.2	22.3	0.00e+00	121	31	0	1677721600	48	5689
2026-01-05 00:26:06.48	335.94	39.63	-37.2	-38.2	22.1	0.00e+00	123	31	0	1680867328	46	6389
2026-01-05 00:26:07.49	335.97	39.37	-37.1	-38.1	22.1	0.00e+00	122	31	0	1684013056	46	6311
2026-01-05 00:26:08.51	335.99	39.11	-37.0	-38.1	22.1	0.00e+00	123	31	0	1687158784	46	6288
2026-01-05 00:26:09.51	336.02	38.86	-36.6	-37.7	22.5	0.00e+00	123	31	0	1690304512	46	5998
2026-01-05 00:26:10.52	336.05	38.60	-36.6	-37.6	22.5	0.00e+00	122	31	0	1693450240	46	5993
2026-01-05 00:26:11.53	336.08	38.35	-36.6	-37.6	22.5	0.00e+00	120	31	0	1696595968	46	5974
2026-01-05 00:26:12.54	336.10	38.10	-36.1	-37.0	23.0	0.00e+00	122	31	0	1699741696	46	5591
2026-01-05 00:26:13.56	336.13	37.85	-36.0	-37.0	23.1	0.00e+00	123	31	0	1702887424	46	5536
2026-01-05 00:26:14.57	336.16	37.60	-35.6	-36.5	23.3	0.00e+00	123	31	0	1706033152	44	5900
2026-01-05 00:26:15.57	336.18	37.36	-35.4	-36.3	23.5	0.00e+00	120	31	0	1709178880	44	5776
2026-01-05 00:26:16.58	336.21	37.12	-35.1	-36.0	23.4	0.00e+00	123	31	0	1712324608	44	5563
2026-01-05 00:26:17.59	336.23	36.88	-34.7	-35.6	23.6	0.00e+00	123	31	0	1715470336	44	5316
2026-01-05 00:26:18.60	336.26	36.64	-35.0	-35.9	23.5	0.00e+00	123	31	0	1718616064	42	6171
2026-01-05 00:26:19.62	336.28	36.40	-34.8	-35.7	23.8	0.00e+00	123	31	0	1721761792	42	6046
2026-01-05 00:26:20.63	336.31	36.16	-35.0	-35.9	23.6	0.00e+00	123	31	0	1724907520	42	6183
2026-01-05 00:26:21.64	336.33	35.93	-35.2	-36.2	23.6	0.00e+00	123	31	0	1728053248	42	6353
2026-01-05 00:26:22.65	336.35	35.69	-35.3	-36.2	23.7	0.00e+00	122	31	0	1731198976	42	6373
2026-01-05 00:26:23.66	336.38	35.46	-35.6	-36.5	23.5	0.00e+00	123	31	0	1734344704	42	6620
2026-01-05 00:26:24.67	336.40	35.23	-35.6	-36.5	23.6	0.00e+00	123	31	0	1737490432	42	6600
2026-01-05 00:26:25.68	336.42	35.01	-35.7	-36.6	23.3	0.00e+00	122	31	0	1740636160	44	5980
2026-01-05 00:26:26.69	336.45	34.78	-35.7	-36.7	23.5	0.00e+00	122	31	0	1743781888	44	6032
2026-01-05 00:26:27.70	336.47	34.56	-35.8	-36.7	23.4	0.00e+00	123	31	0	1746927616	44	6056
2026-01-05 00:26:28.71	336.49	34.33	-35.9	-36.8	23.2	0.00e+00	123	31	0	1750073344	44	6122
2026-01-05 00:26:29.72	336.51	34.11	-35.8	-36.8	23.3	0.00e+00	123	31	0	1753219072	44	6087
2026-01-05 00:26:30.73	336.53	33.89	-35.7	-36.7	23.3	0.00e+00	122	31	0	1756364800	44	6022
2026-01-05 00:26:31.74	336.55	33.68	-35.9	-36.9	23.3	0.00e+00	122	31	0	1759510528	44	6143
2026-01-05 00:26:32.75	336.58	33.46	-35.8	-36.8	23.4	0.00e+00	122	31	0	1762656256	44	6082
2026-01-05 00:26:33.76	336.60	33.25	-35.2	-36.1	23.9	0.00e+00	122	31	0	1765801984	44	5622
2026-01-05 00:26:34.77	336.62	33.03	-34.9	-35.8	24.0	0.00e+00	122	31	0	1768947712	44	5466
2026-01-05 00:26:35.78	336.64	32.82	-34.8	-35.7	24.1	0.00e+00	123	31	0	1772093440	42	6015
2026-01-05 00:26:36.79	336.66	32.61	-34.8	-35.7	24.3	0.00e+00	123	31	0	1775239168	42	6056
2026-01-05 00:26:37.80	336.68	32.40	-34.7	-35.5	24.4	0.00e+00	123	31	0	1778384896	42	5925
2026-01-05 00:26:38.81	336.70	32.19	-34.8	-35.7	24.3	0.00e+00	121	31	0	1781530624	42	6031
2026-01-05 00:26:39.82	336.72	31.99	-34.7	-35.6	24.3	0.00e+00	123	31	0	1784676352	42	5960
2026-01-05 00:26:40.83	336.74	31.78	-34.9	-35.8	24.4	0.00e+00	123	31	0	1787822080	42	6097
2026-01-05 00:26:41.84	336.76	31.58	-34.7	-35.6	24.3	0.00e+00	120	31	0	1790967808	42	5986
2026-01-05 00:26:42.85	336.78	31.38	-35.1	-36.0	24.1	0.00e+00	122	31	0	1794113536	42	6237
2026-01-05 00:26:43.86	336.79	31.18	-34.9	-35.8	24.1	0.00e+00	123	31	0	1797259264	42	6087
2026-01-05 00:26:44.87	336.81	30.98	-34.4	-35.4	24.3	0.00e+00	123	31	0	1800404992	42	5795
2026-01-05 00:26:45.88	336.83	30.78	-34.9	-35.8	24.2	0.00e+00	119	31	0	1803550720	42	6123
2026-01-05 00:26:46.89	336.85	30.59	-34.7	-35.7	24.0	0.00e+00	123	31	0	1806696448	42	5995
2026-01-05 00:26:47.90	336.87	30.39	-34.8	-35.8	24.0	0.00e+00	122	31	0	1809842176	42	6076
2026-01-05 00:26:48.91	336.89	30.20	-35.1	-36.0	23.9	0.00e+00	122	31	0	1812987904	42	6260
2026-01-05 00:26:49.92	336.90	30.00	-35.0	-36.0	23.9	0.00e+00	120	31	0	1816133632	42	6239
2026-01-05 00:26:50.93	336.92	29.81	-34.9	-35.9	23.9	0.00e+00	123	31	0	1819279360	42	6139
2026-01-05 00:26:51.94	336.94	29.62	-35.3	-36.3	23.7	0.00e+00	123	31	0	1822425088	42	6443
2026-01-05 00:26:52.95	336.96	29.43	-35.1	-36.1	23.8	0.00e+00	123	31	0	1825570816	42	6279
2026-01-05 00:26:53.96	336.97	29.25	-35.1	-36.0	23.7	0.00e+00	123	31	0	1828716544	42	6255
2026-01-05 00:26:54.97	336.99	29.06	-34.9	-35.9	23.7	0.00e+00	123	31	0	1831862272	42	6139
2026-01-05 00:26:55.98	337.01	28.88	-35.0	-36.0	23.7	0.00e+00	123	31	0	1835008000	42	6215
2026-01-05 00:26:56.99	337.02	28.69	-34.9	-35.9	23.6	0.00e+00	123	31	0	1839202304	42	6163
2026-01-05 00:26:58.00	337.04	28.51	-35.1	-36.1	23.4	0.00e+00	122	31	0	1841299456	42	6298
2026-01-05 00:26:59.01	337.06	28.33	-35.0	-36.0	23.4	0.00e+00	123	31	0	1844445184	42	6241
2026-01-05 00:27:00.02	337.07	28.15	-35.1	-36.1	23.1	0.00e+00	123	31	0	1847590912	42	6314
2026-01-05 00:27:01.03	337.09	27.97	-35.2	-36.2	23.2	0.00e+00	123	31	0	1850736640	42	6363
2026-01-05 00:27:02.04	337.11	27.79	-35.0	-36.0	23.3	0.00e+00	123	31	0	1854930944	42	6219
2026-01-05 00:27:03.05	337.12	27.62	-35.0	-36.0	23.4	0.00e+00	123	31	0	1858076672	42	6224
2026-01-05 00:27:04.06	337.14	27.44	-34.9	-35.9	23.5	0.00e+00	123	31	0	1861222400	42	6192
2026-01-05 00:27:05.07	337.15	27.27	-34.7	-35.7	23.6	0.00e+00	122	31	0	1864368128	42	6047
2026-01-05 00:27:06.08	337.17	27.09	-34.7	-35.6	23.7	0.00e+00	123	31	0	1866465280	42	5971
2026-01-05 00:27:07.09	337.18	26.92	-34.4	-35.3	23.9	0.00e+00	122	31	0	1870659584	42	5790
2026-01-05 00:27:08.10	337.20	26.75	-34.4	-35.4	24.0	0.00e+00	120	31	0	1873805312	42	5797
2026-01-05 00:27:09.11	337.22	26.58	-34.5	-35.4	23.9	0.00e+00	123	31	0	1876951040	42	5838
2026-01-05 00:27:10.12	337.23	26.41	-34.2	-35.1	24.1	0.00e+00	123	31	0	1880096768	42	5656
2026-01-05 00:27:11.13	337.25	26.24	-34.1	-35.1	24.2	0.00e+00	123	31	0	1883242496	42	5605
2026-01-05 00:27:12.14	337.26	26.08	-34.2	-35.1	24.3	0.00e+00	123	31	0	1886388224	42	5659
2026-01-05 00:27:13.15	337.28	25.91	-33.8	-34.7	24.5	0.00e+00	122	31	0	1889533952	42	5403
2026-01-05 00:27:14.16	337.29	25.75	-33.9	-34.8	24.5	0.00e+00	120	31	0	1892679680	42	5467
2026-01-05 00:27:15.17	337.30	25.58	-33.8	-34.7	24.5	0.00e+00	123	31	0	1895825408	40	6058
2026-01-05 00:27:16.18	337.32	25.42	-33.5	-34.4	24.8	0.00e+00	120	31	0	1898971136	40	5856
2026-01-05 00:27:17.19	337.33	25.26	-33.6	-34.5	24.7	0.00e+00	123	31	0	1902116864	40	5899
2026-01-05 00:27:18.20	337.35	25.10	-33.6	-34.5	24.6	0.00e+00	122	31	0	1905262592	40	5867
2026-01-05 00:27:19.21	337.36	24.94	-34.1	-35.0	24.5	0.00e+00	123	31	0	1908408320	40	6272
2026-01-05 00:27:20.22	337.38	24.78	-33.6	-34.5	24.8	0.00e+00	123	31	0	1911554048	40	5909
2026-01-05 00:27:21.23	337.39	24.62	-33.7	-34.6	24.7	0.00e+00	123	31	0	1914699776	40	5942
2026-01-05 00:27:22.24	337.40	24.46	-33.9	-34.8	24.7	0.00e+00	121	31	0	1917845504	40	6111
2026-01-05 00:27:23.25	337.42	24.31	-33.7	-34.6	24.8	0.00e+00	120	31	0	1920991232	40	5968
2026-01-05 00:27:24.26	337.43	24.15	-33.7	-34.6	24.8	0.00e+00	123	31	0	1924136960	40	5967
2026-01-05 00:27:25.27	337.44	24.00	-33.9	-34.8	24.7	0.00e+00	123	31	0	1927282688	40	6079
2026-01-05 00:27:26.28	337.46	23.85	-33.7	-34.6	24.8	0.00e+00	120	31	0	1930428416	40	5929
2026-01-05 00:27:27.29	337.47	23.69	-33.7	-34.5	24.9	0.00e+00	122	31	0	1933574144	40	5926
2026-01-05 00:27:28.30	337.48	23.54	-33.7	-34.5	24.9	0.00e+00	123	31	0	1936719872	40	5925
2026-01-05 00:27:29.31	337.50	23.39	-33.7	-34.5	24.8	0.00e+00	123	31	0	1939865600	40	5902
2026-01-05 00:27:30.32	337.51	23.24	-33.7	-34.6	24.9	0.00e+00	123	31	0	1943011328	40	5933
2026-01-05 00:27:31.33	337.52	23.09	-33.7	-34.6	24.9	0.00e+00	123	31	0	1946157056	40	5942
2026-01-05 00:27:32.34	337.54	22.94	-33.7	-34.5	24.9	0.00e+00	122	31	0	1949302784	40	5911
2026-01-05 00:27:33.35	337.55	22.80	-33.7	-34.6	24.9	0.00e+00	123	31	0	1952448512	40	5948
2026-01-05 00:27:34.36	337.56	22.65	-33.7	-34.6	24.9	0.00e+00	123	31	0	1955594240	40	5936
