passes_logs/2026/01/05/R4.6S_Anadyr/R4.6S_Anadyr__20260105_163250_NOAA_20_JPSS-1_rec.log

#Pass ID: 20260105_163250_NOAA 20 (JPSS-1)
#Satellite: NOAA 20 (JPSS-1)
#Configuration: NOAA 20
#almurnet v.1.7.20251203
#Start time: 2026-01-05 16:32:53

#Version: 2.2.20231116
#Station: R4.6S_Anadyr
#Location: 177.4865 lon 64.73178 lat
#TLE: 1 43013U 17073A   26004.89819562  .00000113  00000+0  74278-4 0  9995
#TLE: 2 43013  98.7626 305.9448 0001841  53.9015 306.2332 14.19533229421309

#Time	Az	El	Level	Level2	SNR	BER	BlckErr	Temp	State	Recorded	gain1	gain2
2026-01-05 16:32:53.24	26.54	0.17	-48.6	-62.4	3.3	1.54e+00	0	32	0	0	60	47513
2026-01-05 16:32:54.24	26.50	0.22	-48.6	-63.8	3.6	1.51e+00	0	32	104	0	60	56004
2026-01-05 16:32:55.25	26.45	0.28	-48.6	-63.8	3.6	1.51e+00	0	32	104	0	60	56098
2026-01-05 16:32:56.26	26.41	0.34	-48.7	-63.8	3.6	1.51e+00	0	32	104	0	60	56222
2026-01-05 16:32:57.27	26.37	0.40	-48.7	-63.8	3.6	1.51e+00	0	32	104	0	60	55990
2026-01-05 16:32:58.28	26.32	0.45	-48.6	-63.8	3.6	1.51e+00	0	32	104	0	60	56215
2026-01-05 16:32:59.29	26.28	0.51	-48.5	-63.7	3.6	1.51e+00	0	32	104	0	60	55485
2026-01-05 16:33:00.30	26.24	0.57	-48.4	-63.6	3.6	1.51e+00	0	33	104	0	60	54920
2026-01-05 16:33:01.31	26.19	0.63	-48.3	-63.5	3.6	1.51e+00	0	33	104	0	60	54345
2026-01-05 16:33:02.32	26.15	0.69	-48.2	-63.4	3.6	1.51e+00	0	33	104	0	60	53176
2026-01-05 16:33:03.33	26.10	0.74	-48.1	-63.2	3.6	1.51e+00	0	33	104	0	60	52345
2026-01-05 16:33:04.34	26.06	0.80	-47.9	-63.0	3.6	1.51e+00	0	33	104	0	60	51312
2026-01-05 16:33:05.35	26.01	0.86	-47.6	-62.7	3.6	1.51e+00	0	33	104	0	60	49593
2026-01-05 16:33:06.36	25.97	0.92	-47.2	-62.4	3.6	1.51e+00	0	33	104	0	60	47496
2026-01-05 16:33:07.37	25.92	0.98	-47.2	-62.4	3.6	1.51e+00	0	33	104	0	60	47396
2026-01-05 16:33:08.38	25.88	1.04	-47.2	-62.4	3.6	1.51e+00	0	33	104	0	60	47422
2026-01-05 16:33:09.39	25.83	1.09	-47.2	-62.3	3.5	1.51e+00	0	33	104	0	60	47365
2026-01-05 16:33:10.40	25.79	1.15	-47.2	-62.4	3.6	1.51e+00	0	33	104	0	60	47758
2026-01-05 16:33:11.41	25.74	1.21	-47.2	-62.3	3.6	1.51e+00	0	33	104	0	60	47256
2026-01-05 16:33:12.42	25.70	1.27	-47.2	-62.4	3.6	1.51e+00	0	33	104	0	60	47397
2026-01-05 16:33:13.43	25.65	1.33	-47.2	-62.4	3.6	1.51e+00	0	33	104	0	60	47529
2026-01-05 16:33:14.44	25.60	1.39	-47.2	-62.4	3.6	1.51e+00	0	33	104	0	60	47380
2026-01-05 16:33:15.45	25.56	1.45	-47.2	-62.4	3.6	1.51e+00	0	33	104	0	60	47558
2026-01-05 16:33:16.46	25.51	1.51	-47.2	-62.4	3.6	1.51e+00	0	33	104	0	60	47464
2026-01-05 16:33:17.47	25.46	1.57	-47.2	-62.4	3.6	1.51e+00	0	33	104	0	60	47667
2026-01-05 16:33:18.48	25.42	1.63	-47.2	-62.4	3.6	1.51e+00	0	33	104	0	60	47454
2026-01-05 16:33:19.49	25.37	1.69	-47.2	-62.4	3.6	1.51e+00	0	33	104	0	60	47736
2026-01-05 16:33:20.50	25.32	1.75	-47.2	-62.4	3.6	1.51e+00	0	33	104	0	60	47512
2026-01-05 16:33:21.51	25.27	1.81	-47.2	-62.3	3.6	1.51e+00	0	33	104	0	60	47335
2026-01-05 16:33:22.52	25.22	1.87	-47.2	-62.3	3.6	1.51e+00	0	33	104	0	60	47286
2026-01-05 16:33:23.53	25.18	1.93	-47.2	-62.2	3.6	1.51e+00	0	33	104	0	60	46806
2026-01-05 16:33:24.54	25.13	1.99	-47.2	-62.1	3.6	1.51e+00	0	33	104	0	60	46187
2026-01-05 16:33:25.55	25.08	2.05	-47.2	-62.1	3.6	1.51e+00	0	33	104	0	60	46133
2026-01-05 16:33:26.56	25.03	2.11	-47.2	-62.1	3.6	1.51e+00	0	33	104	0	60	45962
2026-01-05 16:33:27.57	24.98	2.17	-47.2	-62.3	3.6	1.51e+00	0	33	104	0	60	46904
2026-01-05 16:33:28.58	24.93	2.23	-47.2	-62.3	3.6	1.51e+00	0	33	104	0	60	47174
2026-01-05 16:33:29.59	24.88	2.29	-47.2	-62.4	3.6	1.51e+00	0	33	104	0	60	47474
2026-01-05 16:33:30.60	24.83	2.35	-47.2	-62.4	3.6	1.51e+00	0	33	104	0	60	47574
2026-01-05 16:33:31.61	24.78	2.41	-47.2	-62.3	3.6	1.51e+00	0	33	104	0	60	47169
2026-01-05 16:33:32.61	24.73	2.47	-47.2	-62.4	3.6	1.51e+00	0	33	104	0	60	47474
2026-01-05 16:33:33.62	24.68	2.53	-47.2	-62.3	3.6	1.51e+00	0	33	104	0	60	47331
2026-01-05 16:33:34.63	24.63	2.59	-47.2	-62.3	3.5	1.51e+00	0	33	104	0	60	47198
2026-01-05 16:33:35.65	24.58	2.66	-47.2	-62.2	3.6	1.51e+00	0	33	104	0	60	46793
2026-01-05 16:33:36.65	24.53	2.72	-47.2	-62.1	3.6	1.51e+00	0	33	104	0	60	45872
2026-01-05 16:33:37.66	24.48	2.78	-47.2	-61.8	3.6	1.51e+00	0	33	104	0	60	44548
2026-01-05 16:33:38.67	24.42	2.84	-47.2	-61.6	3.6	1.51e+00	0	33	104	0	60	43572
2026-01-05 16:33:39.68	24.37	2.90	-47.2	-61.7	3.6	1.51e+00	0	33	104	0	60	43937
2026-01-05 16:33:40.69	24.32	2.96	-47.2	-62.1	3.6	1.51e+00	0	33	104	0	60	45815
2026-01-05 16:33:41.70	24.27	3.03	-47.2	-62.3	3.6	1.51e+00	0	33	104	0	60	47124
2026-01-05 16:33:42.71	24.22	3.09	-47.2	-61.7	3.6	1.51e+00	0	33	104	0	60	43715
2026-01-05 16:33:43.72	24.16	3.15	-47.1	-60.0	3.6	1.51e+00	0	33	104	0	60	36013
2026-01-05 16:33:44.73	24.11	3.21	-46.9	-57.3	4.3	1.19e+00	0	33	0	0	60	26464
2026-01-05 16:33:45.74	24.06	3.28	-46.7	-54.7	5.7	6.23e-01	0	33	0	2097152	60	19673
2026-01-05 16:33:46.75	24.00	3.34	-46.5	-53.5	6.9	2.60e-01	0	33	0	3145728	60	17123
2026-01-05 16:33:47.76	23.95	3.40	-46.3	-52.9	7.6	9.55e-02	0	33	0	5242880	60	15896
2026-01-05 16:33:48.77	23.89	3.46	-47.3	-61.7	3.6	5.56e-01	0	33	104	7340032	60	44199
2026-01-05 16:33:49.78	23.84	3.53	-44.0	-47.1	14.4	1.51e+00	91	33	104	7340032	60	8226
2026-01-05 16:33:50.79	23.79	3.59	-47.2	-61.9	3.6	5.14e-01	0	33	104	7340032	60	45236
2026-01-05 16:33:51.79	23.73	3.65	-47.0	-57.3	4.0	1.51e+00	0	33	104	7340032	60	26453
2026-01-05 16:33:52.80	23.68	3.72	-42.8	-45.1	15.6	5.00e-01	0	33	0	7340032	58	7291
2026-01-05 16:33:53.81	23.62	3.78	-43.2	-45.7	16.0	0.00e+00	0	33	0	9437184	60	6933
2026-01-05 16:33:54.82	23.57	3.84	-42.3	-44.3	17.2	0.00e+00	0	33	0	10485760	58	6671
2026-01-05 16:33:55.83	23.51	3.91	-42.6	-44.7	16.7	0.00e+00	0	33	0	12582912	58	6987
2026-01-05 16:33:56.84	23.45	3.97	-41.5	-43.2	18.4	0.00e+00	0	33	0	14680064	56	6579
2026-01-05 16:33:57.85	23.40	4.03	-41.3	-43.0	18.7	0.00e+00	0	33	0	16777216	56	6436
2026-01-05 16:33:58.86	23.34	4.10	-40.8	-42.3	19.3	0.00e+00	0	33	0	18874368	56	5918
2026-01-05 16:33:59.87	23.28	4.16	-40.7	-42.3	19.2	0.00e+00	0	33	0	20971520	54	6618
2026-01-05 16:34:00.88	23.23	4.23	-40.9	-42.5	18.9	0.00e+00	0	33	0	22020096	54	6803
2026-01-05 16:34:01.89	23.17	4.29	-41.1	-42.6	19.0	0.00e+00	0	33	0	24117248	54	6920
2026-01-05 16:34:02.90	23.11	4.36	-40.8	-42.4	19.2	0.00e+00	0	33	0	26214400	54	6699
2026-01-05 16:34:03.91	23.05	4.42	-40.9	-42.4	19.2	0.00e+00	0	33	0	28311552	54	6737
2026-01-05 16:34:04.92	22.99	4.49	-41.1	-42.8	18.8	0.00e+00	0	33	0	30408704	54	7008
2026-01-05 16:34:05.93	22.94	4.55	-41.0	-42.6	19.1	0.00e+00	0	33	0	31457280	54	6855
2026-01-05 16:34:06.93	22.88	4.61	-40.5	-42.0	19.5	0.00e+00	0	33	0	33554432	54	6411
2026-01-05 16:34:07.94	22.82	4.68	-40.7	-42.1	19.3	0.00e+00	0	33	0	35651584	54	6531
2026-01-05 16:34:08.95	22.76	4.75	-40.6	-42.1	19.5	0.00e+00	0	33	0	37748736	54	6499
2026-01-05 16:34:09.97	22.70	4.81	-40.6	-42.1	19.5	0.00e+00	0	33	0	39845888	54	6484
2026-01-05 16:34:10.97	22.64	4.88	-40.6	-42.0	19.6	0.00e+00	0	33	0	40894464	54	6447
2026-01-05 16:34:11.98	22.58	4.94	-40.6	-42.1	19.6	0.00e+00	0	33	0	42991616	54	6479
2026-01-05 16:34:13.00	22.52	5.01	-40.6	-42.0	19.6	0.00e+00	0	33	0	45088768	54	6443
2026-01-05 16:34:14.00	22.46	5.07	-40.7	-42.1	19.6	0.00e+00	0	33	0	47185920	54	6503
2026-01-05 16:34:15.01	22.40	5.14	-40.6	-42.1	19.5	0.00e+00	0	33	0	49283072	54	6485
2026-01-05 16:34:16.02	22.33	5.21	-40.6	-42.0	19.6	0.00e+00	0	33	0	50331648	54	6460
2026-01-05 16:34:17.03	22.27	5.27	-40.4	-41.7	20.0	0.00e+00	0	33	0	52428800	54	6237
2026-01-05 16:34:18.04	22.21	5.34	-40.3	-41.7	20.0	0.00e+00	0	33	0	54525952	54	6187
2026-01-05 16:34:19.04	22.15	5.41	-40.2	-41.6	20.2	0.00e+00	0	33	0	56623104	54	6118
2026-01-05 16:34:20.05	22.09	5.47	-40.6	-42.0	19.5	0.00e+00	0	33	0	58720256	54	6461
2026-01-05 16:34:21.06	22.02	5.54	-40.7	-42.2	19.7	0.00e+00	0	33	0	59768832	54	6540
2026-01-05 16:34:22.07	21.96	5.61	-40.5	-41.9	19.9	0.00e+00	0	33	0	61865984	54	6371
2026-01-05 16:34:23.08	21.90	5.67	-40.5	-41.8	20.0	0.00e+00	0	33	0	63963136	54	6312
2026-01-05 16:34:24.09	21.83	5.74	-40.0	-41.3	20.5	0.00e+00	0	33	0	66060288	54	5940
2026-01-05 16:34:25.10	21.77	5.81	-40.1	-41.4	20.3	0.00e+00	0	33	0	68157440	54	6011
2026-01-05 16:34:26.10	21.70	5.88	-40.1	-41.4	20.4	0.00e+00	0	33	0	69206016	54	5986
2026-01-05 16:34:27.12	21.64	5.94	-39.8	-41.1	20.7	0.00e+00	0	33	0	71303168	54	5774
2026-01-05 16:34:28.12	21.57	6.01	-40.0	-41.2	20.5	0.00e+00	0	33	0	73400320	54	5884
2026-01-05 16:34:29.13	21.51	6.08	-40.2	-41.5	20.4	0.00e+00	0	33	0	75497472	54	6048
2026-01-05 16:34:30.14	21.44	6.15	-40.0	-41.3	20.5	0.00e+00	0	33	0	77594624	54	5912
2026-01-05 16:34:31.15	21.38	6.22	-40.0	-41.2	20.4	0.00e+00	0	33	0	78643200	54	5893
2026-01-05 16:34:32.16	21.31	6.28	-40.1	-41.3	20.6	0.00e+00	0	33	0	80740352	54	5956
2026-01-05 16:34:33.17	21.24	6.35	-40.1	-41.4	20.4	0.00e+00	0	33	0	82837504	54	5989
2026-01-05 16:34:34.18	21.18	6.42	-40.2	-41.5	20.4	0.00e+00	0	33	0	84934656	54	6077
2026-01-05 16:34:35.19	21.11	6.49	-40.1	-41.4	20.5	0.00e+00	0	33	0	87031808	54	5990
2026-01-05 16:34:36.20	21.04	6.56	-40.0	-41.3	20.5	0.00e+00	0	33	0	88080384	54	5932
2026-01-05 16:34:37.20	20.97	6.63	-39.9	-41.1	20.8	0.00e+00	0	33	0	90177536	54	5823
2026-01-05 16:34:38.22	20.91	6.70	-39.9	-41.2	20.5	0.00e+00	0	33	0	92274688	54	5856
2026-01-05 16:34:39.23	20.84	6.77	-40.0	-41.2	20.7	0.00e+00	0	33	0	94371840	54	5893
2026-01-05 16:34:40.23	20.77	6.84	-39.8	-41.0	20.8	0.00e+00	0	33	0	96468992	52	6438
2026-01-05 16:34:41.24	20.70	6.91	-39.9	-41.1	20.9	0.00e+00	0	33	0	97517568	52	6503
2026-01-05 16:34:42.25	20.63	6.98	-40.0	-41.3	20.6	0.00e+00	0	33	0	99614720	52	6623
2026-01-05 16:34:43.26	20.56	7.05	-39.9	-41.1	20.8	0.00e+00	0	33	0	101711872	52	6515
2026-01-05 16:34:44.27	20.49	7.12	-40.0	-41.2	20.7	0.00e+00	0	33	0	103809024	52	6598
2026-01-05 16:34:45.28	20.42	7.19	-39.8	-41.1	20.8	0.00e+00	0	33	0	105906176	52	6475
2026-01-05 16:34:46.29	20.35	7.26	-39.7	-41.0	20.9	0.00e+00	0	33	0	106954752	52	6392
2026-01-05 16:34:47.30	20.27	7.33	-39.8	-41.1	20.9	0.00e+00	0	33	0	109051904	52	6467
2026-01-05 16:34:48.31	20.20	7.40	-40.0	-41.3	20.8	0.00e+00	0	33	0	111149056	52	6621
2026-01-05 16:34:49.31	20.13	7.47	-40.0	-41.3	20.8	0.00e+00	0	33	0	113246208	52	6636
2026-01-05 16:34:50.32	20.06	7.54	-40.1	-41.3	20.6	0.00e+00	0	33	0	115343360	52	6688
2026-01-05 16:34:51.33	19.98	7.61	-40.1	-41.4	20.6	0.00e+00	0	33	0	117440512	52	6743
2026-01-05 16:34:52.34	19.91	7.68	-40.0	-41.3	20.7	0.00e+00	0	33	0	118489088	52	6653
2026-01-05 16:34:53.35	19.84	7.75	-40.0	-41.2	20.7	0.00e+00	0	33	0	120586240	52	6572
2026-01-05 16:34:54.36	19.76	7.83	-40.0	-41.3	20.7	0.00e+00	0	33	0	122683392	52	6641
2026-01-05 16:34:55.37	19.69	7.90	-40.0	-41.3	20.7	0.00e+00	0	33	0	124780544	52	6649
2026-01-05 16:34:56.38	19.61	7.97	-40.0	-41.3	20.7	0.00e+00	0	33	0	126877696	52	6630
2026-01-05 16:34:57.39	19.54	8.04	-40.0	-41.2	20.7	0.00e+00	0	33	0	127926272	52	6612
2026-01-05 16:34:58.40	19.46	8.11	-40.0	-41.2	20.7	0.00e+00	0	33	0	130023424	52	6615
2026-01-05 16:34:59.41	19.38	8.19	-40.1	-41.3	20.7	0.00e+00	0	33	0	132120576	52	6655
2026-01-05 16:35:00.42	19.31	8.26	-40.2	-41.5	20.5	0.00e+00	0	33	0	134217728	52	6789
2026-01-05 16:35:01.43	19.23	8.33	-40.0	-41.3	20.8	0.00e+00	0	33	0	136314880	52	6633
2026-01-05 16:35:02.44	19.15	8.41	-40.0	-41.3	20.7	0.00e+00	0	33	0	137363456	52	6626
2026-01-05 16:35:03.45	19.08	8.48	-40.1	-41.3	20.7	0.00e+00	0	33	0	139460608	52	6661
2026-01-05 16:35:04.46	19.00	8.55	-40.1	-41.4	20.7	0.00e+00	0	33	0	141557760	52	6720
2026-01-05 16:35:05.47	18.92	8.63	-40.2	-41.4	20.6	0.00e+00	0	33	0	143654912	52	6765
2026-01-05 16:35:06.48	18.84	8.70	-39.9	-41.1	20.9	0.00e+00	0	33	0	145752064	52	6508
2026-01-05 16:35:07.48	18.76	8.77	-39.8	-41.0	21.0	0.00e+00	0	33	0	146800640	52	6438
2026-01-05 16:35:08.49	18.68	8.85	-40.0	-41.2	20.9	0.00e+00	0	33	0	148897792	52	6561
2026-01-05 16:35:09.50	18.60	8.92	-39.9	-41.1	20.9	0.00e+00	0	33	0	150994944	52	6474
2026-01-05 16:35:10.51	18.52	8.99	-39.8	-41.0	21.1	0.00e+00	0	33	0	153092096	52	6426
2026-01-05 16:35:11.52	18.44	9.07	-39.7	-40.9	21.1	0.00e+00	0	33	0	155189248	52	6363
2026-01-05 16:35:12.53	18.36	9.14	-39.7	-40.9	21.2	0.00e+00	0	33	0	156237824	52	6332
2026-01-05 16:35:13.54	18.27	9.22	-39.7	-40.9	21.1	0.00e+00	0	33	0	158334976	52	6375
2026-01-05 16:35:14.55	18.19	9.29	-39.7	-40.8	21.1	0.00e+00	0	33	0	160432128	52	6315
2026-01-05 16:35:15.55	18.11	9.37	-39.6	-40.8	21.2	0.00e+00	0	33	0	162529280	52	6262
2026-01-05 16:35:16.56	18.03	9.44	-39.6	-40.8	21.3	0.00e+00	0	33	0	164626432	52	6293
2026-01-05 16:35:17.57	17.94	9.52	-39.6	-40.8	21.3	0.00e+00	0	33	0	165675008	52	6268
2026-01-05 16:35:18.58	17.86	9.59	-39.7	-40.9	21.2	0.00e+00	0	33	0	167772160	52	6334
2026-01-05 16:35:19.59	17.77	9.67	-39.5	-40.6	21.4	0.00e+00	0	33	0	169869312	52	6171
2026-01-05 16:35:20.60	17.69	9.75	-39.5	-40.7	21.3	0.00e+00	0	33	0	171966464	52	6184
2026-01-05 16:35:21.59	17.60	9.82	-39.7	-40.8	21.2	0.00e+00	0	33	0	174063616	52	6306
2026-01-05 16:35:22.60	17.52	9.90	-39.3	-40.5	21.6	0.00e+00	0	33	0	175112192	52	6040
2026-01-05 16:35:23.61	17.43	9.97	-39.3	-40.4	21.7	0.00e+00	0	33	0	177209344	52	5991
2026-01-05 16:35:24.62	17.34	10.05	-39.3	-40.4	21.7	0.00e+00	0	33	0	179306496	52	6013
2026-01-05 16:35:25.63	17.26	10.13	-39.2	-40.3	21.8	0.00e+00	0	33	0	181403648	52	5914
2026-01-05 16:35:26.64	17.17	10.20	-39.2	-40.2	21.8	0.00e+00	0	33	0	183500800	52	5891
2026-01-05 16:35:27.65	17.08	10.28	-39.1	-40.2	21.8	0.00e+00	0	33	0	185597952	52	5886
2026-01-05 16:35:28.66	16.99	10.36	-39.1	-40.2	22.0	0.00e+00	0	33	0	186646528	52	5836
2026-01-05 16:35:29.66	16.90	10.43	-39.0	-40.1	22.0	0.00e+00	0	33	0	188743680	52	5774
2026-01-05 16:35:30.67	16.81	10.51	-39.0	-40.1	22.0	0.00e+00	0	33	0	190840832	52	5799
2026-01-05 16:35:31.68	16.72	10.59	-38.8	-39.9	22.2	0.00e+00	0	33	0	192937984	52	5644
2026-01-05 16:35:32.69	16.63	10.67	-38.7	-39.8	22.3	0.00e+00	0	33	0	195035136	50	6252
2026-01-05 16:35:33.70	16.54	10.75	-38.7	-39.8	22.3	0.00e+00	0	33	0	196083712	50	6270
2026-01-05 16:35:34.71	16.45	10.82	-38.8	-39.8	22.1	0.00e+00	0	33	0	198180864	50	6299
2026-01-05 16:35:35.72	16.35	10.90	-38.9	-40.0	22.1	0.00e+00	0	33	0	200278016	50	6391
2026-01-05 16:35:36.73	16.26	10.98	-38.8	-39.8	22.3	0.00e+00	0	33	0	202375168	50	6284
2026-01-05 16:35:37.74	16.17	11.06	-38.7	-39.8	22.3	0.00e+00	0	33	0	204472320	50	6262
2026-01-05 16:35:38.75	16.07	11.14	-38.8	-39.8	22.3	0.00e+00	0	33	0	205520896	50	6287
2026-01-05 16:35:39.76	15.98	11.22	-38.8	-39.8	22.2	0.00e+00	0	33	0	207618048	50	6297
2026-01-05 16:35:40.77	15.88	11.30	-38.8	-39.8	22.2	0.00e+00	0	33	0	209715200	50	6303
2026-01-05 16:35:41.78	15.79	11.38	-38.9	-39.9	22.1	0.00e+00	0	33	0	211812352	50	6390
2026-01-05 16:35:42.79	15.69	11.46	-38.8	-39.9	22.2	0.00e+00	0	33	0	213909504	50	6347
2026-01-05 16:35:43.79	15.60	11.54	-38.9	-40.0	22.1	0.00e+00	0	33	0	214958080	50	6391
2026-01-05 16:35:44.80	15.50	11.62	-38.9	-39.9	22.2	0.00e+00	0	33	0	217055232	50	6357
2026-01-05 16:35:45.81	15.40	11.70	-38.8	-39.8	22.2	0.00e+00	0	33	0	219152384	50	6305
2026-01-05 16:35:46.82	15.30	11.78	-38.8	-39.8	22.3	0.00e+00	0	33	0	221249536	50	6303
2026-01-05 16:35:47.82	15.20	11.86	-38.9	-40.0	22.2	0.00e+00	0	33	0	223346688	50	6411
2026-01-05 16:35:48.83	15.10	11.94	-38.9	-40.0	22.1	0.00e+00	0	33	0	224395264	50	6411
2026-01-05 16:35:49.84	15.00	12.02	-38.9	-40.0	22.2	0.00e+00	0	33	0	226492416	50	6416
2026-01-05 16:35:50.85	14.90	12.10	-38.8	-39.8	22.3	0.00e+00	0	33	0	228589568	50	6311
2026-01-05 16:35:51.86	14.80	12.18	-38.7	-39.7	22.3	0.00e+00	0	33	0	230686720	50	6217
2026-01-05 16:35:52.87	14.70	12.26	-38.7	-39.7	22.4	0.00e+00	0	33	0	232783872	50	6233
2026-01-05 16:35:53.88	14.60	12.35	-38.8	-39.8	22.3	0.00e+00	0	33	0	233832448	50	6273
2026-01-05 16:35:54.89	14.49	12.43	-38.8	-39.8	22.2	0.00e+00	0	33	0	235929600	50	6300
2026-01-05 16:35:55.90	14.39	12.51	-38.7	-39.7	22.4	0.00e+00	0	33	0	238026752	50	6233
2026-01-05 16:35:56.91	14.29	12.59	-38.8	-39.8	22.1	0.00e+00	0	33	0	240123904	50	6316
2026-01-05 16:35:57.92	14.18	12.67	-38.7	-39.7	22.4	0.00e+00	0	33	0	242221056	50	6245
2026-01-05 16:35:58.93	14.08	12.76	-38.8	-39.8	22.3	0.00e+00	0	33	0	243269632	50	6279
2026-01-05 16:35:59.94	13.97	12.84	-38.7	-39.7	22.4	0.00e+00	0	33	0	245366784	50	6210
2026-01-05 16:36:00.95	13.86	12.92	-38.5	-39.5	22.5	0.00e+00	0	33	0	247463936	50	6074
2026-01-05 16:36:01.96	13.76	13.01	-38.6	-39.7	22.5	0.00e+00	0	33	0	249561088	50	6176
2026-01-05 16:36:02.97	13.65	13.09	-38.6	-39.6	22.5	0.00e+00	0	33	0	251658240	50	6132
2026-01-05 16:36:03.98	13.54	13.17	-38.5	-39.5	22.6	0.00e+00	0	33	0	252706816	50	6079
2026-01-05 16:36:04.99	13.43	13.26	-38.7	-39.7	22.4	0.00e+00	0	33	0	254803968	50	6180
2026-01-05 16:36:06.00	13.32	13.34	-38.7	-39.7	22.5	0.00e+00	0	33	0	256901120	50	6230
2026-01-05 16:36:07.00	13.21	13.42	-38.8	-39.8	22.4	0.00e+00	0	33	0	258998272	50	6284
2026-01-05 16:36:08.01	13.10	13.51	-38.7	-39.7	22.4	0.00e+00	0	33	0	261095424	50	6242
2026-01-05 16:36:09.02	12.99	13.59	-38.7	-39.7	22.5	0.00e+00	0	33	0	262144000	50	6192
2026-01-05 16:36:10.04	12.87	13.68	-38.7	-39.7	22.4	0.00e+00	0	33	0	264241152	50	6206
2026-01-05 16:36:11.04	12.76	13.76	-38.5	-39.5	22.6	0.00e+00	0	33	0	266338304	50	6085
2026-01-05 16:36:12.05	12.65	13.85	-38.6	-39.6	22.5	0.00e+00	0	33	0	268435456	50	6115
2026-01-05 16:36:13.06	12.53	13.93	-38.6	-39.6	22.5	0.00e+00	0	33	0	270532608	50	6123
2026-01-05 16:36:14.07	12.42	14.02	-38.5	-39.5	22.6	0.00e+00	0	33	0	271581184	50	6098
2026-01-05 16:36:15.08	12.30	14.10	-38.8	-39.8	22.5	0.00e+00	0	34	0	273678336	50	6262
2026-01-05 16:36:16.09	12.19	14.19	-38.8	-39.9	22.4	0.00e+00	0	33	0	275775488	50	6324
2026-01-05 16:36:17.10	12.07	14.27	-38.9	-40.0	22.3	0.00e+00	0	33	0	277872640	50	6392
2026-01-05 16:36:18.11	11.95	14.36	-38.8	-39.8	22.4	0.00e+00	0	33	0	279969792	50	6311
2026-01-05 16:36:19.12	11.83	14.45	-38.8	-39.8	22.5	0.00e+00	0	33	0	282066944	50	6306
2026-01-05 16:36:20.13	11.71	14.53	-38.6	-39.6	22.6	0.00e+00	0	33	0	283115520	50	6138
2026-01-05 16:36:21.14	11.59	14.62	-38.7	-39.7	22.5	0.00e+00	0	33	0	285212672	50	6229
2026-01-05 16:36:22.15	11.47	14.71	-38.8	-39.8	22.3	0.00e+00	0	33	0	287309824	50	6312
2026-01-05 16:36:23.15	11.35	14.79	-38.8	-39.8	22.4	0.00e+00	0	33	0	289406976	50	6287
2026-01-05 16:36:24.16	11.23	14.88	-38.7	-39.7	22.4	0.00e+00	0	33	0	291504128	50	6245
2026-01-05 16:36:25.17	11.11	14.97	-38.8	-39.9	22.3	0.00e+00	0	33	0	292552704	50	6324
2026-01-05 16:36:26.18	10.98	15.05	-38.8	-39.8	22.3	0.00e+00	0	33	0	294649856	50	6297
2026-01-05 16:36:27.19	10.86	15.14	-39.0	-40.0	22.0	0.00e+00	0	33	0	296747008	50	6434
2026-01-05 16:36:28.20	10.73	15.23	-38.8	-39.8	22.2	0.00e+00	0	33	0	298844160	50	6301
2026-01-05 16:36:29.21	10.61	15.32	-38.9	-39.9	22.4	0.00e+00	0	33	0	300941312	50	6356
2026-01-05 16:36:30.22	10.48	15.41	-38.6	-39.6	22.6	0.00e+00	0	33	0	301989888	50	6121
2026-01-05 16:36:31.23	10.35	15.49	-38.7	-39.7	22.5	0.00e+00	0	33	0	304087040	50	6229
2026-01-05 16:36:32.24	10.22	15.58	-38.8	-39.8	22.5	0.00e+00	0	33	0	306184192	50	6260
2026-01-05 16:36:33.25	10.09	15.67	-38.6	-39.6	22.6	0.00e+00	0	33	0	308281344	50	6121
2026-01-05 16:36:34.26	9.96	15.76	-38.7	-39.7	22.5	0.00e+00	0	33	0	310378496	50	6189
2026-01-05 16:36:35.27	9.83	15.85	-38.6	-39.6	22.5	0.00e+00	0	33	0	311427072	50	6146
2026-01-05 16:36:36.28	9.70	15.94	-38.6	-39.6	22.7	0.00e+00	0	33	0	313524224	50	6115
2026-01-05 16:36:37.29	9.57	16.03	-38.7	-39.7	22.5	0.00e+00	0	33	0	315621376	50	6239
2026-01-05 16:36:38.30	9.44	16.12	-38.7	-39.7	22.5	0.00e+00	0	34	0	317718528	50	6216
2026-01-05 16:36:39.31	9.30	16.21	-38.8	-39.8	22.5	0.00e+00	0	33	0	319815680	50	6295
2026-01-05 16:36:40.32	9.17	16.30	-38.9	-40.0	22.3	0.00e+00	0	33	0	320864256	50	6401
2026-01-05 16:36:41.32	9.03	16.39	-38.8	-39.8	22.5	0.00e+00	0	33	0	322961408	50	6295
2026-01-05 16:36:42.34	8.90	16.48	-38.8	-39.9	22.4	0.00e+00	0	33	0	325058560	50	6331
2026-01-05 16:36:43.35	8.76	16.57	-38.9	-39.9	22.3	0.00e+00	0	33	0	327155712	50	6371
2026-01-05 16:36:44.36	8.62	16.66	-38.9	-40.0	22.3	0.00e+00	0	33	0	329252864	50	6395
2026-01-05 16:36:45.36	8.48	16.75	-38.7	-39.7	22.5	0.00e+00	0	33	0	330301440	50	6245
2026-01-05 16:36:46.37	8.34	16.84	-38.9	-39.9	22.3	0.00e+00	0	33	0	332398592	50	6354
2026-01-05 16:36:47.38	8.20	16.93	-38.9	-39.9	22.3	0.00e+00	0	33	0	334495744	50	6351
2026-01-05 16:36:48.39	8.06	17.02	-39.0	-40.1	22.2	0.00e+00	0	33	0	336592896	50	6482
2026-01-05 16:36:49.40	7.92	17.11	-38.9	-40.0	22.3	0.00e+00	0	33	0	338690048	50	6408
2026-01-05 16:36:50.41	7.77	17.20	-38.9	-39.9	22.3	0.00e+00	0	33	0	339738624	50	6379
2026-01-05 16:36:51.42	7.63	17.30	-38.8	-39.8	22.4	0.00e+00	0	33	0	341835776	50	6281
2026-01-05 16:36:52.43	7.48	17.39	-38.8	-39.8	22.4	0.00e+00	0	34	0	343932928	50	6312
2026-01-05 16:36:53.44	7.34	17.48	-38.7	-39.7	22.5	0.00e+00	0	33	0	346030080	50	6199
2026-01-05 16:36:54.45	7.19	17.57	-38.9	-39.9	22.5	0.00e+00	0	33	0	348127232	50	6356
2026-01-05 16:36:55.46	7.04	17.66	-38.7	-39.6	22.5	0.00e+00	0	33	0	350224384	50	6167
2026-01-05 16:36:56.47	6.89	17.76	-38.8	-39.8	22.5	0.00e+00	0	33	0	351272960	50	6302
2026-01-05 16:36:57.48	6.74	17.85	-38.9	-39.9	22.4	0.00e+00	0	33	0	353370112	50	6335
2026-01-05 16:36:58.49	6.59	17.94	-38.9	-39.9	22.5	0.00e+00	0	33	0	355467264	50	6366
2026-01-05 16:36:59.50	6.44	18.04	-38.5	-39.4	22.8	0.00e+00	0	33	0	357564416	50	6029
2026-01-05 16:37:00.51	6.29	18.13	-38.4	-39.4	22.9	0.00e+00	0	33	0	359661568	50	5977
2026-01-05 16:37:01.52	6.14	18.22	-38.2	-39.2	23.1	0.00e+00	0	33	0	360710144	50	5841
2026-01-05 16:37:02.53	5.98	18.31	-38.2	-39.2	23.1	0.00e+00	0	33	0	362807296	50	5853
2026-01-05 16:37:03.54	5.83	18.41	-38.3	-39.2	23.0	0.00e+00	0	33	0	364904448	50	5887
2026-01-05 16:37:04.55	5.67	18.50	-38.2	-39.1	23.1	0.00e+00	0	33	0	367001600	50	5788
2026-01-05 16:37:05.55	5.51	18.59	-38.1	-39.1	23.2	0.00e+00	0	34	0	369098752	50	5777
2026-01-05 16:37:06.56	5.36	18.69	-38.0	-38.9	23.3	0.00e+00	0	33	0	370147328	50	5679
2026-01-05 16:37:07.57	5.20	18.78	-38.0	-39.0	23.2	0.00e+00	0	33	0	372244480	50	5707
2026-01-05 16:37:08.58	5.04	18.88	-38.1	-39.1	23.2	0.00e+00	0	34	0	374341632	50	5784
2026-01-05 16:37:09.58	4.88	18.97	-38.2	-39.2	23.0	0.00e+00	0	33	0	376438784	50	5861
2026-01-05 16:37:10.59	4.71	19.06	-38.1	-39.1	23.0	0.00e+00	0	34	0	378535936	50	5764
2026-01-05 16:37:11.60	4.55	19.16	-38.1	-39.0	22.4	0.00e+00	0	33	0	379584512	50	5743
2026-01-05 16:37:12.61	4.38	19.25	-38.2	-39.2	23.1	0.00e+00	0	34	0	381681664	50	5832
2026-01-05 16:37:13.62	4.22	19.35	-38.1	-39.0	23.1	0.00e+00	0	33	0	383778816	50	5725
2026-01-05 16:37:14.63	4.05	19.44	-38.1	-39.0	23.2	0.00e+00	0	33	0	385875968	50	5732
2026-01-05 16:37:15.64	3.89	19.54	-38.0	-38.9	23.4	0.00e+00	0	33	0	387973120	50	5648
2026-01-05 16:37:16.65	3.72	19.63	-37.9	-38.9	23.4	0.00e+00	0	33	0	389021696	50	5634
2026-01-05 16:37:17.66	3.55	19.73	-38.0	-38.9	23.5	0.00e+00	0	33	0	391118848	50	5667
2026-01-05 16:37:18.67	3.38	19.82	-37.8	-38.7	23.5	0.00e+00	0	33	0	393216000	50	5543
2026-01-05 16:37:19.68	3.20	19.92	-37.9	-38.8	23.5	0.00e+00	0	34	0	395313152	50	5597
2026-01-05 16:37:20.69	3.03	20.01	-37.9	-38.8	23.4	0.00e+00	0	34	0	397410304	50	5607
2026-01-05 16:37:21.70	2.86	20.11	-37.9	-38.9	23.3	0.00e+00	0	34	0	398458880	50	5643
2026-01-05 16:37:22.71	2.68	20.20	-38.0	-38.9	23.4	0.00e+00	0	33	0	400556032	50	5691
2026-01-05 16:37:23.72	2.50	20.30	-38.0	-38.9	23.4	0.00e+00	0	33	0	402653184	50	5682
2026-01-05 16:37:24.73	2.33	20.39	-38.0	-38.9	23.4	0.00e+00	0	33	0	404750336	50	5649
2026-01-05 16:37:25.74	2.15	20.49	-37.8	-38.7	23.6	0.00e+00	0	33	0	406847488	50	5518
2026-01-05 16:37:26.75	1.97	20.59	-37.8	-38.7	23.5	0.00e+00	0	33	0	407896064	50	5551
2026-01-05 16:37:27.76	1.79	20.68	-37.9	-38.8	23.4	0.00e+00	0	34	0	409993216	50	5578
2026-01-05 16:37:28.77	1.61	20.78	-38.1	-39.0	23.2	0.00e+00	0	34	0	412090368	50	5716
2026-01-05 16:37:29.78	1.42	20.87	-38.1	-39.0	23.3	0.00e+00	0	33	0	414187520	50	5728
2026-01-05 16:37:30.79	1.24	20.97	-38.2	-39.1	23.2	0.00e+00	0	33	0	416284672	50	5796
2026-01-05 16:37:31.79	1.05	21.06	-38.3	-39.2	23.2	0.00e+00	0	34	0	418381824	50	5856
2026-01-05 16:37:32.80	0.87	21.16	-38.4	-39.4	22.9	0.00e+00	0	33	0	419430400	50	5980
2026-01-05 16:37:33.81	0.68	21.26	-38.5	-39.5	22.8	0.00e+00	0	34	0	421527552	50	6035
2026-01-05 16:37:34.82	0.49	21.35	-38.4	-39.4	23.0	0.00e+00	0	34	0	423624704	50	5982
2026-01-05 16:37:35.83	0.30	21.45	-38.4	-39.4	23.0	0.00e+00	0	33	0	425721856	50	6007
2026-01-05 16:37:36.84	0.11	21.54	-38.4	-39.3	23.0	0.00e+00	0	34	0	427819008	50	5956
2026-01-05 16:37:37.85	359.92	21.64	-38.4	-39.4	23.0	0.00e+00	0	33	0	428867584	50	5981
2026-01-05 16:37:38.86	359.72	21.74	-38.4	-39.3	22.9	0.00e+00	0	34	0	430964736	50	5960
2026-01-05 16:37:39.87	359.53	21.83	-38.6	-39.6	22.7	0.00e+00	0	34	0	433061888	50	6140
2026-01-05 16:37:40.88	359.33	21.93	-38.7	-39.7	22.7	0.00e+00	0	33	0	435159040	50	6203
2026-01-05 16:37:41.89	359.13	22.03	-38.7	-39.7	22.6	0.00e+00	0	33	0	437256192	50	6219
2026-01-05 16:37:42.90	358.93	22.12	-38.6	-39.6	22.8	0.00e+00	0	34	0	438304768	50	6133
2026-01-05 16:37:43.91	358.73	22.22	-38.5	-39.4	22.9	0.00e+00	0	33	0	440401920	50	6030
2026-01-05 16:37:44.91	358.53	22.31	-38.3	-39.3	23.0	0.00e+00	0	33	0	442499072	50	5905
2026-01-05 16:37:45.92	358.33	22.41	-38.3	-39.3	23.0	0.00e+00	0	33	0	444596224	50	5930
2026-01-05 16:37:46.93	358.13	22.51	-38.4	-39.3	22.9	0.00e+00	0	34	0	446693376	50	5932
2026-01-05 16:37:47.94	357.92	22.60	-38.3	-39.2	23.1	0.00e+00	0	34	0	447741952	50	5885
2026-01-05 16:37:48.95	357.72	22.70	-38.3	-39.3	23.0	0.00e+00	0	34	0	449839104	50	5897
2026-01-05 16:37:49.96	357.51	22.79	-38.1	-39.0	23.2	0.00e+00	0	34	0	451936256	50	5750
2026-01-05 16:37:50.97	357.30	22.89	-38.0	-39.0	23.3	0.00e+00	0	33	0	454033408	50	5709
2026-01-05 16:37:51.98	357.09	22.99	-38.0	-39.0	23.3	0.00e+00	0	34	0	456130560	50	5713
2026-01-05 16:37:52.99	356.88	23.08	-38.0	-38.9	23.4	0.00e+00	0	34	0	457179136	50	5664
2026-01-05 16:37:54.00	356.66	23.18	-38.1	-39.0	23.1	0.00e+00	0	34	0	459276288	50	5746
2026-01-05 16:37:55.01	356.45	23.27	-37.7	-38.6	23.6	0.00e+00	0	33	0	461373440	50	5476
2026-01-05 16:37:56.02	356.23	23.37	-37.9	-38.8	23.4	0.00e+00	0	34	0	463470592	48	6279
2026-01-05 16:37:57.03	356.02	23.46	-37.9	-38.8	23.5	0.00e+00	0	34	0	465567744	48	6259
2026-01-05 16:37:58.03	355.80	23.56	-37.6	-38.5	23.6	0.00e+00	0	34	0	466616320	48	6078
2026-01-05 16:37:59.04	355.58	23.65	-37.5	-38.4	23.8	0.00e+00	0	34	0	468713472	48	5987
2026-01-05 16:38:00.06	355.36	23.75	-37.6	-38.5	23.6	0.00e+00	0	34	0	470810624	48	6059
2026-01-05 16:38:01.06	355.14	23.84	-37.6	-38.4	23.7	0.00e+00	0	34	0	472907776	48	6021
2026-01-05 16:38:02.07	354.91	23.94	-37.4	-38.3	23.9	0.00e+00	0	34	0	475004928	48	5912
2026-01-05 16:38:03.08	354.69	24.03	-37.4	-38.3	23.9	0.00e+00	0	34	0	476053504	48	5903
2026-01-05 16:38:04.09	354.46	24.13	-37.0	-37.9	24.3	0.00e+00	0	34	0	478150656	48	5635
2026-01-05 16:38:05.10	354.23	24.22	-37.0	-37.9	24.2	0.00e+00	0	34	0	480247808	48	5639
2026-01-05 16:38:06.11	354.00	24.32	-36.9	-37.7	24.3	0.00e+00	0	33	0	482344960	48	5563
2026-01-05 16:38:07.12	353.77	24.41	-37.0	-37.8	24.3	0.00e+00	0	33	0	484442112	48	5620
2026-01-05 16:38:08.13	353.54	24.51	-37.0	-37.8	24.3	0.00e+00	0	33	0	485490688	48	5619
2026-01-05 16:38:09.14	353.31	24.60	-37.1	-38.0	24.1	0.00e+00	0	33	0	487587840	48	5705
2026-01-05 16:38:10.15	353.07	24.69	-37.2	-38.0	24.1	0.00e+00	0	34	0	489684992	48	5733
2026-01-05 16:38:11.16	352.83	24.79	-37.2	-38.1	24.1	0.00e+00	0	34	0	491782144	48	5785
2026-01-05 16:38:12.17	352.60	24.88	-37.1	-38.0	24.1	0.00e+00	0	33	0	493879296	48	5733
2026-01-05 16:38:13.18	352.36	24.97	-37.3	-38.2	24.0	0.00e+00	0	34	0	494927872	48	5859
2026-01-05 16:38:14.19	352.12	25.07	-37.4	-38.3	24.0	0.00e+00	0	34	0	497025024	48	5911
2026-01-05 16:38:15.19	351.88	25.16	-37.1	-37.9	24.2	0.00e+00	0	34	0	499122176	48	5695
2026-01-05 16:38:16.20	351.63	25.25	-37.2	-38.0	24.2	0.00e+00	0	33	0	501219328	48	5748
2026-01-05 16:38:17.21	351.39	25.34	-37.1	-38.0	24.2	0.00e+00	0	34	0	503316480	48	5700
2026-01-05 16:38:18.22	351.14	25.43	-37.1	-38.0	24.2	0.00e+00	0	33	0	504365056	48	5723
2026-01-05 16:38:19.23	350.89	25.53	-37.1	-37.9	24.3	0.00e+00	0	34	0	506462208	48	5675
2026-01-05 16:38:20.24	350.64	25.62	-37.0	-37.9	24.4	0.00e+00	0	34	0	508559360	48	5643
2026-01-05 16:38:21.25	350.39	25.71	-37.1	-37.9	24.2	0.00e+00	0	33	0	510656512	48	5685
2026-01-05 16:38:22.26	350.14	25.80	-37.1	-37.9	24.3	0.00e+00	0	34	0	512753664	48	5657
2026-01-05 16:38:23.27	349.89	25.89	-37.1	-37.9	24.2	0.00e+00	0	34	0	514850816	48	5693
2026-01-05 16:38:24.28	349.63	25.98	-37.1	-38.0	24.2	0.00e+00	0	33	0	515899392	48	5708
2026-01-05 16:38:25.29	349.37	26.07	-37.1	-37.9	24.3	0.00e+00	0	34	0	517996544	48	5670
2026-01-05 16:38:26.30	349.12	26.16	-37.2	-38.1	24.2	0.00e+00	0	34	0	520093696	48	5771
2026-01-05 16:38:27.30	348.86	26.25	-37.4	-38.2	24.0	0.00e+00	0	33	0	522190848	48	5879
2026-01-05 16:38:28.31	348.60	26.33	-37.6	-38.4	23.9	0.00e+00	0	34	0	524288000	48	6016
2026-01-05 16:38:29.32	348.34	26.42	-37.6	-38.5	23.9	0.00e+00	0	34	0	525336576	48	6060
2026-01-05 16:38:30.33	348.07	26.51	-37.9	-38.8	23.5	0.00e+00	0	34	0	527433728	48	6283
2026-01-05 16:38:31.34	347.81	26.60	-38.0	-38.9	23.4	0.00e+00	0	33	0	529530880	48	6356
2026-01-05 16:38:32.35	347.54	26.69	-38.1	-39.0	23.3	0.00e+00	0	34	0	531628032	48	6448
2026-01-05 16:38:33.36	347.27	26.77	-38.3	-39.3	23.1	0.00e+00	0	34	0	533725184	48	6639
2026-01-05 16:38:34.37	347.00	26.86	-38.1	-39.0	23.0	0.00e+00	0	33	0	534773760	48	6431
2026-01-05 16:38:35.38	346.73	26.94	-38.1	-39.1	23.2	0.00e+00	0	33	0	536870912	48	6475
2026-01-05 16:38:36.39	346.46	27.03	-38.3	-39.3	23.1	0.00e+00	0	33	0	538968064	48	6647
2026-01-05 16:38:37.40	346.18	27.11	-38.5	-39.4	22.9	0.00e+00	0	33	0	541065216	48	6747
2026-01-05 16:38:38.41	345.90	27.20	-38.4	-39.4	23.0	0.00e+00	0	34	0	543162368	48	6710
2026-01-05 16:38:39.42	345.63	27.28	-38.5	-39.4	22.9	0.00e+00	0	34	0	544210944	48	6764
2026-01-05 16:38:40.42	345.35	27.37	-38.7	-39.7	22.7	0.00e+00	0	34	0	546308096	48	6963
2026-01-05 16:38:41.43	345.07	27.45	-38.8	-39.8	22.6	0.00e+00	0	34	0	548405248	48	7026
2026-01-05 16:38:42.44	344.79	27.53	-38.9	-39.9	22.6	0.00e+00	0	34	0	550502400	50	6368
2026-01-05 16:38:43.45	344.51	27.61	-39.0	-40.0	22.6	0.00e+00	0	34	0	552599552	50	6399
2026-01-05 16:38:44.46	344.22	27.69	-39.0	-40.0	22.3	0.00e+00	0	34	0	553648128	50	6444
2026-01-05 16:38:45.46	343.94	27.78	-39.1	-40.1	22.3	0.00e+00	0	34	0	555745280	50	6518
2026-01-05 16:38:46.47	343.65	27.86	-38.9	-40.0	22.5	0.00e+00	0	33	0	557842432	50	6396
2026-01-05 16:38:47.48	343.36	27.94	-39.0	-40.1	22.4	0.00e+00	0	33	0	559939584	50	6465
2026-01-05 16:38:48.49	343.07	28.01	-39.1	-40.1	22.4	0.00e+00	0	33	0	562036736	50	6496
2026-01-05 16:38:49.50	342.78	28.09	-39.2	-40.2	22.3	0.00e+00	0	34	0	563085312	50	6593
2026-01-05 16:38:50.51	342.48	28.17	-39.2	-40.3	22.3	0.00e+00	0	34	0	565182464	50	6619
2026-01-05 16:38:51.52	342.19	28.25	-39.3	-40.3	22.1	0.00e+00	0	33	0	567279616	50	6665
2026-01-05 16:38:52.52	341.90	28.32	-39.3	-40.3	22.2	0.00e+00	0	34	0	569376768	50	6660
2026-01-05 16:38:53.54	341.60	28.40	-39.4	-40.5	22.0	0.00e+00	0	34	0	571473920	50	6782
2026-01-05 16:38:54.54	341.30	28.48	-39.4	-40.5	22.1	0.00e+00	0	33	0	572522496	50	6778
2026-01-05 16:38:55.55	341.00	28.55	-39.2	-40.2	22.2	0.00e+00	0	33	0	574619648	50	6614
2026-01-05 16:38:56.56	340.70	28.62	-39.1	-40.1	22.3	0.00e+00	0	33	0	576716800	50	6530
2026-01-05 16:38:57.57	340.39	28.70	-39.0	-40.0	22.6	0.00e+00	0	33	0	578813952	50	6411
2026-01-05 16:38:58.58	340.09	28.77	-38.8	-39.8	22.7	0.00e+00	0	33	0	580911104	50	6310
2026-01-05 16:38:59.59	339.78	28.84	-38.8	-39.8	22.7	0.00e+00	0	34	0	583008256	50	6261
2026-01-05 16:39:00.60	339.47	28.91	-38.6	-39.6	22.9	0.00e+00	0	33	0	584056832	50	6109
2026-01-05 16:39:01.61	339.16	28.98	-38.6	-39.6	22.7	0.00e+00	0	33	0	586153984	50	6134
2026-01-05 16:39:02.62	338.85	29.05	-38.8	-39.8	22.6	0.00e+00	0	34	0	588251136	50	6289
2026-01-05 16:39:03.63	338.54	29.12	-38.8	-39.7	22.6	0.00e+00	0	34	0	590348288	50	6237
2026-01-05 16:39:04.64	338.23	29.19	-38.7	-39.7	22.6	0.00e+00	0	33	0	592445440	50	6191
2026-01-05 16:39:05.64	337.92	29.26	-38.5	-39.5	22.9	0.00e+00	0	33	0	593494016	50	6055
2026-01-05 16:39:06.66	337.60	29.32	-38.5	-39.4	23.0	0.00e+00	0	33	0	595591168	50	6012
2026-01-05 16:39:07.66	337.29	29.39	-38.4	-39.3	23.1	0.00e+00	0	33	0	597688320	50	5949
2026-01-05 16:39:08.67	336.97	29.45	-38.4	-39.4	23.0	0.00e+00	0	33	0	599785472	50	5979
2026-01-05 16:39:09.68	336.65	29.52	-38.6	-39.6	22.9	0.00e+00	0	33	0	601882624	50	6127
2026-01-05 16:39:10.69	336.33	29.58	-38.8	-39.8	22.7	0.00e+00	0	33	0	602931200	50	6273
2026-01-05 16:39:11.70	336.00	29.64	-39.0	-40.0	22.5	0.00e+00	0	34	0	605028352	50	6456
2026-01-05 16:39:12.71	335.68	29.70	-38.8	-39.8	22.7	0.00e+00	0	33	0	607125504	50	6246
2026-01-05 16:39:13.72	335.36	29.76	-38.7	-39.6	22.8	0.00e+00	0	33	0	609222656	50	6171
2026-01-05 16:39:14.73	335.03	29.82	-38.6	-39.6	22.7	0.00e+00	0	33	0	611319808	50	6150
2026-01-05 16:39:15.74	334.70	29.88	-38.9	-39.9	22.6	0.00e+00	0	33	0	612368384	50	6360
2026-01-05 16:39:16.75	334.38	29.94	-38.9	-39.9	22.6	0.00e+00	0	34	0	614465536	50	6339
2026-01-05 16:39:17.76	334.05	30.00	-38.9	-39.9	22.5	0.00e+00	0	33	0	616562688	50	6351
2026-01-05 16:39:18.77	333.72	30.05	-39.0	-40.0	22.5	0.00e+00	0	33	0	618659840	50	6451
2026-01-05 16:39:19.78	333.38	30.11	-38.9	-39.9	22.5	0.00e+00	0	33	0	620756992	50	6381
2026-01-05 16:39:20.78	333.05	30.16	-39.0	-40.0	22.4	0.00e+00	0	33	0	621805568	50	6446
2026-01-05 16:39:21.79	332.72	30.21	-39.1	-40.1	22.1	0.00e+00	0	33	0	623902720	50	6496
2026-01-05 16:39:22.80	332.39	30.26	-39.3	-40.3	22.1	0.00e+00	0	33	0	625999872	50	6663
2026-01-05 16:39:23.81	332.05	30.32	-39.2	-40.2	22.3	0.00e+00	0	33	0	628097024	50	6579
2026-01-05 16:39:24.82	331.71	30.37	-39.4	-40.5	22.0	0.00e+00	0	33	0	630194176	50	6803
2026-01-05 16:39:25.83	331.37	30.41	-39.4	-40.5	22.1	0.00e+00	0	33	0	631242752	50	6785
2026-01-05 16:39:26.84	331.03	30.46	-39.6	-40.7	21.9	0.00e+00	0	33	0	633339904	50	6968
2026-01-05 16:39:27.84	330.70	30.51	-39.7	-40.8	21.8	0.00e+00	0	33	0	635437056	50	7011
2026-01-05 16:39:28.85	330.36	30.55	-39.6	-40.7	21.9	0.00e+00	0	33	0	637534208	50	6964
2026-01-05 16:39:29.86	330.01	30.60	-39.4	-40.4	22.1	0.00e+00	0	34	0	639631360	50	6752
2026-01-05 16:39:30.87	329.67	30.64	-38.9	-39.9	22.5	0.00e+00	0	33	0	640679936	50	6364
2026-01-05 16:39:31.88	329.33	30.68	-38.9	-39.9	22.6	0.00e+00	0	34	0	642777088	50	6382
2026-01-05 16:39:32.89	328.98	30.72	-38.6	-39.6	22.9	0.00e+00	0	33	0	644874240	50	6141
2026-01-05 16:39:33.90	328.64	30.77	-38.8	-39.8	22.7	0.00e+00	0	33	0	646971392	50	6283
2026-01-05 16:39:34.91	328.29	30.80	-38.9	-39.9	22.6	0.00e+00	0	33	0	649068544	50	6334
2026-01-05 16:39:35.92	327.94	30.84	-38.9	-39.9	22.6	0.00e+00	0	33	0	650117120	50	6330
2026-01-05 16:39:36.93	327.59	30.88	-38.8	-39.8	22.7	0.00e+00	0	33	0	652214272	50	6267
2026-01-05 16:39:37.94	327.24	30.91	-38.8	-39.8	22.6	0.00e+00	0	33	0	654311424	50	6278
2026-01-05 16:39:38.94	326.90	30.95	-38.8	-39.8	22.8	0.00e+00	0	33	0	656408576	50	6291
2026-01-05 16:39:39.95	326.55	30.98	-38.5	-39.5	23.0	0.00e+00	0	34	0	658505728	50	6055
2026-01-05 16:39:40.96	326.20	31.01	-38.5	-39.5	23.0	0.00e+00	0	33	0	659554304	50	6063
2026-01-05 16:39:41.97	325.84	31.04	-38.7	-39.7	22.8	0.00e+00	0	33	0	661651456	50	6190
2026-01-05 16:39:42.98	325.49	31.07	-38.9	-39.9	22.6	0.00e+00	0	33	0	663748608	50	6359
2026-01-05 16:39:43.99	325.14	31.10	-38.6	-39.5	22.9	0.00e+00	0	33	0	665845760	50	6082
2026-01-05 16:39:45.00	324.78	31.13	-38.7	-39.7	22.8	0.00e+00	0	33	0	667942912	50	6210
2026-01-05 16:39:46.01	324.43	31.16	-38.6	-39.5	22.8	0.00e+00	0	33	0	668991488	50	6099
2026-01-05 16:39:47.02	324.07	31.18	-38.9	-39.9	22.6	0.00e+00	0	33	0	671088640	50	6338
2026-01-05 16:39:48.03	323.72	31.20	-39.0	-40.0	22.5	0.00e+00	0	33	0	673185792	50	6404
2026-01-05 16:39:49.04	323.36	31.23	-39.1	-40.1	22.4	0.00e+00	0	33	0	675282944	50	6521
2026-01-05 16:39:50.05	323.00	31.25	-39.2	-40.3	22.3	0.00e+00	0	33	0	677380096	50	6617
2026-01-05 16:39:51.06	322.65	31.27	-39.4	-40.4	22.2	0.00e+00	0	33	0	679477248	50	6740
2026-01-05 16:39:52.07	322.29	31.29	-39.3	-40.3	22.2	0.00e+00	0	33	0	680525824	50	6685
2026-01-05 16:39:53.08	321.93	31.30	-39.3	-40.4	22.2	0.00e+00	0	33	0	682622976	50	6700
2026-01-05 16:39:54.09	321.57	31.32	-39.5	-40.5	22.1	0.00e+00	0	33	0	684720128	50	6806
2026-01-05 16:39:55.10	321.21	31.33	-39.3	-40.3	22.4	0.00e+00	0	33	0	686817280	50	6651
2026-01-05 16:39:56.11	320.86	31.35	-39.4	-40.4	22.1	0.00e+00	0	33	0	688914432	50	6757
2026-01-05 16:39:57.12	320.50	31.36	-39.6	-40.7	21.8	0.00e+00	0	33	0	689963008	50	6981
2026-01-05 16:39:58.13	320.14	31.37	-39.9	-41.1	21.6	0.00e+00	0	33	0	692060160	52	6471
2026-01-05 16:39:59.14	319.78	31.38	-40.1	-41.3	21.3	0.00e+00	0	33	0	694157312	52	6647
2026-01-05 16:40:00.15	319.42	31.39	-40.2	-41.4	21.2	0.00e+00	0	33	0	696254464	52	6738
2026-01-05 16:40:01.16	319.06	31.40	-40.3	-41.5	21.2	0.00e+00	0	33	0	698351616	52	6809
2026-01-05 16:40:02.17	318.70	31.40	-40.2	-41.4	21.1	0.00e+00	0	33	0	699400192	52	6696
2026-01-05 16:40:03.18	318.34	31.41	-40.0	-41.2	21.5	0.00e+00	0	34	0	701497344	52	6563
2026-01-05 16:40:04.19	317.98	31.41	-40.1	-41.3	21.4	0.00e+00	0	33	0	703594496	52	6625
2026-01-05 16:40:05.20	317.61	31.41	-39.8	-40.9	21.8	0.00e+00	0	33	0	705691648	52	6318
2026-01-05 16:40:06.21	317.25	31.41	-39.9	-41.1	21.6	0.00e+00	0	33	0	707788800	52	6479
2026-01-05 16:40:07.21	316.90	31.41	-40.0	-41.1	21.5	0.00e+00	0	33	0	708837376	52	6537
2026-01-05 16:40:08.22	316.54	31.41	-40.1	-41.2	21.4	0.00e+00	0	33	0	710934528	52	6601
2026-01-05 16:40:09.23	316.18	31.41	-40.3	-41.4	21.3	0.00e+00	0	33	0	713031680	52	6741
2026-01-05 16:40:10.24	315.81	31.40	-40.1	-41.3	21.0	0.00e+00	0	33	0	715128832	52	6617
2026-01-05 16:40:11.25	315.45	31.40	-39.9	-41.1	21.5	0.00e+00	0	33	0	717225984	52	6472
2026-01-05 16:40:12.26	315.09	31.39	-39.8	-40.9	21.6	0.00e+00	0	33	0	718274560	52	6346
2026-01-05 16:40:13.27	314.73	31.38	-39.6	-40.6	22.0	0.00e+00	0	33	0	720371712	52	6154
2026-01-05 16:40:14.28	314.37	31.37	-39.3	-40.4	22.2	0.00e+00	0	34	0	722468864	52	5973
2026-01-05 16:40:15.29	314.01	31.36	-39.1	-40.1	22.6	0.00e+00	0	33	0	724566016	52	5772
2026-01-05 16:40:16.30	313.65	31.35	-39.0	-40.0	22.5	0.00e+00	0	33	0	726663168	52	5722
2026-01-05 16:40:17.30	313.30	31.34	-39.2	-40.2	22.4	0.00e+00	0	33	0	727711744	52	5840
2026-01-05 16:40:18.32	312.94	31.32	-39.3	-40.3	22.3	0.00e+00	0	33	0	729808896	52	5939
2026-01-05 16:40:19.32	312.58	31.31	-39.2	-40.3	22.2	0.00e+00	0	33	0	731906048	52	5908
2026-01-05 16:40:20.33	312.22	31.29	-39.3	-40.4	22.1	0.00e+00	0	33	0	734003200	52	5988
2026-01-05 16:40:21.34	311.86	31.27	-39.5	-40.5	22.0	0.00e+00	0	33	0	736100352	52	6090
2026-01-05 16:40:22.35	311.51	31.25	-39.5	-40.6	22.1	0.00e+00	0	33	0	737148928	52	6150
2026-01-05 16:40:23.36	311.15	31.23	-39.3	-40.3	22.3	0.00e+00	0	33	0	739246080	52	5908
2026-01-05 16:40:24.37	310.79	31.21	-39.1	-40.1	22.5	0.00e+00	0	33	0	741343232	52	5764
2026-01-05 16:40:25.38	310.44	31.19	-38.9	-39.8	22.7	0.00e+00	0	33	0	743440384	52	5619
2026-01-05 16:40:26.39	310.08	31.16	-38.9	-39.9	22.6	0.00e+00	0	33	0	745537536	52	5662
2026-01-05 16:40:27.40	309.73	31.14	-39.1	-40.1	22.5	0.00e+00	0	33	0	747634688	52	5788
2026-01-05 16:40:28.41	309.37	31.11	-39.3	-40.3	22.3	0.00e+00	0	33	0	748683264	52	5956
2026-01-05 16:40:29.42	309.02	31.08	-39.4	-40.5	22.1	0.00e+00	0	33	0	750780416	52	6056
2026-01-05 16:40:30.43	308.67	31.05	-39.6	-40.7	22.0	0.00e+00	0	33	0	752877568	52	6212
2026-01-05 16:40:31.44	308.31	31.02	-39.6	-40.7	21.9	0.00e+00	0	33	0	754974720	52	6184
2026-01-05 16:40:32.45	307.96	30.99	-39.7	-40.8	21.9	0.00e+00	0	33	0	757071872	52	6303
2026-01-05 16:40:33.45	307.61	30.96	-39.3	-40.4	22.2	0.00e+00	0	33	0	758120448	52	5999
2026-01-05 16:40:34.46	307.26	30.93	-39.4	-40.5	22.1	0.00e+00	0	33	0	760217600	52	6041
2026-01-05 16:40:35.47	306.91	30.89	-39.3	-40.4	22.2	0.00e+00	0	33	0	762314752	52	5992
2026-01-05 16:40:36.48	306.56	30.85	-39.2	-40.3	22.2	0.00e+00	0	33	0	764411904	52	5909
2026-01-05 16:40:37.49	306.22	30.82	-39.0	-40.0	22.6	0.00e+00	0	33	0	766509056	52	5749
2026-01-05 16:40:38.50	305.87	30.78	-39.0	-40.0	22.6	0.00e+00	0	33	0	767557632	52	5744
2026-01-05 16:40:39.51	305.52	30.74	-39.2	-40.2	22.5	0.00e+00	0	33	0	769654784	52	5893
2026-01-05 16:40:40.52	305.18	30.70	-39.1	-40.1	22.4	0.00e+00	0	34	0	771751936	52	5794
2026-01-05 16:40:41.53	304.83	30.66	-39.2	-40.2	22.4	0.00e+00	0	34	0	773849088	52	5856
2026-01-05 16:40:42.54	304.49	30.61	-39.4	-40.4	22.2	0.00e+00	0	34	0	775946240	52	6023
2026-01-05 16:40:43.55	304.15	30.57	-39.5	-40.6	22.0	0.00e+00	0	34	0	776994816	52	6162
2026-01-05 16:40:44.56	303.80	30.52	-39.4	-40.4	22.2	0.00e+00	0	33	0	779091968	52	6012
2026-01-05 16:40:45.57	303.46	30.48	-39.2	-40.2	22.4	0.00e+00	0	34	0	781189120	52	5859
2026-01-05 16:40:46.58	303.12	30.43	-39.0	-40.0	22.5	0.00e+00	0	34	0	783286272	52	5746
2026-01-05 16:40:47.59	302.78	30.38	-39.2	-40.2	22.3	0.00e+00	0	33	0	785383424	52	5847
2026-01-05 16:40:48.60	302.45	30.33	-39.1	-40.1	22.4	0.00e+00	0	33	0	786432000	52	5819
2026-01-05 16:40:49.61	302.11	30.28	-39.1	-40.1	22.5	0.00e+00	0	33	0	788529152	52	5823
2026-01-05 16:40:50.62	301.77	30.23	-39.3	-40.3	22.2	0.00e+00	0	33	0	790626304	52	5948
2026-01-05 16:40:51.62	301.44	30.18	-39.4	-40.5	22.1	0.00e+00	0	33	0	792723456	52	6064
2026-01-05 16:40:52.63	301.11	30.12	-39.4	-40.5	22.1	0.00e+00	0	33	0	794820608	52	6039
2026-01-05 16:40:53.64	300.78	30.07	-39.4	-40.5	22.0	0.00e+00	0	33	0	795869184	52	6071
2026-01-05 16:40:54.65	300.44	30.01	-39.5	-40.5	22.0	0.00e+00	0	33	0	797966336	52	6093
2026-01-05 16:40:55.66	300.11	29.96	-39.5	-40.6	22.2	0.00e+00	0	33	0	800063488	52	6127
2026-01-05 16:40:56.67	299.78	29.90	-39.4	-40.5	22.1	0.00e+00	0	33	0	802160640	52	6070
2026-01-05 16:40:57.68	299.46	29.84	-39.5	-40.6	22.0	0.00e+00	0	33	0	804257792	52	6136
2026-01-05 16:40:58.69	299.13	29.78	-39.7	-40.8	21.9	0.00e+00	0	33	0	805306368	52	6295
2026-01-05 16:40:59.70	298.80	29.72	-39.8	-40.9	21.6	0.00e+00	0	33	0	807403520	52	6372
2026-01-05 16:41:00.71	298.48	29.66	-40.0	-41.1	21.6	0.00e+00	0	33	0	809500672	52	6524
2026-01-05 16:41:01.72	298.16	29.60	-39.7	-40.8	21.8	0.00e+00	0	33	0	811597824	52	6316
2026-01-05 16:41:02.73	297.83	29.54	-39.6	-40.6	21.9	0.00e+00	0	33	0	813694976	52	6153
2026-01-05 16:41:03.74	297.51	29.47	-39.7	-40.7	21.9	0.00e+00	0	33	0	815792128	52	6232
2026-01-05 16:41:04.75	297.20	29.41	-39.6	-40.6	22.0	0.00e+00	0	33	0	816840704	52	6144
2026-01-05 16:41:05.75	296.88	29.34	-39.6	-40.7	22.0	0.00e+00	0	33	0	818937856	52	6175
2026-01-05 16:41:06.76	296.56	29.28	-39.6	-40.7	22.0	0.00e+00	0	33	0	821035008	52	6209
2026-01-05 16:41:07.77	296.25	29.21	-39.7	-40.7	21.9	0.00e+00	0	33	0	823132160	52	6228
2026-01-05 16:41:08.78	295.93	29.14	-39.8	-40.9	21.7	0.00e+00	0	33	0	824180736	52	6362
2026-01-05 16:41:09.79	295.62	29.07	-39.9	-41.0	21.5	0.00e+00	0	33	0	826277888	52	6455
2026-01-05 16:41:10.80	295.31	29.00	-40.1	-41.3	21.3	0.00e+00	0	33	0	828375040	52	6662
2026-01-05 16:41:11.81	295.00	28.93	-40.3	-41.4	21.2	0.00e+00	0	33	0	830472192	52	6757
2026-01-05 16:41:12.82	294.69	28.86	-40.2	-41.3	21.3	0.00e+00	0	33	0	832569344	52	6673
2026-01-05 16:41:13.82	294.39	28.79	-39.9	-41.0	21.6	0.00e+00	0	33	0	833617920	52	6424
2026-01-05 16:41:14.83	294.08	28.72	-39.6	-40.7	22.0	0.00e+00	0	33	0	835715072	52	6208
2026-01-05 16:41:15.84	293.78	28.64	-39.4	-40.5	22.2	0.00e+00	0	33	0	837812224	52	6035
2026-01-05 16:41:16.85	293.47	28.57	-39.5	-40.6	21.9	0.00e+00	0	33	0	839909376	52	6111
2026-01-05 16:41:17.86	293.17	28.50	-39.4	-40.5	22.0	0.00e+00	0	33	0	842006528	52	6059
2026-01-05 16:41:18.87	292.87	28.42	-39.4	-40.4	22.1	0.00e+00	0	33	0	844103680	52	6007
2026-01-05 16:41:19.88	292.57	28.35	-39.4	-40.4	22.0	0.00e+00	0	33	0	845152256	52	6016
2026-01-05 16:41:20.89	292.28	28.27	-39.5	-40.5	22.1	0.00e+00	0	33	0	847249408	52	6075
2026-01-05 16:41:21.90	291.98	28.19	-39.3	-40.3	22.3	0.00e+00	0	33	0	849346560	52	5915
2026-01-05 16:41:22.90	291.69	28.11	-39.3	-40.3	22.3	0.00e+00	0	33	0	851443712	52	5920
2026-01-05 16:41:23.91	291.39	28.04	-39.2	-40.2	22.3	0.00e+00	0	33	0	853540864	52	5870
2026-01-05 16:41:24.92	291.10	27.96	-39.3	-40.3	22.3	0.00e+00	0	33	0	854589440	52	5964
2026-01-05 16:41:25.93	290.81	27.88	-39.3	-40.3	22.2	0.00e+00	0	33	0	856686592	52	5948
2026-01-05 16:41:26.94	290.52	27.80	-39.4	-40.5	22.1	0.00e+00	0	33	0	858783744	52	6040
2026-01-05 16:41:27.95	290.24	27.72	-39.2	-40.2	22.4	0.00e+00	0	33	0	860880896	52	5868
2026-01-05 16:41:28.96	289.95	27.63	-39.2	-40.2	22.4	0.00e+00	0	33	0	862978048	52	5836
2026-01-05 16:41:29.97	289.67	27.55	-38.7	-39.6	22.8	0.00e+00	0	33	0	864026624	50	6170
2026-01-05 16:41:30.98	289.38	27.47	-38.8	-39.8	22.6	0.00e+00	0	33	0	866123776	50	6264
2026-01-05 16:41:31.99	289.10	27.39	-38.6	-39.5	22.9	0.00e+00	0	33	0	868220928	50	6097
2026-01-05 16:41:33.00	288.82	27.30	-38.6	-39.5	23.0	0.00e+00	0	33	0	870318080	50	6074
2026-01-05 16:41:34.01	288.54	27.22	-38.8	-39.8	22.7	0.00e+00	0	33	0	872415232	50	6283
2026-01-05 16:41:35.02	288.27	27.13	-39.0	-40.0	22.5	0.00e+00	0	33	0	873463808	50	6404
2026-01-05 16:41:36.03	287.99	27.05	-39.1	-40.1	22.3	0.00e+00	0	33	0	875560960	50	6531
2026-01-05 16:41:37.04	287.72	26.96	-39.0	-40.0	22.5	0.00e+00	0	33	0	877658112	50	6451
2026-01-05 16:41:38.05	287.44	26.88	-39.0	-40.0	22.5	0.00e+00	0	33	0	879755264	50	6417
2026-01-05 16:41:39.06	287.17	26.79	-38.8	-39.8	22.7	0.00e+00	0	33	0	881852416	50	6267
2026-01-05 16:41:40.07	286.90	26.70	-38.7	-39.6	22.8	0.00e+00	0	33	0	882900992	50	6161
2026-01-05 16:41:41.08	286.64	26.62	-38.7	-39.6	22.9	0.00e+00	0	33	0	884998144	50	6167
2026-01-05 16:41:42.09	286.37	26.53	-38.5	-39.4	23.0	0.00e+00	0	33	0	887095296	50	6024
2026-01-05 16:41:43.10	286.10	26.44	-38.3	-39.2	23.2	0.00e+00	0	33	0	889192448	50	5874
2026-01-05 16:41:44.11	285.84	26.35	-38.3	-39.3	23.2	0.00e+00	0	33	0	891289600	50	5915
2026-01-05 16:41:45.12	285.58	26.26	-38.3	-39.2	23.2	0.00e+00	0	33	0	892338176	50	5871
2026-01-05 16:41:46.13	285.32	26.18	-38.2	-39.2	23.2	0.00e+00	0	33	0	894435328	50	5832
2026-01-05 16:41:47.14	285.06	26.09	-38.6	-39.5	22.9	0.00e+00	0	33	0	896532480	50	6103
2026-01-05 16:41:48.14	284.80	26.00	-38.7	-39.7	22.7	0.00e+00	0	33	0	898629632	50	6190
2026-01-05 16:41:49.15	284.55	25.91	-38.3	-39.2	23.2	0.00e+00	0	33	0	900726784	50	5881
2026-01-05 16:41:50.16	284.29	25.82	-38.0	-38.9	23.4	0.00e+00	0	33	0	901775360	50	5694
2026-01-05 16:41:51.17	284.04	25.73	-38.1	-39.0	23.2	0.00e+00	0	33	0	903872512	50	5719
2026-01-05 16:41:52.18	283.79	25.63	-37.8	-38.7	23.7	0.00e+00	0	33	0	905969664	50	5543
2026-01-05 16:41:53.19	283.53	25.54	-37.8	-38.7	23.6	0.00e+00	0	33	0	908066816	50	5529
2026-01-05 16:41:54.20	283.29	25.45	-37.7	-38.6	23.7	0.00e+00	0	33	0	910163968	50	5469
2026-01-05 16:41:55.21	283.04	25.36	-37.5	-38.4	23.9	0.00e+00	0	33	0	912261120	48	5975
2026-01-05 16:41:56.22	282.79	25.27	-37.5	-38.4	23.9	0.00e+00	0	33	0	913309696	48	6007
2026-01-05 16:41:57.23	282.55	25.17	-37.4	-38.3	24.0	0.00e+00	0	33	0	915406848	48	5897
2026-01-05 16:41:58.24	282.30	25.08	-37.4	-38.3	24.1	0.00e+00	0	33	0	917504000	48	5902
2026-01-05 16:41:59.25	282.06	24.99	-37.3	-38.1	24.1	0.00e+00	0	33	0	919601152	48	5820
2026-01-05 16:42:00.26	281.82	24.90	-37.3	-38.2	24.1	0.00e+00	0	33	0	921698304	48	5858
2026-01-05 16:42:01.27	281.58	24.80	-37.0	-37.8	24.4	0.00e+00	0	33	0	922746880	48	5624
2026-01-05 16:42:02.27	281.35	24.71	-36.8	-37.6	24.5	0.00e+00	0	33	0	924844032	48	5474
2026-01-05 16:42:03.28	281.11	24.62	-36.6	-37.4	24.6	0.00e+00	0	33	0	926941184	46	6011
2026-01-05 16:42:04.29	280.88	24.52	-36.6	-37.4	24.7	0.00e+00	0	33	0	929038336	46	6007
2026-01-05 16:42:05.30	280.64	24.43	-36.5	-37.3	24.9	0.00e+00	0	33	0	931135488	46	5916
2026-01-05 16:42:06.31	280.41	24.33	-36.5	-37.3	24.9	0.00e+00	0	33	0	932184064	46	5913
2026-01-05 16:42:07.32	280.18	24.24	-36.3	-37.1	25.1	0.00e+00	0	33	0	934281216	46	5763
2026-01-05 16:42:08.33	279.95	24.14	-36.3	-37.1	24.9	0.00e+00	0	33	0	936378368	46	5814
2026-01-05 16:42:09.35	279.72	24.05	-36.4	-37.2	24.9	0.00e+00	0	33	0	938475520	46	5840
2026-01-05 16:42:10.35	279.50	23.95	-36.3	-37.0	25.1	0.00e+00	0	33	0	940572672	46	5757
2026-01-05 16:42:11.36	279.27	23.86	-36.2	-37.0	25.1	0.00e+00	0	33	0	941621248	46	5719
2026-01-05 16:42:12.37	279.05	23.76	-36.4	-37.1	25.0	0.00e+00	0	33	0	943718400	46	5822
2026-01-05 16:42:13.38	278.83	23.67	-36.3	-37.1	24.9	0.00e+00	0	33	0	945815552	46	5778
2026-01-05 16:42:14.39	278.61	23.57	-36.3	-37.1	25.1	0.00e+00	0	33	0	947912704	46	5794
2026-01-05 16:42:15.40	278.39	23.48	-36.1	-36.8	25.1	0.00e+00	0	33	0	950009856	46	5627
2026-01-05 16:42:16.40	278.17	23.38	-36.0	-36.7	25.3	0.00e+00	0	33	0	951058432	46	5564
2026-01-05 16:42:17.41	277.95	23.29	-35.8	-36.5	25.5	0.00e+00	0	33	0	953155584	46	5428
2026-01-05 16:42:18.41	277.74	23.19	-35.8	-36.5	25.4	0.00e+00	0	33	0	955252736	44	6095
2026-01-05 16:42:19.42	277.53	23.10	-35.6	-36.3	25.6	0.00e+00	0	33	0	957349888	44	5959
2026-01-05 16:42:20.43	277.31	23.00	-35.4	-36.2	25.8	0.00e+00	0	33	0	959447040	44	5855
2026-01-05 16:42:21.44	277.10	22.90	-35.5	-36.3	25.7	0.00e+00	0	33	0	960495616	44	5932
2026-01-05 16:42:22.45	276.89	22.81	-35.6	-36.3	25.6	0.00e+00	0	33	0	962592768	44	5946
2026-01-05 16:42:23.46	276.68	22.71	-35.5	-36.2	25.6	0.00e+00	0	33	0	964689920	44	5880
2026-01-05 16:42:24.46	276.48	22.61	-35.5	-36.3	25.6	0.00e+00	0	33	0	966787072	44	5913
2026-01-05 16:42:25.47	276.27	22.52	-35.5	-36.3	25.6	0.00e+00	0	33	0	968884224	44	5933
2026-01-05 16:42:26.48	276.07	22.42	-35.6	-36.3	25.6	0.00e+00	0	33	0	969932800	44	5953
2026-01-05 16:42:27.49	275.86	22.33	-35.6	-36.4	25.5	0.00e+00	0	33	0	972029952	44	6002
2026-01-05 16:42:28.50	275.66	22.23	-35.5	-36.2	25.7	0.00e+00	0	33	0	974127104	44	5872
2026-01-05 16:42:29.51	275.46	22.13	-35.5	-36.2	25.6	0.00e+00	0	33	0	976224256	44	5858
2026-01-05 16:42:30.52	275.26	22.04	-35.6	-36.4	25.5	0.00e+00	0	33	0	978321408	44	5980
2026-01-05 16:42:31.53	275.06	21.94	-35.5	-36.2	25.6	0.00e+00	0	33	0	979369984	44	5870
2026-01-05 16:42:32.54	274.86	21.84	-35.4	-36.2	25.7	0.00e+00	0	33	0	981467136	44	5839
2026-01-05 16:42:33.55	274.67	21.75	-35.5	-36.3	25.6	0.00e+00	0	33	0	983564288	44	5928
2026-01-05 16:42:34.56	274.47	21.65	-35.5	-36.3	25.5	0.00e+00	0	33	0	985661440	44	5905
2026-01-05 16:42:35.57	274.28	21.55	-35.6	-36.4	25.6	0.00e+00	0	33	0	987758592	44	5980
2026-01-05 16:42:36.58	274.08	21.46	-35.6	-36.4	25.5	0.00e+00	0	33	0	988807168	44	5983
2026-01-05 16:42:37.59	273.89	21.36	-35.7	-36.5	25.5	0.00e+00	0	33	0	990904320	44	6036
2026-01-05 16:42:38.60	273.70	21.26	-35.9	-36.7	25.3	0.00e+00	0	33	0	993001472	44	6174
2026-01-05 16:42:39.60	273.52	21.17	-35.9	-36.6	25.3	0.00e+00	0	33	0	995098624	44	6164
2026-01-05 16:42:40.61	273.33	21.07	-35.9	-36.7	25.1	0.00e+00	0	33	0	997195776	44	6189
2026-01-05 16:42:41.62	273.14	20.98	-35.9	-36.7	25.2	0.00e+00	0	33	0	998244352	44	6175
2026-01-05 16:42:42.63	272.96	20.88	-35.9	-36.7	25.1	0.00e+00	0	33	0	1000341504	44	6175
2026-01-05 16:42:43.64	272.77	20.78	-36.1	-36.8	25.1	0.00e+00	0	33	0	1002438656	44	6307
2026-01-05 16:42:44.65	272.59	20.69	-36.0	-36.8	25.0	0.00e+00	0	33	0	1004535808	44	6251
2026-01-05 16:42:45.66	272.41	20.59	-36.1	-36.9	24.1	0.00e+00	0	33	0	1006632960	44	6356
2026-01-05 16:42:46.67	272.23	20.50	-36.2	-36.9	25.0	0.00e+00	0	33	0	1008730112	44	6387
2026-01-05 16:42:47.68	272.05	20.40	-36.1	-36.9	25.0	0.00e+00	0	33	0	1009778688	44	6375
2026-01-05 16:42:48.69	271.87	20.30	-36.1	-36.9	25.0	0.00e+00	0	33	0	1011875840	44	6368
2026-01-05 16:42:49.70	271.69	20.21	-36.1	-36.8	25.0	0.00e+00	0	33	0	1013972992	44	6313
2026-01-05 16:42:50.71	271.51	20.11	-36.3	-37.0	24.9	0.00e+00	0	33	0	1016070144	44	6455
2026-01-05 16:42:51.72	271.34	20.02	-36.5	-37.3	24.8	0.00e+00	0	33	0	1018167296	44	6672
2026-01-05 16:42:52.72	271.17	19.92	-36.3	-37.1	25.0	0.00e+00	0	33	0	1019215872	44	6470
2026-01-05 16:42:53.73	270.99	19.83	-36.5	-37.3	24.8	0.00e+00	0	33	0	1021313024	44	6621
2026-01-05 16:42:54.74	270.82	19.73	-36.6	-37.4	24.7	0.00e+00	0	33	0	1023410176	44	6712
2026-01-05 16:42:55.75	270.65	19.64	-36.8	-37.6	24.5	0.00e+00	0	33	0	1025507328	46	6164
2026-01-05 16:42:56.76	270.48	19.54	-36.8	-37.6	24.5	0.00e+00	0	33	0	1027604480	46	6144
2026-01-05 16:42:57.77	270.31	19.45	-36.9	-37.7	24.4	0.00e+00	0	33	0	1028653056	46	6232
2026-01-05 16:42:58.78	270.14	19.35	-37.0	-37.8	24.3	0.00e+00	0	33	0	1030750208	46	6269
2026-01-05 16:42:59.79	269.98	19.26	-36.9	-37.7	24.4	0.00e+00	0	33	0	1032847360	46	6238
2026-01-05 16:43:00.80	269.81	19.16	-36.9	-37.7	24.4	0.00e+00	0	33	0	1034944512	46	6237
2026-01-05 16:43:01.81	269.65	19.07	-37.0	-37.8	24.4	0.00e+00	0	33	0	1037041664	46	6284
2026-01-05 16:43:02.82	269.48	18.97	-36.9	-37.8	24.4	0.00e+00	0	33	0	1038090240	46	6251
2026-01-05 16:43:03.83	269.32	18.88	-37.1	-37.9	24.2	0.00e+00	0	33	0	1040187392	46	6350
2026-01-05 16:43:04.84	269.16	18.78	-37.1	-37.9	24.2	0.00e+00	0	33	0	1042284544	46	6379
2026-01-05 16:43:05.85	269.00	18.69	-37.1	-38.0	24.2	0.00e+00	0	33	0	1044381696	46	6420
2026-01-05 16:43:06.86	268.84	18.59	-37.3	-38.2	24.0	0.00e+00	0	33	0	1046478848	46	6562
2026-01-05 16:43:07.87	268.68	18.50	-37.2	-38.1	24.1	0.00e+00	0	33	0	1047527424	46	6506
2026-01-05 16:43:08.88	268.52	18.41	-37.4	-38.3	24.0	0.00e+00	0	33	0	1049624576	46	6639
2026-01-05 16:43:09.89	268.37	18.31	-37.4	-38.3	23.9	0.00e+00	0	33	0	1051721728	46	6627
2026-01-05 16:43:10.90	268.21	18.22	-37.2	-38.1	24.2	0.00e+00	0	33	0	1053818880	46	6481
2026-01-05 16:43:11.90	268.06	18.13	-37.2	-38.1	24.0	0.00e+00	0	33	0	1055916032	46	6507
2026-01-05 16:43:12.91	267.91	18.03	-37.3	-38.1	24.0	0.00e+00	0	33	0	1056964608	46	6525
2026-01-05 16:43:13.92	267.75	17.94	-37.3	-38.2	24.0	0.00e+00	0	33	0	1059061760	46	6576
2026-01-05 16:43:14.93	267.60	17.85	-37.3	-38.2	24.0	0.00e+00	0	33	0	1061158912	46	6573
2026-01-05 16:43:15.94	267.45	17.75	-37.5	-38.4	23.9	0.00e+00	0	33	0	1063256064	46	6719
2026-01-05 16:43:16.95	267.30	17.66	-37.4	-38.3	23.9	0.00e+00	0	33	0	1065353216	46	6631
2026-01-05 16:43:17.96	267.15	17.57	-37.5	-38.4	23.8	0.00e+00	0	33	0	1066401792	46	6694
2026-01-05 16:43:18.97	267.00	17.48	-37.4	-38.3	23.8	0.00e+00	0	33	0	1068498944	46	6666
2026-01-05 16:43:19.98	266.86	17.38	-37.5	-38.4	23.8	0.00e+00	0	33	0	1070596096	46	6703
2026-01-05 16:43:20.99	266.71	17.29	-37.6	-38.5	23.7	0.00e+00	0	33	0	1072693248	46	6808
2026-01-05 16:43:22.00	266.57	17.20	-37.6	-38.5	23.6	0.00e+00	0	33	0	1074790400	46	6810
2026-01-05 16:43:23.01	266.42	17.11	-37.6	-38.5	23.8	0.00e+00	0	33	0	1076887552	46	6770
2026-01-05 16:43:24.02	266.28	17.02	-37.6	-38.4	23.7	0.00e+00	0	33	0	1077936128	46	6760
2026-01-05 16:43:25.03	266.14	16.93	-37.5	-38.4	23.8	0.00e+00	0	33	0	1080033280	46	6701
2026-01-05 16:43:26.04	265.99	16.83	-37.5	-38.4	23.8	0.00e+00	0	33	0	1082130432	46	6739
2026-01-05 16:43:27.05	265.85	16.74	-37.5	-38.4	23.8	0.00e+00	0	33	0	1084227584	46	6720
2026-01-05 16:43:28.06	265.71	16.65	-37.5	-38.3	23.8	0.00e+00	0	33	0	1086324736	46	6678
2026-01-05 16:43:29.07	265.57	16.56	-37.6	-38.5	23.7	0.00e+00	0	33	0	1087373312	46	6790
2026-01-05 16:43:30.08	265.44	16.47	-37.7	-38.6	23.5	0.00e+00	0	33	0	1089470464	46	6914
2026-01-05 16:43:31.09	265.30	16.38	-37.8	-38.7	23.5	0.00e+00	0	33	0	1091567616	48	6178
2026-01-05 16:43:32.10	265.16	16.29	-37.8	-38.7	23.4	0.00e+00	0	33	0	1093664768	48	6245
2026-01-05 16:43:33.11	265.03	16.20	-37.8	-38.7	23.4	0.00e+00	0	33	0	1095761920	48	6241
2026-01-05 16:43:34.12	264.89	16.11	-38.0	-38.9	23.3	0.00e+00	0	33	0	1096810496	48	6365
2026-01-05 16:43:35.13	264.76	16.02	-38.0	-39.0	23.2	0.00e+00	0	33	0	1098907648	48	6402
2026-01-05 16:43:36.14	264.62	15.93	-37.9	-38.9	23.3	0.00e+00	0	33	0	1101004800	48	6325
2026-01-05 16:43:37.15	264.49	15.84	-38.1	-39.0	23.1	0.00e+00	0	33	0	1103101952	48	6411
2026-01-05 16:43:38.16	264.36	15.75	-38.2	-39.1	23.3	0.00e+00	0	33	0	1105199104	48	6504
2026-01-05 16:43:39.17	264.23	15.66	-38.2	-39.1	23.0	0.00e+00	0	33	0	1106247680	48	6509
2026-01-05 16:43:40.18	264.10	15.57	-38.3	-39.3	23.1	0.00e+00	0	33	0	1108344832	48	6632
2026-01-05 16:43:41.19	263.97	15.48	-38.1	-39.0	23.2	0.00e+00	0	33	0	1110441984	48	6423
2026-01-05 16:43:42.20	263.84	15.40	-38.2	-39.1	23.1	0.00e+00	0	33	0	1112539136	48	6528
2026-01-05 16:43:43.21	263.71	15.31	-38.1	-39.1	23.1	0.00e+00	0	33	0	1114636288	48	6478
2026-01-05 16:43:44.22	263.59	15.22	-38.2	-39.2	23.0	0.00e+00	0	33	0	1115684864	48	6579
2026-01-05 16:43:45.22	263.46	15.13	-38.3	-39.3	23.0	0.00e+00	0	33	0	1117782016	48	6621
2026-01-05 16:43:46.23	263.34	15.04	-38.4	-39.3	22.9	0.00e+00	0	33	0	1119879168	48	6682
2026-01-05 16:43:47.24	263.21	14.96	-38.5	-39.4	22.7	0.00e+00	0	33	0	1121976320	48	6758
2026-01-05 16:43:48.25	263.09	14.87	-38.5	-39.5	22.8	0.00e+00	0	33	0	1124073472	48	6780
2026-01-05 16:43:49.26	262.97	14.78	-38.6	-39.6	22.6	0.00e+00	0	33	0	1125122048	48	6872
2026-01-05 16:43:50.27	262.84	14.69	-38.7	-39.7	22.4	0.00e+00	0	33	0	1127219200	48	6944
2026-01-05 16:43:51.28	262.72	14.61	-38.5	-39.5	22.7	0.00e+00	0	33	0	1129316352	48	6831
2026-01-05 16:43:52.29	262.60	14.52	-38.7	-39.7	22.5	0.00e+00	0	33	0	1131413504	48	6972
2026-01-05 16:43:53.30	262.48	14.43	-38.6	-39.6	22.6	0.00e+00	0	33	0	1133510656	48	6907
2026-01-05 16:43:54.31	262.36	14.35	-38.6	-39.6	22.6	0.00e+00	0	33	0	1134559232	48	6917
2026-01-05 16:43:55.32	262.24	14.26	-38.7	-39.7	22.6	0.00e+00	0	33	0	1136656384	48	7007
2026-01-05 16:43:56.33	262.12	14.17	-38.6	-39.6	22.6	0.00e+00	0	33	0	1138753536	48	6899
2026-01-05 16:43:57.34	262.01	14.09	-38.6	-39.6	22.6	0.00e+00	0	33	0	1140850688	48	6891
2026-01-05 16:43:58.35	261.89	14.00	-38.6	-39.6	22.6	0.00e+00	0	33	0	1142947840	48	6887
2026-01-05 16:43:59.36	261.77	13.92	-38.5	-39.5	22.7	0.00e+00	0	33	0	1145044992	48	6823
2026-01-05 16:44:00.37	261.66	13.83	-38.5	-39.5	22.6	0.00e+00	0	33	0	1146093568	48	6831
2026-01-05 16:44:01.38	261.54	13.75	-38.6	-39.6	22.6	0.00e+00	0	33	0	1148190720	48	6897
2026-01-05 16:44:02.39	261.43	13.66	-38.7	-39.6	22.6	0.00e+00	0	33	0	1150287872	48	6924
2026-01-05 16:44:03.40	261.32	13.58	-38.6	-39.6	22.6	0.00e+00	0	33	0	1152385024	48	6907
2026-01-05 16:44:04.40	261.20	13.49	-38.7	-39.7	22.5	0.00e+00	0	33	0	1154482176	50	6176
2026-01-05 16:44:05.41	261.09	13.41	-38.7	-39.7	22.5	0.00e+00	0	33	0	1155530752	50	6175
2026-01-05 16:44:06.42	260.98	13.32	-38.7	-39.7	22.5	0.00e+00	0	33	0	1157627904	50	6207
2026-01-05 16:44:07.43	260.87	13.24	-38.8	-39.8	22.4	0.00e+00	0	33	0	1159725056	50	6290
2026-01-05 16:44:08.44	260.76	13.15	-38.6	-39.6	22.6	0.00e+00	0	33	0	1161822208	50	6150
2026-01-05 16:44:09.45	260.65	13.07	-38.8	-39.8	22.5	0.00e+00	0	33	0	1163919360	50	6269
2026-01-05 16:44:10.46	260.54	12.99	-38.9	-39.9	22.3	0.00e+00	0	33	0	1164967936	50	6355
2026-01-05 16:44:11.46	260.44	12.90	-39.0	-40.0	22.2	0.00e+00	0	33	0	1167065088	50	6421
2026-01-05 16:44:12.47	260.33	12.82	-38.6	-39.6	22.6	0.00e+00	0	33	0	1169162240	50	6143
2026-01-05 16:44:13.48	260.22	12.74	-38.7	-39.7	22.4	0.00e+00	0	33	0	1171259392	50	6180
2026-01-05 16:44:14.49	260.11	12.66	-38.7	-39.7	22.4	0.00e+00	0	33	0	1173356544	50	6238
2026-01-05 16:44:15.50	260.01	12.57	-38.9	-39.9	22.3	0.00e+00	0	33	0	1174405120	50	6341
2026-01-05 16:44:16.50	259.90	12.49	-39.0	-40.1	22.2	0.00e+00	0	33	0	1176502272	50	6465
2026-01-05 16:44:17.51	259.80	12.41	-38.9	-40.0	22.2	0.00e+00	0	33	0	1178599424	50	6399
2026-01-05 16:44:18.52	259.70	12.33	-39.0	-40.1	22.1	0.00e+00	0	33	0	1180696576	50	6498
2026-01-05 16:44:19.53	259.59	12.24	-38.9	-40.0	22.1	0.00e+00	0	33	0	1182793728	50	6416
2026-01-05 16:44:20.54	259.49	12.16	-39.0	-40.1	22.1	0.00e+00	0	33	0	1183842304	50	6484
2026-01-05 16:44:21.55	259.39	12.08	-39.2	-40.2	21.9	0.00e+00	0	33	0	1185939456	50	6611
2026-01-05 16:44:22.56	259.29	12.00	-39.2	-40.2	22.0	0.00e+00	0	33	0	1188036608	50	6608
2026-01-05 16:44:23.57	259.19	11.92	-39.2	-40.2	22.0	0.00e+00	0	33	0	1190133760	50	6597
2026-01-05 16:44:24.58	259.09	11.84	-39.2	-40.3	21.9	0.00e+00	0	33	0	1192230912	50	6659
2026-01-05 16:44:25.59	258.99	11.76	-39.3	-40.4	21.8	0.00e+00	0	33	0	1193279488	50	6718
2026-01-05 16:44:26.60	258.89	11.68	-39.3	-40.4	21.8	0.00e+00	0	33	0	1195376640	50	6735
2026-01-05 16:44:27.61	258.79	11.60	-39.2	-40.2	21.9	0.00e+00	0	33	0	1197473792	50	6614
2026-01-05 16:44:28.61	258.69	11.52	-39.2	-40.3	21.9	0.00e+00	0	33	0	1199570944	50	6636
2026-01-05 16:44:29.62	258.59	11.44	-39.4	-40.5	21.9	0.00e+00	0	33	0	1201668096	50	6774
2026-01-05 16:44:30.63	258.50	11.36	-39.3	-40.4	21.8	0.00e+00	0	33	0	1202716672	50	6765
2026-01-05 16:44:31.64	258.40	11.28	-39.3	-40.4	21.8	0.00e+00	0	33	0	1204813824	50	6730
