passes_logs/2026/01/05/R4.6S_Anadyr/R4.6S_Anadyr__20260105_024939_NOAA_20_JPSS-1_rec.log

#Pass ID: 20260105_024939_NOAA 20 (JPSS-1)
#Satellite: NOAA 20 (JPSS-1)
#Configuration: NOAA 20
#almurnet v.1.7.20251203
#Start time: 2026-01-05 02:49:42

#Version: 2.2.20231116
#Station: R4.6S_Anadyr
#Location: 177.4865 lon 64.73178 lat
#TLE: 1 43013U 17073A   26003.41800368  .00000169  00000+0  10117-3 0  9998
#TLE: 2 43013  98.7624 304.4804 0001884  56.1176 304.0179 14.19532918421092

#Time	Az	El	Level	Level2	SNR	BER	BlckErr	Temp	State	Recorded	gain1	gain2
2026-01-05 02:49:42.53	225.68	0.17	-49.3	-63.1	3.3	1.54e+00	0	27	0	0	60	51887
2026-01-05 02:49:43.53	225.76	0.21	-49.6	-64.8	3.6	1.51e+00	0	27	104	0	60	62917
2026-01-05 02:49:44.54	225.84	0.26	-49.5	-64.9	3.6	1.51e+00	0	27	104	0	60	63405
2026-01-05 02:49:45.55	225.92	0.31	-49.1	-64.3	3.6	1.51e+00	0	27	104	0	60	59277
2026-01-05 02:49:46.56	226.00	0.36	-49.1	-64.3	3.6	1.51e+00	0	27	104	0	60	59426
2026-01-05 02:49:47.57	226.09	0.40	-49.3	-64.5	3.6	1.51e+00	0	27	104	0	60	60981
2026-01-05 02:49:48.58	226.17	0.45	-48.9	-64.0	3.6	1.51e+00	0	27	104	0	60	57465
2026-01-05 02:49:49.59	226.25	0.50	-48.3	-63.9	3.6	1.51e+00	0	27	104	0	60	56387
2026-01-05 02:49:50.60	226.33	0.55	-48.4	-63.9	3.6	1.51e+00	0	27	104	0	60	56841
2026-01-05 02:49:51.61	226.42	0.60	-48.5	-63.9	3.6	1.51e+00	0	27	104	0	60	56778
2026-01-05 02:49:52.62	226.50	0.64	-48.6	-63.8	3.6	1.51e+00	0	27	104	0	60	56079
2026-01-05 02:49:53.63	226.59	0.69	-48.5	-63.6	3.6	1.51e+00	0	27	104	0	60	54916
2026-01-05 02:49:54.64	226.67	0.74	-48.2	-63.4	3.6	1.51e+00	0	27	104	0	60	53201
2026-01-05 02:49:55.65	226.76	0.79	-47.6	-62.8	3.6	1.51e+00	0	27	104	0	60	49660
2026-01-05 02:49:56.66	226.84	0.84	-46.2	-61.3	3.6	1.51e+00	0	27	104	0	60	42083
2026-01-05 02:49:57.66	226.92	0.88	-46.1	-61.3	3.6	1.51e+00	0	27	104	0	60	41830
2026-01-05 02:49:58.68	227.01	0.93	-46.3	-61.4	3.6	1.51e+00	0	27	104	0	60	42576
2026-01-05 02:49:59.68	227.10	0.98	-46.2	-61.3	3.6	1.51e+00	0	27	104	0	60	42065
2026-01-05 02:50:00.70	227.18	1.03	-46.1	-61.2	3.6	1.51e+00	0	27	104	0	60	41559
2026-01-05 02:50:01.70	227.27	1.08	-46.1	-61.2	3.6	1.51e+00	0	27	104	0	60	41633
2026-01-05 02:50:02.71	227.35	1.12	-46.0	-61.2	3.6	1.51e+00	0	27	104	0	60	41508
2026-01-05 02:50:03.72	227.44	1.17	-46.0	-61.2	3.6	1.51e+00	0	27	104	0	60	41382
2026-01-05 02:50:04.74	227.53	1.22	-46.0	-61.2	3.6	1.51e+00	0	27	104	0	60	41329
2026-01-05 02:50:05.74	227.62	1.27	-46.0	-61.2	3.6	1.51e+00	0	27	104	0	60	41333
2026-01-05 02:50:06.75	227.70	1.32	-45.9	-61.1	3.6	1.51e+00	0	27	104	0	60	40941
2026-01-05 02:50:07.76	227.79	1.37	-45.9	-61.1	3.6	1.51e+00	0	27	104	0	60	41161
2026-01-05 02:50:08.78	227.88	1.41	-46.0	-61.2	3.6	1.51e+00	0	27	104	0	60	41345
2026-01-05 02:50:09.79	227.97	1.46	-46.1	-61.3	3.6	1.51e+00	0	27	104	0	60	41858
2026-01-05 02:50:10.79	228.06	1.51	-46.1	-61.3	3.6	1.51e+00	0	27	104	0	60	41955
2026-01-05 02:50:11.80	228.15	1.56	-46.2	-61.4	3.6	1.51e+00	0	27	104	0	60	42389
2026-01-05 02:50:12.82	228.24	1.61	-46.2	-61.3	3.6	1.51e+00	0	27	104	0	60	42062
2026-01-05 02:50:13.83	228.33	1.66	-46.0	-61.2	3.6	1.51e+00	0	27	104	0	60	41273
2026-01-05 02:50:14.84	228.42	1.70	-45.9	-61.1	3.6	1.51e+00	0	27	104	0	60	41032
2026-01-05 02:50:15.85	228.51	1.75	-46.0	-61.1	3.6	1.51e+00	0	27	104	0	60	40998
2026-01-05 02:50:16.86	228.60	1.80	-46.0	-61.1	3.6	1.51e+00	0	27	104	0	60	41052
2026-01-05 02:50:17.87	228.69	1.85	-46.0	-61.1	3.6	1.51e+00	0	27	104	0	60	40981
2026-01-05 02:50:18.88	228.78	1.90	-46.0	-61.1	3.6	1.51e+00	0	27	104	0	60	41227
2026-01-05 02:50:19.89	228.87	1.95	-46.1	-61.2	3.6	1.51e+00	0	27	104	0	60	41583
2026-01-05 02:50:20.89	228.96	2.00	-46.0	-61.2	3.6	1.51e+00	0	27	104	0	60	41566
2026-01-05 02:50:21.90	229.05	2.04	-46.0	-61.1	3.6	1.51e+00	0	27	104	0	60	41078
2026-01-05 02:50:22.91	229.14	2.09	-46.0	-61.1	3.6	1.51e+00	0	27	104	0	60	41259
2026-01-05 02:50:23.92	229.24	2.14	-46.0	-61.1	3.6	1.51e+00	0	27	104	0	60	40885
2026-01-05 02:50:24.93	229.33	2.19	-46.0	-61.2	3.6	1.51e+00	0	27	104	0	60	41315
2026-01-05 02:50:25.94	229.42	2.24	-46.0	-61.1	3.6	1.51e+00	0	27	104	0	60	41193
2026-01-05 02:50:26.95	229.51	2.29	-46.1	-61.1	3.6	1.51e+00	0	27	104	0	60	41160
2026-01-05 02:50:27.96	229.61	2.34	-46.2	-61.2	3.6	1.51e+00	0	27	104	0	60	41717
2026-01-05 02:50:28.97	229.70	2.39	-46.2	-61.3	3.6	1.51e+00	0	27	104	0	60	42208
2026-01-05 02:50:29.98	229.80	2.44	-46.3	-61.3	3.6	1.51e+00	0	27	104	0	60	42016
2026-01-05 02:50:30.99	229.89	2.48	-46.1	-61.2	3.6	1.51e+00	0	27	104	0	60	41376
2026-01-05 02:50:32.00	229.99	2.53	-46.1	-61.2	3.6	1.51e+00	0	27	104	0	60	41483
2026-01-05 02:50:33.01	230.08	2.58	-46.1	-61.1	3.6	1.51e+00	0	27	104	0	60	40947
2026-01-05 02:50:34.02	230.18	2.63	-46.3	-61.0	3.6	1.51e+00	0	27	104	0	60	40519
2026-01-05 02:50:35.03	230.27	2.68	-46.1	-60.9	3.6	1.51e+00	0	27	104	0	60	39877
2026-01-05 02:50:36.04	230.37	2.73	-46.2	-60.8	3.6	1.51e+00	0	27	104	0	60	39705
2026-01-05 02:50:37.05	230.46	2.78	-46.1	-60.1	3.6	1.51e+00	0	27	104	0	60	36401
2026-01-05 02:50:38.06	230.56	2.83	-46.0	-59.8	3.6	1.51e+00	0	27	104	0	60	35317
2026-01-05 02:50:39.07	230.66	2.88	-46.0	-59.1	3.6	1.50e+00	0	27	104	0	60	32670
2026-01-05 02:50:40.08	230.75	2.93	-46.0	-58.9	3.6	1.49e+00	0	27	104	0	60	31759
2026-01-05 02:50:41.09	230.85	2.98	-46.0	-58.8	3.6	1.49e+00	0	27	104	0	60	31320
2026-01-05 02:50:42.10	230.95	3.02	-46.0	-58.9	3.6	1.49e+00	0	27	104	0	60	31942
2026-01-05 02:50:43.11	231.05	3.07	-46.2	-60.6	3.6	1.50e+00	0	27	104	0	60	38950
2026-01-05 02:50:44.12	231.15	3.12	-45.9	-60.5	3.6	1.51e+00	0	27	104	0	60	38161
2026-01-05 02:50:45.13	231.24	3.17	-46.3	-59.2	3.7	1.46e+00	0	27	104	0	60	32989
2026-01-05 02:50:46.14	231.34	3.22	-46.3	-61.2	3.6	1.51e+00	0	27	104	0	60	41500
2026-01-05 02:50:47.16	231.44	3.27	-46.1	-59.6	3.7	1.48e+00	0	27	104	0	60	34494
2026-01-05 02:50:48.16	231.54	3.32	-46.2	-58.5	3.7	1.46e+00	0	27	0	0	60	30560
2026-01-05 02:50:49.17	231.64	3.37	-46.2	-58.6	3.8	1.48e+00	0	27	104	0	60	30758
2026-01-05 02:50:50.18	231.74	3.42	-46.3	-58.7	3.9	1.49e+00	0	27	104	0	60	30959
2026-01-05 02:50:51.19	231.84	3.47	-46.2	-58.8	3.7	1.45e+00	0	27	104	0	60	31649
2026-01-05 02:50:52.20	231.95	3.52	-46.3	-58.6	3.7	1.47e+00	0	27	104	0	60	30786
2026-01-05 02:50:53.21	232.05	3.57	-46.3	-58.6	3.7	1.45e+00	0	27	0	0	60	30598
2026-01-05 02:50:54.22	232.15	3.62	-46.3	-59.2	3.7	1.49e+00	0	27	104	0	60	32867
2026-01-05 02:50:55.23	232.25	3.67	-46.4	-58.9	3.8	1.48e+00	0	27	104	0	60	31804
2026-01-05 02:50:56.24	232.35	3.72	-46.4	-59.0	3.8	1.50e+00	0	28	104	0	60	32268
2026-01-05 02:50:57.26	232.46	3.77	-46.4	-59.1	3.8	1.49e+00	0	27	104	0	60	32452
2026-01-05 02:50:58.26	232.56	3.81	-46.4	-58.9	3.8	1.49e+00	0	27	104	0	60	31926
2026-01-05 02:50:59.27	232.66	3.86	-46.5	-59.0	3.8	1.48e+00	0	27	104	0	60	32396
2026-01-05 02:51:00.28	232.76	3.91	-46.5	-59.3	3.8	1.49e+00	0	28	104	0	60	33500
2026-01-05 02:51:01.30	232.87	3.96	-46.6	-59.3	3.8	1.50e+00	0	28	104	0	60	33261
2026-01-05 02:51:02.31	232.97	4.01	-46.6	-59.1	3.7	1.48e+00	0	27	104	0	60	32598
2026-01-05 02:51:03.32	233.08	4.06	-46.6	-59.3	3.7	1.47e+00	0	28	104	0	60	33394
2026-01-05 02:51:04.33	233.18	4.11	-46.6	-58.3	3.8	1.47e+00	0	27	0	0	60	29714
2026-01-05 02:51:05.34	233.29	4.16	-46.6	-58.9	3.9	1.47e+00	0	28	104	0	60	31888
2026-01-05 02:51:06.35	233.39	4.21	-46.6	-59.1	3.8	1.49e+00	0	28	104	0	60	32646
2026-01-05 02:51:07.36	233.50	4.26	-46.7	-58.9	3.8	1.47e+00	0	28	104	0	60	31922
2026-01-05 02:51:08.37	233.61	4.31	-46.7	-59.1	3.6	1.46e+00	0	28	104	0	60	32774
2026-01-05 02:51:09.38	233.71	4.36	-46.7	-58.9	3.8	1.46e+00	0	28	0	0	60	31835
2026-01-05 02:51:10.39	233.82	4.41	-46.8	-59.1	3.9	1.48e+00	0	28	104	0	60	32567
2026-01-05 02:51:11.39	233.93	4.46	-46.8	-58.8	3.9	1.47e+00	0	28	104	0	60	31635
2026-01-05 02:51:12.40	234.04	4.51	-46.9	-57.8	3.8	1.42e+00	0	28	0	0	60	27931
2026-01-05 02:51:13.41	234.14	4.56	-46.9	-58.8	4.0	1.45e+00	0	28	104	0	60	31368
2026-01-05 02:51:14.42	234.25	4.61	-46.9	-59.0	3.9	1.41e+00	0	28	104	0	60	32364
2026-01-05 02:51:15.43	234.36	4.66	-46.9	-58.8	4.0	1.45e+00	0	28	104	0	60	31379
2026-01-05 02:51:16.44	234.47	4.71	-46.9	-58.7	3.7	1.40e+00	0	28	104	0	60	31174
2026-01-05 02:51:17.44	234.58	4.76	-47.0	-58.7	3.9	1.40e+00	0	28	0	0	60	31011
2026-01-05 02:51:18.45	234.69	4.81	-47.1	-59.2	3.9	1.48e+00	0	28	104	0	60	32981
2026-01-05 02:51:19.46	234.80	4.86	-47.1	-57.6	3.9	1.39e+00	0	28	0	0	60	27440
2026-01-05 02:51:20.47	234.91	4.91	-47.1	-59.4	3.9	1.44e+00	0	28	104	0	60	33551
2026-01-05 02:51:21.48	235.02	4.96	-47.2	-59.1	3.7	1.46e+00	0	27	104	0	60	32626
2026-01-05 02:51:22.49	235.13	5.01	-47.3	-57.9	3.9	1.38e+00	0	28	0	0	60	28455
2026-01-05 02:51:23.50	235.24	5.05	-47.2	-57.3	4.0	1.36e+00	38	28	0	0	60	26414
2026-01-05 02:51:24.51	235.35	5.10	-47.1	-57.2	4.0	1.34e+00	91	28	0	1048576	60	26199
2026-01-05 02:51:25.52	235.47	5.15	-47.1	-56.9	4.2	1.10e+00	92	28	0	3145728	60	25152
2026-01-05 02:51:26.53	235.58	5.20	-47.1	-57.0	4.1	1.16e+00	92	28	0	5242880	60	25529
2026-01-05 02:51:27.54	235.69	5.25	-47.2	-56.7	4.3	9.47e-01	92	28	0	7340032	60	24612
2026-01-05 02:51:28.55	235.81	5.30	-47.2	-56.6	4.3	9.50e-01	65	28	0	8388608	60	24412
2026-01-05 02:51:29.56	235.92	5.35	-47.1	-56.6	4.3	9.10e-01	92	28	0	10485760	60	24491
2026-01-05 02:51:30.57	236.03	5.40	-47.1	-56.4	4.3	8.88e-01	90	28	0	12582912	60	23993
2026-01-05 02:51:31.58	236.15	5.45	-47.1	-56.3	4.4	8.47e-01	90	28	0	14680064	60	23708
2026-01-05 02:51:32.59	236.26	5.50	-47.0	-56.0	4.6	7.89e-01	92	28	0	16777216	60	22837
2026-01-05 02:51:33.60	236.38	5.55	-47.0	-56.0	4.6	7.20e-01	92	28	0	17825792	60	22836
2026-01-05 02:51:34.61	236.50	5.60	-47.0	-55.7	4.9	6.52e-01	92	27	0	19922944	60	22130
2026-01-05 02:51:35.62	236.61	5.65	-47.0	-55.4	5.1	6.50e-01	92	28	0	22020096	60	21179
2026-01-05 02:51:36.63	236.73	5.70	-46.9	-55.3	5.1	5.14e-01	92	28	0	24117248	60	20924
2026-01-05 02:51:37.64	236.85	5.75	-46.9	-54.8	5.6	4.20e-01	60	28	0	26214400	60	19964
2026-01-05 02:51:38.64	236.96	5.80	-46.9	-54.6	6.1	3.45e-01	91	28	0	28311552	60	19437
2026-01-05 02:51:39.65	237.08	5.85	-46.9	-54.4	6.2	3.06e-01	92	28	0	29360128	60	19037
2026-01-05 02:51:40.66	237.20	5.90	-46.8	-54.0	6.6	2.07e-01	92	28	0	31457280	60	18191
2026-01-05 02:51:41.67	237.32	5.95	-46.7	-53.7	6.9	1.62e-01	92	28	0	33554432	60	17505
2026-01-05 02:51:42.68	237.43	6.00	-46.7	-53.7	6.9	1.60e-01	92	28	0	35651584	60	17561
2026-01-05 02:51:43.69	237.55	6.05	-46.7	-53.5	7.3	1.42e-01	90	28	0	36700160	60	17138
2026-01-05 02:51:44.70	237.67	6.10	-46.5	-53.0	7.8	8.83e-02	0	28	0	38797312	60	16106
2026-01-05 02:51:45.71	237.79	6.15	-46.5	-52.9	7.9	7.73e-02	92	28	0	40894464	60	15936
2026-01-05 02:51:46.72	237.91	6.20	-46.5	-52.9	7.9	8.28e-02	92	28	0	42991616	60	15875
2026-01-05 02:51:47.73	238.03	6.25	-46.3	-52.5	8.3	4.91e-02	90	28	0	45088768	60	15289
2026-01-05 02:51:48.74	238.16	6.30	-46.2	-52.0	8.8	3.87e-02	92	28	0	46137344	60	14431
2026-01-05 02:51:49.75	238.28	6.35	-46.2	-51.9	9.1	2.60e-02	93	28	0	48234496	60	14304
2026-01-05 02:51:50.76	238.40	6.40	-46.1	-51.6	9.4	1.79e-02	92	28	0	50331648	60	13743
2026-01-05 02:51:51.77	238.52	6.45	-46.1	-51.5	9.5	1.38e-02	21	28	0	52428800	60	13626
2026-01-05 02:51:52.78	238.64	6.50	-46.0	-51.2	9.9	1.71e-02	92	28	0	54525952	60	13124
2026-01-05 02:51:53.78	238.77	6.55	-45.8	-50.7	10.5	4.72e-03	92	28	0	56623104	60	12357
2026-01-05 02:51:54.79	238.89	6.60	-45.7	-50.3	11.1	3.14e-03	92	28	0	57671680	60	11874
2026-01-05 02:51:55.80	239.01	6.64	-45.7	-50.2	11.3	1.57e-03	92	28	0	59768832	60	11711
2026-01-05 02:51:56.81	239.14	6.69	-45.6	-49.9	11.6	7.01e-04	90	28	0	61865984	60	11281
2026-01-05 02:51:57.82	239.26	6.74	-45.4	-49.6	11.8	5.90e-04	92	28	0	63963136	60	10883
2026-01-05 02:51:58.83	239.39	6.79	-45.3	-49.4	12.2	2.61e-04	92	28	0	66060288	60	10634
2026-01-05 02:51:59.83	239.51	6.84	-45.2	-49.0	12.5	1.76e-04	90	28	0	67108864	60	10192
2026-01-05 02:52:00.84	239.64	6.89	-45.1	-48.9	12.6	8.16e-05	43	28	0	69206016	60	10065
2026-01-05 02:52:01.85	239.77	6.94	-45.1	-48.9	12.8	6.25e-05	90	28	0	71303168	60	10072
2026-01-05 02:52:02.86	239.89	6.99	-45.0	-48.5	13.2	4.34e-05	92	28	0	73400320	60	9652
2026-01-05 02:52:03.87	240.02	7.04	-44.8	-48.2	13.5	1.83e-05	92	28	0	75497472	60	9243
2026-01-05 02:52:04.88	240.15	7.09	-44.7	-47.9	13.7	4.50e-06	92	28	0	76546048	60	8994
2026-01-05 02:52:05.89	240.28	7.14	-44.5	-47.6	14.1	1.50e-06	92	28	0	78643200	60	8686
2026-01-05 02:52:06.90	240.40	7.19	-44.3	-47.3	14.5	7.00e-07	92	28	0	80740352	60	8414
2026-01-05 02:52:07.91	240.53	7.24	-44.3	-47.2	14.7	7.00e-07	0	28	0	82837504	60	8268
2026-01-05 02:52:08.92	240.66	7.29	-44.0	-46.6	15.3	0.00e+00	90	28	0	84934656	60	7750
2026-01-05 02:52:09.93	240.79	7.34	-44.0	-46.7	15.3	0.00e+00	91	28	0	85983232	60	7777
2026-01-05 02:52:10.94	240.92	7.39	-43.8	-46.4	15.5	0.00e+00	91	28	0	88080384	60	7510
2026-01-05 02:52:11.95	241.05	7.43	-43.7	-46.3	15.5	0.00e+00	92	28	0	90177536	60	7458
2026-01-05 02:52:12.96	241.18	7.48	-43.7	-46.2	15.7	0.00e+00	92	28	0	92274688	60	7394
2026-01-05 02:52:13.97	241.32	7.53	-43.3	-45.6	16.2	0.00e+00	91	28	0	94371840	60	6922
2026-01-05 02:52:14.98	241.45	7.58	-43.3	-45.6	16.2	0.00e+00	7	28	0	95420416	60	6924
2026-01-05 02:52:15.99	241.58	7.63	-43.1	-45.3	16.5	0.00e+00	92	28	0	97517568	60	6656
2026-01-05 02:52:17.00	241.71	7.68	-43.0	-45.2	16.6	0.00e+00	92	28	0	99614720	60	6614
2026-01-05 02:52:18.01	241.85	7.73	-42.8	-45.0	16.8	0.00e+00	92	28	0	101711872	60	6413
2026-01-05 02:52:19.02	241.98	7.78	-42.9	-45.0	16.8	0.00e+00	92	28	0	103809024	60	6460
2026-01-05 02:52:20.03	242.11	7.83	-42.8	-45.0	17.0	0.00e+00	38	28	0	104857600	58	7199
2026-01-05 02:52:21.03	242.25	7.88	-42.6	-44.6	17.4	0.00e+00	92	28	0	106954752	58	6857
2026-01-05 02:52:22.04	242.38	7.92	-42.4	-44.3	17.7	0.00e+00	0	28	0	109051904	58	6638
2026-01-05 02:52:23.05	242.52	7.97	-42.3	-44.2	17.8	0.00e+00	92	28	0	111149056	58	6548
2026-01-05 02:52:24.06	242.65	8.02	-42.4	-44.2	18.1	0.00e+00	37	28	0	113246208	58	6554
2026-01-05 02:52:25.07	242.79	8.07	-42.1	-43.8	18.3	0.00e+00	90	28	0	114294784	58	6298
2026-01-05 02:52:26.08	242.93	8.12	-41.8	-43.5	18.4	0.00e+00	92	28	0	116391936	58	6101
2026-01-05 02:52:27.09	243.06	8.17	-42.1	-43.8	18.5	0.00e+00	92	28	0	118489088	58	6277
2026-01-05 02:52:28.10	243.20	8.22	-42.1	-43.8	18.3	0.00e+00	90	28	0	120586240	58	6279
2026-01-05 02:52:29.11	243.34	8.27	-41.8	-43.4	18.9	0.00e+00	92	28	0	122683392	56	6702
2026-01-05 02:52:30.12	243.48	8.31	-41.8	-43.4	18.9	0.00e+00	92	28	0	124780544	56	6716
2026-01-05 02:52:31.13	243.62	8.36	-41.4	-42.9	19.1	0.00e+00	0	28	0	125829120	56	6390
2026-01-05 02:52:32.14	243.75	8.41	-41.4	-42.9	19.6	0.00e+00	92	28	0	127926272	56	6349
2026-01-05 02:52:33.15	243.89	8.46	-41.1	-42.5	19.6	0.00e+00	92	28	0	130023424	56	6057
2026-01-05 02:52:34.16	244.03	8.51	-40.9	-42.3	19.7	0.00e+00	92	28	0	132120576	56	5921
2026-01-05 02:52:35.17	244.18	8.56	-40.4	-41.7	20.3	0.00e+00	92	28	0	134217728	54	6192
2026-01-05 02:52:36.18	244.32	8.60	-40.5	-41.8	20.4	0.00e+00	69	28	0	135266304	54	6281
2026-01-05 02:52:37.19	244.46	8.65	-40.3	-41.5	20.7	0.00e+00	92	28	0	137363456	54	6094
2026-01-05 02:52:38.20	244.60	8.70	-40.2	-41.5	20.7	0.00e+00	8	28	0	139460608	54	6039
2026-01-05 02:52:39.21	244.74	8.75	-40.0	-41.2	21.0	0.00e+00	92	28	0	141557760	54	5893
2026-01-05 02:52:40.22	244.89	8.80	-39.7	-40.9	21.1	0.00e+00	64	28	0	143654912	54	5661
2026-01-05 02:52:41.22	245.03	8.84	-39.6	-40.7	21.3	0.00e+00	92	28	0	144703488	52	6242
2026-01-05 02:52:42.23	245.17	8.89	-39.5	-40.7	21.4	0.00e+00	92	28	0	146800640	52	6200
2026-01-05 02:52:43.24	245.32	8.94	-39.9	-41.0	21.4	0.00e+00	92	28	0	148897792	52	6452
2026-01-05 02:52:44.25	245.46	8.99	-39.6	-40.7	21.5	0.00e+00	92	28	0	150994944	52	6185
2026-01-05 02:52:45.26	245.61	9.03	-39.3	-40.4	21.8	0.00e+00	0	28	0	153092096	52	6005
2026-01-05 02:52:46.27	245.75	9.08	-39.0	-40.1	22.0	0.00e+00	92	28	0	154140672	52	5796
2026-01-05 02:52:47.28	245.90	9.13	-39.1	-40.1	22.1	0.00e+00	11	28	0	156237824	52	5819
2026-01-05 02:52:48.29	246.04	9.18	-39.0	-40.0	22.0	0.00e+00	92	28	0	158334976	52	5742
2026-01-05 02:52:49.30	246.19	9.22	-39.2	-40.3	22.3	0.00e+00	92	28	0	160432128	52	5904
2026-01-05 02:52:50.31	246.34	9.27	-38.7	-39.7	22.3	0.00e+00	92	28	0	162529280	52	5560
2026-01-05 02:52:51.32	246.49	9.32	-38.7	-39.7	22.5	0.00e+00	92	28	0	163577856	50	6216
2026-01-05 02:52:52.33	246.63	9.37	-38.6	-39.6	22.4	0.00e+00	0	28	0	165675008	50	6136
2026-01-05 02:52:53.34	246.78	9.41	-38.3	-39.3	22.7	0.00e+00	92	28	0	167772160	50	5921
2026-01-05 02:52:54.34	246.93	9.46	-38.6	-39.6	22.7	0.00e+00	0	28	0	169869312	50	6111
2026-01-05 02:52:55.35	247.08	9.51	-38.4	-39.3	22.8	0.00e+00	92	28	0	171966464	50	5943
2026-01-05 02:52:56.37	247.23	9.55	-38.4	-39.3	22.8	0.00e+00	92	28	0	173015040	50	5959
2026-01-05 02:52:57.37	247.38	9.60	-38.8	-39.9	22.4	0.00e+00	92	28	0	175112192	50	6322
2026-01-05 02:52:58.38	247.53	9.65	-38.5	-39.5	22.8	0.00e+00	92	28	0	177209344	50	6052
2026-01-05 02:52:59.39	247.69	9.69	-38.7	-39.7	22.4	0.00e+00	0	28	0	179306496	50	6196
2026-01-05 02:53:00.40	247.84	9.74	-38.3	-39.3	22.8	0.00e+00	90	28	0	181403648	50	5908
2026-01-05 02:53:01.41	247.99	9.79	-38.1	-39.0	23.1	0.00e+00	11	28	0	182452224	50	5721
2026-01-05 02:53:02.42	248.14	9.83	-38.1	-39.1	23.1	0.00e+00	92	28	0	184549376	50	5772
2026-01-05 02:53:03.43	248.30	9.88	-38.3	-39.2	22.8	0.00e+00	45	28	0	186646528	50	5887
2026-01-05 02:53:04.44	248.45	9.92	-38.2	-39.1	23.0	0.00e+00	92	28	0	188743680	50	5809
2026-01-05 02:53:05.45	248.60	9.97	-38.6	-39.6	23.0	0.00e+00	90	28	0	190840832	50	6148
2026-01-05 02:53:06.46	248.76	10.02	-38.5	-39.5	22.7	0.00e+00	92	28	0	192937984	50	6058
2026-01-05 02:53:07.47	248.92	10.06	-38.6	-39.5	22.6	0.00e+00	90	28	0	193986560	50	6099
2026-01-05 02:53:08.48	249.07	10.11	-38.8	-39.8	23.1	0.00e+00	0	28	0	196083712	50	6291
2026-01-05 02:53:09.49	249.23	10.15	-38.6	-39.6	23.1	0.00e+00	92	28	0	198180864	50	6118
2026-01-05 02:53:10.50	249.38	10.20	-38.6	-39.6	23.0	0.00e+00	12	28	0	200278016	50	6137
2026-01-05 02:53:11.51	249.54	10.24	-38.7	-39.7	23.0	0.00e+00	90	28	0	202375168	50	6184
2026-01-05 02:53:12.52	249.70	10.29	-38.4	-39.3	23.1	0.00e+00	92	28	0	203423744	50	5946
2026-01-05 02:53:13.53	249.86	10.33	-38.4	-39.4	22.9	0.00e+00	92	28	0	205520896	50	5967
2026-01-05 02:53:14.54	250.02	10.38	-38.4	-39.3	22.9	0.00e+00	90	28	0	207618048	50	5940
2026-01-05 02:53:15.55	250.18	10.42	-38.2	-39.1	23.0	0.00e+00	66	28	0	209715200	50	5808
2026-01-05 02:53:16.56	250.33	10.47	-38.2	-39.1	23.0	0.00e+00	92	28	0	211812352	50	5824
2026-01-05 02:53:17.57	250.49	10.51	-38.3	-39.3	23.0	0.00e+00	34	28	0	212860928	50	5914
2026-01-05 02:53:18.58	250.66	10.56	-38.3	-39.2	23.1	0.00e+00	90	28	0	214958080	50	5869
2026-01-05 02:53:19.59	250.82	10.60	-38.4	-39.4	22.9	0.00e+00	92	28	0	217055232	50	6000
2026-01-05 02:53:20.60	250.98	10.65	-38.2	-39.1	23.0	0.00e+00	92	28	0	219152384	50	5799
2026-01-05 02:53:21.61	251.14	10.69	-38.2	-39.1	23.1	0.00e+00	92	28	0	221249536	50	5801
2026-01-05 02:53:22.63	251.30	10.74	-38.3	-39.2	23.1	0.00e+00	11	28	0	222298112	50	5876
2026-01-05 02:53:23.64	251.47	10.78	-38.2	-39.1	23.1	0.00e+00	92	28	0	224395264	50	5825
2026-01-05 02:53:24.65	251.63	10.82	-38.5	-39.5	23.0	0.00e+00	0	28	0	226492416	50	6074
2026-01-05 02:53:25.66	251.79	10.87	-38.6	-39.5	23.0	0.00e+00	92	28	0	228589568	50	6100
2026-01-05 02:53:26.67	251.96	10.91	-38.4	-39.4	23.0	0.00e+00	92	28	0	230686720	50	5984
2026-01-05 02:53:27.68	252.12	10.95	-38.3	-39.3	23.0	0.00e+00	92	28	0	231735296	50	5914
2026-01-05 02:53:28.68	252.29	11.00	-38.4	-39.3	23.1	0.00e+00	91	28	0	233832448	50	5955
2026-01-05 02:53:29.69	252.45	11.04	-38.5	-39.4	23.1	0.00e+00	91	28	0	235929600	50	5992
2026-01-05 02:53:30.70	252.62	11.08	-38.4	-39.3	23.0	0.00e+00	91	28	0	238026752	50	5937
2026-01-05 02:53:31.72	252.79	11.13	-38.3	-39.2	23.2	0.00e+00	75	28	0	240123904	50	5893
2026-01-05 02:53:32.72	252.95	11.17	-38.2	-39.2	23.0	0.00e+00	92	28	0	241172480	50	5845
2026-01-05 02:53:33.73	253.12	11.21	-38.6	-39.6	22.7	0.00e+00	11	28	0	243269632	50	6133
2026-01-05 02:53:34.74	253.29	11.25	-38.7	-39.7	22.8	0.00e+00	92	28	0	245366784	50	6200
2026-01-05 02:53:35.75	253.46	11.30	-39.1	-40.1	22.8	0.00e+00	91	28	0	247463936	50	6521
2026-01-05 02:53:36.76	253.63	11.34	-38.9	-39.9	22.6	0.00e+00	92	28	0	249561088	50	6383
2026-01-05 02:53:37.77	253.80	11.38	-38.8	-39.8	22.7	0.00e+00	90	28	0	250609664	50	6290
2026-01-05 02:53:38.78	253.97	11.42	-38.9	-39.9	22.7	0.00e+00	18	28	0	252706816	50	6349
2026-01-05 02:53:39.79	254.14	11.47	-38.9	-39.9	22.5	0.00e+00	92	28	0	254803968	50	6332
2026-01-05 02:53:40.80	254.31	11.51	-39.0	-40.0	22.4	0.00e+00	21	28	0	256901120	50	6422
2026-01-05 02:53:41.81	254.48	11.55	-38.8	-39.8	22.6	0.00e+00	92	28	0	258998272	50	6265
2026-01-05 02:53:42.82	254.65	11.59	-39.2	-40.2	22.5	0.00e+00	92	28	0	261095424	50	6543
2026-01-05 02:53:43.83	254.82	11.63	-38.9	-39.9	22.7	0.00e+00	92	28	0	262144000	50	6341
2026-01-05 02:53:44.84	255.00	11.67	-38.9	-39.9	22.6	0.00e+00	92	28	0	264241152	50	6386
2026-01-05 02:53:45.85	255.17	11.71	-39.0	-40.0	22.5	0.00e+00	92	28	0	266338304	50	6405
2026-01-05 02:53:46.86	255.34	11.75	-39.5	-40.6	21.6	0.00e+00	92	28	0	268435456	50	6851
2026-01-05 02:53:47.87	255.52	11.79	-39.8	-40.9	22.2	0.00e+00	0	28	0	270532608	52	6332
2026-01-05 02:53:48.88	255.69	11.83	-40.4	-41.5	21.8	0.00e+00	91	28	0	271581184	52	6815
2026-01-05 02:53:49.89	255.87	11.87	-40.1	-41.2	21.8	0.00e+00	90	28	0	273678336	52	6547
2026-01-05 02:53:50.89	256.04	11.91	-40.0	-41.1	21.6	0.00e+00	92	28	0	275775488	52	6537
2026-01-05 02:53:51.90	256.22	11.95	-39.8	-40.8	21.8	0.00e+00	92	28	0	277872640	52	6306
2026-01-05 02:53:52.91	256.39	11.99	-39.9	-41.1	21.6	0.00e+00	92	28	0	279969792	52	6473
2026-01-05 02:53:53.92	256.57	12.03	-39.8	-40.9	21.5	0.00e+00	90	28	0	281018368	52	6365
2026-01-05 02:53:54.93	256.75	12.07	-40.0	-41.1	21.8	0.00e+00	0	28	0	283115520	52	6481
2026-01-05 02:53:55.94	256.92	12.11	-39.9	-41.0	21.6	0.00e+00	92	28	0	285212672	52	6449
2026-01-05 02:53:56.95	257.10	12.15	-39.8	-40.9	21.7	0.00e+00	54	28	0	287309824	52	6347
2026-01-05 02:53:57.96	257.28	12.19	-39.7	-40.8	21.8	0.00e+00	92	28	0	289406976	52	6266
2026-01-05 02:53:58.97	257.46	12.23	-39.7	-40.8	21.6	0.00e+00	92	28	0	290455552	52	6266
2026-01-05 02:53:59.98	257.64	12.27	-39.6	-40.7	21.8	0.00e+00	92	28	0	292552704	52	6190
2026-01-05 02:54:00.99	257.82	12.30	-39.5	-40.6	21.8	0.00e+00	92	28	0	294649856	52	6124
2026-01-05 02:54:01.99	258.00	12.34	-39.7	-40.8	21.7	0.00e+00	42	28	0	296747008	52	6315
2026-01-05 02:54:03.01	258.18	12.38	-40.1	-41.2	21.5	0.00e+00	92	28	0	298844160	52	6596
2026-01-05 02:54:04.01	258.36	12.42	-40.2	-41.4	21.2	0.00e+00	7	28	0	299892736	52	6743
2026-01-05 02:54:05.03	258.55	12.45	-40.2	-41.4	21.3	0.00e+00	92	28	0	301989888	52	6719
2026-01-05 02:54:06.04	258.73	12.49	-40.5	-41.7	21.1	0.00e+00	92	27	0	304087040	52	6987
2026-01-05 02:54:07.05	258.91	12.53	-40.1	-41.3	21.6	0.00e+00	92	27	0	306184192	52	6644
2026-01-05 02:54:08.06	259.09	12.56	-40.0	-41.1	21.6	0.00e+00	90	28	0	308281344	52	6508
2026-01-05 02:54:09.07	259.28	12.60	-39.8	-40.9	21.7	0.00e+00	76	28	0	309329920	52	6340
2026-01-05 02:54:10.08	259.46	12.64	-39.8	-41.0	21.6	0.00e+00	90	27	0	311427072	52	6399
2026-01-05 02:54:11.08	259.64	12.67	-39.7	-40.8	21.8	0.00e+00	0	28	0	313524224	52	6294
2026-01-05 02:54:12.10	259.83	12.71	-40.1	-41.3	21.3	0.00e+00	90	28	0	315621376	52	6645
2026-01-05 02:54:13.11	260.02	12.74	-39.9	-40.9	21.9	0.00e+00	92	28	0	317718528	52	6390
2026-01-05 02:54:14.12	260.20	12.78	-39.3	-40.4	22.0	0.00e+00	90	28	0	318767104	52	5992
2026-01-05 02:54:15.13	260.39	12.82	-39.6	-40.7	21.9	0.00e+00	92	28	0	320864256	52	6187
2026-01-05 02:54:16.14	260.58	12.85	-39.5	-40.6	21.9	0.00e+00	90	28	0	322961408	52	6134
2026-01-05 02:54:17.15	260.76	12.88	-39.7	-40.8	21.7	0.00e+00	92	27	0	325058560	52	6304
2026-01-05 02:54:18.16	260.95	12.92	-40.0	-41.2	21.6	0.00e+00	8	27	0	327155712	52	6544
2026-01-05 02:54:19.17	261.14	12.95	-40.0	-41.2	21.4	0.00e+00	92	28	0	329252864	52	6547
2026-01-05 02:54:20.18	261.33	12.99	-40.1	-41.3	21.3	0.00e+00	0	28	0	330301440	52	6636
2026-01-05 02:54:21.19	261.52	13.02	-40.2	-41.4	21.2	0.00e+00	92	27	0	332398592	52	6727
2026-01-05 02:54:22.20	261.70	13.05	-40.6	-41.8	21.1	0.00e+00	92	28	0	334495744	52	7065
2026-01-05 02:54:23.21	261.89	13.09	-40.5	-41.7	21.2	0.00e+00	92	28	0	336592896	52	6957
2026-01-05 02:54:24.21	262.08	13.12	-40.4	-41.5	21.2	0.00e+00	90	28	0	338690048	52	6829
2026-01-05 02:54:25.22	262.27	13.15	-40.0	-41.1	21.4	0.00e+00	87	28	0	339738624	52	6517
2026-01-05 02:54:26.23	262.46	13.19	-39.8	-40.9	21.5	0.00e+00	92	28	0	341835776	52	6360
2026-01-05 02:54:27.24	262.66	13.22	-39.9	-41.0	21.7	0.00e+00	2	27	0	343932928	52	6432
2026-01-05 02:54:28.25	262.85	13.25	-39.8	-40.9	21.6	0.00e+00	92	28	0	346030080	52	6365
2026-01-05 02:54:29.26	263.04	13.28	-40.6	-41.8	21.5	0.00e+00	91	28	0	348127232	52	7072
2026-01-05 02:54:30.27	263.23	13.31	-40.7	-41.9	21.0	0.00e+00	90	28	0	349175808	52	7104
2026-01-05 02:54:31.28	263.42	13.35	-40.1	-41.2	21.5	0.00e+00	92	28	0	351272960	54	5852
2026-01-05 02:54:32.29	263.62	13.38	-40.9	-42.2	20.6	0.00e+00	90	27	0	353370112	54	6555
2026-01-05 02:54:33.30	263.81	13.41	-40.4	-41.6	21.2	0.00e+00	92	28	0	355467264	54	6115
2026-01-05 02:54:34.31	264.01	13.44	-40.9	-42.2	20.5	0.00e+00	2	28	0	357564416	54	6579
2026-01-05 02:54:35.32	264.20	13.47	-40.4	-41.5	21.1	0.00e+00	92	28	0	358612992	54	6092
2026-01-05 02:54:36.33	264.39	13.50	-39.8	-40.9	21.8	0.00e+00	92	28	0	360710144	54	5689
2026-01-05 02:54:37.34	264.59	13.53	-40.7	-41.8	21.1	0.00e+00	90	28	0	362807296	54	6283
2026-01-05 02:54:38.35	264.79	13.56	-40.5	-41.6	21.5	0.00e+00	91	28	0	364904448	54	6162
2026-01-05 02:54:39.36	264.98	13.59	-40.5	-41.7	21.5	0.00e+00	90	27	0	367001600	54	6212
2026-01-05 02:54:40.37	265.18	13.62	-40.1	-41.2	21.6	0.00e+00	92	28	0	368050176	54	5876
2026-01-05 02:54:41.37	265.37	13.64	-40.0	-41.1	21.8	0.00e+00	14	28	0	370147328	54	5769
2026-01-05 02:54:42.38	265.57	13.67	-40.0	-41.1	21.6	0.00e+00	92	28	0	372244480	54	5775
2026-01-05 02:54:43.39	265.77	13.70	-39.4	-40.4	22.1	0.00e+00	56	28	0	374341632	52	5998
2026-01-05 02:54:44.40	265.96	13.73	-39.2	-40.2	22.1	0.00e+00	92	28	0	376438784	52	5869
2026-01-05 02:54:45.41	266.16	13.76	-39.0	-40.1	22.6	0.00e+00	90	28	0	377487360	52	5767
2026-01-05 02:54:46.42	266.36	13.78	-38.8	-39.7	22.7	0.00e+00	92	28	0	379584512	52	5559
2026-01-05 02:54:47.43	266.56	13.81	-38.8	-39.8	22.8	0.00e+00	92	28	0	381681664	50	6296
2026-01-05 02:54:48.44	266.76	13.84	-39.0	-39.9	22.9	0.00e+00	13	28	0	383778816	50	6381
2026-01-05 02:54:49.45	266.96	13.86	-38.6	-39.6	22.9	0.00e+00	92	28	0	385875968	50	6137
2026-01-05 02:54:50.46	267.16	13.89	-38.9	-39.9	22.8	0.00e+00	0	28	0	386924544	50	6354
2026-01-05 02:54:51.47	267.36	13.92	-38.7	-39.7	23.0	0.00e+00	92	28	0	389021696	50	6194
2026-01-05 02:54:52.48	267.56	13.94	-38.8	-39.7	22.9	0.00e+00	93	28	0	391118848	50	6229
2026-01-05 02:54:53.49	267.76	13.97	-39.0	-39.9	22.8	0.00e+00	92	27	0	393216000	50	6389
2026-01-05 02:54:54.49	267.96	13.99	-39.1	-40.1	22.5	0.00e+00	92	28	0	395313152	50	6468
2026-01-05 02:54:55.50	268.16	14.02	-38.7	-39.7	22.7	0.00e+00	92	28	0	397410304	50	6217
2026-01-05 02:54:56.51	268.36	14.04	-39.0	-39.9	22.7	0.00e+00	92	28	0	398458880	50	6381
2026-01-05 02:54:57.52	268.56	14.06	-38.9	-39.9	22.8	0.00e+00	0	28	0	400556032	50	6362
2026-01-05 02:54:58.53	268.77	14.09	-39.0	-39.9	22.8	0.00e+00	92	28	0	402653184	50	6388
2026-01-05 02:54:59.54	268.97	14.11	-39.1	-40.1	22.9	0.00e+00	90	28	0	404750336	50	6468
2026-01-05 02:55:00.55	269.17	14.13	-38.6	-39.6	23.1	0.00e+00	92	28	0	406847488	50	6126
2026-01-05 02:55:01.56	269.38	14.16	-38.5	-39.5	23.1	0.00e+00	91	28	0	407896064	50	6058
2026-01-05 02:55:02.57	269.58	14.18	-38.5	-39.4	23.2	0.00e+00	92	28	0	409993216	50	6010
2026-01-05 02:55:03.58	269.78	14.20	-38.3	-39.2	23.2	0.00e+00	92	28	0	412090368	50	5861
2026-01-05 02:55:04.59	269.99	14.22	-38.6	-39.5	22.8	0.00e+00	5	28	0	414187520	50	6075
2026-01-05 02:55:05.60	270.19	14.25	-38.6	-39.6	22.8	0.00e+00	91	27	0	416284672	50	6118
2026-01-05 02:55:06.61	270.40	14.27	-38.6	-39.6	22.7	0.00e+00	67	28	0	417333248	50	6140
2026-01-05 02:55:07.62	270.60	14.29	-38.8	-39.8	22.6	0.00e+00	92	28	0	419430400	50	6253
2026-01-05 02:55:08.64	270.81	14.31	-39.0	-40.0	22.4	0.00e+00	92	28	0	421527552	50	6442
2026-01-05 02:55:09.64	271.01	14.33	-39.3	-40.3	22.4	0.00e+00	92	28	0	423624704	50	6644
2026-01-05 02:55:10.65	271.22	14.35	-39.5	-40.6	22.2	0.00e+00	90	28	0	425721856	50	6883
2026-01-05 02:55:11.66	271.43	14.37	-39.7	-40.8	21.9	0.00e+00	20	28	0	426770432	50	7032
2026-01-05 02:55:12.67	271.63	14.39	-39.6	-40.7	21.8	0.00e+00	92	28	0	428867584	50	6958
2026-01-05 02:55:13.68	271.84	14.41	-39.5	-40.6	21.8	0.00e+00	6	28	0	430964736	50	6869
2026-01-05 02:55:14.70	272.05	14.43	-39.4	-40.5	22.1	0.00e+00	92	28	0	433061888	52	6050
2026-01-05 02:55:15.71	272.25	14.44	-39.3	-40.4	22.1	0.00e+00	90	28	0	435159040	52	5995
2026-01-05 02:55:16.72	272.46	14.46	-39.5	-40.5	22.0	0.00e+00	91	28	0	436207616	52	6082
2026-01-05 02:55:17.73	272.67	14.48	-39.5	-40.6	21.8	0.00e+00	92	28	0	438304768	52	6155
2026-01-05 02:55:18.74	272.88	14.50	-39.5	-40.6	21.9	0.00e+00	92	28	0	440401920	52	6164
2026-01-05 02:55:19.75	273.09	14.51	-39.4	-40.5	21.9	0.00e+00	92	28	0	442499072	52	6060
2026-01-05 02:55:20.76	273.29	14.53	-39.5	-40.6	22.0	0.00e+00	70	28	0	444596224	52	6108
2026-01-05 02:55:21.77	273.50	14.55	-39.5	-40.6	22.0	0.00e+00	91	28	0	445644800	52	6115
2026-01-05 02:55:22.78	273.71	14.56	-39.3	-40.4	22.1	0.00e+00	70	27	0	447741952	52	5965
2026-01-05 02:55:23.79	273.92	14.58	-39.5	-40.5	22.0	0.00e+00	91	28	0	449839104	52	6089
2026-01-05 02:55:24.80	274.13	14.59	-39.8	-40.8	21.9	0.00e+00	90	28	0	451936256	52	6313
2026-01-05 02:55:25.81	274.34	14.61	-39.3	-40.4	22.2	0.00e+00	92	28	0	454033408	52	5970
2026-01-05 02:55:26.82	274.55	14.62	-39.3	-40.3	22.3	0.00e+00	90	28	0	455081984	52	5939
2026-01-05 02:55:27.83	274.76	14.64	-39.4	-40.5	22.1	0.00e+00	7	28	0	457179136	52	6045
2026-01-05 02:55:28.84	274.97	14.65	-39.3	-40.4	22.1	0.00e+00	92	28	0	459276288	52	5987
2026-01-05 02:55:29.85	275.18	14.66	-39.3	-40.3	22.2	0.00e+00	0	28	0	461373440	52	5937
2026-01-05 02:55:30.86	275.39	14.68	-39.4	-40.5	22.1	0.00e+00	92	28	0	463470592	52	6072
2026-01-05 02:55:31.87	275.60	14.69	-39.2	-40.3	22.2	0.00e+00	92	28	0	465567744	52	5918
2026-01-05 02:55:32.88	275.81	14.70	-39.3	-40.3	22.0	0.00e+00	90	27	0	466616320	52	5954
2026-01-05 02:55:33.89	276.02	14.72	-39.2	-40.3	22.0	0.00e+00	90	27	0	468713472	52	5901
2026-01-05 02:55:34.90	276.23	14.73	-39.2	-40.3	22.3	0.00e+00	69	28	0	470810624	52	5914
2026-01-05 02:55:35.90	276.44	14.74	-39.2	-40.2	22.1	0.00e+00	92	27	0	472907776	52	5866
2026-01-05 02:55:36.91	276.65	14.75	-39.0	-40.0	22.5	0.00e+00	0	28	0	475004928	52	5728
2026-01-05 02:55:37.92	276.86	14.76	-39.0	-40.0	22.5	0.00e+00	92	27	0	476053504	52	5748
2026-01-05 02:55:38.93	277.08	14.77	-38.9	-40.0	22.6	0.00e+00	92	28	0	478150656	52	5696
2026-01-05 02:55:39.94	277.29	14.78	-38.9	-39.9	22.6	0.00e+00	70	27	0	480247808	52	5642
2026-01-05 02:55:40.95	277.50	14.79	-39.0	-40.0	22.3	0.00e+00	92	28	0	482344960	52	5756
2026-01-05 02:55:41.96	277.71	14.80	-39.2	-40.2	22.2	0.00e+00	74	28	0	484442112	52	5894
2026-01-05 02:55:42.97	277.92	14.81	-39.1	-40.1	22.3	0.00e+00	92	28	0	485490688	52	5819
2026-01-05 02:55:43.98	278.14	14.82	-39.2	-40.2	22.2	0.00e+00	6	28	0	487587840	52	5863
2026-01-05 02:55:44.99	278.35	14.82	-39.5	-40.5	21.9	0.00e+00	92	28	0	489684992	52	6097
2026-01-05 02:55:46.00	278.56	14.83	-39.1	-40.1	22.2	0.00e+00	92	28	0	491782144	52	5823
2026-01-05 02:55:47.01	278.77	14.84	-39.2	-40.3	22.3	0.00e+00	92	28	0	493879296	52	5912
2026-01-05 02:55:48.02	278.99	14.85	-38.8	-39.8	22.5	0.00e+00	92	28	0	494927872	52	5615
2026-01-05 02:55:49.03	279.20	14.85	-38.7	-39.7	22.6	0.00e+00	73	28	0	497025024	52	5525
2026-01-05 02:55:50.04	279.41	14.86	-38.6	-39.6	22.7	0.00e+00	92	28	0	499122176	50	6127
2026-01-05 02:55:51.05	279.62	14.87	-38.7	-39.7	22.7	0.00e+00	8	28	0	501219328	50	6219
2026-01-05 02:55:52.06	279.84	14.87	-38.7	-39.7	22.6	0.00e+00	90	28	0	503316480	50	6178
2026-01-05 02:55:53.07	280.05	14.88	-38.6	-39.6	22.7	0.00e+00	19	28	0	504365056	50	6144
2026-01-05 02:55:54.08	280.26	14.88	-38.7	-39.7	22.6	0.00e+00	92	27	0	506462208	50	6200
2026-01-05 02:55:55.09	280.48	14.89	-38.7	-39.7	22.6	0.00e+00	92	28	0	508559360	50	6232
2026-01-05 02:55:56.10	280.69	14.89	-38.8	-39.8	22.4	0.00e+00	74	28	0	510656512	50	6310
2026-01-05 02:55:57.11	280.90	14.89	-38.9	-40.0	22.3	0.00e+00	92	28	0	512753664	50	6415
2026-01-05 02:55:58.12	281.12	14.90	-38.8	-39.8	22.4	0.00e+00	68	28	0	513802240	50	6301
2026-01-05 02:55:59.13	281.33	14.90	-38.9	-39.9	22.5	0.00e+00	92	28	0	515899392	50	6354
2026-01-05 02:56:00.14	281.54	14.90	-39.3	-40.4	21.8	0.00e+00	0	28	0	517996544	50	6693
2026-01-05 02:56:01.14	281.75	14.91	-39.3	-40.4	22.4	0.00e+00	92	28	0	520093696	50	6704
2026-01-05 02:56:02.15	281.97	14.91	-38.7	-39.7	22.8	0.00e+00	90	28	0	522190848	50	6225
2026-01-05 02:56:03.16	282.18	14.91	-38.5	-39.4	23.0	0.00e+00	0	28	0	523239424	50	5998
2026-01-05 02:56:04.17	282.40	14.91	-38.5	-39.4	23.0	0.00e+00	90	28	0	525336576	50	6024
2026-01-05 02:56:05.18	282.61	14.91	-38.4	-39.4	23.1	0.00e+00	69	28	0	527433728	50	5979
2026-01-05 02:56:06.19	282.82	14.91	-38.3	-39.2	23.1	0.00e+00	92	28	0	529530880	50	5896
2026-01-05 02:56:07.20	283.04	14.91	-38.4	-39.3	23.1	0.00e+00	2	28	0	531628032	50	5926
2026-01-05 02:56:08.21	283.25	14.91	-38.2	-39.2	23.1	0.00e+00	92	28	0	533725184	50	5844
2026-01-05 02:56:09.22	283.46	14.91	-38.2	-39.2	23.1	0.00e+00	49	28	0	534773760	50	5837
2026-01-05 02:56:10.23	283.68	14.91	-38.4	-39.3	23.0	0.00e+00	92	28	0	536870912	50	5961
2026-01-05 02:56:11.24	283.89	14.91	-38.6	-39.5	22.9	0.00e+00	92	27	0	538968064	50	6086
2026-01-05 02:56:12.25	284.10	14.91	-38.5	-39.4	22.8	0.00e+00	0	28	0	541065216	50	6015
2026-01-05 02:56:13.26	284.32	14.91	-38.5	-39.5	22.9	0.00e+00	92	28	0	543162368	50	6041
2026-01-05 02:56:14.27	284.53	14.90	-38.5	-39.5	22.9	0.00e+00	0	28	0	544210944	50	6074
2026-01-05 02:56:15.28	284.74	14.90	-38.2	-39.2	23.1	0.00e+00	92	28	0	546308096	50	5845
2026-01-05 02:56:16.29	284.96	14.90	-38.1	-39.0	23.4	0.00e+00	0	28	0	548405248	50	5723
2026-01-05 02:56:17.30	285.17	14.89	-37.8	-38.7	23.5	0.00e+00	92	28	0	550502400	50	5556
2026-01-05 02:56:18.31	285.38	14.89	-37.8	-38.7	23.5	0.00e+00	92	28	0	552599552	50	5533
2026-01-05 02:56:19.32	285.60	14.88	-37.8	-38.7	23.6	0.00e+00	0	28	0	553648128	48	6182
2026-01-05 02:56:20.33	285.81	14.88	-37.9	-38.8	23.4	0.00e+00	92	28	0	555745280	48	6258
2026-01-05 02:56:21.34	286.02	14.87	-38.1	-39.1	23.2	0.00e+00	0	28	0	557842432	48	6481
2026-01-05 02:56:22.35	286.24	14.87	-38.4	-39.4	22.9	0.00e+00	92	28	0	559939584	48	6714
2026-01-05 02:56:23.36	286.45	14.86	-38.3	-39.3	23.2	0.00e+00	54	28	0	562036736	48	6617
2026-01-05 02:56:24.37	286.66	14.86	-38.2	-39.2	23.2	0.00e+00	90	28	0	563085312	48	6560
2026-01-05 02:56:25.38	286.87	14.85	-38.1	-39.0	23.4	0.00e+00	92	28	0	565182464	48	6416
2026-01-05 02:56:26.39	287.09	14.84	-38.1	-39.0	23.4	0.00e+00	0	28	0	567279616	48	6417
2026-01-05 02:56:27.40	287.30	14.84	-38.2	-39.1	23.3	0.00e+00	90	28	0	569376768	48	6485
2026-01-05 02:56:28.41	287.51	14.83	-38.4	-39.3	23.4	0.00e+00	8	28	0	571473920	48	6636
2026-01-05 02:56:29.41	287.72	14.82	-38.3	-39.3	23.4	0.00e+00	92	27	0	572522496	48	6628
2026-01-05 02:56:30.42	287.93	14.81	-38.1	-39.0	23.4	0.00e+00	20	28	0	574619648	48	6439
2026-01-05 02:56:31.43	288.15	14.80	-38.0	-38.9	23.6	0.00e+00	92	28	0	576716800	48	6370
2026-01-05 02:56:32.44	288.36	14.80	-38.0	-38.9	23.5	0.00e+00	60	28	0	578813952	48	6336
2026-01-05 02:56:33.45	288.57	14.79	-38.1	-39.0	23.5	0.00e+00	92	28	0	580911104	48	6457
2026-01-05 02:56:34.46	288.78	14.78	-38.2	-39.1	23.3	0.00e+00	92	28	0	581959680	50	5788
2026-01-05 02:56:35.47	288.99	14.77	-38.5	-39.4	23.3	0.00e+00	0	28	0	584056832	50	5999
2026-01-05 02:56:36.48	289.20	14.76	-38.4	-39.4	23.5	0.00e+00	89	27	0	586153984	50	5974
2026-01-05 02:56:37.49	289.41	14.74	-38.0	-38.9	23.4	0.00e+00	0	28	0	588251136	50	5676
2026-01-05 02:56:38.50	289.63	14.73	-38.1	-39.0	23.2	0.00e+00	92	28	0	590348288	50	5752
2026-01-05 02:56:39.51	289.84	14.72	-38.2	-39.1	23.5	0.00e+00	0	28	0	591396864	50	5814
2026-01-05 02:56:40.52	290.05	14.71	-38.3	-39.2	23.5	0.00e+00	91	28	0	593494016	50	5861
2026-01-05 02:56:41.53	290.26	14.70	-38.5	-39.4	23.3	0.00e+00	90	27	0	595591168	50	5993
2026-01-05 02:56:42.54	290.47	14.69	-38.3	-39.2	23.2	0.00e+00	68	28	0	597688320	50	5881
2026-01-05 02:56:43.55	290.68	14.67	-38.3	-39.3	23.1	0.00e+00	92	28	0	599785472	50	5924
2026-01-05 02:56:44.56	290.89	14.66	-38.3	-39.2	23.3	0.00e+00	13	28	0	601882624	50	5874
2026-01-05 02:56:45.57	291.10	14.65	-38.7	-39.7	22.9	0.00e+00	92	28	0	602931200	50	6182
2026-01-05 02:56:46.58	291.31	14.63	-38.5	-39.4	23.3	0.00e+00	18	28	0	605028352	50	6026
2026-01-05 02:56:47.59	291.52	14.62	-38.1	-39.0	23.4	0.00e+00	92	28	0	607125504	50	5759
2026-01-05 02:56:48.59	291.72	14.60	-38.1	-39.1	23.5	0.00e+00	92	27	0	609222656	50	5768
2026-01-05 02:56:49.60	291.93	14.59	-37.8	-38.7	23.6	0.00e+00	0	28	0	611319808	50	5530
2026-01-05 02:56:50.61	292.14	14.57	-37.9	-38.8	23.5	0.00e+00	92	28	0	612368384	50	5619
2026-01-05 02:56:51.62	292.35	14.56	-38.2	-39.1	23.5	0.00e+00	12	27	0	614465536	50	5767
2026-01-05 02:56:52.63	292.56	14.54	-38.4	-39.3	23.4	0.00e+00	90	28	0	616562688	50	5918
2026-01-05 02:56:53.64	292.77	14.52	-38.6	-39.4	23.3	0.00e+00	5	28	0	618659840	50	6024
2026-01-05 02:56:54.65	292.97	14.51	-38.6	-39.6	23.3	0.00e+00	92	28	0	620756992	50	6107
2026-01-05 02:56:55.66	293.18	14.49	-38.3	-39.2	23.5	0.00e+00	91	28	0	621805568	50	5841
2026-01-05 02:56:56.67	293.39	14.47	-38.3	-39.2	23.5	0.00e+00	0	27	0	623902720	50	5852
2026-01-05 02:56:57.67	293.59	14.46	-38.4	-39.3	23.6	0.00e+00	91	28	0	625999872	50	5954
2026-01-05 02:56:58.68	293.80	14.44	-38.0	-38.8	23.7	0.00e+00	0	28	0	628097024	50	5618
2026-01-05 02:56:59.69	294.01	14.42	-38.0	-38.9	23.6	0.00e+00	91	28	0	630194176	50	5666
2026-01-05 02:57:00.70	294.21	14.40	-37.7	-38.6	23.9	0.00e+00	73	28	0	631242752	48	6119
2026-01-05 02:57:01.71	294.42	14.38	-37.9	-38.7	23.8	0.00e+00	90	28	0	633339904	48	6236
2026-01-05 02:57:02.72	294.63	14.36	-37.9	-38.8	23.7	0.00e+00	0	28	0	635437056	48	6256
2026-01-05 02:57:03.73	294.83	14.34	-37.8	-38.7	23.4	0.00e+00	92	28	0	637534208	48	6245
2026-01-05 02:57:04.74	295.04	14.32	-37.9	-38.8	23.4	0.00e+00	90	28	0	639631360	48	6295
2026-01-05 02:57:05.75	295.24	14.30	-38.2	-39.1	23.2	0.00e+00	74	28	0	640679936	48	6503
2026-01-05 02:57:06.76	295.45	14.28	-38.1	-39.1	23.3	0.00e+00	90	28	0	642777088	48	6474
2026-01-05 02:57:07.77	295.65	14.26	-38.1	-39.0	23.4	0.00e+00	6	28	0	644874240	48	6424
2026-01-05 02:57:08.78	295.86	14.24	-38.2	-39.1	23.4	0.00e+00	90	28	0	646971392	48	6521
2026-01-05 02:57:09.79	296.06	14.22	-38.0	-38.9	23.6	0.00e+00	9	28	0	649068544	48	6375
2026-01-05 02:57:10.80	296.26	14.20	-37.9	-38.8	23.7	0.00e+00	92	27	0	650117120	48	6280
2026-01-05 02:57:11.81	296.47	14.17	-37.6	-38.4	23.8	0.00e+00	90	28	0	652214272	48	6033
2026-01-05 02:57:12.82	296.67	14.15	-37.6	-38.5	24.0	0.00e+00	0	27	0	654311424	48	6034
2026-01-05 02:57:13.82	296.87	14.13	-37.8	-38.7	23.9	0.00e+00	91	28	0	656408576	48	6195
2026-01-05 02:57:14.84	297.07	14.10	-37.7	-38.5	24.1	0.00e+00	8	28	0	658505728	48	6095
2026-01-05 02:57:15.85	297.28	14.08	-37.6	-38.5	24.0	0.00e+00	92	28	0	659554304	48	6044
2026-01-05 02:57:16.86	297.48	14.06	-37.7	-38.6	24.1	0.00e+00	2	28	0	661651456	48	6116
2026-01-05 02:57:17.87	297.68	14.03	-37.4	-38.3	24.1	0.00e+00	92	28	0	663748608	48	5902
2026-01-05 02:57:18.88	297.88	14.01	-37.8	-38.7	24.0	0.00e+00	21	28	0	665845760	48	6195
2026-01-05 02:57:19.89	298.08	13.98	-37.7	-38.5	24.0	0.00e+00	82	28	0	667942912	48	6080
2026-01-05 02:57:20.90	298.28	13.96	-38.1	-39.0	23.8	0.00e+00	92	28	0	670040064	48	6443
2026-01-05 02:57:21.91	298.48	13.93	-37.9	-38.8	23.7	0.00e+00	74	28	0	671088640	48	6278
2026-01-05 02:57:22.91	298.68	13.91	-38.1	-38.9	23.8	0.00e+00	92	28	0	673185792	48	6384
2026-01-05 02:57:23.92	298.88	13.88	-37.9	-38.7	23.7	0.00e+00	0	28	0	675282944	48	6242
2026-01-05 02:57:24.93	299.08	13.86	-37.9	-38.8	23.6	0.00e+00	92	28	0	677380096	48	6275
2026-01-05 02:57:25.94	299.28	13.83	-37.9	-38.8	23.6	0.00e+00	46	28	0	679477248	48	6265
2026-01-05 02:57:26.95	299.48	13.80	-37.8	-38.7	23.8	0.00e+00	90	28	0	680525824	48	6178
2026-01-05 02:57:27.96	299.67	13.78	-38.0	-38.9	23.8	0.00e+00	92	28	0	682622976	48	6325
2026-01-05 02:57:28.97	299.87	13.75	-37.9	-38.7	24.0	0.00e+00	73	28	0	684720128	48	6231
2026-01-05 02:57:29.98	300.07	13.72	-37.9	-38.8	23.9	0.00e+00	92	28	0	686817280	48	6262
2026-01-05 02:57:30.99	300.27	13.69	-37.9	-38.8	23.9	0.00e+00	4	28	0	687865856	48	6271
2026-01-05 02:57:32.00	300.46	13.67	-39.0	-39.9	23.7	0.00e+00	92	28	0	689963008	48	7149
2026-01-05 02:57:33.01	300.66	13.64	-38.6	-39.5	24.0	0.00e+00	0	28	0	692060160	50	6040
2026-01-05 02:57:34.02	300.85	13.61	-37.4	-38.2	24.3	0.00e+00	89	28	0	694157312	48	5880
2026-01-05 02:57:35.03	301.05	13.58	-37.6	-38.4	24.3	0.00e+00	92	28	0	696254464	48	6004
2026-01-05 02:57:36.04	301.25	13.55	-38.0	-38.8	24.4	0.00e+00	0	28	0	698351616	48	6296
2026-01-05 02:57:37.05	301.44	13.52	-37.5	-38.3	24.3	0.00e+00	92	28	0	699400192	48	5932
2026-01-05 02:57:38.06	301.63	13.49	-37.8	-38.6	24.4	0.00e+00	0	28	0	701497344	48	6159
2026-01-05 02:57:39.07	301.83	13.46	-38.1	-38.9	24.2	0.00e+00	92	28	0	703594496	48	6389
2026-01-05 02:57:40.08	302.02	13.43	-38.5	-39.4	24.3	0.00e+00	2	28	0	705691648	48	6728
2026-01-05 02:57:41.09	302.22	13.40	-37.7	-38.6	24.1	0.00e+00	92	27	0	707788800	48	6117
2026-01-05 02:57:42.10	302.41	13.37	-38.0	-38.8	24.1	0.00e+00	25	28	0	708837376	48	6293
2026-01-05 02:57:43.11	302.60	13.34	-37.9	-38.7	24.0	0.00e+00	72	27	0	710934528	48	6231
2026-01-05 02:57:44.12	302.79	13.31	-37.6	-38.5	23.9	0.00e+00	92	27	0	713031680	48	6085
2026-01-05 02:57:45.13	302.98	13.28	-37.9	-38.8	23.7	0.00e+00	74	28	0	715128832	48	6251
2026-01-05 02:57:46.14	303.18	13.24	-37.8	-38.7	23.9	0.00e+00	90	28	0	717225984	48	6230
2026-01-05 02:57:47.15	303.37	13.21	-37.7	-38.6	23.9	0.00e+00	0	28	0	718274560	48	6140
2026-01-05 02:57:48.16	303.56	13.18	-37.9	-38.7	24.0	0.00e+00	91	28	0	720371712	48	6227
2026-01-05 02:57:49.17	303.75	13.15	-37.4	-38.3	24.1	0.00e+00	0	28	0	722468864	48	5922
2026-01-05 02:57:50.18	303.94	13.11	-37.4	-38.3	23.6	0.00e+00	75	28	0	724566016	48	5912
2026-01-05 02:57:51.19	304.13	13.08	-37.7	-38.6	24.0	0.00e+00	92	28	0	726663168	48	6124
2026-01-05 02:57:52.20	304.31	13.05	-37.8	-38.6	23.9	0.00e+00	5	28	0	727711744	48	6171
2026-01-05 02:57:53.22	304.50	13.01	-38.4	-39.3	23.9	0.00e+00	92	28	0	729808896	48	6686
2026-01-05 02:57:54.22	304.69	12.98	-37.9	-38.8	23.7	0.00e+00	0	28	0	731906048	48	6250
2026-01-05 02:57:55.23	304.88	12.95	-37.8	-38.6	23.9	0.00e+00	92	28	0	734003200	48	6157
2026-01-05 02:57:56.24	305.07	12.91	-37.8	-38.6	24.1	0.00e+00	0	28	0	736100352	48	6153
2026-01-05 02:57:57.25	305.25	12.88	-37.7	-38.5	24.0	0.00e+00	92	27	0	738197504	48	6088
2026-01-05 02:57:58.26	305.44	12.84	-37.9	-38.8	23.8	0.00e+00	92	27	0	739246080	48	6247
2026-01-05 02:57:59.27	305.62	12.81	-38.2	-39.1	23.7	0.00e+00	2	28	0	741343232	48	6506
2026-01-05 02:58:00.28	305.81	12.77	-38.2	-39.1	23.7	0.00e+00	92	28	0	743440384	48	6469
2026-01-05 02:58:01.29	305.99	12.74	-38.6	-39.5	23.4	0.00e+00	0	27	0	745537536	48	6820
2026-01-05 02:58:02.30	306.18	12.70	-38.4	-39.3	23.5	0.00e+00	90	28	0	747634688	50	5945
2026-01-05 02:58:03.31	306.36	12.67	-38.8	-39.8	23.4	0.00e+00	0	28	0	748683264	50	6251
2026-01-05 02:58:04.32	306.55	12.63	-39.1	-40.0	23.2	0.00e+00	92	28	0	750780416	50	6430
2026-01-05 02:58:05.33	306.73	12.60	-38.8	-39.7	23.1	0.00e+00	72	28	0	752877568	50	6245
2026-01-05 02:58:06.34	306.91	12.56	-38.9	-39.9	23.0	0.00e+00	0	28	0	754974720	50	6336
2026-01-05 02:58:07.35	307.10	12.52	-39.3	-40.2	23.3	0.00e+00	90	28	0	757071872	50	6605
2026-01-05 02:58:08.36	307.28	12.49	-39.3	-40.2	23.2	0.00e+00	70	28	0	758120448	52	5850
2026-01-05 02:58:09.37	307.46	12.45	-40.0	-41.0	23.1	0.00e+00	92	28	0	760217600	52	6413
2026-01-05 02:58:10.38	307.64	12.41	-39.2	-40.1	23.1	0.00e+00	2	28	0	762314752	52	5782
2026-01-05 02:58:11.39	307.82	12.38	-39.4	-40.4	23.0	0.00e+00	92	28	0	764411904	52	5997
2026-01-05 02:58:12.40	308.00	12.34	-39.2	-40.2	22.6	0.00e+00	71	28	0	766509056	52	5853
2026-01-05 02:58:13.41	308.18	12.30	-39.0	-40.0	22.7	0.00e+00	9	27	0	767557632	52	5725
2026-01-05 02:58:14.42	308.36	12.26	-39.9	-40.9	22.6	0.00e+00	92	28	0	769654784	52	6320
2026-01-05 02:58:15.43	308.54	12.22	-39.8	-40.8	22.5	0.00e+00	5	28	0	771751936	52	6249
2026-01-05 02:58:16.44	308.72	12.19	-40.2	-41.3	22.4	0.00e+00	91	28	0	773849088	52	6624
2026-01-05 02:58:17.44	308.89	12.15	-39.7	-40.8	22.2	0.00e+00	0	28	0	775946240	52	6250
2026-01-05 02:58:18.46	309.07	12.11	-40.0	-41.1	22.4	0.00e+00	92	28	0	776994816	52	6496
2026-01-05 02:58:19.47	309.25	12.07	-39.3	-40.2	22.6	0.00e+00	5	28	0	779091968	52	5890
2026-01-05 02:58:20.48	309.42	12.03	-39.9	-40.9	22.4	0.00e+00	92	28	0	781189120	52	6350
2026-01-05 02:58:21.48	309.60	11.99	-39.9	-40.8	22.6	0.00e+00	92	28	0	783286272	54	5625
2026-01-05 02:58:22.49	309.77	11.95	-39.8	-40.8	22.0	0.00e+00	70	27	0	785383424	52	6265
2026-01-05 02:58:23.50	309.95	11.91	-40.1	-41.1	22.2	0.00e+00	92	28	0	786432000	52	6521
2026-01-05 02:58:24.51	310.12	11.87	-41.3	-42.4	21.8	0.00e+00	73	28	0	788529152	54	6705
2026-01-05 02:58:25.52	310.30	11.83	-41.4	-42.7	21.3	0.00e+00	92	27	0	790626304	54	6931
2026-01-05 02:58:26.53	310.47	11.79	-41.3	-42.5	20.5	0.00e+00	0	28	0	792723456	56	6085
2026-01-05 02:58:27.54	310.65	11.75	-41.8	-43.1	20.6	0.00e+00	0	27	0	794820608	56	6473
2026-01-05 02:58:28.55	310.82	11.71	-41.1	-42.3	21.0	0.00e+00	70	27	0	795869184	56	5954
2026-01-05 02:58:29.56	310.99	11.67	-41.0	-42.2	21.0	0.00e+00	72	28	0	797966336	56	5871
2026-01-05 02:58:30.57	311.16	11.63	-40.7	-42.0	20.8	0.00e+00	90	28	0	800063488	56	5713
2026-01-05 02:58:31.58	311.33	11.59	-41.3	-42.6	20.6	0.00e+00	71	28	0	802160640	54	6882
2026-01-05 02:58:32.58	311.50	11.55	-41.6	-43.0	20.7	0.00e+00	92	27	0	804257792	54	7171
2026-01-05 02:58:33.59	311.67	11.51	-41.1	-42.4	20.4	0.00e+00	0	27	0	806354944	54	6706
2026-01-05 02:58:34.60	311.84	11.47	-41.2	-42.5	20.1	0.00e+00	90	27	0	807403520	54	6836
2026-01-05 02:58:35.61	312.01	11.43	-41.6	-43.0	19.9	0.00e+00	34	28	0	809500672	54	7198
2026-01-05 02:58:36.62	312.18	11.38	-42.2	-43.6	19.9	0.00e+00	6	28	0	811597824	56	6853
2026-01-05 02:58:37.63	312.35	11.34	-41.8	-43.2	20.0	0.00e+00	90	28	0	813694976	56	6551
2026-01-05 02:58:38.64	312.52	11.30	-41.3	-42.6	20.3	0.00e+00	0	28	0	815792128	56	6141
2026-01-05 02:58:39.65	312.69	11.26	-40.9	-42.2	20.4	0.00e+00	90	28	0	816840704	56	5877
2026-01-05 02:58:40.66	312.85	11.22	-41.0	-42.3	20.7	0.00e+00	0	28	0	818937856	56	5904
2026-01-05 02:58:41.67	313.02	11.17	-40.7	-41.9	21.0	0.00e+00	92	28	0	821035008	54	6343
2026-01-05 02:58:42.68	313.19	11.13	-40.4	-41.6	21.2	0.00e+00	0	28	0	823132160	54	6155
2026-01-05 02:58:43.69	313.35	11.09	-40.4	-41.6	21.4	0.00e+00	0	28	0	824180736	54	6120
2026-01-05 02:58:44.70	313.52	11.05	-40.8	-42.0	21.2	0.00e+00	92	28	0	826277888	54	6422
2026-01-05 02:58:45.71	313.68	11.00	-40.7	-41.9	21.2	0.00e+00	71	28	0	828375040	54	6339
2026-01-05 02:58:46.72	313.85	10.96	-40.7	-41.9	21.0	0.00e+00	92	28	0	830472192	54	6343
2026-01-05 02:58:47.73	314.01	10.92	-41.3	-42.5	21.0	0.00e+00	0	28	0	832569344	54	6825
2026-01-05 02:58:48.74	314.18	10.87	-41.4	-42.6	21.0	0.00e+00	92	27	0	834666496	56	6153
2026-01-05 02:58:49.75	314.34	10.83	-41.0	-42.2	21.0	0.00e+00	70	28	0	835715072	56	5888
2026-01-05 02:58:50.76	314.50	10.79	-41.4	-42.6	20.6	0.00e+00	81	28	0	837812224	56	6168
2026-01-05 02:58:51.77	314.66	10.74	-40.9	-42.1	20.6	0.00e+00	28	28	0	839909376	56	5817
2026-01-05 02:58:52.78	314.82	10.70	-41.0	-42.4	20.3	0.00e+00	9	28	0	842006528	56	5971
2026-01-05 02:58:53.79	314.99	10.66	-41.1	-42.5	20.1	0.00e+00	92	28	0	844103680	56	6057
2026-01-05 02:58:54.80	315.15	10.61	-41.1	-42.4	20.2	0.00e+00	3	28	0	845152256	56	6031
2026-01-05 02:58:55.81	315.31	10.57	-41.2	-42.5	20.2	0.00e+00	92	28	0	847249408	56	6087
2026-01-05 02:58:56.82	315.47	10.52	-41.0	-42.4	20.3	0.00e+00	9	28	0	849346560	56	5971
2026-01-05 02:58:57.83	315.63	10.48	-40.9	-42.1	20.5	0.00e+00	92	28	0	851443712	56	5823
2026-01-05 02:58:58.84	315.78	10.43	-41.0	-42.3	20.3	0.00e+00	15	28	0	853540864	54	6662
2026-01-05 02:58:59.85	315.94	10.39	-41.0	-42.3	20.7	0.00e+00	3	28	0	854589440	54	6635
2026-01-05 02:59:00.86	316.10	10.34	-40.4	-41.7	20.7	0.00e+00	92	28	0	856686592	54	6198
2026-01-05 02:59:01.87	316.26	10.30	-40.1	-41.3	21.0	0.00e+00	0	28	0	858783744	54	5950
2026-01-05 02:59:02.88	316.41	10.26	-40.3	-41.5	20.8	0.00e+00	92	27	0	860880896	54	6078
2026-01-05 02:59:03.89	316.57	10.21	-40.7	-41.9	20.7	0.00e+00	0	28	0	862978048	54	6370
2026-01-05 02:59:04.90	316.73	10.17	-41.1	-42.3	20.8	0.00e+00	70	28	0	864026624	54	6665
2026-01-05 02:59:05.91	316.88	10.12	-40.9	-42.2	20.8	0.00e+00	0	28	0	866123776	54	6556
2026-01-05 02:59:06.92	317.04	10.07	-40.8	-42.0	20.8	0.00e+00	4	28	0	868220928	54	6449
2026-01-05 02:59:07.93	317.19	10.03	-41.0	-42.2	20.9	0.00e+00	92	27	0	870318080	54	6574
2026-01-05 02:59:08.94	317.35	9.98	-40.9	-42.1	21.1	0.00e+00	70	28	0	872415232	54	6496
2026-01-05 02:59:09.95	317.50	9.94	-40.6	-41.8	21.4	0.00e+00	91	28	0	873463808	54	6260
2026-01-05 02:59:10.96	317.65	9.89	-40.3	-41.4	21.3	0.00e+00	72	28	0	875560960	54	6021
2026-01-05 02:59:11.97	317.81	9.85	-40.3	-41.4	21.6	0.00e+00	11	28	0	877658112	54	5972
2026-01-05 02:59:12.98	317.96	9.80	-40.3	-41.5	21.7	0.00e+00	70	28	0	879755264	54	6035
2026-01-05 02:59:13.99	318.11	9.75	-40.3	-41.4	21.4	0.00e+00	0	28	0	881852416	54	6019
2026-01-05 02:59:15.00	318.26	9.71	-40.4	-41.5	21.4	0.00e+00	50	27	0	883949568	54	6066
2026-01-05 02:59:16.01	318.41	9.66	-40.1	-41.3	21.5	0.00e+00	2	28	0	884998144	54	5909
2026-01-05 02:59:17.01	318.56	9.62	-40.1	-41.2	21.4	0.00e+00	90	28	0	887095296	54	5880
2026-01-05 02:59:18.02	318.71	9.57	-39.9	-41.0	21.1	0.00e+00	0	28	0	889192448	54	5737
2026-01-05 02:59:19.03	318.86	9.52	-40.1	-41.2	21.1	0.00e+00	92	27	0	891289600	54	5890
2026-01-05 02:59:20.04	319.01	9.48	-40.1	-41.3	21.3	0.00e+00	0	27	0	893386752	54	5919
2026-01-05 02:59:21.06	319.16	9.43	-40.6	-41.8	21.2	0.00e+00	0	28	0	894435328	54	6275
2026-01-05 02:59:22.06	319.31	9.38	-40.4	-41.5	21.3	0.00e+00	0	28	0	896532480	54	6081
2026-01-05 02:59:23.07	319.45	9.34	-40.5	-41.7	21.0	0.00e+00	0	28	0	898629632	54	6205
2026-01-05 02:59:24.08	319.60	9.29	-40.6	-41.8	21.2	0.00e+00	92	28	0	900726784	54	6254
2026-01-05 02:59:25.09	319.75	9.24	-40.3	-41.4	21.0	0.00e+00	72	28	0	902823936	54	6031
2026-01-05 02:59:26.10	319.89	9.20	-40.6	-41.8	20.9	0.00e+00	92	28	0	903872512	54	6307
2026-01-05 02:59:27.11	320.04	9.15	-40.2	-41.4	21.1	0.00e+00	0	28	0	905969664	54	5994
2026-01-05 02:59:28.12	320.19	9.10	-40.3	-41.5	20.9	0.00e+00	0	28	0	908066816	54	6103
2026-01-05 02:59:29.13	320.33	9.06	-40.3	-41.5	20.6	0.00e+00	47	28	0	910163968	54	6069
2026-01-05 02:59:30.14	320.47	9.01	-40.7	-42.0	20.7	0.00e+00	0	28	0	912261120	54	6416
2026-01-05 02:59:31.15	320.62	8.96	-40.5	-41.8	20.6	0.00e+00	92	28	0	913309696	54	6276
2026-01-05 02:59:32.16	320.76	8.91	-40.2	-41.4	21.0	0.00e+00	72	28	0	915406848	54	6006
2026-01-05 02:59:33.17	320.91	8.87	-40.0	-41.1	21.3	0.00e+00	91	28	0	917504000	54	5823
2026-01-05 02:59:34.18	321.05	8.82	-39.6	-40.8	21.3	0.00e+00	9	28	0	919601152	52	6254
2026-01-05 02:59:35.19	321.19	8.77	-39.2	-40.3	21.8	0.00e+00	10	28	0	921698304	52	5902
2026-01-05 02:59:36.20	321.33	8.72	-39.1	-40.1	22.0	0.00e+00	10	28	0	922746880	52	5826
2026-01-05 02:59:37.21	321.47	8.68	-38.9	-39.9	22.2	0.00e+00	0	28	0	924844032	52	5656
2026-01-05 02:59:38.22	321.61	8.63	-39.2	-40.2	22.3	0.00e+00	30	28	0	926941184	52	5862
2026-01-05 02:59:39.23	321.76	8.58	-38.9	-39.9	22.4	0.00e+00	0	28	0	929038336	52	5633
2026-01-05 02:59:40.24	321.90	8.53	-39.3	-40.3	22.3	0.00e+00	92	28	0	931135488	52	5945
2026-01-05 02:59:41.25	322.03	8.49	-39.4	-40.4	22.1	0.00e+00	0	28	0	932184064	52	5988
2026-01-05 02:59:42.26	322.17	8.44	-40.0	-41.1	22.0	0.00e+00	20	28	0	934281216	52	6534
2026-01-05 02:59:43.27	322.31	8.39	-39.7	-40.7	21.8	0.00e+00	0	28	0	936378368	52	6242
2026-01-05 02:59:44.28	322.45	8.34	-39.9	-40.9	21.9	0.00e+00	0	28	0	938475520	54	5680
2026-01-05 02:59:45.29	322.59	8.29	-39.6	-40.7	21.7	0.00e+00	0	28	0	940572672	52	6240
2026-01-05 02:59:46.30	322.73	8.25	-39.5	-40.6	21.6	0.00e+00	0	28	0	941621248	52	6136
2026-01-05 02:59:47.31	322.86	8.20	-39.8	-40.9	21.1	0.00e+00	90	28	0	943718400	52	6387
2026-01-05 02:59:48.32	323.00	8.15	-39.5	-40.6	21.8	0.00e+00	0	28	0	945815552	52	6126
2026-01-05 02:59:49.33	323.14	8.10	-39.3	-40.4	21.9	0.00e+00	92	28	0	947912704	52	5997
2026-01-05 02:59:50.34	323.27	8.05	-39.5	-40.5	21.9	0.00e+00	0	28	0	950009856	52	6092
2026-01-05 02:59:51.35	323.41	8.00	-39.2	-40.2	22.3	0.00e+00	12	28	0	952107008	52	5891
2026-01-05 02:59:52.36	323.54	7.96	-39.7	-40.8	22.0	0.00e+00	58	28	0	953155584	52	6273
2026-01-05 02:59:53.36	323.67	7.91	-39.5	-40.5	22.0	0.00e+00	69	28	0	955252736	52	6081
2026-01-05 02:59:54.37	323.81	7.86	-39.5	-40.6	21.8	0.00e+00	92	28	0	957349888	52	6126
2026-01-05 02:59:55.38	323.94	7.81	-39.9	-41.0	21.9	0.00e+00	0	28	0	959447040	52	6444
2026-01-05 02:59:56.39	324.07	7.76	-39.5	-40.6	21.6	0.00e+00	94	27	0	961544192	52	6147
2026-01-05 02:59:57.40	324.21	7.71	-39.5	-40.7	21.5	0.00e+00	13	28	0	962592768	52	6175
2026-01-05 02:59:58.41	324.34	7.67	-39.6	-40.7	21.8	0.00e+00	6	28	0	964689920	52	6199
2026-01-05 02:59:59.42	324.47	7.62	-39.6	-40.7	21.6	0.00e+00	5	28	0	966787072	52	6228
2026-01-05 03:00:00.43	324.60	7.57	-39.4	-40.5	21.8	0.00e+00	12	28	0	968884224	52	6087
2026-01-05 03:00:01.44	324.73	7.52	-40.1	-41.2	21.6	0.00e+00	91	28	0	969932800	52	6604
2026-01-05 03:00:02.45	324.86	7.47	-39.8	-41.0	21.8	0.00e+00	0	27	0	972029952	52	6400
2026-01-05 03:00:03.46	324.99	7.42	-40.1	-41.2	21.7	0.00e+00	91	28	0	974127104	52	6568
2026-01-05 03:00:04.47	325.12	7.37	-40.2	-41.3	21.5	0.00e+00	6	28	0	976224256	52	6679
2026-01-05 03:00:05.48	325.25	7.32	-39.2	-40.2	22.2	0.00e+00	55	28	0	978321408	52	5884
2026-01-05 03:00:06.49	325.38	7.28	-39.8	-40.9	21.8	0.00e+00	6	28	0	980418560	52	6356
2026-01-05 03:00:07.50	325.51	7.23	-40.3	-41.4	22.2	0.00e+00	0	28	0	981467136	54	5985
2026-01-05 03:00:08.51	325.64	7.18	-40.0	-41.0	21.9	0.00e+00	0	28	0	983564288	54	5749
2026-01-05 03:00:09.51	325.76	7.13	-40.2	-41.3	21.4	0.00e+00	5	28	0	985661440	54	5905
2026-01-05 03:00:10.52	325.89	7.08	-40.3	-41.4	21.6	0.00e+00	91	28	0	987758592	54	6024
2026-01-05 03:00:11.54	326.02	7.03	-40.4	-41.5	21.6	0.00e+00	0	28	0	989855744	54	6099
2026-01-05 03:00:12.54	326.14	6.98	-40.9	-42.0	21.5	0.00e+00	91	28	0	990904320	54	6457
2026-01-05 03:00:13.55	326.27	6.93	-40.3	-41.4	21.4	0.00e+00	68	28	0	993001472	54	6014
2026-01-05 03:00:14.56	326.40	6.89	-39.9	-41.0	21.7	0.00e+00	17	28	0	995098624	52	6419
2026-01-05 03:00:15.58	326.52	6.84	-39.3	-40.3	21.9	0.00e+00	21	28	0	997195776	52	5953
2026-01-05 03:00:16.59	326.65	6.79	-40.2	-41.3	22.0	0.00e+00	18	28	0	999292928	52	6654
2026-01-05 03:00:17.60	326.77	6.74	-39.6	-40.7	21.7	0.00e+00	91	28	0	1000341504	52	6231
2026-01-05 03:00:18.61	326.90	6.69	-40.1	-41.1	21.9	0.00e+00	6	28	0	1002438656	52	6528
2026-01-05 03:00:19.62	327.02	6.64	-39.7	-40.8	21.8	0.00e+00	92	28	0	1004535808	52	6291
2026-01-05 03:00:20.62	327.14	6.59	-40.0	-41.0	21.9	0.00e+00	18	27	0	1006632960	52	6459
2026-01-05 03:00:21.63	327.26	6.54	-39.9	-41.0	21.6	0.00e+00	42	28	0	1008730112	52	6425
2026-01-05 03:00:22.64	327.39	6.49	-39.6	-40.7	21.6	0.00e+00	6	28	0	1009778688	52	6219
2026-01-05 03:00:23.65	327.51	6.44	-39.7	-40.8	21.5	0.00e+00	7	28	0	1011875840	52	6311
2026-01-05 03:00:24.66	327.63	6.39	-40.1	-41.3	21.2	0.00e+00	92	28	0	1013972992	52	6623
2026-01-05 03:00:25.67	327.75	6.34	-40.5	-41.6	21.2	0.00e+00	0	27	0	1016070144	52	6922
2026-01-05 03:00:26.68	327.87	6.30	-40.5	-41.7	21.0	0.00e+00	92	28	0	1018167296	52	6935
2026-01-05 03:00:27.69	327.99	6.25	-40.3	-41.5	21.1	0.00e+00	0	28	0	1020264448	52	6834
2026-01-05 03:00:28.70	328.11	6.20	-39.8	-41.0	20.9	0.00e+00	67	28	0	1021313024	52	6463
2026-01-05 03:00:29.71	328.23	6.15	-40.0	-41.1	20.9	0.00e+00	0	28	0	1023410176	52	6537
2026-01-05 03:00:30.72	328.35	6.10	-40.2	-41.4	21.0	0.00e+00	67	28	0	1025507328	52	6756
2026-01-05 03:00:31.73	328.47	6.05	-40.7	-41.9	20.7	0.00e+00	0	28	0	1027604480	52	7115
2026-01-05 03:00:32.74	328.59	6.00	-40.4	-41.6	21.0	0.00e+00	67	28	0	1029701632	54	6163
2026-01-05 03:00:33.75	328.71	5.95	-39.9	-41.1	21.2	0.00e+00	92	28	0	1030750208	52	6496
2026-01-05 03:00:34.76	328.82	5.90	-39.8	-41.0	21.3	0.00e+00	14	28	0	1032847360	52	6392
2026-01-05 03:00:35.78	328.94	5.85	-40.1	-41.3	21.0	0.00e+00	92	28	0	1034944512	52	6690
2026-01-05 03:00:36.79	329.06	5.80	-39.8	-40.9	20.8	0.00e+00	68	28	0	1037041664	52	6376
2026-01-05 03:00:37.80	329.18	5.75	-39.7	-40.9	20.7	0.00e+00	0	28	0	1039138816	52	6377
2026-01-05 03:00:38.81	329.29	5.70	-40.3	-41.6	20.1	0.00e+00	14	28	0	1040187392	52	6864
2026-01-05 03:00:39.82	329.41	5.66	-40.2	-41.5	20.5	0.00e+00	16	28	0	1042284544	52	6770
2026-01-05 03:00:40.83	329.52	5.61	-40.8	-42.2	19.7	0.00e+00	92	28	0	1044381696	54	6556
2026-01-05 03:00:41.84	329.64	5.56	-40.7	-42.1	20.2	0.00e+00	2	28	0	1046478848	54	6475
2026-01-05 03:00:42.85	329.75	5.51	-40.3	-41.7	20.1	0.00e+00	92	28	0	1048576000	54	6218
2026-01-05 03:00:43.86	329.87	5.46	-40.2	-41.5	20.3	0.00e+00	0	28	0	1049624576	54	6062
2026-01-05 03:00:44.87	329.98	5.41	-40.4	-41.8	19.8	0.00e+00	3	28	0	1051721728	54	6306
2026-01-05 03:00:45.88	330.09	5.36	-40.1	-41.4	20.1	0.00e+00	0	28	0	1053818880	54	6011
2026-01-05 03:00:46.89	330.21	5.31	-40.2	-41.5	20.2	0.00e+00	2	28	0	1055916032	54	6082
2026-01-05 03:00:47.90	330.32	5.26	-40.6	-42.0	19.8	0.00e+00	92	28	0	1058013184	54	6406
2026-01-05 03:00:48.91	330.43	5.21	-40.3	-41.6	20.1	0.00e+00	65	28	0	1059061760	54	6145
2026-01-05 03:00:49.92	330.55	5.16	-40.2	-41.6	20.3	0.00e+00	92	28	0	1061158912	54	6126
2026-01-05 03:00:50.93	330.66	5.11	-40.3	-41.7	19.9	0.00e+00	3	28	0	1063256064	54	6198
2026-01-05 03:00:51.94	330.77	5.06	-40.4	-41.8	19.9	0.00e+00	40	28	0	1065353216	54	6261
2026-01-05 03:00:52.95	330.88	5.02	-40.4	-41.8	19.7	0.00e+00	16	28	0	1067450368	54	6271
2026-01-05 03:00:53.96	330.99	4.97	-40.8	-42.2	19.6	0.00e+00	67	28	0	1068498944	54	6593
2026-01-05 03:00:54.97	331.10	4.92	-40.6	-42.0	19.8	0.00e+00	0	28	0	1070596096	54	6422
2026-01-05 03:00:55.98	331.21	4.87	-41.0	-42.5	19.6	0.00e+00	14	28	0	1072693248	54	6848
2026-01-05 03:00:56.98	331.32	4.82	-40.6	-42.0	19.6	0.00e+00	90	28	0	1074790400	54	6444
2026-01-05 03:00:57.99	331.43	4.77	-41.0	-42.4	19.5	0.00e+00	15	28	0	1076887552	54	6748
2026-01-05 03:00:59.00	331.54	4.72	-40.9	-42.4	19.5	0.00e+00	56	28	0	1077936128	54	6727
2026-01-05 03:01:00.01	331.65	4.67	-40.8	-42.4	19.0	0.00e+00	17	28	0	1080033280	54	6701
2026-01-05 03:01:01.02	331.75	4.62	-40.9	-42.5	19.1	0.00e+00	0	28	0	1082130432	54	6791
2026-01-05 03:01:02.03	331.86	4.57	-41.4	-43.1	18.1	0.00e+00	15	27	0	1084227584	54	7330
2026-01-05 03:01:03.04	331.97	4.52	-41.5	-43.5	17.4	0.00e+00	0	28	0	1086324736	54	7645
2026-01-05 03:01:04.05	332.08	4.47	-42.1	-44.3	16.3	0.00e+00	91	28	0	1088421888	56	7495
2026-01-05 03:01:05.06	332.18	4.43	-42.5	-45.2	15.0	0.00e+00	0	28	0	1089470464	56	8251
2026-01-05 03:01:06.07	332.29	4.38	-42.7	-45.8	13.9	7.00e-07	91	28	0	1091567616	58	7903
2026-01-05 03:01:07.08	332.40	4.33	-42.8	-46.5	12.8	6.80e-06	0	28	0	1093664768	58	8563
2026-01-05 03:01:08.09	332.50	4.28	-43.3	-47.8	10.8	5.35e-04	0	28	0	1095761920	58	10002
2026-01-05 03:01:09.10	332.61	4.23	-43.3	-48.8	9.3	8.87e-03	61	28	0	1097859072	58	11145
2026-01-05 03:01:10.11	332.71	4.18	-43.4	-49.8	7.9	4.36e-02	61	28	0	1098907648	58	12599
2026-01-05 03:01:11.12	332.82	4.13	-43.5	-51.2	5.9	2.56e-01	30	28	0	1101004800	58	14694
2026-01-05 03:01:12.13	332.92	4.08	-43.5	-52.3	4.6	5.31e-01	0	28	0	1103101952	58	16703
2026-01-05 03:01:13.14	333.03	4.03	-43.5	-53.4	4.0	9.58e-01	75	28	0	1105199104	58	18918
2026-01-05 03:01:14.15	333.13	3.98	-43.5	-55.6	3.9	1.49e+00	0	28	104	1105199104	58	24499
2026-01-05 03:01:15.16	333.23	3.93	-43.5	-56.7	3.6	1.50e+00	0	28	104	1105199104	58	27741
2026-01-05 03:01:16.17	333.34	3.89	-43.4	-57.1	3.6	1.51e+00	0	28	104	1105199104	58	29145
2026-01-05 03:01:17.18	333.44	3.84	-43.4	-57.6	3.6	1.51e+00	0	28	104	1105199104	58	30880
