passes_logs/2026/01/05/R4.6S_Anadyr/R4.6S_Anadyr__20260105_230754_NOAA_20_JPSS-1_rec.log

#Pass ID: 20260105_230754_NOAA 20 (JPSS-1)
#Satellite: NOAA 20 (JPSS-1)
#Configuration: NOAA 20
#almurnet v.1.7.20251203
#Start time: 2026-01-05 23:07:56

#Version: 2.2.20231116
#Station: R4.6S_Anadyr
#Location: 177.4865 lon 64.73178 lat
#TLE: 1 43013U 17073A   26005.46207808  .00000128  00000+0  81791-4 0  9997
#TLE: 2 43013  98.7627 306.5027 0001826  53.0458 307.0885 14.19533487421381

#Time	Az	El	Level	Level2	SNR	BER	BlckErr	Temp	State	Recorded	gain1	gain2
2026-01-05 23:07:56.30	129.68	0.09	-48.6	-63.5	3.5	1.51e+00	0	31	0	0	60	53952
2026-01-05 23:07:57.31	129.65	0.15	-48.6	-63.8	3.6	1.51e+00	0	32	104	0	60	55722
2026-01-05 23:07:58.32	129.63	0.21	-48.6	-63.8	3.6	1.51e+00	0	32	104	0	60	55995
2026-01-05 23:07:59.33	129.60	0.27	-48.7	-63.9	3.6	1.51e+00	0	32	104	0	60	56333
2026-01-05 23:08:00.34	129.57	0.33	-48.7	-63.8	3.6	1.51e+00	0	32	104	0	60	56251
2026-01-05 23:08:01.35	129.55	0.39	-48.7	-63.9	3.6	1.51e+00	0	32	104	0	60	56791
2026-01-05 23:08:02.36	129.52	0.45	-48.8	-63.9	3.6	1.51e+00	0	33	104	0	60	56667
2026-01-05 23:08:03.37	129.49	0.51	-48.7	-63.9	3.6	1.51e+00	0	33	104	0	60	56354
2026-01-05 23:08:04.38	129.47	0.57	-48.7	-63.8	3.6	1.51e+00	0	32	104	0	60	56289
2026-01-05 23:08:05.39	129.44	0.63	-48.6	-63.8	3.6	1.51e+00	0	33	104	0	60	55910
2026-01-05 23:08:06.40	129.41	0.69	-48.5	-63.7	3.6	1.51e+00	0	33	104	0	60	55581
2026-01-05 23:08:07.41	129.38	0.75	-48.5	-63.7	3.6	1.51e+00	0	33	104	0	60	55381
2026-01-05 23:08:08.42	129.36	0.81	-48.2	-63.5	3.6	1.51e+00	0	33	104	0	60	54394
2026-01-05 23:08:09.43	129.33	0.87	-48.3	-63.4	3.6	1.51e+00	0	33	104	0	60	53647
2026-01-05 23:08:10.44	129.30	0.93	-48.1	-63.3	3.6	1.51e+00	0	33	104	0	60	52789
2026-01-05 23:08:11.45	129.27	0.99	-47.7	-62.9	3.6	1.51e+00	0	33	104	0	60	50764
2026-01-05 23:08:12.46	129.24	1.05	-47.3	-62.4	3.6	1.51e+00	0	33	104	0	60	47502
2026-01-05 23:08:13.47	129.22	1.11	-47.3	-62.4	3.6	1.51e+00	0	33	104	0	60	47555
2026-01-05 23:08:14.48	129.19	1.18	-47.3	-62.4	3.6	1.51e+00	0	33	104	0	60	47552
2026-01-05 23:08:15.49	129.16	1.24	-47.3	-62.3	3.6	1.51e+00	0	33	104	0	60	47331
2026-01-05 23:08:16.49	129.13	1.30	-47.3	-62.4	3.6	1.51e+00	0	33	104	0	60	47874
2026-01-05 23:08:17.51	129.10	1.36	-47.3	-62.4	3.6	1.51e+00	0	33	104	0	60	47568
2026-01-05 23:08:18.51	129.07	1.42	-47.2	-62.3	3.6	1.51e+00	0	33	104	0	60	47308
2026-01-05 23:08:19.52	129.04	1.49	-47.2	-62.3	3.6	1.51e+00	0	33	104	0	60	47334
2026-01-05 23:08:20.53	129.01	1.55	-47.3	-62.4	3.6	1.51e+00	0	33	104	0	60	47427
2026-01-05 23:08:21.54	128.99	1.61	-47.2	-62.3	3.6	1.51e+00	0	33	104	0	60	47314
2026-01-05 23:08:22.55	128.96	1.67	-47.2	-62.3	3.6	1.51e+00	0	33	104	0	60	47255
2026-01-05 23:08:23.56	128.93	1.74	-47.2	-62.4	3.6	1.51e+00	0	33	104	0	60	47465
2026-01-05 23:08:24.57	128.90	1.80	-47.3	-62.3	3.6	1.51e+00	0	33	104	0	60	47296
2026-01-05 23:08:25.58	128.87	1.86	-47.3	-62.4	3.6	1.51e+00	0	33	104	0	60	47511
2026-01-05 23:08:26.59	128.84	1.92	-47.2	-62.4	3.6	1.51e+00	0	33	104	0	60	47560
2026-01-05 23:08:27.60	128.81	1.99	-47.2	-62.3	3.6	1.51e+00	0	33	104	0	60	47066
2026-01-05 23:08:28.61	128.78	2.05	-47.2	-62.1	3.6	1.51e+00	0	33	104	0	60	46121
2026-01-05 23:08:29.62	128.75	2.11	-47.2	-62.1	3.6	1.51e+00	0	33	104	0	60	46268
2026-01-05 23:08:30.63	128.72	2.18	-47.2	-62.1	3.6	1.51e+00	0	33	104	0	60	46001
2026-01-05 23:08:31.63	128.68	2.24	-47.2	-62.1	3.6	1.51e+00	0	33	104	0	60	46022
2026-01-05 23:08:32.65	128.65	2.31	-47.2	-62.2	3.6	1.51e+00	0	33	104	0	60	46378
2026-01-05 23:08:33.66	128.62	2.37	-47.2	-62.3	3.6	1.51e+00	0	33	104	0	60	47051
2026-01-05 23:08:34.66	128.59	2.43	-47.2	-62.4	3.6	1.51e+00	0	33	104	0	60	47652
2026-01-05 23:08:35.67	128.56	2.50	-47.2	-62.4	3.6	1.51e+00	0	33	104	0	60	47723
2026-01-05 23:08:36.68	128.53	2.56	-47.2	-62.4	3.6	1.51e+00	0	33	104	0	60	47808
2026-01-05 23:08:37.69	128.50	2.63	-47.2	-62.4	3.6	1.51e+00	0	33	104	0	60	47389
2026-01-05 23:08:38.70	128.47	2.69	-47.2	-62.3	3.6	1.51e+00	0	33	104	0	60	47301
2026-01-05 23:08:39.71	128.43	2.76	-47.2	-62.3	3.6	1.51e+00	0	33	104	0	60	46952
2026-01-05 23:08:40.72	128.40	2.82	-47.2	-62.1	3.6	1.51e+00	0	33	104	0	60	46075
2026-01-05 23:08:41.73	128.37	2.89	-47.2	-61.9	3.6	1.51e+00	0	33	104	0	60	44758
2026-01-05 23:08:42.74	128.34	2.95	-47.2	-61.6	3.6	1.51e+00	0	33	104	0	60	43655
2026-01-05 23:08:43.75	128.30	3.02	-47.2	-61.5	3.6	1.51e+00	0	33	104	0	60	43104
2026-01-05 23:08:44.76	128.27	3.08	-47.2	-61.7	3.6	1.51e+00	0	33	104	0	60	44050
2026-01-05 23:08:45.77	128.24	3.15	-47.2	-62.2	3.6	1.51e+00	0	33	104	0	60	46567
2026-01-05 23:08:46.78	128.21	3.21	-47.2	-62.2	3.6	1.51e+00	0	33	104	0	60	46311
2026-01-05 23:08:47.79	128.17	3.28	-47.2	-60.4	3.6	1.51e+00	0	33	104	0	60	38022
2026-01-05 23:08:48.80	128.14	3.35	-47.0	-57.2	4.6	1.29e+00	0	33	0	0	60	26202
2026-01-05 23:08:49.81	128.11	3.41	-46.6	-53.7	6.7	3.96e-01	0	33	0	2097152	60	17591
2026-01-05 23:08:50.82	128.07	3.48	-46.0	-51.6	9.1	4.20e-02	0	33	0	3145728	60	13689
2026-01-05 23:08:51.83	128.04	3.55	-45.4	-50.0	11.1	5.55e-03	0	33	0	5242880	60	11396
2026-01-05 23:08:52.84	128.00	3.61	-44.8	-48.5	12.8	2.76e-04	0	33	0	7340032	60	9609
2026-01-05 23:08:53.85	127.97	3.68	-44.5	-47.9	13.3	1.44e-05	0	33	0	9437184	60	8962
2026-01-05 23:08:54.86	127.94	3.75	-47.5	-62.3	3.6	1.10e+00	0	33	104	10485760	60	47255
2026-01-05 23:08:55.87	127.90	3.81	-47.3	-62.4	3.6	1.51e+00	0	33	104	10485760	60	47879
2026-01-05 23:08:56.88	127.87	3.88	-45.9	-52.1	7.8	1.38e+00	0	33	104	10485760	60	14626
2026-01-05 23:08:57.89	127.83	3.95	-39.7	-41.1	20.3	1.50e-06	0	33	0	11534336	54	5779
2026-01-05 23:08:58.90	127.80	4.02	-47.0	-61.5	3.6	2.26e-01	0	33	104	12582912	60	43037
2026-01-05 23:08:59.90	127.76	4.08	-40.9	-42.5	6.1	1.50e+00	92	33	104	12582912	56	6069
2026-01-05 23:09:00.92	127.73	4.15	-40.2	-41.6	19.8	0.00e+00	0	33	0	12582912	54	6123
2026-01-05 23:09:01.92	127.69	4.22	-40.0	-41.4	20.1	0.00e+00	0	33	0	14680064	54	5999
2026-01-05 23:09:02.93	127.65	4.29	-39.6	-40.9	20.5	0.00e+00	0	33	0	16777216	54	5660
2026-01-05 23:09:03.94	127.62	4.36	-39.9	-41.2	20.1	0.00e+00	0	33	0	17825792	52	6591
2026-01-05 23:09:04.95	127.58	4.43	-40.0	-41.3	20.0	0.00e+00	0	33	0	19922944	52	6675
2026-01-05 23:09:05.96	127.55	4.49	-40.0	-41.4	20.1	0.00e+00	0	33	0	22020096	52	6712
2026-01-05 23:09:06.97	127.51	4.56	-39.9	-41.2	20.3	0.00e+00	0	33	0	24117248	52	6563
2026-01-05 23:09:07.98	127.47	4.63	-39.8	-41.1	20.2	0.00e+00	0	33	0	26214400	52	6525
2026-01-05 23:09:08.99	127.44	4.70	-40.0	-41.4	20.1	0.00e+00	0	33	0	27262976	52	6715
2026-01-05 23:09:10.00	127.40	4.77	-39.9	-41.3	20.2	0.00e+00	0	33	0	29360128	52	6634
2026-01-05 23:09:11.01	127.36	4.84	-40.0	-41.3	20.3	0.00e+00	0	33	0	31457280	52	6668
2026-01-05 23:09:12.02	127.32	4.91	-39.9	-41.2	20.3	0.00e+00	0	33	0	33554432	52	6605
2026-01-05 23:09:13.03	127.29	4.98	-40.0	-41.4	20.2	0.00e+00	0	33	0	35651584	52	6693
2026-01-05 23:09:14.04	127.25	5.05	-39.6	-40.8	20.7	0.00e+00	0	33	0	37748736	52	6310
2026-01-05 23:09:15.05	127.21	5.12	-39.6	-40.8	20.7	0.00e+00	0	33	0	38797312	52	6278
2026-01-05 23:09:16.06	127.17	5.19	-39.5	-40.7	20.9	0.00e+00	0	33	0	40894464	52	6184
2026-01-05 23:09:17.07	127.13	5.26	-39.8	-41.0	20.6	0.00e+00	0	33	0	42991616	52	6461
2026-01-05 23:09:18.08	127.10	5.33	-39.8	-41.0	20.7	0.00e+00	0	33	0	45088768	52	6444
2026-01-05 23:09:19.08	127.06	5.40	-39.4	-40.6	21.0	0.00e+00	0	33	0	47185920	52	6167
2026-01-05 23:09:20.09	127.02	5.48	-39.4	-40.5	21.1	0.00e+00	0	33	0	48234496	52	6094
2026-01-05 23:09:21.10	126.98	5.55	-39.4	-40.6	21.0	0.00e+00	0	33	0	50331648	52	6116
2026-01-05 23:09:22.11	126.94	5.62	-39.6	-40.8	20.9	0.00e+00	0	33	0	52428800	52	6279
2026-01-05 23:09:23.12	126.90	5.69	-39.8	-41.1	20.7	0.00e+00	0	33	0	54525952	52	6476
2026-01-05 23:09:24.12	126.86	5.76	-39.8	-41.1	20.7	0.00e+00	0	33	0	56623104	52	6522
2026-01-05 23:09:25.13	126.82	5.83	-39.6	-40.9	20.7	0.00e+00	0	33	0	57671680	52	6330
2026-01-05 23:09:26.14	126.78	5.91	-39.8	-41.1	20.6	0.00e+00	0	33	0	59768832	52	6486
2026-01-05 23:09:27.15	126.74	5.98	-39.9	-41.2	20.4	0.00e+00	0	33	0	61865984	52	6590
2026-01-05 23:09:28.16	126.70	6.05	-40.1	-41.4	20.4	0.00e+00	0	33	0	63963136	52	6755
2026-01-05 23:09:29.17	126.66	6.12	-39.7	-40.9	20.8	0.00e+00	0	33	0	66060288	52	6352
2026-01-05 23:09:30.18	126.62	6.20	-39.7	-41.0	20.8	0.00e+00	0	33	0	67108864	52	6394
2026-01-05 23:09:31.19	126.58	6.27	-39.6	-40.9	20.8	0.00e+00	0	33	0	69206016	52	6336
2026-01-05 23:09:32.20	126.53	6.34	-39.5	-40.7	21.0	0.00e+00	0	33	0	71303168	52	6242
2026-01-05 23:09:33.21	126.49	6.42	-39.4	-40.7	21.1	0.00e+00	0	33	0	73400320	52	6177
2026-01-05 23:09:34.22	126.45	6.49	-39.4	-40.6	21.1	0.00e+00	0	33	0	75497472	52	6155
2026-01-05 23:09:35.23	126.41	6.57	-39.4	-40.6	21.1	0.00e+00	0	33	0	76546048	52	6153
2026-01-05 23:09:36.24	126.36	6.64	-39.3	-40.5	21.2	0.00e+00	0	33	0	78643200	52	6085
2026-01-05 23:09:37.24	126.32	6.71	-39.5	-40.7	21.1	0.00e+00	0	33	0	80740352	52	6183
2026-01-05 23:09:38.25	126.28	6.79	-39.5	-40.7	21.1	0.00e+00	0	33	0	82837504	52	6221
2026-01-05 23:09:39.26	126.24	6.86	-39.5	-40.7	21.0	0.00e+00	0	33	0	84934656	52	6219
2026-01-05 23:09:40.27	126.19	6.94	-39.5	-40.7	21.1	0.00e+00	0	33	0	85983232	52	6201
2026-01-05 23:09:41.28	126.15	7.01	-39.6	-40.9	20.9	0.00e+00	0	33	0	88080384	52	6332
2026-01-05 23:09:42.29	126.10	7.09	-39.5	-40.7	21.1	0.00e+00	0	33	0	90177536	52	6214
2026-01-05 23:09:43.30	126.06	7.17	-39.6	-40.8	21.1	0.00e+00	0	33	0	92274688	52	6287
2026-01-05 23:09:44.31	126.02	7.24	-39.7	-41.0	20.9	0.00e+00	0	33	0	94371840	52	6408
2026-01-05 23:09:45.32	125.97	7.32	-39.4	-40.6	21.3	0.00e+00	0	33	0	95420416	52	6117
2026-01-05 23:09:46.33	125.93	7.39	-39.4	-40.6	21.2	0.00e+00	0	33	0	97517568	52	6150
2026-01-05 23:09:47.34	125.88	7.47	-39.3	-40.5	21.3	0.00e+00	0	33	0	99614720	52	6045
2026-01-05 23:09:48.35	125.84	7.55	-39.1	-40.2	21.6	0.00e+00	0	33	0	101711872	52	5864
2026-01-05 23:09:49.36	125.79	7.62	-39.1	-40.2	21.7	0.00e+00	0	33	0	103809024	52	5872
2026-01-05 23:09:50.37	125.74	7.70	-39.2	-40.3	21.5	0.00e+00	0	33	0	105906176	52	5929
2026-01-05 23:09:51.38	125.70	7.78	-39.1	-40.2	21.6	0.00e+00	0	33	0	106954752	52	5859
2026-01-05 23:09:52.39	125.65	7.86	-39.3	-40.4	21.4	0.00e+00	0	33	0	109051904	52	5999
2026-01-05 23:09:53.40	125.60	7.93	-39.3	-40.4	21.4	0.00e+00	0	33	0	111149056	52	6017
2026-01-05 23:09:54.40	125.56	8.01	-39.2	-40.3	21.5	0.00e+00	0	33	0	113246208	52	5959
2026-01-05 23:09:55.42	125.51	8.09	-39.3	-40.4	21.4	0.00e+00	0	33	0	114294784	52	6031
2026-01-05 23:09:56.43	125.46	8.17	-39.1	-40.3	21.6	0.00e+00	0	33	0	116391936	52	5913
2026-01-05 23:09:57.44	125.42	8.25	-39.2	-40.4	21.6	0.00e+00	0	33	0	118489088	52	5967
2026-01-05 23:09:58.44	125.37	8.33	-39.4	-40.6	21.4	0.00e+00	0	33	0	120586240	52	6135
2026-01-05 23:09:59.45	125.32	8.40	-39.1	-40.2	21.7	0.00e+00	0	33	0	122683392	52	5880
2026-01-05 23:10:00.46	125.27	8.48	-39.1	-40.2	21.6	0.00e+00	0	34	0	123731968	52	5868
2026-01-05 23:10:01.47	125.22	8.56	-38.9	-40.0	21.8	0.00e+00	0	34	0	125829120	52	5746
2026-01-05 23:10:02.48	125.17	8.64	-38.9	-40.0	22.0	0.00e+00	0	33	0	127926272	52	5696
2026-01-05 23:10:03.50	125.12	8.72	-38.8	-39.9	22.0	0.00e+00	0	33	0	130023424	52	5659
2026-01-05 23:10:04.50	125.07	8.80	-38.9	-39.9	22.0	0.00e+00	0	33	0	132120576	52	5683
2026-01-05 23:10:05.51	125.02	8.88	-38.8	-39.9	21.9	0.00e+00	0	33	0	134217728	52	5684
2026-01-05 23:10:06.52	124.97	8.97	-38.8	-39.9	22.0	0.00e+00	0	33	0	135266304	52	5665
2026-01-05 23:10:07.53	124.92	9.05	-38.8	-39.9	22.0	0.00e+00	0	33	0	137363456	52	5663
2026-01-05 23:10:08.54	124.87	9.13	-38.8	-39.8	22.0	0.00e+00	0	33	0	139460608	52	5619
2026-01-05 23:10:09.55	124.82	9.21	-38.8	-39.9	22.0	0.00e+00	0	33	0	141557760	52	5656
2026-01-05 23:10:10.56	124.77	9.29	-38.8	-39.8	22.1	0.00e+00	0	33	0	143654912	52	5622
2026-01-05 23:10:11.57	124.72	9.37	-38.6	-39.7	22.2	0.00e+00	0	33	0	144703488	50	6198
2026-01-05 23:10:12.58	124.66	9.45	-38.7	-39.7	22.2	0.00e+00	0	33	0	146800640	50	6220
2026-01-05 23:10:13.59	124.61	9.54	-38.6	-39.7	22.3	0.00e+00	0	33	0	148897792	50	6193
2026-01-05 23:10:14.60	124.56	9.62	-38.5	-39.5	22.4	0.00e+00	0	33	0	150994944	50	6064
2026-01-05 23:10:15.60	124.51	9.70	-38.5	-39.5	22.4	0.00e+00	0	33	0	153092096	50	6077
2026-01-05 23:10:16.61	124.45	9.79	-38.4	-39.4	22.5	0.00e+00	0	33	0	154140672	50	5978
2026-01-05 23:10:17.62	124.40	9.87	-38.4	-39.4	22.6	0.00e+00	0	33	0	156237824	50	5981
2026-01-05 23:10:18.63	124.34	9.95	-38.4	-39.4	22.6	0.00e+00	0	33	0	158334976	50	5979
2026-01-05 23:10:19.64	124.29	10.04	-38.5	-39.5	22.5	0.00e+00	0	33	0	160432128	50	6087
2026-01-05 23:10:20.65	124.24	10.12	-38.4	-39.4	22.5	0.00e+00	0	33	0	162529280	50	5970
2026-01-05 23:10:21.66	124.18	10.21	-38.5	-39.6	22.4	0.00e+00	0	33	0	163577856	50	6110
2026-01-05 23:10:22.67	124.13	10.29	-38.4	-39.3	22.6	0.00e+00	0	33	0	165675008	50	5963
2026-01-05 23:10:23.68	124.07	10.38	-38.3	-39.3	22.6	0.00e+00	0	33	0	167772160	50	5925
2026-01-05 23:10:24.69	124.01	10.46	-38.2	-39.2	22.7	0.00e+00	0	33	0	169869312	50	5864
2026-01-05 23:10:25.70	123.96	10.55	-38.1	-39.1	22.8	0.00e+00	0	33	0	171966464	50	5769
2026-01-05 23:10:26.71	123.90	10.63	-38.2	-39.1	22.8	0.00e+00	0	33	0	173015040	50	5821
2026-01-05 23:10:27.72	123.84	10.72	-38.2	-39.2	22.7	0.00e+00	0	33	0	175112192	50	5844
2026-01-05 23:10:28.73	123.79	10.80	-38.0	-38.9	22.9	0.00e+00	0	34	0	177209344	50	5693
2026-01-05 23:10:29.74	123.73	10.89	-38.0	-39.0	22.9	0.00e+00	0	33	0	179306496	50	5711
2026-01-05 23:10:30.74	123.67	10.98	-38.0	-39.0	22.9	0.00e+00	0	33	0	181403648	50	5696
2026-01-05 23:10:31.75	123.61	11.06	-38.0	-39.0	22.9	0.00e+00	0	34	0	182452224	50	5708
2026-01-05 23:10:32.76	123.55	11.15	-38.0	-39.0	22.9	0.00e+00	0	33	0	184549376	50	5713
2026-01-05 23:10:33.77	123.49	11.24	-38.1	-39.0	23.0	0.00e+00	0	34	0	186646528	50	5760
2026-01-05 23:10:34.78	123.43	11.33	-38.1	-39.0	22.9	0.00e+00	0	34	0	188743680	50	5758
2026-01-05 23:10:35.79	123.37	11.42	-37.9	-38.9	23.1	0.00e+00	0	34	0	190840832	50	5642
2026-01-05 23:10:36.80	123.31	11.51	-38.0	-39.0	23.1	0.00e+00	0	33	0	191889408	50	5702
2026-01-05 23:10:37.81	123.25	11.59	-37.7	-38.7	23.3	0.00e+00	0	34	0	193986560	50	5516
2026-01-05 23:10:38.82	123.19	11.68	-37.7	-38.6	23.3	0.00e+00	0	33	0	196083712	48	6158
2026-01-05 23:10:39.83	123.13	11.77	-37.6	-38.5	23.4	0.00e+00	0	33	0	198180864	48	6079
2026-01-05 23:10:40.84	123.07	11.86	-37.7	-38.6	23.3	0.00e+00	0	33	0	200278016	48	6168
2026-01-05 23:10:41.85	123.00	11.95	-37.8	-38.7	23.2	0.00e+00	0	33	0	202375168	48	6200
2026-01-05 23:10:42.86	122.94	12.04	-37.7	-38.6	23.3	0.00e+00	0	34	0	203423744	48	6164
2026-01-05 23:10:43.87	122.88	12.13	-37.7	-38.7	23.3	0.00e+00	0	33	0	205520896	48	6192
2026-01-05 23:10:44.88	122.81	12.23	-37.8	-38.7	23.2	0.00e+00	0	34	0	207618048	48	6204
2026-01-05 23:10:45.89	122.75	12.32	-37.8	-38.7	23.3	0.00e+00	0	34	0	209715200	48	6228
2026-01-05 23:10:46.89	122.69	12.41	-37.7	-38.6	23.2	0.00e+00	0	33	0	211812352	48	6156
2026-01-05 23:10:47.90	122.62	12.50	-37.7	-38.6	23.3	0.00e+00	0	33	0	212860928	48	6164
2026-01-05 23:10:48.91	122.56	12.59	-37.7	-38.7	23.3	0.00e+00	0	34	0	214958080	48	6178
2026-01-05 23:10:49.92	122.49	12.68	-37.7	-38.6	23.2	0.00e+00	0	34	0	217055232	48	6155
2026-01-05 23:10:50.93	122.42	12.78	-37.8	-38.7	23.4	0.00e+00	0	34	0	219152384	48	6193
2026-01-05 23:10:51.94	122.36	12.87	-37.5	-38.4	23.5	0.00e+00	0	33	0	221249536	48	6022
2026-01-05 23:10:52.95	122.29	12.96	-37.5	-38.4	23.5	0.00e+00	0	34	0	222298112	48	6001
2026-01-05 23:10:53.96	122.22	13.06	-37.6	-38.5	23.4	0.00e+00	0	33	0	224395264	48	6099
2026-01-05 23:10:54.97	122.16	13.15	-37.6	-38.5	23.4	0.00e+00	0	34	0	226492416	48	6087
2026-01-05 23:10:55.98	122.09	13.25	-37.7	-38.6	23.3	0.00e+00	0	33	0	228589568	48	6132
2026-01-05 23:10:56.99	122.02	13.34	-37.7	-38.6	23.3	0.00e+00	0	33	0	230686720	48	6119
2026-01-05 23:10:58.00	121.95	13.44	-37.7	-38.6	23.3	0.00e+00	0	34	0	231735296	48	6143
2026-01-05 23:10:59.00	121.88	13.53	-37.8	-38.8	23.2	0.00e+00	0	34	0	233832448	48	6250
2026-01-05 23:11:00.02	121.81	13.63	-37.8	-38.7	23.2	0.00e+00	0	33	0	235929600	48	6229
2026-01-05 23:11:01.03	121.74	13.72	-37.7	-38.6	23.4	0.00e+00	0	34	0	238026752	48	6124
2026-01-05 23:11:02.04	121.67	13.82	-37.6	-38.5	23.5	0.00e+00	0	34	0	240123904	48	6069
2026-01-05 23:11:03.05	121.59	13.92	-37.6	-38.5	23.5	0.00e+00	0	34	0	241172480	48	6099
2026-01-05 23:11:04.06	121.52	14.01	-37.6	-38.5	23.4	0.00e+00	0	33	0	243269632	48	6095
2026-01-05 23:11:05.07	121.45	14.11	-37.5	-38.4	23.5	0.00e+00	0	34	0	245366784	48	6022
2026-01-05 23:11:06.08	121.38	14.21	-37.6	-38.5	23.5	0.00e+00	0	33	0	247463936	48	6082
2026-01-05 23:11:07.08	121.30	14.31	-37.6	-38.5	23.4	0.00e+00	0	33	0	249561088	48	6090
2026-01-05 23:11:08.09	121.23	14.40	-37.5	-38.4	23.6	0.00e+00	0	34	0	250609664	48	5973
2026-01-05 23:11:09.10	121.16	14.50	-37.6	-38.5	23.5	0.00e+00	0	34	0	252706816	48	6098
2026-01-05 23:11:10.11	121.08	14.60	-37.6	-38.5	23.4	0.00e+00	0	33	0	254803968	48	6085
2026-01-05 23:11:11.12	121.00	14.70	-37.6	-38.5	23.4	0.00e+00	0	33	0	256901120	48	6087
2026-01-05 23:11:12.13	120.93	14.80	-37.7	-38.6	23.4	0.00e+00	0	33	0	258998272	48	6160
2026-01-05 23:11:13.14	120.85	14.90	-37.5	-38.4	23.6	0.00e+00	0	34	0	260046848	48	5974
2026-01-05 23:11:14.15	120.77	15.00	-37.7	-38.6	23.4	0.00e+00	0	33	0	262144000	48	6126
2026-01-05 23:11:15.16	120.70	15.10	-37.6	-38.5	23.5	0.00e+00	0	34	0	264241152	48	6066
2026-01-05 23:11:16.17	120.62	15.21	-37.7	-38.6	23.5	0.00e+00	0	34	0	266338304	48	6138
2026-01-05 23:11:17.18	120.54	15.31	-37.6	-38.5	23.5	0.00e+00	0	34	0	268435456	48	6072
2026-01-05 23:11:18.19	120.46	15.41	-37.6	-38.6	23.4	0.00e+00	0	34	0	270532608	48	6104
2026-01-05 23:11:19.20	120.38	15.51	-37.7	-38.6	23.4	0.00e+00	0	33	0	271581184	48	6131
2026-01-05 23:11:20.21	120.30	15.62	-37.7	-38.6	23.4	0.00e+00	0	33	0	273678336	48	6134
2026-01-05 23:11:21.22	120.22	15.72	-37.8	-38.7	23.3	0.00e+00	0	34	0	275775488	48	6237
2026-01-05 23:11:22.23	120.13	15.82	-37.7	-38.7	23.3	0.00e+00	0	33	0	277872640	48	6180
2026-01-05 23:11:23.24	120.05	15.93	-37.5	-38.4	23.6	0.00e+00	0	33	0	279969792	48	6025
2026-01-05 23:11:24.25	119.97	16.03	-37.6	-38.5	23.5	0.00e+00	0	34	0	281018368	48	6062
2026-01-05 23:11:25.26	119.89	16.13	-37.5	-38.4	23.6	0.00e+00	0	34	0	283115520	48	6007
2026-01-05 23:11:26.27	119.80	16.24	-37.4	-38.3	23.7	0.00e+00	0	34	0	285212672	48	5925
2026-01-05 23:11:27.27	119.72	16.34	-37.4	-38.3	23.6	0.00e+00	0	34	0	287309824	48	5948
2026-01-05 23:11:28.28	119.63	16.45	-37.5	-38.4	23.7	0.00e+00	0	34	0	289406976	48	5969
2026-01-05 23:11:29.29	119.55	16.56	-37.5	-38.4	23.6	0.00e+00	0	34	0	290455552	48	6017
2026-01-05 23:11:30.30	119.46	16.66	-37.6	-38.6	23.5	0.00e+00	0	34	0	292552704	48	6104
2026-01-05 23:11:31.31	119.37	16.77	-37.7	-38.7	23.4	0.00e+00	0	34	0	294649856	48	6180
2026-01-05 23:11:32.32	119.28	16.88	-37.7	-38.6	23.5	0.00e+00	0	34	0	296747008	48	6134
2026-01-05 23:11:33.33	119.20	16.99	-37.7	-38.6	23.5	0.00e+00	0	34	0	298844160	48	6115
2026-01-05 23:11:34.34	119.11	17.09	-37.7	-38.6	23.4	0.00e+00	0	34	0	299892736	48	6135
2026-01-05 23:11:35.35	119.02	17.20	-37.7	-38.6	23.5	0.00e+00	0	34	0	301989888	48	6133
2026-01-05 23:11:36.36	118.93	17.31	-37.8	-38.7	23.3	0.00e+00	0	34	0	304087040	48	6202
2026-01-05 23:11:37.37	118.83	17.42	-37.9	-38.8	23.3	0.00e+00	0	34	0	306184192	48	6276
2026-01-05 23:11:38.38	118.74	17.53	-37.9	-38.8	23.3	0.00e+00	0	34	0	308281344	48	6289
2026-01-05 23:11:39.39	118.65	17.64	-38.0	-38.9	23.2	0.00e+00	0	34	0	309329920	48	6383
2026-01-05 23:11:40.40	118.56	17.75	-38.1	-39.0	23.2	0.00e+00	0	34	0	311427072	48	6430
2026-01-05 23:11:41.40	118.46	17.86	-38.1	-39.0	23.1	0.00e+00	0	34	0	313524224	48	6434
2026-01-05 23:11:42.41	118.37	17.97	-38.0	-38.9	23.2	0.00e+00	0	34	0	315621376	48	6363
2026-01-05 23:11:43.42	118.27	18.09	-38.1	-39.0	23.1	0.00e+00	0	34	0	317718528	48	6461
2026-01-05 23:11:44.43	118.18	18.20	-38.2	-39.1	23.0	0.00e+00	0	33	0	318767104	48	6532
2026-01-05 23:11:45.44	118.08	18.31	-38.1	-39.1	23.0	0.00e+00	0	34	0	320864256	48	6489
2026-01-05 23:11:46.45	117.98	18.43	-37.9	-38.8	23.2	0.00e+00	0	34	0	322961408	48	6317
2026-01-05 23:11:47.46	117.88	18.54	-38.0	-39.0	23.2	0.00e+00	0	34	0	325058560	48	6399
2026-01-05 23:11:48.47	117.78	18.65	-38.0	-38.9	23.2	0.00e+00	0	34	0	327155712	48	6360
2026-01-05 23:11:49.48	117.68	18.77	-38.1	-39.1	23.0	0.00e+00	0	34	0	328204288	48	6477
2026-01-05 23:11:50.48	117.58	18.88	-38.1	-39.0	23.1	0.00e+00	0	34	0	330301440	48	6456
2026-01-05 23:11:51.49	117.48	19.00	-38.1	-39.0	23.1	0.00e+00	0	34	0	332398592	48	6442
2026-01-05 23:11:52.50	117.38	19.11	-38.2	-39.2	23.0	0.00e+00	0	34	0	334495744	48	6566
2026-01-05 23:11:53.51	117.28	19.23	-37.9	-38.9	23.3	0.00e+00	0	34	0	336592896	48	6330
2026-01-05 23:11:54.51	117.17	19.35	-37.9	-38.8	23.3	0.00e+00	0	34	0	337641472	48	6276
2026-01-05 23:11:55.52	117.07	19.46	-37.9	-38.8	23.3	0.00e+00	0	34	0	339738624	48	6304
2026-01-05 23:11:56.53	116.96	19.58	-38.0	-38.9	23.2	0.00e+00	0	34	0	341835776	48	6375
2026-01-05 23:11:57.54	116.86	19.70	-38.1	-39.0	23.2	0.00e+00	0	34	0	343932928	48	6432
2026-01-05 23:11:58.55	116.75	19.82	-38.0	-39.0	23.2	0.00e+00	0	34	0	346030080	48	6401
2026-01-05 23:11:59.56	116.64	19.94	-38.1	-39.0	23.2	0.00e+00	0	34	0	347078656	48	6428
2026-01-05 23:12:00.57	116.53	20.06	-38.1	-39.0	23.2	0.00e+00	0	34	0	349175808	48	6427
2026-01-05 23:12:01.58	116.42	20.18	-38.1	-39.0	23.2	0.00e+00	0	34	0	351272960	48	6427
2026-01-05 23:12:02.59	116.31	20.30	-38.0	-38.9	23.3	0.00e+00	0	34	0	353370112	48	6388
2026-01-05 23:12:03.60	116.20	20.42	-38.0	-39.0	23.2	0.00e+00	0	34	0	355467264	48	6405
2026-01-05 23:12:04.60	116.09	20.54	-38.2	-39.2	23.0	0.00e+00	0	34	0	356515840	48	6540
2026-01-05 23:12:05.61	115.97	20.66	-38.1	-39.1	23.0	0.00e+00	0	34	0	358612992	48	6476
2026-01-05 23:12:06.62	115.86	20.78	-38.1	-39.0	23.2	0.00e+00	0	34	0	360710144	48	6426
2026-01-05 23:12:07.63	115.74	20.91	-38.2	-39.2	23.1	0.00e+00	0	34	0	362807296	48	6540
2026-01-05 23:12:08.64	115.63	21.03	-38.2	-39.2	23.0	0.00e+00	0	34	0	364904448	48	6584
2026-01-05 23:12:09.65	115.51	21.15	-38.2	-39.2	23.1	0.00e+00	0	34	0	367001600	48	6550
2026-01-05 23:12:10.66	115.39	21.28	-38.2	-39.1	23.0	0.00e+00	0	34	0	368050176	48	6535
2026-01-05 23:12:11.67	115.27	21.40	-38.1	-39.0	23.2	0.00e+00	0	34	0	370147328	48	6455
2026-01-05 23:12:12.68	115.15	21.53	-38.2	-39.1	23.1	0.00e+00	0	34	0	372244480	48	6510
2026-01-05 23:12:13.68	115.03	21.65	-38.1	-39.1	23.1	0.00e+00	0	34	0	374341632	48	6478
2026-01-05 23:12:14.69	114.91	21.78	-38.1	-39.0	23.2	0.00e+00	0	34	0	376438784	48	6438
2026-01-05 23:12:15.70	114.79	21.90	-38.0	-39.0	23.2	0.00e+00	0	34	0	377487360	48	6410
2026-01-05 23:12:16.71	114.66	22.03	-38.1	-39.1	23.2	0.00e+00	0	34	0	379584512	48	6467
2026-01-05 23:12:17.72	114.54	22.16	-38.0	-39.0	23.2	0.00e+00	0	34	0	381681664	48	6427
2026-01-05 23:12:18.73	114.41	22.29	-38.0	-39.0	23.2	0.00e+00	0	34	0	383778816	48	6417
2026-01-05 23:12:19.74	114.28	22.42	-38.0	-38.9	23.3	0.00e+00	0	34	0	385875968	48	6342
2026-01-05 23:12:20.75	114.15	22.54	-37.9	-38.8	23.4	0.00e+00	0	34	0	386924544	48	6284
2026-01-05 23:12:21.76	114.03	22.67	-37.9	-38.9	23.3	0.00e+00	0	34	0	389021696	48	6328
2026-01-05 23:12:22.77	113.89	22.80	-38.0	-38.9	23.3	0.00e+00	0	34	0	391118848	48	6350
2026-01-05 23:12:23.78	113.76	22.93	-38.0	-39.0	23.2	0.00e+00	0	34	0	393216000	48	6392
2026-01-05 23:12:24.79	113.63	23.07	-38.0	-38.9	23.3	0.00e+00	0	34	0	395313152	48	6378
2026-01-05 23:12:25.79	113.50	23.20	-38.1	-39.0	23.2	0.00e+00	0	34	0	396361728	48	6434
2026-01-05 23:12:26.80	113.36	23.33	-38.1	-39.0	23.3	0.00e+00	0	34	0	398458880	48	6436
2026-01-05 23:12:27.81	113.23	23.46	-38.2	-39.1	23.1	0.00e+00	0	34	0	400556032	48	6503
2026-01-05 23:12:28.82	113.09	23.59	-38.2	-39.1	23.2	0.00e+00	0	34	0	402653184	48	6491
2026-01-05 23:12:29.83	112.95	23.73	-38.0	-38.9	23.3	0.00e+00	0	34	0	404750336	48	6371
2026-01-05 23:12:30.84	112.81	23.86	-38.0	-38.9	23.2	0.00e+00	0	34	0	405798912	48	6354
2026-01-05 23:12:31.85	112.67	24.00	-38.1	-39.0	23.2	0.00e+00	0	34	0	407896064	48	6433
2026-01-05 23:12:32.86	112.52	24.13	-38.2	-39.1	23.2	0.00e+00	0	34	0	409993216	48	6503
2026-01-05 23:12:33.87	112.38	24.27	-37.9	-38.8	23.4	0.00e+00	0	34	0	412090368	48	6287
2026-01-05 23:12:34.88	112.24	24.40	-37.9	-38.9	23.3	0.00e+00	0	34	0	414187520	48	6319
2026-01-05 23:12:35.89	112.09	24.54	-38.0	-38.9	23.4	0.00e+00	0	34	0	415236096	48	6357
2026-01-05 23:12:36.90	111.94	24.68	-38.1	-39.0	23.2	0.00e+00	0	34	0	417333248	48	6445
2026-01-05 23:12:37.91	111.79	24.81	-38.2	-39.2	23.1	0.00e+00	0	34	0	419430400	48	6561
2026-01-05 23:12:38.92	111.64	24.95	-38.3	-39.2	23.1	0.00e+00	0	34	0	421527552	48	6581
2026-01-05 23:12:39.93	111.49	25.09	-38.1	-39.1	23.2	0.00e+00	0	34	0	423624704	48	6488
2026-01-05 23:12:40.94	111.34	25.23	-38.0	-39.0	23.3	0.00e+00	0	34	0	424673280	48	6405
2026-01-05 23:12:41.95	111.18	25.37	-38.1	-39.0	23.3	0.00e+00	0	34	0	426770432	48	6443
2026-01-05 23:12:42.96	111.03	25.51	-38.2	-39.2	23.1	0.00e+00	0	34	0	428867584	48	6556
2026-01-05 23:12:43.97	110.87	25.65	-38.1	-39.1	23.2	0.00e+00	0	34	0	430964736	48	6479
2026-01-05 23:12:44.98	110.71	25.79	-38.1	-39.0	23.2	0.00e+00	0	34	0	433061888	48	6448
2026-01-05 23:12:45.98	110.55	25.93	-38.2	-39.2	23.1	0.00e+00	0	34	0	435159040	48	6546
2026-01-05 23:12:46.99	110.39	26.07	-38.1	-39.1	23.2	0.00e+00	0	34	0	436207616	48	6493
2026-01-05 23:12:48.00	110.23	26.22	-38.0	-39.0	23.3	0.00e+00	0	34	0	438304768	48	6397
2026-01-05 23:12:49.01	110.06	26.36	-38.0	-38.9	23.4	0.00e+00	0	34	0	440401920	48	6357
2026-01-05 23:12:50.02	109.90	26.50	-38.0	-38.9	23.3	0.00e+00	0	34	0	442499072	48	6368
2026-01-05 23:12:51.03	109.73	26.65	-37.9	-38.8	23.4	0.00e+00	0	34	0	444596224	48	6289
2026-01-05 23:12:52.04	109.56	26.79	-37.9	-38.8	23.4	0.00e+00	0	34	0	445644800	48	6266
2026-01-05 23:12:53.05	109.39	26.94	-37.9	-38.8	23.5	0.00e+00	0	34	0	447741952	48	6312
2026-01-05 23:12:54.06	109.22	27.08	-37.9	-38.8	23.4	0.00e+00	0	34	0	449839104	48	6312
2026-01-05 23:12:55.07	109.05	27.23	-38.1	-39.0	23.2	0.00e+00	0	34	0	451936256	48	6412
2026-01-05 23:12:56.08	108.87	27.38	-38.2	-39.1	23.1	0.00e+00	0	34	0	454033408	48	6522
2026-01-05 23:12:57.09	108.69	27.52	-38.1	-39.0	23.3	0.00e+00	0	34	0	455081984	48	6463
2026-01-05 23:12:58.10	108.51	27.67	-38.0	-38.9	23.3	0.00e+00	0	34	0	457179136	48	6360
2026-01-05 23:12:59.11	108.33	27.82	-38.0	-38.9	23.3	0.00e+00	0	34	0	459276288	48	6343
2026-01-05 23:13:00.12	108.15	27.97	-37.9	-38.8	23.5	0.00e+00	0	34	0	461373440	48	6289
2026-01-05 23:13:01.12	107.97	28.12	-38.0	-38.9	23.3	0.00e+00	0	34	0	463470592	48	6380
2026-01-05 23:13:02.13	107.78	28.26	-38.2	-39.1	23.2	0.00e+00	0	34	0	464519168	48	6505
2026-01-05 23:13:03.14	107.60	28.41	-38.2	-39.2	23.2	0.00e+00	0	34	0	466616320	48	6541
2026-01-05 23:13:04.15	107.41	28.56	-38.4	-39.3	23.0	0.00e+00	0	34	0	468713472	48	6659
2026-01-05 23:13:05.16	107.22	28.72	-38.4	-39.3	23.0	0.00e+00	0	34	0	470810624	48	6670
2026-01-05 23:13:06.17	107.02	28.87	-38.5	-39.4	22.9	0.00e+00	0	34	0	472907776	48	6738
2026-01-05 23:13:07.18	106.83	29.02	-38.7	-39.7	22.7	0.00e+00	0	34	0	473956352	48	6939
2026-01-05 23:13:08.19	106.63	29.17	-38.7	-39.7	22.6	0.00e+00	0	34	0	476053504	48	6996
2026-01-05 23:13:09.20	106.43	29.32	-39.1	-40.1	22.4	0.00e+00	0	34	0	478150656	50	6492
2026-01-05 23:13:10.21	106.23	29.48	-39.3	-40.4	21.6	0.00e+00	0	34	0	480247808	50	6696
2026-01-05 23:13:11.22	106.03	29.63	-39.6	-40.7	21.8	0.00e+00	0	34	0	482344960	50	6943
2026-01-05 23:13:12.22	105.83	29.78	-39.8	-41.0	21.5	0.00e+00	0	34	0	483393536	52	6411
2026-01-05 23:13:13.24	105.62	29.94	-40.1	-41.3	21.2	0.00e+00	0	34	0	485490688	52	6637
2026-01-05 23:13:14.24	105.42	30.09	-40.1	-41.2	21.3	0.00e+00	0	34	0	487587840	52	6596
2026-01-05 23:13:15.25	105.21	30.25	-40.3	-41.5	21.1	0.00e+00	0	34	0	489684992	52	6793
2026-01-05 23:13:16.26	104.99	30.40	-40.5	-41.7	20.9	0.00e+00	0	34	0	491782144	52	6997
2026-01-05 23:13:17.27	104.78	30.56	-40.5	-41.7	20.9	0.00e+00	0	34	0	492830720	52	6978
2026-01-05 23:13:18.28	104.56	30.71	-40.6	-41.8	20.8	0.00e+00	0	34	0	494927872	52	7077
2026-01-05 23:13:19.29	104.34	30.87	-40.6	-41.9	20.7	0.00e+00	0	34	0	497025024	52	7126
2026-01-05 23:13:20.30	104.12	31.03	-40.8	-42.1	20.4	0.00e+00	0	34	0	499122176	54	6474
2026-01-05 23:13:21.31	103.90	31.18	-41.0	-42.4	20.2	0.00e+00	0	34	0	501219328	54	6695
2026-01-05 23:13:22.32	103.68	31.34	-41.2	-42.5	20.1	0.00e+00	0	34	0	502267904	54	6846
2026-01-05 23:13:23.33	103.45	31.50	-41.0	-42.3	20.3	0.00e+00	0	34	0	504365056	54	6632
2026-01-05 23:13:24.33	103.22	31.66	-40.9	-42.2	20.3	0.00e+00	0	34	0	506462208	54	6585
2026-01-05 23:13:25.34	102.99	31.82	-41.1	-42.5	20.2	0.00e+00	0	34	0	508559360	54	6771
2026-01-05 23:13:26.35	102.76	31.98	-41.2	-42.6	20.0	0.00e+00	0	34	0	510656512	54	6877
2026-01-05 23:13:27.36	102.52	32.13	-41.0	-42.3	20.3	0.00e+00	0	34	0	511705088	54	6687
2026-01-05 23:13:28.37	102.28	32.29	-40.9	-42.1	20.5	0.00e+00	0	34	0	513802240	54	6532
2026-01-05 23:13:29.38	102.04	32.45	-40.5	-41.8	20.8	0.00e+00	0	34	0	515899392	54	6255
2026-01-05 23:13:30.39	101.80	32.61	-40.6	-41.8	20.7	0.00e+00	0	34	0	517996544	54	6284
2026-01-05 23:13:31.40	101.55	32.77	-40.5	-41.8	20.8	0.00e+00	0	34	0	520093696	54	6250
2026-01-05 23:13:32.41	101.30	32.94	-40.7	-42.0	20.6	0.00e+00	0	34	0	521142272	54	6438
2026-01-05 23:13:33.42	101.05	33.10	-40.6	-41.8	20.6	0.00e+00	0	34	0	523239424	54	6295
2026-01-05 23:13:34.43	100.80	33.26	-40.6	-41.8	20.7	0.00e+00	0	34	0	525336576	54	6307
2026-01-05 23:13:35.44	100.54	33.42	-40.7	-42.0	20.6	0.00e+00	0	34	0	527433728	54	6412
2026-01-05 23:13:36.45	100.28	33.58	-40.8	-42.0	20.6	0.00e+00	0	34	0	529530880	54	6464
2026-01-05 23:13:37.46	100.02	33.74	-40.8	-42.1	20.4	0.00e+00	0	34	0	531628032	54	6522
2026-01-05 23:13:38.47	99.76	33.90	-40.7	-42.0	20.7	0.00e+00	0	34	0	532676608	54	6393
2026-01-05 23:13:39.48	99.49	34.07	-40.8	-42.1	20.5	0.00e+00	0	34	0	534773760	54	6500
2026-01-05 23:13:40.48	99.22	34.23	-40.7	-41.9	20.6	0.00e+00	0	34	0	536870912	54	6382
2026-01-05 23:13:41.49	98.95	34.39	-40.4	-41.6	20.9	0.00e+00	0	34	0	538968064	54	6160
2026-01-05 23:13:42.50	98.68	34.55	-40.4	-41.6	21.0	0.00e+00	0	34	0	541065216	54	6146
2026-01-05 23:13:43.52	98.40	34.71	-40.3	-41.5	21.0	0.00e+00	0	34	0	542113792	54	6100
2026-01-05 23:13:44.52	98.12	34.88	-40.0	-41.2	21.4	0.00e+00	0	34	0	544210944	54	5849
2026-01-05 23:13:45.53	97.84	35.04	-39.9	-41.1	21.4	0.00e+00	0	34	0	546308096	54	5764
2026-01-05 23:13:46.54	97.55	35.20	-40.0	-41.1	21.4	0.00e+00	0	34	0	548405248	54	5791
2026-01-05 23:13:47.55	97.26	35.36	-39.6	-40.7	21.9	0.00e+00	0	34	0	550502400	52	6180
2026-01-05 23:13:48.56	96.97	35.53	-39.5	-40.6	22.0	0.00e+00	0	34	0	551550976	52	6112
2026-01-05 23:13:49.57	96.68	35.69	-39.3	-40.3	22.2	0.00e+00	0	34	0	553648128	52	5955
2026-01-05 23:13:50.58	96.38	35.85	-39.3	-40.3	22.2	0.00e+00	0	34	0	555745280	52	5959
2026-01-05 23:13:51.59	96.08	36.01	-39.2	-40.3	22.3	0.00e+00	0	34	0	557842432	52	5904
2026-01-05 23:13:52.60	95.78	36.17	-39.2	-40.3	22.3	0.00e+00	0	34	0	559939584	52	5911
2026-01-05 23:13:53.61	95.47	36.34	-39.2	-40.2	22.3	0.00e+00	0	34	0	560988160	52	5883
2026-01-05 23:13:54.62	95.16	36.50	-39.1	-40.1	22.4	0.00e+00	0	34	0	563085312	52	5791
2026-01-05 23:13:55.63	94.85	36.66	-39.2	-40.2	22.3	0.00e+00	0	34	0	565182464	52	5893
2026-01-05 23:13:56.63	94.53	36.82	-39.2	-40.3	22.2	0.00e+00	0	34	0	567279616	52	5922
2026-01-05 23:13:57.64	94.21	36.98	-39.2	-40.2	22.2	0.00e+00	0	34	0	569376768	52	5892
2026-01-05 23:13:58.65	93.89	37.14	-39.4	-40.4	22.2	0.00e+00	0	34	0	570425344	52	6011
2026-01-05 23:13:59.66	93.57	37.30	-39.3	-40.4	22.2	0.00e+00	0	34	0	572522496	52	5975
2026-01-05 23:14:00.67	93.24	37.47	-39.1	-40.1	22.4	0.00e+00	0	34	0	574619648	52	5792
2026-01-05 23:14:01.68	92.91	37.63	-39.1	-40.2	22.3	0.00e+00	0	34	0	576716800	52	5843
2026-01-05 23:14:02.68	92.57	37.78	-39.3	-40.3	22.1	0.00e+00	0	34	0	578813952	52	5932
2026-01-05 23:14:03.69	92.24	37.94	-39.5	-40.5	22.1	0.00e+00	0	34	0	579862528	52	6097
2026-01-05 23:14:04.70	91.89	38.10	-39.4	-40.4	22.0	0.00e+00	0	34	0	581959680	52	6028
2026-01-05 23:14:05.71	91.55	38.26	-39.6	-40.7	21.9	0.00e+00	0	34	0	584056832	52	6179
2026-01-05 23:14:06.71	91.20	38.42	-39.6	-40.7	21.8	0.00e+00	0	34	0	586153984	52	6185
2026-01-05 23:14:07.72	90.85	38.58	-39.6	-40.7	21.8	0.00e+00	0	34	0	588251136	52	6220
2026-01-05 23:14:08.73	90.50	38.73	-39.6	-40.6	21.9	0.00e+00	0	34	0	589299712	52	6172
2026-01-05 23:14:09.74	90.14	38.89	-39.7	-40.8	21.8	0.00e+00	0	34	0	591396864	52	6252
2026-01-05 23:14:10.75	89.77	39.05	-39.8	-41.0	21.6	0.00e+00	0	34	0	593494016	52	6396
2026-01-05 23:14:11.76	89.41	39.20	-40.2	-41.4	21.1	0.00e+00	0	34	0	595591168	52	6746
2026-01-05 23:14:12.77	89.04	39.36	-39.9	-41.1	21.4	0.00e+00	0	34	0	597688320	52	6524
2026-01-05 23:14:13.78	88.67	39.51	-40.1	-41.2	21.3	0.00e+00	0	34	0	599785472	52	6612
2026-01-05 23:14:14.79	88.29	39.66	-40.1	-41.2	21.0	0.00e+00	0	34	0	600834048	52	6601
2026-01-05 23:14:15.80	87.91	39.82	-40.2	-41.4	21.3	0.00e+00	0	34	0	602931200	52	6695
2026-01-05 23:14:16.81	87.53	39.97	-39.9	-41.0	21.5	0.00e+00	0	34	0	605028352	52	6430
2026-01-05 23:14:17.82	87.14	40.12	-39.7	-40.8	21.8	0.00e+00	0	34	0	607125504	52	6248
2026-01-05 23:14:18.83	86.75	40.27	-39.4	-40.4	22.0	0.00e+00	0	34	0	609222656	52	6011
2026-01-05 23:14:19.84	86.35	40.42	-39.0	-40.0	22.5	0.00e+00	0	34	0	610271232	52	5745
2026-01-05 23:14:20.84	85.96	40.57	-38.9	-39.9	22.5	0.00e+00	0	34	0	612368384	52	5677
2026-01-05 23:14:21.85	85.56	40.71	-38.8	-39.8	22.6	0.00e+00	0	34	0	614465536	52	5578
2026-01-05 23:14:22.86	85.15	40.86	-38.9	-39.9	22.5	0.00e+00	0	34	0	616562688	52	5659
2026-01-05 23:14:23.87	84.74	41.01	-38.9	-39.9	22.7	0.00e+00	0	34	0	618659840	52	5653
2026-01-05 23:14:24.88	84.33	41.15	-38.0	-38.9	23.5	0.00e+00	0	34	0	619708416	50	5641
2026-01-05 23:14:25.89	83.91	41.29	-37.8	-38.7	23.7	0.00e+00	0	34	0	621805568	48	6177
2026-01-05 23:14:26.90	83.49	41.44	-37.5	-38.4	24.0	0.00e+00	0	34	0	623902720	48	5980
2026-01-05 23:14:27.91	83.07	41.58	-37.6	-38.5	23.8	0.00e+00	0	34	0	625999872	48	6088
2026-01-05 23:14:28.92	82.64	41.72	-37.5	-38.4	23.9	0.00e+00	0	34	0	628097024	48	5974
2026-01-05 23:14:29.93	82.21	41.85	-37.2	-38.1	24.2	0.00e+00	0	34	0	629145600	48	5771
2026-01-05 23:14:30.94	81.77	41.99	-37.0	-37.8	24.4	0.00e+00	0	34	0	631242752	48	5606
2026-01-05 23:14:31.95	81.33	42.13	-36.8	-37.6	24.5	0.00e+00	0	34	0	633339904	48	5499
2026-01-05 23:14:32.95	80.90	42.26	-37.0	-37.9	24.4	0.00e+00	0	34	0	635437056	48	5636
2026-01-05 23:14:33.96	80.45	42.39	-37.1	-38.0	24.2	0.00e+00	0	34	0	637534208	48	5711
2026-01-05 23:14:34.97	80.00	42.52	-37.0	-37.8	24.4	0.00e+00	0	34	0	638582784	48	5608
2026-01-05 23:14:35.98	79.55	42.65	-37.0	-37.8	24.4	0.00e+00	0	34	0	640679936	48	5628
2026-01-05 23:14:36.99	79.09	42.78	-36.9	-37.8	24.5	0.00e+00	0	34	0	642777088	48	5571
2026-01-05 23:14:38.00	78.63	42.91	-37.0	-37.8	24.0	0.00e+00	0	34	0	644874240	48	5595
2026-01-05 23:14:39.01	78.16	43.03	-37.1	-37.9	24.3	0.00e+00	0	34	0	646971392	48	5685
2026-01-05 23:14:40.02	77.69	43.15	-37.3	-38.1	24.1	0.00e+00	0	34	0	648019968	48	5800
2026-01-05 23:14:41.03	77.22	43.27	-37.5	-38.4	23.8	0.00e+00	0	34	0	650117120	48	5989
2026-01-05 23:14:42.04	76.75	43.39	-37.8	-38.7	23.6	0.00e+00	0	34	0	652214272	48	6207
2026-01-05 23:14:43.05	76.27	43.51	-38.2	-39.1	23.3	0.00e+00	0	34	0	654311424	48	6500
2026-01-05 23:14:44.06	75.79	43.63	-38.3	-39.2	23.1	0.00e+00	0	34	0	656408576	48	6613
2026-01-05 23:14:45.07	75.30	43.74	-38.4	-39.4	23.1	0.00e+00	0	34	0	657457152	48	6706
2026-01-05 23:14:46.08	74.81	43.85	-38.6	-39.5	22.9	0.00e+00	0	34	0	659554304	48	6836
2026-01-05 23:14:47.09	74.32	43.96	-38.2	-39.2	23.2	0.00e+00	0	34	0	661651456	48	6555
2026-01-05 23:14:48.10	73.82	44.07	-38.4	-39.3	23.1	0.00e+00	0	34	0	663748608	48	6692
2026-01-05 23:14:49.11	73.32	44.17	-38.2	-39.1	23.3	0.00e+00	0	34	0	665845760	48	6525
2026-01-05 23:14:50.12	72.82	44.28	-38.3	-39.2	23.2	0.00e+00	0	34	0	667942912	48	6577
2026-01-05 23:14:51.13	72.31	44.38	-38.1	-39.1	23.3	0.00e+00	0	34	0	668991488	48	6492
2026-01-05 23:14:52.14	71.81	44.48	-38.2	-39.2	23.2	0.00e+00	0	34	0	671088640	48	6556
2026-01-05 23:14:53.15	71.29	44.57	-38.2	-39.1	23.2	0.00e+00	0	34	0	673185792	48	6486
2026-01-05 23:14:54.16	70.78	44.67	-38.2	-39.2	23.2	0.00e+00	0	34	0	675282944	48	6559
2026-01-05 23:14:55.17	70.26	44.76	-38.4	-39.4	23.0	0.00e+00	0	34	0	677380096	48	6705
2026-01-05 23:14:56.18	69.74	44.85	-38.3	-39.3	23.1	0.00e+00	0	34	0	678428672	48	6619
2026-01-05 23:14:57.19	69.22	44.93	-38.4	-39.3	23.1	0.00e+00	0	34	0	680525824	48	6659
2026-01-05 23:14:58.20	68.69	45.02	-38.3	-39.2	23.2	0.00e+00	0	34	0	682622976	48	6584
2026-01-05 23:14:59.21	68.16	45.10	-38.5	-39.5	23.0	0.00e+00	0	34	0	684720128	48	6779
2026-01-05 23:15:00.22	67.63	45.18	-38.6	-39.6	22.8	0.00e+00	0	34	0	686817280	48	6868
2026-01-05 23:15:01.23	67.09	45.25	-39.1	-40.2	22.4	0.00e+00	0	34	0	687865856	50	6575
2026-01-05 23:15:02.23	66.56	45.33	-39.1	-40.1	22.3	0.00e+00	0	34	0	689963008	50	6529
2026-01-05 23:15:03.24	66.02	45.40	-39.0	-40.0	22.5	0.00e+00	0	34	0	692060160	50	6422
2026-01-05 23:15:04.25	65.48	45.47	-39.1	-40.2	22.5	0.00e+00	0	34	0	694157312	50	6544
2026-01-05 23:15:05.26	64.93	45.53	-39.0	-40.0	22.4	0.00e+00	0	34	0	696254464	50	6425
2026-01-05 23:15:06.27	64.39	45.59	-39.2	-40.3	22.1	0.00e+00	0	34	0	697303040	50	6652
2026-01-05 23:15:07.28	63.84	45.65	-39.3	-40.4	22.1	0.00e+00	0	34	0	699400192	50	6744
2026-01-05 23:15:08.29	63.29	45.71	-38.9	-39.9	22.7	0.00e+00	0	34	0	701497344	50	6334
2026-01-05 23:15:09.30	62.73	45.77	-38.6	-39.6	22.9	0.00e+00	0	34	0	703594496	50	6133
2026-01-05 23:15:10.31	62.18	45.82	-39.0	-40.0	22.5	0.00e+00	0	34	0	705691648	50	6439
2026-01-05 23:15:11.32	61.62	45.87	-39.5	-40.5	21.9	0.00e+00	0	34	0	706740224	50	6839
2026-01-05 23:15:12.33	61.06	45.91	-39.7	-40.8	21.7	0.00e+00	0	34	0	708837376	50	7029
2026-01-05 23:15:13.34	60.50	45.95	-40.0	-41.2	21.4	0.00e+00	0	34	0	710934528	52	6544
2026-01-05 23:15:14.35	59.94	45.99	-40.2	-41.4	21.2	0.00e+00	0	34	0	713031680	52	6724
2026-01-05 23:15:15.36	59.38	46.03	-39.8	-40.9	21.7	0.00e+00	0	34	0	715128832	52	6381
2026-01-05 23:15:16.37	58.82	46.06	-39.4	-40.5	22.1	0.00e+00	0	34	0	716177408	52	6036
2026-01-05 23:15:17.38	58.25	46.09	-39.2	-40.3	22.2	0.00e+00	0	34	0	718274560	52	5912
2026-01-05 23:15:18.39	57.69	46.12	-39.5	-40.6	21.8	0.00e+00	0	34	0	720371712	52	6132
2026-01-05 23:15:19.40	57.12	46.15	-39.8	-40.9	21.7	0.00e+00	0	34	0	722468864	52	6336
2026-01-05 23:15:20.41	56.55	46.17	-39.6	-40.7	22.0	0.00e+00	0	34	0	724566016	52	6181
2026-01-05 23:15:21.42	55.98	46.19	-39.5	-40.6	21.9	0.00e+00	0	34	0	725614592	52	6157
2026-01-05 23:15:22.43	55.41	46.20	-39.7	-40.8	21.7	0.00e+00	0	34	0	727711744	52	6282
2026-01-05 23:15:23.44	54.84	46.21	-39.5	-40.6	21.9	0.00e+00	0	34	0	729808896	52	6128
2026-01-05 23:15:24.45	54.27	46.22	-39.3	-40.3	22.2	0.00e+00	0	34	0	731906048	52	5963
2026-01-05 23:15:25.46	53.70	46.23	-39.3	-40.4	22.3	0.00e+00	0	34	0	734003200	52	5966
2026-01-05 23:15:26.47	53.13	46.23	-39.3	-40.3	22.2	0.00e+00	0	34	0	736100352	52	5951
2026-01-05 23:15:27.48	52.56	46.23	-39.3	-40.3	22.3	0.00e+00	0	34	0	737148928	52	5960
2026-01-05 23:15:28.49	51.99	46.23	-39.2	-40.2	22.3	0.00e+00	0	34	0	739246080	52	5896
2026-01-05 23:15:29.50	51.42	46.22	-39.3	-40.4	21.9	0.00e+00	0	34	0	741343232	52	5980
2026-01-05 23:15:30.51	50.85	46.21	-39.6	-40.7	21.8	0.00e+00	0	34	0	743440384	52	6202
2026-01-05 23:15:31.52	50.28	46.20	-39.9	-41.0	21.6	0.00e+00	0	34	0	745537536	52	6431
2026-01-05 23:15:32.53	49.72	46.18	-39.6	-40.7	21.7	0.00e+00	0	34	0	746586112	52	6207
2026-01-05 23:15:33.53	49.15	46.16	-39.5	-40.5	22.0	0.00e+00	0	34	0	748683264	52	6091
2026-01-05 23:15:34.54	48.59	46.14	-39.6	-40.7	21.9	0.00e+00	0	34	0	750780416	52	6219
2026-01-05 23:15:35.55	48.02	46.11	-39.7	-40.8	21.8	0.00e+00	0	34	0	752877568	52	6255
2026-01-05 23:15:36.56	47.46	46.08	-39.9	-41.0	21.5	0.00e+00	0	34	0	753926144	52	6427
2026-01-05 23:15:37.57	46.89	46.05	-39.7	-40.8	21.8	0.00e+00	0	34	0	756023296	52	6253
2026-01-05 23:15:38.58	46.33	46.02	-39.9	-41.0	21.6	0.00e+00	0	34	0	758120448	52	6435
2026-01-05 23:15:39.59	45.77	45.98	-40.5	-41.7	20.9	0.00e+00	0	34	0	760217600	52	6975
2026-01-05 23:15:40.60	45.21	45.94	-40.9	-42.2	20.4	0.00e+00	0	34	0	762314752	54	6569
2026-01-05 23:15:41.61	44.65	45.90	-40.7	-42.0	20.6	0.00e+00	0	34	0	764411904	54	6421
2026-01-05 23:15:42.62	44.09	45.85	-40.5	-41.7	21.1	0.00e+00	0	34	0	765460480	54	6195
2026-01-05 23:15:43.63	43.53	45.80	-40.1	-41.2	21.4	0.00e+00	0	34	0	767557632	54	5854
2026-01-05 23:15:44.63	42.99	45.75	-40.2	-41.4	21.2	0.00e+00	0	34	0	769654784	54	5989
2026-01-05 23:15:45.64	42.43	45.69	-40.3	-41.5	21.0	0.00e+00	0	34	0	771751936	54	6085
2026-01-05 23:15:46.65	41.88	45.63	-40.5	-41.8	20.8	0.00e+00	0	34	0	773849088	54	6247
2026-01-05 23:15:47.66	41.34	45.57	-40.6	-41.8	20.7	0.00e+00	0	34	0	774897664	54	6312
2026-01-05 23:15:48.67	40.79	45.51	-40.6	-41.8	20.8	0.00e+00	0	34	0	776994816	54	6296
2026-01-05 23:15:49.68	40.25	45.44	-40.5	-41.8	20.9	0.00e+00	0	34	0	779091968	54	6250
2026-01-05 23:15:50.69	39.71	45.37	-40.0	-41.1	21.6	0.00e+00	0	34	0	781189120	54	5780
2026-01-05 23:15:51.70	39.17	45.30	-39.9	-41.1	21.6	0.00e+00	0	34	0	783286272	54	5792
2026-01-05 23:15:52.71	38.63	45.23	-39.8	-40.9	21.6	0.00e+00	0	34	0	784334848	54	5671
2026-01-05 23:15:53.72	38.10	45.15	-40.1	-41.2	21.5	0.00e+00	0	34	0	786432000	54	5887
2026-01-05 23:15:54.73	37.57	45.07	-39.7	-40.8	21.9	0.00e+00	0	34	0	788529152	54	5618
2026-01-05 23:15:55.74	37.04	44.99	-39.4	-40.4	22.0	0.00e+00	0	34	0	790626304	52	5996
2026-01-05 23:15:56.75	36.51	44.90	-39.6	-40.7	21.9	0.00e+00	0	34	0	792723456	52	6178
2026-01-05 23:15:57.76	35.99	44.82	-39.1	-40.2	22.4	0.00e+00	0	34	0	793772032	52	5832
2026-01-05 23:15:58.76	35.48	44.73	-38.8	-39.8	22.7	0.00e+00	0	34	0	795869184	52	5595
2026-01-05 23:15:59.78	34.96	44.63	-38.8	-39.8	22.8	0.00e+00	0	34	0	797966336	52	5574
2026-01-05 23:16:00.79	34.44	44.54	-38.9	-40.0	22.5	0.00e+00	0	34	0	800063488	50	6397
2026-01-05 23:16:01.79	33.94	44.44	-38.6	-39.6	22.9	0.00e+00	0	34	0	802160640	50	6146
2026-01-05 23:16:02.80	33.43	44.34	-38.2	-39.1	23.3	0.00e+00	0	34	0	803209216	50	5780
2026-01-05 23:16:03.82	32.92	44.24	-37.8	-38.7	23.7	0.00e+00	0	34	0	805306368	50	5535
2026-01-05 23:16:04.83	32.42	44.14	-37.6	-38.5	23.9	0.00e+00	0	34	0	807403520	48	6071
2026-01-05 23:16:05.84	31.92	44.03	-37.6	-38.5	23.8	0.00e+00	0	34	0	809500672	48	6070
2026-01-05 23:16:06.85	31.43	43.92	-37.6	-38.5	23.9	0.00e+00	0	34	0	811597824	48	6071
2026-01-05 23:16:07.86	30.94	43.81	-37.6	-38.5	23.8	0.00e+00	0	34	0	812646400	48	6079
2026-01-05 23:16:08.87	30.45	43.70	-37.6	-38.4	23.9	0.00e+00	0	34	0	814743552	48	6030
2026-01-05 23:16:09.88	29.97	43.59	-37.3	-38.2	24.1	0.00e+00	0	34	0	816840704	48	5856
2026-01-05 23:16:10.89	29.49	43.47	-37.3	-38.1	24.2	0.00e+00	0	34	0	818937856	48	5808
2026-01-05 23:16:11.90	29.01	43.36	-36.9	-37.8	24.5	0.00e+00	0	34	0	821035008	48	5572
2026-01-05 23:16:12.91	28.54	43.24	-36.6	-37.4	24.7	0.00e+00	0	34	0	822083584	46	6006
2026-01-05 23:16:13.92	28.07	43.11	-36.3	-37.1	25.0	0.00e+00	0	34	0	824180736	46	5767
2026-01-05 23:16:14.93	27.60	42.99	-35.9	-36.6	25.3	0.00e+00	0	34	0	826277888	46	5499
2026-01-05 23:16:15.94	27.14	42.87	-35.9	-36.7	25.3	0.00e+00	0	34	0	828375040	46	5538
2026-01-05 23:16:16.95	26.68	42.74	-36.1	-36.9	25.1	0.00e+00	0	34	0	830472192	46	5682
2026-01-05 23:16:17.95	26.23	42.61	-36.2	-36.9	25.1	0.00e+00	0	34	0	832569344	46	5685
2026-01-05 23:16:18.96	25.78	42.48	-35.9	-36.7	25.4	0.00e+00	0	34	0	833617920	46	5519
2026-01-05 23:16:19.97	25.33	42.35	-36.0	-36.7	25.3	0.00e+00	0	34	0	835715072	46	5555
2026-01-05 23:16:20.98	24.89	42.22	-35.9	-36.7	25.3	0.00e+00	0	34	0	837812224	46	5530
2026-01-05 23:16:21.99	24.45	42.09	-35.9	-36.6	25.4	0.00e+00	0	34	0	839909376	46	5493
2026-01-05 23:16:23.00	24.01	41.95	-35.9	-36.6	25.3	0.00e+00	0	34	0	842006528	46	5483
2026-01-05 23:16:24.01	23.58	41.81	-35.8	-36.6	25.4	0.00e+00	0	34	0	843055104	46	5473
2026-01-05 23:16:25.02	23.15	41.67	-35.9	-36.7	25.4	0.00e+00	0	34	0	845152256	46	5520
2026-01-05 23:16:26.03	22.72	41.54	-36.0	-36.8	25.2	0.00e+00	0	34	0	847249408	46	5587
2026-01-05 23:16:27.04	22.30	41.39	-35.9	-36.7	25.4	0.00e+00	0	34	0	849346560	46	5521
2026-01-05 23:16:28.05	21.88	41.25	-35.9	-36.7	25.3	0.00e+00	0	34	0	851443712	46	5543
2026-01-05 23:16:29.06	21.47	41.11	-35.9	-36.6	25.4	0.00e+00	0	34	0	852492288	46	5495
2026-01-05 23:16:30.07	21.06	40.97	-35.8	-36.5	25.6	0.00e+00	0	34	0	854589440	46	5431
2026-01-05 23:16:31.08	20.65	40.82	-35.6	-36.3	25.6	0.00e+00	0	34	0	856686592	44	5956
2026-01-05 23:16:32.09	20.25	40.67	-35.7	-36.5	25.5	0.00e+00	0	34	0	858783744	44	6040
2026-01-05 23:16:33.10	19.85	40.53	-36.0	-36.8	25.2	0.00e+00	0	34	0	860880896	44	6251
2026-01-05 23:16:34.11	19.45	40.38	-36.2	-37.0	25.1	0.00e+00	0	34	0	861929472	44	6430
2026-01-05 23:16:35.12	19.06	40.23	-36.4	-37.2	25.0	0.00e+00	0	34	0	864026624	44	6567
2026-01-05 23:16:36.13	18.67	40.08	-36.4	-37.2	24.9	0.00e+00	0	34	0	866123776	44	6568
2026-01-05 23:16:37.14	18.28	39.93	-36.3	-37.1	24.9	0.00e+00	0	34	0	868220928	44	6476
2026-01-05 23:16:38.14	17.91	39.78	-36.5	-37.2	24.9	0.00e+00	0	34	0	870318080	44	6612
2026-01-05 23:16:39.16	17.53	39.62	-36.5	-37.3	24.8	0.00e+00	0	34	0	871366656	44	6658
2026-01-05 23:16:40.17	17.15	39.47	-36.5	-37.3	24.9	0.00e+00	0	34	0	873463808	44	6676
2026-01-05 23:16:41.17	16.78	39.32	-36.7	-37.5	24.6	0.00e+00	0	34	0	875560960	44	6825
2026-01-05 23:16:42.18	16.42	39.16	-36.9	-37.7	24.5	0.00e+00	0	34	0	877658112	46	6210
2026-01-05 23:16:43.19	16.05	39.01	-36.8	-37.7	24.5	0.00e+00	0	34	0	879755264	46	6184
2026-01-05 23:16:44.20	15.69	38.85	-36.9	-37.7	24.5	0.00e+00	0	34	0	880803840	46	6232
2026-01-05 23:16:45.21	15.34	38.70	-37.0	-37.9	24.4	0.00e+00	0	34	0	882900992	46	6318
2026-01-05 23:16:46.22	14.98	38.54	-37.0	-37.8	24.4	0.00e+00	0	34	0	884998144	46	6282
2026-01-05 23:16:47.23	14.63	38.38	-37.1	-38.0	24.3	0.00e+00	0	34	0	887095296	46	6399
2026-01-05 23:16:48.24	14.29	38.22	-37.0	-37.8	24.5	0.00e+00	0	34	0	889192448	46	6258
2026-01-05 23:16:49.25	13.94	38.06	-37.0	-37.8	24.4	0.00e+00	0	34	0	890241024	46	6271
2026-01-05 23:16:50.26	13.60	37.91	-37.1	-37.9	24.3	0.00e+00	0	34	0	892338176	46	6364
2026-01-05 23:16:51.27	13.27	37.75	-37.3	-38.2	24.2	0.00e+00	0	34	0	894435328	46	6553
2026-01-05 23:16:52.28	12.93	37.59	-37.4	-38.2	24.0	0.00e+00	0	34	0	896532480	46	6609
2026-01-05 23:16:53.29	12.60	37.43	-37.5	-38.3	24.0	0.00e+00	0	34	0	898629632	46	6685
2026-01-05 23:16:54.30	12.28	37.27	-37.7	-38.6	23.7	0.00e+00	0	34	0	900726784	46	6871
2026-01-05 23:16:55.31	11.95	37.11	-37.9	-38.8	23.5	0.00e+00	0	34	0	901775360	48	6303
2026-01-05 23:16:56.31	11.64	36.95	-38.2	-39.1	23.3	0.00e+00	0	34	0	903872512	48	6535
2026-01-05 23:16:57.32	11.32	36.79	-38.1	-39.0	23.5	0.00e+00	0	34	0	905969664	48	6429
2026-01-05 23:16:58.33	11.00	36.63	-38.2	-39.1	23.3	0.00e+00	0	34	0	908066816	48	6536
2026-01-05 23:16:59.34	10.69	36.46	-38.5	-39.4	22.9	0.00e+00	0	34	0	910163968	48	6745
2026-01-05 23:17:00.35	10.39	36.30	-38.9	-39.9	22.6	0.00e+00	0	34	0	911212544	50	6339
2026-01-05 23:17:01.36	10.08	36.14	-38.9	-39.9	22.6	0.00e+00	0	34	0	913309696	50	6345
2026-01-05 23:17:02.37	9.78	35.98	-38.9	-39.9	22.7	0.00e+00	0	34	0	915406848	50	6343
2026-01-05 23:17:03.38	9.48	35.82	-39.0	-40.1	22.4	0.00e+00	0	34	0	917504000	50	6472
2026-01-05 23:17:04.39	9.19	35.66	-39.3	-40.3	22.1	0.00e+00	0	34	0	919601152	50	6684
2026-01-05 23:17:05.40	8.89	35.49	-39.5	-40.6	22.0	0.00e+00	0	34	0	920649728	50	6849
2026-01-05 23:17:06.40	8.61	35.33	-39.6	-40.7	21.8	0.00e+00	0	34	0	922746880	50	6945
2026-01-05 23:17:07.41	8.32	35.17	-39.7	-40.7	21.8	0.00e+00	0	34	0	924844032	52	6237
2026-01-05 23:17:08.42	8.04	35.01	-39.9	-41.1	21.5	0.00e+00	0	34	0	926941184	52	6473
2026-01-05 23:17:09.43	7.75	34.85	-40.2	-41.4	21.3	0.00e+00	0	34	0	929038336	52	6722
2026-01-05 23:17:10.44	7.48	34.69	-40.3	-41.5	21.1	0.00e+00	0	34	0	930086912	52	6796
2026-01-05 23:17:11.45	7.20	34.52	-40.7	-42.0	20.6	0.00e+00	0	34	0	932184064	52	7223
2026-01-05 23:17:12.46	6.93	34.36	-41.0	-42.3	20.3	0.00e+00	0	34	0	934281216	54	6686
2026-01-05 23:17:13.47	6.66	34.20	-41.3	-42.7	20.0	0.00e+00	0	34	0	936378368	54	6951
2026-01-05 23:17:14.48	6.39	34.04	-41.5	-42.9	19.7	0.00e+00	0	34	0	938475520	54	7149
2026-01-05 23:17:15.49	6.13	33.88	-41.5	-42.9	19.8	0.00e+00	0	34	0	939524096	54	7167
2026-01-05 23:17:16.50	5.86	33.72	-41.4	-42.9	19.8	0.00e+00	0	34	0	941621248	54	7100
2026-01-05 23:17:17.51	5.60	33.56	-41.4	-42.9	19.9	0.00e+00	0	34	0	943718400	54	7104
2026-01-05 23:17:18.52	5.35	33.40	-41.1	-42.5	20.1	0.00e+00	0	34	0	945815552	54	6818
2026-01-05 23:17:19.53	5.09	33.23	-41.1	-42.5	20.2	0.00e+00	0	34	0	947912704	54	6832
2026-01-05 23:17:20.54	4.84	33.07	-41.1	-42.4	20.2	0.00e+00	0	34	0	948961280	54	6765
2026-01-05 23:17:21.55	4.59	32.91	-40.9	-42.3	20.4	0.00e+00	0	34	0	951058432	54	6638
2026-01-05 23:17:22.56	4.35	32.75	-41.1	-42.4	20.2	0.00e+00	0	34	0	953155584	54	6766
2026-01-05 23:17:23.57	4.10	32.59	-41.0	-42.3	20.4	0.00e+00	0	34	0	955252736	54	6656
2026-01-05 23:17:24.58	3.86	32.43	-40.8	-42.1	20.5	0.00e+00	0	34	0	957349888	54	6495
2026-01-05 23:17:25.59	3.62	32.28	-40.9	-42.3	20.4	0.00e+00	0	34	0	958398464	54	6616
2026-01-05 23:17:26.60	3.38	32.12	-40.6	-41.8	20.6	0.00e+00	0	34	0	960495616	54	6303
2026-01-05 23:17:27.61	3.15	31.96	-40.6	-41.8	20.8	0.00e+00	0	34	0	962592768	54	6308
2026-01-05 23:17:28.62	2.92	31.80	-40.2	-41.4	21.1	0.00e+00	0	34	0	964689920	54	6023
2026-01-05 23:17:29.63	2.69	31.64	-40.1	-41.2	21.3	0.00e+00	0	34	0	966787072	54	5895
2026-01-05 23:17:30.64	2.46	31.48	-39.9	-41.1	21.3	0.00e+00	0	34	0	968884224	54	5780
2026-01-05 23:17:31.64	2.23	31.33	-39.7	-40.8	21.7	0.00e+00	0	34	0	969932800	52	6283
2026-01-05 23:17:32.65	2.01	31.17	-39.4	-40.4	22.1	0.00e+00	0	34	0	972029952	52	6003
2026-01-05 23:17:33.66	1.79	31.01	-39.4	-40.5	22.1	0.00e+00	0	34	0	974127104	52	6048
2026-01-05 23:17:34.67	1.57	30.86	-39.5	-40.6	21.9	0.00e+00	0	34	0	976224256	52	6133
2026-01-05 23:17:35.68	1.35	30.70	-39.7	-40.9	21.6	0.00e+00	0	34	0	978321408	52	6332
2026-01-05 23:17:36.69	1.14	30.55	-39.7	-40.9	21.8	0.00e+00	0	34	0	979369984	52	6319
2026-01-05 23:17:37.70	0.93	30.39	-39.9	-41.1	21.6	0.00e+00	0	34	0	981467136	52	6470
2026-01-05 23:17:38.71	0.71	30.24	-39.9	-41.0	21.6	0.00e+00	0	34	0	983564288	52	6438
2026-01-05 23:17:39.72	0.51	30.08	-39.8	-40.9	21.7	0.00e+00	0	34	0	985661440	52	6362
2026-01-05 23:17:40.73	0.30	29.93	-39.7	-40.8	21.8	0.00e+00	0	34	0	987758592	52	6250
2026-01-05 23:17:41.74	0.09	29.78	-39.7	-40.7	21.8	0.00e+00	0	34	0	988807168	52	6237
2026-01-05 23:17:42.75	359.89	29.62	-39.4	-40.5	22.0	0.00e+00	0	34	0	990904320	52	6052
2026-01-05 23:17:43.75	359.69	29.47	-39.6	-40.7	21.8	0.00e+00	0	34	0	993001472	52	6223
2026-01-05 23:17:44.76	359.49	29.32	-39.5	-40.5	22.0	0.00e+00	0	34	0	995098624	52	6088
2026-01-05 23:17:45.77	359.30	29.17	-39.7	-40.8	21.7	0.00e+00	0	34	0	997195776	52	6278
2026-01-05 23:17:46.78	359.10	29.02	-39.8	-40.9	21.7	0.00e+00	0	34	0	998244352	52	6349
2026-01-05 23:17:47.79	358.91	28.86	-39.7	-40.8	21.6	0.00e+00	0	34	0	1000341504	52	6289
2026-01-05 23:17:48.80	358.72	28.71	-39.5	-40.6	21.9	0.00e+00	0	34	0	1002438656	52	6156
2026-01-05 23:17:49.81	358.53	28.56	-39.6	-40.6	21.8	0.00e+00	0	34	0	1004535808	52	6169
2026-01-05 23:17:50.82	358.34	28.41	-39.3	-40.4	22.1	0.00e+00	0	34	0	1006632960	52	5979
2026-01-05 23:17:51.83	358.15	28.27	-39.1	-40.2	22.3	0.00e+00	0	34	0	1007681536	52	5860
2026-01-05 23:17:52.84	357.97	28.12	-39.1	-40.2	22.3	0.00e+00	0	34	0	1009778688	52	5857
2026-01-05 23:17:53.84	357.79	27.97	-39.1	-40.2	22.3	0.00e+00	0	34	0	1011875840	52	5846
2026-01-05 23:17:54.85	357.61	27.82	-39.2	-40.3	22.2	0.00e+00	0	34	0	1013972992	52	5921
2026-01-05 23:17:55.86	357.43	27.67	-39.4	-40.5	21.9	0.00e+00	0	34	0	1016070144	52	6086
2026-01-05 23:17:56.87	357.25	27.53	-39.7	-40.8	21.7	0.00e+00	0	34	0	1017118720	52	6301
2026-01-05 23:17:57.88	357.08	27.38	-39.7	-40.9	21.6	0.00e+00	0	34	0	1019215872	52	6331
2026-01-05 23:17:58.89	356.90	27.24	-39.6	-40.7	21.8	0.00e+00	0	34	0	1021313024	52	6242
2026-01-05 23:17:59.90	356.73	27.09	-39.4	-40.5	22.0	0.00e+00	0	34	0	1023410176	52	6095
2026-01-05 23:18:00.91	356.56	26.95	-39.3	-40.4	22.1	0.00e+00	0	34	0	1025507328	52	5967
2026-01-05 23:18:01.91	356.39	26.80	-39.1	-40.2	22.3	0.00e+00	0	34	0	1026555904	52	5835
2026-01-05 23:18:02.92	356.22	26.66	-39.1	-40.1	22.3	0.00e+00	0	34	0	1028653056	52	5795
2026-01-05 23:18:03.93	356.06	26.51	-39.0	-40.1	22.4	0.00e+00	0	34	0	1030750208	52	5764
2026-01-05 23:18:04.94	355.89	26.37	-39.0	-40.0	22.4	0.00e+00	0	34	0	1032847360	52	5745
2026-01-05 23:18:05.95	355.73	26.23	-39.0	-40.1	22.3	0.00e+00	0	34	0	1034944512	52	5781
2026-01-05 23:18:06.96	355.57	26.09	-39.0	-40.0	22.4	0.00e+00	0	34	0	1035993088	52	5741
2026-01-05 23:18:07.97	355.41	25.95	-39.0	-40.0	22.4	0.00e+00	0	34	0	1038090240	52	5728
2026-01-05 23:18:08.98	355.25	25.80	-39.0	-40.0	22.4	0.00e+00	0	34	0	1040187392	52	5738
2026-01-05 23:18:09.98	355.09	25.67	-38.8	-39.8	22.6	0.00e+00	0	34	0	1042284544	52	5621
2026-01-05 23:18:10.99	354.94	25.53	-38.8	-39.8	22.6	0.00e+00	0	34	0	1044381696	52	5587
2026-01-05 23:18:12.00	354.78	25.39	-38.9	-40.0	22.5	0.00e+00	0	34	0	1045430272	52	5696
2026-01-05 23:18:13.01	354.63	25.25	-38.9	-40.0	22.4	0.00e+00	0	34	0	1047527424	52	5730
2026-01-05 23:18:14.03	354.47	25.11	-39.0	-40.1	22.3	0.00e+00	0	34	0	1049624576	52	5764
2026-01-05 23:18:15.03	354.33	24.97	-39.2	-40.3	22.2	0.00e+00	0	34	0	1051721728	52	5901
2026-01-05 23:18:16.04	354.18	24.83	-39.2	-40.3	22.1	0.00e+00	0	34	0	1053818880	52	5937
2026-01-05 23:18:17.05	354.03	24.70	-38.9	-39.9	22.5	0.00e+00	0	34	0	1054867456	52	5684
2026-01-05 23:18:18.06	353.88	24.56	-38.8	-39.9	22.6	0.00e+00	0	34	0	1056964608	52	5640
2026-01-05 23:18:19.07	353.74	24.42	-38.8	-39.9	22.4	0.00e+00	0	34	0	1059061760	52	5643
2026-01-05 23:18:20.08	353.59	24.29	-38.6	-39.6	22.7	0.00e+00	0	34	0	1061158912	50	6137
2026-01-05 23:18:21.09	353.45	24.15	-38.5	-39.5	23.0	0.00e+00	0	34	0	1063256064	50	6035
2026-01-05 23:18:22.10	353.31	24.02	-38.4	-39.4	22.9	0.00e+00	0	34	0	1065353216	50	5996
2026-01-05 23:18:23.11	353.17	23.89	-38.6	-39.6	22.8	0.00e+00	0	34	0	1066401792	50	6111
2026-01-05 23:18:24.12	353.03	23.75	-38.3	-39.2	23.0	0.00e+00	0	34	0	1068498944	50	5875
2026-01-05 23:18:25.13	352.89	23.62	-38.5	-39.5	22.9	0.00e+00	0	34	0	1070596096	50	6081
2026-01-05 23:18:26.14	352.75	23.49	-38.1	-39.0	23.3	0.00e+00	0	34	0	1072693248	50	5744
2026-01-05 23:18:27.15	352.62	23.35	-38.2	-39.1	23.1	0.00e+00	0	34	0	1074790400	50	5820
2026-01-05 23:18:28.15	352.49	23.22	-38.2	-39.2	23.0	0.00e+00	0	34	0	1075838976	50	5866
2026-01-05 23:18:29.16	352.35	23.09	-38.2	-39.2	23.1	0.00e+00	0	34	0	1077936128	50	5838
2026-01-05 23:18:30.17	352.22	22.96	-38.3	-39.3	23.0	0.00e+00	0	34	0	1080033280	50	5936
2026-01-05 23:18:31.18	352.09	22.83	-38.4	-39.4	23.0	0.00e+00	0	34	0	1082130432	50	5982
2026-01-05 23:18:32.19	351.96	22.70	-38.3	-39.3	23.1	0.00e+00	0	34	0	1084227584	50	5925
2026-01-05 23:18:33.20	351.83	22.57	-38.3	-39.3	23.0	0.00e+00	0	34	0	1085276160	50	5914
2026-01-05 23:18:34.21	351.70	22.45	-38.3	-39.3	23.0	0.00e+00	0	34	0	1087373312	50	5932
2026-01-05 23:18:35.22	351.58	22.32	-38.2	-39.2	23.0	0.00e+00	0	34	0	1089470464	50	5844
2026-01-05 23:18:36.23	351.45	22.19	-38.4	-39.3	22.8	0.00e+00	0	34	0	1091567616	50	5964
2026-01-05 23:18:37.24	351.33	22.06	-38.3	-39.3	23.0	0.00e+00	0	34	0	1093664768	50	5905
2026-01-05 23:18:38.25	351.20	21.94	-38.2	-39.2	23.1	0.00e+00	0	34	0	1094713344	50	5832
2026-01-05 23:18:39.26	351.08	21.81	-38.2	-39.2	23.1	0.00e+00	0	34	0	1096810496	50	5852
2026-01-05 23:18:40.27	350.96	21.69	-38.4	-39.4	23.0	0.00e+00	0	34	0	1098907648	50	5999
2026-01-05 23:18:41.28	350.84	21.56	-38.5	-39.5	22.9	0.00e+00	0	34	0	1101004800	50	6039
2026-01-05 23:18:42.28	350.72	21.44	-38.3	-39.2	23.0	0.00e+00	0	34	0	1103101952	50	5887
2026-01-05 23:18:43.29	350.60	21.31	-38.3	-39.3	23.0	0.00e+00	0	34	0	1104150528	50	5919
2026-01-05 23:18:44.30	350.49	21.19	-38.5	-39.5	22.8	0.00e+00	0	34	0	1106247680	50	6043
2026-01-05 23:18:45.31	350.37	21.07	-38.5	-39.4	23.0	0.00e+00	0	34	0	1108344832	50	6017
2026-01-05 23:18:46.32	350.26	20.94	-38.5	-39.5	22.9	0.00e+00	0	34	0	1110441984	50	6066
2026-01-05 23:18:47.33	350.14	20.82	-38.4	-39.4	23.0	0.00e+00	0	34	0	1112539136	50	5982
2026-01-05 23:18:48.34	350.03	20.70	-38.5	-39.4	22.9	0.00e+00	0	34	0	1113587712	50	6026
2026-01-05 23:18:49.35	349.91	20.58	-38.4	-39.4	23.0	0.00e+00	0	34	0	1115684864	50	5979
2026-01-05 23:18:50.36	349.80	20.46	-38.4	-39.4	22.9	0.00e+00	0	34	0	1117782016	50	5999
2026-01-05 23:18:51.37	349.69	20.34	-38.5	-39.4	22.9	0.00e+00	0	34	0	1119879168	50	6032
2026-01-05 23:18:52.38	349.58	20.22	-38.4	-39.3	23.0	0.00e+00	0	34	0	1121976320	50	5963
2026-01-05 23:18:53.39	349.47	20.10	-38.5	-39.5	22.8	0.00e+00	0	34	0	1123024896	50	6072
2026-01-05 23:18:54.40	349.37	19.98	-38.5	-39.5	22.8	0.00e+00	0	34	0	1125122048	50	6038
2026-01-05 23:18:55.41	349.26	19.86	-38.4	-39.4	22.8	0.00e+00	0	34	0	1127219200	50	6005
2026-01-05 23:18:56.42	349.15	19.74	-38.6	-39.6	22.8	0.00e+00	0	34	0	1129316352	50	6152
2026-01-05 23:18:57.43	349.05	19.62	-38.6	-39.6	22.6	0.00e+00	0	34	0	1131413504	50	6130
2026-01-05 23:18:58.44	348.94	19.51	-38.6	-39.6	22.7	0.00e+00	0	34	0	1133510656	50	6122
2026-01-05 23:18:59.44	348.84	19.39	-38.5	-39.4	22.8	0.00e+00	0	34	0	1134559232	50	6030
2026-01-05 23:19:00.45	348.74	19.27	-38.5	-39.5	22.8	0.00e+00	0	34	0	1136656384	50	6051
2026-01-05 23:19:01.46	348.63	19.16	-38.4	-39.4	22.9	0.00e+00	0	34	0	1138753536	50	6006
2026-01-05 23:19:02.47	348.53	19.04	-38.4	-39.4	22.8	0.00e+00	0	34	0	1140850688	50	6004
2026-01-05 23:19:03.48	348.43	18.93	-38.6	-39.6	22.7	0.00e+00	0	34	0	1142947840	50	6127
2026-01-05 23:19:04.49	348.33	18.81	-38.5	-39.5	22.8	0.00e+00	0	34	0	1143996416	50	6038
2026-01-05 23:19:05.50	348.23	18.70	-38.5	-39.5	22.9	0.00e+00	0	34	0	1146093568	50	6035
2026-01-05 23:19:06.51	348.13	18.59	-38.5	-39.5	22.8	0.00e+00	0	34	0	1148190720	50	6077
2026-01-05 23:19:07.52	348.04	18.47	-38.5	-39.4	22.8	0.00e+00	0	34	0	1150287872	50	6031
2026-01-05 23:19:08.53	347.94	18.36	-38.7	-39.7	22.6	0.00e+00	0	34	0	1152385024	50	6201
2026-01-05 23:19:09.54	347.84	18.25	-38.7	-39.8	22.4	0.00e+00	0	34	0	1153433600	50	6262
2026-01-05 23:19:10.55	347.75	18.14	-38.7	-39.8	22.5	0.00e+00	0	34	0	1155530752	50	6267
2026-01-05 23:19:11.56	347.65	18.02	-38.9	-40.0	22.2	0.00e+00	0	34	0	1157627904	50	6425
2026-01-05 23:19:12.57	347.56	17.91	-38.9	-39.9	22.3	0.00e+00	0	34	0	1159725056	50	6374
2026-01-05 23:19:13.58	347.47	17.80	-38.8	-39.9	22.4	0.00e+00	0	34	0	1161822208	50	6345
2026-01-05 23:19:14.59	347.37	17.69	-39.1	-40.1	22.2	0.00e+00	0	34	0	1162870784	50	6530
2026-01-05 23:19:15.60	347.28	17.58	-39.0	-40.1	22.2	0.00e+00	0	34	0	1164967936	50	6487
2026-01-05 23:19:16.60	347.19	17.47	-39.1	-40.2	22.1	0.00e+00	0	34	0	1167065088	50	6589
2026-01-05 23:19:17.61	347.10	17.36	-39.1	-40.2	22.1	0.00e+00	0	34	0	1169162240	50	6564
2026-01-05 23:19:18.62	347.01	17.26	-39.1	-40.2	22.1	0.00e+00	0	34	0	1171259392	50	6594
2026-01-05 23:19:19.63	346.92	17.15	-39.2	-40.3	22.0	0.00e+00	0	34	0	1172307968	50	6663
2026-01-05 23:19:20.64	346.83	17.04	-39.1	-40.1	22.2	0.00e+00	0	34	0	1174405120	50	6528
2026-01-05 23:19:21.65	346.74	16.93	-39.1	-40.1	22.1	0.00e+00	0	34	0	1176502272	50	6512
2026-01-05 23:19:22.66	346.66	16.82	-39.0	-40.1	22.2	0.00e+00	0	34	0	1178599424	50	6483
2026-01-05 23:19:23.67	346.57	16.72	-38.8	-39.9	22.3	0.00e+00	0	34	0	1180696576	50	6348
2026-01-05 23:19:24.68	346.49	16.61	-38.9	-40.0	22.2	0.00e+00	0	34	0	1181745152	50	6436
2026-01-05 23:19:25.69	346.40	16.51	-39.0	-40.1	22.2	0.00e+00	0	34	0	1183842304	50	6473
2026-01-05 23:19:26.70	346.32	16.40	-38.9	-39.9	22.4	0.00e+00	0	34	0	1185939456	50	6382
2026-01-05 23:19:27.71	346.23	16.30	-38.8	-39.9	22.3	0.00e+00	0	34	0	1188036608	50	6328
2026-01-05 23:19:28.72	346.15	16.19	-38.8	-39.9	22.4	0.00e+00	0	34	0	1190133760	50	6333
2026-01-05 23:19:29.73	346.07	16.09	-38.6	-39.7	22.5	0.00e+00	0	34	0	1191182336	50	6180
2026-01-05 23:19:30.74	345.98	15.98	-38.6	-39.6	22.6	0.00e+00	0	34	0	1193279488	50	6127
2026-01-05 23:19:31.75	345.90	15.88	-38.6	-39.6	22.5	0.00e+00	0	34	0	1195376640	50	6155
2026-01-05 23:19:32.75	345.82	15.78	-38.5	-39.5	22.7	0.00e+00	0	34	0	1197473792	50	6048
2026-01-05 23:19:33.76	345.74	15.67	-38.5	-39.5	22.6	0.00e+00	0	34	0	1199570944	50	6054
