passes_logs/2026/01/05/R4.6S_Anadyr/R4.6S_Anadyr__20260105_051352_FENGYUN_3E_rec.log

#Pass ID: 20260105_051352_FENGYUN 3E
#Satellite: FENGYUN 3E
#Configuration: FENGYUN 3E
#almurnet v.1.7.20251203
#Start time: 2026-01-05 05:13:55

#Version: 2.2.20231116
#Station: R4.6S_Anadyr
#Location: 177.4865 lon 64.73178 lat
#TLE: 1 49008U 21062A   26004.99925679  .00000018  00000+0  29282-4 0  9995
#TLE: 2 49008  98.7472  10.2448 0001540 159.6420 200.4818 14.19883565233423

#Time	Az	El	Level	Level2	SNR	BER	BlckErr	Temp	State	Recorded	gain1	gain2
2026-01-05 05:13:55.63	174.82	0.21	-49.4	-59.3	3.3	8.40e-01	0	24	0	0	60	33270
2026-01-05 05:13:56.64	174.85	0.27	-49.0	-60.5	3.6	8.46e-01	0	24	104	0	60	38160
2026-01-05 05:13:57.65	174.87	0.33	-49.7	-61.1	3.6	8.46e-01	0	25	104	0	60	41059
2026-01-05 05:13:58.65	174.90	0.39	-49.1	-60.8	3.6	8.46e-01	0	25	104	0	60	39724
2026-01-05 05:13:59.67	174.92	0.45	-48.4	-60.1	3.6	8.45e-01	0	25	104	0	60	36454
2026-01-05 05:14:00.67	174.95	0.51	-48.3	-60.1	3.6	8.45e-01	0	25	104	0	60	36690
2026-01-05 05:14:01.68	174.98	0.57	-48.4	-60.2	3.6	8.45e-01	0	25	104	0	60	37138
2026-01-05 05:14:02.69	175.00	0.63	-48.2	-60.0	3.6	8.45e-01	0	25	104	0	60	36150
2026-01-05 05:14:03.70	175.03	0.69	-47.7	-59.8	3.6	8.45e-01	0	25	104	0	60	35334
2026-01-05 05:14:04.71	175.05	0.75	-46.9	-59.6	3.6	8.45e-01	0	25	104	0	60	34429
2026-01-05 05:14:05.72	175.08	0.81	-47.5	-59.5	3.6	8.46e-01	0	25	104	0	60	34125
2026-01-05 05:14:06.73	175.11	0.88	-47.6	-59.4	3.6	8.45e-01	0	25	104	0	60	33590
2026-01-05 05:14:07.74	175.13	0.94	-47.6	-59.2	3.6	8.45e-01	0	25	104	0	60	32859
2026-01-05 05:14:08.75	175.16	1.00	-47.5	-58.8	3.6	8.46e-01	0	25	104	0	60	31588
2026-01-05 05:14:09.76	175.19	1.06	-46.8	-58.2	3.6	8.46e-01	0	25	104	0	60	29473
2026-01-05 05:14:10.77	175.22	1.12	-46.7	-58.2	3.6	8.45e-01	0	25	104	0	60	29359
2026-01-05 05:14:11.78	175.24	1.18	-46.8	-58.2	3.6	8.46e-01	0	25	104	0	60	29498
2026-01-05 05:14:12.79	175.27	1.25	-47.0	-58.4	3.6	8.44e-01	0	25	104	0	60	29982
2026-01-05 05:14:13.80	175.30	1.31	-47.1	-58.6	3.6	8.46e-01	0	25	104	0	60	30718
2026-01-05 05:14:14.81	175.32	1.37	-47.7	-59.1	3.6	8.45e-01	0	25	104	0	60	32670
2026-01-05 05:14:15.82	175.35	1.43	-47.6	-59.1	3.6	8.46e-01	0	25	104	0	60	32464
2026-01-05 05:14:16.83	175.38	1.49	-47.4	-58.9	3.6	8.45e-01	0	25	104	0	60	31973
2026-01-05 05:14:17.84	175.41	1.56	-48.1	-59.6	3.6	8.46e-01	0	25	104	0	60	34503
2026-01-05 05:14:18.85	175.44	1.62	-46.9	-58.4	3.6	8.46e-01	0	25	104	0	60	29983
2026-01-05 05:14:19.86	175.46	1.68	-47.0	-58.4	3.6	8.46e-01	0	25	104	0	60	30105
2026-01-05 05:14:20.87	175.49	1.75	-46.9	-58.4	3.6	8.46e-01	0	25	104	0	60	29939
2026-01-05 05:14:21.87	175.52	1.81	-46.8	-58.3	3.6	8.45e-01	0	25	104	0	60	29782
2026-01-05 05:14:22.88	175.55	1.87	-46.8	-58.3	3.6	8.46e-01	0	25	104	0	60	29761
2026-01-05 05:14:23.89	175.58	1.93	-46.7	-58.1	3.6	8.46e-01	0	25	104	0	60	29138
2026-01-05 05:14:24.90	175.60	2.00	-46.7	-58.1	3.6	8.45e-01	0	25	104	0	60	29016
2026-01-05 05:14:25.91	175.63	2.06	-46.7	-57.9	3.6	8.46e-01	0	25	104	0	60	28460
2026-01-05 05:14:26.92	175.66	2.12	-46.7	-58.0	3.6	8.46e-01	0	25	104	0	60	28579
2026-01-05 05:14:27.93	175.69	2.19	-46.7	-57.9	3.6	8.45e-01	0	25	104	0	60	28343
2026-01-05 05:14:28.94	175.72	2.25	-46.7	-58.0	3.6	8.45e-01	0	25	104	0	60	28768
2026-01-05 05:14:29.95	175.75	2.32	-46.7	-58.1	3.6	8.46e-01	0	25	104	0	60	29169
2026-01-05 05:14:30.96	175.78	2.38	-46.7	-57.9	3.6	8.45e-01	0	25	104	0	60	28521
2026-01-05 05:14:31.97	175.81	2.45	-47.2	-58.5	3.6	8.44e-01	0	25	104	0	60	30270
2026-01-05 05:14:32.98	175.84	2.51	-47.1	-57.7	3.6	8.46e-01	0	25	104	0	60	27827
2026-01-05 05:14:33.99	175.87	2.57	-46.8	-56.6	3.6	8.44e-01	0	25	104	0	60	24313
2026-01-05 05:14:35.00	175.90	2.64	-46.6	-55.8	3.6	8.43e-01	0	25	104	0	60	22192
2026-01-05 05:14:36.00	175.92	2.70	-46.6	-56.0	3.7	8.42e-01	0	25	104	0	60	22881
2026-01-05 05:14:37.02	175.95	2.77	-46.7	-56.3	3.6	8.43e-01	0	25	104	0	60	23709
2026-01-05 05:14:38.03	175.98	2.84	-46.8	-57.5	3.6	8.46e-01	0	25	104	0	60	27229
2026-01-05 05:14:39.03	176.01	2.90	-46.8	-57.4	3.6	8.45e-01	0	25	104	0	60	26886
2026-01-05 05:14:40.04	176.04	2.97	-46.1	-52.7	5.1	8.18e-01	0	25	104	0	60	15664
2026-01-05 05:14:41.05	176.07	3.03	-44.8	-48.3	8.9	2.57e-01	0	25	0	5242880	60	9373
2026-01-05 05:14:42.06	176.11	3.10	-43.3	-45.6	12.6	2.75e-03	0	25	0	11534336	60	6883
2026-01-05 05:14:43.07	176.14	3.16	-40.6	-41.9	15.6	0.00e+00	0	25	0	18874368	56	5664
2026-01-05 05:14:44.08	176.17	3.23	-40.2	-41.4	16.6	2.20e-06	0	25	0	26214400	54	5978
2026-01-05 05:14:45.09	176.20	3.30	-37.8	-38.7	19.1	0.00e+00	0	25	0	33554432	50	5524
2026-01-05 05:14:46.10	176.23	3.36	-36.2	-37.0	20.5	0.00e+00	0	25	0	40894464	46	5699
2026-01-05 05:14:47.11	176.26	3.43	-35.4	-36.1	21.4	0.00e+00	0	25	0	48234496	44	5813
2026-01-05 05:14:48.12	176.29	3.50	-35.1	-35.8	21.8	0.00e+00	0	25	0	55574528	44	5586
2026-01-05 05:14:49.13	176.32	3.56	-34.5	-35.2	22.3	0.00e+00	0	25	0	62914560	42	5830
2026-01-05 05:14:50.14	176.35	3.63	-34.4	-35.0	22.1	0.00e+00	0	25	0	70254592	42	5740
2026-01-05 05:14:51.15	176.39	3.70	-38.0	-38.9	18.8	0.00e+00	0	25	0	77594624	48	6350
2026-01-05 05:14:52.16	176.42	3.76	-39.9	-41.0	17.2	8.01e-05	0	25	0	84934656	56	5091
2026-01-05 05:14:53.17	176.45	3.83	-45.3	-49.8	7.4	8.41e-02	0	25	0	92274688	60	11152
2026-01-05 05:14:54.18	176.48	3.90	-45.0	-48.4	8.7	3.65e-01	0	25	0	98566144	60	9550
2026-01-05 05:14:55.19	176.51	3.97	-41.7	-43.1	17.0	0.00e+00	0	25	0	105906176	52	8178
2026-01-05 05:14:56.20	176.54	4.04	-36.7	-37.5	20.8	0.00e+00	0	25	0	114294784	46	6055
2026-01-05 05:14:57.21	176.58	4.10	-36.5	-37.2	20.4	0.00e+00	0	25	0	120586240	46	5887
2026-01-05 05:14:58.22	176.61	4.17	-36.8	-37.6	20.3	0.00e+00	0	25	0	127926272	46	6119
2026-01-05 05:14:59.23	176.64	4.24	-37.0	-37.8	20.4	0.00e+00	0	25	0	135266304	46	6262
2026-01-05 05:15:00.23	176.67	4.31	-36.6	-37.3	20.6	0.00e+00	0	25	0	142606336	46	5945
2026-01-05 05:15:01.24	176.71	4.38	-36.1	-36.9	20.6	0.00e+00	0	25	0	149946368	44	6331
2026-01-05 05:15:02.25	176.74	4.45	-35.5	-36.1	21.3	0.00e+00	0	25	0	157286400	44	5827
2026-01-05 05:15:03.26	176.77	4.52	-36.1	-36.9	20.4	0.00e+00	0	25	0	164626432	44	6318
2026-01-05 05:15:04.27	176.81	4.59	-36.0	-36.7	20.7	0.00e+00	0	25	0	171966464	44	6234
2026-01-05 05:15:05.28	176.84	4.66	-35.7	-36.5	20.8	0.00e+00	0	25	0	179306496	44	6047
2026-01-05 05:15:06.29	176.87	4.73	-35.5	-36.2	21.2	0.00e+00	0	25	0	186646528	44	5837
2026-01-05 05:15:07.30	176.91	4.80	-35.0	-35.6	21.7	0.00e+00	0	25	0	193986560	44	5491
2026-01-05 05:15:08.31	176.94	4.87	-35.3	-36.0	21.4	0.00e+00	0	25	0	201326592	44	5698
2026-01-05 05:15:09.32	176.98	4.94	-34.3	-34.9	22.5	0.00e+00	0	25	0	208666624	42	5680
2026-01-05 05:15:10.33	177.01	5.01	-34.6	-35.2	22.0	0.00e+00	0	25	0	216006656	42	5867
2026-01-05 05:15:11.34	177.04	5.08	-34.9	-35.5	21.8	0.00e+00	0	25	0	223346688	42	6080
2026-01-05 05:15:12.35	177.08	5.15	-35.4	-36.1	21.3	0.00e+00	0	25	0	230686720	42	6473
2026-01-05 05:15:13.36	177.11	5.22	-35.7	-36.4	21.3	0.00e+00	0	25	0	238026752	42	6707
2026-01-05 05:15:14.37	177.15	5.29	-35.6	-36.3	21.3	0.00e+00	0	25	0	245366784	42	6660
2026-01-05 05:15:15.38	177.18	5.36	-35.5	-36.2	21.5	0.00e+00	0	25	0	251658240	44	5832
2026-01-05 05:15:16.39	177.22	5.43	-35.3	-36.0	21.7	0.00e+00	0	25	0	258998272	44	5698
2026-01-05 05:15:17.40	177.25	5.51	-35.7	-36.4	21.1	0.00e+00	0	25	0	267386880	44	5997
2026-01-05 05:15:18.41	177.29	5.58	-35.8	-36.6	21.2	0.00e+00	0	25	0	273678336	44	6104
2026-01-05 05:15:19.41	177.33	5.65	-35.4	-36.1	21.6	0.00e+00	0	25	0	281018368	44	5815
2026-01-05 05:15:20.43	177.36	5.72	-34.6	-35.2	22.2	0.00e+00	0	25	0	288358400	42	5860
2026-01-05 05:15:21.43	177.40	5.79	-34.4	-35.1	22.7	0.00e+00	0	25	0	295698432	42	5767
2026-01-05 05:15:22.44	177.43	5.87	-34.4	-35.0	22.5	0.00e+00	0	25	0	303038464	42	5748
2026-01-05 05:15:23.45	177.47	5.94	-34.7	-35.2	22.9	0.00e+00	0	25	0	310378496	42	5887
2026-01-05 05:15:24.45	177.51	6.01	-34.7	-35.4	22.7	0.00e+00	0	25	0	317718528	42	5971
2026-01-05 05:15:25.46	177.54	6.09	-34.8	-35.4	23.0	0.00e+00	0	25	0	325058560	42	6023
2026-01-05 05:15:26.47	177.58	6.16	-34.2	-34.8	23.6	0.00e+00	0	25	0	332398592	42	5623
2026-01-05 05:15:27.48	177.62	6.23	-34.4	-35.0	23.4	0.00e+00	0	25	0	339738624	42	5728
2026-01-05 05:15:28.49	177.65	6.31	-33.6	-34.2	23.9	0.00e+00	0	25	0	347078656	40	5859
2026-01-05 05:15:29.50	177.69	6.38	-33.4	-34.0	23.8	0.00e+00	0	25	0	354418688	40	5704
2026-01-05 05:15:30.51	177.73	6.46	-33.7	-34.3	23.7	0.00e+00	0	25	0	361758720	40	5942
2026-01-05 05:15:31.52	177.76	6.53	-33.6	-34.2	24.0	0.00e+00	0	25	0	369098752	40	5843
2026-01-05 05:15:32.52	177.80	6.60	-33.0	-33.5	24.2	0.00e+00	0	25	0	375390208	40	5437
2026-01-05 05:15:33.53	177.84	6.68	-33.2	-33.8	24.0	0.00e+00	0	25	0	382730240	40	5584
2026-01-05 05:15:34.54	177.88	6.75	-33.2	-33.8	24.1	0.00e+00	0	25	0	390070272	40	5572
2026-01-05 05:15:35.54	177.92	6.83	-33.8	-34.4	23.8	0.00e+00	0	25	0	397410304	40	5972
2026-01-05 05:15:36.55	177.95	6.91	-33.1	-33.7	24.1	0.00e+00	0	25	0	404750336	40	5522
2026-01-05 05:15:37.56	177.99	6.98	-33.1	-33.6	24.2	0.00e+00	0	25	0	412090368	40	5500
2026-01-05 05:15:38.57	178.03	7.06	-33.1	-33.6	24.3	0.00e+00	0	25	0	419430400	40	5474
2026-01-05 05:15:39.58	178.07	7.13	-33.3	-33.8	24.2	0.00e+00	0	25	0	426770432	38	6303
2026-01-05 05:15:40.59	178.11	7.21	-33.1	-33.6	24.3	0.00e+00	0	26	0	434110464	38	6145
2026-01-05 05:15:41.60	178.15	7.29	-33.0	-33.5	24.2	0.00e+00	0	26	0	441450496	38	6084
2026-01-05 05:15:42.61	178.19	7.36	-32.9	-33.4	24.3	0.00e+00	0	26	0	448790528	38	6000
2026-01-05 05:15:43.62	178.23	7.44	-33.0	-33.6	24.2	0.00e+00	0	25	0	456130560	38	6125
2026-01-05 05:15:44.63	178.27	7.52	-33.1	-33.6	24.2	0.00e+00	0	26	0	463470592	38	6161
2026-01-05 05:15:45.64	178.31	7.60	-33.0	-33.6	24.0	0.00e+00	0	26	0	470810624	38	6113
2026-01-05 05:15:46.65	178.35	7.67	-33.0	-33.5	24.4	0.00e+00	0	25	0	478150656	38	6070
2026-01-05 05:15:47.66	178.39	7.75	-33.2	-33.8	24.2	0.00e+00	0	25	0	485490688	38	6265
2026-01-05 05:15:48.67	178.43	7.83	-33.0	-33.5	24.5	0.00e+00	0	25	0	492830720	38	6072
2026-01-05 05:15:49.68	178.47	7.91	-33.5	-34.0	23.9	0.00e+00	0	25	0	500170752	38	6429
2026-01-05 05:15:50.69	178.51	7.99	-33.5	-34.0	24.0	0.00e+00	0	25	0	506462208	38	6449
2026-01-05 05:15:51.70	178.56	8.07	-32.8	-33.3	24.6	0.00e+00	0	26	0	514850816	38	5942
2026-01-05 05:15:52.70	178.60	8.14	-32.6	-33.2	24.9	0.00e+00	0	25	0	522190848	38	5830
2026-01-05 05:15:53.72	178.64	8.22	-32.5	-33.1	24.9	0.00e+00	0	26	0	528482304	38	5772
2026-01-05 05:15:54.72	178.68	8.30	-33.0	-33.5	24.6	0.00e+00	0	25	0	535822336	38	6045
2026-01-05 05:15:55.73	178.72	8.38	-32.8	-33.3	24.7	0.00e+00	0	25	0	543162368	38	5947
2026-01-05 05:15:56.74	178.76	8.46	-32.8	-33.3	24.7	0.00e+00	0	25	0	550502400	38	5944
2026-01-05 05:15:57.75	178.81	8.54	-32.7	-33.2	24.8	0.00e+00	0	26	0	557842432	38	5844
2026-01-05 05:15:58.76	178.85	8.63	-33.1	-33.6	24.7	0.00e+00	0	26	0	565182464	38	6141
2026-01-05 05:15:59.77	178.89	8.71	-32.5	-33.1	24.9	0.00e+00	0	26	0	572522496	38	5764
2026-01-05 05:16:00.78	178.94	8.79	-32.6	-33.1	24.8	0.00e+00	0	25	0	579862528	38	5795
2026-01-05 05:16:01.79	178.98	8.87	-32.5	-33.0	25.1	0.00e+00	0	25	0	587202560	38	5749
2026-01-05 05:16:02.80	179.02	8.95	-32.1	-32.6	25.1	0.00e+00	0	25	0	594542592	38	5484
2026-01-05 05:16:03.81	179.07	9.03	-31.9	-32.4	25.3	0.00e+00	0	26	0	601882624	38	5350
2026-01-05 05:16:04.82	179.11	9.11	-31.9	-32.4	25.2	0.00e+00	0	26	0	609222656	38	5320
2026-01-05 05:16:05.82	179.16	9.20	-31.9	-32.4	25.3	0.00e+00	0	26	0	616562688	36	6004
2026-01-05 05:16:06.84	179.20	9.28	-32.2	-32.7	25.1	0.00e+00	0	26	0	623902720	36	6178
2026-01-05 05:16:07.84	179.25	9.36	-32.0	-32.5	25.2	0.00e+00	0	25	0	631242752	36	6087
2026-01-05 05:16:08.86	179.29	9.45	-32.2	-32.7	25.2	0.00e+00	0	26	0	638582784	36	6228
2026-01-05 05:16:09.86	179.34	9.53	-32.0	-32.5	25.3	0.00e+00	0	25	0	645922816	36	6043
2026-01-05 05:16:10.87	179.38	9.61	-31.8	-32.3	25.4	0.00e+00	0	26	0	653262848	36	5906
2026-01-05 05:16:11.88	179.43	9.70	-31.8	-32.3	25.4	0.00e+00	0	26	0	659554304	36	5929
2026-01-05 05:16:12.89	179.47	9.78	-31.9	-32.4	25.3	0.00e+00	0	26	0	667942912	36	5996
2026-01-05 05:16:13.91	179.52	9.87	-31.4	-31.9	25.6	0.00e+00	0	26	0	675282944	36	5678
2026-01-05 05:16:14.92	179.57	9.95	-32.0	-32.5	25.2	0.00e+00	0	26	0	681574400	36	6084
2026-01-05 05:16:15.93	179.61	10.04	-31.9	-32.4	25.3	0.00e+00	0	26	0	688914432	36	6021
2026-01-05 05:16:16.94	179.66	10.12	-31.8	-32.3	25.2	0.00e+00	0	25	0	696254464	36	5948
2026-01-05 05:16:17.95	179.71	10.21	-31.7	-32.3	25.5	0.00e+00	0	26	0	703594496	36	5898
2026-01-05 05:16:18.96	179.76	10.29	-31.9	-32.4	25.5	0.00e+00	0	26	0	710934528	36	6020
2026-01-05 05:16:19.97	179.80	10.38	-31.9	-32.4	25.4	0.00e+00	0	26	0	718274560	36	6004
2026-01-05 05:16:20.98	179.85	10.47	-32.0	-32.5	25.2	0.00e+00	0	26	0	725614592	36	6093
2026-01-05 05:16:21.98	179.90	10.55	-32.1	-32.6	25.4	0.00e+00	0	26	0	732954624	36	6146
2026-01-05 05:16:22.99	179.95	10.64	-32.1	-32.6	25.2	0.00e+00	0	26	0	740294656	36	6173
2026-01-05 05:16:24.00	180.00	10.73	-32.3	-32.8	25.3	0.00e+00	0	26	0	747634688	36	6274
2026-01-05 05:16:25.01	180.05	10.81	-31.7	-32.2	25.5	0.00e+00	0	26	0	754974720	36	5871
2026-01-05 05:16:26.02	180.10	10.90	-32.0	-32.5	25.4	0.00e+00	0	26	0	762314752	36	6096
2026-01-05 05:16:27.03	180.15	10.99	-32.0	-32.5	25.4	0.00e+00	0	26	0	769654784	36	6068
2026-01-05 05:16:28.04	180.20	11.08	-31.8	-32.3	25.5	0.00e+00	0	25	0	776994816	36	5903
2026-01-05 05:16:29.05	180.25	11.17	-31.9	-32.4	25.5	0.00e+00	0	26	0	784334848	36	5995
2026-01-05 05:16:30.06	180.30	11.26	-31.7	-32.2	25.4	0.00e+00	0	26	0	791674880	36	5890
2026-01-05 05:16:31.07	180.35	11.35	-31.6	-32.1	25.6	0.00e+00	0	26	0	799014912	36	5822
2026-01-05 05:16:32.08	180.40	11.44	-31.8	-32.4	25.5	0.00e+00	0	26	0	805306368	36	5979
2026-01-05 05:16:33.09	180.45	11.53	-31.8	-32.3	25.4	0.00e+00	0	26	0	812646400	36	5937
2026-01-05 05:16:34.10	180.50	11.62	-31.5	-32.0	25.5	0.00e+00	0	26	0	821035008	36	5752
2026-01-05 05:16:35.10	180.56	11.71	-31.6	-32.2	25.3	0.00e+00	0	26	0	827326464	36	5851
2026-01-05 05:16:36.11	180.61	11.80	-31.7	-32.3	25.4	0.00e+00	0	26	0	834666496	36	5899
2026-01-05 05:16:37.12	180.66	11.89	-31.8	-32.4	25.4	0.00e+00	0	26	0	842006528	36	5974
2026-01-05 05:16:38.13	180.71	11.98	-31.8	-32.4	25.3	0.00e+00	0	26	0	849346560	36	5976
2026-01-05 05:16:39.14	180.77	12.07	-31.8	-32.3	25.3	0.00e+00	0	26	0	856686592	36	5927
2026-01-05 05:16:40.15	180.82	12.17	-31.9	-32.4	25.3	0.00e+00	0	26	0	864026624	36	6023
2026-01-05 05:16:41.15	180.87	12.26	-31.8	-32.3	25.3	0.00e+00	0	26	0	871366656	36	5959
2026-01-05 05:16:42.16	180.93	12.35	-31.7	-32.2	25.5	0.00e+00	0	26	0	878706688	36	5879
2026-01-05 05:16:43.17	180.98	12.44	-31.5	-32.1	25.6	0.00e+00	0	26	0	886046720	36	5767
2026-01-05 05:16:44.18	181.04	12.54	-31.6	-32.1	25.6	0.00e+00	0	26	0	893386752	36	5776
2026-01-05 05:16:45.19	181.09	12.63	-31.2	-31.7	25.9	0.00e+00	0	26	0	900726784	36	5532
2026-01-05 05:16:46.20	181.15	12.73	-31.2	-31.8	25.8	0.00e+00	0	26	0	908066816	36	5575
2026-01-05 05:16:47.21	181.20	12.82	-31.6	-32.2	25.6	0.00e+00	0	26	0	915406848	36	5831
2026-01-05 05:16:48.22	181.26	12.92	-31.4	-32.0	25.6	0.00e+00	0	26	0	922746880	36	5702
2026-01-05 05:16:49.23	181.32	13.01	-31.5	-32.0	25.7	0.00e+00	0	26	0	930086912	36	5755
2026-01-05 05:16:50.24	181.37	13.11	-31.4	-31.9	25.7	0.00e+00	0	26	0	936378368	36	5660
2026-01-05 05:16:51.25	181.43	13.20	-31.4	-31.9	25.9	0.00e+00	0	26	0	944766976	36	5671
2026-01-05 05:16:52.26	181.49	13.30	-31.0	-31.5	26.1	0.00e+00	0	26	0	952107008	36	5403
2026-01-05 05:16:53.27	181.55	13.40	-31.2	-31.7	25.9	0.00e+00	0	26	0	958398464	36	5530
2026-01-05 05:16:54.28	181.60	13.50	-31.0	-31.5	26.1	0.00e+00	0	26	0	965738496	36	5426
2026-01-05 05:16:55.29	181.66	13.59	-30.9	-31.4	26.2	0.00e+00	0	26	0	973078528	36	5364
2026-01-05 05:16:56.30	181.72	13.69	-30.9	-31.4	26.2	0.00e+00	0	26	0	980418560	34	5981
2026-01-05 05:16:57.31	181.78	13.79	-30.9	-31.4	26.3	0.00e+00	0	26	0	987758592	34	5966
2026-01-05 05:16:58.32	181.84	13.89	-30.7	-31.2	26.3	0.00e+00	0	26	0	995098624	34	5867
2026-01-05 05:16:59.33	181.90	13.99	-30.9	-31.4	26.1	0.00e+00	0	26	0	1002438656	34	5995
2026-01-05 05:17:00.34	181.96	14.09	-31.0	-31.5	26.2	0.00e+00	0	26	0	1009778688	34	6073
2026-01-05 05:17:01.35	182.02	14.19	-31.0	-31.5	26.1	0.00e+00	0	26	0	1017118720	34	6086
2026-01-05 05:17:02.35	182.08	14.29	-30.7	-31.2	26.4	0.00e+00	0	26	0	1024458752	34	5835
2026-01-05 05:17:03.36	182.15	14.39	-30.8	-31.2	26.4	0.00e+00	0	26	0	1031798784	34	5886
2026-01-05 05:17:04.37	182.21	14.49	-30.7	-31.2	26.5	0.00e+00	0	26	0	1039138816	34	5846
2026-01-05 05:17:05.38	182.27	14.59	-30.8	-31.2	26.5	0.00e+00	0	26	0	1046478848	34	5896
2026-01-05 05:17:06.39	182.33	14.69	-31.0	-31.4	26.4	0.00e+00	0	26	0	1053818880	34	6031
2026-01-05 05:17:07.40	182.40	14.79	-30.9	-31.4	26.3	0.00e+00	0	26	0	1061158912	34	5997
2026-01-05 05:17:08.41	182.46	14.90	-30.6	-31.1	26.5	0.00e+00	0	26	0	1068498944	34	5772
2026-01-05 05:17:09.42	182.52	15.00	-30.8	-31.3	26.4	0.00e+00	0	26	0	1075838976	34	5919
2026-01-05 05:17:10.43	182.59	15.10	-30.6	-31.1	26.4	0.00e+00	0	26	0	1082130432	34	5788
2026-01-05 05:17:11.44	182.65	15.21	-30.6	-31.1	26.6	0.00e+00	0	26	0	1089470464	34	5778
2026-01-05 05:17:12.45	182.72	15.31	-30.8	-31.3	26.4	0.00e+00	0	26	0	1097859072	34	5945
2026-01-05 05:17:13.46	182.79	15.42	-30.6	-31.1	26.6	0.00e+00	0	26	0	1104150528	34	5812
2026-01-05 05:17:14.47	182.85	15.52	-30.4	-31.0	26.6	0.00e+00	0	26	0	1111490560	34	5696
2026-01-05 05:17:15.47	182.92	15.62	-30.5	-31.0	26.6	0.00e+00	0	26	0	1118830592	34	5729
2026-01-05 05:17:16.48	182.98	15.73	-30.5	-31.0	26.7	0.00e+00	0	26	0	1126170624	34	5745
2026-01-05 05:17:17.49	183.05	15.84	-30.4	-30.9	26.7	0.00e+00	0	26	0	1133510656	34	5639
2026-01-05 05:17:18.50	183.12	15.94	-31.6	-32.2	26.5	0.00e+00	0	26	0	1140850688	36	5881
2026-01-05 05:17:19.51	183.19	16.05	-30.9	-31.4	26.9	0.00e+00	0	26	0	1148190720	36	5320
2026-01-05 05:17:20.52	183.26	16.16	-31.2	-31.7	26.7	0.00e+00	0	26	0	1155530752	36	5548
2026-01-05 05:17:21.53	183.33	16.27	-31.0	-31.5	26.6	0.00e+00	0	25	0	1162870784	36	5393
2026-01-05 05:17:22.54	183.40	16.38	-31.6	-32.1	26.8	0.00e+00	0	26	0	1170210816	36	5806
2026-01-05 05:17:23.55	183.47	16.48	-30.8	-31.3	26.7	0.00e+00	0	26	0	1177550848	36	5288
2026-01-05 05:17:24.56	183.54	16.59	-31.1	-31.6	26.6	0.00e+00	0	26	0	1184890880	34	6136
2026-01-05 05:17:25.57	183.61	16.70	-31.2	-31.7	26.8	0.00e+00	0	26	0	1192230912	36	5534
2026-01-05 05:17:26.58	183.68	16.81	-30.8	-31.3	26.6	0.00e+00	0	26	0	1199570944	34	5953
2026-01-05 05:17:27.59	183.75	16.93	-30.8	-31.3	26.7	0.00e+00	0	26	0	1206910976	34	5950
2026-01-05 05:17:28.60	183.83	17.04	-30.8	-31.3	26.6	0.00e+00	0	26	0	1214251008	34	5916
2026-01-05 05:17:29.61	183.90	17.15	-31.1	-31.6	26.4	0.00e+00	0	26	0	1221591040	34	6132
2026-01-05 05:17:30.62	183.97	17.26	-30.9	-31.4	26.4	0.00e+00	0	26	0	1228931072	34	5994
2026-01-05 05:17:31.63	184.05	17.37	-31.5	-32.0	26.4	0.00e+00	0	26	0	1235222528	34	6411
2026-01-05 05:17:32.64	184.12	17.49	-31.0	-31.5	26.7	0.00e+00	0	26	0	1242562560	34	6039
2026-01-05 05:17:33.65	184.20	17.60	-31.2	-31.7	26.2	0.00e+00	0	26	0	1250951168	34	6220
2026-01-05 05:17:34.66	184.28	17.71	-30.9	-31.4	26.3	0.00e+00	0	26	0	1257242624	34	5998
2026-01-05 05:17:35.67	184.35	17.83	-31.0	-31.5	26.4	0.00e+00	0	26	0	1264582656	34	6040
2026-01-05 05:17:36.67	184.43	17.94	-31.1	-31.6	26.3	0.00e+00	0	26	0	1271922688	34	6164
2026-01-05 05:17:37.68	184.51	18.06	-31.5	-32.0	25.9	0.00e+00	0	26	0	1279262720	34	6401
2026-01-05 05:17:38.69	184.58	18.17	-30.8	-31.3	26.6	0.00e+00	0	26	0	1286602752	34	5909
2026-01-05 05:17:39.70	184.66	18.29	-30.9	-31.4	26.5	0.00e+00	0	26	0	1293942784	34	6004
2026-01-05 05:17:40.70	184.74	18.41	-30.7	-31.2	26.5	0.00e+00	0	26	0	1301282816	36	5200
2026-01-05 05:17:41.71	184.82	18.52	-31.4	-31.9	26.3	0.00e+00	0	26	0	1308622848	34	6336
2026-01-05 05:17:42.72	184.90	18.64	-31.0	-31.5	26.3	0.00e+00	0	26	0	1315962880	34	6069
2026-01-05 05:17:43.73	184.98	18.76	-30.9	-31.4	26.8	0.00e+00	0	26	0	1323302912	34	6023
2026-01-05 05:17:44.74	185.07	18.88	-30.8	-31.3	26.6	0.00e+00	0	26	0	1330642944	34	5917
2026-01-05 05:17:45.75	185.15	19.00	-30.9	-31.4	26.8	0.00e+00	0	26	0	1337982976	34	6012
2026-01-05 05:17:46.76	185.23	19.12	-30.7	-31.2	26.7	0.00e+00	0	26	0	1345323008	34	5843
2026-01-05 05:17:47.76	185.31	19.24	-30.6	-31.1	26.7	0.00e+00	0	26	0	1352663040	34	5768
2026-01-05 05:17:48.77	185.40	19.36	-30.5	-31.0	26.6	0.00e+00	0	26	0	1358954496	34	5721
2026-01-05 05:17:49.78	185.48	19.48	-31.4	-31.9	26.4	0.00e+00	0	26	0	1366294528	34	6374
2026-01-05 05:17:50.79	185.57	19.61	-31.0	-31.6	26.4	0.00e+00	0	26	0	1374683136	34	6120
2026-01-05 05:17:51.80	185.65	19.73	-30.7	-31.2	26.9	0.00e+00	0	26	0	1380974592	34	5843
2026-01-05 05:17:52.81	185.74	19.85	-30.2	-30.7	27.2	0.00e+00	0	26	0	1388314624	34	5528
2026-01-05 05:17:53.82	185.83	19.98	-29.7	-30.2	27.5	0.00e+00	0	26	0	1395654656	32	5874
2026-01-05 05:17:54.83	185.92	20.10	-29.8	-30.3	27.3	0.00e+00	0	26	0	1402994688	32	5911
2026-01-05 05:17:55.84	186.01	20.23	-30.0	-30.5	27.1	0.00e+00	0	26	0	1410334720	32	6088
2026-01-05 05:17:56.85	186.10	20.35	-29.8	-30.3	27.4	0.00e+00	0	26	0	1417674752	32	5957
2026-01-05 05:17:57.86	186.19	20.48	-29.8	-30.2	27.3	0.00e+00	0	26	0	1425014784	32	5890
2026-01-05 05:17:58.87	186.28	20.60	-30.2	-30.7	27.1	0.00e+00	0	26	0	1432354816	32	6208
2026-01-05 05:17:59.88	186.37	20.73	-29.6	-30.0	27.5	0.00e+00	0	26	0	1439694848	32	5750
2026-01-05 05:18:00.89	186.46	20.86	-29.6	-30.1	27.5	0.00e+00	0	26	0	1447034880	32	5813
2026-01-05 05:18:01.89	186.55	20.99	-29.5	-30.0	27.6	0.00e+00	0	26	0	1454374912	32	5702
2026-01-05 05:18:02.91	186.65	21.12	-29.3	-29.8	27.6	0.00e+00	0	26	0	1461714944	32	5609
2026-01-05 05:18:03.91	186.74	21.25	-29.1	-29.6	27.7	0.00e+00	0	26	0	1469054976	32	5450
2026-01-05 05:18:04.92	186.84	21.38	-29.4	-29.9	27.6	0.00e+00	0	26	0	1476395008	32	5640
2026-01-05 05:18:05.93	186.93	21.51	-29.3	-29.8	27.7	0.00e+00	0	26	0	1483735040	32	5598
2026-01-05 05:18:06.94	187.03	21.64	-29.3	-29.8	27.6	0.00e+00	0	26	0	1491075072	32	5618
2026-01-05 05:18:07.95	187.13	21.77	-29.5	-30.0	27.5	0.00e+00	0	26	0	1498415104	32	5697
2026-01-05 05:18:08.96	187.23	21.90	-29.3	-29.8	27.6	0.00e+00	0	26	0	1505755136	32	5591
2026-01-05 05:18:09.97	187.33	22.04	-29.2	-29.7	27.6	0.00e+00	0	26	0	1512046592	32	5531
2026-01-05 05:18:10.98	187.43	22.17	-29.3	-29.8	27.7	0.00e+00	0	26	0	1519386624	32	5578
2026-01-05 05:18:11.99	187.53	22.31	-29.2	-29.7	27.7	0.00e+00	0	26	0	1526726656	32	5553
2026-01-05 05:18:13.00	187.63	22.44	-29.2	-29.7	27.7	0.00e+00	0	26	0	1534066688	32	5530
2026-01-05 05:18:14.01	187.73	22.58	-29.4	-29.9	27.7	0.00e+00	0	26	0	1541406720	32	5638
2026-01-05 05:18:15.02	187.84	22.71	-29.6	-30.1	27.7	0.00e+00	0	26	0	1548746752	32	5796
2026-01-05 05:18:16.03	187.94	22.85	-29.4	-29.9	27.8	0.00e+00	0	26	0	1556086784	32	5649
2026-01-05 05:18:17.04	188.05	22.99	-29.3	-29.7	27.7	0.00e+00	0	26	0	1563426816	32	5562
2026-01-05 05:18:18.05	188.15	23.13	-29.4	-29.9	27.6	0.00e+00	0	26	0	1570766848	32	5671
2026-01-05 05:18:19.06	188.26	23.27	-29.3	-29.8	27.6	0.00e+00	0	26	0	1578106880	32	5593
2026-01-05 05:18:20.07	188.37	23.41	-29.4	-29.8	27.8	0.00e+00	0	26	0	1585446912	32	5627
2026-01-05 05:18:21.08	188.48	23.55	-29.2	-29.7	27.7	0.00e+00	0	26	0	1592786944	32	5536
2026-01-05 05:18:22.09	188.59	23.69	-29.4	-29.8	27.7	0.00e+00	0	26	0	1600126976	32	5622
2026-01-05 05:18:23.10	188.70	23.83	-29.3	-29.8	27.7	0.00e+00	0	26	0	1607467008	32	5591
2026-01-05 05:18:24.11	188.81	23.97	-29.3	-29.8	27.7	0.00e+00	0	26	0	1614807040	32	5590
2026-01-05 05:18:25.12	188.92	24.11	-29.7	-30.2	27.5	0.00e+00	0	26	0	1622147072	32	5832
2026-01-05 05:18:26.13	189.04	24.26	-29.8	-30.2	27.4	0.00e+00	0	26	0	1629487104	32	5876
2026-01-05 05:18:27.14	189.15	24.40	-29.4	-29.9	27.6	0.00e+00	0	26	0	1636827136	32	5641
2026-01-05 05:18:28.15	189.27	24.55	-29.4	-29.9	27.7	0.00e+00	0	26	0	1644167168	32	5642
2026-01-05 05:18:29.15	189.38	24.69	-29.7	-30.1	27.7	0.00e+00	0	26	0	1651507200	32	5807
2026-01-05 05:18:30.16	189.50	24.84	-29.6	-30.1	27.5	0.00e+00	0	26	0	1657798656	32	5816
2026-01-05 05:18:31.17	189.62	24.99	-29.6	-30.0	27.7	0.00e+00	0	26	0	1665138688	32	5756
2026-01-05 05:18:32.18	189.74	25.13	-29.7	-30.2	27.5	0.00e+00	0	26	0	1672478720	32	5862
2026-01-05 05:18:33.19	189.86	25.28	-29.5	-30.0	27.7	0.00e+00	0	26	0	1679818752	32	5729
2026-01-05 05:18:34.20	189.99	25.43	-29.5	-30.0	27.7	0.00e+00	0	26	0	1687158784	32	5744
2026-01-05 05:18:35.21	190.11	25.58	-29.4	-29.8	27.8	0.00e+00	0	26	0	1694498816	32	5623
2026-01-05 05:18:36.22	190.23	25.73	-29.5	-30.0	27.7	0.00e+00	0	26	0	1701838848	32	5734
2026-01-05 05:18:37.23	190.36	25.88	-29.4	-29.8	27.8	0.00e+00	0	26	0	1709178880	32	5620
2026-01-05 05:18:38.24	190.49	26.04	-29.3	-29.8	27.9	0.00e+00	0	26	0	1716518912	32	5614
2026-01-05 05:18:39.25	190.61	26.19	-29.1	-29.5	28.0	0.00e+00	0	26	0	1723858944	32	5428
2026-01-05 05:18:40.26	190.74	26.34	-29.0	-29.5	28.0	0.00e+00	0	26	0	1731198976	32	5384
2026-01-05 05:18:41.27	190.87	26.50	-28.9	-29.3	28.3	0.00e+00	0	26	0	1738539008	30	5951
2026-01-05 05:18:42.27	191.01	26.65	-28.9	-29.4	28.2	0.00e+00	0	26	0	1745879040	30	5984
2026-01-05 05:18:43.29	191.14	26.81	-28.7	-29.2	28.2	0.00e+00	0	26	0	1753219072	30	5861
2026-01-05 05:18:44.29	191.27	26.96	-28.8	-29.3	28.2	0.00e+00	0	26	0	1760559104	30	5929
2026-01-05 05:18:45.30	191.41	27.12	-29.5	-29.9	27.8	0.00e+00	0	26	0	1767899136	30	6359
2026-01-05 05:18:46.31	191.55	27.28	-29.3	-29.7	27.9	0.00e+00	0	26	0	1775239168	30	6222
2026-01-05 05:18:47.32	191.68	27.44	-28.9	-29.3	28.2	0.00e+00	0	26	0	1782579200	30	5951
2026-01-05 05:18:48.33	191.82	27.60	-28.9	-29.4	28.2	0.00e+00	0	26	0	1788870656	30	6001
2026-01-05 05:18:49.33	191.96	27.75	-28.6	-29.1	28.3	0.00e+00	0	26	0	1796210688	30	5781
2026-01-05 05:18:50.34	192.11	27.92	-29.0	-29.4	28.2	0.00e+00	0	26	0	1803550720	30	6026
2026-01-05 05:18:51.35	192.25	28.08	-29.5	-29.9	28.3	0.00e+00	0	26	0	1810890752	30	6369
2026-01-05 05:18:52.35	192.39	28.24	-28.9	-29.4	28.2	0.00e+00	0	26	0	1818230784	30	6010
2026-01-05 05:18:53.36	192.54	28.40	-28.7	-29.2	28.4	0.00e+00	0	26	0	1825570816	30	5870
2026-01-05 05:18:54.37	192.69	28.57	-28.6	-29.1	28.5	0.00e+00	0	26	0	1832910848	30	5802
2026-01-05 05:18:55.38	192.84	28.73	-28.6	-29.0	28.5	0.00e+00	0	26	0	1840250880	30	5753
2026-01-05 05:18:56.39	192.99	28.90	-28.2	-28.7	28.3	0.00e+00	0	26	0	1847590912	30	5504
2026-01-05 05:18:57.40	193.14	29.06	-28.4	-28.8	28.5	0.00e+00	0	26	0	1854930944	30	5618
2026-01-05 05:18:58.41	193.29	29.23	-28.3	-28.8	28.6	0.00e+00	0	26	0	1862270976	30	5590
2026-01-05 05:18:59.42	193.45	29.40	-28.3	-28.8	28.6	0.00e+00	0	26	0	1869611008	30	5587
2026-01-05 05:19:00.43	193.61	29.57	-28.3	-28.7	28.6	0.00e+00	0	26	0	1876951040	30	5538
2026-01-05 05:19:01.44	193.77	29.74	-28.3	-28.8	28.6	0.00e+00	0	26	0	1884291072	30	5595
2026-01-05 05:19:02.45	193.93	29.91	-28.4	-28.8	28.5	0.00e+00	0	26	0	1891631104	30	5614
2026-01-05 05:19:03.46	194.09	30.08	-28.3	-28.8	28.6	0.00e+00	0	26	0	1898971136	30	5593
2026-01-05 05:19:04.47	194.25	30.25	-28.4	-28.8	28.5	0.00e+00	0	26	0	1906311168	30	5630
2026-01-05 05:19:05.48	194.42	30.42	-28.5	-29.0	28.4	0.00e+00	0	26	0	1913651200	30	5708
2026-01-05 05:19:06.49	194.59	30.59	-28.7	-29.1	28.4	0.00e+00	0	26	0	1919942656	30	5813
2026-01-05 05:19:07.49	194.75	30.77	-28.7	-29.1	28.3	0.00e+00	0	26	0	1928331264	30	5809
2026-01-05 05:19:08.51	194.92	30.94	-28.7	-29.1	28.2	0.00e+00	0	26	0	1935671296	30	5814
2026-01-05 05:19:09.52	195.10	31.12	-28.7	-29.2	28.2	0.00e+00	0	26	0	1941962752	30	5859
2026-01-05 05:19:10.53	195.27	31.30	-28.9	-29.4	28.1	0.00e+00	0	26	0	1949302784	30	5986
2026-01-05 05:19:11.53	195.45	31.47	-29.0	-29.4	28.1	0.00e+00	0	26	0	1956642816	30	6013
2026-01-05 05:19:12.54	195.62	31.65	-28.9	-29.4	27.9	0.00e+00	0	26	0	1963982848	30	6007
2026-01-05 05:19:13.55	195.80	31.83	-28.9	-29.3	28.2	0.00e+00	0	26	0	1971322880	30	5955
2026-01-05 05:19:14.56	195.99	32.01	-28.8	-29.2	28.2	0.00e+00	0	26	0	1978662912	30	5891
2026-01-05 05:19:15.56	196.17	32.19	-28.5	-28.9	28.4	0.00e+00	0	26	0	1986002944	30	5687
2026-01-05 05:19:16.57	196.35	32.37	-28.5	-29.0	28.2	0.00e+00	0	26	0	1993342976	30	5732
2026-01-05 05:19:17.58	196.54	32.55	-28.6	-29.0	28.1	0.00e+00	0	26	0	2000683008	30	5747
2026-01-05 05:19:18.59	196.73	32.73	-28.7	-29.2	28.2	0.00e+00	0	26	0	2008023040	30	5830
2026-01-05 05:19:19.60	196.93	32.92	-28.4	-28.9	28.4	0.00e+00	0	26	0	2015363072	30	5655
2026-01-05 05:19:20.61	197.12	33.10	-28.6	-29.1	28.3	0.00e+00	0	26	0	2022703104	30	5789
2026-01-05 05:19:21.62	197.32	33.29	-28.7	-29.1	28.0	0.00e+00	0	26	0	2030043136	30	5807
2026-01-05 05:19:22.63	197.51	33.47	-28.8	-29.2	28.3	0.00e+00	0	26	0	2037383168	30	5878
2026-01-05 05:19:23.64	197.72	33.66	-28.7	-29.2	28.1	0.00e+00	0	26	0	2043674624	30	5867
2026-01-05 05:19:24.65	197.92	33.85	-28.9	-29.4	28.0	0.00e+00	0	26	0	2052063232	30	6004
2026-01-05 05:19:25.65	198.12	34.03	-29.0	-29.5	28.0	0.00e+00	0	26	0	2059403264	30	6060
2026-01-05 05:19:26.66	198.33	34.22	-29.0	-29.5	28.0	0.00e+00	0	26	0	2065694720	30	6068
2026-01-05 05:19:27.67	198.54	34.41	-29.1	-29.6	27.8	0.00e+00	0	26	0	2073034752	30	6129
2026-01-05 05:19:28.68	198.75	34.60	-28.6	-29.1	28.3	0.00e+00	0	26	0	2080374784	30	5774
2026-01-05 05:19:29.69	198.97	34.79	-28.8	-29.2	28.2	0.00e+00	0	26	0	2087714816	30	5875
2026-01-05 05:19:30.71	199.19	34.98	-28.8	-29.2	28.1	0.00e+00	0	26	0	2095054848	30	5875
2026-01-05 05:19:31.71	199.41	35.18	-28.4	-28.8	28.4	0.00e+00	0	26	0	2102394880	30	5629
2026-01-05 05:19:32.72	199.63	35.37	-28.5	-28.9	28.3	0.00e+00	0	26	0	2109734912	30	5668
2026-01-05 05:19:33.73	199.85	35.56	-28.3	-28.8	28.2	0.00e+00	0	26	0	2117074944	30	5587
2026-01-05 05:19:34.74	200.08	35.76	-28.5	-28.9	28.3	0.00e+00	0	26	0	2124414976	30	5688
2026-01-05 05:19:35.75	200.31	35.95	-28.4	-28.8	28.4	0.00e+00	0	26	0	2131755008	30	5608
2026-01-05 05:19:36.76	200.55	36.15	-28.3	-28.8	28.3	0.00e+00	0	26	0	2139095040	30	5585
2026-01-05 05:19:37.77	200.78	36.34	-28.4	-28.8	28.4	0.00e+00	0	26	0	2146435072	30	5601
2026-01-05 05:19:38.78	201.02	36.54	-29.1	-29.7	28.3	0.00e+00	0	26	0	2153775104	30	6188
2026-01-05 05:19:39.79	201.26	36.74	-28.5	-29.0	28.5	0.00e+00	0	26	0	2161115136	30	5700
2026-01-05 05:19:40.80	201.51	36.94	-28.5	-28.9	28.4	0.00e+00	0	26	0	2168455168	30	5679
2026-01-05 05:19:41.81	201.75	37.14	-28.7	-29.1	28.3	0.00e+00	0	26	0	2175795200	30	5799
2026-01-05 05:19:42.82	202.00	37.34	-28.7	-29.2	28.3	0.00e+00	0	26	0	2183135232	30	5852
2026-01-05 05:19:43.82	202.26	37.54	-28.6	-29.1	28.3	0.00e+00	0	26	0	2190475264	30	5801
2026-01-05 05:19:44.83	202.51	37.74	-28.9	-29.3	28.2	0.00e+00	0	26	0	2196766720	30	5941
2026-01-05 05:19:45.84	202.77	37.94	-29.3	-29.8	27.8	0.00e+00	0	26	0	2204106752	30	6297
2026-01-05 05:19:46.85	203.03	38.14	-29.4	-29.9	27.8	0.00e+00	0	26	0	2212495360	30	6322
2026-01-05 05:19:47.86	203.30	38.34	-29.2	-29.7	28.0	0.00e+00	0	26	0	2218786816	30	6191
2026-01-05 05:19:48.87	203.57	38.55	-29.3	-29.8	27.7	0.00e+00	0	26	0	2226126848	30	6253
2026-01-05 05:19:49.88	203.84	38.75	-29.4	-29.9	27.8	0.00e+00	0	26	0	2233466880	32	5655
2026-01-05 05:19:50.89	204.12	38.95	-29.4	-29.9	27.6	0.00e+00	0	26	0	2240806912	32	5670
2026-01-05 05:19:51.90	204.40	39.16	-29.3	-29.7	27.7	0.00e+00	0	26	0	2248146944	32	5562
2026-01-05 05:19:52.91	204.68	39.36	-29.3	-29.7	27.8	0.00e+00	0	26	0	2255486976	32	5548
2026-01-05 05:19:53.91	204.97	39.57	-29.5	-30.0	28.0	0.00e+00	0	26	0	2262827008	32	5703
2026-01-05 05:19:54.92	205.26	39.77	-29.3	-29.8	27.9	0.00e+00	0	26	0	2270167040	32	5572
2026-01-05 05:19:55.93	205.55	39.98	-29.6	-30.1	28.0	0.00e+00	0	26	0	2277507072	32	5787
2026-01-05 05:19:56.94	205.85	40.19	-29.1	-29.5	28.1	0.00e+00	0	26	0	2284847104	32	5422
2026-01-05 05:19:57.95	206.15	40.39	-29.1	-29.6	28.1	0.00e+00	0	26	0	2292187136	32	5485
2026-01-05 05:19:58.96	206.45	40.60	-29.2	-29.7	28.1	0.00e+00	0	26	0	2299527168	32	5510
2026-01-05 05:19:59.97	206.76	40.81	-29.1	-29.6	27.7	0.00e+00	0	26	0	2306867200	32	5451
2026-01-05 05:20:00.98	207.07	41.02	-29.2	-29.6	28.0	0.00e+00	0	26	0	2314207232	32	5481
2026-01-05 05:20:01.99	207.39	41.23	-29.5	-29.9	27.8	0.00e+00	0	26	0	2321547264	32	5695
2026-01-05 05:20:03.00	207.71	41.44	-29.4	-29.9	27.7	0.00e+00	0	26	0	2328887296	32	5680
2026-01-05 05:20:04.01	208.04	41.64	-29.6	-30.1	27.8	0.00e+00	0	26	0	2336227328	32	5778
2026-01-05 05:20:05.02	208.37	41.85	-29.3	-29.8	27.9	0.00e+00	0	26	0	2342518784	32	5578
2026-01-05 05:20:06.03	208.70	42.06	-29.2	-29.7	28.0	0.00e+00	0	26	0	2349858816	32	5516
2026-01-05 05:20:07.04	209.04	42.27	-29.2	-29.6	27.8	0.00e+00	0	26	0	2357198848	32	5502
2026-01-05 05:20:08.05	209.38	42.48	-29.2	-29.7	27.9	0.00e+00	0	26	0	2364538880	32	5516
2026-01-05 05:20:09.06	209.73	42.69	-29.2	-29.7	27.8	0.00e+00	0	26	0	2371878912	32	5539
2026-01-05 05:20:10.07	210.08	42.90	-29.3	-29.7	27.8	0.00e+00	0	26	0	2379218944	32	5546
2026-01-05 05:20:11.08	210.43	43.11	-29.2	-29.7	27.9	0.00e+00	0	26	0	2386558976	32	5520
2026-01-05 05:20:12.09	210.79	43.32	-29.1	-29.6	28.1	0.00e+00	0	26	0	2393899008	32	5467
2026-01-05 05:20:13.09	211.15	43.53	-28.8	-29.3	28.2	0.00e+00	0	26	0	2401239040	32	5280
2026-01-05 05:20:14.10	211.52	43.73	-28.6	-29.1	28.2	0.00e+00	0	26	0	2408579072	30	5806
2026-01-05 05:20:15.11	211.90	43.94	-28.8	-29.2	28.1	0.00e+00	0	26	0	2415919104	30	5886
2026-01-05 05:20:16.12	212.28	44.15	-29.0	-29.4	28.0	0.00e+00	0	26	0	2423259136	30	6024
2026-01-05 05:20:17.13	212.66	44.36	-29.0	-29.5	28.0	0.00e+00	0	26	0	2430599168	30	6050
2026-01-05 05:20:18.14	213.05	44.57	-29.1	-29.6	28.0	0.00e+00	0	26	0	2437939200	30	6130
2026-01-05 05:20:19.15	213.44	44.78	-29.2	-29.7	27.8	0.00e+00	0	26	0	2445279232	30	6206
2026-01-05 05:20:20.16	213.84	44.98	-29.1	-29.6	28.0	0.00e+00	0	26	0	2452619264	30	6129
2026-01-05 05:20:21.17	214.25	45.19	-29.2	-29.6	27.9	0.00e+00	0	26	0	2459959296	30	6162
2026-01-05 05:20:22.18	214.65	45.40	-29.2	-29.7	27.8	0.00e+00	0	26	0	2467299328	30	6212
2026-01-05 05:20:23.19	215.07	45.60	-29.4	-29.9	27.7	0.00e+00	0	26	0	2473590784	30	6362
2026-01-05 05:20:24.19	215.49	45.81	-29.6	-30.1	27.5	0.00e+00	0	26	0	2481979392	30	6472
2026-01-05 05:20:25.20	215.91	46.01	-29.6	-30.1	27.5	0.00e+00	0	26	0	2489319424	32	5787
2026-01-05 05:20:26.21	216.34	46.21	-29.5	-30.0	27.6	0.00e+00	0	26	0	2495610880	32	5703
2026-01-05 05:20:27.22	216.78	46.42	-29.4	-29.9	27.4	0.00e+00	0	26	0	2502950912	32	5657
2026-01-05 05:20:28.23	217.22	46.62	-29.6	-30.1	27.5	0.00e+00	0	26	0	2510290944	32	5776
2026-01-05 05:20:29.24	217.67	46.82	-29.3	-29.8	27.7	0.00e+00	0	26	0	2517630976	32	5612
2026-01-05 05:20:30.25	218.12	47.02	-29.4	-29.9	27.7	0.00e+00	0	26	0	2524971008	32	5656
2026-01-05 05:20:31.26	218.58	47.22	-29.2	-29.7	27.7	0.00e+00	0	26	0	2532311040	32	5514
2026-01-05 05:20:32.27	219.05	47.42	-29.3	-29.8	27.6	0.00e+00	0	26	0	2539651072	32	5594
2026-01-05 05:20:33.27	219.51	47.62	-29.3	-29.8	27.7	0.00e+00	0	26	0	2546991104	32	5573
2026-01-05 05:20:34.29	219.99	47.81	-29.4	-29.9	27.6	0.00e+00	0	26	0	2554331136	32	5638
2026-01-05 05:20:35.29	220.47	48.01	-29.7	-30.2	27.4	0.00e+00	0	26	0	2561671168	32	5837
2026-01-05 05:20:36.31	220.97	48.20	-30.0	-30.4	27.1	0.00e+00	0	26	0	2569011200	32	6026
2026-01-05 05:20:37.31	221.46	48.39	-29.9	-30.4	27.3	0.00e+00	0	26	0	2576351232	32	5983
2026-01-05 05:20:38.32	221.96	48.59	-29.7	-30.2	27.4	0.00e+00	0	26	0	2583691264	32	5847
2026-01-05 05:20:39.33	222.46	48.77	-29.7	-30.2	27.4	0.00e+00	0	26	0	2591031296	32	5849
2026-01-05 05:20:40.34	222.98	48.96	-29.9	-30.4	27.1	0.00e+00	0	26	0	2597322752	32	6007
2026-01-05 05:20:41.35	223.50	49.15	-30.0	-30.4	27.1	0.00e+00	0	26	0	2605711360	32	6026
2026-01-05 05:20:42.35	224.02	49.33	-30.3	-30.8	26.9	0.00e+00	0	26	0	2613051392	32	6257
2026-01-05 05:20:43.36	224.55	49.51	-30.1	-30.6	26.8	0.00e+00	0	26	0	2619342848	32	6135
2026-01-05 05:20:44.37	225.09	49.70	-30.4	-30.8	27.1	0.00e+00	0	26	0	2626682880	34	5629
2026-01-05 05:20:45.38	225.63	49.87	-29.9	-30.4	27.4	0.00e+00	0	26	0	2634022912	34	5342
2026-01-05 05:20:46.39	226.18	50.05	-29.9	-30.3	27.5	0.00e+00	0	26	0	2641362944	34	5302
2026-01-05 05:20:47.40	226.74	50.23	-30.0	-30.5	27.3	0.00e+00	0	26	0	2648702976	32	6064
2026-01-05 05:20:48.41	227.30	50.40	-30.1	-30.6	27.3	0.00e+00	0	26	0	2656043008	32	6153
2026-01-05 05:20:49.42	227.87	50.57	-30.1	-30.6	27.2	0.00e+00	0	26	0	2663383040	32	6134
2026-01-05 05:20:50.43	228.45	50.74	-30.5	-30.9	26.9	0.00e+00	0	26	0	2670723072	32	6390
2026-01-05 05:20:51.44	229.03	50.90	-30.4	-30.9	26.9	0.00e+00	0	26	0	2678063104	32	6343
2026-01-05 05:20:52.45	229.62	51.07	-30.3	-30.7	27.1	0.00e+00	0	26	0	2685403136	32	6238
2026-01-05 05:20:53.46	230.22	51.23	-30.2	-30.7	27.0	0.00e+00	0	26	0	2692743168	32	6205
2026-01-05 05:20:54.47	230.82	51.38	-30.0	-30.5	27.2	0.00e+00	0	26	0	2700083200	32	6067
2026-01-05 05:20:55.48	231.43	51.54	-30.3	-30.8	26.9	0.00e+00	0	26	0	2707423232	32	6259
2026-01-05 05:20:56.49	232.04	51.69	-30.5	-31.0	26.7	0.00e+00	0	26	0	2714763264	32	6396
2026-01-05 05:20:57.50	232.66	51.84	-30.8	-31.3	26.7	0.00e+00	0	26	0	2722103296	34	5912
2026-01-05 05:20:58.51	233.29	51.99	-30.9	-31.4	26.6	0.00e+00	0	26	0	2729443328	34	5994
2026-01-05 05:20:59.52	233.92	52.13	-30.4	-30.9	26.9	0.00e+00	0	26	0	2736783360	34	5670
2026-01-05 05:21:00.53	234.56	52.27	-30.1	-30.6	27.1	0.00e+00	0	26	0	2744123392	34	5454
2026-01-05 05:21:01.54	235.20	52.41	-29.9	-30.4	27.1	0.00e+00	0	26	0	2750414848	34	5334
2026-01-05 05:21:02.55	235.85	52.54	-30.0	-30.5	27.3	0.00e+00	0	26	0	2758803456	34	5407
2026-01-05 05:21:03.56	236.51	52.67	-30.4	-30.8	27.3	0.00e+00	0	26	0	2766143488	34	5615
2026-01-05 05:21:04.57	237.17	52.80	-30.8	-31.3	27.0	0.00e+00	0	26	0	2772434944	34	5925
2026-01-05 05:21:05.58	237.84	52.92	-30.8	-31.3	26.7	0.00e+00	0	26	0	2779774976	34	5955
2026-01-05 05:21:06.59	238.51	53.04	-31.0	-31.5	26.5	0.00e+00	0	26	0	2787115008	34	6080
2026-01-05 05:21:07.60	239.19	53.15	-31.3	-31.8	26.2	0.00e+00	0	26	0	2794455040	34	6279
2026-01-05 05:21:08.60	239.87	53.26	-31.7	-32.2	26.2	0.00e+00	0	26	0	2801795072	38	5234
2026-01-05 05:21:09.61	240.56	53.37	-31.4	-31.9	26.3	0.00e+00	0	26	0	2809135104	36	5673
2026-01-05 05:21:10.62	241.25	53.48	-30.8	-31.3	26.6	0.00e+00	0	26	0	2816475136	36	5293
2026-01-05 05:21:11.63	241.95	53.58	-30.8	-31.3	26.9	0.00e+00	0	26	0	2823815168	34	5897
2026-01-05 05:21:12.63	242.65	53.67	-30.6	-31.1	26.9	0.00e+00	0	26	0	2831155200	34	5802
2026-01-05 05:21:13.64	243.35	53.76	-30.7	-31.2	26.8	0.00e+00	0	26	0	2838495232	34	5875
2026-01-05 05:21:14.65	244.07	53.85	-31.3	-31.8	26.4	0.00e+00	0	26	0	2845835264	34	6305
2026-01-05 05:21:15.66	244.78	53.93	-30.9	-31.4	26.7	0.00e+00	0	26	0	2853175296	34	5972
2026-01-05 05:21:16.67	245.50	54.01	-30.6	-31.1	26.8	0.00e+00	0	26	0	2860515328	34	5766
2026-01-05 05:21:17.68	246.23	54.09	-30.3	-30.8	26.8	0.00e+00	0	26	0	2867855360	34	5567
2026-01-05 05:21:18.69	246.95	54.16	-30.7	-31.2	26.9	0.00e+00	0	26	0	2875195392	34	5863
2026-01-05 05:21:19.70	247.68	54.22	-30.4	-30.9	26.9	0.00e+00	0	26	0	2882535424	34	5647
2026-01-05 05:21:20.71	248.42	54.28	-30.7	-31.2	27.0	0.00e+00	0	26	0	2889875456	34	5833
2026-01-05 05:21:21.72	249.16	54.34	-30.4	-30.9	27.0	0.00e+00	0	26	0	2897215488	34	5659
2026-01-05 05:21:22.73	249.90	54.39	-30.9	-31.3	26.6	0.00e+00	0	26	0	2903506944	34	5948
2026-01-05 05:21:23.74	250.64	54.44	-30.8	-31.3	26.5	0.00e+00	0	26	0	2910846976	34	5928
2026-01-05 05:21:24.75	251.38	54.48	-30.8	-31.3	26.4	0.00e+00	0	26	0	2918187008	34	5924
2026-01-05 05:21:25.76	252.13	54.52	-30.8	-31.3	26.6	0.00e+00	0	26	0	2925527040	34	5932
2026-01-05 05:21:26.77	252.88	54.55	-31.2	-31.7	26.5	0.00e+00	0	26	0	2932867072	34	6213
2026-01-05 05:21:27.78	253.63	54.58	-30.8	-31.3	26.7	0.00e+00	0	26	0	2940207104	34	5934
2026-01-05 05:21:28.79	254.38	54.60	-31.6	-32.1	26.2	0.00e+00	0	26	0	2947547136	34	6490
2026-01-05 05:21:29.80	255.13	54.62	-30.5	-31.0	26.7	0.00e+00	0	26	0	2954887168	34	5739
2026-01-05 05:21:30.81	255.88	54.64	-30.6	-31.1	26.8	0.00e+00	0	26	0	2962227200	34	5768
2026-01-05 05:21:31.82	256.64	54.64	-30.6	-31.0	26.8	0.00e+00	0	26	0	2969567232	34	5750
2026-01-05 05:21:32.83	257.39	54.65	-30.7	-31.2	26.7	0.00e+00	0	26	0	2976907264	34	5836
2026-01-05 05:21:33.84	258.15	54.65	-31.1	-31.6	26.3	0.00e+00	0	26	0	2984247296	34	6158
2026-01-05 05:21:34.85	258.90	54.64	-30.8	-31.3	26.6	0.00e+00	0	26	0	2991587328	34	5927
2026-01-05 05:21:35.86	259.66	54.63	-30.6	-31.1	26.8	0.00e+00	0	26	0	2998927360	34	5774
2026-01-05 05:21:36.87	260.41	54.61	-30.6	-31.0	26.7	0.00e+00	0	26	0	3006267392	34	5750
2026-01-05 05:21:37.88	261.16	54.59	-30.7	-31.2	26.6	0.00e+00	0	26	0	3013607424	34	5875
2026-01-05 05:21:38.89	261.91	54.57	-30.5	-31.0	26.6	0.00e+00	0	26	0	3020947456	34	5733
2026-01-05 05:21:39.90	262.66	54.54	-30.3	-30.8	26.9	0.00e+00	0	26	0	3028287488	34	5591
2026-01-05 05:21:40.91	263.41	54.50	-30.3	-30.7	26.9	0.00e+00	0	26	0	3035627520	34	5553
2026-01-05 05:21:41.91	264.15	54.46	-30.4	-30.9	26.7	0.00e+00	0	26	0	3042967552	34	5660
2026-01-05 05:21:42.92	264.89	54.42	-30.5	-31.0	26.6	0.00e+00	0	26	0	3049259008	34	5736
2026-01-05 05:21:43.93	265.63	54.37	-30.5	-31.0	26.8	0.00e+00	0	26	0	3056599040	34	5739
2026-01-05 05:21:44.94	266.37	54.32	-30.4	-30.8	26.5	0.00e+00	0	26	0	3064987648	34	5609
2026-01-05 05:21:45.95	267.10	54.26	-30.2	-30.7	26.7	0.00e+00	0	26	0	3071279104	34	5504
2026-01-05 05:21:46.96	267.84	54.20	-30.3	-30.8	26.8	0.00e+00	0	26	0	3078619136	34	5581
2026-01-05 05:21:47.97	268.57	54.13	-30.1	-30.5	27.0	0.00e+00	0	26	0	3085959168	34	5428
2026-01-05 05:21:48.98	269.29	54.06	-30.6	-31.1	26.4	0.00e+00	0	26	0	3093299200	34	5798
2026-01-05 05:21:49.99	270.01	53.98	-31.1	-31.7	26.4	0.00e+00	0	26	0	3100639232	34	6179
2026-01-05 05:21:51.00	270.73	53.90	-31.2	-31.7	26.5	0.00e+00	0	26	0	3107979264	34	6211
2026-01-05 05:21:52.01	271.45	53.82	-30.7	-31.1	26.9	0.00e+00	0	26	0	3115319296	34	5825
2026-01-05 05:21:53.02	272.15	53.73	-30.5	-31.0	26.9	0.00e+00	0	26	0	3122659328	34	5730
2026-01-05 05:21:54.03	272.86	53.63	-30.8	-31.3	26.7	0.00e+00	0	26	0	3129999360	34	5933
2026-01-05 05:21:55.03	273.55	53.54	-30.9	-31.4	26.6	0.00e+00	0	26	0	3137339392	34	6001
2026-01-05 05:21:56.04	274.25	53.43	-31.0	-31.5	26.7	0.00e+00	0	26	0	3144679424	34	6061
2026-01-05 05:21:57.05	274.94	53.33	-30.6	-31.1	26.9	0.00e+00	0	26	0	3152019456	34	5804
2026-01-05 05:21:58.06	275.63	53.22	-30.5	-31.0	26.9	0.00e+00	0	26	0	3159359488	34	5704
2026-01-05 05:21:59.07	276.31	53.11	-30.7	-31.1	26.9	0.00e+00	0	26	0	3166699520	34	5820
2026-01-05 05:22:00.08	276.98	52.99	-30.7	-31.2	26.8	0.00e+00	0	26	0	3174039552	34	5852
2026-01-05 05:22:01.09	277.65	52.87	-30.4	-30.9	27.0	0.00e+00	0	26	0	3180331008	34	5634
2026-01-05 05:22:02.10	278.32	52.75	-30.4	-30.8	26.7	0.00e+00	0	26	0	3188719616	34	5627
2026-01-05 05:22:03.11	278.98	52.62	-30.5	-31.0	27.0	0.00e+00	0	26	0	3196059648	34	5738
2026-01-05 05:22:04.12	279.63	52.49	-31.1	-31.7	26.9	0.00e+00	0	26	0	3202351104	34	6175
2026-01-05 05:22:05.13	280.28	52.35	-30.8	-31.3	26.9	0.00e+00	0	26	0	3209691136	34	5956
2026-01-05 05:22:06.14	280.92	52.21	-31.3	-31.8	26.6	0.00e+00	0	26	0	3217031168	34	6287
2026-01-05 05:22:07.15	281.55	52.07	-31.4	-31.9	26.4	0.00e+00	0	26	0	3224371200	34	6322
2026-01-05 05:22:08.16	282.18	51.93	-31.5	-32.0	26.5	0.00e+00	0	26	0	3231711232	36	5758
2026-01-05 05:22:09.16	282.80	51.78	-31.3	-31.8	26.7	0.00e+00	0	26	0	3239051264	36	5593
2026-01-05 05:22:10.17	283.41	51.63	-31.0	-31.5	26.9	0.00e+00	0	26	0	3246391296	36	5397
2026-01-05 05:22:11.18	284.03	51.48	-30.8	-31.2	26.9	0.00e+00	0	26	0	3253731328	36	5240
2026-01-05 05:22:12.19	284.63	51.32	-30.6	-31.1	26.6	0.00e+00	0	26	0	3261071360	34	5816
2026-01-05 05:22:13.20	285.23	51.17	-30.6	-31.1	27.0	0.00e+00	0	26	0	3268411392	34	5783
2026-01-05 05:22:14.21	285.82	51.01	-30.4	-30.8	27.1	0.00e+00	0	26	0	3275751424	34	5598
2026-01-05 05:22:15.23	286.41	50.84	-30.6	-31.1	27.1	0.00e+00	0	26	0	3283091456	34	5762
2026-01-05 05:22:16.23	286.99	50.68	-30.5	-30.9	27.0	0.00e+00	0	26	0	3290431488	34	5679
2026-01-05 05:22:17.24	287.56	50.51	-30.4	-30.9	27.0	0.00e+00	0	26	0	3297771520	34	5649
2026-01-05 05:22:18.26	288.13	50.33	-30.6	-31.1	26.8	0.00e+00	0	26	0	3305111552	34	5819
2026-01-05 05:22:19.27	288.69	50.16	-30.5	-31.0	26.9	0.00e+00	0	26	0	3312451584	34	5720
2026-01-05 05:22:20.27	289.24	49.99	-30.6	-31.1	26.9	0.00e+00	0	26	0	3319791616	34	5805
2026-01-05 05:22:21.29	289.79	49.81	-31.0	-31.5	27.1	0.00e+00	0	26	0	3326083072	34	6064
2026-01-05 05:22:22.29	290.33	49.63	-30.8	-31.3	27.2	0.00e+00	0	26	0	3334471680	34	5905
2026-01-05 05:22:23.30	290.86	49.45	-31.0	-31.4	27.1	0.00e+00	0	26	0	3341811712	34	6022
2026-01-05 05:22:24.31	291.39	49.27	-30.6	-31.1	26.9	0.00e+00	0	26	0	3348103168	34	5814
2026-01-05 05:22:25.32	291.91	49.08	-30.8	-31.4	26.9	0.00e+00	0	26	0	3355443200	34	5986
2026-01-05 05:22:26.33	292.43	48.90	-31.4	-31.9	26.9	0.00e+00	0	26	0	3362783232	34	6334
2026-01-05 05:22:27.34	292.94	48.71	-31.1	-31.6	27.0	0.00e+00	0	26	0	3370123264	36	5493
2026-01-05 05:22:28.35	293.44	48.52	-30.8	-31.3	27.1	0.00e+00	0	26	0	3377463296	34	5918
2026-01-05 05:22:29.36	293.94	48.33	-30.9	-31.3	27.1	0.00e+00	0	26	0	3384803328	34	5959
2026-01-05 05:22:30.37	294.43	48.14	-30.7	-31.2	26.9	0.00e+00	0	26	0	3392143360	34	5847
2026-01-05 05:22:31.38	294.92	47.94	-30.6	-31.1	27.1	0.00e+00	0	26	0	3399483392	34	5803
2026-01-05 05:22:32.39	295.40	47.75	-31.2	-31.7	26.9	0.00e+00	0	26	0	3406823424	34	6180
2026-01-05 05:22:33.40	295.87	47.55	-30.7	-31.2	27.1	0.00e+00	0	26	0	3414163456	34	5858
2026-01-05 05:22:34.41	296.34	47.35	-30.8	-31.3	27.2	0.00e+00	0	26	0	3421503488	34	5917
2026-01-05 05:22:35.42	296.80	47.16	-31.4	-31.8	27.3	0.00e+00	0	26	0	3428843520	34	6315
2026-01-05 05:22:36.43	297.26	46.96	-30.7	-31.2	27.6	0.00e+00	0	26	0	3436183552	34	5841
2026-01-05 05:22:37.43	297.70	46.76	-30.6	-31.1	27.7	0.00e+00	0	26	0	3443523584	34	5769
2026-01-05 05:22:38.45	298.15	46.55	-31.0	-31.5	27.5	0.00e+00	0	26	0	3450863616	34	6051
2026-01-05 05:22:39.45	298.59	46.35	-30.5	-31.0	27.8	0.00e+00	0	26	0	3458203648	34	5705
2026-01-05 05:22:40.46	299.02	46.15	-30.6	-31.0	27.8	0.00e+00	0	26	0	3465543680	34	5729
2026-01-05 05:22:41.47	299.45	45.95	-30.6	-31.1	27.7	0.00e+00	0	26	0	3472883712	34	5797
2026-01-05 05:22:42.48	299.87	45.74	-30.0	-30.5	27.7	0.00e+00	0	26	0	3479175168	34	5422
2026-01-05 05:22:43.49	300.29	45.54	-30.4	-30.9	27.9	0.00e+00	0	26	0	3486515200	34	5652
2026-01-05 05:22:44.50	300.70	45.33	-30.9	-31.4	27.3	0.00e+00	0	26	0	3494903808	34	5977
2026-01-05 05:22:45.51	301.11	45.13	-29.9	-30.3	27.9	0.00e+00	0	26	0	3501195264	32	5959
2026-01-05 05:22:46.52	301.51	44.92	-29.6	-30.0	28.1	0.00e+00	0	26	0	3508535296	32	5732
2026-01-05 05:22:47.53	301.90	44.71	-29.6	-30.1	28.2	0.00e+00	0	26	0	3515875328	32	5779
2026-01-05 05:22:48.54	302.29	44.51	-29.5	-29.9	28.1	0.00e+00	0	26	0	3523215360	32	5682
2026-01-05 05:22:49.55	302.68	44.30	-29.5	-30.0	28.0	0.00e+00	0	26	0	3530555392	32	5721
2026-01-05 05:22:50.56	303.06	44.09	-30.3	-30.8	27.9	0.00e+00	0	26	0	3537895424	32	6255
2026-01-05 05:22:51.57	303.44	43.88	-30.3	-30.8	27.0	0.00e+00	0	26	0	3545235456	34	5627
2026-01-05 05:22:52.58	303.81	43.68	-30.1	-30.6	27.6	0.00e+00	0	26	0	3552575488	34	5466
2026-01-05 05:22:53.59	304.18	43.47	-30.2	-30.7	27.8	0.00e+00	0	26	0	3559915520	34	5506
2026-01-05 05:22:54.60	304.54	43.26	-31.0	-31.5	27.4	0.00e+00	0	26	0	3567255552	34	6100
2026-01-05 05:22:55.61	304.90	43.05	-30.8	-31.3	27.9	0.00e+00	0	26	0	3574595584	34	5924
2026-01-05 05:22:56.62	305.25	42.84	-32.0	-32.7	26.3	0.00e+00	0	26	0	3581935616	36	6176
2026-01-05 05:22:57.63	305.60	42.63	-32.3	-32.8	26.9	0.00e+00	0	26	0	3589275648	36	6287
2026-01-05 05:22:58.64	305.94	42.43	-30.9	-31.3	27.6	0.00e+00	0	26	0	3596615680	34	5931
2026-01-05 05:22:59.65	306.28	42.22	-30.5	-31.0	27.6	0.00e+00	0	26	0	3603955712	34	5698
2026-01-05 05:23:00.66	306.62	42.01	-29.8	-30.3	27.7	0.00e+00	0	26	0	3611295744	34	5280
2026-01-05 05:23:01.67	306.95	41.80	-29.9	-30.3	28.1	0.00e+00	0	26	0	3618635776	32	5949
2026-01-05 05:23:02.67	307.27	41.59	-29.5	-29.9	28.2	0.00e+00	0	26	0	3624927232	32	5685
2026-01-05 05:23:03.68	307.59	41.39	-29.1	-29.5	24.9	0.00e+00	0	26	0	3632267264	32	5414
2026-01-05 05:23:04.69	307.91	41.18	-29.4	-29.8	27.9	0.00e+00	0	26	0	3640655872	32	5630
2026-01-05 05:23:05.70	308.23	40.97	-29.7	-30.2	27.8	0.00e+00	0	26	0	3646947328	32	5829
2026-01-05 05:23:06.71	308.54	40.76	-30.2	-30.7	27.8	0.00e+00	0	26	0	3654287360	32	6192
2026-01-05 05:23:07.72	308.84	40.56	-30.3	-30.8	27.6	0.00e+00	0	26	0	3661627392	32	6252
2026-01-05 05:23:08.73	309.15	40.35	-30.0	-30.5	27.6	0.00e+00	0	26	0	3668967424	34	5412
2026-01-05 05:23:09.74	309.45	40.14	-29.9	-30.4	27.5	0.00e+00	0	26	0	3676307456	34	5351
2026-01-05 05:23:10.75	309.74	39.94	-30.0	-30.5	27.5	0.00e+00	0	26	0	3683647488	32	6039
2026-01-05 05:23:11.76	310.03	39.73	-29.5	-29.9	28.0	0.00e+00	0	26	0	3690987520	32	5692
2026-01-05 05:23:12.77	310.32	39.53	-29.6	-30.1	27.9	0.00e+00	0	26	0	3698327552	32	5801
2026-01-05 05:23:13.78	310.61	39.32	-29.1	-29.6	27.9	0.00e+00	0	26	0	3705667584	32	5465
2026-01-05 05:23:14.79	310.89	39.12	-29.0	-29.5	27.9	0.00e+00	0	26	0	3713007616	32	5408
2026-01-05 05:23:15.79	311.16	38.92	-29.2	-29.6	28.2	0.00e+00	0	26	0	3720347648	32	5496
2026-01-05 05:23:16.80	311.44	38.72	-29.3	-29.7	27.7	0.00e+00	0	26	0	3727687680	32	5557
2026-01-05 05:23:17.81	311.71	38.51	-29.8	-30.3	27.9	0.00e+00	0	26	0	3735027712	32	5928
2026-01-05 05:23:18.82	311.98	38.31	-29.8	-30.2	27.8	0.00e+00	0	26	0	3742367744	32	5889
2026-01-05 05:23:19.83	312.24	38.11	-29.3	-29.8	28.0	0.00e+00	0	26	0	3749707776	32	5592
2026-01-05 05:23:20.84	312.50	37.91	-28.9	-29.4	28.1	0.00e+00	0	26	0	3757047808	32	5343
2026-01-05 05:23:21.85	312.76	37.71	-28.7	-29.2	27.7	0.00e+00	0	26	0	3764387840	30	5836
2026-01-05 05:23:22.86	313.01	37.51	-28.9	-29.4	28.1	0.00e+00	0	26	0	3771727872	30	6000
2026-01-05 05:23:23.87	313.27	37.31	-29.2	-29.7	28.0	0.00e+00	0	26	0	3778019328	30	6194
2026-01-05 05:23:24.88	313.52	37.11	-29.3	-29.8	27.3	0.00e+00	0	26	0	3785359360	30	6299
2026-01-05 05:23:25.89	313.76	36.91	-29.4	-29.8	27.8	0.00e+00	0	26	0	3792699392	30	6312
2026-01-05 05:23:26.90	314.01	36.71	-29.1	-29.6	28.0	0.00e+00	0	26	0	3800039424	30	6139
2026-01-05 05:23:27.91	314.25	36.52	-29.1	-29.5	27.9	0.00e+00	0	26	0	3807379456	30	6091
2026-01-05 05:23:28.92	314.48	36.32	-29.0	-29.4	28.0	0.00e+00	0	26	0	3814719488	30	6006
2026-01-05 05:23:29.93	314.72	36.13	-29.1	-29.5	28.0	0.00e+00	0	26	0	3822059520	30	6102
2026-01-05 05:23:30.94	314.95	35.93	-29.3	-29.7	28.2	0.00e+00	0	26	0	3829399552	30	6212
2026-01-05 05:23:31.95	315.18	35.74	-29.0	-29.4	28.4	0.00e+00	0	26	0	3836739584	30	6003
2026-01-05 05:23:32.96	315.41	35.54	-29.1	-29.6	28.3	0.00e+00	0	26	0	3844079616	30	6140
2026-01-05 05:23:33.97	315.63	35.35	-29.6	-30.1	28.2	0.00e+00	0	26	0	3851419648	32	5780
2026-01-05 05:23:34.98	315.85	35.16	-30.6	-31.1	28.1	0.00e+00	0	26	0	3858759680	34	5811
2026-01-05 05:23:35.99	316.07	34.97	-30.3	-30.8	27.7	0.00e+00	0	26	0	3866099712	34	5569
2026-01-05 05:23:36.99	316.28	34.78	-31.6	-32.1	27.3	0.00e+00	0	26	0	3873439744	32	7275
2026-01-05 05:23:38.00	316.50	34.59	-30.7	-31.1	28.0	0.00e+00	0	26	0	3880779776	34	5823
2026-01-05 05:23:39.01	316.71	34.40	-30.7	-31.3	27.8	0.00e+00	0	26	0	3888119808	34	5924
2026-01-05 05:23:40.02	316.92	34.21	-30.8	-31.3	27.6	0.00e+00	0	26	0	3895459840	34	5935
2026-01-05 05:23:41.03	317.12	34.02	-30.6	-30.9	27.7	0.00e+00	0	26	0	3901751296	34	5695
2026-01-05 05:23:42.04	317.33	33.84	-30.0	-30.4	27.6	0.00e+00	0	26	0	3909091328	34	5366
2026-01-05 05:23:43.05	317.53	33.65	-29.7	-30.1	27.1	0.00e+00	0	26	0	3917479936	32	5826
2026-01-05 05:23:44.06	317.73	33.46	-30.0	-30.5	27.6	0.00e+00	0	26	0	3923771392	32	6039
2026-01-05 05:23:45.07	317.93	33.28	-29.7	-30.2	27.5	0.00e+00	0	26	0	3931111424	32	5865
2026-01-05 05:23:46.08	318.12	33.10	-29.3	-29.8	28.0	0.00e+00	0	26	0	3938451456	32	5584
2026-01-05 05:23:47.08	318.32	32.91	-29.0	-29.4	27.9	0.00e+00	0	26	0	3945791488	32	5350
2026-01-05 05:23:48.09	318.51	32.73	-28.7	-29.1	28.2	0.00e+00	0	26	0	3953131520	30	5824
2026-01-05 05:23:49.11	318.70	32.55	-28.6	-29.1	28.2	0.00e+00	0	26	0	3960471552	30	5804
2026-01-05 05:23:50.12	318.89	32.37	-28.8	-29.2	28.3	0.00e+00	0	26	0	3967811584	30	5864
2026-01-05 05:23:51.13	319.07	32.19	-28.9	-29.4	28.1	0.00e+00	0	26	0	3975151616	30	5970
2026-01-05 05:23:52.13	319.25	32.01	-29.8	-30.2	28.0	0.00e+00	0	26	0	3982491648	32	5869
2026-01-05 05:23:53.15	319.44	31.83	-29.8	-30.3	27.9	0.00e+00	0	26	0	3989831680	32	5911
2026-01-05 05:23:54.15	319.61	31.65	-30.7	-31.2	27.7	0.00e+00	0	26	0	3997171712	34	5856
2026-01-05 05:23:55.16	319.79	31.48	-30.6	-31.0	27.3	0.00e+00	0	26	0	4004511744	34	5750
2026-01-05 05:23:56.17	319.97	31.30	-31.1	-31.5	27.1	0.00e+00	0	26	0	4011851776	32	6840
2026-01-05 05:23:57.18	320.14	31.12	-29.9	-30.3	27.5	0.00e+00	0	26	0	4019191808	34	5314
2026-01-05 05:23:58.19	320.31	30.95	-30.1	-30.6	27.4	0.00e+00	0	26	0	4026531840	32	6111
2026-01-05 05:23:59.20	320.48	30.78	-29.9	-30.4	27.5	0.00e+00	0	26	0	4033871872	34	5340
2026-01-05 05:24:00.21	320.65	30.60	-30.5	-31.0	27.6	0.00e+00	0	26	0	4041211904	34	5747
2026-01-05 05:24:01.22	320.82	30.43	-31.1	-31.6	27.4	0.00e+00	0	26	0	4048551936	34	6106
2026-01-05 05:24:02.23	320.98	30.26	-29.8	-30.3	27.3	0.00e+00	0	26	0	4054843392	34	5283
2026-01-05 05:24:03.23	321.14	30.09	-30.0	-30.5	27.5	0.00e+00	0	26	0	4062183424	34	5403
2026-01-05 05:24:04.24	321.30	29.92	-29.9	-30.4	27.4	0.00e+00	0	26	0	4070572032	34	5320
2026-01-05 05:24:05.26	321.47	29.75	-30.0	-30.5	27.5	0.00e+00	0	26	0	4076863488	34	5417
2026-01-05 05:24:06.27	321.62	29.58	-29.6	-30.1	27.8	0.00e+00	0	26	0	4084203520	32	5797
2026-01-05 05:24:07.27	321.78	29.41	-29.8	-30.3	27.5	0.00e+00	0	26	0	4091543552	32	5906
2026-01-05 05:24:08.28	321.93	29.25	-29.7	-30.1	27.6	0.00e+00	0	26	0	4098883584	32	5812
2026-01-05 05:24:09.29	322.09	29.08	-29.9	-30.3	27.8	0.00e+00	0	26	0	4106223616	32	5932
2026-01-05 05:24:10.30	322.24	28.92	-30.4	-30.9	27.7	0.00e+00	0	26	0	4113563648	34	5639
2026-01-05 05:24:11.31	322.39	28.75	-29.8	-30.2	27.8	0.00e+00	0	26	0	4120903680	32	5871
2026-01-05 05:24:12.32	322.54	28.59	-29.7	-30.2	27.8	0.00e+00	0	26	0	4128243712	32	5848
2026-01-05 05:24:13.33	322.69	28.43	-30.0	-30.5	27.8	0.00e+00	0	26	0	4135583744	32	6057
2026-01-05 05:24:14.34	322.83	28.26	-29.9	-30.4	28.0	0.00e+00	0	26	0	4142923776	34	5321
2026-01-05 05:24:15.35	322.98	28.10	-29.8	-30.3	28.0	0.00e+00	0	26	0	4150263808	34	5275
2026-01-05 05:24:16.36	323.12	27.94	-30.7	-31.1	27.9	0.00e+00	0	26	0	4157603840	34	5812
2026-01-05 05:24:17.36	323.26	27.78	-30.4	-30.9	27.8	0.00e+00	0	26	0	4164943872	32	6318
2026-01-05 05:24:18.37	323.40	27.62	-29.7	-30.1	28.0	0.00e+00	0	26	0	4172283904	32	5824
2026-01-05 05:24:19.38	323.54	27.46	-29.5	-29.9	27.9	0.00e+00	0	26	0	4178575360	32	5680
2026-01-05 05:24:20.39	323.68	27.31	-30.1	-30.6	28.0	0.00e+00	0	26	0	4186963968	32	6117
2026-01-05 05:24:21.40	323.82	27.15	-30.0	-30.5	27.9	0.00e+00	0	26	0	4194304000	32	6073
2026-01-05 05:24:22.41	323.95	26.99	-30.0	-30.5	27.9	0.00e+00	0	26	0	4200595456	32	6048
2026-01-05 05:24:23.42	324.08	26.84	-29.9	-30.4	27.8	0.00e+00	0	26	0	4207935488	32	5978
2026-01-05 05:24:24.43	324.22	26.68	-30.1	-30.6	27.4	0.00e+00	0	26	0	4215275520	32	6126
2026-01-05 05:24:25.44	324.35	26.53	-30.3	-30.8	27.3	0.00e+00	0	26	0	4222615552	32	6250
2026-01-05 05:24:26.45	324.48	26.38	-30.7	-31.2	27.6	0.00e+00	0	26	0	4229955584	32	6562
2026-01-05 05:24:27.46	324.61	26.22	-30.0	-30.5	27.5	0.00e+00	0	26	0	4237295616	32	6061
2026-01-05 05:24:28.47	324.74	26.07	-29.8	-30.3	27.6	0.00e+00	0	26	0	4244635648	32	5919
2026-01-05 05:24:29.47	324.86	25.92	-30.5	-31.0	27.7	0.00e+00	0	26	0	4251975680	32	6399
2026-01-05 05:24:30.48	324.99	25.77	-29.5	-30.0	27.6	0.00e+00	0	26	0	4259315712	32	5731
2026-01-05 05:24:31.49	325.11	25.62	-30.3	-30.7	27.5	0.00e+00	0	26	0	4266655744	32	6231
2026-01-05 05:24:32.50	325.23	25.47	-29.7	-30.2	27.5	0.00e+00	0	26	0	4273995776	32	5840
2026-01-05 05:24:33.51	325.36	25.32	-30.3	-30.8	27.3	0.00e+00	0	26	0	4281335808	32	6275
2026-01-05 05:24:34.52	325.48	25.18	-30.3	-30.7	26.8	0.00e+00	0	26	0	4288675840	32	6244
2026-01-05 05:24:35.52	325.60	25.03	-29.9	-30.3	27.3	0.00e+00	0	26	0	4296015872	32	5960
2026-01-05 05:24:36.54	325.72	24.88	-30.4	-30.9	26.8	0.00e+00	0	26	0	4303355904	32	6379
2026-01-05 05:24:37.54	325.83	24.74	-30.1	-30.6	27.2	0.00e+00	0	26	0	4310695936	32	6112
2026-01-05 05:24:38.55	325.95	24.59	-29.8	-30.3	27.3	0.00e+00	0	26	0	4318035968	32	5935
2026-01-05 05:24:39.57	326.07	24.45	-29.5	-30.0	27.5	0.00e+00	0	26	0	4325376000	32	5708
2026-01-05 05:24:40.58	326.18	24.30	-29.7	-30.1	27.4	0.00e+00	0	26	0	4331667456	32	5809
2026-01-05 05:24:41.59	326.30	24.16	-29.7	-30.2	27.2	0.00e+00	0	26	0	4339007488	32	5854
2026-01-05 05:24:42.60	326.41	24.02	-29.9	-30.4	27.3	0.00e+00	0	26	0	4347396096	32	5976
2026-01-05 05:24:43.61	326.52	23.88	-29.4	-29.8	27.7	0.00e+00	0	26	0	4353687552	32	5630
2026-01-05 05:24:44.62	326.63	23.74	-29.4	-29.9	27.7	0.00e+00	0	26	0	4361027584	32	5661
2026-01-05 05:24:45.62	326.74	23.60	-29.9	-30.3	27.7	0.00e+00	0	26	0	4368367616	32	5939
2026-01-05 05:24:46.63	326.85	23.46	-29.8	-30.3	27.7	0.00e+00	0	26	0	4375707648	32	5906
2026-01-05 05:24:47.64	326.96	23.32	-29.5	-30.0	27.2	0.00e+00	0	26	0	4383047680	32	5700
2026-01-05 05:24:48.65	327.06	23.18	-30.0	-30.5	27.5	0.00e+00	0	26	0	4390387712	32	6083
2026-01-05 05:24:49.66	327.17	23.04	-29.4	-29.9	27.5	0.00e+00	0	26	0	4397727744	32	5645
2026-01-05 05:24:50.67	327.28	22.91	-29.8	-30.3	27.3	0.00e+00	0	26	0	4405067776	32	5921
2026-01-05 05:24:51.68	327.38	22.77	-30.1	-30.5	27.0	0.00e+00	0	26	0	4412407808	32	6097
2026-01-05 05:24:52.69	327.48	22.63	-29.8	-30.3	27.2	0.00e+00	0	26	0	4419747840	32	5939
2026-01-05 05:24:53.70	327.59	22.50	-30.1	-30.5	27.1	0.00e+00	0	26	0	4427087872	32	6091
2026-01-05 05:24:54.70	327.69	22.37	-30.0	-30.5	27.2	0.00e+00	0	26	0	4434427904	32	6056
2026-01-05 05:24:55.72	327.79	22.23	-30.1	-30.5	27.1	0.00e+00	0	26	0	4441767936	32	6100
2026-01-05 05:24:56.73	327.89	22.10	-29.8	-30.2	27.4	0.00e+00	0	26	0	4449107968	32	5889
2026-01-05 05:24:57.74	327.99	21.97	-29.7	-30.2	27.3	0.00e+00	0	26	0	4455399424	32	5856
2026-01-05 05:24:58.75	328.09	21.83	-29.8	-30.2	27.4	0.00e+00	0	26	0	4463788032	32	5895
2026-01-05 05:24:59.76	328.19	21.70	-29.9	-30.4	27.3	0.00e+00	0	26	0	4471128064	32	6015
2026-01-05 05:25:00.77	328.28	21.57	-29.9	-30.3	27.3	0.00e+00	0	26	0	4477419520	32	5959
2026-01-05 05:25:01.77	328.38	21.44	-29.8	-30.3	27.2	0.00e+00	0	26	0	4484759552	32	5909
2026-01-05 05:25:02.79	328.48	21.31	-29.9	-30.4	27.1	0.00e+00	0	26	0	4492099584	32	5994
2026-01-05 05:25:03.79	328.57	21.18	-29.9	-30.4	27.0	0.00e+00	0	26	0	4499439616	32	5973
2026-01-05 05:25:04.80	328.66	21.06	-29.9	-30.4	27.1	0.00e+00	0	26	0	4506779648	32	5986
2026-01-05 05:25:05.81	328.76	20.93	-30.0	-30.5	27.1	0.00e+00	0	26	0	4514119680	32	6040
2026-01-05 05:25:06.82	328.85	20.80	-30.0	-30.4	27.1	0.00e+00	0	26	0	4521459712	32	6025
2026-01-05 05:25:07.83	328.94	20.67	-30.1	-30.6	27.1	0.00e+00	0	26	0	4528799744	32	6129
2026-01-05 05:25:08.84	329.03	20.55	-30.0	-30.5	27.0	0.00e+00	0	26	0	4536139776	32	6074
2026-01-05 05:25:09.85	329.12	20.42	-30.0	-30.5	27.0	0.00e+00	0	26	0	4543479808	32	6060
2026-01-05 05:25:10.86	329.21	20.30	-30.0	-30.5	27.0	0.00e+00	0	26	0	4550819840	32	6080
2026-01-05 05:25:11.87	329.30	20.17	-30.0	-30.4	27.1	0.00e+00	0	26	0	4558159872	32	6032
2026-01-05 05:25:12.88	329.39	20.05	-30.3	-30.7	27.1	0.00e+00	0	26	0	4565499904	32	6239
2026-01-05 05:25:13.89	329.48	19.93	-30.1	-30.6	27.1	0.00e+00	0	26	0	4572839936	32	6152
2026-01-05 05:25:14.90	329.56	19.80	-29.9	-30.4	27.1	0.00e+00	0	26	0	4580179968	32	5983
2026-01-05 05:25:15.91	329.65	19.68	-30.1	-30.6	26.9	0.00e+00	0	26	0	4587520000	32	6134
2026-01-05 05:25:16.91	329.74	19.56	-29.9	-30.4	27.2	0.00e+00	0	26	0	4594860032	32	6007
2026-01-05 05:25:17.92	329.82	19.44	-30.1	-30.6	27.0	0.00e+00	0	26	0	4602200064	32	6111
2026-01-05 05:25:18.93	329.91	19.32	-30.1	-30.6	27.1	0.00e+00	0	26	0	4608491520	32	6122
2026-01-05 05:25:19.94	329.99	19.20	-30.1	-30.6	26.9	0.00e+00	0	26	0	4616880128	32	6114
2026-01-05 05:25:20.95	330.07	19.08	-30.2	-30.7	27.0	0.00e+00	0	26	0	4624220160	32	6187
2026-01-05 05:25:21.96	330.15	18.96	-30.0	-30.5	27.1	0.00e+00	0	26	0	4630511616	32	6053
2026-01-05 05:25:22.97	330.24	18.84	-30.1	-30.5	27.0	0.00e+00	0	26	0	4637851648	32	6099
2026-01-05 05:25:23.98	330.32	18.72	-30.3	-30.8	26.9	0.00e+00	0	26	0	4645191680	32	6252
