passes_logs/2026/01/05/R4.6S_Anadyr/R4.6S_Anadyr__20260105_172236_NOAA_21_JPSS-2_rec.log

#Pass ID: 20260105_172236_NOAA 21 (JPSS-2)
#Satellite: NOAA 21 (JPSS-2)
#Configuration: NOAA-21
#almurnet v.1.7.20251203
#Start time: 2026-01-05 17:28:20

#Version: 2.2.20231116
#Station: R4.6S_Anadyr
#Location: 177.4865 lon 64.73178 lat
#TLE: 1 54234U 22150A   26004.93331070  .00000143  00000+0  88672-4 0  9998
#TLE: 2 54234  98.7489 305.9554 0001075 342.5085  17.6054 14.19532053163383

#Time	Az	El	Level	Level2	SNR	BER	BlckErr	Temp	State	Recorded	gain1	gain2
2026-01-05 17:28:20.12	346.73	20.73	-48.5	-60.1	3.5	8.45e-01	0	32	0	0	60	36697
2026-01-05 17:28:21.13	346.49	20.77	-48.6	-61.4	3.5	1.52e+00	0	33	104	0	60	41287
2026-01-05 17:28:22.14	346.24	20.81	-48.6	-61.4	3.5	1.52e+00	0	33	104	0	60	41155
2026-01-05 17:28:23.15	345.99	20.85	-48.5	-61.4	3.5	1.52e+00	0	33	104	0	60	41436
2026-01-05 17:28:24.16	345.75	20.89	-48.6	-61.5	3.5	1.52e+00	0	33	104	0	60	41506
2026-01-05 17:28:25.17	345.50	20.93	-47.9	-61.4	3.5	1.52e+00	0	33	104	0	60	41220
2026-01-05 17:28:26.18	345.25	20.97	-48.1	-61.5	3.5	1.52e+00	0	33	104	0	60	41553
2026-01-05 17:28:27.19	345.00	21.01	-48.7	-61.5	3.5	1.51e+00	0	33	104	0	60	41588
2026-01-05 17:28:28.20	344.75	21.05	-48.7	-61.5	3.5	1.52e+00	0	33	104	0	60	41555
2026-01-05 17:28:29.21	344.50	21.08	-48.6	-61.4	3.5	1.52e+00	0	33	104	0	60	41382
2026-01-05 17:28:30.22	344.25	21.12	-48.6	-61.4	3.5	1.51e+00	0	33	104	0	60	41419
2026-01-05 17:28:31.23	344.00	21.16	-48.5	-61.3	3.5	1.51e+00	0	33	104	0	60	40946
2026-01-05 17:28:32.23	343.75	21.19	-48.4	-61.3	3.5	1.51e+00	0	33	104	0	60	40704
2026-01-05 17:28:33.24	343.50	21.23	-48.4	-61.3	3.5	1.52e+00	0	33	104	0	60	40781
2026-01-05 17:28:34.25	343.24	21.26	-48.4	-61.2	3.5	1.52e+00	0	33	104	0	60	40497
2026-01-05 17:28:35.26	342.99	21.30	-48.4	-61.3	3.5	1.52e+00	0	33	104	0	60	40628
2026-01-05 17:28:36.28	342.73	21.33	-48.4	-61.3	3.5	1.51e+00	0	33	104	0	60	40612
2026-01-05 17:28:37.29	342.48	21.36	-48.4	-61.2	3.5	1.52e+00	0	33	104	0	60	40262
2026-01-05 17:28:38.30	342.22	21.40	-48.4	-61.3	3.5	1.52e+00	0	33	104	0	60	40658
2026-01-05 17:28:39.31	341.97	21.43	-48.4	-61.2	3.5	1.52e+00	0	33	104	0	60	40170
2026-01-05 17:28:40.32	341.71	21.46	-48.4	-61.2	3.5	1.52e+00	0	33	104	0	60	40329
2026-01-05 17:28:41.33	341.45	21.49	-48.4	-61.2	3.5	1.52e+00	0	33	104	0	60	40441
2026-01-05 17:28:42.34	341.19	21.52	-48.4	-61.1	3.5	1.52e+00	0	33	104	0	60	39885
2026-01-05 17:28:43.35	340.94	21.55	-48.4	-61.2	3.5	1.52e+00	0	33	104	0	60	40522
2026-01-05 17:28:44.35	340.68	21.58	-48.4	-61.2	3.5	1.52e+00	0	33	104	0	60	40472
2026-01-05 17:28:45.37	340.42	21.61	-48.4	-61.3	3.5	1.52e+00	0	33	104	0	60	40608
2026-01-05 17:28:46.38	340.16	21.63	-48.4	-61.2	3.5	1.52e+00	0	33	104	0	60	40243
2026-01-05 17:28:47.39	339.90	21.66	-48.4	-61.2	3.5	1.52e+00	0	33	104	0	60	40172
2026-01-05 17:28:48.40	339.64	21.69	-48.4	-61.2	3.5	1.52e+00	0	33	104	0	60	40192
2026-01-05 17:28:49.41	339.38	21.71	-48.3	-61.2	3.5	1.52e+00	0	33	104	0	60	40186
2026-01-05 17:28:50.42	339.12	21.74	-48.4	-61.2	3.5	1.51e+00	0	33	104	0	60	40301
2026-01-05 17:28:51.43	338.85	21.76	-48.3	-61.0	3.5	1.52e+00	0	33	104	0	60	39521
2026-01-05 17:28:52.44	338.59	21.79	-48.4	-61.1	3.5	1.52e+00	0	33	104	0	60	39744
2026-01-05 17:28:53.45	338.33	21.81	-48.4	-61.2	3.5	1.52e+00	0	33	104	0	60	40363
2026-01-05 17:28:54.46	338.07	21.84	-48.3	-61.0	3.5	1.52e+00	0	33	104	0	60	39316
2026-01-05 17:28:55.47	337.80	21.86	-48.4	-61.2	3.5	1.52e+00	0	33	104	0	60	40368
2026-01-05 17:28:56.48	337.54	21.88	-48.3	-61.0	3.5	1.52e+00	0	33	104	0	60	39422
2026-01-05 17:28:57.49	337.27	21.90	-48.3	-61.0	3.5	1.52e+00	0	33	104	0	60	39443
2026-01-05 17:28:58.50	337.01	21.92	-48.4	-61.1	3.5	1.52e+00	0	33	104	0	60	39844
2026-01-05 17:28:59.51	336.75	21.94	-48.4	-61.2	3.5	1.52e+00	0	33	104	0	60	40153
2026-01-05 17:29:00.52	336.48	21.96	-48.3	-61.2	3.5	1.52e+00	0	33	104	0	60	40299
2026-01-05 17:29:01.53	336.21	21.98	-48.4	-61.1	3.5	1.52e+00	0	33	104	0	60	39753
2026-01-05 17:29:02.54	335.95	22.00	-48.3	-60.9	3.5	1.52e+00	0	33	104	0	60	39011
2026-01-05 17:29:03.55	335.68	22.01	-48.3	-61.0	3.5	1.52e+00	0	33	104	0	60	39524
2026-01-05 17:29:04.56	335.42	22.03	-48.3	-61.1	3.5	1.52e+00	0	33	104	0	60	39851
2026-01-05 17:29:05.57	335.15	22.05	-48.3	-60.9	3.5	1.52e+00	0	33	104	0	60	38742
2026-01-05 17:29:06.58	334.88	22.06	-48.3	-61.0	3.5	1.52e+00	0	33	104	0	60	39161
2026-01-05 17:29:07.59	334.62	22.07	-48.4	-61.1	3.5	1.52e+00	0	33	104	0	60	39902
2026-01-05 17:29:08.60	334.35	22.09	-48.3	-61.0	3.5	1.52e+00	0	33	104	0	60	39507
2026-01-05 17:29:09.61	334.08	22.10	-48.3	-60.6	3.5	1.52e+00	0	33	104	0	60	37666
2026-01-05 17:29:10.62	333.81	22.11	-48.3	-60.4	3.5	1.52e+00	0	33	104	0	60	36920
2026-01-05 17:29:11.63	333.54	22.13	-48.3	-60.9	3.5	1.52e+00	0	33	104	0	60	39140
2026-01-05 17:29:12.64	333.28	22.14	-48.4	-61.2	3.5	1.52e+00	0	33	104	0	60	40273
2026-01-05 17:29:13.65	333.01	22.15	-48.0	-57.5	3.7	1.51e+00	0	33	104	0	60	26310
2026-01-05 17:29:14.66	332.74	22.16	-48.1	-58.8	3.8	1.38e+00	0	33	104	0	60	30702
2026-01-05 17:29:15.67	332.47	22.17	-44.1	-46.8	14.1	7.26e-03	123	33	104	0	60	7688
2026-01-05 17:29:16.68	332.20	22.18	-37.7	-38.8	21.3	0.00e+00	123	33	0	2097152	50	5433
2026-01-05 17:29:17.69	331.93	22.18	-35.7	-36.6	23.0	0.00e+00	122	33	0	6291456	44	5988
2026-01-05 17:29:18.70	331.66	22.19	-34.4	-35.3	23.9	0.00e+00	122	33	0	9437184	42	5754
2026-01-05 17:29:19.71	331.39	22.20	-34.6	-35.5	23.6	0.00e+00	123	33	0	12582912	42	5917
2026-01-05 17:29:20.72	331.12	22.20	-41.6	-43.4	13.4	0.00e+00	123	33	0	14680064	46	11559
2026-01-05 17:29:21.73	330.85	22.21	-45.3	-49.0	12.1	6.95e-01	122	33	104	15728640	60	9935
2026-01-05 17:29:22.74	330.58	22.21	-42.6	-44.5	12.3	0.00e+00	123	33	0	17825792	52	9334
2026-01-05 17:29:23.75	330.31	22.22	-44.0	-46.8	15.3	1.12e-01	122	33	104	18874368	60	7712
2026-01-05 17:29:24.76	330.04	22.22	-41.2	-42.7	18.1	0.00e+00	122	33	0	20971520	56	6020
2026-01-05 17:29:25.77	329.77	22.22	-40.2	-41.5	18.9	0.00e+00	122	33	0	24117248	54	5908
2026-01-05 17:29:26.78	329.50	22.22	-38.5	-39.6	20.9	0.00e+00	122	33	0	27262976	50	5993
2026-01-05 17:29:27.79	329.23	22.23	-36.1	-37.1	22.8	0.00e+00	123	33	0	30408704	46	5640
2026-01-05 17:29:28.80	328.96	22.23	-34.7	-35.6	24.0	0.00e+00	122	33	0	33554432	42	5955
2026-01-05 17:29:29.81	328.69	22.23	-33.7	-34.5	24.8	0.00e+00	123	33	0	36700160	40	5904
2026-01-05 17:29:30.82	328.42	22.22	-33.5	-34.4	24.9	0.00e+00	122	33	0	39845888	40	5796
2026-01-05 17:29:31.83	328.15	22.22	-33.5	-34.3	24.8	0.00e+00	122	33	0	42991616	40	5791
2026-01-05 17:29:32.84	327.88	22.22	-33.4	-34.3	24.8	0.00e+00	123	33	0	46137344	40	5732
2026-01-05 17:29:33.85	327.61	22.22	-33.3	-34.2	24.9	0.00e+00	123	33	0	49283072	40	5669
2026-01-05 17:29:34.86	327.34	22.21	-33.4	-34.2	24.9	0.00e+00	123	33	0	52428800	40	5724
2026-01-05 17:29:35.87	327.07	22.21	-33.4	-34.2	24.9	0.00e+00	122	33	0	55574528	40	5710
2026-01-05 17:29:36.88	326.80	22.20	-33.5	-34.4	24.8	0.00e+00	122	33	0	58720256	40	5820
2026-01-05 17:29:37.89	326.53	22.20	-33.6	-34.5	24.7	0.00e+00	122	33	0	61865984	40	5900
2026-01-05 17:29:38.89	326.27	22.19	-33.8	-34.7	24.6	0.00e+00	123	33	0	65011712	40	6004
2026-01-05 17:29:39.91	325.99	22.19	-33.7	-34.6	24.6	0.00e+00	123	33	0	68157440	40	5987
2026-01-05 17:29:40.92	325.72	22.18	-33.7	-34.6	24.6	0.00e+00	123	33	0	71303168	40	5947
2026-01-05 17:29:41.92	325.46	22.17	-33.7	-34.6	24.6	0.00e+00	122	33	0	74448896	40	5943
2026-01-05 17:29:42.94	325.19	22.16	-33.5	-34.4	24.7	0.00e+00	122	33	0	77594624	40	5813
2026-01-05 17:29:43.94	324.92	22.15	-33.6	-34.4	24.7	0.00e+00	120	33	0	80740352	40	5855
2026-01-05 17:29:44.95	324.65	22.14	-33.6	-34.5	24.5	0.00e+00	123	33	0	83886080	40	5865
2026-01-05 17:29:45.96	324.38	22.13	-33.7	-34.6	24.4	0.00e+00	122	33	0	87031808	40	5978
2026-01-05 17:29:46.97	324.11	22.12	-33.9	-34.8	24.5	0.00e+00	123	33	0	90177536	40	6078
2026-01-05 17:29:47.98	323.85	22.11	-34.0	-34.9	24.4	0.00e+00	122	33	0	93323264	40	6171
2026-01-05 17:29:48.99	323.58	22.09	-34.0	-34.9	24.5	0.00e+00	123	33	0	96468992	40	6137
2026-01-05 17:29:50.00	323.31	22.08	-34.0	-34.9	24.5	0.00e+00	123	33	0	99614720	40	6143
2026-01-05 17:29:51.01	323.04	22.06	-34.0	-34.9	24.4	0.00e+00	123	33	0	102760448	40	6159
2026-01-05 17:29:52.02	322.78	22.05	-33.7	-34.5	24.8	0.00e+00	123	33	0	105906176	40	5919
2026-01-05 17:29:53.03	322.51	22.03	-33.8	-34.7	24.7	0.00e+00	122	33	0	109051904	40	6000
2026-01-05 17:29:54.04	322.24	22.02	-33.7	-34.6	24.7	0.00e+00	123	33	0	112197632	40	5951
2026-01-05 17:29:55.05	321.98	22.00	-33.8	-34.7	24.6	0.00e+00	123	33	0	115343360	40	6029
2026-01-05 17:29:56.06	321.71	21.98	-33.5	-34.3	24.9	0.00e+00	123	33	0	118489088	40	5781
2026-01-05 17:29:57.07	321.44	21.96	-33.5	-34.3	24.9	0.00e+00	122	33	0	121634816	40	5778
2026-01-05 17:29:58.08	321.18	21.94	-33.5	-34.4	24.8	0.00e+00	123	33	0	124780544	40	5807
2026-01-05 17:29:59.09	320.91	21.93	-33.4	-34.3	24.8	0.00e+00	122	33	0	127926272	40	5747
2026-01-05 17:30:00.10	320.65	21.90	-33.7	-34.6	24.6	0.00e+00	122	33	0	131072000	40	5933
2026-01-05 17:30:01.10	320.39	21.88	-33.2	-34.1	25.0	0.00e+00	120	33	0	134217728	40	5628
2026-01-05 17:30:02.11	320.12	21.86	-33.3	-34.2	24.9	0.00e+00	122	33	0	137363456	40	5692
2026-01-05 17:30:03.12	319.86	21.84	-33.4	-34.3	24.7	0.00e+00	122	33	0	140509184	40	5737
2026-01-05 17:30:04.13	319.59	21.82	-33.7	-34.6	24.5	0.00e+00	123	33	0	143654912	40	5951
2026-01-05 17:30:05.14	319.33	21.79	-33.8	-34.7	24.5	0.00e+00	120	33	0	146800640	40	6037
2026-01-05 17:30:06.15	319.07	21.77	-33.9	-34.8	24.5	0.00e+00	122	33	0	149946368	40	6083
2026-01-05 17:30:07.16	318.81	21.75	-33.9	-34.8	24.5	0.00e+00	120	33	0	153092096	40	6080
2026-01-05 17:30:08.17	318.55	21.72	-33.8	-34.7	24.6	0.00e+00	123	33	0	156237824	40	6032
2026-01-05 17:30:09.18	318.28	21.69	-33.7	-34.6	24.6	0.00e+00	123	33	0	159383552	40	5941
2026-01-05 17:30:10.19	318.02	21.67	-33.4	-34.3	24.8	0.00e+00	123	33	0	162529280	40	5770
2026-01-05 17:30:11.20	317.76	21.64	-33.5	-34.4	24.7	0.00e+00	123	33	0	165675008	40	5803
2026-01-05 17:30:12.21	317.50	21.61	-33.5	-34.4	24.7	0.00e+00	120	33	0	168820736	40	5812
2026-01-05 17:30:13.22	317.24	21.59	-33.5	-34.4	24.8	0.00e+00	123	33	0	171966464	40	5818
2026-01-05 17:30:14.23	316.98	21.56	-33.3	-34.2	24.9	0.00e+00	123	33	0	175112192	40	5664
2026-01-05 17:30:15.24	316.73	21.53	-33.3	-34.2	24.8	0.00e+00	122	33	0	178257920	40	5697
2026-01-05 17:30:16.25	316.47	21.50	-33.4	-34.3	24.7	0.00e+00	123	33	0	181403648	40	5764
2026-01-05 17:30:17.26	316.21	21.47	-33.3	-34.2	24.6	0.00e+00	123	33	0	184549376	40	5696
2026-01-05 17:30:18.27	315.95	21.43	-33.4	-34.3	24.5	0.00e+00	120	33	0	187695104	40	5766
2026-01-05 17:30:19.28	315.70	21.40	-33.6	-34.5	24.5	0.00e+00	123	33	0	190840832	40	5863
2026-01-05 17:30:20.29	315.44	21.37	-33.5	-34.4	24.7	0.00e+00	120	33	0	193986560	40	5797
2026-01-05 17:30:21.30	315.19	21.34	-33.6	-34.5	24.6	0.00e+00	122	33	0	197132288	40	5867
2026-01-05 17:30:22.31	314.93	21.30	-33.6	-34.5	24.6	0.00e+00	122	33	0	200278016	40	5896
2026-01-05 17:30:23.32	314.68	21.27	-33.6	-34.5	24.7	0.00e+00	122	33	0	203423744	40	5886
2026-01-05 17:30:24.33	314.42	21.24	-33.7	-34.6	24.6	0.00e+00	122	33	0	206569472	40	5966
2026-01-05 17:30:25.34	314.17	21.20	-33.7	-34.6	24.6	0.00e+00	122	33	0	209715200	40	5945
2026-01-05 17:30:26.35	313.92	21.17	-33.8	-34.7	24.5	0.00e+00	123	33	0	212860928	40	6022
2026-01-05 17:30:27.36	313.67	21.13	-33.9	-34.8	24.4	0.00e+00	122	33	0	216006656	40	6087
2026-01-05 17:30:28.37	313.41	21.09	-33.7	-34.6	24.6	0.00e+00	123	33	0	219152384	40	5946
2026-01-05 17:30:29.38	313.16	21.05	-33.8	-34.7	24.4	0.00e+00	122	33	0	222298112	40	6006
2026-01-05 17:30:30.39	312.91	21.02	-33.9	-34.8	24.3	0.00e+00	123	33	0	225443840	40	6108
2026-01-05 17:30:31.40	312.66	20.98	-33.9	-34.8	24.4	0.00e+00	122	33	0	228589568	40	6067
2026-01-05 17:30:32.41	312.42	20.94	-33.8	-34.7	24.5	0.00e+00	123	33	0	231735296	40	6024
2026-01-05 17:30:33.42	312.17	20.90	-33.7	-34.5	24.8	0.00e+00	122	33	0	234881024	40	5923
2026-01-05 17:30:34.42	311.92	20.86	-33.6	-34.5	24.6	0.00e+00	120	33	0	238026752	40	5913
2026-01-05 17:30:35.43	311.67	20.82	-33.6	-34.5	24.7	0.00e+00	123	33	0	241172480	40	5896
2026-01-05 17:30:36.44	311.43	20.78	-33.8	-34.7	24.4	0.00e+00	122	33	0	244318208	40	6040
2026-01-05 17:30:37.45	311.18	20.74	-33.6	-34.5	24.6	0.00e+00	123	33	0	247463936	40	5909
2026-01-05 17:30:38.46	310.94	20.70	-33.7	-34.6	24.6	0.00e+00	122	33	0	250609664	40	5967
2026-01-05 17:30:39.47	310.69	20.65	-33.6	-34.5	24.6	0.00e+00	123	33	0	253755392	40	5888
2026-01-05 17:30:40.48	310.45	20.61	-33.7	-34.5	24.6	0.00e+00	123	33	0	256901120	40	5915
2026-01-05 17:30:41.49	310.21	20.57	-33.6	-34.5	24.7	0.00e+00	122	33	0	260046848	40	5879
2026-01-05 17:30:42.50	309.96	20.52	-33.7	-34.6	24.6	0.00e+00	123	33	0	263192576	40	5981
2026-01-05 17:30:43.51	309.72	20.48	-33.8	-34.7	24.6	0.00e+00	123	33	0	266338304	40	6039
2026-01-05 17:30:44.52	309.48	20.44	-33.9	-34.8	24.5	0.00e+00	123	33	0	269484032	40	6114
2026-01-05 17:30:45.53	309.24	20.39	-34.0	-34.9	24.5	0.00e+00	122	33	0	272629760	40	6168
2026-01-05 17:30:46.54	309.00	20.35	-34.0	-34.9	24.5	0.00e+00	118	33	0	275775488	40	6174
2026-01-05 17:30:47.55	308.76	20.30	-34.1	-35.0	24.4	0.00e+00	123	33	0	278921216	40	6229
2026-01-05 17:30:48.56	308.53	20.25	-34.2	-35.1	24.3	0.00e+00	123	33	0	282066944	40	6332
2026-01-05 17:30:49.57	308.29	20.21	-34.0	-34.9	24.3	0.00e+00	123	33	0	285212672	40	6189
2026-01-05 17:30:50.58	308.05	20.16	-33.9	-34.8	24.5	0.00e+00	122	33	0	288358400	40	6076
2026-01-05 17:30:51.59	307.82	20.11	-33.9	-34.8	24.6	0.00e+00	123	33	0	292552704	40	6076
2026-01-05 17:30:52.60	307.58	20.06	-33.6	-34.5	24.8	0.00e+00	123	33	0	294649856	40	5886
2026-01-05 17:30:53.60	307.35	20.01	-33.6	-34.4	24.9	0.00e+00	122	33	0	297795584	40	5840
2026-01-05 17:30:54.61	307.12	19.97	-33.5	-34.3	25.0	0.00e+00	123	33	0	300941312	40	5781
2026-01-05 17:30:55.62	306.88	19.92	-33.3	-34.2	25.0	0.00e+00	122	33	0	304087040	40	5669
2026-01-05 17:30:56.64	306.65	19.87	-33.4	-34.3	24.9	0.00e+00	123	33	0	308281344	40	5755
2026-01-05 17:30:57.64	306.42	19.82	-33.5	-34.4	24.7	0.00e+00	120	33	0	311427072	40	5812
2026-01-05 17:30:58.65	306.19	19.77	-33.6	-34.5	24.6	0.00e+00	122	33	0	314572800	40	5901
2026-01-05 17:30:59.66	305.96	19.72	-33.6	-34.5	24.6	0.00e+00	122	33	0	316669952	40	5912
2026-01-05 17:31:00.67	305.73	19.66	-33.7	-34.6	24.5	0.00e+00	123	33	0	319815680	40	5975
2026-01-05 17:31:01.68	305.50	19.61	-33.9	-34.8	24.4	0.00e+00	123	33	0	322961408	40	6071
2026-01-05 17:31:02.69	305.27	19.56	-34.0	-34.9	24.4	0.00e+00	122	33	0	327155712	40	6199
2026-01-05 17:31:03.70	305.05	19.51	-34.1	-35.0	24.4	0.00e+00	123	33	0	330301440	40	6249
2026-01-05 17:31:04.71	304.82	19.45	-34.1	-35.0	24.4	0.00e+00	123	33	0	333447168	40	6245
2026-01-05 17:31:05.72	304.60	19.40	-34.2	-35.1	24.4	0.00e+00	123	33	0	336592896	40	6293
2026-01-05 17:31:06.73	304.37	19.35	-34.1	-35.0	24.4	0.00e+00	122	33	0	339738624	40	6233
2026-01-05 17:31:07.74	304.15	19.29	-34.2	-35.1	24.3	0.00e+00	123	33	0	342884352	40	6338
2026-01-05 17:31:08.75	303.93	19.24	-34.1	-35.0	24.4	0.00e+00	123	33	0	346030080	40	6230
2026-01-05 17:31:09.76	303.70	19.19	-34.1	-35.0	24.3	0.00e+00	123	33	0	349175808	40	6275
2026-01-05 17:31:10.77	303.48	19.13	-34.1	-35.0	24.4	0.00e+00	123	33	0	352321536	40	6246
2026-01-05 17:31:11.78	303.26	19.08	-34.0	-34.9	24.4	0.00e+00	122	33	0	355467264	40	6167
2026-01-05 17:31:12.79	303.04	19.02	-33.9	-34.8	24.5	0.00e+00	122	33	0	358612992	40	6099
2026-01-05 17:31:13.80	302.82	18.96	-33.8	-34.7	24.5	0.00e+00	123	33	0	361758720	40	6029
2026-01-05 17:31:14.81	302.61	18.91	-33.9	-34.8	24.5	0.00e+00	122	33	0	364904448	40	6114
2026-01-05 17:31:15.82	302.39	18.85	-34.2	-35.1	24.4	0.00e+00	123	33	0	368050176	40	6307
2026-01-05 17:31:16.83	302.17	18.80	-33.9	-34.8	24.5	0.00e+00	122	33	0	371195904	40	6124
2026-01-05 17:31:17.84	301.96	18.74	-34.1	-35.0	24.5	0.00e+00	120	33	0	374341632	40	6233
2026-01-05 17:31:18.85	301.74	18.68	-34.2	-35.2	24.4	0.00e+00	123	33	0	377487360	40	6358
2026-01-05 17:31:19.86	301.53	18.62	-34.4	-35.3	24.2	0.00e+00	122	33	0	380633088	40	6463
2026-01-05 17:31:20.87	301.31	18.57	-34.3	-35.2	24.3	0.00e+00	122	33	0	383778816	40	6405
2026-01-05 17:31:21.88	301.10	18.51	-34.5	-35.4	24.1	0.00e+00	123	33	0	386924544	40	6548
2026-01-05 17:31:22.89	300.89	18.45	-34.4	-35.3	24.1	0.00e+00	122	33	0	390070272	40	6456
2026-01-05 17:31:23.90	300.68	18.39	-34.3	-35.2	24.0	0.00e+00	123	33	0	393216000	40	6385
2026-01-05 17:31:24.91	300.47	18.33	-34.2	-35.1	24.2	0.00e+00	123	33	0	396361728	40	6307
2026-01-05 17:31:25.92	300.26	18.27	-34.1	-35.0	24.3	0.00e+00	123	33	0	399507456	40	6245
2026-01-05 17:31:26.93	300.05	18.21	-34.1	-35.0	24.3	0.00e+00	123	33	0	402653184	40	6243
2026-01-05 17:31:27.94	299.85	18.15	-34.1	-35.0	24.3	0.00e+00	123	33	0	405798912	40	6240
2026-01-05 17:31:28.95	299.64	18.09	-33.9	-34.8	24.4	0.00e+00	120	33	0	408944640	40	6123
2026-01-05 17:31:29.96	299.43	18.03	-34.1	-35.0	24.4	0.00e+00	123	33	0	412090368	40	6258
2026-01-05 17:31:30.97	299.23	17.97	-34.2	-35.1	24.4	0.00e+00	123	33	0	415236096	40	6285
2026-01-05 17:31:31.98	299.02	17.91	-33.9	-34.8	24.6	0.00e+00	122	33	0	418381824	40	6093
2026-01-05 17:31:32.99	298.82	17.85	-34.0	-34.8	24.5	0.00e+00	120	33	0	421527552	40	6120
2026-01-05 17:31:34.00	298.62	17.79	-33.8	-34.7	24.6	0.00e+00	123	33	0	424673280	40	6013
2026-01-05 17:31:35.01	298.42	17.73	-33.8	-34.7	24.6	0.00e+00	122	33	0	427819008	40	6036
2026-01-05 17:31:36.02	298.22	17.67	-33.8	-34.7	24.6	0.00e+00	122	33	0	430964736	40	6026
2026-01-05 17:31:37.03	298.02	17.61	-34.0	-34.8	24.5	0.00e+00	122	33	0	434110464	40	6129
2026-01-05 17:31:38.04	297.82	17.55	-34.1	-35.1	24.3	0.00e+00	123	33	0	437256192	40	6279
2026-01-05 17:31:39.05	297.62	17.48	-34.4	-35.3	24.1	0.00e+00	123	33	0	440401920	40	6455
2026-01-05 17:31:40.06	297.42	17.42	-34.5	-35.4	24.0	0.00e+00	123	33	0	443547648	40	6565
2026-01-05 17:31:41.07	297.23	17.36	-34.6	-35.5	23.9	0.00e+00	123	33	0	446693376	40	6627
2026-01-05 17:31:42.08	297.03	17.30	-34.3	-35.3	24.0	0.00e+00	123	33	0	449839104	40	6432
2026-01-05 17:31:43.09	296.83	17.23	-34.5	-35.4	23.9	0.00e+00	123	33	0	452984832	40	6538
2026-01-05 17:31:44.10	296.64	17.17	-34.2	-35.1	24.1	0.00e+00	123	33	0	456130560	40	6309
2026-01-05 17:31:45.11	296.45	17.11	-34.1	-35.0	24.3	0.00e+00	120	33	0	459276288	40	6247
2026-01-05 17:31:46.12	296.25	17.04	-34.2	-35.1	24.1	0.00e+00	123	33	0	462422016	40	6314
2026-01-05 17:31:47.13	296.06	16.98	-34.3	-35.2	24.1	0.00e+00	122	33	0	465567744	40	6356
2026-01-05 17:31:48.14	295.87	16.92	-34.3	-35.2	24.2	0.00e+00	122	33	0	468713472	40	6420
2026-01-05 17:31:49.15	295.68	16.85	-34.2	-35.1	24.2	0.00e+00	123	33	0	471859200	40	6299
2026-01-05 17:31:50.16	295.49	16.79	-34.3	-35.2	24.2	0.00e+00	123	33	0	475004928	40	6416
2026-01-05 17:31:51.17	295.30	16.72	-34.3	-35.2	24.1	0.00e+00	122	33	0	478150656	40	6382
2026-01-05 17:31:52.18	295.12	16.66	-34.3	-35.3	24.1	0.00e+00	122	33	0	481296384	40	6437
2026-01-05 17:31:53.19	294.93	16.60	-34.2	-35.1	24.2	0.00e+00	123	33	0	484442112	40	6296
2026-01-05 17:31:54.20	294.74	16.53	-34.2	-35.1	24.2	0.00e+00	123	33	0	487587840	40	6327
2026-01-05 17:31:55.21	294.56	16.47	-34.4	-35.3	24.1	0.00e+00	122	33	0	490733568	40	6466
2026-01-05 17:31:56.22	294.37	16.40	-34.3	-35.2	24.2	0.00e+00	123	33	0	493879296	40	6367
2026-01-05 17:31:57.23	294.19	16.34	-34.2	-35.1	24.1	0.00e+00	123	33	0	497025024	40	6343
2026-01-05 17:31:58.24	294.01	16.27	-34.2	-35.1	24.2	0.00e+00	122	33	0	500170752	40	6291
2026-01-05 17:31:59.25	293.83	16.21	-34.3	-35.2	24.3	0.00e+00	123	33	0	503316480	40	6365
2026-01-05 17:32:00.24	293.65	16.14	-34.2	-35.1	24.3	0.00e+00	122	33	0	506462208	40	6348
2026-01-05 17:32:01.25	293.47	16.08	-34.4	-35.3	24.2	0.00e+00	123	33	0	509607936	40	6458
2026-01-05 17:32:02.26	293.29	16.01	-34.4	-35.4	24.2	0.00e+00	120	33	0	512753664	40	6502
2026-01-05 17:32:03.27	293.11	15.94	-34.5	-35.4	24.1	0.00e+00	122	33	0	515899392	40	6521
2026-01-05 17:32:04.28	292.93	15.88	-34.5	-35.4	24.1	0.00e+00	122	33	0	519045120	40	6509
2026-01-05 17:32:05.29	292.75	15.81	-34.5	-35.4	24.1	0.00e+00	122	33	0	522190848	40	6553
2026-01-05 17:32:06.30	292.58	15.75	-34.6	-35.5	24.0	0.00e+00	120	33	0	525336576	40	6611
2026-01-05 17:32:07.31	292.40	15.68	-34.6	-35.5	24.0	0.00e+00	122	33	0	528482304	42	5883
2026-01-05 17:32:08.32	292.23	15.61	-34.6	-35.5	24.0	0.00e+00	120	33	0	531628032	42	5915
2026-01-05 17:32:09.33	292.05	15.55	-34.5	-35.4	24.0	0.00e+00	123	33	0	534773760	42	5817
2026-01-05 17:32:10.34	291.88	15.48	-34.5	-35.4	24.0	0.00e+00	120	33	0	537919488	42	5802
2026-01-05 17:32:11.35	291.71	15.42	-34.5	-35.4	24.1	0.00e+00	123	33	0	541065216	42	5835
2026-01-05 17:32:12.35	291.54	15.35	-34.6	-35.5	23.9	0.00e+00	123	33	0	544210944	42	5908
2026-01-05 17:32:13.36	291.36	15.28	-34.6	-35.5	24.0	0.00e+00	123	33	0	547356672	42	5884
2026-01-05 17:32:14.37	291.19	15.22	-34.6	-35.6	24.0	0.00e+00	123	33	0	550502400	42	5936
2026-01-05 17:32:15.38	291.03	15.15	-34.7	-35.7	23.8	0.00e+00	123	33	0	553648128	42	6002
2026-01-05 17:32:16.39	290.86	15.08	-34.8	-35.8	23.8	0.00e+00	123	33	0	556793856	42	6066
2026-01-05 17:32:17.40	290.69	15.02	-34.7	-35.6	23.9	0.00e+00	121	33	0	559939584	42	5989
2026-01-05 17:32:18.41	290.52	14.95	-34.6	-35.5	23.9	0.00e+00	122	33	0	563085312	42	5921
2026-01-05 17:32:19.42	290.35	14.88	-34.6	-35.6	23.9	0.00e+00	123	33	0	566231040	42	5934
2026-01-05 17:32:20.43	290.19	14.82	-34.5	-35.4	23.9	0.00e+00	123	33	0	569376768	42	5850
2026-01-05 17:32:21.44	290.02	14.75	-34.3	-35.2	24.1	0.00e+00	123	33	0	572522496	42	5713
2026-01-05 17:32:22.45	289.86	14.68	-34.4	-35.3	24.1	0.00e+00	123	33	0	575668224	42	5761
2026-01-05 17:32:23.46	289.70	14.61	-34.3	-35.2	24.3	0.00e+00	122	33	0	578813952	42	5661
2026-01-05 17:32:24.47	289.53	14.55	-34.4	-35.3	24.2	0.00e+00	122	33	0	581959680	42	5736
2026-01-05 17:32:25.48	289.37	14.48	-34.4	-35.3	24.2	0.00e+00	123	33	0	585105408	42	5745
2026-01-05 17:32:26.49	289.21	14.41	-34.6	-35.5	24.1	0.00e+00	118	33	0	588251136	42	5871
2026-01-05 17:32:27.50	289.05	14.34	-34.6	-35.5	24.0	0.00e+00	120	33	0	591396864	42	5910
2026-01-05 17:32:28.51	288.89	14.28	-34.7	-35.7	23.8	0.00e+00	123	33	0	594542592	42	5995
2026-01-05 17:32:29.52	288.73	14.21	-34.8	-35.8	23.8	0.00e+00	122	33	0	597688320	42	6076
2026-01-05 17:32:30.53	288.57	14.14	-34.8	-35.7	23.9	0.00e+00	123	33	0	600834048	42	6021
2026-01-05 17:32:31.54	288.42	14.07	-34.9	-35.8	23.8	0.00e+00	120	33	0	603979776	42	6093
2026-01-05 17:32:32.55	288.26	14.01	-35.0	-35.9	23.6	0.00e+00	122	33	0	607125504	42	6164
2026-01-05 17:32:33.56	288.10	13.94	-34.7	-35.6	23.8	0.00e+00	120	33	0	610271232	42	5986
2026-01-05 17:32:34.57	287.95	13.87	-34.7	-35.6	23.7	0.00e+00	123	33	0	613416960	42	5986
2026-01-05 17:32:35.58	287.79	13.80	-34.7	-35.7	23.7	0.00e+00	122	33	0	616562688	42	6010
2026-01-05 17:32:36.58	287.64	13.74	-34.7	-35.6	23.7	0.00e+00	123	33	0	619708416	42	5973
2026-01-05 17:32:37.59	287.49	13.67	-34.7	-35.7	23.6	0.00e+00	122	33	0	622854144	42	6006
2026-01-05 17:32:38.60	287.33	13.60	-34.4	-35.3	23.8	0.00e+00	123	33	0	625999872	42	5787
2026-01-05 17:32:39.61	287.18	13.53	-34.3	-35.3	23.8	0.00e+00	120	33	0	629145600	42	5741
2026-01-05 17:32:40.62	287.03	13.47	-34.4	-35.3	23.8	0.00e+00	122	33	0	632291328	42	5765
2026-01-05 17:32:41.62	286.88	13.40	-34.3	-35.2	24.0	0.00e+00	120	33	0	635437056	42	5675
2026-01-05 17:32:42.63	286.73	13.33	-34.3	-35.2	24.0	0.00e+00	122	33	0	638582784	42	5716
2026-01-05 17:32:43.65	286.58	13.26	-34.3	-35.2	24.0	0.00e+00	123	33	0	641728512	42	5673
2026-01-05 17:32:44.66	286.43	13.19	-34.3	-35.2	24.1	0.00e+00	123	33	0	644874240	42	5703
2026-01-05 17:32:45.67	286.29	13.13	-34.4	-35.3	24.0	0.00e+00	120	33	0	648019968	42	5754
2026-01-05 17:32:46.68	286.14	13.06	-34.6	-35.5	23.9	0.00e+00	122	33	0	651165696	42	5909
2026-01-05 17:32:47.69	285.99	12.99	-34.6	-35.6	23.8	0.00e+00	122	33	0	655360000	42	5928
2026-01-05 17:32:48.70	285.85	12.92	-34.9	-35.8	23.7	0.00e+00	123	33	0	657457152	42	6102
2026-01-05 17:32:49.71	285.70	12.86	-34.9	-35.8	23.6	0.00e+00	120	33	0	660602880	42	6090
2026-01-05 17:32:50.72	285.56	12.79	-35.0	-35.9	23.6	0.00e+00	122	33	0	663748608	42	6170
2026-01-05 17:32:51.73	285.42	12.72	-35.0	-36.0	23.5	0.00e+00	123	33	0	666894336	42	6214
2026-01-05 17:32:52.74	285.27	12.65	-35.0	-36.0	23.5	0.00e+00	122	33	0	671088640	42	6231
2026-01-05 17:32:53.75	285.13	12.58	-35.1	-36.0	23.4	0.00e+00	120	33	0	674234368	42	6276
2026-01-05 17:32:54.76	284.99	12.52	-35.1	-36.0	23.5	0.00e+00	123	33	0	677380096	42	6273
2026-01-05 17:32:55.77	284.85	12.45	-35.2	-36.2	23.3	0.00e+00	120	33	0	679477248	42	6354
2026-01-05 17:32:56.78	284.71	12.38	-35.4	-36.3	23.3	0.00e+00	122	33	0	682622976	42	6473
2026-01-05 17:32:57.79	284.57	12.31	-35.4	-36.3	23.2	0.00e+00	122	33	0	686817280	42	6475
2026-01-05 17:32:58.80	284.43	12.25	-35.5	-36.4	23.1	0.00e+00	122	33	0	689963008	42	6561
2026-01-05 17:32:59.81	284.29	12.18	-35.5	-36.5	23.1	0.00e+00	120	33	0	693108736	42	6595
2026-01-05 17:33:00.82	284.15	12.11	-35.3	-36.3	23.2	0.00e+00	122	33	0	696254464	42	6450
2026-01-05 17:33:01.83	284.02	12.04	-35.2	-36.2	23.3	0.00e+00	123	33	0	699400192	42	6366
2026-01-05 17:33:02.84	283.88	11.98	-35.3	-36.2	23.2	0.00e+00	123	33	0	702545920	42	6401
2026-01-05 17:33:03.85	283.74	11.91	-35.1	-36.0	23.4	0.00e+00	123	33	0	705691648	42	6244
2026-01-05 17:33:04.86	283.61	11.84	-35.2	-36.1	23.4	0.00e+00	123	33	0	708837376	42	6337
2026-01-05 17:33:05.87	283.47	11.77	-35.2	-36.2	23.4	0.00e+00	122	33	0	711983104	42	6380
2026-01-05 17:33:06.88	283.34	11.71	-35.1	-36.0	23.4	0.00e+00	120	33	0	715128832	42	6266
2026-01-05 17:33:07.89	283.21	11.64	-35.4	-36.3	23.3	0.00e+00	122	33	0	718274560	42	6466
2026-01-05 17:33:08.90	283.08	11.57	-35.5	-36.5	23.1	0.00e+00	123	33	0	721420288	42	6595
2026-01-05 17:33:09.91	282.94	11.50	-35.8	-36.7	22.9	0.00e+00	120	33	0	724566016	44	6054
2026-01-05 17:33:10.92	282.81	11.44	-35.9	-36.9	22.7	0.00e+00	122	33	0	727711744	44	6152
2026-01-05 17:33:11.93	282.68	11.37	-36.0	-37.0	22.6	0.00e+00	122	33	0	730857472	44	6225
2026-01-05 17:33:12.94	282.55	11.30	-35.8	-36.9	22.7	0.00e+00	123	33	0	734003200	44	6151
2026-01-05 17:33:13.95	282.42	11.23	-36.1	-37.1	22.3	0.00e+00	120	33	0	737148928	44	6316
2026-01-05 17:33:14.96	282.29	11.17	-35.8	-36.8	22.5	0.00e+00	122	33	0	740294656	44	6133
2026-01-05 17:33:15.97	282.16	11.10	-35.6	-36.7	22.6	0.00e+00	123	33	0	743440384	44	6006
2026-01-05 17:33:16.98	282.04	11.03	-35.6	-36.6	22.7	0.00e+00	122	33	0	746586112	44	5977
2026-01-05 17:33:17.99	281.91	10.97	-35.7	-36.7	22.7	0.00e+00	123	33	0	749731840	44	6026
2026-01-05 17:33:19.00	281.78	10.90	-35.5	-36.5	22.9	0.00e+00	123	33	0	752877568	44	5861
2026-01-05 17:33:20.01	281.66	10.83	-35.6	-36.6	22.9	0.00e+00	122	33	0	756023296	44	5939
2026-01-05 17:33:21.02	281.53	10.77	-35.7	-36.7	22.8	0.00e+00	122	33	0	759169024	44	5998
2026-01-05 17:33:22.03	281.41	10.70	-35.7	-36.7	22.8	0.00e+00	123	33	0	762314752	44	6043
2026-01-05 17:33:23.04	281.28	10.63	-35.7	-36.7	22.8	0.00e+00	122	33	0	765460480	44	6044
2026-01-05 17:33:24.05	281.16	10.56	-35.8	-36.8	22.8	0.00e+00	120	33	0	768606208	44	6093
2026-01-05 17:33:25.06	281.04	10.50	-35.9	-36.9	22.7	0.00e+00	122	33	0	771751936	44	6141
2026-01-05 17:33:26.07	280.91	10.43	-35.9	-36.9	22.7	0.00e+00	121	33	0	774897664	44	6163
2026-01-05 17:33:27.08	280.79	10.36	-36.0	-37.0	22.6	0.00e+00	123	33	0	778043392	44	6225
2026-01-05 17:33:28.09	280.67	10.30	-36.1	-37.1	22.4	0.00e+00	122	33	0	781189120	44	6342
2026-01-05 17:33:29.10	280.55	10.23	-36.1	-37.1	22.4	0.00e+00	123	33	0	784334848	44	6346
2026-01-05 17:33:30.11	280.43	10.17	-36.2	-37.2	22.3	0.00e+00	120	33	0	787480576	44	6394
2026-01-05 17:33:31.12	280.31	10.10	-36.2	-37.2	22.3	0.00e+00	123	33	0	790626304	44	6408
2026-01-05 17:33:32.13	280.19	10.03	-36.2	-37.2	22.2	0.00e+00	123	33	0	793772032	44	6395
2026-01-05 17:33:33.13	280.07	9.97	-36.2	-37.3	22.2	0.00e+00	120	33	0	796917760	44	6429
2026-01-05 17:33:34.15	279.95	9.90	-36.0	-37.0	22.3	0.00e+00	123	33	0	800063488	44	6260
2026-01-05 17:33:35.15	279.84	9.83	-36.1	-37.1	22.3	0.00e+00	123	33	0	803209216	44	6310
2026-01-05 17:33:36.16	279.72	9.77	-36.0	-37.1	22.3	0.00e+00	123	33	0	806354944	44	6279
2026-01-05 17:33:37.17	279.60	9.70	-35.9	-36.9	22.5	0.00e+00	120	33	0	809500672	44	6203
2026-01-05 17:33:38.18	279.49	9.64	-35.9	-36.9	22.5	0.00e+00	122	33	0	812646400	44	6202
2026-01-05 17:33:39.19	279.37	9.57	-36.2	-37.2	22.3	0.00e+00	120	33	0	815792128	44	6376
2026-01-05 17:33:40.20	279.26	9.50	-35.8	-36.8	22.7	0.00e+00	123	33	0	818937856	44	6101
2026-01-05 17:33:41.21	279.14	9.44	-35.9	-36.9	22.6	0.00e+00	122	33	0	822083584	44	6162
2026-01-05 17:33:42.22	279.03	9.37	-36.0	-37.1	22.5	0.00e+00	123	33	0	825229312	44	6285
2026-01-05 17:33:43.23	278.92	9.31	-36.1	-37.2	22.4	0.00e+00	123	33	0	828375040	44	6357
2026-01-05 17:33:44.24	278.80	9.24	-36.3	-37.3	22.2	0.00e+00	120	33	0	831520768	44	6461
2026-01-05 17:33:45.25	278.69	9.18	-36.3	-37.3	22.3	0.00e+00	122	33	0	834666496	44	6451
2026-01-05 17:33:46.26	278.58	9.11	-36.3	-37.4	22.2	0.00e+00	123	33	0	837812224	44	6518
2026-01-05 17:33:47.27	278.47	9.05	-36.3	-37.3	22.2	0.00e+00	120	33	0	840957952	44	6460
2026-01-05 17:33:48.28	278.36	8.98	-36.3	-37.4	22.1	0.00e+00	122	33	0	844103680	44	6520
2026-01-05 17:33:49.29	278.25	8.92	-36.3	-37.4	22.1	0.00e+00	120	33	0	847249408	44	6516
2026-01-05 17:33:50.30	278.14	8.85	-36.2	-37.2	22.1	0.00e+00	123	33	0	850395136	44	6404
2026-01-05 17:33:51.31	278.03	8.78	-36.1	-37.1	22.3	0.00e+00	120	33	0	853540864	44	6287
2026-01-05 17:33:52.32	277.92	8.72	-36.0	-37.0	22.3	0.00e+00	123	33	0	856686592	44	6219
2026-01-05 17:33:53.33	277.81	8.65	-36.1	-37.1	22.3	0.00e+00	120	33	0	859832320	44	6292
2026-01-05 17:33:54.34	277.71	8.59	-36.0	-37.0	22.3	0.00e+00	123	33	0	862978048	44	6218
2026-01-05 17:33:55.36	277.60	8.52	-36.0	-37.0	22.4	0.00e+00	120	33	0	866123776	44	6220
2026-01-05 17:33:56.36	277.49	8.46	-36.1	-37.1	22.3	0.00e+00	123	33	0	869269504	44	6289
2026-01-05 17:33:57.37	277.39	8.40	-35.9	-36.9	22.4	0.00e+00	123	33	0	872415232	44	6198
2026-01-05 17:33:58.38	277.28	8.33	-36.1	-37.1	22.4	0.00e+00	122	33	0	875560960	44	6292
2026-01-05 17:33:59.39	277.17	8.27	-36.2	-37.2	22.3	0.00e+00	120	33	0	878706688	44	6360
2026-01-05 17:34:00.40	277.07	8.20	-36.3	-37.4	22.2	0.00e+00	123	33	0	881852416	44	6506
2026-01-05 17:34:01.41	276.97	8.14	-36.2	-37.2	22.3	0.00e+00	123	33	0	884998144	44	6358
2026-01-05 17:34:02.42	276.86	8.07	-36.4	-37.5	22.1	0.00e+00	122	33	0	888143872	44	6579
2026-01-05 17:34:03.43	276.76	8.01	-36.5	-37.5	22.0	0.00e+00	120	33	0	891289600	44	6630
2026-01-05 17:34:04.44	276.66	7.94	-36.6	-37.6	22.0	0.00e+00	123	33	0	894435328	44	6698
2026-01-05 17:34:05.45	276.55	7.88	-36.7	-37.7	21.9	0.00e+00	115	33	0	897581056	44	6801
2026-01-05 17:34:06.46	276.45	7.82	-36.7	-37.8	21.8	0.00e+00	123	33	0	900726784	44	6816
2026-01-05 17:34:07.47	276.35	7.75	-36.7	-37.8	21.8	0.00e+00	123	33	0	903872512	46	6068
2026-01-05 17:34:08.48	276.25	7.69	-36.7	-37.8	21.8	0.00e+00	123	33	0	907018240	46	6075
2026-01-05 17:34:09.49	276.15	7.62	-36.8	-37.9	21.7	0.00e+00	127	33	0	910163968	46	6163
2026-01-05 17:34:10.50	276.05	7.56	-36.8	-37.8	21.7	0.00e+00	122	33	0	913309696	46	6107
2026-01-05 17:34:11.51	275.95	7.50	-36.4	-37.4	22.1	0.00e+00	123	33	0	916455424	46	5806
2026-01-05 17:34:12.52	275.85	7.43	-36.3	-37.4	22.1	0.00e+00	122	33	0	919601152	46	5810
2026-01-05 17:34:13.53	275.75	7.37	-36.2	-37.2	22.1	0.00e+00	122	33	0	922746880	46	5706
2026-01-05 17:34:14.54	275.65	7.31	-36.2	-37.3	22.1	0.00e+00	122	33	0	925892608	46	5736
2026-01-05 17:34:15.55	275.55	7.24	-36.2	-37.2	22.2	0.00e+00	122	33	0	929038336	46	5695
2026-01-05 17:34:16.56	275.46	7.18	-35.9	-36.9	22.4	0.00e+00	122	34	0	932184064	46	5515
2026-01-05 17:34:17.57	275.36	7.12	-35.9	-36.9	22.4	0.00e+00	123	34	0	935329792	46	5528
2026-01-05 17:34:18.58	275.26	7.05	-36.0	-37.0	22.3	0.00e+00	120	33	0	938475520	46	5585
2026-01-05 17:34:19.58	275.17	6.99	-36.0	-36.9	22.4	0.00e+00	122	33	0	941621248	46	5529
2026-01-05 17:34:20.59	275.07	6.93	-36.0	-37.1	22.4	0.00e+00	120	33	0	944766976	46	5595
2026-01-05 17:34:21.60	274.98	6.87	-36.2	-37.3	22.2	0.00e+00	123	33	0	947912704	46	5729
2026-01-05 17:34:22.61	274.88	6.80	-36.1	-37.1	22.3	0.00e+00	120	33	0	951058432	46	5621
2026-01-05 17:34:23.63	274.79	6.74	-36.3	-37.3	22.0	0.00e+00	122	33	0	954204160	46	5780
2026-01-05 17:34:24.63	274.69	6.68	-36.6	-37.6	21.8	0.00e+00	123	33	0	957349888	46	5969
2026-01-05 17:34:25.64	274.60	6.61	-36.7	-37.8	21.8	0.00e+00	122	33	0	960495616	46	6073
2026-01-05 17:34:26.65	274.51	6.55	-36.9	-37.9	21.6	0.00e+00	120	33	0	963641344	46	6193
2026-01-05 17:34:27.67	274.41	6.49	-37.0	-38.1	21.4	0.00e+00	123	33	0	966787072	46	6309
2026-01-05 17:34:28.67	274.32	6.43	-37.2	-38.3	21.2	0.00e+00	122	33	0	969932800	46	6444
2026-01-05 17:34:29.68	274.23	6.36	-37.3	-38.4	21.1	0.00e+00	123	34	0	973078528	46	6560
2026-01-05 17:34:30.69	274.14	6.30	-37.5	-38.6	20.9	0.00e+00	119	33	0	976224256	46	6700
2026-01-05 17:34:31.70	274.05	6.24	-37.5	-38.7	20.9	0.00e+00	122	33	0	979369984	46	6738
2026-01-05 17:34:32.71	273.95	6.18	-37.4	-38.6	21.0	0.00e+00	120	33	0	982515712	46	6658
2026-01-05 17:34:33.72	273.86	6.12	-37.5	-38.6	20.9	0.00e+00	123	33	0	985661440	46	6708
2026-01-05 17:34:34.73	273.77	6.05	-37.4	-38.5	21.0	0.00e+00	123	33	0	988807168	46	6607
2026-01-05 17:34:35.74	273.68	5.99	-37.2	-38.3	21.2	0.00e+00	123	33	0	993001472	46	6456
2026-01-05 17:34:36.75	273.60	5.93	-37.1	-38.2	21.2	0.00e+00	118	33	0	995098624	46	6399
2026-01-05 17:34:37.75	273.51	5.87	-37.0	-38.1	21.2	0.00e+00	123	33	0	998244352	46	6336
2026-01-05 17:34:38.76	273.42	5.81	-36.9	-38.0	21.4	0.00e+00	121	33	0	1001390080	46	6226
2026-01-05 17:34:39.77	273.33	5.75	-36.7	-37.8	21.5	0.00e+00	120	33	0	1004535808	46	6070
2026-01-05 17:34:40.78	273.24	5.69	-36.5	-37.5	21.7	0.00e+00	120	33	0	1007681536	46	5905
2026-01-05 17:34:41.79	273.16	5.62	-36.2	-37.2	22.0	0.00e+00	123	33	0	1011875840	46	5691
2026-01-05 17:34:42.80	273.07	5.56	-36.3	-37.4	21.8	0.00e+00	120	33	0	1015021568	46	5794
2026-01-05 17:34:43.81	272.98	5.50	-36.3	-37.3	21.9	0.00e+00	123	33	0	1018167296	46	5757
2026-01-05 17:34:44.82	272.90	5.44	-36.2	-37.2	22.0	0.00e+00	120	33	0	1020264448	46	5703
2026-01-05 17:34:45.83	272.81	5.38	-36.2	-37.2	22.1	0.00e+00	123	33	0	1023410176	46	5706
2026-01-05 17:34:46.84	272.73	5.32	-36.2	-37.2	22.0	0.00e+00	122	33	0	1027604480	46	5697
2026-01-05 17:34:47.85	272.64	5.26	-36.3	-37.3	21.9	0.00e+00	123	33	0	1030750208	46	5763
2026-01-05 17:34:48.86	272.56	5.20	-36.6	-37.6	21.7	0.00e+00	120	33	0	1033895936	46	5978
2026-01-05 17:34:49.87	272.47	5.14	-36.5	-37.6	21.7	0.00e+00	123	33	0	1037041664	46	5943
2026-01-05 17:34:50.88	272.39	5.08	-36.7	-37.7	21.6	0.00e+00	120	33	0	1040187392	46	6045
2026-01-05 17:34:51.89	272.30	5.02	-36.7	-37.8	21.5	0.00e+00	123	33	0	1043333120	46	6099
2026-01-05 17:34:52.90	272.22	4.96	-36.8	-37.9	21.4	0.00e+00	120	33	0	1046478848	46	6168
2026-01-05 17:34:53.91	272.14	4.89	-37.0	-38.1	21.2	0.00e+00	123	33	0	1049624576	46	6286
2026-01-05 17:34:54.92	272.05	4.83	-37.1	-38.2	21.1	0.00e+00	121	34	0	1052770304	46	6363
2026-01-05 17:34:55.93	271.97	4.77	-37.1	-38.2	21.0	0.00e+00	120	34	0	1055916032	46	6415
2026-01-05 17:34:56.94	271.89	4.71	-37.2	-38.3	20.9	0.00e+00	123	33	0	1059061760	46	6496
2026-01-05 17:34:57.95	271.81	4.65	-37.2	-38.4	20.8	0.00e+00	123	33	0	1062207488	46	6503
2026-01-05 17:34:58.96	271.73	4.59	-37.5	-38.7	20.6	0.00e+00	123	33	0	1065353216	46	6735
2026-01-05 17:34:59.97	271.65	4.53	-37.5	-38.7	20.6	0.00e+00	120	33	0	1068498944	46	6745
2026-01-05 17:35:00.98	271.57	4.47	-37.6	-38.8	20.5	0.00e+00	123	33	0	1071644672	46	6821
2026-01-05 17:35:01.99	271.49	4.41	-37.6	-38.8	20.5	0.00e+00	123	33	0	1074790400	46	6822
2026-01-05 17:35:02.99	271.41	4.36	-37.7	-38.9	20.4	0.00e+00	120	33	0	1077936128	48	6140
2026-01-05 17:35:04.00	271.33	4.30	-37.8	-39.0	20.2	0.00e+00	123	33	0	1081081856	48	6207
2026-01-05 17:35:05.01	271.25	4.24	-37.7	-38.9	20.3	0.00e+00	123	34	0	1084227584	48	6158
2026-01-05 17:35:06.02	271.17	4.18	-37.8	-39.0	20.2	0.00e+00	123	33	0	1087373312	48	6207
2026-01-05 17:35:07.03	271.09	4.12	-37.6	-38.8	20.3	0.00e+00	120	33	0	1090519040	48	6076
2026-01-05 17:35:08.04	271.01	4.06	-37.8	-39.0	20.2	0.00e+00	122	33	0	1093664768	48	6215
2026-01-05 17:35:09.05	270.94	4.00	-37.6	-38.8	20.3	0.00e+00	120	34	0	1096810496	48	6075
2026-01-05 17:35:10.06	270.86	3.94	-37.5	-38.6	20.4	0.00e+00	123	33	0	1099956224	48	5992
2026-01-05 17:35:11.07	270.78	3.88	-37.7	-38.8	20.2	0.00e+00	123	33	0	1103101952	48	6134
2026-01-05 17:35:12.08	270.70	3.82	-37.5	-38.7	20.4	0.00e+00	122	34	0	1106247680	48	6021
2026-01-05 17:35:13.09	270.63	3.76	-37.7	-38.9	20.2	0.00e+00	123	34	0	1109393408	48	6172
2026-01-05 17:35:14.10	270.55	3.70	-37.6	-38.7	20.3	0.00e+00	122	33	0	1112539136	48	6059
2026-01-05 17:35:15.11	270.48	3.65	-37.3	-38.4	20.7	0.00e+00	123	33	0	1115684864	48	5827
2026-01-05 17:35:16.12	270.40	3.59	-37.7	-38.8	20.2	0.00e+00	122	34	0	1118830592	48	6130
2026-01-05 17:35:17.12	270.33	3.53	-37.8	-39.0	20.2	0.00e+00	122	33	0	1121976320	48	6238
2026-01-05 17:35:18.13	270.25	3.47	-37.9	-39.1	20.0	0.00e+00	123	34	0	1125122048	48	6339
2026-01-05 17:35:19.14	270.18	3.41	-37.7	-38.9	20.2	0.00e+00	120	33	0	1128267776	48	6157
2026-01-05 17:35:20.15	270.10	3.35	-37.8	-39.0	20.1	0.00e+00	123	33	0	1131413504	48	6249
2026-01-05 17:35:21.16	270.03	3.30	-37.7	-38.9	20.1	0.00e+00	120	34	0	1134559232	48	6202
2026-01-05 17:35:22.10	269.96	3.24	-38.0	-39.2	19.9	0.00e+00	122	33	0	1137704960	48	6385
2026-01-05 17:35:23.11	269.89	3.18	-37.7	-38.9	20.1	0.00e+00	123	33	0	1140850688	48	6174
2026-01-05 17:35:24.12	269.81	3.13	-37.7	-38.9	20.1	0.00e+00	123	33	0	1143996416	48	6197
2026-01-05 17:35:25.13	269.74	3.07	-38.2	-39.5	19.6	0.00e+00	120	33	0	1147142144	48	6605
2026-01-05 17:35:26.14	269.67	3.01	-38.3	-39.6	19.4	0.00e+00	123	33	0	1150287872	48	6726
2026-01-05 17:35:27.14	269.60	2.95	-47.9	-60.7	3.5	1.51e+00	0	34	104	1151336448	60	37905
2026-01-05 17:35:28.15	269.52	2.89	-48.3	-61.1	3.5	1.52e+00	0	34	104	1151336448	60	39666
2026-01-05 17:35:29.16	269.45	2.84	-48.5	-61.3	3.5	1.52e+00	0	34	104	1151336448	60	40616
2026-01-05 17:35:30.17	269.38	2.78	-48.6	-61.4	3.5	1.52e+00	0	34	104	1151336448	60	41024
2026-01-05 17:35:31.18	269.31	2.72	-48.6	-61.4	3.5	1.52e+00	0	34	104	1151336448	60	41473
2026-01-05 17:35:32.19	269.24	2.66	-48.6	-61.4	3.5	1.52e+00	0	34	104	1151336448	60	41303
2026-01-05 17:35:33.20	269.17	2.61	-48.6	-61.5	3.5	1.52e+00	0	34	104	1151336448	60	41519
2026-01-05 17:35:34.22	269.10	2.55	-48.7	-61.5	3.5	1.52e+00	0	34	104	1151336448	60	41819
2026-01-05 17:35:35.22	269.03	2.49	-48.7	-61.5	3.5	1.52e+00	0	34	104	1151336448	60	41918
2026-01-05 17:35:36.23	268.96	2.44	-48.5	-61.5	3.5	1.52e+00	0	34	104	1151336448	60	41668
2026-01-05 17:35:37.25	268.89	2.38	-48.2	-61.5	3.5	1.52e+00	0	34	104	1151336448	60	41722
2026-01-05 17:35:38.26	268.82	2.32	-48.5	-61.4	3.5	1.52e+00	0	34	104	1151336448	60	41292
2026-01-05 17:35:39.27	268.75	2.26	-48.6	-61.4	3.5	1.52e+00	0	34	104	1151336448	60	41185
2026-01-05 17:35:40.28	268.68	2.21	-48.6	-61.4	3.5	1.52e+00	0	34	104	1151336448	60	41169
2026-01-05 17:35:41.29	268.61	2.15	-48.5	-61.4	3.5	1.52e+00	0	34	104	1151336448	60	41049
2026-01-05 17:35:42.30	268.55	2.09	-48.5	-61.4	3.5	1.52e+00	0	34	104	1151336448	60	41088
2026-01-05 17:35:43.31	268.48	2.04	-48.5	-61.4	3.5	1.52e+00	0	34	104	1151336448	60	41055
2026-01-05 17:35:44.32	268.41	1.98	-48.6	-61.4	3.5	1.52e+00	0	34	104	1151336448	60	41136
2026-01-05 17:35:45.33	268.34	1.92	-48.6	-61.4	3.5	1.52e+00	0	34	104	1151336448	60	41282
2026-01-05 17:35:46.34	268.28	1.87	-48.6	-61.4	3.5	1.52e+00	0	34	104	1151336448	60	41087
2026-01-05 17:35:47.35	268.21	1.81	-48.5	-61.4	3.5	1.52e+00	0	34	104	1151336448	60	41061
2026-01-05 17:35:48.36	268.14	1.76	-48.5	-61.4	3.5	1.52e+00	0	34	104	1151336448	60	41188
2026-01-05 17:35:49.37	268.08	1.70	-48.5	-61.4	3.5	1.52e+00	0	34	104	1151336448	60	41190
2026-01-05 17:35:50.38	268.01	1.64	-48.5	-61.4	3.5	1.52e+00	0	34	104	1151336448	60	41064
2026-01-05 17:35:51.39	267.95	1.59	-48.5	-61.3	3.5	1.52e+00	0	34	104	1151336448	60	40862
2026-01-05 17:35:52.40	267.88	1.53	-48.5	-61.4	3.5	1.52e+00	0	34	104	1151336448	60	41259
2026-01-05 17:35:53.41	267.81	1.48	-48.5	-61.4	3.5	1.52e+00	0	34	104	1151336448	60	41044
2026-01-05 17:35:54.42	267.75	1.42	-48.5	-61.3	3.5	1.51e+00	0	33	104	1151336448	60	40973
2026-01-05 17:35:55.43	267.69	1.36	-48.5	-61.3	3.5	1.52e+00	0	34	104	1151336448	60	40968
2026-01-05 17:35:56.44	267.62	1.31	-48.5	-61.4	3.5	1.52e+00	0	34	104	1151336448	60	41044
2026-01-05 17:35:57.45	267.56	1.25	-48.5	-61.3	3.5	1.51e+00	0	34	104	1151336448	60	40991
2026-01-05 17:35:58.46	267.49	1.20	-48.5	-61.3	3.5	1.51e+00	0	33	104	1151336448	60	40951
2026-01-05 17:35:59.47	267.43	1.14	-48.5	-61.3	3.5	1.52e+00	0	34	104	1151336448	60	40852
2026-01-05 17:36:00.48	267.37	1.09	-48.5	-61.4	3.5	1.52e+00	0	34	104	1151336448	60	41015
2026-01-05 17:36:01.48	267.30	1.03	-48.5	-61.4	3.5	1.52e+00	0	34	104	1151336448	60	41043
2026-01-05 17:36:02.49	267.24	0.98	-48.5	-61.4	3.5	1.52e+00	0	34	104	1151336448	60	41021
2026-01-05 17:36:03.50	267.18	0.92	-48.5	-61.4	3.5	1.52e+00	0	34	104	1151336448	60	41268
2026-01-05 17:36:04.52	267.11	0.87	-48.5	-61.4	3.5	1.52e+00	0	34	104	1151336448	60	41153
2026-01-05 17:36:05.53	267.05	0.81	-48.5	-61.4	3.5	1.52e+00	0	34	104	1151336448	60	41078
2026-01-05 17:36:06.53	266.99	0.76	-48.5	-61.3	3.5	1.52e+00	0	34	104	1151336448	60	40815
2026-01-05 17:36:07.54	266.93	0.70	-48.5	-61.3	3.5	1.52e+00	0	34	104	1151336448	60	40902
2026-01-05 17:36:08.55	266.87	0.65	-48.5	-61.3	3.5	1.52e+00	0	34	104	1151336448	60	40851
2026-01-05 17:36:09.56	266.81	0.59	-48.5	-61.4	3.5	1.52e+00	0	34	104	1151336448	60	41193
2026-01-05 17:36:10.57	266.75	0.54	-48.5	-61.4	3.5	1.52e+00	0	34	104	1151336448	60	41089
2026-01-05 17:36:11.58	266.69	0.48	-48.5	-61.4	3.5	1.52e+00	0	34	104	1151336448	60	41146
2026-01-05 17:36:12.59	266.63	0.43	-48.6	-61.4	3.5	1.52e+00	0	34	104	1151336448	60	41009
2026-01-05 17:36:13.60	266.56	0.38	-48.5	-61.3	3.5	1.52e+00	0	34	104	1151336448	60	40976
2026-01-05 17:36:14.61	266.50	0.32	-48.6	-61.4	3.5	1.52e+00	0	34	104	1151336448	60	41152
2026-01-05 17:36:15.62	266.45	0.27	-48.5	-61.4	3.5	1.52e+00	0	34	104	1151336448	60	41256
2026-01-05 17:36:16.63	266.39	0.21	-48.5	-61.4	3.5	1.52e+00	0	34	104	1151336448	60	41018
2026-01-05 17:36:17.64	266.33	0.16	-48.5	-61.3	3.5	1.52e+00	0	34	104	1151336448	60	40949
2026-01-05 17:36:18.65	266.27	0.10	-48.5	-61.4	3.5	1.52e+00	0	34	104	1151336448	60	41059
2026-01-05 17:36:19.66	266.21	0.05	-48.5	-61.3	3.5	1.52e+00	0	34	104	1151336448	60	40892
2026-01-05 17:36:20.67	266.15	-0.00	-48.5	-61.4	3.5	1.52e+00	0	34	104	1151336448	60	41101
2026-01-05 17:36:21.68	266.09	-0.06	-48.5	-61.4	3.5	1.52e+00	0	34	104	1151336448	60	41037
2026-01-05 17:36:22.69	266.03	-0.11	-48.5	-61.4	3.5	1.52e+00	0	34	104	1151336448	60	41096

#Closed at: 2026-01-05 17:36:23
#Recorded file [1151 MB]: D:/lorett/data/35029_260106_052820.dat