passes_logs/2026/01/05/R4.6S_Anadyr/R4.6S_Anadyr__20260105_035557_AQUA_rec.log

#Pass ID: 20260105_035557_AQUA
#Satellite: AQUA
#Configuration: AQUA
#almurnet v.1.7.20251203
#Start time: 2026-01-05 03:55:59

#Version: 2.2.20231116
#Station: R4.6S_Anadyr
#Location: 177.4865 lon 64.73178 lat
#TLE: 1 27424U 02022A   25365.92641127  .00002078  00000+0  42628-3 0  9999
#TLE: 2 27424  98.4058 327.1196 0001962  94.7781 340.6230 14.61783896258835

#Time	Az	El	Level	Level2	SNR	BER	BlckErr	Temp	State	Recorded	gain1	gain2
2026-01-05 03:55:59.39	211.23	0.10	-48.9	-59.7	3.5	8.46e-01	0	24	0	0	60	35100
2026-01-05 03:56:00.40	211.30	0.15	-49.2	-67.4	3.5	3.02e+01	0	25	104	0	60	90721
2026-01-05 03:56:01.40	211.38	0.21	-50.3	-68.1	3.5	3.02e+01	0	25	104	0	60	97683
2026-01-05 03:56:02.41	211.45	0.26	-49.9	-67.7	3.5	3.02e+01	0	25	104	0	60	93710
2026-01-05 03:56:03.42	211.53	0.32	-49.8	-67.7	3.5	3.02e+01	0	25	104	0	60	93460
2026-01-05 03:56:04.43	211.60	0.37	-49.6	-67.6	3.5	3.02e+01	0	25	104	0	60	92342
2026-01-05 03:56:05.44	211.68	0.42	-49.3	-67.3	3.5	3.02e+01	0	25	104	0	60	89642
2026-01-05 03:56:06.46	211.76	0.48	-49.3	-67.2	3.5	3.02e+01	0	25	104	0	60	87992
2026-01-05 03:56:07.46	211.83	0.53	-49.0	-67.0	3.5	3.02e+01	0	25	104	0	60	85713
2026-01-05 03:56:08.47	211.91	0.59	-48.8	-66.7	3.5	3.02e+01	0	26	104	0	60	83491
2026-01-05 03:56:09.48	211.99	0.64	-49.0	-66.8	3.5	3.02e+01	0	26	104	0	60	84257
2026-01-05 03:56:10.49	212.07	0.69	-48.8	-66.8	3.5	3.02e+01	0	26	104	0	60	83789
2026-01-05 03:56:11.50	212.14	0.75	-48.6	-66.8	3.5	3.02e+01	0	26	104	0	60	83982
2026-01-05 03:56:12.51	212.22	0.80	-48.6	-66.7	3.5	3.02e+01	0	26	104	0	60	82942
2026-01-05 03:56:13.52	212.30	0.86	-48.3	-66.5	3.5	3.02e+01	0	26	104	0	60	81695
2026-01-05 03:56:14.53	212.38	0.91	-48.2	-66.3	3.5	3.02e+01	0	26	104	0	60	79457
2026-01-05 03:56:15.54	212.46	0.97	-48.1	-66.1	3.5	3.02e+01	0	26	104	0	60	77351
2026-01-05 03:56:16.55	212.54	1.02	-47.5	-65.4	3.5	3.02e+01	0	26	104	0	60	71998
2026-01-05 03:56:17.56	212.62	1.08	-47.5	-65.3	3.5	3.02e+01	0	26	104	0	60	71022
2026-01-05 03:56:18.57	212.70	1.13	-47.5	-65.2	3.5	3.02e+01	0	26	104	0	60	70296
2026-01-05 03:56:19.58	212.78	1.19	-47.5	-65.2	3.5	3.02e+01	0	26	104	0	60	70284
2026-01-05 03:56:20.60	212.86	1.24	-47.6	-65.3	3.5	3.02e+01	0	26	104	0	60	70507
2026-01-05 03:56:21.61	212.94	1.30	-47.7	-65.5	3.5	3.02e+01	0	26	104	0	60	72696
2026-01-05 03:56:22.61	213.02	1.35	-47.6	-65.5	3.5	3.02e+01	0	26	104	0	60	72287
2026-01-05 03:56:23.63	213.11	1.41	-47.7	-65.7	3.5	3.02e+01	0	26	104	0	60	74031
2026-01-05 03:56:24.63	213.19	1.46	-48.2	-66.0	3.5	3.02e+01	0	26	104	0	60	76870
2026-01-05 03:56:25.64	213.27	1.52	-47.9	-65.6	3.5	3.02e+01	0	26	104	0	60	73346
2026-01-05 03:56:26.65	213.35	1.57	-47.7	-65.4	3.5	3.02e+01	0	26	104	0	60	72022
2026-01-05 03:56:27.66	213.44	1.63	-47.7	-65.5	3.5	3.02e+01	0	26	104	0	60	72839
2026-01-05 03:56:28.67	213.52	1.69	-47.9	-65.7	3.5	3.02e+01	0	26	104	0	60	73806
2026-01-05 03:56:29.68	213.60	1.74	-47.9	-65.6	3.5	3.02e+01	0	26	104	0	60	73044
2026-01-05 03:56:30.69	213.69	1.80	-48.1	-65.9	3.5	3.02e+01	0	26	104	0	60	75813
2026-01-05 03:56:31.70	213.77	1.85	-48.1	-65.9	3.5	3.02e+01	0	26	104	0	60	75900
2026-01-05 03:56:32.71	213.86	1.91	-47.8	-65.8	3.5	3.02e+01	0	26	104	0	60	75021
2026-01-05 03:56:33.72	213.94	1.97	-47.7	-65.5	3.5	3.02e+01	0	26	104	0	60	72080
2026-01-05 03:56:34.73	214.03	2.02	-47.8	-65.5	3.5	3.02e+01	0	26	104	0	60	72348
2026-01-05 03:56:35.74	214.12	2.08	-47.8	-65.6	3.5	3.02e+01	0	26	104	0	60	73170
2026-01-05 03:56:36.75	214.20	2.13	-47.7	-65.4	3.5	3.02e+01	0	26	104	0	60	71818
2026-01-05 03:56:37.76	214.29	2.19	-47.6	-65.4	3.5	3.02e+01	0	26	104	0	60	71935
2026-01-05 03:56:38.77	214.37	2.25	-47.6	-65.4	3.5	3.02e+01	0	26	104	0	60	71488
2026-01-05 03:56:39.78	214.46	2.30	-47.6	-65.3	3.5	3.02e+01	0	26	104	0	60	70511
2026-01-05 03:56:40.79	214.55	2.36	-47.6	-65.3	3.5	3.02e+01	0	26	104	0	60	71017
2026-01-05 03:56:41.80	214.64	2.42	-47.6	-65.3	3.5	3.02e+01	0	26	104	0	60	70683
2026-01-05 03:56:42.81	214.73	2.47	-47.6	-65.1	3.5	3.02e+01	0	26	104	0	60	69069
2026-01-05 03:56:43.81	214.81	2.53	-47.6	-64.8	3.5	3.02e+01	0	26	104	0	60	66832
2026-01-05 03:56:44.82	214.90	2.59	-47.5	-64.5	3.5	3.02e+01	0	26	104	0	60	64919
2026-01-05 03:56:45.83	214.99	2.64	-47.4	-64.8	3.5	3.02e+01	0	26	104	0	60	66671
2026-01-05 03:56:46.84	215.08	2.70	-47.5	-64.3	3.5	3.02e+01	0	26	104	0	60	63289
2026-01-05 03:56:47.85	215.17	2.76	-47.4	-63.4	3.6	3.02e+01	0	26	104	0	60	56645
2026-01-05 03:56:48.86	215.26	2.82	-47.4	-61.7	4.4	3.02e+01	0	26	104	0	60	46738
2026-01-05 03:56:49.87	215.35	2.87	-47.3	-61.2	3.8	3.02e+01	0	26	104	0	60	44360
2026-01-05 03:56:50.88	215.44	2.93	-47.4	-62.1	3.8	3.02e+01	0	26	104	0	60	48984
2026-01-05 03:56:51.89	215.54	2.99	-47.6	-63.1	3.8	3.02e+01	0	26	104	0	60	54815
2026-01-05 03:56:52.90	215.63	3.04	-47.3	-57.2	9.3	3.02e+01	0	26	104	0	60	27975
2026-01-05 03:56:53.91	215.72	3.10	-45.4	-50.0	15.1	3.02e+01	0	26	0	524288	60	12239
2026-01-05 03:56:54.92	215.81	3.16	-44.8	-48.8	16.4	3.02e+01	0	26	0	2097152	60	10587
2026-01-05 03:56:55.93	215.91	3.22	-43.9	-47.1	18.3	3.02e+01	0	26	0	4194304	60	8686
2026-01-05 03:56:56.94	216.00	3.28	-43.3	-46.2	18.1	3.02e+01	0	26	0	6291456	58	8837
2026-01-05 03:56:57.95	216.09	3.33	-42.4	-44.8	14.3	3.02e+01	0	26	0	7864320	56	8383
2026-01-05 03:56:58.96	216.19	3.39	-45.4	-50.7	13.5	3.02e+01	0	26	104	8388608	60	13176
2026-01-05 03:56:59.97	216.28	3.45	-44.4	-48.2	16.6	3.02e+01	0	26	0	9437184	60	9878
2026-01-05 03:57:00.98	216.38	3.51	-47.5	-59.1	3.8	3.02e+01	55	26	104	11010048	60	34729
2026-01-05 03:57:01.99	216.47	3.57	-38.7	-40.6	23.9	3.02e+01	0	26	104	11010048	56	5186
2026-01-05 03:57:03.00	216.57	3.62	-39.4	-41.1	24.0	3.02e+01	0	26	0	12582912	52	6942
2026-01-05 03:57:04.01	216.67	3.68	-39.5	-41.2	24.0	3.02e+01	0	26	0	14680064	54	6267
2026-01-05 03:57:05.02	216.76	3.74	-39.2	-40.9	24.2	3.02e+01	0	26	0	16252928	54	6011
2026-01-05 03:57:06.03	216.86	3.80	-39.1	-40.7	24.7	3.02e+01	0	26	0	18350080	52	6624
2026-01-05 03:57:07.04	216.96	3.86	-39.2	-40.8	24.5	3.02e+01	0	26	0	19922944	52	6693
2026-01-05 03:57:08.05	217.05	3.92	-39.2	-40.9	24.0	3.02e+01	0	26	0	22020096	52	6733
2026-01-05 03:57:09.06	217.15	3.98	-39.8	-41.5	23.8	3.02e+01	0	26	0	24117248	54	6486
2026-01-05 03:57:10.07	217.25	4.03	-38.7	-40.3	24.9	3.02e+01	0	26	0	25690112	52	6298
2026-01-05 03:57:11.07	217.35	4.09	-39.1	-40.8	24.6	3.02e+01	0	26	0	27787264	52	6651
2026-01-05 03:57:12.08	217.45	4.15	-39.2	-40.9	24.3	3.02e+01	0	26	0	29884416	52	6733
2026-01-05 03:57:13.09	217.55	4.21	-39.1	-40.7	24.5	3.02e+01	0	26	0	31457280	52	6625
2026-01-05 03:57:14.10	217.65	4.27	-39.7	-41.4	24.2	3.02e+01	0	26	0	33554432	54	6412
2026-01-05 03:57:15.11	217.75	4.33	-38.9	-40.6	24.9	3.02e+01	0	26	0	35127296	52	6499
2026-01-05 03:57:16.12	217.85	4.39	-38.6	-40.2	25.0	3.02e+01	0	26	0	37224448	52	6236
2026-01-05 03:57:17.13	217.95	4.45	-38.4	-39.9	25.3	3.02e+01	0	26	0	39321600	52	6041
2026-01-05 03:57:18.14	218.06	4.51	-38.1	-39.6	25.5	3.02e+01	0	26	0	40894464	52	5820
2026-01-05 03:57:19.15	218.16	4.57	-38.1	-39.5	25.7	3.02e+01	0	26	0	42991616	52	5774
2026-01-05 03:57:20.16	218.26	4.63	-38.0	-39.5	25.8	3.02e+01	0	26	0	45088768	50	6481
2026-01-05 03:57:21.17	218.36	4.69	-38.0	-39.6	25.6	3.02e+01	0	26	0	46661632	50	6541
2026-01-05 03:57:22.18	218.47	4.75	-38.0	-39.6	25.7	3.02e+01	0	26	0	48758784	50	6540
2026-01-05 03:57:23.19	218.57	4.81	-38.4	-39.9	25.2	3.02e+01	0	26	0	50331648	50	6799
2026-01-05 03:57:24.20	218.68	4.87	-38.1	-39.6	25.5	3.02e+01	0	26	0	52428800	50	6541
2026-01-05 03:57:25.21	218.78	4.93	-39.0	-40.7	23.8	3.02e+01	0	26	0	54525952	50	7389
2026-01-05 03:57:26.22	218.89	4.99	-38.1	-39.5	25.6	3.02e+01	0	26	0	56098816	50	6493
2026-01-05 03:57:27.22	218.99	5.05	-38.4	-39.8	25.8	3.02e+01	0	26	0	58195968	50	6696
2026-01-05 03:57:28.23	219.10	5.11	-38.2	-39.7	26.0	3.02e+01	0	26	0	59768832	50	6589
2026-01-05 03:57:29.24	219.21	5.17	-38.4	-39.9	25.9	3.02e+01	0	26	0	61865984	50	6732
2026-01-05 03:57:30.25	219.31	5.23	-37.7	-39.1	26.1	3.02e+01	0	26	0	63963136	50	6174
2026-01-05 03:57:31.26	219.42	5.29	-37.8	-39.3	26.1	3.02e+01	0	26	0	65536000	50	6291
2026-01-05 03:57:32.27	219.53	5.35	-38.2	-39.7	25.5	3.02e+01	0	26	0	67633152	50	6643
2026-01-05 03:57:33.28	219.64	5.41	-38.0	-39.5	26.0	3.02e+01	0	26	0	69206016	50	6476
2026-01-05 03:57:34.29	219.75	5.47	-37.8	-39.2	26.1	3.02e+01	0	26	0	71303168	50	6249
2026-01-05 03:57:35.30	219.86	5.53	-37.7	-39.2	26.1	3.02e+01	0	26	0	73400320	50	6260
2026-01-05 03:57:36.31	219.97	5.59	-37.6	-39.0	26.0	3.02e+01	0	26	0	74973184	50	6123
2026-01-05 03:57:37.32	220.08	5.65	-37.8	-39.3	26.0	3.02e+01	0	26	0	77070336	50	6306
2026-01-05 03:57:38.33	220.19	5.71	-37.9	-39.4	25.9	3.02e+01	0	26	0	78643200	50	6369
2026-01-05 03:57:39.34	220.30	5.77	-38.0	-39.5	25.7	3.02e+01	0	26	0	80740352	50	6439
2026-01-05 03:57:40.35	220.42	5.83	-38.2	-39.7	25.8	3.02e+01	0	26	0	82837504	50	6648
2026-01-05 03:57:41.36	220.53	5.90	-37.6	-39.1	26.3	3.02e+01	0	26	0	84410368	50	6142
2026-01-05 03:57:42.37	220.64	5.96	-38.2	-39.7	26.0	3.02e+01	0	26	0	86507520	50	6647
2026-01-05 03:57:43.38	220.76	6.02	-38.1	-39.6	26.1	3.02e+01	0	26	0	88080384	50	6564
2026-01-05 03:57:44.39	220.87	6.08	-37.7	-39.2	26.1	3.02e+01	0	26	0	90177536	50	6267
2026-01-05 03:57:45.40	220.99	6.14	-37.7	-39.3	26.3	3.02e+01	0	26	0	92274688	50	6325
2026-01-05 03:57:46.41	221.10	6.20	-37.8	-39.4	26.1	3.02e+01	0	26	0	93847552	50	6391
2026-01-05 03:57:47.41	221.22	6.26	-37.7	-39.2	26.3	3.02e+01	0	26	0	95944704	50	6217
2026-01-05 03:57:48.42	221.33	6.33	-37.7	-39.1	26.3	3.02e+01	0	26	0	98041856	50	6188
2026-01-05 03:57:49.43	221.45	6.39	-37.7	-39.2	26.2	3.02e+01	0	26	0	99614720	50	6248
2026-01-05 03:57:50.44	221.57	6.45	-38.1	-39.6	26.0	3.02e+01	0	26	0	101711872	50	6501
2026-01-05 03:57:51.45	221.68	6.51	-37.9	-39.5	26.2	3.02e+01	0	26	0	103284736	50	6426
2026-01-05 03:57:52.46	221.80	6.57	-38.3	-39.9	25.8	3.02e+01	0	26	0	105381888	50	6798
2026-01-05 03:57:53.47	221.92	6.64	-38.2	-40.0	25.9	3.02e+01	0	26	0	107479040	50	6840
2026-01-05 03:57:54.48	222.04	6.70	-37.7	-39.4	25.9	3.02e+01	0	26	0	109051904	50	6385
2026-01-05 03:57:55.49	222.16	6.76	-38.2	-39.8	26.1	3.02e+01	0	26	0	111149056	50	6702
2026-01-05 03:57:56.50	222.28	6.82	-37.9	-39.6	26.2	3.02e+01	0	26	0	112721920	50	6528
2026-01-05 03:57:57.51	222.40	6.88	-37.9	-39.6	25.9	3.02e+01	0	26	0	114819072	50	6549
2026-01-05 03:57:58.52	222.52	6.95	-38.0	-39.9	25.8	3.02e+01	0	26	0	116916224	50	6731
2026-01-05 03:57:59.53	222.65	7.01	-37.8	-39.7	25.8	3.02e+01	0	26	0	118489088	50	6603
2026-01-05 03:58:00.54	222.77	7.07	-37.8	-39.7	25.7	3.02e+01	0	26	0	120586240	50	6626
2026-01-05 03:58:01.55	222.89	7.13	-37.5	-39.4	25.6	3.02e+01	0	26	0	122159104	50	6380
2026-01-05 03:58:02.56	223.02	7.20	-38.0	-39.9	25.7	3.02e+01	0	26	0	124256256	50	6765
2026-01-05 03:58:03.57	223.14	7.26	-37.7	-39.7	26.0	3.02e+01	0	26	0	126353408	50	6578
2026-01-05 03:58:04.58	223.27	7.32	-37.8	-39.6	26.1	3.02e+01	0	26	0	127926272	50	6558
2026-01-05 03:58:05.59	223.39	7.39	-37.8	-39.5	26.2	3.02e+01	0	26	0	130023424	50	6439
2026-01-05 03:58:06.59	223.52	7.45	-38.2	-39.9	25.9	3.02e+01	0	26	0	131596288	50	6781
2026-01-05 03:58:07.61	223.64	7.51	-38.2	-39.8	25.9	3.02e+01	0	26	0	133693440	50	6711
2026-01-05 03:58:08.62	223.77	7.57	-38.0	-39.5	26.0	3.02e+01	0	26	0	135790592	50	6497
2026-01-05 03:58:09.63	223.90	7.64	-38.2	-39.9	25.9	3.02e+01	0	26	0	137363456	50	6752
2026-01-05 03:58:10.63	224.03	7.70	-38.4	-40.1	25.9	3.02e+01	0	26	0	139460608	50	6885
2026-01-05 03:58:11.65	224.16	7.76	-38.3	-40.0	25.9	3.02e+01	0	26	0	141557760	50	6879
2026-01-05 03:58:12.65	224.29	7.83	-38.1	-39.7	26.1	3.02e+01	0	26	0	143130624	50	6637
2026-01-05 03:58:13.66	224.42	7.89	-38.1	-39.8	26.0	3.02e+01	0	26	0	145227776	50	6691
2026-01-05 03:58:14.67	224.55	7.95	-37.9	-39.7	25.9	3.02e+01	0	26	0	146800640	50	6622
2026-01-05 03:58:15.68	224.68	8.02	-38.5	-40.2	25.7	3.02e+01	0	26	0	148897792	50	7038
2026-01-05 03:58:16.69	224.81	8.08	-38.4	-40.1	25.7	3.02e+01	0	26	0	150994944	50	6953
2026-01-05 03:58:17.70	224.94	8.14	-38.2	-39.9	25.8	3.02e+01	0	26	0	152567808	50	6763
2026-01-05 03:58:18.71	225.08	8.21	-38.2	-40.0	25.6	3.02e+01	0	26	0	154664960	50	6818
2026-01-05 03:58:19.72	225.21	8.27	-38.0	-39.7	25.9	3.02e+01	0	26	0	156237824	50	6649
2026-01-05 03:58:20.73	225.34	8.34	-37.9	-39.7	25.8	3.02e+01	0	26	0	158334976	50	6618
2026-01-05 03:58:21.74	225.48	8.40	-37.9	-39.8	25.9	3.02e+01	0	26	0	160432128	50	6678
2026-01-05 03:58:22.75	225.61	8.46	-38.2	-39.9	25.9	3.02e+01	0	26	0	162004992	50	6802
2026-01-05 03:58:23.76	225.75	8.53	-38.1	-39.9	25.7	3.02e+01	0	26	0	164102144	50	6759
2026-01-05 03:58:24.77	225.89	8.59	-38.5	-40.3	25.5	3.02e+01	0	26	0	166199296	50	7085
2026-01-05 03:58:25.78	226.03	8.65	-38.8	-40.5	25.5	3.02e+01	0	26	0	167772160	50	7262
2026-01-05 03:58:26.79	226.16	8.72	-38.6	-40.2	25.9	3.02e+01	0	26	0	169869312	52	6265
2026-01-05 03:58:27.80	226.30	8.78	-38.8	-40.4	25.7	3.02e+01	0	26	0	171442176	52	6420
2026-01-05 03:58:28.81	226.44	8.85	-38.7	-40.2	25.7	3.02e+01	0	26	0	173539328	52	6277
2026-01-05 03:58:29.82	226.58	8.91	-39.3	-40.8	25.5	3.02e+01	0	26	0	175636480	52	6685
2026-01-05 03:58:30.83	226.72	8.98	-38.8	-40.3	25.8	3.02e+01	0	26	0	177209344	52	6306
2026-01-05 03:58:31.84	226.86	9.04	-38.5	-40.0	25.8	3.02e+01	0	26	0	179306496	52	6116
2026-01-05 03:58:32.85	227.01	9.10	-38.7	-40.3	25.7	3.02e+01	0	26	0	180879360	52	6304
2026-01-05 03:58:33.85	227.15	9.17	-38.5	-40.1	25.8	3.02e+01	0	26	0	182976512	52	6195
2026-01-05 03:58:34.87	227.29	9.23	-38.4	-40.1	25.7	3.02e+01	0	26	0	185073664	52	6190
2026-01-05 03:58:35.88	227.44	9.30	-38.2	-39.9	25.7	3.02e+01	0	26	0	186646528	52	6005
2026-01-05 03:58:36.88	227.58	9.36	-38.2	-39.8	25.6	3.02e+01	0	26	0	188743680	52	5986
2026-01-05 03:58:37.89	227.72	9.43	-38.4	-40.0	25.7	3.02e+01	0	26	0	190316544	52	6086
2026-01-05 03:58:38.90	227.87	9.49	-38.6	-40.2	25.4	3.02e+01	0	26	0	192413696	52	6226
2026-01-05 03:58:39.91	228.02	9.55	-39.0	-40.5	25.3	3.02e+01	0	26	0	194510848	52	6477
2026-01-05 03:58:40.92	228.17	9.62	-38.7	-40.2	25.6	3.02e+01	0	26	0	196083712	52	6254
2026-01-05 03:58:41.93	228.31	9.68	-38.8	-40.4	25.4	3.02e+01	0	26	0	198180864	52	6352
2026-01-05 03:58:42.94	228.46	9.75	-38.8	-40.4	25.2	3.02e+01	0	26	0	199753728	52	6359
2026-01-05 03:58:43.95	228.61	9.81	-38.9	-40.5	25.0	3.02e+01	0	26	0	201850880	52	6496
2026-01-05 03:58:44.96	228.76	9.88	-39.2	-40.7	25.2	3.02e+01	0	26	0	203948032	52	6630
2026-01-05 03:58:45.97	228.91	9.94	-39.3	-40.9	24.9	3.02e+01	0	26	0	205520896	52	6755
2026-01-05 03:58:46.98	229.06	10.01	-39.2	-40.8	25.2	3.02e+01	0	26	0	207618048	52	6666
2026-01-05 03:58:47.99	229.22	10.07	-39.2	-40.7	25.0	3.02e+01	0	26	0	209715200	52	6611
2026-01-05 03:58:49.00	229.37	10.14	-39.2	-40.8	25.3	3.02e+01	0	26	0	211288064	52	6668
2026-01-05 03:58:50.01	229.52	10.20	-39.1	-40.7	25.0	3.02e+01	0	26	0	213385216	52	6630
2026-01-05 03:58:51.02	229.68	10.27	-38.8	-40.4	25.2	3.02e+01	0	26	0	214958080	52	6398
2026-01-05 03:58:52.03	229.83	10.33	-39.1	-40.6	25.1	3.02e+01	0	26	0	217055232	52	6571
2026-01-05 03:58:53.04	229.99	10.40	-38.5	-40.0	25.4	3.02e+01	0	26	0	219152384	52	6106
2026-01-05 03:58:54.04	230.14	10.46	-38.6	-40.1	25.4	3.02e+01	0	26	0	220725248	52	6179
2026-01-05 03:58:55.05	230.30	10.53	-38.3	-39.9	25.8	3.02e+01	0	26	0	222822400	52	6029
2026-01-05 03:58:56.06	230.46	10.59	-38.1	-39.6	25.9	3.02e+01	0	26	0	224395264	52	5809
2026-01-05 03:58:57.07	230.62	10.66	-38.3	-39.8	25.9	3.02e+01	0	26	0	226492416	52	5968
2026-01-05 03:58:58.08	230.78	10.72	-38.3	-39.8	25.9	3.02e+01	0	26	0	228589568	52	5981
2026-01-05 03:58:59.09	230.94	10.79	-38.2	-39.8	25.8	3.02e+01	0	26	0	230162432	52	5959
2026-01-05 03:59:00.10	231.10	10.85	-38.8	-40.4	25.5	3.02e+01	0	26	0	232259584	52	6357
2026-01-05 03:59:01.11	231.26	10.92	-39.2	-40.8	25.5	3.02e+01	0	26	0	234356736	52	6664
2026-01-05 03:59:02.12	231.42	10.98	-39.3	-40.8	25.4	3.02e+01	0	26	0	235929600	52	6726
2026-01-05 03:59:03.13	231.59	11.05	-39.4	-40.9	25.0	3.02e+01	0	26	0	238026752	52	6774
2026-01-05 03:59:04.14	231.75	11.11	-39.3	-40.9	24.8	3.02e+01	0	26	0	239599616	52	6730
2026-01-05 03:59:05.15	231.91	11.18	-38.8	-40.3	25.7	3.02e+01	0	26	0	241696768	52	6297
2026-01-05 03:59:06.16	232.08	11.24	-38.7	-40.2	25.8	3.02e+01	0	26	0	243793920	52	6237
2026-01-05 03:59:07.17	232.25	11.30	-38.9	-40.5	25.6	3.02e+01	0	26	0	245366784	52	6426
2026-01-05 03:59:08.18	232.41	11.37	-39.0	-40.6	25.1	3.02e+01	0	26	0	247463936	52	6511
2026-01-05 03:59:09.19	232.58	11.43	-38.6	-40.1	25.6	3.02e+01	0	26	0	249036800	52	6189
2026-01-05 03:59:10.20	232.75	11.50	-38.3	-39.8	26.0	3.02e+01	0	26	0	251133952	52	5961
2026-01-05 03:59:11.21	232.92	11.56	-38.3	-39.8	25.9	3.02e+01	0	26	0	253231104	52	5955
2026-01-05 03:59:12.22	233.09	11.63	-38.4	-39.8	25.9	3.02e+01	0	26	0	254803968	52	5992
2026-01-05 03:59:13.22	233.26	11.69	-38.0	-39.4	26.1	3.02e+01	0	26	0	256901120	50	6398
2026-01-05 03:59:14.24	233.43	11.76	-38.0	-39.5	26.1	3.02e+01	0	26	0	258473984	50	6458
2026-01-05 03:59:15.25	233.60	11.82	-37.9	-39.3	26.3	3.02e+01	0	26	0	260571136	50	6325
2026-01-05 03:59:16.26	233.78	11.89	-37.8	-39.3	26.3	3.02e+01	0	26	0	262668288	50	6292
2026-01-05 03:59:17.26	233.95	11.95	-38.0	-39.4	26.4	3.02e+01	0	26	0	264241152	50	6418
2026-01-05 03:59:18.27	234.12	12.02	-38.1	-39.5	26.5	3.02e+01	0	26	0	266338304	50	6456
2026-01-05 03:59:19.28	234.30	12.08	-38.4	-39.9	26.1	3.02e+01	0	26	0	267911168	50	6734
2026-01-05 03:59:20.29	234.48	12.15	-39.0	-40.4	26.3	3.02e+01	0	26	0	270008320	50	7166
2026-01-05 03:59:21.30	234.65	12.21	-38.4	-39.8	26.5	3.02e+01	0	26	0	272105472	52	5939
2026-01-05 03:59:22.31	234.83	12.28	-38.2	-39.6	26.6	3.02e+01	0	26	0	273678336	52	5822
2026-01-05 03:59:23.32	235.01	12.34	-38.0	-39.4	26.5	3.02e+01	0	26	0	275775488	50	6389
2026-01-05 03:59:24.33	235.19	12.40	-37.9	-39.3	26.7	3.02e+01	0	26	0	277872640	50	6282
2026-01-05 03:59:25.34	235.37	12.47	-38.0	-39.4	26.6	3.02e+01	0	26	0	279445504	50	6366
2026-01-05 03:59:26.35	235.55	12.53	-37.8	-39.2	26.8	3.02e+01	0	26	0	281542656	50	6254
2026-01-05 03:59:27.36	235.74	12.60	-37.5	-38.9	26.9	3.02e+01	0	26	0	283115520	50	6025
2026-01-05 03:59:28.37	235.92	12.66	-37.6	-39.0	26.8	3.02e+01	0	26	0	285212672	50	6080
2026-01-05 03:59:29.38	236.10	12.72	-37.3	-38.7	27.2	3.02e+01	0	26	0	287309824	50	5864
2026-01-05 03:59:30.39	236.29	12.79	-37.2	-38.5	27.2	3.02e+01	0	26	0	288882688	50	5789
2026-01-05 03:59:31.40	236.47	12.85	-37.2	-38.5	27.0	3.02e+01	0	26	0	290979840	50	5787
2026-01-05 03:59:32.41	236.66	12.92	-37.2	-38.5	27.1	3.02e+01	0	26	0	292552704	50	5779
2026-01-05 03:59:33.42	236.85	12.98	-37.0	-38.4	27.3	3.02e+01	0	26	0	294649856	50	5667
2026-01-05 03:59:34.43	237.03	13.04	-37.1	-38.4	27.2	3.02e+01	0	26	0	296747008	50	5690
2026-01-05 03:59:35.44	237.22	13.11	-36.7	-38.0	27.5	3.02e+01	0	26	0	298319872	48	6082
2026-01-05 03:59:36.45	237.41	13.17	-36.6	-37.9	27.6	3.02e+01	0	26	0	300417024	48	6014
2026-01-05 03:59:37.46	237.60	13.23	-36.4	-37.7	27.7	3.02e+01	0	26	0	302514176	48	5920
2026-01-05 03:59:38.46	237.79	13.30	-36.7	-38.0	27.4	3.02e+01	0	26	0	304087040	48	6119
2026-01-05 03:59:39.47	237.99	13.36	-36.7	-38.1	27.5	3.02e+01	0	26	0	306184192	48	6138
2026-01-05 03:59:40.48	238.18	13.42	-36.5	-37.8	27.7	3.02e+01	0	26	0	307757056	48	5961
2026-01-05 03:59:41.49	238.37	13.49	-36.5	-37.8	27.7	3.02e+01	0	26	0	309854208	48	5940
2026-01-05 03:59:42.50	238.57	13.55	-36.3	-37.6	27.8	3.02e+01	0	26	0	311427072	48	5814
2026-01-05 03:59:43.51	238.76	13.61	-36.1	-37.3	28.0	3.02e+01	0	26	0	313524224	48	5648
2026-01-05 03:59:44.52	238.96	13.68	-36.0	-37.3	27.9	3.02e+01	0	26	0	315621376	48	5642
2026-01-05 03:59:45.53	239.16	13.74	-36.1	-37.4	28.0	3.02e+01	0	26	0	317194240	48	5707
2026-01-05 03:59:46.54	239.36	13.80	-36.0	-37.3	27.9	3.02e+01	0	26	0	319291392	46	6305
2026-01-05 03:59:47.55	239.56	13.86	-36.1	-37.4	28.1	3.02e+01	0	26	0	320864256	46	6361
2026-01-05 03:59:48.56	239.76	13.93	-35.9	-37.2	28.2	3.02e+01	0	26	0	322961408	46	6254
2026-01-05 03:59:49.57	239.96	13.99	-35.7	-37.0	28.5	3.02e+01	0	26	0	325058560	46	6081
2026-01-05 03:59:50.58	240.16	14.05	-35.7	-37.0	28.3	3.02e+01	0	26	0	326631424	46	6068
2026-01-05 03:59:51.59	240.36	14.11	-35.8	-37.0	28.4	3.02e+01	0	26	0	328728576	46	6131
2026-01-05 03:59:52.60	240.56	14.17	-35.5	-36.7	28.6	3.02e+01	0	26	0	330825728	46	5917
2026-01-05 03:59:53.61	240.77	14.23	-35.4	-36.6	28.7	3.02e+01	0	26	0	332398592	46	5834
2026-01-05 03:59:54.62	240.97	14.30	-35.3	-36.5	28.6	3.02e+01	0	26	0	334495744	46	5782
2026-01-05 03:59:55.62	241.18	14.36	-35.2	-36.5	28.9	3.02e+01	0	26	0	336068608	46	5728
2026-01-05 03:59:56.63	241.39	14.42	-35.4	-36.7	28.7	3.02e+01	0	26	0	338165760	46	5865
2026-01-05 03:59:57.64	241.59	14.48	-35.5	-36.8	28.7	3.02e+01	0	26	0	340262912	46	5932
2026-01-05 03:59:58.66	241.80	14.54	-35.5	-36.7	28.7	3.02e+01	0	26	0	341835776	46	5923
2026-01-05 03:59:59.67	242.01	14.60	-35.3	-36.5	28.9	3.02e+01	0	26	0	343932928	46	5762
2026-01-05 04:00:00.68	242.22	14.66	-35.1	-36.4	29.0	3.02e+01	0	26	0	346030080	46	5660
2026-01-05 04:00:01.69	242.44	14.72	-35.0	-36.3	29.1	3.02e+01	0	26	0	347602944	46	5596
2026-01-05 04:00:02.70	242.65	14.78	-35.1	-36.3	29.0	3.02e+01	0	26	0	349700096	46	5645
2026-01-05 04:00:03.71	242.86	14.84	-35.0	-36.2	29.1	3.02e+01	0	26	0	351272960	46	5589
2026-01-05 04:00:04.72	243.08	14.90	-35.2	-36.4	29.0	3.02e+01	0	26	0	353370112	46	5694
2026-01-05 04:00:05.73	243.29	14.96	-35.2	-36.4	29.1	3.02e+01	0	26	0	355467264	46	5668
2026-01-05 04:00:06.74	243.51	15.02	-34.9	-36.2	29.2	3.02e+01	0	26	0	357040128	44	6215
2026-01-05 04:00:07.75	243.72	15.08	-35.0	-36.2	29.2	3.02e+01	0	26	0	359137280	44	6234
2026-01-05 04:00:08.76	243.94	15.14	-35.0	-36.2	29.2	3.02e+01	0	26	0	360710144	44	6276
2026-01-05 04:00:09.77	244.16	15.20	-34.9	-36.1	29.2	3.02e+01	0	26	0	362807296	44	6189
2026-01-05 04:00:10.78	244.38	15.25	-35.3	-36.6	28.9	3.02e+01	0	26	0	364904448	44	6516
2026-01-05 04:00:11.79	244.60	15.31	-35.0	-36.2	29.4	3.02e+01	0	26	0	366477312	44	6261
2026-01-05 04:00:12.80	244.82	15.37	-35.1	-36.3	29.3	3.02e+01	0	26	0	368574464	44	6332
2026-01-05 04:00:13.81	245.04	15.43	-35.2	-36.4	29.2	3.02e+01	0	26	0	370671616	44	6394
2026-01-05 04:00:14.82	245.27	15.49	-35.0	-36.2	29.3	3.02e+01	0	26	0	372244480	44	6235
2026-01-05 04:00:15.83	245.49	15.54	-35.1	-36.3	29.3	3.02e+01	0	26	0	374341632	44	6295
2026-01-05 04:00:16.84	245.72	15.60	-35.2	-36.4	29.3	3.02e+01	0	26	0	375914496	44	6372
2026-01-05 04:00:17.85	245.94	15.66	-35.2	-36.4	29.1	3.02e+01	0	26	0	378011648	44	6388
2026-01-05 04:00:18.86	246.17	15.71	-35.1	-36.3	29.2	3.02e+01	0	26	0	380108800	44	6309
2026-01-05 04:00:19.87	246.40	15.77	-35.0	-36.2	29.2	3.02e+01	0	26	0	381681664	44	6227
2026-01-05 04:00:20.88	246.63	15.82	-35.1	-36.3	29.1	3.02e+01	0	26	0	383778816	44	6335
2026-01-05 04:00:21.88	246.85	15.88	-36.1	-37.4	28.2	3.02e+01	0	26	0	385351680	44	7130
2026-01-05 04:00:22.89	247.08	15.94	-35.2	-36.5	29.1	3.02e+01	0	26	0	387448832	46	5726
2026-01-05 04:00:23.91	247.32	15.99	-35.4	-36.6	28.9	3.02e+01	0	26	0	389545984	46	5842
2026-01-05 04:00:24.91	247.55	16.05	-36.4	-37.7	28.1	3.02e+01	0	26	0	391118848	46	6620
2026-01-05 04:00:25.92	247.78	16.10	-35.8	-37.0	28.8	3.02e+01	0	26	0	393216000	46	6110
2026-01-05 04:00:26.93	248.01	16.15	-35.5	-36.7	29.0	3.02e+01	0	26	0	394788864	46	5906
2026-01-05 04:00:27.94	248.25	16.21	-35.2	-36.4	29.3	3.02e+01	0	26	0	396886016	46	5678
2026-01-05 04:00:28.95	248.48	16.26	-35.4	-36.6	29.0	3.02e+01	0	26	0	398983168	46	5827
2026-01-05 04:00:29.96	248.72	16.32	-35.0	-36.2	29.2	3.02e+01	0	26	0	400556032	46	5594
2026-01-05 04:00:30.97	248.96	16.37	-35.1	-36.3	29.2	3.02e+01	0	26	0	402653184	46	5656
2026-01-05 04:00:31.98	249.19	16.42	-34.9	-36.2	29.4	3.02e+01	0	26	0	404226048	44	6210
2026-01-05 04:00:32.99	249.43	16.47	-34.9	-36.1	29.4	3.02e+01	0	26	0	406323200	44	6175
2026-01-05 04:00:34.00	249.67	16.53	-34.9	-36.1	29.4	3.02e+01	0	26	0	408420352	44	6139
2026-01-05 04:00:35.01	249.91	16.58	-35.1	-36.3	29.2	3.02e+01	0	26	0	409993216	44	6337
2026-01-05 04:00:36.02	250.15	16.63	-35.4	-36.6	28.9	3.02e+01	0	26	0	412090368	44	6535
2026-01-05 04:00:37.03	250.40	16.68	-35.3	-36.5	29.0	3.02e+01	0	26	0	414187520	44	6485
2026-01-05 04:00:38.04	250.64	16.73	-35.9	-37.2	28.6	3.02e+01	0	26	0	415760384	44	6976
2026-01-05 04:00:39.06	250.89	16.78	-35.2	-36.5	29.2	3.02e+01	0	26	0	417857536	44	6427
2026-01-05 04:00:40.06	251.13	16.83	-35.1	-36.3	29.3	3.02e+01	0	26	0	419430400	44	6284
2026-01-05 04:00:41.08	251.38	16.88	-34.8	-36.0	29.4	3.02e+01	0	26	0	421527552	44	6093
2026-01-05 04:00:42.09	251.62	16.93	-35.0	-36.2	29.1	3.02e+01	0	26	0	423624704	44	6249
2026-01-05 04:00:43.09	251.87	16.98	-35.1	-36.3	29.3	3.02e+01	0	26	0	425197568	44	6316
2026-01-05 04:00:44.10	252.12	17.03	-35.6	-36.8	29.0	3.02e+01	0	26	0	427294720	44	6686
2026-01-05 04:00:45.11	252.37	17.07	-35.3	-36.5	29.1	3.02e+01	0	26	0	428867584	44	6484
2026-01-05 04:00:46.12	252.62	17.12	-35.5	-36.7	29.2	3.02e+01	0	26	0	430964736	46	5883
2026-01-05 04:00:47.13	252.87	17.17	-35.5	-36.7	29.2	3.02e+01	0	26	0	433061888	46	5875
2026-01-05 04:00:48.14	253.12	17.22	-35.1	-36.3	29.4	3.02e+01	0	26	0	434634752	46	5626
2026-01-05 04:00:49.15	253.37	17.26	-35.1	-36.3	29.4	3.02e+01	0	26	0	436731904	46	5656
2026-01-05 04:00:50.16	253.62	17.31	-35.4	-36.7	29.2	3.02e+01	0	26	0	438829056	46	5868
2026-01-05 04:00:51.17	253.88	17.35	-35.2	-36.4	29.2	3.02e+01	0	26	0	440401920	46	5721
2026-01-05 04:00:52.18	254.13	17.40	-35.4	-36.6	29.1	3.02e+01	0	26	0	442499072	46	5854
2026-01-05 04:00:53.19	254.39	17.44	-35.0	-36.2	29.4	3.02e+01	0	26	0	444071936	46	5583
2026-01-05 04:00:54.20	254.64	17.49	-35.2	-36.4	29.4	3.02e+01	0	26	0	446169088	46	5686
2026-01-05 04:00:55.21	254.90	17.53	-35.1	-36.3	29.3	3.02e+01	0	26	0	448266240	46	5633
2026-01-05 04:00:56.22	255.16	17.58	-35.4	-36.6	29.2	3.02e+01	0	26	0	449839104	46	5822
2026-01-05 04:00:57.23	255.42	17.62	-35.3	-36.5	29.1	3.02e+01	0	26	0	451936256	46	5772
2026-01-05 04:00:58.24	255.68	17.66	-35.5	-36.7	28.9	3.02e+01	0	26	0	453509120	46	5908
2026-01-05 04:00:59.25	255.94	17.70	-35.6	-36.8	28.7	3.02e+01	0	26	0	455606272	46	5957
2026-01-05 04:01:00.26	256.20	17.75	-36.1	-37.4	28.2	3.02e+01	0	26	0	457703424	46	6375
2026-01-05 04:01:01.27	256.46	17.79	-35.9	-37.1	29.0	3.02e+01	0	26	0	459276288	46	6159
2026-01-05 04:01:02.28	256.72	17.83	-35.8	-37.0	29.0	3.02e+01	0	26	0	461373440	46	6096
2026-01-05 04:01:03.29	256.98	17.87	-36.3	-37.5	28.6	3.02e+01	0	26	0	462946304	46	6469
2026-01-05 04:01:04.30	257.25	17.91	-35.9	-37.1	28.8	3.02e+01	0	26	0	465043456	46	6201
2026-01-05 04:01:05.30	257.51	17.95	-35.3	-36.5	29.2	3.02e+01	0	26	0	467140608	46	5751
2026-01-05 04:01:06.31	257.77	17.98	-35.2	-36.4	29.2	3.02e+01	0	26	0	468713472	46	5711
2026-01-05 04:01:07.32	258.04	18.02	-35.3	-36.5	29.1	3.02e+01	0	26	0	470810624	46	5750
2026-01-05 04:01:08.33	258.31	18.06	-35.3	-36.5	29.1	3.02e+01	0	26	0	472383488	46	5777
2026-01-05 04:01:09.34	258.57	18.10	-35.6	-36.8	28.8	3.02e+01	0	26	0	474480640	46	5994
2026-01-05 04:01:10.35	258.84	18.13	-35.8	-37.1	28.8	3.02e+01	0	26	0	476577792	46	6135
2026-01-05 04:01:11.35	259.11	18.17	-35.2	-36.5	29.2	3.02e+01	0	26	0	478150656	46	5736
2026-01-05 04:01:12.36	259.38	18.21	-35.7	-36.9	29.0	3.02e+01	0	26	0	480247808	46	6047
2026-01-05 04:01:13.37	259.65	18.24	-35.6	-36.9	28.9	3.02e+01	0	26	0	482344960	46	6005
2026-01-05 04:01:14.38	259.92	18.27	-35.1	-36.3	29.2	3.02e+01	0	26	0	483917824	46	5648
2026-01-05 04:01:15.39	260.19	18.31	-35.2	-36.4	29.2	3.02e+01	0	26	0	486014976	46	5666
2026-01-05 04:01:16.40	260.46	18.34	-35.0	-36.2	29.4	3.02e+01	0	26	0	487587840	46	5581
2026-01-05 04:01:17.41	260.73	18.37	-34.9	-36.1	29.3	3.02e+01	0	26	0	489684992	44	6167
2026-01-05 04:01:18.42	261.00	18.41	-34.9	-36.1	29.4	3.02e+01	0	26	0	491782144	44	6200
2026-01-05 04:01:19.43	261.28	18.44	-35.1	-36.3	29.4	3.02e+01	0	26	0	493355008	44	6313
2026-01-05 04:01:20.44	261.55	18.47	-35.1	-36.3	29.3	3.02e+01	0	26	0	495452160	44	6308
2026-01-05 04:01:21.45	261.83	18.50	-35.3	-36.6	29.2	3.02e+01	0	26	0	497025024	44	6507
2026-01-05 04:01:22.46	262.10	18.53	-34.9	-36.1	29.4	3.02e+01	0	26	0	499122176	44	6141
2026-01-05 04:01:23.47	262.38	18.56	-34.9	-36.1	29.4	3.02e+01	0	26	0	501219328	44	6170
2026-01-05 04:01:24.48	262.65	18.59	-35.5	-36.8	28.1	3.02e+01	0	26	0	502792192	44	6657
2026-01-05 04:01:25.49	262.93	18.62	-36.4	-37.7	28.6	3.02e+01	0	26	0	504889344	46	6623
2026-01-05 04:01:26.50	263.21	18.64	-36.0	-37.3	28.4	3.02e+01	0	26	0	506462208	46	6289
2026-01-05 04:01:27.51	263.48	18.67	-36.0	-37.3	28.6	3.02e+01	0	26	0	508559360	46	6317
2026-01-05 04:01:28.52	263.76	18.70	-35.8	-37.0	29.1	3.02e+01	0	26	0	510656512	46	6091
2026-01-05 04:01:29.53	264.04	18.72	-35.6	-36.8	29.1	3.02e+01	0	26	0	512229376	46	5985
2026-01-05 04:01:30.54	264.32	18.75	-36.1	-37.4	28.6	3.02e+01	0	26	0	514326528	46	6381
2026-01-05 04:01:31.55	264.60	18.77	-35.4	-36.6	29.2	3.02e+01	0	26	0	515899392	46	5845
2026-01-05 04:01:32.56	264.88	18.80	-35.5	-36.7	29.3	3.02e+01	0	26	0	517996544	46	5923
2026-01-05 04:01:33.57	265.16	18.82	-35.2	-36.4	29.2	3.02e+01	0	26	0	520093696	46	5717
2026-01-05 04:01:34.57	265.44	18.84	-35.2	-36.4	29.4	3.02e+01	0	26	0	521666560	46	5690
2026-01-05 04:01:35.58	265.72	18.87	-35.1	-36.3	29.4	3.02e+01	0	26	0	523763712	46	5628
2026-01-05 04:01:36.59	266.00	18.89	-35.5	-36.7	28.9	3.02e+01	0	26	0	525336576	46	5899
2026-01-05 04:01:37.61	266.29	18.91	-35.9	-37.1	28.9	3.02e+01	0	26	0	527433728	46	6205
2026-01-05 04:01:38.62	266.57	18.93	-35.3	-36.5	29.2	3.02e+01	0	26	0	529530880	46	5767
2026-01-05 04:01:39.62	266.85	18.95	-35.3	-36.5	29.3	3.02e+01	0	26	0	531103744	46	5755
2026-01-05 04:01:40.63	267.13	18.97	-35.7	-36.9	29.2	3.02e+01	0	26	0	533200896	46	6001
2026-01-05 04:01:41.64	267.42	18.99	-35.6	-36.8	28.9	3.02e+01	0	26	0	535298048	46	5974
2026-01-05 04:01:42.65	267.70	19.00	-36.4	-37.6	28.4	3.02e+01	0	26	0	536870912	46	6561
2026-01-05 04:01:43.66	267.99	19.02	-36.5	-37.8	28.1	3.02e+01	0	26	0	538968064	46	6686
2026-01-05 04:01:44.67	268.27	19.04	-35.9	-37.1	28.9	3.02e+01	0	26	0	540540928	46	6182
2026-01-05 04:01:45.68	268.56	19.05	-35.9	-37.1	28.8	3.02e+01	0	26	0	542638080	46	6180
2026-01-05 04:01:46.69	268.84	19.07	-35.7	-36.9	28.8	3.02e+01	0	26	0	544735232	46	6034
2026-01-05 04:01:47.70	269.13	19.08	-35.6	-36.9	29.0	3.02e+01	0	26	0	546308096	46	6002
2026-01-05 04:01:48.71	269.41	19.10	-35.5	-36.7	28.9	3.02e+01	0	26	0	548405248	46	5891
2026-01-05 04:01:49.71	269.70	19.11	-36.4	-37.6	29.2	3.02e+01	0	26	0	550502400	46	6531
2026-01-05 04:01:50.72	269.98	19.12	-36.3	-37.5	28.6	3.02e+01	0	26	0	552075264	46	6443
2026-01-05 04:01:51.73	270.27	19.13	-36.0	-37.3	29.0	3.02e+01	0	26	0	554172416	46	6292
2026-01-05 04:01:52.74	270.56	19.15	-35.5	-36.7	29.1	3.02e+01	0	26	0	555745280	46	5874
2026-01-05 04:01:53.76	270.85	19.16	-35.7	-36.9	29.0	3.02e+01	0	26	0	557842432	46	6007
2026-01-05 04:01:54.76	271.13	19.17	-35.3	-36.5	29.4	3.02e+01	0	26	0	559939584	46	5727
2026-01-05 04:01:55.77	271.42	19.17	-35.2	-36.4	29.3	3.02e+01	0	26	0	561512448	46	5697
2026-01-05 04:01:56.78	271.70	19.18	-35.1	-36.3	29.4	3.02e+01	0	26	0	563609600	46	5620
2026-01-05 04:01:57.79	271.99	19.19	-35.4	-36.6	29.3	3.02e+01	0	26	0	565182464	46	5815
2026-01-05 04:01:58.80	272.28	19.20	-35.3	-36.5	29.3	3.02e+01	0	26	0	567279616	46	5771
2026-01-05 04:01:59.81	272.57	19.20	-35.4	-36.7	29.3	3.02e+01	0	26	0	569376768	46	5861
2026-01-05 04:02:00.82	272.86	19.21	-35.5	-36.7	29.0	3.02e+01	0	26	0	570949632	46	5925
2026-01-05 04:02:01.83	273.14	19.21	-35.0	-36.2	29.5	3.02e+01	0	26	0	573046784	46	5534
2026-01-05 04:02:02.84	273.43	19.22	-35.0	-36.2	29.4	3.02e+01	0	26	0	574619648	44	6231
2026-01-05 04:02:03.85	273.72	19.22	-34.9	-36.1	29.5	3.02e+01	0	26	0	576716800	44	6157
2026-01-05 04:02:04.86	274.01	19.23	-35.1	-36.3	29.2	3.02e+01	0	26	0	578813952	44	6345
2026-01-05 04:02:05.87	274.30	19.23	-35.4	-36.6	29.0	3.02e+01	0	26	0	580386816	44	6560
2026-01-05 04:02:06.88	274.59	19.23	-35.1	-36.3	29.2	3.02e+01	0	26	0	582483968	44	6328
2026-01-05 04:02:07.88	274.87	19.23	-35.2	-36.4	29.2	3.02e+01	0	26	0	584056832	44	6408
2026-01-05 04:02:08.90	275.16	19.23	-35.0	-36.2	29.3	3.02e+01	0	26	0	586153984	44	6260
2026-01-05 04:02:09.91	275.45	19.23	-34.7	-35.9	29.4	3.02e+01	0	26	0	588251136	44	6026
2026-01-05 04:02:10.92	275.74	19.23	-34.9	-36.1	29.3	3.02e+01	0	26	0	589824000	44	6151
2026-01-05 04:02:11.93	276.03	19.23	-34.9	-36.1	29.2	3.02e+01	0	26	0	591921152	44	6173
2026-01-05 04:02:12.94	276.32	19.22	-34.9	-36.1	29.4	3.02e+01	0	26	0	593494016	44	6191
2026-01-05 04:02:13.95	276.61	19.22	-35.0	-36.2	29.3	3.02e+01	0	26	0	595591168	44	6272
2026-01-05 04:02:14.96	276.89	19.22	-35.0	-36.2	29.3	3.02e+01	0	26	0	597688320	44	6252
2026-01-05 04:02:15.97	277.18	19.21	-35.0	-36.2	29.3	3.02e+01	0	26	0	599261184	44	6210
2026-01-05 04:02:16.98	277.47	19.21	-34.8	-36.0	29.5	3.02e+01	0	26	0	601358336	44	6091
2026-01-05 04:02:17.99	277.76	19.20	-34.9	-36.1	29.2	3.02e+01	0	26	0	603455488	44	6202
2026-01-05 04:02:19.00	278.05	19.20	-34.9	-36.1	29.3	3.02e+01	0	26	0	605028352	44	6185
2026-01-05 04:02:20.01	278.33	19.19	-35.2	-36.4	29.2	3.02e+01	0	26	0	607125504	44	6395
2026-01-05 04:02:21.02	278.62	19.18	-35.0	-36.2	29.4	3.02e+01	0	26	0	608698368	44	6211
2026-01-05 04:02:22.02	278.90	19.17	-35.0	-36.2	29.4	3.02e+01	0	26	0	610795520	44	6255
2026-01-05 04:02:23.03	279.19	19.16	-35.0	-36.2	29.4	3.02e+01	0	26	0	612892672	44	6274
2026-01-05 04:02:24.04	279.48	19.15	-35.5	-36.7	29.0	3.02e+01	0	26	0	614465536	44	6587
2026-01-05 04:02:25.05	279.77	19.14	-35.1	-36.4	29.2	3.02e+01	0	26	0	616562688	44	6362
2026-01-05 04:02:26.06	280.05	19.13	-35.1	-36.3	29.3	3.02e+01	0	26	0	618659840	44	6296
2026-01-05 04:02:27.07	280.34	19.12	-34.9	-36.1	29.2	3.02e+01	0	26	0	620232704	44	6149
2026-01-05 04:02:28.08	280.62	19.11	-34.9	-36.1	29.3	3.02e+01	0	26	0	622329856	44	6199
2026-01-05 04:02:29.09	280.91	19.09	-35.5	-36.7	29.3	3.02e+01	0	26	0	623902720	44	6641
2026-01-05 04:02:30.10	281.20	19.08	-35.0	-36.2	29.4	3.02e+01	0	26	0	625999872	44	6253
2026-01-05 04:02:31.11	281.48	19.06	-35.1	-36.2	29.5	3.02e+01	0	26	0	628097024	44	6277
2026-01-05 04:02:32.12	281.77	19.05	-35.6	-36.8	29.3	3.02e+01	0	26	0	629669888	44	6671
2026-01-05 04:02:33.13	282.05	19.03	-35.3	-36.5	29.1	3.02e+01	0	26	0	631767040	44	6476
2026-01-05 04:02:34.14	282.33	19.02	-35.2	-36.4	29.3	3.02e+01	0	26	0	633339904	44	6388
2026-01-05 04:02:35.15	282.62	19.00	-35.1	-36.3	29.4	3.02e+01	0	26	0	635437056	44	6315
2026-01-05 04:02:36.16	282.90	18.98	-35.1	-36.3	29.5	3.02e+01	0	26	0	637534208	44	6289
2026-01-05 04:02:37.17	283.19	18.96	-35.0	-36.2	29.4	3.02e+01	0	26	0	639107072	44	6258
2026-01-05 04:02:38.18	283.47	18.94	-35.5	-36.7	29.2	3.02e+01	0	26	0	641204224	44	6605
2026-01-05 04:02:39.19	283.75	18.92	-35.8	-37.0	28.9	3.02e+01	0	26	0	642777088	44	6831
2026-01-05 04:02:40.20	284.03	18.90	-35.3	-36.5	29.2	3.02e+01	0	26	0	644874240	44	6488
2026-01-05 04:02:41.21	284.31	18.88	-34.9	-36.1	29.3	3.02e+01	0	26	0	646971392	44	6169
2026-01-05 04:02:42.22	284.60	18.86	-34.9	-36.1	29.5	3.02e+01	0	26	0	648544256	44	6169
2026-01-05 04:02:43.23	284.88	18.84	-35.0	-36.2	29.6	3.02e+01	0	26	0	650641408	44	6207
2026-01-05 04:02:44.24	285.16	18.82	-35.1	-36.3	29.3	3.02e+01	0	26	0	652214272	44	6309
2026-01-05 04:02:45.25	285.44	18.79	-34.8	-36.0	29.5	3.02e+01	0	26	0	654311424	44	6109
2026-01-05 04:02:46.26	285.72	18.77	-34.8	-35.9	29.5	3.02e+01	0	26	0	656408576	44	6053
2026-01-05 04:02:47.27	286.00	18.74	-35.1	-36.3	29.4	3.02e+01	0	26	0	657981440	44	6304
2026-01-05 04:02:48.28	286.27	18.72	-35.1	-36.3	29.4	3.02e+01	0	26	0	660078592	44	6307
2026-01-05 04:02:49.29	286.55	18.69	-35.2	-36.4	29.4	3.02e+01	0	26	0	661651456	44	6363
2026-01-05 04:02:50.29	286.83	18.67	-35.2	-36.4	29.6	3.02e+01	0	26	0	663748608	44	6406
2026-01-05 04:02:51.31	287.11	18.64	-35.2	-36.3	29.5	3.02e+01	0	26	0	665845760	44	6349
2026-01-05 04:02:52.31	287.38	18.61	-34.8	-36.0	29.7	3.02e+01	0	26	0	667418624	44	6123
2026-01-05 04:02:53.32	287.66	18.58	-35.1	-36.3	29.6	3.02e+01	0	26	0	669515776	44	6338
2026-01-05 04:02:54.33	287.93	18.55	-35.4	-36.6	29.4	3.02e+01	0	26	0	671612928	44	6539
2026-01-05 04:02:55.34	288.21	18.52	-35.2	-36.4	29.4	3.02e+01	0	26	0	673185792	44	6380
2026-01-05 04:02:56.35	288.48	18.49	-34.8	-35.9	29.8	3.02e+01	0	26	0	675282944	44	6055
2026-01-05 04:02:57.36	288.75	18.46	-35.0	-36.2	29.6	3.02e+01	0	26	0	676855808	44	6251
2026-01-05 04:02:58.37	289.03	18.43	-35.1	-36.3	29.5	3.02e+01	0	26	0	678952960	44	6309
2026-01-05 04:02:59.38	289.30	18.40	-35.4	-36.6	29.5	3.02e+01	0	26	0	681050112	44	6553
2026-01-05 04:03:00.39	289.57	18.37	-34.9	-36.1	29.6	3.02e+01	0	26	0	682622976	44	6183
2026-01-05 04:03:01.40	289.84	18.34	-35.0	-36.2	29.8	3.02e+01	0	26	0	684720128	44	6231
2026-01-05 04:03:02.41	290.11	18.30	-34.9	-36.1	29.6	3.02e+01	0	26	0	686817280	44	6159
2026-01-05 04:03:03.42	290.38	18.27	-35.1	-36.3	29.6	3.02e+01	0	26	0	688390144	44	6316
2026-01-05 04:03:04.43	290.65	18.23	-35.0	-36.2	29.4	3.02e+01	0	26	0	690487296	44	6229
2026-01-05 04:03:05.44	290.92	18.20	-35.1	-36.3	29.5	3.02e+01	0	26	0	692060160	44	6321
2026-01-05 04:03:06.45	291.19	18.16	-34.8	-35.9	29.7	3.02e+01	0	26	0	694157312	44	6064
2026-01-05 04:03:07.46	291.46	18.13	-34.5	-35.7	29.8	3.02e+01	0	26	0	696254464	44	5886
2026-01-05 04:03:08.47	291.72	18.09	-34.6	-35.8	29.6	3.02e+01	0	26	0	697827328	44	5967
2026-01-05 04:03:09.48	291.99	18.05	-34.7	-35.9	29.6	3.02e+01	0	26	0	699924480	44	6000
2026-01-05 04:03:10.49	292.26	18.02	-34.7	-35.9	29.5	3.02e+01	0	26	0	701497344	44	6018
2026-01-05 04:03:11.50	292.52	17.98	-35.0	-36.2	29.4	3.02e+01	0	26	0	703594496	44	6259
2026-01-05 04:03:12.50	292.78	17.94	-34.6	-35.8	29.6	3.02e+01	0	26	0	705691648	44	5980
2026-01-05 04:03:13.51	293.05	17.90	-34.7	-35.9	29.4	3.02e+01	0	26	0	707264512	44	6044
2026-01-05 04:03:14.52	293.31	17.86	-34.7	-35.9	29.6	3.02e+01	0	26	0	709361664	44	6044
2026-01-05 04:03:15.53	293.57	17.82	-34.9	-36.1	29.6	3.02e+01	0	26	0	710934528	44	6187
2026-01-05 04:03:16.54	293.83	17.78	-34.9	-36.1	29.5	3.02e+01	0	26	0	713031680	44	6159
2026-01-05 04:03:17.55	294.09	17.74	-35.1	-36.3	29.6	3.02e+01	0	26	0	715128832	44	6321
2026-01-05 04:03:18.56	294.35	17.70	-34.9	-36.1	29.7	3.02e+01	0	26	0	716701696	44	6175
2026-01-05 04:03:19.57	294.61	17.65	-34.9	-36.0	29.7	3.02e+01	0	26	0	718798848	44	6118
2026-01-05 04:03:20.58	294.87	17.61	-35.2	-36.4	29.7	3.02e+01	0	26	0	720371712	44	6368
2026-01-05 04:03:21.59	295.13	17.57	-35.7	-36.9	29.6	3.02e+01	0	26	0	722468864	44	6793
2026-01-05 04:03:22.60	295.38	17.53	-35.0	-36.2	29.6	3.02e+01	0	26	0	724566016	44	6258
2026-01-05 04:03:23.61	295.64	17.48	-35.8	-37.0	29.1	3.02e+01	0	26	0	726138880	44	6847
2026-01-05 04:03:24.61	295.89	17.44	-36.3	-37.6	28.2	3.02e+01	0	26	0	728236032	44	7311
2026-01-05 04:03:25.63	296.15	17.39	-35.4	-36.6	29.4	3.02e+01	0	26	0	729808896	46	5807
2026-01-05 04:03:26.64	296.40	17.35	-35.5	-36.8	29.4	3.02e+01	0	26	0	731906048	46	5932
2026-01-05 04:03:27.65	296.65	17.30	-35.5	-36.7	29.4	3.02e+01	0	26	0	734003200	46	5889
2026-01-05 04:03:28.65	296.90	17.26	-35.2	-36.4	29.5	3.02e+01	0	26	0	735576064	46	5683
2026-01-05 04:03:29.67	297.16	17.21	-35.1	-36.3	29.7	3.02e+01	0	26	0	737673216	44	6298
2026-01-05 04:03:30.68	297.41	17.16	-35.5	-36.7	29.2	3.02e+01	0	26	0	739770368	44	6638
2026-01-05 04:03:31.68	297.66	17.12	-36.2	-37.4	29.1	3.02e+01	0	26	0	741343232	46	6408
2026-01-05 04:03:32.69	297.90	17.07	-36.3	-37.5	28.9	3.02e+01	0	26	0	743440384	46	6493
2026-01-05 04:03:33.70	298.15	17.02	-35.7	-36.9	29.3	3.02e+01	0	26	0	745013248	46	6013
2026-01-05 04:03:34.71	298.40	16.97	-35.7	-36.9	29.5	3.02e+01	0	26	0	747110400	46	6026
2026-01-05 04:03:35.72	298.65	16.93	-35.9	-37.1	29.3	3.02e+01	0	26	0	749207552	46	6156
2026-01-05 04:03:36.73	298.89	16.88	-35.9	-37.1	29.6	3.02e+01	0	26	0	750780416	46	6205
2026-01-05 04:03:37.74	299.14	16.83	-35.6	-36.8	29.3	3.02e+01	0	26	0	752877568	46	5977
2026-01-05 04:03:38.75	299.38	16.78	-35.6	-36.8	29.7	3.02e+01	0	26	0	754450432	46	5982
2026-01-05 04:03:39.76	299.62	16.73	-35.5	-36.7	29.5	3.02e+01	0	26	0	756547584	46	5907
2026-01-05 04:03:40.77	299.86	16.68	-35.5	-36.7	29.6	3.02e+01	0	26	0	758644736	46	5885
2026-01-05 04:03:41.78	300.11	16.63	-35.3	-36.5	29.5	3.02e+01	0	26	0	760217600	46	5757
2026-01-05 04:03:42.79	300.35	16.57	-35.5	-36.7	29.2	3.02e+01	0	26	0	762314752	44	6626
2026-01-05 04:03:43.80	300.59	16.52	-35.9	-37.2	29.1	3.02e+01	0	26	0	764411904	46	6246
2026-01-05 04:03:44.81	300.82	16.47	-35.4	-36.7	28.9	3.02e+01	0	26	0	765984768	46	5895
2026-01-05 04:03:45.82	301.06	16.42	-34.7	-35.9	29.5	3.02e+01	0	26	0	768081920	44	6045
2026-01-05 04:03:46.83	301.30	16.37	-34.5	-35.7	29.6	3.02e+01	0	26	0	769654784	44	5899
2026-01-05 04:03:47.84	301.53	16.31	-34.5	-35.7	29.7	3.02e+01	0	26	0	771751936	44	5914
2026-01-05 04:03:48.85	301.77	16.26	-35.0	-36.2	29.6	3.02e+01	0	26	0	773324800	44	6228
2026-01-05 04:03:49.86	302.00	16.21	-35.3	-36.5	29.4	3.02e+01	0	26	0	775421952	44	6472
2026-01-05 04:03:50.87	302.24	16.15	-35.1	-36.3	29.6	3.02e+01	0	26	0	777519104	44	6337
2026-01-05 04:03:51.88	302.47	16.10	-34.9	-36.1	29.5	3.02e+01	0	26	0	779091968	44	6188
2026-01-05 04:03:52.89	302.70	16.05	-35.3	-36.6	29.3	3.02e+01	0	26	0	781189120	44	6514
2026-01-05 04:03:53.90	302.93	15.99	-34.8	-36.0	29.7	3.02e+01	0	26	0	782761984	44	6111
2026-01-05 04:03:54.91	303.16	15.94	-35.3	-36.5	29.4	3.02e+01	0	26	0	784859136	46	5744
2026-01-05 04:03:55.92	303.39	15.88	-35.2	-36.4	29.0	3.02e+01	0	26	0	786956288	46	5672
2026-01-05 04:03:56.92	303.62	15.83	-35.9	-37.1	28.7	3.02e+01	0	26	0	788529152	46	6186
2026-01-05 04:03:57.93	303.84	15.77	-36.1	-37.3	29.4	3.02e+01	0	26	0	790626304	46	6331
2026-01-05 04:03:58.94	304.07	15.71	-35.4	-36.7	29.2	3.02e+01	0	26	0	792723456	46	5864
2026-01-05 04:03:59.95	304.30	15.66	-35.2	-36.4	29.6	3.02e+01	0	26	0	794296320	46	5705
2026-01-05 04:04:00.96	304.52	15.60	-35.0	-36.2	29.4	3.02e+01	0	26	0	796393472	46	5578
2026-01-05 04:04:01.97	304.74	15.55	-35.3	-36.6	29.3	3.02e+01	0	26	0	797966336	46	5834
2026-01-05 04:04:02.98	304.97	15.49	-35.2	-36.4	29.2	3.02e+01	0	26	0	800063488	44	6422
2026-01-05 04:04:03.99	305.19	15.43	-35.4	-36.7	29.0	3.02e+01	0	26	0	802160640	44	6617
2026-01-05 04:04:05.00	305.41	15.37	-35.2	-36.4	29.2	3.02e+01	0	26	0	803733504	44	6402
2026-01-05 04:04:06.01	305.63	15.32	-35.6	-36.9	29.0	3.02e+01	0	26	0	805830656	44	6751
2026-01-05 04:04:07.02	305.85	15.26	-35.4	-36.6	29.0	3.02e+01	0	26	0	807927808	44	6537
2026-01-05 04:04:08.03	306.07	15.20	-35.5	-36.7	28.9	3.02e+01	0	26	0	809500672	44	6647
2026-01-05 04:04:09.04	306.29	15.14	-35.1	-36.3	28.9	3.02e+01	0	26	0	811597824	44	6343
2026-01-05 04:04:10.05	306.50	15.08	-35.3	-36.5	29.1	3.02e+01	0	26	0	813170688	44	6454
2026-01-05 04:04:11.06	306.72	15.03	-35.0	-36.2	29.7	3.02e+01	0	26	0	815267840	44	6229
2026-01-05 04:04:12.07	306.93	14.97	-35.2	-36.4	29.5	3.02e+01	0	26	0	817364992	44	6403
2026-01-05 04:04:13.08	307.15	14.91	-35.2	-36.4	29.7	3.02e+01	0	26	0	818937856	44	6362
2026-01-05 04:04:14.09	307.36	14.85	-35.1	-36.3	29.5	3.02e+01	0	26	0	821035008	44	6306
2026-01-05 04:04:15.10	307.57	14.79	-34.8	-36.0	29.7	3.02e+01	0	26	0	822607872	44	6115
2026-01-05 04:04:16.11	307.78	14.73	-35.3	-36.5	29.4	3.02e+01	0	26	0	824705024	44	6450
2026-01-05 04:04:17.12	307.99	14.67	-35.2	-36.4	29.5	3.02e+01	0	26	0	826802176	44	6357
2026-01-05 04:04:18.13	308.20	14.61	-35.0	-36.2	29.6	3.02e+01	0	26	0	828375040	44	6276
2026-01-05 04:04:19.14	308.41	14.55	-35.1	-36.3	29.6	3.02e+01	0	26	0	830472192	44	6283
2026-01-05 04:04:20.15	308.62	14.49	-35.0	-36.2	29.5	3.02e+01	0	26	0	832045056	44	6260
2026-01-05 04:04:21.16	308.83	14.43	-34.8	-36.0	29.7	3.02e+01	0	26	0	834142208	44	6088
2026-01-05 04:04:22.17	309.03	14.37	-35.0	-36.2	29.4	3.02e+01	0	26	0	836239360	44	6267
2026-01-05 04:04:23.18	309.24	14.31	-35.0	-36.2	29.5	3.02e+01	0	26	0	837812224	44	6266
2026-01-05 04:04:24.19	309.44	14.25	-35.2	-36.4	29.3	3.02e+01	0	26	0	839909376	44	6403
2026-01-05 04:04:25.20	309.65	14.18	-35.2	-36.4	29.3	3.02e+01	0	26	0	841482240	44	6412
2026-01-05 04:04:26.21	309.85	14.12	-35.4	-36.6	29.2	3.02e+01	0	26	0	843579392	44	6526
2026-01-05 04:04:27.22	310.05	14.06	-35.4	-36.6	29.0	3.02e+01	0	26	0	845676544	44	6568
2026-01-05 04:04:28.23	310.25	14.00	-35.3	-36.6	29.2	3.02e+01	0	26	0	847249408	44	6513
2026-01-05 04:04:29.24	310.45	13.94	-35.9	-37.1	29.1	3.02e+01	0	26	0	849346560	46	6193
2026-01-05 04:04:30.25	310.65	13.88	-36.4	-37.6	29.1	3.02e+01	0	26	0	850919424	46	6569
2026-01-05 04:04:31.26	310.85	13.82	-35.6	-36.9	29.1	3.02e+01	0	26	0	853016576	46	6019
2026-01-05 04:04:32.27	311.05	13.75	-36.2	-37.5	29.0	3.02e+01	0	26	0	855113728	46	6438
2026-01-05 04:04:33.28	311.24	13.69	-36.2	-37.5	28.9	3.02e+01	0	26	0	856686592	46	6455
2026-01-05 04:04:34.29	311.44	13.63	-36.1	-37.3	29.0	3.02e+01	0	26	0	858783744	46	6350
2026-01-05 04:04:35.30	311.63	13.57	-35.8	-37.1	28.6	3.02e+01	0	26	0	860880896	46	6139
2026-01-05 04:04:36.31	311.83	13.50	-35.9	-37.1	29.1	3.02e+01	0	26	0	862453760	46	6199
2026-01-05 04:04:37.32	312.02	13.44	-35.5	-36.7	29.2	3.02e+01	0	26	0	864550912	46	5908
2026-01-05 04:04:38.33	312.21	13.38	-35.6	-36.8	29.0	3.02e+01	0	26	0	866123776	46	5990
2026-01-05 04:04:39.34	312.40	13.32	-35.8	-37.1	29.0	3.02e+01	0	26	0	868220928	46	6135
2026-01-05 04:04:40.35	312.59	13.25	-35.8	-37.0	28.6	3.02e+01	0	26	0	870318080	46	6132
2026-01-05 04:04:41.36	312.78	13.19	-36.4	-37.6	28.9	3.02e+01	0	26	0	871890944	46	6548
2026-01-05 04:04:42.37	312.97	13.13	-35.9	-37.1	29.0	3.02e+01	0	26	0	873988096	46	6179
2026-01-05 04:04:43.38	313.16	13.06	-35.7	-37.0	29.0	3.02e+01	0	26	0	876085248	46	6082
2026-01-05 04:04:44.39	313.35	13.00	-35.8	-37.0	29.2	3.02e+01	0	26	0	877658112	46	6087
2026-01-05 04:04:45.40	313.53	12.94	-35.6	-36.8	29.3	3.02e+01	0	26	0	879755264	46	5970
2026-01-05 04:04:46.41	313.72	12.87	-36.3	-37.6	28.7	3.02e+01	0	26	0	881328128	48	5799
2026-01-05 04:04:47.41	313.90	12.81	-36.2	-37.4	29.2	3.02e+01	0	26	0	883425280	46	6372
2026-01-05 04:04:48.42	314.08	12.75	-35.8	-37.0	29.2	3.02e+01	0	26	0	885522432	46	6075
2026-01-05 04:04:49.43	314.27	12.68	-36.2	-37.4	29.0	3.02e+01	0	26	0	887095296	46	6377
2026-01-05 04:04:50.44	314.45	12.62	-35.8	-37.0	29.0	3.02e+01	0	26	0	889192448	46	6087
2026-01-05 04:04:51.45	314.63	12.56	-36.2	-37.5	28.4	3.02e+01	0	26	0	890765312	46	6439
2026-01-05 04:04:52.46	314.81	12.49	-35.5	-36.7	29.2	3.02e+01	0	26	0	892862464	46	5893
2026-01-05 04:04:53.47	314.99	12.43	-35.8	-37.0	29.0	3.02e+01	0	26	0	894959616	46	6102
2026-01-05 04:04:54.48	315.17	12.37	-36.0	-37.2	29.1	3.02e+01	0	26	0	896532480	46	6256
2026-01-05 04:04:55.49	315.35	12.30	-36.0	-37.3	28.7	3.02e+01	0	26	0	898629632	46	6307
2026-01-05 04:04:56.50	315.53	12.24	-35.6	-36.8	28.9	3.02e+01	0	26	0	900202496	46	5953
2026-01-05 04:04:57.51	315.70	12.17	-35.7	-37.0	28.9	3.02e+01	0	26	0	902299648	46	6080
2026-01-05 04:04:58.52	315.88	12.11	-35.5	-36.7	29.0	3.02e+01	0	26	0	904396800	46	5895
2026-01-05 04:04:59.53	316.05	12.05	-35.5	-36.7	29.0	3.02e+01	0	26	0	905969664	46	5888
2026-01-05 04:05:00.54	316.23	11.98	-35.5	-36.7	29.0	3.02e+01	0	26	0	908066816	46	5886
2026-01-05 04:05:01.55	316.40	11.92	-35.4	-36.6	29.0	3.02e+01	0	26	0	909639680	46	5812
2026-01-05 04:05:02.56	316.57	11.85	-36.0	-37.3	28.7	3.02e+01	0	26	0	911736832	46	6294
2026-01-05 04:05:03.57	316.74	11.79	-35.8	-37.0	28.9	3.02e+01	0	26	0	913833984	46	6113
2026-01-05 04:05:04.58	316.91	11.73	-36.0	-37.3	28.9	3.02e+01	0	26	0	915406848	46	6297
2026-01-05 04:05:05.59	317.08	11.66	-36.2	-37.4	28.6	3.02e+01	0	26	0	917504000	46	6395
2026-01-05 04:05:06.60	317.25	11.60	-36.0	-37.2	28.8	3.02e+01	0	26	0	919076864	46	6241
2026-01-05 04:05:07.61	317.42	11.53	-36.1	-37.4	28.5	3.02e+01	0	26	0	921174016	46	6360
2026-01-05 04:05:08.62	317.59	11.47	-35.9	-37.2	28.7	3.02e+01	0	26	0	923271168	46	6239
2026-01-05 04:05:09.63	317.76	11.40	-35.8	-37.1	28.6	3.02e+01	0	26	0	924844032	46	6144
2026-01-05 04:05:10.64	317.92	11.34	-35.6	-36.8	28.9	3.02e+01	0	26	0	926941184	46	5987
2026-01-05 04:05:11.65	318.09	11.27	-35.4	-36.6	29.0	3.02e+01	0	26	0	929038336	46	5855
2026-01-05 04:05:12.66	318.25	11.21	-35.8	-37.1	28.7	3.02e+01	0	26	0	930611200	46	6138
2026-01-05 04:05:13.66	318.42	11.15	-36.0	-37.2	28.7	3.02e+01	0	26	0	932708352	46	6267
2026-01-05 04:05:14.68	318.58	11.08	-36.1	-37.3	28.5	3.02e+01	0	26	0	934281216	46	6338
2026-01-05 04:05:15.69	318.74	11.02	-36.7	-38.0	28.3	3.02e+01	0	26	0	936378368	46	6810
2026-01-05 04:05:16.69	318.90	10.95	-36.8	-38.1	28.0	3.02e+01	0	26	0	938475520	48	6144
2026-01-05 04:05:17.70	319.06	10.89	-37.4	-38.7	27.6	3.02e+01	0	26	0	940048384	50	5901
2026-01-05 04:05:18.71	319.22	10.82	-37.2	-38.5	28.0	3.02e+01	0	26	0	942145536	48	6447
2026-01-05 04:05:19.72	319.38	10.76	-37.0	-38.2	28.3	3.02e+01	0	26	0	944242688	48	6276
2026-01-05 04:05:20.73	319.54	10.70	-37.4	-38.7	28.2	3.02e+01	0	26	0	945815552	48	6574
2026-01-05 04:05:21.74	319.70	10.63	-36.9	-38.1	28.0	3.02e+01	0	26	0	947912704	48	6168
2026-01-05 04:05:22.75	319.86	10.57	-36.4	-37.7	27.7	3.02e+01	0	26	0	949485568	48	5866
2026-01-05 04:05:23.76	320.01	10.50	-36.9	-38.2	27.6	3.02e+01	0	26	0	951582720	48	6240
2026-01-05 04:05:24.77	320.17	10.44	-38.1	-39.4	27.9	3.02e+01	0	26	0	953679872	48	7131
2026-01-05 04:05:25.77	320.32	10.38	-37.9	-39.2	28.2	3.02e+01	0	26	0	955252736	50	6215
2026-01-05 04:05:26.78	320.48	10.31	-36.8	-38.0	28.4	3.02e+01	0	26	0	957349888	48	6120
2026-01-05 04:05:27.79	320.63	10.25	-37.5	-38.8	28.3	3.02e+01	0	26	0	958922752	48	6662
2026-01-05 04:05:28.80	320.79	10.18	-37.6	-38.9	28.2	3.02e+01	0	26	0	961019904	50	5995
2026-01-05 04:05:29.81	320.94	10.12	-37.1	-38.4	27.4	3.02e+01	0	26	0	963117056	48	6422
2026-01-05 04:05:30.82	321.09	10.05	-37.6	-39.0	27.9	3.02e+01	0	26	0	964689920	50	6094
2026-01-05 04:05:31.83	321.24	9.99	-37.6	-38.9	27.6	3.02e+01	0	26	0	966787072	50	6008
2026-01-05 04:05:32.84	321.39	9.93	-36.8	-38.1	28.0	3.02e+01	0	26	0	968359936	50	5513
2026-01-05 04:05:33.85	321.54	9.86	-37.0	-38.3	28.1	3.02e+01	0	26	0	970457088	48	6338
2026-01-05 04:05:34.86	321.69	9.80	-37.2	-38.5	27.5	3.02e+01	0	26	0	972554240	48	6493
2026-01-05 04:05:35.87	321.84	9.73	-37.6	-38.9	25.7	3.02e+01	0	26	0	974127104	48	6782
2026-01-05 04:05:36.88	321.98	9.67	-37.5	-38.8	27.4	3.02e+01	0	26	0	976224256	48	6700
2026-01-05 04:05:37.89	322.13	9.60	-38.0	-39.3	26.8	3.02e+01	0	26	0	977797120	48	7114
2026-01-05 04:05:38.90	322.28	9.54	-37.5	-38.8	27.9	3.02e+01	0	26	0	979894272	48	6712
2026-01-05 04:05:39.91	322.42	9.48	-36.9	-38.1	28.2	3.02e+01	0	26	0	981991424	48	6184
2026-01-05 04:05:40.92	322.57	9.41	-36.1	-37.4	28.1	3.02e+01	0	26	0	983564288	48	5675
2026-01-05 04:05:41.93	322.71	9.35	-36.2	-37.4	28.5	3.02e+01	0	26	0	985661440	48	5704
2026-01-05 04:05:42.94	322.86	9.28	-36.0	-37.3	28.5	3.02e+01	0	26	0	987234304	46	6280
2026-01-05 04:05:43.95	323.00	9.22	-36.0	-37.2	28.4	3.02e+01	0	26	0	989331456	46	6259
2026-01-05 04:05:44.96	323.14	9.16	-36.4	-37.6	28.5	3.02e+01	0	26	0	991428608	46	6571
2026-01-05 04:05:45.96	323.28	9.09	-36.0	-37.3	28.3	3.02e+01	0	26	0	993001472	46	6292
2026-01-05 04:05:46.98	323.42	9.03	-36.1	-37.4	28.4	3.02e+01	0	26	0	995098624	46	6378
2026-01-05 04:05:47.99	323.56	8.97	-35.9	-37.2	28.2	3.02e+01	0	26	0	997195776	46	6230
2026-01-05 04:05:48.99	323.70	8.90	-35.9	-37.2	28.3	3.02e+01	0	26	0	998768640	46	6223
2026-01-05 04:05:50.00	323.84	8.84	-35.7	-36.9	28.2	3.02e+01	0	26	0	1000865792	46	6039
2026-01-05 04:05:51.01	323.98	8.78	-35.4	-36.7	28.5	3.02e+01	0	26	0	1002438656	46	5878
2026-01-05 04:05:52.02	324.12	8.71	-35.5	-36.7	28.4	3.02e+01	0	26	0	1004535808	46	5903
2026-01-05 04:05:53.03	324.25	8.65	-35.6	-36.8	28.4	3.02e+01	0	26	0	1006632960	46	5968
2026-01-05 04:05:54.04	324.39	8.59	-35.6	-36.9	28.3	3.02e+01	0	26	0	1008205824	46	6004
2026-01-05 04:05:55.05	324.53	8.52	-35.8	-37.1	28.3	3.02e+01	0	26	0	1010302976	46	6174
2026-01-05 04:05:56.06	324.66	8.46	-35.9	-37.2	28.1	3.02e+01	0	26	0	1012400128	46	6214
2026-01-05 04:05:57.07	324.80	8.40	-36.0	-37.3	28.2	3.02e+01	0	26	0	1013972992	46	6281
2026-01-05 04:05:58.08	324.93	8.33	-35.9	-37.2	28.3	3.02e+01	0	26	0	1016070144	46	6210
2026-01-05 04:05:59.09	325.06	8.27	-36.3	-37.5	28.0	3.02e+01	0	26	0	1017643008	46	6480
2026-01-05 04:06:00.10	325.20	8.21	-36.7	-38.0	27.9	3.02e+01	0	26	0	1019740160	46	6823
2026-01-05 04:06:01.11	325.33	8.14	-37.2	-38.5	27.7	3.02e+01	0	26	0	1021837312	48	6481
2026-01-05 04:06:02.12	325.46	8.08	-36.4	-37.7	28.1	3.02e+01	0	26	0	1023410176	46	6636
2026-01-05 04:06:03.13	325.59	8.02	-36.5	-37.8	27.8	3.02e+01	0	26	0	1025507328	46	6722
2026-01-05 04:06:04.13	325.72	7.96	-36.3	-37.6	27.7	3.02e+01	0	26	0	1027080192	46	6549
2026-01-05 04:06:05.15	325.85	7.89	-36.8	-38.1	27.6	3.02e+01	0	26	0	1029177344	46	6901
2026-01-05 04:06:06.16	325.98	7.83	-37.0	-38.3	27.9	3.02e+01	0	26	0	1031274496	50	5630
2026-01-05 04:06:07.16	326.11	7.77	-37.5	-38.8	27.8	3.02e+01	0	26	0	1032847360	48	6654
2026-01-05 04:06:08.17	326.24	7.70	-37.6	-38.9	27.7	3.02e+01	0	26	0	1034944512	48	6739
2026-01-05 04:06:09.18	326.36	7.64	-36.5	-37.8	27.7	3.02e+01	0	26	0	1036517376	48	5967
2026-01-05 04:06:10.19	326.49	7.58	-36.6	-37.9	27.8	3.02e+01	0	26	0	1038614528	48	6046
2026-01-05 04:06:11.20	326.62	7.52	-36.5	-37.7	27.9	3.02e+01	0	26	0	1040711680	48	5925
2026-01-05 04:06:12.21	326.74	7.45	-36.1	-37.4	27.9	3.02e+01	0	26	0	1042284544	48	5703
2026-01-05 04:06:13.22	326.87	7.39	-36.6	-46.7	3.6	3.02e+01	0	26	104	1042808832	48	16640
2026-01-05 04:06:14.23	326.99	7.33	-37.5	-47.7	3.6	3.02e+01	0	26	104	1042808832	48	18572
2026-01-05 04:06:15.24	327.12	7.27	-37.9	-48.2	3.4	3.02e+01	0	26	104	1042808832	48	19831
2026-01-05 04:06:16.25	327.24	7.21	-38.2	-48.7	3.4	3.02e+01	0	26	104	1042808832	48	20823
2026-01-05 04:06:17.26	327.36	7.14	-42.3	-53.3	3.6	3.02e+01	0	26	104	1042808832	60	17772
2026-01-05 04:06:18.27	327.49	7.08	-47.8	-64.2	3.5	3.02e+01	0	26	104	1042808832	60	62177
2026-01-05 04:06:19.28	327.61	7.02	-47.8	-65.0	3.5	3.02e+01	0	26	104	1042808832	60	68564
2026-01-05 04:06:20.29	327.73	6.96	-44.5	-56.0	3.6	3.02e+01	0	26	104	1042808832	60	24230
2026-01-05 04:06:21.30	327.85	6.90	-41.4	-52.2	3.4	3.02e+01	0	26	104	1042808832	60	15685
2026-01-05 04:06:22.31	327.97	6.83	-42.2	-53.0	4.0	3.02e+01	0	26	104	1042808832	60	17151
2026-01-05 04:06:23.32	328.09	6.77	-39.5	-49.9	4.1	3.02e+01	0	26	104	1042808832	56	15095
2026-01-05 04:06:24.33	328.21	6.71	-40.0	-50.5	4.0	3.02e+01	0	26	104	1042808832	54	18157
2026-01-05 04:06:25.34	328.33	6.65	-41.8	-52.6	4.0	3.02e+01	0	26	104	1042808832	56	20770
2026-01-05 04:06:26.35	328.45	6.59	-41.8	-52.8	4.0	3.02e+01	0	26	104	1042808832	54	23709
2026-01-05 04:06:27.36	328.57	6.53	-46.4	-58.8	3.8	3.02e+01	0	26	104	1042808832	60	33708
2026-01-05 04:06:28.37	328.68	6.47	-49.1	-65.7	3.5	3.02e+01	0	26	104	1042808832	60	73803
2026-01-05 04:06:29.38	328.80	6.40	-42.7	-53.6	3.5	3.02e+01	0	26	104	1042808832	58	20654
2026-01-05 04:06:30.39	328.92	6.34	-39.0	-49.4	3.5	3.02e+01	0	26	104	1042808832	54	16104
2026-01-05 04:06:31.40	329.03	6.28	-39.0	-49.4	3.5	3.02e+01	0	26	104	1042808832	52	17960
2026-01-05 04:06:32.41	329.15	6.22	-38.4	-48.8	3.5	3.02e+01	0	26	104	1042808832	52	16726
2026-01-05 04:06:33.42	329.26	6.16	-38.0	-48.4	3.5	3.02e+01	0	26	104	1042808832	52	15958
2026-01-05 04:06:34.43	329.37	6.10	-40.0	-50.5	3.5	3.02e+01	0	26	104	1042808832	54	18214
2026-01-05 04:06:35.43	329.49	6.04	-40.6	-51.1	3.5	3.02e+01	0	26	104	1042808832	58	15518
2026-01-05 04:06:36.44	329.60	5.98	-48.8	-65.0	3.5	3.02e+01	0	26	104	1042808832	60	68824
2026-01-05 04:06:37.45	329.71	5.92	-44.0	-55.6	3.5	3.02e+01	0	26	104	1042808832	60	23071
2026-01-05 04:06:38.46	329.83	5.86	-44.3	-55.8	3.6	3.02e+01	0	26	104	1042808832	60	23716
2026-01-05 04:06:39.47	329.94	5.80	-37.9	-48.1	3.5	3.02e+01	0	26	104	1042808832	52	15501
2026-01-05 04:06:40.48	330.05	5.74	-38.3	-48.7	3.6	3.02e+01	0	26	104	1042808832	50	18539
2026-01-05 04:06:41.49	330.16	5.68	-37.8	-48.2	3.5	3.02e+01	0	26	104	1042808832	50	17562
2026-01-05 04:06:42.50	330.27	5.62	-38.3	-48.7	3.5	3.02e+01	0	26	104	1042808832	50	18704
2026-01-05 04:06:43.51	330.38	5.55	-41.8	-52.6	3.5	3.02e+01	0	26	104	1042808832	60	16450
2026-01-05 04:06:44.52	330.49	5.49	-42.7	-53.7	3.5	3.02e+01	0	26	104	1042808832	60	18563
2026-01-05 04:06:45.53	330.60	5.43	-46.8	-60.4	3.5	3.02e+01	0	26	104	1042808832	60	40068
2026-01-05 04:06:46.54	330.71	5.37	-47.9	-63.6	3.5	3.02e+01	0	26	104	1042808832	60	58451
2026-01-05 04:06:47.55	330.81	5.31	-40.5	-51.2	3.6	3.02e+01	0	26	104	1042808832	56	17540
2026-01-05 04:06:48.56	330.92	5.25	-40.9	-51.4	3.4	3.02e+01	0	26	104	1042808832	54	20312
2026-01-05 04:06:49.57	331.03	5.19	-40.9	-51.5	3.5	3.02e+01	0	26	104	1042808832	56	18216
2026-01-05 04:06:50.58	331.14	5.14	-39.4	-49.8	3.5	3.02e+01	0	26	104	1042808832	52	18939
2026-01-05 04:06:51.59	331.24	5.08	-38.5	-49.0	3.5	3.02e+01	0	26	104	1042808832	52	17126
2026-01-05 04:06:52.60	331.35	5.02	-38.1	-48.5	3.5	3.02e+01	0	26	104	1042808832	52	16168
2026-01-05 04:06:53.61	331.45	4.96	-39.4	-50.0	3.5	3.02e+01	0	26	104	1042808832	54	17209
2026-01-05 04:06:54.62	331.56	4.90	-47.3	-62.7	3.5	3.02e+01	0	26	104	1042808832	60	52656
2026-01-05 04:06:55.63	331.66	4.84	-40.9	-51.8	3.5	3.02e+01	0	26	104	1042808832	60	14901
2026-01-05 04:06:56.64	331.77	4.78	-40.2	-50.9	3.5	3.02e+01	0	26	104	1042808832	58	15086
2026-01-05 04:06:57.65	331.87	4.72	-39.3	-49.9	3.5	3.02e+01	0	26	104	1042808832	52	18976
2026-01-05 04:06:58.66	331.97	4.66	-39.3	-49.9	3.5	3.02e+01	0	26	104	1042808832	52	19057
2026-01-05 04:06:59.67	332.07	4.60	-40.0	-50.6	3.5	3.02e+01	0	26	104	1042808832	54	18462
2026-01-05 04:07:00.68	332.18	4.54	-39.8	-50.6	3.5	3.02e+01	0	26	104	1042808832	54	18355
2026-01-05 04:07:01.69	332.28	4.48	-40.0	-51.0	3.5	3.02e+01	0	26	104	1042808832	54	19185
2026-01-05 04:07:02.70	332.38	4.42	-40.6	-51.7	3.5	3.02e+01	0	26	104	1042808832	58	16582
2026-01-05 04:07:03.71	332.48	4.37	-43.4	-58.5	3.5	3.02e+01	0	26	104	1042808832	60	32297
2026-01-05 04:07:04.72	332.58	4.31	-43.1	-56.9	3.5	3.02e+01	0	26	104	1042808832	60	26816
2026-01-05 04:07:05.73	332.68	4.25	-44.0	-58.7	3.5	3.02e+01	0	26	104	1042808832	60	33206
2026-01-05 04:07:06.74	332.78	4.19	-43.5	-58.0	3.5	3.02e+01	0	26	104	1042808832	60	30554
2026-01-05 04:07:07.75	332.88	4.13	-43.8	-59.6	3.5	3.02e+01	0	26	104	1042808832	60	36748
2026-01-05 04:07:08.76	332.98	4.07	-44.1	-60.4	3.5	3.02e+01	0	26	104	1042808832	60	40522
2026-01-05 04:07:09.77	333.08	4.02	-43.9	-60.7	3.5	3.02e+01	0	26	104	1042808832	60	41751
2026-01-05 04:07:10.78	333.17	3.96	-43.9	-60.8	3.5	3.02e+01	0	26	104	1042808832	60	42283
2026-01-05 04:07:11.79	333.27	3.90	-44.2	-61.3	3.5	3.02e+01	0	26	104	1042808832	60	44541
2026-01-05 04:07:12.80	333.37	3.84	-44.3	-62.2	3.5	3.02e+01	0	26	104	1042808832	60	49517
2026-01-05 04:07:13.82	333.47	3.78	-45.0	-62.6	3.5	3.02e+01	0	26	104	1042808832	60	52196
2026-01-05 04:07:14.82	333.56	3.73	-44.9	-62.6	3.5	3.02e+01	0	26	104	1042808832	60	51856
2026-01-05 04:07:15.83	333.66	3.67	-45.3	-63.2	3.5	3.02e+01	0	26	104	1042808832	60	55388
2026-01-05 04:07:16.84	333.75	3.61	-45.1	-62.9	3.5	3.02e+01	0	26	104	1042808832	60	53970
2026-01-05 04:07:17.85	333.85	3.55	-44.9	-62.8	3.5	3.02e+01	0	26	104	1042808832	60	53208
2026-01-05 04:07:18.86	333.94	3.49	-44.3	-62.2	3.5	3.02e+01	0	26	104	1042808832	60	49793
2026-01-05 04:07:19.88	334.04	3.44	-44.6	-62.6	3.5	3.02e+01	0	26	104	1042808832	60	51955
2026-01-05 04:07:20.89	334.13	3.38	-44.4	-62.4	3.5	3.02e+01	0	26	104	1042808832	60	50600
2026-01-05 04:07:21.90	334.23	3.32	-44.5	-62.4	3.5	3.02e+01	0	26	104	1042808832	60	50954
2026-01-05 04:07:22.91	334.32	3.26	-44.4	-62.3	3.5	3.02e+01	0	26	104	1042808832	60	50124
2026-01-05 04:07:23.92	334.41	3.21	-44.1	-62.0	3.5	3.02e+01	0	26	104	1042808832	60	48308
2026-01-05 04:07:24.92	334.51	3.15	-44.1	-62.0	3.5	3.02e+01	0	26	104	1042808832	60	48295
2026-01-05 04:07:25.94	334.60	3.09	-44.0	-61.8	3.5	3.02e+01	0	26	104	1042808832	60	47407
2026-01-05 04:07:26.95	334.69	3.04	-43.9	-61.8	3.5	3.02e+01	0	26	104	1042808832	60	47346
2026-01-05 04:07:27.96	334.78	2.98	-43.8	-61.7	3.5	3.02e+01	0	26	104	1042808832	60	46959
2026-01-05 04:07:28.96	334.87	2.92	-48.0	-65.9	3.5	3.02e+01	0	26	104	1042808832	60	76060
2026-01-05 04:07:29.97	334.96	2.87	-48.4	-66.3	3.5	3.02e+01	0	26	104	1042808832	60	79628
2026-01-05 04:07:30.98	335.05	2.81	-48.6	-66.6	3.5	3.02e+01	0	26	104	1042808832	60	82203
2026-01-05 04:07:32.00	335.14	2.75	-49.1	-67.0	3.5	3.02e+01	0	26	104	1042808832	60	86219
2026-01-05 04:07:33.01	335.23	2.70	-49.2	-67.2	3.5	3.02e+01	0	26	104	1042808832	60	88021
2026-01-05 04:07:34.02	335.32	2.64	-49.0	-67.2	3.5	3.02e+01	0	26	104	1042808832	60	88092
