passes_logs/2026/01/05/R4.6S_Anadyr/R4.6S_Anadyr__20260105_195118_NOAA_20_JPSS-1_rec.log

#Pass ID: 20260105_195118_NOAA 20 (JPSS-1)
#Satellite: NOAA 20 (JPSS-1)
#Configuration: NOAA 20
#almurnet v.1.7.20251203
#Start time: 2026-01-05 19:51:20

#Version: 2.2.20231116
#Station: R4.6S_Anadyr
#Location: 177.4865 lon 64.73178 lat
#TLE: 1 43013U 17073A   26005.46207808  .00000128  00000+0  81791-4 0  9997
#TLE: 2 43013  98.7627 306.5027 0001826  53.0458 307.0885 14.19533487421381

#Time	Az	El	Level	Level2	SNR	BER	BlckErr	Temp	State	Recorded	gain1	gain2
2026-01-05 19:51:20.36	59.71	0.11	-48.6	-63.5	3.5	1.51e+00	0	31	0	0	60	54149
2026-01-05 19:51:21.37	59.63	0.16	-48.7	-63.8	3.6	1.51e+00	0	32	104	0	60	55875
2026-01-05 19:51:22.38	59.56	0.20	-48.7	-63.9	3.6	1.51e+00	0	32	104	0	60	56448
2026-01-05 19:51:23.39	59.48	0.25	-48.7	-63.9	3.6	1.51e+00	0	32	104	0	60	56494
2026-01-05 19:51:24.40	59.40	0.30	-48.7	-63.9	3.6	1.51e+00	0	32	104	0	60	56565
2026-01-05 19:51:25.41	59.33	0.35	-48.7	-63.9	3.6	1.51e+00	0	32	104	0	60	56483
2026-01-05 19:51:26.42	59.25	0.40	-48.8	-63.9	3.6	1.51e+00	0	32	104	0	60	56959
2026-01-05 19:51:27.43	59.17	0.45	-48.7	-64.0	3.6	1.51e+00	0	32	104	0	60	57011
2026-01-05 19:51:28.44	59.09	0.50	-48.7	-63.9	3.6	1.51e+00	0	32	104	0	60	56772
2026-01-05 19:51:29.45	59.01	0.55	-48.7	-63.9	3.6	1.51e+00	0	32	104	0	60	56889
2026-01-05 19:51:30.46	58.94	0.60	-48.7	-63.9	3.6	1.51e+00	0	32	104	0	60	56570
2026-01-05 19:51:31.47	58.86	0.65	-48.7	-63.9	3.6	1.51e+00	0	32	104	0	60	56444
2026-01-05 19:51:32.48	58.78	0.70	-48.6	-63.8	3.6	1.51e+00	0	32	104	0	60	55946
2026-01-05 19:51:33.49	58.70	0.75	-48.4	-63.7	3.6	1.51e+00	0	32	104	0	60	55430
2026-01-05 19:51:34.50	58.62	0.80	-48.4	-63.6	3.6	1.51e+00	0	32	104	0	60	55007
2026-01-05 19:51:35.51	58.54	0.85	-48.3	-63.5	3.6	1.51e+00	0	32	104	0	60	53801
2026-01-05 19:51:36.52	58.46	0.90	-48.0	-63.1	3.6	1.51e+00	0	32	104	0	60	51830
2026-01-05 19:51:37.53	58.38	0.95	-47.3	-62.4	3.6	1.51e+00	0	33	104	0	60	47889
2026-01-05 19:51:38.54	58.30	1.00	-47.2	-62.3	3.6	1.51e+00	0	33	104	0	60	47207
2026-01-05 19:51:39.54	58.22	1.04	-47.2	-62.3	3.6	1.51e+00	0	32	104	0	60	47357
2026-01-05 19:51:40.55	58.14	1.09	-47.2	-62.3	3.6	1.51e+00	0	33	104	0	60	47306
2026-01-05 19:51:41.56	58.05	1.14	-47.2	-62.3	3.6	1.51e+00	0	33	104	0	60	46994
2026-01-05 19:51:42.57	57.97	1.19	-47.2	-62.3	3.6	1.51e+00	0	33	104	0	60	46903
2026-01-05 19:51:43.58	57.89	1.24	-47.2	-62.3	3.6	1.51e+00	0	32	104	0	60	46955
2026-01-05 19:51:44.59	57.81	1.29	-47.2	-62.3	3.6	1.51e+00	0	32	104	0	60	47230
2026-01-05 19:51:45.61	57.73	1.34	-47.2	-62.3	3.6	1.51e+00	0	33	104	0	60	47169
2026-01-05 19:51:46.62	57.64	1.39	-47.2	-62.3	3.6	1.51e+00	0	33	104	0	60	47144
2026-01-05 19:51:47.63	57.56	1.44	-47.2	-62.3	3.6	1.51e+00	0	33	104	0	60	47237
2026-01-05 19:51:48.64	57.48	1.49	-47.2	-62.3	3.6	1.51e+00	0	33	104	0	60	47158
2026-01-05 19:51:49.65	57.39	1.54	-47.2	-62.3	3.6	1.51e+00	0	33	104	0	60	47233
2026-01-05 19:51:50.65	57.31	1.59	-47.2	-62.3	3.6	1.51e+00	0	33	104	0	60	47186
2026-01-05 19:51:51.67	57.22	1.64	-47.1	-62.3	3.6	1.51e+00	0	33	104	0	60	46963
2026-01-05 19:51:52.67	57.14	1.69	-47.2	-62.3	3.6	1.51e+00	0	33	104	0	60	46868
2026-01-05 19:51:53.68	57.05	1.74	-47.1	-62.2	3.6	1.51e+00	0	33	104	0	60	46788
2026-01-05 19:51:54.69	56.97	1.79	-47.2	-62.3	3.6	1.51e+00	0	33	104	0	60	46943
2026-01-05 19:51:55.70	56.88	1.84	-47.2	-62.3	3.6	1.51e+00	0	33	104	0	60	47007
2026-01-05 19:51:56.71	56.80	1.89	-47.2	-62.3	3.6	1.51e+00	0	33	104	0	60	47127
2026-01-05 19:51:57.72	56.71	1.94	-47.2	-62.3	3.6	1.51e+00	0	33	104	0	60	46933
2026-01-05 19:51:58.74	56.62	1.99	-47.2	-62.3	3.6	1.51e+00	0	33	104	0	60	46896
2026-01-05 19:51:59.74	56.54	2.04	-47.1	-62.2	3.6	1.51e+00	0	33	104	0	60	46499
2026-01-05 19:52:00.75	56.45	2.09	-47.1	-62.2	3.6	1.51e+00	0	33	104	0	60	46492
2026-01-05 19:52:01.76	56.36	2.14	-47.1	-62.0	3.6	1.51e+00	0	33	104	0	60	45307
2026-01-05 19:52:02.77	56.27	2.20	-47.1	-62.0	3.6	1.51e+00	0	33	104	0	60	45768
2026-01-05 19:52:03.78	56.19	2.25	-47.1	-62.1	3.6	1.51e+00	0	33	104	0	60	46148
2026-01-05 19:52:04.79	56.10	2.30	-47.1	-62.2	3.6	1.51e+00	0	33	104	0	60	46782
2026-01-05 19:52:05.80	56.01	2.35	-47.1	-62.3	3.6	1.51e+00	0	33	104	0	60	47151
2026-01-05 19:52:06.81	55.92	2.40	-47.1	-62.2	3.6	1.51e+00	0	33	104	0	60	46773
2026-01-05 19:52:07.82	55.83	2.45	-47.1	-62.1	3.6	1.51e+00	0	33	104	0	60	45975
2026-01-05 19:52:08.83	55.74	2.50	-47.1	-62.2	3.6	1.51e+00	0	33	104	0	60	46513
2026-01-05 19:52:09.84	55.65	2.55	-47.1	-62.2	3.6	1.51e+00	0	33	104	0	60	46819
2026-01-05 19:52:10.85	55.56	2.60	-47.1	-62.3	3.6	1.51e+00	0	33	104	0	60	46871
2026-01-05 19:52:11.86	55.47	2.65	-47.1	-62.0	3.6	1.51e+00	0	33	104	0	60	45646
2026-01-05 19:52:12.87	55.38	2.70	-47.1	-61.3	3.6	1.51e+00	0	33	104	0	60	42190
2026-01-05 19:52:13.88	55.29	2.75	-47.1	-61.4	3.6	1.51e+00	0	33	104	0	60	42546
2026-01-05 19:52:14.89	55.20	2.80	-47.1	-61.8	3.6	1.51e+00	0	33	104	0	60	44617
2026-01-05 19:52:15.90	55.11	2.85	-47.1	-61.9	3.6	1.51e+00	0	33	104	0	60	45137
2026-01-05 19:52:16.91	55.01	2.90	-47.0	-59.7	3.7	1.51e+00	0	33	104	0	60	34894
2026-01-05 19:52:17.92	54.92	2.95	-46.7	-55.5	5.2	9.02e-01	0	33	0	0	60	21494
2026-01-05 19:52:18.93	54.83	3.00	-46.3	-52.9	7.5	2.05e-01	92	33	0	2097152	60	16050
2026-01-05 19:52:19.94	54.73	3.05	-46.9	-56.3	4.3	6.59e-01	48	33	0	4194304	60	23706
2026-01-05 19:52:20.95	54.64	3.11	-45.4	-49.8	11.3	2.02e-03	92	33	0	5242880	60	11111
2026-01-05 19:52:21.96	54.55	3.16	-47.0	-61.8	3.6	6.14e-01	0	33	104	7340032	60	44381
2026-01-05 19:52:22.97	54.45	3.21	-47.3	-62.4	3.6	1.51e+00	0	33	104	7340032	60	47814
2026-01-05 19:52:23.98	54.36	3.26	-43.6	-46.4	14.6	5.61e-01	92	33	104	7340032	60	7542
2026-01-05 19:52:24.98	54.26	3.31	-43.6	-46.4	15.1	0.00e+00	0	33	0	8388608	60	7553
2026-01-05 19:52:25.99	54.17	3.36	-43.6	-46.3	15.3	0.00e+00	92	33	0	9437184	60	7465
2026-01-05 19:52:27.00	54.07	3.41	-43.6	-46.3	14.8	0.00e+00	0	33	0	11534336	60	7460
2026-01-05 19:52:28.01	53.98	3.46	-43.2	-45.7	15.8	0.00e+00	92	33	0	13631488	60	6986
2026-01-05 19:52:29.02	53.88	3.51	-43.6	-46.3	14.6	7.00e-07	92	33	0	15728640	60	7480
2026-01-05 19:52:30.03	53.78	3.56	-43.1	-45.5	16.0	0.00e+00	0	33	0	17825792	60	6783
2026-01-05 19:52:31.04	53.69	3.61	-43.1	-45.6	15.9	0.00e+00	92	33	0	18874368	60	6879
2026-01-05 19:52:32.05	53.59	3.66	-42.0	-44.0	17.5	0.00e+00	0	33	0	20971520	58	6392
2026-01-05 19:52:33.06	53.49	3.72	-41.9	-43.8	17.7	0.00e+00	92	33	0	23068672	58	6268
2026-01-05 19:52:34.06	53.40	3.77	-42.1	-44.1	17.4	0.00e+00	0	33	0	25165824	58	6496
2026-01-05 19:52:35.07	53.30	3.82	-42.3	-44.3	17.2	0.00e+00	92	33	0	27262976	58	6638
2026-01-05 19:52:36.08	53.20	3.87	-42.1	-44.1	17.5	0.00e+00	0	33	0	28311552	58	6490
2026-01-05 19:52:37.09	53.10	3.92	-42.2	-44.2	17.2	0.00e+00	0	33	0	30408704	58	6613
2026-01-05 19:52:38.10	53.00	3.97	-42.1	-44.0	17.6	0.00e+00	92	33	0	32505856	58	6437
2026-01-05 19:52:39.11	52.90	4.02	-42.0	-43.9	17.6	0.00e+00	53	33	0	34603008	58	6367
2026-01-05 19:52:40.12	52.80	4.07	-42.1	-44.1	17.5	0.00e+00	92	33	0	36700160	58	6465
2026-01-05 19:52:41.13	52.70	4.12	-41.9	-43.7	17.8	0.00e+00	54	33	0	38797312	56	6998
2026-01-05 19:52:42.14	52.60	4.17	-42.0	-43.8	17.7	0.00e+00	92	33	0	39845888	56	7052
2026-01-05 19:52:43.15	52.50	4.23	-42.0	-43.8	17.8	0.00e+00	0	33	0	41943040	56	7069
2026-01-05 19:52:44.16	52.40	4.28	-41.8	-43.6	18.1	0.00e+00	58	33	0	44040192	56	6891
2026-01-05 19:52:45.17	52.29	4.33	-41.6	-43.2	18.4	0.00e+00	92	33	0	46137344	56	6612
2026-01-05 19:52:46.18	52.19	4.38	-42.0	-43.9	17.8	0.00e+00	2	33	0	48234496	56	7094
2026-01-05 19:52:47.19	52.09	4.43	-41.6	-43.3	18.4	0.00e+00	92	33	0	49283072	56	6629
2026-01-05 19:52:48.20	51.99	4.48	-41.8	-43.5	18.1	0.00e+00	26	33	0	51380224	56	6827
2026-01-05 19:52:49.21	51.88	4.53	-41.7	-43.4	18.3	0.00e+00	92	33	0	53477376	56	6714
2026-01-05 19:52:50.22	51.78	4.58	-41.7	-43.4	18.3	0.00e+00	0	33	0	55574528	56	6720
2026-01-05 19:52:51.23	51.67	4.64	-41.5	-43.2	18.6	0.00e+00	0	33	0	57671680	56	6553
2026-01-05 19:52:52.24	51.57	4.69	-41.4	-43.0	18.6	0.00e+00	92	33	0	58720256	56	6423
2026-01-05 19:52:53.25	51.46	4.74	-41.3	-42.9	18.9	0.00e+00	0	33	0	60817408	56	6329
2026-01-05 19:52:54.26	51.36	4.79	-41.4	-43.0	18.7	0.00e+00	92	33	0	62914560	56	6452
2026-01-05 19:52:55.27	51.25	4.84	-41.3	-42.9	18.9	0.00e+00	0	33	0	65011712	56	6342
2026-01-05 19:52:56.28	51.15	4.89	-41.4	-43.0	18.8	0.00e+00	92	33	0	67108864	56	6402
2026-01-05 19:52:57.29	51.04	4.94	-41.4	-43.1	18.7	0.00e+00	53	33	0	68157440	56	6472
2026-01-05 19:52:58.30	50.93	4.99	-41.4	-43.0	18.8	0.00e+00	92	33	0	70254592	56	6436
2026-01-05 19:52:59.31	50.83	5.05	-41.4	-43.0	18.8	0.00e+00	0	33	0	72351744	56	6431
2026-01-05 19:53:00.32	50.72	5.10	-41.4	-43.1	18.8	0.00e+00	0	33	0	74448896	56	6468
2026-01-05 19:53:01.32	50.61	5.15	-41.2	-42.8	19.0	0.00e+00	92	33	0	76546048	56	6296
2026-01-05 19:53:02.34	50.50	5.20	-41.2	-42.8	19.0	0.00e+00	51	33	0	77594624	56	6252
2026-01-05 19:53:03.35	50.39	5.25	-41.2	-42.7	19.2	0.00e+00	92	33	0	79691776	56	6213
2026-01-05 19:53:04.35	50.29	5.30	-41.2	-42.7	18.7	0.00e+00	53	33	0	81788928	56	6205
2026-01-05 19:53:05.36	50.18	5.35	-41.0	-42.5	19.3	0.00e+00	92	33	0	83886080	56	6090
2026-01-05 19:53:06.37	50.07	5.40	-41.0	-42.4	19.3	0.00e+00	0	33	0	85983232	56	6020
2026-01-05 19:53:07.38	49.96	5.46	-41.0	-42.5	19.3	0.00e+00	5	33	0	87031808	56	6091
2026-01-05 19:53:08.39	49.84	5.51	-41.0	-42.6	19.3	0.00e+00	92	33	0	89128960	56	6104
2026-01-05 19:53:09.40	49.73	5.56	-40.9	-42.4	19.5	0.00e+00	26	33	0	91226112	56	5988
2026-01-05 19:53:10.41	49.62	5.61	-40.9	-42.3	19.5	0.00e+00	92	33	0	93323264	56	5952
2026-01-05 19:53:11.42	49.51	5.66	-40.7	-42.2	19.7	0.00e+00	27	33	0	95420416	56	5835
2026-01-05 19:53:12.43	49.40	5.71	-40.7	-42.1	19.6	0.00e+00	92	33	0	96468992	54	6512
2026-01-05 19:53:13.44	49.28	5.76	-40.6	-42.0	19.7	0.00e+00	5	33	0	98566144	54	6453
2026-01-05 19:53:14.45	49.17	5.82	-40.6	-42.0	19.8	0.00e+00	2	33	0	100663296	54	6400
2026-01-05 19:53:15.46	49.06	5.87	-40.7	-42.1	19.6	0.00e+00	40	33	0	102760448	54	6507
2026-01-05 19:53:16.46	48.94	5.92	-40.8	-42.3	19.5	0.00e+00	0	33	0	104857600	54	6617
2026-01-05 19:53:17.47	48.83	5.97	-40.7	-42.2	19.6	0.00e+00	92	33	0	105906176	54	6559
2026-01-05 19:53:18.48	48.72	6.02	-40.7	-42.2	19.6	0.00e+00	0	33	0	108003328	54	6542
2026-01-05 19:53:19.49	48.60	6.07	-40.9	-42.4	19.4	0.00e+00	92	33	0	110100480	54	6719
2026-01-05 19:53:20.50	48.48	6.12	-40.6	-42.0	19.8	0.00e+00	54	33	0	112197632	54	6421
2026-01-05 19:53:21.51	48.37	6.17	-40.8	-42.2	19.6	0.00e+00	90	33	0	114294784	54	6605
2026-01-05 19:53:22.52	48.25	6.22	-40.8	-42.2	19.6	0.00e+00	0	33	0	115343360	54	6591
2026-01-05 19:53:23.53	48.13	6.28	-40.7	-42.2	19.7	0.00e+00	54	33	0	117440512	54	6549
2026-01-05 19:53:24.54	48.02	6.33	-40.8	-42.2	19.7	0.00e+00	92	33	0	119537664	54	6577
2026-01-05 19:53:25.55	47.90	6.38	-40.8	-42.2	19.6	0.00e+00	33	33	0	121634816	54	6611
2026-01-05 19:53:26.56	47.78	6.43	-40.9	-42.4	19.5	0.00e+00	90	33	0	123731968	54	6725
2026-01-05 19:53:27.57	47.66	6.48	-41.0	-42.5	19.3	0.00e+00	54	33	0	124780544	54	6817
2026-01-05 19:53:28.58	47.54	6.53	-40.9	-42.4	19.4	0.00e+00	92	33	0	126877696	54	6727
2026-01-05 19:53:29.59	47.42	6.58	-41.2	-42.7	19.3	0.00e+00	0	33	0	128974848	54	6984
2026-01-05 19:53:30.60	47.30	6.63	-40.9	-42.3	19.6	0.00e+00	6	33	0	131072000	54	6681
2026-01-05 19:53:31.61	47.18	6.69	-40.7	-42.2	19.7	0.00e+00	92	33	0	133169152	54	6551
2026-01-05 19:53:32.62	47.06	6.74	-40.9	-42.3	19.5	0.00e+00	30	33	0	135266304	54	6686
2026-01-05 19:53:33.63	46.94	6.79	-40.6	-41.9	19.9	0.00e+00	90	33	0	136314880	54	6384
2026-01-05 19:53:34.63	46.82	6.84	-40.6	-42.0	19.8	0.00e+00	0	33	0	138412032	54	6459
2026-01-05 19:53:35.65	46.70	6.89	-40.7	-42.1	19.8	0.00e+00	92	33	0	140509184	54	6507
2026-01-05 19:53:36.66	46.58	6.94	-40.6	-41.9	19.9	0.00e+00	5	33	0	142606336	54	6382
2026-01-05 19:53:37.66	46.45	6.99	-40.6	-42.0	19.9	0.00e+00	54	33	0	144703488	54	6418
2026-01-05 19:53:38.67	46.33	7.04	-40.5	-41.8	20.0	0.00e+00	2	33	0	145752064	54	6305
2026-01-05 19:53:39.68	46.21	7.09	-40.5	-41.9	20.1	0.00e+00	55	33	0	147849216	54	6320
2026-01-05 19:53:40.69	46.08	7.14	-40.6	-42.0	20.0	0.00e+00	92	33	0	149946368	54	6410
2026-01-05 19:53:41.70	45.96	7.19	-40.6	-42.0	19.8	0.00e+00	0	33	0	152043520	54	6437
2026-01-05 19:53:42.71	45.83	7.25	-40.6	-41.9	20.0	0.00e+00	92	33	0	154140672	54	6366
2026-01-05 19:53:43.72	45.71	7.30	-40.4	-41.8	20.1	0.00e+00	0	33	0	155189248	54	6254
2026-01-05 19:53:44.73	45.58	7.35	-40.5	-41.8	20.1	0.00e+00	92	33	0	157286400	54	6288
2026-01-05 19:53:45.74	45.45	7.40	-40.6	-41.9	20.0	0.00e+00	42	33	0	159383552	54	6375
2026-01-05 19:53:46.75	45.33	7.45	-40.7	-42.1	19.9	0.00e+00	56	33	0	161480704	54	6480
2026-01-05 19:53:47.76	45.20	7.50	-40.6	-41.9	20.0	0.00e+00	90	33	0	163577856	54	6376
2026-01-05 19:53:48.77	45.07	7.55	-40.5	-41.8	20.2	0.00e+00	55	33	0	164626432	54	6278
2026-01-05 19:53:49.78	44.94	7.60	-40.6	-42.0	20.1	0.00e+00	92	33	0	166723584	54	6405
2026-01-05 19:53:50.79	44.81	7.65	-40.4	-41.7	20.1	0.00e+00	26	33	0	168820736	54	6203
2026-01-05 19:53:51.80	44.68	7.70	-40.4	-41.8	20.2	0.00e+00	92	33	0	170917888	54	6270
2026-01-05 19:53:52.80	44.56	7.75	-40.3	-41.6	20.4	0.00e+00	2	33	0	173015040	54	6143
2026-01-05 19:53:53.81	44.43	7.80	-40.2	-41.5	20.5	0.00e+00	92	33	0	174063616	54	6066
2026-01-05 19:53:54.82	44.30	7.85	-40.2	-41.5	20.5	0.00e+00	11	33	0	176160768	54	6076
2026-01-05 19:53:55.83	44.16	7.90	-40.0	-41.3	20.6	0.00e+00	0	33	0	178257920	54	5928
2026-01-05 19:53:56.84	44.03	7.95	-40.1	-41.3	20.7	0.00e+00	90	33	0	180355072	54	5942
2026-01-05 19:53:57.85	43.90	8.00	-40.2	-41.5	20.6	0.00e+00	0	33	0	182452224	54	6052
2026-01-05 19:53:58.86	43.77	8.05	-40.1	-41.4	20.5	0.00e+00	46	33	0	183500800	54	6005
2026-01-05 19:53:59.87	43.63	8.10	-40.1	-41.4	20.5	0.00e+00	0	33	0	185597952	54	6005
2026-01-05 19:54:00.88	43.50	8.15	-40.1	-41.3	20.6	0.00e+00	56	33	0	187695104	54	5955
2026-01-05 19:54:01.89	43.37	8.20	-40.1	-41.4	20.6	0.00e+00	4	33	0	189792256	54	5983
2026-01-05 19:54:02.90	43.23	8.25	-40.2	-41.4	20.5	0.00e+00	0	34	0	191889408	54	6026
2026-01-05 19:54:03.91	43.10	8.30	-39.8	-41.0	20.9	0.00e+00	91	33	0	192937984	54	5757
2026-01-05 19:54:04.92	42.96	8.35	-39.9	-41.1	20.9	0.00e+00	0	33	0	195035136	54	5776
2026-01-05 19:54:05.92	42.83	8.40	-39.8	-41.0	20.9	0.00e+00	92	33	0	197132288	54	5758
2026-01-05 19:54:06.93	42.69	8.45	-40.0	-41.3	20.8	0.00e+00	27	33	0	199229440	54	5897
2026-01-05 19:54:07.94	42.56	8.50	-40.0	-41.3	20.7	0.00e+00	56	33	0	201326592	54	5916
2026-01-05 19:54:08.95	42.42	8.55	-39.9	-41.1	20.9	0.00e+00	41	33	0	203423744	54	5787
2026-01-05 19:54:09.96	42.28	8.60	-39.9	-41.1	20.9	0.00e+00	27	33	0	204472320	54	5820
2026-01-05 19:54:10.97	42.14	8.65	-39.9	-41.1	20.9	0.00e+00	91	33	0	206569472	54	5803
2026-01-05 19:54:11.97	42.00	8.70	-39.9	-41.1	20.9	0.00e+00	55	33	0	208666624	54	5805
2026-01-05 19:54:12.98	41.87	8.75	-40.0	-41.2	20.8	0.00e+00	91	33	0	210763776	54	5863
2026-01-05 19:54:13.99	41.73	8.80	-39.8	-41.0	21.0	0.00e+00	26	33	0	212860928	54	5704
2026-01-05 19:54:15.00	41.59	8.85	-39.8	-41.1	20.9	0.00e+00	25	33	0	213909504	54	5763
2026-01-05 19:54:16.01	41.44	8.90	-39.9	-41.1	20.9	0.00e+00	34	33	0	216006656	54	5811
2026-01-05 19:54:17.02	41.30	8.95	-39.8	-41.0	20.9	0.00e+00	25	33	0	218103808	54	5756
2026-01-05 19:54:18.03	41.16	9.00	-39.9	-41.1	20.9	0.00e+00	91	33	0	220200960	54	5815
2026-01-05 19:54:19.04	41.02	9.05	-40.1	-41.3	20.6	0.00e+00	0	33	0	222298112	54	5934
2026-01-05 19:54:20.05	40.88	9.10	-40.0	-41.2	20.8	0.00e+00	91	34	0	223346688	54	5861
2026-01-05 19:54:21.06	40.73	9.14	-40.1	-41.3	20.8	0.00e+00	0	33	0	225443840	54	5933
2026-01-05 19:54:22.07	40.59	9.19	-40.0	-41.2	20.8	0.00e+00	31	33	0	227540992	54	5894
2026-01-05 19:54:23.07	40.45	9.24	-39.9	-41.2	20.9	0.00e+00	0	33	0	229638144	54	5838
2026-01-05 19:54:24.08	40.30	9.29	-40.0	-41.3	20.8	0.00e+00	56	33	0	231735296	54	5900
2026-01-05 19:54:25.09	40.16	9.34	-39.9	-41.1	20.9	0.00e+00	2	33	0	232783872	54	5814
2026-01-05 19:54:26.10	40.01	9.39	-39.9	-41.1	20.9	0.00e+00	2	34	0	234881024	54	5804
2026-01-05 19:54:27.11	39.87	9.44	-39.9	-41.1	20.9	0.00e+00	92	33	0	236978176	54	5808
2026-01-05 19:54:28.12	39.72	9.48	-39.8	-41.0	21.1	0.00e+00	56	34	0	239075328	52	6410
2026-01-05 19:54:29.13	39.57	9.53	-39.8	-41.0	21.0	0.00e+00	73	33	0	241172480	52	6449
2026-01-05 19:54:30.15	39.42	9.58	-39.6	-40.8	21.3	0.00e+00	24	33	0	242221056	52	6259
2026-01-05 19:54:31.15	39.28	9.63	-39.6	-40.8	21.3	0.00e+00	55	34	0	244318208	52	6252
2026-01-05 19:54:32.16	39.13	9.68	-39.5	-40.7	21.3	0.00e+00	0	33	0	246415360	52	6197
2026-01-05 19:54:33.17	38.98	9.72	-39.3	-40.4	21.6	0.00e+00	26	33	0	248512512	52	6015
2026-01-05 19:54:34.18	38.83	9.77	-39.3	-40.5	21.6	0.00e+00	92	33	0	250609664	52	6037
2026-01-05 19:54:35.19	38.68	9.82	-39.3	-40.4	21.7	0.00e+00	0	33	0	251658240	52	5968
2026-01-05 19:54:36.19	38.53	9.87	-39.2	-40.3	21.7	0.00e+00	92	34	0	253755392	52	5898
2026-01-05 19:54:37.20	38.38	9.91	-39.2	-40.2	21.8	0.00e+00	0	34	0	255852544	52	5887
2026-01-05 19:54:38.21	38.23	9.96	-39.2	-40.3	21.7	0.00e+00	24	33	0	257949696	52	5930
2026-01-05 19:54:39.22	38.08	10.01	-39.1	-40.2	21.8	0.00e+00	0	33	0	260046848	52	5837
2026-01-05 19:54:40.23	37.93	10.06	-39.1	-40.1	22.0	0.00e+00	0	33	0	261095424	52	5827
2026-01-05 19:54:41.24	37.77	10.10	-38.8	-39.9	22.1	0.00e+00	91	33	0	263192576	52	5659
2026-01-05 19:54:42.25	37.62	10.15	-38.6	-39.7	22.3	0.00e+00	2	33	0	265289728	50	6187
2026-01-05 19:54:43.26	37.47	10.20	-38.6	-39.6	22.4	0.00e+00	90	34	0	267386880	50	6135
2026-01-05 19:54:44.27	37.31	10.24	-38.6	-39.6	22.4	0.00e+00	0	33	0	269484032	50	6143
2026-01-05 19:54:45.28	37.16	10.29	-38.4	-39.4	22.6	0.00e+00	54	33	0	271581184	50	6009
2026-01-05 19:54:46.29	37.00	10.34	-38.5	-39.5	22.5	0.00e+00	0	34	0	272629760	50	6042
2026-01-05 19:54:47.30	36.84	10.38	-38.4	-39.4	22.6	0.00e+00	0	33	0	274726912	50	5968
2026-01-05 19:54:48.30	36.69	10.43	-38.4	-39.3	22.7	0.00e+00	55	33	0	276824064	50	5963
2026-01-05 19:54:49.31	36.53	10.48	-38.4	-39.4	22.5	0.00e+00	0	33	0	278921216	50	5971
2026-01-05 19:54:50.32	36.37	10.52	-38.3	-39.2	22.7	0.00e+00	92	33	0	279969792	50	5892
2026-01-05 19:54:51.33	36.22	10.57	-38.2	-39.1	22.8	0.00e+00	0	34	0	282066944	50	5818
2026-01-05 19:54:52.34	36.06	10.61	-38.3	-39.2	22.7	0.00e+00	90	34	0	284164096	50	5896
2026-01-05 19:54:53.35	35.90	10.66	-38.3	-39.3	22.6	0.00e+00	27	33	0	286261248	50	5935
2026-01-05 19:54:54.36	35.74	10.70	-38.3	-39.3	22.7	0.00e+00	55	34	0	288358400	50	5949
2026-01-05 19:54:55.37	35.58	10.75	-38.3	-39.3	22.7	0.00e+00	43	34	0	289406976	50	5923
2026-01-05 19:54:56.38	35.42	10.80	-38.1	-39.1	22.8	0.00e+00	5	33	0	291504128	50	5791
2026-01-05 19:54:57.39	35.26	10.84	-38.2	-39.2	22.7	0.00e+00	92	34	0	293601280	50	5838
2026-01-05 19:54:58.39	35.10	10.88	-38.0	-39.0	23.0	0.00e+00	7	34	0	295698432	50	5732
2026-01-05 19:54:59.40	34.94	10.93	-37.9	-38.9	23.1	0.00e+00	70	33	0	297795584	50	5667
2026-01-05 19:55:00.41	34.77	10.97	-38.0	-39.0	23.0	0.00e+00	6	34	0	299892736	50	5728
2026-01-05 19:55:01.42	34.61	11.02	-38.0	-39.0	23.0	0.00e+00	24	34	0	300941312	50	5697
2026-01-05 19:55:02.43	34.45	11.06	-38.0	-38.9	23.1	0.00e+00	0	34	0	303038464	50	5679
2026-01-05 19:55:03.44	34.28	11.11	-37.9	-38.8	23.1	0.00e+00	6	33	0	305135616	50	5598
2026-01-05 19:55:04.45	34.12	11.15	-37.9	-38.9	23.1	0.00e+00	92	34	0	307232768	50	5642
2026-01-05 19:55:05.46	33.95	11.20	-37.9	-38.8	23.1	0.00e+00	0	34	0	309329920	50	5613
2026-01-05 19:55:06.46	33.79	11.24	-38.0	-38.9	23.1	0.00e+00	92	34	0	310378496	50	5667
2026-01-05 19:55:07.47	33.62	11.28	-38.0	-38.9	23.0	0.00e+00	5	34	0	312475648	50	5679
2026-01-05 19:55:08.48	33.46	11.33	-37.8	-38.8	23.1	0.00e+00	54	34	0	314572800	50	5586
2026-01-05 19:55:09.49	33.29	11.37	-37.8	-38.7	23.2	0.00e+00	56	34	0	316669952	50	5548
2026-01-05 19:55:10.50	33.12	11.41	-38.0	-39.0	23.1	0.00e+00	0	34	0	318767104	50	5715
2026-01-05 19:55:11.51	32.95	11.46	-37.7	-38.6	23.2	0.00e+00	0	34	0	319815680	48	6167
2026-01-05 19:55:12.52	32.79	11.50	-37.7	-38.6	23.2	0.00e+00	0	34	0	321912832	48	6162
2026-01-05 19:55:13.53	32.62	11.54	-37.4	-38.3	23.6	0.00e+00	92	34	0	324009984	48	5954
2026-01-05 19:55:14.54	32.45	11.58	-37.5	-38.4	23.4	0.00e+00	55	34	0	326107136	48	5965
2026-01-05 19:55:15.55	32.28	11.63	-37.6	-38.5	23.4	0.00e+00	54	33	0	328204288	48	6060
2026-01-05 19:55:16.56	32.11	11.67	-37.5	-38.4	23.5	0.00e+00	31	34	0	329252864	48	6015
2026-01-05 19:55:17.56	31.94	11.71	-37.5	-38.4	23.5	0.00e+00	29	34	0	331350016	48	6004
2026-01-05 19:55:18.57	31.77	11.75	-37.5	-38.4	23.5	0.00e+00	55	34	0	333447168	48	6020
2026-01-05 19:55:19.58	31.59	11.79	-37.4	-38.3	23.6	0.00e+00	6	34	0	335544320	48	5960
2026-01-05 19:55:20.59	31.42	11.83	-37.4	-38.3	23.6	0.00e+00	92	34	0	337641472	48	5935
2026-01-05 19:55:21.60	31.25	11.88	-37.6	-38.6	23.4	0.00e+00	0	33	0	338690048	48	6105
2026-01-05 19:55:22.61	31.08	11.92	-37.6	-38.5	23.4	0.00e+00	92	33	0	340787200	48	6080
2026-01-05 19:55:23.62	30.90	11.96	-37.7	-38.6	23.4	0.00e+00	33	33	0	342884352	48	6133
2026-01-05 19:55:24.63	30.73	12.00	-37.7	-38.7	23.3	0.00e+00	6	34	0	344981504	48	6200
2026-01-05 19:55:25.64	30.55	12.04	-37.7	-38.7	23.3	0.00e+00	0	34	0	347078656	48	6189
2026-01-05 19:55:26.65	30.38	12.08	-37.8	-38.7	23.2	0.00e+00	0	33	0	348127232	48	6240
2026-01-05 19:55:27.66	30.20	12.12	-37.8	-38.8	23.1	0.00e+00	92	34	0	350224384	48	6267
2026-01-05 19:55:28.67	30.02	12.16	-37.8	-38.8	23.0	0.00e+00	0	33	0	352321536	48	6252
2026-01-05 19:55:29.67	29.85	12.20	-37.8	-38.7	23.3	0.00e+00	92	34	0	354418688	48	6216
2026-01-05 19:55:30.69	29.67	12.24	-37.8	-38.7	23.2	0.00e+00	55	34	0	356515840	48	6235
2026-01-05 19:55:31.69	29.49	12.28	-37.8	-38.8	23.2	0.00e+00	0	34	0	357564416	48	6265
2026-01-05 19:55:32.70	29.32	12.32	-37.9	-38.8	23.2	0.00e+00	0	33	0	359661568	48	6280
2026-01-05 19:55:33.71	29.14	12.36	-38.0	-38.9	23.0	0.00e+00	57	34	0	361758720	48	6388
2026-01-05 19:55:34.72	28.96	12.39	-38.1	-39.1	22.9	0.00e+00	0	34	0	363855872	48	6494
2026-01-05 19:55:35.73	28.78	12.43	-38.2	-39.2	22.9	0.00e+00	56	33	0	365953024	48	6568
2026-01-05 19:55:36.74	28.60	12.47	-38.1	-39.1	23.0	0.00e+00	92	34	0	368050176	48	6489
2026-01-05 19:55:37.75	28.42	12.51	-38.0	-39.0	23.1	0.00e+00	26	34	0	369098752	48	6419
2026-01-05 19:55:38.76	28.24	12.55	-38.0	-39.0	23.0	0.00e+00	92	34	0	371195904	48	6413
2026-01-05 19:55:39.77	28.05	12.58	-37.9	-38.8	23.2	0.00e+00	56	34	0	373293056	48	6299
2026-01-05 19:55:40.78	27.87	12.62	-37.9	-38.9	23.1	0.00e+00	0	34	0	375390208	48	6345
2026-01-05 19:55:41.79	27.69	12.66	-37.8	-38.7	23.3	0.00e+00	0	34	0	377487360	48	6189
2026-01-05 19:55:42.80	27.51	12.70	-37.9	-38.8	23.2	0.00e+00	25	34	0	378535936	48	6294
2026-01-05 19:55:43.81	27.32	12.73	-37.9	-38.8	23.1	0.00e+00	90	33	0	380633088	48	6306
2026-01-05 19:55:44.82	27.14	12.77	-37.7	-38.6	23.3	0.00e+00	0	34	0	382730240	48	6122
2026-01-05 19:55:45.83	26.95	12.80	-37.8	-38.7	23.3	0.00e+00	92	34	0	384827392	48	6205
2026-01-05 19:55:46.83	26.77	12.84	-37.8	-38.8	23.2	0.00e+00	0	34	0	386924544	48	6246
2026-01-05 19:55:47.84	26.59	12.88	-37.8	-38.7	23.2	0.00e+00	0	34	0	387973120	48	6236
2026-01-05 19:55:48.85	26.40	12.91	-37.8	-38.8	23.2	0.00e+00	0	34	0	390070272	48	6269
2026-01-05 19:55:49.86	26.21	12.95	-38.0	-38.9	23.1	0.00e+00	0	34	0	392167424	48	6346
2026-01-05 19:55:50.87	26.03	12.98	-37.7	-38.6	23.3	0.00e+00	27	34	0	394264576	48	6151
2026-01-05 19:55:51.88	25.84	13.02	-37.7	-38.6	23.4	0.00e+00	55	33	0	396361728	48	6162
2026-01-05 19:55:52.89	25.65	13.05	-37.6	-38.5	23.5	0.00e+00	92	34	0	397410304	48	6060
2026-01-05 19:55:53.90	25.46	13.08	-37.6	-38.5	23.4	0.00e+00	57	34	0	399507456	48	6067
2026-01-05 19:55:54.91	25.28	13.12	-37.6	-38.5	23.5	0.00e+00	45	34	0	401604608	48	6062
2026-01-05 19:55:55.92	25.09	13.15	-37.7	-38.6	23.4	0.00e+00	0	34	0	403701760	48	6142
2026-01-05 19:55:56.92	24.90	13.19	-37.7	-38.6	23.4	0.00e+00	0	34	0	405798912	48	6126
2026-01-05 19:55:57.93	24.71	13.22	-37.8	-38.8	23.2	0.00e+00	0	34	0	406847488	48	6253
2026-01-05 19:55:58.94	24.52	13.25	-37.7	-38.6	23.2	0.00e+00	57	34	0	408944640	48	6128
2026-01-05 19:55:59.95	24.33	13.28	-37.6	-38.5	23.5	0.00e+00	92	34	0	411041792	48	6050
2026-01-05 19:56:00.96	24.14	13.32	-37.7	-38.6	23.4	0.00e+00	25	34	0	413138944	48	6150
2026-01-05 19:56:01.97	23.95	13.35	-37.7	-38.6	23.4	0.00e+00	92	34	0	415236096	48	6145
2026-01-05 19:56:02.98	23.75	13.38	-37.7	-38.6	23.4	0.00e+00	3	34	0	416284672	48	6118
2026-01-05 19:56:03.99	23.56	13.41	-37.6	-38.6	23.5	0.00e+00	0	34	0	418381824	48	6112
2026-01-05 19:56:05.00	23.37	13.44	-37.5	-38.4	23.5	0.00e+00	31	34	0	420478976	48	6015
2026-01-05 19:56:06.00	23.18	13.47	-37.5	-38.4	23.6	0.00e+00	0	34	0	422576128	48	6026
2026-01-05 19:56:07.01	22.98	13.50	-37.5	-38.4	23.6	0.00e+00	92	34	0	424673280	48	5989
2026-01-05 19:56:08.02	22.79	13.53	-37.4	-38.3	23.7	0.00e+00	0	34	0	425721856	48	5919
2026-01-05 19:56:09.03	22.60	13.56	-37.5	-38.4	23.5	0.00e+00	92	34	0	427819008	48	6025
2026-01-05 19:56:10.04	22.40	13.59	-37.6	-38.5	23.5	0.00e+00	0	34	0	429916160	48	6092
2026-01-05 19:56:11.05	22.21	13.62	-37.5	-38.5	23.5	0.00e+00	0	34	0	432013312	48	6041
2026-01-05 19:56:12.06	22.01	13.65	-37.6	-38.5	23.4	0.00e+00	0	34	0	434110464	48	6057
2026-01-05 19:56:13.07	21.81	13.68	-37.6	-38.5	23.6	0.00e+00	0	34	0	435159040	48	6054
2026-01-05 19:56:14.08	21.62	13.71	-37.5	-38.4	23.6	0.00e+00	82	34	0	437256192	48	5990
2026-01-05 19:56:15.09	21.42	13.74	-37.3	-38.2	23.8	0.00e+00	0	34	0	439353344	48	5875
2026-01-05 19:56:16.10	21.22	13.77	-37.4	-38.3	23.7	0.00e+00	90	34	0	441450496	48	5939
2026-01-05 19:56:17.11	21.03	13.79	-37.5	-38.4	23.6	0.00e+00	56	34	0	443547648	48	5997
2026-01-05 19:56:18.12	20.83	13.82	-37.6	-38.5	23.5	0.00e+00	62	34	0	444596224	48	6058
2026-01-05 19:56:19.12	20.63	13.85	-37.5	-38.4	23.6	0.00e+00	0	34	0	446693376	48	5999
2026-01-05 19:56:20.13	20.43	13.87	-37.4	-38.3	23.7	0.00e+00	25	34	0	448790528	48	5926
2026-01-05 19:56:21.14	20.24	13.90	-37.4	-38.3	23.6	0.00e+00	0	34	0	450887680	48	5917
2026-01-05 19:56:22.15	20.04	13.93	-37.4	-38.3	23.7	0.00e+00	59	34	0	452984832	48	5925
2026-01-05 19:56:23.16	19.84	13.95	-37.6	-38.5	23.5	0.00e+00	92	34	0	454033408	48	6045
2026-01-05 19:56:24.17	19.64	13.98	-37.7	-38.6	23.2	0.00e+00	21	34	0	456130560	48	6148
2026-01-05 19:56:25.18	19.44	14.00	-37.8	-38.8	23.3	0.00e+00	91	33	0	458227712	48	6257
2026-01-05 19:56:26.19	19.24	14.03	-37.9	-38.9	23.1	0.00e+00	0	34	0	460324864	48	6329
2026-01-05 19:56:27.19	19.04	14.05	-37.8	-38.7	23.3	0.00e+00	0	34	0	462422016	48	6196
2026-01-05 19:56:28.20	18.84	14.08	-37.8	-38.8	23.2	0.00e+00	0	34	0	464519168	48	6247
2026-01-05 19:56:29.21	18.63	14.10	-37.7	-38.6	23.4	0.00e+00	24	34	0	465567744	48	6138
2026-01-05 19:56:30.22	18.43	14.12	-37.8	-38.8	23.3	0.00e+00	90	34	0	467664896	48	6254
2026-01-05 19:56:31.23	18.23	14.15	-38.0	-38.9	23.2	0.00e+00	0	34	0	469762048	48	6365
2026-01-05 19:56:32.24	18.03	14.17	-38.1	-39.0	23.0	0.00e+00	92	34	0	471859200	48	6445
2026-01-05 19:56:33.25	17.82	14.19	-38.1	-39.1	23.0	0.00e+00	0	34	0	473956352	48	6496
2026-01-05 19:56:34.26	17.62	14.21	-38.1	-39.0	23.1	0.00e+00	0	33	0	475004928	48	6428
2026-01-05 19:56:35.27	17.42	14.24	-38.1	-39.1	23.0	0.00e+00	0	34	0	477102080	48	6488
2026-01-05 19:56:36.28	17.21	14.26	-38.1	-39.0	23.1	0.00e+00	0	34	0	479199232	48	6440
2026-01-05 19:56:37.28	17.01	14.28	-38.2	-39.1	23.0	0.00e+00	2	34	0	481296384	48	6532
2026-01-05 19:56:38.29	16.81	14.30	-38.4	-39.4	22.8	0.00e+00	49	34	0	483393536	48	6710
2026-01-05 19:56:39.30	16.60	14.32	-38.4	-39.4	22.7	0.00e+00	90	34	0	484442112	48	6760
2026-01-05 19:56:40.31	16.40	14.34	-38.5	-39.5	22.6	0.00e+00	50	34	0	486539264	48	6818
2026-01-05 19:56:41.32	16.19	14.36	-38.5	-39.5	22.6	0.00e+00	91	34	0	488636416	48	6811
2026-01-05 19:56:42.33	15.99	14.38	-38.6	-39.6	22.6	0.00e+00	0	34	0	490733568	48	6881
2026-01-05 19:56:43.34	15.78	14.40	-38.4	-39.4	22.8	0.00e+00	0	34	0	492830720	48	6731
2026-01-05 19:56:44.35	15.57	14.42	-38.2	-39.2	22.9	0.00e+00	43	34	0	493879296	48	6584
2026-01-05 19:56:45.36	15.37	14.44	-38.4	-39.4	22.8	0.00e+00	25	34	0	495976448	48	6717
2026-01-05 19:56:46.36	15.16	14.45	-38.2	-39.2	22.8	0.00e+00	92	34	0	498073600	48	6545
2026-01-05 19:56:47.37	14.96	14.47	-38.1	-39.0	23.1	0.00e+00	25	34	0	500170752	48	6462
2026-01-05 19:56:48.38	14.75	14.49	-38.0	-38.9	23.1	0.00e+00	92	34	0	502267904	48	6385
2026-01-05 19:56:49.39	14.54	14.51	-38.0	-38.9	23.1	0.00e+00	5	34	0	503316480	48	6351
2026-01-05 19:56:50.40	14.34	14.52	-37.8	-38.7	23.3	0.00e+00	0	34	0	505413632	48	6213
2026-01-05 19:56:51.41	14.13	14.54	-37.8	-38.7	23.3	0.00e+00	0	34	0	507510784	48	6223
2026-01-05 19:56:52.42	13.92	14.55	-37.7	-38.6	23.5	0.00e+00	26	34	0	509607936	48	6131
2026-01-05 19:56:53.43	13.71	14.57	-37.6	-38.5	23.5	0.00e+00	37	34	0	511705088	48	6078
2026-01-05 19:56:54.43	13.50	14.58	-37.7	-38.6	23.5	0.00e+00	0	34	0	512753664	48	6112
2026-01-05 19:56:55.44	13.30	14.60	-37.8	-38.7	23.3	0.00e+00	92	33	0	514850816	48	6195
2026-01-05 19:56:56.45	13.09	14.61	-37.8	-38.7	23.4	0.00e+00	0	34	0	516947968	48	6206
2026-01-05 19:56:57.46	12.88	14.63	-37.7	-38.7	23.4	0.00e+00	32	34	0	519045120	48	6180
2026-01-05 19:56:58.47	12.67	14.64	-38.0	-38.9	23.2	0.00e+00	0	34	0	521142272	48	6364
2026-01-05 19:56:59.48	12.46	14.65	-37.7	-38.6	23.4	0.00e+00	0	34	0	522190848	48	6113
2026-01-05 19:57:00.49	12.25	14.67	-37.7	-38.6	23.4	0.00e+00	55	34	0	524288000	48	6159
2026-01-05 19:57:01.50	12.04	14.68	-37.8	-38.8	23.3	0.00e+00	0	34	0	526385152	48	6251
2026-01-05 19:57:02.51	11.83	14.69	-37.9	-38.9	23.2	0.00e+00	92	34	0	528482304	48	6331
2026-01-05 19:57:03.52	11.62	14.70	-38.1	-39.0	23.0	0.00e+00	0	34	0	530579456	48	6435
2026-01-05 19:57:04.53	11.41	14.71	-38.2	-39.2	22.9	0.00e+00	90	34	0	531628032	48	6575
2026-01-05 19:57:05.53	11.20	14.72	-38.2	-39.1	23.0	0.00e+00	5	34	0	533725184	48	6534
2026-01-05 19:57:06.54	10.99	14.74	-38.0	-38.9	23.1	0.00e+00	33	34	0	535822336	48	6384
2026-01-05 19:57:07.55	10.78	14.75	-37.9	-38.8	23.3	0.00e+00	39	34	0	537919488	48	6316
2026-01-05 19:57:08.56	10.57	14.76	-37.9	-38.8	23.3	0.00e+00	50	34	0	540016640	48	6282
2026-01-05 19:57:09.57	10.36	14.76	-37.7	-38.6	23.4	0.00e+00	92	33	0	541065216	48	6162
2026-01-05 19:57:10.58	10.15	14.77	-37.8	-38.7	23.4	0.00e+00	6	34	0	543162368	48	6244
2026-01-05 19:57:11.59	9.94	14.78	-37.9	-38.8	23.2	0.00e+00	92	34	0	545259520	48	6276
2026-01-05 19:57:12.60	9.72	14.79	-38.0	-38.9	23.2	0.00e+00	36	34	0	547356672	48	6359
2026-01-05 19:57:13.61	9.51	14.80	-38.0	-38.9	23.2	0.00e+00	7	34	0	549453824	48	6380
2026-01-05 19:57:14.62	9.30	14.81	-37.8	-38.8	23.2	0.00e+00	30	34	0	550502400	48	6260
2026-01-05 19:57:15.63	9.09	14.81	-37.9	-38.9	23.2	0.00e+00	6	34	0	552599552	48	6343
2026-01-05 19:57:16.64	8.88	14.82	-37.8	-38.7	23.2	0.00e+00	92	34	0	554696704	48	6244
2026-01-05 19:57:17.64	8.67	14.83	-37.8	-38.7	23.3	0.00e+00	6	34	0	556793856	48	6216
2026-01-05 19:57:18.65	8.46	14.83	-37.7	-38.6	23.5	0.00e+00	91	34	0	558891008	48	6134
2026-01-05 19:57:19.66	8.24	14.84	-37.7	-38.6	23.4	0.00e+00	0	34	0	560988160	48	6164
2026-01-05 19:57:20.67	8.03	14.84	-37.7	-38.7	23.4	0.00e+00	57	34	0	562036736	48	6176
2026-01-05 19:57:21.68	7.82	14.85	-37.8	-38.7	23.3	0.00e+00	55	34	0	564133888	48	6244
2026-01-05 19:57:22.69	7.61	14.85	-37.9	-38.8	23.2	0.00e+00	0	34	0	566231040	48	6268
2026-01-05 19:57:23.70	7.39	14.86	-37.9	-38.8	23.2	0.00e+00	0	34	0	568328192	48	6317
2026-01-05 19:57:24.71	7.18	14.86	-37.9	-38.8	23.3	0.00e+00	0	34	0	570425344	48	6270
2026-01-05 19:57:25.72	6.97	14.86	-37.8	-38.7	23.3	0.00e+00	91	34	0	571473920	48	6211
2026-01-05 19:57:26.73	6.76	14.86	-37.7	-38.6	23.4	0.00e+00	58	33	0	573571072	48	6118
2026-01-05 19:57:27.74	6.54	14.87	-37.7	-38.6	23.5	0.00e+00	90	34	0	575668224	48	6118
2026-01-05 19:57:28.75	6.33	14.87	-37.8	-38.7	23.4	0.00e+00	24	34	0	577765376	48	6233
2026-01-05 19:57:29.76	6.12	14.87	-38.0	-38.9	23.2	0.00e+00	24	34	0	579862528	48	6356
2026-01-05 19:57:30.77	5.91	14.87	-38.0	-38.9	23.2	0.00e+00	57	34	0	580911104	48	6360
2026-01-05 19:57:31.78	5.69	14.87	-37.9	-38.9	23.2	0.00e+00	25	34	0	583008256	48	6333
2026-01-05 19:57:32.78	5.48	14.87	-38.2	-39.1	23.0	0.00e+00	91	34	0	585105408	48	6534
2026-01-05 19:57:33.79	5.27	14.87	-37.9	-38.8	23.3	0.00e+00	24	34	0	587202560	48	6316
2026-01-05 19:57:34.80	5.06	14.87	-37.7	-38.6	23.6	0.00e+00	91	34	0	589299712	48	6130
2026-01-05 19:57:35.81	4.85	14.87	-37.6	-38.5	23.5	0.00e+00	0	34	0	590348288	48	6086
2026-01-05 19:57:36.82	4.63	14.87	-37.6	-38.5	23.5	0.00e+00	90	34	0	592445440	48	6036
2026-01-05 19:57:37.83	4.42	14.87	-37.5	-38.4	22.9	0.00e+00	0	34	0	594542592	48	5999
2026-01-05 19:57:38.84	4.21	14.87	-37.5	-38.4	23.4	0.00e+00	0	34	0	596639744	48	6028
2026-01-05 19:57:39.85	4.00	14.86	-37.6	-38.6	23.5	0.00e+00	90	33	0	598736896	48	6108
2026-01-05 19:57:40.86	3.78	14.86	-37.6	-38.6	23.3	0.00e+00	0	34	0	599785472	48	6104
2026-01-05 19:57:41.87	3.57	14.86	-37.7	-38.6	23.4	0.00e+00	92	34	0	601882624	48	6163
2026-01-05 19:57:42.88	3.36	14.85	-37.7	-38.6	23.4	0.00e+00	50	34	0	603979776	48	6157
2026-01-05 19:57:43.89	3.15	14.85	-37.9	-38.8	23.2	0.00e+00	57	34	0	606076928	48	6293
2026-01-05 19:57:44.90	2.93	14.85	-37.8	-38.7	23.3	0.00e+00	55	34	0	608174080	48	6226
2026-01-05 19:57:45.90	2.72	14.84	-37.9	-38.9	23.2	0.00e+00	0	34	0	609222656	48	6322
2026-01-05 19:57:46.92	2.51	14.84	-38.1	-39.0	23.1	0.00e+00	0	34	0	611319808	48	6419
2026-01-05 19:57:47.92	2.30	14.83	-38.0	-38.9	23.2	0.00e+00	0	34	0	613416960	48	6364
2026-01-05 19:57:48.93	2.09	14.82	-38.2	-39.1	23.0	0.00e+00	90	34	0	615514112	48	6516
2026-01-05 19:57:49.94	1.88	14.82	-38.3	-39.3	22.8	0.00e+00	25	34	0	617611264	48	6653
2026-01-05 19:57:50.95	1.66	14.81	-38.4	-39.4	22.8	0.00e+00	92	34	0	618659840	48	6704
2026-01-05 19:57:51.96	1.45	14.80	-38.4	-39.4	22.8	0.00e+00	26	34	0	620756992	48	6719
2026-01-05 19:57:52.97	1.24	14.80	-38.4	-39.4	22.8	0.00e+00	25	34	0	622854144	48	6740
2026-01-05 19:57:53.98	1.03	14.79	-38.2	-39.2	23.0	0.00e+00	0	34	0	624951296	48	6571
2026-01-05 19:57:54.99	0.82	14.78	-38.3	-39.3	22.9	0.00e+00	0	34	0	627048448	48	6635
2026-01-05 19:57:56.00	0.61	14.77	-38.2	-39.2	23.1	0.00e+00	92	34	0	629145600	48	6544
2026-01-05 19:57:57.01	0.40	14.76	-38.0	-39.0	23.1	0.00e+00	25	34	0	630194176	48	6419
2026-01-05 19:57:58.02	0.18	14.75	-38.2	-39.1	23.1	0.00e+00	92	34	0	632291328	48	6505
2026-01-05 19:57:59.02	359.98	14.74	-38.2	-39.1	22.9	0.00e+00	24	34	0	634388480	48	6532
2026-01-05 19:58:00.03	359.76	14.73	-38.4	-39.4	22.8	0.00e+00	28	34	0	636485632	48	6742
2026-01-05 19:58:01.04	359.55	14.72	-38.5	-39.5	22.7	0.00e+00	2	34	0	638582784	48	6846
2026-01-05 19:58:02.05	359.34	14.71	-38.5	-39.5	22.4	0.00e+00	0	34	0	639631360	48	6821
2026-01-05 19:58:03.06	359.13	14.70	-38.6	-39.6	22.6	0.00e+00	0	34	0	641728512	48	6896
2026-01-05 19:58:04.07	358.92	14.69	-38.6	-39.6	22.6	0.00e+00	0	34	0	643825664	50	6147
2026-01-05 19:58:05.08	358.71	14.68	-38.9	-40.0	22.5	0.00e+00	92	34	0	645922816	50	6403
2026-01-05 19:58:06.09	358.50	14.66	-38.8	-39.8	22.5	0.00e+00	0	34	0	648019968	50	6296
2026-01-05 19:58:07.10	358.29	14.65	-38.3	-39.3	22.9	0.00e+00	59	34	0	649068544	50	5935
2026-01-05 19:58:08.11	358.09	14.64	-38.1	-39.0	23.2	0.00e+00	0	34	0	651165696	50	5738
2026-01-05 19:58:09.12	357.88	14.62	-38.1	-39.1	23.1	0.00e+00	52	34	0	653262848	50	5786
2026-01-05 19:58:10.13	357.67	14.61	-37.9	-38.9	23.3	0.00e+00	0	34	0	655360000	50	5632
2026-01-05 19:58:11.14	357.46	14.60	-38.0	-39.0	23.2	0.00e+00	0	34	0	657457152	50	5698
2026-01-05 19:58:12.14	357.25	14.58	-38.1	-39.1	23.1	0.00e+00	92	34	0	658505728	50	5764
2026-01-05 19:58:13.15	357.04	14.57	-38.0	-38.9	23.2	0.00e+00	30	34	0	660602880	50	5655
2026-01-05 19:58:14.16	356.84	14.55	-37.9	-38.9	23.2	0.00e+00	92	34	0	662700032	50	5635
2026-01-05 19:58:15.17	356.63	14.53	-38.1	-39.0	23.1	0.00e+00	56	34	0	664797184	50	5723
2026-01-05 19:58:16.18	356.42	14.52	-38.1	-39.0	23.1	0.00e+00	23	34	0	666894336	50	5752
2026-01-05 19:58:17.19	356.21	14.50	-38.0	-39.0	23.1	0.00e+00	0	34	0	667942912	50	5722
2026-01-05 19:58:18.20	356.01	14.48	-38.0	-38.9	23.2	0.00e+00	0	34	0	670040064	50	5664
2026-01-05 19:58:19.21	355.80	14.47	-37.8	-38.7	23.3	0.00e+00	93	34	0	672137216	50	5550
2026-01-05 19:58:20.22	355.59	14.45	-37.8	-38.7	23.4	0.00e+00	30	34	0	674234368	48	6228
2026-01-05 19:58:21.23	355.39	14.43	-37.6	-38.5	23.5	0.00e+00	92	34	0	676331520	48	6058
2026-01-05 19:58:22.24	355.18	14.41	-37.6	-38.5	23.6	0.00e+00	0	34	0	677380096	48	6051
2026-01-05 19:58:23.25	354.97	14.39	-37.6	-38.5	23.6	0.00e+00	0	34	0	679477248	48	6043
2026-01-05 19:58:24.26	354.77	14.38	-37.6	-38.5	23.6	0.00e+00	0	34	0	681574400	48	6062
2026-01-05 19:58:25.27	354.56	14.36	-37.6	-38.5	23.6	0.00e+00	0	34	0	683671552	48	6064
2026-01-05 19:58:26.28	354.36	14.34	-37.7	-38.6	23.4	0.00e+00	0	34	0	685768704	48	6128
2026-01-05 19:58:27.29	354.15	14.32	-37.7	-38.7	23.3	0.00e+00	0	34	0	686817280	48	6175
2026-01-05 19:58:28.30	353.95	14.30	-37.7	-38.6	23.5	0.00e+00	90	34	0	688914432	48	6152
2026-01-05 19:58:29.30	353.75	14.27	-37.7	-38.6	23.4	0.00e+00	55	34	0	691011584	48	6144
2026-01-05 19:58:30.31	353.54	14.25	-37.6	-38.6	23.5	0.00e+00	92	34	0	693108736	48	6110
2026-01-05 19:58:31.32	353.34	14.23	-37.8	-38.7	23.3	0.00e+00	54	34	0	695205888	48	6210
2026-01-05 19:58:32.33	353.13	14.21	-37.8	-38.7	23.4	0.00e+00	55	34	0	697303040	48	6238
2026-01-05 19:58:33.34	352.93	14.19	-37.8	-38.7	23.3	0.00e+00	54	34	0	698351616	48	6218
2026-01-05 19:58:34.35	352.73	14.17	-37.9	-38.9	23.3	0.00e+00	0	34	0	700448768	48	6331
2026-01-05 19:58:35.36	352.53	14.14	-37.9	-38.8	23.2	0.00e+00	90	34	0	702545920	48	6315
2026-01-05 19:58:36.37	352.32	14.12	-38.1	-39.0	23.2	0.00e+00	33	34	0	704643072	48	6428
2026-01-05 19:58:37.38	352.12	14.10	-38.0	-39.0	23.2	0.00e+00	92	34	0	706740224	48	6405
2026-01-05 19:58:38.39	351.92	14.07	-38.0	-38.9	23.1	0.00e+00	26	34	0	707788800	48	6383
2026-01-05 19:58:39.40	351.72	14.05	-38.1	-39.1	23.0	0.00e+00	6	34	0	709885952	48	6482
2026-01-05 19:58:40.41	351.52	14.02	-38.2	-39.1	23.0	0.00e+00	28	34	0	711983104	48	6517
2026-01-05 19:58:41.42	351.32	14.00	-38.1	-39.0	23.2	0.00e+00	5	34	0	714080256	48	6423
2026-01-05 19:58:42.43	351.12	13.97	-38.1	-39.0	23.1	0.00e+00	61	34	0	716177408	48	6423
2026-01-05 19:58:43.44	350.92	13.95	-38.0	-38.9	23.2	0.00e+00	0	34	0	717225984	48	6387
2026-01-05 19:58:44.45	350.72	13.92	-37.9	-38.9	23.2	0.00e+00	92	34	0	719323136	48	6319
2026-01-05 19:58:45.46	350.52	13.90	-38.0	-39.0	23.1	0.00e+00	7	34	0	721420288	48	6411
2026-01-05 19:58:46.47	350.32	13.87	-38.1	-39.1	23.1	0.00e+00	92	34	0	723517440	48	6469
2026-01-05 19:58:47.47	350.12	13.84	-38.1	-39.1	23.0	0.00e+00	0	34	0	725614592	48	6501
2026-01-05 19:58:48.48	349.93	13.81	-38.1	-39.1	23.0	0.00e+00	0	34	0	726663168	48	6500
2026-01-05 19:58:49.49	349.73	13.79	-38.1	-39.0	23.1	0.00e+00	5	34	0	728760320	48	6443
2026-01-05 19:58:50.50	349.53	13.76	-38.2	-39.2	22.9	0.00e+00	0	34	0	730857472	48	6559
2026-01-05 19:58:51.51	349.34	13.73	-38.2	-39.1	23.0	0.00e+00	90	34	0	732954624	48	6531
2026-01-05 19:58:52.52	349.14	13.70	-38.1	-39.0	23.0	0.00e+00	0	34	0	735051776	48	6438
2026-01-05 19:58:53.53	348.94	13.67	-38.1	-39.1	23.0	0.00e+00	92	34	0	736100352	48	6494
2026-01-05 19:58:54.54	348.75	13.65	-38.2	-39.2	23.0	0.00e+00	33	34	0	738197504	48	6573
2026-01-05 19:58:55.54	348.55	13.62	-38.2	-39.2	22.8	0.00e+00	32	34	0	740294656	48	6594
2026-01-05 19:58:56.55	348.36	13.59	-38.3	-39.3	22.8	0.00e+00	48	34	0	742391808	48	6648
2026-01-05 19:58:57.56	348.16	13.56	-38.3	-39.3	22.8	0.00e+00	0	34	0	744488960	48	6634
2026-01-05 19:58:58.57	347.97	13.53	-38.2	-39.2	22.9	0.00e+00	90	34	0	745537536	48	6588
2026-01-05 19:58:59.58	347.78	13.50	-38.0	-38.9	23.2	0.00e+00	7	34	0	747634688	48	6360
2026-01-05 19:59:00.59	347.58	13.47	-37.8	-38.8	23.3	0.00e+00	92	34	0	749731840	48	6249
2026-01-05 19:59:01.60	347.39	13.44	-37.8	-38.7	23.3	0.00e+00	6	34	0	751828992	48	6217
2026-01-05 19:59:02.61	347.20	13.40	-37.8	-38.7	23.3	0.00e+00	7	34	0	753926144	48	6215
2026-01-05 19:59:03.62	347.01	13.37	-37.6	-38.5	23.5	0.00e+00	32	34	0	754974720	48	6092
2026-01-05 19:59:04.63	346.81	13.34	-37.7	-38.6	23.4	0.00e+00	6	34	0	757071872	48	6156
2026-01-05 19:59:05.63	346.62	13.31	-37.7	-38.6	23.4	0.00e+00	40	34	0	759169024	48	6136
2026-01-05 19:59:06.65	346.43	13.28	-37.7	-38.6	23.3	0.00e+00	6	34	0	761266176	48	6159
2026-01-05 19:59:07.66	346.24	13.24	-37.7	-38.7	23.3	0.00e+00	92	34	0	763363328	48	6186
2026-01-05 19:59:08.67	346.05	13.21	-37.8	-38.8	23.2	0.00e+00	0	34	0	764411904	48	6258
2026-01-05 19:59:09.67	345.86	13.18	-37.6	-38.6	23.1	0.00e+00	37	34	0	766509056	48	6125
2026-01-05 19:59:10.68	345.67	13.14	-37.8	-38.7	23.3	0.00e+00	0	34	0	768606208	48	6215
2026-01-05 19:59:11.69	345.49	13.11	-37.7	-38.6	23.4	0.00e+00	55	34	0	770703360	48	6145
2026-01-05 19:59:12.70	345.30	13.08	-37.7	-38.6	23.3	0.00e+00	0	34	0	772800512	48	6126
2026-01-05 19:59:13.71	345.11	13.04	-37.6	-38.5	23.4	0.00e+00	0	34	0	773849088	48	6052
2026-01-05 19:59:14.72	344.92	13.01	-37.7	-38.6	23.5	0.00e+00	90	34	0	775946240	48	6127
2026-01-05 19:59:15.73	344.74	12.97	-37.7	-38.7	23.3	0.00e+00	0	34	0	778043392	48	6194
2026-01-05 19:59:16.74	344.55	12.94	-37.8	-38.8	23.2	0.00e+00	92	34	0	780140544	48	6248
2026-01-05 19:59:17.74	344.36	12.90	-37.8	-38.8	23.3	0.00e+00	31	34	0	782237696	48	6263
2026-01-05 19:59:18.75	344.18	12.87	-37.9	-38.8	23.1	0.00e+00	25	34	0	783286272	48	6308
2026-01-05 19:59:19.76	343.99	12.83	-38.0	-38.9	22.8	0.00e+00	50	34	0	785383424	48	6380
2026-01-05 19:59:20.77	343.81	12.80	-37.8	-38.7	23.2	0.00e+00	26	34	0	787480576	48	6235
2026-01-05 19:59:21.78	343.62	12.76	-37.8	-38.8	23.2	0.00e+00	92	34	0	789577728	48	6264
2026-01-05 19:59:22.79	343.44	12.72	-37.7	-38.6	23.3	0.00e+00	0	34	0	791674880	48	6153
2026-01-05 19:59:23.80	343.26	12.69	-37.7	-38.6	23.3	0.00e+00	92	34	0	793772032	48	6135
2026-01-05 19:59:24.81	343.08	12.65	-37.7	-38.6	23.3	0.00e+00	33	34	0	794820608	48	6166
2026-01-05 19:59:25.82	342.89	12.61	-37.7	-38.6	23.4	0.00e+00	30	34	0	796917760	48	6139
2026-01-05 19:59:26.83	342.71	12.58	-37.6	-38.6	23.4	0.00e+00	0	34	0	799014912	48	6113
2026-01-05 19:59:27.84	342.53	12.54	-37.6	-38.5	23.4	0.00e+00	0	34	0	801112064	48	6103
2026-01-05 19:59:28.84	342.35	12.50	-37.6	-38.6	23.4	0.00e+00	72	34	0	803209216	48	6107
2026-01-05 19:59:29.85	342.17	12.46	-37.7	-38.7	23.4	0.00e+00	0	34	0	804257792	48	6184
2026-01-05 19:59:30.86	341.99	12.42	-37.8	-38.7	23.3	0.00e+00	92	34	0	806354944	48	6236
2026-01-05 19:59:31.87	341.81	12.39	-37.8	-38.7	23.4	0.00e+00	0	34	0	808452096	48	6204
2026-01-05 19:59:32.88	341.63	12.35	-37.9	-38.8	23.1	0.00e+00	74	34	0	810549248	48	6304
2026-01-05 19:59:33.89	341.45	12.31	-37.8	-38.7	23.2	0.00e+00	0	34	0	812646400	48	6239
2026-01-05 19:59:34.90	341.27	12.27	-37.8	-38.7	23.3	0.00e+00	0	34	0	813694976	48	6195
2026-01-05 19:59:35.91	341.10	12.23	-37.9	-38.8	23.2	0.00e+00	0	34	0	815792128	48	6281
2026-01-05 19:59:36.92	340.92	12.19	-37.8	-38.7	23.2	0.00e+00	0	34	0	817889280	48	6244
2026-01-05 19:59:37.93	340.74	12.15	-37.9	-38.8	23.2	0.00e+00	92	34	0	819986432	48	6275
2026-01-05 19:59:38.94	340.57	12.11	-38.0	-39.0	23.1	0.00e+00	4	34	0	822083584	48	6411
2026-01-05 19:59:39.95	340.39	12.07	-38.1	-39.0	23.0	0.00e+00	91	34	0	823132160	48	6440
2026-01-05 19:59:40.96	340.22	12.03	-38.2	-39.2	22.8	0.00e+00	34	34	0	825229312	48	6581
2026-01-05 19:59:41.97	340.04	11.99	-38.3	-39.3	22.8	0.00e+00	29	34	0	827326464	48	6621
2026-01-05 19:59:42.98	339.87	11.95	-38.4	-39.3	22.7	0.00e+00	29	34	0	829423616	48	6684
2026-01-05 19:59:43.99	339.69	11.91	-38.4	-39.4	22.6	0.00e+00	0	34	0	831520768	48	6747
2026-01-05 19:59:45.00	339.52	11.87	-38.6	-39.6	22.5	0.00e+00	91	34	0	832569344	48	6888
2026-01-05 19:59:46.01	339.35	11.83	-38.6	-39.7	22.3	0.00e+00	2	34	0	834666496	48	6942
2026-01-05 19:59:47.02	339.18	11.78	-38.5	-39.5	22.5	0.00e+00	92	34	0	836763648	48	6841
2026-01-05 19:59:48.03	339.00	11.74	-38.6	-39.7	22.4	0.00e+00	0	34	0	838860800	48	6935
2026-01-05 19:59:49.04	338.83	11.70	-38.7	-39.7	22.4	0.00e+00	4	34	0	840957952	48	6961
2026-01-05 19:59:50.05	338.66	11.66	-38.8	-39.9	22.1	0.00e+00	0	34	0	842006528	50	6349
2026-01-05 19:59:51.05	338.49	11.62	-38.8	-39.9	22.2	0.00e+00	0	34	0	844103680	50	6319
2026-01-05 19:59:52.07	338.32	11.57	-38.9	-40.0	22.1	0.00e+00	0	34	0	846200832	50	6430
2026-01-05 19:59:53.07	338.15	11.53	-38.8	-39.9	22.2	0.00e+00	0	34	0	848297984	50	6347
2026-01-05 19:59:54.08	337.98	11.49	-39.0	-40.1	22.0	0.00e+00	92	34	0	850395136	50	6481
2026-01-05 19:59:55.09	337.82	11.45	-39.0	-40.1	21.9	0.00e+00	0	34	0	851443712	50	6507
2026-01-05 19:59:56.10	337.65	11.40	-39.1	-40.2	21.9	0.00e+00	68	34	0	853540864	50	6558
2026-01-05 19:59:57.11	337.48	11.36	-39.3	-40.4	21.8	0.00e+00	0	34	0	855638016	50	6695
2026-01-05 19:59:58.12	337.31	11.32	-39.3	-40.4	21.7	0.00e+00	0	34	0	857735168	50	6717
2026-01-05 19:59:59.13	337.15	11.27	-39.4	-40.5	21.4	0.00e+00	0	34	0	859832320	50	6839
2026-01-05 20:00:00.14	336.98	11.23	-39.6	-40.7	21.5	0.00e+00	56	34	0	861929472	50	6987
2026-01-05 20:00:01.14	336.82	11.19	-39.7	-40.9	21.2	0.00e+00	92	34	0	862978048	50	7107
2026-01-05 20:00:02.15	336.65	11.14	-39.8	-41.0	21.1	0.00e+00	0	34	0	865075200	52	6429
2026-01-05 20:00:03.16	336.49	11.10	-39.8	-41.0	21.1	0.00e+00	67	34	0	867172352	52	6413
2026-01-05 20:00:04.17	336.33	11.05	-39.8	-41.0	21.2	0.00e+00	33	34	0	869269504	52	6429
2026-01-05 20:00:05.18	336.16	11.01	-39.9	-41.2	21.0	0.00e+00	2	34	0	871366656	52	6540
2026-01-05 20:00:06.19	336.00	10.97	-40.0	-41.2	21.0	0.00e+00	27	34	0	872415232	52	6544
2026-01-05 20:00:07.20	335.84	10.92	-39.9	-41.1	20.9	0.00e+00	2	34	0	874512384	52	6532
2026-01-05 20:00:08.21	335.68	10.88	-40.0	-41.2	20.9	0.00e+00	90	34	0	876609536	52	6607
2026-01-05 20:00:09.22	335.52	10.83	-39.9	-41.1	21.1	0.00e+00	2	34	0	878706688	52	6475
2026-01-05 20:00:10.23	335.35	10.79	-39.9	-41.2	21.0	0.00e+00	90	34	0	880803840	52	6541
2026-01-05 20:00:11.24	335.19	10.74	-40.0	-41.2	20.8	0.00e+00	0	34	0	881852416	52	6607
2026-01-05 20:00:12.25	335.03	10.70	-40.2	-41.4	20.6	0.00e+00	0	34	0	883949568	52	6752
2026-01-05 20:00:13.26	334.88	10.65	-40.3	-41.6	20.6	0.00e+00	2	34	0	886046720	52	6894
2026-01-05 20:00:14.27	334.72	10.60	-40.5	-41.8	20.4	0.00e+00	2	34	0	888143872	52	7074
2026-01-05 20:00:15.28	334.56	10.56	-40.7	-42.0	20.2	0.00e+00	0	34	0	890241024	52	7244
2026-01-05 20:00:16.29	334.40	10.51	-40.9	-42.3	20.0	0.00e+00	53	34	0	891289600	54	6658
2026-01-05 20:00:17.30	334.24	10.47	-40.9	-42.3	19.8	0.00e+00	92	34	0	893386752	54	6623
2026-01-05 20:00:18.31	334.09	10.42	-40.9	-42.3	19.9	0.00e+00	0	34	0	895483904	54	6661
2026-01-05 20:00:19.32	333.93	10.37	-40.8	-42.1	19.9	0.00e+00	0	34	0	897581056	54	6536
2026-01-05 20:00:20.32	333.78	10.33	-40.8	-42.2	20.0	0.00e+00	0	34	0	899678208	54	6585
2026-01-05 20:00:21.33	333.62	10.28	-40.9	-42.2	19.9	0.00e+00	48	34	0	900726784	54	6613
2026-01-05 20:00:22.34	333.47	10.23	-40.6	-41.9	20.2	0.00e+00	41	34	0	902823936	54	6370
2026-01-05 20:00:23.34	333.31	10.19	-40.7	-42.1	20.0	0.00e+00	30	34	0	904921088	54	6484
2026-01-05 20:00:24.35	333.16	10.14	-40.8	-42.2	19.9	0.00e+00	92	34	0	907018240	54	6579
2026-01-05 20:00:25.36	333.01	10.09	-40.9	-42.3	19.8	0.00e+00	31	34	0	909115392	54	6673
2026-01-05 20:00:26.37	332.85	10.05	-41.1	-42.5	19.7	0.00e+00	92	34	0	910163968	54	6821
2026-01-05 20:00:27.38	332.70	10.00	-40.9	-42.3	19.9	0.00e+00	6	34	0	912261120	54	6642
2026-01-05 20:00:28.39	332.55	9.95	-41.0	-42.4	19.7	0.00e+00	5	34	0	914358272	54	6756
2026-01-05 20:00:29.40	332.40	9.91	-41.0	-42.4	19.7	0.00e+00	32	34	0	916455424	54	6713
2026-01-05 20:00:30.41	332.25	9.86	-41.1	-42.5	19.6	0.00e+00	31	34	0	918552576	54	6820
2026-01-05 20:00:31.42	332.10	9.81	-40.9	-42.3	19.9	0.00e+00	93	34	0	919601152	54	6652
2026-01-05 20:00:32.43	331.95	9.76	-41.0	-42.5	19.7	0.00e+00	6	34	0	921698304	54	6773
2026-01-05 20:00:33.44	331.80	9.72	-40.8	-42.2	20.0	0.00e+00	92	34	0	923795456	54	6575
2026-01-05 20:00:34.45	331.65	9.67	-40.9	-42.3	19.9	0.00e+00	5	34	0	925892608	54	6617
2026-01-05 20:00:35.45	331.50	9.62	-40.9	-42.2	19.9	0.00e+00	6	34	0	927989760	54	6603
2026-01-05 20:00:36.46	331.36	9.57	-40.7	-42.0	20.2	0.00e+00	0	34	0	929038336	54	6447
2026-01-05 20:00:37.47	331.21	9.52	-40.8	-42.2	20.0	0.00e+00	0	34	0	931135488	54	6543
2026-01-05 20:00:38.48	331.06	9.48	-40.7	-42.1	20.0	0.00e+00	2	34	0	933232640	54	6471
2026-01-05 20:00:39.49	330.92	9.43	-40.8	-42.2	19.9	0.00e+00	52	34	0	935329792	54	6594
2026-01-05 20:00:40.50	330.77	9.38	-40.9	-42.3	19.8	0.00e+00	90	34	0	937426944	54	6643
2026-01-05 20:00:41.51	330.62	9.33	-41.0	-42.5	19.6	0.00e+00	0	34	0	938475520	54	6776
2026-01-05 20:00:42.52	330.48	9.28	-41.0	-42.4	19.7	0.00e+00	51	34	0	940572672	54	6767
2026-01-05 20:00:43.53	330.34	9.23	-41.0	-42.4	19.7	0.00e+00	42	34	0	942669824	54	6751
2026-01-05 20:00:44.54	330.19	9.18	-40.8	-42.2	19.8	0.00e+00	41	34	0	944766976	54	6611
2026-01-05 20:00:45.55	330.05	9.14	-41.0	-42.4	19.7	0.00e+00	0	34	0	946864128	54	6741
2026-01-05 20:00:46.56	329.91	9.09	-40.6	-42.0	20.2	0.00e+00	36	34	0	947912704	54	6397
2026-01-05 20:00:47.56	329.77	9.04	-40.6	-42.0	20.1	0.00e+00	92	34	0	950009856	54	6424
2026-01-05 20:00:48.57	329.62	8.99	-40.4	-41.7	20.4	0.00e+00	33	34	0	952107008	54	6212
2026-01-05 20:00:49.58	329.48	8.94	-40.4	-41.7	20.3	0.00e+00	57	34	0	954204160	54	6233
2026-01-05 20:00:50.59	329.34	8.89	-40.3	-41.5	20.6	0.00e+00	6	34	0	956301312	54	6086
2026-01-05 20:00:51.60	329.20	8.84	-40.3	-41.5	20.5	0.00e+00	7	34	0	958398464	54	6093
2026-01-05 20:00:52.61	329.06	8.79	-40.4	-41.7	20.4	0.00e+00	5	34	0	959447040	54	6195
2026-01-05 20:00:53.61	328.92	8.74	-40.4	-41.7	20.4	0.00e+00	6	34	0	961544192	54	6180
2026-01-05 20:00:54.62	328.78	8.69	-40.4	-41.7	20.3	0.00e+00	91	34	0	963641344	54	6216
2026-01-05 20:00:55.63	328.65	8.64	-40.2	-41.5	20.5	0.00e+00	7	34	0	965738496	54	6072
2026-01-05 20:00:56.64	328.51	8.59	-40.2	-41.5	20.6	0.00e+00	91	34	0	967835648	54	6057
2026-01-05 20:00:57.65	328.37	8.55	-40.3	-41.6	20.5	0.00e+00	7	34	0	968884224	54	6141
2026-01-05 20:00:58.66	328.23	8.50	-40.2	-41.5	20.5	0.00e+00	7	34	0	970981376	54	6062
2026-01-05 20:00:59.66	328.10	8.45	-40.2	-41.5	20.6	0.00e+00	7	34	0	973078528	54	6051
2026-01-05 20:01:00.67	327.96	8.40	-40.2	-41.4	20.6	0.00e+00	0	34	0	975175680	54	6013
2026-01-05 20:01:01.68	327.83	8.35	-40.1	-41.3	20.7	0.00e+00	47	34	0	977272832	54	5930
2026-01-05 20:01:02.69	327.69	8.30	-40.2	-41.4	20.6	0.00e+00	0	34	0	978321408	54	6010
2026-01-05 20:01:03.70	327.56	8.25	-40.0	-41.3	20.7	0.00e+00	92	34	0	980418560	54	5908
2026-01-05 20:01:04.71	327.42	8.20	-40.0	-41.2	20.8	0.00e+00	0	34	0	982515712	54	5859
2026-01-05 20:01:05.72	327.29	8.15	-39.8	-41.1	20.9	0.00e+00	91	34	0	984612864	54	5776
2026-01-05 20:01:06.73	327.16	8.10	-39.9	-41.1	20.9	0.00e+00	29	34	0	986710016	54	5792
2026-01-05 20:01:07.73	327.02	8.05	-39.8	-41.0	21.0	0.00e+00	47	34	0	987758592	52	6435
2026-01-05 20:01:08.74	326.89	8.00	-39.8	-41.0	21.0	0.00e+00	46	34	0	989855744	52	6427
2026-01-05 20:01:09.75	326.76	7.95	-39.4	-40.5	21.5	0.00e+00	52	34	0	991952896	52	6065
2026-01-05 20:01:10.76	326.63	7.90	-39.6	-40.7	21.2	0.00e+00	92	34	0	994050048	52	6243
2026-01-05 20:01:11.77	326.50	7.85	-39.3	-40.4	21.5	0.00e+00	37	34	0	996147200	52	6030
2026-01-05 20:01:12.78	326.37	7.80	-39.3	-40.4	21.4	0.00e+00	93	34	0	997195776	52	5998
2026-01-05 20:01:13.79	326.24	7.74	-39.2	-40.4	21.6	0.00e+00	29	34	0	999292928	52	5975
2026-01-05 20:01:14.80	326.11	7.69	-39.3	-40.4	21.6	0.00e+00	0	34	0	1001390080	52	6018
2026-01-05 20:01:15.81	325.98	7.64	-39.1	-40.2	21.7	0.00e+00	35	34	0	1003487232	52	5860
2026-01-05 20:01:16.82	325.85	7.59	-39.2	-40.4	21.6	0.00e+00	0	34	0	1005584384	52	5973
2026-01-05 20:01:17.83	325.72	7.54	-39.1	-40.2	21.7	0.00e+00	68	34	0	1006632960	52	5854
2026-01-05 20:01:18.84	325.59	7.49	-39.1	-40.2	21.8	0.00e+00	0	34	0	1008730112	52	5845
2026-01-05 20:01:19.85	325.47	7.44	-39.1	-40.3	21.6	0.00e+00	91	34	0	1010827264	52	5902
2026-01-05 20:01:20.85	325.34	7.39	-39.0	-40.1	21.8	0.00e+00	0	34	0	1012924416	52	5810
2026-01-05 20:01:21.86	325.22	7.34	-38.9	-40.0	21.9	0.00e+00	83	34	0	1015021568	52	5736
2026-01-05 20:01:22.87	325.09	7.29	-39.1	-40.2	21.7	0.00e+00	0	34	0	1016070144	52	5834
2026-01-05 20:01:23.88	324.96	7.24	-39.0	-40.1	21.7	0.00e+00	0	34	0	1018167296	52	5801
2026-01-05 20:01:24.89	324.84	7.19	-39.0	-40.1	21.8	0.00e+00	0	34	0	1020264448	52	5775
2026-01-05 20:01:25.90	324.71	7.14	-38.8	-39.9	22.0	0.00e+00	0	34	0	1022361600	52	5643
2026-01-05 20:01:26.91	324.59	7.09	-38.7	-39.7	22.1	0.00e+00	92	34	0	1024458752	50	6236
2026-01-05 20:01:27.92	324.47	7.04	-38.7	-39.7	22.1	0.00e+00	51	34	0	1025507328	50	6243
2026-01-05 20:01:28.93	324.34	6.98	-38.5	-39.5	22.2	0.00e+00	90	34	0	1027604480	50	6080
2026-01-05 20:01:29.94	324.22	6.93	-38.5	-39.5	21.9	0.00e+00	51	34	0	1029701632	50	6095
2026-01-05 20:01:30.95	324.10	6.88	-38.5	-39.5	22.1	0.00e+00	0	34	0	1031798784	50	6093
2026-01-05 20:01:31.96	323.98	6.83	-38.5	-39.6	22.1	0.00e+00	49	34	0	1033895936	50	6136
2026-01-05 20:01:32.96	323.86	6.78	-38.7	-39.7	22.1	0.00e+00	31	34	0	1034944512	50	6223
2026-01-05 20:01:33.97	323.74	6.73	-38.6	-39.7	22.1	0.00e+00	92	34	0	1037041664	50	6199
2026-01-05 20:01:34.98	323.62	6.68	-38.6	-39.7	22.0	0.00e+00	0	34	0	1039138816	50	6185
2026-01-05 20:01:35.99	323.50	6.63	-38.7	-39.7	22.1	0.00e+00	92	34	0	1041235968	50	6227
2026-01-05 20:01:37.00	323.38	6.58	-38.6	-39.7	21.6	0.00e+00	2	34	0	1043333120	50	6216
2026-01-05 20:01:38.01	323.26	6.53	-38.7	-39.8	21.8	0.00e+00	2	34	0	1044381696	50	6278
2026-01-05 20:01:39.02	323.14	6.47	-38.7	-39.8	21.9	0.00e+00	0	34	0	1046478848	50	6274
2026-01-05 20:01:40.03	323.02	6.42	-38.8	-39.8	21.9	0.00e+00	0	34	0	1048576000	50	6304
2026-01-05 20:01:41.04	322.90	6.37	-38.7	-39.7	22.0	0.00e+00	80	34	0	1050673152	50	6228
2026-01-05 20:01:42.05	322.78	6.32	-38.8	-39.9	21.8	0.00e+00	0	34	0	1052770304	50	6381
2026-01-05 20:01:43.06	322.67	6.27	-38.9	-39.9	21.7	0.00e+00	90	34	0	1054867456	50	6386
2026-01-05 20:01:44.06	322.55	6.22	-38.8	-39.8	21.9	0.00e+00	0	34	0	1055916032	50	6301
2026-01-05 20:01:45.08	322.43	6.17	-38.7	-39.7	22.0	0.00e+00	90	34	0	1058013184	50	6237
2026-01-05 20:01:46.09	322.32	6.12	-38.7	-39.7	22.0	0.00e+00	0	34	0	1060110336	50	6229
2026-01-05 20:01:47.10	322.20	6.07	-38.8	-39.9	21.9	0.00e+00	0	34	0	1062207488	50	6339
2026-01-05 20:01:48.10	322.09	6.01	-38.8	-39.9	21.8	0.00e+00	0	34	0	1064304640	50	6356
2026-01-05 20:01:49.11	321.97	5.96	-38.7	-39.8	22.0	0.00e+00	0	34	0	1065353216	50	6260
2026-01-05 20:01:50.12	321.86	5.91	-38.7	-39.8	21.8	0.00e+00	92	34	0	1067450368	50	6275
2026-01-05 20:01:51.13	321.75	5.86	-38.8	-39.9	21.8	0.00e+00	50	34	0	1069547520	50	6334
2026-01-05 20:01:52.14	321.63	5.81	-38.9	-40.0	21.8	0.00e+00	92	34	0	1071644672	50	6392
2026-01-05 20:01:53.14	321.52	5.76	-38.9	-40.0	21.7	0.00e+00	50	34	0	1073741824	50	6421
2026-01-05 20:01:54.15	321.41	5.71	-39.1	-40.2	21.5	0.00e+00	2	34	0	1074790400	50	6603
2026-01-05 20:01:55.16	321.30	5.66	-39.0	-40.2	21.5	0.00e+00	0	34	0	1076887552	50	6548
2026-01-05 20:01:56.17	321.18	5.60	-39.2	-40.3	21.4	0.00e+00	31	34	0	1078984704	50	6659
2026-01-05 20:01:57.18	321.07	5.55	-39.1	-40.3	21.5	0.00e+00	92	34	0	1081081856	50	6627
2026-01-05 20:01:58.19	320.96	5.50	-39.2	-40.3	21.3	0.00e+00	29	34	0	1083179008	50	6665
2026-01-05 20:01:59.20	320.85	5.45	-39.2	-40.3	21.4	0.00e+00	90	34	0	1084227584	50	6680
2026-01-05 20:02:00.21	320.74	5.40	-39.2	-40.4	21.2	0.00e+00	31	34	0	1086324736	50	6748
2026-01-05 20:02:01.22	320.63	5.35	-39.4	-40.6	21.0	0.00e+00	75	34	0	1088421888	50	6925
2026-01-05 20:02:02.23	320.52	5.30	-39.4	-40.6	21.1	0.00e+00	2	34	0	1090519040	50	6881
2026-01-05 20:02:03.24	320.41	5.25	-39.1	-40.3	21.4	0.00e+00	0	33	0	1092616192	50	6650
2026-01-05 20:02:04.25	320.30	5.19	-39.3	-40.5	21.2	0.00e+00	0	34	0	1093664768	50	6771
2026-01-05 20:02:05.26	320.20	5.14	-39.3	-40.4	21.2	0.00e+00	0	34	0	1095761920	50	6753
2026-01-05 20:02:06.27	320.09	5.09	-39.4	-40.5	21.1	0.00e+00	92	34	0	1097859072	50	6845
2026-01-05 20:02:07.28	319.98	5.04	-39.3	-40.5	21.1	0.00e+00	0	34	0	1099956224	50	6793
2026-01-05 20:02:08.29	319.87	4.99	-39.1	-40.3	21.3	0.00e+00	44	34	0	1102053376	50	6637
2026-01-05 20:02:09.30	319.77	4.94	-39.3	-40.5	21.1	0.00e+00	0	34	0	1103101952	50	6789
2026-01-05 20:02:10.30	319.66	4.89	-39.5	-40.8	21.0	0.00e+00	0	33	0	1105199104	50	7013
2026-01-05 20:02:11.31	319.56	4.84	-39.3	-40.5	21.1	0.00e+00	0	34	0	1107296256	50	6809
2026-01-05 20:02:12.32	319.45	4.79	-39.3	-40.5	21.0	0.00e+00	0	34	0	1109393408	50	6848
2026-01-05 20:02:13.33	319.35	4.73	-39.5	-40.7	20.9	0.00e+00	92	34	0	1111490560	50	6955
2026-01-05 20:02:14.34	319.24	4.68	-39.5	-40.7	20.9	0.00e+00	48	34	0	1112539136	50	6996
2026-01-05 20:02:15.35	319.14	4.63	-39.6	-40.9	20.6	0.00e+00	92	34	0	1114636288	50	7114
2026-01-05 20:02:16.36	319.03	4.58	-39.5	-40.7	20.9	0.00e+00	32	34	0	1116733440	50	6944
2026-01-05 20:02:17.37	318.93	4.53	-39.6	-40.8	20.7	0.00e+00	47	34	0	1118830592	50	7058
2026-01-05 20:02:18.38	318.83	4.48	-39.8	-41.0	20.6	0.00e+00	0	33	0	1120927744	52	6443
2026-01-05 20:02:19.39	318.72	4.43	-39.9	-41.2	20.4	0.00e+00	6	34	0	1123024896	52	6551
2026-01-05 20:02:20.40	318.62	4.38	-40.0	-41.3	20.3	0.00e+00	92	34	0	1124073472	52	6644
2026-01-05 20:02:21.41	318.52	4.32	-39.9	-41.2	20.4	0.00e+00	6	34	0	1126170624	52	6612
2026-01-05 20:02:22.42	318.42	4.27	-39.8	-41.1	20.4	0.00e+00	92	34	0	1128267776	52	6521
2026-01-05 20:02:23.42	318.32	4.22	-39.9	-41.2	20.4	0.00e+00	5	34	0	1130364928	52	6600
2026-01-05 20:02:24.43	318.21	4.17	-40.3	-41.7	19.9	0.00e+00	0	34	0	1132462080	52	6983
2026-01-05 20:02:25.44	318.11	4.12	-39.9	-41.2	20.3	0.00e+00	0	34	0	1133510656	52	6611
2026-01-05 20:02:26.45	318.01	4.07	-40.1	-41.4	20.2	0.00e+00	0	34	0	1135607808	52	6737
2026-01-05 20:02:27.46	317.91	4.02	-40.0	-41.3	20.2	0.00e+00	0	34	0	1137704960	52	6671
2026-01-05 20:02:28.47	317.81	3.97	-40.2	-41.5	19.9	0.00e+00	6	34	0	1139802112	52	6843
2026-01-05 20:02:29.48	317.71	3.92	-40.2	-41.6	19.9	0.00e+00	90	34	0	1141899264	52	6907
2026-01-05 20:02:30.49	317.62	3.87	-40.2	-41.6	19.9	0.00e+00	0	34	0	1142947840	52	6849
2026-01-05 20:02:31.50	317.52	3.81	-40.4	-41.8	19.7	0.00e+00	90	34	0	1145044992	52	7069
2026-01-05 20:02:32.51	317.42	3.76	-40.5	-41.9	19.5	0.00e+00	49	34	0	1147142144	52	7118
2026-01-05 20:02:33.52	317.32	3.71	-40.2	-41.6	19.8	0.00e+00	0	34	0	1149239296	52	6902
2026-01-05 20:02:34.53	317.22	3.66	-40.3	-41.7	19.8	0.00e+00	0	34	0	1151336448	52	6932
2026-01-05 20:02:35.54	317.13	3.61	-40.4	-41.8	19.6	0.00e+00	47	34	0	1152385024	52	7075
2026-01-05 20:02:36.55	317.03	3.56	-40.4	-41.8	19.6	0.00e+00	91	34	0	1154482176	52	7074
2026-01-05 20:02:37.56	316.93	3.51	-40.6	-42.1	19.3	0.00e+00	47	34	0	1156579328	52	7314
2026-01-05 20:02:38.57	316.84	3.46	-40.4	-41.9	19.6	0.00e+00	92	34	0	1158676480	52	7119
2026-01-05 20:02:39.58	316.74	3.41	-40.5	-41.9	19.5	0.00e+00	46	34	0	1160773632	52	7141
2026-01-05 20:02:40.59	316.65	3.36	-40.9	-42.5	18.9	0.00e+00	46	34	0	1161822208	54	6805
2026-01-05 20:02:41.60	316.55	3.30	-40.8	-42.4	19.0	0.00e+00	6	34	0	1163919360	54	6712
2026-01-05 20:02:42.60	316.46	3.25	-41.1	-42.7	18.7	0.00e+00	52	34	0	1166016512	54	6979
2026-01-05 20:02:43.61	316.36	3.20	-41.0	-42.6	18.7	0.00e+00	23	34	0	1168113664	54	6895
2026-01-05 20:02:44.62	316.27	3.15	-40.8	-42.4	19.0	0.00e+00	6	34	0	1170210816	54	6728
2026-01-05 20:02:45.63	316.18	3.10	-40.9	-42.4	19.0	0.00e+00	92	34	0	1171259392	54	6758
2026-01-05 20:02:46.64	316.08	3.05	-40.8	-42.3	18.9	0.00e+00	6	34	0	1173356544	54	6683
2026-01-05 20:02:47.65	315.99	3.00	-47.5	-62.7	3.6	8.18e-01	0	34	104	1175453696	60	49198
2026-01-05 20:02:48.65	315.90	2.95	-48.1	-63.3	3.6	1.51e+00	0	34	104	1175453696	60	52639
2026-01-05 20:02:49.66	315.81	2.90	-48.4	-63.5	3.6	1.51e+00	0	34	104	1175453696	60	54171
2026-01-05 20:02:50.67	315.71	2.85	-48.5	-63.7	3.6	1.51e+00	0	34	104	1175453696	60	55220
2026-01-05 20:02:51.68	315.62	2.80	-48.7	-63.8	3.6	1.51e+00	0	34	104	1175453696	60	56111
2026-01-05 20:02:52.69	315.53	2.75	-48.7	-63.9	3.6	1.51e+00	0	34	104	1175453696	60	56374
2026-01-05 20:02:53.70	315.44	2.70	-48.7	-63.9	3.6	1.51e+00	0	34	104	1175453696	60	56796
2026-01-05 20:02:54.71	315.35	2.65	-48.8	-63.9	3.6	1.51e+00	0	34	104	1175453696	60	56786
2026-01-05 20:02:55.72	315.26	2.60	-48.8	-63.9	3.6	1.51e+00	0	34	104	1175453696	60	56762
2026-01-05 20:02:56.73	315.17	2.55	-48.8	-63.9	3.6	1.51e+00	0	34	104	1175453696	60	56840
2026-01-05 20:02:57.74	315.08	2.50	-48.8	-63.9	3.6	1.51e+00	0	34	104	1175453696	60	56720
