passes_logs/2026/01/05/R4.6S_Anadyr/R4.6S_Anadyr__20260105_065619_FENGYUN_3E_rec.log

#Pass ID: 20260105_065619_FENGYUN 3E
#Satellite: FENGYUN 3E
#Configuration: FENGYUN 3E
#almurnet v.1.7.20251203
#Start time: 2026-01-05 06:56:21

#Version: 2.2.20231116
#Station: R4.6S_Anadyr
#Location: 177.4865 lon 64.73178 lat
#TLE: 1 49008U 21062A   26004.99925679  .00000018  00000+0  29282-4 0  9995
#TLE: 2 49008  98.7472  10.2448 0001540 159.6420 200.4818 14.19883565233423

#Time	Az	El	Level	Level2	SNR	BER	BlckErr	Temp	State	Recorded	gain1	gain2
2026-01-05 06:56:21.99	220.67	0.12	-49.8	-60.5	3.4	8.45e-01	0	22	0	0	60	38451
2026-01-05 06:56:22.99	220.75	0.17	-50.8	-62.4	3.6	8.44e-01	0	23	104	0	60	47379
2026-01-05 06:56:24.00	220.83	0.22	-49.9	-61.1	3.6	8.44e-01	0	23	104	0	60	41031
2026-01-05 06:56:25.01	220.90	0.27	-49.6	-60.9	3.6	8.45e-01	0	23	104	0	60	40031
2026-01-05 06:56:26.02	220.98	0.32	-48.7	-60.2	3.6	8.47e-01	0	23	104	0	60	36964
2026-01-05 06:56:27.03	221.06	0.37	-48.7	-60.1	3.6	8.46e-01	0	23	104	0	60	36461
2026-01-05 06:56:28.05	221.14	0.42	-48.5	-59.8	3.6	8.45e-01	0	23	104	0	60	35173
2026-01-05 06:56:29.06	221.21	0.47	-48.5	-59.8	3.6	8.46e-01	0	23	104	0	60	35150
2026-01-05 06:56:30.06	221.29	0.51	-48.4	-59.7	3.6	8.46e-01	0	23	104	0	60	34764
2026-01-05 06:56:31.07	221.37	0.56	-48.2	-59.6	3.6	8.46e-01	0	23	104	0	60	34601
2026-01-05 06:56:32.08	221.45	0.61	-48.3	-59.8	3.6	8.45e-01	0	23	104	0	60	35301
2026-01-05 06:56:33.09	221.53	0.66	-48.1	-59.8	3.6	8.44e-01	0	23	104	0	60	35197
2026-01-05 06:56:34.11	221.61	0.71	-48.1	-59.6	3.6	8.45e-01	0	23	104	0	60	34642
2026-01-05 06:56:35.11	221.69	0.76	-48.3	-59.5	3.6	8.45e-01	0	23	104	0	60	34272
2026-01-05 06:56:36.13	221.77	0.81	-48.0	-59.4	3.6	8.45e-01	0	23	104	0	60	33798
2026-01-05 06:56:37.13	221.85	0.86	-44.8	-59.0	3.6	8.45e-01	0	23	104	0	60	32066
2026-01-05 06:56:38.15	221.93	0.91	-37.8	-57.6	3.6	8.44e-01	0	23	104	0	46	61721
2026-01-05 06:56:39.16	222.01	0.96	-38.4	-57.0	3.6	8.44e-01	0	23	104	0	50	45764
2026-01-05 06:56:40.17	222.09	1.01	-38.4	-57.0	3.6	8.44e-01	0	23	104	0	50	45730
2026-01-05 06:56:41.18	222.17	1.06	-38.1	-57.2	3.6	8.46e-01	0	23	104	0	48	51950
2026-01-05 06:56:42.19	222.25	1.11	-38.3	-57.1	3.6	8.46e-01	0	23	104	0	48	51556
2026-01-05 06:56:43.20	222.33	1.16	-38.1	-57.2	3.6	8.44e-01	0	23	104	0	48	52172
2026-01-05 06:56:44.21	222.41	1.21	-38.3	-57.2	3.6	8.46e-01	0	23	104	0	50	46728
2026-01-05 06:56:45.22	222.50	1.26	-39.0	-57.1	3.6	8.45e-01	0	23	104	0	50	45929
2026-01-05 06:56:46.23	222.58	1.31	-38.3	-57.1	3.6	8.45e-01	0	23	104	0	50	45784
2026-01-05 06:56:47.24	222.66	1.36	-38.3	-57.1	3.6	8.46e-01	0	23	104	0	50	45982
2026-01-05 06:56:48.25	222.74	1.41	-37.7	-57.2	3.6	8.46e-01	0	23	104	0	48	51953
2026-01-05 06:56:49.26	222.83	1.47	-38.0	-57.1	3.5	8.46e-01	0	23	104	0	48	51774
2026-01-05 06:56:50.27	222.91	1.52	-38.5	-57.3	3.6	8.45e-01	0	24	104	0	50	47272
2026-01-05 06:56:51.28	222.99	1.57	-38.2	-57.4	3.6	8.46e-01	0	23	104	0	50	47613
2026-01-05 06:56:52.29	223.08	1.62	-38.0	-57.4	3.6	8.45e-01	0	23	104	0	50	47546
2026-01-05 06:56:53.30	223.16	1.67	-37.5	-57.3	3.6	8.46e-01	0	23	104	0	50	47011
2026-01-05 06:56:54.30	223.25	1.72	-38.3	-57.2	3.6	8.45e-01	0	24	104	0	50	46550
2026-01-05 06:56:55.31	223.33	1.77	-38.8	-57.2	3.5	8.44e-01	0	24	104	0	50	46353
2026-01-05 06:56:56.32	223.42	1.82	-38.8	-57.1	3.6	8.45e-01	0	24	104	0	50	46173
2026-01-05 06:56:57.33	223.50	1.87	-38.2	-57.0	3.6	8.45e-01	0	24	104	0	50	45569
2026-01-05 06:56:58.34	223.59	1.92	-38.3	-57.0	3.6	8.47e-01	0	24	104	0	50	45690
2026-01-05 06:56:59.36	223.67	1.97	-38.6	-57.0	3.6	8.46e-01	0	24	104	0	50	45439
2026-01-05 06:57:00.36	223.76	2.02	-38.5	-57.0	3.6	8.46e-01	0	24	104	0	50	45279
2026-01-05 06:57:01.37	223.85	2.07	-38.3	-56.8	3.6	8.46e-01	0	24	104	0	50	44664
2026-01-05 06:57:02.38	223.93	2.12	-38.0	-56.9	3.6	8.44e-01	0	24	104	0	48	50298
2026-01-05 06:57:03.39	224.02	2.17	-38.6	-56.9	3.6	8.46e-01	0	24	104	0	48	50515
2026-01-05 06:57:04.40	224.11	2.23	-38.5	-56.8	3.6	8.45e-01	0	24	104	0	48	50007
2026-01-05 06:57:05.41	224.19	2.28	-38.3	-56.9	3.6	8.45e-01	0	24	104	0	48	50740
2026-01-05 06:57:06.42	224.28	2.33	-38.4	-56.9	3.6	8.46e-01	0	24	104	0	48	50537
2026-01-05 06:57:07.43	224.37	2.38	-37.8	-56.7	3.6	8.45e-01	0	24	104	0	48	49320
2026-01-05 06:57:08.44	224.46	2.43	-38.8	-56.7	3.6	8.45e-01	0	24	104	0	50	43935
2026-01-05 06:57:09.44	224.55	2.48	-38.1	-55.9	3.6	8.46e-01	0	24	104	0	50	40224
2026-01-05 06:57:10.46	224.64	2.53	-38.7	-55.4	3.6	8.46e-01	0	24	104	0	48	42272
2026-01-05 06:57:11.47	224.73	2.58	-38.1	-52.6	4.3	8.29e-01	0	24	104	0	50	27280
2026-01-05 06:57:12.48	224.82	2.63	-38.1	-49.1	5.7	4.40e-01	0	24	0	2097152	50	18422
2026-01-05 06:57:13.48	224.91	2.69	-38.1	-47.5	8.2	1.04e-01	0	24	0	9437184	50	15255
2026-01-05 06:57:14.49	225.00	2.74	-37.7	-46.1	9.7	1.25e-02	0	24	0	16777216	48	14551
2026-01-05 06:57:15.50	225.09	2.79	-37.3	-43.7	12.1	8.48e-04	0	24	0	24117248	48	10996
2026-01-05 06:57:16.51	225.18	2.84	-37.0	-43.0	12.7	1.22e-04	0	24	0	31457280	48	10237
2026-01-05 06:57:17.52	225.27	2.89	-37.2	-42.8	12.9	2.05e-05	0	24	0	38797312	48	9914
2026-01-05 06:57:18.53	225.36	2.94	-36.7	-42.4	13.3	2.20e-06	0	24	0	46137344	46	10672
2026-01-05 06:57:19.54	225.45	2.99	-36.9	-42.9	12.8	4.80e-05	0	24	0	53477376	46	11317
2026-01-05 06:57:20.56	225.54	3.05	-37.9	-43.6	10.1	1.10e-06	0	24	0	60817408	46	12193
2026-01-05 06:57:21.57	225.64	3.10	-38.2	-44.8	5.5	8.34e-01	0	24	104	61865984	50	11224
2026-01-05 06:57:22.58	225.73	3.15	-38.1	-44.8	9.1	1.27e-04	0	24	104	61865984	50	11126
2026-01-05 06:57:23.58	225.82	3.20	-38.6	-53.7	3.7	8.44e-01	0	24	104	61865984	48	34763
2026-01-05 06:57:24.59	225.92	3.25	-37.2	-41.6	14.7	1.08e-02	0	24	104	61865984	50	7697
2026-01-05 06:57:25.60	226.01	3.30	-37.1	-41.7	14.0	0.00e+00	0	24	0	67108864	46	9847
2026-01-05 06:57:26.61	226.10	3.36	-36.9	-41.1	15.0	0.00e+00	0	24	0	74448896	46	9176
2026-01-05 06:57:27.62	226.20	3.41	-36.8	-41.2	15.2	0.00e+00	0	24	0	81788928	46	9339
2026-01-05 06:57:28.64	226.29	3.46	-36.8	-41.2	14.9	0.00e+00	0	24	0	89128960	46	9290
2026-01-05 06:57:29.64	226.39	3.51	-36.6	-40.9	14.9	0.00e+00	0	24	0	95420416	46	9014
2026-01-05 06:57:30.65	226.48	3.56	-36.1	-40.9	15.3	0.00e+00	0	24	0	103809024	46	9024
2026-01-05 06:57:31.66	226.58	3.62	-35.9	-41.2	14.9	0.00e+00	0	24	0	111149056	46	9330
2026-01-05 06:57:32.68	226.67	3.67	-35.9	-41.1	15.1	0.00e+00	0	24	0	117440512	46	9235
2026-01-05 06:57:33.68	226.77	3.72	-36.3	-41.4	14.9	0.00e+00	0	24	0	124780544	46	9479
2026-01-05 06:57:34.69	226.87	3.77	-36.6	-41.3	14.9	1.10e-06	0	24	0	132120576	46	9407
2026-01-05 06:57:35.70	226.96	3.82	-36.9	-41.4	15.0	1.10e-06	0	24	0	139460608	46	9471
2026-01-05 06:57:36.72	227.06	3.88	-37.5	-41.4	14.8	1.10e-06	0	24	0	146800640	46	9547
2026-01-05 06:57:37.72	227.16	3.93	-37.4	-41.5	14.8	0.00e+00	0	24	0	154140672	48	8612
2026-01-05 06:57:38.73	227.26	3.98	-37.9	-41.7	14.6	0.00e+00	0	24	0	161480704	48	8760
2026-01-05 06:57:39.74	227.35	4.03	-37.4	-41.5	14.9	0.00e+00	0	24	0	168820736	48	8551
2026-01-05 06:57:40.75	227.45	4.09	-38.0	-41.9	14.4	0.00e+00	0	24	0	176160768	48	9011
2026-01-05 06:57:41.76	227.55	4.14	-38.7	-42.4	14.1	2.20e-06	0	24	0	183500800	48	9470
2026-01-05 06:57:42.77	227.65	4.19	-39.3	-42.3	14.1	0.00e+00	0	24	0	190840832	50	8406
2026-01-05 06:57:43.78	227.75	4.24	-39.5	-42.1	14.4	0.00e+00	0	24	0	198180864	52	7318
2026-01-05 06:57:44.79	227.85	4.29	-39.9	-42.3	14.1	1.10e-06	0	24	0	205520896	52	7498
2026-01-05 06:57:45.80	227.95	4.35	-40.3	-42.5	14.1	5.70e-06	0	24	0	212860928	52	7676
2026-01-05 06:57:46.81	228.05	4.40	-40.6	-42.7	13.8	3.40e-06	0	24	0	220200960	52	7827
2026-01-05 06:57:47.82	228.15	4.45	-40.7	-42.6	13.9	1.10e-06	0	24	0	227540992	52	7769
2026-01-05 06:57:48.83	228.25	4.50	-40.8	-42.8	13.8	1.02e-05	0	24	0	234881024	54	7025
2026-01-05 06:57:49.84	228.35	4.56	-40.6	-42.5	13.8	0.00e+00	0	24	0	241172480	54	6789
2026-01-05 06:57:50.85	228.46	4.61	-40.9	-43.1	13.5	1.14e-05	0	24	0	248512512	54	7333
2026-01-05 06:57:51.85	228.56	4.66	-40.6	-43.1	13.3	6.80e-06	0	24	0	256901120	54	7290
2026-01-05 06:57:52.86	228.66	4.71	-40.7	-43.3	13.6	5.70e-06	0	24	0	263192576	54	7441
2026-01-05 06:57:53.87	228.76	4.77	-40.4	-43.1	13.5	1.14e-05	0	24	0	270532608	54	7319
2026-01-05 06:57:54.88	228.87	4.82	-40.3	-43.0	13.6	3.40e-06	0	24	0	277872640	54	7185
2026-01-05 06:57:55.89	228.97	4.87	-40.7	-43.4	13.4	6.80e-06	0	24	0	285212672	54	7519
2026-01-05 06:57:56.90	229.07	4.93	-40.7	-43.3	13.3	1.60e-05	0	24	0	292552704	54	7493
2026-01-05 06:57:57.91	229.18	4.98	-40.5	-43.5	13.1	2.74e-05	0	24	0	299892736	54	7603
2026-01-05 06:57:58.92	229.28	5.03	-40.5	-43.5	13.3	2.28e-05	0	24	0	307232768	54	7639
2026-01-05 06:57:59.93	229.39	5.08	-40.7	-43.4	13.1	2.40e-05	0	24	0	314572800	54	7545
2026-01-05 06:58:00.94	229.49	5.14	-40.9	-43.3	13.3	1.48e-05	0	24	0	321912832	54	7499
2026-01-05 06:58:01.95	229.60	5.19	-41.2	-43.3	13.4	1.94e-05	0	24	0	329252864	54	7500
2026-01-05 06:58:02.96	229.71	5.24	-41.3	-43.4	13.2	1.14e-05	0	24	0	336592896	54	7590
2026-01-05 06:58:03.97	229.81	5.30	-41.2	-43.3	13.4	1.25e-05	0	24	0	343932928	54	7497
2026-01-05 06:58:04.98	229.92	5.35	-41.3	-43.5	13.2	1.48e-05	0	24	0	351272960	54	7632
2026-01-05 06:58:05.99	230.03	5.40	-41.4	-43.6	13.1	1.71e-05	0	24	0	358612992	54	7721
2026-01-05 06:58:07.00	230.14	5.46	-41.4	-43.3	13.4	2.97e-05	0	24	0	365953024	54	7499
2026-01-05 06:58:08.01	230.24	5.51	-41.7	-43.8	13.0	1.25e-05	0	24	0	373293056	54	7913
2026-01-05 06:58:09.02	230.35	5.56	-41.2	-43.7	13.2	2.05e-05	0	24	0	380633088	54	7782
2026-01-05 06:58:10.03	230.46	5.61	-41.1	-43.7	13.1	2.28e-05	0	24	0	387973120	54	7813
2026-01-05 06:58:11.04	230.57	5.67	-41.2	-43.8	13.2	1.83e-05	0	24	0	394264576	54	7899
2026-01-05 06:58:12.05	230.68	5.72	-41.2	-44.5	12.7	6.17e-05	0	24	0	402653184	54	8530
2026-01-05 06:58:13.06	230.79	5.77	-41.6	-44.1	13.1	2.63e-05	0	24	0	409993216	54	8171
2026-01-05 06:58:14.07	230.90	5.83	-41.9	-44.4	12.9	4.80e-05	0	24	0	416284672	56	7519
2026-01-05 06:58:15.08	231.01	5.88	-42.1	-44.7	12.6	7.43e-05	0	24	0	423624704	56	7789
2026-01-05 06:58:16.09	231.12	5.93	-42.2	-45.1	12.6	3.82e-04	0	24	0	430964736	58	7280
2026-01-05 06:58:17.10	231.23	5.99	-42.6	-45.1	12.4	2.38e-04	0	24	0	438304768	58	7321
2026-01-05 06:58:18.11	231.35	6.04	-42.8	-45.0	12.5	1.57e-04	0	24	0	445644800	58	7230
2026-01-05 06:58:19.12	231.46	6.09	-42.4	-44.7	12.8	4.92e-05	0	24	0	452984832	58	6933
2026-01-05 06:58:20.13	231.57	6.15	-41.9	-44.5	12.9	3.43e-05	0	24	0	460324864	56	7634
2026-01-05 06:58:21.14	231.68	6.20	-41.8	-44.4	12.8	3.89e-05	0	24	0	467664896	56	7577
2026-01-05 06:58:22.15	231.80	6.25	-42.3	-44.9	12.4	4.00e-05	0	24	0	475004928	56	7957
2026-01-05 06:58:23.16	231.91	6.31	-42.2	-44.6	12.7	6.52e-05	0	24	0	482344960	56	7685
2026-01-05 06:58:24.17	232.03	6.36	-42.2	-44.5	12.8	4.34e-05	0	24	0	489684992	56	7608
2026-01-05 06:58:25.18	232.14	6.41	-42.3	-44.5	12.8	4.46e-05	0	24	0	497025024	56	7620
2026-01-05 06:58:26.19	232.26	6.47	-42.4	-44.5	12.7	6.06e-05	0	24	0	504365056	56	7655
2026-01-05 06:58:27.20	232.37	6.52	-42.3	-44.4	12.9	5.26e-05	0	24	0	511705088	56	7515
2026-01-05 06:58:28.21	232.49	6.57	-42.2	-44.4	12.6	3.77e-05	0	24	0	519045120	56	7539
2026-01-05 06:58:29.22	232.60	6.63	-42.5	-44.9	12.4	1.23e-04	0	24	0	526385152	56	7968
2026-01-05 06:58:30.23	232.72	6.68	-42.3	-44.6	12.8	6.86e-05	0	24	0	533725184	56	7701
2026-01-05 06:58:31.24	232.84	6.73	-42.2	-44.6	12.7	8.23e-05	0	24	0	540016640	56	7688
2026-01-05 06:58:32.24	232.95	6.79	-42.2	-44.7	12.5	6.63e-05	0	24	0	547356672	56	7820
2026-01-05 06:58:33.26	233.07	6.84	-42.2	-44.7	12.5	1.25e-04	0	24	0	555745280	56	7829
2026-01-05 06:58:34.27	233.19	6.89	-41.9	-44.5	12.6	6.29e-05	0	24	0	562036736	56	7681
2026-01-05 06:58:35.28	233.31	6.95	-41.7	-44.5	12.7	5.83e-05	0	24	0	569376768	56	7642
2026-01-05 06:58:36.28	233.43	7.00	-41.8	-44.4	13.0	4.23e-05	0	24	0	576716800	56	7516
2026-01-05 06:58:37.30	233.55	7.06	-41.7	-44.1	13.3	2.17e-05	0	24	0	584056832	56	7315
2026-01-05 06:58:38.31	233.67	7.11	-42.1	-44.4	13.0	6.80e-06	0	24	0	591396864	56	7538
2026-01-05 06:58:39.32	233.79	7.16	-42.0	-44.0	13.4	1.14e-05	0	24	0	598736896	56	7230
2026-01-05 06:58:40.33	233.91	7.22	-42.0	-43.9	13.5	8.00e-06	0	24	0	606076928	56	7114
2026-01-05 06:58:41.34	234.03	7.27	-42.3	-44.3	13.3	1.02e-05	0	24	0	613416960	56	7456
2026-01-05 06:58:42.35	234.16	7.32	-42.2	-44.1	13.4	1.25e-05	0	24	0	620756992	56	7323
2026-01-05 06:58:43.36	234.28	7.38	-42.4	-44.2	13.4	1.48e-05	0	24	0	628097024	56	7419
2026-01-05 06:58:44.37	234.40	7.43	-42.0	-43.9	13.6	5.70e-06	0	24	0	635437056	56	7097
2026-01-05 06:58:45.38	234.52	7.48	-42.1	-44.0	13.4	8.00e-06	0	24	0	642777088	56	7217
2026-01-05 06:58:46.39	234.65	7.54	-42.1	-43.9	13.6	1.14e-05	0	24	0	650117120	56	7141
2026-01-05 06:58:47.40	234.77	7.59	-41.8	-43.8	13.7	9.10e-06	0	24	0	657457152	56	7031
2026-01-05 06:58:48.41	234.90	7.64	-41.2	-43.3	14.2	0.00e+00	0	24	0	664797184	56	6621
2026-01-05 06:58:49.42	235.02	7.70	-41.3	-43.4	14.2	0.00e+00	0	24	0	672137216	56	6725
2026-01-05 06:58:50.43	235.15	7.75	-41.2	-43.4	14.4	1.10e-06	0	24	0	679477248	56	6694
2026-01-05 06:58:51.44	235.27	7.81	-41.0	-43.0	14.6	0.00e+00	0	24	0	686817280	56	6439
2026-01-05 06:58:52.45	235.40	7.86	-41.1	-42.8	14.8	0.00e+00	0	24	0	693108736	56	6284
2026-01-05 06:58:53.46	235.53	7.91	-41.0	-42.6	14.9	0.00e+00	0	24	0	701497344	56	6143
2026-01-05 06:58:54.47	235.65	7.97	-41.0	-42.5	15.0	0.00e+00	0	24	0	708837376	56	6075
2026-01-05 06:58:55.48	235.78	8.02	-41.1	-42.7	14.9	0.00e+00	0	24	0	715128832	56	6198
2026-01-05 06:58:56.49	235.91	8.07	-41.0	-42.6	15.1	2.20e-06	0	24	0	722468864	56	6126
2026-01-05 06:58:57.50	236.04	8.13	-41.0	-42.6	15.1	0.00e+00	0	24	0	729808896	56	6110
2026-01-05 06:58:58.51	236.17	8.18	-41.0	-42.6	14.7	0.00e+00	0	24	0	737148928	56	6144
2026-01-05 06:58:59.52	236.30	8.23	-41.0	-42.6	15.2	0.00e+00	0	24	0	744488960	56	6137
2026-01-05 06:59:00.53	236.42	8.29	-40.5	-42.1	15.4	0.00e+00	0	24	0	751828992	54	6484
2026-01-05 06:59:01.54	236.56	8.34	-40.8	-42.4	15.3	0.00e+00	0	24	0	759169024	54	6698
2026-01-05 06:59:02.55	236.69	8.39	-40.7	-42.3	15.6	0.00e+00	0	24	0	766509056	54	6616
2026-01-05 06:59:03.56	236.82	8.45	-40.2	-41.6	15.8	0.00e+00	0	24	0	773849088	54	6152
2026-01-05 06:59:04.57	236.95	8.50	-40.4	-41.9	15.7	0.00e+00	0	24	0	781189120	54	6376
2026-01-05 06:59:05.58	237.08	8.55	-40.0	-41.4	16.2	0.00e+00	0	24	0	788529152	54	6004
2026-01-05 06:59:06.59	237.21	8.61	-39.8	-41.1	16.3	0.00e+00	0	24	0	795869184	52	6524
2026-01-05 06:59:07.60	237.35	8.66	-40.0	-41.3	16.3	0.00e+00	0	24	0	803209216	52	6673
2026-01-05 06:59:08.61	237.48	8.71	-39.6	-40.9	16.7	0.00e+00	0	24	0	810549248	52	6367
2026-01-05 06:59:09.62	237.61	8.77	-39.4	-40.7	17.1	0.00e+00	0	24	0	817889280	52	6180
2026-01-05 06:59:10.63	237.75	8.82	-39.0	-40.2	17.3	0.00e+00	0	24	0	825229312	52	5886
2026-01-05 06:59:11.64	237.88	8.87	-39.5	-40.7	17.3	0.00e+00	0	24	0	832569344	52	6243
2026-01-05 06:59:12.65	238.02	8.93	-39.1	-40.3	17.5	0.00e+00	0	24	0	839909376	52	5935
2026-01-05 06:59:13.66	238.16	8.98	-39.0	-40.2	17.9	0.00e+00	0	24	0	847249408	52	5843
2026-01-05 06:59:14.67	238.29	9.03	-39.0	-40.1	17.8	0.00e+00	0	24	0	854589440	50	6508
2026-01-05 06:59:15.68	238.43	9.09	-39.0	-40.2	17.4	0.00e+00	0	24	0	860880896	50	6589
2026-01-05 06:59:16.69	238.57	9.14	-38.4	-39.4	18.3	0.00e+00	0	24	0	868220928	50	5979
2026-01-05 06:59:17.70	238.70	9.19	-38.4	-39.5	18.5	0.00e+00	0	24	0	875560960	50	6037
2026-01-05 06:59:18.70	238.84	9.25	-38.4	-39.5	18.4	0.00e+00	0	24	0	882900992	50	6061
2026-01-05 06:59:19.71	238.98	9.30	-37.8	-38.9	18.5	0.00e+00	0	24	0	890241024	50	5641
2026-01-05 06:59:20.73	239.12	9.35	-37.5	-38.6	18.8	0.00e+00	0	24	0	897581056	48	6143
2026-01-05 06:59:21.73	239.26	9.41	-37.8	-38.9	18.7	0.00e+00	0	24	0	904921088	48	6374
2026-01-05 06:59:22.74	239.40	9.46	-37.6	-38.6	18.7	0.00e+00	0	24	0	912261120	48	6166
2026-01-05 06:59:23.75	239.54	9.51	-37.3	-38.4	18.9	0.00e+00	0	24	0	919601152	48	5967
2026-01-05 06:59:24.76	239.68	9.56	-37.1	-38.1	19.1	0.00e+00	0	24	0	926941184	48	5779
2026-01-05 06:59:25.77	239.82	9.62	-37.0	-38.1	19.3	0.00e+00	0	24	0	934281216	48	5777
2026-01-05 06:59:26.78	239.97	9.67	-36.7	-37.7	19.5	0.00e+00	0	24	0	941621248	46	6189
2026-01-05 06:59:27.79	240.11	9.72	-36.8	-37.9	19.5	0.00e+00	0	24	0	948961280	46	6319
2026-01-05 06:59:28.80	240.25	9.78	-36.6	-37.6	19.4	0.00e+00	0	24	0	956301312	46	6131
2026-01-05 06:59:29.81	240.40	9.83	-36.7	-37.7	19.3	0.00e+00	0	24	0	963641344	46	6239
2026-01-05 06:59:30.82	240.54	9.88	-36.9	-38.0	19.4	0.00e+00	0	24	0	970981376	46	6392
2026-01-05 06:59:31.83	240.69	9.93	-36.1	-37.0	19.8	0.00e+00	0	24	0	978321408	46	5740
2026-01-05 06:59:32.84	240.83	9.99	-36.1	-37.0	20.0	0.00e+00	0	24	0	985661440	46	5753
2026-01-05 06:59:33.84	240.98	10.04	-35.9	-36.9	20.0	0.00e+00	0	24	0	991952896	44	6342
2026-01-05 06:59:34.85	241.12	10.09	-35.3	-36.3	20.4	0.00e+00	0	24	0	1000341504	44	5912
2026-01-05 06:59:35.86	241.27	10.14	-35.3	-36.2	20.5	0.00e+00	0	24	0	1007681536	44	5850
2026-01-05 06:59:36.87	241.42	10.20	-35.0	-36.0	20.7	0.00e+00	0	24	0	1013972992	44	5701
2026-01-05 06:59:37.88	241.56	10.25	-35.0	-35.9	20.7	0.00e+00	0	24	0	1021313024	42	6360
2026-01-05 06:59:38.89	241.71	10.30	-34.9	-35.8	20.8	0.00e+00	0	24	0	1028653056	42	6308
2026-01-05 06:59:39.90	241.86	10.35	-34.9	-35.8	20.8	0.00e+00	0	24	0	1035993088	42	6285
2026-01-05 06:59:40.91	242.01	10.40	-34.5	-35.4	21.1	0.00e+00	0	24	0	1043333120	42	6024
2026-01-05 06:59:41.92	242.16	10.46	-34.8	-35.7	21.0	0.00e+00	0	24	0	1050673152	42	6238
2026-01-05 06:59:42.93	242.31	10.51	-34.8	-35.7	20.9	0.00e+00	0	24	0	1058013184	42	6220
2026-01-05 06:59:43.94	242.46	10.56	-34.5	-35.4	21.1	0.00e+00	0	24	0	1065353216	42	6030
2026-01-05 06:59:44.95	242.61	10.61	-34.5	-35.4	21.2	0.00e+00	0	24	0	1072693248	42	5972
2026-01-05 06:59:45.96	242.76	10.66	-34.0	-34.9	21.6	0.00e+00	0	24	0	1080033280	42	5641
2026-01-05 06:59:46.97	242.92	10.72	-34.3	-35.2	21.4	0.00e+00	0	24	0	1087373312	42	5885
2026-01-05 06:59:47.98	243.07	10.77	-34.2	-35.1	21.5	0.00e+00	0	24	0	1094713344	42	5763
2026-01-05 06:59:48.99	243.22	10.82	-34.1	-35.0	21.5	0.00e+00	0	24	0	1102053376	42	5733
2026-01-05 06:59:50.00	243.38	10.87	-33.6	-34.4	21.9	0.00e+00	0	24	0	1109393408	40	6033
2026-01-05 06:59:51.01	243.53	10.92	-33.4	-34.2	22.0	0.00e+00	0	24	0	1116733440	40	5883
2026-01-05 06:59:52.02	243.69	10.97	-33.3	-34.2	22.0	0.00e+00	0	24	0	1124073472	40	5836
2026-01-05 06:59:53.03	243.84	11.03	-33.1	-33.9	22.2	0.00e+00	0	24	0	1131413504	40	5672
2026-01-05 06:59:54.03	244.00	11.08	-33.0	-33.8	22.3	0.00e+00	0	24	0	1137704960	40	5612
2026-01-05 06:59:55.04	244.15	11.13	-32.6	-33.4	22.5	0.00e+00	0	24	0	1145044992	38	6013
2026-01-05 06:59:56.05	244.31	11.18	-32.6	-33.4	22.6	0.00e+00	0	24	0	1153433600	38	6003
2026-01-05 06:59:57.06	244.47	11.23	-32.4	-33.3	22.6	0.00e+00	0	24	0	1159725056	38	5900
2026-01-05 06:59:58.07	244.63	11.28	-32.6	-33.5	22.5	0.00e+00	0	24	0	1167065088	38	6049
2026-01-05 06:59:59.08	244.79	11.33	-32.9	-33.7	22.2	0.00e+00	0	24	0	1174405120	38	6209
2026-01-05 07:00:00.09	244.95	11.38	-32.6	-33.4	22.7	0.00e+00	0	24	0	1181745152	38	5986
2026-01-05 07:00:01.10	245.11	11.43	-33.2	-34.1	22.4	0.00e+00	0	24	0	1189085184	38	6483
2026-01-05 07:00:02.11	245.27	11.48	-32.9	-33.7	22.5	0.00e+00	0	24	0	1196425216	38	6235
2026-01-05 07:00:03.12	245.43	11.53	-32.9	-33.7	22.6	0.00e+00	0	24	0	1203765248	38	6211
2026-01-05 07:00:04.13	245.59	11.58	-32.7	-33.5	22.6	0.00e+00	0	24	0	1211105280	38	6102
2026-01-05 07:00:05.14	245.75	11.63	-32.7	-33.6	22.6	0.00e+00	0	24	0	1218445312	38	6120
2026-01-05 07:00:06.15	245.91	11.68	-32.8	-33.7	22.6	0.00e+00	0	24	0	1225785344	38	6194
2026-01-05 07:00:07.16	246.08	11.73	-32.4	-33.2	22.8	0.00e+00	0	24	0	1233125376	38	5873
2026-01-05 07:00:08.17	246.24	11.78	-32.8	-33.6	22.5	0.00e+00	0	24	0	1240465408	38	6160
2026-01-05 07:00:09.18	246.40	11.83	-32.8	-33.6	22.8	0.00e+00	0	24	0	1247805440	38	6124
2026-01-05 07:00:10.19	246.57	11.88	-32.6	-33.4	22.8	0.00e+00	0	24	0	1255145472	38	6004
2026-01-05 07:00:11.20	246.73	11.93	-32.2	-33.0	23.0	0.00e+00	0	24	0	1262485504	38	5757
2026-01-05 07:00:12.21	246.90	11.98	-32.1	-33.0	22.9	0.00e+00	0	24	0	1269825536	38	5707
2026-01-05 07:00:13.22	247.07	12.03	-32.1	-32.9	22.8	0.00e+00	0	24	0	1277165568	38	5670
2026-01-05 07:00:14.23	247.23	12.08	-31.7	-32.5	23.0	0.00e+00	0	24	0	1284505600	36	6099
2026-01-05 07:00:15.24	247.40	12.13	-32.0	-32.8	22.7	0.00e+00	0	24	0	1290797056	36	6312
2026-01-05 07:00:16.25	247.57	12.18	-32.0	-32.9	22.7	0.00e+00	0	24	0	1299185664	38	5656
2026-01-05 07:00:17.27	247.74	12.23	-33.3	-34.2	22.1	0.00e+00	0	24	0	1306525696	40	5852
2026-01-05 07:00:18.28	247.91	12.28	-33.6	-34.5	21.7	0.00e+00	0	24	0	1312817152	40	6065
2026-01-05 07:00:19.28	248.07	12.33	-34.0	-34.9	21.7	0.00e+00	0	24	0	1320157184	40	6338
2026-01-05 07:00:20.29	248.24	12.37	-32.9	-33.8	22.5	0.00e+00	0	24	0	1327497216	40	5584
2026-01-05 07:00:21.30	248.41	12.42	-32.9	-33.8	22.5	0.00e+00	0	24	0	1334837248	40	5577
2026-01-05 07:00:22.32	248.59	12.47	-32.6	-33.4	22.4	0.00e+00	0	24	0	1342177280	38	6014
2026-01-05 07:00:23.33	248.76	12.52	-32.8	-33.6	22.8	0.00e+00	0	24	0	1349517312	38	6154
2026-01-05 07:00:24.34	248.93	12.57	-32.4	-33.2	22.9	0.00e+00	0	24	0	1356857344	38	5872
2026-01-05 07:00:25.35	249.10	12.61	-31.9	-32.7	23.0	0.00e+00	0	24	0	1364197376	38	5540
2026-01-05 07:00:26.36	249.28	12.66	-32.1	-32.9	23.0	0.00e+00	0	24	0	1371537408	38	5664
2026-01-05 07:00:27.36	249.45	12.71	-31.9	-32.7	23.0	0.00e+00	0	24	0	1378877440	36	6199
2026-01-05 07:00:28.38	249.63	12.76	-32.0	-32.8	23.0	0.00e+00	0	24	0	1386217472	36	6315
2026-01-05 07:00:29.39	249.80	12.80	-31.6	-32.4	23.1	0.00e+00	0	24	0	1393557504	36	6025
2026-01-05 07:00:30.40	249.98	12.85	-31.6	-32.4	23.1	0.00e+00	0	24	0	1400897536	36	6032
2026-01-05 07:00:31.41	250.15	12.90	-31.9	-32.7	23.1	0.00e+00	0	24	0	1408237568	36	6214
2026-01-05 07:00:32.42	250.33	12.95	-32.2	-33.0	23.0	0.00e+00	0	24	0	1415577600	36	6413
2026-01-05 07:00:33.42	250.50	12.99	-32.3	-33.1	22.9	0.00e+00	0	24	0	1422917632	36	6527
2026-01-05 07:00:34.43	250.68	13.04	-32.4	-33.2	23.0	0.00e+00	0	24	0	1430257664	38	5852
2026-01-05 07:00:35.44	250.86	13.08	-33.7	-34.5	22.6	0.00e+00	0	24	0	1437597696	38	6817
2026-01-05 07:00:36.45	251.04	13.13	-32.7	-33.5	23.0	0.00e+00	0	24	0	1444937728	38	6078
2026-01-05 07:00:37.46	251.22	13.18	-33.3	-34.1	22.7	0.00e+00	0	24	0	1452277760	38	6499
2026-01-05 07:00:38.47	251.40	13.22	-32.6	-33.4	23.0	0.00e+00	0	24	0	1459617792	38	5979
2026-01-05 07:00:39.48	251.58	13.27	-33.3	-34.1	22.9	0.00e+00	0	24	0	1465909248	40	5815
2026-01-05 07:00:40.49	251.76	13.31	-32.2	-33.0	23.1	0.00e+00	0	24	0	1473249280	38	5747
2026-01-05 07:00:41.50	251.94	13.36	-31.8	-32.6	23.2	0.00e+00	0	24	0	1480589312	36	6142
2026-01-05 07:00:42.51	252.12	13.40	-31.8	-32.6	23.4	0.00e+00	0	24	0	1487929344	36	6112
2026-01-05 07:00:43.52	252.31	13.45	-31.5	-32.3	23.3	0.00e+00	0	24	0	1495269376	36	5909
2026-01-05 07:00:44.53	252.49	13.49	-31.6	-32.4	23.3	0.00e+00	0	24	0	1502609408	36	6000
2026-01-05 07:00:45.54	252.67	13.54	-31.6	-32.4	23.2	0.00e+00	0	24	0	1509949440	36	5975
2026-01-05 07:00:46.55	252.86	13.58	-31.6	-32.4	23.2	0.00e+00	0	24	0	1517289472	36	6020
2026-01-05 07:00:47.56	253.04	13.63	-31.8	-32.6	23.1	0.00e+00	0	24	0	1524629504	36	6138
2026-01-05 07:00:48.56	253.22	13.67	-31.7	-32.5	23.2	0.00e+00	0	24	0	1531969536	36	6055
2026-01-05 07:00:49.57	253.41	13.71	-31.6	-32.4	23.2	0.00e+00	0	24	0	1539309568	36	6017
2026-01-05 07:00:50.58	253.60	13.76	-31.6	-32.4	23.0	0.00e+00	0	24	0	1546649600	36	6000
2026-01-05 07:00:51.59	253.78	13.80	-31.4	-32.2	23.2	0.00e+00	0	24	0	1553989632	36	5885
2026-01-05 07:00:52.60	253.97	13.84	-31.8	-32.6	23.1	0.00e+00	0	24	0	1561329664	36	6125
2026-01-05 07:00:53.61	254.16	13.89	-31.9	-32.7	23.3	0.00e+00	0	24	0	1568669696	36	6201
2026-01-05 07:00:54.62	254.35	13.93	-31.7	-32.5	23.3	0.00e+00	0	24	0	1576009728	36	6062
2026-01-05 07:00:55.63	254.53	13.97	-31.6	-32.4	23.3	0.00e+00	0	24	0	1583349760	36	6004
2026-01-05 07:00:56.64	254.72	14.01	-31.4	-32.2	23.5	0.00e+00	0	24	0	1589641216	36	5847
2026-01-05 07:00:57.65	254.91	14.06	-31.3	-32.2	23.4	0.00e+00	0	24	0	1598029824	36	5829
2026-01-05 07:00:58.66	255.10	14.10	-31.3	-32.1	23.4	0.00e+00	0	24	0	1605369856	36	5808
2026-01-05 07:00:59.67	255.30	14.14	-31.5	-32.3	23.3	0.00e+00	0	24	0	1611661312	36	5929
2026-01-05 07:01:00.68	255.49	14.18	-31.2	-32.0	23.3	0.00e+00	0	24	0	1619001344	36	5745
2026-01-05 07:01:01.69	255.68	14.22	-31.2	-32.0	23.4	0.00e+00	0	24	0	1626341376	36	5739
2026-01-05 07:01:02.70	255.87	14.26	-31.5	-32.3	23.4	0.00e+00	0	24	0	1633681408	36	5915
2026-01-05 07:01:03.71	256.06	14.30	-31.5	-32.3	23.4	0.00e+00	0	24	0	1641021440	36	5928
2026-01-05 07:01:04.72	256.26	14.35	-31.6	-32.4	23.5	0.00e+00	0	24	0	1648361472	36	5991
2026-01-05 07:01:05.73	256.45	14.39	-31.4	-32.2	23.4	0.00e+00	0	24	0	1655701504	36	5846
2026-01-05 07:01:06.74	256.65	14.43	-31.2	-32.0	23.5	0.00e+00	0	24	0	1663041536	36	5710
2026-01-05 07:01:07.75	256.84	14.47	-31.8	-32.6	23.3	0.00e+00	0	24	0	1670381568	36	6144
2026-01-05 07:01:08.76	257.04	14.51	-31.4	-32.2	23.6	0.00e+00	0	24	0	1677721600	36	5833
2026-01-05 07:01:09.77	257.23	14.54	-31.3	-32.2	23.3	0.00e+00	0	24	0	1685061632	36	5834
2026-01-05 07:01:10.78	257.43	14.58	-31.5	-32.3	23.2	0.00e+00	0	24	0	1692401664	36	5910
2026-01-05 07:01:11.79	257.63	14.62	-31.3	-32.1	23.3	0.00e+00	0	24	0	1699741696	36	5773
2026-01-05 07:01:12.80	257.82	14.66	-31.3	-32.1	23.3	0.00e+00	0	24	0	1707081728	36	5783
2026-01-05 07:01:13.80	258.02	14.70	-31.0	-31.8	23.4	0.00e+00	0	24	0	1714421760	36	5609
2026-01-05 07:01:14.81	258.22	14.74	-31.2	-32.0	23.5	0.00e+00	0	24	0	1721761792	36	5710
2026-01-05 07:01:15.82	258.42	14.78	-31.2	-32.0	23.5	0.00e+00	0	24	0	1729101824	36	5751
2026-01-05 07:01:16.83	258.62	14.81	-31.4	-32.2	23.5	0.00e+00	0	24	0	1736441856	36	5830
2026-01-05 07:01:17.84	258.82	14.85	-31.5	-32.3	23.5	0.00e+00	0	24	0	1742733312	36	5910
2026-01-05 07:01:18.85	259.02	14.89	-31.5	-32.3	23.5	0.00e+00	0	24	0	1751121920	36	5950
2026-01-05 07:01:19.86	259.22	14.92	-31.3	-32.1	23.5	0.00e+00	0	24	0	1758461952	36	5807
2026-01-05 07:01:20.87	259.42	14.96	-31.3	-32.1	23.5	0.00e+00	0	24	0	1764753408	36	5826
2026-01-05 07:01:21.88	259.62	15.00	-31.8	-32.6	23.3	0.00e+00	0	24	0	1772093440	36	6164
2026-01-05 07:01:22.89	259.82	15.03	-31.2	-32.0	23.4	0.00e+00	0	24	0	1779433472	36	5707
2026-01-05 07:01:23.90	260.03	15.07	-31.1	-31.9	23.4	0.00e+00	0	24	0	1786773504	36	5652
2026-01-05 07:01:24.91	260.23	15.10	-31.0	-31.8	23.4	0.00e+00	0	24	0	1794113536	36	5614
2026-01-05 07:01:25.92	260.43	15.14	-31.0	-31.8	23.4	0.00e+00	0	24	0	1801453568	36	5581
2026-01-05 07:01:26.93	260.64	15.17	-31.2	-32.0	23.4	0.00e+00	0	24	0	1808793600	36	5736
2026-01-05 07:01:27.94	260.84	15.21	-30.9	-31.7	23.4	0.00e+00	0	24	0	1816133632	36	5547
2026-01-05 07:01:28.94	261.05	15.24	-30.9	-31.7	23.4	0.00e+00	0	24	0	1823473664	36	5505
2026-01-05 07:01:29.95	261.25	15.28	-30.8	-31.6	23.6	0.00e+00	0	24	0	1830813696	36	5479
2026-01-05 07:01:30.96	261.46	15.31	-31.1	-31.9	23.4	0.00e+00	0	24	0	1838153728	36	5672
2026-01-05 07:01:31.97	261.66	15.34	-31.3	-32.1	23.4	0.00e+00	0	24	0	1845493760	36	5777
2026-01-05 07:01:32.98	261.87	15.38	-31.0	-31.8	23.4	0.00e+00	0	24	0	1852833792	36	5574
2026-01-05 07:01:33.98	262.08	15.41	-31.0	-31.8	23.4	0.00e+00	0	24	0	1860173824	36	5595
2026-01-05 07:01:34.99	262.28	15.44	-31.0	-31.8	23.4	0.00e+00	0	24	0	1866465280	36	5587
2026-01-05 07:01:36.00	262.49	15.47	-31.2	-32.0	23.2	0.00e+00	0	24	0	1873805312	36	5749
2026-01-05 07:01:37.01	262.70	15.50	-31.3	-32.2	23.4	0.00e+00	0	24	0	1882193920	36	5841
2026-01-05 07:01:38.02	262.91	15.54	-30.8	-31.6	23.4	0.00e+00	0	24	0	1888485376	36	5467
2026-01-05 07:01:39.03	263.12	15.57	-31.0	-31.8	23.4	0.00e+00	0	24	0	1895825408	36	5596
2026-01-05 07:01:40.04	263.33	15.60	-31.0	-31.8	23.4	0.00e+00	0	25	0	1903165440	36	5623
2026-01-05 07:01:41.05	263.54	15.63	-30.8	-31.6	23.5	0.00e+00	0	24	0	1910505472	36	5441
2026-01-05 07:01:42.06	263.75	15.66	-31.1	-31.9	23.4	0.00e+00	0	24	0	1917845504	36	5691
2026-01-05 07:01:43.06	263.96	15.69	-31.1	-31.9	23.5	0.00e+00	0	24	0	1925185536	36	5641
2026-01-05 07:01:44.07	264.17	15.72	-31.8	-32.7	23.0	0.00e+00	0	24	0	1932525568	36	6184
2026-01-05 07:01:45.08	264.38	15.75	-31.6	-32.4	23.1	0.00e+00	0	24	0	1939865600	36	5980
2026-01-05 07:01:46.09	264.60	15.78	-31.9	-32.7	23.0	0.00e+00	0	24	0	1947205632	36	6238
2026-01-05 07:01:47.10	264.81	15.80	-32.1	-32.9	23.1	0.00e+00	0	24	0	1954545664	36	6325
2026-01-05 07:01:48.11	265.02	15.83	-31.3	-32.1	23.5	0.00e+00	0	24	0	1961885696	36	5803
2026-01-05 07:01:49.12	265.24	15.86	-31.4	-32.2	23.6	0.00e+00	0	24	0	1969225728	36	5860
2026-01-05 07:01:50.13	265.45	15.89	-31.6	-32.4	23.5	0.00e+00	0	24	0	1976565760	36	5990
2026-01-05 07:01:51.14	265.66	15.91	-31.4	-32.2	23.5	0.00e+00	0	24	0	1983905792	36	5830
2026-01-05 07:01:52.15	265.88	15.94	-30.9	-31.6	23.8	0.00e+00	0	24	0	1991245824	36	5498
2026-01-05 07:01:53.16	266.09	15.97	-30.8	-31.6	23.8	0.00e+00	0	24	0	1998585856	36	5465
2026-01-05 07:01:54.17	266.31	15.99	-30.9	-31.6	23.8	0.00e+00	0	24	0	2005925888	36	5492
2026-01-05 07:01:55.18	266.52	16.02	-30.7	-31.5	23.9	0.00e+00	0	24	0	2013265920	34	6064
2026-01-05 07:01:56.19	266.74	16.05	-31.1	-31.8	23.9	0.00e+00	0	24	0	2019557376	34	6313
2026-01-05 07:01:57.20	266.96	16.07	-30.9	-31.7	23.8	0.00e+00	0	24	0	2026897408	34	6184
2026-01-05 07:01:58.21	267.17	16.09	-30.9	-31.7	23.8	0.00e+00	0	24	0	2035286016	34	6236
2026-01-05 07:01:59.22	267.39	16.12	-31.1	-31.9	23.7	0.00e+00	0	24	0	2041577472	34	6329
2026-01-05 07:02:00.22	267.61	16.14	-31.1	-32.0	23.7	0.00e+00	0	24	0	2048917504	34	6400
2026-01-05 07:02:01.23	267.82	16.17	-31.0	-31.8	23.6	0.00e+00	0	24	0	2056257536	34	6283
2026-01-05 07:02:02.24	268.04	16.19	-31.3	-32.1	23.5	0.00e+00	0	24	0	2063597568	34	6534
2026-01-05 07:02:03.25	268.26	16.21	-30.9	-31.7	23.7	0.00e+00	0	24	0	2070937600	34	6198
2026-01-05 07:02:04.26	268.48	16.24	-30.6	-31.4	23.7	0.00e+00	0	24	0	2078277632	34	6018
2026-01-05 07:02:05.27	268.70	16.26	-30.4	-31.2	23.7	0.00e+00	0	24	0	2085617664	34	5874
2026-01-05 07:02:06.28	268.92	16.28	-30.7	-31.5	23.6	0.00e+00	0	24	0	2092957696	34	6062
2026-01-05 07:02:07.29	269.14	16.30	-31.0	-31.7	23.5	0.00e+00	0	24	0	2100297728	34	6243
2026-01-05 07:02:08.30	269.36	16.32	-30.8	-31.5	23.7	0.00e+00	0	24	0	2107637760	34	6103
2026-01-05 07:02:09.31	269.58	16.34	-31.0	-31.8	23.4	0.00e+00	0	24	0	2114977792	34	6287
2026-01-05 07:02:10.32	269.80	16.36	-30.9	-31.6	23.4	0.00e+00	0	24	0	2122317824	34	6172
2026-01-05 07:02:11.33	270.02	16.38	-31.0	-31.8	23.3	0.00e+00	0	24	0	2129657856	34	6257
2026-01-05 07:02:12.34	270.24	16.40	-31.1	-31.9	23.3	0.00e+00	0	24	0	2136997888	34	6336
2026-01-05 07:02:13.35	270.46	16.42	-31.0	-31.8	23.3	0.00e+00	0	24	0	2143289344	34	6272
2026-01-05 07:02:14.36	270.68	16.44	-31.0	-31.9	23.4	0.00e+00	0	24	0	2151677952	34	6319
2026-01-05 07:02:15.37	270.91	16.46	-30.9	-31.7	23.5	0.00e+00	0	24	0	2159017984	34	6183
2026-01-05 07:02:16.38	271.13	16.47	-30.5	-31.3	23.6	0.00e+00	0	24	0	2165309440	34	5954
2026-01-05 07:02:17.38	271.35	16.49	-30.7	-31.5	23.4	0.00e+00	0	24	0	2172649472	34	6074
2026-01-05 07:02:18.39	271.57	16.51	-30.9	-31.7	23.6	0.00e+00	0	24	0	2179989504	34	6180
2026-01-05 07:02:19.40	271.79	16.53	-31.0	-31.8	23.5	0.00e+00	0	24	0	2187329536	34	6271
2026-01-05 07:02:20.41	272.02	16.54	-30.6	-31.4	23.5	0.00e+00	0	24	0	2194669568	34	6016
2026-01-05 07:02:21.42	272.24	16.56	-30.6	-31.4	23.6	0.00e+00	0	24	0	2202009600	34	6005
2026-01-05 07:02:22.43	272.47	16.57	-30.4	-31.2	23.6	0.00e+00	0	24	0	2209349632	34	5874
2026-01-05 07:02:23.44	272.69	16.59	-30.7	-31.5	23.6	0.00e+00	0	24	0	2216689664	34	6041
2026-01-05 07:02:24.45	272.91	16.60	-30.5	-31.3	23.8	0.00e+00	0	24	0	2224029696	34	5945
2026-01-05 07:02:25.46	273.14	16.62	-30.4	-31.1	23.7	0.00e+00	0	24	0	2231369728	34	5820
2026-01-05 07:02:26.47	273.36	16.63	-30.6	-31.4	23.7	0.00e+00	0	24	0	2238709760	34	6024
2026-01-05 07:02:27.48	273.59	16.64	-30.5	-31.2	23.7	0.00e+00	0	24	0	2246049792	34	5887
2026-01-05 07:02:28.49	273.81	16.66	-30.6	-31.4	23.7	0.00e+00	0	24	0	2253389824	34	6007
2026-01-05 07:02:29.50	274.04	16.67	-30.9	-31.7	23.5	0.00e+00	0	24	0	2260729856	34	6193
2026-01-05 07:02:30.51	274.26	16.68	-30.9	-31.7	23.4	0.00e+00	0	24	0	2268069888	34	6205
2026-01-05 07:02:31.52	274.49	16.69	-31.2	-32.0	23.3	0.00e+00	0	24	0	2275409920	34	6420
2026-01-05 07:02:32.52	274.71	16.71	-30.9	-31.6	23.3	0.00e+00	0	24	0	2282749952	34	6173
2026-01-05 07:02:33.53	274.94	16.72	-30.8	-31.6	23.5	0.00e+00	0	24	0	2290089984	34	6111
2026-01-05 07:02:34.54	275.16	16.73	-30.7	-31.5	23.5	0.00e+00	0	24	0	2296381440	34	6048
2026-01-05 07:02:35.55	275.39	16.74	-30.6	-31.4	23.6	0.00e+00	0	24	0	2303721472	34	6012
2026-01-05 07:02:36.55	275.61	16.75	-30.4	-31.2	23.7	0.00e+00	0	24	0	2312110080	34	5839
2026-01-05 07:02:37.56	275.84	16.76	-30.5	-31.3	23.7	0.00e+00	0	24	0	2318401536	34	5938
2026-01-05 07:02:38.57	276.06	16.76	-30.5	-31.3	23.6	0.00e+00	0	24	0	2325741568	34	5959
2026-01-05 07:02:39.58	276.29	16.77	-30.4	-31.2	23.6	0.00e+00	0	24	0	2333081600	34	5840
2026-01-05 07:02:40.59	276.52	16.78	-30.4	-31.2	23.8	0.00e+00	0	24	0	2340421632	34	5873
2026-01-05 07:02:41.60	276.74	16.79	-30.7	-31.5	23.5	0.00e+00	0	24	0	2347761664	34	6059
2026-01-05 07:02:42.61	276.97	16.80	-30.3	-31.1	23.6	0.00e+00	0	24	0	2355101696	34	5811
2026-01-05 07:02:43.62	277.20	16.80	-30.7	-31.4	23.5	0.00e+00	0	24	0	2362441728	34	6024
2026-01-05 07:02:44.63	277.43	16.81	-30.4	-31.2	23.6	0.00e+00	0	24	0	2369781760	34	5840
2026-01-05 07:02:45.64	277.65	16.81	-30.9	-31.7	23.4	0.00e+00	0	24	0	2377121792	34	6191
2026-01-05 07:02:46.65	277.88	16.82	-31.1	-31.9	23.6	0.00e+00	0	24	0	2384461824	34	6371
2026-01-05 07:02:47.66	278.11	16.83	-31.0	-31.8	23.3	0.00e+00	0	24	0	2391801856	34	6284
2026-01-05 07:02:48.67	278.33	16.83	-31.0	-31.8	23.4	0.00e+00	0	24	0	2399141888	34	6264
2026-01-05 07:02:49.68	278.56	16.83	-30.9	-31.7	23.4	0.00e+00	0	24	0	2406481920	34	6224
2026-01-05 07:02:50.69	278.79	16.84	-30.7	-31.5	23.3	0.00e+00	0	24	0	2413821952	34	6064
2026-01-05 07:02:51.70	279.02	16.84	-30.6	-31.4	23.4	0.00e+00	0	24	0	2421161984	34	5990
2026-01-05 07:02:52.71	279.24	16.84	-30.5	-31.3	23.5	0.00e+00	0	24	0	2428502016	34	5931
2026-01-05 07:02:53.72	279.47	16.85	-30.9	-31.7	23.5	0.00e+00	0	24	0	2435842048	34	6186
2026-01-05 07:02:54.73	279.70	16.85	-31.2	-31.9	23.3	0.00e+00	0	24	0	2442133504	34	6384
2026-01-05 07:02:55.74	279.93	16.85	-31.0	-31.8	23.4	0.00e+00	0	24	0	2449473536	34	6292
2026-01-05 07:02:56.75	280.15	16.85	-31.1	-31.9	23.5	0.00e+00	0	24	0	2457862144	34	6366
2026-01-05 07:02:57.76	280.38	16.85	-31.0	-31.8	23.6	0.00e+00	0	24	0	2464153600	34	6288
2026-01-05 07:02:58.77	280.61	16.85	-30.8	-31.6	23.8	0.00e+00	0	24	0	2471493632	34	6136
2026-01-05 07:02:59.78	280.84	16.85	-30.7	-31.5	23.9	0.00e+00	0	24	0	2478833664	34	6046
2026-01-05 07:03:00.79	281.07	16.85	-30.9	-31.7	23.8	0.00e+00	0	24	0	2486173696	34	6223
2026-01-05 07:03:01.80	281.29	16.85	-30.6	-31.4	23.8	0.00e+00	0	24	0	2493513728	34	6023
2026-01-05 07:03:02.81	281.52	16.85	-30.6	-31.4	23.7	0.00e+00	0	24	0	2500853760	34	5966
2026-01-05 07:03:03.82	281.75	16.85	-30.6	-31.4	23.7	0.00e+00	0	24	0	2508193792	34	5992
2026-01-05 07:03:04.83	281.98	16.84	-30.9	-31.6	23.7	0.00e+00	0	24	0	2515533824	34	6168
2026-01-05 07:03:05.84	282.20	16.84	-30.8	-31.6	23.6	0.00e+00	0	24	0	2522873856	34	6153
2026-01-05 07:03:06.84	282.43	16.84	-30.7	-31.5	23.7	0.00e+00	0	24	0	2530213888	34	6036
2026-01-05 07:03:07.85	282.66	16.84	-30.6	-31.4	23.6	0.00e+00	0	24	0	2537553920	34	6005
2026-01-05 07:03:08.86	282.88	16.83	-30.7	-31.4	23.6	0.00e+00	0	24	0	2544893952	34	6030
2026-01-05 07:03:09.87	283.11	16.83	-30.6	-31.4	23.5	0.00e+00	0	24	0	2552233984	34	6012
2026-01-05 07:03:10.88	283.34	16.82	-31.0	-31.8	23.5	0.00e+00	0	24	0	2559574016	34	6275
2026-01-05 07:03:11.89	283.56	16.82	-31.0	-31.7	23.6	0.00e+00	0	24	0	2566914048	34	6245
2026-01-05 07:03:12.90	283.79	16.81	-31.0	-31.8	23.4	0.00e+00	0	24	0	2574254080	34	6304
2026-01-05 07:03:13.91	284.02	16.80	-31.1	-32.0	23.3	0.00e+00	0	24	0	2581594112	34	6393
2026-01-05 07:03:14.92	284.25	16.80	-31.0	-31.8	23.4	0.00e+00	0	24	0	2588934144	34	6252
2026-01-05 07:03:15.93	284.47	16.79	-31.1	-31.9	23.3	0.00e+00	0	24	0	2595225600	34	6359
2026-01-05 07:03:16.94	284.70	16.78	-31.0	-31.8	23.2	0.00e+00	0	24	0	2602565632	34	6311
2026-01-05 07:03:17.95	284.93	16.78	-30.7	-31.5	23.4	0.00e+00	0	24	0	2610954240	34	6042
2026-01-05 07:03:18.96	285.15	16.77	-30.9	-31.7	23.3	0.00e+00	0	24	0	2617245696	34	6216
2026-01-05 07:03:19.97	285.38	16.76	-30.9	-31.7	23.5	0.00e+00	0	24	0	2624585728	34	6242
2026-01-05 07:03:20.98	285.60	16.75	-30.8	-31.6	23.2	0.00e+00	0	24	0	2631925760	34	6111
2026-01-05 07:03:21.99	285.83	16.74	-30.9	-31.7	23.2	0.00e+00	0	24	0	2639265792	34	6222
2026-01-05 07:03:23.00	286.06	16.73	-31.0	-31.8	23.2	0.00e+00	0	24	0	2646605824	34	6266
2026-01-05 07:03:24.01	286.28	16.72	-30.7	-31.5	23.3	0.00e+00	0	24	0	2653945856	34	6061
2026-01-05 07:03:25.02	286.51	16.71	-30.7	-31.5	23.3	0.00e+00	0	24	0	2661285888	34	6055
2026-01-05 07:03:26.03	286.73	16.70	-30.6	-31.4	23.4	0.00e+00	0	24	0	2668625920	34	5978
2026-01-05 07:03:27.04	286.96	16.69	-30.5	-31.3	23.4	0.00e+00	0	24	0	2675965952	34	5947
2026-01-05 07:03:28.05	287.18	16.67	-30.7	-31.5	23.4	0.00e+00	0	24	0	2683305984	34	6081
2026-01-05 07:03:29.06	287.41	16.66	-31.1	-31.9	23.5	0.00e+00	0	24	0	2690646016	34	6344
2026-01-05 07:03:30.07	287.63	16.65	-32.2	-33.0	23.3	0.00e+00	0	24	0	2697986048	34	7211
2026-01-05 07:03:31.08	287.86	16.64	-31.5	-32.3	23.4	0.00e+00	0	24	0	2705326080	36	5948
2026-01-05 07:03:32.09	288.08	16.62	-31.3	-32.1	23.5	0.00e+00	0	24	0	2712666112	36	5798
2026-01-05 07:03:33.10	288.31	16.61	-30.8	-31.6	23.5	0.00e+00	0	24	0	2718957568	36	5481
2026-01-05 07:03:34.10	288.53	16.59	-30.8	-31.6	23.3	0.00e+00	0	24	0	2727346176	34	6132
2026-01-05 07:03:35.11	288.75	16.58	-31.0	-31.8	23.5	0.00e+00	0	24	0	2734686208	34	6292
2026-01-05 07:03:36.12	288.97	16.56	-30.7	-31.5	23.4	0.00e+00	0	24	0	2740977664	34	6059
2026-01-05 07:03:37.13	289.20	16.55	-31.0	-31.8	23.5	0.00e+00	0	24	0	2748317696	34	6294
2026-01-05 07:03:38.14	289.42	16.53	-31.2	-32.0	23.5	0.00e+00	0	24	0	2755657728	34	6436
2026-01-05 07:03:39.15	289.64	16.52	-31.5	-32.3	23.5	0.00e+00	0	24	0	2762997760	36	5930
2026-01-05 07:03:40.16	289.87	16.50	-31.6	-32.4	23.5	0.00e+00	0	24	0	2770337792	36	5972
2026-01-05 07:03:41.17	290.09	16.48	-31.3	-32.1	23.4	0.00e+00	0	24	0	2777677824	36	5815
2026-01-05 07:03:42.18	290.31	16.46	-31.3	-32.1	23.6	0.00e+00	0	24	0	2785017856	36	5773
2026-01-05 07:03:43.19	290.53	16.45	-31.5	-32.3	23.6	0.00e+00	0	24	0	2792357888	36	5903
2026-01-05 07:03:44.20	290.75	16.43	-31.3	-32.1	23.5	0.00e+00	0	24	0	2799697920	36	5785
2026-01-05 07:03:45.21	290.97	16.41	-31.6	-32.5	23.3	0.00e+00	0	24	0	2807037952	36	6047
2026-01-05 07:03:46.22	291.19	16.39	-32.0	-32.8	23.2	0.00e+00	0	24	0	2814377984	36	6268
2026-01-05 07:03:47.23	291.42	16.37	-31.3	-32.1	23.4	0.00e+00	0	24	0	2821718016	36	5799
2026-01-05 07:03:48.24	291.64	16.35	-31.3	-32.1	23.4	0.00e+00	0	24	0	2829058048	36	5769
2026-01-05 07:03:49.25	291.86	16.33	-31.3	-32.1	23.5	0.00e+00	0	24	0	2836398080	36	5775
2026-01-05 07:03:50.26	292.08	16.31	-31.7	-32.5	23.4	0.00e+00	0	24	0	2843738112	36	6054
2026-01-05 07:03:51.27	292.29	16.29	-31.7	-32.5	23.3	0.00e+00	0	24	0	2851078144	36	6072
2026-01-05 07:03:52.27	292.51	16.27	-31.3	-32.1	23.6	0.00e+00	0	24	0	2858418176	36	5784
2026-01-05 07:03:53.28	292.73	16.24	-31.7	-32.5	23.4	0.00e+00	0	24	0	2865758208	36	6056
2026-01-05 07:03:54.29	292.95	16.22	-31.4	-32.2	23.5	0.00e+00	0	24	0	2872049664	36	5869
2026-01-05 07:03:55.30	293.17	16.20	-31.6	-32.4	23.4	0.00e+00	0	24	0	2880438272	36	6009
2026-01-05 07:03:56.31	293.39	16.18	-31.7	-32.5	23.4	0.00e+00	0	24	0	2887778304	36	6049
2026-01-05 07:03:57.32	293.60	16.15	-31.5	-32.3	23.3	0.00e+00	0	24	0	2894069760	36	5924
2026-01-05 07:03:58.33	293.82	16.13	-31.3	-32.1	23.4	0.00e+00	0	24	0	2901409792	36	5801
2026-01-05 07:03:59.34	294.04	16.11	-31.2	-32.1	23.4	0.00e+00	0	24	0	2908749824	36	5779
2026-01-05 07:04:00.35	294.25	16.08	-31.6	-32.4	23.3	0.00e+00	0	24	0	2916089856	36	5988
2026-01-05 07:04:01.36	294.47	16.06	-31.1	-31.9	23.4	0.00e+00	0	24	0	2923429888	36	5687
2026-01-05 07:04:02.37	294.69	16.03	-31.0	-31.8	23.5	0.00e+00	0	24	0	2930769920	36	5610
2026-01-05 07:04:03.38	294.90	16.01	-31.2	-32.0	23.5	0.00e+00	0	24	0	2938109952	36	5703
2026-01-05 07:04:04.39	295.12	15.98	-31.6	-32.3	23.3	0.00e+00	0	24	0	2945449984	36	5958
2026-01-05 07:04:05.40	295.33	15.95	-31.9	-32.7	23.2	0.00e+00	0	24	0	2952790016	36	6225
2026-01-05 07:04:06.41	295.54	15.93	-31.8	-32.6	23.2	0.00e+00	0	24	0	2960130048	36	6104
2026-01-05 07:04:07.42	295.76	15.90	-31.4	-32.3	23.1	0.00e+00	0	24	0	2967470080	36	5907
2026-01-05 07:04:08.43	295.97	15.87	-31.9	-32.6	23.3	0.00e+00	0	24	0	2974810112	36	6160
2026-01-05 07:04:09.44	296.19	15.84	-31.8	-32.6	23.3	0.00e+00	0	24	0	2982150144	36	6147
2026-01-05 07:04:10.45	296.40	15.82	-31.4	-32.2	23.2	0.00e+00	0	24	0	2989490176	36	5892
2026-01-05 07:04:11.46	296.61	15.79	-31.5	-32.3	23.2	0.00e+00	0	24	0	2996830208	36	5927
2026-01-05 07:04:12.47	296.82	15.76	-31.4	-32.2	23.2	0.00e+00	0	24	0	3004170240	36	5876
2026-01-05 07:04:13.48	297.03	15.73	-31.4	-32.3	23.2	0.00e+00	0	24	0	3011510272	36	5906
2026-01-05 07:04:14.48	297.24	15.70	-31.2	-32.1	23.2	0.00e+00	0	24	0	3017801728	36	5773
2026-01-05 07:04:15.49	297.45	15.67	-31.6	-32.4	22.9	0.00e+00	0	24	0	3025141760	36	6021
2026-01-05 07:04:16.50	297.66	15.64	-31.2	-32.0	23.2	0.00e+00	0	24	0	3033530368	36	5717
2026-01-05 07:04:17.51	297.87	15.61	-31.3	-32.2	23.1	0.00e+00	0	24	0	3039821824	36	5856
2026-01-05 07:04:18.52	298.08	15.58	-31.7	-32.6	23.1	0.00e+00	0	24	0	3047161856	36	6117
2026-01-05 07:04:19.53	298.29	15.55	-32.0	-32.9	23.1	0.00e+00	0	25	0	3054501888	36	6320
2026-01-05 07:04:20.54	298.50	15.52	-31.8	-32.7	23.0	0.00e+00	0	25	0	3061841920	36	6175
2026-01-05 07:04:21.55	298.71	15.49	-31.2	-32.1	23.1	0.00e+00	0	24	0	3069181952	36	5781
2026-01-05 07:04:22.56	298.92	15.46	-31.4	-32.3	23.2	0.00e+00	0	24	0	3076521984	36	5898
2026-01-05 07:04:23.57	299.12	15.42	-31.7	-32.4	23.2	0.00e+00	0	24	0	3083862016	36	6030
2026-01-05 07:04:24.57	299.33	15.39	-31.4	-32.2	23.3	0.00e+00	0	24	0	3091202048	36	5854
2026-01-05 07:04:25.58	299.54	15.36	-31.9	-32.7	23.1	0.00e+00	0	24	0	3098542080	36	6226
2026-01-05 07:04:26.59	299.74	15.33	-32.1	-32.9	23.2	0.00e+00	0	24	0	3105882112	36	6364
2026-01-05 07:04:27.60	299.95	15.29	-32.4	-33.2	22.9	0.00e+00	0	24	0	3113222144	38	5876
2026-01-05 07:04:28.61	300.15	15.26	-31.8	-32.6	23.1	0.00e+00	0	24	0	3120562176	36	6135
2026-01-05 07:04:29.62	300.36	15.23	-32.5	-33.3	23.4	0.00e+00	0	24	0	3127902208	36	6650
2026-01-05 07:04:30.63	300.56	15.19	-31.7	-32.5	23.4	0.00e+00	0	24	0	3135242240	36	6048
2026-01-05 07:04:31.64	300.77	15.16	-32.1	-32.9	23.4	0.00e+00	0	24	0	3142582272	36	6385
2026-01-05 07:04:32.65	300.97	15.12	-31.7	-32.3	26.1	0.00e+00	0	24	0	3148873728	36	5935
2026-01-05 07:04:33.66	301.17	15.09	-31.4	-32.0	26.3	0.00e+00	0	25	0	3157262336	36	5730
2026-01-05 07:04:34.67	301.37	15.05	-31.2	-31.8	26.2	0.00e+00	0	24	0	3164602368	36	5619
2026-01-05 07:04:35.68	301.58	15.02	-31.5	-32.2	26.1	0.00e+00	0	24	0	3170893824	36	5833
2026-01-05 07:04:36.69	301.78	14.98	-32.2	-32.8	26.1	0.00e+00	0	24	0	3178233856	36	6275
2026-01-05 07:04:37.70	301.98	14.94	-31.8	-32.5	26.1	0.00e+00	0	24	0	3185573888	36	6037
2026-01-05 07:04:38.70	302.18	14.91	-31.7	-32.3	26.0	0.00e+00	0	24	0	3192913920	36	5959
2026-01-05 07:04:39.71	302.38	14.87	-32.9	-33.5	25.9	0.00e+00	0	24	0	3200253952	36	6808
2026-01-05 07:04:40.72	302.58	14.83	-31.6	-32.2	26.0	0.00e+00	0	24	0	3207593984	36	5887
2026-01-05 07:04:41.73	302.78	14.80	-31.6	-32.2	26.1	0.00e+00	0	24	0	3214934016	36	5895
2026-01-05 07:04:42.74	302.97	14.76	-32.5	-33.1	26.0	0.00e+00	0	24	0	3222274048	36	6477
2026-01-05 07:04:43.75	303.17	14.72	-32.7	-33.4	25.8	0.00e+00	0	24	0	3229614080	38	5965
2026-01-05 07:04:44.76	303.37	14.68	-32.2	-32.9	25.7	0.00e+00	0	24	0	3236954112	38	5642
2026-01-05 07:04:45.77	303.57	14.64	-32.3	-33.0	25.4	0.00e+00	0	24	0	3244294144	38	5736
2026-01-05 07:04:46.78	303.76	14.61	-33.0	-33.6	25.3	0.00e+00	0	24	0	3251634176	38	6151
2026-01-05 07:04:47.79	303.96	14.57	-32.9	-33.5	25.5	0.00e+00	0	24	0	3258974208	38	6088
2026-01-05 07:04:48.80	304.16	14.53	-32.5	-33.1	25.5	0.00e+00	0	24	0	3266314240	38	5819
2026-01-05 07:04:49.81	304.35	14.49	-32.7	-33.3	25.3	0.00e+00	0	24	0	3273654272	38	5942
2026-01-05 07:04:50.82	304.55	14.45	-32.6	-33.3	25.6	0.00e+00	0	24	0	3280994304	38	5917
2026-01-05 07:04:51.83	304.74	14.41	-32.7	-33.2	25.5	0.00e+00	0	24	0	3288334336	38	5890
2026-01-05 07:04:52.84	304.93	14.37	-32.9	-33.5	25.6	0.00e+00	0	24	0	3295674368	38	6081
2026-01-05 07:04:53.85	305.13	14.33	-32.2	-32.9	25.6	0.00e+00	0	24	0	3301965824	38	5637
2026-01-05 07:04:54.86	305.32	14.29	-32.2	-32.9	25.7	0.00e+00	0	24	0	3310354432	38	5643
2026-01-05 07:04:55.87	305.51	14.25	-32.4	-33.0	25.5	0.00e+00	0	24	0	3317694464	38	5740
2026-01-05 07:04:56.88	305.70	14.21	-32.6	-33.2	25.6	0.00e+00	0	24	0	3323985920	38	5863
2026-01-05 07:04:57.89	305.89	14.17	-32.9	-33.5	25.4	0.00e+00	0	24	0	3331325952	38	6096
2026-01-05 07:04:58.90	306.08	14.13	-32.4	-33.0	25.7	0.00e+00	0	24	0	3338665984	38	5741
2026-01-05 07:04:59.91	306.27	14.08	-32.7	-33.3	25.8	0.00e+00	0	24	0	3346006016	38	5907
2026-01-05 07:05:00.92	306.46	14.04	-32.4	-33.0	25.7	0.00e+00	0	24	0	3353346048	38	5734
2026-01-05 07:05:01.93	306.65	14.00	-32.0	-32.6	25.8	0.00e+00	0	24	0	3360686080	38	5481
2026-01-05 07:05:02.94	306.84	13.96	-32.2	-32.8	25.5	0.00e+00	0	24	0	3368026112	38	5616
2026-01-05 07:05:03.95	307.03	13.92	-32.5	-33.1	25.8	0.00e+00	0	24	0	3375366144	38	5804
2026-01-05 07:05:04.96	307.22	13.87	-31.9	-32.6	25.7	0.00e+00	0	24	0	3382706176	38	5461
2026-01-05 07:05:05.97	307.40	13.83	-32.0	-32.6	25.8	0.00e+00	0	24	0	3390046208	38	5471
2026-01-05 07:05:06.98	307.59	13.79	-32.7	-33.4	25.3	0.00e+00	0	24	0	3397386240	38	5972
2026-01-05 07:05:07.99	307.77	13.74	-32.1	-32.7	25.7	0.00e+00	0	24	0	3404726272	38	5535
2026-01-05 07:05:09.00	307.96	13.70	-32.7	-33.4	25.5	0.00e+00	0	24	0	3412066304	38	5986
2026-01-05 07:05:10.01	308.14	13.66	-32.7	-33.3	25.6	0.00e+00	0	24	0	3419406336	38	5963
2026-01-05 07:05:11.01	308.33	13.61	-33.2	-33.8	25.6	0.00e+00	0	24	0	3426746368	38	6270
2026-01-05 07:05:12.02	308.51	13.57	-32.6	-33.2	25.4	0.00e+00	0	24	0	3434086400	38	5876
2026-01-05 07:05:13.03	308.69	13.53	-32.6	-33.2	25.7	0.00e+00	0	24	0	3441426432	38	5854
2026-01-05 07:05:14.04	308.88	13.48	-32.6	-33.3	25.6	0.00e+00	0	24	0	3447717888	38	5925
2026-01-05 07:05:15.05	309.06	13.44	-32.3	-32.9	25.7	0.00e+00	0	24	0	3456106496	38	5677
2026-01-05 07:05:16.06	309.24	13.39	-33.5	-34.1	25.4	0.00e+00	0	24	0	3463446528	38	6518
2026-01-05 07:05:17.07	309.42	13.35	-32.8	-33.4	25.0	0.00e+00	0	24	0	3469737984	38	6000
2026-01-05 07:05:18.09	309.60	13.30	-32.5	-33.1	25.5	0.00e+00	0	24	0	3477078016	38	5792
2026-01-05 07:05:19.09	309.78	13.26	-32.8	-33.5	25.2	0.00e+00	0	24	0	3484418048	38	6074
2026-01-05 07:05:20.10	309.96	13.21	-32.5	-33.2	25.2	0.00e+00	0	24	0	3491758080	38	5832
2026-01-05 07:05:21.11	310.14	13.17	-32.5	-33.1	25.0	0.00e+00	0	24	0	3499098112	38	5823
2026-01-05 07:05:22.12	310.32	13.12	-32.3	-32.9	25.2	0.00e+00	0	24	0	3506438144	38	5688
2026-01-05 07:05:23.13	310.49	13.07	-32.1	-32.7	25.4	0.00e+00	0	24	0	3513778176	38	5528
2026-01-05 07:05:24.14	310.67	13.03	-32.2	-32.8	25.4	0.00e+00	0	24	0	3521118208	38	5607
2026-01-05 07:05:25.15	310.85	12.98	-32.4	-33.0	25.5	0.00e+00	0	24	0	3528458240	38	5723
2026-01-05 07:05:26.16	311.02	12.94	-32.7	-33.3	25.3	0.00e+00	0	24	0	3535798272	38	5936
2026-01-05 07:05:27.17	311.20	12.89	-32.9	-33.5	25.0	0.00e+00	0	24	0	3543138304	38	6097
2026-01-05 07:05:28.18	311.38	12.84	-33.1	-33.7	24.9	0.00e+00	0	24	0	3550478336	40	5561
2026-01-05 07:05:29.19	311.55	12.79	-33.0	-33.8	25.0	0.00e+00	0	24	0	3557818368	40	5587
2026-01-05 07:05:30.20	311.72	12.75	-32.8	-33.4	25.3	0.00e+00	0	24	0	3565158400	38	5999
2026-01-05 07:05:31.22	311.90	12.70	-33.1	-33.7	25.4	0.00e+00	0	24	0	3572498432	38	6217
2026-01-05 07:05:32.22	312.07	12.65	-32.7	-33.4	25.4	0.00e+00	0	24	0	3579838464	38	6003
2026-01-05 07:05:33.24	312.24	12.61	-32.6	-33.2	25.4	0.00e+00	0	24	0	3587178496	38	5892
2026-01-05 07:05:34.25	312.42	12.56	-32.8	-33.4	25.2	0.00e+00	0	24	0	3594518528	38	5995
2026-01-05 07:05:35.26	312.59	12.51	-33.3	-34.0	25.1	0.00e+00	0	24	0	3601858560	38	6422
2026-01-05 07:05:36.27	312.76	12.46	-33.1	-33.7	24.5	0.00e+00	0	24	0	3609198592	38	6234
2026-01-05 07:05:37.28	312.93	12.41	-33.3	-34.0	25.0	0.00e+00	0	24	0	3616538624	40	5712
2026-01-05 07:05:38.28	313.10	12.37	-32.7	-33.3	25.1	0.00e+00	0	24	0	3622830080	38	5931
2026-01-05 07:05:39.29	313.27	12.32	-32.8	-33.4	25.1	0.00e+00	0	24	0	3630170112	38	6017
2026-01-05 07:05:40.30	313.43	12.27	-33.0	-33.7	24.9	0.00e+00	0	24	0	3638558720	38	6179
2026-01-05 07:05:41.31	313.60	12.22	-34.0	-34.6	23.6	0.00e+00	0	24	0	3644850176	40	6167
2026-01-05 07:05:42.32	313.77	12.17	-33.8	-34.5	24.6	0.00e+00	0	24	0	3652190208	40	6056
2026-01-05 07:05:43.33	313.94	12.12	-34.6	-35.3	24.7	0.00e+00	0	24	0	3659530240	40	6622
2026-01-05 07:05:44.34	314.10	12.08	-33.6	-34.3	24.3	0.00e+00	0	24	0	3666870272	40	5901
2026-01-05 07:05:45.35	314.27	12.03	-33.9	-34.5	24.7	0.00e+00	0	24	0	3674210304	40	6079
2026-01-05 07:05:46.36	314.43	11.98	-32.7	-33.4	24.9	0.00e+00	0	24	0	3681550336	40	5325
2026-01-05 07:05:47.37	314.60	11.93	-33.6	-34.3	24.6	0.00e+00	0	24	0	3688890368	38	6633
2026-01-05 07:05:48.38	314.76	11.88	-33.7	-34.4	24.7	0.00e+00	0	24	0	3696230400	40	6005
2026-01-05 07:05:49.39	314.93	11.83	-33.6	-34.3	24.2	0.00e+00	0	24	0	3703570432	40	5925
2026-01-05 07:05:50.40	315.09	11.78	-34.3	-35.0	24.1	0.00e+00	0	24	0	3710910464	42	5725
2026-01-05 07:05:51.41	315.25	11.73	-34.5	-35.2	24.4	0.00e+00	0	24	0	3718250496	42	5841
2026-01-05 07:05:52.42	315.42	11.68	-34.2	-34.8	24.2	0.00e+00	0	24	0	3725590528	42	5603
2026-01-05 07:05:53.43	315.58	11.63	-34.0	-34.7	24.1	0.00e+00	0	24	0	3732930560	40	6202
2026-01-05 07:05:54.44	315.74	11.58	-33.9	-34.6	24.2	0.00e+00	0	24	0	3740270592	42	5475
2026-01-05 07:05:55.45	315.90	11.53	-33.4	-34.1	24.1	0.00e+00	0	24	0	3747610624	40	5800
2026-01-05 07:05:56.46	316.06	11.48	-33.2	-33.9	24.6	0.00e+00	0	24	0	3754950656	40	5649
2026-01-05 07:05:57.47	316.22	11.43	-33.3	-33.9	24.7	0.00e+00	0	24	0	3762290688	40	5679
2026-01-05 07:05:58.48	316.38	11.38	-32.9	-33.6	25.0	0.00e+00	0	24	0	3768582144	40	5472
2026-01-05 07:05:59.49	316.54	11.33	-32.7	-33.4	24.7	0.00e+00	0	24	0	3775922176	40	5338
2026-01-05 07:06:00.50	316.69	11.28	-33.4	-34.0	24.8	0.00e+00	0	24	0	3784310784	38	6437
2026-01-05 07:06:01.51	316.85	11.23	-32.7	-33.4	25.0	0.00e+00	0	24	0	3790602240	38	5980
2026-01-05 07:06:02.52	317.01	11.18	-32.4	-33.0	24.9	0.00e+00	0	24	0	3797942272	38	5759
2026-01-05 07:06:03.53	317.16	11.13	-32.8	-33.4	24.8	0.00e+00	0	24	0	3805282304	38	6024
2026-01-05 07:06:04.54	317.32	11.08	-32.9	-33.5	24.8	0.00e+00	0	24	0	3812622336	38	6096
2026-01-05 07:06:05.55	317.48	11.03	-33.2	-33.9	24.8	0.00e+00	0	24	0	3819962368	38	6327
2026-01-05 07:06:06.56	317.63	10.98	-33.2	-33.8	24.6	0.00e+00	0	24	0	3827302400	38	6290
2026-01-05 07:06:07.56	317.78	10.93	-32.7	-33.4	24.8	0.00e+00	0	24	0	3834642432	38	5987
2026-01-05 07:06:08.57	317.94	10.87	-32.9	-33.6	24.6	0.00e+00	0	24	0	3841982464	38	6140
2026-01-05 07:06:09.58	318.09	10.82	-33.5	-34.1	24.4	0.00e+00	0	24	0	3849322496	38	6538
2026-01-05 07:06:10.59	318.24	10.77	-33.2	-33.9	24.4	0.00e+00	0	24	0	3856662528	38	6348
2026-01-05 07:06:11.60	318.40	10.72	-33.2	-33.8	24.4	0.00e+00	0	24	0	3864002560	38	6310
2026-01-05 07:06:12.61	318.55	10.67	-33.1	-33.8	24.2	0.00e+00	0	24	0	3871342592	38	6292
2026-01-05 07:06:13.62	318.70	10.62	-33.3	-34.0	24.1	0.00e+00	0	24	0	3878682624	38	6443
2026-01-05 07:06:14.63	318.85	10.57	-34.4	-35.1	24.1	0.00e+00	0	24	0	3886022656	40	6502
2026-01-05 07:06:15.64	319.00	10.52	-33.3	-33.9	24.3	0.00e+00	0	24	0	3893362688	40	5672
2026-01-05 07:06:16.65	319.15	10.46	-33.5	-34.2	24.5	0.00e+00	0	24	0	3900702720	40	5863
2026-01-05 07:06:17.66	319.30	10.41	-33.7	-34.3	24.3	0.00e+00	0	24	0	3908042752	40	5958
2026-01-05 07:06:18.67	319.45	10.36	-33.7	-34.3	24.4	0.00e+00	0	24	0	3915382784	40	5932
2026-01-05 07:06:19.68	319.59	10.31	-33.2	-33.9	24.5	0.00e+00	0	24	0	3921674240	40	5670
2026-01-05 07:06:20.69	319.74	10.26	-33.0	-33.7	24.6	0.00e+00	0	25	0	3929014272	40	5511
2026-01-05 07:06:21.70	319.89	10.20	-33.0	-33.7	24.6	0.00e+00	0	24	0	3936354304	40	5512
2026-01-05 07:06:22.71	320.04	10.15	-32.9	-33.5	24.8	0.00e+00	0	24	0	3943694336	40	5422
2026-01-05 07:06:23.72	320.18	10.10	-33.0	-33.7	24.6	0.00e+00	0	24	0	3951034368	40	5513
2026-01-05 07:06:24.73	320.33	10.05	-33.0	-33.7	24.6	0.00e+00	0	24	0	3958374400	40	5532
2026-01-05 07:06:25.74	320.47	10.00	-33.0	-33.6	24.6	0.00e+00	0	24	0	3965714432	40	5471
2026-01-05 07:06:26.74	320.62	9.94	-32.8	-33.4	24.7	0.00e+00	0	24	0	3973054464	40	5357
2026-01-05 07:06:27.75	320.76	9.89	-33.0	-33.7	24.4	0.00e+00	0	24	0	3980394496	40	5505
2026-01-05 07:06:28.76	320.90	9.84	-33.5	-34.2	24.3	0.00e+00	0	24	0	3987734528	40	5869
2026-01-05 07:06:29.77	321.05	9.79	-34.0	-34.7	24.4	0.00e+00	0	24	0	3995074560	40	6199
2026-01-05 07:06:30.78	321.19	9.74	-33.8	-34.4	23.9	0.00e+00	0	24	0	4002414592	40	6023
2026-01-05 07:06:31.79	321.33	9.68	-33.4	-34.0	24.1	0.00e+00	0	24	0	4009754624	40	5751
2026-01-05 07:06:32.80	321.47	9.63	-33.3	-33.9	24.1	0.00e+00	0	24	0	4017094656	40	5690
2026-01-05 07:06:33.81	321.61	9.58	-33.1	-33.8	24.1	0.00e+00	0	24	0	4024434688	40	5591
2026-01-05 07:06:34.82	321.75	9.53	-33.3	-34.0	24.1	0.00e+00	0	24	0	4031774720	40	5717
2026-01-05 07:06:35.83	321.89	9.47	-33.3	-34.0	24.0	0.00e+00	0	24	0	4039114752	40	5745
2026-01-05 07:06:36.84	322.03	9.42	-33.5	-34.2	24.0	0.00e+00	0	24	0	4045406208	40	5842
2026-01-05 07:06:37.85	322.17	9.37	-34.1	-34.8	24.0	0.00e+00	0	24	0	4053794816	40	6283
2026-01-05 07:06:38.86	322.31	9.32	-34.8	-35.5	23.7	0.00e+00	0	24	0	4061134848	40	6826
2026-01-05 07:06:39.87	322.45	9.26	-34.0	-34.7	23.7	0.00e+00	0	24	0	4067426304	42	5528
2026-01-05 07:06:40.88	322.59	9.21	-34.6	-35.4	23.7	0.00e+00	0	24	0	4074766336	42	5981
2026-01-05 07:06:41.89	322.73	9.16	-34.2	-34.9	23.8	0.00e+00	0	24	0	4082106368	42	5671
2026-01-05 07:06:42.90	322.86	9.10	-33.9	-34.6	23.7	0.00e+00	0	25	0	4089446400	40	6115
2026-01-05 07:06:43.91	323.00	9.05	-33.6	-34.3	23.8	0.00e+00	0	25	0	4096786432	42	5284
2026-01-05 07:06:44.92	323.13	9.00	-33.7	-34.4	24.1	0.00e+00	0	24	0	4104126464	40	5966
2026-01-05 07:06:45.93	323.27	8.95	-35.0	-35.7	23.5	0.00e+00	0	24	0	4111466496	40	6953
2026-01-05 07:06:46.94	323.40	8.89	-33.7	-34.4	23.6	0.00e+00	0	25	0	4118806528	40	5994
2026-01-05 07:06:47.95	323.54	8.84	-35.0	-35.7	23.8	0.00e+00	0	24	0	4126146560	40	6946
2026-01-05 07:06:48.96	323.67	8.79	-33.5	-34.2	24.0	0.00e+00	0	24	0	4133486592	40	5832
2026-01-05 07:06:49.97	323.81	8.74	-33.5	-34.1	24.1	0.00e+00	0	24	0	4140826624	40	5826
2026-01-05 07:06:50.98	323.94	8.68	-33.7	-34.3	24.1	0.00e+00	0	24	0	4148166656	40	5952
2026-01-05 07:06:51.99	324.07	8.63	-33.3	-34.0	24.3	0.00e+00	0	24	0	4155506688	40	5719
2026-01-05 07:06:53.00	324.20	8.58	-33.4	-34.1	24.1	0.00e+00	0	24	0	4162846720	40	5763
2026-01-05 07:06:54.01	324.34	8.52	-33.5	-34.1	23.6	0.00e+00	0	24	0	4170186752	40	5823
2026-01-05 07:06:55.02	324.47	8.47	-32.9	-33.6	24.1	0.00e+00	0	24	0	4177526784	40	5472
2026-01-05 07:06:56.03	324.60	8.42	-32.9	-33.6	24.3	0.00e+00	0	24	0	4184866816	40	5448
2026-01-05 07:06:57.04	324.73	8.36	-33.2	-33.8	24.0	0.00e+00	0	24	0	4192206848	40	5624
2026-01-05 07:06:58.05	324.86	8.31	-33.2	-33.8	24.2	0.00e+00	0	24	0	4198498304	40	5627
2026-01-05 07:06:59.06	324.99	8.26	-32.9	-33.5	24.2	0.00e+00	0	24	0	4206886912	40	5431
2026-01-05 07:07:00.07	325.12	8.21	-33.0	-33.6	24.0	0.00e+00	0	24	0	4214226944	40	5495
2026-01-05 07:07:01.08	325.24	8.15	-33.4	-34.1	23.7	0.00e+00	0	24	0	4220518400	40	5807
2026-01-05 07:07:02.09	325.37	8.10	-33.6	-34.3	23.7	0.00e+00	0	24	0	4227858432	40	5926
2026-01-05 07:07:03.10	325.50	8.05	-33.7	-34.4	23.9	0.00e+00	0	24	0	4236247040	40	6017
2026-01-05 07:07:04.11	325.63	7.99	-33.8	-34.5	23.7	0.00e+00	0	24	0	4242538496	40	6050
2026-01-05 07:07:05.12	325.75	7.94	-34.3	-35.0	23.8	0.00e+00	0	24	0	4249878528	40	6420
2026-01-05 07:07:06.13	325.88	7.89	-34.3	-35.0	23.4	0.00e+00	0	24	0	4257218560	42	5733
2026-01-05 07:07:07.14	326.01	7.83	-34.2	-35.0	23.3	0.00e+00	0	24	0	4264558592	42	5696
2026-01-05 07:07:08.14	326.13	7.78	-33.9	-34.6	23.3	0.00e+00	0	24	0	4271898624	42	5449
2026-01-05 07:07:09.15	326.25	7.73	-34.0	-34.6	23.4	0.00e+00	0	24	0	4279238656	42	5500
2026-01-05 07:07:10.16	326.38	7.67	-34.4	-35.1	22.8	0.00e+00	0	24	0	4286578688	42	5788
2026-01-05 07:07:11.17	326.50	7.62	-34.0	-34.7	22.9	0.00e+00	0	24	0	4293918720	42	5512
2026-01-05 07:07:12.18	326.63	7.57	-34.1	-34.8	23.0	0.00e+00	0	24	0	4301258752	42	5603
2026-01-05 07:07:13.19	326.75	7.52	-33.8	-34.5	23.3	0.00e+00	0	24	0	4308598784	42	5436
2026-01-05 07:07:14.20	326.87	7.46	-33.7	-34.3	23.5	0.00e+00	0	24	0	4315938816	40	5962
2026-01-05 07:07:15.21	327.00	7.41	-34.1	-34.8	23.3	0.00e+00	0	24	0	4323278848	40	6249
2026-01-05 07:07:16.22	327.12	7.36	-33.9	-34.6	23.3	0.00e+00	0	24	0	4330618880	40	6133
2026-01-05 07:07:17.23	327.24	7.30	-33.8	-34.5	23.5	0.00e+00	0	24	0	4337958912	40	6077
2026-01-05 07:07:18.24	327.36	7.25	-33.8	-34.5	23.5	0.00e+00	0	24	0	4344250368	40	6051
2026-01-05 07:07:19.25	327.48	7.20	-33.9	-34.6	23.5	0.00e+00	0	24	0	4351590400	40	6116
2026-01-05 07:07:20.26	327.60	7.14	-34.0	-34.6	23.5	0.00e+00	0	24	0	4359979008	42	5495
2026-01-05 07:07:21.27	327.72	7.09	-33.7	-34.4	23.2	0.00e+00	0	24	0	4366270464	40	5971
2026-01-05 07:07:22.28	327.84	7.04	-33.4	-34.1	23.6	0.00e+00	0	24	0	4373610496	40	5806
2026-01-05 07:07:23.29	327.96	6.98	-33.6	-34.3	23.5	0.00e+00	0	24	0	4380950528	40	5960
2026-01-05 07:07:24.30	328.08	6.93	-33.7	-34.4	23.2	0.00e+00	0	24	0	4388290560	40	5986
2026-01-05 07:07:25.30	328.19	6.88	-33.6	-34.3	23.3	0.00e+00	0	24	0	4395630592	40	5922
2026-01-05 07:07:26.32	328.31	6.83	-33.6	-34.4	23.3	0.00e+00	0	25	0	4402970624	40	5985
2026-01-05 07:07:27.32	328.43	6.77	-33.7	-34.4	23.2	0.00e+00	0	24	0	4410310656	40	6026
2026-01-05 07:07:28.33	328.55	6.72	-33.9	-34.6	23.1	0.00e+00	0	25	0	4417650688	40	6132
2026-01-05 07:07:29.34	328.66	6.67	-33.9	-34.6	23.1	0.00e+00	0	24	0	4424990720	40	6140
2026-01-05 07:07:30.35	328.78	6.61	-34.0	-34.8	23.1	0.00e+00	0	25	0	4432330752	40	6269
2026-01-05 07:07:31.36	328.89	6.56	-34.0	-34.8	23.1	0.00e+00	0	24	0	4439670784	40	6267
2026-01-05 07:07:32.38	329.01	6.51	-34.2	-34.9	23.1	0.00e+00	0	25	0	4447010816	40	6379
2026-01-05 07:07:33.38	329.12	6.46	-34.0	-34.7	23.2	0.00e+00	0	25	0	4454350848	40	6204
2026-01-05 07:07:34.40	329.24	6.40	-33.8	-34.6	23.2	0.00e+00	0	24	0	4461690880	40	6108
2026-01-05 07:07:35.40	329.35	6.35	-33.9	-34.6	23.1	0.00e+00	0	25	0	4469030912	40	6144
2026-01-05 07:07:36.42	329.47	6.30	-33.9	-34.6	22.8	0.00e+00	0	24	0	4476370944	40	6165
2026-01-05 07:07:37.43	329.58	6.24	-33.8	-34.5	22.9	0.00e+00	0	24	0	4483710976	40	6095
2026-01-05 07:07:38.44	329.69	6.19	-34.4	-35.1	22.8	0.00e+00	0	24	0	4491051008	42	5792
2026-01-05 07:07:39.44	329.81	6.14	-34.5	-35.2	23.0	0.00e+00	0	24	0	4497342464	42	5829
2026-01-05 07:07:40.45	329.92	6.09	-34.0	-34.7	23.1	0.00e+00	0	24	0	4505731072	42	5516
2026-01-05 07:07:41.46	330.03	6.03	-34.0	-34.7	22.9	0.00e+00	0	24	0	4513071104	42	5554
2026-01-05 07:07:42.47	330.14	5.98	-33.9	-34.6	22.9	0.00e+00	0	24	0	4519362560	42	5454
2026-01-05 07:07:43.48	330.25	5.93	-34.5	-35.2	22.8	0.00e+00	0	25	0	4526702592	42	5870
2026-01-05 07:07:44.49	330.36	5.87	-34.8	-35.5	22.3	0.00e+00	0	24	0	4534042624	42	6088
2026-01-05 07:07:45.50	330.47	5.82	-36.1	-36.9	20.9	0.00e+00	0	24	0	4541382656	42	7132
2026-01-05 07:07:46.51	330.58	5.77	-35.4	-36.2	21.1	0.00e+00	0	24	0	4548722688	44	5830
2026-01-05 07:07:47.52	330.69	5.72	-35.0	-35.7	22.2	0.00e+00	0	25	0	4556062720	42	6220
2026-01-05 07:07:48.53	330.80	5.66	-35.0	-35.7	22.0	0.00e+00	0	24	0	4563402752	44	5552
2026-01-05 07:07:49.53	330.91	5.61	-35.5	-36.3	21.3	0.00e+00	0	24	0	4570742784	44	5931
2026-01-05 07:07:50.54	331.02	5.56	-35.2	-35.9	21.9	0.00e+00	0	24	0	4578082816	42	6384
2026-01-05 07:07:51.55	331.12	5.51	-36.7	-37.5	20.7	0.00e+00	0	24	0	4585422848	44	6842
2026-01-05 07:07:52.56	331.23	5.45	-35.2	-36.0	21.5	0.00e+00	0	24	0	4592762880	44	5732
