passes_logs/2026/01/05/R4.6S_Anadyr/R4.6S_Anadyr__20260105_210911_SUOMI_NPP_rec.log

#Pass ID: 20260105_210911_SUOMI NPP
#Satellite: SUOMI NPP
#Configuration: NPP
#almurnet v.1.7.20251203
#Start time: 2026-01-05 21:09:11

#Version: 2.2.20231116
#Station: R4.6S_Anadyr
#Location: 177.4865 lon 64.73178 lat
#TLE: 1 37849U 11061A   26004.95404768  .00000136  00000+0  85334-4 0  9991
#TLE: 2 37849  98.7801 307.0898 0002575  80.6707 279.4760 14.19522289735281

#Time	Az	El	Level	Level2	SNR	BER	BlckErr	Temp	State	Recorded	gain1	gain2
2026-01-05 21:09:11.93	82.93	0.04	-48.4	-59.1	3.5	8.45e-01	0	31	0	0	60	32440
2026-01-05 21:09:12.93	82.87	0.09	-48.6	-63.8	3.6	1.51e+00	0	32	104	0	60	55897
2026-01-05 21:09:13.94	82.80	0.14	-48.6	-63.8	3.6	1.51e+00	0	32	104	0	60	55982
2026-01-05 21:09:14.95	82.73	0.19	-48.6	-63.8	3.6	1.51e+00	0	32	104	0	60	55746
2026-01-05 21:09:15.96	82.67	0.25	-48.6	-63.8	3.6	1.51e+00	0	32	104	0	60	56186
2026-01-05 21:09:16.97	82.60	0.30	-48.6	-63.8	3.6	1.51e+00	0	32	104	0	60	55845
2026-01-05 21:09:17.98	82.53	0.35	-48.6	-63.8	3.6	1.51e+00	0	32	104	0	60	55732
2026-01-05 21:09:18.99	82.46	0.40	-48.7	-63.8	3.6	1.51e+00	0	32	104	0	60	56178
2026-01-05 21:09:20.00	82.40	0.46	-48.7	-63.8	3.6	1.51e+00	0	32	104	0	60	56238
2026-01-05 21:09:21.01	82.33	0.51	-48.7	-63.9	3.6	1.51e+00	0	32	104	0	60	56314
2026-01-05 21:09:22.02	82.26	0.56	-48.7	-63.9	3.6	1.51e+00	0	32	104	0	60	56369
2026-01-05 21:09:23.03	82.19	0.61	-48.7	-63.8	3.6	1.51e+00	0	32	104	0	60	56094
2026-01-05 21:09:24.04	82.12	0.67	-48.6	-63.9	3.6	1.51e+00	0	32	104	0	60	56393
2026-01-05 21:09:25.05	82.05	0.72	-48.6	-63.8	3.6	1.51e+00	0	32	104	0	60	55684
2026-01-05 21:09:26.05	81.98	0.77	-48.4	-63.6	3.6	1.51e+00	0	32	104	0	60	54950
2026-01-05 21:09:27.06	81.91	0.82	-48.3	-63.5	3.6	1.51e+00	0	32	104	0	60	54111
2026-01-05 21:09:28.07	81.84	0.88	-48.1	-63.3	3.6	1.51e+00	0	33	104	0	60	52883
2026-01-05 21:09:29.08	81.77	0.93	-47.7	-62.8	3.6	1.51e+00	0	32	104	0	60	49937
2026-01-05 21:09:30.09	81.70	0.98	-47.1	-62.3	3.6	1.51e+00	0	32	104	0	60	47203
2026-01-05 21:09:31.11	81.63	1.04	-47.0	-62.3	3.6	1.51e+00	0	33	104	0	60	46946
2026-01-05 21:09:32.12	81.56	1.09	-47.0	-62.3	3.6	1.51e+00	0	33	104	0	60	47226
2026-01-05 21:09:33.12	81.49	1.14	-47.0	-62.3	3.6	1.51e+00	0	33	104	0	60	47082
2026-01-05 21:09:34.14	81.42	1.20	-47.0	-62.3	3.6	1.51e+00	0	33	104	0	60	46884
2026-01-05 21:09:35.15	81.35	1.25	-47.0	-62.2	3.6	1.51e+00	0	32	104	0	60	46770
2026-01-05 21:09:36.16	81.27	1.30	-47.0	-62.2	3.6	1.51e+00	0	33	104	0	60	46824
2026-01-05 21:09:37.17	81.20	1.36	-47.0	-62.3	3.6	1.51e+00	0	33	104	0	60	46866
2026-01-05 21:09:38.18	81.13	1.41	-47.0	-62.2	3.6	1.51e+00	0	33	104	0	60	46663
2026-01-05 21:09:39.19	81.06	1.46	-47.0	-62.3	3.6	1.51e+00	0	33	104	0	60	46952
2026-01-05 21:09:40.20	80.98	1.52	-47.0	-62.3	3.6	1.51e+00	0	33	104	0	60	47019
2026-01-05 21:09:41.21	80.91	1.57	-47.0	-62.2	3.6	1.51e+00	0	33	104	0	60	46647
2026-01-05 21:09:42.22	80.84	1.62	-47.0	-62.2	3.6	1.51e+00	0	33	104	0	60	46691
2026-01-05 21:09:43.23	80.76	1.68	-47.0	-62.3	3.6	1.51e+00	0	33	104	0	60	46905
2026-01-05 21:09:44.24	80.69	1.73	-47.0	-62.2	3.6	1.51e+00	0	33	104	0	60	46752
2026-01-05 21:09:45.25	80.61	1.79	-47.0	-62.2	3.6	1.51e+00	0	33	104	0	60	46788
2026-01-05 21:09:46.25	80.54	1.84	-47.0	-62.3	3.6	1.51e+00	0	33	104	0	60	46882
2026-01-05 21:09:47.26	80.46	1.89	-47.0	-62.2	3.6	1.51e+00	0	33	104	0	60	46789
2026-01-05 21:09:48.27	80.39	1.95	-47.0	-62.3	3.6	1.51e+00	0	33	104	0	60	46864
2026-01-05 21:09:49.28	80.31	2.00	-47.0	-62.2	3.6	1.51e+00	0	33	104	0	60	46750
2026-01-05 21:09:50.29	80.24	2.06	-47.0	-62.1	3.6	1.51e+00	0	33	104	0	60	46179
2026-01-05 21:09:51.30	80.16	2.11	-47.0	-62.0	3.6	1.51e+00	0	33	104	0	60	45646
2026-01-05 21:09:52.31	80.08	2.16	-47.0	-61.9	3.6	1.51e+00	0	33	104	0	60	45138
2026-01-05 21:09:53.32	80.01	2.22	-47.0	-61.9	3.6	1.51e+00	0	33	104	0	60	45237
2026-01-05 21:09:54.33	79.93	2.27	-47.0	-62.1	3.6	1.51e+00	0	33	104	0	60	46065
2026-01-05 21:09:55.34	79.85	2.33	-47.0	-62.2	3.6	1.51e+00	0	33	104	0	60	46830
2026-01-05 21:09:56.35	79.78	2.38	-47.0	-62.3	3.6	1.51e+00	0	33	104	0	60	46966
2026-01-05 21:09:57.36	79.70	2.44	-47.0	-62.2	3.6	1.51e+00	0	33	104	0	60	46799
2026-01-05 21:09:58.37	79.62	2.49	-47.0	-62.1	3.6	1.51e+00	0	33	104	0	60	46249
2026-01-05 21:09:59.38	79.54	2.55	-47.0	-62.2	3.6	1.51e+00	0	33	104	0	60	46376
2026-01-05 21:10:00.38	79.46	2.60	-47.0	-62.3	3.6	1.51e+00	0	33	104	0	60	47118
2026-01-05 21:10:01.39	79.38	2.65	-47.0	-62.2	3.6	1.51e+00	0	33	104	0	60	46319
2026-01-05 21:10:02.40	79.30	2.71	-46.9	-61.7	3.6	1.51e+00	0	33	104	0	60	44196
2026-01-05 21:10:03.42	79.22	2.76	-46.9	-61.2	3.6	1.51e+00	0	33	104	0	60	41297
2026-01-05 21:10:04.42	79.14	2.82	-46.9	-61.4	3.6	1.51e+00	0	33	104	0	60	42564
2026-01-05 21:10:05.43	79.06	2.87	-47.0	-61.8	3.6	1.51e+00	0	33	104	0	60	44308
2026-01-05 21:10:06.44	78.98	2.93	-46.9	-61.2	3.6	1.51e+00	0	33	104	0	60	41378
2026-01-05 21:10:07.45	78.90	2.98	-46.7	-58.2	3.8	1.50e+00	0	33	104	0	60	29301
2026-01-05 21:10:08.46	78.82	3.04	-46.3	-54.0	6.6	4.76e-01	92	33	0	0	60	18202
2026-01-05 21:10:09.47	78.74	3.09	-45.8	-51.6	8.9	1.09e-01	0	33	0	2097152	60	13776
2026-01-05 21:10:10.48	78.66	3.15	-46.5	-54.2	3.4	5.38e-02	28	33	0	3145728	60	18602
2026-01-05 21:10:11.49	78.57	3.20	-47.3	-61.4	3.6	1.51e+00	0	33	104	3145728	60	42619
2026-01-05 21:10:12.50	78.49	3.26	-45.3	-50.2	8.1	4.20e-02	92	33	0	3145728	60	11752
2026-01-05 21:10:13.51	78.41	3.32	-47.0	-61.4	3.6	1.51e+00	0	33	104	3145728	60	42335
2026-01-05 21:10:14.52	78.32	3.37	-44.1	-47.5	5.9	1.50e+00	0	33	104	3145728	60	8603
2026-01-05 21:10:15.53	78.24	3.43	-42.3	-44.4	16.7	0.00e+00	92	33	0	3145728	58	6719
2026-01-05 21:10:16.54	78.16	3.48	-42.3	-44.5	17.0	0.00e+00	0	33	0	5242880	58	6778
2026-01-05 21:10:17.55	78.07	3.54	-41.7	-43.6	17.6	0.00e+00	75	33	0	6291456	56	6877
2026-01-05 21:10:18.56	77.99	3.59	-41.5	-43.3	18.2	0.00e+00	0	33	0	8388608	56	6672
2026-01-05 21:10:19.57	77.90	3.65	-41.5	-43.2	18.0	0.00e+00	71	33	0	10485760	56	6586
2026-01-05 21:10:20.57	77.82	3.70	-41.2	-42.9	18.5	0.00e+00	0	33	0	12582912	56	6319
2026-01-05 21:10:21.58	77.73	3.76	-40.5	-42.0	19.0	0.00e+00	92	33	0	13631488	54	6420
2026-01-05 21:10:22.59	77.65	3.82	-41.0	-42.7	18.6	0.00e+00	92	33	0	15728640	54	6929
2026-01-05 21:10:23.60	77.56	3.87	-40.8	-42.4	18.8	0.00e+00	0	33	0	17825792	54	6751
2026-01-05 21:10:24.61	77.47	3.93	-40.9	-42.4	18.8	0.00e+00	34	33	0	19922944	54	6748
2026-01-05 21:10:25.62	77.39	3.98	-40.8	-42.3	19.0	0.00e+00	0	33	0	22020096	54	6690
2026-01-05 21:10:26.63	77.30	4.04	-40.5	-41.9	19.3	0.00e+00	67	33	0	23068672	54	6365
2026-01-05 21:10:27.64	77.21	4.10	-40.5	-42.0	19.2	0.00e+00	33	33	0	25165824	54	6414
2026-01-05 21:10:28.65	77.12	4.15	-40.7	-42.2	19.1	0.00e+00	92	33	0	27262976	54	6556
2026-01-05 21:10:29.66	77.03	4.21	-40.5	-41.9	19.2	0.00e+00	92	33	0	29360128	54	6378
2026-01-05 21:10:30.67	76.95	4.26	-40.4	-41.9	19.4	0.00e+00	0	33	0	31457280	54	6326
2026-01-05 21:10:31.68	76.86	4.32	-40.8	-42.3	18.9	0.00e+00	92	33	0	33554432	54	6686
2026-01-05 21:10:32.69	76.77	4.38	-40.5	-42.0	19.2	0.00e+00	0	33	0	34603008	54	6432
2026-01-05 21:10:33.70	76.68	4.43	-40.7	-42.2	19.0	0.00e+00	92	33	0	36700160	54	6586
2026-01-05 21:10:34.71	76.59	4.49	-40.2	-41.6	19.7	0.00e+00	0	33	0	38797312	54	6142
2026-01-05 21:10:35.72	76.50	4.55	-40.6	-42.1	19.1	0.00e+00	92	33	0	40894464	54	6485
2026-01-05 21:10:36.73	76.40	4.60	-40.7	-42.2	19.1	0.00e+00	34	33	0	42991616	54	6548
2026-01-05 21:10:37.74	76.31	4.66	-40.6	-42.1	19.2	0.00e+00	5	33	0	44040192	54	6500
2026-01-05 21:10:38.75	76.22	4.72	-40.6	-42.1	19.2	0.00e+00	92	33	0	46137344	54	6511
2026-01-05 21:10:39.75	76.13	4.77	-40.9	-42.5	19.0	0.00e+00	0	33	0	48234496	54	6798
2026-01-05 21:10:40.76	76.04	4.83	-40.8	-42.3	19.2	0.00e+00	92	33	0	50331648	54	6640
2026-01-05 21:10:41.77	75.95	4.89	-41.0	-42.6	18.7	0.00e+00	0	33	0	52428800	54	6872
2026-01-05 21:10:42.78	75.85	4.94	-40.9	-42.5	18.9	0.00e+00	90	33	0	53477376	54	6792
2026-01-05 21:10:43.79	75.76	5.00	-41.1	-42.7	18.8	0.00e+00	39	33	0	55574528	54	6982
2026-01-05 21:10:44.80	75.66	5.06	-41.1	-42.7	18.9	0.00e+00	37	33	0	57671680	54	6944
2026-01-05 21:10:45.81	75.57	5.12	-41.3	-42.9	18.5	0.00e+00	92	33	0	59768832	54	7116
2026-01-05 21:10:46.82	75.48	5.17	-41.3	-42.9	18.5	0.00e+00	0	33	0	61865984	54	7158
2026-01-05 21:10:47.83	75.38	5.23	-41.1	-42.7	18.8	0.00e+00	92	33	0	62914560	54	6963
2026-01-05 21:10:48.84	75.29	5.29	-40.9	-42.4	19.0	0.00e+00	0	33	0	65011712	54	6744
2026-01-05 21:10:49.85	75.19	5.34	-40.9	-42.4	19.0	0.00e+00	92	33	0	67108864	54	6765
2026-01-05 21:10:50.86	75.09	5.40	-41.0	-42.5	19.0	0.00e+00	0	33	0	69206016	54	6828
2026-01-05 21:10:51.87	75.00	5.46	-40.9	-42.4	19.2	0.00e+00	92	33	0	71303168	54	6719
2026-01-05 21:10:52.88	74.90	5.52	-41.0	-42.6	18.6	0.00e+00	92	33	0	72351744	54	6865
2026-01-05 21:10:53.89	74.80	5.57	-40.8	-42.3	19.1	0.00e+00	0	33	0	74448896	54	6640
2026-01-05 21:10:54.90	74.70	5.63	-40.8	-42.2	19.3	0.00e+00	92	33	0	76546048	54	6593
2026-01-05 21:10:55.91	74.61	5.69	-40.7	-42.2	19.3	0.00e+00	0	33	0	78643200	54	6587
2026-01-05 21:10:56.92	74.51	5.75	-40.8	-42.3	19.1	0.00e+00	90	33	0	80740352	54	6625
2026-01-05 21:10:57.93	74.41	5.80	-40.6	-42.0	19.4	0.00e+00	0	33	0	81788928	54	6448
2026-01-05 21:10:58.94	74.31	5.86	-40.5	-41.9	19.5	0.00e+00	92	33	0	83886080	54	6371
2026-01-05 21:10:59.95	74.21	5.92	-40.5	-41.9	19.6	0.00e+00	92	33	0	85983232	54	6339
2026-01-05 21:11:00.96	74.11	5.98	-40.7	-42.1	19.5	0.00e+00	0	33	0	88080384	54	6496
2026-01-05 21:11:01.97	74.01	6.04	-40.6	-42.0	19.6	0.00e+00	59	33	0	90177536	54	6404
2026-01-05 21:11:02.98	73.91	6.09	-40.4	-41.8	19.7	0.00e+00	0	33	0	91226112	54	6307
2026-01-05 21:11:03.99	73.81	6.15	-40.4	-41.8	19.7	0.00e+00	92	33	0	93323264	54	6288
2026-01-05 21:11:04.99	73.70	6.21	-40.5	-41.9	19.5	0.00e+00	0	33	0	95420416	54	6367
2026-01-05 21:11:06.01	73.60	6.27	-40.3	-41.6	19.8	0.00e+00	92	33	0	97517568	54	6167
2026-01-05 21:11:07.01	73.50	6.33	-40.5	-41.9	19.6	0.00e+00	78	33	0	99614720	54	6336
2026-01-05 21:11:08.02	73.40	6.38	-40.5	-41.9	19.6	0.00e+00	0	33	0	101711872	54	6351
2026-01-05 21:11:09.03	73.29	6.44	-40.8	-42.3	19.3	0.00e+00	92	33	0	102760448	54	6680
2026-01-05 21:11:10.04	73.19	6.50	-40.7	-42.2	19.4	0.00e+00	0	33	0	104857600	54	6549
2026-01-05 21:11:11.05	73.08	6.56	-40.9	-42.4	19.2	0.00e+00	92	33	0	106954752	54	6736
2026-01-05 21:11:12.06	72.98	6.62	-40.9	-42.4	19.2	0.00e+00	0	33	0	109051904	54	6758
2026-01-05 21:11:13.07	72.87	6.67	-41.0	-42.5	19.1	0.00e+00	92	33	0	111149056	54	6807
2026-01-05 21:11:14.08	72.77	6.73	-41.0	-42.5	19.1	0.00e+00	91	33	0	112197632	54	6841
2026-01-05 21:11:15.09	72.66	6.79	-41.2	-42.8	18.9	0.00e+00	0	33	0	114294784	54	7014
2026-01-05 21:11:16.10	72.56	6.85	-40.8	-42.2	19.4	0.00e+00	91	33	0	116391936	54	6606
2026-01-05 21:11:17.11	72.45	6.91	-40.9	-42.4	19.1	0.00e+00	0	33	0	118489088	54	6712
2026-01-05 21:11:18.12	72.34	6.97	-40.6	-42.0	19.6	0.00e+00	91	33	0	120586240	54	6450
2026-01-05 21:11:19.13	72.23	7.03	-40.5	-41.9	19.5	0.00e+00	0	33	0	121634816	54	6346
2026-01-05 21:11:20.14	72.13	7.08	-40.5	-42.0	19.6	0.00e+00	92	33	0	123731968	54	6398
2026-01-05 21:11:21.14	72.02	7.14	-40.6	-42.0	19.6	0.00e+00	92	33	0	125829120	54	6450
2026-01-05 21:11:22.16	71.91	7.20	-40.7	-42.2	19.3	0.00e+00	27	33	0	127926272	54	6597
2026-01-05 21:11:23.17	71.80	7.26	-40.9	-42.4	19.2	0.00e+00	92	33	0	130023424	54	6763
2026-01-05 21:11:24.17	71.69	7.32	-40.6	-42.1	19.6	0.00e+00	0	33	0	131072000	54	6504
2026-01-05 21:11:25.19	71.58	7.38	-40.6	-42.0	19.6	0.00e+00	36	33	0	133169152	54	6450
2026-01-05 21:11:26.19	71.47	7.44	-40.4	-41.8	19.8	0.00e+00	0	33	0	135266304	54	6309
2026-01-05 21:11:27.21	71.35	7.49	-40.4	-41.7	19.8	0.00e+00	92	33	0	137363456	54	6236
2026-01-05 21:11:28.21	71.24	7.55	-40.4	-41.7	19.8	0.00e+00	38	33	0	139460608	54	6245
2026-01-05 21:11:29.22	71.13	7.61	-40.2	-41.5	20.2	0.00e+00	0	33	0	140509184	54	6095
2026-01-05 21:11:30.23	71.02	7.67	-40.3	-41.7	19.8	0.00e+00	90	33	0	142606336	54	6184
2026-01-05 21:11:31.24	70.90	7.73	-40.2	-41.5	20.1	0.00e+00	0	33	0	144703488	54	6097
2026-01-05 21:11:32.25	70.79	7.79	-40.3	-41.7	20.0	0.00e+00	92	33	0	146800640	54	6206
2026-01-05 21:11:33.26	70.68	7.85	-40.4	-41.9	19.8	0.00e+00	0	33	0	148897792	54	6319
2026-01-05 21:11:34.27	70.56	7.91	-40.5	-41.9	19.8	0.00e+00	87	33	0	149946368	54	6322
2026-01-05 21:11:35.28	70.45	7.97	-40.1	-41.4	20.3	0.00e+00	0	33	0	152043520	54	6031
2026-01-05 21:11:36.29	70.33	8.03	-40.3	-41.7	20.1	0.00e+00	92	33	0	154140672	54	6201
2026-01-05 21:11:37.30	70.21	8.08	-39.9	-41.2	20.4	0.00e+00	92	33	0	156237824	54	5860
2026-01-05 21:11:38.31	70.10	8.14	-40.1	-41.4	20.3	0.00e+00	0	33	0	158334976	54	5987
2026-01-05 21:11:39.32	69.98	8.20	-40.0	-41.3	20.3	0.00e+00	39	33	0	159383552	54	5952
2026-01-05 21:11:40.33	69.86	8.26	-39.8	-41.1	20.5	0.00e+00	0	33	0	161480704	54	5796
2026-01-05 21:11:41.34	69.74	8.32	-40.2	-41.5	20.1	0.00e+00	92	33	0	163577856	54	6088
2026-01-05 21:11:42.35	69.63	8.38	-39.9	-41.2	20.4	0.00e+00	0	33	0	165675008	54	5887
2026-01-05 21:11:43.36	69.51	8.44	-40.1	-41.5	20.3	0.00e+00	92	33	0	167772160	54	6063
2026-01-05 21:11:44.37	69.39	8.50	-40.3	-41.7	20.0	0.00e+00	92	33	0	169869312	54	6196
2026-01-05 21:11:45.38	69.27	8.56	-40.3	-41.7	20.0	0.00e+00	0	33	0	170917888	54	6175
2026-01-05 21:11:46.39	69.15	8.62	-40.4	-41.8	19.9	0.00e+00	34	33	0	173015040	54	6302
2026-01-05 21:11:47.40	69.02	8.68	-40.3	-41.7	20.0	0.00e+00	0	33	0	175112192	54	6229
2026-01-05 21:11:48.41	68.90	8.74	-40.2	-41.5	20.3	0.00e+00	92	33	0	177209344	54	6075
2026-01-05 21:11:49.42	68.78	8.80	-40.3	-41.7	20.0	0.00e+00	0	33	0	179306496	54	6219
2026-01-05 21:11:50.43	68.66	8.85	-40.4	-41.8	19.9	0.00e+00	92	33	0	180355072	54	6262
2026-01-05 21:11:51.44	68.53	8.91	-40.6	-42.1	19.9	0.00e+00	2	33	0	182452224	54	6482
2026-01-05 21:11:52.44	68.41	8.97	-40.5	-42.0	19.8	0.00e+00	0	33	0	184549376	54	6415
2026-01-05 21:11:53.46	68.29	9.03	-40.5	-41.9	19.9	0.00e+00	92	33	0	186646528	54	6323
2026-01-05 21:11:54.46	68.16	9.09	-40.4	-41.8	20.0	0.00e+00	0	33	0	188743680	54	6253
2026-01-05 21:11:55.47	68.04	9.15	-40.3	-41.6	20.1	0.00e+00	92	33	0	189792256	54	6162
2026-01-05 21:11:56.48	67.91	9.21	-40.1	-41.4	20.3	0.00e+00	0	33	0	191889408	54	6024
2026-01-05 21:11:57.49	67.79	9.27	-39.9	-41.1	20.6	0.00e+00	92	33	0	193986560	54	5814
2026-01-05 21:11:58.50	67.66	9.33	-39.8	-41.1	20.6	0.00e+00	0	33	0	196083712	54	5779
2026-01-05 21:11:59.51	67.53	9.39	-39.5	-40.7	20.9	0.00e+00	0	33	0	198180864	52	6182
2026-01-05 21:12:00.52	67.40	9.45	-39.6	-40.8	20.9	0.00e+00	92	33	0	199229440	52	6284
2026-01-05 21:12:01.53	67.28	9.51	-39.5	-40.7	21.0	0.00e+00	0	33	0	201326592	52	6217
2026-01-05 21:12:02.54	67.15	9.57	-39.5	-40.7	21.0	0.00e+00	71	33	0	203423744	52	6209
2026-01-05 21:12:03.55	67.02	9.63	-39.5	-40.7	20.9	0.00e+00	0	33	0	205520896	52	6198
2026-01-05 21:12:04.56	66.89	9.69	-39.4	-40.6	21.0	0.00e+00	92	33	0	207618048	52	6139
2026-01-05 21:12:05.57	66.76	9.75	-39.4	-40.5	21.2	0.00e+00	9	33	0	208666624	52	6091
2026-01-05 21:12:06.58	66.62	9.81	-39.4	-40.6	21.1	0.00e+00	0	33	0	210763776	52	6133
2026-01-05 21:12:07.59	66.49	9.86	-39.4	-40.6	21.0	0.00e+00	91	33	0	212860928	52	6120
2026-01-05 21:12:08.59	66.36	9.92	-39.5	-40.6	21.1	0.00e+00	0	33	0	214958080	52	6162
2026-01-05 21:12:09.60	66.23	9.98	-39.4	-40.6	21.1	0.00e+00	71	33	0	217055232	52	6142
2026-01-05 21:12:10.61	66.10	10.04	-39.3	-40.5	21.2	0.00e+00	0	33	0	218103808	52	6050
2026-01-05 21:12:11.62	65.96	10.10	-39.5	-40.7	21.0	0.00e+00	92	33	0	220200960	52	6185
2026-01-05 21:12:12.63	65.83	10.16	-39.6	-40.8	20.4	0.00e+00	0	33	0	222298112	52	6283
2026-01-05 21:12:13.64	65.69	10.22	-39.4	-40.6	20.9	0.00e+00	0	33	0	224395264	52	6143
2026-01-05 21:12:14.65	65.56	10.28	-39.6	-40.8	21.0	0.00e+00	77	33	0	226492416	52	6293
2026-01-05 21:12:15.66	65.42	10.34	-39.8	-41.1	20.7	0.00e+00	0	33	0	227540992	52	6486
2026-01-05 21:12:16.67	65.28	10.40	-39.7	-40.9	20.9	0.00e+00	38	33	0	229638144	52	6352
2026-01-05 21:12:17.68	65.15	10.46	-39.5	-40.6	21.1	0.00e+00	0	33	0	231735296	52	6163
2026-01-05 21:12:18.69	65.01	10.52	-39.4	-40.5	21.2	0.00e+00	90	33	0	233832448	52	6100
2026-01-05 21:12:19.70	64.87	10.58	-39.2	-40.3	21.4	0.00e+00	0	33	0	235929600	52	5946
2026-01-05 21:12:20.71	64.73	10.64	-39.2	-40.4	21.3	0.00e+00	92	33	0	238026752	52	5973
2026-01-05 21:12:21.72	64.59	10.70	-39.1	-40.2	21.4	0.00e+00	64	33	0	239075328	52	5885
2026-01-05 21:12:22.73	64.45	10.76	-39.4	-40.5	21.2	0.00e+00	0	33	0	241172480	52	6095
2026-01-05 21:12:23.74	64.31	10.81	-39.3	-40.5	21.3	0.00e+00	38	33	0	243269632	52	6051
2026-01-05 21:12:24.75	64.17	10.87	-39.3	-40.4	21.3	0.00e+00	0	33	0	245366784	52	6000
2026-01-05 21:12:25.76	64.03	10.93	-39.3	-40.4	21.3	0.00e+00	92	33	0	247463936	52	6026
2026-01-05 21:12:26.77	63.89	10.99	-39.1	-40.2	21.4	0.00e+00	0	33	0	248512512	52	5889
2026-01-05 21:12:27.78	63.74	11.05	-39.1	-40.2	21.5	0.00e+00	92	33	0	250609664	52	5863
2026-01-05 21:12:28.79	63.60	11.11	-39.3	-40.4	21.3	0.00e+00	31	33	0	252706816	52	5998
2026-01-05 21:12:29.80	63.45	11.17	-39.5	-40.6	21.1	0.00e+00	0	33	0	254803968	52	6171
2026-01-05 21:12:30.81	63.31	11.23	-39.5	-40.6	21.1	0.00e+00	80	33	0	256901120	52	6147
2026-01-05 21:12:31.82	63.16	11.29	-39.5	-40.6	21.2	0.00e+00	0	33	0	257949696	52	6147
2026-01-05 21:12:32.83	63.02	11.35	-39.4	-40.6	21.2	0.00e+00	81	33	0	260046848	52	6107
2026-01-05 21:12:33.84	62.87	11.41	-39.5	-40.6	21.1	0.00e+00	0	33	0	262144000	52	6167
2026-01-05 21:12:34.85	62.72	11.46	-39.4	-40.5	21.2	0.00e+00	92	33	0	264241152	52	6103
2026-01-05 21:12:35.86	62.58	11.52	-39.4	-40.5	21.2	0.00e+00	57	33	0	266338304	52	6085
2026-01-05 21:12:36.87	62.43	11.58	-39.5	-40.7	20.9	0.00e+00	0	33	0	267386880	52	6206
2026-01-05 21:12:37.88	62.28	11.64	-39.7	-40.9	20.9	0.00e+00	78	33	0	269484032	52	6378
2026-01-05 21:12:38.89	62.13	11.70	-39.8	-41.1	20.7	0.00e+00	0	33	0	271581184	52	6476
2026-01-05 21:12:39.90	61.98	11.76	-39.8	-41.0	20.8	0.00e+00	76	33	0	273678336	52	6442
2026-01-05 21:12:40.91	61.83	11.82	-39.8	-41.1	20.8	0.00e+00	0	33	0	275775488	52	6480
2026-01-05 21:12:41.92	61.68	11.87	-39.9	-41.2	20.7	0.00e+00	92	33	0	276824064	52	6561
2026-01-05 21:12:42.92	61.53	11.93	-40.0	-41.2	20.6	0.00e+00	0	33	0	278921216	52	6593
2026-01-05 21:12:43.93	61.37	11.99	-39.8	-41.0	20.8	0.00e+00	0	33	0	281018368	52	6454
2026-01-05 21:12:44.94	61.22	12.05	-40.1	-41.4	20.6	0.00e+00	92	33	0	283115520	52	6700
2026-01-05 21:12:45.95	61.07	12.11	-40.0	-41.3	20.7	0.00e+00	0	33	0	285212672	52	6625
2026-01-05 21:12:46.96	60.91	12.17	-39.9	-41.2	20.6	0.00e+00	41	33	0	286261248	52	6572
2026-01-05 21:12:47.97	60.76	12.22	-39.8	-41.0	20.9	0.00e+00	0	33	0	288358400	52	6407
2026-01-05 21:12:48.98	60.60	12.28	-39.9	-41.1	20.8	0.00e+00	92	33	0	290455552	52	6512
2026-01-05 21:12:49.99	60.44	12.34	-39.9	-41.1	20.8	0.00e+00	8	33	0	292552704	52	6512
2026-01-05 21:12:51.00	60.29	12.40	-39.5	-40.6	21.1	0.00e+00	0	33	0	294649856	52	6161
2026-01-05 21:12:52.01	60.13	12.46	-39.6	-40.8	21.1	0.00e+00	92	34	0	295698432	52	6263
2026-01-05 21:12:53.02	59.97	12.51	-39.3	-40.5	21.2	0.00e+00	0	34	0	297795584	52	6040
2026-01-05 21:12:54.03	59.81	12.57	-39.5	-40.6	21.2	0.00e+00	7	33	0	299892736	52	6152
2026-01-05 21:12:55.04	59.65	12.63	-39.4	-40.5	21.3	0.00e+00	0	33	0	301989888	52	6101
2026-01-05 21:12:56.04	59.49	12.69	-39.3	-40.4	21.4	0.00e+00	92	33	0	304087040	52	5999
2026-01-05 21:12:57.05	59.33	12.74	-39.4	-40.6	21.3	0.00e+00	0	33	0	306184192	52	6145
2026-01-05 21:12:58.06	59.17	12.80	-39.4	-40.6	21.3	0.00e+00	65	33	0	307232768	52	6141
2026-01-05 21:12:59.07	59.01	12.86	-39.3	-40.4	21.3	0.00e+00	90	33	0	309329920	52	6022
2026-01-05 21:13:00.08	58.85	12.91	-39.3	-40.5	21.3	0.00e+00	0	33	0	311427072	52	6047
2026-01-05 21:13:01.09	58.68	12.97	-39.4	-40.5	21.1	0.00e+00	72	33	0	313524224	52	6083
2026-01-05 21:13:02.10	58.52	13.03	-39.2	-40.3	21.5	0.00e+00	0	33	0	315621376	52	5902
2026-01-05 21:13:03.10	58.36	13.08	-38.9	-39.9	21.8	0.00e+00	92	33	0	316669952	52	5691
2026-01-05 21:13:04.11	58.19	13.14	-39.0	-40.1	21.7	0.00e+00	0	33	0	318767104	52	5801
2026-01-05 21:13:05.12	58.03	13.20	-39.0	-40.1	21.6	0.00e+00	92	33	0	320864256	52	5820
2026-01-05 21:13:06.13	57.86	13.25	-39.0	-40.1	21.5	0.00e+00	34	33	0	322961408	52	5820
2026-01-05 21:13:07.14	57.69	13.31	-38.8	-39.8	21.9	0.00e+00	0	33	0	325058560	52	5617
2026-01-05 21:13:08.15	57.52	13.37	-38.3	-39.3	22.4	0.00e+00	27	33	0	326107136	50	5937
2026-01-05 21:13:09.16	57.36	13.42	-38.2	-39.2	22.4	0.00e+00	30	33	0	328204288	50	5875
2026-01-05 21:13:10.16	57.19	13.48	-38.0	-39.0	22.6	0.00e+00	92	33	0	330301440	50	5714
2026-01-05 21:13:11.17	57.02	13.54	-37.9	-38.9	22.4	0.00e+00	0	33	0	332398592	50	5654
2026-01-05 21:13:12.18	56.85	13.59	-37.9	-38.9	22.6	0.00e+00	92	34	0	334495744	50	5640
2026-01-05 21:13:13.19	56.68	13.65	-37.8	-38.7	22.7	0.00e+00	0	33	0	335544320	48	6231
2026-01-05 21:13:14.20	56.50	13.70	-37.9	-38.8	22.9	0.00e+00	0	33	0	337641472	48	6312
2026-01-05 21:13:15.20	56.33	13.76	-37.6	-38.5	23.0	0.00e+00	91	33	0	339738624	48	6052
2026-01-05 21:13:16.21	56.16	13.81	-37.7	-38.6	22.8	0.00e+00	0	33	0	341835776	48	6150
2026-01-05 21:13:17.22	55.99	13.87	-37.8	-38.7	22.9	0.00e+00	92	33	0	343932928	48	6216
2026-01-05 21:13:18.23	55.81	13.92	-37.7	-38.7	22.9	0.00e+00	0	33	0	344981504	48	6178
2026-01-05 21:13:19.24	55.64	13.98	-37.7	-38.7	22.8	0.00e+00	91	33	0	347078656	48	6174
2026-01-05 21:13:20.25	55.46	14.03	-37.7	-38.6	22.8	0.00e+00	0	33	0	349175808	48	6160
2026-01-05 21:13:21.26	55.29	14.09	-37.5	-38.4	23.1	0.00e+00	0	33	0	351272960	48	6011
2026-01-05 21:13:22.27	55.11	14.14	-37.4	-38.3	23.1	0.00e+00	92	33	0	353370112	48	5953
2026-01-05 21:13:23.28	54.93	14.20	-37.6	-38.5	22.9	0.00e+00	0	33	0	354418688	48	6091
2026-01-05 21:13:24.29	54.75	14.25	-37.5	-38.4	23.0	0.00e+00	88	33	0	356515840	48	5992
2026-01-05 21:13:25.30	54.57	14.30	-37.5	-38.5	23.0	0.00e+00	0	33	0	358612992	48	6039
2026-01-05 21:13:26.31	54.39	14.36	-37.4	-38.3	23.1	0.00e+00	92	33	0	360710144	48	5954
2026-01-05 21:13:27.32	54.21	14.41	-37.5	-38.4	22.9	0.00e+00	0	33	0	362807296	48	6016
2026-01-05 21:13:28.33	54.03	14.46	-37.6	-38.5	22.9	0.00e+00	0	33	0	363855872	48	6086
2026-01-05 21:13:29.34	53.85	14.52	-37.7	-38.7	22.9	0.00e+00	92	34	0	365953024	48	6183
2026-01-05 21:13:30.35	53.67	14.57	-37.7	-38.6	22.9	0.00e+00	0	33	0	368050176	48	6167
2026-01-05 21:13:31.36	53.49	14.62	-37.9	-38.8	22.7	0.00e+00	40	34	0	370147328	48	6313
2026-01-05 21:13:32.37	53.30	14.68	-38.1	-39.1	22.6	0.00e+00	0	33	0	372244480	48	6471
2026-01-05 21:13:33.38	53.12	14.73	-38.1	-39.1	22.5	0.00e+00	92	33	0	373293056	48	6515
2026-01-05 21:13:34.39	52.93	14.78	-38.0	-39.0	22.6	0.00e+00	0	33	0	375390208	48	6429
2026-01-05 21:13:35.40	52.75	14.83	-38.0	-39.0	22.5	0.00e+00	0	33	0	377487360	48	6444
2026-01-05 21:13:36.41	52.56	14.89	-38.0	-39.0	22.6	0.00e+00	35	33	0	379584512	48	6456
2026-01-05 21:13:37.42	52.37	14.94	-37.8	-38.8	22.7	0.00e+00	0	33	0	381681664	48	6314
2026-01-05 21:13:38.42	52.19	14.99	-37.6	-38.6	22.8	0.00e+00	24	34	0	382730240	48	6131
2026-01-05 21:13:39.43	52.00	15.04	-37.5	-38.4	23.0	0.00e+00	0	34	0	384827392	48	6028
2026-01-05 21:13:40.44	51.81	15.09	-37.3	-38.3	23.2	0.00e+00	90	33	0	386924544	48	5906
2026-01-05 21:13:41.45	51.62	15.14	-37.0	-37.9	23.5	0.00e+00	0	33	0	389021696	48	5681
2026-01-05 21:13:42.46	51.43	15.19	-36.7	-37.6	23.5	0.00e+00	83	34	0	391118848	48	5482
2026-01-05 21:13:43.47	51.24	15.24	-36.5	-37.4	23.8	0.00e+00	71	33	0	392167424	46	5991
2026-01-05 21:13:44.48	51.05	15.29	-36.6	-37.5	23.8	0.00e+00	0	33	0	394264576	46	6058
2026-01-05 21:13:45.49	50.86	15.35	-36.7	-37.5	23.7	0.00e+00	36	33	0	396361728	46	6088
2026-01-05 21:13:46.50	50.66	15.40	-36.5	-37.4	23.9	0.00e+00	0	33	0	398458880	46	5994
2026-01-05 21:13:47.51	50.47	15.44	-36.7	-37.6	23.6	0.00e+00	92	33	0	400556032	46	6147
2026-01-05 21:13:48.52	50.28	15.49	-36.9	-37.8	23.6	0.00e+00	0	34	0	402653184	46	6311
2026-01-05 21:13:49.53	50.08	15.54	-37.1	-38.0	23.4	0.00e+00	72	34	0	403701760	46	6435
2026-01-05 21:13:50.54	49.89	15.59	-37.2	-38.1	23.4	0.00e+00	44	34	0	405798912	46	6487
2026-01-05 21:13:51.55	49.69	15.64	-37.0	-37.9	23.4	0.00e+00	0	34	0	407896064	46	6383
2026-01-05 21:13:52.56	49.49	15.69	-37.5	-38.4	23.1	0.00e+00	67	33	0	409993216	46	6766
2026-01-05 21:13:53.57	49.30	15.74	-37.8	-38.8	22.8	0.00e+00	0	34	0	412090368	46	7010
2026-01-05 21:13:54.58	49.10	15.79	-37.8	-38.8	22.9	0.00e+00	90	34	0	413138944	48	6251
2026-01-05 21:13:55.59	48.90	15.83	-37.4	-38.4	23.0	0.00e+00	0	33	0	415236096	48	5989
2026-01-05 21:13:56.60	48.70	15.88	-37.3	-38.2	23.2	0.00e+00	57	33	0	417333248	48	5880
2026-01-05 21:13:57.61	48.50	15.93	-37.2	-38.1	23.3	0.00e+00	0	33	0	419430400	48	5802
2026-01-05 21:13:58.62	48.30	15.98	-37.1	-38.0	23.4	0.00e+00	0	34	0	421527552	48	5743
2026-01-05 21:13:59.63	48.10	16.02	-37.0	-37.9	23.5	0.00e+00	70	34	0	422576128	48	5634
2026-01-05 21:14:00.64	47.90	16.07	-37.0	-37.9	23.6	0.00e+00	0	33	0	424673280	48	5643
2026-01-05 21:14:01.65	47.69	16.12	-36.9	-37.8	23.6	0.00e+00	38	33	0	426770432	48	5567
2026-01-05 21:14:02.66	47.49	16.16	-36.6	-37.5	23.8	0.00e+00	0	34	0	428867584	46	6071
2026-01-05 21:14:03.66	47.29	16.21	-36.6	-37.5	23.8	0.00e+00	91	33	0	430964736	46	6074
2026-01-05 21:14:04.67	47.09	16.25	-36.5	-37.4	23.8	0.00e+00	0	33	0	432013312	46	6007
2026-01-05 21:14:05.69	46.88	16.30	-36.5	-37.4	23.9	0.00e+00	33	33	0	434110464	46	5972
2026-01-05 21:14:06.69	46.68	16.34	-36.7	-37.5	23.8	0.00e+00	85	33	0	436207616	46	6102
2026-01-05 21:14:07.71	46.47	16.39	-36.6	-37.5	23.9	0.00e+00	0	33	0	438304768	46	6044
2026-01-05 21:14:08.72	46.26	16.43	-36.6	-37.4	23.8	0.00e+00	43	33	0	440401920	46	6019
2026-01-05 21:14:09.72	46.05	16.47	-36.8	-37.6	23.6	0.00e+00	0	33	0	441450496	46	6155
2026-01-05 21:14:10.73	45.85	16.52	-36.7	-37.6	23.8	0.00e+00	92	33	0	443547648	46	6121
2026-01-05 21:14:11.74	45.64	16.56	-36.6	-37.4	23.9	0.00e+00	0	33	0	445644800	46	6033
2026-01-05 21:14:12.75	45.43	16.60	-36.8	-37.6	23.7	0.00e+00	50	33	0	447741952	46	6146
2026-01-05 21:14:13.76	45.22	16.65	-36.7	-37.5	23.8	0.00e+00	39	33	0	449839104	46	6082
2026-01-05 21:14:14.77	45.01	16.69	-36.7	-37.6	23.8	0.00e+00	0	34	0	450887680	46	6120
2026-01-05 21:14:15.78	44.80	16.73	-37.1	-37.9	23.5	0.00e+00	19	33	0	452984832	46	6382
2026-01-05 21:14:16.78	44.59	16.77	-37.1	-38.0	23.4	0.00e+00	0	33	0	455081984	46	6458
2026-01-05 21:14:17.79	44.38	16.81	-37.4	-38.3	23.2	0.00e+00	73	33	0	457179136	46	6648
2026-01-05 21:14:18.80	44.16	16.85	-37.7	-38.7	23.0	0.00e+00	0	33	0	459276288	46	6961
2026-01-05 21:14:19.81	43.95	16.89	-37.6	-38.6	23.1	0.00e+00	73	33	0	460324864	48	6108
2026-01-05 21:14:20.82	43.74	16.94	-37.3	-38.2	23.3	0.00e+00	0	33	0	462422016	48	5851
2026-01-05 21:14:21.83	43.52	16.98	-37.1	-38.0	23.4	0.00e+00	0	34	0	464519168	48	5751
2026-01-05 21:14:22.84	43.31	17.01	-36.9	-37.8	23.5	0.00e+00	82	33	0	466616320	48	5575
2026-01-05 21:14:23.85	43.09	17.05	-36.7	-37.6	23.8	0.00e+00	0	33	0	468713472	46	6146
2026-01-05 21:14:24.86	42.87	17.09	-36.7	-37.6	23.8	0.00e+00	89	33	0	470810624	46	6104
2026-01-05 21:14:25.87	42.66	17.13	-36.5	-37.3	24.0	0.00e+00	0	33	0	471859200	46	5945
2026-01-05 21:14:26.88	42.44	17.17	-36.3	-37.2	24.0	0.00e+00	92	33	0	473956352	46	5842
2026-01-05 21:14:27.89	42.22	17.21	-36.1	-36.9	24.3	0.00e+00	0	33	0	476053504	46	5695
2026-01-05 21:14:28.90	42.00	17.24	-36.1	-37.0	24.2	0.00e+00	0	34	0	478150656	46	5712
2026-01-05 21:14:29.91	41.79	17.28	-36.0	-36.8	24.4	0.00e+00	65	33	0	480247808	46	5611
2026-01-05 21:14:30.92	41.57	17.32	-35.9	-36.7	24.5	0.00e+00	0	33	0	481296384	46	5515
2026-01-05 21:14:31.93	41.35	17.36	-35.9	-36.7	24.4	0.00e+00	92	33	0	483393536	46	5561
2026-01-05 21:14:32.94	41.13	17.39	-36.0	-36.8	24.4	0.00e+00	0	33	0	485490688	46	5580
2026-01-05 21:14:33.94	40.91	17.43	-35.8	-36.6	24.1	0.00e+00	0	34	0	487587840	44	6153
2026-01-05 21:14:34.95	40.68	17.46	-35.9	-36.7	23.8	0.00e+00	0	34	0	489684992	44	6204
2026-01-05 21:14:35.96	40.46	17.50	-36.0	-36.8	24.3	0.00e+00	0	34	0	490733568	44	6256
2026-01-05 21:14:36.97	40.24	17.53	-35.9	-36.7	24.5	0.00e+00	92	34	0	492830720	44	6203
2026-01-05 21:14:37.98	40.02	17.56	-36.3	-37.1	24.1	0.00e+00	0	33	0	494927872	44	6504
2026-01-05 21:14:38.99	39.79	17.60	-36.6	-37.4	23.8	0.00e+00	43	33	0	497025024	44	6760
2026-01-05 21:14:40.00	39.57	17.63	-36.4	-37.2	23.9	0.00e+00	0	34	0	499122176	44	6589
2026-01-05 21:14:41.01	39.34	17.66	-36.6	-37.4	23.7	0.00e+00	0	33	0	500170752	44	6751
2026-01-05 21:14:42.02	39.12	17.70	-36.7	-37.5	23.8	0.00e+00	0	33	0	502267904	44	6836
2026-01-05 21:14:43.03	38.89	17.73	-36.8	-37.6	23.7	0.00e+00	0	34	0	504365056	44	6923
2026-01-05 21:14:44.04	38.67	17.76	-37.1	-38.1	23.3	0.00e+00	13	34	0	506462208	46	6473
2026-01-05 21:14:45.05	38.44	17.79	-37.3	-38.3	23.1	0.00e+00	0	33	0	508559360	46	6635
2026-01-05 21:14:46.06	38.21	17.82	-37.1	-38.0	23.4	0.00e+00	90	34	0	509607936	46	6436
2026-01-05 21:14:47.07	37.99	17.85	-37.1	-38.0	23.4	0.00e+00	0	34	0	511705088	46	6398
2026-01-05 21:14:48.08	37.76	17.88	-36.9	-37.8	23.5	0.00e+00	0	34	0	513802240	46	6284
2026-01-05 21:14:49.09	37.53	17.91	-37.1	-38.0	23.3	0.00e+00	0	34	0	515899392	46	6423
2026-01-05 21:14:50.10	37.30	17.94	-37.5	-38.5	22.9	0.00e+00	0	33	0	517996544	46	6807
2026-01-05 21:14:51.11	37.07	17.97	-37.9	-38.9	22.8	0.00e+00	44	33	0	519045120	46	7091
2026-01-05 21:14:52.12	36.84	18.00	-37.8	-38.7	22.8	0.00e+00	0	33	0	521142272	48	6231
2026-01-05 21:14:53.13	36.61	18.02	-37.4	-38.4	23.2	0.00e+00	87	33	0	523239424	48	5967
2026-01-05 21:14:54.14	36.38	18.05	-37.4	-38.3	23.1	0.00e+00	0	33	0	525336576	48	5943
2026-01-05 21:14:55.15	36.15	18.08	-37.5	-38.4	23.1	0.00e+00	0	34	0	527433728	48	6027
2026-01-05 21:14:56.16	35.92	18.10	-37.7	-38.7	22.9	0.00e+00	0	33	0	528482304	48	6196
2026-01-05 21:14:57.17	35.69	18.13	-37.8	-38.8	22.6	0.00e+00	0	33	0	530579456	48	6280
2026-01-05 21:14:58.17	35.46	18.16	-37.5	-38.4	22.9	0.00e+00	40	34	0	532676608	48	6008
2026-01-05 21:14:59.18	35.22	18.18	-37.4	-38.3	23.2	0.00e+00	0	34	0	534773760	48	5916
2026-01-05 21:15:00.19	34.99	18.21	-37.5	-38.5	23.0	0.00e+00	91	33	0	536870912	48	6039
2026-01-05 21:15:01.20	34.76	18.23	-36.8	-37.7	23.6	0.00e+00	0	33	0	538968064	48	5534
2026-01-05 21:15:02.21	34.52	18.25	-36.7	-37.6	23.4	0.00e+00	5	34	0	540016640	48	5451
2026-01-05 21:15:03.22	34.29	18.28	-37.2	-38.1	23.4	0.00e+00	0	34	0	542113792	46	6479
2026-01-05 21:15:04.23	34.06	18.30	-37.3	-38.2	23.2	0.00e+00	0	34	0	544210944	46	6573
2026-01-05 21:15:05.24	33.82	18.32	-37.4	-38.3	23.1	0.00e+00	24	33	0	546308096	46	6668
2026-01-05 21:15:06.25	33.59	18.34	-37.2	-38.1	23.3	0.00e+00	0	33	0	548405248	46	6526
2026-01-05 21:15:07.26	33.35	18.36	-37.1	-38.0	23.3	0.00e+00	38	34	0	549453824	46	6456
2026-01-05 21:15:08.26	33.12	18.38	-37.1	-38.0	23.3	0.00e+00	0	33	0	551550976	46	6464
2026-01-05 21:15:09.27	32.88	18.40	-37.2	-38.1	23.3	0.00e+00	92	33	0	553648128	46	6501
2026-01-05 21:15:10.28	32.65	18.42	-37.3	-38.2	23.3	0.00e+00	0	33	0	555745280	46	6570
2026-01-05 21:15:11.29	32.41	18.44	-37.5	-38.4	23.1	0.00e+00	0	34	0	557842432	46	6765
2026-01-05 21:15:12.30	32.17	18.46	-37.6	-38.6	22.9	0.00e+00	0	34	0	558891008	46	6877
2026-01-05 21:15:13.31	31.93	18.48	-38.0	-39.0	22.6	0.00e+00	0	33	0	560988160	48	6406
2026-01-05 21:15:14.32	31.70	18.50	-38.5	-39.6	21.9	0.00e+00	31	34	0	563085312	48	6918
2026-01-05 21:15:15.33	31.46	18.51	-38.8	-40.0	21.9	0.00e+00	0	34	0	565182464	50	6399
2026-01-05 21:15:16.34	31.22	18.53	-39.0	-40.1	21.6	0.00e+00	90	33	0	567279616	50	6531
2026-01-05 21:15:17.35	30.98	18.55	-39.1	-40.3	21.6	0.00e+00	0	33	0	568328192	50	6657
2026-01-05 21:15:18.36	30.74	18.56	-38.9	-40.1	21.7	0.00e+00	0	33	0	570425344	50	6483
2026-01-05 21:15:19.37	30.51	18.58	-38.8	-39.9	21.9	0.00e+00	0	33	0	572522496	50	6335
2026-01-05 21:15:20.38	30.27	18.59	-38.6	-39.7	22.1	0.00e+00	0	33	0	574619648	50	6183
2026-01-05 21:15:21.39	30.03	18.61	-38.1	-39.2	22.4	0.00e+00	48	33	0	576716800	50	5852
2026-01-05 21:15:22.40	29.79	18.62	-37.9	-39.0	22.5	0.00e+00	0	34	0	577765376	50	5700
2026-01-05 21:15:23.40	29.55	18.63	-38.0	-39.0	22.6	0.00e+00	92	33	0	579862528	50	5727
2026-01-05 21:15:24.41	29.31	18.65	-38.0	-39.0	22.6	0.00e+00	0	34	0	581959680	50	5737
2026-01-05 21:15:25.42	29.07	18.66	-37.9	-38.9	22.6	0.00e+00	0	34	0	584056832	50	5660
2026-01-05 21:15:26.43	28.83	18.67	-37.9	-38.8	22.7	0.00e+00	0	33	0	586153984	48	6309
2026-01-05 21:15:27.44	28.59	18.68	-37.8	-38.8	22.8	0.00e+00	0	34	0	587202560	48	6304
2026-01-05 21:15:28.45	28.35	18.69	-37.8	-38.8	22.7	0.00e+00	37	34	0	589299712	48	6284
2026-01-05 21:15:29.46	28.11	18.70	-37.8	-38.7	22.8	0.00e+00	0	34	0	591396864	48	6244
2026-01-05 21:15:30.47	27.87	18.71	-37.8	-38.8	22.6	0.00e+00	82	34	0	593494016	48	6253
2026-01-05 21:15:31.48	27.63	18.72	-37.9	-38.8	22.8	0.00e+00	0	34	0	595591168	48	6300
2026-01-05 21:15:32.49	27.38	18.73	-37.4	-38.3	23.1	0.00e+00	52	34	0	596639744	48	5920
2026-01-05 21:15:33.50	27.14	18.74	-37.4	-38.3	23.2	0.00e+00	0	34	0	598736896	48	5934
2026-01-05 21:15:34.51	26.90	18.74	-37.2	-38.1	23.2	0.00e+00	0	34	0	600834048	48	5821
2026-01-05 21:15:35.52	26.66	18.75	-37.2	-38.1	23.3	0.00e+00	0	34	0	602931200	48	5797
2026-01-05 21:15:36.53	26.42	18.76	-37.2	-38.1	23.2	0.00e+00	0	34	0	605028352	48	5824
2026-01-05 21:15:37.54	26.18	18.76	-37.2	-38.1	23.3	0.00e+00	59	34	0	606076928	48	5824
2026-01-05 21:15:38.55	25.93	18.77	-37.5	-38.4	23.0	0.00e+00	0	34	0	608174080	48	6010
2026-01-05 21:15:39.56	25.69	18.77	-37.6	-38.5	23.0	0.00e+00	0	34	0	610271232	48	6075
2026-01-05 21:15:40.57	25.45	18.78	-37.7	-38.6	22.9	0.00e+00	0	34	0	612368384	48	6147
2026-01-05 21:15:41.58	25.21	18.78	-37.7	-38.7	22.9	0.00e+00	0	34	0	614465536	48	6189
2026-01-05 21:15:42.58	24.97	18.78	-37.8	-38.8	22.8	0.00e+00	0	34	0	615514112	48	6261
2026-01-05 21:15:43.59	24.73	18.79	-37.9	-38.9	22.7	0.00e+00	0	33	0	617611264	48	6328
2026-01-05 21:15:44.60	24.48	18.79	-37.7	-38.7	22.8	0.00e+00	90	33	0	619708416	48	6184
2026-01-05 21:15:45.61	24.24	18.79	-37.7	-38.6	22.9	0.00e+00	0	33	0	621805568	48	6156
2026-01-05 21:15:46.62	24.00	18.79	-37.7	-38.6	23.0	0.00e+00	80	34	0	623902720	48	6156
2026-01-05 21:15:47.63	23.76	18.79	-37.7	-38.6	22.9	0.00e+00	0	34	0	624951296	48	6168
2026-01-05 21:15:48.64	23.52	18.79	-37.5	-38.4	23.0	0.00e+00	0	34	0	627048448	48	6000
2026-01-05 21:15:49.65	23.27	18.79	-37.5	-38.4	23.2	0.00e+00	0	33	0	629145600	48	6002
2026-01-05 21:15:50.66	23.03	18.79	-37.4	-38.3	23.1	0.00e+00	0	34	0	631242752	48	5930
2026-01-05 21:15:51.67	22.79	18.79	-37.5	-38.5	23.0	0.00e+00	90	34	0	633339904	48	6066
2026-01-05 21:15:52.68	22.55	18.79	-37.6	-38.5	23.0	0.00e+00	0	34	0	635437056	48	6089
2026-01-05 21:15:53.69	22.30	18.78	-38.0	-39.0	22.6	0.00e+00	91	34	0	636485632	48	6462
2026-01-05 21:15:54.70	22.06	18.78	-38.4	-39.5	22.1	0.00e+00	0	33	0	638582784	48	6783
2026-01-05 21:15:55.71	21.82	18.78	-38.7	-39.8	22.0	0.00e+00	0	33	0	640679936	48	7019
2026-01-05 21:15:56.72	21.58	18.77	-38.8	-40.0	21.8	0.00e+00	0	34	0	642777088	50	6409
2026-01-05 21:15:57.72	21.34	18.77	-38.8	-39.9	21.9	0.00e+00	0	33	0	644874240	50	6352
2026-01-05 21:15:58.73	21.10	18.76	-38.6	-39.6	22.0	0.00e+00	43	33	0	645922816	50	6164
2026-01-05 21:15:59.74	20.85	18.76	-38.3	-39.3	22.3	0.00e+00	0	33	0	648019968	50	5944
2026-01-05 21:16:00.75	20.61	18.75	-37.9	-38.9	22.7	0.00e+00	81	33	0	650117120	50	5685
2026-01-05 21:16:01.76	20.37	18.74	-37.5	-38.5	22.8	0.00e+00	0	33	0	652214272	48	6034
2026-01-05 21:16:02.77	20.13	18.74	-37.4	-38.3	22.6	0.00e+00	0	33	0	654311424	48	5938
2026-01-05 21:16:03.78	19.89	18.73	-37.1	-38.0	23.3	0.00e+00	0	34	0	655360000	48	5760
2026-01-05 21:16:04.78	19.65	18.72	-36.8	-37.7	23.5	0.00e+00	0	34	0	657457152	46	6219
2026-01-05 21:16:05.79	19.41	18.71	-36.7	-37.5	23.7	0.00e+00	42	33	0	659554304	46	6096
2026-01-05 21:16:06.80	19.17	18.70	-36.8	-37.7	23.5	0.00e+00	0	33	0	661651456	46	6224
2026-01-05 21:16:07.81	18.93	18.69	-36.6	-37.5	23.6	0.00e+00	92	33	0	663748608	46	6051
2026-01-05 21:16:08.82	18.69	18.68	-36.8	-37.7	23.6	0.00e+00	0	33	0	664797184	46	6207
2026-01-05 21:16:09.84	18.44	18.67	-36.7	-37.6	23.7	0.00e+00	90	33	0	666894336	46	6137
2026-01-05 21:16:10.85	18.20	18.66	-36.6	-37.4	23.9	0.00e+00	0	34	0	668991488	46	6012
2026-01-05 21:16:11.86	17.96	18.65	-36.5	-37.3	23.9	0.00e+00	0	34	0	671088640	46	5944
2026-01-05 21:16:12.86	17.73	18.63	-36.6	-37.5	23.8	0.00e+00	16	34	0	673185792	46	6039
2026-01-05 21:16:13.88	17.48	18.62	-36.7	-37.5	23.8	0.00e+00	0	34	0	674234368	46	6092
2026-01-05 21:16:14.89	17.25	18.61	-36.8	-37.7	23.6	0.00e+00	92	34	0	676331520	46	6202
2026-01-05 21:16:15.90	17.01	18.59	-36.9	-37.8	23.6	0.00e+00	0	34	0	678428672	46	6283
2026-01-05 21:16:16.91	16.77	18.58	-36.9	-37.8	23.6	0.00e+00	14	33	0	680525824	46	6274
2026-01-05 21:16:17.92	16.53	18.56	-36.5	-37.3	23.9	0.00e+00	0	33	0	682622976	46	5951
2026-01-05 21:16:18.92	16.29	18.55	-36.2	-37.0	24.1	0.00e+00	0	33	0	683671552	46	5731
2026-01-05 21:16:19.93	16.05	18.53	-36.0	-36.9	24.3	0.00e+00	33	33	0	685768704	46	5648
2026-01-05 21:16:20.94	15.82	18.51	-35.8	-36.6	24.4	0.00e+00	0	33	0	687865856	46	5482
2026-01-05 21:16:21.95	15.58	18.50	-36.0	-36.8	24.2	0.00e+00	90	33	0	689963008	46	5624
2026-01-05 21:16:22.96	15.34	18.48	-35.9	-36.7	24.5	0.00e+00	0	33	0	692060160	46	5530
2026-01-05 21:16:23.97	15.10	18.46	-35.8	-36.6	24.4	0.00e+00	44	33	0	693108736	44	6136
2026-01-05 21:16:24.98	14.87	18.44	-36.0	-36.8	24.2	0.00e+00	0	34	0	695205888	44	6285
2026-01-05 21:16:25.99	14.63	18.42	-36.2	-37.0	24.2	0.00e+00	0	33	0	697303040	44	6420
2026-01-05 21:16:26.99	14.40	18.40	-36.1	-37.0	24.0	0.00e+00	7	34	0	699400192	44	6415
2026-01-05 21:16:28.00	14.16	18.38	-36.0	-36.8	24.3	0.00e+00	0	34	0	701497344	44	6304
2026-01-05 21:16:29.02	13.92	18.36	-36.3	-37.2	24.1	0.00e+00	6	33	0	703594496	44	6553
2026-01-05 21:16:30.02	13.69	18.34	-36.1	-37.0	24.1	0.00e+00	0	34	0	704643072	44	6399
2026-01-05 21:16:31.03	13.46	18.32	-36.2	-37.0	24.1	0.00e+00	16	33	0	706740224	44	6436
2026-01-05 21:16:32.04	13.22	18.30	-36.4	-37.2	24.0	0.00e+00	0	33	0	708837376	44	6592
2026-01-05 21:16:33.05	12.99	18.28	-36.6	-37.5	23.8	0.00e+00	0	33	0	710934528	44	6798
2026-01-05 21:16:34.06	12.75	18.25	-36.4	-37.3	23.8	0.00e+00	0	33	0	713031680	44	6624
2026-01-05 21:16:35.07	12.52	18.23	-36.6	-37.4	23.5	0.00e+00	0	33	0	714080256	44	6761
2026-01-05 21:16:36.08	12.29	18.21	-36.6	-37.5	23.7	0.00e+00	74	33	0	716177408	44	6826
2026-01-05 21:16:37.09	12.05	18.18	-36.6	-37.4	23.9	0.00e+00	0	33	0	718274560	46	6022
2026-01-05 21:16:38.10	11.82	18.16	-36.9	-37.8	23.6	0.00e+00	54	33	0	720371712	46	6249
2026-01-05 21:16:39.11	11.59	18.13	-36.7	-37.6	23.7	0.00e+00	0	34	0	722468864	46	6162
2026-01-05 21:16:40.12	11.36	18.10	-36.8	-37.7	23.7	0.00e+00	33	33	0	723517440	46	6227
2026-01-05 21:16:41.13	11.13	18.08	-36.8	-37.7	23.6	0.00e+00	0	34	0	725614592	46	6223
2026-01-05 21:16:42.14	10.90	18.05	-37.1	-38.0	23.2	0.00e+00	30	34	0	727711744	46	6461
2026-01-05 21:16:43.15	10.67	18.02	-37.6	-38.5	23.1	0.00e+00	89	33	0	729808896	46	6830
2026-01-05 21:16:44.15	10.44	18.00	-37.7	-38.7	22.9	0.00e+00	0	33	0	731906048	46	6968
2026-01-05 21:16:45.16	10.21	17.97	-38.2	-39.2	22.4	0.00e+00	38	34	0	732954624	48	6596
2026-01-05 21:16:46.17	9.98	17.94	-38.3	-39.4	22.3	0.00e+00	29	33	0	735051776	48	6713
2026-01-05 21:16:47.18	9.75	17.91	-38.1	-39.2	22.4	0.00e+00	92	33	0	737148928	48	6540
2026-01-05 21:16:48.19	9.52	17.88	-37.9	-38.9	22.8	0.00e+00	0	33	0	739246080	48	6337
2026-01-05 21:16:49.20	9.30	17.85	-38.2	-39.2	22.4	0.00e+00	0	34	0	741343232	48	6563
2026-01-05 21:16:50.21	9.07	17.82	-38.0	-39.0	22.6	0.00e+00	40	34	0	742391808	48	6392
2026-01-05 21:16:51.22	8.84	17.79	-38.0	-39.0	22.6	0.00e+00	0	33	0	744488960	48	6461
2026-01-05 21:16:52.23	8.61	17.76	-38.1	-39.2	22.5	0.00e+00	74	34	0	746586112	48	6560
2026-01-05 21:16:53.24	8.39	17.73	-38.1	-39.1	22.5	0.00e+00	0	33	0	748683264	48	6510
2026-01-05 21:16:54.25	8.16	17.70	-38.1	-39.1	22.6	0.00e+00	47	33	0	750780416	48	6467
2026-01-05 21:16:55.26	7.94	17.66	-37.8	-38.7	22.8	0.00e+00	0	34	0	751828992	48	6244
2026-01-05 21:16:56.27	7.71	17.63	-37.9	-38.9	22.7	0.00e+00	0	34	0	753926144	48	6372
2026-01-05 21:16:57.28	7.49	17.60	-38.1	-39.1	22.6	0.00e+00	0	33	0	756023296	48	6504
2026-01-05 21:16:58.28	7.27	17.57	-38.3	-39.4	22.3	0.00e+00	0	33	0	758120448	48	6740
2026-01-05 21:16:59.29	7.05	17.53	-38.5	-39.6	22.1	0.00e+00	58	34	0	760217600	48	6878
2026-01-05 21:17:00.30	6.82	17.50	-38.6	-39.7	22.1	0.00e+00	0	33	0	761266176	48	6930
2026-01-05 21:17:01.31	6.60	17.46	-38.2	-39.2	22.5	0.00e+00	92	33	0	763363328	48	6586
2026-01-05 21:17:02.32	6.38	17.43	-38.1	-39.1	22.5	0.00e+00	0	34	0	765460480	48	6524
2026-01-05 21:17:03.33	6.16	17.39	-38.0	-39.0	22.7	0.00e+00	0	33	0	767557632	48	6436
2026-01-05 21:17:04.34	5.94	17.36	-37.8	-38.8	22.8	0.00e+00	0	34	0	769654784	48	6295
2026-01-05 21:17:05.34	5.72	17.32	-37.8	-38.7	22.8	0.00e+00	0	33	0	771751936	48	6232
2026-01-05 21:17:06.35	5.50	17.28	-37.8	-38.8	22.8	0.00e+00	48	33	0	772800512	48	6255
2026-01-05 21:17:07.36	5.28	17.25	-37.7	-38.7	22.9	0.00e+00	0	33	0	774897664	48	6181
2026-01-05 21:17:08.37	5.07	17.21	-37.9	-38.9	22.7	0.00e+00	92	34	0	776994816	48	6319
2026-01-05 21:17:09.38	4.85	17.17	-37.8	-38.8	22.8	0.00e+00	0	33	0	779091968	48	6279
2026-01-05 21:17:10.39	4.63	17.13	-37.8	-38.7	22.9	0.00e+00	0	33	0	781189120	48	6220
2026-01-05 21:17:11.40	4.42	17.09	-37.5	-38.5	23.1	0.00e+00	0	33	0	782237696	48	6062
2026-01-05 21:17:12.41	4.20	17.06	-37.7	-38.6	23.0	0.00e+00	0	33	0	784334848	48	6149
2026-01-05 21:17:13.42	3.98	17.02	-37.7	-38.6	22.9	0.00e+00	33	34	0	786432000	48	6155
2026-01-05 21:17:14.43	3.77	16.98	-37.5	-38.5	23.2	0.00e+00	0	34	0	788529152	48	6051
2026-01-05 21:17:15.44	3.56	16.94	-37.1	-38.0	23.4	0.00e+00	92	33	0	790626304	48	5755
2026-01-05 21:17:16.45	3.34	16.90	-36.9	-37.8	23.6	0.00e+00	0	33	0	791674880	48	5605
2026-01-05 21:17:17.46	3.13	16.86	-36.8	-37.7	23.7	0.00e+00	0	34	0	793772032	48	5520
2026-01-05 21:17:18.46	2.92	16.82	-36.8	-37.7	23.8	0.00e+00	0	33	0	795869184	48	5523
2026-01-05 21:17:19.47	2.71	16.77	-36.7	-37.5	23.8	0.00e+00	0	33	0	797966336	46	6103
2026-01-05 21:17:20.48	2.50	16.73	-36.7	-37.5	23.7	0.00e+00	9	34	0	800063488	46	6099
2026-01-05 21:17:21.49	2.28	16.69	-36.7	-37.5	23.7	0.00e+00	0	33	0	801112064	46	6096
2026-01-05 21:17:22.50	2.07	16.65	-36.7	-37.6	23.6	0.00e+00	67	34	0	803209216	46	6150
2026-01-05 21:17:23.51	1.86	16.61	-36.8	-37.7	23.6	0.00e+00	0	34	0	805306368	46	6184
2026-01-05 21:17:24.52	1.66	16.56	-36.9	-37.8	23.5	0.00e+00	36	33	0	807403520	46	6287
2026-01-05 21:17:25.53	1.45	16.52	-37.2	-38.2	23.0	0.00e+00	0	34	0	809500672	46	6558
2026-01-05 21:17:26.54	1.24	16.48	-37.7	-38.7	22.8	0.00e+00	0	33	0	810549248	46	6961
2026-01-05 21:17:27.55	1.03	16.43	-38.5	-39.6	22.2	0.00e+00	9	33	0	812646400	48	6899
2026-01-05 21:17:28.56	0.83	16.39	-38.9	-40.0	21.8	0.00e+00	0	34	0	814743552	50	6432
2026-01-05 21:17:29.57	0.62	16.34	-39.0	-40.1	21.7	0.00e+00	31	33	0	816840704	50	6509
2026-01-05 21:17:30.58	0.42	16.30	-38.9	-40.0	21.9	0.00e+00	0	33	0	818937856	50	6411
2026-01-05 21:17:31.59	0.21	16.25	-38.6	-39.7	22.0	0.00e+00	54	33	0	819986432	50	6236
2026-01-05 21:17:32.60	0.01	16.21	-38.5	-39.6	22.2	0.00e+00	0	34	0	822083584	50	6158
2026-01-05 21:17:33.61	359.80	16.16	-38.3	-39.3	22.3	0.00e+00	0	34	0	824180736	50	5936
2026-01-05 21:17:34.62	359.60	16.12	-38.2	-39.2	22.3	0.00e+00	0	34	0	826277888	50	5886
2026-01-05 21:17:35.63	359.40	16.07	-38.5	-39.6	22.0	0.00e+00	0	34	0	828375040	50	6136
2026-01-05 21:17:36.64	359.20	16.02	-38.6	-39.6	22.1	0.00e+00	56	34	0	829423616	50	6169
2026-01-05 21:17:37.65	359.00	15.98	-38.6	-39.6	22.0	0.00e+00	0	34	0	831520768	50	6163
2026-01-05 21:17:38.66	358.80	15.93	-38.8	-39.8	21.9	0.00e+00	42	34	0	833617920	50	6316
2026-01-05 21:17:39.66	358.60	15.88	-38.9	-40.0	21.7	0.00e+00	0	34	0	835715072	50	6446
2026-01-05 21:17:40.68	358.40	15.84	-39.1	-40.2	21.7	0.00e+00	0	34	0	837812224	50	6575
2026-01-05 21:17:41.68	358.20	15.79	-39.1	-40.3	21.7	0.00e+00	0	34	0	838860800	50	6638
2026-01-05 21:17:42.69	358.00	15.74	-39.1	-40.2	21.7	0.00e+00	0	34	0	840957952	50	6559
2026-01-05 21:17:43.70	357.81	15.69	-38.1	-39.1	22.5	0.00e+00	44	34	0	843055104	50	5813
2026-01-05 21:17:44.71	357.61	15.64	-37.8	-38.7	22.8	0.00e+00	0	34	0	845152256	50	5548
2026-01-05 21:17:45.72	357.42	15.60	-37.7	-38.6	22.9	0.00e+00	65	34	0	847249408	48	6150
2026-01-05 21:17:46.72	357.22	15.55	-37.5	-38.5	23.1	0.00e+00	0	34	0	848297984	48	6065
2026-01-05 21:17:47.74	357.03	15.50	-37.5	-38.4	23.1	0.00e+00	15	34	0	850395136	48	5994
2026-01-05 21:17:48.74	356.83	15.45	-37.3	-38.3	23.2	0.00e+00	0	34	0	852492288	48	5899
2026-01-05 21:17:49.75	356.64	15.40	-37.4	-38.3	23.1	0.00e+00	0	34	0	854589440	48	5924
2026-01-05 21:17:50.77	356.45	15.35	-37.3	-38.2	23.2	0.00e+00	30	34	0	856686592	48	5882
2026-01-05 21:17:51.77	356.26	15.30	-37.4	-38.4	23.0	0.00e+00	0	34	0	857735168	48	5966
2026-01-05 21:17:52.78	356.07	15.25	-37.3	-38.2	23.2	0.00e+00	33	34	0	859832320	48	5851
2026-01-05 21:17:53.79	355.88	15.20	-37.5	-38.4	23.0	0.00e+00	0	34	0	861929472	48	6008
2026-01-05 21:17:54.80	355.69	15.15	-37.6	-38.5	23.0	0.00e+00	0	33	0	864026624	48	6097
2026-01-05 21:17:55.82	355.49	15.10	-38.0	-39.0	22.5	0.00e+00	0	34	0	866123776	48	6447
2026-01-05 21:17:56.83	355.31	15.05	-38.3	-39.4	22.6	0.00e+00	0	33	0	868220928	48	6723
2026-01-05 21:17:57.84	355.12	14.99	-38.1	-39.1	22.4	0.00e+00	41	34	0	869269504	48	6538
2026-01-05 21:17:58.84	354.93	14.94	-38.0	-39.0	22.6	0.00e+00	0	34	0	871366656	48	6457
2026-01-05 21:17:59.85	354.75	14.89	-37.6	-38.6	22.9	0.00e+00	37	34	0	873463808	48	6107
2026-01-05 21:18:00.86	354.56	14.84	-37.4	-38.4	23.1	0.00e+00	0	33	0	875560960	48	5967
2026-01-05 21:18:01.87	354.38	14.79	-37.2	-38.1	23.3	0.00e+00	57	34	0	877658112	48	5819
2026-01-05 21:18:02.88	354.19	14.73	-37.5	-38.4	23.0	0.00e+00	0	34	0	878706688	48	6021
2026-01-05 21:18:03.89	354.01	14.68	-37.3	-38.2	23.2	0.00e+00	0	34	0	880803840	48	5850
2026-01-05 21:18:04.90	353.82	14.63	-37.5	-38.4	23.0	0.00e+00	0	33	0	882900992	48	5997
2026-01-05 21:18:05.91	353.64	14.58	-37.8	-38.7	22.8	0.00e+00	0	34	0	884998144	48	6212
2026-01-05 21:18:06.92	353.46	14.52	-38.0	-39.0	22.4	0.00e+00	68	34	0	887095296	48	6415
2026-01-05 21:18:07.93	353.28	14.47	-38.5	-39.6	22.0	0.00e+00	0	34	0	888143872	48	6864
2026-01-05 21:18:08.93	353.10	14.42	-39.2	-40.3	21.4	0.00e+00	92	34	0	890241024	50	6641
2026-01-05 21:18:09.94	352.92	14.36	-39.7	-40.9	20.8	0.00e+00	0	34	0	892338176	50	7169
2026-01-05 21:18:10.95	352.74	14.31	-40.1	-41.4	20.5	0.00e+00	0	34	0	894435328	52	6698
2026-01-05 21:18:11.96	352.56	14.26	-40.3	-41.7	20.3	0.00e+00	0	34	0	896532480	52	6950
2026-01-05 21:18:12.97	352.38	14.20	-40.7	-42.1	20.2	0.00e+00	0	34	0	897581056	52	7307
2026-01-05 21:18:13.98	352.21	14.15	-40.3	-41.6	20.4	0.00e+00	38	34	0	899678208	54	6144
2026-01-05 21:18:14.99	352.03	14.09	-39.9	-41.2	20.7	0.00e+00	0	34	0	901775360	54	5891
2026-01-05 21:18:16.00	351.85	14.04	-40.0	-41.3	20.7	0.00e+00	92	33	0	903872512	54	5928
2026-01-05 21:18:17.01	351.68	13.98	-39.8	-41.1	20.8	0.00e+00	0	34	0	905969664	54	5801
2026-01-05 21:18:18.02	351.50	13.93	-39.6	-40.8	21.0	0.00e+00	0	34	0	907018240	52	6271
2026-01-05 21:18:19.03	351.33	13.87	-39.7	-40.9	21.0	0.00e+00	0	34	0	909115392	52	6342
2026-01-05 21:18:20.04	351.16	13.82	-39.6	-40.9	21.0	0.00e+00	0	33	0	911212544	52	6336
2026-01-05 21:18:21.05	350.98	13.76	-39.3	-40.5	21.3	0.00e+00	84	34	0	913309696	52	6082
2026-01-05 21:18:22.06	350.81	13.71	-39.2	-40.4	21.4	0.00e+00	0	33	0	915406848	52	5991
2026-01-05 21:18:23.07	350.64	13.65	-39.1	-40.2	21.6	0.00e+00	90	34	0	916455424	52	5880
2026-01-05 21:18:24.08	350.47	13.60	-38.8	-39.8	21.8	0.00e+00	0	34	0	918552576	50	6310
2026-01-05 21:18:25.09	350.30	13.54	-38.9	-39.9	21.8	0.00e+00	3	34	0	920649728	50	6388
2026-01-05 21:18:26.10	350.13	13.49	-38.7	-39.8	21.9	0.00e+00	0	34	0	922746880	50	6285
2026-01-05 21:18:27.11	349.96	13.43	-38.8	-39.9	21.8	0.00e+00	0	34	0	924844032	50	6387
2026-01-05 21:18:28.11	349.80	13.37	-39.0	-40.1	21.5	0.00e+00	5	34	0	925892608	50	6535
2026-01-05 21:18:29.13	349.63	13.32	-39.3	-40.5	21.3	0.00e+00	0	34	0	927989760	50	6824
2026-01-05 21:18:30.14	349.46	13.26	-39.3	-40.5	21.2	0.00e+00	92	34	0	930086912	50	6812
2026-01-05 21:18:31.15	349.29	13.21	-39.3	-40.5	21.3	0.00e+00	0	33	0	932184064	50	6802
2026-01-05 21:18:32.15	349.13	13.15	-39.1	-40.2	21.4	0.00e+00	22	34	0	934281216	50	6614
2026-01-05 21:18:33.16	348.96	13.09	-39.0	-40.2	21.7	0.00e+00	30	34	0	936378368	50	6543
2026-01-05 21:18:34.17	348.80	13.04	-38.6	-39.7	22.1	0.00e+00	0	34	0	937426944	50	6213
2026-01-05 21:18:35.18	348.64	12.98	-38.4	-39.5	22.2	0.00e+00	33	34	0	939524096	50	6038
2026-01-05 21:18:36.19	348.47	12.92	-38.3	-39.3	22.2	0.00e+00	0	34	0	941621248	50	5940
2026-01-05 21:18:37.20	348.31	12.86	-38.1	-39.1	22.5	0.00e+00	88	34	0	943718400	50	5793
2026-01-05 21:18:38.21	348.15	12.81	-38.0	-39.0	22.5	0.00e+00	0	34	0	945815552	50	5707
2026-01-05 21:18:39.22	347.99	12.75	-37.9	-38.9	22.6	0.00e+00	90	34	0	946864128	50	5656
2026-01-05 21:18:40.23	347.83	12.69	-37.9	-38.9	22.5	0.00e+00	0	34	0	948961280	50	5684
2026-01-05 21:18:41.24	347.67	12.64	-38.1	-39.1	22.4	0.00e+00	0	34	0	951058432	50	5788
2026-01-05 21:18:42.25	347.51	12.58	-38.1	-39.1	22.4	0.00e+00	0	34	0	953155584	50	5798
2026-01-05 21:18:43.26	347.35	12.52	-38.3	-39.4	22.2	0.00e+00	0	34	0	955252736	50	5987
2026-01-05 21:18:44.27	347.19	12.46	-38.3	-39.3	22.2	0.00e+00	92	34	0	956301312	50	5958
2026-01-05 21:18:45.28	347.04	12.41	-38.6	-39.7	21.7	0.00e+00	0	34	0	958398464	50	6191
2026-01-05 21:18:46.29	346.88	12.35	-38.6	-39.6	22.0	0.00e+00	92	34	0	960495616	50	6167
2026-01-05 21:18:47.30	346.72	12.29	-38.5	-39.6	22.0	0.00e+00	0	34	0	962592768	50	6128
2026-01-05 21:18:48.31	346.57	12.23	-38.6	-39.7	22.0	0.00e+00	0	34	0	964689920	50	6215
2026-01-05 21:18:49.32	346.41	12.17	-38.5	-39.6	21.9	0.00e+00	0	34	0	965738496	50	6163
2026-01-05 21:18:50.33	346.26	12.12	-38.4	-39.5	22.1	0.00e+00	0	34	0	967835648	50	6076
2026-01-05 21:18:51.34	346.11	12.06	-38.3	-39.4	22.2	0.00e+00	38	34	0	969932800	50	5970
2026-01-05 21:18:52.35	345.95	12.00	-38.4	-39.4	22.1	0.00e+00	0	34	0	972029952	50	6028
2026-01-05 21:18:53.36	345.80	11.94	-38.0	-39.0	22.4	0.00e+00	91	34	0	974127104	50	5746
2026-01-05 21:18:54.37	345.65	11.88	-38.1	-39.2	22.3	0.00e+00	0	34	0	975175680	50	5854
2026-01-05 21:18:55.37	345.50	11.82	-38.1	-39.2	22.1	0.00e+00	0	34	0	977272832	50	5842
2026-01-05 21:18:56.38	345.35	11.77	-37.9	-38.9	22.4	0.00e+00	0	34	0	979369984	50	5673
2026-01-05 21:18:57.39	345.20	11.71	-37.8	-38.8	22.6	0.00e+00	0	34	0	981467136	48	6284
2026-01-05 21:18:58.40	345.05	11.65	-37.4	-38.3	23.0	0.00e+00	30	34	0	983564288	48	5957
2026-01-05 21:18:59.41	344.90	11.59	-37.2	-38.1	23.1	0.00e+00	0	34	0	984612864	48	5807
2026-01-05 21:19:00.42	344.75	11.53	-37.2	-38.1	23.3	0.00e+00	89	34	0	986710016	48	5824
2026-01-05 21:19:01.43	344.61	11.47	-36.8	-37.7	23.4	0.00e+00	0	34	0	988807168	48	5560
2026-01-05 21:19:02.44	344.46	11.41	-36.7	-37.5	23.6	0.00e+00	0	34	0	990904320	46	6102
2026-01-05 21:19:03.45	344.31	11.36	-36.5	-37.4	23.7	0.00e+00	0	34	0	993001472	46	5968
2026-01-05 21:19:04.46	344.17	11.30	-36.8	-37.7	23.5	0.00e+00	0	34	0	994050048	46	6216
2026-01-05 21:19:05.46	344.02	11.24	-37.0	-37.9	23.5	0.00e+00	31	33	0	996147200	46	6332
2026-01-05 21:19:06.47	343.88	11.18	-37.0	-38.0	23.3	0.00e+00	0	34	0	998244352	46	6391
2026-01-05 21:19:07.48	343.74	11.12	-37.0	-37.9	23.3	0.00e+00	26	34	0	1000341504	46	6374
2026-01-05 21:19:08.49	343.59	11.06	-37.1	-38.0	23.3	0.00e+00	31	34	0	1002438656	46	6459
2026-01-05 21:19:09.50	343.45	11.00	-37.3	-38.3	23.1	0.00e+00	0	34	0	1004535808	46	6626
2026-01-05 21:19:10.51	343.31	10.94	-37.7	-38.7	22.7	0.00e+00	0	34	0	1005584384	46	6933
2026-01-05 21:19:11.52	343.17	10.88	-37.7	-38.7	22.6	0.00e+00	0	34	0	1007681536	48	6202
2026-01-05 21:19:12.53	343.03	10.83	-37.6	-38.6	22.8	0.00e+00	0	34	0	1009778688	48	6166
2026-01-05 21:19:13.54	342.89	10.77	-37.6	-38.6	22.8	0.00e+00	0	34	0	1011875840	48	6129
2026-01-05 21:19:14.55	342.75	10.71	-37.6	-38.6	22.8	0.00e+00	92	34	0	1013972992	48	6119
2026-01-05 21:19:15.56	342.61	10.65	-37.7	-38.7	22.8	0.00e+00	0	34	0	1015021568	48	6179
2026-01-05 21:19:16.56	342.47	10.59	-37.4	-38.3	23.0	0.00e+00	92	33	0	1017118720	48	5925
2026-01-05 21:19:17.57	342.33	10.53	-37.2	-38.2	23.1	0.00e+00	0	34	0	1019215872	48	5852
2026-01-05 21:19:18.58	342.19	10.47	-37.0	-37.9	23.3	0.00e+00	0	34	0	1021313024	48	5695
2026-01-05 21:19:19.59	342.06	10.41	-37.2	-38.2	23.0	0.00e+00	0	33	0	1023410176	48	5832
2026-01-05 21:19:20.60	341.92	10.35	-37.1	-38.1	23.2	0.00e+00	0	34	0	1024458752	48	5768
2026-01-05 21:19:21.61	341.79	10.29	-37.1	-38.0	23.2	0.00e+00	31	34	0	1026555904	48	5736
2026-01-05 21:19:22.62	341.65	10.23	-37.3	-38.3	23.0	0.00e+00	0	34	0	1028653056	48	5907
2026-01-05 21:19:23.63	341.52	10.17	-37.3	-38.2	23.0	0.00e+00	64	34	0	1030750208	48	5857
2026-01-05 21:19:24.64	341.38	10.12	-37.2	-38.1	23.1	0.00e+00	0	34	0	1032847360	48	5811
2026-01-05 21:19:25.65	341.25	10.06	-37.4	-38.3	22.9	0.00e+00	0	34	0	1033895936	48	5952
2026-01-05 21:19:26.66	341.12	10.00	-37.6	-38.6	22.7	0.00e+00	0	34	0	1035993088	48	6120
2026-01-05 21:19:27.67	340.98	9.94	-37.7	-38.7	22.6	0.00e+00	0	33	0	1038090240	48	6214
2026-01-05 21:19:28.67	340.85	9.88	-37.8	-38.8	22.5	0.00e+00	32	34	0	1040187392	48	6275
2026-01-05 21:19:29.68	340.72	9.82	-37.9	-38.9	22.4	0.00e+00	0	33	0	1042284544	48	6378
2026-01-05 21:19:30.69	340.59	9.76	-38.0	-39.0	22.4	0.00e+00	92	34	0	1043333120	48	6435
2026-01-05 21:19:31.70	340.46	9.70	-38.2	-39.3	22.1	0.00e+00	0	34	0	1045430272	48	6629
2026-01-05 21:19:32.71	340.33	9.64	-38.2	-39.3	22.1	0.00e+00	0	33	0	1047527424	48	6637
2026-01-05 21:19:33.72	340.20	9.58	-38.3	-39.3	22.1	0.00e+00	0	34	0	1049624576	48	6667
2026-01-05 21:19:34.73	340.07	9.52	-38.3	-39.3	22.1	0.00e+00	0	34	0	1051721728	48	6689
2026-01-05 21:19:35.73	339.95	9.46	-38.3	-39.3	22.2	0.00e+00	32	33	0	1052770304	48	6679
2026-01-05 21:19:36.75	339.82	9.40	-38.2	-39.3	22.1	0.00e+00	0	33	0	1054867456	48	6652
2026-01-05 21:19:37.75	339.69	9.34	-38.0	-39.0	22.3	0.00e+00	63	34	0	1056964608	48	6435
2026-01-05 21:19:38.76	339.57	9.29	-38.1	-39.2	22.2	0.00e+00	0	34	0	1059061760	48	6555
2026-01-05 21:19:39.77	339.44	9.23	-38.0	-39.0	22.3	0.00e+00	90	34	0	1061158912	48	6422
2026-01-05 21:19:40.78	339.31	9.17	-37.4	-38.4	22.4	0.00e+00	0	34	0	1062207488	48	5984
2026-01-05 21:19:41.79	339.19	9.11	-37.5	-38.5	22.5	0.00e+00	0	34	0	1064304640	48	6059
2026-01-05 21:19:42.80	339.07	9.05	-37.9	-38.9	22.4	0.00e+00	0	34	0	1066401792	48	6386
2026-01-05 21:19:43.81	338.94	8.99	-37.3	-38.3	22.9	0.00e+00	0	34	0	1068498944	48	5923
2026-01-05 21:19:44.82	338.82	8.93	-37.3	-38.3	22.9	0.00e+00	90	34	0	1070596096	48	5903
2026-01-05 21:19:45.83	338.70	8.87	-37.5	-38.5	22.5	0.00e+00	0	33	0	1071644672	48	6072
2026-01-05 21:19:46.84	338.57	8.81	-37.8	-38.8	22.0	0.00e+00	29	34	0	1073741824	48	6277
2026-01-05 21:19:47.85	338.45	8.75	-38.1	-39.2	21.7	0.00e+00	0	34	0	1075838976	48	6558
2026-01-05 21:19:48.85	338.33	8.69	-38.1	-39.1	22.1	0.00e+00	0	34	0	1077936128	48	6492
2026-01-05 21:19:49.86	338.21	8.63	-38.8	-39.9	21.6	0.00e+00	0	34	0	1080033280	48	7119
2026-01-05 21:19:50.87	338.09	8.57	-39.2	-40.4	21.1	0.00e+00	0	34	0	1081081856	50	6702
2026-01-05 21:19:51.88	337.97	8.51	-38.9	-40.1	21.4	0.00e+00	37	34	0	1083179008	50	6486
2026-01-05 21:19:52.89	337.85	8.46	-39.2	-40.4	21.2	0.00e+00	0	34	0	1085276160	50	6734
2026-01-05 21:19:53.90	337.73	8.40	-39.0	-40.2	21.4	0.00e+00	92	34	0	1087373312	50	6544
2026-01-05 21:19:54.91	337.61	8.34	-39.2	-40.3	21.1	0.00e+00	0	34	0	1089470464	50	6675
2026-01-05 21:19:55.92	337.50	8.28	-38.8	-40.0	21.5	0.00e+00	0	34	0	1090519040	50	6392
2026-01-05 21:19:56.93	337.38	8.22	-39.1	-40.3	21.3	0.00e+00	0	34	0	1092616192	50	6651
2026-01-05 21:19:57.94	337.26	8.16	-39.0	-40.2	21.4	0.00e+00	0	34	0	1094713344	50	6576
2026-01-05 21:19:58.95	337.15	8.10	-38.6	-39.7	21.8	0.00e+00	78	34	0	1096810496	50	6224
2026-01-05 21:19:59.96	337.03	8.04	-38.4	-39.5	21.9	0.00e+00	0	34	0	1098907648	50	6085
2026-01-05 21:20:00.97	336.92	7.98	-38.1	-39.1	22.2	0.00e+00	92	34	0	1101004800	50	5791
2026-01-05 21:20:01.98	336.80	7.92	-38.1	-39.1	22.1	0.00e+00	0	34	0	1102053376	50	5814
2026-01-05 21:20:02.99	336.69	7.87	-38.1	-39.2	22.1	0.00e+00	0	34	0	1104150528	50	5847
2026-01-05 21:20:04.00	336.57	7.81	-38.4	-39.4	21.8	0.00e+00	0	34	0	1106247680	50	6030
2026-01-05 21:20:05.01	336.46	7.75	-38.3	-39.4	22.0	0.00e+00	0	34	0	1108344832	50	5966
2026-01-05 21:20:06.02	336.35	7.69	-38.2	-39.3	22.0	0.00e+00	1	34	0	1110441984	50	5918
2026-01-05 21:20:07.03	336.23	7.63	-38.3	-39.4	21.8	0.00e+00	0	34	0	1111490560	50	6023
2026-01-05 21:20:08.03	336.12	7.57	-38.3	-39.3	21.9	0.00e+00	38	34	0	1113587712	50	5955
2026-01-05 21:20:09.04	336.01	7.51	-38.7	-39.8	21.4	0.00e+00	0	34	0	1115684864	50	6291
2026-01-05 21:20:10.05	335.90	7.45	-38.9	-40.0	21.3	0.00e+00	0	34	0	1117782016	50	6425
2026-01-05 21:20:11.06	335.79	7.40	-38.7	-39.9	21.5	0.00e+00	0	34	0	1119879168	50	6321
2026-01-05 21:20:12.07	335.68	7.34	-39.0	-40.1	21.2	0.00e+00	0	34	0	1120927744	50	6511
2026-01-05 21:20:13.08	335.57	7.28	-38.9	-40.1	21.3	0.00e+00	2	34	0	1123024896	50	6487
2026-01-05 21:20:14.09	335.46	7.22	-38.9	-40.1	21.2	0.00e+00	0	34	0	1125122048	50	6523
2026-01-05 21:20:15.10	335.35	7.16	-39.2	-40.4	21.0	0.00e+00	92	34	0	1127219200	50	6704
2026-01-05 21:20:16.11	335.24	7.10	-39.4	-40.7	20.7	0.00e+00	0	34	0	1129316352	50	6978
2026-01-05 21:20:17.12	335.13	7.04	-39.4	-40.6	20.8	0.00e+00	42	34	0	1130364928	50	6891
2026-01-05 21:20:18.13	335.03	6.99	-39.3	-40.6	20.8	0.00e+00	0	34	0	1132462080	50	6866
2026-01-05 21:20:19.14	334.92	6.93	-39.3	-40.6	20.8	0.00e+00	0	34	0	1134559232	50	6867
2026-01-05 21:20:20.15	334.81	6.87	-39.1	-40.3	21.0	0.00e+00	33	34	0	1136656384	50	6636
2026-01-05 21:20:21.16	334.71	6.81	-39.2	-40.5	20.8	0.00e+00	0	34	0	1138753536	50	6775
2026-01-05 21:20:22.17	334.60	6.75	-39.2	-40.5	20.8	0.00e+00	17	34	0	1139802112	50	6785
2026-01-05 21:20:23.18	334.50	6.69	-39.1	-40.3	21.0	0.00e+00	0	34	0	1141899264	50	6646
2026-01-05 21:20:24.18	334.39	6.64	-38.8	-39.9	21.3	0.00e+00	87	34	0	1143996416	50	6380
2026-01-05 21:20:25.19	334.29	6.58	-38.9	-40.1	21.1	0.00e+00	0	34	0	1146093568	50	6518
2026-01-05 21:20:26.20	334.18	6.52	-38.8	-39.9	21.2	0.00e+00	0	34	0	1148190720	50	6381
2026-01-05 21:20:27.21	334.08	6.46	-39.0	-40.2	21.0	0.00e+00	0	34	0	1149239296	50	6573
2026-01-05 21:20:28.22	333.98	6.40	-39.1	-40.3	20.8	0.00e+00	0	34	0	1151336448	50	6678
2026-01-05 21:20:29.23	333.88	6.35	-39.1	-40.4	20.8	0.00e+00	30	34	0	1153433600	50	6712
2026-01-05 21:20:30.24	333.77	6.29	-39.4	-40.8	20.3	0.00e+00	0	34	0	1155530752	50	7009
2026-01-05 21:20:31.25	333.67	6.23	-39.7	-41.0	20.1	0.00e+00	92	34	0	1157627904	50	7249
2026-01-05 21:20:32.26	333.57	6.17	-39.8	-41.2	20.0	0.00e+00	0	34	0	1158676480	52	6594
2026-01-05 21:20:33.27	333.47	6.11	-40.1	-41.5	19.6	0.00e+00	0	34	0	1160773632	52	6813
2026-01-05 21:20:34.28	333.37	6.06	-40.2	-41.8	19.3	0.00e+00	0	34	0	1162870784	52	7009
2026-01-05 21:20:35.29	333.27	6.00	-40.5	-42.1	19.1	0.00e+00	0	33	0	1164967936	52	7258
2026-01-05 21:20:36.30	333.17	5.94	-40.4	-42.0	19.2	0.00e+00	33	34	0	1167065088	52	7182
2026-01-05 21:20:37.30	333.07	5.88	-40.7	-42.3	18.8	0.00e+00	0	34	0	1168113664	52	7489
2026-01-05 21:20:38.31	332.97	5.83	-40.4	-41.9	19.1	0.00e+00	92	34	0	1170210816	52	7153
2026-01-05 21:20:39.32	332.87	5.77	-40.3	-41.9	19.2	0.00e+00	0	34	0	1172307968	52	7112
2026-01-05 21:20:40.33	332.77	5.71	-40.5	-42.0	19.2	0.00e+00	51	34	0	1174405120	52	7217
2026-01-05 21:20:41.34	332.68	5.65	-40.3	-41.8	19.3	0.00e+00	0	34	0	1176502272	52	7049
2026-01-05 21:20:42.35	332.58	5.60	-40.3	-41.7	19.4	0.00e+00	0	34	0	1178599424	52	6987
2026-01-05 21:20:43.36	332.48	5.54	-40.0	-41.4	19.7	0.00e+00	49	34	0	1179648000	52	6731
2026-01-05 21:20:44.36	332.39	5.48	-39.9	-41.3	19.8	0.00e+00	0	34	0	1181745152	52	6646
2026-01-05 21:20:45.37	332.29	5.42	-39.9	-41.3	19.8	0.00e+00	92	34	0	1183842304	52	6670
2026-01-05 21:20:46.38	332.19	5.37	-39.8	-41.2	19.9	0.00e+00	0	34	0	1185939456	52	6575
2026-01-05 21:20:47.39	332.10	5.31	-39.8	-41.1	19.9	0.00e+00	49	34	0	1188036608	52	6522
2026-01-05 21:20:48.40	332.00	5.25	-39.8	-41.1	20.1	0.00e+00	0	34	0	1189085184	52	6527
2026-01-05 21:20:49.41	331.91	5.20	-39.6	-41.0	20.1	0.00e+00	0	34	0	1191182336	52	6414
2026-01-05 21:20:50.42	331.82	5.14	-39.8	-41.2	19.9	0.00e+00	0	34	0	1193279488	52	6582
2026-01-05 21:20:51.43	331.72	5.08	-39.9	-41.3	19.9	0.00e+00	0	34	0	1195376640	52	6637
