passes_logs/2026/01/05/R4.6S_Anadyr/R4.6S_Anadyr__20260105_125118_SUOMI_NPP_rec.log

#Pass ID: 20260105_125118_SUOMI NPP
#Satellite: SUOMI NPP
#Configuration: NPP
#almurnet v.1.7.20251203
#Start time: 2026-01-05 12:51:22

#Version: 2.2.20231116
#Station: R4.6S_Anadyr
#Location: 177.4865 lon 64.73178 lat
#TLE: 1 37849U 11061A   26004.95404768  .00000136  00000+0  85334-4 0  9991
#TLE: 2 37849  98.7801 307.0898 0002574  80.6707 279.4760 14.19522289735280

#Time	Az	El	Level	Level2	SNR	BER	BlckErr	Temp	State	Recorded	gain1	gain2
2026-01-05 12:51:22.40	19.01	0.18	-49.7	-63.4	3.3	1.54e+00	0	23	0	0	60	53284
2026-01-05 12:51:23.40	19.07	0.24	-48.6	-63.8	3.6	1.51e+00	0	23	104	0	60	55893
2026-01-05 12:51:24.41	19.14	0.29	-48.6	-63.8	3.6	1.51e+00	0	23	104	0	60	56091
2026-01-05 12:51:25.42	19.20	0.34	-48.6	-63.8	3.6	1.51e+00	0	23	104	0	60	55771
2026-01-05 12:51:26.43	19.26	0.40	-48.5	-63.6	3.6	1.51e+00	0	23	104	0	60	54701
2026-01-05 12:51:27.44	19.33	0.45	-48.5	-63.6	3.6	1.51e+00	0	24	104	0	60	54928
2026-01-05 12:51:28.45	19.39	0.50	-48.4	-63.6	3.6	1.51e+00	0	24	104	0	60	54467
2026-01-05 12:51:29.46	19.46	0.55	-48.3	-63.5	3.6	1.51e+00	0	24	104	0	60	54067
2026-01-05 12:51:30.47	19.52	0.61	-48.2	-63.4	3.6	1.51e+00	0	24	104	0	60	53685
2026-01-05 12:51:31.48	19.59	0.66	-48.1	-63.2	3.6	1.51e+00	0	24	104	0	60	52363
2026-01-05 12:51:32.49	19.65	0.72	-48.0	-63.1	3.5	1.51e+00	0	24	104	0	60	51821
2026-01-05 12:51:33.50	19.72	0.77	-47.8	-63.0	3.6	1.51e+00	0	24	104	0	60	50766
2026-01-05 12:51:34.51	19.78	0.82	-47.6	-62.7	3.6	1.51e+00	0	24	104	0	60	49388
2026-01-05 12:51:35.52	19.85	0.88	-47.2	-62.3	3.6	1.51e+00	0	24	104	0	60	47057
2026-01-05 12:51:36.53	19.91	0.93	-46.9	-62.0	3.6	1.51e+00	0	24	104	0	60	45604
2026-01-05 12:51:37.54	19.98	0.98	-46.9	-62.0	3.6	1.51e+00	0	24	104	0	60	45295
2026-01-05 12:51:38.55	20.05	1.04	-46.9	-61.9	3.6	1.51e+00	0	24	104	0	60	45050
2026-01-05 12:51:39.56	20.11	1.09	-46.9	-62.0	3.6	1.51e+00	0	24	104	0	60	45428
2026-01-05 12:51:40.57	20.18	1.15	-46.9	-62.0	3.6	1.51e+00	0	24	104	0	60	45491
2026-01-05 12:51:41.58	20.25	1.20	-46.9	-62.0	3.6	1.51e+00	0	24	104	0	60	45755
2026-01-05 12:51:42.59	20.31	1.25	-46.9	-62.1	3.6	1.51e+00	0	24	104	0	60	46246
2026-01-05 12:51:43.60	20.38	1.31	-46.9	-62.2	3.6	1.51e+00	0	24	104	0	60	46382
2026-01-05 12:51:44.61	20.45	1.36	-46.9	-62.1	3.6	1.51e+00	0	24	104	0	60	46051
2026-01-05 12:51:45.62	20.52	1.42	-46.9	-62.1	3.6	1.51e+00	0	24	104	0	60	45944
2026-01-05 12:51:46.63	20.59	1.47	-46.9	-62.1	3.6	1.51e+00	0	24	104	0	60	45978
2026-01-05 12:51:47.64	20.65	1.53	-46.9	-62.1	3.6	1.51e+00	0	24	104	0	60	45835
2026-01-05 12:51:48.65	20.72	1.58	-46.9	-62.0	3.6	1.51e+00	0	24	104	0	60	45373
2026-01-05 12:51:49.66	20.79	1.64	-46.9	-62.0	3.6	1.51e+00	0	24	104	0	60	45271
2026-01-05 12:51:50.67	20.86	1.69	-46.9	-61.9	3.6	1.51e+00	0	24	104	0	60	45180
2026-01-05 12:51:51.68	20.93	1.75	-46.9	-62.0	3.6	1.51e+00	0	24	104	0	60	45300
2026-01-05 12:51:52.69	21.00	1.80	-46.9	-61.9	3.6	1.51e+00	0	24	104	0	60	45210
2026-01-05 12:51:53.70	21.07	1.86	-46.9	-62.0	3.6	1.51e+00	0	24	104	0	60	45276
2026-01-05 12:51:54.70	21.14	1.91	-46.9	-62.0	3.6	1.51e+00	0	24	104	0	60	45603
2026-01-05 12:51:55.71	21.21	1.97	-46.9	-62.0	3.6	1.51e+00	0	24	104	0	60	45401
2026-01-05 12:51:56.72	21.28	2.02	-46.9	-62.0	3.6	1.51e+00	0	24	104	0	60	45569
2026-01-05 12:51:57.74	21.35	2.08	-46.9	-62.0	3.6	1.51e+00	0	24	104	0	60	45356
2026-01-05 12:51:58.74	21.42	2.13	-46.9	-61.8	3.6	1.51e+00	0	24	104	0	60	44591
2026-01-05 12:51:59.76	21.49	2.19	-46.9	-61.4	3.6	1.51e+00	0	24	104	0	60	42356
2026-01-05 12:52:00.77	21.57	2.24	-46.9	-60.8	3.6	1.51e+00	0	24	104	0	60	39572
2026-01-05 12:52:01.78	21.64	2.30	-46.9	-60.9	3.6	1.51e+00	0	24	104	0	60	40129
2026-01-05 12:52:02.79	21.71	2.35	-46.9	-61.3	3.6	1.51e+00	0	24	104	0	60	41827
2026-01-05 12:52:03.80	21.78	2.41	-46.9	-61.3	3.6	1.51e+00	0	24	104	0	60	42181
2026-01-05 12:52:04.81	21.85	2.47	-46.6	-56.9	4.8	1.46e+00	23	24	104	0	60	25323
2026-01-05 12:52:05.82	21.93	2.52	-45.9	-51.9	8.5	2.94e-01	0	24	0	1048576	60	14251
2026-01-05 12:52:06.83	22.00	2.58	-45.0	-49.3	11.7	1.73e-02	0	24	0	2097152	60	10585
2026-01-05 12:52:07.84	22.07	2.63	-43.2	-45.9	15.2	5.30e-06	0	24	0	4194304	60	7116
2026-01-05 12:52:08.85	22.15	2.69	-41.8	-43.8	17.2	0.00e+00	73	24	0	6291456	58	6271
2026-01-05 12:52:09.86	22.22	2.75	-41.0	-42.8	17.9	0.00e+00	0	24	0	8388608	54	7051
2026-01-05 12:52:10.87	22.30	2.80	-39.7	-41.0	19.5	0.00e+00	60	24	0	10485760	52	6463
2026-01-05 12:52:11.88	22.37	2.86	-40.0	-41.5	19.5	0.00e+00	0	24	0	11534336	52	6817
2026-01-05 12:52:12.89	22.44	2.92	-39.9	-41.3	19.5	0.00e+00	0	24	0	13631488	52	6686
2026-01-05 12:52:13.90	22.52	2.97	-40.9	-42.7	18.2	0.00e+00	0	24	0	15728640	54	6931
2026-01-05 12:52:14.91	22.59	3.03	-42.4	-44.7	16.2	0.00e+00	0	24	0	17825792	56	7825
2026-01-05 12:52:15.92	22.67	3.09	-43.7	-46.8	14.0	0.00e+00	65	24	0	19922944	58	8922
2026-01-05 12:52:16.93	22.75	3.14	-45.2	-50.1	10.5	5.66e-04	0	24	0	20971520	60	11619
2026-01-05 12:52:17.94	22.82	3.20	-39.5	-40.8	19.9	0.00e+00	86	24	0	23068672	52	6301
2026-01-05 12:52:18.95	22.90	3.26	-46.7	-60.5	3.6	6.10e-02	0	24	104	25165824	60	38274
2026-01-05 12:52:19.96	22.97	3.31	-46.2	-53.5	6.6	1.42e+00	0	24	104	25165824	60	17074
2026-01-05 12:52:20.97	23.05	3.37	-43.3	-45.9	15.6	5.26e-05	0	24	0	25165824	60	7135
2026-01-05 12:52:21.98	23.13	3.43	-47.0	-60.2	3.6	2.89e-01	0	24	104	26214400	60	36944
2026-01-05 12:52:22.99	23.21	3.49	-43.7	-46.6	14.7	3.89e-02	0	24	0	26214400	60	7703
2026-01-05 12:52:24.00	23.28	3.54	-43.7	-46.6	14.8	0.00e+00	0	24	0	28311552	60	7761
2026-01-05 12:52:25.01	23.36	3.60	-43.3	-45.9	14.9	0.00e+00	51	24	0	30408704	60	7121
2026-01-05 12:52:26.02	23.44	3.66	-43.2	-45.8	15.4	7.00e-07	0	24	0	31457280	58	7906
2026-01-05 12:52:27.02	23.52	3.71	-43.8	-46.8	14.9	0.00e+00	73	24	0	33554432	58	8890
2026-01-05 12:52:28.03	23.60	3.77	-43.1	-45.5	15.5	0.00e+00	0	24	0	35651584	60	6833
2026-01-05 12:52:29.04	23.68	3.83	-42.8	-45.2	16.2	0.00e+00	0	24	0	37748736	58	7356
2026-01-05 12:52:30.05	23.75	3.89	-42.6	-44.8	16.2	0.00e+00	0	24	0	39845888	58	7069
2026-01-05 12:52:31.06	23.83	3.95	-42.7	-45.0	16.3	0.00e+00	0	24	0	40894464	58	7189
2026-01-05 12:52:32.07	23.91	4.00	-43.1	-45.6	15.6	0.00e+00	48	24	0	42991616	58	7698
2026-01-05 12:52:33.08	24.00	4.06	-43.0	-45.4	15.8	0.00e+00	0	24	0	45088768	58	7582
2026-01-05 12:52:34.09	24.08	4.12	-43.2	-45.8	15.5	0.00e+00	91	24	0	47185920	58	7925
2026-01-05 12:52:35.10	24.16	4.18	-43.2	-45.7	16.1	0.00e+00	0	24	0	49283072	58	7832
2026-01-05 12:52:36.11	24.24	4.24	-42.8	-45.2	16.0	0.00e+00	29	24	0	51380224	58	7357
2026-01-05 12:52:37.12	24.32	4.30	-43.3	-45.8	15.6	0.00e+00	0	24	0	52428800	58	7921
2026-01-05 12:52:38.13	24.40	4.35	-42.9	-45.2	16.3	0.00e+00	0	24	0	54525952	58	7374
2026-01-05 12:52:39.14	24.48	4.41	-42.2	-44.2	17.2	0.00e+00	90	24	0	56623104	58	6591
2026-01-05 12:52:40.15	24.57	4.47	-42.1	-44.0	17.1	0.00e+00	0	24	0	58720256	58	6443
2026-01-05 12:52:41.16	24.65	4.53	-42.7	-44.9	16.5	0.00e+00	91	24	0	59768832	58	7160
2026-01-05 12:52:42.17	24.73	4.59	-41.9	-43.9	17.3	0.00e+00	28	24	0	61865984	58	6321
2026-01-05 12:52:43.18	24.81	4.65	-41.8	-43.6	17.5	0.00e+00	0	24	0	63963136	56	6923
2026-01-05 12:52:44.19	24.90	4.71	-41.9	-43.8	17.6	0.00e+00	0	24	0	66060288	56	7060
2026-01-05 12:52:45.20	24.98	4.77	-41.9	-43.7	17.3	0.00e+00	0	24	0	68157440	56	7006
2026-01-05 12:52:46.20	25.07	4.82	-42.1	-44.1	17.7	0.00e+00	0	24	0	69206016	56	7273
2026-01-05 12:52:47.21	25.15	4.88	-41.9	-43.7	17.7	0.00e+00	0	24	0	71303168	56	6983
2026-01-05 12:52:48.22	25.24	4.94	-41.8	-43.6	17.8	0.00e+00	82	24	0	73400320	56	6902
2026-01-05 12:52:49.23	25.32	5.00	-42.0	-43.9	17.7	0.00e+00	0	24	0	75497472	56	7159
2026-01-05 12:52:50.24	25.41	5.06	-41.5	-43.2	17.9	0.00e+00	0	24	0	77594624	56	6604
2026-01-05 12:52:51.25	25.49	5.12	-42.2	-44.1	17.7	0.00e+00	0	24	0	79691776	56	7319
2026-01-05 12:52:52.26	25.58	5.18	-42.5	-44.6	16.7	0.00e+00	0	24	0	80740352	56	7740
2026-01-05 12:52:53.27	25.67	5.24	-42.0	-43.9	17.7	0.00e+00	0	24	0	82837504	56	7094
2026-01-05 12:52:54.28	25.75	5.30	-42.2	-44.1	17.5	0.00e+00	0	24	0	84934656	56	7331
2026-01-05 12:52:55.29	25.84	5.36	-41.9	-43.7	17.6	0.00e+00	55	24	0	87031808	56	6990
2026-01-05 12:52:56.30	25.93	5.42	-42.0	-43.9	17.7	0.00e+00	0	24	0	89128960	56	7096
2026-01-05 12:52:57.31	26.02	5.48	-41.5	-43.3	18.3	0.00e+00	92	24	0	90177536	56	6623
2026-01-05 12:52:58.32	26.10	5.54	-40.8	-42.3	19.2	0.00e+00	0	24	0	92274688	56	5936
2026-01-05 12:52:59.33	26.19	5.60	-41.1	-42.7	18.6	0.00e+00	0	24	0	94371840	54	6983
2026-01-05 12:53:00.34	26.28	5.66	-40.6	-42.1	19.3	0.00e+00	0	24	0	96468992	54	6479
2026-01-05 12:53:01.35	26.37	5.72	-40.4	-41.9	19.4	0.00e+00	0	24	0	98566144	54	6340
2026-01-05 12:53:02.36	26.46	5.78	-40.2	-41.6	19.7	0.00e+00	87	24	0	99614720	54	6165
2026-01-05 12:53:03.36	26.55	5.84	-39.7	-41.1	20.4	0.00e+00	0	24	0	101711872	52	6474
2026-01-05 12:53:04.37	26.64	5.90	-39.4	-40.7	20.5	0.00e+00	90	24	0	103809024	52	6200
2026-01-05 12:53:05.38	26.73	5.96	-39.6	-40.9	20.4	0.00e+00	0	24	0	105906176	52	6342
2026-01-05 12:53:06.39	26.82	6.02	-39.2	-40.4	20.9	0.00e+00	0	24	0	108003328	52	5997
2026-01-05 12:53:07.40	26.91	6.09	-38.8	-39.9	21.1	0.00e+00	0	24	0	109051904	50	6371
2026-01-05 12:53:08.41	27.01	6.15	-39.4	-40.6	20.6	0.00e+00	0	24	0	111149056	50	6886
2026-01-05 12:53:09.42	27.10	6.21	-39.2	-40.4	20.9	0.00e+00	6	24	0	113246208	50	6703
2026-01-05 12:53:10.43	27.19	6.27	-39.1	-40.3	20.9	0.00e+00	0	24	0	115343360	50	6660
2026-01-05 12:53:11.44	27.28	6.33	-39.2	-40.4	20.9	0.00e+00	66	24	0	117440512	50	6716
2026-01-05 12:53:12.45	27.38	6.39	-39.1	-40.3	21.0	0.00e+00	0	24	0	118489088	50	6642
2026-01-05 12:53:13.47	27.47	6.45	-39.3	-40.6	20.5	0.00e+00	0	24	0	120586240	50	6859
2026-01-05 12:53:14.48	27.57	6.51	-39.3	-40.6	20.7	0.00e+00	0	25	0	122683392	50	6852
2026-01-05 12:53:15.48	27.66	6.58	-39.2	-40.4	20.9	0.00e+00	0	24	0	124780544	50	6735
2026-01-05 12:53:16.49	27.75	6.64	-38.9	-40.1	21.1	0.00e+00	0	24	0	126877696	50	6471
2026-01-05 12:53:17.50	27.85	6.70	-39.1	-40.3	21.0	0.00e+00	0	24	0	127926272	50	6630
2026-01-05 12:53:18.51	27.94	6.76	-39.3	-40.5	20.8	0.00e+00	84	24	0	130023424	50	6803
2026-01-05 12:53:19.52	28.04	6.82	-39.7	-40.9	20.6	0.00e+00	0	24	0	132120576	50	7137
2026-01-05 12:53:20.53	28.14	6.88	-39.4	-40.6	20.8	0.00e+00	0	24	0	134217728	50	6889
2026-01-05 12:53:21.54	28.23	6.95	-39.6	-40.9	20.5	0.00e+00	0	24	0	136314880	50	7132
2026-01-05 12:53:22.55	28.33	7.01	-39.3	-40.5	20.8	0.00e+00	0	24	0	137363456	50	6841
2026-01-05 12:53:23.56	28.43	7.07	-39.4	-40.6	20.8	0.00e+00	0	24	0	139460608	50	6920
2026-01-05 12:53:24.57	28.53	7.13	-39.5	-40.7	20.6	0.00e+00	0	24	0	141557760	50	6985
2026-01-05 12:53:25.58	28.62	7.20	-39.6	-40.9	20.6	0.00e+00	86	24	0	143654912	50	7096
2026-01-05 12:53:26.58	28.72	7.26	-39.6	-40.9	20.5	0.00e+00	0	24	0	145752064	52	6349
2026-01-05 12:53:27.59	28.82	7.32	-39.9	-41.2	20.3	0.00e+00	86	24	0	147849216	52	6613
2026-01-05 12:53:28.60	28.92	7.38	-39.8	-41.1	20.3	0.00e+00	0	25	0	148897792	52	6471
2026-01-05 12:53:29.61	29.02	7.45	-39.6	-40.8	20.5	0.00e+00	0	25	0	150994944	52	6298
2026-01-05 12:53:30.62	29.12	7.51	-40.0	-41.3	20.2	0.00e+00	0	24	0	153092096	52	6669
2026-01-05 12:53:31.63	29.22	7.57	-39.9	-41.3	20.1	0.00e+00	0	24	0	155189248	52	6626
2026-01-05 12:53:32.64	29.32	7.64	-40.1	-41.5	20.1	0.00e+00	83	24	0	157286400	52	6783
2026-01-05 12:53:33.65	29.43	7.70	-40.3	-41.7	19.8	0.00e+00	0	24	0	158334976	52	6950
2026-01-05 12:53:34.66	29.53	7.76	-40.0	-41.4	20.1	0.00e+00	78	25	0	160432128	52	6703
2026-01-05 12:53:35.67	29.63	7.82	-40.2	-41.5	20.1	0.00e+00	0	25	0	162529280	52	6821
2026-01-05 12:53:36.68	29.73	7.89	-40.2	-41.5	20.0	0.00e+00	0	25	0	164626432	52	6827
2026-01-05 12:53:37.69	29.84	7.95	-40.2	-41.5	20.1	0.00e+00	0	24	0	166723584	52	6809
2026-01-05 12:53:38.70	29.94	8.02	-39.9	-41.3	20.3	0.00e+00	0	25	0	167772160	52	6619
2026-01-05 12:53:39.71	30.04	8.08	-40.1	-41.4	20.0	0.00e+00	0	24	0	169869312	52	6756
2026-01-05 12:53:40.72	30.15	8.14	-39.6	-40.8	20.6	0.00e+00	0	25	0	171966464	52	6305
2026-01-05 12:53:41.73	30.25	8.21	-39.7	-41.0	20.5	0.00e+00	76	24	0	174063616	52	6402
2026-01-05 12:53:42.74	30.36	8.27	-39.7	-41.0	20.5	0.00e+00	0	24	0	176160768	52	6406
2026-01-05 12:53:43.75	30.46	8.33	-39.4	-40.6	20.8	0.00e+00	0	25	0	177209344	52	6148
2026-01-05 12:53:44.76	30.57	8.40	-39.3	-40.5	21.0	0.00e+00	0	24	0	179306496	52	6073
2026-01-05 12:53:45.76	30.68	8.46	-39.0	-40.2	21.2	0.00e+00	0	25	0	181403648	52	5836
2026-01-05 12:53:46.77	30.78	8.53	-39.1	-40.3	21.1	0.00e+00	87	25	0	183500800	52	5927
2026-01-05 12:53:47.78	30.89	8.59	-39.1	-40.3	21.2	0.00e+00	0	25	0	185597952	52	5913
2026-01-05 12:53:48.79	31.00	8.65	-39.0	-40.2	21.2	0.00e+00	86	25	0	186646528	52	5857
2026-01-05 12:53:49.80	31.11	8.72	-39.2	-40.4	21.1	0.00e+00	0	25	0	188743680	52	6014
2026-01-05 12:53:50.81	31.22	8.78	-39.3	-40.5	21.0	0.00e+00	0	25	0	190840832	52	6079
2026-01-05 12:53:51.81	31.33	8.85	-39.1	-40.3	21.1	0.00e+00	0	25	0	192937984	52	5944
2026-01-05 12:53:52.82	31.44	8.91	-39.0	-40.1	21.4	0.00e+00	1	25	0	195035136	52	5788
2026-01-05 12:53:53.83	31.55	8.98	-39.0	-40.2	21.2	0.00e+00	92	25	0	196083712	52	5852
2026-01-05 12:53:54.84	31.66	9.04	-38.8	-39.9	21.5	0.00e+00	0	25	0	198180864	52	5672
2026-01-05 12:53:55.85	31.77	9.11	-38.8	-39.9	21.5	0.00e+00	87	24	0	200278016	50	6347
2026-01-05 12:53:56.85	31.88	9.17	-38.8	-40.0	21.5	0.00e+00	0	25	0	202375168	50	6392
2026-01-05 12:53:57.86	31.99	9.24	-38.6	-39.7	21.7	0.00e+00	0	24	0	204472320	50	6234
2026-01-05 12:53:58.87	32.11	9.30	-38.5	-39.6	21.6	0.00e+00	0	24	0	205520896	50	6143
2026-01-05 12:53:59.88	32.22	9.37	-38.4	-39.4	22.0	0.00e+00	0	25	0	207618048	50	6014
2026-01-05 12:54:00.89	32.33	9.43	-38.3	-39.4	22.0	0.00e+00	0	25	0	209715200	50	5979
2026-01-05 12:54:01.90	32.45	9.50	-38.4	-39.5	21.9	0.00e+00	0	25	0	211812352	50	6035
2026-01-05 12:54:02.91	32.56	9.56	-38.2	-39.2	22.1	0.00e+00	87	25	0	213909504	50	5864
2026-01-05 12:54:03.92	32.68	9.63	-38.1	-39.1	22.1	0.00e+00	0	25	0	216006656	50	5826
2026-01-05 12:54:04.93	32.79	9.69	-38.0	-39.0	22.2	0.00e+00	41	25	0	217055232	50	5742
2026-01-05 12:54:05.94	32.91	9.76	-38.1	-39.1	22.1	0.00e+00	0	25	0	219152384	50	5803
2026-01-05 12:54:06.95	33.03	9.83	-38.3	-39.3	21.9	0.00e+00	0	24	0	221249536	50	5932
2026-01-05 12:54:07.96	33.14	9.89	-38.1	-39.2	21.8	0.00e+00	0	25	0	223346688	50	5840
2026-01-05 12:54:08.97	33.26	9.96	-38.1	-39.1	21.7	0.00e+00	0	24	0	225443840	50	5810
2026-01-05 12:54:09.98	33.38	10.02	-38.1	-39.1	22.0	0.00e+00	24	25	0	226492416	50	5778
2026-01-05 12:54:10.99	33.50	10.09	-38.0	-39.0	22.3	0.00e+00	0	25	0	228589568	50	5725
2026-01-05 12:54:11.99	33.62	10.15	-38.0	-39.0	22.2	0.00e+00	86	25	0	230686720	50	5740
2026-01-05 12:54:13.00	33.74	10.22	-37.9	-38.9	22.3	0.00e+00	0	25	0	232783872	50	5635
2026-01-05 12:54:14.01	33.86	10.29	-38.1	-39.1	22.2	0.00e+00	0	25	0	234881024	50	5783
2026-01-05 12:54:15.02	33.98	10.35	-38.0	-39.0	22.4	0.00e+00	33	25	0	235929600	50	5761
2026-01-05 12:54:16.03	34.10	10.42	-38.1	-39.2	22.1	0.00e+00	0	24	0	238026752	50	5841
2026-01-05 12:54:17.04	34.22	10.49	-38.3	-39.3	22.1	0.00e+00	0	24	0	240123904	50	5927
2026-01-05 12:54:18.05	34.34	10.55	-38.3	-39.3	22.0	0.00e+00	0	24	0	242221056	50	5964
2026-01-05 12:54:19.06	34.47	10.62	-38.0	-39.0	22.2	0.00e+00	92	25	0	244318208	50	5759
2026-01-05 12:54:20.07	34.59	10.69	-38.2	-39.2	22.2	0.00e+00	0	25	0	245366784	50	5844
2026-01-05 12:54:21.08	34.71	10.75	-38.2	-39.2	22.3	0.00e+00	0	25	0	247463936	50	5864
2026-01-05 12:54:22.09	34.84	10.82	-38.5	-39.5	21.9	0.00e+00	0	24	0	249561088	50	6087
2026-01-05 12:54:23.10	34.96	10.89	-38.3	-39.3	22.1	0.00e+00	0	25	0	251658240	50	5938
2026-01-05 12:54:24.11	35.09	10.95	-38.2	-39.2	22.2	0.00e+00	89	24	0	253755392	50	5896
2026-01-05 12:54:25.12	35.22	11.02	-38.1	-39.1	22.3	0.00e+00	0	25	0	254803968	50	5804
2026-01-05 12:54:26.13	35.34	11.09	-38.0	-39.0	22.3	0.00e+00	90	25	0	256901120	50	5736
2026-01-05 12:54:27.14	35.47	11.15	-37.9	-38.9	22.5	0.00e+00	0	25	0	258998272	50	5632
2026-01-05 12:54:28.15	35.60	11.22	-38.0	-39.0	22.4	0.00e+00	0	25	0	261095424	50	5703
2026-01-05 12:54:29.16	35.73	11.29	-37.9	-38.9	22.4	0.00e+00	27	25	0	263192576	50	5683
2026-01-05 12:54:30.17	35.86	11.36	-38.0	-39.0	22.3	0.00e+00	0	25	0	264241152	50	5727
2026-01-05 12:54:31.18	35.99	11.42	-37.8	-38.8	22.5	0.00e+00	48	25	0	266338304	50	5598
2026-01-05 12:54:32.19	36.12	11.49	-38.0	-39.0	22.3	0.00e+00	0	25	0	268435456	50	5748
2026-01-05 12:54:33.19	36.24	11.56	-37.9	-38.9	22.4	0.00e+00	85	25	0	270532608	50	5632
2026-01-05 12:54:34.20	36.38	11.63	-38.0	-39.0	22.3	0.00e+00	0	25	0	272629760	50	5759
2026-01-05 12:54:35.21	36.51	11.69	-37.8	-38.8	22.5	0.00e+00	49	25	0	273678336	50	5611
2026-01-05 12:54:36.22	36.64	11.76	-38.1	-39.1	22.3	0.00e+00	0	25	0	275775488	50	5792
2026-01-05 12:54:37.23	36.77	11.83	-37.9	-38.8	22.5	0.00e+00	0	25	0	277872640	50	5630
2026-01-05 12:54:38.24	36.91	11.90	-37.8	-38.7	22.5	0.00e+00	25	25	0	279969792	48	6232
2026-01-05 12:54:39.25	37.04	11.96	-37.8	-38.7	22.6	0.00e+00	0	25	0	282066944	48	6244
2026-01-05 12:54:40.26	37.18	12.03	-37.6	-38.6	22.8	0.00e+00	89	25	0	284164096	48	6104
2026-01-05 12:54:41.27	37.31	12.10	-37.7	-38.7	22.7	0.00e+00	0	25	0	285212672	48	6188
2026-01-05 12:54:42.28	37.45	12.17	-37.7	-38.6	22.8	0.00e+00	86	25	0	287309824	48	6159
2026-01-05 12:54:43.29	37.59	12.24	-37.4	-38.3	22.9	0.00e+00	0	25	0	289406976	48	5933
2026-01-05 12:54:44.30	37.72	12.30	-37.6	-38.5	22.9	0.00e+00	0	25	0	291504128	48	6083
2026-01-05 12:54:45.31	37.86	12.37	-37.3	-38.2	23.1	0.00e+00	9	25	0	293601280	48	5872
2026-01-05 12:54:46.32	38.00	12.44	-37.3	-38.2	23.1	0.00e+00	0	25	0	294649856	48	5882
2026-01-05 12:54:47.33	38.14	12.51	-37.0	-37.9	23.3	0.00e+00	88	25	0	296747008	48	5690
2026-01-05 12:54:48.34	38.28	12.58	-37.2	-38.1	23.1	0.00e+00	0	25	0	298844160	48	5790
2026-01-05 12:54:49.35	38.42	12.64	-37.1	-38.0	23.3	0.00e+00	57	25	0	300941312	48	5723
2026-01-05 12:54:50.36	38.56	12.71	-37.1	-38.0	23.1	0.00e+00	0	25	0	303038464	48	5756
2026-01-05 12:54:51.37	38.70	12.78	-37.4	-38.3	22.9	0.00e+00	0	25	0	304087040	48	5955
2026-01-05 12:54:52.38	38.84	12.85	-37.2	-38.2	23.0	0.00e+00	0	25	0	306184192	48	5829
2026-01-05 12:54:53.39	38.99	12.92	-37.3	-38.2	23.0	0.00e+00	0	25	0	308281344	48	5883
2026-01-05 12:54:54.40	39.13	12.99	-37.6	-38.6	22.8	0.00e+00	0	25	0	310378496	48	6145
2026-01-05 12:54:55.41	39.28	13.06	-37.4	-38.4	22.9	0.00e+00	0	25	0	312475648	48	5988
2026-01-05 12:54:56.42	39.42	13.12	-37.4	-38.3	23.1	0.00e+00	85	25	0	313524224	48	5922
2026-01-05 12:54:57.43	39.57	13.19	-37.4	-38.3	23.0	0.00e+00	0	25	0	315621376	48	5953
2026-01-05 12:54:58.44	39.71	13.26	-37.3	-38.3	23.0	0.00e+00	0	25	0	317718528	48	5908
2026-01-05 12:54:59.45	39.86	13.33	-37.3	-38.2	23.0	0.00e+00	0	25	0	319815680	48	5892
2026-01-05 12:55:00.45	40.01	13.40	-37.3	-38.3	22.9	0.00e+00	0	25	0	321912832	48	5898
2026-01-05 12:55:01.47	40.16	13.47	-37.3	-38.2	23.0	0.00e+00	13	25	0	322961408	48	5878
2026-01-05 12:55:02.48	40.30	13.54	-37.6	-38.5	22.1	0.00e+00	0	25	0	325058560	48	6100
2026-01-05 12:55:03.49	40.45	13.60	-37.4	-38.3	23.0	0.00e+00	83	25	0	327155712	48	5950
2026-01-05 12:55:04.49	40.60	13.67	-37.6	-38.6	22.6	0.00e+00	0	25	0	329252864	48	6111
2026-01-05 12:55:05.50	40.75	13.74	-37.6	-38.5	22.8	0.00e+00	35	25	0	331350016	48	6088
2026-01-05 12:55:06.51	40.90	13.81	-37.6	-38.6	22.8	0.00e+00	0	25	0	332398592	48	6104
2026-01-05 12:55:07.52	41.06	13.88	-37.8	-38.8	22.6	0.00e+00	0	25	0	334495744	48	6250
2026-01-05 12:55:08.53	41.21	13.95	-37.8	-38.8	22.6	0.00e+00	0	25	0	336592896	48	6305
2026-01-05 12:55:09.54	41.36	14.02	-37.6	-38.6	22.9	0.00e+00	0	25	0	338690048	48	6123
2026-01-05 12:55:10.55	41.52	14.08	-37.6	-38.5	22.8	0.00e+00	28	25	0	340787200	48	6095
2026-01-05 12:55:11.56	41.67	14.15	-37.4	-38.3	23.0	0.00e+00	0	25	0	341835776	48	5943
2026-01-05 12:55:12.56	41.83	14.22	-37.0	-37.9	23.4	0.00e+00	65	25	0	343932928	48	5682
2026-01-05 12:55:13.58	41.99	14.29	-37.1	-38.0	23.2	0.00e+00	0	25	0	346030080	48	5729
2026-01-05 12:55:14.58	42.14	14.36	-37.0	-37.9	23.3	0.00e+00	0	25	0	348127232	48	5687
2026-01-05 12:55:15.59	42.30	14.43	-36.9	-37.8	23.4	0.00e+00	0	25	0	350224384	48	5575
2026-01-05 12:55:16.60	42.46	14.50	-37.2	-38.1	23.3	0.00e+00	0	25	0	351272960	48	5784
2026-01-05 12:55:17.61	42.62	14.57	-36.9	-37.8	23.4	0.00e+00	86	25	0	353370112	48	5623
2026-01-05 12:55:18.62	42.78	14.63	-36.9	-37.8	23.3	0.00e+00	0	25	0	355467264	48	5630
2026-01-05 12:55:19.63	42.94	14.70	-36.9	-37.8	23.5	0.00e+00	81	25	0	357564416	48	5630
2026-01-05 12:55:20.64	43.10	14.77	-36.9	-37.8	23.4	0.00e+00	0	25	0	359661568	48	5625
2026-01-05 12:55:21.65	43.26	14.84	-37.1	-38.0	23.4	0.00e+00	0	25	0	360710144	48	5711
2026-01-05 12:55:22.66	43.42	14.91	-36.9	-37.8	23.5	0.00e+00	0	25	0	362807296	48	5604
2026-01-05 12:55:23.67	43.59	14.98	-37.0	-37.9	23.3	0.00e+00	0	25	0	364904448	48	5689
2026-01-05 12:55:24.68	43.75	15.05	-36.9	-37.8	23.4	0.00e+00	0	25	0	367001600	48	5601
2026-01-05 12:55:25.68	43.92	15.11	-37.0	-37.9	23.3	0.00e+00	0	25	0	369098752	48	5649
2026-01-05 12:55:26.70	44.08	15.18	-36.9	-37.8	23.4	0.00e+00	90	25	0	370147328	48	5614
2026-01-05 12:55:27.70	44.25	15.25	-36.9	-37.8	23.4	0.00e+00	0	25	0	372244480	48	5624
2026-01-05 12:55:28.71	44.41	15.32	-36.9	-37.9	23.4	0.00e+00	0	25	0	374341632	48	5640
2026-01-05 12:55:29.73	44.58	15.39	-36.8	-37.7	23.6	0.00e+00	0	25	0	376438784	48	5504
2026-01-05 12:55:30.74	44.75	15.46	-36.7	-37.7	23.6	0.00e+00	0	25	0	378535936	46	6174
2026-01-05 12:55:31.74	44.92	15.53	-36.8	-37.7	23.6	0.00e+00	89	25	0	380633088	46	6243
2026-01-05 12:55:32.75	45.09	15.59	-36.9	-37.8	23.5	0.00e+00	0	25	0	381681664	46	6299
2026-01-05 12:55:33.76	45.26	15.66	-36.8	-37.7	23.5	0.00e+00	82	25	0	383778816	46	6214
2026-01-05 12:55:34.77	45.43	15.73	-36.9	-37.9	23.3	0.00e+00	0	25	0	385875968	46	6322
2026-01-05 12:55:35.78	45.61	15.80	-37.1	-38.1	23.2	0.00e+00	0	25	0	387973120	46	6499
2026-01-05 12:55:36.79	45.78	15.87	-37.3	-38.3	23.0	0.00e+00	0	25	0	390070272	46	6661
2026-01-05 12:55:37.80	45.95	15.94	-37.3	-38.2	23.1	0.00e+00	0	25	0	391118848	46	6603
2026-01-05 12:55:38.81	46.13	16.00	-37.3	-38.3	23.0	0.00e+00	91	25	0	393216000	46	6646
2026-01-05 12:55:39.82	46.31	16.07	-37.3	-38.3	23.2	0.00e+00	0	25	0	395313152	46	6627
2026-01-05 12:55:40.83	46.48	16.14	-37.2	-38.2	23.2	0.00e+00	75	25	0	397410304	46	6540
2026-01-05 12:55:41.84	46.66	16.21	-37.3	-38.2	23.2	0.00e+00	0	25	0	399507456	46	6587
2026-01-05 12:55:42.85	46.84	16.28	-37.0	-38.0	23.3	0.00e+00	0	25	0	400556032	46	6399
2026-01-05 12:55:43.85	47.01	16.34	-37.1	-38.0	23.2	0.00e+00	0	25	0	402653184	46	6456
2026-01-05 12:55:44.86	47.19	16.41	-37.1	-38.1	23.3	0.00e+00	0	25	0	404750336	46	6478
2026-01-05 12:55:45.87	47.37	16.48	-37.2	-38.1	23.2	0.00e+00	8	25	0	406847488	46	6497
2026-01-05 12:55:46.88	47.56	16.55	-37.2	-38.1	23.2	0.00e+00	0	25	0	408944640	46	6492
2026-01-05 12:55:47.89	47.74	16.61	-37.4	-38.4	23.0	0.00e+00	90	25	0	409993216	46	6727
2026-01-05 12:55:48.90	47.92	16.68	-37.4	-38.3	23.2	0.00e+00	0	25	0	412090368	46	6689
2026-01-05 12:55:49.91	48.10	16.75	-37.4	-38.3	23.2	0.00e+00	40	25	0	414187520	46	6682
2026-01-05 12:55:50.92	48.29	16.82	-37.5	-38.5	23.0	0.00e+00	0	25	0	416284672	46	6774
2026-01-05 12:55:51.93	48.47	16.88	-37.5	-38.4	23.0	0.00e+00	0	25	0	418381824	46	6764
2026-01-05 12:55:52.94	48.66	16.95	-37.3	-38.2	23.2	0.00e+00	0	25	0	419430400	46	6609
2026-01-05 12:55:53.95	48.85	17.02	-36.9	-37.9	23.5	0.00e+00	0	25	0	421527552	46	6324
2026-01-05 12:55:54.96	49.03	17.08	-37.1	-38.0	23.3	0.00e+00	1	25	0	423624704	46	6416
2026-01-05 12:55:55.97	49.22	17.15	-37.3	-38.2	23.2	0.00e+00	0	25	0	425721856	46	6597
2026-01-05 12:55:56.98	49.41	17.22	-36.9	-37.8	23.5	0.00e+00	92	25	0	427819008	46	6302
2026-01-05 12:55:57.99	49.60	17.28	-36.9	-37.8	23.5	0.00e+00	0	25	0	428867584	46	6299
2026-01-05 12:55:59.00	49.79	17.35	-36.8	-37.7	23.4	0.00e+00	0	25	0	430964736	46	6243
2026-01-05 12:56:00.01	49.98	17.42	-37.2	-38.2	22.7	0.00e+00	0	25	0	433061888	46	6551
2026-01-05 12:56:01.02	50.18	17.48	-37.0	-37.9	23.4	0.00e+00	0	25	0	435159040	46	6365
2026-01-05 12:56:02.02	50.37	17.55	-37.1	-38.0	23.3	0.00e+00	64	25	0	437256192	46	6436
2026-01-05 12:56:03.03	50.56	17.61	-36.9	-37.8	23.5	0.00e+00	0	25	0	438304768	46	6277
2026-01-05 12:56:04.04	50.76	17.68	-36.8	-37.7	23.6	0.00e+00	53	25	0	440401920	46	6203
2026-01-05 12:56:05.05	50.95	17.75	-36.9	-37.8	23.5	0.00e+00	0	25	0	442499072	46	6260
2026-01-05 12:56:06.06	51.15	17.81	-37.1	-38.0	23.3	0.00e+00	0	25	0	444596224	46	6438
2026-01-05 12:56:07.07	51.35	17.88	-37.1	-38.1	23.3	0.00e+00	0	25	0	446693376	46	6479
2026-01-05 12:56:08.08	51.55	17.94	-37.2	-38.2	23.2	0.00e+00	0	25	0	448790528	46	6567
2026-01-05 12:56:09.09	51.74	18.01	-37.3	-38.2	23.2	0.00e+00	62	25	0	449839104	46	6575
2026-01-05 12:56:10.10	51.94	18.07	-37.4	-38.4	23.1	0.00e+00	4	25	0	451936256	46	6700
2026-01-05 12:56:11.11	52.14	18.14	-37.2	-38.1	23.3	0.00e+00	90	25	0	454033408	46	6519
2026-01-05 12:56:12.12	52.35	18.20	-37.3	-38.2	23.3	0.00e+00	0	25	0	456130560	46	6590
2026-01-05 12:56:13.13	52.55	18.27	-36.9	-37.8	23.4	0.00e+00	30	25	0	458227712	46	6317
2026-01-05 12:56:14.14	52.75	18.33	-36.7	-37.5	23.7	0.00e+00	0	25	0	459276288	46	6089
2026-01-05 12:56:15.15	52.96	18.39	-36.8	-37.6	23.5	0.00e+00	0	25	0	461373440	46	6170
2026-01-05 12:56:16.16	53.16	18.46	-36.9	-37.8	23.4	0.00e+00	3	25	0	463470592	46	6313
2026-01-05 12:56:17.16	53.37	18.52	-37.3	-38.2	23.2	0.00e+00	0	25	0	465567744	46	6588
2026-01-05 12:56:18.17	53.57	18.58	-37.4	-38.3	23.1	0.00e+00	91	25	0	467664896	46	6662
2026-01-05 12:56:19.18	53.78	18.65	-37.7	-38.7	22.8	0.00e+00	0	25	0	468713472	46	6976
2026-01-05 12:56:20.19	53.99	18.71	-37.8	-38.8	22.8	0.00e+00	91	25	0	470810624	48	6249
2026-01-05 12:56:21.20	54.20	18.77	-37.5	-38.4	23.1	0.00e+00	0	25	0	472907776	48	6023
2026-01-05 12:56:22.21	54.41	18.84	-37.4	-38.3	23.2	0.00e+00	0	25	0	475004928	48	5944
2026-01-05 12:56:23.22	54.62	18.90	-37.2	-38.2	23.3	0.00e+00	63	25	0	477102080	48	5831
2026-01-05 12:56:24.23	54.83	18.96	-37.3	-38.3	23.2	0.00e+00	0	25	0	478150656	48	5903
2026-01-05 12:56:25.24	55.04	19.02	-37.7	-38.7	22.7	0.00e+00	0	25	0	480247808	48	6211
2026-01-05 12:56:26.25	55.26	19.08	-37.9	-38.9	22.7	0.00e+00	0	25	0	482344960	48	6318
2026-01-05 12:56:27.26	55.47	19.15	-38.4	-39.4	22.2	0.00e+00	92	25	0	484442112	48	6757
2026-01-05 12:56:28.27	55.69	19.21	-38.5	-39.6	22.1	0.00e+00	0	25	0	486539264	48	6871
2026-01-05 12:56:29.28	55.90	19.27	-38.3	-39.4	22.2	0.00e+00	0	25	0	487587840	48	6721
2026-01-05 12:56:30.29	56.12	19.33	-38.1	-39.2	22.3	0.00e+00	2	25	0	489684992	48	6549
2026-01-05 12:56:31.30	56.34	19.39	-37.8	-38.7	22.8	0.00e+00	0	25	0	491782144	48	6243
2026-01-05 12:56:32.31	56.55	19.45	-37.9	-38.8	22.7	0.00e+00	90	25	0	493879296	48	6317
2026-01-05 12:56:33.32	56.77	19.51	-37.8	-38.8	22.6	0.00e+00	0	25	0	495976448	48	6247
2026-01-05 12:56:34.33	56.99	19.57	-37.8	-38.8	22.7	0.00e+00	90	25	0	497025024	48	6277
2026-01-05 12:56:35.34	57.22	19.63	-38.1	-39.1	22.3	0.00e+00	0	25	0	499122176	48	6534
2026-01-05 12:56:36.34	57.43	19.69	-38.5	-39.5	22.1	0.00e+00	0	25	0	501219328	48	6825
2026-01-05 12:56:37.35	57.66	19.75	-38.3	-39.4	22.3	0.00e+00	0	25	0	503316480	48	6707
2026-01-05 12:56:38.36	57.88	19.81	-38.4	-39.5	22.2	0.00e+00	0	25	0	505413632	48	6778
2026-01-05 12:56:39.37	58.11	19.86	-38.5	-39.5	22.1	0.00e+00	78	25	0	506462208	48	6845
2026-01-05 12:56:40.38	58.33	19.92	-38.4	-39.5	22.2	0.00e+00	0	25	0	508559360	48	6782
2026-01-05 12:56:41.39	58.56	19.98	-38.5	-39.5	22.1	0.00e+00	92	25	0	510656512	48	6835
2026-01-05 12:56:42.40	58.78	20.04	-38.6	-39.7	21.9	0.00e+00	0	25	0	512753664	48	6939
2026-01-05 12:56:43.41	59.01	20.09	-38.9	-40.0	21.6	0.00e+00	0	25	0	514850816	50	6445
2026-01-05 12:56:44.42	59.24	20.15	-38.9	-40.0	21.7	0.00e+00	0	25	0	516947968	50	6430
2026-01-05 12:56:45.43	59.47	20.21	-39.0	-40.1	21.9	0.00e+00	0	25	0	517996544	50	6501
2026-01-05 12:56:46.44	59.70	20.26	-38.5	-39.6	22.1	0.00e+00	80	25	0	520093696	50	6137
2026-01-05 12:56:47.45	59.93	20.32	-38.5	-39.5	22.3	0.00e+00	0	25	0	522190848	50	6075
2026-01-05 12:56:48.46	60.16	20.38	-38.3	-39.4	22.4	0.00e+00	43	25	0	524288000	50	5970
2026-01-05 12:56:49.47	60.40	20.43	-37.9	-38.9	22.8	0.00e+00	0	25	0	526385152	50	5651
2026-01-05 12:56:50.48	60.63	20.49	-37.9	-38.9	22.7	0.00e+00	0	25	0	527433728	50	5657
2026-01-05 12:56:51.49	60.86	20.54	-37.7	-38.7	22.9	0.00e+00	0	25	0	529530880	48	6188
2026-01-05 12:56:52.49	61.10	20.59	-37.6	-38.6	22.9	0.00e+00	0	25	0	531628032	48	6172
2026-01-05 12:56:53.50	61.33	20.65	-37.7	-38.7	22.9	0.00e+00	0	25	0	533725184	48	6177
2026-01-05 12:56:54.51	61.57	20.70	-37.8	-38.8	22.8	0.00e+00	0	25	0	535822336	48	6304
2026-01-05 12:56:55.52	61.81	20.75	-37.8	-38.8	22.7	0.00e+00	89	25	0	536870912	48	6285
2026-01-05 12:56:56.53	62.04	20.81	-38.1	-39.1	22.5	0.00e+00	0	25	0	538968064	48	6535
2026-01-05 12:56:57.53	62.28	20.86	-38.3	-39.3	22.3	0.00e+00	92	25	0	541065216	48	6649
2026-01-05 12:56:58.54	62.52	20.91	-38.6	-39.7	22.2	0.00e+00	0	25	0	543162368	48	6953
2026-01-05 12:56:59.55	62.76	20.96	-38.7	-39.8	21.9	0.00e+00	0	25	0	545259520	50	6277
2026-01-05 12:57:00.55	63.00	21.01	-38.7	-39.8	22.1	0.00e+00	0	25	0	546308096	50	6280
2026-01-05 12:57:01.56	63.24	21.06	-38.2	-39.2	22.5	0.00e+00	0	25	0	548405248	50	5856
2026-01-05 12:57:02.57	63.49	21.11	-37.7	-38.6	22.9	0.00e+00	22	25	0	550502400	48	6169
2026-01-05 12:57:03.58	63.73	21.16	-37.4	-38.4	23.1	0.00e+00	0	25	0	552599552	48	5988
2026-01-05 12:57:04.59	63.98	21.21	-37.4	-38.3	23.1	0.00e+00	92	25	0	554696704	48	5935
2026-01-05 12:57:05.60	64.22	21.26	-37.6	-38.5	23.0	0.00e+00	0	25	0	555745280	48	6087
2026-01-05 12:57:06.61	64.47	21.31	-38.1	-39.1	22.4	0.00e+00	0	25	0	557842432	48	6504
2026-01-05 12:57:07.62	64.71	21.36	-37.7	-38.7	22.5	0.00e+00	0	25	0	559939584	48	6211
2026-01-05 12:57:08.63	64.96	21.41	-37.9	-38.9	22.6	0.00e+00	0	25	0	562036736	48	6385
2026-01-05 12:57:09.63	65.21	21.45	-37.9	-38.9	22.7	0.00e+00	2	25	0	564133888	48	6339
2026-01-05 12:57:10.64	65.46	21.50	-37.9	-38.9	22.7	0.00e+00	0	25	0	565182464	48	6363
2026-01-05 12:57:11.65	65.71	21.55	-37.7	-38.7	22.9	0.00e+00	92	25	0	567279616	48	6195
2026-01-05 12:57:12.66	65.96	21.59	-38.0	-39.0	22.5	0.00e+00	0	25	0	569376768	48	6400
2026-01-05 12:57:13.67	66.21	21.64	-38.3	-39.3	22.3	0.00e+00	0	25	0	571473920	48	6656
2026-01-05 12:57:14.68	66.46	21.68	-38.5	-39.6	22.1	0.00e+00	0	25	0	573571072	48	6862
2026-01-05 12:57:15.69	66.71	21.73	-38.4	-39.5	22.2	0.00e+00	0	25	0	574619648	48	6788
2026-01-05 12:57:16.70	66.97	21.77	-38.1	-39.1	22.6	0.00e+00	71	25	0	576716800	48	6506
2026-01-05 12:57:17.71	67.22	21.82	-37.4	-38.4	23.0	0.00e+00	0	25	0	578813952	48	5987
2026-01-05 12:57:18.72	67.48	21.86	-37.0	-37.9	23.4	0.00e+00	92	25	0	580911104	48	5690
2026-01-05 12:57:19.73	67.73	21.90	-37.0	-37.9	23.2	0.00e+00	0	25	0	583008256	48	5657
2026-01-05 12:57:20.74	67.99	21.94	-37.3	-38.2	23.2	0.00e+00	0	25	0	584056832	48	5876
2026-01-05 12:57:21.75	68.25	21.99	-37.7	-38.7	22.8	0.00e+00	0	25	0	586153984	48	6225
2026-01-05 12:57:22.76	68.50	22.03	-38.1	-39.1	22.6	0.00e+00	0	25	0	588251136	48	6483
2026-01-05 12:57:23.77	68.76	22.07	-37.9	-38.9	22.7	0.00e+00	65	25	0	590348288	48	6377
2026-01-05 12:57:24.78	69.02	22.11	-37.9	-38.9	22.8	0.00e+00	0	25	0	592445440	48	6328
2026-01-05 12:57:25.78	69.28	22.15	-37.8	-38.8	22.7	0.00e+00	87	25	0	593494016	48	6300
2026-01-05 12:57:26.79	69.54	22.19	-37.6	-38.6	23.1	0.00e+00	0	25	0	595591168	48	6109
2026-01-05 12:57:27.80	69.80	22.22	-37.5	-38.4	23.0	0.00e+00	90	25	0	597688320	48	6010
2026-01-05 12:57:28.81	70.06	22.26	-37.3	-38.2	23.3	0.00e+00	0	25	0	599785472	48	5880
2026-01-05 12:57:29.82	70.32	22.30	-37.4	-38.4	23.1	0.00e+00	0	25	0	601882624	48	5965
2026-01-05 12:57:30.83	70.59	22.34	-37.3	-38.2	23.2	0.00e+00	48	25	0	602931200	48	5852
2026-01-05 12:57:31.84	70.85	22.37	-37.3	-38.3	23.1	0.00e+00	0	25	0	605028352	48	5911
2026-01-05 12:57:32.84	71.11	22.41	-37.7	-38.7	22.9	0.00e+00	0	25	0	607125504	48	6184
2026-01-05 12:57:33.85	71.38	22.44	-37.7	-38.7	22.9	0.00e+00	0	25	0	609222656	48	6211
2026-01-05 12:57:34.86	71.64	22.48	-38.1	-39.1	22.5	0.00e+00	90	25	0	611319808	48	6503
2026-01-05 12:57:35.87	71.91	22.51	-38.0	-39.0	22.6	0.00e+00	0	25	0	612368384	48	6444
2026-01-05 12:57:36.88	72.17	22.54	-37.7	-38.7	22.9	0.00e+00	0	25	0	614465536	48	6183
2026-01-05 12:57:37.89	72.44	22.58	-37.8	-38.8	22.8	0.00e+00	0	25	0	616562688	48	6263
2026-01-05 12:57:38.90	72.71	22.61	-38.0	-39.0	22.6	0.00e+00	0	25	0	618659840	48	6391
2026-01-05 12:57:39.91	72.98	22.64	-38.2	-39.2	22.5	0.00e+00	81	25	0	620756992	48	6608
2026-01-05 12:57:40.92	73.24	22.67	-38.4	-39.5	21.9	0.00e+00	0	25	0	622854144	48	6785
2026-01-05 12:57:41.92	73.51	22.70	-38.7	-39.8	22.0	0.00e+00	56	25	0	623902720	48	7022
2026-01-05 12:57:42.93	73.78	22.73	-38.7	-39.8	22.1	0.00e+00	0	25	0	625999872	48	7033
2026-01-05 12:57:43.94	74.05	22.76	-38.4	-39.5	22.2	0.00e+00	0	25	0	628097024	48	6799
2026-01-05 12:57:44.95	74.32	22.79	-38.0	-39.0	22.7	0.00e+00	0	25	0	630194176	48	6399
2026-01-05 12:57:45.96	74.59	22.82	-38.0	-39.0	22.7	0.00e+00	0	25	0	632291328	48	6430
2026-01-05 12:57:46.97	74.86	22.84	-38.2	-39.2	22.5	0.00e+00	0	25	0	633339904	48	6557
2026-01-05 12:57:47.98	75.14	22.87	-38.2	-39.2	22.5	0.00e+00	0	25	0	635437056	48	6561
2026-01-05 12:57:48.99	75.41	22.90	-38.1	-39.1	22.6	0.00e+00	91	25	0	637534208	48	6485
2026-01-05 12:57:50.00	75.68	22.92	-37.8	-38.7	22.9	0.00e+00	0	25	0	639631360	48	6243
2026-01-05 12:57:51.01	75.95	22.95	-37.3	-38.2	23.1	0.00e+00	25	25	0	641728512	48	5889
2026-01-05 12:57:52.02	76.23	22.97	-37.1	-38.0	23.5	0.00e+00	0	25	0	642777088	48	5720
2026-01-05 12:57:53.03	76.50	23.00	-36.9	-37.9	23.6	0.00e+00	0	25	0	644874240	48	5644
2026-01-05 12:57:54.03	76.77	23.02	-37.1	-38.0	23.4	0.00e+00	0	25	0	646971392	48	5743
2026-01-05 12:57:55.04	77.05	23.04	-37.5	-38.4	23.0	0.00e+00	0	25	0	649068544	48	6029
2026-01-05 12:57:56.05	77.32	23.06	-38.1	-39.1	22.6	0.00e+00	55	25	0	651165696	48	6501
2026-01-05 12:57:57.06	77.60	23.08	-38.1	-39.2	22.4	0.00e+00	0	25	0	652214272	48	6567
2026-01-05 12:57:58.07	77.88	23.10	-37.7	-38.7	22.9	0.00e+00	0	25	0	654311424	48	6221
2026-01-05 12:57:59.08	78.15	23.12	-37.5	-38.4	23.1	0.00e+00	0	25	0	656408576	48	6011
2026-01-05 12:58:00.09	78.43	23.14	-37.3	-38.2	23.3	0.00e+00	0	25	0	658505728	48	5869
2026-01-05 12:58:01.10	78.71	23.16	-36.9	-37.8	23.5	0.00e+00	0	25	0	660602880	48	5572
2026-01-05 12:58:02.11	78.98	23.18	-37.1	-38.1	23.4	0.00e+00	0	25	0	661651456	48	5764
2026-01-05 12:58:03.12	79.26	23.20	-37.5	-38.4	23.1	0.00e+00	87	25	0	663748608	48	5986
2026-01-05 12:58:04.13	79.54	23.21	-37.7	-38.6	23.0	0.00e+00	0	25	0	665845760	48	6139
2026-01-05 12:58:05.14	79.82	23.23	-37.5	-38.5	23.1	0.00e+00	92	25	0	667942912	48	6049
2026-01-05 12:58:06.15	80.10	23.24	-37.3	-38.2	23.2	0.00e+00	0	25	0	670040064	48	5895
2026-01-05 12:58:07.16	80.38	23.26	-37.3	-38.2	23.2	0.00e+00	0	25	0	671088640	48	5878
2026-01-05 12:58:08.17	80.66	23.27	-37.4	-38.3	23.0	0.00e+00	0	25	0	673185792	48	5944
2026-01-05 12:58:09.17	80.93	23.28	-37.8	-38.8	22.9	0.00e+00	0	25	0	675282944	48	6259
2026-01-05 12:58:10.18	81.21	23.29	-37.8	-38.7	22.8	0.00e+00	87	25	0	677380096	48	6219
2026-01-05 12:58:11.19	81.49	23.31	-37.6	-38.5	22.9	0.00e+00	0	25	0	679477248	48	6096
2026-01-05 12:58:12.20	81.77	23.32	-37.5	-38.5	23.1	0.00e+00	84	25	0	680525824	48	6048
2026-01-05 12:58:13.21	82.05	23.33	-37.4	-38.4	23.1	0.00e+00	0	25	0	682622976	48	5968
2026-01-05 12:58:14.22	82.33	23.34	-37.2	-38.1	23.3	0.00e+00	0	25	0	684720128	48	5803
2026-01-05 12:58:15.23	82.61	23.35	-37.3	-38.3	23.3	0.00e+00	0	25	0	686817280	48	5915
2026-01-05 12:58:16.24	82.89	23.35	-37.4	-38.4	23.1	0.00e+00	0	25	0	688914432	48	5980
2026-01-05 12:58:17.25	83.18	23.36	-37.6	-38.5	22.9	0.00e+00	0	25	0	689963008	48	6090
2026-01-05 12:58:18.26	83.46	23.37	-37.6	-38.6	23.0	0.00e+00	0	25	0	692060160	48	6105
2026-01-05 12:58:19.27	83.74	23.37	-37.5	-38.5	22.9	0.00e+00	92	25	0	694157312	48	6048
2026-01-05 12:58:20.27	84.02	23.38	-37.5	-38.4	23.2	0.00e+00	0	25	0	696254464	48	5997
2026-01-05 12:58:21.28	84.30	23.38	-37.5	-38.5	23.1	0.00e+00	0	25	0	698351616	48	6050
2026-01-05 12:58:22.29	84.58	23.39	-37.5	-38.4	23.1	0.00e+00	0	25	0	699400192	48	6014
2026-01-05 12:58:23.30	84.86	23.39	-37.5	-38.4	23.1	0.00e+00	0	25	0	701497344	48	6021
2026-01-05 12:58:24.31	85.14	23.39	-37.2	-38.1	23.4	0.00e+00	90	25	0	703594496	48	5820
2026-01-05 12:58:25.32	85.42	23.39	-37.2	-38.1	23.3	0.00e+00	0	25	0	705691648	48	5813
2026-01-05 12:58:26.33	85.70	23.40	-37.2	-38.1	23.3	0.00e+00	91	25	0	707788800	48	5779
2026-01-05 12:58:27.34	85.99	23.40	-37.3	-38.2	23.4	0.00e+00	0	25	0	709885952	48	5831
2026-01-05 12:58:28.35	86.27	23.40	-37.4	-38.4	23.2	0.00e+00	0	25	0	710934528	48	5975
2026-01-05 12:58:29.36	86.55	23.39	-37.6	-38.5	23.1	0.00e+00	0	25	0	713031680	48	6060
2026-01-05 12:58:30.37	86.83	23.39	-37.1	-38.0	23.4	0.00e+00	0	25	0	715128832	48	5719
2026-01-05 12:58:31.37	87.11	23.39	-37.3	-38.2	23.2	0.00e+00	41	25	0	717225984	48	5865
2026-01-05 12:58:32.39	87.39	23.39	-37.2	-38.1	23.4	0.00e+00	0	25	0	719323136	48	5787
2026-01-05 12:58:33.40	87.68	23.38	-37.1	-38.0	23.4	0.00e+00	91	25	0	720371712	48	5715
2026-01-05 12:58:34.40	87.95	23.38	-36.8	-37.7	23.6	0.00e+00	31	25	0	722468864	48	5549
2026-01-05 12:58:35.41	88.24	23.37	-36.7	-37.5	23.8	0.00e+00	0	25	0	724566016	46	6083
2026-01-05 12:58:36.42	88.52	23.37	-36.5	-37.4	23.9	0.00e+00	0	25	0	726663168	46	5984
2026-01-05 12:58:37.43	88.80	23.36	-36.3	-37.1	24.1	0.00e+00	0	25	0	728760320	46	5821
2026-01-05 12:58:38.44	89.08	23.35	-36.3	-37.1	24.1	0.00e+00	17	25	0	729808896	46	5827
2026-01-05 12:58:39.45	89.36	23.34	-36.4	-37.2	24.0	0.00e+00	0	25	0	731906048	46	5896
2026-01-05 12:58:40.46	89.64	23.34	-36.6	-37.5	23.8	0.00e+00	80	25	0	734003200	46	6040
2026-01-05 12:58:41.47	89.92	23.33	-36.8	-37.7	22.8	0.00e+00	0	25	0	736100352	46	6233
2026-01-05 12:58:42.48	90.20	23.32	-37.0	-37.8	23.4	0.00e+00	85	25	0	738197504	46	6314
2026-01-05 12:58:43.49	90.48	23.31	-37.0	-37.9	23.5	0.00e+00	0	25	0	739246080	46	6328
2026-01-05 12:58:44.49	90.76	23.29	-37.2	-38.1	23.2	0.00e+00	0	25	0	741343232	46	6512
2026-01-05 12:58:45.50	91.04	23.28	-37.3	-38.3	23.2	0.00e+00	0	25	0	743440384	46	6619
2026-01-05 12:58:46.51	91.32	23.27	-37.4	-38.4	23.1	0.00e+00	0	25	0	745537536	46	6697
2026-01-05 12:58:47.52	91.60	23.25	-37.5	-38.4	23.2	0.00e+00	86	25	0	747634688	46	6728
2026-01-05 12:58:48.53	91.88	23.24	-37.6	-38.5	22.9	0.00e+00	0	25	0	748683264	46	6822
2026-01-05 12:58:49.54	92.16	23.23	-37.4	-38.4	23.0	0.00e+00	44	25	0	750780416	46	6694
2026-01-05 12:58:50.55	92.43	23.21	-37.4	-38.3	23.0	0.00e+00	0	25	0	752877568	46	6663
2026-01-05 12:58:51.56	92.71	23.19	-37.5	-38.5	23.0	0.00e+00	0	25	0	754974720	46	6772
2026-01-05 12:58:52.57	92.99	23.18	-37.3	-38.2	23.3	0.00e+00	0	25	0	757071872	46	6597
2026-01-05 12:58:53.58	93.27	23.16	-37.1	-38.0	23.4	0.00e+00	0	25	0	758120448	46	6459
2026-01-05 12:58:54.59	93.55	23.14	-37.1	-38.0	23.2	0.00e+00	0	25	0	760217600	46	6454
2026-01-05 12:58:55.60	93.82	23.12	-37.2	-38.1	23.4	0.00e+00	0	25	0	762314752	46	6500
2026-01-05 12:58:56.61	94.10	23.10	-37.4	-38.3	23.1	0.00e+00	87	25	0	764411904	46	6650
2026-01-05 12:58:57.62	94.38	23.08	-37.3	-38.3	23.2	0.00e+00	0	25	0	766509056	46	6628
2026-01-05 12:58:58.63	94.65	23.06	-37.2	-38.2	23.3	0.00e+00	0	25	0	767557632	46	6549
2026-01-05 12:58:59.64	94.93	23.04	-36.7	-37.6	23.7	0.00e+00	0	25	0	769654784	46	6118
2026-01-05 12:59:00.65	95.20	23.02	-36.3	-37.2	23.9	0.00e+00	0	25	0	771751936	46	5838
2026-01-05 12:59:01.65	95.48	22.99	-36.2	-37.1	23.9	0.00e+00	0	25	0	773849088	46	5793
2026-01-05 12:59:02.66	95.75	22.97	-36.1	-36.9	24.3	0.00e+00	0	25	0	775946240	46	5663
2026-01-05 12:59:03.67	96.02	22.94	-36.0	-36.9	24.2	0.00e+00	86	25	0	778043392	46	5639
2026-01-05 12:59:04.68	96.30	22.92	-36.1	-37.0	24.1	0.00e+00	0	25	0	779091968	46	5705
2026-01-05 12:59:05.69	96.57	22.89	-36.2	-37.0	24.1	0.00e+00	0	25	0	781189120	46	5760
2026-01-05 12:59:06.70	96.84	22.87	-36.1	-37.0	24.1	0.00e+00	0	25	0	783286272	46	5712
2026-01-05 12:59:07.71	97.12	22.84	-36.0	-36.9	24.2	0.00e+00	0	25	0	785383424	46	5644
2026-01-05 12:59:08.72	97.39	22.81	-35.6	-36.4	24.5	0.00e+00	73	25	0	787480576	44	6004
2026-01-05 12:59:09.72	97.66	22.79	-35.3	-36.1	24.7	0.00e+00	0	25	0	788529152	44	5791
2026-01-05 12:59:10.73	97.93	22.76	-35.5	-36.3	24.6	0.00e+00	88	25	0	790626304	44	5964
2026-01-05 12:59:11.74	98.20	22.73	-35.7	-36.5	24.3	0.00e+00	0	25	0	792723456	44	6090
2026-01-05 12:59:12.75	98.47	22.70	-35.8	-36.6	24.4	0.00e+00	92	25	0	794820608	44	6171
2026-01-05 12:59:13.76	98.74	22.67	-36.0	-36.8	24.2	0.00e+00	0	25	0	795869184	44	6279
2026-01-05 12:59:14.77	99.01	22.64	-36.1	-36.9	24.0	0.00e+00	0	25	0	797966336	44	6354
2026-01-05 12:59:15.78	99.28	22.60	-36.4	-37.3	23.8	0.00e+00	0	25	0	800063488	44	6665
2026-01-05 12:59:16.79	99.54	22.57	-36.3	-37.1	24.0	0.00e+00	0	25	0	802160640	44	6526
2026-01-05 12:59:17.80	99.81	22.54	-36.2	-37.1	24.0	0.00e+00	33	25	0	804257792	44	6489
2026-01-05 12:59:18.81	100.08	22.51	-36.0	-36.9	24.1	0.00e+00	0	25	0	806354944	44	6318
2026-01-05 12:59:19.82	100.35	22.47	-35.9	-36.8	24.2	0.00e+00	92	25	0	807403520	44	6263
2026-01-05 12:59:20.83	100.61	22.44	-36.0	-36.8	24.3	0.00e+00	0	25	0	809500672	44	6292
2026-01-05 12:59:21.83	100.87	22.40	-36.1	-37.0	24.0	0.00e+00	0	25	0	811597824	44	6402
2026-01-05 12:59:22.84	101.14	22.37	-36.2	-37.1	23.9	0.00e+00	0	25	0	813694976	44	6466
2026-01-05 12:59:23.85	101.40	22.33	-35.8	-36.7	24.2	0.00e+00	0	25	0	815792128	44	6177
2026-01-05 12:59:24.86	101.67	22.29	-35.9	-36.7	24.4	0.00e+00	27	25	0	816840704	44	6212
2026-01-05 12:59:25.87	101.93	22.25	-35.4	-36.2	24.6	0.00e+00	0	25	0	818937856	44	5856
2026-01-05 12:59:26.88	102.19	22.22	-35.4	-36.2	24.6	0.00e+00	90	25	0	821035008	44	5848
2026-01-05 12:59:27.89	102.45	22.18	-34.8	-35.6	25.1	0.00e+00	0	25	0	823132160	44	5443
2026-01-05 12:59:28.90	102.71	22.14	-34.7	-35.5	25.2	0.00e+00	0	25	0	825229312	42	6051
2026-01-05 12:59:29.91	102.97	22.10	-34.8	-35.5	25.1	0.00e+00	0	25	0	826277888	42	6086
2026-01-05 12:59:30.92	103.23	22.06	-34.8	-35.6	25.1	0.00e+00	33	25	0	828375040	42	6139
2026-01-05 12:59:31.92	103.49	22.02	-34.8	-35.6	25.0	0.00e+00	73	25	0	830472192	42	6152
2026-01-05 12:59:32.93	103.75	21.98	-35.0	-35.8	24.9	0.00e+00	0	25	0	832569344	42	6302
2026-01-05 12:59:33.94	104.00	21.94	-35.5	-36.3	24.6	0.00e+00	90	25	0	834666496	42	6670
2026-01-05 12:59:34.95	104.26	21.89	-35.6	-36.4	24.5	0.00e+00	0	25	0	835715072	42	6727
2026-01-05 12:59:35.96	104.52	21.85	-35.3	-36.2	24.8	0.00e+00	0	25	0	837812224	42	6541
2026-01-05 12:59:36.97	104.77	21.81	-35.2	-36.0	24.9	0.00e+00	0	25	0	839909376	42	6455
2026-01-05 12:59:37.98	105.03	21.76	-35.2	-36.0	24.8	0.00e+00	0	25	0	842006528	42	6451
2026-01-05 12:59:38.99	105.28	21.72	-35.3	-36.1	24.8	0.00e+00	0	25	0	844103680	42	6483
2026-01-05 12:59:40.00	105.54	21.67	-35.5	-36.3	24.6	0.00e+00	0	25	0	845152256	42	6642
2026-01-05 12:59:41.01	105.79	21.63	-35.5	-36.3	24.6	0.00e+00	92	25	0	847249408	42	6676
2026-01-05 12:59:42.02	106.04	21.58	-35.7	-36.5	24.4	0.00e+00	0	25	0	849346560	42	6828
2026-01-05 12:59:43.03	106.29	21.54	-35.5	-36.3	24.5	0.00e+00	21	25	0	851443712	44	5932
2026-01-05 12:59:44.04	106.54	21.49	-35.5	-36.3	24.6	0.00e+00	0	25	0	853540864	44	5933
2026-01-05 12:59:45.05	106.79	21.44	-35.7	-36.6	24.5	0.00e+00	0	25	0	854589440	44	6107
2026-01-05 12:59:46.05	107.04	21.40	-35.7	-36.5	24.5	0.00e+00	9	25	0	856686592	44	6062
2026-01-05 12:59:47.06	107.29	21.35	-35.8	-36.6	24.4	0.00e+00	0	25	0	858783744	44	6148
2026-01-05 12:59:48.07	107.53	21.30	-35.6	-36.4	24.4	0.00e+00	92	25	0	860880896	44	6031
2026-01-05 12:59:49.08	107.78	21.25	-35.7	-36.6	24.4	0.00e+00	0	25	0	862978048	44	6117
2026-01-05 12:59:50.09	108.03	21.20	-35.9	-36.8	24.2	0.00e+00	92	25	0	864026624	44	6253
2026-01-05 12:59:51.10	108.27	21.15	-36.4	-37.2	23.9	0.00e+00	0	25	0	866123776	44	6609
2026-01-05 12:59:52.11	108.52	21.10	-35.9	-36.7	24.4	0.00e+00	0	25	0	868220928	44	6222
2026-01-05 12:59:53.12	108.76	21.05	-35.7	-36.5	24.5	0.00e+00	0	25	0	870318080	44	6100
2026-01-05 12:59:54.13	109.00	21.00	-35.4	-36.3	24.6	0.00e+00	28	25	0	872415232	44	5907
2026-01-05 12:59:55.13	109.24	20.95	-35.5	-36.4	24.4	0.00e+00	89	25	0	874512384	44	5967
2026-01-05 12:59:56.14	109.49	20.90	-35.8	-36.7	24.1	0.00e+00	0	25	0	875560960	44	6200
2026-01-05 12:59:57.15	109.73	20.84	-36.1	-36.9	24.1	0.00e+00	92	25	0	877658112	44	6356
2026-01-05 12:59:58.16	109.97	20.79	-36.3	-37.1	23.9	0.00e+00	0	25	0	879755264	44	6533
2026-01-05 12:59:59.17	110.20	20.74	-36.6	-37.5	23.6	0.00e+00	0	25	0	881852416	44	6809
2026-01-05 13:00:00.18	110.44	20.69	-36.8	-37.7	23.5	0.00e+00	31	25	0	883949568	46	6194
2026-01-05 13:00:01.19	110.68	20.63	-36.5	-37.3	23.8	0.00e+00	0	25	0	884998144	46	5960
2026-01-05 13:00:02.19	110.91	20.58	-37.0	-37.9	23.2	0.00e+00	0	25	0	887095296	46	6384
2026-01-05 13:00:03.20	111.15	20.52	-37.2	-38.1	23.1	0.00e+00	0	25	0	889192448	46	6533
2026-01-05 13:00:04.21	111.39	20.47	-37.4	-38.4	23.0	0.00e+00	76	25	0	891289600	46	6716
2026-01-05 13:00:05.22	111.62	20.41	-37.7	-38.7	22.9	0.00e+00	0	25	0	893386752	46	6945
2026-01-05 13:00:06.23	111.85	20.36	-37.1	-38.1	23.3	0.00e+00	0	25	0	894435328	46	6475
2026-01-05 13:00:07.24	112.09	20.30	-37.0	-37.9	23.3	0.00e+00	0	25	0	896532480	46	6372
2026-01-05 13:00:08.25	112.32	20.25	-36.9	-37.8	23.5	0.00e+00	0	25	0	898629632	46	6248
2026-01-05 13:00:09.26	112.55	20.19	-36.3	-37.2	23.9	0.00e+00	0	25	0	900726784	46	5860
2026-01-05 13:00:10.27	112.78	20.13	-36.3	-37.2	24.0	0.00e+00	0	25	0	902823936	46	5856
2026-01-05 13:00:11.28	113.01	20.07	-36.6	-37.5	23.7	0.00e+00	87	25	0	903872512	46	6046
2026-01-05 13:00:12.29	113.24	20.02	-37.1	-38.0	23.0	0.00e+00	0	25	0	905969664	46	6446
2026-01-05 13:00:13.30	113.46	19.96	-37.2	-38.2	23.2	0.00e+00	92	25	0	908066816	46	6560
2026-01-05 13:00:14.31	113.69	19.90	-37.1	-38.0	23.3	0.00e+00	0	25	0	910163968	46	6458
2026-01-05 13:00:15.32	113.92	19.84	-37.1	-38.0	23.5	0.00e+00	0	25	0	912261120	46	6434
2026-01-05 13:00:16.32	114.14	19.78	-36.8	-37.7	23.6	0.00e+00	0	25	0	913309696	46	6227
2026-01-05 13:00:17.33	114.36	19.73	-36.9	-37.8	23.5	0.00e+00	0	25	0	915406848	46	6300
2026-01-05 13:00:18.34	114.59	19.67	-36.9	-37.8	23.4	0.00e+00	88	25	0	917504000	46	6293
2026-01-05 13:00:19.35	114.81	19.61	-37.1	-38.0	23.2	0.00e+00	0	25	0	919601152	46	6459
2026-01-05 13:00:20.36	115.03	19.55	-37.3	-38.3	23.2	0.00e+00	91	25	0	921698304	46	6623
2026-01-05 13:00:21.36	115.25	19.49	-37.5	-38.5	23.0	0.00e+00	0	25	0	922746880	46	6788
2026-01-05 13:00:22.37	115.47	19.43	-37.7	-38.7	22.8	0.00e+00	0	25	0	924844032	46	6948
2026-01-05 13:00:23.38	115.69	19.37	-37.4	-38.4	23.0	0.00e+00	0	25	0	926941184	48	5997
2026-01-05 13:00:24.39	115.91	19.30	-37.3	-38.2	23.1	0.00e+00	0	25	0	929038336	48	5880
2026-01-05 13:00:25.40	116.12	19.24	-37.2	-38.1	23.3	0.00e+00	16	25	0	931135488	48	5804
2026-01-05 13:00:26.41	116.34	19.18	-37.0	-37.9	23.4	0.00e+00	0	25	0	932184064	48	5675
2026-01-05 13:00:27.41	116.55	19.12	-37.0	-37.9	23.4	0.00e+00	84	25	0	934281216	48	5659
2026-01-05 13:00:28.42	116.77	19.06	-37.0	-37.9	23.4	0.00e+00	0	25	0	936378368	48	5672
2026-01-05 13:00:29.43	116.98	19.00	-37.3	-38.2	23.2	0.00e+00	0	25	0	938475520	48	5851
2026-01-05 13:00:30.44	117.20	18.93	-37.4	-38.4	23.0	0.00e+00	0	25	0	940572672	48	5972
2026-01-05 13:00:31.45	117.41	18.87	-37.7	-38.6	22.9	0.00e+00	0	25	0	941621248	48	6171
2026-01-05 13:00:32.46	117.62	18.81	-37.2	-38.1	23.2	0.00e+00	81	25	0	943718400	48	5804
2026-01-05 13:00:33.47	117.83	18.75	-37.3	-38.2	23.2	0.00e+00	0	25	0	945815552	48	5866
2026-01-05 13:00:34.48	118.04	18.68	-37.2	-38.1	23.2	0.00e+00	62	25	0	947912704	48	5792
2026-01-05 13:00:35.49	118.25	18.62	-37.2	-38.1	23.1	0.00e+00	0	25	0	950009856	48	5813
2026-01-05 13:00:36.50	118.46	18.56	-37.4	-38.4	22.9	0.00e+00	14	25	0	951058432	48	6004
2026-01-05 13:00:37.51	118.66	18.49	-37.2	-38.2	23.2	0.00e+00	0	25	0	953155584	48	5829
2026-01-05 13:00:38.52	118.87	18.43	-37.5	-38.5	23.0	0.00e+00	0	25	0	955252736	48	6072
2026-01-05 13:00:39.53	119.08	18.36	-37.8	-38.8	22.7	0.00e+00	0	25	0	957349888	48	6309
2026-01-05 13:00:40.54	119.28	18.30	-37.5	-38.5	23.0	0.00e+00	0	25	0	959447040	48	6043
2026-01-05 13:00:41.55	119.49	18.23	-37.6	-38.5	22.8	0.00e+00	76	25	0	960495616	48	6091
2026-01-05 13:00:42.56	119.69	18.17	-37.4	-38.4	23.0	0.00e+00	0	25	0	962592768	48	6003
2026-01-05 13:00:43.57	119.89	18.10	-37.3	-38.3	23.2	0.00e+00	17	25	0	964689920	48	5943
2026-01-05 13:00:44.58	120.09	18.04	-37.4	-38.4	23.0	0.00e+00	0	25	0	966787072	48	5988
2026-01-05 13:00:45.59	120.29	17.97	-37.4	-38.3	23.1	0.00e+00	0	25	0	968884224	48	5940
2026-01-05 13:00:46.60	120.49	17.91	-37.3	-38.2	23.2	0.00e+00	0	25	0	970981376	48	5876
2026-01-05 13:00:47.61	120.69	17.84	-37.2	-38.2	23.2	0.00e+00	0	25	0	972029952	48	5853
2026-01-05 13:00:48.62	120.89	17.78	-37.3	-38.3	23.1	0.00e+00	84	25	0	974127104	48	5929
2026-01-05 13:00:49.63	121.09	17.71	-37.0	-37.9	23.5	0.00e+00	0	25	0	976224256	48	5682
2026-01-05 13:00:50.64	121.28	17.64	-37.1	-38.0	23.3	0.00e+00	92	25	0	978321408	48	5736
2026-01-05 13:00:51.65	121.48	17.58	-36.5	-37.4	23.9	0.00e+00	0	25	0	980418560	46	5973
2026-01-05 13:00:52.66	121.67	17.51	-36.4	-37.2	23.9	0.00e+00	0	25	0	981467136	46	5872
2026-01-05 13:00:53.67	121.87	17.45	-36.5	-37.4	23.7	0.00e+00	0	25	0	983564288	46	5982
2026-01-05 13:00:54.68	122.06	17.38	-36.5	-37.4	23.7	0.00e+00	0	25	0	985661440	46	5982
2026-01-05 13:00:55.69	122.25	17.31	-36.6	-37.4	23.7	0.00e+00	68	25	0	987758592	46	6033
2026-01-05 13:00:56.70	122.44	17.24	-37.0	-37.9	23.4	0.00e+00	0	25	0	989855744	46	6371
2026-01-05 13:00:57.71	122.63	17.18	-37.3	-38.2	23.1	0.00e+00	85	25	0	990904320	46	6599
2026-01-05 13:00:58.71	122.82	17.11	-37.4	-38.4	23.0	0.00e+00	0	25	0	993001472	46	6724
2026-01-05 13:00:59.72	123.01	17.04	-37.5	-38.4	23.0	0.00e+00	0	25	0	995098624	46	6756
2026-01-05 13:01:00.73	123.20	16.98	-37.3	-38.3	23.2	0.00e+00	0	25	0	997195776	46	6637
2026-01-05 13:01:01.74	123.39	16.91	-37.3	-38.3	23.2	0.00e+00	0	25	0	999292928	46	6645
2026-01-05 13:01:02.75	123.57	16.84	-37.7	-38.7	22.7	0.00e+00	5	25	0	1000341504	46	6955
2026-01-05 13:01:03.76	123.76	16.77	-38.0	-39.1	22.5	0.00e+00	0	25	0	1002438656	48	6493
2026-01-05 13:01:04.77	123.94	16.71	-38.7	-39.9	22.1	0.00e+00	92	25	0	1004535808	50	6330
2026-01-05 13:01:05.78	124.13	16.64	-38.5	-39.6	22.0	0.00e+00	0	25	0	1006632960	50	6157
2026-01-05 13:01:06.79	124.31	16.57	-38.6	-39.7	22.1	0.00e+00	0	25	0	1008730112	50	6196
2026-01-05 13:01:07.79	124.49	16.50	-38.6	-39.7	21.8	0.00e+00	0	25	0	1009778688	50	6237
2026-01-05 13:01:08.80	124.67	16.43	-38.3	-39.4	22.3	0.00e+00	0	25	0	1011875840	50	5967
2026-01-05 13:01:09.81	124.85	16.37	-37.5	-38.4	23.0	0.00e+00	0	25	0	1013972992	48	6012
2026-01-05 13:01:10.82	125.03	16.30	-37.1	-38.1	23.2	0.00e+00	0	25	0	1016070144	48	5779
2026-01-05 13:01:11.83	125.21	16.23	-36.7	-37.6	23.6	0.00e+00	87	25	0	1018167296	48	5466
2026-01-05 13:01:12.84	125.39	16.16	-36.4	-37.3	23.8	0.00e+00	0	25	0	1019215872	46	5936
2026-01-05 13:01:13.85	125.57	16.09	-36.5	-37.4	23.7	0.00e+00	0	25	0	1021313024	46	6006
2026-01-05 13:01:14.86	125.75	16.02	-36.8	-37.7	23.6	0.00e+00	0	25	0	1023410176	46	6205
2026-01-05 13:01:15.87	125.92	15.96	-37.2	-38.1	23.2	0.00e+00	0	25	0	1025507328	46	6528
2026-01-05 13:01:16.88	126.10	15.89	-37.5	-38.5	22.9	0.00e+00	65	25	0	1027604480	46	6799
2026-01-05 13:01:17.89	126.27	15.82	-37.8	-38.8	22.7	0.00e+00	0	25	0	1028653056	48	6284
2026-01-05 13:01:18.90	126.45	15.75	-37.6	-38.6	22.8	0.00e+00	90	25	0	1030750208	48	6137
2026-01-05 13:01:19.91	126.62	15.68	-37.7	-38.6	22.8	0.00e+00	0	25	0	1032847360	48	6163
2026-01-05 13:01:20.92	126.79	15.61	-37.1	-38.1	23.3	0.00e+00	58	25	0	1034944512	48	5766
2026-01-05 13:01:21.93	126.96	15.54	-36.8	-37.7	23.5	0.00e+00	0	25	0	1037041664	48	5548
2026-01-05 13:01:22.94	127.13	15.47	-36.7	-37.6	23.6	0.00e+00	0	25	0	1039138816	48	5482
2026-01-05 13:01:23.95	127.30	15.40	-36.7	-37.6	23.6	0.00e+00	0	25	0	1040187392	46	6119
2026-01-05 13:01:24.95	127.47	15.34	-36.7	-37.6	23.4	0.00e+00	0	25	0	1042284544	46	6166
2026-01-05 13:01:25.97	127.64	15.27	-37.0	-37.9	23.1	0.00e+00	84	25	0	1044381696	46	6389
2026-01-05 13:01:26.97	127.81	15.20	-37.1	-38.0	23.1	0.00e+00	0	25	0	1046478848	46	6462
2026-01-05 13:01:27.98	127.97	15.13	-37.6	-38.5	22.8	0.00e+00	90	25	0	1048576000	46	6838
2026-01-05 13:01:28.99	128.14	15.06	-37.6	-38.6	22.8	0.00e+00	0	25	0	1049624576	46	6905
2026-01-05 13:01:30.00	128.30	14.99	-37.4	-38.4	23.0	0.00e+00	0	25	0	1051721728	46	6698
2026-01-05 13:01:31.01	128.47	14.92	-37.2	-38.2	23.1	0.00e+00	33	25	0	1053818880	46	6556
2026-01-05 13:01:32.02	128.63	14.85	-37.1	-38.0	23.2	0.00e+00	0	25	0	1055916032	46	6420
2026-01-05 13:01:33.03	128.80	14.78	-37.3	-38.2	23.2	0.00e+00	51	25	0	1058013184	46	6562
2026-01-05 13:01:34.04	128.96	14.71	-37.2	-38.2	23.2	0.00e+00	0	25	0	1059061760	46	6556
2026-01-05 13:01:35.05	129.12	14.64	-37.5	-38.4	22.9	0.00e+00	54	25	0	1061158912	46	6766
2026-01-05 13:01:36.06	129.28	14.57	-37.7	-38.7	22.7	0.00e+00	0	25	0	1063256064	46	6992
2026-01-05 13:01:37.07	129.44	14.51	-37.9	-38.9	22.5	0.00e+00	0	25	0	1065353216	48	6351
2026-01-05 13:01:38.08	129.60	14.44	-38.2	-39.2	22.3	0.00e+00	0	25	0	1067450368	48	6587
2026-01-05 13:01:39.09	129.76	14.37	-38.0	-39.0	22.5	0.00e+00	0	25	0	1068498944	48	6401
2026-01-05 13:01:40.10	129.92	14.30	-38.1	-39.1	22.4	0.00e+00	29	25	0	1070596096	48	6533
2026-01-05 13:01:41.11	130.08	14.23	-37.9	-38.9	22.4	0.00e+00	0	25	0	1072693248	48	6383
2026-01-05 13:01:42.11	130.23	14.16	-37.7	-38.7	22.7	0.00e+00	78	25	0	1074790400	48	6176
2026-01-05 13:01:43.12	130.39	14.09	-37.5	-38.5	22.9	0.00e+00	0	25	0	1076887552	48	6079
2026-01-05 13:01:44.13	130.54	14.02	-37.5	-38.4	22.9	0.00e+00	0	25	0	1077936128	48	6023
2026-01-05 13:01:45.14	130.70	13.95	-37.5	-38.5	22.7	0.00e+00	0	25	0	1080033280	48	6070
2026-01-05 13:01:46.15	130.85	13.88	-37.8	-38.8	22.6	0.00e+00	0	25	0	1082130432	48	6283
2026-01-05 13:01:47.16	131.00	13.81	-38.0	-39.0	22.4	0.00e+00	82	25	0	1084227584	48	6454
2026-01-05 13:01:48.17	131.16	13.74	-38.3	-39.4	22.1	0.00e+00	0	25	0	1086324736	48	6738
2026-01-05 13:01:49.17	131.31	13.68	-38.8	-40.0	21.6	0.00e+00	92	25	0	1087373312	48	7173
2026-01-05 13:01:50.18	131.46	13.61	-39.0	-40.1	21.5	0.00e+00	28	25	0	1089470464	50	6529
2026-01-05 13:01:51.19	131.61	13.54	-38.9	-40.0	21.8	0.00e+00	20	25	0	1091567616	50	6431
2026-01-05 13:01:52.20	131.76	13.47	-38.6	-39.7	21.8	0.00e+00	0	25	0	1093664768	50	6198
2026-01-05 13:01:53.21	131.91	13.40	-38.5	-39.6	22.0	0.00e+00	0	25	0	1095761920	50	6134
2026-01-05 13:01:54.22	132.06	13.33	-38.2	-39.2	22.3	0.00e+00	86	25	0	1096810496	50	5863
2026-01-05 13:01:55.23	132.20	13.26	-37.9	-39.0	22.4	0.00e+00	0	25	0	1098907648	50	5704
2026-01-05 13:01:56.24	132.35	13.19	-38.0	-39.1	22.4	0.00e+00	84	25	0	1101004800	50	5763
2026-01-05 13:01:57.25	132.50	13.12	-37.9	-38.8	22.6	0.00e+00	0	25	0	1103101952	50	5630
2026-01-05 13:01:58.25	132.64	13.05	-37.9	-38.9	22.5	0.00e+00	92	25	0	1105199104	48	6336
2026-01-05 13:01:59.26	132.79	12.98	-37.8	-38.8	22.6	0.00e+00	0	25	0	1106247680	48	6254
2026-01-05 13:02:00.27	132.93	12.92	-37.8	-38.8	22.6	0.00e+00	0	25	0	1108344832	48	6262
2026-01-05 13:02:01.28	133.08	12.85	-37.7	-38.7	22.6	0.00e+00	0	25	0	1110441984	48	6174
2026-01-05 13:02:02.29	133.22	12.78	-37.6	-38.6	22.9	0.00e+00	0	25	0	1112539136	48	6104
2026-01-05 13:02:03.29	133.36	12.71	-37.4	-38.3	23.0	0.00e+00	79	25	0	1114636288	48	5933
2026-01-05 13:02:04.30	133.50	12.64	-37.3	-38.2	23.1	0.00e+00	0	25	0	1115684864	48	5881
2026-01-05 13:02:05.31	133.64	12.57	-37.1	-38.0	23.2	0.00e+00	92	25	0	1117782016	48	5730
2026-01-05 13:02:06.32	133.78	12.50	-36.8	-37.7	23.4	0.00e+00	0	25	0	1119879168	48	5508
2026-01-05 13:02:07.33	133.92	12.43	-37.1	-38.0	23.1	0.00e+00	0	25	0	1121976320	48	5720
2026-01-05 13:02:08.34	134.06	12.36	-36.9	-37.8	23.1	0.00e+00	0	25	0	1124073472	48	5619
2026-01-05 13:02:09.35	134.20	12.30	-36.9	-37.8	22.9	0.00e+00	0	25	0	1125122048	48	5601
2026-01-05 13:02:10.36	134.34	12.23	-37.1	-38.1	23.0	0.00e+00	85	25	0	1127219200	48	5764
2026-01-05 13:02:11.37	134.48	12.16	-37.2	-38.1	23.0	0.00e+00	0	25	0	1129316352	48	5790
2026-01-05 13:02:12.38	134.61	12.09	-37.5	-38.5	22.7	0.00e+00	90	25	0	1131413504	48	6043
2026-01-05 13:02:13.38	134.75	12.02	-37.7	-38.7	22.5	0.00e+00	0	25	0	1133510656	48	6204
2026-01-05 13:02:14.39	134.88	11.95	-37.7	-38.7	22.4	0.00e+00	0	25	0	1134559232	48	6234
2026-01-05 13:02:15.40	135.02	11.89	-37.8	-38.8	22.1	0.00e+00	0	25	0	1136656384	48	6262
2026-01-05 13:02:16.41	135.15	11.82	-37.9	-38.9	22.1	0.00e+00	0	25	0	1138753536	48	6339
2026-01-05 13:02:17.42	135.29	11.75	-37.7	-38.7	22.6	0.00e+00	78	25	0	1140850688	48	6214
2026-01-05 13:02:18.44	135.42	11.68	-37.9	-38.9	22.4	0.00e+00	0	25	0	1142947840	48	6348
2026-01-05 13:02:19.44	135.55	11.61	-37.6	-38.6	22.6	0.00e+00	91	25	0	1145044992	48	6135
2026-01-05 13:02:20.45	135.69	11.54	-37.7	-38.7	22.6	0.00e+00	0	25	0	1146093568	48	6199
2026-01-05 13:02:21.46	135.82	11.48	-37.5	-38.5	22.8	0.00e+00	0	25	0	1148190720	48	6047
2026-01-05 13:02:22.47	135.95	11.41	-37.3	-38.2	22.9	0.00e+00	0	25	0	1150287872	48	5891
2026-01-05 13:02:23.48	136.08	11.34	-37.4	-38.4	22.8	0.00e+00	0	25	0	1152385024	48	5984
2026-01-05 13:02:24.49	136.21	11.27	-37.3	-38.2	23.0	0.00e+00	0	25	0	1154482176	48	5883
2026-01-05 13:02:25.50	136.34	11.20	-37.5	-38.5	22.8	0.00e+00	0	25	0	1155530752	48	6063
2026-01-05 13:02:26.51	136.47	11.14	-37.8	-38.8	22.5	0.00e+00	92	25	0	1157627904	48	6313
2026-01-05 13:02:27.51	136.59	11.07	-37.8	-38.8	22.5	0.00e+00	0	25	0	1159725056	48	6308
2026-01-05 13:02:28.52	136.72	11.00	-37.8	-38.8	22.5	0.00e+00	92	25	0	1161822208	48	6280
2026-01-05 13:02:29.53	136.85	10.93	-37.8	-38.8	22.5	0.00e+00	0	25	0	1163919360	48	6298
2026-01-05 13:02:30.54	136.97	10.87	-37.9	-38.9	22.3	0.00e+00	0	25	0	1164967936	48	6387
2026-01-05 13:02:31.55	137.10	10.80	-37.9	-38.9	22.4	0.00e+00	41	25	0	1167065088	48	6352
2026-01-05 13:02:32.56	137.22	10.73	-37.9	-38.9	22.4	0.00e+00	0	25	0	1169162240	48	6340
2026-01-05 13:02:33.57	137.35	10.66	-37.5	-38.5	22.6	0.00e+00	75	25	0	1171259392	48	6095
2026-01-05 13:02:34.58	137.47	10.60	-37.7	-38.7	22.6	0.00e+00	0	25	0	1173356544	48	6216
2026-01-05 13:02:35.59	137.60	10.53	-37.5	-38.4	22.8	0.00e+00	79	25	0	1174405120	48	6007
2026-01-05 13:02:36.60	137.72	10.46	-37.5	-38.4	22.7	0.00e+00	0	25	0	1176502272	48	6011
2026-01-05 13:02:37.61	137.84	10.40	-37.4	-38.4	22.7	0.00e+00	0	25	0	1178599424	48	6004
2026-01-05 13:02:38.62	137.96	10.33	-37.7	-38.7	22.6	0.00e+00	0	25	0	1180696576	48	6222
2026-01-05 13:02:39.63	138.09	10.26	-37.8	-38.8	22.5	0.00e+00	0	25	0	1182793728	48	6278
2026-01-05 13:02:40.64	138.21	10.20	-37.8	-38.8	22.4	0.00e+00	10	25	0	1183842304	48	6259
2026-01-05 13:02:41.65	138.33	10.13	-38.0	-39.0	22.2	0.00e+00	33	25	0	1185939456	48	6416
2026-01-05 13:02:42.65	138.45	10.06	-38.1	-39.2	22.1	0.00e+00	64	25	0	1188036608	48	6551
2026-01-05 13:02:43.66	138.56	10.00	-38.6	-39.7	21.6	0.00e+00	0	25	0	1190133760	48	6973
2026-01-05 13:02:44.67	138.68	9.93	-38.7	-39.8	21.5	0.00e+00	0	25	0	1192230912	50	6281
2026-01-05 13:02:45.68	138.80	9.86	-38.9	-40.0	21.5	0.00e+00	0	25	0	1193279488	50	6427
2026-01-05 13:02:46.69	138.92	9.80	-39.5	-40.8	20.8	0.00e+00	0	25	0	1195376640	50	7016
2026-01-05 13:02:47.70	139.04	9.73	-39.7	-40.9	20.6	0.00e+00	8	25	0	1197473792	50	7148
2026-01-05 13:02:48.71	139.15	9.66	-40.0	-41.3	20.2	0.00e+00	0	25	0	1199570944	52	6661
2026-01-05 13:02:49.72	139.27	9.60	-39.7	-40.9	20.5	0.00e+00	73	25	0	1201668096	52	6366
2026-01-05 13:02:50.73	139.39	9.53	-39.7	-40.9	20.5	0.00e+00	0	25	0	1202716672	52	6388
2026-01-05 13:02:51.74	139.50	9.47	-39.7	-41.0	20.5	0.00e+00	0	25	0	1204813824	52	6397
2026-01-05 13:02:52.75	139.61	9.40	-39.8	-41.1	20.2	0.00e+00	0	25	0	1206910976	52	6491
2026-01-05 13:02:53.76	139.73	9.33	-39.8	-41.1	20.2	0.00e+00	0	25	0	1209008128	52	6536
2026-01-05 13:02:54.77	139.84	9.27	-39.9	-41.2	20.1	0.00e+00	73	25	0	1211105280	52	6609
2026-01-05 13:02:55.77	139.95	9.20	-39.8	-41.2	20.0	0.00e+00	0	25	0	1213202432	52	6564
2026-01-05 13:02:56.78	140.07	9.14	-40.0	-41.4	19.6	0.00e+00	78	25	0	1214251008	52	6756
2026-01-05 13:02:57.79	140.18	9.07	-40.2	-41.7	19.5	0.00e+00	0	25	0	1216348160	52	6953
2026-01-05 13:02:58.80	140.29	9.01	-40.2	-41.7	19.1	0.00e+00	0	25	0	1218445312	52	6930
2026-01-05 13:02:59.81	140.40	8.94	-40.1	-41.6	19.2	0.00e+00	0	25	0	1220542464	52	6862
