passes_logs/2026/01/05/R4.6S_Anadyr/R4.6S_Anadyr__20260105_181232_NOAA_20_JPSS-1_rec.log

#Pass ID: 20260105_181232_NOAA 20 (JPSS-1)
#Satellite: NOAA 20 (JPSS-1)
#Configuration: NOAA 20
#almurnet v.1.7.20251203
#Start time: 2026-01-05 18:12:35

#Version: 2.2.20231116
#Station: R4.6S_Anadyr
#Location: 177.4865 lon 64.73178 lat
#TLE: 1 43013U 17073A   26004.89819562  .00000113  00000+0  74278-4 0  9995
#TLE: 2 43013  98.7626 305.9448 0001841  53.9015 306.2332 14.19533229421309

#Time	Az	El	Level	Level2	SNR	BER	BlckErr	Temp	State	Recorded	gain1	gain2
2026-01-05 18:12:35.40	38.24	0.14	-48.6	-63.5	3.5	1.51e+00	0	31	0	0	60	54181
2026-01-05 18:12:36.40	38.17	0.19	-48.7	-63.9	3.6	1.51e+00	0	31	104	0	60	56505
2026-01-05 18:12:37.41	38.10	0.24	-48.7	-63.8	3.6	1.51e+00	0	32	104	0	60	56175
2026-01-05 18:12:38.42	38.03	0.29	-48.7	-63.9	3.6	1.51e+00	0	32	104	0	60	56351
2026-01-05 18:12:39.43	37.96	0.34	-48.7	-63.9	3.6	1.51e+00	0	32	104	0	60	56443
2026-01-05 18:12:40.44	37.89	0.40	-48.7	-63.9	3.6	1.51e+00	0	32	104	0	60	56877
2026-01-05 18:12:41.45	37.82	0.45	-48.7	-63.9	3.6	1.51e+00	0	32	104	0	60	56451
2026-01-05 18:12:42.46	37.74	0.50	-48.7	-63.9	3.6	1.51e+00	0	32	104	0	60	56484
2026-01-05 18:12:43.47	37.67	0.55	-48.7	-63.8	3.6	1.51e+00	0	32	104	0	60	56110
2026-01-05 18:12:44.48	37.60	0.60	-48.6	-63.8	3.6	1.51e+00	0	32	104	0	60	55944
2026-01-05 18:12:45.49	37.53	0.65	-48.5	-63.7	3.6	1.51e+00	0	32	104	0	60	55608
2026-01-05 18:12:46.50	37.46	0.70	-48.5	-63.7	3.6	1.51e+00	0	32	104	0	60	55349
2026-01-05 18:12:47.51	37.38	0.76	-48.4	-63.6	3.6	1.51e+00	0	32	104	0	60	54580
2026-01-05 18:12:48.52	37.31	0.81	-48.3	-63.4	3.6	1.51e+00	0	32	104	0	60	53713
2026-01-05 18:12:49.53	37.24	0.86	-48.1	-63.2	3.6	1.51e+00	0	32	104	0	60	52323
2026-01-05 18:12:50.54	37.16	0.91	-47.7	-62.9	3.6	1.51e+00	0	32	104	0	60	50512
2026-01-05 18:12:51.55	37.09	0.96	-47.2	-62.3	3.6	1.51e+00	0	32	104	0	60	47355
2026-01-05 18:12:52.56	37.02	1.01	-47.2	-62.3	3.6	1.51e+00	0	32	104	0	60	47202
2026-01-05 18:12:53.57	36.94	1.07	-47.2	-62.3	3.5	1.51e+00	0	32	104	0	60	47322
2026-01-05 18:12:54.58	36.87	1.12	-47.2	-62.3	3.6	1.51e+00	0	32	104	0	60	47226
2026-01-05 18:12:55.59	36.79	1.17	-47.2	-62.3	3.5	1.51e+00	0	32	104	0	60	47178
2026-01-05 18:12:56.60	36.72	1.22	-47.2	-62.3	3.6	1.51e+00	0	32	104	0	60	47362
2026-01-05 18:12:57.61	36.64	1.27	-47.2	-62.3	3.6	1.51e+00	0	32	104	0	60	47374
2026-01-05 18:12:58.62	36.57	1.33	-47.2	-62.3	3.6	1.51e+00	0	32	104	0	60	47282
2026-01-05 18:12:59.63	36.49	1.38	-47.2	-62.4	3.6	1.51e+00	0	32	104	0	60	47582
2026-01-05 18:13:00.64	36.42	1.43	-47.2	-62.3	3.6	1.51e+00	0	32	104	0	60	47165
2026-01-05 18:13:01.65	36.34	1.48	-47.2	-62.3	3.6	1.51e+00	0	32	104	0	60	47184
2026-01-05 18:13:02.66	36.26	1.53	-47.2	-62.3	3.6	1.51e+00	0	32	104	0	60	47279
2026-01-05 18:13:03.67	36.19	1.59	-47.2	-62.3	3.6	1.51e+00	0	32	104	0	60	47093
2026-01-05 18:13:04.68	36.11	1.64	-47.2	-62.3	3.6	1.51e+00	0	32	104	0	60	46909
2026-01-05 18:13:05.69	36.03	1.69	-47.2	-62.3	3.6	1.51e+00	0	32	104	0	60	46959
2026-01-05 18:13:06.70	35.95	1.74	-47.2	-62.3	3.6	1.51e+00	0	32	104	0	60	47162
2026-01-05 18:13:07.71	35.87	1.80	-47.2	-62.3	3.6	1.51e+00	0	32	104	0	60	47172
2026-01-05 18:13:08.72	35.80	1.85	-47.2	-62.3	3.6	1.51e+00	0	32	104	0	60	47275
2026-01-05 18:13:09.73	35.72	1.90	-47.2	-62.4	3.6	1.51e+00	0	32	104	0	60	47386
2026-01-05 18:13:10.74	35.64	1.95	-47.2	-62.3	3.6	1.51e+00	0	32	104	0	60	47273
2026-01-05 18:13:11.75	35.56	2.01	-47.2	-62.3	3.6	1.51e+00	0	32	104	0	60	47084
2026-01-05 18:13:12.76	35.48	2.06	-47.2	-62.2	3.6	1.51e+00	0	32	104	0	60	46772
2026-01-05 18:13:13.77	35.40	2.11	-47.2	-62.1	3.6	1.51e+00	0	32	104	0	60	46212
2026-01-05 18:13:14.78	35.32	2.17	-47.2	-62.2	3.6	1.51e+00	0	32	104	0	60	46543
2026-01-05 18:13:15.79	35.24	2.22	-47.2	-62.1	3.6	1.51e+00	0	32	104	0	60	45854
2026-01-05 18:13:16.80	35.16	2.27	-47.2	-62.1	3.6	1.51e+00	0	32	104	0	60	46117
2026-01-05 18:13:17.81	35.08	2.32	-47.2	-62.2	3.6	1.51e+00	0	32	104	0	60	46656
2026-01-05 18:13:18.82	35.00	2.38	-47.2	-62.4	3.6	1.51e+00	0	32	104	0	60	47470
2026-01-05 18:13:19.83	34.91	2.43	-47.2	-62.3	3.6	1.51e+00	0	33	104	0	60	47261
2026-01-05 18:13:20.84	34.83	2.48	-47.2	-62.2	3.6	1.51e+00	0	33	104	0	60	46491
2026-01-05 18:13:21.85	34.75	2.54	-47.2	-62.3	3.5	1.51e+00	0	32	104	0	60	47003
2026-01-05 18:13:22.86	34.67	2.59	-47.2	-62.3	3.6	1.51e+00	0	33	104	0	60	46995
2026-01-05 18:13:23.87	34.58	2.64	-47.2	-62.3	3.6	1.51e+00	0	33	104	0	60	47250
2026-01-05 18:13:24.88	34.50	2.70	-47.2	-62.2	3.6	1.51e+00	0	33	104	0	60	46333
2026-01-05 18:13:25.89	34.42	2.75	-47.1	-61.6	3.6	1.51e+00	0	33	104	0	60	43558
2026-01-05 18:13:26.90	34.33	2.80	-47.1	-61.2	3.6	1.51e+00	0	33	104	0	60	41370
2026-01-05 18:13:27.91	34.25	2.86	-47.1	-61.4	3.6	1.51e+00	0	33	104	0	60	42424
2026-01-05 18:13:28.92	34.16	2.91	-47.2	-62.0	3.6	1.51e+00	0	33	104	0	60	45457
2026-01-05 18:13:29.93	34.08	2.96	-47.2	-61.7	3.6	1.51e+00	0	33	104	0	60	43748
2026-01-05 18:13:30.94	33.99	3.02	-47.0	-59.3	3.7	1.51e+00	0	33	104	0	60	33292
2026-01-05 18:13:31.95	33.91	3.07	-46.7	-55.5	5.5	1.16e+00	69	33	0	0	60	21526
2026-01-05 18:13:32.96	33.82	3.12	-46.4	-53.3	7.1	1.90e-01	11	33	0	2097152	60	16732
2026-01-05 18:13:33.97	33.74	3.18	-47.4	-62.1	3.6	6.78e-01	0	33	104	3145728	60	46233
2026-01-05 18:13:34.98	33.65	3.23	-47.3	-62.0	3.5	1.51e+00	0	33	104	3145728	60	45248
2026-01-05 18:13:35.99	33.56	3.28	-46.4	-53.9	7.1	5.97e-01	92	33	104	3145728	60	17836
2026-01-05 18:13:37.00	33.48	3.34	-41.7	-43.5	18.1	1.60e-05	17	33	0	4194304	56	6775
2026-01-05 18:13:38.01	33.39	3.39	-47.0	-61.8	3.6	3.18e-01	0	33	104	5242880	60	44360
2026-01-05 18:13:39.02	33.30	3.45	-42.0	-44.0	17.0	9.45e-01	2	33	104	5242880	58	6440
2026-01-05 18:13:40.03	33.21	3.50	-41.9	-43.7	17.8	0.00e+00	0	33	0	5242880	58	6234
2026-01-05 18:13:41.04	33.12	3.55	-42.1	-44.1	17.4	0.00e+00	24	33	0	7340032	58	6486
2026-01-05 18:13:42.04	33.04	3.61	-42.3	-44.3	17.1	0.00e+00	11	33	0	9437184	58	6633
2026-01-05 18:13:43.05	32.95	3.66	-41.8	-43.7	18.0	0.00e+00	92	33	0	11534336	58	6178
2026-01-05 18:13:44.06	32.86	3.72	-41.6	-43.3	18.2	0.00e+00	0	33	0	13631488	56	6685
2026-01-05 18:13:45.07	32.77	3.77	-41.5	-43.2	18.4	0.00e+00	92	33	0	14680064	56	6557
2026-01-05 18:13:46.08	32.68	3.82	-41.7	-43.4	18.1	0.00e+00	0	33	0	16777216	56	6727
2026-01-05 18:13:47.09	32.59	3.88	-41.6	-43.4	18.3	0.00e+00	0	33	0	18874368	56	6715
2026-01-05 18:13:48.10	32.50	3.93	-41.6	-43.3	18.2	0.00e+00	0	33	0	20971520	56	6672
2026-01-05 18:13:49.11	32.40	3.99	-41.5	-43.2	18.5	0.00e+00	0	33	0	23068672	56	6547
2026-01-05 18:13:50.12	32.31	4.04	-41.6	-43.3	18.3	0.00e+00	90	33	0	24117248	56	6650
2026-01-05 18:13:51.13	32.22	4.10	-41.9	-43.7	18.0	0.00e+00	0	33	0	26214400	56	7003
2026-01-05 18:13:52.14	32.13	4.15	-41.7	-43.4	18.3	0.00e+00	90	33	0	28311552	56	6708
2026-01-05 18:13:53.15	32.04	4.20	-41.7	-43.5	18.3	0.00e+00	71	33	0	30408704	56	6784
2026-01-05 18:13:54.16	31.94	4.26	-41.6	-43.3	18.3	0.00e+00	0	33	0	32505856	56	6677
2026-01-05 18:13:55.17	31.85	4.31	-41.8	-43.6	18.1	0.00e+00	0	33	0	33554432	56	6871
2026-01-05 18:13:56.18	31.76	4.37	-41.5	-43.2	18.5	0.00e+00	70	33	0	35651584	56	6600
2026-01-05 18:13:57.19	31.66	4.42	-41.6	-43.3	18.4	0.00e+00	0	33	0	37748736	56	6679
2026-01-05 18:13:58.19	31.57	4.48	-41.7	-43.4	18.3	0.00e+00	70	33	0	39845888	56	6767
2026-01-05 18:13:59.20	31.47	4.53	-41.4	-43.1	18.7	0.00e+00	92	33	0	41943040	56	6484
2026-01-05 18:14:00.21	31.38	4.59	-41.7	-43.4	18.3	0.00e+00	12	33	0	42991616	56	6742
2026-01-05 18:14:01.22	31.28	4.64	-41.7	-43.5	18.2	0.00e+00	7	33	0	45088768	56	6790
2026-01-05 18:14:02.23	31.19	4.70	-41.7	-43.4	18.4	0.00e+00	0	33	0	47185920	56	6747
2026-01-05 18:14:03.24	31.09	4.75	-41.7	-43.4	18.4	0.00e+00	0	33	0	49283072	56	6748
2026-01-05 18:14:04.25	30.99	4.81	-41.8	-43.5	18.5	0.00e+00	11	33	0	51380224	56	6793
2026-01-05 18:14:05.26	30.90	4.86	-41.8	-43.6	18.3	0.00e+00	0	33	0	53477376	56	6877
2026-01-05 18:14:06.27	30.80	4.91	-41.7	-43.4	18.4	0.00e+00	92	33	0	54525952	56	6737
2026-01-05 18:14:07.28	30.70	4.97	-41.7	-43.4	18.5	0.00e+00	0	33	0	56623104	56	6694
2026-01-05 18:14:08.29	30.60	5.02	-41.7	-43.4	18.4	0.00e+00	92	33	0	58720256	56	6757
2026-01-05 18:14:09.30	30.50	5.08	-41.8	-43.5	18.4	0.00e+00	0	33	0	60817408	56	6788
2026-01-05 18:14:10.30	30.41	5.13	-41.7	-43.4	18.5	0.00e+00	0	33	0	61865984	56	6749
2026-01-05 18:14:11.31	30.31	5.19	-41.9	-43.6	18.4	0.00e+00	0	33	0	63963136	56	6905
2026-01-05 18:14:12.32	30.21	5.24	-41.5	-43.1	18.7	0.00e+00	69	33	0	66060288	56	6522
2026-01-05 18:14:13.33	30.11	5.30	-41.6	-43.3	18.6	0.00e+00	92	33	0	68157440	56	6627
2026-01-05 18:14:14.34	30.01	5.35	-41.6	-43.2	18.7	0.00e+00	69	33	0	70254592	56	6552
2026-01-05 18:14:15.35	29.91	5.41	-41.5	-43.2	18.7	0.00e+00	92	33	0	71303168	56	6552
2026-01-05 18:14:16.36	29.80	5.47	-41.7	-43.3	18.6	0.00e+00	71	33	0	73400320	56	6676
2026-01-05 18:14:17.37	29.70	5.52	-41.6	-43.2	18.7	0.00e+00	71	33	0	75497472	56	6570
2026-01-05 18:14:18.38	29.60	5.58	-41.7	-43.3	18.6	0.00e+00	0	33	0	77594624	56	6655
2026-01-05 18:14:19.39	29.50	5.63	-41.6	-43.3	18.7	0.00e+00	0	33	0	79691776	56	6647
2026-01-05 18:14:20.39	29.40	5.69	-41.5	-43.2	18.8	0.00e+00	0	33	0	81788928	56	6542
2026-01-05 18:14:21.40	29.29	5.74	-41.6	-43.2	18.7	0.00e+00	70	33	0	82837504	56	6599
2026-01-05 18:14:22.41	29.19	5.80	-41.5	-43.0	18.9	0.00e+00	92	33	0	84934656	56	6463
2026-01-05 18:14:23.42	29.08	5.85	-41.5	-43.1	18.8	0.00e+00	5	33	0	87031808	56	6491
2026-01-05 18:14:24.43	28.98	5.91	-41.5	-43.1	18.8	0.00e+00	90	33	0	89128960	56	6533
2026-01-05 18:14:25.44	28.88	5.96	-41.5	-43.0	18.9	0.00e+00	6	33	0	91226112	56	6458
2026-01-05 18:14:26.45	28.77	6.02	-41.4	-42.9	19.0	0.00e+00	0	33	0	92274688	56	6385
2026-01-05 18:14:27.46	28.66	6.07	-41.4	-43.0	19.0	0.00e+00	5	33	0	94371840	56	6391
2026-01-05 18:14:28.47	28.56	6.13	-41.4	-42.9	19.1	0.00e+00	0	33	0	96468992	56	6381
2026-01-05 18:14:29.48	28.45	6.19	-41.4	-42.9	19.0	0.00e+00	92	33	0	98566144	56	6377
2026-01-05 18:14:30.49	28.34	6.24	-41.4	-43.0	19.0	0.00e+00	9	33	0	100663296	56	6401
2026-01-05 18:14:31.50	28.24	6.30	-41.4	-43.0	19.1	0.00e+00	92	33	0	101711872	56	6393
2026-01-05 18:14:32.51	28.13	6.35	-41.5	-43.1	18.9	0.00e+00	0	33	0	103809024	56	6523
2026-01-05 18:14:33.52	28.02	6.41	-41.4	-42.9	19.0	0.00e+00	5	33	0	105906176	56	6382
2026-01-05 18:14:34.52	27.91	6.46	-41.5	-43.1	19.0	0.00e+00	60	33	0	108003328	56	6482
2026-01-05 18:14:35.53	27.80	6.52	-41.3	-42.8	19.2	0.00e+00	0	33	0	110100480	56	6292
2026-01-05 18:14:36.54	27.69	6.57	-41.3	-42.8	19.2	0.00e+00	42	33	0	111149056	56	6294
2026-01-05 18:14:37.55	27.58	6.63	-41.3	-42.8	19.2	0.00e+00	67	33	0	113246208	56	6306
2026-01-05 18:14:38.56	27.47	6.69	-41.3	-42.8	19.3	0.00e+00	90	33	0	115343360	56	6253
2026-01-05 18:14:39.57	27.36	6.74	-41.2	-42.7	19.4	0.00e+00	21	33	0	117440512	56	6179
2026-01-05 18:14:40.58	27.25	6.80	-41.3	-42.8	19.2	0.00e+00	21	33	0	119537664	56	6310
2026-01-05 18:14:41.59	27.14	6.85	-41.2	-42.6	19.4	0.00e+00	5	33	0	120586240	56	6163
2026-01-05 18:14:42.60	27.03	6.91	-41.2	-42.7	19.2	0.00e+00	30	33	0	122683392	56	6245
2026-01-05 18:14:43.61	26.91	6.97	-41.2	-42.6	19.4	0.00e+00	0	33	0	124780544	56	6167
2026-01-05 18:14:44.62	26.80	7.02	-41.0	-42.5	19.5	0.00e+00	15	33	0	126877696	56	6064
2026-01-05 18:14:45.63	26.69	7.08	-41.0	-42.4	19.7	0.00e+00	92	33	0	128974848	56	6001
2026-01-05 18:14:46.64	26.57	7.13	-41.0	-42.4	19.6	0.00e+00	17	33	0	130023424	56	6019
2026-01-05 18:14:47.65	26.46	7.19	-41.0	-42.5	19.5	0.00e+00	91	33	0	132120576	56	6045
2026-01-05 18:14:48.65	26.35	7.24	-40.9	-42.4	19.7	0.00e+00	14	33	0	134217728	56	5967
2026-01-05 18:14:49.66	26.23	7.30	-40.8	-42.2	19.9	0.00e+00	0	33	0	136314880	56	5869
2026-01-05 18:14:50.68	26.11	7.36	-40.5	-41.9	20.1	0.00e+00	0	33	0	138412032	54	6325
2026-01-05 18:14:51.69	26.00	7.41	-40.5	-41.9	19.8	0.00e+00	7	33	0	139460608	54	6352
2026-01-05 18:14:52.70	25.88	7.47	-40.5	-41.8	20.3	0.00e+00	90	33	0	141557760	54	6260
2026-01-05 18:14:53.71	25.76	7.52	-40.6	-42.0	19.8	0.00e+00	0	33	0	143654912	54	6410
2026-01-05 18:14:54.72	25.64	7.58	-40.4	-41.7	20.3	0.00e+00	90	33	0	145752064	54	6238
2026-01-05 18:14:55.72	25.53	7.64	-40.3	-41.5	20.4	0.00e+00	72	33	0	147849216	54	6097
2026-01-05 18:14:56.74	25.41	7.69	-40.3	-41.6	20.4	0.00e+00	0	33	0	149946368	54	6154
2026-01-05 18:14:57.75	25.29	7.75	-40.4	-41.7	20.4	0.00e+00	70	33	0	150994944	54	6199
2026-01-05 18:14:58.75	25.17	7.80	-40.4	-41.7	20.3	0.00e+00	71	33	0	153092096	54	6201
2026-01-05 18:14:59.76	25.05	7.86	-40.5	-41.8	20.2	0.00e+00	88	33	0	155189248	54	6294
2026-01-05 18:15:00.77	24.93	7.92	-40.4	-41.7	20.3	0.00e+00	71	33	0	157286400	54	6231
2026-01-05 18:15:01.78	24.81	7.97	-40.4	-41.7	20.4	0.00e+00	92	33	0	159383552	54	6222
2026-01-05 18:15:02.79	24.69	8.03	-40.5	-41.8	20.2	0.00e+00	65	33	0	160432128	54	6308
2026-01-05 18:15:03.80	24.57	8.08	-40.5	-41.8	20.3	0.00e+00	92	33	0	162529280	54	6254
2026-01-05 18:15:04.81	24.44	8.14	-40.3	-41.5	20.5	0.00e+00	71	33	0	164626432	54	6099
2026-01-05 18:15:05.82	24.32	8.20	-40.1	-41.4	20.7	0.00e+00	15	33	0	166723584	54	6000
2026-01-05 18:15:06.83	24.20	8.25	-40.2	-41.4	20.7	0.00e+00	81	33	0	168820736	54	6002
2026-01-05 18:15:07.84	24.07	8.31	-40.2	-41.4	20.6	0.00e+00	15	33	0	169869312	54	6025
2026-01-05 18:15:08.84	23.95	8.36	-40.5	-41.8	20.4	0.00e+00	92	33	0	171966464	54	6300
2026-01-05 18:15:09.85	23.82	8.42	-40.3	-41.6	20.3	0.00e+00	0	33	0	174063616	54	6151
2026-01-05 18:15:10.86	23.70	8.48	-40.5	-41.8	20.4	0.00e+00	90	33	0	176160768	54	6277
2026-01-05 18:15:11.87	23.57	8.53	-40.3	-41.5	20.4	0.00e+00	0	33	0	178257920	54	6088
2026-01-05 18:15:12.88	23.45	8.59	-40.4	-41.7	20.7	0.00e+00	0	33	0	179306496	54	6186
2026-01-05 18:15:13.89	23.32	8.64	-40.2	-41.5	20.4	0.00e+00	0	33	0	181403648	54	6040
2026-01-05 18:15:14.90	23.19	8.70	-40.9	-42.3	19.8	0.00e+00	0	33	0	183500800	54	6642
2026-01-05 18:15:15.91	23.06	8.76	-40.5	-41.9	20.2	0.00e+00	92	33	0	185597952	54	6330
2026-01-05 18:15:16.92	22.94	8.81	-40.3	-41.6	20.6	0.00e+00	0	33	0	187695104	54	6116
2026-01-05 18:15:17.93	22.81	8.87	-40.1	-41.3	20.8	0.00e+00	92	33	0	188743680	54	5936
2026-01-05 18:15:18.94	22.68	8.92	-40.1	-41.3	20.9	0.00e+00	72	33	0	190840832	54	5921
2026-01-05 18:15:19.95	22.55	8.98	-40.0	-41.2	20.9	0.00e+00	0	33	0	192937984	54	5857
2026-01-05 18:15:20.96	22.42	9.04	-40.0	-41.2	20.9	0.00e+00	0	33	0	195035136	54	5878
2026-01-05 18:15:21.97	22.29	9.09	-40.1	-41.3	20.8	0.00e+00	11	33	0	197132288	54	5927
2026-01-05 18:15:22.97	22.16	9.15	-40.0	-41.2	20.9	0.00e+00	72	33	0	198180864	54	5856
2026-01-05 18:15:23.99	22.02	9.20	-40.0	-41.2	20.9	0.00e+00	10	33	0	200278016	54	5861
2026-01-05 18:15:25.00	21.89	9.26	-40.0	-41.2	20.9	0.00e+00	92	33	0	202375168	54	5856
2026-01-05 18:15:26.01	21.76	9.31	-40.0	-41.2	20.9	0.00e+00	8	33	0	204472320	54	5866
2026-01-05 18:15:27.02	21.62	9.37	-39.9	-41.1	21.0	0.00e+00	0	33	0	206569472	54	5825
2026-01-05 18:15:28.03	21.49	9.43	-39.9	-41.1	21.0	0.00e+00	10	33	0	207618048	54	5801
2026-01-05 18:15:29.04	21.36	9.48	-39.8	-41.0	21.1	0.00e+00	9	33	0	209715200	54	5734
2026-01-05 18:15:30.05	21.22	9.54	-39.9	-41.1	21.0	0.00e+00	0	33	0	211812352	54	5807
2026-01-05 18:15:31.06	21.09	9.59	-39.9	-41.1	21.0	0.00e+00	0	33	0	213909504	54	5810
2026-01-05 18:15:32.07	20.95	9.65	-39.8	-41.0	21.2	0.00e+00	92	33	0	216006656	52	6396
2026-01-05 18:15:33.08	20.81	9.70	-39.8	-41.0	21.2	0.00e+00	0	33	0	218103808	52	6403
2026-01-05 18:15:34.09	20.68	9.76	-40.0	-41.2	21.1	0.00e+00	0	33	0	219152384	52	6542
2026-01-05 18:15:35.10	20.54	9.81	-39.7	-40.8	21.3	0.00e+00	0	33	0	221249536	52	6308
2026-01-05 18:15:36.10	20.40	9.87	-39.8	-41.0	21.1	0.00e+00	0	33	0	223346688	52	6407
2026-01-05 18:15:37.11	20.26	9.93	-39.7	-40.9	21.3	0.00e+00	0	33	0	225443840	52	6354
2026-01-05 18:15:38.12	20.12	9.98	-39.7	-40.9	21.3	0.00e+00	0	33	0	227540992	52	6356
2026-01-05 18:15:39.13	19.98	10.04	-39.8	-40.9	21.3	0.00e+00	91	33	0	228589568	52	6383
2026-01-05 18:15:40.14	19.84	10.09	-39.8	-41.0	21.2	0.00e+00	67	33	0	230686720	52	6435
2026-01-05 18:15:41.15	19.70	10.15	-39.7	-40.8	21.4	0.00e+00	90	33	0	232783872	52	6296
2026-01-05 18:15:42.16	19.56	10.20	-39.8	-40.9	21.3	0.00e+00	0	33	0	234881024	52	6387
2026-01-05 18:15:43.17	19.42	10.26	-39.8	-41.0	21.2	0.00e+00	66	33	0	236978176	52	6412
2026-01-05 18:15:44.18	19.28	10.31	-39.8	-41.0	21.1	0.00e+00	73	33	0	238026752	52	6440
2026-01-05 18:15:45.19	19.13	10.37	-39.9	-41.0	21.2	0.00e+00	73	33	0	240123904	52	6454
2026-01-05 18:15:46.20	18.99	10.42	-39.8	-41.0	21.2	0.00e+00	73	33	0	242221056	52	6424
2026-01-05 18:15:47.21	18.84	10.48	-39.9	-41.1	21.1	0.00e+00	0	33	0	244318208	52	6466
2026-01-05 18:15:48.21	18.70	10.53	-39.9	-41.1	21.1	0.00e+00	91	33	0	246415360	52	6528
2026-01-05 18:15:49.22	18.56	10.59	-39.9	-41.1	21.1	0.00e+00	8	33	0	247463936	52	6498
2026-01-05 18:15:50.23	18.41	10.64	-39.9	-41.1	21.1	0.00e+00	0	33	0	249561088	52	6517
2026-01-05 18:15:51.23	18.26	10.70	-40.0	-41.2	21.1	0.00e+00	8	33	0	251658240	52	6572
2026-01-05 18:15:52.24	18.12	10.75	-40.0	-41.2	21.1	0.00e+00	0	33	0	253755392	52	6546
2026-01-05 18:15:53.26	17.97	10.80	-39.9	-41.1	21.1	0.00e+00	12	33	0	255852544	52	6526
2026-01-05 18:15:54.27	17.82	10.86	-40.0	-41.2	21.1	0.00e+00	0	33	0	256901120	52	6577
2026-01-05 18:15:55.28	17.67	10.91	-39.9	-41.0	21.2	0.00e+00	92	33	0	258998272	52	6463
2026-01-05 18:15:56.28	17.52	10.97	-39.8	-41.0	21.3	0.00e+00	0	33	0	261095424	52	6406
2026-01-05 18:15:57.29	17.37	11.02	-40.0	-41.1	21.2	0.00e+00	92	33	0	263192576	52	6534
2026-01-05 18:15:58.30	17.22	11.08	-39.7	-40.8	21.4	0.00e+00	0	33	0	265289728	52	6309
2026-01-05 18:15:59.31	17.07	11.13	-39.6	-40.8	21.5	0.00e+00	0	33	0	266338304	52	6268
2026-01-05 18:16:00.32	16.92	11.18	-39.7	-40.9	21.3	0.00e+00	0	33	0	268435456	52	6345
2026-01-05 18:16:01.33	16.77	11.24	-39.6	-40.8	21.3	0.00e+00	0	33	0	270532608	52	6258
2026-01-05 18:16:02.34	16.62	11.29	-39.7	-40.9	21.4	0.00e+00	92	33	0	272629760	52	6320
2026-01-05 18:16:03.35	16.46	11.35	-39.8	-40.9	21.3	0.00e+00	0	33	0	274726912	52	6386
2026-01-05 18:16:04.36	16.31	11.40	-39.8	-40.9	21.3	0.00e+00	92	33	0	275775488	52	6389
2026-01-05 18:16:05.37	16.15	11.45	-39.9	-41.1	21.1	0.00e+00	15	33	0	277872640	52	6513
2026-01-05 18:16:06.38	16.00	11.51	-40.0	-41.1	21.1	0.00e+00	15	33	0	279969792	52	6533
2026-01-05 18:16:07.39	15.84	11.56	-39.8	-41.0	21.2	0.00e+00	66	33	0	282066944	52	6429
2026-01-05 18:16:08.40	15.69	11.61	-39.9	-41.1	21.3	0.00e+00	14	33	0	284164096	52	6477
2026-01-05 18:16:09.41	15.53	11.67	-39.9	-41.1	21.2	0.00e+00	0	33	0	285212672	52	6517
2026-01-05 18:16:10.42	15.37	11.72	-39.8	-41.0	21.2	0.00e+00	0	33	0	287309824	52	6409
2026-01-05 18:16:11.42	15.22	11.77	-39.9	-41.0	21.3	0.00e+00	92	33	0	289406976	52	6457
2026-01-05 18:16:12.43	15.06	11.83	-39.8	-40.9	21.3	0.00e+00	7	33	0	291504128	52	6377
2026-01-05 18:16:13.44	14.90	11.88	-39.6	-40.7	21.6	0.00e+00	77	33	0	293601280	52	6219
2026-01-05 18:16:14.45	14.74	11.93	-39.6	-40.7	21.6	0.00e+00	6	33	0	294649856	52	6235
2026-01-05 18:16:15.46	14.58	11.98	-39.5	-40.6	21.7	0.00e+00	0	33	0	296747008	52	6137
2026-01-05 18:16:16.47	14.42	12.04	-39.4	-40.5	21.7	0.00e+00	0	33	0	298844160	52	6066
2026-01-05 18:16:17.48	14.26	12.09	-39.5	-40.6	21.7	0.00e+00	0	33	0	300941312	52	6159
2026-01-05 18:16:18.49	14.10	12.14	-39.3	-40.4	21.8	0.00e+00	92	33	0	303038464	52	6003
2026-01-05 18:16:19.50	13.93	12.19	-39.2	-40.2	21.9	0.00e+00	5	33	0	304087040	52	5879
2026-01-05 18:16:20.50	13.77	12.25	-39.2	-40.2	22.0	0.00e+00	90	33	0	306184192	52	5894
2026-01-05 18:16:21.51	13.61	12.30	-39.1	-40.2	22.0	0.00e+00	0	33	0	308281344	52	5857
2026-01-05 18:16:22.52	13.44	12.35	-39.1	-40.1	22.1	0.00e+00	0	33	0	310378496	52	5823
2026-01-05 18:16:23.53	13.28	12.40	-38.9	-40.0	22.3	0.00e+00	47	33	0	312475648	52	5717
2026-01-05 18:16:24.54	13.11	12.45	-38.9	-39.9	22.4	0.00e+00	73	33	0	314572800	52	5665
2026-01-05 18:16:25.55	12.95	12.51	-38.9	-40.0	22.3	0.00e+00	90	33	0	315621376	52	5706
2026-01-05 18:16:26.56	12.78	12.56	-38.6	-39.6	22.5	0.00e+00	73	33	0	317718528	50	6159
2026-01-05 18:16:27.57	12.61	12.61	-38.5	-39.4	22.8	0.00e+00	92	33	0	319815680	50	6018
2026-01-05 18:16:28.58	12.44	12.66	-38.4	-39.4	22.8	0.00e+00	66	33	0	321912832	50	6017
2026-01-05 18:16:29.60	12.27	12.71	-38.4	-39.4	22.8	0.00e+00	12	33	0	324009984	50	6011
2026-01-05 18:16:30.60	12.11	12.76	-38.5	-39.5	22.8	0.00e+00	13	33	0	325058560	50	6055
2026-01-05 18:16:31.61	11.94	12.81	-38.6	-39.5	22.6	0.00e+00	14	33	0	327155712	50	6096
2026-01-05 18:16:32.62	11.77	12.86	-38.4	-39.3	22.8	0.00e+00	39	33	0	329252864	50	5947
2026-01-05 18:16:33.63	11.60	12.91	-38.3	-39.2	23.0	0.00e+00	0	33	0	331350016	50	5884
2026-01-05 18:16:34.64	11.42	12.96	-38.3	-39.3	22.9	0.00e+00	92	33	0	333447168	50	5897
2026-01-05 18:16:35.65	11.25	13.01	-38.3	-39.2	23.0	0.00e+00	7	33	0	334495744	50	5876
2026-01-05 18:16:36.66	11.08	13.06	-38.3	-39.3	22.8	0.00e+00	90	33	0	336592896	50	5904
2026-01-05 18:16:37.67	10.91	13.11	-38.4	-39.4	22.9	0.00e+00	0	33	0	338690048	50	5972
2026-01-05 18:16:38.68	10.73	13.16	-38.3	-39.3	22.9	0.00e+00	0	33	0	340787200	50	5916
2026-01-05 18:16:39.69	10.56	13.21	-38.4	-39.3	22.9	0.00e+00	6	33	0	342884352	50	5959
2026-01-05 18:16:40.70	10.38	13.26	-38.3	-39.2	23.0	0.00e+00	6	33	0	343932928	50	5892
2026-01-05 18:16:41.71	10.21	13.31	-38.1	-39.1	23.1	0.00e+00	92	33	0	346030080	50	5784
2026-01-05 18:16:42.72	10.03	13.36	-38.2	-39.2	23.0	0.00e+00	69	33	0	348127232	50	5864
2026-01-05 18:16:43.73	9.85	13.41	-38.1	-39.1	23.1	0.00e+00	90	33	0	350224384	50	5791
2026-01-05 18:16:44.73	9.68	13.46	-38.0	-38.9	23.2	0.00e+00	0	33	0	352321536	50	5677
2026-01-05 18:16:45.74	9.50	13.50	-38.0	-38.9	23.2	0.00e+00	73	33	0	353370112	50	5690
2026-01-05 18:16:46.75	9.32	13.55	-37.9	-38.8	23.3	0.00e+00	65	33	0	355467264	50	5627
2026-01-05 18:16:47.76	9.14	13.60	-37.7	-38.6	23.6	0.00e+00	7	33	0	357564416	48	6117
2026-01-05 18:16:48.77	8.96	13.65	-37.7	-38.7	23.4	0.00e+00	92	33	0	359661568	48	6178
2026-01-05 18:16:49.78	8.78	13.70	-37.6	-38.5	23.6	0.00e+00	74	33	0	361758720	48	6098
2026-01-05 18:16:50.79	8.60	13.74	-37.5	-38.4	23.6	0.00e+00	90	33	0	362807296	48	6019
2026-01-05 18:16:51.80	8.42	13.79	-37.4	-38.3	23.4	0.00e+00	8	33	0	364904448	48	5925
2026-01-05 18:16:52.81	8.24	13.84	-37.5	-38.4	23.4	0.00e+00	7	33	0	367001600	48	5985
2026-01-05 18:16:53.82	8.06	13.89	-37.5	-38.4	23.7	0.00e+00	0	33	0	369098752	48	5972
2026-01-05 18:16:54.83	7.87	13.93	-37.5	-38.3	23.7	0.00e+00	2	33	0	371195904	48	5956
2026-01-05 18:16:55.84	7.69	13.98	-37.5	-38.4	23.6	0.00e+00	66	33	0	372244480	48	6013
2026-01-05 18:16:56.85	7.50	14.03	-37.3	-38.1	23.9	0.00e+00	7	33	0	374341632	48	5828
2026-01-05 18:16:57.86	7.32	14.07	-37.2	-38.1	23.9	0.00e+00	92	33	0	376438784	48	5773
2026-01-05 18:16:58.86	7.14	14.12	-37.3	-38.2	23.9	0.00e+00	0	33	0	378535936	48	5855
2026-01-05 18:16:59.87	6.95	14.16	-37.4	-38.2	23.8	0.00e+00	91	33	0	380633088	48	5896
2026-01-05 18:17:00.88	6.76	14.21	-37.4	-38.3	23.8	0.00e+00	0	33	0	382730240	48	5948
2026-01-05 18:17:01.89	6.57	14.25	-37.4	-38.2	23.9	0.00e+00	0	33	0	383778816	48	5888
2026-01-05 18:17:02.90	6.39	14.30	-37.4	-38.2	23.7	0.00e+00	0	33	0	385875968	48	5890
2026-01-05 18:17:03.91	6.20	14.34	-37.4	-38.3	23.8	0.00e+00	0	33	0	387973120	48	5905
2026-01-05 18:17:04.92	6.01	14.39	-37.5	-38.5	23.6	0.00e+00	90	33	0	390070272	48	6034
2026-01-05 18:17:05.93	5.82	14.43	-37.5	-38.4	23.6	0.00e+00	69	33	0	392167424	48	6013
2026-01-05 18:17:06.93	5.63	14.48	-37.6	-38.5	23.6	0.00e+00	92	33	0	393216000	48	6101
2026-01-05 18:17:07.94	5.44	14.52	-37.8	-38.7	23.4	0.00e+00	69	33	0	395313152	48	6206
2026-01-05 18:17:08.95	5.25	14.56	-37.8	-38.8	23.4	0.00e+00	72	33	0	397410304	48	6250
2026-01-05 18:17:09.96	5.06	14.61	-37.9	-38.9	23.3	0.00e+00	6	33	0	399507456	48	6331
2026-01-05 18:17:10.96	4.87	14.65	-37.9	-38.9	23.3	0.00e+00	9	33	0	401604608	48	6333
2026-01-05 18:17:11.97	4.67	14.69	-37.9	-38.8	23.4	0.00e+00	73	33	0	402653184	48	6290
2026-01-05 18:17:12.98	4.48	14.73	-37.8	-38.7	23.5	0.00e+00	9	33	0	404750336	48	6232
2026-01-05 18:17:13.99	4.29	14.78	-37.8	-38.7	23.4	0.00e+00	92	33	0	406847488	48	6231
2026-01-05 18:17:15.00	4.09	14.82	-37.8	-38.7	23.6	0.00e+00	3	33	0	408944640	48	6197
2026-01-05 18:17:16.01	3.90	14.86	-37.8	-38.7	23.5	0.00e+00	92	33	0	411041792	48	6196
2026-01-05 18:17:17.01	3.70	14.90	-37.8	-38.7	23.5	0.00e+00	7	33	0	412090368	48	6233
2026-01-05 18:17:18.02	3.50	14.94	-37.9	-38.8	23.4	0.00e+00	0	33	0	414187520	48	6317
2026-01-05 18:17:19.03	3.31	14.98	-37.7	-38.6	23.5	0.00e+00	76	33	0	416284672	48	6153
2026-01-05 18:17:20.04	3.11	15.03	-37.7	-38.6	23.5	0.00e+00	9	33	0	418381824	48	6146
2026-01-05 18:17:21.04	2.91	15.07	-37.7	-38.6	23.5	0.00e+00	90	33	0	420478976	48	6129
2026-01-05 18:17:22.05	2.72	15.11	-37.9	-38.8	23.4	0.00e+00	15	33	0	421527552	48	6282
2026-01-05 18:17:23.06	2.52	15.15	-37.8	-38.7	23.5	0.00e+00	46	33	0	423624704	48	6197
2026-01-05 18:17:24.07	2.32	15.19	-37.9	-38.8	23.4	0.00e+00	2	33	0	425721856	48	6305
2026-01-05 18:17:25.08	2.12	15.22	-37.6	-38.4	23.8	0.00e+00	0	33	0	427819008	48	6030
2026-01-05 18:17:26.09	1.92	15.26	-37.5	-38.4	23.8	0.00e+00	0	33	0	429916160	48	5996
2026-01-05 18:17:27.10	1.71	15.30	-37.7	-38.6	23.7	0.00e+00	0	33	0	430964736	48	6147
2026-01-05 18:17:28.11	1.51	15.34	-37.5	-38.3	23.8	0.00e+00	90	33	0	433061888	48	5946
2026-01-05 18:17:29.12	1.31	15.38	-37.2	-38.1	24.1	0.00e+00	74	33	0	435159040	48	5783
2026-01-05 18:17:30.13	1.11	15.42	-37.3	-38.2	24.0	0.00e+00	92	33	0	437256192	48	5842
2026-01-05 18:17:31.14	0.90	15.45	-37.4	-38.2	23.9	0.00e+00	0	33	0	439353344	48	5876
2026-01-05 18:17:32.14	0.70	15.49	-37.4	-38.3	23.9	0.00e+00	30	33	0	440401920	48	5918
2026-01-05 18:17:33.15	0.50	15.53	-37.4	-38.3	23.6	0.00e+00	75	33	0	442499072	48	5915
2026-01-05 18:17:34.16	0.29	15.57	-37.2	-38.0	23.4	0.00e+00	6	33	0	444596224	48	5739
2026-01-05 18:17:35.17	0.09	15.60	-37.2	-38.0	24.1	0.00e+00	92	33	0	446693376	48	5758
2026-01-05 18:17:36.18	359.88	15.64	-37.1	-38.0	24.1	0.00e+00	74	33	0	448790528	48	5700
2026-01-05 18:17:37.19	359.67	15.67	-37.2	-38.1	24.1	0.00e+00	92	33	0	449839104	48	5794
2026-01-05 18:17:38.20	359.47	15.71	-37.4	-38.3	24.0	0.00e+00	0	33	0	451936256	48	5929
2026-01-05 18:17:39.21	359.26	15.74	-37.3	-38.2	24.0	0.00e+00	17	33	0	454033408	48	5847
2026-01-05 18:17:40.22	359.05	15.78	-37.3	-38.1	24.0	0.00e+00	7	33	0	456130560	48	5795
2026-01-05 18:17:41.23	358.84	15.81	-37.2	-38.1	24.1	0.00e+00	14	33	0	458227712	48	5799
2026-01-05 18:17:42.24	358.63	15.85	-37.2	-38.1	24.1	0.00e+00	21	33	0	459276288	48	5790
2026-01-05 18:17:43.24	358.43	15.88	-37.2	-38.0	24.1	0.00e+00	2	33	0	461373440	48	5740
2026-01-05 18:17:44.26	358.22	15.91	-37.2	-38.1	24.1	0.00e+00	92	33	0	463470592	48	5777
2026-01-05 18:17:45.26	358.01	15.95	-37.2	-38.1	24.1	0.00e+00	2	33	0	465567744	48	5783
2026-01-05 18:17:46.28	357.79	15.98	-37.4	-38.2	23.8	0.00e+00	30	33	0	467664896	48	5883
2026-01-05 18:17:47.29	357.58	16.01	-37.5	-38.4	23.7	0.00e+00	0	33	0	468713472	48	5995
2026-01-05 18:17:48.29	357.37	16.04	-37.2	-38.1	24.1	0.00e+00	2	33	0	470810624	48	5808
2026-01-05 18:17:49.30	357.16	16.07	-37.2	-38.1	24.0	0.00e+00	0	33	0	472907776	48	5773
2026-01-05 18:17:50.31	356.95	16.11	-37.1	-38.0	24.2	0.00e+00	0	33	0	475004928	48	5696
2026-01-05 18:17:51.32	356.74	16.14	-37.2	-38.0	24.0	0.00e+00	92	33	0	477102080	48	5752
2026-01-05 18:17:52.33	356.52	16.17	-37.2	-38.0	24.1	0.00e+00	73	33	0	479199232	48	5736
2026-01-05 18:17:53.34	356.31	16.20	-37.4	-38.3	23.9	0.00e+00	92	33	0	480247808	48	5928
2026-01-05 18:17:54.35	356.09	16.23	-37.5	-38.4	23.9	0.00e+00	0	33	0	482344960	48	5975
2026-01-05 18:17:55.36	355.88	16.26	-37.6	-38.5	23.8	0.00e+00	2	33	0	484442112	48	6063
2026-01-05 18:17:56.37	355.66	16.29	-37.6	-38.4	23.7	0.00e+00	9	33	0	486539264	48	6032
2026-01-05 18:17:57.38	355.45	16.31	-37.3	-38.1	24.0	0.00e+00	74	33	0	488636416	48	5824
2026-01-05 18:17:58.39	355.23	16.34	-37.3	-38.2	24.0	0.00e+00	0	33	0	489684992	48	5842
2026-01-05 18:17:59.40	355.01	16.37	-37.2	-38.1	23.9	0.00e+00	72	33	0	491782144	48	5803
2026-01-05 18:18:00.41	354.80	16.40	-37.3	-38.1	24.0	0.00e+00	91	33	0	493879296	48	5824
2026-01-05 18:18:01.42	354.58	16.43	-37.3	-38.2	24.0	0.00e+00	15	33	0	495976448	48	5846
2026-01-05 18:18:02.43	354.36	16.45	-37.3	-38.1	24.0	0.00e+00	0	33	0	498073600	48	5824
2026-01-05 18:18:03.44	354.14	16.48	-37.3	-38.1	24.0	0.00e+00	0	33	0	499122176	48	5811
2026-01-05 18:18:04.44	353.93	16.50	-37.2	-38.1	24.1	0.00e+00	8	33	0	501219328	48	5802
2026-01-05 18:18:05.45	353.71	16.53	-37.3	-38.2	24.0	0.00e+00	12	33	0	503316480	48	5856
2026-01-05 18:18:06.46	353.49	16.55	-37.1	-37.9	24.2	0.00e+00	5	33	0	505413632	48	5683
2026-01-05 18:18:07.47	353.27	16.58	-37.0	-37.8	24.3	0.00e+00	92	33	0	507510784	48	5629
2026-01-05 18:18:08.48	353.05	16.60	-37.1	-37.9	24.2	0.00e+00	0	33	0	508559360	48	5688
2026-01-05 18:18:09.48	352.83	16.63	-37.2	-38.0	24.0	0.00e+00	90	33	0	510656512	48	5760
2026-01-05 18:18:10.49	352.61	16.65	-37.4	-38.3	23.8	0.00e+00	6	33	0	512753664	48	5911
2026-01-05 18:18:11.50	352.39	16.67	-37.5	-38.4	23.8	0.00e+00	0	33	0	514850816	48	5996
2026-01-05 18:18:12.52	352.17	16.70	-37.6	-38.5	23.7	0.00e+00	0	33	0	516947968	48	6044
2026-01-05 18:18:13.52	351.95	16.72	-37.5	-38.4	23.8	0.00e+00	72	33	0	517996544	48	6012
2026-01-05 18:18:14.53	351.73	16.74	-37.6	-38.5	23.7	0.00e+00	92	33	0	520093696	48	6071
2026-01-05 18:18:15.54	351.50	16.76	-37.7	-38.6	23.7	0.00e+00	72	33	0	522190848	48	6104
2026-01-05 18:18:16.55	351.28	16.78	-37.7	-38.6	23.5	0.00e+00	92	33	0	524288000	48	6161
2026-01-05 18:18:17.56	351.06	16.80	-37.9	-38.8	23.5	0.00e+00	0	33	0	526385152	48	6307
2026-01-05 18:18:18.57	350.83	16.82	-38.0	-38.9	23.4	0.00e+00	18	33	0	527433728	48	6381
2026-01-05 18:18:19.58	350.61	16.84	-38.3	-39.2	23.2	0.00e+00	21	33	0	529530880	48	6583
2026-01-05 18:18:20.59	350.39	16.86	-38.1	-39.1	23.2	0.00e+00	72	33	0	531628032	48	6491
2026-01-05 18:18:21.60	350.16	16.88	-38.2	-39.1	23.2	0.00e+00	41	33	0	533725184	48	6537
2026-01-05 18:18:22.61	349.94	16.90	-38.0	-39.0	23.2	0.00e+00	14	33	0	535822336	48	6404
2026-01-05 18:18:23.62	349.71	16.92	-37.8	-38.8	23.5	0.00e+00	91	33	0	536870912	48	6249
2026-01-05 18:18:24.63	349.49	16.94	-37.8	-38.7	23.5	0.00e+00	13	33	0	538968064	48	6193
2026-01-05 18:18:25.64	349.26	16.95	-37.7	-38.6	23.7	0.00e+00	44	33	0	541065216	48	6111
2026-01-05 18:18:26.65	349.04	16.97	-37.9	-38.8	23.5	0.00e+00	18	33	0	543162368	48	6265
2026-01-05 18:18:27.65	348.81	16.98	-38.2	-39.1	23.2	0.00e+00	22	33	0	545259520	48	6523
2026-01-05 18:18:28.66	348.59	17.00	-38.2	-39.1	23.1	0.00e+00	0	33	0	547356672	48	6519
2026-01-05 18:18:29.67	348.36	17.02	-38.1	-39.0	23.3	0.00e+00	0	33	0	548405248	48	6411
2026-01-05 18:18:30.68	348.14	17.03	-38.0	-38.9	23.4	0.00e+00	92	33	0	550502400	48	6352
2026-01-05 18:18:31.69	347.91	17.05	-37.9	-38.8	23.5	0.00e+00	7	33	0	552599552	48	6271
2026-01-05 18:18:32.70	347.68	17.06	-38.0	-38.9	23.4	0.00e+00	92	33	0	554696704	48	6350
2026-01-05 18:18:33.71	347.45	17.07	-38.1	-39.1	23.0	0.00e+00	0	33	0	555745280	48	6467
2026-01-05 18:18:34.72	347.23	17.09	-38.3	-39.2	23.0	0.00e+00	69	33	0	557842432	48	6582
2026-01-05 18:18:35.72	347.00	17.10	-38.1	-39.0	23.3	0.00e+00	58	33	0	559939584	48	6424
2026-01-05 18:18:36.73	346.77	17.11	-38.2	-39.1	23.2	0.00e+00	73	33	0	562036736	48	6523
2026-01-05 18:18:37.74	346.55	17.12	-38.2	-39.2	23.1	0.00e+00	49	33	0	564133888	48	6553
2026-01-05 18:18:38.75	346.32	17.13	-38.2	-39.2	23.1	0.00e+00	0	33	0	565182464	48	6544
2026-01-05 18:18:39.76	346.09	17.14	-38.3	-39.2	23.0	0.00e+00	92	33	0	567279616	48	6601
2026-01-05 18:18:40.77	345.86	17.15	-38.2	-39.1	23.3	0.00e+00	9	33	0	569376768	48	6500
2026-01-05 18:18:41.78	345.63	17.16	-38.1	-39.0	23.3	0.00e+00	68	33	0	571473920	48	6411
2026-01-05 18:18:42.79	345.40	17.17	-38.1	-39.0	23.3	0.00e+00	15	33	0	573571072	48	6429
2026-01-05 18:18:43.80	345.18	17.18	-38.2	-39.1	23.2	0.00e+00	67	33	0	575668224	48	6530
2026-01-05 18:18:44.81	344.95	17.19	-38.2	-39.1	23.1	0.00e+00	37	33	0	576716800	48	6533
2026-01-05 18:18:45.82	344.72	17.20	-38.2	-39.2	23.1	0.00e+00	0	33	0	578813952	48	6563
2026-01-05 18:18:46.83	344.49	17.21	-38.2	-39.1	23.1	0.00e+00	90	33	0	580911104	48	6516
2026-01-05 18:18:47.84	344.26	17.21	-38.2	-39.2	23.1	0.00e+00	9	33	0	583008256	48	6561
2026-01-05 18:18:48.84	344.03	17.22	-38.2	-39.2	23.1	0.00e+00	91	33	0	585105408	48	6563
2026-01-05 18:18:49.85	343.80	17.23	-38.2	-39.1	23.2	0.00e+00	2	33	0	586153984	48	6504
2026-01-05 18:18:50.86	343.57	17.23	-38.1	-39.0	23.3	0.00e+00	0	33	0	588251136	48	6445
2026-01-05 18:18:51.87	343.34	17.24	-38.2	-39.1	23.2	0.00e+00	0	33	0	590348288	48	6524
2026-01-05 18:18:52.88	343.11	17.24	-38.1	-39.0	23.3	0.00e+00	2	33	0	592445440	48	6419
2026-01-05 18:18:53.89	342.88	17.25	-38.0	-38.9	23.3	0.00e+00	92	33	0	594542592	48	6371
2026-01-05 18:18:54.90	342.65	17.25	-38.0	-38.9	23.4	0.00e+00	2	33	0	595591168	48	6369
2026-01-05 18:18:55.91	342.42	17.25	-38.0	-38.9	23.3	0.00e+00	91	33	0	597688320	48	6383
2026-01-05 18:18:56.92	342.19	17.26	-38.0	-39.0	23.3	0.00e+00	0	33	0	599785472	48	6397
2026-01-05 18:18:57.93	341.96	17.26	-38.2	-39.1	23.2	0.00e+00	69	33	0	601882624	48	6497
2026-01-05 18:18:58.94	341.73	17.26	-38.0	-39.0	23.3	0.00e+00	4	33	0	603979776	48	6397
2026-01-05 18:18:59.95	341.50	17.26	-38.1	-39.1	23.2	0.00e+00	0	33	0	605028352	48	6470
2026-01-05 18:19:00.95	341.28	17.26	-38.0	-38.9	23.3	0.00e+00	92	33	0	607125504	48	6368
2026-01-05 18:19:01.96	341.05	17.26	-38.1	-39.0	23.3	0.00e+00	73	33	0	609222656	48	6425
2026-01-05 18:19:02.97	340.81	17.26	-38.2	-39.1	23.1	0.00e+00	92	33	0	611319808	48	6508
2026-01-05 18:19:03.98	340.58	17.26	-38.2	-39.2	23.1	0.00e+00	9	33	0	613416960	48	6568
2026-01-05 18:19:04.99	340.35	17.26	-38.2	-39.2	23.0	0.00e+00	92	33	0	614465536	48	6575
2026-01-05 18:19:06.00	340.12	17.26	-38.4	-39.3	22.9	0.00e+00	15	33	0	616562688	48	6670
2026-01-05 18:19:07.01	339.89	17.26	-38.4	-39.4	22.2	0.00e+00	2	33	0	618659840	48	6726
2026-01-05 18:19:08.02	339.66	17.26	-38.2	-39.1	23.1	0.00e+00	92	33	0	620756992	48	6529
2026-01-05 18:19:09.03	339.43	17.25	-38.2	-39.1	23.1	0.00e+00	9	33	0	622854144	48	6516
2026-01-05 18:19:10.04	339.20	17.25	-38.1	-39.1	23.2	0.00e+00	92	33	0	623902720	48	6467
2026-01-05 18:19:11.05	338.97	17.25	-37.9	-38.8	23.5	0.00e+00	2	33	0	625999872	48	6289
2026-01-05 18:19:12.06	338.74	17.24	-37.9	-38.8	23.4	0.00e+00	92	33	0	628097024	48	6274
2026-01-05 18:19:13.07	338.51	17.24	-37.8	-38.7	23.4	0.00e+00	0	33	0	630194176	48	6243
2026-01-05 18:19:14.08	338.28	17.23	-37.8	-38.7	23.6	0.00e+00	2	33	0	632291328	48	6204
2026-01-05 18:19:15.09	338.06	17.23	-37.9	-38.9	23.4	0.00e+00	0	33	0	633339904	48	6325
2026-01-05 18:19:16.10	337.83	17.22	-37.9	-38.9	23.4	0.00e+00	0	33	0	635437056	48	6336
2026-01-05 18:19:17.11	337.60	17.21	-38.1	-39.0	23.2	0.00e+00	91	33	0	637534208	48	6425
2026-01-05 18:19:18.12	337.37	17.21	-38.0	-39.0	23.2	0.00e+00	0	33	0	639631360	48	6396
2026-01-05 18:19:19.12	337.14	17.20	-38.1	-39.1	23.1	0.00e+00	92	33	0	641728512	48	6477
2026-01-05 18:19:20.13	336.91	17.19	-38.1	-39.1	23.3	0.00e+00	0	33	0	643825664	48	6470
2026-01-05 18:19:21.14	336.68	17.18	-38.1	-39.1	23.2	0.00e+00	67	33	0	644874240	48	6465
2026-01-05 18:19:22.15	336.45	17.17	-38.1	-39.1	23.2	0.00e+00	0	33	0	646971392	48	6483
2026-01-05 18:19:23.16	336.22	17.16	-38.2	-39.2	23.1	0.00e+00	0	33	0	649068544	48	6547
2026-01-05 18:19:24.17	336.00	17.15	-38.0	-38.9	23.4	0.00e+00	74	33	0	651165696	48	6367
2026-01-05 18:19:25.18	335.77	17.14	-37.9	-38.8	23.4	0.00e+00	9	33	0	653262848	48	6304
2026-01-05 18:19:26.19	335.54	17.13	-37.7	-38.6	23.6	0.00e+00	92	33	0	654311424	48	6152
2026-01-05 18:19:27.20	335.31	17.12	-37.6	-38.5	23.7	0.00e+00	10	33	0	656408576	48	6052
2026-01-05 18:19:28.21	335.08	17.11	-37.7	-38.6	23.6	0.00e+00	68	33	0	658505728	48	6148
2026-01-05 18:19:29.22	334.85	17.10	-37.5	-38.4	23.6	0.00e+00	0	33	0	660602880	48	5991
2026-01-05 18:19:30.23	334.63	17.08	-37.6	-38.5	23.6	0.00e+00	0	33	0	662700032	48	6096
2026-01-05 18:19:31.24	334.40	17.07	-37.7	-38.6	23.6	0.00e+00	0	33	0	663748608	48	6129
2026-01-05 18:19:32.25	334.17	17.06	-37.7	-38.6	23.6	0.00e+00	8	33	0	665845760	48	6107
2026-01-05 18:19:33.25	333.95	17.04	-37.6	-38.5	23.6	0.00e+00	92	33	0	667942912	48	6098
2026-01-05 18:19:34.26	333.72	17.03	-37.6	-38.5	23.8	0.00e+00	0	33	0	670040064	48	6060
2026-01-05 18:19:35.27	333.49	17.01	-37.6	-38.5	23.7	0.00e+00	50	33	0	672137216	48	6060
2026-01-05 18:19:36.28	333.27	17.00	-37.6	-38.5	23.7	0.00e+00	0	33	0	673185792	48	6076
2026-01-05 18:19:37.29	333.04	16.98	-37.5	-38.3	23.8	0.00e+00	0	33	0	675282944	48	5952
2026-01-05 18:19:38.29	332.82	16.97	-37.4	-38.3	23.9	0.00e+00	0	33	0	677380096	48	5927
2026-01-05 18:19:39.30	332.59	16.95	-37.5	-38.4	23.8	0.00e+00	0	33	0	679477248	48	5978
2026-01-05 18:19:40.31	332.37	16.93	-37.3	-38.1	24.0	0.00e+00	91	33	0	681574400	48	5815
2026-01-05 18:19:41.32	332.14	16.91	-37.2	-38.1	24.0	0.00e+00	0	33	0	682622976	48	5775
2026-01-05 18:19:42.33	331.92	16.90	-37.2	-38.1	24.0	0.00e+00	92	33	0	684720128	48	5784
2026-01-05 18:19:43.34	331.69	16.88	-37.2	-38.1	24.0	0.00e+00	72	33	0	686817280	48	5787
2026-01-05 18:19:44.35	331.47	16.86	-37.2	-38.1	24.1	0.00e+00	27	33	0	688914432	48	5764
2026-01-05 18:19:45.36	331.25	16.84	-37.1	-37.9	24.1	0.00e+00	66	33	0	691011584	48	5683
2026-01-05 18:19:46.37	331.02	16.82	-37.0	-37.9	24.2	0.00e+00	0	33	0	692060160	48	5638
2026-01-05 18:19:47.38	330.80	16.80	-37.2	-38.0	24.1	0.00e+00	67	33	0	694157312	48	5748
2026-01-05 18:19:48.39	330.58	16.78	-37.1	-38.0	24.2	0.00e+00	72	33	0	696254464	48	5722
2026-01-05 18:19:49.40	330.35	16.76	-37.2	-38.1	24.1	0.00e+00	92	33	0	698351616	48	5767
2026-01-05 18:19:50.41	330.13	16.74	-37.2	-38.0	24.1	0.00e+00	69	33	0	700448768	48	5756
2026-01-05 18:19:51.42	329.91	16.71	-37.3	-38.2	24.0	0.00e+00	13	33	0	701497344	48	5833
2026-01-05 18:19:52.42	329.69	16.69	-37.2	-38.1	23.8	0.00e+00	9	33	0	703594496	48	5785
2026-01-05 18:19:53.43	329.47	16.67	-37.2	-38.1	24.0	0.00e+00	11	33	0	705691648	48	5792
2026-01-05 18:19:54.44	329.25	16.65	-37.3	-38.2	23.9	0.00e+00	0	33	0	707788800	48	5879
2026-01-05 18:19:55.45	329.03	16.62	-37.4	-38.3	23.8	0.00e+00	0	33	0	709885952	48	5933
2026-01-05 18:19:56.46	328.81	16.60	-37.3	-38.2	23.9	0.00e+00	92	33	0	711983104	48	5870
2026-01-05 18:19:57.47	328.58	16.57	-37.3	-38.2	24.0	0.00e+00	6	33	0	713031680	48	5859
2026-01-05 18:19:58.48	328.37	16.55	-37.3	-38.2	23.9	0.00e+00	92	33	0	715128832	48	5837
2026-01-05 18:19:59.49	328.15	16.52	-37.5	-38.3	23.8	0.00e+00	6	33	0	717225984	48	5963
2026-01-05 18:20:00.50	327.93	16.50	-37.5	-38.3	23.9	0.00e+00	6	33	0	719323136	48	5959
2026-01-05 18:20:01.51	327.71	16.47	-37.5	-38.4	23.8	0.00e+00	6	33	0	720371712	48	5976
2026-01-05 18:20:02.52	327.49	16.45	-37.5	-38.4	23.8	0.00e+00	0	33	0	722468864	48	5982
2026-01-05 18:20:03.53	327.27	16.42	-37.6	-38.5	23.6	0.00e+00	92	33	0	724566016	48	6053
2026-01-05 18:20:04.53	327.06	16.39	-37.6	-38.5	23.6	0.00e+00	71	33	0	726663168	48	6066
2026-01-05 18:20:05.54	326.84	16.37	-37.8	-38.6	23.5	0.00e+00	92	33	0	728760320	48	6168
2026-01-05 18:20:06.55	326.62	16.34	-37.9	-38.8	23.4	0.00e+00	0	33	0	729808896	48	6251
2026-01-05 18:20:07.56	326.41	16.31	-37.8	-38.8	23.5	0.00e+00	72	33	0	731906048	48	6247
2026-01-05 18:20:08.57	326.19	16.28	-37.8	-38.7	23.5	0.00e+00	71	33	0	734003200	48	6230
2026-01-05 18:20:09.58	325.98	16.25	-37.9	-38.9	23.4	0.00e+00	0	33	0	736100352	48	6324
2026-01-05 18:20:10.59	325.76	16.22	-38.2	-39.1	23.2	0.00e+00	55	33	0	738197504	48	6493
2026-01-05 18:20:11.60	325.55	16.19	-38.1	-39.1	23.2	0.00e+00	15	33	0	740294656	48	6468
2026-01-05 18:20:12.61	325.33	16.16	-38.3	-39.3	23.1	0.00e+00	90	33	0	741343232	48	6618
2026-01-05 18:20:13.62	325.12	16.13	-38.1	-39.1	23.2	0.00e+00	14	33	0	743440384	48	6489
2026-01-05 18:20:14.62	324.91	16.10	-38.3	-39.2	23.1	0.00e+00	85	33	0	745537536	48	6587
2026-01-05 18:20:15.64	324.69	16.07	-38.2	-39.2	23.1	0.00e+00	6	33	0	747634688	48	6559
2026-01-05 18:20:16.64	324.48	16.04	-38.3	-39.2	23.0	0.00e+00	6	33	0	749731840	48	6600
2026-01-05 18:20:17.65	324.27	16.01	-38.3	-39.2	23.1	0.00e+00	0	33	0	750780416	48	6599
2026-01-05 18:20:18.66	324.06	15.97	-38.3	-39.2	23.1	0.00e+00	0	33	0	752877568	48	6578
2026-01-05 18:20:19.67	323.85	15.94	-38.2	-39.2	23.1	0.00e+00	92	33	0	754974720	48	6559
2026-01-05 18:20:20.68	323.64	15.91	-38.2	-39.2	23.2	0.00e+00	0	33	0	757071872	48	6540
2026-01-05 18:20:21.69	323.43	15.87	-38.2	-39.1	23.1	0.00e+00	92	33	0	759169024	48	6500
2026-01-05 18:20:22.70	323.22	15.84	-38.3	-39.2	23.1	0.00e+00	6	33	0	760217600	48	6609
2026-01-05 18:20:23.71	323.01	15.81	-38.2	-39.1	23.2	0.00e+00	71	33	0	762314752	48	6509
2026-01-05 18:20:24.72	322.80	15.77	-38.1	-39.0	23.2	0.00e+00	0	33	0	764411904	48	6431
2026-01-05 18:20:25.73	322.59	15.74	-38.1	-39.0	23.3	0.00e+00	72	33	0	766509056	48	6407
2026-01-05 18:20:26.74	322.39	15.70	-37.8	-38.7	23.5	0.00e+00	92	33	0	768606208	48	6240
2026-01-05 18:20:27.75	322.18	15.67	-37.7	-38.6	23.6	0.00e+00	72	33	0	769654784	48	6122
2026-01-05 18:20:28.75	321.97	15.63	-37.7	-38.6	23.6	0.00e+00	92	33	0	771751936	48	6145
2026-01-05 18:20:29.76	321.77	15.60	-37.6	-38.5	23.7	0.00e+00	9	33	0	773849088	48	6088
2026-01-05 18:20:30.77	321.56	15.56	-37.6	-38.5	23.7	0.00e+00	73	33	0	775946240	48	6085
2026-01-05 18:20:31.78	321.36	15.52	-37.8	-38.6	23.5	0.00e+00	72	33	0	778043392	48	6171
2026-01-05 18:20:32.79	321.15	15.49	-37.8	-38.7	23.2	0.00e+00	15	33	0	779091968	48	6228
2026-01-05 18:20:33.80	320.95	15.45	-37.8	-38.7	23.4	0.00e+00	56	33	0	781189120	48	6227
2026-01-05 18:20:34.81	320.75	15.41	-37.8	-38.7	23.4	0.00e+00	0	33	0	783286272	48	6236
2026-01-05 18:20:35.82	320.54	15.37	-37.8	-38.7	23.5	0.00e+00	92	33	0	785383424	48	6227
2026-01-05 18:20:36.83	320.34	15.33	-37.8	-38.7	23.6	0.00e+00	14	33	0	787480576	48	6189
2026-01-05 18:20:37.84	320.14	15.30	-37.9	-38.8	23.5	0.00e+00	92	33	0	788529152	48	6307
2026-01-05 18:20:38.85	319.94	15.26	-37.8	-38.7	23.5	0.00e+00	0	33	0	790626304	48	6238
2026-01-05 18:20:39.86	319.74	15.22	-37.9	-38.9	23.4	0.00e+00	0	33	0	792723456	48	6324
2026-01-05 18:20:40.87	319.53	15.18	-37.8	-38.7	23.5	0.00e+00	0	33	0	794820608	48	6236
2026-01-05 18:20:41.88	319.34	15.14	-37.9	-38.8	23.2	0.00e+00	0	33	0	796917760	48	6305
2026-01-05 18:20:42.89	319.14	15.10	-37.9	-38.8	23.5	0.00e+00	92	33	0	797966336	48	6254
2026-01-05 18:20:43.90	318.94	15.06	-37.8	-38.7	23.5	0.00e+00	0	33	0	800063488	48	6239
2026-01-05 18:20:44.91	318.74	15.02	-37.8	-38.7	23.4	0.00e+00	91	33	0	802160640	48	6215
2026-01-05 18:20:45.91	318.54	14.98	-37.9	-38.8	23.4	0.00e+00	66	33	0	804257792	48	6289
2026-01-05 18:20:46.92	318.35	14.94	-37.8	-38.7	23.5	0.00e+00	71	33	0	806354944	48	6175
2026-01-05 18:20:47.93	318.15	14.89	-37.8	-38.7	23.5	0.00e+00	0	33	0	808452096	48	6227
2026-01-05 18:20:48.94	317.95	14.85	-37.9	-38.8	23.4	0.00e+00	0	33	0	809500672	48	6268
2026-01-05 18:20:49.95	317.76	14.81	-37.9	-38.9	23.4	0.00e+00	90	33	0	811597824	48	6322
2026-01-05 18:20:50.95	317.56	14.77	-38.1	-39.0	23.3	0.00e+00	0	33	0	813694976	48	6418
2026-01-05 18:20:51.96	317.37	14.73	-38.0	-39.0	23.2	0.00e+00	91	33	0	815792128	48	6404
2026-01-05 18:20:52.98	317.17	14.68	-38.2	-39.2	23.1	0.00e+00	10	33	0	817889280	48	6561
2026-01-05 18:20:53.99	316.98	14.64	-38.1	-39.1	23.2	0.00e+00	72	33	0	818937856	48	6482
2026-01-05 18:20:54.99	316.79	14.60	-38.2	-39.2	23.2	0.00e+00	72	33	0	821035008	48	6554
2026-01-05 18:20:56.00	316.60	14.55	-38.1	-39.1	23.2	0.00e+00	10	33	0	823132160	48	6481
2026-01-05 18:20:57.01	316.41	14.51	-38.1	-39.0	23.2	0.00e+00	42	33	0	825229312	48	6445
2026-01-05 18:20:58.02	316.22	14.47	-38.0	-38.9	23.4	0.00e+00	11	33	0	827326464	48	6366
2026-01-05 18:20:59.03	316.03	14.42	-37.8	-38.7	23.5	0.00e+00	92	33	0	828375040	48	6225
2026-01-05 18:21:00.04	315.84	14.38	-37.8	-38.7	23.6	0.00e+00	0	33	0	830472192	48	6191
2026-01-05 18:21:01.05	315.65	14.33	-37.8	-38.7	23.5	0.00e+00	92	33	0	832569344	48	6220
2026-01-05 18:21:02.06	315.46	14.29	-38.0	-39.0	23.3	0.00e+00	0	33	0	834666496	48	6395
2026-01-05 18:21:03.07	315.27	14.24	-38.2	-39.2	23.1	0.00e+00	2	33	0	836763648	48	6544
2026-01-05 18:21:04.08	315.08	14.20	-38.4	-39.4	22.9	0.00e+00	0	33	0	837812224	48	6715
2026-01-05 18:21:05.09	314.90	14.15	-38.5	-39.5	22.9	0.00e+00	0	33	0	839909376	48	6788
2026-01-05 18:21:06.10	314.71	14.11	-38.6	-39.6	22.7	0.00e+00	92	33	0	842006528	48	6862
2026-01-05 18:21:07.11	314.52	14.06	-38.6	-39.6	22.7	0.00e+00	2	33	0	844103680	48	6865
2026-01-05 18:21:08.12	314.34	14.01	-38.7	-39.7	22.6	0.00e+00	92	33	0	846200832	50	6196
2026-01-05 18:21:09.12	314.16	13.97	-38.6	-39.6	22.7	0.00e+00	66	33	0	847249408	50	6116
2026-01-05 18:21:10.14	313.97	13.92	-38.6	-39.5	22.7	0.00e+00	0	33	0	849346560	50	6098
2026-01-05 18:21:11.14	313.79	13.88	-38.7	-39.7	22.6	0.00e+00	0	33	0	851443712	50	6200
2026-01-05 18:21:12.15	313.61	13.83	-38.8	-39.8	22.5	0.00e+00	68	33	0	853540864	50	6284
2026-01-05 18:21:13.16	313.42	13.78	-38.8	-39.8	22.5	0.00e+00	65	33	0	855638016	50	6255
2026-01-05 18:21:14.18	313.24	13.73	-38.9	-39.9	22.4	0.00e+00	0	33	0	856686592	50	6371
2026-01-05 18:21:15.18	313.06	13.69	-38.9	-39.9	22.4	0.00e+00	92	33	0	858783744	50	6386
2026-01-05 18:21:16.19	312.88	13.64	-38.9	-40.0	22.3	0.00e+00	9	33	0	860880896	50	6410
2026-01-05 18:21:17.20	312.70	13.59	-38.9	-39.9	22.4	0.00e+00	91	33	0	862978048	50	6381
2026-01-05 18:21:18.21	312.52	13.54	-39.0	-40.0	22.3	0.00e+00	11	33	0	865075200	50	6445
2026-01-05 18:21:19.22	312.34	13.49	-39.1	-40.2	22.2	0.00e+00	0	33	0	866123776	50	6546
2026-01-05 18:21:20.23	312.16	13.45	-39.2	-40.3	22.1	0.00e+00	62	33	0	868220928	50	6625
2026-01-05 18:21:21.24	311.99	13.40	-39.4	-40.5	22.0	0.00e+00	11	33	0	870318080	50	6777
2026-01-05 18:21:22.25	311.81	13.35	-39.5	-40.6	21.8	0.00e+00	92	33	0	872415232	50	6874
2026-01-05 18:21:23.26	311.63	13.30	-39.6	-40.7	21.7	0.00e+00	0	33	0	874512384	50	6973
2026-01-05 18:21:24.27	311.46	13.25	-39.7	-40.8	21.6	0.00e+00	92	33	0	876609536	50	7075
2026-01-05 18:21:25.28	311.28	13.20	-39.7	-40.9	21.5	0.00e+00	0	33	0	877658112	52	6321
2026-01-05 18:21:26.29	311.11	13.15	-39.6	-40.7	21.5	0.00e+00	0	33	0	879755264	52	6241
2026-01-05 18:21:27.30	310.93	13.10	-39.7	-40.8	21.6	0.00e+00	0	33	0	881852416	52	6290
2026-01-05 18:21:28.30	310.76	13.05	-39.8	-41.0	21.5	0.00e+00	0	33	0	883949568	52	6420
2026-01-05 18:21:29.31	310.59	13.00	-39.7	-40.8	21.6	0.00e+00	92	33	0	886046720	52	6256
2026-01-05 18:21:30.32	310.42	12.95	-39.6	-40.8	21.5	0.00e+00	0	33	0	887095296	52	6249
2026-01-05 18:21:31.33	310.25	12.90	-39.4	-40.5	21.8	0.00e+00	15	33	0	889192448	52	6092
2026-01-05 18:21:32.34	310.07	12.85	-39.4	-40.5	21.9	0.00e+00	0	33	0	891289600	52	6059
2026-01-05 18:21:33.35	309.90	12.80	-39.4	-40.5	21.9	0.00e+00	0	33	0	893386752	52	6069
2026-01-05 18:21:34.36	309.73	12.75	-39.5	-40.5	21.8	0.00e+00	69	33	0	895483904	52	6096
2026-01-05 18:21:35.37	309.56	12.70	-39.7	-40.8	21.6	0.00e+00	19	33	0	896532480	52	6284
2026-01-05 18:21:36.38	309.40	12.65	-39.8	-41.0	21.4	0.00e+00	65	33	0	898629632	52	6398
2026-01-05 18:21:37.39	309.23	12.60	-40.1	-41.2	21.2	0.00e+00	64	33	0	900726784	52	6603
2026-01-05 18:21:38.40	309.06	12.54	-40.2	-41.4	21.0	0.00e+00	90	33	0	902823936	52	6737
2026-01-05 18:21:39.41	308.89	12.49	-40.4	-41.6	20.9	0.00e+00	0	33	0	904921088	52	6872
2026-01-05 18:21:40.42	308.73	12.44	-40.4	-41.6	20.9	0.00e+00	7	33	0	905969664	52	6870
2026-01-05 18:21:41.43	308.56	12.39	-40.2	-41.4	21.1	0.00e+00	6	33	0	908066816	52	6711
2026-01-05 18:21:42.44	308.40	12.34	-40.2	-41.4	20.9	0.00e+00	6	33	0	910163968	52	6766
2026-01-05 18:21:43.45	308.23	12.29	-40.2	-41.4	21.0	0.00e+00	0	33	0	912261120	52	6710
2026-01-05 18:21:44.46	308.07	12.23	-40.1	-41.2	21.2	0.00e+00	5	33	0	914358272	52	6592
2026-01-05 18:21:45.47	307.90	12.18	-40.1	-41.3	21.1	0.00e+00	91	33	0	915406848	52	6675
2026-01-05 18:21:46.47	307.74	12.13	-40.1	-41.3	21.2	0.00e+00	0	33	0	917504000	52	6618
2026-01-05 18:21:47.48	307.58	12.08	-40.1	-41.3	21.0	0.00e+00	5	33	0	919601152	52	6682
2026-01-05 18:21:48.49	307.42	12.02	-40.1	-41.3	21.0	0.00e+00	0	33	0	921698304	52	6674
2026-01-05 18:21:49.50	307.26	11.97	-40.2	-41.4	21.0	0.00e+00	5	33	0	923795456	52	6710
2026-01-05 18:21:50.51	307.10	11.92	-40.2	-41.4	21.0	0.00e+00	0	33	0	924844032	52	6746
2026-01-05 18:21:51.52	306.94	11.87	-40.2	-41.4	21.0	0.00e+00	69	33	0	926941184	52	6730
2026-01-05 18:21:52.53	306.78	11.81	-40.2	-41.4	21.0	0.00e+00	92	33	0	929038336	52	6706
2026-01-05 18:21:53.54	306.62	11.76	-40.2	-41.4	21.0	0.00e+00	0	33	0	931135488	52	6749
2026-01-05 18:21:54.55	306.46	11.71	-40.3	-41.5	20.8	0.00e+00	92	33	0	933232640	52	6848
2026-01-05 18:21:55.56	306.31	11.65	-40.3	-41.5	20.9	0.00e+00	19	33	0	934281216	52	6777
2026-01-05 18:21:56.57	306.15	11.60	-40.2	-41.4	21.0	0.00e+00	68	33	0	936378368	52	6752
2026-01-05 18:21:57.58	305.99	11.55	-40.2	-41.4	21.1	0.00e+00	70	33	0	938475520	52	6736
2026-01-05 18:21:58.59	305.84	11.49	-40.2	-41.4	21.0	0.00e+00	23	33	0	940572672	52	6768
2026-01-05 18:21:59.60	305.68	11.44	-40.1	-41.3	21.1	0.00e+00	69	33	0	942669824	52	6668
2026-01-05 18:22:00.61	305.53	11.39	-40.3	-41.6	20.8	0.00e+00	69	33	0	943718400	52	6865
2026-01-05 18:22:01.62	305.37	11.33	-40.3	-41.5	20.9	0.00e+00	92	33	0	945815552	52	6821
2026-01-05 18:22:02.63	305.22	11.28	-40.2	-41.4	21.0	0.00e+00	5	33	0	947912704	52	6701
2026-01-05 18:22:03.64	305.07	11.22	-40.3	-41.6	20.8	0.00e+00	18	33	0	950009856	52	6877
2026-01-05 18:22:04.64	304.92	11.17	-40.3	-41.5	20.9	0.00e+00	6	33	0	952107008	52	6792
2026-01-05 18:22:05.65	304.76	11.12	-40.3	-41.5	20.8	0.00e+00	22	33	0	953155584	52	6826
2026-01-05 18:22:06.66	304.61	11.06	-40.1	-41.3	21.1	0.00e+00	0	33	0	955252736	52	6641
2026-01-05 18:22:07.67	304.46	11.01	-40.1	-41.3	21.2	0.00e+00	7	33	0	957349888	52	6619
2026-01-05 18:22:08.68	304.31	10.95	-39.9	-41.1	21.3	0.00e+00	92	33	0	959447040	52	6500
2026-01-05 18:22:09.69	304.16	10.90	-40.0	-41.2	21.2	0.00e+00	0	33	0	961544192	52	6543
2026-01-05 18:22:10.70	304.01	10.84	-39.8	-41.0	21.4	0.00e+00	63	33	0	962592768	52	6407
2026-01-05 18:22:11.71	303.86	10.79	-39.8	-41.0	21.3	0.00e+00	56	33	0	964689920	52	6416
2026-01-05 18:22:12.72	303.72	10.74	-39.7	-40.8	21.5	0.00e+00	63	33	0	966787072	52	6313
2026-01-05 18:22:13.73	303.57	10.68	-39.7	-40.8	21.6	0.00e+00	0	33	0	968884224	52	6267
2026-01-05 18:22:14.74	303.42	10.63	-39.7	-40.8	21.5	0.00e+00	0	33	0	970981376	52	6283
2026-01-05 18:22:15.75	303.28	10.57	-39.6	-40.8	21.5	0.00e+00	91	33	0	973078528	52	6246
2026-01-05 18:22:16.76	303.13	10.52	-39.4	-40.5	21.8	0.00e+00	0	33	0	974127104	52	6050
2026-01-05 18:22:17.77	302.99	10.46	-39.4	-40.5	21.8	0.00e+00	90	33	0	976224256	52	6083
2026-01-05 18:22:18.78	302.84	10.41	-39.4	-40.4	21.8	0.00e+00	68	33	0	978321408	52	6017
2026-01-05 18:22:19.79	302.70	10.35	-39.4	-40.4	21.8	0.00e+00	12	33	0	980418560	52	6017
2026-01-05 18:22:20.80	302.55	10.30	-39.3	-40.4	21.9	0.00e+00	68	33	0	982515712	52	5975
2026-01-05 18:22:21.81	302.41	10.24	-39.5	-40.6	21.7	0.00e+00	69	33	0	983564288	52	6161
2026-01-05 18:22:22.82	302.27	10.19	-39.4	-40.5	21.7	0.00e+00	91	33	0	985661440	52	6060
2026-01-05 18:22:23.83	302.13	10.13	-39.6	-40.7	21.6	0.00e+00	12	33	0	987758592	52	6218
2026-01-05 18:22:24.83	301.99	10.08	-39.6	-40.7	21.7	0.00e+00	92	33	0	989855744	52	6191
2026-01-05 18:22:25.84	301.85	10.02	-39.5	-40.6	21.6	0.00e+00	12	33	0	991952896	52	6168
2026-01-05 18:22:26.85	301.71	9.97	-39.4	-40.5	21.8	0.00e+00	0	33	0	993001472	52	6047
2026-01-05 18:22:27.86	301.57	9.91	-39.1	-40.2	22.1	0.00e+00	0	33	0	995098624	52	5832
2026-01-05 18:22:28.87	301.43	9.85	-39.2	-40.2	22.1	0.00e+00	0	33	0	997195776	52	5876
2026-01-05 18:22:29.88	301.29	9.80	-38.9	-39.9	22.3	0.00e+00	0	33	0	999292928	52	5679
2026-01-05 18:22:30.89	301.15	9.74	-38.9	-40.0	22.2	0.00e+00	0	33	0	1001390080	52	5711
2026-01-05 18:22:31.90	301.02	9.69	-38.9	-40.0	22.2	0.00e+00	92	33	0	1002438656	52	5702
2026-01-05 18:22:32.91	300.88	9.63	-38.7	-39.8	22.4	0.00e+00	67	33	0	1004535808	52	5567
2026-01-05 18:22:33.92	300.74	9.58	-38.6	-39.6	22.6	0.00e+00	92	33	0	1006632960	50	6128
2026-01-05 18:22:34.93	300.61	9.52	-38.6	-39.5	22.6	0.00e+00	4	33	0	1008730112	50	6102
2026-01-05 18:22:35.94	300.47	9.46	-38.6	-39.6	22.5	0.00e+00	0	33	0	1010827264	50	6138
2026-01-05 18:22:36.95	300.34	9.41	-38.6	-39.6	22.5	0.00e+00	0	33	0	1011875840	50	6125
2026-01-05 18:22:37.96	300.20	9.35	-38.6	-39.6	22.6	0.00e+00	18	33	0	1013972992	50	6164
2026-01-05 18:22:38.97	300.07	9.30	-38.7	-39.7	22.4	0.00e+00	91	33	0	1016070144	50	6204
2026-01-05 18:22:39.98	299.94	9.24	-38.7	-39.7	22.4	0.00e+00	64	33	0	1018167296	50	6235
2026-01-05 18:22:40.99	299.80	9.19	-38.4	-39.4	22.7	0.00e+00	92	33	0	1020264448	50	6021
2026-01-05 18:22:42.00	299.67	9.13	-38.6	-39.6	22.4	0.00e+00	61	33	0	1021313024	50	6139
2026-01-05 18:22:43.01	299.54	9.07	-38.6	-39.6	22.2	0.00e+00	4	33	0	1023410176	50	6133
2026-01-05 18:22:44.02	299.41	9.02	-38.4	-39.4	22.5	0.00e+00	0	33	0	1025507328	50	6002
2026-01-05 18:22:45.03	299.28	8.96	-38.3	-39.3	22.7	0.00e+00	2	33	0	1027604480	50	5926
2026-01-05 18:22:46.03	299.15	8.91	-38.2	-39.2	22.9	0.00e+00	92	33	0	1029701632	50	5832
2026-01-05 18:22:47.04	299.02	8.85	-38.1	-39.1	22.9	0.00e+00	2	33	0	1030750208	50	5792
2026-01-05 18:22:48.05	298.89	8.80	-38.0	-39.0	23.0	0.00e+00	92	33	0	1032847360	50	5698
2026-01-05 18:22:49.06	298.76	8.74	-38.1	-39.0	22.4	0.00e+00	0	33	0	1034944512	50	5728
2026-01-05 18:22:50.07	298.63	8.68	-37.9	-38.9	22.8	0.00e+00	0	33	0	1037041664	50	5644
2026-01-05 18:22:51.08	298.51	8.63	-38.0	-39.0	22.9	0.00e+00	0	33	0	1039138816	50	5726
2026-01-05 18:22:52.09	298.38	8.57	-38.1	-39.1	23.0	0.00e+00	0	33	0	1041235968	50	5768
2026-01-05 18:22:53.10	298.25	8.52	-38.1	-39.1	22.9	0.00e+00	0	33	0	1042284544	50	5797
2026-01-05 18:22:54.11	298.13	8.46	-38.4	-39.3	22.8	0.00e+00	0	33	0	1044381696	50	5959
2026-01-05 18:22:55.12	298.00	8.40	-38.2	-39.1	22.9	0.00e+00	90	33	0	1046478848	50	5818
2026-01-05 18:22:56.13	297.87	8.35	-38.2	-39.2	22.8	0.00e+00	69	33	0	1048576000	50	5848
2026-01-05 18:22:57.14	297.75	8.29	-38.3	-39.3	22.7	0.00e+00	90	33	0	1050673152	50	5949
2026-01-05 18:22:58.15	297.63	8.23	-38.3	-39.3	22.7	0.00e+00	0	33	0	1051721728	50	5936
2026-01-05 18:22:59.15	297.50	8.18	-38.4	-39.4	22.6	0.00e+00	0	33	0	1053818880	50	6013
2026-01-05 18:23:00.16	297.38	8.12	-38.4	-39.4	22.6	0.00e+00	22	33	0	1055916032	50	6007
2026-01-05 18:23:01.17	297.26	8.07	-38.3	-39.3	22.7	0.00e+00	69	33	0	1058013184	50	5935
2026-01-05 18:23:02.18	297.14	8.01	-38.3	-39.3	22.7	0.00e+00	92	33	0	1060110336	50	5953
2026-01-05 18:23:03.19	297.01	7.96	-38.4	-39.4	22.6	0.00e+00	69	33	0	1061158912	50	6013
2026-01-05 18:23:04.20	296.89	7.90	-38.3	-39.3	22.7	0.00e+00	92	33	0	1063256064	50	5924
2026-01-05 18:23:05.21	296.77	7.84	-38.4	-39.4	22.6	0.00e+00	20	33	0	1065353216	50	6002
2026-01-05 18:23:06.22	296.65	7.79	-38.4	-39.4	22.6	0.00e+00	2	33	0	1067450368	50	6017
2026-01-05 18:23:07.23	296.53	7.73	-38.3	-39.3	22.7	0.00e+00	0	33	0	1069547520	50	5928
2026-01-05 18:23:08.23	296.41	7.68	-38.4	-39.4	22.5	0.00e+00	20	33	0	1070596096	50	6033
2026-01-05 18:23:09.25	296.29	7.62	-38.5	-39.5	22.5	0.00e+00	52	33	0	1072693248	50	6088
2026-01-05 18:23:10.26	296.18	7.56	-38.7	-39.7	22.3	0.00e+00	18	33	0	1074790400	50	6226
2026-01-05 18:23:11.27	296.06	7.51	-38.9	-39.9	22.1	0.00e+00	91	33	0	1076887552	50	6382
2026-01-05 18:23:12.27	295.94	7.45	-38.7	-39.8	22.3	0.00e+00	0	33	0	1078984704	50	6263
2026-01-05 18:23:13.28	295.82	7.40	-38.9	-39.9	22.1	0.00e+00	61	33	0	1080033280	50	6374
2026-01-05 18:23:14.29	295.71	7.34	-38.9	-40.0	22.0	0.00e+00	0	33	0	1082130432	50	6421
2026-01-05 18:23:15.30	295.59	7.28	-39.0	-40.1	21.9	0.00e+00	0	33	0	1084227584	50	6480
2026-01-05 18:23:16.31	295.48	7.23	-38.8	-39.9	22.2	0.00e+00	0	33	0	1086324736	50	6320
2026-01-05 18:23:17.32	295.36	7.17	-38.9	-40.0	22.0	0.00e+00	0	33	0	1088421888	50	6423
2026-01-05 18:23:18.33	295.25	7.12	-38.9	-40.0	22.0	0.00e+00	90	33	0	1089470464	50	6392
2026-01-05 18:23:19.34	295.13	7.06	-38.8	-39.9	22.1	0.00e+00	66	33	0	1091567616	50	6346
2026-01-05 18:23:20.35	295.02	7.00	-38.7	-39.7	22.2	0.00e+00	90	33	0	1093664768	50	6228
2026-01-05 18:23:21.36	294.90	6.95	-38.7	-39.8	22.2	0.00e+00	16	33	0	1095761920	50	6272
2026-01-05 18:23:22.37	294.79	6.89	-38.5	-39.6	22.4	0.00e+00	0	33	0	1097859072	50	6105
2026-01-05 18:23:23.38	294.68	6.84	-38.5	-39.6	22.4	0.00e+00	0	33	0	1098907648	50	6108
2026-01-05 18:23:24.39	294.57	6.78	-38.6	-39.6	22.4	0.00e+00	60	33	0	1101004800	50	6142
2026-01-05 18:23:25.40	294.46	6.72	-38.6	-39.7	22.3	0.00e+00	66	33	0	1103101952	50	6181
2026-01-05 18:23:26.41	294.34	6.67	-38.7	-39.7	22.2	0.00e+00	65	33	0	1105199104	50	6198
2026-01-05 18:23:27.42	294.23	6.61	-38.6	-39.7	22.2	0.00e+00	90	33	0	1107296256	50	6194
2026-01-05 18:23:28.43	294.12	6.56	-38.7	-39.7	22.2	0.00e+00	6	33	0	1109393408	50	6194
2026-01-05 18:23:29.43	294.01	6.50	-38.9	-39.9	22.0	0.00e+00	6	33	0	1110441984	50	6374
2026-01-05 18:23:30.44	293.91	6.45	-39.0	-40.0	21.9	0.00e+00	7	33	0	1112539136	50	6453
2026-01-05 18:23:31.45	293.80	6.39	-39.1	-40.2	21.7	0.00e+00	5	33	0	1114636288	50	6562
2026-01-05 18:23:32.46	293.69	6.33	-39.2	-40.3	21.6	0.00e+00	69	33	0	1116733440	50	6658
2026-01-05 18:23:33.47	293.58	6.28	-39.3	-40.4	21.6	0.00e+00	5	33	0	1118830592	50	6725
2026-01-05 18:23:34.48	293.47	6.22	-39.2	-40.3	21.6	0.00e+00	92	33	0	1119879168	50	6676
2026-01-05 18:23:35.49	293.36	6.17	-39.3	-40.5	21.5	0.00e+00	8	33	0	1121976320	50	6795
2026-01-05 18:23:36.50	293.26	6.11	-39.4	-40.6	21.3	0.00e+00	51	33	0	1124073472	50	6881
2026-01-05 18:23:37.51	293.15	6.06	-39.5	-40.6	21.3	0.00e+00	5	33	0	1126170624	50	6892
2026-01-05 18:23:38.52	293.04	6.00	-39.5	-40.7	21.2	0.00e+00	0	33	0	1128267776	50	6932
2026-01-05 18:23:39.53	292.94	5.94	-39.4	-40.6	21.3	0.00e+00	0	33	0	1129316352	50	6884
2026-01-05 18:23:40.54	292.83	5.89	-39.5	-40.6	21.2	0.00e+00	0	33	0	1131413504	50	6918
2026-01-05 18:23:41.55	292.73	5.83	-39.7	-40.9	21.1	0.00e+00	92	33	0	1133510656	52	6360
2026-01-05 18:23:42.56	292.62	5.78	-39.7	-40.9	21.0	0.00e+00	58	33	0	1135607808	52	6360
2026-01-05 18:23:43.57	292.52	5.72	-39.6	-40.8	21.0	0.00e+00	92	33	0	1137704960	52	6293
2026-01-05 18:23:44.58	292.42	5.67	-39.8	-41.0	20.9	0.00e+00	20	33	0	1138753536	52	6449
2026-01-05 18:23:45.59	292.31	5.61	-39.5	-40.7	21.2	0.00e+00	7	33	0	1140850688	52	6208
2026-01-05 18:23:46.60	292.21	5.56	-39.8	-41.0	20.8	0.00e+00	66	33	0	1142947840	52	6453
2026-01-05 18:23:47.61	292.11	5.50	-39.7	-40.9	20.9	0.00e+00	23	33	0	1145044992	52	6380
2026-01-05 18:23:48.62	292.01	5.45	-40.0	-41.2	20.6	0.00e+00	90	33	0	1147142144	52	6606
2026-01-05 18:23:49.63	291.91	5.39	-39.9	-41.1	20.8	0.00e+00	7	33	0	1148190720	52	6529
2026-01-05 18:23:50.64	291.80	5.34	-40.0	-41.3	20.6	0.00e+00	92	33	0	1150287872	52	6649
2026-01-05 18:23:51.65	291.70	5.28	-40.2	-41.5	20.4	0.00e+00	6	33	0	1152385024	52	6827
2026-01-05 18:23:52.66	291.60	5.22	-40.2	-41.5	20.4	0.00e+00	92	34	0	1154482176	52	6844
2026-01-05 18:23:53.67	291.50	5.17	-40.1	-41.4	20.5	0.00e+00	5	33	0	1156579328	52	6699
2026-01-05 18:23:54.67	291.40	5.12	-40.3	-41.6	20.3	0.00e+00	4	33	0	1157627904	52	6901
2026-01-05 18:23:55.68	291.30	5.06	-40.4	-41.7	20.2	0.00e+00	30	33	0	1159725056	52	6960
2026-01-05 18:23:56.69	291.21	5.01	-40.5	-41.9	20.0	0.00e+00	0	33	0	1161822208	52	7105
2026-01-05 18:23:57.70	291.11	4.95	-40.6	-42.0	19.8	0.00e+00	92	33	0	1163919360	52	7250
2026-01-05 18:23:58.71	291.01	4.90	-40.6	-42.0	19.9	0.00e+00	0	33	0	1166016512	52	7183
2026-01-05 18:23:59.72	290.91	4.84	-40.5	-41.8	20.0	0.00e+00	58	33	0	1167065088	52	7088
2026-01-05 18:24:00.73	290.81	4.79	-40.7	-42.1	19.7	0.00e+00	0	33	0	1169162240	52	7275
2026-01-05 18:24:01.74	290.72	4.73	-40.7	-42.1	19.7	0.00e+00	63	33	0	1171259392	52	7280
2026-01-05 18:24:02.75	290.62	4.68	-40.5	-41.9	19.9	0.00e+00	0	33	0	1173356544	54	6326
2026-01-05 18:24:03.76	290.52	4.62	-40.4	-41.7	20.1	0.00e+00	16	33	0	1175453696	54	6220
2026-01-05 18:24:04.77	290.43	4.57	-40.6	-42.0	19.7	0.00e+00	90	33	0	1177550848	54	6419
2026-01-05 18:24:05.78	290.33	4.51	-40.6	-42.0	19.7	0.00e+00	60	33	0	1178599424	54	6423
2026-01-05 18:24:06.79	290.24	4.46	-40.6	-42.0	19.7	0.00e+00	90	33	0	1180696576	54	6425
2026-01-05 18:24:07.79	290.14	4.40	-40.7	-42.1	19.6	0.00e+00	22	33	0	1182793728	54	6539
2026-01-05 18:24:08.81	290.05	4.35	-40.6	-42.0	19.6	0.00e+00	20	33	0	1184890880	54	6462
2026-01-05 18:24:09.82	289.96	4.29	-40.8	-42.3	19.4	0.00e+00	22	33	0	1186988032	54	6628
2026-01-05 18:24:10.83	289.86	4.24	-40.9	-42.4	19.4	0.00e+00	0	33	0	1188036608	54	6720
2026-01-05 18:24:11.84	289.77	4.18	-40.9	-42.4	19.3	0.00e+00	61	33	0	1190133760	54	6710
