passes_logs/2026/01/05/R4.6S_Anadyr/R4.6S_Anadyr__20260105_021657_AQUA_rec.log

#Pass ID: 20260105_021657_AQUA
#Satellite: AQUA
#Configuration: AQUA
#almurnet v.1.7.20251203
#Start time: 2026-01-05 02:17:00

#Version: 2.2.20231116
#Station: R4.6S_Anadyr
#Location: 177.4865 lon 64.73178 lat
#TLE: 1 27424U 02022A   25365.92641127  .00002078  00000+0  42628-3 0  9999
#TLE: 2 27424  98.4058 327.1196 0001962  94.7781 340.6230 14.61783896258835

#Time	Az	El	Level	Level2	SNR	BER	BlckErr	Temp	State	Recorded	gain1	gain2
2026-01-05 02:17:00.92	165.72	0.21	-50.3	-66.7	3.3	3.02e+01	0	27	0	0	60	83061
2026-01-05 02:17:01.92	165.74	0.27	-49.2	-67.1	3.5	3.02e+01	0	27	104	0	60	87131
2026-01-05 02:17:02.93	165.75	0.33	-49.4	-67.3	3.5	3.02e+01	0	27	104	0	60	89061
2026-01-05 02:17:03.94	165.77	0.40	-49.2	-67.1	3.5	3.02e+01	0	27	104	0	60	87206
2026-01-05 02:17:04.95	165.78	0.46	-49.1	-67.1	3.5	3.02e+01	0	27	104	0	60	86980
2026-01-05 02:17:05.96	165.80	0.52	-49.0	-66.9	3.5	3.02e+01	0	28	104	0	60	85136
2026-01-05 02:17:06.97	165.82	0.59	-49.0	-67.0	3.5	3.02e+01	0	27	104	0	60	86522
2026-01-05 02:17:07.98	165.83	0.65	-48.8	-66.8	3.5	3.02e+01	0	27	104	0	60	84144
2026-01-05 02:17:08.99	165.85	0.71	-48.9	-66.8	3.5	3.02e+01	0	28	104	0	60	84648
2026-01-05 02:17:10.00	165.86	0.78	-48.9	-66.7	3.5	3.02e+01	0	27	104	0	60	83155
2026-01-05 02:17:11.01	165.88	0.84	-47.0	-64.9	3.5	3.02e+01	0	28	104	0	60	67897
2026-01-05 02:17:12.02	165.89	0.91	-48.5	-66.4	3.5	3.02e+01	0	28	104	0	60	80194
2026-01-05 02:17:13.03	165.91	0.97	-48.3	-66.1	3.5	3.02e+01	0	28	104	0	60	78115
2026-01-05 02:17:14.04	165.93	1.03	-47.8	-65.6	3.5	3.02e+01	0	28	104	0	60	73428
2026-01-05 02:17:15.05	165.94	1.10	-47.9	-65.7	3.5	3.02e+01	0	28	104	0	60	74368
2026-01-05 02:17:16.06	165.96	1.16	-47.8	-65.6	3.5	3.02e+01	0	28	104	0	60	73093
2026-01-05 02:17:17.06	165.97	1.23	-47.8	-65.6	3.5	3.02e+01	0	28	104	0	60	73077
2026-01-05 02:17:18.08	165.99	1.29	-47.7	-65.4	3.5	3.02e+01	0	28	104	0	60	71409
2026-01-05 02:17:19.09	166.01	1.36	-47.7	-65.4	3.5	3.02e+01	0	28	104	0	60	71679
2026-01-05 02:17:20.10	166.02	1.42	-47.9	-65.3	3.5	3.02e+01	0	28	104	0	60	70590
2026-01-05 02:17:21.11	166.04	1.49	-48.0	-65.1	3.5	3.02e+01	0	28	104	0	60	69619
2026-01-05 02:17:22.12	166.06	1.56	-48.2	-65.0	3.5	3.02e+01	0	28	104	0	60	68765
2026-01-05 02:17:23.13	166.07	1.62	-48.3	-65.2	3.5	3.02e+01	0	28	104	0	60	70072
2026-01-05 02:17:24.14	166.09	1.69	-48.0	-64.8	3.5	3.02e+01	0	28	104	0	60	67049
2026-01-05 02:17:25.15	166.10	1.75	-48.0	-64.9	3.5	3.02e+01	0	28	104	0	60	67781
2026-01-05 02:17:26.16	166.12	1.82	-47.7	-64.9	3.5	3.02e+01	0	28	104	0	60	67981
2026-01-05 02:17:27.17	166.14	1.89	-47.7	-64.8	3.5	3.02e+01	0	28	104	0	60	67144
2026-01-05 02:17:28.18	166.15	1.95	-47.8	-65.3	3.5	3.02e+01	0	28	104	0	60	70464
2026-01-05 02:17:29.19	166.17	2.02	-47.7	-65.4	3.5	3.02e+01	0	28	104	0	60	72031
2026-01-05 02:17:30.20	166.19	2.09	-47.7	-65.4	3.5	3.02e+01	0	28	104	0	60	71713
2026-01-05 02:17:31.21	166.21	2.15	-47.6	-65.3	3.5	3.02e+01	0	28	104	0	60	70841
2026-01-05 02:17:32.22	166.22	2.22	-47.7	-65.2	3.5	3.02e+01	0	28	104	0	60	70281
2026-01-05 02:17:33.23	166.24	2.29	-47.7	-65.3	3.5	3.02e+01	0	28	104	0	60	70457
2026-01-05 02:17:34.24	166.26	2.36	-47.8	-64.9	3.5	3.02e+01	0	28	104	0	60	67503
2026-01-05 02:17:35.25	166.27	2.43	-47.7	-64.6	3.5	3.02e+01	0	28	104	0	60	65061
2026-01-05 02:17:36.26	166.29	2.49	-47.7	-63.7	3.5	3.02e+01	0	28	104	0	60	58917
2026-01-05 02:17:37.27	166.31	2.56	-47.7	-63.2	3.8	3.02e+01	0	28	104	0	60	55497
2026-01-05 02:17:38.28	166.33	2.63	-47.6	-62.0	4.2	3.02e+01	0	28	104	0	60	48507
2026-01-05 02:17:39.29	166.34	2.70	-47.6	-61.7	4.3	3.02e+01	0	28	104	0	60	46905
2026-01-05 02:17:40.30	166.36	2.77	-47.7	-61.4	4.5	3.02e+01	0	28	104	0	60	45187
2026-01-05 02:17:41.31	166.38	2.84	-47.6	-62.0	3.7	3.02e+01	0	28	104	0	60	48313
2026-01-05 02:17:42.32	166.40	2.91	-47.7	-63.2	3.9	3.02e+01	0	28	104	0	60	55407
2026-01-05 02:17:43.33	166.42	2.98	-47.6	-62.2	4.1	3.02e+01	0	28	104	0	60	49671
2026-01-05 02:17:44.33	166.43	3.04	-47.4	-59.0	7.2	3.02e+01	83	28	104	0	60	34445
2026-01-05 02:17:45.34	166.45	3.11	-46.7	-54.3	10.0	3.02e+01	92	28	0	1048576	60	19923
2026-01-05 02:17:46.35	166.47	3.18	-45.6	-50.6	14.5	3.02e+01	92	28	0	3145728	60	12999
2026-01-05 02:17:47.36	166.49	3.25	-44.4	-48.1	17.1	3.02e+01	91	28	0	4718592	60	9733
2026-01-05 02:17:48.37	166.51	3.32	-42.7	-45.4	19.7	3.02e+01	91	28	0	6815744	60	7128
2026-01-05 02:17:49.38	166.52	3.40	-41.4	-43.5	21.4	3.02e+01	90	28	0	8912896	58	6487
2026-01-05 02:17:50.39	166.54	3.47	-39.4	-41.1	23.7	3.02e+01	90	28	0	10485760	54	6151
2026-01-05 02:17:51.40	166.56	3.54	-39.4	-41.1	23.9	3.02e+01	92	28	0	12582912	54	6165
2026-01-05 02:17:52.41	166.58	3.61	-38.9	-40.5	24.3	3.02e+01	90	28	0	14155776	52	6478
2026-01-05 02:17:53.42	166.60	3.68	-38.5	-40.0	24.7	3.02e+01	90	28	0	16252928	52	6109
2026-01-05 02:17:54.43	166.62	3.75	-39.1	-40.7	24.5	3.02e+01	91	28	0	18350080	52	6633
2026-01-05 02:17:55.43	166.64	3.82	-40.1	-41.9	23.4	3.02e+01	91	28	0	19922944	52	7564
2026-01-05 02:17:56.45	166.65	3.89	-42.0	-44.3	20.7	3.02e+01	92	28	0	22020096	56	7975
2026-01-05 02:17:57.46	166.67	3.97	-43.1	-45.7	19.6	3.02e+01	91	28	0	24117248	60	7404
2026-01-05 02:17:58.47	166.69	4.04	-39.7	-41.4	24.0	3.02e+01	91	28	0	25690112	54	6360
2026-01-05 02:17:59.48	166.71	4.11	-47.7	-56.7	14.1	3.02e+01	92	28	104	26738688	60	26281
2026-01-05 02:18:00.48	166.73	4.18	-39.5	-41.2	23.5	3.02e+01	92	28	0	27787264	54	6213
2026-01-05 02:18:01.49	166.75	4.26	-43.7	-46.5	20.1	3.02e+01	90	28	0	29360128	60	8147
2026-01-05 02:18:02.50	166.77	4.33	-40.4	-42.2	23.1	3.02e+01	92	28	0	31457280	56	6250
2026-01-05 02:18:03.51	166.79	4.40	-41.4	-43.5	21.2	3.02e+01	92	28	0	33030144	56	7221
2026-01-05 02:18:04.52	166.81	4.48	-40.1	-41.9	23.3	3.02e+01	92	28	0	35127296	56	6011
2026-01-05 02:18:05.53	166.83	4.55	-39.8	-41.6	23.5	3.02e+01	90	28	0	37224448	54	6519
2026-01-05 02:18:06.54	166.85	4.63	-39.7	-41.4	23.5	3.02e+01	91	28	0	38797312	54	6415
2026-01-05 02:18:07.55	166.87	4.70	-39.6	-41.3	23.5	3.02e+01	92	28	0	40894464	54	6309
2026-01-05 02:18:08.56	166.89	4.78	-39.5	-41.2	24.1	3.02e+01	92	28	0	42467328	54	6263
2026-01-05 02:18:09.57	166.91	4.85	-38.8	-40.4	24.8	3.02e+01	84	28	0	44564480	52	6378
2026-01-05 02:18:10.58	166.93	4.93	-38.5	-40.0	25.0	3.02e+01	90	28	0	46661632	52	6118
2026-01-05 02:18:11.59	166.95	5.00	-38.5	-40.0	25.1	3.02e+01	92	28	0	48234496	52	6132
2026-01-05 02:18:12.60	166.97	5.08	-38.1	-39.6	25.5	3.02e+01	90	28	0	50331648	52	5824
2026-01-05 02:18:13.61	166.99	5.15	-37.9	-39.4	25.9	3.02e+01	92	28	0	51904512	52	5688
2026-01-05 02:18:14.61	167.01	5.23	-38.0	-39.5	25.8	3.02e+01	92	28	0	54001664	50	6444
2026-01-05 02:18:15.62	167.03	5.30	-37.9	-39.3	26.1	3.02e+01	92	28	0	56098816	50	6350
2026-01-05 02:18:16.63	167.05	5.38	-37.9	-39.3	25.6	3.02e+01	90	28	0	57671680	50	6340
2026-01-05 02:18:17.64	167.07	5.46	-37.8	-39.2	25.8	3.02e+01	92	28	0	59768832	50	6274
2026-01-05 02:18:18.65	167.09	5.53	-37.7	-39.1	26.0	3.02e+01	92	28	0	61341696	50	6195
2026-01-05 02:18:19.66	167.11	5.61	-37.2	-38.6	26.4	3.02e+01	92	28	0	63438848	50	5792
2026-01-05 02:18:20.67	167.13	5.69	-37.5	-39.0	26.3	3.02e+01	92	28	0	65536000	50	6079
2026-01-05 02:18:21.68	167.16	5.77	-37.6	-39.1	26.1	3.02e+01	92	28	0	67108864	50	6144
2026-01-05 02:18:22.69	167.18	5.85	-37.9	-39.4	25.8	3.02e+01	92	28	0	69206016	50	6365
2026-01-05 02:18:23.70	167.20	5.92	-37.8	-39.2	26.1	3.02e+01	92	28	0	71303168	50	6262
2026-01-05 02:18:24.71	167.22	6.00	-37.0	-38.4	26.5	3.02e+01	90	28	0	72876032	50	5669
2026-01-05 02:18:25.72	167.24	6.08	-37.0	-38.3	26.8	3.02e+01	92	28	0	74973184	48	6337
2026-01-05 02:18:26.73	167.26	6.16	-37.3	-38.7	26.6	3.02e+01	90	28	0	76546048	48	6644
2026-01-05 02:18:27.74	167.29	6.24	-36.8	-38.1	27.0	3.02e+01	92	28	0	78643200	48	6179
2026-01-05 02:18:28.75	167.31	6.32	-36.5	-37.9	27.3	3.02e+01	84	28	0	80740352	48	6008
2026-01-05 02:18:29.76	167.33	6.40	-36.4	-37.7	27.4	3.02e+01	92	28	0	82313216	48	5879
2026-01-05 02:18:30.77	167.35	6.48	-36.2	-37.5	27.7	3.02e+01	92	28	0	84410368	48	5762
2026-01-05 02:18:31.77	167.37	6.56	-36.6	-37.9	27.3	3.02e+01	90	28	0	85983232	48	6037
2026-01-05 02:18:32.78	167.40	6.64	-36.2	-37.5	27.5	3.02e+01	92	28	0	88080384	48	5780
2026-01-05 02:18:33.79	167.42	6.72	-35.8	-37.1	27.9	3.02e+01	92	28	0	90177536	46	6176
2026-01-05 02:18:34.80	167.44	6.80	-36.1	-37.4	27.7	3.02e+01	92	28	0	91750400	46	6357
2026-01-05 02:18:35.81	167.46	6.88	-35.9	-37.2	27.9	3.02e+01	90	28	0	93847552	46	6252
2026-01-05 02:18:36.82	167.49	6.97	-36.0	-37.3	27.8	3.02e+01	92	28	0	95420416	46	6317
2026-01-05 02:18:37.83	167.51	7.05	-36.0	-37.3	27.7	3.02e+01	89	28	0	97517568	46	6296
2026-01-05 02:18:38.84	167.53	7.13	-35.8	-37.1	27.9	3.02e+01	92	28	0	99614720	46	6150
2026-01-05 02:18:39.85	167.56	7.21	-36.1	-37.4	27.8	3.02e+01	92	28	0	101187584	46	6362
2026-01-05 02:18:40.86	167.58	7.30	-35.8	-37.1	28.1	3.02e+01	92	28	0	103284736	46	6158
2026-01-05 02:18:41.87	167.60	7.38	-36.0	-37.3	27.9	3.02e+01	91	28	0	104857600	46	6330
2026-01-05 02:18:42.88	167.63	7.46	-35.9	-37.2	28.0	3.02e+01	91	28	0	106954752	46	6230
2026-01-05 02:18:43.89	167.65	7.55	-36.0	-37.3	27.9	3.02e+01	92	28	0	109051904	46	6293
2026-01-05 02:18:44.90	167.68	7.63	-36.1	-37.4	28.0	3.02e+01	92	28	0	110624768	46	6364
2026-01-05 02:18:45.91	167.70	7.72	-35.9	-37.2	28.3	3.02e+01	92	28	0	112721920	46	6224
2026-01-05 02:18:46.92	167.72	7.80	-36.0	-37.2	28.3	3.02e+01	92	28	0	114819072	46	6263
2026-01-05 02:18:47.93	167.75	7.89	-35.7	-37.0	28.3	3.02e+01	86	28	0	116391936	46	6102
2026-01-05 02:18:48.94	167.77	7.97	-35.9	-37.2	28.1	3.02e+01	92	28	0	118489088	46	6222
2026-01-05 02:18:49.95	167.80	8.06	-36.2	-37.5	28.0	3.02e+01	92	28	0	120061952	46	6444
2026-01-05 02:18:50.95	167.82	8.14	-36.2	-37.5	28.3	3.02e+01	92	28	0	122159104	46	6462
2026-01-05 02:18:51.96	167.85	8.23	-35.9	-37.2	28.2	3.02e+01	92	28	0	124256256	46	6213
2026-01-05 02:18:52.97	167.87	8.32	-35.9	-37.2	28.4	3.02e+01	91	28	0	125829120	46	6206
2026-01-05 02:18:53.98	167.90	8.40	-36.2	-37.4	28.0	3.02e+01	90	28	0	127926272	46	6420
2026-01-05 02:18:54.99	167.92	8.49	-36.2	-37.5	28.0	3.02e+01	92	28	0	129499136	46	6443
2026-01-05 02:18:56.00	167.95	8.58	-36.4	-37.7	28.0	3.02e+01	92	28	0	131596288	46	6609
2026-01-05 02:18:57.01	167.97	8.67	-36.6	-37.8	28.2	3.02e+01	91	28	0	133693440	48	5975
2026-01-05 02:18:58.02	168.00	8.76	-36.5	-37.8	28.2	3.02e+01	91	28	0	135266304	48	5939
2026-01-05 02:18:59.03	168.02	8.85	-36.1	-37.4	28.3	3.02e+01	92	28	0	137363456	48	5710
2026-01-05 02:19:00.04	168.05	8.93	-36.9	-38.2	28.2	3.02e+01	90	28	0	139460608	48	6240
2026-01-05 02:19:01.05	168.08	9.02	-36.6	-37.9	27.7	3.02e+01	92	28	0	141033472	48	6015
2026-01-05 02:19:02.06	168.10	9.11	-36.4	-37.7	28.1	3.02e+01	90	28	0	143130624	48	5887
2026-01-05 02:19:03.07	168.13	9.20	-36.7	-38.0	28.1	3.02e+01	89	28	0	144703488	48	6091
2026-01-05 02:19:04.08	168.16	9.29	-36.4	-37.7	27.9	3.02e+01	92	28	0	146800640	48	5915
2026-01-05 02:19:05.09	168.18	9.39	-37.4	-38.7	27.6	3.02e+01	92	28	0	148897792	48	6613
2026-01-05 02:19:06.10	168.21	9.48	-36.7	-37.9	28.1	3.02e+01	90	28	0	150470656	48	6062
2026-01-05 02:19:07.11	168.24	9.57	-36.4	-37.7	28.2	3.02e+01	86	28	0	152567808	48	5884
2026-01-05 02:19:08.12	168.26	9.66	-36.4	-37.7	28.1	3.02e+01	92	28	0	154140672	48	5874
2026-01-05 02:19:09.13	168.29	9.75	-35.7	-37.0	28.3	3.02e+01	92	28	0	156237824	46	6110
2026-01-05 02:19:10.14	168.32	9.85	-36.5	-37.7	28.1	3.02e+01	92	28	0	158334976	46	6617
2026-01-05 02:19:11.15	168.35	9.94	-35.6	-36.9	28.6	3.02e+01	92	28	0	159907840	46	5996
2026-01-05 02:19:12.16	168.37	10.03	-35.5	-36.8	28.6	3.02e+01	91	28	0	162004992	46	5932
2026-01-05 02:19:13.17	168.40	10.13	-35.5	-36.7	28.6	3.02e+01	92	28	0	163577856	46	5918
2026-01-05 02:19:14.18	168.43	10.22	-35.5	-36.7	28.5	3.02e+01	92	28	0	165675008	46	5901
2026-01-05 02:19:15.19	168.46	10.32	-35.3	-36.6	28.6	3.02e+01	90	28	0	167772160	46	5832
2026-01-05 02:19:16.19	168.49	10.41	-35.2	-36.4	28.8	3.02e+01	92	28	0	169345024	46	5710
2026-01-05 02:19:17.20	168.52	10.51	-35.2	-36.5	28.6	3.02e+01	91	28	0	171442176	46	5731
2026-01-05 02:19:18.21	168.55	10.60	-35.1	-36.4	28.8	3.02e+01	91	28	0	173015040	46	5690
2026-01-05 02:19:19.22	168.57	10.70	-35.1	-36.3	28.9	3.02e+01	92	28	0	175112192	46	5633
2026-01-05 02:19:20.23	168.60	10.80	-35.4	-36.6	28.6	3.02e+01	91	28	0	177209344	46	5853
2026-01-05 02:19:21.24	168.63	10.89	-35.2	-36.4	28.8	3.02e+01	92	28	0	178782208	46	5682
2026-01-05 02:19:22.25	168.66	10.99	-35.2	-36.4	29.0	3.02e+01	92	28	0	180879360	46	5699
2026-01-05 02:19:23.25	168.69	11.09	-35.2	-36.4	28.8	3.02e+01	90	28	0	182976512	46	5715
2026-01-05 02:19:24.27	168.72	11.19	-35.0	-36.3	29.1	3.02e+01	92	28	0	184549376	46	5597
2026-01-05 02:19:25.27	168.75	11.29	-35.0	-36.2	29.1	3.02e+01	92	28	0	186646528	44	6268
2026-01-05 02:19:26.29	168.78	11.39	-35.2	-36.5	28.9	3.02e+01	88	28	0	188219392	44	6430
2026-01-05 02:19:27.30	168.81	11.49	-35.2	-36.4	29.1	3.02e+01	92	28	0	190316544	44	6377
2026-01-05 02:19:28.30	168.85	11.59	-35.3	-36.5	29.1	3.02e+01	90	28	0	192413696	44	6491
2026-01-05 02:19:29.31	168.88	11.69	-35.0	-36.2	29.2	3.02e+01	87	28	0	193986560	44	6218
2026-01-05 02:19:30.32	168.91	11.79	-34.8	-36.0	29.3	3.02e+01	92	28	0	196083712	44	6128
2026-01-05 02:19:31.33	168.94	11.89	-34.8	-36.0	29.2	3.02e+01	90	28	0	197656576	44	6077
2026-01-05 02:19:32.34	168.97	11.99	-34.8	-36.0	29.2	3.02e+01	90	28	0	199753728	44	6127
2026-01-05 02:19:33.35	169.00	12.10	-34.7	-35.9	29.3	3.02e+01	92	28	0	201850880	44	6052
2026-01-05 02:19:34.36	169.03	12.20	-34.7	-36.0	29.3	3.02e+01	88	28	0	203423744	44	6069
2026-01-05 02:19:35.37	169.07	12.30	-34.7	-36.0	29.2	3.02e+01	92	28	0	205520896	44	6068
2026-01-05 02:19:36.38	169.10	12.41	-34.7	-35.9	29.2	3.02e+01	92	28	0	207618048	44	6058
2026-01-05 02:19:37.39	169.13	12.51	-35.0	-36.2	29.2	3.02e+01	90	28	0	209190912	44	6221
2026-01-05 02:19:38.40	169.17	12.62	-35.0	-36.2	29.2	3.02e+01	92	28	0	211288064	44	6228
2026-01-05 02:19:39.41	169.20	12.72	-35.0	-36.2	29.2	3.02e+01	92	28	0	212860928	44	6229
2026-01-05 02:19:40.42	169.23	12.83	-34.9	-36.1	29.2	3.02e+01	91	28	0	214958080	44	6204
2026-01-05 02:19:41.43	169.27	12.94	-34.9	-36.1	29.2	3.02e+01	90	28	0	217055232	44	6160
2026-01-05 02:19:42.44	169.30	13.04	-34.7	-36.0	29.3	3.02e+01	92	28	0	218628096	44	6073
2026-01-05 02:19:43.45	169.33	13.15	-34.7	-35.9	29.3	3.02e+01	92	28	0	220725248	44	6055
2026-01-05 02:19:44.46	169.37	13.26	-34.8	-36.0	29.3	3.02e+01	92	28	0	222298112	44	6071
2026-01-05 02:19:45.47	169.40	13.37	-34.8	-36.0	29.3	3.02e+01	92	28	0	224395264	44	6096
2026-01-05 02:19:46.48	169.44	13.48	-34.7	-35.9	29.4	3.02e+01	92	28	0	226492416	44	6060
2026-01-05 02:19:47.49	169.47	13.59	-34.6	-35.8	29.3	3.02e+01	90	28	0	228065280	44	5975
2026-01-05 02:19:48.50	169.51	13.70	-34.8	-36.0	29.2	3.02e+01	92	28	0	230162432	44	6096
2026-01-05 02:19:49.51	169.54	13.81	-34.6	-35.8	29.4	3.02e+01	90	28	0	231735296	44	5963
2026-01-05 02:19:50.52	169.58	13.92	-34.6	-35.8	29.4	3.02e+01	91	28	0	233832448	44	5959
2026-01-05 02:19:51.53	169.62	14.03	-34.4	-35.6	29.6	3.02e+01	90	28	0	235929600	44	5796
2026-01-05 02:19:52.54	169.65	14.14	-34.4	-35.5	29.5	3.02e+01	92	28	0	237502464	44	5790
2026-01-05 02:19:53.55	169.69	14.26	-34.2	-35.4	29.6	3.02e+01	91	28	0	239599616	44	5696
2026-01-05 02:19:54.56	169.73	14.37	-34.3	-35.5	29.6	3.02e+01	91	28	0	241172480	44	5751
2026-01-05 02:19:55.57	169.76	14.49	-34.2	-35.4	29.7	3.02e+01	91	28	0	243269632	44	5700
2026-01-05 02:19:56.58	169.80	14.60	-34.3	-35.5	29.6	3.02e+01	92	28	0	245366784	44	5760
2026-01-05 02:19:57.59	169.84	14.72	-34.3	-35.5	29.6	3.02e+01	91	28	0	246939648	44	5749
2026-01-05 02:19:58.60	169.88	14.83	-34.4	-35.5	29.6	3.02e+01	91	28	0	249036800	44	5791
2026-01-05 02:19:59.61	169.92	14.95	-34.3	-35.5	29.6	3.02e+01	91	28	0	251133952	44	5791
2026-01-05 02:20:00.62	169.95	15.07	-34.4	-35.6	29.5	3.02e+01	91	28	0	252706816	44	5812
2026-01-05 02:20:01.63	169.99	15.19	-34.6	-35.8	29.4	3.02e+01	92	28	0	254803968	44	5968
2026-01-05 02:20:02.64	170.03	15.30	-34.6	-35.7	29.5	3.02e+01	92	28	0	256376832	44	5926
2026-01-05 02:20:03.65	170.07	15.42	-34.5	-35.6	29.5	3.02e+01	92	28	0	258473984	44	5856
2026-01-05 02:20:04.66	170.11	15.54	-34.5	-35.7	29.5	3.02e+01	92	28	0	260571136	44	5881
2026-01-05 02:20:05.66	170.15	15.66	-34.5	-35.7	29.5	3.02e+01	91	28	0	262144000	44	5909
2026-01-05 02:20:06.67	170.19	15.78	-34.5	-35.6	29.6	3.02e+01	91	28	0	264241152	44	5850
2026-01-05 02:20:07.68	170.23	15.91	-34.5	-35.7	29.4	3.02e+01	92	28	0	265814016	44	5871
2026-01-05 02:20:08.69	170.27	16.03	-34.6	-35.8	29.6	3.02e+01	92	28	0	267911168	44	5942
2026-01-05 02:20:09.70	170.32	16.15	-34.6	-35.8	29.5	3.02e+01	90	28	0	270008320	44	5973
2026-01-05 02:20:10.71	170.36	16.27	-34.4	-35.6	29.7	3.02e+01	91	28	0	271581184	44	5815
2026-01-05 02:20:11.72	170.40	16.40	-34.4	-35.6	29.6	3.02e+01	91	28	0	273678336	44	5839
2026-01-05 02:20:12.73	170.44	16.52	-34.3	-35.5	29.7	3.02e+01	91	28	0	275775488	44	5762
2026-01-05 02:20:13.74	170.49	16.65	-34.5	-35.7	29.5	3.02e+01	92	28	0	277348352	44	5898
2026-01-05 02:20:14.75	170.53	16.78	-34.5	-35.6	29.6	3.02e+01	91	28	0	279445504	44	5856
2026-01-05 02:20:15.76	170.57	16.90	-34.4	-35.5	29.7	3.02e+01	92	28	0	281018368	44	5780
2026-01-05 02:20:16.77	170.62	17.03	-34.6	-35.8	29.5	3.02e+01	91	28	0	283115520	44	5968
2026-01-05 02:20:17.78	170.66	17.16	-34.8	-35.9	29.5	3.02e+01	91	28	0	285212672	44	6061
2026-01-05 02:20:18.79	170.70	17.29	-34.7	-35.9	29.7	3.02e+01	91	28	0	286785536	44	6031
2026-01-05 02:20:19.80	170.75	17.42	-34.9	-36.1	29.4	3.02e+01	91	28	0	288882688	44	6135
2026-01-05 02:20:20.81	170.80	17.55	-34.9	-36.1	29.4	3.02e+01	91	28	0	290455552	44	6173
2026-01-05 02:20:21.82	170.84	17.68	-34.5	-35.7	29.6	3.02e+01	90	28	0	292552704	44	5900
2026-01-05 02:20:22.83	170.89	17.82	-34.6	-35.8	29.6	3.02e+01	92	28	0	294125568	44	5962
2026-01-05 02:20:23.84	170.93	17.95	-34.5	-35.7	29.7	3.02e+01	91	28	0	296222720	44	5880
2026-01-05 02:20:24.85	170.98	18.08	-34.5	-35.7	29.7	3.02e+01	92	28	0	298319872	44	5905
2026-01-05 02:20:25.85	171.03	18.22	-34.4	-35.6	29.8	3.02e+01	92	28	0	299892736	44	5837
2026-01-05 02:20:26.86	171.08	18.35	-34.4	-35.6	29.8	3.02e+01	92	28	0	301989888	44	5822
2026-01-05 02:20:27.87	171.12	18.49	-34.4	-35.6	29.7	3.02e+01	91	28	0	304087040	44	5851
2026-01-05 02:20:28.88	171.17	18.63	-34.5	-35.7	29.7	3.02e+01	90	28	0	305659904	44	5876
2026-01-05 02:20:29.89	171.22	18.77	-34.5	-35.7	29.6	3.02e+01	89	28	0	307757056	44	5871
2026-01-05 02:20:30.90	171.27	18.91	-34.5	-35.7	29.6	3.02e+01	92	28	0	309329920	44	5860
2026-01-05 02:20:31.91	171.32	19.05	-34.4	-35.6	29.7	3.02e+01	91	28	0	311427072	44	5836
2026-01-05 02:20:32.92	171.37	19.19	-34.5	-35.7	29.7	3.02e+01	91	28	0	313524224	44	5869
2026-01-05 02:20:33.93	171.42	19.33	-34.6	-35.8	29.6	3.02e+01	92	28	0	315097088	44	5943
2026-01-05 02:20:34.94	171.47	19.47	-34.5	-35.7	29.6	3.02e+01	92	28	0	317194240	44	5907
2026-01-05 02:20:35.95	171.53	19.61	-34.6	-35.8	29.5	3.02e+01	91	28	0	319291392	44	5985
2026-01-05 02:20:36.96	171.58	19.76	-34.5	-35.7	29.7	3.02e+01	92	28	0	320864256	44	5877
2026-01-05 02:20:37.96	171.63	19.90	-34.6	-35.8	29.6	3.02e+01	92	28	0	322961408	44	5941
2026-01-05 02:20:38.97	171.68	20.05	-34.5	-35.7	29.7	3.02e+01	90	28	0	324534272	44	5886
2026-01-05 02:20:39.99	171.74	20.20	-34.5	-35.7	29.6	3.02e+01	90	28	0	326631424	44	5907
2026-01-05 02:20:41.00	171.79	20.34	-34.5	-35.6	29.7	3.02e+01	90	28	0	328728576	44	5857
2026-01-05 02:20:42.01	171.85	20.49	-34.4	-35.6	29.6	3.02e+01	90	28	0	330301440	44	5825
2026-01-05 02:20:43.01	171.90	20.64	-34.6	-35.8	29.5	3.02e+01	89	29	0	332398592	44	5964
2026-01-05 02:20:44.02	171.96	20.79	-34.6	-35.8	29.7	3.02e+01	90	28	0	333971456	44	5951
2026-01-05 02:20:45.03	172.01	20.94	-34.5	-35.7	29.7	3.02e+01	92	28	0	336068608	44	5866
2026-01-05 02:20:46.04	172.07	21.10	-34.8	-36.0	29.5	3.02e+01	88	28	0	338165760	44	6090
2026-01-05 02:20:47.06	172.13	21.25	-34.8	-36.0	29.4	3.02e+01	92	28	0	339738624	44	6093
2026-01-05 02:20:48.06	172.19	21.40	-34.7	-35.9	29.5	3.02e+01	90	28	0	341835776	44	6015
2026-01-05 02:20:49.07	172.25	21.56	-34.5	-35.7	29.6	3.02e+01	85	28	0	343408640	44	5914
2026-01-05 02:20:50.08	172.30	21.72	-34.6	-35.8	29.5	3.02e+01	90	29	0	345505792	44	5976
2026-01-05 02:20:51.09	172.36	21.87	-34.9	-36.0	29.5	3.02e+01	92	28	0	347602944	44	6132
2026-01-05 02:20:52.10	172.42	22.03	-34.8	-36.0	29.5	3.02e+01	92	28	0	349175808	44	6124
2026-01-05 02:20:53.11	172.49	22.19	-35.0	-36.2	29.5	3.02e+01	92	28	0	351272960	44	6228
2026-01-05 02:20:54.12	172.55	22.35	-34.9	-36.1	29.3	3.02e+01	92	28	0	352845824	44	6171
2026-01-05 02:20:55.13	172.61	22.52	-34.7	-35.9	29.5	3.02e+01	90	28	0	354942976	44	6007
2026-01-05 02:20:56.14	172.67	22.68	-34.8	-36.0	29.5	3.02e+01	92	28	0	357040128	44	6106
2026-01-05 02:20:57.15	172.74	22.84	-34.7	-35.9	29.5	3.02e+01	92	28	0	358612992	44	6037
2026-01-05 02:20:58.16	172.80	23.01	-34.9	-36.1	29.4	3.02e+01	92	28	0	360710144	44	6148
2026-01-05 02:20:59.16	172.86	23.17	-35.0	-36.2	29.4	3.02e+01	92	28	0	362283008	44	6215
2026-01-05 02:21:00.17	172.93	23.34	-34.7	-35.9	29.6	3.02e+01	92	28	0	364380160	44	6048
2026-01-05 02:21:01.18	173.00	23.51	-34.7	-35.9	29.5	3.02e+01	92	28	0	366477312	44	6058
2026-01-05 02:21:02.20	173.06	23.68	-34.8	-36.0	29.4	3.02e+01	92	28	0	368050176	44	6074
2026-01-05 02:21:03.21	173.13	23.85	-34.6	-35.8	29.5	3.02e+01	92	28	0	370147328	44	5955
2026-01-05 02:21:04.22	173.20	24.03	-34.6	-35.8	29.6	3.02e+01	92	28	0	372244480	44	5955
2026-01-05 02:21:05.23	173.27	24.20	-34.8	-36.0	29.4	3.02e+01	92	28	0	373817344	44	6076
2026-01-05 02:21:06.24	173.34	24.37	-34.7	-35.9	29.4	3.02e+01	90	28	0	375914496	44	6063
2026-01-05 02:21:07.25	173.41	24.55	-34.7	-35.9	29.5	3.02e+01	92	28	0	377487360	44	6042
2026-01-05 02:21:08.26	173.48	24.73	-34.8	-36.0	29.4	3.02e+01	92	28	0	379584512	44	6091
2026-01-05 02:21:09.27	173.55	24.91	-34.9	-36.1	29.4	3.02e+01	92	28	0	381681664	44	6152
2026-01-05 02:21:10.28	173.63	25.09	-34.8	-36.0	29.3	3.02e+01	92	28	0	383254528	44	6114
2026-01-05 02:21:11.29	173.70	25.27	-34.8	-36.0	29.4	3.02e+01	92	28	0	385351680	44	6097
2026-01-05 02:21:12.30	173.78	25.45	-34.7	-35.9	29.6	3.02e+01	92	28	0	387448832	44	6023
2026-01-05 02:21:13.31	173.85	25.63	-35.0	-36.2	29.6	3.02e+01	92	28	0	389021696	44	6219
2026-01-05 02:21:14.32	173.93	25.82	-35.6	-45.7	3.4	3.02e+01	0	28	104	390594560	44	18672
2026-01-05 02:21:15.33	174.01	26.00	-35.4	-45.4	3.4	3.02e+01	0	28	104	390594560	44	17990
2026-01-05 02:21:16.33	174.08	26.19	-35.5	-45.6	3.5	3.02e+01	0	28	104	390594560	44	18478
2026-01-05 02:21:17.34	174.16	26.38	-35.4	-45.6	3.6	3.02e+01	0	28	104	390594560	44	18334
2026-01-05 02:21:18.35	174.24	26.57	-35.4	-45.5	3.6	3.02e+01	0	28	104	390594560	44	18186
2026-01-05 02:21:19.36	174.32	26.76	-37.2	-47.4	3.5	3.02e+01	0	28	104	390594560	54	12723
2026-01-05 02:21:20.37	174.41	26.95	-47.7	-61.4	3.4	3.02e+01	0	28	104	390594560	60	45223
2026-01-05 02:21:21.38	174.49	27.15	-41.4	-52.1	3.6	3.02e+01	0	28	104	390594560	60	15505
2026-01-05 02:21:22.39	174.57	27.35	-42.6	-53.4	3.5	3.02e+01	0	28	104	390594560	60	18084
2026-01-05 02:21:23.40	174.66	27.54	-39.3	-49.6	3.6	3.02e+01	0	28	104	390594560	52	18332
2026-01-05 02:21:24.41	174.74	27.74	-38.8	-49.1	3.6	3.02e+01	0	28	104	390594560	52	17333
2026-01-05 02:21:25.42	174.83	27.94	-38.2	-48.5	3.4	3.02e+01	0	28	104	390594560	52	16215
2026-01-05 02:21:26.43	174.92	28.14	-38.0	-48.2	3.4	3.02e+01	0	28	104	390594560	50	17678
2026-01-05 02:21:27.44	175.01	28.35	-38.1	-48.3	4.1	3.02e+01	0	28	104	390594560	48	19892
2026-01-05 02:21:28.45	175.10	28.55	-35.5	-45.5	4.1	3.02e+01	0	28	104	390594560	50	12922
2026-01-05 02:21:29.46	175.19	28.76	-44.3	-55.5	3.4	3.02e+01	0	28	104	390594560	60	23035
2026-01-05 02:21:30.47	175.29	28.97	-36.6	-46.6	4.1	3.02e+01	0	28	104	390594560	48	16445
2026-01-05 02:21:31.48	175.38	29.18	-47.2	-60.7	3.5	3.02e+01	0	28	104	390594560	60	41848
2026-01-05 02:21:32.49	175.48	29.39	-40.4	-50.9	3.5	3.02e+01	0	28	104	390594560	56	16992
2026-01-05 02:21:33.50	175.57	29.60	-39.7	-50.2	3.6	3.02e+01	0	28	104	390594560	54	17655
2026-01-05 02:21:34.51	175.67	29.82	-39.4	-49.9	3.5	3.02e+01	0	28	104	390594560	54	17017
2026-01-05 02:21:35.51	175.77	30.03	-39.5	-49.9	3.5	3.02e+01	0	28	104	390594560	54	17032
2026-01-05 02:21:36.52	175.87	30.25	-42.3	-53.0	3.4	3.02e+01	0	28	104	390594560	54	24420
2026-01-05 02:21:37.53	175.97	30.47	-35.2	-45.4	3.5	3.02e+01	0	28	104	390594560	46	16068
2026-01-05 02:21:38.54	176.07	30.69	-41.6	-52.2	3.4	3.02e+01	0	28	104	390594560	60	15752
2026-01-05 02:21:39.55	176.18	30.92	-37.5	-47.8	3.5	3.02e+01	0	28	104	390594560	48	18910
2026-01-05 02:21:40.56	176.28	31.14	-41.1	-51.7	3.4	3.02e+01	0	28	104	390594560	60	14753
2026-01-05 02:21:41.57	176.39	31.37	-38.2	-48.5	3.5	3.02e+01	0	28	104	390594560	50	18240
2026-01-05 02:21:42.58	176.50	31.60	-38.0	-48.4	3.5	3.02e+01	0	28	104	390594560	50	17996
2026-01-05 02:21:43.59	176.61	31.83	-37.0	-47.3	3.5	3.02e+01	0	28	104	390594560	50	15848
2026-01-05 02:21:44.60	176.72	32.06	-35.1	-45.3	3.5	3.02e+01	0	28	104	390594560	46	15797
2026-01-05 02:21:45.61	176.84	32.29	-36.9	-47.1	3.5	3.02e+01	0	28	104	390594560	44	21934
2026-01-05 02:21:46.62	176.95	32.53	-38.4	-48.7	3.5	3.02e+01	0	28	104	390594560	46	23450
2026-01-05 02:21:47.63	177.07	32.77	-42.2	-53.0	3.5	3.02e+01	0	28	104	390594560	60	17143
2026-01-05 02:21:48.64	177.19	33.01	-41.4	-52.1	3.5	3.02e+01	0	28	104	390594560	50	27450
2026-01-05 02:21:49.65	177.31	33.25	-41.3	-52.0	3.5	3.02e+01	0	28	104	390594560	60	15358
2026-01-05 02:21:50.65	177.43	33.49	-37.9	-48.3	3.5	3.02e+01	0	28	104	390594560	50	17717
2026-01-05 02:21:51.66	177.56	33.73	-38.2	-48.4	3.5	3.02e+01	0	28	104	390594560	50	18056
2026-01-05 02:21:52.68	177.68	33.98	-38.7	-49.0	3.5	3.02e+01	0	28	104	390594560	50	19370
2026-01-05 02:21:53.69	177.81	34.23	-43.9	-55.0	3.6	3.02e+01	0	28	104	390594560	58	24199
2026-01-05 02:21:54.70	177.94	34.49	-49.2	-65.3	3.5	3.02e+01	0	29	104	390594560	60	70817
2026-01-05 02:21:55.70	178.07	34.74	-38.2	-48.5	3.4	3.02e+01	0	29	104	390594560	46	22924
2026-01-05 02:21:56.71	178.21	34.99	-41.5	-52.1	3.4	3.02e+01	0	29	104	390594560	56	19599
2026-01-05 02:21:57.72	178.34	35.25	-39.1	-49.5	3.5	3.02e+01	0	29	104	390594560	48	22930
2026-01-05 02:21:58.73	178.48	35.51	-42.4	-53.3	3.5	3.02e+01	0	28	104	390594560	60	17764
2026-01-05 02:21:59.74	178.62	35.77	-40.5	-51.1	3.5	3.02e+01	0	28	104	390594560	56	17323
2026-01-05 02:22:00.75	178.77	36.03	-41.2	-51.8	3.5	3.02e+01	0	28	104	390594560	56	18931
2026-01-05 02:22:01.76	178.91	36.30	-41.8	-52.7	3.5	3.02e+01	0	28	104	390594560	58	18580
2026-01-05 02:22:02.77	179.06	36.57	-48.6	-64.9	3.5	3.02e+01	0	28	104	390594560	60	67818
2026-01-05 02:22:03.78	179.21	36.84	-48.9	-66.1	3.5	3.02e+01	0	28	104	390594560	60	77801
2026-01-05 02:22:04.79	179.36	37.11	-39.7	-50.0	3.5	3.02e+01	0	28	104	390594560	48	24350
2026-01-05 02:22:05.80	179.52	37.38	-48.6	-65.5	3.5	3.02e+01	0	28	104	390594560	60	72749
2026-01-05 02:22:06.81	179.68	37.66	-42.3	-53.2	3.5	3.02e+01	0	28	104	390594560	52	27887
2026-01-05 02:22:07.82	179.84	37.94	-40.6	-51.3	3.5	3.02e+01	0	28	104	390594560	56	17828
2026-01-05 02:22:08.83	180.00	38.22	-40.1	-50.5	3.5	3.02e+01	0	28	104	390594560	54	18310
2026-01-05 02:22:09.84	180.17	38.50	-39.0	-49.4	3.5	3.02e+01	0	28	104	390594560	54	16040
2026-01-05 02:22:10.85	180.33	38.79	-40.0	-50.6	3.5	3.02e+01	0	28	104	390594560	52	20589
2026-01-05 02:22:11.86	180.51	39.08	-41.4	-52.2	3.5	3.02e+01	0	28	104	390594560	54	22101
2026-01-05 02:22:12.87	180.68	39.37	-45.3	-57.3	3.5	3.02e+01	0	28	104	390594560	60	28055
2026-01-05 02:22:13.87	180.86	39.66	-45.3	-57.0	3.5	3.02e+01	0	28	104	390594560	60	27371
2026-01-05 02:22:14.88	181.04	39.95	-48.9	-66.0	3.5	3.02e+01	0	28	104	390594560	60	77132
2026-01-05 02:22:15.89	181.22	40.25	-42.9	-54.1	3.5	3.02e+01	0	29	104	390594560	56	24425
2026-01-05 02:22:16.90	181.41	40.55	-39.4	-49.9	3.5	3.02e+01	0	28	104	390594560	54	16981
2026-01-05 02:22:17.91	181.60	40.85	-38.5	-48.8	3.5	3.02e+01	0	28	104	390594560	52	16743
2026-01-05 02:22:18.92	181.80	41.15	-38.5	-48.9	3.5	3.02e+01	0	28	104	390594560	52	17085
2026-01-05 02:22:19.93	182.00	41.46	-37.3	-47.5	3.5	3.02e+01	0	28	104	390594560	50	16265
2026-01-05 02:22:20.94	182.20	41.77	-42.7	-53.7	3.5	3.02e+01	0	28	104	390594560	56	23579
2026-01-05 02:22:21.95	182.41	42.08	-41.2	-51.9	3.5	3.02e+01	0	28	104	390594560	54	21333
2026-01-05 02:22:22.95	182.62	42.39	-48.9	-66.5	3.5	3.02e+01	0	28	104	390594560	60	81479
2026-01-05 02:22:23.97	182.83	42.71	-43.2	-54.3	3.5	3.02e+01	0	28	104	390594560	58	22432
2026-01-05 02:22:24.97	183.05	43.03	-47.6	-61.7	3.5	3.02e+01	0	28	104	390594560	60	46749
2026-01-05 02:22:25.98	183.27	43.35	-37.1	-47.4	3.6	3.02e+01	0	28	104	390594560	50	15956
2026-01-05 02:22:26.99	183.50	43.67	-36.9	-47.1	3.5	3.02e+01	0	28	104	390594560	48	17437
2026-01-05 02:22:28.01	183.74	44.00	-37.4	-47.8	3.5	3.02e+01	0	28	104	390594560	48	18764
2026-01-05 02:22:29.02	183.97	44.33	-37.2	-47.5	3.5	3.02e+01	0	28	104	390594560	48	18226
2026-01-05 02:22:30.03	184.22	44.66	-41.0	-51.7	3.5	3.02e+01	0	28	104	390594560	56	18629
2026-01-05 02:22:31.03	184.46	44.98	-48.5	-64.4	3.5	3.02e+01	0	28	104	390594560	60	63708
2026-01-05 02:22:32.04	184.71	45.32	-43.8	-55.0	3.5	3.02e+01	0	28	104	390594560	60	21746
2026-01-05 02:22:33.06	184.97	45.66	-48.9	-66.4	3.5	3.02e+01	0	28	104	390594560	60	80433
2026-01-05 02:22:34.07	185.24	46.00	-44.9	-56.7	3.5	3.02e+01	0	29	104	390594560	60	26272
2026-01-05 02:22:35.07	185.50	46.34	-38.6	-48.9	3.5	3.02e+01	0	28	104	390594560	52	17043
2026-01-05 02:22:36.08	185.78	46.68	-38.5	-48.9	3.5	3.02e+01	0	28	104	390594560	52	17040
2026-01-05 02:22:37.09	186.06	47.03	-37.9	-48.1	3.5	3.02e+01	0	28	104	390594560	52	15462
2026-01-05 02:22:38.11	186.35	47.38	-37.7	-48.0	3.5	3.02e+01	0	28	104	390594560	50	17155
2026-01-05 02:22:39.11	186.64	47.73	-42.3	-53.2	3.5	3.02e+01	0	29	104	390594560	60	17504
2026-01-05 02:22:40.12	186.94	48.08	-43.8	-55.0	3.5	3.02e+01	0	29	104	390594560	60	21655
2026-01-05 02:22:41.13	187.25	48.44	-48.5	-64.3	3.5	3.02e+01	0	29	104	390594560	60	63179
2026-01-05 02:22:42.14	187.57	48.79	-49.1	-66.5	3.5	3.02e+01	0	29	104	390594560	60	81275
2026-01-05 02:22:43.15	187.89	49.15	-42.4	-53.4	3.5	3.02e+01	0	29	104	390594560	58	20095
2026-01-05 02:22:44.16	188.22	49.52	-36.9	-47.1	3.5	3.02e+01	0	28	104	390594560	48	17393
2026-01-05 02:22:45.17	188.56	49.88	-36.4	-46.7	3.5	3.02e+01	0	28	104	390594560	48	16558
2026-01-05 02:22:46.18	188.90	50.24	-36.7	-46.9	3.5	3.02e+01	0	29	104	390594560	48	17039
2026-01-05 02:22:47.19	189.26	50.61	-35.8	-46.0	3.5	3.02e+01	0	28	104	390594560	46	17283
2026-01-05 02:22:48.20	189.62	50.98	-36.2	-46.5	3.3	3.02e+01	0	28	104	390594560	50	14383
2026-01-05 02:22:49.21	189.99	51.35	-38.9	-49.3	3.2	3.02e+01	0	28	104	390594560	56	14111
2026-01-05 02:22:50.22	190.38	51.73	-48.5	-63.9	3.5	3.02e+01	0	29	104	390594560	60	60271
2026-01-05 02:22:51.23	190.77	52.10	-43.8	-54.8	3.6	3.02e+01	0	29	104	390594560	60	21122
2026-01-05 02:22:52.24	191.17	52.48	-46.0	-58.4	3.5	3.02e+01	0	29	104	390594560	60	31993
2026-01-05 02:22:53.25	191.58	52.86	-35.5	-45.7	3.5	3.02e+01	0	29	104	390594560	46	16560
2026-01-05 02:22:54.25	192.00	53.23	-36.5	-46.7	3.5	3.02e+01	0	28	104	390594560	46	18693
2026-01-05 02:22:55.27	192.44	53.62	-35.9	-46.0	3.5	3.02e+01	0	28	104	390594560	46	17127
2026-01-05 02:22:56.27	192.88	54.00	-35.8	-46.1	3.5	3.02e+01	0	28	104	390594560	46	17383
2026-01-05 02:22:57.28	193.34	54.38	-49.1	-64.9	3.5	3.02e+01	0	28	104	390594560	60	67736
2026-01-05 02:22:58.29	193.80	54.76	-41.7	-52.4	3.5	3.02e+01	0	28	104	390594560	60	15973
2026-01-05 02:22:59.30	194.29	55.15	-45.0	-56.6	3.5	3.02e+01	0	29	104	390594560	60	26134
2026-01-05 02:23:00.31	194.78	55.54	-47.7	-61.9	3.6	3.02e+01	0	29	104	390594560	60	47777
2026-01-05 02:23:01.32	195.29	55.92	-45.1	-57.0	3.5	3.02e+01	0	28	104	390594560	60	27233
2026-01-05 02:23:02.33	195.82	56.31	-40.8	-51.5	3.5	3.02e+01	0	28	104	390594560	56	18144
2026-01-05 02:23:03.34	196.36	56.70	-40.0	-50.4	3.5	3.02e+01	0	28	104	390594560	54	18003
2026-01-05 02:23:04.35	196.91	57.09	-39.7	-50.1	3.5	3.02e+01	0	28	104	390594560	56	15506
2026-01-05 02:23:05.36	197.48	57.48	-41.6	-52.3	3.5	3.02e+01	0	28	104	390594560	56	19976
2026-01-05 02:23:06.37	198.07	57.87	-44.4	-55.8	3.5	3.02e+01	0	29	104	390594560	60	23792
2026-01-05 02:23:07.38	198.67	58.26	-41.2	-52.1	3.6	3.02e+01	0	29	104	390594560	60	15423
2026-01-05 02:23:08.39	199.29	58.65	-47.7	-62.3	3.5	3.02e+01	0	29	104	390594560	60	50165
2026-01-05 02:23:09.40	199.93	59.03	-42.5	-53.5	3.6	3.02e+01	0	29	104	390594560	60	18309
2026-01-05 02:23:10.41	200.59	59.42	-42.1	-53.0	3.5	3.02e+01	0	29	104	390594560	60	17116
2026-01-05 02:23:11.41	201.26	59.80	-38.9	-49.3	3.5	3.02e+01	0	29	104	390594560	52	17788
2026-01-05 02:23:12.42	201.96	60.19	-38.8	-49.1	3.5	3.02e+01	0	29	104	390594560	52	17484
2026-01-05 02:23:13.43	202.68	60.57	-39.4	-49.9	3.5	3.02e+01	0	29	104	390594560	52	19013
2026-01-05 02:23:14.44	203.42	60.95	-38.4	-48.6	3.5	3.02e+01	0	28	104	390594560	52	16338
2026-01-05 02:23:15.45	204.19	61.33	-38.4	-49.0	3.5	3.02e+01	0	29	104	390594560	54	15408
2026-01-05 02:23:16.46	204.98	61.71	-37.9	-48.0	3.5	3.02e+01	0	29	104	390594560	52	15385
2026-01-05 02:23:17.47	205.79	62.09	-47.9	-62.0	3.5	3.02e+01	0	28	104	390594560	60	48204
2026-01-05 02:23:18.48	206.63	62.46	-40.8	-51.4	3.6	3.02e+01	0	28	104	390594560	60	14250
2026-01-05 02:23:19.49	207.50	62.83	-46.2	-58.1	3.5	3.02e+01	0	29	104	390594560	60	30911
2026-01-05 02:23:20.50	208.39	63.19	-43.7	-54.8	3.5	3.02e+01	0	28	104	390594560	60	21121
2026-01-05 02:23:21.51	209.31	63.56	-43.2	-54.2	3.5	3.02e+01	0	29	104	390594560	60	19850
2026-01-05 02:23:22.52	210.25	63.91	-42.7	-53.7	3.5	3.02e+01	0	28	104	390594560	60	18587
2026-01-05 02:23:23.53	211.23	64.27	-42.2	-53.0	3.5	3.02e+01	0	28	104	390594560	58	19397
2026-01-05 02:23:24.54	212.24	64.61	-45.5	-57.7	3.5	3.02e+01	0	28	104	390594560	60	29397
2026-01-05 02:23:25.55	213.28	64.96	-41.1	-51.7	3.5	3.02e+01	0	29	104	390594560	56	18688
2026-01-05 02:23:26.56	214.35	65.29	-48.9	-66.1	3.5	3.02e+01	0	28	104	390594560	60	77592
2026-01-05 02:23:27.57	215.45	65.62	-41.7	-52.4	3.5	3.02e+01	0	29	104	390594560	60	16082
2026-01-05 02:23:28.58	216.58	65.94	-44.4	-55.8	3.5	3.02e+01	0	29	104	390594560	60	23652
2026-01-05 02:23:29.59	217.75	66.26	-43.5	-54.7	3.5	3.02e+01	0	29	104	390594560	60	20929
2026-01-05 02:23:30.60	218.96	66.57	-43.3	-54.5	3.5	3.02e+01	0	29	104	390594560	60	20342
2026-01-05 02:23:31.61	220.19	66.87	-43.2	-54.2	3.5	3.02e+01	0	29	104	390594560	60	19817
2026-01-05 02:23:32.62	221.47	67.16	-42.4	-53.2	3.5	3.02e+01	0	29	104	390594560	60	17654
2026-01-05 02:23:33.63	222.78	67.44	-41.8	-52.7	3.5	3.02e+01	0	29	104	390594560	56	20809
2026-01-05 02:23:34.64	224.12	67.71	-45.0	-56.3	3.5	3.02e+01	0	29	104	390594560	56	31713
2026-01-05 02:23:35.65	225.50	67.97	-48.7	-64.1	3.5	3.02e+01	0	29	104	390594560	60	61403
2026-01-05 02:23:36.66	226.91	68.21	-42.2	-52.8	3.5	3.02e+01	0	29	104	390594560	56	21234
2026-01-05 02:23:37.66	228.34	68.45	-43.4	-54.5	3.5	3.02e+01	0	28	104	390594560	60	20407
2026-01-05 02:23:38.67	229.82	68.67	-40.8	-51.4	3.5	3.02e+01	0	29	104	390594560	56	17934
2026-01-05 02:23:39.68	231.34	68.89	-41.4	-51.9	3.5	3.02e+01	0	29	104	390594560	58	16924
2026-01-05 02:23:40.69	232.89	69.08	-42.1	-53.0	3.5	3.02e+01	0	29	104	390594560	58	19278
2026-01-05 02:23:41.70	234.46	69.27	-47.8	-62.1	3.5	3.02e+01	0	29	104	390594560	60	49104
2026-01-05 02:23:42.71	236.07	69.44	-47.1	-60.5	3.5	3.02e+01	0	29	104	390594560	60	40731
2026-01-05 02:23:43.72	237.70	69.59	-47.2	-60.1	3.5	3.02e+01	0	29	104	390594560	60	38979
2026-01-05 02:23:44.73	239.36	69.73	-49.0	-66.9	3.5	3.02e+01	0	29	104	390594560	60	85374
2026-01-05 02:23:45.74	241.04	69.86	-41.1	-51.9	3.5	3.02e+01	0	29	104	390594560	60	15103
2026-01-05 02:23:46.75	242.75	69.97	-42.7	-54.0	3.5	3.02e+01	0	29	104	390594560	60	19393
2026-01-05 02:23:47.76	244.47	70.06	-44.1	-54.7	3.5	3.02e+01	0	29	104	390594560	60	20965
2026-01-05 02:23:48.77	246.21	70.13	-43.2	-54.5	3.5	3.02e+01	0	29	104	390594560	60	20485
2026-01-05 02:23:49.78	247.96	70.19	-43.5	-54.3	3.5	3.02e+01	0	28	104	390594560	60	19860
2026-01-05 02:23:50.78	249.70	70.23	-43.5	-54.1	3.5	3.02e+01	0	28	104	390594560	60	19528
2026-01-05 02:23:51.79	251.46	70.25	-41.4	-52.3	3.5	3.02e+01	0	28	104	390594560	56	19900
2026-01-05 02:23:52.80	253.23	70.26	-49.7	-67.4	3.5	3.02e+01	0	28	104	390594560	60	90195
2026-01-05 02:23:53.81	255.00	70.25	-49.4	-66.4	3.5	3.02e+01	0	29	104	390594560	60	80720
2026-01-05 02:23:54.82	256.76	70.22	-48.8	-63.5	3.5	3.02e+01	0	28	104	390594560	60	57669
2026-01-05 02:23:55.83	258.51	70.17	-47.0	-60.1	3.5	3.02e+01	0	28	104	390594560	60	39051
2026-01-05 02:23:56.84	260.26	70.11	-45.5	-57.1	3.5	3.02e+01	0	28	104	390594560	60	27446
2026-01-05 02:23:57.85	261.99	70.03	-45.1	-57.0	3.5	3.02e+01	0	28	104	390594560	60	27124
2026-01-05 02:23:58.86	263.71	69.93	-44.2	-55.4	3.5	3.02e+01	0	28	104	390594560	60	22721
2026-01-05 02:23:59.87	265.40	69.82	-49.6	-67.0	3.5	3.02e+01	0	29	104	390594560	60	86519
2026-01-05 02:24:00.88	267.08	69.69	-47.4	-60.8	3.5	3.02e+01	0	28	104	390594560	60	42078
2026-01-05 02:24:01.89	268.73	69.54	-49.4	-65.5	3.5	3.02e+01	0	28	104	390594560	60	72117
2026-01-05 02:24:02.90	270.35	69.38	-49.4	-66.8	3.5	3.02e+01	0	28	104	390594560	60	84450
2026-01-05 02:24:03.91	271.95	69.21	-43.9	-55.0	3.5	3.02e+01	0	28	104	390594560	60	21584
2026-01-05 02:24:04.92	273.51	69.02	-41.7	-52.3	3.5	3.02e+01	0	28	104	390594560	56	20020
2026-01-05 02:24:05.93	275.05	68.82	-41.9	-52.4	3.5	3.02e+01	0	28	104	390594560	58	17937
2026-01-05 02:24:06.94	276.55	68.60	-40.5	-51.0	3.5	3.02e+01	0	28	104	390594560	58	15307
2026-01-05 02:24:07.95	278.02	68.37	-41.6	-52.2	3.6	3.02e+01	0	29	104	390594560	58	17508
2026-01-05 02:24:08.96	279.45	68.13	-45.3	-57.0	3.5	3.02e+01	0	28	104	390594560	60	27346
2026-01-05 02:24:09.97	280.85	67.88	-43.7	-55.1	3.5	3.02e+01	0	28	104	390594560	58	24464
2026-01-05 02:24:10.98	282.22	67.62	-49.3	-66.6	3.5	3.02e+01	0	28	104	390594560	60	82263
2026-01-05 02:24:11.99	283.55	67.34	-49.7	-66.6	3.5	3.02e+01	0	29	104	390594560	60	82375
2026-01-05 02:24:12.99	284.83	67.06	-47.4	-59.9	3.5	3.02e+01	0	28	104	390594560	60	38074
2026-01-05 02:24:14.00	286.09	66.77	-40.3	-50.8	3.5	3.02e+01	0	29	104	390594560	58	15036
2026-01-05 02:24:15.01	287.31	66.47	-40.1	-50.5	3.5	3.02e+01	0	28	104	390594560	56	16149
2026-01-05 02:24:16.02	288.50	66.16	-39.7	-50.0	3.5	3.02e+01	0	29	104	390594560	56	15251
2026-01-05 02:24:17.03	289.66	65.84	-39.6	-50.2	3.5	3.02e+01	0	28	104	390594560	52	19696
2026-01-05 02:24:18.04	290.78	65.52	-49.2	-67.1	3.5	3.02e+01	0	29	104	390594560	60	87030
2026-01-05 02:24:19.05	291.87	65.19	-47.8	-61.4	3.6	3.02e+01	0	28	104	390594560	60	45439
2026-01-05 02:24:20.06	292.93	64.85	-48.7	-64.8	3.5	3.02e+01	0	28	104	390594560	60	67019
2026-01-05 02:24:21.06	293.95	64.51	-49.3	-66.5	3.5	3.02e+01	0	28	104	390594560	60	81048
2026-01-05 02:24:22.07	294.94	64.16	-43.8	-55.2	3.5	3.02e+01	0	28	104	390594560	60	22073
2026-01-05 02:24:23.08	295.91	63.81	-40.4	-50.8	3.6	3.02e+01	0	29	104	390594560	54	18949
2026-01-05 02:24:24.09	296.85	63.45	-39.1	-49.4	3.5	3.02e+01	0	29	104	390594560	54	15965
2026-01-05 02:24:25.10	297.76	63.09	-40.3	-51.0	3.6	3.02e+01	0	28	104	390594560	54	19185
2026-01-05 02:24:26.11	298.64	62.72	-39.3	-49.8	3.6	3.02e+01	0	28	104	390594560	54	16784
2026-01-05 02:24:27.12	299.49	62.35	-38.6	-49.0	3.5	3.02e+01	0	28	104	390594560	52	17262
2026-01-05 02:24:28.13	300.32	61.98	-41.4	-51.7	3.6	3.02e+01	0	29	104	390594560	56	18641
2026-01-05 02:24:29.14	301.13	61.60	-49.7	-67.3	3.5	3.02e+01	0	29	104	390594560	60	88795
2026-01-05 02:24:30.15	301.91	61.23	-48.8	-64.7	3.5	3.02e+01	0	29	104	390594560	60	65944
2026-01-05 02:24:31.16	302.66	60.85	-46.7	-59.1	3.6	3.02e+01	0	29	104	390594560	60	34660
2026-01-05 02:24:32.17	303.40	60.46	-37.9	-48.2	3.5	3.02e+01	0	29	104	390594560	50	17618
2026-01-05 02:24:33.18	304.11	60.08	-37.7	-47.6	3.5	3.02e+01	0	29	104	390594560	48	18412
2026-01-05 02:24:34.19	304.80	59.70	-37.7	-48.3	3.6	3.02e+01	0	28	104	390594560	50	17696
2026-01-05 02:24:35.20	305.48	59.31	-37.4	-47.7	3.5	3.02e+01	0	28	104	390594560	50	16592
2026-01-05 02:24:36.21	306.13	58.92	-48.1	-62.3	3.5	3.02e+01	0	28	104	390594560	60	50331
2026-01-05 02:24:37.22	306.76	58.54	-41.2	-51.9	3.4	3.02e+01	0	29	104	390594560	60	15123
2026-01-05 02:24:38.23	307.38	58.15	-48.8	-64.3	3.5	3.02e+01	0	29	104	390594560	60	63500
2026-01-05 02:24:39.24	307.97	57.76	-49.3	-66.8	3.6	3.02e+01	0	29	104	390594560	60	84295
2026-01-05 02:24:40.25	308.55	57.37	-40.6	-51.3	3.5	3.02e+01	0	29	104	390594560	58	15949
2026-01-05 02:24:41.26	309.12	56.99	-36.3	-46.4	3.5	3.02e+01	0	29	104	390594560	46	18038
2026-01-05 02:24:42.27	309.67	56.60	-36.1	-46.2	3.6	3.02e+01	0	29	104	390594560	46	17689
2026-01-05 02:24:43.28	310.20	56.21	-35.6	-45.6	3.6	3.02e+01	0	28	104	390594560	46	16483
2026-01-05 02:24:44.29	310.72	55.82	-35.8	-46.1	3.5	3.02e+01	0	29	104	390594560	46	17426
2026-01-05 02:24:45.30	311.22	55.44	-40.8	-51.5	3.5	3.02e+01	0	29	104	390594560	60	14416
2026-01-05 02:24:46.31	311.71	55.05	-36.4	-46.7	3.5	3.02e+01	0	29	104	390594560	50	14740
2026-01-05 02:24:47.32	312.19	54.67	-48.9	-66.9	3.5	3.02e+01	0	29	104	390594560	60	85621
2026-01-05 02:24:48.33	312.66	54.29	-41.3	-52.2	3.5	3.02e+01	0	29	104	390594560	60	15657
2026-01-05 02:24:49.34	313.11	53.90	-42.3	-53.3	3.5	3.02e+01	0	29	104	390594560	60	17838
2026-01-05 02:24:50.35	313.55	53.52	-37.6	-48.2	3.5	3.02e+01	0	28	104	390594560	48	19749
2026-01-05 02:24:51.35	313.97	53.15	-38.2	-48.6	3.5	3.02e+01	0	28	104	390594560	50	18422
2026-01-05 02:24:52.36	314.39	52.77	-37.7	-48.1	3.5	3.02e+01	0	29	104	390594560	50	17456
2026-01-05 02:24:53.37	314.80	52.39	-38.8	-49.4	3.5	3.02e+01	0	28	104	390594560	50	20238
2026-01-05 02:24:54.38	315.20	52.02	-43.9	-55.4	3.5	3.02e+01	0	29	104	390594560	60	22681
2026-01-05 02:24:55.39	315.59	51.64	-36.9	-47.3	3.5	3.02e+01	0	29	104	390594560	52	14123
2026-01-05 02:24:56.40	315.97	51.27	-47.7	-63.1	3.5	3.02e+01	0	29	104	390594560	60	55067
2026-01-05 02:24:57.41	316.33	50.90	-44.1	-55.4	3.5	3.02e+01	0	28	104	390594560	60	22748
2026-01-05 02:24:58.42	316.70	50.54	-39.0	-49.8	3.5	3.02e+01	0	28	104	390594560	54	16772
2026-01-05 02:24:59.43	317.05	50.17	-37.6	-48.1	3.5	3.02e+01	0	29	104	390594560	50	17461
2026-01-05 02:25:00.43	317.39	49.81	-37.2	-47.5	3.5	3.02e+01	0	28	104	390594560	50	16227
2026-01-05 02:25:01.44	317.72	49.45	-35.9	-46.1	3.5	3.02e+01	0	29	104	390594560	48	15493
2026-01-05 02:25:02.45	318.05	49.09	-36.1	-46.3	3.5	3.02e+01	0	29	104	390594560	46	17739
2026-01-05 02:25:03.46	318.37	48.73	-36.8	-47.0	3.6	3.02e+01	0	29	104	390594560	50	15349
2026-01-05 02:25:04.47	318.68	48.38	-36.1	-46.5	3.5	3.02e+01	0	29	104	390594560	48	16188
2026-01-05 02:25:05.48	318.99	48.02	-48.4	-64.6	3.5	3.02e+01	0	29	104	390594560	60	65465
2026-01-05 02:25:06.49	319.29	47.67	-37.8	-48.2	3.3	3.02e+01	0	29	104	390594560	54	14006
2026-01-05 02:25:07.50	319.58	47.32	-39.8	-50.2	3.4	3.02e+01	0	28	104	390594560	56	15745
2026-01-05 02:25:08.51	319.86	46.97	-38.0	-48.2	3.5	3.02e+01	0	28	104	390594560	50	17595
2026-01-05 02:25:09.52	320.14	46.63	-37.2	-47.5	3.5	3.02e+01	0	28	104	390594560	50	16306
2026-01-05 02:25:10.53	320.42	46.29	-37.5	-47.8	3.5	3.02e+01	0	29	104	390594560	48	18761
2026-01-05 02:25:11.54	320.68	45.95	-38.6	-48.7	3.5	3.02e+01	0	28	104	390594560	48	20914
2026-01-05 02:25:12.55	320.95	45.61	-39.2	-49.5	3.5	3.02e+01	0	29	104	390594560	52	18116
2026-01-05 02:25:13.56	321.20	45.28	-40.7	-51.2	3.5	3.02e+01	0	29	104	390594560	50	24954
2026-01-05 02:25:14.57	321.45	44.94	-48.9	-65.2	3.5	3.02e+01	0	29	104	390594560	60	70336
2026-01-05 02:25:15.58	321.70	44.61	-37.2	-47.4	3.5	3.02e+01	0	29	104	390594560	56	11299
2026-01-05 02:25:16.59	321.94	44.28	-38.7	-49.0	3.5	3.02e+01	0	29	104	390594560	56	13624
2026-01-05 02:25:17.60	322.17	43.96	-38.0	-48.3	3.5	3.02e+01	0	29	104	390594560	50	17800
2026-01-05 02:25:18.61	322.41	43.64	-38.5	-48.9	3.5	3.02e+01	0	29	104	390594560	50	19101
2026-01-05 02:25:19.62	322.63	43.31	-38.6	-48.9	3.5	3.02e+01	0	29	104	390594560	50	19032
2026-01-05 02:25:20.63	322.85	43.00	-36.7	-46.7	3.5	3.02e+01	0	29	104	390594560	48	16664
2026-01-05 02:25:21.64	323.07	42.68	-37.4	-47.6	3.5	3.02e+01	0	28	104	390594560	48	18384
2026-01-05 02:25:22.65	323.29	42.36	-47.9	-62.2	3.5	3.02e+01	0	29	104	390594560	58	55350
2026-01-05 02:25:23.66	323.50	42.05	-48.7	-64.1	3.5	3.02e+01	0	29	104	390594560	60	61472
2026-01-05 02:25:24.66	323.70	41.75	-37.9	-48.2	3.4	3.02e+01	0	29	104	390594560	52	15767
2026-01-05 02:25:25.68	323.90	41.44	-40.4	-51.1	3.6	3.02e+01	0	29	104	390594560	56	17305
2026-01-05 02:25:26.69	324.10	41.13	-39.2	-49.6	3.6	3.02e+01	0	29	104	390594560	52	18344
2026-01-05 02:25:27.70	324.29	40.83	-39.2	-49.8	3.5	3.02e+01	0	29	104	390594560	52	18781
2026-01-05 02:25:28.71	324.48	40.53	-38.5	-49.1	3.5	3.02e+01	0	29	104	390594560	52	17466
2026-01-05 02:25:29.71	324.67	40.24	-42.2	-53.1	3.5	3.02e+01	0	29	104	390594560	56	21931
2026-01-05 02:25:30.72	324.85	39.94	-42.6	-53.3	3.5	3.02e+01	0	28	104	390594560	58	20065
2026-01-05 02:25:31.73	325.03	39.65	-45.1	-56.7	3.5	3.02e+01	0	29	104	390594560	58	29610
2026-01-05 02:25:32.75	325.21	39.35	-49.0	-66.4	3.5	3.02e+01	0	29	104	390594560	60	80497
2026-01-05 02:25:33.75	325.39	39.07	-36.4	-46.6	3.5	3.02e+01	0	28	104	390594560	48	16414
2026-01-05 02:25:34.76	325.56	38.78	-37.4	-47.6	3.5	3.02e+01	0	29	104	390594560	50	16406
2026-01-05 02:25:35.77	325.72	38.50	-37.0	-47.1	3.5	3.02e+01	0	29	104	390594560	50	15519
2026-01-05 02:25:36.78	325.89	38.22	-36.7	-46.9	3.5	3.02e+01	0	29	104	390594560	48	17003
2026-01-05 02:25:37.79	326.05	37.94	-36.3	-46.4	3.5	3.02e+01	0	29	104	390594560	48	16081
2026-01-05 02:25:38.80	326.21	37.66	-38.8	-49.1	3.5	3.02e+01	0	28	104	390594560	50	19414
2026-01-05 02:25:39.81	326.37	37.39	-38.9	-49.2	3.5	3.02e+01	0	28	104	390594560	50	19675
2026-01-05 02:25:40.82	326.52	37.11	-49.5	-66.1	3.5	3.02e+01	0	29	104	390594560	60	77819
2026-01-05 02:25:41.83	326.68	36.84	-49.5	-65.6	3.5	3.02e+01	0	29	104	390594560	60	73172
2026-01-05 02:25:42.84	326.83	36.57	-45.0	-56.5	3.5	3.02e+01	0	28	104	390594560	60	25810
2026-01-05 02:25:43.85	326.97	36.31	-45.2	-56.8	3.6	3.02e+01	0	28	104	390594560	60	26490
2026-01-05 02:25:44.86	327.12	36.04	-43.5	-54.6	3.5	3.02e+01	0	29	104	390594560	60	20684
2026-01-05 02:25:45.87	327.26	35.78	-42.4	-53.2	3.5	3.02e+01	0	28	104	390594560	60	17491
2026-01-05 02:25:46.87	327.40	35.52	-43.0	-53.9	3.5	3.02e+01	0	29	104	390594560	60	19020
2026-01-05 02:25:47.89	327.54	35.26	-47.7	-61.1	3.5	3.02e+01	0	29	104	390594560	60	43848
2026-01-05 02:25:48.89	327.67	35.01	-41.4	-51.8	3.5	3.02e+01	0	28	104	390594560	60	14985
2026-01-05 02:25:49.91	327.81	34.75	-49.2	-64.2	3.5	3.02e+01	0	29	104	390594560	60	62359
2026-01-05 02:25:50.91	327.94	34.50	-49.1	-66.1	3.5	3.02e+01	0	29	104	390594560	60	78022
2026-01-05 02:25:51.92	328.07	34.25	-38.4	-48.8	3.5	3.02e+01	0	29	104	390594560	46	23694
2026-01-05 02:25:52.93	328.20	34.01	-37.0	-47.4	3.5	3.02e+01	0	29	104	390594560	48	17950
2026-01-05 02:25:53.94	328.32	33.76	-37.6	-48.0	3.5	3.02e+01	0	29	104	390594560	50	17271
2026-01-05 02:25:54.95	328.45	33.52	-36.5	-46.7	3.5	3.02e+01	0	29	104	390594560	48	16633
2026-01-05 02:25:55.96	328.57	33.27	-35.9	-46.2	3.5	3.02e+01	0	29	104	390594560	48	15686
2026-01-05 02:25:56.97	328.69	33.03	-35.6	-45.8	3.5	3.02e+01	0	29	104	390594560	44	18777
2026-01-05 02:25:57.98	328.81	32.80	-37.5	-47.8	3.5	3.02e+01	0	29	104	390594560	48	18774
2026-01-05 02:25:58.99	328.92	32.56	-48.9	-65.7	3.5	3.02e+01	0	28	104	390594560	60	74432
2026-01-05 02:26:00.00	329.04	32.32	-47.8	-61.5	3.5	3.02e+01	0	29	104	390594560	60	45763
2026-01-05 02:26:01.01	329.15	32.09	-42.2	-52.8	3.5	3.02e+01	0	29	104	390594560	56	21225
2026-01-05 02:26:02.01	329.26	31.86	-37.4	-47.5	3.5	3.02e+01	0	29	104	390594560	50	16284
2026-01-05 02:26:03.03	329.37	31.63	-36.2	-46.4	3.5	3.02e+01	0	29	104	390594560	46	17962
2026-01-05 02:26:04.04	329.48	31.40	-35.5	-45.6	3.5	3.02e+01	0	29	104	390594560	46	16431
2026-01-05 02:26:05.04	329.59	31.18	-35.6	-45.7	3.5	3.02e+01	0	28	104	390594560	46	16554
2026-01-05 02:26:06.05	329.70	30.96	-35.2	-45.3	3.5	3.02e+01	0	28	104	390594560	46	15908
2026-01-05 02:26:07.06	329.80	30.74	-43.7	-54.6	3.5	3.02e+01	0	29	104	390594560	60	20691
2026-01-05 02:26:08.07	329.90	30.52	-47.7	-61.5	3.5	3.02e+01	0	29	104	390594560	60	45703
2026-01-05 02:26:09.08	330.01	30.30	-48.8	-65.2	3.5	3.02e+01	0	29	104	390594560	60	69932
2026-01-05 02:26:10.09	330.11	30.08	-40.9	-51.4	3.5	3.02e+01	0	29	104	390594560	56	17972
2026-01-05 02:26:11.10	330.20	29.86	-38.0	-48.3	3.5	3.02e+01	0	28	104	390594560	50	17798
2026-01-05 02:26:12.11	330.30	29.65	-37.1	-47.5	3.5	3.02e+01	0	29	104	390594560	50	16222
2026-01-05 02:26:13.12	330.40	29.44	-37.9	-48.3	3.5	3.02e+01	0	29	104	390594560	50	17718
2026-01-05 02:26:14.13	330.49	29.23	-38.8	-49.3	3.5	3.02e+01	0	29	104	390594560	50	20032
2026-01-05 02:26:15.14	330.59	29.02	-37.5	-48.0	3.5	3.02e+01	0	29	104	390594560	50	17141
2026-01-05 02:26:16.15	330.68	28.81	-38.4	-49.1	3.4	3.02e+01	0	29	104	390594560	54	15421
2026-01-05 02:26:17.16	330.77	28.61	-49.4	-66.7	3.5	3.02e+01	0	29	104	390594560	60	83453
2026-01-05 02:26:18.17	330.86	28.40	-47.1	-59.9	3.5	3.02e+01	0	29	104	390594560	60	38031
2026-01-05 02:26:19.18	330.95	28.20	-41.6	-52.2	3.5	3.02e+01	0	29	104	390594560	60	15622
2026-01-05 02:26:20.19	331.04	28.00	-37.5	-47.7	3.5	3.02e+01	0	29	104	390594560	50	16512
2026-01-05 02:26:21.20	331.13	27.80	-37.7	-47.8	3.5	3.02e+01	0	29	104	390594560	50	16844
2026-01-05 02:26:22.21	331.22	27.60	-37.1	-47.3	3.5	3.02e+01	0	29	104	390594560	50	15793
2026-01-05 02:26:23.22	331.30	27.41	-36.6	-46.7	3.5	3.02e+01	0	29	104	390594560	48	16652
2026-01-05 02:26:24.23	331.38	27.21	-39.1	-49.5	3.5	3.02e+01	0	29	104	390594560	54	16234
2026-01-05 02:26:25.24	331.47	27.02	-39.3	-49.7	3.5	3.02e+01	0	29	104	390594560	58	13133
2026-01-05 02:26:26.25	331.55	26.82	-47.3	-60.6	3.5	3.02e+01	0	29	104	390594560	60	41271
2026-01-05 02:26:27.26	331.63	26.63	-48.8	-66.2	3.6	3.02e+01	0	29	104	390594560	60	78295
2026-01-05 02:26:28.27	331.71	26.44	-39.7	-50.2	3.5	3.02e+01	0	29	104	390594560	52	19770
2026-01-05 02:26:29.28	331.79	26.26	-36.4	-46.8	3.5	3.02e+01	0	29	104	390594560	46	18755
2026-01-05 02:26:30.29	331.87	26.07	-36.9	-47.3	3.5	3.02e+01	0	29	104	390594560	46	20043
2026-01-05 02:26:31.30	331.95	25.88	-36.2	-46.6	3.5	3.02e+01	0	29	104	390594560	48	16355
2026-01-05 02:26:32.31	332.02	25.70	-35.7	-46.0	3.5	3.02e+01	0	29	104	390594560	46	17158
2026-01-05 02:26:33.32	332.10	25.52	-35.5	-45.8	3.5	3.02e+01	0	29	104	390594560	44	18840
2026-01-05 02:26:34.33	332.17	25.34	-38.6	-49.1	3.7	3.02e+01	0	29	104	390594560	56	13783
2026-01-05 02:26:35.34	332.25	25.16	-48.9	-65.9	3.5	3.02e+01	0	29	104	390594560	60	76144
2026-01-05 02:26:36.35	332.32	24.98	-44.4	-56.1	3.6	3.02e+01	0	29	104	390594560	60	24445
2026-01-05 02:26:37.35	332.39	24.80	-42.4	-53.3	3.5	3.02e+01	0	29	104	390594560	60	17828
2026-01-05 02:26:38.36	332.46	24.63	-41.6	-52.3	3.5	3.02e+01	0	29	104	390594560	56	20006
2026-01-05 02:26:39.38	332.54	24.45	-43.4	-54.6	3.6	3.02e+01	0	29	104	390594560	60	20627
2026-01-05 02:26:40.38	332.61	24.28	-44.2	-55.5	3.5	3.02e+01	0	29	104	390594560	60	22837
2026-01-05 02:26:41.39	332.67	24.10	-44.5	-55.8	3.5	3.02e+01	0	29	104	390594560	60	23629
2026-01-05 02:26:42.40	332.74	23.93	-44.8	-56.4	3.5	3.02e+01	0	29	104	390594560	60	25384
2026-01-05 02:26:43.41	332.81	23.76	-37.1	-47.4	3.5	3.02e+01	0	29	104	390594560	50	16071
2026-01-05 02:26:44.42	332.88	23.59	-47.3	-60.9	3.5	3.02e+01	0	29	104	390594560	60	42558
2026-01-05 02:26:45.43	332.94	23.42	-38.3	-48.6	3.1	3.02e+01	0	29	104	390594560	58	11636
2026-01-05 02:26:46.44	333.01	23.26	-39.6	-50.0	3.5	3.02e+01	0	29	104	390594560	52	19222
2026-01-05 02:26:47.45	333.08	23.09	-37.6	-47.8	3.5	3.02e+01	0	29	104	390594560	50	16724
2026-01-05 02:26:48.46	333.14	22.93	-37.3	-47.4	3.5	3.02e+01	0	29	104	390594560	50	16019
2026-01-05 02:26:49.47	333.20	22.76	-36.3	-46.4	3.5	3.02e+01	0	28	104	390594560	48	15997
2026-01-05 02:26:50.48	333.27	22.60	-35.4	-45.4	3.5	3.02e+01	0	29	104	390594560	46	16078
2026-01-05 02:26:51.49	333.33	22.44	-35.5	-45.5	3.6	3.02e+01	0	28	104	390594560	46	16255
2026-01-05 02:26:52.50	333.39	22.28	-36.5	-46.6	3.5	3.02e+01	0	29	104	390594560	46	18332
2026-01-05 02:26:53.51	333.45	22.12	-47.2	-60.8	3.5	3.02e+01	0	29	104	390594560	60	42267
2026-01-05 02:26:54.52	333.51	21.96	-36.3	-46.4	3.5	3.02e+01	0	29	104	390594560	50	14247
2026-01-05 02:26:55.53	333.57	21.81	-38.6	-48.9	3.5	3.02e+01	0	28	104	390594560	54	15132
2026-01-05 02:26:56.54	333.63	21.65	-36.8	-47.0	3.5	3.02e+01	0	28	104	390594560	48	17230
2026-01-05 02:26:57.55	333.69	21.50	-35.5	-45.6	3.5	3.02e+01	0	28	104	390594560	46	16458
2026-01-05 02:26:58.56	333.75	21.34	-35.9	-46.1	3.5	3.02e+01	0	28	104	390594560	46	17444
2026-01-05 02:26:59.57	333.81	21.19	-38.1	-48.4	3.5	3.02e+01	0	29	104	390594560	48	20157
2026-01-05 02:27:00.58	333.86	21.04	-39.1	-49.5	3.5	3.02e+01	0	29	104	390594560	52	18108
2026-01-05 02:27:01.59	333.92	20.89	-37.4	-47.7	3.3	3.02e+01	0	28	104	390594560	48	18569
2026-01-05 02:27:02.60	333.98	20.74	-48.2	-62.8	3.5	3.02e+01	0	29	104	390594560	60	53294
2026-01-05 02:27:03.61	334.03	20.59	-38.8	-49.2	3.5	3.02e+01	0	29	104	390594560	60	11149
2026-01-05 02:27:04.62	334.09	20.44	-39.7	-50.2	3.5	3.02e+01	0	29	104	390594560	56	15703
2026-01-05 02:27:05.63	334.14	20.29	-37.8	-48.1	3.5	3.02e+01	0	28	104	390594560	50	17452
2026-01-05 02:27:06.64	334.20	20.15	-38.0	-48.4	3.5	3.02e+01	0	29	104	390594560	50	17902
2026-01-05 02:27:07.65	334.25	20.00	-36.8	-47.1	3.5	3.02e+01	0	28	104	390594560	48	17337
2026-01-05 02:27:08.66	334.30	19.86	-38.2	-48.6	3.5	3.02e+01	0	29	104	390594560	48	20631
2026-01-05 02:27:09.67	334.36	19.71	-37.6	-47.9	3.5	3.02e+01	0	29	104	390594560	48	19020
2026-01-05 02:27:10.68	334.41	19.57	-45.3	-57.2	3.5	3.02e+01	0	28	104	390594560	52	44290
2026-01-05 02:27:11.69	334.46	19.43	-46.3	-59.1	3.5	3.02e+01	0	29	104	390594560	60	34679
2026-01-05 02:27:12.70	334.51	19.29	-37.4	-47.7	3.5	3.02e+01	0	29	104	390594560	48	18714
2026-01-05 02:27:13.71	334.56	19.15	-38.8	-49.1	3.5	3.02e+01	0	28	104	390594560	54	15541
2026-01-05 02:27:14.72	334.61	19.01	-36.9	-47.2	3.5	3.02e+01	0	29	104	390594560	50	15661
2026-01-05 02:27:15.73	334.66	18.87	-37.6	-47.9	3.5	3.02e+01	0	29	104	390594560	50	16985
2026-01-05 02:27:16.74	334.71	18.73	-37.5	-47.7	3.5	3.02e+01	0	29	104	390594560	50	16653
2026-01-05 02:27:17.75	334.76	18.59	-37.7	-48.0	3.5	3.02e+01	0	29	104	390594560	48	19260
2026-01-05 02:27:18.76	334.81	18.46	-41.0	-51.5	3.5	3.02e+01	0	29	104	390594560	54	20347
2026-01-05 02:27:19.77	334.86	18.32	-40.8	-51.4	3.5	3.02e+01	0	29	104	390594560	52	22654
2026-01-05 02:27:20.78	334.90	18.19	-48.8	-65.2	3.5	3.02e+01	0	29	104	390594560	60	70038
2026-01-05 02:27:21.79	334.95	18.06	-38.0	-48.2	3.5	3.02e+01	0	29	104	390594560	48	19642
2026-01-05 02:27:22.79	335.00	17.92	-38.0	-48.1	3.5	3.02e+01	0	29	104	390594560	52	15505
2026-01-05 02:27:23.81	335.05	17.79	-39.0	-49.3	3.6	3.02e+01	0	29	104	390594560	50	19996
2026-01-05 02:27:24.82	335.09	17.66	-37.0	-47.3	3.5	3.02e+01	0	28	104	390594560	50	15770
2026-01-05 02:27:25.83	335.14	17.53	-36.0	-46.1	3.5	3.02e+01	0	29	104	390594560	46	17434
2026-01-05 02:27:26.83	335.18	17.40	-35.0	-45.2	3.5	3.02e+01	0	29	104	390594560	44	17636
2026-01-05 02:27:27.84	335.23	17.27	-39.1	-49.7	3.5	3.02e+01	0	29	104	390594560	50	20877
2026-01-05 02:27:28.85	335.27	17.14	-48.6	-65.9	3.5	3.02e+01	0	29	104	390594560	60	76312
2026-01-05 02:27:29.87	335.32	17.01	-44.5	-56.2	3.5	3.02e+01	0	29	104	390594560	60	24981
2026-01-05 02:27:30.87	335.36	16.89	-40.9	-51.6	3.5	3.02e+01	0	28	104	390594560	52	23255
2026-01-05 02:27:31.88	335.40	16.76	-37.4	-47.8	3.5	3.02e+01	0	29	104	390594560	50	16740
2026-01-05 02:27:32.89	335.45	16.64	-38.1	-48.5	3.5	3.02e+01	0	29	104	390594560	50	18224
2026-01-05 02:27:33.90	335.49	16.51	-37.8	-48.2	3.5	3.02e+01	0	29	104	390594560	50	17526
2026-01-05 02:27:34.91	335.53	16.39	-38.3	-48.8	3.5	3.02e+01	0	29	104	390594560	50	18798
2026-01-05 02:27:35.92	335.58	16.27	-38.6	-49.1	3.5	3.02e+01	0	28	104	390594560	50	19488
2026-01-05 02:27:36.93	335.62	16.14	-42.8	-53.9	3.5	3.02e+01	0	29	104	390594560	58	21424
2026-01-05 02:27:37.94	335.66	16.02	-46.0	-58.8	3.5	3.02e+01	0	29	104	390594560	60	33442
2026-01-05 02:27:38.95	335.70	15.90	-48.0	-64.8	3.5	3.02e+01	0	29	104	390594560	60	67105
2026-01-05 02:27:39.96	335.74	15.78	-38.3	-48.8	3.6	3.02e+01	0	29	104	390594560	48	21072
2026-01-05 02:27:40.97	335.78	15.66	-36.6	-46.9	3.5	3.02e+01	0	28	104	390594560	48	17064
2026-01-05 02:27:41.98	335.82	15.54	-37.4	-47.8	3.5	3.02e+01	0	29	104	390594560	48	18804
2026-01-05 02:27:42.99	335.86	15.42	-37.0	-47.3	3.5	3.02e+01	0	28	104	390594560	48	17812
2026-01-05 02:27:44.00	335.90	15.30	-36.8	-47.2	3.5	3.02e+01	0	29	104	390594560	48	17589
2026-01-05 02:27:45.01	335.94	15.18	-35.4	-45.6	3.5	3.02e+01	0	28	104	390594560	46	16496
2026-01-05 02:27:46.01	335.98	15.07	-39.6	-50.2	3.5	3.02e+01	0	29	104	390594560	50	22265
2026-01-05 02:27:47.02	336.02	14.95	-48.4	-63.1	3.7	3.02e+01	0	29	104	390594560	60	55120
2026-01-05 02:27:48.03	336.06	14.84	-45.9	-50.3	18.4	3.02e+01	90	29	0	390594560	60	12617
2026-01-05 02:27:49.04	336.10	14.72	-41.5	-43.2	24.1	3.02e+01	92	29	0	392167424	56	7042
2026-01-05 02:27:50.05	336.13	14.61	-36.4	-37.7	28.4	3.02e+01	90	28	0	394264576	48	5899
2026-01-05 02:27:51.06	336.17	14.49	-37.9	-39.2	27.2	3.02e+01	92	28	0	396361728	48	7021
2026-01-05 02:27:52.07	336.21	14.38	-37.1	-38.4	27.4	3.02e+01	90	28	0	397934592	50	5725
2026-01-05 02:27:53.08	336.25	14.27	-37.6	-38.9	26.9	3.02e+01	91	29	0	400031744	50	6059
2026-01-05 02:27:54.09	336.28	14.16	-38.6	-40.0	26.0	3.02e+01	92	28	0	401604608	50	6872
2026-01-05 02:27:55.10	336.32	14.04	-38.2	-39.7	26.2	3.02e+01	90	28	0	403701760	50	6578
2026-01-05 02:27:56.11	336.36	13.93	-36.5	-37.8	27.7	3.02e+01	90	29	0	405798912	48	5949
2026-01-05 02:27:57.12	336.39	13.82	-37.5	-38.9	26.0	3.02e+01	92	29	0	407371776	50	6038
2026-01-05 02:27:58.13	336.43	13.71	-36.0	-37.3	28.1	3.02e+01	90	28	0	409468928	48	5648
2026-01-05 02:27:59.14	336.46	13.60	-35.6	-36.9	28.5	3.02e+01	92	28	0	411041792	46	6034
2026-01-05 02:28:00.14	336.50	13.49	-35.5	-36.8	28.6	3.02e+01	90	29	0	413138944	46	5951
2026-01-05 02:28:01.15	336.53	13.39	-35.8	-37.1	28.3	3.02e+01	92	28	0	415236096	46	6194
2026-01-05 02:28:02.15	336.57	13.28	-36.9	-38.3	27.6	3.02e+01	90	28	0	416808960	48	6284
2026-01-05 02:28:03.16	336.60	13.17	-36.5	-37.9	27.4	3.02e+01	92	28	0	418906112	48	6001
2026-01-05 02:28:04.17	336.64	13.07	-36.6	-37.9	28.0	3.02e+01	90	28	0	420478976	46	6772
2026-01-05 02:28:05.18	336.67	12.96	-35.9	-37.2	28.5	3.02e+01	90	28	0	422576128	48	5541
2026-01-05 02:28:06.19	336.71	12.85	-36.1	-37.4	28.6	3.02e+01	92	28	0	424673280	46	6354
2026-01-05 02:28:07.20	336.74	12.75	-36.3	-37.6	27.7	3.02e+01	92	28	0	426246144	46	6544
2026-01-05 02:28:08.20	336.77	12.64	-36.4	-37.6	28.1	3.02e+01	92	28	0	428343296	48	5836
2026-01-05 02:28:09.22	336.81	12.54	-35.4	-36.6	29.2	3.02e+01	92	29	0	429916160	46	5813
2026-01-05 02:28:10.23	336.84	12.44	-35.6	-36.8	29.1	3.02e+01	92	28	0	432013312	46	5945
2026-01-05 02:28:11.24	336.87	12.33	-35.8	-37.1	28.1	3.02e+01	92	28	0	434110464	46	6165
2026-01-05 02:28:12.25	336.91	12.23	-36.2	-37.4	28.4	3.02e+01	92	28	0	435683328	46	6401
2026-01-05 02:28:13.26	336.94	12.13	-36.3	-37.6	27.8	3.02e+01	91	28	0	437780480	48	5813
2026-01-05 02:28:14.27	336.97	12.02	-38.2	-39.7	27.5	3.02e+01	92	28	0	439353344	48	7387
2026-01-05 02:28:15.27	337.00	11.92	-36.7	-38.1	28.0	3.02e+01	91	28	0	441450496	46	6910
2026-01-05 02:28:16.28	337.03	11.82	-35.8	-37.1	28.4	3.02e+01	92	28	0	443547648	46	6171
2026-01-05 02:28:17.29	337.07	11.72	-36.5	-37.8	27.7	3.02e+01	92	28	0	445120512	46	6674
2026-01-05 02:28:18.30	337.10	11.62	-36.0	-37.3	28.1	3.02e+01	92	28	0	447217664	46	6302
2026-01-05 02:28:19.31	337.13	11.52	-36.2	-37.5	28.1	3.02e+01	92	28	0	449314816	46	6483
2026-01-05 02:28:20.32	337.16	11.42	-35.8	-37.1	28.2	3.02e+01	92	28	0	450887680	46	6175
2026-01-05 02:28:21.33	337.19	11.33	-36.5	-37.8	27.7	3.02e+01	92	28	0	452984832	46	6676
2026-01-05 02:28:22.34	337.22	11.23	-35.9	-37.1	28.2	3.02e+01	92	28	0	454557696	46	6190
2026-01-05 02:28:23.35	337.25	11.13	-36.3	-37.6	28.1	3.02e+01	90	28	0	456654848	46	6515
2026-01-05 02:28:24.36	337.28	11.03	-36.0	-37.3	28.1	3.02e+01	91	28	0	458752000	46	6294
