passes_logs/2026/01/05/R4.6S_Anadyr/R4.6S_Anadyr__20260105_235730_NOAA_21_JPSS-2_rec.log

#Pass ID: 20260105_235730_NOAA 21 (JPSS-2)
#Satellite: NOAA 21 (JPSS-2)
#Configuration: NOAA-21
#almurnet v.1.7.20251203
#Start time: 2026-01-05 23:57:31

#Version: 2.2.20231116
#Station: R4.6S_Anadyr
#Location: 177.4865 lon 64.73178 lat
#TLE: 1 54234U 22150A   26005.42670836  .00000142  00000+0  88292-4 0  9996
#TLE: 2 54234  98.7490 306.4427 0001045 340.6622  19.4514 14.19532269163451

#Time	Az	El	Level	Level2	SNR	BER	BlckErr	Temp	State	Recorded	gain1	gain2
2026-01-05 23:57:31.83	149.88	0.09	-48.6	-63.5	3.5	1.51e+00	0	31	0	0	60	54222
2026-01-05 23:57:32.84	149.88	0.15	-48.7	-61.5	3.5	1.52e+00	0	32	104	0	60	41671
2026-01-05 23:57:33.85	149.88	0.21	-48.7	-61.5	3.5	1.52e+00	0	32	104	0	60	41799
2026-01-05 23:57:34.85	149.87	0.27	-48.7	-61.5	3.5	1.52e+00	0	32	104	0	60	41787
2026-01-05 23:57:35.87	149.87	0.33	-48.7	-61.5	3.5	1.51e+00	0	33	104	0	60	41906
2026-01-05 23:57:36.88	149.86	0.39	-48.8	-61.6	3.5	1.52e+00	0	32	104	0	60	42161
2026-01-05 23:57:37.89	149.86	0.46	-48.8	-61.6	3.5	1.52e+00	0	32	104	0	60	42343
2026-01-05 23:57:38.90	149.86	0.52	-48.7	-61.6	3.5	1.52e+00	0	32	104	0	60	42151
2026-01-05 23:57:39.91	149.85	0.58	-48.7	-61.6	3.5	1.52e+00	0	33	104	0	60	41999
2026-01-05 23:57:40.92	149.85	0.64	-48.6	-61.5	3.6	1.52e+00	0	33	104	0	60	41626
2026-01-05 23:57:41.93	149.84	0.70	-48.6	-61.4	3.5	1.52e+00	0	33	104	0	60	41086
2026-01-05 23:57:42.94	149.84	0.77	-48.4	-61.3	3.5	1.52e+00	0	33	104	0	60	40564
2026-01-05 23:57:43.95	149.84	0.83	-48.2	-61.1	3.5	1.52e+00	0	33	104	0	60	39752
2026-01-05 23:57:44.96	149.83	0.89	-48.1	-60.8	3.5	1.52e+00	0	33	104	0	60	38683
2026-01-05 23:57:45.97	149.83	0.95	-47.9	-60.6	3.5	1.52e+00	0	33	104	0	60	37805
2026-01-05 23:57:46.98	149.82	1.01	-47.4	-60.4	3.5	1.52e+00	0	33	104	0	60	36597
2026-01-05 23:57:47.99	149.82	1.08	-47.1	-59.9	3.5	1.52e+00	0	33	104	0	60	34705
2026-01-05 23:57:49.00	149.82	1.14	-47.1	-59.9	3.5	1.51e+00	0	33	104	0	60	34752
2026-01-05 23:57:50.01	149.81	1.20	-47.1	-59.9	3.5	1.52e+00	0	33	104	0	60	34589
2026-01-05 23:57:51.02	149.81	1.27	-47.1	-59.9	3.5	1.52e+00	0	33	104	0	60	34663
2026-01-05 23:57:52.03	149.80	1.33	-47.1	-59.9	3.5	1.52e+00	0	33	104	0	60	34611
2026-01-05 23:57:53.04	149.80	1.39	-47.1	-59.9	3.5	1.52e+00	0	33	104	0	60	34612
2026-01-05 23:57:54.05	149.79	1.46	-47.1	-59.9	3.5	1.52e+00	0	33	104	0	60	34713
2026-01-05 23:57:55.06	149.79	1.52	-47.1	-59.9	3.5	1.52e+00	0	33	104	0	60	34749
2026-01-05 23:57:56.07	149.78	1.58	-47.1	-59.9	3.5	1.52e+00	0	33	104	0	60	34726
2026-01-05 23:57:57.08	149.78	1.65	-47.1	-59.9	3.5	1.52e+00	0	33	104	0	60	34769
2026-01-05 23:57:58.09	149.77	1.71	-47.1	-59.9	3.5	1.52e+00	0	33	104	0	60	34699
2026-01-05 23:57:59.10	149.77	1.78	-47.1	-59.9	3.5	1.52e+00	0	33	104	0	60	34856
2026-01-05 23:58:00.11	149.77	1.84	-47.1	-59.9	3.5	1.51e+00	0	33	104	0	60	34733
2026-01-05 23:58:01.12	149.76	1.91	-47.1	-59.9	3.5	1.51e+00	0	33	104	0	60	34808
2026-01-05 23:58:02.13	149.76	1.97	-47.1	-59.9	3.5	1.52e+00	0	33	104	0	60	34556
2026-01-05 23:58:03.14	149.75	2.04	-47.1	-59.8	3.5	1.52e+00	0	33	104	0	60	34344
2026-01-05 23:58:04.15	149.75	2.10	-47.1	-59.7	3.5	1.51e+00	0	33	104	0	60	33869
2026-01-05 23:58:05.16	149.74	2.17	-47.1	-59.7	3.5	1.52e+00	0	33	104	0	60	33871
2026-01-05 23:58:06.17	149.74	2.23	-47.1	-59.6	3.5	1.52e+00	0	33	104	0	60	33410
2026-01-05 23:58:07.18	149.73	2.30	-47.1	-59.5	3.5	1.52e+00	0	33	104	0	60	33257
2026-01-05 23:58:08.19	149.73	2.36	-47.1	-59.6	3.5	1.51e+00	0	33	104	0	60	33334
2026-01-05 23:58:09.20	149.72	2.43	-47.1	-59.5	3.5	1.52e+00	0	33	104	0	60	33038
2026-01-05 23:58:10.21	149.72	2.49	-47.1	-59.3	3.5	1.52e+00	0	33	104	0	60	32541
2026-01-05 23:58:11.22	149.71	2.56	-47.1	-59.4	3.5	1.51e+00	0	33	104	0	60	32901
2026-01-05 23:58:12.23	149.71	2.63	-47.0	-59.2	3.5	1.52e+00	0	33	104	0	60	31839
2026-01-05 23:58:13.24	149.70	2.69	-47.1	-59.2	3.5	1.52e+00	0	33	104	0	60	32180
2026-01-05 23:58:14.25	149.70	2.76	-47.0	-59.2	3.5	1.52e+00	0	33	104	0	60	31896
2026-01-05 23:58:15.26	149.69	2.83	-47.0	-59.1	3.5	1.52e+00	0	33	104	0	60	31750
2026-01-05 23:58:16.27	149.69	2.89	-47.0	-59.0	3.5	1.51e+00	0	33	104	0	60	31375
2026-01-05 23:58:17.28	149.68	2.96	-47.0	-59.2	3.5	1.52e+00	0	33	104	0	60	32190
2026-01-05 23:58:18.29	149.68	3.03	-47.1	-59.6	3.5	1.52e+00	0	33	104	0	60	33425
2026-01-05 23:58:19.30	149.67	3.10	-47.1	-59.5	3.5	1.52e+00	0	33	104	0	60	33307
2026-01-05 23:58:20.30	149.66	3.16	-47.0	-58.8	3.5	1.51e+00	0	33	104	0	60	30541
2026-01-05 23:58:21.32	149.66	3.23	-46.8	-56.9	4.0	1.49e+00	0	33	104	0	60	24564
2026-01-05 23:58:22.33	149.65	3.30	-46.5	-55.0	5.1	8.55e-01	122	33	104	0	60	19774
2026-01-05 23:58:23.33	149.65	3.37	-46.0	-52.6	6.8	2.22e-01	122	33	104	0	60	14932
2026-01-05 23:58:24.34	149.64	3.43	-45.4	-49.9	8.7	4.32e-02	123	33	0	2097152	60	10931
2026-01-05 23:58:25.35	149.64	3.50	-44.7	-48.5	10.4	1.08e-02	120	33	0	5242880	60	9327
2026-01-05 23:58:26.36	149.63	3.57	-43.9	-47.0	12.0	9.57e-04	122	33	0	8388608	60	7897
2026-01-05 23:58:27.37	149.63	3.64	-43.4	-46.1	13.0	4.88e-05	120	33	0	11534336	60	7086
2026-01-05 23:58:28.38	149.62	3.71	-42.9	-45.5	13.7	2.20e-06	123	33	0	14680064	60	6580
2026-01-05 23:58:29.39	149.61	3.78	-42.3	-44.6	14.5	1.50e-06	120	33	0	17825792	58	6681
2026-01-05 23:58:30.40	149.61	3.85	-44.4	-48.0	9.3	7.24e-05	122	33	0	20971520	58	9907
2026-01-05 23:58:31.41	149.60	3.92	-47.1	-58.6	3.5	1.50e+00	0	33	104	20971520	60	29740
2026-01-05 23:58:32.42	149.60	3.99	-44.3	-48.2	4.9	1.51e+00	0	33	104	20971520	60	9050
2026-01-05 23:58:33.43	149.59	4.06	-46.2	-54.3	4.1	1.51e+00	0	33	104	20971520	60	18205
2026-01-05 23:58:34.44	149.58	4.13	-41.8	-43.9	14.5	0.00e+00	122	33	0	20971520	56	6928
2026-01-05 23:58:35.45	149.58	4.20	-46.9	-58.6	3.7	1.52e+00	0	33	104	22020096	60	29840
2026-01-05 23:58:36.46	149.57	4.27	-41.3	-43.5	15.8	0.00e+00	122	33	104	22020096	56	6618
2026-01-05 23:58:37.46	149.57	4.34	-40.1	-41.7	17.7	0.00e+00	122	33	0	24117248	54	6048
2026-01-05 23:58:38.47	149.56	4.41	-38.8	-40.1	19.1	0.00e+00	122	33	0	27262976	52	5645
2026-01-05 23:58:39.48	149.55	4.48	-37.8	-39.0	20.2	0.00e+00	122	33	0	30408704	50	5574
2026-01-05 23:58:40.49	149.55	4.55	-37.8	-39.0	20.2	0.00e+00	123	33	0	33554432	48	6226
2026-01-05 23:58:41.50	149.54	4.62	-37.7	-38.8	20.3	0.00e+00	123	33	0	36700160	48	6128
2026-01-05 23:58:42.51	149.54	4.69	-37.3	-38.5	20.6	0.00e+00	122	33	0	39845888	48	5872
2026-01-05 23:58:43.52	149.53	4.76	-37.5	-38.6	20.5	0.00e+00	123	33	0	42991616	48	5992
2026-01-05 23:58:44.53	149.52	4.83	-38.0	-39.2	20.2	0.00e+00	123	33	0	46137344	48	6411
2026-01-05 23:58:45.54	149.52	4.91	-37.3	-38.5	20.8	0.00e+00	122	33	0	49283072	48	5859
2026-01-05 23:58:46.55	149.51	4.98	-37.8	-39.0	20.3	0.00e+00	123	33	0	52428800	48	6252
2026-01-05 23:58:47.56	149.50	5.05	-37.3	-38.4	20.8	0.00e+00	123	33	0	55574528	48	5853
2026-01-05 23:58:48.58	149.50	5.12	-37.3	-38.4	20.9	0.00e+00	123	33	0	58720256	48	5851
2026-01-05 23:58:49.59	149.49	5.20	-37.2	-38.3	21.0	0.00e+00	123	33	0	61865984	48	5746
2026-01-05 23:58:50.59	149.48	5.27	-37.0	-38.1	21.2	0.00e+00	123	33	0	65011712	48	5604
2026-01-05 23:58:51.61	149.48	5.34	-37.1	-38.2	21.2	0.00e+00	123	34	0	68157440	48	5671
2026-01-05 23:58:52.61	149.47	5.42	-37.0	-38.1	21.2	0.00e+00	123	34	0	71303168	48	5596
2026-01-05 23:58:53.62	149.46	5.49	-37.0	-38.1	21.2	0.00e+00	120	33	0	74448896	48	5650
2026-01-05 23:58:54.63	149.46	5.56	-37.1	-38.2	21.0	0.00e+00	123	33	0	77594624	48	5712
2026-01-05 23:58:55.64	149.45	5.64	-36.7	-37.8	21.4	0.00e+00	120	33	0	80740352	48	5448
2026-01-05 23:58:56.65	149.44	5.71	-36.9	-37.9	21.3	0.00e+00	123	33	0	83886080	46	6204
2026-01-05 23:58:57.66	149.43	5.79	-36.9	-38.0	21.4	0.00e+00	120	34	0	87031808	46	6224
2026-01-05 23:58:58.67	149.43	5.86	-37.0	-38.1	21.1	0.00e+00	122	34	0	90177536	46	6315
2026-01-05 23:58:59.68	149.42	5.94	-37.1	-38.2	21.2	0.00e+00	123	34	0	93323264	46	6370
2026-01-05 23:59:00.69	149.41	6.01	-36.8	-37.9	21.5	0.00e+00	123	34	0	96468992	46	6139
2026-01-05 23:59:01.70	149.41	6.09	-36.8	-37.9	21.5	0.00e+00	123	34	0	99614720	46	6160
2026-01-05 23:59:02.71	149.40	6.16	-36.7	-37.8	21.5	0.00e+00	122	34	0	102760448	46	6100
2026-01-05 23:59:03.72	149.39	6.24	-36.7	-37.8	21.6	0.00e+00	120	34	0	105906176	46	6092
2026-01-05 23:59:04.72	149.38	6.31	-36.7	-37.7	21.6	0.00e+00	119	34	0	109051904	46	6060
2026-01-05 23:59:05.73	149.38	6.39	-36.7	-37.7	21.6	0.00e+00	123	34	0	112197632	46	6058
2026-01-05 23:59:06.74	149.37	6.47	-36.6	-37.7	21.6	0.00e+00	123	34	0	115343360	46	6008
2026-01-05 23:59:07.75	149.36	6.54	-36.6	-37.6	21.7	0.00e+00	123	34	0	118489088	46	5977
2026-01-05 23:59:08.76	149.35	6.62	-36.6	-37.7	21.7	0.00e+00	123	34	0	121634816	46	5999
2026-01-05 23:59:09.77	149.35	6.70	-36.5	-37.5	21.8	0.00e+00	123	34	0	124780544	46	5916
2026-01-05 23:59:10.78	149.34	6.77	-36.5	-37.5	21.9	0.00e+00	123	34	0	127926272	46	5900
2026-01-05 23:59:11.79	149.33	6.85	-36.5	-37.5	21.8	0.00e+00	123	34	0	131072000	46	5890
2026-01-05 23:59:12.80	149.32	6.93	-36.4	-37.5	21.9	0.00e+00	123	34	0	134217728	46	5873
2026-01-05 23:59:13.81	149.31	7.01	-36.5	-37.5	21.8	0.00e+00	122	33	0	137363456	46	5910
2026-01-05 23:59:14.82	149.31	7.08	-36.3	-37.4	22.0	0.00e+00	123	34	0	140509184	46	5813
2026-01-05 23:59:15.83	149.30	7.16	-36.5	-37.6	21.8	0.00e+00	123	34	0	143654912	46	5960
2026-01-05 23:59:16.84	149.29	7.24	-36.2	-37.3	22.1	0.00e+00	122	34	0	147849216	46	5728
2026-01-05 23:59:17.85	149.28	7.32	-36.3	-37.3	22.0	0.00e+00	123	34	0	150994944	46	5766
2026-01-05 23:59:18.86	149.27	7.40	-36.3	-37.3	22.1	0.00e+00	123	34	0	154140672	46	5770
2026-01-05 23:59:19.87	149.27	7.48	-36.3	-37.3	22.0	0.00e+00	123	34	0	156237824	46	5761
2026-01-05 23:59:20.88	149.26	7.56	-36.3	-37.4	22.0	0.00e+00	122	34	0	159383552	46	5801
2026-01-05 23:59:21.89	149.25	7.64	-36.2	-37.2	22.2	0.00e+00	123	34	0	163577856	46	5701
2026-01-05 23:59:22.90	149.24	7.72	-36.3	-37.3	22.1	0.00e+00	120	34	0	166723584	46	5782
2026-01-05 23:59:23.91	149.23	7.80	-36.2	-37.3	22.1	0.00e+00	123	34	0	169869312	46	5732
2026-01-05 23:59:24.92	149.22	7.88	-36.2	-37.2	22.1	0.00e+00	123	34	0	173015040	46	5721
2026-01-05 23:59:25.93	149.21	7.96	-36.3	-37.3	22.1	0.00e+00	122	34	0	176160768	46	5789
2026-01-05 23:59:26.94	149.21	8.04	-36.3	-37.4	22.1	0.00e+00	122	34	0	178257920	46	5817
2026-01-05 23:59:27.94	149.20	8.12	-36.3	-37.4	22.0	0.00e+00	122	34	0	182452224	46	5803
2026-01-05 23:59:28.95	149.19	8.21	-36.1	-37.1	22.3	0.00e+00	123	34	0	185597952	46	5611
2026-01-05 23:59:29.96	149.18	8.29	-36.2	-37.2	22.2	0.00e+00	122	34	0	188743680	46	5680
2026-01-05 23:59:30.97	149.17	8.37	-36.2	-37.2	22.2	0.00e+00	123	34	0	191889408	46	5672
2026-01-05 23:59:31.98	149.16	8.45	-36.0	-37.0	22.4	0.00e+00	123	34	0	195035136	46	5580
2026-01-05 23:59:32.99	149.15	8.54	-35.9	-36.9	22.5	0.00e+00	123	34	0	198180864	46	5485
2026-01-05 23:59:34.00	149.14	8.62	-35.9	-36.9	22.5	0.00e+00	122	34	0	201326592	46	5476
2026-01-05 23:59:35.01	149.13	8.70	-35.9	-36.9	22.5	0.00e+00	123	34	0	204472320	46	5488
2026-01-05 23:59:36.02	149.12	8.79	-36.0	-37.0	22.4	0.00e+00	123	34	0	207618048	46	5579
2026-01-05 23:59:37.03	149.11	8.87	-35.8	-36.8	22.5	0.00e+00	123	34	0	210763776	46	5463
2026-01-05 23:59:38.04	149.11	8.95	-35.7	-36.7	22.6	0.00e+00	122	34	0	213909504	44	6033
2026-01-05 23:59:39.05	149.10	9.04	-35.7	-36.7	22.6	0.00e+00	120	34	0	217055232	44	6038
2026-01-05 23:59:40.06	149.09	9.12	-35.6	-36.6	22.7	0.00e+00	122	34	0	220200960	44	5963
2026-01-05 23:59:41.07	149.08	9.21	-35.7	-36.7	22.6	0.00e+00	123	34	0	223346688	44	6007
2026-01-05 23:59:42.08	149.07	9.29	-35.6	-36.5	22.8	0.00e+00	120	34	0	226492416	44	5924
2026-01-05 23:59:43.09	149.06	9.38	-35.6	-36.6	22.7	0.00e+00	122	34	0	229638144	44	5931
2026-01-05 23:59:44.10	149.05	9.46	-35.5	-36.4	22.8	0.00e+00	122	34	0	232783872	44	5849
2026-01-05 23:59:45.11	149.04	9.55	-35.6	-36.6	22.8	0.00e+00	122	34	0	235929600	44	5955
2026-01-05 23:59:46.12	149.03	9.64	-35.5	-36.5	22.9	0.00e+00	123	34	0	239075328	44	5859
2026-01-05 23:59:47.13	149.02	9.72	-35.5	-36.4	22.9	0.00e+00	123	34	0	242221056	44	5851
2026-01-05 23:59:48.14	149.01	9.81	-35.5	-36.4	22.9	0.00e+00	123	34	0	245366784	44	5839
2026-01-05 23:59:49.15	149.00	9.90	-35.3	-36.3	23.0	0.00e+00	123	34	0	248512512	44	5754
2026-01-05 23:59:50.16	148.99	9.99	-35.2	-36.2	23.0	0.00e+00	123	34	0	251658240	44	5687
2026-01-05 23:59:51.17	148.97	10.07	-35.3	-36.3	23.0	0.00e+00	122	34	0	254803968	44	5752
2026-01-05 23:59:52.18	148.96	10.16	-35.2	-36.2	23.1	0.00e+00	120	34	0	257949696	44	5686
2026-01-05 23:59:53.19	148.95	10.25	-35.2	-36.2	23.1	0.00e+00	123	34	0	261095424	44	5681
2026-01-05 23:59:54.19	148.94	10.34	-35.2	-36.2	23.1	0.00e+00	120	34	0	264241152	44	5694
2026-01-05 23:59:55.21	148.93	10.43	-35.3	-36.3	23.0	0.00e+00	122	34	0	267386880	44	5750
2026-01-05 23:59:56.22	148.92	10.52	-35.1	-36.1	23.1	0.00e+00	123	34	0	270532608	44	5632
2026-01-05 23:59:57.22	148.91	10.61	-35.2	-36.1	23.1	0.00e+00	120	34	0	273678336	44	5641
2026-01-05 23:59:58.23	148.90	10.70	-35.1	-36.0	23.2	0.00e+00	123	34	0	276824064	44	5578
2026-01-05 23:59:59.24	148.89	10.79	-35.1	-36.1	23.2	0.00e+00	122	34	0	279969792	44	5629
2026-01-06 00:00:00.25	148.88	10.88	-35.2	-36.2	23.1	0.00e+00	122	34	0	283115520	44	5698
2026-01-06 00:00:01.26	148.87	10.97	-35.0	-36.0	23.3	0.00e+00	120	34	0	286261248	44	5533
2026-01-06 00:00:02.27	148.85	11.06	-35.1	-36.0	23.3	0.00e+00	123	34	0	289406976	44	5564
2026-01-06 00:00:03.28	148.84	11.16	-35.1	-36.1	23.2	0.00e+00	122	34	0	292552704	44	5616
2026-01-06 00:00:04.29	148.83	11.25	-35.1	-36.1	23.3	0.00e+00	122	34	0	295698432	44	5636
2026-01-06 00:00:05.30	148.82	11.34	-35.2	-36.1	23.2	0.00e+00	122	34	0	298844160	44	5631
2026-01-06 00:00:06.31	148.81	11.43	-35.0	-36.0	23.3	0.00e+00	120	34	0	301989888	44	5539
2026-01-06 00:00:07.32	148.79	11.53	-34.8	-35.8	23.5	0.00e+00	123	34	0	305135616	44	5411
2026-01-06 00:00:08.32	148.78	11.62	-34.8	-35.7	23.5	0.00e+00	122	34	0	308281344	42	6062
2026-01-06 00:00:09.33	148.77	11.71	-34.9	-35.9	23.5	0.00e+00	123	34	0	311427072	42	6152
2026-01-06 00:00:10.35	148.76	11.81	-34.9	-35.8	23.5	0.00e+00	123	34	0	314572800	42	6111
2026-01-06 00:00:11.36	148.75	11.91	-34.7	-35.6	23.7	0.00e+00	123	34	0	317718528	42	5985
2026-01-06 00:00:12.37	148.73	12.00	-34.7	-35.7	23.6	0.00e+00	120	34	0	320864256	42	6017
2026-01-06 00:00:13.38	148.72	12.10	-34.8	-35.7	23.6	0.00e+00	123	34	0	324009984	42	6043
2026-01-06 00:00:14.39	148.71	12.19	-34.7	-35.6	23.6	0.00e+00	122	34	0	327155712	42	5990
2026-01-06 00:00:15.40	148.70	12.29	-34.7	-35.7	23.6	0.00e+00	123	34	0	330301440	42	6001
2026-01-06 00:00:16.41	148.68	12.38	-34.6	-35.5	23.8	0.00e+00	122	34	0	333447168	42	5881
2026-01-06 00:00:17.41	148.67	12.48	-34.6	-35.5	23.7	0.00e+00	123	34	0	336592896	42	5912
2026-01-06 00:00:18.42	148.66	12.58	-34.6	-35.5	23.7	0.00e+00	120	34	0	339738624	42	5908
2026-01-06 00:00:19.43	148.64	12.68	-34.5	-35.5	23.8	0.00e+00	123	34	0	342884352	42	5861
2026-01-06 00:00:20.44	148.63	12.77	-34.5	-35.4	23.8	0.00e+00	123	34	0	346030080	42	5835
2026-01-06 00:00:21.45	148.62	12.87	-34.7	-35.6	23.6	0.00e+00	123	34	0	349175808	42	5947
2026-01-06 00:00:22.46	148.60	12.97	-34.5	-35.4	23.8	0.00e+00	123	34	0	352321536	42	5857
2026-01-06 00:00:23.47	148.59	13.07	-34.7	-35.6	23.7	0.00e+00	123	34	0	355467264	42	5990
2026-01-06 00:00:24.48	148.58	13.17	-34.4	-35.3	23.9	0.00e+00	120	34	0	358612992	42	5785
2026-01-06 00:00:25.49	148.56	13.27	-34.4	-35.3	23.9	0.00e+00	122	34	0	361758720	42	5790
2026-01-06 00:00:26.49	148.55	13.37	-34.4	-35.3	23.9	0.00e+00	122	34	0	364904448	42	5787
2026-01-06 00:00:27.50	148.53	13.47	-34.6	-35.5	23.9	0.00e+00	123	34	0	368050176	42	5878
2026-01-06 00:00:28.51	148.52	13.57	-34.4	-35.3	23.9	0.00e+00	120	34	0	371195904	42	5767
2026-01-06 00:00:29.52	148.51	13.68	-34.4	-35.4	23.9	0.00e+00	122	34	0	374341632	42	5796
2026-01-06 00:00:30.53	148.49	13.78	-34.3	-35.2	24.0	0.00e+00	120	34	0	377487360	42	5721
2026-01-06 00:00:31.54	148.48	13.88	-34.4	-35.3	24.0	0.00e+00	123	34	0	380633088	42	5763
2026-01-06 00:00:32.55	148.46	13.98	-34.4	-35.4	23.9	0.00e+00	123	34	0	383778816	42	5792
2026-01-06 00:00:33.56	148.45	14.09	-34.4	-35.3	24.0	0.00e+00	123	34	0	386924544	42	5743
2026-01-06 00:00:34.56	148.43	14.19	-34.3	-35.2	24.1	0.00e+00	122	34	0	390070272	42	5698
2026-01-06 00:00:35.58	148.42	14.30	-34.4	-35.4	23.9	0.00e+00	123	34	0	393216000	42	5798
2026-01-06 00:00:36.59	148.40	14.40	-34.4	-35.3	24.0	0.00e+00	122	34	0	396361728	42	5757
2026-01-06 00:00:37.60	148.39	14.51	-34.5	-35.4	23.9	0.00e+00	123	34	0	399507456	42	5831
2026-01-06 00:00:38.61	148.37	14.61	-34.4	-35.3	24.0	0.00e+00	123	34	0	402653184	42	5747
2026-01-06 00:00:39.62	148.36	14.72	-34.5	-35.4	23.9	0.00e+00	123	34	0	405798912	42	5802
2026-01-06 00:00:40.63	148.34	14.83	-34.5	-35.4	24.0	0.00e+00	123	34	0	408944640	42	5830
2026-01-06 00:00:41.64	148.32	14.93	-34.5	-35.4	23.9	0.00e+00	123	34	0	412090368	42	5823
2026-01-06 00:00:42.65	148.31	15.04	-34.4	-35.3	23.9	0.00e+00	120	34	0	415236096	42	5789
2026-01-06 00:00:43.66	148.29	15.15	-34.4	-35.3	24.0	0.00e+00	123	34	0	418381824	42	5762
2026-01-06 00:00:44.67	148.28	15.26	-34.4	-35.3	24.0	0.00e+00	123	34	0	421527552	42	5760
2026-01-06 00:00:45.67	148.26	15.37	-34.5	-35.4	24.0	0.00e+00	122	34	0	424673280	42	5836
2026-01-06 00:00:46.69	148.24	15.48	-34.7	-35.6	23.8	0.00e+00	122	34	0	427819008	42	5953
2026-01-06 00:00:47.70	148.23	15.59	-34.7	-35.6	23.8	0.00e+00	123	34	0	430964736	42	5950
2026-01-06 00:00:48.71	148.21	15.70	-34.5	-35.4	23.9	0.00e+00	122	34	0	434110464	42	5831
2026-01-06 00:00:49.71	148.19	15.81	-34.6	-35.5	23.9	0.00e+00	122	34	0	437256192	42	5897
2026-01-06 00:00:50.72	148.18	15.92	-34.4	-35.3	24.0	0.00e+00	123	34	0	440401920	42	5788
2026-01-06 00:00:51.73	148.16	16.03	-34.6	-35.5	23.9	0.00e+00	120	34	0	443547648	42	5914
2026-01-06 00:00:52.74	148.14	16.15	-34.6	-35.6	23.7	0.00e+00	123	34	0	446693376	42	5927
2026-01-06 00:00:53.75	148.12	16.26	-34.7	-35.7	23.7	0.00e+00	123	34	0	449839104	42	5999
2026-01-06 00:00:54.76	148.11	16.37	-34.7	-35.7	23.7	0.00e+00	123	34	0	452984832	42	6007
2026-01-06 00:00:55.77	148.09	16.49	-34.6	-35.5	23.8	0.00e+00	123	34	0	456130560	42	5906
2026-01-06 00:00:56.78	148.07	16.60	-34.6	-35.5	23.9	0.00e+00	123	34	0	459276288	42	5920
2026-01-06 00:00:57.79	148.05	16.72	-34.7	-35.6	23.7	0.00e+00	122	34	0	462422016	42	5970
2026-01-06 00:00:58.80	148.03	16.83	-34.6	-35.5	23.8	0.00e+00	122	34	0	465567744	42	5909
2026-01-06 00:00:59.81	148.01	16.95	-34.7	-35.6	23.8	0.00e+00	120	34	0	468713472	42	5972
2026-01-06 00:01:00.82	148.00	17.07	-34.8	-35.7	23.6	0.00e+00	122	34	0	471859200	42	6048
2026-01-06 00:01:01.83	147.98	17.18	-34.7	-35.7	23.7	0.00e+00	123	34	0	475004928	42	6002
2026-01-06 00:01:02.84	147.96	17.30	-34.8	-35.7	23.7	0.00e+00	123	34	0	478150656	42	6022
2026-01-06 00:01:03.85	147.94	17.42	-34.8	-35.7	23.6	0.00e+00	120	34	0	481296384	42	6050
2026-01-06 00:01:04.86	147.92	17.54	-34.7	-35.6	23.7	0.00e+00	123	34	0	484442112	42	5987
2026-01-06 00:01:05.86	147.90	17.66	-34.8	-35.8	23.6	0.00e+00	120	34	0	487587840	42	6087
2026-01-06 00:01:06.88	147.88	17.78	-34.9	-35.8	23.5	0.00e+00	123	34	0	490733568	42	6121
2026-01-06 00:01:07.88	147.86	17.90	-34.8	-35.8	23.5	0.00e+00	122	34	0	493879296	42	6088
2026-01-06 00:01:08.89	147.84	18.02	-34.9	-35.8	23.5	0.00e+00	123	34	0	497025024	42	6126
2026-01-06 00:01:09.90	147.82	18.15	-34.7	-35.7	23.6	0.00e+00	123	34	0	500170752	42	6013
2026-01-06 00:01:10.91	147.80	18.27	-34.8	-35.8	23.5	0.00e+00	120	34	0	503316480	42	6093
2026-01-06 00:01:11.92	147.78	18.39	-34.9	-35.9	23.5	0.00e+00	123	34	0	506462208	42	6158
2026-01-06 00:01:12.93	147.76	18.52	-34.7	-35.7	23.6	0.00e+00	122	34	0	509607936	42	5995
2026-01-06 00:01:13.94	147.74	18.64	-34.9	-35.8	23.6	0.00e+00	122	34	0	513802240	42	6097
2026-01-06 00:01:14.95	147.71	18.77	-34.8	-35.7	23.5	0.00e+00	121	34	0	516947968	42	6059
2026-01-06 00:01:15.96	147.69	18.89	-34.7	-35.7	23.6	0.00e+00	123	34	0	519045120	42	6027
2026-01-06 00:01:16.97	147.67	19.02	-34.8	-35.7	23.6	0.00e+00	120	34	0	522190848	42	6064
2026-01-06 00:01:17.98	147.65	19.15	-34.7	-35.6	23.6	0.00e+00	123	34	0	525336576	42	5986
2026-01-06 00:01:18.99	147.63	19.27	-34.8	-35.7	23.7	0.00e+00	121	34	0	529530880	42	6030
2026-01-06 00:01:20.00	147.60	19.40	-34.9	-35.8	23.7	0.00e+00	123	34	0	532676608	42	6090
2026-01-06 00:01:21.01	147.58	19.53	-34.5	-35.5	23.8	0.00e+00	123	34	0	535822336	42	5880
2026-01-06 00:01:22.02	147.56	19.66	-34.6	-35.6	23.8	0.00e+00	122	34	0	538968064	42	5950
2026-01-06 00:01:23.03	147.54	19.79	-34.4	-35.4	23.9	0.00e+00	120	34	0	542113792	42	5794
2026-01-06 00:01:24.04	147.51	19.92	-34.5	-35.5	23.9	0.00e+00	123	34	0	544210944	42	5871
2026-01-06 00:01:25.05	147.49	20.05	-34.6	-35.5	23.9	0.00e+00	121	34	0	548405248	42	5908
2026-01-06 00:01:26.05	147.47	20.19	-34.6	-35.5	23.9	0.00e+00	123	34	0	551550976	42	5900
2026-01-06 00:01:27.07	147.44	20.32	-34.4	-35.3	24.1	0.00e+00	122	34	0	554696704	42	5776
2026-01-06 00:01:28.08	147.42	20.45	-34.3	-35.3	24.1	0.00e+00	122	34	0	557842432	42	5731
2026-01-06 00:01:29.09	147.39	20.59	-34.1	-35.0	24.2	0.00e+00	122	34	0	560988160	42	5593
2026-01-06 00:01:30.09	147.37	20.72	-34.1	-35.0	24.3	0.00e+00	123	34	0	564133888	42	5554
2026-01-06 00:01:31.10	147.34	20.86	-34.1	-35.0	24.3	0.00e+00	122	34	0	567279616	42	5535
2026-01-06 00:01:32.11	147.32	21.00	-33.9	-34.8	24.5	0.00e+00	120	34	0	570425344	42	5456
2026-01-06 00:01:33.12	147.29	21.13	-33.9	-34.8	24.5	0.00e+00	123	34	0	573571072	42	5427
2026-01-06 00:01:34.13	147.27	21.27	-33.9	-34.8	24.5	0.00e+00	120	34	0	576716800	42	5422
2026-01-06 00:01:35.14	147.24	21.41	-33.7	-34.6	24.6	0.00e+00	122	34	0	579862528	40	5940
2026-01-06 00:01:36.15	147.21	21.55	-33.7	-34.6	24.6	0.00e+00	120	34	0	583008256	40	5937
2026-01-06 00:01:37.16	147.19	21.69	-33.6	-34.4	24.8	0.00e+00	122	34	0	586153984	40	5855
2026-01-06 00:01:38.17	147.16	21.83	-33.5	-34.4	24.8	0.00e+00	122	34	0	589299712	40	5835
2026-01-06 00:01:39.18	147.13	21.98	-33.5	-34.4	24.8	0.00e+00	122	34	0	592445440	40	5830
2026-01-06 00:01:40.19	147.11	22.12	-33.4	-34.2	24.9	0.00e+00	120	34	0	595591168	40	5722
2026-01-06 00:01:41.20	147.08	22.26	-33.2	-34.1	25.0	0.00e+00	123	34	0	598736896	40	5635
2026-01-06 00:01:42.21	147.05	22.41	-33.3	-34.1	24.9	0.00e+00	123	34	0	601882624	40	5656
2026-01-06 00:01:43.22	147.02	22.55	-33.1	-34.0	25.1	0.00e+00	123	34	0	605028352	40	5566
2026-01-06 00:01:44.23	147.00	22.70	-33.1	-34.0	25.1	0.00e+00	120	34	0	608174080	40	5547
2026-01-06 00:01:45.24	146.97	22.85	-33.0	-33.9	25.2	0.00e+00	122	34	0	611319808	40	5470
2026-01-06 00:01:46.25	146.94	23.00	-33.1	-34.0	25.1	0.00e+00	120	34	0	614465536	40	5564
2026-01-06 00:01:47.26	146.91	23.14	-32.9	-33.8	25.2	0.00e+00	122	34	0	617611264	40	5410
2026-01-06 00:01:48.27	146.88	23.29	-32.9	-33.8	25.3	0.00e+00	120	34	0	620756992	40	5408
2026-01-06 00:01:49.28	146.85	23.44	-32.9	-33.7	25.2	0.00e+00	122	34	0	623902720	40	5401
2026-01-06 00:01:50.29	146.82	23.60	-32.9	-33.7	25.3	0.00e+00	123	34	0	627048448	40	5393
2026-01-06 00:01:51.30	146.79	23.75	-32.9	-33.8	25.2	0.00e+00	123	34	0	630194176	40	5430
2026-01-06 00:01:52.31	146.76	23.90	-33.0	-33.9	25.2	0.00e+00	123	34	0	633339904	40	5509
2026-01-06 00:01:53.32	146.72	24.06	-32.8	-33.6	25.3	0.00e+00	123	34	0	636485632	40	5341
2026-01-06 00:01:54.33	146.69	24.21	-33.0	-33.9	25.2	0.00e+00	123	34	0	639631360	40	5476
2026-01-06 00:01:55.34	146.66	24.37	-33.0	-33.8	25.1	0.00e+00	122	34	0	642777088	40	5450
2026-01-06 00:01:56.35	146.63	24.52	-33.1	-33.9	25.1	0.00e+00	123	34	0	645922816	40	5527
2026-01-06 00:01:57.36	146.60	24.68	-33.2	-34.1	25.1	0.00e+00	122	34	0	649068544	40	5596
2026-01-06 00:01:58.36	146.56	24.84	-33.1	-34.0	25.1	0.00e+00	122	34	0	652214272	40	5564
2026-01-06 00:01:59.37	146.53	25.00	-33.2	-34.1	25.1	0.00e+00	123	34	0	655360000	40	5618
2026-01-06 00:02:00.38	146.50	25.16	-33.4	-34.3	25.0	0.00e+00	122	34	0	658505728	40	5730
2026-01-06 00:02:01.39	146.46	25.32	-33.3	-34.2	25.0	0.00e+00	120	34	0	661651456	40	5714
2026-01-06 00:02:02.40	146.43	25.48	-33.5	-34.4	24.9	0.00e+00	123	34	0	664797184	40	5808
2026-01-06 00:02:03.41	146.39	25.65	-33.7	-34.6	24.7	0.00e+00	122	34	0	667942912	40	5961
2026-01-06 00:02:04.42	146.36	25.81	-33.7	-34.6	24.8	0.00e+00	120	34	0	671088640	40	5987
2026-01-06 00:02:05.43	146.32	25.98	-33.9	-34.8	24.6	0.00e+00	122	34	0	674234368	40	6095
2026-01-06 00:02:06.44	146.28	26.14	-34.0	-34.9	24.6	0.00e+00	120	34	0	677380096	40	6190
2026-01-06 00:02:07.45	146.25	26.31	-34.1	-35.0	24.5	0.00e+00	123	34	0	680525824	40	6218
2026-01-06 00:02:08.46	146.21	26.48	-34.2	-35.1	24.4	0.00e+00	120	34	0	683671552	40	6292
2026-01-06 00:02:09.47	146.17	26.65	-34.3	-35.2	24.3	0.00e+00	122	34	0	686817280	40	6394
2026-01-06 00:02:10.48	146.14	26.82	-34.3	-35.2	24.3	0.00e+00	123	34	0	689963008	40	6385
2026-01-06 00:02:11.49	146.10	26.99	-34.5	-35.5	24.2	0.00e+00	121	34	0	693108736	40	6588
2026-01-06 00:02:12.50	146.06	27.16	-34.5	-35.4	24.3	0.00e+00	123	34	0	696254464	40	6511
2026-01-06 00:02:13.51	146.02	27.34	-34.6	-35.5	24.2	0.00e+00	120	34	0	699400192	40	6588
2026-01-06 00:02:14.52	145.98	27.51	-34.6	-35.5	24.1	0.00e+00	122	34	0	702545920	40	6638
2026-01-06 00:02:15.53	145.94	27.69	-34.7	-35.6	24.1	0.00e+00	120	34	0	705691648	40	6707
2026-01-06 00:02:16.54	145.90	27.87	-34.8	-35.7	24.0	0.00e+00	123	34	0	708837376	42	6038
2026-01-06 00:02:17.55	145.86	28.04	-34.8	-35.7	24.1	0.00e+00	120	34	0	711983104	42	6022
2026-01-06 00:02:18.56	145.82	28.22	-34.9	-35.8	24.0	0.00e+00	120	34	0	715128832	42	6088
2026-01-06 00:02:19.57	145.77	28.40	-34.9	-35.9	23.9	0.00e+00	123	34	0	718274560	42	6149
2026-01-06 00:02:20.58	145.73	28.59	-35.0	-35.9	23.8	0.00e+00	120	34	0	721420288	42	6186
2026-01-06 00:02:21.58	145.69	28.77	-35.0	-35.9	23.8	0.00e+00	123	34	0	724566016	42	6199
2026-01-06 00:02:22.59	145.64	28.95	-35.1	-36.0	23.8	0.00e+00	122	34	0	727711744	42	6231
2026-01-06 00:02:23.60	145.60	29.14	-34.9	-35.8	24.0	0.00e+00	122	34	0	730857472	42	6084
2026-01-06 00:02:24.61	145.56	29.32	-34.7	-35.6	24.0	0.00e+00	120	34	0	734003200	42	5993
2026-01-06 00:02:25.62	145.51	29.51	-34.6	-35.6	24.1	0.00e+00	123	34	0	737148928	42	5934
2026-01-06 00:02:26.63	145.46	29.70	-34.5	-35.4	24.2	0.00e+00	121	34	0	740294656	42	5821
2026-01-06 00:02:27.64	145.42	29.89	-34.5	-35.5	24.1	0.00e+00	123	34	0	743440384	42	5865
2026-01-06 00:02:28.65	145.37	30.08	-34.2	-35.1	24.4	0.00e+00	120	34	0	746586112	42	5610
2026-01-06 00:02:29.66	145.32	30.27	-34.3	-35.2	24.2	0.00e+00	122	34	0	749731840	42	5723
2026-01-06 00:02:30.67	145.27	30.47	-34.2	-35.1	24.3	0.00e+00	120	34	0	752877568	42	5625
2026-01-06 00:02:31.68	145.22	30.66	-33.8	-34.7	24.7	0.00e+00	122	34	0	756023296	42	5358
2026-01-06 00:02:32.69	145.18	30.86	-33.8	-34.7	24.6	0.00e+00	120	34	0	759169024	42	5358
2026-01-06 00:02:33.70	145.13	31.06	-33.7	-34.6	24.7	0.00e+00	122	34	0	762314752	40	5969
2026-01-06 00:02:34.71	145.07	31.26	-33.6	-34.5	24.8	0.00e+00	120	34	0	765460480	40	5866
2026-01-06 00:02:35.72	145.02	31.46	-33.4	-34.3	24.9	0.00e+00	123	34	0	768606208	40	5777
2026-01-06 00:02:36.73	144.97	31.66	-33.5	-34.3	24.9	0.00e+00	121	34	0	771751936	40	5783
2026-01-06 00:02:37.74	144.92	31.86	-33.6	-34.5	24.8	0.00e+00	123	34	0	774897664	40	5893
2026-01-06 00:02:38.75	144.86	32.07	-33.5	-34.4	24.9	0.00e+00	122	34	0	778043392	40	5812
2026-01-06 00:02:39.76	144.81	32.27	-33.7	-34.6	24.7	0.00e+00	120	34	0	781189120	40	5972
2026-01-06 00:02:40.77	144.75	32.48	-33.7	-34.5	24.8	0.00e+00	123	34	0	784334848	40	5906
2026-01-06 00:02:41.78	144.70	32.69	-33.8	-34.7	24.7	0.00e+00	123	34	0	787480576	40	6005
2026-01-06 00:02:42.79	144.64	32.90	-33.8	-34.7	24.7	0.00e+00	123	34	0	790626304	40	6031
2026-01-06 00:02:43.80	144.58	33.11	-34.0	-34.9	24.6	0.00e+00	120	34	0	793772032	40	6164
2026-01-06 00:02:44.81	144.53	33.32	-34.2	-35.1	24.4	0.00e+00	123	34	0	796917760	40	6291
2026-01-06 00:02:45.82	144.47	33.54	-34.1	-35.0	24.5	0.00e+00	122	34	0	800063488	40	6252
2026-01-06 00:02:46.83	144.41	33.75	-34.2	-35.1	24.4	0.00e+00	123	34	0	803209216	40	6331
2026-01-06 00:02:47.84	144.35	33.97	-34.3	-35.2	24.4	0.00e+00	122	34	0	806354944	40	6398
2026-01-06 00:02:48.85	144.28	34.19	-34.5	-35.5	24.2	0.00e+00	122	34	0	809500672	40	6581
2026-01-06 00:02:49.86	144.22	34.41	-34.7	-35.6	24.1	0.00e+00	123	34	0	812646400	42	5985
2026-01-06 00:02:50.87	144.16	34.63	-34.9	-35.8	23.8	0.00e+00	122	34	0	815792128	42	6113
2026-01-06 00:02:51.88	144.09	34.86	-35.1	-36.0	23.6	0.00e+00	120	34	0	818937856	42	6241
2026-01-06 00:02:52.89	144.03	35.08	-35.3	-36.2	23.4	0.00e+00	120	34	0	822083584	42	6402
2026-01-06 00:02:53.90	143.96	35.31	-35.6	-36.5	23.3	0.00e+00	122	34	0	825229312	42	6632
2026-01-06 00:02:54.91	143.90	35.54	-35.5	-36.5	23.3	0.00e+00	123	34	0	828375040	42	6607
2026-01-06 00:02:55.92	143.83	35.77	-35.6	-36.6	23.3	0.00e+00	123	34	0	831520768	42	6660
2026-01-06 00:02:56.92	143.76	36.00	-35.8	-36.7	23.0	0.00e+00	123	34	0	834666496	44	6030
2026-01-06 00:02:57.92	143.69	36.23	-35.7	-36.6	23.2	0.00e+00	122	34	0	837812224	44	5990
2026-01-06 00:02:58.93	143.62	36.46	-35.7	-36.7	23.1	0.00e+00	121	34	0	840957952	44	6030
2026-01-06 00:02:59.95	143.54	36.70	-35.7	-36.7	23.1	0.00e+00	123	34	0	844103680	44	6037
2026-01-06 00:03:00.96	143.47	36.94	-35.8	-36.7	23.0	0.00e+00	122	34	0	847249408	44	6033
2026-01-06 00:03:01.96	143.40	37.18	-35.8	-36.7	23.1	0.00e+00	120	34	0	850395136	44	6057
2026-01-06 00:03:02.97	143.32	37.42	-35.9	-36.8	23.1	0.00e+00	122	34	0	853540864	44	6127
2026-01-06 00:03:03.98	143.24	37.66	-36.0	-36.9	23.0	0.00e+00	122	34	0	856686592	44	6200
2026-01-06 00:03:04.99	143.17	37.91	-36.0	-36.9	23.1	0.00e+00	123	34	0	859832320	44	6185
2026-01-06 00:03:06.00	143.09	38.15	-35.9	-36.9	23.0	0.00e+00	122	34	0	862978048	44	6139
2026-01-06 00:03:07.01	143.01	38.40	-35.9	-36.9	23.2	0.00e+00	123	34	0	866123776	44	6159
2026-01-06 00:03:08.02	142.92	38.65	-35.7	-36.6	23.3	0.00e+00	123	34	0	869269504	44	5989
2026-01-06 00:03:09.03	142.84	38.90	-35.8	-36.7	23.3	0.00e+00	123	34	0	872415232	44	6023
2026-01-06 00:03:10.04	142.76	39.16	-35.6	-36.6	23.4	0.00e+00	127	34	0	876609536	44	5947
2026-01-06 00:03:11.05	142.67	39.41	-35.5	-36.4	23.5	0.00e+00	123	34	0	879755264	44	5820
2026-01-06 00:03:12.06	142.58	39.67	-35.6	-36.5	23.3	0.00e+00	120	34	0	882900992	44	5900
2026-01-06 00:03:13.07	142.49	39.93	-35.9	-36.9	23.1	0.00e+00	123	34	0	884998144	44	6154
2026-01-06 00:03:14.08	142.40	40.19	-35.5	-36.4	23.4	0.00e+00	121	34	0	888143872	44	5839
2026-01-06 00:03:15.09	142.31	40.45	-35.6	-36.5	23.3	0.00e+00	123	34	0	892338176	44	5896
2026-01-06 00:03:16.10	142.22	40.72	-35.3	-36.2	23.7	0.00e+00	123	34	0	895483904	44	5680
2026-01-06 00:03:17.11	142.12	40.98	-35.5	-36.5	23.4	0.00e+00	122	34	0	898629632	44	5874
2026-01-06 00:03:18.12	142.03	41.25	-35.7	-36.6	23.3	0.00e+00	120	34	0	901775360	44	5993
2026-01-06 00:03:19.13	141.93	41.52	-35.8	-36.7	23.3	0.00e+00	123	34	0	904921088	44	6033
2026-01-06 00:03:20.13	141.83	41.79	-36.0	-36.9	23.2	0.00e+00	120	34	0	907018240	44	6169
2026-01-06 00:03:21.15	141.73	42.07	-36.1	-37.1	23.0	0.00e+00	123	34	0	911212544	44	6301
2026-01-06 00:03:22.15	141.62	42.34	-36.3	-37.2	22.8	0.00e+00	123	34	0	914358272	44	6412
2026-01-06 00:03:23.16	141.52	42.62	-36.4	-37.3	22.6	0.00e+00	123	34	0	917504000	44	6473
2026-01-06 00:03:24.17	141.41	42.90	-36.6	-37.5	22.5	0.00e+00	123	34	0	920649728	44	6643
2026-01-06 00:03:25.18	141.30	43.18	-36.8	-37.9	22.1	0.00e+00	122	34	0	923795456	46	6145
2026-01-06 00:03:26.19	141.19	43.47	-37.0	-38.1	21.8	0.00e+00	122	34	0	926941184	46	6288
2026-01-06 00:03:27.20	141.08	43.75	-37.1	-38.2	21.8	0.00e+00	123	34	0	930086912	46	6393
2026-01-06 00:03:28.21	140.96	44.04	-37.1	-38.2	22.0	0.00e+00	122	34	0	933232640	46	6379
2026-01-06 00:03:29.22	140.84	44.33	-37.0	-38.1	22.2	0.00e+00	122	34	0	936378368	46	6286
2026-01-06 00:03:30.23	140.72	44.62	-37.0	-38.1	22.3	0.00e+00	122	34	0	939524096	46	6295
2026-01-06 00:03:31.24	140.60	44.91	-37.3	-38.4	22.0	0.00e+00	122	34	0	942669824	46	6518
2026-01-06 00:03:32.25	140.48	45.21	-37.3	-38.3	22.0	0.00e+00	122	34	0	945815552	46	6493
2026-01-06 00:03:33.26	140.35	45.51	-37.2	-38.2	22.1	0.00e+00	120	34	0	948961280	46	6417
2026-01-06 00:03:34.27	140.22	45.81	-37.4	-38.5	21.9	0.00e+00	122	34	0	952107008	46	6579
2026-01-06 00:03:35.28	140.09	46.11	-36.9	-37.9	22.3	0.00e+00	123	34	0	955252736	46	6142
2026-01-06 00:03:36.29	139.95	46.41	-36.8	-37.8	22.4	0.00e+00	122	34	0	958398464	46	6113
2026-01-06 00:03:37.30	139.82	46.72	-36.3	-37.3	22.7	0.00e+00	122	34	0	961544192	46	5747
2026-01-06 00:03:38.31	139.68	47.03	-36.1	-37.0	22.9	0.00e+00	120	34	0	964689920	46	5594
2026-01-06 00:03:39.31	139.54	47.34	-36.0	-37.0	22.9	0.00e+00	123	34	0	967835648	46	5569
2026-01-06 00:03:40.33	139.39	47.65	-36.0	-37.0	23.0	0.00e+00	120	34	0	970981376	46	5562
2026-01-06 00:03:41.33	139.24	47.96	-36.1	-37.0	23.1	0.00e+00	123	34	0	974127104	46	5578
2026-01-06 00:03:42.35	139.09	48.28	-36.4	-37.4	22.7	0.00e+00	120	34	0	977272832	46	5817
2026-01-06 00:03:43.36	138.93	48.60	-36.0	-37.0	23.1	0.00e+00	122	34	0	980418560	46	5564
2026-01-06 00:03:44.37	138.77	48.92	-36.3	-37.2	22.9	0.00e+00	122	34	0	983564288	46	5724
2026-01-06 00:03:45.38	138.61	49.25	-36.0	-37.0	23.0	0.00e+00	122	34	0	986710016	46	5574
2026-01-06 00:03:46.39	138.45	49.57	-36.0	-37.0	23.0	0.00e+00	120	34	0	989855744	46	5552
2026-01-06 00:03:47.40	138.28	49.90	-36.0	-37.0	23.0	0.00e+00	123	34	0	993001472	46	5572
2026-01-06 00:03:48.40	138.11	50.22	-35.6	-36.5	23.4	0.00e+00	123	34	0	996147200	44	5908
2026-01-06 00:03:49.41	137.93	50.55	-35.6	-36.5	23.4	0.00e+00	123	34	0	999292928	44	5900
2026-01-06 00:03:50.42	137.75	50.89	-35.6	-36.5	23.3	0.00e+00	123	34	0	1002438656	44	5898
2026-01-06 00:03:51.43	137.56	51.22	-35.6	-36.6	23.2	0.00e+00	123	34	0	1005584384	44	5940
2026-01-06 00:03:52.44	137.37	51.56	-35.9	-36.9	22.9	0.00e+00	122	34	0	1008730112	44	6174
2026-01-06 00:03:53.45	137.18	51.90	-35.7	-36.6	23.3	0.00e+00	122	34	0	1011875840	44	5968
2026-01-06 00:03:54.46	136.98	52.24	-35.5	-36.4	23.4	0.00e+00	123	34	0	1015021568	44	5840
2026-01-06 00:03:55.46	136.78	52.58	-35.4	-36.3	23.3	0.00e+00	123	34	0	1018167296	44	5791
2026-01-06 00:03:56.47	136.57	52.93	-35.2	-36.1	23.5	0.00e+00	123	34	0	1021313024	44	5624
2026-01-06 00:03:57.47	136.36	53.27	-35.1	-36.0	23.7	0.00e+00	122	34	0	1024458752	44	5574
2026-01-06 00:03:58.48	136.15	53.62	-34.9	-35.8	23.9	0.00e+00	123	34	0	1027604480	44	5462
2026-01-06 00:03:59.49	135.92	53.97	-34.7	-35.6	24.1	0.00e+00	123	34	0	1030750208	42	5955
2026-01-06 00:04:00.50	135.69	54.33	-34.6	-35.5	24.2	0.00e+00	123	34	0	1033895936	42	5891
2026-01-06 00:04:01.51	135.46	54.68	-34.7	-35.6	24.0	0.00e+00	120	34	0	1037041664	42	5954
2026-01-06 00:04:02.52	135.22	55.04	-34.6	-35.5	24.0	0.00e+00	122	34	0	1040187392	42	5907
2026-01-06 00:04:03.53	134.97	55.40	-34.4	-35.3	24.2	0.00e+00	121	34	0	1043333120	42	5753
2026-01-06 00:04:04.54	134.72	55.76	-34.5	-35.5	24.2	0.00e+00	123	34	0	1046478848	42	5870
2026-01-06 00:04:05.55	134.46	56.12	-34.2	-35.1	24.6	0.00e+00	120	34	0	1049624576	42	5643
2026-01-06 00:04:06.56	134.19	56.49	-33.6	-34.5	24.8	0.00e+00	123	34	0	1052770304	40	5878
2026-01-06 00:04:07.57	133.92	56.85	-33.7	-34.5	24.9	0.00e+00	123	34	0	1055916032	40	5912
2026-01-06 00:04:08.58	133.63	57.22	-33.1	-33.9	25.3	0.00e+00	123	34	0	1059061760	40	5513
2026-01-06 00:04:09.59	133.34	57.59	-33.2	-34.1	25.1	0.00e+00	120	34	0	1062207488	40	5627
2026-01-06 00:04:10.60	133.05	57.96	-33.5	-34.4	24.4	0.00e+00	123	34	0	1065353216	40	5793
2026-01-06 00:04:11.61	132.74	58.33	-33.7	-34.6	24.4	0.00e+00	120	34	0	1068498944	40	5940
2026-01-06 00:04:12.62	132.42	58.71	-33.7	-34.5	24.7	0.00e+00	122	34	0	1071644672	40	5910
2026-01-06 00:04:13.62	132.10	59.08	-33.3	-34.2	24.9	0.00e+00	122	34	0	1074790400	40	5709
2026-01-06 00:04:14.63	131.77	59.46	-33.4	-34.3	24.9	0.00e+00	123	34	0	1077936128	40	5739
2026-01-06 00:04:15.64	131.43	59.84	-33.1	-34.0	25.2	0.00e+00	120	34	0	1081081856	40	5560
2026-01-06 00:04:16.65	131.07	60.22	-33.1	-34.0	25.1	0.00e+00	122	34	0	1084227584	40	5561
2026-01-06 00:04:17.66	130.71	60.60	-33.1	-34.0	25.0	0.00e+00	120	34	0	1087373312	40	5567
2026-01-06 00:04:18.67	130.33	60.98	-33.3	-34.2	24.9	0.00e+00	123	34	0	1090519040	40	5705
2026-01-06 00:04:19.68	129.94	61.37	-33.4	-34.3	24.8	0.00e+00	120	34	0	1093664768	40	5739
2026-01-06 00:04:20.69	129.54	61.75	-33.2	-34.1	24.9	0.00e+00	123	34	0	1096810496	40	5601
2026-01-06 00:04:21.70	129.13	62.14	-33.2	-34.1	25.1	0.00e+00	123	34	0	1099956224	40	5632
2026-01-06 00:04:22.71	128.71	62.52	-33.3	-34.2	25.2	0.00e+00	123	34	0	1103101952	40	5676
2026-01-06 00:04:23.72	128.27	62.91	-32.9	-33.7	25.5	0.00e+00	123	34	0	1106247680	40	5402
2026-01-06 00:04:24.73	127.81	63.30	-32.6	-33.4	25.7	0.00e+00	123	34	0	1109393408	38	5830
2026-01-06 00:04:25.73	127.35	63.68	-32.4	-33.2	25.7	0.00e+00	122	34	0	1112539136	38	5676
2026-01-06 00:04:26.74	126.86	64.07	-32.5	-33.4	25.5	0.00e+00	120	34	0	1115684864	38	5794
2026-01-06 00:04:27.76	126.35	64.46	-32.4	-33.2	25.7	0.00e+00	123	34	0	1118830592	38	5715
2026-01-06 00:04:28.76	125.84	64.85	-32.5	-33.3	25.5	0.00e+00	123	34	0	1121976320	38	5764
2026-01-06 00:04:29.77	125.30	65.24	-32.7	-33.5	25.5	0.00e+00	123	34	0	1125122048	38	5925
2026-01-06 00:04:30.78	124.74	65.63	-32.6	-33.4	25.6	0.00e+00	123	34	0	1128267776	38	5830
2026-01-06 00:04:31.79	124.16	66.02	-32.7	-33.5	25.2	0.00e+00	123	34	0	1131413504	38	5916
2026-01-06 00:04:32.80	123.56	66.41	-32.9	-33.8	25.3	0.00e+00	123	34	0	1134559232	38	6103
2026-01-06 00:04:33.81	122.94	66.80	-32.7	-33.6	25.6	0.00e+00	123	34	0	1137704960	38	5965
2026-01-06 00:04:34.82	122.30	67.18	-32.9	-33.7	25.4	0.00e+00	122	34	0	1140850688	38	6056
2026-01-06 00:04:35.83	121.63	67.57	-33.0	-33.9	25.3	0.00e+00	123	34	0	1143996416	38	6143
2026-01-06 00:04:36.84	120.94	67.95	-32.5	-33.3	25.7	0.00e+00	123	34	0	1147142144	38	5783
2026-01-06 00:04:37.85	120.21	68.34	-32.4	-33.2	25.7	0.00e+00	122	34	0	1150287872	38	5717
2026-01-06 00:04:38.86	119.46	68.72	-32.1	-33.0	25.9	0.00e+00	123	34	0	1153433600	38	5538
2026-01-06 00:04:39.87	118.69	69.10	-31.8	-32.6	26.2	0.00e+00	120	34	0	1156579328	38	5320
2026-01-06 00:04:40.88	117.87	69.48	-31.8	-32.6	26.1	0.00e+00	122	34	0	1159725056	38	5329
2026-01-06 00:04:41.89	117.03	69.85	-31.8	-32.6	25.7	0.00e+00	123	34	0	1162870784	38	5337
2026-01-06 00:04:42.90	116.15	70.23	-32.0	-32.9	26.0	0.00e+00	122	34	0	1166016512	38	5479
2026-01-06 00:04:43.91	115.24	70.59	-31.8	-32.6	26.1	0.00e+00	122	34	0	1169162240	36	5933
2026-01-06 00:04:44.92	114.29	70.96	-32.0	-32.8	25.9	0.00e+00	123	34	0	1172307968	36	6105
2026-01-06 00:04:45.93	113.30	71.32	-32.3	-33.1	25.6	0.00e+00	123	34	0	1175453696	36	6344
2026-01-06 00:04:46.94	112.27	71.68	-32.6	-33.4	25.2	0.00e+00	123	34	0	1178599424	36	6556
2026-01-06 00:04:47.95	111.19	72.03	-32.7	-33.6	25.4	0.00e+00	116	34	0	1181745152	36	6690
2026-01-06 00:04:48.96	110.07	72.38	-32.6	-33.4	25.5	0.00e+00	123	34	0	1184890880	38	5846
2026-01-06 00:04:49.97	108.90	72.72	-32.4	-33.2	25.5	0.00e+00	121	34	0	1188036608	38	5701
2026-01-06 00:04:50.98	107.68	73.06	-32.5	-33.4	25.7	0.00e+00	122	34	0	1191182336	38	5792
2026-01-06 00:04:51.99	106.41	73.39	-32.6	-33.4	25.7	0.00e+00	120	34	0	1194328064	38	5829
2026-01-06 00:04:53.00	105.09	73.71	-32.4	-33.3	25.8	0.00e+00	122	34	0	1197473792	38	5748
2026-01-06 00:04:54.01	103.71	74.02	-32.2	-33.1	25.6	0.00e+00	120	34	0	1200619520	38	5601
2026-01-06 00:04:55.02	102.28	74.33	-32.4	-33.2	25.6	0.00e+00	123	34	0	1203765248	38	5698
2026-01-06 00:04:56.03	100.78	74.63	-32.6	-33.5	25.6	0.00e+00	122	34	0	1206910976	38	5871
2026-01-06 00:04:57.04	99.23	74.91	-32.8	-33.6	25.5	0.00e+00	122	34	0	1210056704	38	5964
2026-01-06 00:04:58.05	97.62	75.19	-32.5	-33.4	25.7	0.00e+00	120	34	0	1213202432	38	5812
2026-01-06 00:04:59.06	95.94	75.46	-32.6	-33.5	25.4	0.00e+00	122	34	0	1216348160	38	5875
2026-01-06 00:05:00.07	94.20	75.71	-32.8	-33.7	25.4	0.00e+00	123	34	0	1219493888	38	6003
2026-01-06 00:05:01.08	92.39	75.95	-32.9	-33.7	25.5	0.00e+00	123	34	0	1222639616	38	6060
2026-01-06 00:05:02.09	90.52	76.17	-32.4	-33.2	25.7	0.00e+00	120	34	0	1225785344	38	5680
2026-01-06 00:05:03.10	88.59	76.39	-32.5	-33.3	25.7	0.00e+00	123	34	0	1228931072	38	5753
2026-01-06 00:05:04.11	86.60	76.58	-33.0	-33.8	25.4	0.00e+00	120	34	0	1232076800	38	6114
2026-01-06 00:05:05.12	84.55	76.76	-33.0	-33.9	25.3	0.00e+00	122	34	0	1235222528	38	6178
2026-01-06 00:05:06.13	82.45	76.93	-32.6	-33.4	25.8	0.00e+00	120	34	0	1238368256	38	5838
2026-01-06 00:05:07.14	80.29	77.08	-32.4	-33.2	25.5	0.00e+00	123	34	0	1242562560	38	5711
2026-01-06 00:05:08.15	78.09	77.20	-32.5	-33.4	25.4	0.00e+00	122	34	0	1245708288	38	5794
2026-01-06 00:05:09.16	75.84	77.31	-32.5	-33.3	25.4	0.00e+00	122	34	0	1247805440	38	5783
2026-01-06 00:05:10.17	73.55	77.40	-32.8	-33.7	25.0	0.00e+00	123	34	0	1250951168	38	6046
2026-01-06 00:05:11.18	71.24	77.47	-32.8	-33.7	24.5	0.00e+00	123	34	0	1254096896	38	6037
2026-01-06 00:05:12.19	68.90	77.52	-32.9	-33.8	24.4	0.00e+00	123	34	0	1258291200	38	6096
2026-01-06 00:05:13.20	66.55	77.55	-33.2	-34.1	24.8	0.00e+00	123	34	0	1261436928	38	6323
2026-01-06 00:05:14.21	64.19	77.56	-33.3	-34.2	24.7	0.00e+00	122	34	0	1264582656	38	6410
2026-01-06 00:05:15.22	61.83	77.55	-33.2	-34.0	25.0	0.00e+00	122	34	0	1267728384	38	6267
2026-01-06 00:05:16.23	59.48	77.52	-33.0	-33.9	25.0	0.00e+00	120	34	0	1270874112	38	6156
2026-01-06 00:05:17.24	57.14	77.47	-33.0	-33.8	25.1	0.00e+00	123	34	0	1272971264	38	6125
2026-01-06 00:05:18.25	54.83	77.40	-32.6	-33.4	25.3	0.00e+00	120	34	0	1277165568	38	5854
2026-01-06 00:05:19.26	52.55	77.30	-32.6	-33.4	25.5	0.00e+00	122	34	0	1280311296	38	5840
2026-01-06 00:05:20.27	50.30	77.19	-32.7	-33.5	25.6	0.00e+00	123	34	0	1283457024	38	5907
2026-01-06 00:05:21.27	48.12	77.06	-33.0	-33.8	25.3	0.00e+00	123	34	0	1286602752	38	6129
2026-01-06 00:05:22.28	45.97	76.92	-32.8	-33.7	25.3	0.00e+00	123	34	0	1289748480	38	6004
2026-01-06 00:05:23.29	43.87	76.75	-32.6	-33.4	25.4	0.00e+00	122	34	0	1292894208	38	5836
2026-01-06 00:05:24.30	41.83	76.57	-32.7	-33.5	25.4	0.00e+00	123	34	0	1296039936	38	5925
2026-01-06 00:05:25.31	39.84	76.37	-33.0	-33.9	25.2	0.00e+00	123	34	0	1299185664	38	6135
2026-01-06 00:05:26.31	37.94	76.16	-33.2	-34.1	25.2	0.00e+00	123	34	0	1302331392	38	6336
2026-01-06 00:05:27.32	36.07	75.93	-33.4	-34.3	25.0	0.00e+00	123	34	0	1305477120	38	6436
2026-01-06 00:05:28.33	34.27	75.69	-33.1	-33.9	25.3	0.00e+00	123	34	0	1308622848	38	6193
2026-01-06 00:05:29.34	32.54	75.44	-32.9	-33.8	25.4	0.00e+00	120	34	0	1311768576	38	6070
2026-01-06 00:05:30.35	30.87	75.17	-32.3	-33.2	25.8	0.00e+00	123	34	0	1314914304	38	5669
2026-01-06 00:05:31.36	29.25	74.90	-32.4	-33.2	25.7	0.00e+00	120	34	0	1318060032	38	5712
2026-01-06 00:05:32.37	27.71	74.61	-32.4	-33.2	25.8	0.00e+00	122	34	0	1321205760	38	5691
2026-01-06 00:05:33.38	26.22	74.31	-32.3	-33.1	25.8	0.00e+00	123	34	0	1324351488	38	5616
2026-01-06 00:05:34.39	24.79	74.01	-32.4	-33.2	25.0	0.00e+00	124	34	0	1327497216	38	5707
2026-01-06 00:05:35.40	23.41	73.69	-32.3	-33.1	24.9	0.00e+00	122	34	0	1330642944	38	5651
2026-01-06 00:05:36.41	22.10	73.37	-32.1	-32.9	25.2	0.00e+00	122	34	0	1333788672	38	5525
2026-01-06 00:05:37.42	20.83	73.04	-32.3	-33.2	25.3	0.00e+00	122	34	0	1336934400	38	5695
2026-01-06 00:05:38.43	19.62	72.71	-33.2	-34.1	25.0	0.00e+00	123	34	0	1340080128	38	6317
2026-01-06 00:05:39.44	18.45	72.36	-33.3	-34.2	24.2	0.00e+00	122	34	0	1343225856	38	6418
2026-01-06 00:05:40.45	17.33	72.02	-33.1	-34.0	24.2	0.00e+00	123	34	0	1346371584	38	6266
2026-01-06 00:05:41.46	16.26	71.66	-32.7	-33.6	25.1	0.00e+00	123	34	0	1349517312	38	5950
2026-01-06 00:05:42.46	15.24	71.31	-32.6	-33.5	25.2	0.00e+00	123	34	0	1352663040	38	5864
2026-01-06 00:05:43.47	14.26	70.95	-32.9	-33.7	25.3	0.00e+00	121	34	0	1355808768	38	6052
2026-01-06 00:05:44.48	13.31	70.58	-32.9	-33.7	25.4	0.00e+00	123	34	0	1358954496	38	6047
2026-01-06 00:05:45.49	12.40	70.21	-33.0	-33.9	25.1	0.00e+00	122	34	0	1362100224	38	6143
2026-01-06 00:05:46.50	11.52	69.84	-32.7	-33.6	24.6	0.00e+00	122	34	0	1365245952	38	5964
2026-01-06 00:05:47.51	10.68	69.47	-32.1	-33.0	25.3	0.00e+00	122	34	0	1368391680	38	5553
2026-01-06 00:05:48.52	9.87	69.09	-31.7	-32.5	25.9	0.00e+00	123	34	0	1371537408	38	5257
2026-01-06 00:05:49.53	9.10	68.71	-31.3	-32.1	26.5	0.00e+00	120	34	0	1374683136	36	5602
2026-01-06 00:05:50.54	8.35	68.33	-31.9	-32.7	26.0	0.00e+00	122	34	0	1377828864	36	6062
2026-01-06 00:05:51.55	7.63	67.95	-33.5	-34.4	24.7	0.00e+00	123	34	0	1380974592	38	6503
2026-01-06 00:05:52.56	6.94	67.56	-34.0	-35.0	23.7	0.00e+00	122	34	0	1384120320	40	6210
2026-01-06 00:05:53.57	6.27	67.18	-33.5	-34.4	23.7	0.00e+00	120	34	0	1387266048	40	5852
2026-01-06 00:05:54.58	5.63	66.79	-33.1	-34.0	23.8	0.00e+00	123	34	0	1390411776	40	5570
2026-01-06 00:05:55.59	5.01	66.40	-32.6	-33.4	25.1	0.00e+00	121	34	0	1393557504	38	5844
2026-01-06 00:05:56.60	4.41	66.02	-32.6	-33.4	25.5	0.00e+00	120	34	0	1396703232	38	5839
2026-01-06 00:05:57.61	3.83	65.63	-33.7	-34.6	24.7	0.00e+00	123	34	0	1399848960	38	6687
2026-01-06 00:05:58.62	3.28	65.24	-34.8	-35.8	23.6	0.00e+00	123	34	0	1402994688	42	6092
2026-01-06 00:05:59.63	2.74	64.85	-34.6	-35.6	24.0	0.00e+00	122	34	0	1406140416	42	5991
2026-01-06 00:06:00.64	2.22	64.46	-33.7	-34.6	24.8	0.00e+00	120	34	0	1409286144	40	5991
2026-01-06 00:06:01.65	1.72	64.07	-33.2	-34.0	25.0	0.00e+00	122	34	0	1412431872	40	5580
2026-01-06 00:06:02.66	1.24	63.68	-33.0	-33.9	25.2	0.00e+00	122	34	0	1415577600	40	5492
2026-01-06 00:06:03.67	0.77	63.30	-33.0	-33.8	25.2	0.00e+00	123	34	0	1418723328	40	5462
2026-01-06 00:06:04.68	0.31	62.91	-34.0	-34.9	24.3	0.00e+00	120	34	0	1421869056	40	6187
2026-01-06 00:06:05.69	359.87	62.52	-34.5	-35.4	23.8	0.00e+00	123	34	0	1425014784	40	6553
2026-01-06 00:06:06.70	359.45	62.14	-35.5	-36.5	23.2	0.00e+00	122	34	0	1428160512	42	6605
2026-01-06 00:06:07.71	359.04	61.75	-35.1	-36.0	23.8	0.00e+00	123	34	0	1431306240	42	6259
2026-01-06 00:06:08.72	358.64	61.37	-33.4	-34.3	24.6	0.00e+00	122	34	0	1434451968	40	5743
2026-01-06 00:06:09.72	358.26	60.99	-32.7	-33.6	24.7	0.00e+00	120	34	0	1437597696	38	5941
2026-01-06 00:06:10.73	357.88	60.61	-32.8	-33.7	24.9	0.00e+00	123	34	0	1440743424	38	6029
2026-01-06 00:06:11.74	357.52	60.23	-33.1	-34.0	24.9	0.00e+00	122	34	0	1443889152	38	6213
2026-01-06 00:06:12.76	357.16	59.85	-33.9	-34.8	24.1	0.00e+00	122	34	0	1447034880	40	6121
2026-01-06 00:06:13.76	356.82	59.47	-35.0	-36.0	22.8	0.00e+00	123	34	0	1450180608	42	6223
2026-01-06 00:06:14.77	356.49	59.10	-35.8	-37.0	22.1	0.00e+00	123	34	0	1453326336	42	6971
2026-01-06 00:06:15.79	356.16	58.72	-35.8	-37.0	22.5	0.00e+00	123	34	0	1456472064	44	6228
2026-01-06 00:06:16.80	355.85	58.34	-35.6	-36.7	22.9	0.00e+00	122	34	0	1459617792	44	6027
2026-01-06 00:06:17.80	355.55	57.98	-34.8	-35.8	23.9	0.00e+00	122	34	0	1462763520	44	5425
2026-01-06 00:06:18.82	355.25	57.60	-33.2	-34.1	25.2	0.00e+00	123	34	0	1465909248	40	5599
2026-01-06 00:06:19.82	354.96	57.24	-32.8	-33.6	25.4	0.00e+00	123	34	0	1469054976	38	5964
2026-01-06 00:06:20.83	354.68	56.87	-33.6	-34.5	24.8	0.00e+00	123	34	0	1472200704	38	6585
2026-01-06 00:06:21.84	354.41	56.50	-35.2	-36.2	23.5	0.00e+00	123	34	0	1475346432	42	6360
2026-01-06 00:06:22.85	354.14	56.14	-36.1	-37.1	22.8	0.00e+00	122	34	0	1478492160	44	6309
2026-01-06 00:06:23.86	353.88	55.78	-36.0	-37.0	22.9	0.00e+00	121	34	0	1481637888	44	6267
2026-01-06 00:06:24.88	353.62	55.42	-35.3	-36.3	23.3	0.00e+00	123	34	0	1484783616	44	5753
2026-01-06 00:06:25.88	353.38	55.06	-34.8	-35.7	23.9	0.00e+00	122	34	0	1487929344	44	5396
2026-01-06 00:06:26.89	353.14	54.71	-34.6	-35.5	24.1	0.00e+00	123	34	0	1491075072	42	5923
2026-01-06 00:06:27.91	352.90	54.35	-34.3	-35.2	24.4	0.00e+00	123	34	0	1494220800	42	5692
2026-01-06 00:06:28.91	352.68	54.00	-33.8	-34.7	24.6	0.00e+00	120	34	0	1497366528	42	5351
2026-01-06 00:06:29.93	352.45	53.65	-34.0	-34.9	24.6	0.00e+00	123	34	0	1500512256	42	5484
2026-01-06 00:06:30.93	352.24	53.30	-34.7	-35.6	24.1	0.00e+00	123	34	0	1503657984	42	5958
2026-01-06 00:06:31.94	352.03	52.95	-35.7	-36.6	23.1	0.00e+00	123	34	0	1506803712	42	6712
2026-01-06 00:06:32.95	351.82	52.61	-36.7	-37.8	22.2	0.00e+00	122	34	0	1509949440	44	6819
2026-01-06 00:06:33.96	351.62	52.27	-36.9	-38.0	22.2	0.00e+00	120	34	0	1513095168	46	6231
2026-01-06 00:06:34.97	351.42	51.93	-36.4	-37.5	22.1	0.00e+00	122	34	0	1516240896	46	5860
2026-01-06 00:06:35.98	351.23	51.59	-36.1	-37.2	22.4	0.00e+00	123	34	0	1519386624	46	5668
2026-01-06 00:06:36.99	351.04	51.25	-35.8	-36.8	22.7	0.00e+00	122	34	0	1522532352	44	6111
2026-01-06 00:06:38.00	350.85	50.92	-35.0	-35.9	23.5	0.00e+00	120	34	0	1525678080	44	5515
2026-01-06 00:06:39.01	350.67	50.59	-35.0	-35.9	23.6	0.00e+00	123	34	0	1528823808	44	5509
2026-01-06 00:06:40.02	350.50	50.26	-35.4	-36.4	23.2	0.00e+00	122	34	0	1531969536	44	5846
2026-01-06 00:06:41.03	350.32	49.93	-35.7	-36.7	23.1	0.00e+00	123	34	0	1535115264	44	6030
2026-01-06 00:06:42.04	350.16	49.60	-36.0	-37.0	23.0	0.00e+00	121	34	0	1538260992	44	6225
2026-01-06 00:06:43.05	349.99	49.28	-36.1	-37.0	23.0	0.00e+00	123	34	0	1541406720	44	6257
2026-01-06 00:06:44.06	349.83	48.96	-36.2	-37.2	22.8	0.00e+00	120	34	0	1544552448	44	6392
2026-01-06 00:06:45.07	349.67	48.64	-36.2	-37.2	22.8	0.00e+00	123	34	0	1547698176	44	6398
2026-01-06 00:06:46.08	349.52	48.32	-36.6	-37.6	22.5	0.00e+00	120	34	0	1550843904	44	6663
2026-01-06 00:06:47.09	349.37	48.01	-36.6	-37.7	22.4	0.00e+00	123	34	0	1553989632	44	6728
2026-01-06 00:06:48.10	349.22	47.69	-36.4	-37.5	22.3	0.00e+00	123	34	0	1557135360	44	6582
2026-01-06 00:06:49.10	349.07	47.38	-36.3	-37.3	22.3	0.00e+00	122	34	0	1560281088	44	6496
2026-01-06 00:06:50.11	348.93	47.07	-35.5	-36.5	22.9	0.00e+00	123	34	0	1563426816	44	5879
2026-01-06 00:06:51.12	348.79	46.77	-35.6	-36.5	23.2	0.00e+00	123	34	0	1566572544	44	5912
2026-01-06 00:06:52.13	348.65	46.46	-35.6	-36.5	23.4	0.00e+00	122	34	0	1569718272	44	5910
2026-01-06 00:06:53.13	348.52	46.16	-35.8	-36.8	23.3	0.00e+00	122	34	0	1572864000	44	6085
2026-01-06 00:06:54.15	348.39	45.86	-35.7	-36.7	23.3	0.00e+00	123	34	0	1576009728	44	6017
2026-01-06 00:06:55.16	348.26	45.56	-35.8	-36.7	23.2	0.00e+00	121	34	0	1579155456	44	6042
2026-01-06 00:06:56.17	348.13	45.26	-35.9	-36.8	23.1	0.00e+00	123	34	0	1582301184	44	6097
2026-01-06 00:06:57.17	348.01	44.97	-36.1	-37.1	22.8	0.00e+00	123	34	0	1585446912	44	6326
2026-01-06 00:06:58.18	347.89	44.68	-36.7	-37.7	22.2	0.00e+00	123	34	0	1588592640	44	6758
2026-01-06 00:06:59.19	347.77	44.39	-37.5	-38.6	21.5	0.00e+00	120	34	0	1591738368	46	6715
2026-01-06 00:07:00.20	347.65	44.10	-38.2	-39.4	21.0	0.00e+00	122	34	0	1594884096	48	6513
2026-01-06 00:07:01.21	347.54	43.81	-38.6	-39.9	20.6	0.00e+00	120	34	0	1598029824	48	6887
2026-01-06 00:07:02.22	347.42	43.53	-38.9	-40.2	20.3	0.00e+00	123	34	0	1601175552	50	6399
2026-01-06 00:07:03.23	347.31	43.24	-38.8	-40.1	20.5	0.00e+00	120	34	0	1604321280	50	6288
2026-01-06 00:07:04.24	347.20	42.96	-38.2	-39.3	21.1	0.00e+00	123	34	0	1608515584	50	5764
2026-01-06 00:07:05.25	347.10	42.68	-38.0	-39.2	21.1	0.00e+00	120	34	0	1610612736	50	5663
2026-01-06 00:07:06.26	346.99	42.41	-36.9	-37.9	22.0	0.00e+00	123	34	0	1613758464	48	5493
2026-01-06 00:07:07.27	346.89	42.13	-36.6	-37.6	22.4	0.00e+00	123	34	0	1616904192	46	5951
2026-01-06 00:07:08.28	346.79	41.86	-36.4	-37.4	22.7	0.00e+00	123	34	0	1620049920	46	5810
2026-01-06 00:07:09.29	346.69	41.59	-35.8	-36.7	23.3	0.00e+00	122	34	0	1624244224	46	5365
2026-01-06 00:07:10.30	346.59	41.32	-35.8	-36.7	23.4	0.00e+00	120	34	0	1627389952	44	6017
2026-01-06 00:07:11.31	346.49	41.05	-35.3	-36.2	23.6	0.00e+00	122	34	0	1630535680	44	5712
2026-01-06 00:07:12.32	346.40	40.79	-35.9	-36.9	23.1	0.00e+00	120	34	0	1633681408	44	6172
2026-01-06 00:07:13.33	346.31	40.52	-36.5	-37.6	22.5	0.00e+00	123	34	0	1635778560	44	6653
2026-01-06 00:07:14.34	346.22	40.26	-36.9	-37.9	22.3	0.00e+00	123	34	0	1638924288	46	6160
2026-01-06 00:07:15.35	346.13	40.00	-37.0	-38.0	22.0	0.00e+00	123	34	0	1643118592	46	6256
2026-01-06 00:07:16.35	346.04	39.74	-36.8	-37.8	22.1	0.00e+00	123	34	0	1646264320	46	6099
2026-01-06 00:07:17.37	345.95	39.49	-36.7	-37.8	22.2	0.00e+00	122	34	0	1649410048	46	6083
2026-01-06 00:07:18.38	345.86	39.23	-36.6	-37.7	22.3	0.00e+00	120	34	0	1652555776	46	6008
2026-01-06 00:07:19.39	345.78	38.98	-36.6	-37.6	22.4	0.00e+00	122	34	0	1655701504	46	5983
2026-01-06 00:07:20.39	345.70	38.73	-36.4	-37.4	22.7	0.00e+00	123	34	0	1658847232	46	5838
2026-01-06 00:07:21.40	345.62	38.48	-36.4	-37.4	22.8	0.00e+00	123	34	0	1661992960	46	5820
2026-01-06 00:07:22.41	345.54	38.23	-36.4	-37.4	22.8	0.00e+00	123	34	0	1665138688	46	5833
2026-01-06 00:07:23.42	345.46	37.99	-36.0	-37.0	23.1	0.00e+00	123	34	0	1668284416	46	5572
2026-01-06 00:07:24.43	345.38	37.74	-36.1	-37.1	22.9	0.00e+00	123	34	0	1671430144	46	5637
2026-01-06 00:07:25.44	345.30	37.50	-36.1	-37.1	23.0	0.00e+00	123	34	0	1674575872	46	5644
2026-01-06 00:07:26.44	345.23	37.26	-36.2	-37.2	22.9	0.00e+00	123	34	0	1677721600	46	5693
2026-01-06 00:07:27.45	345.15	37.02	-36.0	-36.9	23.0	0.00e+00	123	34	0	1680867328	46	5529
2026-01-06 00:07:28.46	345.08	36.79	-35.8	-36.7	23.3	0.00e+00	120	34	0	1684013056	46	5381
2026-01-06 00:07:29.47	345.01	36.55	-35.3	-36.2	23.6	0.00e+00	122	34	0	1687158784	44	5688
2026-01-06 00:07:30.48	344.94	36.32	-35.2	-36.2	23.7	0.00e+00	122	34	0	1690304512	44	5661
2026-01-06 00:07:31.49	344.87	36.09	-35.2	-36.1	23.7	0.00e+00	123	34	0	1693450240	44	5614
2026-01-06 00:07:32.50	344.80	35.86	-35.1	-36.0	23.7	0.00e+00	120	34	0	1696595968	44	5571
2026-01-06 00:07:33.51	344.73	35.63	-35.0	-35.9	24.0	0.00e+00	123	34	0	1699741696	44	5496
2026-01-06 00:07:34.52	344.67	35.40	-35.0	-36.0	23.8	0.00e+00	123	34	0	1702887424	44	5546
2026-01-06 00:07:35.53	344.60	35.17	-35.1	-36.0	23.8	0.00e+00	123	34	0	1706033152	44	5555
2026-01-06 00:07:36.54	344.53	34.95	-35.1	-36.1	23.8	0.00e+00	123	34	0	1709178880	44	5609
2026-01-06 00:07:37.55	344.47	34.73	-35.2	-36.1	23.8	0.00e+00	122	34	0	1712324608	44	5644
2026-01-06 00:07:38.55	344.41	34.51	-35.0	-35.9	23.8	0.00e+00	122	34	0	1715470336	44	5516
2026-01-06 00:07:39.56	344.35	34.29	-35.1	-36.0	23.7	0.00e+00	123	34	0	1718616064	44	5575
2026-01-06 00:07:40.57	344.29	34.07	-35.1	-36.0	23.8	0.00e+00	122	34	0	1721761792	44	5579
2026-01-06 00:07:41.58	344.22	33.85	-34.8	-35.8	23.9	0.00e+00	123	34	0	1724907520	44	5407
2026-01-06 00:07:42.59	344.17	33.64	-34.7	-35.6	23.9	0.00e+00	123	34	0	1728053248	42	5985
2026-01-06 00:07:43.60	344.11	33.42	-34.7	-35.7	23.9	0.00e+00	123	34	0	1731198976	42	5999
2026-01-06 00:07:44.61	344.05	33.21	-34.7	-35.6	23.8	0.00e+00	122	34	0	1734344704	42	5984
2026-01-06 00:07:45.62	343.99	33.00	-34.7	-35.6	23.9	0.00e+00	123	34	0	1737490432	42	5973
2026-01-06 00:07:46.63	343.94	32.79	-34.7	-35.6	24.0	0.00e+00	123	34	0	1740636160	42	5949
2026-01-06 00:07:47.64	343.88	32.58	-34.7	-35.6	24.0	0.00e+00	123	34	0	1743781888	42	5942
2026-01-06 00:07:48.65	343.82	32.37	-34.7	-35.6	24.1	0.00e+00	123	34	0	1746927616	42	5942
2026-01-06 00:07:49.66	343.77	32.17	-34.5	-35.4	24.2	0.00e+00	122	34	0	1750073344	42	5832
2026-01-06 00:07:50.67	343.72	31.97	-34.3	-35.2	24.4	0.00e+00	123	34	0	1753219072	42	5682
2026-01-06 00:07:51.68	343.67	31.76	-34.2	-35.1	24.5	0.00e+00	123	34	0	1756364800	42	5595
2026-01-06 00:07:52.68	343.61	31.56	-34.1	-35.0	24.5	0.00e+00	123	34	0	1759510528	42	5571
2026-01-06 00:07:53.69	343.56	31.36	-34.2	-35.0	24.5	0.00e+00	122	34	0	1762656256	42	5586
2026-01-06 00:07:54.70	343.51	31.17	-34.1	-35.0	24.5	0.00e+00	120	34	0	1765801984	42	5582
2026-01-06 00:07:55.71	343.46	30.97	-34.2	-35.1	24.4	0.00e+00	122	34	0	1768947712	42	5610
2026-01-06 00:07:56.72	343.41	30.77	-34.2	-35.0	24.5	0.00e+00	122	34	0	1772093440	42	5589
2026-01-06 00:07:57.73	343.36	30.58	-34.0	-34.9	24.7	0.00e+00	122	34	0	1775239168	42	5474
2026-01-06 00:07:58.74	343.32	30.38	-34.1	-35.0	24.5	0.00e+00	120	34	0	1778384896	42	5556
2026-01-06 00:07:59.75	343.27	30.19	-34.0	-34.9	24.6	0.00e+00	122	34	0	1781530624	42	5481
2026-01-06 00:08:00.76	343.22	30.00	-34.0	-34.9	24.6	0.00e+00	120	34	0	1784676352	42	5485
2026-01-06 00:08:01.77	343.18	29.81	-33.9	-34.8	24.7	0.00e+00	122	34	0	1787822080	42	5416
2026-01-06 00:08:02.78	343.13	29.62	-34.1	-35.0	24.6	0.00e+00	122	34	0	1790967808	42	5545
2026-01-06 00:08:03.79	343.09	29.44	-34.2	-35.1	24.6	0.00e+00	122	34	0	1794113536	42	5637
2026-01-06 00:08:04.80	343.04	29.25	-34.1	-34.9	24.6	0.00e+00	120	34	0	1797259264	42	5517
2026-01-06 00:08:05.81	343.00	29.07	-34.2	-35.1	24.4	0.00e+00	123	34	0	1800404992	42	5652
2026-01-06 00:08:06.82	342.95	28.88	-34.2	-35.1	24.4	0.00e+00	123	34	0	1803550720	42	5647
2026-01-06 00:08:07.83	342.91	28.70	-34.4	-35.3	24.3	0.00e+00	122	34	0	1806696448	42	5754
2026-01-06 00:08:08.84	342.87	28.52	-34.3	-35.2	24.4	0.00e+00	120	34	0	1809842176	42	5677
2026-01-06 00:08:09.85	342.83	28.34	-34.3	-35.2	24.4	0.00e+00	123	34	0	1812987904	42	5685
2026-01-06 00:08:10.86	342.79	28.16	-34.3	-35.2	24.4	0.00e+00	123	34	0	1816133632	42	5691
2026-01-06 00:08:11.87	342.75	27.98	-34.2	-35.1	24.4	0.00e+00	123	34	0	1819279360	42	5616
2026-01-06 00:08:12.88	342.70	27.81	-34.2	-35.1	24.4	0.00e+00	122	34	0	1822425088	42	5648
2026-01-06 00:08:13.89	342.67	27.63	-34.1	-35.0	24.5	0.00e+00	122	34	0	1825570816	42	5579
2026-01-06 00:08:14.90	342.63	27.46	-33.9	-34.7	24.6	0.00e+00	123	34	0	1828716544	42	5400
2026-01-06 00:08:15.91	342.59	27.28	-33.7	-34.6	24.7	0.00e+00	123	34	0	1831862272	40	5945
2026-01-06 00:08:16.92	342.55	27.11	-33.6	-34.5	24.8	0.00e+00	123	34	0	1835008000	40	5894
2026-01-06 00:08:17.93	342.51	26.94	-33.5	-34.4	24.8	0.00e+00	123	34	0	1838153728	40	5813
2026-01-06 00:08:18.94	342.47	26.77	-33.6	-34.4	24.7	0.00e+00	123	34	0	1841299456	40	5847
2026-01-06 00:08:19.94	342.44	26.60	-33.5	-34.4	24.7	0.00e+00	122	34	0	1844445184	40	5797
2026-01-06 00:08:20.95	342.40	26.43	-33.5	-34.4	24.8	0.00e+00	120	34	0	1847590912	40	5824
2026-01-06 00:08:21.96	342.36	26.27	-33.3	-34.1	24.8	0.00e+00	123	34	0	1850736640	40	5634
2026-01-06 00:08:22.97	342.33	26.10	-33.4	-34.2	24.8	0.00e+00	122	34	0	1853882368	40	5716
2026-01-06 00:08:23.98	342.29	25.94	-33.4	-34.3	24.7	0.00e+00	123	34	0	1857028096	40	5731
2026-01-06 00:08:24.99	342.26	25.77	-33.4	-34.3	24.7	0.00e+00	122	34	0	1860173824	40	5764
2026-01-06 00:08:26.00	342.22	25.61	-33.3	-34.2	24.8	0.00e+00	119	34	0	1863319552	40	5702
2026-01-06 00:08:27.01	342.19	25.45	-33.4	-34.3	24.6	0.00e+00	123	34	0	1866465280	40	5731
2026-01-06 00:08:28.02	342.16	25.29	-33.4	-34.3	24.7	0.00e+00	123	34	0	1869611008	40	5737
2026-01-06 00:08:29.03	342.12	25.13	-33.5	-34.4	24.6	0.00e+00	123	34	0	1872756736	40	5844
2026-01-06 00:08:30.04	342.09	24.97	-33.5	-34.4	24.6	0.00e+00	123	34	0	1875902464	40	5806
2026-01-06 00:08:31.05	342.06	24.81	-33.5	-34.3	24.6	0.00e+00	122	34	0	1879048192	40	5791
2026-01-06 00:08:32.05	342.02	24.65	-33.4	-34.3	24.6	0.00e+00	120	34	0	1882193920	40	5768
2026-01-06 00:08:33.06	341.99	24.50	-33.4	-34.3	24.6	0.00e+00	122	34	0	1885339648	40	5747
2026-01-06 00:08:34.07	341.96	24.34	-33.5	-34.4	24.6	0.00e+00	122	34	0	1888485376	40	5792
2026-01-06 00:08:35.08	341.93	24.19	-33.6	-34.5	24.5	0.00e+00	123	34	0	1891631104	40	5878
2026-01-06 00:08:36.09	341.90	24.03	-33.5	-34.4	24.6	0.00e+00	122	34	0	1894776832	40	5807
2026-01-06 00:08:37.10	341.87	23.88	-33.5	-34.4	24.5	0.00e+00	123	34	0	1897922560	40	5847
2026-01-06 00:08:38.11	341.84	23.73	-33.5	-34.4	24.6	0.00e+00	122	34	0	1901068288	40	5817
2026-01-06 00:08:39.12	341.81	23.58	-33.6	-34.5	24.6	0.00e+00	122	34	0	1904214016	40	5900
2026-01-06 00:08:40.13	341.78	23.43	-33.6	-34.5	24.6	0.00e+00	123	34	0	1907359744	40	5898
2026-01-06 00:08:41.14	341.75	23.28	-33.4	-34.3	24.8	0.00e+00	122	34	0	1910505472	40	5758
2026-01-06 00:08:42.15	341.72	23.13	-33.5	-34.4	24.8	0.00e+00	123	34	0	1913651200	40	5807
2026-01-06 00:08:43.16	341.69	22.98	-33.3	-34.2	25.0	0.00e+00	122	34	0	1916796928	40	5675
2026-01-06 00:08:44.17	341.66	22.83	-33.4	-34.3	24.9	0.00e+00	123	34	0	1919942656	40	5771
2026-01-06 00:08:45.18	341.64	22.69	-33.5	-34.3	24.9	0.00e+00	123	34	0	1923088384	40	5768
2026-01-06 00:08:46.19	341.61	22.54	-33.4	-34.3	24.9	0.00e+00	121	34	0	1926234112	40	5750
2026-01-06 00:08:47.20	341.58	22.40	-33.2	-34.0	25.1	0.00e+00	123	34	0	1929379840	40	5576
2026-01-06 00:08:48.21	341.55	22.26	-33.1	-34.0	25.1	0.00e+00	120	34	0	1932525568	40	5551
2026-01-06 00:08:49.22	341.53	22.11	-33.1	-33.9	25.2	0.00e+00	122	34	0	1935671296	40	5504
2026-01-06 00:08:50.23	341.50	21.97	-33.2	-34.0	25.1	0.00e+00	123	34	0	1938817024	40	5583
