passes_logs/2026/01/05/R4.6S_Anadyr/R4.6S_Anadyr__20260105_203942_FENGYUN_3E_rec.log

#Pass ID: 20260105_203942_FENGYUN 3E
#Satellite: FENGYUN 3E
#Configuration: FENGYUN 3E
#almurnet v.1.7.20251203
#Start time: 2026-01-05 20:39:46

#Version: 2.2.20231116
#Station: R4.6S_Anadyr
#Location: 177.4865 lon 64.73178 lat
#TLE: 1 49008U 21062A   26005.56299987  .00000339  00000+0  18069-3 0  9991
#TLE: 2 49008  98.7472  10.8019 0001562 158.0357 202.0886 14.19884907233502

#Time	Az	El	Level	Level2	SNR	BER	BlckErr	Temp	State	Recorded	gain1	gain2
2026-01-05 20:39:46.15	25.70	0.20	-48.4	-58.2	3.3	8.40e-01	0	32	0	0	60	29417
2026-01-05 20:39:47.15	25.66	0.25	-48.5	-59.7	3.6	8.45e-01	0	32	104	0	60	35046
2026-01-05 20:39:48.16	25.63	0.31	-48.4	-59.7	3.6	8.45e-01	0	32	104	0	60	34856
2026-01-05 20:39:49.17	25.59	0.37	-48.5	-59.7	3.5	8.44e-01	0	32	104	0	60	35099
2026-01-05 20:39:50.18	25.55	0.43	-48.5	-59.7	3.6	8.46e-01	0	32	104	0	60	35091
2026-01-05 20:39:51.19	25.51	0.49	-48.5	-59.7	3.6	8.46e-01	0	32	104	0	60	34994
2026-01-05 20:39:52.20	25.47	0.55	-48.4	-59.6	3.6	8.45e-01	0	32	104	0	60	34703
2026-01-05 20:39:53.21	25.43	0.60	-48.4	-59.6	3.6	8.47e-01	0	32	104	0	60	34329
2026-01-05 20:39:54.23	25.39	0.66	-48.3	-59.5	3.6	8.45e-01	0	32	104	0	60	34036
2026-01-05 20:39:55.24	25.34	0.72	-48.2	-59.3	3.6	8.45e-01	0	33	104	0	60	33343
2026-01-05 20:39:56.25	25.30	0.78	-47.5	-59.2	3.6	8.45e-01	0	33	104	0	60	33109
2026-01-05 20:39:57.26	25.26	0.84	-47.9	-59.1	3.6	8.45e-01	0	33	104	0	60	32619
2026-01-05 20:39:58.26	25.22	0.90	-47.7	-58.9	3.6	8.45e-01	0	33	104	0	60	31683
2026-01-05 20:39:59.28	25.18	0.96	-47.3	-58.5	3.6	8.45e-01	0	33	104	0	60	30337
2026-01-05 20:40:00.28	25.14	1.02	-47.0	-58.2	3.6	8.45e-01	0	33	104	0	60	29503
2026-01-05 20:40:01.29	25.10	1.07	-47.0	-58.2	3.6	8.45e-01	0	33	104	0	60	29252
2026-01-05 20:40:02.30	25.06	1.13	-47.0	-58.2	3.6	8.44e-01	0	33	104	0	60	29523
2026-01-05 20:40:03.31	25.01	1.19	-47.0	-58.2	3.6	8.46e-01	0	33	104	0	60	29301
2026-01-05 20:40:04.32	24.97	1.25	-47.0	-58.1	3.6	8.46e-01	0	33	104	0	60	29065
2026-01-05 20:40:05.33	24.93	1.31	-47.0	-58.2	3.6	8.46e-01	0	33	104	0	60	29287
2026-01-05 20:40:06.34	24.89	1.37	-47.0	-58.2	3.6	8.44e-01	0	33	104	0	60	29422
2026-01-05 20:40:07.35	24.84	1.43	-47.0	-58.2	3.6	8.45e-01	0	33	104	0	60	29310
2026-01-05 20:40:08.36	24.80	1.49	-47.0	-58.1	3.6	8.45e-01	0	33	104	0	60	29028
2026-01-05 20:40:09.37	24.76	1.55	-47.0	-58.2	3.5	8.45e-01	0	33	104	0	60	29234
2026-01-05 20:40:10.38	24.72	1.61	-47.0	-58.2	3.6	8.45e-01	0	33	104	0	60	29469
2026-01-05 20:40:11.39	24.67	1.67	-47.0	-58.2	3.6	8.45e-01	0	33	104	0	60	29395
2026-01-05 20:40:12.40	24.63	1.73	-47.0	-58.2	3.6	8.45e-01	0	33	104	0	60	29253
2026-01-05 20:40:13.41	24.58	1.79	-47.0	-58.2	3.6	8.45e-01	0	33	104	0	60	29498
2026-01-05 20:40:14.42	24.54	1.85	-47.0	-58.1	3.6	8.46e-01	0	33	104	0	60	29033
2026-01-05 20:40:15.43	24.50	1.91	-47.0	-58.0	3.6	8.45e-01	0	33	104	0	60	28661
2026-01-05 20:40:16.44	24.45	1.98	-46.9	-57.6	3.6	8.46e-01	0	33	104	0	60	27497
2026-01-05 20:40:17.45	24.41	2.04	-46.9	-57.7	3.6	8.45e-01	0	33	104	0	60	27646
2026-01-05 20:40:18.46	24.36	2.10	-46.9	-57.5	3.6	8.45e-01	0	33	104	0	60	27196
2026-01-05 20:40:19.47	24.32	2.16	-47.0	-57.8	3.6	8.46e-01	0	33	104	0	60	28145
2026-01-05 20:40:20.47	24.27	2.22	-47.0	-57.9	3.6	8.44e-01	0	33	104	0	60	28499
2026-01-05 20:40:21.48	24.23	2.28	-47.0	-58.2	3.6	8.45e-01	0	33	104	0	60	29220
2026-01-05 20:40:22.49	24.18	2.34	-47.0	-58.2	3.6	8.44e-01	0	33	104	0	60	29342
2026-01-05 20:40:23.51	24.13	2.40	-47.0	-58.2	3.6	8.45e-01	0	33	104	0	60	29352
2026-01-05 20:40:24.51	24.09	2.47	-47.0	-58.1	3.6	8.46e-01	0	33	104	0	60	29043
2026-01-05 20:40:25.52	24.04	2.53	-47.0	-58.1	3.6	8.46e-01	0	33	104	0	60	29037
2026-01-05 20:40:26.53	24.00	2.59	-47.0	-58.1	3.5	8.45e-01	0	33	104	0	60	28896
2026-01-05 20:40:27.54	23.95	2.65	-47.0	-58.0	3.6	8.46e-01	0	33	104	0	60	28748
2026-01-05 20:40:28.55	23.90	2.71	-46.9	-57.8	3.6	8.45e-01	0	33	104	0	60	28162
2026-01-05 20:40:29.56	23.85	2.78	-46.9	-57.4	3.6	8.45e-01	0	33	104	0	60	26681
2026-01-05 20:40:30.57	23.81	2.84	-46.9	-57.0	3.6	8.44e-01	0	33	104	0	60	25658
2026-01-05 20:40:31.58	23.76	2.90	-46.8	-56.9	3.6	8.45e-01	0	33	104	0	60	25203
2026-01-05 20:40:32.59	23.71	2.96	-46.9	-57.3	3.6	8.44e-01	0	33	104	0	60	26605
2026-01-05 20:40:33.60	23.66	3.03	-47.0	-58.0	3.6	8.46e-01	0	33	104	0	60	28600
2026-01-05 20:40:34.61	23.61	3.09	-46.9	-57.7	3.6	8.45e-01	0	33	104	0	60	27828
2026-01-05 20:40:35.62	23.57	3.15	-46.7	-56.0	3.8	8.44e-01	0	33	104	0	60	22805
2026-01-05 20:40:36.63	23.52	3.22	-46.2	-51.6	4.8	7.94e-01	0	33	0	0	60	13744
2026-01-05 20:40:37.64	23.47	3.28	-45.5	-49.5	6.9	2.83e-01	0	33	0	3145728	60	10828
2026-01-05 20:40:38.65	23.42	3.34	-44.6	-47.9	8.8	5.30e-02	0	33	0	10485760	60	8940
2026-01-05 20:40:39.66	23.37	3.41	-44.1	-46.9	10.0	1.06e-02	0	33	0	17825792	60	8006
2026-01-05 20:40:40.67	23.32	3.47	-43.8	-46.4	10.5	5.09e-03	0	33	0	25165824	60	7568
2026-01-05 20:40:41.67	23.27	3.53	-46.3	-52.4	4.3	2.45e-01	0	33	0	31457280	60	14988
2026-01-05 20:40:42.68	23.22	3.60	-47.0	-56.7	3.6	8.38e-01	0	33	104	31457280	60	24761
2026-01-05 20:40:43.69	23.17	3.66	-44.4	-47.9	4.6	8.17e-01	0	33	104	31457280	60	9026
2026-01-05 20:40:44.70	23.12	3.73	-36.1	-36.8	21.5	5.40e-04	0	33	0	31457280	50	4452
2026-01-05 20:40:45.71	23.07	3.79	-47.0	-57.4	3.6	5.25e-01	0	33	104	36700160	60	26856
2026-01-05 20:40:46.72	23.02	3.85	-36.6	-37.3	6.2	8.27e-01	0	33	104	36700160	50	4732
2026-01-05 20:40:47.73	22.97	3.92	-35.0	-35.7	21.6	0.00e+00	0	33	0	37748736	42	6229
2026-01-05 20:40:48.73	22.91	3.98	-34.9	-35.6	21.7	0.00e+00	0	33	0	45088768	42	6160
2026-01-05 20:40:49.74	22.86	4.05	-34.7	-35.5	22.0	0.00e+00	0	33	0	52428800	42	6059
2026-01-05 20:40:50.76	22.81	4.11	-34.7	-35.5	21.9	0.00e+00	0	33	0	59768832	42	6041
2026-01-05 20:40:51.77	22.76	4.18	-34.9	-35.7	21.6	0.00e+00	0	33	0	67108864	42	6214
2026-01-05 20:40:52.78	22.71	4.24	-34.5	-35.3	22.1	0.00e+00	0	33	0	74448896	42	5921
2026-01-05 20:40:53.79	22.65	4.31	-34.5	-35.2	22.2	0.00e+00	0	33	0	81788928	42	5874
2026-01-05 20:40:54.79	22.60	4.37	-34.4	-35.2	22.2	0.00e+00	0	33	0	89128960	42	5851
2026-01-05 20:40:55.80	22.55	4.44	-34.3	-35.1	22.4	0.00e+00	0	33	0	96468992	42	5782
2026-01-05 20:40:56.81	22.49	4.50	-34.5	-35.2	22.1	0.00e+00	0	33	0	103809024	42	5860
2026-01-05 20:40:57.82	22.44	4.57	-34.3	-35.0	22.3	0.00e+00	0	33	0	111149056	42	5751
2026-01-05 20:40:58.83	22.39	4.64	-34.6	-35.3	22.3	0.00e+00	0	33	0	117440512	42	5949
2026-01-05 20:40:59.84	22.33	4.70	-34.1	-34.9	22.6	0.00e+00	0	33	0	124780544	42	5633
2026-01-05 20:41:00.85	22.28	4.77	-34.1	-34.8	22.6	0.00e+00	0	33	0	132120576	42	5617
2026-01-05 20:41:01.86	22.22	4.84	-34.2	-34.9	22.5	0.00e+00	0	33	0	139460608	42	5670
2026-01-05 20:41:02.86	22.17	4.90	-34.0	-34.7	22.7	0.00e+00	0	33	0	146800640	42	5545
2026-01-05 20:41:03.88	22.11	4.97	-34.1	-34.8	22.7	0.00e+00	0	33	0	154140672	42	5604
2026-01-05 20:41:04.88	22.06	5.04	-34.2	-34.9	22.6	0.00e+00	0	33	0	161480704	42	5649
2026-01-05 20:41:05.89	22.00	5.10	-34.7	-35.4	22.2	0.00e+00	0	33	0	168820736	42	6023
2026-01-05 20:41:06.90	21.94	5.17	-34.5	-35.2	22.3	0.00e+00	0	33	0	176160768	42	5859
2026-01-05 20:41:07.91	21.89	5.24	-34.4	-35.2	22.4	0.00e+00	0	33	0	183500800	42	5831
2026-01-05 20:41:08.92	21.83	5.30	-34.5	-35.2	22.4	0.00e+00	0	33	0	190840832	42	5880
2026-01-05 20:41:09.93	21.77	5.37	-34.3	-35.0	22.5	0.00e+00	0	33	0	198180864	42	5741
2026-01-05 20:41:10.93	21.72	5.44	-34.2	-34.9	22.7	0.00e+00	0	33	0	205520896	42	5646
2026-01-05 20:41:11.94	21.66	5.51	-34.0	-34.7	22.7	0.00e+00	0	33	0	212860928	42	5545
2026-01-05 20:41:12.95	21.60	5.57	-34.0	-34.7	22.8	0.00e+00	0	33	0	220200960	42	5532
2026-01-05 20:41:13.97	21.54	5.64	-34.2	-34.9	22.6	0.00e+00	0	33	0	227540992	42	5655
2026-01-05 20:41:14.97	21.48	5.71	-34.0	-34.7	22.8	0.00e+00	0	33	0	234881024	42	5514
2026-01-05 20:41:15.99	21.42	5.78	-34.0	-34.7	22.9	0.00e+00	0	33	0	242221056	42	5521
2026-01-05 20:41:17.00	21.36	5.85	-33.8	-34.5	23.0	0.00e+00	0	33	0	248512512	42	5415
2026-01-05 20:41:18.00	21.31	5.92	-33.7	-34.4	22.8	0.00e+00	0	33	0	255852544	40	5982
2026-01-05 20:41:19.01	21.25	5.99	-33.9	-34.6	22.9	0.00e+00	0	33	0	264241152	40	6159
2026-01-05 20:41:20.02	21.19	6.05	-33.2	-33.9	23.6	0.00e+00	0	33	0	270532608	40	5662
2026-01-05 20:41:21.03	21.12	6.12	-33.4	-34.1	23.4	0.00e+00	0	33	0	277872640	40	5814
2026-01-05 20:41:22.04	21.06	6.19	-33.8	-34.5	23.1	0.00e+00	0	33	0	285212672	40	6051
2026-01-05 20:41:23.05	21.00	6.26	-33.7	-34.4	23.1	0.00e+00	0	33	0	292552704	40	6023
2026-01-05 20:41:24.06	20.94	6.33	-33.8	-34.5	23.0	0.00e+00	0	33	0	299892736	40	6077
2026-01-05 20:41:25.07	20.88	6.40	-33.7	-34.4	23.3	0.00e+00	0	33	0	307232768	40	6000
2026-01-05 20:41:26.08	20.82	6.47	-33.6	-34.3	23.2	0.00e+00	0	33	0	314572800	40	5937
2026-01-05 20:41:27.09	20.76	6.54	-33.7	-34.4	23.2	0.00e+00	0	33	0	321912832	40	6018
2026-01-05 20:41:28.10	20.69	6.61	-33.7	-34.4	23.1	0.00e+00	0	33	0	329252864	40	6016
2026-01-05 20:41:29.11	20.63	6.68	-33.8	-34.6	23.1	0.00e+00	0	33	0	336592896	40	6104
2026-01-05 20:41:30.12	20.57	6.75	-33.7	-34.4	23.3	0.00e+00	0	33	0	343932928	40	6033
2026-01-05 20:41:31.13	20.50	6.82	-33.6	-34.3	23.4	0.00e+00	0	33	0	351272960	40	5958
2026-01-05 20:41:32.14	20.44	6.90	-33.6	-34.3	23.4	0.00e+00	0	33	0	358612992	40	5927
2026-01-05 20:41:33.15	20.38	6.97	-33.5	-34.2	23.4	0.00e+00	0	34	0	365953024	40	5863
2026-01-05 20:41:34.16	20.31	7.04	-33.4	-34.1	23.5	0.00e+00	0	33	0	373293056	40	5772
2026-01-05 20:41:35.17	20.25	7.11	-33.5	-34.2	23.5	0.00e+00	0	33	0	380633088	40	5875
2026-01-05 20:41:36.18	20.18	7.18	-33.6	-34.3	23.4	0.00e+00	0	33	0	387973120	40	5934
2026-01-05 20:41:37.19	20.12	7.25	-33.6	-34.3	23.4	0.00e+00	0	34	0	395313152	40	5920
2026-01-05 20:41:38.21	20.05	7.33	-33.4	-34.1	23.5	0.00e+00	0	33	0	401604608	40	5804
2026-01-05 20:41:39.21	19.98	7.40	-33.4	-34.1	23.6	0.00e+00	0	33	0	409993216	40	5796
2026-01-05 20:41:40.22	19.92	7.47	-33.4	-34.1	23.6	0.00e+00	0	33	0	417333248	40	5812
2026-01-05 20:41:41.23	19.85	7.54	-33.2	-33.9	23.8	0.00e+00	0	33	0	423624704	40	5678
2026-01-05 20:41:42.24	19.78	7.61	-33.4	-34.1	23.6	0.00e+00	0	33	0	430964736	40	5774
2026-01-05 20:41:43.25	19.71	7.69	-33.2	-33.9	23.8	0.00e+00	0	33	0	438304768	40	5684
2026-01-05 20:41:44.26	19.65	7.76	-33.2	-33.9	23.8	0.00e+00	0	33	0	445644800	40	5667
2026-01-05 20:41:45.28	19.58	7.83	-33.4	-34.1	23.6	0.00e+00	0	33	0	452984832	40	5808
2026-01-05 20:41:46.28	19.51	7.91	-33.4	-34.1	23.7	0.00e+00	0	34	0	460324864	40	5778
2026-01-05 20:41:47.29	19.44	7.98	-33.3	-34.0	23.7	0.00e+00	0	33	0	467664896	40	5705
2026-01-05 20:41:48.30	19.37	8.05	-33.3	-33.9	23.8	0.00e+00	0	33	0	475004928	40	5679
2026-01-05 20:41:49.31	19.30	8.13	-33.0	-33.7	23.9	0.00e+00	0	34	0	482344960	40	5539
2026-01-05 20:41:50.32	19.23	8.20	-33.3	-33.9	23.7	0.00e+00	0	34	0	489684992	40	5691
2026-01-05 20:41:51.33	19.16	8.27	-33.0	-33.7	24.0	0.00e+00	0	33	0	497025024	40	5532
2026-01-05 20:41:52.34	19.09	8.35	-33.1	-33.8	23.9	0.00e+00	0	33	0	504365056	40	5595
2026-01-05 20:41:53.35	19.02	8.42	-33.2	-33.8	23.9	0.00e+00	0	33	0	511705088	40	5628
2026-01-05 20:41:54.36	18.95	8.50	-32.8	-33.5	24.1	0.00e+00	0	34	0	519045120	40	5412
2026-01-05 20:41:55.37	18.87	8.57	-33.1	-33.8	23.9	0.00e+00	0	33	0	526385152	40	5606
2026-01-05 20:41:56.38	18.80	8.65	-32.9	-33.6	24.2	0.00e+00	0	33	0	533725184	40	5487
2026-01-05 20:41:57.39	18.73	8.72	-32.9	-33.6	24.2	0.00e+00	0	33	0	541065216	40	5470
2026-01-05 20:41:58.40	18.66	8.80	-33.0	-33.6	24.1	0.00e+00	0	33	0	547356672	40	5491
2026-01-05 20:41:59.41	18.58	8.87	-32.9	-33.6	24.2	0.00e+00	0	34	0	554696704	40	5452
2026-01-05 20:42:00.42	18.51	8.95	-32.9	-33.6	24.3	0.00e+00	0	34	0	563085312	38	6130
2026-01-05 20:42:01.43	18.43	9.02	-32.8	-33.4	24.4	0.00e+00	0	34	0	569376768	38	6027
2026-01-05 20:42:02.43	18.36	9.10	-32.8	-33.5	24.3	0.00e+00	0	33	0	576716800	38	6076
2026-01-05 20:42:03.45	18.28	9.18	-32.8	-33.5	24.3	0.00e+00	0	33	0	584056832	38	6064
2026-01-05 20:42:04.46	18.21	9.25	-32.6	-33.3	24.6	0.00e+00	0	34	0	591396864	38	5926
2026-01-05 20:42:05.46	18.13	9.33	-32.6	-33.3	24.4	0.00e+00	0	33	0	598736896	38	5925
2026-01-05 20:42:06.47	18.05	9.41	-32.7	-33.3	24.5	0.00e+00	0	33	0	606076928	38	5940
2026-01-05 20:42:07.48	17.98	9.48	-32.7	-33.4	24.3	0.00e+00	0	34	0	613416960	38	5981
2026-01-05 20:42:08.49	17.90	9.56	-32.7	-33.4	24.4	0.00e+00	0	33	0	620756992	38	5969
2026-01-05 20:42:09.50	17.82	9.64	-32.7	-33.4	24.3	0.00e+00	0	33	0	628097024	38	6011
2026-01-05 20:42:10.51	17.74	9.72	-32.6	-33.2	24.5	0.00e+00	0	34	0	635437056	38	5893
2026-01-05 20:42:11.52	17.67	9.79	-32.6	-33.3	24.5	0.00e+00	0	34	0	642777088	38	5915
2026-01-05 20:42:12.53	17.59	9.87	-32.7	-33.4	24.5	0.00e+00	0	34	0	650117120	38	5974
2026-01-05 20:42:13.54	17.51	9.95	-32.8	-33.5	24.4	0.00e+00	0	33	0	657457152	38	6042
2026-01-05 20:42:14.55	17.43	10.03	-32.6	-33.3	24.5	0.00e+00	0	34	0	664797184	38	5913
2026-01-05 20:42:15.56	17.35	10.11	-32.8	-33.4	24.5	0.00e+00	0	34	0	672137216	38	6028
2026-01-05 20:42:16.57	17.26	10.18	-33.0	-33.7	24.2	0.00e+00	0	34	0	679477248	38	6194
2026-01-05 20:42:17.59	17.18	10.26	-32.5	-33.2	24.7	0.00e+00	0	34	0	686817280	38	5835
2026-01-05 20:42:18.60	17.10	10.34	-32.7	-33.3	24.5	0.00e+00	0	34	0	694157312	38	5946
2026-01-05 20:42:19.60	17.02	10.42	-32.4	-33.1	24.7	0.00e+00	0	34	0	700448768	38	5790
2026-01-05 20:42:20.61	16.94	10.50	-32.9	-33.5	24.4	0.00e+00	0	34	0	708837376	38	6102
2026-01-05 20:42:21.62	16.85	10.58	-32.4	-33.1	24.9	0.00e+00	0	33	0	716177408	38	5776
2026-01-05 20:42:22.63	16.77	10.66	-32.2	-32.8	25.0	0.00e+00	0	34	0	722468864	38	5610
2026-01-05 20:42:23.63	16.69	10.74	-32.3	-32.9	24.9	0.00e+00	0	34	0	729808896	38	5678
2026-01-05 20:42:24.64	16.60	10.82	-32.4	-33.1	24.8	0.00e+00	0	34	0	737148928	38	5766
2026-01-05 20:42:25.65	16.52	10.90	-32.2	-32.8	25.0	0.00e+00	0	34	0	744488960	38	5621
2026-01-05 20:42:26.66	16.43	10.98	-32.1	-32.7	25.1	0.00e+00	0	34	0	751828992	38	5535
2026-01-05 20:42:27.67	16.34	11.06	-32.0	-32.7	25.1	0.00e+00	0	34	0	759169024	38	5508
2026-01-05 20:42:28.67	16.26	11.14	-32.1	-32.7	25.0	0.00e+00	0	33	0	766509056	38	5552
2026-01-05 20:42:29.68	16.17	11.22	-31.9	-32.6	25.2	0.00e+00	0	34	0	773849088	38	5462
2026-01-05 20:42:30.69	16.08	11.30	-32.0	-32.7	25.2	0.00e+00	0	34	0	781189120	38	5503
2026-01-05 20:42:31.70	15.99	11.39	-31.9	-32.6	25.3	0.00e+00	0	34	0	788529152	36	6111
2026-01-05 20:42:32.71	15.91	11.47	-31.9	-32.5	25.2	0.00e+00	0	34	0	795869184	36	6072
2026-01-05 20:42:33.72	15.82	11.55	-32.0	-32.6	25.3	0.00e+00	0	34	0	803209216	36	6145
2026-01-05 20:42:34.73	15.73	11.63	-32.1	-32.7	25.2	0.00e+00	0	34	0	810549248	36	6197
2026-01-05 20:42:35.74	15.64	11.72	-32.0	-32.6	25.2	0.00e+00	0	34	0	817889280	36	6127
2026-01-05 20:42:36.75	15.54	11.80	-32.1	-32.7	25.2	0.00e+00	0	34	0	824180736	36	6240
2026-01-05 20:42:37.76	15.45	11.88	-32.2	-32.8	25.2	0.00e+00	0	33	0	832569344	36	6312
2026-01-05 20:42:38.77	15.36	11.96	-32.0	-32.7	25.2	0.00e+00	0	34	0	839909376	36	6193
2026-01-05 20:42:39.78	15.27	12.05	-32.1	-32.7	25.1	0.00e+00	0	34	0	846200832	36	6220
2026-01-05 20:42:40.79	15.18	12.13	-32.3	-33.0	25.0	0.00e+00	0	34	0	853540864	36	6415
2026-01-05 20:42:41.80	15.08	12.21	-32.4	-33.1	25.1	0.00e+00	0	34	0	860880896	36	6476
2026-01-05 20:42:42.81	14.99	12.30	-32.4	-33.1	24.7	0.00e+00	0	34	0	868220928	36	6498
2026-01-05 20:42:43.82	14.89	12.38	-32.5	-33.1	24.8	0.00e+00	0	34	0	875560960	36	6517
2026-01-05 20:42:44.83	14.80	12.47	-31.8	-32.5	25.4	0.00e+00	0	34	0	882900992	36	6050
2026-01-05 20:42:45.84	14.70	12.55	-31.8	-32.4	25.4	0.00e+00	0	34	0	890241024	36	6018
2026-01-05 20:42:46.85	14.61	12.64	-31.7	-32.3	25.5	0.00e+00	0	34	0	897581056	36	5949
2026-01-05 20:42:47.86	14.51	12.72	-31.8	-32.5	25.4	0.00e+00	0	34	0	904921088	36	6052
2026-01-05 20:42:48.87	14.41	12.81	-31.9	-32.6	25.3	0.00e+00	0	34	0	912261120	36	6118
2026-01-05 20:42:49.87	14.31	12.89	-32.0	-32.6	25.2	0.00e+00	0	34	0	919601152	36	6154
2026-01-05 20:42:50.88	14.22	12.98	-31.9	-32.5	25.3	0.00e+00	0	34	0	926941184	36	6092
2026-01-05 20:42:51.89	14.12	13.06	-32.2	-32.9	25.0	0.00e+00	0	34	0	934281216	36	6319
2026-01-05 20:42:52.90	14.02	13.15	-31.9	-32.6	25.3	0.00e+00	0	34	0	941621248	36	6104
2026-01-05 20:42:53.91	13.92	13.23	-31.6	-32.3	25.7	0.00e+00	0	33	0	948961280	36	5903
2026-01-05 20:42:54.92	13.81	13.32	-31.5	-32.1	25.6	0.00e+00	0	34	0	956301312	36	5823
2026-01-05 20:42:55.93	13.71	13.41	-31.4	-32.0	25.8	0.00e+00	0	34	0	963641344	36	5750
2026-01-05 20:42:56.94	13.61	13.49	-31.3	-31.9	25.8	0.00e+00	0	34	0	970981376	36	5695
2026-01-05 20:42:57.95	13.51	13.58	-31.5	-32.1	25.7	0.00e+00	0	34	0	977272832	36	5788
2026-01-05 20:42:58.96	13.40	13.67	-31.4	-32.0	25.8	0.00e+00	0	34	0	985661440	36	5754
2026-01-05 20:42:59.97	13.30	13.76	-31.3	-31.9	25.9	0.00e+00	0	34	0	993001472	36	5680
2026-01-05 20:43:00.98	13.19	13.84	-31.4	-32.1	25.7	0.00e+00	0	34	0	999292928	36	5779
2026-01-05 20:43:01.99	13.09	13.93	-31.3	-31.9	25.9	0.00e+00	0	34	0	1006632960	36	5674
2026-01-05 20:43:03.00	12.98	14.02	-31.3	-31.9	25.9	0.00e+00	0	34	0	1013972992	36	5675
2026-01-05 20:43:04.01	12.88	14.11	-31.4	-32.0	25.8	0.00e+00	0	34	0	1021313024	36	5743
2026-01-05 20:43:05.02	12.77	14.20	-31.3	-31.9	25.9	0.00e+00	0	34	0	1028653056	36	5689
2026-01-05 20:43:06.03	12.66	14.29	-31.5	-32.1	25.7	0.00e+00	0	34	0	1035993088	36	5781
2026-01-05 20:43:07.04	12.55	14.38	-31.4	-32.0	25.8	0.00e+00	0	34	0	1043333120	36	5730
2026-01-05 20:43:08.05	12.44	14.46	-31.4	-32.0	25.8	0.00e+00	0	34	0	1050673152	36	5725
2026-01-05 20:43:09.06	12.33	14.55	-31.3	-31.9	25.9	0.00e+00	0	34	0	1058013184	36	5671
2026-01-05 20:43:10.06	12.22	14.64	-31.3	-32.0	25.9	0.00e+00	0	34	0	1065353216	36	5705
2026-01-05 20:43:11.08	12.11	14.73	-31.3	-32.0	25.8	0.00e+00	0	34	0	1072693248	36	5707
2026-01-05 20:43:12.09	12.00	14.82	-31.3	-32.0	25.8	0.00e+00	0	34	0	1080033280	36	5696
2026-01-05 20:43:13.10	11.88	14.91	-30.9	-31.6	25.8	0.00e+00	0	34	0	1087373312	36	5442
2026-01-05 20:43:14.11	11.77	15.01	-31.5	-32.1	25.7	0.00e+00	0	34	0	1094713344	36	5798
2026-01-05 20:43:15.12	11.65	15.10	-31.3	-31.9	26.0	0.00e+00	0	34	0	1102053376	36	5670
2026-01-05 20:43:16.13	11.54	15.19	-31.3	-31.9	25.9	0.00e+00	0	34	0	1109393408	36	5675
2026-01-05 20:43:17.14	11.42	15.28	-31.2	-31.9	26.0	0.00e+00	0	34	0	1116733440	36	5650
2026-01-05 20:43:18.15	11.31	15.37	-31.1	-31.7	25.9	0.00e+00	0	34	0	1123024896	36	5541
2026-01-05 20:43:19.16	11.19	15.46	-31.2	-31.8	26.0	0.00e+00	0	34	0	1130364928	36	5606
2026-01-05 20:43:20.17	11.07	15.55	-31.1	-31.7	26.1	0.00e+00	0	34	0	1138753536	36	5552
2026-01-05 20:43:21.18	10.95	15.65	-31.1	-31.7	26.1	0.00e+00	0	34	0	1145044992	36	5557
2026-01-05 20:43:22.19	10.83	15.74	-31.0	-31.7	26.2	0.00e+00	0	34	0	1152385024	36	5515
2026-01-05 20:43:23.19	10.71	15.83	-31.1	-31.7	26.3	0.00e+00	0	34	0	1159725056	36	5540
2026-01-05 20:43:24.20	10.59	15.92	-31.1	-31.7	26.0	0.00e+00	0	34	0	1167065088	34	6232
2026-01-05 20:43:25.21	10.47	16.02	-30.9	-31.6	26.2	0.00e+00	0	34	0	1174405120	34	6104
2026-01-05 20:43:26.22	10.35	16.11	-31.0	-31.6	26.2	0.00e+00	0	34	0	1181745152	34	6138
2026-01-05 20:43:27.23	10.22	16.20	-31.0	-31.6	26.2	0.00e+00	0	34	0	1189085184	34	6148
2026-01-05 20:43:28.24	10.10	16.30	-30.9	-31.5	26.3	0.00e+00	0	34	0	1196425216	34	6085
2026-01-05 20:43:29.25	9.97	16.39	-30.9	-31.5	26.3	0.00e+00	0	34	0	1203765248	34	6089
2026-01-05 20:43:30.26	9.85	16.48	-30.9	-31.5	26.3	0.00e+00	0	34	0	1211105280	34	6060
2026-01-05 20:43:31.27	9.72	16.58	-30.7	-31.3	26.5	0.00e+00	0	34	0	1218445312	34	5914
2026-01-05 20:43:32.28	9.59	16.67	-30.8	-31.4	26.4	0.00e+00	0	34	0	1225785344	34	6000
2026-01-05 20:43:33.29	9.47	16.77	-30.5	-31.2	26.5	0.00e+00	0	34	0	1233125376	34	5832
2026-01-05 20:43:34.30	9.34	16.86	-30.5	-31.2	26.6	0.00e+00	0	34	0	1240465408	34	5831
2026-01-05 20:43:35.31	9.21	16.96	-30.7	-31.3	26.6	0.00e+00	0	34	0	1247805440	34	5919
2026-01-05 20:43:36.32	9.08	17.05	-30.4	-31.1	26.6	0.00e+00	0	34	0	1255145472	34	5773
2026-01-05 20:43:37.33	8.94	17.15	-30.6	-31.2	26.6	0.00e+00	0	34	0	1262485504	34	5855
2026-01-05 20:43:38.34	8.81	17.25	-30.6	-31.2	26.5	0.00e+00	0	34	0	1269825536	34	5879
2026-01-05 20:43:39.35	8.68	17.34	-30.5	-31.1	26.6	0.00e+00	0	34	0	1276116992	34	5813
2026-01-05 20:43:40.36	8.54	17.44	-30.5	-31.1	26.7	0.00e+00	0	34	0	1283457024	34	5790
2026-01-05 20:43:41.37	8.41	17.53	-30.4	-31.0	26.6	0.00e+00	0	34	0	1291845632	34	5760
2026-01-05 20:43:42.38	8.27	17.63	-30.4	-31.0	26.7	0.00e+00	0	34	0	1298137088	34	5721
2026-01-05 20:43:43.39	8.14	17.73	-30.4	-31.0	26.7	0.00e+00	0	34	0	1305477120	34	5756
2026-01-05 20:43:44.40	8.00	17.83	-30.2	-30.8	26.9	0.00e+00	0	34	0	1312817152	34	5598
2026-01-05 20:43:45.41	7.86	17.92	-30.4	-31.0	26.7	0.00e+00	0	34	0	1320157184	34	5716
2026-01-05 20:43:46.42	7.72	18.02	-30.3	-30.9	26.8	0.00e+00	0	34	0	1327497216	34	5668
2026-01-05 20:43:47.43	7.58	18.12	-30.4	-31.1	26.7	0.00e+00	0	34	0	1334837248	34	5766
2026-01-05 20:43:48.43	7.44	18.22	-30.2	-30.8	27.0	0.00e+00	0	34	0	1342177280	34	5595
2026-01-05 20:43:49.44	7.29	18.31	-30.2	-30.8	27.1	0.00e+00	0	34	0	1349517312	34	5570
2026-01-05 20:43:50.45	7.15	18.41	-30.0	-30.5	27.1	0.00e+00	0	34	0	1356857344	34	5438
2026-01-05 20:43:51.46	7.01	18.51	-29.9	-30.5	27.2	0.00e+00	0	34	0	1364197376	34	5433
2026-01-05 20:43:52.47	6.86	18.61	-30.0	-30.6	27.1	0.00e+00	0	34	0	1371537408	34	5473
2026-01-05 20:43:53.48	6.71	18.71	-30.0	-30.6	27.1	0.00e+00	0	34	0	1378877440	34	5490
2026-01-05 20:43:54.49	6.57	18.81	-30.0	-30.6	27.1	0.00e+00	0	34	0	1386217472	34	5497
2026-01-05 20:43:55.50	6.42	18.91	-29.8	-30.4	27.3	0.00e+00	0	34	0	1393557504	34	5356
2026-01-05 20:43:56.51	6.27	19.01	-29.7	-30.3	27.2	0.00e+00	0	34	0	1400897536	32	5955
2026-01-05 20:43:57.52	6.12	19.11	-29.7	-30.3	27.2	0.00e+00	0	34	0	1408237568	32	5922
2026-01-05 20:43:58.53	5.97	19.21	-29.7	-30.3	27.3	0.00e+00	0	34	0	1415577600	32	5916
2026-01-05 20:43:59.53	5.82	19.31	-29.7	-30.3	27.3	0.00e+00	0	34	0	1421869056	32	5917
2026-01-05 20:44:00.55	5.66	19.41	-29.7	-30.3	27.4	0.00e+00	0	34	0	1429209088	32	5919
2026-01-05 20:44:01.55	5.51	19.51	-29.7	-30.3	27.4	0.00e+00	0	34	0	1436549120	32	5936
2026-01-05 20:44:02.56	5.35	19.61	-29.8	-30.4	27.2	0.00e+00	0	34	0	1444937728	32	5998
2026-01-05 20:44:03.57	5.20	19.71	-29.9	-30.5	27.2	0.00e+00	0	34	0	1451229184	32	6050
2026-01-05 20:44:04.59	5.04	19.81	-30.0	-30.6	27.1	0.00e+00	0	34	0	1458569216	32	6127
2026-01-05 20:44:05.60	4.88	19.91	-30.0	-30.7	27.1	0.00e+00	0	34	0	1465909248	32	6189
2026-01-05 20:44:06.61	4.72	20.01	-30.1	-30.8	27.2	0.00e+00	0	34	0	1473249280	32	6259
2026-01-05 20:44:07.62	4.56	20.12	-30.0	-30.6	27.1	0.00e+00	0	34	0	1480589312	32	6162
2026-01-05 20:44:08.63	4.40	20.22	-30.2	-30.8	27.0	0.00e+00	0	34	0	1487929344	32	6265
2026-01-05 20:44:09.64	4.23	20.32	-30.0	-30.7	27.1	0.00e+00	0	34	0	1495269376	32	6182
2026-01-05 20:44:10.65	4.07	20.42	-30.0	-30.6	27.2	0.00e+00	0	34	0	1502609408	32	6162
2026-01-05 20:44:11.66	3.90	20.52	-30.1	-30.7	27.1	0.00e+00	0	34	0	1509949440	32	6200
2026-01-05 20:44:12.67	3.74	20.63	-30.0	-30.6	27.2	0.00e+00	0	34	0	1517289472	32	6116
2026-01-05 20:44:13.67	3.57	20.73	-29.9	-30.5	27.2	0.00e+00	0	34	0	1524629504	32	6090
2026-01-05 20:44:14.69	3.40	20.83	-29.8	-30.4	27.3	0.00e+00	0	34	0	1531969536	32	6006
2026-01-05 20:44:15.70	3.23	20.93	-29.9	-30.5	27.2	0.00e+00	0	34	0	1539309568	32	6049
2026-01-05 20:44:16.70	3.06	21.04	-29.9	-30.5	27.3	0.00e+00	0	34	0	1546649600	32	6039
2026-01-05 20:44:17.71	2.89	21.14	-29.7	-30.3	27.4	0.00e+00	0	34	0	1553989632	32	5942
2026-01-05 20:44:18.72	2.72	21.24	-29.7	-30.3	27.4	0.00e+00	0	34	0	1561329664	32	5946
2026-01-05 20:44:19.73	2.54	21.35	-29.8	-30.4	27.3	0.00e+00	0	34	0	1568669696	32	5989
2026-01-05 20:44:20.74	2.37	21.45	-30.0	-30.6	27.3	0.00e+00	0	34	0	1574961152	32	6162
2026-01-05 20:44:21.75	2.19	21.55	-30.0	-30.6	27.1	0.00e+00	0	34	0	1582301184	32	6120
2026-01-05 20:44:22.76	2.01	21.66	-29.9	-30.5	27.2	0.00e+00	0	34	0	1590689792	32	6069
2026-01-05 20:44:23.77	1.83	21.76	-29.9	-30.5	27.2	0.00e+00	0	34	0	1596981248	32	6074
2026-01-05 20:44:24.78	1.65	21.87	-29.9	-30.6	27.3	0.00e+00	0	34	0	1604321280	32	6105
2026-01-05 20:44:25.79	1.47	21.97	-29.8	-30.4	27.3	0.00e+00	0	34	0	1611661312	32	6023
2026-01-05 20:44:26.80	1.29	22.08	-29.7	-30.3	27.4	0.00e+00	0	34	0	1619001344	32	5948
2026-01-05 20:44:27.81	1.10	22.18	-29.8	-30.4	27.3	0.00e+00	0	34	0	1626341376	32	6011
2026-01-05 20:44:28.82	0.92	22.28	-29.7	-30.3	27.4	0.00e+00	0	34	0	1633681408	32	5924
2026-01-05 20:44:29.83	0.73	22.39	-29.9	-30.5	27.2	0.00e+00	0	34	0	1641021440	32	6052
2026-01-05 20:44:30.84	0.54	22.49	-29.8	-30.4	27.4	0.00e+00	0	34	0	1648361472	32	5977
2026-01-05 20:44:31.85	0.35	22.60	-29.7	-30.3	27.3	0.00e+00	0	34	0	1655701504	32	5956
2026-01-05 20:44:32.86	0.16	22.70	-29.7	-30.3	27.5	0.00e+00	0	34	0	1663041536	32	5953
2026-01-05 20:44:33.87	359.97	22.81	-29.7	-30.3	27.4	0.00e+00	0	34	0	1670381568	32	5912
2026-01-05 20:44:34.88	359.77	22.91	-29.7	-30.3	27.4	0.00e+00	0	34	0	1677721600	32	5900
2026-01-05 20:44:35.89	359.58	23.02	-29.5	-30.1	27.6	0.00e+00	0	34	0	1685061632	32	5827
2026-01-05 20:44:36.90	359.38	23.13	-29.4	-30.0	27.6	0.00e+00	0	34	0	1692401664	32	5713
2026-01-05 20:44:37.91	359.19	23.23	-29.4	-30.0	27.6	0.00e+00	0	34	0	1699741696	32	5742
2026-01-05 20:44:38.92	358.99	23.34	-29.4	-30.0	27.6	0.00e+00	0	34	0	1707081728	32	5720
2026-01-05 20:44:39.92	358.79	23.44	-29.5	-30.1	27.5	0.00e+00	0	34	0	1714421760	32	5813
2026-01-05 20:44:40.93	358.59	23.55	-29.3	-29.9	27.6	0.00e+00	0	34	0	1721761792	32	5680
2026-01-05 20:44:41.94	358.38	23.65	-29.1	-29.7	27.8	0.00e+00	0	34	0	1728053248	32	5550
2026-01-05 20:44:42.95	358.18	23.76	-29.4	-30.0	27.6	0.00e+00	0	34	0	1735393280	32	5700
2026-01-05 20:44:43.96	357.97	23.86	-29.1	-29.7	27.8	0.00e+00	0	34	0	1743781888	32	5540
2026-01-05 20:44:44.97	357.77	23.97	-29.0	-29.6	27.8	0.00e+00	0	34	0	1750073344	32	5491
2026-01-05 20:44:45.98	357.56	24.07	-29.0	-29.6	27.8	0.00e+00	0	34	0	1757413376	32	5483
2026-01-05 20:44:46.99	357.35	24.18	-29.3	-29.9	27.7	0.00e+00	0	34	0	1764753408	32	5648
2026-01-05 20:44:48.00	357.14	24.29	-29.1	-29.7	27.9	0.00e+00	0	34	0	1772093440	32	5523
2026-01-05 20:44:49.01	356.92	24.39	-29.1	-29.7	27.8	0.00e+00	0	34	0	1779433472	32	5531
2026-01-05 20:44:50.02	356.71	24.50	-29.1	-29.7	27.9	0.00e+00	0	34	0	1786773504	32	5526
2026-01-05 20:44:51.03	356.49	24.60	-29.0	-29.6	27.9	0.00e+00	0	34	0	1794113536	32	5498
2026-01-05 20:44:52.04	356.28	24.71	-29.0	-29.6	27.9	0.00e+00	0	34	0	1801453568	32	5493
2026-01-05 20:44:53.05	356.06	24.81	-28.9	-29.5	27.9	0.00e+00	0	34	0	1808793600	32	5383
2026-01-05 20:44:54.06	355.84	24.92	-28.9	-29.5	28.0	0.00e+00	0	34	0	1816133632	32	5396
2026-01-05 20:44:55.07	355.62	25.03	-28.9	-29.5	27.9	0.00e+00	0	34	0	1823473664	32	5437
2026-01-05 20:44:56.08	355.39	25.13	-28.9	-29.5	28.0	0.00e+00	0	34	0	1830813696	32	5387
2026-01-05 20:44:57.09	355.17	25.24	-29.0	-29.6	28.0	0.00e+00	0	34	0	1838153728	32	5460
2026-01-05 20:44:58.10	354.94	25.34	-29.0	-29.6	27.9	0.00e+00	0	34	0	1845493760	32	5470
2026-01-05 20:44:59.11	354.71	25.45	-28.9	-29.5	27.9	0.00e+00	0	34	0	1851785216	32	5408
2026-01-05 20:45:00.12	354.48	25.55	-29.0	-29.6	27.8	0.00e+00	0	34	0	1860173824	32	5489
2026-01-05 20:45:01.13	354.25	25.66	-29.0	-29.6	27.8	0.00e+00	0	34	0	1867513856	32	5448
2026-01-05 20:45:02.13	354.02	25.76	-29.1	-29.7	27.8	0.00e+00	0	34	0	1873805312	32	5564
2026-01-05 20:45:03.14	353.79	25.87	-29.2	-29.8	27.7	0.00e+00	0	34	0	1881145344	32	5629
2026-01-05 20:45:04.15	353.55	25.97	-29.1	-29.7	27.6	0.00e+00	0	34	0	1888485376	32	5531
2026-01-05 20:45:05.16	353.32	26.08	-29.2	-29.8	27.6	0.00e+00	0	34	0	1895825408	32	5616
2026-01-05 20:45:06.17	353.08	26.18	-29.2	-29.8	27.8	0.00e+00	0	34	0	1903165440	32	5575
2026-01-05 20:45:07.18	352.84	26.28	-29.1	-29.7	27.7	0.00e+00	0	34	0	1910505472	32	5538
2026-01-05 20:45:08.20	352.59	26.39	-29.2	-29.8	27.8	0.00e+00	0	34	0	1917845504	32	5604
2026-01-05 20:45:09.21	352.35	26.49	-29.2	-29.8	27.8	0.00e+00	0	34	0	1925185536	32	5582
2026-01-05 20:45:10.22	352.10	26.60	-29.1	-29.7	27.9	0.00e+00	0	34	0	1932525568	32	5552
2026-01-05 20:45:11.23	351.86	26.70	-29.0	-29.6	27.9	0.00e+00	0	34	0	1939865600	32	5482
2026-01-05 20:45:12.23	351.61	26.80	-29.0	-29.6	28.0	0.00e+00	0	34	0	1947205632	32	5455
2026-01-05 20:45:13.24	351.36	26.91	-29.1	-29.7	28.0	0.00e+00	0	34	0	1954545664	32	5521
2026-01-05 20:45:14.25	351.11	27.01	-29.0	-29.6	28.0	0.00e+00	0	34	0	1961885696	32	5481
2026-01-05 20:45:15.26	350.85	27.11	-29.0	-29.6	27.9	0.00e+00	0	34	0	1969225728	32	5486
2026-01-05 20:45:16.27	350.60	27.22	-29.1	-29.7	27.9	0.00e+00	0	34	0	1976565760	32	5530
2026-01-05 20:45:17.28	350.34	27.32	-29.1	-29.7	27.9	0.00e+00	0	34	0	1983905792	32	5533
2026-01-05 20:45:18.29	350.08	27.42	-29.2	-29.8	27.8	0.00e+00	0	34	0	1991245824	32	5568
2026-01-05 20:45:19.29	349.83	27.52	-29.3	-29.9	27.7	0.00e+00	0	34	0	1998585856	32	5695
2026-01-05 20:45:20.30	349.56	27.62	-29.4	-30.0	27.7	0.00e+00	0	34	0	2004877312	32	5703
2026-01-05 20:45:21.31	349.30	27.72	-29.2	-29.8	27.9	0.00e+00	0	34	0	2013265920	32	5611
2026-01-05 20:45:22.32	349.04	27.82	-29.2	-29.8	27.9	0.00e+00	0	34	0	2020605952	32	5591
2026-01-05 20:45:23.33	348.77	27.93	-29.0	-29.6	28.1	0.00e+00	0	34	0	2026897408	32	5464
2026-01-05 20:45:24.34	348.50	28.03	-29.0	-29.6	28.1	0.00e+00	0	34	0	2034237440	32	5447
2026-01-05 20:45:25.35	348.23	28.13	-28.8	-29.3	28.2	0.00e+00	0	34	0	2041577472	30	5962
2026-01-05 20:45:26.36	347.96	28.23	-28.8	-29.4	28.1	0.00e+00	0	34	0	2048917504	30	6013
2026-01-05 20:45:27.38	347.68	28.33	-28.9	-29.5	28.1	0.00e+00	0	34	0	2056257536	30	6085
2026-01-05 20:45:28.38	347.41	28.42	-29.0	-29.6	28.0	0.00e+00	0	34	0	2063597568	30	6130
2026-01-05 20:45:29.39	347.13	28.52	-28.9	-29.5	28.0	0.00e+00	0	34	0	2070937600	30	6088
2026-01-05 20:45:30.40	346.85	28.62	-29.1	-29.7	27.9	0.00e+00	0	34	0	2078277632	30	6233
2026-01-05 20:45:31.42	346.57	28.72	-29.2	-29.8	27.9	0.00e+00	0	34	0	2085617664	30	6257
2026-01-05 20:45:32.43	346.29	28.82	-29.3	-29.9	27.8	0.00e+00	0	34	0	2092957696	30	6334
2026-01-05 20:45:33.44	346.00	28.91	-29.3	-29.9	27.8	0.00e+00	0	34	0	2100297728	30	6356
2026-01-05 20:45:34.44	345.72	29.01	-29.2	-29.8	27.9	0.00e+00	0	34	0	2107637760	30	6260
2026-01-05 20:45:35.45	345.43	29.10	-29.0	-29.6	27.9	0.00e+00	0	34	0	2114977792	30	6134
2026-01-05 20:45:36.47	345.14	29.20	-29.1	-29.7	27.9	0.00e+00	0	34	0	2122317824	30	6222
2026-01-05 20:45:37.47	344.85	29.29	-29.0	-29.6	28.0	0.00e+00	0	34	0	2129657856	30	6143
2026-01-05 20:45:38.48	344.56	29.39	-29.1	-29.7	27.9	0.00e+00	0	34	0	2136997888	30	6237
2026-01-05 20:45:39.49	344.26	29.48	-29.1	-29.7	27.9	0.00e+00	0	34	0	2144337920	30	6227
2026-01-05 20:45:40.50	343.97	29.57	-29.2	-29.8	27.9	0.00e+00	0	34	0	2150629376	30	6254
2026-01-05 20:45:41.51	343.67	29.67	-29.3	-29.9	27.8	0.00e+00	0	34	0	2157969408	30	6363
2026-01-05 20:45:42.52	343.37	29.76	-29.2	-29.8	27.9	0.00e+00	0	34	0	2166358016	30	6259
2026-01-05 20:45:43.53	343.07	29.85	-29.0	-29.5	28.1	0.00e+00	0	34	0	2172649472	30	6103
2026-01-05 20:45:44.54	342.76	29.94	-28.8	-29.4	28.2	0.00e+00	0	34	0	2179989504	30	6026
2026-01-05 20:45:45.55	342.46	30.03	-28.8	-29.3	28.2	0.00e+00	0	34	0	2187329536	30	5953
2026-01-05 20:45:46.56	342.15	30.12	-28.6	-29.2	28.3	0.00e+00	0	34	0	2194669568	30	5846
2026-01-05 20:45:47.56	341.85	30.21	-28.5	-29.1	28.4	0.00e+00	0	34	0	2202009600	30	5796
2026-01-05 20:45:48.58	341.53	30.30	-28.6	-29.2	28.3	0.00e+00	0	34	0	2209349632	30	5844
2026-01-05 20:45:49.59	341.22	30.39	-28.5	-29.1	28.3	0.00e+00	0	34	0	2216689664	30	5812
2026-01-05 20:45:50.60	340.91	30.47	-28.7	-29.3	28.2	0.00e+00	0	34	0	2224029696	30	5908
2026-01-05 20:45:51.61	340.59	30.56	-28.7	-29.3	28.2	0.00e+00	0	34	0	2231369728	30	5933
2026-01-05 20:45:52.62	340.28	30.64	-28.8	-29.4	28.1	0.00e+00	0	34	0	2238709760	30	5976
2026-01-05 20:45:53.62	339.96	30.73	-28.8	-29.4	28.1	0.00e+00	0	34	0	2246049792	30	6001
2026-01-05 20:45:54.63	339.64	30.81	-28.6	-29.2	28.3	0.00e+00	0	34	0	2253389824	30	5853
2026-01-05 20:45:55.64	339.32	30.90	-28.7	-29.3	28.2	0.00e+00	0	34	0	2260729856	30	5927
2026-01-05 20:45:56.65	339.00	30.98	-28.8	-29.4	28.0	0.00e+00	0	34	0	2268069888	30	6001
2026-01-05 20:45:57.66	338.67	31.06	-29.0	-29.6	28.0	0.00e+00	0	34	0	2275409920	30	6120
2026-01-05 20:45:58.67	338.34	31.14	-28.9	-29.5	28.0	0.00e+00	0	34	0	2282749952	30	6075
2026-01-05 20:45:59.67	338.02	31.22	-28.8	-29.4	28.1	0.00e+00	0	34	0	2290089984	30	6020
2026-01-05 20:46:00.68	337.69	31.30	-28.7	-29.3	28.3	0.00e+00	0	34	0	2297430016	30	5936
2026-01-05 20:46:01.69	337.36	31.38	-28.6	-29.2	28.3	0.00e+00	0	34	0	2303721472	30	5881
2026-01-05 20:46:02.70	337.02	31.45	-28.5	-29.1	28.4	0.00e+00	0	34	0	2311061504	30	5797
2026-01-05 20:46:03.71	336.69	31.53	-28.4	-29.0	28.4	0.00e+00	0	34	0	2318401536	30	5744
2026-01-05 20:46:04.72	336.35	31.61	-28.5	-29.0	28.4	0.00e+00	0	34	0	2325741568	30	5760
2026-01-05 20:46:05.73	336.01	31.68	-28.6	-29.2	28.2	0.00e+00	0	34	0	2333081600	30	5844
2026-01-05 20:46:06.74	335.67	31.75	-28.5	-29.1	28.5	0.00e+00	0	34	0	2340421632	30	5770
2026-01-05 20:46:07.75	335.33	31.83	-28.3	-28.9	28.5	0.00e+00	0	34	0	2347761664	30	5654
2026-01-05 20:46:08.76	334.99	31.90	-28.4	-29.0	28.5	0.00e+00	0	34	0	2355101696	30	5703
2026-01-05 20:46:09.77	334.65	31.97	-28.5	-29.1	28.4	0.00e+00	0	34	0	2362441728	30	5782
2026-01-05 20:46:10.78	334.30	32.04	-28.6	-29.2	28.4	0.00e+00	0	34	0	2369781760	30	5863
2026-01-05 20:46:11.79	333.95	32.11	-28.5	-29.1	28.4	0.00e+00	0	34	0	2377121792	30	5795
2026-01-05 20:46:12.80	333.60	32.17	-28.4	-29.0	28.5	0.00e+00	0	34	0	2384461824	30	5723
2026-01-05 20:46:13.81	333.25	32.24	-28.6	-29.2	28.4	0.00e+00	0	34	0	2391801856	30	5856
2026-01-05 20:46:14.82	332.90	32.31	-28.6	-29.2	28.3	0.00e+00	0	34	0	2399141888	30	5839
2026-01-05 20:46:15.83	332.55	32.37	-28.6	-29.2	28.3	0.00e+00	0	34	0	2406481920	30	5836
2026-01-05 20:46:16.84	332.19	32.43	-28.5	-29.1	28.4	0.00e+00	0	34	0	2413821952	30	5780
2026-01-05 20:46:17.85	331.84	32.50	-28.4	-29.0	28.5	0.00e+00	0	34	0	2421161984	30	5711
2026-01-05 20:46:18.86	331.48	32.56	-28.3	-28.9	28.5	0.00e+00	0	34	0	2427453440	30	5677
2026-01-05 20:46:19.86	331.12	32.62	-28.3	-28.9	28.5	0.00e+00	0	34	0	2435842048	30	5682
2026-01-05 20:46:20.88	330.76	32.68	-28.2	-28.8	28.6	0.00e+00	0	34	0	2443182080	30	5597
2026-01-05 20:46:21.89	330.40	32.73	-28.2	-28.8	28.5	0.00e+00	0	34	0	2449473536	30	5581
2026-01-05 20:46:22.89	330.04	32.79	-28.1	-28.7	28.6	0.00e+00	0	34	0	2456813568	30	5540
2026-01-05 20:46:23.90	329.68	32.84	-28.3	-28.9	28.5	0.00e+00	0	34	0	2464153600	30	5660
2026-01-05 20:46:24.91	329.31	32.90	-28.4	-29.0	28.4	0.00e+00	0	34	0	2471493632	30	5710
2026-01-05 20:46:25.92	328.95	32.95	-28.5	-29.1	28.4	0.00e+00	0	34	0	2478833664	30	5784
2026-01-05 20:46:26.93	328.58	33.00	-28.5	-29.1	28.4	0.00e+00	0	34	0	2486173696	30	5786
2026-01-05 20:46:27.94	328.21	33.05	-28.5	-29.1	28.4	0.00e+00	0	34	0	2493513728	30	5770
2026-01-05 20:46:28.95	327.84	33.10	-28.7	-29.2	28.3	0.00e+00	0	34	0	2500853760	30	5896
2026-01-05 20:46:29.96	327.47	33.15	-28.6	-29.1	28.3	0.00e+00	0	34	0	2508193792	30	5812
2026-01-05 20:46:30.97	327.10	33.20	-28.6	-29.2	28.2	0.00e+00	0	34	0	2515533824	30	5880
2026-01-05 20:46:31.98	326.72	33.24	-28.6	-29.2	28.3	0.00e+00	0	34	0	2522873856	30	5841
2026-01-05 20:46:32.99	326.35	33.29	-28.5	-29.1	28.5	0.00e+00	0	34	0	2530213888	30	5781
2026-01-05 20:46:34.00	325.97	33.33	-28.4	-29.0	28.6	0.00e+00	0	34	0	2537553920	30	5699
2026-01-05 20:46:35.01	325.60	33.37	-28.5	-29.1	28.4	0.00e+00	0	34	0	2544893952	30	5781
2026-01-05 20:46:36.02	325.22	33.41	-28.3	-28.9	28.6	0.00e+00	0	34	0	2552233984	30	5632
2026-01-05 20:46:37.03	324.84	33.45	-28.3	-28.9	28.5	0.00e+00	0	34	0	2559574016	30	5662
2026-01-05 20:46:38.04	324.46	33.48	-28.4	-28.9	28.5	0.00e+00	0	34	0	2566914048	30	5690
2026-01-05 20:46:39.05	324.08	33.52	-28.4	-29.0	28.5	0.00e+00	0	34	0	2574254080	30	5721
2026-01-05 20:46:40.06	323.70	33.55	-28.6	-29.2	28.3	0.00e+00	0	34	0	2581594112	30	5891
2026-01-05 20:46:41.07	323.32	33.59	-28.9	-29.5	28.1	0.00e+00	0	34	0	2588934144	30	6041
2026-01-05 20:46:42.09	322.94	33.62	-28.5	-29.1	28.4	0.00e+00	0	34	0	2596274176	30	5767
2026-01-05 20:46:43.09	322.56	33.65	-28.3	-28.9	28.5	0.00e+00	0	34	0	2602565632	30	5673
2026-01-05 20:46:44.10	322.17	33.68	-28.4	-29.0	28.4	0.00e+00	0	34	0	2609905664	30	5744
2026-01-05 20:46:45.11	321.79	33.70	-28.6	-29.1	28.3	0.00e+00	0	34	0	2618294272	30	5822
2026-01-05 20:46:46.12	321.40	33.73	-28.7	-29.2	28.2	0.00e+00	0	34	0	2624585728	30	5891
2026-01-05 20:46:47.13	321.02	33.75	-28.8	-29.3	28.4	0.00e+00	0	34	0	2631925760	30	5960
2026-01-05 20:46:48.14	320.63	33.78	-28.7	-29.3	28.1	0.00e+00	0	34	0	2639265792	30	5961
2026-01-05 20:46:49.15	320.25	33.80	-28.7	-29.3	28.1	0.00e+00	0	34	0	2646605824	30	5901
2026-01-05 20:46:50.16	319.86	33.82	-28.8	-29.4	28.2	0.00e+00	0	34	0	2653945856	30	5989
2026-01-05 20:46:51.17	319.47	33.84	-28.6	-29.2	28.3	0.00e+00	0	34	0	2661285888	30	5856
2026-01-05 20:46:52.18	319.08	33.85	-28.8	-29.4	28.0	0.00e+00	0	34	0	2668625920	30	5976
2026-01-05 20:46:53.19	318.70	33.87	-28.4	-29.0	28.5	0.00e+00	0	34	0	2675965952	30	5733
2026-01-05 20:46:54.19	318.31	33.88	-28.5	-29.1	28.4	0.00e+00	0	34	0	2683305984	30	5795
2026-01-05 20:46:55.20	317.92	33.89	-28.4	-29.0	28.4	0.00e+00	0	34	0	2690646016	30	5745
2026-01-05 20:46:56.21	317.53	33.90	-28.7	-29.2	28.2	0.00e+00	0	34	0	2697986048	30	5880
2026-01-05 20:46:57.22	317.14	33.91	-28.4	-29.0	28.4	0.00e+00	0	34	0	2705326080	30	5713
2026-01-05 20:46:58.23	316.75	33.92	-28.3	-28.9	28.6	0.00e+00	0	34	0	2712666112	30	5653
2026-01-05 20:46:59.24	316.36	33.93	-28.5	-29.0	28.5	0.00e+00	0	34	0	2720006144	30	5758
2026-01-05 20:47:00.25	315.97	33.93	-28.3	-28.8	28.5	0.00e+00	0	34	0	2726297600	30	5627
2026-01-05 20:47:01.26	315.58	33.94	-28.1	-28.7	28.6	0.00e+00	0	34	0	2733637632	30	5550
2026-01-05 20:47:02.27	315.19	33.94	-28.1	-28.7	28.7	0.00e+00	0	34	0	2742026240	30	5510
2026-01-05 20:47:03.27	314.81	33.94	-28.1	-28.7	28.6	0.00e+00	0	34	0	2748317696	30	5554
2026-01-05 20:47:04.29	314.41	33.94	-28.3	-28.9	28.6	0.00e+00	0	34	0	2755657728	30	5685
2026-01-05 20:47:05.30	314.02	33.94	-28.5	-29.0	28.4	0.00e+00	0	34	0	2762997760	30	5754
2026-01-05 20:47:06.31	313.63	33.93	-28.6	-29.2	28.3	0.00e+00	0	34	0	2770337792	30	5851
2026-01-05 20:47:07.31	313.24	33.93	-28.8	-29.3	28.2	0.00e+00	0	34	0	2777677824	30	5964
2026-01-05 20:47:08.33	312.85	33.92	-28.7	-29.3	28.2	0.00e+00	0	34	0	2785017856	30	5920
2026-01-05 20:47:09.34	312.46	33.91	-28.6	-29.2	28.3	0.00e+00	0	34	0	2792357888	30	5836
2026-01-05 20:47:10.35	312.07	33.90	-28.4	-29.0	28.4	0.00e+00	0	34	0	2799697920	30	5708
2026-01-05 20:47:11.36	311.68	33.89	-28.5	-29.1	28.3	0.00e+00	0	34	0	2807037952	30	5793
2026-01-05 20:47:12.37	311.29	33.87	-28.4	-29.0	28.5	0.00e+00	0	34	0	2814377984	30	5738
2026-01-05 20:47:13.38	310.90	33.86	-28.4	-29.0	28.5	0.00e+00	0	34	0	2821718016	30	5728
2026-01-05 20:47:14.39	310.52	33.84	-28.6	-29.1	28.0	0.00e+00	0	34	0	2829058048	30	5827
2026-01-05 20:47:15.39	310.13	33.83	-28.7	-29.3	28.1	0.00e+00	0	34	0	2836398080	30	5907
2026-01-05 20:47:16.40	309.74	33.81	-28.6	-29.1	28.2	0.00e+00	0	34	0	2843738112	30	5820
2026-01-05 20:47:17.41	309.36	33.79	-28.4	-29.0	28.5	0.00e+00	0	34	0	2851078144	30	5712
2026-01-05 20:47:18.42	308.97	33.76	-28.5	-29.1	28.3	0.00e+00	0	34	0	2858418176	30	5782
2026-01-05 20:47:19.43	308.59	33.74	-28.7	-29.3	27.9	0.00e+00	0	34	0	2865758208	30	5916
2026-01-05 20:47:20.44	308.20	33.72	-28.6	-29.2	28.3	0.00e+00	0	34	0	2873098240	30	5869
2026-01-05 20:47:21.45	307.82	33.69	-28.5	-29.1	28.3	0.00e+00	0	34	0	2879389696	30	5796
2026-01-05 20:47:22.46	307.43	33.66	-28.6	-29.1	28.4	0.00e+00	0	34	0	2887778304	30	5819
2026-01-05 20:47:23.47	307.05	33.63	-28.3	-28.8	28.5	0.00e+00	0	34	0	2895118336	30	5627
2026-01-05 20:47:24.48	306.66	33.60	-28.3	-28.8	28.5	0.00e+00	0	34	0	2901409792	30	5621
2026-01-05 20:47:25.49	306.28	33.57	-28.4	-29.0	28.5	0.00e+00	0	34	0	2908749824	30	5698
2026-01-05 20:47:26.50	305.90	33.53	-28.4	-29.0	28.5	0.00e+00	0	34	0	2916089856	30	5703
2026-01-05 20:47:27.51	305.52	33.50	-28.2	-28.7	28.7	0.00e+00	0	34	0	2923429888	30	5557
2026-01-05 20:47:28.51	305.15	33.46	-28.3	-28.9	28.5	0.00e+00	0	34	0	2930769920	30	5635
2026-01-05 20:47:29.52	304.77	33.43	-28.2	-28.8	28.6	0.00e+00	0	34	0	2938109952	30	5568
2026-01-05 20:47:30.53	304.39	33.39	-28.5	-29.1	28.4	0.00e+00	0	34	0	2945449984	30	5764
2026-01-05 20:47:31.54	304.01	33.35	-28.4	-29.0	28.4	0.00e+00	0	34	0	2952790016	30	5748
2026-01-05 20:47:32.55	303.64	33.30	-28.5	-29.1	28.4	0.00e+00	0	34	0	2960130048	30	5771
2026-01-05 20:47:33.56	303.26	33.26	-28.2	-28.8	28.6	0.00e+00	0	34	0	2967470080	30	5587
2026-01-05 20:47:34.57	302.89	33.22	-28.2	-28.8	28.6	0.00e+00	0	34	0	2974810112	30	5598
2026-01-05 20:47:35.58	302.51	33.17	-28.3	-28.9	28.5	0.00e+00	0	34	0	2982150144	30	5672
2026-01-05 20:47:36.59	302.14	33.12	-28.3	-28.9	28.5	0.00e+00	0	34	0	2989490176	30	5640
2026-01-05 20:47:37.60	301.77	33.08	-28.4	-28.9	28.4	0.00e+00	0	34	0	2996830208	30	5691
2026-01-05 20:47:38.61	301.40	33.03	-28.5	-29.1	28.4	0.00e+00	0	34	0	3004170240	30	5799
2026-01-05 20:47:39.62	301.03	32.97	-28.5	-29.1	28.4	0.00e+00	0	34	0	3011510272	30	5798
2026-01-05 20:47:40.63	300.66	32.92	-28.6	-29.2	28.5	0.00e+00	0	34	0	3018850304	30	5834
2026-01-05 20:47:41.64	300.30	32.87	-28.3	-28.9	28.6	0.00e+00	0	34	0	3026190336	30	5661
2026-01-05 20:47:42.65	299.93	32.81	-28.4	-28.9	28.4	0.00e+00	0	34	0	3032481792	30	5692
2026-01-05 20:47:43.66	299.57	32.76	-28.4	-29.0	28.4	0.00e+00	0	34	0	3040870400	30	5756
2026-01-05 20:47:44.67	299.21	32.70	-28.5	-29.1	28.3	0.00e+00	0	34	0	3048210432	30	5810
2026-01-05 20:47:45.68	298.85	32.64	-28.6	-29.2	28.4	0.00e+00	0	34	0	3054501888	30	5852
2026-01-05 20:47:46.69	298.49	32.58	-28.5	-29.1	28.4	0.00e+00	0	34	0	3061841920	30	5767
2026-01-05 20:47:47.70	298.13	32.52	-28.6	-29.2	28.3	0.00e+00	0	34	0	3069181952	30	5886
2026-01-05 20:47:48.71	297.77	32.46	-28.8	-29.3	28.2	0.00e+00	0	34	0	3076521984	30	5964
2026-01-05 20:47:49.72	297.41	32.40	-28.6	-29.2	28.3	0.00e+00	0	34	0	3083862016	30	5885
2026-01-05 20:47:50.73	297.06	32.33	-28.5	-29.1	28.4	0.00e+00	0	34	0	3091202048	30	5817
2026-01-05 20:47:51.73	296.71	32.27	-28.6	-29.2	28.2	0.00e+00	0	34	0	3098542080	30	5848
2026-01-05 20:47:52.74	296.36	32.20	-28.8	-29.4	28.2	0.00e+00	0	34	0	3105882112	30	5968
2026-01-05 20:47:53.75	296.01	32.14	-28.6	-29.1	28.4	0.00e+00	0	34	0	3113222144	30	5828
2026-01-05 20:47:54.76	295.66	32.07	-28.4	-29.0	28.4	0.00e+00	0	34	0	3120562176	30	5757
2026-01-05 20:47:55.77	295.31	32.00	-28.5	-29.1	28.5	0.00e+00	0	34	0	3127902208	30	5773
2026-01-05 20:47:56.78	294.97	31.93	-28.5	-29.1	28.4	0.00e+00	0	34	0	3135242240	30	5795
2026-01-05 20:47:57.79	294.62	31.86	-28.4	-28.9	28.5	0.00e+00	0	34	0	3142582272	30	5692
2026-01-05 20:47:58.80	294.28	31.78	-28.5	-29.1	28.1	0.00e+00	0	34	0	3149922304	30	5819
2026-01-05 20:47:59.81	293.94	31.71	-28.5	-29.1	28.5	0.00e+00	0	34	0	3157262336	30	5775
2026-01-05 20:48:00.82	293.60	31.64	-28.4	-29.0	28.4	0.00e+00	0	34	0	3164602368	30	5706
2026-01-05 20:48:01.83	293.26	31.56	-28.5	-29.0	28.5	0.00e+00	0	34	0	3171942400	30	5752
2026-01-05 20:48:02.84	292.92	31.49	-28.4	-28.9	28.5	0.00e+00	0	34	0	3178233856	30	5688
2026-01-05 20:48:03.85	292.59	31.41	-28.5	-29.1	28.4	0.00e+00	0	34	0	3185573888	30	5781
2026-01-05 20:48:04.86	292.26	31.33	-28.7	-29.3	28.3	0.00e+00	0	34	0	3193962496	30	5924
2026-01-05 20:48:05.87	291.92	31.25	-28.6	-29.1	28.3	0.00e+00	0	34	0	3200253952	30	5822
2026-01-05 20:48:06.88	291.59	31.17	-28.7	-29.3	28.2	0.00e+00	0	34	0	3207593984	30	5937
2026-01-05 20:48:07.89	291.27	31.09	-28.7	-29.2	28.2	0.00e+00	0	34	0	3214934016	30	5890
2026-01-05 20:48:08.89	290.94	31.01	-28.7	-29.2	28.2	0.00e+00	0	34	0	3222274048	30	5893
2026-01-05 20:48:09.90	290.62	30.93	-28.7	-29.3	28.2	0.00e+00	0	34	0	3229614080	30	5955
2026-01-05 20:48:10.91	290.29	30.84	-28.5	-29.1	28.3	0.00e+00	0	34	0	3236954112	30	5809
2026-01-05 20:48:11.92	289.97	30.76	-28.6	-29.2	28.3	0.00e+00	0	34	0	3244294144	30	5868
2026-01-05 20:48:12.93	289.65	30.68	-28.6	-29.2	28.4	0.00e+00	0	34	0	3251634176	30	5859
2026-01-05 20:48:13.94	289.33	30.59	-28.6	-29.2	28.4	0.00e+00	0	34	0	3258974208	30	5869
2026-01-05 20:48:14.95	289.02	30.51	-28.6	-29.2	28.4	0.00e+00	0	34	0	3266314240	30	5848
2026-01-05 20:48:15.96	288.70	30.42	-28.7	-29.2	28.3	0.00e+00	0	34	0	3273654272	30	5875
2026-01-05 20:48:16.97	288.39	30.33	-28.6	-29.2	28.3	0.00e+00	0	34	0	3280994304	30	5863
2026-01-05 20:48:17.98	288.08	30.24	-28.7	-29.3	28.2	0.00e+00	0	34	0	3288334336	30	5923
2026-01-05 20:48:18.99	287.77	30.15	-28.6	-29.2	28.2	0.00e+00	0	34	0	3295674368	30	5876
2026-01-05 20:48:20.00	287.46	30.06	-28.6	-29.2	28.3	0.00e+00	0	34	0	3303014400	30	5884
2026-01-05 20:48:21.01	287.15	29.97	-28.6	-29.2	28.2	0.00e+00	0	34	0	3309305856	30	5877
2026-01-05 20:48:22.02	286.85	29.88	-28.6	-29.2	28.3	0.00e+00	0	34	0	3317694464	30	5850
2026-01-05 20:48:23.03	286.54	29.79	-28.8	-29.4	28.2	0.00e+00	0	34	0	3325034496	30	5977
2026-01-05 20:48:24.04	286.24	29.70	-28.6	-29.2	28.4	0.00e+00	0	34	0	3331325952	30	5839
2026-01-05 20:48:25.04	285.95	29.61	-28.6	-29.2	28.3	0.00e+00	0	34	0	3338665984	30	5870
2026-01-05 20:48:26.05	285.65	29.51	-28.6	-29.2	28.3	0.00e+00	0	34	0	3346006016	30	5868
2026-01-05 20:48:27.06	285.35	29.42	-28.6	-29.2	28.2	0.00e+00	0	34	0	3353346048	30	5876
2026-01-05 20:48:28.07	285.06	29.33	-28.8	-29.4	28.2	0.00e+00	0	34	0	3360686080	30	5974
2026-01-05 20:48:29.08	284.76	29.23	-28.7	-29.3	28.2	0.00e+00	0	34	0	3368026112	30	5945
2026-01-05 20:48:30.09	284.47	29.14	-28.7	-29.3	28.1	0.00e+00	0	34	0	3375366144	30	5910
2026-01-05 20:48:31.10	284.18	29.04	-28.7	-29.3	28.0	0.00e+00	0	34	0	3382706176	30	5950
2026-01-05 20:48:32.11	283.90	28.94	-28.6	-29.2	28.3	0.00e+00	0	34	0	3390046208	30	5893
2026-01-05 20:48:33.12	283.61	28.85	-28.7	-29.3	28.3	0.00e+00	0	34	0	3397386240	30	5926
2026-01-05 20:48:34.13	283.33	28.75	-28.6	-29.1	28.3	0.00e+00	0	34	0	3404726272	30	5813
2026-01-05 20:48:35.14	283.05	28.65	-28.6	-29.1	28.2	0.00e+00	0	34	0	3412066304	30	5818
2026-01-05 20:48:36.15	282.76	28.55	-28.5	-29.1	28.4	0.00e+00	0	34	0	3419406336	30	5801
2026-01-05 20:48:37.16	282.49	28.46	-28.5	-29.0	28.5	0.00e+00	0	34	0	3426746368	30	5746
2026-01-05 20:48:38.17	282.21	28.36	-28.5	-29.1	28.4	0.00e+00	0	34	0	3434086400	30	5781
2026-01-05 20:48:39.18	281.93	28.26	-28.6	-29.2	28.2	0.00e+00	0	34	0	3441426432	30	5836
2026-01-05 20:48:40.19	281.66	28.16	-28.7	-29.3	28.2	0.00e+00	0	34	0	3448766464	30	5936
2026-01-05 20:48:41.20	281.39	28.06	-28.8	-29.3	28.2	0.00e+00	0	34	0	3455057920	30	5961
2026-01-05 20:48:42.21	281.12	27.96	-28.9	-29.5	28.1	0.00e+00	0	34	0	3463446528	30	6047
2026-01-05 20:48:43.22	280.85	27.86	-28.8	-29.6	24.1	0.00e+00	0	34	0	3470786560	30	6149
2026-01-05 20:48:44.23	280.58	27.75	-28.9	-29.7	24.0	0.00e+00	0	34	0	3477078016	30	6204
2026-01-05 20:48:45.24	280.32	27.65	-29.0	-29.8	24.0	0.00e+00	0	34	0	3484418048	30	6299
2026-01-05 20:48:46.25	280.05	27.55	-29.0	-29.8	24.0	0.00e+00	0	34	0	3491758080	30	6275
2026-01-05 20:48:47.26	279.79	27.45	-29.1	-29.9	24.0	0.00e+00	0	34	0	3499098112	30	6347
2026-01-05 20:48:48.27	279.53	27.35	-28.9	-29.7	24.2	0.00e+00	0	34	0	3506438144	30	6226
2026-01-05 20:48:49.28	279.27	27.24	-28.9	-29.7	24.2	0.00e+00	0	34	0	3513778176	30	6232
2026-01-05 20:48:50.29	279.02	27.14	-29.0	-29.8	24.2	0.00e+00	0	34	0	3521118208	30	6267
2026-01-05 20:48:51.30	278.76	27.04	-28.8	-29.6	24.3	0.00e+00	0	34	0	3528458240	30	6115
2026-01-05 20:48:52.31	278.51	26.94	-28.8	-29.6	24.3	0.00e+00	0	34	0	3535798272	30	6141
2026-01-05 20:48:53.32	278.26	26.83	-28.7	-29.5	24.3	0.00e+00	0	34	0	3543138304	30	6056
2026-01-05 20:48:54.33	278.01	26.73	-28.8	-29.6	24.4	0.00e+00	0	34	0	3550478336	30	6144
2026-01-05 20:48:55.34	277.76	26.62	-28.7	-29.5	24.4	0.00e+00	0	34	0	3557818368	30	6080
2026-01-05 20:48:56.35	277.51	26.52	-28.8	-29.6	24.3	0.00e+00	0	34	0	3565158400	30	6115
2026-01-05 20:48:57.36	277.26	26.42	-28.8	-29.5	24.0	0.00e+00	0	34	0	3572498432	30	6102
2026-01-05 20:48:58.37	277.02	26.31	-28.9	-29.6	24.1	0.00e+00	0	34	0	3579838464	30	6169
2026-01-05 20:48:59.38	276.78	26.21	-29.0	-29.8	24.0	0.00e+00	0	34	0	3587178496	30	6256
2026-01-05 20:49:00.39	276.54	26.10	-29.0	-29.8	24.1	0.00e+00	0	34	0	3594518528	30	6291
2026-01-05 20:49:01.40	276.30	26.00	-29.0	-29.8	24.1	0.00e+00	0	34	0	3601858560	30	6253
2026-01-05 20:49:02.41	276.06	25.89	-28.9	-29.7	24.0	0.00e+00	0	34	0	3609198592	30	6235
2026-01-05 20:49:03.42	275.83	25.79	-28.8	-29.6	24.2	0.00e+00	0	34	0	3616538624	30	6138
2026-01-05 20:49:04.43	275.59	25.68	-29.0	-29.8	24.2	0.00e+00	0	34	0	3623878656	30	6248
2026-01-05 20:49:05.44	275.36	25.58	-28.8	-29.6	24.2	0.00e+00	0	34	0	3630170112	30	6131
2026-01-05 20:49:06.45	275.13	25.47	-28.8	-29.6	24.4	0.00e+00	0	34	0	3637510144	30	6144
2026-01-05 20:49:07.46	274.90	25.36	-28.8	-29.6	24.4	0.00e+00	0	34	0	3644850176	30	6126
2026-01-05 20:49:08.47	274.67	25.26	-28.8	-29.5	24.4	0.00e+00	0	34	0	3652190208	30	6097
2026-01-05 20:49:09.47	274.45	25.15	-28.8	-29.5	24.3	0.00e+00	0	34	0	3659530240	30	6090
2026-01-05 20:49:10.48	274.22	25.05	-28.8	-29.6	24.2	0.00e+00	0	34	0	3666870272	30	6106
2026-01-05 20:49:11.49	274.00	24.94	-28.8	-29.6	24.2	0.00e+00	0	34	0	3674210304	30	6149
2026-01-05 20:49:12.50	273.78	24.84	-28.9	-29.7	24.1	0.00e+00	0	34	0	3681550336	30	6212
2026-01-05 20:49:13.51	273.56	24.73	-29.0	-29.8	24.1	0.00e+00	0	34	0	3688890368	30	6297
2026-01-05 20:49:14.52	273.34	24.62	-29.2	-30.0	24.0	0.00e+00	0	34	0	3696230400	30	6426
2026-01-05 20:49:15.53	273.12	24.52	-29.2	-30.0	23.9	0.00e+00	0	34	0	3703570432	30	6433
2026-01-05 20:49:16.54	272.91	24.41	-29.2	-30.0	23.9	0.00e+00	0	34	0	3710910464	30	6452
2026-01-05 20:49:17.55	272.69	24.31	-29.1	-29.9	24.0	0.00e+00	0	34	0	3718250496	30	6387
2026-01-05 20:49:18.56	272.48	24.20	-29.3	-30.1	24.0	0.00e+00	0	34	0	3725590528	30	6493
2026-01-05 20:49:19.57	272.27	24.09	-29.4	-30.2	24.2	0.00e+00	0	34	0	3732930560	30	6566
2026-01-05 20:49:20.57	272.06	23.99	-28.9	-29.7	24.4	0.00e+00	0	34	0	3740270592	30	6219
2026-01-05 20:49:21.58	271.85	23.88	-29.0	-29.8	24.5	0.00e+00	0	34	0	3747610624	30	6288
2026-01-05 20:49:22.59	271.64	23.78	-29.0	-29.7	24.6	0.00e+00	0	34	0	3753902080	30	6235
2026-01-05 20:49:23.60	271.44	23.67	-28.8	-29.5	24.6	0.00e+00	0	34	0	3761242112	30	6083
2026-01-05 20:49:24.61	271.23	23.56	-28.8	-29.6	24.5	0.00e+00	0	34	0	3769630720	30	6139
2026-01-05 20:49:25.62	271.03	23.46	-29.0	-29.7	24.4	0.00e+00	0	34	0	3775922176	30	6245
2026-01-05 20:49:26.63	270.83	23.35	-29.0	-29.8	24.2	0.00e+00	0	34	0	3783262208	30	6257
2026-01-05 20:49:27.64	270.63	23.25	-29.1	-29.9	24.2	0.00e+00	0	34	0	3790602240	30	6326
2026-01-05 20:49:28.65	270.43	23.14	-29.0	-29.8	24.0	0.00e+00	0	34	0	3797942272	30	6246
2026-01-05 20:49:29.66	270.23	23.03	-29.1	-29.9	24.0	0.00e+00	0	34	0	3805282304	30	6331
2026-01-05 20:49:30.67	270.04	22.93	-29.0	-29.8	23.9	0.00e+00	0	34	0	3812622336	30	6290
2026-01-05 20:49:31.68	269.84	22.82	-28.9	-29.7	24.1	0.00e+00	0	34	0	3819962368	30	6183
2026-01-05 20:49:32.69	269.65	22.72	-28.9	-29.7	24.1	0.00e+00	0	34	0	3827302400	30	6220
2026-01-05 20:49:33.70	269.45	22.61	-28.9	-29.7	24.0	0.00e+00	0	34	0	3834642432	30	6185
2026-01-05 20:49:34.71	269.26	22.51	-29.0	-29.8	24.1	0.00e+00	0	34	0	3841982464	30	6276
2026-01-05 20:49:35.72	269.07	22.40	-29.0	-29.8	24.1	0.00e+00	0	34	0	3849322496	30	6249
2026-01-05 20:49:36.73	268.89	22.30	-29.0	-29.8	24.1	0.00e+00	0	34	0	3856662528	30	6251
2026-01-05 20:49:37.74	268.70	22.19	-29.0	-29.8	24.1	0.00e+00	0	34	0	3864002560	30	6280
2026-01-05 20:49:38.75	268.51	22.09	-29.2	-30.0	23.8	0.00e+00	0	34	0	3871342592	30	6415
2026-01-05 20:49:39.76	268.33	21.98	-29.1	-29.9	24.0	0.00e+00	0	34	0	3878682624	30	6370
2026-01-05 20:49:40.77	268.15	21.88	-29.1	-29.9	24.1	0.00e+00	0	34	0	3886022656	30	6366
2026-01-05 20:49:41.78	267.96	21.77	-29.4	-30.2	24.0	0.00e+00	0	34	0	3893362688	30	6551
2026-01-05 20:49:42.79	267.78	21.67	-29.5	-30.2	24.0	0.00e+00	0	34	0	3900702720	30	6610
2026-01-05 20:49:43.80	267.60	21.56	-29.5	-30.3	24.1	0.00e+00	0	34	0	3906994176	30	6631
2026-01-05 20:49:44.81	267.43	21.46	-29.5	-30.3	24.0	0.00e+00	0	34	0	3914334208	30	6635
2026-01-05 20:49:45.82	267.25	21.35	-29.6	-30.3	24.0	0.00e+00	0	34	0	3922722816	30	6685
2026-01-05 20:49:46.83	267.07	21.25	-29.5	-30.3	24.0	0.00e+00	0	34	0	3929014272	30	6648
2026-01-05 20:49:47.84	266.90	21.15	-29.4	-30.2	24.0	0.00e+00	0	34	0	3936354304	30	6579
2026-01-05 20:49:48.85	266.72	21.04	-29.5	-30.3	23.9	0.00e+00	0	34	0	3943694336	30	6672
2026-01-05 20:49:49.86	266.55	20.94	-29.6	-30.4	23.8	0.00e+00	0	34	0	3951034368	30	6741
2026-01-05 20:49:50.87	266.38	20.84	-29.7	-30.5	23.7	0.00e+00	0	34	0	3958374400	30	6818
2026-01-05 20:49:51.88	266.21	20.73	-29.7	-30.5	23.7	0.00e+00	0	34	0	3965714432	32	6071
2026-01-05 20:49:52.89	266.04	20.63	-29.7	-30.5	23.7	0.00e+00	0	34	0	3973054464	32	6047
2026-01-05 20:49:53.90	265.87	20.53	-29.6	-30.4	23.7	0.00e+00	0	34	0	3980394496	32	5998
2026-01-05 20:49:54.91	265.71	20.42	-29.5	-30.2	23.9	0.00e+00	0	34	0	3987734528	32	5889
2026-01-05 20:49:55.91	265.54	20.32	-29.5	-30.3	24.0	0.00e+00	0	34	0	3995074560	32	5917
2026-01-05 20:49:56.92	265.38	20.22	-29.6	-30.3	23.9	0.00e+00	0	34	0	4002414592	32	5943
2026-01-05 20:49:57.93	265.22	20.12	-29.5	-30.3	24.1	0.00e+00	0	34	0	4009754624	32	5919
2026-01-05 20:49:58.94	265.05	20.01	-29.4	-30.2	24.2	0.00e+00	0	34	0	4017094656	32	5861
2026-01-05 20:49:59.95	264.89	19.91	-29.5	-30.3	24.1	0.00e+00	0	34	0	4024434688	32	5924
2026-01-05 20:50:00.96	264.73	19.81	-29.6	-30.3	24.0	0.00e+00	0	34	0	4031774720	32	5947
2026-01-05 20:50:01.97	264.57	19.71	-29.7	-30.5	24.0	0.00e+00	0	34	0	4039114752	32	6040
2026-01-05 20:50:02.98	264.42	19.61	-29.7	-30.5	23.6	0.00e+00	0	34	0	4046454784	32	6043
2026-01-05 20:50:03.99	264.26	19.51	-29.7	-30.5	24.0	0.00e+00	0	34	0	4052746240	32	6060
2026-01-05 20:50:05.00	264.10	19.41	-29.9	-30.6	23.9	0.00e+00	0	34	0	4060086272	32	6153
2026-01-05 20:50:06.01	263.95	19.30	-29.8	-30.6	23.8	0.00e+00	0	34	0	4068474880	32	6106
2026-01-05 20:50:07.02	263.80	19.20	-29.7	-30.5	24.1	0.00e+00	0	34	0	4074766336	32	6051
2026-01-05 20:50:08.03	263.64	19.10	-29.7	-30.5	23.9	0.00e+00	0	34	0	4082106368	32	6035
2026-01-05 20:50:09.05	263.49	19.00	-29.6	-30.4	24.0	0.00e+00	0	34	0	4089446400	32	5981
2026-01-05 20:50:10.06	263.34	18.90	-29.7	-30.4	23.7	0.00e+00	0	34	0	4096786432	32	6011
2026-01-05 20:50:11.07	263.19	18.80	-29.9	-30.6	23.8	0.00e+00	0	34	0	4104126464	32	6170
2026-01-05 20:50:12.07	263.04	18.70	-30.0	-30.8	23.7	0.00e+00	0	34	0	4111466496	32	6248
2026-01-05 20:50:13.08	262.89	18.60	-30.0	-30.8	23.7	0.00e+00	0	34	0	4118806528	32	6298
2026-01-05 20:50:14.09	262.75	18.50	-30.1	-30.9	23.6	0.00e+00	0	34	0	4126146560	32	6364
2026-01-05 20:50:15.10	262.60	18.41	-30.2	-31.0	23.6	0.00e+00	0	34	0	4133486592	32	6432
2026-01-05 20:50:16.11	262.46	18.31	-30.3	-31.1	23.5	0.00e+00	0	34	0	4140826624	32	6512
2026-01-05 20:50:17.12	262.31	18.21	-30.3	-31.1	23.5	0.00e+00	0	34	0	4148166656	32	6528
2026-01-05 20:50:18.13	262.17	18.11	-30.4	-31.2	23.4	0.00e+00	0	34	0	4155506688	32	6567
2026-01-05 20:50:19.14	262.03	18.01	-30.4	-31.2	23.4	0.00e+00	0	34	0	4162846720	32	6568
2026-01-05 20:50:20.15	261.89	17.91	-30.3	-31.1	23.6	0.00e+00	0	34	0	4170186752	32	6493
2026-01-05 20:50:21.16	261.75	17.82	-30.1	-30.9	23.7	0.00e+00	0	34	0	4177526784	32	6341
2026-01-05 20:50:22.17	261.61	17.72	-30.2	-31.0	23.7	0.00e+00	0	34	0	4184866816	32	6412
2026-01-05 20:50:23.18	261.47	17.62	-30.1	-30.9	23.8	0.00e+00	0	34	0	4192206848	32	6352
2026-01-05 20:50:24.19	261.33	17.52	-30.1	-30.9	23.8	0.00e+00	0	34	0	4199546880	32	6350
2026-01-05 20:50:25.20	261.20	17.43	-30.0	-30.8	23.9	0.00e+00	0	34	0	4205838336	32	6295
2026-01-05 20:50:26.21	261.06	17.33	-30.0	-30.8	23.9	0.00e+00	0	34	0	4214226944	32	6293
2026-01-05 20:50:27.22	260.93	17.23	-30.1	-30.9	23.8	0.00e+00	0	34	0	4221566976	32	6361
2026-01-05 20:50:28.23	260.79	17.14	-30.2	-30.9	23.8	0.00e+00	0	34	0	4227858432	32	6384
2026-01-05 20:50:29.24	260.66	17.04	-30.3	-31.1	23.8	0.00e+00	0	34	0	4235198464	32	6509
2026-01-05 20:50:30.25	260.53	16.94	-30.4	-31.1	23.7	0.00e+00	0	34	0	4242538496	32	6537
2026-01-05 20:50:31.26	260.40	16.85	-30.5	-31.3	23.6	0.00e+00	0	34	0	4249878528	32	6630
2026-01-05 20:50:32.27	260.27	16.75	-30.6	-31.4	23.6	0.00e+00	0	34	0	4257218560	32	6727
2026-01-05 20:50:33.28	260.14	16.66	-30.7	-31.5	23.5	0.00e+00	0	34	0	4264558592	32	6809
2026-01-05 20:50:34.29	260.01	16.56	-30.9	-31.7	23.3	0.00e+00	0	34	0	4271898624	34	6194
2026-01-05 20:50:35.30	259.88	16.47	-31.0	-31.8	23.2	0.00e+00	0	34	0	4279238656	34	6276
2026-01-05 20:50:36.31	259.75	16.37	-31.1	-31.9	23.1	0.00e+00	0	34	0	4286578688	34	6386
2026-01-05 20:50:37.32	259.63	16.28	-31.3	-32.1	22.9	0.00e+00	0	34	0	4293918720	34	6526
2026-01-05 20:50:38.33	259.50	16.18	-31.1	-32.0	23.0	0.00e+00	0	34	0	4301258752	34	6409
2026-01-05 20:50:39.34	259.38	16.09	-31.2	-32.0	23.0	0.00e+00	0	34	0	4308598784	34	6451
2026-01-05 20:50:40.35	259.25	16.00	-31.0	-31.8	23.1	0.00e+00	0	34	0	4315938816	34	6285
2026-01-05 20:50:41.36	259.13	15.90	-30.9	-31.8	22.6	0.00e+00	0	34	0	4323278848	34	6249
2026-01-05 20:50:42.36	259.01	15.81	-30.8	-31.6	23.3	0.00e+00	0	34	0	4330618880	34	6135
2026-01-05 20:50:43.38	258.89	15.72	-30.9	-31.7	23.2	0.00e+00	0	34	0	4337958912	34	6240
2026-01-05 20:50:44.38	258.77	15.63	-30.9	-31.7	23.4	0.00e+00	0	34	0	4345298944	34	6231
2026-01-05 20:50:45.39	258.65	15.53	-30.7	-31.5	23.5	0.00e+00	0	34	0	4351590400	34	6067
2026-01-05 20:50:46.40	258.53	15.44	-30.5	-31.3	23.7	0.00e+00	0	34	0	4358930432	34	5931
2026-01-05 20:50:47.41	258.41	15.35	-30.6	-31.3	23.7	0.00e+00	0	34	0	4367319040	34	5958
2026-01-05 20:50:48.42	258.29	15.26	-30.7	-31.4	23.7	0.00e+00	0	34	0	4373610496	34	6024
2026-01-05 20:50:49.43	258.18	15.16	-30.6	-31.4	23.8	0.00e+00	0	34	0	4380950528	34	6003
2026-01-05 20:50:50.44	258.06	15.07	-30.5	-31.3	23.8	0.00e+00	0	34	0	4388290560	34	5934
2026-01-05 20:50:51.45	257.94	14.98	-30.7	-31.5	23.7	0.00e+00	0	34	0	4395630592	34	6039
2026-01-05 20:50:52.46	257.83	14.89	-30.8	-31.6	23.6	0.00e+00	0	34	0	4402970624	34	6146
2026-01-05 20:50:53.47	257.72	14.80	-30.9	-31.7	23.4	0.00e+00	0	34	0	4410310656	34	6221
2026-01-05 20:50:54.48	257.60	14.71	-31.0	-31.8	23.5	0.00e+00	0	34	0	4417650688	34	6262
2026-01-05 20:50:55.49	257.49	14.62	-31.1	-31.9	23.4	0.00e+00	0	34	0	4424990720	34	6345
2026-01-05 20:50:56.50	257.38	14.53	-31.2	-32.0	23.4	0.00e+00	0	34	0	4432330752	34	6421
2026-01-05 20:50:57.51	257.27	14.44	-31.1	-31.9	23.4	0.00e+00	0	34	0	4439670784	34	6381
2026-01-05 20:50:58.52	257.16	14.35	-31.1	-31.9	23.4	0.00e+00	0	34	0	4447010816	34	6334
2026-01-05 20:50:59.53	257.05	14.26	-31.2	-32.0	23.4	0.00e+00	0	34	0	4454350848	34	6439
2026-01-05 20:51:00.54	256.94	14.17	-31.1	-31.9	23.4	0.00e+00	0	34	0	4461690880	34	6351
2026-01-05 20:51:01.55	256.83	14.08	-31.3	-32.1	23.4	0.00e+00	0	34	0	4469030912	34	6488
2026-01-05 20:51:02.56	256.72	13.99	-31.3	-32.1	23.4	0.00e+00	0	34	0	4476370944	34	6472
2026-01-05 20:51:03.56	256.61	13.90	-31.3	-32.1	23.3	0.00e+00	0	34	0	4483710976	34	6490
2026-01-05 20:51:04.57	256.51	13.82	-31.4	-32.2	23.2	0.00e+00	0	34	0	4491051008	34	6583
2026-01-05 20:51:05.59	256.40	13.73	-31.5	-32.4	23.0	0.00e+00	0	34	0	4498391040	34	6698
2026-01-05 20:51:06.60	256.30	13.64	-31.7	-32.5	23.0	0.00e+00	0	34	0	4504682496	34	6828
2026-01-05 20:51:07.60	256.19	13.55	-31.8	-32.6	22.9	0.00e+00	0	34	0	4512022528	36	6128
2026-01-05 20:51:08.61	256.09	13.47	-31.9	-32.7	22.7	0.00e+00	0	34	0	4520411136	36	6228
2026-01-05 20:51:09.62	255.98	13.38	-31.9	-32.7	22.8	0.00e+00	0	34	0	4526702592	36	6217
2026-01-05 20:51:10.63	255.88	13.29	-31.9	-32.8	22.7	0.00e+00	0	34	0	4534042624	36	6254
2026-01-05 20:51:11.64	255.78	13.20	-31.9	-32.8	22.7	0.00e+00	0	34	0	4541382656	36	6261
2026-01-05 20:51:12.65	255.68	13.12	-31.8	-32.7	22.7	0.00e+00	0	34	0	4548722688	36	6185
2026-01-05 20:51:13.66	255.58	13.03	-31.9	-32.7	22.7	0.00e+00	0	34	0	4556062720	36	6223
2026-01-05 20:51:14.67	255.48	12.94	-31.6	-32.5	22.8	0.00e+00	0	34	0	4563402752	36	6052
2026-01-05 20:51:15.67	255.38	12.86	-31.7	-32.6	22.8	0.00e+00	0	34	0	4570742784	36	6107
2026-01-05 20:51:16.69	255.28	12.77	-31.5	-32.4	22.8	0.00e+00	0	34	0	4578082816	36	5982
2026-01-05 20:51:17.70	255.18	12.69	-31.5	-32.3	23.0	0.00e+00	0	34	0	4585422848	36	5947
2026-01-05 20:51:18.71	255.08	12.60	-31.6	-32.4	23.0	0.00e+00	0	34	0	4592762880	36	6027
2026-01-05 20:51:19.72	254.98	12.52	-31.4	-32.2	23.1	0.00e+00	0	34	0	4600102912	36	5881
