passes_logs/2026/01/05/R4.6S_Anadyr/R4.6S_Anadyr__20260105_145233_NOAA_20_JPSS-1_rec.log

#Pass ID: 20260105_145233_NOAA 20 (JPSS-1)
#Satellite: NOAA 20 (JPSS-1)
#Configuration: NOAA 20
#almurnet v.1.7.20251203
#Start time: 2026-01-05 14:52:36

#Version: 2.2.20231116
#Station: R4.6S_Anadyr
#Location: 177.4865 lon 64.73178 lat
#TLE: 1 43013U 17073A   26004.89819562  .00000113  00000+0  74278-4 0  9995
#TLE: 2 43013  98.7626 305.9448 0001841  53.9015 306.2332 14.19533229421309

#Time	Az	El	Level	Level2	SNR	BER	BlckErr	Temp	State	Recorded	gain1	gain2
2026-01-05 14:52:36.50	20.84	0.15	-48.5	-63.4	3.5	1.51e+00	0	27	0	0	60	53457
2026-01-05 14:52:37.51	20.84	0.21	-48.5	-63.7	3.6	1.51e+00	0	29	104	0	60	55183
2026-01-05 14:52:38.52	20.84	0.27	-48.5	-63.7	3.6	1.51e+00	0	28	104	0	60	55254
2026-01-05 14:52:39.53	20.84	0.33	-48.5	-63.7	3.6	1.51e+00	0	28	104	0	60	55314
2026-01-05 14:52:40.54	20.84	0.40	-48.5	-63.7	3.6	1.51e+00	0	29	104	0	60	55186
2026-01-05 14:52:41.55	20.84	0.46	-48.5	-63.7	3.6	1.51e+00	0	29	104	0	60	55444
2026-01-05 14:52:42.56	20.84	0.52	-48.6	-63.7	3.6	1.51e+00	0	29	104	0	60	55527
2026-01-05 14:52:43.57	20.84	0.58	-48.5	-63.7	3.6	1.51e+00	0	29	104	0	60	55598
2026-01-05 14:52:44.58	20.84	0.64	-48.5	-63.7	3.6	1.51e+00	0	29	104	0	60	55449
2026-01-05 14:52:45.59	20.84	0.70	-48.5	-63.6	3.6	1.51e+00	0	29	104	0	60	54899
2026-01-05 14:52:46.60	20.84	0.76	-48.4	-63.6	3.6	1.51e+00	0	29	104	0	60	54647
2026-01-05 14:52:47.61	20.84	0.83	-48.3	-63.5	3.6	1.51e+00	0	29	104	0	60	54106
2026-01-05 14:52:48.62	20.84	0.89	-48.1	-63.3	3.6	1.51e+00	0	29	104	0	60	52706
2026-01-05 14:52:49.63	20.84	0.95	-47.9	-63.1	3.6	1.51e+00	0	29	104	0	60	51919
2026-01-05 14:52:50.64	20.84	1.01	-47.8	-63.0	3.6	1.51e+00	0	29	104	0	60	51015
2026-01-05 14:52:51.65	20.84	1.07	-47.6	-62.8	3.6	1.51e+00	0	29	104	0	60	49886
2026-01-05 14:52:52.66	20.84	1.14	-47.2	-62.3	3.6	1.51e+00	0	29	104	0	60	47290
2026-01-05 14:52:53.67	20.84	1.20	-47.2	-62.3	3.6	1.51e+00	0	29	104	0	60	47353
2026-01-05 14:52:54.69	20.84	1.26	-47.2	-62.3	3.6	1.51e+00	0	29	104	0	60	47304
2026-01-05 14:52:55.69	20.84	1.32	-47.2	-62.2	3.6	1.51e+00	0	29	104	0	60	46717
2026-01-05 14:52:56.70	20.84	1.39	-47.2	-62.3	3.6	1.51e+00	0	29	104	0	60	46966
2026-01-05 14:52:57.71	20.84	1.45	-47.2	-62.2	3.6	1.51e+00	0	29	104	0	60	46539
2026-01-05 14:52:58.72	20.84	1.51	-47.2	-62.1	3.6	1.51e+00	0	29	104	0	60	46112
2026-01-05 14:52:59.73	20.84	1.58	-47.2	-62.2	3.6	1.51e+00	0	29	104	0	60	46464
2026-01-05 14:53:00.74	20.84	1.64	-47.2	-62.2	3.6	1.51e+00	0	29	104	0	60	46324
2026-01-05 14:53:01.75	20.84	1.70	-47.2	-62.2	3.5	1.51e+00	0	29	104	0	60	46638
2026-01-05 14:53:02.77	20.84	1.77	-47.2	-62.3	3.6	1.51e+00	0	29	104	0	60	46999
2026-01-05 14:53:03.77	20.84	1.83	-47.2	-62.3	3.6	1.51e+00	0	29	104	0	60	47072
2026-01-05 14:53:04.78	20.84	1.90	-47.2	-62.3	3.6	1.51e+00	0	29	104	0	60	47338
2026-01-05 14:53:05.79	20.84	1.96	-47.2	-62.3	3.6	1.51e+00	0	29	104	0	60	47353
2026-01-05 14:53:06.80	20.84	2.03	-47.2	-62.4	3.5	1.51e+00	0	29	104	0	60	47432
2026-01-05 14:53:07.81	20.84	2.09	-47.2	-62.3	3.6	1.51e+00	0	29	104	0	60	47174
2026-01-05 14:53:08.82	20.84	2.15	-47.2	-62.3	3.6	1.51e+00	0	29	104	0	60	46917
2026-01-05 14:53:09.83	20.84	2.22	-47.2	-62.1	3.6	1.51e+00	0	29	104	0	60	46222
2026-01-05 14:53:10.84	20.84	2.28	-47.2	-62.1	3.6	1.51e+00	0	29	104	0	60	45895
2026-01-05 14:53:11.85	20.83	2.35	-47.2	-61.9	3.6	1.51e+00	0	29	104	0	60	45036
2026-01-05 14:53:12.86	20.83	2.41	-47.1	-61.5	3.6	1.51e+00	0	29	104	0	60	43184
2026-01-05 14:53:13.87	20.83	2.48	-47.1	-61.1	3.6	1.51e+00	0	29	104	0	60	41196
2026-01-05 14:53:14.88	20.83	2.55	-47.1	-60.9	3.6	1.51e+00	0	29	104	0	60	40233
2026-01-05 14:53:15.89	20.83	2.61	-47.1	-60.8	3.6	1.51e+00	0	29	104	0	60	39860
2026-01-05 14:53:16.90	20.83	2.68	-47.1	-60.8	3.6	1.51e+00	0	29	104	0	60	39445
2026-01-05 14:53:17.91	20.83	2.74	-47.1	-61.1	3.6	1.51e+00	0	29	104	0	60	40820
2026-01-05 14:53:18.92	20.83	2.81	-47.1	-61.1	3.6	1.51e+00	0	29	104	0	60	40835
2026-01-05 14:53:19.93	20.83	2.88	-47.1	-60.5	3.6	1.51e+00	0	29	104	0	60	38072
2026-01-05 14:53:20.94	20.83	2.94	-47.0	-58.9	4.0	1.46e+00	0	29	104	0	60	31701
2026-01-05 14:53:21.95	20.83	3.01	-46.8	-55.6	4.7	9.98e-01	0	29	0	1048576	60	21813
2026-01-05 14:53:22.96	20.83	3.08	-46.6	-54.0	6.4	4.52e-01	0	29	0	3145728	60	18046
2026-01-05 14:53:23.97	20.83	3.14	-46.3	-52.7	7.9	9.02e-02	0	29	0	4194304	60	15570
2026-01-05 14:53:24.98	20.83	3.21	-45.8	-51.2	9.6	2.14e-02	0	29	0	6291456	60	13162
2026-01-05 14:53:25.99	20.82	3.28	-45.6	-50.6	10.1	6.59e-03	0	29	0	8388608	60	12289
2026-01-05 14:53:27.00	20.82	3.35	-45.4	-49.9	11.3	7.43e-03	0	29	0	10485760	60	11342
2026-01-05 14:53:28.01	20.82	3.41	-44.9	-48.9	12.3	3.55e-04	0	29	0	12582912	60	10096
2026-01-05 14:53:29.02	20.82	3.48	-44.8	-48.7	12.4	8.31e-05	0	29	0	13631488	60	9786
2026-01-05 14:53:30.03	20.82	3.55	-45.1	-49.2	11.9	2.65e-04	0	29	0	15728640	60	10453
2026-01-05 14:53:31.04	20.82	3.62	-45.2	-49.5	11.6	4.84e-04	0	29	0	17825792	60	10740
2026-01-05 14:53:32.05	20.82	3.69	-45.4	-50.0	11.1	1.19e-03	0	29	0	19922944	60	11368
2026-01-05 14:53:33.05	20.82	3.75	-45.8	-51.2	9.6	5.79e-03	0	29	0	22020096	60	13170
2026-01-05 14:53:34.06	20.82	3.82	-46.1	-52.3	8.3	2.70e-02	0	29	0	23068672	60	14971
2026-01-05 14:53:35.07	20.82	3.89	-42.0	-43.9	17.5	3.00e-06	0	29	0	25165824	58	6346
2026-01-05 14:53:36.08	20.82	3.96	-45.9	-51.3	9.8	0.00e+00	0	29	0	27262976	60	13261
2026-01-05 14:53:37.09	20.81	4.03	-47.1	-61.7	3.6	1.48e+00	0	29	104	28311552	60	43862
2026-01-05 14:53:38.10	20.81	4.10	-41.7	-43.6	17.1	1.21e+00	0	29	104	28311552	56	6855
2026-01-05 14:53:39.11	20.81	4.17	-47.3	-62.0	3.6	3.49e-01	0	29	104	28311552	60	45621
2026-01-05 14:53:40.12	20.81	4.24	-41.7	-43.6	17.2	9.88e-01	0	29	104	28311552	58	6106
2026-01-05 14:53:41.13	20.81	4.31	-41.7	-43.5	17.9	0.00e+00	0	29	0	28311552	56	6843
2026-01-05 14:53:42.14	20.81	4.38	-41.7	-43.5	18.0	0.00e+00	0	29	0	30408704	56	6803
2026-01-05 14:53:43.15	20.81	4.45	-41.7	-43.4	18.1	0.00e+00	0	29	0	32505856	56	6765
2026-01-05 14:53:44.15	20.81	4.52	-41.7	-43.5	18.1	0.00e+00	0	29	0	34603008	56	6799
2026-01-05 14:53:45.17	20.80	4.59	-41.7	-43.4	18.1	0.00e+00	0	29	0	36700160	56	6742
2026-01-05 14:53:46.17	20.80	4.66	-41.6	-43.3	18.2	0.00e+00	0	29	0	37748736	56	6689
2026-01-05 14:53:47.18	20.80	4.73	-41.5	-43.2	18.3	0.00e+00	0	29	0	39845888	56	6551
2026-01-05 14:53:48.19	20.80	4.80	-41.6	-43.3	18.3	0.00e+00	0	29	0	41943040	56	6684
2026-01-05 14:53:49.20	20.80	4.87	-41.8	-43.5	18.1	0.00e+00	0	30	0	44040192	56	6839
2026-01-05 14:53:50.21	20.80	4.94	-41.4	-43.1	18.4	0.00e+00	0	29	0	45088768	56	6480
2026-01-05 14:53:51.22	20.80	5.02	-41.7	-43.4	18.1	0.00e+00	0	29	0	47185920	56	6741
2026-01-05 14:53:52.23	20.79	5.09	-41.7	-43.5	18.1	0.00e+00	0	29	0	49283072	56	6799
2026-01-05 14:53:53.24	20.79	5.16	-41.7	-43.5	18.1	0.00e+00	0	29	0	51380224	56	6803
2026-01-05 14:53:54.25	20.79	5.23	-41.2	-42.8	18.9	0.00e+00	0	29	0	53477376	56	6252
2026-01-05 14:53:55.26	20.79	5.31	-41.4	-43.0	18.7	0.00e+00	0	29	0	54525952	56	6436
2026-01-05 14:53:56.27	20.79	5.38	-41.6	-43.3	18.4	0.00e+00	0	29	0	56623104	56	6660
2026-01-05 14:53:57.28	20.79	5.45	-41.5	-43.1	18.4	0.00e+00	0	30	0	58720256	56	6518
2026-01-05 14:53:58.29	20.78	5.52	-41.8	-43.5	18.2	0.00e+00	0	29	0	60817408	56	6821
2026-01-05 14:53:59.30	20.78	5.60	-41.6	-43.3	18.1	0.00e+00	0	29	0	62914560	56	6674
2026-01-05 14:54:00.31	20.78	5.67	-41.7	-43.4	18.5	0.00e+00	0	30	0	65011712	56	6761
2026-01-05 14:54:01.32	20.78	5.74	-41.4	-43.1	18.7	0.00e+00	0	30	0	66060288	56	6494
2026-01-05 14:54:02.33	20.78	5.82	-41.2	-42.8	18.9	0.00e+00	0	30	0	68157440	56	6291
2026-01-05 14:54:03.34	20.77	5.89	-41.2	-42.7	19.0	0.00e+00	0	30	0	70254592	56	6242
2026-01-05 14:54:04.35	20.77	5.97	-41.2	-42.7	18.9	0.00e+00	0	30	0	72351744	56	6223
2026-01-05 14:54:05.35	20.77	6.04	-41.2	-42.8	19.0	0.00e+00	0	30	0	74448896	56	6248
2026-01-05 14:54:06.36	20.77	6.12	-41.1	-42.7	19.0	0.00e+00	0	30	0	75497472	56	6178
2026-01-05 14:54:07.37	20.77	6.19	-41.3	-42.9	18.9	0.00e+00	0	30	0	77594624	56	6373
2026-01-05 14:54:08.38	20.76	6.27	-41.2	-42.7	19.1	0.00e+00	0	29	0	79691776	56	6221
2026-01-05 14:54:09.40	20.76	6.34	-41.1	-42.6	19.2	0.00e+00	0	29	0	81788928	56	6126
2026-01-05 14:54:10.40	20.76	6.42	-41.2	-42.7	19.1	0.00e+00	0	30	0	83886080	56	6243
2026-01-05 14:54:11.41	20.76	6.49	-41.0	-42.5	19.3	0.00e+00	0	30	0	84934656	56	6081
2026-01-05 14:54:12.42	20.76	6.57	-41.0	-42.5	19.3	0.00e+00	0	30	0	87031808	56	6091
2026-01-05 14:54:13.43	20.75	6.65	-41.0	-42.5	19.3	0.00e+00	0	30	0	89128960	56	6093
2026-01-05 14:54:14.44	20.75	6.72	-41.0	-42.5	19.3	0.00e+00	0	29	0	91226112	56	6052
2026-01-05 14:54:15.45	20.75	6.80	-40.9	-42.4	19.5	0.00e+00	0	30	0	93323264	56	5996
2026-01-05 14:54:16.46	20.75	6.88	-40.9	-42.4	19.5	0.00e+00	0	29	0	94371840	56	5992
2026-01-05 14:54:17.47	20.74	6.95	-41.0	-42.5	19.4	0.00e+00	0	30	0	96468992	56	6076
2026-01-05 14:54:18.48	20.74	7.03	-41.0	-42.5	19.5	0.00e+00	0	29	0	98566144	56	6054
2026-01-05 14:54:19.49	20.74	7.11	-40.9	-42.3	19.5	0.00e+00	0	30	0	100663296	56	5957
2026-01-05 14:54:20.50	20.74	7.19	-40.8	-42.2	19.7	0.00e+00	0	29	0	102760448	56	5890
2026-01-05 14:54:21.51	20.73	7.27	-40.8	-42.3	19.6	0.00e+00	0	30	0	103809024	56	5912
2026-01-05 14:54:22.52	20.73	7.34	-40.7	-42.1	19.7	0.00e+00	0	30	0	105906176	54	6497
2026-01-05 14:54:23.53	20.73	7.42	-40.7	-42.1	19.7	0.00e+00	0	30	0	108003328	54	6498
2026-01-05 14:54:24.54	20.73	7.50	-40.7	-42.1	19.8	0.00e+00	0	30	0	110100480	54	6483
2026-01-05 14:54:25.55	20.72	7.58	-40.7	-42.1	19.7	0.00e+00	0	30	0	112197632	54	6527
2026-01-05 14:54:26.56	20.72	7.66	-40.6	-42.0	19.9	0.00e+00	0	30	0	113246208	54	6410
2026-01-05 14:54:27.57	20.72	7.74	-40.7	-42.1	19.7	0.00e+00	0	30	0	115343360	54	6468
2026-01-05 14:54:28.57	20.72	7.82	-40.6	-41.9	19.9	0.00e+00	0	29	0	117440512	54	6381
2026-01-05 14:54:29.58	20.71	7.90	-40.5	-41.9	20.0	0.00e+00	0	29	0	119537664	54	6341
2026-01-05 14:54:30.60	20.71	7.98	-40.6	-42.0	19.9	0.00e+00	0	29	0	121634816	54	6414
2026-01-05 14:54:31.61	20.71	8.06	-40.6	-41.9	19.9	0.00e+00	0	29	0	122683392	54	6378
2026-01-05 14:54:32.61	20.70	8.14	-40.5	-41.9	20.0	0.00e+00	0	30	0	124780544	54	6353
2026-01-05 14:54:33.62	20.70	8.22	-40.6	-42.0	19.9	0.00e+00	0	30	0	126877696	54	6428
2026-01-05 14:54:34.63	20.70	8.30	-40.7	-42.1	19.9	0.00e+00	0	30	0	128974848	54	6535
2026-01-05 14:54:35.64	20.70	8.39	-40.4	-41.7	20.2	0.00e+00	0	30	0	131072000	54	6205
2026-01-05 14:54:36.65	20.69	8.47	-40.4	-41.8	20.2	0.00e+00	0	30	0	133169152	54	6249
2026-01-05 14:54:37.66	20.69	8.55	-40.4	-41.7	20.3	0.00e+00	0	30	0	134217728	54	6190
2026-01-05 14:54:38.66	20.69	8.63	-40.3	-41.6	20.3	0.00e+00	0	30	0	136314880	54	6164
2026-01-05 14:54:39.67	20.68	8.72	-40.3	-41.6	20.3	0.00e+00	0	30	0	138412032	54	6165
2026-01-05 14:54:40.68	20.68	8.80	-40.3	-41.5	20.4	0.00e+00	0	30	0	140509184	54	6102
2026-01-05 14:54:41.69	20.68	8.88	-40.3	-41.6	20.3	0.00e+00	0	30	0	142606336	54	6170
2026-01-05 14:54:42.70	20.67	8.97	-40.2	-41.5	20.5	0.00e+00	0	30	0	143654912	54	6034
2026-01-05 14:54:43.72	20.67	9.05	-40.1	-41.3	20.5	0.00e+00	0	30	0	145752064	54	5962
2026-01-05 14:54:44.72	20.67	9.13	-40.2	-41.5	20.5	0.00e+00	0	30	0	147849216	54	6034
2026-01-05 14:54:45.73	20.66	9.22	-40.3	-41.6	20.3	0.00e+00	0	30	0	149946368	54	6153
2026-01-05 14:54:46.74	20.66	9.30	-40.5	-41.8	20.1	0.00e+00	0	30	0	152043520	54	6306
2026-01-05 14:54:47.75	20.66	9.39	-40.2	-41.4	20.5	0.00e+00	0	30	0	153092096	54	6018
2026-01-05 14:54:48.76	20.65	9.47	-40.2	-41.5	20.4	0.00e+00	0	30	0	155189248	54	6079
2026-01-05 14:54:49.77	20.65	9.56	-40.2	-41.4	20.6	0.00e+00	0	30	0	157286400	54	6017
2026-01-05 14:54:50.78	20.64	9.65	-40.1	-41.4	20.6	0.00e+00	0	30	0	159383552	54	6013
2026-01-05 14:54:51.79	20.64	9.73	-40.0	-41.3	20.7	0.00e+00	0	30	0	161480704	54	5917
2026-01-05 14:54:52.80	20.64	9.82	-40.0	-41.3	20.7	0.00e+00	0	30	0	162529280	54	5917
2026-01-05 14:54:53.81	20.63	9.91	-39.9	-41.2	20.9	0.00e+00	0	30	0	164626432	54	5834
2026-01-05 14:54:54.82	20.63	9.99	-40.0	-41.2	20.8	0.00e+00	0	30	0	166723584	54	5876
2026-01-05 14:54:55.83	20.63	10.08	-40.0	-41.2	20.8	0.00e+00	0	30	0	168820736	54	5854
2026-01-05 14:54:56.84	20.62	10.17	-39.9	-41.1	20.9	0.00e+00	0	30	0	170917888	54	5821
2026-01-05 14:54:57.85	20.62	10.26	-39.9	-41.1	20.9	0.00e+00	0	30	0	171966464	54	5783
2026-01-05 14:54:58.86	20.61	10.34	-40.0	-41.2	20.9	0.00e+00	0	30	0	174063616	54	5855
2026-01-05 14:54:59.86	20.61	10.43	-39.8	-41.1	21.0	0.00e+00	0	30	0	176160768	52	6470
2026-01-05 14:55:00.87	20.60	10.52	-39.8	-41.0	21.1	0.00e+00	0	30	0	178257920	52	6401
2026-01-05 14:55:01.88	20.60	10.61	-39.9	-41.1	20.9	0.00e+00	0	30	0	180355072	52	6472
2026-01-05 14:55:02.89	20.60	10.70	-39.9	-41.1	21.0	0.00e+00	0	30	0	181403648	52	6473
2026-01-05 14:55:03.90	20.59	10.79	-39.8	-41.0	21.1	0.00e+00	0	30	0	183500800	52	6432
2026-01-05 14:55:04.90	20.59	10.88	-39.8	-41.0	21.1	0.00e+00	0	30	0	185597952	52	6414
2026-01-05 14:55:05.91	20.58	10.97	-39.8	-40.9	21.1	0.00e+00	0	30	0	187695104	52	6380
2026-01-05 14:55:06.92	20.58	11.06	-39.6	-40.8	21.3	0.00e+00	0	30	0	189792256	52	6273
2026-01-05 14:55:07.93	20.57	11.15	-39.7	-40.8	21.3	0.00e+00	0	30	0	190840832	52	6294
2026-01-05 14:55:08.94	20.57	11.25	-39.5	-40.7	21.5	0.00e+00	0	30	0	192937984	52	6178
2026-01-05 14:55:09.95	20.56	11.34	-39.5	-40.7	21.4	0.00e+00	0	30	0	195035136	52	6186
2026-01-05 14:55:10.96	20.56	11.43	-39.5	-40.7	21.5	0.00e+00	0	30	0	197132288	52	6183
2026-01-05 14:55:11.97	20.55	11.52	-39.5	-40.7	21.4	0.00e+00	0	30	0	199229440	52	6181
2026-01-05 14:55:12.98	20.55	11.62	-39.5	-40.6	21.4	0.00e+00	0	30	0	201326592	52	6136
2026-01-05 14:55:13.99	20.54	11.71	-39.5	-40.6	21.5	0.00e+00	0	30	0	202375168	52	6126
2026-01-05 14:55:15.00	20.54	11.80	-39.5	-40.6	21.6	0.00e+00	0	30	0	204472320	52	6130
2026-01-05 14:55:16.00	20.53	11.90	-39.5	-40.7	21.4	0.00e+00	0	30	0	206569472	52	6186
2026-01-05 14:55:17.01	20.53	11.99	-39.4	-40.5	21.6	0.00e+00	0	30	0	208666624	52	6045
2026-01-05 14:55:18.03	20.52	12.09	-39.4	-40.5	21.6	0.00e+00	0	30	0	210763776	52	6102
2026-01-05 14:55:19.04	20.52	12.18	-39.3	-40.5	21.7	0.00e+00	0	30	0	211812352	52	6036
2026-01-05 14:55:20.04	20.51	12.28	-39.3	-40.5	21.7	0.00e+00	0	30	0	213909504	52	6038
2026-01-05 14:55:21.05	20.51	12.37	-39.3	-40.4	21.7	0.00e+00	0	30	0	216006656	52	5995
2026-01-05 14:55:22.06	20.50	12.47	-39.3	-40.4	21.7	0.00e+00	0	30	0	218103808	52	6020
2026-01-05 14:55:23.07	20.50	12.57	-39.4	-40.5	21.7	0.00e+00	0	30	0	220200960	52	6051
2026-01-05 14:55:24.08	20.49	12.66	-39.1	-40.2	22.0	0.00e+00	0	30	0	221249536	52	5871
2026-01-05 14:55:25.09	20.49	12.76	-39.2	-40.3	21.8	0.00e+00	0	30	0	223346688	52	5917
2026-01-05 14:55:26.10	20.48	12.86	-39.2	-40.3	21.8	0.00e+00	0	30	0	225443840	52	5902
2026-01-05 14:55:27.11	20.47	12.96	-39.2	-40.2	21.9	0.00e+00	0	30	0	227540992	52	5895
2026-01-05 14:55:28.12	20.47	13.06	-39.2	-40.3	21.8	0.00e+00	0	30	0	229638144	52	5935
2026-01-05 14:55:29.13	20.46	13.16	-39.2	-40.2	21.9	0.00e+00	0	30	0	230686720	52	5892
2026-01-05 14:55:30.14	20.46	13.26	-39.1	-40.2	22.0	0.00e+00	0	30	0	232783872	52	5851
2026-01-05 14:55:31.15	20.45	13.36	-39.0	-40.1	22.1	0.00e+00	0	30	0	234881024	52	5784
2026-01-05 14:55:32.16	20.44	13.46	-38.9	-40.0	22.1	0.00e+00	0	30	0	236978176	52	5703
2026-01-05 14:55:33.17	20.44	13.56	-39.0	-40.0	22.1	0.00e+00	0	30	0	239075328	52	5751
2026-01-05 14:55:34.18	20.43	13.66	-38.9	-39.9	22.2	0.00e+00	0	30	0	240123904	52	5670
2026-01-05 14:55:35.19	20.43	13.76	-38.8	-39.8	22.2	0.00e+00	0	30	0	242221056	52	5624
2026-01-05 14:55:36.20	20.42	13.86	-38.8	-39.9	22.3	0.00e+00	0	30	0	244318208	52	5644
2026-01-05 14:55:37.21	20.41	13.96	-38.9	-40.0	22.1	0.00e+00	0	30	0	246415360	52	5711
2026-01-05 14:55:38.22	20.41	14.07	-38.9	-39.9	22.2	0.00e+00	0	30	0	248512512	52	5693
2026-01-05 14:55:39.23	20.40	14.17	-38.9	-39.9	22.3	0.00e+00	0	30	0	249561088	52	5650
2026-01-05 14:55:40.24	20.39	14.27	-38.8	-39.8	22.3	0.00e+00	0	30	0	251658240	52	5615
2026-01-05 14:55:41.25	20.39	14.38	-38.7	-39.8	22.4	0.00e+00	0	30	0	253755392	50	6259
2026-01-05 14:55:42.26	20.38	14.48	-38.7	-39.7	22.4	0.00e+00	0	30	0	255852544	50	6193
2026-01-05 14:55:43.26	20.37	14.59	-38.6	-39.6	22.4	0.00e+00	0	30	0	257949696	50	6155
2026-01-05 14:55:44.27	20.37	14.69	-38.6	-39.6	22.5	0.00e+00	0	30	0	258998272	50	6138
2026-01-05 14:55:45.28	20.36	14.80	-38.7	-39.7	22.4	0.00e+00	0	30	0	261095424	50	6218
2026-01-05 14:55:46.29	20.35	14.91	-38.6	-39.6	22.4	0.00e+00	0	30	0	263192576	50	6165
2026-01-05 14:55:47.30	20.34	15.01	-38.6	-39.6	22.6	0.00e+00	0	30	0	265289728	50	6129
2026-01-05 14:55:48.31	20.34	15.12	-38.6	-39.6	22.6	0.00e+00	0	30	0	267386880	50	6110
2026-01-05 14:55:49.32	20.33	15.23	-38.6	-39.6	22.5	0.00e+00	0	30	0	269484032	50	6122
2026-01-05 14:55:50.33	20.32	15.34	-38.5	-39.5	22.6	0.00e+00	0	30	0	270532608	50	6079
2026-01-05 14:55:51.34	20.31	15.45	-38.5	-39.5	22.5	0.00e+00	0	30	0	272629760	50	6068
2026-01-05 14:55:52.34	20.31	15.55	-38.3	-39.3	22.8	0.00e+00	0	30	0	274726912	50	5936
2026-01-05 14:55:53.35	20.30	15.66	-38.4	-39.4	22.7	0.00e+00	0	30	0	276824064	50	5970
2026-01-05 14:55:54.36	20.29	15.77	-38.4	-39.4	22.8	0.00e+00	0	30	0	277872640	50	5995
2026-01-05 14:55:55.37	20.28	15.89	-38.4	-39.3	22.8	0.00e+00	0	30	0	279969792	50	5945
2026-01-05 14:55:56.38	20.28	16.00	-38.4	-39.4	22.7	0.00e+00	0	30	0	282066944	50	6016
2026-01-05 14:55:57.39	20.27	16.11	-38.3	-39.2	22.9	0.00e+00	0	30	0	284164096	50	5889
2026-01-05 14:55:58.40	20.26	16.22	-38.2	-39.2	22.8	0.00e+00	0	30	0	286261248	50	5838
2026-01-05 14:55:59.41	20.25	16.33	-38.3	-39.2	22.8	0.00e+00	0	30	0	287309824	50	5893
2026-01-05 14:56:00.42	20.24	16.45	-38.3	-39.3	22.9	0.00e+00	0	30	0	289406976	50	5913
2026-01-05 14:56:01.43	20.23	16.56	-38.3	-39.2	22.9	0.00e+00	0	30	0	291504128	50	5875
2026-01-05 14:56:02.44	20.22	16.68	-38.1	-39.1	23.1	0.00e+00	0	30	0	293601280	50	5778
2026-01-05 14:56:03.45	20.22	16.79	-38.1	-39.0	23.1	0.00e+00	0	30	0	295698432	50	5729
2026-01-05 14:56:04.46	20.21	16.91	-38.1	-39.0	23.0	0.00e+00	0	30	0	297795584	50	5728
2026-01-05 14:56:05.47	20.20	17.02	-38.0	-39.0	23.1	0.00e+00	0	30	0	298844160	50	5708
2026-01-05 14:56:06.48	20.19	17.14	-38.0	-38.9	23.2	0.00e+00	0	30	0	300941312	50	5690
2026-01-05 14:56:07.49	20.18	17.26	-37.9	-38.8	23.3	0.00e+00	0	30	0	303038464	50	5584
2026-01-05 14:56:08.50	20.17	17.38	-37.8	-38.8	23.3	0.00e+00	0	30	0	305135616	50	5576
2026-01-05 14:56:09.51	20.16	17.49	-37.9	-38.8	23.3	0.00e+00	0	30	0	307232768	50	5624
2026-01-05 14:56:10.51	20.15	17.61	-37.8	-38.8	23.4	0.00e+00	0	30	0	308281344	50	5568
2026-01-05 14:56:11.52	20.14	17.73	-37.8	-38.7	23.4	0.00e+00	0	30	0	310378496	50	5542
2026-01-05 14:56:12.53	20.13	17.85	-37.9	-38.8	23.3	0.00e+00	0	30	0	312475648	50	5615
2026-01-05 14:56:13.54	20.12	17.97	-37.7	-38.6	23.5	0.00e+00	0	30	0	314572800	48	6146
2026-01-05 14:56:14.56	20.11	18.10	-37.7	-38.6	23.4	0.00e+00	0	30	0	316669952	48	6134
2026-01-05 14:56:15.56	20.10	18.22	-37.9	-38.8	23.3	0.00e+00	0	30	0	317718528	48	6270
2026-01-05 14:56:16.57	20.09	18.34	-37.6	-38.4	23.7	0.00e+00	0	30	0	319815680	48	6033
2026-01-05 14:56:17.58	20.08	18.46	-37.7	-38.6	23.5	0.00e+00	0	30	0	321912832	48	6122
2026-01-05 14:56:18.59	20.07	18.59	-37.7	-38.6	23.5	0.00e+00	0	30	0	324009984	48	6153
2026-01-05 14:56:19.60	20.06	18.71	-37.6	-38.4	23.6	0.00e+00	0	30	0	326107136	48	6032
2026-01-05 14:56:20.61	20.05	18.84	-37.7	-38.6	23.5	0.00e+00	0	30	0	327155712	48	6155
2026-01-05 14:56:21.62	20.04	18.96	-37.6	-38.5	23.5	0.00e+00	0	30	0	329252864	48	6051
2026-01-05 14:56:22.63	20.03	19.09	-37.7	-38.6	23.5	0.00e+00	0	30	0	331350016	48	6121
2026-01-05 14:56:23.63	20.02	19.21	-37.6	-38.5	23.6	0.00e+00	0	30	0	333447168	48	6034
2026-01-05 14:56:24.64	20.01	19.34	-37.5	-38.4	23.6	0.00e+00	0	30	0	335544320	48	6007
2026-01-05 14:56:25.65	20.00	19.47	-37.5	-38.4	23.7	0.00e+00	0	30	0	336592896	48	5997
2026-01-05 14:56:26.66	19.99	19.60	-37.5	-38.4	23.7	0.00e+00	0	30	0	338690048	48	5999
2026-01-05 14:56:27.67	19.97	19.73	-37.5	-38.4	23.7	0.00e+00	0	30	0	340787200	48	6000
2026-01-05 14:56:28.68	19.96	19.86	-37.6	-38.4	23.7	0.00e+00	0	30	0	342884352	48	6031
2026-01-05 14:56:29.69	19.95	19.99	-37.5	-38.4	23.7	0.00e+00	0	30	0	344981504	48	5999
2026-01-05 14:56:30.70	19.94	20.12	-37.6	-38.5	23.6	0.00e+00	0	30	0	346030080	48	6050
2026-01-05 14:56:31.71	19.93	20.25	-37.5	-38.4	23.7	0.00e+00	0	30	0	348127232	48	6006
2026-01-05 14:56:32.72	19.92	20.39	-37.5	-38.4	23.7	0.00e+00	0	30	0	350224384	48	5981
2026-01-05 14:56:33.73	19.90	20.52	-37.6	-38.5	23.6	0.00e+00	0	30	0	352321536	48	6063
2026-01-05 14:56:34.74	19.89	20.66	-37.4	-38.3	23.8	0.00e+00	0	30	0	354418688	48	5901
2026-01-05 14:56:35.75	19.88	20.79	-37.4	-38.3	23.8	0.00e+00	0	30	0	355467264	48	5932
2026-01-05 14:56:36.76	19.87	20.93	-37.5	-38.4	23.8	0.00e+00	0	30	0	357564416	48	5965
2026-01-05 14:56:37.76	19.85	21.06	-37.4	-38.2	23.9	0.00e+00	0	30	0	359661568	48	5896
2026-01-05 14:56:38.78	19.84	21.20	-37.4	-38.3	23.9	0.00e+00	0	30	0	361758720	48	5936
2026-01-05 14:56:39.79	19.83	21.34	-37.4	-38.3	23.8	0.00e+00	0	30	0	363855872	48	5920
2026-01-05 14:56:40.80	19.81	21.48	-37.2	-38.1	24.0	0.00e+00	0	30	0	365953024	48	5775
2026-01-05 14:56:41.81	19.80	21.62	-37.4	-38.3	23.8	0.00e+00	0	30	0	367001600	48	5940
2026-01-05 14:56:42.82	19.79	21.76	-37.3	-38.2	23.9	0.00e+00	0	30	0	369098752	48	5831
2026-01-05 14:56:43.83	19.77	21.90	-37.2	-38.1	24.0	0.00e+00	0	30	0	371195904	48	5799
2026-01-05 14:56:44.84	19.76	22.04	-37.3	-38.1	23.9	0.00e+00	0	30	0	373293056	48	5821
2026-01-05 14:56:45.85	19.74	22.19	-37.4	-38.3	23.8	0.00e+00	0	30	0	375390208	48	5919
2026-01-05 14:56:46.86	19.73	22.33	-37.4	-38.3	23.8	0.00e+00	0	30	0	376438784	48	5914
2026-01-05 14:56:47.87	19.72	22.47	-37.2	-38.0	24.1	0.00e+00	0	30	0	378535936	48	5740
2026-01-05 14:56:48.88	19.70	22.62	-37.2	-38.0	24.1	0.00e+00	0	30	0	380633088	48	5747
2026-01-05 14:56:49.89	19.69	22.77	-37.3	-38.2	23.9	0.00e+00	0	30	0	382730240	48	5868
2026-01-05 14:56:50.90	19.67	22.91	-37.3	-38.1	24.0	0.00e+00	0	30	0	384827392	48	5818
2026-01-05 14:56:51.91	19.66	23.06	-37.1	-38.0	24.0	0.00e+00	0	30	0	385875968	48	5723
2026-01-05 14:56:52.92	19.64	23.21	-37.0	-37.9	24.1	0.00e+00	0	30	0	387973120	48	5648
2026-01-05 14:56:53.93	19.63	23.36	-37.2	-38.1	24.0	0.00e+00	0	30	0	390070272	48	5780
2026-01-05 14:56:54.94	19.61	23.51	-37.1	-37.9	24.0	0.00e+00	0	30	0	392167424	48	5683
2026-01-05 14:56:55.95	19.59	23.66	-37.2	-38.0	24.1	0.00e+00	0	30	0	394264576	48	5743
2026-01-05 14:56:56.96	19.58	23.81	-37.0	-37.9	24.2	0.00e+00	0	30	0	395313152	48	5657
2026-01-05 14:56:57.97	19.56	23.97	-37.0	-37.9	24.1	0.00e+00	0	30	0	397410304	48	5638
2026-01-05 14:56:58.98	19.54	24.12	-37.0	-37.9	24.2	0.00e+00	0	30	0	399507456	48	5645
2026-01-05 14:56:59.99	19.53	24.28	-37.1	-38.0	24.0	0.00e+00	0	30	0	401604608	48	5704
2026-01-05 14:57:01.00	19.51	24.43	-36.9	-37.8	24.2	0.00e+00	0	30	0	403701760	48	5569
2026-01-05 14:57:02.01	19.49	24.59	-37.0	-37.9	24.2	0.00e+00	0	30	0	404750336	48	5635
2026-01-05 14:57:03.02	19.48	24.75	-37.1	-37.9	24.2	0.00e+00	0	30	0	406847488	48	5678
2026-01-05 14:57:04.03	19.46	24.90	-37.2	-38.0	24.1	0.00e+00	0	30	0	408944640	48	5741
2026-01-05 14:57:05.04	19.44	25.06	-37.1	-38.0	24.1	0.00e+00	0	30	0	411041792	48	5699
2026-01-05 14:57:06.05	19.42	25.22	-37.1	-37.9	24.2	0.00e+00	0	30	0	413138944	48	5679
2026-01-05 14:57:07.06	19.40	25.39	-37.1	-38.0	24.2	0.00e+00	0	30	0	414187520	48	5704
2026-01-05 14:57:08.07	19.39	25.55	-37.2	-38.0	24.0	0.00e+00	0	30	0	416284672	48	5759
2026-01-05 14:57:09.07	19.37	25.71	-37.1	-38.0	24.1	0.00e+00	0	30	0	418381824	48	5723
2026-01-05 14:57:10.08	19.35	25.88	-37.3	-38.2	23.9	0.00e+00	0	30	0	420478976	48	5829
2026-01-05 14:57:11.09	19.33	26.04	-37.3	-38.2	24.0	0.00e+00	0	30	0	422576128	48	5849
2026-01-05 14:57:12.10	19.31	26.21	-37.4	-38.3	23.9	0.00e+00	0	30	0	423624704	48	5903
2026-01-05 14:57:13.11	19.29	26.38	-37.5	-38.4	23.8	0.00e+00	0	30	0	425721856	48	6002
2026-01-05 14:57:14.12	19.27	26.54	-37.6	-38.5	23.7	0.00e+00	0	30	0	427819008	48	6080
2026-01-05 14:57:15.13	19.25	26.71	-37.8	-38.7	23.5	0.00e+00	0	30	0	429916160	48	6203
2026-01-05 14:57:16.13	19.23	26.88	-37.9	-38.8	23.4	0.00e+00	0	30	0	432013312	48	6279
2026-01-05 14:57:17.14	19.21	27.05	-37.8	-38.6	23.6	0.00e+00	0	30	0	434110464	48	6173
2026-01-05 14:57:18.15	19.19	27.23	-38.0	-38.9	23.4	0.00e+00	0	30	0	435159040	48	6352
2026-01-05 14:57:19.16	19.17	27.40	-38.0	-38.9	23.3	0.00e+00	0	30	0	437256192	48	6372
2026-01-05 14:57:20.16	19.15	27.58	-38.1	-39.0	23.3	0.00e+00	0	30	0	439353344	48	6420
2026-01-05 14:57:21.17	19.12	27.75	-38.2	-39.2	23.1	0.00e+00	0	30	0	441450496	48	6542
2026-01-05 14:57:22.19	19.10	27.93	-38.4	-39.3	22.9	0.00e+00	0	30	0	443547648	48	6691
2026-01-05 14:57:23.19	19.08	28.11	-38.6	-39.6	22.6	0.00e+00	0	30	0	444596224	48	6896
2026-01-05 14:57:24.20	19.06	28.29	-38.7	-39.7	22.5	0.00e+00	0	30	0	446693376	50	6234
2026-01-05 14:57:25.22	19.03	28.47	-38.9	-39.9	22.5	0.00e+00	0	30	0	448790528	50	6337
2026-01-05 14:57:26.22	19.01	28.65	-39.2	-40.3	22.2	0.00e+00	0	30	0	450887680	50	6644
2026-01-05 14:57:27.23	18.99	28.83	-39.2	-40.3	22.1	0.00e+00	0	30	0	452984832	50	6627
2026-01-05 14:57:28.24	18.96	29.02	-39.3	-40.3	22.0	0.00e+00	0	30	0	454033408	50	6687
2026-01-05 14:57:29.25	18.94	29.20	-39.6	-40.7	21.6	0.00e+00	0	30	0	456130560	52	6241
2026-01-05 14:57:30.26	18.91	29.39	-39.8	-40.9	21.4	0.00e+00	0	30	0	458227712	52	6333
2026-01-05 14:57:31.27	18.89	29.58	-40.0	-41.1	21.2	0.00e+00	0	30	0	460324864	52	6535
2026-01-05 14:57:32.28	18.86	29.77	-40.2	-41.4	21.1	0.00e+00	0	30	0	462422016	52	6703
2026-01-05 14:57:33.29	18.84	29.96	-40.4	-41.6	20.8	0.00e+00	0	30	0	463470592	52	6906
2026-01-05 14:57:34.30	18.81	30.15	-40.8	-42.1	20.6	0.00e+00	0	30	0	465567744	54	6497
2026-01-05 14:57:35.31	18.79	30.34	-40.8	-42.1	20.4	0.00e+00	0	30	0	467664896	54	6512
2026-01-05 14:57:36.32	18.76	30.54	-40.8	-42.1	20.3	0.00e+00	0	30	0	469762048	54	6519
2026-01-05 14:57:37.33	18.73	30.74	-41.1	-42.5	20.0	0.00e+00	0	30	0	471859200	54	6795
2026-01-05 14:57:38.34	18.71	30.93	-41.2	-42.6	19.9	0.00e+00	0	30	0	472907776	54	6899
2026-01-05 14:57:39.35	18.68	31.13	-41.2	-42.6	20.0	0.00e+00	0	30	0	475004928	54	6851
2026-01-05 14:57:40.36	18.65	31.33	-41.2	-42.6	20.0	0.00e+00	0	30	0	477102080	54	6881
2026-01-05 14:57:41.37	18.62	31.53	-41.3	-42.6	20.0	0.00e+00	0	30	0	479199232	54	6913
2026-01-05 14:57:42.38	18.59	31.74	-41.3	-42.7	19.8	0.00e+00	0	30	0	481296384	54	7000
2026-01-05 14:57:43.39	18.56	31.94	-41.4	-42.8	19.9	0.00e+00	0	30	0	482344960	54	7050
2026-01-05 14:57:44.40	18.53	32.14	-41.2	-42.6	19.9	0.00e+00	0	30	0	484442112	54	6868
2026-01-05 14:57:45.41	18.50	32.35	-40.9	-42.2	20.4	0.00e+00	0	30	0	486539264	54	6563
2026-01-05 14:57:46.42	18.47	32.56	-40.7	-42.0	20.6	0.00e+00	0	30	0	488636416	54	6397
2026-01-05 14:57:47.43	18.44	32.77	-40.6	-41.9	20.7	0.00e+00	0	30	0	490733568	54	6351
2026-01-05 14:57:48.44	18.41	32.98	-40.0	-41.2	21.3	0.00e+00	0	30	0	491782144	54	5854
2026-01-05 14:57:49.45	18.38	33.19	-40.0	-41.1	21.4	0.00e+00	0	30	0	493879296	54	5799
2026-01-05 14:57:50.46	18.34	33.41	-39.6	-40.7	21.8	0.00e+00	0	30	0	495976448	52	6220
2026-01-05 14:57:51.47	18.31	33.62	-39.4	-40.4	22.0	0.00e+00	0	30	0	498073600	52	6031
2026-01-05 14:57:52.47	18.28	33.84	-39.2	-40.2	22.2	0.00e+00	0	30	0	500170752	52	5860
2026-01-05 14:57:53.48	18.24	34.06	-38.7	-39.6	22.6	0.00e+00	0	30	0	502267904	52	5502
2026-01-05 14:57:54.49	18.21	34.28	-38.4	-39.4	22.9	0.00e+00	0	30	0	503316480	50	5987
2026-01-05 14:57:55.50	18.17	34.50	-38.1	-39.0	23.3	0.00e+00	0	30	0	505413632	50	5702
2026-01-05 14:57:56.51	18.14	34.72	-37.9	-38.8	23.5	0.00e+00	0	30	0	507510784	50	5582
2026-01-05 14:57:57.52	18.10	34.95	-37.8	-38.6	23.6	0.00e+00	0	30	0	509607936	50	5501
2026-01-05 14:57:58.53	18.07	35.17	-37.4	-38.3	23.9	0.00e+00	0	30	0	511705088	48	5943
2026-01-05 14:57:59.54	18.03	35.40	-37.5	-38.4	23.9	0.00e+00	0	30	0	512753664	48	5968
2026-01-05 14:58:00.54	17.99	35.63	-37.1	-37.9	24.2	0.00e+00	0	30	0	514850816	48	5670
2026-01-05 14:58:01.55	17.95	35.86	-36.9	-37.8	24.4	0.00e+00	0	30	0	516947968	48	5579
2026-01-05 14:58:02.56	17.91	36.10	-36.8	-37.6	24.5	0.00e+00	0	30	0	519045120	48	5459
2026-01-05 14:58:03.58	17.87	36.33	-36.5	-37.3	24.7	0.00e+00	0	30	0	521142272	46	5959
2026-01-05 14:58:04.58	17.83	36.57	-36.4	-37.2	24.9	0.00e+00	0	30	0	522190848	46	5835
2026-01-05 14:58:05.60	17.79	36.81	-36.3	-37.1	25.0	0.00e+00	0	30	0	524288000	46	5821
2026-01-05 14:58:06.61	17.75	37.05	-36.2	-37.0	25.1	0.00e+00	0	30	0	526385152	46	5735
2026-01-05 14:58:07.62	17.71	37.29	-36.1	-36.9	25.1	0.00e+00	0	30	0	528482304	46	5668
2026-01-05 14:58:08.63	17.67	37.53	-36.0	-36.8	25.2	0.00e+00	0	30	0	530579456	46	5588
2026-01-05 14:58:09.63	17.62	37.78	-36.2	-37.0	25.0	0.00e+00	0	30	0	531628032	46	5696
2026-01-05 14:58:10.64	17.58	38.02	-36.1	-36.8	25.1	0.00e+00	0	30	0	533725184	46	5619
2026-01-05 14:58:11.65	17.53	38.27	-36.2	-37.0	24.9	0.00e+00	0	30	0	535822336	46	5717
2026-01-05 14:58:12.66	17.49	38.52	-36.3	-37.1	24.9	0.00e+00	0	30	0	537919488	46	5788
2026-01-05 14:58:13.67	17.44	38.78	-36.5	-37.3	24.7	0.00e+00	0	30	0	540016640	46	5948
2026-01-05 14:58:14.68	17.39	39.03	-36.4	-37.2	24.9	0.00e+00	0	30	0	541065216	46	5875
2026-01-05 14:58:15.69	17.34	39.29	-36.7	-37.6	24.7	0.00e+00	0	30	0	543162368	46	6106
2026-01-05 14:58:16.70	17.29	39.55	-36.6	-37.4	24.7	0.00e+00	0	30	0	545259520	46	6032
2026-01-05 14:58:17.71	17.24	39.81	-36.8	-37.7	24.4	0.00e+00	0	30	0	547356672	46	6191
2026-01-05 14:58:18.72	17.19	40.07	-36.9	-37.8	24.4	0.00e+00	0	30	0	549453824	46	6253
2026-01-05 14:58:19.73	17.14	40.33	-37.1	-38.0	24.2	0.00e+00	0	30	0	550502400	46	6403
2026-01-05 14:58:20.74	17.09	40.60	-37.2	-38.1	24.1	0.00e+00	0	30	0	552599552	46	6508
2026-01-05 14:58:21.75	17.04	40.87	-37.3	-38.2	24.1	0.00e+00	0	30	0	554696704	46	6541
2026-01-05 14:58:22.76	16.98	41.14	-37.3	-38.2	24.1	0.00e+00	0	30	0	556793856	46	6544
2026-01-05 14:58:23.77	16.92	41.41	-37.2	-38.1	24.1	0.00e+00	0	30	0	558891008	46	6492
2026-01-05 14:58:24.78	16.87	41.68	-37.4	-38.3	24.0	0.00e+00	0	30	0	559939584	46	6647
2026-01-05 14:58:25.79	16.81	41.96	-37.4	-38.3	23.9	0.00e+00	0	30	0	562036736	46	6629
2026-01-05 14:58:26.79	16.75	42.23	-37.4	-38.3	23.9	0.00e+00	0	30	0	564133888	46	6654
2026-01-05 14:58:27.80	16.69	42.51	-37.4	-38.3	24.1	0.00e+00	0	30	0	566231040	46	6630
2026-01-05 14:58:28.82	16.63	42.80	-37.6	-38.5	23.9	0.00e+00	0	30	0	568328192	46	6808
2026-01-05 14:58:29.82	16.57	43.08	-37.3	-38.2	24.1	0.00e+00	0	30	0	570425344	46	6567
2026-01-05 14:58:30.83	16.51	43.37	-37.5	-38.3	23.9	0.00e+00	0	30	0	571473920	46	6669
2026-01-05 14:58:31.84	16.44	43.65	-37.7	-38.6	23.7	0.00e+00	0	30	0	573571072	46	6867
2026-01-05 14:58:32.85	16.38	43.95	-37.9	-38.9	23.4	0.00e+00	0	30	0	575668224	48	6319
2026-01-05 14:58:33.86	16.31	44.24	-38.0	-38.9	23.4	0.00e+00	0	30	0	577765376	48	6378
2026-01-05 14:58:34.87	16.24	44.53	-38.0	-39.0	23.4	0.00e+00	0	30	0	579862528	48	6415
2026-01-05 14:58:35.88	16.17	44.83	-38.2	-39.1	23.2	0.00e+00	0	30	0	580911104	48	6479
2026-01-05 14:58:36.89	16.10	45.13	-38.7	-39.6	21.9	0.00e+00	0	30	0	583008256	48	6908
2026-01-05 14:58:37.90	16.03	45.43	-39.2	-40.3	22.0	0.00e+00	0	30	0	585105408	50	6627
2026-01-05 14:58:38.91	15.95	45.74	-39.6	-40.7	21.7	0.00e+00	0	30	0	587202560	50	6976
2026-01-05 14:58:39.92	15.88	46.04	-39.9	-41.1	21.5	0.00e+00	0	30	0	589299712	52	6465
2026-01-05 14:58:40.93	15.80	46.35	-40.2	-41.3	21.1	0.00e+00	0	30	0	590348288	52	6664
2026-01-05 14:58:41.94	15.72	46.66	-40.7	-42.0	19.6	0.00e+00	0	30	0	592445440	52	7198
2026-01-05 14:58:42.95	15.64	46.97	-40.9	-42.2	20.3	0.00e+00	0	30	0	594542592	54	6591
2026-01-05 14:58:43.96	15.56	47.29	-41.3	-42.7	19.9	0.00e+00	0	30	0	596639744	54	6942
2026-01-05 14:58:44.97	15.48	47.61	-40.7	-42.0	20.6	0.00e+00	0	30	0	598736896	54	6427
2026-01-05 14:58:45.97	15.39	47.92	-40.4	-41.6	20.9	0.00e+00	0	30	0	599785472	54	6163
2026-01-05 14:58:46.98	15.30	48.25	-40.5	-41.7	20.8	0.00e+00	0	30	0	601882624	54	6240
2026-01-05 14:58:47.99	15.21	48.57	-40.1	-41.2	21.3	0.00e+00	0	30	0	603979776	54	5892
2026-01-05 14:58:49.00	15.12	48.90	-39.8	-41.0	21.6	0.00e+00	0	30	0	606076928	54	5705
2026-01-05 14:58:50.01	15.03	49.23	-39.8	-40.9	21.7	0.00e+00	0	30	0	608174080	52	6320
2026-01-05 14:58:51.02	14.93	49.56	-39.6	-40.7	21.8	0.00e+00	0	30	0	609222656	52	6196
2026-01-05 14:58:52.03	14.84	49.89	-39.2	-40.2	22.2	0.00e+00	0	30	0	611319808	52	5878
2026-01-05 14:58:53.04	14.73	50.23	-38.8	-39.7	22.8	0.00e+00	0	30	0	613416960	52	5561
2026-01-05 14:58:54.05	14.63	50.57	-38.2	-39.1	23.3	0.00e+00	0	30	0	615514112	50	5789
2026-01-05 14:58:55.06	14.53	50.91	-37.6	-38.5	23.7	0.00e+00	0	30	0	617611264	48	6050
2026-01-05 14:58:56.07	14.42	51.25	-37.0	-37.9	24.4	0.00e+00	0	30	0	618659840	48	5648
2026-01-05 14:58:57.07	14.31	51.59	-36.4	-37.2	24.9	0.00e+00	0	30	0	620756992	46	5832
2026-01-05 14:58:58.08	14.20	51.94	-36.1	-36.9	25.2	0.00e+00	0	30	0	622854144	46	5640
2026-01-05 14:58:59.09	14.08	52.29	-36.0	-36.8	25.0	0.00e+00	0	30	0	624951296	46	5588
2026-01-05 14:59:00.10	13.97	52.65	-35.8	-36.6	25.4	0.00e+00	0	30	0	627048448	46	5483
2026-01-05 14:59:01.11	13.84	53.00	-35.8	-36.5	25.3	0.00e+00	0	30	0	628097024	44	6080
2026-01-05 14:59:02.11	13.72	53.36	-35.8	-36.6	25.4	0.00e+00	0	30	0	630194176	44	6132
2026-01-05 14:59:03.12	13.59	53.72	-35.9	-36.6	25.4	0.00e+00	0	30	0	632291328	44	6164
2026-01-05 14:59:04.13	13.46	54.08	-36.0	-36.8	25.1	0.00e+00	0	30	0	634388480	44	6291
2026-01-05 14:59:05.14	13.33	54.44	-36.3	-37.1	24.8	0.00e+00	0	30	0	636485632	44	6486
2026-01-05 14:59:06.15	13.19	54.81	-36.4	-37.2	24.8	0.00e+00	0	30	0	637534208	44	6547
2026-01-05 14:59:07.16	13.05	55.18	-36.5	-37.3	24.7	0.00e+00	0	30	0	639631360	44	6616
2026-01-05 14:59:08.17	12.90	55.55	-36.7	-37.5	24.6	0.00e+00	0	30	0	641728512	44	6826
2026-01-05 14:59:09.18	12.75	55.93	-37.2	-38.0	24.2	0.00e+00	0	30	0	643825664	46	6451
2026-01-05 14:59:10.19	12.60	56.31	-37.8	-38.7	23.5	0.00e+00	0	30	0	645922816	48	6233
2026-01-05 14:59:11.19	12.44	56.68	-38.4	-39.4	22.8	0.00e+00	0	30	0	646971392	48	6720
2026-01-05 14:59:12.21	12.28	57.07	-39.6	-40.7	21.9	0.00e+00	0	30	0	649068544	50	6988
2026-01-05 14:59:13.21	12.11	57.45	-40.1	-41.3	21.2	0.00e+00	0	30	0	651165696	52	6645
2026-01-05 14:59:14.22	11.94	57.83	-40.8	-42.1	20.5	0.00e+00	0	30	0	653262848	52	7255
2026-01-05 14:59:15.23	11.77	58.22	-41.0	-42.4	20.3	0.00e+00	0	30	0	655360000	54	6693
2026-01-05 14:59:16.24	11.58	58.62	-41.3	-42.7	19.8	0.00e+00	0	30	0	656408576	54	6958
2026-01-05 14:59:17.25	11.39	59.01	-41.5	-43.0	19.7	0.00e+00	0	30	0	658505728	54	7201
2026-01-05 14:59:18.26	11.20	59.40	-41.1	-42.5	20.1	0.00e+00	0	30	0	660602880	54	6776
2026-01-05 14:59:19.27	11.00	59.80	-40.1	-41.2	21.2	0.00e+00	0	30	0	662700032	54	5894
2026-01-05 14:59:20.28	10.79	60.20	-39.3	-40.4	22.0	0.00e+00	0	30	0	664797184	52	5991
2026-01-05 14:59:21.29	10.58	60.61	-38.8	-39.8	22.6	0.00e+00	0	30	0	666894336	52	5613
2026-01-05 14:59:22.30	10.36	61.01	-38.1	-39.0	23.3	0.00e+00	0	30	0	667942912	50	5752
2026-01-05 14:59:23.31	10.13	61.42	-38.0	-39.0	23.2	0.00e+00	0	30	0	670040064	50	5716
2026-01-05 14:59:24.32	9.90	61.83	-37.4	-38.3	24.0	0.00e+00	0	30	0	672137216	48	5920
2026-01-05 14:59:25.32	9.66	62.23	-36.8	-37.7	24.4	0.00e+00	0	30	0	674234368	48	5512
2026-01-05 14:59:26.34	9.40	62.65	-37.0	-37.8	24.2	0.00e+00	0	30	0	676331520	46	6288
2026-01-05 14:59:27.34	9.14	63.06	-36.4	-37.2	24.8	0.00e+00	0	30	0	677380096	46	5877
2026-01-05 14:59:28.35	8.87	63.48	-36.4	-37.2	24.8	0.00e+00	0	30	0	679477248	46	5880
2026-01-05 14:59:29.36	8.59	63.90	-36.4	-37.2	24.8	0.00e+00	0	30	0	681574400	46	5844
2026-01-05 14:59:30.37	8.30	64.32	-36.5	-37.3	24.7	0.00e+00	0	30	0	683671552	46	5951
2026-01-05 14:59:31.38	8.00	64.74	-36.5	-37.3	24.6	0.00e+00	0	30	0	685768704	46	5940
2026-01-05 14:59:32.39	7.69	65.17	-37.0	-37.8	23.9	0.00e+00	0	30	0	686817280	46	6291
2026-01-05 14:59:33.40	7.36	65.59	-37.3	-38.2	23.9	0.00e+00	0	30	0	688914432	46	6572
2026-01-05 14:59:34.41	7.02	66.02	-37.5	-38.4	23.7	0.00e+00	0	30	0	691011584	46	6728
2026-01-05 14:59:35.42	6.67	66.45	-37.9	-38.8	23.3	0.00e+00	0	30	0	693108736	48	6305
2026-01-05 14:59:36.42	6.31	66.87	-38.2	-39.1	23.0	0.00e+00	0	30	0	695205888	48	6520
2026-01-05 14:59:37.43	5.92	67.31	-38.1	-39.0	23.1	0.00e+00	0	30	0	696254464	48	6423
2026-01-05 14:59:38.44	5.53	67.74	-37.8	-38.7	23.1	0.00e+00	0	30	0	698351616	48	6226
2026-01-05 14:59:39.45	5.11	68.17	-37.8	-38.6	23.5	0.00e+00	0	30	0	700448768	48	6167
2026-01-05 14:59:40.46	4.67	68.61	-37.9	-38.8	23.4	0.00e+00	0	30	0	702545920	48	6261
2026-01-05 14:59:41.47	4.22	69.04	-37.7	-38.6	23.7	0.00e+00	0	30	0	704643072	48	6115
2026-01-05 14:59:42.48	3.74	69.48	-37.1	-38.0	24.1	0.00e+00	0	30	0	705691648	48	5710
2026-01-05 14:59:43.49	3.25	69.92	-37.3	-38.2	24.0	0.00e+00	0	30	0	707788800	48	5854
2026-01-05 14:59:44.50	2.72	70.36	-37.5	-38.4	23.7	0.00e+00	0	30	0	709885952	48	5971
2026-01-05 14:59:45.51	2.18	70.79	-37.7	-38.6	23.6	0.00e+00	0	30	0	711983104	48	6114
2026-01-05 14:59:46.52	1.60	71.23	-37.6	-38.5	23.7	0.00e+00	0	30	0	714080256	48	6045
2026-01-05 14:59:47.53	1.00	71.67	-37.8	-38.8	23.4	0.00e+00	0	30	0	715128832	48	6251
2026-01-05 14:59:48.54	0.36	72.11	-37.6	-38.5	23.8	0.00e+00	0	30	0	717225984	48	6055
2026-01-05 14:59:49.54	359.70	72.54	-37.3	-38.1	24.2	0.00e+00	0	30	0	719323136	48	5810
2026-01-05 14:59:50.56	358.98	72.98	-37.5	-38.4	23.8	0.00e+00	0	30	0	721420288	48	5989
2026-01-05 14:59:51.57	358.24	73.42	-37.9	-38.9	23.3	0.00e+00	0	30	0	723517440	48	6332
2026-01-05 14:59:52.58	357.45	73.86	-38.6	-39.6	22.4	0.00e+00	0	30	0	724566016	48	6914
2026-01-05 14:59:53.58	356.63	74.28	-39.4	-40.5	22.0	0.00e+00	0	30	0	726663168	50	6839
2026-01-05 14:59:54.59	355.74	74.72	-39.2	-40.3	21.9	0.00e+00	0	30	0	728760320	50	6630
2026-01-05 14:59:55.60	354.81	75.14	-38.6	-39.6	22.7	0.00e+00	0	30	0	730857472	50	6111
2026-01-05 14:59:56.61	353.81	75.57	-38.4	-39.4	23.0	0.00e+00	0	30	0	732954624	50	6015
2026-01-05 14:59:57.62	352.75	75.99	-38.5	-39.5	22.8	0.00e+00	0	30	0	735051776	50	6079
2026-01-05 14:59:58.63	351.63	76.41	-38.4	-39.4	22.9	0.00e+00	0	30	0	736100352	50	6010
2026-01-05 14:59:59.64	350.43	76.83	-39.2	-40.3	22.0	0.00e+00	0	30	0	738197504	50	6655
2026-01-05 15:00:00.65	349.15	77.24	-39.7	-40.9	21.6	0.00e+00	0	30	0	740294656	52	6323
2026-01-05 15:00:01.66	347.78	77.65	-39.8	-40.9	21.6	0.00e+00	0	30	0	742391808	52	6339
2026-01-05 15:00:02.67	346.32	78.04	-38.8	-39.8	22.7	0.00e+00	0	30	0	744488960	52	5594
2026-01-05 15:00:03.68	344.75	78.44	-38.0	-38.9	23.4	0.00e+00	0	30	0	745537536	50	5671
2026-01-05 15:00:04.69	343.08	78.82	-37.2	-38.0	24.1	0.00e+00	0	30	0	747634688	48	5734
2026-01-05 15:00:05.70	341.28	79.19	-36.7	-37.5	24.6	0.00e+00	0	30	0	749731840	46	6048
2026-01-05 15:00:06.71	339.35	79.56	-36.6	-37.4	24.6	0.00e+00	0	30	0	751828992	46	6025
2026-01-05 15:00:07.72	337.29	79.91	-36.5	-37.3	24.6	0.00e+00	0	30	0	753926144	46	5961
2026-01-05 15:00:08.72	335.10	80.24	-36.2	-37.0	25.0	0.00e+00	0	30	0	754974720	46	5720
2026-01-05 15:00:09.73	332.72	80.57	-36.4	-37.2	24.8	0.00e+00	0	30	0	757071872	46	5856
2026-01-05 15:00:10.75	330.16	80.88	-37.0	-37.9	24.2	0.00e+00	0	30	0	759169024	46	6341
2026-01-05 15:00:11.75	327.47	81.16	-37.6	-38.5	23.9	0.00e+00	0	30	0	761266176	46	6831
2026-01-05 15:00:12.76	324.58	81.43	-37.7	-38.5	23.7	0.00e+00	0	30	0	763363328	48	6087
2026-01-05 15:00:13.77	321.50	81.68	-38.4	-39.4	22.8	0.00e+00	0	30	0	764411904	48	6717
2026-01-05 15:00:14.78	318.25	81.90	-39.1	-40.1	22.3	0.00e+00	0	30	0	766509056	50	6533
2026-01-05 15:00:15.79	314.82	82.09	-40.0	-41.2	21.1	0.00e+00	0	30	0	768606208	52	6544
2026-01-05 15:00:16.80	311.24	82.26	-40.8	-42.1	20.4	0.00e+00	0	30	0	770703360	54	6536
2026-01-05 15:00:17.81	307.51	82.39	-40.6	-41.9	20.5	0.00e+00	0	30	0	772800512	54	6362
2026-01-05 15:00:18.82	303.66	82.49	-40.7	-42.0	20.4	0.00e+00	0	30	0	773849088	54	6396
2026-01-05 15:00:19.83	299.73	82.55	-40.3	-41.4	20.9	0.00e+00	0	30	0	775946240	54	6029
2026-01-05 15:00:20.84	295.75	82.58	-40.3	-41.5	20.9	0.00e+00	0	30	0	778043392	54	6082
2026-01-05 15:00:21.85	291.75	82.58	-41.0	-42.3	20.2	0.00e+00	0	30	0	780140544	54	6680
2026-01-05 15:00:22.86	287.78	82.54	-40.9	-42.2	20.3	0.00e+00	0	30	0	782237696	54	6592
2026-01-05 15:00:23.87	283.87	82.46	-40.6	-41.8	20.4	0.00e+00	0	30	0	783286272	54	6279
2026-01-05 15:00:24.88	280.06	82.35	-40.0	-41.1	21.2	0.00e+00	0	30	0	785383424	54	5792
2026-01-05 15:00:25.89	276.37	82.21	-39.9	-41.0	21.5	0.00e+00	0	30	0	787480576	54	5727
2026-01-05 15:00:26.89	272.87	82.04	-39.2	-40.3	22.1	0.00e+00	0	30	0	789577728	52	5922
2026-01-05 15:00:27.90	269.49	81.83	-39.5	-40.6	21.7	0.00e+00	0	30	0	791674880	52	6171
2026-01-05 15:00:28.91	266.29	81.61	-39.4	-40.5	21.8	0.00e+00	0	30	0	792723456	52	6103
2026-01-05 15:00:29.92	263.27	81.35	-38.9	-39.9	22.4	0.00e+00	0	30	0	794820608	52	5669
2026-01-05 15:00:30.93	260.43	81.08	-38.1	-39.0	23.3	0.00e+00	0	30	0	796917760	50	5718
2026-01-05 15:00:31.94	257.77	80.78	-37.3	-38.2	23.8	0.00e+00	0	30	0	799014912	48	5859
2026-01-05 15:00:32.95	255.28	80.47	-37.2	-38.1	24.1	0.00e+00	0	30	0	801112064	48	5795
2026-01-05 15:00:33.96	252.96	80.14	-36.8	-37.6	24.4	0.00e+00	0	30	0	802160640	48	5492
2026-01-05 15:00:34.97	250.79	79.80	-37.0	-37.8	24.3	0.00e+00	0	30	0	804257792	48	5596
2026-01-05 15:00:35.98	248.76	79.44	-37.3	-38.2	24.0	0.00e+00	0	30	0	806354944	48	5863
2026-01-05 15:00:36.98	246.90	79.08	-37.7	-38.6	23.6	0.00e+00	0	30	0	808452096	48	6109
2026-01-05 15:00:37.99	245.14	78.70	-38.5	-39.5	22.8	0.00e+00	0	30	0	810549248	48	6781
2026-01-05 15:00:39.01	243.48	78.31	-39.6	-40.7	21.6	0.00e+00	0	30	0	811597824	50	6980
2026-01-05 15:00:40.01	241.96	77.92	-40.5	-41.7	20.9	0.00e+00	0	30	0	813694976	52	7000
2026-01-05 15:00:41.02	240.53	77.52	-40.5	-41.7	20.9	0.00e+00	0	30	0	815792128	52	6991
2026-01-05 15:00:42.04	239.17	77.11	-39.6	-40.7	21.7	0.00e+00	0	30	0	817889280	52	6221
2026-01-05 15:00:43.04	237.93	76.70	-39.3	-40.3	22.2	0.00e+00	0	30	0	819986432	52	5958
2026-01-05 15:00:44.05	236.75	76.28	-37.9	-38.8	23.5	0.00e+00	0	30	0	821035008	50	5597
2026-01-05 15:00:45.06	235.65	75.86	-37.5	-38.4	23.7	0.00e+00	0	30	0	823132160	48	5975
2026-01-05 15:00:46.07	234.61	75.44	-38.4	-39.4	22.9	0.00e+00	0	30	0	825229312	48	6713
2026-01-05 15:00:47.08	233.63	75.01	-39.2	-40.3	22.1	0.00e+00	0	30	0	827326464	50	6624
2026-01-05 15:00:48.09	232.71	74.58	-38.7	-39.7	22.7	0.00e+00	0	30	0	829423616	50	6211
2026-01-05 15:00:49.10	231.84	74.15	-38.2	-39.2	23.2	0.00e+00	0	30	0	831520768	50	5841
2026-01-05 15:00:50.11	231.02	73.71	-37.4	-38.2	24.1	0.00e+00	0	30	0	832569344	48	5873
2026-01-05 15:00:51.12	230.25	73.28	-37.0	-37.8	24.2	0.00e+00	0	30	0	834666496	48	5630
2026-01-05 15:00:52.13	229.52	72.84	-36.9	-37.8	24.3	0.00e+00	0	30	0	836763648	48	5582
2026-01-05 15:00:53.14	228.82	72.40	-35.9	-36.7	25.3	0.00e+00	0	30	0	838860800	46	5525
2026-01-05 15:00:54.14	228.17	71.97	-35.7	-36.5	25.3	0.00e+00	0	30	0	840957952	44	6046
2026-01-05 15:00:55.15	227.54	71.53	-35.2	-35.9	25.8	0.00e+00	0	30	0	842006528	44	5695
2026-01-05 15:00:56.16	226.95	71.09	-35.5	-36.2	25.6	0.00e+00	0	30	0	844103680	44	5886
2026-01-05 15:00:57.17	226.38	70.65	-35.9	-36.7	25.2	0.00e+00	0	30	0	846200832	44	6182
2026-01-05 15:00:58.18	225.84	70.21	-36.1	-36.9	24.7	0.00e+00	0	30	0	848297984	44	6343
2026-01-05 15:00:59.19	225.32	69.77	-36.9	-37.7	24.3	0.00e+00	0	30	0	850395136	46	6217
2026-01-05 15:01:00.20	224.83	69.33	-38.3	-39.3	22.9	0.00e+00	0	30	0	851443712	48	6619
2026-01-05 15:01:01.21	224.36	68.90	-39.2	-40.2	22.2	0.00e+00	0	30	0	853540864	50	6567
2026-01-05 15:01:02.22	223.91	68.46	-39.3	-40.4	22.0	0.00e+00	0	30	0	855638016	50	6728
2026-01-05 15:01:03.23	223.49	68.03	-39.2	-40.3	21.9	0.00e+00	0	30	0	857735168	50	6631
2026-01-05 15:01:04.24	223.07	67.59	-39.8	-40.9	21.5	0.00e+00	0	30	0	859832320	50	7101
2026-01-05 15:01:05.25	222.68	67.16	-40.7	-42.0	20.4	0.00e+00	0	30	0	860880896	52	7181
2026-01-05 15:01:06.26	222.30	66.73	-41.1	-42.5	19.9	0.00e+00	0	30	0	862978048	54	6844
2026-01-05 15:01:07.27	221.94	66.29	-41.0	-42.3	20.2	0.00e+00	0	30	0	865075200	54	6686
2026-01-05 15:01:08.28	221.59	65.87	-40.6	-41.9	20.7	0.00e+00	0	30	0	867172352	54	6320
2026-01-05 15:01:09.29	221.26	65.44	-39.8	-40.9	21.5	0.00e+00	0	30	0	869269504	54	5660
2026-01-05 15:01:10.30	220.94	65.01	-39.6	-40.7	21.8	0.00e+00	0	30	0	870318080	52	6184
2026-01-05 15:01:11.30	220.63	64.59	-38.2	-39.1	23.1	0.00e+00	0	30	0	872415232	50	5808
2026-01-05 15:01:12.32	220.33	64.16	-36.4	-37.2	24.9	0.00e+00	0	30	0	874512384	46	5866
2026-01-05 15:01:13.32	220.04	63.75	-35.6	-36.4	25.5	0.00e+00	0	30	0	876609536	44	5977
2026-01-05 15:01:14.34	219.76	63.32	-35.7	-36.5	25.5	0.00e+00	0	30	0	878706688	44	6047
2026-01-05 15:01:15.34	219.50	62.91	-36.0	-36.7	25.2	0.00e+00	0	30	0	879755264	44	6242
2026-01-05 15:01:16.36	219.24	62.49	-35.9	-36.7	25.0	0.00e+00	0	30	0	881852416	44	6220
2026-01-05 15:01:17.37	218.99	62.08	-36.3	-37.1	24.6	0.00e+00	0	30	0	883949568	44	6504
2026-01-05 15:01:18.37	218.75	61.67	-36.4	-37.2	24.6	0.00e+00	0	30	0	886046720	44	6581
2026-01-05 15:01:19.39	218.51	61.26	-36.4	-37.2	24.9	0.00e+00	0	30	0	888143872	46	5851
2026-01-05 15:01:20.40	218.29	60.85	-36.6	-37.5	24.5	0.00e+00	0	30	0	889192448	46	6036
2026-01-05 15:01:21.41	218.07	60.44	-37.1	-38.0	24.1	0.00e+00	0	30	0	891289600	46	6407
2026-01-05 15:01:22.42	217.86	60.04	-38.4	-39.4	22.8	0.00e+00	0	30	0	893386752	48	6704
2026-01-05 15:01:23.43	217.65	59.64	-39.5	-40.5	21.8	0.00e+00	0	30	0	895483904	50	6843
2026-01-05 15:01:24.44	217.45	59.24	-40.0	-41.2	21.3	0.00e+00	0	30	0	897581056	52	6540
2026-01-05 15:01:25.45	217.26	58.85	-40.0	-41.2	21.2	0.00e+00	0	30	0	899678208	52	6597
2026-01-05 15:01:26.46	217.08	58.45	-39.5	-40.6	21.9	0.00e+00	0	30	0	900726784	52	6112
2026-01-05 15:01:27.46	216.90	58.07	-39.4	-40.4	22.0	0.00e+00	0	30	0	902823936	52	6031
2026-01-05 15:01:28.47	216.72	57.68	-39.4	-40.5	21.9	0.00e+00	0	30	0	904921088	52	6077
2026-01-05 15:01:29.49	216.55	57.29	-39.4	-40.4	22.0	0.00e+00	0	30	0	907018240	52	6005
2026-01-05 15:01:30.49	216.38	56.90	-39.3	-40.3	22.2	0.00e+00	0	30	0	909115392	52	5921
2026-01-05 15:01:31.50	216.22	56.52	-38.7	-39.7	22.7	0.00e+00	0	30	0	910163968	52	5541
2026-01-05 15:01:32.51	216.07	56.14	-38.5	-39.5	22.9	0.00e+00	0	30	0	912261120	50	6067
2026-01-05 15:01:33.52	215.91	55.77	-38.0	-38.9	23.4	0.00e+00	0	30	0	914358272	50	5676
2026-01-05 15:01:34.53	215.77	55.39	-36.9	-37.7	24.4	0.00e+00	0	30	0	916455424	48	5561
2026-01-05 15:01:35.54	215.62	55.02	-36.2	-37.0	25.2	0.00e+00	0	30	0	918552576	46	5699
2026-01-05 15:01:36.55	215.48	54.65	-35.2	-36.0	25.6	0.00e+00	0	30	0	919601152	44	5702
2026-01-05 15:01:37.56	215.34	54.28	-35.2	-35.9	25.9	0.00e+00	0	30	0	921698304	44	5675
2026-01-05 15:01:38.57	215.21	53.91	-35.5	-36.2	25.4	0.00e+00	0	30	0	923795456	44	5893
2026-01-05 15:01:39.58	215.08	53.55	-35.9	-36.7	25.2	0.00e+00	0	30	0	925892608	44	6187
2026-01-05 15:01:40.59	214.95	53.19	-36.0	-36.8	25.2	0.00e+00	0	30	0	927989760	44	6276
2026-01-05 15:01:41.60	214.83	52.83	-36.2	-37.0	25.0	0.00e+00	0	30	0	929038336	44	6457
2026-01-05 15:01:42.61	214.71	52.48	-36.3	-37.1	24.9	0.00e+00	0	30	0	931135488	44	6525
2026-01-05 15:01:43.62	214.59	52.12	-36.3	-37.1	24.9	0.00e+00	0	30	0	933232640	44	6518
2026-01-05 15:01:44.63	214.48	51.77	-36.4	-37.2	24.9	0.00e+00	0	30	0	935329792	44	6559
2026-01-05 15:01:45.64	214.37	51.43	-36.8	-37.6	24.6	0.00e+00	0	30	0	937426944	44	6860
2026-01-05 15:01:46.65	214.26	51.08	-37.6	-38.5	23.7	0.00e+00	0	30	0	938475520	46	6775
2026-01-05 15:01:47.66	214.15	50.74	-38.6	-39.6	22.8	0.00e+00	0	30	0	940572672	48	6884
2026-01-05 15:01:48.66	214.05	50.40	-39.3	-40.4	21.9	0.00e+00	0	30	0	942669824	50	6694
2026-01-05 15:01:49.67	213.94	50.06	-39.7	-40.8	21.6	0.00e+00	0	30	0	944766976	52	6302
2026-01-05 15:01:50.68	213.85	49.72	-39.9	-41.1	21.4	0.00e+00	0	30	0	946864128	52	6469
2026-01-05 15:01:51.69	213.75	49.39	-40.6	-41.8	20.8	0.00e+00	0	30	0	947912704	52	7047
2026-01-05 15:01:52.70	213.65	49.06	-40.5	-41.8	20.9	0.00e+00	0	30	0	950009856	52	7012
2026-01-05 15:01:53.71	213.56	48.73	-40.6	-41.8	20.6	0.00e+00	0	30	0	952107008	54	6299
2026-01-05 15:01:54.72	213.47	48.40	-40.7	-42.0	20.6	0.00e+00	0	30	0	954204160	54	6401
2026-01-05 15:01:55.73	213.38	48.08	-41.4	-42.8	19.7	0.00e+00	0	30	0	956301312	54	7059
2026-01-05 15:01:56.74	213.29	47.75	-41.7	-43.2	19.4	0.00e+00	0	30	0	957349888	54	7385
2026-01-05 15:01:57.75	213.21	47.43	-41.9	-43.4	19.3	0.00e+00	0	30	0	959447040	56	6746
2026-01-05 15:01:58.76	213.12	47.12	-41.1	-42.5	20.3	0.00e+00	0	30	0	961544192	56	6057
2026-01-05 15:01:59.77	213.04	46.80	-40.6	-41.9	20.8	0.00e+00	0	30	0	963641344	54	6342
2026-01-05 15:02:00.78	212.96	46.49	-40.2	-41.4	21.2	0.00e+00	0	30	0	965738496	54	5975
2026-01-05 15:02:01.79	212.88	46.18	-40.5	-41.7	20.9	0.00e+00	0	30	0	967835648	54	6229
2026-01-05 15:02:02.79	212.81	45.87	-40.0	-41.1	21.2	0.00e+00	0	30	0	968884224	52	6531
2026-01-05 15:02:03.80	212.73	45.57	-39.3	-40.3	22.1	0.00e+00	0	30	0	970981376	52	5960
2026-01-05 15:02:04.81	212.66	45.26	-39.5	-40.6	21.8	0.00e+00	0	30	0	973078528	52	6130
2026-01-05 15:02:05.82	212.59	44.96	-39.8	-40.9	21.4	0.00e+00	0	30	0	975175680	52	6356
2026-01-05 15:02:06.83	212.52	44.66	-40.3	-41.5	21.0	0.00e+00	0	30	0	977272832	52	6796
2026-01-05 15:02:07.84	212.45	44.36	-40.7	-41.9	20.6	0.00e+00	0	30	0	978321408	52	7159
2026-01-05 15:02:08.85	212.38	44.07	-40.9	-42.2	20.4	0.00e+00	0	30	0	980418560	54	6598
2026-01-05 15:02:09.86	212.31	43.78	-40.9	-42.2	20.3	0.00e+00	0	30	0	982515712	54	6593
2026-01-05 15:02:10.87	212.25	43.49	-40.6	-41.9	21.2	0.00e+00	0	30	0	984612864	54	6338
2026-01-05 15:02:11.88	212.18	43.20	-39.8	-41.0	21.5	0.00e+00	0	30	0	986710016	54	5705
2026-01-05 15:02:12.89	212.12	42.91	-39.8	-40.9	21.6	0.00e+00	0	30	0	987758592	54	5652
2026-01-05 15:02:13.90	212.06	42.63	-39.4	-40.5	22.0	0.00e+00	0	30	0	989855744	52	6044
2026-01-05 15:02:14.91	211.99	42.34	-39.5	-40.5	22.0	0.00e+00	0	30	0	991952896	52	6093
2026-01-05 15:02:15.92	211.94	42.06	-39.3	-40.3	22.1	0.00e+00	0	30	0	994050048	52	5922
2026-01-05 15:02:16.92	211.88	41.79	-39.5	-40.5	21.9	0.00e+00	0	30	0	996147200	52	6082
2026-01-05 15:02:17.93	211.82	41.51	-39.6	-40.6	21.7	0.00e+00	0	30	0	997195776	52	6160
2026-01-05 15:02:18.94	211.76	41.24	-39.8	-41.0	21.5	0.00e+00	0	30	0	999292928	52	6402
2026-01-05 15:02:19.95	211.71	40.97	-40.2	-41.4	21.1	0.00e+00	0	30	0	1001390080	52	6716
2026-01-05 15:02:20.96	211.65	40.70	-40.9	-42.2	20.4	0.00e+00	0	30	0	1003487232	52	7360
2026-01-05 15:02:21.98	211.60	40.43	-40.7	-41.9	20.7	0.00e+00	0	30	0	1005584384	54	6350
2026-01-05 15:02:22.98	211.55	40.16	-40.7	-42.0	20.6	0.00e+00	0	30	0	1006632960	54	6440
2026-01-05 15:02:23.99	211.49	39.90	-40.8	-42.0	20.6	0.00e+00	0	30	0	1008730112	54	6440
2026-01-05 15:02:25.00	211.44	39.64	-40.6	-41.8	20.8	0.00e+00	0	30	0	1010827264	54	6285
2026-01-05 15:02:26.01	211.39	39.38	-40.3	-41.5	21.0	0.00e+00	0	30	0	1012924416	54	6099
2026-01-05 15:02:27.02	211.34	39.12	-40.1	-41.3	21.3	0.00e+00	0	30	0	1015021568	54	5939
2026-01-05 15:02:28.03	211.30	38.86	-39.9	-41.1	21.4	0.00e+00	0	30	0	1016070144	54	5784
2026-01-05 15:02:29.04	211.25	38.61	-40.0	-41.1	21.5	0.00e+00	0	30	0	1018167296	54	5820
2026-01-05 15:02:30.05	211.20	38.35	-39.6	-40.7	21.7	0.00e+00	0	30	0	1020264448	52	6198
2026-01-05 15:02:31.06	211.16	38.10	-39.6	-40.6	21.8	0.00e+00	0	30	0	1022361600	52	6163
2026-01-05 15:02:32.07	211.11	37.85	-39.8	-40.9	21.7	0.00e+00	0	30	0	1024458752	52	6368
2026-01-05 15:02:33.08	211.07	37.61	-39.7	-40.8	21.7	0.00e+00	0	30	0	1025507328	52	6296
2026-01-05 15:02:34.08	211.02	37.36	-39.7	-40.9	21.5	0.00e+00	0	30	0	1027604480	52	6319
2026-01-05 15:02:35.09	210.98	37.12	-39.6	-40.7	21.8	0.00e+00	0	30	0	1029701632	52	6195
2026-01-05 15:02:36.10	210.94	36.88	-39.5	-40.5	22.0	0.00e+00	0	30	0	1031798784	52	6087
2026-01-05 15:02:37.11	210.90	36.64	-39.3	-40.4	22.2	0.00e+00	0	30	0	1033895936	52	5978
2026-01-05 15:02:38.12	210.85	36.40	-39.2	-40.3	22.2	0.00e+00	0	30	0	1035993088	52	5899
2026-01-05 15:02:39.13	210.81	36.16	-39.1	-40.1	22.4	0.00e+00	0	30	0	1037041664	52	5778
2026-01-05 15:02:40.14	210.77	35.93	-39.0	-40.0	22.5	0.00e+00	0	30	0	1039138816	52	5737
2026-01-05 15:02:41.15	210.73	35.69	-39.2	-40.3	22.2	0.00e+00	0	30	0	1041235968	52	5897
2026-01-05 15:02:42.16	210.70	35.46	-39.0	-40.0	22.5	0.00e+00	0	30	0	1043333120	52	5709
2026-01-05 15:02:43.17	210.66	35.23	-38.9	-39.9	22.5	0.00e+00	0	30	0	1045430272	52	5649
2026-01-05 15:02:44.18	210.62	35.00	-38.8	-39.8	22.5	0.00e+00	0	30	0	1046478848	52	5584
2026-01-05 15:02:45.19	210.58	34.78	-38.8	-39.8	22.7	0.00e+00	0	30	0	1048576000	52	5598
2026-01-05 15:02:46.20	210.55	34.55	-39.0	-40.0	22.4	0.00e+00	0	30	0	1050673152	52	5743
2026-01-05 15:02:47.21	210.51	34.33	-38.7	-39.7	22.7	0.00e+00	0	30	0	1052770304	52	5530
2026-01-05 15:02:48.22	210.48	34.11	-38.6	-39.6	22.8	0.00e+00	0	30	0	1054867456	50	6111
2026-01-05 15:02:49.23	210.44	33.89	-38.7	-39.6	22.8	0.00e+00	0	30	0	1055916032	50	6159
2026-01-05 15:02:50.24	210.41	33.67	-38.6	-39.5	22.9	0.00e+00	0	30	0	1058013184	50	6081
2026-01-05 15:02:51.25	210.37	33.45	-38.8	-39.8	22.6	0.00e+00	0	30	0	1060110336	50	6275
2026-01-05 15:02:52.25	210.34	33.24	-39.1	-40.1	22.3	0.00e+00	0	30	0	1062207488	50	6538
2026-01-05 15:02:53.26	210.31	33.02	-39.5	-40.5	21.9	0.00e+00	0	30	0	1064304640	50	6836
2026-01-05 15:02:54.27	210.28	32.81	-39.9	-41.1	21.5	0.00e+00	0	30	0	1065353216	52	6485
2026-01-05 15:02:55.28	210.24	32.60	-40.1	-41.2	21.3	0.00e+00	0	30	0	1067450368	52	6603
2026-01-05 15:02:56.29	210.21	32.39	-40.4	-41.6	20.9	0.00e+00	0	30	0	1069547520	52	6871
2026-01-05 15:02:57.30	210.18	32.18	-40.5	-41.7	20.8	0.00e+00	0	30	0	1071644672	52	6989
2026-01-05 15:02:58.31	210.15	31.97	-40.5	-41.7	20.8	0.00e+00	0	30	0	1073741824	52	6988
2026-01-05 15:02:59.32	210.12	31.77	-40.5	-41.7	20.8	0.00e+00	0	30	0	1074790400	52	6995
2026-01-05 15:03:00.33	210.09	31.56	-40.2	-41.4	21.1	0.00e+00	0	30	0	1076887552	52	6725
2026-01-05 15:03:01.34	210.06	31.36	-40.1	-41.2	21.3	0.00e+00	0	30	0	1078984704	52	6580
2026-01-05 15:03:02.35	210.03	31.16	-39.9	-41.0	21.5	0.00e+00	0	30	0	1081081856	52	6452
2026-01-05 15:03:03.36	210.00	30.96	-39.7	-40.8	21.7	0.00e+00	0	30	0	1083179008	52	6291
2026-01-05 15:03:04.37	209.98	30.76	-39.5	-40.6	21.9	0.00e+00	0	30	0	1084227584	52	6134
2026-01-05 15:03:05.38	209.95	30.56	-39.6	-40.6	21.9	0.00e+00	0	30	0	1086324736	52	6157
2026-01-05 15:03:06.39	209.92	30.37	-39.2	-40.3	22.2	0.00e+00	0	30	0	1088421888	52	5903
2026-01-05 15:03:07.40	209.90	30.17	-39.1	-40.2	22.4	0.00e+00	0	30	0	1090519040	52	5829
2026-01-05 15:03:08.41	209.87	29.98	-39.3	-40.3	22.2	0.00e+00	0	30	0	1092616192	52	5916
2026-01-05 15:03:09.42	209.84	29.79	-39.0	-39.9	22.5	0.00e+00	0	30	0	1093664768	52	5695
2026-01-05 15:03:10.42	209.82	29.60	-39.2	-40.2	22.3	0.00e+00	0	30	0	1095761920	52	5847
2026-01-05 15:03:11.43	209.79	29.41	-39.1	-40.1	22.3	0.00e+00	0	30	0	1097859072	52	5797
2026-01-05 15:03:12.44	209.77	29.22	-39.3	-40.3	22.2	0.00e+00	0	30	0	1099956224	52	5918
2026-01-05 15:03:13.45	209.74	29.04	-39.4	-40.5	22.0	0.00e+00	0	30	0	1102053376	52	6064
2026-01-05 15:03:14.46	209.72	28.85	-39.6	-40.6	21.8	0.00e+00	0	30	0	1103101952	52	6168
2026-01-05 15:03:15.47	209.69	28.66	-39.7	-40.8	21.6	0.00e+00	0	30	0	1105199104	52	6287
2026-01-05 15:03:16.48	209.67	28.48	-39.8	-40.9	21.6	0.00e+00	0	30	0	1107296256	52	6364
2026-01-05 15:03:17.48	209.65	28.30	-39.8	-41.0	21.5	0.00e+00	0	30	0	1109393408	52	6412
2026-01-05 15:03:18.49	209.62	28.12	-39.8	-40.9	21.6	0.00e+00	0	30	0	1111490560	52	6371
2026-01-05 15:03:19.50	209.60	27.94	-39.7	-40.8	21.6	0.00e+00	0	30	0	1112539136	52	6316
2026-01-05 15:03:20.52	209.58	27.76	-39.6	-40.7	21.7	0.00e+00	0	30	0	1114636288	52	6180
2026-01-05 15:03:21.52	209.55	27.58	-39.6	-40.7	21.8	0.00e+00	0	30	0	1116733440	52	6197
2026-01-05 15:03:22.53	209.53	27.41	-39.4	-40.5	22.0	0.00e+00	0	30	0	1118830592	52	6076
2026-01-05 15:03:23.54	209.51	27.23	-39.4	-40.5	21.9	0.00e+00	0	30	0	1120927744	52	6078
2026-01-05 15:03:24.55	209.49	27.06	-39.2	-40.3	22.1	0.00e+00	0	30	0	1121976320	52	5909
2026-01-05 15:03:25.56	209.47	26.89	-39.2	-40.2	22.3	0.00e+00	0	30	0	1124073472	52	5895
2026-01-05 15:03:26.57	209.45	26.71	-39.0	-40.1	22.3	0.00e+00	0	30	0	1126170624	52	5779
2026-01-05 15:03:27.58	209.43	26.54	-38.9	-39.9	22.5	0.00e+00	0	30	0	1128267776	52	5658
2026-01-05 15:03:28.59	209.40	26.37	-38.8	-39.8	22.6	0.00e+00	0	30	0	1130364928	52	5568
2026-01-05 15:03:29.60	209.38	26.20	-38.6	-39.6	22.7	0.00e+00	0	30	0	1132462080	50	6164
2026-01-05 15:03:30.61	209.36	26.04	-38.6	-39.5	22.8	0.00e+00	0	30	0	1133510656	50	6101
2026-01-05 15:03:31.62	209.34	25.87	-38.6	-39.6	22.8	0.00e+00	0	30	0	1135607808	50	6123
2026-01-05 15:03:32.63	209.33	25.70	-38.5	-39.5	22.8	0.00e+00	0	30	0	1137704960	50	6064
2026-01-05 15:03:33.64	209.31	25.54	-38.3	-39.3	23.0	0.00e+00	0	30	0	1139802112	50	5927
2026-01-05 15:03:34.65	209.29	25.38	-38.4	-39.4	23.0	0.00e+00	0	30	0	1141899264	50	5972
2026-01-05 15:03:35.66	209.27	25.21	-38.2	-39.1	23.1	0.00e+00	0	30	0	1142947840	50	5819
2026-01-05 15:03:36.67	209.25	25.05	-38.1	-39.1	23.2	0.00e+00	0	30	0	1145044992	50	5776
2026-01-05 15:03:37.68	209.23	24.89	-38.2	-39.1	23.2	0.00e+00	0	30	0	1147142144	50	5786
2026-01-05 15:03:38.69	209.21	24.73	-38.2	-39.1	23.0	0.00e+00	0	30	0	1149239296	50	5816
2026-01-05 15:03:39.70	209.19	24.57	-38.2	-39.1	23.0	0.00e+00	0	30	0	1151336448	50	5821
2026-01-05 15:03:40.71	209.18	24.41	-38.3	-39.3	23.0	0.00e+00	0	30	0	1152385024	50	5916
2026-01-05 15:03:41.71	209.16	24.26	-38.3	-39.2	23.0	0.00e+00	0	30	0	1154482176	50	5875
2026-01-05 15:03:42.72	209.14	24.10	-38.2	-39.2	23.1	0.00e+00	0	30	0	1156579328	50	5837
2026-01-05 15:03:43.73	209.13	23.95	-38.3	-39.3	22.9	0.00e+00	0	30	0	1158676480	50	5929
2026-01-05 15:03:44.74	209.11	23.79	-38.3	-39.2	23.0	0.00e+00	0	30	0	1160773632	50	5867
2026-01-05 15:03:45.75	209.09	23.64	-38.3	-39.3	23.0	0.00e+00	0	30	0	1161822208	50	5906
2026-01-05 15:03:46.76	209.08	23.49	-38.3	-39.3	22.9	0.00e+00	0	30	0	1163919360	50	5898
2026-01-05 15:03:47.76	209.06	23.34	-38.4	-39.3	22.8	0.00e+00	0	30	0	1166016512	50	5947
2026-01-05 15:03:48.77	209.04	23.19	-38.3	-39.3	22.8	0.00e+00	0	30	0	1168113664	50	5898
2026-01-05 15:03:49.78	209.03	23.04	-38.2	-39.2	22.9	0.00e+00	0	30	0	1170210816	50	5852
2026-01-05 15:03:50.79	209.01	22.89	-38.3	-39.3	23.0	0.00e+00	0	30	0	1171259392	50	5913
2026-01-05 15:03:51.80	209.00	22.74	-38.3	-39.3	23.0	0.00e+00	0	30	0	1173356544	50	5927
2026-01-05 15:03:52.81	208.98	22.59	-38.4	-39.3	23.0	0.00e+00	0	30	0	1175453696	50	5939
2026-01-05 15:03:53.82	208.97	22.45	-38.3	-39.2	23.1	0.00e+00	0	30	0	1177550848	50	5883
2026-01-05 15:03:54.83	208.95	22.30	-38.3	-39.3	23.0	0.00e+00	0	30	0	1179648000	50	5902
2026-01-05 15:03:55.84	208.94	22.16	-38.3	-39.2	23.1	0.00e+00	0	30	0	1180696576	50	5868
2026-01-05 15:03:56.85	208.92	22.01	-38.1	-39.0	23.2	0.00e+00	0	30	0	1182793728	50	5754
2026-01-05 15:03:57.86	208.91	21.87	-38.2	-39.2	23.1	0.00e+00	0	30	0	1184890880	50	5856
2026-01-05 15:03:58.87	208.89	21.73	-38.3	-39.2	23.0	0.00e+00	0	30	0	1186988032	50	5892
2026-01-05 15:03:59.88	208.88	21.59	-38.3	-39.3	23.1	0.00e+00	0	30	0	1189085184	50	5920
2026-01-05 15:04:00.89	208.86	21.45	-38.4	-39.3	22.9	0.00e+00	0	30	0	1190133760	50	5950
2026-01-05 15:04:01.90	208.85	21.31	-38.3	-39.2	23.0	0.00e+00	0	30	0	1192230912	50	5871
2026-01-05 15:04:02.91	208.84	21.17	-38.3	-39.3	23.0	0.00e+00	0	30	0	1194328064	50	5899
2026-01-05 15:04:03.92	208.82	21.03	-38.5	-39.4	22.8	0.00e+00	0	30	0	1196425216	50	6014
2026-01-05 15:04:04.93	208.81	20.89	-38.5	-39.5	22.8	0.00e+00	0	30	0	1198522368	50	6075
2026-01-05 15:04:05.94	208.79	20.76	-38.7	-39.6	22.6	0.00e+00	0	30	0	1200619520	50	6172
2026-01-05 15:04:06.94	208.78	20.62	-38.7	-39.7	22.6	0.00e+00	0	30	0	1201668096	50	6208
2026-01-05 15:04:07.95	208.77	20.49	-38.9	-39.9	22.4	0.00e+00	0	30	0	1203765248	50	6354
2026-01-05 15:04:08.96	208.76	20.35	-38.9	-39.9	22.4	0.00e+00	0	30	0	1205862400	50	6359
2026-01-05 15:04:09.97	208.74	20.22	-38.8	-39.8	22.5	0.00e+00	0	30	0	1207959552	50	6313
2026-01-05 15:04:10.98	208.73	20.08	-38.9	-39.9	22.4	0.00e+00	0	30	0	1210056704	50	6351
2026-01-05 15:04:11.99	208.72	19.95	-38.9	-40.0	22.3	0.00e+00	0	30	0	1211105280	50	6394
2026-01-05 15:04:13.00	208.71	19.82	-39.0	-40.0	22.3	0.00e+00	0	30	0	1213202432	50	6429
2026-01-05 15:04:14.01	208.69	19.69	-38.9	-39.9	22.3	0.00e+00	0	30	0	1215299584	50	6372
2026-01-05 15:04:15.02	208.68	19.56	-39.1	-40.1	22.2	0.00e+00	0	30	0	1217396736	50	6525
