passes_logs/2026/01/05/R4.6S_Anadyr/R4.6S_Anadyr__20260105_193101_SUOMI_NPP_rec.log

#Pass ID: 20260105_193101_SUOMI NPP
#Satellite: SUOMI NPP
#Configuration: NPP
#almurnet v.1.7.20251203
#Start time: 2026-01-05 19:31:03

#Version: 2.2.20231116
#Station: R4.6S_Anadyr
#Location: 177.4865 lon 64.73178 lat
#TLE: 1 37849U 11061A   26004.95404768  .00000136  00000+0  85334-4 0  9991
#TLE: 2 37849  98.7801 307.0898 0002575  80.6707 279.4760 14.19522289735281

#Time	Az	El	Level	Level2	SNR	BER	BlckErr	Temp	State	Recorded	gain1	gain2
2026-01-05 19:31:03.44	53.30	0.11	-48.5	-59.3	3.4	8.46e-01	0	31	0	0	60	33192
2026-01-05 19:31:04.45	53.22	0.16	-48.7	-63.9	3.6	1.51e+00	0	32	104	0	60	56336
2026-01-05 19:31:05.46	53.15	0.21	-48.7	-63.9	3.6	1.51e+00	0	32	104	0	60	56396
2026-01-05 19:31:06.47	53.07	0.26	-48.7	-63.9	3.6	1.51e+00	0	32	104	0	60	56472
2026-01-05 19:31:07.48	52.99	0.31	-48.7	-63.9	3.6	1.51e+00	0	32	104	0	60	56613
2026-01-05 19:31:08.49	52.91	0.36	-48.7	-63.9	3.6	1.51e+00	0	32	104	0	60	56857
2026-01-05 19:31:09.50	52.84	0.41	-48.8	-64.0	3.6	1.51e+00	0	32	104	0	60	57345
2026-01-05 19:31:10.51	52.76	0.45	-48.8	-63.9	3.6	1.51e+00	0	32	104	0	60	56841
2026-01-05 19:31:11.52	52.68	0.50	-48.8	-64.0	3.6	1.51e+00	0	32	104	0	60	56967
2026-01-05 19:31:12.53	52.60	0.55	-48.8	-63.9	3.6	1.51e+00	0	32	104	0	60	56827
2026-01-05 19:31:13.54	52.52	0.60	-48.7	-63.9	3.6	1.51e+00	0	32	104	0	60	56800
2026-01-05 19:31:14.55	52.44	0.65	-48.7	-63.9	3.6	1.51e+00	0	32	104	0	60	56398
2026-01-05 19:31:15.56	52.36	0.70	-48.6	-63.8	3.6	1.51e+00	0	32	104	0	60	55995
2026-01-05 19:31:16.56	52.28	0.75	-48.5	-63.8	3.6	1.51e+00	0	32	104	0	60	55682
2026-01-05 19:31:17.57	52.20	0.80	-48.4	-63.6	3.6	1.51e+00	0	32	104	0	60	54723
2026-01-05 19:31:18.58	52.12	0.85	-48.3	-63.4	3.6	1.51e+00	0	32	104	0	60	53653
2026-01-05 19:31:19.59	52.04	0.90	-47.9	-63.1	3.6	1.51e+00	0	32	104	0	60	51817
2026-01-05 19:31:20.60	51.96	0.95	-47.2	-62.4	3.6	1.51e+00	0	32	104	0	60	47597
2026-01-05 19:31:21.61	51.88	1.00	-47.2	-62.4	3.6	1.51e+00	0	32	104	0	60	47484
2026-01-05 19:31:22.62	51.80	1.05	-47.2	-62.4	3.6	1.51e+00	0	32	104	0	60	47657
2026-01-05 19:31:23.63	51.72	1.10	-47.2	-62.3	3.6	1.51e+00	0	33	104	0	60	47186
2026-01-05 19:31:24.64	51.64	1.14	-47.2	-62.3	3.6	1.51e+00	0	32	104	0	60	47257
2026-01-05 19:31:25.65	51.55	1.19	-47.2	-62.3	3.6	1.51e+00	0	32	104	0	60	47069
2026-01-05 19:31:26.66	51.47	1.24	-47.2	-62.4	3.6	1.51e+00	0	32	104	0	60	47436
2026-01-05 19:31:27.67	51.39	1.29	-47.2	-62.4	3.6	1.51e+00	0	33	104	0	60	47478
2026-01-05 19:31:28.68	51.31	1.34	-47.2	-62.3	3.5	1.51e+00	0	33	104	0	60	47367
2026-01-05 19:31:29.69	51.22	1.39	-47.2	-62.3	3.6	1.51e+00	0	32	104	0	60	47317
2026-01-05 19:31:30.70	51.14	1.44	-47.2	-62.4	3.6	1.51e+00	0	32	104	0	60	47439
2026-01-05 19:31:31.71	51.05	1.49	-47.2	-62.3	3.6	1.51e+00	0	32	104	0	60	47319
2026-01-05 19:31:32.72	50.97	1.54	-47.2	-62.3	3.6	1.51e+00	0	32	104	0	60	47355
2026-01-05 19:31:33.73	50.89	1.59	-47.2	-62.3	3.6	1.51e+00	0	33	104	0	60	47369
2026-01-05 19:31:34.74	50.80	1.64	-47.2	-62.3	3.6	1.51e+00	0	33	104	0	60	47280
2026-01-05 19:31:35.75	50.71	1.69	-47.2	-62.3	3.6	1.51e+00	0	33	104	0	60	47259
2026-01-05 19:31:36.76	50.63	1.74	-47.2	-62.3	3.6	1.51e+00	0	33	104	0	60	47165
2026-01-05 19:31:37.77	50.54	1.79	-47.2	-62.3	3.6	1.51e+00	0	33	104	0	60	47302
2026-01-05 19:31:38.78	50.46	1.84	-47.2	-62.3	3.6	1.51e+00	0	33	104	0	60	47043
2026-01-05 19:31:39.79	50.37	1.89	-47.2	-62.4	3.6	1.51e+00	0	33	104	0	60	47683
2026-01-05 19:31:40.80	50.28	1.94	-47.2	-62.4	3.6	1.51e+00	0	33	104	0	60	47390
2026-01-05 19:31:41.81	50.20	1.99	-47.2	-62.3	3.6	1.51e+00	0	33	104	0	60	46933
2026-01-05 19:31:42.82	50.11	2.04	-47.2	-62.3	3.6	1.51e+00	0	33	104	0	60	46855
2026-01-05 19:31:43.83	50.02	2.09	-47.2	-62.2	3.6	1.51e+00	0	33	104	0	60	46472
2026-01-05 19:31:44.84	49.93	2.14	-47.2	-62.0	3.6	1.51e+00	0	33	104	0	60	45766
2026-01-05 19:31:45.85	49.85	2.19	-47.1	-62.1	3.6	1.51e+00	0	33	104	0	60	46114
2026-01-05 19:31:46.86	49.76	2.24	-47.2	-62.0	3.6	1.51e+00	0	33	104	0	60	45365
2026-01-05 19:31:47.87	49.67	2.29	-47.1	-62.0	3.5	1.51e+00	0	33	104	0	60	45679
2026-01-05 19:31:48.88	49.58	2.34	-47.2	-62.3	3.6	1.51e+00	0	33	104	0	60	46999
2026-01-05 19:31:49.89	49.49	2.39	-47.2	-62.4	3.6	1.51e+00	0	33	104	0	60	47395
2026-01-05 19:31:50.90	49.40	2.44	-47.2	-62.3	3.6	1.51e+00	0	33	104	0	60	46962
2026-01-05 19:31:51.91	49.31	2.49	-47.2	-62.2	3.6	1.51e+00	0	33	104	0	60	46672
2026-01-05 19:31:52.92	49.22	2.54	-47.2	-62.2	3.6	1.51e+00	0	33	104	0	60	46373
2026-01-05 19:31:53.93	49.13	2.59	-47.2	-62.3	3.6	1.51e+00	0	33	104	0	60	47083
2026-01-05 19:31:54.94	49.04	2.64	-47.2	-62.3	3.6	1.51e+00	0	33	104	0	60	46893
2026-01-05 19:31:55.95	48.95	2.69	-47.1	-61.9	3.6	1.51e+00	0	33	104	0	60	44750
2026-01-05 19:31:56.96	48.85	2.74	-47.1	-61.3	3.6	1.51e+00	0	33	104	0	60	42142
2026-01-05 19:31:57.97	48.76	2.79	-47.1	-61.2	3.6	1.51e+00	0	33	104	0	60	41717
2026-01-05 19:31:58.98	48.67	2.85	-47.2	-61.9	3.6	1.51e+00	0	33	104	0	60	44796
2026-01-05 19:31:59.99	48.58	2.90	-47.1	-61.8	3.6	1.51e+00	0	33	104	0	60	44350
2026-01-05 19:32:00.98	48.49	2.95	-47.0	-59.6	3.8	1.51e+00	0	33	104	0	60	34419
2026-01-05 19:32:01.99	48.39	3.00	-46.8	-56.0	4.9	9.38e-01	0	33	0	0	60	22703
2026-01-05 19:32:03.00	48.30	3.05	-46.4	-53.2	7.3	2.72e-01	92	33	0	2097152	60	16567
2026-01-05 19:32:04.01	48.21	3.10	-47.4	-61.5	3.6	3.89e-01	0	33	104	3145728	60	43161
2026-01-05 19:32:05.02	48.11	3.15	-44.9	-48.8	12.7	1.04e+00	0	33	104	3145728	60	9942
2026-01-05 19:32:06.03	48.02	3.20	-47.0	-61.9	3.6	8.83e-01	0	33	104	3145728	60	44918
2026-01-05 19:32:07.04	47.92	3.25	-47.4	-62.4	3.6	1.51e+00	0	33	104	3145728	60	47870
2026-01-05 19:32:08.05	47.83	3.30	-44.2	-47.6	13.3	3.15e-01	11	33	104	3145728	60	8672
2026-01-05 19:32:09.06	47.73	3.35	-43.8	-46.8	14.5	1.50e-06	0	33	0	4194304	60	7867
2026-01-05 19:32:10.06	47.63	3.40	-43.8	-46.7	14.8	0.00e+00	36	33	0	6291456	60	7839
2026-01-05 19:32:11.07	47.54	3.45	-42.7	-45.0	16.3	0.00e+00	0	33	0	7340032	60	6448
2026-01-05 19:32:12.08	47.44	3.50	-42.7	-45.0	16.6	0.00e+00	52	33	0	9437184	58	7226
2026-01-05 19:32:13.09	47.34	3.55	-42.3	-44.5	17.0	0.00e+00	18	33	0	11534336	58	6779
2026-01-05 19:32:14.10	47.25	3.60	-42.2	-44.3	17.2	0.00e+00	0	33	0	13631488	58	6617
2026-01-05 19:32:15.11	47.15	3.65	-41.8	-43.7	17.6	0.00e+00	52	33	0	15728640	58	6244
2026-01-05 19:32:16.12	47.05	3.70	-42.0	-43.9	17.4	0.00e+00	0	33	0	16777216	58	6352
2026-01-05 19:32:17.12	46.95	3.75	-42.1	-44.0	17.4	0.00e+00	92	33	0	18874368	56	7214
2026-01-05 19:32:18.13	46.85	3.80	-42.1	-44.0	17.6	0.00e+00	0	33	0	20971520	56	7201
2026-01-05 19:32:19.14	46.76	3.86	-42.0	-43.9	17.5	0.00e+00	91	33	0	23068672	56	7141
2026-01-05 19:32:20.15	46.66	3.91	-42.0	-43.9	17.6	0.00e+00	52	33	0	25165824	56	7154
2026-01-05 19:32:21.16	46.56	3.96	-42.1	-44.1	17.4	0.00e+00	0	33	0	26214400	56	7309
2026-01-05 19:32:22.17	46.46	4.01	-42.0	-43.9	17.6	0.00e+00	92	33	0	28311552	56	7110
2026-01-05 19:32:23.18	46.35	4.06	-41.8	-43.6	17.9	0.00e+00	33	33	0	30408704	56	6922
2026-01-05 19:32:24.19	46.25	4.11	-42.2	-44.2	17.4	0.00e+00	91	33	0	32505856	56	7338
2026-01-05 19:32:25.20	46.15	4.16	-42.0	-43.9	17.6	0.00e+00	0	33	0	34603008	56	7149
2026-01-05 19:32:26.21	46.05	4.21	-42.1	-44.0	17.6	0.00e+00	91	33	0	35651584	56	7235
2026-01-05 19:32:27.21	45.95	4.26	-42.0	-43.8	17.8	0.00e+00	0	33	0	37748736	56	7078
2026-01-05 19:32:28.22	45.85	4.31	-41.9	-43.8	17.7	0.00e+00	0	33	0	39845888	56	7064
2026-01-05 19:32:29.23	45.74	4.36	-42.1	-44.1	17.6	0.00e+00	73	33	0	41943040	56	7271
2026-01-05 19:32:30.24	45.64	4.41	-42.0	-43.9	17.7	0.00e+00	0	33	0	44040192	56	7161
2026-01-05 19:32:31.25	45.54	4.47	-41.8	-43.6	18.0	0.00e+00	53	33	0	45088768	56	6891
2026-01-05 19:32:32.26	45.43	4.52	-42.0	-43.9	17.6	0.00e+00	0	33	0	47185920	56	7155
2026-01-05 19:32:33.27	45.33	4.57	-42.1	-44.0	17.6	0.00e+00	92	33	0	49283072	56	7244
2026-01-05 19:32:34.28	45.22	4.62	-42.3	-44.3	17.4	0.00e+00	0	33	0	51380224	56	7473
2026-01-05 19:32:35.28	45.12	4.67	-41.6	-43.3	18.4	0.00e+00	0	33	0	53477376	56	6690
2026-01-05 19:32:36.29	45.02	4.72	-41.7	-43.4	18.3	0.00e+00	92	33	0	54525952	56	6732
2026-01-05 19:32:37.30	44.91	4.77	-41.7	-43.4	18.2	0.00e+00	0	33	0	56623104	56	6753
2026-01-05 19:32:38.31	44.80	4.82	-41.7	-43.5	18.1	0.00e+00	53	33	0	58720256	56	6840
2026-01-05 19:32:39.32	44.70	4.87	-41.6	-43.3	18.3	0.00e+00	0	33	0	60817408	56	6677
2026-01-05 19:32:40.33	44.59	4.92	-41.8	-43.6	18.1	0.00e+00	91	33	0	62914560	56	6860
2026-01-05 19:32:41.34	44.48	4.97	-41.7	-43.4	18.1	0.00e+00	0	33	0	63963136	56	6768
2026-01-05 19:32:42.35	44.37	5.03	-41.8	-43.6	18.1	0.00e+00	0	33	0	66060288	56	6866
2026-01-05 19:32:43.36	44.27	5.08	-41.5	-43.2	18.4	0.00e+00	90	33	0	68157440	56	6611
2026-01-05 19:32:44.37	44.16	5.13	-41.5	-43.2	18.4	0.00e+00	0	33	0	70254592	56	6583
2026-01-05 19:32:45.38	44.05	5.18	-41.7	-43.5	18.3	0.00e+00	53	33	0	72351744	56	6809
2026-01-05 19:32:46.39	43.94	5.23	-41.8	-43.6	18.0	0.00e+00	0	33	0	74448896	56	6910
2026-01-05 19:32:47.40	43.83	5.28	-41.9	-43.7	18.1	0.00e+00	78	33	0	75497472	56	6951
2026-01-05 19:32:48.41	43.72	5.33	-41.6	-43.4	18.4	0.00e+00	0	33	0	77594624	56	6721
2026-01-05 19:32:49.42	43.61	5.38	-41.7	-43.4	18.4	0.00e+00	0	33	0	79691776	56	6735
2026-01-05 19:32:50.42	43.50	5.43	-41.8	-43.5	18.2	0.00e+00	47	33	0	81788928	56	6833
2026-01-05 19:32:51.43	43.39	5.48	-41.6	-43.3	18.4	0.00e+00	0	33	0	83886080	56	6691
2026-01-05 19:32:52.44	43.28	5.53	-41.5	-43.2	18.5	0.00e+00	47	33	0	84934656	56	6579
2026-01-05 19:32:53.45	43.16	5.59	-41.7	-43.5	18.4	0.00e+00	0	33	0	87031808	56	6786
2026-01-05 19:32:54.46	43.05	5.64	-41.1	-42.7	19.0	0.00e+00	92	33	0	89128960	56	6189
2026-01-05 19:32:55.47	42.94	5.69	-40.8	-42.3	19.4	0.00e+00	0	33	0	91226112	54	6649
2026-01-05 19:32:56.48	42.83	5.74	-40.8	-42.3	19.4	0.00e+00	81	33	0	93323264	54	6673
2026-01-05 19:32:57.49	42.71	5.79	-40.4	-41.8	19.7	0.00e+00	0	33	0	94371840	54	6275
2026-01-05 19:32:58.50	42.60	5.84	-40.5	-41.9	19.7	0.00e+00	0	33	0	96468992	54	6367
2026-01-05 19:32:59.51	42.48	5.89	-40.4	-41.7	19.8	0.00e+00	60	33	0	98566144	54	6243
2026-01-05 19:33:00.52	42.37	5.94	-40.4	-41.8	19.8	0.00e+00	0	33	0	100663296	54	6265
2026-01-05 19:33:01.52	42.25	5.99	-40.4	-41.8	19.8	0.00e+00	60	33	0	102760448	54	6288
2026-01-05 19:33:02.53	42.14	6.04	-40.4	-41.8	19.8	0.00e+00	0	33	0	103809024	54	6264
2026-01-05 19:33:03.54	42.02	6.09	-40.4	-41.8	19.8	0.00e+00	0	33	0	105906176	54	6274
2026-01-05 19:33:04.55	41.91	6.15	-40.2	-41.6	20.0	0.00e+00	47	33	0	108003328	54	6125
2026-01-05 19:33:05.56	41.79	6.20	-40.3	-41.7	19.9	0.00e+00	0	33	0	110100480	54	6209
2026-01-05 19:33:06.57	41.67	6.25	-40.1	-41.4	20.2	0.00e+00	91	33	0	112197632	54	6010
2026-01-05 19:33:07.58	41.55	6.30	-40.2	-41.6	20.0	0.00e+00	0	33	0	113246208	54	6110
2026-01-05 19:33:08.59	41.43	6.35	-40.2	-41.6	19.9	0.00e+00	64	33	0	115343360	54	6143
2026-01-05 19:33:09.60	41.32	6.40	-40.3	-41.6	19.8	0.00e+00	0	33	0	117440512	54	6148
2026-01-05 19:33:10.61	41.20	6.45	-40.2	-41.6	19.6	0.00e+00	0	33	0	119537664	54	6129
2026-01-05 19:33:11.62	41.08	6.50	-40.2	-41.6	19.7	0.00e+00	9	33	0	121634816	54	6113
2026-01-05 19:33:12.63	40.96	6.55	-40.3	-41.6	20.0	0.00e+00	0	33	0	122683392	54	6150
2026-01-05 19:33:13.64	40.84	6.60	-40.1	-41.4	20.2	0.00e+00	20	33	0	124780544	54	6008
2026-01-05 19:33:14.65	40.72	6.65	-40.2	-41.5	20.1	0.00e+00	0	33	0	126877696	54	6070
2026-01-05 19:33:15.66	40.59	6.70	-40.4	-41.8	19.9	0.00e+00	82	33	0	128974848	54	6288
2026-01-05 19:33:16.66	40.47	6.75	-40.5	-41.9	19.8	0.00e+00	0	33	0	131072000	54	6351
2026-01-05 19:33:17.67	40.35	6.80	-40.5	-41.9	19.8	0.00e+00	0	33	0	132120576	54	6337
2026-01-05 19:33:18.68	40.23	6.86	-40.6	-42.0	19.7	0.00e+00	0	33	0	134217728	54	6436
2026-01-05 19:33:19.69	40.11	6.91	-40.6	-42.1	19.7	0.00e+00	0	33	0	136314880	54	6473
2026-01-05 19:33:20.70	39.98	6.96	-40.3	-41.7	20.1	0.00e+00	33	33	0	138412032	54	6204
2026-01-05 19:33:21.71	39.86	7.01	-40.4	-41.8	20.0	0.00e+00	0	33	0	140509184	54	6261
2026-01-05 19:33:22.72	39.73	7.06	-40.4	-41.8	19.9	0.00e+00	91	33	0	142606336	54	6265
2026-01-05 19:33:23.73	39.61	7.11	-40.6	-42.1	19.7	0.00e+00	0	33	0	143654912	54	6471
2026-01-05 19:33:24.74	39.48	7.16	-40.6	-42.1	19.7	0.00e+00	0	33	0	145752064	54	6482
2026-01-05 19:33:25.75	39.36	7.21	-40.5	-42.0	19.6	0.00e+00	0	33	0	147849216	54	6395
2026-01-05 19:33:26.76	39.23	7.26	-40.6	-42.1	19.6	0.00e+00	0	33	0	149946368	54	6468
2026-01-05 19:33:27.76	39.11	7.31	-40.8	-42.3	19.6	0.00e+00	47	33	0	152043520	54	6627
2026-01-05 19:33:28.77	38.98	7.36	-40.7	-42.2	19.5	0.00e+00	0	33	0	153092096	54	6587
2026-01-05 19:33:29.78	38.85	7.41	-41.0	-42.6	19.3	0.00e+00	73	33	0	155189248	54	6861
2026-01-05 19:33:30.79	38.73	7.46	-40.8	-42.3	19.5	0.00e+00	0	33	0	157286400	54	6662
2026-01-05 19:33:31.80	38.60	7.51	-40.7	-42.1	19.7	0.00e+00	83	33	0	159383552	54	6495
2026-01-05 19:33:32.81	38.47	7.56	-40.5	-42.0	19.8	0.00e+00	0	33	0	161480704	54	6400
2026-01-05 19:33:33.82	38.34	7.61	-40.5	-41.8	19.9	0.00e+00	0	33	0	162529280	54	6317
2026-01-05 19:33:34.83	38.21	7.66	-40.5	-41.8	19.9	0.00e+00	0	33	0	164626432	54	6303
2026-01-05 19:33:35.84	38.08	7.71	-40.4	-41.7	20.0	0.00e+00	0	33	0	166723584	54	6211
2026-01-05 19:33:36.85	37.95	7.76	-40.4	-41.7	20.0	0.00e+00	67	33	0	168820736	54	6232
2026-01-05 19:33:37.86	37.82	7.81	-40.3	-41.6	20.2	0.00e+00	0	33	0	170917888	54	6139
2026-01-05 19:33:38.87	37.69	7.86	-40.1	-41.4	20.3	0.00e+00	89	33	0	171966464	54	5998
2026-01-05 19:33:39.88	37.55	7.91	-40.2	-41.6	20.2	0.00e+00	0	33	0	174063616	54	6116
2026-01-05 19:33:40.89	37.42	7.96	-40.1	-41.4	20.3	0.00e+00	0	33	0	176160768	54	5986
2026-01-05 19:33:41.90	37.29	8.01	-40.1	-41.4	20.4	0.00e+00	0	33	0	178257920	54	6002
2026-01-05 19:33:42.91	37.15	8.06	-39.9	-41.1	20.5	0.00e+00	0	33	0	180355072	54	5811
2026-01-05 19:33:43.92	37.02	8.11	-39.9	-41.1	20.5	0.00e+00	51	33	0	181403648	54	5815
2026-01-05 19:33:44.93	36.89	8.16	-39.9	-41.1	20.5	0.00e+00	0	33	0	183500800	54	5826
2026-01-05 19:33:45.94	36.75	8.21	-40.0	-41.2	20.5	0.00e+00	92	33	0	185597952	54	5896
2026-01-05 19:33:46.95	36.62	8.26	-40.2	-41.5	20.1	0.00e+00	0	33	0	187695104	54	6082
2026-01-05 19:33:47.96	36.48	8.31	-40.2	-41.6	20.2	0.00e+00	0	33	0	189792256	54	6126
2026-01-05 19:33:48.97	36.34	8.36	-40.5	-41.9	20.0	0.00e+00	0	33	0	190840832	54	6364
2026-01-05 19:33:49.98	36.21	8.41	-40.6	-42.0	19.8	0.00e+00	0	33	0	192937984	54	6464
2026-01-05 19:33:50.99	36.07	8.46	-40.6	-42.0	19.8	0.00e+00	54	33	0	195035136	54	6415
2026-01-05 19:33:52.00	35.93	8.51	-40.6	-42.0	19.8	0.00e+00	0	33	0	197132288	54	6449
2026-01-05 19:33:53.01	35.79	8.55	-40.7	-42.2	19.7	0.00e+00	63	33	0	199229440	54	6560
2026-01-05 19:33:54.02	35.66	8.60	-40.6	-42.0	19.8	0.00e+00	0	33	0	200278016	54	6432
2026-01-05 19:33:55.03	35.52	8.65	-40.6	-42.0	19.9	0.00e+00	0	33	0	202375168	54	6410
2026-01-05 19:33:56.04	35.38	8.70	-40.4	-41.8	20.1	0.00e+00	0	33	0	204472320	54	6255
2026-01-05 19:33:57.05	35.24	8.75	-40.3	-41.7	20.2	0.00e+00	0	33	0	206569472	54	6195
2026-01-05 19:33:58.06	35.10	8.80	-40.3	-41.6	20.1	0.00e+00	26	33	0	208666624	54	6171
2026-01-05 19:33:59.07	34.96	8.85	-40.4	-41.7	20.0	0.00e+00	0	33	0	210763776	54	6240
2026-01-05 19:34:00.08	34.81	8.90	-40.4	-41.7	20.1	0.00e+00	49	33	0	211812352	54	6228
2026-01-05 19:34:01.09	34.67	8.95	-40.4	-41.7	20.1	0.00e+00	0	33	0	213909504	54	6242
2026-01-05 19:34:02.10	34.53	8.99	-40.4	-41.8	20.0	0.00e+00	0	33	0	216006656	54	6267
2026-01-05 19:34:03.11	34.39	9.04	-40.2	-41.6	20.2	0.00e+00	0	33	0	218103808	54	6125
2026-01-05 19:34:04.12	34.24	9.09	-40.1	-41.4	20.4	0.00e+00	0	33	0	220200960	54	5982
2026-01-05 19:34:05.13	34.10	9.14	-39.8	-41.0	20.8	0.00e+00	35	33	0	221249536	54	5732
2026-01-05 19:34:06.14	33.96	9.19	-39.8	-41.1	20.8	0.00e+00	0	33	0	223346688	52	6482
2026-01-05 19:34:07.15	33.81	9.24	-39.8	-41.1	20.8	0.00e+00	91	33	0	225443840	52	6481
2026-01-05 19:34:08.16	33.66	9.28	-39.7	-40.9	20.9	0.00e+00	0	33	0	227540992	52	6355
2026-01-05 19:34:09.17	33.52	9.33	-39.6	-40.8	20.9	0.00e+00	47	33	0	229638144	52	6312
2026-01-05 19:34:10.18	33.37	9.38	-39.3	-40.5	21.2	0.00e+00	33	33	0	230686720	52	6067
2026-01-05 19:34:11.19	33.23	9.43	-39.3	-40.5	21.2	0.00e+00	0	33	0	232783872	52	6068
2026-01-05 19:34:12.20	33.08	9.47	-39.2	-40.4	21.4	0.00e+00	0	33	0	234881024	52	5972
2026-01-05 19:34:13.21	32.93	9.52	-39.1	-40.3	21.4	0.00e+00	0	33	0	236978176	52	5914
2026-01-05 19:34:14.22	32.78	9.57	-39.2	-40.3	21.4	0.00e+00	76	33	0	239075328	52	5933
2026-01-05 19:34:15.23	32.63	9.62	-39.0	-40.1	21.5	0.00e+00	0	33	0	240123904	52	5810
2026-01-05 19:34:16.24	32.48	9.66	-38.9	-40.0	21.7	0.00e+00	92	33	0	242221056	52	5758
2026-01-05 19:34:17.25	32.33	9.71	-38.9	-40.0	21.5	0.00e+00	0	33	0	244318208	52	5720
2026-01-05 19:34:18.25	32.19	9.76	-38.6	-39.7	21.7	0.00e+00	0	33	0	246415360	50	6199
2026-01-05 19:34:19.26	32.03	9.81	-38.5	-39.5	22.1	0.00e+00	9	33	0	248512512	50	6058
2026-01-05 19:34:20.27	31.88	9.85	-38.4	-39.4	22.1	0.00e+00	0	33	0	249561088	50	6023
2026-01-05 19:34:21.28	31.73	9.90	-38.4	-39.4	22.1	0.00e+00	47	33	0	251658240	50	6008
2026-01-05 19:34:22.29	31.58	9.95	-38.2	-39.2	22.4	0.00e+00	0	33	0	253755392	50	5860
2026-01-05 19:34:23.30	31.43	9.99	-38.2	-39.2	22.3	0.00e+00	82	33	0	255852544	50	5896
2026-01-05 19:34:24.31	31.27	10.04	-38.3	-39.3	22.3	0.00e+00	0	33	0	257949696	50	5929
2026-01-05 19:34:25.32	31.12	10.09	-38.4	-39.4	22.2	0.00e+00	0	33	0	258998272	50	6017
2026-01-05 19:34:26.33	30.97	10.13	-38.6	-39.7	22.0	0.00e+00	0	33	0	261095424	50	6191
2026-01-05 19:34:27.34	30.81	10.18	-38.8	-39.9	21.8	0.00e+00	0	33	0	263192576	50	6333
2026-01-05 19:34:28.35	30.66	10.22	-38.7	-39.8	21.9	0.00e+00	42	33	0	265289728	50	6250
2026-01-05 19:34:29.36	30.50	10.27	-38.9	-40.0	21.7	0.00e+00	0	33	0	267386880	50	6436
2026-01-05 19:34:30.36	30.34	10.32	-38.9	-40.1	21.6	0.00e+00	92	33	0	268435456	50	6475
2026-01-05 19:34:31.37	30.19	10.36	-39.1	-40.3	21.5	0.00e+00	0	33	0	270532608	50	6679
2026-01-05 19:34:32.38	30.03	10.41	-39.1	-40.3	21.5	0.00e+00	0	33	0	272629760	50	6635
2026-01-05 19:34:33.39	29.87	10.45	-39.0	-40.2	21.5	0.00e+00	0	33	0	274726912	50	6542
2026-01-05 19:34:34.40	29.71	10.50	-38.9	-40.1	21.7	0.00e+00	0	33	0	276824064	50	6466
2026-01-05 19:34:35.41	29.56	10.54	-38.6	-39.7	22.0	0.00e+00	51	33	0	278921216	50	6183
2026-01-05 19:34:36.42	29.40	10.59	-38.5	-39.5	22.1	0.00e+00	0	33	0	279969792	50	6094
2026-01-05 19:34:37.43	29.24	10.63	-38.3	-39.3	22.3	0.00e+00	52	33	0	282066944	50	5959
2026-01-05 19:34:38.44	29.08	10.68	-38.0	-39.0	22.4	0.00e+00	0	33	0	284164096	50	5742
2026-01-05 19:34:39.45	28.92	10.72	-38.0	-39.0	22.6	0.00e+00	0	33	0	286261248	50	5716
2026-01-05 19:34:40.46	28.75	10.77	-37.9	-38.9	22.6	0.00e+00	0	33	0	288358400	50	5678
2026-01-05 19:34:41.47	28.59	10.81	-37.7	-38.7	22.7	0.00e+00	0	33	0	289406976	48	6202
2026-01-05 19:34:42.48	28.43	10.85	-37.7	-38.7	22.8	0.00e+00	49	33	0	291504128	48	6190
2026-01-05 19:34:43.49	28.27	10.90	-37.6	-38.6	22.8	0.00e+00	0	33	0	293601280	48	6132
2026-01-05 19:34:44.49	28.11	10.94	-37.7	-38.7	22.7	0.00e+00	47	33	0	295698432	48	6197
2026-01-05 19:34:45.50	27.94	10.99	-37.7	-38.7	22.9	0.00e+00	0	33	0	296747008	48	6176
2026-01-05 19:34:46.51	27.78	11.03	-37.7	-38.7	22.8	0.00e+00	0	33	0	298844160	48	6181
2026-01-05 19:34:47.52	27.61	11.07	-37.7	-38.7	22.9	0.00e+00	0	33	0	300941312	48	6181
2026-01-05 19:34:48.52	27.45	11.12	-37.9	-38.8	22.7	0.00e+00	0	33	0	303038464	48	6312
2026-01-05 19:34:49.53	27.28	11.16	-37.9	-38.9	22.6	0.00e+00	47	33	0	305135616	48	6327
2026-01-05 19:34:50.54	27.12	11.20	-37.8	-38.8	22.7	0.00e+00	0	33	0	307232768	48	6306
2026-01-05 19:34:51.55	26.95	11.25	-37.7	-38.6	22.8	0.00e+00	92	33	0	308281344	48	6155
2026-01-05 19:34:52.56	26.78	11.29	-37.4	-38.4	23.0	0.00e+00	0	33	0	310378496	48	5972
2026-01-05 19:34:53.57	26.62	11.33	-37.4	-38.4	23.1	0.00e+00	90	33	0	312475648	48	5970
2026-01-05 19:34:54.58	26.45	11.37	-37.2	-38.1	23.2	0.00e+00	0	33	0	314572800	48	5816
2026-01-05 19:34:55.59	26.28	11.41	-37.4	-38.3	23.2	0.00e+00	0	33	0	316669952	48	5908
2026-01-05 19:34:56.60	26.11	11.46	-37.3	-38.2	23.1	0.00e+00	55	33	0	317718528	48	5891
2026-01-05 19:34:57.61	25.94	11.50	-37.4	-38.3	23.2	0.00e+00	0	33	0	319815680	48	5918
2026-01-05 19:34:58.62	25.77	11.54	-37.3	-38.2	23.2	0.00e+00	47	33	0	321912832	48	5839
2026-01-05 19:34:59.63	25.60	11.58	-37.3	-38.2	23.2	0.00e+00	0	33	0	324009984	48	5889
2026-01-05 19:35:00.64	25.43	11.62	-37.3	-38.3	23.1	0.00e+00	80	33	0	326107136	48	5908
2026-01-05 19:35:01.65	25.26	11.66	-37.6	-38.5	23.0	0.00e+00	0	33	0	327155712	48	6084
2026-01-05 19:35:02.66	25.09	11.71	-37.8	-38.8	22.8	0.00e+00	0	33	0	329252864	48	6263
2026-01-05 19:35:03.67	24.91	11.75	-37.9	-38.9	22.7	0.00e+00	0	33	0	331350016	48	6358
2026-01-05 19:35:04.68	24.74	11.79	-38.1	-39.1	22.5	0.00e+00	0	33	0	333447168	48	6537
2026-01-05 19:35:05.69	24.57	11.83	-38.1	-39.2	22.4	0.00e+00	22	33	0	335544320	48	6555
2026-01-05 19:35:06.70	24.39	11.87	-38.1	-39.2	22.4	0.00e+00	0	33	0	336592896	48	6548
2026-01-05 19:35:07.71	24.22	11.91	-38.3	-39.3	22.4	0.00e+00	91	33	0	338690048	48	6660
2026-01-05 19:35:08.72	24.04	11.95	-38.1	-39.2	21.9	0.00e+00	0	33	0	340787200	48	6561
2026-01-05 19:35:09.72	23.87	11.99	-38.2	-39.3	22.3	0.00e+00	0	33	0	342884352	48	6635
2026-01-05 19:35:10.73	23.69	12.03	-38.1	-39.1	22.5	0.00e+00	0	33	0	344981504	48	6515
2026-01-05 19:35:11.74	23.52	12.06	-38.2	-39.2	22.4	0.00e+00	0	33	0	346030080	48	6604
2026-01-05 19:35:12.75	23.34	12.10	-38.3	-39.3	22.4	0.00e+00	0	33	0	348127232	48	6640
2026-01-05 19:35:13.76	23.16	12.14	-38.0	-39.0	22.6	0.00e+00	0	33	0	350224384	48	6408
2026-01-05 19:35:14.76	22.99	12.18	-38.1	-39.1	22.6	0.00e+00	76	33	0	352321536	48	6484
2026-01-05 19:35:15.77	22.81	12.22	-38.0	-39.0	22.5	0.00e+00	0	33	0	354418688	48	6434
2026-01-05 19:35:16.78	22.63	12.26	-38.0	-39.0	22.5	0.00e+00	0	33	0	355467264	48	6417
2026-01-05 19:35:17.79	22.45	12.29	-38.4	-39.5	22.3	0.00e+00	0	33	0	357564416	48	6774
2026-01-05 19:35:18.80	22.27	12.33	-38.6	-39.7	22.0	0.00e+00	0	33	0	359661568	48	6932
2026-01-05 19:35:19.81	22.09	12.37	-38.5	-39.6	22.2	0.00e+00	54	33	0	361758720	48	6871
2026-01-05 19:35:20.82	21.91	12.41	-38.2	-39.2	22.5	0.00e+00	0	33	0	363855872	48	6589
2026-01-05 19:35:21.80	21.73	12.44	-38.1	-39.1	22.5	0.00e+00	81	33	0	364904448	48	6480
2026-01-05 19:35:22.81	21.55	12.48	-37.8	-38.8	22.7	0.00e+00	0	33	0	367001600	48	6257
2026-01-05 19:35:23.82	21.37	12.52	-37.6	-38.6	22.8	0.00e+00	91	33	0	369098752	48	6131
2026-01-05 19:35:24.83	21.19	12.55	-37.5	-38.5	23.0	0.00e+00	0	33	0	371195904	48	6036
2026-01-05 19:35:25.84	21.00	12.59	-37.5	-38.4	23.0	0.00e+00	0	33	0	373293056	48	6030
2026-01-05 19:35:26.85	20.82	12.63	-37.6	-38.6	23.0	0.00e+00	0	33	0	375390208	48	6120
2026-01-05 19:35:27.86	20.64	12.66	-37.4	-38.3	23.2	0.00e+00	0	33	0	376438784	48	5927
2026-01-05 19:35:28.87	20.45	12.70	-37.6	-38.5	22.9	0.00e+00	92	33	0	378535936	48	6093
2026-01-05 19:35:29.88	20.27	12.73	-37.7	-38.7	22.8	0.00e+00	0	33	0	380633088	48	6180
2026-01-05 19:35:30.89	20.08	12.77	-37.8	-38.8	22.7	0.00e+00	92	33	0	382730240	48	6300
2026-01-05 19:35:31.90	19.90	12.80	-38.0	-39.0	22.6	0.00e+00	0	33	0	384827392	48	6410
2026-01-05 19:35:32.91	19.71	12.84	-38.3	-39.3	22.5	0.00e+00	0	33	0	385875968	48	6665
2026-01-05 19:35:33.91	19.53	12.87	-38.0	-39.0	22.6	0.00e+00	0	33	0	387973120	48	6448
2026-01-05 19:35:34.92	19.34	12.90	-37.7	-38.7	22.9	0.00e+00	0	33	0	390070272	48	6182
2026-01-05 19:35:35.93	19.15	12.94	-37.9	-38.9	22.7	0.00e+00	55	33	0	392167424	48	6323
2026-01-05 19:35:36.94	18.96	12.97	-37.6	-38.5	22.9	0.00e+00	0	33	0	394264576	48	6066
2026-01-05 19:35:37.95	18.78	13.00	-37.7	-38.6	22.8	0.00e+00	92	33	0	395313152	48	6159
2026-01-05 19:35:38.96	18.59	13.04	-37.9	-38.9	22.6	0.00e+00	0	33	0	397410304	48	6363
2026-01-05 19:35:39.97	18.40	13.07	-38.0	-39.0	22.6	0.00e+00	0	33	0	399507456	48	6445
2026-01-05 19:35:40.97	18.21	13.10	-38.2	-39.2	22.4	0.00e+00	0	33	0	401604608	48	6567
2026-01-05 19:35:41.99	18.02	13.13	-38.5	-39.5	22.1	0.00e+00	0	33	0	403701760	48	6840
2026-01-05 19:35:43.00	17.83	13.17	-38.6	-39.7	22.0	0.00e+00	27	33	0	404750336	48	6974
2026-01-05 19:35:44.00	17.64	13.20	-38.8	-39.9	21.9	0.00e+00	0	33	0	406847488	50	6357
2026-01-05 19:35:45.01	17.45	13.23	-38.8	-40.0	21.7	0.00e+00	23	33	0	408944640	50	6426
2026-01-05 19:35:46.02	17.26	13.26	-38.6	-39.7	22.1	0.00e+00	0	33	0	411041792	50	6223
2026-01-05 19:35:47.03	17.06	13.29	-38.3	-39.4	22.3	0.00e+00	0	33	0	413138944	50	5988
2026-01-05 19:35:48.04	16.87	13.32	-38.3	-39.3	22.4	0.00e+00	0	34	0	414187520	50	5915
2026-01-05 19:35:49.05	16.68	13.35	-38.0	-39.0	22.8	0.00e+00	0	33	0	416284672	50	5716
2026-01-05 19:35:50.06	16.49	13.38	-37.6	-38.5	23.0	0.00e+00	28	33	0	418381824	48	6082
2026-01-05 19:35:51.07	16.29	13.41	-37.3	-38.2	23.1	0.00e+00	0	33	0	420478976	48	5851
2026-01-05 19:35:52.08	16.10	13.44	-37.2	-38.2	23.2	0.00e+00	92	33	0	422576128	48	5829
2026-01-05 19:35:53.08	15.91	13.47	-36.9	-37.8	23.4	0.00e+00	0	33	0	423624704	48	5577
2026-01-05 19:35:54.09	15.71	13.50	-36.8	-37.7	23.7	0.00e+00	33	33	0	425721856	46	6186
2026-01-05 19:35:55.10	15.52	13.52	-36.8	-37.7	23.6	0.00e+00	0	33	0	427819008	46	6200
2026-01-05 19:35:56.11	15.32	13.55	-37.1	-38.0	23.5	0.00e+00	0	33	0	429916160	46	6404
2026-01-05 19:35:57.13	15.12	13.58	-37.1	-38.0	23.5	0.00e+00	52	33	0	432013312	46	6403
2026-01-05 19:35:58.13	14.93	13.61	-37.0	-37.9	23.6	0.00e+00	0	33	0	433061888	46	6325
2026-01-05 19:35:59.14	14.73	13.64	-36.9	-37.8	23.6	0.00e+00	50	33	0	435159040	46	6284
2026-01-05 19:36:00.15	14.54	13.66	-37.0	-37.8	23.6	0.00e+00	0	33	0	437256192	46	6312
2026-01-05 19:36:01.16	14.34	13.69	-37.1	-38.0	23.5	0.00e+00	92	33	0	439353344	46	6396
2026-01-05 19:36:02.17	14.14	13.72	-37.1	-38.0	23.4	0.00e+00	0	33	0	441450496	46	6406
2026-01-05 19:36:03.18	13.94	13.74	-37.1	-38.0	23.5	0.00e+00	0	33	0	442499072	46	6446
2026-01-05 19:36:04.19	13.74	13.77	-37.2	-38.1	23.3	0.00e+00	0	33	0	444596224	46	6496
2026-01-05 19:36:05.20	13.54	13.79	-37.0	-37.9	23.2	0.00e+00	0	33	0	446693376	46	6352
2026-01-05 19:36:06.21	13.35	13.82	-37.2	-38.1	23.4	0.00e+00	53	33	0	448790528	46	6524
2026-01-05 19:36:07.21	13.15	13.84	-37.5	-38.4	23.1	0.00e+00	0	33	0	450887680	46	6718
2026-01-05 19:36:08.22	12.95	13.87	-37.8	-38.8	22.8	0.00e+00	92	33	0	451936256	48	6266
2026-01-05 19:36:09.23	12.75	13.89	-38.1	-39.1	22.5	0.00e+00	0	33	0	454033408	48	6539
2026-01-05 19:36:10.24	12.55	13.91	-38.4	-39.4	22.3	0.00e+00	0	33	0	456130560	48	6753
2026-01-05 19:36:11.25	12.35	13.94	-38.3	-39.3	22.4	0.00e+00	0	33	0	458227712	48	6645
2026-01-05 19:36:12.27	12.14	13.96	-38.2	-39.2	22.5	0.00e+00	0	33	0	460324864	48	6552
2026-01-05 19:36:13.28	11.94	13.98	-38.3	-39.4	22.3	0.00e+00	35	33	0	461373440	48	6694
2026-01-05 19:36:14.29	11.74	14.01	-38.1	-39.2	22.5	0.00e+00	0	33	0	463470592	48	6543
2026-01-05 19:36:15.29	11.54	14.03	-38.3	-39.3	22.3	0.00e+00	57	33	0	465567744	48	6691
2026-01-05 19:36:16.30	11.34	14.05	-38.2	-39.3	22.4	0.00e+00	0	33	0	467664896	48	6642
2026-01-05 19:36:17.31	11.14	14.07	-38.4	-39.4	22.2	0.00e+00	0	33	0	469762048	48	6745
2026-01-05 19:36:18.33	10.93	14.09	-38.5	-39.5	22.0	0.00e+00	0	33	0	471859200	48	6840
2026-01-05 19:36:19.33	10.73	14.11	-38.5	-39.6	22.2	0.00e+00	0	33	0	472907776	48	6849
2026-01-05 19:36:20.34	10.53	14.13	-38.4	-39.4	22.3	0.00e+00	54	33	0	475004928	48	6734
2026-01-05 19:36:21.35	10.32	14.15	-38.3	-39.3	22.4	0.00e+00	0	33	0	477102080	48	6686
2026-01-05 19:36:22.36	10.12	14.17	-38.0	-39.1	22.6	0.00e+00	92	33	0	479199232	48	6468
2026-01-05 19:36:23.37	9.91	14.19	-38.1	-39.2	22.6	0.00e+00	0	33	0	481296384	48	6553
2026-01-05 19:36:24.38	9.71	14.21	-38.0	-39.0	22.7	0.00e+00	0	33	0	482344960	48	6444
2026-01-05 19:36:25.39	9.50	14.23	-38.0	-39.0	22.7	0.00e+00	0	33	0	484442112	48	6402
2026-01-05 19:36:26.40	9.30	14.25	-38.0	-38.9	22.7	0.00e+00	0	33	0	486539264	48	6383
2026-01-05 19:36:27.41	9.09	14.27	-37.9	-38.9	23.0	0.00e+00	0	33	0	488636416	48	6342
2026-01-05 19:36:28.42	8.89	14.28	-37.5	-38.5	23.1	0.00e+00	0	33	0	490733568	48	6041
2026-01-05 19:36:29.43	8.68	14.30	-37.5	-38.4	23.1	0.00e+00	86	33	0	491782144	48	5993
2026-01-05 19:36:30.44	8.48	14.32	-37.3	-38.2	23.2	0.00e+00	0	33	0	493879296	48	5876
2026-01-05 19:36:31.45	8.27	14.34	-37.4	-38.3	23.2	0.00e+00	92	33	0	495976448	48	5904
2026-01-05 19:36:32.46	8.06	14.35	-37.2	-38.1	23.4	0.00e+00	0	33	0	498073600	48	5790
2026-01-05 19:36:33.47	7.86	14.37	-37.3	-38.1	23.4	0.00e+00	0	33	0	500170752	48	5828
2026-01-05 19:36:34.47	7.65	14.38	-37.4	-38.3	23.2	0.00e+00	0	33	0	501219328	48	5935
2026-01-05 19:36:35.48	7.44	14.40	-37.7	-38.6	23.0	0.00e+00	0	33	0	503316480	48	6149
2026-01-05 19:36:36.49	7.24	14.41	-37.8	-38.7	22.9	0.00e+00	45	33	0	505413632	48	6216
2026-01-05 19:36:37.50	7.03	14.43	-37.7	-38.7	22.9	0.00e+00	0	33	0	507510784	48	6202
2026-01-05 19:36:38.51	6.82	14.44	-37.7	-38.6	22.9	0.00e+00	86	33	0	509607936	48	6152
2026-01-05 19:36:39.52	6.61	14.45	-37.8	-38.7	22.7	0.00e+00	0	33	0	510656512	48	6233
2026-01-05 19:36:40.53	6.41	14.47	-37.8	-38.8	22.8	0.00e+00	0	33	0	512753664	48	6259
2026-01-05 19:36:41.54	6.20	14.48	-37.8	-38.8	22.9	0.00e+00	0	33	0	514850816	48	6250
2026-01-05 19:36:42.55	5.99	14.49	-37.8	-38.8	22.7	0.00e+00	0	33	0	516947968	48	6272
2026-01-05 19:36:43.56	5.78	14.50	-37.6	-38.6	23.0	0.00e+00	49	33	0	519045120	48	6128
2026-01-05 19:36:44.57	5.57	14.52	-37.6	-38.6	23.0	0.00e+00	0	33	0	520093696	48	6127
2026-01-05 19:36:45.58	5.36	14.53	-37.7	-38.7	22.9	0.00e+00	78	33	0	522190848	48	6184
2026-01-05 19:36:46.59	5.15	14.54	-37.6	-38.5	23.0	0.00e+00	0	33	0	524288000	48	6090
2026-01-05 19:36:47.60	4.94	14.55	-37.6	-38.6	23.1	0.00e+00	0	33	0	526385152	48	6104
2026-01-05 19:36:48.61	4.73	14.56	-37.7	-38.7	22.9	0.00e+00	0	33	0	528482304	48	6179
2026-01-05 19:36:49.62	4.52	14.57	-37.8	-38.7	22.9	0.00e+00	0	33	0	529530880	48	6229
2026-01-05 19:36:50.63	4.31	14.58	-37.9	-38.9	22.8	0.00e+00	47	33	0	531628032	48	6344
2026-01-05 19:36:51.64	4.10	14.59	-38.0	-39.0	22.7	0.00e+00	0	33	0	533725184	48	6428
2026-01-05 19:36:52.65	3.89	14.60	-38.0	-39.0	22.6	0.00e+00	92	33	0	535822336	48	6445
2026-01-05 19:36:53.66	3.68	14.61	-38.0	-39.0	22.6	0.00e+00	33	33	0	537919488	48	6415
2026-01-05 19:36:54.66	3.48	14.61	-37.8	-38.8	22.7	0.00e+00	0	33	0	538968064	48	6254
2026-01-05 19:36:55.67	3.27	14.62	-37.7	-38.7	22.9	0.00e+00	0	33	0	541065216	48	6194
2026-01-05 19:36:56.68	3.05	14.63	-37.4	-38.3	23.1	0.00e+00	0	33	0	543162368	48	5964
2026-01-05 19:36:57.69	2.84	14.63	-37.4	-38.3	23.1	0.00e+00	54	33	0	545259520	48	5936
2026-01-05 19:36:58.70	2.63	14.64	-37.5	-38.4	23.1	0.00e+00	0	33	0	547356672	48	6020
2026-01-05 19:36:59.71	2.42	14.65	-37.5	-38.5	23.1	0.00e+00	75	33	0	549453824	48	6050
2026-01-05 19:37:00.72	2.21	14.65	-37.6	-38.6	23.0	0.00e+00	0	33	0	550502400	48	6144
2026-01-05 19:37:01.73	2.00	14.66	-37.6	-38.6	23.0	0.00e+00	52	33	0	552599552	48	6138
2026-01-05 19:37:02.74	1.79	14.66	-37.6	-38.6	23.0	0.00e+00	0	33	0	554696704	48	6141
2026-01-05 19:37:03.75	1.58	14.67	-37.6	-38.6	23.0	0.00e+00	0	33	0	556793856	48	6111
2026-01-05 19:37:04.76	1.37	14.67	-37.7	-38.6	23.0	0.00e+00	49	33	0	558891008	48	6167
2026-01-05 19:37:05.77	1.16	14.68	-37.6	-38.6	23.0	0.00e+00	0	33	0	559939584	48	6137
2026-01-05 19:37:06.78	0.94	14.68	-37.6	-38.5	23.0	0.00e+00	92	34	0	562036736	48	6086
2026-01-05 19:37:07.79	0.73	14.68	-37.7	-38.7	22.9	0.00e+00	0	33	0	564133888	48	6218
2026-01-05 19:37:08.80	0.52	14.68	-37.9	-38.9	22.9	0.00e+00	0	33	0	566231040	48	6366
2026-01-05 19:37:09.81	0.31	14.69	-38.3	-39.3	22.4	0.00e+00	0	33	0	568328192	48	6674
2026-01-05 19:37:10.81	0.10	14.69	-38.2	-39.3	22.5	0.00e+00	0	33	0	569376768	48	6626
2026-01-05 19:37:11.82	359.89	14.69	-38.2	-39.3	22.5	0.00e+00	25	33	0	571473920	48	6619
2026-01-05 19:37:12.83	359.68	14.69	-38.2	-39.2	22.5	0.00e+00	0	33	0	573571072	48	6598
2026-01-05 19:37:13.84	359.47	14.69	-38.1	-39.1	22.6	0.00e+00	92	33	0	575668224	48	6537
2026-01-05 19:37:14.85	359.26	14.69	-37.8	-38.7	22.9	0.00e+00	0	33	0	577765376	48	6224
2026-01-05 19:37:15.86	359.04	14.69	-37.8	-38.7	22.9	0.00e+00	90	33	0	578813952	48	6224
2026-01-05 19:37:16.87	358.83	14.69	-37.4	-38.3	23.3	0.00e+00	0	33	0	580911104	48	5927
2026-01-05 19:37:17.88	358.62	14.69	-37.3	-38.2	23.2	0.00e+00	0	33	0	583008256	48	5875
2026-01-05 19:37:18.89	358.41	14.69	-37.4	-38.3	23.2	0.00e+00	0	33	0	585105408	48	5908
2026-01-05 19:37:19.90	358.20	14.69	-37.5	-38.5	23.1	0.00e+00	0	33	0	587202560	48	6040
2026-01-05 19:37:20.91	357.99	14.68	-37.7	-38.6	23.0	0.00e+00	54	33	0	588251136	48	6154
2026-01-05 19:37:21.92	357.77	14.68	-37.8	-38.7	22.8	0.00e+00	0	33	0	590348288	48	6241
2026-01-05 19:37:22.93	357.56	14.68	-38.1	-39.1	22.6	0.00e+00	69	33	0	592445440	48	6493
2026-01-05 19:37:23.94	357.35	14.68	-38.3	-39.4	22.5	0.00e+00	0	34	0	594542592	48	6715
2026-01-05 19:37:24.95	357.14	14.67	-38.3	-39.3	22.4	0.00e+00	0	33	0	596639744	48	6672
2026-01-05 19:37:25.96	356.93	14.67	-38.3	-39.3	22.5	0.00e+00	0	34	0	597688320	48	6663
2026-01-05 19:37:26.97	356.72	14.66	-38.0	-39.0	22.7	0.00e+00	0	33	0	599785472	48	6423
2026-01-05 19:37:27.98	356.51	14.66	-38.0	-39.0	22.7	0.00e+00	27	33	0	601882624	48	6407
2026-01-05 19:37:28.99	356.30	14.65	-38.1	-39.1	22.5	0.00e+00	0	33	0	603979776	48	6538
2026-01-05 19:37:30.00	356.09	14.65	-38.2	-39.2	22.5	0.00e+00	82	33	0	606076928	48	6614
2026-01-05 19:37:31.00	355.88	14.64	-38.2	-39.2	21.7	0.00e+00	0	33	0	607125504	48	6573
2026-01-05 19:37:32.02	355.66	14.63	-38.5	-39.5	22.1	0.00e+00	0	33	0	609222656	48	6837
2026-01-05 19:37:33.02	355.46	14.63	-38.5	-39.5	22.2	0.00e+00	0	33	0	611319808	48	6814
2026-01-05 19:37:34.03	355.24	14.62	-38.7	-39.8	21.9	0.00e+00	0	33	0	613416960	48	7028
2026-01-05 19:37:35.04	355.03	14.61	-38.7	-39.7	22.1	0.00e+00	64	33	0	615514112	48	7007
2026-01-05 19:37:36.05	354.82	14.61	-38.5	-39.6	22.2	0.00e+00	0	33	0	617611264	48	6849
2026-01-05 19:37:37.06	354.61	14.60	-38.2	-39.2	22.5	0.00e+00	90	33	0	618659840	48	6603
2026-01-05 19:37:38.07	354.40	14.59	-38.1	-39.1	22.5	0.00e+00	0	33	0	620756992	48	6531
2026-01-05 19:37:39.08	354.19	14.58	-37.7	-38.7	23.0	0.00e+00	33	33	0	622854144	48	6195
2026-01-05 19:37:40.09	353.98	14.57	-37.6	-38.5	23.0	0.00e+00	0	33	0	624951296	48	6100
2026-01-05 19:37:41.09	353.78	14.56	-37.4	-38.3	23.3	0.00e+00	0	33	0	627048448	48	5938
2026-01-05 19:37:42.10	353.57	14.55	-37.5	-38.4	23.1	0.00e+00	0	33	0	628097024	48	6022
2026-01-05 19:37:43.11	353.36	14.54	-37.6	-38.6	23.0	0.00e+00	0	33	0	630194176	48	6129
2026-01-05 19:37:44.12	353.15	14.53	-37.5	-38.5	23.1	0.00e+00	68	33	0	632291328	48	6050
2026-01-05 19:37:45.13	352.94	14.52	-37.7	-38.7	22.9	0.00e+00	0	33	0	634388480	48	6201
2026-01-05 19:37:46.14	352.73	14.50	-37.8	-38.8	23.0	0.00e+00	90	33	0	636485632	48	6306
2026-01-05 19:37:47.15	352.52	14.49	-37.9	-38.9	22.8	0.00e+00	0	33	0	637534208	48	6339
2026-01-05 19:37:48.16	352.31	14.48	-37.9	-38.9	22.8	0.00e+00	0	33	0	639631360	48	6374
2026-01-05 19:37:49.17	352.10	14.47	-38.1	-39.1	22.6	0.00e+00	0	33	0	641728512	48	6491
2026-01-05 19:37:50.18	351.90	14.45	-37.9	-38.8	22.8	0.00e+00	0	33	0	643825664	48	6304
2026-01-05 19:37:51.19	351.69	14.44	-37.7	-38.6	23.0	0.00e+00	62	33	0	645922816	48	6147
2026-01-05 19:37:52.20	351.48	14.43	-37.6	-38.5	23.2	0.00e+00	0	33	0	646971392	48	6075
2026-01-05 19:37:53.20	351.28	14.41	-37.0	-37.9	23.6	0.00e+00	92	33	0	649068544	48	5664
2026-01-05 19:37:54.21	351.07	14.40	-36.8	-37.7	23.6	0.00e+00	0	33	0	651165696	46	6200
2026-01-05 19:37:55.22	350.86	14.38	-36.9	-37.8	23.4	0.00e+00	0	34	0	653262848	46	6279
2026-01-05 19:37:56.23	350.65	14.37	-37.1	-38.0	23.4	0.00e+00	0	34	0	655360000	46	6415
2026-01-05 19:37:57.24	350.45	14.35	-37.1	-38.1	23.3	0.00e+00	0	34	0	656408576	46	6474
2026-01-05 19:37:58.25	350.24	14.33	-37.4	-38.3	23.0	0.00e+00	54	33	0	658505728	46	6643
2026-01-05 19:37:59.26	350.03	14.32	-37.3	-38.3	23.3	0.00e+00	0	33	0	660602880	46	6616
2026-01-05 19:38:00.27	349.83	14.30	-37.4	-38.4	23.2	0.00e+00	81	34	0	662700032	46	6697
2026-01-05 19:38:01.28	349.62	14.28	-37.4	-38.4	23.2	0.00e+00	0	34	0	664797184	46	6702
2026-01-05 19:38:02.28	349.42	14.27	-37.4	-38.4	23.1	0.00e+00	0	34	0	665845760	46	6713
2026-01-05 19:38:03.29	349.21	14.25	-37.8	-38.8	22.8	0.00e+00	0	34	0	667942912	46	7025
2026-01-05 19:38:04.30	349.01	14.23	-37.8	-38.7	22.7	0.00e+00	0	34	0	670040064	48	6229
2026-01-05 19:38:05.31	348.80	14.21	-37.8	-38.8	22.7	0.00e+00	54	34	0	672137216	48	6301
2026-01-05 19:38:06.32	348.60	14.19	-38.0	-39.0	22.7	0.00e+00	0	34	0	674234368	48	6414
2026-01-05 19:38:07.33	348.39	14.17	-37.9	-38.9	22.5	0.00e+00	63	34	0	675282944	48	6359
2026-01-05 19:38:08.34	348.19	14.15	-38.0	-39.0	22.6	0.00e+00	0	34	0	677380096	48	6404
2026-01-05 19:38:09.35	347.99	14.13	-37.9	-38.9	22.7	0.00e+00	0	34	0	679477248	48	6366
2026-01-05 19:38:10.36	347.78	14.11	-38.1	-39.1	22.5	0.00e+00	0	34	0	681574400	48	6501
2026-01-05 19:38:11.37	347.58	14.09	-38.3	-39.3	22.5	0.00e+00	0	34	0	683671552	48	6660
2026-01-05 19:38:12.38	347.38	14.07	-38.1	-39.1	22.5	0.00e+00	0	34	0	684720128	48	6514
2026-01-05 19:38:13.39	347.17	14.05	-37.7	-38.7	22.9	0.00e+00	0	34	0	686817280	48	6224
2026-01-05 19:38:14.40	346.97	14.03	-37.8	-38.7	22.9	0.00e+00	92	34	0	688914432	48	6243
2026-01-05 19:38:15.40	346.77	14.01	-37.7	-38.7	22.9	0.00e+00	0	34	0	691011584	48	6198
2026-01-05 19:38:16.42	346.57	13.98	-37.2	-38.2	23.4	0.00e+00	8	34	0	693108736	48	5839
2026-01-05 19:38:17.42	346.37	13.96	-37.3	-38.3	23.3	0.00e+00	0	34	0	694157312	48	5914
2026-01-05 19:38:18.43	346.17	13.94	-37.2	-38.2	23.3	0.00e+00	0	34	0	696254464	48	5834
2026-01-05 19:38:19.44	345.97	13.91	-37.5	-38.4	23.0	0.00e+00	0	34	0	698351616	48	6031
2026-01-05 19:38:20.45	345.77	13.89	-37.7	-38.7	22.7	0.00e+00	0	34	0	700448768	48	6184
2026-01-05 19:38:21.46	345.57	13.87	-37.8	-38.8	22.8	0.00e+00	92	34	0	702545920	48	6273
2026-01-05 19:38:22.47	345.37	13.84	-37.8	-38.8	22.7	0.00e+00	0	34	0	703594496	48	6263
2026-01-05 19:38:23.47	345.17	13.82	-37.8	-38.8	22.7	0.00e+00	90	34	0	705691648	48	6295
2026-01-05 19:38:24.48	344.97	13.79	-37.5	-38.5	23.0	0.00e+00	0	33	0	707788800	48	6048
2026-01-05 19:38:25.49	344.77	13.77	-37.3	-38.2	23.3	0.00e+00	0	34	0	709885952	48	5869
2026-01-05 19:38:26.50	344.57	13.74	-37.3	-38.3	23.2	0.00e+00	0	34	0	711983104	48	5916
2026-01-05 19:38:27.51	344.37	13.72	-37.5	-38.4	23.1	0.00e+00	0	33	0	714080256	48	5991
2026-01-05 19:38:28.52	344.18	13.69	-37.7	-38.7	22.9	0.00e+00	50	34	0	715128832	48	6182
2026-01-05 19:38:29.53	343.98	13.66	-37.9	-38.8	22.7	0.00e+00	0	34	0	717225984	48	6303
2026-01-05 19:38:30.54	343.78	13.64	-38.1	-39.1	22.5	0.00e+00	92	33	0	719323136	48	6500
2026-01-05 19:38:31.55	343.59	13.61	-37.7	-38.7	22.7	0.00e+00	0	33	0	721420288	48	6228
2026-01-05 19:38:32.56	343.39	13.58	-37.9	-38.9	22.6	0.00e+00	0	34	0	723517440	48	6389
2026-01-05 19:38:33.57	343.19	13.55	-37.9	-38.9	22.5	0.00e+00	0	34	0	724566016	48	6387
2026-01-05 19:38:34.58	343.00	13.52	-38.0	-39.0	22.5	0.00e+00	0	34	0	726663168	48	6446
2026-01-05 19:38:35.59	342.80	13.50	-37.8	-38.9	22.7	0.00e+00	50	33	0	728760320	48	6321
2026-01-05 19:38:36.59	342.61	13.47	-37.8	-38.8	22.7	0.00e+00	0	34	0	730857472	48	6282
2026-01-05 19:38:37.60	342.42	13.44	-37.9	-39.0	22.5	0.00e+00	71	34	0	732954624	48	6409
2026-01-05 19:38:38.61	342.22	13.41	-37.8	-38.8	22.7	0.00e+00	0	34	0	734003200	48	6300
2026-01-05 19:38:39.62	342.03	13.38	-37.9	-38.9	22.7	0.00e+00	8	34	0	736100352	48	6362
2026-01-05 19:38:40.63	341.84	13.35	-38.1	-39.1	22.5	0.00e+00	0	34	0	738197504	48	6528
2026-01-05 19:38:41.64	341.64	13.32	-38.1	-39.1	22.6	0.00e+00	0	33	0	740294656	48	6504
2026-01-05 19:38:42.65	341.45	13.29	-38.0	-39.0	22.6	0.00e+00	40	34	0	742391808	48	6441
2026-01-05 19:38:43.66	341.26	13.26	-38.1	-39.1	22.6	0.00e+00	0	33	0	743440384	48	6480
2026-01-05 19:38:44.67	341.07	13.23	-37.8	-38.8	22.7	0.00e+00	48	33	0	745537536	48	6281
2026-01-05 19:38:45.68	340.88	13.20	-37.8	-38.8	22.8	0.00e+00	0	34	0	747634688	48	6264
2026-01-05 19:38:46.69	340.68	13.16	-37.9	-38.9	22.8	0.00e+00	19	34	0	749731840	48	6318
2026-01-05 19:38:47.70	340.49	13.13	-37.8	-38.8	22.8	0.00e+00	0	34	0	751828992	48	6269
2026-01-05 19:38:48.71	340.30	13.10	-37.9	-38.9	22.7	0.00e+00	0	34	0	752877568	48	6323
2026-01-05 19:38:49.71	340.12	13.07	-37.9	-38.9	22.7	0.00e+00	52	34	0	754974720	48	6323
2026-01-05 19:38:50.72	339.93	13.04	-38.0	-39.0	22.6	0.00e+00	0	34	0	757071872	48	6437
2026-01-05 19:38:51.73	339.74	13.00	-38.0	-39.0	22.5	0.00e+00	92	33	0	759169024	48	6455
2026-01-05 19:38:52.74	339.55	12.97	-37.9	-38.9	22.6	0.00e+00	0	33	0	761266176	48	6351
2026-01-05 19:38:53.75	339.36	12.94	-38.0	-39.0	22.6	0.00e+00	71	34	0	762314752	48	6442
2026-01-05 19:38:54.76	339.18	12.90	-38.0	-39.0	22.6	0.00e+00	0	33	0	764411904	48	6396
2026-01-05 19:38:55.77	338.99	12.87	-37.7	-38.7	22.9	0.00e+00	0	33	0	766509056	48	6179
2026-01-05 19:38:56.78	338.80	12.83	-37.3	-38.3	23.2	0.00e+00	0	33	0	768606208	48	5915
2026-01-05 19:38:57.79	338.62	12.80	-37.2	-38.1	23.2	0.00e+00	0	33	0	770703360	48	5819
2026-01-05 19:38:58.80	338.43	12.77	-37.1	-38.0	23.4	0.00e+00	49	33	0	771751936	48	5716
2026-01-05 19:38:59.80	338.25	12.73	-37.1	-38.0	23.3	0.00e+00	0	33	0	773849088	48	5761
2026-01-05 19:39:00.81	338.06	12.70	-37.2	-38.1	23.3	0.00e+00	53	33	0	775946240	48	5779
2026-01-05 19:39:01.82	337.88	12.66	-37.4	-38.4	23.1	0.00e+00	0	33	0	778043392	48	5967
2026-01-05 19:39:02.83	337.69	12.62	-37.4	-38.3	23.1	0.00e+00	0	33	0	780140544	48	5931
2026-01-05 19:39:03.84	337.51	12.59	-37.4	-38.3	23.0	0.00e+00	0	33	0	782237696	48	5924
2026-01-05 19:39:04.85	337.33	12.55	-37.5	-38.4	22.8	0.00e+00	0	33	0	783286272	48	6003
2026-01-05 19:39:05.85	337.15	12.52	-37.6	-38.6	22.9	0.00e+00	53	33	0	785383424	48	6126
2026-01-05 19:39:06.86	336.97	12.48	-37.6	-38.6	22.9	0.00e+00	0	34	0	787480576	48	6111
2026-01-05 19:39:07.87	336.78	12.44	-37.7	-38.7	22.7	0.00e+00	92	34	0	789577728	48	6232
2026-01-05 19:39:08.88	336.60	12.41	-38.0	-39.0	22.5	0.00e+00	0	33	0	790626304	48	6413
2026-01-05 19:39:09.89	336.42	12.37	-38.0	-39.0	22.6	0.00e+00	0	33	0	792723456	48	6441
2026-01-05 19:39:10.90	336.24	12.33	-38.0	-39.0	22.6	0.00e+00	0	33	0	794820608	48	6424
2026-01-05 19:39:11.91	336.06	12.29	-38.1	-39.2	22.5	0.00e+00	0	33	0	796917760	48	6558
2026-01-05 19:39:12.91	335.88	12.26	-38.3	-39.4	22.3	0.00e+00	0	34	0	799014912	48	6711
2026-01-05 19:39:13.92	335.71	12.22	-38.3	-39.4	22.3	0.00e+00	0	34	0	800063488	48	6706
2026-01-05 19:39:14.93	335.53	12.18	-38.2	-39.2	22.3	0.00e+00	74	34	0	802160640	48	6580
2026-01-05 19:39:15.94	335.35	12.14	-38.3	-39.3	21.9	0.00e+00	0	33	0	804257792	48	6662
2026-01-05 19:39:16.95	335.17	12.10	-38.0	-39.0	22.5	0.00e+00	0	33	0	806354944	48	6412
2026-01-05 19:39:17.96	335.00	12.06	-38.2	-39.2	22.4	0.00e+00	0	34	0	808452096	48	6603
2026-01-05 19:39:18.97	334.82	12.02	-38.3	-39.3	22.2	0.00e+00	0	34	0	810549248	48	6643
2026-01-05 19:39:19.98	334.64	11.98	-38.4	-39.4	22.0	0.00e+00	9	33	0	811597824	48	6715
2026-01-05 19:39:20.99	334.47	11.95	-38.3	-39.4	22.3	0.00e+00	0	34	0	813694976	48	6711
2026-01-05 19:39:22.00	334.29	11.91	-38.4	-39.5	22.1	0.00e+00	92	34	0	815792128	48	6786
2026-01-05 19:39:23.00	334.12	11.87	-38.4	-39.5	22.1	0.00e+00	0	33	0	817889280	48	6801
2026-01-05 19:39:24.01	333.95	11.83	-38.6	-39.6	22.1	0.00e+00	40	34	0	819986432	48	6918
2026-01-05 19:39:25.03	333.77	11.78	-38.6	-39.7	22.0	0.00e+00	0	33	0	821035008	48	6983
2026-01-05 19:39:26.03	333.60	11.74	-38.7	-39.8	22.0	0.00e+00	0	34	0	823132160	48	7027
2026-01-05 19:39:27.04	333.43	11.70	-38.4	-39.5	22.2	0.00e+00	0	34	0	825229312	48	6771
2026-01-05 19:39:28.05	333.26	11.66	-38.5	-39.6	22.0	0.00e+00	0	33	0	827326464	48	6857
2026-01-05 19:39:29.06	333.08	11.62	-38.8	-39.8	21.8	0.00e+00	19	33	0	829423616	50	6284
2026-01-05 19:39:30.06	332.91	11.58	-38.6	-39.6	22.0	0.00e+00	0	33	0	830472192	50	6132
2026-01-05 19:39:31.07	332.74	11.54	-38.5	-39.6	22.0	0.00e+00	92	33	0	832569344	50	6114
2026-01-05 19:39:32.08	332.57	11.50	-38.9	-40.0	21.8	0.00e+00	33	34	0	834666496	50	6398
2026-01-05 19:39:33.09	332.40	11.46	-38.9	-39.9	21.8	0.00e+00	0	34	0	836763648	50	6367
2026-01-05 19:39:34.10	332.23	11.41	-39.2	-40.3	21.5	0.00e+00	0	33	0	838860800	50	6656
2026-01-05 19:39:35.11	332.07	11.37	-39.0	-40.1	21.7	0.00e+00	33	34	0	839909376	50	6494
2026-01-05 19:39:36.12	331.90	11.33	-39.0	-40.0	21.7	0.00e+00	54	34	0	842006528	50	6449
2026-01-05 19:39:37.13	331.73	11.29	-38.6	-39.6	22.0	0.00e+00	0	34	0	844103680	50	6163
2026-01-05 19:39:38.14	331.56	11.24	-38.6	-39.6	22.1	0.00e+00	92	34	0	846200832	50	6136
2026-01-05 19:39:39.15	331.40	11.20	-38.2	-39.2	22.5	0.00e+00	0	34	0	848297984	50	5840
2026-01-05 19:39:40.16	331.23	11.16	-38.2	-39.2	22.4	0.00e+00	0	34	0	849346560	50	5845
2026-01-05 19:39:41.17	331.06	11.12	-38.4	-39.4	22.2	0.00e+00	0	34	0	851443712	50	6008
2026-01-05 19:39:42.17	330.90	11.07	-38.4	-39.4	22.2	0.00e+00	0	33	0	853540864	50	6012
2026-01-05 19:39:43.18	330.74	11.03	-38.8	-39.9	21.8	0.00e+00	24	34	0	855638016	50	6324
2026-01-05 19:39:44.19	330.57	10.99	-39.3	-40.4	21.4	0.00e+00	0	34	0	857735168	50	6766
2026-01-05 19:39:45.20	330.41	10.94	-39.6	-40.8	20.9	0.00e+00	91	34	0	858783744	50	7066
2026-01-05 19:39:46.21	330.25	10.90	-40.0	-41.2	20.8	0.00e+00	0	34	0	860880896	52	6575
2026-01-05 19:39:47.22	330.08	10.85	-40.2	-41.5	20.4	0.00e+00	48	34	0	862978048	52	6817
2026-01-05 19:39:48.23	329.92	10.81	-40.5	-41.8	20.1	0.00e+00	0	33	0	865075200	52	7057
2026-01-05 19:39:49.23	329.76	10.77	-40.3	-41.6	20.4	0.00e+00	0	34	0	867172352	52	6878
2026-01-05 19:39:50.25	329.60	10.72	-40.3	-41.6	20.3	0.00e+00	13	34	0	868220928	52	6911
2026-01-05 19:39:51.25	329.44	10.68	-39.9	-41.1	20.8	0.00e+00	0	33	0	870318080	52	6477
2026-01-05 19:39:52.27	329.28	10.63	-39.7	-40.9	21.1	0.00e+00	50	34	0	872415232	52	6327
2026-01-05 19:39:53.28	329.12	10.59	-39.3	-40.4	21.4	0.00e+00	0	33	0	874512384	52	6018
2026-01-05 19:39:54.28	328.96	10.54	-39.5	-40.6	21.3	0.00e+00	60	33	0	876609536	52	6147
2026-01-05 19:39:55.29	328.80	10.50	-39.3	-40.4	21.4	0.00e+00	0	34	0	878706688	52	6018
2026-01-05 19:39:56.30	328.64	10.45	-39.5	-40.6	21.2	0.00e+00	0	33	0	879755264	52	6171
2026-01-05 19:39:57.31	328.48	10.41	-39.6	-40.8	21.0	0.00e+00	0	33	0	881852416	52	6286
2026-01-05 19:39:58.32	328.33	10.36	-40.1	-41.3	20.6	0.00e+00	0	33	0	883949568	52	6675
2026-01-05 19:39:59.33	328.17	10.31	-40.6	-42.0	20.0	0.00e+00	58	33	0	886046720	52	7217
2026-01-05 19:40:00.34	328.01	10.27	-41.2	-42.7	19.2	0.00e+00	0	34	0	888143872	54	7003
2026-01-05 19:40:01.35	327.86	10.22	-41.7	-43.3	18.7	0.00e+00	70	34	0	889192448	54	7505
2026-01-05 19:40:02.36	327.70	10.18	-41.8	-43.5	18.7	0.00e+00	0	34	0	891289600	56	6781
2026-01-05 19:40:03.36	327.55	10.13	-42.2	-44.0	18.2	0.00e+00	0	34	0	893386752	56	7219
2026-01-05 19:40:04.38	327.39	10.08	-42.1	-43.8	18.5	0.00e+00	0	33	0	895483904	56	7062
2026-01-05 19:40:05.38	327.24	10.04	-41.8	-43.4	18.7	0.00e+00	0	33	0	897581056	56	6768
2026-01-05 19:40:06.39	327.09	9.99	-41.6	-43.2	19.0	0.00e+00	42	34	0	898629632	56	6560
2026-01-05 19:40:07.40	326.94	9.95	-41.2	-42.7	19.4	0.00e+00	0	33	0	900726784	56	6198
2026-01-05 19:40:08.41	326.78	9.90	-41.2	-42.6	19.5	0.00e+00	65	34	0	902823936	56	6160
2026-01-05 19:40:09.42	326.63	9.85	-41.2	-42.6	19.4	0.00e+00	0	33	0	904921088	56	6170
2026-01-05 19:40:10.43	326.48	9.80	-41.2	-42.7	19.3	0.00e+00	0	33	0	907018240	56	6192
2026-01-05 19:40:11.44	326.33	9.76	-41.0	-42.4	19.6	0.00e+00	0	33	0	908066816	56	6030
2026-01-05 19:40:12.45	326.18	9.71	-40.7	-42.1	19.8	0.00e+00	0	34	0	910163968	54	6514
2026-01-05 19:40:13.46	326.03	9.66	-40.7	-42.1	19.9	0.00e+00	47	34	0	912261120	54	6519
2026-01-05 19:40:14.47	325.88	9.62	-40.6	-41.9	20.0	0.00e+00	0	33	0	914358272	54	6369
2026-01-05 19:40:15.48	325.73	9.57	-40.5	-41.9	19.9	0.00e+00	88	33	0	916455424	54	6345
2026-01-05 19:40:16.49	325.58	9.52	-40.3	-41.6	20.3	0.00e+00	0	33	0	917504000	54	6136
2026-01-05 19:40:17.50	325.44	9.47	-40.4	-41.8	20.1	0.00e+00	0	33	0	919601152	54	6256
2026-01-05 19:40:18.51	325.29	9.43	-40.0	-41.2	20.7	0.00e+00	0	33	0	921698304	54	5879
2026-01-05 19:40:19.52	325.14	9.38	-39.9	-41.1	20.6	0.00e+00	0	33	0	923795456	54	5811
2026-01-05 19:40:20.53	325.00	9.33	-40.0	-41.3	20.6	0.00e+00	46	33	0	925892608	54	5925
2026-01-05 19:40:21.54	324.85	9.28	-40.2	-41.5	20.5	0.00e+00	0	33	0	926941184	54	6038
2026-01-05 19:40:22.55	324.70	9.23	-40.1	-41.4	20.5	0.00e+00	84	33	0	929038336	54	5967
2026-01-05 19:40:23.55	324.56	9.19	-40.1	-41.3	20.5	0.00e+00	0	34	0	931135488	54	5938
2026-01-05 19:40:24.56	324.42	9.14	-40.0	-41.2	20.6	0.00e+00	33	33	0	933232640	54	5875
2026-01-05 19:40:25.57	324.27	9.09	-39.9	-41.1	20.7	0.00e+00	0	33	0	935329792	54	5828
2026-01-05 19:40:26.58	324.13	9.04	-39.9	-41.1	20.8	0.00e+00	0	33	0	936378368	54	5767
2026-01-05 19:40:27.59	323.99	8.99	-39.6	-40.7	21.1	0.00e+00	50	33	0	938475520	52	6216
2026-01-05 19:40:28.60	323.84	8.94	-39.5	-40.6	21.1	0.00e+00	0	34	0	940572672	52	6154
2026-01-05 19:40:29.61	323.70	8.90	-39.5	-40.6	21.1	0.00e+00	74	34	0	942669824	52	6141
2026-01-05 19:40:30.62	323.56	8.85	-39.3	-40.4	21.3	0.00e+00	0	33	0	944766976	52	5983
2026-01-05 19:40:31.63	323.42	8.80	-39.4	-40.5	21.3	0.00e+00	92	33	0	945815552	52	6088
2026-01-05 19:40:32.64	323.28	8.75	-39.3	-40.5	21.3	0.00e+00	0	33	0	947912704	52	6035
2026-01-05 19:40:33.65	323.14	8.70	-39.2	-40.3	21.5	0.00e+00	0	33	0	950009856	52	5949
2026-01-05 19:40:34.66	323.00	8.65	-39.1	-40.2	21.5	0.00e+00	0	33	0	952107008	52	5833
2026-01-05 19:40:35.67	322.86	8.60	-39.3	-40.4	21.3	0.00e+00	0	33	0	954204160	52	5996
2026-01-05 19:40:36.68	322.72	8.55	-39.4	-40.5	21.3	0.00e+00	90	33	0	955252736	52	6084
2026-01-05 19:40:37.69	322.58	8.50	-39.3	-40.5	21.2	0.00e+00	0	33	0	957349888	52	6055
2026-01-05 19:40:38.70	322.45	8.46	-39.3	-40.5	21.3	0.00e+00	92	33	0	959447040	52	6046
2026-01-05 19:40:39.71	322.31	8.41	-39.4	-40.5	21.2	0.00e+00	0	34	0	961544192	52	6100
2026-01-05 19:40:40.72	322.17	8.36	-39.6	-40.8	21.0	0.00e+00	0	33	0	963641344	52	6267
2026-01-05 19:40:41.72	322.04	8.31	-39.8	-41.0	20.8	0.00e+00	0	33	0	964689920	52	6446
2026-01-05 19:40:42.73	321.90	8.26	-39.8	-41.1	20.7	0.00e+00	0	33	0	966787072	52	6467
2026-01-05 19:40:43.74	321.77	8.21	-39.8	-41.0	20.8	0.00e+00	66	33	0	968884224	52	6413
2026-01-05 19:40:44.75	321.63	8.16	-39.8	-41.0	20.8	0.00e+00	0	34	0	970981376	52	6409
2026-01-05 19:40:45.76	321.50	8.11	-39.8	-41.0	20.8	0.00e+00	92	34	0	973078528	52	6398
2026-01-05 19:40:46.77	321.36	8.06	-39.8	-41.0	20.6	0.00e+00	0	33	0	975175680	52	6402
2026-01-05 19:40:47.78	321.23	8.01	-39.8	-41.0	20.7	0.00e+00	0	33	0	976224256	52	6456
2026-01-05 19:40:48.79	321.10	7.96	-39.6	-40.8	20.9	0.00e+00	0	34	0	978321408	52	6295
2026-01-05 19:40:49.80	320.96	7.91	-39.6	-40.8	21.0	0.00e+00	0	34	0	980418560	52	6253
2026-01-05 19:40:50.81	320.83	7.86	-39.6	-40.8	20.9	0.00e+00	50	33	0	982515712	52	6291
2026-01-05 19:40:51.83	320.70	7.81	-39.6	-40.8	20.9	0.00e+00	0	33	0	984612864	52	6304
2026-01-05 19:40:52.83	320.57	7.76	-39.6	-40.8	20.8	0.00e+00	92	34	0	985661440	52	6281
2026-01-05 19:40:53.84	320.44	7.71	-39.7	-40.9	20.8	0.00e+00	0	34	0	987758592	52	6357
2026-01-05 19:40:54.85	320.31	7.66	-39.5	-40.7	21.0	0.00e+00	0	34	0	989855744	52	6233
2026-01-05 19:40:55.87	320.18	7.61	-39.6	-40.8	20.9	0.00e+00	0	33	0	991952896	52	6278
2026-01-05 19:40:56.88	320.05	7.56	-39.5	-40.7	21.0	0.00e+00	0	34	0	994050048	52	6201
2026-01-05 19:40:57.89	319.92	7.51	-39.2	-40.3	21.3	0.00e+00	23	33	0	995098624	52	5936
2026-01-05 19:40:58.90	319.79	7.46	-39.0	-40.1	21.5	0.00e+00	0	33	0	997195776	52	5790
2026-01-05 19:40:59.91	319.66	7.41	-38.8	-39.9	21.7	0.00e+00	92	33	0	999292928	52	5648
2026-01-05 19:41:00.91	319.54	7.36	-38.5	-39.5	22.0	0.00e+00	0	33	0	1001390080	50	6081
2026-01-05 19:41:01.92	319.41	7.31	-38.3	-39.4	22.1	0.00e+00	0	33	0	1003487232	50	5982
2026-01-05 19:41:02.93	319.28	7.26	-38.4	-39.5	22.1	0.00e+00	0	33	0	1004535808	50	6056
2026-01-05 19:41:03.94	319.16	7.21	-38.5	-39.6	21.9	0.00e+00	0	33	0	1006632960	50	6135
2026-01-05 19:41:04.95	319.03	7.16	-38.5	-39.5	22.0	0.00e+00	0	34	0	1008730112	50	6088
2026-01-05 19:41:05.95	318.91	7.11	-38.5	-39.5	22.0	0.00e+00	0	34	0	1010827264	50	6066
2026-01-05 19:41:06.96	318.78	7.06	-38.5	-39.6	21.9	0.00e+00	92	34	0	1012924416	50	6139
2026-01-05 19:41:07.97	318.66	7.01	-38.7	-39.7	21.9	0.00e+00	0	34	0	1013972992	50	6232
2026-01-05 19:41:08.98	318.54	6.96	-38.7	-39.8	21.7	0.00e+00	92	34	0	1016070144	50	6272
2026-01-05 19:41:09.99	318.41	6.91	-38.8	-39.9	21.6	0.00e+00	0	33	0	1018167296	50	6375
2026-01-05 19:41:11.00	318.29	6.86	-38.7	-39.8	21.6	0.00e+00	0	34	0	1020264448	50	6304
2026-01-05 19:41:12.01	318.17	6.81	-38.8	-39.9	21.7	0.00e+00	0	34	0	1022361600	50	6326
2026-01-05 19:41:13.02	318.04	6.75	-38.6	-39.7	21.8	0.00e+00	0	34	0	1023410176	50	6220
2026-01-05 19:41:14.03	317.92	6.70	-38.6	-39.6	21.8	0.00e+00	32	33	0	1025507328	50	6167
2026-01-05 19:41:15.03	317.80	6.65	-38.3	-39.3	22.1	0.00e+00	0	33	0	1027604480	50	5956
2026-01-05 19:41:16.05	317.68	6.60	-38.3	-39.3	22.1	0.00e+00	92	33	0	1029701632	50	5961
2026-01-05 19:41:17.06	317.56	6.55	-38.1	-39.1	22.3	0.00e+00	0	33	0	1031798784	50	5798
2026-01-05 19:41:18.07	317.44	6.50	-38.2	-39.2	22.1	0.00e+00	0	34	0	1032847360	50	5881
2026-01-05 19:41:19.08	317.32	6.45	-38.3	-39.3	22.1	0.00e+00	0	33	0	1034944512	50	5924
2026-01-05 19:41:20.09	317.20	6.40	-38.5	-39.6	21.9	0.00e+00	0	34	0	1037041664	50	6122
2026-01-05 19:41:21.10	317.08	6.35	-38.7	-39.7	21.7	0.00e+00	42	33	0	1039138816	50	6241
2026-01-05 19:41:22.11	316.96	6.30	-38.7	-39.8	21.6	0.00e+00	0	33	0	1041235968	50	6299
2026-01-05 19:41:23.12	316.85	6.25	-38.9	-40.0	21.5	0.00e+00	92	33	0	1043333120	50	6440
2026-01-05 19:41:24.13	316.73	6.20	-38.8	-39.9	21.6	0.00e+00	0	33	0	1044381696	50	6374
2026-01-05 19:41:25.14	316.61	6.15	-39.0	-40.1	21.4	0.00e+00	33	33	0	1046478848	50	6498
2026-01-05 19:41:26.15	316.50	6.09	-39.0	-40.2	21.3	0.00e+00	0	34	0	1048576000	50	6560
2026-01-05 19:41:27.16	316.38	6.04	-39.1	-40.2	21.3	0.00e+00	0	34	0	1050673152	50	6612
2026-01-05 19:41:28.17	316.26	5.99	-39.2	-40.4	21.2	0.00e+00	55	34	0	1052770304	50	6729
2026-01-05 19:41:29.18	316.15	5.94	-39.1	-40.3	21.2	0.00e+00	0	33	0	1053818880	50	6656
2026-01-05 19:41:30.19	316.03	5.89	-39.3	-40.5	21.0	0.00e+00	59	33	0	1055916032	50	6772
2026-01-05 19:41:31.19	315.92	5.84	-39.3	-40.5	21.0	0.00e+00	0	34	0	1058013184	50	6773
2026-01-05 19:41:32.20	315.81	5.79	-39.3	-40.5	21.1	0.00e+00	0	33	0	1060110336	50	6771
2026-01-05 19:41:33.21	315.69	5.74	-39.4	-40.6	21.0	0.00e+00	0	34	0	1062207488	50	6892
2026-01-05 19:41:34.22	315.58	5.69	-39.4	-40.6	21.0	0.00e+00	0	34	0	1063256064	50	6862
2026-01-05 19:41:35.23	315.47	5.64	-39.4	-40.6	20.9	0.00e+00	49	34	0	1065353216	50	6882
2026-01-05 19:41:36.24	315.35	5.59	-39.3	-40.5	20.9	0.00e+00	0	34	0	1067450368	50	6833
2026-01-05 19:41:37.25	315.24	5.53	-39.5	-40.7	20.8	0.00e+00	92	33	0	1069547520	50	6959
2026-01-05 19:41:38.26	315.13	5.48	-39.4	-40.6	20.6	0.00e+00	0	33	0	1071644672	50	6920
2026-01-05 19:41:39.27	315.02	5.43	-39.4	-40.6	20.8	0.00e+00	92	33	0	1072693248	50	6868
2026-01-05 19:41:40.28	314.91	5.38	-39.5	-40.7	20.7	0.00e+00	0	33	0	1074790400	50	6986
2026-01-05 19:41:41.29	314.80	5.33	-39.5	-40.7	20.7	0.00e+00	0	34	0	1076887552	50	6963
2026-01-05 19:41:42.30	314.69	5.28	-39.6	-40.9	20.7	0.00e+00	49	34	0	1078984704	50	7092
2026-01-05 19:41:43.31	314.58	5.23	-39.4	-40.6	20.7	0.00e+00	0	34	0	1081081856	50	6903
2026-01-05 19:41:44.31	314.47	5.18	-39.4	-40.6	20.8	0.00e+00	63	34	0	1082130432	50	6912
2026-01-05 19:41:45.32	314.36	5.13	-39.3	-40.5	20.6	0.00e+00	0	34	0	1084227584	50	6786
2026-01-05 19:41:46.33	314.25	5.08	-39.1	-40.3	20.7	0.00e+00	76	34	0	1086324736	50	6623
2026-01-05 19:41:47.34	314.14	5.03	-38.8	-39.9	21.3	0.00e+00	0	33	0	1088421888	50	6363
2026-01-05 19:41:48.35	314.04	4.97	-38.8	-39.9	21.4	0.00e+00	0	34	0	1090519040	50	6357
2026-01-05 19:41:49.36	313.93	4.92	-39.1	-40.3	21.0	0.00e+00	0	34	0	1091567616	50	6631
2026-01-05 19:41:50.37	313.82	4.87	-39.0	-40.2	21.3	0.00e+00	0	34	0	1093664768	50	6578
2026-01-05 19:41:51.38	313.72	4.82	-39.3	-40.5	20.8	0.00e+00	56	34	0	1095761920	50	6835
2026-01-05 19:41:52.39	313.61	4.77	-39.3	-40.5	20.8	0.00e+00	0	34	0	1097859072	50	6837
2026-01-05 19:41:53.40	313.50	4.72	-39.1	-40.3	21.1	0.00e+00	89	34	0	1099956224	50	6620
2026-01-05 19:41:54.41	313.40	4.67	-39.1	-40.3	21.0	0.00e+00	0	34	0	1101004800	50	6682
2026-01-05 19:41:55.42	313.29	4.62	-39.4	-40.6	20.8	0.00e+00	0	34	0	1103101952	50	6912
2026-01-05 19:41:56.43	313.19	4.57	-39.5	-40.7	20.7	0.00e+00	0	34	0	1105199104	50	6975
2026-01-05 19:41:57.44	313.08	4.52	-39.2	-40.4	20.9	0.00e+00	0	34	0	1107296256	50	6711
2026-01-05 19:41:58.45	312.98	4.46	-39.7	-41.0	20.4	0.00e+00	46	34	0	1109393408	50	7185
2026-01-05 19:41:59.46	312.88	4.41	-40.0	-41.3	20.3	0.00e+00	0	34	0	1111490560	52	6655
2026-01-05 19:42:00.47	312.77	4.36	-39.9	-41.3	20.0	0.00e+00	91	34	0	1112539136	52	6637
2026-01-05 19:42:01.48	312.67	4.31	-40.3	-41.7	19.7	0.00e+00	0	34	0	1114636288	52	6934
2026-01-05 19:42:02.49	312.57	4.26	-40.1	-41.5	19.7	0.00e+00	0	34	0	1116733440	52	6792
2026-01-05 19:42:03.49	312.47	4.21	-40.3	-41.7	19.5	0.00e+00	0	34	0	1118830592	52	6998
2026-01-05 19:42:04.50	312.37	4.16	-40.4	-41.8	19.5	0.00e+00	0	34	0	1120927744	52	7065
2026-01-05 19:42:05.51	312.26	4.11	-40.4	-41.8	19.8	0.00e+00	42	34	0	1121976320	52	7021
2026-01-05 19:42:06.52	312.16	4.06	-39.9	-41.2	20.3	0.00e+00	0	34	0	1124073472	52	6612
2026-01-05 19:42:07.53	312.06	4.01	-39.4	-40.6	20.7	0.00e+00	90	34	0	1126170624	52	6173
2026-01-05 19:42:08.54	311.96	3.96	-39.3	-40.5	20.8	0.00e+00	0	33	0	1128267776	52	6081
2026-01-05 19:42:09.55	311.86	3.91	-39.3	-40.5	20.8	0.00e+00	9	34	0	1130364928	52	6040
2026-01-05 19:42:10.56	311.76	3.86	-39.3	-40.5	20.7	0.00e+00	0	34	0	1131413504	52	6075
2026-01-05 19:42:11.57	311.66	3.80	-39.2	-40.4	20.7	0.00e+00	0	34	0	1133510656	52	5995
2026-01-05 19:42:12.58	311.56	3.75	-39.1	-40.2	20.9	0.00e+00	17	34	0	1135607808	52	5895
2026-01-05 19:42:13.59	311.47	3.70	-39.0	-40.2	21.1	0.00e+00	0	34	0	1137704960	52	5848
2026-01-05 19:42:14.59	311.37	3.65	-38.8	-39.9	21.2	0.00e+00	78	34	0	1139802112	52	5695
2026-01-05 19:42:15.60	311.27	3.60	-38.9	-40.0	21.1	0.00e+00	0	34	0	1140850688	52	5735
2026-01-05 19:42:16.61	311.17	3.55	-39.1	-40.3	20.9	0.00e+00	34	34	0	1142947840	52	5934
2026-01-05 19:42:17.62	311.08	3.50	-39.0	-40.2	21.0	0.00e+00	0	33	0	1145044992	52	5844
2026-01-05 19:42:18.63	310.98	3.45	-39.1	-40.3	20.8	0.00e+00	0	33	0	1147142144	52	5913
2026-01-05 19:42:19.64	310.88	3.40	-39.2	-40.4	20.7	0.00e+00	0	33	0	1149239296	52	6029
2026-01-05 19:42:20.65	310.79	3.35	-39.5	-40.8	20.3	0.00e+00	0	34	0	1150287872	52	6293
2026-01-05 19:42:21.66	310.69	3.30	-39.6	-40.9	20.2	0.00e+00	92	33	0	1152385024	52	6323
2026-01-05 19:42:22.67	310.60	3.25	-39.8	-41.2	20.0	0.00e+00	0	34	0	1154482176	52	6544
2026-01-05 19:42:23.68	310.50	3.20	-39.8	-41.1	20.0	0.00e+00	49	34	0	1156579328	52	6533
2026-01-05 19:42:24.69	310.41	3.15	-40.3	-41.7	19.3	0.00e+00	0	34	0	1158676480	52	6979
2026-01-05 19:42:25.70	310.31	3.10	-40.7	-42.2	18.7	0.00e+00	0	34	0	1159725056	52	7382
2026-01-05 19:42:26.70	310.22	3.05	-40.6	-42.1	19.1	0.00e+00	0	34	0	1161822208	54	6485
2026-01-05 19:42:27.71	310.13	3.00	-47.6	-62.7	3.6	2.20e-06	0	34	104	1162870784	60	49318
2026-01-05 19:42:28.73	310.03	2.94	-48.2	-63.4	3.6	1.51e+00	0	34	104	1162870784	60	53206
2026-01-05 19:42:29.73	309.94	2.89	-48.5	-63.7	3.6	1.51e+00	0	34	104	1162870784	60	55157
2026-01-05 19:42:30.75	309.85	2.84	-48.6	-63.8	3.6	1.51e+00	0	34	104	1162870784	60	55908
2026-01-05 19:42:31.76	309.75	2.79	-48.7	-63.9	3.6	1.51e+00	0	34	104	1162870784	60	56670
2026-01-05 19:42:32.76	309.66	2.74	-48.8	-64.0	3.6	1.51e+00	0	34	104	1162870784	60	57219
2026-01-05 19:42:33.77	309.57	2.69	-48.8	-64.0	3.6	1.51e+00	0	34	104	1162870784	60	57024
2026-01-05 19:42:34.78	309.48	2.64	-48.8	-64.0	3.6	1.51e+00	0	34	104	1162870784	60	57184
2026-01-05 19:42:35.79	309.39	2.59	-48.8	-64.0	3.6	1.51e+00	0	34	104	1162870784	60	57316
2026-01-05 19:42:36.80	309.30	2.54	-48.8	-64.0	3.6	1.51e+00	0	34	104	1162870784	60	57478
2026-01-05 19:42:37.81	309.21	2.49	-48.8	-64.0	3.6	1.51e+00	0	34	104	1162870784	60	57290
2026-01-05 19:42:38.82	309.12	2.44	-48.7	-63.9	3.6	1.51e+00	0	34	104	1162870784	60	56412
2026-01-05 19:42:39.83	309.03	2.39	-48.7	-63.8	3.6	1.51e+00	0	34	104	1162870784	60	56213
2026-01-05 19:42:40.84	308.94	2.34	-48.7	-63.9	3.6	1.51e+00	0	34	104	1162870784	60	56470
2026-01-05 19:42:41.85	308.85	2.29	-48.6	-63.9	3.6	1.51e+00	0	34	104	1162870784	60	56319
2026-01-05 19:42:42.86	308.76	2.24	-48.7	-63.8	3.6	1.51e+00	0	34	104	1162870784	60	55830
