passes_logs/2026/01/05/R4.6S_Anadyr/R4.6S_Anadyr__20260105_175200_SUOMI_NPP_rec.log

#Pass ID: 20260105_175200_SUOMI NPP
#Satellite: SUOMI NPP
#Configuration: NPP
#almurnet v.1.7.20251203
#Start time: 2026-01-05 17:52:03

#Version: 2.2.20231116
#Station: R4.6S_Anadyr
#Location: 177.4865 lon 64.73178 lat
#TLE: 1 37849U 11061A   26004.95404768  .00000136  00000+0  85334-4 0  9991
#TLE: 2 37849  98.7801 307.0898 0002574  80.6707 279.4760 14.19522289735280

#Time	Az	El	Level	Level2	SNR	BER	BlckErr	Temp	State	Recorded	gain1	gain2
2026-01-05 17:52:03.43	34.56	0.16	-48.6	-62.3	3.3	1.54e+00	0	31	0	0	60	47181
2026-01-05 17:52:04.44	34.49	0.21	-48.6	-63.8	3.6	1.51e+00	0	32	104	0	60	56156
2026-01-05 17:52:05.45	34.43	0.26	-48.7	-63.8	3.5	1.51e+00	0	32	104	0	60	56165
2026-01-05 17:52:06.46	34.36	0.31	-48.7	-63.9	3.6	1.51e+00	0	32	104	0	60	56451
2026-01-05 17:52:07.47	34.30	0.37	-48.7	-63.8	3.6	1.51e+00	0	32	104	0	60	56167
2026-01-05 17:52:08.48	34.23	0.42	-48.7	-63.8	3.5	1.51e+00	0	32	104	0	60	56213
2026-01-05 17:52:09.48	34.16	0.47	-48.6	-63.7	3.6	1.51e+00	0	32	104	0	60	55604
2026-01-05 17:52:10.49	34.10	0.52	-48.5	-63.7	3.6	1.51e+00	0	32	104	0	60	55449
2026-01-05 17:52:11.50	34.03	0.58	-48.4	-63.7	3.6	1.51e+00	0	32	104	0	60	55045
2026-01-05 17:52:12.51	33.96	0.63	-48.4	-63.6	3.6	1.51e+00	0	32	104	0	60	54628
2026-01-05 17:52:13.52	33.90	0.68	-48.3	-63.5	3.6	1.51e+00	0	32	104	0	60	53948
2026-01-05 17:52:14.53	33.83	0.74	-48.2	-63.3	3.6	1.51e+00	0	32	104	0	60	53016
2026-01-05 17:52:15.54	33.76	0.79	-47.9	-63.2	3.6	1.51e+00	0	32	104	0	60	52010
2026-01-05 17:52:16.55	33.69	0.84	-47.6	-62.8	3.6	1.51e+00	0	32	104	0	60	49717
2026-01-05 17:52:17.56	33.63	0.90	-47.1	-62.3	3.6	1.51e+00	0	32	104	0	60	46841
2026-01-05 17:52:18.57	33.56	0.95	-47.1	-62.2	3.6	1.51e+00	0	32	104	0	60	46695
2026-01-05 17:52:19.58	33.49	1.00	-47.1	-62.2	3.6	1.51e+00	0	32	104	0	60	46734
2026-01-05 17:52:20.60	33.42	1.06	-47.1	-62.3	3.6	1.51e+00	0	32	104	0	60	46961
2026-01-05 17:52:21.60	33.35	1.11	-47.1	-62.2	3.6	1.51e+00	0	32	104	0	60	46796
2026-01-05 17:52:22.61	33.28	1.16	-47.1	-62.2	3.6	1.51e+00	0	32	104	0	60	46749
2026-01-05 17:52:23.62	33.21	1.22	-47.1	-62.2	3.5	1.51e+00	0	32	104	0	60	46777
2026-01-05 17:52:24.64	33.14	1.27	-47.1	-62.2	3.6	1.51e+00	0	32	104	0	60	46764
2026-01-05 17:52:25.65	33.07	1.32	-47.1	-62.2	3.6	1.51e+00	0	32	104	0	60	46802
2026-01-05 17:52:26.66	33.00	1.38	-47.1	-62.3	3.6	1.51e+00	0	32	104	0	60	46874
2026-01-05 17:52:27.67	32.93	1.43	-47.1	-62.2	3.6	1.51e+00	0	32	104	0	60	46429
2026-01-05 17:52:28.68	32.86	1.49	-47.1	-62.2	3.6	1.51e+00	0	32	104	0	60	46418
2026-01-05 17:52:29.69	32.79	1.54	-47.1	-62.2	3.6	1.51e+00	0	32	104	0	60	46590
2026-01-05 17:52:30.70	32.72	1.59	-47.1	-62.2	3.6	1.51e+00	0	32	104	0	60	46779
2026-01-05 17:52:31.71	32.65	1.65	-47.1	-62.3	3.5	1.51e+00	0	32	104	0	60	46964
2026-01-05 17:52:32.72	32.57	1.70	-47.1	-62.3	3.6	1.51e+00	0	32	104	0	60	46967
2026-01-05 17:52:33.73	32.50	1.76	-47.1	-62.2	3.6	1.51e+00	0	32	104	0	60	46765
2026-01-05 17:52:34.74	32.43	1.81	-47.1	-62.2	3.6	1.51e+00	0	32	104	0	60	46591
2026-01-05 17:52:35.75	32.36	1.87	-47.1	-62.2	3.6	1.51e+00	0	32	104	0	60	46614
2026-01-05 17:52:36.76	32.28	1.92	-47.1	-62.2	3.6	1.51e+00	0	32	104	0	60	46468
2026-01-05 17:52:37.77	32.21	1.97	-47.1	-62.1	3.6	1.51e+00	0	32	104	0	60	46121
2026-01-05 17:52:38.78	32.13	2.03	-47.1	-62.0	3.6	1.51e+00	0	32	104	0	60	45575
2026-01-05 17:52:39.79	32.06	2.08	-47.1	-61.9	3.6	1.51e+00	0	32	104	0	60	44931
2026-01-05 17:52:40.80	31.99	2.14	-47.1	-62.0	3.6	1.51e+00	0	32	104	0	60	45682
2026-01-05 17:52:41.81	31.91	2.19	-47.1	-62.1	3.6	1.51e+00	0	32	104	0	60	46158
2026-01-05 17:52:42.82	31.84	2.25	-47.1	-62.2	3.6	1.51e+00	0	32	104	0	60	46742
2026-01-05 17:52:43.83	31.76	2.30	-47.1	-62.2	3.6	1.51e+00	0	32	104	0	60	46831
2026-01-05 17:52:44.84	31.69	2.36	-47.1	-62.1	3.6	1.51e+00	0	32	104	0	60	46221
2026-01-05 17:52:45.85	31.61	2.41	-47.1	-62.1	3.6	1.51e+00	0	32	104	0	60	45858
2026-01-05 17:52:46.86	31.53	2.47	-47.1	-62.2	3.6	1.51e+00	0	32	104	0	60	46598
2026-01-05 17:52:47.87	31.46	2.52	-47.1	-62.2	3.6	1.51e+00	0	32	104	0	60	46805
2026-01-05 17:52:48.88	31.38	2.58	-47.1	-62.1	3.6	1.51e+00	0	32	104	0	60	46165
2026-01-05 17:52:49.89	31.30	2.63	-47.1	-61.7	3.6	1.51e+00	0	32	104	0	60	44129
2026-01-05 17:52:50.90	31.23	2.69	-47.1	-61.2	3.6	1.51e+00	0	32	104	0	60	41646
2026-01-05 17:52:51.91	31.15	2.74	-47.0	-61.0	3.6	1.51e+00	0	32	104	0	60	40535
2026-01-05 17:52:52.92	31.07	2.80	-47.1	-61.5	3.6	1.51e+00	0	32	104	0	60	42964
2026-01-05 17:52:53.93	30.99	2.85	-47.1	-62.0	3.6	1.51e+00	0	32	104	0	60	45379
2026-01-05 17:52:54.94	30.91	2.91	-47.1	-61.0	3.6	1.51e+00	0	32	104	0	60	40499
2026-01-05 17:52:55.95	30.84	2.96	-46.9	-57.8	4.4	1.50e+00	50	32	104	0	60	28185
2026-01-05 17:52:56.96	30.76	3.02	-46.6	-54.6	5.8	5.59e-01	0	32	0	0	60	19347
2026-01-05 17:52:57.97	30.68	3.07	-46.2	-52.8	7.5	1.87e-01	30	33	0	2097152	60	15827
2026-01-05 17:52:58.98	30.60	3.13	-47.2	-61.8	3.6	1.03e+00	0	32	104	3145728	60	44610
2026-01-05 17:52:59.99	30.52	3.19	-47.2	-62.0	3.6	1.51e+00	0	32	104	3145728	60	45494
2026-01-05 17:53:01.00	30.44	3.24	-46.5	-55.3	5.5	6.09e-01	0	32	104	3145728	60	21158
2026-01-05 17:53:02.01	30.36	3.30	-41.7	-43.6	17.6	2.44e-04	0	32	0	4194304	56	6875
2026-01-05 17:53:03.02	30.28	3.35	-47.0	-61.9	3.6	2.75e-01	0	32	104	5242880	60	44944
2026-01-05 17:53:04.03	30.19	3.41	-41.3	-43.1	17.3	9.43e-01	0	32	104	5242880	56	6484
2026-01-05 17:53:05.04	30.11	3.47	-41.2	-43.0	18.1	0.00e+00	1	32	0	5242880	56	6413
2026-01-05 17:53:06.05	30.03	3.52	-42.0	-44.0	17.1	0.00e+00	0	32	0	7340032	56	7209
2026-01-05 17:53:07.06	29.95	3.58	-41.5	-43.3	18.1	0.00e+00	92	32	0	9437184	56	6663
2026-01-05 17:53:08.07	29.87	3.63	-41.5	-43.3	18.2	0.00e+00	0	32	0	11534336	56	6681
2026-01-05 17:53:09.08	29.78	3.69	-41.6	-43.4	17.8	0.00e+00	0	32	0	13631488	56	6723
2026-01-05 17:53:10.09	29.70	3.75	-41.5	-43.3	18.0	0.00e+00	0	32	0	14680064	56	6620
2026-01-05 17:53:11.09	29.62	3.80	-41.4	-43.1	18.2	0.00e+00	0	32	0	16777216	56	6516
2026-01-05 17:53:12.11	29.53	3.86	-41.7	-43.6	17.8	0.00e+00	40	32	0	18874368	56	6852
2026-01-05 17:53:13.12	29.45	3.92	-41.6	-43.3	18.0	0.00e+00	0	32	0	20971520	56	6691
2026-01-05 17:53:14.13	29.36	3.97	-41.7	-43.6	17.9	0.00e+00	92	32	0	23068672	56	6852
2026-01-05 17:53:15.14	29.28	4.03	-41.6	-43.4	18.1	0.00e+00	29	32	0	25165824	56	6694
2026-01-05 17:53:16.15	29.19	4.09	-41.3	-42.9	18.6	0.00e+00	0	32	0	26214400	56	6375
2026-01-05 17:53:17.15	29.11	4.14	-41.4	-43.1	18.4	0.00e+00	0	32	0	28311552	56	6499
2026-01-05 17:53:18.16	29.02	4.20	-41.3	-43.0	18.4	0.00e+00	1	32	0	30408704	56	6428
2026-01-05 17:53:19.17	28.93	4.26	-41.1	-42.8	18.6	0.00e+00	31	32	0	32505856	56	6260
2026-01-05 17:53:20.18	28.85	4.31	-40.9	-42.5	18.9	0.00e+00	0	32	0	34603008	56	6044
2026-01-05 17:53:21.19	28.76	4.37	-41.1	-42.7	18.8	0.00e+00	90	32	0	35651584	56	6226
2026-01-05 17:53:22.20	28.67	4.43	-41.3	-42.9	18.3	0.00e+00	0	32	0	37748736	56	6375
2026-01-05 17:53:23.21	28.58	4.48	-41.2	-42.9	18.6	0.00e+00	0	33	0	39845888	56	6322
2026-01-05 17:53:24.22	28.50	4.54	-41.2	-42.9	18.6	0.00e+00	0	33	0	41943040	56	6321
2026-01-05 17:53:25.23	28.41	4.60	-41.0	-42.6	19.0	0.00e+00	0	32	0	44040192	56	6151
2026-01-05 17:53:26.24	28.32	4.65	-41.0	-42.5	18.9	0.00e+00	0	32	0	45088768	56	6102
2026-01-05 17:53:27.25	28.23	4.71	-40.7	-42.2	19.1	0.00e+00	0	32	0	47185920	54	6611
2026-01-05 17:53:28.26	28.14	4.77	-40.7	-42.2	19.2	0.00e+00	79	32	0	49283072	54	6615
2026-01-05 17:53:29.27	28.05	4.83	-41.0	-42.5	18.9	0.00e+00	0	32	0	51380224	54	6828
2026-01-05 17:53:30.27	27.96	4.88	-40.8	-42.3	18.9	0.00e+00	92	32	0	53477376	54	6680
2026-01-05 17:53:31.28	27.87	4.94	-40.7	-42.1	19.2	0.00e+00	0	32	0	54525952	54	6531
2026-01-05 17:53:32.29	27.78	5.00	-40.5	-42.0	19.5	0.00e+00	0	32	0	56623104	54	6413
2026-01-05 17:53:33.30	27.69	5.06	-40.4	-41.9	19.6	0.00e+00	0	32	0	58720256	54	6320
2026-01-05 17:53:34.31	27.60	5.11	-40.3	-41.7	19.7	0.00e+00	0	32	0	60817408	54	6179
2026-01-05 17:53:35.32	27.50	5.17	-40.6	-42.1	19.4	0.00e+00	31	32	0	62914560	54	6499
2026-01-05 17:53:36.33	27.41	5.23	-40.4	-41.9	19.6	0.00e+00	0	32	0	63963136	54	6319
2026-01-05 17:53:37.34	27.32	5.29	-40.2	-41.6	19.8	0.00e+00	92	32	0	66060288	54	6151
2026-01-05 17:53:38.35	27.22	5.35	-40.4	-41.8	19.6	0.00e+00	0	32	0	68157440	54	6298
2026-01-05 17:53:39.36	27.13	5.40	-40.3	-41.7	19.8	0.00e+00	0	32	0	70254592	54	6211
2026-01-05 17:53:40.37	27.04	5.46	-40.1	-41.4	19.9	0.00e+00	0	32	0	72351744	54	6018
2026-01-05 17:53:41.37	26.94	5.52	-40.0	-41.3	20.1	0.00e+00	0	32	0	73400320	54	5926
2026-01-05 17:53:42.38	26.85	5.58	-39.9	-41.2	20.2	0.00e+00	35	32	0	75497472	54	5863
2026-01-05 17:53:43.39	26.75	5.63	-39.9	-41.2	20.1	0.00e+00	0	32	0	77594624	54	5858
2026-01-05 17:53:44.40	26.66	5.69	-40.1	-41.4	20.0	0.00e+00	92	32	0	79691776	54	5983
2026-01-05 17:53:45.41	26.56	5.75	-40.2	-41.5	20.0	0.00e+00	0	33	0	81788928	54	6089
2026-01-05 17:53:46.42	26.46	5.81	-40.2	-41.5	20.0	0.00e+00	0	33	0	82837504	54	6081
2026-01-05 17:53:47.43	26.37	5.87	-39.9	-41.2	20.3	0.00e+00	0	32	0	84934656	54	5881
2026-01-05 17:53:48.44	26.27	5.93	-40.1	-41.5	20.1	0.00e+00	0	33	0	87031808	54	6043
2026-01-05 17:53:49.45	26.17	5.98	-40.2	-41.5	20.0	0.00e+00	69	33	0	89128960	54	6053
2026-01-05 17:53:50.46	26.07	6.04	-40.3	-41.7	19.9	0.00e+00	0	33	0	91226112	54	6183
2026-01-05 17:53:51.47	25.98	6.10	-40.3	-41.7	19.9	0.00e+00	92	33	0	93323264	54	6185
2026-01-05 17:53:52.48	25.88	6.16	-40.5	-41.9	19.6	0.00e+00	0	33	0	94371840	54	6378
2026-01-05 17:53:53.49	25.78	6.22	-40.5	-41.9	19.7	0.00e+00	0	33	0	96468992	54	6337
2026-01-05 17:53:54.50	25.68	6.28	-40.7	-42.1	19.5	0.00e+00	0	33	0	98566144	54	6522
2026-01-05 17:53:55.51	25.58	6.34	-40.6	-42.0	19.7	0.00e+00	0	33	0	100663296	54	6416
2026-01-05 17:53:56.52	25.48	6.40	-40.6	-42.0	19.5	0.00e+00	37	33	0	102760448	54	6451
2026-01-05 17:53:57.53	25.38	6.45	-40.5	-41.9	19.6	0.00e+00	0	33	0	103809024	54	6381
2026-01-05 17:53:58.54	25.27	6.51	-40.9	-42.4	19.3	0.00e+00	67	33	0	105906176	54	6729
2026-01-05 17:53:59.55	25.17	6.57	-40.9	-42.4	19.0	0.00e+00	0	33	0	108003328	54	6720
2026-01-05 17:54:00.56	25.07	6.63	-40.9	-42.4	19.2	0.00e+00	0	33	0	110100480	54	6710
2026-01-05 17:54:01.57	24.97	6.69	-41.0	-42.5	19.2	0.00e+00	0	33	0	112197632	54	6822
2026-01-05 17:54:02.58	24.86	6.75	-41.1	-42.6	19.3	0.00e+00	0	33	0	113246208	54	6864
2026-01-05 17:54:03.59	24.76	6.81	-40.7	-42.1	19.5	0.00e+00	29	33	0	115343360	54	6526
2026-01-05 17:54:04.60	24.66	6.87	-40.7	-42.2	19.6	0.00e+00	0	33	0	117440512	54	6564
2026-01-05 17:54:05.61	24.55	6.93	-40.7	-42.1	19.5	0.00e+00	92	33	0	119537664	54	6537
2026-01-05 17:54:06.62	24.45	6.99	-40.5	-41.8	19.9	0.00e+00	0	33	0	121634816	54	6304
2026-01-05 17:54:07.63	24.34	7.05	-40.5	-41.9	19.8	0.00e+00	30	33	0	122683392	54	6359
2026-01-05 17:54:08.64	24.23	7.10	-40.3	-41.6	20.1	0.00e+00	0	33	0	124780544	54	6149
2026-01-05 17:54:09.65	24.13	7.16	-40.3	-41.7	20.0	0.00e+00	0	33	0	126877696	54	6193
2026-01-05 17:54:10.66	24.02	7.22	-40.3	-41.6	20.1	0.00e+00	0	33	0	128974848	54	6116
2026-01-05 17:54:11.67	23.91	7.28	-40.4	-41.7	20.0	0.00e+00	0	33	0	131072000	54	6203
2026-01-05 17:54:12.67	23.81	7.34	-40.2	-41.5	20.1	0.00e+00	23	33	0	132120576	54	6103
2026-01-05 17:54:13.68	23.70	7.40	-40.4	-41.7	19.8	0.00e+00	0	33	0	134217728	54	6244
2026-01-05 17:54:14.69	23.59	7.46	-40.3	-41.7	20.0	0.00e+00	71	33	0	136314880	54	6189
2026-01-05 17:54:15.70	23.48	7.52	-40.6	-42.1	19.5	0.00e+00	0	33	0	138412032	54	6476
2026-01-05 17:54:16.71	23.37	7.58	-40.3	-41.6	19.9	0.00e+00	0	33	0	140509184	54	6125
2026-01-05 17:54:17.72	23.26	7.64	-40.1	-41.4	20.1	0.00e+00	0	33	0	141557760	54	5997
2026-01-05 17:54:18.73	23.15	7.70	-39.9	-41.2	20.5	0.00e+00	0	33	0	143654912	54	5830
2026-01-05 17:54:19.74	23.04	7.76	-40.0	-41.3	20.4	0.00e+00	35	33	0	145752064	54	5923
2026-01-05 17:54:20.75	22.93	7.82	-40.2	-41.5	20.2	0.00e+00	0	32	0	147849216	54	6048
2026-01-05 17:54:21.76	22.82	7.88	-40.5	-41.8	19.9	0.00e+00	52	33	0	149946368	54	6310
2026-01-05 17:54:22.77	22.71	7.94	-40.5	-41.9	19.9	0.00e+00	0	33	0	150994944	54	6335
2026-01-05 17:54:23.78	22.59	8.00	-40.7	-42.2	19.7	0.00e+00	0	33	0	153092096	54	6545
2026-01-05 17:54:24.79	22.48	8.06	-40.6	-42.0	19.8	0.00e+00	0	33	0	155189248	54	6429
2026-01-05 17:54:25.80	22.37	8.12	-40.4	-41.8	20.0	0.00e+00	0	33	0	157286400	54	6281
2026-01-05 17:54:26.81	22.25	8.18	-40.8	-42.3	19.5	0.00e+00	66	33	0	159383552	54	6636
2026-01-05 17:54:27.81	22.14	8.24	-40.7	-42.1	19.7	0.00e+00	0	33	0	161480704	54	6520
2026-01-05 17:54:28.82	22.02	8.30	-40.6	-42.0	19.8	0.00e+00	44	33	0	162529280	54	6447
2026-01-05 17:54:29.83	21.91	8.36	-40.7	-42.1	19.7	0.00e+00	0	33	0	164626432	54	6498
2026-01-05 17:54:30.84	21.79	8.42	-40.4	-41.8	20.0	0.00e+00	0	33	0	166723584	54	6257
2026-01-05 17:54:31.85	21.67	8.48	-40.4	-41.8	20.0	0.00e+00	0	33	0	168820736	54	6299
2026-01-05 17:54:32.86	21.56	8.54	-40.5	-41.9	19.9	0.00e+00	0	33	0	170917888	54	6372
2026-01-05 17:54:33.87	21.44	8.60	-40.4	-41.8	20.0	0.00e+00	37	33	0	171966464	54	6300
2026-01-05 17:54:34.88	21.32	8.66	-40.5	-41.9	19.9	0.00e+00	0	33	0	174063616	54	6378
2026-01-05 17:54:35.89	21.20	8.72	-40.5	-41.9	19.9	0.00e+00	36	33	0	176160768	54	6337
2026-01-05 17:54:36.90	21.08	8.78	-40.5	-41.9	20.0	0.00e+00	0	33	0	178257920	54	6323
2026-01-05 17:54:37.91	20.96	8.84	-40.3	-41.6	20.1	0.00e+00	0	33	0	180355072	54	6163
2026-01-05 17:54:38.92	20.84	8.90	-40.0	-41.3	20.4	0.00e+00	0	33	0	181403648	54	5962
2026-01-05 17:54:39.93	20.72	8.96	-39.9	-41.2	20.6	0.00e+00	0	33	0	183500800	54	5866
2026-01-05 17:54:40.94	20.60	9.02	-39.8	-41.0	20.7	0.00e+00	0	33	0	185597952	54	5737
2026-01-05 17:54:41.95	20.48	9.08	-39.8	-41.1	20.7	0.00e+00	0	33	0	187695104	52	6505
2026-01-05 17:54:42.96	20.36	9.14	-39.9	-41.2	20.6	0.00e+00	92	33	0	189792256	52	6543
2026-01-05 17:54:43.97	20.24	9.20	-39.8	-41.0	20.7	0.00e+00	0	33	0	190840832	52	6424
2026-01-05 17:54:44.98	20.11	9.27	-40.1	-41.4	20.4	0.00e+00	86	33	0	192937984	52	6704
2026-01-05 17:54:45.99	19.99	9.33	-39.9	-41.2	20.6	0.00e+00	0	33	0	195035136	52	6547
2026-01-05 17:54:47.00	19.86	9.39	-39.8	-41.0	20.9	0.00e+00	0	33	0	197132288	52	6411
2026-01-05 17:54:48.01	19.74	9.45	-39.5	-40.7	21.0	0.00e+00	0	33	0	199229440	52	6206
2026-01-05 17:54:49.01	19.61	9.51	-39.5	-40.7	21.1	0.00e+00	0	32	0	200278016	52	6231
2026-01-05 17:54:50.02	19.49	9.57	-39.4	-40.6	21.2	0.00e+00	17	33	0	202375168	52	6114
2026-01-05 17:54:51.03	19.36	9.63	-39.5	-40.6	21.1	0.00e+00	0	33	0	204472320	52	6166
2026-01-05 17:54:52.04	19.24	9.69	-39.5	-40.7	21.0	0.00e+00	20	33	0	206569472	52	6191
2026-01-05 17:54:53.05	19.11	9.75	-39.6	-40.8	21.0	0.00e+00	0	33	0	208666624	52	6303
2026-01-05 17:54:54.06	18.98	9.81	-39.7	-41.0	20.9	0.00e+00	0	33	0	209715200	52	6415
2026-01-05 17:54:55.07	18.85	9.87	-39.6	-40.9	20.9	0.00e+00	0	33	0	211812352	52	6324
2026-01-05 17:54:56.08	18.72	9.93	-40.0	-41.3	20.7	0.00e+00	0	33	0	213909504	52	6623
2026-01-05 17:54:57.09	18.59	9.99	-40.0	-41.3	20.6	0.00e+00	76	33	0	216006656	52	6634
2026-01-05 17:54:58.10	18.46	10.05	-40.0	-41.3	20.7	0.00e+00	0	33	0	218103808	52	6645
2026-01-05 17:54:59.11	18.33	10.11	-39.9	-41.2	20.7	0.00e+00	92	33	0	219152384	52	6595
2026-01-05 17:55:00.12	18.20	10.17	-40.0	-41.3	20.6	0.00e+00	0	33	0	221249536	52	6687
2026-01-05 17:55:01.13	18.07	10.23	-39.9	-41.2	20.7	0.00e+00	0	33	0	223346688	52	6542
2026-01-05 17:55:02.14	17.93	10.30	-39.8	-41.0	20.8	0.00e+00	31	33	0	225443840	52	6451
2026-01-05 17:55:03.15	17.80	10.36	-39.8	-41.1	20.7	0.00e+00	0	33	0	227540992	52	6504
2026-01-05 17:55:04.16	17.67	10.42	-39.7	-41.0	20.9	0.00e+00	32	33	0	229638144	52	6425
2026-01-05 17:55:05.17	17.53	10.48	-39.7	-40.9	20.9	0.00e+00	0	33	0	230686720	52	6377
2026-01-05 17:55:06.18	17.40	10.54	-39.6	-40.8	21.0	0.00e+00	91	33	0	232783872	52	6288
2026-01-05 17:55:07.18	17.26	10.60	-39.8	-41.0	20.8	0.00e+00	0	33	0	234881024	52	6427
2026-01-05 17:55:08.19	17.13	10.66	-39.7	-40.9	20.7	0.00e+00	41	33	0	236978176	52	6334
2026-01-05 17:55:09.20	16.99	10.72	-39.4	-40.6	20.7	0.00e+00	0	33	0	239075328	52	6115
2026-01-05 17:55:10.21	16.86	10.78	-39.3	-40.5	21.2	0.00e+00	0	33	0	240123904	52	6036
2026-01-05 17:55:11.22	16.72	10.84	-39.2	-40.4	21.3	0.00e+00	36	33	0	242221056	52	5985
2026-01-05 17:55:12.23	16.58	10.90	-39.1	-40.1	21.5	0.00e+00	0	33	0	244318208	52	5827
2026-01-05 17:55:13.24	16.44	10.96	-39.2	-40.3	21.5	0.00e+00	91	33	0	246415360	52	5960
2026-01-05 17:55:14.25	16.30	11.02	-39.4	-40.5	21.3	0.00e+00	0	33	0	248512512	52	6069
2026-01-05 17:55:15.26	16.16	11.08	-39.3	-40.4	21.4	0.00e+00	3	33	0	249561088	52	6017
2026-01-05 17:55:16.27	16.02	11.14	-39.3	-40.5	21.4	0.00e+00	0	33	0	251658240	52	6038
2026-01-05 17:55:17.27	15.88	11.20	-39.3	-40.4	21.4	0.00e+00	0	33	0	253755392	52	5998
2026-01-05 17:55:18.28	15.74	11.26	-39.4	-40.6	21.2	0.00e+00	0	33	0	255852544	52	6128
2026-01-05 17:55:19.29	15.60	11.32	-39.4	-40.5	21.2	0.00e+00	0	33	0	257949696	52	6099
2026-01-05 17:55:20.30	15.45	11.39	-39.1	-40.3	21.5	0.00e+00	92	33	0	258998272	52	5906
2026-01-05 17:55:21.31	15.31	11.45	-39.2	-40.3	21.5	0.00e+00	0	33	0	261095424	52	5939
2026-01-05 17:55:22.32	15.16	11.51	-39.5	-40.7	21.2	0.00e+00	92	33	0	263192576	52	6213
2026-01-05 17:55:23.33	15.02	11.57	-39.4	-40.5	21.3	0.00e+00	0	33	0	265289728	52	6093
2026-01-05 17:55:24.34	14.87	11.63	-39.4	-40.5	21.3	0.00e+00	0	33	0	267386880	52	6081
2026-01-05 17:55:25.35	14.73	11.69	-39.4	-40.6	21.1	0.00e+00	0	33	0	268435456	52	6135
2026-01-05 17:55:26.36	14.58	11.75	-39.4	-40.6	21.1	0.00e+00	0	33	0	270532608	52	6135
2026-01-05 17:55:27.37	14.43	11.81	-39.5	-40.7	21.2	0.00e+00	92	33	0	272629760	52	6204
2026-01-05 17:55:28.38	14.29	11.87	-39.4	-40.5	21.4	0.00e+00	0	33	0	274726912	52	6097
2026-01-05 17:55:29.39	14.14	11.93	-39.3	-40.4	21.4	0.00e+00	92	33	0	276824064	52	6015
2026-01-05 17:55:30.40	13.99	11.99	-39.3	-40.5	21.3	0.00e+00	0	33	0	277872640	52	6040
2026-01-05 17:55:31.41	13.84	12.05	-39.2	-40.3	21.5	0.00e+00	0	33	0	279969792	52	5931
2026-01-05 17:55:32.41	13.69	12.11	-39.2	-40.3	21.5	0.00e+00	0	33	0	282066944	52	5912
2026-01-05 17:55:33.42	13.54	12.17	-39.3	-40.4	21.4	0.00e+00	0	33	0	284164096	52	5993
2026-01-05 17:55:34.43	13.39	12.23	-39.4	-40.5	21.4	0.00e+00	36	33	0	286261248	52	6054
2026-01-05 17:55:35.44	13.23	12.29	-39.6	-40.8	21.1	0.00e+00	0	33	0	287309824	52	6290
2026-01-05 17:55:36.45	13.08	12.35	-40.0	-41.3	20.7	0.00e+00	92	33	0	289406976	52	6625
2026-01-05 17:55:37.46	12.93	12.41	-39.9	-41.1	20.8	0.00e+00	0	33	0	291504128	52	6473
2026-01-05 17:55:38.47	12.77	12.47	-39.7	-40.9	21.2	0.00e+00	0	33	0	293601280	52	6323
2026-01-05 17:55:39.48	12.62	12.53	-39.5	-40.7	21.2	0.00e+00	0	33	0	295698432	52	6187
2026-01-05 17:55:40.49	12.46	12.59	-39.4	-40.5	21.2	0.00e+00	0	33	0	296747008	52	6084
2026-01-05 17:55:41.50	12.31	12.64	-39.5	-40.6	21.2	0.00e+00	43	33	0	298844160	52	6145
2026-01-05 17:55:42.51	12.15	12.70	-39.5	-40.7	21.2	0.00e+00	0	33	0	300941312	52	6222
2026-01-05 17:55:43.52	11.99	12.76	-39.8	-41.0	20.8	0.00e+00	78	33	0	303038464	52	6435
2026-01-05 17:55:44.53	11.83	12.82	-39.9	-41.1	20.8	0.00e+00	0	33	0	305135616	52	6486
2026-01-05 17:55:45.54	11.68	12.88	-39.9	-41.2	20.7	0.00e+00	59	33	0	306184192	52	6552
2026-01-05 17:55:46.55	11.52	12.94	-39.8	-41.0	21.0	0.00e+00	0	33	0	308281344	52	6418
2026-01-05 17:55:47.56	11.36	13.00	-39.6	-40.8	21.2	0.00e+00	0	33	0	310378496	52	6248
2026-01-05 17:55:48.57	11.20	13.06	-39.4	-40.6	21.3	0.00e+00	32	33	0	312475648	52	6125
2026-01-05 17:55:49.58	11.03	13.12	-39.2	-40.3	21.5	0.00e+00	0	33	0	314572800	52	5928
2026-01-05 17:55:50.58	10.87	13.18	-39.3	-40.4	21.4	0.00e+00	28	33	0	315621376	52	5995
2026-01-05 17:55:51.60	10.71	13.24	-39.5	-40.6	21.3	0.00e+00	0	33	0	317718528	52	6148
2026-01-05 17:55:52.61	10.55	13.29	-39.4	-40.5	21.4	0.00e+00	0	33	0	319815680	52	6069
2026-01-05 17:55:53.62	10.38	13.35	-39.6	-40.8	21.1	0.00e+00	0	33	0	321912832	52	6299
2026-01-05 17:55:54.63	10.22	13.41	-39.5	-40.7	21.3	0.00e+00	0	33	0	324009984	52	6175
2026-01-05 17:55:55.64	10.05	13.47	-39.5	-40.7	21.3	0.00e+00	17	33	0	326107136	52	6215
2026-01-05 17:55:56.65	9.89	13.53	-39.5	-40.7	21.2	0.00e+00	0	33	0	327155712	52	6180
2026-01-05 17:55:57.66	9.72	13.59	-39.2	-40.3	21.4	0.00e+00	92	33	0	329252864	52	5963
2026-01-05 17:55:58.67	9.55	13.64	-39.3	-40.4	21.6	0.00e+00	0	33	0	331350016	52	5988
2026-01-05 17:55:59.67	9.39	13.70	-39.0	-40.1	21.6	0.00e+00	92	33	0	333447168	52	5815
2026-01-05 17:56:00.68	9.22	13.76	-39.5	-40.7	21.2	0.00e+00	0	33	0	335544320	52	6200
2026-01-05 17:56:01.69	9.05	13.82	-39.7	-40.9	21.0	0.00e+00	0	33	0	336592896	52	6369
2026-01-05 17:56:02.70	8.88	13.87	-40.0	-41.3	20.7	0.00e+00	0	33	0	338690048	52	6666
2026-01-05 17:56:03.71	8.71	13.93	-40.0	-41.3	20.7	0.00e+00	0	33	0	340787200	52	6683
2026-01-05 17:56:04.72	8.54	13.99	-39.9	-41.1	20.9	0.00e+00	31	33	0	342884352	52	6537
2026-01-05 17:56:05.73	8.36	14.05	-39.7	-40.9	20.9	0.00e+00	0	33	0	344981504	52	6341
2026-01-05 17:56:06.74	8.19	14.10	-39.4	-40.6	21.3	0.00e+00	72	33	0	346030080	52	6137
2026-01-05 17:56:07.75	8.02	14.16	-39.2	-40.4	21.4	0.00e+00	0	33	0	348127232	52	5987
2026-01-05 17:56:08.75	7.85	14.22	-39.2	-40.4	21.6	0.00e+00	0	33	0	350224384	52	5965
2026-01-05 17:56:09.76	7.67	14.27	-38.9	-40.0	21.8	0.00e+00	0	33	0	352321536	52	5714
2026-01-05 17:56:10.78	7.49	14.33	-38.9	-40.0	21.8	0.00e+00	0	33	0	354418688	52	5715
2026-01-05 17:56:11.78	7.32	14.39	-39.0	-40.1	21.8	0.00e+00	45	33	0	355467264	52	5792
2026-01-05 17:56:12.79	7.14	14.44	-38.5	-39.6	22.1	0.00e+00	0	33	0	357564416	50	6149
2026-01-05 17:56:13.80	6.97	14.50	-38.4	-39.4	22.4	0.00e+00	49	33	0	359661568	50	6024
2026-01-05 17:56:14.81	6.79	14.56	-38.3	-39.3	22.4	0.00e+00	0	33	0	361758720	50	5909
2026-01-05 17:56:15.82	6.61	14.61	-38.5	-39.5	22.3	0.00e+00	0	33	0	363855872	50	6077
2026-01-05 17:56:16.83	6.43	14.67	-37.8	-38.8	22.9	0.00e+00	0	33	0	364904448	50	5595
2026-01-05 17:56:17.84	6.25	14.72	-37.8	-38.8	22.7	0.00e+00	0	33	0	367001600	48	6308
2026-01-05 17:56:18.85	6.07	14.78	-38.0	-38.9	22.7	0.00e+00	36	33	0	369098752	48	6390
2026-01-05 17:56:19.86	5.89	14.83	-38.1	-39.1	22.4	0.00e+00	0	33	0	371195904	48	6526
2026-01-05 17:56:20.87	5.70	14.89	-38.0	-39.0	22.6	0.00e+00	68	33	0	373293056	48	6411
2026-01-05 17:56:21.88	5.52	14.94	-38.1	-39.1	22.5	0.00e+00	0	33	0	374341632	48	6500
2026-01-05 17:56:22.89	5.34	15.00	-37.8	-38.8	22.7	0.00e+00	92	33	0	376438784	48	6281
2026-01-05 17:56:23.90	5.15	15.05	-37.6	-38.5	23.0	0.00e+00	0	33	0	378535936	48	6097
2026-01-05 17:56:24.91	4.97	15.11	-37.5	-38.4	23.2	0.00e+00	0	33	0	380633088	48	6012
2026-01-05 17:56:25.91	4.78	15.16	-37.5	-38.5	23.1	0.00e+00	0	33	0	382730240	48	6043
2026-01-05 17:56:26.92	4.60	15.21	-37.6	-38.5	23.0	0.00e+00	0	33	0	383778816	48	6079
2026-01-05 17:56:27.93	4.41	15.27	-37.7	-38.7	22.8	0.00e+00	92	33	0	385875968	48	6197
2026-01-05 17:56:28.94	4.22	15.32	-37.6	-38.6	23.0	0.00e+00	0	33	0	387973120	48	6112
2026-01-05 17:56:29.95	4.03	15.38	-37.7	-38.7	22.9	0.00e+00	86	33	0	390070272	48	6194
2026-01-05 17:56:30.96	3.85	15.43	-37.8	-38.8	22.8	0.00e+00	0	33	0	392167424	48	6291
2026-01-05 17:56:31.97	3.66	15.48	-37.8	-38.8	22.8	0.00e+00	0	33	0	394264576	48	6310
2026-01-05 17:56:32.98	3.47	15.53	-37.8	-38.8	22.9	0.00e+00	0	33	0	395313152	48	6272
2026-01-05 17:56:33.99	3.27	15.59	-37.9	-39.0	22.7	0.00e+00	0	33	0	397410304	48	6392
2026-01-05 17:56:35.00	3.08	15.64	-38.2	-39.2	22.5	0.00e+00	84	33	0	399507456	48	6613
2026-01-05 17:56:36.01	2.89	15.69	-38.3	-39.3	22.3	0.00e+00	0	33	0	401604608	48	6687
2026-01-05 17:56:37.02	2.70	15.74	-38.6	-39.7	22.2	0.00e+00	92	33	0	403701760	48	6928
2026-01-05 17:56:38.03	2.50	15.79	-38.4	-39.5	22.2	0.00e+00	0	33	0	404750336	48	6799
2026-01-05 17:56:39.04	2.31	15.85	-38.2	-39.2	22.7	0.00e+00	0	33	0	406847488	48	6600
2026-01-05 17:56:40.05	2.11	15.90	-38.1	-39.1	22.6	0.00e+00	0	33	0	408944640	48	6515
2026-01-05 17:56:41.06	1.92	15.95	-37.4	-38.4	23.2	0.00e+00	0	33	0	411041792	48	5994
2026-01-05 17:56:42.07	1.72	16.00	-37.0	-37.9	23.6	0.00e+00	4	33	0	413138944	48	5672
2026-01-05 17:56:43.08	1.52	16.05	-37.0	-37.9	23.6	0.00e+00	0	33	0	414187520	48	5672
2026-01-05 17:56:44.09	1.33	16.10	-37.1	-38.0	23.4	0.00e+00	92	33	0	416284672	48	5750
2026-01-05 17:56:45.10	1.13	16.15	-37.0	-37.9	23.7	0.00e+00	0	33	0	418381824	48	5642
2026-01-05 17:56:46.11	0.93	16.20	-36.9	-37.7	23.8	0.00e+00	0	33	0	420478976	46	6227
2026-01-05 17:56:47.12	0.73	16.25	-36.8	-37.7	23.7	0.00e+00	0	33	0	422576128	46	6208
2026-01-05 17:56:48.13	0.53	16.30	-36.6	-37.4	24.0	0.00e+00	0	33	0	423624704	46	6030
2026-01-05 17:56:49.14	0.33	16.35	-36.8	-37.7	23.7	0.00e+00	55	33	0	425721856	46	6216
2026-01-05 17:56:50.15	0.12	16.40	-37.0	-37.8	23.5	0.00e+00	0	33	0	427819008	46	6315
2026-01-05 17:56:51.16	359.92	16.45	-37.3	-38.2	23.3	0.00e+00	91	33	0	429916160	46	6600
2026-01-05 17:56:52.17	359.72	16.49	-37.4	-38.3	23.3	0.00e+00	0	33	0	432013312	46	6686
2026-01-05 17:56:53.18	359.51	16.54	-37.5	-38.5	23.2	0.00e+00	0	33	0	433061888	46	6799
2026-01-05 17:56:54.18	359.31	16.59	-37.4	-38.4	23.3	0.00e+00	0	33	0	435159040	46	6704
2026-01-05 17:56:55.19	359.11	16.64	-37.3	-38.3	23.3	0.00e+00	0	33	0	437256192	46	6644
2026-01-05 17:56:56.20	358.90	16.68	-37.1	-38.0	23.4	0.00e+00	48	33	0	439353344	46	6464
2026-01-05 17:56:57.21	358.69	16.73	-37.0	-37.9	23.6	0.00e+00	0	33	0	441450496	46	6354
2026-01-05 17:56:58.22	358.49	16.78	-37.1	-38.0	23.5	0.00e+00	89	33	0	442499072	46	6445
2026-01-05 17:56:59.23	358.28	16.82	-37.3	-38.2	23.3	0.00e+00	0	33	0	444596224	46	6599
2026-01-05 17:57:00.24	358.07	16.87	-37.4	-38.3	23.3	0.00e+00	41	33	0	446693376	46	6670
2026-01-05 17:57:01.25	357.86	16.92	-37.2	-38.1	23.5	0.00e+00	0	33	0	448790528	46	6505
2026-01-05 17:57:02.26	357.65	16.96	-37.1	-38.0	23.5	0.00e+00	0	33	0	450887680	46	6440
2026-01-05 17:57:03.27	357.44	17.01	-36.9	-37.8	23.6	0.00e+00	33	33	0	451936256	46	6271
2026-01-05 17:57:04.28	357.23	17.05	-37.0	-37.9	23.5	0.00e+00	0	33	0	454033408	46	6333
2026-01-05 17:57:05.29	357.02	17.09	-36.4	-37.2	24.1	0.00e+00	92	33	0	456130560	46	5895
2026-01-05 17:57:06.30	356.80	17.14	-36.3	-37.1	24.2	0.00e+00	0	33	0	458227712	46	5819
2026-01-05 17:57:07.31	356.59	17.18	-36.1	-37.0	24.3	0.00e+00	69	33	0	460324864	46	5699
2026-01-05 17:57:08.32	356.38	17.23	-36.3	-37.1	24.2	0.00e+00	0	33	0	462422016	46	5812
2026-01-05 17:57:09.33	356.16	17.27	-36.3	-37.1	24.2	0.00e+00	0	33	0	463470592	46	5804
2026-01-05 17:57:10.33	355.95	17.31	-36.4	-37.3	24.1	0.00e+00	0	33	0	465567744	46	5920
2026-01-05 17:57:11.34	355.74	17.35	-36.5	-37.3	24.1	0.00e+00	0	33	0	467664896	46	5932
2026-01-05 17:57:12.35	355.52	17.40	-36.5	-37.4	24.0	0.00e+00	35	33	0	469762048	46	5996
2026-01-05 17:57:13.36	355.30	17.44	-36.3	-37.1	24.1	0.00e+00	0	33	0	471859200	46	5788
2026-01-05 17:57:14.37	355.09	17.48	-36.4	-37.3	23.9	0.00e+00	39	33	0	472907776	46	5905
2026-01-05 17:57:15.38	354.87	17.52	-36.8	-37.7	23.7	0.00e+00	0	33	0	475004928	46	6175
2026-01-05 17:57:16.39	354.65	17.56	-37.0	-37.9	23.2	0.00e+00	0	33	0	477102080	46	6376
2026-01-05 17:57:17.40	354.43	17.60	-37.4	-38.4	23.2	0.00e+00	0	33	0	479199232	46	6727
2026-01-05 17:57:18.41	354.21	17.64	-37.4	-38.4	23.2	0.00e+00	0	33	0	481296384	46	6727
2026-01-05 17:57:19.41	353.99	17.68	-37.5	-38.4	23.2	0.00e+00	51	33	0	482344960	46	6730
2026-01-05 17:57:20.42	353.77	17.72	-37.3	-38.3	23.4	0.00e+00	0	33	0	484442112	46	6642
2026-01-05 17:57:21.43	353.55	17.76	-37.2	-38.2	23.5	0.00e+00	48	33	0	486539264	46	6540
2026-01-05 17:57:22.44	353.33	17.80	-37.1	-38.0	23.5	0.00e+00	0	33	0	488636416	46	6419
2026-01-05 17:57:23.45	353.11	17.83	-37.1	-38.1	23.5	0.00e+00	0	33	0	490733568	46	6488
2026-01-05 17:57:24.45	352.88	17.87	-37.3	-38.2	23.4	0.00e+00	0	33	0	491782144	46	6580
2026-01-05 17:57:25.46	352.66	17.91	-37.1	-38.0	23.4	0.00e+00	0	33	0	493879296	46	6464
2026-01-05 17:57:26.47	352.44	17.95	-36.9	-37.8	23.7	0.00e+00	31	33	0	495976448	46	6284
2026-01-05 17:57:27.48	352.21	17.98	-36.8	-37.7	23.7	0.00e+00	0	33	0	498073600	46	6213
2026-01-05 17:57:28.49	351.99	18.02	-36.4	-37.2	24.1	0.00e+00	92	33	0	500170752	46	5856
2026-01-05 17:57:29.50	351.76	18.05	-36.3	-37.1	24.2	0.00e+00	0	33	0	501219328	46	5799
2026-01-05 17:57:30.51	351.53	18.09	-36.3	-37.1	24.2	0.00e+00	0	33	0	503316480	46	5790
2026-01-05 17:57:31.52	351.31	18.12	-36.0	-36.8	24.4	0.00e+00	0	33	0	505413632	46	5601
2026-01-05 17:57:32.53	351.08	18.16	-36.3	-37.1	24.2	0.00e+00	0	33	0	507510784	46	5783
2026-01-05 17:57:33.54	350.85	18.19	-36.4	-37.2	24.0	0.00e+00	31	33	0	509607936	46	5862
2026-01-05 17:57:34.55	350.62	18.23	-36.3	-37.1	24.2	0.00e+00	0	33	0	510656512	46	5787
2026-01-05 17:57:35.56	350.39	18.26	-36.1	-36.9	24.3	0.00e+00	92	33	0	512753664	46	5673
2026-01-05 17:57:36.56	350.17	18.29	-36.0	-36.8	24.4	0.00e+00	0	33	0	514850816	46	5611
2026-01-05 17:57:37.57	349.94	18.32	-35.8	-36.6	24.6	0.00e+00	92	33	0	516947968	46	5467
2026-01-05 17:57:38.58	349.71	18.36	-35.7	-36.5	24.7	0.00e+00	0	33	0	519045120	44	6072
2026-01-05 17:57:39.59	349.48	18.39	-36.3	-37.1	24.0	0.00e+00	0	33	0	520093696	44	6495
2026-01-05 17:57:40.60	349.24	18.42	-36.5	-37.3	23.9	0.00e+00	0	33	0	522190848	44	6687
2026-01-05 17:57:41.61	349.01	18.45	-36.7	-37.6	23.8	0.00e+00	0	33	0	524288000	44	6888
2026-01-05 17:57:42.62	348.78	18.48	-36.7	-37.6	23.8	0.00e+00	32	33	0	526385152	46	6136
2026-01-05 17:57:43.63	348.55	18.51	-36.9	-37.8	23.8	0.00e+00	0	33	0	528482304	46	6254
2026-01-05 17:57:44.64	348.31	18.54	-36.7	-37.6	23.9	0.00e+00	92	33	0	529530880	46	6107
2026-01-05 17:57:45.65	348.08	18.57	-36.8	-37.7	23.7	0.00e+00	0	33	0	531628032	46	6198
2026-01-05 17:57:46.66	347.85	18.59	-37.0	-37.8	23.7	0.00e+00	0	33	0	533725184	46	6310
2026-01-05 17:57:47.67	347.61	18.62	-37.0	-37.8	23.7	0.00e+00	0	33	0	535822336	46	6307
2026-01-05 17:57:48.67	347.38	18.65	-37.2	-38.1	23.4	0.00e+00	0	33	0	537919488	46	6518
2026-01-05 17:57:49.68	347.14	18.68	-37.4	-38.3	23.3	0.00e+00	47	33	0	538968064	46	6691
2026-01-05 17:57:50.69	346.91	18.70	-37.6	-38.5	22.9	0.00e+00	0	33	0	541065216	46	6842
2026-01-05 17:57:51.70	346.67	18.73	-37.7	-38.6	23.1	0.00e+00	92	33	0	543162368	48	6138
2026-01-05 17:57:52.71	346.43	18.75	-37.7	-38.7	23.0	0.00e+00	0	33	0	545259520	48	6207
2026-01-05 17:57:53.72	346.20	18.78	-37.6	-38.5	23.1	0.00e+00	0	33	0	547356672	48	6072
2026-01-05 17:57:54.73	345.96	18.80	-37.7	-38.7	23.2	0.00e+00	0	33	0	548405248	48	6174
2026-01-05 17:57:55.74	345.72	18.83	-37.9	-38.8	23.0	0.00e+00	0	33	0	550502400	48	6313
2026-01-05 17:57:56.75	345.48	18.85	-37.7	-38.6	23.1	0.00e+00	46	33	0	552599552	48	6171
2026-01-05 17:57:57.75	345.25	18.87	-37.7	-38.7	22.9	0.00e+00	0	33	0	554696704	48	6176
2026-01-05 17:57:58.76	345.01	18.89	-37.5	-38.4	23.1	0.00e+00	82	33	0	556793856	48	6028
2026-01-05 17:57:59.77	344.77	18.92	-37.4	-38.3	23.3	0.00e+00	0	33	0	558891008	48	5919
2026-01-05 17:58:00.78	344.53	18.94	-37.0	-37.9	23.7	0.00e+00	11	33	0	559939584	48	5671
2026-01-05 17:58:01.79	344.29	18.96	-36.8	-37.6	23.7	0.00e+00	0	33	0	562036736	48	5490
2026-01-05 17:58:02.80	344.05	18.98	-36.9	-37.7	23.7	0.00e+00	0	33	0	564133888	46	6220
2026-01-05 17:58:03.81	343.81	19.00	-37.0	-37.9	23.6	0.00e+00	39	33	0	566231040	46	6340
2026-01-05 17:58:04.82	343.57	19.02	-37.4	-38.3	23.2	0.00e+00	0	33	0	568328192	46	6656
2026-01-05 17:58:05.83	343.32	19.04	-37.7	-38.7	23.1	0.00e+00	90	33	0	569376768	46	6972
2026-01-05 17:58:06.84	343.08	19.06	-37.8	-38.8	22.9	0.00e+00	0	33	0	571473920	48	6249
2026-01-05 17:58:07.84	342.84	19.07	-37.7	-38.6	23.0	0.00e+00	57	33	0	573571072	48	6171
2026-01-05 17:58:08.86	342.60	19.09	-37.7	-38.7	23.1	0.00e+00	0	33	0	575668224	48	6195
2026-01-05 17:58:09.87	342.36	19.11	-37.7	-38.6	23.1	0.00e+00	0	33	0	577765376	48	6137
2026-01-05 17:58:10.88	342.11	19.12	-37.9	-38.8	23.0	0.00e+00	9	33	0	578813952	48	6309
2026-01-05 17:58:11.89	341.87	19.14	-37.9	-38.9	22.8	0.00e+00	0	33	0	580911104	48	6342
2026-01-05 17:58:12.90	341.63	19.16	-38.4	-39.5	22.3	0.00e+00	92	33	0	583008256	48	6810
2026-01-05 17:58:13.91	341.38	19.17	-38.8	-39.9	22.0	0.00e+00	0	33	0	585105408	50	6384
2026-01-05 17:58:14.91	341.14	19.18	-39.2	-40.4	21.6	0.00e+00	92	33	0	587202560	50	6739
2026-01-05 17:58:15.92	340.90	19.20	-39.5	-40.8	21.3	0.00e+00	0	33	0	588251136	50	7009
2026-01-05 17:58:16.93	340.65	19.21	-39.7	-41.0	21.2	0.00e+00	0	33	0	590348288	52	6405
2026-01-05 17:58:17.94	340.41	19.22	-39.5	-40.7	21.4	0.00e+00	0	33	0	592445440	52	6201
2026-01-05 17:58:18.95	340.16	19.24	-39.1	-40.2	21.7	0.00e+00	0	33	0	594542592	52	5870
2026-01-05 17:58:19.96	339.92	19.25	-38.4	-39.5	22.4	0.00e+00	92	33	0	596639744	50	6056
2026-01-05 17:58:20.97	339.68	19.26	-38.0	-39.0	22.9	0.00e+00	0	33	0	597688320	50	5722
2026-01-05 17:58:21.98	339.43	19.27	-37.6	-38.6	23.0	0.00e+00	92	33	0	599785472	48	6131
2026-01-05 17:58:22.98	339.19	19.28	-37.7	-38.7	23.0	0.00e+00	0	33	0	601882624	48	6180
2026-01-05 17:58:23.99	338.94	19.29	-37.9	-39.0	22.7	0.00e+00	0	33	0	603979776	48	6396
2026-01-05 17:58:25.00	338.70	19.30	-38.0	-39.0	22.7	0.00e+00	0	33	0	606076928	48	6428
2026-01-05 17:58:26.01	338.45	19.30	-38.2	-39.2	22.6	0.00e+00	0	33	0	607125504	48	6565
2026-01-05 17:58:27.02	338.20	19.31	-38.2	-39.2	22.6	0.00e+00	45	33	0	609222656	48	6587
2026-01-05 17:58:28.03	337.96	19.32	-38.1	-39.1	22.6	0.00e+00	0	33	0	611319808	48	6504
2026-01-05 17:58:29.04	337.71	19.33	-38.0	-39.0	22.7	0.00e+00	92	33	0	613416960	48	6444
2026-01-05 17:58:30.05	337.47	19.33	-37.6	-38.6	23.1	0.00e+00	0	33	0	615514112	48	6133
2026-01-05 17:58:31.06	337.22	19.34	-37.5	-38.4	23.2	0.00e+00	0	33	0	616562688	48	6015
2026-01-05 17:58:32.07	336.97	19.34	-37.1	-38.0	23.5	0.00e+00	0	33	0	618659840	48	5758
2026-01-05 17:58:33.08	336.73	19.35	-37.1	-38.0	23.5	0.00e+00	0	33	0	620756992	48	5745
2026-01-05 17:58:34.09	336.48	19.35	-37.2	-38.1	23.4	0.00e+00	59	33	0	622854144	48	5793
2026-01-05 17:58:35.10	336.23	19.35	-37.5	-38.5	23.2	0.00e+00	0	33	0	624951296	48	6041
2026-01-05 17:58:36.10	335.99	19.36	-37.7	-38.6	23.0	0.00e+00	92	33	0	627048448	48	6155
2026-01-05 17:58:37.11	335.74	19.36	-37.7	-38.7	22.9	0.00e+00	0	33	0	628097024	48	6195
2026-01-05 17:58:38.12	335.50	19.36	-37.7	-38.7	23.0	0.00e+00	85	33	0	630194176	48	6185
2026-01-05 17:58:39.13	335.25	19.36	-37.8	-38.8	22.9	0.00e+00	0	33	0	632291328	48	6281
2026-01-05 17:58:40.14	335.00	19.36	-37.8	-38.8	22.9	0.00e+00	0	33	0	634388480	48	6280
2026-01-05 17:58:41.15	334.76	19.36	-37.7	-38.7	23.1	0.00e+00	26	33	0	636485632	48	6187
2026-01-05 17:58:42.16	334.51	19.36	-37.4	-38.3	23.2	0.00e+00	0	33	0	637534208	48	5926
2026-01-05 17:58:43.17	334.26	19.36	-37.4	-38.3	23.1	0.00e+00	92	33	0	639631360	48	5931
2026-01-05 17:58:44.18	334.01	19.36	-37.4	-38.3	23.3	0.00e+00	0	33	0	641728512	48	5903
2026-01-05 17:58:45.19	333.77	19.36	-37.3	-38.2	23.4	0.00e+00	91	33	0	643825664	48	5836
2026-01-05 17:58:46.20	333.52	19.35	-37.4	-38.3	23.2	0.00e+00	31	33	0	645922816	48	5952
2026-01-05 17:58:47.20	333.28	19.35	-37.5	-38.4	23.2	0.00e+00	0	33	0	646971392	48	5990
2026-01-05 17:58:48.21	333.03	19.35	-37.8	-38.8	22.9	0.00e+00	37	33	0	649068544	48	6278
2026-01-05 17:58:49.22	332.78	19.34	-37.8	-38.7	22.9	0.00e+00	0	33	0	651165696	48	6239
2026-01-05 17:58:50.23	332.54	19.34	-37.8	-38.8	22.7	0.00e+00	70	33	0	653262848	48	6288
2026-01-05 17:58:51.24	332.29	19.33	-38.1	-39.1	22.7	0.00e+00	0	33	0	655360000	48	6467
2026-01-05 17:58:52.25	332.05	19.32	-38.2	-39.3	22.5	0.00e+00	92	33	0	656408576	48	6629
2026-01-05 17:58:53.26	331.80	19.32	-38.3	-39.3	22.4	0.00e+00	0	33	0	658505728	48	6667
2026-01-05 17:58:54.27	331.55	19.31	-38.7	-39.8	22.0	0.00e+00	0	33	0	660602880	48	7026
2026-01-05 17:58:55.28	331.31	19.30	-38.8	-39.9	21.6	0.00e+00	0	33	0	662700032	50	6371
2026-01-05 17:58:56.28	331.06	19.29	-38.8	-40.0	22.0	0.00e+00	0	33	0	664797184	50	6397
2026-01-05 17:58:57.29	330.82	19.28	-39.0	-40.1	21.8	0.00e+00	36	33	0	665845760	50	6506
2026-01-05 17:58:58.30	330.57	19.28	-38.4	-39.5	22.4	0.00e+00	0	33	0	667942912	50	6054
2026-01-05 17:58:59.32	330.32	19.27	-38.0	-39.0	22.8	0.00e+00	82	33	0	670040064	50	5711
2026-01-05 17:59:00.33	330.08	19.25	-37.7	-38.6	23.0	0.00e+00	0	33	0	672137216	48	6171
2026-01-05 17:59:01.33	329.84	19.24	-37.5	-38.4	23.2	0.00e+00	0	33	0	674234368	48	5980
2026-01-05 17:59:02.34	329.59	19.23	-37.1	-37.9	23.6	0.00e+00	0	33	0	675282944	48	5688
2026-01-05 17:59:03.35	329.35	19.22	-36.7	-37.5	23.9	0.00e+00	0	33	0	677380096	46	6085
2026-01-05 17:59:04.36	329.10	19.21	-36.8	-37.7	23.8	0.00e+00	36	33	0	679477248	46	6193
2026-01-05 17:59:05.37	328.86	19.19	-36.7	-37.6	23.8	0.00e+00	0	33	0	681574400	46	6139
2026-01-05 17:59:06.38	328.61	19.18	-36.6	-37.5	23.9	0.00e+00	72	33	0	683671552	46	6043
2026-01-05 17:59:07.39	328.37	19.17	-36.6	-37.4	24.0	0.00e+00	0	33	0	684720128	46	6016
2026-01-05 17:59:08.40	328.13	19.15	-36.4	-37.3	24.1	0.00e+00	0	33	0	686817280	46	5898
2026-01-05 17:59:09.41	327.88	19.14	-36.3	-37.1	24.2	0.00e+00	0	33	0	688914432	46	5785
2026-01-05 17:59:10.42	327.64	19.12	-36.3	-37.1	24.2	0.00e+00	0	33	0	691011584	46	5801
2026-01-05 17:59:11.43	327.40	19.10	-36.2	-37.0	24.2	0.00e+00	0	33	0	693108736	46	5714
2026-01-05 17:59:12.44	327.16	19.09	-36.3	-37.2	24.1	0.00e+00	0	33	0	694157312	46	5835
2026-01-05 17:59:13.45	326.91	19.07	-36.6	-37.5	24.0	0.00e+00	73	33	0	696254464	46	6037
2026-01-05 17:59:14.46	326.67	19.05	-36.7	-37.6	23.9	0.00e+00	0	33	0	698351616	46	6107
2026-01-05 17:59:15.47	326.43	19.03	-36.6	-37.4	24.0	0.00e+00	0	33	0	700448768	46	6028
2026-01-05 17:59:16.48	326.19	19.01	-36.5	-37.4	23.8	0.00e+00	0	33	0	702545920	46	5995
2026-01-05 17:59:17.49	325.95	18.99	-36.3	-37.2	24.1	0.00e+00	0	33	0	703594496	46	5836
2026-01-05 17:59:18.50	325.71	18.97	-36.2	-37.0	24.3	0.00e+00	35	33	0	705691648	46	5727
2026-01-05 17:59:19.51	325.47	18.95	-36.0	-36.8	24.4	0.00e+00	0	33	0	707788800	46	5603
2026-01-05 17:59:20.52	325.23	18.93	-35.8	-36.6	24.5	0.00e+00	71	33	0	709885952	46	5481
2026-01-05 17:59:21.53	324.99	18.91	-35.9	-36.7	24.4	0.00e+00	0	33	0	711983104	46	5523
2026-01-05 17:59:22.54	324.75	18.89	-36.0	-36.8	24.4	0.00e+00	92	33	0	713031680	46	5585
2026-01-05 17:59:23.55	324.51	18.87	-36.1	-36.9	24.4	0.00e+00	0	33	0	715128832	46	5681
2026-01-05 17:59:24.56	324.27	18.84	-36.4	-37.3	23.9	0.00e+00	0	33	0	717225984	46	5924
2026-01-05 17:59:25.57	324.03	18.82	-37.1	-38.0	23.7	0.00e+00	0	33	0	719323136	46	6444
2026-01-05 17:59:26.58	323.79	18.80	-36.9	-37.8	23.6	0.00e+00	0	33	0	721420288	46	6279
2026-01-05 17:59:27.59	323.55	18.77	-36.5	-37.3	23.9	0.00e+00	32	33	0	722468864	46	5936
2026-01-05 17:59:28.60	323.32	18.75	-36.5	-37.3	24.1	0.00e+00	0	33	0	724566016	46	5952
2026-01-05 17:59:29.61	323.08	18.72	-36.6	-37.5	23.9	0.00e+00	92	33	0	726663168	46	6054
2026-01-05 17:59:30.61	322.85	18.69	-36.9	-37.8	23.8	0.00e+00	0	33	0	728760320	46	6247
2026-01-05 17:59:31.62	322.61	18.67	-36.9	-37.8	23.7	0.00e+00	0	33	0	730857472	46	6256
2026-01-05 17:59:32.63	322.37	18.64	-36.9	-37.7	23.7	0.00e+00	0	33	0	732954624	46	6245
2026-01-05 17:59:33.64	322.14	18.61	-36.5	-37.3	24.0	0.00e+00	0	33	0	734003200	46	5962
2026-01-05 17:59:34.65	321.90	18.59	-36.8	-37.7	23.8	0.00e+00	64	33	0	736100352	46	6191
2026-01-05 17:59:35.66	321.67	18.56	-36.6	-37.5	24.0	0.00e+00	0	33	0	738197504	46	6060
2026-01-05 17:59:36.67	321.44	18.53	-36.9	-37.8	23.6	0.00e+00	78	33	0	740294656	46	6276
2026-01-05 17:59:37.68	321.20	18.50	-37.3	-38.3	23.4	0.00e+00	0	33	0	742391808	46	6632
2026-01-05 17:59:38.69	320.97	18.47	-37.6	-38.6	23.0	0.00e+00	0	33	0	743440384	46	6887
2026-01-05 17:59:39.70	320.74	18.44	-37.7	-38.7	23.0	0.00e+00	0	33	0	745537536	48	6217
2026-01-05 17:59:40.71	320.51	18.41	-37.9	-38.9	22.9	0.00e+00	0	33	0	747634688	48	6336
2026-01-05 17:59:41.71	320.28	18.38	-38.3	-39.3	22.5	0.00e+00	31	33	0	749731840	48	6643
2026-01-05 17:59:42.72	320.05	18.35	-38.3	-39.3	22.5	0.00e+00	0	33	0	751828992	48	6660
2026-01-05 17:59:43.73	319.81	18.31	-38.5	-39.5	22.4	0.00e+00	91	33	0	752877568	48	6848
2026-01-05 17:59:44.74	319.58	18.28	-38.5	-39.5	22.4	0.00e+00	0	33	0	754974720	48	6833
2026-01-05 17:59:45.75	319.35	18.25	-38.4	-39.4	22.4	0.00e+00	0	33	0	757071872	48	6756
2026-01-05 17:59:46.76	319.13	18.22	-38.1	-39.1	22.7	0.00e+00	0	33	0	759169024	48	6514
2026-01-05 17:59:47.77	318.90	18.18	-38.3	-39.3	22.6	0.00e+00	0	33	0	761266176	48	6616
2026-01-05 17:59:48.78	318.67	18.15	-38.4	-39.4	22.6	0.00e+00	28	33	0	762314752	48	6733
2026-01-05 17:59:49.79	318.44	18.11	-38.3	-39.3	22.4	0.00e+00	0	33	0	764411904	48	6618
2026-01-05 17:59:50.80	318.21	18.08	-38.4	-39.4	22.4	0.00e+00	92	33	0	766509056	48	6708
2026-01-05 17:59:51.81	317.99	18.04	-38.4	-39.4	22.5	0.00e+00	0	33	0	768606208	48	6716
2026-01-05 17:59:52.82	317.76	18.01	-38.4	-39.4	22.5	0.00e+00	0	33	0	770703360	48	6723
2026-01-05 17:59:53.82	317.54	17.97	-38.6	-39.6	22.3	0.00e+00	0	33	0	771751936	48	6920
2026-01-05 17:59:54.83	317.31	17.93	-38.7	-39.8	22.1	0.00e+00	0	33	0	773849088	50	6276
2026-01-05 17:59:55.84	317.09	17.90	-39.0	-40.1	22.0	0.00e+00	0	33	0	775946240	50	6509
2026-01-05 17:59:56.85	316.87	17.86	-39.0	-40.1	22.0	0.00e+00	0	33	0	778043392	50	6481
2026-01-05 17:59:57.86	316.64	17.82	-39.4	-40.5	21.6	0.00e+00	92	33	0	780140544	50	6822
2026-01-05 17:59:58.87	316.42	17.78	-39.1	-40.2	21.8	0.00e+00	0	33	0	781189120	50	6601
2026-01-05 17:59:59.88	316.20	17.75	-39.2	-40.3	21.8	0.00e+00	90	33	0	783286272	50	6628
2026-01-05 18:00:00.89	315.98	17.71	-38.7	-39.8	22.2	0.00e+00	0	33	0	785383424	50	6262
2026-01-05 18:00:01.90	315.76	17.67	-38.3	-39.3	22.5	0.00e+00	0	33	0	787480576	50	5941
2026-01-05 18:00:02.90	315.54	17.63	-38.3	-39.3	22.6	0.00e+00	0	33	0	789577728	50	5942
2026-01-05 18:00:03.92	315.31	17.59	-38.2	-39.1	22.7	0.00e+00	0	33	0	790626304	50	5812
2026-01-05 18:00:04.93	315.10	17.55	-38.5	-39.5	22.5	0.00e+00	53	33	0	792723456	50	6038
2026-01-05 18:00:05.93	314.88	17.51	-38.3	-39.3	22.5	0.00e+00	0	33	0	794820608	50	5919
2026-01-05 18:00:06.94	314.66	17.47	-38.0	-39.0	22.8	0.00e+00	92	33	0	796917760	50	5701
2026-01-05 18:00:07.95	314.44	17.42	-38.1	-39.1	22.9	0.00e+00	0	33	0	799014912	50	5793
2026-01-05 18:00:08.96	314.23	17.38	-37.9	-38.8	22.9	0.00e+00	0	33	0	801112064	50	5611
2026-01-05 18:00:09.97	314.01	17.34	-37.8	-38.7	23.1	0.00e+00	0	33	0	802160640	50	5517
2026-01-05 18:00:10.98	313.80	17.30	-37.6	-38.5	23.2	0.00e+00	0	33	0	804257792	48	6070
2026-01-05 18:00:11.99	313.58	17.25	-37.5	-38.4	23.3	0.00e+00	35	33	0	806354944	48	5967
2026-01-05 18:00:13.00	313.37	17.21	-37.4	-38.3	23.2	0.00e+00	0	33	0	808452096	48	5940
2026-01-05 18:00:14.01	313.15	17.17	-37.2	-38.0	23.6	0.00e+00	25	33	0	810549248	48	5751
2026-01-05 18:00:15.02	312.94	17.12	-37.2	-38.0	23.5	0.00e+00	0	33	0	811597824	48	5741
2026-01-05 18:00:16.03	312.73	17.08	-36.9	-37.7	23.6	0.00e+00	0	33	0	813694976	46	6215
2026-01-05 18:00:17.04	312.51	17.04	-36.9	-37.7	23.6	0.00e+00	0	33	0	815792128	46	6230
2026-01-05 18:00:18.05	312.30	16.99	-36.9	-37.7	23.7	0.00e+00	0	33	0	817889280	46	6240
2026-01-05 18:00:19.06	312.09	16.95	-37.0	-37.8	23.7	0.00e+00	74	33	0	819986432	46	6300
2026-01-05 18:00:20.07	311.88	16.90	-36.9	-37.8	23.7	0.00e+00	0	33	0	821035008	46	6247
2026-01-05 18:00:21.08	311.67	16.85	-37.1	-38.0	23.7	0.00e+00	9	33	0	823132160	46	6412
2026-01-05 18:00:22.08	311.47	16.81	-36.7	-37.6	24.0	0.00e+00	0	33	0	825229312	46	6120
2026-01-05 18:00:23.09	311.26	16.76	-36.9	-37.8	23.7	0.00e+00	8	33	0	827326464	46	6287
2026-01-05 18:00:24.10	311.05	16.72	-37.2	-38.0	23.5	0.00e+00	0	33	0	829423616	46	6457
2026-01-05 18:00:25.11	310.84	16.67	-37.8	-38.8	23.0	0.00e+00	0	33	0	830472192	48	6273
2026-01-05 18:00:26.12	310.64	16.62	-38.3	-39.3	22.5	0.00e+00	0	33	0	832569344	48	6681
2026-01-05 18:00:27.13	310.43	16.57	-38.8	-39.9	21.9	0.00e+00	31	33	0	834666496	48	7131
2026-01-05 18:00:28.14	310.23	16.53	-39.2	-40.3	21.7	0.00e+00	54	33	0	836763648	50	6643
2026-01-05 18:00:29.15	310.02	16.48	-38.7	-39.7	22.0	0.00e+00	0	33	0	838860800	50	6237
2026-01-05 18:00:30.16	309.82	16.43	-39.0	-40.0	21.8	0.00e+00	91	33	0	839909376	50	6458
2026-01-05 18:00:31.17	309.62	16.38	-38.9	-40.0	22.0	0.00e+00	0	33	0	842006528	50	6409
2026-01-05 18:00:32.18	309.42	16.33	-38.6	-39.6	22.4	0.00e+00	0	33	0	844103680	50	6155
2026-01-05 18:00:33.19	309.21	16.28	-38.5	-39.5	22.3	0.00e+00	0	33	0	846200832	50	6097
2026-01-05 18:00:34.20	309.01	16.23	-38.8	-39.8	21.9	0.00e+00	0	33	0	848297984	50	6315
2026-01-05 18:00:35.21	308.81	16.18	-38.7	-39.8	22.1	0.00e+00	36	33	0	849346560	50	6270
2026-01-05 18:00:36.22	308.61	16.13	-38.8	-39.8	22.1	0.00e+00	0	33	0	851443712	50	6307
2026-01-05 18:00:37.23	308.42	16.08	-39.3	-40.4	21.7	0.00e+00	92	33	0	853540864	50	6699
2026-01-05 18:00:38.24	308.22	16.03	-39.1	-40.2	21.8	0.00e+00	0	33	0	855638016	50	6540
2026-01-05 18:00:39.25	308.02	15.98	-39.2	-40.3	21.7	0.00e+00	0	33	0	857735168	50	6664
2026-01-05 18:00:40.25	307.83	15.93	-39.1	-40.1	21.9	0.00e+00	0	33	0	858783744	50	6520
2026-01-05 18:00:41.26	307.63	15.88	-39.1	-40.1	21.9	0.00e+00	0	33	0	860880896	50	6526
2026-01-05 18:00:42.27	307.43	15.83	-38.7	-39.7	22.2	0.00e+00	76	33	0	862978048	50	6192
2026-01-05 18:00:43.29	307.24	15.78	-38.3	-39.3	22.6	0.00e+00	0	33	0	865075200	50	5934
2026-01-05 18:00:44.30	307.04	15.72	-38.2	-39.1	22.7	0.00e+00	92	33	0	867172352	50	5818
2026-01-05 18:00:45.30	306.85	15.67	-37.9	-38.8	22.9	0.00e+00	0	33	0	869269504	50	5586
2026-01-05 18:00:46.31	306.66	15.62	-37.7	-38.6	23.1	0.00e+00	0	33	0	870318080	48	6134
2026-01-05 18:00:47.32	306.47	15.57	-37.7	-38.7	23.0	0.00e+00	0	33	0	872415232	48	6174
2026-01-05 18:00:48.33	306.28	15.52	-37.7	-38.6	23.1	0.00e+00	0	33	0	874512384	48	6131
2026-01-05 18:00:49.34	306.08	15.46	-37.7	-38.6	22.9	0.00e+00	36	33	0	876609536	48	6145
2026-01-05 18:00:50.35	305.89	15.41	-38.0	-39.0	22.8	0.00e+00	0	33	0	878706688	48	6399
2026-01-05 18:00:51.36	305.71	15.36	-38.0	-39.0	22.8	0.00e+00	90	33	0	879755264	48	6405
2026-01-05 18:00:52.37	305.52	15.30	-38.2	-39.2	22.6	0.00e+00	0	33	0	881852416	48	6577
2026-01-05 18:00:53.38	305.33	15.25	-38.4	-39.4	22.4	0.00e+00	0	33	0	883949568	48	6694
2026-01-05 18:00:54.39	305.14	15.19	-38.6	-39.7	22.1	0.00e+00	0	33	0	886046720	48	6950
2026-01-05 18:00:55.40	304.96	15.14	-38.7	-39.7	22.2	0.00e+00	0	33	0	888143872	48	6982
2026-01-05 18:00:56.41	304.77	15.09	-38.4	-39.5	22.5	0.00e+00	13	33	0	889192448	48	6774
2026-01-05 18:00:57.42	304.58	15.03	-38.3	-39.3	22.6	0.00e+00	0	33	0	891289600	48	6628
2026-01-05 18:00:58.42	304.40	14.98	-37.9	-38.9	22.8	0.00e+00	65	33	0	893386752	48	6332
2026-01-05 18:00:59.43	304.22	14.92	-37.8	-38.7	23.0	0.00e+00	0	33	0	895483904	48	6203
2026-01-05 18:01:00.45	304.03	14.87	-37.6	-38.5	23.2	0.00e+00	0	33	0	897581056	48	6076
2026-01-05 18:01:01.45	303.85	14.81	-37.9	-38.8	23.0	0.00e+00	0	33	0	898629632	48	6306
2026-01-05 18:01:02.46	303.67	14.76	-38.1	-39.0	22.8	0.00e+00	0	33	0	900726784	48	6430
2026-01-05 18:01:03.47	303.49	14.70	-37.8	-38.8	22.7	0.00e+00	0	33	0	902823936	48	6251
2026-01-05 18:01:04.48	303.31	14.65	-38.3	-39.2	22.4	7.00e-07	0	33	0	904921088	48	6592
2026-01-05 18:01:05.49	303.13	14.59	-38.7	-39.7	22.1	0.00e+00	25	33	0	907018240	48	6972
2026-01-05 18:01:06.50	302.95	14.53	-39.0	-40.0	22.0	0.00e+00	0	33	0	908066816	50	6445
2026-01-05 18:01:07.51	302.77	14.48	-39.7	-40.8	21.3	0.00e+00	40	33	0	910163968	50	7056
2026-01-05 18:01:08.52	302.59	14.42	-40.0	-41.2	20.9	0.00e+00	0	33	0	912261120	52	6563
2026-01-05 18:01:09.53	302.42	14.37	-40.2	-41.5	20.6	0.00e+00	0	33	0	914358272	52	6778
2026-01-05 18:01:10.54	302.24	14.31	-40.4	-41.7	20.4	0.00e+00	0	33	0	916455424	52	6936
2026-01-05 18:01:11.55	302.07	14.25	-40.3	-41.6	20.4	0.00e+00	0	33	0	917504000	52	6906
2026-01-05 18:01:12.55	301.89	14.20	-40.3	-41.6	20.6	0.00e+00	92	33	0	919601152	52	6914
2026-01-05 18:01:13.56	301.72	14.14	-40.2	-41.4	20.7	0.00e+00	0	33	0	921698304	52	6733
2026-01-05 18:01:14.57	301.54	14.08	-40.1	-41.3	20.8	0.00e+00	39	33	0	923795456	52	6664
2026-01-05 18:01:15.58	301.37	14.02	-39.6	-40.8	21.2	0.00e+00	0	33	0	925892608	52	6262
2026-01-05 18:01:16.59	301.20	13.97	-39.6	-40.8	21.3	0.00e+00	0	33	0	926941184	52	6266
2026-01-05 18:01:17.60	301.03	13.91	-39.6	-40.7	21.2	0.00e+00	0	33	0	929038336	52	6245
2026-01-05 18:01:18.61	300.86	13.85	-39.6	-40.7	21.3	0.00e+00	0	33	0	931135488	52	6209
2026-01-05 18:01:19.62	300.69	13.79	-39.3	-40.4	21.5	0.00e+00	36	33	0	933232640	52	6033
2026-01-05 18:01:20.63	300.52	13.74	-39.2	-40.3	21.6	0.00e+00	0	33	0	935329792	52	5960
2026-01-05 18:01:21.64	300.35	13.68	-39.4	-40.5	21.5	0.00e+00	91	33	0	936378368	52	6042
2026-01-05 18:01:22.64	300.18	13.62	-39.0	-40.1	21.9	0.00e+00	0	33	0	938475520	52	5782
2026-01-05 18:01:23.65	300.01	13.56	-38.8	-39.9	22.1	0.00e+00	33	33	0	940572672	52	5633
2026-01-05 18:01:24.66	299.85	13.50	-38.9	-39.9	22.0	0.00e+00	0	33	0	942669824	50	6378
2026-01-05 18:01:25.67	299.68	13.45	-39.0	-40.1	21.9	0.00e+00	0	33	0	944766976	50	6487
2026-01-05 18:01:26.68	299.52	13.39	-39.3	-40.4	21.5	0.00e+00	48	33	0	945815552	50	6720
2026-01-05 18:01:27.68	299.35	13.33	-39.7	-40.8	21.2	0.00e+00	0	33	0	947912704	50	7088
2026-01-05 18:01:28.69	299.19	13.27	-39.8	-41.0	21.2	0.00e+00	33	33	0	950009856	52	6420
2026-01-05 18:01:29.70	299.02	13.21	-39.7	-40.8	21.2	0.00e+00	0	33	0	952107008	52	6304
2026-01-05 18:01:30.71	298.86	13.15	-39.7	-40.9	21.2	0.00e+00	0	33	0	954204160	52	6319
2026-01-05 18:01:31.72	298.70	13.09	-39.4	-40.5	21.4	0.00e+00	0	33	0	955252736	52	6063
2026-01-05 18:01:32.73	298.54	13.04	-39.1	-40.2	21.8	0.00e+00	0	33	0	957349888	52	5861
2026-01-05 18:01:33.74	298.38	12.98	-39.0	-40.0	21.9	0.00e+00	33	33	0	959447040	52	5754
2026-01-05 18:01:34.75	298.22	12.92	-38.8	-39.9	22.0	0.00e+00	0	33	0	961544192	52	5642
2026-01-05 18:01:35.76	298.06	12.86	-38.3	-39.3	22.3	0.00e+00	31	33	0	963641344	50	5938
2026-01-05 18:01:36.77	297.90	12.80	-38.5	-39.5	22.3	0.00e+00	0	33	0	965738496	50	6067
2026-01-05 18:01:37.78	297.74	12.74	-38.4	-39.4	22.3	0.00e+00	76	33	0	966787072	50	6029
2026-01-05 18:01:38.79	297.58	12.68	-38.5	-39.5	22.3	0.00e+00	0	33	0	968884224	50	6103
2026-01-05 18:01:39.79	297.43	12.62	-38.8	-39.8	22.0	0.00e+00	0	33	0	970981376	50	6278
2026-01-05 18:01:40.80	297.27	12.56	-38.9	-39.9	21.9	0.00e+00	0	33	0	973078528	50	6372
2026-01-05 18:01:41.81	297.11	12.50	-38.8	-39.9	21.9	0.00e+00	0	33	0	975175680	50	6338
2026-01-05 18:01:42.82	296.96	12.44	-39.0	-40.1	21.8	0.00e+00	32	33	0	976224256	50	6485
2026-01-05 18:01:43.83	296.80	12.38	-38.9	-40.0	22.0	0.00e+00	0	33	0	978321408	50	6394
2026-01-05 18:01:44.84	296.65	12.32	-39.2	-40.3	21.8	0.00e+00	90	33	0	980418560	50	6625
2026-01-05 18:01:45.85	296.50	12.26	-39.0	-40.1	21.5	0.00e+00	0	33	0	982515712	50	6474
2026-01-05 18:01:46.86	296.35	12.20	-39.0	-40.1	21.7	0.00e+00	0	33	0	984612864	50	6508
2026-01-05 18:01:47.87	296.19	12.14	-39.0	-40.1	21.7	0.00e+00	0	33	0	985661440	50	6519
2026-01-05 18:01:48.88	296.04	12.08	-39.0	-40.1	21.7	0.00e+00	0	33	0	987758592	50	6511
2026-01-05 18:01:49.89	295.89	12.02	-38.9	-40.0	21.8	0.00e+00	31	33	0	989855744	50	6439
2026-01-05 18:01:50.90	295.74	11.96	-39.1	-40.2	21.6	0.00e+00	0	33	0	991952896	50	6572
2026-01-05 18:01:51.91	295.59	11.90	-38.9	-40.0	22.0	0.00e+00	69	33	0	994050048	50	6411
2026-01-05 18:01:52.91	295.44	11.84	-38.8	-39.8	22.0	0.00e+00	0	33	0	995098624	50	6297
2026-01-05 18:01:53.92	295.30	11.78	-38.5	-39.5	22.2	0.00e+00	0	33	0	997195776	50	6101
2026-01-05 18:01:54.93	295.15	11.72	-38.1	-39.1	22.5	0.00e+00	0	33	0	999292928	50	5791
2026-01-05 18:01:55.94	295.00	11.66	-38.0	-39.0	22.7	0.00e+00	0	33	0	1001390080	50	5711
2026-01-05 18:01:56.95	294.86	11.60	-37.8	-38.8	22.8	0.00e+00	32	33	0	1003487232	50	5582
2026-01-05 18:01:57.96	294.71	11.54	-37.6	-38.5	23.1	0.00e+00	0	33	0	1004535808	48	6102
2026-01-05 18:01:58.97	294.56	11.48	-37.3	-38.2	23.2	0.00e+00	71	33	0	1006632960	48	5881
2026-01-05 18:01:59.98	294.42	11.42	-37.1	-38.0	23.4	0.00e+00	0	33	0	1008730112	48	5722
2026-01-05 18:02:00.99	294.28	11.36	-37.0	-37.8	23.6	0.00e+00	12	33	0	1010827264	48	5616
2026-01-05 18:02:02.00	294.13	11.30	-36.8	-37.7	23.7	0.00e+00	0	33	0	1012924416	46	6200
2026-01-05 18:02:03.00	293.99	11.24	-36.8	-37.6	23.8	0.00e+00	0	33	0	1013972992	46	6161
2026-01-05 18:02:04.01	293.85	11.18	-36.8	-37.7	23.6	0.00e+00	0	33	0	1016070144	46	6208
2026-01-05 18:02:05.02	293.71	11.12	-37.0	-37.9	23.6	0.00e+00	0	33	0	1018167296	46	6333
2026-01-05 18:02:06.03	293.57	11.06	-37.1	-38.0	23.4	0.00e+00	32	33	0	1020264448	46	6417
2026-01-05 18:02:07.04	293.43	11.00	-37.3	-38.2	23.3	0.00e+00	0	33	0	1022361600	46	6578
2026-01-05 18:02:08.05	293.29	10.94	-37.4	-38.4	23.1	0.00e+00	0	33	0	1023410176	46	6711
2026-01-05 18:02:09.06	293.15	10.87	-37.7	-38.6	22.9	0.00e+00	0	33	0	1025507328	46	6902
2026-01-05 18:02:10.07	293.01	10.81	-37.9	-38.9	22.6	0.00e+00	0	33	0	1027604480	48	6345
2026-01-05 18:02:11.08	292.87	10.75	-37.8	-38.8	22.8	0.00e+00	9	33	0	1029701632	48	6271
2026-01-05 18:02:12.09	292.73	10.69	-37.7	-38.7	22.8	0.00e+00	0	33	0	1031798784	48	6213
2026-01-05 18:02:13.10	292.60	10.63	-37.6	-38.5	23.0	0.00e+00	91	33	0	1033895936	48	6085
2026-01-05 18:02:14.11	292.46	10.57	-37.5	-38.5	23.0	0.00e+00	29	33	0	1034944512	48	6063
2026-01-05 18:02:15.12	292.32	10.51	-37.5	-38.4	23.1	0.00e+00	92	33	0	1037041664	48	6008
2026-01-05 18:02:16.13	292.19	10.45	-37.2	-38.1	23.3	0.00e+00	0	33	0	1039138816	48	5803
2026-01-05 18:02:17.14	292.06	10.39	-37.2	-38.1	23.3	0.00e+00	26	33	0	1041235968	48	5777
2026-01-05 18:02:18.15	291.92	10.33	-37.1	-38.0	23.4	0.00e+00	0	33	0	1043333120	48	5738
2026-01-05 18:02:19.16	291.79	10.27	-37.0	-37.9	23.5	0.00e+00	0	33	0	1044381696	48	5661
2026-01-05 18:02:20.17	291.65	10.21	-37.1	-38.0	23.4	0.00e+00	30	33	0	1046478848	48	5699
2026-01-05 18:02:21.18	291.52	10.15	-37.3	-38.2	23.2	0.00e+00	0	33	0	1048576000	48	5867
2026-01-05 18:02:22.19	291.39	10.09	-37.1	-38.0	23.3	0.00e+00	69	33	0	1050673152	48	5745
2026-01-05 18:02:23.19	291.26	10.02	-37.1	-38.0	23.4	0.00e+00	2	33	0	1051721728	48	5703
2026-01-05 18:02:24.20	291.13	9.96	-37.3	-38.2	23.2	0.00e+00	0	33	0	1053818880	48	5889
2026-01-05 18:02:25.21	291.00	9.90	-37.4	-38.3	23.0	0.00e+00	0	33	0	1055916032	48	5948
2026-01-05 18:02:26.22	290.87	9.84	-37.5	-38.4	23.0	0.00e+00	0	33	0	1058013184	48	6027
2026-01-05 18:02:27.23	290.74	9.78	-37.7	-38.7	22.7	0.00e+00	90	33	0	1060110336	48	6184
2026-01-05 18:02:28.24	290.61	9.72	-38.0	-38.9	22.5	0.00e+00	0	33	0	1062207488	48	6388
2026-01-05 18:02:29.25	290.49	9.66	-37.8	-38.8	22.7	0.00e+00	92	33	0	1063256064	48	6258
2026-01-05 18:02:30.26	290.36	9.60	-38.2	-39.2	22.0	0.00e+00	0	33	0	1065353216	48	6557
2026-01-05 18:02:31.27	290.23	9.54	-38.3	-39.3	22.2	0.00e+00	0	33	0	1067450368	48	6668
2026-01-05 18:02:32.28	290.11	9.48	-38.3	-39.3	22.2	0.00e+00	0	33	0	1069547520	48	6683
2026-01-05 18:02:33.29	289.98	9.42	-38.5	-39.5	22.0	0.00e+00	0	33	0	1071644672	48	6830
2026-01-05 18:02:34.29	289.86	9.36	-38.4	-39.5	22.1	0.00e+00	29	33	0	1072693248	48	6813
2026-01-05 18:02:35.30	289.73	9.30	-38.6	-39.7	21.8	0.00e+00	0	33	0	1074790400	48	6937
2026-01-05 18:02:36.31	289.61	9.24	-38.6	-39.6	21.9	0.00e+00	92	33	0	1076887552	50	6166
2026-01-05 18:02:37.32	289.48	9.18	-38.6	-39.7	21.6	0.00e+00	0	33	0	1078984704	50	6203
2026-01-05 18:02:38.32	289.36	9.12	-38.6	-39.7	21.9	0.00e+00	69	33	0	1081081856	50	6174
2026-01-05 18:02:39.33	289.24	9.06	-38.5	-39.6	22.1	0.00e+00	0	33	0	1082130432	50	6106
2026-01-05 18:02:40.34	289.12	8.99	-38.3	-39.3	22.3	0.00e+00	0	33	0	1084227584	50	5927
2026-01-05 18:02:41.35	289.00	8.93	-38.4	-39.4	22.2	0.00e+00	31	33	0	1086324736	50	5986
2026-01-05 18:02:42.36	288.87	8.87	-38.4	-39.4	22.1	0.00e+00	0	33	0	1088421888	50	5995
2026-01-05 18:02:43.37	288.75	8.81	-38.1	-39.1	22.4	0.00e+00	28	33	0	1090519040	50	5803
2026-01-05 18:02:44.38	288.63	8.75	-38.0	-38.9	22.5	0.00e+00	0	33	0	1091567616	50	5684
2026-01-05 18:02:45.39	288.51	8.69	-37.6	-38.6	22.9	0.00e+00	92	33	0	1093664768	48	6108
2026-01-05 18:02:46.40	288.40	8.63	-37.6	-38.6	22.9	0.00e+00	0	33	0	1095761920	48	6121
2026-01-05 18:02:47.41	288.28	8.57	-37.7	-38.6	22.7	0.00e+00	0	33	0	1097859072	48	6156
2026-01-05 18:02:48.42	288.16	8.51	-37.7	-38.7	22.6	0.00e+00	0	33	0	1099956224	48	6200
2026-01-05 18:02:49.43	288.04	8.45	-38.0	-39.0	22.4	0.00e+00	0	33	0	1101004800	48	6452
2026-01-05 18:02:50.44	287.92	8.39	-38.2	-39.2	22.3	0.00e+00	19	33	0	1103101952	48	6554
2026-01-05 18:02:51.45	287.81	8.33	-38.6	-39.7	21.9	0.00e+00	0	33	0	1105199104	48	6958
2026-01-05 18:02:52.45	287.69	8.27	-38.8	-39.9	21.6	0.00e+00	52	33	0	1107296256	50	6377
2026-01-05 18:02:53.46	287.58	8.21	-39.0	-40.1	21.5	0.00e+00	0	33	0	1109393408	50	6518
2026-01-05 18:02:54.47	287.46	8.15	-39.1	-40.2	21.5	0.00e+00	0	33	0	1110441984	50	6599
2026-01-05 18:02:55.48	287.35	8.09	-38.9	-40.0	21.6	0.00e+00	0	33	0	1112539136	50	6403
2026-01-05 18:02:56.48	287.23	8.03	-38.9	-40.0	21.7	0.00e+00	0	33	0	1114636288	50	6396
2026-01-05 18:02:57.49	287.12	7.97	-38.9	-40.0	21.7	0.00e+00	20	33	0	1116733440	50	6392
2026-01-05 18:02:58.50	287.01	7.91	-38.8	-39.8	21.8	0.00e+00	0	33	0	1118830592	50	6308
2026-01-05 18:02:59.51	286.90	7.85	-38.5	-39.5	22.0	0.00e+00	91	33	0	1119879168	50	6076
2026-01-05 18:03:00.52	286.78	7.79	-38.4	-39.5	22.0	0.00e+00	0	33	0	1121976320	50	6048
2026-01-05 18:03:01.53	286.67	7.73	-38.4	-39.5	22.0	0.00e+00	0	33	0	1124073472	50	6043
2026-01-05 18:03:02.54	286.56	7.67	-38.4	-39.4	22.2	0.00e+00	0	33	0	1126170624	50	5997
2026-01-05 18:03:03.55	286.45	7.61	-38.3	-39.3	22.1	0.00e+00	0	33	0	1128267776	50	5946
2026-01-05 18:03:04.56	286.34	7.55	-38.4	-39.4	22.0	0.00e+00	25	33	0	1130364928	50	6023
2026-01-05 18:03:05.57	286.23	7.49	-38.4	-39.5	21.9	0.00e+00	0	33	0	1131413504	50	6060
2026-01-05 18:03:06.58	286.12	7.43	-38.4	-39.4	22.0	0.00e+00	91	33	0	1133510656	50	6028
2026-01-05 18:03:07.59	286.01	7.37	-38.6	-39.7	21.9	0.00e+00	0	33	0	1135607808	50	6183
2026-01-05 18:03:08.60	285.90	7.31	-38.8	-39.9	21.7	0.00e+00	0	33	0	1137704960	50	6373
2026-01-05 18:03:09.61	285.80	7.25	-38.9	-40.0	21.5	0.00e+00	0	33	0	1139802112	50	6401
2026-01-05 18:03:10.62	285.69	7.19	-39.2	-40.3	21.3	0.00e+00	0	33	0	1140850688	50	6688
2026-01-05 18:03:11.63	285.58	7.13	-39.0	-40.1	21.4	0.00e+00	0	33	0	1142947840	50	6506
2026-01-05 18:03:12.64	285.47	7.07	-39.3	-40.4	21.2	0.00e+00	0	33	0	1145044992	50	6761
2026-01-05 18:03:13.65	285.37	7.01	-39.3	-40.4	21.2	0.00e+00	70	33	0	1147142144	50	6757
2026-01-05 18:03:14.65	285.26	6.96	-39.2	-40.3	21.3	0.00e+00	0	33	0	1149239296	50	6650
2026-01-05 18:03:15.66	285.16	6.90	-39.2	-40.4	21.2	0.00e+00	0	33	0	1150287872	50	6726
2026-01-05 18:03:16.67	285.05	6.84	-39.4	-40.6	21.0	0.00e+00	0	33	0	1152385024	50	6913
2026-01-05 18:03:17.68	284.95	6.78	-39.8	-41.0	20.7	0.00e+00	0	33	0	1154482176	52	6428
2026-01-05 18:03:18.69	284.84	6.72	-39.6	-40.9	20.7	0.00e+00	0	33	0	1156579328	52	6318
2026-01-05 18:03:19.70	284.74	6.66	-39.8	-41.1	20.6	0.00e+00	0	33	0	1158676480	52	6467
2026-01-05 18:03:20.71	284.64	6.60	-39.7	-41.0	20.7	0.00e+00	45	33	0	1159725056	52	6397
2026-01-05 18:03:21.72	284.54	6.54	-39.8	-41.0	20.7	0.00e+00	0	33	0	1161822208	52	6421
2026-01-05 18:03:22.73	284.43	6.48	-39.7	-40.9	20.8	0.00e+00	90	33	0	1163919360	52	6376
2026-01-05 18:03:23.74	284.33	6.42	-39.4	-40.6	21.0	0.00e+00	0	33	0	1166016512	52	6107
2026-01-05 18:03:24.75	284.23	6.36	-39.5	-40.6	21.0	0.00e+00	0	33	0	1168113664	52	6159
2026-01-05 18:03:25.75	284.13	6.31	-39.3	-40.4	21.1	0.00e+00	0	33	0	1169162240	52	6008
2026-01-05 18:03:26.76	284.03	6.25	-39.3	-40.5	21.1	0.00e+00	0	33	0	1171259392	52	6075
2026-01-05 18:03:27.77	283.93	6.19	-39.4	-40.6	21.0	0.00e+00	85	33	0	1173356544	52	6149
2026-01-05 18:03:28.78	283.83	6.13	-39.6	-40.8	20.8	0.00e+00	0	33	0	1175453696	52	6277
2026-01-05 18:03:29.79	283.73	6.07	-39.7	-40.9	20.6	0.00e+00	92	33	0	1177550848	52	6368
2026-01-05 18:03:30.80	283.63	6.01	-39.4	-40.6	20.9	0.00e+00	0	33	0	1178599424	52	6129
2026-01-05 18:03:31.81	283.53	5.95	-39.8	-41.1	20.5	0.00e+00	0	33	0	1180696576	52	6505
2026-01-05 18:03:32.82	283.43	5.90	-40.1	-41.4	20.4	0.00e+00	0	33	0	1182793728	52	6757
2026-01-05 18:03:33.83	283.34	5.84	-40.4	-41.7	19.9	0.00e+00	0	33	0	1184890880	52	6989
2026-01-05 18:03:34.84	283.24	5.78	-40.5	-42.0	19.7	0.00e+00	30	33	0	1186988032	52	7180
2026-01-05 18:03:35.84	283.14	5.72	-40.6	-42.0	19.7	0.00e+00	0	33	0	1188036608	52	7230
2026-01-05 18:03:36.85	283.05	5.66	-40.9	-42.4	19.2	0.00e+00	92	33	0	1190133760	54	6752
2026-01-05 18:03:37.86	282.95	5.60	-41.1	-42.6	19.0	0.00e+00	0	33	0	1192230912	54	6904
2026-01-05 18:03:38.87	282.86	5.55	-41.1	-42.7	18.9	0.00e+00	0	33	0	1194328064	54	6993
2026-01-05 18:03:39.88	282.76	5.49	-40.9	-42.5	19.1	0.00e+00	0	33	0	1196425216	54	6784
2026-01-05 18:03:40.89	282.67	5.43	-41.1	-42.7	19.0	0.00e+00	0	33	0	1197473792	54	6965
