passes_logs/2026/01/05/R4.6S_Anadyr/R4.6S_Anadyr__20260105_171250_FENGYUN_3D_rec.log

#Pass ID: 20260105_171250_FENGYUN 3D
#Satellite: FENGYUN 3D
#Configuration: FENGYUN 3D
#almurnet v.1.7.20251203
#Start time: 2026-01-05 17:12:52

#Version: 2.2.20231116
#Station: R4.6S_Anadyr
#Location: 177.4865 lon 64.73178 lat
#TLE: 1 43010U 17072A   26004.99581904 -.00000126  00000+0 -37613-4 0  9996
#TLE: 2 43010  98.9917 336.6574 0001994 126.4096 233.7264 14.19691690421839

#Time	Az	El	Level	Level2	SNR	BER	BlckErr	Temp	State	Recorded	gain1	gain2
2026-01-05 17:12:52.54	22.03	0.14	-48.6	-63.5	3.5	1.51e+00	0	30	0	0	60	53868
2026-01-05 17:12:53.55	22.03	0.20	-48.5	-60.6	3.6	8.46e-01	0	31	104	0	60	38665
2026-01-05 17:12:54.56	22.02	0.26	-48.6	-60.7	3.6	8.46e-01	0	31	104	0	60	39078
2026-01-05 17:12:55.57	22.01	0.33	-48.6	-60.7	3.6	8.45e-01	0	31	104	0	60	39148
2026-01-05 17:12:56.58	22.00	0.39	-48.6	-60.7	3.6	8.45e-01	0	31	104	0	60	39012
2026-01-05 17:12:57.59	22.00	0.45	-48.6	-60.7	3.6	8.46e-01	0	31	104	0	60	39368
2026-01-05 17:12:58.60	21.99	0.51	-48.6	-60.8	3.6	8.46e-01	0	31	104	0	60	39453
2026-01-05 17:12:59.61	21.98	0.57	-48.6	-60.7	3.6	8.46e-01	0	31	104	0	60	39285
2026-01-05 17:13:00.62	21.98	0.63	-48.6	-60.6	3.5	8.45e-01	0	31	104	0	60	38850
2026-01-05 17:13:01.63	21.97	0.69	-48.5	-60.6	3.6	8.46e-01	0	31	104	0	60	38904
2026-01-05 17:13:02.64	21.96	0.75	-48.5	-60.6	3.6	8.44e-01	0	31	104	0	60	38624
2026-01-05 17:13:03.65	21.95	0.82	-48.4	-60.5	3.6	8.46e-01	0	31	104	0	60	38272
2026-01-05 17:13:04.66	21.94	0.88	-48.2	-60.3	3.6	8.45e-01	0	32	104	0	60	37408
2026-01-05 17:13:05.67	21.94	0.94	-48.1	-60.2	3.6	8.44e-01	0	32	104	0	60	36786
2026-01-05 17:13:06.68	21.93	1.00	-47.9	-60.0	3.6	8.46e-01	0	32	104	0	60	36148
2026-01-05 17:13:07.69	21.92	1.06	-47.7	-59.8	3.6	8.46e-01	0	32	104	0	60	35251
2026-01-05 17:13:08.70	21.91	1.13	-47.3	-59.4	3.6	8.46e-01	0	32	104	0	60	33826
2026-01-05 17:13:09.71	21.91	1.19	-47.3	-59.3	3.6	8.44e-01	0	32	104	0	60	33388
2026-01-05 17:13:10.72	21.90	1.25	-47.3	-59.3	3.6	8.45e-01	0	32	104	0	60	33264
2026-01-05 17:13:11.73	21.89	1.31	-47.2	-59.1	3.6	8.45e-01	0	32	104	0	60	32668
2026-01-05 17:13:12.74	21.88	1.38	-47.2	-59.1	3.6	8.45e-01	0	32	104	0	60	32506
2026-01-05 17:13:13.75	21.87	1.44	-47.2	-58.7	3.6	8.45e-01	0	32	104	0	60	31281
2026-01-05 17:13:14.76	21.86	1.50	-47.2	-58.9	3.6	8.46e-01	0	32	104	0	60	31876
2026-01-05 17:13:15.77	21.86	1.57	-47.2	-58.5	3.6	8.45e-01	0	32	104	0	60	30264
2026-01-05 17:13:16.78	21.85	1.63	-47.2	-58.4	3.6	8.45e-01	0	32	104	0	60	30124
2026-01-05 17:13:17.79	21.84	1.69	-47.2	-58.3	3.6	8.46e-01	0	32	104	0	60	29871
2026-01-05 17:13:18.80	21.83	1.76	-47.2	-58.8	3.6	8.46e-01	0	32	104	0	60	31316
2026-01-05 17:13:19.81	21.82	1.82	-47.2	-58.9	3.6	8.46e-01	0	32	104	0	60	31696
2026-01-05 17:13:20.82	21.81	1.88	-47.2	-59.1	3.6	8.46e-01	0	32	104	0	60	32491
2026-01-05 17:13:21.83	21.81	1.95	-47.2	-59.3	3.6	8.45e-01	0	32	104	0	60	33220
2026-01-05 17:13:22.84	21.80	2.01	-47.3	-59.3	3.6	8.45e-01	0	32	104	0	60	33328
2026-01-05 17:13:23.84	21.79	2.08	-47.3	-59.3	3.6	8.45e-01	0	32	104	0	60	33413
2026-01-05 17:13:24.85	21.78	2.14	-47.2	-59.2	3.6	8.45e-01	0	32	104	0	60	32998
2026-01-05 17:13:25.86	21.77	2.21	-47.2	-59.1	3.6	8.45e-01	0	32	104	0	60	32662
2026-01-05 17:13:26.87	21.76	2.27	-47.2	-58.9	3.6	8.44e-01	0	32	104	0	60	32029
2026-01-05 17:13:27.88	21.75	2.34	-47.2	-58.8	3.6	8.46e-01	0	32	104	0	60	31494
2026-01-05 17:13:28.89	21.74	2.40	-47.2	-58.4	3.6	8.45e-01	0	32	104	0	60	30235
2026-01-05 17:13:29.90	21.73	2.47	-47.1	-57.9	3.6	8.43e-01	0	32	104	0	60	28245
2026-01-05 17:13:30.91	21.73	2.53	-47.1	-57.4	3.6	8.45e-01	0	32	104	0	60	26741
2026-01-05 17:13:31.92	21.72	2.60	-47.0	-56.5	3.7	8.44e-01	0	32	104	0	60	24176
2026-01-05 17:13:32.93	21.71	2.66	-47.0	-56.3	3.9	8.41e-01	0	32	104	0	60	23529
2026-01-05 17:13:33.94	21.70	2.73	-47.0	-56.7	3.8	8.41e-01	0	32	104	0	60	24648
2026-01-05 17:13:34.95	21.69	2.79	-47.0	-57.0	3.7	8.43e-01	0	32	104	0	60	25577
2026-01-05 17:13:35.96	21.68	2.86	-47.1	-57.5	3.6	8.44e-01	0	32	104	0	60	27169
2026-01-05 17:13:36.97	21.67	2.93	-47.1	-57.4	3.6	8.44e-01	0	32	104	0	60	26910
2026-01-05 17:13:37.98	21.66	2.99	-46.9	-54.6	3.8	8.37e-01	0	32	0	0	60	19478
2026-01-05 17:13:38.99	21.65	3.06	-46.5	-52.2	5.1	7.86e-01	0	32	0	0	60	14781
2026-01-05 17:13:40.00	21.64	3.13	-45.7	-50.0	7.6	1.51e-01	0	32	0	4194304	60	11473
2026-01-05 17:13:41.01	21.63	3.19	-44.9	-48.4	9.5	2.56e-02	0	32	0	10485760	60	9491
2026-01-05 17:13:42.02	21.62	3.26	-44.1	-46.9	11.3	5.30e-03	0	32	0	15728640	60	8000
2026-01-05 17:13:43.03	21.61	3.33	-42.9	-45.1	13.3	1.41e-04	0	32	0	20971520	60	6500
2026-01-05 17:13:44.04	21.60	3.40	-42.5	-44.5	13.8	2.40e-05	0	32	0	27262976	58	6794
2026-01-05 17:13:45.05	21.59	3.46	-42.6	-44.6	13.7	2.40e-05	0	32	0	32505856	58	6894
2026-01-05 17:13:46.06	21.58	3.53	-42.3	-44.2	13.9	2.20e-06	0	32	0	38797312	58	6611
2026-01-05 17:13:47.07	21.57	3.60	-42.6	-44.7	13.5	1.37e-05	0	32	0	44040192	58	6938
2026-01-05 17:13:48.08	21.56	3.67	-42.9	-45.0	13.1	1.48e-05	0	32	0	50331648	58	7238
2026-01-05 17:13:49.09	21.55	3.74	-43.5	-46.0	12.0	3.51e-04	0	32	0	55574528	58	8094
2026-01-05 17:13:50.10	21.54	3.80	-44.1	-47.0	10.8	1.54e-03	0	32	0	60817408	60	8083
2026-01-05 17:13:51.10	21.53	3.87	-47.1	-57.1	3.6	8.37e-01	0	32	104	63963136	60	26024
2026-01-05 17:13:52.12	21.52	3.94	-44.8	-48.1	10.7	1.17e-02	0	32	0	63963136	60	9194
2026-01-05 17:13:53.13	21.51	4.01	-47.0	-57.7	3.6	8.44e-01	0	32	104	67108864	60	27782
2026-01-05 17:13:54.13	21.50	4.08	-35.9	-36.7	19.7	5.91e-01	0	32	104	67108864	46	5559
2026-01-05 17:13:55.14	21.49	4.15	-46.9	-55.5	4.1	6.77e-01	0	32	104	67108864	60	21644
2026-01-05 17:13:56.15	21.48	4.22	-36.3	-37.2	21.2	0.00e+00	0	32	0	69206016	46	5850
2026-01-05 17:13:57.16	21.46	4.29	-35.3	-36.1	22.2	0.00e+00	0	32	0	74448896	44	5808
2026-01-05 17:13:58.17	21.45	4.36	-35.3	-36.1	22.3	0.00e+00	0	32	0	80740352	44	5776
2026-01-05 17:13:59.18	21.44	4.43	-35.0	-35.8	22.6	0.00e+00	0	32	0	85983232	44	5591
2026-01-05 17:14:00.18	21.43	4.50	-35.4	-36.1	22.2	0.00e+00	0	32	0	91226112	44	5825
2026-01-05 17:14:01.19	21.42	4.57	-35.2	-35.9	22.5	0.00e+00	0	32	0	97517568	44	5689
2026-01-05 17:14:02.20	21.41	4.64	-35.0	-35.7	22.6	0.00e+00	0	32	0	102760448	44	5563
2026-01-05 17:14:03.21	21.40	4.71	-35.4	-36.2	22.2	0.00e+00	0	32	0	109051904	44	5858
2026-01-05 17:14:04.22	21.39	4.78	-35.4	-36.1	22.4	0.00e+00	0	32	0	114294784	44	5823
2026-01-05 17:14:05.23	21.38	4.85	-35.2	-36.0	22.5	0.00e+00	0	32	0	119537664	44	5707
2026-01-05 17:14:06.24	21.36	4.92	-35.1	-35.8	22.6	0.00e+00	0	32	0	125829120	44	5594
2026-01-05 17:14:07.25	21.35	4.99	-34.7	-35.5	22.9	0.00e+00	0	32	0	131072000	42	6059
2026-01-05 17:14:08.26	21.34	5.07	-34.9	-35.7	22.8	0.00e+00	0	32	0	137363456	42	6201
2026-01-05 17:14:09.27	21.33	5.14	-34.9	-35.7	22.8	0.00e+00	0	32	0	142606336	42	6197
2026-01-05 17:14:10.28	21.32	5.21	-34.9	-35.6	22.9	0.00e+00	0	32	0	147849216	42	6147
2026-01-05 17:14:11.29	21.30	5.28	-34.7	-35.4	23.1	0.00e+00	0	32	0	154140672	42	6025
2026-01-05 17:14:12.30	21.29	5.35	-34.7	-35.4	23.0	0.00e+00	0	32	0	159383552	42	6028
2026-01-05 17:14:13.31	21.28	5.43	-34.6	-35.4	23.1	0.00e+00	0	32	0	165675008	42	5972
2026-01-05 17:14:14.32	21.27	5.50	-34.5	-35.2	23.3	0.00e+00	0	32	0	170917888	42	5856
2026-01-05 17:14:15.33	21.26	5.57	-34.7	-35.5	23.2	0.00e+00	0	32	0	177209344	42	6064
2026-01-05 17:14:16.34	21.24	5.65	-34.8	-35.6	22.9	0.00e+00	0	32	0	182452224	42	6107
2026-01-05 17:14:17.35	21.23	5.72	-34.4	-35.1	23.5	0.00e+00	0	32	0	187695104	42	5777
2026-01-05 17:14:18.35	21.22	5.79	-34.6	-35.3	23.2	0.00e+00	0	32	0	193986560	42	5929
2026-01-05 17:14:19.36	21.21	5.87	-34.4	-35.1	23.4	0.00e+00	0	32	0	199229440	42	5818
2026-01-05 17:14:20.37	21.19	5.94	-34.5	-35.3	23.4	0.00e+00	0	32	0	205520896	42	5903
2026-01-05 17:14:21.38	21.18	6.02	-34.5	-35.2	23.3	0.00e+00	0	32	0	210763776	42	5846
2026-01-05 17:14:22.39	21.17	6.09	-34.2	-34.9	23.7	0.00e+00	0	32	0	216006656	42	5669
2026-01-05 17:14:23.40	21.15	6.16	-34.3	-35.0	23.6	0.00e+00	0	32	0	222298112	42	5739
2026-01-05 17:14:24.41	21.14	6.24	-34.4	-35.1	23.5	0.00e+00	0	32	0	227540992	42	5798
2026-01-05 17:14:25.42	21.13	6.31	-34.3	-35.0	23.5	0.00e+00	0	32	0	233832448	42	5742
2026-01-05 17:14:26.43	21.12	6.39	-34.3	-35.1	23.5	0.00e+00	0	32	0	239075328	42	5777
2026-01-05 17:14:27.44	21.10	6.47	-34.3	-35.0	23.6	0.00e+00	0	32	0	244318208	42	5713
2026-01-05 17:14:28.45	21.09	6.54	-34.3	-35.0	23.6	0.00e+00	0	32	0	250609664	42	5734
2026-01-05 17:14:29.46	21.07	6.62	-34.3	-35.0	23.5	0.00e+00	0	32	0	255852544	42	5741
2026-01-05 17:14:30.47	21.06	6.69	-34.2	-34.9	23.7	0.00e+00	0	32	0	262144000	42	5688
2026-01-05 17:14:31.48	21.05	6.77	-34.3	-35.0	23.6	0.00e+00	0	32	0	267386880	42	5713
2026-01-05 17:14:32.49	21.03	6.85	-34.2	-34.9	23.7	0.00e+00	0	32	0	273678336	42	5667
2026-01-05 17:14:33.50	21.02	6.92	-34.1	-34.8	23.8	0.00e+00	0	32	0	278921216	42	5612
2026-01-05 17:14:34.51	21.01	7.00	-34.1	-34.8	23.8	0.00e+00	0	32	0	285212672	42	5585
2026-01-05 17:14:35.52	20.99	7.08	-34.2	-34.9	23.7	0.00e+00	0	32	0	290455552	42	5684
2026-01-05 17:14:36.52	20.98	7.16	-34.1	-34.8	23.8	0.00e+00	0	32	0	295698432	42	5616
2026-01-05 17:14:37.53	20.96	7.23	-34.0	-34.7	23.9	0.00e+00	0	32	0	301989888	42	5517
2026-01-05 17:14:38.54	20.95	7.31	-34.0	-34.7	23.9	0.00e+00	0	32	0	307232768	42	5541
2026-01-05 17:14:39.55	20.93	7.39	-34.0	-34.7	24.0	0.00e+00	0	32	0	313524224	42	5509
2026-01-05 17:14:40.56	20.92	7.47	-34.0	-34.7	24.0	0.00e+00	0	32	0	318767104	42	5515
2026-01-05 17:14:41.57	20.91	7.55	-33.8	-34.5	24.1	0.00e+00	0	32	0	324009984	42	5419
2026-01-05 17:14:42.58	20.89	7.63	-33.9	-34.6	24.1	0.00e+00	0	32	0	330301440	42	5461
2026-01-05 17:14:43.59	20.88	7.71	-33.8	-34.5	24.2	0.00e+00	0	32	0	335544320	42	5419
2026-01-05 17:14:44.60	20.86	7.79	-33.7	-34.5	24.2	0.00e+00	0	32	0	340787200	40	6035
2026-01-05 17:14:45.61	20.85	7.87	-33.8	-34.5	24.2	0.00e+00	0	32	0	347078656	40	6047
2026-01-05 17:14:46.62	20.83	7.95	-33.9	-34.6	24.1	0.00e+00	0	32	0	352321536	40	6107
2026-01-05 17:14:47.63	20.81	8.03	-33.8	-34.5	24.2	0.00e+00	0	32	0	358612992	40	6102
2026-01-05 17:14:48.64	20.80	8.11	-34.0	-34.7	24.0	0.00e+00	0	32	0	363855872	40	6207
2026-01-05 17:14:49.64	20.78	8.19	-33.7	-34.4	24.3	0.00e+00	0	32	0	370147328	40	5978
2026-01-05 17:14:50.66	20.77	8.27	-33.8	-34.5	24.2	0.00e+00	0	32	0	375390208	40	6060
2026-01-05 17:14:51.67	20.75	8.35	-33.7	-34.4	24.3	0.00e+00	0	32	0	381681664	40	5991
2026-01-05 17:14:52.67	20.74	8.43	-33.8	-34.5	24.4	0.00e+00	0	32	0	386924544	40	6052
2026-01-05 17:14:53.68	20.72	8.51	-33.7	-34.4	24.4	0.00e+00	0	32	0	392167424	40	5966
2026-01-05 17:14:54.69	20.70	8.59	-33.7	-34.4	24.3	0.00e+00	0	32	0	398458880	40	6014
2026-01-05 17:14:55.70	20.69	8.68	-33.6	-34.3	24.4	0.00e+00	0	32	0	403701760	40	5931
2026-01-05 17:14:56.71	20.67	8.76	-33.5	-34.2	24.5	0.00e+00	0	32	0	409993216	40	5877
2026-01-05 17:14:57.72	20.66	8.84	-33.5	-34.2	24.5	0.00e+00	0	32	0	415236096	40	5832
2026-01-05 17:14:58.73	20.64	8.93	-33.4	-34.1	24.6	0.00e+00	0	32	0	420478976	40	5807
2026-01-05 17:14:59.74	20.62	9.01	-33.4	-34.1	24.6	0.00e+00	0	32	0	426770432	40	5796
2026-01-05 17:15:00.75	20.61	9.09	-33.5	-34.2	24.5	0.00e+00	0	32	0	432013312	40	5889
2026-01-05 17:15:01.76	20.59	9.18	-33.3	-34.0	24.6	0.00e+00	0	32	0	438304768	40	5742
2026-01-05 17:15:02.77	20.57	9.26	-33.4	-34.1	24.6	0.00e+00	0	32	0	443547648	40	5786
2026-01-05 17:15:03.78	20.55	9.35	-33.3	-34.0	24.8	0.00e+00	0	32	0	448790528	40	5737
2026-01-05 17:15:04.78	20.54	9.43	-33.3	-34.0	24.6	0.00e+00	0	32	0	455081984	40	5717
2026-01-05 17:15:05.79	20.52	9.52	-33.4	-34.1	24.6	0.00e+00	0	32	0	460324864	40	5813
2026-01-05 17:15:06.80	20.50	9.60	-33.2	-33.9	24.7	0.00e+00	0	32	0	466616320	40	5690
2026-01-05 17:15:07.81	20.48	9.69	-33.2	-33.9	24.6	0.00e+00	0	32	0	471859200	40	5676
2026-01-05 17:15:08.83	20.47	9.77	-33.4	-34.1	24.8	0.00e+00	0	32	0	478150656	40	5775
2026-01-05 17:15:09.84	20.45	9.86	-33.2	-33.9	24.8	0.00e+00	0	32	0	483393536	40	5648
2026-01-05 17:15:10.85	20.43	9.95	-33.2	-33.9	24.7	0.00e+00	0	32	0	488636416	40	5685
2026-01-05 17:15:11.86	20.41	10.03	-33.2	-33.9	24.8	0.00e+00	0	32	0	494927872	40	5672
2026-01-05 17:15:12.87	20.39	10.12	-33.3	-33.9	24.7	0.00e+00	0	33	0	500170752	40	5692
2026-01-05 17:15:13.88	20.38	10.21	-33.1	-33.8	24.8	0.00e+00	0	32	0	506462208	40	5615
2026-01-05 17:15:14.89	20.36	10.30	-33.4	-34.1	24.8	0.00e+00	0	32	0	511705088	40	5815
2026-01-05 17:15:15.90	20.34	10.38	-33.0	-33.7	25.0	0.00e+00	0	32	0	516947968	40	5548
2026-01-05 17:15:16.91	20.32	10.47	-33.2	-33.9	24.7	0.00e+00	0	32	0	523239424	40	5678
2026-01-05 17:15:17.92	20.30	10.56	-33.0	-33.7	24.9	0.00e+00	0	32	0	528482304	40	5550
2026-01-05 17:15:18.92	20.28	10.65	-33.0	-33.7	24.8	0.00e+00	0	33	0	534773760	40	5528
2026-01-05 17:15:19.93	20.26	10.74	-33.1	-33.7	24.9	0.00e+00	0	32	0	540016640	40	5561
2026-01-05 17:15:20.94	20.24	10.83	-33.0	-33.7	25.0	0.00e+00	0	33	0	545259520	40	5506
2026-01-05 17:15:21.95	20.22	10.92	-33.0	-33.6	25.1	0.00e+00	0	32	0	551550976	40	5495
2026-01-05 17:15:22.96	20.20	11.01	-32.9	-33.6	25.0	0.00e+00	0	32	0	556793856	40	5463
2026-01-05 17:15:23.97	20.18	11.10	-32.9	-33.5	25.0	0.00e+00	0	32	0	563085312	40	5436
2026-01-05 17:15:24.98	20.16	11.19	-32.8	-33.5	25.2	0.00e+00	0	33	0	568328192	40	5394
2026-01-05 17:15:25.99	20.14	11.28	-32.9	-33.5	25.2	0.00e+00	0	33	0	574619648	40	5434
2026-01-05 17:15:27.00	20.12	11.37	-32.8	-33.5	25.2	0.00e+00	0	33	0	579862528	40	5420
2026-01-05 17:15:28.01	20.10	11.47	-32.8	-33.5	25.2	0.00e+00	0	33	0	586153984	40	5381
2026-01-05 17:15:29.02	20.08	11.56	-32.8	-33.5	25.2	0.00e+00	0	33	0	591396864	40	5399
2026-01-05 17:15:30.02	20.06	11.65	-32.8	-33.5	25.3	0.00e+00	0	33	0	596639744	40	5397
2026-01-05 17:15:31.04	20.04	11.75	-32.8	-33.5	25.3	0.00e+00	0	33	0	602931200	38	6041
2026-01-05 17:15:32.04	20.02	11.84	-32.8	-33.5	25.3	0.00e+00	0	32	0	608174080	38	6069
2026-01-05 17:15:33.05	20.00	11.93	-32.8	-33.4	25.3	0.00e+00	0	32	0	614465536	38	6020
2026-01-05 17:15:34.06	19.98	12.03	-32.8	-33.4	25.3	0.00e+00	0	32	0	619708416	38	6032
2026-01-05 17:15:35.07	19.95	12.12	-32.7	-33.3	25.3	0.00e+00	0	33	0	624951296	38	5963
2026-01-05 17:15:36.08	19.93	12.22	-32.7	-33.4	25.4	0.00e+00	0	32	0	631242752	38	5970
2026-01-05 17:15:37.09	19.91	12.31	-32.7	-33.4	25.5	0.00e+00	0	32	0	636485632	38	5977
2026-01-05 17:15:38.10	19.89	12.41	-32.7	-33.3	25.4	0.00e+00	0	32	0	641728512	38	5963
2026-01-05 17:15:39.10	19.87	12.50	-32.7	-33.4	25.2	0.00e+00	0	32	0	648019968	38	6013
2026-01-05 17:15:40.12	19.84	12.60	-32.8	-33.4	25.3	0.00e+00	0	33	0	653262848	38	6027
2026-01-05 17:15:41.13	19.82	12.70	-32.8	-33.4	25.4	0.00e+00	0	33	0	659554304	38	6005
2026-01-05 17:15:42.13	19.80	12.79	-32.7	-33.4	25.4	0.00e+00	0	32	0	664797184	38	5995
2026-01-05 17:15:43.14	19.77	12.89	-32.7	-33.3	25.4	0.00e+00	0	32	0	671088640	38	5957
2026-01-05 17:15:44.15	19.75	12.99	-32.7	-33.4	25.4	0.00e+00	0	32	0	676331520	38	5991
2026-01-05 17:15:45.16	19.73	13.09	-32.7	-33.3	25.4	0.00e+00	0	32	0	682622976	38	5963
2026-01-05 17:15:46.17	19.70	13.18	-32.7	-33.3	25.5	0.00e+00	0	32	0	687865856	38	5961
2026-01-05 17:15:47.18	19.68	13.28	-32.6	-33.3	25.5	0.00e+00	0	33	0	693108736	38	5898
2026-01-05 17:15:48.19	19.66	13.38	-32.6	-33.3	25.5	0.00e+00	0	32	0	699400192	38	5927
2026-01-05 17:15:49.20	19.63	13.48	-32.7	-33.4	25.4	0.00e+00	0	32	0	704643072	38	5968
2026-01-05 17:15:50.21	19.61	13.58	-32.8	-33.5	25.3	0.00e+00	0	33	0	710934528	38	6052
2026-01-05 17:15:51.22	19.58	13.68	-32.7	-33.4	25.4	0.00e+00	0	33	0	716177408	38	6000
2026-01-05 17:15:52.22	19.56	13.78	-32.6	-33.3	25.5	0.00e+00	0	33	0	721420288	38	5926
2026-01-05 17:15:53.23	19.53	13.89	-32.7	-33.3	25.5	0.00e+00	0	32	0	727711744	38	5952
2026-01-05 17:15:54.24	19.51	13.99	-32.7	-33.4	25.4	0.00e+00	0	33	0	732954624	38	5977
2026-01-05 17:15:55.25	19.48	14.09	-32.5	-33.3	25.6	0.00e+00	0	32	0	739246080	38	5898
2026-01-05 17:15:56.26	19.46	14.19	-32.6	-33.2	25.5	0.00e+00	0	33	0	744488960	38	5885
2026-01-05 17:15:57.27	19.43	14.30	-32.6	-33.3	25.6	0.00e+00	0	32	0	749731840	38	5900
2026-01-05 17:15:58.28	19.41	14.40	-32.5	-33.2	25.4	0.00e+00	0	32	0	756023296	38	5866
2026-01-05 17:15:59.29	19.38	14.50	-32.6	-33.3	25.5	0.00e+00	0	32	0	761266176	38	5908
2026-01-05 17:16:00.30	19.35	14.61	-32.5	-33.1	25.6	0.00e+00	0	33	0	767557632	38	5808
2026-01-05 17:16:01.31	19.33	14.71	-32.5	-33.2	25.7	0.00e+00	0	32	0	772800512	38	5832
2026-01-05 17:16:02.32	19.30	14.82	-32.5	-33.2	25.6	0.00e+00	0	33	0	779091968	38	5844
2026-01-05 17:16:03.33	19.27	14.92	-32.4	-33.1	25.7	0.00e+00	0	33	0	784334848	38	5791
2026-01-05 17:16:04.34	19.25	15.03	-32.6	-33.3	25.6	0.00e+00	0	33	0	789577728	38	5921
2026-01-05 17:16:05.35	19.22	15.14	-32.3	-32.9	25.9	0.00e+00	0	33	0	795869184	38	5674
2026-01-05 17:16:06.36	19.19	15.25	-32.2	-32.9	26.0	0.00e+00	0	32	0	801112064	38	5655
2026-01-05 17:16:07.37	19.16	15.35	-32.2	-32.8	26.0	0.00e+00	0	33	0	807403520	38	5613
2026-01-05 17:16:08.38	19.14	15.46	-32.1	-32.8	25.9	0.00e+00	0	32	0	812646400	38	5576
2026-01-05 17:16:09.39	19.11	15.57	-32.1	-32.8	26.1	0.00e+00	0	32	0	817889280	38	5585
2026-01-05 17:16:10.40	19.08	15.68	-32.0	-32.7	26.1	0.00e+00	0	33	0	824180736	38	5512
2026-01-05 17:16:11.41	19.05	15.79	-32.0	-32.6	26.2	0.00e+00	0	32	0	829423616	38	5484
2026-01-05 17:16:12.42	19.02	15.90	-31.8	-32.5	26.2	0.00e+00	0	32	0	835715072	38	5418
2026-01-05 17:16:13.43	18.99	16.01	-31.9	-32.5	26.2	0.00e+00	0	32	0	840957952	38	5439
2026-01-05 17:16:14.44	18.96	16.12	-31.7	-32.3	26.4	0.00e+00	0	32	0	846200832	36	5954
2026-01-05 17:16:15.45	18.93	16.23	-31.6	-32.2	26.5	0.00e+00	0	32	0	852492288	36	5866
2026-01-05 17:16:16.46	18.90	16.34	-31.5	-32.2	26.6	0.00e+00	0	32	0	857735168	36	5842
2026-01-05 17:16:17.47	18.87	16.46	-31.5	-32.1	26.4	0.00e+00	0	32	0	864026624	36	5817
2026-01-05 17:16:18.48	18.84	16.57	-31.4	-32.1	26.6	0.00e+00	0	33	0	869269504	36	5777
2026-01-05 17:16:19.49	18.81	16.68	-31.4	-32.1	26.6	0.00e+00	0	32	0	875560960	36	5767
2026-01-05 17:16:20.50	18.78	16.80	-31.4	-32.0	26.6	0.00e+00	0	33	0	880803840	36	5722
2026-01-05 17:16:21.51	18.75	16.91	-31.4	-32.0	26.6	0.00e+00	0	32	0	887095296	36	5746
2026-01-05 17:16:22.52	18.72	17.03	-31.3	-31.9	26.7	0.00e+00	0	33	0	892338176	36	5676
2026-01-05 17:16:23.53	18.68	17.14	-31.2	-31.8	26.8	0.00e+00	0	33	0	897581056	36	5622
2026-01-05 17:16:24.53	18.65	17.26	-31.2	-31.8	26.8	0.00e+00	0	33	0	903872512	36	5623
2026-01-05 17:16:25.54	18.62	17.38	-31.2	-31.9	26.8	0.00e+00	0	32	0	909115392	36	5632
2026-01-05 17:16:26.55	18.59	17.49	-31.3	-31.9	26.9	0.00e+00	0	32	0	914358272	36	5649
2026-01-05 17:16:27.56	18.55	17.61	-31.1	-31.7	26.9	0.00e+00	0	32	0	920649728	36	5520
2026-01-05 17:16:28.57	18.52	17.73	-31.1	-31.7	26.9	0.00e+00	0	32	0	925892608	36	5556
2026-01-05 17:16:29.57	18.49	17.85	-31.1	-31.7	26.9	0.00e+00	0	32	0	932184064	36	5546
2026-01-05 17:16:30.58	18.45	17.97	-31.0	-31.6	27.0	0.00e+00	0	32	0	937426944	36	5449
2026-01-05 17:16:31.59	18.42	18.09	-30.8	-31.5	27.1	0.00e+00	0	32	0	942669824	36	5380
2026-01-05 17:16:32.60	18.38	18.21	-30.7	-31.4	27.2	0.00e+00	0	33	0	948961280	36	5323
2026-01-05 17:16:33.61	18.35	18.33	-30.7	-31.3	27.2	0.00e+00	0	33	0	954204160	34	5929
2026-01-05 17:16:34.62	18.31	18.45	-30.6	-31.2	27.2	0.00e+00	0	33	0	960495616	34	5869
2026-01-05 17:16:35.63	18.28	18.58	-30.7	-31.3	27.2	0.00e+00	0	33	0	965738496	34	5926
2026-01-05 17:16:36.64	18.24	18.70	-30.7	-31.3	27.3	0.00e+00	0	33	0	972029952	34	5911
2026-01-05 17:16:37.65	18.21	18.82	-30.6	-31.2	27.3	0.00e+00	0	33	0	977272832	34	5890
2026-01-05 17:16:38.66	18.17	18.95	-30.5	-31.1	27.5	0.00e+00	0	33	0	983564288	34	5803
2026-01-05 17:16:39.67	18.13	19.07	-30.7	-31.3	27.3	0.00e+00	0	33	0	988807168	34	5920
2026-01-05 17:16:40.68	18.09	19.20	-30.8	-31.4	27.3	0.00e+00	0	33	0	994050048	34	5979
2026-01-05 17:16:41.69	18.06	19.32	-30.5	-31.1	27.4	0.00e+00	0	33	0	1000341504	34	5774
2026-01-05 17:16:42.70	18.02	19.45	-30.7	-31.3	27.3	0.00e+00	0	33	0	1005584384	34	5916
2026-01-05 17:16:43.71	17.98	19.58	-30.6	-31.2	27.4	0.00e+00	0	33	0	1011875840	34	5855
2026-01-05 17:16:44.72	17.94	19.71	-30.6	-31.3	27.3	0.00e+00	0	32	0	1017118720	34	5912
2026-01-05 17:16:45.73	17.90	19.84	-30.7	-31.4	27.2	0.00e+00	0	33	0	1022361600	34	5966
2026-01-05 17:16:46.74	17.86	19.97	-30.7	-31.4	27.2	0.00e+00	0	33	0	1028653056	34	5979
2026-01-05 17:16:47.75	17.82	20.10	-30.8	-31.5	27.2	0.00e+00	0	32	0	1033895936	34	6040
2026-01-05 17:16:48.75	17.78	20.23	-30.8	-31.5	27.2	0.00e+00	0	33	0	1040187392	34	6045
2026-01-05 17:16:49.76	17.74	20.36	-30.8	-31.5	27.2	0.00e+00	0	33	0	1045430272	34	6037
2026-01-05 17:16:50.77	17.70	20.49	-30.7	-31.4	27.2	0.00e+00	0	33	0	1050673152	34	5993
2026-01-05 17:16:51.78	17.66	20.62	-30.7	-31.4	27.2	0.00e+00	0	33	0	1056964608	34	5966
2026-01-05 17:16:52.79	17.62	20.76	-30.9	-31.5	27.1	0.00e+00	0	33	0	1062207488	34	6077
2026-01-05 17:16:53.80	17.58	20.89	-30.8	-31.4	27.2	0.00e+00	0	33	0	1068498944	34	6033
2026-01-05 17:16:54.81	17.54	21.02	-30.7	-31.4	27.2	0.00e+00	0	33	0	1073741824	34	5981
2026-01-05 17:16:55.82	17.49	21.16	-30.7	-31.4	27.2	0.00e+00	0	33	0	1080033280	34	5969
2026-01-05 17:16:56.83	17.45	21.30	-30.7	-31.3	27.2	0.00e+00	0	33	0	1085276160	34	5939
2026-01-05 17:16:57.84	17.41	21.43	-30.9	-31.5	27.2	0.00e+00	0	32	0	1090519040	34	6061
2026-01-05 17:16:58.85	17.36	21.57	-30.7	-31.3	27.3	0.00e+00	0	32	0	1096810496	34	5939
2026-01-05 17:16:59.86	17.32	21.71	-30.5	-31.2	27.4	0.00e+00	0	32	0	1102053376	34	5848
2026-01-05 17:17:00.87	17.27	21.85	-30.7	-31.3	27.3	0.00e+00	0	33	0	1108344832	34	5933
2026-01-05 17:17:01.88	17.23	21.99	-30.2	-30.9	27.6	0.00e+00	0	32	0	1113587712	34	5635
2026-01-05 17:17:02.89	17.18	22.13	-30.1	-30.7	27.7	0.00e+00	0	33	0	1118830592	34	5546
2026-01-05 17:17:03.90	17.14	22.27	-30.2	-30.8	27.7	0.00e+00	0	33	0	1125122048	34	5579
2026-01-05 17:17:04.91	17.09	22.42	-30.0	-30.6	27.8	0.00e+00	0	33	0	1130364928	34	5494
2026-01-05 17:17:05.92	17.04	22.56	-30.1	-30.7	27.8	0.00e+00	0	33	0	1136656384	34	5539
2026-01-05 17:17:06.93	16.99	22.70	-30.0	-30.6	27.9	0.00e+00	0	33	0	1141899264	34	5447
2026-01-05 17:17:07.93	16.95	22.85	-29.9	-30.5	27.9	0.00e+00	0	33	0	1147142144	34	5413
2026-01-05 17:17:08.95	16.90	22.99	-29.8	-30.4	28.1	0.00e+00	0	33	0	1153433600	34	5343
2026-01-05 17:17:09.95	16.85	23.14	-29.8	-30.4	28.0	0.00e+00	0	33	0	1158676480	32	6012
2026-01-05 17:17:10.97	16.80	23.29	-29.9	-30.5	27.9	0.00e+00	0	33	0	1164967936	32	6040
2026-01-05 17:17:11.98	16.75	23.43	-29.7	-30.3	28.1	0.00e+00	0	33	0	1170210816	32	5941
2026-01-05 17:17:12.99	16.70	23.58	-29.7	-30.3	28.1	0.00e+00	0	33	0	1176502272	32	5913
2026-01-05 17:17:13.99	16.65	23.73	-29.9	-30.5	28.0	0.00e+00	0	33	0	1181745152	32	6040
2026-01-05 17:17:15.01	16.59	23.88	-29.7	-30.4	28.1	0.00e+00	0	33	0	1188036608	32	5971
2026-01-05 17:17:16.01	16.54	24.03	-29.8	-30.4	28.1	0.00e+00	0	32	0	1193279488	32	6001
2026-01-05 17:17:17.02	16.49	24.18	-30.0	-30.6	27.9	0.00e+00	0	33	0	1198522368	32	6122
2026-01-05 17:17:18.03	16.44	24.34	-29.8	-30.4	28.0	0.00e+00	0	33	0	1204813824	32	6006
2026-01-05 17:17:19.04	16.38	24.49	-29.9	-30.5	28.0	0.00e+00	0	32	0	1210056704	32	6048
2026-01-05 17:17:20.05	16.33	24.65	-30.0	-30.6	27.9	0.00e+00	0	32	0	1215299584	32	6108
2026-01-05 17:17:21.06	16.27	24.80	-30.0	-30.6	27.9	0.00e+00	0	33	0	1221591040	32	6162
2026-01-05 17:17:22.07	16.22	24.96	-29.9	-30.5	27.9	0.00e+00	0	32	0	1226833920	32	6097
2026-01-05 17:17:23.08	16.16	25.12	-30.0	-30.5	27.9	0.00e+00	0	32	0	1233125376	32	6090
2026-01-05 17:17:24.08	16.11	25.27	-30.1	-30.7	27.8	0.00e+00	0	33	0	1238368256	32	6224
2026-01-05 17:17:25.09	16.05	25.43	-29.9	-30.5	27.9	0.00e+00	0	33	0	1243611136	32	6037
2026-01-05 17:17:26.10	15.99	25.59	-29.9	-30.5	28.0	0.00e+00	0	33	0	1249902592	32	6088
2026-01-05 17:17:27.11	15.93	25.75	-29.8	-30.5	28.1	0.00e+00	0	32	0	1255145472	32	6047
2026-01-05 17:17:28.12	15.87	25.92	-29.7	-30.3	28.2	0.00e+00	0	33	0	1261436928	32	5927
2026-01-05 17:17:29.13	15.81	26.08	-29.7	-30.3	28.2	0.00e+00	0	33	0	1266679808	32	5921
2026-01-05 17:17:30.14	15.75	26.24	-29.7	-30.3	28.2	0.00e+00	0	33	0	1272971264	32	5924
2026-01-05 17:17:31.15	15.69	26.41	-29.6	-30.2	28.2	0.00e+00	0	33	0	1278214144	32	5852
2026-01-05 17:17:32.16	15.63	26.57	-29.7	-30.3	28.2	0.00e+00	0	33	0	1284505600	32	5907
2026-01-05 17:17:33.17	15.57	26.74	-29.5	-30.1	28.2	0.00e+00	0	33	0	1289748480	32	5793
2026-01-05 17:17:34.18	15.50	26.91	-29.6	-30.2	28.2	0.00e+00	0	33	0	1294991360	32	5861
2026-01-05 17:17:35.19	15.44	27.08	-29.6	-30.2	28.2	0.00e+00	0	33	0	1301282816	32	5838
2026-01-05 17:17:36.20	15.37	27.25	-29.6	-30.2	28.2	0.00e+00	0	33	0	1306525696	32	5857
2026-01-05 17:17:37.21	15.31	27.42	-29.7	-30.3	28.2	0.00e+00	0	33	0	1312817152	32	5922
2026-01-05 17:17:38.22	15.24	27.59	-29.7	-30.2	28.2	0.00e+00	0	32	0	1318060032	32	5889
2026-01-05 17:17:39.23	15.17	27.76	-29.6	-30.2	28.2	0.00e+00	0	33	0	1323302912	32	5849
2026-01-05 17:17:40.24	15.11	27.94	-29.6	-30.2	28.2	0.00e+00	0	33	0	1329594368	32	5852
2026-01-05 17:17:41.25	15.04	28.11	-29.6	-30.3	28.2	0.00e+00	0	33	0	1334837248	32	5905
2026-01-05 17:17:42.26	14.97	28.29	-29.8	-30.4	28.1	0.00e+00	0	33	0	1341128704	32	5978
2026-01-05 17:17:43.27	14.90	28.47	-29.7	-30.3	28.2	0.00e+00	0	33	0	1346371584	32	5907
2026-01-05 17:17:44.28	14.83	28.65	-29.9	-30.5	28.0	0.00e+00	0	33	0	1351614464	32	6083
2026-01-05 17:17:45.29	14.75	28.83	-29.7	-30.3	28.1	0.00e+00	0	33	0	1357905920	32	5952
2026-01-05 17:17:46.30	14.68	29.01	-29.8	-30.4	28.1	0.00e+00	0	33	0	1363148800	32	5983
2026-01-05 17:17:47.31	14.61	29.19	-29.6	-30.2	28.2	0.00e+00	0	33	0	1369440256	32	5858
2026-01-05 17:17:48.33	14.53	29.37	-29.6	-30.3	28.2	0.00e+00	0	33	0	1374683136	32	5935
2026-01-05 17:17:49.33	14.46	29.56	-29.6	-30.2	28.2	0.00e+00	0	33	0	1380974592	32	5885
2026-01-05 17:17:50.34	14.38	29.74	-29.7	-30.4	28.2	0.00e+00	0	33	0	1386217472	32	5987
2026-01-05 17:17:51.35	14.30	29.93	-29.6	-30.2	28.2	0.00e+00	0	33	0	1392508928	32	5870
2026-01-05 17:17:52.36	14.23	30.11	-29.6	-30.3	28.2	0.00e+00	0	33	0	1397751808	32	5905
2026-01-05 17:17:53.37	14.15	30.30	-29.6	-30.2	28.3	0.00e+00	0	32	0	1402994688	32	5848
2026-01-05 17:17:54.38	14.07	30.49	-29.5	-30.1	28.3	0.00e+00	0	33	0	1409286144	32	5787
2026-01-05 17:17:55.39	13.99	30.68	-29.5	-30.2	28.3	0.00e+00	0	33	0	1414529024	32	5832
2026-01-05 17:17:56.40	13.90	30.88	-29.5	-30.1	28.2	0.00e+00	0	33	0	1419771904	32	5819
2026-01-05 17:17:57.41	13.82	31.07	-29.4	-30.1	28.3	0.00e+00	0	32	0	1426063360	32	5768
2026-01-05 17:17:58.42	13.74	31.26	-29.2	-29.8	28.6	0.00e+00	0	32	0	1431306240	32	5610
2026-01-05 17:17:59.43	13.65	31.46	-29.2	-29.8	28.5	0.00e+00	0	33	0	1437597696	32	5625
2026-01-05 17:18:00.44	13.56	31.66	-29.3	-30.0	28.3	0.00e+00	0	33	0	1442840576	32	5697
2026-01-05 17:18:01.45	13.48	31.86	-29.2	-29.8	28.5	0.00e+00	0	33	0	1448083456	32	5587
2026-01-05 17:18:02.46	13.39	32.06	-29.4	-30.0	28.4	0.00e+00	0	33	0	1454374912	32	5702
2026-01-05 17:18:03.47	13.30	32.26	-29.2	-29.8	28.5	0.00e+00	0	33	0	1459617792	32	5618
2026-01-05 17:18:04.48	13.21	32.46	-29.1	-29.7	28.6	0.00e+00	0	33	0	1465909248	32	5561
2026-01-05 17:18:05.49	13.11	32.66	-29.0	-29.6	28.7	0.00e+00	0	33	0	1471152128	32	5501
2026-01-05 17:18:06.50	13.02	32.87	-29.1	-29.7	28.6	0.00e+00	0	33	0	1477443584	32	5558
2026-01-05 17:18:07.51	12.93	33.07	-28.8	-29.4	28.8	0.00e+00	0	32	0	1482686464	32	5327
2026-01-05 17:18:08.52	12.83	33.28	-29.0	-29.5	28.7	0.00e+00	0	33	0	1488977920	32	5429
2026-01-05 17:18:09.53	12.73	33.49	-28.7	-29.3	28.9	0.00e+00	0	33	0	1494220800	30	5925
2026-01-05 17:18:10.54	12.63	33.70	-28.8	-29.4	28.9	0.00e+00	0	32	0	1499463680	30	6009
2026-01-05 17:18:11.55	12.53	33.91	-28.8	-29.4	28.9	0.00e+00	0	33	0	1505755136	30	6022
2026-01-05 17:18:12.56	12.43	34.12	-29.0	-29.5	28.7	0.00e+00	0	32	0	1510998016	30	6097
2026-01-05 17:18:13.57	12.33	34.34	-29.1	-29.7	28.6	0.00e+00	0	32	0	1517289472	30	6194
2026-01-05 17:18:14.57	12.23	34.55	-29.0	-29.6	28.7	0.00e+00	0	33	0	1522532352	30	6135
2026-01-05 17:18:15.58	12.12	34.77	-28.8	-29.4	28.8	0.00e+00	0	32	0	1527775232	30	5993
2026-01-05 17:18:16.59	12.02	34.99	-28.7	-29.3	29.0	0.00e+00	0	32	0	1534066688	30	5945
2026-01-05 17:18:17.60	11.91	35.21	-28.6	-29.1	29.1	0.00e+00	0	32	0	1539309568	30	5828
2026-01-05 17:18:18.61	11.80	35.43	-28.5	-29.1	29.0	0.00e+00	0	33	0	1545601024	30	5764
2026-01-05 17:18:19.62	11.69	35.65	-28.3	-28.8	29.1	0.00e+00	0	32	0	1550843904	30	5625
2026-01-05 17:18:20.63	11.57	35.87	-28.4	-29.0	29.1	0.00e+00	0	33	0	1556086784	30	5727
2026-01-05 17:18:21.64	11.46	36.10	-28.4	-28.9	29.2	0.00e+00	0	32	0	1562378240	30	5684
2026-01-05 17:18:22.65	11.34	36.33	-28.4	-29.0	29.1	0.00e+00	0	33	0	1567621120	30	5710
2026-01-05 17:18:23.66	11.22	36.56	-28.5	-29.1	29.0	0.00e+00	0	32	0	1573912576	30	5803
2026-01-05 17:18:24.67	11.10	36.79	-28.7	-29.3	28.8	0.00e+00	0	33	0	1579155456	30	5952
2026-01-05 17:18:25.68	10.98	37.02	-28.8	-29.4	28.8	0.00e+00	0	32	0	1585446912	30	6031
2026-01-05 17:18:26.69	10.86	37.25	-29.0	-29.6	28.7	0.00e+00	0	32	0	1590689792	30	6153
2026-01-05 17:18:27.69	10.74	37.48	-29.0	-29.6	28.7	0.00e+00	0	33	0	1595932672	30	6137
2026-01-05 17:18:28.70	10.61	37.72	-29.0	-29.6	28.7	0.00e+00	0	32	0	1602224128	30	6172
2026-01-05 17:18:29.72	10.48	37.96	-29.0	-29.6	28.6	0.00e+00	0	33	0	1607467008	30	6168
2026-01-05 17:18:30.72	10.35	38.19	-28.7	-29.3	28.9	0.00e+00	0	33	0	1613758464	30	5956
2026-01-05 17:18:31.73	10.22	38.43	-28.8	-29.4	28.8	0.00e+00	0	33	0	1619001344	30	6012
2026-01-05 17:18:32.74	10.08	38.68	-28.8	-29.4	28.8	0.00e+00	0	32	0	1624244224	30	6008
2026-01-05 17:18:33.75	9.94	38.92	-29.2	-29.8	28.5	0.00e+00	0	32	0	1630535680	30	6285
2026-01-05 17:18:34.76	9.80	39.16	-29.1	-29.7	28.6	0.00e+00	0	32	0	1635778560	30	6211
2026-01-05 17:18:35.77	9.66	39.41	-29.3	-29.9	28.5	0.00e+00	0	32	0	1642070016	30	6322
2026-01-05 17:18:36.78	9.52	39.66	-29.2	-29.8	28.5	0.00e+00	0	32	0	1647312896	30	6301
2026-01-05 17:18:37.79	9.37	39.91	-29.2	-29.8	28.7	0.00e+00	0	32	0	1652555776	30	6249
2026-01-05 17:18:38.80	9.23	40.16	-29.2	-29.8	28.5	0.00e+00	0	33	0	1658847232	30	6312
2026-01-05 17:18:39.81	9.08	40.41	-29.2	-29.8	28.6	0.00e+00	0	32	0	1664090112	30	6263
2026-01-05 17:18:40.82	8.92	40.67	-29.2	-29.8	28.6	0.00e+00	0	33	0	1670381568	30	6287
2026-01-05 17:18:41.83	8.77	40.92	-29.1	-29.7	28.6	0.00e+00	0	33	0	1675624448	30	6182
2026-01-05 17:18:42.84	8.61	41.18	-29.3	-29.9	28.5	0.00e+00	0	32	0	1681915904	30	6322
2026-01-05 17:18:43.85	8.45	41.44	-29.4	-30.0	28.4	0.00e+00	0	32	0	1687158784	30	6438
2026-01-05 17:18:44.86	8.29	41.70	-29.5	-30.1	28.4	0.00e+00	0	32	0	1693450240	30	6507
2026-01-05 17:18:45.87	8.12	41.96	-29.6	-30.2	28.3	0.00e+00	0	33	0	1698693120	30	6576
2026-01-05 17:18:46.88	7.95	42.23	-29.4	-30.0	28.4	0.00e+00	0	32	0	1703936000	30	6450
2026-01-05 17:18:47.88	7.78	42.49	-29.4	-30.0	28.5	0.00e+00	0	33	0	1710227456	30	6405
2026-01-05 17:18:48.89	7.61	42.76	-29.0	-29.6	28.7	0.00e+00	0	32	0	1715470336	30	6110
2026-01-05 17:18:49.90	7.43	43.03	-28.9	-29.5	28.7	0.00e+00	0	33	0	1721761792	30	6036
2026-01-05 17:18:50.91	7.25	43.30	-29.0	-29.6	28.7	0.00e+00	0	32	0	1727004672	30	6136
2026-01-05 17:18:51.92	7.06	43.57	-29.0	-29.5	28.8	0.00e+00	0	33	0	1732247552	30	6081
2026-01-05 17:18:52.93	6.88	43.84	-29.0	-29.6	28.7	0.00e+00	0	32	0	1738539008	30	6163
2026-01-05 17:18:53.94	6.69	44.12	-29.2	-29.7	28.5	0.00e+00	0	32	0	1743781888	30	6243
2026-01-05 17:18:54.95	6.49	44.40	-29.3	-29.9	28.5	0.00e+00	0	33	0	1749024768	30	6330
2026-01-05 17:18:55.96	6.30	44.67	-29.3	-29.9	28.5	0.00e+00	0	33	0	1755316224	30	6363
2026-01-05 17:18:56.97	6.10	44.95	-29.4	-30.0	28.4	0.00e+00	0	32	0	1760559104	30	6452
2026-01-05 17:18:57.98	5.89	45.24	-29.4	-30.0	28.4	0.00e+00	0	33	0	1766850560	30	6422
2026-01-05 17:18:58.99	5.68	45.52	-29.4	-30.0	28.4	0.00e+00	0	33	0	1772093440	30	6452
2026-01-05 17:19:00.00	5.47	45.80	-29.6	-30.2	28.3	0.00e+00	0	33	0	1778384896	30	6559
2026-01-05 17:19:01.01	5.26	46.09	-29.4	-30.0	28.4	0.00e+00	0	32	0	1783627776	30	6414
2026-01-05 17:19:02.02	5.04	46.38	-29.3	-29.9	28.4	0.00e+00	0	33	0	1789919232	30	6360
2026-01-05 17:19:03.03	4.81	46.67	-29.4	-30.0	28.5	0.00e+00	0	33	0	1795162112	30	6411
2026-01-05 17:19:04.04	4.58	46.96	-29.3	-30.0	28.4	0.00e+00	0	33	0	1800404992	30	6405
2026-01-05 17:19:05.05	4.35	47.25	-29.4	-30.1	28.4	0.00e+00	0	33	0	1806696448	30	6468
2026-01-05 17:19:06.06	4.11	47.54	-29.7	-30.3	28.2	0.00e+00	0	33	0	1811939328	30	6639
2026-01-05 17:19:07.07	3.87	47.84	-29.8	-30.4	28.1	0.00e+00	0	33	0	1818230784	32	6008
2026-01-05 17:19:08.08	3.63	48.14	-29.9	-30.5	28.0	0.00e+00	0	33	0	1823473664	32	6095
2026-01-05 17:19:09.09	3.37	48.44	-30.0	-30.6	28.1	0.00e+00	0	33	0	1828716544	32	6112
2026-01-05 17:19:10.10	3.12	48.73	-29.9	-30.5	28.1	0.00e+00	0	33	0	1835008000	32	6051
2026-01-05 17:19:11.11	2.86	49.04	-30.0	-30.6	27.9	0.00e+00	0	33	0	1840250880	32	6149
2026-01-05 17:19:12.11	2.59	49.34	-30.0	-30.7	27.9	0.00e+00	0	32	0	1846542336	32	6174
2026-01-05 17:19:13.12	2.32	49.64	-30.1	-30.7	27.9	0.00e+00	0	33	0	1851785216	32	6236
2026-01-05 17:19:14.13	2.04	49.95	-30.1	-30.7	27.9	0.00e+00	0	32	0	1857028096	32	6243
2026-01-05 17:19:15.14	1.76	50.25	-30.1	-30.7	27.9	0.00e+00	0	33	0	1863319552	32	6203
2026-01-05 17:19:16.15	1.47	50.56	-30.1	-30.7	27.9	0.00e+00	0	32	0	1868562432	32	6176
2026-01-05 17:19:17.16	1.18	50.87	-30.2	-30.8	27.8	0.00e+00	0	33	0	1874853888	32	6294
2026-01-05 17:19:18.17	0.87	51.18	-30.6	-31.2	27.5	0.00e+00	0	33	0	1880096768	32	6587
2026-01-05 17:19:19.18	0.57	51.49	-31.0	-31.6	27.2	0.00e+00	0	32	0	1886388224	34	6164
2026-01-05 17:19:20.19	0.25	51.80	-31.0	-31.7	27.1	0.00e+00	0	33	0	1891631104	34	6194
2026-01-05 17:19:21.20	359.93	52.12	-30.4	-31.0	27.6	0.00e+00	0	33	0	1897922560	34	5747
2026-01-05 17:19:22.21	359.60	52.43	-29.9	-30.4	28.1	0.00e+00	0	33	0	1903165440	34	5365
2026-01-05 17:19:23.22	359.27	52.75	-29.9	-30.5	28.0	0.00e+00	0	33	0	1908408320	34	5387
2026-01-05 17:19:24.22	358.93	53.06	-30.2	-30.8	27.8	0.00e+00	0	33	0	1914699776	34	5577
2026-01-05 17:19:25.23	358.58	53.38	-30.4	-31.0	27.7	0.00e+00	0	33	0	1919942656	34	5727
2026-01-05 17:19:26.24	358.22	53.70	-30.4	-31.0	27.6	0.00e+00	0	33	0	1925185536	34	5727
2026-01-05 17:19:27.25	357.85	54.02	-30.3	-30.9	27.7	0.00e+00	0	32	0	1931476992	34	5666
2026-01-05 17:19:28.26	357.48	54.34	-30.1	-30.7	27.9	0.00e+00	0	33	0	1936719872	34	5555
2026-01-05 17:19:29.28	357.09	54.66	-30.3	-30.9	27.7	0.00e+00	0	33	0	1943011328	34	5673
2026-01-05 17:19:30.28	356.70	54.98	-30.7	-31.4	27.4	0.00e+00	0	33	0	1948254208	34	5967
2026-01-05 17:19:31.29	356.30	55.31	-30.4	-31.0	27.5	0.00e+00	0	33	0	1953497088	34	5754
2026-01-05 17:19:32.30	355.89	55.63	-30.3	-31.0	27.7	0.00e+00	0	33	0	1959788544	34	5702
2026-01-05 17:19:33.31	355.47	55.95	-29.8	-30.3	28.0	0.00e+00	0	33	0	1965031424	34	5308
2026-01-05 17:19:34.33	355.04	56.28	-29.8	-30.4	28.0	0.00e+00	0	33	0	1971322880	32	6025
2026-01-05 17:19:35.34	354.60	56.60	-29.9	-30.5	28.0	0.00e+00	0	33	0	1976565760	32	6056
2026-01-05 17:19:36.34	354.15	56.92	-30.1	-30.7	27.8	0.00e+00	0	33	0	1982857216	32	6213
2026-01-05 17:19:37.35	353.69	57.25	-29.9	-30.5	28.0	0.00e+00	0	33	0	1988100096	32	6048
2026-01-05 17:19:38.36	353.21	57.57	-30.0	-30.7	27.8	0.00e+00	0	33	0	1994391552	32	6177
2026-01-05 17:19:39.37	352.73	57.90	-30.2	-30.8	27.7	0.00e+00	0	32	0	1999634432	32	6283
2026-01-05 17:19:40.38	352.23	58.22	-30.2	-30.8	27.8	0.00e+00	0	33	0	2004877312	32	6270
2026-01-05 17:19:41.39	351.73	58.55	-30.3	-31.0	27.6	0.00e+00	0	33	0	2011168768	32	6408
2026-01-05 17:19:42.40	351.20	58.87	-30.2	-30.8	27.7	0.00e+00	0	33	0	2016411648	32	6308
2026-01-05 17:19:43.41	350.67	59.19	-30.1	-30.7	27.9	0.00e+00	0	33	0	2022703104	32	6227
2026-01-05 17:19:44.42	350.12	59.51	-30.1	-30.7	27.9	0.00e+00	0	33	0	2027945984	32	6213
2026-01-05 17:19:45.42	349.57	59.83	-30.1	-30.7	27.9	0.00e+00	0	33	0	2033188864	32	6193
2026-01-05 17:19:46.43	348.99	60.15	-30.1	-30.7	27.8	0.00e+00	0	33	0	2039480320	32	6218
2026-01-05 17:19:47.45	348.39	60.48	-30.0	-30.6	27.9	0.00e+00	0	33	0	2044723200	32	6160
2026-01-05 17:19:48.46	347.79	60.79	-29.7	-30.3	28.2	0.00e+00	0	33	0	2051014656	32	5960
2026-01-05 17:19:49.46	347.17	61.11	-29.9	-30.5	28.0	0.00e+00	0	33	0	2056257536	32	6077
2026-01-05 17:19:50.48	346.53	61.43	-29.9	-30.5	28.0	0.00e+00	0	32	0	2061500416	32	6068
2026-01-05 17:19:51.48	345.88	61.74	-29.8	-30.4	28.1	0.00e+00	0	33	0	2067791872	32	5969
2026-01-05 17:19:52.49	345.21	62.05	-29.6	-30.2	28.2	0.00e+00	0	33	0	2073034752	32	5864
2026-01-05 17:19:53.50	344.53	62.36	-29.4	-30.0	28.3	0.00e+00	0	33	0	2079326208	32	5743
2026-01-05 17:19:54.51	343.82	62.67	-29.4	-30.0	28.3	0.00e+00	0	33	0	2084569088	32	5727
2026-01-05 17:19:55.52	343.10	62.97	-29.5	-30.2	28.2	0.00e+00	0	32	0	2090860544	32	5835
2026-01-05 17:19:56.53	342.35	63.28	-29.3	-29.8	28.4	0.00e+00	0	32	0	2096103424	32	5626
2026-01-05 17:19:57.54	341.59	63.58	-29.1	-29.6	28.6	0.00e+00	0	32	0	2101346304	32	5502
2026-01-05 17:19:58.55	340.81	63.87	-29.2	-29.8	28.4	0.00e+00	0	32	0	2107637760	32	5629
2026-01-05 17:19:59.55	340.02	64.16	-29.1	-29.6	28.7	0.00e+00	0	32	0	2112880640	32	5492
2026-01-05 17:20:00.56	339.19	64.45	-28.8	-29.4	28.7	0.00e+00	0	32	0	2119172096	32	5375
2026-01-05 17:20:01.57	338.35	64.74	-28.7	-29.2	28.9	0.00e+00	0	32	0	2124414976	30	5895
2026-01-05 17:20:02.58	337.49	65.02	-28.4	-29.0	29.0	0.00e+00	0	32	0	2129657856	30	5701
2026-01-05 17:20:03.59	336.60	65.30	-28.6	-29.2	28.9	0.00e+00	0	33	0	2135949312	30	5840
2026-01-05 17:20:04.60	335.69	65.57	-28.7	-29.3	28.8	0.00e+00	0	33	0	2141192192	30	5915
2026-01-05 17:20:05.61	334.76	65.84	-28.8	-29.4	28.8	0.00e+00	0	33	0	2147483648	30	5988
2026-01-05 17:20:06.62	333.80	66.11	-28.3	-28.9	29.1	0.00e+00	0	33	0	2152726528	30	5638
2026-01-05 17:20:07.63	332.82	66.37	-28.0	-28.6	29.3	0.00e+00	0	33	0	2157969408	30	5444
2026-01-05 17:20:08.64	331.82	66.62	-28.2	-28.8	29.2	0.00e+00	0	33	0	2164260864	30	5611
2026-01-05 17:20:09.65	330.80	66.86	-28.4	-29.0	29.1	0.00e+00	0	33	0	2169503744	30	5743
2026-01-05 17:20:10.66	329.75	67.11	-28.5	-29.1	29.0	0.00e+00	0	33	0	2175795200	30	5778
2026-01-05 17:20:11.67	328.67	67.34	-28.2	-28.7	29.3	0.00e+00	0	33	0	2181038080	30	5544
2026-01-05 17:20:12.68	327.57	67.57	-28.0	-28.6	29.3	0.00e+00	0	33	0	2187329536	30	5486
2026-01-05 17:20:13.69	326.45	67.79	-28.1	-28.7	29.2	0.00e+00	0	32	0	2192572416	30	5557
2026-01-05 17:20:14.70	325.30	68.00	-27.9	-28.5	29.3	0.00e+00	0	33	0	2197815296	30	5406
2026-01-05 17:20:15.71	324.13	68.20	-28.2	-28.8	29.2	0.00e+00	0	33	0	2204106752	30	5604
2026-01-05 17:20:16.72	322.94	68.40	-28.2	-28.8	29.1	0.00e+00	0	33	0	2209349632	30	5584
2026-01-05 17:20:17.73	321.72	68.59	-28.2	-28.7	29.2	0.00e+00	0	33	0	2215641088	30	5543
2026-01-05 17:20:18.74	320.48	68.77	-28.1	-28.7	29.2	0.00e+00	0	33	0	2220883968	30	5550
2026-01-05 17:20:19.75	319.22	68.94	-28.5	-29.1	29.0	0.00e+00	0	33	0	2227175424	30	5785
2026-01-05 17:20:20.76	317.93	69.10	-28.5	-29.1	28.9	0.00e+00	0	33	0	2232418304	30	5824
2026-01-05 17:20:21.77	316.63	69.25	-28.6	-29.2	28.9	0.00e+00	0	33	0	2237661184	30	5867
2026-01-05 17:20:22.78	315.30	69.39	-28.3	-29.0	29.1	0.00e+00	0	33	0	2243952640	30	5712
2026-01-05 17:20:23.79	313.96	69.52	-28.3	-28.9	29.2	0.00e+00	0	33	0	2249195520	30	5642
2026-01-05 17:20:24.80	312.60	69.64	-28.7	-29.3	28.9	0.00e+00	0	33	0	2254438400	30	5935
2026-01-05 17:20:25.81	311.22	69.75	-28.9	-29.4	28.7	0.00e+00	0	33	0	2260729856	30	6014
2026-01-05 17:20:26.82	309.82	69.85	-28.6	-29.3	29.0	0.00e+00	0	33	0	2265972736	30	5897
2026-01-05 17:20:27.83	308.41	69.94	-28.7	-29.3	28.7	0.00e+00	0	33	0	2272264192	30	5933
2026-01-05 17:20:28.84	306.99	70.01	-28.6	-29.2	28.9	0.00e+00	0	33	0	2277507072	30	5832
2026-01-05 17:20:29.85	305.56	70.08	-28.7	-29.3	28.7	0.00e+00	0	33	0	2283798528	30	5945
2026-01-05 17:20:30.86	304.12	70.13	-28.6	-29.1	29.0	0.00e+00	0	32	0	2289041408	30	5802
2026-01-05 17:20:31.87	302.67	70.17	-28.1	-28.8	29.2	0.00e+00	0	33	0	2295332864	30	5578
2026-01-05 17:20:32.88	301.22	70.20	-28.4	-29.0	29.1	0.00e+00	0	33	0	2300575744	30	5754
2026-01-05 17:20:33.88	299.78	70.22	-28.4	-28.9	29.1	0.00e+00	0	32	0	2305818624	30	5695
2026-01-05 17:20:34.89	298.32	70.22	-28.3	-28.9	29.1	0.00e+00	0	33	0	2312110080	30	5637
2026-01-05 17:20:35.90	296.86	70.21	-28.3	-28.9	29.0	0.00e+00	0	33	0	2317352960	30	5648
2026-01-05 17:20:36.91	295.40	70.20	-28.6	-29.2	28.9	0.00e+00	0	33	0	2323644416	30	5870
2026-01-05 17:20:37.92	293.95	70.16	-28.8	-29.4	28.8	0.00e+00	0	33	0	2328887296	30	5989
2026-01-05 17:20:38.93	292.50	70.12	-28.8	-29.5	28.6	0.00e+00	0	33	0	2334130176	30	6063
2026-01-05 17:20:39.94	291.06	70.07	-28.6	-29.2	28.6	0.00e+00	0	32	0	2340421632	30	5872
2026-01-05 17:20:40.95	289.63	70.00	-28.2	-28.8	29.0	0.00e+00	0	33	0	2345664512	30	5625
2026-01-05 17:20:41.96	288.22	69.92	-28.2	-28.9	29.0	0.00e+00	0	32	0	2351955968	30	5642
2026-01-05 17:20:42.97	286.81	69.83	-28.0	-28.6	29.0	0.00e+00	0	33	0	2357198848	30	5467
2026-01-05 17:20:43.98	285.42	69.73	-28.1	-28.6	29.2	0.00e+00	0	32	0	2362441728	30	5469
2026-01-05 17:20:44.99	284.04	69.62	-28.2	-28.7	29.1	0.00e+00	0	33	0	2368733184	30	5554
2026-01-05 17:20:46.00	282.68	69.50	-28.5	-29.1	29.0	0.00e+00	0	33	0	2373976064	30	5801
2026-01-05 17:20:47.01	281.34	69.37	-28.2	-28.8	29.1	0.00e+00	0	33	0	2380267520	30	5573
2026-01-05 17:20:48.02	280.02	69.22	-28.5	-29.1	29.1	0.00e+00	0	33	0	2385510400	30	5789
2026-01-05 17:20:49.03	278.71	69.07	-28.7	-29.3	28.8	0.00e+00	0	33	0	2391801856	30	5950
2026-01-05 17:20:50.04	277.43	68.91	-28.4	-29.0	29.1	0.00e+00	0	32	0	2397044736	30	5745
2026-01-05 17:20:51.04	276.18	68.74	-28.3	-28.8	29.1	0.00e+00	0	33	0	2402287616	30	5589
2026-01-05 17:20:52.05	274.95	68.56	-28.4	-28.9	29.0	0.00e+00	0	33	0	2408579072	30	5692
2026-01-05 17:20:53.06	273.73	68.37	-28.3	-28.8	29.2	0.00e+00	0	33	0	2413821952	30	5610
2026-01-05 17:20:54.07	272.54	68.17	-28.0	-28.5	29.3	0.00e+00	0	33	0	2420113408	30	5418
2026-01-05 17:20:55.08	271.37	67.96	-27.9	-28.5	29.4	0.00e+00	0	32	0	2425356288	30	5439
2026-01-05 17:20:56.10	270.22	67.75	-28.1	-28.7	29.3	0.00e+00	0	33	0	2430599168	30	5510
2026-01-05 17:20:57.10	269.11	67.53	-28.3	-28.8	29.1	0.00e+00	0	33	0	2436890624	30	5628
2026-01-05 17:20:58.11	268.02	67.30	-28.4	-29.0	29.1	0.00e+00	0	33	0	2442133504	30	5734
2026-01-05 17:20:59.12	266.94	67.06	-28.4	-29.0	29.0	0.00e+00	0	33	0	2448424960	30	5727
2026-01-05 17:21:00.13	265.90	66.82	-28.5	-29.1	28.9	0.00e+00	0	33	0	2453667840	30	5787
2026-01-05 17:21:01.14	264.87	66.57	-28.4	-29.0	29.0	0.00e+00	0	33	0	2458910720	30	5736
2026-01-05 17:21:02.15	263.88	66.32	-28.7	-29.4	28.9	0.00e+00	0	32	0	2465202176	30	5974
2026-01-05 17:21:03.16	262.90	66.06	-28.7	-29.4	28.7	0.00e+00	0	32	0	2470445056	30	6008
2026-01-05 17:21:04.17	261.95	65.79	-28.6	-29.2	28.9	0.00e+00	0	33	0	2476736512	30	5883
2026-01-05 17:21:05.18	261.02	65.52	-28.1	-28.8	29.2	0.00e+00	0	32	0	2481979392	30	5567
2026-01-05 17:21:06.19	260.11	65.25	-27.9	-28.5	29.4	0.00e+00	0	33	0	2488270848	30	5411
2026-01-05 17:21:07.20	259.23	64.97	-28.0	-28.5	29.3	0.00e+00	0	33	0	2493513728	30	5438
2026-01-05 17:21:08.21	258.37	64.68	-28.4	-29.0	29.0	0.00e+00	0	33	0	2499805184	30	5715
2026-01-05 17:21:09.22	257.53	64.40	-28.3	-28.9	29.1	0.00e+00	0	33	0	2505048064	30	5679
2026-01-05 17:21:10.23	256.71	64.11	-28.3	-28.8	29.1	0.00e+00	0	33	0	2510290944	30	5623
2026-01-05 17:21:11.24	255.91	63.81	-28.5	-29.1	29.0	0.00e+00	0	33	0	2516582400	30	5770
2026-01-05 17:21:12.25	255.13	63.51	-28.7	-29.3	28.8	0.00e+00	0	33	0	2521825280	30	5964
2026-01-05 17:21:13.26	254.37	63.21	-28.8	-29.5	28.8	0.00e+00	0	33	0	2528116736	30	6035
2026-01-05 17:21:14.27	253.63	62.91	-29.0	-29.5	28.7	0.00e+00	0	32	0	2533359616	30	6081
2026-01-05 17:21:15.27	252.92	62.60	-28.9	-29.5	28.7	0.00e+00	0	33	0	2538602496	30	6065
2026-01-05 17:21:16.28	252.21	62.29	-28.9	-29.6	28.7	0.00e+00	0	33	0	2544893952	30	6116
2026-01-05 17:21:17.29	251.53	61.98	-29.2	-29.7	28.5	0.00e+00	0	33	0	2550136832	30	6223
2026-01-05 17:21:18.30	250.86	61.67	-29.3	-29.8	28.5	0.00e+00	0	33	0	2556428288	30	6298
2026-01-05 17:21:19.31	250.21	61.36	-29.1	-29.7	28.6	0.00e+00	0	33	0	2561671168	30	6226
2026-01-05 17:21:20.32	249.57	61.04	-29.2	-29.7	28.4	0.00e+00	0	33	0	2566914048	30	6244
2026-01-05 17:21:21.33	248.95	60.72	-29.3	-29.9	28.3	0.00e+00	0	33	0	2573205504	30	6388
2026-01-05 17:21:22.34	248.35	60.40	-29.5	-30.1	28.3	0.00e+00	0	33	0	2578448384	30	6526
2026-01-05 17:21:23.35	247.76	60.08	-29.4	-30.0	28.4	0.00e+00	0	33	0	2583691264	30	6437
2026-01-05 17:21:24.36	247.19	59.76	-29.3	-30.0	28.4	0.00e+00	0	33	0	2589982720	30	6409
2026-01-05 17:21:25.36	246.63	59.44	-29.3	-29.9	28.3	0.00e+00	0	33	0	2596274176	30	6358
2026-01-05 17:21:26.38	246.08	59.11	-29.4	-29.9	28.4	0.00e+00	0	33	0	2601517056	30	6390
2026-01-05 17:21:27.38	245.55	58.79	-29.4	-30.1	28.3	0.00e+00	0	33	0	2606759936	30	6466
2026-01-05 17:21:28.39	245.03	58.47	-29.2	-29.7	28.5	0.00e+00	0	33	0	2613051392	30	6242
2026-01-05 17:21:29.41	244.52	58.14	-29.4	-29.9	28.4	0.00e+00	0	33	0	2618294272	30	6375
2026-01-05 17:21:30.42	244.03	57.82	-29.7	-30.4	28.2	0.00e+00	0	33	0	2624585728	30	6734
2026-01-05 17:21:31.43	243.54	57.49	-29.7	-30.3	28.1	0.00e+00	0	33	0	2629828608	30	6650
2026-01-05 17:21:32.44	243.07	57.17	-29.7	-30.4	28.2	0.00e+00	0	33	0	2635071488	30	6707
2026-01-05 17:21:33.45	242.61	56.84	-29.7	-30.3	28.0	0.00e+00	0	33	0	2641362944	30	6627
2026-01-05 17:21:34.46	242.16	56.51	-29.9	-30.5	28.0	0.00e+00	0	33	0	2646605824	32	6072
2026-01-05 17:21:35.47	241.72	56.19	-29.9	-30.6	28.0	0.00e+00	0	33	0	2652897280	32	6106
2026-01-05 17:21:36.48	241.30	55.87	-29.8	-30.4	27.9	0.00e+00	0	33	0	2658140160	32	5982
2026-01-05 17:21:37.48	240.88	55.54	-29.7	-30.4	28.0	0.00e+00	0	33	0	2663383040	32	5997
2026-01-05 17:21:38.50	240.47	55.22	-29.7	-30.2	28.1	0.00e+00	0	33	0	2669674496	32	5887
2026-01-05 17:21:39.50	240.07	54.90	-29.8	-30.3	28.1	0.00e+00	0	33	0	2674917376	32	5924
2026-01-05 17:21:40.52	239.68	54.57	-30.0	-30.5	27.9	0.00e+00	0	33	0	2681208832	32	6085
2026-01-05 17:21:41.52	239.30	54.25	-30.0	-30.6	27.9	0.00e+00	0	33	0	2686451712	32	6156
2026-01-05 17:21:42.53	238.92	53.93	-29.8	-30.3	28.0	0.00e+00	0	33	0	2692743168	32	5943
2026-01-05 17:21:43.54	238.56	53.61	-29.6	-30.2	28.2	0.00e+00	0	33	0	2697986048	32	5836
2026-01-05 17:21:44.55	238.20	53.29	-29.3	-29.8	28.3	0.00e+00	0	33	0	2704277504	32	5612
2026-01-05 17:21:45.56	237.85	52.97	-29.5	-30.1	28.3	0.00e+00	0	33	0	2709520384	32	5811
2026-01-05 17:21:46.57	237.51	52.65	-29.5	-30.1	28.1	0.00e+00	0	33	0	2714763264	32	5770
2026-01-05 17:21:47.58	237.18	52.34	-29.7	-30.2	28.1	0.00e+00	0	33	0	2721054720	32	5849
2026-01-05 17:21:48.59	236.85	52.02	-29.9	-30.4	28.0	0.00e+00	0	33	0	2726297600	32	6023
2026-01-05 17:21:49.60	236.53	51.71	-30.1	-30.6	27.4	0.00e+00	0	32	0	2731540480	32	6169
2026-01-05 17:21:50.61	236.21	51.39	-29.9	-30.5	27.5	0.00e+00	0	32	0	2737831936	32	6043
2026-01-05 17:21:51.62	235.91	51.08	-29.8	-30.4	27.8	0.00e+00	0	33	0	2743074816	32	6002
2026-01-05 17:21:52.63	235.61	50.77	-30.0	-30.5	27.8	0.00e+00	0	33	0	2749366272	32	6075
2026-01-05 17:21:53.63	235.32	50.46	-30.0	-30.7	27.3	0.00e+00	0	33	0	2754609152	32	6228
2026-01-05 17:21:54.64	235.03	50.15	-30.1	-30.7	27.6	0.00e+00	0	33	0	2759852032	32	6201
2026-01-05 17:21:55.65	234.74	49.85	-29.9	-30.6	27.8	0.00e+00	0	33	0	2766143488	32	6118
2026-01-05 17:21:56.66	234.47	49.54	-29.2	-29.7	28.3	0.00e+00	0	32	0	2771386368	32	5544
2026-01-05 17:21:57.67	234.20	49.24	-29.0	-29.5	28.5	0.00e+00	0	33	0	2777677824	32	5429
2026-01-05 17:21:58.68	233.93	48.93	-28.8	-29.3	28.8	0.00e+00	0	33	0	2782920704	30	5897
2026-01-05 17:21:59.69	233.67	48.63	-28.9	-29.4	28.8	0.00e+00	0	33	0	2789212160	30	5976
2026-01-05 17:22:00.70	233.41	48.33	-28.9	-29.4	28.8	0.00e+00	0	33	0	2794455040	30	5980
2026-01-05 17:22:01.71	233.16	48.03	-28.8	-29.3	28.7	0.00e+00	0	33	0	2800746496	30	5938
2026-01-05 17:22:02.72	232.92	47.73	-28.9	-29.6	28.6	0.00e+00	0	33	0	2805989376	30	6115
2026-01-05 17:22:03.73	232.67	47.44	-29.0	-29.5	28.7	0.00e+00	0	32	0	2811232256	30	6088
2026-01-05 17:22:04.74	232.44	47.14	-29.3	-29.8	28.4	0.00e+00	0	33	0	2817523712	30	6314
2026-01-05 17:22:05.75	232.21	46.85	-29.3	-29.8	28.4	0.00e+00	0	33	0	2822766592	30	6311
2026-01-05 17:22:06.76	231.98	46.56	-29.4	-30.0	28.3	0.00e+00	0	33	0	2829058048	30	6415
2026-01-05 17:22:07.77	231.75	46.27	-29.2	-29.9	28.5	0.00e+00	0	33	0	2834300928	30	6370
2026-01-05 17:22:08.78	231.53	45.98	-29.3	-30.0	28.4	0.00e+00	0	33	0	2839543808	30	6400
2026-01-05 17:22:09.79	231.32	45.69	-29.3	-29.9	28.4	0.00e+00	0	33	0	2845835264	30	6384
2026-01-05 17:22:10.80	231.11	45.41	-29.4	-29.9	28.4	0.00e+00	0	33	0	2851078144	30	6379
2026-01-05 17:22:11.81	230.90	45.12	-29.1	-29.6	28.5	0.00e+00	0	33	0	2857369600	30	6163
2026-01-05 17:22:12.82	230.70	44.84	-29.1	-29.6	28.6	0.00e+00	0	33	0	2862612480	30	6110
2026-01-05 17:22:13.83	230.50	44.56	-28.8	-29.4	28.8	0.00e+00	0	33	0	2867855360	30	6032
2026-01-05 17:22:14.84	230.30	44.28	-29.0	-29.6	28.6	0.00e+00	0	33	0	2874146816	30	6155
2026-01-05 17:22:15.85	230.11	44.00	-28.8	-29.5	28.8	0.00e+00	0	33	0	2879389696	30	6051
2026-01-05 17:22:16.86	229.92	43.73	-28.8	-29.5	28.7	0.00e+00	0	32	0	2885681152	30	6061
2026-01-05 17:22:17.87	229.73	43.45	-29.0	-29.5	28.7	0.00e+00	0	33	0	2890924032	30	6053
2026-01-05 17:22:18.88	229.55	43.18	-28.9	-29.5	28.7	0.00e+00	0	33	0	2897215488	30	6096
2026-01-05 17:22:19.89	229.36	42.91	-28.8	-29.5	28.8	0.00e+00	0	33	0	2902458368	30	6043
2026-01-05 17:22:20.90	229.19	42.64	-28.9	-29.6	28.7	0.00e+00	0	33	0	2907701248	30	6117
2026-01-05 17:22:21.91	229.01	42.37	-29.0	-29.5	28.6	0.00e+00	0	32	0	2913992704	30	6069
2026-01-05 17:22:22.92	228.84	42.11	-29.0	-29.5	28.6	0.00e+00	0	33	0	2919235584	30	6102
2026-01-05 17:22:23.92	228.67	41.84	-29.2	-29.7	28.5	0.00e+00	0	33	0	2925527040	30	6216
2026-01-05 17:22:24.93	228.51	41.58	-29.1	-29.6	28.6	0.00e+00	0	33	0	2930769920	30	6128
2026-01-05 17:22:25.94	228.35	41.32	-29.1	-29.8	28.5	0.00e+00	0	33	0	2936012800	30	6281
2026-01-05 17:22:26.95	228.19	41.06	-29.0	-29.5	28.6	0.00e+00	0	33	0	2942304256	30	6048
2026-01-05 17:22:27.96	228.03	40.80	-29.0	-29.5	28.6	0.00e+00	0	32	0	2947547136	30	6098
2026-01-05 17:22:28.97	227.87	40.55	-28.7	-29.4	28.9	0.00e+00	0	33	0	2953838592	30	5968
2026-01-05 17:22:29.98	227.72	40.29	-28.6	-29.1	28.9	0.00e+00	0	33	0	2959081472	30	5798
2026-01-05 17:22:30.99	227.57	40.04	-28.4	-28.9	29.1	0.00e+00	0	33	0	2964324352	30	5673
2026-01-05 17:22:32.00	227.42	39.79	-28.5	-29.0	29.0	0.00e+00	0	33	0	2970615808	30	5706
2026-01-05 17:22:33.01	227.28	39.54	-28.3	-29.0	29.0	0.00e+00	0	33	0	2975858688	30	5727
2026-01-05 17:22:34.02	227.13	39.29	-28.4	-29.1	29.1	0.00e+00	0	33	0	2982150144	30	5796
2026-01-05 17:22:35.03	226.99	39.04	-28.5	-29.2	29.0	0.00e+00	0	32	0	2987393024	30	5836
2026-01-05 17:22:36.04	226.85	38.79	-28.5	-29.2	28.9	0.00e+00	0	33	0	2993684480	30	5833
2026-01-05 17:22:37.05	226.71	38.55	-28.6	-29.2	29.0	0.00e+00	0	33	0	2998927360	30	5879
2026-01-05 17:22:38.06	226.58	38.31	-28.4	-29.0	29.0	0.00e+00	0	33	0	3005218816	30	5759
2026-01-05 17:22:39.07	226.45	38.07	-28.5	-29.2	29.0	0.00e+00	0	33	0	3010461696	30	5843
2026-01-05 17:22:40.08	226.32	37.83	-28.5	-29.1	29.0	0.00e+00	0	33	0	3015704576	30	5822
2026-01-05 17:22:41.09	226.19	37.59	-28.5	-29.2	28.9	0.00e+00	0	33	0	3021996032	30	5857
2026-01-05 17:22:42.10	226.06	37.35	-28.7	-29.4	28.9	0.00e+00	0	33	0	3027238912	30	5988
2026-01-05 17:22:43.11	225.94	37.12	-28.9	-29.5	28.8	0.00e+00	0	33	0	3033530368	30	6087
2026-01-05 17:22:44.11	225.81	36.89	-28.9	-29.6	28.6	0.00e+00	0	33	0	3038773248	30	6113
2026-01-05 17:22:45.13	225.69	36.65	-29.1	-29.7	28.6	0.00e+00	0	33	0	3044016128	30	6238
2026-01-05 17:22:46.14	225.57	36.42	-29.0	-29.6	28.6	0.00e+00	0	33	0	3050307584	30	6122
2026-01-05 17:22:47.14	225.45	36.20	-29.1	-29.6	28.5	0.00e+00	0	33	0	3055550464	30	6160
2026-01-05 17:22:48.15	225.34	35.97	-29.0	-29.6	28.5	0.00e+00	0	33	0	3061841920	30	6116
2026-01-05 17:22:49.16	225.22	35.74	-29.2	-29.9	28.5	0.00e+00	0	33	0	3067084800	30	6318
2026-01-05 17:22:50.17	225.11	35.52	-29.1	-29.7	28.5	0.00e+00	0	33	0	3072327680	30	6174
2026-01-05 17:22:51.18	225.00	35.30	-29.2	-29.7	28.5	0.00e+00	0	33	0	3078619136	30	6231
2026-01-05 17:22:52.19	224.89	35.07	-29.2	-29.8	28.4	0.00e+00	0	33	0	3083862016	30	6255
2026-01-05 17:22:53.20	224.78	34.85	-29.3	-29.8	28.4	0.00e+00	0	33	0	3090153472	30	6306
2026-01-05 17:22:54.21	224.67	34.64	-29.2	-29.8	28.5	0.00e+00	0	33	0	3095396352	30	6262
2026-01-05 17:22:55.22	224.57	34.42	-29.1	-29.7	28.5	0.00e+00	0	33	0	3101687808	30	6199
2026-01-05 17:22:56.23	224.46	34.20	-29.1	-29.7	28.5	0.00e+00	0	33	0	3106930688	30	6244
2026-01-05 17:22:57.24	224.36	33.99	-29.0	-29.7	28.5	0.00e+00	0	33	0	3112173568	30	6174
2026-01-05 17:22:58.25	224.26	33.77	-29.1	-29.6	28.5	0.00e+00	0	33	0	3118465024	30	6131
2026-01-05 17:22:59.26	224.16	33.56	-29.2	-29.7	28.4	0.00e+00	0	33	0	3123707904	30	6195
2026-01-05 17:23:00.27	224.06	33.35	-28.8	-29.3	28.7	0.00e+00	0	33	0	3129999360	30	5946
2026-01-05 17:23:01.27	223.96	33.14	-28.8	-29.3	28.7	0.00e+00	0	33	0	3135242240	30	5933
2026-01-05 17:23:02.28	223.87	32.94	-28.8	-29.3	28.7	0.00e+00	0	33	0	3140485120	30	5950
2026-01-05 17:23:03.29	223.77	32.73	-29.0	-29.5	28.7	0.00e+00	0	33	0	3146776576	30	6047
2026-01-05 17:23:04.30	223.68	32.52	-29.0	-29.5	28.5	0.00e+00	0	33	0	3152019456	30	6078
2026-01-05 17:23:05.31	223.59	32.32	-29.1	-29.6	28.6	0.00e+00	0	33	0	3158310912	30	6125
2026-01-05 17:23:06.32	223.50	32.12	-29.3	-29.9	28.4	0.00e+00	0	33	0	3163553792	30	6380
2026-01-05 17:23:07.33	223.41	31.92	-29.0	-29.7	28.6	0.00e+00	0	32	0	3168796672	30	6222
2026-01-05 17:23:08.34	223.32	31.72	-29.1	-29.8	28.5	0.00e+00	0	33	0	3175088128	30	6284
2026-01-05 17:23:09.35	223.23	31.52	-29.0	-29.7	28.6	0.00e+00	0	32	0	3180331008	30	6178
2026-01-05 17:23:10.36	223.14	31.32	-29.0	-29.7	28.6	0.00e+00	0	33	0	3186622464	30	6219
2026-01-05 17:23:11.37	223.06	31.12	-28.9	-29.6	28.6	0.00e+00	0	33	0	3191865344	30	6130
2026-01-05 17:23:12.38	222.97	30.93	-29.1	-29.7	28.6	0.00e+00	0	33	0	3198156800	30	6238
2026-01-05 17:23:13.39	222.89	30.74	-29.0	-29.7	28.6	0.00e+00	0	33	0	3203399680	30	6212
2026-01-05 17:23:14.40	222.81	30.54	-29.0	-29.7	28.4	0.00e+00	0	33	0	3208642560	30	6202
2026-01-05 17:23:15.41	222.73	30.35	-29.2	-29.7	28.5	0.00e+00	0	33	0	3214934016	30	6236
2026-01-05 17:23:16.42	222.64	30.16	-29.2	-29.8	28.4	0.00e+00	0	33	0	3220176896	30	6250
2026-01-05 17:23:17.43	222.57	29.97	-29.0	-29.6	28.5	0.00e+00	0	33	0	3226468352	30	6106
2026-01-05 17:23:18.44	222.49	29.78	-29.3	-29.8	28.5	0.00e+00	0	33	0	3231711232	30	6271
2026-01-05 17:23:19.45	222.41	29.60	-29.1	-29.6	28.6	0.00e+00	0	33	0	3236954112	30	6150
2026-01-05 17:23:20.45	222.33	29.41	-29.2	-29.7	28.5	0.00e+00	0	33	0	3243245568	30	6213
2026-01-05 17:23:21.46	222.26	29.23	-29.2	-29.7	28.4	0.00e+00	0	33	0	3248488448	30	6212
2026-01-05 17:23:22.47	222.18	29.05	-29.1	-29.6	28.5	0.00e+00	0	33	0	3254779904	30	6173
2026-01-05 17:23:23.48	222.11	28.86	-29.0	-29.6	28.5	0.00e+00	0	33	0	3260022784	30	6108
2026-01-05 17:23:24.49	222.04	28.68	-29.2	-29.7	28.5	0.00e+00	0	33	0	3265265664	30	6199
2026-01-05 17:23:25.50	221.96	28.50	-29.1	-29.6	28.4	0.00e+00	0	33	0	3271557120	30	6163
2026-01-05 17:23:26.51	221.89	28.32	-29.1	-29.6	28.5	0.00e+00	0	33	0	3276800000	30	6130
2026-01-05 17:23:27.52	221.82	28.15	-29.0	-29.5	28.6	0.00e+00	0	33	0	3283091456	30	6055
2026-01-05 17:23:28.53	221.75	27.97	-29.2	-29.7	28.5	0.00e+00	0	33	0	3288334336	30	6203
2026-01-05 17:23:29.54	221.68	27.79	-29.0	-29.5	28.6	0.00e+00	0	32	0	3294625792	30	6100
2026-01-05 17:23:30.55	221.61	27.62	-29.2	-29.7	28.5	0.00e+00	0	33	0	3299868672	30	6203
2026-01-05 17:23:31.56	221.55	27.45	-29.1	-29.6	28.5	0.00e+00	0	33	0	3306160128	30	6139
2026-01-05 17:23:32.57	221.48	27.27	-29.3	-29.8	28.4	0.00e+00	0	33	0	3311403008	30	6282
2026-01-05 17:23:33.58	221.41	27.10	-29.4	-29.9	28.2	0.00e+00	0	33	0	3316645888	30	6364
2026-01-05 17:23:34.59	221.35	26.93	-29.4	-30.0	28.3	0.00e+00	0	33	0	3322937344	30	6402
2026-01-05 17:23:35.60	221.29	26.76	-29.3	-29.9	28.3	0.00e+00	0	33	0	3328180224	30	6331
2026-01-05 17:23:36.61	221.22	26.60	-29.6	-30.1	28.2	0.00e+00	0	33	0	3334471680	30	6525
2026-01-05 17:23:37.62	221.16	26.43	-29.4	-30.0	28.3	0.00e+00	0	33	0	3339714560	30	6415
2026-01-05 17:23:38.63	221.10	26.26	-29.7	-30.2	28.1	0.00e+00	0	33	0	3344957440	30	6578
2026-01-05 17:23:39.64	221.03	26.10	-29.6	-30.2	28.1	0.00e+00	0	33	0	3351248896	30	6542
2026-01-05 17:23:40.65	220.97	25.93	-29.5	-30.0	28.2	0.00e+00	0	33	0	3356491776	30	6446
2026-01-05 17:23:41.65	220.91	25.77	-29.5	-30.1	28.1	0.00e+00	0	33	0	3362783232	30	6513
2026-01-05 17:23:42.67	220.85	25.61	-29.6	-30.1	28.1	0.00e+00	0	33	0	3368026112	30	6520
2026-01-05 17:23:43.68	220.79	25.44	-29.4	-29.9	28.2	0.00e+00	0	33	0	3373268992	30	6344
2026-01-05 17:23:44.69	220.74	25.28	-29.3	-29.8	28.4	0.00e+00	0	33	0	3379560448	30	6291
2026-01-05 17:23:45.70	220.68	25.12	-29.4	-29.9	28.3	0.00e+00	0	33	0	3384803328	30	6322
2026-01-05 17:23:46.71	220.62	24.97	-29.4	-29.9	28.3	0.00e+00	0	33	0	3391094784	30	6334
2026-01-05 17:23:47.71	220.57	24.81	-29.5	-30.0	28.2	0.00e+00	0	33	0	3396337664	30	6460
2026-01-05 17:23:48.73	220.51	24.65	-29.5	-30.0	28.2	0.00e+00	0	33	0	3402629120	30	6414
2026-01-05 17:23:49.73	220.45	24.50	-29.6	-30.1	28.1	0.00e+00	0	32	0	3407872000	30	6508
2026-01-05 17:23:50.75	220.40	24.34	-29.7	-30.2	28.1	0.00e+00	0	33	0	3413114880	32	5894
2026-01-05 17:23:51.76	220.34	24.19	-29.8	-30.3	27.9	0.00e+00	0	33	0	3419406336	32	5940
2026-01-05 17:23:52.76	220.29	24.03	-29.9	-30.4	27.9	0.00e+00	0	33	0	3424649216	32	5992
2026-01-05 17:23:53.77	220.24	23.88	-29.9	-30.5	27.8	0.00e+00	0	33	0	3430940672	32	6035
2026-01-05 17:23:54.78	220.19	23.73	-30.0	-30.6	27.8	0.00e+00	0	33	0	3436183552	32	6123
2026-01-05 17:23:55.79	220.13	23.58	-30.0	-30.5	27.8	0.00e+00	0	33	0	3441426432	32	6097
2026-01-05 17:23:56.80	220.08	23.43	-30.1	-30.7	27.7	0.00e+00	0	33	0	3447717888	32	6209
2026-01-05 17:23:57.81	220.03	23.28	-30.2	-30.8	27.6	0.00e+00	0	33	0	3452960768	32	6251
2026-01-05 17:23:58.82	219.98	23.13	-30.2	-30.8	27.6	0.00e+00	0	32	0	3459252224	32	6267
2026-01-05 17:23:59.83	219.93	22.98	-30.1	-30.7	27.7	0.00e+00	0	33	0	3464495104	32	6188
2026-01-05 17:24:00.84	219.88	22.84	-30.3	-30.9	27.5	0.00e+00	0	33	0	3469737984	32	6318
2026-01-05 17:24:01.85	219.83	22.69	-30.1	-30.6	27.7	0.00e+00	0	33	0	3476029440	32	6146
2026-01-05 17:24:02.86	219.78	22.55	-30.1	-30.6	27.7	0.00e+00	0	33	0	3481272320	32	6172
2026-01-05 17:24:03.87	219.73	22.40	-30.0	-30.5	27.8	0.00e+00	0	33	0	3487563776	32	6090
2026-01-05 17:24:04.87	219.69	22.26	-30.2	-30.7	27.8	0.00e+00	0	33	0	3492806656	32	6219
2026-01-05 17:24:05.89	219.64	22.12	-30.1	-30.6	27.7	0.00e+00	0	32	0	3499098112	32	6152
2026-01-05 17:24:06.90	219.59	21.98	-30.0	-30.6	27.8	0.00e+00	0	33	0	3504340992	32	6166
2026-01-05 17:24:07.91	219.55	21.83	-30.0	-30.6	27.7	0.00e+00	0	33	0	3510632448	32	6128
2026-01-05 17:24:08.92	219.50	21.69	-30.0	-30.6	27.8	0.00e+00	0	33	0	3515875328	32	6108
2026-01-05 17:24:09.92	219.46	21.56	-29.9	-30.4	27.9	0.00e+00	0	33	0	3521118208	32	6029
2026-01-05 17:24:10.93	219.41	21.42	-29.9	-30.4	27.9	0.00e+00	0	33	0	3527409664	32	6012
2026-01-05 17:24:11.95	219.37	21.28	-30.0	-30.6	27.8	0.00e+00	0	33	0	3532652544	32	6123
2026-01-05 17:24:12.96	219.32	21.14	-30.1	-30.6	27.7	0.00e+00	0	33	0	3538944000	32	6133
2026-01-05 17:24:13.96	219.28	21.01	-30.1	-30.6	27.7	0.00e+00	0	33	0	3544186880	32	6135
2026-01-05 17:24:14.97	219.24	20.87	-30.1	-30.6	27.7	0.00e+00	0	33	0	3549429760	32	6159
2026-01-05 17:24:15.98	219.19	20.73	-30.3	-30.9	27.6	0.00e+00	0	33	0	3555721216	32	6321
2026-01-05 17:24:16.99	219.15	20.60	-30.2	-30.7	27.6	0.00e+00	0	33	0	3560964096	32	6236
2026-01-05 17:24:18.00	219.11	20.47	-30.3	-30.8	27.5	0.00e+00	0	33	0	3566206976	32	6308
2026-01-05 17:24:19.00	219.07	20.33	-30.3	-30.9	27.5	0.00e+00	0	33	0	3572498432	32	6343
2026-01-05 17:24:20.01	219.03	20.20	-30.4	-31.0	27.4	0.00e+00	0	33	0	3577741312	32	6424
2026-01-05 17:24:21.02	218.99	20.07	-30.5	-31.0	27.4	0.00e+00	0	33	0	3584032768	32	6440
2026-01-05 17:24:22.04	218.94	19.94	-30.5	-31.0	27.4	0.00e+00	0	33	0	3589275648	32	6431
2026-01-05 17:24:23.04	218.90	19.81	-30.5	-31.1	27.4	0.00e+00	0	33	0	3595567104	32	6472
2026-01-05 17:24:24.05	218.87	19.68	-30.6	-31.1	27.3	0.00e+00	0	33	0	3600809984	32	6527
2026-01-05 17:24:25.06	218.83	19.55	-30.6	-31.2	27.3	0.00e+00	0	33	0	3607101440	32	6545
2026-01-05 17:24:26.07	218.79	19.42	-30.6	-31.1	27.3	0.00e+00	0	33	0	3612344320	32	6528
2026-01-05 17:24:27.08	218.75	19.29	-30.7	-31.2	27.3	0.00e+00	0	33	0	3617587200	32	6597
