passes_logs/2026/01/05/R4.6S_Anadyr/R4.6S_Anadyr__20260105_113151_NOAA_20_JPSS-1_rec.log

#Pass ID: 20260105_113151_NOAA 20 (JPSS-1)
#Satellite: NOAA 20 (JPSS-1)
#Configuration: NOAA 20
#almurnet v.1.7.20251203
#Start time: 2026-01-05 11:31:54

#Version: 2.2.20231116
#Station: R4.6S_Anadyr
#Location: 177.4865 lon 64.73178 lat
#TLE: 1 43013U 17073A   26004.89819562  .00000113  00000+0  74278-4 0  9995
#TLE: 2 43013  98.7626 305.9448 0001841  53.9015 306.2332 14.19533229421309

#Time	Az	El	Level	Level2	SNR	BER	BlckErr	Temp	State	Recorded	gain1	gain2
2026-01-05 11:31:54.38	21.03	0.11	-49.9	-60.7	3.5	8.46e-01	0	21	0	0	60	38978
2026-01-05 11:31:55.38	21.12	0.15	-50.8	-65.9	3.6	1.51e+00	0	22	104	0	60	71421
2026-01-05 11:31:56.39	21.22	0.19	-50.6	-65.8	3.6	1.51e+00	0	22	104	0	60	70232
2026-01-05 11:31:57.40	21.32	0.23	-49.9	-65.1	3.6	1.51e+00	0	22	104	0	60	65218
2026-01-05 11:31:58.41	21.42	0.27	-49.3	-64.5	3.6	1.51e+00	0	22	104	0	60	60388
2026-01-05 11:31:59.42	21.52	0.31	-49.3	-64.5	3.6	1.51e+00	0	22	104	0	60	60597
2026-01-05 11:32:00.43	21.62	0.35	-48.8	-64.0	3.6	1.51e+00	0	22	104	0	60	57264
2026-01-05 11:32:01.43	21.72	0.38	-48.6	-63.8	3.6	1.51e+00	0	22	104	0	60	56302
2026-01-05 11:32:02.44	21.81	0.42	-48.6	-63.7	3.6	1.51e+00	0	22	104	0	60	55631
2026-01-05 11:32:03.45	21.91	0.46	-48.4	-63.6	3.6	1.51e+00	0	22	104	0	60	54831
2026-01-05 11:32:04.46	22.01	0.50	-48.4	-63.6	3.6	1.51e+00	0	22	104	0	60	54477
2026-01-05 11:32:05.48	22.12	0.54	-48.3	-63.4	3.6	1.51e+00	0	22	104	0	60	53639
2026-01-05 11:32:06.49	22.22	0.58	-48.2	-63.3	3.6	1.51e+00	0	22	104	0	60	53146
2026-01-05 11:32:07.50	22.32	0.62	-48.1	-63.3	3.6	1.51e+00	0	22	104	0	60	52721
2026-01-05 11:32:08.51	22.42	0.66	-48.0	-63.2	3.6	1.51e+00	0	22	104	0	60	52090
2026-01-05 11:32:09.52	22.52	0.70	-47.8	-62.9	3.6	1.51e+00	0	22	104	0	60	50677
2026-01-05 11:32:10.53	22.62	0.74	-47.4	-62.6	3.6	1.51e+00	0	22	104	0	60	48649
2026-01-05 11:32:11.54	22.72	0.78	-47.0	-62.1	3.6	1.51e+00	0	22	104	0	60	46014
2026-01-05 11:32:12.55	22.83	0.82	-46.9	-62.0	3.6	1.51e+00	0	22	104	0	60	45737
2026-01-05 11:32:13.55	22.93	0.86	-46.9	-62.1	3.6	1.51e+00	0	22	104	0	60	45972
2026-01-05 11:32:14.57	23.03	0.89	-46.9	-62.1	3.6	1.51e+00	0	22	104	0	60	46033
2026-01-05 11:32:15.57	23.13	0.93	-46.9	-62.1	3.6	1.51e+00	0	22	104	0	60	45784
2026-01-05 11:32:16.58	23.24	0.97	-46.9	-62.1	3.6	1.51e+00	0	22	104	0	60	45926
2026-01-05 11:32:17.59	23.34	1.01	-46.9	-62.0	3.6	1.51e+00	0	22	104	0	60	45740
2026-01-05 11:32:18.60	23.44	1.05	-46.9	-62.0	3.6	1.51e+00	0	22	104	0	60	45606
2026-01-05 11:32:19.61	23.55	1.09	-46.9	-62.0	3.6	1.51e+00	0	22	104	0	60	45358
2026-01-05 11:32:20.62	23.65	1.13	-46.9	-62.0	3.6	1.51e+00	0	22	104	0	60	45691
2026-01-05 11:32:21.63	23.76	1.17	-46.9	-62.1	3.6	1.51e+00	0	22	104	0	60	45778
2026-01-05 11:32:22.64	23.86	1.21	-46.9	-62.0	3.6	1.51e+00	0	22	104	0	60	45711
2026-01-05 11:32:23.64	23.96	1.25	-46.9	-62.1	3.6	1.51e+00	0	23	104	0	60	45806
2026-01-05 11:32:24.65	24.07	1.28	-47.0	-62.1	3.6	1.51e+00	0	22	104	0	60	46095
2026-01-05 11:32:25.66	24.18	1.32	-47.0	-62.1	3.6	1.51e+00	0	23	104	0	60	45988
2026-01-05 11:32:26.67	24.28	1.36	-47.0	-62.1	3.6	1.51e+00	0	23	104	0	60	45849
2026-01-05 11:32:27.68	24.39	1.40	-47.0	-62.1	3.6	1.51e+00	0	22	104	0	60	45909
2026-01-05 11:32:28.70	24.49	1.44	-46.9	-62.1	3.6	1.51e+00	0	22	104	0	60	45938
2026-01-05 11:32:29.71	24.60	1.48	-46.9	-62.1	3.6	1.51e+00	0	23	104	0	60	45944
2026-01-05 11:32:30.72	24.71	1.52	-46.9	-62.0	3.6	1.51e+00	0	22	104	0	60	45690
2026-01-05 11:32:31.73	24.81	1.56	-46.9	-62.0	3.6	1.51e+00	0	23	104	0	60	45711
2026-01-05 11:32:32.74	24.92	1.59	-46.9	-62.1	3.6	1.51e+00	0	23	104	0	60	45786
2026-01-05 11:32:33.75	25.03	1.63	-47.0	-62.1	3.6	1.51e+00	0	23	104	0	60	45966
2026-01-05 11:32:34.76	25.14	1.67	-47.0	-62.1	3.6	1.51e+00	0	23	104	0	60	45794
2026-01-05 11:32:35.77	25.25	1.71	-47.0	-62.1	3.6	1.51e+00	0	23	104	0	60	46084
2026-01-05 11:32:36.77	25.35	1.75	-47.0	-62.1	3.6	1.51e+00	0	23	104	0	60	45998
2026-01-05 11:32:37.79	25.46	1.79	-47.0	-62.1	3.6	1.51e+00	0	23	104	0	60	45853
2026-01-05 11:32:38.80	25.57	1.83	-46.9	-62.0	3.6	1.51e+00	0	23	104	0	60	45550
2026-01-05 11:32:39.81	25.68	1.87	-46.9	-62.0	3.6	1.51e+00	0	23	104	0	60	45485
2026-01-05 11:32:40.82	25.79	1.90	-46.9	-62.1	3.6	1.51e+00	0	23	104	0	60	45784
2026-01-05 11:32:41.82	25.90	1.94	-46.9	-62.0	3.6	1.51e+00	0	23	104	0	60	45717
2026-01-05 11:32:42.83	26.01	1.98	-46.9	-62.0	3.6	1.51e+00	0	23	104	0	60	45463
2026-01-05 11:32:43.84	26.12	2.02	-46.9	-62.0	3.6	1.51e+00	0	23	104	0	60	45697
2026-01-05 11:32:44.85	26.23	2.06	-46.9	-62.0	3.6	1.51e+00	0	23	104	0	60	45674
2026-01-05 11:32:45.86	26.34	2.10	-47.0	-62.0	3.6	1.51e+00	0	23	104	0	60	45747
2026-01-05 11:32:46.88	26.45	2.13	-47.0	-62.1	3.6	1.51e+00	0	23	104	0	60	46204
2026-01-05 11:32:47.89	26.56	2.17	-47.0	-62.1	3.6	1.51e+00	0	23	104	0	60	46128
2026-01-05 11:32:48.90	26.68	2.21	-47.0	-62.1	3.6	1.51e+00	0	23	104	0	60	45943
2026-01-05 11:32:49.91	26.79	2.25	-47.0	-62.0	3.6	1.51e+00	0	23	104	0	60	45396
2026-01-05 11:32:50.92	26.90	2.29	-47.0	-62.0	3.6	1.51e+00	0	23	104	0	60	45298
2026-01-05 11:32:51.93	27.01	2.33	-47.0	-62.0	3.6	1.51e+00	0	23	104	0	60	45665
2026-01-05 11:32:52.94	27.13	2.36	-47.0	-62.1	3.6	1.51e+00	0	23	104	0	60	45941
2026-01-05 11:32:53.95	27.24	2.40	-47.0	-62.1	3.6	1.51e+00	0	23	104	0	60	46008
2026-01-05 11:32:54.96	27.35	2.44	-47.0	-62.1	3.6	1.51e+00	0	23	104	0	60	45929
2026-01-05 11:32:55.97	27.47	2.48	-47.0	-62.1	3.6	1.51e+00	0	23	104	0	60	45891
2026-01-05 11:32:56.98	27.58	2.52	-47.0	-62.1	3.6	1.51e+00	0	23	104	0	60	46183
2026-01-05 11:32:57.99	27.69	2.55	-46.9	-61.3	3.6	1.51e+00	0	23	104	0	60	42080
2026-01-05 11:32:58.99	27.81	2.59	-46.9	-61.0	3.6	1.51e+00	0	23	104	0	60	40664
2026-01-05 11:33:00.00	27.92	2.63	-46.9	-61.0	3.6	1.51e+00	0	23	104	0	60	40526
2026-01-05 11:33:01.01	28.04	2.67	-47.0	-61.9	3.6	1.51e+00	0	23	104	0	60	45059
2026-01-05 11:33:02.02	28.15	2.70	-46.7	-57.6	5.6	1.48e+00	26	23	104	0	60	27327
2026-01-05 11:33:03.03	28.27	2.74	-45.5	-50.8	10.4	1.76e-01	92	23	0	0	60	12509
2026-01-05 11:33:04.04	28.38	2.78	-43.8	-46.9	14.1	1.14e-03	0	23	0	2097152	60	7978
2026-01-05 11:33:05.05	28.50	2.82	-42.2	-44.4	16.6	0.00e+00	0	23	0	4194304	58	6693
2026-01-05 11:33:06.06	28.62	2.86	-41.4	-43.2	17.9	0.00e+00	2	23	0	6291456	56	6568
2026-01-05 11:33:07.07	28.73	2.89	-40.9	-42.6	18.4	0.00e+00	2	23	0	7340032	54	6873
2026-01-05 11:33:08.08	28.85	2.93	-41.8	-43.7	17.0	0.00e+00	92	23	0	9437184	54	7861
2026-01-05 11:33:09.09	28.97	2.97	-43.2	-46.0	14.9	0.00e+00	0	23	0	11534336	58	8048
2026-01-05 11:33:10.10	29.09	3.01	-44.4	-48.0	13.0	6.80e-06	90	23	0	13631488	60	9113
2026-01-05 11:33:11.11	29.20	3.04	-46.6	-54.3	8.3	2.23e-01	41	23	0	15728640	60	18672
2026-01-05 11:33:12.12	29.32	3.08	-46.7	-60.6	3.6	6.93e-01	0	23	104	16777216	60	38880
2026-01-05 11:33:13.13	29.44	3.12	-45.3	-50.0	11.8	1.45e+00	6	23	104	16777216	60	11487
2026-01-05 11:33:14.14	29.56	3.16	-41.0	-42.7	18.4	0.00e+00	0	23	0	16777216	54	6964
2026-01-05 11:33:15.15	29.68	3.19	-46.9	-60.6	3.6	1.14e+00	0	23	104	17825792	60	38720
2026-01-05 11:33:16.15	29.80	3.23	-46.7	-60.8	3.6	1.51e+00	0	23	104	17825792	60	39774
2026-01-05 11:33:17.17	29.92	3.27	-45.3	-50.0	12.5	2.09e-01	92	23	104	17825792	60	11428
2026-01-05 11:33:18.17	30.04	3.30	-40.6	-42.1	18.9	0.00e+00	43	23	0	18874368	54	6533
2026-01-05 11:33:19.18	30.16	3.34	-46.9	-60.5	3.6	9.40e-01	0	23	104	19922944	60	38410
2026-01-05 11:33:20.19	30.28	3.38	-46.8	-61.1	3.6	1.51e+00	0	23	104	19922944	60	40903
2026-01-05 11:33:21.20	30.40	3.41	-44.7	-48.6	13.7	2.33e-01	0	23	104	19922944	60	9699
2026-01-05 11:33:22.21	30.52	3.45	-40.5	-42.0	18.4	0.00e+00	16	23	0	20971520	54	6445
2026-01-05 11:33:23.22	30.64	3.49	-47.1	-62.1	3.6	4.66e-01	0	23	104	22020096	60	45819
2026-01-05 11:33:24.23	30.76	3.52	-46.9	-60.9	3.6	1.51e+00	0	23	104	22020096	60	39888
2026-01-05 11:33:25.23	30.88	3.56	-44.9	-48.9	12.9	7.35e-01	43	23	104	22020096	60	10096
2026-01-05 11:33:26.25	31.00	3.60	-40.8	-42.5	18.5	0.00e+00	92	23	0	23068672	54	6777
2026-01-05 11:33:27.25	31.13	3.63	-47.1	-61.9	3.6	1.51e+00	0	23	104	24117248	60	45158
2026-01-05 11:33:28.27	31.25	3.67	-47.0	-60.5	3.7	1.51e+00	0	23	104	24117248	60	38196
2026-01-05 11:33:29.27	31.37	3.71	-44.3	-47.5	14.2	7.93e-01	0	23	104	24117248	60	8611
2026-01-05 11:33:30.29	31.50	3.74	-40.8	-42.4	18.7	0.00e+00	2	23	0	25165824	54	6716
2026-01-05 11:33:31.29	31.62	3.78	-47.1	-61.7	3.6	1.49e+00	0	23	104	26214400	60	44179
2026-01-05 11:33:32.30	31.74	3.82	-47.0	-61.5	3.6	1.51e+00	0	23	104	26214400	60	43008
2026-01-05 11:33:33.31	31.87	3.85	-44.2	-47.5	15.3	4.90e-03	92	23	104	26214400	60	8528
2026-01-05 11:33:34.32	31.99	3.89	-41.2	-42.9	17.9	0.00e+00	0	23	0	27262976	52	7994
2026-01-05 11:33:35.33	32.12	3.93	-47.1	-61.5	3.6	1.44e+00	0	23	104	28311552	60	43012
2026-01-05 11:33:36.34	32.24	3.96	-47.1	-60.8	4.5	1.51e+00	0	23	104	28311552	60	39664
2026-01-05 11:33:37.35	32.37	4.00	-43.9	-46.9	16.0	2.20e-03	34	23	104	28311552	60	8018
2026-01-05 11:33:38.36	32.49	4.03	-41.5	-43.4	16.7	0.00e+00	68	23	0	29360128	54	7511
2026-01-05 11:33:39.37	32.62	4.07	-47.2	-61.8	3.6	1.18e+00	0	23	104	30408704	60	44619
2026-01-05 11:33:40.38	32.75	4.11	-47.1	-60.2	4.7	1.51e+00	0	23	104	30408704	60	37162
2026-01-05 11:33:41.39	32.87	4.14	-44.2	-47.4	16.2	1.23e-01	41	23	104	30408704	60	8479
2026-01-05 11:33:42.40	33.00	4.18	-41.9	-43.9	16.8	0.00e+00	6	23	0	31457280	54	7977
2026-01-05 11:33:43.41	33.13	4.21	-47.2	-62.1	3.6	1.51e+00	0	23	104	32505856	60	46243
2026-01-05 11:33:44.42	33.25	4.25	-46.3	-53.0	5.3	1.51e+00	0	23	104	32505856	60	16173
2026-01-05 11:33:45.43	33.38	4.28	-42.2	-44.1	17.1	3.94e-01	81	23	104	32505856	60	5818
2026-01-05 11:33:46.44	33.51	4.32	-42.7	-45.0	16.0	0.00e+00	0	23	0	33554432	54	9054
2026-01-05 11:33:47.45	33.64	4.35	-47.2	-61.7	3.6	1.51e+00	0	23	104	34603008	60	43871
2026-01-05 11:33:48.46	33.77	4.39	-46.1	-52.3	12.5	1.51e+00	34	23	104	34603008	60	14936
2026-01-05 11:33:49.47	33.90	4.42	-41.9	-43.7	18.6	2.17e-03	92	23	0	35651584	60	5524
2026-01-05 11:33:50.48	34.03	4.46	-43.0	-45.5	14.1	0.00e+00	0	23	0	37748736	54	9587
2026-01-05 11:33:51.49	34.16	4.49	-47.2	-62.4	3.6	1.51e+00	0	23	104	37748736	60	47499
2026-01-05 11:33:52.50	34.28	4.53	-45.6	-50.6	5.9	1.51e+00	37	23	104	37748736	60	12299
2026-01-05 11:33:53.51	34.42	4.56	-42.0	-43.8	19.1	3.19e-03	4	23	0	37748736	60	5625
2026-01-05 11:33:54.52	34.55	4.60	-42.9	-45.3	13.2	0.00e+00	92	23	0	38797312	54	9412
2026-01-05 11:33:55.53	34.68	4.63	-47.3	-62.3	3.6	1.51e+00	0	23	104	39845888	60	47359
2026-01-05 11:33:56.54	34.81	4.67	-44.8	-48.5	5.9	1.46e+00	0	23	104	39845888	60	9667
2026-01-05 11:33:57.55	34.94	4.70	-40.4	-41.8	19.8	1.66e-03	42	23	0	39845888	56	5582
2026-01-05 11:33:58.56	35.07	4.74	-44.7	-48.4	12.0	0.00e+00	47	23	0	40894464	56	11917
2026-01-05 11:33:59.57	35.20	4.77	-47.3	-62.1	3.6	1.51e+00	0	23	104	41943040	60	45990
2026-01-05 11:34:00.58	35.34	4.81	-43.2	-45.6	5.9	1.40e+00	19	23	104	41943040	60	6895
2026-01-05 11:34:01.59	35.47	4.84	-39.8	-41.0	20.4	7.98e-04	92	23	0	41943040	54	5727
2026-01-05 11:34:02.60	35.60	4.88	-45.9	-51.3	7.6	0.00e+00	47	23	0	42991616	60	13305
2026-01-05 11:34:03.61	35.73	4.91	-47.3	-62.3	3.6	1.51e+00	0	23	104	44040192	60	46859
2026-01-05 11:34:04.61	35.87	4.94	-42.6	-44.8	6.1	1.49e+00	0	23	104	44040192	60	6246
2026-01-05 11:34:05.63	36.00	4.98	-40.0	-41.3	20.4	3.24e-02	44	23	0	44040192	56	5290
2026-01-05 11:34:06.64	36.14	5.01	-45.8	-50.9	8.8	1.50e-06	5	23	0	46137344	60	12723
2026-01-05 11:34:07.64	36.27	5.05	-47.4	-62.2	3.6	1.51e+00	0	23	104	46137344	60	46815
2026-01-05 11:34:08.66	36.40	5.08	-46.8	-55.3	4.4	1.51e+00	0	23	104	46137344	60	20926
2026-01-05 11:34:09.66	36.54	5.11	-47.4	-62.4	3.6	1.49e+00	0	23	104	46137344	60	47693
2026-01-05 11:34:10.67	36.67	5.15	-47.4	-61.8	3.6	1.51e+00	0	23	104	46137344	60	44633
2026-01-05 11:34:11.68	36.81	5.18	-47.7	-62.5	3.6	1.49e+00	0	23	104	46137344	60	48335
2026-01-05 11:34:12.69	36.94	5.21	-48.1	-63.2	3.6	1.51e+00	0	23	104	46137344	60	52261
2026-01-05 11:34:13.70	37.08	5.25	-48.3	-63.4	3.6	1.51e+00	0	23	104	46137344	60	53585
2026-01-05 11:34:14.71	37.22	5.28	-48.4	-63.6	3.6	1.51e+00	0	23	104	46137344	60	54469
2026-01-05 11:34:15.72	37.35	5.31	-48.4	-63.6	3.6	1.51e+00	0	23	104	46137344	60	54647
2026-01-05 11:34:16.73	37.49	5.35	-48.5	-63.7	3.6	1.51e+00	0	23	104	46137344	60	55108
2026-01-05 11:34:17.74	37.63	5.38	-48.5	-63.7	3.5	1.51e+00	0	23	104	46137344	60	55273
2026-01-05 11:34:18.75	37.77	5.41	-48.5	-63.7	3.6	1.51e+00	0	23	104	46137344	60	55077
2026-01-05 11:34:19.76	37.90	5.44	-48.6	-63.8	3.6	1.51e+00	0	23	104	46137344	60	55705
2026-01-05 11:34:20.77	38.04	5.48	-48.5	-63.7	3.6	1.51e+00	0	23	104	46137344	60	55603
2026-01-05 11:34:21.78	38.18	5.51	-48.5	-63.7	3.5	1.51e+00	0	23	104	46137344	60	55260
2026-01-05 11:34:22.78	38.32	5.54	-48.6	-63.7	3.6	1.51e+00	0	23	104	46137344	60	55638
2026-01-05 11:34:23.79	38.46	5.57	-48.5	-63.7	3.6	1.51e+00	0	23	104	46137344	60	55509
2026-01-05 11:34:24.81	38.60	5.61	-48.5	-63.7	3.6	1.51e+00	0	23	104	46137344	60	55300
2026-01-05 11:34:25.81	38.74	5.64	-48.7	-63.9	3.6	1.51e+00	0	23	104	46137344	60	56533
2026-01-05 11:34:26.82	38.88	5.67	-48.6	-63.8	3.6	1.51e+00	0	23	104	46137344	60	55752
2026-01-05 11:34:27.83	39.02	5.70	-49.0	-64.2	3.6	1.51e+00	0	23	104	46137344	60	58860
2026-01-05 11:34:28.84	39.16	5.73	-49.3	-64.4	3.6	1.51e+00	0	23	104	46137344	60	60318
2026-01-05 11:34:29.85	39.30	5.77	-49.2	-64.4	3.6	1.51e+00	0	23	104	46137344	60	59723
2026-01-05 11:34:30.86	39.44	5.80	-49.6	-64.7	3.6	1.51e+00	0	23	104	46137344	60	62283
2026-01-05 11:34:31.87	39.58	5.83	-48.9	-64.1	3.6	1.51e+00	0	23	104	46137344	60	57644
2026-01-05 11:34:32.88	39.72	5.86	-49.6	-64.8	3.6	1.51e+00	0	23	104	46137344	60	62496
2026-01-05 11:34:33.89	39.87	5.89	-49.1	-64.2	3.6	1.51e+00	0	23	104	46137344	60	58553
2026-01-05 11:34:34.90	40.01	5.92	-49.9	-65.0	3.6	1.51e+00	0	23	104	46137344	60	64243
2026-01-05 11:34:35.91	40.15	5.95	-49.0	-64.1	3.6	1.51e+00	0	23	104	46137344	60	58242
2026-01-05 11:34:36.92	40.29	5.99	-49.5	-64.6	3.6	1.51e+00	0	23	104	46137344	60	61621
2026-01-05 11:34:37.93	40.44	6.02	-50.2	-65.3	3.6	1.51e+00	0	23	104	46137344	60	66403
2026-01-05 11:34:38.94	40.58	6.05	-49.1	-64.2	3.5	1.51e+00	0	23	104	46137344	60	58687
2026-01-05 11:34:39.95	40.73	6.08	-49.9	-65.0	3.6	1.51e+00	0	23	104	46137344	60	64260
2026-01-05 11:34:40.96	40.87	6.11	-50.5	-65.6	3.6	1.51e+00	0	23	104	46137344	60	69142
2026-01-05 11:34:41.97	41.01	6.14	-49.8	-65.0	3.6	1.51e+00	0	23	104	46137344	60	64399
2026-01-05 11:34:42.98	41.16	6.17	-49.5	-64.7	3.6	1.51e+00	0	23	104	46137344	60	62003
2026-01-05 11:34:43.99	41.30	6.20	-50.3	-65.4	3.6	1.51e+00	0	23	104	46137344	60	67508
2026-01-05 11:34:45.01	41.45	6.23	-49.3	-64.5	3.6	1.51e+00	0	23	104	46137344	60	60413
2026-01-05 11:34:46.01	41.59	6.26	-49.7	-64.9	3.6	1.51e+00	0	23	104	46137344	60	63238
2026-01-05 11:34:47.02	41.74	6.29	-50.4	-65.5	3.6	1.51e+00	0	23	104	46137344	60	68001
2026-01-05 11:34:48.03	41.89	6.32	-49.5	-64.6	3.6	1.51e+00	0	23	104	46137344	60	61564
2026-01-05 11:34:49.04	42.03	6.35	-49.0	-64.2	3.6	1.51e+00	0	23	104	46137344	60	58605
2026-01-05 11:34:50.05	42.18	6.38	-50.3	-65.5	3.6	1.51e+00	0	23	104	46137344	60	67761
2026-01-05 11:34:51.06	42.33	6.41	-49.5	-64.7	3.6	1.51e+00	0	23	104	46137344	60	61789
2026-01-05 11:34:52.07	42.48	6.44	-49.8	-65.0	3.6	1.51e+00	0	23	104	46137344	60	63984
2026-01-05 11:34:53.08	42.62	6.47	-49.8	-64.9	3.6	1.51e+00	0	23	104	46137344	60	63496
2026-01-05 11:34:54.10	42.77	6.50	-47.8	-63.2	3.6	1.51e+00	0	23	104	46137344	60	52411
2026-01-05 11:34:55.11	42.92	6.52	-45.1	-60.5	3.6	1.51e+00	0	23	104	46137344	60	38432
2026-01-05 11:34:56.12	43.07	6.55	-45.4	-60.9	3.6	1.51e+00	0	23	104	46137344	60	39996
2026-01-05 11:34:57.13	43.22	6.58	-45.1	-60.6	3.6	1.51e+00	0	23	104	46137344	60	38585
2026-01-05 11:34:58.14	43.37	6.61	-45.1	-60.6	3.6	1.51e+00	0	23	104	46137344	60	38770
2026-01-05 11:34:59.15	43.52	6.64	-50.0	-65.2	3.6	1.51e+00	0	23	104	46137344	60	65484
2026-01-05 11:35:00.16	43.67	6.67	-49.8	-64.9	3.6	1.51e+00	0	23	104	46137344	60	63486
2026-01-05 11:35:01.17	43.82	6.70	-49.4	-64.5	3.6	1.51e+00	0	23	104	46137344	60	60697
2026-01-05 11:35:02.18	43.97	6.72	-49.6	-64.7	3.6	1.51e+00	0	23	104	46137344	60	62118
2026-01-05 11:35:03.19	44.12	6.75	-50.2	-65.4	3.6	1.51e+00	0	23	104	46137344	60	67069
2026-01-05 11:35:04.20	44.27	6.78	-49.9	-65.1	3.6	1.51e+00	0	23	104	46137344	60	65047
2026-01-05 11:35:05.21	44.42	6.81	-50.1	-65.3	3.6	1.51e+00	0	23	104	46137344	60	66325
2026-01-05 11:35:06.22	44.57	6.83	-49.3	-64.5	3.6	1.51e+00	0	23	104	46137344	60	60423
2026-01-05 11:35:07.23	44.72	6.86	-49.6	-64.8	3.6	1.51e+00	0	23	104	46137344	60	62814
2026-01-05 11:35:08.24	44.87	6.89	-49.8	-64.9	3.5	1.51e+00	0	23	104	46137344	60	63432
2026-01-05 11:35:09.25	45.03	6.92	-50.4	-65.6	3.6	1.51e+00	0	23	104	46137344	60	68723
2026-01-05 11:35:10.26	45.18	6.94	-49.9	-65.1	3.6	1.51e+00	0	23	104	46137344	60	64776
2026-01-05 11:35:11.27	45.33	6.97	-49.3	-64.4	3.6	1.51e+00	0	23	104	46137344	60	60273
2026-01-05 11:35:12.28	45.48	7.00	-49.1	-64.2	3.6	1.51e+00	0	23	104	46137344	60	58923
2026-01-05 11:35:13.28	45.64	7.02	-49.9	-65.1	3.6	1.51e+00	0	23	104	46137344	60	64850
2026-01-05 11:35:14.29	45.79	7.05	-49.3	-64.4	3.6	1.51e+00	0	23	104	46137344	60	60312
2026-01-05 11:35:15.30	45.94	7.07	-49.5	-64.7	3.6	1.51e+00	0	23	104	46137344	60	62044
2026-01-05 11:35:16.31	46.10	7.10	-48.9	-64.2	3.6	1.51e+00	0	23	104	46137344	60	58302
2026-01-05 11:35:17.32	46.25	7.13	-49.0	-64.1	3.6	1.51e+00	0	23	104	46137344	60	58081
2026-01-05 11:35:18.33	46.41	7.15	-48.8	-64.0	3.6	1.51e+00	0	23	104	46137344	60	57060
2026-01-05 11:35:19.34	46.56	7.18	-48.7	-63.8	3.6	1.51e+00	0	23	104	46137344	60	56243
2026-01-05 11:35:20.35	46.72	7.20	-48.6	-63.8	3.6	1.51e+00	0	23	104	46137344	60	55785
2026-01-05 11:35:21.34	46.87	7.23	-48.6	-63.8	3.6	1.51e+00	0	23	104	46137344	60	55725
2026-01-05 11:35:22.35	47.02	7.25	-48.6	-63.8	3.6	1.51e+00	0	23	104	46137344	60	55903
2026-01-05 11:35:23.36	47.18	7.28	-48.5	-63.7	3.6	1.51e+00	0	23	104	46137344	60	55030
2026-01-05 11:35:24.37	47.34	7.30	-48.3	-63.5	3.6	1.51e+00	0	23	104	46137344	60	54364
2026-01-05 11:35:25.38	47.49	7.33	-48.3	-63.4	3.6	1.51e+00	0	23	104	46137344	60	53651
2026-01-05 11:35:26.39	47.65	7.35	-48.1	-63.2	3.6	1.51e+00	0	23	104	46137344	60	51955
2026-01-05 11:35:27.40	47.81	7.38	-42.7	-44.7	16.9	1.01e+00	92	23	104	46137344	60	6179
2026-01-05 11:35:28.41	47.96	7.40	-45.3	-49.2	12.4	9.10e-06	6	23	0	46137344	60	10389
2026-01-05 11:35:29.42	48.12	7.42	-46.8	-53.3	5.2	5.81e-02	26	23	0	48234496	60	16628
2026-01-05 11:35:30.43	48.28	7.45	-46.6	-52.8	13.7	1.10e+00	6	23	104	48234496	60	15717
2026-01-05 11:35:31.44	48.44	7.47	-46.4	-52.1	5.9	1.49e+00	10	23	104	48234496	60	14563
2026-01-05 11:35:32.45	48.59	7.50	-44.9	-48.4	15.7	7.26e-01	7	23	104	48234496	60	9533
2026-01-05 11:35:33.46	48.75	7.52	-42.5	-44.5	15.2	0.00e+00	0	23	0	49283072	56	7600
2026-01-05 11:35:34.47	48.91	7.54	-44.8	-48.2	5.9	1.50e+00	0	23	104	49283072	60	9265
2026-01-05 11:35:35.48	49.07	7.56	-41.3	-42.9	18.3	3.74e-01	33	23	104	49283072	54	7142
2026-01-05 11:35:36.49	49.23	7.59	-40.5	-41.9	20.0	0.00e+00	92	23	0	50331648	54	6358
2026-01-05 11:35:37.50	49.39	7.61	-40.0	-41.2	20.6	0.00e+00	0	23	0	52428800	54	5871
2026-01-05 11:35:38.50	49.55	7.63	-39.9	-41.2	20.6	0.00e+00	0	23	0	54525952	54	5845
2026-01-05 11:35:39.51	49.71	7.65	-40.0	-41.2	20.5	0.00e+00	0	23	0	55574528	54	5887
2026-01-05 11:35:40.52	49.87	7.68	-40.0	-41.3	20.4	0.00e+00	49	23	0	57671680	54	5933
2026-01-05 11:35:41.53	50.03	7.70	-40.1	-41.4	20.3	0.00e+00	39	23	0	59768832	54	6013
2026-01-05 11:35:42.54	50.19	7.72	-40.0	-41.3	20.5	0.00e+00	50	23	0	61865984	54	5937
2026-01-05 11:35:43.55	50.35	7.74	-40.0	-41.3	20.4	0.00e+00	92	23	0	63963136	54	5942
2026-01-05 11:35:44.56	50.51	7.76	-40.2	-41.5	20.3	0.00e+00	42	23	0	65011712	54	6040
2026-01-05 11:35:45.57	50.67	7.79	-40.1	-41.3	20.4	0.00e+00	7	23	0	67108864	54	5960
2026-01-05 11:35:46.58	50.83	7.81	-40.1	-41.4	20.3	0.00e+00	43	23	0	69206016	54	5983
2026-01-05 11:35:47.58	50.99	7.83	-40.0	-41.3	20.6	0.00e+00	8	23	0	71303168	54	5911
2026-01-05 11:35:48.59	51.15	7.85	-40.1	-41.4	20.4	0.00e+00	48	23	0	73400320	54	6005
2026-01-05 11:35:49.60	51.32	7.87	-40.1	-41.4	20.4	0.00e+00	45	23	0	74448896	54	6018
2026-01-05 11:35:50.62	51.48	7.89	-40.1	-41.4	20.5	0.00e+00	90	23	0	76546048	54	5983
2026-01-05 11:35:51.62	51.64	7.91	-40.0	-41.3	20.5	0.00e+00	0	23	0	78643200	54	5933
2026-01-05 11:35:52.64	51.81	7.93	-40.1	-41.3	20.4	0.00e+00	92	23	0	80740352	54	5956
2026-01-05 11:35:53.64	51.97	7.95	-40.1	-41.4	20.5	0.00e+00	5	23	0	82837504	54	5982
2026-01-05 11:35:54.65	52.13	7.97	-40.1	-41.4	20.3	0.00e+00	6	23	0	83886080	54	6004
2026-01-05 11:35:55.66	52.29	7.99	-40.1	-41.3	20.5	0.00e+00	4	23	0	85983232	54	5955
2026-01-05 11:35:56.67	52.46	8.01	-40.0	-41.3	20.5	0.00e+00	0	23	0	88080384	54	5898
2026-01-05 11:35:57.68	52.62	8.03	-40.2	-41.5	20.3	0.00e+00	92	23	0	90177536	54	6068
2026-01-05 11:35:58.69	52.79	8.05	-40.0	-41.3	20.5	0.00e+00	0	23	0	92274688	54	5945
2026-01-05 11:35:59.70	52.95	8.07	-39.9	-41.2	20.6	0.00e+00	92	23	0	93323264	54	5844
2026-01-05 11:36:00.71	53.12	8.08	-39.7	-40.9	20.9	0.00e+00	42	23	0	95420416	54	5673
2026-01-05 11:36:01.72	53.28	8.10	-40.0	-41.3	20.7	0.00e+00	43	23	0	97517568	52	6671
2026-01-05 11:36:02.72	53.44	8.12	-40.2	-41.5	20.6	0.00e+00	39	23	0	99614720	52	6814
2026-01-05 11:36:03.73	53.61	8.14	-40.0	-41.3	20.6	0.00e+00	42	23	0	101711872	52	6650
2026-01-05 11:36:04.74	53.77	8.16	-40.0	-41.2	20.6	0.00e+00	30	23	0	102760448	52	6585
2026-01-05 11:36:05.75	53.94	8.17	-40.0	-41.2	20.7	0.00e+00	43	23	0	104857600	52	6578
2026-01-05 11:36:06.76	54.11	8.19	-40.0	-41.3	20.5	0.00e+00	92	23	0	106954752	52	6665
2026-01-05 11:36:07.77	54.27	8.21	-40.2	-41.5	20.6	0.00e+00	0	23	0	109051904	52	6774
2026-01-05 11:36:08.78	54.44	8.23	-40.1	-41.4	20.5	0.00e+00	90	23	0	111149056	52	6694
2026-01-05 11:36:09.79	54.60	8.24	-40.0	-41.2	20.7	0.00e+00	0	23	0	113246208	52	6586
2026-01-05 11:36:10.80	54.77	8.26	-40.0	-41.3	20.6	0.00e+00	44	23	0	114294784	52	6641
2026-01-05 11:36:11.80	54.94	8.28	-40.1	-41.4	20.5	0.00e+00	47	23	0	116391936	52	6755
2026-01-05 11:36:12.81	55.10	8.29	-40.2	-41.5	20.3	0.00e+00	46	23	0	118489088	52	6821
2026-01-05 11:36:13.82	55.27	8.31	-40.3	-41.6	20.3	0.00e+00	91	23	0	120586240	52	6925
2026-01-05 11:36:14.83	55.44	8.32	-40.1	-41.4	20.4	0.00e+00	2	23	0	122683392	52	6742
2026-01-05 11:36:15.84	55.60	8.34	-40.3	-41.7	20.1	0.00e+00	90	23	0	123731968	52	6938
2026-01-05 11:36:16.84	55.77	8.36	-39.9	-41.2	20.7	0.00e+00	0	23	0	125829120	52	6555
2026-01-05 11:36:17.85	55.94	8.37	-39.9	-41.2	20.7	0.00e+00	0	23	0	127926272	52	6558
2026-01-05 11:36:18.86	56.11	8.39	-39.9	-41.1	20.8	0.00e+00	4	23	0	130023424	52	6538
2026-01-05 11:36:19.87	56.27	8.40	-39.9	-41.2	20.5	0.00e+00	0	23	0	132120576	52	6556
2026-01-05 11:36:20.88	56.44	8.42	-39.9	-41.2	20.7	0.00e+00	90	23	0	133169152	52	6555
2026-01-05 11:36:21.89	56.61	8.43	-40.0	-41.2	20.6	0.00e+00	40	23	0	135266304	52	6604
2026-01-05 11:36:22.90	56.78	8.45	-40.1	-41.4	20.6	0.00e+00	92	23	0	137363456	52	6731
2026-01-05 11:36:23.91	56.95	8.46	-40.1	-41.4	20.4	0.00e+00	41	23	0	139460608	52	6723
2026-01-05 11:36:24.92	57.12	8.47	-40.2	-41.5	20.5	0.00e+00	41	23	0	141557760	52	6831
2026-01-05 11:36:25.93	57.29	8.49	-40.2	-41.5	20.3	0.00e+00	40	23	0	142606336	52	6790
2026-01-05 11:36:26.94	57.46	8.50	-40.3	-41.6	20.4	0.00e+00	0	23	0	144703488	52	6883
2026-01-05 11:36:27.95	57.62	8.51	-40.5	-41.9	20.1	0.00e+00	7	23	0	146800640	52	7110
2026-01-05 11:36:28.95	57.79	8.53	-40.6	-42.0	19.8	0.00e+00	42	23	0	148897792	52	7218
2026-01-05 11:36:29.97	57.96	8.54	-40.6	-42.0	19.9	0.00e+00	90	23	0	150994944	54	6453
2026-01-05 11:36:30.98	58.13	8.55	-40.6	-42.0	19.9	0.00e+00	41	23	0	152043520	54	6419
2026-01-05 11:36:31.99	58.30	8.56	-40.5	-41.9	19.9	0.00e+00	92	23	0	154140672	54	6365
2026-01-05 11:36:33.00	58.47	8.58	-40.9	-42.3	19.6	0.00e+00	39	23	0	156237824	54	6660
2026-01-05 11:36:34.00	58.64	8.59	-40.9	-42.4	19.5	0.00e+00	40	23	0	158334976	54	6709
2026-01-05 11:36:35.02	58.81	8.60	-41.0	-42.5	19.5	0.00e+00	0	23	0	160432128	54	6824
2026-01-05 11:36:36.02	58.98	8.61	-41.1	-42.7	19.2	0.00e+00	0	23	0	161480704	54	6949
2026-01-05 11:36:37.03	59.15	8.62	-41.0	-42.4	19.5	0.00e+00	92	23	0	163577856	54	6761
2026-01-05 11:36:38.04	59.32	8.64	-40.9	-42.3	19.6	0.00e+00	0	23	0	165675008	54	6679
2026-01-05 11:36:39.05	59.50	8.65	-40.6	-42.0	19.9	0.00e+00	92	23	0	167772160	54	6412
2026-01-05 11:36:40.06	59.67	8.66	-40.4	-41.8	20.0	0.00e+00	2	23	0	169869312	54	6252
2026-01-05 11:36:41.07	59.84	8.67	-40.8	-42.3	19.7	0.00e+00	0	23	0	170917888	54	6632
2026-01-05 11:36:42.07	60.01	8.68	-40.3	-41.7	20.2	0.00e+00	2	23	0	173015040	54	6179
2026-01-05 11:36:43.09	60.18	8.69	-40.3	-41.6	20.3	0.00e+00	0	23	0	175112192	54	6137
2026-01-05 11:36:44.10	60.35	8.70	-40.5	-41.9	20.1	0.00e+00	2	23	0	177209344	54	6326
2026-01-05 11:36:45.11	60.52	8.71	-40.7	-42.1	19.8	0.00e+00	41	23	0	179306496	54	6523
2026-01-05 11:36:46.12	60.70	8.72	-40.6	-42.0	19.9	0.00e+00	92	23	0	181403648	54	6404
2026-01-05 11:36:47.12	60.87	8.73	-41.0	-42.5	19.4	0.00e+00	40	23	0	182452224	54	6775
2026-01-05 11:36:48.13	61.04	8.74	-41.2	-42.8	19.1	0.00e+00	43	23	0	184549376	54	7021
2026-01-05 11:36:49.14	61.21	8.74	-41.0	-42.5	19.5	0.00e+00	40	23	0	186646528	54	6839
2026-01-05 11:36:50.15	61.38	8.75	-41.2	-42.7	19.2	0.00e+00	0	23	0	188743680	54	6995
2026-01-05 11:36:51.16	61.55	8.76	-41.1	-42.6	19.3	0.00e+00	0	23	0	189792256	54	6860
2026-01-05 11:36:52.17	61.73	8.77	-41.1	-42.6	19.3	0.00e+00	39	23	0	191889408	54	6858
2026-01-05 11:36:53.18	61.90	8.78	-41.0	-42.5	19.4	0.00e+00	91	23	0	193986560	54	6789
2026-01-05 11:36:54.19	62.07	8.78	-40.9	-42.3	19.7	0.00e+00	38	23	0	196083712	54	6661
2026-01-05 11:36:55.20	62.24	8.79	-40.8	-42.2	19.7	0.00e+00	91	23	0	198180864	54	6582
2026-01-05 11:36:56.21	62.42	8.80	-40.8	-42.2	19.8	0.00e+00	38	23	0	199229440	54	6569
2026-01-05 11:36:57.22	62.59	8.81	-40.8	-42.3	19.9	0.00e+00	0	23	0	201326592	54	6617
2026-01-05 11:36:58.23	62.76	8.81	-40.6	-42.0	19.8	0.00e+00	0	23	0	203423744	54	6441
2026-01-05 11:36:59.24	62.94	8.82	-40.6	-41.9	20.0	0.00e+00	0	23	0	205520896	54	6384
2026-01-05 11:37:00.25	63.11	8.83	-40.4	-41.8	20.2	0.00e+00	90	23	0	207618048	54	6252
2026-01-05 11:37:01.26	63.28	8.83	-40.3	-41.7	20.4	0.00e+00	2	23	0	209715200	54	6181
2026-01-05 11:37:02.27	63.46	8.84	-40.1	-41.4	20.5	0.00e+00	90	23	0	210763776	54	5996
2026-01-05 11:37:03.28	63.63	8.84	-40.2	-41.5	20.5	0.00e+00	41	23	0	212860928	54	6048
2026-01-05 11:37:04.28	63.80	8.85	-40.0	-41.3	20.5	0.00e+00	0	23	0	214958080	54	5921
2026-01-05 11:37:05.29	63.97	8.86	-40.1	-41.4	20.5	0.00e+00	0	23	0	217055232	54	5974
2026-01-05 11:37:06.30	64.15	8.86	-40.1	-41.4	20.5	0.00e+00	0	23	0	219152384	54	6007
2026-01-05 11:37:07.31	64.32	8.87	-40.2	-41.5	20.4	0.00e+00	33	23	0	220200960	54	6041
2026-01-05 11:37:08.32	64.50	8.87	-40.3	-41.6	20.3	0.00e+00	35	23	0	222298112	54	6134
2026-01-05 11:37:09.33	64.67	8.87	-40.3	-41.6	20.4	0.00e+00	92	23	0	224395264	54	6152
2026-01-05 11:37:10.34	64.84	8.88	-40.3	-41.7	20.3	0.00e+00	35	23	0	226492416	54	6176
2026-01-05 11:37:11.34	65.01	8.88	-40.4	-41.7	20.3	0.00e+00	92	23	0	228589568	54	6208
2026-01-05 11:37:12.36	65.19	8.89	-40.2	-41.5	20.3	0.00e+00	45	23	0	229638144	54	6103
2026-01-05 11:37:13.37	65.36	8.89	-40.1	-41.3	20.6	0.00e+00	6	23	0	231735296	54	5958
2026-01-05 11:37:14.38	65.54	8.89	-40.3	-41.7	20.2	0.00e+00	0	23	0	233832448	54	6188
2026-01-05 11:37:15.38	65.71	8.90	-40.0	-41.3	20.5	0.00e+00	5	23	0	235929600	54	5924
2026-01-05 11:37:16.39	65.88	8.90	-39.9	-41.1	20.4	0.00e+00	92	23	0	238026752	54	5828
2026-01-05 11:37:17.40	66.06	8.90	-39.8	-41.0	20.9	0.00e+00	6	23	0	239075328	52	6433
2026-01-05 11:37:18.41	66.23	8.90	-39.6	-40.8	20.9	0.00e+00	92	23	0	241172480	52	6313
2026-01-05 11:37:19.42	66.41	8.91	-39.5	-40.7	21.2	0.00e+00	0	23	0	243269632	52	6179
2026-01-05 11:37:20.42	66.58	8.91	-39.4	-40.6	21.0	0.00e+00	5	23	0	245366784	52	6147
2026-01-05 11:37:21.44	66.75	8.91	-39.5	-40.7	21.4	0.00e+00	5	23	0	247463936	52	6216
2026-01-05 11:37:22.44	66.93	8.91	-39.3	-40.5	21.2	0.00e+00	0	23	0	248512512	52	6049
2026-01-05 11:37:23.45	67.10	8.91	-39.5	-40.6	21.4	0.00e+00	90	23	0	250609664	52	6157
2026-01-05 11:37:24.46	67.28	8.91	-39.4	-40.6	21.1	0.00e+00	0	23	0	252706816	52	6142
2026-01-05 11:37:25.47	67.45	8.91	-39.4	-40.6	21.2	0.00e+00	92	23	0	254803968	52	6134
2026-01-05 11:37:26.48	67.62	8.91	-39.5	-40.7	21.2	0.00e+00	0	23	0	256901120	52	6188
2026-01-05 11:37:27.49	67.80	8.91	-39.6	-40.8	21.0	0.00e+00	40	23	0	257949696	52	6260
2026-01-05 11:37:28.50	67.97	8.91	-39.5	-40.7	21.1	0.00e+00	39	23	0	260046848	52	6232
2026-01-05 11:37:29.51	68.15	8.91	-39.6	-40.8	21.0	0.00e+00	7	23	0	262144000	52	6315
2026-01-05 11:37:30.52	68.32	8.91	-39.4	-40.6	21.2	0.00e+00	92	23	0	264241152	52	6110
2026-01-05 11:37:31.53	68.49	8.91	-39.3	-40.5	21.3	0.00e+00	46	23	0	266338304	52	6049
2026-01-05 11:37:32.54	68.67	8.91	-39.2	-40.3	21.4	0.00e+00	90	23	0	267386880	52	5956
2026-01-05 11:37:33.55	68.84	8.91	-39.1	-40.2	21.6	0.00e+00	40	23	0	269484032	52	5863
2026-01-05 11:37:34.56	69.02	8.91	-39.0	-40.2	21.6	0.00e+00	90	23	0	271581184	52	5830
2026-01-05 11:37:35.57	69.19	8.91	-38.8	-39.9	21.6	0.00e+00	6	23	0	273678336	52	5659
2026-01-05 11:37:36.58	69.37	8.91	-38.8	-39.9	21.5	0.00e+00	6	23	0	275775488	52	5664
2026-01-05 11:37:37.59	69.54	8.90	-38.9	-40.0	21.8	0.00e+00	0	23	0	277872640	50	6400
2026-01-05 11:37:38.60	69.71	8.90	-38.9	-39.9	21.9	0.00e+00	50	23	0	278921216	50	6379
2026-01-05 11:37:39.61	69.89	8.90	-38.8	-39.9	21.8	0.00e+00	92	23	0	281018368	50	6337
2026-01-05 11:37:40.62	70.06	8.90	-38.9	-40.0	21.8	0.00e+00	0	23	0	283115520	50	6431
2026-01-05 11:37:41.63	70.24	8.89	-39.0	-40.1	21.7	0.00e+00	92	23	0	285212672	50	6512
2026-01-05 11:37:42.64	70.41	8.89	-39.0	-40.1	21.6	0.00e+00	0	23	0	287309824	50	6532
2026-01-05 11:37:43.65	70.58	8.89	-38.9	-40.0	21.8	0.00e+00	7	23	0	288358400	50	6404
2026-01-05 11:37:44.66	70.76	8.88	-38.9	-40.0	21.8	0.00e+00	6	23	0	290455552	50	6444
2026-01-05 11:37:45.67	70.93	8.88	-38.8	-39.8	21.9	0.00e+00	41	23	0	292552704	50	6312
2026-01-05 11:37:46.67	71.10	8.88	-39.0	-40.2	21.7	0.00e+00	90	23	0	294649856	50	6544
2026-01-05 11:37:47.68	71.28	8.87	-38.8	-39.8	21.9	0.00e+00	40	23	0	296747008	50	6308
2026-01-05 11:37:48.69	71.45	8.87	-39.0	-40.1	21.8	0.00e+00	92	23	0	297795584	50	6475
2026-01-05 11:37:49.70	71.63	8.86	-38.8	-39.9	21.9	0.00e+00	0	23	0	299892736	50	6349
2026-01-05 11:37:50.72	71.80	8.86	-39.1	-40.2	21.5	0.00e+00	47	23	0	301989888	50	6585
2026-01-05 11:37:51.73	71.97	8.85	-39.4	-40.5	21.4	0.00e+00	41	23	0	304087040	50	6834
2026-01-05 11:37:52.73	72.15	8.85	-39.2	-40.3	21.5	0.00e+00	41	23	0	306184192	50	6639
2026-01-05 11:37:53.74	72.32	8.84	-38.9	-40.0	21.7	0.00e+00	0	23	0	307232768	50	6398
2026-01-05 11:37:54.75	72.49	8.84	-38.9	-40.0	21.7	0.00e+00	40	23	0	309329920	50	6453
2026-01-05 11:37:55.76	72.67	8.83	-38.8	-39.9	21.8	0.00e+00	92	23	0	311427072	50	6328
2026-01-05 11:37:56.77	72.84	8.82	-38.9	-40.0	21.7	0.00e+00	42	23	0	313524224	50	6443
2026-01-05 11:37:57.78	73.01	8.82	-38.9	-40.0	21.8	0.00e+00	92	23	0	315621376	50	6408
2026-01-05 11:37:58.79	73.19	8.81	-39.0	-40.1	21.7	0.00e+00	40	23	0	316669952	50	6477
2026-01-05 11:37:59.80	73.36	8.80	-39.0	-40.1	21.7	0.00e+00	41	23	0	318767104	50	6499
2026-01-05 11:38:00.81	73.53	8.80	-39.3	-40.4	21.5	0.00e+00	41	23	0	320864256	50	6754
2026-01-05 11:38:01.82	73.70	8.79	-39.1	-40.2	21.7	0.00e+00	0	23	0	322961408	50	6559
2026-01-05 11:38:02.83	73.88	8.78	-38.8	-39.8	21.9	0.00e+00	93	23	0	325058560	50	6308
2026-01-05 11:38:03.84	74.05	8.77	-39.0	-40.1	21.7	0.00e+00	0	23	0	326107136	50	6500
2026-01-05 11:38:04.85	74.22	8.76	-38.7	-39.7	22.0	0.00e+00	92	23	0	328204288	50	6239
2026-01-05 11:38:05.86	74.40	8.76	-38.7	-39.8	21.9	0.00e+00	0	23	0	330301440	50	6310
2026-01-05 11:38:06.87	74.57	8.75	-38.7	-39.8	22.0	0.00e+00	0	23	0	332398592	50	6283
2026-01-05 11:38:07.88	74.74	8.74	-38.8	-39.9	21.6	0.00e+00	0	23	0	334495744	50	6318
2026-01-05 11:38:08.89	74.91	8.73	-38.9	-40.0	21.7	0.00e+00	34	23	0	335544320	50	6438
2026-01-05 11:38:09.90	75.08	8.72	-39.0	-40.2	21.6	0.00e+00	92	23	0	337641472	50	6542
2026-01-05 11:38:10.91	75.26	8.71	-39.2	-40.3	21.5	0.00e+00	4	23	0	339738624	50	6647
2026-01-05 11:38:11.92	75.43	8.70	-39.0	-40.2	21.6	0.00e+00	92	23	0	341835776	50	6550
2026-01-05 11:38:12.93	75.60	8.69	-39.0	-40.1	21.6	0.00e+00	46	23	0	343932928	50	6529
2026-01-05 11:38:13.93	75.77	8.68	-39.1	-40.2	21.7	0.00e+00	41	23	0	346030080	50	6573
2026-01-05 11:38:14.94	75.94	8.67	-38.9	-40.0	21.6	0.00e+00	40	23	0	347078656	50	6432
2026-01-05 11:38:15.95	76.11	8.66	-39.1	-40.2	21.5	0.00e+00	39	23	0	349175808	50	6585
2026-01-05 11:38:16.96	76.28	8.65	-39.0	-40.2	21.6	0.00e+00	11	23	0	351272960	50	6553
2026-01-05 11:38:17.97	76.46	8.64	-39.1	-40.2	21.6	0.00e+00	42	23	0	353370112	50	6603
2026-01-05 11:38:18.98	76.63	8.63	-39.1	-40.3	21.6	0.00e+00	91	23	0	355467264	50	6636
2026-01-05 11:38:19.99	76.80	8.62	-39.2	-40.4	21.4	0.00e+00	42	23	0	356515840	50	6743
2026-01-05 11:38:21.01	76.97	8.61	-39.2	-40.4	21.4	0.00e+00	23	23	0	358612992	50	6752
2026-01-05 11:38:22.02	77.14	8.59	-39.1	-40.4	21.4	0.00e+00	0	23	0	360710144	50	6704
2026-01-05 11:38:23.03	77.31	8.58	-39.2	-40.4	21.3	0.00e+00	0	23	0	362807296	50	6767
2026-01-05 11:38:24.04	77.48	8.57	-39.2	-40.4	21.4	0.00e+00	0	23	0	364904448	50	6742
2026-01-05 11:38:25.05	77.65	8.56	-39.2	-40.4	20.9	0.00e+00	2	23	0	365953024	50	6707
2026-01-05 11:38:26.06	77.82	8.54	-39.0	-40.2	21.6	0.00e+00	92	23	0	368050176	50	6593
2026-01-05 11:38:27.07	77.99	8.53	-38.7	-39.8	21.9	0.00e+00	0	23	0	370147328	50	6314
2026-01-05 11:38:28.08	78.16	8.52	-39.0	-40.1	21.5	0.00e+00	91	23	0	372244480	50	6525
2026-01-05 11:38:29.09	78.33	8.51	-39.1	-40.3	21.5	0.00e+00	0	23	0	374341632	50	6631
2026-01-05 11:38:30.10	78.50	8.49	-39.0	-40.2	21.7	0.00e+00	40	23	0	375390208	50	6541
2026-01-05 11:38:31.11	78.67	8.48	-39.0	-40.1	21.7	0.00e+00	27	23	0	377487360	50	6491
2026-01-05 11:38:32.12	78.84	8.46	-38.9	-40.1	21.8	0.00e+00	42	23	0	379584512	50	6473
2026-01-05 11:38:33.13	79.01	8.45	-39.1	-40.2	21.5	0.00e+00	92	23	0	381681664	50	6581
2026-01-05 11:38:34.14	79.18	8.44	-39.1	-40.2	21.5	0.00e+00	0	23	0	383778816	50	6613
2026-01-05 11:38:35.15	79.35	8.42	-39.2	-40.4	21.5	0.00e+00	73	23	0	384827392	50	6723
2026-01-05 11:38:36.16	79.52	8.41	-39.3	-40.5	21.3	0.00e+00	47	23	0	386924544	50	6841
2026-01-05 11:38:37.17	79.69	8.39	-39.2	-40.4	21.3	0.00e+00	47	23	0	389021696	50	6731
2026-01-05 11:38:38.18	79.85	8.38	-39.2	-40.4	21.3	0.00e+00	0	23	0	391118848	50	6740
2026-01-05 11:38:39.19	80.02	8.36	-39.3	-40.5	21.4	0.00e+00	48	23	0	393216000	50	6833
2026-01-05 11:38:40.20	80.19	8.35	-39.4	-40.7	21.1	0.00e+00	85	23	0	394264576	50	6940
2026-01-05 11:38:41.21	80.36	8.33	-39.3	-40.5	21.2	0.00e+00	49	23	0	396361728	50	6791
2026-01-05 11:38:42.22	80.53	8.31	-39.2	-40.4	21.3	0.00e+00	90	23	0	398458880	50	6719
2026-01-05 11:38:43.23	80.69	8.30	-39.5	-40.7	21.3	0.00e+00	0	23	0	400556032	50	6972
2026-01-05 11:38:44.24	80.86	8.28	-38.8	-40.0	21.6	0.00e+00	76	23	0	402653184	50	6428
2026-01-05 11:38:45.25	81.03	8.27	-38.6	-39.7	22.0	0.00e+00	0	23	0	403701760	50	6178
2026-01-05 11:38:46.26	81.19	8.25	-38.6	-39.8	22.1	0.00e+00	0	23	0	405798912	50	6254
2026-01-05 11:38:47.27	81.36	8.23	-38.8	-40.0	21.9	0.00e+00	0	23	0	407896064	50	6396
2026-01-05 11:38:48.28	81.53	8.21	-38.8	-40.0	21.8	0.00e+00	0	23	0	409993216	50	6391
2026-01-05 11:38:49.29	81.69	8.20	-39.3	-40.6	21.0	0.00e+00	92	23	0	412090368	50	6875
2026-01-05 11:38:50.30	81.86	8.18	-38.7	-39.8	22.0	0.00e+00	0	23	0	414187520	50	6268
2026-01-05 11:38:51.31	82.03	8.16	-38.4	-39.5	22.4	0.00e+00	79	23	0	415236096	50	6067
2026-01-05 11:38:52.32	82.19	8.14	-38.8	-39.8	22.2	0.00e+00	44	23	0	417333248	50	6299
2026-01-05 11:38:53.33	82.36	8.13	-38.9	-40.0	22.2	0.00e+00	42	23	0	419430400	50	6446
2026-01-05 11:38:54.34	82.52	8.11	-38.5	-39.6	22.0	0.00e+00	46	23	0	421527552	50	6116
2026-01-05 11:38:55.35	82.69	8.09	-38.6	-39.6	22.4	0.00e+00	38	23	0	423624704	50	6140
2026-01-05 11:38:56.36	82.85	8.07	-38.5	-39.5	22.2	0.00e+00	86	23	0	424673280	50	6075
2026-01-05 11:38:57.37	83.02	8.05	-38.4	-39.5	22.2	0.00e+00	5	23	0	426770432	50	6061
2026-01-05 11:38:58.37	83.18	8.03	-38.7	-39.8	21.9	0.00e+00	92	23	0	428867584	50	6268
2026-01-05 11:38:59.38	83.35	8.01	-38.7	-39.8	22.0	0.00e+00	0	23	0	430964736	50	6270
2026-01-05 11:39:00.39	83.51	7.99	-38.6	-39.7	22.0	0.00e+00	73	23	0	433061888	50	6188
2026-01-05 11:39:01.40	83.67	7.97	-38.8	-39.9	21.8	0.00e+00	5	23	0	434110464	50	6373
2026-01-05 11:39:02.41	83.84	7.95	-38.8	-39.9	21.8	0.00e+00	7	23	0	436207616	50	6357
2026-01-05 11:39:03.42	84.00	7.93	-38.8	-39.9	21.9	0.00e+00	92	23	0	438304768	50	6329
2026-01-05 11:39:04.43	84.17	7.91	-38.7	-39.7	22.0	0.00e+00	0	23	0	440401920	50	6238
2026-01-05 11:39:05.44	84.33	7.89	-38.7	-39.8	21.9	0.00e+00	92	23	0	442499072	50	6291
2026-01-05 11:39:06.45	84.49	7.87	-38.9	-40.0	21.6	0.00e+00	6	23	0	443547648	50	6461
2026-01-05 11:39:07.45	84.65	7.85	-38.9	-40.0	21.6	0.00e+00	0	23	0	445644800	50	6402
2026-01-05 11:39:08.47	84.82	7.83	-38.7	-39.9	21.7	0.00e+00	0	23	0	447741952	50	6318
2026-01-05 11:39:09.48	84.98	7.81	-38.7	-39.8	21.8	0.00e+00	0	23	0	449839104	50	6306
2026-01-05 11:39:10.48	85.14	7.79	-39.0	-40.1	21.5	0.00e+00	0	23	0	451936256	50	6520
2026-01-05 11:39:11.49	85.30	7.77	-39.0	-40.1	21.6	0.00e+00	0	23	0	452984832	50	6525
2026-01-05 11:39:12.50	85.46	7.75	-38.7	-39.8	21.8	0.00e+00	91	23	0	455081984	50	6273
2026-01-05 11:39:13.51	85.62	7.73	-38.7	-39.8	21.9	0.00e+00	0	23	0	457179136	50	6274
2026-01-05 11:39:14.52	85.79	7.70	-38.7	-39.8	21.9	0.00e+00	91	23	0	459276288	50	6263
2026-01-05 11:39:15.53	85.95	7.68	-38.3	-39.3	22.2	0.00e+00	52	23	0	461373440	50	5952
2026-01-05 11:39:16.54	86.11	7.66	-38.3	-39.3	22.3	0.00e+00	49	23	0	462422016	50	5957
2026-01-05 11:39:17.55	86.27	7.64	-38.3	-39.3	22.3	0.00e+00	47	23	0	464519168	50	5964
2026-01-05 11:39:18.56	86.43	7.61	-38.8	-39.8	22.0	0.00e+00	49	23	0	466616320	50	6311
2026-01-05 11:39:19.57	86.59	7.59	-39.1	-40.2	21.5	0.00e+00	92	23	0	468713472	50	6608
2026-01-05 11:39:20.58	86.75	7.57	-39.0	-40.1	21.7	0.00e+00	7	23	0	470810624	50	6505
2026-01-05 11:39:21.59	86.91	7.55	-38.9	-40.0	21.7	0.00e+00	90	23	0	471859200	50	6403
2026-01-05 11:39:22.60	87.07	7.52	-39.2	-40.3	21.2	0.00e+00	48	23	0	473956352	50	6691
2026-01-05 11:39:23.61	87.22	7.50	-39.3	-40.5	21.3	0.00e+00	47	23	0	476053504	50	6800
2026-01-05 11:39:24.62	87.38	7.47	-39.3	-40.4	21.2	0.00e+00	0	23	0	478150656	50	6766
2026-01-05 11:39:25.62	87.54	7.45	-39.5	-40.6	21.2	0.00e+00	7	23	0	480247808	50	6917
2026-01-05 11:39:26.63	87.70	7.43	-39.7	-41.0	20.8	0.00e+00	13	23	0	482344960	50	7176
2026-01-05 11:39:27.64	87.86	7.40	-39.6	-40.8	21.0	0.00e+00	7	23	0	483393536	52	6291
2026-01-05 11:39:28.65	88.01	7.38	-39.7	-40.9	20.8	0.00e+00	92	23	0	485490688	52	6381
2026-01-05 11:39:29.66	88.17	7.35	-39.4	-40.6	21.2	0.00e+00	0	23	0	487587840	52	6111
2026-01-05 11:39:30.66	88.33	7.33	-39.3	-40.5	21.4	0.00e+00	39	23	0	489684992	52	6039
2026-01-05 11:39:31.67	88.48	7.31	-39.2	-40.3	21.4	0.00e+00	0	23	0	491782144	52	5939
2026-01-05 11:39:32.68	88.64	7.28	-39.0	-40.2	21.6	0.00e+00	38	23	0	492830720	52	5839
2026-01-05 11:39:33.69	88.80	7.26	-38.9	-40.1	21.4	0.00e+00	0	23	0	494927872	52	5763
2026-01-05 11:39:34.70	88.95	7.23	-39.0	-40.1	21.4	0.00e+00	39	23	0	497025024	52	5780
2026-01-05 11:39:35.71	89.11	7.21	-39.0	-40.1	21.7	0.00e+00	91	23	0	499122176	52	5785
2026-01-05 11:39:36.72	89.27	7.18	-39.2	-40.4	21.4	0.00e+00	34	23	0	501219328	52	5965
2026-01-05 11:39:37.73	89.42	7.15	-39.3	-40.4	21.3	0.00e+00	90	23	0	502267904	52	6033
2026-01-05 11:39:38.74	89.58	7.13	-39.5	-40.7	20.9	0.00e+00	33	23	0	504365056	52	6230
2026-01-05 11:39:39.75	89.73	7.10	-39.4	-40.5	21.1	0.00e+00	47	23	0	506462208	52	6081
2026-01-05 11:39:40.76	89.89	7.08	-39.4	-40.6	21.1	0.00e+00	49	23	0	508559360	52	6143
2026-01-05 11:39:41.77	90.04	7.05	-39.6	-40.8	20.9	0.00e+00	46	23	0	510656512	52	6288
2026-01-05 11:39:42.78	90.19	7.02	-39.7	-40.9	20.8	0.00e+00	92	23	0	511705088	52	6373
2026-01-05 11:39:43.79	90.35	7.00	-39.8	-41.1	20.6	0.00e+00	0	23	0	513802240	52	6482
2026-01-05 11:39:44.80	90.50	6.97	-39.9	-41.2	20.6	0.00e+00	91	23	0	515899392	52	6550
2026-01-05 11:39:45.81	90.66	6.94	-40.2	-41.5	20.3	0.00e+00	0	23	0	517996544	52	6783
2026-01-05 11:39:46.82	90.81	6.92	-40.5	-41.8	19.9	0.00e+00	0	23	0	520093696	52	7087
2026-01-05 11:39:47.83	90.96	6.89	-40.7	-42.2	19.6	0.00e+00	0	23	0	521142272	52	7392
2026-01-05 11:39:48.84	91.11	6.86	-41.1	-42.7	19.1	0.00e+00	2	23	0	523239424	54	6930
2026-01-05 11:39:49.85	91.27	6.83	-41.3	-42.9	18.7	0.00e+00	2	23	0	525336576	54	7166
2026-01-05 11:39:50.86	91.42	6.81	-41.3	-42.9	18.9	0.00e+00	0	23	0	527433728	54	7125
2026-01-05 11:39:51.87	91.57	6.78	-41.3	-43.0	18.9	0.00e+00	90	23	0	529530880	54	7177
2026-01-05 11:39:52.88	91.72	6.75	-41.4	-43.1	18.7	0.00e+00	39	23	0	530579456	54	7309
2026-01-05 11:39:53.89	91.87	6.72	-41.2	-42.8	19.0	0.00e+00	37	23	0	532676608	54	7074
2026-01-05 11:39:54.90	92.02	6.70	-41.1	-42.7	19.1	0.00e+00	0	23	0	534773760	54	6977
2026-01-05 11:39:55.91	92.17	6.67	-41.4	-43.0	19.2	0.00e+00	35	23	0	536870912	54	7209
2026-01-05 11:39:56.92	92.32	6.64	-40.9	-42.4	19.4	0.00e+00	0	23	0	538968064	54	6696
2026-01-05 11:39:57.93	92.47	6.61	-40.8	-42.3	19.4	0.00e+00	44	23	0	540016640	54	6659
2026-01-05 11:39:58.94	92.62	6.58	-40.9	-42.4	19.3	0.00e+00	92	23	0	542113792	54	6726
2026-01-05 11:39:59.95	92.77	6.55	-40.6	-42.0	19.7	0.00e+00	39	23	0	544210944	54	6456
2026-01-05 11:40:00.96	92.92	6.52	-40.6	-42.2	19.6	0.00e+00	92	23	0	546308096	54	6540
2026-01-05 11:40:01.97	93.07	6.49	-40.6	-42.2	19.7	0.00e+00	45	23	0	548405248	54	6542
2026-01-05 11:40:02.98	93.22	6.47	-40.4	-41.9	20.1	0.00e+00	0	23	0	550502400	54	6342
2026-01-05 11:40:03.99	93.37	6.44	-40.5	-42.1	19.8	0.00e+00	44	23	0	551550976	54	6466
2026-01-05 11:40:05.00	93.52	6.41	-40.3	-41.9	19.8	0.00e+00	2	23	0	553648128	54	6357
2026-01-05 11:40:06.01	93.66	6.38	-40.5	-42.1	19.4	0.00e+00	90	23	0	555745280	54	6495
2026-01-05 11:40:07.02	93.81	6.35	-40.5	-42.1	19.7	0.00e+00	0	23	0	557842432	54	6468
2026-01-05 11:40:08.03	93.96	6.32	-40.8	-42.4	19.3	0.00e+00	92	23	0	559939584	54	6714
2026-01-05 11:40:09.03	94.10	6.29	-41.4	-43.1	18.8	0.00e+00	0	23	0	560988160	54	7297
2026-01-05 11:40:10.04	94.25	6.26	-41.5	-43.3	18.7	0.00e+00	13	23	0	563085312	54	7447
2026-01-05 11:40:11.06	94.40	6.23	-41.3	-43.1	18.6	0.00e+00	0	23	0	565182464	54	7316
2026-01-05 11:40:12.06	94.54	6.20	-41.6	-43.7	18.2	0.00e+00	33	23	0	567279616	54	7794
2026-01-05 11:40:13.07	94.69	6.17	-41.8	-44.0	17.9	0.00e+00	35	23	0	569376768	56	7174
2026-01-05 11:40:14.08	94.83	6.14	-42.2	-44.4	17.4	0.00e+00	0	23	0	570425344	56	7539
2026-01-05 11:40:15.09	94.98	6.11	-42.2	-44.2	17.6	0.00e+00	92	23	0	572522496	56	7421
2026-01-05 11:40:16.10	95.12	6.07	-42.4	-44.5	17.4	0.00e+00	38	23	0	574619648	56	7629
2026-01-05 11:40:17.11	95.27	6.04	-42.4	-44.6	17.3	0.00e+00	90	23	0	576716800	56	7684
2026-01-05 11:40:18.12	95.41	6.01	-42.3	-44.4	17.5	0.00e+00	0	23	0	578813952	56	7534
2026-01-05 11:40:19.13	95.56	5.98	-42.5	-44.6	17.2	0.00e+00	0	23	0	579862528	56	7718
2026-01-05 11:40:20.14	95.70	5.95	-42.3	-44.3	17.6	0.00e+00	13	23	0	581959680	56	7423
2026-01-05 11:40:21.15	95.84	5.92	-42.3	-44.2	17.6	0.00e+00	36	23	0	584056832	56	7403
2026-01-05 11:40:22.15	95.98	5.89	-42.2	-44.1	17.6	0.00e+00	91	23	0	586153984	56	7329
2026-01-05 11:40:23.16	96.13	5.86	-42.2	-44.1	17.8	0.00e+00	44	23	0	588251136	56	7296
2026-01-05 11:40:24.17	96.27	5.83	-42.1	-44.1	17.8	0.00e+00	92	23	0	589299712	56	7257
2026-01-05 11:40:25.18	96.41	5.79	-41.8	-43.7	18.0	0.00e+00	45	23	0	591396864	56	6977
2026-01-05 11:40:26.19	96.55	5.76	-41.9	-43.9	18.0	0.00e+00	2	23	0	593494016	56	7155
2026-01-05 11:40:27.21	96.70	5.73	-41.9	-43.8	18.0	0.00e+00	0	23	0	595591168	56	7053
2026-01-05 11:40:28.21	96.84	5.70	-42.1	-44.1	17.6	0.00e+00	2	23	0	597688320	56	7326
2026-01-05 11:40:29.22	96.98	5.67	-42.3	-44.3	17.5	0.00e+00	89	23	0	598736896	58	6664
2026-01-05 11:40:30.23	97.12	5.63	-41.8	-43.6	18.1	0.00e+00	0	23	0	600834048	56	6903
2026-01-05 11:40:31.24	97.26	5.60	-41.8	-43.6	18.0	0.00e+00	90	23	0	602931200	56	6907
2026-01-05 11:40:32.25	97.40	5.57	-42.2	-44.3	17.8	0.00e+00	0	23	0	605028352	56	7431
2026-01-05 11:40:33.26	97.54	5.54	-42.3	-44.5	17.2	0.00e+00	92	23	0	607125504	56	7612
2026-01-05 11:40:34.27	97.68	5.50	-42.1	-44.1	17.6	0.00e+00	2	23	0	608174080	56	7322
2026-01-05 11:40:35.28	97.82	5.47	-42.3	-44.3	17.3	0.00e+00	0	23	0	610271232	56	7497
2026-01-05 11:40:36.29	97.96	5.44	-42.2	-44.2	16.8	0.00e+00	2	23	0	612368384	56	7392
2026-01-05 11:40:37.30	98.09	5.40	-42.1	-44.0	17.5	0.00e+00	0	23	0	614465536	56	7253
2026-01-05 11:40:38.31	98.23	5.37	-42.1	-44.0	17.7	0.00e+00	90	23	0	616562688	56	7221
2026-01-05 11:40:39.32	98.37	5.34	-41.7	-43.5	18.3	0.00e+00	29	23	0	618659840	56	6796
2026-01-05 11:40:40.33	98.51	5.30	-41.3	-43.0	18.6	0.00e+00	92	23	0	619708416	56	6396
2026-01-05 11:40:41.33	98.64	5.27	-41.4	-43.0	18.7	0.00e+00	29	23	0	621805568	56	6454
2026-01-05 11:40:42.34	98.78	5.24	-41.2	-42.8	18.7	0.00e+00	0	23	0	623902720	56	6317
2026-01-05 11:40:43.35	98.92	5.20	-41.4	-43.1	18.5	0.00e+00	0	23	0	625999872	56	6479
2026-01-05 11:40:44.36	99.05	5.17	-41.2	-42.9	18.8	0.00e+00	46	23	0	627048448	56	6372
2026-01-05 11:40:45.37	99.19	5.14	-41.4	-43.2	18.4	0.00e+00	91	23	0	629145600	56	6560
2026-01-05 11:40:46.38	99.33	5.10	-41.6	-43.6	17.9	0.00e+00	45	23	0	631242752	56	6909
2026-01-05 11:40:47.39	99.46	5.07	-41.6	-43.7	18.0	0.00e+00	90	23	0	633339904	56	6931
2026-01-05 11:40:48.40	99.60	5.04	-42.0	-44.2	17.4	0.00e+00	6	23	0	635437056	56	7412
2026-01-05 11:40:49.41	99.73	5.00	-42.2	-44.3	17.0	0.00e+00	6	23	0	636485632	56	7468
2026-01-05 11:40:50.42	99.87	4.97	-42.4	-44.5	17.0	0.00e+00	0	23	0	638582784	56	7647
2026-01-05 11:40:51.43	100.00	4.93	-42.1	-44.0	17.4	0.00e+00	0	23	0	640679936	56	7227
2026-01-05 11:40:52.44	100.13	4.90	-42.2	-44.2	17.3	0.00e+00	88	23	0	642777088	56	7361
2026-01-05 11:40:53.45	100.27	4.86	-41.8	-43.7	17.8	0.00e+00	0	23	0	644874240	56	6975
2026-01-05 11:40:54.46	100.40	4.83	-41.6	-43.5	18.1	0.00e+00	92	23	0	646971392	56	6787
2026-01-05 11:40:55.47	100.54	4.79	-41.4	-43.2	18.2	0.00e+00	0	23	0	648019968	56	6592
2026-01-05 11:40:56.48	100.67	4.76	-41.2	-42.9	18.7	0.00e+00	92	23	0	650117120	56	6354
2026-01-05 11:40:57.49	100.80	4.73	-40.9	-42.5	19.2	0.00e+00	7	23	0	652214272	56	6049
2026-01-05 11:40:58.50	100.93	4.69	-40.9	-42.6	19.0	0.00e+00	0	23	0	654311424	56	6105
2026-01-05 11:40:59.51	101.06	4.66	-40.9	-42.6	19.0	0.00e+00	1	23	0	656408576	56	6111
2026-01-05 11:41:00.52	101.20	4.62	-40.9	-42.6	19.1	0.00e+00	35	23	0	657457152	56	6139
2026-01-05 11:41:01.53	101.33	4.59	-41.1	-43.1	18.2	0.00e+00	92	23	0	659554304	56	6465
2026-01-05 11:41:02.53	101.46	4.55	-40.9	-43.0	18.4	0.00e+00	34	23	0	661651456	56	6462
2026-01-05 11:41:03.54	101.59	4.52	-41.1	-43.6	17.8	0.00e+00	92	23	0	663748608	56	6859
2026-01-05 11:41:04.55	101.72	4.48	-41.0	-43.6	18.0	0.00e+00	34	23	0	665845760	56	6893
2026-01-05 11:41:05.56	101.85	4.44	-40.5	-42.9	18.4	0.00e+00	7	23	0	666894336	54	7138
2026-01-05 11:41:06.57	101.98	4.41	-40.5	-42.4	19.0	0.00e+00	58	23	0	668991488	54	6746
2026-01-05 11:41:07.58	102.11	4.37	-40.5	-42.4	19.0	0.00e+00	8	23	0	671088640	54	6739
2026-01-05 11:41:08.59	102.24	4.34	-40.5	-42.4	18.9	0.00e+00	90	23	0	673185792	54	6766
2026-01-05 11:41:09.60	102.37	4.30	-40.9	-42.7	18.6	0.00e+00	6	23	0	675282944	54	6950
2026-01-05 11:41:10.61	102.49	4.27	-40.9	-42.6	18.8	0.00e+00	90	23	0	676331520	54	6850
2026-01-05 11:41:11.62	102.62	4.23	-41.0	-42.6	18.7	0.00e+00	0	23	0	678428672	54	6866
2026-01-05 11:41:12.63	102.75	4.19	-40.9	-42.5	18.6	0.00e+00	32	23	0	680525824	54	6817
2026-01-05 11:41:13.64	102.88	4.16	-40.8	-42.4	18.8	0.00e+00	5	23	0	682622976	54	6745
2026-01-05 11:41:14.65	103.01	4.12	-41.1	-42.7	18.6	0.00e+00	0	23	0	684720128	54	6994
2026-01-05 11:41:15.65	103.13	4.09	-41.1	-42.8	18.3	0.00e+00	82	23	0	685768704	54	7078
2026-01-05 11:41:16.67	103.26	4.05	-41.4	-43.2	17.9	0.00e+00	35	23	0	687865856	54	7417
2026-01-05 11:41:17.68	103.39	4.01	-41.4	-43.2	18.2	0.00e+00	92	23	0	689963008	54	7360
2026-01-05 11:41:18.69	103.51	3.98	-41.3	-43.0	18.3	0.00e+00	35	23	0	692060160	54	7235
2026-01-05 11:41:19.70	103.64	3.94	-41.3	-43.0	18.2	0.00e+00	92	23	0	694157312	54	7240
2026-01-05 11:41:20.70	103.76	3.91	-40.9	-42.6	18.6	0.00e+00	0	23	0	695205888	54	6867
2026-01-05 11:41:21.71	103.89	3.87	-40.9	-42.7	18.6	0.00e+00	0	23	0	697303040	54	6984
2026-01-05 11:41:22.72	104.01	3.83	-40.5	-42.3	19.0	0.00e+00	2	23	0	699400192	54	6646
2026-01-05 11:41:23.73	104.14	3.80	-40.6	-42.6	18.6	0.00e+00	35	23	0	701497344	54	6854
2026-01-05 11:41:24.74	104.26	3.76	-40.4	-42.5	18.7	0.00e+00	92	23	0	703594496	54	6793
2026-01-05 11:41:25.75	104.39	3.72	-40.5	-42.7	18.4	0.00e+00	36	23	0	704643072	54	6972
2026-01-05 11:41:26.76	104.51	3.69	-40.4	-42.6	18.3	0.00e+00	92	23	0	706740224	54	6900
2026-01-05 11:41:27.77	104.63	3.65	-40.4	-42.4	18.4	0.00e+00	0	23	0	708837376	54	6739
2026-01-05 11:41:28.78	104.76	3.61	-41.0	-43.1	17.9	0.00e+00	45	23	0	710934528	54	7314
2026-01-05 11:41:29.79	104.88	3.58	-40.4	-42.2	18.3	0.00e+00	47	23	0	713031680	54	6551
2026-01-05 11:41:30.80	105.00	3.54	-41.4	-43.4	17.6	0.00e+00	0	23	0	715128832	54	7561
2026-01-05 11:41:31.81	105.13	3.50	-40.8	-42.6	18.3	0.00e+00	92	23	0	716177408	54	6878
2026-01-05 11:41:32.82	105.25	3.46	-41.0	-43.0	17.9	0.00e+00	0	23	0	718274560	54	7225
2026-01-05 11:41:33.82	105.37	3.43	-41.0	-43.2	17.8	0.00e+00	92	23	0	720371712	54	7354
2026-01-05 11:41:34.83	105.49	3.39	-41.2	-43.4	17.5	0.00e+00	0	23	0	722468864	54	7571
2026-01-05 11:41:35.84	105.61	3.35	-41.1	-43.2	17.7	0.00e+00	0	23	0	724566016	54	7411
2026-01-05 11:41:36.85	105.73	3.32	-41.6	-44.0	16.6	0.00e+00	0	23	0	725614592	54	8100
2026-01-05 11:41:37.86	105.85	3.28	-41.5	-43.9	16.9	0.00e+00	29	23	0	727711744	56	7095
2026-01-05 11:41:38.87	105.97	3.24	-41.7	-44.1	16.7	0.00e+00	15	23	0	729808896	56	7335
2026-01-05 11:41:39.88	106.09	3.20	-41.1	-43.4	17.1	0.00e+00	0	23	0	731906048	56	6750
2026-01-05 11:41:40.89	106.21	3.17	-41.3	-43.7	16.7	0.00e+00	92	23	0	734003200	56	6940
2026-01-05 11:41:41.90	106.33	3.13	-40.9	-43.2	17.2	0.00e+00	29	23	0	735051776	54	7390
2026-01-05 11:41:42.91	106.45	3.09	-41.0	-43.4	17.1	0.00e+00	90	23	0	737148928	54	7547
2026-01-05 11:41:43.92	106.57	3.05	-42.0	-45.0	15.5	0.00e+00	35	23	0	739246080	54	9081
2026-01-05 11:41:44.93	106.69	3.01	-42.0	-44.9	15.1	0.00e+00	32	23	0	741343232	56	8006
2026-01-05 11:41:45.93	106.80	2.98	-47.6	-62.7	3.6	1.51e+00	0	23	104	742391808	60	49487
2026-01-05 11:41:46.94	106.92	2.94	-47.9	-63.3	3.6	1.51e+00	0	23	104	742391808	60	52568
2026-01-05 11:41:47.95	107.04	2.90	-48.2	-63.4	3.6	1.51e+00	0	23	104	742391808	60	53455
2026-01-05 11:41:48.96	107.16	2.86	-48.4	-63.6	3.5	1.51e+00	0	23	104	742391808	60	54712
2026-01-05 11:41:49.97	107.27	2.83	-48.4	-63.6	3.6	1.51e+00	0	23	104	742391808	60	54648
2026-01-05 11:41:50.98	107.39	2.79	-48.5	-63.7	3.6	1.51e+00	0	23	104	742391808	60	55077
2026-01-05 11:41:51.99	107.51	2.75	-48.5	-63.7	3.6	1.51e+00	0	23	104	742391808	60	55456
2026-01-05 11:41:53.00	107.62	2.71	-48.5	-63.7	3.6	1.51e+00	0	23	104	742391808	60	55651
2026-01-05 11:41:54.01	107.74	2.67	-48.5	-63.8	3.6	1.51e+00	0	23	104	742391808	60	55757
2026-01-05 11:41:55.02	107.86	2.64	-48.6	-63.8	3.6	1.51e+00	0	23	104	742391808	60	55692
2026-01-05 11:41:56.03	107.97	2.60	-48.6	-63.7	3.6	1.51e+00	0	23	104	742391808	60	55434
2026-01-05 11:41:57.04	108.09	2.56	-48.7	-63.8	3.6	1.51e+00	0	23	104	742391808	60	56243
2026-01-05 11:41:58.05	108.20	2.52	-48.6	-63.8	3.6	1.51e+00	0	23	104	742391808	60	56182
2026-01-05 11:41:59.06	108.32	2.48	-48.6	-63.8	3.6	1.51e+00	0	23	104	742391808	60	55744
2026-01-05 11:42:00.07	108.43	2.44	-48.6	-63.8	3.6	1.51e+00	0	23	104	742391808	60	55898
2026-01-05 11:42:01.08	108.54	2.41	-48.9	-64.1	3.6	1.51e+00	0	23	104	742391808	60	57650
2026-01-05 11:42:02.09	108.66	2.37	-48.8	-63.9	3.6	1.51e+00	0	23	104	742391808	60	56531
2026-01-05 11:42:03.10	108.77	2.33	-48.9	-64.0	3.6	1.51e+00	0	23	104	742391808	60	57290
2026-01-05 11:42:04.11	108.88	2.29	-48.8	-64.0	3.6	1.51e+00	0	23	104	742391808	60	57432
2026-01-05 11:42:05.12	109.00	2.25	-49.0	-64.1	3.6	1.51e+00	0	23	104	742391808	60	58019
2026-01-05 11:42:06.13	109.11	2.21	-49.0	-64.1	3.6	1.51e+00	0	23	104	742391808	60	57786
2026-01-05 11:42:07.14	109.22	2.17	-48.9	-64.1	3.5	1.51e+00	0	23	104	742391808	60	57942
2026-01-05 11:42:08.15	109.33	2.14	-48.7	-63.8	3.6	1.51e+00	0	23	104	742391808	60	56297
2026-01-05 11:42:09.16	109.45	2.10	-49.3	-64.5	3.6	1.51e+00	0	23	104	742391808	60	60741
2026-01-05 11:42:10.17	109.56	2.06	-48.9	-64.0	3.6	1.51e+00	0	23	104	742391808	60	57441
2026-01-05 11:42:11.18	109.67	2.02	-49.4	-64.6	3.6	1.51e+00	0	23	104	742391808	60	61165
2026-01-05 11:42:12.19	109.78	1.98	-49.1	-64.2	3.6	1.51e+00	0	23	104	742391808	60	58735
2026-01-05 11:42:13.20	109.89	1.94	-48.8	-63.9	3.6	1.51e+00	0	23	104	742391808	60	56791
2026-01-05 11:42:14.21	110.00	1.90	-48.8	-64.0	3.6	1.51e+00	0	23	104	742391808	60	57181
2026-01-05 11:42:15.21	110.11	1.86	-48.9	-64.0	3.6	1.51e+00	0	23	104	742391808	60	57582
2026-01-05 11:42:16.22	110.22	1.83	-49.3	-64.5	3.6	1.51e+00	0	23	104	742391808	60	60662
2026-01-05 11:42:17.23	110.33	1.79	-48.7	-63.9	3.6	1.51e+00	0	23	104	742391808	60	56496
2026-01-05 11:42:18.24	110.44	1.75	-50.7	-65.8	3.6	1.51e+00	0	23	104	742391808	60	70316
2026-01-05 11:42:19.25	110.55	1.71	-49.3	-64.5	3.6	1.51e+00	0	23	104	742391808	60	60355
2026-01-05 11:42:20.26	110.65	1.67	-49.2	-64.4	3.6	1.51e+00	0	23	104	742391808	60	59784
2026-01-05 11:42:21.27	110.76	1.63	-49.0	-64.2	3.6	1.51e+00	0	23	104	742391808	60	58443
2026-01-05 11:42:22.28	110.87	1.59	-48.8	-63.9	3.6	1.51e+00	0	23	104	742391808	60	56679
2026-01-05 11:42:23.29	110.98	1.55	-49.0	-64.1	3.6	1.51e+00	0	23	104	742391808	60	57925
2026-01-05 11:42:24.30	111.09	1.51	-51.0	-66.2	3.6	1.51e+00	0	23	104	742391808	60	73394
2026-01-05 11:42:25.31	111.19	1.47	-49.4	-64.5	3.6	1.51e+00	0	23	104	742391808	60	60926
2026-01-05 11:42:26.32	111.30	1.44	-49.2	-64.4	3.6	1.51e+00	0	24	104	742391808	60	59717
2026-01-05 11:42:27.33	111.41	1.40	-49.0	-64.2	3.6	1.51e+00	0	24	104	742391808	60	58796
2026-01-05 11:42:28.34	111.51	1.36	-48.8	-64.0	3.6	1.51e+00	0	24	104	742391808	60	57249
2026-01-05 11:42:29.35	111.62	1.32	-48.9	-64.0	3.6	1.51e+00	0	23	104	742391808	60	57290
2026-01-05 11:42:30.36	111.73	1.28	-49.3	-64.5	3.6	1.51e+00	0	23	104	742391808	60	60486
2026-01-05 11:42:31.37	111.83	1.24	-50.4	-65.5	3.6	1.51e+00	0	23	104	742391808	60	68033
2026-01-05 11:42:32.38	111.94	1.20	-49.1	-64.2	3.6	1.51e+00	0	23	104	742391808	60	58746
2026-01-05 11:42:33.39	112.04	1.16	-49.6	-64.8	3.6	1.51e+00	0	23	104	742391808	60	62783
2026-01-05 11:42:34.40	112.15	1.12	-49.7	-64.8	3.6	1.51e+00	0	23	104	742391808	60	63173
2026-01-05 11:42:35.41	112.25	1.08	-49.2	-64.3	3.6	1.51e+00	0	23	104	742391808	60	59171
2026-01-05 11:42:36.42	112.36	1.04	-49.1	-64.3	3.6	1.51e+00	0	23	104	742391808	60	58999
2026-01-05 11:42:37.43	112.46	1.00	-48.8	-64.0	3.6	1.51e+00	0	23	104	742391808	60	57144
2026-01-05 11:42:38.44	112.56	0.96	-50.2	-65.4	3.6	1.51e+00	0	23	104	742391808	60	67050
2026-01-05 11:42:39.45	112.67	0.92	-49.6	-64.8	3.6	1.51e+00	0	23	104	742391808	60	62487
2026-01-05 11:42:40.46	112.77	0.88	-49.4	-64.5	3.6	1.51e+00	0	23	104	742391808	60	60831
2026-01-05 11:42:41.47	112.87	0.84	-48.9	-64.1	3.6	1.51e+00	0	23	104	742391808	60	58165
2026-01-05 11:42:42.48	112.98	0.81	-49.0	-64.1	3.6	1.51e+00	0	23	104	742391808	60	58199
2026-01-05 11:42:43.49	113.08	0.77	-50.3	-65.4	3.5	1.51e+00	0	23	104	742391808	60	67667
2026-01-05 11:42:44.50	113.18	0.73	-49.6	-64.8	3.6	1.51e+00	0	23	104	742391808	60	62729
2026-01-05 11:42:45.51	113.28	0.69	-50.2	-65.4	3.6	1.51e+00	0	23	104	742391808	60	67414
2026-01-05 11:42:46.52	113.39	0.65	-49.7	-64.9	3.6	1.51e+00	0	23	104	742391808	60	63361
2026-01-05 11:42:47.53	113.49	0.61	-49.3	-64.4	3.6	1.51e+00	0	23	104	742391808	60	60241
2026-01-05 11:42:48.54	113.59	0.57	-48.9	-64.1	3.6	1.51e+00	0	23	104	742391808	60	57956
2026-01-05 11:42:49.55	113.69	0.53	-49.4	-64.5	3.6	1.51e+00	0	23	104	742391808	60	60713
2026-01-05 11:42:50.56	113.79	0.49	-48.9	-64.1	3.6	1.51e+00	0	23	104	742391808	60	57720
2026-01-05 11:42:51.57	113.89	0.45	-49.3	-64.4	3.6	1.51e+00	0	23	104	742391808	60	60172
2026-01-05 11:42:52.58	113.99	0.41	-49.5	-64.6	3.6	1.51e+00	0	23	104	742391808	60	61635
2026-01-05 11:42:53.59	114.09	0.37	-49.6	-64.8	3.6	1.51e+00	0	23	104	742391808	60	62699
2026-01-05 11:42:54.60	114.19	0.33	-49.7	-64.8	3.6	1.51e+00	0	23	104	742391808	60	62808
2026-01-05 11:42:55.61	114.29	0.29	-50.7	-65.8	3.6	1.51e+00	0	23	104	742391808	60	70567
2026-01-05 11:42:56.62	114.39	0.25	-49.4	-64.6	3.6	1.51e+00	0	23	104	742391808	60	61104
2026-01-05 11:42:57.63	114.49	0.21	-49.8	-64.9	3.6	1.51e+00	0	23	104	742391808	60	63725
2026-01-05 11:42:58.64	114.59	0.17	-49.3	-64.4	3.6	1.51e+00	0	23	104	742391808	60	60139
2026-01-05 11:42:59.65	114.69	0.13	-50.0	-65.1	3.6	1.51e+00	0	23	104	742391808	60	65345
2026-01-05 11:43:00.66	114.78	0.09	-49.5	-64.7	3.6	1.51e+00	0	23	104	742391808	60	61808
2026-01-05 11:43:01.67	114.88	0.05	-49.3	-64.4	3.6	1.51e+00	0	23	104	742391808	60	60167
2026-01-05 11:43:02.68	114.98	0.01	-50.0	-65.1	3.6	1.51e+00	0	23	104	742391808	60	65021

#Closed at: 2026-01-05 11:43:03
#Recorded file [742 MB]: D:/lorett/data/35029_260105_233154.dat