passes_logs/2026/01/05/R4.6S_Anadyr/R4.6S_Anadyr__20260105_212852_TY-42_rec.log

#Pass ID: 20260105_212852_TY-42
#Satellite: TY-42
#Configuration: TY-42_900M
#almurnet v.1.7.20251203
#Start time: 2026-01-05 21:29:26

#Version: 2.2.20231116
#Station: R4.6S_Anadyr
#Location: 177.4865 lon 64.73178 lat
#TLE: 1 64048U 25103A   26005.68684028  .00008011  00000-0  38191-3 0 09993
#TLE: 2 64048 097.4106 081.2795 0001725 092.4682 306.5290 15.19173644 35407

#Time	Az	El	Level	Level2	SNR	BER	BlckErr	Temp	State	Recorded	gain1	gain2
2026-01-05 21:29:26.08	27.90	1.70	-46.8	-49.3	6.1	0.00e+00	0	33	104	0	60	35914
2026-01-05 21:29:27.24	28.04	1.76	-46.8	-49.4	6.1	0.00e+00	0	33	104	0	60	36199
2026-01-05 21:29:28.11	28.14	1.80	-46.8	-49.4	6.1	0.00e+00	0	33	104	0	60	36039
2026-01-05 21:29:29.26	28.28	1.86	-46.8	-49.3	6.1	0.00e+00	0	33	104	0	60	35931
2026-01-05 21:29:30.13	28.38	1.91	-46.8	-49.4	6.1	0.00e+00	0	33	104	0	60	36123
2026-01-05 21:29:31.28	28.52	1.97	-46.8	-49.3	6.1	0.00e+00	0	33	104	0	60	35915
2026-01-05 21:29:32.15	28.62	2.01	-46.8	-49.3	6.1	0.00e+00	0	33	104	0	60	35936
2026-01-05 21:29:33.30	28.76	2.07	-46.8	-49.4	6.1	0.00e+00	0	33	104	0	60	35964
2026-01-05 21:29:34.17	28.87	2.12	-46.8	-49.4	6.1	0.00e+00	0	33	104	0	60	35971
2026-01-05 21:29:35.32	29.01	2.18	-46.8	-49.4	6.1	0.00e+00	0	33	104	0	60	36165
2026-01-05 21:29:36.19	29.11	2.22	-46.8	-49.4	6.1	0.00e+00	0	33	104	0	60	36093
2026-01-05 21:29:37.34	29.26	2.28	-46.8	-49.4	6.1	0.00e+00	0	33	104	0	60	36226
2026-01-05 21:29:38.21	29.36	2.33	-46.8	-49.3	6.1	0.00e+00	0	33	104	0	60	35931
2026-01-05 21:29:39.36	29.50	2.39	-46.8	-49.4	6.1	0.00e+00	0	33	104	0	60	36133
2026-01-05 21:29:40.23	29.61	2.43	-46.8	-49.4	6.1	0.00e+00	0	33	104	0	60	36000
2026-01-05 21:29:41.38	29.76	2.49	-46.8	-49.4	6.1	0.00e+00	0	33	104	0	60	36088
2026-01-05 21:29:42.25	29.87	2.54	-46.8	-49.4	6.1	0.00e+00	0	33	104	0	60	35998
2026-01-05 21:29:43.40	30.01	2.60	-46.8	-49.4	6.1	0.00e+00	0	33	104	0	60	35990
2026-01-05 21:29:44.27	30.12	2.65	-46.8	-49.3	6.1	0.00e+00	0	33	104	0	60	35915
2026-01-05 21:29:45.43	30.27	2.71	-46.8	-49.3	6.1	0.00e+00	0	33	104	0	60	35908
2026-01-05 21:29:46.29	30.38	2.75	-46.8	-49.4	6.1	0.00e+00	0	33	104	0	60	36105
2026-01-05 21:29:47.44	30.53	2.81	-46.8	-49.4	6.1	0.00e+00	0	33	104	0	60	35967
2026-01-05 21:29:48.31	30.64	2.86	-46.8	-49.4	6.1	0.00e+00	0	33	104	0	60	36015
2026-01-05 21:29:49.47	30.79	2.92	-46.8	-49.3	6.1	0.00e+00	0	33	104	0	60	35854
2026-01-05 21:29:50.33	30.90	2.96	-46.8	-49.4	6.1	0.00e+00	0	34	104	0	60	36033
2026-01-05 21:29:51.48	31.05	3.02	-46.8	-49.4	6.1	0.00e+00	0	33	104	0	60	36204
2026-01-05 21:29:52.35	31.16	3.07	-46.8	-49.4	6.1	0.00e+00	0	33	104	0	60	36018
2026-01-05 21:29:53.50	31.32	3.13	-46.8	-49.4	6.1	0.00e+00	0	34	104	0	60	36039
2026-01-05 21:29:54.37	31.43	3.18	-46.9	-49.5	6.1	0.00e+00	0	34	104	0	60	36367
2026-01-05 21:29:55.52	31.58	3.24	-46.9	-49.4	6.1	0.00e+00	0	34	104	0	60	36283
2026-01-05 21:29:56.39	31.70	3.28	-46.7	-49.2	6.1	0.00e+00	0	34	104	0	60	35522
2026-01-05 21:29:57.54	31.85	3.35	-47.2	-49.7	6.1	0.00e+00	0	34	104	0	60	37275
2026-01-05 21:29:58.40	31.97	3.39	-47.3	-49.8	6.1	0.00e+00	0	34	104	0	60	37660
2026-01-05 21:29:59.56	32.13	3.45	-47.3	-49.8	6.1	0.00e+00	0	34	104	0	60	37777
2026-01-05 21:30:00.43	32.25	3.50	-47.1	-49.6	6.1	0.00e+00	0	34	104	0	60	37138
2026-01-05 21:30:01.58	32.40	3.56	-47.2	-49.7	6.1	0.00e+00	0	34	104	0	60	37621
2026-01-05 21:30:02.44	32.52	3.60	-47.4	-50.0	6.1	0.00e+00	0	34	104	0	60	38535
2026-01-05 21:30:03.59	32.68	3.67	-47.1	-49.6	6.1	0.00e+00	0	34	104	0	60	37190
2026-01-05 21:30:04.46	32.80	3.71	-47.2	-49.7	6.1	0.00e+00	0	34	104	0	60	37391
2026-01-05 21:30:05.61	32.96	3.77	-47.2	-49.8	6.1	0.00e+00	0	34	104	0	60	37675
2026-01-05 21:30:06.48	33.08	3.82	-47.5	-50.0	6.1	0.00e+00	0	34	104	0	60	38564
2026-01-05 21:30:07.63	33.24	3.88	-47.2	-49.8	6.1	0.00e+00	0	34	104	0	60	37781
2026-01-05 21:30:08.50	33.36	3.93	-47.1	-49.7	6.1	0.00e+00	0	34	104	0	60	37335
2026-01-05 21:30:09.65	33.53	3.99	-47.2	-49.8	6.1	0.00e+00	0	34	104	0	60	37777
2026-01-05 21:30:10.52	33.65	4.03	-47.3	-49.8	6.1	0.00e+00	0	34	104	0	60	37742
2026-01-05 21:30:11.67	33.82	4.10	-47.0	-49.6	6.1	0.00e+00	0	34	104	0	60	37118
2026-01-05 21:30:12.54	33.94	4.14	-47.3	-49.8	6.1	0.00e+00	0	34	104	0	60	37714
2026-01-05 21:30:13.69	34.11	4.20	-47.4	-49.9	6.1	0.00e+00	0	34	104	0	60	38411
2026-01-05 21:30:14.55	34.23	4.25	-47.3	-49.8	6.1	0.00e+00	0	34	104	0	60	38052
2026-01-05 21:30:15.71	34.40	4.31	-47.4	-49.9	6.1	0.00e+00	0	34	104	0	60	38264
2026-01-05 21:30:16.57	34.52	4.36	-47.2	-49.8	6.1	0.00e+00	0	34	104	0	60	37647
2026-01-05 21:30:17.73	34.70	4.42	-47.4	-49.9	6.1	0.00e+00	0	34	104	0	60	38493
2026-01-05 21:30:18.59	34.82	4.46	-47.4	-49.8	6.1	0.00e+00	0	34	104	0	60	38064
2026-01-05 21:30:19.75	34.99	4.53	-47.5	-50.0	6.1	0.00e+00	0	34	104	0	60	38589
2026-01-05 21:30:20.61	35.12	4.57	-47.4	-49.9	6.1	0.00e+00	0	34	104	0	60	38424
2026-01-05 21:30:21.77	35.29	4.63	-47.7	-50.1	6.1	0.00e+00	0	34	104	0	60	39252
2026-01-05 21:30:22.63	35.42	4.68	-47.5	-50.1	6.1	0.00e+00	0	34	104	0	60	39044
2026-01-05 21:30:23.78	35.60	4.74	-47.5	-50.0	6.1	0.00e+00	0	34	104	0	60	38680
2026-01-05 21:30:24.65	35.73	4.79	-47.5	-50.0	6.1	0.00e+00	0	34	104	0	60	38627
2026-01-05 21:30:25.80	35.90	4.85	-47.7	-50.2	6.1	0.00e+00	0	34	104	0	60	39795
2026-01-05 21:30:26.67	36.04	4.89	-47.6	-50.1	6.1	0.00e+00	0	34	104	0	60	39164
2026-01-05 21:30:27.82	36.21	4.96	-47.5	-50.1	6.1	0.00e+00	0	34	104	0	60	38958
2026-01-05 21:30:28.69	36.35	5.00	-47.5	-50.0	6.1	0.00e+00	0	34	104	0	60	38705
2026-01-05 21:30:29.84	36.53	5.06	-47.7	-50.1	6.1	0.00e+00	0	34	104	0	60	39385
2026-01-05 21:30:30.71	36.66	5.11	-47.5	-50.1	6.1	0.00e+00	0	34	104	0	60	39067
2026-01-05 21:30:31.86	36.84	5.17	-47.6	-50.1	6.1	0.00e+00	0	34	104	0	60	39059
2026-01-05 21:30:32.73	36.98	5.22	-47.5	-50.0	6.1	0.00e+00	0	34	104	0	60	38905
2026-01-05 21:30:33.88	37.16	5.28	-47.7	-50.2	6.1	0.00e+00	0	34	104	0	60	39679
2026-01-05 21:30:34.74	37.29	5.32	-47.7	-50.2	6.1	0.00e+00	0	34	104	0	60	39580
2026-01-05 21:30:35.90	37.48	5.39	-47.6	-50.1	6.1	0.00e+00	0	34	104	0	60	39119
2026-01-05 21:30:36.76	37.62	5.43	-47.6	-50.1	6.1	0.00e+00	0	34	104	0	60	39011
2026-01-05 21:30:37.92	37.80	5.49	-47.7	-50.2	6.1	0.00e+00	0	35	104	0	60	39690
2026-01-05 21:30:38.78	37.94	5.54	-47.6	-50.1	6.1	0.00e+00	0	34	104	0	60	39334
2026-01-05 21:30:39.93	38.13	5.60	-47.7	-50.2	6.1	0.00e+00	0	35	104	0	60	39784
2026-01-05 21:30:40.80	38.27	5.65	-47.6	-50.1	6.1	0.00e+00	0	35	104	0	60	39093
2026-01-05 21:30:41.95	38.46	5.71	-47.8	-50.3	6.1	0.00e+00	0	35	104	0	60	40054
2026-01-05 21:30:42.82	38.60	5.75	-47.8	-50.3	6.1	0.00e+00	0	35	104	0	60	40151
2026-01-05 21:30:43.97	38.79	5.82	-47.5	-50.1	6.1	0.00e+00	0	35	104	0	60	39020
2026-01-05 21:30:44.84	38.93	5.86	-47.5	-50.1	6.1	0.00e+00	0	35	104	0	60	39061
2026-01-05 21:30:45.99	39.12	5.92	-47.9	-50.4	6.1	0.00e+00	0	35	104	0	60	40432
2026-01-05 21:30:46.86	39.27	5.97	-47.8	-50.3	6.1	0.00e+00	0	35	104	0	60	40260
2026-01-05 21:30:48.01	39.46	6.03	-47.8	-50.3	6.1	0.00e+00	0	35	104	0	60	39948
2026-01-05 21:30:48.88	39.61	6.08	-47.6	-50.1	6.1	0.00e+00	0	35	104	0	60	38989
2026-01-05 21:30:50.03	39.80	6.14	-47.6	-50.1	6.1	0.00e+00	0	35	104	0	60	39348
2026-01-05 21:30:50.90	39.95	6.18	-47.7	-50.2	6.1	0.00e+00	0	35	104	0	60	39721
2026-01-05 21:30:52.05	40.15	6.24	-47.8	-50.3	6.1	0.00e+00	0	35	104	0	60	40114
2026-01-05 21:30:52.91	40.30	6.29	-47.7	-50.2	6.1	0.00e+00	0	35	104	0	60	39649
2026-01-05 21:30:54.07	40.50	6.35	-47.8	-50.3	6.1	0.00e+00	0	35	104	0	60	39991
2026-01-05 21:30:54.93	40.65	6.40	-47.8	-50.3	6.1	0.00e+00	0	35	104	0	60	40119
2026-01-05 21:30:56.09	40.85	6.46	-47.7	-50.2	6.1	0.00e+00	0	35	104	0	60	39630
2026-01-05 21:30:56.95	41.00	6.50	-47.8	-50.3	6.1	0.00e+00	0	35	104	0	60	40102
2026-01-05 21:30:58.11	41.20	6.56	-47.4	-50.0	6.1	0.00e+00	0	35	104	0	60	38724
2026-01-05 21:30:58.97	41.35	6.61	-47.7	-50.3	6.1	0.00e+00	0	35	104	0	60	39958
2026-01-05 21:31:00.12	41.56	6.67	-47.8	-50.3	6.1	0.00e+00	0	35	104	0	60	40176
2026-01-05 21:31:00.99	41.71	6.71	-47.9	-50.3	6.1	0.00e+00	0	35	104	0	60	40116
2026-01-05 21:31:02.14	41.92	6.77	-46.3	-49.0	6.1	0.00e+00	0	35	104	0	60	34587
2026-01-05 21:31:03.01	42.07	6.82	-45.9	-48.6	6.2	0.00e+00	0	35	104	0	60	32835
2026-01-05 21:31:04.16	42.28	6.88	-45.7	-48.5	6.2	0.00e+00	0	35	104	0	60	32531
2026-01-05 21:31:05.03	42.44	6.93	-46.1	-48.8	6.1	0.00e+00	0	35	104	0	60	33893
2026-01-05 21:31:06.18	42.65	6.99	-46.5	-49.2	6.1	0.00e+00	0	35	104	0	60	35138
2026-01-05 21:31:07.04	42.80	7.03	-47.4	-50.1	6.1	0.00e+00	0	35	104	0	60	39002
2026-01-05 21:31:08.20	43.02	7.09	-47.5	-50.1	6.1	0.00e+00	0	35	104	0	60	39237
2026-01-05 21:31:09.06	43.18	7.13	-47.2	-49.8	6.1	0.00e+00	0	35	104	0	60	37910
2026-01-05 21:31:10.22	43.39	7.19	-47.1	-49.7	6.1	0.00e+00	0	35	104	0	60	37548
2026-01-05 21:31:11.08	43.55	7.24	-46.7	-49.4	6.1	0.00e+00	0	35	104	0	60	36000
2026-01-05 21:31:12.23	43.77	7.30	-47.2	-49.8	6.1	0.00e+00	0	35	104	0	60	37710
2026-01-05 21:31:13.10	43.93	7.34	-47.3	-49.9	6.1	0.00e+00	0	35	104	0	60	38293
2026-01-05 21:31:14.25	44.14	7.40	-47.4	-50.0	6.1	0.00e+00	0	35	104	0	60	38758
2026-01-05 21:31:15.12	44.31	7.45	-47.2	-49.8	6.1	0.00e+00	0	35	104	0	60	37961
2026-01-05 21:31:16.27	44.53	7.51	-47.1	-49.7	6.1	0.00e+00	0	35	104	0	60	37422
2026-01-05 21:31:17.13	44.69	7.55	-47.2	-49.9	6.1	0.00e+00	0	35	104	0	60	38165
2026-01-05 21:31:18.29	44.91	7.61	-47.9	-50.5	6.1	0.00e+00	0	35	104	0	60	41071
2026-01-05 21:31:19.15	45.08	7.65	-47.3	-49.9	6.1	0.00e+00	0	35	104	0	60	38505
2026-01-05 21:31:20.31	45.30	7.71	-47.2	-49.8	6.1	0.00e+00	0	35	104	0	60	37890
2026-01-05 21:31:21.17	45.47	7.76	-47.2	-49.8	6.1	0.00e+00	0	35	104	0	60	37919
2026-01-05 21:31:22.33	45.70	7.82	-47.5	-50.1	6.1	0.00e+00	0	35	104	0	60	38969
2026-01-05 21:31:23.19	45.87	7.86	-47.6	-50.2	6.1	0.00e+00	0	35	104	0	60	39597
2026-01-05 21:31:24.35	46.09	7.92	-47.8	-50.3	6.1	0.00e+00	0	35	104	0	60	39992
2026-01-05 21:31:25.21	46.26	7.96	-47.9	-50.4	6.1	0.00e+00	0	35	104	0	60	40435
2026-01-05 21:31:26.36	46.49	8.02	-48.0	-50.5	6.1	0.00e+00	0	35	104	0	60	41176
2026-01-05 21:31:27.23	46.66	8.06	-47.7	-50.3	6.1	0.00e+00	0	35	104	0	60	39909
2026-01-05 21:31:28.38	46.89	8.12	-47.9	-50.4	6.1	0.00e+00	0	35	104	0	60	40409
2026-01-05 21:31:29.25	47.07	8.16	-47.8	-50.3	6.1	0.00e+00	0	35	104	0	60	40193
2026-01-05 21:31:30.40	47.30	8.22	-47.5	-50.1	6.1	0.00e+00	0	35	104	0	60	39052
2026-01-05 21:31:31.27	47.48	8.26	-48.1	-50.6	6.1	0.00e+00	0	35	104	0	60	41565
2026-01-05 21:31:32.42	47.71	8.32	-47.9	-50.4	6.1	0.00e+00	0	35	104	0	60	40626
2026-01-05 21:31:33.28	47.89	8.36	-47.6	-50.1	6.1	0.00e+00	0	35	104	0	60	39133
2026-01-05 21:31:34.44	48.12	8.42	-48.0	-50.5	6.1	0.00e+00	0	35	104	0	60	41049
2026-01-05 21:31:35.30	48.30	8.46	-47.9	-50.4	6.1	0.00e+00	0	35	104	0	60	40577
2026-01-05 21:31:36.46	48.54	8.52	-47.9	-50.5	6.1	0.00e+00	0	35	104	0	60	40899
2026-01-05 21:31:37.32	48.72	8.56	-47.6	-50.2	6.1	0.00e+00	0	35	104	0	60	39756
2026-01-05 21:31:38.48	48.96	8.62	-47.4	-50.0	6.1	0.00e+00	0	35	104	0	60	38716
2026-01-05 21:31:39.34	49.14	8.66	-47.4	-50.0	6.1	0.00e+00	0	35	104	0	60	38793
2026-01-05 21:31:40.50	49.38	8.71	-47.9	-50.5	6.1	0.00e+00	0	35	104	0	60	40931
2026-01-05 21:31:41.36	49.57	8.76	-48.0	-50.5	6.1	0.00e+00	0	35	104	0	60	40842
2026-01-05 21:31:42.51	49.81	8.81	-47.4	-50.1	6.1	0.00e+00	0	35	104	0	60	39020
2026-01-05 21:31:43.37	49.99	8.85	-47.7	-50.2	6.1	0.00e+00	0	35	104	0	60	39862
2026-01-05 21:31:44.53	50.24	8.91	-47.9	-50.5	6.1	0.00e+00	0	35	104	0	60	40814
2026-01-05 21:31:45.39	50.42	8.95	-48.0	-50.5	6.1	0.00e+00	0	35	104	0	60	41108
2026-01-05 21:31:46.55	50.67	9.00	-47.9	-50.4	6.1	0.00e+00	0	35	104	0	60	40560
2026-01-05 21:31:47.41	50.86	9.04	-47.5	-50.1	6.1	0.00e+00	0	35	104	0	60	39297
2026-01-05 21:31:48.57	51.11	9.10	-46.6	-49.3	6.1	0.00e+00	0	35	104	0	60	35740
2026-01-05 21:31:49.43	51.30	9.14	-46.5	-49.2	6.1	0.00e+00	0	35	104	0	60	35375
2026-01-05 21:31:50.59	51.55	9.19	-45.9	-48.6	6.2	0.00e+00	0	35	104	0	60	33145
2026-01-05 21:31:51.45	51.74	9.23	-47.9	-50.5	6.1	0.00e+00	0	35	104	0	60	40926
2026-01-05 21:31:52.61	52.00	9.28	-48.2	-50.7	6.1	0.00e+00	0	35	104	0	60	41955
2026-01-05 21:31:53.47	52.19	9.32	-47.4	-50.1	6.1	0.00e+00	0	35	104	0	60	38971
2026-01-05 21:31:54.63	52.44	9.38	-45.8	-48.6	6.2	0.00e+00	0	35	104	0	60	33005
2026-01-05 21:31:55.49	52.63	9.42	-44.0	-46.9	6.5	0.00e+00	0	35	104	0	60	27053
2026-01-05 21:31:56.64	52.89	9.47	-44.6	-47.4	6.4	0.00e+00	0	35	104	0	60	28783
2026-01-05 21:31:57.51	53.09	9.51	-47.4	-49.9	6.1	0.00e+00	0	35	104	0	60	38501
2026-01-05 21:31:58.66	53.35	9.56	-46.0	-48.8	6.1	0.00e+00	0	35	104	0	60	33715
2026-01-05 21:31:59.53	53.54	9.60	-45.5	-48.3	6.3	0.00e+00	0	35	104	0	60	31849
2026-01-05 21:32:00.67	53.80	9.65	-45.0	-47.8	6.3	0.00e+00	0	35	104	0	60	30148
2026-01-05 21:32:01.54	54.00	9.69	-45.6	-48.4	6.2	0.00e+00	0	35	104	0	60	32147
2026-01-05 21:32:02.69	54.26	9.74	-47.5	-50.1	6.1	0.00e+00	0	35	104	0	60	39253
2026-01-05 21:32:03.56	54.46	9.77	-48.1	-50.6	6.1	0.00e+00	0	35	104	0	60	41643
2026-01-05 21:32:04.71	54.73	9.82	-46.9	-49.6	6.1	0.00e+00	0	35	104	0	60	36963
2026-01-05 21:32:05.57	54.93	9.86	-46.8	-49.6	6.1	0.00e+00	0	35	104	0	60	36806
2026-01-05 21:32:06.73	55.19	9.91	-47.5	-50.1	6.1	0.00e+00	0	35	104	0	60	39229
2026-01-05 21:32:07.59	55.39	9.95	-25.5	-25.7	11.9	0.00e+00	0	36	104	0	34	10560
2026-01-05 21:32:08.75	55.67	10.00	-43.2	-44.4	6.4	0.00e+00	0	35	104	0	46	45322
2026-01-05 21:32:09.61	55.87	10.03	-26.5	-26.7	11.8	0.00e+00	15	35	104	0	36	10584
2026-01-05 21:32:10.76	56.14	10.08	-23.1	-23.6	17.1	0.00e+00	0	36	0	33554432	22	16450
2026-01-05 21:32:11.63	56.34	10.12	-23.1	-23.6	17.1	1.02e-02	0	36	0	125829120	22	16497
2026-01-05 21:32:12.78	56.62	10.16	-23.3	-23.7	17.2	1.02e-02	0	36	0	260046848	22	16786
2026-01-05 21:32:13.65	56.82	10.20	-23.5	-24.0	17.2	0.00e+00	0	36	0	360710144	22	17312
2026-01-05 21:32:14.80	57.10	10.25	-23.6	-24.1	16.7	0.00e+00	0	36	0	486539264	22	17454
2026-01-05 21:32:15.67	57.30	10.28	-23.5	-23.9	16.7	0.00e+00	0	36	0	587202560	22	17201
2026-01-05 21:32:16.82	57.58	10.33	-23.6	-24.0	16.8	0.00e+00	0	36	0	713031680	22	17382
2026-01-05 21:32:17.68	57.79	10.36	-23.6	-24.1	17.0	0.00e+00	0	36	0	805306368	22	17511
2026-01-05 21:32:18.83	58.07	10.41	-23.8	-24.3	17.1	0.00e+00	0	36	0	939524096	22	17964
2026-01-05 21:32:19.70	58.28	10.44	-23.9	-24.3	17.1	0.00e+00	0	36	0	1040187392	22	17949
2026-01-05 21:32:20.85	58.56	10.48	-24.1	-24.6	17.0	0.00e+00	0	36	0	1166016512	22	18440
2026-01-05 21:32:21.71	58.77	10.52	-23.9	-24.4	17.0	0.00e+00	0	36	0	1266679808	22	18178
2026-01-05 21:32:22.87	59.05	10.56	-24.0	-24.5	16.9	0.00e+00	0	36	0	1392508928	22	18386
2026-01-05 21:32:23.73	59.26	10.59	-24.2	-24.7	16.9	0.00e+00	0	36	0	1493172224	22	18774
2026-01-05 21:32:24.89	59.55	10.64	-24.1	-24.6	16.9	0.00e+00	0	36	0	1619001344	22	18555
2026-01-05 21:32:25.75	59.76	10.67	-24.2	-24.7	17.0	0.00e+00	0	36	0	1719664640	22	18831
2026-01-05 21:32:26.91	60.05	10.71	-24.2	-24.7	16.9	0.00e+00	0	36	0	1845493760	22	18819
2026-01-05 21:32:27.77	60.26	10.74	-24.3	-24.8	16.7	0.00e+00	0	36	0	1946157056	22	18958
2026-01-05 21:32:28.92	60.55	10.78	-24.3	-24.8	16.7	0.00e+00	0	36	0	2071986176	22	18989
2026-01-05 21:32:29.79	60.76	10.82	-24.2	-24.7	16.8	0.00e+00	0	36	0	2172649472	22	18783
2026-01-05 21:32:30.94	61.05	10.86	-24.4	-24.9	16.8	0.00e+00	0	36	0	2306867200	22	19163
2026-01-05 21:32:31.81	61.27	10.89	-24.3	-24.8	16.7	0.00e+00	0	36	0	2399141888	22	19037
2026-01-05 21:32:32.96	61.56	10.93	-24.4	-24.9	16.8	1.08e-05	0	36	0	2533359616	22	19150
2026-01-05 21:32:33.83	61.78	10.96	-24.5	-25.0	16.6	1.08e-05	0	36	0	2625634304	22	19366
2026-01-05 21:32:34.98	62.07	11.00	-24.4	-24.9	15.8	0.00e+00	0	36	0	2751463424	22	19154
2026-01-05 21:32:35.85	62.30	11.02	-24.5	-24.9	15.8	7.62e-05	0	36	0	2860515328	22	19277
2026-01-05 21:32:37.00	62.59	11.06	-24.5	-24.9	15.2	7.62e-05	0	36	0	2986344448	22	19137
2026-01-05 21:32:37.86	62.81	11.09	-24.5	-25.0	15.3	2.12e-04	0	36	0	3078619136	22	19369
2026-01-05 21:32:39.02	63.11	11.13	-24.4	-24.9	15.6	2.12e-04	0	36	0	3212836864	22	19206
2026-01-05 21:32:39.88	63.33	11.16	-24.4	-24.8	15.6	1.69e-04	0	36	0	3305111552	22	18999
2026-01-05 21:32:41.04	63.63	11.19	-24.3	-24.8	15.9	1.69e-04	0	36	0	3439329280	22	18901
2026-01-05 21:32:41.90	63.85	11.22	-24.5	-25.0	16.4	1.69e-04	0	36	0	3539992576	22	19357
2026-01-05 21:32:43.06	64.15	11.25	-24.5	-25.0	16.8	7.62e-05	0	36	0	3665821696	22	19488
2026-01-05 21:32:43.92	64.37	11.28	-24.4	-24.9	16.8	7.62e-05	0	36	0	3758096384	22	19177
2026-01-05 21:32:45.07	64.67	11.31	-24.5	-25.0	16.8	0.00e+00	0	36	0	3892314112	22	19415
2026-01-05 21:32:45.94	64.90	11.34	-24.4	-24.9	16.9	0.00e+00	0	36	0	3992977408	22	19108
2026-01-05 21:32:47.09	65.20	11.37	-24.5	-25.0	16.8	1.08e-05	0	36	0	4118806528	22	19354
2026-01-05 21:32:47.96	65.43	11.40	-24.5	-25.0	16.6	1.08e-05	0	36	0	4219469824	22	19302
2026-01-05 21:32:49.11	65.73	11.43	-24.5	-25.0	16.8	5.40e-06	0	36	0	4345298944	22	19373
2026-01-05 21:32:49.98	65.96	11.46	-24.4	-24.9	16.8	5.40e-06	0	36	0	4445962240	22	19110
2026-01-05 21:32:51.13	66.26	11.49	-24.6	-25.1	16.8	0.00e+00	0	36	0	4571791360	22	19581
2026-01-05 21:32:51.99	66.49	11.51	-24.6	-25.1	16.8	0.00e+00	0	36	0	4672454656	22	19633
2026-01-05 21:32:53.15	66.80	11.54	-24.5	-25.0	16.7	5.40e-06	0	36	0	4806672384	22	19335
2026-01-05 21:32:54.01	67.03	11.56	-24.5	-24.9	16.1	5.40e-06	0	36	0	4898947072	22	19292
2026-01-05 21:32:55.17	67.34	11.59	-24.5	-24.9	15.8	5.40e-06	0	36	0	5024776192	22	19194
2026-01-05 21:32:56.03	67.57	11.61	-24.3	-24.8	15.9	1.09e-04	0	36	0	5125439488	22	18884
2026-01-05 21:32:57.18	67.87	11.64	-24.4	-24.8	15.9	1.09e-04	0	36	0	5251268608	22	19023
2026-01-05 21:32:58.05	68.11	11.66	-24.4	-24.9	16.1	9.26e-05	0	36	0	5351931904	22	19102
2026-01-05 21:32:59.20	68.42	11.69	-24.4	-24.8	16.3	9.26e-05	0	36	0	5486149632	22	19027
2026-01-05 21:33:00.06	68.65	11.71	-24.3	-24.8	16.1	7.08e-05	0	36	0	5578424320	22	18958
2026-01-05 21:33:01.22	68.96	11.74	-24.3	-24.7	15.8	7.08e-05	0	36	0	5704253440	22	18802
2026-01-05 21:33:02.08	69.19	11.76	-24.4	-24.9	15.9	7.08e-05	0	36	0	5804916736	22	19098
2026-01-05 21:33:03.23	69.50	11.78	-24.3	-24.7	15.5	7.08e-05	0	36	0	5930745856	22	18839
2026-01-05 21:33:04.10	69.74	11.80	-24.3	-24.8	15.7	7.08e-05	0	36	0	6031409152	22	18879
2026-01-05 21:33:05.25	70.05	11.82	-24.4	-24.8	16.4	2.12e-04	0	36	0	6165626880	22	19025
2026-01-05 21:33:06.12	70.29	11.84	-24.3	-24.7	16.5	2.12e-04	0	36	0	6257901568	22	18846
2026-01-05 21:33:07.27	70.60	11.86	-24.4	-24.9	16.7	1.08e-05	0	36	0	6392119296	22	19182
2026-01-05 21:33:08.13	70.84	11.88	-24.3	-24.8	16.8	1.08e-05	0	36	0	6484393984	22	18893
2026-01-05 21:33:09.29	71.16	11.90	-24.4	-24.8	16.7	1.08e-05	0	36	0	6610223104	22	19009
2026-01-05 21:33:10.15	71.39	11.92	-24.5	-24.9	16.6	0.00e+00	0	36	0	6719275008	22	19269
2026-01-05 21:33:11.31	71.71	11.94	-24.5	-24.9	16.7	0.00e+00	0	36	0	6845104128	22	19258
2026-01-05 21:33:12.17	71.95	11.95	-24.4	-24.9	16.6	1.08e-05	0	36	0	6937378816	22	19149
2026-01-05 21:33:13.32	72.26	11.97	-24.4	-24.8	16.6	1.08e-05	0	36	0	7071596544	22	19066
2026-01-05 21:33:14.19	72.50	11.99	-24.5	-25.0	16.6	1.08e-05	0	36	0	7172259840	22	19323
2026-01-05 21:33:15.34	72.82	12.01	-24.4	-24.8	16.7	1.08e-05	0	36	0	7298088960	22	19040
2026-01-05 21:33:16.21	73.06	12.02	-24.5	-25.0	16.7	1.08e-05	0	36	0	7398752256	22	19307
2026-01-05 21:33:17.36	73.38	12.04	-24.5	-25.0	16.8	5.40e-06	0	36	0	7524581376	22	19356
2026-01-05 21:33:18.23	73.62	12.05	-24.3	-24.8	16.8	5.40e-06	0	36	0	7616856064	22	18994
2026-01-05 21:33:19.39	73.94	12.06	-24.3	-24.8	16.8	0.00e+00	0	36	0	7751073792	22	18931
2026-01-05 21:33:20.25	74.18	12.08	-24.5	-24.9	16.3	1.63e-05	0	36	0	7851737088	22	19232
2026-01-05 21:33:21.41	74.50	12.09	-24.4	-24.8	16.2	1.63e-05	0	36	0	7977566208	22	19003
2026-01-05 21:33:22.27	74.74	12.10	-24.4	-24.9	16.0	1.63e-05	0	36	0	8078229504	22	19080
2026-01-05 21:33:23.43	75.06	12.11	-24.4	-24.8	16.1	1.63e-05	0	36	0	8204058624	22	19007
2026-01-05 21:33:24.29	75.30	12.12	-24.3	-24.7	16.8	8.17e-05	0	36	0	8304721920	22	18777
2026-01-05 21:33:25.45	75.62	12.14	-24.4	-24.9	16.6	8.17e-05	0	36	0	8438939648	22	19155
2026-01-05 21:33:26.31	75.86	12.14	-24.4	-24.8	16.4	1.08e-05	0	36	0	8531214336	22	19041
2026-01-05 21:33:27.47	76.19	12.16	-24.5	-24.9	16.1	1.08e-05	0	36	0	8665432064	22	19292
2026-01-05 21:33:28.33	76.43	12.16	-24.5	-25.0	16.3	5.99e-05	0	36	0	8757706752	22	19402
2026-01-05 21:33:29.49	76.75	12.17	-24.4	-24.9	16.4	5.99e-05	0	36	0	8891924480	22	19167
2026-01-05 21:33:30.35	76.99	12.18	-24.5	-24.9	16.1	3.81e-05	0	36	0	8984199168	22	19254
2026-01-05 21:33:31.51	77.32	12.19	-24.4	-24.8	16.3	3.81e-05	0	36	0	9118416896	22	19065
2026-01-05 21:33:32.37	77.56	12.19	-24.5	-24.9	16.2	4.35e-05	0	36	0	9210691584	22	19220
2026-01-05 21:33:33.52	77.88	12.20	-24.4	-24.9	16.2	4.35e-05	0	36	0	9344909312	22	19173
2026-01-05 21:33:34.39	78.13	12.21	-24.4	-24.8	16.4	4.35e-05	0	36	0	9437184000	22	18949
2026-01-05 21:33:35.54	78.45	12.21	-24.5	-25.0	16.6	5.99e-05	0	36	0	9571401728	22	19347
2026-01-05 21:33:36.40	78.69	12.22	-24.4	-24.9	16.6	5.99e-05	0	36	0	9672065024	22	19140
2026-01-05 21:33:37.56	79.02	12.22	-24.3	-24.7	16.6	2.17e-05	0	36	0	9797894144	22	18806
2026-01-05 21:33:38.43	79.26	12.22	-24.4	-24.8	16.6	2.17e-05	0	36	0	9890168832	22	19024
2026-01-05 21:33:39.58	79.58	12.23	-24.6	-25.0	16.5	1.08e-05	0	36	0	10024386560	22	19396
2026-01-05 21:33:40.45	79.83	12.23	-24.4	-24.9	16.7	1.08e-05	0	36	0	10125049856	22	19152
2026-01-05 21:33:41.60	80.15	12.23	-24.5	-24.9	16.6	1.08e-05	0	36	0	10250878976	22	19258
2026-01-05 21:33:42.47	80.40	12.23	-24.4	-24.8	16.6	3.26e-05	0	36	0	10351542272	22	19073
2026-01-05 21:33:43.62	80.72	12.23	-24.4	-24.9	16.6	3.26e-05	0	36	0	10477371392	22	19161
2026-01-05 21:33:44.49	80.97	12.23	-24.4	-24.8	16.4	1.08e-05	0	37	0	10578034688	22	19050
2026-01-05 21:33:45.64	81.29	12.23	-24.6	-25.0	16.5	3.26e-05	0	37	0	10712252416	22	19433
2026-01-05 21:33:46.51	81.53	12.23	-24.5	-25.0	16.6	3.26e-05	0	37	0	10804527104	22	19423
2026-01-05 21:33:47.66	81.86	12.23	-24.5	-24.9	16.6	5.40e-06	0	37	0	10930356224	22	19215
2026-01-05 21:33:48.53	82.10	12.23	-24.4	-24.9	16.7	5.40e-06	0	37	0	11031019520	22	19187
2026-01-05 21:33:49.68	82.43	12.22	-24.6	-25.0	16.5	1.63e-05	0	37	0	11156848640	22	19467
2026-01-05 21:33:50.55	82.67	12.22	-24.4	-24.9	16.6	1.63e-05	0	37	0	11257511936	22	19144
2026-01-05 21:33:51.70	82.99	12.22	-24.5	-25.0	16.6	1.63e-05	0	36	0	11391729664	22	19328
2026-01-05 21:33:52.57	83.24	12.21	-24.4	-24.9	16.5	2.72e-05	0	36	0	11484004352	22	19171
2026-01-05 21:33:53.72	83.56	12.21	-24.5	-25.0	16.6	2.72e-05	0	37	0	11618222080	22	19319
2026-01-05 21:33:54.59	83.81	12.20	-24.4	-24.8	16.7	2.72e-05	0	37	0	11718885376	22	18970
2026-01-05 21:33:55.74	84.13	12.20	-24.4	-24.8	16.6	5.40e-06	0	37	0	11836325888	22	19025
2026-01-05 21:33:56.60	84.37	12.19	-24.3	-24.8	16.6	5.40e-06	0	37	0	11936989184	22	18950
2026-01-05 21:33:57.75	84.69	12.18	-24.4	-24.8	16.6	0.00e+00	0	36	0	12071206912	22	19067
2026-01-05 21:33:58.62	84.94	12.18	-24.4	-24.8	16.6	0.00e+00	0	37	0	12163481600	22	19048
2026-01-05 21:33:59.77	85.26	12.17	-24.4	-24.8	16.6	5.40e-06	0	37	0	12297699328	22	18986
2026-01-05 21:34:00.64	85.50	12.16	-24.4	-24.9	16.6	5.40e-06	0	36	0	12389974016	22	19123
2026-01-05 21:34:01.79	85.82	12.15	-24.5	-24.9	16.6	0.00e+00	0	37	0	12524191744	22	19273
2026-01-05 21:34:02.65	86.06	12.14	-24.5	-24.9	16.6	0.00e+00	0	36	0	12624855040	22	19186
2026-01-05 21:34:03.81	86.39	12.13	-24.5	-24.9	16.6	0.00e+00	0	36	0	12750684160	22	19213
2026-01-05 21:34:04.67	86.63	12.12	-24.4	-24.9	16.6	0.00e+00	0	36	0	12842958848	22	19109
2026-01-05 21:34:05.83	86.95	12.11	-24.5	-25.0	16.5	0.00e+00	0	36	0	12977176576	22	19356
2026-01-05 21:34:06.69	87.19	12.10	-24.5	-25.0	16.4	0.00e+00	0	37	0	13077839872	22	19315
2026-01-05 21:34:07.85	87.51	12.08	-24.6	-25.1	16.5	2.72e-05	0	37	0	13203668992	22	19527
2026-01-05 21:34:08.71	87.75	12.07	-24.5	-25.0	16.5	2.72e-05	0	37	0	13304332288	22	19346
2026-01-05 21:34:09.86	88.07	12.05	-24.6	-25.0	16.5	2.17e-05	0	36	0	13430161408	22	19440
2026-01-05 21:34:10.73	88.31	12.04	-24.6	-25.0	16.5	2.17e-05	0	37	0	13530824704	22	19405
2026-01-05 21:34:11.88	88.63	12.03	-24.5	-24.9	16.5	2.17e-05	0	37	0	13656653824	22	19195
2026-01-05 21:34:12.75	88.87	12.01	-24.5	-24.9	16.6	1.08e-05	0	37	0	13757317120	22	19211
2026-01-05 21:34:13.90	89.19	11.99	-24.6	-25.0	16.6	1.08e-05	0	36	0	13883146240	22	19389
2026-01-05 21:34:14.76	89.43	11.98	-24.6	-25.0	16.6	0.00e+00	0	37	0	13983809536	22	19345
2026-01-05 21:34:15.92	89.75	11.96	-24.5	-24.9	16.5	0.00e+00	0	37	0	14109638656	22	19182
2026-01-05 21:34:16.78	89.99	11.95	-24.5	-25.0	16.5	0.00e+00	0	37	0	14210301952	22	19328
2026-01-05 21:34:17.94	90.30	11.93	-24.6	-25.0	16.5	0.00e+00	0	37	0	14336131072	22	19385
2026-01-05 21:34:18.80	90.54	11.91	-24.7	-25.1	16.6	5.40e-06	0	37	0	14436794368	22	19609
2026-01-05 21:34:19.96	90.86	11.89	-24.5	-24.9	16.5	5.40e-06	0	37	0	14571012096	22	19213
2026-01-05 21:34:20.82	91.09	11.87	-24.7	-25.1	16.4	5.40e-06	0	37	0	14663286784	22	19691
2026-01-05 21:34:21.97	91.41	11.85	-24.5	-24.9	16.5	5.40e-06	0	37	0	14789115904	22	19272
2026-01-05 21:34:22.84	91.65	11.83	-24.4	-24.9	16.6	5.40e-06	0	37	0	14889779200	22	19125
2026-01-05 21:34:23.99	91.96	11.81	-24.4	-24.8	16.6	5.40e-06	0	37	0	15023996928	22	19046
2026-01-05 21:34:24.86	92.20	11.79	-24.5	-24.9	16.5	5.40e-06	0	37	0	15116271616	22	19102
2026-01-05 21:34:26.01	92.51	11.77	-24.5	-24.9	16.5	5.40e-06	0	37	0	15250489344	22	19148
2026-01-05 21:34:26.88	92.74	11.75	-24.5	-25.0	16.5	5.40e-06	0	37	0	15342764032	22	19312
2026-01-05 21:34:28.03	93.06	11.72	-24.4	-24.8	16.5	5.40e-06	0	37	0	15476981760	22	19007
2026-01-05 21:34:28.90	93.29	11.70	-24.4	-24.8	16.5	5.40e-06	0	37	0	15577645056	22	19025
2026-01-05 21:34:30.05	93.60	11.67	-24.5	-24.9	16.6	1.08e-05	0	37	0	15703474176	22	19218
2026-01-05 21:34:30.92	93.84	11.65	-24.5	-24.9	16.6	1.08e-05	0	37	0	15795748864	22	19177
2026-01-05 21:34:32.07	94.14	11.62	-24.5	-24.9	16.5	0.00e+00	0	37	0	15929966592	22	19300
2026-01-05 21:34:32.93	94.37	11.60	-24.6	-25.0	16.4	0.00e+00	0	37	0	16022241280	22	19360
2026-01-05 21:34:34.08	94.68	11.57	-24.5	-24.9	16.4	2.72e-05	0	37	0	16156459008	22	19204
2026-01-05 21:34:34.95	94.91	11.55	-24.7	-25.1	16.5	2.72e-05	0	37	0	16257122304	22	19738
2026-01-05 21:34:36.11	95.22	11.52	-24.7	-25.1	16.6	1.63e-05	0	37	0	16382951424	24	17430
2026-01-05 21:34:36.97	95.45	11.50	-24.6	-25.0	16.5	1.63e-05	0	37	0	16483614720	24	17277
2026-01-05 21:34:38.13	95.76	11.47	-24.5	-25.0	16.5	1.63e-05	0	37	0	16609443840	24	17202
2026-01-05 21:34:38.99	95.99	11.44	-24.7	-25.1	16.6	5.40e-06	0	37	0	16710107136	24	17431
2026-01-05 21:34:40.15	96.29	11.41	-24.6	-25.0	16.7	5.40e-06	0	37	0	16844324864	24	17248
2026-01-05 21:34:41.01	96.52	11.39	-24.5	-24.9	16.6	0.00e+00	0	37	0	16936599552	24	17068
2026-01-05 21:34:42.17	96.83	11.35	-24.9	-25.3	16.5	0.00e+00	0	37	0	17062428672	24	17881
2026-01-05 21:34:43.03	97.05	11.33	-24.9	-25.3	16.4	0.00e+00	0	37	0	17163091968	24	17874
2026-01-05 21:34:44.18	97.35	11.29	-24.4	-24.8	16.6	2.17e-05	0	37	0	17288921088	24	16924
2026-01-05 21:34:45.05	97.58	11.27	-24.5	-24.9	16.7	2.17e-05	0	37	0	17389584384	24	17018
2026-01-05 21:34:46.20	97.88	11.23	-24.5	-24.9	16.7	1.08e-05	0	37	0	17523802112	24	17029
2026-01-05 21:34:47.07	98.10	11.20	-24.6	-25.0	16.7	1.08e-05	0	37	0	17616076800	24	17249
2026-01-05 21:34:48.22	98.40	11.17	-24.4	-24.8	16.6	1.08e-05	0	37	0	17741905920	24	16935
2026-01-05 21:34:49.09	98.63	11.14	-24.4	-24.8	16.6	5.40e-06	0	37	0	17850957824	24	16998
2026-01-05 21:34:50.24	98.92	11.10	-24.5	-24.9	16.6	5.40e-06	0	37	0	17976786944	24	17088
2026-01-05 21:34:51.11	99.15	11.07	-24.5	-24.9	16.6	5.40e-06	0	37	0	18069061632	24	17149
2026-01-05 21:34:52.26	99.44	11.04	-24.4	-24.8	16.5	2.72e-05	0	37	0	18203279360	24	16927
2026-01-05 21:34:53.12	99.66	11.01	-24.4	-24.8	16.5	2.72e-05	0	37	0	18295554048	24	16957
2026-01-05 21:34:54.28	99.96	10.97	-24.6	-25.0	16.4	1.63e-05	0	37	0	18429771776	24	17248
2026-01-05 21:34:55.14	100.18	10.94	-24.5	-24.9	16.5	1.63e-05	0	37	0	18530435072	24	17176
2026-01-05 21:34:56.29	100.47	10.90	-24.4	-24.8	16.6	1.63e-05	0	37	0	18656264192	24	16992
2026-01-05 21:34:57.16	100.69	10.87	-24.5	-24.9	16.7	1.63e-05	0	37	0	18748538880	24	17036
2026-01-05 21:34:58.31	100.98	10.83	-24.7	-25.1	16.7	2.72e-05	0	37	0	18882756608	24	17519
2026-01-05 21:34:59.17	101.20	10.80	-24.7	-25.1	16.8	2.72e-05	0	37	0	18975031296	24	17414
2026-01-05 21:35:00.32	101.48	10.75	-24.7	-25.0	16.8	0.00e+00	0	37	0	19109249024	24	17389
2026-01-05 21:35:01.19	101.70	10.72	-24.6	-25.0	16.8	0.00e+00	0	37	0	19209912320	24	17377
2026-01-05 21:35:02.34	101.99	10.68	-24.8	-25.2	16.7	1.63e-05	0	37	0	19335741440	24	17655
2026-01-05 21:35:03.21	102.20	10.65	-24.7	-25.1	16.8	1.63e-05	0	37	0	19436404736	24	17480
2026-01-05 21:35:04.37	102.49	10.61	-24.7	-25.1	16.7	5.40e-06	0	37	0	19562233856	24	17581
2026-01-05 21:35:05.23	102.70	10.57	-24.9	-25.2	16.7	5.40e-06	0	37	0	19654508544	24	17793
2026-01-05 21:35:06.39	102.99	10.53	-24.8	-25.2	16.7	0.00e+00	0	37	0	19788726272	24	17725
2026-01-05 21:35:07.25	103.20	10.50	-24.8	-25.2	16.8	0.00e+00	0	37	0	19889389568	24	17732
2026-01-05 21:35:08.40	103.48	10.45	-24.7	-25.1	16.8	0.00e+00	0	37	0	20015218688	24	17589
2026-01-05 21:35:09.27	103.69	10.42	-24.9	-25.3	16.9	0.00e+00	0	37	0	20115881984	24	17936
2026-01-05 21:35:10.42	103.97	10.37	-25.0	-25.4	16.8	5.40e-06	0	37	0	20241711104	24	18054
2026-01-05 21:35:11.29	104.18	10.34	-25.1	-25.5	16.8	5.40e-06	0	37	0	20342374400	24	18342
2026-01-05 21:35:12.44	104.46	10.29	-24.7	-25.1	16.9	5.40e-06	0	37	0	20476592128	24	17579
2026-01-05 21:35:13.31	104.67	10.26	-24.8	-25.2	16.9	5.40e-06	0	37	0	20568866816	24	17634
2026-01-05 21:35:14.46	104.95	10.21	-24.9	-25.3	16.8	5.40e-06	0	37	0	20703084544	24	18001
2026-01-05 21:35:15.33	105.16	10.17	-24.8	-25.2	16.9	0.00e+00	0	37	0	20795359232	24	17669
2026-01-05 21:35:16.48	105.43	10.13	-24.6	-25.0	16.9	0.00e+00	0	37	0	20921188352	24	17356
2026-01-05 21:35:17.34	105.63	10.09	-24.8	-25.2	16.8	0.00e+00	0	37	0	21021851648	24	17672
2026-01-05 21:35:18.50	105.91	10.04	-24.8	-25.2	16.9	0.00e+00	0	37	0	21156069376	24	17647
2026-01-05 21:35:19.36	106.11	10.00	-24.8	-25.2	16.9	0.00e+00	0	37	0	21248344064	24	17744
2026-01-05 21:35:20.52	106.38	9.96	-24.8	-25.2	16.9	0.00e+00	0	37	0	21382561792	24	17662
2026-01-05 21:35:21.38	106.59	9.92	-24.8	-25.2	16.9	0.00e+00	0	37	0	21474836480	24	17783
2026-01-05 21:35:22.82	106.92	9.86	-25.0	-25.3	16.9	0.00e+00	0	37	0	21600665600	24	17965
2026-01-05 21:35:23.54	107.09	9.83	-24.9	-25.3	16.9	0.00e+00	0	37	0	21692940288	24	17938
2026-01-05 21:35:24.84	107.39	9.77	-25.0	-25.3	16.9	5.40e-06	0	37	0	21835546624	24	17975
2026-01-05 21:35:25.56	107.56	9.74	-25.0	-25.4	16.9	5.40e-06	0	37	0	21911044096	24	18047
2026-01-05 21:35:26.85	107.85	9.68	-25.0	-25.4	16.8	5.40e-06	0	37	0	22062039040	24	18049
2026-01-05 21:35:27.57	108.02	9.65	-25.1	-25.5	16.8	5.40e-06	0	37	0	22137536512	24	18239
2026-01-05 21:35:28.87	108.32	9.59	-25.0	-25.4	16.9	5.40e-06	0	37	0	22280142848	24	18182
2026-01-05 21:35:29.59	108.48	9.56	-25.1	-25.5	16.8	5.40e-06	0	37	0	22372417536	24	18274
2026-01-05 21:35:30.89	108.77	9.50	-25.0	-25.4	16.9	5.40e-06	0	37	0	22515023872	24	18105
2026-01-05 21:35:31.61	108.94	9.47	-25.0	-25.4	16.9	0.00e+00	0	37	0	22590521344	24	18115
2026-01-05 21:35:32.91	109.23	9.41	-25.1	-25.5	16.9	0.00e+00	0	37	0	22741516288	24	18290
2026-01-05 21:35:33.63	109.39	9.38	-25.1	-25.5	16.9	0.00e+00	0	37	0	22825402368	24	18360
2026-01-05 21:35:34.93	109.68	9.32	-25.0	-25.4	17.1	0.00e+00	0	37	0	22968008704	24	18134
2026-01-05 21:35:35.65	109.84	9.28	-25.0	-25.4	17.0	1.08e-05	0	37	0	23051894784	24	18063
2026-01-05 21:35:36.95	110.13	9.22	-25.1	-25.5	17.0	1.08e-05	0	37	0	23194501120	24	18352
2026-01-05 21:35:37.67	110.29	9.19	-25.2	-25.6	17.0	5.40e-06	0	37	0	23278387200	24	18471
2026-01-05 21:35:38.97	110.57	9.13	-25.1	-25.5	17.0	5.40e-06	0	37	0	23420993536	24	18333
2026-01-05 21:35:39.69	110.73	9.09	-25.1	-25.5	17.0	5.40e-06	0	37	0	23504879616	24	18293
2026-01-05 21:35:40.99	111.02	9.03	-25.2	-25.6	17.0	1.63e-05	0	37	0	23655874560	24	18612
2026-01-05 21:35:41.71	111.17	9.00	-25.1	-25.5	17.0	1.63e-05	0	37	0	23731372032	24	18404
2026-01-05 21:35:43.01	111.45	8.94	-25.3	-25.7	17.0	1.08e-05	0	37	0	23873978368	24	18796
2026-01-05 21:35:43.73	111.61	8.90	-25.3	-25.7	17.0	1.08e-05	0	37	0	23957864448	24	18839
2026-01-05 21:35:45.03	111.89	8.84	-25.2	-25.6	17.0	1.08e-05	0	37	0	24100470784	24	18641
2026-01-05 21:35:45.75	112.04	8.81	-25.3	-25.7	17.0	1.08e-05	0	37	0	24184356864	24	18715
2026-01-05 21:35:47.04	112.32	8.74	-25.4	-25.8	17.0	0.00e+00	0	37	0	24335351808	24	19023
2026-01-05 21:35:47.76	112.47	8.71	-25.2	-25.7	17.0	0.00e+00	0	37	0	24410849280	24	18656
2026-01-05 21:35:49.06	112.74	8.65	-25.4	-25.9	16.9	0.00e+00	0	37	0	24553455616	24	19100
2026-01-05 21:35:49.78	112.90	8.61	-25.3	-25.7	17.0	0.00e+00	0	37	0	24645730304	24	18828
2026-01-05 21:35:51.08	113.17	8.55	-25.3	-25.8	17.0	1.63e-05	0	37	0	24788336640	24	18876
2026-01-05 21:35:51.80	113.32	8.51	-25.4	-25.8	17.0	1.63e-05	0	37	0	24863834112	24	18906
2026-01-05 21:35:53.10	113.59	8.45	-25.5	-25.9	16.9	5.40e-06	0	37	0	25014829056	24	19236
2026-01-05 21:35:53.82	113.74	8.41	-25.5	-25.9	17.0	5.40e-06	0	37	0	25090326528	24	19142
2026-01-05 21:35:55.12	114.01	8.35	-25.4	-25.8	17.0	5.40e-06	0	37	0	25241321472	24	18954
2026-01-05 21:35:55.84	114.15	8.31	-25.5	-25.9	17.0	2.17e-05	0	37	0	25325207552	24	19251
2026-01-05 21:35:57.14	114.42	8.25	-25.3	-25.8	17.0	2.17e-05	0	37	0	25467813888	24	18880
2026-01-05 21:35:57.86	114.57	8.21	-25.5	-25.9	17.0	2.17e-05	0	37	0	25551699968	24	19132
2026-01-05 21:35:59.16	114.83	8.15	-25.6	-26.0	17.0	1.63e-05	0	37	0	25694306304	24	19360
2026-01-05 21:35:59.88	114.98	8.11	-25.6	-26.1	17.0	1.63e-05	0	37	0	25769803776	26	17405
2026-01-05 21:36:01.17	115.24	8.04	-25.5	-25.9	17.0	1.63e-05	0	37	0	25920798720	26	17088
2026-01-05 21:36:01.89	115.38	8.01	-25.4	-25.8	17.0	1.63e-05	0	37	0	26004684800	26	16944
2026-01-05 21:36:03.19	115.64	7.94	-25.4	-25.8	17.0	1.08e-05	0	37	0	26147291136	26	16878
2026-01-05 21:36:03.91	115.78	7.91	-25.4	-25.8	17.0	1.08e-05	0	37	0	26231177216	26	16967
2026-01-05 21:36:05.21	116.04	7.84	-25.5	-25.9	17.0	1.08e-05	0	37	0	26373783552	26	17191
2026-01-05 21:36:05.93	116.18	7.80	-25.4	-25.8	17.0	1.08e-05	0	37	0	26457669632	26	16917
2026-01-05 21:36:07.23	116.44	7.74	-25.5	-25.9	17.0	1.08e-05	0	37	0	26608664576	26	17115
2026-01-05 21:36:07.95	116.58	7.70	-25.6	-26.0	17.0	1.63e-05	0	37	0	26684162048	26	17325
2026-01-05 21:36:09.25	116.83	7.63	-25.5	-25.9	17.0	1.63e-05	0	37	0	26826768384	26	17163
2026-01-05 21:36:09.97	116.97	7.60	-25.4	-25.8	17.1	5.40e-06	0	37	0	26910654464	26	16887
2026-01-05 21:36:11.27	117.22	7.53	-25.5	-25.9	17.0	5.40e-06	0	37	0	27053260800	26	17122
2026-01-05 21:36:11.99	117.36	7.49	-25.5	-26.0	17.0	5.40e-06	0	37	0	27137146880	26	17224
2026-01-05 21:36:13.28	117.60	7.42	-25.5	-25.9	17.0	1.08e-05	0	37	0	27288141824	26	17196
2026-01-05 21:36:14.01	117.74	7.39	-25.6	-26.0	17.0	1.08e-05	0	37	0	27363639296	26	17318
2026-01-05 21:36:15.31	117.99	7.32	-25.8	-26.2	16.9	1.08e-05	0	37	0	27514634240	26	17703
2026-01-05 21:36:16.03	118.13	7.28	-25.7	-26.1	16.9	1.08e-05	0	37	0	27598520320	26	17463
2026-01-05 21:36:17.32	118.37	7.21	-25.8	-26.2	16.9	1.08e-05	0	37	0	27732738048	26	17805
2026-01-05 21:36:18.04	118.50	7.18	-25.7	-26.1	17.0	5.40e-06	0	37	0	27816624128	26	17488
2026-01-05 21:36:19.34	118.75	7.11	-25.8	-26.2	16.9	5.40e-06	0	37	0	27967619072	26	17796
2026-01-05 21:36:20.06	118.88	7.07	-25.9	-26.4	16.9	5.40e-06	0	37	0	28043116544	26	18042
2026-01-05 21:36:21.36	119.12	7.00	-25.7	-26.2	16.9	0.00e+00	0	37	0	28194111488	26	17615
2026-01-05 21:36:22.08	119.25	6.96	-25.7	-26.1	17.0	0.00e+00	0	37	0	28277997568	26	17532
2026-01-05 21:36:23.38	119.49	6.90	-25.8	-26.3	17.0	3.26e-05	0	37	0	28420603904	26	17806
2026-01-05 21:36:24.10	119.62	6.86	-25.9	-26.3	17.0	3.26e-05	0	37	0	28504489984	26	17874
2026-01-05 21:36:25.39	119.85	6.79	-25.8	-26.3	16.9	1.63e-05	0	37	0	28647096320	26	17858
2026-01-05 21:36:26.11	119.98	6.75	-25.8	-26.3	16.8	1.63e-05	0	37	0	28722593792	26	17836
2026-01-05 21:36:27.41	120.22	6.68	-25.9	-26.3	16.8	1.63e-05	0	37	0	28873588736	26	17929
2026-01-05 21:36:28.13	120.35	6.65	-26.1	-26.5	16.7	1.08e-05	0	37	0	28957474816	26	18334
2026-01-05 21:36:29.43	120.58	6.58	-26.0	-26.4	16.7	1.08e-05	0	37	0	29100081152	26	18133
2026-01-05 21:36:30.15	120.71	6.54	-26.2	-26.6	16.7	1.08e-05	0	37	0	29183967232	26	18519
2026-01-05 21:36:31.45	120.94	6.47	-25.9	-26.3	16.8	2.17e-05	0	37	0	29326573568	26	17950
2026-01-05 21:36:32.17	121.06	6.43	-26.1	-26.5	16.7	2.17e-05	0	37	0	29402071040	26	18294
2026-01-05 21:36:33.47	121.29	6.36	-26.1	-26.6	16.8	3.26e-05	0	37	0	29553065984	26	18515
2026-01-05 21:36:34.19	121.42	6.32	-25.9	-26.4	16.9	3.26e-05	0	37	0	29636952064	26	18076
2026-01-05 21:36:35.49	121.64	6.25	-25.9	-26.3	16.9	1.08e-05	0	37	0	29779558400	26	17930
2026-01-05 21:36:36.21	121.77	6.22	-25.9	-26.4	16.9	1.08e-05	0	37	0	29863444480	26	18073
2026-01-05 21:36:37.51	121.99	6.15	-26.2	-26.6	16.9	1.08e-05	0	37	0	30006050816	26	18561
2026-01-05 21:36:38.23	122.11	6.11	-25.8	-26.2	17.0	2.72e-05	0	37	0	30089936896	26	17792
2026-01-05 21:36:39.52	122.33	6.04	-26.2	-26.7	16.9	2.72e-05	0	37	0	30232543232	26	18798
2026-01-05 21:36:40.25	122.46	6.00	-26.1	-26.5	17.0	2.72e-05	0	37	0	30316429312	26	18361
2026-01-05 21:36:41.54	122.67	5.93	-26.1	-26.6	16.9	2.72e-05	0	37	0	30467424256	26	18547
2026-01-05 21:36:42.26	122.80	5.89	-26.3	-26.8	16.9	2.72e-05	0	37	0	30542921728	26	18935
2026-01-05 21:36:43.56	123.01	5.82	-26.2	-26.6	17.0	3.26e-05	0	37	0	30685528064	26	18595
2026-01-05 21:36:44.28	123.13	5.79	-26.1	-26.6	17.0	3.26e-05	0	37	0	30769414144	26	18489
2026-01-05 21:36:45.58	123.35	5.72	-26.0	-26.5	17.0	1.63e-05	0	37	0	30920409088	26	18348
2026-01-05 21:36:46.30	123.47	5.68	-25.9	-26.4	16.9	1.63e-05	0	37	0	30995906560	26	18092
2026-01-05 21:36:47.60	123.68	5.61	-47.7	-50.2	6.1	1.63e-05	0	37	104	31029460992	60	39713
2026-01-05 21:36:48.33	123.80	5.57	-47.7	-50.1	6.1	5.40e-06	0	37	104	31029460992	60	39315
2026-01-05 21:36:49.62	124.01	5.50	-47.6	-50.2	6.1	5.40e-06	0	37	104	31029460992	60	39444
2026-01-05 21:36:50.34	124.13	5.46	-47.7	-50.2	6.1	5.40e-06	0	37	104	31029460992	60	39471
2026-01-05 21:36:51.64	124.34	5.39	-47.6	-50.1	6.1	5.40e-06	0	37	104	31029460992	60	39188
2026-01-05 21:36:52.36	124.45	5.35	-47.7	-50.2	6.1	5.40e-06	0	37	104	31029460992	60	39484
2026-01-05 21:36:53.66	124.66	5.28	-47.6	-50.1	6.1	5.40e-06	0	37	104	31029460992	60	39257
2026-01-05 21:36:54.38	124.78	5.24	-47.7	-50.2	6.1	5.40e-06	0	37	104	31029460992	60	39752
2026-01-05 21:36:55.67	124.98	5.17	-47.6	-50.1	6.1	5.40e-06	0	37	104	31029460992	60	39225
2026-01-05 21:36:56.40	125.10	5.13	-47.6	-50.1	6.1	5.40e-06	0	37	104	31029460992	60	39338
2026-01-05 21:36:57.69	125.30	5.06	-47.6	-50.1	6.1	5.40e-06	0	37	104	31029460992	60	39080
2026-01-05 21:36:58.42	125.41	5.03	-47.6	-50.1	6.1	5.40e-06	0	37	104	31029460992	60	39358
2026-01-05 21:36:59.71	125.61	4.96	-47.6	-50.1	6.1	5.40e-06	0	37	104	31029460992	60	39222
2026-01-05 21:37:00.43	125.73	4.92	-47.6	-50.1	6.1	0.00e+00	0	36	104	31029460992	60	39247
2026-01-05 21:37:01.73	125.93	4.85	-47.6	-50.1	6.1	0.00e+00	0	37	104	31029460992	60	39065
2026-01-05 21:37:02.45	126.04	4.81	-47.7	-50.1	6.1	0.00e+00	0	37	104	31029460992	60	39403
2026-01-05 21:37:03.75	126.24	4.74	-47.6	-50.1	6.1	0.00e+00	0	37	104	31029460992	60	39294
2026-01-05 21:37:04.47	126.35	4.70	-47.6	-50.1	6.1	0.00e+00	0	37	104	31029460992	60	39159
2026-01-05 21:37:05.77	126.54	4.63	-47.5	-50.0	6.1	0.00e+00	0	37	104	31029460992	60	38564
2026-01-05 21:37:06.49	126.65	4.59	-47.6	-50.1	6.1	0.00e+00	0	37	104	31029460992	60	39154
2026-01-05 21:37:07.79	126.85	4.52	-47.5	-50.0	6.1	0.00e+00	0	37	104	31029460992	60	38601
2026-01-05 21:37:08.51	126.95	4.48	-47.6	-50.1	6.1	0.00e+00	0	37	104	31029460992	60	39012
2026-01-05 21:37:09.81	127.15	4.41	-47.5	-50.0	6.1	0.00e+00	0	37	104	31029460992	60	38719
2026-01-05 21:37:10.53	127.25	4.37	-47.4	-49.9	6.1	0.00e+00	0	37	104	31029460992	60	38339
2026-01-05 21:37:11.82	127.44	4.30	-47.5	-50.0	6.1	0.00e+00	0	37	104	31029460992	60	38692
2026-01-05 21:37:12.54	127.55	4.27	-47.5	-50.0	6.1	0.00e+00	0	37	104	31029460992	60	38684
2026-01-05 21:37:13.84	127.74	4.20	-47.4	-50.0	6.1	0.00e+00	0	37	104	31029460992	60	38590
2026-01-05 21:37:14.56	127.84	4.16	-47.6	-50.1	6.1	0.00e+00	0	37	104	31029460992	60	39092
2026-01-05 21:37:15.86	128.03	4.09	-47.5	-50.0	6.1	0.00e+00	0	37	104	31029460992	60	38579
2026-01-05 21:37:16.58	128.14	4.05	-47.4	-49.9	6.1	0.00e+00	0	37	104	31029460992	60	38341
2026-01-05 21:37:17.88	128.32	3.98	-47.5	-50.0	6.1	0.00e+00	0	37	104	31029460992	60	38700
2026-01-05 21:37:18.60	128.43	3.94	-47.5	-50.0	6.1	0.00e+00	0	37	104	31029460992	60	38717
2026-01-05 21:37:19.90	128.61	3.87	-47.3	-49.8	6.1	0.00e+00	0	37	104	31029460992	60	37918
2026-01-05 21:37:20.62	128.71	3.83	-47.4	-49.9	6.1	0.00e+00	0	36	104	31029460992	60	38187
2026-01-05 21:37:21.92	128.90	3.76	-47.4	-49.9	6.0	0.00e+00	0	37	104	31029460992	60	38202
2026-01-05 21:37:22.64	129.00	3.72	-47.5	-49.9	6.1	0.00e+00	0	36	104	31029460992	60	38441
2026-01-05 21:37:23.93	129.18	3.65	-47.3	-49.8	6.1	0.00e+00	0	37	104	31029460992	60	37771
2026-01-05 21:37:24.65	129.28	3.62	-47.3	-49.8	6.0	0.00e+00	0	37	104	31029460992	60	37706
2026-01-05 21:37:25.95	129.46	3.55	-47.3	-49.9	6.1	0.00e+00	0	37	104	31029460992	60	38076
2026-01-05 21:37:26.67	129.56	3.51	-47.4	-49.8	6.1	0.00e+00	0	37	104	31029460992	60	38039
2026-01-05 21:37:27.97	129.73	3.44	-47.3	-49.8	6.1	0.00e+00	0	37	104	31029460992	60	37649
2026-01-05 21:37:28.69	129.83	3.40	-47.2	-49.7	6.1	0.00e+00	0	37	104	31029460992	60	37269
2026-01-05 21:37:29.99	130.01	3.33	-47.3	-49.8	6.1	0.00e+00	0	37	104	31029460992	60	37816
2026-01-05 21:37:30.71	130.11	3.29	-47.3	-49.8	6.1	0.00e+00	0	37	104	31029460992	60	37842
2026-01-05 21:37:32.01	130.28	3.22	-47.2	-49.7	6.1	0.00e+00	0	36	104	31029460992	60	37318
2026-01-05 21:37:32.72	130.38	3.18	-47.1	-49.6	6.1	0.00e+00	0	36	104	31029460992	60	37009
2026-01-05 21:37:34.02	130.55	3.11	-47.3	-49.8	6.1	0.00e+00	0	37	104	31029460992	60	37761
2026-01-05 21:37:34.74	130.65	3.08	-47.3	-49.7	6.1	0.00e+00	0	37	104	31029460992	60	37613
2026-01-05 21:37:36.04	130.82	3.01	-47.1	-49.6	6.1	0.00e+00	0	37	104	31029460992	60	37053
2026-01-05 21:37:36.76	130.91	2.97	-47.3	-49.8	6.1	0.00e+00	0	37	104	31029460992	60	37657
2026-01-05 21:37:38.06	131.08	2.90	-48.0	-50.5	6.1	0.00e+00	0	37	104	31029460992	60	40951
2026-01-05 21:37:38.78	131.18	2.86	-48.2	-50.7	6.1	0.00e+00	0	37	104	31029460992	60	42007
2026-01-05 21:37:40.08	131.35	2.79	-48.4	-50.9	6.1	0.00e+00	0	37	104	31029460992	60	43030
2026-01-05 21:37:40.80	131.44	2.75	-48.4	-50.9	6.1	0.00e+00	0	37	104	31029460992	60	42891
2026-01-05 21:37:42.10	131.61	2.68	-48.6	-51.1	6.1	0.00e+00	0	37	104	31029460992	60	44124
2026-01-05 21:37:42.82	131.70	2.65	-48.4	-51.0	6.1	0.00e+00	0	37	104	31029460992	60	43418
2026-01-05 21:37:44.12	131.87	2.58	-48.6	-51.1	6.1	0.00e+00	0	36	104	31029460992	60	44185
2026-01-05 21:37:44.84	131.96	2.54	-48.7	-51.2	6.1	0.00e+00	0	36	104	31029460992	60	44506
2026-01-05 21:37:46.14	132.12	2.47	-48.7	-51.2	6.1	0.00e+00	0	36	104	31029460992	60	44611
2026-01-05 21:37:46.86	132.21	2.43	-48.7	-51.2	6.1	0.00e+00	0	36	104	31029460992	60	44257
2026-01-05 21:37:48.16	132.38	2.36	-48.7	-51.2	6.1	0.00e+00	0	37	104	31029460992	60	44491
2026-01-05 21:37:48.88	132.47	2.33	-48.7	-51.2	6.1	0.00e+00	0	37	104	31029460992	60	44640
2026-01-05 21:37:50.18	132.63	2.26	-48.7	-51.2	6.1	0.00e+00	0	36	104	31029460992	60	44448
2026-01-05 21:37:50.90	132.72	2.22	-48.7	-51.2	6.1	0.00e+00	0	37	104	31029460992	60	44341
2026-01-05 21:37:52.19	132.88	2.15	-48.7	-51.1	6.1	0.00e+00	0	37	104	31029460992	60	44103
2026-01-05 21:37:52.92	132.97	2.11	-48.7	-51.2	6.1	0.00e+00	0	37	104	31029460992	60	44422
2026-01-05 21:37:54.21	133.12	2.04	-48.7	-51.2	6.1	0.00e+00	0	37	104	31029460992	60	44357
2026-01-05 21:37:54.93	133.21	2.01	-48.7	-51.2	6.1	0.00e+00	0	36	104	31029460992	60	44367
2026-01-05 21:37:56.23	133.37	1.94	-48.7	-51.2	6.1	0.00e+00	0	37	104	31029460992	60	44246
2026-01-05 21:37:56.95	133.45	1.90	-48.7	-51.2	6.1	0.00e+00	0	37	104	31029460992	60	44437
2026-01-05 21:37:58.25	133.61	1.83	-48.7	-51.2	6.1	0.00e+00	0	36	104	31029460992	60	44303
2026-01-05 21:37:58.97	133.70	1.79	-48.7	-51.2	6.1	0.00e+00	0	36	104	31029460992	60	44528
2026-01-05 21:38:00.27	133.85	1.73	-48.7	-51.2	6.1	0.00e+00	0	36	104	31029460992	60	44480
2026-01-05 21:38:00.99	133.94	1.69	-48.7	-51.2	6.1	0.00e+00	0	36	104	31029460992	60	44517
2026-01-05 21:38:02.29	134.09	1.62	-48.7	-51.2	6.1	0.00e+00	0	37	104	31029460992	60	44482
2026-01-05 21:38:03.01	134.17	1.58	-48.7	-51.2	6.1	0.00e+00	0	37	104	31029460992	60	44519
2026-01-05 21:38:04.31	134.33	1.52	-48.7	-51.2	6.1	0.00e+00	0	37	104	31029460992	60	44370
2026-01-05 21:38:05.03	134.41	1.48	-48.7	-51.2	6.1	0.00e+00	0	37	104	31029460992	60	44463
2026-01-05 21:38:06.33	134.56	1.41	-48.7	-51.2	6.1	0.00e+00	0	37	104	31029460992	60	44420
2026-01-05 21:38:07.05	134.64	1.37	-48.7	-51.2	6.1	0.00e+00	0	37	104	31029460992	60	44305
2026-01-05 21:38:08.35	134.79	1.30	-48.7	-51.2	6.1	0.00e+00	0	36	104	31029460992	60	44487
2026-01-05 21:38:09.07	134.88	1.27	-48.7	-51.2	6.1	0.00e+00	0	36	104	31029460992	60	44313
2026-01-05 21:38:10.36	135.02	1.20	-48.7	-51.2	6.1	0.00e+00	0	36	104	31029460992	60	44443
2026-01-05 21:38:11.08	135.10	1.16	-48.7	-51.2	6.1	0.00e+00	0	36	104	31029460992	60	44391
2026-01-05 21:38:12.38	135.25	1.10	-48.7	-51.2	6.1	0.00e+00	0	37	104	31029460992	60	44326
2026-01-05 21:38:13.11	135.33	1.06	-48.7	-51.2	6.1	0.00e+00	0	36	104	31029460992	60	44221
2026-01-05 21:38:14.40	135.48	0.99	-48.7	-51.2	6.1	0.00e+00	0	37	104	31029460992	60	44364
2026-01-05 21:38:15.12	135.56	0.95	-48.7	-51.2	6.1	0.00e+00	0	36	104	31029460992	60	44338
2026-01-05 21:38:16.42	135.70	0.89	-48.7	-51.2	6.1	0.00e+00	0	36	104	31029460992	60	44309
2026-01-05 21:38:17.14	135.78	0.85	-48.7	-51.2	6.1	0.00e+00	0	36	104	31029460992	60	44321
2026-01-05 21:38:18.44	135.92	0.78	-48.7	-51.2	6.1	0.00e+00	0	36	104	31029460992	60	44406
2026-01-05 21:38:19.16	136.00	0.75	-48.7	-51.2	6.1	0.00e+00	0	36	104	31029460992	60	44402
2026-01-05 21:38:20.46	136.14	0.68	-48.7	-51.2	6.1	0.00e+00	0	36	104	31029460992	60	44310
2026-01-05 21:38:21.18	136.22	0.64	-48.7	-51.2	6.1	0.00e+00	0	36	104	31029460992	60	44419
2026-01-05 21:38:22.48	136.36	0.57	-48.7	-51.1	6.1	0.00e+00	0	36	104	31029460992	60	44151
2026-01-05 21:38:23.20	136.44	0.54	-48.7	-51.2	6.1	0.00e+00	0	36	104	31029460992	60	44378
2026-01-05 21:38:24.50	136.58	0.47	-48.7	-51.2	6.1	0.00e+00	0	36	104	31029460992	60	44398
2026-01-05 21:38:25.22	136.66	0.43	-48.7	-51.2	6.1	0.00e+00	0	36	104	31029460992	60	44301
2026-01-05 21:38:26.52	136.80	0.37	-48.7	-51.2	6.1	0.00e+00	0	36	104	31029460992	60	44269
2026-01-05 21:38:27.24	136.87	0.33	-48.7	-51.2	6.1	0.00e+00	0	36	104	31029460992	60	44439
2026-01-05 21:38:28.54	137.01	0.26	-48.7	-51.2	6.1	0.00e+00	0	36	104	31029460992	60	44446
2026-01-05 21:38:29.26	137.08	0.23	-48.7	-51.2	6.1	0.00e+00	0	36	104	31029460992	60	44390
2026-01-05 21:38:30.56	137.22	0.16	-48.7	-51.2	6.1	0.00e+00	0	36	104	31029460992	60	44385
2026-01-05 21:38:31.28	137.30	0.12	-48.7	-51.2	6.1	0.00e+00	0	36	104	31029460992	60	44569
2026-01-05 21:38:32.58	137.43	0.06	-48.7	-51.2	6.1	0.00e+00	0	36	104	31029460992	60	44274
2026-01-05 21:38:33.30	137.50	0.02	-48.7	-51.2	6.1	0.00e+00	0	36	104	31029460992	60	44256
2026-01-05 21:38:34.59	137.64	-0.04	-48.7	-51.1	6.1	0.00e+00	0	37	104	31029460992	60	44172

#Closed at: 2026-01-05 21:38:34
#Recorded file [31029 MB]: D:/lorett/data/35029_260106_092926.dat