passes_logs/2026/01/05/R4.6S_Anadyr/R4.6S_Anadyr__20260105_131206_NOAA_20_JPSS-1_rec.log

#Pass ID: 20260105_131206_NOAA 20 (JPSS-1)
#Satellite: NOAA 20 (JPSS-1)
#Configuration: NOAA 20
#almurnet v.1.7.20251203
#Start time: 2026-01-05 13:12:06

#Version: 2.2.20231116
#Station: R4.6S_Anadyr
#Location: 177.4865 lon 64.73178 lat
#TLE: 1 43013U 17073A   26004.89819562  .00000113  00000+0  74278-4 0  9995
#TLE: 2 43013  98.7626 305.9448 0001841  53.9015 306.2332 14.19533229421309

#Time	Az	El	Level	Level2	SNR	BER	BlckErr	Temp	State	Recorded	gain1	gain2
2026-01-05 13:12:06.96	18.76	0.04	-48.5	-63.4	3.5	1.51e+00	0	23	0	0	60	53182
2026-01-05 13:12:07.97	18.81	0.09	-48.5	-63.6	3.6	1.51e+00	0	24	104	0	60	54973
2026-01-05 13:12:08.97	18.86	0.15	-48.5	-63.7	3.6	1.51e+00	0	24	104	0	60	55077
2026-01-05 13:12:09.98	18.91	0.20	-48.5	-63.7	3.6	1.51e+00	0	24	104	0	60	55243
2026-01-05 13:12:10.99	18.96	0.26	-48.5	-63.6	3.6	1.51e+00	0	24	104	0	60	54861
2026-01-05 13:12:12.00	19.01	0.32	-48.5	-63.7	3.6	1.51e+00	0	24	104	0	60	55325
2026-01-05 13:12:13.01	19.06	0.37	-48.5	-63.7	3.6	1.51e+00	0	24	104	0	60	55052
2026-01-05 13:12:14.02	19.11	0.43	-48.5	-63.6	3.6	1.51e+00	0	24	104	0	60	54695
2026-01-05 13:12:15.03	19.16	0.48	-48.4	-63.6	3.6	1.51e+00	0	24	104	0	60	54617
2026-01-05 13:12:16.04	19.21	0.54	-48.4	-63.5	3.6	1.51e+00	0	24	104	0	60	54011
2026-01-05 13:12:17.05	19.26	0.60	-48.3	-63.4	3.6	1.51e+00	0	24	104	0	60	53741
2026-01-05 13:12:18.06	19.31	0.65	-48.2	-63.3	3.6	1.51e+00	0	24	104	0	60	52797
2026-01-05 13:12:19.07	19.37	0.71	-48.0	-63.2	3.6	1.51e+00	0	24	104	0	60	51978
2026-01-05 13:12:20.08	19.42	0.77	-47.9	-63.0	3.6	1.51e+00	0	24	104	0	60	51028
2026-01-05 13:12:21.08	19.47	0.82	-47.7	-62.8	3.6	1.51e+00	0	24	104	0	60	49903
2026-01-05 13:12:22.09	19.52	0.88	-47.4	-62.5	3.6	1.51e+00	0	25	104	0	60	48160
2026-01-05 13:12:23.10	19.58	0.94	-47.0	-62.1	3.6	1.51e+00	0	24	104	0	60	46203
2026-01-05 13:12:24.11	19.63	0.99	-47.0	-62.1	3.6	1.51e+00	0	25	104	0	60	46182
2026-01-05 13:12:25.12	19.68	1.05	-47.0	-62.2	3.6	1.51e+00	0	25	104	0	60	46367
2026-01-05 13:12:26.13	19.73	1.11	-47.0	-62.1	3.6	1.51e+00	0	24	104	0	60	46073
2026-01-05 13:12:27.14	19.79	1.16	-47.0	-62.1	3.6	1.51e+00	0	24	104	0	60	46046
2026-01-05 13:12:28.15	19.84	1.22	-47.0	-62.1	3.6	1.51e+00	0	25	104	0	60	46177
2026-01-05 13:12:29.16	19.89	1.28	-47.0	-62.2	3.6	1.51e+00	0	25	104	0	60	46431
2026-01-05 13:12:30.17	19.95	1.34	-47.0	-62.2	3.6	1.51e+00	0	25	104	0	60	46368
2026-01-05 13:12:31.18	20.00	1.39	-47.0	-62.1	3.6	1.51e+00	0	25	104	0	60	46143
2026-01-05 13:12:32.19	20.06	1.45	-47.0	-62.1	3.6	1.51e+00	0	25	104	0	60	46195
2026-01-05 13:12:33.20	20.11	1.51	-47.0	-62.1	3.6	1.51e+00	0	25	104	0	60	46051
2026-01-05 13:12:34.20	20.17	1.57	-47.0	-62.1	3.6	1.51e+00	0	25	104	0	60	45840
2026-01-05 13:12:35.21	20.22	1.63	-47.0	-62.0	3.6	1.51e+00	0	25	104	0	60	45619
2026-01-05 13:12:36.22	20.28	1.68	-47.0	-62.1	3.6	1.51e+00	0	25	104	0	60	45774
2026-01-05 13:12:37.23	20.33	1.74	-47.0	-62.0	3.6	1.51e+00	0	25	104	0	60	45726
2026-01-05 13:12:38.24	20.39	1.80	-47.0	-62.1	3.6	1.51e+00	0	25	104	0	60	45821
2026-01-05 13:12:39.25	20.44	1.86	-47.0	-62.1	3.6	1.51e+00	0	25	104	0	60	46228
2026-01-05 13:12:40.26	20.50	1.92	-47.0	-62.1	3.6	1.51e+00	0	25	104	0	60	46202
2026-01-05 13:12:41.27	20.55	1.98	-47.0	-62.1	3.6	1.51e+00	0	25	104	0	60	46106
2026-01-05 13:12:42.28	20.61	2.04	-47.0	-62.1	3.6	1.51e+00	0	25	104	0	60	46118
2026-01-05 13:12:43.28	20.67	2.09	-47.0	-62.1	3.6	1.51e+00	0	25	104	0	60	46154
2026-01-05 13:12:44.29	20.72	2.15	-47.0	-62.1	3.6	1.51e+00	0	25	104	0	60	45885
2026-01-05 13:12:45.30	20.78	2.21	-47.0	-61.9	3.6	1.51e+00	0	25	104	0	60	44965
2026-01-05 13:12:46.31	20.84	2.27	-46.9	-61.6	3.6	1.51e+00	0	25	104	0	60	43230
2026-01-05 13:12:47.32	20.89	2.33	-46.9	-61.2	3.6	1.51e+00	0	25	104	0	60	41534
2026-01-05 13:12:48.33	20.95	2.39	-46.9	-61.4	3.6	1.51e+00	0	25	104	0	60	42455
2026-01-05 13:12:49.34	21.01	2.45	-47.0	-62.0	3.6	1.51e+00	0	25	104	0	60	45594
2026-01-05 13:12:50.35	21.07	2.51	-47.0	-61.9	3.6	1.51e+00	0	25	104	0	60	44977
2026-01-05 13:12:51.36	21.13	2.57	-46.8	-59.4	3.6	1.51e+00	0	25	104	0	60	33838
2026-01-05 13:12:52.37	21.18	2.63	-46.5	-55.5	6.0	1.26e+00	16	25	104	0	60	21582
2026-01-05 13:12:53.37	21.24	2.69	-45.6	-50.8	10.0	4.62e-02	90	25	0	1048576	60	12596
2026-01-05 13:12:54.38	21.30	2.75	-44.7	-48.7	12.5	2.22e-03	60	25	0	3145728	60	9862
2026-01-05 13:12:55.39	21.36	2.81	-43.8	-46.9	14.2	1.37e-05	5	25	0	5242880	60	7972
2026-01-05 13:12:56.40	21.42	2.87	-42.6	-44.9	16.3	0.00e+00	0	25	0	6291456	58	7155
2026-01-05 13:12:57.41	21.48	2.93	-41.7	-43.6	17.5	0.00e+00	60	25	0	8388608	58	6169
2026-01-05 13:12:58.42	21.54	2.99	-41.5	-43.4	17.7	0.00e+00	89	25	0	10485760	56	6739
2026-01-05 13:12:59.43	21.60	3.05	-41.5	-43.4	17.7	0.00e+00	3	25	0	12582912	56	6741
2026-01-05 13:13:00.44	21.66	3.11	-41.6	-43.4	17.7	0.00e+00	90	25	0	14680064	56	6766
2026-01-05 13:13:01.45	21.72	3.17	-42.4	-44.6	16.5	0.00e+00	1	25	0	15728640	56	7703
2026-01-05 13:13:02.46	21.78	3.23	-42.9	-45.4	15.6	0.00e+00	37	25	0	17825792	58	7561
2026-01-05 13:13:03.47	21.84	3.29	-44.4	-48.1	12.8	1.29e-05	0	25	0	19922944	60	9208
2026-01-05 13:13:04.48	21.90	3.35	-45.4	-50.3	10.2	4.84e-04	23	25	0	22020096	60	11880
2026-01-05 13:13:05.49	21.96	3.41	-43.8	-46.7	16.5	3.45e-02	80	25	0	24117248	60	7840
2026-01-05 13:13:06.49	22.02	3.48	-41.3	-43.1	18.3	0.00e+00	22	25	0	25165824	56	6505
2026-01-05 13:13:07.50	22.08	3.54	-44.3	-48.0	7.6	0.00e+00	92	25	0	27262976	56	11381
2026-01-05 13:13:08.51	22.15	3.60	-47.0	-61.9	3.7	1.51e+00	0	25	104	27262976	60	44746
2026-01-05 13:13:09.52	22.21	3.66	-41.3	-43.0	17.7	1.78e-02	67	25	0	27262976	56	6463
2026-01-05 13:13:10.53	22.27	3.72	-45.3	-49.4	12.3	1.20e-01	63	25	0	28311552	60	10678
2026-01-05 13:13:11.54	22.33	3.78	-43.3	-45.9	15.5	7.00e-07	22	25	0	30408704	60	7096
2026-01-05 13:13:12.55	22.40	3.85	-42.8	-45.1	16.3	0.00e+00	0	25	0	32505856	60	6509
2026-01-05 13:13:13.56	22.46	3.91	-41.6	-43.4	18.0	0.00e+00	5	25	0	34603008	56	6769
2026-01-05 13:13:14.57	22.52	3.97	-41.8	-43.7	17.8	0.00e+00	92	25	0	35651584	56	6972
2026-01-05 13:13:15.58	22.59	4.03	-41.5	-43.2	18.2	0.00e+00	71	25	0	37748736	56	6592
2026-01-05 13:13:16.58	22.65	4.09	-41.5	-43.2	18.2	0.00e+00	91	25	0	39845888	56	6603
2026-01-05 13:13:17.59	22.71	4.16	-41.2	-42.8	18.8	0.00e+00	66	25	0	41943040	56	6303
2026-01-05 13:13:18.60	22.78	4.22	-41.1	-42.8	18.6	0.00e+00	6	25	0	44040192	56	6261
2026-01-05 13:13:19.61	22.84	4.28	-41.4	-43.1	18.5	0.00e+00	0	25	0	46137344	56	6481
2026-01-05 13:13:20.62	22.91	4.35	-41.2	-42.9	18.6	0.00e+00	0	25	0	47185920	56	6358
2026-01-05 13:13:21.63	22.97	4.41	-41.2	-42.8	18.6	0.00e+00	91	25	0	49283072	56	6304
2026-01-05 13:13:22.64	23.04	4.47	-41.1	-42.7	18.9	0.00e+00	6	25	0	51380224	56	6175
2026-01-05 13:13:23.65	23.11	4.54	-40.9	-42.5	19.0	0.00e+00	91	25	0	53477376	56	6049
2026-01-05 13:13:24.66	23.17	4.60	-40.9	-42.4	19.1	0.00e+00	3	25	0	55574528	56	6007
2026-01-05 13:13:25.67	23.24	4.66	-40.5	-42.0	19.5	0.00e+00	52	25	0	56623104	54	6395
2026-01-05 13:13:26.68	23.30	4.73	-40.5	-42.0	19.4	0.00e+00	23	25	0	58720256	54	6421
2026-01-05 13:13:27.69	23.37	4.79	-40.7	-42.2	19.3	0.00e+00	23	25	0	60817408	54	6584
2026-01-05 13:13:28.70	23.44	4.85	-40.5	-42.0	19.5	0.00e+00	40	25	0	62914560	54	6405
2026-01-05 13:13:29.71	23.51	4.92	-40.4	-41.8	19.6	0.00e+00	24	25	0	65011712	54	6296
2026-01-05 13:13:30.71	23.57	4.98	-40.7	-42.2	19.3	0.00e+00	92	25	0	66060288	54	6569
2026-01-05 13:13:31.72	23.64	5.05	-40.3	-41.7	19.7	0.00e+00	17	25	0	68157440	54	6204
2026-01-05 13:13:32.73	23.71	5.11	-40.4	-41.8	19.8	0.00e+00	87	25	0	70254592	54	6280
2026-01-05 13:13:33.74	23.78	5.17	-40.4	-41.8	19.7	0.00e+00	20	25	0	72351744	54	6293
2026-01-05 13:13:34.75	23.85	5.24	-40.3	-41.7	19.7	0.00e+00	58	25	0	74448896	54	6207
2026-01-05 13:13:35.75	23.91	5.30	-40.1	-41.5	19.9	0.00e+00	23	25	0	75497472	54	6081
2026-01-05 13:13:36.76	23.98	5.37	-40.1	-41.5	20.0	0.00e+00	24	25	0	77594624	54	6070
2026-01-05 13:13:37.77	24.05	5.43	-40.2	-41.6	19.8	0.00e+00	92	25	0	79691776	54	6167
2026-01-05 13:13:38.78	24.12	5.50	-40.1	-41.5	19.9	0.00e+00	58	25	0	81788928	54	6049
2026-01-05 13:13:39.79	24.19	5.56	-40.0	-41.3	20.2	0.00e+00	89	25	0	83886080	54	5952
2026-01-05 13:13:40.80	24.26	5.63	-39.8	-41.1	20.3	0.00e+00	65	25	0	84934656	54	5805
2026-01-05 13:13:41.81	24.33	5.70	-39.6	-40.8	20.8	0.00e+00	0	25	0	87031808	52	6279
2026-01-05 13:13:42.82	24.41	5.76	-39.6	-40.8	20.8	0.00e+00	0	25	0	89128960	52	6314
2026-01-05 13:13:43.83	24.48	5.83	-39.6	-40.8	20.8	0.00e+00	0	25	0	91226112	52	6308
2026-01-05 13:13:44.84	24.55	5.89	-39.4	-40.6	20.9	0.00e+00	86	25	0	93323264	52	6147
2026-01-05 13:13:45.85	24.62	5.96	-39.5	-40.8	20.9	0.00e+00	0	25	0	94371840	52	6260
2026-01-05 13:13:46.86	24.69	6.03	-39.5	-40.7	20.9	0.00e+00	92	25	0	96468992	52	6198
2026-01-05 13:13:47.87	24.77	6.09	-39.4	-40.6	21.0	0.00e+00	2	25	0	98566144	52	6148
2026-01-05 13:13:48.87	24.84	6.16	-39.3	-40.5	21.1	0.00e+00	91	25	0	100663296	52	6084
2026-01-05 13:13:49.88	24.91	6.22	-39.4	-40.6	21.0	0.00e+00	0	25	0	102760448	52	6165
2026-01-05 13:13:50.89	24.98	6.29	-39.5	-40.7	20.9	0.00e+00	24	25	0	103809024	52	6188
2026-01-05 13:13:51.90	25.06	6.36	-39.4	-40.6	21.0	0.00e+00	24	25	0	105906176	52	6112
2026-01-05 13:13:52.91	25.13	6.43	-39.5	-40.7	20.9	0.00e+00	24	25	0	108003328	52	6206
2026-01-05 13:13:53.92	25.21	6.49	-39.3	-40.5	21.1	0.00e+00	91	25	0	110100480	52	6051
2026-01-05 13:13:54.92	25.28	6.56	-39.5	-40.7	20.9	0.00e+00	4	25	0	112197632	52	6200
2026-01-05 13:13:55.94	25.36	6.63	-39.1	-40.2	21.4	0.00e+00	89	25	0	114294784	52	5881
2026-01-05 13:13:56.94	25.43	6.69	-39.3	-40.4	21.2	0.00e+00	61	25	0	115343360	52	6022
2026-01-05 13:13:57.95	25.51	6.76	-39.1	-40.3	21.5	0.00e+00	57	25	0	117440512	52	5914
2026-01-05 13:13:58.96	25.58	6.83	-39.0	-40.2	21.4	0.00e+00	9	25	0	119537664	52	5844
2026-01-05 13:13:59.97	25.66	6.90	-38.9	-40.0	21.6	0.00e+00	57	25	0	121634816	52	5744
2026-01-05 13:14:00.98	25.74	6.97	-38.9	-40.0	21.6	0.00e+00	92	25	0	123731968	52	5751
2026-01-05 13:14:01.99	25.81	7.03	-38.8	-39.9	21.7	0.00e+00	2	25	0	124780544	50	6372
2026-01-05 13:14:03.00	25.89	7.10	-38.9	-40.1	21.6	0.00e+00	92	25	0	126877696	50	6479
2026-01-05 13:14:04.01	25.97	7.17	-38.9	-40.0	21.7	0.00e+00	61	25	0	128974848	50	6423
2026-01-05 13:14:05.02	26.05	7.24	-39.0	-40.1	21.5	0.00e+00	0	25	0	131072000	50	6484
2026-01-05 13:14:06.03	26.12	7.31	-39.0	-40.1	21.5	0.00e+00	0	25	0	133169152	50	6482
2026-01-05 13:14:07.04	26.20	7.38	-38.7	-39.8	21.8	0.00e+00	0	25	0	134217728	50	6271
2026-01-05 13:14:08.05	26.28	7.45	-38.7	-39.7	21.8	0.00e+00	90	25	0	136314880	50	6241
2026-01-05 13:14:09.06	26.36	7.52	-38.6	-39.7	21.7	0.00e+00	0	25	0	138412032	50	6197
2026-01-05 13:14:10.06	26.44	7.59	-38.5	-39.6	22.0	0.00e+00	92	25	0	140509184	50	6142
2026-01-05 13:14:11.07	26.52	7.65	-38.7	-39.7	21.8	0.00e+00	0	25	0	142606336	50	6235
2026-01-05 13:14:12.08	26.60	7.72	-38.5	-39.6	22.0	0.00e+00	20	25	0	143654912	50	6136
2026-01-05 13:14:13.09	26.68	7.79	-38.5	-39.6	22.1	0.00e+00	0	25	0	145752064	50	6133
2026-01-05 13:14:14.10	26.76	7.86	-38.6	-39.7	22.0	0.00e+00	0	25	0	147849216	50	6180
2026-01-05 13:14:15.11	26.85	7.93	-38.7	-39.7	21.9	0.00e+00	0	25	0	149946368	50	6242
2026-01-05 13:14:16.12	26.93	8.00	-38.7	-39.8	21.8	0.00e+00	0	25	0	152043520	50	6274
2026-01-05 13:14:17.13	27.01	8.08	-38.7	-39.8	21.8	0.00e+00	92	25	0	153092096	50	6275
2026-01-05 13:14:18.14	27.09	8.15	-39.0	-40.1	21.9	0.00e+00	0	25	0	155189248	50	6478
2026-01-05 13:14:19.15	27.18	8.22	-38.8	-39.8	22.0	0.00e+00	53	25	0	157286400	50	6308
2026-01-05 13:14:20.16	27.26	8.29	-38.6	-39.6	22.1	0.00e+00	64	25	0	159383552	50	6151
2026-01-05 13:14:21.17	27.34	8.36	-38.7	-39.8	22.1	0.00e+00	61	25	0	161480704	50	6261
2026-01-05 13:14:22.18	27.43	8.43	-38.6	-39.7	22.1	0.00e+00	57	25	0	162529280	50	6187
2026-01-05 13:14:23.18	27.51	8.50	-38.3	-39.3	22.4	0.00e+00	57	25	0	164626432	50	5943
2026-01-05 13:14:24.19	27.60	8.57	-38.2	-39.2	22.4	0.00e+00	90	25	0	166723584	50	5866
2026-01-05 13:14:25.21	27.68	8.64	-38.1	-39.1	22.6	0.00e+00	3	25	0	168820736	50	5799
2026-01-05 13:14:26.21	27.77	8.72	-38.3	-39.4	22.3	0.00e+00	92	25	0	170917888	50	5973
2026-01-05 13:14:27.22	27.86	8.79	-38.3	-39.3	22.5	0.00e+00	0	25	0	171966464	50	5941
2026-01-05 13:14:28.23	27.94	8.86	-38.4	-39.4	22.3	0.00e+00	0	25	0	174063616	50	5983
2026-01-05 13:14:29.24	28.03	8.93	-38.1	-39.1	22.5	0.00e+00	0	25	0	176160768	50	5814
2026-01-05 13:14:30.25	28.12	9.00	-38.3	-39.3	22.5	0.00e+00	3	25	0	178257920	50	5916
2026-01-05 13:14:31.26	28.20	9.08	-38.3	-39.3	22.4	0.00e+00	83	25	0	180355072	50	5947
2026-01-05 13:14:32.27	28.29	9.15	-38.3	-39.3	22.4	0.00e+00	0	25	0	181403648	50	5907
2026-01-05 13:14:33.28	28.38	9.22	-38.2	-39.2	22.5	0.00e+00	92	25	0	183500800	50	5894
2026-01-05 13:14:34.29	28.47	9.30	-38.3	-39.3	22.5	0.00e+00	0	25	0	185597952	50	5916
2026-01-05 13:14:35.30	28.56	9.37	-38.2	-39.2	22.6	0.00e+00	0	25	0	187695104	50	5845
2026-01-05 13:14:36.31	28.65	9.44	-38.3	-39.3	22.4	0.00e+00	19	25	0	189792256	50	5928
2026-01-05 13:14:37.32	28.74	9.52	-38.2	-39.2	22.5	0.00e+00	21	25	0	190840832	50	5847
2026-01-05 13:14:38.33	28.83	9.59	-38.3	-39.3	22.4	0.00e+00	16	25	0	192937984	50	5956
2026-01-05 13:14:39.34	28.92	9.66	-38.4	-39.4	22.4	0.00e+00	25	25	0	195035136	50	6019
2026-01-05 13:14:40.35	29.02	9.74	-38.4	-39.4	22.4	0.00e+00	92	25	0	197132288	50	6028
2026-01-05 13:14:41.36	29.11	9.81	-38.5	-39.5	22.2	0.00e+00	23	25	0	199229440	50	6085
2026-01-05 13:14:42.37	29.20	9.89	-38.5	-39.6	22.3	0.00e+00	92	25	0	200278016	50	6105
2026-01-05 13:14:43.37	29.29	9.96	-38.2	-39.2	22.6	0.00e+00	0	25	0	202375168	50	5864
2026-01-05 13:14:44.38	29.39	10.04	-38.3	-39.3	22.5	0.00e+00	62	25	0	204472320	50	5913
2026-01-05 13:14:45.39	29.48	10.11	-38.0	-39.0	22.8	0.00e+00	61	25	0	206569472	50	5719
2026-01-05 13:14:46.40	29.57	10.19	-38.0	-38.9	22.8	0.00e+00	5	25	0	208666624	50	5683
2026-01-05 13:14:47.41	29.67	10.26	-37.9	-38.9	22.8	0.00e+00	92	25	0	210763776	50	5667
2026-01-05 13:14:48.42	29.76	10.34	-38.0	-39.0	22.9	0.00e+00	6	25	0	211812352	50	5738
2026-01-05 13:14:49.43	29.86	10.41	-37.7	-38.7	23.1	0.00e+00	92	25	0	213909504	50	5507
2026-01-05 13:14:50.44	29.96	10.49	-37.9	-38.8	22.9	0.00e+00	7	25	0	216006656	48	6311
2026-01-05 13:14:51.45	30.05	10.56	-37.8	-38.8	23.0	0.00e+00	3	25	0	218103808	48	6275
2026-01-05 13:14:52.46	30.15	10.64	-37.8	-38.8	23.0	0.00e+00	0	25	0	220200960	48	6279
2026-01-05 13:14:53.47	30.25	10.72	-37.7	-38.6	23.1	0.00e+00	5	25	0	221249536	48	6173
2026-01-05 13:14:54.48	30.35	10.79	-37.7	-38.7	23.0	0.00e+00	85	25	0	223346688	48	6213
2026-01-05 13:14:55.48	30.44	10.87	-37.7	-38.6	23.0	0.00e+00	0	25	0	225443840	48	6171
2026-01-05 13:14:56.49	30.54	10.94	-37.8	-38.7	23.0	0.00e+00	90	25	0	227540992	48	6234
2026-01-05 13:14:57.50	30.64	11.02	-37.7	-38.7	23.0	0.00e+00	4	25	0	229638144	48	6194
2026-01-05 13:14:58.51	30.74	11.10	-38.0	-39.0	22.8	0.00e+00	25	25	0	230686720	48	6407
2026-01-05 13:14:59.52	30.84	11.17	-37.9	-38.9	22.7	0.00e+00	17	25	0	232783872	48	6349
2026-01-05 13:15:00.53	30.95	11.25	-38.0	-39.0	22.6	0.00e+00	66	25	0	234881024	48	6406
2026-01-05 13:15:01.54	31.05	11.33	-37.7	-38.7	23.0	0.00e+00	11	25	0	236978176	48	6189
2026-01-05 13:15:02.54	31.15	11.41	-37.5	-38.4	23.3	0.00e+00	61	25	0	239075328	48	6031
2026-01-05 13:15:03.55	31.25	11.48	-37.6	-38.5	23.2	0.00e+00	92	25	0	240123904	48	6093
2026-01-05 13:15:04.57	31.36	11.56	-37.5	-38.4	23.4	0.00e+00	62	25	0	242221056	48	6031
2026-01-05 13:15:05.57	31.46	11.64	-37.4	-38.4	23.4	0.00e+00	82	25	0	244318208	48	5972
2026-01-05 13:15:06.58	31.56	11.72	-37.5	-38.5	23.3	0.00e+00	60	25	0	246415360	48	6041
2026-01-05 13:15:07.59	31.67	11.80	-37.4	-38.3	23.4	0.00e+00	67	25	0	248512512	48	5945
2026-01-05 13:15:08.60	31.77	11.88	-37.4	-38.4	23.4	0.00e+00	0	25	0	249561088	48	5975
2026-01-05 13:15:09.61	31.88	11.96	-37.6	-38.5	23.3	0.00e+00	6	25	0	251658240	48	6052
2026-01-05 13:15:10.62	31.99	12.03	-37.7	-38.7	23.1	0.00e+00	92	25	0	253755392	48	6192
2026-01-05 13:15:11.63	32.09	12.11	-37.6	-38.6	23.2	0.00e+00	0	25	0	255852544	48	6112
2026-01-05 13:15:12.64	32.20	12.19	-37.7	-38.6	23.2	0.00e+00	92	25	0	257949696	48	6157
2026-01-05 13:15:13.64	32.31	12.27	-37.7	-38.6	23.1	0.00e+00	0	25	0	258998272	48	6167
2026-01-05 13:15:14.65	32.42	12.35	-37.7	-38.7	23.2	0.00e+00	0	25	0	261095424	48	6189
2026-01-05 13:15:15.67	32.53	12.43	-37.9	-38.8	23.0	0.00e+00	0	25	0	263192576	48	6288
2026-01-05 13:15:16.67	32.64	12.51	-37.8	-38.8	23.1	0.00e+00	21	25	0	265289728	48	6254
2026-01-05 13:15:17.68	32.75	12.59	-37.8	-38.8	23.1	0.00e+00	74	25	0	267386880	48	6270
2026-01-05 13:15:18.69	32.86	12.67	-37.8	-38.8	23.0	0.00e+00	25	25	0	268435456	48	6258
2026-01-05 13:15:19.70	32.97	12.75	-37.8	-38.7	23.1	0.00e+00	92	25	0	270532608	48	6238
2026-01-05 13:15:20.71	33.08	12.83	-37.9	-38.9	23.0	0.00e+00	0	25	0	272629760	48	6342
2026-01-05 13:15:21.72	33.19	12.91	-38.0	-38.9	22.9	0.00e+00	71	25	0	274726912	48	6374
2026-01-05 13:15:22.73	33.31	13.00	-37.8	-38.8	23.1	0.00e+00	26	25	0	276824064	48	6279
2026-01-05 13:15:23.74	33.42	13.08	-38.0	-39.0	22.9	0.00e+00	56	25	0	278921216	48	6433
2026-01-05 13:15:24.75	33.54	13.16	-38.0	-38.9	22.9	0.00e+00	0	25	0	279969792	48	6365
2026-01-05 13:15:25.76	33.65	13.24	-37.7	-38.6	23.3	0.00e+00	54	25	0	282066944	48	6149
2026-01-05 13:15:26.77	33.77	13.32	-37.8	-38.7	23.1	0.00e+00	90	25	0	284164096	48	6203
2026-01-05 13:15:27.78	33.88	13.40	-37.8	-38.8	23.1	0.00e+00	0	25	0	286261248	48	6253
2026-01-05 13:15:28.78	34.00	13.49	-37.7	-38.7	23.2	0.00e+00	90	25	0	288358400	48	6195
2026-01-05 13:15:29.79	34.12	13.57	-37.8	-38.8	23.1	0.00e+00	0	25	0	289406976	48	6270
2026-01-05 13:15:30.80	34.23	13.65	-38.0	-38.9	23.0	0.00e+00	0	25	0	291504128	48	6380
2026-01-05 13:15:31.81	34.35	13.73	-38.0	-38.9	23.0	0.00e+00	0	25	0	293601280	48	6377
2026-01-05 13:15:32.82	34.47	13.82	-38.0	-39.0	22.8	0.00e+00	2	25	0	295698432	48	6432
2026-01-05 13:15:33.83	34.59	13.90	-37.9	-38.9	22.9	0.00e+00	92	25	0	297795584	48	6340
2026-01-05 13:15:34.84	34.71	13.98	-37.9	-38.8	22.8	0.00e+00	0	25	0	298844160	48	6288
2026-01-05 13:15:35.85	34.84	14.07	-37.9	-38.9	22.9	0.00e+00	92	25	0	300941312	48	6342
2026-01-05 13:15:36.86	34.96	14.15	-38.0	-39.0	22.6	0.00e+00	0	25	0	303038464	48	6416
2026-01-05 13:15:37.87	35.08	14.23	-37.8	-38.8	23.1	0.00e+00	0	25	0	305135616	48	6269
2026-01-05 13:15:38.88	35.20	14.32	-37.8	-38.7	23.1	0.00e+00	0	25	0	307232768	48	6241
2026-01-05 13:15:39.89	35.33	14.40	-37.8	-38.8	23.2	0.00e+00	27	25	0	308281344	48	6247
2026-01-05 13:15:40.90	35.45	14.48	-37.8	-38.7	23.2	0.00e+00	0	25	0	310378496	48	6196
2026-01-05 13:15:41.90	35.58	14.57	-37.9	-38.8	23.1	0.00e+00	27	25	0	312475648	48	6292
2026-01-05 13:15:42.91	35.70	14.65	-37.9	-38.8	23.1	0.00e+00	92	25	0	314572800	48	6289
2026-01-05 13:15:43.92	35.83	14.74	-37.8	-38.8	23.2	0.00e+00	55	25	0	316669952	48	6259
2026-01-05 13:15:44.93	35.96	14.82	-37.7	-38.6	23.3	0.00e+00	89	25	0	317718528	48	6162
2026-01-05 13:15:45.94	36.09	14.91	-37.8	-38.7	23.2	0.00e+00	26	25	0	319815680	48	6221
2026-01-05 13:15:46.95	36.21	14.99	-37.9	-38.8	23.1	0.00e+00	0	25	0	321912832	48	6278
2026-01-05 13:15:47.96	36.34	15.08	-37.8	-38.8	23.2	0.00e+00	0	25	0	324009984	48	6259
2026-01-05 13:15:48.97	36.47	15.16	-37.9	-38.8	23.1	0.00e+00	54	25	0	326107136	48	6308
2026-01-05 13:15:49.98	36.61	15.25	-37.9	-38.9	23.0	0.00e+00	92	25	0	327155712	48	6333
2026-01-05 13:15:50.99	36.74	15.34	-37.9	-38.9	23.0	0.00e+00	0	25	0	329252864	48	6344
2026-01-05 13:15:52.00	36.87	15.42	-38.0	-38.9	23.0	0.00e+00	91	25	0	331350016	48	6384
2026-01-05 13:15:53.01	37.00	15.51	-37.9	-38.8	23.2	0.00e+00	2	25	0	333447168	48	6278
2026-01-05 13:15:54.01	37.14	15.59	-37.9	-38.8	23.1	0.00e+00	55	25	0	335544320	48	6313
2026-01-05 13:15:55.03	37.27	15.68	-37.8	-38.8	23.3	0.00e+00	0	25	0	336592896	48	6265
2026-01-05 13:15:56.03	37.41	15.77	-37.9	-38.9	23.1	0.00e+00	0	25	0	338690048	48	6349
2026-01-05 13:15:57.04	37.54	15.85	-37.7	-38.6	23.3	0.00e+00	90	25	0	340787200	48	6166
2026-01-05 13:15:58.05	37.68	15.94	-37.6	-38.6	23.4	0.00e+00	0	25	0	342884352	48	6104
2026-01-05 13:15:59.06	37.82	16.03	-37.7	-38.7	23.3	0.00e+00	90	25	0	344981504	48	6183
2026-01-05 13:16:00.07	37.96	16.11	-37.6	-38.5	23.4	0.00e+00	0	25	0	346030080	48	6079
2026-01-05 13:16:01.08	38.10	16.20	-37.9	-38.8	23.1	0.00e+00	28	25	0	348127232	48	6276
2026-01-05 13:16:02.09	38.24	16.29	-37.8	-38.8	23.1	0.00e+00	0	25	0	350224384	48	6254
2026-01-05 13:16:03.10	38.38	16.38	-37.8	-38.7	23.1	0.00e+00	0	25	0	352321536	48	6203
2026-01-05 13:16:04.11	38.52	16.47	-37.8	-38.8	23.2	0.00e+00	0	25	0	354418688	48	6252
2026-01-05 13:16:05.12	38.66	16.55	-37.8	-38.7	23.2	0.00e+00	25	25	0	355467264	48	6227
2026-01-05 13:16:06.12	38.80	16.64	-37.7	-38.6	23.2	0.00e+00	92	25	0	357564416	48	6167
2026-01-05 13:16:07.13	38.95	16.73	-37.8	-38.7	23.2	0.00e+00	61	25	0	359661568	48	6233
2026-01-05 13:16:08.14	39.09	16.82	-37.9	-38.8	23.1	0.00e+00	92	25	0	361758720	48	6295
2026-01-05 13:16:09.15	39.24	16.91	-37.8	-38.8	23.2	0.00e+00	22	25	0	363855872	48	6261
2026-01-05 13:16:10.16	39.39	17.00	-37.8	-38.8	23.3	0.00e+00	0	25	0	364904448	48	6265
2026-01-05 13:16:11.17	39.53	17.09	-37.6	-38.5	23.5	0.00e+00	0	25	0	367001600	48	6067
2026-01-05 13:16:12.18	39.68	17.17	-37.8	-38.7	23.3	0.00e+00	2	25	0	369098752	48	6193
2026-01-05 13:16:13.18	39.83	17.26	-37.6	-38.5	23.5	0.00e+00	92	25	0	371195904	48	6043
2026-01-05 13:16:14.19	39.98	17.35	-37.3	-38.2	23.8	0.00e+00	53	25	0	373293056	48	5835
2026-01-05 13:16:15.20	40.13	17.44	-37.4	-38.3	23.6	0.00e+00	92	26	0	375390208	48	5935
2026-01-05 13:16:16.21	40.28	17.53	-37.5	-38.4	23.6	0.00e+00	52	25	0	376438784	48	5990
2026-01-05 13:16:17.22	40.43	17.62	-37.6	-38.5	23.5	0.00e+00	0	25	0	378535936	48	6067
2026-01-05 13:16:18.23	40.59	17.71	-37.4	-38.3	23.7	0.00e+00	0	25	0	380633088	48	5911
2026-01-05 13:16:19.24	40.74	17.80	-37.4	-38.3	23.7	0.00e+00	0	25	0	382730240	48	5958
2026-01-05 13:16:20.25	40.90	17.89	-37.2	-38.1	23.8	0.00e+00	92	25	0	384827392	48	5813
2026-01-05 13:16:21.26	41.05	17.98	-37.2	-38.1	23.8	0.00e+00	0	25	0	385875968	48	5796
2026-01-05 13:16:22.27	41.21	18.07	-37.2	-38.1	23.8	0.00e+00	90	26	0	387973120	48	5780
2026-01-05 13:16:23.28	41.37	18.16	-37.1	-38.0	23.9	0.00e+00	0	25	0	390070272	48	5718
2026-01-05 13:16:24.29	41.53	18.26	-36.9	-37.7	24.1	0.00e+00	26	25	0	392167424	48	5545
2026-01-05 13:16:25.29	41.69	18.35	-36.7	-37.5	24.2	0.00e+00	27	25	0	394264576	46	6098
2026-01-05 13:16:26.30	41.85	18.44	-36.7	-37.5	23.2	0.00e+00	0	25	0	395313152	46	6081
2026-01-05 13:16:27.31	42.01	18.53	-36.6	-37.5	23.5	0.00e+00	0	25	0	397410304	46	6044
2026-01-05 13:16:28.32	42.17	18.62	-36.6	-37.4	24.4	0.00e+00	26	25	0	399507456	46	6003
2026-01-05 13:16:29.33	42.34	18.71	-36.7	-37.5	24.4	0.00e+00	90	25	0	401604608	46	6064
2026-01-05 13:16:30.34	42.50	18.80	-36.4	-37.2	24.5	0.00e+00	56	25	0	403701760	46	5887
2026-01-05 13:16:31.34	42.66	18.89	-36.6	-37.4	24.3	0.00e+00	92	26	0	404750336	46	6012
2026-01-05 13:16:32.36	42.83	18.99	-36.4	-37.3	24.5	0.00e+00	27	26	0	406847488	46	5897
2026-01-05 13:16:33.36	43.00	19.08	-36.5	-37.3	24.6	0.00e+00	26	25	0	408944640	46	5919
2026-01-05 13:16:34.37	43.17	19.17	-36.5	-37.3	24.6	0.00e+00	0	25	0	411041792	46	5922
2026-01-05 13:16:35.38	43.34	19.26	-36.5	-37.4	24.6	0.00e+00	5	25	0	413138944	46	5971
2026-01-05 13:16:36.39	43.51	19.35	-36.5	-37.3	24.4	0.00e+00	92	25	0	414187520	46	5960
2026-01-05 13:16:37.40	43.68	19.45	-36.6	-37.4	24.5	0.00e+00	57	25	0	416284672	46	6008
2026-01-05 13:16:38.41	43.85	19.54	-36.7	-37.6	24.3	0.00e+00	92	25	0	418381824	46	6114
2026-01-05 13:16:39.42	44.02	19.63	-36.8	-37.6	24.3	0.00e+00	60	26	0	420478976	46	6139
2026-01-05 13:16:40.43	44.20	19.72	-36.5	-37.4	24.5	0.00e+00	5	25	0	422576128	46	5970
2026-01-05 13:16:41.44	44.37	19.82	-36.6	-37.5	24.3	0.00e+00	5	26	0	423624704	46	6055
2026-01-05 13:16:42.45	44.55	19.91	-36.6	-37.5	24.5	0.00e+00	0	25	0	425721856	46	6054
2026-01-05 13:16:43.46	44.73	20.00	-36.3	-37.1	24.6	0.00e+00	0	26	0	427819008	46	5827
2026-01-05 13:16:44.46	44.91	20.09	-36.3	-37.1	24.7	0.00e+00	5	25	0	429916160	46	5789
2026-01-05 13:16:45.47	45.09	20.19	-36.2	-37.0	24.7	0.00e+00	92	26	0	432013312	46	5741
2026-01-05 13:16:46.48	45.27	20.28	-36.3	-37.2	24.5	0.00e+00	26	26	0	433061888	46	5837
2026-01-05 13:16:47.49	45.45	20.37	-36.3	-37.1	24.6	0.00e+00	79	26	0	435159040	46	5791
2026-01-05 13:16:48.50	45.63	20.47	-36.2	-37.0	24.8	0.00e+00	27	26	0	437256192	46	5716
2026-01-05 13:16:49.51	45.82	20.56	-36.3	-37.1	24.8	0.00e+00	0	26	0	439353344	46	5767
2026-01-05 13:16:50.52	46.00	20.65	-36.2	-37.0	24.6	0.00e+00	0	26	0	441450496	46	5743
2026-01-05 13:16:51.53	46.19	20.75	-36.3	-37.1	24.7	0.00e+00	24	26	0	443547648	46	5812
2026-01-05 13:16:52.54	46.37	20.84	-36.3	-37.1	24.7	0.00e+00	91	26	0	444596224	46	5770
2026-01-05 13:16:53.55	46.56	20.93	-36.3	-37.1	24.7	0.00e+00	27	25	0	446693376	46	5817
2026-01-05 13:16:54.56	46.75	21.03	-36.1	-36.9	24.9	0.00e+00	91	26	0	448790528	46	5644
2026-01-05 13:16:55.57	46.94	21.12	-36.0	-36.8	25.0	0.00e+00	59	26	0	450887680	46	5595
2026-01-05 13:16:56.58	47.14	21.22	-36.0	-36.8	25.0	0.00e+00	58	25	0	452984832	46	5615
2026-01-05 13:16:57.59	47.33	21.31	-35.8	-36.6	25.2	0.00e+00	0	26	0	454033408	46	5448
2026-01-05 13:16:58.60	47.52	21.40	-35.7	-36.4	25.2	0.00e+00	7	25	0	456130560	44	6022
2026-01-05 13:16:59.61	47.72	21.50	-35.6	-36.4	25.3	0.00e+00	92	25	0	458227712	44	5990
2026-01-05 13:17:00.62	47.91	21.59	-35.6	-36.3	25.4	0.00e+00	59	25	0	460324864	44	5951
2026-01-05 13:17:01.63	48.11	21.68	-35.7	-36.5	25.2	0.00e+00	92	25	0	462422016	44	6058
2026-01-05 13:17:02.64	48.31	21.78	-35.5	-36.3	25.4	0.00e+00	0	26	0	463470592	44	5929
2026-01-05 13:17:03.65	48.51	21.87	-35.5	-36.3	25.4	0.00e+00	0	26	0	465567744	44	5910
2026-01-05 13:17:04.66	48.71	21.97	-35.6	-36.4	25.4	0.00e+00	0	26	0	467664896	44	5971
2026-01-05 13:17:05.66	48.91	22.06	-35.4	-36.2	25.4	0.00e+00	6	26	0	469762048	44	5848
2026-01-05 13:17:06.67	49.12	22.15	-35.5	-36.3	25.4	0.00e+00	78	25	0	471859200	44	5901
2026-01-05 13:17:07.68	49.32	22.25	-35.3	-36.0	25.7	0.00e+00	0	25	0	472907776	44	5735
2026-01-05 13:17:08.69	49.53	22.34	-35.3	-36.1	25.6	0.00e+00	92	26	0	475004928	44	5791
2026-01-05 13:17:09.70	49.73	22.43	-35.3	-36.0	25.5	0.00e+00	23	25	0	477102080	44	5751
2026-01-05 13:17:10.71	49.94	22.53	-35.5	-36.3	25.4	0.00e+00	28	25	0	479199232	44	5903
2026-01-05 13:17:11.72	50.15	22.62	-35.6	-36.4	25.3	0.00e+00	0	25	0	481296384	44	5988
2026-01-05 13:17:12.73	50.36	22.71	-35.7	-36.5	25.3	0.00e+00	24	26	0	482344960	44	6071
2026-01-05 13:17:13.74	50.57	22.81	-35.8	-36.6	25.1	0.00e+00	16	25	0	484442112	44	6142
2026-01-05 13:17:14.75	50.79	22.90	-35.9	-36.7	24.9	0.00e+00	55	25	0	486539264	44	6192
2026-01-05 13:17:15.76	51.00	22.99	-36.0	-36.8	24.9	0.00e+00	92	25	0	488636416	44	6275
2026-01-05 13:17:16.77	51.22	23.09	-36.1	-36.9	24.9	0.00e+00	27	25	0	490733568	44	6327
2026-01-05 13:17:17.77	51.43	23.18	-36.2	-37.0	24.7	0.00e+00	92	25	0	491782144	44	6440
2026-01-05 13:17:18.78	51.65	23.27	-36.3	-37.1	24.5	0.00e+00	54	25	0	493879296	44	6488
2026-01-05 13:17:19.80	51.87	23.37	-36.2	-37.0	24.8	0.00e+00	53	25	0	495976448	44	6417
2026-01-05 13:17:20.80	52.09	23.46	-36.4	-37.2	24.6	0.00e+00	52	25	0	498073600	44	6578
2026-01-05 13:17:21.81	52.31	23.55	-36.1	-36.9	24.9	0.00e+00	0	25	0	500170752	44	6356
2026-01-05 13:17:22.82	52.54	23.65	-36.2	-37.0	24.8	0.00e+00	92	25	0	501219328	44	6436
2026-01-05 13:17:23.83	52.76	23.74	-36.0	-36.8	25.0	0.00e+00	2	25	0	503316480	44	6312
2026-01-05 13:17:24.84	52.99	23.83	-36.2	-37.1	24.8	0.00e+00	92	26	0	505413632	44	6467
2026-01-05 13:17:25.85	53.22	23.92	-36.2	-37.0	24.7	0.00e+00	0	26	0	507510784	44	6463
2026-01-05 13:17:26.86	53.45	24.02	-36.3	-37.1	24.8	0.00e+00	82	25	0	509607936	44	6492
2026-01-05 13:17:27.87	53.68	24.11	-36.3	-37.1	24.7	0.00e+00	0	26	0	511705088	44	6494
2026-01-05 13:17:28.88	53.91	24.20	-36.3	-37.1	24.7	0.00e+00	28	26	0	512753664	44	6527
2026-01-05 13:17:29.89	54.14	24.29	-36.7	-37.5	24.4	0.00e+00	0	26	0	514850816	44	6820
2026-01-05 13:17:30.90	54.37	24.38	-36.5	-37.3	24.6	0.00e+00	0	25	0	516947968	44	6633
2026-01-05 13:17:31.91	54.61	24.47	-36.7	-37.5	24.3	0.00e+00	92	25	0	519045120	44	6845
2026-01-05 13:17:32.92	54.85	24.57	-36.9	-37.7	24.2	0.00e+00	0	25	0	520093696	46	6223
2026-01-05 13:17:33.93	55.08	24.66	-37.0	-37.8	24.2	0.00e+00	91	26	0	522190848	46	6307
2026-01-05 13:17:34.94	55.32	24.75	-37.1	-37.9	24.1	0.00e+00	27	26	0	524288000	46	6364
2026-01-05 13:17:35.94	55.56	24.84	-37.1	-37.9	24.1	0.00e+00	57	26	0	526385152	46	6363
2026-01-05 13:17:36.95	55.80	24.93	-37.0	-37.9	24.2	0.00e+00	0	26	0	528482304	46	6343
2026-01-05 13:17:37.96	56.05	25.02	-37.0	-37.9	24.1	0.00e+00	57	26	0	529530880	46	6355
2026-01-05 13:17:38.97	56.29	25.11	-37.1	-37.9	24.1	0.00e+00	92	26	0	531628032	46	6386
2026-01-05 13:17:39.98	56.54	25.20	-37.3	-38.2	23.8	0.00e+00	60	26	0	533725184	46	6562
2026-01-05 13:17:40.99	56.79	25.29	-37.2	-38.1	24.0	0.00e+00	92	26	0	535822336	46	6511
2026-01-05 13:17:42.00	57.04	25.38	-37.3	-38.2	23.9	0.00e+00	0	26	0	537919488	46	6586
2026-01-05 13:17:43.01	57.29	25.47	-37.4	-38.3	23.9	0.00e+00	58	26	0	540016640	46	6651
2026-01-05 13:17:44.02	57.54	25.56	-37.1	-37.9	24.1	0.00e+00	54	26	0	541065216	46	6377
2026-01-05 13:17:45.03	57.79	25.65	-36.9	-37.8	24.2	0.00e+00	0	25	0	543162368	46	6253
2026-01-05 13:17:46.04	58.05	25.73	-36.8	-37.6	24.3	0.00e+00	90	26	0	545259520	46	6144
2026-01-05 13:17:47.05	58.30	25.82	-36.9	-37.8	24.3	0.00e+00	0	25	0	547356672	46	6267
2026-01-05 13:17:48.06	58.56	25.91	-36.9	-37.8	24.2	0.00e+00	92	26	0	549453824	46	6256
2026-01-05 13:17:49.06	58.82	26.00	-37.1	-38.0	24.1	0.00e+00	0	26	0	550502400	46	6391
2026-01-05 13:17:50.07	59.08	26.08	-37.2	-38.1	23.9	0.00e+00	0	25	0	552599552	46	6519
2026-01-05 13:17:51.08	59.34	26.17	-37.4	-38.3	23.7	0.00e+00	28	26	0	554696704	46	6673
2026-01-05 13:17:52.09	59.60	26.26	-37.8	-38.7	23.3	0.00e+00	0	25	0	556793856	48	6202
2026-01-05 13:17:53.10	59.86	26.34	-37.9	-38.9	23.2	0.00e+00	28	25	0	558891008	48	6330
2026-01-05 13:17:54.11	60.13	26.43	-38.1	-39.1	23.0	0.00e+00	0	26	0	559939584	48	6494
2026-01-05 13:17:55.12	60.40	26.51	-38.2	-39.2	22.9	0.00e+00	92	25	0	562036736	48	6544
2026-01-05 13:17:56.13	60.67	26.60	-38.4	-39.3	22.3	0.00e+00	54	26	0	564133888	48	6672
2026-01-05 13:17:57.13	60.93	26.68	-38.3	-39.3	22.9	0.00e+00	92	25	0	566231040	48	6630
2026-01-05 13:17:58.14	61.21	26.77	-38.4	-39.3	22.8	0.00e+00	29	26	0	568328192	48	6678
2026-01-05 13:17:59.15	61.48	26.85	-38.3	-39.3	22.8	0.00e+00	30	26	0	569376768	48	6654
2026-01-05 13:18:00.16	61.75	26.93	-38.6	-39.6	22.5	0.00e+00	69	26	0	571473920	48	6906
2026-01-05 13:18:01.17	62.03	27.02	-38.8	-39.8	22.4	0.00e+00	27	25	0	573571072	50	6262
2026-01-05 13:18:02.18	62.30	27.10	-38.9	-39.9	22.4	0.00e+00	92	26	0	575668224	50	6376
2026-01-05 13:18:03.19	62.58	27.18	-38.9	-39.9	22.4	0.00e+00	0	26	0	577765376	50	6346
2026-01-05 13:18:04.20	62.86	27.26	-38.8	-39.8	22.4	0.00e+00	92	26	0	578813952	50	6255
2026-01-05 13:18:05.21	63.14	27.34	-38.9	-39.9	22.3	0.00e+00	54	26	0	580911104	50	6383
2026-01-05 13:18:06.22	63.43	27.42	-39.0	-40.1	22.2	0.00e+00	56	25	0	583008256	50	6468
2026-01-05 13:18:07.23	63.71	27.50	-39.1	-40.2	21.8	0.00e+00	0	26	0	585105408	50	6548
2026-01-05 13:18:08.24	64.00	27.58	-39.5	-40.6	21.8	0.00e+00	0	25	0	587202560	50	6857
2026-01-05 13:18:09.24	64.28	27.66	-39.5	-40.7	21.6	0.00e+00	89	26	0	588251136	50	6933
2026-01-05 13:18:10.25	64.57	27.74	-39.8	-41.0	21.5	0.00e+00	0	26	0	590348288	52	6400
2026-01-05 13:18:11.26	64.86	27.82	-39.6	-40.7	21.6	0.00e+00	92	26	0	592445440	52	6240
2026-01-05 13:18:12.27	65.15	27.90	-39.4	-40.5	21.9	0.00e+00	0	26	0	594542592	52	6067
2026-01-05 13:18:13.28	65.44	27.97	-39.4	-40.5	22.0	0.00e+00	23	26	0	596639744	52	6034
2026-01-05 13:18:14.29	65.74	28.05	-39.1	-40.1	22.1	0.00e+00	26	26	0	597688320	52	5814
2026-01-05 13:18:15.30	66.03	28.13	-39.1	-40.1	22.2	0.00e+00	0	26	0	599785472	52	5819
2026-01-05 13:18:16.31	66.33	28.20	-39.1	-40.2	22.2	0.00e+00	27	26	0	601882624	52	5861
2026-01-05 13:18:17.32	66.63	28.28	-38.7	-39.7	22.5	0.00e+00	29	26	0	603979776	50	6227
2026-01-05 13:18:18.33	66.93	28.35	-38.6	-39.6	22.6	0.00e+00	92	26	0	606076928	50	6133
2026-01-05 13:18:19.34	67.23	28.42	-38.7	-39.7	22.5	0.00e+00	0	26	0	608174080	50	6239
2026-01-05 13:18:20.35	67.53	28.49	-38.5	-39.5	22.7	0.00e+00	92	26	0	609222656	50	6090
2026-01-05 13:18:21.36	67.83	28.57	-38.5	-39.5	22.7	0.00e+00	52	26	0	611319808	50	6074
2026-01-05 13:18:22.37	68.14	28.64	-38.6	-39.6	22.6	0.00e+00	27	26	0	613416960	50	6136
2026-01-05 13:18:23.38	68.44	28.71	-38.5	-39.5	22.8	0.00e+00	0	26	0	615514112	50	6035
2026-01-05 13:18:24.39	68.75	28.78	-38.5	-39.5	22.7	0.00e+00	53	26	0	617611264	50	6064
2026-01-05 13:18:25.40	69.06	28.85	-38.4	-39.4	22.8	0.00e+00	90	26	0	618659840	50	6017
2026-01-05 13:18:26.41	69.37	28.92	-38.5	-39.5	22.7	0.00e+00	0	26	0	620756992	50	6036
2026-01-05 13:18:27.42	69.68	28.98	-38.6	-39.6	22.5	0.00e+00	88	25	0	622854144	50	6165
2026-01-05 13:18:28.42	69.99	29.05	-38.9	-39.9	22.3	0.00e+00	6	25	0	624951296	50	6388
2026-01-05 13:18:29.43	70.30	29.12	-39.2	-40.2	21.9	0.00e+00	0	26	0	627048448	50	6614
2026-01-05 13:18:30.44	70.62	29.18	-39.7	-40.9	21.5	0.00e+00	0	26	0	628097024	50	7090
2026-01-05 13:18:31.45	70.94	29.25	-39.8	-41.0	21.4	0.00e+00	0	26	0	630194176	52	6407
2026-01-05 13:18:32.46	71.25	29.31	-40.1	-41.3	21.0	0.00e+00	92	26	0	632291328	52	6689
2026-01-05 13:18:33.47	71.57	29.37	-40.3	-41.6	20.9	0.00e+00	6	26	0	634388480	52	6870
2026-01-05 13:18:34.48	71.89	29.44	-40.4	-41.6	20.8	0.00e+00	91	26	0	636485632	52	6889
2026-01-05 13:18:35.49	72.21	29.50	-40.7	-41.9	20.4	0.00e+00	19	26	0	637534208	52	7162
2026-01-05 13:18:36.50	72.54	29.56	-40.7	-42.0	20.4	0.00e+00	21	26	0	639631360	52	7194
2026-01-05 13:18:37.51	72.86	29.62	-41.0	-42.4	20.0	0.00e+00	23	26	0	641728512	54	6694
2026-01-05 13:18:38.52	73.18	29.68	-40.8	-42.1	20.3	0.00e+00	1	26	0	643825664	54	6499
2026-01-05 13:18:39.52	73.51	29.73	-41.0	-42.4	20.0	0.00e+00	9	26	0	645922816	54	6729
2026-01-05 13:18:40.53	73.83	29.79	-41.2	-42.7	19.8	0.00e+00	23	26	0	646971392	54	6934
2026-01-05 13:18:41.54	74.16	29.85	-41.2	-42.7	19.7	0.00e+00	91	26	0	649068544	54	6934
2026-01-05 13:18:42.55	74.49	29.90	-41.2	-42.7	19.7	0.00e+00	23	26	0	651165696	54	6963
2026-01-05 13:18:43.56	74.82	29.96	-41.4	-42.9	19.6	0.00e+00	25	26	0	653262848	54	7148
2026-01-05 13:18:44.57	75.16	30.01	-41.0	-42.4	20.1	0.00e+00	27	26	0	655360000	54	6715
2026-01-05 13:18:45.58	75.49	30.06	-41.0	-42.4	20.0	0.00e+00	7	25	0	656408576	54	6744
2026-01-05 13:18:46.59	75.82	30.12	-41.1	-42.5	19.9	0.00e+00	60	26	0	658505728	54	6800
2026-01-05 13:18:47.60	76.16	30.17	-40.7	-42.0	20.4	0.00e+00	8	26	0	660602880	54	6424
2026-01-05 13:18:48.61	76.49	30.22	-40.5	-41.7	20.6	0.00e+00	92	26	0	662700032	54	6214
2026-01-05 13:18:49.62	76.83	30.26	-40.6	-41.9	20.6	0.00e+00	0	26	0	664797184	54	6349
2026-01-05 13:18:50.63	77.17	30.31	-40.4	-41.6	20.8	0.00e+00	92	26	0	665845760	54	6156
2026-01-05 13:18:51.64	77.51	30.36	-40.5	-41.7	20.6	0.00e+00	0	26	0	667942912	54	6215
2026-01-05 13:18:52.64	77.84	30.40	-40.6	-41.9	20.6	0.00e+00	8	26	0	670040064	54	6336
2026-01-05 13:18:53.65	78.18	30.45	-40.4	-41.7	20.8	0.00e+00	5	26	0	672137216	54	6188
2026-01-05 13:18:54.66	78.53	30.49	-40.5	-41.8	20.5	0.00e+00	8	26	0	674234368	54	6261
2026-01-05 13:18:55.67	78.87	30.54	-40.3	-41.6	20.8	0.00e+00	90	26	0	676331520	54	6122
2026-01-05 13:18:56.68	79.21	30.58	-40.2	-41.4	21.0	0.00e+00	0	26	0	677380096	54	5979
2026-01-05 13:18:57.69	79.56	30.62	-40.2	-41.4	21.0	0.00e+00	91	26	0	679477248	54	6016
2026-01-05 13:18:58.70	79.90	30.66	-39.6	-40.8	21.7	0.00e+00	0	26	0	681574400	52	6246
2026-01-05 13:18:59.71	80.25	30.70	-39.6	-40.7	21.6	0.00e+00	0	26	0	683671552	52	6201
2026-01-05 13:19:00.72	80.60	30.73	-39.5	-40.6	21.7	0.00e+00	0	26	0	684720128	52	6159
2026-01-05 13:19:01.73	80.94	30.77	-39.5	-40.6	21.8	0.00e+00	53	26	0	686817280	52	6104
2026-01-05 13:19:02.74	81.29	30.81	-39.7	-40.8	21.5	0.00e+00	0	26	0	688914432	52	6312
2026-01-05 13:19:03.74	81.64	30.84	-39.7	-40.8	21.5	0.00e+00	54	26	0	691011584	52	6282
2026-01-05 13:19:04.75	81.99	30.87	-39.6	-40.7	21.6	0.00e+00	92	26	0	693108736	52	6238
2026-01-05 13:19:05.76	82.34	30.90	-39.7	-40.8	21.6	0.00e+00	58	26	0	694157312	52	6266
2026-01-05 13:19:06.77	82.69	30.94	-39.5	-40.6	21.6	0.00e+00	91	26	0	696254464	52	6171
2026-01-05 13:19:07.78	83.04	30.97	-39.7	-40.8	21.5	0.00e+00	0	26	0	698351616	52	6290
2026-01-05 13:19:08.79	83.39	30.99	-39.3	-40.4	22.0	0.00e+00	0	26	0	700448768	52	5969
2026-01-05 13:19:09.80	83.75	31.02	-39.1	-40.2	22.1	0.00e+00	0	26	0	702545920	52	5829
2026-01-05 13:19:10.81	84.10	31.05	-39.4	-40.4	21.8	0.00e+00	58	26	0	704643072	52	6023
2026-01-05 13:19:11.82	84.46	31.07	-39.5	-40.6	21.8	0.00e+00	92	26	0	705691648	52	6104
2026-01-05 13:19:12.83	84.81	31.10	-39.8	-40.9	21.5	0.00e+00	0	26	0	707788800	52	6380
2026-01-05 13:19:13.84	85.17	31.12	-40.2	-41.4	21.0	0.00e+00	92	26	0	709885952	52	6757
2026-01-05 13:19:14.84	85.52	31.14	-40.3	-41.5	21.0	0.00e+00	0	26	0	711983104	52	6797
2026-01-05 13:19:15.85	85.87	31.16	-40.1	-41.3	21.1	0.00e+00	0	26	0	714080256	52	6639
2026-01-05 13:19:16.86	86.23	31.18	-39.8	-41.0	21.4	0.00e+00	0	26	0	715128832	52	6423
2026-01-05 13:19:17.87	86.59	31.20	-40.0	-41.2	21.1	0.00e+00	30	26	0	717225984	52	6587
2026-01-05 13:19:18.88	86.95	31.22	-39.8	-40.9	21.4	0.00e+00	0	26	0	719323136	52	6372
2026-01-05 13:19:19.89	87.30	31.23	-39.9	-41.1	21.3	0.00e+00	0	25	0	721420288	52	6470
2026-01-05 13:19:20.90	87.66	31.25	-39.7	-40.8	21.5	0.00e+00	92	26	0	723517440	52	6304
2026-01-05 13:19:21.91	88.02	31.26	-39.4	-40.4	21.9	0.00e+00	0	26	0	724566016	52	6016
2026-01-05 13:19:22.92	88.38	31.27	-39.6	-40.7	21.7	0.00e+00	88	26	0	726663168	52	6191
2026-01-05 13:19:23.93	88.74	31.28	-39.2	-40.3	22.0	0.00e+00	29	26	0	728760320	52	5919
2026-01-05 13:19:24.94	89.10	31.29	-39.3	-40.4	22.0	0.00e+00	54	26	0	730857472	52	5991
2026-01-05 13:19:25.95	89.46	31.30	-39.1	-40.1	22.1	0.00e+00	0	26	0	732954624	52	5822
2026-01-05 13:19:26.96	89.82	31.31	-38.6	-39.6	22.6	0.00e+00	28	26	0	734003200	50	6154
2026-01-05 13:19:27.97	90.18	31.31	-38.8	-39.9	22.4	0.00e+00	90	26	0	736100352	50	6325
2026-01-05 13:19:28.98	90.54	31.32	-39.1	-40.2	22.1	0.00e+00	2	26	0	738197504	50	6571
2026-01-05 13:19:29.99	90.90	31.32	-39.2	-40.3	22.2	0.00e+00	92	26	0	740294656	50	6623
2026-01-05 13:19:30.99	91.26	31.32	-38.5	-39.5	22.7	0.00e+00	0	26	0	742391808	50	6094
2026-01-05 13:19:32.01	91.62	31.32	-38.5	-39.5	22.6	0.00e+00	52	26	0	743440384	50	6091
2026-01-05 13:19:33.02	91.98	31.32	-38.7	-39.7	22.4	0.00e+00	0	26	0	745537536	50	6226
2026-01-05 13:19:34.02	92.34	31.32	-39.3	-40.3	21.9	0.00e+00	0	26	0	747634688	50	6676
2026-01-05 13:19:35.03	92.70	31.32	-39.5	-40.6	21.6	0.00e+00	91	26	0	749731840	50	6874
2026-01-05 13:19:36.04	93.06	31.32	-39.8	-40.9	21.3	0.00e+00	0	26	0	751828992	52	6389
2026-01-05 13:19:37.05	93.42	31.31	-39.9	-41.1	21.2	0.00e+00	91	26	0	752877568	52	6515
2026-01-05 13:19:38.06	93.78	31.30	-40.0	-41.2	21.1	0.00e+00	0	26	0	754974720	52	6591
2026-01-05 13:19:39.07	94.14	31.30	-39.8	-41.0	21.3	0.00e+00	27	26	0	757071872	52	6417
2026-01-05 13:19:40.08	94.50	31.29	-39.7	-40.8	21.3	0.00e+00	22	26	0	759169024	52	6296
2026-01-05 13:19:41.08	94.85	31.28	-39.5	-40.6	21.8	0.00e+00	0	26	0	761266176	52	6121
2026-01-05 13:19:42.09	95.21	31.27	-39.4	-40.5	21.8	0.00e+00	0	26	0	762314752	52	6088
2026-01-05 13:19:43.10	95.57	31.26	-39.6	-40.7	21.7	0.00e+00	23	26	0	764411904	52	6207
2026-01-05 13:19:44.11	95.93	31.24	-39.7	-40.8	21.5	0.00e+00	90	26	0	766509056	52	6299
2026-01-05 13:19:45.12	96.29	31.23	-39.8	-40.9	21.5	0.00e+00	55	26	0	768606208	52	6390
2026-01-05 13:19:46.13	96.65	31.21	-39.6	-40.7	21.6	0.00e+00	91	26	0	770703360	52	6213
2026-01-05 13:19:47.14	97.00	31.19	-39.5	-40.6	21.7	0.00e+00	0	26	0	772800512	52	6157
2026-01-05 13:19:48.15	97.36	31.18	-39.5	-40.5	21.8	0.00e+00	28	26	0	773849088	52	6096
2026-01-05 13:19:49.16	97.72	31.16	-39.7	-40.8	21.7	0.00e+00	22	26	0	775946240	52	6269
2026-01-05 13:19:50.17	98.07	31.14	-39.8	-40.9	21.5	0.00e+00	53	26	0	778043392	52	6344
2026-01-05 13:19:51.18	98.43	31.11	-40.0	-41.2	21.1	0.00e+00	92	26	0	780140544	52	6572
2026-01-05 13:19:52.19	98.79	31.09	-40.3	-41.5	20.9	0.00e+00	0	26	0	782237696	52	6810
2026-01-05 13:19:53.20	99.14	31.07	-40.5	-41.7	20.7	0.00e+00	92	26	0	783286272	52	6974
2026-01-05 13:19:54.21	99.50	31.04	-40.8	-42.2	20.2	0.00e+00	2	26	0	785383424	54	6553
2026-01-05 13:19:55.21	99.85	31.01	-41.1	-42.4	20.0	0.00e+00	2	26	0	787480576	54	6763
2026-01-05 13:19:56.22	100.20	30.99	-40.9	-42.2	20.2	0.00e+00	0	26	0	789577728	54	6610
2026-01-05 13:19:57.23	100.55	30.96	-40.8	-42.2	20.2	0.00e+00	0	26	0	791674880	54	6570
2026-01-05 13:19:58.24	100.90	30.93	-40.6	-41.9	20.4	0.00e+00	88	26	0	792723456	54	6352
2026-01-05 13:19:59.25	101.26	30.90	-40.6	-41.9	20.5	0.00e+00	2	26	0	794820608	54	6336
2026-01-05 13:20:00.26	101.61	30.86	-40.1	-41.3	21.0	0.00e+00	92	26	0	796917760	54	5935
2026-01-05 13:20:01.27	101.96	30.83	-40.0	-41.2	21.1	0.00e+00	2	26	0	799014912	54	5871
2026-01-05 13:20:02.28	102.31	30.80	-40.1	-41.3	21.0	0.00e+00	27	26	0	801112064	54	5913
2026-01-05 13:20:03.29	102.66	30.76	-40.3	-41.6	20.7	0.00e+00	0	26	0	802160640	54	6131
2026-01-05 13:20:04.30	103.00	30.72	-40.9	-42.3	20.0	0.00e+00	0	26	0	804257792	54	6649
2026-01-05 13:20:05.31	103.35	30.69	-41.1	-42.5	19.9	0.00e+00	0	26	0	806354944	54	6805
2026-01-05 13:20:06.32	103.70	30.65	-41.0	-42.4	20.0	0.00e+00	0	26	0	808452096	54	6699
2026-01-05 13:20:07.32	104.04	30.61	-40.8	-42.2	20.2	0.00e+00	92	26	0	810549248	54	6545
2026-01-05 13:20:08.33	104.38	30.57	-40.5	-41.8	20.6	0.00e+00	59	26	0	811597824	54	6291
2026-01-05 13:20:09.34	104.73	30.52	-40.2	-41.4	20.9	0.00e+00	92	26	0	813694976	54	6002
2026-01-05 13:20:10.35	105.07	30.48	-39.5	-40.5	21.6	0.00e+00	0	26	0	815792128	52	6099
2026-01-05 13:20:11.36	105.41	30.44	-39.2	-40.2	22.1	0.00e+00	0	26	0	817889280	52	5872
2026-01-05 13:20:12.37	105.76	30.39	-39.0	-40.0	22.3	0.00e+00	75	26	0	819986432	52	5723
2026-01-05 13:20:13.38	106.10	30.35	-38.8	-39.8	22.4	0.00e+00	6	26	0	821035008	52	5617
2026-01-05 13:20:14.39	106.43	30.30	-38.7	-39.7	22.6	0.00e+00	92	26	0	823132160	50	6188
2026-01-05 13:20:15.40	106.77	30.25	-38.5	-39.5	22.6	0.00e+00	6	26	0	825229312	50	6092
2026-01-05 13:20:16.41	107.11	30.20	-38.6	-39.6	22.5	0.00e+00	92	26	0	827326464	50	6162
2026-01-05 13:20:17.42	107.45	30.15	-38.6	-39.6	22.7	0.00e+00	6	26	0	829423616	50	6105
2026-01-05 13:20:18.43	107.78	30.10	-38.9	-39.9	22.2	0.00e+00	6	26	0	830472192	50	6343
2026-01-05 13:20:19.44	108.12	30.05	-39.1	-40.2	22.1	0.00e+00	0	26	0	832569344	50	6551
2026-01-05 13:20:20.45	108.45	30.00	-39.4	-40.6	21.7	0.00e+00	6	26	0	834666496	50	6849
2026-01-05 13:20:21.46	108.78	29.94	-39.7	-40.8	21.5	0.00e+00	81	26	0	836763648	50	7043
2026-01-05 13:20:22.46	109.11	29.89	-39.5	-40.6	21.7	0.00e+00	6	26	0	838860800	50	6888
2026-01-05 13:20:23.48	109.44	29.83	-39.2	-40.2	22.0	0.00e+00	93	26	0	840957952	50	6611
2026-01-05 13:20:24.48	109.77	29.77	-39.1	-40.1	22.2	0.00e+00	0	26	0	842006528	50	6510
2026-01-05 13:20:25.49	110.10	29.72	-38.6	-39.6	22.7	0.00e+00	41	26	0	844103680	50	6135
2026-01-05 13:20:26.50	110.42	29.66	-38.7	-39.7	22.6	0.00e+00	0	26	0	846200832	50	6190
2026-01-05 13:20:27.51	110.75	29.60	-38.4	-39.4	22.7	0.00e+00	25	26	0	848297984	50	5987
2026-01-05 13:20:28.52	111.07	29.54	-38.6	-39.6	22.5	0.00e+00	9	26	0	850395136	50	6168
2026-01-05 13:20:29.53	111.39	29.48	-38.7	-39.7	22.4	0.00e+00	58	26	0	851443712	50	6244
2026-01-05 13:20:30.54	111.72	29.42	-38.9	-39.9	22.3	0.00e+00	92	26	0	853540864	50	6369
2026-01-05 13:20:31.55	112.04	29.35	-39.1	-40.1	22.1	0.00e+00	27	26	0	855638016	50	6528
2026-01-05 13:20:32.56	112.36	29.29	-39.2	-40.3	21.9	0.00e+00	92	26	0	857735168	50	6651
2026-01-05 13:20:33.57	112.67	29.23	-39.5	-40.6	21.6	0.00e+00	6	26	0	859832320	50	6924
2026-01-05 13:20:34.58	112.99	29.16	-39.8	-40.9	21.4	0.00e+00	7	26	0	860880896	52	6346
2026-01-05 13:20:35.59	113.31	29.09	-40.0	-41.1	21.2	0.00e+00	69	26	0	862978048	52	6522
2026-01-05 13:20:36.60	113.62	29.03	-40.0	-41.2	21.1	0.00e+00	66	26	0	865075200	52	6559
2026-01-05 13:20:37.61	113.93	28.96	-39.6	-40.7	21.6	0.00e+00	90	26	0	867172352	52	6214
2026-01-05 13:20:38.62	114.25	28.89	-39.0	-40.1	22.3	0.00e+00	66	26	0	869269504	52	5781
2026-01-05 13:20:39.62	114.55	28.82	-38.9	-39.9	22.4	0.00e+00	90	26	0	870318080	52	5681
2026-01-05 13:20:40.63	114.86	28.75	-38.9	-40.0	22.3	0.00e+00	7	26	0	872415232	52	5701
2026-01-05 13:20:41.64	115.17	28.68	-39.1	-40.1	22.1	0.00e+00	0	26	0	874512384	52	5805
2026-01-05 13:20:42.65	115.48	28.61	-39.1	-40.2	22.0	0.00e+00	0	26	0	876609536	52	5856
2026-01-05 13:20:43.66	115.78	28.54	-39.4	-40.5	21.8	0.00e+00	6	26	0	878706688	52	6035
2026-01-05 13:20:44.67	116.09	28.47	-39.6	-40.7	21.5	0.00e+00	92	26	0	879755264	52	6202
2026-01-05 13:20:45.68	116.39	28.40	-40.0	-41.2	21.1	0.00e+00	26	26	0	881852416	52	6602
2026-01-05 13:20:46.69	116.69	28.32	-40.2	-41.4	21.0	0.00e+00	92	26	0	883949568	52	6744
2026-01-05 13:20:47.70	116.99	28.25	-40.3	-41.5	20.8	0.00e+00	3	26	0	886046720	52	6848
2026-01-05 13:20:48.71	117.29	28.17	-40.3	-41.5	20.8	0.00e+00	39	26	0	888143872	52	6824
2026-01-05 13:20:49.72	117.58	28.10	-40.2	-41.4	20.9	0.00e+00	0	26	0	889192448	52	6747
2026-01-05 13:20:50.73	117.88	28.02	-40.2	-41.4	20.9	0.00e+00	26	26	0	891289600	52	6738
2026-01-05 13:20:51.74	118.17	27.94	-40.1	-41.4	21.1	0.00e+00	16	26	0	893386752	52	6701
2026-01-05 13:20:52.74	118.46	27.87	-40.0	-41.2	21.2	0.00e+00	27	26	0	895483904	52	6582
2026-01-05 13:20:53.75	118.76	27.79	-40.0	-41.2	21.1	0.00e+00	90	26	0	897581056	52	6544
2026-01-05 13:20:54.76	119.05	27.71	-39.8	-41.0	21.3	0.00e+00	27	26	0	898629632	52	6410
2026-01-05 13:20:55.77	119.34	27.63	-39.7	-40.8	21.6	0.00e+00	92	26	0	900726784	52	6284
2026-01-05 13:20:56.78	119.62	27.55	-39.6	-40.7	21.5	0.00e+00	0	26	0	902823936	52	6202
2026-01-05 13:20:57.79	119.91	27.47	-39.5	-40.6	21.8	0.00e+00	0	26	0	904921088	52	6155
2026-01-05 13:20:58.80	120.19	27.39	-38.8	-39.8	22.5	0.00e+00	0	26	0	907018240	52	5607
2026-01-05 13:20:59.81	120.48	27.31	-38.7	-39.7	22.5	0.00e+00	56	26	0	908066816	50	6221
2026-01-05 13:21:00.82	120.76	27.23	-38.5	-39.5	22.8	0.00e+00	91	26	0	910163968	50	6067
2026-01-05 13:21:01.83	121.04	27.15	-38.0	-38.9	23.3	0.00e+00	0	26	0	912261120	50	5677
2026-01-05 13:21:02.84	121.32	27.06	-37.5	-38.4	23.7	0.00e+00	92	26	0	914358272	48	5978
2026-01-05 13:21:03.85	121.59	26.98	-37.7	-38.6	23.4	0.00e+00	0	26	0	916455424	48	6166
2026-01-05 13:21:04.86	121.87	26.90	-38.0	-39.0	23.1	0.00e+00	64	26	0	917504000	48	6397
2026-01-05 13:21:05.86	122.14	26.81	-38.2	-39.2	22.9	0.00e+00	0	26	0	919601152	48	6583
2026-01-05 13:21:06.87	122.42	26.73	-38.5	-39.5	22.7	0.00e+00	0	26	0	921698304	48	6838
2026-01-05 13:21:07.88	122.69	26.64	-38.7	-39.7	22.5	0.00e+00	9	26	0	923795456	48	6942
2026-01-05 13:21:08.89	122.96	26.56	-38.7	-39.8	22.4	0.00e+00	21	26	0	925892608	50	6247
2026-01-05 13:21:09.90	123.23	26.47	-38.9	-39.9	22.3	0.00e+00	90	26	0	926941184	50	6386
2026-01-05 13:21:10.91	123.50	26.39	-39.1	-40.1	22.1	0.00e+00	20	26	0	929038336	50	6537
2026-01-05 13:21:11.92	123.76	26.30	-38.9	-40.0	22.2	0.00e+00	90	26	0	931135488	50	6402
2026-01-05 13:21:12.93	124.03	26.22	-38.5	-39.5	22.7	0.00e+00	61	26	0	933232640	50	6060
2026-01-05 13:21:13.94	124.29	26.13	-38.2	-39.2	22.9	0.00e+00	22	26	0	935329792	50	5847
2026-01-05 13:21:14.95	124.55	26.04	-38.2	-39.2	22.9	0.00e+00	0	26	0	937426944	50	5837
2026-01-05 13:21:15.96	124.81	25.95	-37.6	-38.5	23.6	0.00e+00	54	26	0	938475520	48	6067
2026-01-05 13:21:16.97	125.07	25.87	-37.5	-38.4	23.5	0.00e+00	92	26	0	940572672	48	6026
2026-01-05 13:21:17.98	125.33	25.78	-37.9	-38.9	23.2	0.00e+00	0	26	0	942669824	48	6328
2026-01-05 13:21:18.98	125.58	25.69	-38.0	-38.9	23.1	0.00e+00	92	26	0	944766976	48	6377
2026-01-05 13:21:19.99	125.84	25.60	-37.8	-38.7	23.3	0.00e+00	2	26	0	946864128	48	6232
2026-01-05 13:21:21.00	126.09	25.51	-37.6	-38.5	23.5	0.00e+00	57	26	0	947912704	48	6088
2026-01-05 13:21:22.01	126.34	25.42	-37.6	-38.5	23.4	0.00e+00	59	26	0	950009856	48	6036
2026-01-05 13:21:23.02	126.59	25.33	-37.3	-38.1	23.7	0.00e+00	0	26	0	952107008	48	5818
2026-01-05 13:21:24.03	126.84	25.24	-37.7	-38.6	23.4	0.00e+00	92	26	0	954204160	48	6131
2026-01-05 13:21:25.04	127.09	25.15	-38.4	-39.4	22.6	0.00e+00	0	26	0	956301312	48	6744
2026-01-05 13:21:26.05	127.34	25.06	-39.3	-40.4	21.9	0.00e+00	92	26	0	957349888	50	6727
2026-01-05 13:21:27.06	127.58	24.97	-39.8	-41.0	21.3	0.00e+00	0	26	0	959447040	52	6432
2026-01-05 13:21:28.07	127.83	24.88	-39.6	-40.8	21.6	0.00e+00	13	26	0	961544192	52	6251
2026-01-05 13:21:29.08	128.07	24.79	-38.7	-39.7	22.6	0.00e+00	22	26	0	963641344	52	5530
2026-01-05 13:21:30.08	128.31	24.70	-38.2	-39.2	23.0	0.00e+00	0	26	0	965738496	50	5848
2026-01-05 13:21:31.09	128.55	24.61	-38.5	-39.5	22.7	0.00e+00	2	26	0	966787072	50	6058
2026-01-05 13:21:32.10	128.79	24.51	-38.6	-39.6	22.5	0.00e+00	0	26	0	968884224	50	6150
2026-01-05 13:21:33.11	129.02	24.42	-38.6	-39.6	22.6	0.00e+00	92	26	0	970981376	50	6135
2026-01-05 13:21:34.12	129.26	24.33	-39.1	-40.1	22.0	0.00e+00	55	26	0	973078528	50	6524
2026-01-05 13:21:35.13	129.49	24.24	-38.9	-40.0	22.2	0.00e+00	92	26	0	975175680	50	6425
2026-01-05 13:21:36.14	129.73	24.14	-38.8	-39.8	22.6	0.00e+00	21	26	0	976224256	50	6267
2026-01-05 13:21:37.15	129.96	24.05	-37.9	-38.8	23.3	0.00e+00	63	26	0	978321408	50	5595
2026-01-05 13:21:38.16	130.19	23.96	-37.8	-38.7	23.4	0.00e+00	0	26	0	980418560	48	6205
2026-01-05 13:21:39.16	130.42	23.87	-37.1	-37.9	24.1	0.00e+00	0	26	0	982515712	48	5687
2026-01-05 13:21:40.17	130.64	23.77	-37.3	-38.1	23.8	0.00e+00	90	26	0	984612864	48	5818
2026-01-05 13:21:41.18	130.87	23.68	-37.9	-38.9	23.2	0.00e+00	0	26	0	985661440	48	6335
2026-01-05 13:21:42.19	131.10	23.59	-38.2	-39.2	22.8	0.00e+00	90	26	0	987758592	48	6576
2026-01-05 13:21:43.20	131.32	23.49	-38.4	-39.4	22.7	0.00e+00	2	26	0	989855744	48	6731
2026-01-05 13:21:44.21	131.54	23.40	-38.0	-38.9	23.2	0.00e+00	55	26	0	991952896	48	6375
2026-01-05 13:21:45.21	131.76	23.31	-37.3	-38.2	23.6	0.00e+00	58	26	0	994050048	48	5871
2026-01-05 13:21:46.22	131.98	23.21	-37.1	-37.9	24.0	0.00e+00	0	26	0	995098624	48	5680
2026-01-05 13:21:47.23	132.20	23.12	-37.1	-37.9	24.0	0.00e+00	86	26	0	997195776	48	5675
2026-01-05 13:21:48.24	132.42	23.03	-37.4	-38.3	23.5	0.00e+00	0	26	0	999292928	48	5944
2026-01-05 13:21:49.25	132.63	22.93	-38.1	-39.0	23.0	0.00e+00	92	26	0	1001390080	48	6461
2026-01-05 13:21:50.26	132.85	22.84	-38.5	-39.5	22.6	0.00e+00	0	26	0	1003487232	48	6812
2026-01-05 13:21:51.27	133.06	22.74	-38.5	-39.5	22.5	0.00e+00	22	26	0	1004535808	48	6836
2026-01-05 13:21:52.28	133.27	22.65	-38.1	-39.1	23.0	0.00e+00	23	26	0	1006632960	48	6504
2026-01-05 13:21:53.29	133.48	22.56	-37.8	-38.7	23.5	0.00e+00	0	26	0	1008730112	48	6225
2026-01-05 13:21:54.29	133.69	22.46	-37.5	-38.4	23.6	0.00e+00	0	26	0	1010827264	48	5981
2026-01-05 13:21:55.31	133.90	22.37	-37.3	-38.2	23.9	0.00e+00	0	26	0	1012924416	48	5858
2026-01-05 13:21:56.32	134.11	22.27	-37.2	-38.1	23.8	0.00e+00	92	26	0	1013972992	48	5783
2026-01-05 13:21:57.33	134.32	22.18	-37.5	-38.4	23.6	0.00e+00	24	26	0	1016070144	48	6025
2026-01-05 13:21:58.34	134.52	22.08	-37.6	-38.5	23.5	0.00e+00	92	26	0	1018167296	48	6063
2026-01-05 13:21:59.35	134.73	21.99	-37.9	-38.9	23.2	0.00e+00	58	26	0	1020264448	48	6321
2026-01-05 13:22:00.36	134.93	21.90	-37.8	-38.8	23.3	0.00e+00	57	26	0	1022361600	48	6252
2026-01-05 13:22:01.37	135.13	21.80	-37.5	-38.4	23.6	0.00e+00	25	26	0	1023410176	48	5967
2026-01-05 13:22:02.38	135.33	21.71	-37.3	-38.2	23.8	0.00e+00	0	26	0	1025507328	48	5875
2026-01-05 13:22:03.38	135.53	21.61	-36.9	-37.7	24.2	0.00e+00	92	26	0	1027604480	48	5549
2026-01-05 13:22:04.40	135.73	21.52	-36.8	-37.7	24.2	0.00e+00	58	26	0	1029701632	46	6211
2026-01-05 13:22:05.41	135.92	21.42	-37.1	-37.9	23.9	0.00e+00	92	26	0	1031798784	46	6377
2026-01-05 13:22:06.41	136.12	21.33	-37.4	-38.2	23.7	0.00e+00	66	26	0	1033895936	46	6610
2026-01-05 13:22:07.42	136.31	21.24	-37.5	-38.4	23.7	0.00e+00	1	26	0	1034944512	46	6712
2026-01-05 13:22:08.43	136.50	21.14	-37.5	-38.4	23.7	0.00e+00	6	26	0	1037041664	46	6705
2026-01-05 13:22:09.44	136.70	21.05	-37.3	-38.2	23.8	0.00e+00	5	26	0	1039138816	46	6575
2026-01-05 13:22:10.45	136.89	20.95	-37.2	-38.0	24.0	0.00e+00	92	26	0	1041235968	46	6453
2026-01-05 13:22:11.45	137.07	20.86	-36.8	-37.6	24.3	0.00e+00	6	26	0	1043333120	46	6172
2026-01-05 13:22:12.46	137.26	20.77	-36.6	-37.4	24.5	0.00e+00	92	26	0	1044381696	46	6003
2026-01-05 13:22:13.47	137.45	20.67	-36.5	-37.3	24.5	0.00e+00	18	26	0	1046478848	46	5918
2026-01-05 13:22:14.48	137.64	20.58	-36.2	-37.1	24.6	0.00e+00	92	26	0	1048576000	46	5777
2026-01-05 13:22:15.49	137.82	20.48	-36.4	-37.2	24.6	0.00e+00	22	26	0	1050673152	46	5880
2026-01-05 13:22:16.50	138.01	20.39	-36.4	-37.3	24.4	0.00e+00	24	26	0	1052770304	46	5910
2026-01-05 13:22:17.51	138.19	20.30	-36.4	-37.3	24.5	0.00e+00	6	26	0	1053818880	46	5912
2026-01-05 13:22:18.52	138.37	20.20	-36.4	-37.2	24.4	0.00e+00	0	26	0	1055916032	46	5860
2026-01-05 13:22:19.53	138.55	20.11	-36.4	-37.2	24.5	0.00e+00	91	26	0	1058013184	46	5873
2026-01-05 13:22:20.54	138.73	20.01	-36.5	-37.3	24.1	0.00e+00	63	26	0	1060110336	46	5927
2026-01-05 13:22:21.54	138.91	19.92	-36.5	-37.3	24.5	0.00e+00	92	26	0	1062207488	46	5939
2026-01-05 13:22:22.55	139.09	19.83	-36.4	-37.2	24.4	0.00e+00	23	26	0	1063256064	46	5864
2026-01-05 13:22:23.56	139.26	19.73	-36.1	-36.9	24.8	0.00e+00	63	26	0	1065353216	46	5643
2026-01-05 13:22:24.57	139.44	19.64	-36.0	-36.8	24.9	0.00e+00	74	26	0	1067450368	46	5579
2026-01-05 13:22:25.58	139.61	19.55	-36.0	-36.8	24.9	0.00e+00	7	26	0	1069547520	46	5600
2026-01-05 13:22:26.59	139.79	19.46	-36.1	-36.9	24.8	0.00e+00	92	26	0	1071644672	46	5668
2026-01-05 13:22:27.60	139.96	19.36	-36.3	-37.1	24.8	0.00e+00	8	26	0	1072693248	46	5793
2026-01-05 13:22:28.61	140.13	19.27	-36.3	-37.1	24.7	0.00e+00	90	26	0	1074790400	46	5801
2026-01-05 13:22:29.62	140.30	19.18	-36.2	-37.0	24.8	0.00e+00	7	26	0	1076887552	46	5717
2026-01-05 13:22:30.63	140.47	19.08	-36.3	-37.2	24.6	0.00e+00	7	26	0	1078984704	46	5832
2026-01-05 13:22:31.64	140.64	18.99	-36.3	-37.1	24.7	0.00e+00	0	26	0	1081081856	46	5774
2026-01-05 13:22:32.65	140.81	18.90	-36.1	-36.9	24.8	0.00e+00	7	26	0	1082130432	46	5680
2026-01-05 13:22:33.66	140.98	18.81	-36.1	-36.9	24.8	0.00e+00	10	26	0	1084227584	46	5648
2026-01-05 13:22:34.67	141.14	18.71	-36.0	-36.8	25.0	0.00e+00	0	26	0	1086324736	46	5623
2026-01-05 13:22:35.68	141.31	18.62	-36.2	-37.0	24.7	0.00e+00	92	26	0	1088421888	46	5703
2026-01-05 13:22:36.69	141.47	18.53	-36.0	-36.8	24.8	0.00e+00	2	26	0	1090519040	46	5624
2026-01-05 13:22:37.70	141.63	18.44	-36.1	-36.9	24.7	0.00e+00	91	26	0	1091567616	46	5677
2026-01-05 13:22:38.71	141.79	18.35	-36.3	-37.1	24.6	0.00e+00	3	26	0	1093664768	46	5795
2026-01-05 13:22:39.71	141.95	18.25	-36.4	-37.2	24.5	0.00e+00	17	26	0	1095761920	46	5858
2026-01-05 13:22:40.72	142.11	18.16	-36.6	-37.5	24.3	0.00e+00	0	26	0	1097859072	46	6055
2026-01-05 13:22:41.73	142.27	18.07	-36.8	-37.6	24.3	0.00e+00	64	26	0	1099956224	46	6146
2026-01-05 13:22:42.74	142.43	17.98	-36.8	-37.6	24.1	0.00e+00	92	26	0	1102053376	46	6172
2026-01-05 13:22:43.75	142.59	17.89	-36.9	-37.7	24.1	0.00e+00	64	26	0	1103101952	46	6229
2026-01-05 13:22:44.76	142.74	17.80	-37.1	-37.9	23.9	0.00e+00	92	26	0	1105199104	46	6381
2026-01-05 13:22:45.77	142.90	17.71	-37.0	-37.9	23.9	0.00e+00	59	26	0	1107296256	46	6361
2026-01-05 13:22:46.78	143.05	17.62	-37.1	-37.9	23.9	0.00e+00	59	26	0	1109393408	46	6381
2026-01-05 13:22:47.79	143.21	17.53	-36.9	-37.8	24.1	0.00e+00	0	26	0	1111490560	46	6266
2026-01-05 13:22:48.80	143.36	17.44	-36.7	-37.6	24.3	0.00e+00	0	26	0	1112539136	46	6131
2026-01-05 13:22:49.81	143.51	17.34	-36.8	-37.7	24.2	0.00e+00	92	26	0	1114636288	46	6201
2026-01-05 13:22:50.81	143.66	17.26	-36.9	-37.7	24.1	0.00e+00	0	26	0	1116733440	46	6227
2026-01-05 13:22:51.82	143.81	17.17	-36.9	-37.8	24.0	0.00e+00	92	26	0	1118830592	46	6253
2026-01-05 13:22:52.83	143.96	17.08	-37.0	-37.9	23.9	0.00e+00	0	26	0	1120927744	46	6360
2026-01-05 13:22:53.84	144.11	16.99	-37.0	-37.9	23.9	0.00e+00	91	26	0	1121976320	46	6362
2026-01-05 13:22:54.85	144.26	16.90	-37.1	-38.0	23.9	0.00e+00	0	26	0	1124073472	46	6427
2026-01-05 13:22:55.86	144.40	16.81	-37.2	-38.1	23.8	0.00e+00	0	26	0	1126170624	46	6504
2026-01-05 13:22:56.87	144.55	16.72	-37.2	-38.1	23.7	0.00e+00	69	26	0	1128267776	46	6483
2026-01-05 13:22:57.88	144.69	16.63	-37.2	-38.0	23.7	0.00e+00	0	26	0	1130364928	46	6460
2026-01-05 13:22:58.89	144.84	16.54	-37.3	-38.2	23.6	0.00e+00	92	26	0	1131413504	46	6579
2026-01-05 13:22:59.90	144.98	16.45	-37.2	-38.1	23.6	0.00e+00	23	26	0	1133510656	46	6530
2026-01-05 13:23:00.91	145.12	16.36	-37.3	-38.3	23.5	0.00e+00	92	26	0	1135607808	46	6620
2026-01-05 13:23:01.92	145.26	16.27	-37.6	-38.5	23.3	0.00e+00	0	26	0	1137704960	46	6811
2026-01-05 13:23:02.93	145.41	16.18	-37.8	-38.7	23.3	0.00e+00	22	26	0	1139802112	48	6234
2026-01-05 13:23:03.93	145.54	16.10	-37.6	-38.6	23.2	0.00e+00	0	26	0	1140850688	48	6116
2026-01-05 13:23:04.94	145.68	16.01	-37.9	-38.8	23.0	0.00e+00	21	26	0	1142947840	48	6292
2026-01-05 13:23:05.95	145.82	15.92	-37.9	-38.8	23.0	0.00e+00	90	26	0	1145044992	48	6305
2026-01-05 13:23:06.96	145.96	15.83	-38.0	-38.9	23.0	0.00e+00	0	26	0	1147142144	48	6379
2026-01-05 13:23:07.97	146.10	15.75	-38.1	-39.1	22.8	0.00e+00	92	26	0	1149239296	48	6507
2026-01-05 13:23:08.98	146.23	15.66	-38.2	-39.2	22.8	0.00e+00	65	26	0	1150287872	48	6613
2026-01-05 13:23:09.99	146.37	15.57	-38.3	-39.4	22.6	0.00e+00	65	26	0	1152385024	48	6700
2026-01-05 13:23:11.00	146.50	15.48	-38.4	-39.4	22.6	0.00e+00	64	26	0	1154482176	48	6735
2026-01-05 13:23:12.01	146.64	15.40	-38.3	-39.2	22.7	0.00e+00	66	26	0	1156579328	48	6609
2026-01-05 13:23:13.02	146.77	15.31	-38.4	-39.4	22.5	0.00e+00	91	26	0	1158676480	48	6737
2026-01-05 13:23:14.03	146.90	15.22	-38.3	-39.3	22.7	0.00e+00	0	26	0	1159725056	48	6650
2026-01-05 13:23:15.04	147.03	15.14	-38.4	-39.4	22.5	0.00e+00	92	26	0	1161822208	48	6759
2026-01-05 13:23:16.05	147.16	15.05	-38.2	-39.2	22.8	0.00e+00	2	26	0	1163919360	48	6564
2026-01-05 13:23:17.05	147.29	14.97	-38.0	-39.0	23.1	0.00e+00	92	26	0	1166016512	48	6396
2026-01-05 13:23:18.06	147.42	14.88	-37.8	-38.7	23.2	0.00e+00	0	26	0	1168113664	48	6217
2026-01-05 13:23:19.07	147.55	14.79	-37.8	-38.8	23.2	0.00e+00	0	26	0	1170210816	48	6256
2026-01-05 13:23:20.08	147.68	14.71	-37.4	-38.3	23.4	0.00e+00	62	26	0	1171259392	48	5953
2026-01-05 13:23:21.09	147.81	14.62	-37.5	-38.4	23.4	0.00e+00	21	26	0	1173356544	48	5992
2026-01-05 13:23:22.10	147.93	14.54	-37.4	-38.3	23.4	0.00e+00	92	26	0	1175453696	48	5931
2026-01-05 13:23:23.11	148.06	14.45	-37.7	-38.6	23.3	0.00e+00	0	26	0	1177550848	48	6118
2026-01-05 13:23:24.12	148.18	14.37	-37.7	-38.7	23.1	0.00e+00	92	26	0	1178599424	48	6204
2026-01-05 13:23:25.13	148.31	14.28	-37.9	-38.9	23.0	0.00e+00	19	26	0	1180696576	48	6319
2026-01-05 13:23:26.13	148.43	14.20	-38.4	-39.4	22.6	0.00e+00	21	26	0	1182793728	48	6735
2026-01-05 13:23:27.15	148.56	14.11	-38.4	-39.4	22.5	0.00e+00	0	26	0	1184890880	48	6768
2026-01-05 13:23:28.16	148.68	14.03	-38.2	-39.2	22.7	0.00e+00	60	26	0	1186988032	48	6556
2026-01-05 13:23:29.16	148.80	13.95	-38.4	-39.4	22.5	0.00e+00	92	26	0	1188036608	48	6744
2026-01-05 13:23:30.17	148.92	13.86	-38.3	-39.4	22.5	0.00e+00	2	26	0	1190133760	48	6701
2026-01-05 13:23:31.18	149.04	13.78	-38.4	-39.4	22.4	0.00e+00	91	26	0	1192230912	48	6756
2026-01-05 13:23:32.19	149.16	13.70	-38.1	-39.1	22.6	0.00e+00	2	26	0	1194328064	48	6523
2026-01-05 13:23:33.19	149.28	13.61	-38.1	-39.1	22.6	0.00e+00	2	26	0	1196425216	48	6527
2026-01-05 13:23:34.20	149.40	13.53	-38.1	-39.1	22.7	0.00e+00	0	26	0	1198522368	48	6528
2026-01-05 13:23:35.21	149.51	13.45	-37.7	-38.6	23.2	0.00e+00	61	26	0	1199570944	48	6134
2026-01-05 13:23:36.22	149.63	13.36	-37.4	-38.3	23.4	0.00e+00	91	26	0	1201668096	48	5963
2026-01-05 13:23:37.23	149.75	13.28	-37.4	-38.3	23.5	0.00e+00	1	26	0	1203765248	48	5941
2026-01-05 13:23:38.23	149.86	13.20	-37.5	-38.4	23.3	0.00e+00	92	26	0	1205862400	48	6021
2026-01-05 13:23:39.24	149.98	13.12	-37.5	-38.4	23.4	0.00e+00	0	26	0	1207959552	48	6023
2026-01-05 13:23:40.25	150.09	13.04	-37.6	-38.5	23.3	0.00e+00	49	26	0	1209008128	48	6065
2026-01-05 13:23:41.26	150.21	12.95	-37.6	-38.5	23.2	0.00e+00	0	26	0	1211105280	48	6088
