passes_logs/2026/01/05/R4.6S_Anadyr/R4.6S_Anadyr__20260105_014644_FENGYUN_3D_rec.log

#Pass ID: 20260105_014644_FENGYUN 3D
#Satellite: FENGYUN 3D
#Configuration: FENGYUN 3D
#almurnet v.1.7.20251203
#Start time: 2026-01-05 01:46:46

#Version: 2.2.20231116
#Station: R4.6S_Anadyr
#Location: 177.4865 lon 64.73178 lat
#TLE: 1 43010U 17072A   26003.51579816  .00000092  00000+0  65324-4 0  9992
#TLE: 2 43010  98.9912 335.1548 0001916 128.4619 231.6729 14.19692074421623

#Time	Az	El	Level	Level2	SNR	BER	BlckErr	Temp	State	Recorded	gain1	gain2
2026-01-05 01:46:46.83	144.74	0.16	-49.5	-64.4	3.6	1.51e+00	0	27	0	0	60	59832
2026-01-05 01:46:47.84	144.73	0.22	-49.5	-61.6	3.6	8.46e-01	0	28	104	0	60	43492
2026-01-05 01:46:48.85	144.72	0.28	-49.3	-61.4	3.6	8.46e-01	0	28	104	0	60	42647
2026-01-05 01:46:49.86	144.71	0.34	-48.8	-60.9	3.6	8.46e-01	0	28	104	0	60	40225
2026-01-05 01:46:50.87	144.70	0.41	-49.0	-61.1	3.6	8.45e-01	0	28	104	0	60	41078
2026-01-05 01:46:51.88	144.69	0.47	-48.8	-61.0	3.6	8.45e-01	0	28	104	0	60	40487
2026-01-05 01:46:52.89	144.68	0.53	-48.7	-60.9	3.6	8.45e-01	0	28	104	0	60	39909
2026-01-05 01:46:53.90	144.67	0.59	-48.6	-60.7	3.6	8.45e-01	0	28	104	0	60	39211
2026-01-05 01:46:54.91	144.66	0.65	-48.6	-60.7	3.6	8.45e-01	0	28	104	0	60	39341
2026-01-05 01:46:55.92	144.65	0.71	-48.6	-60.7	3.6	8.45e-01	0	28	104	0	60	39268
2026-01-05 01:46:56.93	144.64	0.78	-48.4	-60.5	3.6	8.44e-01	0	28	104	0	60	38361
2026-01-05 01:46:57.94	144.64	0.84	-48.3	-60.5	3.6	8.45e-01	0	28	104	0	60	38245
2026-01-05 01:46:58.95	144.63	0.90	-48.3	-60.4	3.6	8.45e-01	0	28	104	0	60	37823
2026-01-05 01:46:59.96	144.62	0.96	-48.1	-60.2	3.6	8.45e-01	0	28	104	0	60	37048
2026-01-05 01:47:00.97	144.61	1.02	-47.6	-59.8	3.6	8.44e-01	0	28	104	0	60	35167
2026-01-05 01:47:01.98	144.60	1.09	-46.9	-59.3	3.6	8.46e-01	0	28	104	0	60	33398
2026-01-05 01:47:02.99	144.59	1.15	-46.9	-58.9	3.6	8.46e-01	0	28	104	0	60	31805
2026-01-05 01:47:04.00	144.58	1.21	-46.8	-58.9	3.6	8.46e-01	0	28	104	0	60	31745
2026-01-05 01:47:05.01	144.57	1.28	-46.9	-58.9	3.5	8.45e-01	0	28	104	0	60	31844
2026-01-05 01:47:06.02	144.56	1.34	-46.8	-58.8	3.6	8.46e-01	0	28	104	0	60	31414
2026-01-05 01:47:07.03	144.55	1.40	-46.7	-58.7	3.6	8.46e-01	0	28	104	0	60	31270
2026-01-05 01:47:08.04	144.54	1.47	-46.8	-58.8	3.6	8.46e-01	0	29	104	0	60	31658
2026-01-05 01:47:09.05	144.53	1.53	-46.7	-58.7	3.6	8.44e-01	0	29	104	0	60	31213
2026-01-05 01:47:10.06	144.52	1.59	-46.8	-58.9	3.6	8.46e-01	0	29	104	0	60	31686
2026-01-05 01:47:11.07	144.51	1.66	-46.7	-58.8	3.6	8.45e-01	0	29	104	0	60	31430
2026-01-05 01:47:12.08	144.49	1.72	-46.7	-58.8	3.6	8.45e-01	0	29	104	0	60	31631
2026-01-05 01:47:13.08	144.48	1.78	-46.7	-58.9	3.6	8.45e-01	0	29	104	0	60	31747
2026-01-05 01:47:14.09	144.47	1.85	-46.8	-58.9	3.6	8.44e-01	0	29	104	0	60	31879
2026-01-05 01:47:15.10	144.46	1.91	-46.7	-58.8	3.6	8.45e-01	0	29	104	0	60	31630
2026-01-05 01:47:16.11	144.45	1.98	-46.7	-58.7	3.6	8.45e-01	0	29	104	0	60	30982
2026-01-05 01:47:17.12	144.44	2.04	-46.7	-58.8	3.6	8.45e-01	0	29	104	0	60	31363
2026-01-05 01:47:18.12	144.43	2.11	-46.8	-58.8	3.6	8.46e-01	0	29	104	0	60	31583
2026-01-05 01:47:19.13	144.42	2.17	-46.7	-58.8	3.6	8.46e-01	0	29	104	0	60	31374
2026-01-05 01:47:20.14	144.41	2.24	-46.8	-58.9	3.6	8.45e-01	0	29	104	0	60	31683
2026-01-05 01:47:21.15	144.40	2.30	-46.7	-58.9	3.6	8.45e-01	0	29	104	0	60	31716
2026-01-05 01:47:22.16	144.39	2.37	-46.7	-58.9	3.6	8.45e-01	0	29	104	0	60	31794
2026-01-05 01:47:23.17	144.38	2.43	-46.8	-59.0	3.6	8.46e-01	0	29	104	0	60	32044
2026-01-05 01:47:24.18	144.37	2.50	-46.8	-58.8	3.6	8.45e-01	0	29	104	0	60	31622
2026-01-05 01:47:25.19	144.35	2.57	-46.6	-58.8	3.6	8.45e-01	0	29	104	0	60	31434
2026-01-05 01:47:26.20	144.34	2.63	-46.7	-58.8	3.6	8.45e-01	0	29	104	0	60	31406
2026-01-05 01:47:27.21	144.33	2.70	-46.6	-58.8	3.6	8.46e-01	0	29	104	0	60	31530
2026-01-05 01:47:28.22	144.32	2.76	-46.7	-58.9	3.6	8.45e-01	0	29	104	0	60	31705
2026-01-05 01:47:29.23	144.31	2.83	-46.8	-58.9	3.6	8.45e-01	0	29	104	0	60	31922
2026-01-05 01:47:30.24	144.30	2.90	-46.8	-58.8	3.6	8.44e-01	0	29	104	0	60	31530
2026-01-05 01:47:31.25	144.29	2.96	-46.7	-58.4	3.6	8.46e-01	0	29	104	0	60	30045
2026-01-05 01:47:32.26	144.27	3.03	-46.6	-57.8	3.6	8.45e-01	0	29	104	0	60	27906
2026-01-05 01:47:33.27	144.26	3.10	-46.5	-56.6	3.8	8.45e-01	0	29	104	0	60	24373
2026-01-05 01:47:34.28	144.25	3.17	-46.1	-52.7	4.4	8.25e-01	0	29	0	0	60	15621
2026-01-05 01:47:35.29	144.24	3.23	-45.5	-50.4	6.8	4.07e-01	0	29	0	2097152	60	11928
2026-01-05 01:47:36.30	144.23	3.30	-45.7	-50.5	6.8	2.07e-01	0	29	0	8388608	60	12053
2026-01-05 01:47:37.31	144.22	3.37	-43.7	-46.4	9.6	3.21e-02	0	29	0	13631488	60	7528
2026-01-05 01:47:38.32	144.20	3.44	-43.7	-46.5	11.3	3.92e-03	0	29	0	19922944	60	7650
2026-01-05 01:47:39.33	144.19	3.51	-43.6	-46.3	12.0	7.00e-04	0	29	0	25165824	60	7487
2026-01-05 01:47:40.34	144.18	3.57	-42.6	-44.8	13.3	5.26e-05	0	29	0	30408704	58	7039
2026-01-05 01:47:41.35	144.17	3.64	-42.2	-44.3	13.6	3.54e-05	0	29	0	36700160	58	6638
2026-01-05 01:47:42.36	144.15	3.71	-41.9	-43.8	14.0	0.00e+00	0	29	0	41943040	56	7085
2026-01-05 01:47:43.37	144.14	3.78	-41.3	-43.1	14.7	0.00e+00	0	29	0	48234496	56	6465
2026-01-05 01:47:44.38	144.13	3.85	-40.5	-42.1	15.7	0.00e+00	0	29	0	53477376	54	6495
2026-01-05 01:47:45.39	144.12	3.92	-40.6	-42.2	15.7	0.00e+00	0	29	0	59768832	54	6541
2026-01-05 01:47:46.40	144.10	3.99	-45.9	-50.5	7.6	2.08e-01	0	29	0	65011712	60	12040
2026-01-05 01:47:47.41	144.09	4.06	-40.9	-42.4	15.6	9.64e-03	0	29	0	71303168	56	6031
2026-01-05 01:47:48.42	144.08	4.13	-43.5	-45.8	13.1	8.07e-01	0	29	0	74448896	60	7026
2026-01-05 01:47:49.43	144.07	4.20	-40.3	-41.9	15.3	0.00e+00	0	29	0	79691776	50	7963
2026-01-05 01:47:50.44	144.05	4.27	-45.9	-52.2	8.9	8.43e-01	0	29	104	80740352	60	14805
2026-01-05 01:47:51.45	144.04	4.34	-38.3	-39.4	18.5	0.00e+00	0	29	0	83886080	50	5997
2026-01-05 01:47:52.46	144.03	4.41	-37.5	-38.5	19.3	0.00e+00	0	29	0	90177536	48	6082
2026-01-05 01:47:53.47	144.01	4.48	-37.9	-38.9	19.1	0.00e+00	0	29	0	95420416	48	6370
2026-01-05 01:47:54.48	144.00	4.55	-37.6	-38.7	19.6	0.00e+00	0	29	0	100663296	48	6176
2026-01-05 01:47:55.49	143.99	4.62	-37.4	-38.3	19.7	0.00e+00	0	29	0	106954752	48	5938
2026-01-05 01:47:56.50	143.97	4.69	-37.6	-38.6	19.6	0.00e+00	0	29	0	112197632	48	6129
2026-01-05 01:47:57.50	143.96	4.76	-37.7	-38.7	19.9	0.00e+00	0	29	0	118489088	48	6193
2026-01-05 01:47:58.51	143.95	4.83	-37.3	-38.3	19.9	0.00e+00	0	29	0	123731968	48	5939
2026-01-05 01:47:59.52	143.93	4.90	-37.0	-38.0	20.6	0.00e+00	0	29	0	130023424	48	5699
2026-01-05 01:48:00.53	143.92	4.98	-37.1	-38.1	20.2	0.00e+00	0	29	0	135266304	48	5773
2026-01-05 01:48:01.54	143.91	5.05	-37.0	-38.0	20.0	0.00e+00	0	29	0	140509184	48	5712
2026-01-05 01:48:02.55	143.89	5.12	-37.1	-38.0	20.4	0.00e+00	0	29	0	146800640	48	5760
2026-01-05 01:48:03.56	143.88	5.19	-36.9	-37.8	20.4	0.00e+00	0	29	0	152043520	48	5622
2026-01-05 01:48:04.57	143.86	5.27	-36.7	-37.6	20.6	0.00e+00	0	29	0	158334976	48	5501
2026-01-05 01:48:05.58	143.85	5.34	-36.8	-37.7	20.5	0.00e+00	0	29	0	163577856	46	6227
2026-01-05 01:48:06.59	143.84	5.41	-36.9	-37.8	20.5	0.00e+00	0	29	0	168820736	46	6308
2026-01-05 01:48:07.60	143.82	5.49	-36.9	-37.8	20.7	0.00e+00	0	29	0	175112192	46	6307
2026-01-05 01:48:08.61	143.81	5.56	-36.7	-37.6	20.7	0.00e+00	0	29	0	180355072	46	6133
2026-01-05 01:48:09.62	143.79	5.63	-37.0	-37.9	20.5	0.00e+00	0	29	0	186646528	46	6363
2026-01-05 01:48:10.63	143.78	5.71	-36.8	-37.7	20.7	0.00e+00	0	29	0	191889408	46	6193
2026-01-05 01:48:11.64	143.76	5.78	-36.7	-37.6	20.7	0.00e+00	0	29	0	197132288	46	6108
2026-01-05 01:48:12.65	143.75	5.86	-36.4	-37.3	20.8	0.00e+00	0	29	0	203423744	46	5944
2026-01-05 01:48:13.66	143.73	5.93	-36.5	-37.4	20.7	0.00e+00	0	29	0	208666624	46	6024
2026-01-05 01:48:14.67	143.72	6.01	-36.3	-37.2	20.9	0.00e+00	0	29	0	214958080	46	5887
2026-01-05 01:48:15.68	143.70	6.08	-36.6	-37.5	20.8	0.00e+00	0	29	0	220200960	46	6094
2026-01-05 01:48:16.69	143.69	6.16	-36.5	-37.4	21.0	0.00e+00	0	29	0	226492416	46	5984
2026-01-05 01:48:17.70	143.67	6.23	-36.4	-37.3	20.9	0.00e+00	0	29	0	231735296	46	5925
2026-01-05 01:48:18.71	143.66	6.31	-36.1	-37.0	21.3	0.00e+00	0	29	0	238026752	46	5698
2026-01-05 01:48:19.72	143.64	6.38	-36.1	-36.9	21.2	0.00e+00	0	29	0	243269632	46	5684
2026-01-05 01:48:20.73	143.63	6.46	-36.3	-37.2	21.2	0.00e+00	0	29	0	248512512	46	5841
2026-01-05 01:48:21.74	143.61	6.53	-36.2	-37.0	21.5	0.00e+00	0	29	0	254803968	46	5759
2026-01-05 01:48:22.75	143.60	6.61	-36.1	-37.0	21.5	0.00e+00	0	29	0	260046848	46	5726
2026-01-05 01:48:23.76	143.58	6.69	-36.0	-36.9	21.5	0.00e+00	0	29	0	266338304	46	5634
2026-01-05 01:48:24.77	143.56	6.77	-36.0	-36.9	21.4	0.00e+00	0	29	0	271581184	46	5648
2026-01-05 01:48:25.78	143.55	6.84	-35.7	-36.6	21.6	0.00e+00	0	29	0	276824064	46	5466
2026-01-05 01:48:26.79	143.53	6.92	-35.7	-36.5	21.9	0.00e+00	0	29	0	283115520	44	6087
2026-01-05 01:48:27.80	143.52	7.00	-35.9	-36.8	21.7	0.00e+00	0	29	0	288358400	44	6250
2026-01-05 01:48:28.81	143.50	7.08	-35.8	-36.6	21.6	0.00e+00	0	29	0	294649856	44	6171
2026-01-05 01:48:29.82	143.48	7.15	-35.7	-36.6	21.8	0.00e+00	0	29	0	299892736	44	6116
2026-01-05 01:48:30.83	143.47	7.23	-36.1	-37.0	21.9	0.00e+00	0	29	0	305135616	44	6406
2026-01-05 01:48:31.84	143.45	7.31	-35.7	-36.5	22.0	0.00e+00	0	29	0	311427072	44	6043
2026-01-05 01:48:32.85	143.43	7.39	-35.8	-36.6	22.1	0.00e+00	0	29	0	316669952	44	6132
2026-01-05 01:48:33.86	143.42	7.47	-35.6	-36.4	22.1	0.00e+00	0	29	0	322961408	44	6019
2026-01-05 01:48:34.87	143.40	7.55	-35.5	-36.3	22.3	0.00e+00	0	29	0	328204288	44	5943
2026-01-05 01:48:35.88	143.38	7.63	-35.6	-36.4	22.2	0.00e+00	0	29	0	334495744	44	6005
2026-01-05 01:48:36.89	143.37	7.71	-35.5	-36.3	22.4	0.00e+00	0	29	0	339738624	44	5916
2026-01-05 01:48:37.89	143.35	7.79	-35.8	-36.6	22.1	0.00e+00	0	29	0	344981504	44	6113
2026-01-05 01:48:38.90	143.33	7.87	-35.8	-36.6	22.2	0.00e+00	0	29	0	351272960	44	6119
2026-01-05 01:48:39.91	143.31	7.95	-35.5	-36.3	22.3	0.00e+00	0	29	0	356515840	44	5959
2026-01-05 01:48:40.92	143.30	8.03	-35.1	-35.8	22.7	0.00e+00	0	29	0	362807296	44	5622
2026-01-05 01:48:41.93	143.28	8.11	-35.1	-35.8	22.7	0.00e+00	0	29	0	368050176	44	5608
2026-01-05 01:48:42.94	143.26	8.19	-35.4	-36.2	22.6	0.00e+00	0	29	0	373293056	44	5864
2026-01-05 01:48:43.95	143.24	8.27	-35.3	-36.0	22.7	0.00e+00	0	29	0	379584512	44	5758
2026-01-05 01:48:44.96	143.22	8.35	-35.2	-35.9	22.7	0.00e+00	0	29	0	384827392	44	5686
2026-01-05 01:48:45.97	143.21	8.44	-34.9	-35.6	23.0	0.00e+00	0	29	0	391118848	44	5479
2026-01-05 01:48:46.98	143.19	8.52	-35.1	-35.9	22.7	0.00e+00	0	29	0	396361728	42	6319
2026-01-05 01:48:47.99	143.17	8.60	-35.1	-35.9	22.8	0.00e+00	0	29	0	401604608	42	6360
2026-01-05 01:48:49.00	143.15	8.68	-35.2	-36.0	22.9	0.00e+00	0	29	0	407896064	42	6405
2026-01-05 01:48:50.01	143.13	8.77	-35.2	-36.0	23.0	0.00e+00	0	29	0	413138944	42	6398
2026-01-05 01:48:51.02	143.11	8.85	-35.0	-35.8	22.9	0.00e+00	0	29	0	419430400	42	6255
2026-01-05 01:48:52.03	143.09	8.94	-35.1	-35.8	22.9	0.00e+00	0	29	0	424673280	42	6311
2026-01-05 01:48:53.04	143.08	9.02	-34.9	-35.6	23.1	0.00e+00	0	29	0	430964736	42	6171
2026-01-05 01:48:54.05	143.06	9.10	-34.8	-35.6	23.1	0.00e+00	0	29	0	436207616	42	6130
2026-01-05 01:48:55.06	143.04	9.19	-34.9	-35.7	23.0	0.00e+00	0	29	0	442499072	42	6188
2026-01-05 01:48:56.07	143.02	9.27	-35.0	-35.7	23.1	0.00e+00	0	29	0	447741952	42	6240
2026-01-05 01:48:57.08	143.00	9.36	-34.8	-35.5	23.1	0.00e+00	0	29	0	452984832	42	6102
2026-01-05 01:48:58.09	142.98	9.44	-34.8	-35.5	23.2	0.00e+00	0	29	0	459276288	42	6088
2026-01-05 01:48:59.10	142.96	9.53	-34.6	-35.3	23.3	0.00e+00	0	29	0	464519168	42	5943
2026-01-05 01:49:00.11	142.94	9.62	-34.7	-35.4	23.1	0.00e+00	0	29	0	470810624	42	6012
2026-01-05 01:49:01.12	142.92	9.70	-34.5	-35.2	23.1	0.00e+00	0	29	0	476053504	42	5890
2026-01-05 01:49:02.13	142.90	9.79	-34.5	-35.2	23.2	0.00e+00	0	29	0	481296384	42	5892
2026-01-05 01:49:03.14	142.88	9.88	-34.5	-35.2	23.2	0.00e+00	0	29	0	487587840	42	5883
2026-01-05 01:49:04.15	142.86	9.96	-34.6	-35.3	23.2	0.00e+00	0	29	0	492830720	42	5940
2026-01-05 01:49:05.16	142.84	10.05	-34.5	-35.2	22.7	0.00e+00	0	29	0	499122176	42	5868
2026-01-05 01:49:06.17	142.82	10.14	-34.5	-35.2	23.3	0.00e+00	0	29	0	504365056	42	5879
2026-01-05 01:49:07.18	142.80	10.23	-34.8	-35.5	23.3	0.00e+00	0	29	0	509607936	42	6065
2026-01-05 01:49:08.19	142.77	10.32	-34.6	-35.4	23.1	0.00e+00	0	29	0	515899392	42	5985
2026-01-05 01:49:09.20	142.75	10.40	-34.6	-35.3	23.1	0.00e+00	0	29	0	521142272	42	5960
2026-01-05 01:49:10.22	142.73	10.49	-34.7	-35.4	22.2	0.00e+00	0	29	0	527433728	42	6029
2026-01-05 01:49:11.23	142.71	10.58	-34.7	-35.4	23.1	0.00e+00	0	29	0	532676608	42	5977
2026-01-05 01:49:12.24	142.69	10.67	-34.7	-35.4	23.2	0.00e+00	0	29	0	538968064	42	6018
2026-01-05 01:49:13.25	142.67	10.76	-34.6	-35.4	23.1	0.00e+00	0	29	0	544210944	42	5975
2026-01-05 01:49:14.26	142.64	10.85	-34.8	-35.6	21.8	0.00e+00	0	29	0	550502400	42	6109
2026-01-05 01:49:15.27	142.62	10.94	-34.8	-35.6	22.6	0.00e+00	0	29	0	555745280	42	6155
2026-01-05 01:49:16.27	142.60	11.03	-34.8	-35.5	22.6	0.00e+00	0	29	0	560988160	42	6067
2026-01-05 01:49:17.28	142.58	11.13	-34.6	-35.4	22.8	1.10e-06	0	29	0	567279616	42	5976
2026-01-05 01:49:18.29	142.55	11.22	-34.6	-35.3	21.6	0.00e+00	0	29	0	572522496	42	5963
2026-01-05 01:49:19.30	142.53	11.31	-34.6	-35.3	22.8	0.00e+00	0	29	0	578813952	42	5914
2026-01-05 01:49:20.32	142.51	11.40	-34.7	-35.5	22.8	0.00e+00	0	29	0	584056832	42	6055
2026-01-05 01:49:21.33	142.49	11.50	-34.6	-35.3	22.8	0.00e+00	0	29	0	589299712	42	5926
2026-01-05 01:49:22.34	142.46	11.59	-34.8	-35.5	22.8	0.00e+00	0	29	0	595591168	42	6089
2026-01-05 01:49:23.34	142.44	11.68	-34.4	-35.2	23.3	0.00e+00	0	29	0	600834048	42	5839
2026-01-05 01:49:24.36	142.42	11.78	-34.5	-35.2	23.1	0.00e+00	0	29	0	607125504	42	5868
2026-01-05 01:49:25.37	142.39	11.87	-34.5	-35.2	23.2	0.00e+00	0	29	0	612368384	42	5872
2026-01-05 01:49:26.37	142.37	11.96	-34.5	-35.2	23.2	0.00e+00	0	29	0	617611264	42	5859
2026-01-05 01:49:27.39	142.34	12.06	-34.3	-35.0	23.3	0.00e+00	0	29	0	623902720	42	5737
2026-01-05 01:49:28.40	142.32	12.16	-34.7	-35.5	23.3	0.00e+00	0	29	0	629145600	42	6067
2026-01-05 01:49:29.41	142.29	12.25	-34.6	-35.3	23.2	0.00e+00	0	29	0	635437056	42	5918
2026-01-05 01:49:30.42	142.27	12.35	-34.4	-35.2	23.2	0.00e+00	0	29	0	640679936	42	5832
2026-01-05 01:49:31.43	142.24	12.44	-34.3	-35.1	23.6	0.00e+00	0	29	0	646971392	42	5772
2026-01-05 01:49:32.44	142.22	12.54	-34.4	-35.1	23.5	0.00e+00	0	29	0	652214272	42	5804
2026-01-05 01:49:33.45	142.19	12.64	-34.2	-35.0	23.7	0.00e+00	0	29	0	657457152	42	5696
2026-01-05 01:49:34.46	142.17	12.73	-34.3	-35.0	23.8	0.00e+00	0	29	0	663748608	42	5743
2026-01-05 01:49:35.47	142.14	12.83	-34.0	-34.7	24.1	0.00e+00	0	29	0	668991488	42	5550
2026-01-05 01:49:36.48	142.12	12.93	-34.1	-34.9	24.1	0.00e+00	0	29	0	675282944	42	5632
2026-01-05 01:49:37.49	142.09	13.03	-34.2	-34.9	23.5	0.00e+00	0	29	0	680525824	42	5672
2026-01-05 01:49:38.50	142.07	13.13	-34.0	-34.7	23.7	0.00e+00	0	29	0	685768704	42	5504
2026-01-05 01:49:39.51	142.04	13.23	-33.8	-34.4	24.3	0.00e+00	0	29	0	692060160	40	6022
2026-01-05 01:49:40.52	142.01	13.33	-33.7	-34.4	24.5	0.00e+00	0	29	0	697303040	40	5979
2026-01-05 01:49:41.53	141.99	13.43	-33.7	-34.4	24.4	0.00e+00	0	29	0	703594496	40	5986
2026-01-05 01:49:42.54	141.96	13.53	-33.5	-34.2	24.7	0.00e+00	0	29	0	708837376	40	5865
2026-01-05 01:49:43.55	141.93	13.63	-33.6	-34.3	24.8	0.00e+00	0	29	0	715128832	40	5951
2026-01-05 01:49:44.56	141.90	13.73	-33.4	-34.0	24.7	0.00e+00	0	29	0	720371712	40	5759
2026-01-05 01:49:45.57	141.88	13.83	-33.4	-34.1	24.9	0.00e+00	0	29	0	725614592	40	5792
2026-01-05 01:49:46.58	141.85	13.94	-33.6	-34.3	25.0	0.00e+00	0	29	0	731906048	40	5916
2026-01-05 01:49:47.59	141.82	14.04	-33.5	-34.1	25.0	0.00e+00	0	29	0	737148928	40	5813
2026-01-05 01:49:48.60	141.79	14.14	-34.4	-35.1	24.9	0.00e+00	0	29	0	743440384	40	6496
2026-01-05 01:49:49.61	141.76	14.25	-33.4	-34.0	25.0	0.00e+00	0	29	0	748683264	40	5753
2026-01-05 01:49:50.62	141.73	14.35	-33.4	-34.1	25.1	0.00e+00	0	29	0	754974720	40	5788
2026-01-05 01:49:51.63	141.71	14.45	-33.1	-33.8	25.3	0.00e+00	0	29	0	760217600	40	5608
2026-01-05 01:49:52.64	141.68	14.56	-33.1	-33.7	25.4	0.00e+00	0	29	0	765460480	40	5563
2026-01-05 01:49:53.65	141.65	14.66	-32.8	-33.4	25.6	0.00e+00	0	29	0	771751936	38	6027
2026-01-05 01:49:54.66	141.62	14.77	-32.8	-33.5	25.4	0.00e+00	0	29	0	776994816	38	6065
2026-01-05 01:49:55.67	141.59	14.88	-32.4	-33.0	25.9	0.00e+00	0	29	0	783286272	38	5744
2026-01-05 01:49:56.68	141.56	14.98	-32.4	-33.1	25.9	0.00e+00	0	29	0	788529152	38	5762
2026-01-05 01:49:57.69	141.53	15.09	-32.5	-33.1	25.7	0.00e+00	0	29	0	793772032	38	5827
2026-01-05 01:49:58.70	141.50	15.20	-32.0	-32.7	26.1	0.00e+00	0	29	0	800063488	38	5508
2026-01-05 01:49:59.71	141.47	15.31	-32.1	-32.7	26.0	0.00e+00	0	29	0	805306368	38	5548
2026-01-05 01:50:00.72	141.44	15.42	-32.1	-32.7	26.0	0.00e+00	0	29	0	811597824	38	5550
2026-01-05 01:50:01.73	141.40	15.52	-32.2	-32.9	26.1	0.00e+00	0	29	0	816840704	38	5636
2026-01-05 01:50:02.74	141.37	15.63	-31.9	-32.6	26.1	0.00e+00	0	29	0	822083584	38	5442
2026-01-05 01:50:03.75	141.34	15.74	-31.9	-32.5	26.3	0.00e+00	0	29	0	828375040	38	5418
2026-01-05 01:50:04.76	141.31	15.86	-32.0	-32.6	26.2	0.00e+00	0	29	0	833617920	38	5469
2026-01-05 01:50:05.77	141.28	15.97	-31.8	-32.4	26.3	0.00e+00	0	29	0	839909376	38	5368
2026-01-05 01:50:06.78	141.24	16.08	-31.7	-32.3	26.4	0.00e+00	0	29	0	845152256	36	5964
2026-01-05 01:50:07.79	141.21	16.19	-31.7	-32.3	26.4	0.00e+00	0	29	0	851443712	36	5915
2026-01-05 01:50:08.80	141.18	16.30	-31.8	-32.5	26.3	0.00e+00	0	29	0	856686592	36	6067
2026-01-05 01:50:09.81	141.14	16.42	-32.0	-32.6	26.2	0.00e+00	0	29	0	862978048	36	6130
2026-01-05 01:50:10.82	141.11	16.53	-31.7	-32.4	26.4	0.00e+00	0	29	0	868220928	36	5965
2026-01-05 01:50:11.83	141.08	16.64	-31.9	-32.6	26.3	0.00e+00	0	29	0	873463808	36	6108
2026-01-05 01:50:12.84	141.04	16.76	-31.8	-32.4	26.1	0.00e+00	0	29	0	879755264	36	6000
2026-01-05 01:50:13.85	141.01	16.87	-32.0	-32.7	26.1	0.00e+00	0	29	0	884998144	36	6178
2026-01-05 01:50:14.86	140.97	16.99	-31.7	-32.4	26.3	0.00e+00	0	29	0	891289600	36	5981
2026-01-05 01:50:15.87	140.94	17.11	-32.0	-32.6	26.2	0.00e+00	0	29	0	896532480	36	6150
2026-01-05 01:50:16.88	140.90	17.22	-31.4	-32.1	26.6	0.00e+00	0	29	0	901775360	36	5769
2026-01-05 01:50:17.89	140.87	17.34	-31.6	-32.2	26.4	0.00e+00	0	29	0	908066816	36	5880
2026-01-05 01:50:18.90	140.83	17.46	-31.6	-32.2	26.6	0.00e+00	0	29	0	913309696	36	5879
2026-01-05 01:50:19.91	140.79	17.58	-31.6	-32.2	26.7	0.00e+00	0	29	0	919601152	36	5847
2026-01-05 01:50:20.92	140.76	17.69	-31.4	-32.1	26.7	0.00e+00	0	29	0	924844032	36	5768
2026-01-05 01:50:21.93	140.72	17.81	-31.4	-32.0	26.8	0.00e+00	0	29	0	930086912	36	5744
2026-01-05 01:50:22.94	140.68	17.93	-31.5	-32.2	26.8	0.00e+00	0	29	0	936378368	36	5844
2026-01-05 01:50:23.94	140.65	18.05	-31.4	-32.0	27.0	0.00e+00	0	29	0	941621248	36	5710
2026-01-05 01:50:24.96	140.61	18.18	-31.2	-31.8	27.0	0.00e+00	0	29	0	947912704	36	5626
2026-01-05 01:50:25.97	140.57	18.30	-31.4	-32.0	26.9	0.00e+00	0	29	0	953155584	36	5708
2026-01-05 01:50:26.98	140.53	18.42	-31.5	-32.1	26.9	0.00e+00	0	29	0	959447040	36	5790
2026-01-05 01:50:27.99	140.49	18.54	-31.4	-32.0	26.8	0.00e+00	0	29	0	964689920	36	5754
2026-01-05 01:50:28.99	140.45	18.67	-31.4	-32.0	26.8	0.00e+00	0	29	0	969932800	36	5746
2026-01-05 01:50:30.00	140.41	18.79	-31.3	-31.9	26.9	0.00e+00	0	29	0	976224256	36	5680
2026-01-05 01:50:31.02	140.37	18.92	-31.4	-32.0	26.8	0.00e+00	0	29	0	981467136	36	5749
2026-01-05 01:50:32.02	140.33	19.04	-32.0	-32.6	26.5	0.00e+00	0	29	0	987758592	36	6129
2026-01-05 01:50:33.03	140.29	19.17	-31.5	-32.1	26.7	0.00e+00	0	29	0	993001472	36	5820
2026-01-05 01:50:34.04	140.25	19.29	-31.7	-32.4	26.6	0.00e+00	0	29	0	998244352	36	5975
2026-01-05 01:50:35.05	140.21	19.42	-31.5	-32.1	26.7	0.00e+00	0	29	0	1004535808	36	5783
2026-01-05 01:50:36.06	140.17	19.55	-31.7	-32.3	26.7	0.00e+00	0	29	0	1009778688	36	5945
2026-01-05 01:50:37.08	140.12	19.68	-31.5	-32.1	26.7	0.00e+00	0	29	0	1016070144	36	5817
2026-01-05 01:50:38.09	140.08	19.81	-31.5	-32.2	26.6	0.00e+00	0	29	0	1021313024	36	5851
2026-01-05 01:50:39.10	140.04	19.94	-31.6	-32.2	26.7	0.00e+00	0	29	0	1026555904	36	5860
2026-01-05 01:50:40.11	140.00	20.07	-31.5	-32.1	26.9	0.00e+00	0	29	0	1032847360	36	5808
2026-01-05 01:50:41.12	139.95	20.20	-32.1	-32.7	26.4	0.00e+00	0	29	0	1038090240	36	6223
2026-01-05 01:50:42.13	139.91	20.33	-32.0	-32.6	26.4	0.00e+00	0	29	0	1044381696	36	6165
2026-01-05 01:50:43.13	139.86	20.46	-32.1	-32.7	26.5	0.00e+00	0	29	0	1049624576	38	5533
2026-01-05 01:50:44.14	139.82	20.60	-32.2	-32.8	26.2	0.00e+00	0	29	0	1055916032	38	5609
2026-01-05 01:50:45.16	139.77	20.73	-31.8	-32.4	26.5	0.00e+00	0	29	0	1061158912	38	5377
2026-01-05 01:50:46.17	139.73	20.87	-31.8	-32.4	26.6	0.00e+00	0	29	0	1067450368	38	5372
2026-01-05 01:50:47.18	139.68	21.00	-31.3	-31.9	27.0	0.00e+00	0	29	0	1072693248	36	5691
2026-01-05 01:50:48.18	139.63	21.14	-31.2	-31.8	27.2	0.00e+00	0	29	0	1077936128	36	5593
2026-01-05 01:50:49.19	139.59	21.28	-31.0	-31.6	27.2	0.00e+00	0	29	0	1084227584	36	5491
2026-01-05 01:50:50.20	139.54	21.41	-30.8	-31.4	27.5	0.00e+00	0	29	0	1089470464	34	6003
2026-01-05 01:50:51.21	139.49	21.55	-30.9	-31.5	27.5	0.00e+00	0	29	0	1095761920	34	6080
2026-01-05 01:50:52.22	139.44	21.69	-30.7	-31.3	27.4	0.00e+00	0	29	0	1101004800	34	5949
2026-01-05 01:50:53.23	139.39	21.83	-30.7	-31.3	27.6	0.00e+00	0	29	0	1106247680	34	5919
2026-01-05 01:50:54.24	139.35	21.97	-30.8	-31.4	27.5	0.00e+00	0	29	0	1112539136	34	6011
2026-01-05 01:50:55.25	139.30	22.11	-30.5	-31.2	27.5	0.00e+00	0	29	0	1117782016	34	5831
2026-01-05 01:50:56.26	139.25	22.25	-30.6	-31.3	27.5	0.00e+00	0	29	0	1124073472	34	5907
2026-01-05 01:50:57.27	139.19	22.40	-30.6	-31.2	27.5	0.00e+00	0	29	0	1129316352	34	5876
2026-01-05 01:50:58.28	139.14	22.54	-30.5	-31.1	27.6	0.00e+00	0	29	0	1134559232	34	5815
2026-01-05 01:50:59.29	139.09	22.69	-30.8	-31.4	27.4	0.00e+00	0	29	0	1140850688	34	6003
2026-01-05 01:51:00.30	139.04	22.83	-30.9	-31.5	27.5	0.00e+00	0	29	0	1146093568	34	6057
2026-01-05 01:51:01.31	138.99	22.98	-30.4	-31.0	27.6	0.00e+00	0	29	0	1152385024	34	5737
2026-01-05 01:51:02.32	138.93	23.12	-30.5	-31.1	27.7	0.00e+00	0	29	0	1157627904	34	5790
2026-01-05 01:51:03.32	138.88	23.27	-30.2	-30.8	27.7	0.00e+00	0	29	0	1163919360	34	5628
2026-01-05 01:51:04.33	138.82	23.42	-30.3	-31.0	27.7	0.00e+00	0	29	0	1169162240	34	5696
2026-01-05 01:51:05.34	138.77	23.57	-30.5	-31.1	27.7	0.00e+00	0	29	0	1174405120	34	5804
2026-01-05 01:51:06.35	138.71	23.72	-30.3	-30.9	27.8	0.00e+00	0	29	0	1180696576	34	5693
2026-01-05 01:51:07.36	138.66	23.87	-30.3	-30.9	27.7	0.00e+00	0	29	0	1185939456	34	5660
2026-01-05 01:51:08.37	138.60	24.02	-30.4	-31.0	27.8	0.00e+00	0	29	0	1192230912	34	5750
2026-01-05 01:51:09.38	138.54	24.17	-30.3	-30.9	27.8	0.00e+00	0	29	0	1197473792	34	5661
2026-01-05 01:51:10.39	138.49	24.33	-30.4	-31.0	27.7	0.00e+00	0	29	0	1202716672	34	5714
2026-01-05 01:51:11.40	138.43	24.48	-30.2	-30.8	27.7	0.00e+00	0	29	0	1209008128	34	5592
2026-01-05 01:51:12.41	138.37	24.64	-30.1	-30.8	27.8	0.00e+00	0	29	0	1214251008	34	5580
2026-01-05 01:51:13.42	138.31	24.79	-30.1	-30.7	27.9	0.00e+00	0	29	0	1220542464	34	5512
2026-01-05 01:51:14.43	138.25	24.95	-30.0	-30.7	27.9	0.00e+00	0	29	0	1225785344	34	5503
2026-01-05 01:51:15.44	138.19	25.11	-30.2	-30.8	27.9	0.00e+00	0	29	0	1231028224	34	5600
2026-01-05 01:51:16.45	138.12	25.27	-30.0	-30.6	28.0	0.00e+00	0	29	0	1237319680	34	5491
2026-01-05 01:51:17.46	138.06	25.43	-30.1	-30.7	27.7	0.00e+00	0	29	0	1242562560	34	5547
2026-01-05 01:51:18.47	138.00	25.59	-29.8	-30.5	28.0	0.00e+00	0	29	0	1248854016	34	5398
2026-01-05 01:51:19.48	137.94	25.75	-29.9	-30.5	28.0	0.00e+00	0	29	0	1254096896	34	5383
2026-01-05 01:51:20.49	137.87	25.91	-30.0	-30.6	27.9	0.00e+00	0	29	0	1260388352	34	5486
2026-01-05 01:51:21.50	137.81	26.07	-30.0	-30.6	28.0	0.00e+00	0	29	0	1265631232	34	5474
2026-01-05 01:51:22.51	137.74	26.24	-29.9	-30.5	28.0	0.00e+00	0	29	0	1271922688	34	5415
2026-01-05 01:51:23.52	137.67	26.40	-30.0	-30.6	27.9	0.00e+00	0	29	0	1277165568	34	5482
2026-01-05 01:51:24.53	137.61	26.57	-30.0	-30.6	28.0	0.00e+00	0	29	0	1282408448	34	5498
2026-01-05 01:51:25.54	137.54	26.74	-30.5	-31.1	27.8	0.00e+00	0	29	0	1288699904	34	5806
2026-01-05 01:51:26.55	137.47	26.91	-30.5	-31.1	27.8	0.00e+00	0	29	0	1293942784	34	5810
2026-01-05 01:51:27.56	137.40	27.08	-30.5	-31.2	27.8	0.00e+00	0	29	0	1300234240	34	5834
2026-01-05 01:51:28.57	137.33	27.25	-30.4	-31.0	27.8	0.00e+00	0	29	0	1305477120	34	5755
2026-01-05 01:51:29.57	137.26	27.42	-30.2	-30.8	27.9	0.00e+00	0	29	0	1310720000	34	5592
2026-01-05 01:51:30.59	137.19	27.59	-30.3	-30.9	28.0	0.00e+00	0	29	0	1317011456	34	5663
2026-01-05 01:51:31.59	137.12	27.76	-30.3	-30.9	28.0	0.00e+00	0	29	0	1322254336	34	5670
2026-01-05 01:51:32.60	137.04	27.94	-30.0	-30.5	28.1	0.00e+00	0	29	0	1328545792	34	5435
2026-01-05 01:51:33.61	136.97	28.11	-29.9	-30.5	28.2	0.00e+00	0	29	0	1333788672	34	5431
2026-01-05 01:51:34.62	136.89	28.29	-29.6	-30.1	28.3	0.00e+00	0	29	0	1339031552	32	5824
2026-01-05 01:51:35.63	136.82	28.47	-29.4	-30.0	28.3	0.00e+00	0	29	0	1345323008	32	5754
2026-01-05 01:51:36.64	136.74	28.65	-29.8	-30.4	28.2	0.00e+00	0	29	0	1350565888	32	5982
2026-01-05 01:51:37.65	136.66	28.83	-29.7	-30.3	28.2	0.00e+00	0	29	0	1356857344	32	5949
2026-01-05 01:51:38.66	136.58	29.01	-29.6	-30.2	28.3	0.00e+00	0	29	0	1362100224	32	5873
2026-01-05 01:51:39.67	136.50	29.19	-29.8	-30.4	28.0	0.00e+00	0	29	0	1368391680	32	6026
2026-01-05 01:51:40.68	136.42	29.37	-29.8	-30.4	28.1	0.00e+00	0	29	0	1373634560	32	6028
2026-01-05 01:51:41.69	136.34	29.56	-29.8	-30.4	28.2	0.00e+00	0	29	0	1378877440	32	6015
2026-01-05 01:51:42.70	136.26	29.74	-29.5	-30.2	28.4	0.00e+00	0	29	0	1385168896	32	5834
2026-01-05 01:51:43.71	136.17	29.93	-29.7	-30.3	28.4	0.00e+00	0	29	0	1390411776	32	5964
2026-01-05 01:51:44.72	136.09	30.12	-29.6	-30.3	28.1	0.00e+00	0	29	0	1396703232	32	5910
2026-01-05 01:51:45.73	136.00	30.31	-29.6	-30.2	28.3	0.00e+00	0	29	0	1401946112	32	5884
2026-01-05 01:51:46.75	135.92	30.50	-29.5	-30.1	28.5	0.00e+00	0	29	0	1407188992	32	5771
2026-01-05 01:51:47.75	135.83	30.69	-29.5	-30.1	28.6	0.00e+00	0	29	0	1413480448	32	5816
2026-01-05 01:51:48.77	135.74	30.88	-29.5	-30.1	28.4	0.00e+00	0	29	0	1418723328	32	5778
2026-01-05 01:51:49.78	135.65	31.07	-29.4	-30.0	28.5	0.00e+00	0	29	0	1425014784	32	5755
2026-01-05 01:51:50.79	135.56	31.27	-29.3	-29.9	28.6	0.00e+00	0	29	0	1430257664	32	5648
2026-01-05 01:51:51.80	135.47	31.47	-29.3	-30.0	28.5	0.00e+00	0	29	0	1436549120	32	5708
2026-01-05 01:51:52.81	135.37	31.66	-29.1	-29.8	28.6	0.00e+00	0	29	0	1441792000	32	5585
2026-01-05 01:51:53.82	135.28	31.86	-29.5	-30.2	28.5	0.00e+00	0	29	0	1447034880	32	5829
2026-01-05 01:51:54.83	135.18	32.06	-29.6	-30.2	28.4	0.00e+00	0	29	0	1453326336	32	5866
2026-01-05 01:51:55.84	135.09	32.26	-29.8	-30.4	28.3	0.00e+00	0	29	0	1458569216	32	6023
2026-01-05 01:51:56.85	134.99	32.46	-29.8	-30.4	28.4	0.00e+00	0	29	0	1464860672	32	6025
2026-01-05 01:51:57.86	134.89	32.67	-29.7	-30.3	28.4	0.00e+00	0	29	0	1470103552	32	5921
2026-01-05 01:51:58.87	134.79	32.87	-29.6	-30.3	28.3	0.00e+00	0	29	0	1476395008	32	5910
2026-01-05 01:51:59.88	134.69	33.08	-29.7	-30.3	28.2	0.00e+00	0	29	0	1481637888	32	5964
2026-01-05 01:52:00.89	134.58	33.29	-30.2	-30.9	28.0	0.00e+00	0	29	0	1486880768	32	6319
2026-01-05 01:52:01.90	134.48	33.50	-29.8	-30.3	28.3	0.00e+00	0	29	0	1493172224	32	5963
2026-01-05 01:52:02.90	134.37	33.70	-29.5	-30.1	28.5	0.00e+00	0	29	0	1498415104	32	5767
2026-01-05 01:52:03.91	134.27	33.92	-29.4	-29.9	28.6	0.00e+00	0	29	0	1504706560	32	5687
2026-01-05 01:52:04.92	134.16	34.13	-29.2	-29.8	28.6	0.00e+00	0	29	0	1509949440	32	5596
2026-01-05 01:52:05.93	134.05	34.34	-29.3	-29.9	28.6	0.00e+00	0	29	0	1515192320	32	5649
2026-01-05 01:52:06.94	133.93	34.56	-29.2	-29.8	28.6	0.00e+00	0	29	0	1521483776	32	5590
2026-01-05 01:52:07.96	133.82	34.78	-29.1	-29.7	28.7	0.00e+00	0	29	0	1526726656	32	5525
2026-01-05 01:52:08.96	133.70	34.99	-29.2	-29.8	28.6	0.00e+00	0	29	0	1533018112	32	5589
2026-01-05 01:52:09.97	133.59	35.21	-29.3	-30.0	28.5	0.00e+00	0	29	0	1538260992	32	5704
2026-01-05 01:52:10.98	133.47	35.43	-29.4	-30.0	28.6	0.00e+00	0	29	0	1543503872	32	5733
2026-01-05 01:52:11.99	133.35	35.66	-29.4	-30.0	28.6	0.00e+00	0	29	0	1549795328	32	5757
2026-01-05 01:52:13.00	133.23	35.88	-29.6	-30.2	28.4	0.00e+00	0	29	0	1555038208	32	5892
2026-01-05 01:52:14.01	133.10	36.11	-29.6	-30.2	28.6	0.00e+00	0	29	0	1561329664	32	5834
2026-01-05 01:52:15.02	132.98	36.33	-29.4	-30.0	28.4	0.00e+00	0	29	0	1566572544	32	5755
2026-01-05 01:52:16.03	132.85	36.56	-29.5	-30.1	28.6	0.00e+00	0	29	0	1572864000	32	5806
2026-01-05 01:52:17.04	132.72	36.79	-29.5	-30.1	28.6	0.00e+00	0	29	0	1578106880	32	5763
2026-01-05 01:52:18.05	132.59	37.02	-29.3	-29.9	28.6	0.00e+00	0	29	0	1584398336	32	5635
2026-01-05 01:52:19.06	132.46	37.25	-29.5	-30.1	28.5	0.00e+00	0	29	0	1589641216	32	5780
2026-01-05 01:52:20.07	132.33	37.49	-29.3	-29.8	28.6	0.00e+00	0	29	0	1594884096	32	5629
2026-01-05 01:52:21.08	132.19	37.72	-29.3	-29.9	28.6	0.00e+00	0	29	0	1601175552	32	5695
2026-01-05 01:52:22.09	132.05	37.96	-29.2	-29.8	28.5	0.00e+00	0	29	0	1606418432	32	5568
2026-01-05 01:52:23.10	131.91	38.20	-29.3	-29.9	28.6	0.00e+00	0	29	0	1612709888	32	5666
2026-01-05 01:52:24.11	131.77	38.44	-29.4	-30.0	28.4	0.00e+00	0	29	0	1617952768	32	5743
2026-01-05 01:52:25.12	131.62	38.68	-29.6	-30.2	28.3	0.00e+00	0	29	0	1623195648	32	5834
2026-01-05 01:52:26.13	131.47	38.92	-29.7	-30.3	28.3	0.00e+00	0	29	0	1629487104	32	5906
2026-01-05 01:52:27.13	131.33	39.16	-29.7	-30.3	28.3	0.00e+00	0	29	0	1634729984	32	5924
2026-01-05 01:52:28.15	131.17	39.41	-29.8	-30.4	28.3	0.00e+00	0	29	0	1639972864	32	5968
2026-01-05 01:52:29.15	131.02	39.66	-29.7	-30.3	28.4	0.00e+00	0	29	0	1646264320	32	5934
2026-01-05 01:52:30.16	130.86	39.90	-29.6	-30.2	28.4	0.00e+00	0	29	0	1651507200	32	5878
2026-01-05 01:52:31.18	130.70	40.16	-29.6	-30.2	28.2	0.00e+00	0	29	0	1657798656	32	5864
2026-01-05 01:52:32.18	130.54	40.41	-30.1	-30.7	27.9	0.00e+00	0	29	0	1663041536	32	6238
2026-01-05 01:52:33.19	130.38	40.66	-30.0	-30.6	28.0	0.00e+00	0	29	0	1669332992	32	6165
2026-01-05 01:52:34.20	130.21	40.92	-30.3	-30.9	28.0	0.00e+00	0	29	0	1674575872	32	6389
2026-01-05 01:52:35.21	130.04	41.17	-30.2	-30.7	27.9	0.00e+00	0	29	0	1680867328	32	6243
2026-01-05 01:52:36.22	129.87	41.43	-29.8	-30.4	28.1	0.00e+00	0	29	0	1686110208	32	6033
2026-01-05 01:52:37.23	129.70	41.69	-29.7	-30.3	28.4	0.00e+00	0	29	0	1691353088	32	5927
2026-01-05 01:52:38.24	129.52	41.95	-29.7	-30.3	28.3	0.00e+00	0	29	0	1697644544	32	5902
2026-01-05 01:52:39.25	129.34	42.21	-29.9	-30.5	28.3	0.00e+00	0	29	0	1702887424	32	6094
2026-01-05 01:52:40.26	129.15	42.48	-29.9	-30.5	28.2	0.00e+00	0	29	0	1709178880	32	6076
2026-01-05 01:52:41.27	128.97	42.74	-30.6	-31.2	27.8	0.00e+00	0	29	0	1714421760	32	6570
2026-01-05 01:52:42.28	128.78	43.01	-29.8	-30.5	28.1	0.00e+00	0	29	0	1719664640	32	6048
2026-01-05 01:52:43.29	128.58	43.28	-29.8	-30.4	28.1	0.00e+00	0	29	0	1725956096	32	6020
2026-01-05 01:52:44.30	128.39	43.55	-29.6	-30.2	28.3	0.00e+00	0	29	0	1731198976	32	5865
2026-01-05 01:52:45.31	128.19	43.82	-29.8	-30.5	28.2	0.00e+00	0	29	0	1737490432	32	6036
2026-01-05 01:52:46.32	127.98	44.09	-30.1	-30.7	28.1	0.00e+00	0	29	0	1742733312	32	6196
2026-01-05 01:52:47.33	127.77	44.37	-30.6	-31.2	27.8	0.00e+00	0	29	0	1747976192	32	6592
2026-01-05 01:52:48.34	127.56	44.64	-30.1	-30.7	27.8	0.00e+00	0	29	0	1754267648	32	6215
2026-01-05 01:52:49.35	127.35	44.92	-30.0	-30.5	28.0	0.00e+00	0	29	0	1759510528	32	6103
2026-01-05 01:52:50.36	127.13	45.20	-30.2	-30.8	27.8	0.00e+00	0	29	0	1765801984	32	6246
2026-01-05 01:52:51.37	126.91	45.48	-30.0	-30.7	28.1	0.00e+00	0	29	0	1771044864	32	6180
2026-01-05 01:52:52.38	126.68	45.76	-30.3	-30.9	28.0	0.00e+00	0	29	0	1777336320	32	6340
2026-01-05 01:52:53.39	126.45	46.05	-29.7	-30.3	28.3	0.00e+00	0	29	0	1782579200	32	5956
2026-01-05 01:52:54.40	126.22	46.33	-29.9	-30.5	28.1	0.00e+00	0	29	0	1787822080	32	6042
2026-01-05 01:52:55.40	125.98	46.62	-30.0	-30.6	28.2	0.00e+00	0	29	0	1794113536	32	6148
2026-01-05 01:52:56.42	125.73	46.91	-29.9	-30.5	28.3	0.00e+00	0	29	0	1799356416	32	6052
2026-01-05 01:52:57.43	125.48	47.20	-29.9	-30.5	28.2	0.00e+00	0	29	0	1805647872	32	6052
2026-01-05 01:52:58.43	125.23	47.48	-29.8	-30.4	28.2	0.00e+00	0	29	0	1810890752	32	6006
2026-01-05 01:52:59.44	124.98	47.78	-29.9	-30.5	28.1	0.00e+00	0	29	0	1816133632	32	6070
2026-01-05 01:53:00.46	124.71	48.07	-30.0	-30.6	27.9	0.00e+00	0	29	0	1822425088	32	6131
2026-01-05 01:53:01.47	124.44	48.37	-30.1	-30.8	28.0	0.00e+00	0	29	0	1827667968	32	6248
2026-01-05 01:53:02.47	124.17	48.66	-30.3	-30.9	27.9	0.00e+00	0	29	0	1833959424	32	6349
2026-01-05 01:53:03.48	123.89	48.96	-30.3	-30.9	27.7	0.00e+00	0	29	0	1839202304	32	6369
2026-01-05 01:53:04.49	123.61	49.25	-30.6	-31.2	27.5	0.00e+00	0	29	0	1844445184	32	6589
2026-01-05 01:53:05.50	123.32	49.55	-30.7	-31.3	27.6	0.00e+00	0	29	0	1850736640	32	6669
2026-01-05 01:53:06.51	123.02	49.86	-30.7	-31.3	27.5	0.00e+00	0	29	0	1855979520	32	6618
2026-01-05 01:53:07.52	122.72	50.16	-30.5	-31.0	27.7	0.00e+00	0	29	0	1862270976	32	6461
2026-01-05 01:53:08.53	122.42	50.46	-30.9	-31.5	27.2	0.00e+00	0	29	0	1867513856	34	6051
2026-01-05 01:53:09.54	122.10	50.76	-31.1	-31.7	27.2	0.00e+00	0	29	0	1873805312	34	6235
2026-01-05 01:53:10.56	121.78	51.07	-31.1	-31.7	27.1	0.00e+00	0	29	0	1879048192	34	6238
2026-01-05 01:53:11.56	121.45	51.38	-30.9	-31.5	27.3	0.00e+00	0	29	0	1885339648	34	6067
2026-01-05 01:53:12.57	121.12	51.68	-30.5	-31.1	27.7	0.00e+00	0	29	0	1890582528	34	5796
2026-01-05 01:53:13.58	120.78	51.99	-30.3	-31.0	27.8	0.00e+00	0	29	0	1895825408	34	5705
2026-01-05 01:53:14.59	120.43	52.30	-30.6	-31.3	27.5	0.00e+00	0	29	0	1902116864	34	5904
2026-01-05 01:53:15.60	120.08	52.61	-31.0	-31.6	27.2	0.00e+00	0	29	0	1907359744	34	6128
2026-01-05 01:53:16.61	119.71	52.92	-30.9	-31.5	27.1	0.00e+00	0	29	0	1913651200	34	6079
2026-01-05 01:53:17.62	119.34	53.23	-30.4	-31.1	27.8	0.00e+00	0	29	0	1918894080	34	5766
2026-01-05 01:53:18.63	118.96	53.55	-30.9	-31.6	27.4	0.00e+00	0	29	0	1924136960	34	6110
2026-01-05 01:53:19.64	118.58	53.86	-30.6	-31.1	27.8	0.00e+00	0	29	0	1930428416	34	5820
2026-01-05 01:53:20.65	118.18	54.17	-31.0	-31.5	27.7	0.00e+00	0	29	0	1935671296	34	6094
2026-01-05 01:53:21.66	117.77	54.48	-31.1	-31.8	27.4	0.00e+00	0	29	0	1941962752	34	6262
2026-01-05 01:53:22.67	117.36	54.80	-30.8	-31.4	27.5	0.00e+00	0	29	0	1947205632	34	6006
2026-01-05 01:53:23.68	116.94	55.11	-31.3	-32.0	27.1	0.00e+00	0	29	0	1952448512	34	6407
2026-01-05 01:53:24.69	116.50	55.43	-31.3	-31.9	27.0	0.00e+00	0	29	0	1958739968	34	6375
2026-01-05 01:53:25.70	116.06	55.74	-30.8	-31.5	27.2	0.00e+00	0	29	0	1963982848	34	6052
2026-01-05 01:53:26.71	115.61	56.06	-30.9	-31.6	27.2	0.00e+00	0	29	0	1970274304	34	6105
2026-01-05 01:53:27.72	115.15	56.37	-31.2	-31.9	27.1	0.00e+00	0	29	0	1975517184	34	6320
2026-01-05 01:53:28.73	114.67	56.69	-31.3	-31.9	27.0	0.00e+00	0	29	0	1981808640	36	5687
2026-01-05 01:53:29.74	114.19	57.00	-30.6	-31.2	27.7	0.00e+00	0	29	0	1987051520	34	5896
2026-01-05 01:53:30.75	113.69	57.32	-30.3	-30.8	27.9	0.00e+00	0	29	0	1993342976	34	5615
2026-01-05 01:53:31.76	113.18	57.63	-30.2	-30.8	27.9	0.00e+00	0	29	0	1998585856	34	5573
2026-01-05 01:53:32.77	112.66	57.94	-30.5	-31.1	27.7	0.00e+00	0	29	0	2003828736	34	5776
2026-01-05 01:53:33.78	112.13	58.26	-30.4	-31.0	27.7	0.00e+00	0	29	0	2010120192	34	5714
2026-01-05 01:53:34.79	111.59	58.57	-30.7	-31.3	27.5	0.00e+00	0	29	0	2015363072	34	5935
2026-01-05 01:53:35.80	111.03	58.88	-30.1	-30.7	28.0	0.00e+00	0	29	0	2021654528	34	5543
2026-01-05 01:53:36.81	110.46	59.19	-30.5	-31.1	27.8	0.00e+00	0	29	0	2026897408	34	5805
2026-01-05 01:53:37.82	109.87	59.50	-31.2	-31.8	27.5	0.00e+00	0	29	0	2032140288	34	6291
2026-01-05 01:53:38.82	109.28	59.81	-30.8	-31.4	27.4	0.00e+00	0	29	0	2038431744	34	6005
2026-01-05 01:53:39.83	108.67	60.11	-30.8	-31.4	27.3	0.00e+00	0	29	0	2043674624	34	5994
2026-01-05 01:53:40.85	108.03	60.42	-30.2	-30.8	28.0	0.00e+00	0	29	0	2048917504	34	5611
2026-01-05 01:53:41.86	107.39	60.72	-30.1	-30.7	28.2	0.00e+00	0	29	0	2055208960	34	5515
2026-01-05 01:53:42.86	106.74	61.02	-30.2	-30.8	28.2	0.00e+00	0	29	0	2060451840	34	5599
2026-01-05 01:53:43.87	106.06	61.32	-30.1	-30.8	28.2	0.00e+00	0	29	0	2066743296	34	5581
2026-01-05 01:53:44.88	105.37	61.62	-29.8	-30.4	28.4	0.00e+00	0	29	0	2071986176	34	5327
2026-01-05 01:53:45.89	104.66	61.91	-29.5	-30.1	28.3	0.00e+00	0	29	0	2078277632	32	5818
2026-01-05 01:53:46.90	103.94	62.21	-29.6	-30.2	28.2	0.00e+00	0	29	0	2083520512	32	5832
2026-01-05 01:53:47.91	103.20	62.49	-29.6	-30.2	28.2	0.00e+00	0	29	0	2089811968	32	5887
2026-01-05 01:53:48.92	102.43	62.78	-29.6	-30.3	28.3	0.00e+00	0	29	0	2095054848	32	5908
2026-01-05 01:53:49.93	101.66	63.06	-29.1	-29.7	28.7	0.00e+00	0	29	0	2100297728	32	5522
2026-01-05 01:53:50.94	100.86	63.34	-28.9	-29.4	28.8	0.00e+00	0	29	0	2106589184	32	5367
2026-01-05 01:53:51.95	100.04	63.62	-29.1	-29.7	28.7	0.00e+00	0	29	0	2111832064	32	5525
2026-01-05 01:53:52.96	99.20	63.89	-28.9	-29.5	28.9	0.00e+00	0	29	0	2118123520	32	5391
2026-01-05 01:53:53.97	98.35	64.16	-28.8	-29.5	28.8	0.00e+00	0	29	0	2123366400	32	5397
2026-01-05 01:53:54.98	97.47	64.42	-28.8	-29.3	28.8	0.00e+00	0	29	0	2128609280	32	5288
2026-01-05 01:53:55.99	96.58	64.68	-28.8	-29.4	28.9	0.00e+00	0	29	0	2134900736	30	5990
2026-01-05 01:53:57.00	95.66	64.94	-28.8	-29.4	29.0	0.00e+00	0	29	0	2140143616	30	5976
2026-01-05 01:53:58.01	94.72	65.19	-28.9	-29.5	29.0	0.00e+00	0	29	0	2146435072	30	6060
2026-01-05 01:53:59.02	93.76	65.43	-28.6	-29.2	29.0	0.00e+00	0	29	0	2151677952	30	5861
2026-01-05 01:54:00.03	92.78	65.67	-29.1	-29.7	28.5	0.00e+00	0	29	0	2156920832	30	6184
2026-01-05 01:54:01.04	91.78	65.90	-29.0	-29.6	28.7	0.00e+00	0	29	0	2163212288	30	6157
2026-01-05 01:54:02.05	90.76	66.13	-28.4	-29.0	29.2	0.00e+00	0	29	0	2168455168	30	5703
2026-01-05 01:54:03.06	89.72	66.35	-27.8	-28.4	29.5	0.00e+00	0	29	0	2174746624	30	5370
2026-01-05 01:54:04.07	88.65	66.56	-27.8	-28.3	29.5	0.00e+00	0	29	0	2179989504	28	5915
2026-01-05 01:54:05.08	87.56	66.77	-28.0	-28.6	29.3	0.00e+00	0	29	0	2186280960	28	6132
2026-01-05 01:54:06.09	86.46	66.96	-28.1	-28.7	29.3	0.00e+00	0	29	0	2191523840	28	6188
2026-01-05 01:54:07.10	85.33	67.15	-28.0	-28.6	29.3	0.00e+00	0	29	0	2197815296	28	6163
2026-01-05 01:54:08.11	84.18	67.34	-28.2	-28.7	29.2	0.00e+00	0	29	0	2203058176	28	6240
2026-01-05 01:54:09.12	83.01	67.51	-28.6	-29.1	28.9	0.00e+00	0	29	0	2208301056	30	5805
2026-01-05 01:54:10.13	81.83	67.68	-28.7	-29.3	29.1	0.00e+00	0	29	0	2214592512	30	5897
2026-01-05 01:54:11.14	80.62	67.84	-28.3	-28.9	29.2	0.00e+00	0	29	0	2219835392	30	5667
2026-01-05 01:54:12.15	79.39	67.99	-28.5	-29.0	29.2	0.00e+00	0	29	0	2226126848	30	5733
2026-01-05 01:54:13.16	78.15	68.13	-29.0	-29.5	29.2	0.00e+00	0	29	0	2231369728	30	6044
2026-01-05 01:54:14.17	76.89	68.26	-28.7	-29.3	29.2	0.00e+00	0	29	0	2236612608	30	5907
2026-01-05 01:54:15.18	75.62	68.38	-28.6	-29.2	29.0	0.00e+00	0	29	0	2242904064	30	5887
2026-01-05 01:54:16.19	74.33	68.49	-28.5	-29.1	28.9	0.00e+00	0	29	0	2248146944	30	5807
2026-01-05 01:54:17.20	73.02	68.59	-28.4	-28.9	29.2	0.00e+00	0	29	0	2254438400	30	5681
2026-01-05 01:54:18.21	71.71	68.68	-28.1	-28.6	29.4	0.00e+00	0	29	0	2259681280	30	5491
2026-01-05 01:54:19.22	70.38	68.76	-28.3	-28.8	29.3	0.00e+00	0	29	0	2264924160	30	5629
2026-01-05 01:54:20.23	69.04	68.83	-28.3	-28.9	29.3	0.00e+00	0	29	0	2271215616	30	5645
2026-01-05 01:54:21.24	67.70	68.88	-28.4	-29.0	29.3	0.00e+00	0	29	0	2276458496	30	5708
2026-01-05 01:54:22.25	66.34	68.93	-28.2	-28.8	29.3	0.00e+00	0	29	0	2282749952	30	5611
2026-01-05 01:54:23.26	64.98	68.97	-28.5	-29.1	29.1	0.00e+00	0	29	0	2287992832	30	5823
2026-01-05 01:54:24.27	63.62	68.99	-28.7	-29.3	29.0	0.00e+00	0	29	0	2294284288	30	5924
2026-01-05 01:54:25.28	62.25	69.01	-28.5	-29.0	28.9	0.00e+00	0	29	0	2299527168	30	5751
2026-01-05 01:54:26.29	60.89	69.01	-28.5	-29.1	29.1	0.00e+00	0	29	0	2304770048	30	5803
2026-01-05 01:54:27.30	59.52	69.00	-28.2	-28.8	29.2	0.00e+00	0	29	0	2311061504	30	5601
2026-01-05 01:54:28.31	58.15	68.98	-29.1	-29.7	29.0	0.00e+00	0	29	0	2316304384	30	6222
2026-01-05 01:54:29.32	56.79	68.95	-28.5	-29.0	29.2	0.00e+00	0	29	0	2322595840	30	5731
2026-01-05 01:54:30.33	55.44	68.91	-28.5	-29.1	29.1	0.00e+00	0	29	0	2327838720	30	5803
2026-01-05 01:54:31.34	54.09	68.86	-29.0	-29.6	28.8	0.00e+00	0	29	0	2333081600	30	6139
2026-01-05 01:54:32.35	52.74	68.80	-28.6	-29.2	28.3	0.00e+00	0	29	0	2339373056	30	5896
2026-01-05 01:54:33.36	51.41	68.72	-28.4	-29.0	29.1	0.00e+00	0	29	0	2344615936	30	5747
2026-01-05 01:54:34.37	50.09	68.64	-28.8	-29.3	28.9	0.00e+00	0	29	0	2350907392	30	5948
2026-01-05 01:54:35.38	48.78	68.54	-28.5	-29.0	29.2	0.00e+00	0	29	0	2356150272	30	5735
2026-01-05 01:54:36.39	47.48	68.44	-28.1	-28.6	29.3	0.00e+00	0	29	0	2361393152	30	5492
2026-01-05 01:54:37.40	46.20	68.32	-28.3	-28.9	29.2	0.00e+00	0	29	0	2367684608	30	5672
2026-01-05 01:54:38.41	44.93	68.20	-28.7	-29.3	29.3	0.00e+00	0	29	0	2372927488	30	5957
2026-01-05 01:54:39.42	43.68	68.07	-28.4	-29.0	29.1	0.00e+00	0	29	0	2379218944	30	5722
2026-01-05 01:54:40.43	42.44	67.92	-28.4	-29.0	29.2	0.00e+00	0	29	0	2384461824	30	5735
2026-01-05 01:54:41.44	41.23	67.77	-28.5	-29.1	29.2	0.00e+00	0	29	0	2390753280	30	5775
2026-01-05 01:54:42.45	40.03	67.61	-28.5	-29.1	29.0	0.00e+00	0	29	0	2395996160	30	5810
2026-01-05 01:54:43.46	38.85	67.44	-28.5	-29.1	29.1	0.00e+00	0	29	0	2402287616	30	5782
2026-01-05 01:54:44.47	37.69	67.26	-28.2	-28.8	29.3	0.00e+00	0	29	0	2407530496	30	5627
2026-01-05 01:54:45.48	36.56	67.07	-28.6	-29.1	29.1	0.00e+00	0	29	0	2412773376	30	5812
2026-01-05 01:54:46.49	35.44	66.88	-28.7	-29.3	28.9	0.00e+00	0	29	0	2419064832	30	5912
2026-01-05 01:54:47.50	34.34	66.68	-28.5	-29.2	29.2	0.00e+00	0	29	0	2424307712	30	5852
2026-01-05 01:54:48.51	33.26	66.47	-29.6	-30.2	28.4	0.00e+00	0	29	0	2430599168	30	6572
2026-01-05 01:54:49.52	32.21	66.25	-28.8	-29.3	28.8	0.00e+00	0	29	0	2435842048	30	5963
2026-01-05 01:54:50.53	31.18	66.03	-29.3	-29.9	28.4	0.00e+00	0	29	0	2441084928	30	6357
2026-01-05 01:54:51.54	30.16	65.80	-29.0	-29.5	28.7	0.00e+00	0	29	0	2447376384	30	6075
2026-01-05 01:54:52.55	29.17	65.57	-29.0	-29.7	28.7	0.00e+00	0	29	0	2452619264	30	6207
2026-01-05 01:54:53.56	28.20	65.33	-28.9	-29.5	28.8	0.00e+00	0	29	0	2458910720	30	6091
2026-01-05 01:54:54.57	27.26	65.08	-28.7	-29.2	28.8	0.00e+00	0	29	0	2464153600	30	5893
2026-01-05 01:54:55.58	26.33	64.83	-28.6	-29.2	29.0	0.00e+00	0	29	0	2469396480	30	5837
2026-01-05 01:54:56.59	25.42	64.57	-28.7	-29.3	28.9	0.00e+00	0	29	0	2475687936	30	5899
2026-01-05 01:54:57.60	24.53	64.31	-28.9	-29.5	28.7	0.00e+00	0	29	0	2480930816	30	6088
2026-01-05 01:54:58.61	23.67	64.05	-28.9	-29.5	28.7	0.00e+00	0	29	0	2487222272	30	6037
2026-01-05 01:54:59.62	22.82	63.78	-28.8	-29.5	28.9	0.00e+00	0	29	0	2492465152	30	6036
2026-01-05 01:55:00.63	21.99	63.51	-29.0	-29.5	28.7	0.00e+00	0	29	0	2498756608	30	6083
2026-01-05 01:55:01.64	21.19	63.23	-29.3	-29.9	28.5	0.00e+00	0	29	0	2503999488	30	6333
2026-01-05 01:55:02.65	20.40	62.95	-29.2	-29.9	28.6	0.00e+00	0	29	0	2510290944	30	6318
2026-01-05 01:55:03.66	19.63	62.66	-29.1	-29.8	28.5	0.00e+00	0	29	0	2515533824	30	6268
2026-01-05 01:55:04.67	18.87	62.38	-29.1	-29.8	28.7	0.00e+00	0	29	0	2520776704	30	6278
2026-01-05 01:55:05.68	18.14	62.09	-29.5	-30.2	28.4	0.00e+00	0	29	0	2527068160	30	6581
2026-01-05 01:55:06.69	17.42	61.79	-29.7	-30.3	28.3	0.00e+00	0	29	0	2532311040	32	5933
2026-01-05 01:55:07.70	16.72	61.50	-29.9	-30.5	28.1	0.00e+00	0	29	0	2538602496	32	6080
2026-01-05 01:55:08.71	16.04	61.20	-29.1	-29.6	28.7	0.00e+00	0	29	0	2543845376	32	5459
2026-01-05 01:55:09.72	15.37	60.90	-29.9	-30.5	28.0	0.00e+00	0	29	0	2549088256	32	6102
2026-01-05 01:55:10.73	14.72	60.60	-30.0	-30.7	27.9	0.00e+00	0	29	0	2555379712	34	5504
2026-01-05 01:55:11.74	14.09	60.30	-30.0	-30.6	27.9	0.00e+00	0	29	0	2560622592	32	6130
2026-01-05 01:55:12.75	13.46	59.99	-29.7	-30.4	28.0	0.00e+00	0	29	0	2566914048	32	5968
2026-01-05 01:55:13.76	12.86	59.68	-29.4	-29.9	28.4	0.00e+00	0	29	0	2572156928	32	5644
2026-01-05 01:55:14.77	12.27	59.38	-29.6	-30.1	28.3	0.00e+00	0	29	0	2577399808	32	5789
2026-01-05 01:55:15.78	11.69	59.07	-29.8	-30.3	28.3	0.00e+00	0	29	0	2583691264	32	5956
2026-01-05 01:55:16.79	11.12	58.76	-29.3	-29.8	28.5	0.00e+00	0	29	0	2588934144	32	5582
2026-01-05 01:55:17.80	10.57	58.45	-29.5	-30.1	28.4	0.00e+00	0	29	0	2595225600	32	5802
2026-01-05 01:55:18.81	10.03	58.13	-29.7	-30.2	28.2	0.00e+00	0	29	0	2600468480	32	5866
2026-01-05 01:55:19.82	9.51	57.82	-29.8	-30.5	28.2	0.00e+00	0	29	0	2606759936	32	6072
2026-01-05 01:55:20.83	9.00	57.51	-29.8	-30.5	27.9	0.00e+00	0	29	0	2612002816	32	6068
2026-01-05 01:55:21.84	8.49	57.20	-30.2	-30.8	28.0	0.00e+00	0	29	0	2617245696	32	6277
2026-01-05 01:55:22.85	8.00	56.88	-30.2	-30.8	27.8	0.00e+00	0	29	0	2623537152	32	6306
2026-01-05 01:55:23.86	7.52	56.57	-30.0	-30.5	28.0	0.00e+00	0	29	0	2628780032	32	6092
2026-01-05 01:55:24.87	7.06	56.25	-30.3	-31.0	27.9	0.00e+00	0	29	0	2635071488	32	6405
2026-01-05 01:55:25.88	6.60	55.94	-30.2	-30.8	27.8	0.00e+00	0	29	0	2640314368	32	6273
2026-01-05 01:55:26.89	6.15	55.62	-30.6	-31.2	27.6	0.00e+00	0	29	0	2645557248	32	6595
2026-01-05 01:55:27.90	5.71	55.31	-30.2	-30.8	27.7	0.00e+00	0	29	0	2651848704	32	6256
2026-01-05 01:55:28.91	5.28	55.00	-30.1	-30.7	27.8	0.00e+00	0	29	0	2657091584	32	6189
2026-01-05 01:55:29.92	4.87	54.68	-30.0	-30.5	28.0	0.00e+00	0	29	0	2663383040	32	6056
2026-01-05 01:55:30.93	4.46	54.37	-29.8	-30.4	28.1	0.00e+00	0	29	0	2668625920	32	6000
2026-01-05 01:55:31.94	4.06	54.06	-29.7	-30.2	28.2	0.00e+00	0	29	0	2673868800	32	5844
2026-01-05 01:55:32.95	3.66	53.75	-29.9	-30.4	28.0	0.00e+00	0	29	0	2680160256	32	6013
2026-01-05 01:55:33.96	3.28	53.43	-30.0	-30.5	27.9	0.00e+00	0	29	0	2685403136	32	6094
2026-01-05 01:55:34.97	2.91	53.12	-30.0	-30.5	28.0	0.00e+00	0	29	0	2691694592	32	6075
2026-01-05 01:55:35.98	2.54	52.81	-30.2	-30.8	27.8	0.00e+00	0	29	0	2696937472	32	6261
2026-01-05 01:55:36.99	2.18	52.50	-30.7	-31.4	27.7	0.00e+00	0	29	0	2703228928	34	5999
2026-01-05 01:55:37.99	1.83	52.20	-30.7	-31.4	27.4	0.00e+00	0	29	0	2708471808	34	6022
2026-01-05 01:55:39.00	1.49	51.89	-30.3	-31.0	27.7	0.00e+00	0	29	0	2714763264	34	5723
2026-01-05 01:55:40.01	1.15	51.58	-30.5	-31.0	27.4	0.00e+00	0	29	0	2720006144	34	5757
2026-01-05 01:55:41.02	0.82	51.28	-30.3	-30.8	27.6	0.00e+00	0	29	0	2725249024	34	5628
2026-01-05 01:55:42.03	0.50	50.97	-30.5	-31.1	27.5	0.00e+00	0	29	0	2731540480	34	5788
2026-01-05 01:55:43.04	0.18	50.67	-30.4	-31.1	27.6	0.00e+00	0	29	0	2736783360	34	5811
2026-01-05 01:55:44.05	359.87	50.36	-29.8	-30.3	28.0	0.00e+00	0	29	0	2743074816	34	5306
2026-01-05 01:55:45.06	359.56	50.06	-29.7	-30.3	27.9	0.00e+00	0	29	0	2748317696	32	5927
2026-01-05 01:55:46.07	359.27	49.76	-29.6	-30.1	28.3	0.00e+00	0	29	0	2753560576	32	5783
2026-01-05 01:55:47.08	358.97	49.46	-29.4	-30.0	28.3	0.00e+00	0	29	0	2759852032	32	5699
2026-01-05 01:55:48.08	358.69	49.17	-29.4	-30.1	28.3	0.00e+00	0	29	0	2765094912	32	5799
2026-01-05 01:55:49.09	358.41	48.87	-29.4	-29.9	28.5	0.00e+00	0	29	0	2770337792	32	5649
2026-01-05 01:55:50.10	358.13	48.57	-29.5	-30.1	28.2	0.00e+00	0	29	0	2776629248	32	5825
2026-01-05 01:55:51.11	357.86	48.28	-29.8	-30.5	28.3	0.00e+00	0	29	0	2781872128	32	6047
2026-01-05 01:55:52.13	357.59	47.98	-29.5	-30.0	28.2	0.00e+00	0	29	0	2788163584	32	5740
2026-01-05 01:55:53.13	357.34	47.69	-29.3	-29.8	28.1	0.00e+00	0	29	0	2793406464	32	5608
2026-01-05 01:55:54.14	357.08	47.40	-29.4	-30.0	28.5	0.00e+00	0	29	0	2799697920	32	5761
2026-01-05 01:55:55.15	356.83	47.11	-29.4	-29.9	28.5	0.00e+00	0	29	0	2804940800	32	5691
2026-01-05 01:55:56.16	356.58	46.83	-29.9	-30.5	27.9	0.00e+00	0	29	0	2811232256	32	6049
2026-01-05 01:55:57.17	356.34	46.54	-31.2	-31.9	27.1	0.00e+00	0	29	0	2816475136	34	6364
2026-01-05 01:55:58.18	356.11	46.25	-30.0	-30.6	27.9	0.00e+00	0	29	0	2821718016	34	5462
2026-01-05 01:55:59.19	355.87	45.97	-30.9	-31.6	27.2	0.00e+00	0	29	0	2828009472	34	6106
2026-01-05 01:56:00.20	355.64	45.69	-29.5	-30.0	28.2	0.00e+00	0	29	0	2833252352	32	5755
2026-01-05 01:56:01.21	355.42	45.41	-29.4	-30.0	28.4	0.00e+00	0	29	0	2839543808	32	5703
2026-01-05 01:56:02.22	355.20	45.13	-29.3	-29.8	28.4	0.00e+00	0	29	0	2844786688	32	5613
2026-01-05 01:56:03.24	354.98	44.85	-30.5	-31.2	28.0	0.00e+00	0	29	0	2850029568	32	6543
2026-01-05 01:56:04.24	354.77	44.57	-30.2	-30.8	27.9	0.00e+00	0	29	0	2856321024	32	6265
2026-01-05 01:56:05.26	354.56	44.30	-30.7	-31.3	27.6	0.00e+00	0	29	0	2861563904	34	5957
2026-01-05 01:56:06.27	354.35	44.02	-30.3	-30.9	27.4	0.00e+00	0	29	0	2867855360	34	5695
2026-01-05 01:56:07.27	354.15	43.75	-30.5	-31.0	27.8	0.00e+00	0	29	0	2873098240	34	5736
2026-01-05 01:56:08.28	353.96	43.48	-29.7	-30.4	27.8	0.00e+00	0	29	0	2878341120	32	6008
2026-01-05 01:56:09.29	353.76	43.22	-29.7	-30.2	28.4	0.00e+00	0	29	0	2884632576	32	5868
2026-01-05 01:56:10.30	353.57	42.95	-29.3	-30.0	28.5	0.00e+00	0	29	0	2889875456	32	5725
2026-01-05 01:56:11.31	353.38	42.68	-30.5	-31.2	27.8	0.00e+00	0	29	0	2896166912	32	6551
2026-01-05 01:56:12.32	353.20	42.42	-30.2	-30.9	27.7	0.00e+00	0	29	0	2901409792	32	6324
2026-01-05 01:56:13.33	353.01	42.16	-29.2	-29.9	28.4	0.00e+00	0	29	0	2907701248	32	5666
2026-01-05 01:56:14.34	352.83	41.89	-29.2	-29.7	28.5	0.00e+00	0	29	0	2912944128	32	5563
2026-01-05 01:56:15.35	352.66	41.63	-29.0	-29.6	28.7	0.00e+00	0	29	0	2919235584	32	5454
2026-01-05 01:56:16.36	352.48	41.38	-28.9	-29.4	28.7	0.00e+00	0	29	0	2924478464	32	5325
2026-01-05 01:56:17.37	352.31	41.12	-28.9	-29.6	28.6	0.00e+00	0	29	0	2929721344	32	5453
2026-01-05 01:56:18.38	352.15	40.87	-28.6	-29.1	28.9	0.00e+00	0	29	0	2936012800	30	5800
2026-01-05 01:56:19.39	351.98	40.61	-28.6	-29.1	28.9	0.00e+00	0	29	0	2941255680	30	5825
2026-01-05 01:56:20.40	351.82	40.36	-28.7	-29.2	29.0	0.00e+00	0	29	0	2947547136	30	5839
2026-01-05 01:56:21.41	351.66	40.11	-28.6	-29.1	29.0	0.00e+00	0	29	0	2952790016	30	5826
2026-01-05 01:56:22.42	351.50	39.86	-28.4	-28.9	29.0	0.00e+00	0	29	0	2958032896	30	5692
2026-01-05 01:56:23.43	351.35	39.61	-28.4	-28.9	29.1	0.00e+00	0	29	0	2964324352	30	5694
2026-01-05 01:56:24.44	351.19	39.37	-28.6	-29.1	29.0	0.00e+00	0	29	0	2969567232	30	5779
2026-01-05 01:56:25.45	351.04	39.12	-28.7	-29.2	28.9	0.00e+00	0	29	0	2975858688	30	5891
2026-01-05 01:56:26.46	350.89	38.88	-28.8	-29.4	28.8	0.00e+00	0	29	0	2981101568	32	5327
2026-01-05 01:56:27.47	350.75	38.64	-28.9	-29.4	28.8	0.00e+00	0	29	0	2986344448	32	5344
2026-01-05 01:56:28.48	350.60	38.40	-29.0	-29.7	28.8	0.00e+00	0	29	0	2992635904	30	6208
2026-01-05 01:56:29.49	350.46	38.16	-28.6	-29.2	29.0	0.00e+00	0	29	0	2997878784	30	5873
2026-01-05 01:56:30.50	350.32	37.92	-28.5	-29.2	29.0	0.00e+00	0	29	0	3004170240	30	5846
2026-01-05 01:56:31.51	350.19	37.69	-28.7	-29.2	28.8	0.00e+00	0	29	0	3009413120	30	5887
2026-01-05 01:56:32.52	350.05	37.45	-28.7	-29.2	28.9	0.00e+00	0	29	0	3015704576	30	5851
2026-01-05 01:56:33.53	349.92	37.22	-28.9	-29.4	28.6	0.00e+00	0	29	0	3020947456	30	6029
2026-01-05 01:56:34.54	349.79	36.99	-29.4	-30.1	28.4	0.00e+00	0	29	0	3026190336	30	6498
2026-01-05 01:56:35.55	349.66	36.76	-28.7	-29.2	28.8	0.00e+00	0	29	0	3032481792	30	5838
2026-01-05 01:56:36.56	349.53	36.53	-29.0	-29.7	28.6	0.00e+00	0	29	0	3037724672	30	6183
2026-01-05 01:56:37.57	349.40	36.30	-28.6	-29.1	29.0	0.00e+00	0	29	0	3044016128	30	5786
2026-01-05 01:56:38.58	349.28	36.08	-28.7	-29.4	28.8	0.00e+00	0	29	0	3049259008	30	5974
2026-01-05 01:56:39.59	349.16	35.86	-29.0	-29.5	28.7	0.00e+00	0	29	0	3054501888	30	6036
2026-01-05 01:56:40.60	349.04	35.63	-28.7	-29.4	28.8	0.00e+00	0	29	0	3060793344	30	5996
2026-01-05 01:56:41.61	348.92	35.41	-28.8	-29.3	28.8	0.00e+00	0	29	0	3066036224	30	5934
2026-01-05 01:56:42.62	348.80	35.19	-28.8	-29.4	28.7	0.00e+00	0	29	0	3072327680	30	5979
2026-01-05 01:56:43.63	348.68	34.97	-28.9	-29.6	28.6	0.00e+00	0	29	0	3077570560	30	6110
2026-01-05 01:56:44.64	348.57	34.76	-29.1	-29.8	28.6	0.00e+00	0	29	0	3082813440	30	6256
2026-01-05 01:56:45.65	348.46	34.54	-29.0	-29.7	28.7	0.00e+00	0	29	0	3089104896	30	6203
2026-01-05 01:56:46.66	348.35	34.33	-29.3	-29.8	28.3	0.00e+00	0	29	0	3094347776	30	6295
2026-01-05 01:56:47.67	348.24	34.11	-29.2	-29.8	28.6	0.00e+00	0	29	0	3100639232	30	6262
2026-01-05 01:56:48.68	348.13	33.90	-29.2	-29.7	28.6	0.00e+00	0	29	0	3105882112	30	6209
2026-01-05 01:56:49.69	348.02	33.69	-29.2	-29.7	28.6	0.00e+00	0	29	0	3112173568	32	5560
2026-01-05 01:56:50.70	347.92	33.48	-29.1	-29.6	28.6	0.00e+00	0	29	0	3117416448	32	5484
2026-01-05 01:56:51.71	347.81	33.27	-29.1	-29.7	28.7	0.00e+00	0	29	0	3123707904	32	5549
2026-01-05 01:56:52.72	347.71	33.07	-29.0	-29.7	28.7	0.00e+00	0	29	0	3128950784	32	5537
2026-01-05 01:56:53.73	347.61	32.86	-29.1	-29.7	28.7	0.00e+00	0	29	0	3134193664	32	5544
2026-01-05 01:56:54.74	347.51	32.66	-29.0	-29.7	28.7	0.00e+00	0	29	0	3140485120	32	5517
2026-01-05 01:56:55.75	347.41	32.46	-29.1	-29.6	28.6	0.00e+00	0	29	0	3145728000	32	5485
2026-01-05 01:56:56.76	347.31	32.26	-29.1	-29.6	28.5	0.00e+00	0	29	0	3152019456	32	5457
2026-01-05 01:56:57.77	347.22	32.06	-29.2	-29.7	28.7	0.00e+00	0	29	0	3157262336	32	5524
2026-01-05 01:56:58.78	347.12	31.86	-29.2	-29.7	28.5	0.00e+00	0	29	0	3162505216	32	5526
2026-01-05 01:56:59.79	347.03	31.66	-29.2	-29.7	28.5	0.00e+00	0	29	0	3168796672	32	5565
2026-01-05 01:57:00.80	346.94	31.46	-29.2	-29.7	28.5	0.00e+00	0	29	0	3174039552	32	5540
2026-01-05 01:57:01.81	346.85	31.27	-29.2	-29.8	28.5	0.00e+00	0	29	0	3180331008	32	5583
2026-01-05 01:57:02.82	346.76	31.07	-29.4	-30.0	28.3	0.00e+00	0	29	0	3185573888	32	5710
2026-01-05 01:57:03.83	346.67	30.88	-29.2	-29.7	28.6	0.00e+00	0	29	0	3190816768	32	5524
2026-01-05 01:57:04.84	346.58	30.69	-29.3	-29.8	28.5	0.00e+00	0	29	0	3197108224	32	5582
2026-01-05 01:57:05.85	346.49	30.50	-29.1	-29.6	28.6	0.00e+00	0	29	0	3202351104	32	5470
2026-01-05 01:57:06.86	346.41	30.31	-29.3	-29.8	28.4	0.00e+00	0	29	0	3208642560	32	5581
2026-01-05 01:57:07.87	346.32	30.12	-29.2	-29.7	28.4	0.00e+00	0	29	0	3213885440	32	5532
2026-01-05 01:57:08.88	346.24	29.94	-29.4	-29.9	28.5	0.00e+00	0	29	0	3220176896	32	5644
2026-01-05 01:57:09.89	346.16	29.75	-29.3	-29.8	28.5	0.00e+00	0	29	0	3225419776	32	5601
2026-01-05 01:57:10.90	346.07	29.57	-29.6	-30.1	28.5	0.00e+00	0	29	0	3231711232	32	5813
2026-01-05 01:57:11.91	345.99	29.38	-29.5	-30.0	28.4	0.00e+00	0	29	0	3236954112	32	5717
2026-01-05 01:57:12.92	345.91	29.20	-29.5	-30.0	28.4	0.00e+00	0	29	0	3242196992	32	5732
2026-01-05 01:57:13.93	345.83	29.02	-29.5	-30.0	28.4	0.00e+00	0	29	0	3248488448	32	5747
2026-01-05 01:57:14.94	345.76	28.84	-29.5	-30.1	28.3	0.00e+00	0	29	0	3253731328	32	5767
2026-01-05 01:57:15.95	345.68	28.66	-29.5	-30.0	28.4	0.00e+00	0	29	0	3260022784	32	5732
2026-01-05 01:57:16.96	345.60	28.48	-29.5	-30.1	28.2	0.00e+00	0	29	0	3265265664	32	5783
2026-01-05 01:57:17.97	345.53	28.30	-29.5	-30.0	28.4	0.00e+00	0	29	0	3270508544	32	5735
2026-01-05 01:57:18.98	345.45	28.13	-29.6	-30.1	28.2	0.00e+00	0	29	0	3276800000	32	5804
2026-01-05 01:57:19.99	345.38	27.95	-29.9	-30.4	28.2	0.00e+00	0	29	0	3282042880	32	5981
2026-01-05 01:57:21.00	345.31	27.78	-29.5	-30.0	28.2	0.00e+00	0	29	0	3288334336	32	5753
2026-01-05 01:57:22.01	345.24	27.61	-29.8	-30.3	28.4	0.00e+00	0	29	0	3293577216	32	5956
2026-01-05 01:57:23.02	345.16	27.44	-29.5	-30.0	28.4	0.00e+00	0	29	0	3298820096	32	5698
2026-01-05 01:57:24.03	345.09	27.27	-29.3	-29.8	28.5	0.00e+00	0	29	0	3305111552	32	5623
2026-01-05 01:57:25.04	345.02	27.10	-29.2	-29.7	28.6	0.00e+00	0	29	0	3310354432	32	5524
2026-01-05 01:57:26.05	344.96	26.93	-29.1	-29.6	28.6	0.00e+00	0	29	0	3316645888	32	5488
2026-01-05 01:57:27.05	344.89	26.76	-29.3	-29.8	28.3	0.00e+00	0	29	0	3321888768	32	5617
2026-01-05 01:57:28.07	344.82	26.59	-29.9	-30.5	28.2	0.00e+00	0	29	0	3328180224	32	6034
2026-01-05 01:57:29.07	344.75	26.43	-29.7	-30.2	28.3	0.00e+00	0	29	0	3333423104	32	5895
2026-01-05 01:57:30.09	344.69	26.26	-29.7	-30.2	28.3	0.00e+00	0	29	0	3338665984	32	5854
2026-01-05 01:57:31.09	344.62	26.10	-30.0	-30.6	27.7	0.00e+00	0	29	0	3344957440	32	6130
2026-01-05 01:57:32.11	344.56	25.94	-30.2	-30.7	27.7	0.00e+00	0	29	0	3350200320	32	6202
2026-01-05 01:57:33.12	344.50	25.78	-29.8	-30.3	28.1	0.00e+00	0	29	0	3356491776	32	5937
2026-01-05 01:57:34.12	344.43	25.62	-29.6	-30.2	28.1	0.00e+00	0	29	0	3361734656	32	5838
2026-01-05 01:57:35.13	344.37	25.46	-29.6	-30.2	28.1	0.00e+00	0	29	0	3366977536	32	5843
2026-01-05 01:57:36.14	344.31	25.30	-29.7	-30.2	28.1	0.00e+00	0	29	0	3373268992	32	5880
2026-01-05 01:57:37.15	344.25	25.14	-29.6	-30.2	28.1	0.00e+00	0	29	0	3378511872	32	5841
2026-01-05 01:57:38.16	344.19	24.98	-29.8	-30.3	28.1	0.00e+00	0	29	0	3384803328	32	5931
2026-01-05 01:57:39.17	344.13	24.83	-29.7	-30.2	28.2	0.00e+00	0	29	0	3390046208	32	5873
2026-01-05 01:57:40.18	344.07	24.67	-29.8	-30.3	28.0	0.00e+00	0	29	0	3395289088	32	5960
2026-01-05 01:57:41.19	344.01	24.52	-29.8	-30.3	28.0	0.00e+00	0	29	0	3401580544	32	5939
2026-01-05 01:57:42.20	343.95	24.36	-29.8	-30.4	28.0	0.00e+00	0	29	0	3406823424	32	5989
2026-01-05 01:57:43.21	343.90	24.21	-29.8	-30.3	27.9	0.00e+00	0	29	0	3413114880	32	5959
2026-01-05 01:57:44.22	343.84	24.06	-29.8	-30.3	28.0	0.00e+00	0	29	0	3418357760	32	5936
2026-01-05 01:57:45.23	343.78	23.91	-29.8	-30.3	28.1	0.00e+00	0	29	0	3424649216	32	5940
2026-01-05 01:57:46.24	343.73	23.76	-29.9	-30.5	27.9	0.00e+00	0	29	0	3429892096	32	6049
2026-01-05 01:57:47.25	343.67	23.61	-29.8	-30.3	27.9	0.00e+00	0	29	0	3436183552	32	5958
2026-01-05 01:57:48.26	343.62	23.46	-30.0	-30.5	27.9	0.00e+00	0	29	0	3441426432	32	6071
2026-01-05 01:57:49.27	343.56	23.31	-29.9	-30.4	28.0	0.00e+00	0	29	0	3446669312	32	6020
2026-01-05 01:57:50.28	343.51	23.16	-29.9	-30.4	28.0	0.00e+00	0	29	0	3452960768	32	6008
2026-01-05 01:57:51.29	343.46	23.02	-29.8	-30.5	28.0	0.00e+00	0	29	0	3458203648	32	6069
2026-01-05 01:57:52.30	343.41	22.87	-29.9	-30.6	27.9	0.00e+00	0	29	0	3464495104	32	6108
2026-01-05 01:57:53.31	343.35	22.73	-29.9	-30.6	27.7	0.00e+00	0	29	0	3469737984	32	6155
2026-01-05 01:57:54.31	343.30	22.58	-30.2	-30.8	27.8	0.00e+00	0	29	0	3474980864	32	6313
2026-01-05 01:57:55.32	343.25	22.44	-30.1	-30.8	27.8	0.00e+00	0	29	0	3481272320	32	6256
2026-01-05 01:57:56.33	343.20	22.30	-30.3	-30.8	27.6	0.00e+00	0	29	0	3486515200	32	6299
2026-01-05 01:57:57.34	343.15	22.16	-30.2	-30.7	27.7	0.00e+00	0	29	0	3491758080	32	6217
2026-01-05 01:57:58.35	343.10	22.02	-30.3	-30.9	27.6	0.00e+00	0	29	0	3498049536	32	6327
2026-01-05 01:57:59.36	343.06	21.88	-30.5	-31.0	27.6	0.00e+00	0	29	0	3503292416	32	6458
2026-01-05 01:58:00.37	343.01	21.74	-30.3	-30.8	27.6	0.00e+00	0	29	0	3509583872	32	6312
2026-01-05 01:58:01.38	342.96	21.60	-30.6	-31.3	27.6	0.00e+00	0	29	0	3514826752	34	5900
2026-01-05 01:58:02.39	342.91	21.46	-30.6	-31.3	27.4	0.00e+00	0	29	0	3521118208	34	5954
2026-01-05 01:58:03.40	342.87	21.32	-30.8	-31.5	27.3	0.00e+00	0	29	0	3526361088	34	6051
2026-01-05 01:58:04.41	342.82	21.19	-31.0	-31.7	27.3	0.00e+00	0	29	0	3532652544	34	6181
2026-01-05 01:58:05.42	342.77	21.05	-31.6	-32.2	26.7	0.00e+00	0	29	0	3537895424	34	6551
2026-01-05 01:58:06.43	342.73	20.92	-30.9	-31.6	27.1	0.00e+00	0	29	0	3543138304	34	6122
2026-01-05 01:58:07.44	342.68	20.78	-31.1	-31.6	27.1	0.00e+00	0	29	0	3549429760	34	6164
2026-01-05 01:58:08.46	342.64	20.65	-30.9	-31.6	27.0	0.00e+00	0	29	0	3554672640	34	6133
2026-01-05 01:58:09.46	342.59	20.52	-30.7	-31.4	27.3	0.00e+00	0	29	0	3560964096	34	6005
2026-01-05 01:58:10.47	342.55	20.39	-30.8	-31.4	27.2	0.00e+00	0	29	0	3566206976	34	5967
2026-01-05 01:58:11.48	342.51	20.25	-31.1	-31.7	26.9	0.00e+00	0	29	0	3571449856	34	6196
2026-01-05 01:58:12.49	342.46	20.12	-30.8	-31.3	27.2	0.00e+00	0	29	0	3577741312	34	5941
2026-01-05 01:58:13.50	342.42	19.99	-30.4	-31.0	27.4	0.00e+00	0	29	0	3582984192	34	5714
2026-01-05 01:58:14.51	342.38	19.86	-30.6	-31.1	27.3	0.00e+00	0	29	0	3589275648	34	5811
2026-01-05 01:58:15.52	342.34	19.74	-30.6	-31.1	27.2	0.00e+00	0	29	0	3594518528	34	5810
2026-01-05 01:58:16.53	342.29	19.61	-30.8	-31.3	27.3	0.00e+00	0	29	0	3599761408	34	5927
2026-01-05 01:58:17.55	342.25	19.48	-30.6	-31.1	27.4	0.00e+00	0	29	0	3606052864	34	5827
