passes_logs/2026/01/05/R4.6S_Anadyr/R4.6S_Anadyr__20260105_161207_SUOMI_NPP_rec.log

#Pass ID: 20260105_161207_SUOMI NPP
#Satellite: SUOMI NPP
#Configuration: NPP
#almurnet v.1.7.20251203
#Start time: 2026-01-05 16:12:08

#Version: 2.2.20231116
#Station: R4.6S_Anadyr
#Location: 177.4865 lon 64.73178 lat
#TLE: 1 37849U 11061A   26004.95404768  .00000136  00000+0  85334-4 0  9991
#TLE: 2 37849  98.7801 307.0898 0002574  80.6707 279.4760 14.19522289735280

#Time	Az	El	Level	Level2	SNR	BER	BlckErr	Temp	State	Recorded	gain1	gain2
2026-01-05 16:12:08.39	24.76	0.07	-48.8	-66.6	3.5	3.02e+01	0	29	0	0	60	82724
2026-01-05 16:12:09.40	24.73	0.13	-48.5	-63.7	3.6	1.51e+00	0	30	104	0	60	55507
2026-01-05 16:12:10.41	24.70	0.19	-48.6	-63.8	3.6	1.51e+00	0	31	104	0	60	55668
2026-01-05 16:12:11.42	24.66	0.25	-48.6	-63.8	3.6	1.51e+00	0	31	104	0	60	55873
2026-01-05 16:12:12.43	24.63	0.31	-48.6	-63.9	3.6	1.51e+00	0	31	104	0	60	56322
2026-01-05 16:12:13.44	24.60	0.37	-48.6	-63.8	3.6	1.51e+00	0	31	104	0	60	56193
2026-01-05 16:12:14.45	24.56	0.43	-48.6	-63.8	3.6	1.51e+00	0	31	104	0	60	56160
2026-01-05 16:12:15.46	24.53	0.49	-48.6	-63.8	3.6	1.51e+00	0	31	104	0	60	55741
2026-01-05 16:12:16.47	24.50	0.55	-48.6	-63.7	3.6	1.51e+00	0	31	104	0	60	55411
2026-01-05 16:12:17.48	24.46	0.60	-48.5	-63.7	3.6	1.51e+00	0	31	104	0	60	55277
2026-01-05 16:12:18.49	24.43	0.66	-48.4	-63.6	3.6	1.51e+00	0	31	104	0	60	54495
2026-01-05 16:12:19.50	24.39	0.72	-48.2	-63.5	3.6	1.51e+00	0	31	104	0	60	53793
2026-01-05 16:12:20.51	24.36	0.78	-48.1	-63.3	3.6	1.51e+00	0	31	104	0	60	52800
2026-01-05 16:12:21.52	24.32	0.84	-48.0	-63.2	3.6	1.51e+00	0	31	104	0	60	51994
2026-01-05 16:12:22.53	24.29	0.90	-47.8	-62.9	3.6	1.51e+00	0	31	104	0	60	50737
2026-01-05 16:12:23.54	24.25	0.96	-47.4	-62.5	3.5	1.51e+00	0	31	104	0	60	48325
2026-01-05 16:12:24.55	24.22	1.02	-47.2	-62.3	3.6	1.51e+00	0	31	104	0	60	47346
2026-01-05 16:12:25.56	24.18	1.08	-47.2	-62.4	3.6	1.51e+00	0	31	104	0	60	47467
2026-01-05 16:12:26.57	24.15	1.14	-47.2	-62.4	3.6	1.51e+00	0	31	104	0	60	47606
2026-01-05 16:12:27.58	24.11	1.20	-47.2	-62.4	3.6	1.51e+00	0	31	104	0	60	47524
2026-01-05 16:12:28.59	24.08	1.26	-47.2	-62.4	3.6	1.51e+00	0	31	104	0	60	47379
2026-01-05 16:12:29.60	24.04	1.32	-47.2	-62.4	3.6	1.51e+00	0	31	104	0	60	47566
2026-01-05 16:12:30.61	24.01	1.39	-47.2	-62.4	3.6	1.51e+00	0	31	104	0	60	47419
2026-01-05 16:12:31.62	23.97	1.45	-47.2	-62.3	3.6	1.51e+00	0	31	104	0	60	47277
2026-01-05 16:12:32.63	23.93	1.51	-47.2	-62.3	3.6	1.51e+00	0	31	104	0	60	47201
2026-01-05 16:12:33.64	23.90	1.57	-47.2	-62.3	3.6	1.51e+00	0	31	104	0	60	47153
2026-01-05 16:12:34.65	23.86	1.63	-47.2	-62.4	3.6	1.51e+00	0	31	104	0	60	47742
2026-01-05 16:12:35.66	23.82	1.69	-47.2	-62.4	3.6	1.51e+00	0	31	104	0	60	47734
2026-01-05 16:12:36.67	23.79	1.75	-47.2	-62.3	3.6	1.51e+00	0	31	104	0	60	47150
2026-01-05 16:12:37.68	23.75	1.81	-47.2	-62.3	3.6	1.51e+00	0	31	104	0	60	46998
2026-01-05 16:12:38.69	23.71	1.88	-47.2	-62.1	3.6	1.51e+00	0	31	104	0	60	46222
2026-01-05 16:12:39.70	23.67	1.94	-47.2	-62.1	3.6	1.51e+00	0	31	104	0	60	46017
2026-01-05 16:12:40.71	23.64	2.00	-47.2	-62.1	3.6	1.51e+00	0	31	104	0	60	45804
2026-01-05 16:12:41.72	23.60	2.06	-47.2	-62.0	3.6	1.51e+00	0	31	104	0	60	45601
2026-01-05 16:12:42.73	23.56	2.12	-47.2	-62.2	3.6	1.51e+00	0	31	104	0	60	46372
2026-01-05 16:12:43.74	23.52	2.19	-47.2	-62.3	3.6	1.51e+00	0	31	104	0	60	46895
2026-01-05 16:12:44.75	23.48	2.25	-47.2	-62.4	3.6	1.51e+00	0	31	104	0	60	47467
2026-01-05 16:12:45.76	23.44	2.31	-47.2	-62.3	3.6	1.51e+00	0	31	104	0	60	47353
2026-01-05 16:12:46.77	23.40	2.37	-47.2	-62.4	3.6	1.51e+00	0	31	104	0	60	47536
2026-01-05 16:12:47.78	23.37	2.44	-47.2	-62.3	3.6	1.51e+00	0	31	104	0	60	47229
2026-01-05 16:12:48.79	23.33	2.50	-47.2	-62.2	3.6	1.51e+00	0	31	104	0	60	46372
2026-01-05 16:12:49.80	23.29	2.56	-47.2	-62.2	3.6	1.51e+00	0	31	104	0	60	46388
2026-01-05 16:12:50.81	23.25	2.62	-47.2	-62.1	3.6	1.51e+00	0	31	104	0	60	45984
2026-01-05 16:12:51.82	23.21	2.69	-47.2	-61.9	3.6	1.51e+00	0	31	104	0	60	44994
2026-01-05 16:12:52.83	23.17	2.75	-47.2	-61.8	3.6	1.51e+00	0	31	104	0	60	44333
2026-01-05 16:12:53.84	23.13	2.81	-47.2	-61.4	3.6	1.51e+00	0	31	104	0	60	42693
2026-01-05 16:12:54.85	23.09	2.88	-47.2	-61.2	3.6	1.51e+00	0	31	104	0	60	41715
2026-01-05 16:12:55.86	23.05	2.94	-47.2	-61.6	3.6	1.51e+00	0	31	104	0	60	43416
2026-01-05 16:12:56.87	23.01	3.01	-47.2	-62.0	3.6	1.51e+00	0	31	104	0	60	45765
2026-01-05 16:12:57.88	22.96	3.07	-47.2	-62.3	3.6	1.51e+00	0	31	104	0	60	47326
2026-01-05 16:12:58.89	22.92	3.13	-47.2	-61.8	3.6	1.51e+00	0	31	104	0	60	44524
2026-01-05 16:12:59.90	22.88	3.20	-47.1	-60.0	3.6	1.51e+00	0	31	104	0	60	36350
2026-01-05 16:13:00.91	22.84	3.26	-46.9	-56.8	4.5	1.21e+00	0	31	0	0	60	25066
2026-01-05 16:13:01.92	22.80	3.33	-46.6	-54.2	6.1	5.85e-01	0	32	0	2097152	60	18474
2026-01-05 16:13:02.93	22.76	3.39	-46.5	-53.4	7.0	1.74e-01	0	31	0	3145728	60	16949
2026-01-05 16:13:03.94	22.71	3.46	-46.3	-52.6	8.0	9.84e-02	0	31	0	5242880	60	15356
2026-01-05 16:13:04.95	22.67	3.52	-45.9	-51.3	9.5	3.16e-02	0	31	0	6291456	60	13292
2026-01-05 16:13:05.96	22.63	3.59	-45.9	-51.4	9.4	2.54e-02	0	31	0	8388608	60	13463
2026-01-05 16:13:06.97	22.59	3.65	-47.1	-59.9	3.8	1.26e+00	0	32	104	9437184	60	35680
2026-01-05 16:13:07.98	22.54	3.72	-47.3	-61.2	3.6	1.50e+00	0	32	104	9437184	60	41419
2026-01-05 16:13:08.99	22.50	3.78	-47.1	-60.5	3.6	8.39e-01	0	32	104	9437184	60	38151
2026-01-05 16:13:10.00	22.46	3.85	-40.0	-41.4	19.8	6.76e-03	0	32	0	10485760	54	6006
2026-01-05 16:13:11.01	22.41	3.92	-47.1	-61.6	3.5	3.63e-01	0	32	104	11534336	60	43278
2026-01-05 16:13:12.02	22.37	3.98	-40.2	-41.7	18.4	8.80e-01	0	32	104	11534336	54	6177
2026-01-05 16:13:13.03	22.33	4.05	-40.1	-41.6	19.8	0.00e+00	0	31	0	11534336	54	6109
2026-01-05 16:13:14.04	22.28	4.11	-40.1	-41.5	19.6	0.00e+00	0	31	0	13631488	54	6089
2026-01-05 16:13:15.05	22.24	4.18	-39.9	-41.3	19.8	0.00e+00	0	31	0	15728640	54	5953
2026-01-05 16:13:16.06	22.19	4.25	-40.0	-41.4	19.8	0.00e+00	0	31	0	17825792	52	6755
2026-01-05 16:13:17.07	22.15	4.31	-40.1	-41.5	19.8	0.00e+00	0	31	0	19922944	52	6811
2026-01-05 16:13:18.08	22.10	4.38	-39.9	-41.2	20.0	0.00e+00	0	32	0	20971520	52	6564
2026-01-05 16:13:19.09	22.06	4.45	-40.2	-41.6	19.7	0.00e+00	0	32	0	23068672	52	6862
2026-01-05 16:13:20.10	22.01	4.51	-40.4	-41.8	19.5	0.00e+00	0	32	0	25165824	52	7080
2026-01-05 16:13:21.11	21.96	4.58	-40.0	-41.4	19.9	0.00e+00	0	31	0	27262976	52	6728
2026-01-05 16:13:22.12	21.92	4.65	-39.8	-41.1	20.2	0.00e+00	0	31	0	29360128	52	6507
2026-01-05 16:13:23.12	21.87	4.72	-40.0	-41.3	20.1	0.00e+00	0	32	0	30408704	52	6656
2026-01-05 16:13:24.13	21.83	4.78	-40.0	-41.3	20.0	0.00e+00	0	31	0	32505856	52	6684
2026-01-05 16:13:25.15	21.78	4.85	-39.8	-41.1	20.2	0.00e+00	0	31	0	34603008	52	6519
2026-01-05 16:13:26.15	21.73	4.92	-39.7	-41.0	20.3	0.00e+00	0	32	0	36700160	52	6464
2026-01-05 16:13:27.16	21.69	4.99	-40.0	-41.3	20.0	0.00e+00	0	32	0	38797312	52	6682
2026-01-05 16:13:28.17	21.64	5.06	-39.8	-41.1	20.2	0.00e+00	0	32	0	39845888	52	6483
2026-01-05 16:13:29.18	21.59	5.12	-39.8	-41.2	20.2	0.00e+00	0	32	0	41943040	52	6541
2026-01-05 16:13:30.19	21.54	5.19	-40.0	-41.4	19.9	0.00e+00	0	31	0	44040192	52	6731
2026-01-05 16:13:31.20	21.49	5.26	-39.8	-41.1	20.3	0.00e+00	0	31	0	46137344	52	6518
2026-01-05 16:13:32.21	21.45	5.33	-39.8	-41.2	20.2	0.00e+00	0	32	0	48234496	52	6541
2026-01-05 16:13:33.22	21.40	5.40	-40.0	-41.3	20.1	0.00e+00	0	31	0	49283072	52	6652
2026-01-05 16:13:34.22	21.35	5.47	-40.1	-41.4	19.9	0.00e+00	0	32	0	51380224	52	6765
2026-01-05 16:13:35.23	21.30	5.54	-40.1	-41.5	20.0	0.00e+00	0	31	0	53477376	52	6776
2026-01-05 16:13:36.24	21.25	5.61	-40.2	-41.6	19.9	0.00e+00	0	32	0	55574528	52	6886
2026-01-05 16:13:37.25	21.20	5.68	-40.0	-41.3	20.1	0.00e+00	0	32	0	57671680	52	6674
2026-01-05 16:13:38.26	21.15	5.75	-39.9	-41.3	20.3	0.00e+00	0	32	0	59768832	52	6627
2026-01-05 16:13:39.27	21.10	5.82	-39.8	-41.2	20.3	0.00e+00	0	31	0	60817408	52	6552
2026-01-05 16:13:40.28	21.05	5.89	-40.1	-41.4	20.1	0.00e+00	0	32	0	62914560	52	6731
2026-01-05 16:13:41.29	21.00	5.96	-39.8	-41.1	20.3	0.00e+00	0	32	0	65011712	52	6538
2026-01-05 16:13:42.30	20.95	6.03	-39.9	-41.2	20.4	0.00e+00	0	32	0	67108864	52	6569
2026-01-05 16:13:43.31	20.90	6.10	-39.7	-41.0	20.3	0.00e+00	0	32	0	69206016	52	6426
2026-01-05 16:13:44.32	20.84	6.17	-39.9	-41.2	20.4	0.00e+00	0	32	0	70254592	52	6547
2026-01-05 16:13:45.33	20.79	6.24	-39.9	-41.3	20.2	0.00e+00	0	32	0	72351744	52	6627
2026-01-05 16:13:46.33	20.74	6.31	-39.9	-41.2	20.5	0.00e+00	0	32	0	74448896	52	6567
2026-01-05 16:13:47.34	20.69	6.38	-39.9	-41.2	20.3	0.00e+00	0	32	0	76546048	52	6599
2026-01-05 16:13:48.35	20.63	6.46	-39.8	-41.1	20.4	0.00e+00	0	32	0	77594624	52	6502
2026-01-05 16:13:49.36	20.58	6.53	-39.6	-40.9	20.6	0.00e+00	0	32	0	79691776	52	6344
2026-01-05 16:13:50.37	20.53	6.60	-39.5	-40.7	20.7	0.00e+00	0	32	0	81788928	52	6217
2026-01-05 16:13:51.38	20.48	6.67	-39.7	-41.0	20.5	0.00e+00	0	32	0	83886080	52	6421
2026-01-05 16:13:52.38	20.42	6.74	-39.6	-40.9	20.7	0.00e+00	0	32	0	85983232	52	6351
2026-01-05 16:13:53.39	20.37	6.82	-39.6	-40.8	20.6	0.00e+00	0	32	0	88080384	52	6282
2026-01-05 16:13:54.40	20.31	6.89	-39.5	-40.8	20.7	0.00e+00	0	32	0	89128960	52	6262
2026-01-05 16:13:55.41	20.26	6.96	-39.5	-40.7	20.8	0.00e+00	0	32	0	91226112	52	6213
2026-01-05 16:13:56.42	20.20	7.03	-39.5	-40.7	20.9	0.00e+00	0	32	0	93323264	52	6233
2026-01-05 16:13:57.43	20.15	7.11	-39.7	-40.9	20.6	0.00e+00	0	32	0	95420416	52	6381
2026-01-05 16:13:58.44	20.09	7.18	-39.8	-41.0	20.5	0.00e+00	0	32	0	97517568	52	6456
2026-01-05 16:13:59.45	20.04	7.26	-39.5	-40.8	20.8	0.00e+00	0	32	0	98566144	52	6268
2026-01-05 16:14:00.46	19.98	7.33	-39.4	-40.6	20.9	0.00e+00	0	32	0	100663296	52	6122
2026-01-05 16:14:01.47	19.92	7.40	-39.5	-40.7	20.8	0.00e+00	0	32	0	102760448	52	6188
2026-01-05 16:14:02.48	19.87	7.48	-39.3	-40.5	20.9	0.00e+00	0	32	0	104857600	52	6099
2026-01-05 16:14:03.49	19.81	7.55	-39.3	-40.4	21.1	0.00e+00	0	32	0	106954752	52	6025
2026-01-05 16:14:04.50	19.75	7.63	-39.4	-40.6	21.0	0.00e+00	0	32	0	108003328	52	6116
2026-01-05 16:14:05.51	19.69	7.70	-39.3	-40.5	21.0	0.00e+00	0	32	0	110100480	52	6051
2026-01-05 16:14:06.52	19.64	7.78	-39.3	-40.4	21.1	0.00e+00	0	32	0	112197632	52	6032
2026-01-05 16:14:07.53	19.58	7.85	-39.2	-40.4	21.2	0.00e+00	0	32	0	114294784	52	5991
2026-01-05 16:14:08.53	19.52	7.93	-39.1	-40.3	21.1	0.00e+00	0	32	0	116391936	52	5934
2026-01-05 16:14:09.54	19.46	8.00	-39.1	-40.3	21.3	0.00e+00	0	32	0	117440512	52	5899
2026-01-05 16:14:10.55	19.40	8.08	-39.2	-40.4	21.2	0.00e+00	0	32	0	119537664	52	5985
2026-01-05 16:14:11.56	19.34	8.15	-39.2	-40.3	21.2	0.00e+00	0	32	0	121634816	52	5945
2026-01-05 16:14:12.56	19.28	8.23	-39.1	-40.2	21.4	0.00e+00	0	32	0	123731968	52	5859
2026-01-05 16:14:13.57	19.22	8.30	-39.1	-40.3	21.3	0.00e+00	0	32	0	125829120	52	5911
2026-01-05 16:14:14.58	19.16	8.38	-39.2	-40.4	21.2	0.00e+00	0	32	0	126877696	52	5977
2026-01-05 16:14:15.60	19.10	8.46	-39.2	-40.4	21.2	0.00e+00	0	32	0	128974848	52	5979
2026-01-05 16:14:16.61	19.04	8.53	-39.2	-40.4	21.2	0.00e+00	0	32	0	131072000	52	6000
2026-01-05 16:14:17.61	18.98	8.61	-39.2	-40.4	21.2	0.00e+00	0	32	0	133169152	52	6004
2026-01-05 16:14:18.62	18.92	8.69	-39.4	-40.6	21.0	0.00e+00	0	32	0	135266304	52	6131
2026-01-05 16:14:19.63	18.85	8.77	-39.5	-40.7	21.0	0.00e+00	0	32	0	136314880	52	6211
2026-01-05 16:14:20.64	18.79	8.84	-39.5	-40.7	21.0	0.00e+00	0	32	0	138412032	52	6219
2026-01-05 16:14:21.65	18.73	8.92	-39.7	-40.9	20.6	0.00e+00	0	32	0	140509184	52	6364
2026-01-05 16:14:22.66	18.66	9.00	-39.9	-41.2	20.6	0.00e+00	0	32	0	142606336	52	6541
2026-01-05 16:14:23.67	18.60	9.08	-39.8	-41.0	20.5	0.00e+00	0	32	0	144703488	52	6419
2026-01-05 16:14:24.68	18.54	9.16	-39.9	-41.2	20.8	0.00e+00	0	32	0	145752064	52	6576
2026-01-05 16:14:25.68	18.47	9.23	-39.5	-40.7	21.0	0.00e+00	0	32	0	147849216	52	6224
2026-01-05 16:14:26.69	18.41	9.31	-39.7	-41.0	20.7	0.00e+00	0	32	0	149946368	52	6419
2026-01-05 16:14:27.70	18.34	9.39	-39.6	-40.8	21.0	0.00e+00	0	32	0	152043520	52	6255
2026-01-05 16:14:28.71	18.28	9.47	-39.9	-41.2	20.6	0.00e+00	0	32	0	154140672	52	6568
2026-01-05 16:14:29.72	18.21	9.55	-39.4	-40.6	21.1	0.00e+00	0	32	0	156237824	52	6110
2026-01-05 16:14:30.73	18.14	9.63	-39.7	-40.9	21.1	0.00e+00	0	32	0	157286400	52	6347
2026-01-05 16:14:31.74	18.08	9.71	-39.2	-40.3	21.1	0.00e+00	0	32	0	159383552	52	5935
2026-01-05 16:14:32.75	18.01	9.79	-38.8	-39.9	21.1	0.00e+00	0	32	0	161480704	52	5644
2026-01-05 16:14:33.76	17.94	9.87	-38.8	-39.9	21.7	0.00e+00	0	32	0	163577856	50	6346
2026-01-05 16:14:34.77	17.87	9.95	-38.9	-40.0	21.6	0.00e+00	0	32	0	165675008	50	6415
2026-01-05 16:14:35.77	17.80	10.03	-38.7	-39.8	21.8	0.00e+00	0	32	0	166723584	50	6270
2026-01-05 16:14:36.78	17.74	10.11	-38.7	-39.7	21.9	0.00e+00	0	32	0	168820736	50	6233
2026-01-05 16:14:37.79	17.67	10.20	-38.9	-40.0	21.6	0.00e+00	0	32	0	170917888	50	6413
2026-01-05 16:14:38.80	17.60	10.28	-38.7	-39.8	21.8	0.00e+00	0	32	0	173015040	50	6293
2026-01-05 16:14:39.81	17.53	10.36	-39.0	-40.1	21.6	0.00e+00	0	32	0	175112192	50	6517
2026-01-05 16:14:40.82	17.46	10.44	-38.7	-39.8	21.8	0.00e+00	0	32	0	176160768	50	6269
2026-01-05 16:14:41.82	17.39	10.52	-38.9	-40.0	21.7	0.00e+00	0	32	0	178257920	50	6435
2026-01-05 16:14:42.84	17.31	10.61	-38.5	-39.6	22.0	0.00e+00	0	32	0	180355072	50	6135
2026-01-05 16:14:43.84	17.24	10.69	-38.7	-39.7	21.9	0.00e+00	0	32	0	182452224	50	6243
2026-01-05 16:14:44.85	17.17	10.77	-38.4	-39.4	22.2	0.00e+00	0	32	0	184549376	50	5989
2026-01-05 16:14:45.86	17.10	10.85	-38.3	-39.3	22.2	0.00e+00	0	32	0	185597952	50	5945
2026-01-05 16:14:46.87	17.03	10.94	-38.3	-39.4	22.1	0.00e+00	0	32	0	187695104	50	5983
2026-01-05 16:14:47.88	16.95	11.02	-38.7	-39.7	21.9	0.00e+00	0	32	0	189792256	50	6245
2026-01-05 16:14:48.88	16.88	11.10	-38.4	-39.4	22.2	0.00e+00	0	32	0	191889408	50	5997
2026-01-05 16:14:49.89	16.80	11.19	-38.3	-39.3	22.2	0.00e+00	0	32	0	193986560	50	5951
2026-01-05 16:14:50.90	16.73	11.27	-38.4	-39.4	22.1	0.00e+00	0	32	0	195035136	50	6014
2026-01-05 16:14:51.91	16.65	11.36	-38.5	-39.5	22.2	0.00e+00	0	32	0	197132288	50	6079
2026-01-05 16:14:52.92	16.58	11.44	-38.2	-39.2	22.3	0.00e+00	0	32	0	199229440	50	5842
2026-01-05 16:14:53.93	16.50	11.53	-38.3	-39.3	22.2	0.00e+00	0	32	0	201326592	50	5961
2026-01-05 16:14:54.94	16.43	11.61	-38.3	-39.4	22.1	0.00e+00	0	32	0	203423744	50	5983
2026-01-05 16:14:55.95	16.35	11.70	-38.6	-39.7	22.0	0.00e+00	0	32	0	204472320	50	6188
2026-01-05 16:14:56.96	16.27	11.78	-38.5	-39.5	22.0	0.00e+00	0	32	0	206569472	50	6083
2026-01-05 16:14:57.97	16.19	11.87	-38.4	-39.4	22.2	0.00e+00	0	32	0	208666624	50	6008
2026-01-05 16:14:58.98	16.11	11.96	-38.6	-39.7	21.9	0.00e+00	0	32	0	210763776	50	6211
2026-01-05 16:14:59.99	16.03	12.04	-38.7	-39.8	21.8	0.00e+00	0	32	0	212860928	50	6263
2026-01-05 16:15:01.00	15.96	12.13	-38.7	-39.7	21.9	0.00e+00	0	32	0	213909504	50	6238
2026-01-05 16:15:02.00	15.88	12.22	-38.6	-39.6	22.0	0.00e+00	0	32	0	216006656	50	6166
2026-01-05 16:15:03.01	15.80	12.30	-38.6	-39.7	21.9	0.00e+00	0	32	0	218103808	50	6181
2026-01-05 16:15:04.02	15.71	12.39	-38.4	-39.5	22.2	0.00e+00	0	32	0	220200960	50	6059
2026-01-05 16:15:05.03	15.63	12.48	-38.4	-39.5	22.2	0.00e+00	0	32	0	222298112	50	6062
2026-01-05 16:15:06.04	15.55	12.57	-38.3	-39.4	22.2	0.00e+00	0	32	0	223346688	50	5982
2026-01-05 16:15:07.05	15.47	12.65	-38.3	-39.3	22.3	0.00e+00	0	32	0	225443840	50	5964
2026-01-05 16:15:08.06	15.39	12.74	-38.4	-39.5	22.1	0.00e+00	0	32	0	227540992	50	6035
2026-01-05 16:15:09.07	15.30	12.83	-38.3	-39.3	22.3	0.00e+00	0	32	0	229638144	50	5931
2026-01-05 16:15:10.08	15.22	12.92	-38.1	-39.0	22.5	0.00e+00	0	32	0	231735296	50	5759
2026-01-05 16:15:11.09	15.13	13.01	-38.3	-39.3	22.3	0.00e+00	0	32	0	232783872	50	5924
2026-01-05 16:15:12.10	15.05	13.10	-38.2	-39.2	22.4	0.00e+00	0	32	0	234881024	50	5880
2026-01-05 16:15:13.11	14.96	13.19	-38.3	-39.4	22.3	0.00e+00	0	32	0	236978176	50	5974
2026-01-05 16:15:14.12	14.88	13.28	-38.2	-39.3	22.4	0.00e+00	0	32	0	239075328	50	5907
2026-01-05 16:15:15.13	14.79	13.37	-38.2	-39.3	22.3	0.00e+00	0	32	0	241172480	50	5902
2026-01-05 16:15:16.13	14.70	13.46	-38.3	-39.4	22.3	0.00e+00	0	32	0	242221056	50	5984
2026-01-05 16:15:17.14	14.61	13.55	-38.3	-39.4	22.3	0.00e+00	0	32	0	244318208	50	5972
2026-01-05 16:15:18.15	14.53	13.64	-38.4	-39.5	22.2	0.00e+00	0	32	0	246415360	50	6039
2026-01-05 16:15:19.16	14.44	13.73	-38.5	-39.6	22.0	0.00e+00	0	32	0	248512512	50	6106
2026-01-05 16:15:20.17	14.35	13.83	-38.4	-39.5	22.1	0.00e+00	0	32	0	250609664	50	6040
2026-01-05 16:15:21.17	14.26	13.92	-38.5	-39.6	22.1	0.00e+00	0	32	0	252706816	50	6111
2026-01-05 16:15:22.18	14.17	14.01	-38.6	-39.7	22.2	0.00e+00	0	32	0	253755392	50	6176
2026-01-05 16:15:23.19	14.07	14.10	-38.6	-39.6	22.2	0.00e+00	0	32	0	255852544	50	6164
2026-01-05 16:15:24.20	13.98	14.20	-38.4	-39.5	22.2	0.00e+00	0	32	0	257949696	50	6059
2026-01-05 16:15:25.20	13.89	14.29	-38.3	-39.4	22.4	0.00e+00	0	32	0	260046848	50	5991
2026-01-05 16:15:26.21	13.80	14.38	-38.4	-39.4	22.2	0.00e+00	0	32	0	262144000	50	6033
2026-01-05 16:15:27.22	13.70	14.48	-38.3	-39.4	22.4	0.00e+00	0	32	0	263192576	50	5994
2026-01-05 16:15:28.23	13.61	14.57	-38.1	-39.1	22.4	0.00e+00	0	32	0	265289728	50	5828
2026-01-05 16:15:29.24	13.51	14.66	-38.4	-39.4	22.5	0.00e+00	0	32	0	267386880	50	5998
2026-01-05 16:15:30.25	13.42	14.76	-37.9	-38.9	22.7	0.00e+00	0	32	0	269484032	50	5643
2026-01-05 16:15:31.25	13.32	14.85	-38.1	-39.1	22.6	0.00e+00	0	32	0	270532608	48	6470
2026-01-05 16:15:32.26	13.23	14.95	-38.1	-39.1	22.5	0.00e+00	0	32	0	272629760	48	6517
2026-01-05 16:15:33.27	13.13	15.04	-37.7	-38.7	22.8	0.00e+00	0	32	0	274726912	48	6195
2026-01-05 16:15:34.28	13.03	15.14	-37.8	-38.8	22.8	0.00e+00	0	32	0	276824064	48	6266
2026-01-05 16:15:35.29	12.93	15.23	-37.8	-38.7	22.8	0.00e+00	0	32	0	278921216	48	6232
2026-01-05 16:15:36.29	12.83	15.33	-37.9	-38.9	22.8	0.00e+00	0	32	0	281018368	48	6332
2026-01-05 16:15:37.30	12.73	15.43	-37.7	-38.7	22.9	0.00e+00	0	32	0	282066944	48	6188
2026-01-05 16:15:38.31	12.63	15.52	-37.6	-38.5	23.1	0.00e+00	0	32	0	284164096	48	6091
2026-01-05 16:15:39.32	12.53	15.62	-37.9	-38.9	22.7	0.00e+00	0	32	0	286261248	48	6326
2026-01-05 16:15:40.33	12.43	15.72	-37.7	-38.7	22.9	0.00e+00	0	32	0	288358400	48	6216
2026-01-05 16:15:41.34	12.32	15.82	-38.0	-39.0	22.6	0.00e+00	0	32	0	290455552	48	6416
2026-01-05 16:15:42.35	12.22	15.91	-38.2	-39.2	22.5	0.00e+00	0	32	0	291504128	48	6542
2026-01-05 16:15:43.36	12.12	16.01	-38.2	-39.2	22.6	0.00e+00	0	32	0	293601280	48	6582
2026-01-05 16:15:44.37	12.01	16.11	-38.0	-39.0	22.6	0.00e+00	0	32	0	295698432	48	6461
2026-01-05 16:15:45.37	11.91	16.21	-37.8	-38.8	22.8	0.00e+00	0	32	0	297795584	48	6265
2026-01-05 16:15:46.38	11.80	16.31	-37.5	-38.4	23.0	0.00e+00	0	32	0	299892736	48	5989
2026-01-05 16:15:47.39	11.69	16.41	-38.1	-39.1	22.7	0.00e+00	0	32	0	300941312	48	6518
2026-01-05 16:15:48.40	11.58	16.51	-38.0	-38.9	22.7	0.00e+00	0	32	0	303038464	48	6383
2026-01-05 16:15:49.41	11.48	16.61	-38.4	-39.4	22.3	0.00e+00	0	32	0	305135616	48	6764
2026-01-05 16:15:50.42	11.37	16.71	-38.7	-39.8	22.0	0.00e+00	0	32	0	307232768	50	6291
2026-01-05 16:15:51.43	11.26	16.81	-38.0	-39.0	22.7	0.00e+00	0	32	0	309329920	50	5728
2026-01-05 16:15:52.44	11.14	16.91	-38.2	-39.2	22.5	0.00e+00	0	32	0	310378496	50	5847
2026-01-05 16:15:53.44	11.03	17.01	-38.1	-39.1	22.6	0.00e+00	0	32	0	312475648	50	5776
2026-01-05 16:15:54.45	10.92	17.11	-37.9	-38.8	22.6	0.00e+00	0	32	0	314572800	50	5622
2026-01-05 16:15:55.46	10.81	17.21	-38.2	-39.2	22.2	0.00e+00	0	32	0	316669952	50	5894
2026-01-05 16:15:56.47	10.69	17.32	-38.2	-39.2	22.5	0.00e+00	0	32	0	318767104	50	5859
2026-01-05 16:15:57.48	10.58	17.42	-38.0	-39.0	22.6	0.00e+00	0	32	0	319815680	50	5742
2026-01-05 16:15:58.49	10.46	17.52	-38.0	-39.0	22.7	0.00e+00	0	32	0	321912832	50	5698
2026-01-05 16:15:59.49	10.35	17.63	-37.9	-38.8	22.8	0.00e+00	0	32	0	324009984	50	5628
2026-01-05 16:16:00.50	10.23	17.73	-38.0	-38.9	22.8	0.00e+00	0	32	0	326107136	50	5679
2026-01-05 16:16:01.51	10.11	17.83	-37.8	-38.8	22.8	0.00e+00	0	32	0	328204288	50	5593
2026-01-05 16:16:02.52	9.99	17.94	-37.7	-38.7	23.0	0.00e+00	0	32	0	329252864	48	6174
2026-01-05 16:16:03.53	9.87	18.04	-37.8	-38.8	22.8	0.00e+00	0	32	0	331350016	48	6269
2026-01-05 16:16:04.54	9.75	18.15	-37.8	-38.8	22.8	0.00e+00	0	32	0	333447168	48	6247
2026-01-05 16:16:05.55	9.63	18.25	-38.0	-39.0	22.6	0.00e+00	0	32	0	335544320	48	6449
2026-01-05 16:16:06.56	9.51	18.36	-37.8	-38.8	22.9	0.00e+00	0	32	0	337641472	48	6284
2026-01-05 16:16:07.57	9.38	18.46	-37.9	-38.9	22.8	0.00e+00	0	32	0	338690048	48	6359
2026-01-05 16:16:08.58	9.26	18.57	-38.2	-39.2	22.6	0.00e+00	0	32	0	340787200	48	6561
2026-01-05 16:16:09.59	9.13	18.67	-38.0	-38.9	22.7	0.00e+00	0	32	0	342884352	48	6367
2026-01-05 16:16:10.60	9.01	18.78	-38.2	-39.2	22.4	0.00e+00	0	32	0	344981504	48	6562
2026-01-05 16:16:11.61	8.88	18.89	-38.4	-39.4	22.3	0.00e+00	0	32	0	347078656	48	6766
2026-01-05 16:16:12.61	8.75	18.99	-38.3	-39.3	22.4	0.00e+00	0	32	0	349175808	48	6673
2026-01-05 16:16:13.62	8.63	19.10	-37.9	-38.9	22.8	0.00e+00	0	32	0	350224384	48	6345
2026-01-05 16:16:14.63	8.50	19.21	-37.8	-38.7	23.0	0.00e+00	0	32	0	352321536	48	6230
2026-01-05 16:16:15.64	8.36	19.32	-37.8	-38.7	22.9	0.00e+00	0	32	0	354418688	48	6238
2026-01-05 16:16:16.64	8.23	19.43	-37.6	-38.6	23.1	0.00e+00	0	32	0	356515840	48	6128
2026-01-05 16:16:17.65	8.10	19.53	-37.6	-38.6	23.1	0.00e+00	0	32	0	357564416	48	6118
2026-01-05 16:16:18.66	7.97	19.64	-37.8	-38.8	22.8	0.00e+00	0	32	0	359661568	48	6246
2026-01-05 16:16:19.67	7.83	19.75	-37.6	-38.6	23.0	0.00e+00	0	32	0	361758720	48	6131
2026-01-05 16:16:20.68	7.70	19.86	-37.7	-38.7	22.9	0.00e+00	0	32	0	363855872	48	6196
2026-01-05 16:16:21.68	7.56	19.97	-37.8	-38.8	22.9	0.00e+00	0	32	0	365953024	48	6246
2026-01-05 16:16:22.69	7.42	20.08	-38.1	-39.1	22.5	0.00e+00	0	32	0	367001600	48	6535
2026-01-05 16:16:23.70	7.29	20.19	-38.2	-39.2	22.6	0.00e+00	0	32	0	369098752	48	6576
2026-01-05 16:16:24.71	7.15	20.30	-38.3	-39.3	22.5	0.00e+00	0	32	0	371195904	48	6656
2026-01-05 16:16:25.71	7.01	20.41	-38.4	-39.4	22.3	0.00e+00	0	32	0	373293056	48	6734
2026-01-05 16:16:26.72	6.86	20.53	-38.5	-39.6	22.2	0.00e+00	0	32	0	375390208	48	6861
2026-01-05 16:16:27.73	6.72	20.64	-38.7	-39.7	22.3	0.00e+00	0	32	0	377487360	48	6970
2026-01-05 16:16:28.74	6.58	20.75	-38.3	-39.3	22.4	0.00e+00	0	32	0	378535936	48	6662
2026-01-05 16:16:29.74	6.43	20.86	-38.2	-39.2	22.6	0.00e+00	0	32	0	380633088	48	6563
2026-01-05 16:16:30.75	6.29	20.98	-38.0	-39.0	22.8	0.00e+00	0	32	0	382730240	48	6403
2026-01-05 16:16:31.76	6.14	21.09	-37.6	-38.5	23.1	0.00e+00	0	32	0	384827392	48	6089
2026-01-05 16:16:32.77	5.99	21.20	-37.8	-38.7	23.0	0.00e+00	0	32	0	386924544	48	6195
2026-01-05 16:16:33.78	5.84	21.32	-37.8	-38.7	23.0	0.00e+00	0	32	0	387973120	48	6216
2026-01-05 16:16:34.79	5.69	21.43	-37.8	-38.7	23.0	0.00e+00	0	32	0	390070272	48	6223
2026-01-05 16:16:35.79	5.54	21.54	-37.9	-38.8	23.0	0.00e+00	0	32	0	392167424	48	6299
2026-01-05 16:16:36.80	5.39	21.66	-38.0	-39.0	22.7	0.00e+00	0	32	0	394264576	48	6439
2026-01-05 16:16:37.81	5.24	21.77	-38.1	-39.1	22.6	0.00e+00	0	32	0	396361728	48	6529
2026-01-05 16:16:38.82	5.08	21.89	-38.5	-39.6	22.3	0.00e+00	0	32	0	397410304	48	6856
2026-01-05 16:16:39.83	4.92	22.00	-38.6	-39.7	22.2	0.00e+00	0	32	0	399507456	50	6209
2026-01-05 16:16:40.84	4.77	22.12	-39.0	-40.1	21.8	0.00e+00	0	32	0	401604608	50	6521
2026-01-05 16:16:41.84	4.61	22.23	-39.2	-40.3	21.5	0.00e+00	0	32	0	403701760	50	6676
2026-01-05 16:16:42.85	4.45	22.35	-39.3	-40.5	21.2	0.00e+00	0	32	0	405798912	50	6803
2026-01-05 16:16:43.86	4.29	22.47	-39.0	-40.1	21.6	0.00e+00	0	32	0	406847488	50	6527
2026-01-05 16:16:44.87	4.13	22.59	-39.2	-40.4	21.6	0.00e+00	0	32	0	408944640	50	6718
2026-01-05 16:16:45.88	3.96	22.70	-38.9	-40.0	22.1	0.00e+00	0	32	0	411041792	50	6412
2026-01-05 16:16:46.89	3.80	22.82	-38.7	-39.7	22.3	0.00e+00	0	32	0	413138944	50	6238
2026-01-05 16:16:47.90	3.63	22.94	-38.5	-39.5	22.2	0.00e+00	0	32	0	415236096	50	6101
2026-01-05 16:16:48.91	3.46	23.06	-38.5	-39.6	22.4	0.00e+00	0	32	0	416284672	50	6123
2026-01-05 16:16:49.92	3.30	23.17	-38.7	-39.8	22.1	0.00e+00	0	32	0	418381824	50	6286
2026-01-05 16:16:50.93	3.13	23.29	-39.0	-40.1	21.9	0.00e+00	0	32	0	420478976	50	6534
2026-01-05 16:16:51.93	2.96	23.41	-39.0	-40.1	21.9	0.00e+00	0	32	0	422576128	50	6501
2026-01-05 16:16:52.94	2.78	23.53	-39.0	-40.2	22.1	0.00e+00	0	32	0	424673280	50	6547
2026-01-05 16:16:53.95	2.61	23.65	-38.8	-39.9	22.1	0.00e+00	0	32	0	425721856	50	6379
2026-01-05 16:16:54.96	2.43	23.77	-38.6	-39.7	22.3	0.00e+00	0	32	0	427819008	50	6192
2026-01-05 16:16:55.97	2.26	23.89	-38.4	-39.5	22.5	0.00e+00	0	32	0	429916160	50	6045
2026-01-05 16:16:56.98	2.08	24.01	-38.4	-39.3	22.5	0.00e+00	0	32	0	432013312	50	5963
2026-01-05 16:16:57.99	1.90	24.13	-38.0	-39.0	22.8	0.00e+00	0	32	0	434110464	50	5724
2026-01-05 16:16:59.00	1.72	24.25	-37.8	-38.7	23.0	0.00e+00	0	32	0	435159040	48	6202
2026-01-05 16:17:00.00	1.54	24.37	-38.0	-39.0	22.8	0.00e+00	0	32	0	437256192	48	6400
2026-01-05 16:17:01.01	1.35	24.49	-37.3	-38.2	23.3	0.00e+00	0	32	0	439353344	48	5843
2026-01-05 16:17:02.02	1.17	24.61	-37.6	-38.5	23.2	0.00e+00	0	32	0	441450496	48	6071
2026-01-05 16:17:03.03	0.98	24.74	-37.8	-38.7	23.0	0.00e+00	0	32	0	443547648	48	6208
2026-01-05 16:17:04.04	0.79	24.86	-37.7	-38.6	23.1	0.00e+00	0	32	0	444596224	48	6124
2026-01-05 16:17:05.06	0.60	24.98	-37.6	-38.5	23.2	0.00e+00	0	32	0	446693376	48	6100
2026-01-05 16:17:06.07	0.41	25.10	-37.7	-38.7	23.2	0.00e+00	0	32	0	448790528	48	6180
2026-01-05 16:17:07.07	0.22	25.22	-38.0	-39.0	22.6	0.00e+00	0	32	0	450887680	48	6401
2026-01-05 16:17:08.08	0.02	25.35	-38.0	-39.0	22.8	0.00e+00	0	32	0	452984832	48	6398
2026-01-05 16:17:09.09	359.83	25.47	-37.8	-38.7	23.1	0.00e+00	0	32	0	454033408	48	6196
2026-01-05 16:17:10.10	359.63	25.59	-38.2	-39.1	22.6	0.00e+00	0	32	0	456130560	48	6532
2026-01-05 16:17:11.11	359.43	25.72	-38.6	-39.7	22.3	0.00e+00	0	32	0	458227712	48	6944
2026-01-05 16:17:12.12	359.23	25.84	-39.2	-40.4	21.7	0.00e+00	0	32	0	460324864	50	6711
2026-01-05 16:17:13.13	359.03	25.96	-38.8	-39.9	22.0	0.00e+00	0	32	0	462422016	50	6362
2026-01-05 16:17:14.14	358.83	26.09	-38.8	-39.9	22.0	0.00e+00	0	32	0	463470592	50	6351
2026-01-05 16:17:15.15	358.62	26.21	-39.5	-40.7	21.4	0.00e+00	0	32	0	465567744	50	6928
2026-01-05 16:17:16.15	358.41	26.34	-39.7	-40.9	20.8	0.00e+00	0	32	0	467664896	50	7123
2026-01-05 16:17:17.16	358.21	26.46	-39.7	-40.9	20.9	0.00e+00	0	32	0	469762048	52	6344
2026-01-05 16:17:18.17	358.00	26.58	-39.9	-41.1	21.0	0.00e+00	0	32	0	471859200	52	6491
2026-01-05 16:17:19.18	357.78	26.71	-39.9	-41.1	21.0	0.00e+00	0	32	0	473956352	52	6529
2026-01-05 16:17:20.19	357.57	26.83	-39.9	-41.0	21.2	0.00e+00	0	32	0	475004928	52	6462
2026-01-05 16:17:21.20	357.35	26.96	-39.8	-41.0	21.2	0.00e+00	0	32	0	477102080	52	6449
2026-01-05 16:17:22.21	357.14	27.08	-39.9	-41.1	20.9	0.00e+00	0	32	0	479199232	52	6466
2026-01-05 16:17:23.22	356.92	27.21	-40.1	-41.4	20.8	0.00e+00	0	32	0	481296384	52	6706
2026-01-05 16:17:24.23	356.70	27.34	-40.4	-41.7	20.6	0.00e+00	0	32	0	483393536	52	7004
2026-01-05 16:17:25.24	356.48	27.46	-40.5	-41.9	20.3	0.00e+00	0	32	0	484442112	52	7094
2026-01-05 16:17:26.25	356.25	27.59	-41.1	-42.6	19.4	0.00e+00	0	32	0	486539264	54	6865
2026-01-05 16:17:27.26	356.03	27.71	-41.4	-43.0	19.4	0.00e+00	0	32	0	488636416	54	7194
2026-01-05 16:17:28.27	355.80	27.84	-41.3	-42.8	19.6	0.00e+00	0	32	0	490733568	54	7049
2026-01-05 16:17:29.28	355.57	27.96	-41.5	-43.1	19.4	0.00e+00	0	32	0	492830720	54	7263
2026-01-05 16:17:30.29	355.34	28.09	-41.1	-42.5	19.8	0.00e+00	0	32	0	493879296	54	6817
2026-01-05 16:17:31.30	355.10	28.21	-40.9	-42.4	20.1	0.00e+00	0	32	0	495976448	54	6725
2026-01-05 16:17:32.31	354.87	28.34	-40.3	-41.6	20.6	0.00e+00	0	32	0	498073600	54	6163
2026-01-05 16:17:33.32	354.63	28.47	-40.2	-41.5	20.7	0.00e+00	0	32	0	500170752	54	6053
2026-01-05 16:17:34.33	354.39	28.59	-39.9	-41.2	21.0	0.00e+00	0	32	0	502267904	54	5839
2026-01-05 16:17:35.34	354.15	28.72	-39.8	-41.0	21.2	0.00e+00	0	32	0	503316480	52	6434
2026-01-05 16:17:36.35	353.91	28.84	-40.0	-41.2	21.0	0.00e+00	0	32	0	505413632	52	6563
2026-01-05 16:17:37.36	353.66	28.97	-40.0	-41.2	21.1	0.00e+00	0	32	0	507510784	52	6596
2026-01-05 16:17:38.37	353.42	29.10	-39.5	-40.6	21.5	0.00e+00	0	32	0	509607936	52	6173
2026-01-05 16:17:39.38	353.17	29.22	-39.7	-40.9	21.5	0.00e+00	0	32	0	511705088	52	6341
2026-01-05 16:17:40.39	352.92	29.35	-39.5	-40.6	21.7	0.00e+00	0	32	0	512753664	52	6160
2026-01-05 16:17:41.40	352.66	29.47	-39.4	-40.6	21.5	0.00e+00	0	32	0	514850816	52	6106
2026-01-05 16:17:42.40	352.41	29.60	-38.9	-40.0	22.0	0.00e+00	0	32	0	516947968	52	5696
2026-01-05 16:17:43.41	352.16	29.72	-38.7	-39.8	22.2	0.00e+00	0	32	0	519045120	50	6258
2026-01-05 16:17:44.42	351.90	29.85	-38.8	-39.9	22.1	0.00e+00	0	32	0	521142272	50	6322
2026-01-05 16:17:45.43	351.64	29.97	-38.8	-39.8	22.2	0.00e+00	0	32	0	522190848	50	6289
2026-01-05 16:17:46.44	351.37	30.10	-39.2	-40.3	21.5	0.00e+00	0	32	0	524288000	50	6669
2026-01-05 16:17:47.44	351.11	30.22	-39.8	-41.0	21.1	0.00e+00	0	32	0	526385152	52	6444
2026-01-05 16:17:48.45	350.85	30.35	-40.6	-41.9	20.5	0.00e+00	0	32	0	528482304	52	7148
2026-01-05 16:17:49.46	350.58	30.47	-40.7	-42.1	20.2	0.00e+00	0	32	0	530579456	54	6500
2026-01-05 16:17:50.47	350.31	30.60	-40.5	-41.8	20.5	0.00e+00	0	32	0	531628032	54	6314
2026-01-05 16:17:51.48	350.03	30.72	-40.2	-41.4	20.8	0.00e+00	0	32	0	533725184	54	5995
2026-01-05 16:17:52.48	349.76	30.84	-39.8	-40.9	21.2	0.00e+00	0	32	0	535822336	52	6387
2026-01-05 16:17:53.49	349.48	30.97	-39.7	-40.9	21.3	0.00e+00	0	32	0	537919488	52	6360
2026-01-05 16:17:54.50	349.20	31.09	-40.0	-41.2	21.0	0.00e+00	0	32	0	540016640	52	6585
2026-01-05 16:17:55.51	348.92	31.22	-39.7	-40.9	21.5	0.00e+00	0	32	0	542113792	52	6335
2026-01-05 16:17:56.52	348.64	31.34	-40.0	-41.2	21.1	0.00e+00	0	32	0	543162368	52	6580
2026-01-05 16:17:57.52	348.35	31.46	-39.8	-41.0	21.2	0.00e+00	0	32	0	545259520	52	6391
2026-01-05 16:17:58.53	348.06	31.58	-39.7	-40.9	21.3	0.00e+00	0	32	0	547356672	52	6327
2026-01-05 16:17:59.54	347.77	31.70	-39.5	-40.6	21.8	0.00e+00	0	32	0	549453824	52	6123
2026-01-05 16:18:00.55	347.48	31.83	-39.0	-40.1	22.0	0.00e+00	0	32	0	550502400	52	5793
2026-01-05 16:18:01.55	347.19	31.95	-39.0	-40.1	22.0	0.00e+00	0	32	0	552599552	52	5790
2026-01-05 16:18:02.57	346.89	32.07	-38.8	-39.9	22.0	0.00e+00	0	32	0	554696704	52	5653
2026-01-05 16:18:03.58	346.59	32.19	-39.4	-40.6	21.4	0.00e+00	0	32	0	556793856	52	6120
2026-01-05 16:18:04.59	346.29	32.31	-39.7	-40.9	21.3	0.00e+00	0	32	0	558891008	52	6380
2026-01-05 16:18:05.59	345.99	32.43	-40.2	-41.5	20.7	0.00e+00	0	32	0	559939584	52	6788
2026-01-05 16:18:06.60	345.68	32.55	-40.5	-41.9	20.8	0.00e+00	0	32	0	562036736	52	7107
2026-01-05 16:18:07.61	345.37	32.67	-40.6	-41.9	20.6	0.00e+00	0	32	0	564133888	52	7104
2026-01-05 16:18:08.62	345.06	32.79	-40.6	-41.9	20.5	0.00e+00	0	32	0	566231040	52	7104
2026-01-05 16:18:09.63	344.75	32.90	-40.5	-41.8	20.5	0.00e+00	0	32	0	568328192	52	7059
2026-01-05 16:18:10.64	344.43	33.02	-40.4	-41.6	20.7	0.00e+00	0	32	0	570425344	52	6902
2026-01-05 16:18:11.65	344.12	33.14	-40.3	-41.6	20.8	0.00e+00	0	32	0	571473920	52	6856
2026-01-05 16:18:12.66	343.80	33.26	-40.2	-41.4	20.9	0.00e+00	0	32	0	573571072	52	6744
2026-01-05 16:18:13.67	343.47	33.37	-40.5	-41.8	20.4	0.00e+00	0	33	0	575668224	52	7076
2026-01-05 16:18:14.68	343.15	33.49	-41.3	-42.8	19.8	0.00e+00	0	32	0	577765376	54	7037
2026-01-05 16:18:15.69	342.82	33.60	-41.5	-43.1	19.5	0.00e+00	0	33	0	579862528	54	7303
2026-01-05 16:18:16.70	342.49	33.72	-42.1	-43.8	18.8	0.00e+00	0	32	0	580911104	56	7039
2026-01-05 16:18:17.71	342.16	33.83	-42.2	-44.0	18.7	0.00e+00	0	33	0	583008256	56	7207
2026-01-05 16:18:18.72	341.83	33.94	-41.9	-43.6	19.0	0.00e+00	0	32	0	585105408	56	6907
2026-01-05 16:18:19.72	341.49	34.05	-42.1	-43.9	18.6	0.00e+00	0	33	0	587202560	56	7128
2026-01-05 16:18:20.73	341.15	34.16	-41.8	-43.5	19.0	0.00e+00	0	32	0	589299712	56	6806
2026-01-05 16:18:21.74	340.81	34.27	-42.1	-43.9	18.9	0.00e+00	0	32	0	590348288	56	7127
2026-01-05 16:18:22.75	340.47	34.38	-42.2	-44.0	18.5	0.00e+00	0	32	0	592445440	56	7178
2026-01-05 16:18:23.76	340.12	34.49	-43.4	-45.9	16.8	0.00e+00	0	32	0	594542592	58	7994
2026-01-05 16:18:24.77	339.78	34.60	-43.4	-45.8	16.9	0.00e+00	0	33	0	596639744	58	7907
2026-01-05 16:18:25.78	339.43	34.71	-42.7	-44.7	17.9	0.00e+00	0	32	0	598736896	58	6957
2026-01-05 16:18:26.79	339.07	34.81	-42.1	-43.9	18.7	0.00e+00	0	32	0	599785472	58	6323
2026-01-05 16:18:27.80	338.72	34.92	-40.7	-42.0	20.4	0.00e+00	0	32	0	601882624	56	5746
2026-01-05 16:18:28.81	338.36	35.02	-40.0	-41.2	21.2	0.00e+00	0	32	0	603979776	54	5836
2026-01-05 16:18:29.82	338.00	35.13	-39.9	-41.0	21.1	0.00e+00	0	32	0	606076928	52	6452
2026-01-05 16:18:30.83	337.64	35.23	-40.5	-41.8	20.4	0.00e+00	0	32	0	608174080	52	7017
2026-01-05 16:18:31.84	337.28	35.33	-40.6	-41.9	20.3	0.00e+00	0	32	0	609222656	54	6358
2026-01-05 16:18:32.85	336.91	35.43	-41.7	-43.4	19.0	0.00e+00	0	32	0	611319808	54	7533
2026-01-05 16:18:33.85	336.54	35.53	-41.8	-43.5	19.2	0.00e+00	0	32	0	613416960	56	6785
2026-01-05 16:18:34.86	336.17	35.63	-42.0	-43.7	19.0	0.00e+00	0	32	0	615514112	56	6944
2026-01-05 16:18:35.87	335.80	35.73	-41.0	-42.5	20.0	0.00e+00	0	33	0	617611264	56	6099
2026-01-05 16:18:36.88	335.42	35.82	-40.3	-41.6	20.2	0.00e+00	0	32	0	618659840	54	6168
2026-01-05 16:18:37.89	335.05	35.92	-39.6	-40.9	21.2	0.00e+00	0	32	0	620756992	52	6368
2026-01-05 16:18:38.90	334.67	36.01	-39.9	-41.3	20.8	0.00e+00	0	32	0	622854144	52	6632
2026-01-05 16:18:39.91	334.28	36.11	-40.1	-41.5	20.7	0.00e+00	0	32	0	624951296	52	6800
2026-01-05 16:18:40.92	333.90	36.20	-40.3	-41.7	20.6	0.00e+00	0	32	0	627048448	52	6984
2026-01-05 16:18:41.93	333.51	36.29	-40.0	-41.3	20.9	0.00e+00	0	32	0	628097024	52	6648
2026-01-05 16:18:42.94	333.12	36.38	-39.9	-41.1	21.3	0.00e+00	0	33	0	630194176	52	6530
2026-01-05 16:18:43.95	332.73	36.47	-39.1	-40.2	22.0	0.00e+00	0	33	0	632291328	52	5867
2026-01-05 16:18:44.96	332.34	36.55	-37.9	-38.9	22.9	0.00e+00	0	33	0	634388480	50	5658
2026-01-05 16:18:45.97	331.95	36.64	-38.1	-39.1	22.7	0.00e+00	0	33	0	636485632	50	5793
2026-01-05 16:18:46.98	331.55	36.72	-38.4	-39.4	22.6	0.00e+00	0	33	0	638582784	50	6011
2026-01-05 16:18:47.99	331.15	36.81	-38.5	-39.5	22.3	0.00e+00	0	33	0	639631360	50	6087
2026-01-05 16:18:49.00	330.75	36.89	-38.8	-39.8	22.2	0.00e+00	0	33	0	641728512	50	6303
2026-01-05 16:18:50.01	330.34	36.97	-38.8	-39.8	22.2	0.00e+00	0	33	0	643825664	50	6299
2026-01-05 16:18:51.01	329.94	37.05	-38.4	-39.4	22.6	0.00e+00	0	33	0	645922816	50	6019
2026-01-05 16:18:52.02	329.54	37.12	-38.1	-39.1	22.8	0.00e+00	0	33	0	648019968	50	5816
2026-01-05 16:18:53.03	329.13	37.20	-38.3	-39.3	22.6	0.00e+00	0	33	0	649068544	50	5960
2026-01-05 16:18:54.04	328.72	37.27	-38.0	-38.9	22.8	0.00e+00	0	33	0	651165696	48	6390
2026-01-05 16:18:55.05	328.30	37.34	-37.8	-38.8	23.0	0.00e+00	0	33	0	653262848	48	6293
2026-01-05 16:18:56.06	327.89	37.42	-37.5	-38.5	23.3	0.00e+00	0	33	0	655360000	48	6046
2026-01-05 16:18:57.07	327.47	37.48	-37.1	-38.0	23.5	0.00e+00	0	33	0	657457152	48	5756
2026-01-05 16:18:58.08	327.05	37.55	-37.1	-38.0	23.7	0.00e+00	0	33	0	658505728	48	5759
2026-01-05 16:18:59.09	326.63	37.62	-37.5	-38.5	23.1	0.00e+00	0	33	0	660602880	48	6068
2026-01-05 16:19:00.10	326.21	37.68	-37.3	-38.2	23.6	0.00e+00	0	32	0	662700032	48	5874
2026-01-05 16:19:01.11	325.79	37.75	-36.6	-37.4	24.0	0.00e+00	0	33	0	664797184	48	5377
2026-01-05 16:19:02.11	325.37	37.81	-37.3	-38.2	23.5	0.00e+00	0	32	0	666894336	46	6586
2026-01-05 16:19:03.12	324.94	37.87	-38.2	-39.3	22.7	0.00e+00	0	32	0	667942912	48	6638
2026-01-05 16:19:04.13	324.51	37.92	-39.1	-40.3	21.9	0.00e+00	0	33	0	670040064	50	6660
2026-01-05 16:19:05.14	324.08	37.98	-39.3	-40.5	21.7	0.00e+00	0	33	0	672137216	50	6839
2026-01-05 16:19:06.15	323.65	38.03	-38.4	-39.6	22.4	0.00e+00	0	33	0	674234368	50	6121
2026-01-05 16:19:07.16	323.22	38.09	-37.1	-38.0	23.7	0.00e+00	0	33	0	676331520	48	5761
2026-01-05 16:19:08.17	322.79	38.14	-36.5	-37.3	24.3	0.00e+00	0	33	0	677380096	46	5928
2026-01-05 16:19:09.18	322.35	38.19	-35.7	-36.5	24.5	0.00e+00	0	33	0	679477248	44	6046
2026-01-05 16:19:10.19	321.91	38.23	-35.1	-35.9	25.0	0.00e+00	0	33	0	681574400	44	5644
2026-01-05 16:19:11.20	321.48	38.28	-35.6	-36.4	24.9	0.00e+00	0	33	0	683671552	44	5975
2026-01-05 16:19:12.21	321.04	38.32	-36.5	-37.4	24.0	0.00e+00	0	33	0	685768704	44	6745
2026-01-05 16:19:13.22	320.60	38.36	-36.7	-37.6	23.8	0.00e+00	0	33	0	686817280	46	6115
2026-01-05 16:19:14.23	320.16	38.40	-36.5	-37.3	24.4	0.00e+00	0	33	0	688914432	46	5938
2026-01-05 16:19:15.24	319.71	38.44	-36.0	-36.8	24.4	0.00e+00	0	33	0	691011584	46	5600
2026-01-05 16:19:16.25	319.27	38.48	-36.0	-36.9	24.4	0.00e+00	0	33	0	693108736	46	5639
2026-01-05 16:19:17.25	318.83	38.51	-36.5	-37.4	24.2	0.00e+00	0	33	0	695205888	46	5997
2026-01-05 16:19:18.26	318.38	38.54	-36.7	-37.6	23.9	0.00e+00	0	33	0	696254464	46	6129
2026-01-05 16:19:19.27	317.94	38.57	-36.9	-37.8	23.7	0.00e+00	0	33	0	698351616	46	6316
2026-01-05 16:19:20.28	317.49	38.60	-37.5	-38.5	23.3	0.00e+00	0	33	0	700448768	46	6798
2026-01-05 16:19:21.28	317.05	38.63	-37.2	-38.2	23.6	0.00e+00	0	33	0	702545920	46	6548
2026-01-05 16:19:22.29	316.60	38.65	-36.4	-37.2	24.2	0.00e+00	0	33	0	704643072	46	5888
2026-01-05 16:19:23.30	316.15	38.67	-36.4	-37.2	24.3	0.00e+00	0	33	0	705691648	46	5875
2026-01-05 16:19:24.31	315.70	38.69	-36.3	-37.1	24.3	0.00e+00	0	33	0	707788800	46	5796
2026-01-05 16:19:25.32	315.25	38.71	-36.5	-37.3	24.2	0.00e+00	0	33	0	709885952	46	5919
2026-01-05 16:19:26.33	314.80	38.73	-36.9	-37.7	23.8	0.00e+00	0	33	0	711983104	46	6242
2026-01-05 16:19:27.34	314.35	38.74	-37.1	-38.0	23.7	0.00e+00	0	33	0	714080256	46	6431
2026-01-05 16:19:28.35	313.90	38.76	-37.4	-38.3	23.5	0.00e+00	0	32	0	715128832	46	6628
2026-01-05 16:19:29.36	313.44	38.77	-37.2	-38.0	23.7	0.00e+00	0	33	0	717225984	46	6453
2026-01-05 16:19:30.36	313.00	38.77	-37.1	-38.0	23.8	0.00e+00	0	33	0	719323136	46	6411
2026-01-05 16:19:31.37	312.54	38.78	-36.7	-37.5	24.1	0.00e+00	0	33	0	721420288	46	6068
2026-01-05 16:19:32.38	312.09	38.78	-36.4	-37.2	24.2	0.00e+00	0	33	0	723517440	46	5892
2026-01-05 16:19:33.39	311.64	38.79	-36.9	-37.7	23.7	0.00e+00	0	33	0	724566016	46	6240
2026-01-05 16:19:34.40	311.19	38.79	-37.8	-38.8	23.1	0.00e+00	0	33	0	726663168	46	7044
2026-01-05 16:19:35.41	310.73	38.78	-38.6	-39.7	22.3	0.00e+00	0	33	0	728760320	48	6963
2026-01-05 16:19:36.42	310.28	38.78	-39.0	-40.1	22.0	0.00e+00	0	33	0	730857472	50	6513
2026-01-05 16:19:37.43	309.83	38.77	-39.3	-40.5	21.7	0.00e+00	0	33	0	732954624	50	6792
2026-01-05 16:19:38.44	309.38	38.77	-39.6	-40.9	21.3	0.00e+00	0	33	0	735051776	50	7103
2026-01-05 16:19:39.45	308.93	38.76	-39.7	-40.9	21.4	0.00e+00	0	33	0	736100352	50	7170
2026-01-05 16:19:40.46	308.47	38.74	-39.4	-40.6	21.8	0.00e+00	0	33	0	738197504	50	6873
2026-01-05 16:19:41.47	308.02	38.73	-38.6	-39.6	22.5	0.00e+00	0	33	0	740294656	50	6142
2026-01-05 16:19:42.47	307.58	38.71	-38.2	-39.2	22.7	0.00e+00	0	33	0	742391808	50	5853
2026-01-05 16:19:43.48	307.13	38.69	-38.3	-39.3	21.9	0.00e+00	0	33	0	744488960	50	5916
2026-01-05 16:19:44.49	306.68	38.67	-38.3	-39.3	22.7	0.00e+00	0	33	0	745537536	50	5927
2026-01-05 16:19:45.50	306.23	38.65	-38.9	-40.0	22.1	0.00e+00	0	33	0	747634688	50	6420
2026-01-05 16:19:46.51	305.78	38.63	-39.5	-40.6	21.8	0.00e+00	0	33	0	749731840	50	6905
2026-01-05 16:19:47.52	305.33	38.60	-38.8	-39.9	22.1	0.00e+00	0	33	0	751828992	50	6355
2026-01-05 16:19:48.53	304.88	38.57	-38.5	-39.5	22.5	0.00e+00	0	33	0	753926144	50	6056
2026-01-05 16:19:49.53	304.44	38.54	-38.4	-39.3	22.5	0.00e+00	0	33	0	754974720	50	5956
2026-01-05 16:19:50.54	304.00	38.51	-38.9	-40.0	22.0	0.00e+00	0	33	0	757071872	50	6429
2026-01-05 16:19:51.55	303.55	38.48	-39.5	-40.6	21.4	0.00e+00	0	33	0	759169024	52	6163
2026-01-05 16:19:52.56	303.11	38.44	-40.0	-41.2	21.2	0.00e+00	0	33	0	761266176	52	6610
2026-01-05 16:19:53.57	302.66	38.40	-40.2	-41.4	20.8	0.00e+00	0	33	0	763363328	52	6733
2026-01-05 16:19:54.58	302.22	38.36	-40.8	-42.2	20.5	0.00e+00	0	33	0	764411904	54	6599
2026-01-05 16:19:55.59	301.78	38.32	-40.8	-42.2	20.2	0.00e+00	0	33	0	766509056	54	6578
2026-01-05 16:19:56.61	301.34	38.28	-41.2	-42.6	19.8	0.00e+00	0	33	0	768606208	54	6912
2026-01-05 16:19:57.61	300.90	38.23	-41.5	-43.0	19.3	0.00e+00	0	33	0	770703360	54	7219
2026-01-05 16:19:58.63	300.46	38.19	-40.8	-42.1	20.3	0.00e+00	0	33	0	772800512	54	6500
2026-01-05 16:19:59.63	300.03	38.14	-40.7	-42.1	20.3	0.00e+00	0	33	0	773849088	54	6486
2026-01-05 16:20:00.64	299.60	38.09	-40.7	-42.0	20.3	0.00e+00	0	33	0	775946240	54	6464
2026-01-05 16:20:01.65	299.16	38.03	-40.6	-41.9	20.5	0.00e+00	0	33	0	778043392	54	6340
2026-01-05 16:20:02.66	298.73	37.98	-40.5	-41.8	20.3	0.00e+00	0	33	0	780140544	54	6256
2026-01-05 16:20:03.67	298.30	37.92	-40.7	-42.0	20.3	0.00e+00	0	33	0	782237696	54	6443
2026-01-05 16:20:04.68	297.87	37.87	-40.6	-41.9	20.1	0.00e+00	0	33	0	783286272	54	6383
2026-01-05 16:20:05.69	297.45	37.81	-40.7	-42.0	20.4	0.00e+00	0	33	0	785383424	54	6462
2026-01-05 16:20:06.69	297.03	37.75	-40.6	-41.9	20.3	0.00e+00	0	33	0	787480576	54	6384
2026-01-05 16:20:07.71	296.60	37.68	-40.8	-42.2	20.1	0.00e+00	0	33	0	789577728	54	6541
2026-01-05 16:20:08.71	296.18	37.62	-41.2	-42.8	19.7	0.00e+00	0	33	0	791674880	54	7034
2026-01-05 16:20:09.72	295.76	37.55	-41.8	-43.6	18.7	0.00e+00	0	33	0	792723456	56	6868
2026-01-05 16:20:10.73	295.34	37.48	-42.9	-45.2	17.4	0.00e+00	0	33	0	794820608	58	7384
2026-01-05 16:20:11.74	294.92	37.41	-42.9	-45.2	17.2	0.00e+00	0	33	0	796917760	58	7409
2026-01-05 16:20:12.75	294.51	37.34	-42.3	-44.3	18.5	0.00e+00	0	33	0	799014912	58	6634
2026-01-05 16:20:13.76	294.09	37.27	-40.3	-41.7	20.6	0.00e+00	0	33	0	801112064	54	6215
2026-01-05 16:20:14.77	293.68	37.20	-39.7	-41.0	21.3	0.00e+00	0	33	0	803209216	52	6417
2026-01-05 16:20:15.78	293.27	37.12	-39.5	-40.7	21.6	0.00e+00	0	33	0	804257792	52	6231
2026-01-05 16:20:16.79	292.87	37.04	-38.7	-39.8	22.3	0.00e+00	0	33	0	806354944	50	6263
2026-01-05 16:20:17.80	292.46	36.96	-38.6	-39.6	22.4	0.00e+00	0	33	0	808452096	50	6164
2026-01-05 16:20:18.81	292.06	36.88	-39.0	-40.2	21.7	0.00e+00	0	33	0	810549248	50	6562
2026-01-05 16:20:19.81	291.66	36.80	-39.9	-41.2	21.0	0.00e+00	0	33	0	812646400	52	6596
2026-01-05 16:20:20.82	291.26	36.72	-39.1	-40.2	22.0	0.00e+00	0	33	0	813694976	52	5876
2026-01-05 16:20:21.83	290.86	36.64	-37.3	-38.1	23.7	0.00e+00	0	33	0	815792128	48	5828
2026-01-05 16:20:22.84	290.46	36.55	-36.4	-37.2	24.3	0.00e+00	0	33	0	817889280	46	5860
2026-01-05 16:20:23.84	290.07	36.46	-36.6	-37.4	24.1	0.00e+00	0	33	0	819986432	46	6010
2026-01-05 16:20:24.85	289.68	36.38	-36.7	-37.5	24.0	0.00e+00	0	33	0	821035008	46	6097
2026-01-05 16:20:25.86	289.29	36.29	-36.3	-37.1	24.3	0.00e+00	0	33	0	823132160	46	5786
2026-01-05 16:20:26.87	288.91	36.20	-36.5	-37.3	24.0	0.00e+00	0	33	0	825229312	46	5940
2026-01-05 16:20:27.88	288.52	36.10	-36.9	-37.8	23.9	0.00e+00	0	33	0	827326464	46	6284
2026-01-05 16:20:28.89	288.14	36.01	-37.4	-38.4	23.5	0.00e+00	0	33	0	829423616	46	6735
2026-01-05 16:20:29.90	287.76	35.92	-37.7	-38.7	23.1	0.00e+00	0	33	0	831520768	46	6965
2026-01-05 16:20:30.91	287.38	35.82	-38.2	-39.2	22.7	0.00e+00	0	33	0	832569344	48	6607
2026-01-05 16:20:31.92	287.00	35.72	-38.2	-39.3	22.7	0.00e+00	0	33	0	834666496	48	6632
2026-01-05 16:20:32.93	286.63	35.63	-38.3	-39.4	22.8	0.00e+00	0	33	0	836763648	48	6705
2026-01-05 16:20:33.94	286.26	35.53	-37.7	-38.7	23.2	0.00e+00	0	33	0	838860800	48	6208
2026-01-05 16:20:34.95	285.89	35.43	-37.6	-38.6	23.0	0.00e+00	0	33	0	840957952	48	6107
2026-01-05 16:20:35.96	285.52	35.33	-38.1	-39.1	22.8	0.00e+00	0	33	0	842006528	48	6486
2026-01-05 16:20:36.97	285.16	35.23	-39.0	-40.1	22.0	0.00e+00	0	33	0	844103680	48	7331
2026-01-05 16:20:37.98	284.79	35.12	-38.6	-39.7	22.3	0.00e+00	0	33	0	846200832	50	6208
2026-01-05 16:20:38.99	284.43	35.02	-38.9	-40.0	22.1	0.00e+00	0	33	0	848297984	50	6449
2026-01-05 16:20:40.00	284.08	34.91	-38.8	-39.8	22.3	0.00e+00	0	33	0	850395136	50	6308
2026-01-05 16:20:41.01	283.72	34.81	-38.9	-40.0	22.1	0.00e+00	0	33	0	851443712	50	6455
2026-01-05 16:20:42.02	283.37	34.70	-38.6	-39.6	22.4	0.00e+00	0	33	0	853540864	50	6164
2026-01-05 16:20:43.02	283.02	34.59	-37.9	-38.9	23.0	0.00e+00	0	33	0	855638016	50	5631
2026-01-05 16:20:44.03	282.67	34.49	-37.6	-38.5	23.2	0.00e+00	0	33	0	857735168	48	6098
2026-01-05 16:20:45.04	282.32	34.38	-38.0	-39.0	22.9	0.00e+00	0	33	0	859832320	48	6420
2026-01-05 16:20:46.05	281.98	34.27	-37.7	-38.6	22.9	0.00e+00	0	33	0	860880896	48	6128
2026-01-05 16:20:47.06	281.64	34.16	-37.6	-38.5	23.4	0.00e+00	0	33	0	862978048	48	6056
2026-01-05 16:20:48.07	281.30	34.05	-37.3	-38.2	23.7	0.00e+00	0	33	0	865075200	48	5835
2026-01-05 16:20:49.08	280.96	33.93	-38.2	-39.2	22.7	0.00e+00	0	33	0	867172352	48	6549
2026-01-05 16:20:50.09	280.63	33.82	-38.9	-39.9	22.1	0.00e+00	0	33	0	869269504	50	6345
2026-01-05 16:20:51.10	280.29	33.71	-38.3	-39.2	22.8	0.00e+00	0	33	0	870318080	50	5896
2026-01-05 16:20:52.11	279.96	33.59	-37.4	-38.3	23.5	0.00e+00	0	33	0	872415232	48	5926
2026-01-05 16:20:53.12	279.64	33.48	-37.6	-38.5	23.4	0.00e+00	0	33	0	874512384	48	6059
2026-01-05 16:20:54.13	279.31	33.36	-37.6	-38.5	23.3	0.00e+00	0	33	0	876609536	48	6075
2026-01-05 16:20:55.14	278.99	33.25	-38.1	-39.1	22.9	0.00e+00	0	33	0	878706688	48	6467
2026-01-05 16:20:56.14	278.67	33.13	-38.5	-39.4	22.6	0.00e+00	0	33	0	879755264	48	6749
2026-01-05 16:20:57.16	278.35	33.01	-38.8	-39.9	22.2	0.00e+00	0	33	0	881852416	50	6327
2026-01-05 16:20:58.17	278.03	32.89	-38.8	-39.9	22.5	0.00e+00	0	33	0	883949568	50	6323
2026-01-05 16:20:59.17	277.72	32.78	-38.9	-40.0	22.2	0.00e+00	0	33	0	886046720	50	6420
2026-01-05 16:21:00.18	277.41	32.66	-38.5	-39.5	22.4	0.00e+00	0	33	0	888143872	50	6069
2026-01-05 16:21:01.19	277.10	32.54	-38.5	-39.5	22.6	0.00e+00	0	33	0	889192448	50	6051
2026-01-05 16:21:02.20	276.79	32.42	-38.5	-39.4	22.5	0.00e+00	0	33	0	891289600	50	6031
2026-01-05 16:21:03.21	276.49	32.30	-39.0	-40.1	21.9	0.00e+00	0	33	0	893386752	50	6470
2026-01-05 16:21:04.22	276.19	32.18	-39.4	-40.5	21.7	0.00e+00	0	33	0	895483904	50	6784
2026-01-05 16:21:05.23	275.89	32.06	-40.0	-41.2	21.1	0.00e+00	0	33	0	897581056	52	6543
2026-01-05 16:21:06.24	275.59	31.93	-39.9	-41.0	21.4	0.00e+00	0	33	0	899678208	52	6455
2026-01-05 16:21:07.25	275.29	31.81	-39.7	-40.8	21.5	0.00e+00	0	33	0	900726784	52	6282
2026-01-05 16:21:08.26	275.00	31.69	-40.3	-41.5	20.8	0.00e+00	0	33	0	902823936	52	6826
2026-01-05 16:21:09.27	274.71	31.57	-41.2	-42.7	19.6	0.00e+00	0	33	0	904921088	54	6932
2026-01-05 16:21:10.28	274.42	31.44	-41.4	-42.9	19.6	0.00e+00	0	33	0	907018240	54	7143
2026-01-05 16:21:11.29	274.13	31.32	-41.1	-42.5	20.0	0.00e+00	0	33	0	909115392	54	6771
2026-01-05 16:21:12.29	273.85	31.20	-40.7	-42.0	20.4	0.00e+00	0	33	0	910163968	54	6412
2026-01-05 16:21:13.30	273.57	31.08	-40.0	-41.2	21.1	0.00e+00	0	33	0	912261120	54	5840
2026-01-05 16:21:14.31	273.29	30.95	-40.1	-41.3	21.0	0.00e+00	0	33	0	914358272	54	5932
2026-01-05 16:21:15.32	273.01	30.83	-40.6	-41.9	20.5	0.00e+00	0	33	0	916455424	54	6325
2026-01-05 16:21:16.33	272.73	30.70	-40.5	-41.8	20.6	0.00e+00	0	33	0	918552576	54	6289
2026-01-05 16:21:17.34	272.46	30.58	-40.0	-41.2	21.1	0.00e+00	0	33	0	919601152	54	5893
2026-01-05 16:21:18.35	272.19	30.45	-39.2	-40.3	22.0	0.00e+00	0	33	0	921698304	52	5905
2026-01-05 16:21:19.36	271.92	30.33	-39.1	-40.1	22.0	0.00e+00	0	33	0	923795456	52	5805
2026-01-05 16:21:20.37	271.65	30.20	-38.8	-39.8	22.5	0.00e+00	0	33	0	925892608	52	5579
2026-01-05 16:21:21.38	271.39	30.08	-38.0	-39.0	23.0	0.00e+00	0	33	0	927989760	50	5704
2026-01-05 16:21:22.39	271.12	29.95	-37.7	-38.6	23.2	0.00e+00	0	33	0	929038336	48	6124
2026-01-05 16:21:23.40	270.86	29.83	-37.1	-37.9	23.8	0.00e+00	0	33	0	931135488	48	5676
2026-01-05 16:21:24.41	270.60	29.70	-37.0	-37.8	23.8	0.00e+00	0	33	0	933232640	48	5613
2026-01-05 16:21:25.42	270.34	29.57	-36.9	-37.7	23.8	0.00e+00	0	33	0	935329792	48	5531
2026-01-05 16:21:26.42	270.09	29.45	-37.4	-38.3	23.4	0.00e+00	0	33	0	937426944	48	5940
2026-01-05 16:21:27.44	269.84	29.32	-37.9	-38.9	23.0	0.00e+00	0	33	0	938475520	48	6340
2026-01-05 16:21:28.44	269.59	29.20	-38.4	-39.5	22.5	0.00e+00	0	33	0	940572672	48	6781
2026-01-05 16:21:29.46	269.33	29.07	-38.9	-40.0	22.1	0.00e+00	0	33	0	942669824	50	6392
2026-01-05 16:21:30.47	269.09	28.94	-39.1	-40.2	21.9	0.00e+00	0	33	0	944766976	50	6552
2026-01-05 16:21:31.48	268.84	28.82	-39.3	-40.4	21.8	0.00e+00	0	33	0	946864128	50	6699
2026-01-05 16:21:32.48	268.60	28.69	-39.4	-40.5	21.7	0.00e+00	0	33	0	947912704	50	6811
2026-01-05 16:21:33.50	268.36	28.56	-39.0	-40.1	22.1	0.00e+00	0	33	0	950009856	50	6480
2026-01-05 16:21:34.50	268.12	28.44	-38.8	-39.8	22.2	0.00e+00	0	33	0	952107008	50	6304
2026-01-05 16:21:35.51	267.88	28.31	-38.4	-39.3	22.6	0.00e+00	0	33	0	954204160	50	5948
2026-01-05 16:21:36.52	267.65	28.19	-38.5	-39.6	22.4	0.00e+00	0	33	0	956301312	50	6115
2026-01-05 16:21:37.53	267.41	28.06	-38.7	-39.8	22.1	0.00e+00	0	33	0	957349888	50	6260
2026-01-05 16:21:38.54	267.18	27.93	-38.4	-39.4	22.5	0.00e+00	0	33	0	959447040	50	5990
2026-01-05 16:21:39.55	266.95	27.81	-38.4	-39.4	22.5	0.00e+00	0	33	0	961544192	50	6013
2026-01-05 16:21:40.56	266.72	27.68	-38.0	-38.9	23.0	0.00e+00	0	33	0	963641344	50	5656
2026-01-05 16:21:41.57	266.49	27.56	-37.9	-38.9	23.0	0.00e+00	0	33	0	965738496	50	5641
2026-01-05 16:21:42.58	266.27	27.43	-37.5	-38.4	23.4	0.00e+00	0	33	0	967835648	48	5991
2026-01-05 16:21:43.59	266.05	27.30	-36.8	-37.6	23.9	0.00e+00	0	33	0	968884224	48	5479
2026-01-05 16:21:44.59	265.83	27.18	-37.0	-37.8	23.8	0.00e+00	0	33	0	970981376	48	5621
2026-01-05 16:21:45.61	265.61	27.05	-36.9	-37.8	23.8	0.00e+00	0	33	0	973078528	48	5569
2026-01-05 16:21:46.62	265.39	26.93	-37.1	-38.0	23.8	0.00e+00	0	33	0	975175680	48	5703
2026-01-05 16:21:47.63	265.17	26.80	-37.1	-38.0	23.7	0.00e+00	0	33	0	977272832	48	5708
2026-01-05 16:21:48.63	264.96	26.68	-37.3	-38.2	23.5	0.00e+00	0	33	0	978321408	48	5864
2026-01-05 16:21:49.64	264.75	26.55	-37.2	-38.1	23.4	0.00e+00	0	33	0	980418560	48	5803
2026-01-05 16:21:50.65	264.54	26.43	-39.6	-40.7	22.8	0.00e+00	0	33	0	982515712	48	7778
2026-01-05 16:21:51.66	264.33	26.30	-38.4	-39.3	22.7	0.00e+00	0	33	0	984612864	50	5931
2026-01-05 16:21:52.67	264.12	26.18	-38.6	-39.6	22.6	0.00e+00	0	33	0	986710016	50	6171
2026-01-05 16:21:53.68	263.91	26.05	-38.2	-39.2	22.7	0.00e+00	0	33	0	987758592	50	5849
2026-01-05 16:21:54.69	263.71	25.93	-38.3	-39.3	22.7	0.00e+00	0	33	0	989855744	50	5925
2026-01-05 16:21:55.70	263.51	25.81	-38.2	-39.1	22.8	0.00e+00	0	33	0	991952896	50	5826
2026-01-05 16:21:56.71	263.30	25.68	-38.2	-39.2	22.9	0.00e+00	0	33	0	994050048	50	5835
2026-01-05 16:21:57.72	263.11	25.56	-37.9	-38.8	23.0	0.00e+00	0	33	0	996147200	48	6301
2026-01-05 16:21:58.73	262.91	25.43	-38.0	-39.0	22.8	0.00e+00	0	33	0	997195776	48	6441
2026-01-05 16:21:59.74	262.71	25.31	-38.0	-39.0	23.0	0.00e+00	0	33	0	999292928	48	6391
2026-01-05 16:22:00.75	262.52	25.19	-37.8	-38.8	23.0	0.00e+00	0	33	0	1001390080	48	6261
2026-01-05 16:22:01.76	262.32	25.06	-37.9	-38.9	22.9	0.00e+00	0	33	0	1003487232	48	6329
2026-01-05 16:22:02.77	262.13	24.94	-37.9	-38.9	22.9	0.00e+00	0	33	0	1005584384	48	6350
2026-01-05 16:22:03.78	261.94	24.82	-37.4	-38.4	23.2	0.00e+00	0	33	0	1006632960	48	5982
2026-01-05 16:22:04.79	261.75	24.70	-37.3	-38.2	23.4	0.00e+00	0	33	0	1008730112	48	5872
2026-01-05 16:22:05.80	261.56	24.57	-37.3	-38.2	23.2	0.00e+00	0	33	0	1010827264	48	5886
2026-01-05 16:22:06.80	261.38	24.45	-37.4	-38.3	22.7	0.00e+00	0	33	0	1012924416	48	5932
2026-01-05 16:22:07.81	261.19	24.33	-37.6	-38.5	23.0	0.00e+00	0	33	0	1015021568	48	6056
2026-01-05 16:22:08.82	261.01	24.21	-37.8	-38.7	23.1	0.00e+00	0	33	0	1016070144	48	6220
2026-01-05 16:22:09.83	260.83	24.09	-37.9	-38.8	23.0	0.00e+00	0	33	0	1018167296	48	6274
2026-01-05 16:22:10.84	260.65	23.97	-37.7	-38.6	23.1	0.00e+00	0	33	0	1020264448	48	6139
2026-01-05 16:22:11.85	260.47	23.85	-37.9	-38.9	23.0	0.00e+00	0	33	0	1022361600	48	6328
2026-01-05 16:22:12.86	260.29	23.73	-37.9	-38.9	23.1	0.00e+00	0	33	0	1024458752	48	6330
2026-01-05 16:22:13.87	260.12	23.61	-38.0	-39.0	22.9	0.00e+00	0	33	0	1025507328	48	6423
2026-01-05 16:22:14.88	259.94	23.49	-37.7	-38.6	23.2	0.00e+00	0	33	0	1027604480	48	6166
2026-01-05 16:22:15.88	259.77	23.37	-38.2	-39.2	22.5	0.00e+00	0	33	0	1029701632	48	6574
2026-01-05 16:22:16.89	259.60	23.25	-38.2	-39.1	22.8	0.00e+00	0	33	0	1031798784	48	6538
2026-01-05 16:22:17.90	259.43	23.13	-38.3	-39.3	22.6	0.00e+00	0	33	0	1033895936	48	6664
2026-01-05 16:22:18.91	259.26	23.01	-38.7	-39.7	22.3	0.00e+00	0	33	0	1035993088	50	6195
2026-01-05 16:22:19.92	259.09	22.89	-38.8	-39.9	22.1	0.00e+00	0	33	0	1037041664	50	6326
2026-01-05 16:22:20.93	258.92	22.78	-38.8	-39.9	22.1	0.00e+00	0	33	0	1039138816	50	6336
2026-01-05 16:22:21.94	258.76	22.66	-39.1	-40.2	21.9	0.00e+00	0	33	0	1041235968	50	6544
2026-01-05 16:22:22.94	258.60	22.54	-39.3	-40.4	21.7	0.00e+00	0	33	0	1043333120	50	6764
2026-01-05 16:22:23.95	258.43	22.42	-39.0	-40.1	22.0	0.00e+00	0	33	0	1044381696	50	6493
2026-01-05 16:22:24.96	258.27	22.31	-39.3	-40.4	21.6	0.00e+00	0	33	0	1046478848	50	6699
2026-01-05 16:22:25.97	258.11	22.19	-38.9	-40.0	22.0	0.00e+00	0	33	0	1048576000	50	6429
2026-01-05 16:22:26.98	257.95	22.07	-38.9	-39.9	22.1	0.00e+00	0	33	0	1050673152	50	6363
2026-01-05 16:22:27.99	257.79	21.96	-38.3	-39.3	22.6	0.00e+00	0	33	0	1052770304	50	5931
2026-01-05 16:22:29.00	257.64	21.84	-38.1	-39.1	22.8	0.00e+00	0	33	0	1053818880	50	5791
2026-01-05 16:22:30.01	257.48	21.73	-37.5	-38.4	23.3	0.00e+00	0	33	0	1055916032	48	5976
2026-01-05 16:22:31.02	257.33	21.61	-37.2	-38.1	23.5	0.00e+00	0	33	0	1058013184	48	5790
2026-01-05 16:22:32.03	257.17	21.49	-37.4	-38.3	23.4	0.00e+00	0	33	0	1060110336	48	5930
2026-01-05 16:22:33.04	257.02	21.38	-37.5	-38.4	23.3	0.00e+00	0	33	0	1062207488	48	5981
2026-01-05 16:22:34.04	256.87	21.27	-37.8	-38.8	22.9	0.00e+00	0	33	0	1064304640	48	6251
2026-01-05 16:22:35.06	256.72	21.15	-38.2	-39.1	22.7	0.00e+00	0	33	0	1065353216	48	6516
2026-01-05 16:22:36.07	256.57	21.04	-38.5	-39.5	22.4	0.00e+00	0	33	0	1067450368	48	6796
2026-01-05 16:22:37.07	256.42	20.93	-38.3	-39.3	22.5	0.00e+00	0	33	0	1069547520	48	6657
2026-01-05 16:22:38.08	256.28	20.81	-38.2	-39.1	22.7	0.00e+00	0	33	0	1071644672	48	6530
2026-01-05 16:22:39.09	256.13	20.70	-37.8	-38.8	23.0	0.00e+00	0	33	0	1073741824	48	6253
2026-01-05 16:22:40.10	255.99	20.59	-37.4	-38.3	23.4	0.00e+00	0	33	0	1074790400	48	5931
2026-01-05 16:22:41.11	255.84	20.47	-37.0	-37.8	23.6	0.00e+00	0	33	0	1076887552	48	5629
2026-01-05 16:22:42.12	255.70	20.36	-36.9	-37.8	23.7	0.00e+00	0	33	0	1078984704	48	5588
2026-01-05 16:22:43.13	255.56	20.25	-37.0	-37.9	23.7	0.00e+00	0	33	0	1081081856	48	5659
2026-01-05 16:22:44.14	255.42	20.14	-36.9	-37.7	23.7	0.00e+00	0	33	0	1083179008	48	5545
2026-01-05 16:22:45.15	255.28	20.03	-37.3	-38.2	23.4	0.00e+00	0	33	0	1084227584	48	5836
2026-01-05 16:22:46.16	255.14	19.92	-37.6	-38.5	23.0	0.00e+00	0	33	0	1086324736	48	6102
2026-01-05 16:22:47.17	255.00	19.81	-38.0	-39.0	22.7	0.00e+00	0	33	0	1088421888	48	6419
2026-01-05 16:22:48.18	254.87	19.70	-38.6	-39.6	22.3	0.00e+00	0	33	0	1090519040	48	6868
2026-01-05 16:22:49.19	254.73	19.59	-39.3	-40.4	21.6	0.00e+00	0	33	0	1092616192	50	6712
2026-01-05 16:22:50.20	254.60	19.48	-39.8	-41.0	21.1	0.00e+00	0	33	0	1093664768	52	6451
2026-01-05 16:22:51.21	254.47	19.37	-40.1	-41.4	20.7	0.00e+00	0	33	0	1095761920	52	6714
2026-01-05 16:22:52.22	254.33	19.26	-40.8	-42.2	20.1	0.00e+00	0	33	0	1097859072	54	6584
2026-01-05 16:22:53.23	254.20	19.15	-41.1	-42.5	19.8	0.00e+00	0	33	0	1099956224	54	6831
2026-01-05 16:22:54.23	254.07	19.04	-41.4	-42.9	19.4	0.00e+00	0	33	0	1102053376	54	7161
2026-01-05 16:22:55.24	253.94	18.94	-41.2	-42.6	19.8	0.00e+00	0	33	0	1103101952	54	6895
2026-01-05 16:22:56.25	253.81	18.83	-40.7	-42.1	20.1	0.00e+00	0	33	0	1105199104	54	6530
2026-01-05 16:22:57.26	253.69	18.72	-40.1	-41.4	20.9	0.00e+00	0	33	0	1107296256	54	5974
2026-01-05 16:22:58.27	253.56	18.61	-39.6	-40.8	21.4	0.00e+00	0	33	0	1109393408	52	6283
2026-01-05 16:22:59.28	253.43	18.51	-39.1	-40.2	21.9	0.00e+00	0	33	0	1111490560	52	5858
2026-01-05 16:23:00.29	253.31	18.40	-38.8	-39.8	22.1	0.00e+00	0	33	0	1112539136	50	6302
2026-01-05 16:23:01.30	253.19	18.29	-38.9	-40.0	21.9	0.00e+00	0	33	0	1114636288	50	6391
2026-01-05 16:23:02.31	253.06	18.19	-38.5	-39.5	22.4	0.00e+00	0	33	0	1116733440	50	6098
2026-01-05 16:23:03.32	252.94	18.08	-38.3	-39.3	22.5	0.00e+00	0	33	0	1118830592	50	5939
2026-01-05 16:23:04.33	252.82	17.98	-38.5	-39.5	22.3	0.00e+00	0	33	0	1120927744	50	6088
2026-01-05 16:23:05.34	252.70	17.87	-38.9	-39.9	21.9	0.00e+00	0	33	0	1121976320	50	6380
2026-01-05 16:23:06.34	252.58	17.77	-39.2	-40.4	21.7	0.00e+00	0	33	0	1124073472	50	6712
2026-01-05 16:23:07.36	252.46	17.67	-39.4	-40.6	21.4	0.00e+00	0	33	0	1126170624	50	6873
2026-01-05 16:23:08.37	252.34	17.56	-39.6	-40.7	21.2	0.00e+00	0	33	0	1128267776	50	7000
2026-01-05 16:23:09.37	252.23	17.46	-39.5	-40.6	21.5	0.00e+00	0	33	0	1130364928	50	6923
2026-01-05 16:23:10.38	252.11	17.36	-39.2	-40.3	21.7	0.00e+00	0	33	0	1131413504	50	6669
2026-01-05 16:23:11.39	251.99	17.25	-38.9	-39.9	21.8	0.00e+00	0	33	0	1133510656	50	6381
2026-01-05 16:23:12.40	251.88	17.15	-38.4	-39.4	22.4	0.00e+00	0	33	0	1135607808	50	6027
2026-01-05 16:23:13.41	251.77	17.05	-38.1	-39.0	22.7	0.00e+00	0	33	0	1137704960	50	5734
2026-01-05 16:23:14.42	251.65	16.95	-37.7	-38.6	23.0	0.00e+00	0	33	0	1139802112	48	6139
2026-01-05 16:23:15.43	251.54	16.84	-37.6	-38.5	23.1	0.00e+00	0	33	0	1141899264	48	6073
2026-01-05 16:23:16.44	251.43	16.74	-37.7	-38.6	23.0	0.00e+00	0	33	0	1142947840	48	6170
2026-01-05 16:23:17.44	251.32	16.64	-38.0	-39.0	22.8	0.00e+00	0	33	0	1145044992	48	6399
2026-01-05 16:23:18.45	251.21	16.54	-38.0	-39.0	22.7	0.00e+00	0	33	0	1147142144	48	6431
2026-01-05 16:23:19.46	251.10	16.44	-38.3	-39.3	22.4	0.00e+00	0	33	0	1149239296	48	6634
2026-01-05 16:23:20.47	250.99	16.34	-38.3	-39.3	22.4	0.00e+00	0	33	0	1151336448	48	6679
2026-01-05 16:23:21.48	250.88	16.24	-38.5	-39.5	22.3	0.00e+00	0	33	0	1152385024	48	6810
2026-01-05 16:23:22.49	250.77	16.14	-38.6	-39.7	22.2	0.00e+00	0	33	0	1154482176	48	6940
2026-01-05 16:23:23.50	250.67	16.04	-38.9	-40.0	22.0	0.00e+00	0	33	0	1156579328	50	6399
2026-01-05 16:23:24.50	250.56	15.94	-38.7	-39.8	21.9	0.00e+00	0	33	0	1158676480	50	6261
2026-01-05 16:23:25.51	250.46	15.85	-38.8	-39.8	22.2	0.00e+00	0	33	0	1160773632	50	6263
2026-01-05 16:23:26.52	250.35	15.75	-38.6	-39.6	22.2	0.00e+00	0	33	0	1161822208	50	6169
2026-01-05 16:23:27.53	250.25	15.65	-38.8	-39.8	21.8	0.00e+00	0	33	0	1163919360	50	6295
2026-01-05 16:23:28.54	250.15	15.55	-38.8	-39.8	22.1	0.00e+00	0	33	0	1166016512	50	6257
2026-01-05 16:23:29.55	250.05	15.45	-39.0	-40.0	21.7	0.00e+00	0	33	0	1168113664	50	6425
2026-01-05 16:23:30.56	249.94	15.36	-38.9	-40.0	21.9	0.00e+00	0	33	0	1170210816	50	6393
2026-01-05 16:23:31.57	249.84	15.26	-39.1	-40.1	21.8	0.00e+00	0	33	0	1171259392	50	6520
2026-01-05 16:23:32.58	249.74	15.16	-39.0	-40.1	21.8	0.00e+00	0	33	0	1173356544	50	6485
2026-01-05 16:23:33.59	249.64	15.07	-39.1	-40.2	21.8	0.00e+00	0	33	0	1175453696	50	6559
2026-01-05 16:23:34.60	249.54	14.97	-39.1	-40.1	21.8	0.00e+00	0	33	0	1177550848	50	6535
2026-01-05 16:23:35.61	249.45	14.88	-38.8	-39.9	21.9	0.00e+00	0	33	0	1179648000	50	6340
2026-01-05 16:23:36.62	249.35	14.78	-38.6	-39.6	22.1	0.00e+00	0	33	0	1180696576	50	6169
2026-01-05 16:23:37.63	249.25	14.69	-38.6	-39.6	22.1	0.00e+00	0	33	0	1182793728	50	6153
2026-01-05 16:23:38.64	249.16	14.59	-38.4	-39.4	22.3	0.00e+00	0	33	0	1184890880	50	6004
2026-01-05 16:23:39.64	249.06	14.50	-38.5	-39.5	22.2	0.00e+00	0	33	0	1186988032	50	6035
2026-01-05 16:23:40.66	248.96	14.40	-38.3	-39.3	22.4	0.00e+00	0	33	0	1189085184	50	5919
2026-01-05 16:23:41.67	248.87	14.31	-38.3	-39.3	22.4	0.00e+00	0	33	0	1190133760	50	5926
2026-01-05 16:23:42.68	248.78	14.21	-38.8	-39.8	22.0	0.00e+00	0	33	0	1192230912	50	6296
2026-01-05 16:23:43.68	248.68	14.12	-38.9	-39.9	21.9	0.00e+00	0	33	0	1194328064	50	6388
2026-01-05 16:23:44.69	248.59	14.03	-39.2	-40.3	21.6	0.00e+00	0	33	0	1196425216	50	6664
2026-01-05 16:23:45.70	248.50	13.94	-39.3	-40.4	21.4	0.00e+00	0	33	0	1198522368	50	6754
2026-01-05 16:23:46.71	248.41	13.84	-39.6	-40.8	21.2	0.00e+00	0	33	0	1199570944	50	7057
