passes_logs/2026/01/05/R4.6S_Anadyr/R4.6S_Anadyr__20260105_221820_NOAA_21_JPSS-2_rec.log

#Pass ID: 20260105_221820_NOAA 21 (JPSS-2)
#Satellite: NOAA 21 (JPSS-2)
#Configuration: NOAA-21
#almurnet v.1.7.20251203
#Start time: 2026-01-05 22:18:26

#Version: 2.2.20231116
#Station: R4.6S_Anadyr
#Location: 177.4865 lon 64.73178 lat
#TLE: 1 54234U 22150A   26005.42670836  .00000142  00000+0  88292-4 0  9996
#TLE: 2 54234  98.7490 306.4427 0001045 340.6622  19.4514 14.19532269163451

#Time	Az	El	Level	Level2	SNR	BER	BlckErr	Temp	State	Recorded	gain1	gain2
2026-01-05 22:18:26.42	109.90	0.35	-48.7	-50.2	5.7	0.00e+00	0	31	0	0	60	39745
2026-01-05 22:18:27.39	109.85	0.41	-48.5	-61.4	3.5	1.52e+00	0	33	104	0	60	41240
2026-01-05 22:18:28.37	109.81	0.46	-48.6	-61.4	3.5	1.52e+00	0	33	104	0	60	41333
2026-01-05 22:18:29.34	109.76	0.52	-48.6	-61.4	3.5	1.52e+00	0	33	104	0	60	41171
2026-01-05 22:18:30.32	109.71	0.57	-48.6	-61.4	3.5	1.51e+00	0	33	104	0	60	41150
2026-01-05 22:18:31.30	109.67	0.63	-48.6	-61.4	3.5	1.52e+00	0	33	104	0	60	41152
2026-01-05 22:18:32.28	109.62	0.68	-48.6	-61.4	3.5	1.51e+00	0	33	104	0	60	41263
2026-01-05 22:18:33.25	109.58	0.74	-48.5	-61.4	3.5	1.52e+00	0	33	104	0	60	41085
2026-01-05 22:18:34.23	109.53	0.80	-48.5	-61.4	3.5	1.52e+00	0	33	104	0	60	41214
2026-01-05 22:18:35.21	109.48	0.85	-48.5	-61.3	3.5	1.52e+00	0	33	104	0	60	40766
2026-01-05 22:18:36.19	109.44	0.91	-48.2	-61.2	3.5	1.52e+00	0	33	104	0	60	40154
2026-01-05 22:18:37.16	109.39	0.96	-48.1	-61.1	3.5	1.52e+00	0	33	104	0	60	39719
2026-01-05 22:18:38.14	109.34	1.02	-48.0	-60.9	3.5	1.52e+00	0	33	104	0	60	38758
2026-01-05 22:18:39.12	109.30	1.08	-47.4	-60.5	3.5	1.52e+00	0	33	104	0	60	37137
2026-01-05 22:18:40.10	109.25	1.13	-45.8	-59.3	3.5	1.52e+00	0	33	104	0	60	32564
2026-01-05 22:18:41.08	109.20	1.19	-45.9	-59.2	3.5	1.52e+00	0	33	104	0	60	32089
2026-01-05 22:18:42.06	109.15	1.25	-45.9	-59.2	3.5	1.52e+00	0	33	104	0	60	32076
2026-01-05 22:18:43.04	109.11	1.31	-45.9	-59.2	3.5	1.51e+00	0	33	104	0	60	32052
2026-01-05 22:18:44.02	109.06	1.36	-45.8	-59.2	3.5	1.52e+00	0	33	104	0	60	32090
2026-01-05 22:18:44.99	109.01	1.42	-45.8	-59.2	3.5	1.52e+00	0	33	104	0	60	32076
2026-01-05 22:18:45.97	108.96	1.48	-45.8	-59.2	3.5	1.52e+00	0	33	104	0	60	32038
2026-01-05 22:18:46.94	108.91	1.53	-45.8	-59.2	3.5	1.52e+00	0	33	104	0	60	32137
2026-01-05 22:18:47.92	108.86	1.59	-45.9	-59.2	3.5	1.52e+00	0	33	104	0	60	32174
2026-01-05 22:18:48.90	108.81	1.65	-45.8	-59.2	3.5	1.52e+00	0	33	104	0	60	32066
2026-01-05 22:18:49.87	108.77	1.71	-45.8	-59.2	3.5	1.51e+00	0	33	104	0	60	31936
2026-01-05 22:18:50.86	108.72	1.76	-45.8	-59.2	3.5	1.52e+00	0	33	104	0	60	32111
2026-01-05 22:18:51.83	108.67	1.82	-45.8	-59.2	3.5	1.51e+00	0	33	104	0	60	31880
2026-01-05 22:18:52.81	108.62	1.88	-45.9	-59.2	3.5	1.52e+00	0	33	104	0	60	31981
2026-01-05 22:18:53.79	108.57	1.94	-45.8	-59.2	3.5	1.52e+00	0	33	104	0	60	31916
2026-01-05 22:18:54.76	108.52	2.00	-45.8	-59.2	3.5	1.52e+00	0	33	104	0	60	32117
2026-01-05 22:18:55.74	108.46	2.05	-45.8	-59.2	3.5	1.52e+00	0	33	104	0	60	32182
2026-01-05 22:18:56.72	108.41	2.11	-45.8	-59.2	3.5	1.52e+00	0	33	104	0	60	32186
2026-01-05 22:18:57.70	108.36	2.17	-45.9	-59.3	3.5	1.52e+00	0	33	104	0	60	32250
2026-01-05 22:18:58.68	108.31	2.23	-45.9	-59.2	3.5	1.52e+00	0	33	104	0	60	32070
2026-01-05 22:18:59.65	108.26	2.29	-45.8	-59.2	3.5	1.52e+00	0	33	104	0	60	32099
2026-01-05 22:19:00.63	108.21	2.35	-45.8	-59.2	3.5	1.52e+00	0	33	104	0	60	31988
2026-01-05 22:19:01.61	108.16	2.40	-45.8	-59.1	3.5	1.51e+00	0	33	104	0	60	31710
2026-01-05 22:19:02.59	108.10	2.46	-45.8	-59.0	3.5	1.51e+00	0	33	104	0	60	31446
2026-01-05 22:19:03.56	108.05	2.52	-45.8	-59.1	3.5	1.52e+00	0	33	104	0	60	31723
2026-01-05 22:19:04.54	108.00	2.58	-45.8	-59.0	3.5	1.52e+00	0	33	104	0	60	31278
2026-01-05 22:19:05.52	107.95	2.64	-45.8	-59.0	3.5	1.52e+00	0	33	104	0	60	31272
2026-01-05 22:19:06.49	107.89	2.70	-45.8	-58.8	3.5	1.52e+00	0	33	104	0	60	30664
2026-01-05 22:19:07.47	107.84	2.76	-45.8	-58.8	3.5	1.51e+00	0	33	104	0	60	30673
2026-01-05 22:19:08.45	107.79	2.82	-45.8	-58.9	3.5	1.52e+00	0	33	104	0	60	30940
2026-01-05 22:19:09.43	107.73	2.88	-45.8	-58.8	3.5	1.52e+00	0	33	104	0	60	30488
2026-01-05 22:19:10.40	107.68	2.94	-45.8	-58.5	3.5	1.51e+00	0	33	104	0	60	29640
2026-01-05 22:19:11.38	107.63	3.00	-45.7	-58.2	3.5	1.52e+00	0	33	104	0	60	28559
2026-01-05 22:19:12.36	107.57	3.06	-45.7	-57.7	3.5	1.51e+00	0	33	104	0	60	27057
2026-01-05 22:19:13.34	107.52	3.12	-45.6	-57.2	3.7	1.50e+00	0	33	104	0	60	25430
2026-01-05 22:19:14.31	107.46	3.18	-45.6	-56.9	3.6	1.51e+00	0	33	104	0	60	24588
2026-01-05 22:19:15.29	107.41	3.24	-45.6	-57.2	3.6	1.55e+00	0	33	104	0	60	25448
2026-01-05 22:19:16.27	107.35	3.30	-45.6	-57.6	3.5	1.51e+00	0	33	104	0	60	26481
2026-01-05 22:19:17.24	107.30	3.36	-45.7	-56.9	3.8	1.51e+00	0	33	104	0	60	24614
2026-01-05 22:19:18.22	107.24	3.42	-45.4	-54.9	4.6	1.13e+00	0	33	104	0	60	19505
2026-01-05 22:19:19.20	107.18	3.48	-44.8	-51.6	7.0	1.47e+00	0	33	104	0	60	13413
2026-01-05 22:19:20.17	107.13	3.54	-44.3	-49.3	8.8	4.41e-02	0	33	0	1048576	60	10184
2026-01-05 22:19:21.15	107.07	3.60	-43.0	-46.5	11.8	1.26e-03	0	33	0	4194304	60	7416
2026-01-05 22:19:22.13	107.02	3.66	-46.2	-56.9	3.9	8.79e-01	0	33	104	6291456	60	24423
2026-01-05 22:19:23.11	106.96	3.72	-46.6	-58.0	3.5	1.51e+00	0	33	104	6291456	60	27916
2026-01-05 22:19:24.08	106.90	3.78	-41.3	-44.1	13.9	5.75e-01	0	33	104	6291456	56	7087
2026-01-05 22:19:25.06	106.84	3.85	-38.4	-40.0	18.5	0.00e+00	0	33	0	7340032	50	6266
2026-01-05 22:19:26.03	106.79	3.91	-45.3	-57.8	3.5	6.63e-01	0	33	104	10485760	60	27121
2026-01-05 22:19:27.01	106.73	3.97	-41.9	-45.0	4.9	1.50e+00	0	33	104	10485760	60	6218
2026-01-05 22:19:27.99	106.67	4.03	-38.9	-40.6	17.9	0.00e+00	0	33	0	10485760	50	6716
2026-01-05 22:19:28.97	106.61	4.09	-39.1	-40.8	17.9	0.00e+00	0	33	0	13631488	50	6851
2026-01-05 22:19:29.95	106.55	4.15	-38.9	-40.5	18.2	0.00e+00	0	33	0	16777216	50	6605
2026-01-05 22:19:30.92	106.49	4.21	-38.5	-40.0	18.9	0.00e+00	0	33	0	19922944	50	6223
2026-01-05 22:19:31.90	106.43	4.28	-37.9	-39.2	19.6	0.00e+00	0	33	0	23068672	50	5725
2026-01-05 22:19:32.88	106.38	4.34	-38.1	-39.4	19.4	0.00e+00	0	33	0	25165824	50	5832
2026-01-05 22:19:33.86	106.32	4.40	-37.6	-38.9	20.1	0.00e+00	0	33	0	28311552	50	5476
2026-01-05 22:19:34.83	106.26	4.46	-37.3	-38.5	20.4	0.00e+00	0	33	0	31457280	48	5892
2026-01-05 22:19:35.81	106.19	4.53	-37.4	-38.6	20.4	0.00e+00	0	34	0	34603008	48	5982
2026-01-05 22:19:36.79	106.13	4.59	-37.6	-38.8	20.2	0.00e+00	0	34	0	37748736	48	6078
2026-01-05 22:19:37.76	106.07	4.65	-37.2	-38.4	20.6	0.00e+00	0	34	0	40894464	48	5797
2026-01-05 22:19:38.74	106.01	4.71	-37.3	-38.4	20.6	0.00e+00	0	34	0	44040192	48	5855
2026-01-05 22:19:39.72	105.95	4.78	-37.1	-38.2	20.7	0.00e+00	0	34	0	47185920	48	5705
2026-01-05 22:19:40.70	105.89	4.84	-37.0	-38.2	21.0	0.00e+00	0	34	0	50331648	48	5673
2026-01-05 22:19:41.67	105.83	4.90	-37.0	-38.2	20.8	0.00e+00	0	34	0	53477376	48	5689
2026-01-05 22:19:42.65	105.77	4.97	-37.1	-38.3	20.7	0.00e+00	0	34	0	56623104	48	5742
2026-01-05 22:19:43.63	105.70	5.03	-37.0	-38.1	20.9	0.00e+00	0	34	0	59768832	46	6313
2026-01-05 22:19:44.61	105.64	5.09	-36.7	-37.8	21.1	0.00e+00	0	34	0	61865984	46	6126
2026-01-05 22:19:45.58	105.58	5.16	-36.7	-37.8	21.2	0.00e+00	0	34	0	65011712	46	6096
2026-01-05 22:19:46.56	105.51	5.22	-36.8	-38.0	21.1	0.00e+00	0	34	0	68157440	46	6209
2026-01-05 22:19:47.54	105.45	5.28	-36.9	-38.0	21.0	0.00e+00	0	34	0	71303168	46	6248
2026-01-05 22:19:48.52	105.39	5.35	-36.6	-37.7	21.2	0.00e+00	0	34	0	74448896	46	6060
2026-01-05 22:19:49.49	105.32	5.41	-36.8	-37.9	21.1	0.00e+00	0	34	0	77594624	46	6200
2026-01-05 22:19:50.46	105.26	5.48	-36.6	-37.7	21.3	0.00e+00	0	34	0	80740352	46	6029
2026-01-05 22:19:51.44	105.19	5.54	-36.6	-37.7	21.3	0.00e+00	0	34	0	83886080	46	6049
2026-01-05 22:19:52.42	105.13	5.61	-36.7	-37.8	21.2	0.00e+00	0	33	0	87031808	46	6130
2026-01-05 22:19:53.40	105.06	5.67	-36.8	-37.9	21.1	0.00e+00	0	33	0	90177536	46	6181
2026-01-05 22:19:54.38	105.00	5.74	-37.0	-38.1	21.2	0.00e+00	0	34	0	92274688	46	6325
2026-01-05 22:19:55.36	104.93	5.80	-36.7	-37.8	21.3	0.00e+00	0	34	0	95420416	46	6066
2026-01-05 22:19:56.34	104.86	5.87	-36.4	-37.5	21.4	0.00e+00	0	34	0	98566144	46	5897
2026-01-05 22:19:57.32	104.80	5.93	-36.8	-37.9	21.1	0.00e+00	0	33	0	101711872	46	6185
2026-01-05 22:19:58.29	104.73	6.00	-36.5	-37.6	21.5	0.00e+00	0	34	0	104857600	46	5948
2026-01-05 22:19:59.26	104.66	6.06	-36.4	-37.5	21.6	0.00e+00	0	34	0	108003328	46	5903
2026-01-05 22:20:00.24	104.59	6.13	-36.6	-37.7	21.5	0.00e+00	0	34	0	111149056	46	6002
2026-01-05 22:20:01.22	104.53	6.19	-36.5	-37.6	21.6	0.00e+00	0	34	0	114294784	46	5952
2026-01-05 22:20:02.20	104.46	6.26	-36.8	-37.9	21.3	0.00e+00	0	34	0	117440512	46	6184
2026-01-05 22:20:03.18	104.39	6.32	-36.6	-37.7	21.4	0.00e+00	0	34	0	120586240	46	6029
2026-01-05 22:20:04.15	104.32	6.39	-36.6	-37.7	21.5	0.00e+00	0	34	0	123731968	46	6013
2026-01-05 22:20:05.13	104.25	6.46	-36.3	-37.3	21.8	0.00e+00	0	34	0	126877696	46	5786
2026-01-05 22:20:06.11	104.18	6.52	-36.4	-37.4	21.7	0.00e+00	0	34	0	128974848	46	5844
2026-01-05 22:20:07.09	104.11	6.59	-36.4	-37.4	21.7	0.00e+00	0	34	0	132120576	46	5827
2026-01-05 22:20:08.06	104.04	6.65	-36.2	-37.3	21.9	0.00e+00	0	34	0	135266304	46	5747
2026-01-05 22:20:09.04	103.97	6.72	-36.3	-37.3	22.0	0.00e+00	0	34	0	138412032	46	5773
2026-01-05 22:20:10.01	103.90	6.79	-36.2	-37.2	22.0	0.00e+00	0	34	0	141557760	46	5694
2026-01-05 22:20:10.99	103.83	6.85	-36.2	-37.2	22.0	0.00e+00	0	33	0	144703488	46	5725
2026-01-05 22:20:11.97	103.76	6.92	-36.1	-37.2	22.0	0.00e+00	0	34	0	147849216	46	5660
2026-01-05 22:20:12.94	103.69	6.99	-36.2	-37.2	22.1	0.00e+00	0	34	0	150994944	46	5708
2026-01-05 22:20:13.92	103.61	7.06	-36.0	-37.1	22.1	0.00e+00	0	34	0	154140672	46	5599
2026-01-05 22:20:14.90	103.54	7.12	-36.1	-37.1	22.2	0.00e+00	0	34	0	157286400	46	5608
2026-01-05 22:20:15.87	103.47	7.19	-36.0	-37.0	22.2	0.00e+00	0	34	0	159383552	46	5545
2026-01-05 22:20:16.85	103.40	7.26	-36.0	-37.0	22.1	0.00e+00	0	34	0	162529280	46	5564
2026-01-05 22:20:17.83	103.32	7.33	-35.9	-36.9	22.3	0.00e+00	0	34	0	165675008	46	5498
2026-01-05 22:20:18.81	103.25	7.39	-35.8	-36.9	22.3	0.00e+00	0	34	0	168820736	46	5468
2026-01-05 22:20:19.79	103.17	7.46	-35.7	-36.8	22.3	0.00e+00	0	34	0	171966464	46	5405
2026-01-05 22:20:20.77	103.10	7.53	-35.8	-36.9	22.2	0.00e+00	0	34	0	175112192	44	6153
2026-01-05 22:20:21.75	103.02	7.60	-35.9	-37.0	22.1	0.00e+00	0	34	0	178257920	44	6226
2026-01-05 22:20:22.72	102.95	7.67	-35.9	-36.9	22.2	0.00e+00	0	34	0	181403648	44	6169
2026-01-05 22:20:23.70	102.87	7.74	-36.0	-37.0	22.1	0.00e+00	0	34	0	184549376	44	6276
2026-01-05 22:20:24.68	102.79	7.81	-35.9	-37.0	22.1	0.00e+00	0	34	0	187695104	44	6217
2026-01-05 22:20:25.65	102.72	7.87	-35.7	-36.7	22.3	0.00e+00	0	34	0	190840832	44	6038
2026-01-05 22:20:26.63	102.64	7.94	-35.8	-36.8	22.3	0.00e+00	0	34	0	193986560	44	6128
2026-01-05 22:20:27.61	102.56	8.01	-35.6	-36.6	22.4	0.00e+00	0	34	0	197132288	44	5970
2026-01-05 22:20:28.58	102.49	8.08	-35.7	-36.8	22.3	0.00e+00	0	34	0	199229440	44	6087
2026-01-05 22:20:29.56	102.41	8.15	-35.8	-36.8	22.3	0.00e+00	0	34	0	202375168	44	6127
2026-01-05 22:20:30.53	102.33	8.22	-35.7	-36.8	22.4	0.00e+00	0	34	0	205520896	44	6083
2026-01-05 22:20:31.52	102.25	8.29	-35.7	-36.8	22.4	0.00e+00	0	34	0	208666624	44	6077
2026-01-05 22:20:32.50	102.17	8.36	-35.7	-36.8	22.4	0.00e+00	0	34	0	211812352	44	6068
2026-01-05 22:20:33.48	102.09	8.43	-35.6	-36.7	22.5	0.00e+00	0	34	0	214958080	44	5995
2026-01-05 22:20:34.45	102.01	8.50	-35.4	-36.4	22.7	0.00e+00	0	34	0	218103808	44	5849
2026-01-05 22:20:35.42	101.93	8.57	-35.6	-36.6	22.6	0.00e+00	0	34	0	221249536	44	5953
2026-01-05 22:20:36.40	101.85	8.64	-35.6	-36.6	22.5	0.00e+00	0	34	0	224395264	44	5993
2026-01-05 22:20:37.38	101.77	8.71	-35.7	-36.6	22.5	0.00e+00	0	34	0	227540992	44	5994
2026-01-05 22:20:38.35	101.69	8.78	-35.6	-36.6	22.6	0.00e+00	0	34	0	230686720	44	5960
2026-01-05 22:20:39.33	101.61	8.85	-35.7	-36.7	22.5	0.00e+00	0	34	0	233832448	44	6058
2026-01-05 22:20:40.31	101.52	8.92	-35.8	-36.8	22.5	0.00e+00	0	34	0	235929600	44	6075
2026-01-05 22:20:41.28	101.44	9.00	-35.4	-36.3	22.9	0.00e+00	0	34	0	239075328	44	5780
2026-01-05 22:20:42.26	101.36	9.07	-35.3	-36.3	22.8	0.00e+00	0	34	0	242221056	44	5763
2026-01-05 22:20:43.23	101.27	9.14	-35.2	-36.2	23.0	0.00e+00	0	34	0	245366784	44	5667
2026-01-05 22:20:44.22	101.19	9.21	-35.3	-36.3	22.9	0.00e+00	0	34	0	248512512	44	5754
2026-01-05 22:20:45.19	101.11	9.28	-35.3	-36.3	22.8	0.00e+00	0	34	0	251658240	44	5730
2026-01-05 22:20:46.17	101.02	9.35	-35.2	-36.1	23.0	0.00e+00	0	34	0	254803968	44	5658
2026-01-05 22:20:47.15	100.93	9.43	-35.3	-36.3	22.9	0.00e+00	0	34	0	257949696	44	5727
2026-01-05 22:20:48.13	100.85	9.50	-35.3	-36.3	22.9	0.00e+00	0	34	0	261095424	44	5728
2026-01-05 22:20:49.10	100.76	9.57	-35.2	-36.2	23.0	0.00e+00	0	34	0	264241152	44	5674
2026-01-05 22:20:50.08	100.68	9.64	-35.3	-36.3	22.8	0.00e+00	0	34	0	267386880	44	5767
2026-01-05 22:20:51.06	100.59	9.72	-35.2	-36.1	22.9	0.00e+00	0	34	0	269484032	44	5638
2026-01-05 22:20:52.04	100.50	9.79	-35.2	-36.2	23.0	0.00e+00	0	34	0	272629760	44	5687
2026-01-05 22:20:53.02	100.41	9.86	-35.2	-36.2	22.9	0.00e+00	0	34	0	275775488	44	5697
2026-01-05 22:20:53.99	100.32	9.93	-35.1	-36.1	23.0	0.00e+00	0	34	0	278921216	44	5621
2026-01-05 22:20:54.97	100.23	10.01	-35.1	-36.0	23.0	0.00e+00	0	34	0	282066944	44	5584
2026-01-05 22:20:55.95	100.14	10.08	-35.0	-36.0	23.1	0.00e+00	0	34	0	285212672	44	5534
2026-01-05 22:20:56.93	100.05	10.15	-35.2	-36.1	23.0	0.00e+00	0	34	0	288358400	44	5632
2026-01-05 22:20:57.90	99.96	10.23	-35.0	-35.9	23.1	0.00e+00	0	34	0	291504128	44	5524
2026-01-05 22:20:58.88	99.87	10.30	-35.1	-36.0	23.1	0.00e+00	0	34	0	294649856	44	5576
2026-01-05 22:20:59.86	99.78	10.38	-34.9	-35.9	23.2	0.00e+00	0	34	0	297795584	44	5494
2026-01-05 22:21:00.84	99.69	10.45	-34.9	-35.9	23.3	0.00e+00	0	34	0	300941312	44	5471
2026-01-05 22:21:01.82	99.60	10.52	-34.9	-35.9	23.1	0.00e+00	0	34	0	303038464	44	5501
2026-01-05 22:21:02.80	99.50	10.60	-35.0	-36.0	23.2	0.00e+00	0	34	0	306184192	44	5551
2026-01-05 22:21:03.78	99.41	10.67	-34.9	-35.8	23.3	0.00e+00	0	34	0	309329920	44	5467
2026-01-05 22:21:04.76	99.32	10.75	-35.0	-35.9	23.2	0.00e+00	0	34	0	312475648	44	5512
2026-01-05 22:21:05.73	99.22	10.82	-35.0	-36.0	23.1	0.00e+00	0	34	0	315621376	44	5542
2026-01-05 22:21:06.71	99.13	10.90	-35.2	-36.1	23.1	0.00e+00	0	34	0	318767104	44	5655
2026-01-05 22:21:07.68	99.03	10.97	-35.0	-36.0	23.2	0.00e+00	0	34	0	321912832	44	5558
2026-01-05 22:21:08.66	98.94	11.05	-34.9	-35.9	23.3	0.00e+00	0	34	0	325058560	44	5471
2026-01-05 22:21:09.64	98.84	11.12	-34.7	-35.7	23.5	0.00e+00	0	34	0	328204288	42	6028
2026-01-05 22:21:10.61	98.74	11.20	-34.8	-35.7	23.5	0.00e+00	0	34	0	331350016	42	6043
2026-01-05 22:21:11.59	98.65	11.28	-35.0	-35.9	23.3	0.00e+00	0	34	0	334495744	42	6192
2026-01-05 22:21:12.56	98.55	11.35	-34.6	-35.5	23.6	0.00e+00	0	34	0	336592896	42	5917
2026-01-05 22:21:13.53	98.45	11.43	-34.6	-35.5	23.6	0.00e+00	0	34	0	339738624	42	5898
2026-01-05 22:21:14.50	98.35	11.50	-34.7	-35.6	23.6	0.00e+00	0	34	0	342884352	42	5971
2026-01-05 22:21:15.48	98.25	11.58	-34.5	-35.4	23.8	0.00e+00	0	34	0	346030080	42	5838
2026-01-05 22:21:16.46	98.15	11.65	-34.5	-35.4	23.7	0.00e+00	0	34	0	349175808	42	5828
2026-01-05 22:21:17.44	98.05	11.73	-34.5	-35.5	23.7	0.00e+00	0	34	0	352321536	42	5864
2026-01-05 22:21:18.42	97.95	11.81	-34.6	-35.5	23.6	0.00e+00	0	34	0	355467264	42	5918
2026-01-05 22:21:19.40	97.85	11.89	-34.5	-35.4	23.7	0.00e+00	0	34	0	358612992	42	5825
2026-01-05 22:21:20.37	97.75	11.96	-34.4	-35.3	23.8	0.00e+00	0	34	0	361758720	42	5755
2026-01-05 22:21:21.35	97.65	12.04	-34.4	-35.3	23.8	0.00e+00	0	34	0	364904448	42	5774
2026-01-05 22:21:22.33	97.54	12.12	-34.4	-35.3	23.8	0.00e+00	0	34	0	368050176	42	5756
2026-01-05 22:21:23.30	97.44	12.19	-34.5	-35.5	23.7	0.00e+00	0	34	0	371195904	42	5872
2026-01-05 22:21:24.28	97.34	12.27	-34.3	-35.2	23.9	0.00e+00	0	34	0	373293056	42	5688
2026-01-05 22:21:25.26	97.23	12.35	-34.4	-35.3	23.8	0.00e+00	0	34	0	376438784	42	5757
2026-01-05 22:21:26.23	97.13	12.43	-34.5	-35.4	23.7	0.00e+00	0	34	0	379584512	42	5829
2026-01-05 22:21:27.21	97.02	12.51	-34.4	-35.3	23.9	0.00e+00	0	34	0	382730240	42	5751
2026-01-05 22:21:28.19	96.91	12.58	-34.2	-35.1	24.0	0.00e+00	0	34	0	385875968	42	5619
2026-01-05 22:21:29.17	96.80	12.66	-34.2	-35.1	24.0	0.00e+00	0	34	0	389021696	42	5650
2026-01-05 22:21:30.14	96.70	12.74	-34.0	-35.0	24.1	0.00e+00	0	34	0	392167424	42	5540
2026-01-05 22:21:31.12	96.59	12.82	-34.0	-34.9	24.1	0.00e+00	0	34	0	395313152	42	5496
2026-01-05 22:21:32.10	96.48	12.90	-34.0	-34.9	24.1	0.00e+00	0	34	0	398458880	42	5519
2026-01-05 22:21:33.07	96.37	12.98	-34.1	-35.0	24.1	0.00e+00	0	34	0	401604608	42	5540
2026-01-05 22:21:34.05	96.26	13.06	-34.2	-35.1	24.0	0.00e+00	0	34	0	404750336	42	5631
2026-01-05 22:21:35.03	96.15	13.14	-34.3	-35.2	23.9	0.00e+00	0	34	0	406847488	42	5678
2026-01-05 22:21:36.00	96.04	13.22	-34.0	-34.9	24.1	0.00e+00	0	34	0	409993216	42	5501
2026-01-05 22:21:36.98	95.93	13.30	-34.1	-35.0	24.1	0.00e+00	0	34	0	413138944	42	5545
2026-01-05 22:21:37.96	95.81	13.38	-34.0	-34.9	24.1	0.00e+00	0	34	0	416284672	42	5479
2026-01-05 22:21:38.93	95.70	13.46	-34.0	-34.9	24.1	0.00e+00	0	34	0	419430400	42	5524
2026-01-05 22:21:39.91	95.59	13.54	-34.0	-34.9	24.1	0.00e+00	0	34	0	422576128	42	5513
2026-01-05 22:21:40.89	95.47	13.62	-34.0	-34.9	24.2	0.00e+00	0	34	0	425721856	42	5494
2026-01-05 22:21:41.87	95.36	13.70	-34.1	-35.0	24.2	0.00e+00	0	34	0	428867584	42	5563
2026-01-05 22:21:42.84	95.24	13.78	-33.9	-34.8	24.3	0.00e+00	0	34	0	432013312	42	5448
2026-01-05 22:21:43.82	95.13	13.86	-33.9	-34.8	24.3	0.00e+00	0	34	0	435159040	42	5460
2026-01-05 22:21:44.80	95.01	13.94	-33.9	-34.8	24.3	0.00e+00	0	34	0	438304768	42	5407
2026-01-05 22:21:45.78	94.89	14.02	-33.9	-34.8	24.3	0.00e+00	0	34	0	440401920	42	5428
2026-01-05 22:21:46.75	94.77	14.10	-33.8	-34.7	24.3	0.00e+00	0	34	0	443547648	42	5344
2026-01-05 22:21:47.73	94.65	14.18	-34.0	-34.9	24.3	0.00e+00	0	34	0	446693376	42	5475
2026-01-05 22:21:48.70	94.53	14.26	-34.0	-34.9	24.3	0.00e+00	0	34	0	449839104	42	5514
2026-01-05 22:21:49.68	94.41	14.35	-33.9	-34.8	24.2	0.00e+00	0	34	0	452984832	42	5459
2026-01-05 22:21:50.66	94.29	14.43	-34.1	-35.0	24.2	0.00e+00	0	34	0	456130560	42	5563
2026-01-05 22:21:51.64	94.17	14.51	-34.3	-35.3	23.9	0.00e+00	0	34	0	459276288	42	5736
2026-01-05 22:21:52.61	94.05	14.59	-34.1	-35.0	24.1	0.00e+00	0	34	0	462422016	42	5557
2026-01-05 22:21:53.58	93.93	14.67	-34.2	-35.1	23.9	0.00e+00	0	34	0	465567744	42	5654
2026-01-05 22:21:54.56	93.80	14.75	-34.1	-35.0	24.1	0.00e+00	0	34	0	468713472	42	5575
2026-01-05 22:21:55.54	93.68	14.84	-34.2	-35.1	24.0	0.00e+00	0	34	0	471859200	42	5651
2026-01-05 22:21:56.52	93.55	14.92	-34.1	-35.0	24.2	0.00e+00	0	34	0	473956352	42	5540
2026-01-05 22:21:57.50	93.43	15.00	-34.3	-35.2	24.1	0.00e+00	0	34	0	477102080	42	5676
2026-01-05 22:21:58.48	93.30	15.09	-34.2	-35.1	24.1	0.00e+00	0	34	0	480247808	42	5631
2026-01-05 22:21:59.45	93.17	15.17	-34.1	-35.0	24.2	0.00e+00	0	34	0	483393536	42	5566
2026-01-05 22:22:00.43	93.04	15.25	-34.1	-35.0	24.2	0.00e+00	0	34	0	486539264	42	5547
2026-01-05 22:22:01.40	92.92	15.33	-34.1	-35.0	24.2	0.00e+00	0	34	0	489684992	42	5582
2026-01-05 22:22:02.38	92.79	15.42	-34.2	-35.1	24.1	0.00e+00	0	34	0	492830720	42	5618
2026-01-05 22:22:03.36	92.66	15.50	-34.0	-34.9	24.3	0.00e+00	0	34	0	495976448	42	5511
2026-01-05 22:22:04.34	92.52	15.59	-34.1	-35.0	24.1	0.00e+00	0	34	0	499122176	42	5582
2026-01-05 22:22:05.32	92.39	15.67	-34.0	-34.9	24.2	0.00e+00	0	34	0	502267904	42	5513
2026-01-05 22:22:06.30	92.26	15.75	-34.3	-35.2	24.1	0.00e+00	0	34	0	505413632	42	5678
2026-01-05 22:22:07.27	92.13	15.84	-34.0	-34.9	24.2	0.00e+00	0	34	0	507510784	42	5508
2026-01-05 22:22:08.25	91.99	15.92	-34.1	-35.0	24.1	0.00e+00	0	34	0	510656512	42	5564
2026-01-05 22:22:09.23	91.86	16.01	-34.2	-35.1	24.0	0.00e+00	0	34	0	513802240	42	5635
2026-01-05 22:22:10.21	91.72	16.09	-34.3	-35.2	23.9	0.00e+00	0	34	0	516947968	42	5724
2026-01-05 22:22:11.18	91.59	16.18	-34.4	-35.3	24.0	0.00e+00	0	34	0	520093696	42	5784
2026-01-05 22:22:12.16	91.45	16.26	-34.2	-35.1	24.0	0.00e+00	0	34	0	523239424	42	5632
2026-01-05 22:22:13.13	91.31	16.35	-34.3	-35.2	24.0	0.00e+00	0	34	0	526385152	42	5695
2026-01-05 22:22:14.11	91.17	16.43	-34.2	-35.1	24.1	0.00e+00	0	34	0	529530880	42	5646
2026-01-05 22:22:15.09	91.03	16.52	-34.3	-35.2	24.0	0.00e+00	0	34	0	532676608	42	5719
2026-01-05 22:22:16.07	90.89	16.60	-34.4	-35.3	24.0	0.00e+00	0	34	0	535822336	42	5762
2026-01-05 22:22:17.05	90.75	16.69	-34.3	-35.2	24.1	0.00e+00	0	34	0	538968064	42	5681
2026-01-05 22:22:18.02	90.61	16.77	-34.3	-35.2	24.0	0.00e+00	0	34	0	542113792	42	5694
2026-01-05 22:22:19.00	90.47	16.86	-34.0	-34.9	24.3	0.00e+00	0	34	0	545259520	42	5498
2026-01-05 22:22:19.98	90.32	16.94	-34.0	-34.9	24.1	0.00e+00	0	34	0	547356672	42	5477
2026-01-05 22:22:20.96	90.18	17.03	-34.1	-35.0	24.1	0.00e+00	0	34	0	550502400	42	5571
2026-01-05 22:22:21.93	90.03	17.11	-34.1	-35.0	24.2	0.00e+00	0	34	0	553648128	42	5564
2026-01-05 22:22:22.91	89.89	17.20	-34.0	-34.9	24.1	0.00e+00	0	34	0	556793856	42	5507
2026-01-05 22:22:23.89	89.74	17.29	-34.2	-35.1	24.0	0.00e+00	0	34	0	559939584	42	5617
2026-01-05 22:22:24.87	89.59	17.37	-34.1	-35.0	24.1	0.00e+00	0	34	0	563085312	42	5583
2026-01-05 22:22:25.85	89.44	17.46	-34.2	-35.1	24.1	0.00e+00	0	34	0	566231040	42	5605
2026-01-05 22:22:26.82	89.29	17.55	-34.1	-35.0	24.2	0.00e+00	0	34	0	569376768	42	5567
2026-01-05 22:22:27.80	89.14	17.63	-34.1	-35.0	24.2	0.00e+00	0	34	0	572522496	42	5585
2026-01-05 22:22:28.78	88.99	17.72	-34.1	-35.0	24.2	0.00e+00	0	34	0	575668224	42	5574
2026-01-05 22:22:29.75	88.84	17.81	-34.2	-35.1	24.1	0.00e+00	0	34	0	578813952	42	5615
2026-01-05 22:22:30.73	88.69	17.89	-34.2	-35.1	24.1	0.00e+00	0	34	0	580911104	42	5617
2026-01-05 22:22:31.70	88.53	17.98	-34.2	-35.1	24.2	0.00e+00	0	34	0	584056832	42	5611
2026-01-05 22:22:32.68	88.38	18.07	-34.0	-34.9	24.3	0.00e+00	0	34	0	587202560	42	5514
2026-01-05 22:22:33.66	88.22	18.15	-34.0	-34.8	24.3	0.00e+00	0	34	0	590348288	42	5453
2026-01-05 22:22:34.64	88.06	18.24	-34.1	-35.0	24.3	0.00e+00	0	34	0	593494016	42	5536
2026-01-05 22:22:35.62	87.91	18.33	-33.9	-34.8	24.4	0.00e+00	0	34	0	596639744	42	5434
2026-01-05 22:22:36.59	87.75	18.42	-34.1	-35.0	24.2	0.00e+00	0	34	0	599785472	42	5543
2026-01-05 22:22:37.57	87.59	18.50	-34.1	-35.0	24.2	0.00e+00	0	34	0	602931200	42	5544
2026-01-05 22:22:38.55	87.43	18.59	-34.1	-35.1	24.2	0.00e+00	0	34	0	606076928	42	5596
2026-01-05 22:22:39.53	87.27	18.68	-34.3	-35.2	24.0	0.00e+00	0	34	0	609222656	42	5700
2026-01-05 22:22:40.50	87.11	18.77	-34.3	-35.2	24.1	0.00e+00	0	34	0	612368384	42	5689
2026-01-05 22:22:41.48	86.94	18.85	-34.2	-35.1	24.2	0.00e+00	0	34	0	614465536	42	5601
2026-01-05 22:22:42.45	86.78	18.94	-34.1	-34.9	24.4	0.00e+00	0	34	0	617611264	42	5524
2026-01-05 22:22:43.43	86.61	19.03	-34.0	-34.9	24.3	0.00e+00	0	34	0	620756992	42	5480
2026-01-05 22:22:44.41	86.45	19.12	-33.9	-34.8	24.4	0.00e+00	0	34	0	623902720	42	5447
2026-01-05 22:22:45.38	86.28	19.20	-33.9	-34.8	24.3	0.00e+00	0	34	0	627048448	42	5428
2026-01-05 22:22:46.36	86.11	19.29	-33.9	-34.8	24.4	0.00e+00	0	34	0	630194176	42	5427
2026-01-05 22:22:47.34	85.94	19.38	-33.7	-34.5	24.4	0.00e+00	0	34	0	633339904	40	5925
2026-01-05 22:22:48.31	85.77	19.47	-33.8	-34.7	24.4	0.00e+00	0	34	0	636485632	40	6002
2026-01-05 22:22:49.29	85.60	19.56	-33.9	-34.8	24.3	0.00e+00	0	34	0	639631360	40	6066
2026-01-05 22:22:50.26	85.43	19.64	-33.8	-34.6	24.5	0.00e+00	0	34	0	642777088	40	5990
2026-01-05 22:22:51.24	85.26	19.73	-33.7	-34.6	24.4	0.00e+00	0	34	0	645922816	40	5989
2026-01-05 22:22:52.22	85.08	19.82	-33.8	-34.7	24.3	0.00e+00	0	34	0	648019968	40	6009
2026-01-05 22:22:53.20	84.91	19.91	-33.8	-34.7	24.4	0.00e+00	0	34	0	651165696	40	6014
2026-01-05 22:22:54.17	84.73	20.00	-33.7	-34.6	24.5	0.00e+00	0	34	0	654311424	40	5950
2026-01-05 22:22:55.15	84.56	20.09	-33.7	-34.6	24.5	0.00e+00	0	34	0	657457152	40	5931
2026-01-05 22:22:56.12	84.38	20.17	-33.7	-34.6	24.5	0.00e+00	0	34	0	660602880	40	5977
2026-01-05 22:22:57.10	84.20	20.26	-33.5	-34.4	24.7	0.00e+00	0	34	0	663748608	40	5806
2026-01-05 22:22:58.07	84.02	20.35	-33.6	-34.5	24.5	0.00e+00	0	34	0	666894336	40	5872
2026-01-05 22:22:59.05	83.84	20.44	-33.5	-34.4	24.6	0.00e+00	0	34	0	670040064	40	5816
2026-01-05 22:23:00.03	83.66	20.53	-33.6	-34.5	24.5	0.00e+00	0	34	0	673185792	40	5880
2026-01-05 22:23:01.00	83.48	20.62	-33.7	-34.7	24.5	0.00e+00	0	34	0	676331520	40	6000
2026-01-05 22:23:01.98	83.29	20.70	-33.8	-34.7	24.6	0.00e+00	0	34	0	679477248	40	6025
2026-01-05 22:23:02.96	83.10	20.79	-33.6	-34.5	24.7	0.00e+00	0	34	0	681574400	40	5865
2026-01-05 22:23:03.93	82.92	20.88	-33.5	-34.4	24.7	0.00e+00	0	34	0	684720128	40	5803
2026-01-05 22:23:04.91	82.73	20.97	-33.6	-34.5	24.7	0.00e+00	0	34	0	687865856	40	5864
2026-01-05 22:23:05.89	82.54	21.06	-33.4	-34.2	24.8	0.00e+00	0	34	0	691011584	40	5705
2026-01-05 22:23:06.87	82.35	21.15	-33.4	-34.3	24.6	0.00e+00	0	34	0	694157312	40	5757
2026-01-05 22:23:07.85	82.16	21.24	-33.4	-34.3	24.7	0.00e+00	0	34	0	697303040	40	5759
2026-01-05 22:23:08.83	81.97	21.32	-33.5	-34.3	24.6	0.00e+00	0	34	0	700448768	40	5788
2026-01-05 22:23:09.81	81.77	21.41	-33.3	-34.2	24.8	0.00e+00	0	34	0	703594496	40	5670
2026-01-05 22:23:10.78	81.58	21.50	-33.3	-34.2	24.9	0.00e+00	0	34	0	706740224	40	5675
2026-01-05 22:23:11.76	81.38	21.59	-33.4	-34.2	24.8	0.00e+00	0	34	0	709885952	40	5714
2026-01-05 22:23:12.74	81.19	21.68	-33.1	-34.0	25.0	0.00e+00	0	34	0	713031680	40	5569
2026-01-05 22:23:13.72	80.99	21.76	-33.2	-34.1	24.9	0.00e+00	0	34	0	716177408	40	5621
2026-01-05 22:23:14.70	80.79	21.85	-33.2	-34.1	24.9	0.00e+00	0	34	0	719323136	40	5602
2026-01-05 22:23:15.67	80.59	21.94	-33.2	-34.1	24.9	0.00e+00	0	34	0	721420288	40	5619
2026-01-05 22:23:16.65	80.39	22.03	-33.2	-34.1	24.8	0.00e+00	0	34	0	724566016	40	5626
2026-01-05 22:23:17.63	80.19	22.12	-33.4	-34.2	24.9	0.00e+00	0	34	0	727711744	40	5725
2026-01-05 22:23:18.61	79.98	22.20	-33.2	-34.1	24.9	0.00e+00	0	34	0	730857472	40	5641
2026-01-05 22:23:19.59	79.78	22.29	-33.3	-34.1	24.9	0.00e+00	0	34	0	734003200	40	5654
2026-01-05 22:23:20.57	79.57	22.38	-33.1	-34.0	25.1	0.00e+00	0	34	0	737148928	40	5553
2026-01-05 22:23:21.54	79.37	22.47	-33.2	-34.0	25.0	0.00e+00	0	34	0	740294656	40	5593
2026-01-05 22:23:22.52	79.16	22.55	-33.0	-33.9	25.1	0.00e+00	0	34	0	743440384	40	5502
2026-01-05 22:23:23.49	78.95	22.64	-33.0	-33.9	25.1	0.00e+00	0	34	0	746586112	40	5497
2026-01-05 22:23:24.47	78.74	22.73	-32.9	-33.8	25.1	0.00e+00	0	34	0	749731840	40	5430
2026-01-05 22:23:25.45	78.53	22.81	-33.0	-33.9	25.0	0.00e+00	0	34	0	752877568	40	5501
2026-01-05 22:23:26.42	78.32	22.90	-33.1	-34.0	24.9	0.00e+00	0	34	0	754974720	40	5576
2026-01-05 22:23:27.40	78.10	22.99	-33.1	-33.9	25.0	0.00e+00	0	34	0	758120448	40	5515
2026-01-05 22:23:28.37	77.89	23.07	-33.2	-34.1	24.9	0.00e+00	0	34	0	761266176	40	5632
2026-01-05 22:23:29.35	77.67	23.16	-33.0	-33.9	25.1	0.00e+00	0	34	0	764411904	40	5509
2026-01-05 22:23:30.33	77.45	23.25	-32.9	-33.7	25.2	0.00e+00	0	34	0	767557632	40	5401
2026-01-05 22:23:31.30	77.24	23.33	-32.9	-33.7	25.2	0.00e+00	0	34	0	770703360	40	5402
2026-01-05 22:23:32.28	77.02	23.42	-32.9	-33.7	25.2	0.00e+00	0	34	0	773849088	40	5386
2026-01-05 22:23:33.25	76.80	23.50	-33.1	-33.9	25.1	0.00e+00	0	34	0	776994816	40	5513
2026-01-05 22:23:34.23	76.57	23.59	-33.1	-33.9	25.1	0.00e+00	0	34	0	780140544	40	5515
2026-01-05 22:23:35.20	76.35	23.67	-32.9	-33.8	25.1	0.00e+00	0	34	0	783286272	40	5421
2026-01-05 22:23:36.18	76.12	23.76	-33.0	-33.8	25.0	0.00e+00	0	34	0	785383424	40	5459
2026-01-05 22:23:37.15	75.90	23.84	-33.0	-33.9	25.0	0.00e+00	0	34	0	788529152	40	5492
2026-01-05 22:23:38.13	75.67	23.93	-33.1	-33.9	24.9	0.00e+00	0	34	0	791674880	40	5525
2026-01-05 22:23:39.11	75.44	24.01	-33.1	-34.0	24.9	0.00e+00	0	34	0	794820608	40	5588
2026-01-05 22:23:40.09	75.21	24.10	-33.2	-34.1	24.9	0.00e+00	0	34	0	797966336	40	5640
2026-01-05 22:23:41.06	74.98	24.18	-33.1	-34.0	25.0	0.00e+00	0	34	0	801112064	40	5569
2026-01-05 22:23:42.04	74.75	24.26	-33.2	-34.1	24.9	0.00e+00	0	34	0	804257792	40	5647
2026-01-05 22:23:43.02	74.52	24.35	-33.2	-34.1	24.8	0.00e+00	0	34	0	807403520	40	5607
2026-01-05 22:23:44.00	74.28	24.43	-33.3	-34.2	24.7	0.00e+00	0	34	0	810549248	40	5701
2026-01-05 22:23:44.98	74.04	24.52	-33.4	-34.3	24.7	0.00e+00	0	34	0	813694976	40	5739
2026-01-05 22:23:45.96	73.81	24.60	-33.6	-34.5	24.7	0.00e+00	0	34	0	816840704	40	5872
2026-01-05 22:23:46.93	73.57	24.68	-33.5	-34.4	24.7	0.00e+00	0	34	0	819986432	40	5849
2026-01-05 22:23:47.91	73.33	24.76	-33.6	-34.5	24.6	0.00e+00	0	34	0	822083584	40	5891
2026-01-05 22:23:48.89	73.09	24.84	-33.7	-34.5	24.6	0.00e+00	0	34	0	825229312	40	5926
2026-01-05 22:23:49.87	72.84	24.93	-33.6	-34.5	24.6	0.00e+00	0	34	0	828375040	40	5874
2026-01-05 22:23:50.84	72.60	25.01	-33.6	-34.5	24.5	0.00e+00	0	34	0	831520768	40	5901
2026-01-05 22:23:51.82	72.36	25.09	-33.6	-34.5	24.6	0.00e+00	0	34	0	834666496	40	5862
2026-01-05 22:23:52.80	72.11	25.17	-33.7	-34.5	24.6	0.00e+00	0	34	0	837812224	40	5926
2026-01-05 22:23:53.77	71.86	25.25	-33.7	-34.6	24.6	0.00e+00	0	34	0	840957952	40	5940
2026-01-05 22:23:54.75	71.62	25.33	-33.7	-34.6	24.7	0.00e+00	0	34	0	844103680	40	5939
2026-01-05 22:23:55.73	71.36	25.41	-33.7	-34.5	24.7	0.00e+00	0	34	0	847249408	40	5923
2026-01-05 22:23:56.71	71.11	25.49	-33.5	-34.4	24.8	0.00e+00	0	34	0	850395136	40	5836
2026-01-05 22:23:57.69	70.86	25.57	-33.4	-34.3	24.9	0.00e+00	0	34	0	853540864	40	5735
2026-01-05 22:23:58.66	70.61	25.64	-33.5	-34.4	24.6	0.00e+00	0	34	0	855638016	40	5794
2026-01-05 22:23:59.64	70.35	25.72	-33.5	-34.4	24.6	0.00e+00	0	34	0	858783744	40	5813
2026-01-05 22:24:00.61	70.10	25.80	-33.6	-34.5	24.6	0.00e+00	0	34	0	861929472	40	5904
2026-01-05 22:24:01.59	69.84	25.88	-33.6	-34.5	24.7	0.00e+00	0	34	0	865075200	40	5865
2026-01-05 22:24:02.57	69.58	25.95	-33.6	-34.5	24.7	0.00e+00	0	34	0	868220928	40	5893
2026-01-05 22:24:03.54	69.32	26.03	-33.6	-34.5	24.6	0.00e+00	0	34	0	871366656	40	5889
2026-01-05 22:24:04.52	69.06	26.11	-33.6	-34.5	24.6	0.00e+00	0	34	0	874512384	40	5884
2026-01-05 22:24:05.50	68.80	26.18	-33.4	-34.3	24.7	0.00e+00	0	34	0	877658112	40	5753
2026-01-05 22:24:06.49	68.53	26.26	-33.6	-34.5	24.5	0.00e+00	0	34	0	880803840	40	5889
2026-01-05 22:24:07.46	68.27	26.33	-33.6	-34.5	24.6	0.00e+00	0	34	0	883949568	40	5889
2026-01-05 22:24:08.44	68.00	26.41	-33.8	-34.7	24.5	0.00e+00	0	34	0	887095296	40	6021
2026-01-05 22:24:09.42	67.73	26.48	-33.7	-34.6	24.6	0.00e+00	0	34	0	890241024	40	5976
2026-01-05 22:24:10.40	67.46	26.55	-33.9	-34.8	24.5	0.00e+00	0	34	0	893386752	40	6085
2026-01-05 22:24:11.38	67.19	26.63	-34.0	-34.9	24.4	0.00e+00	0	34	0	895483904	40	6158
2026-01-05 22:24:12.35	66.92	26.70	-33.8	-34.7	24.5	0.00e+00	0	34	0	898629632	40	6016
2026-01-05 22:24:13.32	66.65	26.77	-33.7	-34.6	24.7	0.00e+00	0	34	0	901775360	40	5981
2026-01-05 22:24:14.31	66.37	26.84	-33.8	-34.6	24.6	0.00e+00	0	34	0	904921088	40	5984
2026-01-05 22:24:15.28	66.10	26.91	-33.8	-34.6	24.6	0.00e+00	0	34	0	908066816	40	5993
2026-01-05 22:24:16.26	65.82	26.98	-33.7	-34.6	24.6	0.00e+00	0	34	0	911212544	40	5943
2026-01-05 22:24:17.23	65.55	27.05	-33.8	-34.7	24.5	0.00e+00	0	34	0	914358272	40	6007
2026-01-05 22:24:18.21	65.27	27.12	-33.7	-34.6	24.6	0.00e+00	0	34	0	917504000	40	5941
2026-01-05 22:24:19.19	64.99	27.19	-33.7	-34.6	24.6	0.00e+00	0	34	0	920649728	40	5931
2026-01-05 22:24:20.17	64.71	27.25	-33.5	-34.3	24.8	0.00e+00	0	34	0	923795456	40	5789
2026-01-05 22:24:21.15	64.42	27.32	-33.5	-34.4	24.7	0.00e+00	0	34	0	926941184	40	5807
2026-01-05 22:24:22.13	64.14	27.39	-33.4	-34.2	24.8	0.00e+00	0	34	0	930086912	40	5708
2026-01-05 22:24:23.11	63.85	27.45	-33.4	-34.3	24.8	0.00e+00	0	34	0	932184064	40	5739
2026-01-05 22:24:24.09	63.57	27.52	-33.5	-34.4	24.7	0.00e+00	0	34	0	935329792	40	5808
2026-01-05 22:24:25.07	63.28	27.58	-33.5	-34.4	24.7	0.00e+00	0	34	0	938475520	40	5831
2026-01-05 22:24:26.05	62.99	27.65	-33.5	-34.4	24.8	0.00e+00	0	34	0	941621248	40	5821
2026-01-05 22:24:27.03	62.70	27.71	-33.5	-34.4	24.7	0.00e+00	0	34	0	944766976	40	5838
2026-01-05 22:24:28.01	62.41	27.77	-33.4	-34.2	25.0	0.00e+00	0	34	0	947912704	40	5710
2026-01-05 22:24:28.98	62.12	27.84	-33.1	-34.0	25.0	0.00e+00	0	34	0	951058432	40	5557
2026-01-05 22:24:29.96	61.83	27.90	-33.2	-34.1	24.9	0.00e+00	0	34	0	954204160	40	5623
2026-01-05 22:24:30.94	61.53	27.96	-33.4	-34.2	24.7	0.00e+00	0	34	0	957349888	40	5718
2026-01-05 22:24:31.92	61.24	28.02	-33.4	-34.3	24.8	0.00e+00	0	34	0	960495616	40	5786
2026-01-05 22:24:32.90	60.94	28.08	-33.6	-34.5	24.8	0.00e+00	0	34	0	963641344	40	5861
2026-01-05 22:24:33.88	60.64	28.14	-33.4	-34.3	24.9	0.00e+00	0	34	0	965738496	40	5764
2026-01-05 22:24:34.86	60.34	28.19	-33.4	-34.3	24.9	0.00e+00	0	34	0	968884224	40	5752
2026-01-05 22:24:35.83	60.05	28.25	-33.5	-34.4	24.8	0.00e+00	0	34	0	972029952	40	5802
2026-01-05 22:24:36.81	59.75	28.31	-33.6	-34.4	24.8	0.00e+00	0	34	0	975175680	40	5837
2026-01-05 22:24:37.79	59.44	28.36	-33.6	-34.5	24.7	0.00e+00	0	34	0	978321408	40	5866
2026-01-05 22:24:38.77	59.14	28.42	-33.5	-34.4	24.8	0.00e+00	0	34	0	981467136	40	5821
2026-01-05 22:24:39.75	58.84	28.47	-33.6	-34.5	24.8	0.00e+00	0	34	0	984612864	40	5885
2026-01-05 22:24:40.73	58.53	28.52	-33.5	-34.3	24.9	0.00e+00	0	34	0	987758592	40	5777
2026-01-05 22:24:41.71	58.23	28.57	-33.5	-34.4	24.9	0.00e+00	0	34	0	990904320	40	5813
2026-01-05 22:24:42.69	57.92	28.63	-33.6	-34.5	24.7	0.00e+00	0	34	0	994050048	40	5900
2026-01-05 22:24:43.67	57.61	28.68	-33.4	-34.3	24.8	0.00e+00	0	34	0	997195776	40	5737
2026-01-05 22:24:44.65	57.30	28.73	-33.6	-34.5	24.7	0.00e+00	0	34	0	1000341504	40	5868
2026-01-05 22:24:45.63	56.99	28.78	-33.6	-34.5	24.6	0.00e+00	0	34	0	1003487232	40	5892
2026-01-05 22:24:46.61	56.68	28.82	-33.8	-34.7	24.6	0.00e+00	0	34	0	1005584384	40	6041
2026-01-05 22:24:47.59	56.37	28.87	-33.8	-34.6	24.6	0.00e+00	0	34	0	1008730112	40	5983
2026-01-05 22:24:48.57	56.05	28.92	-33.8	-34.7	24.6	0.00e+00	0	34	0	1011875840	40	6023
2026-01-05 22:24:49.55	55.74	28.96	-33.8	-34.7	24.6	0.00e+00	0	34	0	1015021568	40	6022
2026-01-05 22:24:50.53	55.43	29.01	-33.7	-34.6	24.6	0.00e+00	0	34	0	1018167296	40	5953
2026-01-05 22:24:51.51	55.11	29.05	-33.8	-34.7	24.5	0.00e+00	0	34	0	1021313024	40	6039
2026-01-05 22:24:52.49	54.79	29.09	-33.8	-34.7	24.6	0.00e+00	0	34	0	1024458752	40	6050
2026-01-05 22:24:53.48	54.47	29.13	-33.8	-34.7	24.6	0.00e+00	0	34	0	1027604480	40	6052
2026-01-05 22:24:54.46	54.16	29.18	-33.6	-34.5	24.8	0.00e+00	0	34	0	1030750208	40	5860
2026-01-05 22:24:55.45	53.83	29.22	-33.8	-34.6	24.7	0.00e+00	0	34	0	1033895936	40	5986
2026-01-05 22:24:56.44	53.51	29.26	-33.7	-34.6	24.7	0.00e+00	0	34	0	1037041664	40	5965
2026-01-05 22:24:57.42	53.19	29.29	-33.7	-34.6	24.7	0.00e+00	0	34	0	1040187392	40	5940
2026-01-05 22:24:58.41	52.87	29.33	-33.8	-34.6	24.7	0.00e+00	0	34	0	1043333120	40	5982
2026-01-05 22:24:59.39	52.54	29.37	-33.9	-34.7	24.6	0.00e+00	0	34	0	1046478848	40	6045
2026-01-05 22:25:00.37	52.22	29.40	-33.9	-34.8	24.5	0.00e+00	0	34	0	1048576000	40	6115
2026-01-05 22:25:01.35	51.90	29.44	-33.9	-34.8	24.6	0.00e+00	0	34	0	1051721728	40	6065
2026-01-05 22:25:02.34	51.57	29.47	-33.8	-34.7	24.4	0.00e+00	0	34	0	1054867456	40	6044
2026-01-05 22:25:03.32	51.25	29.50	-33.9	-34.8	24.3	0.00e+00	0	34	0	1058013184	40	6114
2026-01-05 22:25:04.29	50.93	29.53	-34.0	-34.9	24.3	0.00e+00	0	34	0	1061158912	40	6181
2026-01-05 22:25:05.29	50.59	29.56	-34.1	-35.0	24.2	0.00e+00	0	34	0	1064304640	40	6239
2026-01-05 22:25:06.28	50.26	29.59	-33.9	-34.8	24.3	0.00e+00	0	34	0	1067450368	40	6104
2026-01-05 22:25:07.28	49.93	29.62	-34.0	-34.9	24.3	0.00e+00	0	34	0	1070596096	40	6157
2026-01-05 22:25:08.29	49.59	29.65	-34.0	-34.9	24.3	0.00e+00	0	34	0	1073741824	40	6190
2026-01-05 22:25:09.30	49.25	29.68	-33.8	-34.7	24.6	0.00e+00	0	34	0	1076887552	40	6052
2026-01-05 22:25:10.31	48.91	29.70	-33.6	-34.5	24.6	0.00e+00	0	34	0	1080033280	40	5882
2026-01-05 22:25:11.31	48.58	29.73	-33.7	-34.6	24.6	0.00e+00	0	34	0	1083179008	40	5940
2026-01-05 22:25:12.32	48.24	29.75	-33.8	-34.7	24.6	0.00e+00	0	34	0	1086324736	40	6000
2026-01-05 22:25:13.33	47.90	29.77	-33.8	-34.7	24.6	0.00e+00	0	34	0	1089470464	40	6042
2026-01-05 22:25:14.34	47.56	29.79	-33.9	-34.8	24.5	0.00e+00	0	34	0	1092616192	40	6109
2026-01-05 22:25:15.34	47.22	29.81	-33.9	-34.8	24.5	0.00e+00	0	34	0	1095761920	40	6075
2026-01-05 22:25:16.34	46.88	29.83	-33.8	-34.7	24.5	0.00e+00	0	34	0	1098907648	40	6054
2026-01-05 22:25:17.34	46.54	29.85	-33.5	-34.4	24.8	0.00e+00	0	34	0	1102053376	40	5804
2026-01-05 22:25:18.34	46.21	29.87	-33.4	-34.3	24.8	0.00e+00	0	34	0	1105199104	40	5771
2026-01-05 22:25:19.34	45.87	29.88	-33.5	-34.3	24.8	0.00e+00	0	34	0	1108344832	40	5768
2026-01-05 22:25:20.34	45.53	29.89	-33.3	-34.2	25.0	0.00e+00	0	34	0	1111490560	40	5702
2026-01-05 22:25:21.33	45.19	29.91	-33.2	-34.1	25.1	0.00e+00	0	34	0	1114636288	40	5604
2026-01-05 22:25:22.33	44.85	29.92	-33.2	-34.1	25.0	0.00e+00	0	34	0	1117782016	40	5607
2026-01-05 22:25:23.32	44.51	29.93	-33.3	-34.2	24.9	0.00e+00	0	34	0	1120927744	40	5670
2026-01-05 22:25:24.32	44.17	29.94	-33.2	-34.1	25.0	0.00e+00	0	34	0	1124073472	40	5625
2026-01-05 22:25:25.32	43.83	29.95	-33.3	-34.2	24.8	0.00e+00	0	34	0	1127219200	40	5664
2026-01-05 22:25:26.32	43.49	29.96	-33.3	-34.2	24.7	0.00e+00	0	34	0	1130364928	40	5685
2026-01-05 22:25:27.32	43.15	29.96	-33.4	-34.3	24.6	0.00e+00	0	34	0	1133510656	40	5753
2026-01-05 22:25:28.31	42.81	29.97	-33.4	-34.3	24.5	0.00e+00	0	34	0	1136656384	40	5775
2026-01-05 22:25:29.31	42.47	29.97	-33.5	-34.3	24.7	0.00e+00	0	34	0	1139802112	40	5777
2026-01-05 22:25:30.31	42.13	29.98	-33.6	-34.5	24.7	0.00e+00	0	34	0	1142947840	40	5878
2026-01-05 22:25:31.30	41.79	29.98	-33.3	-34.1	25.0	0.00e+00	0	34	0	1146093568	40	5645
2026-01-05 22:25:32.30	41.45	29.98	-33.4	-34.2	24.8	0.00e+00	0	34	0	1149239296	40	5721
2026-01-05 22:25:33.31	41.11	29.98	-33.3	-34.1	24.9	0.00e+00	0	34	0	1152385024	40	5643
2026-01-05 22:25:34.32	40.76	29.98	-33.5	-34.3	24.8	0.00e+00	0	34	0	1155530752	40	5772
2026-01-05 22:25:35.33	40.42	29.97	-33.5	-34.3	24.7	0.00e+00	0	34	0	1158676480	40	5785
2026-01-05 22:25:36.34	40.07	29.97	-33.4	-34.3	24.7	0.00e+00	0	34	0	1161822208	40	5771
2026-01-05 22:25:37.35	39.73	29.96	-33.6	-34.5	24.6	0.00e+00	0	34	0	1164967936	40	5867
2026-01-05 22:25:38.36	39.38	29.96	-33.7	-34.6	24.7	0.00e+00	0	34	0	1168113664	40	5982
2026-01-05 22:25:39.37	39.04	29.95	-33.7	-34.5	24.6	0.00e+00	0	34	0	1171259392	40	5918
2026-01-05 22:25:40.38	38.69	29.94	-34.0	-34.8	24.4	0.00e+00	0	34	0	1174405120	40	6127
2026-01-05 22:25:41.39	38.35	29.93	-34.1	-35.0	24.3	0.00e+00	0	34	0	1177550848	40	6244
2026-01-05 22:25:42.40	38.01	29.92	-34.2	-35.2	24.3	0.00e+00	0	34	0	1180696576	40	6351
2026-01-05 22:25:43.40	37.67	29.91	-34.2	-35.1	24.2	0.00e+00	0	34	0	1183842304	40	6348
2026-01-05 22:25:44.41	37.32	29.90	-34.3	-35.2	24.2	0.00e+00	0	34	0	1186988032	40	6413
2026-01-05 22:25:45.42	36.98	29.88	-34.2	-35.1	24.3	0.00e+00	0	34	0	1190133760	40	6348
2026-01-05 22:25:46.43	36.64	29.87	-33.9	-34.8	24.5	0.00e+00	0	34	0	1193279488	40	6109
2026-01-05 22:25:47.44	36.30	29.85	-33.8	-34.7	24.5	0.00e+00	0	34	0	1196425216	40	6054
2026-01-05 22:25:48.45	35.95	29.83	-33.9	-34.7	24.5	0.00e+00	0	34	0	1199570944	40	6064
2026-01-05 22:25:49.46	35.61	29.81	-33.7	-34.6	24.5	0.00e+00	0	34	0	1202716672	40	5966
2026-01-05 22:25:50.47	35.27	29.79	-33.7	-34.6	24.5	0.00e+00	0	34	0	1205862400	40	5986
2026-01-05 22:25:51.48	34.93	29.77	-33.8	-34.7	24.6	0.00e+00	0	34	0	1209008128	40	6023
2026-01-05 22:25:52.49	34.59	29.75	-33.8	-34.7	24.6	0.00e+00	0	34	0	1212153856	40	6044
2026-01-05 22:25:53.50	34.25	29.73	-34.0	-34.9	24.6	0.00e+00	0	34	0	1215299584	40	6139
2026-01-05 22:25:54.51	33.91	29.70	-33.7	-34.6	24.6	0.00e+00	0	34	0	1218445312	40	5961
2026-01-05 22:25:55.52	33.58	29.68	-33.8	-34.7	24.6	0.00e+00	0	34	0	1221591040	40	6001
2026-01-05 22:25:56.53	33.24	29.65	-34.0	-34.9	24.4	0.00e+00	0	34	0	1224736768	40	6142
2026-01-05 22:25:57.54	32.90	29.62	-34.0	-34.9	24.2	0.00e+00	0	34	0	1227882496	40	6155
2026-01-05 22:25:58.55	32.56	29.59	-34.0	-34.9	24.2	0.00e+00	0	34	0	1231028224	40	6178
2026-01-05 22:25:59.56	32.23	29.56	-33.9	-34.8	24.2	0.00e+00	0	34	0	1234173952	40	6103
2026-01-05 22:26:00.57	31.89	29.53	-33.8	-34.7	24.4	0.00e+00	0	34	0	1237319680	40	6059
2026-01-05 22:26:01.58	31.56	29.50	-33.7	-34.6	24.5	0.00e+00	0	34	0	1240465408	40	5965
2026-01-05 22:26:02.59	31.22	29.47	-33.9	-34.8	24.4	0.00e+00	0	34	0	1243611136	40	6077
2026-01-05 22:26:03.60	30.89	29.43	-34.0	-34.9	24.3	0.00e+00	0	34	0	1246756864	40	6139
2026-01-05 22:26:04.61	30.56	29.40	-34.1	-35.0	24.3	0.00e+00	0	34	0	1249902592	40	6214
2026-01-05 22:26:05.62	30.22	29.36	-33.9	-34.8	24.4	0.00e+00	0	34	0	1253048320	40	6130
2026-01-05 22:26:06.63	29.89	29.33	-33.8	-34.6	24.6	0.00e+00	0	34	0	1256194048	40	5985
2026-01-05 22:26:07.64	29.56	29.29	-33.8	-34.7	24.6	0.00e+00	0	34	0	1259339776	40	5998
2026-01-05 22:26:08.65	29.23	29.25	-33.7	-34.6	24.7	0.00e+00	0	34	0	1262485504	40	5943
2026-01-05 22:26:09.66	28.90	29.21	-33.6	-34.5	24.7	0.00e+00	0	34	0	1265631232	40	5891
2026-01-05 22:26:10.67	28.58	29.17	-33.7	-34.6	24.6	0.00e+00	0	34	0	1268776960	40	5973
2026-01-05 22:26:11.68	28.25	29.12	-33.9	-34.8	24.5	0.00e+00	0	34	0	1271922688	40	6078
2026-01-05 22:26:12.69	27.92	29.08	-34.0	-34.9	24.4	0.00e+00	0	34	0	1275068416	40	6188
2026-01-05 22:26:13.70	27.60	29.04	-34.2	-35.1	24.3	0.00e+00	0	35	0	1278214144	40	6339
2026-01-05 22:26:14.71	27.27	28.99	-34.3	-35.2	24.3	0.00e+00	0	34	0	1281359872	40	6366
2026-01-05 22:26:15.72	26.95	28.95	-34.3	-35.2	24.3	0.00e+00	0	34	0	1284505600	40	6408
2026-01-05 22:26:16.73	26.63	28.90	-34.0	-34.9	24.4	0.00e+00	0	34	0	1287651328	40	6184
2026-01-05 22:26:17.74	26.31	28.85	-33.9	-34.8	24.5	0.00e+00	0	34	0	1290797056	40	6118
2026-01-05 22:26:18.75	25.99	28.80	-34.1	-35.0	24.4	0.00e+00	0	34	0	1293942784	40	6228
2026-01-05 22:26:19.76	25.67	28.75	-34.1	-35.0	24.4	0.00e+00	0	34	0	1297088512	40	6219
2026-01-05 22:26:20.77	25.35	28.70	-34.1	-35.0	24.5	0.00e+00	0	34	0	1300234240	40	6222
2026-01-05 22:26:21.78	25.03	28.65	-33.9	-34.8	24.6	0.00e+00	0	34	0	1303379968	40	6097
2026-01-05 22:26:22.79	24.71	28.60	-34.0	-34.9	24.5	0.00e+00	0	34	0	1306525696	40	6148
2026-01-05 22:26:23.80	24.40	28.54	-33.9	-34.8	24.6	0.00e+00	0	34	0	1309671424	40	6121
2026-01-05 22:26:24.80	24.09	28.49	-33.9	-34.8	24.6	0.00e+00	0	34	0	1312817152	40	6116
2026-01-05 22:26:25.81	23.77	28.43	-33.8	-34.6	24.6	0.00e+00	0	34	0	1315962880	40	5985
2026-01-05 22:26:26.82	23.46	28.38	-33.9	-34.8	24.4	0.00e+00	0	34	0	1319108608	40	6086
2026-01-05 22:26:27.83	23.15	28.32	-33.5	-34.4	24.6	0.00e+00	0	34	0	1322254336	40	5838
2026-01-05 22:26:28.84	22.84	28.26	-33.6	-34.5	24.6	0.00e+00	0	34	0	1325400064	40	5913
2026-01-05 22:26:29.85	22.53	28.21	-33.6	-34.4	24.8	0.00e+00	0	34	0	1328545792	40	5843
2026-01-05 22:26:30.86	22.22	28.15	-33.5	-34.4	24.8	0.00e+00	0	34	0	1331691520	40	5818
2026-01-05 22:26:31.87	21.92	28.09	-33.7	-34.6	24.7	0.00e+00	0	34	0	1334837248	40	5936
2026-01-05 22:26:32.88	21.61	28.03	-33.8	-34.7	24.7	0.00e+00	0	34	0	1337982976	40	6002
2026-01-05 22:26:33.89	21.31	27.96	-33.6	-34.5	24.6	0.00e+00	0	34	0	1341128704	40	5889
2026-01-05 22:26:34.90	21.01	27.90	-33.6	-34.5	24.6	0.00e+00	0	34	0	1344274432	40	5872
2026-01-05 22:26:35.91	20.70	27.84	-33.7	-34.5	24.5	0.00e+00	0	34	0	1347420160	40	5909
2026-01-05 22:26:36.92	20.40	27.78	-33.6	-34.5	24.7	0.00e+00	0	34	0	1350565888	40	5866
2026-01-05 22:26:37.93	20.10	27.71	-33.4	-34.3	24.9	0.00e+00	0	34	0	1353711616	40	5760
2026-01-05 22:26:38.94	19.81	27.65	-33.4	-34.3	24.9	0.00e+00	0	34	0	1356857344	40	5747
2026-01-05 22:26:39.95	19.51	27.58	-33.3	-34.1	25.0	0.00e+00	0	34	0	1360003072	40	5639
2026-01-05 22:26:40.96	19.21	27.51	-33.5	-34.4	24.8	0.00e+00	0	34	0	1363148800	40	5821
2026-01-05 22:26:41.97	18.92	27.45	-33.7	-34.6	24.7	0.00e+00	0	34	0	1366294528	40	5957
2026-01-05 22:26:42.98	18.63	27.38	-34.0	-34.9	24.5	0.00e+00	0	34	0	1369440256	40	6164
2026-01-05 22:26:43.99	18.33	27.31	-34.2	-35.1	24.3	0.00e+00	0	34	0	1372585984	40	6306
2026-01-05 22:26:45.00	18.04	27.24	-34.2	-35.1	24.2	0.00e+00	0	34	0	1375731712	40	6348
2026-01-05 22:26:46.00	17.76	27.17	-34.2	-35.1	24.1	0.00e+00	0	34	0	1378877440	40	6319
2026-01-05 22:26:47.02	17.47	27.10	-33.9	-34.8	24.3	0.00e+00	0	34	0	1382023168	40	6128
2026-01-05 22:26:48.02	17.18	27.03	-33.7	-34.7	24.4	0.00e+00	0	34	0	1385168896	40	6001
2026-01-05 22:26:49.03	16.90	26.96	-33.6	-34.5	24.7	0.00e+00	0	34	0	1388314624	40	5863
2026-01-05 22:26:50.04	16.61	26.89	-33.6	-34.5	24.7	0.00e+00	0	34	0	1391460352	40	5895
2026-01-05 22:26:51.05	16.33	26.81	-33.5	-34.4	24.8	0.00e+00	0	34	0	1394606080	40	5814
2026-01-05 22:26:52.06	16.05	26.74	-33.5	-34.4	24.9	0.00e+00	0	34	0	1397751808	40	5827
2026-01-05 22:26:53.07	15.77	26.66	-33.1	-34.0	25.1	0.00e+00	0	34	0	1400897536	40	5537
2026-01-05 22:26:54.08	15.49	26.59	-33.1	-33.9	25.0	0.00e+00	0	34	0	1404043264	40	5527
2026-01-05 22:26:55.09	15.21	26.52	-32.8	-33.6	25.2	0.00e+00	0	34	0	1407188992	40	5339
2026-01-05 22:26:56.10	14.94	26.44	-32.8	-33.7	25.1	0.00e+00	0	34	0	1410334720	40	5364
2026-01-05 22:26:57.11	14.66	26.36	-32.9	-33.7	25.2	0.00e+00	0	34	0	1413480448	38	6032
2026-01-05 22:26:58.12	14.39	26.29	-33.0	-33.8	25.0	0.00e+00	0	34	0	1416626176	38	6110
2026-01-05 22:26:59.13	14.11	26.21	-33.4	-34.3	24.8	0.00e+00	0	34	0	1419771904	38	6431
2026-01-05 22:27:00.14	13.84	26.13	-33.7	-34.6	24.5	0.00e+00	0	34	0	1422917632	38	6669
2026-01-05 22:27:01.15	13.57	26.05	-33.8	-34.7	24.4	0.00e+00	0	34	0	1426063360	40	6011
2026-01-05 22:27:02.16	13.31	25.98	-33.7	-34.6	24.4	0.00e+00	0	34	0	1429209088	40	5978
2026-01-05 22:27:03.17	13.04	25.90	-33.7	-34.6	24.4	0.00e+00	0	34	0	1432354816	40	5977
2026-01-05 22:27:04.18	12.77	25.82	-33.2	-34.0	24.7	0.00e+00	0	34	0	1435500544	40	5593
2026-01-05 22:27:05.19	12.51	25.74	-33.1	-34.0	24.8	0.00e+00	0	34	0	1438646272	40	5552
2026-01-05 22:27:06.20	12.25	25.66	-32.7	-33.5	25.1	0.00e+00	0	34	0	1441792000	38	5901
2026-01-05 22:27:07.21	11.98	25.58	-32.7	-33.6	25.1	0.00e+00	0	34	0	1444937728	38	5945
2026-01-05 22:27:08.22	11.72	25.49	-32.9	-33.8	25.1	0.00e+00	0	34	0	1448083456	38	6085
2026-01-05 22:27:09.23	11.47	25.41	-33.2	-34.1	25.0	0.00e+00	0	34	0	1452277760	38	6297
2026-01-05 22:27:10.24	11.21	25.33	-33.3	-34.2	25.0	0.00e+00	0	34	0	1455423488	38	6384
2026-01-05 22:27:11.25	10.95	25.25	-33.5	-34.3	24.9	0.00e+00	0	34	0	1457520640	38	6483
2026-01-05 22:27:12.26	10.70	25.17	-33.5	-34.4	24.7	0.00e+00	0	34	0	1460666368	38	6558
2026-01-05 22:27:13.27	10.44	25.08	-33.5	-34.4	24.8	0.00e+00	0	34	0	1463812096	38	6564
2026-01-05 22:27:14.28	10.19	25.00	-33.3	-34.2	25.0	0.00e+00	0	34	0	1466957824	38	6405
2026-01-05 22:27:15.29	9.94	24.92	-33.3	-34.2	24.9	0.00e+00	0	34	0	1471152128	38	6367
2026-01-05 22:27:16.30	9.69	24.83	-33.3	-34.2	25.0	0.00e+00	0	34	0	1474297856	38	6388
2026-01-05 22:27:17.31	9.44	24.75	-33.4	-34.3	24.8	0.00e+00	0	34	0	1477443584	38	6446
2026-01-05 22:27:18.32	9.20	24.66	-33.6	-34.5	24.7	0.00e+00	0	34	0	1480589312	38	6619
2026-01-05 22:27:19.32	8.96	24.58	-33.6	-34.5	24.8	0.00e+00	0	34	0	1482686464	38	6577
2026-01-05 22:27:20.33	8.71	24.49	-33.7	-34.6	24.7	0.00e+00	0	34	0	1486880768	38	6680
2026-01-05 22:27:21.35	8.47	24.41	-33.7	-34.6	24.7	0.00e+00	0	34	0	1490026496	40	5938
2026-01-05 22:27:22.35	8.23	24.32	-33.7	-34.5	24.7	0.00e+00	0	34	0	1493172224	40	5923
2026-01-05 22:27:23.36	7.99	24.23	-33.6	-34.5	24.8	0.00e+00	0	34	0	1496317952	40	5888
2026-01-05 22:27:24.37	7.75	24.15	-33.3	-34.2	25.0	0.00e+00	0	34	0	1499463680	40	5681
2026-01-05 22:27:25.38	7.51	24.06	-33.2	-34.1	25.1	0.00e+00	0	34	0	1502609408	40	5628
2026-01-05 22:27:26.39	7.28	23.97	-33.1	-34.0	25.2	0.00e+00	0	34	0	1505755136	40	5558
2026-01-05 22:27:27.40	7.04	23.89	-33.2	-34.1	25.1	0.00e+00	0	34	0	1508900864	40	5632
2026-01-05 22:27:28.41	6.81	23.80	-33.4	-34.3	24.9	0.00e+00	0	34	0	1512046592	40	5729
2026-01-05 22:27:29.42	6.58	23.71	-33.6	-34.5	24.8	0.00e+00	0	34	0	1515192320	40	5867
2026-01-05 22:27:30.42	6.35	23.63	-33.7	-34.6	24.6	0.00e+00	0	34	0	1518338048	40	5959
2026-01-05 22:27:31.44	6.12	23.54	-33.8	-34.6	24.5	0.00e+00	0	34	0	1521483776	40	5987
2026-01-05 22:27:32.44	5.89	23.45	-33.7	-34.6	24.4	0.00e+00	0	34	0	1524629504	40	5934
2026-01-05 22:27:33.46	5.66	23.36	-33.7	-34.6	24.4	0.00e+00	0	34	0	1527775232	40	5971
2026-01-05 22:27:34.46	5.44	23.27	-33.6	-34.5	24.5	0.00e+00	0	34	0	1530920960	40	5865
2026-01-05 22:27:35.47	5.21	23.18	-33.5	-34.4	24.7	0.00e+00	0	34	0	1534066688	40	5811
2026-01-05 22:27:36.48	4.99	23.09	-33.3	-34.2	24.8	0.00e+00	0	34	0	1537212416	40	5709
2026-01-05 22:27:37.49	4.77	23.01	-33.4	-34.2	24.8	0.00e+00	0	34	0	1540358144	40	5721
2026-01-05 22:27:38.50	4.55	22.92	-33.4	-34.3	24.9	0.00e+00	0	34	0	1543503872	40	5738
2026-01-05 22:27:39.51	4.33	22.83	-33.4	-34.3	24.9	0.00e+00	0	34	0	1546649600	40	5763
2026-01-05 22:27:40.52	4.11	22.74	-33.4	-34.3	24.9	0.00e+00	0	34	0	1549795328	40	5757
2026-01-05 22:27:41.53	3.90	22.65	-33.4	-34.3	24.9	0.00e+00	0	34	0	1552941056	40	5740
2026-01-05 22:27:42.53	3.68	22.56	-33.3	-34.2	25.0	0.00e+00	0	34	0	1556086784	40	5664
2026-01-05 22:27:43.54	3.47	22.47	-33.2	-34.1	25.0	0.00e+00	0	34	0	1559232512	40	5611
2026-01-05 22:27:44.55	3.26	22.38	-33.1	-34.0	25.0	0.00e+00	0	34	0	1562378240	40	5569
2026-01-05 22:27:45.56	3.04	22.29	-33.2	-34.0	25.0	0.00e+00	0	34	0	1565523968	40	5591
2026-01-05 22:27:46.57	2.83	22.20	-33.3	-34.2	24.9	0.00e+00	0	34	0	1568669696	40	5665
2026-01-05 22:27:47.58	2.62	22.11	-33.3	-34.2	24.9	0.00e+00	0	34	0	1571815424	40	5681
2026-01-05 22:27:48.59	2.42	22.02	-33.4	-34.3	24.9	0.00e+00	0	34	0	1574961152	40	5739
2026-01-05 22:27:49.60	2.21	21.93	-33.4	-34.3	24.9	0.00e+00	0	34	0	1578106880	40	5738
2026-01-05 22:27:50.61	2.00	21.84	-33.5	-34.4	24.8	0.00e+00	0	34	0	1581252608	40	5796
2026-01-05 22:27:51.62	1.80	21.75	-33.4	-34.3	24.8	0.00e+00	0	34	0	1584398336	40	5761
2026-01-05 22:27:52.63	1.60	21.66	-33.4	-34.3	24.8	0.00e+00	0	34	0	1587544064	40	5746
2026-01-05 22:27:53.64	1.40	21.57	-33.5	-34.4	24.7	0.00e+00	0	34	0	1590689792	40	5797
2026-01-05 22:27:54.65	1.20	21.47	-33.3	-34.2	24.9	0.00e+00	0	34	0	1593835520	40	5705
2026-01-05 22:27:55.66	1.00	21.38	-33.6	-34.5	24.7	0.00e+00	0	34	0	1596981248	40	5908
2026-01-05 22:27:56.67	0.80	21.29	-33.9	-34.8	24.5	0.00e+00	0	34	0	1600126976	40	6066
2026-01-05 22:27:57.68	0.60	21.20	-33.5	-34.4	24.8	0.00e+00	0	34	0	1603272704	40	5828
2026-01-05 22:27:58.69	0.41	21.11	-33.6	-34.5	24.7	0.00e+00	0	34	0	1606418432	40	5863
2026-01-05 22:27:59.70	0.21	21.02	-33.7	-34.6	24.6	0.00e+00	0	34	0	1609564160	40	5935
2026-01-05 22:28:00.71	0.02	20.93	-33.7	-34.5	24.6	0.00e+00	0	34	0	1612709888	40	5913
2026-01-05 22:28:01.71	359.83	20.84	-33.7	-34.6	24.6	0.00e+00	0	34	0	1615855616	40	5950
2026-01-05 22:28:02.72	359.64	20.75	-33.8	-34.7	24.5	0.00e+00	0	34	0	1619001344	40	6010
2026-01-05 22:28:03.73	359.45	20.66	-33.7	-34.6	24.5	0.00e+00	0	34	0	1622147072	40	5966
2026-01-05 22:28:04.74	359.26	20.57	-33.9	-34.8	24.5	0.00e+00	0	34	0	1625292800	40	6073
2026-01-05 22:28:05.75	359.07	20.47	-33.8	-34.7	24.5	0.00e+00	0	34	0	1628438528	40	6054
2026-01-05 22:28:06.76	358.88	20.38	-33.8	-34.7	24.5	0.00e+00	0	34	0	1631584256	40	6038
2026-01-05 22:28:07.77	358.70	20.29	-33.8	-34.7	24.5	0.00e+00	0	34	0	1634729984	40	6040
2026-01-05 22:28:08.78	358.51	20.20	-33.8	-34.7	24.5	0.00e+00	0	34	0	1637875712	40	6008
2026-01-05 22:28:09.79	358.33	20.11	-33.7	-34.6	24.5	0.00e+00	0	34	0	1641021440	40	5968
2026-01-05 22:28:10.80	358.15	20.02	-33.6	-34.5	24.5	0.00e+00	0	34	0	1644167168	40	5911
2026-01-05 22:28:11.81	357.97	19.93	-33.7	-34.6	24.4	0.00e+00	0	34	0	1647312896	40	5953
2026-01-05 22:28:12.82	357.79	19.84	-33.3	-34.2	24.7	0.00e+00	0	34	0	1650458624	40	5688
2026-01-05 22:28:13.83	357.61	19.75	-33.2	-34.1	24.8	0.00e+00	0	34	0	1653604352	40	5633
2026-01-05 22:28:14.84	357.43	19.66	-33.1	-33.9	25.0	0.00e+00	0	34	0	1656750080	40	5514
2026-01-05 22:28:15.85	357.25	19.56	-33.2	-34.0	24.9	0.00e+00	0	34	0	1659895808	40	5571
2026-01-05 22:28:16.86	357.08	19.47	-33.0	-33.8	25.2	0.00e+00	0	34	0	1663041536	40	5438
2026-01-05 22:28:17.86	356.90	19.38	-32.8	-33.7	25.2	0.00e+00	0	34	0	1666187264	40	5376
2026-01-05 22:28:18.87	356.73	19.29	-33.2	-34.0	24.9	0.00e+00	0	34	0	1669332992	40	5570
2026-01-05 22:28:19.88	356.56	19.20	-33.3	-34.1	24.9	0.00e+00	0	34	0	1672478720	40	5652
2026-01-05 22:28:20.89	356.39	19.11	-33.6	-34.5	24.7	0.00e+00	0	34	0	1675624448	40	5866
2026-01-05 22:28:21.90	356.22	19.02	-33.8	-34.7	24.5	0.00e+00	0	34	0	1678770176	40	6000
2026-01-05 22:28:22.91	356.05	18.93	-33.8	-34.7	24.4	0.00e+00	0	34	0	1681915904	40	6031
2026-01-05 22:28:23.92	355.88	18.84	-33.9	-34.8	24.3	0.00e+00	0	34	0	1685061632	40	6106
2026-01-05 22:28:24.94	355.71	18.75	-33.9	-34.9	24.3	0.00e+00	0	34	0	1688207360	40	6137
2026-01-05 22:28:25.95	355.54	18.66	-33.9	-34.8	24.2	0.00e+00	0	34	0	1691353088	40	6111
2026-01-05 22:28:26.96	355.38	18.57	-33.9	-34.8	24.2	0.00e+00	0	34	0	1694498816	40	6078
2026-01-05 22:28:27.97	355.21	18.48	-33.7	-34.6	24.4	0.00e+00	0	34	0	1697644544	40	5944
2026-01-05 22:28:28.98	355.05	18.39	-33.7	-34.6	24.4	0.00e+00	0	34	0	1700790272	40	5991
2026-01-05 22:28:29.99	354.89	18.30	-33.7	-34.6	24.4	0.00e+00	0	34	0	1703936000	40	5975
2026-01-05 22:28:31.00	354.73	18.21	-33.9	-34.8	24.3	0.00e+00	0	34	0	1707081728	40	6080
2026-01-05 22:28:32.01	354.57	18.12	-33.9	-34.8	24.4	0.00e+00	0	34	0	1710227456	40	6097
2026-01-05 22:28:33.01	354.41	18.03	-34.1	-35.0	24.3	0.00e+00	0	34	0	1713373184	40	6224
2026-01-05 22:28:34.03	354.25	17.94	-34.0	-34.9	24.3	0.00e+00	0	34	0	1716518912	40	6199
2026-01-05 22:28:35.04	354.09	17.85	-34.1	-35.1	24.2	0.00e+00	0	34	0	1719664640	40	6286
2026-01-05 22:28:36.05	353.93	17.76	-34.2	-35.1	24.2	0.00e+00	0	34	0	1722810368	40	6320
2026-01-05 22:28:37.06	353.78	17.67	-34.3	-35.2	24.1	0.00e+00	0	34	0	1725956096	40	6388
2026-01-05 22:28:38.06	353.62	17.58	-34.3	-35.2	24.0	0.00e+00	0	34	0	1729101824	40	6409
2026-01-05 22:28:39.08	353.47	17.49	-34.2	-35.1	24.0	0.00e+00	0	34	0	1732247552	40	6347
2026-01-05 22:28:40.08	353.32	17.41	-34.2	-35.1	24.0	0.00e+00	0	34	0	1735393280	40	6345
2026-01-05 22:28:41.09	353.17	17.32	-34.1	-35.0	24.1	0.00e+00	0	34	0	1738539008	40	6227
2026-01-05 22:28:42.10	353.01	17.23	-34.2	-35.1	24.0	0.00e+00	0	34	0	1741684736	40	6343
2026-01-05 22:28:43.11	352.86	17.14	-33.9	-34.8	24.4	0.00e+00	0	34	0	1744830464	40	6104
2026-01-05 22:28:44.12	352.71	17.05	-33.8	-34.7	24.4	0.00e+00	0	34	0	1747976192	40	6058
2026-01-05 22:28:45.13	352.57	16.96	-33.8	-34.8	24.5	0.00e+00	0	34	0	1751121920	40	6073
2026-01-05 22:28:46.14	352.42	16.88	-33.8	-34.7	24.5	0.00e+00	0	34	0	1754267648	40	6038
2026-01-05 22:28:47.15	352.27	16.79	-33.8	-34.7	24.5	0.00e+00	0	34	0	1757413376	40	6018
2026-01-05 22:28:48.16	352.13	16.70	-34.0	-34.9	24.4	0.00e+00	0	34	0	1760559104	40	6183
2026-01-05 22:28:49.17	351.98	16.61	-34.1	-35.0	24.3	0.00e+00	0	34	0	1763704832	40	6219
2026-01-05 22:28:50.18	351.84	16.52	-34.3	-35.2	24.0	0.00e+00	0	34	0	1766850560	40	6417
2026-01-05 22:28:51.19	351.69	16.44	-34.4	-35.4	23.9	0.00e+00	0	34	0	1769996288	40	6516
2026-01-05 22:28:52.20	351.55	16.35	-34.6	-35.5	23.8	0.00e+00	0	34	0	1773142016	40	6631
2026-01-05 22:28:53.20	351.41	16.26	-34.5	-35.5	23.8	0.00e+00	0	34	0	1776287744	40	6583
2026-01-05 22:28:54.22	351.27	16.17	-34.6	-35.5	23.7	0.00e+00	0	34	0	1779433472	40	6647
2026-01-05 22:28:55.23	351.13	16.09	-34.5	-35.4	23.8	0.00e+00	0	34	0	1782579200	40	6555
2026-01-05 22:28:56.24	350.99	16.00	-34.3	-35.2	23.9	0.00e+00	0	34	0	1785724928	40	6383
2026-01-05 22:28:57.24	350.85	15.91	-34.1	-35.1	24.1	0.00e+00	0	34	0	1788870656	40	6280
2026-01-05 22:28:58.25	350.72	15.83	-34.0	-34.9	24.2	0.00e+00	0	34	0	1792016384	40	6155
2026-01-05 22:28:59.26	350.58	15.74	-34.0	-34.9	24.1	0.00e+00	0	34	0	1795162112	40	6190
2026-01-05 22:29:00.27	350.44	15.65	-33.9	-34.8	24.3	0.00e+00	0	34	0	1798307840	40	6086
2026-01-05 22:29:01.28	350.31	15.57	-33.9	-34.8	24.3	0.00e+00	0	35	0	1801453568	40	6111
2026-01-05 22:29:02.29	350.18	15.48	-33.8	-34.7	24.4	0.00e+00	0	34	0	1804599296	40	6030
2026-01-05 22:29:03.30	350.04	15.40	-34.0	-34.9	24.3	0.00e+00	0	34	0	1807745024	40	6153
2026-01-05 22:29:04.31	349.91	15.31	-34.1	-35.0	24.2	0.00e+00	0	34	0	1810890752	40	6253
2026-01-05 22:29:05.32	349.78	15.22	-34.2	-35.1	24.2	0.00e+00	0	34	0	1814036480	40	6310
2026-01-05 22:29:06.33	349.65	15.14	-34.4	-35.3	24.1	0.00e+00	0	34	0	1818230784	40	6481
2026-01-05 22:29:07.34	349.52	15.05	-34.5	-35.5	23.8	0.00e+00	0	34	0	1820327936	40	6583
2026-01-05 22:29:08.35	349.39	14.97	-34.6	-35.5	23.9	0.00e+00	0	34	0	1823473664	40	6610
2026-01-05 22:29:09.36	349.26	14.88	-34.7	-35.6	23.7	0.00e+00	0	34	0	1826619392	40	6723
2026-01-05 22:29:10.37	349.13	14.80	-34.6	-35.5	23.8	0.00e+00	0	34	0	1829765120	42	5926
2026-01-05 22:29:11.38	349.00	14.71	-34.5	-35.4	23.8	0.00e+00	0	34	0	1832910848	42	5855
2026-01-05 22:29:12.39	348.88	14.63	-34.4	-35.3	23.9	0.00e+00	0	34	0	1837105152	42	5785
2026-01-05 22:29:13.40	348.75	14.54	-34.5	-35.4	23.8	0.00e+00	0	34	0	1840250880	42	5820
2026-01-05 22:29:14.41	348.63	14.46	-34.2	-35.1	24.0	0.00e+00	0	34	0	1843396608	42	5617
2026-01-05 22:29:15.42	348.50	14.38	-34.1	-35.0	24.1	0.00e+00	0	34	0	1845493760	42	5587
2026-01-05 22:29:16.43	348.38	14.29	-34.1	-35.0	24.0	0.00e+00	0	34	0	1848639488	42	5584
2026-01-05 22:29:17.44	348.26	14.21	-34.1	-35.0	24.1	0.00e+00	0	34	0	1852833792	42	5553
2026-01-05 22:29:18.45	348.13	14.12	-34.0	-34.9	24.2	0.00e+00	0	34	0	1855979520	42	5512
2026-01-05 22:29:19.46	348.01	14.04	-34.0	-34.9	24.3	0.00e+00	0	34	0	1859125248	42	5478
2026-01-05 22:29:20.47	347.89	13.96	-33.9	-34.8	24.4	0.00e+00	0	34	0	1862270976	42	5447
2026-01-05 22:29:21.48	347.77	13.87	-34.2	-35.1	24.2	0.00e+00	0	34	0	1865416704	42	5609
2026-01-05 22:29:22.48	347.65	13.79	-34.3	-35.2	24.1	0.00e+00	0	34	0	1868562432	42	5702
2026-01-05 22:29:23.49	347.54	13.71	-34.4	-35.3	24.0	0.00e+00	0	34	0	1871708160	42	5730
2026-01-05 22:29:24.50	347.42	13.63	-34.4	-35.3	24.1	0.00e+00	0	34	0	1874853888	42	5751
2026-01-05 22:29:25.51	347.30	13.54	-34.5	-35.4	23.9	0.00e+00	0	34	0	1877999616	42	5842
2026-01-05 22:29:26.52	347.18	13.46	-34.7	-35.6	23.7	0.00e+00	0	34	0	1881145344	42	5965
2026-01-05 22:29:27.53	347.07	13.38	-34.8	-35.8	23.6	0.00e+00	0	34	0	1884291072	42	6075
2026-01-05 22:29:28.54	346.95	13.30	-34.9	-35.9	23.4	0.00e+00	0	34	0	1887436800	42	6159
2026-01-05 22:29:29.55	346.84	13.21	-35.0	-36.0	23.3	0.00e+00	0	34	0	1890582528	42	6251
2026-01-05 22:29:30.56	346.72	13.13	-35.1	-36.1	23.3	0.00e+00	0	34	0	1893728256	42	6295
2026-01-05 22:29:31.57	346.61	13.05	-35.0	-36.0	23.3	0.00e+00	0	34	0	1896873984	42	6253
2026-01-05 22:29:32.58	346.50	12.97	-35.1	-36.1	23.2	0.00e+00	0	34	0	1900019712	42	6283
2026-01-05 22:29:33.59	346.39	12.89	-34.9	-35.9	23.3	0.00e+00	0	34	0	1903165440	42	6170
2026-01-05 22:29:34.59	346.28	12.81	-35.0	-36.0	23.2	0.00e+00	0	34	0	1906311168	42	6222
2026-01-05 22:29:35.60	346.16	12.73	-35.1	-36.1	23.1	0.00e+00	0	34	0	1909456896	42	6295
2026-01-05 22:29:36.62	346.05	12.65	-34.7	-35.7	23.6	0.00e+00	0	34	0	1912602624	42	6018
2026-01-05 22:29:37.63	345.94	12.56	-34.7	-35.6	23.6	0.00e+00	0	34	0	1915748352	42	5969
2026-01-05 22:29:38.63	345.84	12.49	-34.7	-35.6	23.6	0.00e+00	0	34	0	1918894080	42	5989
2026-01-05 22:29:39.65	345.73	12.40	-34.6	-35.5	23.6	0.00e+00	0	34	0	1922039808	42	5920
2026-01-05 22:29:40.65	345.62	12.32	-34.6	-35.6	23.6	0.00e+00	0	34	0	1925185536	42	5958
2026-01-05 22:29:41.66	345.51	12.24	-34.7	-35.6	23.6	0.00e+00	0	34	0	1928331264	42	5994
2026-01-05 22:29:42.67	345.41	12.16	-34.7	-35.7	23.6	0.00e+00	0	34	0	1931476992	42	6005
2026-01-05 22:29:43.68	345.30	12.08	-34.8	-35.7	23.5	0.00e+00	0	34	0	1934622720	42	6061
2026-01-05 22:29:44.69	345.19	12.01	-34.9	-35.9	23.5	0.00e+00	0	34	0	1937768448	42	6137
2026-01-05 22:29:45.70	345.09	11.93	-35.1	-36.1	23.3	0.00e+00	0	34	0	1940914176	42	6301
2026-01-05 22:29:46.71	344.99	11.85	-35.2	-36.2	23.2	0.00e+00	0	34	0	1944059904	42	6362
2026-01-05 22:29:47.72	344.88	11.77	-35.3	-36.3	23.1	0.00e+00	0	34	0	1947205632	42	6461
2026-01-05 22:29:48.73	344.78	11.69	-35.5	-36.5	23.0	0.00e+00	0	34	0	1950351360	42	6641
2026-01-05 22:29:49.74	344.68	11.61	-35.5	-36.5	22.9	0.00e+00	0	34	0	1953497088	42	6591
2026-01-05 22:29:50.74	344.58	11.53	-35.6	-36.6	22.8	0.00e+00	0	34	0	1956642816	42	6714
