passes_logs/2026/01/05/R4.6S_Anadyr/R4.6S_Anadyr__20260105_033342_FENGYUN_3E_rec.log

#Pass ID: 20260105_033342_FENGYUN 3E
#Satellite: FENGYUN 3E
#Configuration: FENGYUN 3E
#almurnet v.1.7.20251203
#Start time: 2026-01-05 03:33:44

#Version: 2.2.20231116
#Station: R4.6S_Anadyr
#Location: 177.4865 lon 64.73178 lat
#TLE: 1 49008U 21062A   26003.51942929 -.00000034  00000+0  45519-5 0  9990
#TLE: 2 49008  98.7472   8.7829 0001426 160.7926 199.3304 14.19883272233213

#Time	Az	El	Level	Level2	SNR	BER	BlckErr	Temp	State	Recorded	gain1	gain2
2026-01-05 03:33:44.29	133.27	0.13	-49.7	-64.7	3.6	1.51e+00	0	24	0	0	60	61788
2026-01-05 03:33:45.30	133.25	0.19	-49.4	-60.7	3.6	8.45e-01	0	25	104	0	60	39395
2026-01-05 03:33:46.31	133.22	0.25	-49.9	-61.2	3.6	8.46e-01	0	26	104	0	60	41581
2026-01-05 03:33:47.31	133.20	0.31	-48.9	-60.2	3.6	8.45e-01	0	26	104	0	60	37002
2026-01-05 03:33:48.33	133.18	0.37	-48.8	-60.1	3.6	8.46e-01	0	26	104	0	60	36393
2026-01-05 03:33:49.33	133.15	0.43	-49.3	-60.6	3.6	8.46e-01	0	26	104	0	60	38676
2026-01-05 03:33:50.35	133.13	0.49	-49.1	-60.3	3.6	8.44e-01	0	26	104	0	60	37392
2026-01-05 03:33:51.36	133.11	0.55	-49.0	-60.2	3.6	8.46e-01	0	26	104	0	60	36827
2026-01-05 03:33:52.37	133.09	0.61	-48.7	-59.9	3.6	8.45e-01	0	26	104	0	60	35888
2026-01-05 03:33:53.38	133.06	0.68	-48.6	-59.8	3.6	8.44e-01	0	26	104	0	60	35294
2026-01-05 03:33:54.39	133.04	0.74	-48.3	-59.6	3.6	8.45e-01	0	26	104	0	60	34615
2026-01-05 03:33:55.40	133.01	0.80	-48.2	-59.6	3.6	8.45e-01	0	26	104	0	60	34559
2026-01-05 03:33:56.41	132.99	0.86	-48.1	-59.6	3.6	8.46e-01	0	26	104	0	60	34682
2026-01-05 03:33:57.41	132.97	0.92	-48.2	-59.5	3.6	8.44e-01	0	26	104	0	60	34002
2026-01-05 03:33:58.43	132.94	0.98	-47.9	-59.3	3.6	8.46e-01	0	26	104	0	60	33486
2026-01-05 03:33:59.43	132.92	1.04	-47.7	-59.1	3.6	8.45e-01	0	26	104	0	60	32451
2026-01-05 03:34:00.44	132.89	1.10	-47.5	-58.7	3.6	8.46e-01	0	26	104	0	60	31158
2026-01-05 03:34:01.45	132.87	1.17	-47.1	-58.3	3.6	8.45e-01	0	26	104	0	60	29782
2026-01-05 03:34:02.46	132.85	1.23	-47.1	-58.4	3.6	8.46e-01	0	26	104	0	60	30074
2026-01-05 03:34:03.47	132.82	1.29	-47.1	-58.4	3.6	8.44e-01	0	26	104	0	60	29902
2026-01-05 03:34:04.48	132.80	1.35	-47.0	-58.3	3.6	8.44e-01	0	26	104	0	60	29678
2026-01-05 03:34:05.49	132.77	1.42	-47.1	-58.4	3.6	8.45e-01	0	26	104	0	60	30153
2026-01-05 03:34:06.50	132.75	1.48	-47.0	-58.3	3.6	8.45e-01	0	26	104	0	60	29811
2026-01-05 03:34:07.51	132.72	1.54	-47.0	-58.2	3.6	8.46e-01	0	26	104	0	60	29518
2026-01-05 03:34:08.51	132.70	1.60	-47.0	-58.2	3.6	8.44e-01	0	26	104	0	60	29407
2026-01-05 03:34:09.52	132.67	1.67	-47.0	-58.3	3.6	8.46e-01	0	26	104	0	60	29684
2026-01-05 03:34:10.53	132.65	1.73	-47.2	-58.5	3.6	8.45e-01	0	26	104	0	60	30579
2026-01-05 03:34:11.54	132.62	1.79	-47.1	-58.5	3.6	8.44e-01	0	26	104	0	60	30526
2026-01-05 03:34:12.55	132.60	1.86	-47.2	-58.5	3.6	8.45e-01	0	26	104	0	60	30527
2026-01-05 03:34:13.56	132.57	1.92	-47.0	-58.2	3.6	8.46e-01	0	26	104	0	60	29322
2026-01-05 03:34:14.57	132.54	1.98	-47.0	-58.1	3.6	8.46e-01	0	26	104	0	60	29034
2026-01-05 03:34:15.58	132.52	2.05	-47.2	-57.9	3.6	8.45e-01	0	26	104	0	60	28420
2026-01-05 03:34:16.59	132.49	2.11	-47.3	-58.1	3.6	8.45e-01	0	26	104	0	60	29062
2026-01-05 03:34:17.60	132.47	2.17	-47.2	-58.0	3.6	8.44e-01	0	26	104	0	60	28692
2026-01-05 03:34:18.61	132.44	2.24	-47.1	-58.0	3.6	8.45e-01	0	26	104	0	60	28624
2026-01-05 03:34:19.62	132.41	2.30	-47.0	-58.3	3.6	8.46e-01	0	26	104	0	60	29672
2026-01-05 03:34:20.63	132.39	2.37	-47.1	-58.3	3.6	8.45e-01	0	26	104	0	60	29755
2026-01-05 03:34:21.64	132.36	2.43	-47.1	-58.5	3.6	8.45e-01	0	26	104	0	60	30336
2026-01-05 03:34:22.65	132.33	2.50	-46.9	-58.2	3.6	8.45e-01	0	26	104	0	60	29455
2026-01-05 03:34:23.66	132.31	2.56	-47.0	-57.9	3.6	8.45e-01	0	26	104	0	60	28384
2026-01-05 03:34:24.66	132.28	2.63	-47.1	-58.1	3.6	8.45e-01	0	27	104	0	60	29018
2026-01-05 03:34:25.67	132.25	2.69	-47.0	-57.8	3.6	8.46e-01	0	26	104	0	60	28102
2026-01-05 03:34:26.68	132.23	2.76	-46.9	-57.8	3.6	8.45e-01	0	26	104	0	60	28053
2026-01-05 03:34:27.69	132.20	2.82	-46.8	-57.6	3.6	8.47e-01	0	26	104	0	60	27520
2026-01-05 03:34:28.70	132.17	2.89	-46.8	-57.2	3.6	8.44e-01	0	26	104	0	60	26200
2026-01-05 03:34:29.71	132.14	2.95	-46.8	-56.6	3.6	8.46e-01	0	26	104	0	60	24349
2026-01-05 03:34:30.72	132.11	3.02	-46.8	-56.9	3.6	8.45e-01	0	26	104	0	60	25165
2026-01-05 03:34:31.73	132.09	3.09	-46.9	-57.7	3.6	8.45e-01	0	26	104	0	60	27642
2026-01-05 03:34:32.74	132.06	3.15	-47.2	-58.2	3.6	8.45e-01	0	26	104	0	60	29350
2026-01-05 03:34:33.75	132.03	3.22	-46.5	-54.4	3.9	8.45e-01	0	27	104	0	60	18966
2026-01-05 03:34:34.76	132.00	3.28	-45.5	-50.3	6.6	4.35e-02	0	27	0	0	60	11854
2026-01-05 03:34:35.77	131.97	3.35	-44.2	-47.2	10.9	1.22e-02	0	27	0	6291456	60	8246
2026-01-05 03:34:36.78	131.94	3.42	-45.6	-50.0	8.5	3.95e-02	0	27	0	13631488	60	11470
2026-01-05 03:34:37.79	131.91	3.48	-42.8	-44.9	12.1	2.00e-03	0	27	0	20971520	60	6324
2026-01-05 03:34:38.80	131.89	3.55	-42.2	-44.0	14.0	5.70e-06	0	26	0	28311552	56	7243
2026-01-05 03:34:39.81	131.86	3.62	-40.6	-42.0	15.1	0.00e+00	0	27	0	35651584	52	7198
2026-01-05 03:34:40.82	131.83	3.69	-41.8	-43.7	13.4	1.10e-06	0	27	0	42991616	54	7800
2026-01-05 03:34:41.82	131.80	3.75	-41.2	-42.7	14.5	3.54e-05	0	27	0	50331648	56	6228
2026-01-05 03:34:42.83	131.77	3.82	-47.4	-58.2	3.6	8.45e-01	0	27	104	54525952	60	29265
2026-01-05 03:34:43.84	131.74	3.89	-41.3	-42.8	16.3	8.23e-01	0	26	104	54525952	60	4980
2026-01-05 03:34:44.85	131.71	3.96	-47.0	-57.6	3.6	5.87e-01	0	27	104	55574528	60	27498
2026-01-05 03:34:45.86	131.68	4.03	-46.6	-53.9	3.8	8.10e-01	0	26	104	55574528	60	17930
2026-01-05 03:34:46.87	131.65	4.09	-37.7	-38.7	18.3	0.00e+00	0	27	0	56623104	44	7785
2026-01-05 03:34:47.88	131.62	4.16	-35.3	-36.0	21.3	0.00e+00	0	27	0	63963136	44	5742
2026-01-05 03:34:48.89	131.59	4.23	-35.4	-36.2	21.3	0.00e+00	0	27	0	71303168	44	5839
2026-01-05 03:34:49.90	131.56	4.30	-35.5	-36.2	21.4	0.00e+00	0	26	0	78643200	44	5895
2026-01-05 03:34:50.91	131.53	4.37	-34.9	-35.6	21.6	0.00e+00	0	27	0	85983232	44	5459
2026-01-05 03:34:51.92	131.49	4.44	-34.9	-35.7	22.1	0.00e+00	0	27	0	93323264	44	5531
2026-01-05 03:34:52.93	131.46	4.51	-34.9	-35.7	22.0	0.00e+00	0	27	0	100663296	42	6181
2026-01-05 03:34:53.94	131.43	4.58	-34.6	-35.3	22.0	0.00e+00	0	26	0	108003328	42	5963
2026-01-05 03:34:54.95	131.40	4.65	-34.7	-35.4	22.0	0.00e+00	0	27	0	115343360	42	5990
2026-01-05 03:34:55.96	131.37	4.72	-34.3	-35.0	22.5	0.00e+00	0	27	0	122683392	42	5757
2026-01-05 03:34:56.97	131.34	4.79	-34.1	-34.8	22.6	0.00e+00	0	27	0	130023424	42	5599
2026-01-05 03:34:57.98	131.30	4.86	-34.0	-34.7	22.8	0.00e+00	0	27	0	136314880	42	5544
2026-01-05 03:34:58.99	131.27	4.93	-34.0	-34.7	22.7	0.00e+00	0	27	0	143654912	42	5507
2026-01-05 03:35:00.01	131.24	5.00	-34.1	-34.8	22.7	0.00e+00	0	27	0	152043520	42	5607
2026-01-05 03:35:01.01	131.21	5.07	-33.9	-34.5	22.9	0.00e+00	0	27	0	158334976	42	5429
2026-01-05 03:35:02.02	131.18	5.14	-33.8	-34.4	23.0	0.00e+00	0	27	0	165675008	40	6015
2026-01-05 03:35:03.03	131.14	5.21	-33.7	-34.4	23.0	0.00e+00	0	27	0	173015040	40	5978
2026-01-05 03:35:04.04	131.11	5.28	-34.0	-34.6	22.8	0.00e+00	0	27	0	180355072	40	6172
2026-01-05 03:35:05.05	131.08	5.35	-34.1	-34.8	22.8	0.00e+00	0	27	0	187695104	40	6248
2026-01-05 03:35:06.06	131.04	5.43	-34.1	-34.8	22.8	0.00e+00	0	27	0	195035136	40	6302
2026-01-05 03:35:07.07	131.01	5.50	-34.3	-35.0	22.8	0.00e+00	0	27	0	202375168	40	6425
2026-01-05 03:35:08.08	130.97	5.57	-34.5	-35.2	22.5	0.00e+00	0	27	0	209715200	40	6556
2026-01-05 03:35:09.09	130.94	5.64	-33.7	-34.3	23.3	0.00e+00	0	27	0	217055232	40	5947
2026-01-05 03:35:10.10	130.91	5.71	-33.7	-34.4	23.2	0.00e+00	0	27	0	224395264	40	5985
2026-01-05 03:35:11.11	130.87	5.79	-33.7	-34.4	23.2	0.00e+00	0	27	0	231735296	40	5968
2026-01-05 03:35:12.12	130.84	5.86	-33.5	-34.2	23.3	0.00e+00	0	27	0	239075328	40	5833
2026-01-05 03:35:13.13	130.80	5.93	-33.6	-34.2	23.1	0.00e+00	0	27	0	246415360	40	5891
2026-01-05 03:35:14.14	130.77	6.01	-33.5	-34.2	23.3	0.00e+00	0	27	0	253755392	40	5830
2026-01-05 03:35:15.15	130.73	6.08	-33.6	-34.2	23.2	0.00e+00	0	27	0	261095424	40	5882
2026-01-05 03:35:16.16	130.70	6.15	-33.6	-34.3	23.2	0.00e+00	0	27	0	268435456	40	5916
2026-01-05 03:35:17.17	130.66	6.23	-33.5	-34.1	23.3	0.00e+00	0	27	0	275775488	40	5825
2026-01-05 03:35:18.18	130.63	6.30	-33.7	-34.4	23.2	0.00e+00	0	27	0	283115520	40	5966
2026-01-05 03:35:19.45	130.58	6.39	-33.6	-34.2	23.4	0.00e+00	0	27	0	289406976	40	5881
2026-01-05 03:35:20.16	130.56	6.45	-33.6	-34.2	23.3	0.00e+00	0	27	0	295698432	40	5890
2026-01-05 03:35:21.46	130.51	6.54	-33.4	-34.1	23.4	0.00e+00	0	27	0	305135616	40	5780
2026-01-05 03:35:22.18	130.48	6.60	-33.5	-34.2	23.3	0.00e+00	0	27	0	309329920	40	5872
2026-01-05 03:35:23.48	130.44	6.69	-33.4	-34.0	23.6	0.00e+00	0	27	0	318767104	40	5751
2026-01-05 03:35:24.20	130.41	6.75	-33.3	-34.0	23.5	0.00e+00	0	27	0	324009984	40	5696
2026-01-05 03:35:25.50	130.36	6.84	-33.4	-34.1	23.6	0.00e+00	0	27	0	333447168	40	5783
2026-01-05 03:35:26.22	130.34	6.90	-33.5	-34.2	23.4	0.00e+00	0	27	0	338690048	40	5855
2026-01-05 03:35:27.52	130.29	7.00	-33.9	-34.6	23.0	0.00e+00	0	27	0	348127232	40	6157
2026-01-05 03:35:28.24	130.26	7.05	-34.5	-35.3	22.6	0.00e+00	0	27	0	353370112	40	6631
2026-01-05 03:35:29.54	130.21	7.15	-35.3	-36.1	21.5	0.00e+00	0	27	0	362807296	42	6481
2026-01-05 03:35:30.26	130.18	7.20	-35.0	-35.7	22.0	0.00e+00	0	27	0	368050176	44	5553
2026-01-05 03:35:31.56	130.14	7.30	-33.4	-34.1	23.4	0.00e+00	0	27	0	377487360	40	5762
2026-01-05 03:35:32.28	130.11	7.36	-33.4	-34.1	23.5	0.00e+00	0	27	0	382730240	40	5795
2026-01-05 03:35:33.58	130.06	7.46	-33.7	-34.3	23.6	0.00e+00	0	27	0	392167424	40	5957
2026-01-05 03:35:34.30	130.03	7.51	-33.7	-34.4	23.5	0.00e+00	0	27	0	397410304	40	5970
2026-01-05 03:35:35.60	129.98	7.61	-33.7	-34.4	23.4	0.00e+00	0	27	0	406847488	40	5969
2026-01-05 03:35:36.32	129.95	7.67	-33.6	-34.3	23.6	0.00e+00	0	27	0	412090368	40	5926
2026-01-05 03:35:37.62	129.90	7.77	-34.1	-34.8	23.5	0.00e+00	0	27	0	421527552	40	6273
2026-01-05 03:35:38.34	129.87	7.82	-34.1	-34.8	22.7	0.00e+00	0	27	0	426770432	40	6265
2026-01-05 03:35:39.63	129.82	7.92	-33.4	-34.0	23.9	0.00e+00	0	27	0	436207616	40	5758
2026-01-05 03:35:40.36	129.79	7.98	-33.6	-34.3	23.4	0.00e+00	0	27	0	440401920	40	5925
2026-01-05 03:35:41.65	129.74	8.08	-33.4	-34.1	23.8	0.00e+00	0	27	0	449839104	40	5771
2026-01-05 03:35:42.38	129.71	8.14	-34.3	-35.0	23.3	0.00e+00	0	27	0	455081984	40	6400
2026-01-05 03:35:43.68	129.66	8.24	-33.3	-33.9	24.0	0.00e+00	0	27	0	464519168	40	5684
2026-01-05 03:35:44.40	129.63	8.30	-33.3	-34.0	23.9	0.00e+00	0	27	0	469762048	40	5721
2026-01-05 03:35:45.70	129.57	8.40	-33.4	-34.1	23.8	0.00e+00	0	27	0	479199232	40	5797
2026-01-05 03:35:46.42	129.54	8.46	-33.3	-34.0	24.0	0.00e+00	0	27	0	484442112	40	5714
2026-01-05 03:35:47.72	129.49	8.56	-33.1	-33.8	24.2	0.00e+00	0	27	0	493879296	40	5599
2026-01-05 03:35:48.44	129.46	8.62	-33.4	-34.1	24.0	0.00e+00	0	27	0	499122176	40	5800
2026-01-05 03:35:49.74	129.40	8.72	-33.3	-34.0	24.1	0.00e+00	0	27	0	508559360	40	5719
2026-01-05 03:35:50.46	129.37	8.78	-33.5	-34.1	23.8	0.00e+00	0	27	0	513802240	40	5815
2026-01-05 03:35:51.76	129.32	8.89	-33.1	-33.7	24.3	0.00e+00	0	27	0	523239424	40	5538
2026-01-05 03:35:52.48	129.29	8.94	-33.1	-33.8	24.3	0.00e+00	0	27	0	528482304	40	5578
2026-01-05 03:35:53.78	129.23	9.05	-33.1	-33.8	24.1	0.00e+00	0	27	0	537919488	40	5602
2026-01-05 03:35:54.50	129.20	9.11	-33.4	-34.1	24.2	0.00e+00	0	27	0	543162368	40	5783
2026-01-05 03:35:55.80	129.14	9.21	-33.4	-34.1	23.9	0.00e+00	0	27	0	552599552	40	5771
2026-01-05 03:35:56.52	129.11	9.27	-33.0	-33.6	24.0	0.00e+00	0	27	0	557842432	40	5496
2026-01-05 03:35:57.82	129.05	9.38	-32.7	-33.3	24.2	0.00e+00	0	27	0	567279616	38	5960
2026-01-05 03:35:58.54	129.02	9.44	-32.7	-33.4	24.2	0.00e+00	0	27	0	572522496	38	5980
2026-01-05 03:35:59.84	128.96	9.55	-32.5	-33.1	24.5	0.00e+00	0	27	0	581959680	38	5814
2026-01-05 03:36:00.56	128.93	9.61	-32.5	-33.2	24.6	0.00e+00	0	27	0	587202560	38	5860
2026-01-05 03:36:01.86	128.87	9.71	-32.5	-33.1	24.5	0.00e+00	0	27	0	596639744	38	5807
2026-01-05 03:36:02.58	128.84	9.77	-32.6	-33.2	24.5	0.00e+00	0	27	0	601882624	38	5893
2026-01-05 03:36:03.88	128.78	9.88	-32.4	-33.1	24.7	0.00e+00	0	27	0	610271232	38	5788
2026-01-05 03:36:04.60	128.75	9.94	-32.6	-33.2	24.6	0.00e+00	0	27	0	615514112	38	5893
2026-01-05 03:36:05.90	128.69	10.05	-32.5	-33.1	24.5	0.00e+00	0	27	0	624951296	38	5809
2026-01-05 03:36:06.62	128.65	10.11	-32.5	-33.1	24.6	0.00e+00	0	27	0	630194176	38	5821
2026-01-05 03:36:07.92	128.59	10.22	-32.4	-33.1	24.7	0.00e+00	0	27	0	639631360	38	5792
2026-01-05 03:36:08.64	128.56	10.28	-32.5	-33.1	24.7	0.00e+00	0	27	0	644874240	38	5801
2026-01-05 03:36:09.94	128.49	10.40	-32.3	-33.0	24.8	0.00e+00	0	27	0	654311424	38	5716
2026-01-05 03:36:10.66	128.46	10.46	-32.3	-33.0	24.7	0.00e+00	0	27	0	659554304	38	5715
2026-01-05 03:36:11.96	128.40	10.57	-32.4	-33.0	24.7	0.00e+00	0	27	0	668991488	38	5725
2026-01-05 03:36:12.68	128.36	10.63	-32.3	-33.0	24.7	0.00e+00	0	27	0	674234368	38	5718
2026-01-05 03:36:13.98	128.30	10.74	-32.5	-33.1	24.7	0.00e+00	0	27	0	683671552	38	5789
2026-01-05 03:36:14.70	128.26	10.81	-32.4	-33.0	24.7	0.00e+00	0	27	0	688914432	38	5720
2026-01-05 03:36:16.00	128.20	10.92	-32.4	-33.1	24.8	0.00e+00	0	27	0	698351616	38	5770
2026-01-05 03:36:16.72	128.16	10.98	-32.2	-32.8	24.8	0.00e+00	0	27	0	703594496	38	5606
2026-01-05 03:36:18.02	128.10	11.10	-32.2	-32.8	24.9	0.00e+00	0	27	0	713031680	38	5624
2026-01-05 03:36:18.74	128.06	11.16	-32.1	-32.8	24.9	0.00e+00	0	27	0	718274560	38	5596
2026-01-05 03:36:20.04	128.00	11.27	-32.2	-32.9	25.0	0.00e+00	0	27	0	727711744	38	5647
2026-01-05 03:36:20.76	127.96	11.34	-32.0	-32.6	25.0	0.00e+00	0	27	0	732954624	38	5493
2026-01-05 03:36:22.06	127.89	11.45	-32.1	-32.7	24.9	0.00e+00	0	27	0	742391808	38	5534
2026-01-05 03:36:22.78	127.85	11.52	-32.0	-32.6	25.1	0.00e+00	0	27	0	747634688	38	5492
2026-01-05 03:36:24.08	127.79	11.63	-32.1	-32.7	25.1	0.00e+00	0	27	0	757071872	38	5554
2026-01-05 03:36:24.80	127.75	11.70	-32.0	-32.6	25.0	0.00e+00	0	27	0	761266176	38	5477
2026-01-05 03:36:26.10	127.68	11.81	-32.1	-32.7	25.0	0.00e+00	0	27	0	770703360	38	5529
2026-01-05 03:36:26.82	127.64	11.88	-32.2	-32.9	24.9	0.00e+00	0	27	0	775946240	38	5642
2026-01-05 03:36:28.12	127.57	12.00	-32.3	-32.9	25.0	0.00e+00	0	27	0	785383424	38	5660
2026-01-05 03:36:28.84	127.53	12.06	-32.3	-32.9	24.9	0.00e+00	0	27	0	790626304	38	5691
2026-01-05 03:36:30.14	127.46	12.18	-31.8	-32.4	25.3	0.00e+00	0	27	0	800063488	36	5990
2026-01-05 03:36:30.86	127.42	12.25	-31.8	-32.4	25.2	0.00e+00	0	27	0	805306368	36	6023
2026-01-05 03:36:32.16	127.35	12.37	-31.8	-32.4	25.4	0.00e+00	0	27	0	814743552	36	5990
2026-01-05 03:36:32.88	127.31	12.43	-31.8	-32.4	25.3	0.00e+00	0	27	0	819986432	36	5998
2026-01-05 03:36:34.18	127.24	12.55	-31.7	-32.3	25.4	0.00e+00	0	27	0	829423616	36	5948
2026-01-05 03:36:34.91	127.20	12.62	-31.8	-32.4	25.2	0.00e+00	0	27	0	834666496	36	5986
2026-01-05 03:36:36.20	127.13	12.74	-32.0	-32.7	25.1	0.00e+00	0	27	0	844103680	36	6189
2026-01-05 03:36:36.93	127.09	12.81	-32.1	-32.8	25.0	0.00e+00	0	27	0	849346560	36	6254
2026-01-05 03:36:38.23	127.01	12.93	-31.9	-32.5	25.4	0.00e+00	0	27	0	858783744	36	6095
2026-01-05 03:36:38.95	126.97	13.00	-31.8	-32.4	25.3	0.00e+00	0	27	0	864026624	36	6005
2026-01-05 03:36:40.25	126.89	13.12	-32.3	-32.9	25.0	0.00e+00	0	27	0	873463808	36	6389
2026-01-05 03:36:40.97	126.85	13.19	-31.7	-32.3	25.4	0.00e+00	0	27	0	878706688	36	5933
2026-01-05 03:36:42.27	126.78	13.31	-31.5	-32.1	25.7	0.00e+00	0	27	0	888143872	36	5814
2026-01-05 03:36:42.99	126.73	13.38	-31.6	-32.2	25.7	0.00e+00	0	27	0	893386752	36	5840
2026-01-05 03:36:44.29	126.66	13.51	-32.5	-33.2	24.8	0.00e+00	0	27	0	902823936	38	5855
2026-01-05 03:36:45.01	126.61	13.58	-32.8	-33.4	24.8	0.00e+00	0	27	0	908066816	38	5982
2026-01-05 03:36:46.31	126.53	13.70	-32.3	-33.0	25.3	0.00e+00	0	27	0	917504000	38	5697
2026-01-05 03:36:47.03	126.49	13.77	-32.5	-33.1	25.3	0.00e+00	0	27	0	922746880	38	5809
2026-01-05 03:36:48.33	126.41	13.90	-31.9	-32.5	25.0	0.00e+00	0	27	0	931135488	38	5419
2026-01-05 03:36:49.05	126.37	13.97	-34.0	-34.6	24.4	0.00e+00	0	27	0	936378368	38	6907
2026-01-05 03:36:50.35	126.29	14.10	-32.3	-33.0	25.4	0.00e+00	0	27	0	945815552	38	5700
2026-01-05 03:36:51.07	126.24	14.17	-32.6	-33.3	25.0	0.00e+00	0	27	0	951058432	38	5901
2026-01-05 03:36:52.37	126.16	14.30	-32.7	-33.3	25.1	0.00e+00	0	27	0	960495616	38	5923
2026-01-05 03:36:53.09	126.11	14.37	-33.2	-33.9	24.1	0.00e+00	0	27	0	965738496	38	6324
2026-01-05 03:36:54.39	126.03	14.50	-32.9	-33.5	24.7	0.00e+00	0	27	0	975175680	38	6103
2026-01-05 03:36:55.11	125.98	14.57	-32.9	-33.5	25.1	0.00e+00	0	27	0	980418560	38	6065
2026-01-05 03:36:56.41	125.90	14.70	-32.6	-33.2	25.8	0.00e+00	0	27	0	989855744	38	5851
2026-01-05 03:36:57.13	125.85	14.77	-32.9	-33.5	24.8	0.00e+00	0	27	0	995098624	38	6083
2026-01-05 03:36:58.43	125.77	14.90	-32.1	-32.7	25.9	0.00e+00	0	27	0	1004535808	38	5520
2026-01-05 03:36:59.15	125.72	14.98	-32.1	-32.7	25.4	0.00e+00	0	27	0	1009778688	38	5555
2026-01-05 03:37:00.45	125.63	15.11	-31.3	-31.9	26.0	0.00e+00	0	27	0	1019215872	36	5664
2026-01-05 03:37:01.17	125.59	15.18	-32.5	-33.1	25.1	0.00e+00	0	27	0	1024458752	36	6531
2026-01-05 03:37:02.47	125.50	15.31	-32.0	-32.6	25.7	0.00e+00	0	27	0	1033895936	36	6115
2026-01-05 03:37:03.19	125.45	15.39	-31.2	-31.8	26.0	0.00e+00	0	27	0	1039138816	36	5620
2026-01-05 03:37:04.48	125.36	15.52	-31.6	-32.2	25.5	0.00e+00	0	27	0	1048576000	36	5866
2026-01-05 03:37:05.21	125.31	15.60	-31.2	-31.9	25.8	0.00e+00	0	27	0	1052770304	36	5633
2026-01-05 03:37:06.50	125.22	15.73	-31.5	-32.1	25.9	0.00e+00	0	27	0	1062207488	36	5800
2026-01-05 03:37:07.22	125.17	15.81	-31.7	-32.3	25.6	0.00e+00	0	27	0	1068498944	36	5940
2026-01-05 03:37:08.52	125.08	15.94	-32.0	-32.6	25.2	0.00e+00	0	27	0	1077936128	36	6144
2026-01-05 03:37:09.24	125.03	16.02	-32.4	-33.0	25.1	0.00e+00	0	27	0	1082130432	38	5738
2026-01-05 03:37:10.54	124.93	16.16	-31.6	-32.2	25.7	0.00e+00	0	27	0	1091567616	38	5252
2026-01-05 03:37:11.26	124.88	16.23	-31.9	-32.6	25.1	0.00e+00	0	27	0	1096810496	36	6104
2026-01-05 03:37:12.56	124.79	16.37	-31.5	-32.1	26.0	0.00e+00	0	27	0	1106247680	36	5785
2026-01-05 03:37:13.28	124.73	16.45	-31.5	-32.1	26.2	0.00e+00	0	27	0	1111490560	36	5802
2026-01-05 03:37:14.58	124.64	16.59	-31.3	-31.9	26.3	0.00e+00	0	27	0	1120927744	36	5667
2026-01-05 03:37:15.30	124.58	16.67	-31.5	-32.1	26.1	0.00e+00	0	27	0	1126170624	36	5788
2026-01-05 03:37:16.59	124.49	16.81	-30.8	-31.4	26.3	0.00e+00	0	27	0	1135607808	36	5350
2026-01-05 03:37:17.32	124.43	16.89	-30.8	-31.4	26.2	0.00e+00	0	27	0	1140850688	36	5322
2026-01-05 03:37:18.61	124.33	17.03	-30.8	-31.4	26.3	0.00e+00	0	27	0	1150287872	34	5992
2026-01-05 03:37:19.33	124.28	17.11	-30.8	-31.4	26.6	0.00e+00	0	27	0	1155530752	34	6015
2026-01-05 03:37:20.63	124.18	17.25	-30.3	-30.9	26.9	0.00e+00	0	27	0	1164967936	34	5681
2026-01-05 03:37:21.36	124.12	17.33	-30.3	-30.9	26.8	0.00e+00	0	27	0	1170210816	34	5645
2026-01-05 03:37:22.65	124.02	17.47	-30.1	-30.7	26.9	0.00e+00	0	27	0	1179648000	34	5563
2026-01-05 03:37:23.38	123.96	17.56	-30.2	-30.8	26.9	0.00e+00	0	27	0	1184890880	34	5582
2026-01-05 03:37:24.67	123.86	17.70	-30.2	-30.8	26.8	0.00e+00	0	27	0	1194328064	34	5586
2026-01-05 03:37:25.40	123.80	17.78	-30.4	-31.0	26.7	0.00e+00	0	27	0	1199570944	34	5715
2026-01-05 03:37:26.69	123.70	17.93	-31.2	-31.9	25.9	0.00e+00	0	27	0	1207959552	34	6319
2026-01-05 03:37:27.41	123.64	18.01	-30.7	-31.3	26.6	0.00e+00	0	27	0	1214251008	34	5935
2026-01-05 03:37:28.71	123.53	18.16	-30.0	-30.6	26.9	0.00e+00	0	27	0	1223688192	34	5495
2026-01-05 03:37:29.44	123.47	18.24	-30.5	-31.1	26.6	0.00e+00	0	27	0	1227882496	34	5774
2026-01-05 03:37:30.73	123.36	18.39	-30.0	-30.5	27.0	0.00e+00	0	27	0	1237319680	34	5436
2026-01-05 03:37:31.45	123.30	18.47	-30.3	-30.9	26.9	0.00e+00	0	27	0	1242562560	34	5637
2026-01-05 03:37:32.75	123.19	18.62	-30.2	-30.8	26.8	0.00e+00	0	27	0	1251999744	34	5586
2026-01-05 03:37:33.48	123.13	18.71	-30.2	-30.8	26.6	0.00e+00	0	27	0	1257242624	34	5605
2026-01-05 03:37:34.77	123.02	18.86	-30.3	-30.9	26.7	0.00e+00	0	27	0	1266679808	34	5677
2026-01-05 03:37:35.50	122.96	18.94	-29.9	-30.5	27.0	0.00e+00	0	27	0	1271922688	34	5386
2026-01-05 03:37:36.79	122.84	19.09	-30.1	-30.7	26.9	0.00e+00	0	27	0	1281359872	34	5524
2026-01-05 03:37:37.51	122.78	19.18	-30.3	-30.9	26.8	0.00e+00	0	27	0	1286602752	34	5674
2026-01-05 03:37:38.81	122.66	19.33	-29.8	-30.4	27.3	0.00e+00	0	27	0	1296039936	34	5327
2026-01-05 03:37:39.54	122.60	19.42	-30.4	-31.0	26.8	0.00e+00	0	27	0	1301282816	34	5711
2026-01-05 03:37:40.84	122.48	19.58	-30.5	-31.1	26.7	0.00e+00	0	27	0	1310720000	34	5807
2026-01-05 03:37:41.55	122.42	19.66	-31.0	-31.6	26.3	0.00e+00	0	27	0	1315962880	34	6153
2026-01-05 03:37:42.85	122.30	19.82	-30.7	-31.3	26.6	0.00e+00	0	27	0	1325400064	34	5950
2026-01-05 03:37:43.58	122.23	19.91	-30.9	-31.5	26.2	0.00e+00	0	27	0	1330642944	34	6073
2026-01-05 03:37:44.88	122.11	20.06	-31.6	-32.3	25.7	0.00e+00	0	27	0	1340080128	36	5901
2026-01-05 03:37:45.60	122.04	20.15	-31.3	-32.0	26.4	0.00e+00	0	27	0	1345323008	36	5702
2026-01-05 03:37:46.90	121.91	20.31	-31.3	-31.9	26.6	0.00e+00	0	27	0	1354760192	34	6334
2026-01-05 03:37:47.62	121.85	20.40	-30.7	-31.3	26.8	0.00e+00	0	27	0	1360003072	34	5931
2026-01-05 03:37:48.92	121.72	20.56	-30.4	-30.9	27.1	0.00e+00	0	27	0	1369440256	34	5690
2026-01-05 03:37:49.64	121.65	20.65	-30.5	-31.1	26.7	0.00e+00	0	27	0	1373634560	34	5788
2026-01-05 03:37:50.93	121.52	20.81	-30.0	-30.6	27.3	0.00e+00	0	27	0	1383071744	34	5462
2026-01-05 03:37:51.65	121.45	20.90	-29.8	-30.4	27.4	0.00e+00	0	27	0	1388314624	32	5975
2026-01-05 03:37:52.95	121.32	21.06	-29.8	-30.4	27.3	0.00e+00	0	27	0	1397751808	32	6017
2026-01-05 03:37:53.67	121.25	21.16	-29.8	-30.4	27.2	0.00e+00	0	27	0	1402994688	32	5998
2026-01-05 03:37:54.97	121.12	21.32	-29.6	-30.2	27.5	0.00e+00	0	27	0	1412431872	32	5869
2026-01-05 03:37:55.69	121.04	21.41	-29.7	-30.3	27.5	0.00e+00	0	27	0	1417674752	32	5899
2026-01-05 03:37:56.99	120.91	21.58	-29.6	-30.1	27.5	0.00e+00	0	27	0	1427111936	32	5818
2026-01-05 03:37:57.72	120.83	21.67	-29.6	-30.1	27.5	0.00e+00	0	27	0	1432354816	32	5828
2026-01-05 03:37:59.01	120.70	21.84	-29.5	-30.0	27.5	0.00e+00	0	27	0	1441792000	32	5757
2026-01-05 03:37:59.74	120.62	21.93	-29.9	-30.5	27.4	0.00e+00	0	27	0	1447034880	32	6083
2026-01-05 03:38:01.04	120.48	22.10	-29.7	-30.3	27.5	0.00e+00	0	27	0	1456472064	32	5920
2026-01-05 03:38:01.76	120.40	22.20	-29.6	-30.2	27.5	0.00e+00	0	27	0	1461714944	32	5830
2026-01-05 03:38:03.05	120.26	22.37	-30.0	-30.6	27.3	0.00e+00	0	27	0	1471152128	32	6167
2026-01-05 03:38:03.78	120.18	22.46	-30.3	-30.9	26.7	0.00e+00	0	27	0	1476395008	32	6355
2026-01-05 03:38:05.08	120.04	22.64	-29.9	-30.5	27.1	0.00e+00	0	27	0	1485832192	32	6087
2026-01-05 03:38:05.80	119.96	22.73	-29.7	-30.3	27.2	0.00e+00	0	27	0	1491075072	32	5955
2026-01-05 03:38:07.09	119.81	22.90	-30.0	-30.6	27.2	0.00e+00	0	27	0	1500512256	32	6133
2026-01-05 03:38:07.82	119.73	23.00	-29.8	-30.4	27.3	0.00e+00	0	27	0	1505755136	32	6021
2026-01-05 03:38:09.11	119.58	23.18	-29.8	-30.4	27.2	0.00e+00	0	27	0	1515192320	32	6017
2026-01-05 03:38:09.84	119.50	23.27	-29.8	-30.4	27.3	0.00e+00	0	27	0	1520435200	32	5972
2026-01-05 03:38:11.14	119.34	23.45	-29.5	-30.1	27.3	0.00e+00	0	27	0	1528823808	32	5792
2026-01-05 03:38:11.86	119.26	23.55	-29.8	-30.3	27.3	0.00e+00	0	27	0	1534066688	32	5962
2026-01-05 03:38:13.16	119.10	23.73	-29.7	-30.3	27.4	0.00e+00	0	27	0	1543503872	32	5940
2026-01-05 03:38:13.88	119.02	23.83	-29.7	-30.3	27.3	0.00e+00	0	27	0	1548746752	32	5945
2026-01-05 03:38:15.18	118.86	24.01	-30.4	-31.0	26.9	0.00e+00	0	27	0	1558183936	32	6395
2026-01-05 03:38:15.90	118.77	24.11	-30.1	-30.7	27.1	0.00e+00	0	27	0	1563426816	32	6185
2026-01-05 03:38:17.19	118.61	24.29	-30.5	-31.0	26.9	0.00e+00	0	27	0	1572864000	32	6450
2026-01-05 03:38:17.92	118.52	24.39	-29.8	-30.4	27.3	0.00e+00	0	27	0	1578106880	32	5984
2026-01-05 03:38:19.21	118.36	24.57	-30.1	-30.7	27.0	0.00e+00	0	27	0	1587544064	32	6223
2026-01-05 03:38:19.94	118.27	24.67	-29.8	-30.4	27.3	0.00e+00	0	27	0	1592786944	32	6014
2026-01-05 03:38:21.24	118.10	24.86	-29.7	-30.3	27.4	0.00e+00	0	27	0	1602224128	32	5946
2026-01-05 03:38:21.96	118.01	24.96	-29.9	-30.5	27.2	0.00e+00	0	27	0	1607467008	32	6076
2026-01-05 03:38:23.26	117.84	25.15	-30.1	-30.7	27.0	0.00e+00	0	27	0	1616904192	32	6196
2026-01-05 03:38:23.98	117.74	25.25	-29.9	-30.5	27.2	0.00e+00	0	27	0	1622147072	32	6076
2026-01-05 03:38:25.28	117.57	25.44	-30.0	-30.6	27.1	0.00e+00	0	27	0	1631584256	32	6104
2026-01-05 03:38:26.00	117.47	25.54	-29.9	-30.5	27.2	0.00e+00	0	27	0	1636827136	32	6070
2026-01-05 03:38:27.30	117.30	25.73	-29.9	-30.5	26.9	0.00e+00	0	27	0	1646264320	32	6035
2026-01-05 03:38:28.02	117.20	25.84	-29.9	-30.4	27.2	0.00e+00	0	27	0	1651507200	32	6028
2026-01-05 03:38:29.31	117.02	26.03	-29.7	-30.3	27.5	0.00e+00	0	27	0	1660944384	32	5899
2026-01-05 03:38:30.04	116.92	26.14	-30.0	-30.6	27.3	0.00e+00	0	27	0	1666187264	32	6141
2026-01-05 03:38:31.33	116.74	26.33	-29.8	-30.4	27.6	0.00e+00	0	27	0	1675624448	32	5975
2026-01-05 03:38:32.06	116.63	26.44	-29.6	-30.1	27.6	0.00e+00	0	27	0	1679818752	32	5827
2026-01-05 03:38:33.35	116.45	26.63	-29.5	-30.1	27.7	0.00e+00	0	27	0	1689255936	32	5787
2026-01-05 03:38:34.07	116.34	26.74	-29.4	-30.0	27.6	0.00e+00	0	27	0	1694498816	32	5703
2026-01-05 03:38:35.37	116.15	26.93	-29.8	-30.4	27.4	0.00e+00	0	27	0	1703936000	34	5344
2026-01-05 03:38:36.09	116.05	27.04	-29.3	-29.9	28.1	0.00e+00	0	27	0	1709178880	32	5664
2026-01-05 03:38:37.39	115.85	27.24	-29.0	-29.5	28.0	0.00e+00	0	27	0	1718616064	32	5411
2026-01-05 03:38:38.11	115.74	27.35	-28.8	-29.4	28.0	0.00e+00	0	27	0	1723858944	32	5335
2026-01-05 03:38:39.41	115.55	27.55	-28.8	-29.4	28.1	0.00e+00	0	27	0	1733296128	30	6005
2026-01-05 03:38:40.14	115.43	27.66	-29.0	-29.5	28.3	0.00e+00	0	27	0	1738539008	30	6077
2026-01-05 03:38:41.43	115.23	27.86	-28.3	-28.9	28.4	0.00e+00	0	27	0	1747976192	30	5654
2026-01-05 03:38:42.15	115.12	27.97	-28.5	-29.0	28.5	0.00e+00	0	27	0	1753219072	30	5753
2026-01-05 03:38:43.45	114.92	28.17	-29.0	-29.5	28.0	0.00e+00	0	27	0	1762656256	30	6071
2026-01-05 03:38:44.17	114.80	28.29	-28.5	-29.1	28.2	0.00e+00	0	27	0	1767899136	30	5795
2026-01-05 03:38:45.47	114.59	28.49	-29.2	-29.7	27.8	0.00e+00	0	27	0	1777336320	30	6243
2026-01-05 03:38:46.19	114.47	28.60	-28.7	-29.3	28.2	0.00e+00	0	27	0	1782579200	30	5937
2026-01-05 03:38:47.49	114.26	28.81	-28.3	-28.9	28.3	0.00e+00	0	27	0	1792016384	30	5666
2026-01-05 03:38:48.21	114.14	28.92	-29.4	-30.0	27.6	0.00e+00	0	27	0	1797259264	30	6442
2026-01-05 03:38:49.51	113.92	29.13	-29.1	-29.6	28.1	0.00e+00	0	27	0	1806696448	30	6165
2026-01-05 03:38:50.23	113.80	29.25	-29.5	-30.1	28.0	0.00e+00	0	27	0	1811939328	30	6483
2026-01-05 03:38:51.53	113.57	29.46	-29.1	-29.7	27.5	0.00e+00	0	27	0	1821376512	30	6245
2026-01-05 03:38:52.25	113.45	29.57	-29.7	-30.3	27.6	0.00e+00	0	27	0	1825570816	32	5906
2026-01-05 03:38:53.55	113.22	29.78	-29.4	-30.0	27.8	0.00e+00	0	27	0	1835008000	32	5705
2026-01-05 03:38:54.27	113.09	29.90	-28.9	-29.4	28.1	0.00e+00	0	27	0	1841299456	32	5368
2026-01-05 03:38:55.57	112.86	30.11	-29.1	-29.7	27.9	0.00e+00	0	27	0	1849688064	32	5530
2026-01-05 03:38:56.29	112.73	30.23	-29.4	-29.9	27.8	0.00e+00	0	27	0	1854930944	32	5695
2026-01-05 03:38:57.59	112.49	30.44	-29.4	-30.0	27.6	0.00e+00	0	27	0	1864368128	32	5747
2026-01-05 03:38:58.31	112.36	30.56	-29.7	-30.3	27.6	0.00e+00	0	27	0	1869611008	32	5917
2026-01-05 03:38:59.61	112.12	30.78	-29.4	-30.0	27.7	0.00e+00	0	27	0	1879048192	32	5746
2026-01-05 03:39:00.33	111.98	30.90	-29.2	-29.8	27.9	0.00e+00	0	27	0	1884291072	32	5600
2026-01-05 03:39:01.63	111.74	31.12	-29.3	-29.8	27.7	0.00e+00	0	27	0	1893728256	32	5629
2026-01-05 03:39:02.35	111.60	31.24	-29.5	-30.0	27.6	0.00e+00	0	27	0	1898971136	32	5758
2026-01-05 03:39:03.65	111.34	31.46	-30.1	-30.7	27.2	0.00e+00	0	27	0	1908408320	32	6217
2026-01-05 03:39:04.37	111.20	31.58	-29.7	-30.3	27.7	0.00e+00	0	27	0	1913651200	32	5934
2026-01-05 03:39:05.67	110.94	31.80	-29.2	-29.8	27.8	0.00e+00	0	27	0	1923088384	32	5605
2026-01-05 03:39:06.39	110.80	31.92	-29.2	-29.8	27.9	0.00e+00	0	27	0	1928331264	32	5601
2026-01-05 03:39:07.69	110.54	32.14	-29.4	-30.0	27.9	0.00e+00	0	27	0	1937768448	32	5701
2026-01-05 03:39:08.41	110.39	32.26	-28.8	-29.3	28.3	0.00e+00	0	27	0	1943011328	32	5307
2026-01-05 03:39:09.71	110.12	32.49	-28.9	-29.4	28.1	0.00e+00	0	27	0	1952448512	32	5372
2026-01-05 03:39:10.43	109.97	32.61	-29.0	-29.5	28.1	0.00e+00	0	27	0	1957691392	32	5427
2026-01-05 03:39:11.72	109.69	32.83	-28.8	-29.4	28.2	0.00e+00	0	27	0	1967128576	32	5352
2026-01-05 03:39:12.45	109.54	32.96	-29.1	-29.7	28.2	0.00e+00	0	27	0	1971322880	32	5519
2026-01-05 03:39:13.74	109.26	33.19	-28.4	-29.0	28.2	0.00e+00	0	27	0	1980760064	30	5696
2026-01-05 03:39:14.47	109.10	33.31	-28.5	-29.1	28.4	0.00e+00	0	27	0	1987051520	30	5787
2026-01-05 03:39:15.77	108.81	33.54	-28.6	-29.1	28.3	0.00e+00	0	27	0	1996488704	30	5819
2026-01-05 03:39:16.49	108.65	33.67	-28.8	-29.4	28.3	0.00e+00	0	27	0	2000683008	30	5979
2026-01-05 03:39:17.79	108.35	33.89	-28.8	-29.3	28.3	0.00e+00	0	27	0	2010120192	30	5961
2026-01-05 03:39:18.51	108.19	34.02	-29.3	-29.9	27.8	0.00e+00	0	27	0	2015363072	30	6353
2026-01-05 03:39:19.81	107.89	34.25	-30.3	-30.9	27.1	0.00e+00	0	27	0	2024800256	32	6365
2026-01-05 03:39:20.53	107.72	34.38	-29.3	-29.9	27.7	0.00e+00	0	27	0	2030043136	32	5638
2026-01-05 03:39:21.83	107.41	34.61	-29.3	-29.9	27.5	0.00e+00	0	27	0	2039480320	32	5659
2026-01-05 03:39:22.55	107.24	34.74	-29.4	-30.0	27.4	0.00e+00	0	27	0	2044723200	32	5746
2026-01-05 03:39:23.85	106.93	34.97	-29.7	-30.3	27.6	0.00e+00	0	27	0	2054160384	32	5918
2026-01-05 03:39:24.57	106.75	35.10	-29.8	-30.3	26.6	0.00e+00	0	27	0	2059403264	32	5956
2026-01-05 03:39:25.87	106.43	35.33	-30.2	-30.7	28.0	0.00e+00	0	27	0	2068840448	32	6232
2026-01-05 03:39:26.59	106.25	35.46	-29.5	-30.1	27.9	0.00e+00	0	27	0	2074083328	32	5767
2026-01-05 03:39:27.89	105.92	35.70	-28.8	-29.4	28.2	0.00e+00	0	27	0	2083520512	32	5348
2026-01-05 03:39:28.61	105.73	35.83	-29.0	-29.5	28.0	0.00e+00	0	27	0	2088763392	30	6095
2026-01-05 03:39:29.91	105.40	36.06	-29.4	-30.0	27.7	0.00e+00	0	27	0	2098200576	30	6438
2026-01-05 03:39:30.63	105.21	36.19	-28.9	-29.5	28.0	0.00e+00	0	27	0	2103443456	32	5398
2026-01-05 03:39:31.93	104.87	36.43	-29.0	-29.6	28.2	0.00e+00	0	27	0	2112880640	30	6115
2026-01-05 03:39:32.65	104.67	36.56	-29.0	-29.6	28.2	0.00e+00	0	27	0	2118123520	30	6123
2026-01-05 03:39:33.95	104.32	36.80	-29.0	-29.6	28.1	0.00e+00	0	27	0	2127560704	30	6141
2026-01-05 03:39:34.67	104.12	36.93	-29.3	-29.9	28.1	0.00e+00	0	27	0	2132803584	30	6319
2026-01-05 03:39:35.97	103.76	37.17	-29.3	-29.9	28.0	0.00e+00	0	27	0	2142240768	30	6340
2026-01-05 03:39:36.69	103.56	37.30	-30.0	-30.6	27.6	0.00e+00	0	27	0	2146435072	34	5482
2026-01-05 03:39:37.99	103.19	37.54	-29.4	-29.9	28.1	0.00e+00	0	27	0	2155872256	32	5672
2026-01-05 03:39:38.71	102.99	37.67	-30.0	-30.6	27.3	0.00e+00	0	27	0	2161115136	32	6139
2026-01-05 03:39:40.01	102.61	37.91	-30.2	-30.9	27.1	0.00e+00	0	27	0	2170552320	32	6323
2026-01-05 03:39:40.72	102.40	38.04	-30.2	-30.8	27.4	0.00e+00	0	27	0	2175795200	32	6258
2026-01-05 03:39:42.02	102.02	38.28	-30.0	-30.6	27.5	0.00e+00	0	27	0	2185232384	32	6155
2026-01-05 03:39:42.74	101.80	38.41	-29.6	-30.1	27.4	0.00e+00	0	27	0	2190475264	32	5827
2026-01-05 03:39:44.04	101.40	38.65	-29.4	-30.0	27.6	0.00e+00	0	27	0	2199912448	32	5754
2026-01-05 03:39:44.76	101.18	38.78	-29.2	-29.8	27.7	0.00e+00	0	27	0	2205155328	32	5569
2026-01-05 03:39:46.06	100.78	39.02	-29.2	-29.7	28.2	0.00e+00	0	27	0	2214592512	32	5552
2026-01-05 03:39:46.79	100.55	39.16	-29.3	-29.9	27.7	0.00e+00	0	27	0	2219835392	32	5634
2026-01-05 03:39:48.08	100.14	39.39	-29.7	-30.2	27.7	0.00e+00	0	27	0	2229272576	32	5887
2026-01-05 03:39:48.80	99.91	39.53	-29.3	-29.9	27.8	0.00e+00	0	27	0	2234515456	32	5682
2026-01-05 03:39:50.10	99.48	39.77	-29.5	-30.0	28.0	0.00e+00	0	27	0	2243952640	32	5759
2026-01-05 03:39:50.82	99.25	39.90	-29.0	-29.6	28.1	0.00e+00	0	27	0	2249195520	32	5467
2026-01-05 03:39:52.12	98.81	40.14	-29.1	-29.6	28.0	0.00e+00	0	27	0	2258632704	32	5491
2026-01-05 03:39:52.84	98.57	40.27	-29.1	-29.7	27.9	0.00e+00	0	27	0	2263875584	32	5536
2026-01-05 03:39:54.14	98.13	40.51	-29.3	-29.9	27.7	0.00e+00	0	27	0	2273312768	32	5636
2026-01-05 03:39:54.86	97.88	40.64	-29.3	-29.9	27.8	0.00e+00	0	27	0	2278555648	32	5661
2026-01-05 03:39:56.16	97.43	40.88	-30.0	-30.6	27.7	0.00e+00	0	27	0	2287992832	32	6129
2026-01-05 03:39:56.89	97.17	41.01	-29.8	-30.4	27.7	0.00e+00	0	27	0	2293235712	32	6020
2026-01-05 03:39:58.18	96.71	41.25	-29.6	-30.2	27.7	0.00e+00	0	27	0	2301624320	32	5851
2026-01-05 03:39:58.91	96.45	41.38	-29.5	-30.1	27.7	0.00e+00	0	27	0	2306867200	32	5793
2026-01-05 03:40:00.21	95.97	41.61	-29.5	-30.0	27.8	0.00e+00	0	27	0	2316304384	32	5758
2026-01-05 03:40:00.93	95.71	41.75	-29.2	-29.8	27.9	0.00e+00	0	27	0	2321547264	32	5595
2026-01-05 03:40:02.23	95.22	41.98	-28.9	-29.5	28.1	0.00e+00	0	27	0	2330984448	32	5411
2026-01-05 03:40:02.95	94.95	42.11	-28.8	-29.4	28.1	0.00e+00	0	27	0	2336227328	32	5349
2026-01-05 03:40:04.25	94.45	42.34	-28.9	-29.5	28.3	0.00e+00	0	27	0	2345664512	30	6062
2026-01-05 03:40:04.97	94.17	42.47	-28.8	-29.3	28.3	0.00e+00	0	27	0	2350907392	30	5942
2026-01-05 03:40:06.27	93.67	42.70	-28.7	-29.3	28.0	0.00e+00	0	27	0	2360344576	30	5926
2026-01-05 03:40:06.99	93.38	42.83	-28.8	-29.3	28.1	0.00e+00	0	27	0	2365587456	30	5960
2026-01-05 03:40:08.29	92.86	43.06	-29.1	-29.6	28.1	0.00e+00	0	27	0	2375024640	30	6173
2026-01-05 03:40:09.01	92.57	43.19	-29.1	-29.7	28.0	0.00e+00	0	27	0	2380267520	30	6209
2026-01-05 03:40:10.31	92.04	43.42	-29.0	-29.6	27.9	0.00e+00	0	27	0	2389704704	30	6143
2026-01-05 03:40:11.03	91.74	43.54	-29.5	-30.1	27.9	0.00e+00	0	27	0	2394947584	30	6525
2026-01-05 03:40:12.33	91.20	43.77	-29.2	-29.8	27.9	0.00e+00	0	27	0	2404384768	30	6282
2026-01-05 03:40:13.05	90.89	43.89	-29.1	-29.7	28.0	0.00e+00	0	27	0	2409627648	30	6196
2026-01-05 03:40:14.35	90.34	44.11	-29.1	-29.7	27.9	0.00e+00	0	27	0	2419064832	30	6193
2026-01-05 03:40:15.07	90.03	44.24	-29.2	-29.8	27.7	0.00e+00	0	27	0	2424307712	30	6279
2026-01-05 03:40:16.37	89.46	44.46	-29.2	-29.7	27.9	0.00e+00	0	27	0	2433744896	30	6241
2026-01-05 03:40:17.09	89.14	44.58	-29.2	-29.8	28.0	0.00e+00	0	27	0	2438987776	30	6249
2026-01-05 03:40:18.38	88.57	44.79	-28.8	-29.4	28.1	0.00e+00	0	27	0	2448424960	30	5993
2026-01-05 03:40:19.10	88.24	44.91	-28.9	-29.4	28.1	0.00e+00	0	27	0	2452619264	30	6020
2026-01-05 03:40:20.41	87.65	45.13	-29.0	-29.6	27.9	0.00e+00	0	27	0	2462056448	30	6125
2026-01-05 03:40:21.13	87.32	45.25	-29.2	-29.8	28.0	0.00e+00	0	27	0	2467299328	30	6247
2026-01-05 03:40:22.42	86.72	45.45	-29.3	-29.8	27.7	0.00e+00	0	27	0	2476736512	30	6312
2026-01-05 03:40:23.15	86.37	45.57	-29.5	-30.1	27.6	0.00e+00	0	27	0	2481979392	30	6471
2026-01-05 03:40:24.44	85.76	45.78	-29.7	-30.3	27.4	0.00e+00	0	27	0	2491416576	30	6653
2026-01-05 03:40:25.16	85.42	45.89	-29.6	-30.2	27.6	0.00e+00	0	27	0	2496659456	30	6546
2026-01-05 03:40:26.46	84.79	46.09	-29.6	-30.2	27.5	0.00e+00	0	27	0	2506096640	30	6567
2026-01-05 03:40:27.18	84.43	46.20	-29.3	-29.8	27.8	0.00e+00	0	27	0	2511339520	30	6305
2026-01-05 03:40:28.48	83.79	46.40	-29.3	-29.9	27.6	0.00e+00	0	27	0	2520776704	30	6346
2026-01-05 03:40:29.20	83.43	46.51	-29.7	-30.3	27.3	0.00e+00	0	27	0	2526019584	30	6652
2026-01-05 03:40:30.50	82.78	46.70	-29.8	-30.4	27.4	0.00e+00	0	27	0	2535456768	32	5992
2026-01-05 03:40:31.23	82.41	46.81	-29.9	-30.5	27.5	0.00e+00	0	27	0	2540699648	32	6038
2026-01-05 03:40:32.52	81.75	46.99	-30.4	-31.0	27.2	0.00e+00	0	27	0	2550136832	32	6413
2026-01-05 03:40:33.24	81.37	47.09	-30.0	-30.6	27.0	0.00e+00	0	27	0	2555379712	32	6151
2026-01-05 03:40:34.54	80.69	47.28	-30.3	-30.8	26.4	0.00e+00	0	27	0	2564816896	32	6313
2026-01-05 03:40:35.26	80.31	47.37	-30.0	-30.6	27.4	0.00e+00	0	27	0	2570059776	32	6133
2026-01-05 03:40:36.56	79.62	47.55	-30.2	-30.7	27.3	0.00e+00	0	27	0	2579496960	32	6239
2026-01-05 03:40:37.29	79.23	47.65	-30.3	-30.9	27.5	0.00e+00	0	27	0	2584739840	32	6337
2026-01-05 03:40:38.59	78.53	47.82	-31.0	-31.6	26.6	0.00e+00	0	27	0	2594177024	34	6155
2026-01-05 03:40:39.31	78.13	47.91	-30.4	-31.0	27.0	0.00e+00	0	27	0	2598371328	34	5739
2026-01-05 03:40:40.61	77.42	48.07	-30.5	-31.1	27.1	0.00e+00	0	27	0	2607808512	34	5790
2026-01-05 03:40:41.33	77.02	48.16	-31.5	-32.1	26.4	0.00e+00	0	27	0	2614099968	34	6485
2026-01-05 03:40:42.63	76.29	48.32	-30.4	-31.0	27.1	0.00e+00	0	27	0	2622488576	34	5707
2026-01-05 03:40:43.35	75.88	48.40	-30.3	-30.9	27.1	0.00e+00	0	27	0	2627731456	34	5694
2026-01-05 03:40:44.64	75.15	48.55	-30.2	-30.8	27.4	0.00e+00	0	27	0	2637168640	34	5579
2026-01-05 03:40:45.37	74.73	48.63	-30.2	-30.7	27.1	0.00e+00	0	27	0	2642411520	34	5565
2026-01-05 03:40:46.66	73.99	48.77	-31.0	-31.6	26.5	0.00e+00	0	27	0	2651848704	34	6128
2026-01-05 03:40:47.39	73.57	48.85	-30.6	-31.2	27.3	0.00e+00	0	27	0	2657091584	34	5843
2026-01-05 03:40:48.68	72.81	48.98	-31.0	-31.6	26.6	0.00e+00	0	27	0	2666528768	34	6163
2026-01-05 03:40:49.40	72.39	49.06	-30.8	-31.4	26.3	0.00e+00	0	27	0	2671771648	34	5999
2026-01-05 03:40:50.70	71.62	49.18	-30.6	-31.1	27.1	0.00e+00	0	27	0	2681208832	34	5824
2026-01-05 03:40:51.42	71.19	49.25	-30.1	-30.7	27.1	0.00e+00	0	27	0	2686451712	34	5547
2026-01-05 03:40:52.72	70.41	49.37	-30.0	-30.6	27.3	0.00e+00	0	27	0	2695888896	34	5455
2026-01-05 03:40:53.44	69.97	49.43	-29.8	-30.4	27.4	0.00e+00	0	27	0	2701131776	34	5350
2026-01-05 03:40:54.74	69.19	49.54	-29.7	-30.3	27.3	0.00e+00	0	27	0	2710568960	32	5915
2026-01-05 03:40:55.46	68.75	49.60	-30.5	-31.1	26.9	0.00e+00	0	27	0	2715811840	32	6518
2026-01-05 03:40:56.76	67.95	49.70	-30.7	-31.3	26.5	0.00e+00	0	27	0	2725249024	34	5936
2026-01-05 03:40:57.48	67.51	49.75	-30.4	-31.0	26.9	0.00e+00	0	27	0	2730491904	34	5747
2026-01-05 03:40:58.78	66.70	49.85	-30.3	-30.9	27.1	0.00e+00	0	27	0	2739929088	34	5675
2026-01-05 03:40:59.50	66.25	49.90	-30.0	-30.6	27.1	0.00e+00	0	27	0	2744123392	34	5462
2026-01-05 03:41:00.80	65.44	49.98	-29.9	-30.5	27.2	0.00e+00	0	27	0	2753560576	34	5387
2026-01-05 03:41:01.52	64.99	50.02	-30.1	-30.7	27.2	0.00e+00	0	27	0	2759852032	34	5523
2026-01-05 03:41:02.82	64.17	50.09	-30.2	-30.8	27.3	0.00e+00	0	27	0	2769289216	34	5588
2026-01-05 03:41:03.54	63.71	50.13	-30.0	-30.6	27.3	0.00e+00	0	27	0	2773483520	34	5496
2026-01-05 03:41:04.84	62.89	50.20	-30.3	-30.9	27.1	0.00e+00	0	27	0	2782920704	34	5662
2026-01-05 03:41:05.56	62.43	50.23	-30.5	-31.0	27.0	0.00e+00	0	27	0	2788163584	34	5756
2026-01-05 03:41:06.86	61.60	50.28	-30.1	-30.7	27.3	0.00e+00	0	27	0	2797600768	32	6183
2026-01-05 03:41:07.58	61.14	50.31	-30.1	-30.7	27.4	0.00e+00	0	27	0	2802843648	32	6200
2026-01-05 03:41:08.88	60.31	50.35	-30.3	-30.9	27.1	0.00e+00	0	27	0	2812280832	32	6345
2026-01-05 03:41:09.60	59.84	50.38	-30.4	-31.0	26.9	0.00e+00	0	27	0	2817523712	32	6443
2026-01-05 03:41:10.90	59.01	50.41	-31.1	-31.7	26.7	0.00e+00	0	27	0	2826960896	32	6955
2026-01-05 03:41:11.62	58.54	50.43	-31.0	-31.5	26.9	0.00e+00	0	27	0	2832203776	34	6103
2026-01-05 03:41:12.92	57.70	50.45	-30.2	-30.8	27.1	0.00e+00	0	27	0	2841640960	34	5571
2026-01-05 03:41:13.64	57.24	50.46	-30.3	-30.9	27.1	0.00e+00	0	27	0	2846883840	34	5684
2026-01-05 03:41:14.94	56.39	50.47	-30.0	-30.5	27.5	0.00e+00	0	27	0	2856321024	34	5431
2026-01-05 03:41:15.66	55.93	50.48	-29.9	-30.5	27.3	0.00e+00	0	27	0	2861563904	34	5388
2026-01-05 03:41:16.96	55.09	50.48	-31.9	-32.5	26.2	0.00e+00	0	27	0	2871001088	34	6804
2026-01-05 03:41:17.68	54.62	50.48	-30.8	-31.4	26.8	0.00e+00	0	27	0	2876243968	34	6032
2026-01-05 03:41:18.98	53.78	50.48	-30.1	-30.7	27.1	0.00e+00	0	27	0	2885681152	34	5535
2026-01-05 03:41:19.70	53.31	50.47	-30.0	-30.6	26.8	0.00e+00	0	27	0	2890924032	34	5444
2026-01-05 03:41:21.00	52.47	50.45	-29.6	-30.2	27.3	0.00e+00	0	27	0	2899312640	32	5842
2026-01-05 03:41:21.72	52.01	50.44	-30.3	-30.9	27.0	0.00e+00	0	27	0	2905604096	32	6360
2026-01-05 03:41:23.02	51.17	50.41	-30.3	-30.9	27.2	0.00e+00	0	27	0	2915041280	34	5655
2026-01-05 03:41:23.74	50.70	50.40	-29.9	-30.5	27.3	0.00e+00	0	27	0	2919235584	34	5412
2026-01-05 03:41:25.04	49.87	50.36	-30.1	-30.7	26.7	0.00e+00	0	27	0	2928672768	32	6223
2026-01-05 03:41:25.76	49.40	50.34	-30.1	-30.7	26.9	0.00e+00	0	27	0	2933915648	32	6174
2026-01-05 03:41:27.05	48.58	50.29	-29.9	-30.5	27.3	0.00e+00	0	27	0	2943352832	32	6049
2026-01-05 03:41:27.77	48.12	50.26	-30.2	-30.8	27.2	0.00e+00	0	27	0	2948595712	32	6252
2026-01-05 03:41:29.07	47.29	50.20	-29.9	-30.5	27.2	0.00e+00	0	27	0	2958032896	32	6045
2026-01-05 03:41:29.80	46.83	50.17	-30.0	-30.6	26.8	0.00e+00	0	27	0	2963275776	32	6105
2026-01-05 03:41:31.10	46.00	50.10	-29.9	-30.5	27.2	0.00e+00	0	27	0	2972712960	32	6049
2026-01-05 03:41:31.82	45.55	50.06	-29.9	-30.5	27.4	0.00e+00	0	27	0	2977955840	32	6092
2026-01-05 03:41:33.12	44.73	49.99	-29.8	-30.4	27.4	0.00e+00	0	27	0	2987393024	32	5980
2026-01-05 03:41:33.84	44.28	49.94	-30.1	-30.7	27.1	0.00e+00	0	27	0	2992635904	32	6178
2026-01-05 03:41:35.14	43.47	49.86	-30.2	-30.8	27.0	0.00e+00	0	27	0	3002073088	32	6259
2026-01-05 03:41:35.86	43.03	49.81	-30.4	-31.0	27.0	0.00e+00	0	27	0	3007315968	32	6393
2026-01-05 03:41:37.16	42.22	49.71	-30.5	-31.1	26.7	0.00e+00	0	27	0	3016753152	32	6512
2026-01-05 03:41:37.88	41.78	49.66	-30.6	-31.2	26.7	0.00e+00	0	27	0	3021996032	32	6583
2026-01-05 03:41:39.18	40.99	49.56	-30.3	-30.9	26.9	0.00e+00	0	27	0	3031433216	32	6354
2026-01-05 03:41:39.90	40.55	49.50	-30.2	-30.8	26.6	0.00e+00	0	27	0	3036676096	34	5612
2026-01-05 03:41:41.20	39.76	49.38	-30.2	-30.8	27.1	0.00e+00	0	27	0	3046113280	34	5593
2026-01-05 03:41:41.92	39.33	49.32	-30.0	-30.6	27.3	0.00e+00	0	27	0	3051356160	34	5452
2026-01-05 03:41:43.22	38.55	49.20	-30.6	-31.2	26.9	0.00e+00	0	27	0	3060793344	34	5831
2026-01-05 03:41:43.94	38.13	49.13	-30.1	-30.7	27.5	0.00e+00	0	27	0	3064987648	34	5503
2026-01-05 03:41:45.24	37.36	49.00	-29.5	-30.1	27.6	0.00e+00	0	27	0	3074424832	32	5790
2026-01-05 03:41:45.96	36.94	48.93	-29.7	-30.3	27.3	0.00e+00	0	27	0	3079667712	32	5952
2026-01-05 03:41:47.26	36.18	48.79	-30.0	-30.6	27.3	0.00e+00	0	27	0	3089104896	32	6113
2026-01-05 03:41:47.98	35.77	48.71	-30.0	-30.6	27.4	0.00e+00	0	27	0	3094347776	32	6130
2026-01-05 03:41:49.28	35.02	48.57	-30.5	-31.1	27.0	0.00e+00	0	27	0	3103784960	34	5815
2026-01-05 03:41:50.00	34.61	48.49	-30.3	-30.9	27.1	0.00e+00	0	27	0	3109027840	34	5683
2026-01-05 03:41:51.29	33.88	48.34	-30.4	-31.0	26.9	0.00e+00	0	27	0	3118465024	34	5720
2026-01-05 03:41:52.01	33.48	48.25	-29.8	-30.4	27.5	0.00e+00	0	27	0	3123707904	32	5991
2026-01-05 03:41:53.31	32.75	48.09	-29.5	-30.0	27.6	0.00e+00	0	27	0	3133145088	32	5754
2026-01-05 03:41:54.03	32.36	48.00	-29.9	-30.5	27.5	0.00e+00	0	27	0	3138387968	32	6056
2026-01-05 03:41:55.33	31.65	47.84	-29.6	-30.1	27.7	0.00e+00	0	27	0	3147825152	32	5818
2026-01-05 03:41:56.05	31.26	47.75	-29.6	-30.2	27.8	0.00e+00	0	27	0	3153068032	32	5861
2026-01-05 03:41:57.35	30.56	47.58	-29.8	-30.4	27.8	0.00e+00	0	27	0	3162505216	32	5985
2026-01-05 03:41:58.07	30.17	47.48	-29.7	-30.3	27.7	0.00e+00	0	27	0	3167748096	32	5916
2026-01-05 03:41:59.36	29.49	47.30	-29.5	-30.1	27.7	0.00e+00	0	27	0	3177185280	32	5778
2026-01-05 03:42:00.09	29.11	47.20	-29.5	-30.1	27.6	0.00e+00	0	27	0	3182428160	32	5788
2026-01-05 03:42:01.39	28.43	47.02	-29.7	-30.3	27.5	0.00e+00	0	27	0	3191865344	32	5928
2026-01-05 03:42:02.10	28.07	46.92	-30.0	-30.6	27.3	0.00e+00	0	27	0	3196059648	32	6107
2026-01-05 03:42:03.40	27.40	46.73	-29.6	-30.1	27.6	0.00e+00	0	27	0	3205496832	32	5813
2026-01-05 03:42:04.13	27.04	46.62	-29.7	-30.3	27.3	0.00e+00	0	27	0	3211788288	32	5947
2026-01-05 03:42:05.43	26.39	46.43	-29.4	-29.9	27.7	0.00e+00	0	27	0	3220176896	32	5692
2026-01-05 03:42:06.14	26.03	46.32	-29.1	-29.7	27.9	0.00e+00	0	27	0	3225419776	32	5536
2026-01-05 03:42:07.44	25.40	46.12	-28.9	-29.4	28.3	0.00e+00	0	27	0	3234856960	30	6025
2026-01-05 03:42:08.16	25.05	46.01	-28.8	-29.3	28.3	0.00e+00	0	27	0	3240099840	30	5938
2026-01-05 03:42:09.46	24.42	45.81	-28.9	-29.5	28.2	0.00e+00	0	27	0	3249537024	30	6065
2026-01-05 03:42:10.18	24.08	45.70	-29.7	-30.3	27.9	0.00e+00	0	27	0	3254779904	30	6652
2026-01-05 03:42:11.48	23.47	45.49	-29.8	-30.3	27.7	0.00e+00	0	27	0	3264217088	30	6682
2026-01-05 03:42:12.21	23.13	45.37	-29.5	-30.1	28.0	0.00e+00	0	27	0	3269459968	32	5808
2026-01-05 03:42:13.50	22.53	45.16	-30.5	-31.2	25.1	0.00e+00	0	27	0	3278897152	34	5848
2026-01-05 03:42:14.23	22.20	45.05	-31.0	-31.5	27.2	0.00e+00	0	27	0	3284140032	32	6826
2026-01-05 03:42:15.52	21.61	44.83	-30.7	-31.3	27.4	0.00e+00	0	27	0	3293577216	34	5929
2026-01-05 03:42:16.25	21.29	44.71	-31.0	-31.6	27.3	0.00e+00	0	27	0	3298820096	36	5452
2026-01-05 03:42:17.54	20.72	44.50	-29.7	-30.2	27.7	0.00e+00	0	27	0	3308257280	32	5896
2026-01-05 03:42:18.26	20.40	44.37	-29.1	-29.7	27.9	0.00e+00	0	27	0	3313500160	32	5518
2026-01-05 03:42:19.56	19.84	44.15	-29.3	-29.9	27.8	0.00e+00	0	27	0	3322937344	32	5673
2026-01-05 03:42:20.29	19.53	44.03	-29.8	-30.4	27.7	0.00e+00	0	27	0	3328180224	32	5985
2026-01-05 03:42:21.58	18.98	43.81	-29.0	-29.5	27.8	0.00e+00	0	27	0	3337617408	32	5421
2026-01-05 03:42:22.30	18.68	43.68	-29.2	-29.8	28.0	0.00e+00	0	27	0	3341811712	32	5585
2026-01-05 03:42:23.60	18.14	43.46	-28.8	-29.3	28.2	0.00e+00	0	27	0	3351248896	32	5300
2026-01-05 03:42:24.32	17.84	43.33	-28.7	-29.3	28.3	0.00e+00	0	27	0	3357540352	30	5914
2026-01-05 03:42:25.62	17.32	43.10	-28.7	-29.2	28.3	0.00e+00	0	27	0	3366977536	30	5887
2026-01-05 03:42:26.35	17.02	42.98	-28.5	-29.1	28.3	0.00e+00	0	27	0	3371171840	30	5806
2026-01-05 03:42:27.64	16.51	42.75	-28.7	-29.3	28.2	0.00e+00	0	27	0	3380609024	30	5911
2026-01-05 03:42:28.37	16.23	42.62	-28.6	-29.2	28.3	0.00e+00	0	27	0	3385851904	30	5863
2026-01-05 03:42:29.67	15.72	42.39	-28.9	-29.5	28.1	0.00e+00	0	27	0	3395289088	30	6065
2026-01-05 03:42:30.39	15.45	42.26	-29.1	-29.6	27.9	0.00e+00	0	27	0	3400531968	30	6155
2026-01-05 03:42:31.69	14.95	42.02	-29.1	-29.7	28.0	0.00e+00	0	27	0	3409969152	30	6188
2026-01-05 03:42:32.41	14.69	41.90	-29.1	-29.7	27.9	0.00e+00	0	27	0	3415212032	30	6229
2026-01-05 03:42:33.70	14.21	41.66	-29.0	-29.6	27.9	0.00e+00	0	27	0	3424649216	30	6108
2026-01-05 03:42:34.43	13.94	41.53	-29.1	-29.6	28.0	0.00e+00	0	27	0	3429892096	30	6164
2026-01-05 03:42:35.72	13.47	41.30	-28.7	-29.3	28.2	0.00e+00	0	27	0	3439329280	30	5941
2026-01-05 03:42:36.45	13.21	41.16	-28.7	-29.3	28.1	0.00e+00	0	27	0	3444572160	30	5914
2026-01-05 03:42:37.75	12.75	40.93	-28.7	-29.2	28.2	0.00e+00	0	27	0	3454009344	30	5894
2026-01-05 03:42:38.47	12.50	40.80	-28.7	-29.2	28.2	0.00e+00	0	27	0	3459252224	30	5876
2026-01-05 03:42:39.76	12.05	40.56	-29.0	-29.6	27.9	0.00e+00	0	27	0	3468689408	30	6148
2026-01-05 03:42:40.49	11.80	40.43	-28.8	-29.3	28.2	0.00e+00	0	27	0	3473932288	30	5960
2026-01-05 03:42:41.78	11.37	40.19	-28.6	-29.2	28.2	0.00e+00	0	27	0	3483369472	30	5860
2026-01-05 03:42:42.51	11.12	40.06	-28.5	-29.1	26.4	0.00e+00	0	27	0	3488612352	30	5801
2026-01-05 03:42:43.80	10.70	39.82	-28.7	-29.2	28.3	0.00e+00	0	27	0	3497000960	30	5888
2026-01-05 03:42:44.53	10.46	39.69	-28.5	-29.1	28.3	0.00e+00	0	27	0	3503292416	30	5767
2026-01-05 03:42:45.83	10.04	39.45	-28.7	-29.3	28.2	0.00e+00	0	27	0	3512729600	30	5936
2026-01-05 03:42:46.55	9.81	39.32	-28.7	-29.3	28.2	0.00e+00	0	27	0	3516923904	30	5951
2026-01-05 03:42:47.85	9.40	39.08	-29.0	-29.5	28.0	0.00e+00	0	27	0	3526361088	30	6090
2026-01-05 03:42:48.57	9.18	38.94	-28.9	-29.4	28.2	0.00e+00	0	27	0	3532652544	30	6028
2026-01-05 03:42:49.87	8.78	38.71	-29.2	-29.8	27.6	0.00e+00	0	27	0	3541041152	30	6273
2026-01-05 03:42:50.59	8.56	38.57	-29.5	-30.1	27.5	0.00e+00	0	27	0	3546284032	32	5779
2026-01-05 03:42:51.88	8.17	38.34	-30.1	-30.7	27.6	0.00e+00	0	27	0	3555721216	32	6234
2026-01-05 03:42:52.60	7.95	38.20	-29.7	-30.3	27.6	0.00e+00	0	27	0	3560964096	32	5903
2026-01-05 03:42:53.90	7.57	37.97	-28.9	-29.4	28.1	0.00e+00	0	27	0	3570401280	32	5373
2026-01-05 03:42:54.62	7.36	37.83	-28.8	-29.4	27.9	0.00e+00	0	27	0	3575644160	32	5330
2026-01-05 03:42:55.92	6.99	37.60	-28.7	-29.3	28.3	0.00e+00	0	27	0	3585081344	30	5911
2026-01-05 03:42:56.64	6.78	37.47	-28.9	-29.4	28.1	0.00e+00	0	27	0	3590324224	30	6029
2026-01-05 03:42:57.94	6.42	37.23	-28.9	-29.5	27.7	0.00e+00	0	27	0	3599761408	30	6040
2026-01-05 03:42:58.66	6.22	37.10	-29.4	-30.0	27.8	0.00e+00	0	27	0	3605004288	30	6395
2026-01-05 03:42:59.96	5.86	36.86	-28.9	-29.5	28.1	0.00e+00	0	27	0	3614441472	30	6049
2026-01-05 03:43:00.68	5.67	36.73	-28.9	-29.4	28.2	0.00e+00	0	27	0	3619684352	30	6024
2026-01-05 03:43:01.98	5.32	36.49	-29.1	-29.7	27.9	0.00e+00	0	27	0	3629121536	30	6176
2026-01-05 03:43:02.70	5.13	36.36	-28.8	-29.4	28.2	0.00e+00	0	27	0	3634364416	30	6000
2026-01-05 03:43:04.00	4.78	36.13	-29.3	-29.9	27.8	0.00e+00	0	27	0	3643801600	30	6332
2026-01-05 03:43:04.72	4.60	36.00	-29.7	-30.2	27.6	0.00e+00	0	27	0	3649044480	32	5880
2026-01-05 03:43:06.02	4.26	35.76	-29.0	-29.6	28.0	0.00e+00	0	27	0	3658481664	32	5480
2026-01-05 03:43:06.75	4.08	35.63	-28.9	-29.5	28.0	0.00e+00	0	27	0	3662675968	32	5387
2026-01-05 03:43:08.04	3.75	35.40	-28.7	-29.2	28.2	0.00e+00	0	27	0	3672113152	30	5883
2026-01-05 03:43:08.77	3.57	35.27	-28.6	-29.2	28.3	0.00e+00	0	27	0	3678404608	30	5851
2026-01-05 03:43:10.06	3.26	35.04	-28.4	-29.0	28.5	0.00e+00	0	27	0	3687841792	30	5698
2026-01-05 03:43:10.79	3.08	34.91	-28.3	-28.9	28.5	0.00e+00	0	27	0	3692036096	30	5643
2026-01-05 03:43:12.08	2.77	34.68	-28.4	-29.0	28.5	0.00e+00	0	27	0	3701473280	30	5731
2026-01-05 03:43:12.81	2.60	34.55	-28.5	-29.1	28.3	0.00e+00	0	27	0	3706716160	30	5764
2026-01-05 03:43:14.11	2.29	34.32	-28.8	-29.3	28.0	0.00e+00	0	27	0	3716153344	30	5959
2026-01-05 03:43:14.83	2.13	34.19	-28.7	-29.3	28.2	0.00e+00	0	27	0	3721396224	30	5899
2026-01-05 03:43:16.13	1.83	33.96	-28.4	-29.0	28.4	0.00e+00	0	27	0	3730833408	30	5706
2026-01-05 03:43:16.85	1.66	33.84	-28.6	-29.2	28.2	0.00e+00	0	27	0	3736076288	30	5861
2026-01-05 03:43:18.15	1.37	33.61	-28.6	-29.1	28.2	0.00e+00	0	27	0	3745513472	30	5817
2026-01-05 03:43:18.87	1.21	33.48	-28.6	-29.1	28.3	0.00e+00	0	27	0	3750756352	30	5820
2026-01-05 03:43:20.17	0.93	33.26	-28.7	-29.3	28.2	0.00e+00	0	27	0	3760193536	30	5929
2026-01-05 03:43:20.89	0.77	33.13	-29.2	-29.8	28.0	0.00e+00	0	27	0	3765436416	30	6278
2026-01-05 03:43:22.19	0.49	32.91	-28.6	-29.2	28.3	0.00e+00	0	27	0	3774873600	30	5840
2026-01-05 03:43:22.91	0.34	32.78	-28.4	-29.0	28.3	0.00e+00	0	27	0	3780116480	30	5718
2026-01-05 03:43:24.21	0.07	32.56	-28.6	-29.1	28.3	0.00e+00	0	27	0	3789553664	30	5825
2026-01-05 03:43:24.93	359.92	32.44	-28.9	-29.4	28.2	0.00e+00	0	27	0	3794796544	30	6019
2026-01-05 03:43:26.23	359.65	32.21	-28.6	-29.2	28.2	0.00e+00	0	27	0	3804233728	30	5895
2026-01-05 03:43:26.95	359.50	32.09	-28.7	-29.3	28.0	0.00e+00	0	27	0	3809476608	30	5899
2026-01-05 03:43:28.25	359.24	31.87	-28.5	-29.1	28.1	0.00e+00	0	27	0	3817865216	30	5793
2026-01-05 03:43:28.97	359.10	31.75	-28.6	-29.2	28.0	0.00e+00	0	27	0	3824156672	30	5868
2026-01-05 03:43:30.27	358.84	31.53	-28.7	-29.3	27.9	0.00e+00	0	27	0	3833593856	30	5915
2026-01-05 03:43:30.99	358.70	31.41	-29.0	-29.6	27.6	0.00e+00	0	27	0	3837788160	30	6138
2026-01-05 03:43:32.29	358.45	31.19	-29.7	-30.3	27.3	0.00e+00	0	27	0	3847225344	32	5929
2026-01-05 03:43:33.01	358.31	31.07	-29.3	-29.8	28.0	0.00e+00	0	27	0	3852468224	32	5608
2026-01-05 03:43:34.30	358.07	30.86	-28.5	-29.0	28.2	0.00e+00	0	27	0	3861905408	30	5746
2026-01-05 03:43:35.02	357.93	30.74	-28.4	-29.0	28.3	0.00e+00	0	27	0	3867148288	30	5713
2026-01-05 03:43:36.33	357.69	30.52	-28.5	-29.1	27.8	0.00e+00	0	27	0	3876585472	30	5798
2026-01-05 03:43:37.05	357.56	30.40	-28.6	-29.1	27.9	0.00e+00	0	27	0	3881828352	30	5827
2026-01-05 03:43:38.35	357.33	30.19	-28.6	-29.2	27.9	0.00e+00	0	27	0	3891265536	30	5851
2026-01-05 03:43:39.07	357.20	30.07	-29.5	-30.0	27.6	0.00e+00	0	27	0	3896508416	30	6458
2026-01-05 03:43:40.36	356.97	29.86	-28.9	-29.5	27.7	0.00e+00	0	27	0	3905945600	32	5388
2026-01-05 03:43:41.08	356.84	29.75	-29.1	-29.7	27.9	0.00e+00	0	27	0	3911188480	32	5507
2026-01-05 03:43:42.38	356.62	29.54	-29.3	-29.9	27.7	0.00e+00	0	27	0	3920625664	32	5664
2026-01-05 03:43:43.10	356.49	29.42	-29.3	-29.9	27.8	0.00e+00	0	27	0	3925868544	32	5674
2026-01-05 03:43:44.40	356.27	29.21	-29.8	-30.4	26.9	0.00e+00	0	27	0	3935305728	32	5986
2026-01-05 03:43:45.12	356.15	29.10	-29.3	-29.9	27.5	0.00e+00	0	27	0	3940548608	32	5647
2026-01-05 03:43:46.42	355.93	28.89	-28.9	-29.5	27.8	0.00e+00	0	27	0	3949985792	32	5412
2026-01-05 03:43:47.15	355.81	28.78	-29.2	-29.7	27.5	0.00e+00	0	27	0	3955228672	32	5565
2026-01-05 03:43:48.44	355.60	28.57	-29.5	-30.1	27.3	0.00e+00	0	27	0	3964665856	34	5143
2026-01-05 03:43:49.16	355.48	28.46	-29.9	-30.5	27.4	0.00e+00	0	27	0	3969908736	32	6055
2026-01-05 03:43:50.46	355.28	28.26	-28.9	-29.5	27.8	0.00e+00	0	27	0	3979345920	32	5406
2026-01-05 03:43:51.18	355.16	28.15	-29.1	-29.7	27.8	0.00e+00	0	27	0	3983540224	32	5519
2026-01-05 03:43:52.48	354.96	27.94	-29.1	-29.7	27.8	0.00e+00	0	27	0	3992977408	32	5523
2026-01-05 03:43:53.20	354.85	27.83	-28.9	-29.5	28.0	0.00e+00	0	27	0	3998220288	32	5406
2026-01-05 03:43:54.50	354.65	27.63	-29.0	-29.6	27.9	0.00e+00	0	27	0	4007657472	32	5462
2026-01-05 03:43:55.22	354.54	27.52	-29.1	-29.7	28.0	0.00e+00	0	27	0	4012900352	32	5528
2026-01-05 03:43:56.52	354.34	27.33	-29.2	-29.7	27.8	0.00e+00	0	27	0	4022337536	32	5554
2026-01-05 03:43:57.24	354.23	27.22	-29.4	-30.0	27.7	0.00e+00	0	27	0	4027580416	32	5736
2026-01-05 03:43:58.54	354.04	27.02	-29.2	-29.8	27.9	0.00e+00	0	27	0	4037017600	32	5595
2026-01-05 03:43:59.26	353.94	26.91	-29.0	-29.6	27.9	0.00e+00	0	27	0	4042260480	32	5485
2026-01-05 03:44:00.56	353.75	26.72	-29.3	-29.9	27.8	0.00e+00	0	27	0	4051697664	32	5644
2026-01-05 03:44:01.28	353.64	26.61	-29.6	-30.2	27.7	0.00e+00	0	27	0	4056940544	32	5863
2026-01-05 03:44:02.58	353.46	26.42	-29.6	-30.2	27.4	0.00e+00	0	27	0	4066377728	32	5832
2026-01-05 03:44:03.30	353.36	26.31	-29.5	-30.0	27.4	0.00e+00	0	27	0	4071620608	32	5759
2026-01-05 03:44:04.60	353.18	26.12	-29.4	-30.0	27.8	0.00e+00	0	27	0	4081057792	32	5726
2026-01-05 03:44:05.32	353.08	26.01	-31.0	-31.6	26.5	0.00e+00	0	27	0	4086300672	34	6164
2026-01-05 03:44:06.62	352.90	25.82	-30.4	-31.0	27.1	0.00e+00	0	27	0	4095737856	34	5730
2026-01-05 03:44:07.34	352.80	25.72	-30.3	-30.8	27.3	0.00e+00	0	27	0	4100980736	32	6311
2026-01-05 03:44:08.63	352.63	25.53	-29.6	-30.2	27.6	0.00e+00	0	27	0	4110417920	32	5849
2026-01-05 03:44:09.36	352.53	25.42	-29.5	-30.1	27.6	0.00e+00	0	27	0	4114612224	32	5786
2026-01-05 03:44:10.66	352.36	25.24	-29.6	-30.1	27.5	0.00e+00	0	27	0	4124049408	32	5828
2026-01-05 03:44:11.38	352.27	25.13	-29.3	-29.9	27.6	0.00e+00	0	27	0	4130340864	32	5664
2026-01-05 03:44:12.67	352.10	24.95	-29.6	-30.2	27.6	0.00e+00	0	27	0	4138729472	32	5867
2026-01-05 03:44:13.40	352.01	24.85	-29.9	-30.5	27.5	0.00e+00	0	27	0	4143972352	32	6035
2026-01-05 03:44:14.69	351.84	24.67	-30.9	-31.5	26.9	0.00e+00	0	27	0	4153409536	34	6079
2026-01-05 03:44:15.41	351.75	24.56	-30.3	-30.9	26.9	0.00e+00	0	27	0	4158652416	34	5644
2026-01-05 03:44:16.71	351.59	24.38	-29.7	-30.3	27.5	0.00e+00	0	27	0	4168089600	32	5922
2026-01-05 03:44:17.43	351.50	24.28	-30.1	-30.6	27.4	0.00e+00	0	27	0	4173332480	32	6163
2026-01-05 03:44:18.73	351.34	24.10	-30.0	-30.6	27.2	0.00e+00	0	27	0	4182769664	32	6153
2026-01-05 03:44:19.45	351.25	24.00	-29.6	-30.1	27.5	0.00e+00	0	27	0	4188012544	32	5828
2026-01-05 03:44:20.75	351.10	23.82	-29.7	-30.3	27.2	0.00e+00	0	27	0	4197449728	32	5912
2026-01-05 03:44:21.47	351.01	23.72	-29.7	-30.2	27.4	0.00e+00	0	27	0	4202692608	32	5895
2026-01-05 03:44:22.77	350.86	23.55	-29.7	-30.3	27.4	0.00e+00	0	27	0	4212129792	32	5901
2026-01-05 03:44:23.49	350.77	23.45	-29.3	-29.9	27.6	0.00e+00	0	27	0	4217372672	32	5669
2026-01-05 03:44:24.79	350.62	23.27	-29.2	-29.8	27.5	0.00e+00	0	27	0	4226809856	32	5604
2026-01-05 03:44:25.51	350.54	23.18	-29.4	-30.0	27.6	0.00e+00	0	27	0	4232052736	32	5703
2026-01-05 03:44:26.81	350.39	23.00	-29.5	-30.1	27.5	0.00e+00	0	27	0	4241489920	32	5768
2026-01-05 03:44:27.53	350.31	22.91	-29.1	-29.7	27.7	0.00e+00	0	27	0	4246732800	32	5544
2026-01-05 03:44:28.83	350.17	22.73	-29.0	-29.6	27.8	0.00e+00	0	27	0	4256169984	32	5480
2026-01-05 03:44:29.55	350.09	22.64	-29.1	-29.7	27.7	0.00e+00	0	27	0	4260364288	32	5540
2026-01-05 03:44:30.85	349.94	22.47	-29.3	-29.9	27.7	0.00e+00	0	27	0	4269801472	32	5643
2026-01-05 03:44:31.57	349.87	22.37	-29.0	-29.6	27.8	0.00e+00	0	27	0	4276092928	32	5460
2026-01-05 03:44:32.87	349.73	22.20	-29.3	-29.9	27.6	0.00e+00	0	27	0	4285530112	32	5649
2026-01-05 03:44:33.59	349.65	22.11	-29.5	-30.1	27.4	0.00e+00	0	27	0	4289724416	32	5808
2026-01-05 03:44:34.89	349.51	21.94	-29.3	-29.9	27.7	0.00e+00	0	27	0	4299161600	32	5674
2026-01-05 03:44:35.61	349.44	21.85	-29.4	-30.0	27.6	0.00e+00	0	27	0	4304404480	32	5738
2026-01-05 03:44:36.91	349.30	21.68	-29.9	-30.5	27.1	0.00e+00	0	27	0	4313841664	32	6041
2026-01-05 03:44:37.63	349.23	21.59	-30.0	-30.6	27.1	0.00e+00	0	27	0	4319084544	32	6107
2026-01-05 03:44:38.93	349.09	21.42	-29.4	-29.9	27.6	0.00e+00	0	27	0	4328521728	32	5691
2026-01-05 03:44:39.65	349.02	21.33	-29.5	-30.1	27.4	0.00e+00	0	27	0	4333764608	32	5789
2026-01-05 03:44:40.95	348.89	21.17	-29.6	-30.2	27.3	0.00e+00	0	27	0	4343201792	32	5860
2026-01-05 03:44:41.67	348.82	21.08	-29.7	-30.3	27.3	0.00e+00	0	27	0	4348444672	32	5898
2026-01-05 03:44:42.97	348.69	20.91	-29.9	-30.5	27.1	0.00e+00	0	27	0	4357881856	32	6038
2026-01-05 03:44:43.69	348.62	20.82	-30.1	-30.7	27.1	0.00e+00	0	27	0	4363124736	32	6191
2026-01-05 03:44:44.99	348.49	20.66	-30.0	-30.5	27.0	0.00e+00	0	27	0	4372561920	32	6103
2026-01-05 03:44:45.71	348.42	20.57	-30.1	-30.6	26.8	0.00e+00	0	27	0	4377804800	32	6168
2026-01-05 03:44:47.01	348.30	20.41	-30.1	-30.7	27.0	0.00e+00	0	27	0	4387241984	32	6239
2026-01-05 03:44:47.73	348.23	20.32	-30.3	-30.9	26.9	0.00e+00	0	27	0	4392484864	32	6354
2026-01-05 03:44:49.03	348.11	20.17	-30.1	-30.7	27.0	0.00e+00	0	27	0	4401922048	32	6189
2026-01-05 03:44:49.75	348.04	20.08	-30.4	-31.0	26.8	0.00e+00	0	27	0	4407164928	32	6399
2026-01-05 03:44:51.05	347.92	19.92	-30.2	-30.8	26.8	0.00e+00	0	27	0	4415553536	32	6302
2026-01-05 03:44:51.77	347.85	19.83	-30.1	-30.7	27.0	0.00e+00	0	27	0	4421844992	32	6208
2026-01-05 03:44:53.07	347.73	19.68	-30.1	-30.7	26.8	0.00e+00	0	27	0	4431282176	32	6221
2026-01-05 03:44:53.79	347.67	19.59	-30.3	-30.9	26.8	0.00e+00	0	27	0	4435476480	32	6344
2026-01-05 03:44:55.09	347.55	19.44	-30.1	-30.7	26.8	0.00e+00	0	27	0	4444913664	32	6221
2026-01-05 03:44:55.81	347.49	19.35	-30.3	-30.9	26.8	0.00e+00	0	27	0	4450156544	32	6346
2026-01-05 03:44:57.11	347.37	19.20	-30.3	-30.9	26.7	0.00e+00	0	27	0	4459593728	32	6327
2026-01-05 03:44:57.83	347.31	19.11	-30.3	-30.9	26.7	0.00e+00	0	27	0	4464836608	32	6341
2026-01-05 03:44:59.13	347.20	18.96	-30.1	-30.7	26.8	0.00e+00	0	27	0	4474273792	32	6210
2026-01-05 03:44:59.85	347.14	18.88	-29.9	-30.5	27.1	0.00e+00	0	27	0	4479516672	32	6091
2026-01-05 03:45:01.15	347.03	18.73	-30.1	-30.7	27.0	0.00e+00	0	27	0	4488953856	32	6198
2026-01-05 03:45:01.87	346.97	18.64	-30.1	-30.6	27.0	0.00e+00	0	27	0	4494196736	32	6167
2026-01-05 03:45:03.16	346.86	18.50	-30.1	-30.7	26.8	0.00e+00	0	27	0	4503633920	32	6175
2026-01-05 03:45:03.89	346.80	18.41	-29.8	-30.4	27.0	0.00e+00	0	27	0	4508876800	32	6023
2026-01-05 03:45:05.18	346.69	18.26	-30.0	-30.6	26.9	0.00e+00	0	27	0	4518313984	32	6167
2026-01-05 03:45:05.91	346.63	18.18	-30.1	-30.7	27.1	0.00e+00	0	27	0	4523556864	32	6199
2026-01-05 03:45:07.21	346.52	18.03	-30.3	-30.9	26.8	0.00e+00	0	27	0	4532994048	32	6346
2026-01-05 03:45:07.93	346.47	17.95	-30.1	-30.7	27.0	0.00e+00	0	27	0	4538236928	32	6200
2026-01-05 03:45:09.22	346.36	17.81	-30.2	-30.8	26.9	0.00e+00	0	27	0	4547674112	32	6300
2026-01-05 03:45:09.95	346.31	17.73	-30.2	-30.8	26.7	0.00e+00	0	27	0	4552916992	32	6307
2026-01-05 03:45:11.24	346.20	17.58	-30.1	-30.7	26.9	0.00e+00	0	27	0	4562354176	32	6221
2026-01-05 03:45:11.97	346.15	17.50	-30.2	-30.8	26.8	0.00e+00	0	27	0	4567597056	32	6304
2026-01-05 03:45:13.27	346.05	17.36	-30.4	-31.0	26.7	0.00e+00	0	27	0	4577034240	32	6425
2026-01-05 03:45:13.99	345.99	17.28	-31.1	-31.7	25.9	0.00e+00	0	27	0	4581228544	34	6208
2026-01-05 03:45:15.29	345.89	17.14	-30.3	-30.9	26.7	0.00e+00	0	27	0	4590665728	34	5669
2026-01-05 03:45:16.01	345.84	17.06	-30.2	-30.8	26.8	0.00e+00	0	27	0	4595908608	34	5588
