passes_logs/2026/01/05/R4.6S_Anadyr/R4.6S_Anadyr__20260105_143146_SUOMI_NPP_rec.log

#Pass ID: 20260105_143146_SUOMI NPP
#Satellite: SUOMI NPP
#Configuration: NPP
#almurnet v.1.7.20251203
#Start time: 2026-01-05 14:31:47

#Version: 2.2.20231116
#Station: R4.6S_Anadyr
#Location: 177.4865 lon 64.73178 lat
#TLE: 1 37849U 11061A   26004.95404768  .00000136  00000+0  85334-4 0  9991
#TLE: 2 37849  98.7801 307.0898 0002574  80.6707 279.4760 14.19522289735280

#Time	Az	El	Level	Level2	SNR	BER	BlckErr	Temp	State	Recorded	gain1	gain2
2026-01-05 14:31:47.92	20.06	0.11	-48.4	-60.9	3.5	1.52e+00	0	26	0	0	60	38931
2026-01-05 14:31:48.93	20.07	0.17	-48.5	-63.6	3.6	1.51e+00	0	27	104	0	60	54992
2026-01-05 14:31:49.94	20.09	0.23	-48.5	-63.7	3.6	1.51e+00	0	28	104	0	60	55176
2026-01-05 14:31:50.95	20.10	0.29	-48.4	-63.6	3.6	1.51e+00	0	27	104	0	60	54902
2026-01-05 14:31:51.96	20.11	0.35	-48.5	-63.6	3.6	1.51e+00	0	27	104	0	60	54864
2026-01-05 14:31:52.97	20.12	0.41	-48.5	-63.7	3.5	1.51e+00	0	28	104	0	60	55054
2026-01-05 14:31:53.98	20.14	0.47	-48.5	-63.6	3.6	1.51e+00	0	28	104	0	60	55023
2026-01-05 14:31:54.99	20.15	0.53	-48.5	-63.6	3.6	1.51e+00	0	28	104	0	60	54988
2026-01-05 14:31:56.00	20.16	0.59	-48.4	-63.6	3.6	1.51e+00	0	28	104	0	60	54866
2026-01-05 14:31:57.01	20.17	0.65	-48.4	-63.6	3.6	1.51e+00	0	28	104	0	60	54504
2026-01-05 14:31:58.02	20.19	0.72	-48.3	-63.5	3.6	1.51e+00	0	27	104	0	60	53831
2026-01-05 14:31:59.03	20.20	0.78	-48.2	-63.3	3.6	1.51e+00	0	28	104	0	60	53124
2026-01-05 14:32:00.04	20.21	0.84	-48.1	-63.2	3.6	1.51e+00	0	28	104	0	60	52275
2026-01-05 14:32:01.04	20.23	0.90	-47.9	-63.1	3.6	1.51e+00	0	28	104	0	60	51454
2026-01-05 14:32:02.06	20.24	0.96	-47.7	-62.9	3.6	1.51e+00	0	28	104	0	60	50600
2026-01-05 14:32:03.07	20.25	1.02	-47.5	-62.6	3.6	1.51e+00	0	28	104	0	60	48745
2026-01-05 14:32:04.08	20.26	1.09	-47.1	-62.2	3.6	1.51e+00	0	28	104	0	60	46586
2026-01-05 14:32:05.08	20.28	1.15	-47.1	-62.2	3.6	1.51e+00	0	28	104	0	60	46388
2026-01-05 14:32:06.10	20.29	1.21	-47.1	-62.2	3.6	1.51e+00	0	28	104	0	60	46602
2026-01-05 14:32:07.11	20.30	1.27	-47.1	-62.2	3.6	1.51e+00	0	28	104	0	60	46474
2026-01-05 14:32:08.11	20.32	1.34	-47.1	-62.2	3.6	1.51e+00	0	28	104	0	60	46471
2026-01-05 14:32:09.12	20.33	1.40	-47.1	-62.1	3.6	1.51e+00	0	28	104	0	60	45911
2026-01-05 14:32:10.13	20.34	1.46	-47.1	-62.2	3.6	1.51e+00	0	28	104	0	60	46461
2026-01-05 14:32:11.14	20.36	1.52	-47.1	-62.2	3.6	1.51e+00	0	28	104	0	60	46346
2026-01-05 14:32:12.15	20.37	1.59	-47.1	-62.2	3.6	1.51e+00	0	28	104	0	60	46391
2026-01-05 14:32:13.16	20.38	1.65	-47.1	-62.2	3.6	1.51e+00	0	28	104	0	60	46380
2026-01-05 14:32:14.17	20.40	1.71	-47.1	-62.2	3.6	1.51e+00	0	28	104	0	60	46542
2026-01-05 14:32:15.17	20.41	1.78	-47.1	-62.2	3.6	1.51e+00	0	28	104	0	60	46664
2026-01-05 14:32:16.18	20.42	1.84	-47.1	-62.2	3.6	1.51e+00	0	28	104	0	60	46822
2026-01-05 14:32:17.19	20.44	1.90	-47.1	-62.3	3.6	1.51e+00	0	28	104	0	60	46973
2026-01-05 14:32:18.20	20.45	1.97	-47.1	-62.3	3.6	1.51e+00	0	28	104	0	60	46962
2026-01-05 14:32:19.21	20.46	2.03	-47.1	-62.3	3.6	1.51e+00	0	28	104	0	60	46848
2026-01-05 14:32:20.22	20.48	2.10	-47.1	-62.2	3.6	1.51e+00	0	28	104	0	60	46630
2026-01-05 14:32:21.23	20.49	2.16	-47.1	-62.2	3.6	1.51e+00	0	28	104	0	60	46714
2026-01-05 14:32:22.24	20.50	2.23	-47.1	-61.9	3.6	1.51e+00	0	28	104	0	60	45115
2026-01-05 14:32:23.25	20.52	2.29	-47.1	-61.5	3.6	1.51e+00	0	28	104	0	60	43081
2026-01-05 14:32:24.26	20.53	2.36	-47.0	-61.0	3.6	1.51e+00	0	28	104	0	60	40401
2026-01-05 14:32:25.27	20.54	2.42	-47.0	-60.0	3.6	1.51e+00	0	28	104	0	60	36045
2026-01-05 14:32:26.28	20.56	2.49	-47.0	-60.3	3.7	1.50e+00	0	28	104	0	60	37342
2026-01-05 14:32:27.29	20.57	2.55	-47.0	-60.0	3.7	1.50e+00	0	28	104	0	60	36179
2026-01-05 14:32:28.30	20.59	2.62	-47.0	-60.0	3.7	1.50e+00	0	28	104	0	60	36316
2026-01-05 14:32:29.31	20.60	2.68	-47.0	-59.9	3.7	1.50e+00	0	28	104	0	60	35902
2026-01-05 14:32:30.32	20.61	2.75	-47.0	-59.3	3.9	1.50e+00	0	28	104	0	60	33376
2026-01-05 14:32:31.33	20.63	2.81	-46.8	-56.4	4.2	1.30e+00	3	28	0	0	60	24016
2026-01-05 14:32:32.34	20.64	2.88	-46.5	-54.0	6.2	4.77e-01	0	28	0	2097152	60	18092
2026-01-05 14:32:33.35	20.66	2.95	-46.2	-52.7	7.9	1.96e-01	0	28	0	4194304	60	15580
2026-01-05 14:32:34.36	20.67	3.01	-45.6	-50.7	10.0	8.79e-03	0	28	0	6291456	60	12395
2026-01-05 14:32:35.36	20.68	3.08	-44.9	-48.9	12.2	1.70e-03	0	28	0	8388608	60	10034
2026-01-05 14:32:36.37	20.70	3.14	-44.5	-48.1	13.2	7.47e-05	0	28	0	9437184	60	9169
2026-01-05 14:32:37.38	20.71	3.21	-44.0	-47.2	14.1	7.60e-06	0	28	0	11534336	60	8320
2026-01-05 14:32:38.39	20.73	3.28	-43.3	-46.1	15.1	0.00e+00	0	28	0	13631488	60	7272
2026-01-05 14:32:39.40	20.74	3.35	-43.0	-45.6	15.6	0.00e+00	0	28	0	15728640	60	6863
2026-01-05 14:32:40.41	20.76	3.41	-43.2	-45.8	15.6	0.00e+00	0	28	0	17825792	60	7047
2026-01-05 14:32:41.42	20.77	3.48	-43.1	-45.7	15.5	0.00e+00	0	28	0	18874368	60	6934
2026-01-05 14:32:42.43	20.78	3.55	-43.6	-46.5	14.6	0.00e+00	0	28	0	20971520	60	7676
2026-01-05 14:32:43.44	20.80	3.62	-44.2	-47.5	13.6	7.00e-07	0	28	0	23068672	60	8589
2026-01-05 14:32:44.45	20.81	3.68	-44.8	-48.8	12.3	2.67e-05	0	28	0	25165824	60	9947
2026-01-05 14:32:45.46	20.83	3.75	-45.3	-50.1	10.8	4.79e-04	0	28	0	27262976	60	11549
2026-01-05 14:32:46.47	20.84	3.82	-45.9	-51.6	11.1	1.04e-02	0	28	0	28311552	60	13709
2026-01-05 14:32:47.48	20.86	3.89	-42.4	-44.5	16.7	0.00e+00	0	28	0	30408704	56	7652
2026-01-05 14:32:48.49	20.87	3.96	-43.0	-45.5	15.8	0.00e+00	0	28	0	32505856	58	7616
2026-01-05 14:32:49.50	20.89	4.03	-47.0	-61.6	3.6	1.07e+00	0	28	104	33554432	60	43496
2026-01-05 14:32:50.51	20.90	4.10	-42.1	-44.2	16.4	2.86e-01	0	28	104	33554432	58	6600
2026-01-05 14:32:51.52	20.92	4.16	-47.2	-60.4	3.7	1.06e+00	0	28	104	33554432	60	37823
2026-01-05 14:32:52.53	20.93	4.23	-42.3	-44.4	16.2	1.13e+00	0	28	104	33554432	58	6764
2026-01-05 14:32:53.54	20.95	4.30	-41.8	-43.7	17.8	0.00e+00	0	28	0	34603008	58	6189
2026-01-05 14:32:54.55	20.96	4.37	-41.1	-42.7	18.7	0.00e+00	0	28	0	35651584	56	6233
2026-01-05 14:32:55.56	20.98	4.44	-40.9	-42.5	18.7	0.00e+00	0	28	0	37748736	56	6057
2026-01-05 14:32:56.57	20.99	4.51	-40.8	-42.4	18.7	0.00e+00	0	28	0	39845888	54	6764
2026-01-05 14:32:57.58	21.01	4.58	-40.9	-42.5	18.7	0.00e+00	0	28	0	41943040	54	6826
2026-01-05 14:32:58.59	21.02	4.65	-40.9	-42.5	18.8	0.00e+00	0	28	0	44040192	54	6773
2026-01-05 14:32:59.60	21.04	4.72	-40.8	-42.4	18.9	0.00e+00	0	28	0	45088768	54	6753
2026-01-05 14:33:00.61	21.05	4.80	-40.7	-42.3	18.9	0.00e+00	0	28	0	47185920	54	6632
2026-01-05 14:33:01.62	21.07	4.87	-40.6	-42.2	19.1	0.00e+00	0	28	0	49283072	54	6578
2026-01-05 14:33:02.63	21.08	4.94	-40.3	-41.8	19.5	0.00e+00	0	28	0	51380224	54	6258
2026-01-05 14:33:03.64	21.10	5.01	-40.6	-42.2	19.1	0.00e+00	0	28	0	53477376	54	6557
2026-01-05 14:33:04.65	21.11	5.08	-40.4	-41.9	19.4	0.00e+00	0	28	0	54525952	54	6318
2026-01-05 14:33:05.66	21.13	5.15	-40.1	-41.5	19.7	0.00e+00	0	28	0	56623104	54	6073
2026-01-05 14:33:06.67	21.15	5.22	-40.2	-41.6	19.6	0.00e+00	0	28	0	58720256	54	6151
2026-01-05 14:33:07.67	21.16	5.30	-40.2	-41.6	19.6	0.00e+00	0	28	0	60817408	54	6161
2026-01-05 14:33:08.68	21.18	5.37	-40.4	-41.9	19.3	0.00e+00	0	28	0	62914560	54	6375
2026-01-05 14:33:09.69	21.19	5.44	-40.2	-41.6	19.7	0.00e+00	0	29	0	63963136	54	6145
2026-01-05 14:33:10.70	21.21	5.51	-40.2	-41.6	19.7	0.00e+00	0	28	0	66060288	54	6151
2026-01-05 14:33:11.71	21.23	5.59	-40.4	-41.8	19.7	0.00e+00	0	29	0	68157440	54	6311
2026-01-05 14:33:12.72	21.24	5.66	-40.2	-41.7	19.3	0.00e+00	0	28	0	70254592	54	6191
2026-01-05 14:33:13.73	21.26	5.73	-40.1	-41.4	19.9	0.00e+00	0	28	0	72351744	54	6033
2026-01-05 14:33:14.74	21.27	5.81	-40.1	-41.5	19.9	0.00e+00	0	28	0	73400320	54	6056
2026-01-05 14:33:15.75	21.29	5.88	-40.0	-41.4	19.9	0.00e+00	0	28	0	75497472	54	5967
2026-01-05 14:33:16.76	21.31	5.95	-39.7	-41.0	20.3	0.00e+00	0	28	0	77594624	54	5709
2026-01-05 14:33:17.77	21.32	6.03	-39.8	-41.2	20.1	0.00e+00	0	28	0	79691776	52	6544
2026-01-05 14:33:18.78	21.34	6.10	-39.7	-41.1	20.3	0.00e+00	0	28	0	81788928	52	6469
2026-01-05 14:33:19.79	21.35	6.18	-40.0	-41.3	20.1	0.00e+00	0	28	0	82837504	52	6671
2026-01-05 14:33:20.80	21.37	6.25	-39.8	-41.1	20.3	0.00e+00	0	28	0	84934656	52	6506
2026-01-05 14:33:21.81	21.39	6.33	-39.7	-41.0	20.3	0.00e+00	0	28	0	87031808	52	6432
2026-01-05 14:33:22.82	21.40	6.40	-39.7	-41.0	20.3	0.00e+00	0	28	0	89128960	52	6419
2026-01-05 14:33:23.83	21.42	6.48	-39.6	-40.9	20.5	0.00e+00	0	28	0	91226112	52	6352
2026-01-05 14:33:24.83	21.44	6.55	-39.4	-40.7	20.7	0.00e+00	0	28	0	93323264	52	6178
2026-01-05 14:33:25.85	21.45	6.63	-39.6	-40.9	20.5	0.00e+00	0	28	0	94371840	52	6344
2026-01-05 14:33:26.85	21.47	6.71	-39.8	-41.1	20.3	0.00e+00	0	28	0	96468992	52	6491
2026-01-05 14:33:27.87	21.49	6.78	-39.5	-40.8	20.6	0.00e+00	0	28	0	98566144	52	6279
2026-01-05 14:33:28.88	21.51	6.86	-39.3	-40.5	20.8	0.00e+00	0	28	0	100663296	52	6088
2026-01-05 14:33:29.89	21.52	6.94	-39.2	-40.4	20.9	0.00e+00	0	28	0	102760448	52	6021
2026-01-05 14:33:30.90	21.54	7.01	-39.4	-40.6	20.7	0.00e+00	0	28	0	103809024	52	6164
2026-01-05 14:33:31.91	21.56	7.09	-39.2	-40.4	20.9	0.00e+00	0	28	0	105906176	52	6007
2026-01-05 14:33:32.92	21.57	7.17	-39.1	-40.3	21.0	0.00e+00	0	28	0	108003328	52	5940
2026-01-05 14:33:33.93	21.59	7.25	-39.4	-40.6	20.8	0.00e+00	0	28	0	110100480	52	6155
2026-01-05 14:33:34.94	21.61	7.32	-39.3	-40.5	20.9	0.00e+00	0	29	0	112197632	52	6101
2026-01-05 14:33:35.95	21.63	7.40	-39.0	-40.2	21.2	0.00e+00	0	28	0	113246208	52	5852
2026-01-05 14:33:36.96	21.64	7.48	-39.2	-40.4	21.1	0.00e+00	0	28	0	115343360	52	5990
2026-01-05 14:33:37.97	21.66	7.56	-39.0	-40.2	21.2	0.00e+00	0	28	0	117440512	52	5832
2026-01-05 14:33:38.98	21.68	7.64	-39.2	-40.4	21.1	0.00e+00	0	28	0	119537664	52	5975
2026-01-05 14:33:39.99	21.70	7.72	-39.0	-40.1	21.3	0.00e+00	0	28	0	121634816	52	5819
2026-01-05 14:33:41.00	21.71	7.80	-39.0	-40.2	21.2	0.00e+00	0	28	0	122683392	52	5839
2026-01-05 14:33:42.00	21.73	7.88	-39.0	-40.2	21.2	0.00e+00	0	28	0	124780544	52	5835
2026-01-05 14:33:43.01	21.75	7.96	-39.0	-40.2	21.3	0.00e+00	0	28	0	126877696	52	5859
2026-01-05 14:33:44.02	21.77	8.04	-38.8	-40.0	21.4	0.00e+00	0	28	0	128974848	52	5714
2026-01-05 14:33:45.03	21.79	8.12	-38.9	-40.1	21.4	0.00e+00	0	29	0	131072000	52	5804
2026-01-05 14:33:46.04	21.80	8.20	-39.1	-40.3	21.3	0.00e+00	0	28	0	132120576	52	5903
2026-01-05 14:33:47.06	21.82	8.28	-39.0	-40.2	21.2	0.00e+00	0	28	0	134217728	52	5851
2026-01-05 14:33:48.06	21.84	8.36	-38.8	-39.9	21.4	0.00e+00	0	29	0	136314880	52	5686
2026-01-05 14:33:49.07	21.86	8.44	-38.8	-39.9	21.6	0.00e+00	0	29	0	138412032	52	5662
2026-01-05 14:33:50.08	21.88	8.52	-38.8	-39.9	21.5	0.00e+00	0	29	0	140509184	50	6340
2026-01-05 14:33:51.09	21.90	8.61	-38.6	-39.7	21.7	0.00e+00	0	28	0	141557760	50	6200
2026-01-05 14:33:52.10	21.91	8.69	-38.7	-39.8	21.5	0.00e+00	0	28	0	143654912	50	6288
2026-01-05 14:33:53.11	21.93	8.77	-38.7	-39.8	21.6	0.00e+00	0	29	0	145752064	50	6276
2026-01-05 14:33:54.12	21.95	8.85	-38.8	-40.0	21.5	0.00e+00	0	29	0	147849216	50	6408
2026-01-05 14:33:55.13	21.97	8.94	-38.7	-39.8	21.7	0.00e+00	0	29	0	149946368	50	6256
2026-01-05 14:33:56.15	21.99	9.02	-38.4	-39.5	21.9	0.00e+00	0	29	0	150994944	50	6080
2026-01-05 14:33:57.15	22.01	9.10	-38.4	-39.5	21.9	0.00e+00	0	29	0	153092096	50	6039
2026-01-05 14:33:58.16	22.03	9.19	-38.3	-39.4	22.0	0.00e+00	0	29	0	155189248	50	5981
2026-01-05 14:33:59.17	22.05	9.27	-38.3	-39.4	22.0	0.00e+00	0	29	0	157286400	50	5994
2026-01-05 14:34:00.18	22.07	9.36	-38.4	-39.5	21.8	0.00e+00	0	29	0	159383552	50	6089
2026-01-05 14:34:01.19	22.09	9.44	-38.3	-39.4	21.9	0.00e+00	0	29	0	161480704	50	6003
2026-01-05 14:34:02.20	22.11	9.53	-38.2	-39.3	22.1	0.00e+00	0	29	0	162529280	50	5915
2026-01-05 14:34:03.21	22.13	9.61	-38.3	-39.4	22.0	0.00e+00	0	28	0	164626432	50	5967
2026-01-05 14:34:04.21	22.14	9.70	-38.3	-39.4	22.0	0.00e+00	0	29	0	166723584	50	5990
2026-01-05 14:34:05.22	22.16	9.78	-38.3	-39.4	22.0	0.00e+00	0	29	0	168820736	50	6001
2026-01-05 14:34:06.23	22.18	9.87	-38.3	-39.3	22.1	0.00e+00	0	28	0	169869312	50	5946
2026-01-05 14:34:07.24	22.20	9.96	-38.1	-39.2	22.1	0.00e+00	0	29	0	171966464	50	5830
2026-01-05 14:34:08.25	22.22	10.04	-38.2	-39.3	22.1	0.00e+00	0	29	0	174063616	50	5922
2026-01-05 14:34:09.26	22.24	10.13	-38.1	-39.2	22.2	0.00e+00	0	29	0	176160768	50	5848
2026-01-05 14:34:10.27	22.26	10.22	-37.9	-38.9	22.3	0.00e+00	0	28	0	178257920	50	5692
2026-01-05 14:34:11.28	22.28	10.30	-38.1	-39.1	22.2	0.00e+00	0	29	0	179306496	50	5827
2026-01-05 14:34:12.29	22.31	10.39	-38.2	-39.2	22.2	0.00e+00	0	28	0	181403648	50	5882
2026-01-05 14:34:13.30	22.33	10.48	-38.0	-39.0	22.3	0.00e+00	0	29	0	183500800	50	5749
2026-01-05 14:34:14.31	22.35	10.57	-37.8	-38.8	22.5	0.00e+00	0	29	0	185597952	50	5600
2026-01-05 14:34:15.32	22.37	10.66	-37.8	-38.8	22.5	0.00e+00	0	29	0	187695104	50	5612
2026-01-05 14:34:16.33	22.39	10.75	-37.8	-38.8	22.5	0.00e+00	0	29	0	189792256	48	6285
2026-01-05 14:34:17.34	22.41	10.84	-37.8	-38.8	22.5	0.00e+00	0	29	0	190840832	48	6282
2026-01-05 14:34:18.35	22.43	10.93	-37.7	-38.7	22.6	0.00e+00	0	29	0	192937984	48	6222
2026-01-05 14:34:19.35	22.45	11.02	-37.6	-38.6	22.6	0.00e+00	0	29	0	195035136	48	6123
2026-01-05 14:34:20.36	22.47	11.11	-37.5	-38.5	22.7	0.00e+00	0	29	0	197132288	48	6058
2026-01-05 14:34:21.37	22.49	11.20	-37.5	-38.4	22.9	0.00e+00	0	29	0	199229440	48	6020
2026-01-05 14:34:22.38	22.51	11.29	-37.4	-38.4	22.8	0.00e+00	0	29	0	200278016	48	5996
2026-01-05 14:34:23.40	22.54	11.38	-37.4	-38.3	22.9	0.00e+00	0	29	0	202375168	48	5933
2026-01-05 14:34:24.40	22.56	11.47	-37.3	-38.3	22.9	0.00e+00	0	29	0	204472320	48	5927
2026-01-05 14:34:25.41	22.58	11.57	-37.3	-38.3	23.0	0.00e+00	0	29	0	206569472	48	5907
2026-01-05 14:34:26.42	22.60	11.66	-37.4	-38.4	23.0	0.00e+00	0	29	0	208666624	48	5992
2026-01-05 14:34:27.43	22.62	11.75	-37.1	-38.0	23.2	0.00e+00	0	29	0	209715200	48	5749
2026-01-05 14:34:28.44	22.64	11.85	-37.3	-38.2	23.1	0.00e+00	0	29	0	211812352	48	5864
2026-01-05 14:34:29.45	22.67	11.94	-37.2	-38.1	23.1	0.00e+00	0	29	0	213909504	48	5807
2026-01-05 14:34:30.46	22.69	12.03	-37.3	-38.2	23.0	0.00e+00	0	29	0	216006656	48	5877
2026-01-05 14:34:31.47	22.71	12.13	-37.4	-38.4	22.9	0.00e+00	0	29	0	218103808	48	5975
2026-01-05 14:34:32.48	22.73	12.22	-37.1	-38.0	23.2	0.00e+00	0	29	0	219152384	48	5714
2026-01-05 14:34:33.49	22.76	12.32	-37.1	-38.0	23.1	0.00e+00	0	29	0	221249536	48	5748
2026-01-05 14:34:34.50	22.78	12.41	-37.0	-37.9	23.3	0.00e+00	0	29	0	223346688	48	5644
2026-01-05 14:34:35.50	22.80	12.51	-37.1	-38.1	23.2	0.00e+00	0	29	0	225443840	48	5781
2026-01-05 14:34:36.51	22.82	12.61	-37.1	-38.0	23.2	0.00e+00	0	29	0	227540992	48	5740
2026-01-05 14:34:37.53	22.85	12.70	-37.1	-38.0	23.2	0.00e+00	0	29	0	228589568	48	5750
2026-01-05 14:34:38.53	22.87	12.80	-37.0	-38.0	23.3	0.00e+00	0	29	0	230686720	48	5698
2026-01-05 14:34:39.54	22.89	12.90	-37.1	-38.0	23.2	0.00e+00	0	29	0	232783872	48	5749
2026-01-05 14:34:40.55	22.92	13.00	-37.0	-37.9	23.3	0.00e+00	0	29	0	234881024	48	5663
2026-01-05 14:34:41.56	22.94	13.09	-37.2	-38.2	23.0	0.00e+00	0	29	0	236978176	48	5841
2026-01-05 14:34:42.57	22.97	13.19	-37.2	-38.2	23.1	0.00e+00	0	29	0	238026752	48	5832
2026-01-05 14:34:43.58	22.99	13.29	-37.3	-38.2	23.0	0.00e+00	0	29	0	240123904	48	5855
2026-01-05 14:34:44.59	23.01	13.39	-37.3	-38.3	23.0	0.00e+00	0	29	0	242221056	48	5916
2026-01-05 14:34:45.60	23.04	13.49	-37.0	-37.9	23.2	0.00e+00	0	29	0	244318208	48	5675
2026-01-05 14:34:46.61	23.06	13.59	-37.2	-38.1	23.2	0.00e+00	0	29	0	246415360	48	5808
2026-01-05 14:34:47.62	23.09	13.69	-37.0	-37.9	23.3	0.00e+00	0	29	0	247463936	48	5683
2026-01-05 14:34:48.63	23.11	13.79	-37.0	-38.0	23.3	0.00e+00	0	29	0	249561088	48	5698
2026-01-05 14:34:49.64	23.14	13.90	-36.9	-37.8	23.4	0.00e+00	0	29	0	251658240	48	5628
2026-01-05 14:34:50.64	23.16	14.00	-37.0	-38.0	23.2	0.00e+00	0	29	0	253755392	48	5705
2026-01-05 14:34:51.65	23.18	14.10	-37.0	-37.9	23.5	0.00e+00	0	29	0	255852544	48	5650
2026-01-05 14:34:52.66	23.21	14.20	-37.1	-38.0	23.2	0.00e+00	0	29	0	257949696	48	5710
2026-01-05 14:34:53.67	23.23	14.30	-36.9	-37.8	23.5	0.00e+00	0	29	0	258998272	48	5568
2026-01-05 14:34:54.68	23.26	14.41	-36.9	-37.8	23.3	0.00e+00	0	29	0	261095424	48	5625
2026-01-05 14:34:55.69	23.29	14.51	-37.0	-37.9	23.3	0.00e+00	0	29	0	263192576	48	5659
2026-01-05 14:34:56.70	23.31	14.62	-37.0	-38.0	23.4	0.00e+00	0	29	0	265289728	48	5701
2026-01-05 14:34:57.71	23.34	14.72	-37.0	-37.9	23.3	0.00e+00	0	29	0	267386880	48	5660
2026-01-05 14:34:58.72	23.36	14.83	-37.0	-37.9	23.4	0.00e+00	0	29	0	268435456	48	5637
2026-01-05 14:34:59.72	23.39	14.93	-36.9	-37.8	23.3	0.00e+00	0	29	0	270532608	46	6317
2026-01-05 14:35:00.73	23.42	15.04	-37.0	-37.9	23.1	0.00e+00	0	29	0	272629760	46	6333
2026-01-05 14:35:01.74	23.44	15.15	-37.3	-38.3	23.1	0.00e+00	0	29	0	274726912	46	6617
2026-01-05 14:35:02.75	23.47	15.25	-37.1	-38.1	22.8	0.00e+00	0	29	0	276824064	46	6473
2026-01-05 14:35:03.76	23.50	15.36	-37.5	-38.4	22.5	0.00e+00	0	29	0	277872640	46	6755
2026-01-05 14:35:04.77	23.52	15.47	-37.2	-38.1	22.7	0.00e+00	0	29	0	279969792	46	6532
2026-01-05 14:35:05.78	23.55	15.58	-37.4	-38.3	22.7	0.00e+00	0	29	0	282066944	46	6690
2026-01-05 14:35:06.79	23.58	15.69	-37.2	-38.1	23.0	0.00e+00	0	29	0	284164096	46	6530
2026-01-05 14:35:07.80	23.60	15.80	-37.4	-38.4	22.9	0.00e+00	0	29	0	286261248	46	6709
2026-01-05 14:35:08.81	23.63	15.91	-37.3	-38.2	23.1	0.00e+00	0	29	0	287309824	46	6594
2026-01-05 14:35:09.82	23.66	16.02	-37.4	-38.4	23.1	0.00e+00	0	29	0	289406976	46	6712
2026-01-05 14:35:10.83	23.69	16.13	-37.4	-38.3	23.1	0.00e+00	0	29	0	291504128	46	6675
2026-01-05 14:35:11.84	23.71	16.24	-37.5	-38.5	23.1	0.00e+00	0	29	0	293601280	46	6771
2026-01-05 14:35:12.85	23.74	16.35	-37.5	-38.5	23.0	0.00e+00	0	29	0	295698432	46	6776
2026-01-05 14:35:13.86	23.77	16.47	-37.6	-38.5	23.0	0.00e+00	0	29	0	296747008	46	6835
2026-01-05 14:35:14.87	23.80	16.58	-37.6	-38.5	22.9	0.00e+00	0	29	0	298844160	46	6833
2026-01-05 14:35:15.87	23.83	16.69	-37.6	-38.6	22.8	0.00e+00	0	29	0	300941312	48	6140
2026-01-05 14:35:16.88	23.86	16.81	-37.9	-38.9	22.7	0.00e+00	0	29	0	303038464	48	6332
2026-01-05 14:35:17.89	23.89	16.92	-38.1	-39.1	22.5	0.00e+00	0	29	0	305135616	48	6491
2026-01-05 14:35:18.90	23.92	17.04	-37.8	-38.8	22.8	0.00e+00	0	29	0	306184192	48	6255
2026-01-05 14:35:19.91	23.95	17.15	-37.9	-38.8	22.8	0.00e+00	0	29	0	308281344	48	6315
2026-01-05 14:35:20.92	23.98	17.27	-37.9	-38.9	22.7	0.00e+00	0	29	0	310378496	48	6336
2026-01-05 14:35:21.73	24.00	17.37	-37.7	-38.7	22.7	0.00e+00	0	29	0	312475648	48	6219
2026-01-05 14:35:22.88	24.03	17.50	-38.0	-39.0	22.6	0.00e+00	0	29	0	314572800	48	6446
2026-01-05 14:35:23.75	24.06	17.60	-38.0	-39.0	22.7	0.00e+00	0	29	0	315621376	48	6404
2026-01-05 14:35:24.90	24.09	17.74	-38.0	-39.0	22.4	0.00e+00	0	29	0	318767104	48	6433
2026-01-05 14:35:25.77	24.12	17.84	-38.3	-39.4	22.3	0.00e+00	0	29	0	319815680	48	6715
2026-01-05 14:35:26.92	24.16	17.98	-38.5	-39.5	22.2	0.00e+00	0	29	0	321912832	48	6837
2026-01-05 14:35:27.78	24.18	18.08	-38.3	-39.4	22.2	0.00e+00	0	29	0	324009984	48	6715
2026-01-05 14:35:28.94	24.22	18.22	-38.5	-39.5	22.1	0.00e+00	0	29	0	326107136	48	6847
2026-01-05 14:35:29.80	24.25	18.32	-38.6	-39.6	22.1	0.00e+00	0	29	0	327155712	48	6907
2026-01-05 14:35:30.96	24.28	18.46	-38.9	-40.0	21.9	0.00e+00	0	29	0	329252864	50	6422
2026-01-05 14:35:31.82	24.31	18.57	-38.5	-39.6	22.2	0.00e+00	0	29	0	331350016	50	6120
2026-01-05 14:35:32.98	24.35	18.71	-38.8	-39.9	21.9	0.00e+00	0	29	0	333447168	50	6353
2026-01-05 14:35:33.85	24.38	18.81	-38.8	-39.9	21.9	0.00e+00	0	29	0	335544320	50	6373
2026-01-05 14:35:35.00	24.41	18.96	-39.3	-40.5	21.5	0.00e+00	0	29	0	337641472	50	6783
2026-01-05 14:35:35.87	24.44	19.06	-38.8	-39.9	21.9	0.00e+00	0	29	0	338690048	50	6359
2026-01-05 14:35:37.02	24.48	19.21	-38.9	-40.0	21.8	0.00e+00	0	29	0	340787200	50	6418
2026-01-05 14:35:37.88	24.51	19.32	-38.8	-39.9	21.9	0.00e+00	0	29	0	342884352	50	6367
2026-01-05 14:35:39.03	24.55	19.46	-39.0	-40.1	21.8	0.00e+00	0	29	0	344981504	50	6522
2026-01-05 14:35:39.90	24.57	19.57	-39.0	-40.1	21.8	0.00e+00	0	29	0	346030080	50	6523
2026-01-05 14:35:41.05	24.61	19.72	-39.1	-40.2	21.7	0.00e+00	0	29	0	348127232	50	6601
2026-01-05 14:35:41.92	24.64	19.83	-38.7	-39.8	21.9	0.00e+00	0	29	0	350224384	50	6305
2026-01-05 14:35:43.07	24.68	19.98	-38.8	-39.8	22.0	0.00e+00	0	29	0	352321536	50	6314
2026-01-05 14:35:43.93	24.71	20.09	-39.0	-40.1	21.8	0.00e+00	0	29	0	354418688	50	6501
2026-01-05 14:35:45.09	24.75	20.24	-38.7	-39.7	22.1	0.00e+00	0	29	0	356515840	50	6230
2026-01-05 14:35:45.95	24.78	20.35	-38.7	-39.8	22.0	0.00e+00	0	29	0	357564416	50	6307
2026-01-05 14:35:47.11	24.82	20.50	-38.5	-39.6	22.3	0.00e+00	0	29	0	359661568	50	6106
2026-01-05 14:35:47.97	24.85	20.62	-38.4	-39.5	22.2	0.00e+00	0	29	0	361758720	50	6059
2026-01-05 14:35:49.13	24.90	20.77	-38.5	-39.5	22.3	0.00e+00	0	29	0	363855872	50	6063
2026-01-05 14:35:49.99	24.93	20.89	-38.4	-39.4	22.4	0.00e+00	0	29	0	364904448	50	6020
2026-01-05 14:35:51.14	24.97	21.04	-38.4	-39.4	22.3	0.00e+00	0	29	0	367001600	50	6016
2026-01-05 14:35:52.01	25.00	21.16	-38.7	-39.7	22.0	0.00e+00	0	29	0	369098752	50	6219
2026-01-05 14:35:53.16	25.04	21.31	-38.5	-39.6	22.2	0.00e+00	0	29	0	371195904	50	6120
2026-01-05 14:35:54.03	25.08	21.43	-38.4	-39.5	22.2	0.00e+00	0	29	0	373293056	50	6067
2026-01-05 14:35:55.18	25.12	21.59	-38.7	-39.8	22.1	0.00e+00	0	29	0	375390208	50	6248
2026-01-05 14:35:56.05	25.15	21.71	-38.6	-39.7	22.1	0.00e+00	0	29	0	376438784	50	6184
2026-01-05 14:35:57.20	25.20	21.87	-38.6	-39.7	22.2	0.00e+00	0	29	0	378535936	50	6207
2026-01-05 14:35:58.07	25.23	21.99	-38.5	-39.5	22.3	0.00e+00	0	29	0	380633088	50	6086
2026-01-05 14:35:59.23	25.28	22.15	-38.4	-39.5	22.4	0.00e+00	0	29	0	382730240	50	6050
2026-01-05 14:36:00.09	25.31	22.27	-38.3	-39.3	22.4	0.00e+00	0	29	0	383778816	50	5954
2026-01-05 14:36:01.25	25.36	22.44	-38.4	-39.4	22.3	0.00e+00	0	29	0	386924544	50	5999
2026-01-05 14:36:02.11	25.39	22.56	-38.5	-39.5	22.3	0.00e+00	0	29	0	387973120	50	6099
2026-01-05 14:36:03.27	25.44	22.73	-38.3	-39.4	22.5	0.00e+00	0	29	0	390070272	50	5992
2026-01-05 14:36:04.13	25.47	22.85	-38.4	-39.5	22.1	0.00e+00	0	29	0	392167424	50	6051
2026-01-05 14:36:05.28	25.52	23.02	-38.5	-39.6	22.2	0.00e+00	0	29	0	394264576	50	6120
2026-01-05 14:36:06.15	25.55	23.14	-38.5	-39.6	22.3	0.00e+00	0	29	0	395313152	50	6151
2026-01-05 14:36:07.31	25.60	23.31	-38.4	-39.4	22.4	0.00e+00	0	29	0	397410304	50	6020
2026-01-05 14:36:08.17	25.64	23.44	-38.1	-39.1	22.5	0.00e+00	0	29	0	399507456	50	5787
2026-01-05 14:36:09.32	25.69	23.61	-38.4	-39.5	22.3	0.00e+00	0	29	0	401604608	50	6056
2026-01-05 14:36:10.19	25.72	23.74	-38.5	-39.6	22.2	0.00e+00	0	29	0	403701760	50	6107
2026-01-05 14:36:11.34	25.77	23.91	-38.6	-39.7	22.0	0.00e+00	0	29	0	405798912	50	6175
2026-01-05 14:36:12.20	25.81	24.04	-38.3	-39.4	22.4	0.00e+00	0	29	0	406847488	50	6003
2026-01-05 14:36:13.36	25.86	24.22	-38.2	-39.2	22.5	0.00e+00	0	29	0	408944640	50	5886
2026-01-05 14:36:14.23	25.90	24.35	-38.3	-39.3	22.4	0.00e+00	0	29	0	411041792	50	5961
2026-01-05 14:36:15.38	25.95	24.53	-38.3	-39.3	22.5	0.00e+00	0	29	0	413138944	50	5952
2026-01-05 14:36:16.24	25.99	24.66	-38.1	-39.2	22.6	0.00e+00	0	29	0	414187520	50	5849
2026-01-05 14:36:17.40	26.04	24.84	-37.8	-38.8	22.8	0.00e+00	0	29	0	416284672	50	5600
2026-01-05 14:36:18.26	26.08	24.97	-37.8	-38.8	22.8	0.00e+00	0	29	0	418381824	50	5575
2026-01-05 14:36:19.42	26.13	25.15	-38.0	-38.9	22.8	0.00e+00	0	29	0	420478976	48	6389
2026-01-05 14:36:20.28	26.17	25.29	-37.8	-38.8	22.8	0.00e+00	0	29	0	422576128	48	6295
2026-01-05 14:36:21.43	26.23	25.47	-38.0	-39.0	22.7	0.00e+00	0	29	0	424673280	48	6396
2026-01-05 14:36:22.30	26.27	25.61	-38.0	-38.9	22.8	0.00e+00	0	29	0	425721856	48	6381
2026-01-05 14:36:23.45	26.32	25.80	-37.8	-38.7	22.9	0.00e+00	0	29	0	427819008	48	6226
2026-01-05 14:36:24.32	26.37	25.94	-38.2	-39.2	22.7	0.00e+00	0	29	0	429916160	48	6584
2026-01-05 14:36:25.47	26.42	26.13	-37.8	-38.8	22.9	0.00e+00	0	29	0	432013312	48	6276
2026-01-05 14:36:26.34	26.47	26.27	-37.8	-38.8	22.9	0.00e+00	0	29	0	433061888	48	6263
2026-01-05 14:36:27.49	26.52	26.46	-37.9	-38.9	23.0	0.00e+00	0	29	0	435159040	48	6331
2026-01-05 14:36:28.36	26.57	26.60	-37.7	-38.6	22.9	0.00e+00	0	29	0	437256192	48	6165
2026-01-05 14:36:29.51	26.63	26.79	-37.9	-38.8	22.9	0.00e+00	0	29	0	439353344	48	6279
2026-01-05 14:36:30.37	26.67	26.94	-37.8	-38.8	22.9	0.00e+00	0	29	0	441450496	48	6271
2026-01-05 14:36:31.53	26.73	27.13	-37.9	-38.8	22.8	0.00e+00	0	29	0	443547648	48	6305
2026-01-05 14:36:32.39	26.77	27.28	-38.0	-38.9	22.8	0.00e+00	0	29	0	444596224	48	6382
2026-01-05 14:36:33.55	26.84	27.48	-38.0	-39.0	22.7	0.00e+00	0	29	0	446693376	48	6402
2026-01-05 14:36:34.41	26.88	27.62	-38.3	-39.3	22.4	0.00e+00	0	29	0	448790528	48	6620
2026-01-05 14:36:35.57	26.94	27.83	-37.8	-38.7	22.7	0.00e+00	0	29	0	450887680	48	6235
2026-01-05 14:36:36.43	26.99	27.98	-38.0	-39.0	22.8	0.00e+00	0	29	0	451936256	48	6426
2026-01-05 14:36:37.58	27.05	28.18	-38.7	-39.8	22.1	0.00e+00	0	29	0	455081984	48	7008
2026-01-05 14:36:38.45	27.10	28.33	-37.9	-38.9	22.8	0.00e+00	0	29	0	456130560	48	6343
2026-01-05 14:36:39.60	27.17	28.53	-37.8	-38.7	23.0	0.00e+00	0	29	0	458227712	48	6200
2026-01-05 14:36:40.46	27.21	28.69	-37.9	-38.8	22.9	0.00e+00	0	29	0	460324864	48	6304
2026-01-05 14:36:41.62	27.28	28.90	-37.4	-38.2	23.3	0.00e+00	0	29	0	462422016	48	5892
2026-01-05 14:36:42.48	27.33	29.05	-37.5	-38.4	23.4	0.00e+00	0	29	0	463470592	48	5969
2026-01-05 14:36:43.64	27.40	29.26	-37.5	-38.4	23.1	0.00e+00	0	29	0	465567744	48	5979
2026-01-05 14:36:44.50	27.45	29.42	-37.2	-38.1	23.4	0.00e+00	0	29	0	467664896	48	5804
2026-01-05 14:36:45.66	27.52	29.63	-37.2	-38.0	23.4	0.00e+00	0	29	0	469762048	48	5758
2026-01-05 14:36:46.52	27.57	29.79	-37.6	-38.5	23.1	0.00e+00	0	29	0	470810624	48	6071
2026-01-05 14:36:47.68	27.64	30.01	-37.6	-38.5	23.1	0.00e+00	0	29	0	473956352	48	6079
2026-01-05 14:36:48.54	27.69	30.17	-37.8	-38.7	22.9	0.00e+00	0	29	0	475004928	48	6222
2026-01-05 14:36:49.70	27.77	30.39	-37.9	-38.8	22.7	0.00e+00	0	29	0	477102080	48	6294
2026-01-05 14:36:50.56	27.82	30.55	-37.6	-38.5	23.3	0.00e+00	0	29	0	479199232	48	6057
2026-01-05 14:36:51.72	27.89	30.78	-38.0	-39.0	22.7	0.00e+00	0	29	0	481296384	48	6434
2026-01-05 14:36:52.58	27.95	30.94	-38.1	-39.1	22.7	0.00e+00	0	29	0	482344960	48	6488
2026-01-05 14:36:53.73	28.02	31.17	-37.9	-38.9	22.8	0.00e+00	0	29	0	484442112	48	6342
2026-01-05 14:36:54.60	28.08	31.34	-38.6	-39.7	22.2	0.00e+00	0	29	0	486539264	48	6957
2026-01-05 14:36:55.75	28.16	31.56	-38.5	-39.5	22.4	0.00e+00	0	29	0	488636416	48	6828
2026-01-05 14:36:56.62	28.22	31.73	-39.0	-40.1	21.8	0.00e+00	0	29	0	490733568	50	6520
2026-01-05 14:36:57.77	28.30	31.96	-39.1	-40.2	21.8	0.00e+00	0	29	0	492830720	50	6570
2026-01-05 14:36:58.63	28.36	32.14	-39.2	-40.4	21.4	0.00e+00	0	29	0	493879296	50	6703
2026-01-05 14:36:59.78	28.44	32.37	-39.6	-40.8	21.1	0.00e+00	0	29	0	495976448	52	6278
2026-01-05 14:37:00.65	28.50	32.55	-40.1	-41.4	21.1	0.00e+00	0	29	0	498073600	52	6711
2026-01-05 14:37:01.80	28.58	32.78	-40.4	-41.7	20.6	0.00e+00	0	29	0	500170752	52	6989
2026-01-05 14:37:02.66	28.64	32.96	-39.9	-41.2	21.1	0.00e+00	0	29	0	501219328	52	6552
2026-01-05 14:37:03.82	28.73	33.20	-40.0	-41.2	21.0	0.00e+00	0	29	0	503316480	52	6607
2026-01-05 14:37:04.68	28.79	33.38	-39.9	-41.2	21.0	0.00e+00	0	29	0	505413632	52	6579
2026-01-05 14:37:05.83	28.88	33.62	-40.1	-41.4	20.9	0.00e+00	0	29	0	507510784	52	6732
2026-01-05 14:37:06.70	28.94	33.80	-40.3	-41.6	20.7	0.00e+00	0	29	0	509607936	52	6882
2026-01-05 14:37:07.85	29.03	34.05	-39.8	-41.0	21.0	0.00e+00	0	29	0	511705088	52	6463
2026-01-05 14:37:08.72	29.10	34.24	-39.8	-41.0	21.2	0.00e+00	0	29	0	512753664	52	6419
2026-01-05 14:37:09.87	29.19	34.48	-39.3	-40.5	21.6	0.00e+00	0	29	0	514850816	52	6055
2026-01-05 14:37:10.73	29.26	34.67	-38.7	-39.7	22.1	0.00e+00	0	29	0	516947968	50	6241
2026-01-05 14:37:11.89	29.35	34.93	-38.7	-39.7	22.3	0.00e+00	0	29	0	519045120	50	6226
2026-01-05 14:37:12.75	29.42	35.12	-38.1	-39.1	22.8	0.00e+00	0	29	0	520093696	50	5763
2026-01-05 14:37:13.91	29.52	35.37	-37.9	-38.9	22.7	0.00e+00	0	29	0	522190848	50	5663
2026-01-05 14:37:14.78	29.59	35.57	-37.8	-38.7	23.0	0.00e+00	0	29	0	524288000	48	6222
2026-01-05 14:37:15.93	29.69	35.83	-37.8	-38.7	22.9	0.00e+00	0	29	0	526385152	48	6198
2026-01-05 14:37:16.79	29.77	36.02	-37.9	-38.8	23.2	0.00e+00	0	29	0	528482304	48	6295
2026-01-05 14:37:17.95	29.87	36.29	-37.6	-38.5	23.1	0.00e+00	0	29	0	530579456	48	6084
2026-01-05 14:37:18.81	29.94	36.48	-37.7	-38.6	23.0	0.00e+00	0	29	0	531628032	48	6163
2026-01-05 14:37:19.96	30.05	36.75	-38.0	-39.0	22.8	0.00e+00	0	29	0	533725184	48	6401
2026-01-05 14:37:20.83	30.13	36.95	-37.9	-38.9	23.0	0.00e+00	0	29	0	535822336	48	6337
2026-01-05 14:37:21.98	30.23	37.22	-38.1	-39.1	22.6	0.00e+00	0	29	0	537919488	48	6532
2026-01-05 14:37:22.85	30.31	37.43	-38.2	-39.2	22.6	0.00e+00	0	29	0	538968064	48	6603
2026-01-05 14:37:24.00	30.42	37.70	-39.0	-40.0	22.2	0.00e+00	0	29	0	542113792	50	6463
2026-01-05 14:37:24.87	30.51	37.91	-39.3	-40.5	21.5	0.00e+00	0	29	0	543162368	50	6825
2026-01-05 14:37:26.02	30.62	38.19	-39.8	-41.1	21.0	0.00e+00	0	29	0	545259520	50	7317
2026-01-05 14:37:26.89	30.71	38.40	-39.6	-40.8	21.2	0.00e+00	0	29	0	547356672	52	6303
2026-01-05 14:37:28.04	30.82	38.68	-40.1	-41.5	20.5	0.00e+00	0	29	0	549453824	52	6831
2026-01-05 14:37:28.90	30.91	38.89	-40.1	-41.4	20.7	0.00e+00	0	29	0	550502400	52	6734
2026-01-05 14:37:30.06	31.03	39.18	-40.0	-41.3	20.8	0.00e+00	0	29	0	552599552	52	6627
2026-01-05 14:37:30.92	31.12	39.39	-40.5	-41.9	20.2	0.00e+00	0	29	0	554696704	52	7103
2026-01-05 14:37:32.08	31.25	39.68	-40.2	-41.6	20.6	0.00e+00	0	29	0	556793856	52	6874
2026-01-05 14:37:32.94	31.34	39.90	-40.8	-42.3	19.7	0.00e+00	0	29	0	558891008	52	7456
2026-01-05 14:37:34.09	31.47	40.19	-40.5	-41.9	20.2	0.00e+00	0	29	0	560988160	54	6356
2026-01-05 14:37:34.95	31.56	40.41	-41.0	-42.5	20.1	0.00e+00	0	29	0	562036736	54	6811
2026-01-05 14:37:36.11	31.69	40.71	-40.2	-41.5	20.6	0.00e+00	0	29	0	564133888	54	6079
2026-01-05 14:37:36.97	31.79	40.94	-40.5	-41.8	20.6	0.00e+00	0	29	0	566231040	54	6295
2026-01-05 14:37:38.13	31.93	41.24	-40.3	-41.6	20.5	0.00e+00	0	29	0	568328192	54	6155
2026-01-05 14:37:38.99	32.03	41.47	-39.7	-40.9	21.2	0.00e+00	0	29	0	569376768	52	6360
2026-01-05 14:37:40.15	32.17	41.78	-39.7	-40.8	21.5	0.00e+00	0	29	0	571473920	52	6295
2026-01-05 14:37:41.01	32.28	42.01	-39.3	-40.4	21.6	0.00e+00	0	29	0	573571072	52	5996
2026-01-05 14:37:42.17	32.42	42.32	-38.7	-39.7	22.1	0.00e+00	0	29	0	575668224	50	6211
2026-01-05 14:37:43.03	32.53	42.55	-38.4	-39.4	22.3	0.00e+00	0	29	0	577765376	50	5983
2026-01-05 14:37:44.19	32.68	42.87	-38.2	-39.1	22.7	0.00e+00	0	29	0	579862528	50	5800
2026-01-05 14:37:45.05	32.79	43.10	-38.2	-39.1	22.6	0.00e+00	0	29	0	580911104	50	5820
2026-01-05 14:37:46.21	32.95	43.42	-37.6	-38.5	22.9	0.00e+00	0	29	0	583008256	50	5436
2026-01-05 14:37:47.07	33.07	43.66	-38.1	-39.1	22.6	0.00e+00	0	29	0	585105408	48	6524
2026-01-05 14:37:48.23	33.23	43.99	-38.5	-39.5	22.3	0.00e+00	0	29	0	587202560	48	6825
2026-01-05 14:37:49.09	33.35	44.23	-38.2	-39.2	22.3	0.00e+00	0	29	0	588251136	48	6548
2026-01-05 14:37:50.25	33.51	44.56	-38.2	-39.2	22.6	0.00e+00	0	29	0	590348288	48	6554
2026-01-05 14:37:51.11	33.64	44.81	-38.8	-39.8	22.1	0.00e+00	0	29	0	592445440	48	7085
2026-01-05 14:37:52.27	33.81	45.14	-38.8	-39.9	22.1	0.00e+00	0	29	0	594542592	50	6342
2026-01-05 14:37:53.13	33.94	45.39	-38.7	-39.7	22.0	0.00e+00	0	29	0	596639744	50	6237
2026-01-05 14:37:54.28	34.12	45.73	-39.6	-40.8	21.2	0.00e+00	0	29	0	598736896	50	7017
2026-01-05 14:37:55.15	34.25	45.98	-39.3	-40.4	21.5	0.00e+00	0	29	0	599785472	50	6728
2026-01-05 14:37:56.30	34.44	46.32	-40.0	-41.2	21.0	0.00e+00	0	29	0	601882624	52	6581
2026-01-05 14:37:57.16	34.57	46.58	-40.4	-41.7	20.8	0.00e+00	0	29	0	603979776	52	6969
2026-01-05 14:37:58.32	34.77	46.92	-40.5	-41.9	20.3	0.00e+00	0	29	0	606076928	52	7095
2026-01-05 14:37:59.18	34.91	47.18	-40.5	-41.9	20.2	0.00e+00	0	29	0	607125504	52	7098
2026-01-05 14:38:00.33	35.11	47.53	-41.2	-42.7	19.9	0.00e+00	0	29	0	610271232	54	6979
2026-01-05 14:38:01.20	35.26	47.80	-40.7	-42.1	20.1	0.00e+00	0	29	0	611319808	54	6508
2026-01-05 14:38:02.35	35.47	48.15	-40.3	-41.6	20.5	0.00e+00	0	29	0	613416960	54	6136
2026-01-05 14:38:03.21	35.62	48.42	-40.1	-41.4	20.7	0.00e+00	0	29	0	615514112	54	5970
2026-01-05 14:38:04.36	35.84	48.78	-39.2	-40.4	21.6	0.00e+00	0	29	0	617611264	52	5966
2026-01-05 14:38:05.23	36.00	49.05	-38.5	-39.6	22.3	0.00e+00	0	29	0	618659840	50	6138
2026-01-05 14:38:06.38	36.22	49.41	-37.3	-38.3	23.2	0.00e+00	0	29	0	620756992	48	5944
2026-01-05 14:38:07.24	36.39	49.68	-37.8	-38.8	23.0	0.00e+00	0	29	0	622854144	48	6274
2026-01-05 14:38:08.39	36.63	50.05	-37.0	-38.0	23.5	0.00e+00	0	29	0	624951296	48	5714
2026-01-05 14:38:09.26	36.80	50.33	-37.0	-37.9	23.6	0.00e+00	0	29	0	625999872	48	5677
2026-01-05 14:38:10.41	37.05	50.70	-36.9	-37.9	23.9	0.00e+00	0	29	0	628097024	46	6318
2026-01-05 14:38:11.27	37.23	50.98	-36.5	-37.4	24.0	0.00e+00	0	29	0	630194176	46	6016
2026-01-05 14:38:12.43	37.48	51.36	-36.3	-37.2	24.2	0.00e+00	0	29	0	632291328	46	5833
2026-01-05 14:38:13.29	37.68	51.64	-36.0	-36.9	24.2	0.00e+00	0	29	0	634388480	46	5659
2026-01-05 14:38:14.44	37.94	52.02	-35.6	-36.4	24.7	0.00e+00	0	29	0	636485632	44	6031
2026-01-05 14:38:15.31	38.14	52.31	-35.4	-36.2	24.6	0.00e+00	0	29	0	637534208	44	5880
2026-01-05 14:38:16.46	38.42	52.69	-35.7	-36.5	24.7	0.00e+00	0	29	0	639631360	44	6059
2026-01-05 14:38:17.32	38.63	52.98	-35.1	-35.9	24.8	0.00e+00	0	29	0	641728512	44	5667
2026-01-05 14:38:18.48	38.92	53.37	-35.5	-36.3	24.8	0.00e+00	0	29	0	643825664	44	5919
2026-01-05 14:38:19.35	39.14	53.66	-35.4	-36.2	24.7	0.00e+00	0	29	0	644874240	44	5889
2026-01-05 14:38:20.50	39.44	54.05	-35.8	-36.6	24.5	0.00e+00	0	29	0	648019968	44	6131
2026-01-05 14:38:21.36	39.68	54.35	-35.4	-36.2	25.0	0.00e+00	0	29	0	649068544	44	5867
2026-01-05 14:38:22.52	39.99	54.75	-34.6	-35.4	25.2	0.00e+00	0	29	0	651165696	42	5974
2026-01-05 14:38:23.38	40.24	55.05	-34.2	-34.9	25.2	0.00e+00	0	29	0	653262848	42	5679
2026-01-05 14:38:24.53	40.57	55.44	-33.9	-34.6	26.0	0.00e+00	0	29	0	655360000	42	5470
2026-01-05 14:38:25.40	40.83	55.75	-33.9	-34.7	25.8	0.00e+00	0	29	0	656408576	40	6179
2026-01-05 14:38:26.55	41.17	56.15	-34.0	-34.7	25.7	0.00e+00	0	29	0	658505728	40	6211
2026-01-05 14:38:27.42	41.44	56.46	-34.0	-34.7	25.7	0.00e+00	0	29	0	660602880	40	6242
2026-01-05 14:38:28.57	41.81	56.86	-34.2	-35.0	25.5	0.00e+00	0	29	0	662700032	40	6397
2026-01-05 14:38:29.43	42.09	57.17	-34.2	-35.0	25.6	0.00e+00	0	29	0	663748608	40	6405
2026-01-05 14:38:30.58	42.48	57.58	-34.1	-34.9	25.4	0.00e+00	0	29	0	666894336	40	6323
2026-01-05 14:38:31.45	42.78	57.89	-33.9	-34.6	25.8	0.00e+00	0	29	0	667942912	40	6120
2026-01-05 14:38:32.60	43.19	58.30	-34.1	-34.9	25.7	0.00e+00	0	29	0	670040064	40	6321
2026-01-05 14:38:33.47	43.50	58.61	-34.9	-35.7	25.2	0.00e+00	0	29	0	672137216	42	6184
2026-01-05 14:38:34.62	43.93	59.03	-35.4	-36.2	24.8	0.00e+00	0	29	0	674234368	42	6607
2026-01-05 14:38:35.49	44.27	59.34	-35.0	-35.7	25.1	0.00e+00	0	29	0	675282944	42	6228
2026-01-05 14:38:36.64	44.72	59.76	-34.3	-35.0	25.6	0.00e+00	0	29	0	677380096	42	5732
2026-01-05 14:38:37.51	45.07	60.08	-34.1	-34.8	25.5	0.00e+00	0	29	0	679477248	42	5602
2026-01-05 14:38:38.66	45.55	60.50	-34.1	-34.9	25.5	0.00e+00	0	29	0	681574400	42	5645
2026-01-05 14:38:39.52	45.92	60.81	-34.5	-35.3	25.4	0.00e+00	0	29	0	683671552	42	5903
2026-01-05 14:38:40.68	46.44	61.23	-34.6	-35.3	25.3	0.00e+00	0	29	0	685768704	42	5942
2026-01-05 14:38:41.55	46.83	61.55	-34.4	-35.1	25.4	0.00e+00	0	29	0	686817280	42	5803
2026-01-05 14:38:42.70	47.37	61.98	-34.5	-35.2	25.4	0.00e+00	0	29	0	688914432	42	5860
2026-01-05 14:38:43.57	47.79	62.29	-34.6	-35.3	25.4	0.00e+00	0	29	0	691011584	42	5962
2026-01-05 14:38:44.72	48.37	62.72	-35.0	-35.8	25.0	0.00e+00	0	29	0	693108736	42	6272
2026-01-05 14:38:45.58	48.81	63.03	-35.5	-36.4	24.6	0.00e+00	0	29	0	694157312	42	6752
2026-01-05 14:38:46.74	49.43	63.46	-35.5	-36.3	24.8	0.00e+00	0	29	0	696254464	42	6692
2026-01-05 14:38:47.60	49.90	63.78	-34.9	-35.7	25.2	0.00e+00	0	29	0	698351616	42	6204
2026-01-05 14:38:48.75	50.55	64.20	-34.0	-34.7	25.8	0.00e+00	0	29	0	700448768	42	5557
2026-01-05 14:38:49.62	51.05	64.52	-33.1	-33.8	25.9	0.00e+00	0	29	0	702545920	40	5604
2026-01-05 14:38:50.77	51.75	64.94	-34.3	-35.0	25.4	0.00e+00	0	29	0	704643072	40	6440
2026-01-05 14:38:51.64	52.29	65.26	-35.2	-36.0	24.9	0.00e+00	0	29	0	705691648	42	6460
2026-01-05 14:38:52.79	53.03	65.68	-35.4	-36.2	24.8	0.00e+00	0	29	0	707788800	42	6547
2026-01-05 14:38:53.66	53.60	65.99	-35.8	-36.7	24.6	0.00e+00	0	29	0	709885952	44	6179
2026-01-05 14:38:54.81	54.39	66.41	-35.5	-36.3	24.7	0.00e+00	0	29	0	711983104	44	5920
2026-01-05 14:38:55.67	55.01	66.72	-35.4	-36.1	24.8	0.00e+00	0	29	0	713031680	44	5819
2026-01-05 14:38:56.83	55.86	67.13	-35.5	-36.3	24.7	0.00e+00	0	29	0	715128832	44	5906
2026-01-05 14:38:57.69	56.51	67.44	-36.7	-37.6	23.8	0.00e+00	0	29	0	717225984	44	6875
2026-01-05 14:38:58.84	57.42	67.85	-38.2	-39.2	22.5	0.00e+00	0	29	0	719323136	48	6604
2026-01-05 14:38:59.71	58.13	68.15	-38.9	-40.0	22.0	0.00e+00	0	29	0	721420288	50	6404
2026-01-05 14:39:00.86	59.10	68.55	-38.0	-39.0	22.3	0.00e+00	0	29	0	723517440	50	5735
2026-01-05 14:39:01.72	59.85	68.85	-37.3	-38.2	23.4	0.00e+00	0	29	0	724566016	48	5843
2026-01-05 14:39:02.88	60.90	69.25	-38.2	-39.1	22.4	0.00e+00	0	29	0	726663168	48	6537
2026-01-05 14:39:03.74	61.71	69.54	-37.7	-38.6	23.0	0.00e+00	0	29	0	728760320	48	6140
2026-01-05 14:39:04.89	62.83	69.93	-37.3	-38.2	23.3	0.00e+00	0	29	0	730857472	48	5870
2026-01-05 14:39:05.76	63.71	70.21	-37.3	-38.2	23.3	0.00e+00	0	29	0	731906048	48	5840
2026-01-05 14:39:06.91	64.91	70.59	-38.9	-40.0	21.9	0.00e+00	0	29	0	735051776	48	7207
2026-01-05 14:39:07.78	65.85	70.87	-40.0	-41.3	20.9	0.00e+00	0	29	0	736100352	52	6660
2026-01-05 14:39:08.93	67.14	71.23	-40.1	-41.4	20.9	0.00e+00	0	29	0	738197504	54	5992
2026-01-05 14:39:09.80	68.15	71.50	-40.0	-41.3	20.7	0.00e+00	0	29	0	740294656	54	5938
2026-01-05 14:39:10.95	69.53	71.84	-38.9	-40.0	21.9	0.00e+00	0	29	0	742391808	52	5744
2026-01-05 14:39:11.81	70.61	72.10	-38.0	-39.0	22.8	0.00e+00	0	29	0	743440384	50	5736
2026-01-05 14:39:12.97	72.10	72.43	-36.8	-37.7	23.7	0.00e+00	0	29	0	745537536	48	5544
2026-01-05 14:39:13.83	73.25	72.67	-37.2	-38.1	23.4	0.00e+00	0	29	0	747634688	48	5811
2026-01-05 14:39:14.98	74.84	72.98	-37.0	-37.9	23.6	0.00e+00	0	29	0	749731840	48	5647
2026-01-05 14:39:15.85	76.08	73.21	-37.0	-37.9	23.4	0.00e+00	0	29	0	751828992	46	6379
2026-01-05 14:39:17.00	77.78	73.50	-37.5	-38.4	23.3	0.00e+00	0	29	0	753926144	46	6726
2026-01-05 14:39:17.86	79.09	73.71	-36.9	-37.7	23.8	0.00e+00	0	29	0	754974720	46	6244
2026-01-05 14:39:19.02	80.90	73.97	-36.9	-37.7	23.8	0.00e+00	0	29	0	757071872	46	6203
2026-01-05 14:39:19.88	82.29	74.16	-37.3	-38.1	23.5	0.00e+00	0	29	0	759169024	46	6539
2026-01-05 14:39:21.04	84.22	74.40	-38.2	-39.2	22.6	0.00e+00	0	29	0	761266176	48	6555
2026-01-05 14:39:21.90	85.69	74.57	-38.6	-39.7	22.0	0.00e+00	0	29	0	762314752	48	6951
2026-01-05 14:39:23.05	87.71	74.78	-38.2	-39.2	22.6	0.00e+00	0	29	0	764411904	50	5846
2026-01-05 14:39:23.92	89.27	74.93	-37.2	-38.1	23.5	0.00e+00	0	29	0	766509056	48	5788
2026-01-05 14:39:25.07	91.38	75.10	-36.6	-37.5	23.7	0.00e+00	0	29	0	768606208	46	6055
2026-01-05 14:39:25.93	92.99	75.22	-37.2	-38.1	23.3	0.00e+00	0	29	0	770703360	46	6498
2026-01-05 14:39:27.08	95.18	75.36	-38.9	-40.0	22.0	0.00e+00	0	29	0	772800512	50	6419
2026-01-05 14:39:27.95	96.87	75.45	-39.9	-41.1	20.8	0.00e+00	0	29	0	773849088	52	6537
2026-01-05 14:39:29.11	99.15	75.56	-39.8	-41.1	21.0	0.00e+00	0	29	0	775946240	52	6509
2026-01-05 14:39:29.97	100.86	75.62	-39.5	-40.8	21.0	0.00e+00	0	29	0	778043392	52	6273
2026-01-05 14:39:31.12	103.17	75.69	-39.1	-40.2	21.8	0.00e+00	0	29	0	780140544	52	5863
2026-01-05 14:39:31.99	104.93	75.72	-38.0	-39.0	22.6	0.00e+00	0	29	0	781189120	50	5710
2026-01-05 14:39:33.14	107.27	75.75	-37.0	-37.9	23.6	0.00e+00	0	29	0	783286272	48	5661
2026-01-05 14:39:34.00	109.02	75.75	-36.6	-37.4	24.1	0.00e+00	0	29	0	785383424	46	5997
2026-01-05 14:39:35.16	111.38	75.74	-36.4	-37.2	24.0	0.00e+00	0	29	0	787480576	46	5888
2026-01-05 14:39:36.02	113.13	75.71	-37.1	-38.0	23.4	0.00e+00	0	29	0	789577728	46	6449
2026-01-05 14:39:37.18	115.47	75.66	-38.7	-39.7	22.1	0.00e+00	0	29	0	791674880	48	6964
2026-01-05 14:39:38.04	117.19	75.60	-38.3	-39.2	22.6	0.00e+00	0	29	0	792723456	50	5890
2026-01-05 14:39:39.20	119.49	75.51	-38.0	-39.0	22.9	0.00e+00	0	29	0	794820608	50	5702
2026-01-05 14:39:40.06	121.17	75.42	-39.4	-40.5	21.4	0.00e+00	0	29	0	796917760	50	6806
2026-01-05 14:39:41.22	123.41	75.29	-40.5	-41.9	20.2	0.00e+00	0	29	0	799014912	52	7092
2026-01-05 14:39:42.08	125.04	75.18	-39.5	-40.7	21.2	0.00e+00	0	29	0	800063488	52	6215
2026-01-05 14:39:43.23	127.17	75.01	-38.1	-39.1	22.8	0.00e+00	0	29	0	802160640	50	5764
2026-01-05 14:39:44.10	128.75	74.88	-38.8	-39.8	22.1	0.00e+00	0	29	0	804257792	50	6314
2026-01-05 14:39:45.25	130.80	74.68	-38.2	-39.2	22.4	0.00e+00	0	29	0	806354944	50	5875
2026-01-05 14:39:46.12	132.31	74.51	-38.2	-39.1	22.8	0.00e+00	0	29	0	808452096	50	5813
2026-01-05 14:39:47.27	134.25	74.28	-39.3	-40.4	21.2	0.00e+00	0	29	0	810549248	50	6712
2026-01-05 14:39:48.14	135.68	74.10	-40.7	-42.0	20.2	0.00e+00	0	29	0	811597824	52	7235
2026-01-05 14:39:49.29	137.51	73.84	-39.6	-40.8	21.3	0.00e+00	0	29	0	813694976	52	6255
2026-01-05 14:39:50.16	138.86	73.63	-39.1	-40.1	21.8	0.00e+00	0	29	0	815792128	52	5794
2026-01-05 14:39:51.31	140.58	73.35	-38.9	-39.9	21.9	0.00e+00	0	29	0	817889280	52	5687
2026-01-05 14:39:52.18	141.85	73.13	-37.9	-38.9	22.7	0.00e+00	0	29	0	818937856	50	5676
2026-01-05 14:39:53.33	143.47	72.82	-38.7	-39.7	22.1	0.00e+00	0	29	0	822083584	48	6979
2026-01-05 14:39:54.20	144.65	72.58	-38.6	-39.5	22.1	0.00e+00	0	29	0	823132160	50	6096
2026-01-05 14:39:55.35	146.17	72.25	-37.6	-38.5	23.0	0.00e+00	0	29	0	825229312	48	6077
2026-01-05 14:39:56.22	147.27	72.00	-38.1	-39.1	22.8	0.00e+00	0	29	0	827326464	48	6472
2026-01-05 14:39:57.37	148.68	71.66	-39.9	-41.1	21.0	0.00e+00	0	29	0	829423616	52	6512
2026-01-05 14:39:58.24	149.71	71.39	-40.7	-42.1	20.2	0.00e+00	0	29	0	830472192	54	6498
2026-01-05 14:39:59.39	151.03	71.03	-40.9	-42.3	19.9	0.00e+00	0	29	0	832569344	54	6689
2026-01-05 14:40:00.25	151.98	70.76	-38.8	-39.8	22.1	0.00e+00	0	29	0	834666496	52	5608
2026-01-05 14:40:01.41	153.22	70.39	-38.2	-39.2	22.5	0.00e+00	0	29	0	836763648	50	5847
2026-01-05 14:40:02.27	154.10	70.10	-39.2	-40.3	21.5	0.00e+00	0	29	0	837812224	50	6664
2026-01-05 14:40:03.43	155.25	69.72	-39.3	-40.4	21.6	0.00e+00	0	29	0	840957952	52	5988
2026-01-05 14:40:04.29	156.08	69.43	-37.8	-38.8	23.0	0.00e+00	0	29	0	842006528	48	6249
2026-01-05 14:40:05.45	157.15	69.03	-38.4	-39.4	22.4	0.00e+00	0	29	0	844103680	48	6748
2026-01-05 14:40:06.31	157.92	68.74	-38.9	-40.0	21.8	0.00e+00	0	29	0	846200832	48	7200
2026-01-05 14:40:07.46	158.91	68.34	-38.2	-39.2	22.9	0.00e+00	0	29	0	848297984	50	5833
2026-01-05 14:40:08.32	159.62	68.03	-37.9	-38.9	22.8	0.00e+00	0	29	0	849346560	48	6368
2026-01-05 14:40:09.48	160.55	67.62	-37.8	-38.8	23.0	0.00e+00	0	29	0	851443712	48	6282
2026-01-05 14:40:10.34	161.22	67.32	-36.7	-37.6	23.9	0.00e+00	0	29	0	853540864	46	6146
2026-01-05 14:40:11.50	162.09	66.90	-36.8	-37.7	23.6	0.00e+00	0	29	0	855638016	46	6194
2026-01-05 14:40:12.36	162.71	66.59	-37.5	-38.5	23.2	0.00e+00	0	29	0	857735168	46	6787
2026-01-05 14:40:13.52	163.52	66.17	-37.2	-38.1	23.6	0.00e+00	0	29	0	859832320	48	5819
2026-01-05 14:40:14.38	164.11	65.86	-35.8	-36.6	24.6	0.00e+00	0	29	0	860880896	46	5491
2026-01-05 14:40:15.53	164.86	65.44	-35.4	-36.2	24.8	0.00e+00	0	29	0	862978048	44	5840
2026-01-05 14:40:16.40	165.41	65.12	-35.8	-36.6	24.6	0.00e+00	0	29	0	865075200	44	6151
2026-01-05 14:40:17.56	166.12	64.70	-34.4	-35.2	25.7	0.00e+00	0	29	0	867172352	42	5838
2026-01-05 14:40:18.42	166.63	64.38	-33.4	-34.1	25.7	0.00e+00	0	29	0	868220928	40	5811
2026-01-05 14:40:19.57	167.29	63.96	-33.5	-34.2	26.0	0.00e+00	0	29	0	870318080	40	5873
2026-01-05 14:40:20.44	167.78	63.64	-33.6	-34.3	26.1	0.00e+00	0	29	0	872415232	40	5934
2026-01-05 14:40:21.59	168.40	63.21	-34.1	-34.8	25.7	0.00e+00	0	29	0	874512384	40	6315
2026-01-05 14:40:22.46	168.85	62.89	-34.7	-35.5	25.2	0.00e+00	0	29	0	876609536	40	6831
2026-01-05 14:40:23.61	169.44	62.47	-35.7	-36.6	24.5	0.00e+00	0	29	0	878706688	42	6876
2026-01-05 14:40:24.47	169.86	62.15	-35.6	-36.5	24.1	0.00e+00	0	29	0	879755264	44	6049
2026-01-05 14:40:25.63	170.41	61.73	-36.0	-36.9	24.3	0.00e+00	0	29	0	881852416	44	6356
2026-01-05 14:40:26.49	170.81	61.41	-35.9	-36.8	24.5	0.00e+00	0	29	0	883949568	44	6246
2026-01-05 14:40:27.65	171.33	60.98	-35.8	-36.6	24.4	0.00e+00	0	29	0	886046720	44	6166
2026-01-05 14:40:28.51	171.71	60.67	-35.7	-36.5	24.6	0.00e+00	0	29	0	887095296	44	6087
2026-01-05 14:40:29.66	172.20	60.25	-35.5	-36.3	24.8	0.00e+00	0	29	0	889192448	44	5950
2026-01-05 14:40:30.53	172.56	59.93	-36.0	-36.8	24.3	0.00e+00	0	29	0	891289600	44	6291
2026-01-05 14:40:31.68	173.02	59.51	-36.3	-37.1	24.2	0.00e+00	0	29	0	893386752	44	6503
2026-01-05 14:40:32.55	173.36	59.20	-36.5	-37.4	24.0	0.00e+00	0	29	0	895483904	46	5979
2026-01-05 14:40:33.70	173.79	58.78	-36.6	-37.5	24.0	0.00e+00	0	29	0	897581056	46	6063
2026-01-05 14:40:34.57	174.11	58.47	-35.2	-35.9	25.0	0.00e+00	0	29	0	898629632	44	5695
2026-01-05 14:40:35.72	174.53	58.05	-34.4	-35.2	25.4	0.00e+00	0	29	0	900726784	42	5841
2026-01-05 14:40:36.59	174.83	57.74	-34.7	-35.4	25.3	0.00e+00	0	29	0	902823936	42	6024
2026-01-05 14:40:37.74	175.22	57.33	-35.5	-36.3	24.7	0.00e+00	0	29	0	904921088	42	6690
2026-01-05 14:40:38.60	175.51	57.02	-35.1	-35.9	25.1	0.00e+00	0	29	0	905969664	42	6340
2026-01-05 14:40:39.76	175.88	56.61	-34.4	-35.2	25.6	0.00e+00	0	29	0	909115392	42	5836
2026-01-05 14:40:40.62	176.15	56.31	-33.7	-34.4	26.0	0.00e+00	0	29	0	910163968	42	5370
2026-01-05 14:40:41.78	176.51	55.90	-34.5	-35.2	25.5	0.00e+00	0	29	0	912261120	40	6604
2026-01-05 14:40:42.64	176.77	55.60	-34.7	-35.5	25.3	0.00e+00	0	29	0	914358272	42	6062
2026-01-05 14:40:43.80	177.11	55.19	-34.9	-35.7	25.1	0.00e+00	0	29	0	916455424	42	6210
2026-01-05 14:40:44.66	177.35	54.89	-34.9	-35.7	25.1	0.00e+00	0	29	0	917504000	42	6224
2026-01-05 14:40:45.81	177.67	54.49	-35.0	-35.8	25.1	0.00e+00	0	29	0	919601152	42	6285
2026-01-05 14:40:46.68	177.91	54.20	-35.2	-36.1	24.9	0.00e+00	0	29	0	921698304	42	6481
2026-01-05 14:40:47.83	178.21	53.80	-35.7	-36.6	24.4	0.00e+00	0	29	0	923795456	42	6909
2026-01-05 14:40:48.70	178.44	53.50	-35.5	-36.4	24.7	0.00e+00	0	29	0	925892608	44	5966
2026-01-05 14:40:49.85	178.73	53.12	-35.2	-36.1	24.9	0.00e+00	0	29	0	927989760	44	5767
2026-01-05 14:40:50.72	178.95	52.82	-35.4	-36.2	24.6	0.00e+00	0	29	0	929038336	44	5863
2026-01-05 14:40:51.87	179.23	52.44	-37.0	-38.0	23.4	0.00e+00	0	29	0	931135488	46	6416
2026-01-05 14:40:52.74	179.43	52.15	-38.5	-39.7	22.2	0.00e+00	0	29	0	933232640	48	6955
2026-01-05 14:40:53.89	179.70	51.76	-38.7	-39.9	22.1	0.00e+00	0	29	0	935329792	50	6373
2026-01-05 14:40:54.75	179.89	51.48	-38.0	-39.1	22.9	0.00e+00	0	29	0	936378368	50	5808
2026-01-05 14:40:55.91	180.15	51.10	-36.7	-37.6	23.9	0.00e+00	0	29	0	938475520	46	6130
2026-01-05 14:40:56.77	180.34	50.82	-36.3	-37.2	24.3	0.00e+00	0	29	0	940572672	46	5859
2026-01-05 14:40:57.93	180.58	50.44	-36.3	-37.1	24.2	0.00e+00	0	29	0	942669824	46	5801
2026-01-05 14:40:58.79	180.76	50.17	-37.1	-38.0	23.2	0.00e+00	0	29	0	944766976	46	6399
2026-01-05 14:40:59.94	180.99	49.80	-39.7	-41.0	21.2	0.00e+00	0	29	0	946864128	50	7224
2026-01-05 14:41:00.81	181.17	49.52	-41.1	-42.8	19.0	0.00e+00	0	29	0	947912704	54	7026
2026-01-05 14:41:01.96	181.39	49.16	-42.7	-45.1	17.5	0.00e+00	0	29	0	950009856	56	8181
2026-01-05 14:41:02.83	181.56	48.88	-42.4	-44.4	18.0	0.00e+00	0	29	0	952107008	58	6739
2026-01-05 14:41:03.98	181.77	48.52	-40.6	-42.0	20.2	0.00e+00	0	29	0	954204160	54	6399
2026-01-05 14:41:04.85	181.93	48.25	-39.5	-40.7	21.6	0.00e+00	0	29	0	955252736	52	6192
2026-01-05 14:41:06.00	182.14	47.90	-38.7	-39.7	22.3	0.00e+00	0	29	0	957349888	50	6245
2026-01-05 14:41:06.87	182.30	47.63	-38.2	-39.2	22.7	0.00e+00	0	29	0	959447040	50	5872
2026-01-05 14:41:08.02	182.49	47.28	-38.2	-39.2	22.7	0.00e+00	0	29	0	961544192	48	6591
2026-01-05 14:41:08.88	182.64	47.02	-39.3	-40.4	21.8	0.00e+00	0	29	0	963641344	50	6743
2026-01-05 14:41:10.04	182.83	46.67	-40.1	-41.4	20.8	0.00e+00	0	29	0	965738496	52	6696
2026-01-05 14:41:10.90	182.98	46.41	-40.3	-41.6	20.6	0.00e+00	0	29	0	966787072	52	6914
2026-01-05 14:41:12.06	183.16	46.06	-40.4	-41.7	20.8	0.00e+00	0	29	0	968884224	52	6998
2026-01-05 14:41:12.92	183.30	45.81	-40.2	-41.5	20.8	0.00e+00	0	29	0	970981376	52	6806
2026-01-05 14:41:14.07	183.48	45.47	-39.8	-41.0	21.4	0.00e+00	0	29	0	973078528	52	6447
2026-01-05 14:41:14.94	183.61	45.22	-38.6	-39.7	22.2	0.00e+00	0	29	0	974127104	52	5507
2026-01-05 14:41:16.09	183.78	44.89	-36.4	-37.2	24.1	0.00e+00	0	29	0	977272832	46	5895
2026-01-05 14:41:16.96	183.91	44.64	-36.1	-36.9	24.4	0.00e+00	0	29	0	978321408	46	5661
2026-01-05 14:41:18.11	184.07	44.31	-35.5	-36.3	24.8	0.00e+00	0	29	0	980418560	44	5942
2026-01-05 14:41:18.98	184.20	44.06	-35.8	-36.6	23.9	0.00e+00	0	29	0	982515712	44	6168
2026-01-05 14:41:20.13	184.36	43.73	-36.8	-37.6	23.6	0.00e+00	0	29	0	984612864	44	6899
2026-01-05 14:41:21.00	184.47	43.49	-37.6	-38.6	22.4	0.00e+00	0	29	0	985661440	46	6856
2026-01-05 14:41:22.15	184.63	43.17	-40.1	-41.4	20.9	0.00e+00	0	29	0	987758592	52	6719
2026-01-05 14:41:23.02	184.74	42.93	-40.0	-41.2	20.8	0.00e+00	0	29	0	989855744	52	6596
2026-01-05 14:41:24.17	184.89	42.61	-40.3	-41.6	20.5	0.00e+00	0	29	0	991952896	52	6900
2026-01-05 14:41:25.04	185.01	42.38	-39.0	-40.2	21.9	0.00e+00	0	29	0	994050048	52	5845
2026-01-05 14:41:26.19	185.15	42.07	-37.0	-37.9	23.6	0.00e+00	0	29	0	996147200	48	5685
2026-01-05 14:41:27.05	185.26	41.83	-36.2	-37.1	24.2	0.00e+00	0	29	0	997195776	46	5789
2026-01-05 14:41:28.21	185.40	41.52	-34.7	-35.5	25.3	0.00e+00	0	29	0	999292928	44	5400
2026-01-05 14:41:29.08	185.50	41.29	-34.8	-35.5	25.4	0.00e+00	0	29	0	1001390080	42	6060
2026-01-05 14:41:30.23	185.64	40.99	-34.8	-35.5	25.3	0.00e+00	0	29	0	1003487232	42	6091
2026-01-05 14:41:31.09	185.74	40.77	-35.3	-36.0	24.8	0.00e+00	0	29	0	1004535808	42	6446
2026-01-05 14:41:32.25	185.87	40.46	-35.6	-36.4	24.7	0.00e+00	0	29	0	1006632960	42	6735
2026-01-05 14:41:33.11	185.97	40.24	-36.2	-37.1	24.3	0.00e+00	0	29	0	1008730112	44	6486
2026-01-05 14:41:34.26	186.09	39.95	-37.5	-38.5	23.0	0.00e+00	0	29	0	1010827264	46	6845
2026-01-05 14:41:35.13	186.19	39.73	-38.0	-39.1	22.6	0.00e+00	0	29	0	1011875840	48	6502
2026-01-05 14:41:36.28	186.31	39.43	-38.6	-39.8	22.2	0.00e+00	0	29	0	1015021568	48	7037
2026-01-05 14:41:37.15	186.40	39.22	-39.0	-40.2	21.7	0.00e+00	0	29	0	1016070144	50	6574
2026-01-05 14:41:38.30	186.52	38.93	-38.9	-40.0	22.0	0.00e+00	0	29	0	1018167296	50	6410
2026-01-05 14:41:39.17	186.61	38.71	-38.1	-39.1	22.6	0.00e+00	0	29	0	1020264448	50	5811
2026-01-05 14:41:40.32	186.73	38.43	-37.9	-38.8	23.1	0.00e+00	0	29	0	1022361600	50	5606
2026-01-05 14:41:41.19	186.82	38.22	-36.8	-37.7	23.8	0.00e+00	0	29	0	1023410176	48	5523
2026-01-05 14:41:42.34	186.93	37.94	-36.5	-37.3	24.1	0.00e+00	0	29	0	1025507328	46	5955
2026-01-05 14:41:43.21	187.01	37.73	-36.5	-37.3	24.1	0.00e+00	0	29	0	1027604480	46	5928
2026-01-05 14:41:44.36	187.12	37.45	-36.4	-37.3	23.9	0.00e+00	0	29	0	1029701632	46	5912
2026-01-05 14:41:45.22	187.21	37.25	-37.3	-38.2	23.3	0.00e+00	0	29	0	1031798784	46	6603
2026-01-05 14:41:46.38	187.31	36.98	-39.1	-40.3	21.7	0.00e+00	0	29	0	1033895936	50	6617
2026-01-05 14:41:47.24	187.39	36.77	-40.6	-42.0	20.1	0.00e+00	0	29	0	1034944512	52	7250
2026-01-05 14:41:48.40	187.50	36.50	-41.3	-42.9	19.3	0.00e+00	0	29	0	1037041664	54	7141
2026-01-05 14:41:49.26	187.57	36.31	-42.4	-44.4	18.1	0.00e+00	0	29	0	1039138816	56	7547
2026-01-05 14:41:50.42	187.68	36.04	-41.8	-43.6	19.2	0.00e+00	0	29	0	1041235968	56	6885
2026-01-05 14:41:51.28	187.75	35.84	-40.7	-42.2	20.1	0.00e+00	0	29	0	1042284544	56	5862
2026-01-05 14:41:52.43	187.85	35.58	-38.9	-40.0	22.0	0.00e+00	0	29	0	1045430272	52	5753
2026-01-05 14:41:53.30	187.92	35.39	-37.6	-38.6	23.2	0.00e+00	0	29	0	1046478848	48	6123
2026-01-05 14:41:54.45	188.02	35.13	-36.8	-37.7	23.7	0.00e+00	0	29	0	1048576000	46	6235
2026-01-05 14:41:55.32	188.09	34.94	-36.0	-36.8	24.4	0.00e+00	0	29	0	1050673152	46	5607
2026-01-05 14:41:56.47	188.18	34.68	-36.0	-36.8	24.4	0.00e+00	0	29	0	1052770304	46	5612
2026-01-05 14:41:57.34	188.25	34.49	-36.5	-37.4	24.0	0.00e+00	0	29	0	1053818880	46	5965
2026-01-05 14:41:58.49	188.34	34.24	-37.3	-38.2	23.4	0.00e+00	0	29	0	1055916032	46	6568
2026-01-05 14:41:59.36	188.41	34.06	-38.0	-39.0	22.7	0.00e+00	0	29	0	1058013184	48	6444
2026-01-05 14:42:00.51	188.50	33.81	-39.2	-40.4	21.8	0.00e+00	0	29	0	1060110336	50	6703
2026-01-05 14:42:01.37	188.57	33.63	-40.3	-41.6	20.6	0.00e+00	0	29	0	1061158912	52	6890
2026-01-05 14:42:02.53	188.65	33.38	-40.7	-42.1	20.1	0.00e+00	0	29	0	1063256064	54	6505
2026-01-05 14:42:03.39	188.72	33.20	-41.1	-42.6	19.7	0.00e+00	0	29	0	1065353216	54	6876
2026-01-05 14:42:04.55	188.80	32.96	-40.8	-42.2	20.0	0.00e+00	0	29	0	1067450368	54	6572
2026-01-05 14:42:05.41	188.86	32.78	-40.8	-42.2	20.1	0.00e+00	0	29	0	1069547520	54	6613
2026-01-05 14:42:06.57	188.95	32.54	-39.9	-41.1	21.0	0.00e+00	0	29	0	1071644672	54	5803
2026-01-05 14:42:07.43	189.01	32.36	-39.5	-40.6	21.3	0.00e+00	0	29	0	1072693248	52	6167
2026-01-05 14:42:08.59	189.09	32.13	-39.4	-40.5	21.6	0.00e+00	0	29	0	1074790400	52	6097
2026-01-05 14:42:09.45	189.15	31.95	-38.8	-39.9	22.2	0.00e+00	0	29	0	1076887552	52	5654
2026-01-05 14:42:10.61	189.23	31.72	-38.6	-39.7	22.3	0.00e+00	0	29	0	1078984704	50	6205
2026-01-05 14:42:11.47	189.29	31.55	-38.2	-39.2	22.8	0.00e+00	0	29	0	1080033280	50	5887
2026-01-05 14:42:12.62	189.36	31.32	-37.9	-38.8	22.9	0.00e+00	0	29	0	1083179008	50	5619
2026-01-05 14:42:13.49	189.42	31.15	-38.0	-39.0	22.8	0.00e+00	0	29	0	1084227584	50	5716
2026-01-05 14:42:14.64	189.49	30.93	-37.8	-38.7	23.1	0.00e+00	0	29	0	1086324736	48	6206
2026-01-05 14:42:15.51	189.55	30.76	-37.5	-38.4	23.2	0.00e+00	0	29	0	1088421888	48	6005
2026-01-05 14:42:16.66	189.62	30.54	-37.2	-38.1	23.5	0.00e+00	0	29	0	1090519040	48	5814
2026-01-05 14:42:17.53	189.68	30.37	-37.5	-38.4	23.3	0.00e+00	0	29	0	1091567616	48	5965
2026-01-05 14:42:18.68	189.75	30.15	-37.1	-38.0	23.5	0.00e+00	0	29	0	1093664768	48	5718
2026-01-05 14:42:19.55	189.80	29.99	-36.7	-37.5	23.9	0.00e+00	0	29	0	1095761920	46	6089
2026-01-05 14:42:20.70	189.87	29.77	-36.8	-37.7	23.9	0.00e+00	0	29	0	1097859072	46	6188
2026-01-05 14:42:21.56	189.93	29.61	-36.5	-37.3	24.1	0.00e+00	0	29	0	1099956224	46	5913
2026-01-05 14:42:22.72	190.00	29.40	-36.7	-37.5	23.9	0.00e+00	0	29	0	1102053376	46	6083
2026-01-05 14:42:23.58	190.05	29.24	-37.1	-38.0	23.6	0.00e+00	0	29	0	1103101952	46	6416
2026-01-05 14:42:24.74	190.11	29.03	-37.8	-38.7	22.8	0.00e+00	0	29	0	1105199104	46	6979
2026-01-05 14:42:25.60	190.16	28.87	-38.1	-39.1	22.6	0.00e+00	0	29	0	1107296256	48	6484
2026-01-05 14:42:26.75	190.23	28.66	-38.5	-39.5	22.3	0.00e+00	0	29	0	1109393408	48	6832
2026-01-05 14:42:27.62	190.28	28.50	-39.1	-40.2	21.7	0.00e+00	0	29	0	1110441984	50	6562
2026-01-05 14:42:28.77	190.34	28.30	-39.5	-40.7	21.4	0.00e+00	0	29	0	1112539136	50	6946
2026-01-05 14:42:29.64	190.39	28.15	-39.6	-40.7	21.5	0.00e+00	0	29	0	1114636288	50	6977
2026-01-05 14:42:30.79	190.45	27.94	-39.5	-40.7	21.3	0.00e+00	0	29	0	1116733440	50	6943
2026-01-05 14:42:31.66	190.50	27.79	-39.6	-40.7	21.2	0.00e+00	0	29	0	1118830592	50	7004
2026-01-05 14:42:32.81	190.56	27.59	-39.2	-40.3	21.8	0.00e+00	0	29	0	1120927744	52	5937
2026-01-05 14:42:33.67	190.61	27.44	-39.2	-40.3	22.0	0.00e+00	0	29	0	1121976320	52	5930
2026-01-05 14:42:34.83	190.67	27.24	-39.1	-40.1	21.9	0.00e+00	0	29	0	1124073472	52	5827
2026-01-05 14:42:35.70	190.71	27.09	-38.7	-39.7	22.2	0.00e+00	0	29	0	1126170624	50	6238
2026-01-05 14:42:36.85	190.77	26.90	-38.3	-39.3	22.6	0.00e+00	0	29	0	1128267776	50	5941
2026-01-05 14:42:37.72	190.82	26.75	-38.0	-39.0	22.8	0.00e+00	0	29	0	1129316352	50	5726
2026-01-05 14:42:38.87	190.88	26.56	-37.8	-38.8	22.9	0.00e+00	0	29	0	1131413504	50	5571
2026-01-05 14:42:39.73	190.92	26.42	-38.0	-39.0	22.8	0.00e+00	0	29	0	1133510656	50	5729
2026-01-05 14:42:40.89	190.98	26.22	-37.8	-38.8	23.1	0.00e+00	0	29	0	1135607808	50	5590
2026-01-05 14:42:41.75	191.02	26.08	-36.9	-37.8	23.7	0.00e+00	0	29	0	1137704960	48	5613
2026-01-05 14:42:42.91	191.08	25.89	-36.5	-37.4	24.1	0.00e+00	0	29	0	1139802112	46	5991
2026-01-05 14:42:43.77	191.12	25.75	-36.5	-37.4	23.9	0.00e+00	0	29	0	1140850688	46	5989
2026-01-05 14:42:44.93	191.17	25.56	-36.2	-37.0	24.4	0.00e+00	0	29	0	1142947840	46	5731
2026-01-05 14:42:45.79	191.21	25.43	-36.2	-37.0	24.2	0.00e+00	0	29	0	1145044992	46	5749
2026-01-05 14:42:46.95	191.27	25.24	-36.2	-37.1	24.2	0.00e+00	0	29	0	1147142144	46	5788
2026-01-05 14:42:47.81	191.31	25.10	-36.1	-36.9	24.4	0.00e+00	0	29	0	1148190720	46	5669
2026-01-05 14:42:48.97	191.36	24.92	-35.9	-36.7	24.5	0.00e+00	0	29	0	1151336448	46	5529
2026-01-05 14:42:49.83	191.40	24.79	-36.0	-36.9	24.5	0.00e+00	0	29	0	1152385024	46	5633
2026-01-05 14:42:50.98	191.45	24.61	-35.9	-36.7	24.5	0.00e+00	0	29	0	1154482176	44	6231
2026-01-05 14:42:51.85	191.49	24.47	-35.7	-36.5	24.6	0.00e+00	0	29	0	1156579328	44	6048
2026-01-05 14:42:53.00	191.54	24.29	-35.4	-36.2	25.0	0.00e+00	0	29	0	1158676480	44	5832
2026-01-05 14:42:53.86	191.58	24.16	-35.3	-36.1	24.9	0.00e+00	0	29	0	1159725056	44	5783
2026-01-05 14:42:55.02	191.63	23.99	-35.1	-35.8	25.0	0.00e+00	0	29	0	1161822208	44	5624
2026-01-05 14:42:55.88	191.67	23.86	-35.0	-35.8	25.0	0.00e+00	0	29	0	1163919360	44	5579
2026-01-05 14:42:57.03	191.71	23.68	-34.9	-35.7	25.2	0.00e+00	0	29	0	1166016512	44	5521
2026-01-05 14:42:57.90	191.75	23.55	-34.9	-35.7	25.2	0.00e+00	0	29	0	1168113664	44	5520
2026-01-05 14:42:59.05	191.80	23.38	-35.0	-35.8	25.0	0.00e+00	0	29	0	1170210816	42	6299
2026-01-05 14:42:59.92	191.84	23.25	-35.1	-35.9	25.0	0.00e+00	0	29	0	1171259392	42	6346
2026-01-05 14:43:01.07	191.88	23.08	-35.3	-36.1	24.9	0.00e+00	0	29	0	1173356544	42	6527
2026-01-05 14:43:01.93	191.92	22.96	-35.7	-36.5	24.5	0.00e+00	0	29	0	1175453696	42	6797
2026-01-05 14:43:03.09	191.97	22.79	-35.7	-36.5	24.6	0.00e+00	0	29	0	1177550848	44	6071
2026-01-05 14:43:03.95	192.00	22.66	-35.8	-36.7	24.4	0.00e+00	0	29	0	1178599424	44	6179
2026-01-05 14:43:05.11	192.05	22.50	-36.4	-37.3	24.0	0.00e+00	0	29	0	1180696576	44	6657
2026-01-05 14:43:05.97	192.08	22.37	-36.4	-37.3	24.1	0.00e+00	0	29	0	1182793728	44	6629
2026-01-05 14:43:07.12	192.13	22.21	-36.5	-37.4	24.0	0.00e+00	0	29	0	1184890880	44	6716
2026-01-05 14:43:07.99	192.16	22.09	-36.7	-37.5	23.9	0.00e+00	0	29	0	1186988032	46	6082
2026-01-05 14:43:09.14	192.20	21.92	-36.8	-37.6	23.8	0.00e+00	0	29	0	1189085184	46	6164
2026-01-05 14:43:10.01	192.24	21.80	-36.5	-37.3	24.1	0.00e+00	0	30	0	1190133760	46	5931
2026-01-05 14:43:11.17	192.28	21.64	-36.5	-37.3	24.1	0.00e+00	0	29	0	1192230912	46	5944
2026-01-05 14:43:12.03	192.31	21.52	-36.1	-36.9	24.2	0.00e+00	0	29	0	1194328064	46	5650
2026-01-05 14:43:13.18	192.36	21.36	-36.2	-37.0	24.4	0.00e+00	0	29	0	1196425216	46	5725
2026-01-05 14:43:14.05	192.39	21.24	-35.7	-36.5	24.7	0.00e+00	0	29	0	1197473792	44	6048
2026-01-05 14:43:15.20	192.43	21.09	-35.8	-36.6	24.5	0.00e+00	0	29	0	1199570944	44	6126
2026-01-05 14:43:16.07	192.46	20.97	-35.7	-36.5	24.6	0.00e+00	0	29	0	1201668096	44	6045
2026-01-05 14:43:17.22	192.50	20.82	-35.7	-36.5	24.6	0.00e+00	0	29	0	1203765248	44	6087
2026-01-05 14:43:18.09	192.53	20.70	-35.8	-36.6	24.6	0.00e+00	0	29	0	1205862400	44	6140
2026-01-05 14:43:19.24	192.58	20.55	-35.8	-36.6	24.5	0.00e+00	0	29	0	1207959552	44	6171
2026-01-05 14:43:20.11	192.61	20.43	-35.8	-36.6	24.4	0.00e+00	0	29	0	1209008128	44	6168
2026-01-05 14:43:21.26	192.65	20.28	-36.1	-36.9	24.2	0.00e+00	0	29	0	1211105280	44	6384
2026-01-05 14:43:22.13	192.68	20.16	-36.1	-37.0	24.2	0.00e+00	0	29	0	1213202432	44	6391
2026-01-05 14:43:23.28	192.72	20.01	-36.0	-36.9	24.2	0.00e+00	0	29	0	1215299584	44	6346
2026-01-05 14:43:24.15	192.75	19.90	-36.1	-37.0	24.3	0.00e+00	0	29	0	1216348160	44	6403
2026-01-05 14:43:25.30	192.78	19.75	-36.6	-37.5	23.9	0.00e+00	0	29	0	1219493888	44	6777
2026-01-05 14:43:26.17	192.81	19.64	-36.4	-37.3	24.0	0.00e+00	0	29	0	1220542464	44	6616
