passes_logs/2026/01/05/R4.6S_Anadyr/R4.6S_Anadyr__20260105_153912_AQUA_rec.log

#Pass ID: 20260105_153912_AQUA
#Satellite: AQUA
#Configuration: AQUA
#almurnet v.1.7.20251203
#Start time: 2026-01-05 15:39:12

#Version: 2.2.20231116
#Station: R4.6S_Anadyr
#Location: 177.4865 lon 64.73178 lat
#TLE: 1 27424U 02022A   26003.93831470  .00001925  00000+0  39553-3 0  9995
#TLE: 2 27424  98.4067 330.1809 0002003  92.1713 343.8415 14.61796291259276

#Time	Az	El	Level	Level2	SNR	BER	BlckErr	Temp	State	Recorded	gain1	gain2
2026-01-05 15:39:12.65	19.54	0.03	-48.5	-63.5	3.5	1.51e+00	0	28	0	0	60	53795
2026-01-05 15:39:13.65	19.57	0.09	-49.3	-67.2	3.5	3.02e+01	0	29	104	0	60	88516
2026-01-05 15:39:14.67	19.60	0.16	-49.1	-67.0	3.5	3.02e+01	0	29	104	0	60	86051
2026-01-05 15:39:15.68	19.63	0.22	-48.9	-66.8	3.5	3.02e+01	0	29	104	0	60	84545
2026-01-05 15:39:16.69	19.66	0.28	-48.9	-66.8	3.5	3.02e+01	0	29	104	0	60	84327
2026-01-05 15:39:17.70	19.69	0.34	-48.9	-66.8	3.5	3.02e+01	0	30	104	0	60	84311
2026-01-05 15:39:18.71	19.72	0.40	-48.9	-66.8	3.5	3.02e+01	0	30	104	0	60	84382
2026-01-05 15:39:19.72	19.75	0.46	-48.7	-66.8	3.5	3.02e+01	0	30	104	0	60	84571
2026-01-05 15:39:20.73	19.78	0.52	-48.8	-66.8	3.5	3.02e+01	0	30	104	0	60	83869
2026-01-05 15:39:21.74	19.81	0.59	-48.8	-66.7	3.5	3.02e+01	0	30	104	0	60	83464
2026-01-05 15:39:22.75	19.84	0.65	-48.7	-66.6	3.5	3.02e+01	0	30	104	0	60	82679
2026-01-05 15:39:23.76	19.87	0.71	-48.6	-66.6	3.5	3.02e+01	0	30	104	0	60	81922
2026-01-05 15:39:24.77	19.90	0.77	-48.5	-66.4	3.5	3.02e+01	0	30	104	0	60	80381
2026-01-05 15:39:25.78	19.94	0.83	-48.3	-66.2	3.5	3.02e+01	0	30	104	0	60	78482
2026-01-05 15:39:26.79	19.97	0.90	-48.2	-66.1	3.5	3.02e+01	0	30	104	0	60	77308
2026-01-05 15:39:27.79	20.00	0.96	-47.9	-65.9	3.5	3.02e+01	0	30	104	0	60	75529
2026-01-05 15:39:28.81	20.03	1.02	-47.6	-65.5	3.5	3.02e+01	0	30	104	0	60	72150
2026-01-05 15:39:29.81	20.06	1.08	-47.6	-65.4	3.5	3.02e+01	0	30	104	0	60	72026
2026-01-05 15:39:30.83	20.09	1.15	-47.6	-65.5	3.5	3.02e+01	0	30	104	0	60	72358
2026-01-05 15:39:31.84	20.13	1.21	-47.6	-65.5	3.5	3.02e+01	0	30	104	0	60	72289
2026-01-05 15:39:32.85	20.16	1.27	-47.6	-65.5	3.5	3.02e+01	0	30	104	0	60	72177
2026-01-05 15:39:33.86	20.19	1.34	-47.5	-65.4	3.5	3.02e+01	0	30	104	0	60	71763
2026-01-05 15:39:34.87	20.22	1.40	-47.5	-65.4	3.5	3.02e+01	0	30	104	0	60	71945
2026-01-05 15:39:35.88	20.26	1.46	-47.5	-65.4	3.5	3.02e+01	0	30	104	0	60	71545
2026-01-05 15:39:36.89	20.29	1.53	-47.6	-65.3	3.5	3.02e+01	0	30	104	0	60	70633
2026-01-05 15:39:37.89	20.32	1.59	-47.6	-65.2	3.5	3.02e+01	0	30	104	0	60	70083
2026-01-05 15:39:38.90	20.35	1.66	-47.5	-65.3	3.5	3.02e+01	0	30	104	0	60	70960
2026-01-05 15:39:39.91	20.39	1.72	-47.6	-65.3	3.5	3.02e+01	0	30	104	0	60	70661
2026-01-05 15:39:40.92	20.42	1.79	-47.5	-65.3	3.5	3.02e+01	0	30	104	0	60	70616
2026-01-05 15:39:41.93	20.45	1.85	-47.5	-65.4	3.5	3.02e+01	0	30	104	0	60	71385
2026-01-05 15:39:42.94	20.49	1.91	-47.5	-65.3	3.5	3.02e+01	0	30	104	0	60	71038
2026-01-05 15:39:43.96	20.52	1.98	-46.1	-65.1	3.5	3.02e+01	0	30	104	0	60	69534
2026-01-05 15:39:44.96	20.56	2.04	-42.8	-65.2	3.5	3.02e+01	0	30	104	0	60	70006
2026-01-05 15:39:45.98	20.59	2.11	-39.5	-65.3	3.5	3.02e+01	0	30	104	0	54	100254
2026-01-05 15:39:46.99	20.62	2.18	-38.1	-65.3	3.5	3.02e+01	0	30	104	0	52	112199
2026-01-05 15:39:48.00	20.66	2.24	-38.2	-64.9	3.5	3.02e+01	0	30	104	0	52	107372
2026-01-05 15:39:49.01	20.69	2.31	-39.2	-63.7	3.5	3.02e+01	0	30	104	0	52	93440
2026-01-05 15:39:50.02	20.73	2.37	-42.6	-61.9	4.2	3.02e+01	0	30	104	0	58	53515
2026-01-05 15:39:51.03	20.76	2.44	-46.0	-60.7	4.7	3.02e+01	0	30	104	0	60	41832
2026-01-05 15:39:52.04	20.80	2.51	-47.3	-60.8	4.8	3.02e+01	0	30	104	0	60	41956
2026-01-05 15:39:53.05	20.83	2.57	-47.2	-60.7	3.7	3.02e+01	0	30	104	0	60	41951
2026-01-05 15:39:54.06	20.87	2.64	-47.3	-61.4	3.7	3.02e+01	0	30	104	0	60	45229
2026-01-05 15:39:55.07	20.90	2.71	-47.3	-58.9	5.8	3.02e+01	0	30	0	0	60	33950
2026-01-05 15:39:56.08	20.94	2.77	-46.9	-55.1	9.1	3.02e+01	0	30	0	1572864	60	21866
2026-01-05 15:39:57.09	20.97	2.84	-45.8	-51.0	13.8	3.02e+01	0	30	0	3670016	60	13720
2026-01-05 15:39:58.09	21.01	2.91	-44.5	-48.3	16.6	3.02e+01	0	30	0	5242880	60	10034
2026-01-05 15:39:59.11	21.04	2.97	-43.3	-46.2	19.0	3.02e+01	0	30	0	7340032	60	7885
2026-01-05 15:40:00.12	21.08	3.04	-41.2	-43.3	21.7	3.02e+01	0	30	0	8912896	58	6322
2026-01-05 15:40:01.13	21.12	3.11	-40.5	-42.4	22.9	3.02e+01	0	30	0	11010048	56	6416
2026-01-05 15:40:02.14	21.15	3.18	-39.2	-40.9	24.0	3.02e+01	0	30	0	13107200	54	6035
2026-01-05 15:40:03.15	21.19	3.25	-39.1	-40.8	24.2	3.02e+01	0	30	0	14680064	54	5951
2026-01-05 15:40:04.16	21.23	3.31	-39.0	-40.6	24.3	3.02e+01	0	30	0	16777216	52	6542
2026-01-05 15:40:05.17	21.26	3.38	-39.3	-41.0	23.9	3.02e+01	0	30	0	18874368	52	6824
2026-01-05 15:40:06.18	21.30	3.45	-39.9	-41.7	23.2	3.02e+01	0	30	0	20447232	52	7389
2026-01-05 15:40:07.19	21.34	3.52	-41.1	-51.9	3.5	3.02e+01	0	30	104	20447232	56	18972
2026-01-05 15:40:08.20	21.37	3.59	-42.5	-53.7	3.6	3.02e+01	0	30	104	20447232	58	20849
2026-01-05 15:40:09.21	21.41	3.66	-44.0	-55.9	3.4	3.02e+01	0	30	104	20447232	60	23962
2026-01-05 15:40:10.21	21.45	3.73	-44.8	-57.3	3.6	3.02e+01	0	30	104	20447232	60	28120
2026-01-05 15:40:11.22	21.49	3.80	-41.3	-52.2	3.6	3.02e+01	0	30	104	20447232	56	19786
2026-01-05 15:40:12.23	21.53	3.87	-47.1	-63.4	3.5	3.02e+01	0	30	104	20447232	60	56864
2026-01-05 15:40:13.24	21.56	3.94	-47.7	-65.3	3.5	3.02e+01	0	30	104	20447232	60	71115
2026-01-05 15:40:14.25	21.60	4.01	-43.9	-55.8	3.4	3.02e+01	0	30	104	20447232	60	23625
2026-01-05 15:40:15.26	21.64	4.08	-47.5	-64.6	3.5	3.02e+01	0	30	104	20447232	60	65338
2026-01-05 15:40:16.27	21.68	4.15	-44.8	-57.1	3.5	3.02e+01	0	30	104	20447232	60	27635
2026-01-05 15:40:17.28	21.72	4.22	-44.1	-55.9	3.6	3.02e+01	0	30	104	20447232	60	24046
2026-01-05 15:40:18.29	21.76	4.29	-43.8	-55.5	3.6	3.02e+01	0	30	104	20447232	60	22870
2026-01-05 15:40:19.30	21.80	4.36	-42.3	-53.3	3.4	3.02e+01	0	30	104	20447232	60	17766
2026-01-05 15:40:20.30	21.84	4.43	-43.6	-55.4	3.6	3.02e+01	0	30	104	20447232	60	22706
2026-01-05 15:40:21.31	21.88	4.50	-39.1	-49.5	3.6	3.02e+01	0	30	104	20447232	50	20367
2026-01-05 15:40:22.32	21.92	4.58	-47.6	-65.2	3.5	3.02e+01	0	30	104	20447232	60	69691
2026-01-05 15:40:23.33	21.96	4.65	-39.5	-49.9	4.0	3.02e+01	0	30	104	20447232	56	15182
2026-01-05 15:40:24.34	22.00	4.72	-46.6	-61.0	3.6	3.02e+01	0	30	104	20447232	60	43271
2026-01-05 15:40:25.35	22.04	4.79	-38.9	-49.3	3.4	3.02e+01	0	30	104	20447232	52	17820
2026-01-05 15:40:26.36	22.08	4.86	-39.0	-49.4	4.1	3.02e+01	0	31	104	20447232	52	18059
2026-01-05 15:40:27.37	22.12	4.94	-38.5	-48.9	4.1	3.02e+01	0	30	104	20447232	52	16963
2026-01-05 15:40:28.37	22.16	5.01	-38.9	-49.3	3.6	3.02e+01	0	31	104	20447232	52	17893
2026-01-05 15:40:29.38	22.20	5.08	-43.1	-54.4	3.6	3.02e+01	0	30	104	20447232	60	20282
2026-01-05 15:40:30.39	22.24	5.16	-39.3	-49.9	3.5	3.02e+01	0	30	104	20447232	52	19018
2026-01-05 15:40:31.40	22.28	5.23	-47.6	-65.4	3.5	3.02e+01	0	30	104	20447232	60	71466
2026-01-05 15:40:32.41	22.32	5.30	-38.8	-49.3	3.5	3.02e+01	0	30	104	20447232	54	15913
2026-01-05 15:40:33.42	22.37	5.38	-46.5	-60.5	3.5	3.02e+01	0	30	104	20447232	60	40746
2026-01-05 15:40:34.43	22.41	5.45	-39.0	-49.5	3.5	3.02e+01	0	30	104	20447232	52	18133
2026-01-05 15:40:35.44	22.45	5.53	-38.8	-49.2	3.5	3.02e+01	0	30	104	20447232	52	17548
2026-01-05 15:40:36.44	22.49	5.60	-38.4	-48.9	3.5	3.02e+01	0	30	104	20447232	52	16956
2026-01-05 15:40:37.45	22.54	5.68	-37.7	-48.1	3.5	3.02e+01	0	30	104	20447232	50	17448
2026-01-05 15:40:38.46	22.58	5.75	-40.3	-51.0	3.6	3.02e+01	0	31	104	20447232	56	17222
2026-01-05 15:40:39.47	22.62	5.83	-39.3	-49.9	3.3	3.02e+01	0	30	104	20447232	52	18977
2026-01-05 15:40:40.48	22.67	5.90	-47.8	-65.5	3.5	3.02e+01	0	30	104	20447232	60	72177
2026-01-05 15:40:41.49	22.71	5.98	-40.4	-51.1	3.5	3.02e+01	0	31	104	20447232	58	15537
2026-01-05 15:40:42.50	22.75	6.06	-46.9	-61.4	3.6	3.02e+01	0	30	104	20447232	60	45371
2026-01-05 15:40:43.51	22.80	6.13	-41.9	-52.9	3.5	3.02e+01	0	30	104	20447232	60	17008
2026-01-05 15:40:44.52	22.84	6.21	-41.8	-52.8	3.5	3.02e+01	0	30	104	20447232	58	18828
2026-01-05 15:40:45.53	22.89	6.29	-42.0	-53.0	3.5	3.02e+01	0	30	104	20447232	58	19348
2026-01-05 15:40:46.54	22.93	6.36	-44.7	-56.6	3.5	3.02e+01	0	31	104	20447232	60	26148
2026-01-05 15:40:47.55	22.98	6.44	-43.1	-54.4	3.5	3.02e+01	0	31	104	20447232	60	20261
2026-01-05 15:40:48.55	23.02	6.52	-43.0	-54.3	3.7	3.02e+01	0	30	104	20447232	52	31518
2026-01-05 15:40:49.56	23.07	6.59	-47.5	-63.6	3.5	3.02e+01	0	31	104	20447232	60	57918
2026-01-05 15:40:50.57	23.11	6.67	-38.4	-48.8	3.5	3.02e+01	0	31	104	20447232	50	18818
2026-01-05 15:40:51.58	23.16	6.75	-43.7	-55.2	3.5	3.02e+01	0	31	104	20447232	60	22111
2026-01-05 15:40:52.59	23.21	6.83	-38.2	-48.6	3.5	3.02e+01	0	31	104	20447232	52	16509
2026-01-05 15:40:53.60	23.25	6.91	-37.9	-48.3	3.5	3.02e+01	0	31	104	20447232	52	15836
2026-01-05 15:40:54.61	23.30	6.99	-38.3	-48.7	3.5	3.02e+01	0	30	104	20447232	50	18650
2026-01-05 15:40:55.62	23.35	7.07	-38.2	-48.6	3.5	3.02e+01	0	31	104	20447232	50	18495
2026-01-05 15:40:56.63	23.39	7.15	-39.2	-49.7	3.5	3.02e+01	0	30	104	20447232	52	18693
2026-01-05 15:40:57.64	23.44	7.23	-44.4	-56.2	3.4	3.02e+01	0	30	104	20447232	54	35101
2026-01-05 15:40:58.65	23.49	7.31	-46.8	-61.1	3.5	3.02e+01	0	31	104	20447232	60	43627
2026-01-05 15:40:59.66	23.54	7.39	-38.5	-49.0	3.5	3.02e+01	0	30	104	20447232	50	19245
2026-01-05 15:41:00.67	23.58	7.47	-40.5	-51.2	3.5	3.02e+01	0	31	104	20447232	60	13973
2026-01-05 15:41:01.68	23.63	7.55	-38.2	-48.6	3.5	3.02e+01	0	31	104	20447232	52	16460
2026-01-05 15:41:02.69	23.68	7.63	-38.0	-48.4	3.5	3.02e+01	0	31	104	20447232	50	17980
2026-01-05 15:41:03.70	23.73	7.71	-38.0	-48.4	3.5	3.02e+01	0	31	104	20447232	50	17992
2026-01-05 15:41:04.70	23.78	7.79	-37.5	-47.8	3.5	3.02e+01	0	31	104	20447232	48	18858
2026-01-05 15:41:05.71	23.83	7.88	-37.0	-47.3	3.5	3.02e+01	0	31	104	20447232	48	17872
2026-01-05 15:41:06.72	23.88	7.96	-47.9	-65.0	3.5	3.02e+01	0	31	104	20447232	60	68300
2026-01-05 15:41:07.73	23.93	8.04	-45.7	-58.6	3.5	3.02e+01	0	31	104	20447232	60	32906
2026-01-05 15:41:08.74	23.98	8.12	-43.1	-54.5	3.5	3.02e+01	0	31	104	20447232	54	28775
2026-01-05 15:41:09.75	24.03	8.21	-43.3	-54.6	3.5	3.02e+01	0	31	104	20447232	60	20731
2026-01-05 15:41:10.76	24.08	8.29	-41.4	-52.3	3.5	3.02e+01	0	31	104	20447232	58	17716
2026-01-05 15:41:11.77	24.13	8.37	-40.9	-51.7	3.5	3.02e+01	0	31	104	20447232	56	18572
2026-01-05 15:41:12.78	24.19	8.46	-41.2	-51.9	3.5	3.02e+01	0	31	104	20447232	56	19081
2026-01-05 15:41:13.79	24.24	8.54	-41.2	-51.9	3.5	3.02e+01	0	31	104	20447232	56	19169
2026-01-05 15:41:14.80	24.29	8.63	-39.3	-49.8	3.5	3.02e+01	0	30	104	20447232	54	16742
2026-01-05 15:41:15.81	24.34	8.71	-48.1	-65.7	3.5	3.02e+01	0	31	104	20447232	60	73758
2026-01-05 15:41:16.82	24.40	8.80	-43.8	-55.5	3.5	3.02e+01	0	30	104	20447232	60	22838
2026-01-05 15:41:17.83	24.45	8.88	-46.8	-60.5	3.5	3.02e+01	0	31	104	20447232	60	40831
2026-01-05 15:41:18.84	24.50	8.97	-42.0	-52.9	3.5	3.02e+01	0	31	104	20447232	60	16969
2026-01-05 15:41:19.85	24.56	9.06	-41.3	-52.0	3.5	3.02e+01	0	31	104	20447232	56	19256
2026-01-05 15:41:20.86	24.61	9.14	-41.5	-52.2	3.5	3.02e+01	0	31	104	20447232	56	19782
2026-01-05 15:41:21.86	24.66	9.23	-40.9	-51.6	3.5	3.02e+01	0	31	104	20447232	56	18397
2026-01-05 15:41:22.87	24.72	9.32	-47.5	-63.5	3.5	3.02e+01	0	31	104	20447232	60	57794
2026-01-05 15:41:23.88	24.77	9.40	-38.8	-49.3	3.5	3.02e+01	0	31	104	20447232	54	15830
2026-01-05 15:41:24.89	24.83	9.49	-48.0	-64.6	3.5	3.02e+01	0	31	104	20447232	60	65463
2026-01-05 15:41:25.90	24.88	9.58	-40.7	-51.5	3.5	3.02e+01	0	31	104	20447232	58	16236
2026-01-05 15:41:26.91	24.94	9.67	-47.1	-61.5	3.5	3.02e+01	0	31	104	20447232	60	45815
2026-01-05 15:41:27.92	25.00	9.76	-38.0	-48.4	3.5	3.02e+01	0	31	104	20447232	54	14287
2026-01-05 15:41:28.93	25.05	9.85	-37.2	-47.5	3.5	3.02e+01	0	31	104	20447232	50	16271
2026-01-05 15:41:29.94	25.11	9.94	-36.6	-46.9	3.5	3.02e+01	0	31	104	20447232	48	17068
2026-01-05 15:41:30.95	25.17	10.03	-36.6	-46.9	3.5	3.02e+01	0	31	104	20447232	48	16920
2026-01-05 15:41:31.96	25.23	10.12	-39.0	-49.4	3.5	3.02e+01	0	31	104	20447232	50	20298
2026-01-05 15:41:32.97	25.28	10.21	-38.0	-48.4	3.5	3.02e+01	0	31	104	20447232	52	16089
2026-01-05 15:41:33.98	25.34	10.30	-48.0	-64.5	3.5	3.02e+01	0	31	104	20447232	60	64365
2026-01-05 15:41:34.98	25.40	10.39	-40.2	-50.9	3.5	3.02e+01	0	31	104	20447232	56	16974
2026-01-05 15:41:35.99	25.46	10.48	-46.8	-62.6	3.5	3.02e+01	0	31	104	20447232	60	52125
2026-01-05 15:41:37.01	25.52	10.57	-40.4	-51.1	3.5	3.02e+01	0	31	104	20447232	56	17487
2026-01-05 15:41:38.01	25.58	10.67	-39.9	-50.7	3.5	3.02e+01	0	31	104	20447232	54	18614
2026-01-05 15:41:39.02	25.64	10.76	-40.5	-51.4	3.5	3.02e+01	0	31	104	20447232	54	20218
2026-01-05 15:41:40.03	25.70	10.85	-40.7	-51.5	3.5	3.02e+01	0	31	104	20447232	54	20468
2026-01-05 15:41:41.04	25.76	10.95	-36.2	-46.4	3.5	3.02e+01	0	31	104	20447232	48	16134
2026-01-05 15:41:42.05	25.82	11.04	-38.1	-48.4	3.5	3.02e+01	0	31	104	20447232	48	20285
2026-01-05 15:41:43.06	25.89	11.13	-47.8	-64.6	3.5	3.02e+01	0	31	104	20447232	60	65192
2026-01-05 15:41:44.07	25.95	11.23	-40.2	-50.9	3.5	3.02e+01	0	31	104	20447232	56	16915
2026-01-05 15:41:45.08	26.01	11.32	-47.7	-64.2	3.5	3.02e+01	0	31	104	20447232	60	62475
2026-01-05 15:41:46.09	26.07	11.42	-37.3	-47.6	3.5	3.02e+01	0	31	104	20447232	50	16412
2026-01-05 15:41:47.10	26.14	11.51	-36.8	-47.1	3.5	3.02e+01	0	31	104	20447232	48	17313
2026-01-05 15:41:48.11	26.20	11.61	-36.6	-47.0	3.5	3.02e+01	0	31	104	20447232	48	17114
2026-01-05 15:41:49.12	26.27	11.71	-36.4	-46.8	3.5	3.02e+01	0	31	104	20447232	48	16713
2026-01-05 15:41:50.13	26.33	11.80	-39.4	-50.0	3.5	3.02e+01	0	31	104	20447232	52	19209
2026-01-05 15:41:51.14	26.40	11.90	-37.6	-48.0	3.5	3.02e+01	0	31	104	20447232	48	19321
2026-01-05 15:41:52.14	26.46	12.00	-48.1	-64.6	3.5	3.02e+01	0	31	104	20447232	60	65207
2026-01-05 15:41:53.16	26.53	12.10	-40.2	-50.8	3.6	3.02e+01	0	31	104	20447232	56	16812
2026-01-05 15:41:54.17	26.60	12.20	-47.9	-63.9	3.5	3.02e+01	0	31	104	20447232	60	60514
2026-01-05 15:41:55.18	26.66	12.30	-37.0	-47.3	3.5	3.02e+01	0	31	104	20447232	50	15855
2026-01-05 15:41:56.19	26.73	12.40	-36.2	-46.4	3.5	3.02e+01	0	31	104	20447232	48	16041
2026-01-05 15:41:57.20	26.80	12.49	-36.1	-46.2	3.5	3.02e+01	0	31	104	20447232	48	15743
2026-01-05 15:41:58.21	26.87	12.60	-36.2	-46.4	3.5	3.02e+01	0	31	104	20447232	48	16092
2026-01-05 15:41:59.21	26.93	12.69	-42.8	-54.1	3.5	3.02e+01	0	31	104	20447232	60	19520
2026-01-05 15:42:00.22	27.00	12.80	-37.2	-47.5	3.5	3.02e+01	0	31	104	20447232	48	18236
2026-01-05 15:42:01.23	27.07	12.90	-47.7	-64.4	3.5	3.02e+01	0	31	104	20447232	60	63829
2026-01-05 15:42:02.24	27.14	13.00	-38.9	-49.5	3.5	3.02e+01	0	31	104	20447232	54	16138
2026-01-05 15:42:03.25	27.22	13.10	-47.8	-63.3	3.5	3.02e+01	0	31	104	20447232	60	56193
2026-01-05 15:42:04.26	27.29	13.21	-39.5	-49.9	3.5	3.02e+01	0	31	104	20447232	54	17075
2026-01-05 15:42:05.27	27.36	13.31	-39.0	-49.5	3.5	3.02e+01	0	31	104	20447232	54	16221
2026-01-05 15:42:06.28	27.43	13.41	-39.3	-49.8	3.5	3.02e+01	0	31	104	20447232	54	16711
2026-01-05 15:42:07.29	27.50	13.52	-38.7	-49.1	3.5	3.02e+01	0	31	104	20447232	52	17318
2026-01-05 15:42:08.30	27.58	13.62	-41.4	-52.2	3.5	3.02e+01	0	31	104	20447232	56	19846
2026-01-05 15:42:09.31	27.65	13.73	-36.8	-47.1	3.6	3.02e+01	0	31	104	20447232	50	15453
2026-01-05 15:42:10.31	27.72	13.83	-48.0	-64.6	3.5	3.02e+01	0	31	104	20447232	60	65483
2026-01-05 15:42:11.32	27.80	13.94	-39.5	-50.1	3.5	3.02e+01	0	31	104	20447232	58	13814
2026-01-05 15:42:12.33	27.87	14.04	-47.3	-62.0	3.5	3.02e+01	0	31	104	20447232	60	48579
2026-01-05 15:42:13.34	27.95	14.15	-39.7	-50.2	3.5	3.02e+01	0	31	104	20447232	56	15690
2026-01-05 15:42:14.35	28.03	14.26	-39.8	-50.4	3.5	3.02e+01	0	31	104	20447232	54	17917
2026-01-05 15:42:15.36	28.10	14.37	-38.6	-49.1	3.5	3.02e+01	0	31	104	20447232	52	17320
2026-01-05 15:42:16.37	28.18	14.48	-37.3	-47.5	3.5	3.02e+01	0	31	104	20447232	50	16305
2026-01-05 15:42:17.38	28.26	14.58	-36.1	-46.3	3.6	3.02e+01	0	31	104	20447232	48	15853
2026-01-05 15:42:18.39	28.34	14.69	-36.9	-47.2	3.5	3.02e+01	0	31	104	20447232	48	17549
2026-01-05 15:42:19.40	28.42	14.80	-48.3	-65.0	3.5	3.02e+01	0	31	104	20447232	60	68810
2026-01-05 15:42:20.41	28.50	14.92	-36.4	-46.7	3.5	3.02e+01	0	31	104	20447232	50	14780
2026-01-05 15:42:21.42	28.58	15.03	-46.5	-60.0	3.6	3.02e+01	0	31	104	20447232	60	38607
2026-01-05 15:42:22.43	28.66	15.14	-36.1	-46.3	3.5	3.02e+01	0	31	104	20447232	48	15840
2026-01-05 15:42:23.44	28.74	15.25	-36.0	-46.3	3.5	3.02e+01	0	31	104	20447232	46	17819
2026-01-05 15:42:24.45	28.83	15.36	-35.4	-45.5	3.6	3.02e+01	0	31	104	20447232	46	16306
2026-01-05 15:42:25.46	28.91	15.48	-36.2	-46.4	3.5	3.02e+01	0	31	104	20447232	46	18059
2026-01-05 15:42:26.47	28.99	15.59	-39.2	-49.7	3.5	3.02e+01	0	31	104	20447232	54	16528
2026-01-05 15:42:27.48	29.08	15.70	-38.8	-49.3	3.8	3.02e+01	0	31	104	20447232	48	22281
2026-01-05 15:42:28.49	29.16	15.82	-47.5	-64.2	3.5	3.02e+01	0	31	104	20447232	60	62738
2026-01-05 15:42:29.50	29.25	15.93	-35.6	-45.8	3.5	3.02e+01	0	31	104	20447232	46	16803
2026-01-05 15:42:30.51	29.33	16.05	-45.5	-58.6	3.5	3.02e+01	0	31	104	20447232	60	32738
2026-01-05 15:42:31.52	29.42	16.17	-36.1	-46.4	3.5	3.02e+01	0	31	104	20447232	48	15982
2026-01-05 15:42:32.53	29.51	16.28	-36.0	-46.2	3.5	3.02e+01	0	31	104	20447232	48	15705
2026-01-05 15:42:33.54	29.60	16.40	-36.4	-46.6	3.5	3.02e+01	0	31	104	20447232	48	16506
2026-01-05 15:42:34.55	29.69	16.52	-38.7	-49.1	3.5	3.02e+01	0	31	104	20447232	48	21815
2026-01-05 15:42:35.56	29.78	16.64	-40.7	-51.4	3.5	3.02e+01	0	31	104	20447232	60	14252
2026-01-05 15:42:36.57	29.87	16.76	-40.6	-51.1	3.5	3.02e+01	0	31	104	20447232	48	27572
2026-01-05 15:42:37.57	29.96	16.88	-47.9	-65.0	3.6	3.02e+01	0	31	104	20447232	60	68581
2026-01-05 15:42:38.58	30.05	17.00	-37.1	-47.4	3.5	3.02e+01	0	31	104	20447232	48	17915
2026-01-05 15:42:39.59	30.14	17.12	-45.4	-57.6	3.6	3.02e+01	0	31	104	20447232	60	29341
2026-01-05 15:42:40.60	30.24	17.24	-39.6	-50.1	3.5	3.02e+01	0	31	104	20447232	54	17290
2026-01-05 15:42:41.61	30.33	17.36	-39.7	-50.2	3.5	3.02e+01	0	31	104	20447232	54	17508
2026-01-05 15:42:42.62	30.43	17.49	-40.5	-51.1	3.5	3.02e+01	0	31	104	20447232	54	19408
2026-01-05 15:42:43.63	30.52	17.61	-36.6	-46.8	3.5	3.02e+01	0	31	104	20447232	50	14988
2026-01-05 15:42:44.64	30.62	17.73	-35.3	-45.5	3.5	3.02e+01	0	31	104	20447232	46	16232
2026-01-05 15:42:45.65	30.72	17.86	-41.8	-52.5	3.5	3.02e+01	0	31	104	20447232	50	28862
2026-01-05 15:42:46.66	30.81	17.98	-42.3	-53.3	3.6	3.02e+01	0	31	104	20447232	60	17728
2026-01-05 15:42:47.67	30.91	18.11	-39.5	-50.0	3.5	3.02e+01	0	31	104	20447232	46	27206
2026-01-05 15:42:48.68	31.01	18.24	-38.9	-49.3	3.5	3.02e+01	0	31	104	20447232	58	12650
2026-01-05 15:42:49.69	31.11	18.36	-35.9	-46.1	3.5	3.02e+01	0	31	104	20447232	46	17313
2026-01-05 15:42:50.70	31.22	18.49	-35.6	-45.8	3.5	3.02e+01	0	31	104	20447232	46	16705
2026-01-05 15:42:51.71	31.32	18.62	-35.3	-45.4	3.5	3.02e+01	0	31	104	20447232	46	16077
2026-01-05 15:42:52.72	31.42	18.75	-38.8	-49.2	3.5	3.02e+01	0	31	104	20447232	48	22246
2026-01-05 15:42:53.72	31.53	18.88	-35.1	-45.3	3.5	3.02e+01	0	31	104	20447232	44	17781
2026-01-05 15:42:54.73	31.63	19.01	-47.6	-62.0	3.5	3.02e+01	0	31	104	20447232	60	48553
2026-01-05 15:42:55.74	31.74	19.14	-41.4	-52.1	3.5	3.02e+01	0	31	104	20447232	60	15585
2026-01-05 15:42:56.75	31.84	19.27	-40.9	-51.6	3.5	3.02e+01	0	31	104	20447232	48	29232
2026-01-05 15:42:57.76	31.95	19.40	-38.3	-48.6	3.5	3.02e+01	0	31	104	20447232	56	13103
2026-01-05 15:42:58.77	32.06	19.54	-35.6	-45.8	3.5	3.02e+01	0	31	104	20447232	46	16808
2026-01-05 15:42:59.78	32.17	19.67	-35.3	-45.5	3.5	3.02e+01	0	31	104	20447232	46	16153
2026-01-05 15:43:00.79	32.28	19.81	-35.2	-45.4	3.5	3.02e+01	0	31	104	20447232	46	16040
2026-01-05 15:43:01.80	32.39	19.94	-36.3	-46.6	3.5	3.02e+01	0	31	104	20447232	46	18370
2026-01-05 15:43:02.81	32.51	20.08	-37.5	-47.8	3.5	3.02e+01	0	31	104	20447232	48	18821
2026-01-05 15:43:03.82	32.62	20.22	-47.9	-65.0	3.5	3.02e+01	0	31	104	20447232	60	68380
2026-01-05 15:43:04.82	32.73	20.35	-42.6	-53.7	3.5	3.02e+01	0	31	104	20447232	60	18632
2026-01-05 15:43:05.83	32.85	20.49	-45.9	-58.4	3.5	3.02e+01	0	31	104	20447232	60	32023
2026-01-05 15:43:06.84	32.97	20.63	-40.7	-51.3	3.5	3.02e+01	0	31	104	20447232	58	15949
2026-01-05 15:43:07.85	33.09	20.77	-39.5	-49.9	3.5	3.02e+01	0	31	104	20447232	54	17006
2026-01-05 15:43:08.86	33.21	20.91	-38.8	-49.2	3.5	3.02e+01	0	31	104	20447232	52	17615
2026-01-05 15:43:09.87	33.33	21.05	-38.3	-48.6	3.5	3.02e+01	0	31	104	20447232	52	16468
2026-01-05 15:43:10.88	33.45	21.19	-35.5	-45.6	3.6	3.02e+01	0	31	104	20447232	46	16465
2026-01-05 15:43:11.89	33.57	21.34	-36.7	-47.0	3.5	3.02e+01	0	31	104	20447232	46	19377
2026-01-05 15:43:12.90	33.69	21.48	-48.2	-64.6	3.5	3.02e+01	0	31	104	20447232	60	65585
2026-01-05 15:43:13.91	33.82	21.62	-40.2	-50.9	3.6	3.02e+01	0	31	104	20447232	56	16967
2026-01-05 15:43:14.92	33.94	21.77	-46.7	-60.4	3.5	3.02e+01	0	31	104	20447232	60	40151
2026-01-05 15:43:15.93	34.07	21.92	-36.8	-47.0	3.5	3.02e+01	0	31	104	20447232	50	15393
2026-01-05 15:43:16.94	34.20	22.06	-35.6	-45.7	3.5	3.02e+01	0	31	104	20447232	46	16685
2026-01-05 15:43:17.95	34.33	22.21	-35.5	-45.6	3.6	3.02e+01	0	31	104	20447232	46	16486
2026-01-05 15:43:18.96	34.46	22.36	-35.3	-45.5	3.5	3.02e+01	0	31	104	20447232	46	16230
2026-01-05 15:43:19.96	34.59	22.51	-43.1	-54.2	3.6	3.02e+01	0	31	104	20447232	56	24984
2026-01-05 15:43:20.97	34.73	22.66	-37.7	-48.1	3.6	3.02e+01	0	31	104	20447232	50	17369
2026-01-05 15:43:21.98	34.86	22.81	-48.2	-64.2	3.5	3.02e+01	0	31	104	20447232	60	62196
2026-01-05 15:43:22.99	35.00	22.96	-40.3	-51.0	3.5	3.02e+01	0	31	104	20447232	54	19350
2026-01-05 15:43:24.00	35.14	23.11	-47.9	-63.0	3.5	3.02e+01	0	31	104	20447232	60	54101
2026-01-05 15:43:25.01	35.27	23.26	-36.5	-46.7	3.6	3.02e+01	0	31	104	20447232	48	16657
2026-01-05 15:43:26.02	35.42	23.42	-36.3	-46.5	3.5	3.02e+01	0	31	104	20447232	48	16208
2026-01-05 15:43:27.03	35.56	23.57	-36.2	-46.4	3.5	3.02e+01	0	31	104	20447232	48	16062
2026-01-05 15:43:28.03	35.70	23.73	-36.3	-46.6	3.6	3.02e+01	0	31	104	20447232	48	16438
2026-01-05 15:43:29.05	35.84	23.88	-44.6	-56.6	3.5	3.02e+01	0	31	104	20447232	60	26137
2026-01-05 15:43:30.06	35.99	24.04	-37.7	-48.1	3.5	3.02e+01	0	31	104	20447232	52	15449
2026-01-05 15:43:31.07	36.14	24.20	-48.1	-64.2	3.5	3.02e+01	0	31	104	20447232	60	62562
2026-01-05 15:43:32.08	36.29	24.36	-42.8	-54.0	3.5	3.02e+01	0	31	104	20447232	60	19291
2026-01-05 15:43:33.09	36.44	24.52	-47.9	-64.1	3.5	3.02e+01	0	31	104	20447232	60	62009
2026-01-05 15:43:34.09	36.59	24.68	-39.6	-50.1	3.5	3.02e+01	0	31	104	20447232	54	17310
2026-01-05 15:43:35.10	36.74	24.84	-39.2	-49.6	3.5	3.02e+01	0	31	104	20447232	54	16479
2026-01-05 15:43:36.11	36.90	25.00	-38.8	-49.2	3.5	3.02e+01	0	31	104	20447232	52	17611
2026-01-05 15:43:37.12	37.06	25.17	-37.5	-47.8	3.5	3.02e+01	0	31	104	20447232	50	16840
2026-01-05 15:43:38.13	37.21	25.33	-36.5	-46.8	3.5	3.02e+01	0	31	104	20447232	46	18756
2026-01-05 15:43:39.14	37.38	25.50	-37.1	-47.4	3.5	3.02e+01	0	31	104	20447232	48	18023
2026-01-05 15:43:40.14	37.54	25.66	-48.2	-64.3	3.5	3.02e+01	0	31	104	20447232	60	63332
2026-01-05 15:43:41.16	37.70	25.83	-40.7	-51.3	3.5	3.02e+01	0	31	104	20447232	56	17852
2026-01-05 15:43:42.17	37.87	26.00	-48.0	-63.3	3.5	3.02e+01	0	31	104	20447232	60	56300
2026-01-05 15:43:43.18	38.03	26.17	-36.1	-46.3	3.5	3.02e+01	0	31	104	20447232	48	15904
2026-01-05 15:43:44.18	38.20	26.34	-35.9	-46.2	3.6	3.02e+01	0	31	104	20447232	46	17497
2026-01-05 15:43:45.20	38.38	26.51	-35.8	-46.0	3.5	3.02e+01	0	31	104	20447232	46	17253
2026-01-05 15:43:46.20	38.55	26.68	-35.4	-45.6	3.5	3.02e+01	0	31	104	20447232	46	16392
2026-01-05 15:43:47.21	38.72	26.85	-40.5	-51.1	3.5	3.02e+01	0	31	104	20447232	56	17327
2026-01-05 15:43:48.23	38.90	27.03	-36.7	-46.9	3.5	3.02e+01	0	31	104	20447232	48	17018
2026-01-05 15:43:49.23	39.08	27.20	-48.2	-64.2	3.5	3.02e+01	0	31	104	20447232	60	62747
2026-01-05 15:43:50.25	39.26	27.38	-39.8	-50.4	3.5	3.02e+01	0	31	104	20447232	56	15965
2026-01-05 15:43:51.26	39.44	27.55	-47.8	-62.6	3.5	3.02e+01	0	31	104	20447232	60	51729
2026-01-05 15:43:52.27	39.63	27.73	-35.7	-46.0	3.6	3.02e+01	0	31	104	20447232	46	17097
2026-01-05 15:43:53.27	39.81	27.91	-36.2	-46.4	3.5	3.02e+01	0	31	104	20447232	46	18099
2026-01-05 15:43:54.28	40.00	28.09	-36.0	-46.2	3.5	3.02e+01	0	31	104	20447232	46	17513
2026-01-05 15:43:55.29	40.19	28.27	-36.1	-46.3	3.5	3.02e+01	0	31	104	20447232	46	17718
2026-01-05 15:43:56.30	40.39	28.45	-43.6	-55.2	3.5	3.02e+01	0	31	104	20447232	60	22082
2026-01-05 15:43:57.31	40.58	28.63	-36.3	-46.6	3.5	3.02e+01	0	31	104	20447232	48	16414
2026-01-05 15:43:58.32	40.78	28.81	-48.4	-64.3	3.5	3.02e+01	0	31	104	20447232	60	63198
2026-01-05 15:43:59.33	40.98	28.99	-39.7	-50.3	3.5	3.02e+01	0	31	104	20447232	56	15867
2026-01-05 15:44:00.34	41.18	29.18	-47.8	-63.2	3.5	3.02e+01	0	31	104	20447232	60	55661
2026-01-05 15:44:01.35	41.39	29.37	-38.9	-49.4	3.5	3.02e+01	0	31	104	20447232	54	15962
2026-01-05 15:44:02.36	41.60	29.55	-38.5	-48.9	3.5	3.02e+01	0	31	104	20447232	52	17009
2026-01-05 15:44:03.36	41.80	29.74	-37.1	-47.3	3.5	3.02e+01	0	31	104	20447232	50	15803
2026-01-05 15:44:04.37	42.02	29.93	-36.0	-46.2	3.5	3.02e+01	0	31	104	20447232	48	15659
2026-01-05 15:44:05.38	42.23	30.12	-36.3	-46.5	3.5	3.02e+01	0	31	104	20447232	48	16284
2026-01-05 15:44:06.39	42.45	30.31	-36.3	-46.6	3.5	3.02e+01	0	31	104	20447232	48	16372
2026-01-05 15:44:07.40	42.67	30.50	-48.2	-64.9	3.5	3.02e+01	0	31	104	20447232	60	67936
2026-01-05 15:44:08.41	42.89	30.69	-37.0	-47.3	3.6	3.02e+01	0	31	104	20447232	52	14094
2026-01-05 15:44:09.42	43.12	30.88	-47.1	-61.1	3.5	3.02e+01	0	31	104	20447232	60	43891
2026-01-05 15:44:10.43	43.34	31.08	-35.8	-46.0	3.5	3.02e+01	0	31	104	20447232	46	17275
2026-01-05 15:44:11.44	43.57	31.27	-36.0	-46.3	3.5	3.02e+01	0	31	104	20447232	46	17769
2026-01-05 15:44:12.45	43.81	31.47	-35.5	-45.7	3.6	3.02e+01	0	31	104	20447232	46	16612
2026-01-05 15:44:13.46	44.04	31.67	-36.1	-46.3	3.5	3.02e+01	0	31	104	20447232	46	17897
2026-01-05 15:44:14.47	44.28	31.86	-38.9	-49.4	3.5	3.02e+01	0	31	104	20447232	54	16084
2026-01-05 15:44:15.48	44.53	32.06	-38.5	-48.8	3.5	3.02e+01	0	31	104	20447232	48	21188
2026-01-05 15:44:16.49	44.77	32.26	-48.1	-64.6	3.5	3.02e+01	0	31	104	20447232	60	65683
2026-01-05 15:44:17.50	45.02	32.46	-35.6	-45.8	3.4	3.02e+01	0	31	104	20447232	48	15008
2026-01-05 15:44:18.51	45.27	32.66	-43.7	-55.3	3.5	3.02e+01	0	31	104	20447232	60	22446
2026-01-05 15:44:19.52	45.53	32.86	-36.3	-46.5	3.5	3.02e+01	0	31	104	20447232	48	16266
2026-01-05 15:44:20.52	45.78	33.07	-36.2	-46.4	3.5	3.02e+01	0	31	104	20447232	48	16096
2026-01-05 15:44:21.53	46.04	33.27	-36.0	-46.1	3.5	3.02e+01	0	31	104	20447232	46	17462
2026-01-05 15:44:22.54	46.31	33.47	-37.3	-47.6	3.5	3.02e+01	0	31	104	20447232	46	20661
2026-01-05 15:44:23.55	46.58	33.68	-40.1	-50.8	3.5	3.02e+01	0	31	104	20447232	56	16707
2026-01-05 15:44:24.56	46.85	33.89	-39.4	-49.9	3.5	3.02e+01	0	31	104	20447232	48	24084
2026-01-05 15:44:25.57	47.12	34.09	-48.2	-64.4	3.6	3.02e+01	0	31	104	20447232	60	63763
2026-01-05 15:44:26.58	47.40	34.30	-37.2	-47.5	3.5	3.02e+01	0	31	104	20447232	50	16173
2026-01-05 15:44:27.59	47.68	34.51	-45.4	-58.4	3.5	3.02e+01	0	31	104	20447232	60	32170
2026-01-05 15:44:28.60	47.97	34.72	-39.8	-50.4	3.5	3.02e+01	0	31	104	20447232	54	18067
2026-01-05 15:44:29.60	48.26	34.93	-39.7	-50.3	3.5	3.02e+01	0	31	104	20447232	54	17848
2026-01-05 15:44:30.61	48.55	35.14	-39.7	-50.5	3.5	3.02e+01	0	31	104	20447232	54	18286
2026-01-05 15:44:31.62	48.85	35.35	-44.1	-55.5	3.6	3.02e+01	0	31	104	20447232	58	25732
2026-01-05 15:44:32.63	49.15	35.56	-41.5	-52.3	3.4	3.02e+01	0	31	104	20447232	60	15807
2026-01-05 15:44:33.64	49.45	35.77	-45.3	-58.1	3.5	3.02e+01	0	31	104	20447232	56	38895
2026-01-05 15:44:34.65	49.76	35.99	-47.5	-63.2	3.6	3.02e+01	0	31	104	20447232	60	55867
2026-01-05 15:44:35.66	50.08	36.20	-37.9	-48.2	3.4	3.02e+01	0	31	104	20447232	50	17620
2026-01-05 15:44:36.66	50.39	36.41	-43.5	-54.8	3.6	3.02e+01	0	31	104	20447232	60	21064
2026-01-05 15:44:37.68	50.72	36.63	-40.2	-50.7	3.5	3.02e+01	0	31	104	20447232	56	16597
2026-01-05 15:44:38.69	51.04	36.85	-39.2	-49.8	3.5	3.02e+01	0	31	104	20447232	54	16713
2026-01-05 15:44:39.70	51.37	37.06	-39.1	-49.6	3.5	3.02e+01	0	31	104	20447232	52	18437
2026-01-05 15:44:40.70	51.71	37.28	-40.7	-51.2	3.5	3.02e+01	0	31	104	20447232	52	22073
2026-01-05 15:44:41.71	52.04	37.50	-40.0	-50.5	3.6	3.02e+01	0	31	104	20447232	56	16293
2026-01-05 15:44:42.72	52.39	37.71	-47.0	-61.0	3.5	3.02e+01	0	31	104	20447232	60	43366
2026-01-05 15:44:43.73	52.74	37.93	-42.0	-53.0	3.5	3.02e+01	0	31	104	20447232	60	17148
2026-01-05 15:44:44.74	53.09	38.15	-42.0	-52.8	3.5	3.02e+01	0	31	104	20447232	48	33563
2026-01-05 15:44:45.75	53.45	38.37	-39.7	-50.2	3.5	3.02e+01	0	31	104	20447232	60	12433
2026-01-05 15:44:46.76	53.81	38.59	-36.8	-47.0	3.5	3.02e+01	0	31	104	20447232	48	17102
2026-01-05 15:44:47.77	54.18	38.81	-37.1	-47.5	3.5	3.02e+01	0	31	104	20447232	48	18164
2026-01-05 15:44:48.78	54.55	39.02	-36.9	-47.2	3.5	3.02e+01	0	31	104	20447232	48	17524
2026-01-05 15:44:49.79	54.93	39.24	-42.9	-54.0	3.5	3.02e+01	0	31	104	20447232	54	27323
2026-01-05 15:44:50.80	55.32	39.46	-41.0	-51.8	3.6	3.02e+01	0	31	104	20447232	58	16708
2026-01-05 15:44:51.81	55.70	39.68	-48.7	-66.3	3.5	3.02e+01	0	31	104	20447232	60	79260
2026-01-05 15:44:52.82	56.10	39.90	-43.7	-55.1	3.5	3.02e+01	0	31	104	20447232	60	21843
2026-01-05 15:44:53.83	56.50	40.12	-45.9	-58.2	3.5	3.02e+01	0	31	104	20447232	58	35071
2026-01-05 15:44:54.84	56.90	40.34	-40.8	-51.4	3.5	3.02e+01	0	31	104	20447232	60	14306
2026-01-05 15:44:55.85	57.31	40.56	-39.0	-49.5	3.5	3.02e+01	0	31	104	20447232	54	16153
2026-01-05 15:44:56.85	57.73	40.78	-37.5	-47.8	3.5	3.02e+01	0	31	104	20447232	50	16757
2026-01-05 15:44:57.86	58.15	41.00	-36.5	-46.6	3.5	3.02e+01	0	31	104	20447232	48	16383
2026-01-05 15:44:58.87	58.58	41.22	-38.3	-48.8	3.5	3.02e+01	0	31	104	20447232	48	21034
2026-01-05 15:44:59.88	59.01	41.43	-36.8	-47.0	3.6	3.02e+01	0	31	104	20447232	48	17165
2026-01-05 15:45:00.89	59.45	41.65	-48.7	-65.7	3.5	3.02e+01	0	31	104	20447232	60	73981
2026-01-05 15:45:01.90	59.89	41.87	-43.0	-54.0	3.5	3.02e+01	0	31	104	20447232	60	19394
2026-01-05 15:45:02.91	60.35	42.09	-46.5	-59.5	3.5	3.02e+01	0	31	104	20447232	60	36174
2026-01-05 15:45:03.92	60.80	42.30	-39.2	-49.6	3.5	3.02e+01	0	31	104	20447232	56	14663
2026-01-05 15:45:04.93	61.27	42.52	-38.8	-49.1	3.5	3.02e+01	0	31	104	20447232	52	17450
2026-01-05 15:45:05.94	61.74	42.73	-38.2	-48.7	3.6	3.02e+01	0	31	104	20447232	50	18566
2026-01-05 15:45:06.95	62.21	42.95	-38.7	-48.9	3.6	3.02e+01	0	31	104	20447232	50	19167
2026-01-05 15:45:07.96	62.70	43.16	-39.4	-49.8	3.5	3.02e+01	0	31	104	20447232	52	18835
2026-01-05 15:45:08.97	63.19	43.37	-37.1	-47.4	3.5	3.02e+01	0	31	104	20447232	50	15973
2026-01-05 15:45:09.98	63.68	43.58	-48.3	-64.1	3.5	3.02e+01	0	31	104	20447232	60	61658
2026-01-05 15:45:10.99	64.19	43.79	-40.5	-51.1	3.5	3.02e+01	0	31	104	20447232	54	19416
2026-01-05 15:45:12.00	64.69	44.00	-47.8	-62.4	3.5	3.02e+01	0	31	104	20447232	60	50924
2026-01-05 15:45:13.00	65.21	44.21	-35.3	-45.5	3.5	3.02e+01	0	31	104	20447232	46	16199
2026-01-05 15:45:14.02	65.73	44.42	-34.5	-44.6	3.5	3.02e+01	0	31	104	20447232	44	16503
2026-01-05 15:45:15.02	66.26	44.62	-34.5	-44.6	3.5	3.02e+01	0	31	104	20447232	44	16353
2026-01-05 15:45:16.04	66.80	44.83	-34.4	-44.6	3.5	3.02e+01	0	31	104	20447232	44	16441
2026-01-05 15:45:17.04	67.34	45.03	-38.8	-49.1	3.5	3.02e+01	0	31	104	20447232	52	17480
2026-01-05 15:45:18.05	67.89	45.23	-37.3	-47.5	3.5	3.02e+01	0	31	104	20447232	50	16307
2026-01-05 15:45:19.06	68.45	45.42	-48.3	-63.9	3.5	3.02e+01	0	31	104	20447232	60	60329
2026-01-05 15:45:20.07	69.01	45.62	-41.9	-52.7	3.5	3.02e+01	0	31	104	20447232	56	20992
2026-01-05 15:45:21.08	69.58	45.81	-47.9	-62.7	3.5	3.02e+01	0	31	104	20447232	60	52750
2026-01-05 15:45:22.09	70.16	46.01	-38.6	-48.9	3.5	3.02e+01	0	31	104	20447232	52	17012
2026-01-05 15:45:23.10	70.75	46.20	-38.2	-48.5	3.5	3.02e+01	0	31	104	20447232	52	16207
2026-01-05 15:45:24.11	71.34	46.38	-38.5	-48.9	3.5	3.02e+01	0	31	104	20447232	52	16921
2026-01-05 15:45:25.12	71.94	46.57	-38.1	-48.5	3.5	3.02e+01	0	31	104	20447232	50	18266
2026-01-05 15:45:26.12	72.54	46.75	-45.9	-58.3	3.5	3.02e+01	0	31	104	20447232	60	31553
2026-01-05 15:45:27.13	73.16	46.93	-36.3	-46.5	3.4	3.02e+01	0	31	104	20447232	50	14432
2026-01-05 15:45:28.14	73.78	47.11	-48.3	-63.9	3.5	3.02e+01	0	31	104	20447232	60	60613
2026-01-05 15:45:29.15	74.41	47.28	-43.0	-54.0	3.5	3.02e+01	0	31	104	20447232	60	19244
2026-01-05 15:45:30.16	75.04	47.45	-48.0	-63.2	3.5	3.02e+01	0	31	104	20447232	60	55563
2026-01-05 15:45:31.17	75.68	47.62	-37.9	-48.3	3.6	3.02e+01	0	31	104	20447232	50	17818
2026-01-05 15:45:32.18	76.33	47.79	-37.7	-47.9	3.5	3.02e+01	0	31	104	20447232	50	16948
2026-01-05 15:45:33.19	76.99	47.95	-37.0	-47.4	3.5	3.02e+01	0	31	104	20447232	50	15953
2026-01-05 15:45:34.20	77.65	48.11	-35.7	-45.9	3.5	3.02e+01	0	31	104	20447232	46	16908
2026-01-05 15:45:35.21	78.32	48.26	-37.5	-47.7	3.5	3.02e+01	0	31	104	20447232	50	16580
2026-01-05 15:45:36.22	79.00	48.41	-36.8	-47.2	3.6	3.02e+01	0	31	104	20447232	50	15641
2026-01-05 15:45:37.23	79.68	48.56	-48.3	-63.9	3.5	3.02e+01	0	31	104	20447232	60	60442
2026-01-05 15:45:38.24	80.37	48.71	-41.7	-52.5	3.5	3.02e+01	0	31	104	20447232	58	18193
2026-01-05 15:45:39.25	81.07	48.85	-47.9	-63.4	3.5	3.02e+01	0	31	104	20447232	60	56610
2026-01-05 15:45:40.26	81.77	48.98	-35.3	-45.4	3.5	3.02e+01	0	31	104	20447232	46	16093
2026-01-05 15:45:41.27	82.48	49.11	-35.0	-45.1	3.5	3.02e+01	0	31	104	20447232	44	17377
2026-01-05 15:45:42.28	83.20	49.24	-34.9	-45.2	3.5	3.02e+01	0	31	104	20447232	44	17525
2026-01-05 15:45:43.28	83.91	49.37	-34.9	-44.9	3.5	3.02e+01	0	31	104	20447232	44	17080
2026-01-05 15:45:44.29	84.64	49.48	-46.4	-59.5	3.6	3.02e+01	0	31	104	20447232	60	36262
2026-01-05 15:45:45.30	85.37	49.60	-37.0	-47.2	3.6	3.02e+01	0	31	104	20447232	52	13917
2026-01-05 15:45:46.31	86.11	49.71	-48.4	-64.4	3.5	3.02e+01	0	31	104	20447232	60	64177
2026-01-05 15:45:47.32	86.85	49.82	-41.6	-52.2	3.5	3.02e+01	0	31	104	20447232	60	15695
2026-01-05 15:45:48.33	87.60	49.92	-48.6	-65.1	3.5	3.02e+01	0	31	104	20447232	60	69583
2026-01-05 15:45:49.34	88.35	50.01	-40.3	-50.9	3.5	3.02e+01	0	31	104	20447232	56	17031
2026-01-05 15:45:50.35	89.11	50.10	-40.1	-50.5	3.5	3.02e+01	0	31	104	20447232	56	16263
2026-01-05 15:45:51.36	89.87	50.19	-39.6	-50.1	3.5	3.02e+01	0	31	104	20447232	54	17339
2026-01-05 15:45:52.37	90.64	50.27	-39.7	-50.2	3.5	3.02e+01	0	31	104	20447232	54	17581
2026-01-05 15:45:53.38	91.41	50.34	-46.9	-60.4	3.5	3.02e+01	0	31	104	20447232	60	40178
2026-01-05 15:45:54.39	92.18	50.42	-47.2	-61.2	3.6	3.02e+01	0	31	104	20447232	60	44100
2026-01-05 15:45:55.40	92.96	50.48	-43.4	-54.7	3.5	3.02e+01	0	31	104	20447232	60	20876
2026-01-05 15:45:56.41	93.74	50.54	-36.5	-46.8	3.5	3.02e+01	0	31	104	20447232	48	16842
2026-01-05 15:45:57.42	94.53	50.59	-48.5	-65.2	3.5	3.02e+01	0	31	104	20447232	60	69660
2026-01-05 15:45:58.43	95.31	50.64	-36.5	-46.6	3.5	3.02e+01	0	31	104	20447232	48	16482
2026-01-05 15:45:59.43	96.10	50.69	-36.1	-46.4	3.5	3.02e+01	0	31	104	20447232	46	18019
2026-01-05 15:46:00.45	96.90	50.72	-35.5	-45.7	3.5	3.02e+01	0	31	104	20447232	46	16622
2026-01-05 15:46:01.46	97.69	50.76	-35.9	-46.2	3.5	3.02e+01	0	31	104	20447232	46	17598
2026-01-05 15:46:02.47	98.48	50.78	-47.2	-61.1	3.5	3.02e+01	0	31	104	20447232	60	43789
2026-01-05 15:46:03.48	99.28	50.80	-36.0	-46.3	3.5	3.02e+01	0	31	104	20447232	48	15829
2026-01-05 15:46:04.49	100.08	50.82	-47.9	-62.9	3.6	3.02e+01	0	31	104	20447232	60	53435
2026-01-05 15:46:05.50	100.87	50.83	-37.5	-47.8	3.5	3.02e+01	0	31	104	20447232	54	13325
2026-01-05 15:46:06.51	101.67	50.83	-45.6	-57.8	3.6	3.02e+01	0	31	104	20447232	60	30036
2026-01-05 15:46:07.52	102.47	50.83	-37.4	-47.6	3.5	3.02e+01	0	31	104	20447232	48	18484
2026-01-05 15:46:08.53	103.27	50.82	-36.1	-46.4	3.5	3.02e+01	0	31	104	20447232	48	16021
2026-01-05 15:46:09.54	104.07	50.81	-35.6	-45.7	3.5	3.02e+01	0	31	104	20447232	46	16701
2026-01-05 15:46:10.55	104.86	50.79	-36.5	-46.7	3.5	3.02e+01	0	31	104	20447232	46	18549
2026-01-05 15:46:11.56	105.66	50.77	-41.3	-52.0	3.5	3.02e+01	0	31	104	20447232	60	15407
2026-01-05 15:46:12.57	106.45	50.73	-36.6	-46.8	3.4	3.02e+01	0	31	104	20447232	48	16847
2026-01-05 15:46:13.58	107.25	50.70	-46.9	-60.4	3.5	3.02e+01	0	31	104	20447232	60	40241
2026-01-05 15:46:14.59	108.04	50.66	-37.1	-47.3	3.5	3.02e+01	0	31	104	20447232	52	14084
2026-01-05 15:46:15.60	108.82	50.61	-46.8	-60.2	3.5	3.02e+01	0	31	104	20447232	60	39261
2026-01-05 15:46:16.61	109.61	50.56	-39.0	-49.3	3.5	3.02e+01	0	31	104	20447232	54	15936
2026-01-05 15:46:17.62	110.39	50.50	-37.5	-47.8	3.5	3.02e+01	0	31	104	20447232	50	16887
2026-01-05 15:46:18.62	111.16	50.44	-37.6	-47.7	3.5	3.02e+01	0	31	104	20447232	50	16633
2026-01-05 15:46:19.63	111.94	50.37	-35.7	-45.8	3.5	3.02e+01	0	31	104	20447232	46	16896
2026-01-05 15:46:20.64	112.71	50.29	-38.1	-48.3	3.5	3.02e+01	0	31	104	20447232	46	22516
2026-01-05 15:46:21.65	113.48	50.22	-39.7	-50.1	3.5	3.02e+01	0	31	104	20447232	50	21868
2026-01-05 15:46:22.66	114.25	50.13	-43.6	-54.8	3.5	3.02e+01	0	31	104	20447232	60	21121
2026-01-05 15:46:23.67	115.01	50.04	-42.4	-53.1	3.5	3.02e+01	0	31	104	20447232	52	27706
2026-01-05 15:46:24.68	115.76	49.95	-43.9	-55.1	3.6	3.02e+01	0	31	104	20447232	60	22007
2026-01-05 15:46:25.69	116.51	49.85	-39.5	-50.2	3.5	3.02e+01	0	31	104	20447232	54	17565
2026-01-05 15:46:26.70	117.26	49.74	-38.6	-48.8	3.5	3.02e+01	0	31	104	20447232	52	16819
2026-01-05 15:46:27.71	118.00	49.63	-37.6	-47.8	3.5	3.02e+01	0	31	104	20447232	50	16845
2026-01-05 15:46:28.72	118.73	49.52	-44.8	-56.5	3.5	3.02e+01	0	31	104	20447232	54	36283
2026-01-05 15:46:29.72	119.46	49.40	-45.6	-57.9	3.5	3.02e+01	0	31	104	20447232	60	30196
2026-01-05 15:46:30.73	120.18	49.28	-41.3	-52.2	3.5	3.02e+01	0	31	104	20447232	48	31436
2026-01-05 15:46:31.74	120.90	49.16	-42.5	-53.5	3.5	3.02e+01	0	31	104	20447232	60	18199
2026-01-05 15:46:32.75	121.61	49.02	-40.6	-50.9	3.5	3.02e+01	0	31	104	20447232	48	26980
2026-01-05 15:46:33.76	122.32	48.89	-38.0	-48.3	3.5	3.02e+01	0	31	104	20447232	54	14098
2026-01-05 15:46:34.77	123.02	48.75	-36.7	-47.1	3.5	3.02e+01	0	31	104	20447232	48	17347
2026-01-05 15:46:35.78	123.71	48.61	-36.5	-46.9	3.5	3.02e+01	0	31	104	20447232	48	16925
2026-01-05 15:46:36.79	124.40	48.46	-36.5	-46.8	3.5	3.02e+01	0	31	104	20447232	48	16767
2026-01-05 15:46:37.80	125.08	48.31	-44.8	-56.2	3.6	3.02e+01	0	31	104	20447232	58	27952
2026-01-05 15:46:38.81	125.75	48.15	-42.6	-53.5	3.6	3.02e+01	0	31	104	20447232	60	18296
2026-01-05 15:46:39.82	126.42	48.00	-46.2	-58.9	3.5	3.02e+01	0	31	104	20447232	58	37959
2026-01-05 15:46:40.83	127.07	47.83	-43.1	-54.3	3.4	3.02e+01	0	31	104	20447232	60	19855
2026-01-05 15:46:41.84	127.73	47.67	-45.4	-49.0	14.3	3.02e+01	0	31	0	20447232	56	13705
2026-01-05 15:46:42.85	128.37	47.50	-39.9	-41.4	25.2	3.02e+01	0	31	0	22020096	56	5703
2026-01-05 15:46:43.86	129.01	47.33	-39.3	-40.9	25.3	3.02e+01	0	31	0	23592960	52	6734
2026-01-05 15:46:44.86	129.64	47.16	-37.9	-39.2	26.8	3.02e+01	0	31	0	25690112	52	5587
2026-01-05 15:46:45.87	130.26	46.98	-37.0	-38.3	27.4	3.02e+01	0	31	0	27262976	50	5640
2026-01-05 15:46:46.88	130.88	46.80	-37.1	-38.5	27.4	3.02e+01	0	31	0	29360128	50	5740
2026-01-05 15:46:47.89	131.49	46.62	-36.6	-37.9	27.9	3.02e+01	0	31	0	31457280	48	6001
2026-01-05 15:46:48.90	132.10	46.43	-37.0	-38.3	28.0	3.02e+01	0	31	0	33030144	48	6304
2026-01-05 15:46:49.91	132.69	46.25	-36.6	-37.9	27.9	3.02e+01	0	31	0	35127296	48	6055
2026-01-05 15:46:50.92	133.28	46.06	-36.6	-37.9	27.9	3.02e+01	0	31	0	37224448	48	6024
2026-01-05 15:46:51.93	133.86	45.87	-36.4	-37.6	28.2	3.02e+01	0	31	0	38797312	48	5843
2026-01-05 15:46:52.94	134.44	45.67	-36.2	-37.5	28.3	3.02e+01	0	31	0	40894464	48	5772
2026-01-05 15:46:53.95	135.01	45.47	-36.2	-37.4	28.5	3.02e+01	0	31	0	42467328	46	6422
2026-01-05 15:46:54.96	135.57	45.28	-35.8	-37.0	28.6	3.02e+01	0	31	0	44564480	46	6115
2026-01-05 15:46:55.97	136.12	45.08	-35.2	-36.4	29.3	3.02e+01	0	31	0	46661632	46	5713
2026-01-05 15:46:56.98	136.67	44.87	-35.6	-36.8	29.0	3.02e+01	0	31	0	48234496	46	5964
2026-01-05 15:46:57.99	137.21	44.67	-35.4	-36.6	29.2	3.02e+01	0	31	0	50331648	46	5835
2026-01-05 15:46:59.00	137.74	44.47	-35.2	-36.4	29.3	3.02e+01	0	31	0	51904512	46	5682
2026-01-05 15:47:00.01	138.27	44.26	-35.2	-36.4	29.3	3.02e+01	0	31	0	54001664	46	5691
2026-01-05 15:47:01.01	138.78	44.05	-35.4	-36.6	29.1	3.02e+01	0	31	0	56098816	46	5839
2026-01-05 15:47:02.02	139.29	43.84	-35.0	-36.2	29.6	3.02e+01	0	31	0	57671680	46	5535
2026-01-05 15:47:03.03	139.80	43.63	-35.0	-36.2	29.5	3.02e+01	0	31	0	59768832	44	6217
2026-01-05 15:47:04.04	140.30	43.42	-35.2	-36.5	29.2	3.02e+01	0	31	0	61341696	44	6434
2026-01-05 15:47:05.05	140.79	43.21	-35.1	-36.3	29.3	3.02e+01	0	31	0	63438848	44	6336
2026-01-05 15:47:06.06	141.28	43.00	-35.1	-36.3	29.4	3.02e+01	0	31	0	65536000	44	6311
2026-01-05 15:47:07.07	141.76	42.78	-35.5	-36.7	29.1	3.02e+01	0	31	0	67108864	44	6605
2026-01-05 15:47:08.08	142.23	42.57	-35.6	-36.8	28.9	3.02e+01	0	31	0	69206016	44	6699
2026-01-05 15:47:09.09	142.70	42.35	-35.3	-36.5	29.1	3.02e+01	0	31	0	70778880	44	6479
2026-01-05 15:47:10.10	143.16	42.13	-35.0	-36.2	29.5	3.02e+01	0	31	0	72876032	44	6244
2026-01-05 15:47:11.11	143.61	41.91	-35.4	-36.6	29.1	3.02e+01	0	31	0	74973184	44	6513
2026-01-05 15:47:12.12	144.06	41.70	-35.4	-36.7	29.0	3.02e+01	0	31	0	76546048	44	6588
2026-01-05 15:47:13.13	144.50	41.48	-35.3	-36.5	29.2	3.02e+01	0	31	0	78643200	44	6483
2026-01-05 15:47:14.13	144.94	41.26	-35.4	-36.7	29.0	3.02e+01	0	31	0	80740352	44	6581
2026-01-05 15:47:15.14	145.37	41.04	-35.6	-36.8	28.9	3.02e+01	0	31	0	82313216	44	6685
2026-01-05 15:47:16.15	145.79	40.82	-35.5	-36.7	28.9	3.02e+01	0	31	0	84410368	44	6629
2026-01-05 15:47:17.16	146.21	40.60	-35.5	-36.7	29.0	3.02e+01	0	31	0	85983232	44	6607
2026-01-05 15:47:18.16	146.62	40.38	-35.5	-36.7	29.0	3.02e+01	0	31	0	88080384	44	6620
2026-01-05 15:47:19.17	147.03	40.16	-35.4	-36.6	29.1	3.02e+01	0	31	0	90177536	44	6520
2026-01-05 15:47:20.18	147.43	39.94	-35.4	-36.6	29.1	3.02e+01	0	31	0	91750400	44	6539
2026-01-05 15:47:21.19	147.82	39.72	-35.5	-36.7	29.1	3.02e+01	0	31	0	93847552	44	6603
2026-01-05 15:47:22.19	148.21	39.50	-35.6	-36.8	28.9	3.02e+01	0	31	0	95420416	44	6722
2026-01-05 15:47:23.20	148.60	39.28	-35.6	-36.8	28.9	3.02e+01	0	31	0	97517568	44	6717
2026-01-05 15:47:24.21	148.98	39.06	-35.7	-37.0	28.9	3.02e+01	0	31	0	99614720	44	6833
2026-01-05 15:47:25.22	149.35	38.84	-35.5	-36.7	29.1	3.02e+01	0	31	0	101187584	44	6580
2026-01-05 15:47:26.23	149.73	38.62	-35.4	-36.6	29.1	3.02e+01	0	31	0	103284736	44	6559
2026-01-05 15:47:27.24	150.09	38.40	-35.2	-36.4	29.3	3.02e+01	0	31	0	104857600	44	6404
2026-01-05 15:47:28.25	150.45	38.18	-35.3	-36.5	29.3	3.02e+01	0	31	0	106954752	44	6450
2026-01-05 15:47:29.26	150.81	37.96	-35.2	-36.4	29.3	3.02e+01	0	31	0	109051904	44	6378
2026-01-05 15:47:30.27	151.16	37.74	-34.9	-36.1	29.6	3.02e+01	0	31	0	110624768	44	6136
2026-01-05 15:47:31.28	151.50	37.52	-35.1	-36.3	29.4	3.02e+01	0	31	0	112721920	44	6288
2026-01-05 15:47:32.29	151.85	37.31	-35.1	-36.4	29.3	3.02e+01	0	31	0	114294784	44	6363
2026-01-05 15:47:33.30	152.18	37.09	-35.2	-36.4	29.3	3.02e+01	0	31	0	116391936	44	6384
2026-01-05 15:47:34.31	152.52	36.87	-35.3	-36.5	29.2	3.02e+01	0	31	0	118489088	44	6450
2026-01-05 15:47:35.32	152.84	36.65	-34.7	-35.9	29.7	3.02e+01	0	31	0	120061952	44	6038
2026-01-05 15:47:36.33	153.17	36.44	-34.7	-35.9	29.8	3.02e+01	0	31	0	122159104	44	6012
2026-01-05 15:47:37.34	153.49	36.22	-34.7	-35.8	29.7	3.02e+01	0	31	0	123731968	44	5994
2026-01-05 15:47:38.35	153.80	36.01	-34.5	-35.7	29.9	3.02e+01	0	31	0	125829120	44	5875
2026-01-05 15:47:39.36	154.11	35.79	-34.3	-35.5	30.1	3.02e+01	0	31	0	127926272	44	5736
2026-01-05 15:47:40.37	154.42	35.58	-34.5	-35.7	29.9	3.02e+01	0	31	0	129499136	44	5886
2026-01-05 15:47:41.38	154.72	35.36	-34.4	-35.6	30.0	3.02e+01	0	31	0	131596288	44	5795
2026-01-05 15:47:42.39	155.02	35.15	-34.3	-35.5	30.0	3.02e+01	0	31	0	133693440	44	5763
2026-01-05 15:47:43.39	155.32	34.94	-34.4	-35.6	30.1	3.02e+01	0	31	0	135266304	44	5795
2026-01-05 15:47:44.40	155.61	34.73	-34.0	-35.2	30.2	3.02e+01	0	31	0	137363456	44	5537
2026-01-05 15:47:45.41	155.89	34.52	-34.0	-35.2	30.2	3.02e+01	0	31	0	138936320	44	5543
2026-01-05 15:47:46.42	156.18	34.31	-33.9	-35.1	30.3	3.02e+01	0	31	0	141033472	42	6171
2026-01-05 15:47:47.43	156.46	34.10	-33.9	-35.1	30.3	3.02e+01	0	31	0	143130624	42	6155
2026-01-05 15:47:48.44	156.74	33.89	-33.9	-35.0	30.3	3.02e+01	0	31	0	144703488	42	6128
2026-01-05 15:47:49.45	157.01	33.68	-33.8	-35.0	30.3	3.02e+01	0	31	0	146800640	42	6071
2026-01-05 15:47:50.46	157.28	33.48	-33.7	-34.9	30.4	3.02e+01	0	31	0	148373504	42	6005
2026-01-05 15:47:51.47	157.54	33.27	-33.6	-34.7	30.5	3.02e+01	0	31	0	150470656	42	5896
2026-01-05 15:47:52.48	157.81	33.07	-33.4	-34.5	30.7	3.02e+01	0	31	0	152567808	42	5760
2026-01-05 15:47:53.49	158.07	32.86	-33.2	-34.3	30.8	3.02e+01	0	31	0	154140672	42	5655
2026-01-05 15:47:54.50	158.32	32.66	-33.2	-34.4	30.7	3.02e+01	0	31	0	156237824	42	5665
2026-01-05 15:47:55.51	158.58	32.46	-33.2	-34.3	30.8	3.02e+01	0	31	0	157810688	42	5652
2026-01-05 15:47:56.52	158.83	32.26	-33.3	-34.5	30.6	3.02e+01	0	31	0	159907840	42	5730
2026-01-05 15:47:57.53	159.07	32.05	-33.4	-34.6	30.6	3.02e+01	0	31	0	162004992	42	5820
2026-01-05 15:47:58.54	159.32	31.85	-33.5	-34.6	30.6	3.02e+01	0	31	0	163577856	42	5846
2026-01-05 15:47:59.54	159.55	31.66	-33.4	-34.6	30.6	3.02e+01	0	31	0	165675008	42	5826
2026-01-05 15:48:00.55	159.79	31.46	-33.5	-34.7	30.6	3.02e+01	0	31	0	167247872	42	5860
2026-01-05 15:48:01.56	160.03	31.26	-33.5	-34.6	30.7	3.02e+01	0	31	0	169345024	42	5839
2026-01-05 15:48:02.57	160.26	31.07	-33.3	-34.5	30.6	3.02e+01	0	31	0	171442176	42	5757
2026-01-05 15:48:03.58	160.49	30.87	-33.5	-34.6	30.6	3.02e+01	0	31	0	173015040	42	5834
2026-01-05 15:48:04.59	160.71	30.68	-33.4	-34.6	30.6	3.02e+01	0	31	0	175112192	42	5815
2026-01-05 15:48:05.60	160.94	30.48	-33.5	-34.6	30.6	3.02e+01	0	31	0	177209344	42	5845
2026-01-05 15:48:06.61	161.16	30.29	-33.5	-34.7	30.6	3.02e+01	0	31	0	178782208	42	5859
2026-01-05 15:48:07.62	161.38	30.10	-33.3	-34.5	30.7	3.02e+01	0	31	0	180879360	42	5751
2026-01-05 15:48:08.63	161.59	29.91	-33.3	-34.5	30.7	3.02e+01	0	31	0	182452224	42	5737
2026-01-05 15:48:09.64	161.81	29.72	-33.4	-34.6	30.7	3.02e+01	0	31	0	184549376	42	5804
2026-01-05 15:48:10.65	162.02	29.53	-33.5	-34.6	30.6	3.02e+01	0	31	0	186646528	42	5845
2026-01-05 15:48:11.66	162.23	29.34	-33.5	-34.7	30.6	3.02e+01	0	31	0	188219392	42	5876
2026-01-05 15:48:12.67	162.43	29.15	-33.5	-34.7	30.6	3.02e+01	0	31	0	190316544	42	5877
2026-01-05 15:48:13.68	162.64	28.97	-33.6	-34.8	30.5	3.02e+01	0	31	0	191889408	42	5948
2026-01-05 15:48:14.69	162.84	28.78	-33.7	-34.9	30.4	3.02e+01	0	31	0	193986560	42	6007
2026-01-05 15:48:15.69	163.03	28.60	-33.6	-34.7	30.6	3.02e+01	0	31	0	196083712	42	5909
2026-01-05 15:48:16.70	163.23	28.42	-33.6	-34.7	30.5	3.02e+01	0	31	0	197656576	42	5886
2026-01-05 15:48:17.71	163.42	28.24	-33.7	-34.9	30.4	3.02e+01	0	31	0	199753728	42	5998
2026-01-05 15:48:18.72	163.62	28.06	-33.7	-34.9	30.4	3.02e+01	0	31	0	201850880	42	6004
2026-01-05 15:48:19.73	163.81	27.87	-33.8	-34.9	30.3	3.02e+01	0	31	0	203423744	42	6058
2026-01-05 15:48:20.74	163.99	27.70	-33.9	-35.0	30.3	3.02e+01	0	31	0	205520896	42	6108
2026-01-05 15:48:21.75	164.18	27.52	-33.8	-34.9	30.3	3.02e+01	0	31	0	207093760	42	6062
2026-01-05 15:48:22.76	164.36	27.34	-33.8	-35.0	30.3	3.02e+01	0	31	0	209190912	42	6069
2026-01-05 15:48:23.77	164.54	27.16	-34.1	-35.2	30.1	3.02e+01	0	31	0	211288064	42	6262
2026-01-05 15:48:24.78	164.72	26.99	-34.0	-35.2	30.2	3.02e+01	0	31	0	212860928	42	6228
2026-01-05 15:48:25.79	164.90	26.81	-34.2	-35.3	30.1	3.02e+01	0	31	0	214958080	42	6341
2026-01-05 15:48:26.80	165.08	26.64	-34.2	-35.4	29.9	3.02e+01	0	31	0	216530944	42	6413
2026-01-05 15:48:27.81	165.25	26.47	-34.2	-35.4	30.1	3.02e+01	0	31	0	218628096	42	6368
2026-01-05 15:48:28.81	165.42	26.30	-34.2	-35.3	30.0	3.02e+01	0	31	0	220725248	42	6350
2026-01-05 15:48:29.82	165.59	26.13	-34.4	-35.6	29.8	3.02e+01	0	31	0	222298112	42	6500
2026-01-05 15:48:30.83	165.76	25.96	-34.3	-35.5	29.9	3.02e+01	0	31	0	224395264	42	6440
2026-01-05 15:48:31.84	165.92	25.79	-34.2	-35.3	30.0	3.02e+01	0	31	0	225968128	42	6349
2026-01-05 15:48:32.85	166.09	25.62	-34.2	-35.4	29.9	3.02e+01	0	31	0	228065280	42	6379
2026-01-05 15:48:33.86	166.25	25.45	-34.3	-35.4	29.9	3.02e+01	0	31	0	230162432	42	6410
2026-01-05 15:48:34.87	166.41	25.28	-34.2	-35.4	30.0	3.02e+01	0	31	0	231735296	42	6353
2026-01-05 15:48:35.88	166.57	25.12	-34.2	-35.4	29.9	3.02e+01	0	31	0	233832448	42	6379
2026-01-05 15:48:36.89	166.73	24.95	-34.3	-35.4	29.9	3.02e+01	0	31	0	235405312	42	6409
2026-01-05 15:48:37.90	166.89	24.79	-34.4	-35.6	29.9	3.02e+01	0	31	0	237502464	42	6517
2026-01-05 15:48:38.91	167.04	24.63	-34.5	-35.7	29.8	3.02e+01	0	31	0	239599616	42	6598
2026-01-05 15:48:39.92	167.19	24.47	-34.5	-35.7	29.7	3.02e+01	0	31	0	241172480	42	6615
2026-01-05 15:48:40.92	167.34	24.31	-34.5	-35.7	29.7	3.02e+01	0	31	0	243269632	42	6598
2026-01-05 15:48:41.94	167.49	24.14	-34.5	-35.7	29.8	3.02e+01	0	31	0	244842496	42	6579
2026-01-05 15:48:42.94	167.64	23.99	-34.5	-35.6	29.8	3.02e+01	0	31	0	246939648	42	6573
2026-01-05 15:48:43.95	167.79	23.83	-34.5	-35.7	29.8	3.02e+01	0	31	0	249036800	42	6595
2026-01-05 15:48:44.96	167.93	23.67	-34.7	-35.9	29.6	3.02e+01	0	31	0	250609664	42	6749
2026-01-05 15:48:45.98	168.08	23.51	-34.7	-35.9	29.5	3.02e+01	0	31	0	252706816	42	6764
2026-01-05 15:48:46.98	168.22	23.36	-34.5	-35.7	29.7	3.02e+01	0	31	0	254803968	42	6608
2026-01-05 15:48:47.99	168.36	23.20	-34.3	-35.5	29.9	3.02e+01	0	31	0	256376832	42	6440
2026-01-05 15:48:49.00	168.50	23.05	-34.6	-35.8	29.7	3.02e+01	0	31	0	258473984	42	6650
2026-01-05 15:48:50.01	168.64	22.90	-34.2	-35.4	29.9	3.02e+01	0	31	0	260046848	42	6388
2026-01-05 15:48:51.02	168.77	22.74	-34.4	-35.6	29.8	3.02e+01	0	31	0	262144000	42	6506
2026-01-05 15:48:52.02	168.91	22.59	-34.3	-35.5	29.8	3.02e+01	0	31	0	264241152	42	6481
2026-01-05 15:48:53.03	169.04	22.44	-34.4	-35.6	29.8	3.02e+01	0	31	0	265814016	42	6538
2026-01-05 15:48:54.04	169.17	22.29	-34.5	-35.7	29.8	3.02e+01	0	31	0	267911168	42	6598
2026-01-05 15:48:55.05	169.30	22.14	-34.4	-35.6	29.8	3.02e+01	0	31	0	269484032	42	6519
2026-01-05 15:48:56.06	169.43	21.99	-34.5	-35.6	29.7	3.02e+01	0	31	0	271581184	42	6571
2026-01-05 15:48:57.07	169.56	21.85	-34.5	-35.7	29.7	3.02e+01	0	31	0	273678336	42	6618
2026-01-05 15:48:58.08	169.69	21.70	-34.4	-35.6	29.7	3.02e+01	0	31	0	275251200	42	6543
2026-01-05 15:48:59.09	169.82	21.55	-34.5	-35.7	29.7	3.02e+01	0	31	0	277348352	42	6625
2026-01-05 15:49:00.10	169.94	21.41	-34.3	-35.5	29.9	3.02e+01	0	31	0	278921216	42	6464
2026-01-05 15:49:01.11	170.07	21.26	-34.5	-35.7	29.8	3.02e+01	0	31	0	281018368	42	6581
2026-01-05 15:49:02.12	170.19	21.12	-34.3	-35.5	29.9	3.02e+01	0	31	0	283115520	42	6424
2026-01-05 15:49:03.13	170.31	20.98	-34.3	-35.5	29.9	3.02e+01	0	31	0	284688384	42	6478
2026-01-05 15:49:04.14	170.43	20.84	-34.2	-35.4	30.0	3.02e+01	0	31	0	286785536	42	6397
2026-01-05 15:49:05.15	170.55	20.69	-34.4	-35.5	29.8	3.02e+01	0	31	0	288358400	42	6488
2026-01-05 15:49:06.15	170.67	20.55	-34.4	-35.6	29.8	3.02e+01	0	31	0	290455552	42	6556
2026-01-05 15:49:07.17	170.79	20.41	-34.4	-35.6	29.8	3.02e+01	0	31	0	292552704	42	6514
2026-01-05 15:49:08.18	170.90	20.27	-34.4	-35.6	29.8	3.02e+01	0	31	0	294125568	42	6531
2026-01-05 15:49:09.19	171.02	20.14	-34.2	-35.4	29.9	3.02e+01	0	31	0	296222720	42	6370
2026-01-05 15:49:10.20	171.13	20.00	-34.3	-35.4	29.9	3.02e+01	0	31	0	298319872	42	6407
2026-01-05 15:49:11.20	171.24	19.86	-34.2	-35.4	29.9	3.02e+01	0	31	0	299892736	42	6363
2026-01-05 15:49:12.21	171.36	19.73	-34.2	-35.4	29.9	3.02e+01	0	31	0	301989888	42	6381
2026-01-05 15:49:13.22	171.47	19.59	-34.2	-35.4	29.9	3.02e+01	0	31	0	303562752	42	6388
2026-01-05 15:49:14.23	171.58	19.46	-34.1	-35.2	30.1	3.02e+01	0	31	0	305659904	42	6270
2026-01-05 15:49:15.24	171.69	19.32	-34.2	-35.3	30.0	3.02e+01	0	31	0	307757056	42	6347
2026-01-05 15:49:16.25	171.79	19.19	-34.0	-35.2	30.1	3.02e+01	0	31	0	309329920	42	6237
2026-01-05 15:49:17.26	171.90	19.06	-34.1	-35.3	30.1	3.02e+01	0	31	0	311427072	42	6289
2026-01-05 15:49:18.27	172.01	18.92	-34.1	-35.3	30.1	3.02e+01	0	31	0	312999936	42	6295
2026-01-05 15:49:19.28	172.11	18.79	-34.1	-35.2	30.0	3.02e+01	0	31	0	315097088	42	6265
2026-01-05 15:49:20.29	172.22	18.66	-34.2	-35.4	30.0	3.02e+01	0	31	0	317194240	42	6354
2026-01-05 15:49:21.30	172.32	18.53	-34.1	-35.3	30.0	3.02e+01	0	31	0	318767104	42	6327
2026-01-05 15:49:22.31	172.42	18.40	-34.2	-35.3	30.0	3.02e+01	0	31	0	320864256	42	6346
2026-01-05 15:49:23.32	172.52	18.27	-34.2	-35.3	30.0	3.02e+01	0	31	0	322961408	42	6348
2026-01-05 15:49:24.33	172.62	18.15	-34.2	-35.4	29.9	3.02e+01	0	31	0	324534272	42	6360
2026-01-05 15:49:25.34	172.72	18.02	-34.2	-35.4	29.9	3.02e+01	0	31	0	326631424	42	6408
2026-01-05 15:49:26.34	172.82	17.89	-34.2	-35.4	29.9	3.02e+01	0	31	0	328204288	42	6404
2026-01-05 15:49:27.35	172.92	17.77	-34.3	-35.5	29.8	3.02e+01	0	31	0	330301440	42	6437
2026-01-05 15:49:28.36	173.02	17.64	-34.3	-35.5	29.8	3.02e+01	0	31	0	332398592	42	6443
2026-01-05 15:49:29.37	173.11	17.52	-34.4	-35.6	29.8	3.02e+01	0	31	0	333971456	42	6511
2026-01-05 15:49:30.38	173.21	17.39	-34.4	-35.6	29.7	3.02e+01	0	31	0	336068608	42	6541
2026-01-05 15:49:31.39	173.31	17.27	-34.5	-35.8	29.6	3.02e+01	0	31	0	337641472	42	6651
2026-01-05 15:49:32.40	173.40	17.14	-34.4	-35.6	29.7	3.02e+01	0	31	0	339738624	42	6536
2026-01-05 15:49:33.40	173.49	17.02	-34.6	-35.8	29.5	3.02e+01	0	31	0	341311488	42	6686
2026-01-05 15:49:34.41	173.59	16.90	-34.5	-35.7	29.6	3.02e+01	0	31	0	343408640	42	6616
2026-01-05 15:49:35.42	173.68	16.78	-34.2	-35.4	29.9	3.02e+01	0	31	0	345505792	42	6407
2026-01-05 15:49:36.43	173.77	16.66	-34.3	-35.5	29.8	3.02e+01	0	31	0	347078656	42	6456
2026-01-05 15:49:37.44	173.86	16.54	-34.2	-35.4	29.9	3.02e+01	0	31	0	349175808	42	6388
2026-01-05 15:49:38.45	173.95	16.42	-34.4	-35.6	29.6	3.02e+01	0	31	0	351272960	42	6549
2026-01-05 15:49:39.46	174.04	16.30	-34.1	-35.3	30.0	3.02e+01	0	31	0	352845824	42	6319
2026-01-05 15:49:40.47	174.13	16.18	-34.2	-35.4	29.8	3.02e+01	0	31	0	354942976	42	6401
2026-01-05 15:49:41.48	174.21	16.07	-34.1	-35.2	30.0	3.02e+01	0	31	0	356515840	42	6272
2026-01-05 15:49:42.48	174.30	15.95	-34.1	-35.3	29.9	3.02e+01	0	31	0	358612992	42	6327
2026-01-05 15:49:43.49	174.39	15.83	-34.1	-35.3	30.0	3.02e+01	0	31	0	360710144	42	6319
2026-01-05 15:49:44.50	174.47	15.72	-34.2	-35.3	29.9	3.02e+01	0	31	0	362283008	42	6340
2026-01-05 15:49:45.51	174.56	15.60	-34.2	-35.4	29.9	3.02e+01	0	31	0	364380160	42	6364
2026-01-05 15:49:46.52	174.64	15.49	-34.1	-35.3	29.9	3.02e+01	0	31	0	366477312	42	6305
2026-01-05 15:49:47.53	174.72	15.37	-34.2	-35.4	29.8	3.02e+01	0	31	0	368050176	42	6364
2026-01-05 15:49:48.54	174.81	15.26	-34.3	-35.5	29.8	3.02e+01	0	31	0	370147328	42	6447
2026-01-05 15:49:49.55	174.89	15.15	-34.2	-35.4	29.8	3.02e+01	0	31	0	371720192	42	6406
2026-01-05 15:49:50.56	174.97	15.03	-34.3	-35.5	29.7	3.02e+01	0	31	0	373817344	42	6456
2026-01-05 15:49:51.57	175.05	14.92	-34.3	-35.5	29.7	3.02e+01	0	31	0	375914496	42	6467
2026-01-05 15:49:52.58	175.13	14.81	-34.3	-35.5	29.8	3.02e+01	0	31	0	377487360	42	6427
2026-01-05 15:49:53.59	175.21	14.70	-34.2	-35.4	29.8	3.02e+01	0	31	0	379584512	42	6363
2026-01-05 15:49:54.60	175.29	14.59	-34.3	-35.5	29.7	3.02e+01	0	31	0	381157376	42	6465
2026-01-05 15:49:55.61	175.37	14.48	-34.4	-35.5	29.7	3.02e+01	0	31	0	383254528	42	6487
2026-01-05 15:49:56.62	175.45	14.37	-34.3	-35.5	29.7	3.02e+01	0	31	0	385351680	42	6466
2026-01-05 15:49:57.63	175.53	14.26	-34.4	-35.6	29.6	3.02e+01	0	31	0	386924544	42	6557
2026-01-05 15:49:58.64	175.60	14.15	-34.3	-35.5	29.7	3.02e+01	0	31	0	389021696	42	6447
2026-01-05 15:49:59.64	175.68	14.04	-34.4	-35.6	29.6	3.02e+01	0	31	0	390594560	42	6538
2026-01-05 15:50:00.65	175.75	13.93	-34.6	-35.7	29.4	3.02e+01	0	31	0	392691712	42	6649
2026-01-05 15:50:01.66	175.83	13.83	-34.3	-35.5	29.6	3.02e+01	0	31	0	394788864	42	6484
2026-01-05 15:50:02.67	175.90	13.72	-34.6	-35.8	29.5	3.02e+01	0	31	0	396361728	42	6674
2026-01-05 15:50:03.68	175.98	13.61	-34.3	-35.5	29.7	3.02e+01	0	31	0	398458880	42	6464
2026-01-05 15:50:04.69	176.05	13.51	-34.5	-35.7	29.6	3.02e+01	0	31	0	400031744	42	6581
2026-01-05 15:50:05.70	176.12	13.40	-34.3	-35.5	29.7	3.02e+01	0	31	0	402128896	42	6476
2026-01-05 15:50:06.71	176.20	13.30	-34.4	-35.5	29.6	3.02e+01	0	31	0	404226048	42	6494
2026-01-05 15:50:07.71	176.27	13.20	-34.4	-35.6	29.7	3.02e+01	0	31	0	405798912	42	6506
2026-01-05 15:50:08.72	176.34	13.09	-34.4	-35.6	29.6	3.02e+01	0	31	0	407896064	42	6552
2026-01-05 15:50:09.73	176.41	12.99	-34.4	-35.6	29.6	3.02e+01	0	31	0	409468928	42	6502
2026-01-05 15:50:10.74	176.48	12.88	-34.4	-35.6	29.6	3.02e+01	0	31	0	411566080	42	6572
2026-01-05 15:50:11.75	176.55	12.78	-34.5	-35.7	29.5	3.02e+01	0	31	0	413663232	42	6596
2026-01-05 15:50:12.76	176.62	12.68	-34.4	-35.6	29.5	3.02e+01	0	31	0	415236096	42	6557
2026-01-05 15:50:13.77	176.69	12.58	-34.5	-35.7	29.5	3.02e+01	0	31	0	417333248	42	6600
2026-01-05 15:50:14.78	176.76	12.48	-34.4	-35.7	29.6	3.02e+01	0	31	0	419430400	42	6580
2026-01-05 15:50:15.79	176.83	12.38	-34.4	-35.6	29.6	3.02e+01	0	31	0	421003264	42	6563
2026-01-05 15:50:16.80	176.89	12.28	-34.5	-35.7	29.5	3.02e+01	0	31	0	423100416	42	6614
2026-01-05 15:50:17.81	176.96	12.18	-34.5	-35.8	29.5	3.02e+01	0	31	0	424673280	42	6653
2026-01-05 15:50:18.82	177.03	12.08	-34.6	-35.9	29.5	3.02e+01	0	31	0	426770432	42	6734
2026-01-05 15:50:19.83	177.09	11.98	-34.6	-35.9	29.4	3.02e+01	0	31	0	428867584	42	6748
2026-01-05 15:50:20.83	177.16	11.88	-34.7	-35.9	29.4	3.02e+01	0	31	0	430440448	42	6778
2026-01-05 15:50:21.85	177.22	11.78	-34.7	-35.9	29.3	3.02e+01	0	31	0	432537600	42	6757
2026-01-05 15:50:22.86	177.29	11.68	-34.9	-36.1	29.1	3.02e+01	0	31	0	434110464	42	6957
2026-01-05 15:50:23.87	177.35	11.59	-34.7	-35.9	29.3	3.02e+01	0	31	0	436207616	42	6758
2026-01-05 15:50:24.87	177.42	11.49	-34.7	-35.9	29.3	3.02e+01	0	31	0	438304768	42	6786
2026-01-05 15:50:25.89	177.48	11.39	-34.7	-35.9	29.2	3.02e+01	0	31	0	439877632	42	6778
2026-01-05 15:50:26.89	177.54	11.30	-34.8	-36.1	29.2	3.02e+01	0	31	0	441974784	42	6903
2026-01-05 15:50:27.90	177.61	11.20	-34.9	-36.1	29.1	3.02e+01	0	31	0	443547648	42	6946
2026-01-05 15:50:28.91	177.67	11.10	-34.9	-36.2	29.0	3.02e+01	0	31	0	445644800	42	6975
2026-01-05 15:50:29.92	177.73	11.01	-34.7	-35.9	29.2	3.02e+01	0	31	0	447741952	44	6055
2026-01-05 15:50:30.93	177.79	10.91	-34.8	-36.0	29.1	3.02e+01	0	31	0	449314816	44	6131
2026-01-05 15:50:31.94	177.85	10.82	-34.8	-36.1	29.1	3.02e+01	0	31	0	451411968	44	6161
2026-01-05 15:50:32.95	177.91	10.73	-34.7	-36.0	29.2	3.02e+01	0	31	0	452984832	44	6075
2026-01-05 15:50:33.96	177.97	10.63	-34.9	-36.1	29.0	3.02e+01	0	31	0	455081984	44	6190
2026-01-05 15:50:34.97	178.03	10.54	-34.9	-36.1	29.1	3.02e+01	0	31	0	457179136	44	6157
2026-01-05 15:50:35.98	178.09	10.45	-34.9	-36.1	29.0	3.02e+01	0	31	0	458752000	44	6203
2026-01-05 15:50:36.99	178.15	10.35	-34.8	-36.1	29.1	3.02e+01	0	31	0	460849152	44	6138
2026-01-05 15:50:37.99	178.21	10.26	-35.0	-36.2	29.0	3.02e+01	0	31	0	462946304	44	6238
2026-01-05 15:50:39.00	178.27	10.17	-35.0	-36.2	29.0	3.02e+01	0	31	0	464519168	44	6252
2026-01-05 15:50:40.01	178.33	10.08	-34.9	-36.2	29.0	3.02e+01	0	31	0	466616320	44	6214
2026-01-05 15:50:41.02	178.39	9.99	-35.0	-36.2	28.9	3.02e+01	0	31	0	468189184	44	6225
2026-01-05 15:50:42.03	178.44	9.90	-35.0	-36.2	28.9	3.02e+01	0	31	0	470286336	44	6276
2026-01-05 15:50:43.04	178.50	9.81	-35.1	-36.3	28.8	3.02e+01	0	31	0	472383488	44	6335
2026-01-05 15:50:44.05	178.56	9.72	-35.0	-36.2	28.9	3.02e+01	0	31	0	473956352	44	6256
2026-01-05 15:50:45.06	178.61	9.63	-35.1	-36.3	28.8	3.02e+01	0	31	0	476053504	44	6322
2026-01-05 15:50:46.07	178.67	9.54	-35.2	-36.4	28.7	3.02e+01	0	31	0	477626368	44	6408
2026-01-05 15:50:47.08	178.72	9.45	-35.0	-36.2	28.8	3.02e+01	0	31	0	479723520	44	6272
2026-01-05 15:50:48.08	178.78	9.36	-35.1	-36.3	28.9	3.02e+01	0	31	0	481820672	44	6308
