passes_logs/2026/01/05/R4.6S_Anadyr/R4.6S_Anadyr__20260105_010653_NOAA_20_JPSS-1_rec.log

#Pass ID: 20260105_010653_NOAA 20 (JPSS-1)
#Satellite: NOAA 20 (JPSS-1)
#Configuration: NOAA 20
#almurnet v.1.7.20251203
#Start time: 2026-01-05 01:06:55

#Version: 2.2.20231116
#Station: R4.6S_Anadyr
#Location: 177.4865 lon 64.73178 lat
#TLE: 1 43013U 17073A   26003.41800368  .00000169  00000+0  10117-3 0  9998
#TLE: 2 43013  98.7624 304.4804 0001884  56.1176 304.0179 14.19532918421092

#Time	Az	El	Level	Level2	SNR	BER	BlckErr	Temp	State	Recorded	gain1	gain2
2026-01-05 01:06:55.49	179.00	0.09	-49.3	-64.2	3.6	1.51e+00	0	28	0	0	60	58324
2026-01-05 01:06:56.50	179.03	0.15	-49.2	-64.4	3.6	1.51e+00	0	29	104	0	60	59966
2026-01-05 01:06:57.51	179.06	0.21	-49.2	-64.4	3.6	1.51e+00	0	29	104	0	60	60075
2026-01-05 01:06:58.52	179.09	0.27	-49.2	-64.4	3.6	1.51e+00	0	29	104	0	60	60114
2026-01-05 01:06:59.53	179.12	0.33	-49.2	-64.4	3.6	1.51e+00	0	29	104	0	60	59676
2026-01-05 01:07:00.54	179.15	0.39	-49.0	-64.2	3.6	1.51e+00	0	29	104	0	60	58650
2026-01-05 01:07:01.55	179.18	0.45	-48.7	-64.0	3.6	1.51e+00	0	29	104	0	60	57452
2026-01-05 01:07:02.56	179.21	0.51	-48.7	-63.9	3.6	1.51e+00	0	29	104	0	60	56872
2026-01-05 01:07:03.57	179.25	0.57	-48.7	-63.9	3.6	1.51e+00	0	29	104	0	60	56519
2026-01-05 01:07:04.58	179.28	0.63	-48.6	-63.8	3.6	1.51e+00	0	29	104	0	60	56296
2026-01-05 01:07:05.59	179.31	0.69	-48.5	-63.8	3.6	1.51e+00	0	29	104	0	60	55974
2026-01-05 01:07:06.60	179.34	0.75	-48.3	-63.7	3.6	1.51e+00	0	29	104	0	60	55308
2026-01-05 01:07:07.61	179.37	0.81	-48.3	-63.5	3.6	1.51e+00	0	29	104	0	60	54244
2026-01-05 01:07:08.62	179.40	0.87	-48.3	-63.4	3.6	1.51e+00	0	29	104	0	60	53690
2026-01-05 01:07:09.63	179.44	0.93	-48.1	-63.3	3.6	1.51e+00	0	29	104	0	60	52838
2026-01-05 01:07:10.64	179.47	0.99	-47.9	-63.1	3.6	1.51e+00	0	29	104	0	60	51424
2026-01-05 01:07:11.65	179.50	1.05	-47.3	-62.4	3.6	1.51e+00	0	30	104	0	60	47496
2026-01-05 01:07:12.66	179.53	1.11	-47.1	-62.3	3.6	1.51e+00	0	30	104	0	60	47034
2026-01-05 01:07:13.67	179.57	1.17	-47.1	-62.3	3.6	1.51e+00	0	29	104	0	60	47152
2026-01-05 01:07:14.68	179.60	1.23	-47.1	-62.3	3.6	1.51e+00	0	30	104	0	60	46887
2026-01-05 01:07:15.69	179.63	1.30	-47.1	-62.3	3.6	1.51e+00	0	30	104	0	60	47112
2026-01-05 01:07:16.70	179.66	1.36	-47.1	-62.3	3.6	1.51e+00	0	30	104	0	60	46927
2026-01-05 01:07:17.71	179.70	1.42	-47.1	-62.2	3.6	1.51e+00	0	30	104	0	60	46793
2026-01-05 01:07:18.72	179.73	1.48	-47.1	-62.3	3.6	1.51e+00	0	30	104	0	60	46967
2026-01-05 01:07:19.73	179.76	1.54	-47.1	-62.3	3.5	1.51e+00	0	30	104	0	60	47060
2026-01-05 01:07:20.74	179.80	1.61	-47.1	-62.3	3.6	1.51e+00	0	30	104	0	60	47049
2026-01-05 01:07:21.75	179.83	1.67	-47.1	-62.3	3.6	1.51e+00	0	30	104	0	60	46972
2026-01-05 01:07:22.76	179.86	1.73	-47.1	-62.2	3.6	1.51e+00	0	30	104	0	60	46797
2026-01-05 01:07:23.77	179.90	1.79	-47.1	-62.2	3.6	1.51e+00	0	30	104	0	60	46690
2026-01-05 01:07:24.77	179.93	1.85	-47.1	-62.1	3.6	1.51e+00	0	30	104	0	60	46262
2026-01-05 01:07:25.78	179.97	1.92	-47.1	-62.2	3.6	1.51e+00	0	30	104	0	60	46591
2026-01-05 01:07:26.79	180.00	1.98	-47.1	-62.2	3.6	1.51e+00	0	30	104	0	60	46544
2026-01-05 01:07:27.80	180.03	2.04	-47.1	-62.2	3.6	1.51e+00	0	30	104	0	60	46716
2026-01-05 01:07:28.81	180.07	2.11	-47.1	-62.2	3.6	1.51e+00	0	30	104	0	60	46736
2026-01-05 01:07:29.82	180.10	2.17	-47.1	-62.3	3.6	1.51e+00	0	30	104	0	60	46904
2026-01-05 01:07:30.83	180.14	2.23	-47.1	-62.2	3.6	1.51e+00	0	30	104	0	60	46593
2026-01-05 01:07:31.84	180.17	2.30	-47.1	-62.2	3.6	1.51e+00	0	30	104	0	60	46716
2026-01-05 01:07:32.85	180.21	2.36	-47.1	-62.2	3.6	1.51e+00	0	30	104	0	60	46729
2026-01-05 01:07:33.86	180.24	2.42	-47.1	-62.2	3.6	1.51e+00	0	30	104	0	60	46825
2026-01-05 01:07:34.87	180.28	2.49	-47.1	-62.2	3.6	1.51e+00	0	30	104	0	60	46640
2026-01-05 01:07:35.88	180.31	2.55	-47.1	-62.0	3.6	1.51e+00	0	30	104	0	60	45559
2026-01-05 01:07:36.89	180.35	2.62	-47.1	-61.5	3.6	1.51e+00	0	30	104	0	60	42784
2026-01-05 01:07:37.90	180.38	2.68	-47.1	-61.1	3.6	1.51e+00	0	30	104	0	60	40848
2026-01-05 01:07:38.91	180.42	2.74	-47.2	-61.3	3.6	1.51e+00	0	30	104	0	60	42003
2026-01-05 01:07:39.92	180.46	2.81	-47.1	-60.7	3.6	1.51e+00	0	30	104	0	60	39170
2026-01-05 01:07:40.93	180.49	2.87	-47.1	-61.0	3.6	1.51e+00	0	30	104	0	60	40709
2026-01-05 01:07:41.94	180.53	2.94	-47.1	-61.5	3.5	1.51e+00	0	30	104	0	60	43073
2026-01-05 01:07:42.95	180.57	3.00	-47.1	-62.0	3.6	1.51e+00	0	30	104	0	60	45446
2026-01-05 01:07:43.96	180.60	3.07	-47.1	-60.7	3.6	1.50e+00	0	30	104	0	60	39149
2026-01-05 01:07:44.97	180.64	3.13	-46.6	-54.8	7.7	1.46e+00	0	30	104	0	60	19777
2026-01-05 01:07:45.98	180.68	3.20	-46.6	-54.3	9.1	1.78e-01	0	30	0	1048576	60	18835
2026-01-05 01:07:46.99	180.71	3.27	-45.1	-49.2	12.2	6.71e-04	0	30	0	3145728	60	10430
2026-01-05 01:07:48.00	180.75	3.33	-43.6	-46.4	15.2	5.03e-05	0	30	0	4194304	60	7527
2026-01-05 01:07:49.01	180.79	3.40	-43.3	-45.8	16.1	0.00e+00	0	30	0	6291456	60	7066
2026-01-05 01:07:50.02	180.82	3.46	-42.6	-44.8	16.4	0.00e+00	0	30	0	8388608	58	7020
2026-01-05 01:07:51.03	180.86	3.53	-42.1	-44.2	17.1	0.00e+00	0	30	0	10485760	58	6560
2026-01-05 01:07:52.04	180.90	3.60	-41.7	-43.6	17.7	0.00e+00	0	30	0	12582912	58	6134
2026-01-05 01:07:53.05	180.94	3.66	-41.9	-43.8	17.6	0.00e+00	0	30	0	13631488	56	7034
2026-01-05 01:07:54.06	180.98	3.73	-42.6	-44.8	16.8	0.00e+00	0	30	0	15728640	58	7054
2026-01-05 01:07:55.07	181.01	3.80	-47.0	-59.5	3.7	1.16e+00	0	30	104	17825792	60	34276
2026-01-05 01:07:56.08	181.05	3.86	-43.3	-45.6	15.9	0.00e+00	0	30	0	17825792	58	7764
2026-01-05 01:07:57.09	181.09	3.93	-47.3	-57.5	5.1	1.73e-01	1	30	0	18874368	60	27169
2026-01-05 01:07:58.10	181.13	4.00	-45.2	-49.6	11.7	3.35e-05	0	30	0	20971520	60	10855
2026-01-05 01:07:59.11	181.17	4.06	-42.1	-44.0	17.3	0.00e+00	0	30	0	23068672	58	6463
2026-01-05 01:08:00.12	181.21	4.13	-42.2	-44.3	17.1	0.00e+00	0	30	0	25165824	58	6623
2026-01-05 01:08:01.13	181.25	4.20	-41.8	-43.7	17.9	0.00e+00	0	30	0	27262976	58	6178
2026-01-05 01:08:02.14	181.29	4.27	-41.6	-43.4	17.8	0.00e+00	0	30	0	28311552	56	6717
2026-01-05 01:08:03.15	181.33	4.34	-41.5	-43.2	18.2	0.00e+00	0	30	0	30408704	56	6546
2026-01-05 01:08:04.16	181.37	4.40	-41.9	-43.7	17.9	0.00e+00	0	30	0	32505856	56	6986
2026-01-05 01:08:05.17	181.41	4.47	-42.0	-43.9	17.8	7.00e-07	0	30	0	34603008	56	7093
2026-01-05 01:08:06.18	181.45	4.54	-41.5	-43.2	18.4	0.00e+00	0	30	0	36700160	56	6553
2026-01-05 01:08:07.19	181.49	4.61	-41.9	-43.7	18.0	0.00e+00	0	30	0	37748736	56	6994
2026-01-05 01:08:08.20	181.53	4.68	-42.0	-43.8	18.7	0.00e+00	0	30	0	39845888	56	7016
2026-01-05 01:08:09.21	181.57	4.75	-41.9	-43.7	18.4	0.00e+00	0	30	0	41943040	56	6936
2026-01-05 01:08:10.22	181.61	4.82	-42.3	-44.2	18.2	0.00e+00	0	30	0	44040192	56	7350
2026-01-05 01:08:11.23	181.65	4.89	-41.8	-43.5	18.0	0.00e+00	0	30	0	46137344	56	6829
2026-01-05 01:08:12.24	181.69	4.96	-42.1	-44.0	17.9	0.00e+00	0	30	0	47185920	56	7209
2026-01-05 01:08:13.25	181.73	5.03	-41.9	-43.6	18.3	0.00e+00	0	30	0	49283072	56	6869
2026-01-05 01:08:14.26	181.77	5.10	-41.7	-43.4	18.4	0.00e+00	0	30	0	51380224	56	6723
2026-01-05 01:08:15.26	181.81	5.17	-41.6	-43.2	18.6	0.00e+00	0	30	0	53477376	56	6606
2026-01-05 01:08:16.27	181.86	5.24	-41.2	-42.8	19.1	0.00e+00	0	30	0	55574528	56	6261
2026-01-05 01:08:17.28	181.90	5.31	-41.2	-42.8	19.2	0.00e+00	0	30	0	56623104	56	6267
2026-01-05 01:08:18.29	181.94	5.38	-41.6	-43.2	18.6	0.00e+00	0	30	0	58720256	56	6564
2026-01-05 01:08:19.30	181.98	5.45	-41.6	-43.2	18.8	0.00e+00	0	30	0	60817408	56	6608
2026-01-05 01:08:20.31	182.02	5.52	-41.6	-43.2	18.7	0.00e+00	0	30	0	62914560	56	6594
2026-01-05 01:08:21.32	182.07	5.59	-41.4	-43.0	19.1	0.00e+00	0	30	0	65011712	56	6436
2026-01-05 01:08:22.33	182.11	5.66	-41.8	-43.5	18.8	0.00e+00	0	30	0	66060288	56	6799
2026-01-05 01:08:23.34	182.15	5.73	-41.7	-43.3	19.2	0.00e+00	0	30	0	68157440	56	6621
2026-01-05 01:08:24.35	182.20	5.80	-42.3	-44.1	18.4	0.00e+00	0	30	0	70254592	56	7278
2026-01-05 01:08:25.36	182.24	5.88	-41.7	-43.3	18.9	0.00e+00	0	30	0	72351744	56	6626
2026-01-05 01:08:26.37	182.28	5.95	-41.8	-43.4	18.8	0.00e+00	0	30	0	74448896	56	6695
2026-01-05 01:08:27.38	182.33	6.02	-41.5	-43.1	19.1	0.00e+00	0	30	0	75497472	56	6503
2026-01-05 01:08:28.39	182.37	6.09	-42.0	-43.8	18.4	0.00e+00	0	30	0	77594624	56	7012
2026-01-05 01:08:29.40	182.42	6.17	-41.0	-42.5	19.6	0.00e+00	0	30	0	79691776	56	6055
2026-01-05 01:08:30.41	182.46	6.24	-40.8	-42.2	19.5	0.00e+00	0	30	0	81788928	56	5866
2026-01-05 01:08:31.42	182.51	6.31	-40.6	-41.9	20.1	0.00e+00	0	30	0	83886080	56	5687
2026-01-05 01:08:32.43	182.55	6.39	-40.6	-41.9	20.2	0.00e+00	0	30	0	84934656	54	6350
2026-01-05 01:08:33.44	182.60	6.46	-40.2	-41.5	20.3	0.00e+00	0	30	0	87031808	54	6076
2026-01-05 01:08:34.45	182.64	6.53	-40.4	-41.7	20.5	0.00e+00	0	30	0	89128960	54	6240
2026-01-05 01:08:35.46	182.69	6.61	-40.2	-41.4	20.6	0.00e+00	0	30	0	91226112	54	6002
2026-01-05 01:08:36.47	182.73	6.68	-40.1	-41.4	20.7	0.00e+00	0	30	0	93323264	54	5999
2026-01-05 01:08:37.48	182.78	6.75	-40.2	-41.4	20.6	0.00e+00	0	30	0	95420416	54	6023
2026-01-05 01:08:38.49	182.83	6.83	-40.0	-41.3	20.7	0.00e+00	0	30	0	96468992	54	5913
2026-01-05 01:08:39.50	182.87	6.90	-40.0	-41.2	20.6	0.00e+00	0	30	0	98566144	54	5884
2026-01-05 01:08:40.51	182.92	6.98	-40.0	-41.3	20.8	0.00e+00	0	30	0	100663296	54	5920
2026-01-05 01:08:41.51	182.97	7.05	-39.9	-41.1	20.9	0.00e+00	0	30	0	102760448	54	5819
2026-01-05 01:08:42.52	183.01	7.13	-39.9	-41.1	21.0	0.00e+00	0	30	0	104857600	54	5796
2026-01-05 01:08:43.53	183.06	7.20	-39.8	-41.0	21.0	0.00e+00	0	30	0	105906176	52	6451
2026-01-05 01:08:44.54	183.11	7.28	-39.9	-41.1	21.1	0.00e+00	0	30	0	108003328	52	6512
2026-01-05 01:08:45.55	183.16	7.36	-40.0	-41.3	20.8	0.00e+00	0	30	0	110100480	52	6619
2026-01-05 01:08:46.56	183.20	7.43	-40.0	-41.2	21.0	0.00e+00	0	30	0	112197632	52	6572
2026-01-05 01:08:47.57	183.25	7.51	-40.0	-41.2	20.9	0.00e+00	0	30	0	114294784	52	6574
2026-01-05 01:08:48.58	183.30	7.58	-39.9	-41.1	20.9	0.00e+00	0	30	0	115343360	52	6525
2026-01-05 01:08:49.59	183.35	7.66	-39.6	-40.8	21.1	0.00e+00	0	30	0	117440512	52	6298
2026-01-05 01:08:50.60	183.40	7.74	-39.6	-40.8	21.2	0.00e+00	0	30	0	119537664	52	6247
2026-01-05 01:08:51.61	183.45	7.82	-39.8	-41.0	21.3	0.00e+00	0	30	0	121634816	52	6460
2026-01-05 01:08:52.62	183.50	7.89	-39.5	-40.7	21.2	0.00e+00	0	30	0	123731968	52	6195
2026-01-05 01:08:53.63	183.55	7.97	-39.6	-40.8	21.3	0.00e+00	0	30	0	124780544	52	6289
2026-01-05 01:08:54.64	183.60	8.05	-39.6	-40.7	21.3	0.00e+00	0	30	0	126877696	52	6216
2026-01-05 01:08:55.65	183.65	8.13	-39.6	-40.8	21.2	0.00e+00	0	30	0	128974848	52	6273
2026-01-05 01:08:56.66	183.70	8.20	-39.5	-40.7	21.3	0.00e+00	0	30	0	131072000	52	6214
2026-01-05 01:08:57.67	183.75	8.28	-39.4	-40.6	21.4	0.00e+00	0	30	0	133169152	52	6114
2026-01-05 01:08:58.68	183.80	8.36	-39.4	-40.6	21.4	0.00e+00	0	30	0	134217728	52	6121
2026-01-05 01:08:59.69	183.85	8.44	-39.5	-40.7	21.3	0.00e+00	0	30	0	136314880	52	6207
2026-01-05 01:09:00.70	183.90	8.52	-39.4	-40.6	21.3	0.00e+00	0	30	0	138412032	52	6121
2026-01-05 01:09:01.71	183.95	8.60	-39.3	-40.4	21.5	0.00e+00	0	30	0	140509184	52	6026
2026-01-05 01:09:02.72	184.01	8.68	-39.3	-40.5	21.5	0.00e+00	0	30	0	142606336	52	6061
2026-01-05 01:09:03.72	184.06	8.76	-39.3	-40.4	21.6	0.00e+00	0	30	0	143654912	52	5994
2026-01-05 01:09:04.73	184.11	8.84	-39.3	-40.4	21.6	0.00e+00	0	30	0	145752064	52	5994
2026-01-05 01:09:05.74	184.16	8.92	-39.2	-40.3	21.6	0.00e+00	0	30	0	147849216	52	5925
2026-01-05 01:09:06.75	184.22	9.00	-39.3	-40.4	21.6	0.00e+00	0	30	0	149946368	52	6008
2026-01-05 01:09:07.76	184.27	9.08	-39.1	-40.2	21.7	0.00e+00	0	30	0	152043520	52	5892
2026-01-05 01:09:08.77	184.32	9.16	-39.3	-40.5	21.5	0.00e+00	0	30	0	153092096	52	6041
2026-01-05 01:09:09.78	184.38	9.24	-39.1	-40.2	21.8	0.00e+00	0	30	0	155189248	52	5878
2026-01-05 01:09:10.79	184.43	9.32	-39.0	-40.1	22.0	0.00e+00	0	30	0	157286400	52	5772
2026-01-05 01:09:11.80	184.49	9.41	-39.1	-40.2	21.8	0.00e+00	0	30	0	159383552	52	5844
2026-01-05 01:09:12.81	184.54	9.49	-38.8	-39.9	22.1	0.00e+00	0	30	0	161480704	52	5632
2026-01-05 01:09:13.82	184.60	9.57	-38.9	-39.9	22.0	0.00e+00	0	30	0	163577856	52	5695
2026-01-05 01:09:14.83	184.65	9.65	-39.0	-40.1	21.9	0.00e+00	0	30	0	164626432	52	5780
2026-01-05 01:09:15.84	184.71	9.74	-39.1	-40.1	21.8	0.00e+00	0	30	0	166723584	52	5824
2026-01-05 01:09:16.85	184.76	9.82	-38.8	-39.8	22.2	0.00e+00	0	30	0	168820736	52	5599
2026-01-05 01:09:17.86	184.82	9.90	-38.7	-39.8	22.2	0.00e+00	0	30	0	170917888	50	6271
2026-01-05 01:09:18.87	184.88	9.99	-38.7	-39.8	22.3	0.00e+00	0	30	0	173015040	50	6264
2026-01-05 01:09:19.88	184.93	10.07	-38.9	-39.9	22.2	0.00e+00	0	30	0	174063616	50	6349
2026-01-05 01:09:20.89	184.99	10.15	-38.7	-39.7	22.3	0.00e+00	0	30	0	176160768	50	6208
2026-01-05 01:09:21.90	185.05	10.24	-38.7	-39.8	22.2	0.00e+00	0	30	0	178257920	50	6265
2026-01-05 01:09:22.91	185.11	10.32	-38.7	-39.7	22.3	0.00e+00	0	30	0	180355072	50	6231
2026-01-05 01:09:23.92	185.16	10.41	-38.6	-39.6	22.5	0.00e+00	0	30	0	182452224	50	6121
2026-01-05 01:09:24.93	185.22	10.49	-38.6	-39.6	22.3	0.00e+00	0	30	0	183500800	50	6151
2026-01-05 01:09:25.94	185.28	10.58	-38.6	-39.6	22.4	0.00e+00	0	30	0	185597952	50	6127
2026-01-05 01:09:26.95	185.34	10.66	-38.5	-39.5	22.5	0.00e+00	0	30	0	187695104	50	6059
2026-01-05 01:09:27.96	185.40	10.75	-38.7	-39.7	22.3	0.00e+00	0	30	0	189792256	50	6203
2026-01-05 01:09:28.97	185.46	10.84	-38.6	-39.7	22.4	0.00e+00	0	30	0	191889408	50	6178
2026-01-05 01:09:29.98	185.52	10.92	-38.7	-39.8	22.3	0.00e+00	0	30	0	192937984	50	6248
2026-01-05 01:09:30.99	185.58	11.01	-38.6	-39.7	22.5	0.00e+00	0	30	0	195035136	50	6180
2026-01-05 01:09:32.00	185.64	11.10	-38.7	-39.7	22.4	0.00e+00	0	30	0	197132288	50	6198
2026-01-05 01:09:33.01	185.70	11.19	-38.8	-39.8	22.3	0.00e+00	0	30	0	199229440	50	6288
2026-01-05 01:09:34.01	185.76	11.27	-38.7	-39.7	22.4	0.00e+00	0	30	0	201326592	50	6187
2026-01-05 01:09:35.02	185.82	11.36	-38.5	-39.6	22.5	0.00e+00	0	30	0	202375168	50	6108
2026-01-05 01:09:36.03	185.89	11.45	-38.4	-39.4	22.6	0.00e+00	0	30	0	204472320	50	5989
2026-01-05 01:09:37.04	185.95	11.54	-38.6	-39.6	22.5	0.00e+00	0	30	0	206569472	50	6140
2026-01-05 01:09:38.05	186.01	11.63	-38.5	-39.5	22.5	0.00e+00	0	30	0	208666624	50	6056
2026-01-05 01:09:39.06	186.07	11.72	-38.4	-39.4	22.6	0.00e+00	0	30	0	210763776	50	5972
2026-01-05 01:09:40.07	186.14	11.80	-38.6	-39.7	22.3	0.00e+00	0	30	0	211812352	50	6181
2026-01-05 01:09:41.08	186.20	11.89	-38.3	-39.3	22.7	0.00e+00	0	30	0	213909504	50	5933
2026-01-05 01:09:42.09	186.27	11.98	-38.3	-39.3	22.7	0.00e+00	0	30	0	216006656	50	5918
2026-01-05 01:09:43.10	186.33	12.07	-38.4	-39.4	22.7	0.00e+00	0	30	0	218103808	50	5982
2026-01-05 01:09:44.11	186.40	12.17	-38.2	-39.2	22.8	0.00e+00	0	30	0	220200960	50	5876
2026-01-05 01:09:45.12	186.46	12.26	-38.1	-39.1	23.0	0.00e+00	0	30	0	221249536	50	5772
2026-01-05 01:09:46.13	186.53	12.35	-38.0	-39.0	22.9	0.00e+00	0	30	0	223346688	50	5716
2026-01-05 01:09:47.14	186.59	12.44	-38.1	-39.1	23.0	0.00e+00	0	30	0	225443840	50	5783
2026-01-05 01:09:48.15	186.66	12.53	-37.9	-38.9	23.2	0.00e+00	0	30	0	227540992	50	5660
2026-01-05 01:09:49.16	186.73	12.62	-37.9	-38.8	23.2	0.00e+00	0	30	0	229638144	50	5612
2026-01-05 01:09:50.17	186.79	12.72	-37.8	-38.7	23.2	0.00e+00	0	30	0	231735296	50	5559
2026-01-05 01:09:51.18	186.86	12.81	-37.9	-38.8	23.2	0.00e+00	0	30	0	232783872	50	5599
2026-01-05 01:09:52.19	186.93	12.90	-37.9	-38.9	23.2	0.00e+00	0	30	0	234881024	50	5645
2026-01-05 01:09:53.20	187.00	13.00	-38.1	-39.1	23.0	0.00e+00	0	30	0	236978176	50	5763
2026-01-05 01:09:54.21	187.07	13.09	-38.0	-38.9	23.1	0.00e+00	0	30	0	239075328	50	5671
2026-01-05 01:09:55.22	187.14	13.18	-38.0	-39.0	22.9	0.00e+00	0	30	0	241172480	50	5708
2026-01-05 01:09:56.23	187.21	13.28	-38.2	-39.1	22.8	0.00e+00	0	30	0	242221056	50	5811
2026-01-05 01:09:57.24	187.28	13.37	-37.8	-38.7	23.2	0.00e+00	0	30	0	244318208	50	5537
2026-01-05 01:09:58.25	187.35	13.47	-37.8	-38.7	23.3	0.00e+00	0	30	0	246415360	50	5563
2026-01-05 01:09:59.26	187.42	13.56	-38.0	-38.9	23.2	0.00e+00	0	30	0	248512512	50	5695
2026-01-05 01:10:00.27	187.49	13.66	-37.7	-38.6	23.4	0.00e+00	0	30	0	250609664	48	6137
2026-01-05 01:10:01.28	187.56	13.76	-37.8	-38.7	23.2	0.00e+00	0	30	0	251658240	48	6229
2026-01-05 01:10:02.29	187.64	13.85	-37.9	-38.8	23.1	0.00e+00	0	30	0	253755392	48	6308
2026-01-05 01:10:03.30	187.71	13.95	-37.8	-38.7	23.3	0.00e+00	0	30	0	255852544	48	6197
2026-01-05 01:10:04.31	187.78	14.05	-37.8	-38.7	23.4	0.00e+00	0	30	0	257949696	48	6214
2026-01-05 01:10:05.32	187.86	14.14	-37.4	-38.3	23.6	0.00e+00	0	30	0	260046848	48	5936
2026-01-05 01:10:06.32	187.93	14.24	-37.4	-38.3	23.6	0.00e+00	0	30	0	261095424	48	5943
2026-01-05 01:10:07.33	188.00	14.34	-37.3	-38.2	23.8	0.00e+00	0	30	0	263192576	48	5841
2026-01-05 01:10:08.34	188.08	14.44	-37.3	-38.2	23.8	0.00e+00	0	30	0	265289728	48	5882
2026-01-05 01:10:09.35	188.15	14.54	-37.2	-38.1	23.8	0.00e+00	0	30	0	267386880	48	5776
2026-01-05 01:10:10.36	188.23	14.64	-37.2	-38.1	23.8	0.00e+00	0	30	0	269484032	48	5807
2026-01-05 01:10:11.37	188.31	14.74	-37.1	-38.0	23.9	0.00e+00	0	30	0	270532608	48	5730
2026-01-05 01:10:12.38	188.38	14.84	-37.3	-38.1	23.9	0.00e+00	0	30	0	272629760	48	5826
2026-01-05 01:10:13.39	188.46	14.94	-37.2	-38.1	23.8	0.00e+00	0	30	0	274726912	48	5786
2026-01-05 01:10:14.40	188.54	15.04	-37.2	-38.1	23.8	0.00e+00	0	30	0	276824064	48	5806
2026-01-05 01:10:15.41	188.62	15.14	-37.0	-37.8	24.1	0.00e+00	0	30	0	278921216	48	5614
2026-01-05 01:10:16.42	188.70	15.24	-36.9	-37.7	24.2	0.00e+00	0	30	0	279969792	48	5551
2026-01-05 01:10:17.42	188.78	15.34	-36.8	-37.7	24.3	0.00e+00	0	30	0	282066944	48	5516
2026-01-05 01:10:18.43	188.86	15.44	-36.9	-37.7	24.2	0.00e+00	0	30	0	284164096	48	5549
2026-01-05 01:10:19.44	188.94	15.55	-37.0	-37.9	24.2	0.00e+00	0	30	0	286261248	48	5636
2026-01-05 01:10:20.45	189.02	15.65	-37.1	-37.9	24.0	0.00e+00	0	30	0	288358400	48	5692
2026-01-05 01:10:21.46	189.10	15.75	-36.9	-37.8	24.1	0.00e+00	0	30	0	289406976	48	5591
2026-01-05 01:10:22.47	189.18	15.86	-37.0	-37.9	24.0	0.00e+00	0	30	0	291504128	48	5660
2026-01-05 01:10:23.48	189.27	15.96	-37.0	-37.8	24.1	0.00e+00	0	30	0	293601280	48	5624
2026-01-05 01:10:24.49	189.35	16.07	-36.8	-37.6	24.2	0.00e+00	0	30	0	295698432	48	5497
2026-01-05 01:10:25.51	189.43	16.17	-36.9	-37.7	24.2	0.00e+00	0	30	0	297795584	48	5534
2026-01-05 01:10:26.52	189.52	16.28	-36.8	-37.7	24.3	0.00e+00	0	30	0	299892736	48	5510
2026-01-05 01:10:27.52	189.60	16.38	-36.7	-37.6	24.4	0.00e+00	0	30	0	300941312	46	6119
2026-01-05 01:10:28.54	189.69	16.49	-36.8	-37.6	24.3	0.00e+00	0	30	0	303038464	46	6161
2026-01-05 01:10:29.54	189.77	16.60	-36.8	-37.6	24.3	0.00e+00	0	30	0	305135616	46	6139
2026-01-05 01:10:30.56	189.86	16.70	-36.8	-37.6	24.3	0.00e+00	0	30	0	307232768	46	6153
2026-01-05 01:10:31.56	189.95	16.81	-36.6	-37.5	24.4	0.00e+00	0	30	0	309329920	46	6046
2026-01-05 01:10:32.57	190.04	16.92	-36.9	-37.7	24.3	0.00e+00	0	30	0	310378496	46	6206
2026-01-05 01:10:33.58	190.13	17.03	-36.8	-37.7	24.2	0.00e+00	0	30	0	312475648	46	6184
2026-01-05 01:10:34.59	190.21	17.14	-37.2	-38.0	24.0	0.00e+00	0	30	0	314572800	46	6452
2026-01-05 01:10:35.60	190.30	17.24	-36.6	-37.5	24.4	0.00e+00	0	30	0	316669952	46	6049
2026-01-05 01:10:36.62	190.40	17.35	-36.7	-37.5	24.4	0.00e+00	0	30	0	318767104	46	6062
2026-01-05 01:10:37.62	190.49	17.46	-36.6	-37.4	24.5	0.00e+00	0	30	0	319815680	46	6023
2026-01-05 01:10:38.63	190.58	17.57	-36.8	-37.6	24.4	0.00e+00	0	30	0	321912832	46	6133
2026-01-05 01:10:39.64	190.67	17.69	-36.8	-37.6	24.3	0.00e+00	0	30	0	324009984	46	6163
2026-01-05 01:10:40.65	190.76	17.80	-36.7	-37.6	24.3	0.00e+00	0	30	0	326107136	46	6122
2026-01-05 01:10:41.66	190.86	17.91	-36.9	-37.7	24.2	0.00e+00	0	30	0	328204288	46	6243
2026-01-05 01:10:42.67	190.95	18.02	-36.8	-37.6	24.4	0.00e+00	0	30	0	329252864	46	6148
2026-01-05 01:10:43.68	191.05	18.13	-36.7	-37.6	24.4	0.00e+00	0	30	0	331350016	46	6122
2026-01-05 01:10:44.69	191.14	18.25	-36.7	-37.6	24.4	0.00e+00	0	30	0	333447168	46	6108
2026-01-05 01:10:45.70	191.24	18.36	-36.7	-37.5	24.4	0.00e+00	0	30	0	335544320	46	6064
2026-01-05 01:10:46.71	191.34	18.47	-36.7	-37.5	24.4	0.00e+00	0	30	0	337641472	46	6098
2026-01-05 01:10:47.72	191.43	18.59	-36.7	-37.5	24.4	0.00e+00	0	30	0	338690048	46	6085
2026-01-05 01:10:48.73	191.53	18.70	-36.6	-37.5	24.5	0.00e+00	0	30	0	340787200	46	6047
2026-01-05 01:10:49.74	191.63	18.82	-36.8	-37.6	24.3	0.00e+00	0	30	0	342884352	46	6159
2026-01-05 01:10:50.75	191.73	18.93	-36.6	-37.5	24.5	0.00e+00	0	30	0	344981504	46	6036
2026-01-05 01:10:51.76	191.83	19.05	-36.8	-37.6	24.4	0.00e+00	0	30	0	347078656	46	6139
2026-01-05 01:10:52.77	191.93	19.17	-36.7	-37.5	24.5	0.00e+00	0	30	0	348127232	46	6073
2026-01-05 01:10:53.78	192.04	19.28	-36.8	-37.6	24.4	0.00e+00	0	30	0	350224384	46	6133
2026-01-05 01:10:54.79	192.14	19.40	-36.8	-37.6	24.4	0.00e+00	0	30	0	352321536	46	6168
2026-01-05 01:10:55.79	192.24	19.52	-36.7	-37.6	24.4	0.00e+00	0	30	0	354418688	46	6120
2026-01-05 01:10:56.80	192.35	19.64	-36.7	-37.6	24.4	0.00e+00	0	30	0	356515840	46	6119
2026-01-05 01:10:57.81	192.45	19.76	-36.6	-37.4	24.5	0.00e+00	0	30	0	357564416	46	6027
2026-01-05 01:10:58.82	192.56	19.88	-36.6	-37.5	24.5	0.00e+00	0	30	0	359661568	46	6041
2026-01-05 01:10:59.83	192.66	20.00	-36.8	-37.7	24.3	0.00e+00	0	30	0	361758720	46	6195
2026-01-05 01:11:00.84	192.77	20.12	-36.8	-37.6	24.4	0.00e+00	0	30	0	363855872	46	6162
2026-01-05 01:11:01.85	192.88	20.24	-36.8	-37.6	24.5	0.00e+00	0	30	0	365953024	46	6137
2026-01-05 01:11:02.86	192.99	20.36	-36.6	-37.4	24.6	0.00e+00	0	30	0	368050176	46	6020
2026-01-05 01:11:03.87	193.10	20.48	-36.6	-37.4	24.5	0.00e+00	0	30	0	369098752	46	6024
2026-01-05 01:11:04.88	193.21	20.60	-36.6	-37.4	24.6	0.00e+00	0	30	0	371195904	46	5981
2026-01-05 01:11:05.89	193.32	20.73	-36.8	-37.6	24.5	0.00e+00	0	30	0	373293056	46	6132
2026-01-05 01:11:06.90	193.43	20.85	-36.6	-37.4	24.6	0.00e+00	0	30	0	375390208	46	5995
2026-01-05 01:11:07.91	193.55	20.97	-36.6	-37.4	24.5	0.00e+00	0	30	0	377487360	46	6011
2026-01-05 01:11:08.92	193.66	21.10	-36.6	-37.5	24.6	0.00e+00	0	30	0	378535936	46	6036
2026-01-05 01:11:09.93	193.78	21.22	-36.7	-37.5	24.5	0.00e+00	0	30	0	380633088	46	6059
2026-01-05 01:11:10.94	193.89	21.35	-36.7	-37.5	24.4	0.00e+00	0	30	0	382730240	46	6096
2026-01-05 01:11:11.95	194.01	21.48	-36.6	-37.4	24.5	0.00e+00	0	30	0	384827392	46	6024
2026-01-05 01:11:12.96	194.13	21.60	-36.8	-37.6	24.4	0.00e+00	0	30	0	386924544	46	6139
2026-01-05 01:11:13.97	194.25	21.73	-37.0	-37.8	24.2	0.00e+00	0	30	0	387973120	46	6295
2026-01-05 01:11:14.98	194.37	21.86	-36.7	-37.5	24.5	0.00e+00	0	30	0	390070272	46	6087
2026-01-05 01:11:15.99	194.49	21.98	-36.7	-37.6	24.5	0.00e+00	0	30	0	392167424	46	6110
2026-01-05 01:11:16.99	194.61	22.11	-36.7	-37.5	24.5	0.00e+00	0	30	0	394264576	46	6064
2026-01-05 01:11:18.01	194.73	22.24	-36.8	-37.6	24.4	0.00e+00	0	30	0	396361728	46	6153
2026-01-05 01:11:19.01	194.86	22.37	-36.6	-37.5	24.5	0.00e+00	0	30	0	397410304	46	6053
2026-01-05 01:11:20.02	194.98	22.50	-36.6	-37.5	24.6	0.00e+00	0	30	0	399507456	46	6042
2026-01-05 01:11:21.03	195.11	22.63	-36.6	-37.5	24.6	0.00e+00	0	30	0	401604608	46	6036
2026-01-05 01:11:22.04	195.23	22.76	-36.8	-37.7	24.4	0.00e+00	0	30	0	403701760	46	6224
2026-01-05 01:11:23.05	195.36	22.89	-36.7	-37.6	24.4	0.00e+00	0	30	0	405798912	46	6129
2026-01-05 01:11:24.06	195.49	23.03	-36.8	-37.6	24.5	0.00e+00	0	30	0	406847488	46	6170
2026-01-05 01:11:25.07	195.62	23.16	-37.0	-37.9	24.3	0.00e+00	0	30	0	408944640	46	6340
2026-01-05 01:11:26.08	195.75	23.29	-36.9	-37.8	24.3	0.00e+00	0	30	0	411041792	46	6300
2026-01-05 01:11:27.09	195.88	23.43	-37.0	-37.9	24.4	0.00e+00	0	30	0	413138944	46	6328
2026-01-05 01:11:28.10	196.02	23.56	-36.9	-37.8	24.4	0.00e+00	0	30	0	415236096	46	6277
2026-01-05 01:11:29.11	196.15	23.70	-36.9	-37.8	24.4	0.00e+00	0	30	0	416284672	46	6278
2026-01-05 01:11:30.11	196.28	23.83	-36.9	-37.8	24.3	0.00e+00	0	30	0	418381824	46	6288
2026-01-05 01:11:31.13	196.42	23.97	-37.0	-37.9	24.3	0.00e+00	0	30	0	420478976	46	6324
2026-01-05 01:11:32.13	196.56	24.10	-36.9	-37.8	24.4	0.00e+00	0	30	0	422576128	46	6251
2026-01-05 01:11:33.15	196.70	24.24	-36.8	-37.6	24.5	0.00e+00	0	30	0	424673280	46	6158
2026-01-05 01:11:34.16	196.84	24.38	-36.8	-37.6	24.5	0.00e+00	0	30	0	425721856	46	6154
2026-01-05 01:11:35.16	196.98	24.52	-36.8	-37.7	24.4	0.00e+00	0	30	0	427819008	46	6178
2026-01-05 01:11:36.17	197.12	24.66	-37.0	-37.8	24.4	0.00e+00	0	30	0	429916160	46	6303
2026-01-05 01:11:37.18	197.27	24.80	-37.0	-37.8	24.1	0.00e+00	0	30	0	432013312	46	6301
2026-01-05 01:11:38.19	197.41	24.94	-37.2	-38.1	24.2	0.00e+00	0	30	0	434110464	46	6478
2026-01-05 01:11:39.20	197.56	25.08	-37.3	-38.2	24.0	0.00e+00	0	30	0	435159040	46	6588
2026-01-05 01:11:40.21	197.70	25.22	-37.3	-38.1	24.1	0.00e+00	0	30	0	437256192	46	6529
2026-01-05 01:11:41.22	197.85	25.36	-37.4	-38.2	23.9	0.00e+00	0	30	0	439353344	46	6615
2026-01-05 01:11:42.23	198.00	25.50	-37.3	-38.2	24.0	0.00e+00	0	30	0	441450496	46	6583
2026-01-05 01:11:43.24	198.16	25.64	-37.4	-38.2	24.0	0.00e+00	0	30	0	443547648	46	6599
2026-01-05 01:11:44.25	198.31	25.79	-37.5	-38.4	23.9	0.00e+00	0	30	0	444596224	46	6695
2026-01-05 01:11:45.26	198.46	25.93	-37.5	-38.3	24.0	0.00e+00	0	30	0	446693376	46	6678
2026-01-05 01:11:46.27	198.62	26.08	-37.5	-38.4	23.9	0.00e+00	0	30	0	448790528	46	6729
2026-01-05 01:11:47.28	198.77	26.22	-37.6	-38.5	23.9	0.00e+00	0	30	0	450887680	48	6051
2026-01-05 01:11:48.29	198.93	26.37	-37.5	-38.4	23.8	0.00e+00	0	30	0	452984832	48	6011
2026-01-05 01:11:49.30	199.09	26.51	-37.5	-38.4	23.8	0.00e+00	0	30	0	454033408	48	5982
2026-01-05 01:11:50.31	199.25	26.66	-37.5	-38.4	23.8	0.00e+00	0	30	0	456130560	48	6020
2026-01-05 01:11:51.32	199.42	26.81	-37.6	-38.5	23.7	0.00e+00	0	30	0	458227712	48	6092
2026-01-05 01:11:52.33	199.58	26.95	-37.9	-38.8	23.5	0.00e+00	0	30	0	460324864	48	6291
2026-01-05 01:11:53.34	199.75	27.10	-37.9	-38.8	23.6	0.00e+00	0	30	0	462422016	48	6286
2026-01-05 01:11:54.35	199.91	27.25	-37.9	-38.9	23.5	0.00e+00	0	30	0	464519168	48	6323
2026-01-05 01:11:55.36	200.08	27.40	-37.9	-38.8	23.5	0.00e+00	0	30	0	465567744	48	6264
2026-01-05 01:11:56.37	200.25	27.55	-37.9	-38.8	23.5	0.00e+00	0	30	0	467664896	48	6303
2026-01-05 01:11:57.38	200.42	27.70	-37.9	-38.8	23.4	0.00e+00	0	30	0	469762048	48	6271
2026-01-05 01:11:58.39	200.60	27.85	-37.9	-38.8	23.5	0.00e+00	0	30	0	471859200	48	6289
2026-01-05 01:11:59.40	200.77	28.00	-37.8	-38.7	23.4	0.00e+00	0	30	0	473956352	48	6245
2026-01-05 01:12:00.41	200.95	28.16	-37.9	-38.8	23.6	0.00e+00	0	30	0	475004928	48	6312
2026-01-05 01:12:01.42	201.13	28.31	-38.1	-39.0	23.4	0.00e+00	0	30	0	477102080	48	6434
2026-01-05 01:12:02.43	201.30	28.46	-38.4	-39.3	23.2	0.00e+00	0	30	0	479199232	48	6679
2026-01-05 01:12:03.44	201.49	28.62	-38.3	-39.2	23.2	0.00e+00	0	30	0	481296384	48	6609
2026-01-05 01:12:04.45	201.67	28.77	-38.4	-39.4	23.0	0.00e+00	0	30	0	483393536	48	6708
2026-01-05 01:12:05.46	201.85	28.93	-38.6	-39.6	22.9	0.00e+00	0	30	0	484442112	48	6906
2026-01-05 01:12:06.46	202.04	29.08	-38.8	-39.8	22.8	0.00e+00	0	30	0	486539264	50	6275
2026-01-05 01:12:07.47	202.23	29.24	-39.3	-40.3	22.3	0.00e+00	0	30	0	488636416	50	6653
2026-01-05 01:12:08.48	202.42	29.39	-39.3	-40.3	22.2	0.00e+00	0	30	0	490733568	50	6691
2026-01-05 01:12:09.49	202.61	29.55	-39.5	-40.6	21.9	0.00e+00	0	30	0	492830720	50	6870
2026-01-05 01:12:10.50	202.80	29.71	-40.0	-41.1	21.4	0.00e+00	0	30	0	493879296	52	6534
2026-01-05 01:12:11.51	203.00	29.87	-40.2	-41.4	21.3	0.00e+00	0	30	0	495976448	52	6736
2026-01-05 01:12:12.52	203.20	30.03	-40.2	-41.4	21.3	0.00e+00	0	30	0	498073600	52	6693
2026-01-05 01:12:13.53	203.40	30.19	-40.4	-41.6	21.0	0.00e+00	0	30	0	500170752	52	6908
2026-01-05 01:12:14.54	203.60	30.35	-40.4	-41.6	21.0	0.00e+00	0	30	0	502267904	52	6884
2026-01-05 01:12:15.55	203.80	30.51	-40.6	-41.9	20.3	0.00e+00	0	30	0	503316480	52	7104
2026-01-05 01:12:16.56	204.01	30.67	-40.7	-42.0	20.6	0.00e+00	0	30	0	505413632	54	6405
2026-01-05 01:12:17.57	204.21	30.83	-40.7	-41.9	20.7	0.00e+00	0	30	0	507510784	54	6382
2026-01-05 01:12:18.58	204.42	30.99	-40.9	-42.2	20.3	0.00e+00	0	30	0	509607936	54	6598
2026-01-05 01:12:19.59	204.63	31.15	-40.8	-42.1	20.3	0.00e+00	0	30	0	511705088	54	6526
2026-01-05 01:12:20.60	204.85	31.31	-40.8	-42.1	20.3	0.00e+00	0	30	0	512753664	54	6471
2026-01-05 01:12:21.61	205.06	31.48	-40.5	-41.8	20.7	0.00e+00	0	30	0	514850816	54	6268
2026-01-05 01:12:22.62	205.28	31.64	-40.9	-42.3	20.5	0.00e+00	0	30	0	516947968	54	6636
2026-01-05 01:12:23.63	205.50	31.81	-40.6	-41.9	20.7	0.00e+00	0	30	0	519045120	54	6347
2026-01-05 01:12:24.64	205.72	31.97	-40.7	-41.9	20.6	0.00e+00	0	30	0	521142272	54	6370
2026-01-05 01:12:25.65	205.95	32.14	-40.6	-41.9	20.7	0.00e+00	0	30	0	522190848	54	6357
2026-01-05 01:12:26.66	206.17	32.30	-40.4	-41.6	20.6	0.00e+00	0	30	0	524288000	54	6165
2026-01-05 01:12:27.67	206.40	32.47	-40.0	-41.2	21.3	0.00e+00	0	30	0	526385152	54	5843
2026-01-05 01:12:28.68	206.63	32.63	-40.6	-41.9	20.9	0.00e+00	0	30	0	528482304	54	6347
2026-01-05 01:12:29.69	206.87	32.80	-40.4	-41.6	20.8	0.00e+00	0	30	0	530579456	54	6170
2026-01-05 01:12:30.70	207.10	32.97	-39.8	-40.9	21.7	0.00e+00	0	30	0	532676608	52	6357
2026-01-05 01:12:31.71	207.34	33.14	-39.5	-40.6	21.8	0.00e+00	0	30	0	533725184	52	6154
2026-01-05 01:12:32.72	207.58	33.30	-39.4	-40.5	22.0	0.00e+00	0	30	0	535822336	52	6087
2026-01-05 01:12:33.73	207.83	33.47	-39.4	-40.5	22.1	0.00e+00	0	30	0	537919488	52	6055
2026-01-05 01:12:34.74	208.07	33.64	-38.5	-39.5	23.1	0.00e+00	0	30	0	540016640	50	6054
2026-01-05 01:12:35.75	208.32	33.81	-38.4	-39.4	23.0	0.00e+00	0	30	0	542113792	50	6023
2026-01-05 01:12:36.76	208.57	33.98	-37.8	-38.8	23.5	0.00e+00	0	30	0	543162368	50	5580
2026-01-05 01:12:37.77	208.82	34.15	-38.0	-38.9	23.5	0.00e+00	0	30	0	545259520	50	5677
2026-01-05 01:12:38.78	209.08	34.32	-37.7	-38.6	23.6	0.00e+00	0	30	0	547356672	48	6138
2026-01-05 01:12:39.79	209.34	34.49	-37.5	-38.4	23.9	0.00e+00	0	30	0	549453824	48	6011
2026-01-05 01:12:40.80	209.60	34.66	-37.4	-38.2	24.1	0.00e+00	0	30	0	551550976	48	5896
2026-01-05 01:12:41.81	209.86	34.83	-37.2	-38.1	24.3	0.00e+00	0	30	0	552599552	48	5798
2026-01-05 01:12:42.81	210.13	35.00	-37.1	-38.0	24.3	0.00e+00	0	30	0	554696704	48	5704
2026-01-05 01:12:43.82	210.40	35.17	-37.4	-38.2	24.0	0.00e+00	0	30	0	556793856	48	5884
2026-01-05 01:12:44.83	210.67	35.35	-37.7	-38.6	24.0	0.00e+00	0	30	0	558891008	48	6106
2026-01-05 01:12:45.84	210.94	35.52	-37.4	-38.3	24.0	0.00e+00	0	30	0	560988160	48	5915
2026-01-05 01:12:46.85	211.22	35.69	-37.9	-38.8	23.7	0.00e+00	0	30	0	562036736	48	6298
2026-01-05 01:12:47.86	211.50	35.86	-38.1	-39.0	23.4	0.00e+00	0	30	0	564133888	48	6446
2026-01-05 01:12:48.87	211.79	36.03	-38.3	-39.2	23.2	0.00e+00	0	30	0	566231040	48	6585
2026-01-05 01:12:49.88	212.07	36.21	-39.0	-40.0	22.5	0.00e+00	0	30	0	568328192	50	6415
2026-01-05 01:12:50.89	212.36	36.38	-38.8	-39.8	22.5	0.00e+00	0	30	0	570425344	50	6252
2026-01-05 01:12:51.90	212.65	36.55	-39.0	-40.0	22.6	0.00e+00	0	30	0	571473920	50	6415
2026-01-05 01:12:52.91	212.95	36.73	-38.5	-39.4	22.6	0.00e+00	0	30	0	573571072	50	6029
2026-01-05 01:12:53.92	213.25	36.90	-37.3	-38.2	24.1	0.00e+00	0	30	0	575668224	48	5871
2026-01-05 01:12:54.93	213.55	37.07	-36.7	-37.5	24.6	0.00e+00	0	30	0	577765376	46	6079
2026-01-05 01:12:55.93	213.85	37.24	-36.6	-37.4	24.6	0.00e+00	0	30	0	579862528	46	6020
2026-01-05 01:12:56.95	214.16	37.42	-36.9	-37.8	24.5	0.00e+00	0	30	0	580911104	46	6253
2026-01-05 01:12:57.95	214.47	37.59	-36.6	-37.4	24.7	0.00e+00	0	30	0	583008256	46	6008
2026-01-05 01:12:58.96	214.79	37.76	-36.6	-37.4	24.7	0.00e+00	0	30	0	585105408	46	6009
2026-01-05 01:12:59.97	215.10	37.94	-37.0	-37.8	24.4	0.00e+00	0	30	0	587202560	46	6287
2026-01-05 01:13:00.98	215.43	38.11	-37.2	-38.0	24.1	0.00e+00	0	30	0	589299712	46	6440
2026-01-05 01:13:01.99	215.75	38.28	-37.4	-38.3	24.2	0.00e+00	0	30	0	590348288	46	6620
2026-01-05 01:13:03.00	216.08	38.46	-37.3	-38.2	24.2	0.00e+00	0	30	0	592445440	46	6548
2026-01-05 01:13:04.01	216.41	38.63	-37.2	-38.1	24.1	0.00e+00	0	30	0	594542592	46	6497
2026-01-05 01:13:05.02	216.75	38.80	-37.6	-38.5	24.1	0.00e+00	0	30	0	596639744	46	6796
2026-01-05 01:13:06.03	217.08	38.97	-37.7	-38.6	24.2	0.00e+00	0	30	0	598736896	46	6912
2026-01-05 01:13:07.04	217.43	39.14	-37.5	-38.3	24.3	0.00e+00	0	30	0	600834048	48	5946
2026-01-05 01:13:08.05	217.77	39.32	-36.9	-37.7	24.5	0.00e+00	0	30	0	601882624	48	5546
2026-01-05 01:13:09.06	218.12	39.49	-37.1	-37.9	24.5	0.00e+00	0	30	0	603979776	48	5670
2026-01-05 01:13:10.07	218.47	39.66	-37.1	-37.9	24.4	0.00e+00	0	30	0	606076928	48	5681
2026-01-05 01:13:11.08	218.83	39.83	-37.3	-38.2	24.1	0.00e+00	0	30	0	608174080	48	5836
2026-01-05 01:13:12.09	219.19	40.00	-37.5	-38.4	23.9	0.00e+00	0	30	0	610271232	48	6010
2026-01-05 01:13:13.10	219.55	40.17	-37.7	-38.6	23.7	0.00e+00	0	30	0	611319808	48	6144
2026-01-05 01:13:14.11	219.92	40.34	-37.6	-38.5	23.8	0.00e+00	0	30	0	613416960	48	6071
2026-01-05 01:13:15.12	220.29	40.51	-37.8	-38.7	23.6	0.00e+00	0	30	0	615514112	48	6226
2026-01-05 01:13:16.13	220.67	40.68	-37.9	-38.8	23.5	0.00e+00	0	30	0	617611264	48	6301
2026-01-05 01:13:17.14	221.05	40.84	-37.9	-38.8	23.5	0.00e+00	0	30	0	619708416	48	6296
2026-01-05 01:13:18.15	221.43	41.01	-37.8	-38.7	23.6	0.00e+00	0	30	0	620756992	48	6243
2026-01-05 01:13:19.16	221.82	41.18	-37.9	-38.8	23.6	0.00e+00	0	30	0	622854144	48	6310
2026-01-05 01:13:20.17	222.21	41.34	-38.2	-39.2	23.3	0.00e+00	0	30	0	624951296	48	6548
2026-01-05 01:13:21.18	222.60	41.51	-38.6	-39.6	22.9	0.00e+00	0	30	0	627048448	48	6879
2026-01-05 01:13:22.19	223.00	41.67	-38.8	-39.8	22.8	0.00e+00	0	30	0	629145600	50	6262
2026-01-05 01:13:23.20	223.41	41.84	-38.9	-39.9	22.9	0.00e+00	0	30	0	630194176	50	6326
2026-01-05 01:13:24.21	223.81	42.00	-38.8	-39.8	22.7	0.00e+00	0	30	0	632291328	50	6305
2026-01-05 01:13:25.22	224.22	42.16	-38.5	-39.5	23.1	0.00e+00	0	30	0	634388480	50	6037
2026-01-05 01:13:26.23	224.64	42.32	-38.7	-39.7	22.9	0.00e+00	0	30	0	636485632	50	6203
2026-01-05 01:13:27.24	225.06	42.48	-38.9	-40.0	22.5	0.00e+00	0	30	0	638582784	50	6394
2026-01-05 01:13:28.25	225.48	42.64	-39.1	-40.1	22.4	0.00e+00	0	30	0	639631360	50	6515
2026-01-05 01:13:29.25	225.91	42.80	-39.0	-40.0	22.7	0.00e+00	0	30	0	641728512	50	6434
2026-01-05 01:13:30.26	226.34	42.95	-38.6	-39.6	23.0	0.00e+00	0	30	0	643825664	50	6115
2026-01-05 01:13:31.28	226.78	43.11	-38.3	-39.2	23.1	0.00e+00	0	30	0	645922816	50	5889
2026-01-05 01:13:32.28	227.21	43.26	-38.2	-39.1	23.4	0.00e+00	0	30	0	648019968	50	5819
2026-01-05 01:13:33.29	227.66	43.42	-38.3	-39.2	23.2	0.00e+00	0	30	0	649068544	50	5891
2026-01-05 01:13:34.30	228.10	43.57	-38.4	-39.4	23.1	0.00e+00	0	30	0	651165696	50	5975
2026-01-05 01:13:35.31	228.56	43.72	-39.0	-40.0	22.5	0.00e+00	0	30	0	653262848	50	6430
2026-01-05 01:13:36.32	229.01	43.87	-39.6	-40.7	21.9	0.00e+00	0	30	0	655360000	50	6928
2026-01-05 01:13:37.33	229.47	44.01	-39.8	-40.9	22.0	0.00e+00	0	30	0	657457152	52	6366
2026-01-05 01:13:38.34	229.94	44.16	-39.0	-40.0	22.6	0.00e+00	0	30	0	658505728	52	5747
2026-01-05 01:13:39.35	230.41	44.31	-38.3	-39.2	23.2	0.00e+00	0	30	0	660602880	50	5888
2026-01-05 01:13:40.36	230.88	44.45	-37.9	-38.9	23.7	0.00e+00	0	30	0	662700032	50	5633
2026-01-05 01:13:41.38	231.36	44.59	-37.7	-38.6	23.7	0.00e+00	0	30	0	664797184	48	6137
2026-01-05 01:13:42.39	231.85	44.73	-38.3	-39.2	23.2	0.00e+00	0	30	0	666894336	48	6563
2026-01-05 01:13:43.40	232.33	44.87	-39.0	-40.0	22.5	0.00e+00	0	30	0	668991488	50	6397
2026-01-05 01:13:44.41	232.82	45.01	-39.3	-40.3	22.2	0.00e+00	0	30	0	670040064	50	6687
2026-01-05 01:13:45.41	233.31	45.14	-39.2	-40.2	22.4	0.00e+00	0	30	0	672137216	50	6564
2026-01-05 01:13:46.43	233.82	45.27	-38.7	-39.6	23.0	0.00e+00	0	30	0	674234368	50	6169
2026-01-05 01:13:47.44	234.32	45.40	-37.8	-38.7	23.7	0.00e+00	0	30	0	676331520	50	5532
2026-01-05 01:13:48.45	234.83	45.53	-37.7	-38.5	23.9	0.00e+00	0	30	0	678428672	48	6088
2026-01-05 01:13:49.46	235.34	45.66	-37.4	-38.2	24.0	0.00e+00	0	30	0	679477248	48	5893
2026-01-05 01:13:50.47	235.85	45.78	-37.9	-38.8	23.4	0.00e+00	0	30	0	681574400	48	6261
2026-01-05 01:13:51.48	236.37	45.91	-38.7	-39.7	22.7	0.00e+00	0	30	0	683671552	48	6955
2026-01-05 01:13:52.49	236.89	46.03	-39.6	-40.7	21.8	0.00e+00	0	30	0	685768704	50	6980
2026-01-05 01:13:53.49	237.41	46.14	-39.8	-41.0	21.7	0.00e+00	0	30	0	687865856	52	6408
2026-01-05 01:13:54.50	237.94	46.26	-39.6	-40.6	22.0	0.00e+00	0	30	0	688914432	52	6166
2026-01-05 01:13:55.52	238.48	46.37	-39.6	-40.7	22.1	0.00e+00	0	30	0	691011584	52	6198
2026-01-05 01:13:56.53	239.02	46.48	-39.7	-40.8	21.8	0.00e+00	0	30	0	693108736	52	6252
2026-01-05 01:13:57.54	239.56	46.59	-39.8	-40.9	21.8	0.00e+00	0	30	0	695205888	52	6362
2026-01-05 01:13:58.55	240.11	46.70	-40.0	-41.1	21.6	0.00e+00	0	30	0	697303040	52	6527
2026-01-05 01:13:59.56	240.66	46.80	-39.9	-41.1	21.6	0.00e+00	0	30	0	698351616	52	6469
2026-01-05 01:14:00.57	241.21	46.90	-40.2	-41.3	21.3	0.00e+00	0	30	0	700448768	52	6692
2026-01-05 01:14:01.57	241.76	47.00	-39.8	-40.9	21.7	0.00e+00	0	30	0	702545920	52	6352
2026-01-05 01:14:02.58	242.32	47.10	-39.5	-40.6	22.0	0.00e+00	0	30	0	704643072	52	6123
2026-01-05 01:14:03.59	242.88	47.19	-39.6	-40.7	21.9	0.00e+00	0	30	0	706740224	52	6178
2026-01-05 01:14:04.60	243.45	47.28	-39.9	-41.0	21.5	0.00e+00	0	30	0	707788800	52	6451
2026-01-05 01:14:05.61	244.02	47.37	-40.0	-41.1	21.6	0.00e+00	0	30	0	709885952	52	6497
2026-01-05 01:14:06.62	244.59	47.45	-39.8	-40.9	21.7	0.00e+00	0	30	0	711983104	52	6355
2026-01-05 01:14:07.63	245.17	47.53	-39.5	-40.6	22.1	0.00e+00	0	30	0	714080256	52	6148
2026-01-05 01:14:08.64	245.75	47.61	-39.2	-40.3	22.4	0.00e+00	0	30	0	716177408	52	5920
2026-01-05 01:14:09.65	246.33	47.69	-39.1	-40.1	22.5	0.00e+00	0	30	0	717225984	52	5790
2026-01-05 01:14:10.66	246.91	47.76	-38.9	-39.9	22.5	0.00e+00	0	30	0	719323136	52	5660
2026-01-05 01:14:11.67	247.50	47.83	-39.3	-40.3	22.3	0.00e+00	0	30	0	721420288	52	5910
2026-01-05 01:14:12.68	248.09	47.90	-40.1	-41.3	21.2	0.00e+00	0	30	0	723517440	52	6655
2026-01-05 01:14:13.69	248.68	47.96	-40.1	-41.3	21.2	0.00e+00	0	30	0	725614592	52	6656
2026-01-05 01:14:14.70	249.27	48.02	-39.8	-40.9	21.9	0.00e+00	0	30	0	726663168	52	6342
2026-01-05 01:14:15.71	249.87	48.08	-39.3	-40.3	22.3	0.00e+00	0	30	0	728760320	52	5932
2026-01-05 01:14:16.72	250.47	48.13	-38.8	-39.7	22.8	0.00e+00	0	30	0	730857472	50	6241
2026-01-05 01:14:17.72	251.06	48.18	-38.8	-39.7	22.7	0.00e+00	0	30	0	732954624	50	6239
2026-01-05 01:14:18.73	251.66	48.23	-39.4	-40.4	22.2	0.00e+00	0	30	0	735051776	50	6746
2026-01-05 01:14:19.74	252.27	48.27	-39.6	-40.7	22.1	0.00e+00	0	30	0	737148928	52	6179
2026-01-05 01:14:20.75	252.87	48.31	-39.6	-40.7	21.9	0.00e+00	0	30	0	738197504	52	6236
2026-01-05 01:14:21.76	253.48	48.35	-39.1	-40.1	22.5	0.00e+00	0	30	0	740294656	52	5762
2026-01-05 01:14:22.77	254.09	48.38	-39.2	-40.3	22.4	0.00e+00	0	30	0	742391808	52	5897
2026-01-05 01:14:23.78	254.70	48.41	-39.5	-40.5	22.1	0.00e+00	0	30	0	744488960	52	6085
2026-01-05 01:14:24.79	255.31	48.44	-39.7	-40.8	21.8	0.00e+00	0	30	0	746586112	52	6302
2026-01-05 01:14:25.80	255.92	48.46	-39.9	-41.0	21.5	0.00e+00	0	30	0	747634688	52	6458
2026-01-05 01:14:26.81	256.53	48.49	-38.8	-39.8	22.6	0.00e+00	0	30	0	749731840	52	5600
2026-01-05 01:14:27.82	257.14	48.50	-38.6	-39.5	23.0	0.00e+00	0	30	0	751828992	50	6092
2026-01-05 01:14:28.82	257.75	48.52	-38.9	-39.9	22.8	0.00e+00	0	30	0	753926144	50	6332
2026-01-05 01:14:29.83	258.37	48.52	-38.6	-39.6	22.8	0.00e+00	0	30	0	756023296	50	6117
2026-01-05 01:14:30.84	258.98	48.53	-38.7	-39.7	22.6	0.00e+00	0	30	0	757071872	50	6222
2026-01-05 01:14:31.85	259.59	48.53	-38.6	-39.6	23.1	0.00e+00	0	30	0	759169024	50	6134
2026-01-05 01:14:32.86	260.21	48.53	-38.5	-39.4	23.1	0.00e+00	0	30	0	761266176	50	6016
2026-01-05 01:14:33.87	260.82	48.53	-38.3	-39.3	23.2	0.00e+00	0	30	0	763363328	50	5936
2026-01-05 01:14:34.88	261.44	48.52	-38.4	-39.4	22.9	0.00e+00	0	30	0	765460480	50	5988
2026-01-05 01:14:35.89	262.05	48.51	-38.5	-39.5	23.0	0.00e+00	0	30	0	766509056	50	6053
2026-01-05 01:14:36.90	262.67	48.50	-38.4	-39.3	23.3	0.00e+00	0	30	0	768606208	50	5917
2026-01-05 01:14:37.91	263.28	48.48	-38.6	-39.6	23.0	0.00e+00	0	30	0	770703360	50	6125
2026-01-05 01:14:38.92	263.89	48.46	-38.7	-39.6	22.8	0.00e+00	0	30	0	772800512	50	6162
2026-01-05 01:14:39.93	264.50	48.43	-38.7	-39.7	22.9	0.00e+00	0	30	0	774897664	50	6215
2026-01-05 01:14:40.94	265.11	48.40	-39.3	-40.3	22.2	0.00e+00	0	30	0	775946240	50	6684
2026-01-05 01:14:41.95	265.72	48.37	-39.4	-40.5	22.2	0.00e+00	0	30	0	778043392	50	6791
2026-01-05 01:14:42.96	266.33	48.34	-39.6	-40.7	21.8	0.00e+00	0	30	0	780140544	50	6960
2026-01-05 01:14:43.97	266.93	48.30	-39.1	-40.1	22.6	0.00e+00	0	30	0	782237696	50	6503
2026-01-05 01:14:44.98	267.54	48.26	-39.7	-40.8	22.4	0.00e+00	0	30	0	784334848	50	7054
2026-01-05 01:14:45.99	268.14	48.21	-39.1	-40.1	22.7	0.00e+00	0	30	0	785383424	50	6527
2026-01-05 01:14:47.00	268.74	48.16	-39.2	-40.2	22.1	0.00e+00	0	30	0	787480576	50	6600
2026-01-05 01:14:48.01	269.34	48.11	-39.9	-41.1	21.5	0.00e+00	0	30	0	789577728	52	6471
2026-01-05 01:14:49.02	269.94	48.06	-40.2	-41.4	21.3	0.00e+00	0	30	0	791674880	52	6719
2026-01-05 01:14:50.03	270.53	48.00	-39.3	-40.4	22.2	0.00e+00	0	30	0	793772032	52	5971
2026-01-05 01:14:51.04	271.13	47.94	-39.2	-40.3	22.7	0.00e+00	0	30	0	794820608	52	5904
2026-01-05 01:14:52.05	271.72	47.87	-38.8	-39.8	22.6	0.00e+00	0	30	0	796917760	52	5593
2026-01-05 01:14:53.06	272.30	47.81	-39.9	-41.0	21.8	0.00e+00	0	30	0	799014912	52	6417
2026-01-05 01:14:54.07	272.89	47.74	-39.7	-40.8	21.9	0.00e+00	0	30	0	801112064	52	6289
2026-01-05 01:14:55.08	273.47	47.66	-38.9	-39.9	22.8	0.00e+00	0	30	0	803209216	52	5642
2026-01-05 01:14:56.08	274.04	47.59	-39.0	-40.0	22.7	0.00e+00	0	30	0	805306368	52	5707
2026-01-05 01:14:57.09	274.62	47.51	-39.4	-40.4	22.2	0.00e+00	0	30	0	806354944	52	5999
2026-01-05 01:14:58.10	275.19	47.43	-40.5	-41.7	21.2	0.00e+00	0	30	0	808452096	52	7003
2026-01-05 01:14:59.11	275.77	47.34	-40.9	-42.2	20.6	0.00e+00	0	30	0	810549248	54	6561
2026-01-05 01:15:00.12	276.33	47.25	-40.9	-42.1	20.8	0.00e+00	0	30	0	812646400	54	6528
2026-01-05 01:15:01.13	276.90	47.16	-39.9	-41.0	21.7	0.00e+00	0	30	0	814743552	54	5718
2026-01-05 01:15:02.14	277.46	47.07	-39.7	-40.8	22.0	0.00e+00	0	30	0	815792128	52	6282
2026-01-05 01:15:03.15	278.02	46.97	-40.4	-41.6	21.2	0.00e+00	0	30	0	817889280	52	6870
2026-01-05 01:15:04.16	278.57	46.87	-41.2	-42.5	20.3	0.00e+00	0	30	0	819986432	54	6781
2026-01-05 01:15:05.17	279.12	46.77	-41.8	-43.2	20.0	0.00e+00	0	30	0	822083584	56	6565
2026-01-05 01:15:06.18	279.67	46.67	-41.6	-42.9	20.3	0.00e+00	0	30	0	824180736	56	6350
2026-01-05 01:15:07.19	280.21	46.56	-41.4	-42.7	20.5	0.00e+00	0	30	0	825229312	56	6217
2026-01-05 01:15:08.20	280.75	46.45	-41.3	-42.6	20.3	0.00e+00	0	30	0	827326464	56	6113
2026-01-05 01:15:09.21	281.29	46.34	-41.5	-42.8	20.3	0.00e+00	0	30	0	829423616	56	6307
2026-01-05 01:15:10.22	281.82	46.23	-42.1	-43.4	20.2	0.00e+00	0	30	0	831520768	56	6749
2026-01-05 01:15:11.23	282.35	46.11	-42.0	-43.3	20.1	0.00e+00	0	30	0	833617920	56	6667
2026-01-05 01:15:12.24	282.87	45.99	-41.4	-42.6	21.1	0.00e+00	0	30	0	834666496	56	6125
2026-01-05 01:15:13.25	283.39	45.87	-40.5	-41.7	21.4	0.00e+00	0	30	0	836763648	56	5517
2026-01-05 01:15:14.26	283.91	45.75	-40.7	-41.9	20.8	0.00e+00	0	30	0	838860800	54	6345
2026-01-05 01:15:15.27	284.42	45.62	-41.5	-42.9	20.1	0.00e+00	0	30	0	840957952	54	7101
2026-01-05 01:15:16.28	284.93	45.50	-41.4	-42.7	20.4	0.00e+00	0	30	0	843055104	56	6242
2026-01-05 01:15:17.28	285.43	45.37	-40.2	-41.4	21.7	0.00e+00	0	30	0	844103680	54	5980
2026-01-05 01:15:18.29	285.93	45.24	-39.1	-40.1	22.9	0.00e+00	0	30	0	846200832	52	5779
2026-01-05 01:15:19.30	286.42	45.10	-38.7	-39.6	23.2	0.00e+00	0	30	0	848297984	50	6138
2026-01-05 01:15:20.31	286.92	44.97	-39.4	-40.3	22.7	0.00e+00	0	30	0	850395136	50	6674
2026-01-05 01:15:21.32	287.40	44.83	-39.4	-40.3	22.2	0.00e+00	0	30	0	852492288	52	5951
2026-01-05 01:15:22.33	287.89	44.70	-39.5	-40.5	23.0	0.00e+00	0	30	0	853540864	52	6062
2026-01-05 01:15:23.34	288.37	44.56	-38.4	-39.3	23.3	0.00e+00	0	30	0	855638016	50	5933
2026-01-05 01:15:24.35	288.84	44.41	-38.7	-39.6	23.6	0.00e+00	0	30	0	857735168	50	6148
2026-01-05 01:15:25.36	289.31	44.27	-38.3	-39.1	23.6	0.00e+00	0	30	0	859832320	50	5820
2026-01-05 01:15:26.37	289.78	44.13	-38.4	-39.3	23.3	0.00e+00	0	30	0	861929472	50	5941
2026-01-05 01:15:27.38	290.24	43.98	-38.1	-39.0	23.5	0.00e+00	0	30	0	862978048	50	5718
2026-01-05 01:15:28.39	290.70	43.83	-37.8	-38.6	23.7	0.00e+00	0	30	0	865075200	50	5495
2026-01-05 01:15:29.40	291.16	43.68	-37.5	-38.4	24.2	0.00e+00	0	30	0	867172352	48	5986
2026-01-05 01:15:30.41	291.61	43.53	-37.5	-38.3	24.2	0.00e+00	0	30	0	869269504	48	5950
2026-01-05 01:15:31.42	292.05	43.38	-37.5	-38.4	24.3	0.00e+00	0	30	0	871366656	48	6004
2026-01-05 01:15:32.43	292.49	43.23	-36.9	-37.7	24.7	0.00e+00	0	30	0	873463808	48	5537
2026-01-05 01:15:33.44	292.93	43.07	-36.7	-37.5	25.0	0.00e+00	0	30	0	874512384	46	6065
2026-01-05 01:15:34.45	293.37	42.92	-36.8	-37.6	24.6	0.00e+00	0	30	0	876609536	46	6167
2026-01-05 01:15:35.46	293.80	42.76	-37.1	-37.9	24.3	0.00e+00	0	30	0	878706688	46	6353
2026-01-05 01:15:36.47	294.22	42.61	-37.4	-38.2	24.2	0.00e+00	0	30	0	880803840	46	6595
2026-01-05 01:15:37.48	294.64	42.45	-36.8	-37.6	24.8	0.00e+00	0	30	0	882900992	46	6171
2026-01-05 01:15:38.49	295.06	42.29	-36.4	-37.1	25.1	0.00e+00	0	30	0	883949568	46	5818
2026-01-05 01:15:39.50	295.47	42.13	-36.5	-37.3	25.0	0.00e+00	0	30	0	886046720	46	5901
2026-01-05 01:15:40.51	295.88	41.97	-37.4	-38.2	24.4	0.00e+00	0	30	0	888143872	46	6572
2026-01-05 01:15:41.52	296.28	41.80	-37.5	-38.4	24.1	0.00e+00	0	30	0	890241024	46	6719
2026-01-05 01:15:42.54	296.69	41.64	-38.0	-38.9	23.6	0.00e+00	0	30	0	892338176	48	6377
2026-01-05 01:15:43.55	297.09	41.48	-38.0	-38.9	23.8	0.00e+00	0	30	0	893386752	48	6351
2026-01-05 01:15:44.56	297.48	41.31	-37.2	-38.1	24.2	0.00e+00	0	30	0	895483904	48	5780
2026-01-05 01:15:45.57	297.87	41.15	-36.9	-37.7	24.6	0.00e+00	0	30	0	897581056	48	5556
2026-01-05 01:15:46.58	298.25	40.98	-37.4	-38.3	24.1	0.00e+00	0	30	0	899678208	48	5911
2026-01-05 01:15:47.59	298.63	40.81	-38.6	-39.5	23.0	0.00e+00	0	30	0	901775360	48	6826
2026-01-05 01:15:48.60	299.01	40.65	-38.8	-39.8	22.9	0.00e+00	0	30	0	902823936	50	6275
2026-01-05 01:15:49.61	299.38	40.48	-37.9	-38.7	23.9	0.00e+00	0	30	0	904921088	50	5560
2026-01-05 01:15:50.62	299.75	40.31	-37.3	-38.1	24.3	0.00e+00	0	30	0	907018240	48	5798
2026-01-05 01:15:51.62	300.12	40.14	-37.2	-38.0	24.3	0.00e+00	0	30	0	909115392	48	5705
2026-01-05 01:15:52.63	300.48	39.97	-37.7	-38.6	24.1	0.00e+00	0	30	0	911212544	48	6141
2026-01-05 01:15:53.65	300.84	39.80	-38.4	-39.3	23.4	0.00e+00	0	30	0	912261120	48	6687
2026-01-05 01:15:54.66	301.19	39.63	-39.4	-40.4	22.9	0.00e+00	0	30	0	914358272	50	6718
2026-01-05 01:15:55.67	301.54	39.46	-39.3	-40.3	23.0	0.00e+00	0	30	0	916455424	50	6642
2026-01-05 01:15:56.68	301.89	39.29	-38.4	-39.3	23.6	0.00e+00	0	30	0	918552576	50	5961
2026-01-05 01:15:57.69	302.24	39.12	-38.0	-38.8	24.2	0.00e+00	0	30	0	920649728	50	5621
2026-01-05 01:15:58.70	302.58	38.95	-38.1	-39.0	24.1	0.00e+00	0	30	0	921698304	48	6417
2026-01-05 01:15:59.71	302.91	38.78	-38.8	-39.8	23.3	0.00e+00	0	30	0	923795456	50	6251
2026-01-05 01:16:00.71	303.24	38.61	-39.6	-40.6	22.5	0.00e+00	0	30	0	925892608	50	6889
2026-01-05 01:16:01.72	303.57	38.44	-39.4	-40.4	22.5	0.00e+00	0	30	0	927989760	52	6022
2026-01-05 01:16:02.73	303.90	38.26	-38.8	-39.7	23.6	0.00e+00	0	30	0	930086912	52	5560
2026-01-05 01:16:03.74	304.22	38.09	-37.8	-38.6	24.4	0.00e+00	0	30	0	931135488	50	5456
2026-01-05 01:16:04.75	304.54	37.92	-37.6	-38.4	24.1	0.00e+00	0	30	0	933232640	48	6029
2026-01-05 01:16:05.76	304.86	37.75	-38.2	-39.1	23.5	0.00e+00	0	30	0	935329792	48	6496
2026-01-05 01:16:06.77	305.17	37.58	-39.9	-41.0	21.8	0.00e+00	0	30	0	937426944	52	6442
2026-01-05 01:16:07.78	305.48	37.40	-41.0	-42.3	21.0	0.00e+00	0	30	0	939524096	54	6633
2026-01-05 01:16:08.79	305.79	37.23	-40.3	-41.4	21.8	0.00e+00	0	30	0	941621248	54	6019
2026-01-05 01:16:09.80	306.09	37.06	-40.3	-41.4	22.6	0.00e+00	0	30	0	942669824	52	6711
2026-01-05 01:16:10.81	306.39	36.89	-38.1	-39.0	23.9	0.00e+00	0	30	0	944766976	50	5714
2026-01-05 01:16:11.82	306.69	36.71	-38.5	-39.3	23.7	0.00e+00	0	30	0	946864128	50	5956
2026-01-05 01:16:12.83	306.98	36.54	-40.0	-41.0	22.5	0.00e+00	0	30	0	948961280	52	6425
2026-01-05 01:16:13.84	307.27	36.37	-41.1	-42.1	21.7	0.00e+00	0	30	0	951058432	54	6507
2026-01-05 01:16:14.85	307.56	36.20	-41.8	-43.2	19.3	0.00e+00	0	30	0	952107008	56	6548
2026-01-05 01:16:15.85	307.84	36.03	-42.5	-44.0	19.6	0.00e+00	0	30	0	954204160	58	6402
2026-01-05 01:16:16.86	308.12	35.86	-40.3	-41.4	21.9	0.00e+00	0	30	0	956301312	54	6023
2026-01-05 01:16:17.87	308.40	35.69	-39.2	-40.2	23.1	0.00e+00	0	30	0	958398464	52	5839
2026-01-05 01:16:18.88	308.68	35.51	-38.9	-39.7	24.0	0.00e+00	0	30	0	960495616	50	6224
2026-01-05 01:16:19.89	308.95	35.34	-38.3	-39.2	23.6	0.00e+00	0	30	0	961544192	50	5849
2026-01-05 01:16:20.90	309.22	35.17	-39.7	-40.6	22.9	0.00e+00	0	30	0	963641344	50	6923
2026-01-05 01:16:21.91	309.49	35.00	-40.2	-41.4	21.2	0.00e+00	0	30	0	965738496	52	6696
2026-01-05 01:16:22.92	309.76	34.83	-42.4	-43.9	20.2	0.00e+00	0	30	0	967835648	54	8032
2026-01-05 01:16:23.93	310.02	34.66	-41.7	-43.0	21.1	0.00e+00	0	30	0	969932800	56	6434
2026-01-05 01:16:24.94	310.28	34.49	-40.4	-41.5	21.6	0.00e+00	0	30	0	970981376	54	6059
2026-01-05 01:16:25.95	310.54	34.32	-39.2	-40.1	23.0	0.00e+00	0	30	0	973078528	52	5811
2026-01-05 01:16:26.95	310.79	34.15	-39.0	-39.9	23.1	0.00e+00	0	30	0	975175680	50	6352
2026-01-05 01:16:27.96	311.04	33.99	-39.0	-39.9	23.3	0.00e+00	0	30	0	977272832	50	6379
2026-01-05 01:16:28.97	311.29	33.82	-40.0	-41.0	22.7	0.00e+00	0	30	0	979369984	52	6395
2026-01-05 01:16:29.98	311.54	33.65	-40.9	-42.1	21.2	0.00e+00	0	30	0	980418560	54	6510
2026-01-05 01:16:30.99	311.78	33.48	-41.9	-43.4	19.9	0.00e+00	0	30	0	982515712	56	6696
2026-01-05 01:16:32.00	312.02	33.31	-42.6	-44.2	19.0	0.00e+00	0	30	0	984612864	56	7411
2026-01-05 01:16:33.00	312.26	33.15	-42.1	-43.7	19.8	0.00e+00	0	30	0	986710016	56	6935
2026-01-05 01:16:34.01	312.50	32.98	-41.0	-42.3	21.0	0.00e+00	0	30	0	988807168	56	5930
2026-01-05 01:16:35.02	312.73	32.82	-39.5	-40.5	22.6	0.00e+00	0	30	0	989855744	52	6069
2026-01-05 01:16:36.03	312.97	32.65	-39.2	-40.2	22.3	0.00e+00	0	30	0	991952896	50	6542
2026-01-05 01:16:37.04	313.20	32.48	-39.4	-40.2	23.6	0.00e+00	0	30	0	994050048	50	6615
2026-01-05 01:16:38.05	313.42	32.32	-39.1	-40.1	22.8	0.00e+00	0	30	0	996147200	50	6495
2026-01-05 01:16:39.06	313.65	32.15	-40.0	-41.1	22.1	0.00e+00	0	30	0	998244352	52	6484
2026-01-05 01:16:40.07	313.87	31.99	-41.1	-42.4	20.4	0.00e+00	0	30	0	999292928	54	6729
2026-01-05 01:16:41.08	314.09	31.83	-42.6	-44.3	18.8	0.00e+00	0	30	0	1001390080	56	7452
2026-01-05 01:16:42.10	314.32	31.66	-42.8	-44.7	18.3	0.00e+00	0	30	0	1003487232	58	6929
2026-01-05 01:16:43.11	314.53	31.50	-42.3	-43.9	19.4	0.00e+00	0	30	0	1005584384	58	6371
2026-01-05 01:16:44.11	314.74	31.34	-41.0	-42.2	21.0	0.00e+00	0	30	0	1007681536	56	5889
2026-01-05 01:16:45.13	314.96	31.18	-39.3	-40.3	22.7	0.00e+00	0	30	0	1009778688	52	5925
2026-01-05 01:16:46.13	315.17	31.02	-38.9	-39.8	23.3	0.00e+00	0	30	0	1010827264	52	5607
2026-01-05 01:16:47.14	315.38	30.85	-38.6	-39.5	23.5	0.00e+00	0	30	0	1012924416	50	6046
2026-01-05 01:16:48.15	315.58	30.69	-38.2	-39.1	23.8	0.00e+00	0	30	0	1015021568	50	5781
2026-01-05 01:16:49.16	315.79	30.53	-38.3	-39.2	23.5	0.00e+00	0	30	0	1017118720	50	5851
2026-01-05 01:16:50.17	315.99	30.38	-39.2	-40.1	22.8	0.00e+00	0	30	0	1019215872	50	6532
2026-01-05 01:16:51.18	316.19	30.22	-40.2	-41.3	22.0	0.00e+00	0	30	0	1020264448	52	6670
2026-01-05 01:16:52.19	316.39	30.06	-40.5	-41.7	21.6	0.00e+00	0	30	0	1022361600	52	6956
2026-01-05 01:16:53.20	316.59	29.90	-40.7	-41.9	21.3	0.00e+00	0	30	0	1024458752	54	6373
2026-01-05 01:16:54.21	316.78	29.74	-40.2	-41.4	21.6	0.00e+00	0	30	0	1026555904	54	5970
2026-01-05 01:16:55.21	316.97	29.59	-40.0	-41.1	22.0	0.00e+00	0	30	0	1028653056	54	5767
2026-01-05 01:16:56.22	317.16	29.43	-39.9	-41.0	22.4	0.00e+00	0	30	0	1029701632	52	6435
2026-01-05 01:16:57.23	317.35	29.28	-39.2	-40.1	23.0	0.00e+00	0	30	0	1031798784	52	5801
2026-01-05 01:16:58.24	317.54	29.12	-38.9	-39.9	23.1	0.00e+00	0	30	0	1033895936	52	5666
2026-01-05 01:16:59.25	317.73	28.97	-38.8	-39.8	23.1	0.00e+00	0	30	0	1035993088	50	6254
2026-01-05 01:17:00.26	317.91	28.81	-39.6	-40.6	22.7	0.00e+00	0	30	0	1038090240	50	6890
2026-01-05 01:17:01.27	318.09	28.66	-39.6	-40.6	22.5	0.00e+00	0	30	0	1039138816	52	6131
2026-01-05 01:17:02.28	318.27	28.51	-40.1	-41.2	21.8	0.00e+00	0	30	0	1041235968	52	6549
2026-01-05 01:17:03.29	318.45	28.35	-39.7	-40.8	22.2	0.00e+00	0	30	0	1043333120	52	6269
2026-01-05 01:17:04.30	318.63	28.20	-39.5	-40.6	22.3	0.00e+00	0	30	0	1045430272	52	6123
2026-01-05 01:17:05.31	318.81	28.05	-39.6	-40.6	22.8	0.00e+00	0	30	0	1047527424	52	6110
2026-01-05 01:17:06.32	318.98	27.90	-38.6	-39.5	23.3	0.00e+00	0	30	0	1048576000	50	6071
2026-01-05 01:17:07.33	319.15	27.75	-38.0	-38.9	23.8	0.00e+00	0	30	0	1050673152	50	5649
2026-01-05 01:17:08.34	319.32	27.60	-37.5	-38.3	24.4	0.00e+00	0	30	0	1052770304	48	5950
2026-01-05 01:17:09.35	319.49	27.45	-37.1	-37.9	24.4	0.00e+00	0	30	0	1054867456	48	5657
2026-01-05 01:17:10.36	319.66	27.30	-37.2	-38.0	24.7	0.00e+00	0	30	0	1056964608	48	5732
2026-01-05 01:17:11.36	319.83	27.15	-37.4	-38.2	24.6	0.00e+00	0	30	0	1058013184	48	5864
2026-01-05 01:17:12.37	319.99	27.01	-37.4	-38.2	24.4	0.00e+00	0	30	0	1060110336	48	5852
2026-01-05 01:17:13.38	320.16	26.86	-37.8	-38.6	24.1	0.00e+00	0	30	0	1062207488	48	6164
2026-01-05 01:17:14.40	320.32	26.71	-38.3	-39.2	23.6	0.00e+00	0	30	0	1064304640	48	6553
2026-01-05 01:17:15.40	320.48	26.57	-38.6	-39.5	23.2	0.00e+00	0	30	0	1066401792	48	6796
2026-01-05 01:17:16.41	320.64	26.42	-38.5	-39.5	23.2	0.00e+00	0	30	0	1067450368	48	6782
2026-01-05 01:17:17.42	320.80	26.28	-38.4	-39.3	23.2	0.00e+00	0	30	0	1069547520	50	5957
2026-01-05 01:17:18.43	320.95	26.13	-38.2	-39.1	23.4	0.00e+00	0	30	0	1071644672	50	5798
2026-01-05 01:17:19.44	321.11	25.99	-38.4	-39.3	23.5	0.00e+00	0	30	0	1073741824	50	5939
2026-01-05 01:17:20.45	321.26	25.85	-38.0	-38.9	23.6	0.00e+00	0	30	0	1075838976	50	5659
2026-01-05 01:17:21.46	321.41	25.71	-37.8	-38.7	23.6	0.00e+00	0	30	0	1077936128	50	5548
2026-01-05 01:17:22.47	321.56	25.56	-37.9	-38.8	23.6	0.00e+00	0	30	0	1078984704	50	5578
2026-01-05 01:17:23.48	321.71	25.42	-37.7	-38.6	23.7	0.00e+00	0	30	0	1081081856	48	6106
2026-01-05 01:17:24.49	321.86	25.28	-37.7	-38.5	23.8	0.00e+00	0	30	0	1083179008	48	6095
2026-01-05 01:17:25.50	322.01	25.14	-37.9	-38.8	23.9	0.00e+00	0	30	0	1085276160	48	6268
2026-01-05 01:17:26.51	322.16	25.00	-37.7	-38.6	23.8	0.00e+00	0	30	0	1087373312	48	6118
2026-01-05 01:17:27.52	322.30	24.86	-37.6	-38.5	23.9	0.00e+00	0	30	0	1088421888	48	6041
2026-01-05 01:17:28.53	322.44	24.72	-37.6	-38.5	23.9	0.00e+00	0	30	0	1090519040	48	6038
2026-01-05 01:17:29.53	322.59	24.59	-37.8	-38.6	23.7	0.00e+00	0	30	0	1092616192	48	6172
2026-01-05 01:17:30.54	322.73	24.45	-37.9	-38.8	23.6	0.00e+00	0	30	0	1094713344	48	6307
2026-01-05 01:17:31.55	322.87	24.31	-38.1	-39.0	23.4	0.00e+00	0	30	0	1095761920	48	6426
2026-01-05 01:17:32.56	323.00	24.18	-38.3	-39.3	23.2	0.00e+00	0	30	0	1097859072	48	6632
2026-01-05 01:17:33.57	323.14	24.04	-38.7	-39.7	22.9	0.00e+00	0	30	0	1099956224	50	6179
2026-01-05 01:17:34.58	323.28	23.91	-39.1	-40.2	22.5	0.00e+00	0	30	0	1102053376	50	6546
2026-01-05 01:17:35.59	323.41	23.77	-39.3	-40.3	22.3	0.00e+00	0	30	0	1104150528	50	6665
2026-01-05 01:17:36.60	323.55	23.64	-39.4	-40.5	22.1	0.00e+00	0	30	0	1106247680	50	6829
2026-01-05 01:17:37.61	323.68	23.50	-39.4	-40.4	22.5	0.00e+00	0	30	0	1107296256	50	6752
2026-01-05 01:17:38.62	323.81	23.37	-39.0	-40.0	22.6	0.00e+00	0	30	0	1109393408	50	6427
2026-01-05 01:17:39.63	323.94	23.24	-38.5	-39.5	22.9	0.00e+00	0	30	0	1111490560	50	6072
2026-01-05 01:17:40.64	324.07	23.11	-38.4	-39.4	23.2	0.00e+00	0	30	0	1113587712	50	5983
2026-01-05 01:17:41.65	324.20	22.97	-38.2	-39.1	23.4	0.00e+00	0	30	0	1115684864	50	5811
2026-01-05 01:17:42.66	324.33	22.84	-38.4	-39.3	23.5	0.00e+00	0	30	0	1116733440	50	5906
2026-01-05 01:17:43.67	324.46	22.71	-38.3	-39.2	23.4	0.00e+00	0	30	0	1118830592	50	5892
2026-01-05 01:17:44.68	324.58	22.58	-38.4	-39.3	23.3	0.00e+00	0	30	0	1120927744	50	5917
2026-01-05 01:17:45.69	324.71	22.45	-38.3	-39.2	23.4	0.00e+00	0	30	0	1123024896	50	5843
2026-01-05 01:17:46.69	324.83	22.33	-38.5	-39.4	23.2	0.00e+00	0	30	0	1125122048	50	6004
2026-01-05 01:17:47.71	324.95	22.20	-38.5	-39.5	23.1	0.00e+00	0	30	0	1126170624	50	6045
2026-01-05 01:17:48.71	325.07	22.07	-38.6	-39.6	23.1	0.00e+00	0	30	0	1128267776	50	6137
2026-01-05 01:17:49.72	325.20	21.94	-38.6	-39.6	23.1	0.00e+00	0	30	0	1130364928	50	6112
2026-01-05 01:17:50.73	325.32	21.82	-38.7	-39.6	23.1	0.00e+00	0	30	0	1132462080	50	6134
2026-01-05 01:17:51.74	325.43	21.69	-38.7	-39.7	23.1	0.00e+00	0	30	0	1134559232	50	6208
2026-01-05 01:17:52.75	325.55	21.56	-39.2	-40.2	23.0	0.00e+00	0	30	0	1135607808	50	6582
2026-01-05 01:17:53.76	325.67	21.44	-38.5	-39.4	23.3	0.00e+00	0	30	0	1137704960	50	6024
2026-01-05 01:17:54.77	325.79	21.31	-38.2	-39.2	23.4	0.00e+00	0	30	0	1139802112	50	5835
2026-01-05 01:17:55.78	325.90	21.19	-38.6	-39.5	23.3	0.00e+00	0	30	0	1141899264	50	6096
2026-01-05 01:17:56.79	326.02	21.07	-38.2	-39.1	23.3	0.00e+00	0	30	0	1143996416	50	5820
2026-01-05 01:17:57.80	326.13	20.94	-38.0	-38.9	23.5	0.00e+00	0	30	0	1145044992	50	5672
2026-01-05 01:17:58.81	326.24	20.82	-38.2	-39.1	23.3	0.00e+00	0	30	0	1147142144	50	5790
2026-01-05 01:17:59.82	326.35	20.70	-38.0	-39.0	23.4	0.00e+00	0	30	0	1149239296	50	5709
2026-01-05 01:18:00.83	326.46	20.58	-38.4	-39.3	23.3	0.00e+00	0	30	0	1151336448	50	5914
2026-01-05 01:18:01.83	326.57	20.46	-38.3	-39.2	23.3	0.00e+00	0	30	0	1153433600	50	5886
2026-01-05 01:18:02.85	326.68	20.33	-38.4	-39.3	23.1	0.00e+00	0	30	0	1154482176	50	5958
2026-01-05 01:18:03.85	326.79	20.21	-38.4	-39.4	23.0	0.00e+00	0	30	0	1156579328	50	5994
2026-01-05 01:18:04.86	326.90	20.09	-38.7	-39.6	23.1	0.00e+00	0	30	0	1158676480	50	6159
2026-01-05 01:18:05.87	327.01	19.97	-38.5	-39.4	23.1	0.00e+00	0	30	0	1160773632	50	6000
2026-01-05 01:18:06.88	327.11	19.86	-38.4	-39.4	23.0	0.00e+00	0	30	0	1162870784	50	5990
2026-01-05 01:18:07.89	327.22	19.74	-38.5	-39.5	23.1	0.00e+00	0	30	0	1163919360	50	6036
2026-01-05 01:18:08.90	327.32	19.62	-38.6	-39.6	23.0	0.00e+00	0	30	0	1166016512	50	6123
2026-01-05 01:18:09.91	327.43	19.50	-38.6	-39.6	23.0	0.00e+00	0	30	0	1168113664	50	6128
2026-01-05 01:18:10.92	327.53	19.39	-38.6	-39.5	23.1	0.00e+00	0	30	0	1170210816	50	6080
2026-01-05 01:18:11.93	327.63	19.27	-39.0	-39.9	22.7	0.00e+00	0	30	0	1172307968	50	6381
2026-01-05 01:18:12.94	327.73	19.15	-39.2	-40.2	22.5	0.00e+00	0	30	0	1174405120	50	6604
2026-01-05 01:18:13.95	327.83	19.04	-38.9	-39.9	22.7	0.00e+00	0	30	0	1175453696	50	6321
2026-01-05 01:18:14.96	327.93	18.92	-38.8	-39.8	22.6	0.00e+00	0	30	0	1177550848	50	6300
2026-01-05 01:18:15.97	328.03	18.81	-38.9	-39.9	22.6	0.00e+00	0	30	0	1179648000	50	6332
2026-01-05 01:18:16.98	328.13	18.69	-38.9	-40.0	22.5	0.00e+00	0	30	0	1181745152	50	6401
2026-01-05 01:18:17.99	328.23	18.58	-39.0	-40.1	22.5	0.00e+00	0	30	0	1183842304	50	6478
2026-01-05 01:18:19.00	328.33	18.47	-38.9	-40.0	22.7	0.00e+00	0	30	0	1184890880	50	6394
2026-01-05 01:18:20.01	328.42	18.35	-38.7	-39.7	22.7	0.00e+00	0	30	0	1186988032	50	6238
2026-01-05 01:18:21.01	328.52	18.24	-39.0	-40.0	22.7	0.00e+00	0	30	0	1189085184	50	6404
2026-01-05 01:18:22.02	328.61	18.13	-39.2	-40.3	22.3	0.00e+00	0	30	0	1191182336	50	6629
2026-01-05 01:18:23.04	328.71	18.02	-38.8	-39.8	22.7	0.00e+00	0	30	0	1193279488	50	6270
2026-01-05 01:18:24.05	328.80	17.91	-39.1	-40.1	22.7	0.00e+00	0	30	0	1194328064	50	6483
2026-01-05 01:18:25.06	328.90	17.80	-39.0	-40.0	22.6	0.00e+00	0	30	0	1196425216	50	6433
2026-01-05 01:18:26.06	328.99	17.69	-39.2	-40.2	22.4	0.00e+00	0	30	0	1198522368	50	6547
2026-01-05 01:18:27.07	329.08	17.58	-38.8	-39.8	22.7	0.00e+00	0	30	0	1200619520	50	6288
2026-01-05 01:18:28.08	329.17	17.47	-39.1	-40.1	22.6	0.00e+00	0	30	0	1202716672	50	6533
2026-01-05 01:18:29.09	329.26	17.36	-38.7	-39.7	22.9	0.00e+00	0	30	0	1203765248	50	6209
