passes_logs/2026/01/05/R4.6S_Anadyr/R4.6S_Anadyr__20260105_185925_FENGYUN_3E_rec.log

#Pass ID: 20260105_185925_FENGYUN 3E
#Satellite: FENGYUN 3E
#Configuration: FENGYUN 3E
#almurnet v.1.7.20251203
#Start time: 2026-01-05 18:59:26

#Version: 2.2.20231116
#Station: R4.6S_Anadyr
#Location: 177.4865 lon 64.73178 lat
#TLE: 1 49008U 21062A   26004.99925679  .00000018  00000+0  29282-4 0  9995
#TLE: 2 49008  98.7472  10.2448 0001540 159.6420 200.4818 14.19883565233423

#Time	Az	El	Level	Level2	SNR	BER	BlckErr	Temp	State	Recorded	gain1	gain2
2026-01-05 18:59:26.87	20.45	0.06	-48.7	-63.5	3.5	1.51e+00	0	31	0	0	60	54168
2026-01-05 18:59:27.87	20.46	0.12	-48.5	-59.7	3.6	8.45e-01	0	32	104	0	60	34948
2026-01-05 18:59:28.88	20.46	0.18	-48.4	-59.7	3.6	8.45e-01	0	32	104	0	60	34807
2026-01-05 18:59:29.89	20.47	0.24	-48.5	-59.7	3.6	8.44e-01	0	32	104	0	60	34817
2026-01-05 18:59:30.90	20.47	0.30	-48.4	-59.7	3.6	8.44e-01	0	32	104	0	60	34773
2026-01-05 18:59:31.91	20.48	0.36	-48.5	-59.7	3.6	8.45e-01	0	32	104	0	60	34806
2026-01-05 18:59:32.92	20.48	0.42	-48.5	-59.7	3.6	8.45e-01	0	32	104	0	60	35115
2026-01-05 18:59:33.93	20.49	0.49	-48.4	-59.7	3.6	8.46e-01	0	32	104	0	60	34957
2026-01-05 18:59:34.94	20.49	0.55	-48.4	-59.7	3.5	8.46e-01	0	32	104	0	60	34839
2026-01-05 18:59:35.95	20.50	0.61	-48.4	-59.6	3.6	8.45e-01	0	32	104	0	60	34513
2026-01-05 18:59:36.96	20.50	0.67	-48.3	-59.5	3.6	8.44e-01	0	32	104	0	60	34079
2026-01-05 18:59:37.97	20.51	0.73	-48.1	-59.4	3.6	8.44e-01	0	32	104	0	60	33828
2026-01-05 18:59:38.98	20.51	0.79	-48.0	-59.2	3.6	8.46e-01	0	32	104	0	60	33053
2026-01-05 18:59:39.99	20.52	0.85	-47.9	-59.0	3.6	8.46e-01	0	32	104	0	60	32271
2026-01-05 18:59:41.00	20.52	0.92	-47.7	-58.8	3.6	8.46e-01	0	32	104	0	60	31550
2026-01-05 18:59:42.01	20.53	0.98	-47.3	-58.5	3.6	8.45e-01	0	32	104	0	60	30549
2026-01-05 18:59:43.01	20.53	1.04	-47.0	-58.2	3.6	8.45e-01	0	32	104	0	60	29519
2026-01-05 18:59:44.02	20.54	1.10	-47.0	-58.2	3.6	8.44e-01	0	32	104	0	60	29487
2026-01-05 18:59:45.03	20.54	1.17	-47.0	-58.2	3.6	8.45e-01	0	32	104	0	60	29273
2026-01-05 18:59:46.04	20.55	1.23	-47.0	-58.1	3.6	8.46e-01	0	32	104	0	60	29091
2026-01-05 18:59:47.05	20.55	1.29	-47.0	-58.0	3.6	8.44e-01	0	32	104	0	60	28615
2026-01-05 18:59:48.06	20.56	1.35	-47.0	-57.8	3.5	8.45e-01	0	32	104	0	60	28020
2026-01-05 18:59:49.07	20.56	1.42	-47.0	-57.6	3.6	8.45e-01	0	33	104	0	60	27352
2026-01-05 18:59:50.08	20.57	1.48	-46.9	-57.5	3.6	8.45e-01	0	33	104	0	60	27151
2026-01-05 18:59:51.09	20.57	1.54	-47.0	-57.7	3.6	8.45e-01	0	32	104	0	60	27847
2026-01-05 18:59:52.10	20.58	1.61	-47.0	-57.6	3.6	8.45e-01	0	32	104	0	60	27453
2026-01-05 18:59:53.11	20.58	1.67	-47.0	-57.8	3.6	8.45e-01	0	32	104	0	60	27999
2026-01-05 18:59:54.12	20.59	1.73	-47.0	-58.1	3.6	8.45e-01	0	33	104	0	60	29008
2026-01-05 18:59:55.13	20.59	1.80	-47.0	-58.1	3.6	8.47e-01	0	33	104	0	60	29191
2026-01-05 18:59:56.14	20.60	1.86	-47.0	-58.1	3.6	8.46e-01	0	33	104	0	60	29126
2026-01-05 18:59:57.15	20.60	1.93	-47.0	-58.1	3.6	8.45e-01	0	32	104	0	60	29207
2026-01-05 18:59:58.16	20.61	1.99	-47.0	-58.1	3.6	8.45e-01	0	33	104	0	60	29056
2026-01-05 18:59:59.17	20.61	2.05	-47.0	-58.2	3.6	8.45e-01	0	33	104	0	60	29232
2026-01-05 19:00:00.18	20.62	2.12	-47.0	-57.9	3.6	8.44e-01	0	33	104	0	60	28501
2026-01-05 19:00:01.19	20.62	2.18	-46.9	-57.5	3.6	8.45e-01	0	33	104	0	60	27103
2026-01-05 19:00:02.20	20.63	2.25	-46.9	-57.2	3.6	8.45e-01	0	32	104	0	60	26169
2026-01-05 19:00:03.21	20.63	2.31	-46.8	-56.5	3.6	8.44e-01	0	33	104	0	60	24107
2026-01-05 19:00:04.22	20.64	2.38	-46.7	-55.3	3.9	8.44e-01	0	33	104	0	60	21003
2026-01-05 19:00:05.23	20.64	2.44	-46.5	-53.2	3.9	8.32e-01	0	33	0	0	60	16439
2026-01-05 19:00:06.24	20.65	2.51	-46.5	-52.9	4.0	8.26e-01	0	33	0	0	60	15988
2026-01-05 19:00:07.25	20.65	2.57	-46.5	-53.1	3.9	8.28e-01	0	33	0	0	60	16417
2026-01-05 19:00:08.26	20.66	2.64	-46.6	-53.5	3.7	8.28e-01	0	33	0	0	60	17100
2026-01-05 19:00:09.27	20.66	2.71	-46.6	-54.8	4.0	8.39e-01	0	33	104	0	60	19810
2026-01-05 19:00:10.28	20.67	2.77	-46.4	-52.5	4.2	8.26e-01	0	33	0	0	60	15184
2026-01-05 19:00:11.29	20.67	2.84	-45.8	-50.3	6.0	5.24e-01	0	33	0	1048576	60	11797
2026-01-05 19:00:12.30	20.68	2.90	-45.1	-48.6	7.7	1.16e-01	0	33	0	7340032	60	9753
2026-01-05 19:00:13.31	20.68	2.97	-43.8	-46.4	10.7	2.16e-02	0	33	0	14680064	60	7521
2026-01-05 19:00:14.32	20.69	3.04	-42.6	-44.6	12.7	2.71e-04	0	33	0	22020096	60	6115
2026-01-05 19:00:15.33	20.69	3.10	-41.6	-43.2	14.1	1.71e-05	0	33	0	29360128	58	5860
2026-01-05 19:00:16.34	20.70	3.17	-40.8	-42.2	15.1	0.00e+00	0	33	0	36700160	56	5834
2026-01-05 19:00:17.35	20.70	3.24	-39.8	-41.0	16.3	0.00e+00	0	33	0	44040192	54	5698
2026-01-05 19:00:18.36	20.71	3.31	-39.7	-40.9	16.3	0.00e+00	0	33	0	51380224	52	6324
2026-01-05 19:00:19.37	20.71	3.37	-39.1	-40.1	17.0	0.00e+00	0	33	0	58720256	52	5824
2026-01-05 19:00:20.38	20.72	3.44	-39.4	-40.5	16.6	0.00e+00	0	33	0	66060288	50	6830
2026-01-05 19:00:21.39	20.72	3.51	-39.7	-40.8	16.3	0.00e+00	0	33	0	73400320	50	7043
2026-01-05 19:00:22.40	20.73	3.58	-40.6	-41.8	15.3	0.00e+00	0	33	0	80740352	52	7077
2026-01-05 19:00:23.41	20.73	3.65	-41.7	-43.3	13.7	2.20e-06	0	33	0	88080384	54	7433
2026-01-05 19:00:24.42	20.74	3.71	-43.1	-45.2	11.7	1.07e-04	0	33	0	95420416	58	7380
2026-01-05 19:00:25.43	20.74	3.78	-39.1	-40.1	18.2	5.95e-05	0	33	0	102760448	54	5144
2026-01-05 19:00:26.44	20.75	3.85	-34.8	-35.5	21.7	0.00e+00	0	33	0	110100480	44	5383
2026-01-05 19:00:27.45	20.75	3.92	-42.0	-43.7	11.2	0.00e+00	0	33	0	117440512	52	8817
2026-01-05 19:00:28.46	20.75	3.99	-42.8	-44.7	15.2	8.44e-01	0	33	104	118489088	60	6245
2026-01-05 19:00:29.47	20.76	4.06	-36.4	-37.2	18.4	0.00e+00	0	33	0	123731968	42	7412
2026-01-05 19:00:30.48	20.76	4.13	-45.7	-50.4	13.3	8.41e-01	0	33	104	124780544	60	12002
2026-01-05 19:00:31.49	20.77	4.20	-34.7	-35.5	21.9	0.00e+00	0	33	0	127926272	42	6051
2026-01-05 19:00:32.50	20.77	4.27	-34.9	-35.7	21.9	0.00e+00	0	33	0	135266304	42	6176
2026-01-05 19:00:33.51	20.78	4.34	-33.9	-34.6	22.8	0.00e+00	0	33	0	142606336	42	5479
2026-01-05 19:00:34.52	20.78	4.41	-33.9	-34.6	22.7	0.00e+00	0	33	0	149946368	42	5458
2026-01-05 19:00:35.53	20.79	4.48	-33.9	-34.6	22.7	0.00e+00	0	33	0	157286400	42	5491
2026-01-05 19:00:36.55	20.79	4.55	-34.1	-34.8	22.6	0.00e+00	0	33	0	164626432	40	6264
2026-01-05 19:00:37.55	20.80	4.62	-33.9	-34.6	22.8	0.00e+00	0	33	0	171966464	40	6159
2026-01-05 19:00:38.56	20.80	4.69	-33.8	-34.5	23.0	0.00e+00	0	33	0	179306496	40	6074
2026-01-05 19:00:39.57	20.81	4.76	-34.0	-34.7	22.8	0.00e+00	0	33	0	186646528	40	6210
2026-01-05 19:00:40.58	20.81	4.83	-34.0	-34.7	22.9	0.00e+00	0	33	0	193986560	40	6177
2026-01-05 19:00:41.59	20.82	4.90	-33.7	-34.4	22.9	0.00e+00	0	33	0	201326592	40	6032
2026-01-05 19:00:42.60	20.82	4.97	-34.1	-34.8	22.7	0.00e+00	0	33	0	208666624	40	6308
2026-01-05 19:00:43.61	20.83	5.05	-33.6	-34.3	23.1	0.00e+00	0	33	0	216006656	40	5949
2026-01-05 19:00:44.62	20.83	5.12	-33.9	-34.6	22.9	0.00e+00	0	33	0	223346688	40	6112
2026-01-05 19:00:45.63	20.84	5.19	-34.0	-34.7	22.7	0.00e+00	0	33	0	230686720	40	6232
2026-01-05 19:00:46.64	20.84	5.26	-33.9	-34.6	22.9	0.00e+00	0	33	0	238026752	40	6148
2026-01-05 19:00:47.65	20.85	5.34	-33.8	-34.6	23.0	0.00e+00	0	33	0	245366784	40	6107
2026-01-05 19:00:48.66	20.85	5.41	-33.8	-34.5	23.0	0.00e+00	0	33	0	252706816	40	6059
2026-01-05 19:00:49.67	20.86	5.48	-33.3	-34.0	23.4	0.00e+00	0	33	0	258998272	40	5753
2026-01-05 19:00:50.68	20.86	5.55	-33.5	-34.2	23.3	0.00e+00	0	33	0	266338304	40	5841
2026-01-05 19:00:51.69	20.87	5.63	-33.4	-34.1	23.4	0.00e+00	0	33	0	274726912	40	5771
2026-01-05 19:00:52.69	20.87	5.70	-33.5	-34.2	23.4	0.00e+00	0	33	0	281018368	40	5880
2026-01-05 19:00:53.70	20.88	5.77	-33.5	-34.2	23.3	0.00e+00	0	33	0	288358400	40	5835
2026-01-05 19:00:54.72	20.88	5.85	-33.5	-34.2	23.3	0.00e+00	0	33	0	295698432	40	5874
2026-01-05 19:00:55.72	20.89	5.92	-33.8	-34.5	23.1	0.00e+00	0	33	0	303038464	40	6099
2026-01-05 19:00:56.73	20.89	6.00	-34.1	-34.8	22.9	0.00e+00	0	33	0	310378496	40	6260
2026-01-05 19:00:57.74	20.90	6.07	-33.6	-34.3	23.2	0.00e+00	0	33	0	317718528	40	5933
2026-01-05 19:00:58.75	20.90	6.15	-33.7	-34.4	23.2	0.00e+00	0	33	0	325058560	40	5998
2026-01-05 19:00:59.76	20.91	6.22	-33.4	-34.1	23.4	0.00e+00	0	33	0	332398592	40	5823
2026-01-05 19:01:00.77	20.91	6.30	-33.6	-34.3	23.3	0.00e+00	0	33	0	339738624	40	5954
2026-01-05 19:01:01.78	20.92	6.37	-33.6	-34.3	23.4	0.00e+00	0	33	0	347078656	40	5904
2026-01-05 19:01:02.79	20.93	6.45	-33.2	-33.9	23.6	0.00e+00	0	33	0	354418688	40	5674
2026-01-05 19:01:03.80	20.93	6.52	-33.5	-34.2	23.5	0.00e+00	0	33	0	361758720	40	5833
2026-01-05 19:01:04.80	20.94	6.60	-33.3	-34.0	23.6	0.00e+00	0	33	0	369098752	40	5738
2026-01-05 19:01:05.81	20.94	6.68	-33.2	-33.9	23.7	0.00e+00	0	33	0	376438784	40	5671
2026-01-05 19:01:06.82	20.95	6.75	-33.2	-33.9	23.8	0.00e+00	0	33	0	383778816	40	5650
2026-01-05 19:01:07.83	20.95	6.83	-33.4	-34.1	23.6	0.00e+00	0	33	0	391118848	40	5767
2026-01-05 19:01:08.84	20.96	6.91	-33.2	-33.9	23.8	0.00e+00	0	33	0	398458880	40	5670
2026-01-05 19:01:09.85	20.96	6.98	-33.2	-33.9	23.8	0.00e+00	0	33	0	405798912	40	5647
2026-01-05 19:01:10.86	20.97	7.06	-33.0	-33.7	23.9	0.00e+00	0	33	0	412090368	40	5529
2026-01-05 19:01:11.87	20.97	7.14	-33.0	-33.7	23.9	0.00e+00	0	33	0	419430400	40	5518
2026-01-05 19:01:12.88	20.98	7.22	-32.9	-33.6	23.9	0.00e+00	0	33	0	426770432	40	5478
2026-01-05 19:01:13.89	20.98	7.30	-32.9	-33.6	24.1	0.00e+00	0	33	0	434110464	40	5440
2026-01-05 19:01:14.90	20.99	7.37	-33.0	-33.6	24.0	0.00e+00	0	33	0	441450496	40	5495
2026-01-05 19:01:15.91	20.99	7.45	-33.0	-33.6	24.0	0.00e+00	0	33	0	448790528	40	5490
2026-01-05 19:01:16.92	21.00	7.53	-32.8	-33.4	24.2	0.00e+00	0	33	0	456130560	40	5370
2026-01-05 19:01:17.92	21.00	7.61	-32.9	-33.6	24.0	0.00e+00	0	33	0	463470592	40	5483
2026-01-05 19:01:18.93	21.01	7.69	-32.7	-33.4	24.2	0.00e+00	0	33	0	470810624	40	5338
2026-01-05 19:01:19.94	21.01	7.77	-32.9	-33.5	24.2	0.00e+00	0	33	0	478150656	38	6083
2026-01-05 19:01:20.95	21.02	7.85	-32.7	-33.4	24.3	0.00e+00	0	33	0	485490688	38	5991
2026-01-05 19:01:21.96	21.02	7.93	-32.8	-33.5	24.2	0.00e+00	0	33	0	492830720	38	6062
2026-01-05 19:01:22.97	21.03	8.01	-32.9	-33.6	24.2	0.00e+00	0	33	0	500170752	38	6137
2026-01-05 19:01:23.98	21.03	8.09	-32.9	-33.5	24.0	0.00e+00	0	33	0	507510784	38	6092
2026-01-05 19:01:24.99	21.04	8.17	-32.8	-33.4	24.3	0.00e+00	0	33	0	514850816	38	6031
2026-01-05 19:01:26.00	21.04	8.25	-33.0	-33.7	24.2	0.00e+00	0	33	0	522190848	38	6193
2026-01-05 19:01:27.01	21.05	8.34	-32.9	-33.6	24.1	0.00e+00	0	33	0	529530880	38	6134
2026-01-05 19:01:28.01	21.05	8.42	-32.7	-33.3	24.3	0.00e+00	0	33	0	535822336	38	5963
2026-01-05 19:01:29.02	21.06	8.50	-32.4	-33.1	24.6	0.00e+00	0	33	0	543162368	38	5790
2026-01-05 19:01:30.04	21.06	8.58	-32.6	-33.3	24.4	0.00e+00	0	33	0	551550976	38	5933
2026-01-05 19:01:31.04	21.07	8.66	-32.5	-33.2	24.5	0.00e+00	0	33	0	557842432	38	5851
2026-01-05 19:01:32.05	21.07	8.75	-32.5	-33.1	24.6	0.00e+00	0	33	0	565182464	38	5810
2026-01-05 19:01:33.06	21.08	8.83	-32.5	-33.2	24.4	0.00e+00	0	33	0	572522496	38	5829
2026-01-05 19:01:34.07	21.08	8.91	-32.4	-33.0	24.7	0.00e+00	0	33	0	579862528	38	5731
2026-01-05 19:01:35.08	21.09	9.00	-32.4	-33.0	24.7	0.00e+00	0	33	0	587202560	38	5748
2026-01-05 19:01:36.09	21.09	9.08	-32.2	-32.8	24.8	0.00e+00	0	33	0	594542592	38	5622
2026-01-05 19:01:37.10	21.10	9.17	-32.3	-33.0	24.8	0.00e+00	0	33	0	601882624	38	5712
2026-01-05 19:01:38.11	21.10	9.25	-32.5	-33.1	24.6	0.00e+00	0	33	0	609222656	38	5806
2026-01-05 19:01:39.12	21.11	9.34	-32.4	-33.1	24.7	0.00e+00	0	33	0	616562688	38	5771
2026-01-05 19:01:40.13	21.11	9.42	-32.2	-32.8	24.9	0.00e+00	0	33	0	623902720	38	5608
2026-01-05 19:01:41.14	21.12	9.51	-32.1	-32.8	25.0	0.00e+00	0	33	0	631242752	38	5590
2026-01-05 19:01:42.15	21.12	9.59	-32.1	-32.7	25.0	0.00e+00	0	33	0	638582784	38	5542
2026-01-05 19:01:43.16	21.13	9.68	-32.2	-32.9	24.9	0.00e+00	0	33	0	645922816	38	5648
2026-01-05 19:01:44.17	21.13	9.76	-32.2	-32.9	24.9	0.00e+00	0	33	0	653262848	38	5634
2026-01-05 19:01:45.17	21.14	9.85	-32.2	-32.8	24.9	0.00e+00	0	33	0	660602880	38	5599
2026-01-05 19:01:46.18	21.15	9.94	-32.1	-32.8	24.9	0.00e+00	0	33	0	667942912	38	5574
2026-01-05 19:01:47.19	21.15	10.02	-32.1	-32.8	25.0	0.00e+00	0	33	0	675282944	38	5571
2026-01-05 19:01:48.20	21.16	10.11	-32.0	-32.6	25.2	0.00e+00	0	33	0	682622976	38	5475
2026-01-05 19:01:49.21	21.16	10.20	-32.1	-32.7	25.2	0.00e+00	0	33	0	688914432	38	5544
2026-01-05 19:01:50.22	21.17	10.29	-32.0	-32.7	25.1	0.00e+00	0	33	0	696254464	38	5510
2026-01-05 19:01:51.23	21.17	10.38	-31.9	-32.5	25.2	0.00e+00	0	33	0	703594496	38	5406
2026-01-05 19:01:52.24	21.18	10.47	-32.0	-32.7	25.1	0.00e+00	0	33	0	710934528	38	5520
2026-01-05 19:01:53.25	21.18	10.55	-31.9	-32.5	25.2	0.00e+00	0	33	0	718274560	38	5422
2026-01-05 19:01:54.26	21.19	10.64	-31.9	-32.5	25.3	0.00e+00	0	33	0	725614592	38	5416
2026-01-05 19:01:55.27	21.19	10.73	-31.8	-32.5	25.3	0.00e+00	0	33	0	732954624	36	6040
2026-01-05 19:01:56.28	21.20	10.82	-31.9	-32.5	25.3	0.00e+00	0	33	0	740294656	36	6088
2026-01-05 19:01:57.29	21.20	10.91	-31.6	-32.3	25.5	0.00e+00	0	33	0	747634688	36	5919
2026-01-05 19:01:58.30	21.21	11.01	-31.6	-32.3	25.5	0.00e+00	0	33	0	754974720	36	5900
2026-01-05 19:01:59.31	21.21	11.10	-31.9	-32.5	25.2	0.00e+00	0	33	0	762314752	36	6083
2026-01-05 19:02:00.32	21.22	11.19	-31.9	-32.6	25.3	0.00e+00	0	33	0	769654784	36	6136
2026-01-05 19:02:01.33	21.22	11.28	-31.9	-32.6	25.3	0.00e+00	0	33	0	776994816	36	6120
2026-01-05 19:02:02.34	21.23	11.37	-31.7	-32.3	25.4	0.00e+00	0	33	0	784334848	36	5945
2026-01-05 19:02:03.35	21.23	11.46	-31.8	-32.4	25.4	0.00e+00	0	33	0	791674880	36	6008
2026-01-05 19:02:04.36	21.24	11.56	-31.8	-32.4	25.4	0.00e+00	0	33	0	799014912	36	5999
2026-01-05 19:02:05.37	21.25	11.65	-31.7	-32.3	25.3	0.00e+00	0	33	0	806354944	36	5946
2026-01-05 19:02:06.37	21.25	11.74	-31.8	-32.5	25.3	0.00e+00	0	33	0	812646400	36	6036
2026-01-05 19:02:07.38	21.26	11.84	-31.7	-32.4	25.4	0.00e+00	0	33	0	821035008	36	5968
2026-01-05 19:02:08.39	21.26	11.93	-31.6	-32.3	25.5	0.00e+00	0	33	0	828375040	36	5899
2026-01-05 19:02:09.40	21.27	12.03	-31.4	-32.0	25.7	0.00e+00	0	33	0	834666496	36	5733
2026-01-05 19:02:10.41	21.27	12.12	-31.4	-32.0	25.7	0.00e+00	0	33	0	842006528	36	5713
2026-01-05 19:02:11.42	21.28	12.22	-31.5	-32.2	25.6	0.00e+00	0	33	0	849346560	36	5837
2026-01-05 19:02:12.43	21.28	12.31	-31.4	-32.1	25.6	0.00e+00	0	33	0	856686592	36	5763
2026-01-05 19:02:13.44	21.29	12.41	-31.4	-32.1	25.8	0.00e+00	0	33	0	864026624	36	5763
2026-01-05 19:02:14.45	21.29	12.51	-31.2	-31.8	25.9	0.00e+00	0	33	0	871366656	36	5604
2026-01-05 19:02:15.46	21.30	12.60	-31.3	-31.9	25.7	0.00e+00	0	33	0	878706688	36	5641
2026-01-05 19:02:16.47	21.30	12.70	-31.2	-31.8	25.9	0.00e+00	0	33	0	886046720	36	5613
2026-01-05 19:02:17.47	21.31	12.80	-31.4	-32.1	25.7	0.00e+00	0	33	0	893386752	36	5776
2026-01-05 19:02:18.49	21.31	12.90	-31.2	-31.8	25.9	0.00e+00	0	33	0	900726784	36	5622
2026-01-05 19:02:19.49	21.32	12.99	-31.3	-32.0	25.8	0.00e+00	0	33	0	908066816	36	5696
2026-01-05 19:02:20.50	21.33	13.09	-31.3	-31.9	25.9	0.00e+00	0	33	0	915406848	36	5663
2026-01-05 19:02:21.51	21.33	13.19	-31.0	-31.7	26.0	0.00e+00	0	33	0	922746880	36	5504
2026-01-05 19:02:22.52	21.34	13.29	-31.1	-31.7	26.0	0.00e+00	0	33	0	930086912	36	5522
2026-01-05 19:02:23.53	21.34	13.39	-31.2	-31.9	25.9	0.00e+00	0	33	0	937426944	36	5644
2026-01-05 19:02:24.53	21.35	13.49	-31.0	-31.6	26.1	0.00e+00	0	33	0	944766976	36	5502
2026-01-05 19:02:25.55	21.35	13.59	-30.9	-31.5	26.1	0.00e+00	0	33	0	952107008	36	5419
2026-01-05 19:02:26.56	21.36	13.70	-30.9	-31.6	26.2	0.00e+00	0	33	0	959447040	36	5443
2026-01-05 19:02:27.57	21.36	13.80	-30.8	-31.5	26.3	0.00e+00	0	33	0	965738496	34	6039
2026-01-05 19:02:28.57	21.37	13.90	-30.7	-31.3	26.4	0.00e+00	0	33	0	973078528	34	5943
2026-01-05 19:02:29.58	21.37	14.00	-30.8	-31.4	26.3	0.00e+00	0	33	0	981467136	34	5973
2026-01-05 19:02:30.59	21.38	14.10	-30.7	-31.3	26.3	0.00e+00	0	33	0	987758592	34	5953
2026-01-05 19:02:31.60	21.39	14.21	-30.4	-31.0	26.5	0.00e+00	0	33	0	995098624	34	5756
2026-01-05 19:02:32.61	21.39	14.31	-30.6	-31.2	26.5	0.00e+00	0	33	0	1002438656	34	5894
2026-01-05 19:02:33.62	21.40	14.42	-30.7	-31.3	26.4	0.00e+00	0	33	0	1009778688	34	5922
2026-01-05 19:02:34.63	21.40	14.52	-30.7	-31.3	26.4	0.00e+00	0	33	0	1017118720	34	5959
2026-01-05 19:02:35.64	21.41	14.63	-30.7	-31.3	26.5	0.00e+00	0	34	0	1024458752	34	5918
2026-01-05 19:02:36.65	21.41	14.73	-30.4	-31.0	26.6	0.00e+00	0	33	0	1031798784	34	5755
2026-01-05 19:02:37.66	21.42	14.84	-30.7	-31.3	26.5	0.00e+00	0	33	0	1039138816	34	5941
2026-01-05 19:02:38.67	21.42	14.95	-30.5	-31.1	26.6	0.00e+00	0	33	0	1046478848	34	5771
2026-01-05 19:02:39.68	21.43	15.05	-30.6	-31.2	26.5	0.00e+00	0	33	0	1053818880	34	5848
2026-01-05 19:02:40.69	21.44	15.16	-30.6	-31.2	26.5	0.00e+00	0	33	0	1061158912	34	5852
2026-01-05 19:02:41.70	21.44	15.27	-30.6	-31.3	26.5	0.00e+00	0	33	0	1068498944	34	5905
2026-01-05 19:02:42.71	21.45	15.38	-30.4	-31.1	26.5	0.00e+00	0	33	0	1075838976	34	5767
2026-01-05 19:02:43.72	21.45	15.49	-30.6	-31.2	26.6	0.00e+00	0	33	0	1083179008	34	5850
2026-01-05 19:02:44.73	21.46	15.60	-30.6	-31.2	26.5	0.00e+00	0	34	0	1089470464	34	5886
2026-01-05 19:02:45.74	21.46	15.71	-30.8	-31.4	26.4	0.00e+00	0	33	0	1097859072	34	5982
2026-01-05 19:02:46.75	21.47	15.82	-30.8	-31.4	26.4	0.00e+00	0	33	0	1105199104	34	5986
2026-01-05 19:02:47.76	21.47	15.93	-30.5	-31.1	26.6	0.00e+00	0	33	0	1111490560	34	5806
2026-01-05 19:02:48.77	21.48	16.04	-30.6	-31.2	26.5	0.00e+00	0	33	0	1118830592	34	5869
2026-01-05 19:02:49.78	21.49	16.15	-30.7	-31.4	26.4	0.00e+00	0	33	0	1126170624	34	5965
2026-01-05 19:02:50.79	21.49	16.26	-30.7	-31.3	26.4	0.00e+00	0	34	0	1133510656	34	5909
2026-01-05 19:02:51.79	21.50	16.38	-30.7	-31.3	26.4	0.00e+00	0	33	0	1140850688	34	5931
2026-01-05 19:02:52.80	21.50	16.49	-30.6	-31.3	26.5	0.00e+00	0	34	0	1148190720	34	5897
2026-01-05 19:02:53.81	21.51	16.61	-30.5	-31.1	26.6	0.00e+00	0	34	0	1155530752	34	5784
2026-01-05 19:02:54.82	21.51	16.72	-30.5	-31.1	26.6	0.00e+00	0	33	0	1162870784	34	5778
2026-01-05 19:02:55.83	21.52	16.84	-30.6	-31.2	26.6	0.00e+00	0	33	0	1170210816	34	5840
2026-01-05 19:02:56.84	21.53	16.95	-30.6	-31.3	26.6	0.00e+00	0	33	0	1177550848	34	5906
2026-01-05 19:02:57.86	21.53	17.07	-30.4	-31.0	26.6	0.00e+00	0	33	0	1184890880	34	5744
2026-01-05 19:02:58.86	21.54	17.18	-30.4	-31.0	26.7	0.00e+00	0	34	0	1192230912	34	5741
2026-01-05 19:02:59.87	21.54	17.30	-30.5	-31.1	26.6	0.00e+00	0	34	0	1199570944	34	5788
2026-01-05 19:03:00.88	21.55	17.42	-30.4	-31.0	26.7	0.00e+00	0	33	0	1206910976	34	5739
2026-01-05 19:03:01.90	21.55	17.54	-30.4	-31.0	26.7	0.00e+00	0	33	0	1214251008	34	5716
2026-01-05 19:03:02.90	21.56	17.66	-30.3	-30.9	26.8	0.00e+00	0	34	0	1221591040	34	5679
2026-01-05 19:03:03.91	21.57	17.78	-30.4	-31.0	26.7	0.00e+00	0	33	0	1228931072	34	5715
2026-01-05 19:03:04.92	21.57	17.90	-30.3	-30.9	26.8	0.00e+00	0	34	0	1236271104	34	5659
2026-01-05 19:03:05.93	21.58	18.02	-30.2	-30.8	26.8	0.00e+00	0	33	0	1242562560	34	5627
2026-01-05 19:03:06.94	21.58	18.14	-30.2	-30.8	27.0	0.00e+00	0	34	0	1250951168	34	5575
2026-01-05 19:03:07.95	21.59	18.26	-30.2	-30.8	26.9	0.00e+00	0	33	0	1258291200	34	5581
2026-01-05 19:03:08.96	21.60	18.39	-30.0	-30.6	27.0	0.00e+00	0	34	0	1264582656	34	5466
2026-01-05 19:03:09.97	21.60	18.51	-30.2	-30.9	26.8	0.00e+00	0	34	0	1271922688	34	5643
2026-01-05 19:03:10.98	21.61	18.64	-30.1	-30.7	27.0	0.00e+00	0	33	0	1279262720	34	5517
2026-01-05 19:03:11.99	21.61	18.76	-30.2	-30.8	27.0	0.00e+00	0	33	0	1286602752	34	5576
2026-01-05 19:03:13.00	21.62	18.89	-29.9	-30.5	27.0	0.00e+00	0	33	0	1293942784	34	5439
2026-01-05 19:03:14.01	21.62	19.01	-30.0	-30.6	26.9	0.00e+00	0	33	0	1301282816	34	5495
2026-01-05 19:03:15.02	21.63	19.14	-29.9	-30.5	27.2	0.00e+00	0	33	0	1308622848	34	5403
2026-01-05 19:03:16.03	21.64	19.27	-30.0	-30.6	27.1	0.00e+00	0	33	0	1315962880	34	5460
2026-01-05 19:03:17.04	21.64	19.39	-30.0	-30.6	27.0	0.00e+00	0	33	0	1323302912	34	5444
2026-01-05 19:03:18.04	21.65	19.52	-29.9	-30.5	27.2	0.00e+00	0	33	0	1330642944	34	5423
2026-01-05 19:03:19.05	21.65	19.65	-29.9	-30.5	27.1	0.00e+00	0	33	0	1337982976	34	5415
2026-01-05 19:03:20.06	21.66	19.78	-30.1	-30.7	27.0	0.00e+00	0	33	0	1345323008	34	5511
2026-01-05 19:03:21.07	21.67	19.91	-29.9	-30.5	27.1	0.00e+00	0	33	0	1352663040	34	5421
2026-01-05 19:03:22.08	21.67	20.04	-30.1	-30.7	27.0	0.00e+00	0	34	0	1360003072	34	5535
2026-01-05 19:03:23.09	21.68	20.18	-29.7	-30.3	27.2	0.00e+00	0	33	0	1367343104	34	5304
2026-01-05 19:03:24.10	21.68	20.31	-29.9	-30.5	27.2	0.00e+00	0	33	0	1374683136	32	6054
2026-01-05 19:03:25.11	21.69	20.44	-29.6	-30.2	27.4	0.00e+00	0	33	0	1382023168	32	5863
2026-01-05 19:03:26.12	21.70	20.58	-29.5	-30.1	27.4	0.00e+00	0	34	0	1388314624	32	5805
2026-01-05 19:03:27.13	21.70	20.71	-29.6	-30.2	27.5	0.00e+00	0	33	0	1395654656	32	5834
2026-01-05 19:03:28.14	21.71	20.85	-29.5	-30.1	27.4	0.00e+00	0	33	0	1404043264	32	5786
2026-01-05 19:03:29.15	21.72	20.98	-29.4	-30.0	27.4	0.00e+00	0	34	0	1411383296	32	5747
2026-01-05 19:03:30.16	21.72	21.12	-29.4	-30.0	27.5	0.00e+00	0	34	0	1417674752	32	5742
2026-01-05 19:03:31.17	21.73	21.26	-29.4	-30.0	27.5	0.00e+00	0	33	0	1425014784	32	5724
2026-01-05 19:03:32.17	21.73	21.40	-29.2	-29.8	27.6	0.00e+00	0	33	0	1432354816	32	5619
2026-01-05 19:03:33.18	21.74	21.54	-29.4	-30.0	27.6	0.00e+00	0	33	0	1439694848	32	5723
2026-01-05 19:03:34.19	21.75	21.68	-29.2	-29.8	27.7	0.00e+00	0	33	0	1447034880	32	5626
2026-01-05 19:03:35.20	21.75	21.82	-29.3	-29.9	27.6	0.00e+00	0	33	0	1454374912	32	5667
2026-01-05 19:03:36.22	21.76	21.96	-29.3	-29.9	27.6	0.00e+00	0	33	0	1461714944	32	5672
2026-01-05 19:03:37.22	21.77	22.10	-29.4	-30.0	27.6	0.00e+00	0	33	0	1469054976	32	5737
2026-01-05 19:03:38.23	21.77	22.25	-29.6	-30.2	27.5	0.00e+00	0	33	0	1476395008	32	5837
2026-01-05 19:03:39.24	21.78	22.39	-29.7	-30.3	27.4	0.00e+00	0	33	0	1483735040	32	5907
2026-01-05 19:03:40.25	21.78	22.53	-29.5	-30.1	27.6	0.00e+00	0	34	0	1491075072	32	5808
2026-01-05 19:03:41.26	21.79	22.68	-29.3	-29.9	27.6	0.00e+00	0	33	0	1498415104	32	5676
2026-01-05 19:03:42.27	21.80	22.83	-29.4	-29.9	27.6	0.00e+00	0	34	0	1505755136	32	5694
2026-01-05 19:03:43.28	21.80	22.97	-29.3	-29.9	27.7	0.00e+00	0	34	0	1513095168	32	5640
2026-01-05 19:03:44.29	21.81	23.12	-29.3	-29.9	27.7	0.00e+00	0	34	0	1520435200	32	5648
2026-01-05 19:03:45.30	21.82	23.27	-29.3	-29.9	27.6	0.00e+00	0	34	0	1527775232	32	5667
2026-01-05 19:03:46.32	21.82	23.42	-29.3	-29.9	27.7	0.00e+00	0	33	0	1535115264	32	5683
2026-01-05 19:03:47.32	21.83	23.57	-29.3	-29.9	27.6	0.00e+00	0	34	0	1541406720	32	5645
2026-01-05 19:03:48.33	21.84	23.73	-29.4	-30.0	27.6	0.00e+00	0	34	0	1549795328	32	5719
2026-01-05 19:03:49.34	21.84	23.88	-29.2	-29.8	27.8	0.00e+00	0	33	0	1557135360	32	5585
2026-01-05 19:03:50.35	21.85	24.03	-29.4	-30.0	27.7	0.00e+00	0	34	0	1563426816	32	5715
2026-01-05 19:03:51.36	21.86	24.19	-29.3	-29.9	27.7	0.00e+00	0	34	0	1570766848	32	5654
2026-01-05 19:03:52.37	21.86	24.34	-29.2	-29.8	27.7	0.00e+00	0	33	0	1578106880	32	5581
2026-01-05 19:03:53.38	21.87	24.50	-29.1	-29.7	27.8	0.00e+00	0	33	0	1585446912	32	5535
2026-01-05 19:03:54.39	21.88	24.66	-29.2	-29.7	27.7	0.00e+00	0	34	0	1592786944	32	5564
2026-01-05 19:03:55.40	21.88	24.82	-29.1	-29.7	27.8	0.00e+00	0	33	0	1600126976	32	5513
2026-01-05 19:03:56.41	21.89	24.98	-29.1	-29.7	27.8	0.00e+00	0	34	0	1607467008	32	5548
2026-01-05 19:03:57.42	21.90	25.14	-29.2	-29.8	27.8	0.00e+00	0	33	0	1614807040	32	5603
2026-01-05 19:03:58.43	21.90	25.30	-29.2	-29.8	27.8	0.00e+00	0	34	0	1622147072	32	5591
2026-01-05 19:03:59.44	21.91	25.46	-29.1	-29.7	27.9	0.00e+00	0	34	0	1629487104	32	5558
2026-01-05 19:04:00.45	21.92	25.62	-29.3	-29.9	27.8	0.00e+00	0	34	0	1636827136	32	5631
2026-01-05 19:04:01.45	21.92	25.79	-29.2	-29.8	27.8	0.00e+00	0	34	0	1644167168	32	5616
2026-01-05 19:04:02.46	21.93	25.95	-29.3	-29.8	27.7	0.00e+00	0	34	0	1651507200	32	5626
2026-01-05 19:04:03.47	21.94	26.12	-29.2	-29.8	27.6	0.00e+00	0	34	0	1658847232	32	5600
2026-01-05 19:04:04.49	21.95	26.29	-29.1	-29.7	27.9	0.00e+00	0	34	0	1666187264	32	5509
2026-01-05 19:04:05.49	21.95	26.45	-28.9	-29.5	28.0	0.00e+00	0	34	0	1673527296	32	5435
2026-01-05 19:04:06.50	21.96	26.62	-28.9	-29.5	27.9	0.00e+00	0	34	0	1680867328	32	5428
2026-01-05 19:04:07.51	21.97	26.79	-28.7	-29.4	28.0	0.00e+00	0	34	0	1688207360	32	5316
2026-01-05 19:04:08.52	21.97	26.97	-28.7	-29.3	28.2	0.00e+00	0	34	0	1694498816	30	5923
2026-01-05 19:04:09.53	21.98	27.14	-28.7	-29.3	28.2	0.00e+00	0	34	0	1701838848	30	5938
2026-01-05 19:04:10.54	21.99	27.31	-28.8	-29.4	28.1	0.00e+00	0	34	0	1710227456	30	5991
2026-01-05 19:04:11.55	21.99	27.49	-28.8	-29.4	28.1	0.00e+00	0	34	0	1716518912	30	5995
2026-01-05 19:04:12.55	22.00	27.66	-28.8	-29.4	28.1	0.00e+00	0	34	0	1723858944	30	5967
2026-01-05 19:04:13.57	22.01	27.84	-28.8	-29.4	28.1	0.00e+00	0	34	0	1731198976	30	5981
2026-01-05 19:04:14.58	22.02	28.02	-29.0	-29.6	28.0	0.00e+00	0	34	0	1738539008	30	6107
2026-01-05 19:04:15.59	22.02	28.20	-28.9	-29.5	28.1	0.00e+00	0	34	0	1745879040	30	6088
2026-01-05 19:04:16.59	22.03	28.38	-28.6	-29.2	28.3	0.00e+00	0	34	0	1753219072	30	5863
2026-01-05 19:04:17.60	22.04	28.56	-28.9	-29.5	28.1	0.00e+00	0	34	0	1760559104	30	6096
2026-01-05 19:04:18.61	22.05	28.74	-28.7	-29.3	28.1	0.00e+00	0	34	0	1767899136	30	5953
2026-01-05 19:04:19.62	22.05	28.93	-28.7	-29.3	28.2	0.00e+00	0	34	0	1775239168	30	5952
2026-01-05 19:04:20.63	22.06	29.11	-28.8	-29.4	28.0	0.00e+00	0	33	0	1782579200	30	6022
2026-01-05 19:04:21.64	22.07	29.30	-28.9	-29.5	28.1	0.00e+00	0	34	0	1789919232	30	6047
2026-01-05 19:04:22.65	22.08	29.49	-28.6	-29.2	28.3	0.00e+00	0	33	0	1797259264	30	5833
2026-01-05 19:04:23.66	22.08	29.68	-28.6	-29.2	28.2	0.00e+00	0	34	0	1804599296	30	5876
2026-01-05 19:04:24.67	22.09	29.87	-28.8	-29.4	28.2	0.00e+00	0	34	0	1811939328	30	5988
2026-01-05 19:04:25.68	22.10	30.06	-28.7	-29.2	28.2	0.00e+00	0	34	0	1818230784	30	5894
2026-01-05 19:04:26.69	22.11	30.25	-28.6	-29.2	28.3	0.00e+00	0	34	0	1826619392	30	5868
2026-01-05 19:04:27.70	22.12	30.45	-28.6	-29.2	28.3	0.00e+00	0	34	0	1833959424	30	5876
2026-01-05 19:04:28.71	22.12	30.64	-28.6	-29.2	28.2	0.00e+00	0	34	0	1840250880	30	5858
2026-01-05 19:04:29.71	22.13	30.84	-28.7	-29.3	28.2	0.00e+00	0	34	0	1847590912	30	5920
2026-01-05 19:04:30.72	22.14	31.04	-28.6	-29.2	28.3	0.00e+00	0	34	0	1854930944	30	5849
2026-01-05 19:04:31.73	22.15	31.24	-28.5	-29.1	28.3	0.00e+00	0	34	0	1862270976	30	5815
2026-01-05 19:04:32.74	22.15	31.44	-28.5	-29.1	28.3	0.00e+00	0	34	0	1869611008	30	5793
2026-01-05 19:04:33.75	22.16	31.64	-28.7	-29.3	28.3	0.00e+00	0	34	0	1876951040	30	5904
2026-01-05 19:04:34.76	22.17	31.85	-28.6	-29.2	28.2	0.00e+00	0	34	0	1884291072	30	5889
2026-01-05 19:04:35.77	22.18	32.05	-28.6	-29.2	28.2	0.00e+00	0	34	0	1891631104	30	5848
2026-01-05 19:04:36.78	22.19	32.26	-28.5	-29.1	28.3	0.00e+00	0	34	0	1898971136	30	5791
2026-01-05 19:04:37.79	22.20	32.47	-28.4	-29.0	28.4	0.00e+00	0	34	0	1906311168	30	5703
2026-01-05 19:04:38.80	22.20	32.68	-28.6	-29.1	28.4	0.00e+00	0	34	0	1913651200	30	5826
2026-01-05 19:04:39.81	22.21	32.89	-28.7	-29.3	28.1	0.00e+00	0	33	0	1920991232	30	5928
2026-01-05 19:04:40.82	22.22	33.10	-28.6	-29.2	28.3	0.00e+00	0	34	0	1928331264	30	5848
2026-01-05 19:04:41.83	22.23	33.32	-28.5	-29.1	28.4	0.00e+00	0	34	0	1935671296	30	5784
2026-01-05 19:04:42.83	22.24	33.53	-28.5	-29.1	28.3	0.00e+00	0	34	0	1943011328	30	5791
2026-01-05 19:04:43.85	22.25	33.75	-28.6	-29.2	28.1	0.00e+00	0	34	0	1950351360	30	5861
2026-01-05 19:04:44.85	22.26	33.97	-28.5	-29.1	28.4	0.00e+00	0	34	0	1957691392	30	5792
2026-01-05 19:04:45.86	22.26	34.19	-28.6	-29.2	28.2	0.00e+00	0	34	0	1965031424	30	5892
2026-01-05 19:04:46.87	22.27	34.41	-28.6	-29.2	28.3	0.00e+00	0	33	0	1971322880	30	5881
2026-01-05 19:04:47.88	22.28	34.63	-28.6	-29.2	28.3	0.00e+00	0	34	0	1979711488	30	5829
2026-01-05 19:04:48.89	22.29	34.86	-28.6	-29.2	28.3	0.00e+00	0	34	0	1987051520	30	5868
2026-01-05 19:04:49.90	22.30	35.09	-29.0	-29.6	28.0	0.00e+00	0	34	0	1993342976	30	6110
2026-01-05 19:04:50.92	22.31	35.32	-28.7	-29.3	28.2	0.00e+00	0	34	0	2000683008	30	5939
2026-01-05 19:04:51.92	22.32	35.55	-28.8	-29.3	28.1	0.00e+00	0	34	0	2008023040	30	5960
2026-01-05 19:04:52.93	22.33	35.78	-28.6	-29.1	28.3	0.00e+00	0	34	0	2015363072	30	5823
2026-01-05 19:04:53.94	22.34	36.01	-28.5	-29.1	28.3	0.00e+00	0	33	0	2022703104	30	5815
2026-01-05 19:04:54.95	22.35	36.25	-28.6	-29.1	28.4	0.00e+00	0	33	0	2030043136	30	5823
2026-01-05 19:04:55.96	22.36	36.48	-28.4	-29.0	28.4	0.00e+00	0	34	0	2037383168	30	5728
2026-01-05 19:04:56.97	22.37	36.72	-28.4	-29.0	28.4	0.00e+00	0	34	0	2044723200	30	5737
2026-01-05 19:04:57.98	22.38	36.96	-28.4	-29.0	28.4	0.00e+00	0	34	0	2052063232	30	5701
2026-01-05 19:04:58.99	22.39	37.21	-28.3	-28.9	28.5	0.00e+00	0	33	0	2059403264	30	5679
2026-01-05 19:05:00.00	22.40	37.45	-28.7	-29.3	28.3	0.00e+00	0	34	0	2066743296	30	5908
2026-01-05 19:05:01.01	22.40	37.70	-28.7	-29.2	28.3	0.00e+00	0	34	0	2074083328	30	5890
2026-01-05 19:05:02.02	22.41	37.95	-28.5	-29.1	28.3	0.00e+00	0	34	0	2081423360	30	5789
2026-01-05 19:05:03.03	22.43	38.20	-28.6	-29.2	28.3	0.00e+00	0	34	0	2088763392	30	5863
2026-01-05 19:05:04.04	22.44	38.45	-28.9	-29.5	28.0	0.00e+00	0	34	0	2096103424	30	6059
2026-01-05 19:05:05.05	22.45	38.70	-28.8	-29.4	28.0	0.00e+00	0	34	0	2103443456	30	6006
2026-01-05 19:05:06.06	22.46	38.96	-29.0	-29.6	28.1	0.00e+00	0	34	0	2110783488	30	6111
2026-01-05 19:05:07.07	22.47	39.21	-29.1	-29.7	27.9	0.00e+00	0	34	0	2117074944	30	6236
2026-01-05 19:05:08.08	22.48	39.47	-29.3	-29.9	27.8	0.00e+00	0	34	0	2124414976	30	6324
2026-01-05 19:05:09.09	22.49	39.73	-29.3	-29.9	27.9	0.00e+00	0	34	0	2132803584	30	6320
2026-01-05 19:05:10.10	22.50	40.00	-29.3	-29.9	28.0	0.00e+00	0	34	0	2139095040	30	6323
2026-01-05 19:05:11.11	22.51	40.26	-29.1	-29.7	27.9	0.00e+00	0	34	0	2146435072	30	6226
2026-01-05 19:05:12.11	22.52	40.53	-29.2	-29.8	27.9	0.00e+00	0	34	0	2153775104	30	6282
2026-01-05 19:05:13.12	22.53	40.80	-29.1	-29.7	28.0	0.00e+00	0	34	0	2161115136	30	6228
2026-01-05 19:05:14.13	22.54	41.07	-28.9	-29.5	28.1	0.00e+00	0	34	0	2168455168	30	6077
2026-01-05 19:05:15.14	22.55	41.34	-28.8	-29.4	28.1	0.00e+00	0	34	0	2175795200	30	5968
2026-01-05 19:05:16.15	22.57	41.62	-28.8	-29.4	28.1	0.00e+00	0	34	0	2183135232	30	6014
2026-01-05 19:05:17.16	22.58	41.90	-28.9	-29.5	28.2	0.00e+00	0	34	0	2190475264	30	6045
2026-01-05 19:05:18.17	22.59	42.18	-28.9	-29.5	28.2	0.00e+00	0	34	0	2197815296	30	6051
2026-01-05 19:05:19.18	22.60	42.46	-28.7	-29.3	28.2	0.00e+00	0	34	0	2205155328	30	5924
2026-01-05 19:05:20.19	22.61	42.74	-28.8	-29.4	28.2	0.00e+00	0	34	0	2212495360	30	5968
2026-01-05 19:05:21.20	22.63	43.03	-28.9	-29.5	28.0	0.00e+00	0	34	0	2219835392	30	6069
2026-01-05 19:05:22.21	22.64	43.32	-29.0	-29.5	28.1	0.00e+00	0	34	0	2227175424	30	6095
2026-01-05 19:05:23.22	22.65	43.61	-29.0	-29.6	28.0	0.00e+00	0	34	0	2234515456	30	6124
2026-01-05 19:05:24.23	22.66	43.90	-28.8	-29.4	28.2	0.00e+00	0	34	0	2241855488	30	6015
2026-01-05 19:05:25.24	22.68	44.19	-28.7	-29.3	28.3	0.00e+00	0	34	0	2249195520	30	5936
2026-01-05 19:05:26.25	22.69	44.49	-28.8	-29.4	27.9	0.00e+00	0	34	0	2256535552	30	6003
2026-01-05 19:05:27.26	22.70	44.79	-29.0	-29.6	28.0	0.00e+00	0	34	0	2263875584	30	6130
2026-01-05 19:05:28.26	22.72	45.09	-29.2	-29.7	27.8	0.00e+00	0	34	0	2270167040	30	6244
2026-01-05 19:05:29.27	22.73	45.40	-29.3	-29.9	27.9	0.00e+00	0	34	0	2277507072	30	6328
2026-01-05 19:05:30.28	22.74	45.70	-29.4	-30.0	27.8	0.00e+00	0	34	0	2284847104	30	6413
2026-01-05 19:05:31.29	22.76	46.01	-29.4	-30.0	27.7	0.00e+00	0	34	0	2292187136	30	6404
2026-01-05 19:05:32.30	22.77	46.32	-29.3	-29.9	27.8	0.00e+00	0	34	0	2299527168	30	6351
2026-01-05 19:05:33.31	22.78	46.64	-29.4	-30.0	27.7	0.00e+00	0	34	0	2306867200	30	6455
2026-01-05 19:05:34.32	22.80	46.95	-29.5	-30.1	27.5	0.00e+00	0	34	0	2314207232	30	6528
2026-01-05 19:05:35.33	22.81	47.27	-29.7	-30.3	27.5	0.00e+00	0	34	0	2321547264	30	6668
2026-01-05 19:05:36.33	22.83	47.59	-29.6	-30.2	27.5	0.00e+00	0	34	0	2328887296	32	5847
2026-01-05 19:05:37.34	22.84	47.91	-29.6	-30.2	27.6	0.00e+00	0	34	0	2336227328	32	5869
2026-01-05 19:05:38.36	22.86	48.24	-29.7	-30.3	27.5	0.00e+00	0	34	0	2343567360	32	5921
2026-01-05 19:05:39.37	22.87	48.57	-29.8	-30.4	27.4	0.00e+00	0	34	0	2350907392	32	5972
2026-01-05 19:05:40.38	22.89	48.90	-29.9	-30.5	27.3	0.00e+00	0	34	0	2358247424	32	6064
2026-01-05 19:05:41.39	22.91	49.23	-30.0	-30.6	27.3	0.00e+00	0	34	0	2365587456	32	6155
2026-01-05 19:05:42.40	22.92	49.57	-30.2	-30.8	27.2	0.00e+00	0	34	0	2372927488	32	6275
2026-01-05 19:05:43.41	22.94	49.91	-30.6	-31.2	26.8	0.00e+00	0	34	0	2380267520	32	6587
2026-01-05 19:05:44.42	22.96	50.25	-30.8	-31.5	26.6	0.00e+00	0	34	0	2387607552	32	6772
2026-01-05 19:05:45.42	22.97	50.59	-30.9	-31.5	26.5	0.00e+00	0	34	0	2393899008	34	6067
2026-01-05 19:05:46.43	22.99	50.93	-30.5	-31.1	26.8	0.00e+00	0	34	0	2402287616	34	5783
2026-01-05 19:05:47.44	23.01	51.28	-30.4	-31.0	26.6	0.00e+00	0	34	0	2409627648	34	5717
2026-01-05 19:05:48.45	23.03	51.63	-30.4	-31.0	27.0	0.00e+00	0	34	0	2415919104	34	5716
2026-01-05 19:05:49.46	23.05	51.99	-30.1	-30.7	27.2	0.00e+00	0	34	0	2423259136	34	5548
2026-01-05 19:05:50.47	23.07	52.34	-29.9	-30.5	27.2	0.00e+00	0	34	0	2430599168	34	5409
2026-01-05 19:05:51.48	23.08	52.70	-30.1	-30.7	27.0	0.00e+00	0	34	0	2437939200	34	5534
2026-01-05 19:05:52.49	23.10	53.06	-30.5	-31.2	26.8	0.00e+00	0	34	0	2445279232	34	5829
2026-01-05 19:05:53.50	23.12	53.43	-30.2	-30.8	27.2	0.00e+00	0	34	0	2452619264	34	5595
2026-01-05 19:05:54.50	23.14	53.79	-30.1	-30.7	27.1	0.00e+00	0	34	0	2459959296	34	5547
2026-01-05 19:05:55.51	23.17	54.16	-30.3	-30.9	27.0	0.00e+00	0	34	0	2467299328	34	5691
2026-01-05 19:05:56.52	23.19	54.53	-30.3	-30.9	27.0	0.00e+00	0	34	0	2474639360	34	5650
2026-01-05 19:05:57.53	23.21	54.91	-30.0	-30.6	27.1	0.00e+00	0	34	0	2481979392	34	5478
2026-01-05 19:05:58.54	23.23	55.29	-30.0	-30.6	27.2	0.00e+00	0	34	0	2489319424	32	6121
2026-01-05 19:05:59.55	23.25	55.67	-30.1	-30.7	27.0	0.00e+00	0	34	0	2496659456	32	6223
2026-01-05 19:06:00.56	23.28	56.05	-30.4	-31.0	26.8	0.00e+00	0	34	0	2503999488	32	6407
2026-01-05 19:06:01.57	23.30	56.43	-30.5	-31.1	26.8	0.00e+00	0	34	0	2511339520	32	6518
2026-01-05 19:06:02.58	23.33	56.82	-30.5	-31.1	26.6	0.00e+00	0	34	0	2518679552	34	5813
2026-01-05 19:06:03.58	23.35	57.21	-30.9	-31.6	26.4	0.00e+00	0	34	0	2526019584	34	6115
2026-01-05 19:06:04.59	23.38	57.60	-30.9	-31.5	26.6	0.00e+00	0	34	0	2533359616	34	6051
2026-01-05 19:06:05.60	23.40	58.00	-30.7	-31.4	26.6	0.00e+00	0	34	0	2540699648	34	5971
2026-01-05 19:06:06.61	23.43	58.40	-30.5	-31.1	26.8	0.00e+00	0	34	0	2546991104	34	5796
2026-01-05 19:06:07.62	23.46	58.80	-30.5	-31.1	26.9	0.00e+00	0	34	0	2554331136	34	5789
2026-01-05 19:06:08.63	23.49	59.21	-30.2	-30.8	27.1	0.00e+00	0	34	0	2561671168	34	5568
2026-01-05 19:06:09.64	23.51	59.61	-30.0	-30.6	27.2	0.00e+00	0	34	0	2569011200	34	5482
2026-01-05 19:06:10.65	23.54	60.02	-30.0	-30.6	27.1	0.00e+00	0	34	0	2576351232	34	5480
2026-01-05 19:06:11.66	23.58	60.44	-30.2	-30.8	27.1	0.00e+00	0	34	0	2583691264	34	5629
2026-01-05 19:06:12.67	23.61	60.85	-30.5	-31.1	27.2	0.00e+00	0	34	0	2591031296	34	5804
2026-01-05 19:06:13.67	23.64	61.27	-29.8	-30.5	27.0	0.00e+00	0	34	0	2598371328	32	6039
2026-01-05 19:06:14.68	23.67	61.69	-29.9	-30.5	27.3	0.00e+00	0	34	0	2605711360	32	6051
2026-01-05 19:06:15.69	23.71	62.11	-29.7	-30.3	27.4	0.00e+00	0	34	0	2613051392	32	5903
2026-01-05 19:06:16.70	23.74	62.54	-29.7	-30.3	27.5	0.00e+00	0	34	0	2620391424	32	5916
2026-01-05 19:06:17.71	23.78	62.97	-29.9	-30.5	27.0	0.00e+00	0	34	0	2627731456	32	6052
2026-01-05 19:06:18.72	23.82	63.40	-29.4	-29.9	27.8	0.00e+00	0	34	0	2635071488	32	5660
2026-01-05 19:06:19.73	23.86	63.83	-29.8	-30.4	27.4	0.00e+00	0	34	0	2642411520	32	6012
2026-01-05 19:06:20.74	23.90	64.27	-29.4	-30.0	27.7	0.00e+00	0	34	0	2649751552	32	5736
2026-01-05 19:06:21.75	23.94	64.71	-28.9	-29.5	28.1	0.00e+00	0	34	0	2657091584	32	5433
2026-01-05 19:06:22.76	23.98	65.15	-28.4	-29.0	28.3	0.00e+00	0	34	0	2664431616	30	5727
2026-01-05 19:06:23.77	24.03	65.59	-28.4	-28.9	28.6	0.00e+00	0	34	0	2671771648	30	5673
2026-01-05 19:06:24.78	24.08	66.04	-28.6	-29.2	28.2	0.00e+00	0	34	0	2678063104	30	5861
2026-01-05 19:06:25.79	24.12	66.49	-28.7	-29.3	28.3	0.00e+00	0	34	0	2686451712	30	5913
2026-01-05 19:06:26.80	24.18	66.94	-28.6	-29.2	28.3	0.00e+00	0	34	0	2693791744	30	5836
2026-01-05 19:06:27.81	24.23	67.40	-28.7	-29.3	28.2	0.00e+00	0	34	0	2700083200	30	5935
2026-01-05 19:06:28.82	24.28	67.85	-28.2	-28.8	28.2	0.00e+00	0	34	0	2707423232	30	5608
2026-01-05 19:06:29.83	24.34	68.31	-29.2	-29.8	27.5	0.00e+00	0	34	0	2714763264	30	6284
2026-01-05 19:06:30.84	24.40	68.78	-29.1	-29.7	27.9	0.00e+00	0	34	0	2722103296	30	6235
2026-01-05 19:06:31.85	24.46	69.24	-29.0	-29.6	28.0	0.00e+00	0	34	0	2729443328	30	6120
2026-01-05 19:06:32.85	24.53	69.70	-28.8	-29.4	28.1	0.00e+00	0	34	0	2736783360	30	5998
2026-01-05 19:06:33.86	24.60	70.17	-28.8	-29.3	28.2	0.00e+00	0	34	0	2744123392	30	5951
2026-01-05 19:06:34.87	24.67	70.64	-28.9	-29.5	27.9	0.00e+00	0	34	0	2751463424	30	6067
2026-01-05 19:06:35.88	24.74	71.11	-28.9	-29.5	28.1	0.00e+00	0	34	0	2758803456	30	6042
2026-01-05 19:06:36.89	24.82	71.59	-28.8	-29.4	28.2	0.00e+00	0	34	0	2766143488	30	6000
2026-01-05 19:06:37.90	24.91	72.07	-29.0	-29.6	28.0	0.00e+00	0	34	0	2773483520	30	6113
2026-01-05 19:06:38.91	25.00	72.55	-29.1	-29.7	27.7	0.00e+00	0	34	0	2780823552	30	6193
2026-01-05 19:06:39.91	25.09	73.02	-29.2	-29.7	27.6	0.00e+00	0	34	0	2788163584	30	6229
2026-01-05 19:06:40.92	25.19	73.51	-29.3	-30.0	27.7	0.00e+00	0	34	0	2795503616	30	6407
2026-01-05 19:06:41.93	25.29	73.99	-29.2	-29.8	27.9	0.00e+00	0	34	0	2801795072	30	6292
2026-01-05 19:06:42.94	25.40	74.48	-28.6	-29.2	28.3	0.00e+00	0	33	0	2810183680	30	5890
2026-01-05 19:06:43.95	25.52	74.97	-28.3	-28.9	28.3	0.00e+00	0	34	0	2817523712	30	5668
2026-01-05 19:06:44.96	25.65	75.46	-28.2	-28.8	28.4	0.00e+00	0	34	0	2823815168	30	5600
2026-01-05 19:06:45.97	25.78	75.95	-28.1	-28.7	28.6	0.00e+00	0	34	0	2831155200	30	5504
2026-01-05 19:06:46.98	25.93	76.45	-28.1	-28.6	28.7	0.00e+00	0	34	0	2838495232	30	5502
2026-01-05 19:06:47.99	26.09	76.94	-28.0	-28.6	28.8	0.00e+00	0	34	0	2845835264	30	5463
2026-01-05 19:06:49.00	26.26	77.44	-28.0	-28.6	28.7	0.00e+00	0	34	0	2853175296	30	5470
2026-01-05 19:06:50.01	26.44	77.94	-28.2	-28.8	28.4	0.00e+00	0	34	0	2860515328	30	5574
2026-01-05 19:06:51.02	26.64	78.44	-27.5	-28.1	29.0	0.00e+00	0	34	0	2867855360	28	5811
2026-01-05 19:06:52.03	26.86	78.94	-27.6	-28.2	29.0	0.00e+00	0	34	0	2875195392	28	5829
2026-01-05 19:06:53.04	27.09	79.45	-27.2	-27.8	29.1	0.00e+00	0	34	0	2882535424	28	5580
2026-01-05 19:06:54.05	27.36	79.95	-27.1	-27.7	29.1	0.00e+00	0	34	0	2889875456	28	5514
2026-01-05 19:06:55.06	27.65	80.46	-27.2	-27.7	29.1	0.00e+00	0	34	0	2897215488	28	5565
2026-01-05 19:06:56.06	27.97	80.96	-27.3	-27.9	29.1	0.00e+00	0	34	0	2904555520	28	5661
2026-01-05 19:06:57.07	28.33	81.47	-27.4	-28.0	29.2	0.00e+00	0	34	0	2911895552	28	5730
2026-01-05 19:06:58.08	28.73	81.97	-27.3	-27.9	29.1	0.00e+00	0	34	0	2919235584	28	5677
2026-01-05 19:06:59.09	29.20	82.48	-27.1	-27.7	29.2	0.00e+00	0	34	0	2926575616	28	5529
2026-01-05 19:07:00.10	29.72	82.99	-27.2	-27.8	29.4	0.00e+00	0	34	0	2933915648	28	5609
2026-01-05 19:07:01.11	30.34	83.50	-27.2	-27.8	29.2	0.00e+00	0	34	0	2941255680	28	5599
2026-01-05 19:07:02.12	31.05	84.01	-27.2	-27.8	29.1	0.00e+00	0	34	0	2948595712	28	5610
2026-01-05 19:07:03.13	31.90	84.52	-27.4	-27.9	29.0	0.00e+00	0	34	0	2954887168	28	5687
2026-01-05 19:07:04.14	32.93	85.03	-27.4	-27.9	29.1	0.00e+00	0	34	0	2963275776	28	5683
2026-01-05 19:07:05.15	34.18	85.54	-27.4	-28.0	28.9	0.00e+00	0	34	0	2970615808	28	5708
2026-01-05 19:07:06.16	35.76	86.04	-27.5	-28.0	28.9	0.00e+00	0	34	0	2976907264	28	5753
2026-01-05 19:07:07.17	37.81	86.54	-27.9	-28.5	28.6	0.00e+00	0	34	0	2984247296	28	6068
2026-01-05 19:07:08.18	40.54	87.04	-27.9	-28.5	28.6	0.00e+00	0	34	0	2991587328	28	6067
2026-01-05 19:07:09.18	44.31	87.52	-28.2	-28.8	28.6	0.00e+00	0	34	0	2998927360	28	6286
2026-01-05 19:07:10.19	49.94	88.00	-28.6	-29.2	28.4	0.00e+00	0	34	0	3006267392	28	6569
2026-01-05 19:07:11.20	58.89	88.44	-29.1	-29.7	28.2	0.00e+00	0	34	0	3013607424	30	6203
2026-01-05 19:07:12.21	74.11	88.81	-29.6	-30.1	28.1	0.00e+00	0	34	0	3020947456	30	6529
2026-01-05 19:07:13.22	99.44	89.04	-29.8	-30.3	27.9	0.00e+00	0	34	0	3028287488	32	5937
2026-01-05 19:07:14.23	130.47	89.01	-30.0	-30.5	27.9	0.00e+00	0	33	0	3035627520	34	5434
2026-01-05 19:07:15.24	153.74	88.75	-29.9	-30.4	27.8	0.00e+00	0	34	0	3042967552	34	5373
2026-01-05 19:07:16.25	167.45	88.36	-29.4	-30.0	27.9	0.00e+00	0	34	0	3050307584	34	5115
2026-01-05 19:07:17.25	175.53	87.91	-29.7	-30.3	27.7	0.00e+00	0	34	0	3057647616	32	5916
2026-01-05 19:07:18.27	180.80	87.43	-29.2	-29.8	27.9	0.00e+00	0	34	0	3064987648	32	5606
2026-01-05 19:07:19.27	184.32	86.95	-28.9	-29.5	28.3	0.00e+00	0	34	0	3072327680	30	6053
2026-01-05 19:07:20.28	186.90	86.45	-27.9	-28.5	28.6	0.00e+00	0	34	0	3079667712	30	5421
2026-01-05 19:07:21.29	188.84	85.95	-28.0	-28.6	28.5	0.00e+00	0	34	0	3087007744	30	5482
2026-01-05 19:07:22.30	190.35	85.44	-28.1	-28.8	28.3	0.00e+00	0	33	0	3094347776	30	5571
2026-01-05 19:07:23.31	191.56	84.93	-28.3	-28.8	28.3	0.00e+00	0	34	0	3100639232	30	5630
2026-01-05 19:07:24.32	192.54	84.42	-28.0	-28.6	28.6	0.00e+00	0	34	0	3107979264	30	5459
2026-01-05 19:07:25.33	193.36	83.91	-27.5	-28.1	29.0	0.00e+00	0	34	0	3115319296	28	5767
2026-01-05 19:07:26.34	194.06	83.40	-27.3	-27.9	29.2	0.00e+00	0	34	0	3122659328	28	5633
2026-01-05 19:07:27.35	194.65	82.89	-26.9	-27.5	29.2	0.00e+00	0	34	0	3129999360	28	5411
2026-01-05 19:07:28.36	195.17	82.38	-27.1	-27.7	29.4	0.00e+00	0	34	0	3137339392	28	5526
2026-01-05 19:07:29.37	195.62	81.87	-27.3	-27.9	29.2	0.00e+00	0	34	0	3144679424	28	5645
2026-01-05 19:07:30.37	196.01	81.37	-27.3	-27.9	28.9	0.00e+00	0	34	0	3152019456	28	5677
2026-01-05 19:07:31.38	196.37	80.86	-27.2	-27.8	29.2	0.00e+00	0	34	0	3159359488	28	5593
2026-01-05 19:07:32.39	196.68	80.36	-27.0	-27.6	29.1	0.00e+00	0	34	0	3166699520	28	5481
2026-01-05 19:07:33.40	196.97	79.85	-26.9	-27.5	29.5	0.00e+00	0	34	0	3174039552	28	5393
2026-01-05 19:07:34.41	197.22	79.35	-27.1	-27.7	29.1	0.00e+00	0	34	0	3181379584	28	5516
2026-01-05 19:07:35.42	197.46	78.84	-27.3	-27.9	29.1	0.00e+00	0	34	0	3188719616	28	5666
2026-01-05 19:07:36.43	197.67	78.34	-27.4	-27.9	29.3	0.00e+00	0	34	0	3196059648	28	5683
2026-01-05 19:07:37.44	197.87	77.84	-27.1	-27.7	29.1	0.00e+00	0	34	0	3203399680	28	5528
2026-01-05 19:07:38.45	198.05	77.34	-27.3	-27.9	29.2	0.00e+00	0	33	0	3210739712	28	5647
2026-01-05 19:07:39.45	198.21	76.85	-27.6	-28.1	29.1	0.00e+00	0	34	0	3218079744	28	5822
2026-01-05 19:07:40.47	198.37	76.34	-27.8	-28.4	28.8	0.00e+00	0	34	0	3225419776	28	5978
2026-01-05 19:07:41.47	198.51	75.85	-28.2	-28.8	28.6	0.00e+00	0	34	0	3231711232	28	6281
2026-01-05 19:07:42.49	198.65	75.36	-28.7	-29.3	27.8	0.00e+00	0	34	0	3240099840	28	6620
2026-01-05 19:07:43.49	198.77	74.87	-29.0	-29.7	28.1	0.00e+00	0	34	0	3247439872	30	6179
2026-01-05 19:07:44.50	198.89	74.38	-29.0	-29.6	27.8	0.00e+00	0	34	0	3253731328	30	6152
2026-01-05 19:07:45.51	199.00	73.89	-28.8	-29.4	28.3	0.00e+00	0	34	0	3261071360	30	6007
2026-01-05 19:07:46.52	199.10	73.41	-28.9	-29.6	28.0	0.00e+00	0	34	0	3268411392	30	6108
2026-01-05 19:07:47.52	199.20	72.93	-29.1	-29.7	27.7	0.00e+00	0	34	0	3275751424	30	6179
2026-01-05 19:07:48.53	199.29	72.44	-29.4	-30.0	27.6	0.00e+00	0	34	0	3283091456	30	6407
2026-01-05 19:07:49.55	199.38	71.96	-29.1	-29.7	28.0	0.00e+00	0	34	0	3290431488	30	6224
2026-01-05 19:07:50.55	199.46	71.49	-29.1	-29.7	28.0	0.00e+00	0	34	0	3297771520	30	6211
2026-01-05 19:07:51.56	199.54	71.01	-28.9	-29.5	28.0	0.00e+00	0	34	0	3305111552	30	6103
2026-01-05 19:07:52.57	199.61	70.54	-28.9	-29.5	28.2	0.00e+00	0	34	0	3312451584	30	6090
2026-01-05 19:07:53.58	199.69	70.06	-28.9	-29.5	28.1	0.00e+00	0	34	0	3319791616	30	6076
2026-01-05 19:07:54.59	199.75	69.60	-29.0	-29.6	28.0	0.00e+00	0	34	0	3327131648	30	6112
2026-01-05 19:07:55.60	199.82	69.13	-28.9	-29.4	28.1	0.00e+00	0	34	0	3334471680	30	6029
2026-01-05 19:07:56.61	199.88	68.66	-28.6	-29.2	28.3	0.00e+00	0	34	0	3341811712	30	5881
2026-01-05 19:07:57.62	199.94	68.20	-28.5	-29.1	28.4	0.00e+00	0	34	0	3349151744	30	5799
2026-01-05 19:07:58.63	200.00	67.74	-28.2	-28.8	28.6	0.00e+00	0	34	0	3355443200	30	5608
2026-01-05 19:07:59.64	200.05	67.28	-28.2	-28.8	28.5	0.00e+00	0	34	0	3363831808	30	5604
2026-01-05 19:08:00.65	200.10	66.83	-28.4	-29.0	28.3	0.00e+00	0	34	0	3371171840	30	5714
2026-01-05 19:08:01.65	200.15	66.38	-28.4	-29.0	28.3	0.00e+00	0	34	0	3377463296	30	5756
2026-01-05 19:08:02.66	200.20	65.93	-28.6	-29.2	28.3	0.00e+00	0	34	0	3384803328	30	5845
2026-01-05 19:08:03.67	200.25	65.48	-28.6	-29.2	28.3	0.00e+00	0	34	0	3392143360	30	5878
2026-01-05 19:08:04.68	200.29	65.04	-28.7	-29.3	28.3	0.00e+00	0	34	0	3399483392	30	5942
2026-01-05 19:08:05.69	200.34	64.60	-28.8	-29.4	28.0	0.00e+00	0	34	0	3406823424	30	5994
2026-01-05 19:08:06.70	200.38	64.16	-29.1	-29.7	28.0	0.00e+00	0	34	0	3414163456	30	6215
2026-01-05 19:08:07.71	200.42	63.72	-29.2	-29.8	27.9	0.00e+00	0	34	0	3421503488	30	6281
2026-01-05 19:08:08.72	200.46	63.28	-29.4	-30.0	27.7	0.00e+00	0	34	0	3428843520	30	6459
2026-01-05 19:08:09.73	200.49	62.85	-29.5	-30.1	27.5	0.00e+00	0	34	0	3436183552	30	6530
2026-01-05 19:08:10.74	200.53	62.42	-29.5	-30.1	27.4	0.00e+00	0	34	0	3443523584	30	6491
2026-01-05 19:08:11.75	200.57	62.00	-29.3	-29.9	27.6	0.00e+00	0	34	0	3450863616	30	6383
2026-01-05 19:08:12.76	200.60	61.57	-29.5	-30.1	27.5	0.00e+00	0	34	0	3458203648	30	6485
2026-01-05 19:08:13.77	200.63	61.15	-29.4	-30.0	27.5	0.00e+00	0	34	0	3465543680	30	6443
2026-01-05 19:08:14.78	200.67	60.73	-29.7	-30.4	27.4	0.00e+00	0	34	0	3472883712	30	6697
2026-01-05 19:08:15.79	200.70	60.32	-30.2	-30.9	26.6	0.00e+00	0	34	0	3480223744	32	6325
2026-01-05 19:08:16.80	200.73	59.90	-30.5	-31.1	26.6	0.00e+00	0	34	0	3487563776	32	6516
2026-01-05 19:08:17.81	200.76	59.49	-30.5	-31.1	26.9	0.00e+00	0	34	0	3494903808	32	6534
2026-01-05 19:08:18.82	200.79	59.08	-30.3	-30.9	26.9	0.00e+00	0	34	0	3502243840	32	6369
2026-01-05 19:08:19.83	200.81	58.68	-30.3	-30.9	27.0	0.00e+00	0	34	0	3508535296	32	6338
2026-01-05 19:08:20.84	200.84	58.28	-30.6	-31.2	26.8	0.00e+00	0	34	0	3516923904	32	6583
2026-01-05 19:08:21.85	200.87	57.88	-31.0	-31.6	26.3	0.00e+00	0	34	0	3524263936	34	6165
2026-01-05 19:08:22.85	200.89	57.48	-31.0	-31.7	26.3	0.00e+00	0	34	0	3530555392	34	6203
2026-01-05 19:08:23.86	200.92	57.09	-31.0	-31.6	26.1	0.00e+00	0	34	0	3537895424	34	6157
2026-01-05 19:08:24.87	200.94	56.70	-30.6	-31.2	26.9	0.00e+00	0	34	0	3545235456	34	5855
2026-01-05 19:08:25.88	200.97	56.31	-30.4	-31.0	26.6	0.00e+00	0	34	0	3552575488	34	5740
2026-01-05 19:08:26.89	200.99	55.92	-30.1	-30.8	27.2	0.00e+00	0	34	0	3559915520	34	5568
2026-01-05 19:08:27.90	201.02	55.54	-30.1	-30.7	27.1	0.00e+00	0	34	0	3567255552	34	5553
2026-01-05 19:08:28.91	201.04	55.16	-30.0	-30.6	27.3	0.00e+00	0	34	0	3574595584	34	5498
2026-01-05 19:08:29.92	201.06	54.78	-30.0	-30.6	27.1	0.00e+00	0	34	0	3581935616	34	5472
2026-01-05 19:08:30.93	201.08	54.40	-30.0	-30.6	27.0	0.00e+00	0	34	0	3589275648	34	5497
2026-01-05 19:08:31.94	201.10	54.03	-29.8	-30.4	27.2	0.00e+00	0	34	0	3596615680	34	5362
2026-01-05 19:08:32.95	201.12	53.66	-30.0	-30.6	27.3	0.00e+00	0	34	0	3603955712	34	5453
2026-01-05 19:08:33.96	201.14	53.29	-30.0	-30.6	27.2	0.00e+00	0	34	0	3611295744	34	5456
2026-01-05 19:08:34.97	201.16	52.93	-30.1	-30.6	26.7	0.00e+00	0	34	0	3618635776	34	5498
2026-01-05 19:08:35.98	201.18	52.56	-30.1	-30.7	27.2	0.00e+00	0	34	0	3625975808	34	5547
2026-01-05 19:08:36.99	201.20	52.20	-30.2	-30.8	26.9	0.00e+00	0	34	0	3633315840	34	5585
2026-01-05 19:08:37.99	201.22	51.85	-30.0	-30.6	27.3	0.00e+00	0	34	0	3640655872	34	5472
2026-01-05 19:08:39.00	201.24	51.50	-29.9	-30.5	27.3	0.00e+00	0	34	0	3647995904	34	5435
2026-01-05 19:08:40.01	201.26	51.15	-29.9	-30.5	27.4	0.00e+00	0	34	0	3654287360	34	5412
2026-01-05 19:08:41.02	201.27	50.80	-30.0	-30.6	27.1	0.00e+00	0	34	0	3661627392	34	5498
2026-01-05 19:08:42.03	201.29	50.45	-30.1	-30.7	26.8	0.00e+00	0	34	0	3668967424	34	5512
2026-01-05 19:08:43.04	201.31	50.11	-30.1	-30.7	26.8	0.00e+00	0	34	0	3676307456	34	5561
2026-01-05 19:08:44.05	201.33	49.76	-30.2	-30.8	27.1	0.00e+00	0	34	0	3683647488	34	5626
2026-01-05 19:08:45.06	201.34	49.43	-30.2	-30.8	25.9	0.00e+00	0	34	0	3690987520	34	5615
2026-01-05 19:08:46.07	201.36	49.09	-30.3	-30.9	27.0	0.00e+00	0	34	0	3698327552	34	5637
2026-01-05 19:08:47.08	201.37	48.76	-30.5	-31.1	27.0	0.00e+00	0	34	0	3705667584	34	5801
2026-01-05 19:08:48.09	201.39	48.42	-30.1	-30.8	27.1	0.00e+00	0	34	0	3713007616	34	5569
2026-01-05 19:08:49.10	201.40	48.09	-30.2	-30.8	27.3	0.00e+00	0	34	0	3720347648	34	5606
2026-01-05 19:08:50.11	201.42	47.77	-29.8	-30.4	27.2	0.00e+00	0	34	0	3727687680	34	5331
2026-01-05 19:08:51.12	201.43	47.44	-29.6	-30.2	27.5	0.00e+00	0	34	0	3735027712	32	5841
2026-01-05 19:08:52.13	201.45	47.12	-29.1	-29.7	28.0	0.00e+00	0	34	0	3742367744	32	5514
2026-01-05 19:08:53.14	201.46	46.80	-29.0	-29.6	27.9	0.00e+00	0	34	0	3749707776	32	5494
2026-01-05 19:08:54.14	201.48	46.49	-29.1	-29.7	27.9	0.00e+00	0	34	0	3757047808	32	5535
2026-01-05 19:08:55.15	201.49	46.18	-29.1	-29.7	27.9	0.00e+00	0	34	0	3764387840	32	5544
2026-01-05 19:08:56.16	201.51	45.86	-29.2	-29.7	27.4	0.00e+00	0	34	0	3771727872	32	5565
2026-01-05 19:08:57.17	201.52	45.56	-29.2	-29.8	27.8	0.00e+00	0	34	0	3779067904	32	5591
2026-01-05 19:08:58.18	201.53	45.25	-29.3	-29.9	27.6	0.00e+00	0	34	0	3786407936	32	5668
2026-01-05 19:08:59.19	201.55	44.94	-29.4	-30.0	27.7	0.00e+00	0	34	0	3793747968	32	5720
2026-01-05 19:09:00.20	201.56	44.64	-29.2	-29.9	27.7	0.00e+00	0	34	0	3801088000	32	5643
2026-01-05 19:09:01.21	201.57	44.34	-29.3	-29.9	27.9	0.00e+00	0	34	0	3807379456	32	5643
2026-01-05 19:09:02.22	201.58	44.04	-29.2	-29.8	27.8	0.00e+00	0	34	0	3814719488	32	5573
2026-01-05 19:09:03.23	201.60	43.75	-29.0	-29.6	27.5	0.00e+00	0	34	0	3822059520	32	5448
2026-01-05 19:09:04.24	201.61	43.45	-28.9	-29.5	26.9	0.00e+00	0	34	0	3829399552	32	5396
2026-01-05 19:09:05.25	201.62	43.16	-28.9	-29.5	27.9	0.00e+00	0	34	0	3836739584	32	5418
2026-01-05 19:09:06.26	201.63	42.87	-29.0	-29.6	27.6	0.00e+00	0	34	0	3844079616	32	5447
2026-01-05 19:09:07.27	201.65	42.59	-28.8	-29.4	28.1	0.00e+00	0	34	0	3851419648	30	6031
2026-01-05 19:09:08.28	201.66	42.30	-28.9	-29.5	28.1	0.00e+00	0	34	0	3858759680	30	6039
2026-01-05 19:09:09.29	201.67	42.02	-29.0	-29.6	28.0	0.00e+00	0	34	0	3866099712	30	6152
2026-01-05 19:09:10.29	201.68	41.74	-29.0	-29.6	27.7	0.00e+00	0	34	0	3873439744	30	6118
2026-01-05 19:09:11.30	201.69	41.47	-28.8	-29.3	27.8	0.00e+00	0	34	0	3880779776	30	5961
2026-01-05 19:09:12.31	201.70	41.19	-28.6	-29.2	27.7	0.00e+00	0	34	0	3888119808	30	5875
2026-01-05 19:09:13.32	201.71	40.92	-28.6	-29.2	28.4	0.00e+00	0	34	0	3895459840	30	5859
2026-01-05 19:09:14.33	201.73	40.64	-28.7	-29.3	28.2	0.00e+00	0	34	0	3902799872	30	5908
2026-01-05 19:09:15.34	201.74	40.37	-28.7	-29.3	28.2	0.00e+00	0	34	0	3910139904	30	5938
2026-01-05 19:09:16.35	201.75	40.11	-28.7	-29.2	28.0	0.00e+00	0	34	0	3917479936	30	5883
2026-01-05 19:09:17.36	201.76	39.84	-28.6	-29.2	27.5	0.00e+00	0	34	0	3924819968	30	5875
2026-01-05 19:09:18.37	201.77	39.58	-28.7	-29.3	28.3	0.00e+00	0	34	0	3931111424	30	5956
2026-01-05 19:09:19.38	201.78	39.31	-28.7	-29.3	27.9	0.00e+00	0	34	0	3938451456	30	5942
2026-01-05 19:09:20.38	201.79	39.06	-28.8	-29.4	28.1	0.00e+00	0	34	0	3946840064	30	5988
2026-01-05 19:09:21.40	201.80	38.80	-28.8	-29.5	28.1	0.00e+00	0	34	0	3953131520	30	6037
2026-01-05 19:09:22.41	201.81	38.54	-28.9	-29.5	28.1	0.00e+00	0	34	0	3960471552	30	6068
2026-01-05 19:09:23.41	201.82	38.29	-29.0	-29.6	28.0	0.00e+00	0	34	0	3967811584	30	6114
2026-01-05 19:09:24.43	201.83	38.03	-29.0	-29.6	28.0	0.00e+00	0	34	0	3975151616	30	6159
2026-01-05 19:09:25.44	201.84	37.78	-29.0	-29.6	28.0	0.00e+00	0	34	0	3982491648	30	6119
2026-01-05 19:09:26.45	201.85	37.54	-28.9	-29.5	27.6	0.00e+00	0	34	0	3989831680	30	6071
2026-01-05 19:09:27.45	201.86	37.29	-29.0	-29.6	28.1	0.00e+00	0	34	0	3997171712	30	6125
2026-01-05 19:09:28.46	201.87	37.05	-28.8	-29.4	28.2	0.00e+00	0	34	0	4004511744	30	6000
2026-01-05 19:09:29.47	201.88	36.80	-29.0	-29.6	28.0	0.00e+00	0	34	0	4011851776	30	6116
2026-01-05 19:09:30.48	201.89	36.56	-28.8	-29.4	28.1	0.00e+00	0	34	0	4019191808	30	5977
2026-01-05 19:09:31.49	201.90	36.32	-28.8	-29.4	28.1	0.00e+00	0	34	0	4026531840	30	5999
2026-01-05 19:09:32.50	201.90	36.09	-28.7	-29.3	28.4	0.00e+00	0	34	0	4033871872	30	5904
2026-01-05 19:09:33.51	201.91	35.85	-28.6	-29.2	28.3	0.00e+00	0	34	0	4041211904	30	5847
2026-01-05 19:09:34.52	201.92	35.62	-28.5	-29.1	28.4	0.00e+00	0	34	0	4048551936	30	5804
2026-01-05 19:09:35.53	201.93	35.38	-28.5	-29.1	28.1	0.00e+00	0	34	0	4055891968	30	5763
2026-01-05 19:09:36.54	201.94	35.15	-28.4	-29.0	28.2	0.00e+00	0	34	0	4063232000	30	5736
2026-01-05 19:09:37.55	201.95	34.92	-28.2	-28.8	28.6	0.00e+00	0	34	0	4070572032	30	5614
2026-01-05 19:09:38.56	201.96	34.70	-28.2	-28.8	28.5	0.00e+00	0	34	0	4077912064	30	5590
2026-01-05 19:09:39.57	201.97	34.47	-28.3	-28.9	28.4	0.00e+00	0	34	0	4084203520	30	5631
2026-01-05 19:09:40.58	201.98	34.25	-28.3	-28.9	28.3	0.00e+00	0	34	0	4091543552	30	5643
2026-01-05 19:09:41.59	201.98	34.02	-28.4	-28.9	28.5	0.00e+00	0	34	0	4099932160	30	5687
2026-01-05 19:09:42.60	201.99	33.80	-28.6	-29.2	28.4	0.00e+00	0	34	0	4106223616	30	5830
2026-01-05 19:09:43.61	202.00	33.58	-28.4	-29.0	28.4	0.00e+00	0	34	0	4113563648	30	5713
2026-01-05 19:09:44.62	202.01	33.36	-28.5	-29.0	28.4	0.00e+00	0	34	0	4120903680	30	5747
2026-01-05 19:09:45.63	202.02	33.15	-28.4	-29.0	28.3	0.00e+00	0	34	0	4128243712	30	5715
2026-01-05 19:09:46.64	202.03	32.93	-28.4	-29.0	28.5	0.00e+00	0	34	0	4135583744	30	5719
2026-01-05 19:09:47.65	202.03	32.72	-28.4	-29.0	28.4	0.00e+00	0	34	0	4142923776	30	5727
2026-01-05 19:09:48.66	202.04	32.51	-28.4	-29.0	28.4	0.00e+00	0	34	0	4150263808	30	5733
2026-01-05 19:09:49.67	202.05	32.30	-28.4	-29.0	28.4	0.00e+00	0	34	0	4157603840	30	5702
2026-01-05 19:09:50.67	202.06	32.09	-28.4	-29.0	28.4	0.00e+00	0	34	0	4164943872	30	5716
2026-01-05 19:09:51.68	202.07	31.88	-28.2	-28.8	28.5	0.00e+00	0	34	0	4172283904	30	5612
2026-01-05 19:09:52.69	202.07	31.68	-28.2	-28.8	28.5	0.00e+00	0	34	0	4179623936	30	5580
2026-01-05 19:09:53.70	202.08	31.47	-28.2	-28.9	28.4	0.00e+00	0	34	0	4186963968	30	5631
2026-01-05 19:09:54.71	202.09	31.27	-28.3	-28.9	28.6	0.00e+00	0	34	0	4194304000	30	5635
2026-01-05 19:09:55.72	202.10	31.07	-28.2	-28.8	28.5	0.00e+00	0	34	0	4201644032	30	5578
2026-01-05 19:09:56.73	202.10	30.87	-28.1	-28.7	28.7	0.00e+00	0	34	0	4208984064	30	5503
2026-01-05 19:09:57.74	202.11	30.67	-28.0	-28.6	27.8	0.00e+00	0	34	0	4216324096	30	5445
2026-01-05 19:09:58.75	202.12	30.47	-28.1	-28.7	28.6	0.00e+00	0	34	0	4223664128	30	5507
2026-01-05 19:09:59.76	202.13	30.28	-28.1	-28.7	28.7	0.00e+00	0	34	0	4229955584	30	5530
2026-01-05 19:10:00.77	202.13	30.08	-28.1	-28.7	28.7	0.00e+00	0	34	0	4237295616	30	5538
2026-01-05 19:10:01.78	202.14	29.89	-28.2	-28.8	28.5	0.00e+00	0	34	0	4245684224	30	5567
2026-01-05 19:10:02.79	202.15	29.69	-28.2	-28.8	28.6	0.00e+00	0	34	0	4251975680	30	5587
2026-01-05 19:10:03.79	202.16	29.51	-28.4	-29.0	28.3	0.00e+00	0	34	0	4259315712	30	5721
2026-01-05 19:10:04.80	202.16	29.32	-28.5	-29.1	28.4	0.00e+00	0	34	0	4266655744	30	5780
2026-01-05 19:10:05.81	202.17	29.13	-28.7	-29.3	28.3	0.00e+00	0	34	0	4273995776	30	5898
2026-01-05 19:10:06.82	202.18	28.94	-28.7	-29.3	28.1	0.00e+00	0	34	0	4281335808	30	5913
2026-01-05 19:10:07.83	202.18	28.75	-28.8	-29.4	28.1	0.00e+00	0	34	0	4288675840	30	5992
2026-01-05 19:10:08.84	202.19	28.57	-28.8	-29.4	28.2	0.00e+00	0	34	0	4296015872	30	5983
2026-01-05 19:10:09.85	202.20	28.39	-28.9	-29.4	28.2	0.00e+00	0	34	0	4303355904	30	6026
2026-01-05 19:10:10.86	202.21	28.20	-28.8	-29.4	28.1	0.00e+00	0	34	0	4310695936	30	6015
2026-01-05 19:10:11.86	202.21	28.02	-28.9	-29.5	28.1	0.00e+00	0	34	0	4318035968	30	6052
2026-01-05 19:10:12.88	202.22	27.84	-28.9	-29.5	28.0	0.00e+00	0	34	0	4325376000	30	6083
2026-01-05 19:10:13.89	202.23	27.66	-29.0	-29.6	27.9	0.00e+00	0	34	0	4332716032	30	6152
2026-01-05 19:10:14.89	202.23	27.49	-28.9	-29.5	27.9	0.00e+00	0	34	0	4340056064	30	6086
2026-01-05 19:10:15.91	202.24	27.31	-29.1	-29.7	28.0	0.00e+00	0	34	0	4347396096	30	6181
2026-01-05 19:10:16.91	202.25	27.14	-29.0	-29.6	28.0	0.00e+00	0	34	0	4354736128	30	6120
2026-01-05 19:10:17.92	202.25	26.96	-29.1	-29.7	27.9	0.00e+00	0	34	0	4361027584	30	6190
2026-01-05 19:10:18.93	202.26	26.79	-29.1	-29.7	27.9	0.00e+00	0	34	0	4369416192	30	6183
2026-01-05 19:10:19.95	202.27	26.61	-29.3	-29.8	27.7	0.00e+00	0	34	0	4376756224	30	6317
2026-01-05 19:10:20.96	202.27	26.44	-29.1	-29.7	27.9	0.00e+00	0	34	0	4383047680	30	6187
2026-01-05 19:10:21.97	202.28	26.27	-29.1	-29.7	28.0	0.00e+00	0	34	0	4390387712	30	6203
2026-01-05 19:10:22.97	202.29	26.11	-29.2	-29.8	27.9	0.00e+00	0	34	0	4397727744	30	6287
2026-01-05 19:10:23.98	202.29	25.94	-29.2	-29.8	27.9	0.00e+00	0	34	0	4405067776	30	6255
2026-01-05 19:10:24.99	202.30	25.77	-29.1	-29.7	27.8	0.00e+00	0	34	0	4412407808	30	6235
2026-01-05 19:10:26.00	202.31	25.61	-29.2	-29.8	27.9	0.00e+00	0	34	0	4419747840	30	6287
2026-01-05 19:10:27.01	202.31	25.44	-29.2	-29.8	27.9	0.00e+00	0	34	0	4427087872	30	6305
2026-01-05 19:10:28.02	202.32	25.28	-29.3	-29.9	27.8	0.00e+00	0	34	0	4434427904	30	6348
2026-01-05 19:10:29.03	202.33	25.12	-29.3	-29.9	27.7	0.00e+00	0	34	0	4441767936	30	6352
2026-01-05 19:10:30.04	202.33	24.95	-29.3	-29.9	27.7	0.00e+00	0	34	0	4449107968	30	6360
2026-01-05 19:10:31.05	202.34	24.79	-29.2	-29.8	27.8	0.00e+00	0	34	0	4456448000	30	6290
2026-01-05 19:10:32.06	202.34	24.63	-29.4	-30.0	27.7	0.00e+00	0	34	0	4463788032	30	6398
2026-01-05 19:10:33.07	202.35	24.47	-29.3	-29.9	27.6	0.00e+00	0	34	0	4471128064	30	6382
2026-01-05 19:10:34.08	202.36	24.32	-29.3	-29.9	27.7	0.00e+00	0	34	0	4478468096	30	6334
2026-01-05 19:10:35.09	202.36	24.16	-29.3	-29.9	27.8	0.00e+00	0	34	0	4485808128	30	6362
2026-01-05 19:10:36.10	202.37	24.00	-29.3	-29.9	27.7	0.00e+00	0	34	0	4493148160	30	6379
2026-01-05 19:10:37.11	202.38	23.85	-29.3	-29.8	27.8	0.00e+00	0	34	0	4500488192	30	6315
2026-01-05 19:10:38.12	202.38	23.70	-29.3	-29.9	27.8	0.00e+00	0	34	0	4506779648	30	6376
2026-01-05 19:10:39.13	202.39	23.54	-29.3	-29.9	27.8	0.00e+00	0	34	0	4514119680	30	6346
2026-01-05 19:10:40.14	202.39	23.39	-29.4	-30.0	27.7	0.00e+00	0	34	0	4522508288	30	6412
2026-01-05 19:10:41.15	202.40	23.24	-29.2	-29.8	27.9	0.00e+00	0	34	0	4528799744	30	6278
2026-01-05 19:10:42.16	202.41	23.09	-29.2	-29.8	27.8	0.00e+00	0	34	0	4536139776	30	6304
2026-01-05 19:10:43.17	202.41	22.94	-29.4	-30.0	27.7	0.00e+00	0	34	0	4543479808	30	6412
2026-01-05 19:10:44.18	202.42	22.79	-29.3	-29.9	27.8	0.00e+00	0	34	0	4550819840	30	6353
2026-01-05 19:10:45.18	202.42	22.64	-29.2	-29.8	27.8	0.00e+00	0	34	0	4558159872	30	6307
2026-01-05 19:10:46.19	202.43	22.50	-29.2	-29.8	27.8	0.00e+00	0	34	0	4565499904	30	6306
2026-01-05 19:10:47.20	202.44	22.35	-29.2	-29.8	27.8	0.00e+00	0	34	0	4572839936	30	6289
2026-01-05 19:10:48.21	202.44	22.21	-29.2	-29.8	27.8	0.00e+00	0	34	0	4580179968	30	6300
2026-01-05 19:10:49.22	202.45	22.06	-29.2	-29.8	27.8	0.00e+00	0	34	0	4587520000	30	6310
2026-01-05 19:10:50.23	202.45	21.92	-29.2	-29.8	27.8	0.00e+00	0	34	0	4594860032	30	6306
2026-01-05 19:10:51.24	202.46	21.77	-29.3	-29.9	27.7	0.00e+00	0	34	0	4602200064	30	6367
2026-01-05 19:10:52.25	202.46	21.63	-29.4	-30.0	27.5	0.00e+00	0	34	0	4609540096	30	6447
2026-01-05 19:10:53.25	202.47	21.49	-29.4	-30.0	27.6	0.00e+00	0	34	0	4616880128	30	6459
2026-01-05 19:10:54.26	202.48	21.35	-29.5	-30.1	27.6	0.00e+00	0	34	0	4624220160	30	6489
2026-01-05 19:10:55.27	202.48	21.21	-29.4	-30.0	27.7	0.00e+00	0	34	0	4631560192	30	6436
2026-01-05 19:10:56.28	202.49	21.07	-29.4	-30.0	27.6	0.00e+00	0	34	0	4638900224	30	6427
2026-01-05 19:10:57.29	202.49	20.93	-29.5	-30.1	27.7	0.00e+00	0	34	0	4646240256	30	6478
2026-01-05 19:10:58.30	202.50	20.80	-29.4	-29.9	27.7	0.00e+00	0	34	0	4653580288	30	6381
2026-01-05 19:10:59.31	202.50	20.66	-29.4	-30.0	27.5	0.00e+00	0	34	0	4659871744	30	6428
2026-01-05 19:11:00.32	202.51	20.52	-29.4	-30.0	27.6	0.00e+00	0	34	0	4667211776	30	6444
