passes_logs/2026/01/05/R4.6S_Anadyr/R4.6S_Anadyr__20260105_224729_SUOMI_NPP_rec.log

#Pass ID: 20260105_224729_SUOMI NPP
#Satellite: SUOMI NPP
#Configuration: NPP
#almurnet v.1.7.20251203
#Start time: 2026-01-05 22:47:31

#Version: 2.2.20231116
#Station: R4.6S_Anadyr
#Location: 177.4865 lon 64.73178 lat
#TLE: 1 37849U 11061A   26004.95404768  .00000136  00000+0  85334-4 0  9991
#TLE: 2 37849  98.7801 307.0898 0002575  80.6707 279.4760 14.19522289735281

#Time	Az	El	Level	Level2	SNR	BER	BlckErr	Temp	State	Recorded	gain1	gain2
2026-01-05 22:47:31.31	119.80	0.11	-48.5	-61.0	3.5	1.52e+00	0	31	0	0	60	39445
2026-01-05 22:47:32.31	119.77	0.17	-48.6	-63.8	3.6	1.51e+00	0	32	104	0	60	55768
2026-01-05 22:47:33.32	119.73	0.23	-48.6	-63.8	3.6	1.51e+00	0	32	104	0	60	55698
2026-01-05 22:47:34.33	119.69	0.28	-48.6	-63.8	3.6	1.51e+00	0	32	104	0	60	55971
2026-01-05 22:47:35.34	119.66	0.34	-48.6	-63.8	3.6	1.51e+00	0	32	104	0	60	55751
2026-01-05 22:47:36.35	119.62	0.40	-48.6	-63.8	3.6	1.51e+00	0	32	104	0	60	56094
2026-01-05 22:47:37.36	119.58	0.46	-48.6	-63.9	3.6	1.51e+00	0	32	104	0	60	56383
2026-01-05 22:47:38.37	119.55	0.52	-48.7	-63.9	3.6	1.51e+00	0	32	104	0	60	56442
2026-01-05 22:47:39.39	119.51	0.58	-48.7	-63.8	3.6	1.51e+00	0	32	104	0	60	56179
2026-01-05 22:47:40.39	119.47	0.64	-48.6	-63.8	3.6	1.51e+00	0	32	104	0	60	56235
2026-01-05 22:47:41.41	119.43	0.70	-48.6	-63.8	3.6	1.51e+00	0	33	104	0	60	56023
2026-01-05 22:47:42.42	119.39	0.76	-48.6	-63.7	3.6	1.51e+00	0	33	104	0	60	55661
2026-01-05 22:47:43.42	119.36	0.82	-48.5	-63.7	3.6	1.51e+00	0	33	104	0	60	55159
2026-01-05 22:47:44.44	119.32	0.88	-48.4	-63.6	3.6	1.51e+00	0	33	104	0	60	54696
2026-01-05 22:47:45.45	119.28	0.94	-48.1	-63.5	3.6	1.51e+00	0	33	104	0	60	54134
2026-01-05 22:47:46.46	119.24	1.00	-47.9	-63.3	3.6	1.51e+00	0	33	104	0	60	52618
2026-01-05 22:47:47.47	119.20	1.06	-47.5	-63.0	3.6	1.51e+00	0	33	104	0	60	51059
2026-01-05 22:47:48.48	119.16	1.12	-46.7	-62.3	3.6	1.51e+00	0	33	104	0	60	47174
2026-01-05 22:47:49.49	119.12	1.18	-46.8	-62.2	3.6	1.51e+00	0	33	104	0	60	46575
2026-01-05 22:47:50.50	119.08	1.24	-46.8	-62.3	3.6	1.51e+00	0	33	104	0	60	46945
2026-01-05 22:47:51.51	119.05	1.30	-46.8	-62.2	3.6	1.51e+00	0	33	104	0	60	46628
2026-01-05 22:47:52.52	119.01	1.36	-46.8	-62.3	3.6	1.51e+00	0	33	104	0	60	46842
2026-01-05 22:47:53.53	118.97	1.42	-46.7	-62.2	3.6	1.51e+00	0	33	104	0	60	46672
2026-01-05 22:47:54.54	118.93	1.48	-46.7	-62.2	3.6	1.51e+00	0	33	104	0	60	46803
2026-01-05 22:47:55.55	118.89	1.54	-46.7	-62.3	3.6	1.51e+00	0	33	104	0	60	46933
2026-01-05 22:47:56.56	118.84	1.60	-46.7	-62.3	3.6	1.51e+00	0	33	104	0	60	47104
2026-01-05 22:47:57.57	118.80	1.66	-46.7	-62.2	3.6	1.51e+00	0	33	104	0	60	46767
2026-01-05 22:47:58.58	118.76	1.72	-46.7	-62.3	3.6	1.51e+00	0	33	104	0	60	47038
2026-01-05 22:47:59.59	118.72	1.79	-46.7	-62.2	3.6	1.51e+00	0	33	104	0	60	46834
2026-01-05 22:48:00.60	118.68	1.85	-46.7	-62.3	3.6	1.51e+00	0	33	104	0	60	46864
2026-01-05 22:48:01.61	118.64	1.91	-46.8	-62.3	3.6	1.51e+00	0	33	104	0	60	46946
2026-01-05 22:48:02.62	118.60	1.97	-46.7	-62.2	3.6	1.51e+00	0	33	104	0	60	46634
2026-01-05 22:48:03.63	118.56	2.03	-46.7	-62.1	3.6	1.51e+00	0	33	104	0	60	46054
2026-01-05 22:48:04.64	118.51	2.09	-46.7	-62.1	3.6	1.51e+00	0	33	104	0	60	45874
2026-01-05 22:48:05.65	118.47	2.16	-46.7	-62.0	3.6	1.51e+00	0	33	104	0	60	45553
2026-01-05 22:48:06.66	118.43	2.22	-46.7	-62.0	3.6	1.51e+00	0	33	104	0	60	45455
2026-01-05 22:48:07.67	118.39	2.28	-46.7	-62.0	3.6	1.51e+00	0	33	104	0	60	45705
2026-01-05 22:48:08.68	118.35	2.34	-46.7	-62.2	3.6	1.51e+00	0	33	104	0	60	46419
2026-01-05 22:48:09.69	118.30	2.41	-46.7	-62.3	3.6	1.51e+00	0	33	104	0	60	46837
2026-01-05 22:48:10.70	118.26	2.47	-46.7	-62.2	3.5	1.51e+00	0	33	104	0	60	46702
2026-01-05 22:48:11.71	118.22	2.53	-46.7	-62.2	3.5	1.51e+00	0	33	104	0	60	46669
2026-01-05 22:48:12.72	118.17	2.59	-46.7	-62.2	3.6	1.51e+00	0	33	104	0	60	46436
2026-01-05 22:48:13.72	118.13	2.66	-46.7	-62.2	3.6	1.51e+00	0	33	104	0	60	46366
2026-01-05 22:48:14.74	118.09	2.72	-46.7	-62.2	3.6	1.51e+00	0	33	104	0	60	46572
2026-01-05 22:48:15.75	118.04	2.78	-46.7	-62.1	3.6	1.51e+00	0	33	104	0	60	46155
2026-01-05 22:48:16.76	118.00	2.85	-46.7	-62.0	3.6	1.51e+00	0	33	104	0	60	45632
2026-01-05 22:48:17.76	117.95	2.91	-46.7	-61.8	3.6	1.51e+00	0	33	104	0	60	44262
2026-01-05 22:48:18.77	117.91	2.97	-46.7	-61.6	3.6	1.51e+00	0	33	104	0	60	43630
2026-01-05 22:48:19.79	117.86	3.04	-46.7	-61.4	3.6	1.51e+00	0	33	104	0	60	42371
2026-01-05 22:48:20.79	117.82	3.10	-46.7	-61.4	3.6	1.51e+00	0	33	104	0	60	42593
2026-01-05 22:48:21.80	117.77	3.17	-46.7	-61.8	3.6	1.51e+00	0	33	104	0	60	44723
2026-01-05 22:48:22.81	117.73	3.23	-46.7	-62.1	3.6	1.51e+00	0	33	104	0	60	46200
2026-01-05 22:48:23.82	117.68	3.29	-46.7	-61.1	3.6	1.51e+00	0	33	104	0	60	41066
2026-01-05 22:48:24.83	117.64	3.36	-46.5	-57.9	4.3	1.50e+00	67	33	104	0	60	28424
2026-01-05 22:48:25.84	117.59	3.42	-46.1	-53.6	6.7	3.44e-01	0	33	0	1048576	60	17240
2026-01-05 22:48:26.85	117.54	3.49	-45.5	-51.2	9.4	7.17e-02	0	33	0	3145728	60	13136
2026-01-05 22:48:27.87	117.50	3.55	-44.8	-49.3	11.6	4.09e-03	0	33	0	4194304	60	10494
2026-01-05 22:48:28.87	117.45	3.62	-44.4	-48.3	12.6	1.63e-04	0	33	0	6291456	60	9433
2026-01-05 22:48:29.88	117.40	3.68	-46.9	-61.0	3.6	7.54e-01	0	33	104	7340032	60	40711
2026-01-05 22:48:30.89	117.36	3.75	-46.9	-62.3	3.6	1.51e+00	0	33	104	7340032	60	47093
2026-01-05 22:48:31.90	117.31	3.81	-45.4	-51.4	8.9	5.56e-01	0	33	104	7340032	60	13465
2026-01-05 22:48:32.91	117.26	3.88	-41.2	-43.1	17.9	3.96e-05	0	33	0	8388608	56	6509
2026-01-05 22:48:33.92	117.21	3.95	-46.6	-60.3	3.6	7.80e-02	0	33	104	9437184	60	37276
2026-01-05 22:48:34.93	117.17	4.01	-41.8	-44.0	16.7	1.18e+00	0	33	104	9437184	58	6461
2026-01-05 22:48:35.94	117.12	4.08	-42.0	-44.1	17.2	0.00e+00	0	33	0	9437184	56	7301
2026-01-05 22:48:36.95	117.07	4.14	-41.6	-43.6	17.7	0.00e+00	0	33	0	11534336	56	6871
2026-01-05 22:48:37.96	117.02	4.21	-41.5	-43.4	17.8	0.00e+00	0	33	0	13631488	56	6723
2026-01-05 22:48:38.97	116.97	4.28	-41.1	-42.9	18.4	0.00e+00	0	33	0	15728640	56	6350
2026-01-05 22:48:39.97	116.92	4.34	-40.9	-42.5	18.8	0.00e+00	0	33	0	16777216	56	6069
2026-01-05 22:48:40.98	116.87	4.41	-40.6	-42.2	19.0	0.00e+00	0	33	0	18874368	54	6575
2026-01-05 22:48:41.99	116.82	4.48	-40.7	-42.2	19.0	0.00e+00	0	33	0	20971520	54	6599
2026-01-05 22:48:43.00	116.77	4.54	-41.0	-42.6	18.6	0.00e+00	0	33	0	23068672	54	6924
2026-01-05 22:48:44.00	116.72	4.61	-40.7	-42.3	19.0	0.00e+00	0	33	0	25165824	54	6688
2026-01-05 22:48:45.01	116.67	4.68	-40.8	-42.4	18.7	0.00e+00	0	33	0	26214400	54	6716
2026-01-05 22:48:46.02	116.62	4.74	-40.9	-42.6	18.6	0.00e+00	0	33	0	28311552	54	6879
2026-01-05 22:48:47.03	116.57	4.81	-40.8	-42.4	18.9	0.00e+00	0	33	0	30408704	54	6747
2026-01-05 22:48:48.04	116.52	4.88	-41.0	-42.7	18.6	0.00e+00	0	33	0	32505856	54	6966
2026-01-05 22:48:49.04	116.47	4.95	-40.8	-42.4	18.9	0.00e+00	0	33	0	34603008	54	6726
2026-01-05 22:48:50.05	116.42	5.02	-40.8	-42.4	18.9	0.00e+00	0	33	0	35651584	54	6751
2026-01-05 22:48:51.06	116.37	5.08	-40.7	-42.3	18.9	0.00e+00	0	33	0	37748736	54	6664
2026-01-05 22:48:52.07	116.31	5.15	-40.8	-42.3	19.0	0.00e+00	0	33	0	39845888	54	6663
2026-01-05 22:48:53.08	116.26	5.22	-40.6	-42.1	19.3	0.00e+00	0	33	0	41943040	54	6477
2026-01-05 22:48:54.09	116.21	5.29	-40.4	-41.8	19.5	0.00e+00	0	33	0	44040192	54	6289
2026-01-05 22:48:55.10	116.15	5.36	-40.4	-41.9	19.5	0.00e+00	0	33	0	45088768	54	6345
2026-01-05 22:48:56.10	116.10	5.43	-40.7	-42.3	19.1	0.00e+00	0	33	0	47185920	54	6640
2026-01-05 22:48:57.11	116.05	5.50	-40.7	-42.2	19.2	0.00e+00	0	33	0	49283072	54	6586
2026-01-05 22:48:58.12	115.99	5.56	-40.8	-42.4	19.3	0.00e+00	0	33	0	51380224	54	6742
2026-01-05 22:48:59.14	115.94	5.63	-40.7	-42.2	19.2	0.00e+00	0	33	0	53477376	54	6580
2026-01-05 22:49:00.14	115.89	5.70	-41.0	-42.6	18.8	0.00e+00	0	33	0	54525952	54	6864
2026-01-05 22:49:01.15	115.83	5.77	-40.6	-42.2	19.1	0.00e+00	0	33	0	56623104	54	6543
2026-01-05 22:49:02.16	115.78	5.84	-40.8	-42.4	19.0	0.00e+00	0	33	0	58720256	54	6729
2026-01-05 22:49:03.17	115.72	5.91	-40.7	-42.3	19.2	0.00e+00	0	33	0	60817408	54	6628
2026-01-05 22:49:04.18	115.67	5.98	-40.6	-42.1	19.4	0.00e+00	0	33	0	62914560	54	6471
2026-01-05 22:49:05.19	115.61	6.05	-40.4	-41.9	19.6	0.00e+00	0	33	0	63963136	54	6338
2026-01-05 22:49:06.20	115.55	6.12	-40.2	-41.6	19.8	0.00e+00	0	33	0	66060288	54	6162
2026-01-05 22:49:07.21	115.50	6.20	-39.8	-41.2	20.2	0.00e+00	0	33	0	68157440	54	5863
2026-01-05 22:49:08.22	115.44	6.27	-39.8	-41.2	20.2	0.00e+00	0	33	0	70254592	52	6557
2026-01-05 22:49:09.22	115.38	6.34	-39.8	-41.1	20.2	0.00e+00	0	33	0	72351744	52	6522
2026-01-05 22:49:10.23	115.33	6.41	-39.9	-41.3	20.1	0.00e+00	0	33	0	74448896	52	6631
2026-01-05 22:49:11.24	115.27	6.48	-40.2	-41.6	19.9	0.00e+00	0	33	0	75497472	52	6902
2026-01-05 22:49:12.25	115.21	6.55	-40.2	-41.7	19.7	0.00e+00	0	33	0	77594624	52	6946
2026-01-05 22:49:13.26	115.15	6.62	-40.4	-42.0	19.6	0.00e+00	0	33	0	79691776	52	7186
2026-01-05 22:49:14.27	115.10	6.69	-40.3	-41.8	19.7	0.00e+00	0	33	0	81788928	52	7035
2026-01-05 22:49:15.28	115.04	6.77	-40.6	-42.1	19.4	0.00e+00	0	33	0	83886080	52	7283
2026-01-05 22:49:16.29	114.98	6.84	-40.5	-41.9	19.7	0.00e+00	0	33	0	84934656	54	6371
2026-01-05 22:49:17.30	114.92	6.91	-40.4	-41.8	19.8	0.00e+00	0	33	0	87031808	54	6309
2026-01-05 22:49:18.31	114.86	6.98	-40.2	-41.6	20.0	0.00e+00	0	33	0	89128960	54	6107
2026-01-05 22:49:19.32	114.80	7.06	-40.0	-41.3	20.3	0.00e+00	0	33	0	91226112	54	5920
2026-01-05 22:49:20.33	114.74	7.13	-39.8	-41.0	20.5	0.00e+00	0	33	0	93323264	52	6444
2026-01-05 22:49:21.34	114.68	7.20	-39.6	-40.8	20.6	0.00e+00	0	33	0	94371840	52	6312
2026-01-05 22:49:22.35	114.62	7.28	-39.5	-40.7	20.8	0.00e+00	0	33	0	96468992	52	6188
2026-01-05 22:49:23.35	114.56	7.35	-39.6	-40.8	20.6	0.00e+00	0	33	0	98566144	52	6260
2026-01-05 22:49:24.36	114.50	7.42	-39.7	-40.9	20.6	0.00e+00	0	33	0	100663296	52	6354
2026-01-05 22:49:25.37	114.43	7.50	-39.3	-40.5	20.9	0.00e+00	0	33	0	102760448	52	6089
2026-01-05 22:49:26.38	114.37	7.57	-39.6	-40.8	20.7	0.00e+00	0	33	0	103809024	52	6317
2026-01-05 22:49:27.39	114.31	7.64	-39.6	-40.8	20.7	0.00e+00	0	33	0	105906176	52	6297
2026-01-05 22:49:28.40	114.25	7.72	-39.6	-40.8	20.7	0.00e+00	0	33	0	108003328	52	6280
2026-01-05 22:49:29.41	114.18	7.79	-39.6	-40.8	20.7	0.00e+00	0	33	0	110100480	52	6277
2026-01-05 22:49:30.42	114.12	7.87	-39.5	-40.7	20.8	0.00e+00	0	33	0	112197632	52	6216
2026-01-05 22:49:31.43	114.06	7.94	-39.6	-40.8	20.7	0.00e+00	0	33	0	113246208	52	6271
2026-01-05 22:49:32.44	113.99	8.02	-39.3	-40.4	21.1	0.00e+00	0	33	0	115343360	52	6027
2026-01-05 22:49:33.45	113.93	8.09	-39.1	-40.2	21.2	0.00e+00	0	33	0	117440512	52	5880
2026-01-05 22:49:34.46	113.86	8.17	-39.1	-40.3	21.2	0.00e+00	0	33	0	119537664	52	5910
2026-01-05 22:49:35.47	113.80	8.24	-39.1	-40.3	21.1	0.00e+00	0	33	0	121634816	52	5944
2026-01-05 22:49:36.48	113.73	8.32	-39.6	-40.8	20.7	0.00e+00	0	33	0	122683392	52	6293
2026-01-05 22:49:37.49	113.66	8.40	-39.0	-40.2	21.1	0.00e+00	0	33	0	124780544	52	5886
2026-01-05 22:49:38.50	113.60	8.47	-39.0	-40.2	21.3	0.00e+00	0	33	0	126877696	52	5844
2026-01-05 22:49:39.51	113.53	8.55	-39.3	-40.6	20.9	0.00e+00	0	33	0	128974848	52	6109
2026-01-05 22:49:40.52	113.46	8.63	-39.4	-40.7	20.9	0.00e+00	0	33	0	131072000	52	6204
2026-01-05 22:49:41.53	113.40	8.70	-39.3	-40.5	21.1	0.00e+00	0	33	0	132120576	52	6069
2026-01-05 22:49:42.54	113.33	8.78	-39.3	-40.5	21.0	0.00e+00	0	33	0	134217728	52	6084
2026-01-05 22:49:43.54	113.26	8.86	-39.3	-40.5	21.1	0.00e+00	0	33	0	136314880	52	6039
2026-01-05 22:49:44.55	113.19	8.93	-39.0	-40.2	21.4	0.00e+00	0	33	0	138412032	52	5838
2026-01-05 22:49:45.56	113.12	9.01	-39.0	-40.1	21.3	0.00e+00	0	33	0	140509184	52	5812
2026-01-05 22:49:46.57	113.05	9.09	-39.0	-40.1	21.4	0.00e+00	0	33	0	142606336	52	5776
2026-01-05 22:49:47.58	112.99	9.17	-38.9	-40.0	21.6	0.00e+00	0	33	0	143654912	52	5729
2026-01-05 22:49:48.59	112.92	9.25	-38.9	-40.0	21.4	0.00e+00	0	33	0	145752064	52	5703
2026-01-05 22:49:49.60	112.84	9.32	-39.2	-40.4	21.2	0.00e+00	0	33	0	147849216	50	6699
2026-01-05 22:49:50.61	112.77	9.40	-39.1	-40.3	21.2	0.00e+00	0	33	0	149946368	50	6620
2026-01-05 22:49:51.62	112.70	9.48	-39.3	-40.5	21.2	0.00e+00	0	33	0	150994944	50	6772
2026-01-05 22:49:52.63	112.63	9.56	-39.5	-40.8	20.8	0.00e+00	0	33	0	153092096	50	7028
2026-01-05 22:49:53.64	112.56	9.64	-39.5	-40.8	20.8	0.00e+00	0	33	0	155189248	50	7035
2026-01-05 22:49:54.65	112.49	9.72	-39.3	-40.5	21.1	0.00e+00	0	33	0	157286400	50	6822
2026-01-05 22:49:55.65	112.41	9.80	-39.3	-40.5	21.1	0.00e+00	0	33	0	159383552	50	6788
2026-01-05 22:49:56.66	112.34	9.88	-39.4	-40.6	21.1	0.00e+00	0	33	0	160432128	50	6861
2026-01-05 22:49:57.67	112.27	9.96	-39.1	-40.2	21.4	0.00e+00	0	33	0	162529280	50	6615
2026-01-05 22:49:58.68	112.19	10.04	-38.9	-40.0	21.5	0.00e+00	0	33	0	164626432	50	6462
2026-01-05 22:49:59.69	112.12	10.12	-38.7	-39.8	21.7	0.00e+00	0	33	0	166723584	50	6311
2026-01-05 22:50:00.70	112.04	10.20	-38.8	-40.0	21.6	0.00e+00	0	33	0	168820736	50	6396
2026-01-05 22:50:01.71	111.97	10.28	-38.6	-39.7	21.7	0.00e+00	0	33	0	170917888	50	6229
2026-01-05 22:50:02.71	111.89	10.36	-38.7	-39.8	21.6	0.00e+00	0	33	0	171966464	50	6314
2026-01-05 22:50:03.72	111.82	10.44	-38.7	-39.8	21.7	0.00e+00	0	33	0	174063616	50	6277
2026-01-05 22:50:04.73	111.74	10.53	-38.7	-39.8	21.7	0.00e+00	0	33	0	176160768	50	6267
2026-01-05 22:50:05.74	111.66	10.61	-38.9	-40.1	21.6	0.00e+00	0	33	0	178257920	50	6491
2026-01-05 22:50:06.75	111.58	10.69	-38.8	-39.9	21.6	0.00e+00	0	33	0	180355072	50	6383
2026-01-05 22:50:07.76	111.51	10.77	-38.6	-39.8	21.9	0.00e+00	0	33	0	181403648	50	6263
2026-01-05 22:50:08.77	111.43	10.85	-38.3	-39.4	22.0	0.00e+00	0	33	0	183500800	50	6020
2026-01-05 22:50:09.78	111.35	10.94	-38.3	-39.4	22.1	0.00e+00	0	33	0	185597952	50	6027
2026-01-05 22:50:10.79	111.27	11.02	-38.1	-39.1	22.2	0.00e+00	0	33	0	187695104	50	5799
2026-01-05 22:50:11.80	111.19	11.10	-38.2	-39.2	22.2	0.00e+00	0	33	0	189792256	50	5870
2026-01-05 22:50:12.81	111.11	11.19	-38.2	-39.2	22.1	0.00e+00	0	33	0	190840832	50	5852
2026-01-05 22:50:13.82	111.03	11.27	-38.2	-39.2	22.2	0.00e+00	0	33	0	192937984	50	5859
2026-01-05 22:50:14.83	110.95	11.35	-38.2	-39.2	22.3	0.00e+00	0	33	0	195035136	50	5867
2026-01-05 22:50:15.84	110.86	11.44	-38.2	-39.2	22.2	0.00e+00	0	33	0	197132288	50	5870
2026-01-05 22:50:16.84	110.78	11.52	-38.3	-39.3	22.2	0.00e+00	0	33	0	199229440	50	5924
2026-01-05 22:50:17.85	110.70	11.61	-38.1	-39.2	22.3	0.00e+00	0	33	0	200278016	50	5834
2026-01-05 22:50:18.86	110.62	11.69	-38.1	-39.1	22.3	0.00e+00	0	33	0	202375168	50	5794
2026-01-05 22:50:19.87	110.53	11.78	-37.9	-38.9	22.5	0.00e+00	0	33	0	204472320	50	5649
2026-01-05 22:50:20.88	110.45	11.86	-37.9	-38.9	22.5	0.00e+00	0	33	0	206569472	50	5677
2026-01-05 22:50:21.89	110.36	11.95	-37.9	-38.9	22.5	0.00e+00	0	33	0	208666624	50	5668
2026-01-05 22:50:22.90	110.28	12.03	-38.2	-39.2	22.2	0.00e+00	0	33	0	209715200	50	5855
2026-01-05 22:50:23.91	110.19	12.12	-38.3	-39.3	22.3	0.00e+00	0	33	0	211812352	50	5905
2026-01-05 22:50:24.92	110.11	12.21	-38.5	-39.6	22.0	0.00e+00	0	33	0	213909504	50	6124
2026-01-05 22:50:25.93	110.02	12.29	-38.3	-39.3	22.1	0.00e+00	0	34	0	216006656	50	5915
2026-01-05 22:50:26.94	109.93	12.38	-38.3	-39.3	22.2	0.00e+00	0	33	0	218103808	50	5920
2026-01-05 22:50:27.95	109.84	12.47	-38.5	-39.6	21.9	0.00e+00	0	34	0	219152384	50	6132
2026-01-05 22:50:28.96	109.75	12.55	-38.2	-39.2	22.1	0.00e+00	0	33	0	221249536	50	5884
2026-01-05 22:50:29.97	109.67	12.64	-38.3	-39.3	22.2	0.00e+00	0	33	0	223346688	50	5929
2026-01-05 22:50:30.98	109.58	12.73	-38.2	-39.2	22.2	0.00e+00	0	33	0	225443840	50	5871
2026-01-05 22:50:31.99	109.49	12.82	-38.0	-39.0	22.5	0.00e+00	0	33	0	227540992	50	5710
2026-01-05 22:50:33.00	109.40	12.90	-38.1	-39.1	22.4	0.00e+00	0	34	0	228589568	50	5776
2026-01-05 22:50:34.00	109.30	12.99	-38.3	-39.3	22.3	0.00e+00	0	33	0	230686720	50	5908
2026-01-05 22:50:35.01	109.21	13.08	-38.3	-39.4	22.2	0.00e+00	0	33	0	232783872	50	5965
2026-01-05 22:50:36.02	109.12	13.17	-38.3	-39.3	22.3	0.00e+00	0	34	0	234881024	50	5940
2026-01-05 22:50:37.03	109.03	13.26	-38.5	-39.6	22.1	0.00e+00	0	33	0	236978176	50	6106
2026-01-05 22:50:38.04	108.93	13.35	-38.4	-39.5	22.2	0.00e+00	0	33	0	239075328	50	6038
2026-01-05 22:50:39.05	108.84	13.44	-38.5	-39.5	22.1	0.00e+00	0	34	0	240123904	50	6071
2026-01-05 22:50:40.06	108.75	13.53	-38.0	-38.9	22.5	0.00e+00	0	33	0	242221056	50	5688
2026-01-05 22:50:41.07	108.65	13.62	-38.2	-39.2	22.3	0.00e+00	0	34	0	244318208	50	5835
2026-01-05 22:50:42.08	108.55	13.71	-38.1	-39.1	22.5	0.00e+00	0	34	0	246415360	50	5812
2026-01-05 22:50:43.09	108.46	13.80	-38.0	-39.0	22.5	0.00e+00	0	34	0	248512512	50	5740
2026-01-05 22:50:44.10	108.36	13.89	-38.2	-39.2	22.4	0.00e+00	0	34	0	249561088	50	5860
2026-01-05 22:50:45.11	108.26	13.98	-38.2	-39.2	22.4	0.00e+00	0	34	0	251658240	50	5887
2026-01-05 22:50:46.11	108.16	14.07	-38.4	-39.4	22.0	0.00e+00	0	34	0	253755392	50	5988
2026-01-05 22:50:47.12	108.07	14.16	-38.5	-39.5	22.1	0.00e+00	0	34	0	255852544	50	6090
2026-01-05 22:50:48.13	107.97	14.25	-38.4	-39.4	22.0	0.00e+00	0	34	0	257949696	50	6025
2026-01-05 22:50:49.14	107.87	14.35	-38.8	-39.8	21.8	0.00e+00	0	33	0	258998272	50	6315
2026-01-05 22:50:50.15	107.76	14.44	-38.4	-39.5	22.1	0.00e+00	0	34	0	261095424	50	6055
2026-01-05 22:50:51.16	107.66	14.53	-38.3	-39.3	22.4	0.00e+00	0	34	0	263192576	50	5938
2026-01-05 22:50:52.17	107.56	14.63	-38.2	-39.2	22.4	0.00e+00	0	34	0	265289728	50	5866
2026-01-05 22:50:53.18	107.46	14.72	-38.1	-39.1	22.4	0.00e+00	0	34	0	267386880	50	5807
2026-01-05 22:50:54.19	107.35	14.81	-38.1	-39.1	22.5	0.00e+00	0	34	0	268435456	50	5772
2026-01-05 22:50:55.20	107.25	14.91	-37.9	-38.9	22.6	0.00e+00	0	34	0	270532608	50	5639
2026-01-05 22:50:56.21	107.15	15.00	-37.7	-38.7	22.8	0.00e+00	0	33	0	272629760	50	5512
2026-01-05 22:50:57.22	107.04	15.09	-37.7	-38.7	22.8	0.00e+00	0	34	0	274726912	48	6183
2026-01-05 22:50:58.23	106.93	15.19	-37.6	-38.5	22.7	0.00e+00	0	34	0	276824064	48	6070
2026-01-05 22:50:59.24	106.83	15.28	-37.7	-38.6	22.8	0.00e+00	0	34	0	277872640	48	6171
2026-01-05 22:51:00.25	106.72	15.38	-37.6	-38.6	22.8	0.00e+00	0	33	0	279969792	48	6104
2026-01-05 22:51:01.25	106.61	15.47	-37.3	-38.2	23.2	0.00e+00	0	34	0	282066944	48	5885
2026-01-05 22:51:02.26	106.50	15.57	-37.4	-38.3	23.0	0.00e+00	0	34	0	284164096	48	5919
2026-01-05 22:51:03.27	106.39	15.66	-37.1	-37.9	23.4	0.00e+00	0	34	0	286261248	48	5689
2026-01-05 22:51:04.28	106.28	15.76	-36.9	-37.8	23.2	0.00e+00	0	34	0	287309824	48	5572
2026-01-05 22:51:05.29	106.17	15.86	-37.1	-38.0	23.4	0.00e+00	0	34	0	289406976	48	5708
2026-01-05 22:51:06.30	106.06	15.95	-37.1	-37.9	23.0	0.00e+00	0	34	0	291504128	48	5693
2026-01-05 22:51:07.31	105.95	16.05	-37.1	-38.0	23.4	0.00e+00	0	33	0	293601280	48	5732
2026-01-05 22:51:08.32	105.83	16.15	-37.1	-37.9	23.4	0.00e+00	0	34	0	295698432	48	5691
2026-01-05 22:51:09.33	105.72	16.25	-37.2	-38.1	23.3	0.00e+00	0	34	0	296747008	48	5780
2026-01-05 22:51:10.34	105.60	16.34	-37.2	-38.1	23.2	0.00e+00	0	34	0	298844160	48	5806
2026-01-05 22:51:11.35	105.49	16.44	-37.4	-38.3	23.2	0.00e+00	0	34	0	300941312	48	5910
2026-01-05 22:51:12.36	105.37	16.54	-37.5	-38.4	23.0	0.00e+00	0	33	0	303038464	48	6030
2026-01-05 22:51:13.37	105.25	16.64	-37.5	-38.4	23.0	0.00e+00	0	34	0	305135616	48	6032
2026-01-05 22:51:14.37	105.14	16.74	-37.6	-38.5	23.0	0.00e+00	0	34	0	307232768	48	6051
2026-01-05 22:51:15.38	105.02	16.84	-37.5	-38.5	23.1	0.00e+00	0	34	0	308281344	48	6037
2026-01-05 22:51:16.39	104.90	16.94	-37.7	-38.6	22.8	0.00e+00	0	33	0	310378496	48	6139
2026-01-05 22:51:17.40	104.78	17.04	-37.7	-38.7	22.8	0.00e+00	0	34	0	312475648	48	6187
2026-01-05 22:51:18.41	104.66	17.14	-37.8	-38.8	22.8	0.00e+00	0	34	0	314572800	48	6288
2026-01-05 22:51:19.42	104.53	17.24	-37.7	-38.7	22.8	0.00e+00	0	34	0	315621376	48	6228
2026-01-05 22:51:20.43	104.41	17.34	-38.0	-39.0	22.5	0.00e+00	0	34	0	317718528	48	6439
2026-01-05 22:51:21.44	104.29	17.44	-37.9	-38.9	22.6	0.00e+00	0	34	0	319815680	48	6361
2026-01-05 22:51:22.45	104.16	17.54	-37.9	-38.9	22.7	0.00e+00	0	33	0	321912832	48	6343
2026-01-05 22:51:23.46	104.04	17.64	-37.9	-38.8	22.6	0.00e+00	0	33	0	324009984	48	6316
2026-01-05 22:51:24.47	103.91	17.74	-37.7	-38.6	22.9	0.00e+00	0	33	0	325058560	48	6143
2026-01-05 22:51:25.48	103.78	17.84	-37.7	-38.6	22.9	0.00e+00	0	34	0	327155712	48	6164
2026-01-05 22:51:26.49	103.66	17.95	-38.3	-39.3	22.4	0.00e+00	0	34	0	329252864	48	6657
2026-01-05 22:51:27.50	103.53	18.05	-38.2	-39.2	22.5	0.00e+00	0	33	0	331350016	48	6552
2026-01-05 22:51:28.51	103.40	18.15	-38.1	-39.1	22.4	0.00e+00	0	33	0	333447168	48	6501
2026-01-05 22:51:29.52	103.27	18.25	-38.0	-38.9	22.5	0.00e+00	0	33	0	335544320	48	6372
2026-01-05 22:51:30.53	103.13	18.36	-38.2	-39.2	22.4	0.00e+00	0	34	0	336592896	48	6606
2026-01-05 22:51:31.53	103.00	18.46	-37.9	-38.8	22.6	0.00e+00	0	34	0	338690048	48	6299
2026-01-05 22:51:32.54	102.87	18.56	-37.7	-38.7	22.8	0.00e+00	0	34	0	340787200	48	6202
2026-01-05 22:51:33.55	102.73	18.67	-37.9	-38.8	22.7	0.00e+00	0	34	0	342884352	48	6315
2026-01-05 22:51:34.56	102.60	18.77	-38.4	-39.4	22.3	0.00e+00	0	33	0	344981504	48	6717
2026-01-05 22:51:35.57	102.46	18.88	-38.3	-39.3	22.2	0.00e+00	0	34	0	346030080	48	6677
2026-01-05 22:51:36.58	102.32	18.98	-38.6	-39.7	22.1	0.00e+00	0	34	0	348127232	50	6184
2026-01-05 22:51:37.59	102.19	19.09	-38.4	-39.4	22.2	0.00e+00	0	34	0	350224384	50	6016
2026-01-05 22:51:38.60	102.05	19.19	-38.7	-39.8	22.2	0.00e+00	0	33	0	352321536	50	6266
2026-01-05 22:51:39.61	101.91	19.30	-38.4	-39.4	22.3	0.00e+00	0	34	0	354418688	50	6001
2026-01-05 22:51:40.61	101.77	19.40	-38.1	-39.1	22.5	0.00e+00	0	33	0	355467264	50	5807
2026-01-05 22:51:41.62	101.62	19.51	-38.3	-39.3	22.4	0.00e+00	0	34	0	357564416	50	5955
2026-01-05 22:51:42.63	101.48	19.62	-38.4	-39.4	22.3	0.00e+00	0	34	0	359661568	50	5973
2026-01-05 22:51:43.64	101.34	19.72	-38.6	-39.7	21.8	0.00e+00	0	33	0	361758720	50	6207
2026-01-05 22:51:44.65	101.19	19.83	-38.7	-39.7	22.0	0.00e+00	0	33	0	363855872	50	6231
2026-01-05 22:51:45.66	101.05	19.94	-38.7	-39.7	22.0	0.00e+00	0	34	0	364904448	50	6215
2026-01-05 22:51:46.66	100.90	20.04	-38.7	-39.7	22.1	0.00e+00	0	33	0	367001600	50	6227
2026-01-05 22:51:47.67	100.75	20.15	-38.3	-39.2	22.5	0.00e+00	0	34	0	369098752	50	5889
2026-01-05 22:51:48.68	100.60	20.26	-38.3	-39.3	22.4	0.00e+00	0	33	0	371195904	50	5955
2026-01-05 22:51:49.69	100.45	20.37	-38.3	-39.3	22.4	0.00e+00	0	34	0	373293056	50	5928
2026-01-05 22:51:50.70	100.30	20.48	-38.5	-39.5	22.2	0.00e+00	0	34	0	374341632	50	6085
2026-01-05 22:51:51.70	100.15	20.58	-38.9	-40.0	21.8	0.00e+00	0	33	0	376438784	50	6449
2026-01-05 22:51:52.71	99.99	20.69	-38.4	-39.4	22.2	0.00e+00	0	34	0	378535936	50	6029
2026-01-05 22:51:53.72	99.84	20.80	-38.1	-39.0	22.6	0.00e+00	0	34	0	380633088	50	5739
2026-01-05 22:51:54.73	99.68	20.91	-38.1	-39.1	22.6	0.00e+00	0	34	0	382730240	50	5788
2026-01-05 22:51:55.74	99.53	21.02	-38.1	-39.1	22.4	0.00e+00	0	34	0	383778816	50	5764
2026-01-05 22:51:56.75	99.37	21.13	-38.0	-39.0	22.6	0.00e+00	0	34	0	385875968	50	5728
2026-01-05 22:51:57.76	99.21	21.24	-38.1	-39.1	22.7	0.00e+00	0	33	0	387973120	50	5770
2026-01-05 22:51:58.76	99.05	21.35	-38.2	-39.2	22.5	0.00e+00	0	34	0	390070272	50	5871
2026-01-05 22:51:59.77	98.89	21.46	-38.9	-39.9	22.0	0.00e+00	0	33	0	392167424	50	6386
2026-01-05 22:52:00.78	98.72	21.57	-38.0	-38.9	22.9	0.00e+00	0	34	0	393216000	50	5670
2026-01-05 22:52:01.79	98.56	21.69	-37.3	-38.2	23.4	0.00e+00	0	34	0	395313152	48	5874
2026-01-05 22:52:02.81	98.39	21.80	-37.5	-38.4	23.1	0.00e+00	0	34	0	397410304	48	6022
2026-01-05 22:52:03.81	98.23	21.91	-37.1	-38.0	23.4	0.00e+00	0	34	0	399507456	48	5743
2026-01-05 22:52:04.82	98.06	22.02	-37.3	-38.2	23.2	0.00e+00	0	34	0	401604608	48	5875
2026-01-05 22:52:05.83	97.89	22.13	-37.7	-38.6	23.0	0.00e+00	0	33	0	403701760	48	6153
2026-01-05 22:52:06.84	97.72	22.25	-37.8	-38.8	22.9	0.00e+00	0	33	0	404750336	48	6247
2026-01-05 22:52:07.85	97.55	22.36	-37.8	-38.8	22.9	0.00e+00	0	34	0	406847488	48	6257
2026-01-05 22:52:08.86	97.37	22.47	-37.5	-38.4	23.2	0.00e+00	0	33	0	408944640	48	5967
2026-01-05 22:52:09.87	97.20	22.58	-37.5	-38.4	23.2	0.00e+00	0	34	0	411041792	48	6011
2026-01-05 22:52:10.88	97.03	22.70	-37.5	-38.5	22.9	0.00e+00	0	34	0	413138944	48	6038
2026-01-05 22:52:11.89	96.85	22.81	-37.6	-38.5	23.0	0.00e+00	0	34	0	414187520	48	6061
2026-01-05 22:52:12.90	96.67	22.92	-37.7	-38.6	22.8	0.00e+00	0	34	0	416284672	48	6160
2026-01-05 22:52:13.90	96.49	23.04	-37.9	-38.8	22.8	0.00e+00	0	34	0	418381824	48	6307
2026-01-05 22:52:14.91	96.31	23.15	-38.0	-39.0	22.6	0.00e+00	0	34	0	420478976	48	6403
2026-01-05 22:52:15.92	96.13	23.27	-37.8	-38.7	23.0	0.00e+00	0	34	0	421527552	48	6231
2026-01-05 22:52:16.93	95.95	23.38	-38.0	-38.9	22.7	0.00e+00	0	34	0	423624704	48	6388
2026-01-05 22:52:17.94	95.76	23.50	-38.4	-39.4	22.3	0.00e+00	0	33	0	425721856	48	6730
2026-01-05 22:52:18.94	95.58	23.61	-38.7	-39.8	22.1	0.00e+00	0	33	0	427819008	50	6256
2026-01-05 22:52:19.95	95.39	23.72	-38.9	-39.9	21.9	0.00e+00	0	33	0	429916160	50	6386
2026-01-05 22:52:20.96	95.20	23.84	-38.5	-39.6	21.9	0.00e+00	0	34	0	432013312	50	6120
2026-01-05 22:52:21.97	95.01	23.95	-39.0	-40.2	21.7	0.00e+00	0	34	0	433061888	50	6552
2026-01-05 22:52:22.98	94.82	24.07	-39.1	-40.2	21.7	0.00e+00	0	34	0	435159040	50	6592
2026-01-05 22:52:23.99	94.63	24.19	-39.3	-40.5	21.4	0.00e+00	0	34	0	437256192	52	6067
2026-01-05 22:52:25.00	94.43	24.30	-39.5	-40.7	21.2	0.00e+00	0	33	0	439353344	52	6241
2026-01-05 22:52:26.01	94.24	24.42	-39.7	-41.0	21.1	0.00e+00	0	34	0	441450496	52	6397
2026-01-05 22:52:27.02	94.04	24.53	-39.7	-40.9	21.1	0.00e+00	0	33	0	442499072	52	6385
2026-01-05 22:52:28.03	93.84	24.65	-39.4	-40.5	21.4	0.00e+00	0	34	0	444596224	52	6090
2026-01-05 22:52:29.04	93.64	24.77	-39.6	-40.8	21.2	0.00e+00	0	34	0	446693376	52	6283
2026-01-05 22:52:30.05	93.44	24.88	-39.4	-40.5	21.1	0.00e+00	0	33	0	448790528	52	6091
2026-01-05 22:52:31.05	93.23	25.00	-39.1	-40.3	21.7	0.00e+00	0	33	0	450887680	52	5904
2026-01-05 22:52:32.06	93.03	25.12	-39.0	-40.1	21.8	0.00e+00	0	34	0	451936256	52	5792
2026-01-05 22:52:33.07	92.82	25.23	-39.1	-40.2	21.7	0.00e+00	0	34	0	454033408	52	5832
2026-01-05 22:52:34.08	92.61	25.35	-39.0	-40.1	21.9	0.00e+00	0	34	0	456130560	52	5807
2026-01-05 22:52:35.09	92.40	25.47	-39.1	-40.1	21.7	0.00e+00	0	34	0	458227712	52	5828
2026-01-05 22:52:36.10	92.19	25.58	-39.0	-40.1	21.8	0.00e+00	0	34	0	460324864	52	5806
2026-01-05 22:52:37.11	91.98	25.70	-39.1	-40.2	21.7	0.00e+00	0	34	0	461373440	52	5836
2026-01-05 22:52:38.12	91.77	25.82	-38.9	-40.0	21.9	0.00e+00	0	34	0	463470592	52	5727
2026-01-05 22:52:39.12	91.55	25.94	-38.7	-39.7	22.2	0.00e+00	0	33	0	465567744	50	6186
2026-01-05 22:52:40.13	91.33	26.05	-38.3	-39.3	22.4	0.00e+00	0	33	0	467664896	50	5941
2026-01-05 22:52:41.14	91.12	26.17	-38.6	-39.6	22.2	0.00e+00	0	34	0	469762048	50	6128
2026-01-05 22:52:42.15	90.89	26.29	-38.9	-40.0	22.0	0.00e+00	0	34	0	470810624	50	6404
2026-01-05 22:52:43.16	90.67	26.41	-38.9	-40.0	21.9	0.00e+00	0	33	0	472907776	50	6432
2026-01-05 22:52:44.17	90.45	26.52	-39.1	-40.3	21.7	0.00e+00	0	34	0	475004928	50	6629
2026-01-05 22:52:45.18	90.22	26.64	-38.7	-39.8	22.0	0.00e+00	0	34	0	477102080	50	6276
2026-01-05 22:52:46.19	89.99	26.76	-38.9	-40.0	21.9	0.00e+00	0	33	0	479199232	50	6441
2026-01-05 22:52:47.20	89.76	26.88	-39.0	-40.2	21.7	0.00e+00	0	33	0	480247808	50	6566
2026-01-05 22:52:48.21	89.53	26.99	-38.8	-40.0	21.9	0.00e+00	0	33	0	482344960	50	6394
2026-01-05 22:52:49.22	89.30	27.11	-38.9	-40.0	21.9	0.00e+00	0	34	0	484442112	50	6454
2026-01-05 22:52:50.23	89.07	27.23	-38.9	-40.0	22.2	0.00e+00	0	33	0	486539264	50	6431
2026-01-05 22:52:51.24	88.83	27.35	-38.6	-39.6	22.4	0.00e+00	0	34	0	488636416	50	6142
2026-01-05 22:52:52.25	88.59	27.46	-38.6	-39.6	22.2	0.00e+00	0	34	0	489684992	50	6165
2026-01-05 22:52:53.25	88.35	27.58	-38.6	-39.6	22.1	0.00e+00	0	34	0	491782144	50	6147
2026-01-05 22:52:54.27	88.11	27.70	-38.5	-39.5	22.3	0.00e+00	0	34	0	493879296	50	6072
2026-01-05 22:52:55.27	87.87	27.82	-38.4	-39.3	22.5	0.00e+00	0	33	0	495976448	50	5962
2026-01-05 22:52:56.28	87.62	27.93	-38.4	-39.4	22.0	0.00e+00	0	34	0	498073600	50	6019
2026-01-05 22:52:57.29	87.38	28.05	-38.5	-39.5	22.3	0.00e+00	0	33	0	500170752	50	6047
2026-01-05 22:52:58.30	87.13	28.17	-38.9	-39.9	22.0	0.00e+00	0	34	0	501219328	50	6380
2026-01-05 22:52:59.31	86.88	28.28	-39.5	-40.6	21.5	0.00e+00	0	34	0	503316480	50	6890
2026-01-05 22:53:00.32	86.62	28.40	-39.5	-40.7	21.5	0.00e+00	0	34	0	505413632	50	6944
2026-01-05 22:53:01.33	86.37	28.52	-39.7	-40.9	21.1	0.00e+00	0	34	0	507510784	52	6373
2026-01-05 22:53:02.34	86.11	28.63	-39.3	-40.5	21.5	0.00e+00	0	33	0	509607936	52	6038
2026-01-05 22:53:03.35	85.86	28.75	-39.3	-40.4	21.7	0.00e+00	0	34	0	510656512	52	6003
2026-01-05 22:53:04.36	85.60	28.87	-39.0	-40.1	21.9	0.00e+00	0	34	0	512753664	52	5766
2026-01-05 22:53:05.37	85.33	28.98	-38.5	-39.4	22.4	0.00e+00	0	34	0	514850816	50	6030
2026-01-05 22:53:06.38	85.07	29.10	-38.4	-39.3	22.4	0.00e+00	0	34	0	516947968	50	5960
2026-01-05 22:53:07.39	84.80	29.21	-38.0	-39.0	22.7	0.00e+00	0	34	0	519045120	50	5713
2026-01-05 22:53:08.40	84.54	29.33	-38.1	-39.0	22.6	0.00e+00	0	34	0	520093696	50	5756
2026-01-05 22:53:09.41	84.27	29.45	-38.3	-39.3	22.4	0.00e+00	0	34	0	522190848	50	5932
2026-01-05 22:53:10.42	84.00	29.56	-38.6	-39.6	22.3	0.00e+00	0	34	0	524288000	50	6134
2026-01-05 22:53:11.43	83.72	29.67	-38.4	-39.4	22.3	0.00e+00	0	34	0	526385152	50	6027
2026-01-05 22:53:12.44	83.45	29.79	-38.5	-39.5	22.3	0.00e+00	0	34	0	528482304	50	6099
2026-01-05 22:53:13.45	83.17	29.90	-38.8	-39.8	22.0	0.00e+00	0	34	0	529530880	50	6312
2026-01-05 22:53:14.46	82.89	30.02	-38.6	-39.6	22.4	0.00e+00	0	34	0	531628032	50	6112
2026-01-05 22:53:15.47	82.61	30.13	-38.6	-39.6	22.2	0.00e+00	0	34	0	533725184	50	6171
2026-01-05 22:53:16.48	82.32	30.24	-39.2	-40.2	21.7	0.00e+00	0	33	0	535822336	50	6606
2026-01-05 22:53:17.49	82.04	30.36	-39.9	-41.1	21.0	0.00e+00	0	34	0	537919488	50	7307
2026-01-05 22:53:18.50	81.75	30.47	-40.5	-41.8	20.4	0.00e+00	0	34	0	538968064	52	7038
2026-01-05 22:53:19.51	81.46	30.58	-41.0	-42.4	19.8	0.00e+00	0	34	0	541065216	54	6764
2026-01-05 22:53:20.52	81.17	30.69	-40.9	-42.2	20.1	0.00e+00	0	34	0	543162368	54	6592
2026-01-05 22:53:21.52	80.88	30.80	-40.8	-42.2	20.0	0.00e+00	0	34	0	545259520	54	6575
2026-01-05 22:53:22.53	80.58	30.91	-40.9	-42.3	20.0	0.00e+00	0	34	0	547356672	54	6680
2026-01-05 22:53:23.54	80.29	31.02	-40.2	-41.4	20.8	0.00e+00	0	34	0	548405248	54	6002
2026-01-05 22:53:24.55	79.99	31.13	-39.8	-41.0	21.0	0.00e+00	0	34	0	550502400	54	5731
2026-01-05 22:53:25.56	79.69	31.24	-39.3	-40.3	21.6	0.00e+00	0	34	0	552599552	52	5952
2026-01-05 22:53:26.57	79.38	31.35	-39.6	-40.8	21.3	0.00e+00	0	34	0	554696704	52	6247
2026-01-05 22:53:27.58	79.08	31.46	-40.1	-41.3	20.9	0.00e+00	0	34	0	556793856	52	6647
2026-01-05 22:53:28.59	78.77	31.57	-41.0	-42.4	19.8	0.00e+00	0	34	0	557842432	52	7563
2026-01-05 22:53:29.59	78.46	31.67	-41.1	-42.6	19.8	0.00e+00	0	34	0	559939584	54	6857
2026-01-05 22:53:30.60	78.15	31.78	-41.1	-42.5	19.5	0.00e+00	0	34	0	562036736	54	6795
2026-01-05 22:53:31.61	77.84	31.89	-41.4	-42.9	19.4	0.00e+00	0	34	0	564133888	54	7140
2026-01-05 22:53:32.62	77.52	31.99	-41.8	-43.3	19.1	0.00e+00	0	34	0	566231040	56	6670
2026-01-05 22:53:33.63	77.20	32.10	-41.9	-43.5	19.0	0.00e+00	0	34	0	568328192	56	6774
2026-01-05 22:53:34.64	76.88	32.20	-41.5	-43.0	19.4	0.00e+00	0	34	0	569376768	56	6414
2026-01-05 22:53:35.65	76.56	32.31	-41.3	-42.7	19.1	0.00e+00	0	34	0	571473920	56	6205
2026-01-05 22:53:36.66	76.23	32.41	-41.2	-42.5	19.8	0.00e+00	0	34	0	573571072	56	6099
2026-01-05 22:53:37.67	75.91	32.51	-42.0	-43.7	18.5	0.00e+00	0	34	0	575668224	56	6953
2026-01-05 22:53:38.68	75.58	32.61	-42.2	-43.9	18.4	0.00e+00	0	34	0	577765376	56	7139
2026-01-05 22:53:39.69	75.25	32.71	-42.5	-44.3	18.2	0.00e+00	0	34	0	578813952	56	7450
2026-01-05 22:53:40.70	74.92	32.81	-42.5	-44.3	18.4	0.00e+00	0	34	0	580911104	56	7488
2026-01-05 22:53:41.71	74.58	32.91	-42.6	-44.4	17.8	0.00e+00	0	34	0	583008256	56	7588
2026-01-05 22:53:42.72	74.25	33.01	-42.3	-44.1	18.2	0.00e+00	0	34	0	585105408	58	6468
2026-01-05 22:53:43.73	73.91	33.11	-41.1	-42.5	20.0	0.00e+00	0	34	0	587202560	56	6053
2026-01-05 22:53:44.74	73.57	33.20	-40.8	-42.1	20.2	0.00e+00	0	34	0	588251136	56	5786
2026-01-05 22:53:45.75	73.22	33.30	-40.7	-41.9	20.3	0.00e+00	0	34	0	590348288	54	6351
2026-01-05 22:53:46.76	72.88	33.40	-40.8	-42.1	20.1	0.00e+00	0	34	0	592445440	54	6519
2026-01-05 22:53:47.77	72.53	33.49	-41.1	-42.5	19.8	0.00e+00	0	34	0	594542592	54	6798
2026-01-05 22:53:48.78	72.18	33.58	-41.1	-42.5	19.8	0.00e+00	0	34	0	596639744	54	6780
2026-01-05 22:53:49.79	71.83	33.68	-40.7	-42.0	20.1	0.00e+00	0	34	0	597688320	54	6435
2026-01-05 22:53:50.80	71.48	33.77	-41.2	-42.6	19.7	0.00e+00	0	34	0	599785472	54	6900
2026-01-05 22:53:51.81	71.12	33.86	-41.1	-42.5	20.0	0.00e+00	0	34	0	601882624	54	6814
2026-01-05 22:53:52.82	70.77	33.95	-40.3	-41.5	20.5	0.00e+00	0	34	0	603979776	54	6083
2026-01-05 22:53:53.83	70.41	34.03	-39.7	-40.8	21.0	0.00e+00	0	34	0	606076928	54	5625
2026-01-05 22:53:54.83	70.05	34.12	-40.1	-41.3	20.6	0.00e+00	0	34	0	607125504	52	6621
2026-01-05 22:53:55.84	69.69	34.21	-40.6	-41.9	20.3	0.00e+00	0	34	0	609222656	52	7118
2026-01-05 22:53:56.85	69.33	34.29	-41.2	-42.6	19.8	0.00e+00	0	34	0	611319808	54	6871
2026-01-05 22:53:57.86	68.96	34.38	-41.0	-42.4	19.9	0.00e+00	0	34	0	613416960	54	6746
2026-01-05 22:53:58.87	68.59	34.46	-40.6	-41.9	20.3	0.00e+00	0	34	0	615514112	54	6336
2026-01-05 22:53:59.88	68.22	34.54	-40.3	-41.5	20.6	0.00e+00	0	34	0	616562688	54	6090
2026-01-05 22:54:00.89	67.85	34.62	-40.1	-41.4	20.9	0.00e+00	0	34	0	618659840	54	5965
2026-01-05 22:54:01.90	67.47	34.70	-39.9	-41.1	21.0	0.00e+00	0	34	0	620756992	54	5792
2026-01-05 22:54:02.91	67.10	34.78	-40.0	-41.2	21.0	0.00e+00	0	34	0	622854144	52	6610
2026-01-05 22:54:03.92	66.72	34.86	-40.3	-41.5	20.7	0.00e+00	0	34	0	624951296	52	6837
2026-01-05 22:54:04.93	66.34	34.93	-39.5	-40.7	21.5	0.00e+00	0	34	0	625999872	52	6190
2026-01-05 22:54:05.94	65.96	35.01	-39.0	-40.1	21.9	0.00e+00	0	34	0	628097024	52	5781
2026-01-05 22:54:06.95	65.58	35.08	-38.1	-39.1	22.8	0.00e+00	0	34	0	630194176	50	5782
2026-01-05 22:54:07.96	65.19	35.15	-37.4	-38.3	23.5	0.00e+00	0	34	0	632291328	48	5929
2026-01-05 22:54:08.97	64.81	35.22	-37.1	-38.0	23.6	0.00e+00	0	34	0	634388480	48	5740
2026-01-05 22:54:09.98	64.42	35.29	-36.5	-37.3	24.0	0.00e+00	0	34	0	636485632	46	5961
2026-01-05 22:54:10.99	64.03	35.36	-36.2	-37.0	24.1	0.00e+00	0	34	0	637534208	46	5698
2026-01-05 22:54:12.00	63.64	35.43	-36.4	-37.2	24.1	0.00e+00	0	34	0	639631360	46	5837
2026-01-05 22:54:13.00	63.25	35.49	-36.5	-37.3	24.0	0.00e+00	0	34	0	641728512	46	5922
2026-01-05 22:54:14.02	62.85	35.56	-36.5	-37.3	24.1	0.00e+00	0	34	0	643825664	46	5923
2026-01-05 22:54:15.03	62.46	35.62	-36.5	-37.3	24.1	0.00e+00	0	34	0	645922816	46	5940
2026-01-05 22:54:16.04	62.06	35.68	-36.7	-37.5	23.8	0.00e+00	0	34	0	646971392	46	6084
2026-01-05 22:54:17.04	61.66	35.74	-37.3	-38.2	23.3	0.00e+00	0	34	0	649068544	46	6577
2026-01-05 22:54:18.05	61.26	35.80	-37.6	-38.5	23.0	0.00e+00	0	34	0	651165696	48	6059
2026-01-05 22:54:19.06	60.86	35.85	-37.1	-38.0	23.5	0.00e+00	0	34	0	653262848	48	5727
2026-01-05 22:54:20.07	60.46	35.91	-37.0	-37.9	23.7	0.00e+00	0	34	0	654311424	48	5642
2026-01-05 22:54:21.08	60.06	35.96	-36.9	-37.8	23.8	0.00e+00	0	34	0	656408576	46	6286
2026-01-05 22:54:22.09	59.65	36.01	-36.6	-37.5	23.9	0.00e+00	0	34	0	658505728	46	6068
2026-01-05 22:54:23.10	59.24	36.06	-36.6	-37.5	24.0	0.00e+00	0	34	0	660602880	46	6061
2026-01-05 22:54:24.11	58.84	36.11	-36.8	-37.7	23.9	0.00e+00	0	34	0	662700032	46	6195
2026-01-05 22:54:25.12	58.43	36.16	-36.7	-37.6	23.8	0.00e+00	0	34	0	664797184	46	6160
2026-01-05 22:54:26.13	58.02	36.21	-37.1	-38.0	23.5	0.00e+00	0	34	0	665845760	46	6454
2026-01-05 22:54:27.14	57.60	36.25	-37.2	-38.1	23.5	0.00e+00	0	34	0	667942912	46	6509
2026-01-05 22:54:28.15	57.19	36.29	-37.4	-38.3	23.3	0.00e+00	0	34	0	670040064	46	6627
2026-01-05 22:54:29.15	56.78	36.33	-37.2	-38.1	23.6	0.00e+00	0	34	0	672137216	46	6473
2026-01-05 22:54:30.16	56.37	36.37	-37.1	-37.9	23.7	0.00e+00	0	34	0	674234368	46	6388
2026-01-05 22:54:31.17	55.95	36.41	-36.6	-37.5	24.0	0.00e+00	0	34	0	675282944	46	6051
2026-01-05 22:54:32.18	55.53	36.44	-35.9	-36.7	24.7	0.00e+00	0	33	0	677380096	46	5509
2026-01-05 22:54:33.19	55.12	36.48	-35.2	-35.9	24.9	0.00e+00	0	34	0	679477248	44	5690
2026-01-05 22:54:34.20	54.70	36.51	-35.1	-35.9	24.9	0.00e+00	0	34	0	681574400	44	5636
2026-01-05 22:54:35.21	54.28	36.54	-35.7	-36.4	24.6	0.00e+00	0	33	0	683671552	44	6021
2026-01-05 22:54:36.22	53.86	36.57	-36.5	-37.3	24.1	0.00e+00	0	34	0	684720128	44	6663
2026-01-05 22:54:37.22	53.44	36.60	-37.0	-37.8	23.7	0.00e+00	0	33	0	686817280	46	6309
2026-01-05 22:54:38.24	53.02	36.62	-37.3	-38.2	23.4	0.00e+00	0	34	0	688914432	46	6579
2026-01-05 22:54:39.25	52.60	36.65	-37.7	-38.6	23.2	0.00e+00	0	34	0	691011584	48	6128
2026-01-05 22:54:40.25	52.18	36.67	-38.0	-38.9	22.9	0.00e+00	0	33	0	693108736	48	6389
2026-01-05 22:54:41.26	51.75	36.69	-38.2	-39.2	22.6	0.00e+00	0	34	0	694157312	48	6605
2026-01-05 22:54:42.27	51.33	36.71	-38.1	-39.1	22.6	0.00e+00	0	34	0	696254464	48	6483
2026-01-05 22:54:43.28	50.91	36.72	-38.2	-39.2	22.7	0.00e+00	0	34	0	698351616	48	6542
2026-01-05 22:54:44.28	50.49	36.74	-38.4	-39.4	22.4	0.00e+00	0	34	0	700448768	48	6720
2026-01-05 22:54:45.29	50.06	36.75	-38.7	-39.8	22.3	0.00e+00	0	34	0	702545920	50	6288
2026-01-05 22:54:46.30	49.64	36.76	-39.0	-40.1	22.2	0.00e+00	0	33	0	703594496	50	6511
2026-01-05 22:54:47.31	49.21	36.77	-38.8	-39.9	22.0	0.00e+00	0	34	0	705691648	50	6365
2026-01-05 22:54:48.31	48.79	36.78	-38.7	-39.8	22.4	0.00e+00	0	34	0	707788800	50	6252
2026-01-05 22:54:49.32	48.36	36.78	-38.0	-39.0	22.9	0.00e+00	0	34	0	709885952	50	5708
2026-01-05 22:54:50.33	47.94	36.79	-37.9	-38.8	23.0	0.00e+00	0	34	0	711983104	50	5627
2026-01-05 22:54:51.34	47.51	36.79	-38.0	-39.0	22.9	0.00e+00	0	34	0	713031680	50	5703
2026-01-05 22:54:52.35	47.09	36.79	-38.2	-39.1	22.7	0.00e+00	0	34	0	715128832	50	5828
2026-01-05 22:54:53.36	46.66	36.79	-38.9	-39.9	22.0	0.00e+00	0	34	0	717225984	50	6352
2026-01-05 22:54:54.37	46.24	36.79	-39.0	-40.0	22.0	0.00e+00	0	33	0	719323136	50	6462
2026-01-05 22:54:55.38	45.81	36.78	-38.4	-39.3	22.6	0.00e+00	0	34	0	721420288	50	5932
2026-01-05 22:54:56.39	45.38	36.78	-38.3	-39.3	22.6	0.00e+00	0	34	0	722468864	50	5911
2026-01-05 22:54:57.40	44.96	36.77	-38.4	-39.4	22.5	0.00e+00	0	34	0	724566016	50	5978
2026-01-05 22:54:58.41	44.53	36.76	-38.5	-39.5	22.2	0.00e+00	0	34	0	726663168	50	6077
2026-01-05 22:54:59.42	44.11	36.74	-38.7	-39.8	22.1	0.00e+00	0	34	0	728760320	50	6278
2026-01-05 22:55:00.43	43.68	36.73	-39.0	-40.0	22.0	0.00e+00	0	34	0	730857472	50	6457
2026-01-05 22:55:01.44	43.26	36.71	-38.6	-39.6	22.3	0.00e+00	0	34	0	732954624	50	6117
2026-01-05 22:55:02.44	42.84	36.70	-39.2	-40.3	21.8	0.00e+00	0	34	0	734003200	50	6624
2026-01-05 22:55:03.45	42.42	36.68	-39.9	-41.1	21.1	0.00e+00	0	34	0	736100352	52	6515
2026-01-05 22:55:04.47	41.99	36.66	-40.8	-42.2	20.1	0.00e+00	0	34	0	738197504	54	6544
2026-01-05 22:55:05.47	41.57	36.63	-41.2	-42.7	19.7	0.00e+00	0	34	0	740294656	54	6980
2026-01-05 22:55:06.48	41.15	36.61	-40.8	-42.1	19.9	0.00e+00	0	33	0	742391808	54	6526
2026-01-05 22:55:07.49	40.73	36.58	-39.1	-40.1	21.9	0.00e+00	0	34	0	743440384	52	5801
2026-01-05 22:55:08.50	40.31	36.55	-38.8	-39.8	22.1	0.00e+00	0	34	0	745537536	50	6294
2026-01-05 22:55:09.51	39.89	36.52	-39.0	-40.0	22.0	0.00e+00	0	34	0	747634688	50	6464
2026-01-05 22:55:10.52	39.47	36.49	-39.2	-40.2	21.8	0.00e+00	0	34	0	749731840	50	6588
2026-01-05 22:55:11.53	39.06	36.46	-39.0	-40.0	22.1	0.00e+00	0	34	0	751828992	50	6436
2026-01-05 22:55:12.54	38.64	36.43	-39.2	-40.3	21.8	0.00e+00	0	34	0	752877568	50	6630
2026-01-05 22:55:13.55	38.22	36.39	-39.2	-40.3	21.8	0.00e+00	0	34	0	754974720	50	6626
2026-01-05 22:55:14.56	37.81	36.35	-40.1	-41.3	20.9	0.00e+00	0	34	0	757071872	52	6647
2026-01-05 22:55:15.56	37.40	36.31	-39.6	-40.7	21.3	0.00e+00	0	34	0	759169024	52	6226
2026-01-05 22:55:16.58	36.98	36.27	-39.6	-40.7	21.5	0.00e+00	0	34	0	761266176	52	6207
2026-01-05 22:55:17.59	36.57	36.23	-39.5	-40.6	21.7	0.00e+00	0	34	0	762314752	52	6125
2026-01-05 22:55:18.59	36.16	36.18	-39.2	-40.2	21.8	0.00e+00	0	34	0	764411904	52	5884
2026-01-05 22:55:19.60	35.75	36.13	-39.2	-40.3	21.9	0.00e+00	0	33	0	766509056	52	5898
2026-01-05 22:55:20.61	35.35	36.09	-39.4	-40.5	21.8	0.00e+00	0	34	0	768606208	50	6771
2026-01-05 22:55:21.62	34.94	36.04	-39.5	-40.6	21.6	0.00e+00	0	33	0	770703360	50	6897
2026-01-05 22:55:22.63	34.53	35.99	-39.8	-41.0	21.2	0.00e+00	0	34	0	771751936	52	6420
2026-01-05 22:55:23.64	34.13	35.93	-40.3	-41.6	20.6	0.00e+00	0	34	0	773849088	52	6879
2026-01-05 22:55:24.65	33.73	35.88	-40.8	-42.1	20.2	0.00e+00	0	34	0	775946240	52	7324
2026-01-05 22:55:25.66	33.32	35.82	-40.6	-42.0	20.3	0.00e+00	0	33	0	778043392	54	6419
2026-01-05 22:55:26.67	32.92	35.77	-40.6	-41.9	20.7	0.00e+00	0	34	0	780140544	54	6360
2026-01-05 22:55:27.68	32.53	35.71	-39.9	-41.1	21.2	0.00e+00	0	34	0	781189120	54	5785
2026-01-05 22:55:28.69	32.13	35.65	-39.5	-40.6	21.5	0.00e+00	0	34	0	783286272	52	6166
2026-01-05 22:55:29.70	31.73	35.58	-38.5	-39.5	22.4	0.00e+00	0	34	0	785383424	50	6071
2026-01-05 22:55:30.70	31.34	35.52	-38.4	-39.4	22.5	0.00e+00	0	34	0	787480576	50	6016
2026-01-05 22:55:31.72	30.95	35.46	-38.4	-39.4	22.4	0.00e+00	0	34	0	789577728	50	6025
2026-01-05 22:55:32.73	30.55	35.39	-39.6	-40.8	21.1	0.00e+00	0	34	0	790626304	50	7025
2026-01-05 22:55:33.73	30.17	35.32	-39.9	-41.0	21.1	0.00e+00	0	34	0	792723456	52	6459
2026-01-05 22:55:34.74	29.78	35.26	-39.6	-40.8	21.3	0.00e+00	0	34	0	794820608	52	6267
2026-01-05 22:55:35.75	29.39	35.19	-38.9	-39.9	21.9	0.00e+00	0	34	0	796917760	52	5667
2026-01-05 22:55:36.76	29.01	35.11	-38.3	-39.3	22.6	0.00e+00	0	34	0	799014912	50	5901
2026-01-05 22:55:37.77	28.63	35.04	-37.6	-38.5	23.1	0.00e+00	0	34	0	800063488	48	6040
2026-01-05 22:55:38.78	28.25	34.97	-37.0	-37.9	23.6	0.00e+00	0	34	0	802160640	48	5651
2026-01-05 22:55:39.79	27.87	34.89	-37.5	-38.4	23.3	0.00e+00	0	34	0	804257792	48	6023
2026-01-05 22:55:40.80	27.49	34.82	-37.9	-38.9	22.6	0.00e+00	0	34	0	806354944	48	6347
2026-01-05 22:55:41.81	27.11	34.74	-38.8	-39.8	22.1	0.00e+00	0	34	0	808452096	50	6295
2026-01-05 22:55:42.81	26.74	34.66	-39.3	-40.4	21.5	0.00e+00	0	34	0	809500672	50	6769
2026-01-05 22:55:43.82	26.37	34.58	-39.8	-41.1	21.0	0.00e+00	0	34	0	811597824	50	7269
2026-01-05 22:55:44.83	26.00	34.50	-40.2	-41.5	20.6	0.00e+00	0	34	0	813694976	52	6808
2026-01-05 22:55:45.84	25.63	34.42	-39.6	-40.8	21.4	0.00e+00	0	34	0	815792128	52	6288
2026-01-05 22:55:46.85	25.26	34.33	-38.9	-39.9	22.1	0.00e+00	0	34	0	817889280	52	5688
2026-01-05 22:55:47.86	24.90	34.25	-38.8	-39.9	22.1	0.00e+00	0	34	0	818937856	52	5655
2026-01-05 22:55:48.87	24.54	34.16	-39.0	-40.1	22.1	0.00e+00	0	34	0	821035008	50	6466
2026-01-05 22:55:49.88	24.18	34.08	-39.0	-40.1	21.9	0.00e+00	0	34	0	823132160	50	6469
2026-01-05 22:55:50.89	23.82	33.99	-39.0	-40.1	21.8	0.00e+00	0	34	0	825229312	50	6479
2026-01-05 22:55:51.90	23.46	33.90	-39.3	-40.5	21.7	0.00e+00	0	34	0	827326464	50	6780
2026-01-05 22:55:52.91	23.11	33.81	-39.8	-41.0	21.1	0.00e+00	0	33	0	829423616	52	6457
2026-01-05 22:55:53.92	22.75	33.72	-40.2	-41.5	20.9	0.00e+00	0	34	0	830472192	52	6799
2026-01-05 22:55:54.93	22.40	33.63	-39.5	-40.7	21.4	0.00e+00	0	34	0	832569344	52	6184
2026-01-05 22:55:55.93	22.06	33.54	-39.2	-40.3	21.7	0.00e+00	0	34	0	834666496	52	5955
2026-01-05 22:55:56.94	21.71	33.44	-38.7	-39.8	21.9	0.00e+00	0	34	0	836763648	52	5569
2026-01-05 22:55:57.95	21.36	33.35	-39.0	-40.1	21.9	0.00e+00	0	34	0	838860800	50	6496
2026-01-05 22:55:58.96	21.02	33.25	-38.5	-39.5	22.4	0.00e+00	0	34	0	839909376	50	6086
2026-01-05 22:55:59.97	20.68	33.16	-37.9	-38.8	23.0	0.00e+00	0	34	0	842006528	50	5598
2026-01-05 22:56:00.98	20.34	33.06	-37.5	-38.4	23.3	0.00e+00	0	34	0	844103680	48	6002
2026-01-05 22:56:01.99	20.00	32.96	-37.9	-38.8	22.9	0.00e+00	0	34	0	846200832	48	6304
2026-01-05 22:56:03.00	19.67	32.86	-38.7	-39.8	22.0	0.00e+00	0	33	0	848297984	48	7059
2026-01-05 22:56:04.01	19.34	32.77	-39.6	-40.7	21.3	0.00e+00	0	34	0	849346560	50	6975
2026-01-05 22:56:05.02	19.01	32.66	-38.9	-39.9	22.1	0.00e+00	0	34	0	851443712	50	6327
2026-01-05 22:56:06.03	18.68	32.56	-38.6	-39.6	22.1	0.00e+00	0	34	0	853540864	50	6146
2026-01-05 22:56:07.03	18.35	32.46	-38.6	-39.6	22.4	0.00e+00	0	34	0	855638016	50	6159
2026-01-05 22:56:08.04	18.03	32.36	-38.1	-39.1	22.8	0.00e+00	0	34	0	857735168	50	5771
2026-01-05 22:56:09.05	17.71	32.26	-37.3	-38.1	23.5	0.00e+00	0	34	0	858783744	48	5824
2026-01-05 22:56:10.06	17.39	32.15	-37.4	-38.2	23.4	0.00e+00	0	33	0	860880896	48	5865
2026-01-05 22:56:11.06	17.07	32.05	-38.1	-39.0	22.7	0.00e+00	0	34	0	862978048	48	6424
2026-01-05 22:56:12.08	16.75	31.95	-39.2	-40.2	21.8	0.00e+00	0	34	0	865075200	50	6612
2026-01-05 22:56:13.08	16.44	31.84	-39.2	-40.2	21.6	0.00e+00	0	34	0	867172352	50	6598
2026-01-05 22:56:14.09	16.13	31.73	-38.8	-39.8	22.1	0.00e+00	0	34	0	868220928	50	6264
2026-01-05 22:56:15.10	15.82	31.63	-38.5	-39.5	22.5	0.00e+00	0	34	0	870318080	50	6103
2026-01-05 22:56:16.11	15.51	31.52	-38.9	-40.0	22.0	0.00e+00	0	34	0	872415232	50	6432
2026-01-05 22:56:17.12	15.21	31.41	-38.6	-39.6	22.3	0.00e+00	0	34	0	874512384	50	6152
2026-01-05 22:56:18.13	14.90	31.30	-38.8	-39.9	22.0	0.00e+00	0	34	0	876609536	50	6373
2026-01-05 22:56:19.14	14.60	31.20	-39.2	-40.4	21.6	0.00e+00	0	34	0	877658112	50	6706
2026-01-05 22:56:20.15	14.30	31.09	-39.7	-40.9	21.1	0.00e+00	0	34	0	879755264	50	7102
2026-01-05 22:56:21.16	14.00	30.98	-39.9	-41.2	20.9	0.00e+00	0	34	0	881852416	52	6567
2026-01-05 22:56:22.17	13.71	30.87	-40.4	-41.7	20.3	0.00e+00	0	34	0	883949568	52	6975
2026-01-05 22:56:23.18	13.41	30.76	-40.9	-42.3	19.9	0.00e+00	0	34	0	886046720	54	6690
2026-01-05 22:56:24.19	13.12	30.64	-41.6	-43.2	19.3	0.00e+00	0	34	0	887095296	56	6566
2026-01-05 22:56:25.19	12.83	30.53	-40.8	-42.2	20.2	0.00e+00	0	34	0	889192448	56	5853
2026-01-05 22:56:26.20	12.55	30.42	-40.4	-41.7	20.7	0.00e+00	0	34	0	891289600	54	6221
2026-01-05 22:56:27.21	12.26	30.31	-40.1	-41.3	20.9	0.00e+00	0	34	0	893386752	54	5920
2026-01-05 22:56:28.22	11.98	30.20	-40.4	-41.7	20.5	0.00e+00	0	34	0	895483904	54	6191
2026-01-05 22:56:29.23	11.70	30.08	-40.7	-42.0	20.5	0.00e+00	0	34	0	897581056	54	6432
2026-01-05 22:56:30.24	11.42	29.97	-40.5	-41.8	20.4	0.00e+00	0	34	0	898629632	54	6246
2026-01-05 22:56:31.24	11.14	29.86	-40.4	-41.7	20.6	0.00e+00	0	34	0	900726784	54	6195
2026-01-05 22:56:32.25	10.87	29.75	-39.7	-40.8	21.5	0.00e+00	0	34	0	902823936	54	5627
2026-01-05 22:56:33.26	10.59	29.63	-39.1	-40.2	21.8	0.00e+00	0	34	0	904921088	52	5854
2026-01-05 22:56:34.27	10.32	29.52	-38.9	-40.0	22.0	0.00e+00	0	34	0	905969664	52	5720
2026-01-05 22:56:35.28	10.05	29.40	-38.4	-39.4	22.3	0.00e+00	0	34	0	908066816	50	5978
2026-01-05 22:56:36.29	9.78	29.29	-38.3	-39.2	22.5	0.00e+00	0	34	0	910163968	50	5891
2026-01-05 22:56:37.30	9.52	29.17	-37.9	-38.8	23.1	0.00e+00	0	34	0	912261120	50	5599
2026-01-05 22:56:38.31	9.25	29.06	-38.0	-38.9	22.9	0.00e+00	0	34	0	914358272	50	5672
2026-01-05 22:56:39.32	8.99	28.94	-38.2	-39.2	22.4	0.00e+00	0	34	0	915406848	50	5839
2026-01-05 22:56:40.33	8.73	28.82	-38.4	-39.4	22.4	0.00e+00	0	34	0	917504000	50	6023
2026-01-05 22:56:41.34	8.47	28.71	-38.4	-39.4	22.5	0.00e+00	0	34	0	919601152	50	5978
2026-01-05 22:56:42.35	8.22	28.59	-38.4	-39.5	22.4	0.00e+00	0	33	0	921698304	50	6034
2026-01-05 22:56:43.36	7.96	28.48	-38.8	-39.9	22.0	0.00e+00	0	34	0	923795456	50	6356
2026-01-05 22:56:44.37	7.71	28.36	-39.3	-40.5	21.4	0.00e+00	0	34	0	925892608	50	6804
2026-01-05 22:56:45.38	7.46	28.24	-39.5	-40.7	21.5	0.00e+00	0	34	0	926941184	50	6992
2026-01-05 22:56:46.39	7.21	28.13	-39.3	-40.5	21.6	0.00e+00	0	34	0	929038336	50	6778
2026-01-05 22:56:47.40	6.96	28.01	-38.7	-39.7	22.2	0.00e+00	0	34	0	931135488	50	6222
2026-01-05 22:56:48.41	6.72	27.89	-38.2	-39.2	22.5	0.00e+00	0	34	0	933232640	50	5851
2026-01-05 22:56:49.41	6.48	27.78	-38.0	-39.0	22.8	0.00e+00	0	34	0	935329792	50	5703
2026-01-05 22:56:50.42	6.23	27.66	-38.2	-39.2	22.7	0.00e+00	0	34	0	936378368	50	5883
2026-01-05 22:56:51.42	6.00	27.54	-38.4	-39.5	22.3	0.00e+00	0	34	0	938475520	50	6049
2026-01-05 22:56:52.43	5.76	27.43	-38.7	-39.8	22.0	0.00e+00	0	34	0	940572672	50	6268
2026-01-05 22:56:53.44	5.52	27.31	-38.5	-39.5	22.5	0.00e+00	0	34	0	942669824	50	6097
2026-01-05 22:56:54.45	5.29	27.19	-38.0	-39.0	22.9	0.00e+00	0	33	0	944766976	50	5724
2026-01-05 22:56:55.46	5.05	27.08	-37.7	-38.7	23.0	0.00e+00	0	33	0	945815552	50	5520
2026-01-05 22:56:56.46	4.83	26.96	-37.2	-38.1	23.1	0.00e+00	0	33	0	947912704	48	5816
2026-01-05 22:56:57.47	4.60	26.84	-37.2	-38.2	23.5	0.00e+00	0	34	0	950009856	48	5831
2026-01-05 22:56:58.48	4.37	26.72	-37.5	-38.4	23.2	0.00e+00	0	34	0	952107008	48	6004
2026-01-05 22:56:59.49	4.14	26.61	-37.4	-38.4	23.2	0.00e+00	0	34	0	954204160	48	5986
2026-01-05 22:57:00.50	3.92	26.49	-37.4	-38.3	23.2	0.00e+00	0	34	0	955252736	48	5928
2026-01-05 22:57:01.51	3.70	26.37	-37.4	-38.3	23.3	0.00e+00	0	34	0	957349888	48	5925
2026-01-05 22:57:02.52	3.47	26.26	-37.5	-38.5	23.2	0.00e+00	0	34	0	959447040	48	6039
2026-01-05 22:57:03.53	3.25	26.14	-37.6	-38.5	23.1	0.00e+00	0	34	0	961544192	48	6095
2026-01-05 22:57:04.54	3.04	26.02	-37.9	-38.9	22.8	0.00e+00	0	33	0	963641344	48	6382
2026-01-05 22:57:05.55	2.82	25.90	-38.0	-39.0	22.7	0.00e+00	0	34	0	964689920	48	6459
2026-01-05 22:57:06.56	2.61	25.79	-38.2	-39.3	22.5	0.00e+00	0	34	0	966787072	48	6630
2026-01-05 22:57:07.56	2.40	25.67	-38.0	-39.0	22.8	0.00e+00	0	33	0	968884224	48	6411
2026-01-05 22:57:08.58	2.18	25.55	-37.8	-38.8	22.9	0.00e+00	0	34	0	970981376	48	6312
2026-01-05 22:57:09.58	1.97	25.44	-37.9	-38.9	22.6	0.00e+00	0	34	0	973078528	48	6355
2026-01-05 22:57:10.60	1.76	25.32	-38.1	-39.1	22.6	0.00e+00	0	34	0	974127104	48	6491
2026-01-05 22:57:11.60	1.56	25.20	-37.8	-38.7	22.8	0.00e+00	0	33	0	976224256	48	6228
2026-01-05 22:57:12.61	1.35	25.09	-37.8	-38.8	22.9	0.00e+00	0	33	0	978321408	48	6304
2026-01-05 22:57:13.62	1.15	24.97	-37.8	-38.8	22.9	0.00e+00	0	34	0	980418560	48	6281
2026-01-05 22:57:14.63	0.95	24.86	-37.9	-38.9	22.8	0.00e+00	0	33	0	982515712	48	6319
2026-01-05 22:57:15.64	0.75	24.74	-37.6	-38.6	23.0	0.00e+00	0	33	0	983564288	48	6144
2026-01-05 22:57:16.65	0.55	24.62	-37.4	-38.3	23.2	0.00e+00	0	34	0	985661440	48	5942
2026-01-05 22:57:17.66	0.35	24.51	-37.5	-38.5	23.3	0.00e+00	0	33	0	987758592	48	6064
2026-01-05 22:57:18.67	0.16	24.39	-37.5	-38.4	23.2	0.00e+00	0	33	0	989855744	48	6005
2026-01-05 22:57:19.68	359.96	24.28	-37.6	-38.6	23.1	0.00e+00	0	33	0	991952896	48	6111
2026-01-05 22:57:20.68	359.77	24.16	-37.8	-38.8	22.9	0.00e+00	0	33	0	994050048	48	6275
2026-01-05 22:57:21.69	359.58	24.05	-38.0	-38.9	22.8	0.00e+00	0	34	0	995098624	48	6389
2026-01-05 22:57:22.70	359.39	23.93	-37.6	-38.6	23.1	0.00e+00	0	33	0	997195776	48	6106
2026-01-05 22:57:23.71	359.20	23.82	-37.8	-38.8	22.9	0.00e+00	0	34	0	999292928	48	6256
2026-01-05 22:57:24.72	359.01	23.70	-37.6	-38.5	23.0	0.00e+00	0	34	0	1001390080	48	6088
2026-01-05 22:57:25.73	358.83	23.59	-37.1	-38.0	23.4	0.00e+00	0	34	0	1003487232	48	5696
2026-01-05 22:57:26.74	358.64	23.47	-37.1	-38.0	23.5	0.00e+00	0	34	0	1004535808	48	5700
2026-01-05 22:57:27.75	358.46	23.36	-37.3	-38.2	23.4	0.00e+00	0	34	0	1006632960	48	5858
2026-01-05 22:57:28.76	358.28	23.25	-36.8	-37.7	23.5	0.00e+00	0	34	0	1008730112	48	5520
2026-01-05 22:57:29.77	358.09	23.13	-37.1	-37.9	22.8	0.00e+00	0	34	0	1010827264	48	5692
2026-01-05 22:57:30.78	357.92	23.02	-37.8	-38.8	22.8	0.00e+00	0	33	0	1012924416	48	6252
2026-01-05 22:57:31.79	357.74	22.90	-37.5	-38.4	23.1	0.00e+00	0	33	0	1013972992	48	6002
2026-01-05 22:57:32.80	357.56	22.79	-37.8	-38.8	22.9	0.00e+00	0	34	0	1016070144	48	6284
2026-01-05 22:57:33.81	357.39	22.68	-38.2	-39.2	22.5	0.00e+00	0	34	0	1018167296	48	6556
2026-01-05 22:57:34.82	357.21	22.56	-38.5	-39.5	22.1	0.00e+00	0	34	0	1020264448	48	6845
2026-01-05 22:57:35.83	357.04	22.45	-38.6	-39.6	22.3	0.00e+00	0	34	0	1022361600	48	6881
2026-01-05 22:57:36.84	356.87	22.34	-39.1	-40.2	21.6	0.00e+00	0	34	0	1023410176	50	6588
2026-01-05 22:57:37.85	356.70	22.23	-39.0	-40.1	21.7	0.00e+00	0	34	0	1025507328	50	6507
2026-01-05 22:57:38.86	356.53	22.12	-38.6	-39.7	22.1	0.00e+00	0	34	0	1027604480	50	6178
2026-01-05 22:57:39.87	356.36	22.00	-38.2	-39.2	22.5	0.00e+00	0	34	0	1029701632	50	5877
2026-01-05 22:57:40.88	356.19	21.89	-37.7	-38.6	22.9	0.00e+00	0	34	0	1031798784	50	5493
2026-01-05 22:57:41.88	356.03	21.78	-37.5	-38.5	23.2	0.00e+00	0	34	0	1032847360	48	6052
2026-01-05 22:57:42.89	355.87	21.67	-37.2	-38.1	23.4	0.00e+00	0	34	0	1034944512	48	5819
2026-01-05 22:57:43.90	355.70	21.56	-37.2	-38.1	23.4	0.00e+00	0	33	0	1037041664	48	5806
2026-01-05 22:57:44.91	355.54	21.45	-37.1	-38.0	23.4	0.00e+00	0	34	0	1039138816	48	5700
2026-01-05 22:57:45.92	355.38	21.34	-37.4	-38.4	23.0	0.00e+00	0	34	0	1041235968	48	5969
2026-01-05 22:57:46.93	355.22	21.23	-37.7	-38.6	23.0	0.00e+00	0	34	0	1042284544	48	6148
2026-01-05 22:57:47.94	355.06	21.12	-38.2	-39.2	22.4	0.00e+00	0	34	0	1044381696	48	6562
2026-01-05 22:57:48.95	354.90	21.01	-37.8	-38.8	22.9	0.00e+00	0	34	0	1046478848	48	6270
2026-01-05 22:57:49.96	354.75	20.90	-38.0	-39.0	22.7	0.00e+00	0	34	0	1048576000	48	6440
2026-01-05 22:57:50.97	354.59	20.79	-37.8	-38.8	22.9	0.00e+00	0	34	0	1050673152	48	6253
2026-01-05 22:57:51.98	354.44	20.68	-37.0	-37.9	23.5	0.00e+00	0	34	0	1051721728	48	5691
2026-01-05 22:57:52.99	354.29	20.57	-36.7	-37.5	23.7	0.00e+00	0	34	0	1053818880	46	6097
2026-01-05 22:57:54.00	354.14	20.47	-36.5	-37.4	24.0	0.00e+00	0	34	0	1055916032	46	5969
2026-01-05 22:57:55.01	353.99	20.36	-36.4	-37.3	24.1	0.00e+00	0	34	0	1058013184	46	5928
2026-01-05 22:57:56.01	353.84	20.25	-36.5	-37.4	23.9	0.00e+00	0	34	0	1060110336	46	5982
2026-01-05 22:57:57.02	353.69	20.14	-37.1	-38.0	23.4	0.00e+00	0	34	0	1062207488	46	6450
2026-01-05 22:57:58.03	353.54	20.04	-37.5	-38.4	23.2	0.00e+00	0	34	0	1063256064	46	6757
2026-01-05 22:57:59.05	353.39	19.93	-37.8	-38.8	22.8	0.00e+00	0	34	0	1065353216	48	6295
2026-01-05 22:58:00.06	353.25	19.82	-38.5	-39.6	22.2	0.00e+00	0	34	0	1067450368	48	6854
2026-01-05 22:58:01.07	353.11	19.71	-39.1	-40.3	21.6	0.00e+00	0	34	0	1069547520	50	6623
2026-01-05 22:58:02.08	352.96	19.61	-39.7	-41.0	20.1	0.00e+00	0	34	0	1071644672	50	7188
2026-01-05 22:58:03.08	352.82	19.50	-39.9	-41.2	20.7	0.00e+00	0	34	0	1072693248	52	6603
2026-01-05 22:58:04.10	352.68	19.40	-40.6	-42.0	20.2	0.00e+00	0	34	0	1074790400	52	7216
2026-01-05 22:58:05.11	352.54	19.29	-40.5	-41.9	20.0	0.00e+00	0	34	0	1076887552	54	6323
2026-01-05 22:58:06.11	352.40	19.19	-40.5	-41.9	20.0	0.00e+00	0	34	0	1078984704	54	6336
2026-01-05 22:58:07.12	352.26	19.08	-40.1	-41.4	20.7	0.00e+00	0	33	0	1081081856	54	6018
2026-01-05 22:58:08.13	352.13	18.98	-40.1	-41.4	20.6	0.00e+00	0	34	0	1082130432	54	5981
2026-01-05 22:58:09.14	351.99	18.87	-39.5	-40.7	21.3	0.00e+00	0	34	0	1084227584	52	6228
2026-01-05 22:58:10.15	351.85	18.77	-39.4	-40.6	21.4	0.00e+00	0	34	0	1086324736	52	6110
2026-01-05 22:58:11.16	351.72	18.66	-38.7	-39.8	22.1	0.00e+00	0	34	0	1088421888	52	5601
2026-01-05 22:58:12.16	351.59	18.56	-38.6	-39.7	22.1	0.00e+00	0	34	0	1090519040	50	6218
2026-01-05 22:58:13.17	351.46	18.46	-38.3	-39.3	22.4	0.00e+00	0	34	0	1091567616	50	5947
2026-01-05 22:58:14.18	351.32	18.35	-38.4	-39.4	22.3	0.00e+00	0	34	0	1093664768	50	6027
2026-01-05 22:58:15.19	351.19	18.25	-38.7	-39.8	22.1	0.00e+00	0	34	0	1095761920	50	6253
2026-01-05 22:58:16.21	351.06	18.15	-38.5	-39.6	22.2	0.00e+00	0	34	0	1097859072	50	6120
2026-01-05 22:58:17.21	350.93	18.05	-39.0	-40.1	21.8	0.00e+00	0	34	0	1099956224	50	6513
2026-01-05 22:58:18.22	350.81	17.94	-39.2	-40.3	21.8	0.00e+00	0	34	0	1101004800	50	6672
2026-01-05 22:58:19.23	350.68	17.84	-38.9	-40.0	21.9	0.00e+00	0	34	0	1103101952	50	6394
2026-01-05 22:58:20.24	350.55	17.74	-38.7	-39.7	22.1	0.00e+00	0	34	0	1105199104	50	6245
2026-01-05 22:58:21.25	350.43	17.64	-38.4	-39.4	22.6	0.00e+00	0	34	0	1107296256	50	5980
2026-01-05 22:58:22.26	350.30	17.54	-38.0	-39.0	22.8	0.00e+00	0	34	0	1109393408	50	5700
2026-01-05 22:58:23.27	350.18	17.44	-37.6	-38.5	23.1	0.00e+00	0	33	0	1110441984	48	6088
2026-01-05 22:58:24.27	350.06	17.34	-37.3	-38.2	23.3	0.00e+00	0	34	0	1112539136	48	5875
2026-01-05 22:58:25.28	349.94	17.24	-37.2	-38.1	23.4	0.00e+00	0	34	0	1114636288	48	5769
2026-01-05 22:58:26.29	349.82	17.14	-37.0	-37.9	23.4	0.00e+00	0	33	0	1116733440	48	5655
2026-01-05 22:58:27.30	349.70	17.04	-37.1	-38.0	23.3	0.00e+00	0	34	0	1118830592	48	5759
2026-01-05 22:58:28.31	349.58	16.94	-37.1	-38.0	23.4	0.00e+00	0	34	0	1119879168	48	5746
2026-01-05 22:58:29.32	349.46	16.84	-37.4	-38.3	22.9	0.00e+00	0	34	0	1121976320	48	5942
2026-01-05 22:58:30.33	349.34	16.74	-37.5	-38.5	22.9	0.00e+00	0	34	0	1124073472	48	6052
2026-01-05 22:58:31.34	349.22	16.64	-37.7	-38.7	22.8	0.00e+00	0	34	0	1126170624	48	6184
2026-01-05 22:58:32.35	349.11	16.55	-37.7	-38.7	22.8	0.00e+00	0	34	0	1128267776	48	6211
2026-01-05 22:58:33.36	348.99	16.45	-37.9	-38.9	22.6	0.00e+00	0	34	0	1129316352	48	6352
2026-01-05 22:58:34.37	348.88	16.35	-37.8	-38.8	22.8	0.00e+00	0	33	0	1131413504	48	6285
2026-01-05 22:58:35.38	348.76	16.25	-38.0	-38.9	22.6	0.00e+00	0	34	0	1133510656	48	6388
2026-01-05 22:58:36.39	348.65	16.16	-37.9	-38.9	22.7	0.00e+00	0	33	0	1135607808	48	6335
2026-01-05 22:58:37.40	348.54	16.06	-37.9	-38.8	22.6	0.00e+00	0	34	0	1137704960	48	6301
2026-01-05 22:58:38.41	348.42	15.96	-38.0	-38.9	22.6	0.00e+00	0	34	0	1138753536	48	6372
2026-01-05 22:58:39.42	348.31	15.87	-38.0	-39.0	22.5	0.00e+00	0	34	0	1140850688	48	6426
2026-01-05 22:58:40.43	348.20	15.77	-38.3	-39.3	22.3	0.00e+00	0	34	0	1142947840	48	6643
2026-01-05 22:58:41.44	348.09	15.67	-38.4	-39.4	22.2	0.00e+00	0	34	0	1145044992	48	6760
2026-01-05 22:58:42.44	347.99	15.58	-38.7	-39.8	22.0	0.00e+00	0	34	0	1147142144	48	7011
2026-01-05 22:58:43.45	347.88	15.49	-38.6	-39.6	21.9	0.00e+00	0	34	0	1148190720	48	6894
2026-01-05 22:58:44.46	347.77	15.39	-38.7	-39.7	22.0	0.00e+00	0	34	0	1150287872	50	6225
2026-01-05 22:58:45.47	347.66	15.30	-38.8	-39.9	21.9	0.00e+00	0	34	0	1152385024	50	6332
2026-01-05 22:58:46.48	347.56	15.20	-38.6	-39.7	21.9	0.00e+00	0	34	0	1154482176	50	6206
2026-01-05 22:58:47.49	347.45	15.11	-38.6	-39.6	22.1	0.00e+00	0	34	0	1156579328	50	6168
2026-01-05 22:58:48.50	347.35	15.01	-38.7	-39.8	21.9	0.00e+00	0	34	0	1157627904	50	6288
2026-01-05 22:58:49.51	347.24	14.92	-39.0	-40.1	21.8	0.00e+00	0	34	0	1159725056	50	6469
2026-01-05 22:58:50.52	347.14	14.83	-39.0	-40.1	21.6	0.00e+00	0	34	0	1161822208	50	6501
2026-01-05 22:58:51.53	347.04	14.73	-39.2	-40.3	21.5	0.00e+00	0	34	0	1163919360	50	6659
2026-01-05 22:58:52.54	346.94	14.64	-39.5	-40.6	21.1	0.00e+00	0	34	0	1166016512	50	6927
2026-01-05 22:58:53.55	346.84	14.55	-39.7	-40.9	20.9	0.00e+00	0	34	0	1168113664	50	7139
2026-01-05 22:58:54.56	346.74	14.45	-40.0	-41.3	20.6	0.00e+00	0	34	0	1169162240	52	6635
2026-01-05 22:58:55.56	346.64	14.36	-40.5	-41.9	20.3	0.00e+00	0	34	0	1171259392	52	7125
2026-01-05 22:58:56.57	346.54	14.27	-40.5	-42.0	19.9	0.00e+00	0	34	0	1173356544	52	7186
2026-01-05 22:58:57.58	346.44	14.18	-40.8	-42.3	19.7	0.00e+00	0	34	0	1175453696	52	7495
2026-01-05 22:58:58.59	346.34	14.09	-40.7	-42.2	19.9	0.00e+00	0	34	0	1177550848	54	6577
2026-01-05 22:58:59.60	346.24	14.00	-40.9	-42.5	19.5	0.00e+00	0	34	0	1178599424	54	6827
2026-01-05 22:59:00.61	346.15	13.91	-40.5	-41.9	19.9	0.00e+00	0	34	0	1180696576	54	6381
2026-01-05 22:59:01.62	346.05	13.82	-40.2	-41.7	20.2	0.00e+00	0	34	0	1182793728	54	6192
2026-01-05 22:59:02.63	345.95	13.73	-39.7	-41.0	20.7	0.00e+00	0	34	0	1184890880	54	5760
2026-01-05 22:59:03.64	345.86	13.64	-39.5	-40.8	21.0	0.00e+00	0	34	0	1186988032	52	6282
2026-01-05 22:59:04.65	345.76	13.55	-39.4	-40.6	21.1	0.00e+00	0	34	0	1188036608	52	6137
2026-01-05 22:59:05.66	345.67	13.46	-39.0	-40.2	21.6	0.00e+00	0	34	0	1190133760	52	5835
2026-01-05 22:59:06.67	345.58	13.37	-38.7	-39.9	21.7	0.00e+00	0	34	0	1192230912	50	6343
2026-01-05 22:59:07.68	345.49	13.28	-38.6	-39.8	21.9	0.00e+00	0	34	0	1194328064	50	6253
2026-01-05 22:59:08.68	345.39	13.19	-38.3	-39.4	22.1	0.00e+00	0	34	0	1196425216	50	6020
2026-01-05 22:59:09.69	345.30	13.10	-38.3	-39.4	22.2	0.00e+00	0	34	0	1197473792	50	6010
