passes_logs/2026/01/05/R4.6S_Anadyr/R4.6S_Anadyr__20260105_122143_NOAA_21_JPSS-2_rec.log

#Pass ID: 20260105_122143_NOAA 21 (JPSS-2)
#Satellite: NOAA 21 (JPSS-2)
#Configuration: NOAA-21
#almurnet v.1.7.20251203
#Start time: 2026-01-05 12:21:44

#Version: 2.2.20231116
#Station: R4.6S_Anadyr
#Location: 177.4865 lon 64.73178 lat
#TLE: 1 54234U 22150A   26004.93331070  .00000143  00000+0  88672-4 0  9998
#TLE: 2 54234  98.7489 305.9554 0001075 342.5085  17.6054 14.19532053163383

#Time	Az	El	Level	Level2	SNR	BER	BlckErr	Temp	State	Recorded	gain1	gain2
2026-01-05 12:21:44.62	19.02	0.04	-49.8	-64.7	3.6	1.51e+00	0	21	0	0	60	62078
2026-01-05 12:21:45.63	19.09	0.09	-50.1	-62.9	3.5	1.52e+00	0	22	104	0	60	49072
2026-01-05 12:21:46.64	19.17	0.14	-49.8	-62.6	3.5	1.51e+00	0	22	104	0	60	47618
2026-01-05 12:21:47.65	19.24	0.19	-48.7	-61.5	3.5	1.52e+00	0	22	104	0	60	41682
2026-01-05 12:21:48.66	19.32	0.24	-48.8	-61.6	3.5	1.52e+00	0	23	104	0	60	42137
2026-01-05 12:21:49.67	19.39	0.29	-48.6	-61.5	3.5	1.52e+00	0	22	104	0	60	41578
2026-01-05 12:21:50.68	19.47	0.34	-48.6	-61.4	3.5	1.52e+00	0	23	104	0	60	41184
2026-01-05 12:21:51.69	19.54	0.39	-48.6	-61.4	3.5	1.52e+00	0	23	104	0	60	41049
2026-01-05 12:21:52.70	19.62	0.43	-48.5	-61.3	3.5	1.52e+00	0	23	104	0	60	41000
2026-01-05 12:21:53.71	19.70	0.48	-48.5	-61.3	3.5	1.52e+00	0	23	104	0	60	40853
2026-01-05 12:21:54.72	19.77	0.53	-48.4	-61.2	3.5	1.52e+00	0	23	104	0	60	40401
2026-01-05 12:21:55.73	19.85	0.58	-48.3	-61.1	3.5	1.52e+00	0	23	104	0	60	39677
2026-01-05 12:21:56.74	19.93	0.63	-48.1	-61.0	3.5	1.51e+00	0	23	104	0	60	39182
2026-01-05 12:21:57.75	20.00	0.68	-48.0	-60.9	3.5	1.52e+00	0	23	104	0	60	38771
2026-01-05 12:21:58.76	20.08	0.73	-47.8	-60.6	3.5	1.52e+00	0	23	104	0	60	37775
2026-01-05 12:21:59.77	20.16	0.78	-47.6	-60.4	3.5	1.52e+00	0	23	104	0	60	36678
2026-01-05 12:22:00.77	20.24	0.83	-47.2	-60.0	3.5	1.52e+00	0	23	104	0	60	34969
2026-01-05 12:22:01.78	20.32	0.88	-47.0	-59.8	3.5	1.52e+00	0	23	104	0	60	34103
2026-01-05 12:22:02.79	20.39	0.93	-47.0	-59.7	3.5	1.52e+00	0	23	104	0	60	34095
2026-01-05 12:22:03.80	20.47	0.98	-47.0	-59.8	3.5	1.52e+00	0	23	104	0	60	34214
2026-01-05 12:22:04.81	20.55	1.03	-47.0	-59.7	3.5	1.52e+00	0	23	104	0	60	34015
2026-01-05 12:22:05.82	20.63	1.08	-47.0	-59.8	3.5	1.51e+00	0	23	104	0	60	34215
2026-01-05 12:22:06.83	20.71	1.13	-47.0	-59.7	3.5	1.52e+00	0	23	104	0	60	33992
2026-01-05 12:22:07.84	20.79	1.18	-47.0	-59.7	3.5	1.52e+00	0	23	104	0	60	34012
2026-01-05 12:22:08.85	20.87	1.23	-46.9	-59.8	3.5	1.52e+00	0	23	104	0	60	34156
2026-01-05 12:22:09.86	20.95	1.28	-46.9	-59.7	3.5	1.51e+00	0	23	104	0	60	33761
2026-01-05 12:22:10.87	21.03	1.33	-46.9	-59.7	3.5	1.52e+00	0	23	104	0	60	33964
2026-01-05 12:22:11.88	21.11	1.38	-47.0	-59.8	3.5	1.52e+00	0	23	104	0	60	34184
2026-01-05 12:22:12.89	21.19	1.43	-47.0	-59.8	3.5	1.52e+00	0	23	104	0	60	34223
2026-01-05 12:22:13.90	21.27	1.48	-47.0	-59.7	3.5	1.52e+00	0	23	104	0	60	34072
2026-01-05 12:22:14.91	21.36	1.53	-47.0	-59.8	3.5	1.52e+00	0	23	104	0	60	34176
2026-01-05 12:22:15.92	21.44	1.58	-47.0	-59.8	3.5	1.52e+00	0	23	104	0	60	34153
2026-01-05 12:22:16.93	21.52	1.63	-47.0	-59.8	3.5	1.52e+00	0	23	104	0	60	34107
2026-01-05 12:22:17.94	21.60	1.69	-47.0	-59.8	3.5	1.52e+00	0	23	104	0	60	34184
2026-01-05 12:22:18.95	21.69	1.74	-46.9	-59.7	3.5	1.52e+00	0	23	104	0	60	33737
2026-01-05 12:22:19.96	21.77	1.79	-46.9	-59.6	3.5	1.52e+00	0	23	104	0	60	33600
2026-01-05 12:22:20.97	21.85	1.84	-47.0	-59.6	3.5	1.52e+00	0	23	104	0	60	33493
2026-01-05 12:22:21.98	21.93	1.89	-47.0	-59.7	3.5	1.51e+00	0	23	104	0	60	33770
2026-01-05 12:22:22.99	22.02	1.94	-47.0	-59.7	3.5	1.52e+00	0	23	104	0	60	33802
2026-01-05 12:22:24.00	22.10	1.99	-46.9	-59.7	3.5	1.51e+00	0	23	104	0	60	33759
2026-01-05 12:22:25.01	22.19	2.04	-46.9	-59.6	3.5	1.52e+00	0	23	104	0	60	33579
2026-01-05 12:22:26.02	22.27	2.09	-46.9	-59.7	3.5	1.52e+00	0	23	104	0	60	33770
2026-01-05 12:22:27.03	22.36	2.14	-46.9	-59.6	3.5	1.52e+00	0	23	104	0	60	33691
2026-01-05 12:22:28.04	22.44	2.19	-46.9	-59.4	3.5	1.51e+00	0	23	104	0	60	32840
2026-01-05 12:22:29.05	22.53	2.24	-46.9	-59.1	3.5	1.52e+00	0	23	104	0	60	31726
2026-01-05 12:22:30.06	22.61	2.30	-46.9	-58.8	3.5	1.52e+00	0	23	104	0	60	30648
2026-01-05 12:22:31.06	22.70	2.35	-46.9	-58.9	3.5	1.52e+00	0	23	104	0	60	30904
2026-01-05 12:22:32.08	22.78	2.40	-46.9	-59.0	3.5	1.52e+00	0	23	104	0	60	31381
2026-01-05 12:22:33.09	22.87	2.45	-46.8	-58.3	3.6	1.51e+00	0	23	104	0	60	28919
2026-01-05 12:22:34.09	22.96	2.50	-45.9	-52.5	6.5	3.03e-01	123	23	104	0	60	14780
2026-01-05 12:22:35.10	23.04	2.55	-44.5	-48.2	11.2	9.77e-03	122	23	0	2097152	60	8989
2026-01-05 12:22:36.11	23.13	2.60	-42.7	-45.1	13.7	1.29e-05	120	23	0	5242880	58	7108
2026-01-05 12:22:37.12	23.22	2.65	-40.5	-42.2	16.7	0.00e+00	123	23	0	8388608	56	5689
2026-01-05 12:22:38.13	23.31	2.71	-40.0	-41.5	17.4	0.00e+00	120	23	0	11534336	52	6645
2026-01-05 12:22:39.14	23.39	2.76	-38.7	-40.0	18.8	0.00e+00	122	23	0	14680064	52	5592
2026-01-05 12:22:40.15	23.48	2.81	-38.7	-40.0	18.8	0.00e+00	121	23	0	17825792	50	6270
2026-01-05 12:22:41.16	23.57	2.86	-40.0	-41.5	17.4	0.00e+00	120	23	0	20971520	52	6639
2026-01-05 12:22:42.17	23.66	2.91	-40.8	-42.6	15.7	0.00e+00	122	23	0	24117248	52	7482
2026-01-05 12:22:43.18	23.75	2.96	-43.0	-45.6	13.7	0.00e+00	123	23	0	27262976	56	8437
2026-01-05 12:22:44.19	23.84	3.02	-43.7	-46.7	12.8	2.26e-04	122	23	0	30408704	60	7625
2026-01-05 12:22:45.20	23.93	3.07	-42.5	-44.9	14.2	0.00e+00	123	23	0	33554432	56	7724
2026-01-05 12:22:46.21	24.02	3.12	-46.7	-58.7	3.5	1.51e+00	0	23	104	34603008	60	30261
2026-01-05 12:22:47.22	24.11	3.17	-45.0	-49.5	10.2	1.99e-02	121	23	104	34603008	60	10521
2026-01-05 12:22:48.22	24.20	3.22	-41.1	-42.9	16.6	0.00e+00	122	23	0	36700160	56	6136
2026-01-05 12:22:49.24	24.29	3.27	-47.1	-59.8	3.5	1.51e+00	0	23	104	37748736	60	34168
2026-01-05 12:22:50.24	24.38	3.33	-41.9	-44.4	14.3	4.08e-01	122	23	104	37748736	56	7329
2026-01-05 12:22:51.25	24.47	3.38	-41.7	-43.7	15.6	7.00e-07	123	23	0	39845888	56	6775
2026-01-05 12:22:52.26	24.56	3.43	-42.2	-44.4	15.4	0.00e+00	123	23	0	42991616	56	7305
2026-01-05 12:22:53.27	24.66	3.48	-41.1	-42.9	15.4	0.00e+00	120	23	0	45088768	56	6193
2026-01-05 12:22:54.28	24.75	3.53	-41.7	-43.7	15.8	0.00e+00	122	23	0	48234496	56	6730
2026-01-05 12:22:55.29	24.84	3.59	-41.1	-43.0	16.3	0.00e+00	122	23	0	52428800	56	6229
2026-01-05 12:22:56.30	24.94	3.64	-41.6	-43.6	16.1	0.00e+00	122	23	0	55574528	56	6680
2026-01-05 12:22:57.31	25.03	3.69	-41.4	-43.2	16.6	0.00e+00	122	23	0	58720256	56	6404
2026-01-05 12:22:58.32	25.12	3.74	-41.0	-42.7	16.6	0.00e+00	122	23	0	61865984	56	6035
2026-01-05 12:22:59.33	25.22	3.80	-41.3	-43.1	16.1	0.00e+00	123	23	0	65011712	56	6313
2026-01-05 12:23:00.34	25.31	3.85	-41.5	-43.4	15.8	0.00e+00	122	23	0	68157440	56	6572
2026-01-05 12:23:01.35	25.41	3.90	-40.9	-42.6	16.7	0.00e+00	120	23	0	71303168	54	6720
2026-01-05 12:23:02.35	25.50	3.95	-41.5	-43.4	15.8	0.00e+00	123	23	0	74448896	54	7371
2026-01-05 12:23:03.36	25.60	4.00	-41.2	-42.9	16.4	0.00e+00	121	23	0	77594624	56	6183
2026-01-05 12:23:04.37	25.69	4.06	-40.7	-42.3	17.0	0.00e+00	122	23	0	80740352	54	6474
2026-01-05 12:23:05.38	25.79	4.11	-41.2	-43.0	16.2	0.00e+00	120	23	0	83886080	54	6989
2026-01-05 12:23:06.39	25.88	4.16	-40.7	-42.3	17.5	0.00e+00	122	23	0	87031808	54	6485
2026-01-05 12:23:07.40	25.98	4.22	-39.6	-41.0	18.0	0.00e+00	122	23	0	90177536	52	6264
2026-01-05 12:23:08.41	26.08	4.27	-39.6	-41.0	18.1	0.00e+00	123	23	0	93323264	52	6269
2026-01-05 12:23:09.42	26.18	4.32	-39.6	-41.0	18.5	0.00e+00	123	23	0	96468992	52	6254
2026-01-05 12:23:10.43	26.27	4.37	-38.7	-40.0	19.3	0.00e+00	122	23	0	99614720	50	6215
2026-01-05 12:23:11.44	26.37	4.43	-39.3	-40.7	18.6	0.00e+00	123	23	0	102760448	50	6798
2026-01-05 12:23:12.45	26.47	4.48	-39.0	-40.4	18.9	0.00e+00	122	23	0	105906176	50	6512
2026-01-05 12:23:13.46	26.57	4.53	-39.2	-40.6	19.0	0.00e+00	120	23	0	109051904	50	6658
2026-01-05 12:23:14.47	26.67	4.58	-39.4	-40.8	18.6	0.00e+00	122	23	0	112197632	50	6860
2026-01-05 12:23:15.48	26.77	4.64	-39.1	-40.5	18.5	0.00e+00	120	23	0	115343360	50	6588
2026-01-05 12:23:16.49	26.87	4.69	-38.7	-40.0	19.3	0.00e+00	123	23	0	118489088	50	6243
2026-01-05 12:23:17.50	26.97	4.74	-38.6	-39.9	19.5	0.00e+00	123	23	0	121634816	50	6135
2026-01-05 12:23:18.51	27.07	4.80	-38.4	-39.7	19.5	0.00e+00	123	23	0	124780544	50	6027
2026-01-05 12:23:19.52	27.17	4.85	-38.4	-39.7	19.6	0.00e+00	122	23	0	127926272	50	5995
2026-01-05 12:23:20.53	27.27	4.90	-37.8	-39.0	20.2	0.00e+00	123	23	0	131072000	50	5562
2026-01-05 12:23:21.54	27.37	4.96	-37.9	-39.1	20.2	0.00e+00	123	23	0	134217728	48	6318
2026-01-05 12:23:22.55	27.47	5.01	-37.9	-39.1	20.2	0.00e+00	123	23	0	137363456	48	6301
2026-01-05 12:23:23.56	27.58	5.06	-37.2	-38.3	20.8	0.00e+00	123	23	0	140509184	48	5747
2026-01-05 12:23:24.57	27.68	5.12	-37.8	-39.0	20.3	0.00e+00	122	24	0	143654912	48	6243
2026-01-05 12:23:25.58	27.78	5.17	-37.5	-38.6	20.6	0.00e+00	120	23	0	146800640	48	5976
2026-01-05 12:23:26.59	27.88	5.22	-37.7	-38.9	20.4	0.00e+00	122	23	0	149946368	48	6192
2026-01-05 12:23:27.60	27.99	5.28	-37.6	-38.8	20.4	0.00e+00	123	24	0	153092096	48	6097
2026-01-05 12:23:28.61	28.09	5.33	-37.9	-39.1	20.5	0.00e+00	123	23	0	156237824	48	6282
2026-01-05 12:23:29.62	28.20	5.38	-37.7	-38.9	20.5	0.00e+00	121	23	0	159383552	48	6136
2026-01-05 12:23:30.62	28.30	5.44	-37.5	-38.7	20.4	0.00e+00	122	23	0	162529280	48	6048
2026-01-05 12:23:31.63	28.41	5.49	-37.8	-39.0	20.4	0.00e+00	120	23	0	165675008	48	6230
2026-01-05 12:23:32.64	28.51	5.54	-37.9	-39.1	20.4	0.00e+00	123	24	0	168820736	48	6279
2026-01-05 12:23:33.65	28.62	5.60	-37.6	-38.8	20.5	0.00e+00	122	24	0	171966464	48	6099
2026-01-05 12:23:34.66	28.72	5.65	-38.0	-39.2	20.3	0.00e+00	123	24	0	175112192	48	6363
2026-01-05 12:23:35.67	28.83	5.70	-37.8	-39.0	20.4	0.00e+00	120	24	0	178257920	48	6217
2026-01-05 12:23:36.68	28.94	5.76	-38.0	-39.1	20.3	0.00e+00	122	23	0	181403648	48	6343
2026-01-05 12:23:37.69	29.04	5.81	-37.8	-39.0	20.2	0.00e+00	120	23	0	184549376	48	6251
2026-01-05 12:23:38.70	29.15	5.86	-37.5	-38.7	20.6	0.00e+00	122	23	0	187695104	48	6017
2026-01-05 12:23:39.71	29.26	5.92	-37.6	-38.7	20.8	0.00e+00	122	23	0	190840832	48	6045
2026-01-05 12:23:40.72	29.37	5.97	-37.2	-38.3	21.1	0.00e+00	122	23	0	193986560	48	5778
2026-01-05 12:23:41.73	29.48	6.03	-37.2	-38.3	21.0	0.00e+00	122	23	0	197132288	48	5744
2026-01-05 12:23:42.74	29.59	6.08	-37.3	-38.4	21.0	0.00e+00	121	23	0	200278016	48	5830
2026-01-05 12:23:43.75	29.70	6.13	-37.1	-38.2	21.0	0.00e+00	122	24	0	203423744	48	5699
2026-01-05 12:23:44.76	29.81	6.19	-37.0	-38.1	21.3	0.00e+00	123	24	0	206569472	48	5612
2026-01-05 12:23:45.77	29.92	6.24	-37.0	-38.1	21.2	0.00e+00	122	24	0	209715200	46	6297
2026-01-05 12:23:46.78	30.03	6.29	-37.2	-38.3	21.1	0.00e+00	123	23	0	212860928	46	6439
2026-01-05 12:23:47.79	30.14	6.35	-36.8	-37.9	21.4	0.00e+00	123	23	0	216006656	46	6140
2026-01-05 12:23:48.80	30.25	6.40	-36.7	-37.8	21.5	0.00e+00	120	24	0	219152384	46	6116
2026-01-05 12:23:49.80	30.36	6.46	-36.9	-38.0	21.3	0.00e+00	123	24	0	222298112	46	6221
2026-01-05 12:23:50.81	30.47	6.51	-37.0	-38.1	21.3	0.00e+00	122	24	0	225443840	46	6316
2026-01-05 12:23:51.82	30.59	6.56	-36.9	-38.0	21.4	0.00e+00	120	24	0	228589568	46	6269
2026-01-05 12:23:52.83	30.70	6.62	-36.9	-38.0	21.4	0.00e+00	123	24	0	231735296	46	6208
2026-01-05 12:23:53.84	30.81	6.67	-36.8	-37.9	21.4	0.00e+00	122	24	0	234881024	46	6192
2026-01-05 12:23:54.85	30.93	6.73	-36.9	-38.0	21.2	0.00e+00	122	24	0	238026752	46	6240
2026-01-05 12:23:55.86	31.04	6.78	-37.0	-38.0	21.2	0.00e+00	122	24	0	241172480	46	6270
2026-01-05 12:23:56.87	31.16	6.83	-36.8	-37.9	21.5	0.00e+00	123	24	0	244318208	46	6147
2026-01-05 12:23:57.88	31.27	6.89	-36.6	-37.7	21.6	0.00e+00	120	24	0	247463936	46	6023
2026-01-05 12:23:58.89	31.39	6.94	-36.7	-37.7	21.7	0.00e+00	123	24	0	250609664	46	6043
2026-01-05 12:23:59.90	31.50	7.00	-36.4	-37.4	21.9	0.00e+00	123	24	0	253755392	46	5858
2026-01-05 12:24:00.91	31.62	7.05	-36.7	-37.7	21.5	0.00e+00	123	24	0	256901120	46	6060
2026-01-05 12:24:01.92	31.74	7.11	-36.6	-37.6	21.7	0.00e+00	122	24	0	260046848	46	5983
2026-01-05 12:24:02.93	31.85	7.16	-36.5	-37.6	21.7	0.00e+00	123	24	0	263192576	46	5959
2026-01-05 12:24:03.94	31.97	7.21	-36.6	-37.7	21.7	0.00e+00	122	24	0	266338304	46	6038
2026-01-05 12:24:04.95	32.09	7.27	-36.7	-37.7	21.6	0.00e+00	122	24	0	269484032	46	6053
2026-01-05 12:24:05.96	32.21	7.32	-36.5	-37.6	21.7	0.00e+00	123	24	0	272629760	46	5943
2026-01-05 12:24:06.97	32.33	7.38	-36.6	-37.7	21.6	0.00e+00	122	24	0	275775488	46	6011
2026-01-05 12:24:07.98	32.45	7.43	-36.8	-37.9	21.4	0.00e+00	120	24	0	278921216	46	6147
2026-01-05 12:24:08.99	32.57	7.49	-36.5	-37.6	21.7	0.00e+00	123	24	0	282066944	46	5941
2026-01-05 12:24:10.00	32.69	7.54	-36.7	-37.8	21.6	0.00e+00	122	24	0	285212672	46	6093
2026-01-05 12:24:11.01	32.81	7.59	-36.5	-37.5	21.7	0.00e+00	123	24	0	288358400	46	5902
2026-01-05 12:24:12.02	32.93	7.65	-36.1	-37.2	22.1	0.00e+00	123	24	0	291504128	46	5660
2026-01-05 12:24:13.03	33.05	7.70	-36.1	-37.1	22.2	0.00e+00	123	24	0	294649856	46	5640
2026-01-05 12:24:14.04	33.17	7.76	-36.1	-37.2	22.1	0.00e+00	122	24	0	297795584	46	5669
2026-01-05 12:24:15.05	33.29	7.81	-36.2	-37.2	22.1	0.00e+00	122	24	0	300941312	46	5680
2026-01-05 12:24:16.06	33.42	7.87	-36.0	-37.0	22.3	0.00e+00	123	24	0	304087040	46	5588
2026-01-05 12:24:17.07	33.54	7.92	-36.0	-37.0	22.3	0.00e+00	123	24	0	307232768	46	5580
2026-01-05 12:24:18.08	33.66	7.98	-36.0	-37.0	22.3	0.00e+00	123	24	0	310378496	46	5589
2026-01-05 12:24:19.08	33.79	8.03	-35.9	-36.9	22.4	0.00e+00	123	24	0	313524224	46	5490
2026-01-05 12:24:20.10	33.91	8.08	-36.1	-37.1	22.2	0.00e+00	123	24	0	316669952	46	5626
2026-01-05 12:24:21.10	34.04	8.14	-36.3	-37.3	22.1	0.00e+00	122	24	0	319815680	46	5777
2026-01-05 12:24:22.11	34.16	8.19	-35.9	-36.9	22.5	0.00e+00	122	24	0	322961408	46	5517
2026-01-05 12:24:23.12	34.29	8.25	-36.0	-37.0	22.4	0.00e+00	122	24	0	326107136	46	5549
2026-01-05 12:24:24.13	34.41	8.30	-36.0	-37.0	22.2	0.00e+00	123	24	0	329252864	46	5570
2026-01-05 12:24:25.14	34.54	8.36	-35.9	-36.9	22.4	0.00e+00	122	24	0	332398592	46	5523
2026-01-05 12:24:26.15	34.67	8.41	-35.7	-36.7	22.6	0.00e+00	123	24	0	335544320	46	5369
2026-01-05 12:24:27.16	34.80	8.47	-35.8	-36.8	22.6	0.00e+00	122	24	0	338690048	44	6109
2026-01-05 12:24:28.17	34.92	8.52	-36.0	-37.0	22.3	0.00e+00	120	24	0	341835776	44	6236
2026-01-05 12:24:29.18	35.05	8.57	-36.0	-37.0	22.4	0.00e+00	123	24	0	344981504	44	6261
2026-01-05 12:24:30.19	35.18	8.63	-35.8	-36.8	22.5	0.00e+00	122	24	0	348127232	44	6073
2026-01-05 12:24:31.20	35.31	8.68	-35.8	-36.8	22.5	0.00e+00	122	24	0	351272960	44	6089
2026-01-05 12:24:32.21	35.44	8.74	-35.9	-36.9	22.4	0.00e+00	122	24	0	354418688	44	6190
2026-01-05 12:24:33.22	35.57	8.79	-35.7	-36.7	22.6	0.00e+00	123	24	0	357564416	44	6021
2026-01-05 12:24:34.23	35.70	8.85	-35.5	-36.5	22.7	0.00e+00	123	24	0	360710144	44	5918
2026-01-05 12:24:35.24	35.83	8.90	-35.5	-36.5	22.7	0.00e+00	122	24	0	363855872	44	5878
2026-01-05 12:24:36.25	35.97	8.95	-35.5	-36.4	22.7	0.00e+00	123	24	0	367001600	44	5840
2026-01-05 12:24:37.25	36.10	9.01	-35.7	-36.7	22.5	0.00e+00	123	24	0	370147328	44	6030
2026-01-05 12:24:38.26	36.23	9.06	-35.5	-36.5	22.8	0.00e+00	122	24	0	373293056	44	5886
2026-01-05 12:24:39.27	36.36	9.12	-35.8	-36.8	22.6	0.00e+00	122	24	0	376438784	44	6106
2026-01-05 12:24:40.28	36.50	9.17	-35.8	-36.8	22.4	0.00e+00	123	24	0	379584512	44	6108
2026-01-05 12:24:41.29	36.63	9.23	-35.8	-36.8	22.5	0.00e+00	122	24	0	383778816	44	6120
2026-01-05 12:24:42.30	36.77	9.28	-35.8	-36.8	22.5	0.00e+00	123	24	0	385875968	44	6117
2026-01-05 12:24:43.31	36.90	9.33	-35.7	-36.8	22.6	0.00e+00	123	24	0	389021696	44	6067
2026-01-05 12:24:44.32	37.04	9.39	-35.7	-36.7	22.6	0.00e+00	122	24	0	392167424	44	6059
2026-01-05 12:24:45.33	37.17	9.44	-35.7	-36.7	22.6	0.00e+00	122	24	0	395313152	44	6059
2026-01-05 12:24:46.34	37.31	9.50	-35.7	-36.7	22.6	0.00e+00	123	24	0	399507456	44	6055
2026-01-05 12:24:47.35	37.45	9.55	-35.7	-36.7	22.6	0.00e+00	122	24	0	402653184	44	6008
2026-01-05 12:24:48.35	37.58	9.61	-35.7	-36.7	22.7	0.00e+00	122	24	0	405798912	44	5997
2026-01-05 12:24:49.36	37.72	9.66	-35.5	-36.5	22.9	0.00e+00	123	24	0	407896064	44	5878
2026-01-05 12:24:50.37	37.86	9.71	-35.5	-36.4	22.8	0.00e+00	123	24	0	411041792	44	5850
2026-01-05 12:24:51.38	38.00	9.77	-35.7	-36.7	22.6	0.00e+00	122	24	0	414187520	44	6031
2026-01-05 12:24:52.39	38.14	9.82	-35.5	-36.5	22.9	0.00e+00	123	24	0	418381824	44	5905
2026-01-05 12:24:53.40	38.28	9.88	-35.6	-36.5	22.9	0.00e+00	121	24	0	421527552	44	5909
2026-01-05 12:24:54.41	38.42	9.93	-35.3	-36.2	23.0	0.00e+00	123	24	0	424673280	44	5716
2026-01-05 12:24:55.42	38.56	9.98	-35.4	-36.3	23.1	0.00e+00	123	24	0	427819008	44	5765
2026-01-05 12:24:56.43	38.70	10.04	-35.1	-36.1	23.2	0.00e+00	123	24	0	430964736	44	5611
2026-01-05 12:24:57.44	38.85	10.09	-35.2	-36.2	23.1	0.00e+00	123	24	0	434110464	44	5679
2026-01-05 12:24:58.45	38.99	10.15	-35.4	-36.3	23.0	0.00e+00	123	24	0	437256192	44	5768
2026-01-05 12:24:59.46	39.13	10.20	-35.1	-36.0	23.2	0.00e+00	122	24	0	440401920	44	5593
2026-01-05 12:25:00.47	39.28	10.25	-35.1	-36.1	23.1	0.00e+00	122	24	0	443547648	44	5605
2026-01-05 12:25:01.48	39.42	10.31	-35.0	-36.0	23.2	0.00e+00	122	24	0	446693376	44	5565
2026-01-05 12:25:02.49	39.56	10.36	-35.1	-36.1	23.2	0.00e+00	123	24	0	449839104	44	5622
2026-01-05 12:25:03.50	39.71	10.42	-35.2	-36.1	23.1	0.00e+00	122	24	0	452984832	44	5629
2026-01-05 12:25:04.51	39.86	10.47	-35.2	-36.1	23.1	0.00e+00	122	24	0	456130560	44	5642
2026-01-05 12:25:05.52	40.00	10.52	-34.9	-35.8	23.3	0.00e+00	123	24	0	459276288	44	5452
2026-01-05 12:25:06.53	40.15	10.58	-35.0	-36.0	23.3	0.00e+00	123	24	0	462422016	44	5541
2026-01-05 12:25:07.54	40.30	10.63	-35.1	-36.0	23.3	0.00e+00	122	24	0	465567744	44	5593
2026-01-05 12:25:08.55	40.44	10.68	-35.0	-36.0	23.3	0.00e+00	120	24	0	468713472	44	5561
2026-01-05 12:25:09.56	40.59	10.74	-35.1	-36.0	23.1	0.00e+00	122	24	0	471859200	44	5576
2026-01-05 12:25:10.57	40.74	10.79	-35.0	-36.0	23.2	0.00e+00	123	24	0	475004928	44	5535
2026-01-05 12:25:11.58	40.89	10.84	-35.1	-36.1	23.2	0.00e+00	122	24	0	478150656	44	5607
2026-01-05 12:25:12.58	41.04	10.90	-35.1	-36.1	23.2	0.00e+00	122	24	0	481296384	44	5602
2026-01-05 12:25:13.60	41.19	10.95	-35.0	-35.9	23.3	0.00e+00	123	24	0	484442112	44	5514
2026-01-05 12:25:14.61	41.34	11.00	-34.9	-35.9	23.4	0.00e+00	122	24	0	487587840	44	5483
2026-01-05 12:25:15.62	41.49	11.06	-35.0	-36.0	23.3	0.00e+00	120	24	0	490733568	44	5540
2026-01-05 12:25:16.63	41.65	11.11	-35.1	-36.1	23.2	0.00e+00	123	24	0	493879296	44	5613
2026-01-05 12:25:17.64	41.80	11.16	-35.1	-36.0	23.3	0.00e+00	122	24	0	497025024	44	5574
2026-01-05 12:25:18.65	41.95	11.21	-35.2	-36.2	23.2	0.00e+00	122	24	0	500170752	44	5662
2026-01-05 12:25:19.66	42.11	11.27	-35.0	-35.9	23.4	0.00e+00	123	24	0	503316480	44	5517
2026-01-05 12:25:20.67	42.26	11.32	-35.0	-35.9	23.4	0.00e+00	122	24	0	506462208	44	5513
2026-01-05 12:25:21.68	42.41	11.37	-34.8	-35.8	23.5	0.00e+00	120	24	0	509607936	44	5421
2026-01-05 12:25:22.69	42.57	11.43	-34.9	-35.9	23.3	0.00e+00	122	24	0	512753664	44	5492
2026-01-05 12:25:23.70	42.73	11.48	-35.0	-35.9	23.3	0.00e+00	120	24	0	515899392	44	5525
2026-01-05 12:25:24.71	42.88	11.53	-34.8	-35.7	23.6	0.00e+00	120	24	0	519045120	42	6024
2026-01-05 12:25:25.72	43.04	11.58	-34.8	-35.7	23.6	0.00e+00	120	24	0	522190848	42	6020
2026-01-05 12:25:26.73	43.20	11.64	-34.8	-35.7	23.6	0.00e+00	123	24	0	525336576	42	6064
2026-01-05 12:25:27.73	43.35	11.69	-34.7	-35.7	23.6	0.00e+00	120	24	0	528482304	42	6000
2026-01-05 12:25:28.74	43.51	11.74	-34.8	-35.8	23.5	0.00e+00	123	24	0	531628032	42	6072
2026-01-05 12:25:29.75	43.67	11.79	-34.8	-35.7	23.5	0.00e+00	120	24	0	534773760	42	6027
2026-01-05 12:25:30.76	43.83	11.84	-34.8	-35.7	23.6	0.00e+00	123	24	0	537919488	42	6028
2026-01-05 12:25:31.77	43.99	11.90	-34.7	-35.7	23.6	0.00e+00	121	24	0	541065216	42	6016
2026-01-05 12:25:32.78	44.15	11.95	-34.8	-35.7	23.6	0.00e+00	123	24	0	544210944	42	6057
2026-01-05 12:25:33.79	44.31	12.00	-34.7	-35.7	23.6	0.00e+00	122	24	0	547356672	42	6012
2026-01-05 12:25:34.80	44.47	12.05	-34.7	-35.6	23.7	0.00e+00	123	24	0	550502400	42	5948
2026-01-05 12:25:35.81	44.64	12.10	-34.7	-35.6	23.6	0.00e+00	120	24	0	553648128	42	5989
2026-01-05 12:25:36.82	44.80	12.15	-34.8	-35.7	23.5	0.00e+00	123	24	0	556793856	42	6044
2026-01-05 12:25:37.83	44.96	12.21	-34.7	-35.6	23.7	0.00e+00	120	24	0	559939584	42	5981
2026-01-05 12:25:38.84	45.13	12.26	-34.8	-35.7	23.6	0.00e+00	123	24	0	563085312	42	6044
2026-01-05 12:25:39.85	45.29	12.31	-35.0	-35.9	23.5	0.00e+00	122	24	0	566231040	42	6200
2026-01-05 12:25:40.86	45.46	12.36	-34.9	-35.8	23.5	0.00e+00	123	24	0	569376768	42	6123
2026-01-05 12:25:41.86	45.62	12.41	-34.9	-35.8	23.5	0.00e+00	123	24	0	572522496	42	6117
2026-01-05 12:25:42.87	45.79	12.46	-34.8	-35.7	23.6	0.00e+00	123	24	0	575668224	42	6050
2026-01-05 12:25:43.88	45.95	12.51	-34.7	-35.7	23.7	0.00e+00	122	24	0	578813952	42	5999
2026-01-05 12:25:44.89	46.12	12.56	-34.7	-35.7	23.7	0.00e+00	123	24	0	581959680	42	5997
2026-01-05 12:25:45.90	46.29	12.61	-34.7	-35.6	23.8	0.00e+00	123	24	0	585105408	42	5972
2026-01-05 12:25:46.91	46.46	12.66	-34.7	-35.6	23.8	0.00e+00	122	24	0	588251136	42	5963
2026-01-05 12:25:47.92	46.63	12.71	-34.8	-35.8	23.6	0.00e+00	120	24	0	591396864	42	6086
2026-01-05 12:25:48.93	46.80	12.76	-34.8	-35.7	23.6	0.00e+00	123	24	0	594542592	42	6022
2026-01-05 12:25:49.94	46.97	12.81	-35.0	-35.9	23.5	0.00e+00	123	24	0	597688320	42	6166
2026-01-05 12:25:50.95	47.14	12.86	-35.4	-36.4	23.0	0.00e+00	123	24	0	600834048	42	6555
2026-01-05 12:25:51.96	47.31	12.91	-35.4	-36.3	23.1	0.00e+00	120	24	0	603979776	42	6483
2026-01-05 12:25:52.97	47.48	12.96	-35.2	-36.2	23.2	0.00e+00	123	24	0	607125504	42	6370
2026-01-05 12:25:53.98	47.65	13.01	-35.0	-36.0	23.3	0.00e+00	123	24	0	610271232	42	6223
2026-01-05 12:25:54.99	47.83	13.06	-35.1	-36.1	23.2	0.00e+00	120	24	0	613416960	42	6325
2026-01-05 12:25:56.00	48.00	13.11	-35.2	-36.1	23.2	0.00e+00	122	24	0	616562688	42	6349
2026-01-05 12:25:57.02	48.18	13.16	-35.1	-36.1	23.2	0.00e+00	122	24	0	619708416	42	6300
2026-01-05 12:25:58.03	48.35	13.21	-35.2	-36.1	23.2	0.00e+00	123	24	0	622854144	42	6342
2026-01-05 12:25:59.04	48.53	13.26	-35.3	-36.3	23.1	0.00e+00	122	24	0	625999872	42	6451
2026-01-05 12:26:00.05	48.70	13.31	-35.1	-36.1	23.3	0.00e+00	123	24	0	629145600	42	6309
2026-01-05 12:26:01.06	48.88	13.36	-35.1	-36.0	23.4	0.00e+00	123	24	0	632291328	42	6262
2026-01-05 12:26:02.07	49.06	13.40	-35.0	-35.9	23.5	0.00e+00	123	24	0	635437056	42	6203
2026-01-05 12:26:03.08	49.23	13.45	-34.9	-35.8	23.6	0.00e+00	122	24	0	638582784	42	6124
2026-01-05 12:26:04.09	49.41	13.50	-34.9	-35.9	23.5	0.00e+00	123	24	0	641728512	42	6162
2026-01-05 12:26:05.10	49.59	13.55	-34.8	-35.7	23.6	0.00e+00	122	24	0	644874240	42	6063
2026-01-05 12:26:06.11	49.77	13.60	-34.8	-35.7	23.6	0.00e+00	123	24	0	648019968	42	6048
2026-01-05 12:26:07.12	49.95	13.64	-34.8	-35.8	23.6	0.00e+00	123	24	0	651165696	42	6072
2026-01-05 12:26:08.14	50.13	13.69	-34.8	-35.8	23.6	0.00e+00	123	24	0	654311424	42	6067
2026-01-05 12:26:09.14	50.31	13.74	-34.8	-35.7	23.6	0.00e+00	120	24	0	657457152	42	6054
2026-01-05 12:26:10.16	50.49	13.79	-34.9	-35.8	23.5	0.00e+00	123	24	0	660602880	42	6117
2026-01-05 12:26:11.17	50.68	13.83	-35.0	-36.0	23.4	0.00e+00	120	24	0	663748608	42	6208
2026-01-05 12:26:12.18	50.86	13.88	-35.0	-36.0	23.4	0.00e+00	122	24	0	666894336	42	6208
2026-01-05 12:26:13.19	51.04	13.93	-35.1	-36.0	23.4	0.00e+00	122	24	0	670040064	42	6268
2026-01-05 12:26:14.20	51.22	13.97	-35.1	-36.0	23.5	0.00e+00	122	24	0	673185792	42	6246
2026-01-05 12:26:15.21	51.41	14.02	-35.0	-36.0	23.4	0.00e+00	123	24	0	676331520	42	6239
2026-01-05 12:26:16.22	51.59	14.06	-34.9	-35.9	23.6	0.00e+00	122	24	0	679477248	42	6148
2026-01-05 12:26:17.23	51.78	14.11	-34.9	-35.9	23.5	0.00e+00	122	24	0	682622976	42	6137
2026-01-05 12:26:18.24	51.97	14.16	-35.0	-35.9	23.6	0.00e+00	123	24	0	685768704	42	6172
2026-01-05 12:26:19.25	52.15	14.20	-34.8	-35.7	23.7	0.00e+00	122	24	0	688914432	42	6026
2026-01-05 12:26:20.26	52.34	14.25	-34.7	-35.7	23.7	0.00e+00	123	24	0	692060160	42	6007
2026-01-05 12:26:21.27	52.53	14.29	-34.8	-35.7	23.6	0.00e+00	121	24	0	695205888	42	6041
2026-01-05 12:26:22.28	52.71	14.34	-34.9	-35.9	23.6	0.00e+00	122	24	0	698351616	42	6168
2026-01-05 12:26:23.29	52.90	14.38	-34.9	-35.8	23.5	0.00e+00	123	24	0	701497344	42	6104
2026-01-05 12:26:24.30	53.09	14.43	-34.9	-35.8	23.6	0.00e+00	123	24	0	704643072	42	6115
2026-01-05 12:26:25.31	53.28	14.47	-35.0	-36.0	23.3	0.00e+00	122	24	0	707788800	42	6209
2026-01-05 12:26:26.32	53.47	14.51	-34.8	-35.8	23.5	0.00e+00	123	24	0	710934528	42	6096
2026-01-05 12:26:27.33	53.66	14.56	-35.0	-35.9	23.4	0.00e+00	123	24	0	714080256	42	6201
2026-01-05 12:26:28.34	53.86	14.60	-34.9	-35.9	23.5	0.00e+00	123	24	0	718274560	42	6146
2026-01-05 12:26:29.35	54.05	14.65	-35.0	-36.0	23.5	0.00e+00	123	24	0	721420288	42	6206
2026-01-05 12:26:30.36	54.24	14.69	-34.8	-35.7	23.6	0.00e+00	122	24	0	723517440	42	6062
2026-01-05 12:26:31.37	54.43	14.73	-34.7	-35.6	23.8	0.00e+00	122	24	0	726663168	42	5994
2026-01-05 12:26:32.38	54.63	14.77	-34.7	-35.7	23.8	0.00e+00	122	24	0	729808896	42	6011
2026-01-05 12:26:33.39	54.82	14.82	-34.7	-35.7	23.8	0.00e+00	121	24	0	734003200	42	5999
2026-01-05 12:26:34.40	55.02	14.86	-34.6	-35.6	23.8	0.00e+00	122	24	0	737148928	42	5945
2026-01-05 12:26:35.41	55.21	14.90	-34.6	-35.5	23.8	0.00e+00	123	24	0	740294656	42	5904
2026-01-05 12:26:36.42	55.41	14.94	-34.6	-35.6	23.8	0.00e+00	123	24	0	743440384	42	5934
2026-01-05 12:26:37.43	55.60	14.99	-34.7	-35.7	23.7	0.00e+00	123	24	0	746586112	42	6008
2026-01-05 12:26:38.44	55.80	15.03	-34.6	-35.6	23.8	0.00e+00	123	24	0	749731840	42	5938
2026-01-05 12:26:39.45	56.00	15.07	-34.6	-35.6	23.7	0.00e+00	122	24	0	752877568	42	5944
2026-01-05 12:26:40.46	56.20	15.11	-34.6	-35.5	23.8	0.00e+00	123	24	0	756023296	42	5890
2026-01-05 12:26:41.47	56.39	15.15	-34.6	-35.5	23.8	0.00e+00	123	24	0	759169024	42	5909
2026-01-05 12:26:42.48	56.59	15.19	-34.6	-35.5	23.8	0.00e+00	122	24	0	762314752	42	5923
2026-01-05 12:26:43.49	56.79	15.23	-34.6	-35.5	23.9	0.00e+00	123	24	0	765460480	42	5901
2026-01-05 12:26:44.49	56.99	15.27	-34.6	-35.6	23.8	0.00e+00	123	24	0	768606208	42	5939
2026-01-05 12:26:45.50	57.19	15.31	-34.7	-35.7	23.5	0.00e+00	121	24	0	771751936	42	5995
2026-01-05 12:26:46.51	57.39	15.35	-34.8	-35.7	23.6	0.00e+00	123	24	0	774897664	42	6052
2026-01-05 12:26:47.52	57.59	15.39	-34.7	-35.7	23.9	0.00e+00	122	24	0	778043392	42	5996
2026-01-05 12:26:48.53	57.80	15.43	-34.8	-35.8	23.3	0.00e+00	122	24	0	781189120	42	6067
2026-01-05 12:26:49.54	58.00	15.46	-34.9	-35.9	23.5	0.00e+00	122	24	0	784334848	42	6160
2026-01-05 12:26:50.55	58.20	15.50	-35.2	-36.1	23.3	0.00e+00	122	24	0	787480576	42	6348
2026-01-05 12:26:51.56	58.41	15.54	-35.0	-35.9	23.5	0.00e+00	123	24	0	790626304	42	6184
2026-01-05 12:26:52.57	58.61	15.58	-34.9	-35.9	23.5	0.00e+00	123	24	0	793772032	42	6154
2026-01-05 12:26:53.58	58.81	15.62	-35.2	-36.1	23.3	0.00e+00	123	24	0	796917760	42	6347
2026-01-05 12:26:54.59	59.02	15.65	-35.5	-36.5	23.0	0.00e+00	122	24	0	800063488	42	6584
2026-01-05 12:26:55.60	59.23	15.69	-34.9	-35.8	23.6	0.00e+00	122	24	0	803209216	44	5429
2026-01-05 12:26:56.61	59.43	15.73	-34.9	-35.9	23.6	0.00e+00	120	24	0	806354944	44	5470
2026-01-05 12:26:57.62	59.64	15.76	-34.4	-35.3	24.0	0.00e+00	123	24	0	809500672	42	5752
2026-01-05 12:26:58.63	59.85	15.80	-34.2	-35.2	24.1	0.00e+00	123	24	0	812646400	42	5663
2026-01-05 12:26:59.64	60.05	15.83	-34.3	-35.2	24.1	0.00e+00	123	24	0	815792128	42	5673
2026-01-05 12:27:00.65	60.26	15.87	-34.3	-35.2	24.0	0.00e+00	123	24	0	818937856	42	5701
2026-01-05 12:27:01.66	60.47	15.90	-34.1	-35.0	24.2	0.00e+00	122	24	0	822083584	42	5559
2026-01-05 12:27:02.67	60.68	15.94	-34.1	-35.0	24.2	0.00e+00	123	24	0	825229312	42	5590
2026-01-05 12:27:03.68	60.89	15.97	-34.1	-35.0	24.2	0.00e+00	123	24	0	828375040	42	5592
2026-01-05 12:27:04.69	61.10	16.01	-34.1	-35.0	24.3	0.00e+00	123	24	0	831520768	42	5557
2026-01-05 12:27:05.70	61.31	16.04	-34.1	-35.0	24.2	0.00e+00	122	24	0	834666496	42	5542
2026-01-05 12:27:06.71	61.52	16.08	-34.1	-35.0	24.2	0.00e+00	122	24	0	837812224	42	5573
2026-01-05 12:27:07.72	61.73	16.11	-34.0	-34.8	24.3	0.00e+00	122	24	0	840957952	42	5467
2026-01-05 12:27:08.73	61.94	16.14	-34.0	-34.9	24.3	0.00e+00	123	24	0	844103680	42	5524
2026-01-05 12:27:09.74	62.16	16.17	-34.1	-35.1	24.2	0.00e+00	123	24	0	847249408	42	5595
2026-01-05 12:27:10.75	62.37	16.21	-34.3	-35.2	24.0	0.00e+00	123	24	0	850395136	42	5715
2026-01-05 12:27:11.76	62.58	16.24	-34.2	-35.1	24.1	0.00e+00	123	24	0	853540864	42	5628
2026-01-05 12:27:12.77	62.80	16.27	-34.4	-35.3	24.0	0.00e+00	122	24	0	856686592	42	5775
2026-01-05 12:27:13.78	63.01	16.30	-34.4	-35.3	23.9	0.00e+00	123	24	0	859832320	42	5762
2026-01-05 12:27:14.79	63.22	16.33	-34.4	-35.3	23.9	0.00e+00	123	24	0	862978048	42	5772
2026-01-05 12:27:15.80	63.44	16.36	-34.1	-35.0	24.2	0.00e+00	122	24	0	866123776	42	5588
2026-01-05 12:27:16.81	63.65	16.39	-33.9	-34.9	24.3	0.00e+00	122	24	0	869269504	42	5471
2026-01-05 12:27:17.81	63.87	16.42	-34.1	-35.0	24.2	0.00e+00	123	24	0	872415232	42	5550
2026-01-05 12:27:18.83	64.09	16.45	-33.9	-34.8	24.2	0.00e+00	123	24	0	875560960	42	5443
2026-01-05 12:27:19.84	64.30	16.48	-33.9	-34.8	24.2	0.00e+00	123	24	0	878706688	42	5467
2026-01-05 12:27:20.85	64.52	16.51	-34.2	-35.1	24.0	0.00e+00	122	24	0	881852416	42	5634
2026-01-05 12:27:21.86	64.74	16.54	-34.0	-35.0	24.2	0.00e+00	123	24	0	884998144	42	5537
2026-01-05 12:27:22.87	64.96	16.57	-34.0	-34.9	24.3	0.00e+00	123	24	0	888143872	42	5500
2026-01-05 12:27:23.88	65.17	16.59	-34.1	-35.0	24.2	0.00e+00	122	24	0	891289600	42	5571
2026-01-05 12:27:24.89	65.39	16.62	-34.2	-35.1	24.2	0.00e+00	120	24	0	894435328	42	5607
2026-01-05 12:27:25.90	65.61	16.65	-34.1	-35.0	24.3	0.00e+00	122	24	0	897581056	42	5553
2026-01-05 12:27:26.91	65.83	16.67	-34.0	-34.9	24.3	0.00e+00	123	24	0	900726784	42	5480
2026-01-05 12:27:27.92	66.05	16.70	-33.9	-34.8	24.4	0.00e+00	122	24	0	903872512	42	5429
2026-01-05 12:27:28.93	66.27	16.73	-33.9	-34.8	24.3	0.00e+00	123	24	0	907018240	42	5452
2026-01-05 12:27:29.94	66.49	16.75	-34.0	-34.9	24.2	0.00e+00	120	24	0	910163968	42	5526
2026-01-05 12:27:30.95	66.71	16.78	-34.0	-34.9	24.3	0.00e+00	122	24	0	913309696	42	5526
2026-01-05 12:27:31.96	66.93	16.80	-34.0	-35.0	24.1	0.00e+00	120	24	0	916455424	42	5539
2026-01-05 12:27:32.97	67.16	16.83	-34.1	-35.1	24.1	0.00e+00	123	24	0	919601152	42	5601
2026-01-05 12:27:33.98	67.38	16.85	-34.2	-35.2	24.1	0.00e+00	123	24	0	922746880	42	5664
2026-01-05 12:27:34.99	67.60	16.87	-33.9	-34.8	24.4	0.00e+00	123	24	0	925892608	42	5458
2026-01-05 12:27:36.00	67.82	16.90	-33.9	-34.8	24.4	0.00e+00	123	24	0	929038336	42	5432
2026-01-05 12:27:37.01	68.05	16.92	-33.8	-34.7	24.5	0.00e+00	122	24	0	932184064	42	5398
2026-01-05 12:27:38.02	68.27	16.94	-33.9	-34.8	24.3	0.00e+00	122	24	0	935329792	42	5445
2026-01-05 12:27:39.03	68.49	16.96	-33.9	-34.8	24.3	0.00e+00	122	24	0	938475520	42	5440
2026-01-05 12:27:40.04	68.72	16.99	-34.0	-34.9	24.2	0.00e+00	122	24	0	941621248	42	5504
2026-01-05 12:27:41.05	68.94	17.01	-34.1	-35.1	24.1	0.00e+00	123	24	0	944766976	42	5595
2026-01-05 12:27:42.06	69.17	17.03	-34.2	-35.1	24.1	0.00e+00	123	24	0	947912704	42	5636
2026-01-05 12:27:43.07	69.39	17.05	-34.2	-35.2	24.1	0.00e+00	122	24	0	951058432	42	5672
2026-01-05 12:27:44.08	69.62	17.07	-34.2	-35.1	24.2	0.00e+00	122	24	0	954204160	42	5624
2026-01-05 12:27:45.09	69.84	17.09	-34.3	-35.2	24.0	0.00e+00	122	24	0	957349888	42	5690
2026-01-05 12:27:46.10	70.07	17.11	-34.1	-35.0	24.2	0.00e+00	123	24	0	960495616	42	5588
2026-01-05 12:27:47.11	70.29	17.13	-34.3	-35.2	24.2	0.00e+00	123	24	0	963641344	42	5697
2026-01-05 12:27:48.12	70.52	17.14	-34.0	-34.9	24.2	0.00e+00	123	24	0	966787072	42	5508
2026-01-05 12:27:49.13	70.75	17.16	-34.1	-35.0	24.2	0.00e+00	123	24	0	969932800	42	5563
2026-01-05 12:27:50.14	70.97	17.18	-34.4	-35.3	24.0	0.00e+00	122	24	0	973078528	42	5758
2026-01-05 12:27:51.15	71.20	17.20	-34.3	-35.2	24.1	0.00e+00	123	24	0	976224256	42	5695
2026-01-05 12:27:52.16	71.43	17.21	-34.1	-35.0	24.3	0.00e+00	122	24	0	979369984	42	5587
2026-01-05 12:27:53.17	71.66	17.23	-34.2	-35.1	24.3	0.00e+00	122	24	0	982515712	42	5639
2026-01-05 12:27:54.18	71.88	17.25	-34.1	-35.0	24.3	0.00e+00	122	24	0	985661440	42	5584
2026-01-05 12:27:55.19	72.11	17.26	-34.0	-34.9	24.4	0.00e+00	123	24	0	988807168	42	5522
2026-01-05 12:27:56.20	72.34	17.28	-34.0	-34.9	24.3	0.00e+00	121	24	0	991952896	42	5523
2026-01-05 12:27:57.21	72.57	17.29	-34.1	-35.0	24.2	0.00e+00	123	24	0	995098624	42	5580
2026-01-05 12:27:58.22	72.80	17.31	-34.2	-35.1	24.2	0.00e+00	123	24	0	998244352	42	5623
2026-01-05 12:27:59.23	73.03	17.32	-34.4	-35.3	24.0	0.00e+00	123	24	0	1001390080	42	5777
2026-01-05 12:28:00.24	73.26	17.33	-34.4	-35.3	23.9	0.00e+00	120	24	0	1004535808	42	5783
2026-01-05 12:28:01.25	73.49	17.35	-34.4	-35.4	24.1	0.00e+00	122	24	0	1007681536	42	5800
2026-01-05 12:28:02.26	73.72	17.36	-34.3	-35.2	24.2	0.00e+00	122	24	0	1010827264	42	5704
2026-01-05 12:28:03.27	73.95	17.37	-34.0	-34.9	24.4	0.00e+00	122	24	0	1013972992	42	5503
2026-01-05 12:28:04.28	74.18	17.38	-34.0	-34.9	24.4	0.00e+00	123	24	0	1017118720	42	5527
2026-01-05 12:28:05.29	74.41	17.39	-34.0	-34.9	24.3	0.00e+00	122	24	0	1020264448	42	5473
2026-01-05 12:28:06.30	74.64	17.40	-34.0	-34.9	24.2	0.00e+00	120	24	0	1023410176	42	5476
2026-01-05 12:28:07.31	74.87	17.41	-34.2	-35.1	24.2	0.00e+00	122	24	0	1026555904	42	5605
2026-01-05 12:28:08.32	75.10	17.42	-34.1	-35.0	24.2	0.00e+00	123	24	0	1029701632	42	5573
2026-01-05 12:28:09.33	75.33	17.43	-34.2	-35.1	24.2	0.00e+00	123	24	0	1032847360	42	5616
2026-01-05 12:28:10.34	75.56	17.44	-34.1	-35.0	24.2	0.00e+00	122	24	0	1037041664	42	5549
2026-01-05 12:28:11.35	75.79	17.45	-34.5	-35.4	24.0	0.00e+00	123	24	0	1040187392	42	5812
2026-01-05 12:28:12.36	76.02	17.46	-34.1	-35.1	24.2	0.00e+00	123	24	0	1042284544	42	5595
2026-01-05 12:28:13.37	76.25	17.47	-34.3	-35.3	24.0	0.00e+00	122	24	0	1045430272	42	5731
2026-01-05 12:28:14.37	76.48	17.47	-34.3	-35.2	24.0	0.00e+00	123	24	0	1048576000	42	5719
2026-01-05 12:28:15.38	76.71	17.48	-34.1	-35.0	24.2	0.00e+00	123	24	0	1051721728	42	5573
2026-01-05 12:28:16.39	76.95	17.49	-34.3	-35.2	24.1	0.00e+00	123	24	0	1055916032	42	5722
2026-01-05 12:28:17.41	77.18	17.49	-34.0	-34.9	24.4	0.00e+00	123	24	0	1059061760	42	5482
2026-01-05 12:28:18.41	77.41	17.50	-33.9	-34.8	24.5	0.00e+00	123	24	0	1062207488	42	5426
2026-01-05 12:28:19.42	77.64	17.50	-34.0	-34.9	24.4	0.00e+00	123	24	0	1064304640	42	5476
2026-01-05 12:28:20.43	77.87	17.51	-34.0	-34.9	24.4	0.00e+00	123	24	0	1067450368	42	5488
2026-01-05 12:28:21.44	78.11	17.51	-34.0	-34.9	24.4	0.00e+00	120	24	0	1071644672	42	5515
2026-01-05 12:28:22.45	78.34	17.51	-34.0	-34.9	24.4	0.00e+00	123	24	0	1074790400	42	5504
2026-01-05 12:28:23.46	78.57	17.52	-34.2	-35.1	24.2	0.00e+00	122	24	0	1077936128	42	5630
2026-01-05 12:28:24.47	78.80	17.52	-34.3	-35.2	24.2	0.00e+00	122	24	0	1081081856	42	5685
2026-01-05 12:28:25.48	79.03	17.52	-34.3	-35.2	24.2	0.00e+00	123	24	0	1084227584	42	5670
2026-01-05 12:28:26.49	79.27	17.52	-34.0	-34.9	24.3	0.00e+00	120	24	0	1087373312	42	5521
2026-01-05 12:28:27.50	79.50	17.53	-34.1	-35.0	24.3	0.00e+00	122	24	0	1090519040	42	5534
2026-01-05 12:28:28.50	79.73	17.53	-34.1	-35.0	24.2	0.00e+00	123	24	0	1093664768	42	5571
2026-01-05 12:28:29.51	79.96	17.53	-34.2	-35.1	24.2	0.00e+00	123	24	0	1096810496	42	5616
2026-01-05 12:28:30.52	80.19	17.53	-34.1	-35.0	24.2	0.00e+00	123	24	0	1099956224	42	5554
2026-01-05 12:28:31.53	80.43	17.53	-34.2	-35.1	24.2	0.00e+00	121	24	0	1103101952	42	5610
2026-01-05 12:28:32.54	80.66	17.53	-34.2	-35.1	24.2	0.00e+00	120	24	0	1106247680	42	5632
2026-01-05 12:28:33.55	80.89	17.52	-34.3	-35.2	24.2	0.00e+00	122	24	0	1109393408	42	5668
2026-01-05 12:28:34.56	81.12	17.52	-34.4	-35.3	24.0	0.00e+00	122	24	0	1112539136	42	5748
2026-01-05 12:28:35.57	81.36	17.52	-34.1	-35.0	24.2	0.00e+00	122	24	0	1115684864	42	5562
2026-01-05 12:28:36.58	81.59	17.52	-34.2	-35.1	24.1	0.00e+00	123	24	0	1118830592	42	5620
2026-01-05 12:28:37.59	81.82	17.51	-34.1	-35.0	24.2	0.00e+00	122	24	0	1121976320	42	5585
2026-01-05 12:28:38.60	82.05	17.51	-34.2	-35.1	24.2	0.00e+00	120	24	0	1125122048	42	5643
2026-01-05 12:28:39.61	82.28	17.51	-34.2	-35.1	24.2	0.00e+00	123	24	0	1128267776	42	5638
2026-01-05 12:28:40.62	82.52	17.50	-34.3	-35.2	24.2	0.00e+00	121	24	0	1131413504	42	5707
2026-01-05 12:28:41.63	82.75	17.50	-34.2	-35.1	24.1	0.00e+00	123	24	0	1134559232	42	5615
2026-01-05 12:28:42.64	82.98	17.49	-34.3	-35.2	24.2	0.00e+00	123	24	0	1137704960	42	5667
2026-01-05 12:28:43.65	83.21	17.49	-34.0	-34.9	24.4	0.00e+00	122	24	0	1140850688	42	5468
2026-01-05 12:28:44.66	83.44	17.48	-34.1	-35.0	24.2	0.00e+00	123	24	0	1143996416	42	5559
2026-01-05 12:28:45.67	83.68	17.47	-34.1	-35.0	24.3	0.00e+00	120	24	0	1147142144	42	5574
2026-01-05 12:28:46.67	83.91	17.47	-34.3	-35.2	24.1	0.00e+00	122	24	0	1150287872	42	5681
2026-01-05 12:28:47.69	84.14	17.46	-34.4	-35.3	24.0	0.00e+00	122	24	0	1153433600	42	5782
2026-01-05 12:28:48.70	84.37	17.45	-34.4	-35.3	24.0	0.00e+00	122	24	0	1156579328	42	5757
2026-01-05 12:28:49.70	84.60	17.44	-34.4	-35.3	24.2	0.00e+00	123	24	0	1159725056	42	5751
2026-01-05 12:28:50.71	84.83	17.43	-34.1	-35.0	24.4	0.00e+00	120	24	0	1162870784	42	5536
2026-01-05 12:28:51.72	85.06	17.42	-34.2	-35.1	24.2	0.00e+00	122	24	0	1166016512	42	5612
2026-01-05 12:28:52.73	85.29	17.41	-34.1	-35.0	24.3	0.00e+00	123	24	0	1169162240	42	5578
2026-01-05 12:28:53.74	85.52	17.40	-34.3	-35.2	24.1	0.00e+00	120	24	0	1172307968	42	5681
2026-01-05 12:28:54.75	85.75	17.39	-34.3	-35.2	24.1	0.00e+00	123	24	0	1175453696	42	5725
2026-01-05 12:28:55.76	85.98	17.38	-34.7	-35.6	23.9	0.00e+00	122	24	0	1178599424	42	5969
2026-01-05 12:28:56.77	86.21	17.37	-34.6	-35.5	23.9	0.00e+00	122	24	0	1181745152	42	5887
2026-01-05 12:28:57.78	86.44	17.36	-34.5	-35.4	24.0	0.00e+00	122	24	0	1184890880	42	5814
2026-01-05 12:28:58.79	86.67	17.34	-34.3	-35.2	24.1	0.00e+00	123	24	0	1188036608	42	5721
2026-01-05 12:28:59.80	86.90	17.33	-34.2	-35.2	24.1	0.00e+00	120	24	0	1191182336	42	5670
2026-01-05 12:29:00.81	87.13	17.32	-34.3	-35.2	24.1	0.00e+00	122	24	0	1194328064	42	5701
2026-01-05 12:29:01.82	87.36	17.30	-34.0	-34.9	24.3	0.00e+00	121	24	0	1197473792	42	5493
2026-01-05 12:29:02.83	87.59	17.29	-34.0	-34.9	24.1	0.00e+00	122	24	0	1200619520	42	5515
2026-01-05 12:29:03.84	87.82	17.28	-34.1	-35.0	24.2	0.00e+00	123	24	0	1203765248	42	5551
2026-01-05 12:29:04.85	88.05	17.26	-34.0	-35.0	24.3	0.00e+00	123	24	0	1206910976	42	5538
2026-01-05 12:29:05.86	88.28	17.25	-34.1	-35.0	24.3	0.00e+00	122	24	0	1210056704	42	5570
2026-01-05 12:29:06.87	88.51	17.23	-34.0	-34.9	24.3	0.00e+00	120	24	0	1213202432	42	5476
2026-01-05 12:29:07.88	88.73	17.21	-34.0	-34.9	24.2	0.00e+00	122	24	0	1216348160	42	5518
2026-01-05 12:29:08.89	88.96	17.20	-34.0	-34.9	24.3	0.00e+00	120	24	0	1219493888	42	5484
2026-01-05 12:29:09.90	89.19	17.18	-34.0	-34.9	24.1	0.00e+00	122	24	0	1222639616	42	5503
2026-01-05 12:29:10.91	89.42	17.16	-34.4	-35.3	23.9	0.00e+00	123	24	0	1225785344	42	5770
2026-01-05 12:29:11.91	89.64	17.14	-34.4	-35.3	24.0	0.00e+00	123	24	0	1228931072	42	5735
2026-01-05 12:29:12.92	89.87	17.12	-34.3	-35.2	24.0	0.00e+00	122	24	0	1232076800	42	5683
2026-01-05 12:29:13.94	90.10	17.11	-34.3	-35.3	24.0	0.00e+00	123	24	0	1235222528	42	5732
2026-01-05 12:29:14.95	90.32	17.09	-33.8	-34.7	24.4	0.00e+00	120	24	0	1238368256	42	5402
2026-01-05 12:29:15.95	90.55	17.07	-33.9	-34.8	24.3	0.00e+00	123	24	0	1241513984	42	5436
2026-01-05 12:29:16.96	90.77	17.05	-33.9	-34.8	24.3	0.00e+00	123	24	0	1244659712	42	5419
2026-01-05 12:29:17.97	91.00	17.03	-33.9	-34.8	24.4	0.00e+00	122	24	0	1247805440	42	5444
2026-01-05 12:29:18.98	91.22	17.01	-34.0	-34.9	24.3	0.00e+00	122	24	0	1250951168	42	5504
2026-01-05 12:29:19.99	91.45	16.98	-34.0	-34.9	24.2	0.00e+00	122	24	0	1254096896	42	5494
2026-01-05 12:29:21.00	91.67	16.96	-34.1	-35.0	24.2	0.00e+00	123	24	0	1257242624	42	5560
2026-01-05 12:29:22.01	91.90	16.94	-34.1	-35.0	24.2	0.00e+00	120	24	0	1260388352	42	5574
2026-01-05 12:29:23.02	92.12	16.92	-34.2	-35.1	24.2	0.00e+00	123	24	0	1263534080	42	5620
2026-01-05 12:29:24.03	92.34	16.89	-33.9	-34.8	24.4	0.00e+00	120	24	0	1266679808	42	5437
2026-01-05 12:29:25.04	92.57	16.87	-34.0	-34.9	24.3	0.00e+00	123	24	0	1269825536	42	5526
2026-01-05 12:29:26.05	92.79	16.85	-33.9	-34.8	24.3	0.00e+00	120	24	0	1272971264	42	5421
2026-01-05 12:29:27.06	93.01	16.82	-34.2	-35.1	24.2	0.00e+00	123	24	0	1276116992	42	5619
2026-01-05 12:29:28.07	93.23	16.80	-34.1	-35.0	24.3	0.00e+00	120	24	0	1279262720	42	5567
2026-01-05 12:29:29.08	93.46	16.77	-34.0	-34.9	24.3	0.00e+00	123	24	0	1282408448	42	5492
2026-01-05 12:29:30.09	93.68	16.75	-33.9	-34.8	24.5	0.00e+00	120	24	0	1285554176	42	5436
2026-01-05 12:29:31.10	93.90	16.72	-34.0	-34.9	24.4	0.00e+00	123	24	0	1288699904	42	5520
2026-01-05 12:29:32.11	94.12	16.70	-34.0	-34.9	24.4	0.00e+00	120	24	0	1291845632	42	5510
2026-01-05 12:29:33.12	94.34	16.67	-34.0	-34.9	24.4	0.00e+00	122	24	0	1294991360	42	5501
2026-01-05 12:29:34.12	94.56	16.64	-34.2	-35.1	24.2	0.00e+00	123	24	0	1298137088	42	5634
2026-01-05 12:29:35.13	94.78	16.62	-34.2	-35.1	24.2	0.00e+00	123	24	0	1301282816	42	5601
2026-01-05 12:29:36.14	95.00	16.59	-34.1	-35.0	24.3	0.00e+00	120	24	0	1304428544	42	5581
2026-01-05 12:29:37.15	95.22	16.56	-34.3	-35.2	24.2	0.00e+00	123	24	0	1307574272	42	5671
2026-01-05 12:29:38.16	95.43	16.53	-34.3	-35.2	24.1	0.00e+00	122	24	0	1310720000	42	5682
2026-01-05 12:29:39.17	95.65	16.51	-33.9	-34.8	24.5	0.00e+00	123	24	0	1313865728	42	5452
2026-01-05 12:29:40.18	95.87	16.48	-33.9	-34.8	24.4	0.00e+00	120	24	0	1317011456	42	5439
2026-01-05 12:29:41.19	96.09	16.45	-33.8	-34.7	24.4	0.00e+00	123	24	0	1320157184	42	5388
2026-01-05 12:29:42.20	96.30	16.42	-34.1	-35.0	24.3	0.00e+00	123	24	0	1323302912	42	5565
2026-01-05 12:29:43.21	96.52	16.39	-34.2	-35.1	24.2	0.00e+00	123	24	0	1326448640	42	5636
2026-01-05 12:29:44.22	96.74	16.36	-34.4	-35.3	24.1	0.00e+00	120	24	0	1329594368	42	5789
2026-01-05 12:29:45.23	96.95	16.33	-34.5	-35.4	24.0	0.00e+00	122	24	0	1332740096	42	5804
2026-01-05 12:29:46.24	97.17	16.30	-34.4	-35.3	24.1	0.00e+00	123	24	0	1335885824	42	5782
2026-01-05 12:29:47.25	97.38	16.26	-34.3	-35.2	24.0	0.00e+00	123	24	0	1339031552	42	5710
2026-01-05 12:29:48.25	97.59	16.23	-34.1	-34.9	24.4	0.00e+00	123	24	0	1342177280	42	5530
2026-01-05 12:29:49.26	97.81	16.20	-34.1	-35.0	24.2	0.00e+00	123	24	0	1345323008	42	5590
2026-01-05 12:29:50.27	98.02	16.17	-34.0	-34.8	24.4	0.00e+00	120	24	0	1348468736	42	5464
2026-01-05 12:29:51.29	98.24	16.14	-33.9	-34.8	24.5	0.00e+00	123	24	0	1351614464	42	5408
2026-01-05 12:29:52.29	98.45	16.10	-33.9	-34.8	24.4	0.00e+00	123	24	0	1354760192	42	5412
2026-01-05 12:29:53.30	98.66	16.07	-33.6	-34.5	24.6	0.00e+00	123	24	0	1357905920	40	5902
2026-01-05 12:29:54.31	98.87	16.04	-33.7	-34.6	24.4	0.00e+00	122	24	0	1361051648	40	5967
2026-01-05 12:29:55.32	99.08	16.00	-33.8	-34.7	24.4	0.00e+00	122	24	0	1364197376	40	6004
2026-01-05 12:29:56.33	99.29	15.97	-33.9	-34.8	24.4	0.00e+00	122	24	0	1367343104	40	6066
2026-01-05 12:29:57.34	99.50	15.93	-34.0	-34.9	24.3	0.00e+00	122	24	0	1370488832	40	6166
2026-01-05 12:29:58.35	99.71	15.90	-34.1	-35.0	24.3	0.00e+00	123	24	0	1373634560	40	6237
2026-01-05 12:29:59.36	99.92	15.86	-34.0	-34.9	24.3	0.00e+00	123	24	0	1376780288	40	6162
2026-01-05 12:30:00.37	100.13	15.83	-34.0	-34.9	24.3	0.00e+00	120	24	0	1379926016	40	6171
2026-01-05 12:30:01.38	100.34	15.79	-33.9	-34.8	24.4	0.00e+00	122	24	0	1383071744	40	6087
2026-01-05 12:30:02.39	100.55	15.75	-34.2	-35.1	24.3	0.00e+00	122	24	0	1386217472	40	6299
2026-01-05 12:30:03.40	100.75	15.72	-34.0	-34.9	24.4	0.00e+00	122	24	0	1389363200	40	6191
2026-01-05 12:30:04.41	100.96	15.68	-33.9	-34.8	24.4	0.00e+00	122	24	0	1392508928	40	6101
2026-01-05 12:30:05.42	101.17	15.64	-33.8	-34.6	24.6	0.00e+00	123	24	0	1395654656	40	5994
2026-01-05 12:30:06.43	101.37	15.61	-33.9	-34.8	24.2	0.00e+00	123	24	0	1398800384	40	6122
2026-01-05 12:30:07.44	101.58	15.57	-33.9	-34.8	24.3	0.00e+00	123	24	0	1402994688	40	6066
2026-01-05 12:30:08.45	101.78	15.53	-34.0	-34.9	24.2	0.00e+00	120	24	0	1405091840	40	6144
2026-01-05 12:30:09.46	101.99	15.49	-34.1	-35.0	24.1	0.00e+00	122	24	0	1408237568	40	6231
2026-01-05 12:30:10.47	102.19	15.45	-34.2	-35.1	24.2	0.00e+00	123	24	0	1411383296	40	6292
2026-01-05 12:30:11.48	102.39	15.42	-34.3	-35.2	24.0	0.00e+00	120	24	0	1414529024	40	6395
2026-01-05 12:30:12.49	102.60	15.38	-34.2	-35.2	24.1	0.00e+00	122	24	0	1418723328	40	6356
2026-01-05 12:30:13.50	102.80	15.34	-34.4	-35.3	23.9	0.00e+00	120	24	0	1421869056	40	6474
2026-01-05 12:30:14.51	103.00	15.30	-34.4	-35.4	23.9	0.00e+00	120	24	0	1425014784	40	6499
2026-01-05 12:30:15.51	103.20	15.26	-34.5	-35.4	23.8	0.00e+00	123	24	0	1427111936	42	5829
2026-01-05 12:30:16.53	103.40	15.22	-34.4	-35.3	23.9	0.00e+00	122	24	0	1430257664	42	5762
2026-01-05 12:30:17.54	103.60	15.18	-34.2	-35.2	24.1	0.00e+00	122	24	0	1433403392	42	5677
2026-01-05 12:30:18.55	103.80	15.14	-34.2	-35.1	24.2	0.00e+00	122	24	0	1437597696	42	5653
2026-01-05 12:30:19.56	104.00	15.10	-34.1	-35.0	24.3	0.00e+00	120	24	0	1440743424	42	5565
2026-01-05 12:30:20.57	104.20	15.06	-34.1	-35.0	24.2	0.00e+00	122	24	0	1443889152	42	5543
2026-01-05 12:30:21.58	104.40	15.01	-34.2	-35.1	24.1	0.00e+00	122	24	0	1447034880	42	5619
2026-01-05 12:30:22.59	104.60	14.97	-34.3	-35.2	24.1	0.00e+00	123	24	0	1450180608	42	5671
2026-01-05 12:30:23.60	104.79	14.93	-34.4	-35.3	24.0	0.00e+00	123	24	0	1453326336	42	5743
2026-01-05 12:30:24.61	104.99	14.89	-34.5	-35.4	23.8	0.00e+00	123	24	0	1456472064	42	5835
2026-01-05 12:30:25.62	105.19	14.85	-34.7	-35.6	23.7	0.00e+00	123	24	0	1459617792	42	5968
2026-01-05 12:30:26.63	105.38	14.80	-34.8	-35.7	23.7	0.00e+00	123	24	0	1462763520	42	6024
2026-01-05 12:30:27.64	105.58	14.76	-34.8	-35.7	23.7	0.00e+00	123	24	0	1465909248	42	6031
2026-01-05 12:30:28.65	105.77	14.72	-34.7	-35.6	23.8	0.00e+00	120	24	0	1469054976	42	5988
2026-01-05 12:30:29.66	105.96	14.67	-34.9	-35.8	23.6	0.00e+00	123	24	0	1472200704	42	6095
2026-01-05 12:30:30.67	106.16	14.63	-34.9	-35.8	23.6	0.00e+00	123	24	0	1475346432	42	6117
2026-01-05 12:30:31.68	106.35	14.59	-34.9	-35.8	23.5	0.00e+00	121	24	0	1478492160	42	6125
2026-01-05 12:30:32.69	106.54	14.54	-34.8	-35.8	23.6	0.00e+00	123	24	0	1481637888	42	6083
2026-01-05 12:30:33.70	106.73	14.50	-34.5	-35.4	23.8	0.00e+00	122	24	0	1484783616	42	5824
2026-01-05 12:30:34.71	106.92	14.45	-34.5	-35.4	23.8	0.00e+00	122	24	0	1487929344	42	5856
2026-01-05 12:30:35.72	107.12	14.41	-34.4	-35.4	23.8	0.00e+00	123	24	0	1491075072	42	5800
2026-01-05 12:30:36.73	107.31	14.36	-34.4	-35.4	23.9	0.00e+00	123	24	0	1494220800	42	5799
2026-01-05 12:30:37.74	107.49	14.32	-34.6	-35.5	23.7	0.00e+00	120	24	0	1497366528	42	5912
2026-01-05 12:30:38.75	107.68	14.27	-34.5	-35.4	23.8	0.00e+00	123	24	0	1500512256	42	5849
2026-01-05 12:30:39.75	107.87	14.23	-34.6	-35.5	23.7	0.00e+00	122	24	0	1503657984	42	5911
2026-01-05 12:30:40.76	108.06	14.18	-34.7	-35.6	23.7	0.00e+00	123	24	0	1506803712	42	5964
2026-01-05 12:30:41.77	108.25	14.14	-34.7	-35.7	23.6	0.00e+00	122	24	0	1509949440	42	6008
2026-01-05 12:30:42.77	108.43	14.09	-34.8	-35.7	23.7	0.00e+00	122	24	0	1513095168	42	6043
2026-01-05 12:30:43.78	108.62	14.05	-34.6	-35.6	23.7	0.00e+00	123	24	0	1516240896	42	5945
2026-01-05 12:30:44.79	108.80	14.00	-34.7	-35.6	23.7	0.00e+00	120	24	0	1519386624	42	5966
2026-01-05 12:30:45.80	108.99	13.95	-34.8	-35.7	23.6	0.00e+00	123	24	0	1522532352	42	6022
2026-01-05 12:30:46.81	109.17	13.91	-34.7	-35.6	23.7	0.00e+00	123	24	0	1525678080	42	5957
2026-01-05 12:30:47.82	109.35	13.86	-34.8	-35.7	23.6	0.00e+00	123	24	0	1528823808	42	6036
2026-01-05 12:30:48.82	109.54	13.81	-34.7	-35.6	23.6	0.00e+00	123	24	0	1531969536	42	5983
2026-01-05 12:30:49.83	109.72	13.77	-34.5	-35.5	23.7	0.00e+00	120	24	0	1535115264	42	5868
2026-01-05 12:30:50.84	109.90	13.72	-34.5	-35.5	23.6	0.00e+00	123	24	0	1538260992	42	5862
2026-01-05 12:30:51.85	110.08	13.67	-34.5	-35.4	23.7	0.00e+00	120	24	0	1541406720	42	5841
2026-01-05 12:30:52.85	110.26	13.62	-34.4	-35.3	23.8	0.00e+00	122	24	0	1544552448	42	5752
2026-01-05 12:30:53.86	110.44	13.58	-34.5	-35.4	23.8	0.00e+00	123	24	0	1547698176	42	5841
2026-01-05 12:30:54.87	110.62	13.53	-34.6	-35.5	23.8	0.00e+00	122	24	0	1550843904	42	5884
2026-01-05 12:30:55.88	110.80	13.48	-34.6	-35.5	23.7	0.00e+00	122	24	0	1553989632	42	5921
2026-01-05 12:30:56.89	110.98	13.43	-34.6	-35.6	23.7	0.00e+00	120	24	0	1557135360	42	5934
2026-01-05 12:30:57.90	111.16	13.38	-34.6	-35.6	23.7	0.00e+00	122	24	0	1560281088	42	5942
2026-01-05 12:30:58.91	111.34	13.33	-34.8	-35.7	23.6	0.00e+00	123	24	0	1563426816	42	6024
2026-01-05 12:30:59.92	111.51	13.28	-35.0	-35.9	23.3	0.00e+00	123	24	0	1566572544	42	6205
2026-01-05 12:31:00.92	111.69	13.24	-35.1	-36.0	23.4	0.00e+00	122	24	0	1569718272	42	6251
2026-01-05 12:31:01.93	111.86	13.19	-35.0	-36.0	23.4	0.00e+00	120	24	0	1572864000	42	6230
2026-01-05 12:31:02.94	112.04	13.14	-34.8	-35.7	23.5	0.00e+00	123	24	0	1576009728	42	6060
2026-01-05 12:31:03.95	112.21	13.09	-34.8	-35.7	23.5	0.00e+00	120	24	0	1579155456	42	6045
2026-01-05 12:31:04.96	112.39	13.04	-34.8	-35.8	23.5	0.00e+00	122	24	0	1582301184	42	6076
2026-01-05 12:31:05.97	112.56	12.99	-34.7	-35.7	23.6	0.00e+00	123	24	0	1585446912	42	6003
2026-01-05 12:31:06.97	112.73	12.94	-34.8	-35.7	23.5	0.00e+00	120	24	0	1588592640	42	6018
2026-01-05 12:31:07.98	112.91	12.89	-34.6	-35.5	23.8	0.00e+00	123	24	0	1591738368	42	5926
2026-01-05 12:31:08.99	113.08	12.84	-34.5	-35.4	23.8	0.00e+00	122	24	0	1594884096	42	5847
2026-01-05 12:31:10.00	113.25	12.79	-34.5	-35.4	23.8	0.00e+00	123	24	0	1598029824	42	5841
2026-01-05 12:31:11.01	113.42	12.74	-34.7	-35.6	23.7	0.00e+00	120	24	0	1601175552	42	5954
2026-01-05 12:31:12.02	113.59	12.69	-34.7	-35.6	23.6	0.00e+00	122	24	0	1604321280	42	5980
2026-01-05 12:31:13.03	113.76	12.64	-34.7	-35.6	23.6	0.00e+00	120	24	0	1607467008	42	5985
2026-01-05 12:31:14.04	113.93	12.59	-34.9	-35.9	23.4	0.00e+00	123	24	0	1610612736	42	6184
2026-01-05 12:31:15.05	114.10	12.53	-34.9	-35.9	23.5	0.00e+00	122	24	0	1613758464	42	6149
2026-01-05 12:31:16.06	114.27	12.48	-35.0	-35.9	23.3	0.00e+00	123	24	0	1616904192	42	6202
2026-01-05 12:31:17.07	114.43	12.43	-35.5	-36.4	23.0	0.00e+00	122	24	0	1620049920	42	6551
2026-01-05 12:31:18.08	114.60	12.38	-35.7	-36.7	22.9	0.00e+00	120	24	0	1623195648	42	6739
2026-01-05 12:31:19.09	114.77	12.33	-35.1	-36.1	23.2	0.00e+00	122	24	0	1626341376	42	6294
2026-01-05 12:31:20.10	114.93	12.28	-34.9	-35.9	23.3	0.00e+00	122	24	0	1629487104	42	6169
2026-01-05 12:31:21.11	115.10	12.23	-34.7	-35.6	23.6	0.00e+00	120	24	0	1632632832	42	5959
2026-01-05 12:31:22.12	115.26	12.17	-34.7	-35.7	23.6	0.00e+00	122	24	0	1635778560	42	6020
2026-01-05 12:31:23.13	115.43	12.12	-34.7	-35.6	23.6	0.00e+00	123	24	0	1638924288	42	5985
2026-01-05 12:31:24.14	115.59	12.07	-34.6	-35.6	23.6	0.00e+00	123	24	0	1642070016	42	5959
2026-01-05 12:31:25.15	115.75	12.02	-34.7	-35.6	23.6	0.00e+00	120	24	0	1645215744	42	5959
2026-01-05 12:31:26.16	115.91	11.97	-34.6	-35.5	23.7	0.00e+00	123	24	0	1648361472	42	5915
2026-01-05 12:31:27.17	116.08	11.91	-34.5	-35.5	23.7	0.00e+00	122	24	0	1651507200	42	5879
2026-01-05 12:31:28.18	116.24	11.86	-34.7	-35.6	23.6	0.00e+00	123	24	0	1654652928	42	5966
2026-01-05 12:31:29.19	116.40	11.81	-34.8	-35.7	23.5	0.00e+00	123	24	0	1657798656	42	6054
2026-01-05 12:31:30.20	116.56	11.76	-34.9	-35.8	23.5	0.00e+00	120	24	0	1660944384	42	6131
2026-01-05 12:31:31.21	116.72	11.71	-35.1	-36.1	23.2	0.00e+00	123	24	0	1664090112	42	6288
2026-01-05 12:31:32.21	116.88	11.65	-34.9	-35.9	23.4	0.00e+00	123	24	0	1667235840	42	6158
2026-01-05 12:31:33.22	117.03	11.60	-34.9	-35.8	23.4	0.00e+00	123	24	0	1670381568	42	6119
2026-01-05 12:31:34.23	117.19	11.55	-34.9	-35.9	23.4	0.00e+00	123	24	0	1673527296	42	6139
2026-01-05 12:31:35.24	117.35	11.49	-34.9	-35.9	23.4	0.00e+00	121	24	0	1676673024	42	6158
2026-01-05 12:31:36.24	117.51	11.44	-34.8	-35.7	23.4	0.00e+00	122	24	0	1679818752	42	6056
2026-01-05 12:31:37.25	117.66	11.39	-34.9	-35.9	23.3	0.00e+00	122	24	0	1682964480	42	6153
2026-01-05 12:31:38.26	117.82	11.34	-35.0	-35.9	23.4	0.00e+00	123	24	0	1686110208	42	6201
2026-01-05 12:31:39.27	117.97	11.28	-34.7	-35.6	23.6	0.00e+00	122	24	0	1689255936	42	5985
2026-01-05 12:31:40.28	118.13	11.23	-34.9	-35.8	23.3	0.00e+00	122	24	0	1692401664	42	6129
2026-01-05 12:31:41.29	118.28	11.18	-34.8	-35.7	23.5	0.00e+00	122	24	0	1695547392	42	6051
2026-01-05 12:31:42.30	118.44	11.12	-34.8	-35.7	23.5	0.00e+00	122	24	0	1698693120	42	6028
2026-01-05 12:31:43.31	118.59	11.07	-34.7	-35.7	23.6	0.00e+00	122	24	0	1701838848	42	6017
2026-01-05 12:31:44.32	118.74	11.02	-34.7	-35.6	23.6	0.00e+00	122	24	0	1704984576	42	5961
2026-01-05 12:31:45.33	118.89	10.96	-34.7	-35.7	23.5	0.00e+00	123	24	0	1708130304	42	6004
2026-01-05 12:31:46.34	119.05	10.91	-34.8	-35.8	23.4	0.00e+00	123	24	0	1711276032	42	6088
2026-01-05 12:31:47.35	119.20	10.86	-34.7	-35.7	23.5	0.00e+00	123	24	0	1714421760	42	5996
2026-01-05 12:31:48.36	119.35	10.80	-34.9	-35.9	23.4	0.00e+00	123	24	0	1717567488	42	6175
2026-01-05 12:31:49.37	119.50	10.75	-35.0	-35.9	23.3	0.00e+00	123	24	0	1720713216	42	6193
2026-01-05 12:31:50.38	119.65	10.69	-35.1	-36.0	23.3	0.00e+00	122	24	0	1723858944	42	6272
2026-01-05 12:31:51.39	119.80	10.64	-35.0	-35.9	23.4	0.00e+00	122	24	0	1727004672	42	6196
2026-01-05 12:31:52.40	119.94	10.59	-35.0	-35.9	23.4	0.00e+00	120	24	0	1730150400	42	6205
2026-01-05 12:31:53.41	120.09	10.53	-35.0	-35.9	23.3	0.00e+00	122	24	0	1733296128	42	6199
2026-01-05 12:31:54.42	120.24	10.48	-35.2	-36.1	23.2	0.00e+00	120	24	0	1736441856	42	6341
2026-01-05 12:31:55.43	120.39	10.42	-34.9	-35.8	23.4	0.00e+00	122	24	0	1739587584	42	6125
2026-01-05 12:31:56.44	120.53	10.37	-34.9	-35.9	23.4	0.00e+00	122	24	0	1742733312	42	6136
2026-01-05 12:31:57.45	120.68	10.32	-35.0	-36.0	23.3	0.00e+00	123	24	0	1745879040	42	6232
2026-01-05 12:31:58.46	120.82	10.26	-35.2	-36.2	23.1	0.00e+00	123	24	0	1749024768	42	6368
2026-01-05 12:31:59.46	120.97	10.21	-35.1	-36.1	23.1	0.00e+00	123	24	0	1752170496	42	6310
2026-01-05 12:32:00.47	121.11	10.15	-35.2	-36.2	23.1	0.00e+00	120	24	0	1755316224	42	6365
2026-01-05 12:32:01.48	121.25	10.10	-35.4	-36.3	23.0	0.00e+00	123	24	0	1758461952	42	6475
2026-01-05 12:32:02.49	121.40	10.04	-35.3	-36.2	23.1	0.00e+00	120	24	0	1761607680	42	6407
2026-01-05 12:32:03.50	121.54	9.99	-35.3	-36.3	23.0	0.00e+00	122	24	0	1764753408	42	6449
2026-01-05 12:32:04.51	121.68	9.94	-35.4	-36.3	22.9	0.00e+00	120	24	0	1767899136	42	6483
2026-01-05 12:32:05.52	121.82	9.88	-35.5	-36.5	22.8	0.00e+00	123	24	0	1771044864	42	6588
2026-01-05 12:32:06.53	121.96	9.83	-35.4	-36.4	22.8	0.00e+00	123	24	0	1774190592	42	6533
2026-01-05 12:32:07.54	122.10	9.77	-35.7	-36.8	22.6	0.00e+00	123	24	0	1777336320	42	6807
2026-01-05 12:32:08.55	122.25	9.72	-35.6	-36.6	22.7	0.00e+00	122	24	0	1780482048	42	6685
2026-01-05 12:32:09.56	122.38	9.66	-35.6	-36.6	22.7	0.00e+00	120	24	0	1783627776	42	6687
2026-01-05 12:32:10.57	122.52	9.61	-35.6	-36.6	22.7	0.00e+00	123	24	0	1786773504	42	6653
2026-01-05 12:32:11.57	122.66	9.55	-35.8	-36.8	22.4	0.00e+00	121	24	0	1789919232	42	6843
2026-01-05 12:32:12.58	122.80	9.50	-36.3	-37.3	22.1	0.00e+00	122	24	0	1793064960	44	6459
2026-01-05 12:32:13.59	122.94	9.44	-35.9	-36.9	22.4	0.00e+00	121	24	0	1796210688	44	6180
2026-01-05 12:32:14.60	123.07	9.39	-36.0	-37.0	22.2	0.00e+00	122	24	0	1799356416	44	6255
2026-01-05 12:32:15.61	123.21	9.33	-35.8	-36.8	22.4	0.00e+00	123	24	0	1802502144	44	6112
2026-01-05 12:32:16.62	123.35	9.28	-35.9	-36.9	22.3	0.00e+00	122	24	0	1805647872	44	6170
2026-01-05 12:32:17.63	123.48	9.23	-36.0	-37.0	22.3	0.00e+00	120	24	0	1808793600	44	6268
2026-01-05 12:32:18.64	123.62	9.17	-36.2	-37.3	22.1	0.00e+00	122	24	0	1812987904	44	6436
2026-01-05 12:32:19.65	123.75	9.12	-36.2	-37.3	22.2	0.00e+00	120	24	0	1815085056	44	6426
2026-01-05 12:32:20.66	123.89	9.06	-36.0	-37.0	22.4	0.00e+00	122	24	0	1818230784	44	6267
2026-01-05 12:32:21.67	124.02	9.01	-36.0	-37.1	22.3	0.00e+00	123	24	0	1821376512	44	6282
2026-01-05 12:32:22.67	124.15	8.95	-35.6	-36.6	22.7	0.00e+00	123	24	0	1824522240	44	5968
2026-01-05 12:32:23.68	124.28	8.90	-35.6	-36.6	22.6	0.00e+00	122	24	0	1827667968	44	5968
2026-01-05 12:32:24.69	124.42	8.84	-35.8	-36.8	22.4	0.00e+00	122	24	0	1831862272	44	6091
2026-01-05 12:32:25.70	124.55	8.79	-35.6	-36.6	22.6	0.00e+00	123	24	0	1835008000	44	5979
2026-01-05 12:32:26.71	124.68	8.73	-35.6	-36.6	22.5	0.00e+00	123	24	0	1837105152	44	5964
2026-01-05 12:32:27.72	124.81	8.68	-35.9	-36.9	22.3	0.00e+00	122	24	0	1840250880	44	6172
2026-01-05 12:32:28.73	124.94	8.62	-35.9	-36.9	22.4	0.00e+00	122	24	0	1843396608	44	6174
2026-01-05 12:32:29.73	125.07	8.57	-35.9	-36.9	22.3	0.00e+00	120	24	0	1846542336	44	6166
2026-01-05 12:32:30.74	125.20	8.51	-35.9	-36.9	22.3	0.00e+00	122	24	0	1850736640	44	6203
2026-01-05 12:32:31.75	125.33	8.46	-36.0	-37.1	22.1	0.00e+00	120	24	0	1853882368	44	6285
2026-01-05 12:32:32.76	125.46	8.40	-35.9	-37.0	22.2	0.00e+00	123	24	0	1857028096	44	6206
2026-01-05 12:32:33.77	125.58	8.35	-36.0	-37.0	22.2	0.00e+00	122	24	0	1860173824	44	6234
2026-01-05 12:32:34.78	125.71	8.29	-36.0	-37.0	22.1	0.00e+00	123	24	0	1862270976	44	6242
2026-01-05 12:32:35.79	125.84	8.24	-35.9	-36.9	22.3	0.00e+00	122	24	0	1866465280	44	6201
2026-01-05 12:32:36.80	125.97	8.18	-36.2	-37.3	21.9	0.00e+00	123	24	0	1869611008	44	6460
2026-01-05 12:32:37.81	126.09	8.13	-36.1	-37.2	22.1	0.00e+00	123	24	0	1872756736	44	6377
2026-01-05 12:32:38.82	126.22	8.07	-36.0	-37.0	22.3	0.00e+00	123	24	0	1875902464	44	6239
2026-01-05 12:32:39.82	126.34	8.02	-36.2	-37.2	22.1	0.00e+00	122	24	0	1879048192	44	6401
2026-01-05 12:32:40.84	126.47	7.96	-36.0	-37.0	22.3	0.00e+00	123	24	0	1882193920	44	6247
2026-01-05 12:32:41.85	126.59	7.91	-36.1	-37.1	22.2	0.00e+00	123	24	0	1885339648	44	6332
2026-01-05 12:32:42.86	126.72	7.85	-35.8	-36.8	22.4	0.00e+00	122	24	0	1888485376	44	6126
2026-01-05 12:32:43.87	126.84	7.80	-36.0	-37.0	22.2	0.00e+00	122	24	0	1891631104	44	6230
2026-01-05 12:32:44.87	126.96	7.74	-36.0	-37.1	22.2	0.00e+00	123	24	0	1894776832	44	6281
2026-01-05 12:32:45.88	127.08	7.69	-36.0	-37.0	22.2	0.00e+00	120	24	0	1897922560	44	6225
2026-01-05 12:32:46.89	127.21	7.63	-36.0	-37.0	22.2	0.00e+00	123	24	0	1901068288	44	6242
2026-01-05 12:32:47.90	127.33	7.58	-36.2	-37.2	21.9	0.00e+00	123	24	0	1904214016	44	6408
2026-01-05 12:32:48.91	127.45	7.52	-36.3	-37.3	21.9	0.00e+00	122	24	0	1907359744	44	6463
2026-01-05 12:32:49.92	127.57	7.47	-36.4	-37.4	21.8	0.00e+00	122	24	0	1910505472	44	6533
2026-01-05 12:32:50.93	127.69	7.41	-36.1	-37.2	22.0	0.00e+00	120	24	0	1913651200	44	6364
2026-01-05 12:32:51.95	127.81	7.36	-36.1	-37.2	22.0	0.00e+00	122	24	0	1916796928	44	6368
2026-01-05 12:32:52.95	127.93	7.30	-36.2	-37.3	21.9	0.00e+00	122	24	0	1919942656	44	6424
2026-01-05 12:32:53.96	128.05	7.25	-36.3	-37.4	21.9	0.00e+00	120	24	0	1923088384	44	6520
2026-01-05 12:32:54.98	128.17	7.19	-36.2	-37.2	22.0	0.00e+00	123	24	0	1926234112	44	6423
2026-01-05 12:32:55.99	128.29	7.14	-36.3	-37.3	21.8	0.00e+00	122	24	0	1929379840	44	6491
2026-01-05 12:32:56.99	128.40	7.09	-36.3	-37.3	21.9	0.00e+00	123	24	0	1932525568	44	6478
2026-01-05 12:32:58.00	128.52	7.03	-36.5	-37.6	21.7	0.00e+00	122	24	0	1935671296	44	6662
2026-01-05 12:32:59.02	128.64	6.98	-36.5	-37.5	21.7	0.00e+00	123	24	0	1938817024	44	6626
2026-01-05 12:33:00.03	128.75	6.92	-36.5	-37.5	21.8	0.00e+00	123	24	0	1941962752	44	6641
2026-01-05 12:33:01.03	128.87	6.87	-36.3	-37.3	21.9	0.00e+00	122	24	0	1945108480	44	6488
2026-01-05 12:33:02.04	128.99	6.81	-36.2	-37.3	21.9	0.00e+00	123	24	0	1948254208	44	6425
2026-01-05 12:33:03.05	129.10	6.76	-36.7	-37.8	21.6	0.00e+00	123	24	0	1951399936	44	6805
2026-01-05 12:33:04.06	129.22	6.70	-36.2	-37.3	22.0	0.00e+00	120	24	0	1954545664	44	6438
2026-01-05 12:33:05.07	129.33	6.65	-36.2	-37.3	21.8	0.00e+00	123	24	0	1957691392	44	6436
2026-01-05 12:33:06.08	129.44	6.59	-36.4	-37.5	21.7	0.00e+00	122	24	0	1960837120	44	6620
2026-01-05 12:33:07.09	129.56	6.54	-36.6	-37.7	21.6	0.00e+00	123	24	0	1963982848	44	6731
2026-01-05 12:33:08.10	129.67	6.48	-36.7	-37.7	21.5	0.00e+00	122	24	0	1967128576	46	6063
