passes_logs/2026/01/02/R2M6_AANII_01/R2M6_AANII_01__20260102_133047_AQUA_rec.log

#Pass ID: 20260102_133047_AQUA
#Satellite: AQUA
#Configuration: AQUA
#almurnet v.1.7.20240730
#Start time: 2026-01-02 13:30:47

#Version: 2.2.20231116
#Station: R2M6_AANII_01
#Location: 30.233357 lon 59.946436 lat
#TLE: 1 27424U 02022A   25365.92641127  .00002078  00000+0  42628-3 0  9999
#TLE: 2 27424  98.4058 327.1196 0001962  94.7781 340.6230 14.61783896258835

#Time	Az	El	Level	Level2	SNR	BER	BlckErr	Temp	State	Recorded	gain1	gain2
2026-01-02 13:30:47.62	212.70	7.03	-30.4	-35.5	5.2	7.11e-01	0	41	0	0	22	6478
2026-01-02 13:30:48.61	212.81	7.09	-31.0	-37.2	5.1	7.07e-01	0	41	104	0	23	7411
2026-01-02 13:30:49.61	212.92	7.16	-30.9	-36.3	14.4	6.07e-01	0	41	0	0	23	6701
2026-01-02 13:30:50.62	213.03	7.23	-30.9	-36.2	14.5	6.08e-01	0	41	0	1572864	23	6614
2026-01-02 13:30:51.63	213.14	7.30	-30.8	-35.8	14.8	6.07e-01	0	41	0	3670016	23	6393
2026-01-02 13:30:52.63	213.25	7.36	-30.7	-35.3	15.2	6.06e-01	0	41	0	5242880	23	6119
2026-01-02 13:30:53.63	213.36	7.43	-30.5	-34.6	15.7	6.08e-01	0	41	0	7340032	23	5757
2026-01-02 13:30:54.64	213.48	7.50	-30.6	-34.7	15.8	6.07e-01	0	41	0	9437184	23	5774
2026-01-02 13:30:55.64	213.59	7.57	-30.6	-34.8	15.6	6.06e-01	0	41	0	11010048	23	5840
2026-01-02 13:30:56.64	213.70	7.63	-30.4	-34.0	16.3	6.06e-01	0	41	0	13107200	23	5462
2026-01-02 13:30:57.64	213.81	7.70	-30.2	-33.9	16.7	6.09e-01	0	41	0	14680064	22	5496
2026-01-02 13:30:58.64	213.93	7.77	-30.0	-33.4	17.1	6.06e-01	0	41	0	16777216	22	5281
2026-01-02 13:30:59.64	214.04	7.84	-30.0	-33.2	17.2	6.05e-01	0	41	0	18350080	22	5236
2026-01-02 13:31:00.64	214.16	7.91	-29.9	-33.4	17.4	6.06e-01	0	41	0	20447232	21	5421
2026-01-02 13:31:01.64	214.27	7.97	-29.8	-33.1	17.6	6.06e-01	0	41	0	22544384	21	5304
2026-01-02 13:31:02.64	214.39	8.04	-29.8	-33.3	17.4	6.03e-01	0	41	0	24117248	21	5385
2026-01-02 13:31:03.64	214.51	8.11	-30.0	-33.7	17.2	6.07e-01	0	41	0	26214400	21	5534
2026-01-02 13:31:04.65	214.62	8.18	-29.9	-33.5	17.3	6.05e-01	0	41	0	27787264	21	5458
2026-01-02 13:31:05.65	214.74	8.25	-30.0	-34.0	17.1	6.06e-01	0	41	0	29884416	21	5654
2026-01-02 13:31:06.65	214.86	8.32	-29.9	-33.5	17.3	6.08e-01	0	41	0	31457280	21	5471
2026-01-02 13:31:07.66	214.98	8.39	-29.8	-33.2	17.5	6.05e-01	0	41	0	33554432	21	5327
2026-01-02 13:31:08.67	215.10	8.46	-29.7	-32.9	17.8	6.06e-01	0	41	0	35651584	21	5217
2026-01-02 13:31:09.67	215.22	8.53	-29.7	-32.9	17.8	6.06e-01	0	41	0	37224448	21	5195
2026-01-02 13:31:10.67	215.34	8.60	-29.7	-32.8	17.9	6.06e-01	0	41	0	39321600	21	5145
2026-01-02 13:31:11.68	215.46	8.67	-29.7	-32.9	17.9	6.06e-01	0	41	0	41418752	21	5178
2026-01-02 13:31:12.68	215.59	8.74	-29.7	-33.0	17.8	6.07e-01	0	42	0	42991616	21	5207
2026-01-02 13:31:13.69	215.71	8.81	-29.8	-33.0	17.7	6.08e-01	0	41	0	45088768	21	5240
2026-01-02 13:31:14.69	215.83	8.88	-29.9	-33.3	17.5	6.06e-01	0	41	0	46661632	21	5363
2026-01-02 13:31:15.70	215.96	8.95	-29.8	-33.2	17.6	6.06e-01	0	41	0	48758784	21	5305
2026-01-02 13:31:16.70	216.08	9.02	-29.8	-33.0	17.7	6.04e-01	0	42	0	50331648	21	5228
2026-01-02 13:31:17.70	216.21	9.09	-29.7	-32.9	17.8	6.07e-01	0	42	0	52428800	21	5202
2026-01-02 13:31:18.70	216.33	9.16	-29.8	-33.1	17.8	6.05e-01	0	42	0	54525952	21	5258
2026-01-02 13:31:19.70	216.46	9.23	-29.9	-33.5	17.5	6.05e-01	0	42	0	56098816	21	5418
2026-01-02 13:31:20.70	216.59	9.30	-29.8	-33.2	17.7	6.06e-01	0	42	0	58195968	21	5291
2026-01-02 13:31:21.71	216.72	9.37	-29.7	-32.8	17.9	6.08e-01	0	42	0	59768832	21	5128
2026-01-02 13:31:22.71	216.85	9.44	-29.7	-32.8	18.0	6.09e-01	0	42	0	61865984	21	5124
2026-01-02 13:31:23.71	216.97	9.51	-29.7	-32.9	17.9	6.08e-01	0	42	0	63438848	21	5173
2026-01-02 13:31:24.72	217.11	9.58	-29.8	-33.1	17.8	6.06e-01	0	42	0	65536000	21	5251
2026-01-02 13:31:25.72	217.24	9.65	-29.7	-32.9	17.9	6.07e-01	0	42	0	67633152	21	5172
2026-01-02 13:31:26.73	217.37	9.72	-29.7	-32.8	17.9	6.06e-01	0	42	0	69206016	21	5134
2026-01-02 13:31:27.74	217.50	9.79	-29.9	-33.2	17.8	6.06e-01	0	42	0	71303168	21	5285
2026-01-02 13:31:28.74	217.63	9.87	-29.8	-33.0	17.8	6.06e-01	0	42	0	73400320	21	5231
2026-01-02 13:31:29.75	217.77	9.94	-29.7	-32.6	18.1	6.07e-01	0	42	0	74973184	21	5069
2026-01-02 13:31:30.75	217.90	10.01	-29.6	-32.3	18.3	6.07e-01	0	42	0	77070336	21	4956
2026-01-02 13:31:31.75	218.04	10.08	-29.6	-32.4	18.3	6.07e-01	0	42	0	78643200	21	4986
2026-01-02 13:31:32.75	218.17	10.15	-29.5	-32.2	18.4	6.06e-01	0	42	0	80740352	21	4918
2026-01-02 13:31:33.75	218.31	10.22	-29.5	-32.3	18.4	6.06e-01	0	42	0	82313216	21	4928
2026-01-02 13:31:34.76	218.44	10.30	-29.6	-32.4	18.3	6.04e-01	0	42	0	84410368	21	4975
2026-01-02 13:31:35.76	218.58	10.37	-29.5	-32.3	18.4	6.09e-01	0	42	0	86507520	21	4934
2026-01-02 13:31:36.76	218.72	10.44	-29.5	-32.1	18.5	6.05e-01	0	42	0	88080384	21	4863
2026-01-02 13:31:37.77	218.86	10.51	-29.5	-32.2	18.5	6.07e-01	0	42	0	90177536	21	4912
2026-01-02 13:31:38.77	219.00	10.58	-29.6	-32.5	18.3	6.07e-01	0	42	0	91750400	21	5017
2026-01-02 13:31:39.78	219.14	10.66	-29.5	-32.3	18.5	6.09e-01	0	42	0	93847552	21	4929
2026-01-02 13:31:40.78	219.28	10.73	-29.6	-32.5	18.4	6.07e-01	0	42	0	95944704	21	5006
2026-01-02 13:31:41.79	219.42	10.80	-29.5	-32.1	18.5	6.06e-01	0	42	0	97517568	21	4868
2026-01-02 13:31:42.78	219.56	10.88	-29.5	-32.1	18.6	6.07e-01	0	42	0	99614720	21	4849
2026-01-02 13:31:43.79	219.71	10.95	-29.5	-32.2	18.5	6.08e-01	0	42	0	101187584	21	4906
2026-01-02 13:31:44.79	219.85	11.02	-29.4	-32.4	18.7	6.08e-01	0	42	0	103284736	20	5062
2026-01-02 13:31:45.80	220.00	11.09	-29.5	-32.6	18.6	6.05e-01	0	42	0	104857600	20	5160
2026-01-02 13:31:46.80	220.14	11.17	-29.6	-32.8	18.4	6.06e-01	0	42	0	106954752	20	5234
2026-01-02 13:31:47.81	220.29	11.24	-29.6	-32.7	18.5	6.09e-01	0	42	0	109051904	20	5198
2026-01-02 13:31:48.80	220.44	11.31	-29.5	-32.7	18.5	6.07e-01	0	42	0	110624768	20	5172
2026-01-02 13:31:49.80	220.58	11.39	-29.5	-32.6	18.6	6.07e-01	0	42	0	112721920	20	5130
2026-01-02 13:31:50.80	220.73	11.46	-29.5	-32.6	18.6	6.07e-01	0	42	0	114294784	20	5152
2026-01-02 13:31:51.80	220.88	11.53	-29.6	-32.9	18.4	6.06e-01	0	42	0	116391936	20	5264
2026-01-02 13:31:52.80	221.03	11.61	-29.6	-32.9	18.4	6.05e-01	0	42	0	118489088	20	5242
2026-01-02 13:31:53.80	221.18	11.68	-29.6	-32.9	18.4	6.06e-01	0	42	0	120061952	20	5267
2026-01-02 13:31:54.80	221.33	11.75	-29.7	-33.2	18.2	6.06e-01	0	42	0	122159104	20	5394
2026-01-02 13:31:55.81	221.49	11.83	-29.6	-32.9	18.4	6.07e-01	0	43	0	123731968	20	5269
2026-01-02 13:31:56.81	221.64	11.90	-29.7	-33.1	18.3	6.06e-01	0	42	0	125829120	20	5332
2026-01-02 13:31:57.82	221.80	11.98	-29.5	-32.7	18.5	6.05e-01	0	42	0	127401984	20	5185
2026-01-02 13:31:58.82	221.95	12.05	-29.7	-33.3	18.2	6.07e-01	0	42	0	129499136	20	5402
2026-01-02 13:31:59.82	222.11	12.12	-29.7	-33.0	18.3	6.06e-01	0	42	0	131596288	20	5307
2026-01-02 13:32:00.83	222.26	12.20	-29.5	-32.6	18.6	6.05e-01	0	42	0	133169152	20	5146
2026-01-02 13:32:01.83	222.42	12.27	-29.3	-32.0	19.0	6.08e-01	0	42	0	135266304	20	4921
2026-01-02 13:32:02.83	222.58	12.35	-29.3	-31.9	19.0	6.08e-01	0	42	0	136839168	20	4898
2026-01-02 13:32:03.84	222.74	12.42	-29.4	-32.2	18.9	6.06e-01	0	42	0	138936320	20	4985
2026-01-02 13:32:04.84	222.90	12.50	-29.3	-32.1	19.0	6.07e-01	0	42	0	141033472	20	4955
2026-01-02 13:32:05.84	223.06	12.57	-29.4	-32.3	18.9	6.07e-01	0	42	0	142606336	20	5031
2026-01-02 13:32:06.84	223.22	12.64	-29.4	-32.2	18.9	6.07e-01	0	42	0	144703488	20	4972
2026-01-02 13:32:07.84	223.38	12.72	-29.3	-32.0	19.1	6.05e-01	0	42	0	146276352	20	4902
2026-01-02 13:32:08.84	223.55	12.79	-29.3	-32.1	19.0	6.06e-01	0	42	0	148373504	20	4961
2026-01-02 13:32:09.84	223.71	12.87	-29.6	-32.8	18.6	6.05e-01	0	42	0	149946368	20	5199
2026-01-02 13:32:10.85	223.88	12.94	-29.4	-32.4	18.8	6.08e-01	0	42	0	152043520	20	5046
2026-01-02 13:32:11.85	224.04	13.02	-29.4	-32.4	18.9	6.08e-01	0	42	0	154140672	20	5046
2026-01-02 13:32:12.86	224.21	13.09	-29.5	-32.6	18.7	6.06e-01	0	42	0	155713536	20	5125
2026-01-02 13:32:13.86	224.38	13.17	-29.4	-32.3	18.8	6.07e-01	0	42	0	157810688	20	5039
2026-01-02 13:32:14.86	224.54	13.24	-29.4	-32.3	18.9	6.07e-01	0	42	0	159383552	20	5016
2026-01-02 13:32:15.86	224.71	13.32	-29.3	-32.1	19.0	6.07e-01	0	42	0	161480704	20	4951
2026-01-02 13:32:16.87	224.89	13.39	-29.5	-32.4	18.8	6.07e-01	0	43	0	163577856	20	5077
2026-01-02 13:32:17.87	225.06	13.47	-29.4	-32.4	18.9	6.07e-01	0	43	0	165150720	20	5049
2026-01-02 13:32:18.87	225.23	13.54	-29.5	-32.6	18.7	6.05e-01	0	43	0	167247872	20	5150
2026-01-02 13:32:19.87	225.40	13.62	-29.5	-32.4	18.8	6.05e-01	0	42	0	168820736	20	5066
2026-01-02 13:32:20.87	225.57	13.69	-29.2	-31.8	19.2	6.07e-01	0	42	0	170917888	20	4846
2026-01-02 13:32:21.87	225.75	13.77	-29.2	-31.7	19.3	6.06e-01	0	42	0	172490752	20	4799
2026-01-02 13:32:22.87	225.92	13.84	-29.2	-31.8	19.2	6.09e-01	0	43	0	174587904	20	4854
2026-01-02 13:32:23.87	226.10	13.92	-29.4	-32.2	19.0	6.06e-01	0	42	0	176685056	20	4988
2026-01-02 13:32:24.87	226.28	13.99	-29.4	-32.4	18.9	6.05e-01	0	43	0	178257920	20	5040
2026-01-02 13:32:25.88	226.46	14.07	-29.4	-32.3	18.9	6.06e-01	0	43	0	180355072	20	5009
2026-01-02 13:32:26.88	226.64	14.14	-29.3	-32.1	19.1	6.06e-01	0	42	0	181927936	20	4932
2026-01-02 13:32:27.89	226.82	14.22	-29.3	-31.9	19.2	6.05e-01	0	43	0	184025088	20	4874
2026-01-02 13:32:28.88	227.00	14.29	-29.2	-31.7	19.3	6.07e-01	0	43	0	186122240	20	4794
2026-01-02 13:32:29.89	227.18	14.37	-29.3	-32.0	19.1	6.06e-01	0	43	0	187695104	20	4919
2026-01-02 13:32:30.90	227.37	14.45	-29.3	-32.0	19.1	6.06e-01	0	43	0	189792256	20	4916
2026-01-02 13:32:31.91	227.55	14.52	-29.4	-32.3	19.0	6.08e-01	0	43	0	191365120	20	5009
2026-01-02 13:32:32.91	227.74	14.60	-29.3	-32.0	19.1	6.05e-01	0	43	0	193462272	20	4905
2026-01-02 13:32:33.92	227.93	14.67	-29.2	-31.7	19.3	6.07e-01	0	43	0	195559424	20	4803
2026-01-02 13:32:34.92	228.11	14.75	-29.1	-31.4	19.5	6.07e-01	0	43	0	197132288	20	4688
2026-01-02 13:32:35.92	228.30	14.82	-29.1	-31.5	19.5	6.04e-01	0	43	0	199229440	20	4741
2026-01-02 13:32:36.93	228.49	14.90	-29.1	-31.3	19.6	6.07e-01	0	43	0	200802304	20	4674
2026-01-02 13:32:37.93	228.68	14.97	-29.0	-31.2	19.7	6.08e-01	0	43	0	202899456	20	4621
2026-01-02 13:32:38.93	228.87	15.05	-29.1	-31.5	19.5	6.06e-01	0	43	0	204996608	20	4713
2026-01-02 13:32:39.93	229.06	15.12	-29.1	-31.3	19.6	6.06e-01	0	43	0	206569472	20	4657
2026-01-02 13:32:40.93	229.26	15.20	-29.2	-31.6	19.5	6.08e-01	0	43	0	208666624	20	4749
2026-01-02 13:32:41.93	229.45	15.27	-29.1	-31.3	19.6	6.06e-01	0	43	0	210239488	20	4661
2026-01-02 13:32:42.93	229.65	15.35	-29.1	-31.4	19.6	6.07e-01	0	43	0	212336640	20	4697
2026-01-02 13:32:43.94	229.84	15.42	-29.1	-31.3	19.6	6.05e-01	0	43	0	213909504	20	4654
2026-01-02 13:32:44.95	230.04	15.50	-29.1	-31.4	19.6	6.07e-01	0	43	0	216006656	20	4696
2026-01-02 13:32:45.95	230.24	15.57	-29.1	-31.3	19.6	6.07e-01	0	43	0	218103808	20	4673
2026-01-02 13:32:46.95	230.44	15.65	-29.1	-31.4	19.6	6.07e-01	0	43	0	219676672	20	4702
2026-01-02 13:32:47.96	230.64	15.72	-29.0	-31.2	19.7	6.07e-01	0	43	0	221773824	20	4621
2026-01-02 13:32:48.97	230.85	15.80	-29.0	-31.2	19.7	6.05e-01	0	43	0	223346688	20	4639
2026-01-02 13:32:49.97	231.05	15.87	-29.2	-31.7	19.4	6.08e-01	0	43	0	225443840	20	4775
2026-01-02 13:32:50.98	231.25	15.95	-29.3	-31.8	19.4	6.07e-01	0	43	0	227540992	20	4823
2026-01-02 13:32:51.98	231.46	16.02	-29.3	-31.8	19.4	6.07e-01	0	42	0	229113856	20	4822
2026-01-02 13:32:52.98	231.66	16.10	-29.3	-31.8	19.4	6.09e-01	0	43	0	231211008	20	4814
2026-01-02 13:32:53.99	231.87	16.17	-29.4	-32.2	19.1	6.04e-01	0	43	0	232783872	20	4962
2026-01-02 13:32:54.99	232.08	16.25	-29.3	-32.0	19.3	6.06e-01	0	43	0	234881024	20	4874
2026-01-02 13:32:55.99	232.29	16.32	-29.3	-31.9	19.3	6.08e-01	0	43	0	236978176	20	4864
2026-01-02 13:32:56.99	232.50	16.39	-29.3	-31.9	19.4	6.09e-01	0	43	0	238551040	20	4849
2026-01-02 13:32:57.99	232.71	16.47	-29.4	-32.0	19.3	6.05e-01	0	43	0	240648192	20	4895
2026-01-02 13:32:58.99	232.92	16.54	-29.1	-31.4	19.7	6.06e-01	0	43	0	242221056	20	4686
2026-01-02 13:33:00.00	233.13	16.61	-29.0	-31.1	19.8	6.05e-01	0	43	0	244318208	20	4588
2026-01-02 13:33:01.00	233.35	16.69	-29.2	-31.6	19.6	6.07e-01	0	43	0	245891072	20	4748
2026-01-02 13:33:02.00	233.56	16.76	-29.3	-31.8	19.5	6.05e-01	0	43	0	247988224	20	4810
2026-01-02 13:33:03.01	233.78	16.84	-29.2	-31.6	19.6	6.07e-01	0	43	0	250085376	20	4760
2026-01-02 13:33:04.02	234.00	16.91	-29.3	-31.7	19.5	6.07e-01	0	43	0	251658240	20	4782
2026-01-02 13:33:05.02	234.22	16.98	-29.2	-31.5	19.6	6.06e-01	0	43	0	253755392	20	4723
2026-01-02 13:33:06.02	234.44	17.05	-29.2	-31.5	19.6	6.07e-01	0	43	0	255328256	20	4722
2026-01-02 13:33:07.02	234.66	17.13	-29.1	-31.3	19.7	6.06e-01	0	43	0	257425408	20	4652
2026-01-02 13:33:08.03	234.88	17.20	-29.1	-31.4	19.8	6.04e-01	0	43	0	259522560	20	4661
2026-01-02 13:33:09.03	235.10	17.27	-29.1	-31.4	19.7	6.08e-01	0	43	0	261095424	20	4681
2026-01-02 13:33:10.03	235.33	17.34	-29.3	-31.7	19.5	6.08e-01	0	43	0	263192576	20	4780
2026-01-02 13:33:11.04	235.56	17.42	-29.1	-31.4	19.7	6.08e-01	0	43	0	264765440	20	4687
2026-01-02 13:33:12.03	235.78	17.49	-29.2	-31.7	19.6	6.08e-01	0	43	0	266862592	20	4762
2026-01-02 13:33:13.04	236.01	17.56	-29.2	-31.6	19.6	6.06e-01	0	43	0	268959744	20	4746
2026-01-02 13:33:14.05	236.24	17.63	-29.2	-31.6	19.6	6.09e-01	0	43	0	270532608	20	4752
2026-01-02 13:33:15.05	236.47	17.70	-29.6	-32.8	19.0	6.07e-01	0	43	0	272629760	20	5156
2026-01-02 13:33:16.06	236.70	17.78	-29.4	-32.1	19.3	6.05e-01	0	43	0	274202624	20	4919
2026-01-02 13:33:17.06	236.93	17.85	-29.6	-32.7	19.0	6.06e-01	0	43	0	276299776	20	5123
2026-01-02 13:33:18.06	237.17	17.92	-29.2	-31.6	19.6	6.08e-01	0	43	0	277872640	20	4750
2026-01-02 13:33:19.06	237.40	17.99	-29.1	-31.4	19.7	6.06e-01	0	43	0	279969792	20	4672
2026-01-02 13:33:20.06	237.63	18.06	-29.1	-31.3	19.8	6.05e-01	0	43	0	282066944	20	4645
2026-01-02 13:33:21.07	237.87	18.13	-29.2	-31.5	19.7	6.04e-01	0	43	0	283639808	20	4708
2026-01-02 13:33:22.08	238.11	18.20	-29.2	-31.7	19.6	6.08e-01	0	43	0	285736960	20	4757
2026-01-02 13:33:23.07	238.35	18.27	-29.5	-32.2	19.3	6.06e-01	0	43	0	287309824	20	4942
2026-01-02 13:33:24.08	238.59	18.34	-29.4	-32.1	19.4	6.07e-01	0	43	0	289406976	20	4891
2026-01-02 13:33:25.07	238.83	18.40	-29.4	-32.2	19.2	6.07e-01	0	43	0	291504128	20	4945
2026-01-02 13:33:26.08	239.07	18.47	-29.2	-31.6	19.6	6.09e-01	0	43	0	293076992	20	4734
2026-01-02 13:33:27.08	239.31	18.54	-29.2	-31.5	19.7	6.08e-01	0	43	0	295174144	20	4709
2026-01-02 13:33:28.08	239.56	18.61	-29.2	-31.4	19.8	6.06e-01	0	43	0	296747008	20	4670
2026-01-02 13:33:29.09	239.81	18.68	-29.2	-31.6	19.7	6.08e-01	0	43	0	298844160	20	4719
2026-01-02 13:33:30.10	240.06	18.75	-29.1	-31.4	19.8	6.07e-01	0	43	0	300941312	20	4653
2026-01-02 13:33:31.10	240.30	18.81	-29.0	-31.1	20.0	6.06e-01	0	43	0	302514176	20	4580
2026-01-02 13:33:32.10	240.55	18.88	-29.0	-31.1	20.0	6.05e-01	0	43	0	304611328	20	4578
2026-01-02 13:33:33.10	240.80	18.95	-29.1	-31.3	19.8	6.06e-01	0	43	0	306184192	20	4631
2026-01-02 13:33:34.11	241.05	19.02	-29.1	-31.3	19.8	6.04e-01	0	43	0	308281344	20	4646
2026-01-02 13:33:35.11	241.31	19.08	-29.2	-31.5	19.7	6.08e-01	0	43	0	309854208	20	4712
2026-01-02 13:33:36.11	241.56	19.15	-29.1	-31.3	19.9	6.07e-01	0	43	0	311951360	20	4619
2026-01-02 13:33:37.12	241.82	19.21	-29.1	-31.3	19.9	6.08e-01	0	43	0	314048512	20	4636
2026-01-02 13:33:38.12	242.07	19.28	-29.2	-31.7	19.6	6.06e-01	0	43	0	315621376	20	4749
2026-01-02 13:33:39.13	242.33	19.34	-29.3	-31.8	19.6	6.07e-01	0	43	0	317718528	20	4783
2026-01-02 13:33:40.13	242.59	19.41	-29.4	-32.2	19.3	6.07e-01	0	43	0	319291392	20	4927
2026-01-02 13:33:41.13	242.85	19.47	-29.3	-31.8	19.5	6.07e-01	0	43	0	321388544	20	4800
2026-01-02 13:33:42.14	243.11	19.53	-29.3	-31.7	19.6	6.06e-01	0	43	0	323485696	20	4776
2026-01-02 13:33:43.14	243.37	19.60	-29.4	-32.0	19.5	6.06e-01	0	43	0	325058560	20	4857
2026-01-02 13:33:44.15	243.63	19.66	-29.4	-31.9	19.5	6.08e-01	0	43	0	327155712	20	4846
2026-01-02 13:33:45.15	243.90	19.72	-29.4	-32.1	19.3	6.05e-01	0	43	0	328728576	20	4906
2026-01-02 13:33:46.15	244.16	19.79	-29.3	-31.7	19.6	6.07e-01	0	43	0	330825728	20	4756
2026-01-02 13:33:47.15	244.43	19.85	-29.2	-31.4	19.8	6.06e-01	0	43	0	332398592	20	4666
2026-01-02 13:33:48.15	244.69	19.91	-29.3	-31.8	19.6	6.07e-01	0	43	0	334495744	20	4787
2026-01-02 13:33:49.15	244.96	19.97	-29.2	-31.5	19.8	6.07e-01	0	43	0	336592896	20	4692
2026-01-02 13:33:50.16	245.23	20.03	-29.2	-31.5	19.7	6.05e-01	0	43	0	338165760	20	4710
2026-01-02 13:33:51.17	245.50	20.09	-29.2	-31.6	19.7	6.08e-01	0	43	0	340262912	20	4718
2026-01-02 13:33:52.17	245.77	20.15	-29.2	-31.6	19.7	6.08e-01	0	43	0	342360064	20	4729
2026-01-02 13:33:53.18	246.05	20.21	-29.3	-31.8	19.6	6.08e-01	0	43	0	343932928	20	4789
2026-01-02 13:33:54.18	246.32	20.27	-29.2	-31.5	19.7	6.07e-01	0	43	0	346030080	20	4702
2026-01-02 13:33:55.18	246.59	20.32	-29.2	-31.5	19.8	6.07e-01	0	43	0	347602944	20	4689
2026-01-02 13:33:56.19	246.87	20.38	-29.2	-31.6	19.7	6.08e-01	0	43	0	349700096	20	4730
2026-01-02 13:33:57.19	247.15	20.44	-29.3	-31.6	19.7	6.05e-01	0	43	0	351272960	20	4740
2026-01-02 13:33:58.19	247.43	20.50	-29.3	-31.6	19.7	6.05e-01	0	43	0	353370112	20	4743
2026-01-02 13:33:59.20	247.71	20.55	-29.3	-31.6	19.7	6.05e-01	0	43	0	355467264	20	4738
2026-01-02 13:34:00.20	247.99	20.61	-29.4	-31.9	19.5	6.05e-01	0	43	0	357040128	20	4842
2026-01-02 13:34:01.20	248.27	20.66	-29.6	-32.5	19.2	6.05e-01	0	43	0	359137280	20	5054
2026-01-02 13:34:02.20	248.55	20.72	-29.4	-32.0	19.5	6.06e-01	0	43	0	360710144	20	4878
2026-01-02 13:34:03.20	248.83	20.77	-29.6	-32.6	19.1	6.08e-01	0	43	0	362807296	20	5076
2026-01-02 13:34:04.21	249.12	20.82	-29.7	-32.9	18.9	6.06e-01	0	43	0	364380160	20	5199
2026-01-02 13:34:05.21	249.40	20.88	-29.8	-33.0	18.9	6.05e-01	0	43	0	366477312	20	5214
2026-01-02 13:34:06.22	249.69	20.93	-29.6	-32.6	19.1	6.07e-01	0	43	0	368574464	20	5080
2026-01-02 13:34:07.22	249.97	20.98	-29.8	-33.1	18.8	6.06e-01	0	43	0	370147328	20	5254
2026-01-02 13:34:08.22	250.26	21.03	-29.7	-32.9	18.9	6.06e-01	0	43	0	372244480	20	5196
2026-01-02 13:34:09.23	250.55	21.08	-29.8	-33.1	18.8	6.03e-01	0	43	0	374341632	20	5245
2026-01-02 13:34:10.23	250.84	21.13	-29.8	-33.1	18.8	6.06e-01	0	43	0	375914496	20	5263
2026-01-02 13:34:11.24	251.13	21.18	-30.1	-33.5	18.3	6.07e-01	0	43	0	378011648	21	5285
2026-01-02 13:34:12.24	251.43	21.23	-29.8	-32.6	18.8	6.08e-01	0	43	0	379584512	21	4955
2026-01-02 13:34:13.24	251.72	21.28	-29.6	-31.9	19.2	6.08e-01	0	43	0	381681664	21	4734
2026-01-02 13:34:14.25	252.01	21.33	-29.6	-32.0	19.2	6.06e-01	0	43	0	383254528	21	4751
2026-01-02 13:34:15.25	252.31	21.37	-29.6	-32.0	19.2	6.08e-01	0	43	0	385351680	21	4762
2026-01-02 13:34:16.26	252.60	21.42	-29.6	-32.0	19.2	6.06e-01	0	43	0	387448832	21	4767
2026-01-02 13:34:17.26	252.90	21.47	-29.7	-32.4	19.0	6.05e-01	0	43	0	389021696	21	4885
2026-01-02 13:34:18.26	253.20	21.51	-29.7	-32.4	19.0	6.07e-01	0	43	0	391118848	21	4893
2026-01-02 13:34:19.27	253.50	21.55	-29.8	-32.5	18.9	6.05e-01	0	43	0	392691712	21	4908
2026-01-02 13:34:20.27	253.80	21.60	-29.6	-32.0	19.2	6.07e-01	0	43	0	394788864	21	4737
2026-01-02 13:34:21.27	254.09	21.64	-29.5	-31.9	19.3	6.05e-01	0	43	0	396361728	21	4705
2026-01-02 13:34:22.28	254.40	21.68	-29.4	-31.5	19.5	6.07e-01	0	43	0	398458880	21	4571
2026-01-02 13:34:23.28	254.70	21.72	-29.3	-31.8	19.7	6.06e-01	0	43	0	400556032	20	4774
2026-01-02 13:34:24.28	255.00	21.77	-29.4	-32.0	19.5	6.07e-01	0	43	0	402128896	20	4854
2026-01-02 13:34:25.29	255.30	21.81	-29.4	-32.0	19.5	6.07e-01	0	43	0	404226048	20	4871
2026-01-02 13:34:26.29	255.61	21.84	-29.4	-31.9	19.6	6.07e-01	0	43	0	405798912	20	4835
2026-01-02 13:34:27.30	255.92	21.88	-29.5	-32.3	19.3	6.07e-01	0	43	0	407896064	20	4977
2026-01-02 13:34:28.31	256.22	21.92	-29.6	-32.6	19.2	6.08e-01	0	43	0	409993216	20	5065
2026-01-02 13:34:29.31	256.53	21.96	-29.4	-32.0	19.6	6.06e-01	0	43	0	411566080	20	4858
2026-01-02 13:34:30.32	256.84	22.00	-29.4	-31.9	19.6	6.06e-01	0	43	0	413663232	20	4819
2026-01-02 13:34:31.33	257.15	22.03	-29.5	-32.2	19.4	6.08e-01	0	43	0	415760384	20	4921
2026-01-02 13:34:32.33	257.46	22.07	-29.4	-32.0	19.5	6.04e-01	0	43	0	417333248	20	4868
2026-01-02 13:34:33.34	257.77	22.10	-29.3	-31.7	19.7	6.04e-01	0	43	0	419430400	20	4756
2026-01-02 13:34:34.34	258.08	22.13	-29.4	-32.0	19.6	6.06e-01	0	43	0	421003264	20	4868
2026-01-02 13:34:35.34	258.39	22.17	-29.4	-31.9	19.6	6.09e-01	0	43	0	423100416	20	4823
2026-01-02 13:34:36.34	258.70	22.20	-29.3	-31.8	19.7	6.05e-01	0	43	0	424673280	20	4799
2026-01-02 13:34:37.34	259.01	22.23	-29.5	-32.3	19.4	6.07e-01	0	43	0	426770432	20	4972
2026-01-02 13:34:38.34	259.32	22.26	-29.4	-32.1	19.5	6.04e-01	0	43	0	428867584	20	4880
2026-01-02 13:34:39.35	259.63	22.29	-29.4	-32.0	19.6	6.04e-01	0	43	0	430440448	20	4865
2026-01-02 13:34:40.35	259.95	22.32	-29.5	-32.4	19.3	6.06e-01	0	43	0	432537600	20	4981
2026-01-02 13:34:41.35	260.26	22.34	-29.4	-32.0	19.6	6.06e-01	0	43	0	434110464	20	4859
2026-01-02 13:34:42.34	260.57	22.37	-29.4	-32.0	19.6	6.04e-01	0	43	0	436207616	20	4861
2026-01-02 13:34:43.35	260.89	22.40	-29.5	-32.2	19.4	6.07e-01	0	43	0	437780480	20	4908
2026-01-02 13:34:44.35	261.20	22.42	-29.6	-32.4	19.4	6.08e-01	0	43	0	439877632	20	4985
2026-01-02 13:34:45.35	261.52	22.45	-29.4	-32.1	19.5	6.05e-01	0	43	0	441974784	20	4872
2026-01-02 13:34:46.34	261.83	22.47	-29.4	-32.1	19.5	6.07e-01	0	43	0	443547648	20	4874
2026-01-02 13:34:47.34	262.15	22.49	-29.5	-32.2	19.4	6.06e-01	0	43	0	445644800	20	4914
2026-01-02 13:34:48.34	262.46	22.52	-29.4	-32.1	19.5	6.07e-01	0	43	0	447217664	20	4888
2026-01-02 13:34:49.35	262.79	22.54	-29.5	-32.2	19.5	6.07e-01	0	43	0	449314816	20	4914
2026-01-02 13:34:50.34	263.10	22.56	-29.5	-32.3	19.4	6.07e-01	0	43	0	450887680	20	4966
2026-01-02 13:34:51.34	263.42	22.58	-29.5	-32.2	19.5	6.07e-01	0	43	0	452984832	20	4924
2026-01-02 13:34:52.34	263.74	22.59	-29.4	-32.0	19.6	6.08e-01	0	43	0	455081984	20	4853
2026-01-02 13:34:53.35	264.06	22.61	-29.4	-32.0	19.5	6.06e-01	0	43	0	456654848	20	4864
2026-01-02 13:34:54.35	264.38	22.63	-29.5	-32.1	19.5	6.06e-01	0	43	0	458752000	20	4893
2026-01-02 13:34:55.35	264.70	22.65	-29.5	-32.2	19.5	6.06e-01	0	43	0	460324864	20	4902
2026-01-02 13:34:56.35	265.02	22.66	-29.5	-32.2	19.5	6.07e-01	0	43	0	462422016	20	4911
2026-01-02 13:34:57.36	265.34	22.68	-29.5	-32.1	19.5	6.06e-01	0	43	0	464519168	20	4889
2026-01-02 13:34:58.36	265.66	22.69	-29.5	-32.3	19.4	6.05e-01	0	43	0	466092032	20	4941
2026-01-02 13:34:59.36	265.98	22.70	-29.5	-32.1	19.5	6.07e-01	0	43	0	468189184	20	4893
2026-01-02 13:35:00.37	266.31	22.71	-29.5	-32.1	19.5	6.07e-01	0	43	0	469762048	20	4885
2026-01-02 13:35:01.37	266.63	22.72	-29.5	-32.2	19.5	6.08e-01	0	43	0	471859200	20	4919
2026-01-02 13:35:02.38	266.95	22.73	-29.6	-32.5	19.3	6.07e-01	0	43	0	473956352	20	5033
2026-01-02 13:35:03.38	267.28	22.74	-29.6	-32.4	19.3	6.06e-01	0	43	0	475529216	20	5003
2026-01-02 13:35:04.38	267.60	22.75	-29.5	-32.1	19.5	6.05e-01	0	43	0	477626368	20	4893
2026-01-02 13:35:05.39	267.92	22.76	-29.5	-32.3	19.4	6.05e-01	0	43	0	479199232	20	4960
2026-01-02 13:35:06.38	268.24	22.76	-29.9	-33.4	18.7	6.07e-01	0	43	0	481296384	20	5356
2026-01-02 13:35:07.39	268.57	22.77	-29.9	-33.2	18.9	6.08e-01	0	43	0	482869248	20	5265
2026-01-02 13:35:08.38	268.89	22.77	-30.1	-33.2	18.5	6.07e-01	0	43	0	484966400	21	5185
2026-01-02 13:35:09.39	269.21	22.78	-29.6	-31.9	19.3	6.05e-01	0	43	0	487063552	21	4698
2026-01-02 13:35:10.40	269.54	22.78	-29.5	-31.9	19.4	6.04e-01	0	43	0	488636416	21	4698
2026-01-02 13:35:11.40	269.86	22.78	-29.5	-31.6	19.5	6.07e-01	0	43	0	490733568	21	4612
2026-01-02 13:35:12.41	270.19	22.78	-29.5	-31.6	19.5	6.06e-01	0	43	0	492306432	21	4599
2026-01-02 13:35:13.41	270.51	22.78	-29.7	-32.3	19.1	6.07e-01	0	43	0	494403584	21	4838
2026-01-02 13:35:14.42	270.83	22.78	-29.7	-32.3	19.1	6.07e-01	0	43	0	496500736	21	4843
2026-01-02 13:35:15.42	271.16	22.78	-29.5	-31.8	19.4	6.08e-01	0	43	0	498073600	21	4683
2026-01-02 13:35:16.42	271.48	22.78	-29.5	-31.7	19.4	6.07e-01	0	43	0	500170752	21	4656
2026-01-02 13:35:17.43	271.80	22.77	-29.6	-32.0	19.3	6.06e-01	0	43	0	501743616	21	4743
2026-01-02 13:35:18.43	272.13	22.77	-29.8	-32.5	19.0	6.06e-01	0	43	0	503840768	21	4905
2026-01-02 13:35:19.44	272.45	22.76	-29.7	-32.2	19.2	6.07e-01	0	43	0	505937920	21	4808
2026-01-02 13:35:20.44	272.77	22.76	-29.7	-32.1	19.2	6.07e-01	0	43	0	507510784	21	4795
2026-01-02 13:35:21.44	273.10	22.75	-29.7	-32.2	19.2	6.05e-01	0	43	0	509607936	21	4821
2026-01-02 13:35:22.45	273.42	22.74	-29.7	-32.4	19.0	6.05e-01	0	43	0	511180800	21	4872
2026-01-02 13:35:23.45	273.74	22.73	-29.7	-32.1	19.2	6.06e-01	0	43	0	513277952	21	4795
2026-01-02 13:35:24.46	274.07	22.72	-29.6	-32.0	19.3	6.06e-01	0	43	0	514850816	21	4761
2026-01-02 13:35:25.46	274.39	22.71	-29.7	-32.3	19.1	6.06e-01	0	43	0	516947968	21	4840
2026-01-02 13:35:26.46	274.71	22.70	-29.7	-32.2	19.2	6.08e-01	0	43	0	519045120	21	4809
2026-01-02 13:35:27.46	275.03	22.69	-29.6	-31.9	19.4	6.07e-01	0	43	0	520617984	21	4715
2026-01-02 13:35:28.47	275.35	22.67	-29.6	-32.0	19.3	6.08e-01	0	43	0	522715136	21	4732
2026-01-02 13:35:29.47	275.67	22.66	-29.6	-32.0	19.3	6.08e-01	0	43	0	524812288	21	4739
2026-01-02 13:35:30.47	275.99	22.65	-29.7	-32.3	19.0	6.04e-01	0	43	0	526385152	21	4867
2026-01-02 13:35:31.47	276.31	22.63	-29.7	-32.2	19.1	6.05e-01	0	43	0	528482304	21	4817
2026-01-02 13:35:32.48	276.63	22.61	-29.7	-32.3	19.1	6.08e-01	0	43	0	530055168	21	4829
2026-01-02 13:35:33.49	276.96	22.59	-30.0	-33.0	18.6	6.07e-01	0	43	0	532152320	21	5106
2026-01-02 13:35:34.50	277.28	22.58	-29.8	-32.5	18.9	6.07e-01	0	43	0	533725184	21	4920
2026-01-02 13:35:35.51	277.60	22.56	-29.8	-32.5	19.0	6.07e-01	0	43	0	535822336	21	4923
2026-01-02 13:35:36.51	277.92	22.54	-29.8	-32.6	18.9	6.07e-01	0	43	0	537919488	21	4951
2026-01-02 13:35:37.51	278.23	22.52	-29.9	-32.7	18.8	6.06e-01	0	43	0	539492352	21	4983
2026-01-02 13:35:38.52	278.55	22.49	-29.9	-32.8	18.7	6.07e-01	0	43	0	541589504	21	5036
2026-01-02 13:35:39.52	278.87	22.47	-30.0	-33.1	18.6	6.02e-01	0	43	0	543162368	21	5122
2026-01-02 13:35:40.52	279.18	22.45	-30.1	-33.4	18.4	6.06e-01	0	43	0	545259520	21	5266
2026-01-02 13:35:41.52	279.50	22.42	-29.9	-32.7	18.8	6.07e-01	0	43	0	547356672	21	4982
2026-01-02 13:35:42.52	279.81	22.40	-29.6	-32.0	19.3	6.06e-01	0	44	0	548929536	21	4726
2026-01-02 13:35:43.52	280.13	22.37	-29.6	-31.9	19.3	6.06e-01	0	43	0	551026688	21	4728
2026-01-02 13:35:44.52	280.44	22.34	-29.7	-32.3	19.1	6.05e-01	0	43	0	552599552	21	4859
2026-01-02 13:35:45.53	280.76	22.32	-29.8	-32.4	19.0	6.05e-01	0	43	0	554696704	21	4888
2026-01-02 13:35:46.53	281.07	22.29	-29.6	-32.1	19.2	6.07e-01	0	43	0	556269568	21	4786
2026-01-02 13:35:47.52	281.38	22.26	-29.6	-31.9	19.3	6.06e-01	0	43	0	558366720	21	4711
2026-01-02 13:35:48.52	281.69	22.23	-29.6	-32.1	19.2	6.07e-01	0	43	0	560463872	21	4761
2026-01-02 13:35:49.53	282.00	22.20	-29.5	-31.9	19.3	6.05e-01	0	43	0	562036736	21	4695
2026-01-02 13:35:50.53	282.31	22.17	-29.5	-31.7	19.5	6.04e-01	0	43	0	564133888	21	4656
2026-01-02 13:35:51.54	282.62	22.13	-29.7	-32.2	19.1	6.06e-01	0	43	0	565706752	21	4804
2026-01-02 13:35:52.54	282.93	22.10	-29.6	-31.9	19.3	6.06e-01	0	43	0	567803904	21	4708
2026-01-02 13:35:53.55	283.24	22.07	-29.6	-32.0	19.3	6.08e-01	0	43	0	569901056	21	4754
2026-01-02 13:35:54.55	283.55	22.03	-30.0	-33.0	18.6	6.04e-01	0	43	0	571473920	21	5083
2026-01-02 13:35:55.55	283.85	22.00	-30.1	-33.3	18.5	6.07e-01	0	43	0	573571072	21	5214
2026-01-02 13:35:56.55	284.16	21.96	-30.1	-33.4	18.5	6.06e-01	0	43	0	575143936	21	5235
2026-01-02 13:35:57.55	284.47	21.92	-29.6	-32.0	19.3	6.06e-01	0	43	0	577241088	21	4750
2026-01-02 13:35:58.55	284.77	21.88	-29.5	-31.8	19.4	6.06e-01	0	43	0	578813952	21	4660
2026-01-02 13:35:59.55	285.07	21.85	-29.6	-32.1	19.2	6.06e-01	0	43	0	580911104	21	4766
2026-01-02 13:36:00.55	285.37	21.81	-29.8	-32.5	19.1	6.05e-01	0	43	0	583008256	21	4923
2026-01-02 13:36:01.56	285.68	21.77	-29.5	-31.7	19.5	6.07e-01	0	43	0	584581120	21	4628
2026-01-02 13:36:02.56	285.98	21.73	-29.4	-31.6	19.6	6.05e-01	0	43	0	586678272	21	4594
2026-01-02 13:36:03.56	286.28	21.69	-29.5	-31.7	19.5	6.08e-01	0	43	0	588251136	21	4638
2026-01-02 13:36:04.57	286.58	21.64	-29.5	-31.7	19.4	6.07e-01	0	43	0	590348288	21	4654
2026-01-02 13:36:05.58	286.88	21.60	-29.4	-31.5	19.5	6.06e-01	0	43	0	592445440	21	4587
2026-01-02 13:36:06.58	287.18	21.56	-29.6	-32.0	19.3	6.05e-01	0	43	0	594018304	21	4741
2026-01-02 13:36:07.58	287.48	21.51	-29.5	-31.8	19.4	6.07e-01	0	43	0	596115456	21	4678
2026-01-02 13:36:08.59	287.78	21.47	-29.5	-31.7	19.4	6.06e-01	0	43	0	597688320	21	4655
2026-01-02 13:36:09.60	288.07	21.42	-29.4	-31.6	19.6	6.06e-01	0	43	0	599785472	21	4595
2026-01-02 13:36:10.60	288.37	21.38	-29.6	-31.9	19.3	6.06e-01	0	43	0	601358336	21	4722
2026-01-02 13:36:11.60	288.66	21.33	-29.6	-32.1	19.1	6.07e-01	0	43	0	603455488	21	4792
2026-01-02 13:36:12.61	288.95	21.28	-29.8	-32.6	18.9	6.06e-01	0	43	0	605552640	21	4947
2026-01-02 13:36:13.62	289.25	21.23	-29.8	-32.6	18.9	6.04e-01	0	43	0	607125504	21	4953
2026-01-02 13:36:14.62	289.54	21.19	-29.6	-31.9	19.3	6.06e-01	0	43	0	609222656	21	4725
2026-01-02 13:36:15.62	289.83	21.14	-29.8	-32.5	19.0	6.06e-01	0	43	0	610795520	21	4910
2026-01-02 13:36:16.62	290.12	21.09	-29.9	-32.8	18.7	6.08e-01	0	43	0	612892672	21	5041
2026-01-02 13:36:17.62	290.40	21.04	-29.8	-32.5	19.0	6.06e-01	0	43	0	614989824	21	4912
2026-01-02 13:36:18.62	290.69	20.99	-29.6	-32.1	19.1	6.05e-01	0	43	0	616562688	21	4772
2026-01-02 13:36:19.63	290.98	20.94	-29.7	-32.2	19.1	6.05e-01	0	43	0	618659840	21	4825
2026-01-02 13:36:20.63	291.26	20.88	-29.7	-32.2	19.1	6.07e-01	0	43	0	620232704	21	4821
2026-01-02 13:36:21.63	291.54	20.83	-29.9	-32.7	18.8	6.07e-01	0	43	0	622329856	21	5002
2026-01-02 13:36:22.64	291.83	20.78	-30.1	-33.3	18.4	6.08e-01	0	43	0	624427008	21	5213
2026-01-02 13:36:23.64	292.11	20.72	-30.0	-33.2	18.4	6.06e-01	0	43	0	625999872	21	5188
2026-01-02 13:36:24.65	292.39	20.67	-30.0	-33.2	18.5	6.07e-01	0	43	0	628097024	21	5177
2026-01-02 13:36:25.65	292.67	20.62	-30.0	-33.0	18.6	6.05e-01	0	43	0	629669888	21	5106
2026-01-02 13:36:26.65	292.95	20.56	-29.8	-32.4	18.9	6.08e-01	0	43	0	631767040	21	4900
2026-01-02 13:36:27.65	293.23	20.50	-29.5	-31.6	19.5	6.06e-01	0	43	0	633339904	21	4618
2026-01-02 13:36:28.65	293.50	20.45	-29.4	-31.9	19.6	6.07e-01	0	43	0	635437056	20	4823
2026-01-02 13:36:29.66	293.78	20.39	-29.5	-32.4	19.3	6.08e-01	0	43	0	637534208	20	4984
2026-01-02 13:36:30.66	294.06	20.33	-29.7	-32.7	19.1	6.07e-01	0	43	0	639107072	20	5094
2026-01-02 13:36:31.66	294.33	20.28	-29.5	-32.3	19.3	6.05e-01	0	43	0	641204224	20	4972
2026-01-02 13:36:32.67	294.60	20.22	-29.4	-32.0	19.5	6.07e-01	0	43	0	642777088	20	4848
2026-01-02 13:36:33.67	294.87	20.16	-29.4	-31.9	19.5	6.05e-01	0	43	0	644874240	20	4834
2026-01-02 13:36:34.68	295.15	20.10	-29.3	-31.8	19.6	6.05e-01	0	43	0	646971392	20	4784
2026-01-02 13:36:35.68	295.41	20.04	-29.5	-32.2	19.4	6.07e-01	0	43	0	648544256	20	4926
2026-01-02 13:36:36.68	295.68	19.98	-29.5	-32.1	19.4	6.07e-01	0	43	0	650641408	20	4910
2026-01-02 13:36:37.69	295.95	19.92	-29.4	-32.1	19.4	6.07e-01	0	43	0	652214272	20	4895
2026-01-02 13:36:38.70	296.22	19.86	-29.4	-32.1	19.4	6.06e-01	0	43	0	654311424	20	4893
2026-01-02 13:36:39.71	296.49	19.80	-29.4	-32.1	19.5	6.06e-01	0	43	0	656408576	20	4886
2026-01-02 13:36:40.71	296.75	19.74	-29.4	-32.2	19.4	6.07e-01	0	43	0	657981440	20	4915
2026-01-02 13:36:41.71	297.01	19.67	-29.4	-32.1	19.5	6.05e-01	0	43	0	660078592	20	4878
2026-01-02 13:36:42.71	297.27	19.61	-29.4	-32.0	19.5	6.06e-01	0	43	0	661651456	20	4871
2026-01-02 13:36:43.72	297.53	19.55	-29.5	-32.2	19.4	6.04e-01	0	43	0	663748608	20	4927
2026-01-02 13:36:44.72	297.79	19.49	-29.5	-32.2	19.4	6.07e-01	0	43	0	665845760	20	4918
2026-01-02 13:36:45.73	298.05	19.42	-29.4	-32.0	19.5	6.08e-01	0	43	0	667418624	20	4871
2026-01-02 13:36:46.73	298.31	19.36	-29.5	-32.1	19.4	6.07e-01	0	43	0	669515776	20	4911
2026-01-02 13:36:47.72	298.56	19.29	-29.4	-32.0	19.5	6.04e-01	0	43	0	671088640	20	4848
2026-01-02 13:36:48.73	298.82	19.23	-29.4	-32.1	19.4	6.06e-01	0	43	0	673185792	20	4881
2026-01-02 13:36:49.73	299.07	19.16	-29.6	-32.5	19.2	6.08e-01	0	43	0	675282944	20	5041
2026-01-02 13:36:50.74	299.33	19.10	-29.5	-32.3	19.3	6.06e-01	0	43	0	676855808	20	4981
2026-01-02 13:36:51.74	299.58	19.03	-29.5	-32.3	19.3	6.08e-01	0	43	0	678952960	20	4977
2026-01-02 13:36:52.74	299.83	18.97	-29.5	-32.2	19.3	6.05e-01	0	43	0	680525824	20	4947
2026-01-02 13:36:53.74	300.07	18.90	-29.5	-32.2	19.4	6.08e-01	0	43	0	682622976	20	4930
2026-01-02 13:36:54.75	300.32	18.83	-29.7	-32.8	18.9	6.07e-01	0	43	0	684195840	20	5146
2026-01-02 13:36:55.75	300.57	18.77	-29.9	-33.4	18.6	6.07e-01	0	43	0	686292992	20	5362
2026-01-02 13:36:56.75	300.82	18.70	-29.9	-33.4	18.5	6.05e-01	0	43	0	688390144	20	5393
2026-01-02 13:36:57.75	301.06	18.63	-29.8	-33.0	18.9	6.06e-01	0	43	0	689963008	20	5231
2026-01-02 13:36:58.76	301.31	18.56	-29.8	-33.1	18.8	6.05e-01	0	43	0	692060160	20	5277
2026-01-02 13:36:59.76	301.55	18.50	-29.9	-33.4	18.6	6.09e-01	0	43	0	693633024	20	5364
2026-01-02 13:37:00.76	301.79	18.43	-29.9	-33.3	18.7	6.07e-01	0	43	0	695730176	20	5323
2026-01-02 13:37:01.77	302.03	18.36	-29.9	-33.4	18.6	6.06e-01	0	43	0	697303040	20	5388
2026-01-02 13:37:02.76	302.27	18.29	-29.8	-33.2	18.7	6.06e-01	0	43	0	699400192	20	5295
2026-01-02 13:37:03.77	302.51	18.22	-30.4	-34.3	17.9	6.07e-01	0	43	0	701497344	21	5642
2026-01-02 13:37:04.77	302.74	18.15	-30.2	-33.8	18.0	6.06e-01	0	43	0	703070208	21	5437
2026-01-02 13:37:05.78	302.98	18.08	-30.0	-33.1	18.4	6.06e-01	0	43	0	705167360	21	5151
2026-01-02 13:37:06.78	303.21	18.01	-29.7	-32.4	18.9	6.08e-01	0	43	0	706740224	21	4891
2026-01-02 13:37:07.78	303.45	17.94	-29.5	-31.7	19.3	6.04e-01	0	43	0	708837376	21	4661
2026-01-02 13:37:08.78	303.68	17.87	-29.4	-31.6	19.4	6.04e-01	0	43	0	710934528	21	4619
2026-01-02 13:37:09.79	303.91	17.80	-29.5	-31.9	19.2	6.03e-01	0	43	0	712507392	21	4717
2026-01-02 13:37:10.79	304.14	17.73	-29.4	-31.7	19.3	6.03e-01	0	43	0	714604544	21	4649
2026-01-02 13:37:11.79	304.37	17.66	-29.4	-31.6	19.3	6.02e-01	0	43	0	716177408	21	4639
2026-01-02 13:37:12.79	304.60	17.59	-29.5	-31.8	19.2	6.05e-01	0	43	0	718274560	21	4693
2026-01-02 13:37:13.80	304.82	17.52	-29.5	-31.9	19.1	6.04e-01	0	43	0	720371712	21	4734
2026-01-02 13:37:14.80	305.05	17.45	-29.4	-31.5	19.4	6.03e-01	0	43	0	721944576	21	4599
2026-01-02 13:37:15.80	305.27	17.38	-29.3	-31.7	19.6	6.04e-01	0	43	0	724041728	20	4779
2026-01-02 13:37:16.81	305.50	17.30	-29.3	-31.7	19.6	6.04e-01	0	43	0	725614592	20	4774
2026-01-02 13:37:17.82	305.72	17.23	-29.3	-31.8	19.5	6.02e-01	0	43	0	727711744	20	4797
2026-01-02 13:37:18.82	305.94	17.16	-29.4	-32.1	19.3	6.04e-01	0	43	0	729808896	20	4912
2026-01-02 13:37:19.82	306.16	17.09	-29.3	-31.8	19.5	6.03e-01	0	43	0	731381760	20	4799
2026-01-02 13:37:20.82	306.38	17.02	-29.2	-31.6	19.6	6.03e-01	0	43	0	733478912	20	4741
2026-01-02 13:37:21.82	306.60	16.94	-29.3	-31.8	19.5	6.04e-01	0	43	0	735051776	20	4809
2026-01-02 13:37:22.82	306.81	16.87	-29.3	-31.7	19.5	6.06e-01	0	43	0	737148928	20	4771
2026-01-02 13:37:23.83	307.03	16.80	-29.3	-31.8	19.5	6.03e-01	0	43	0	738721792	20	4792
2026-01-02 13:37:24.83	307.25	16.73	-29.5	-32.4	19.2	6.04e-01	0	43	0	740818944	20	5003
2026-01-02 13:37:25.83	307.46	16.65	-29.6	-32.6	19.0	6.03e-01	0	43	0	742916096	20	5086
2026-01-02 13:37:26.84	307.67	16.58	-29.4	-32.2	19.3	6.03e-01	0	43	0	744488960	20	4934
2026-01-02 13:37:27.84	307.88	16.51	-29.5	-32.4	19.2	6.05e-01	0	43	0	746586112	20	5019
2026-01-02 13:37:28.85	308.09	16.43	-29.8	-33.1	18.7	6.04e-01	0	43	0	748158976	20	5282
2026-01-02 13:37:29.85	308.30	16.36	-29.9	-33.5	18.5	6.04e-01	0	43	0	750256128	20	5439
2026-01-02 13:37:30.85	308.51	16.29	-29.9	-33.5	18.4	6.04e-01	0	43	0	751828992	20	5433
2026-01-02 13:37:31.86	308.72	16.21	-29.8	-33.2	18.6	6.03e-01	0	43	0	753926144	20	5324
2026-01-02 13:37:32.86	308.93	16.14	-29.8	-33.1	18.7	6.03e-01	0	43	0	756023296	20	5276
2026-01-02 13:37:33.85	309.13	16.06	-29.7	-32.8	18.8	6.04e-01	0	43	0	757596160	20	5175
2026-01-02 13:37:34.86	309.33	15.99	-30.0	-33.1	18.3	6.04e-01	0	43	0	759693312	21	5184
2026-01-02 13:37:35.86	309.54	15.92	-29.7	-32.3	18.8	6.00e-01	0	43	0	761266176	21	4877
2026-01-02 13:37:36.86	309.74	15.84	-29.8	-32.5	18.6	6.02e-01	0	43	0	763363328	21	4963
2026-01-02 13:37:37.86	309.94	15.77	-29.6	-32.1	19.0	6.04e-01	0	43	0	765460480	21	4798
2026-01-02 13:37:38.87	310.14	15.69	-29.4	-31.7	19.1	6.01e-01	0	43	0	767033344	21	4681
2026-01-02 13:37:39.87	310.34	15.62	-29.7	-32.3	18.9	6.02e-01	0	43	0	769130496	21	4874
2026-01-02 13:37:40.87	310.53	15.55	-29.8	-32.6	18.6	6.03e-01	0	43	0	770703360	21	4984
2026-01-02 13:37:41.87	310.73	15.47	-29.6	-32.1	18.9	6.03e-01	0	43	0	772800512	21	4799
2026-01-02 13:37:42.87	310.93	15.40	-29.3	-31.8	19.4	6.04e-01	0	43	0	774897664	20	4801
2026-01-02 13:37:43.88	311.12	15.32	-29.4	-32.0	19.3	6.04e-01	0	43	0	776470528	20	4886
2026-01-02 13:37:44.88	311.31	15.25	-29.4	-32.2	19.2	6.04e-01	0	43	0	778567680	20	4950
2026-01-02 13:37:45.89	311.51	15.17	-29.3	-32.0	19.3	6.03e-01	0	43	0	780140544	20	4879
2026-01-02 13:37:46.90	311.70	15.10	-29.6	-32.7	18.9	6.04e-01	0	43	0	782237696	20	5134
2026-01-02 13:37:47.90	311.89	15.02	-29.4	-32.0	19.2	6.02e-01	0	43	0	783810560	20	4888
2026-01-02 13:37:48.91	312.08	14.95	-29.4	-32.3	19.1	6.04e-01	0	43	0	785907712	20	4978
2026-01-02 13:37:49.92	312.27	14.87	-29.4	-32.2	19.1	6.04e-01	0	43	0	788004864	20	4960
2026-01-02 13:37:50.92	312.46	14.80	-29.4	-32.1	19.2	6.04e-01	0	43	0	789577728	20	4914
2026-01-02 13:37:51.91	312.64	14.73	-29.6	-32.7	18.8	6.04e-01	0	43	0	791674880	20	5119
2026-01-02 13:37:52.92	312.83	14.65	-29.5	-32.3	19.0	6.04e-01	0	43	0	793247744	20	5007
2026-01-02 13:37:53.92	313.02	14.58	-29.4	-32.1	19.1	6.04e-01	0	43	0	795344896	20	4928
2026-01-02 13:37:54.92	313.20	14.50	-29.4	-32.2	19.1	6.03e-01	0	43	0	796917760	20	4971
2026-01-02 13:37:55.92	313.38	14.43	-29.6	-32.7	18.8	6.02e-01	0	43	0	799014912	20	5121
2026-01-02 13:37:56.92	313.56	14.35	-29.5	-32.5	19.0	6.04e-01	0	43	0	801112064	20	5050
2026-01-02 13:37:57.92	313.74	14.28	-29.4	-32.1	19.1	6.03e-01	0	43	0	802684928	20	4921
2026-01-02 13:37:58.92	313.92	14.20	-29.4	-32.1	19.2	6.03e-01	0	44	0	804782080	20	4926
2026-01-02 13:37:59.92	314.10	14.13	-29.4	-32.3	19.1	6.04e-01	0	44	0	806354944	20	4978
2026-01-02 13:38:00.93	314.28	14.06	-29.4	-32.1	19.2	6.03e-01	0	43	0	808452096	20	4922
2026-01-02 13:38:01.93	314.46	13.98	-29.4	-32.2	19.1	6.05e-01	0	43	0	810549248	20	4968
2026-01-02 13:38:02.94	314.64	13.91	-29.3	-31.8	19.3	6.02e-01	0	43	0	812122112	20	4821
2026-01-02 13:38:03.94	314.81	13.83	-29.4	-32.0	19.2	6.04e-01	0	43	0	814219264	20	4902
2026-01-02 13:38:04.95	314.99	13.76	-29.3	-31.9	19.2	6.03e-01	0	43	0	815792128	20	4869
2026-01-02 13:38:05.95	315.16	13.68	-29.4	-32.2	19.1	6.04e-01	0	43	0	817889280	20	4965
2026-01-02 13:38:06.96	315.33	13.61	-29.3	-31.9	19.2	6.04e-01	0	43	0	819986432	20	4850
2026-01-02 13:38:07.96	315.50	13.53	-29.3	-31.9	19.2	6.04e-01	0	43	0	821559296	20	4853
2026-01-02 13:38:08.96	315.68	13.46	-29.4	-32.2	19.0	6.05e-01	0	43	0	823656448	20	4955
2026-01-02 13:38:09.97	315.85	13.38	-29.4	-32.2	19.0	6.03e-01	0	43	0	825229312	20	4971
2026-01-02 13:38:10.97	316.02	13.31	-29.4	-32.3	19.0	6.05e-01	0	43	0	827326464	20	4984
2026-01-02 13:38:11.97	316.18	13.24	-29.4	-32.3	19.0	6.00e-01	0	43	0	828899328	20	4981
2026-01-02 13:38:12.97	316.35	13.16	-29.6	-32.6	18.8	6.03e-01	0	43	0	830996480	20	5117
2026-01-02 13:38:13.97	316.52	13.09	-29.7	-33.0	18.5	6.06e-01	0	43	0	833093632	20	5285
2026-01-02 13:38:14.98	316.68	13.01	-30.0	-33.9	18.0	6.01e-01	0	43	0	834666496	20	5636
2026-01-02 13:38:15.98	316.85	12.94	-30.1	-34.0	17.9	6.04e-01	0	43	0	836763648	20	5674
2026-01-02 13:38:16.98	317.01	12.87	-29.6	-32.6	18.8	6.04e-01	0	43	0	838336512	20	5126
2026-01-02 13:38:17.99	317.17	12.79	-29.6	-32.7	18.7	6.03e-01	0	43	0	840433664	20	5152
2026-01-02 13:38:18.99	317.34	12.72	-29.8	-33.3	18.3	6.03e-01	0	43	0	842530816	20	5381
2026-01-02 13:38:20.00	317.50	12.64	-29.8	-33.3	18.2	6.04e-01	0	43	0	844103680	20	5390
2026-01-02 13:38:21.01	317.66	12.57	-29.7	-33.0	18.5	6.04e-01	0	43	0	846200832	20	5269
2026-01-02 13:38:22.01	317.82	12.49	-29.6	-32.8	18.6	6.04e-01	0	43	0	847773696	20	5202
2026-01-02 13:38:23.01	317.98	12.42	-29.8	-33.3	18.4	6.04e-01	0	43	0	849870848	20	5374
2026-01-02 13:38:24.02	318.14	12.35	-29.8	-33.3	18.3	6.05e-01	0	43	0	851968000	20	5401
2026-01-02 13:38:25.03	318.29	12.27	-29.7	-33.0	18.5	6.04e-01	0	43	0	853540864	20	5255
2026-01-02 13:38:26.03	318.45	12.20	-29.5	-32.4	18.8	6.03e-01	0	43	0	855638016	20	5027
2026-01-02 13:38:27.03	318.61	12.13	-29.5	-32.4	18.9	6.04e-01	0	43	0	857210880	20	5024
2026-01-02 13:38:28.03	318.76	12.05	-29.5	-32.3	18.9	6.03e-01	0	43	0	859308032	20	5018
2026-01-02 13:38:29.03	318.91	11.98	-29.6	-32.6	18.7	6.07e-01	0	43	0	861405184	20	5131
2026-01-02 13:38:30.03	319.07	11.91	-29.5	-32.6	18.7	6.04e-01	0	43	0	862978048	20	5118
2026-01-02 13:38:31.03	319.22	11.83	-29.5	-32.6	18.8	6.04e-01	0	43	0	865075200	20	5115
2026-01-02 13:38:32.03	319.37	11.76	-29.6	-32.8	18.6	6.03e-01	0	43	0	866648064	20	5179
2026-01-02 13:38:33.03	319.52	11.69	-29.5	-32.5	18.8	6.03e-01	0	43	0	868745216	20	5089
2026-01-02 13:38:34.03	319.67	11.62	-29.6	-32.7	18.7	6.02e-01	0	43	0	870842368	20	5147
2026-01-02 13:38:35.03	319.82	11.54	-29.6	-32.7	18.7	6.03e-01	0	43	0	872415232	20	5153
2026-01-02 13:38:36.03	319.96	11.47	-29.6	-32.8	18.6	6.04e-01	0	43	0	874512384	20	5212
2026-01-02 13:38:37.04	320.11	11.40	-29.6	-32.8	18.5	6.05e-01	0	43	0	876085248	20	5212
2026-01-02 13:38:38.04	320.26	11.32	-29.7	-33.1	18.4	6.02e-01	0	43	0	878182400	20	5323
2026-01-02 13:38:39.04	320.41	11.25	-29.7	-32.9	18.5	6.02e-01	0	43	0	879755264	20	5255
2026-01-02 13:38:40.04	320.55	11.18	-29.7	-33.1	18.4	6.03e-01	0	43	0	881852416	20	5327
2026-01-02 13:38:41.04	320.69	11.11	-29.9	-33.8	17.9	6.00e-01	0	43	0	883949568	20	5592
2026-01-02 13:38:42.05	320.84	11.04	-29.9	-33.5	18.1	6.02e-01	0	43	0	885522432	20	5475
2026-01-02 13:38:43.05	320.98	10.96	-29.7	-33.0	18.4	6.01e-01	0	43	0	887619584	20	5294
2026-01-02 13:38:44.05	321.12	10.89	-29.7	-33.1	18.4	6.02e-01	0	43	0	889192448	20	5316
2026-01-02 13:38:45.05	321.27	10.82	-29.7	-33.2	18.3	6.05e-01	0	43	0	891289600	20	5363
2026-01-02 13:38:46.06	321.41	10.75	-29.8	-33.3	18.2	6.07e-01	0	43	0	892862464	20	5396
2026-01-02 13:38:47.06	321.55	10.68	-29.8	-33.2	18.2	6.04e-01	0	43	0	894959616	20	5381
2026-01-02 13:38:48.06	321.69	10.60	-29.9	-33.7	17.9	6.04e-01	0	43	0	897056768	20	5553
2026-01-02 13:38:49.06	321.82	10.53	-29.7	-33.1	18.2	6.01e-01	0	43	0	898629632	20	5331
2026-01-02 13:38:50.06	321.96	10.46	-29.6	-32.8	18.5	6.04e-01	0	43	0	900726784	20	5224
2026-01-02 13:38:51.07	322.10	10.39	-29.6	-32.9	18.5	6.04e-01	0	43	0	902299648	20	5231
2026-01-02 13:38:52.07	322.24	10.32	-29.7	-33.0	18.3	6.03e-01	0	43	0	904396800	20	5296
2026-01-02 13:38:53.08	322.37	10.25	-29.7	-33.0	18.3	6.03e-01	0	43	0	906493952	20	5274
2026-01-02 13:38:54.09	322.51	10.17	-29.7	-33.2	18.2	6.04e-01	0	43	0	908066816	20	5353
2026-01-02 13:38:55.09	322.64	10.10	-29.8	-33.3	18.2	6.05e-01	0	43	0	910163968	20	5391
2026-01-02 13:38:56.09	322.78	10.03	-29.7	-33.1	18.2	6.01e-01	0	43	0	911736832	20	5339
2026-01-02 13:38:57.09	322.91	9.96	-29.7	-33.1	18.3	6.05e-01	0	43	0	913833984	20	5341
2026-01-02 13:38:58.08	323.04	9.89	-29.7	-33.2	18.2	6.05e-01	0	43	0	915931136	20	5366
2026-01-02 13:38:59.08	323.17	9.82	-29.8	-33.4	18.1	6.04e-01	0	43	0	917504000	20	5433
2026-01-02 13:39:00.09	323.31	9.75	-29.8	-33.4	18.1	6.03e-01	0	43	0	919601152	20	5440
2026-01-02 13:39:01.08	323.43	9.68	-29.8	-33.5	18.0	6.05e-01	0	43	0	921174016	20	5485
2026-01-02 13:39:02.07	323.56	9.61	-29.8	-33.3	18.1	6.05e-01	0	43	0	923271168	20	5417
2026-01-02 13:39:03.07	323.69	9.54	-29.8	-33.4	18.1	6.04e-01	0	43	0	924844032	20	5436
2026-01-02 13:39:04.07	323.82	9.47	-29.8	-33.5	18.0	6.04e-01	0	43	0	926941184	20	5480
2026-01-02 13:39:05.07	323.95	9.40	-30.1	-34.3	17.5	6.03e-01	0	43	0	929038336	20	5831
2026-01-02 13:39:06.08	324.08	9.33	-30.0	-33.9	17.7	6.03e-01	0	43	0	930611200	20	5667
2026-01-02 13:39:07.08	324.20	9.26	-30.0	-33.9	17.7	6.02e-01	0	43	0	932708352	20	5663
2026-01-02 13:39:08.08	324.33	9.19	-30.0	-34.1	17.5	6.06e-01	0	43	0	934281216	20	5762
2026-01-02 13:39:09.09	324.45	9.12	-29.9	-33.7	17.7	6.05e-01	0	43	0	936378368	20	5602
2026-01-02 13:39:10.09	324.58	9.05	-29.9	-33.9	17.7	6.04e-01	0	43	0	937951232	20	5648
2026-01-02 13:39:11.10	324.70	8.98	-29.9	-33.9	17.7	6.04e-01	0	43	0	940048384	20	5651
2026-01-02 13:39:12.11	324.83	8.91	-30.0	-34.1	17.5	6.04e-01	0	43	0	942145536	20	5770
2026-01-02 13:39:13.12	324.95	8.84	-30.2	-34.1	17.2	6.03e-01	0	43	0	943718400	21	5664
2026-01-02 13:39:14.12	325.07	8.78	-30.5	-34.9	16.7	6.06e-01	0	43	0	945815552	21	6022
2026-01-02 13:39:15.13	325.20	8.71	-30.2	-34.1	17.2	6.04e-01	0	43	0	947388416	21	5631
2026-01-02 13:39:16.13	325.32	8.64	-30.0	-33.6	17.5	6.04e-01	0	43	0	949485568	21	5447
2026-01-02 13:39:17.12	325.44	8.57	-30.0	-33.6	17.5	6.03e-01	0	43	0	951582720	21	5418
2026-01-02 13:39:18.13	325.56	8.50	-30.3	-34.4	17.1	6.03e-01	0	43	0	953155584	21	5750
2026-01-02 13:39:19.13	325.68	8.43	-30.1	-33.8	17.3	6.02e-01	0	43	0	955252736	21	5522
2026-01-02 13:39:20.14	325.80	8.36	-30.0	-33.6	17.5	6.03e-01	0	43	0	956825600	21	5446
2026-01-02 13:39:21.14	325.92	8.30	-30.0	-33.6	17.5	6.04e-01	0	43	0	958922752	21	5437
2026-01-02 13:39:22.14	326.03	8.23	-29.9	-33.4	17.6	6.03e-01	0	43	0	961019904	21	5347
2026-01-02 13:39:23.15	326.15	8.16	-30.0	-33.6	17.5	6.03e-01	0	43	0	962592768	21	5432
2026-01-02 13:39:24.16	326.27	8.09	-30.1	-33.8	17.4	6.01e-01	0	43	0	964689920	21	5542
2026-01-02 13:39:25.16	326.38	8.02	-30.3	-34.6	16.8	6.04e-01	0	43	0	966262784	21	5889
2026-01-02 13:39:26.16	326.50	7.96	-30.4	-34.7	16.7	6.02e-01	0	43	0	968359936	21	5937
2026-01-02 13:39:27.17	326.61	7.89	-30.4	-34.8	16.6	6.02e-01	0	43	0	969932800	21	6001
2026-01-02 13:39:28.16	326.73	7.82	-30.2	-34.1	17.1	6.05e-01	0	43	0	972029952	21	5671
2026-01-02 13:39:29.17	326.84	7.75	-30.2	-34.3	16.8	6.03e-01	0	43	0	974127104	21	5786
2026-01-02 13:39:30.17	326.95	7.69	-30.2	-34.1	17.0	6.03e-01	0	43	0	975699968	21	5680
2026-01-02 13:39:31.18	327.07	7.62	-30.1	-33.9	17.2	6.05e-01	0	43	0	977797120	21	5585
2026-01-02 13:39:32.18	327.18	7.55	-30.3	-34.4	16.8	6.02e-01	0	43	0	979369984	21	5817
2026-01-02 13:39:33.19	327.29	7.48	-30.2	-34.2	17.0	6.04e-01	0	43	0	981467136	21	5711
2026-01-02 13:39:34.18	327.40	7.42	-30.3	-34.5	16.7	6.03e-01	0	43	0	983564288	21	5841
2026-01-02 13:39:35.19	327.51	7.35	-30.1	-33.9	17.1	6.04e-01	0	43	0	985137152	21	5575
2026-01-02 13:39:36.18	327.62	7.28	-30.1	-34.1	17.0	6.02e-01	0	43	0	987234304	21	5681
2026-01-02 13:39:37.18	327.73	7.22	-30.2	-34.3	16.9	6.03e-01	0	43	0	988807168	21	5755
2026-01-02 13:39:38.19	327.84	7.15	-30.1	-34.1	17.0	6.05e-01	0	43	0	990904320	21	5674
2026-01-02 13:39:39.19	327.95	7.09	-30.5	-35.2	16.6	6.03e-01	0	43	0	992477184	21	6169
2026-01-02 13:39:40.19	328.06	7.02	-33.2	-52.4	3.8	7.46e-01	0	43	104	993001472	27	32640
2026-01-02 13:39:41.19	328.16	6.95	-33.5	-53.0	3.8	7.46e-01	0	43	104	993001472	27	33940
2026-01-02 13:39:42.20	328.27	6.89	-33.6	-52.7	3.8	7.42e-01	0	43	104	993001472	28	32539

#Closed at: 2026-01-02 13:39:42
#Recorded file [993 MB]: D:/data/31010_260102_163049.dat