passes_logs/2026/01/02/R2M6_AANII_01/R2M6_AANII_01__20260102_094147_NOAA_21_JPSS-2_rec.log

#Pass ID: 20260102_094147_NOAA 21 (JPSS-2)
#Satellite: NOAA 21 (JPSS-2)
#Configuration: NOAA 21
#almurnet v.1.7.20240730
#Start time: 2026-01-02 09:43:49

#Version: 2.2.20231116
#Station: R2M6_AANII_01
#Location: 30.233357 lon 59.946436 lat
#TLE: 1 54234U 22150A   26001.26806856  .00000185  00000+0  10843-3 0  9990
#TLE: 2 54234  98.7484 302.3349 0001277 353.3887   6.7272 14.19530660162860

#Time	Az	El	Level	Level2	SNR	BER	BlckErr	Temp	State	Recorded	gain1	gain2
2026-01-02 09:43:49.15	135.61	18.54	-33.3	-44.6	3.8	8.47e-01	0	43	0	0	26	13201
2026-01-02 09:43:50.14	135.55	18.66	-33.7	-45.2	3.8	1.49e+00	0	43	104	0	28	13575
2026-01-02 09:43:51.13	135.48	18.78	-33.7	-45.2	3.8	1.49e+00	0	43	104	0	28	13576
2026-01-02 09:43:52.13	135.41	18.90	-33.7	-45.3	3.8	1.49e+00	0	43	104	0	28	13664
2026-01-02 09:43:53.12	135.34	19.02	-33.7	-45.3	3.8	1.49e+00	0	43	104	0	28	13701
2026-01-02 09:43:54.11	135.28	19.14	-33.7	-45.3	3.8	1.49e+00	0	43	104	0	28	13653
2026-01-02 09:43:55.10	135.21	19.26	-33.8	-45.4	3.8	1.49e+00	0	43	104	0	28	13707
2026-01-02 09:43:56.10	135.14	19.38	-33.8	-45.4	3.8	1.49e+00	0	43	104	0	28	13729
2026-01-02 09:43:57.10	135.07	19.50	-33.7	-45.3	3.8	1.49e+00	0	43	104	0	28	13691
2026-01-02 09:43:58.10	135.00	19.63	-33.8	-45.3	3.8	1.49e+00	0	43	104	0	28	13675
2026-01-02 09:43:59.11	134.92	19.75	-33.8	-45.4	3.8	1.49e+00	0	43	104	0	28	13678
2026-01-02 09:44:00.11	134.85	19.88	-33.7	-45.3	3.8	1.49e+00	0	43	104	0	28	13673
2026-01-02 09:44:01.11	134.78	20.00	-33.7	-45.3	3.8	1.49e+00	0	43	104	0	28	13685
2026-01-02 09:44:02.12	134.70	20.13	-33.7	-45.3	3.8	1.49e+00	0	43	104	0	28	13698
2026-01-02 09:44:03.11	134.63	20.26	-33.7	-45.3	3.8	1.49e+00	0	43	104	0	28	13646
2026-01-02 09:44:04.10	134.56	20.38	-33.7	-45.3	3.8	1.49e+00	0	43	104	0	28	13661
2026-01-02 09:44:05.10	134.48	20.51	-33.7	-45.3	3.8	1.49e+00	0	43	104	0	28	13670
2026-01-02 09:44:06.09	134.41	20.64	-33.8	-45.4	3.8	1.49e+00	0	43	104	0	28	13716
2026-01-02 09:44:07.09	134.33	20.77	-33.8	-45.5	3.8	1.49e+00	0	43	104	0	28	13759
2026-01-02 09:44:08.08	134.25	20.89	-33.8	-45.5	3.8	1.49e+00	0	43	104	0	28	13784
2026-01-02 09:44:09.08	134.17	21.02	-33.8	-45.5	3.8	1.49e+00	0	43	104	0	28	13777
2026-01-02 09:44:10.07	134.10	21.15	-33.8	-45.5	3.8	1.49e+00	0	43	104	0	28	13769
2026-01-02 09:44:11.07	134.02	21.28	-33.8	-45.5	3.8	1.49e+00	0	43	104	0	28	13860
2026-01-02 09:44:12.07	133.94	21.42	-33.8	-45.4	3.8	1.49e+00	0	43	104	0	28	13753
2026-01-02 09:44:13.06	133.86	21.55	-33.8	-45.4	3.8	1.49e+00	0	43	104	0	28	13734
2026-01-02 09:44:14.05	133.78	21.68	-33.7	-45.3	3.8	1.49e+00	0	43	104	0	28	13643
2026-01-02 09:44:15.04	133.69	21.81	-33.7	-45.2	3.8	1.49e+00	0	43	104	0	28	13585
2026-01-02 09:44:16.04	133.61	21.95	-33.6	-45.1	3.8	1.49e+00	0	43	104	0	28	13545
2026-01-02 09:44:17.03	133.53	22.08	-33.6	-45.0	3.8	1.49e+00	0	43	104	0	28	13471
2026-01-02 09:44:18.03	133.44	22.22	-33.6	-44.9	3.8	1.49e+00	0	44	104	0	28	13357
2026-01-02 09:44:19.04	133.36	22.35	-33.5	-44.7	3.8	1.49e+00	0	43	104	0	28	13087
2026-01-02 09:44:20.04	133.27	22.49	-33.3	-44.0	3.8	1.49e+00	0	43	104	0	27	12254
2026-01-02 09:44:21.03	133.19	22.63	-33.3	-43.7	3.8	1.49e+00	0	43	104	0	27	12020
2026-01-02 09:44:22.04	133.10	22.77	-33.3	-43.6	3.8	1.49e+00	0	43	104	0	27	11824
2026-01-02 09:44:23.03	133.01	22.91	-33.2	-43.2	3.8	1.49e+00	0	43	104	0	27	11374
2026-01-02 09:44:24.03	132.92	23.05	-33.2	-42.6	4.0	1.48e+00	0	44	104	0	27	10613
2026-01-02 09:44:25.02	132.83	23.18	-33.1	-42.2	3.9	1.49e+00	0	43	104	0	27	10266
2026-01-02 09:44:26.02	132.74	23.33	-33.0	-41.5	4.0	1.44e+00	0	44	104	0	27	9609
2026-01-02 09:44:27.02	132.65	23.47	-32.8	-40.3	4.2	1.47e+00	0	43	104	0	27	8472
2026-01-02 09:44:28.01	132.56	23.61	-32.7	-40.4	4.0	1.34e+00	0	43	104	0	26	8730
2026-01-02 09:44:29.01	132.46	23.75	-32.6	-38.8	5.3	6.56e-01	0	43	104	0	26	7372
2026-01-02 09:44:30.01	132.37	23.90	-32.5	-38.3	5.5	5.08e-01	0	43	0	1048576	26	7079
2026-01-02 09:44:31.01	132.27	24.04	-32.5	-38.3	5.5	4.54e-01	0	44	0	4194304	26	7083
2026-01-02 09:44:32.01	132.18	24.19	-32.7	-39.3	5.1	5.90e-01	0	43	0	7340032	26	7722
2026-01-02 09:44:33.01	132.08	24.33	-32.8	-41.0	4.0	1.41e+00	0	43	104	9437184	26	9235
2026-01-02 09:44:34.00	131.98	24.48	-33.0	-41.5	4.3	1.45e+00	0	43	104	9437184	26	9563
2026-01-02 09:44:35.00	131.88	24.63	-32.9	-41.2	4.0	1.48e+00	0	44	104	9437184	26	9394
2026-01-02 09:44:36.01	131.78	24.78	-32.2	-37.8	6.1	5.40e-01	0	44	104	9437184	25	6811
2026-01-02 09:44:37.02	131.68	24.93	-31.2	-34.9	8.7	6.35e-02	0	44	0	2097152	23	5506
2026-01-02 09:44:38.01	131.58	25.07	-30.0	-32.3	11.2	3.02e-03	0	43	0	5242880	21	4703
2026-01-02 09:44:39.00	131.48	25.22	-29.1	-30.9	12.8	1.26e-04	0	44	0	8388608	19	4467
2026-01-02 09:44:40.00	131.37	25.37	-28.3	-29.6	13.9	2.20e-06	0	44	0	11534336	18	4166
2026-01-02 09:44:41.00	131.27	25.53	-28.0	-29.3	14.4	7.00e-07	0	43	0	14680064	17	4181
2026-01-02 09:44:41.99	131.16	25.68	-28.0	-29.3	14.3	1.50e-06	0	43	0	16777216	17	4185
2026-01-02 09:44:42.99	131.06	25.83	-28.3	-30.1	13.9	2.20e-06	0	43	0	19922944	17	4436
2026-01-02 09:44:43.99	130.95	25.99	-28.3	-30.0	13.9	2.20e-06	0	43	0	23068672	17	4397
2026-01-02 09:44:44.98	130.84	26.14	-28.1	-29.6	14.2	1.50e-06	0	44	0	26214400	17	4269
2026-01-02 09:44:45.98	130.73	26.30	-28.3	-30.0	13.9	2.20e-06	0	43	0	29360128	17	4381
2026-01-02 09:44:46.97	130.62	26.45	-28.1	-29.5	14.2	3.00e-06	0	43	0	32505856	17	4252
2026-01-02 09:44:47.98	130.51	26.61	-27.9	-29.2	14.5	2.20e-06	0	43	0	35651584	17	4161
2026-01-02 09:44:48.97	130.39	26.77	-27.9	-29.0	14.6	7.00e-07	0	43	0	38797312	17	4114
2026-01-02 09:44:49.97	130.28	26.93	-27.9	-29.0	14.6	0.00e+00	0	43	0	41943040	17	4105
2026-01-02 09:44:50.97	130.16	27.09	-27.9	-29.0	14.6	1.50e-06	0	44	0	45088768	17	4115
2026-01-02 09:44:51.96	130.05	27.24	-27.4	-28.5	15.2	0.00e+00	0	43	0	48234496	16	4064
2026-01-02 09:44:52.97	129.93	27.41	-27.0	-28.1	15.5	0.00e+00	0	43	0	51380224	15	4069
2026-01-02 09:44:53.97	129.81	27.57	-26.8	-27.6	15.7	0.00e+00	0	43	0	54525952	15	3944
2026-01-02 09:44:54.97	129.69	27.73	-26.7	-27.9	15.9	0.00e+00	0	43	0	57671680	14	4123
2026-01-02 09:44:55.96	129.57	27.90	-26.8	-28.2	15.7	0.00e+00	0	43	0	60817408	14	4202
2026-01-02 09:44:56.95	129.44	28.06	-26.8	-28.1	15.8	0.00e+00	0	43	0	63963136	14	4174
2026-01-02 09:44:57.94	129.32	28.22	-26.8	-28.1	15.8	0.00e+00	0	44	0	67108864	14	4167
2026-01-02 09:44:58.95	129.19	28.39	-27.0	-28.5	15.6	0.00e+00	0	43	0	70254592	14	4275
2026-01-02 09:44:59.95	129.06	28.56	-26.9	-28.4	15.6	0.00e+00	0	44	0	73400320	14	4270
2026-01-02 09:45:00.95	128.94	28.73	-27.1	-28.9	15.4	0.00e+00	0	43	0	76546048	14	4397
2026-01-02 09:45:01.95	128.81	28.90	-27.1	-28.8	15.4	0.00e+00	0	43	0	79691776	14	4367
2026-01-02 09:45:02.94	128.68	29.06	-27.2	-29.1	15.3	0.00e+00	0	43	0	82837504	14	4446
2026-01-02 09:45:03.93	128.54	29.23	-27.4	-29.5	15.1	0.00e+00	0	43	0	85983232	14	4560
2026-01-02 09:45:04.93	128.41	29.40	-27.3	-29.2	15.2	0.00e+00	0	43	0	89128960	14	4480
2026-01-02 09:45:05.92	128.27	29.57	-27.1	-28.9	15.4	0.00e+00	0	43	0	92274688	14	4394
2026-01-02 09:45:06.92	128.14	29.75	-27.2	-29.0	15.3	0.00e+00	0	43	0	95420416	14	4424
2026-01-02 09:45:07.92	128.00	29.92	-27.1	-28.7	15.5	0.00e+00	0	43	0	98566144	14	4334
2026-01-02 09:45:08.93	127.86	30.10	-27.0	-28.6	15.6	0.00e+00	0	43	0	101711872	14	4301
2026-01-02 09:45:09.92	127.72	30.27	-27.1	-28.7	15.5	0.00e+00	0	43	0	104857600	14	4349
2026-01-02 09:45:10.92	127.57	30.45	-26.9	-28.3	15.7	0.00e+00	0	43	0	108003328	14	4234
2026-01-02 09:45:11.93	127.43	30.63	-27.1	-28.8	15.4	0.00e+00	0	43	0	111149056	14	4373
2026-01-02 09:45:12.93	127.28	30.81	-26.9	-28.4	15.6	0.00e+00	0	43	0	114294784	14	4258
2026-01-02 09:45:13.92	127.13	30.99	-26.9	-28.3	15.7	0.00e+00	0	44	0	117440512	14	4222
2026-01-02 09:45:14.91	126.98	31.16	-27.0	-28.7	15.5	0.00e+00	0	43	0	120586240	14	4342
2026-01-02 09:45:15.91	126.83	31.34	-27.0	-28.6	15.6	0.00e+00	0	43	0	123731968	14	4303
2026-01-02 09:45:16.89	126.68	31.52	-27.2	-29.0	15.3	0.00e+00	0	43	0	125829120	14	4436
2026-01-02 09:45:17.89	126.53	31.71	-27.1	-28.8	15.5	0.00e+00	0	43	0	128974848	14	4376
2026-01-02 09:45:18.89	126.37	31.89	-27.1	-28.7	15.6	0.00e+00	0	43	0	132120576	14	4337
2026-01-02 09:45:19.88	126.21	32.07	-26.9	-28.3	15.7	0.00e+00	0	44	0	135266304	14	4240
2026-01-02 09:45:20.88	126.05	32.26	-27.0	-28.5	15.6	0.00e+00	0	43	0	138412032	14	4294
2026-01-02 09:45:21.87	125.89	32.44	-26.7	-27.8	16.1	0.00e+00	0	43	0	141557760	14	4083
2026-01-02 09:45:22.87	125.73	32.63	-26.7	-27.8	16.1	0.00e+00	0	43	0	144703488	14	4082
2026-01-02 09:45:23.86	125.56	32.82	-26.5	-27.4	16.3	0.00e+00	0	43	0	147849216	14	3997
2026-01-02 09:45:24.86	125.39	33.01	-26.5	-27.3	16.4	0.00e+00	0	43	0	150994944	14	3955
2026-01-02 09:45:25.87	125.22	33.20	-26.6	-27.7	16.1	0.00e+00	0	43	0	154140672	14	4055
2026-01-02 09:45:26.87	125.05	33.39	-26.5	-27.5	16.2	0.00e+00	0	44	0	157286400	14	4003
2026-01-02 09:45:27.87	124.87	33.58	-26.6	-27.7	16.1	0.00e+00	0	43	0	160432128	14	4057
2026-01-02 09:45:28.87	124.70	33.77	-26.8	-28.1	15.9	0.00e+00	0	44	0	163577856	14	4184
2026-01-02 09:45:29.87	124.52	33.97	-26.9	-28.3	15.8	0.00e+00	0	43	0	166723584	14	4241
2026-01-02 09:45:30.87	124.34	34.16	-27.2	-29.0	15.5	0.00e+00	0	43	0	169869312	14	4416
2026-01-02 09:45:31.87	124.15	34.36	-27.2	-29.0	15.4	0.00e+00	0	43	0	173015040	14	4435
2026-01-02 09:45:32.86	123.97	34.55	-27.5	-29.7	15.1	0.00e+00	0	43	0	176160768	14	4618
2026-01-02 09:45:33.86	123.78	34.75	-27.5	-29.2	15.1	0.00e+00	0	44	0	179306496	15	4360
2026-01-02 09:45:34.85	123.59	34.94	-27.5	-29.1	15.1	0.00e+00	0	43	0	182452224	15	4340
2026-01-02 09:45:35.85	123.40	35.14	-27.6	-29.3	15.0	0.00e+00	0	43	0	185597952	15	4391
2026-01-02 09:45:36.85	123.21	35.34	-27.6	-29.3	15.0	0.00e+00	0	43	0	188743680	15	4385
2026-01-02 09:45:37.84	123.01	35.54	-27.6	-29.3	15.0	0.00e+00	0	43	0	191889408	15	4386
2026-01-02 09:45:38.83	122.81	35.74	-27.8	-29.7	14.8	0.00e+00	0	43	0	195035136	15	4521
2026-01-02 09:45:39.82	122.61	35.94	-27.8	-29.9	14.7	0.00e+00	0	43	0	198180864	15	4561
2026-01-02 09:45:40.81	122.41	36.14	-28.0	-30.3	14.5	7.00e-07	0	43	0	201326592	15	4684
2026-01-02 09:45:41.82	122.20	36.35	-28.2	-30.2	14.4	0.00e+00	0	43	0	204472320	16	4525
2026-01-02 09:45:42.82	121.99	36.55	-28.3	-30.5	14.3	0.00e+00	0	43	0	207618048	16	4618
2026-01-02 09:45:43.81	121.78	36.76	-28.4	-30.6	14.1	0.00e+00	0	43	0	210763776	16	4660
2026-01-02 09:45:44.81	121.57	36.96	-28.4	-30.7	14.1	3.80e-06	0	43	0	213909504	16	4705
2026-01-02 09:45:45.81	121.35	37.17	-28.5	-30.8	14.0	2.20e-06	0	43	0	217055232	16	4732
2026-01-02 09:45:46.81	121.13	37.38	-28.4	-30.6	14.2	2.20e-06	0	43	0	220200960	16	4668
2026-01-02 09:45:47.80	120.91	37.59	-28.5	-30.8	14.1	1.50e-06	0	43	0	223346688	16	4725
2026-01-02 09:45:48.80	120.68	37.80	-28.3	-30.4	14.3	7.00e-07	0	43	0	225443840	16	4580
2026-01-02 09:45:49.80	120.45	38.01	-28.3	-30.5	14.2	0.00e+00	0	43	0	228589568	16	4629
2026-01-02 09:45:50.79	120.22	38.22	-28.4	-30.6	14.1	1.50e-06	0	43	0	231735296	16	4663
2026-01-02 09:45:51.79	119.98	38.43	-28.6	-30.7	13.8	7.00e-07	0	44	0	234881024	17	4578
2026-01-02 09:45:52.79	119.75	38.64	-28.6	-30.6	13.9	4.50e-06	0	44	0	238026752	17	4542
2026-01-02 09:45:53.78	119.51	38.85	-28.5	-30.5	13.9	2.20e-06	0	43	0	241172480	17	4519
2026-01-02 09:45:54.77	119.26	39.07	-28.4	-30.3	14.1	4.50e-06	0	43	0	244318208	17	4446
2026-01-02 09:45:55.77	119.02	39.28	-28.4	-30.2	14.1	3.80e-06	0	44	0	247463936	17	4438
2026-01-02 09:45:56.78	118.76	39.50	-28.3	-30.0	14.3	7.00e-07	0	44	0	250609664	17	4352
2026-01-02 09:45:57.77	118.51	39.71	-28.4	-30.2	14.2	7.00e-07	0	43	0	253755392	17	4417
2026-01-02 09:45:58.78	118.25	39.93	-28.4	-30.3	14.1	1.50e-06	0	43	0	256901120	17	4446
2026-01-02 09:45:59.79	117.98	40.15	-28.6	-30.7	13.9	2.20e-06	0	43	0	260046848	17	4560
2026-01-02 09:46:00.78	117.72	40.37	-28.6	-30.6	13.9	9.10e-06	0	43	0	263192576	17	4556
2026-01-02 09:46:01.77	117.45	40.59	-28.8	-31.2	13.5	8.30e-06	0	43	0	266338304	17	4730
2026-01-02 09:46:02.76	117.18	40.80	-28.7	-31.0	13.7	1.14e-05	0	43	0	269484032	17	4656
2026-01-02 09:46:03.76	116.91	41.03	-28.7	-30.8	13.8	5.30e-06	0	43	0	272629760	17	4614
2026-01-02 09:46:04.75	116.63	41.24	-28.6	-30.8	13.9	2.20e-06	0	43	0	275775488	17	4593
2026-01-02 09:46:05.75	116.34	41.47	-28.5	-30.5	14.0	3.00e-06	0	44	0	278921216	17	4515
2026-01-02 09:46:06.74	116.06	41.69	-28.7	-30.9	13.8	1.50e-06	0	43	0	282066944	17	4621
2026-01-02 09:46:07.74	115.77	41.91	-28.8	-31.1	13.6	8.30e-06	0	43	0	285212672	17	4709
2026-01-02 09:46:08.74	115.47	42.13	-29.2	-31.5	13.1	1.75e-05	0	43	0	288358400	18	4708
2026-01-02 09:46:09.74	115.17	42.35	-29.3	-31.8	12.9	5.26e-05	0	43	0	291504128	18	4814
2026-01-02 09:46:10.74	114.86	42.58	-29.5	-32.2	12.7	7.01e-05	0	43	0	294649856	18	4950
2026-01-02 09:46:11.73	114.56	42.80	-29.5	-31.9	12.6	7.85e-05	0	43	0	297795584	19	4722
2026-01-02 09:46:12.73	114.24	43.03	-29.3	-31.4	12.9	4.88e-05	0	43	0	300941312	19	4570
2026-01-02 09:46:13.72	113.93	43.25	-29.1	-30.9	13.2	2.67e-05	0	43	0	304087040	19	4407
2026-01-02 09:46:14.72	113.61	43.47	-29.1	-30.8	13.3	1.37e-05	0	43	0	307232768	19	4391
2026-01-02 09:46:15.71	113.28	43.70	-29.0	-30.7	13.3	1.44e-05	0	44	0	310378496	19	4338
2026-01-02 09:46:16.72	112.95	43.93	-29.1	-30.9	13.2	1.60e-05	0	43	0	313524224	19	4412
2026-01-02 09:46:17.71	112.61	44.15	-29.3	-31.3	13.0	2.51e-05	0	43	0	316669952	19	4540
2026-01-02 09:46:18.70	112.28	44.37	-29.7	-32.4	12.3	1.01e-04	0	43	0	319815680	19	4914
2026-01-02 09:46:19.70	111.93	44.60	-29.9	-32.9	12.0	2.68e-04	0	43	0	322961408	19	5076
2026-01-02 09:46:20.69	111.58	44.82	-30.0	-32.7	11.7	5.22e-04	0	43	0	325058560	20	4925
2026-01-02 09:46:21.69	111.23	45.05	-30.0	-32.5	11.9	4.56e-04	0	43	0	328204288	20	4850
2026-01-02 09:46:22.69	110.87	45.28	-29.6	-31.7	12.4	1.77e-04	0	43	0	331350016	20	4570
2026-01-02 09:46:23.68	110.50	45.50	-29.7	-31.9	12.3	1.75e-04	0	43	0	334495744	20	4637
2026-01-02 09:46:24.67	110.13	45.73	-29.7	-31.9	12.3	2.16e-04	0	43	0	337641472	20	4618
2026-01-02 09:46:25.66	109.76	45.95	-29.7	-31.8	12.3	1.65e-04	0	43	0	340787200	20	4611
2026-01-02 09:46:26.66	109.38	46.18	-29.9	-32.3	12.0	2.51e-04	0	43	0	343932928	20	4766
2026-01-02 09:46:27.65	108.99	46.40	-29.9	-32.3	12.0	4.94e-04	0	43	0	347078656	20	4750
2026-01-02 09:46:28.63	108.61	46.62	-30.0	-32.6	11.8	3.55e-04	0	43	0	350224384	20	4854
2026-01-02 09:46:29.63	108.21	46.85	-30.0	-32.6	11.9	4.40e-04	0	43	0	353370112	20	4852
2026-01-02 09:46:30.63	107.80	47.07	-29.9	-32.3	12.0	3.95e-04	0	43	0	356515840	20	4774
2026-01-02 09:46:31.62	107.40	47.30	-29.8	-32.2	12.1	2.89e-04	0	43	0	359661568	20	4731
2026-01-02 09:46:32.61	106.98	47.52	-29.8	-32.0	12.2	2.49e-04	0	43	0	362807296	20	4668
2026-01-02 09:46:33.61	106.56	47.74	-29.6	-31.5	12.5	1.75e-04	0	43	0	365953024	20	4513
2026-01-02 09:46:34.61	106.13	47.97	-29.2	-31.0	13.2	2.97e-05	0	43	0	369098752	19	4459
2026-01-02 09:46:35.61	105.70	48.19	-28.8	-30.1	13.7	5.30e-06	0	43	0	372244480	19	4177
2026-01-02 09:46:36.60	105.26	48.41	-28.6	-30.1	14.1	6.10e-06	0	43	0	375390208	18	4280
2026-01-02 09:46:37.61	104.81	48.63	-28.6	-30.2	14.0	1.50e-06	0	43	0	378535936	18	4303
2026-01-02 09:46:38.61	104.35	48.85	-28.8	-30.5	13.8	2.20e-06	0	43	0	381681664	18	4413
2026-01-02 09:46:39.61	103.89	49.07	-28.7	-30.3	13.9	6.10e-06	0	43	0	384827392	18	4354
2026-01-02 09:46:40.60	103.43	49.29	-28.7	-30.3	14.0	3.00e-06	0	43	0	387973120	18	4323
2026-01-02 09:46:41.60	102.95	49.51	-28.5	-29.9	14.2	3.00e-06	0	43	0	391118848	18	4230
2026-01-02 09:46:42.60	102.47	49.72	-28.5	-29.8	14.3	5.30e-06	0	43	0	394264576	18	4187
2026-01-02 09:46:43.59	101.99	49.94	-28.6	-30.1	14.0	7.00e-07	0	43	0	397410304	18	4280
2026-01-02 09:46:44.58	101.50	50.15	-29.0	-31.0	13.6	7.60e-06	0	43	0	400556032	18	4548
2026-01-02 09:46:45.56	101.01	50.36	-29.0	-31.0	13.6	7.60e-06	0	44	0	403701760	18	4544
2026-01-02 09:46:46.56	100.50	50.57	-28.8	-30.6	13.8	1.50e-06	0	43	0	406847488	18	4414
2026-01-02 09:46:47.56	99.98	50.78	-28.9	-30.8	13.7	3.80e-06	0	43	0	409993216	18	4490
2026-01-02 09:46:48.56	99.46	50.99	-29.1	-31.3	13.3	1.37e-05	0	44	0	413138944	18	4641
2026-01-02 09:46:49.55	98.93	51.19	-28.9	-30.7	13.7	1.22e-05	0	43	0	416284672	18	4467
2026-01-02 09:46:50.55	98.39	51.40	-28.7	-30.3	13.9	2.20e-06	0	44	0	419430400	18	4339
2026-01-02 09:46:51.55	97.85	51.60	-28.4	-29.7	14.3	7.00e-07	0	43	0	421527552	18	4179
2026-01-02 09:46:52.54	97.30	51.80	-28.2	-29.8	14.6	0.00e+00	0	43	0	424673280	17	4289
2026-01-02 09:46:53.54	96.74	52.00	-28.1	-29.5	14.6	7.00e-07	0	43	0	427819008	17	4216
2026-01-02 09:46:54.54	96.17	52.19	-28.4	-30.0	14.4	7.00e-07	0	43	0	430964736	17	4371
2026-01-02 09:46:55.53	95.60	52.39	-28.4	-30.3	14.2	1.50e-06	0	43	0	434110464	17	4442
2026-01-02 09:46:56.53	95.02	52.58	-28.1	-29.5	14.7	0.00e+00	0	43	0	437256192	17	4211
2026-01-02 09:46:57.53	94.43	52.77	-27.8	-28.7	15.2	0.00e+00	0	43	0	440401920	17	4007
2026-01-02 09:46:58.52	93.83	52.96	-27.7	-29.0	15.3	0.00e+00	0	43	0	443547648	16	4170
2026-01-02 09:46:59.51	93.23	53.14	-27.7	-29.1	15.2	0.00e+00	0	43	0	446693376	16	4220
2026-01-02 09:47:00.49	92.63	53.32	-27.8	-29.2	15.2	0.00e+00	0	43	0	449839104	16	4233
2026-01-02 09:47:01.48	92.02	53.50	-27.7	-29.1	15.2	0.00e+00	0	43	0	452984832	16	4205
2026-01-02 09:47:02.48	91.39	53.68	-27.8	-29.3	15.1	0.00e+00	0	43	0	456130560	16	4268
2026-01-02 09:47:03.48	90.75	53.85	-28.0	-29.7	14.9	0.00e+00	0	43	0	459276288	16	4376
2026-01-02 09:47:04.47	90.11	54.02	-28.0	-29.8	14.8	0.00e+00	0	44	0	462422016	16	4424
2026-01-02 09:47:05.47	89.46	54.19	-28.0	-29.7	14.9	0.00e+00	0	43	0	465567744	16	4385
2026-01-02 09:47:06.47	88.80	54.35	-27.9	-29.4	15.1	0.00e+00	0	44	0	468713472	16	4299
2026-01-02 09:47:07.45	88.15	54.51	-27.8	-29.2	15.2	0.00e+00	0	44	0	471859200	16	4231
2026-01-02 09:47:08.45	87.47	54.67	-27.8	-29.2	15.1	0.00e+00	0	43	0	475004928	16	4253
2026-01-02 09:47:09.45	86.79	54.82	-27.9	-29.5	15.0	7.00e-07	0	44	0	478150656	16	4335
2026-01-02 09:47:10.44	86.11	54.97	-27.9	-29.4	15.0	0.00e+00	0	43	0	481296384	16	4306
2026-01-02 09:47:11.45	85.41	55.12	-27.7	-29.1	15.2	0.00e+00	0	43	0	484442112	16	4224
2026-01-02 09:47:12.45	84.70	55.26	-27.8	-29.2	15.2	0.00e+00	0	43	0	487587840	16	4232
2026-01-02 09:47:13.44	84.00	55.40	-27.6	-28.8	15.4	0.00e+00	0	43	0	490733568	16	4123
2026-01-02 09:47:14.43	83.29	55.54	-27.1	-28.1	15.9	0.00e+00	0	43	0	493879296	15	4063
2026-01-02 09:47:15.43	82.56	55.67	-27.1	-28.3	15.8	0.00e+00	0	43	0	497025024	15	4106
2026-01-02 09:47:16.42	81.84	55.79	-27.2	-28.5	15.7	0.00e+00	0	43	0	500170752	15	4169
2026-01-02 09:47:17.42	81.10	55.92	-27.4	-28.9	15.4	0.00e+00	0	43	0	503316480	15	4277
2026-01-02 09:47:18.43	80.35	56.04	-27.5	-29.2	15.3	1.50e-06	0	44	0	506462208	15	4350
2026-01-02 09:47:19.42	79.61	56.15	-27.3	-28.6	15.6	0.00e+00	0	43	0	509607936	15	4199
2026-01-02 09:47:20.43	78.84	56.26	-27.4	-28.8	15.5	0.00e+00	0	44	0	512753664	15	4259
2026-01-02 09:47:21.42	78.09	56.36	-27.3	-28.5	15.6	0.00e+00	0	43	0	515899392	15	4173
2026-01-02 09:47:22.42	77.32	56.46	-27.1	-28.2	15.8	0.00e+00	0	43	0	519045120	15	4080
2026-01-02 09:47:23.42	76.55	56.56	-27.1	-28.2	15.8	0.00e+00	0	43	0	522190848	15	4079
2026-01-02 09:47:24.41	75.78	56.65	-27.1	-28.2	15.8	0.00e+00	0	43	0	524288000	15	4070
2026-01-02 09:47:25.41	74.99	56.73	-27.1	-28.2	15.8	0.00e+00	0	43	0	527433728	15	4081
2026-01-02 09:47:26.40	74.21	56.81	-27.1	-28.2	15.8	0.00e+00	0	43	0	530579456	15	4093
2026-01-02 09:47:27.40	73.42	56.88	-26.8	-27.9	16.2	2.20e-06	0	43	0	533725184	14	4110
2026-01-02 09:47:28.40	72.62	56.95	-26.9	-28.3	16.1	0.00e+00	0	43	0	536870912	14	4211
2026-01-02 09:47:29.39	71.83	57.02	-27.1	-28.8	15.8	0.00e+00	0	43	0	540016640	14	4348
2026-01-02 09:47:30.39	71.03	57.08	-27.4	-29.3	15.5	2.20e-06	0	43	0	543162368	14	4497
2026-01-02 09:47:31.38	70.23	57.13	-27.6	-29.3	15.2	0.00e+00	0	43	0	546308096	15	4388
2026-01-02 09:47:32.38	69.42	57.18	-27.7	-29.6	15.1	0.00e+00	0	43	0	549453824	15	4468
2026-01-02 09:47:33.38	68.60	57.22	-27.4	-29.0	15.4	0.00e+00	0	43	0	552599552	15	4290
2026-01-02 09:47:34.37	67.80	57.26	-27.0	-27.9	16.0	0.00e+00	0	44	0	555745280	15	4010
2026-01-02 09:47:35.38	66.97	57.29	-26.9	-27.7	16.2	0.00e+00	0	43	0	558891008	15	3948
2026-01-02 09:47:36.38	66.15	57.31	-26.9	-27.8	16.1	0.00e+00	0	43	0	562036736	15	3984
2026-01-02 09:47:37.38	65.33	57.34	-27.1	-28.3	15.8	0.00e+00	0	43	0	565182464	15	4104
2026-01-02 09:47:38.39	64.50	57.35	-27.0	-28.1	15.9	0.00e+00	0	43	0	568328192	15	4051
2026-01-02 09:47:39.40	63.67	57.36	-26.6	-27.5	16.5	1.50e-06	0	43	0	571473920	14	4013
2026-01-02 09:47:40.40	62.85	57.36	-26.5	-27.4	16.6	0.00e+00	0	43	0	574619648	14	3978
2026-01-02 09:47:41.41	62.02	57.36	-26.5	-27.4	16.6	0.00e+00	0	43	0	577765376	14	3989
2026-01-02 09:47:42.41	61.20	57.35	-26.9	-28.3	16.1	2.20e-06	0	43	0	580911104	14	4214
2026-01-02 09:47:43.42	60.37	57.34	-27.2	-28.9	15.7	0.00e+00	0	43	0	584056832	14	4397
2026-01-02 09:47:44.42	59.54	57.32	-27.1	-28.7	15.9	0.00e+00	0	43	0	587202560	14	4315
2026-01-02 09:47:45.42	58.73	57.30	-27.1	-28.7	15.9	0.00e+00	0	43	0	590348288	14	4320
2026-01-02 09:47:46.42	57.91	57.27	-27.0	-28.5	16.0	0.00e+00	0	43	0	593494016	14	4268
2026-01-02 09:47:47.42	57.09	57.23	-27.0	-28.4	16.0	0.00e+00	0	43	0	596639744	14	4248
2026-01-02 09:47:48.42	56.28	57.19	-27.0	-28.5	16.0	0.00e+00	0	43	0	599785472	14	4264
2026-01-02 09:47:49.42	55.47	57.14	-27.0	-28.4	16.0	0.00e+00	0	43	0	602931200	14	4231
2026-01-02 09:47:50.42	54.66	57.09	-27.0	-28.5	16.0	0.00e+00	0	43	0	606076928	14	4265
2026-01-02 09:47:51.42	53.86	57.03	-26.9	-28.2	16.2	0.00e+00	0	43	0	609222656	14	4174
2026-01-02 09:47:52.42	53.06	56.97	-27.1	-28.8	15.8	0.00e+00	0	43	0	612368384	14	4344
2026-01-02 09:47:53.42	52.26	56.90	-26.6	-27.5	16.4	0.00e+00	0	43	0	615514112	14	4012
2026-01-02 09:47:54.43	51.46	56.83	-26.6	-27.4	16.6	0.00e+00	0	43	0	618659840	14	3980
2026-01-02 09:47:55.43	50.67	56.75	-26.8	-28.0	16.2	0.00e+00	0	43	0	621805568	14	4143
2026-01-02 09:47:56.43	49.89	56.66	-26.7	-27.9	16.3	0.00e+00	0	43	0	624951296	14	4095
2026-01-02 09:47:57.43	49.11	56.57	-26.8	-27.9	16.3	0.00e+00	0	43	0	628097024	14	4110
2026-01-02 09:47:58.43	48.33	56.48	-26.8	-28.1	16.2	0.00e+00	0	43	0	631242752	14	4149
2026-01-02 09:47:59.42	47.57	56.38	-26.9	-28.3	16.1	0.00e+00	0	43	0	634388480	14	4205
2026-01-02 09:48:00.43	46.80	56.28	-27.0	-28.5	16.0	0.00e+00	0	43	0	637534208	14	4255
2026-01-02 09:48:01.42	46.05	56.17	-27.3	-29.1	15.6	0.00e+00	0	43	0	640679936	14	4451
2026-01-02 09:48:02.43	45.30	56.06	-27.4	-29.4	15.5	0.00e+00	0	43	0	643825664	14	4533
2026-01-02 09:48:03.43	44.55	55.94	-27.5	-29.2	15.3	7.00e-07	0	43	0	646971392	15	4338
2026-01-02 09:48:04.43	43.81	55.82	-27.7	-29.5	15.1	0.00e+00	0	43	0	650117120	15	4427
2026-01-02 09:48:05.44	43.07	55.69	-27.6	-29.4	15.1	0.00e+00	0	43	0	653262848	15	4408
2026-01-02 09:48:06.44	42.35	55.56	-27.6	-29.3	15.1	0.00e+00	0	43	0	656408576	15	4397
2026-01-02 09:48:07.44	41.63	55.43	-27.6	-29.2	15.2	0.00e+00	0	43	0	659554304	15	4359
2026-01-02 09:48:08.45	40.91	55.29	-27.3	-28.6	15.6	0.00e+00	0	43	0	662700032	15	4189
2026-01-02 09:48:09.46	40.20	55.14	-27.3	-28.6	15.6	0.00e+00	0	43	0	665845760	15	4193
2026-01-02 09:48:10.46	39.51	55.00	-27.3	-28.6	15.6	0.00e+00	0	43	0	668991488	15	4187
2026-01-02 09:48:11.47	38.81	54.85	-27.4	-28.9	15.4	0.00e+00	0	43	0	672137216	15	4266
2026-01-02 09:48:12.48	38.12	54.69	-27.6	-29.3	15.2	0.00e+00	0	43	0	675282944	15	4374
2026-01-02 09:48:13.48	37.45	54.53	-27.9	-30.1	14.8	0.00e+00	0	43	0	678428672	15	4603
2026-01-02 09:48:14.48	36.78	54.37	-28.6	-30.6	14.1	2.20e-06	0	43	0	681574400	17	4532
2026-01-02 09:48:15.48	36.12	54.21	-27.9	-29.0	14.8	7.00e-07	0	43	0	684720128	17	4084
2026-01-02 09:48:16.48	35.47	54.04	-27.7	-29.0	15.1	0.00e+00	0	43	0	687865856	16	4183
2026-01-02 09:48:17.49	34.82	53.87	-27.7	-28.9	15.3	7.00e-07	0	43	0	691011584	16	4171
2026-01-02 09:48:18.49	34.18	53.69	-27.6	-28.9	15.3	0.00e+00	0	43	0	694157312	16	4154
2026-01-02 09:48:19.49	33.55	53.52	-27.4	-28.3	15.5	0.00e+00	0	43	0	697303040	16	4009
2026-01-02 09:48:20.49	32.93	53.34	-27.8	-29.3	15.1	0.00e+00	0	44	0	700448768	16	4265
2026-01-02 09:48:21.50	32.31	53.15	-28.6	-30.7	14.0	1.50e-06	0	43	0	703594496	17	4561
2026-01-02 09:48:22.50	31.71	52.97	-28.8	-31.1	13.8	4.50e-06	0	43	0	706740224	17	4695
2026-01-02 09:48:23.51	31.11	52.78	-28.4	-30.1	14.3	2.20e-06	0	44	0	709885952	17	4371
2026-01-02 09:48:24.51	30.52	52.59	-27.9	-28.9	15.0	0.00e+00	0	43	0	713031680	17	4050
2026-01-02 09:48:25.51	29.93	52.40	-27.8	-29.3	15.0	0.00e+00	0	43	0	716177408	16	4247
2026-01-02 09:48:26.51	29.36	52.20	-27.9	-29.3	15.0	0.00e+00	0	43	0	719323136	16	4269
2026-01-02 09:48:27.52	28.79	52.01	-28.5	-30.8	14.2	0.00e+00	0	43	0	722468864	16	4702
2026-01-02 09:48:28.52	28.23	51.81	-29.3	-31.7	13.1	1.60e-05	0	43	0	725614592	18	4775
2026-01-02 09:48:29.53	27.67	51.60	-29.6	-32.2	12.5	6.86e-05	0	43	0	727711744	19	4825
2026-01-02 09:48:30.53	27.13	51.40	-29.7	-32.2	12.4	1.88e-04	0	43	0	730857472	19	4832
2026-01-02 09:48:31.54	26.58	51.19	-28.9	-30.4	13.5	1.83e-05	0	44	0	734003200	19	4277
2026-01-02 09:48:32.54	26.05	50.99	-28.0	-29.3	14.7	0.00e+00	0	43	0	737148928	17	4155
2026-01-02 09:48:33.55	25.53	50.78	-27.9	-29.6	14.9	0.00e+00	0	44	0	741343232	16	4341
2026-01-02 09:48:34.55	25.01	50.57	-28.8	-31.1	13.6	7.00e-07	0	43	0	744488960	17	4696
2026-01-02 09:48:35.55	24.50	50.36	-29.8	-32.8	11.9	1.98e-04	0	43	0	747634688	19	5049
2026-01-02 09:48:36.55	24.00	50.15	-30.2	-33.1	11.4	1.21e-03	0	43	0	750780416	20	5070
2026-01-02 09:48:37.55	23.51	49.93	-29.9	-32.4	11.9	4.70e-04	0	43	0	752877568	20	4812
2026-01-02 09:48:38.56	23.02	49.72	-29.6	-31.7	12.4	1.85e-04	0	43	0	756023296	20	4577
2026-01-02 09:48:39.56	22.54	49.50	-29.6	-31.6	12.4	1.49e-04	0	43	0	759169024	20	4543
2026-01-02 09:48:40.56	22.07	49.28	-29.3	-31.3	13.0	8.39e-05	0	43	0	762314752	19	4526
2026-01-02 09:48:41.57	21.60	49.06	-28.9	-30.3	13.6	7.60e-06	0	43	0	765460480	19	4234
2026-01-02 09:48:42.57	21.14	48.84	-29.4	-31.6	12.8	4.65e-05	0	44	0	768606208	19	4625
2026-01-02 09:48:43.57	20.68	48.62	-29.9	-33.0	11.7	4.58e-04	0	43	0	771751936	19	5102
2026-01-02 09:48:44.58	20.23	48.40	-30.8	-34.4	10.1	2.98e-03	0	43	0	774897664	21	5460
2026-01-02 09:48:45.58	19.79	48.18	-31.1	-34.7	9.6	1.52e-02	0	44	0	778043392	22	5485
2026-01-02 09:48:46.59	19.36	47.96	-30.3	-32.4	11.1	4.07e-03	0	43	0	781189120	22	4587
2026-01-02 09:48:47.59	18.93	47.73	-29.1	-30.9	13.1	7.85e-05	0	43	0	784334848	19	4408
2026-01-02 09:48:48.60	18.50	47.51	-28.4	-29.6	14.3	7.00e-07	0	44	0	787480576	18	4145
2026-01-02 09:48:49.60	18.09	47.28	-28.6	-30.6	14.0	3.00e-06	0	43	0	790626304	17	4524
2026-01-02 09:48:50.60	17.68	47.06	-28.9	-31.3	13.5	5.30e-06	0	43	0	793772032	17	4769
2026-01-02 09:48:51.60	17.28	46.84	-29.6	-32.1	12.4	4.80e-05	0	43	0	796917760	19	4794
2026-01-02 09:48:52.61	16.87	46.61	-30.0	-32.7	11.6	6.04e-04	0	43	0	800063488	20	4907
2026-01-02 09:48:53.61	16.48	46.38	-30.5	-33.7	10.7	1.62e-03	0	43	0	803209216	21	5156
2026-01-02 09:48:54.61	16.10	46.16	-30.8	-34.5	10.1	7.03e-03	0	43	0	806354944	21	5496
2026-01-02 09:48:55.62	15.71	45.93	-30.5	-33.7	10.6	4.19e-03	0	43	0	809500672	21	5158
2026-01-02 09:48:56.62	15.34	45.70	-30.1	-32.5	11.4	1.53e-03	0	43	0	812646400	21	4731
2026-01-02 09:48:57.62	14.97	45.48	-29.9	-31.8	11.9	4.04e-04	0	43	0	815792128	21	4502
2026-01-02 09:48:58.62	14.60	45.25	-30.3	-33.0	11.1	9.54e-04	0	43	0	818937856	21	4914
2026-01-02 09:48:59.62	14.25	45.03	-30.5	-33.6	10.7	2.74e-03	0	43	0	822083584	21	5125
2026-01-02 09:49:00.62	13.89	44.80	-30.5	-33.5	10.8	2.16e-03	0	43	0	825229312	21	5074
2026-01-02 09:49:01.62	13.54	44.58	-30.8	-34.2	10.3	4.25e-03	0	44	0	828375040	21	5374
2026-01-02 09:49:02.63	13.19	44.35	-30.9	-34.7	10.0	6.84e-03	0	43	0	831520768	21	5583
2026-01-02 09:49:03.63	12.86	44.12	-31.1	-34.6	9.7	1.05e-02	0	43	0	834666496	22	5432
2026-01-02 09:49:04.64	12.52	43.90	-31.1	-34.8	9.6	1.22e-02	0	43	0	837812224	22	5504
2026-01-02 09:49:05.64	12.19	43.67	-31.1	-34.9	9.5	1.46e-02	0	43	0	840957952	22	5550
2026-01-02 09:49:06.64	11.86	43.45	-30.9	-34.3	9.9	9.48e-03	0	43	0	844103680	22	5293
2026-01-02 09:49:07.64	11.54	43.22	-30.6	-33.4	10.5	5.09e-03	0	43	0	847249408	22	4936
2026-01-02 09:49:08.64	11.23	43.00	-30.6	-33.4	10.5	3.30e-03	0	43	0	850395136	22	4944
2026-01-02 09:49:09.65	10.91	42.77	-30.6	-33.2	10.6	3.23e-03	0	43	0	853540864	22	4891
2026-01-02 09:49:10.65	10.61	42.55	-30.5	-33.1	10.6	2.93e-03	0	43	0	856686592	22	4857
2026-01-02 09:49:11.65	10.30	42.33	-30.6	-33.2	10.6	3.45e-03	0	43	0	859832320	22	4876
2026-01-02 09:49:12.65	10.01	42.10	-31.0	-34.4	9.8	8.21e-03	0	43	0	862978048	22	5366
2026-01-02 09:49:13.65	9.71	41.88	-30.8	-34.0	10.0	1.14e-02	0	43	0	866123776	22	5201
2026-01-02 09:49:14.66	9.42	41.66	-30.1	-32.4	11.3	2.11e-03	0	43	0	869269504	21	4721
2026-01-02 09:49:15.66	9.13	41.44	-29.4	-31.2	12.5	1.97e-04	0	43	0	872415232	20	4403
2026-01-02 09:49:16.67	8.85	41.21	-29.0	-30.6	13.3	2.67e-05	0	43	0	875560960	19	4340
2026-01-02 09:49:17.68	8.57	40.99	-28.9	-30.4	13.4	1.75e-05	0	43	0	878706688	19	4282
2026-01-02 09:49:18.68	8.29	40.77	-29.0	-30.6	13.3	2.05e-05	0	43	0	881852416	19	4324
2026-01-02 09:49:19.69	8.02	40.55	-29.1	-30.9	13.1	2.59e-05	0	43	0	884998144	19	4423
2026-01-02 09:49:20.69	7.75	40.33	-29.2	-31.1	13.0	3.05e-05	0	43	0	888143872	19	4468
2026-01-02 09:49:21.69	7.49	40.12	-29.2	-31.0	13.0	4.42e-05	0	43	0	891289600	19	4464
2026-01-02 09:49:22.69	7.23	39.90	-29.2	-31.1	13.0	3.66e-05	0	43	0	894435328	19	4478
2026-01-02 09:49:23.69	6.97	39.68	-29.4	-31.7	12.6	6.94e-05	0	43	0	897581056	19	4664
2026-01-02 09:49:24.70	6.72	39.47	-29.6	-32.2	12.3	2.09e-04	0	43	0	900726784	19	4849
2026-01-02 09:49:25.70	6.47	39.25	-29.6	-32.2	12.3	1.79e-04	0	43	0	903872512	19	4852
2026-01-02 09:49:26.71	6.22	39.03	-29.4	-31.6	12.6	1.33e-04	0	43	0	907018240	19	4653
2026-01-02 09:49:27.72	5.97	38.82	-29.0	-30.6	13.2	3.89e-05	0	43	0	910163968	19	4335
2026-01-02 09:49:28.72	5.73	38.61	-28.7	-30.5	13.6	1.52e-05	0	43	0	913309696	18	4411
2026-01-02 09:49:29.73	5.49	38.39	-28.7	-30.3	13.7	7.60e-06	0	43	0	916455424	18	4355
2026-01-02 09:49:30.73	5.26	38.18	-29.0	-31.0	13.3	6.10e-06	0	43	0	919601152	18	4570
2026-01-02 09:49:31.73	5.03	37.97	-29.0	-31.2	13.1	3.20e-05	0	43	0	922746880	18	4638
2026-01-02 09:49:32.73	4.80	37.76	-29.1	-31.5	13.0	2.74e-05	0	43	0	925892608	18	4709
2026-01-02 09:49:33.74	4.58	37.55	-29.4	-32.1	12.6	6.86e-05	0	43	0	929038336	18	4920
2026-01-02 09:49:34.74	4.35	37.34	-29.3	-31.8	12.8	6.79e-05	0	43	0	932184064	18	4816
2026-01-02 09:49:35.75	4.13	37.14	-29.1	-31.4	13.0	4.65e-05	0	43	0	935329792	18	4705
2026-01-02 09:49:36.76	3.91	36.93	-28.9	-31.0	13.3	2.67e-05	0	43	0	938475520	18	4561
2026-01-02 09:49:37.76	3.70	36.72	-29.1	-31.4	13.0	2.82e-05	0	43	0	941621248	18	4704
2026-01-02 09:49:38.77	3.49	36.52	-29.0	-31.2	13.1	2.05e-05	0	43	0	944766976	18	4643
2026-01-02 09:49:39.77	3.28	36.31	-29.0	-31.1	13.2	2.74e-05	0	43	0	947912704	18	4605
2026-01-02 09:49:40.77	3.08	36.11	-29.4	-32.2	12.5	6.33e-05	0	43	0	951058432	18	4971
2026-01-02 09:49:41.77	2.87	35.91	-29.4	-31.7	12.5	9.46e-05	0	43	0	954204160	19	4675
2026-01-02 09:49:42.77	2.67	35.71	-29.2	-31.1	12.9	7.24e-05	0	44	0	957349888	19	4513
2026-01-02 09:49:43.78	2.47	35.50	-28.8	-30.2	13.4	1.98e-05	0	43	0	960495616	19	4236
2026-01-02 09:49:44.78	2.28	35.30	-28.4	-29.8	14.0	1.50e-06	0	43	0	963641344	18	4206
2026-01-02 09:49:45.78	2.09	35.11	-28.2	-29.7	14.3	7.00e-07	0	44	0	966787072	17	4297
2026-01-02 09:49:46.79	1.89	34.91	-27.9	-29.0	14.7	0.00e+00	0	43	0	969932800	17	4096
2026-01-02 09:49:47.79	1.71	34.71	-27.4	-28.5	15.3	0.00e+00	0	43	0	973078528	16	4051
2026-01-02 09:49:48.80	1.52	34.51	-27.0	-28.1	15.6	0.00e+00	0	43	0	976224256	15	4055
2026-01-02 09:49:49.80	1.34	34.32	-27.0	-28.0	15.7	0.00e+00	0	43	0	979369984	15	4036
2026-01-02 09:49:50.80	1.15	34.12	-27.2	-28.5	15.4	7.00e-07	0	43	0	982515712	15	4163
2026-01-02 09:49:51.81	0.97	33.93	-27.2	-28.4	15.4	0.00e+00	0	43	0	985661440	15	4152
2026-01-02 09:49:52.81	0.80	33.74	-27.1	-28.3	15.4	0.00e+00	0	43	0	988807168	15	4122
2026-01-02 09:49:53.81	0.62	33.54	-27.2	-28.5	15.3	0.00e+00	0	43	0	991952896	15	4178
2026-01-02 09:49:54.82	0.45	33.35	-27.2	-28.4	15.4	0.00e+00	0	43	0	995098624	15	4139
2026-01-02 09:49:55.83	0.28	33.16	-27.2	-28.5	15.3	0.00e+00	0	43	0	998244352	15	4178
2026-01-02 09:49:56.82	0.11	32.97	-27.1	-28.3	15.5	0.00e+00	0	43	0	1001390080	15	4130
2026-01-02 09:49:57.83	359.94	32.78	-27.2	-28.6	15.3	0.00e+00	0	43	0	1004535808	15	4202
2026-01-02 09:49:58.83	359.78	32.60	-27.1	-28.3	15.5	0.00e+00	0	44	0	1007681536	15	4130
2026-01-02 09:49:59.83	359.61	32.41	-27.0	-28.0	15.6	0.00e+00	0	43	0	1010827264	15	4046
2026-01-02 09:50:00.83	359.45	32.23	-27.1	-28.2	15.5	0.00e+00	0	43	0	1013972992	15	4095
2026-01-02 09:50:01.83	359.29	32.04	-27.1	-28.4	15.4	0.00e+00	0	43	0	1017118720	15	4144
2026-01-02 09:50:02.83	359.14	31.86	-27.2	-28.5	15.3	0.00e+00	0	43	0	1020264448	15	4192
2026-01-02 09:50:03.84	358.98	31.67	-27.2	-28.6	15.3	0.00e+00	0	43	0	1023410176	15	4197
2026-01-02 09:50:04.84	358.83	31.49	-27.2	-28.5	15.3	0.00e+00	0	43	0	1026555904	15	4179
2026-01-02 09:50:05.85	358.67	31.31	-27.3	-28.6	15.2	0.00e+00	0	43	0	1029701632	15	4220
2026-01-02 09:50:06.86	358.52	31.13	-27.1	-28.2	15.5	0.00e+00	0	43	0	1032847360	15	4106
2026-01-02 09:50:07.86	358.37	30.95	-27.0	-28.0	15.6	0.00e+00	0	43	0	1035993088	15	4034
2026-01-02 09:50:08.87	358.23	30.77	-26.9	-27.9	15.6	0.00e+00	0	43	0	1039138816	15	4028
2026-01-02 09:50:09.87	358.08	30.59	-26.9	-27.9	15.7	0.00e+00	0	43	0	1042284544	15	4012
2026-01-02 09:50:10.87	357.94	30.42	-27.0	-28.0	15.6	0.00e+00	0	44	0	1045430272	15	4060
2026-01-02 09:50:11.87	357.80	30.24	-26.9	-27.8	15.7	0.00e+00	0	43	0	1048576000	15	3986
2026-01-02 09:50:12.88	357.65	30.06	-26.8	-27.6	15.8	0.00e+00	0	43	0	1050673152	15	3954
2026-01-02 09:50:13.88	357.51	29.89	-26.9	-27.7	15.8	0.00e+00	0	43	0	1053818880	15	3974
2026-01-02 09:50:14.88	357.38	29.72	-26.8	-27.7	15.8	0.00e+00	0	43	0	1056964608	15	3960
2026-01-02 09:50:15.88	357.24	29.55	-27.0	-28.1	15.5	0.00e+00	0	43	0	1060110336	15	4070
2026-01-02 09:50:16.89	357.11	29.37	-27.2	-28.4	15.3	0.00e+00	0	43	0	1063256064	15	4167
2026-01-02 09:50:17.90	356.97	29.20	-27.2	-28.5	15.3	0.00e+00	0	43	0	1067450368	15	4179
2026-01-02 09:50:18.90	356.84	29.03	-27.2	-28.5	15.3	0.00e+00	0	43	0	1070596096	15	4171
2026-01-02 09:50:19.90	356.71	28.86	-27.3	-28.7	15.2	0.00e+00	0	43	0	1073741824	15	4236
2026-01-02 09:50:20.91	356.58	28.69	-27.3	-28.8	15.2	0.00e+00	0	43	0	1075838976	15	4252
2026-01-02 09:50:21.91	356.45	28.53	-27.4	-29.0	15.0	0.00e+00	0	43	0	1078984704	15	4317
2026-01-02 09:50:22.92	356.33	28.36	-27.3	-28.8	15.1	0.00e+00	0	43	0	1082130432	15	4278
2026-01-02 09:50:23.92	356.20	28.20	-27.4	-28.9	15.1	0.00e+00	0	43	0	1085276160	15	4287
2026-01-02 09:50:24.93	356.08	28.03	-27.3	-28.7	15.2	0.00e+00	0	43	0	1088421888	15	4233
2026-01-02 09:50:25.93	355.96	27.87	-27.3	-28.7	15.1	0.00e+00	0	43	0	1091567616	15	4232
2026-01-02 09:50:26.93	355.84	27.70	-27.2	-28.5	15.2	0.00e+00	0	43	0	1094713344	15	4187
2026-01-02 09:50:27.94	355.72	27.54	-27.5	-29.1	14.9	0.00e+00	0	43	0	1097859072	15	4355
2026-01-02 09:50:28.93	355.60	27.38	-27.2	-28.6	15.2	0.00e+00	0	43	0	1101004800	15	4208
2026-01-02 09:50:29.94	355.48	27.22	-27.1	-28.3	15.4	0.00e+00	0	43	0	1104150528	15	4142
2026-01-02 09:50:30.95	355.36	27.06	-27.6	-29.4	14.7	0.00e+00	0	43	0	1107296256	15	4455
2026-01-02 09:50:31.95	355.25	26.90	-27.2	-28.5	15.3	0.00e+00	0	43	0	1110441984	15	4189
2026-01-02 09:50:32.96	355.14	26.74	-26.9	-27.8	15.6	0.00e+00	0	43	0	1113587712	15	4014
2026-01-02 09:50:33.96	355.02	26.58	-26.7	-27.9	15.8	0.00e+00	0	43	0	1116733440	14	4135
2026-01-02 09:50:34.97	354.91	26.43	-26.6	-27.7	15.9	0.00e+00	0	43	0	1119879168	14	4090
2026-01-02 09:50:35.98	354.80	26.27	-26.6	-27.7	15.9	0.00e+00	0	43	0	1123024896	14	4068
2026-01-02 09:50:36.98	354.69	26.11	-26.8	-28.2	15.7	0.00e+00	0	43	0	1126170624	14	4206
2026-01-02 09:50:37.98	354.58	25.96	-26.6	-27.6	15.9	0.00e+00	0	43	0	1129316352	14	4058
2026-01-02 09:50:38.98	354.48	25.81	-26.3	-27.0	16.3	0.00e+00	0	43	0	1132462080	14	3903
2026-01-02 09:50:39.98	354.37	25.65	-26.1	-27.1	16.5	0.00e+00	0	43	0	1135607808	13	4036
2026-01-02 09:50:40.98	354.27	25.50	-26.3	-27.4	16.3	0.00e+00	0	43	0	1138753536	13	4115
2026-01-02 09:50:41.99	354.16	25.35	-26.1	-27.1	16.5	0.00e+00	0	44	0	1141899264	13	4039
2026-01-02 09:50:42.99	354.06	25.20	-26.1	-27.0	16.6	0.00e+00	0	43	0	1145044992	13	4005
2026-01-02 09:50:43.99	353.96	25.05	-26.1	-27.0	16.6	0.00e+00	0	43	0	1148190720	13	4008
2026-01-02 09:50:45.00	353.86	24.90	-26.2	-27.4	16.4	0.00e+00	0	43	0	1151336448	13	4095
2026-01-02 09:50:46.01	353.76	24.75	-26.5	-27.9	16.1	0.00e+00	0	44	0	1154482176	13	4242
2026-01-02 09:50:47.01	353.66	24.60	-26.6	-28.1	16.0	0.00e+00	0	43	0	1157627904	13	4283
2026-01-02 09:50:48.01	353.56	24.46	-27.3	-29.3	15.0	0.00e+00	0	43	0	1160773632	14	4507
2026-01-02 09:50:49.01	353.47	24.31	-27.0	-28.5	15.5	0.00e+00	0	43	0	1163919360	14	4284
2026-01-02 09:50:50.01	353.37	24.17	-26.8	-28.1	15.7	0.00e+00	0	43	0	1167065088	14	4195
2026-01-02 09:50:51.01	353.28	24.02	-26.8	-28.1	15.7	0.00e+00	0	44	0	1170210816	14	4190
2026-01-02 09:50:52.01	353.18	23.88	-26.8	-28.2	15.6	0.00e+00	0	43	0	1173356544	14	4216
2026-01-02 09:50:53.01	353.09	23.74	-26.8	-28.2	15.6	7.00e-07	0	44	0	1176502272	14	4207
2026-01-02 09:50:54.01	353.00	23.59	-26.9	-28.2	15.5	0.00e+00	0	43	0	1179648000	14	4222
2026-01-02 09:50:55.01	352.91	23.45	-26.9	-28.2	15.6	0.00e+00	0	43	0	1182793728	14	4227
2026-01-02 09:50:56.01	352.81	23.31	-26.9	-28.4	15.5	0.00e+00	0	44	0	1185939456	14	4262
2026-01-02 09:50:57.02	352.72	23.17	-27.0	-28.6	15.3	0.00e+00	0	43	0	1189085184	14	4324
2026-01-02 09:50:58.02	352.64	23.03	-26.9	-28.4	15.4	0.00e+00	0	44	0	1192230912	14	4271
2026-01-02 09:50:59.02	352.55	22.89	-27.1	-28.8	15.2	0.00e+00	0	43	0	1195376640	14	4381
2026-01-02 09:51:00.03	352.46	22.75	-27.0	-28.5	15.4	0.00e+00	0	43	0	1198522368	14	4302
2026-01-02 09:51:01.03	352.37	22.62	-26.9	-28.3	15.5	0.00e+00	0	43	0	1201668096	14	4235
2026-01-02 09:51:02.04	352.29	22.48	-26.9	-28.4	15.4	0.00e+00	0	43	0	1204813824	14	4283
2026-01-02 09:51:03.04	352.20	22.34	-26.9	-28.4	15.4	0.00e+00	0	43	0	1207959552	14	4268
2026-01-02 09:51:04.05	352.12	22.21	-27.0	-28.5	15.4	0.00e+00	0	43	0	1211105280	14	4298
2026-01-02 09:51:05.05	352.03	22.07	-27.0	-28.6	15.4	0.00e+00	0	43	0	1214251008	14	4320
2026-01-02 09:51:06.06	351.95	21.94	-27.1	-28.9	15.2	0.00e+00	0	43	0	1217396736	14	4414
2026-01-02 09:51:07.06	351.87	21.80	-27.0	-28.5	15.4	0.00e+00	0	43	0	1220542464	14	4305
2026-01-02 09:51:08.06	351.79	21.67	-27.1	-28.8	15.2	0.00e+00	0	43	0	1223688192	14	4386
2026-01-02 09:51:09.07	351.71	21.54	-27.0	-28.6	15.3	0.00e+00	0	44	0	1226833920	14	4339
2026-01-02 09:51:10.07	351.63	21.40	-27.1	-28.8	15.2	0.00e+00	0	43	0	1229979648	14	4380
2026-01-02 09:51:11.07	351.55	21.27	-27.4	-29.5	14.8	0.00e+00	0	44	0	1233125376	14	4585
2026-01-02 09:51:12.07	351.47	21.14	-27.5	-29.2	14.7	0.00e+00	0	43	0	1236271104	15	4375
2026-01-02 09:51:13.08	351.39	21.01	-27.2	-28.7	14.9	0.00e+00	0	43	0	1239416832	15	4248
2026-01-02 09:51:14.08	351.32	20.88	-27.1	-28.3	15.2	0.00e+00	0	43	0	1242562560	15	4133
2026-01-02 09:51:15.09	351.24	20.75	-27.2	-28.6	15.0	0.00e+00	0	43	0	1245708288	15	4232
2026-01-02 09:51:16.09	351.16	20.63	-27.0	-28.0	15.3	0.00e+00	0	43	0	1248854016	15	4076
2026-01-02 09:51:17.09	351.09	20.50	-27.1	-28.2	15.2	0.00e+00	0	43	0	1251999744	15	4125
2026-01-02 09:51:18.09	351.02	20.37	-27.2	-28.5	15.0	0.00e+00	0	43	0	1255145472	15	4196
2026-01-02 09:51:19.09	350.94	20.25	-27.0	-28.0	15.3	0.00e+00	0	43	0	1258291200	15	4068
2026-01-02 09:51:20.09	350.87	20.12	-27.2	-28.5	15.0	0.00e+00	0	43	0	1261436928	15	4200
2026-01-02 09:51:21.09	350.80	20.00	-26.9	-27.9	15.4	0.00e+00	0	43	0	1264582656	15	4045
2026-01-02 09:51:22.10	350.72	19.87	-26.8	-28.1	15.6	0.00e+00	0	43	0	1267728384	14	4194
2026-01-02 09:51:23.10	350.65	19.75	-26.9	-28.5	15.3	0.00e+00	0	43	0	1270874112	14	4305
2026-01-02 09:51:24.11	350.58	19.62	-26.9	-28.3	15.4	0.00e+00	0	43	0	1274019840	14	4263
2026-01-02 09:51:25.11	350.51	19.50	-27.0	-28.7	15.2	0.00e+00	0	43	0	1277165568	14	4377
2026-01-02 09:51:26.11	350.44	19.38	-27.2	-29.2	14.9	0.00e+00	0	43	0	1280311296	14	4501
2026-01-02 09:51:27.12	350.37	19.25	-27.2	-29.2	14.9	7.00e-07	0	43	0	1283457024	14	4507
2026-01-02 09:51:28.13	350.31	19.13	-27.3	-29.2	14.9	0.00e+00	0	43	0	1286602752	14	4511
2026-01-02 09:51:29.13	350.24	19.01	-27.0	-28.7	15.2	0.00e+00	0	43	0	1289748480	14	4367
2026-01-02 09:51:30.14	350.17	18.89	-27.1	-28.8	15.1	0.00e+00	0	43	0	1292894208	14	4399
2026-01-02 09:51:31.15	350.10	18.77	-27.1	-28.9	15.0	0.00e+00	0	43	0	1296039936	14	4436
2026-01-02 09:51:32.16	350.04	18.65	-27.2	-29.1	14.9	0.00e+00	0	43	0	1299185664	14	4485
2026-01-02 09:51:33.16	349.97	18.53	-27.1	-28.8	15.1	0.00e+00	0	43	0	1302331392	14	4395
2026-01-02 09:51:34.17	349.91	18.41	-27.0	-28.6	15.2	0.00e+00	0	43	0	1305477120	14	4345
2026-01-02 09:51:35.17	349.84	18.30	-27.0	-28.7	15.2	0.00e+00	0	43	0	1308622848	14	4358
2026-01-02 09:51:36.18	349.78	18.18	-27.1	-28.9	15.1	0.00e+00	0	44	0	1311768576	14	4412
2026-01-02 09:51:37.18	349.72	18.06	-27.1	-28.8	15.1	0.00e+00	0	43	0	1314914304	14	4400
2026-01-02 09:51:38.18	349.65	17.95	-27.1	-29.0	15.0	0.00e+00	0	43	0	1318060032	14	4440
2026-01-02 09:51:39.18	349.59	17.83	-27.1	-28.9	15.1	0.00e+00	0	43	0	1321205760	14	4410
2026-01-02 09:51:40.19	349.53	17.72	-27.2	-29.1	14.9	0.00e+00	0	43	0	1324351488	14	4481
2026-01-02 09:51:41.19	349.47	17.60	-27.3	-29.3	14.8	0.00e+00	0	43	0	1327497216	14	4525
2026-01-02 09:51:42.19	349.41	17.49	-27.3	-29.3	14.8	0.00e+00	0	44	0	1330642944	14	4530
2026-01-02 09:51:43.20	349.35	17.37	-27.2	-29.1	14.9	0.00e+00	0	43	0	1333788672	14	4496
2026-01-02 09:51:44.21	349.29	17.26	-27.3	-29.4	14.7	0.00e+00	0	43	0	1336934400	14	4576
2026-01-02 09:51:45.20	349.23	17.15	-27.4	-29.5	14.7	0.00e+00	0	43	0	1340080128	14	4595
2026-01-02 09:51:46.21	349.17	17.04	-27.5	-29.7	14.5	0.00e+00	0	43	0	1343225856	14	4674
2026-01-02 09:51:47.22	349.11	16.92	-27.4	-29.5	14.6	0.00e+00	0	43	0	1346371584	14	4602
2026-01-02 09:51:48.22	349.05	16.81	-27.3	-29.4	14.7	7.00e-07	0	43	0	1349517312	14	4585
2026-01-02 09:51:49.23	348.99	16.70	-27.4	-29.7	14.5	0.00e+00	0	44	0	1352663040	14	4650
2026-01-02 09:51:50.24	348.94	16.59	-27.6	-29.6	14.3	0.00e+00	0	43	0	1355808768	15	4522
2026-01-02 09:51:51.24	348.88	16.48	-27.8	-29.9	14.1	3.80e-06	0	43	0	1358954496	15	4613
2026-01-02 09:51:52.25	348.82	16.37	-27.9	-30.2	13.9	7.00e-07	0	43	0	1362100224	15	4709
2026-01-02 09:51:53.25	348.77	16.26	-28.0	-30.5	13.7	6.80e-06	0	43	0	1365245952	15	4786
2026-01-02 09:51:54.26	348.71	16.15	-28.0	-30.4	13.8	4.50e-06	0	43	0	1368391680	15	4778
2026-01-02 09:51:55.26	348.66	16.05	-28.1	-30.3	13.7	6.10e-06	0	43	0	1371537408	16	4599
2026-01-02 09:51:56.26	348.60	15.94	-28.2	-30.5	13.6	4.50e-06	0	43	0	1374683136	16	4681
2026-01-02 09:51:57.27	348.55	15.83	-28.1	-30.2	13.7	7.60e-06	0	43	0	1377828864	16	4575
2026-01-02 09:51:58.27	348.49	15.73	-28.2	-30.5	13.6	1.06e-05	0	43	0	1380974592	16	4678
2026-01-02 09:51:59.27	348.44	15.62	-28.2	-30.4	13.6	5.30e-06	0	43	0	1384120320	16	4655
2026-01-02 09:52:00.27	348.39	15.51	-28.4	-31.1	13.2	1.60e-05	0	44	0	1387266048	16	4859
2026-01-02 09:52:01.27	348.34	15.41	-28.1	-30.3	13.7	7.60e-06	0	43	0	1390411776	16	4610
2026-01-02 09:52:02.28	348.28	15.30	-27.9	-29.8	14.0	4.50e-06	0	43	0	1393557504	16	4459
2026-01-02 09:52:03.29	348.23	15.20	-27.8	-29.5	14.1	3.00e-06	0	43	0	1396703232	16	4379
2026-01-02 09:52:04.30	348.18	15.09	-27.8	-29.4	14.2	7.00e-07	0	43	0	1398800384	16	4359
2026-01-02 09:52:05.30	348.13	14.99	-27.8	-29.4	14.2	3.00e-06	0	43	0	1402994688	16	4337
2026-01-02 09:52:06.30	348.08	14.89	-27.8	-29.4	14.2	7.00e-07	0	43	0	1406140416	16	4348
2026-01-02 09:52:07.30	348.03	14.79	-27.7	-29.2	14.3	1.50e-06	0	43	0	1409286144	16	4301
2026-01-02 09:52:08.30	347.98	14.68	-27.7	-29.3	14.2	2.20e-06	0	43	0	1412431872	16	4323
2026-01-02 09:52:09.30	347.93	14.58	-27.8	-29.5	14.1	7.00e-07	0	43	0	1415577600	16	4366
2026-01-02 09:52:10.31	347.88	14.48	-27.8	-29.6	14.0	4.50e-06	0	43	0	1418723328	16	4394
2026-01-02 09:52:11.30	347.83	14.38	-27.7	-29.4	14.2	1.50e-06	0	43	0	1420820480	16	4337
2026-01-02 09:52:12.30	347.78	14.28	-27.7	-29.2	14.2	7.00e-07	0	43	0	1423966208	16	4297
2026-01-02 09:52:13.30	347.74	14.18	-27.7	-29.4	14.2	3.80e-06	0	43	0	1427111936	16	4339
2026-01-02 09:52:14.30	347.69	14.08	-27.7	-29.4	14.1	7.00e-07	0	43	0	1430257664	16	4342
2026-01-02 09:52:15.31	347.64	13.98	-27.7	-29.3	14.1	0.00e+00	0	43	0	1433403392	16	4331
2026-01-02 09:52:16.31	347.59	13.88	-27.7	-29.4	14.1	7.00e-07	0	43	0	1436549120	16	4341
2026-01-02 09:52:17.31	347.55	13.78	-27.7	-29.3	14.1	2.20e-06	0	43	0	1439694848	16	4332
2026-01-02 09:52:18.31	347.50	13.68	-27.8	-29.5	14.0	1.50e-06	0	43	0	1442840576	16	4375
2026-01-02 09:52:19.32	347.46	13.59	-27.8	-29.6	13.9	7.60e-06	0	43	0	1445986304	16	4419
2026-01-02 09:52:20.33	347.41	13.49	-27.8	-29.5	14.0	3.80e-06	0	43	0	1449132032	16	4383
2026-01-02 09:52:21.33	347.36	13.39	-27.9	-29.8	13.8	4.50e-06	0	43	0	1452277760	16	4476
2026-01-02 09:52:22.33	347.32	13.29	-28.0	-30.1	13.6	4.50e-06	0	43	0	1455423488	16	4551
2026-01-02 09:52:23.34	347.28	13.20	-27.8	-29.5	13.9	6.10e-06	0	43	0	1458569216	16	4393
2026-01-02 09:52:24.35	347.23	13.10	-27.8	-29.5	14.0	0.00e+00	0	43	0	1461714944	16	4371
2026-01-02 09:52:25.35	347.19	13.00	-27.8	-29.4	14.0	5.30e-06	0	43	0	1464860672	16	4359
2026-01-02 09:52:26.36	347.14	12.91	-27.8	-29.6	13.9	3.80e-06	0	43	0	1468006400	16	4405
2026-01-02 09:52:27.36	347.10	12.81	-27.9	-29.7	13.8	4.50e-06	0	43	0	1471152128	16	4440
2026-01-02 09:52:28.36	347.06	12.72	-27.9	-29.7	13.8	5.30e-06	0	43	0	1474297856	16	4457
2026-01-02 09:52:29.36	347.01	12.62	-27.7	-29.3	14.1	3.80e-06	0	43	0	1477443584	16	4329
2026-01-02 09:52:30.37	346.97	12.53	-27.7	-29.4	14.0	3.80e-06	0	43	0	1480589312	16	4348
2026-01-02 09:52:31.37	346.93	12.44	-27.7	-29.3	14.0	2.20e-06	0	43	0	1483735040	16	4338
2026-01-02 09:52:32.38	346.89	12.34	-27.7	-29.3	14.1	2.20e-06	0	43	0	1486880768	16	4315
2026-01-02 09:52:33.38	346.85	12.25	-27.7	-29.3	14.1	1.50e-06	0	43	0	1490026496	16	4324
2026-01-02 09:52:34.38	346.80	12.16	-27.7	-29.4	14.0	1.50e-06	0	43	0	1493172224	16	4345
2026-01-02 09:52:35.38	346.76	12.07	-27.8	-29.5	14.0	5.30e-06	0	43	0	1496317952	16	4383
2026-01-02 09:52:36.38	346.72	11.97	-27.8	-29.5	13.9	3.80e-06	0	43	0	1499463680	16	4391
2026-01-02 09:52:37.39	346.68	11.88	-27.8	-29.5	14.0	3.80e-06	0	44	0	1502609408	16	4378
2026-01-02 09:52:38.40	346.64	11.79	-27.7	-29.3	14.1	1.50e-06	0	43	0	1505755136	16	4328
2026-01-02 09:52:39.40	346.60	11.70	-27.7	-29.2	14.1	0.00e+00	0	43	0	1508900864	16	4315
2026-01-02 09:52:40.40	346.56	11.61	-27.7	-29.2	14.1	2.20e-06	0	43	0	1512046592	16	4318
2026-01-02 09:52:41.41	346.52	11.52	-27.7	-29.4	14.0	2.20e-06	0	43	0	1515192320	16	4351
2026-01-02 09:52:42.41	346.48	11.43	-27.8	-29.5	13.9	3.00e-06	0	43	0	1518338048	16	4392
2026-01-02 09:52:43.42	346.44	11.34	-27.7	-29.4	14.0	3.80e-06	0	43	0	1521483776	16	4347
2026-01-02 09:52:44.42	346.41	11.25	-27.6	-29.2	14.1	3.80e-06	0	44	0	1524629504	16	4299
2026-01-02 09:52:45.42	346.37	11.16	-27.7	-29.4	14.0	4.50e-06	0	44	0	1527775232	16	4350
2026-01-02 09:52:46.42	346.33	11.07	-27.8	-29.5	13.8	3.00e-06	0	43	0	1530920960	16	4405
2026-01-02 09:52:47.43	346.29	10.98	-27.8	-29.5	13.8	3.80e-06	0	43	0	1534066688	16	4399
2026-01-02 09:52:48.43	346.25	10.89	-27.7	-29.4	13.9	3.80e-06	0	43	0	1537212416	16	4375
2026-01-02 09:52:49.43	346.22	10.81	-27.7	-29.4	13.9	6.10e-06	0	44	0	1540358144	16	4374
2026-01-02 09:52:50.44	346.18	10.72	-27.8	-29.5	13.8	3.00e-06	0	43	0	1543503872	16	4406
2026-01-02 09:52:51.43	346.14	10.63	-27.9	-29.8	13.7	4.50e-06	0	43	0	1546649600	16	4471
2026-01-02 09:52:52.43	346.11	10.54	-28.0	-30.0	13.5	9.90e-06	0	43	0	1549795328	16	4539
2026-01-02 09:52:53.44	346.07	10.46	-27.9	-29.9	13.6	3.80e-06	0	43	0	1552941056	16	4503
2026-01-02 09:52:54.45	346.03	10.37	-27.9	-29.9	13.5	1.14e-05	0	43	0	1556086784	16	4523
2026-01-02 09:52:55.45	346.00	10.28	-27.9	-29.8	13.7	5.30e-06	0	43	0	1559232512	16	4469
2026-01-02 09:52:56.45	345.96	10.20	-27.8	-29.6	13.7	6.80e-06	0	43	0	1562378240	16	4422
2026-01-02 09:52:57.46	345.93	10.11	-27.9	-29.8	13.6	6.10e-06	0	43	0	1565523968	16	4488
2026-01-02 09:52:58.46	345.89	10.03	-28.0	-30.0	13.5	8.30e-06	0	43	0	1568669696	16	4538
2026-01-02 09:52:59.46	345.86	9.94	-27.9	-29.9	13.5	1.06e-05	0	44	0	1571815424	16	4510
2026-01-02 09:53:00.47	345.82	9.86	-27.9	-29.9	13.5	9.10e-06	0	43	0	1574961152	16	4514
2026-01-02 09:53:01.46	345.79	9.77	-28.1	-30.3	13.3	2.89e-05	0	43	0	1578106880	16	4631
2026-01-02 09:53:02.46	345.75	9.69	-28.0	-30.1	13.4	1.37e-05	0	43	0	1581252608	16	4570
2026-01-02 09:53:03.46	345.72	9.61	-28.0	-30.2	13.3	1.67e-05	0	43	0	1584398336	16	4602
2026-01-02 09:53:04.46	345.69	9.52	-28.0	-30.2	13.3	1.83e-05	0	43	0	1587544064	16	4602
2026-01-02 09:53:05.46	345.65	9.44	-28.3	-30.7	12.9	4.11e-05	0	43	0	1590689792	16	4789
2026-01-02 09:53:06.46	345.62	9.36	-28.3	-30.8	12.9	4.50e-05	0	43	0	1593835520	16	4795
2026-01-02 09:53:07.47	345.59	9.27	-28.3	-30.8	12.9	4.57e-05	0	43	0	1596981248	16	4816
2026-01-02 09:53:08.47	345.55	9.19	-28.3	-30.9	12.9	5.34e-05	0	43	0	1600126976	16	4827
2026-01-02 09:53:09.48	345.52	9.11	-28.3	-30.8	12.9	4.27e-05	0	43	0	1603272704	16	4800
2026-01-02 09:53:10.48	345.49	9.03	-28.2	-30.6	13.0	3.50e-05	0	43	0	1606418432	16	4734
2026-01-02 09:53:11.48	345.45	8.95	-28.2	-30.6	13.0	3.81e-05	0	43	0	1609564160	16	4743
2026-01-02 09:53:12.48	345.42	8.86	-28.3	-30.8	12.9	3.28e-05	0	43	0	1612709888	16	4804
2026-01-02 09:53:13.49	345.39	8.78	-28.3	-30.8	12.9	4.27e-05	0	43	0	1615855616	16	4800
2026-01-02 09:53:14.49	345.36	8.70	-28.3	-30.9	12.8	6.63e-05	0	44	0	1619001344	16	4853
2026-01-02 09:53:15.49	345.33	8.62	-28.2	-30.7	12.9	4.19e-05	0	43	0	1622147072	16	4773
2026-01-02 09:53:16.49	345.30	8.54	-28.3	-30.9	12.8	6.40e-05	0	44	0	1625292800	16	4851
2026-01-02 09:53:17.50	345.26	8.46	-28.3	-30.9	12.7	6.71e-05	0	44	0	1628438528	16	4858
2026-01-02 09:53:18.50	345.23	8.38	-28.4	-31.0	12.7	9.00e-05	0	43	0	1631584256	16	4887
2026-01-02 09:53:19.50	345.20	8.30	-28.3	-31.0	12.8	6.79e-05	0	43	0	1634729984	16	4873
2026-01-02 09:53:20.51	345.17	8.22	-28.3	-30.9	12.8	5.95e-05	0	43	0	1637875712	16	4854
2026-01-02 09:53:21.51	345.14	8.14	-28.5	-30.9	12.5	1.04e-04	0	43	0	1641021440	17	4731
2026-01-02 09:53:22.50	345.11	8.06	-28.5	-30.9	12.5	1.30e-04	0	43	0	1644167168	17	4750
2026-01-02 09:53:23.51	345.08	7.98	-28.5	-30.9	12.4	1.17e-04	0	43	0	1647312896	17	4750
2026-01-02 09:53:24.51	345.05	7.91	-28.5	-31.0	12.3	1.46e-04	0	43	0	1650458624	17	4776
2026-01-02 09:53:25.50	345.02	7.83	-28.7	-31.3	12.0	3.15e-04	0	43	0	1653604352	17	4887
2026-01-02 09:53:26.51	344.99	7.75	-28.7	-31.3	12.0	2.75e-04	0	43	0	1656750080	17	4882
2026-01-02 09:53:27.51	344.96	7.67	-28.8	-31.6	11.8	4.26e-04	0	43	0	1659895808	17	4984
2026-01-02 09:53:28.52	344.93	7.59	-28.9	-31.9	11.6	7.28e-04	0	43	0	1663041536	17	5102
2026-01-02 09:53:29.53	344.91	7.52	-28.8	-31.7	11.8	5.14e-04	0	43	0	1666187264	17	5009
2026-01-02 09:53:30.53	344.88	7.44	-28.9	-31.4	11.6	8.68e-04	0	44	0	1669332992	18	4809
2026-01-02 09:53:31.53	344.85	7.36	-28.7	-30.9	12.0	4.35e-04	0	43	0	1672478720	18	4633
2026-01-02 09:53:32.54	344.82	7.28	-28.8	-31.1	11.8	4.78e-04	0	43	0	1674575872	18	4717
2026-01-02 09:53:33.54	344.79	7.21	-28.7	-31.0	11.9	3.42e-04	0	43	0	1677721600	18	4665
2026-01-02 09:53:34.55	344.76	7.13	-28.7	-31.0	12.0	3.98e-04	0	43	0	1681915904	18	4657
2026-01-02 09:53:35.56	344.74	7.06	-31.1	-35.8	6.9	1.85e-02	0	43	0	1685061632	23	6177
2026-01-02 09:53:36.57	344.71	6.98	-32.9	-45.0	3.8	1.49e+00	0	43	104	1686110208	25	14571
2026-01-02 09:53:37.57	344.68	6.90	-33.1	-44.9	3.8	1.49e+00	0	43	104	1686110208	26	14086
2026-01-02 09:53:38.57	344.65	6.83	-33.2	-45.1	3.8	1.49e+00	0	44	104	1686110208	26	14176

#Closed at: 2026-01-02 09:53:39
#Recorded file [1686 MB]: D:/data/31010_260102_124436.dat