passes_logs/2026/01/02/R2M6_AANII_01/R2M6_AANII_01__20260102_143954_FENGYUN_3E_rec.log

#Pass ID: 20260102_143954_FENGYUN 3E
#Satellite: FENGYUN 3E
#Configuration: FENGYUN 3E
#almurnet v.1.7.20240730
#Start time: 2026-01-02 14:39:55

#Version: 2.2.20231116
#Station: R2M6_AANII_01
#Location: 30.233357 lon 59.946436 lat
#TLE: 1 49008U 21062A   26001.96913326  .00000001  00000+0  21174-4 0  9999
#TLE: 2 49008  98.7479   7.2511 0001416 166.5636 193.5578 14.19883387232993

#Time	Az	El	Level	Level2	SNR	BER	BlckErr	Temp	State	Recorded	gain1	gain2
2026-01-02 14:39:55.04	162.21	7.05	-29.4	-32.4	5.0	7.95e-01	0	41	0	0	19	5065
2026-01-02 14:39:56.05	162.22	7.13	-28.1	-29.8	5.4	7.77e-01	0	41	104	0	17	4402
2026-01-02 14:39:57.06	162.22	7.21	-28.5	-31.5	9.5	1.14e-02	0	41	0	0	16	5060
2026-01-02 14:39:58.05	162.23	7.29	-28.5	-30.4	9.6	1.53e-02	0	41	0	7340032	18	4474
2026-01-02 14:39:59.06	162.24	7.37	-28.1	-29.8	10.2	6.52e-03	0	41	0	14680064	17	4385
2026-01-02 14:40:00.06	162.25	7.45	-28.4	-30.6	9.7	1.42e-02	0	41	0	22020096	17	4656
2026-01-02 14:40:01.06	162.26	7.52	-28.2	-30.2	10.0	7.25e-03	0	41	0	28311552	17	4508
2026-01-02 14:40:02.06	162.27	7.60	-28.0	-29.5	10.4	4.58e-03	0	42	0	35651584	17	4312
2026-01-02 14:40:03.06	162.28	7.68	-27.6	-29.2	11.0	2.73e-03	0	42	0	42991616	16	4306
2026-01-02 14:40:04.07	162.28	7.76	-27.0	-28.3	11.6	8.72e-04	0	41	0	50331648	15	4177
2026-01-02 14:40:05.08	162.29	7.84	-26.4	-27.4	12.4	2.63e-04	0	41	0	57671680	14	4049
2026-01-02 14:40:06.08	162.30	7.92	-26.2	-27.3	12.7	1.09e-04	0	41	0	65011712	13	4131
2026-01-02 14:40:07.08	162.31	8.00	-25.7	-26.9	13.3	2.86e-05	0	42	0	72351744	12	4111
2026-01-02 14:40:08.08	162.32	8.08	-25.6	-26.6	13.4	1.25e-05	0	42	0	79691776	12	4046
2026-01-02 14:40:09.08	162.33	8.17	-25.8	-27.1	13.1	1.83e-05	0	42	0	85983232	12	4174
2026-01-02 14:40:10.09	162.34	8.25	-25.8	-27.0	13.3	2.86e-05	0	42	0	93323264	12	4133
2026-01-02 14:40:11.09	162.35	8.33	-25.8	-27.0	13.2	3.66e-05	0	42	0	100663296	12	4125
2026-01-02 14:40:12.10	162.35	8.41	-25.8	-27.1	13.2	2.17e-05	0	42	0	108003328	12	4156
2026-01-02 14:40:13.10	162.36	8.49	-26.0	-27.4	13.0	3.54e-05	0	42	0	115343360	12	4232
2026-01-02 14:40:14.11	162.37	8.58	-25.7	-26.9	13.3	2.63e-05	0	42	0	122683392	12	4110
2026-01-02 14:40:15.12	162.38	8.66	-25.7	-26.7	13.4	1.25e-05	0	42	0	130023424	12	4072
2026-01-02 14:40:16.12	162.39	8.74	-25.6	-26.6	13.5	6.80e-06	0	42	0	137363456	12	4034
2026-01-02 14:40:17.12	162.40	8.83	-25.7	-26.8	13.4	2.74e-05	0	42	0	144703488	12	4078
2026-01-02 14:40:18.12	162.41	8.91	-25.6	-26.6	13.5	1.48e-05	0	42	0	152043520	12	4023
2026-01-02 14:40:19.12	162.42	8.99	-25.9	-27.2	13.1	3.20e-05	0	42	0	159383552	12	4198
2026-01-02 14:40:20.12	162.43	9.08	-25.7	-26.9	13.4	1.71e-05	0	42	0	166723584	12	4106
2026-01-02 14:40:21.12	162.44	9.16	-25.4	-26.2	13.8	4.50e-06	0	42	0	173015040	12	3922
2026-01-02 14:40:22.12	162.45	9.25	-25.4	-26.7	13.8	4.50e-06	0	42	0	180355072	11	4179
2026-01-02 14:40:23.13	162.45	9.33	-25.2	-26.3	14.0	2.20e-06	0	42	0	187695104	11	4049
2026-01-02 14:40:24.13	162.46	9.42	-25.1	-26.0	14.2	2.20e-06	0	42	0	195035136	11	3990
2026-01-02 14:40:25.13	162.47	9.50	-25.0	-25.7	14.4	2.20e-06	0	42	0	202375168	11	3909
2026-01-02 14:40:26.13	162.48	9.59	-25.3	-26.5	13.9	0.00e+00	0	42	0	209715200	11	4107
2026-01-02 14:40:27.13	162.49	9.67	-25.2	-26.2	14.1	2.20e-06	0	42	0	217055232	11	4031
2026-01-02 14:40:28.13	162.50	9.76	-25.2	-26.2	14.1	2.20e-06	0	42	0	224395264	11	4038
2026-01-02 14:40:29.13	162.51	9.85	-25.0	-25.8	14.3	2.20e-06	0	42	0	230686720	11	3942
2026-01-02 14:40:30.13	162.52	9.93	-25.2	-26.2	14.1	4.50e-06	0	42	0	238026752	11	4030
2026-01-02 14:40:31.13	162.53	10.02	-25.1	-26.0	14.2	1.10e-06	0	42	0	245366784	11	3991
2026-01-02 14:40:32.14	162.54	10.11	-25.0	-25.7	14.4	3.40e-06	0	42	0	252706816	11	3921
2026-01-02 14:40:33.14	162.55	10.20	-24.9	-25.5	14.5	1.10e-06	0	42	0	260046848	11	3860
2026-01-02 14:40:34.15	162.56	10.28	-24.9	-25.6	14.5	1.10e-06	0	42	0	267386880	11	3877
2026-01-02 14:40:35.15	162.57	10.37	-25.2	-26.2	14.2	1.10e-06	0	42	0	274726912	11	4033
2026-01-02 14:40:36.16	162.58	10.46	-24.8	-25.8	14.6	0.00e+00	0	42	0	282066944	10	4048
2026-01-02 14:40:37.16	162.59	10.55	-24.8	-25.9	14.6	0.00e+00	0	43	0	289406976	10	4075
2026-01-02 14:40:38.16	162.60	10.64	-24.8	-25.9	14.6	1.10e-06	0	42	0	296747008	10	4072
2026-01-02 14:40:39.16	162.61	10.73	-24.9	-26.0	14.5	1.10e-06	0	42	0	304087040	10	4083
2026-01-02 14:40:40.16	162.62	10.82	-24.9	-26.1	14.5	0.00e+00	0	42	0	311427072	10	4119
2026-01-02 14:40:41.16	162.63	10.91	-24.8	-25.7	14.7	0.00e+00	0	42	0	317718528	10	4027
2026-01-02 14:40:42.17	162.64	11.00	-24.9	-26.1	14.5	0.00e+00	0	42	0	325058560	10	4112
2026-01-02 14:40:43.18	162.65	11.09	-24.8	-25.9	14.6	0.00e+00	0	42	0	332398592	10	4061
2026-01-02 14:40:44.18	162.66	11.19	-24.9	-25.9	14.6	0.00e+00	0	42	0	339738624	10	4077
2026-01-02 14:40:45.18	162.67	11.28	-24.7	-25.6	14.8	0.00e+00	0	42	0	347078656	10	3987
2026-01-02 14:40:46.19	162.68	11.37	-25.0	-26.3	14.4	0.00e+00	0	42	0	354418688	10	4173
2026-01-02 14:40:47.20	162.69	11.46	-25.2	-26.6	14.2	1.10e-06	0	43	0	361758720	10	4251
2026-01-02 14:40:48.20	162.70	11.56	-24.9	-25.9	14.6	0.00e+00	0	42	0	369098752	10	4063
2026-01-02 14:40:49.20	162.71	11.65	-25.1	-26.5	14.3	0.00e+00	0	43	0	376438784	10	4234
2026-01-02 14:40:50.21	162.72	11.74	-25.0	-26.3	14.5	1.10e-06	0	42	0	383778816	10	4151
2026-01-02 14:40:51.20	162.73	11.84	-24.8	-25.8	14.7	0.00e+00	0	43	0	391118848	10	4041
2026-01-02 14:40:52.21	162.74	11.93	-24.9	-26.1	14.6	0.00e+00	0	43	0	398458880	10	4109
2026-01-02 14:40:53.21	162.75	12.03	-24.9	-26.1	14.6	0.00e+00	0	43	0	404750336	10	4116
2026-01-02 14:40:54.22	162.76	12.12	-24.9	-26.0	14.6	0.00e+00	0	43	0	412090368	10	4094
2026-01-02 14:40:55.21	162.77	12.22	-25.0	-26.3	14.5	0.00e+00	0	43	0	419430400	10	4149
2026-01-02 14:40:56.22	162.78	12.31	-25.2	-26.6	14.3	1.10e-06	0	43	0	426770432	10	4256
2026-01-02 14:40:57.22	162.80	12.41	-24.9	-26.1	14.6	0.00e+00	0	43	0	434110464	10	4102
2026-01-02 14:40:58.22	162.81	12.51	-24.9	-25.9	14.7	0.00e+00	0	43	0	441450496	10	4059
2026-01-02 14:40:59.22	162.82	12.60	-25.1	-26.4	14.5	0.00e+00	0	43	0	448790528	10	4170
2026-01-02 14:41:00.22	162.83	12.70	-25.0	-26.1	14.6	1.10e-06	0	43	0	456130560	10	4097
2026-01-02 14:41:01.22	162.84	12.80	-25.2	-26.5	14.4	1.10e-06	0	43	0	462422016	10	4215
2026-01-02 14:41:02.22	162.85	12.90	-25.2	-26.5	14.4	0.00e+00	0	43	0	469762048	10	4208
2026-01-02 14:41:03.23	162.86	13.00	-24.9	-25.9	14.7	0.00e+00	0	43	0	477102080	10	4064
2026-01-02 14:41:04.24	162.87	13.09	-24.9	-26.0	14.7	2.20e-06	0	43	0	484442112	10	4074
2026-01-02 14:41:05.24	162.88	13.19	-24.4	-25.0	15.2	0.00e+00	0	43	0	491782144	10	3825
2026-01-02 14:41:06.24	162.89	13.29	-24.3	-25.1	15.4	0.00e+00	0	43	0	499122176	9	3966
2026-01-02 14:41:07.24	162.91	13.39	-24.2	-24.9	15.5	0.00e+00	0	43	0	506462208	9	3907
2026-01-02 14:41:08.24	162.92	13.49	-24.3	-25.1	15.4	0.00e+00	0	43	0	513802240	9	3966
2026-01-02 14:41:09.25	162.93	13.60	-24.1	-24.8	15.6	2.20e-06	0	43	0	521142272	9	3878
2026-01-02 14:41:10.24	162.94	13.70	-24.0	-24.6	15.7	0.00e+00	0	43	0	528482304	9	3833
2026-01-02 14:41:11.24	162.95	13.80	-24.1	-24.7	15.6	0.00e+00	0	43	0	535822336	9	3860
2026-01-02 14:41:12.24	162.96	13.90	-24.2	-25.0	15.5	5.70e-06	0	43	0	543162368	9	3922
2026-01-02 14:41:13.24	162.97	14.00	-24.2	-25.0	15.5	0.00e+00	0	43	0	549453824	9	3944
2026-01-02 14:41:14.24	162.99	14.11	-24.1	-24.7	15.7	0.00e+00	0	43	0	556793856	9	3861
2026-01-02 14:41:15.24	163.00	14.21	-24.2	-24.9	15.6	6.80e-06	0	43	0	564133888	9	3909
2026-01-02 14:41:16.25	163.01	14.31	-24.1	-24.7	15.7	0.00e+00	0	43	0	571473920	9	3863
2026-01-02 14:41:17.26	163.02	14.42	-24.0	-24.4	15.9	0.00e+00	0	43	0	578813952	9	3780
2026-01-02 14:41:18.26	163.03	14.52	-24.0	-24.4	15.8	1.10e-06	0	43	0	586153984	9	3799
2026-01-02 14:41:19.26	163.05	14.63	-24.0	-24.4	15.8	0.00e+00	0	43	0	593494016	9	3796
2026-01-02 14:41:20.26	163.06	14.73	-23.9	-24.8	15.9	0.00e+00	0	43	0	600834048	8	4000
2026-01-02 14:41:21.27	163.07	14.84	-24.0	-25.0	15.8	0.00e+00	0	43	0	608174080	8	4052
2026-01-02 14:41:22.28	163.08	14.95	-23.9	-24.7	15.9	0.00e+00	0	43	0	614465536	8	3972
2026-01-02 14:41:23.29	163.09	15.06	-24.0	-25.0	15.8	0.00e+00	0	43	0	621805568	8	4038
2026-01-02 14:41:24.30	163.11	15.17	-23.8	-24.7	16.0	6.80e-06	0	43	0	630194176	8	3965
2026-01-02 14:41:25.29	163.12	15.27	-23.9	-24.8	15.9	0.00e+00	0	43	0	636485632	8	4000
2026-01-02 14:41:26.30	163.13	15.38	-23.8	-24.7	16.0	0.00e+00	0	43	0	643825664	8	3960
2026-01-02 14:41:27.30	163.14	15.49	-23.9	-24.8	15.9	6.80e-06	0	43	0	651165696	8	4006
2026-01-02 14:41:28.31	163.16	15.60	-23.9	-24.9	15.9	0.00e+00	0	43	0	658505728	8	4014
2026-01-02 14:41:29.31	163.17	15.71	-23.9	-24.7	15.9	0.00e+00	0	43	0	665845760	8	3974
2026-01-02 14:41:30.31	163.18	15.82	-23.8	-24.6	16.0	5.70e-06	0	43	0	673185792	8	3950
2026-01-02 14:41:31.32	163.20	15.93	-23.8	-24.6	16.0	0.00e+00	0	43	0	680525824	8	3955
2026-01-02 14:41:32.32	163.21	16.05	-23.8	-24.5	16.1	0.00e+00	0	43	0	687865856	8	3925
2026-01-02 14:41:33.31	163.22	16.16	-23.7	-24.4	16.1	0.00e+00	0	43	0	694157312	8	3890
2026-01-02 14:41:34.32	163.23	16.27	-23.8	-24.6	16.0	0.00e+00	0	43	0	701497344	8	3935
2026-01-02 14:41:35.32	163.25	16.38	-23.9	-24.8	15.9	0.00e+00	0	43	0	708837376	8	3998
2026-01-02 14:41:36.33	163.26	16.50	-23.7	-24.4	16.1	0.00e+00	0	43	0	716177408	8	3892
2026-01-02 14:41:37.33	163.27	16.61	-23.6	-24.2	16.2	0.00e+00	0	43	0	723517440	8	3851
2026-01-02 14:41:38.34	163.29	16.73	-23.6	-24.1	16.3	0.00e+00	0	43	0	730857472	8	3830
2026-01-02 14:41:39.34	163.30	16.84	-23.7	-24.4	16.2	0.00e+00	0	44	0	738197504	8	3900
2026-01-02 14:41:40.34	163.31	16.96	-23.8	-24.5	16.2	0.00e+00	0	43	0	745537536	8	3915
2026-01-02 14:41:41.35	163.33	17.08	-23.8	-24.6	16.1	0.00e+00	0	43	0	752877568	8	3948
2026-01-02 14:41:42.35	163.34	17.19	-23.8	-24.5	16.1	0.00e+00	0	43	0	760217600	8	3918
2026-01-02 14:41:43.36	163.36	17.31	-23.7	-24.4	16.2	0.00e+00	0	44	0	767557632	8	3884
2026-01-02 14:41:44.36	163.37	17.43	-23.7	-24.3	16.2	0.00e+00	0	43	0	774897664	8	3870
2026-01-02 14:41:45.36	163.38	17.55	-23.8	-24.6	16.1	0.00e+00	0	43	0	781189120	8	3948
2026-01-02 14:41:46.37	163.40	17.67	-24.0	-25.0	15.9	0.00e+00	0	43	0	788529152	8	4034
2026-01-02 14:41:47.36	163.41	17.79	-23.8	-24.6	16.1	0.00e+00	0	43	0	795869184	8	3928
2026-01-02 14:41:48.37	163.42	17.91	-23.5	-24.0	16.4	0.00e+00	0	43	0	803209216	8	3794
2026-01-02 14:41:49.38	163.44	18.03	-23.4	-23.8	16.4	0.00e+00	0	43	0	810549248	8	3753
2026-01-02 14:41:50.39	163.45	18.15	-23.3	-24.1	16.5	0.00e+00	0	43	0	817889280	7	3918
2026-01-02 14:41:51.39	163.47	18.28	-23.4	-24.2	16.5	0.00e+00	0	43	0	825229312	7	3957
2026-01-02 14:41:52.40	163.48	18.40	-23.4	-24.3	16.5	0.00e+00	0	43	0	832569344	7	3972
2026-01-02 14:41:53.40	163.50	18.52	-23.4	-24.1	16.5	0.00e+00	0	43	0	839909376	7	3929
2026-01-02 14:41:54.41	163.51	18.65	-23.4	-24.2	16.5	0.00e+00	0	43	0	847249408	7	3945
2026-01-02 14:41:55.41	163.53	18.77	-23.3	-24.1	16.6	0.00e+00	0	43	0	854589440	7	3915
2026-01-02 14:41:56.41	163.54	18.90	-23.4	-24.2	16.5	0.00e+00	0	43	0	860880896	7	3943
2026-01-02 14:41:57.41	163.56	19.02	-23.3	-24.0	16.6	0.00e+00	0	43	0	868220928	7	3910
2026-01-02 14:41:58.42	163.57	19.15	-23.4	-24.1	16.6	0.00e+00	0	43	0	875560960	7	3926
2026-01-02 14:41:59.42	163.59	19.28	-23.3	-23.9	16.7	0.00e+00	0	43	0	882900992	7	3873
2026-01-02 14:42:00.42	163.60	19.41	-23.2	-23.8	16.8	0.00e+00	0	43	0	890241024	7	3843
2026-01-02 14:42:01.43	163.62	19.54	-23.0	-23.3	17.0	0.00e+00	0	43	0	897581056	7	3724
2026-01-02 14:42:02.43	163.63	19.67	-23.0	-23.3	17.0	0.00e+00	0	44	0	904921088	7	3740
2026-01-02 14:42:03.43	163.65	19.80	-23.0	-23.3	17.0	0.00e+00	0	43	0	912261120	7	3736
2026-01-02 14:42:04.43	163.66	19.93	-22.9	-23.5	17.1	0.00e+00	0	43	0	919601152	6	3891
2026-01-02 14:42:05.44	163.68	20.06	-22.9	-23.7	17.1	0.00e+00	0	43	0	925892608	6	3924
2026-01-02 14:42:06.44	163.70	20.19	-22.9	-23.6	17.1	0.00e+00	0	43	0	933232640	6	3918
2026-01-02 14:42:07.44	163.71	20.32	-23.0	-23.8	17.1	0.00e+00	0	43	0	940572672	6	3939
2026-01-02 14:42:08.44	163.73	20.46	-22.9	-23.7	17.1	0.00e+00	0	43	0	947912704	6	3925
2026-01-02 14:42:09.45	163.74	20.59	-23.1	-24.0	17.0	0.00e+00	0	43	0	955252736	6	3990
2026-01-02 14:42:10.45	163.76	20.73	-23.3	-24.5	16.8	0.00e+00	0	43	0	962592768	6	4109
2026-01-02 14:42:11.45	163.78	20.86	-23.2	-24.3	16.8	0.00e+00	0	43	0	969932800	6	4070
2026-01-02 14:42:12.45	163.79	21.00	-23.3	-24.4	16.7	0.00e+00	0	43	0	977272832	6	4097
2026-01-02 14:42:13.46	163.81	21.14	-23.4	-24.6	16.7	0.00e+00	0	43	0	984612864	6	4150
2026-01-02 14:42:14.46	163.83	21.27	-23.5	-24.8	16.6	0.00e+00	0	43	0	991952896	6	4184
2026-01-02 14:42:15.46	163.84	21.41	-23.5	-24.8	16.6	0.00e+00	0	43	0	999292928	6	4190
2026-01-02 14:42:16.47	163.86	21.55	-23.5	-24.8	16.6	0.00e+00	0	44	0	1006632960	6	4205
2026-01-02 14:42:17.47	163.88	21.69	-23.6	-24.7	16.4	0.00e+00	0	44	0	1012924416	7	4049
2026-01-02 14:42:18.46	163.90	21.83	-23.7	-24.8	16.4	0.00e+00	0	43	0	1020264448	7	4097
2026-01-02 14:42:19.47	163.91	21.98	-23.2	-23.8	16.8	0.00e+00	0	44	0	1027604480	7	3853
2026-01-02 14:42:20.47	163.93	22.12	-23.0	-23.4	17.0	0.00e+00	0	44	0	1034944512	7	3763
2026-01-02 14:42:21.47	163.95	22.26	-22.8	-23.5	17.2	0.00e+00	0	43	0	1042284544	6	3885
2026-01-02 14:42:22.48	163.97	22.41	-22.8	-23.4	17.2	0.00e+00	0	43	0	1049624576	6	3859
2026-01-02 14:42:23.48	163.99	22.55	-22.8	-23.4	17.2	0.00e+00	0	44	0	1056964608	6	3873
2026-01-02 14:42:24.48	164.00	22.70	-22.8	-23.4	17.2	0.00e+00	0	44	0	1064304640	6	3877
2026-01-02 14:42:25.48	164.02	22.84	-22.8	-23.5	17.2	0.00e+00	0	43	0	1070596096	6	3897
2026-01-02 14:42:26.49	164.04	22.99	-22.6	-23.0	17.4	0.00e+00	0	43	0	1078984704	6	3786
2026-01-02 14:42:27.50	164.06	23.14	-22.3	-23.0	17.6	0.00e+00	0	43	0	1086324736	5	3880
2026-01-02 14:42:28.50	164.08	23.29	-22.3	-22.9	17.6	0.00e+00	0	44	0	1092616192	5	3866
2026-01-02 14:42:29.51	164.10	23.44	-22.5	-23.3	17.5	0.00e+00	0	44	0	1099956224	5	3965
2026-01-02 14:42:30.51	164.12	23.59	-22.6	-23.5	17.4	0.00e+00	0	44	0	1107296256	5	4010
2026-01-02 14:42:31.51	164.13	23.74	-22.8	-23.9	17.2	0.00e+00	0	44	0	1114636288	5	4112
2026-01-02 14:42:32.52	164.15	23.90	-22.7	-23.7	17.2	0.00e+00	0	44	0	1121976320	5	4072
2026-01-02 14:42:33.51	164.17	24.05	-22.7	-23.8	17.2	0.00e+00	0	43	0	1129316352	5	4085
2026-01-02 14:42:34.52	164.19	24.21	-22.7	-23.9	17.2	0.00e+00	0	43	0	1136656384	5	4104
2026-01-02 14:42:35.52	164.21	24.36	-22.7	-23.7	17.3	0.00e+00	0	43	0	1143996416	5	4063
2026-01-02 14:42:36.53	164.23	24.52	-22.5	-23.5	17.4	0.00e+00	0	44	0	1151336448	5	4002
2026-01-02 14:42:37.53	164.25	24.68	-22.5	-23.5	17.4	0.00e+00	0	43	0	1157627904	5	4022
2026-01-02 14:42:38.53	164.27	24.83	-22.4	-23.2	17.5	0.00e+00	0	44	0	1164967936	5	3940
2026-01-02 14:42:39.53	164.29	24.99	-22.4	-23.2	17.5	0.00e+00	0	44	0	1172307968	5	3943
2026-01-02 14:42:40.54	164.31	25.15	-22.4	-23.3	17.5	0.00e+00	0	44	0	1179648000	5	3964
2026-01-02 14:42:41.54	164.34	25.31	-22.5	-23.4	17.4	0.00e+00	0	43	0	1186988032	5	4007
2026-01-02 14:42:42.54	164.36	25.48	-22.3	-22.9	17.6	0.00e+00	0	44	0	1194328064	5	3883
2026-01-02 14:42:43.55	164.38	25.64	-22.5	-23.4	17.4	0.00e+00	0	43	0	1201668096	5	3985
2026-01-02 14:42:44.55	164.40	25.80	-22.4	-23.1	17.6	0.00e+00	0	44	0	1209008128	5	3930
2026-01-02 14:42:45.55	164.42	25.97	-22.3	-22.9	17.6	0.00e+00	0	43	0	1216348160	5	3885
2026-01-02 14:42:46.56	164.44	26.14	-22.2	-22.8	17.7	0.00e+00	0	44	0	1223688192	5	3840
2026-01-02 14:42:47.56	164.46	26.30	-22.4	-23.2	17.6	0.00e+00	0	44	0	1231028224	5	3951
2026-01-02 14:42:48.57	164.49	26.47	-22.4	-23.2	17.6	0.00e+00	0	43	0	1238368256	5	3925
2026-01-02 14:42:49.57	164.51	26.64	-22.1	-22.6	17.9	0.00e+00	0	44	0	1244659712	5	3794
2026-01-02 14:42:50.57	164.53	26.81	-21.9	-22.1	18.1	0.00e+00	0	44	0	1251999744	5	3689
2026-01-02 14:42:51.58	164.55	26.99	-21.8	-22.4	18.2	0.00e+00	0	43	0	1259339776	4	3852
2026-01-02 14:42:52.58	164.58	27.16	-21.9	-22.6	18.1	0.00e+00	0	44	0	1266679808	4	3912
2026-01-02 14:42:53.59	164.60	27.33	-21.9	-22.6	18.1	0.00e+00	0	44	0	1274019840	4	3909
2026-01-02 14:42:54.58	164.62	27.51	-22.0	-22.7	18.1	0.00e+00	0	44	0	1281359872	4	3924
2026-01-02 14:42:55.59	164.65	27.68	-21.9	-22.7	18.2	0.00e+00	0	44	0	1288699904	4	3909
2026-01-02 14:42:56.58	164.67	27.86	-21.9	-22.6	18.2	0.00e+00	0	44	0	1296039936	4	3885
2026-01-02 14:42:57.59	164.70	28.04	-21.9	-22.5	18.3	0.00e+00	0	44	0	1302331392	4	3861
2026-01-02 14:42:58.60	164.72	28.22	-21.9	-22.6	18.2	0.00e+00	0	44	0	1310720000	4	3899
2026-01-02 14:42:59.60	164.74	28.40	-22.1	-23.0	18.1	0.00e+00	0	44	0	1318060032	4	3975
2026-01-02 14:43:00.60	164.77	28.58	-22.2	-23.1	18.0	0.00e+00	0	44	0	1324351488	4	4011
2026-01-02 14:43:01.60	164.79	28.76	-22.2	-23.2	18.0	0.00e+00	0	44	0	1331691520	4	4029
2026-01-02 14:43:02.61	164.82	28.95	-22.1	-23.0	18.1	0.00e+00	0	44	0	1339031552	4	3983
2026-01-02 14:43:03.61	164.85	29.13	-22.4	-23.5	17.8	0.00e+00	0	43	0	1346371584	4	4115
2026-01-02 14:43:04.62	164.87	29.32	-23.0	-23.7	18.1	0.00e+00	0	44	0	1353711616	5	3925
2026-01-02 14:43:05.62	164.90	29.51	-23.1	-23.5	18.0	0.00e+00	0	44	0	1361051648	6	3752
2026-01-02 14:43:06.62	164.92	29.70	-23.0	-23.2	18.2	0.00e+00	0	44	0	1368391680	6	3703
2026-01-02 14:43:07.63	164.95	29.89	-23.0	-23.2	18.2	0.00e+00	0	44	0	1375731712	6	3699
2026-01-02 14:43:08.63	164.98	30.08	-23.0	-23.3	18.1	0.00e+00	0	44	0	1383071744	6	3726
2026-01-02 14:43:09.63	165.00	30.27	-23.0	-23.3	18.1	0.00e+00	0	44	0	1389363200	6	3708
2026-01-02 14:43:10.63	165.03	30.47	-22.9	-23.1	18.3	0.00e+00	0	44	0	1396703232	6	3668
2026-01-02 14:43:11.63	165.06	30.66	-22.9	-23.1	18.2	0.00e+00	0	44	0	1404043264	6	3672
2026-01-02 14:43:12.63	165.09	30.86	-22.8	-22.9	18.3	0.00e+00	0	44	0	1411383296	6	3638
2026-01-02 14:43:13.64	165.12	31.06	-23.0	-23.2	18.1	0.00e+00	0	43	0	1418723328	6	3706
2026-01-02 14:43:14.64	165.14	31.26	-22.9	-23.1	18.2	0.00e+00	0	44	0	1426063360	6	3681
2026-01-02 14:43:15.64	165.17	31.46	-23.0	-23.2	18.2	0.00e+00	0	44	0	1433403392	6	3694
2026-01-02 14:43:16.64	165.20	31.66	-22.8	-22.8	18.4	0.00e+00	0	44	0	1440743424	6	3601
2026-01-02 14:43:17.65	165.23	31.86	-22.5	-22.3	18.6	0.00e+00	0	44	0	1448083456	6	3494
2026-01-02 14:43:18.66	165.26	32.07	-22.4	-22.0	18.8	0.00e+00	0	44	0	1455423488	6	3443
2026-01-02 14:43:19.65	165.29	32.27	-22.3	-22.4	18.9	0.00e+00	0	44	0	1462763520	5	3610
2026-01-02 14:43:20.65	165.32	32.48	-22.5	-22.7	18.7	0.00e+00	0	44	0	1470103552	5	3680
2026-01-02 14:43:21.65	165.35	32.69	-22.4	-22.5	18.8	0.00e+00	0	44	0	1476395008	5	3641
2026-01-02 14:43:22.65	165.39	32.90	-22.6	-22.9	18.6	0.00e+00	0	44	0	1483735040	5	3739
2026-01-02 14:43:23.65	165.42	33.11	-22.4	-22.6	18.7	0.00e+00	0	44	0	1491075072	5	3660
2026-01-02 14:43:24.66	165.45	33.33	-22.4	-22.5	18.8	0.00e+00	0	44	0	1498415104	5	3637
2026-01-02 14:43:25.65	165.48	33.54	-22.5	-22.7	18.7	0.00e+00	0	44	0	1505755136	5	3680
2026-01-02 14:43:26.65	165.51	33.76	-22.5	-22.8	18.6	0.00e+00	0	44	0	1513095168	5	3714
2026-01-02 14:43:27.65	165.55	33.97	-22.5	-22.7	18.7	0.00e+00	0	44	0	1520435200	5	3684
2026-01-02 14:43:28.65	165.58	34.19	-22.6	-23.0	18.6	0.00e+00	0	44	0	1527775232	5	3750
2026-01-02 14:43:29.65	165.61	34.41	-22.5	-22.8	18.7	0.00e+00	0	44	0	1534066688	5	3698
2026-01-02 14:43:30.65	165.65	34.64	-22.5	-22.8	18.7	0.00e+00	0	44	0	1541406720	5	3706
2026-01-02 14:43:31.64	165.68	34.86	-22.6	-22.9	18.7	0.00e+00	0	44	0	1548746752	5	3728
2026-01-02 14:43:32.64	165.72	35.08	-22.6	-23.0	18.6	0.00e+00	0	44	0	1556086784	5	3745
2026-01-02 14:43:33.64	165.75	35.31	-22.5	-22.8	18.7	0.00e+00	0	44	0	1563426816	5	3707
2026-01-02 14:43:34.64	165.79	35.54	-22.6	-23.0	18.7	0.00e+00	0	44	0	1570766848	5	3744
2026-01-02 14:43:35.64	165.83	35.77	-22.9	-23.6	18.4	0.00e+00	0	44	0	1577058304	5	3900
2026-01-02 14:43:36.65	165.86	36.00	-22.7	-23.0	18.6	0.00e+00	0	44	0	1585446912	5	3759
2026-01-02 14:43:37.65	165.90	36.24	-22.4	-22.5	18.9	0.00e+00	0	44	0	1592786944	5	3639
2026-01-02 14:43:38.65	165.94	36.47	-22.4	-22.5	18.9	0.00e+00	0	44	0	1599078400	5	3629
2026-01-02 14:43:39.65	165.98	36.71	-22.4	-22.5	18.9	0.00e+00	0	44	0	1606418432	5	3637
2026-01-02 14:43:40.65	166.02	36.95	-22.4	-22.4	18.9	0.00e+00	0	44	0	1613758464	5	3625
2026-01-02 14:43:41.65	166.06	37.19	-22.4	-22.6	18.9	0.00e+00	0	44	0	1621098496	5	3658
2026-01-02 14:43:42.65	166.10	37.43	-22.6	-23.0	18.6	0.00e+00	0	44	0	1628438528	5	3755
2026-01-02 14:43:43.65	166.14	37.68	-22.8	-23.3	18.5	0.00e+00	0	44	0	1635778560	5	3816
2026-01-02 14:43:44.66	166.18	37.92	-22.9	-23.0	18.4	0.00e+00	0	44	0	1643118592	6	3647
2026-01-02 14:43:45.66	166.22	38.17	-23.2	-23.8	18.0	0.00e+00	0	44	0	1650458624	6	3829
2026-01-02 14:43:46.66	166.26	38.42	-23.4	-23.7	17.8	0.00e+00	0	44	0	1657798656	7	3702
2026-01-02 14:43:47.66	166.31	38.67	-23.2	-23.2	18.1	0.00e+00	0	44	0	1664090112	7	3603
2026-01-02 14:43:48.65	166.35	38.92	-23.2	-23.2	18.1	0.00e+00	0	44	0	1671430144	7	3600
2026-01-02 14:43:49.66	166.39	39.18	-23.4	-23.5	17.9	0.00e+00	0	44	0	1678770176	7	3658
2026-01-02 14:43:50.66	166.44	39.44	-23.3	-23.4	17.9	0.00e+00	0	44	0	1686110208	7	3643
2026-01-02 14:43:51.67	166.49	39.70	-23.1	-22.9	18.3	0.00e+00	0	44	0	1693450240	7	3523
2026-01-02 14:43:52.67	166.53	39.96	-23.0	-22.8	18.3	0.00e+00	0	44	0	1700790272	7	3517
2026-01-02 14:43:53.67	166.58	40.22	-23.0	-22.8	18.3	0.00e+00	0	44	0	1708130304	7	3507
2026-01-02 14:43:54.68	166.63	40.49	-22.9	-23.0	18.4	0.00e+00	0	44	0	1715470336	6	3652
2026-01-02 14:43:55.68	166.68	40.76	-22.9	-23.0	18.4	0.00e+00	0	44	0	1721761792	6	3649
2026-01-02 14:43:56.68	166.72	41.03	-23.0	-23.2	18.3	0.00e+00	0	44	0	1729101824	6	3685
2026-01-02 14:43:57.68	166.77	41.30	-23.0	-23.3	18.3	0.00e+00	0	44	0	1736441856	6	3703
2026-01-02 14:43:58.68	166.83	41.57	-22.9	-23.0	18.4	0.00e+00	0	44	0	1743781888	6	3658
2026-01-02 14:43:59.68	166.88	41.84	-22.7	-22.5	18.6	0.00e+00	0	43	0	1751121920	6	3540
2026-01-02 14:44:00.68	166.93	42.12	-22.8	-22.9	18.5	0.00e+00	0	44	0	1758461952	6	3632
2026-01-02 14:44:01.68	166.98	42.40	-22.7	-22.7	18.6	0.00e+00	0	44	0	1765801984	6	3580
2026-01-02 14:44:02.69	167.04	42.68	-23.0	-23.1	18.3	0.00e+00	0	44	0	1773142016	6	3682
2026-01-02 14:44:03.69	167.09	42.97	-22.8	-22.9	18.5	0.00e+00	0	44	0	1780482048	6	3613
2026-01-02 14:44:04.69	167.15	43.25	-23.0	-23.2	18.4	0.00e+00	0	44	0	1786773504	6	3701
2026-01-02 14:44:05.70	167.21	43.54	-22.8	-22.8	18.6	0.00e+00	0	44	0	1795162112	6	3604
2026-01-02 14:44:06.70	167.26	43.83	-23.0	-23.1	18.4	0.00e+00	0	44	0	1802502144	6	3673
2026-01-02 14:44:07.71	167.32	44.13	-23.2	-23.6	18.2	0.00e+00	0	44	0	1808793600	6	3782
2026-01-02 14:44:08.71	167.38	44.42	-23.0	-23.2	18.4	0.00e+00	0	44	0	1816133632	6	3677
2026-01-02 14:44:09.72	167.44	44.72	-23.1	-23.4	18.3	0.00e+00	0	44	0	1823473664	6	3736
2026-01-02 14:44:10.72	167.51	45.02	-23.2	-23.6	18.2	0.00e+00	0	44	0	1830813696	6	3771
2026-01-02 14:44:11.71	167.57	45.31	-23.2	-23.6	18.2	0.00e+00	0	44	0	1838153728	6	3788
2026-01-02 14:44:12.72	167.63	45.62	-23.4	-24.0	18.0	0.00e+00	0	44	0	1845493760	6	3872
2026-01-02 14:44:13.72	167.70	45.92	-23.5	-24.2	17.8	0.00e+00	0	44	0	1852833792	6	3930
2026-01-02 14:44:14.73	167.77	46.23	-23.6	-24.1	17.7	0.00e+00	0	44	0	1860173824	7	3786
2026-01-02 14:44:15.72	167.83	46.54	-23.4	-23.5	17.9	0.00e+00	0	44	0	1866465280	7	3645
2026-01-02 14:44:16.73	167.90	46.85	-23.6	-24.0	17.7	0.00e+00	0	44	0	1873805312	7	3774
2026-01-02 14:44:17.73	167.97	47.17	-23.9	-24.5	17.5	0.00e+00	0	44	0	1881145344	7	3895
2026-01-02 14:44:18.73	168.04	47.49	-23.8	-24.4	17.5	0.00e+00	0	44	0	1888485376	7	3847
2026-01-02 14:44:19.74	168.12	47.81	-23.6	-23.9	17.7	0.00e+00	0	44	0	1895825408	7	3755
2026-01-02 14:44:20.74	168.19	48.13	-23.6	-24.1	17.7	0.00e+00	0	44	0	1903165440	7	3786
2026-01-02 14:44:21.74	168.27	48.45	-24.0	-24.9	17.3	0.00e+00	0	44	0	1910505472	7	3984
2026-01-02 14:44:22.74	168.35	48.78	-24.0	-24.8	17.3	0.00e+00	0	44	0	1917845504	7	3943
2026-01-02 14:44:23.74	168.43	49.10	-24.1	-25.0	17.2	0.00e+00	0	44	0	1925185536	7	4002
2026-01-02 14:44:24.74	168.51	49.43	-24.2	-24.7	17.2	0.00e+00	0	44	0	1931476992	8	3820
2026-01-02 14:44:25.74	168.59	49.77	-24.3	-25.1	17.0	0.00e+00	0	44	0	1938817024	8	3909
2026-01-02 14:44:26.74	168.67	50.10	-24.1	-24.1	17.3	0.00e+00	0	44	0	1946157056	9	3580
2026-01-02 14:44:27.75	168.76	50.44	-24.2	-24.3	17.1	0.00e+00	0	44	0	1953497088	9	3624
2026-01-02 14:44:28.74	168.85	50.78	-24.1	-24.0	17.3	0.00e+00	0	44	0	1960837120	9	3562
2026-01-02 14:44:29.75	168.94	51.13	-24.2	-24.3	17.2	0.00e+00	0	44	0	1968177152	9	3620
2026-01-02 14:44:30.75	169.03	51.47	-24.2	-24.3	17.1	0.00e+00	0	44	0	1975517184	9	3640
2026-01-02 14:44:31.75	169.13	51.82	-24.5	-24.9	16.8	4.50e-06	0	44	0	1982857216	9	3758
2026-01-02 14:44:32.75	169.22	52.17	-24.3	-24.4	17.1	0.00e+00	0	44	0	1990197248	9	3648
2026-01-02 14:44:33.75	169.32	52.52	-24.1	-24.1	17.2	0.00e+00	0	44	0	1997537280	9	3585
2026-01-02 14:44:34.76	169.42	52.88	-24.4	-24.8	16.9	0.00e+00	0	44	0	2004877312	9	3741
2026-01-02 14:44:35.76	169.53	53.24	-24.6	-25.1	16.7	0.00e+00	0	44	0	2012217344	9	3819
2026-01-02 14:44:36.75	169.63	53.59	-24.4	-24.8	16.9	0.00e+00	0	44	0	2018508800	9	3755
2026-01-02 14:44:37.75	169.74	53.95	-24.3	-24.4	17.0	0.00e+00	0	44	0	2025848832	9	3655
2026-01-02 14:44:38.76	169.85	54.32	-24.8	-25.5	16.5	0.00e+00	0	44	0	2033188864	9	3916
2026-01-02 14:44:39.76	169.96	54.69	-25.1	-26.1	16.2	0.00e+00	0	44	0	2040528896	9	4053
2026-01-02 14:44:40.77	170.08	55.06	-24.8	-25.1	16.5	0.00e+00	0	44	0	2047868928	10	3710
2026-01-02 14:44:41.77	170.20	55.43	-24.6	-24.6	16.7	0.00e+00	0	44	0	2055208960	10	3609
2026-01-02 14:44:42.77	170.32	55.81	-24.3	-24.5	17.0	0.00e+00	0	44	0	2062548992	9	3667
2026-01-02 14:44:43.77	170.45	56.19	-24.5	-24.8	16.9	2.20e-06	0	44	0	2069889024	9	3757
2026-01-02 14:44:44.78	170.58	56.57	-24.5	-24.8	16.9	0.00e+00	0	44	0	2076180480	9	3745
2026-01-02 14:44:45.78	170.71	56.95	-24.5	-24.8	16.8	0.00e+00	0	44	0	2083520512	9	3755
2026-01-02 14:44:46.79	170.85	57.34	-24.6	-25.0	16.8	4.50e-06	0	44	0	2090860544	9	3792
2026-01-02 14:44:47.79	170.99	57.73	-24.4	-24.6	16.9	0.00e+00	0	44	0	2098200576	9	3691
2026-01-02 14:44:48.79	171.14	58.11	-24.2	-24.8	17.2	0.00e+00	0	44	0	2105540608	8	3837
2026-01-02 14:44:49.79	171.28	58.51	-23.9	-24.2	17.5	5.70e-06	0	44	0	2112880640	8	3701
2026-01-02 14:44:50.80	171.44	58.90	-24.0	-24.3	17.5	0.00e+00	0	44	0	2120220672	8	3724
2026-01-02 14:44:51.80	171.60	59.30	-24.6	-25.5	16.8	0.00e+00	0	44	0	2127560704	8	4019
2026-01-02 14:44:52.80	171.76	59.70	-24.8	-25.6	16.4	0.00e+00	0	44	0	2134900736	9	3937
2026-01-02 14:44:53.80	171.93	60.10	-24.3	-24.4	17.1	0.00e+00	0	44	0	2142240768	9	3647
2026-01-02 14:44:54.80	172.10	60.50	-23.9	-23.7	17.5	0.00e+00	0	44	0	2149580800	9	3492
2026-01-02 14:44:55.80	172.28	60.91	-23.7	-23.7	17.8	0.00e+00	0	44	0	2156920832	8	3597
2026-01-02 14:44:56.81	172.46	61.32	-23.6	-23.5	17.9	0.00e+00	0	44	0	2163212288	8	3543
2026-01-02 14:44:57.81	172.65	61.73	-23.8	-23.9	17.7	0.00e+00	0	44	0	2170552320	8	3641
2026-01-02 14:44:58.81	172.85	62.15	-23.5	-23.3	17.9	0.00e+00	0	44	0	2177892352	8	3514
2026-01-02 14:44:59.82	173.05	62.57	-23.9	-24.1	17.5	0.00e+00	0	44	0	2185232384	8	3691
2026-01-02 14:45:00.82	173.26	62.98	-23.5	-23.2	18.0	0.00e+00	0	44	0	2192572416	8	3490
2026-01-02 14:45:01.82	173.48	63.40	-23.4	-23.5	18.1	0.00e+00	0	44	0	2199912448	7	3653
2026-01-02 14:45:02.83	173.70	63.83	-23.2	-23.1	18.4	0.00e+00	0	44	0	2207252480	7	3557
2026-01-02 14:45:03.82	173.93	64.25	-23.2	-23.7	18.1	0.00e+00	0	44	0	2214592512	6	3811
2026-01-02 14:45:04.82	174.18	64.67	-22.9	-22.5	18.6	0.00e+00	0	44	0	2221932544	7	3428
2026-01-02 14:45:05.83	174.43	65.10	-22.8	-22.7	18.7	0.00e+00	0	44	0	2228224000	6	3585
2026-01-02 14:45:06.83	174.69	65.53	-23.0	-23.2	18.5	0.00e+00	0	44	0	2235564032	6	3684
2026-01-02 14:45:07.83	174.96	65.97	-23.3	-24.0	18.1	0.00e+00	0	44	0	2242904064	6	3864
2026-01-02 14:45:08.83	175.24	66.40	-22.8	-22.8	18.4	0.00e+00	0	44	0	2250244096	6	3588
2026-01-02 14:45:09.83	175.53	66.83	-22.7	-22.6	18.7	0.00e+00	0	44	0	2257584128	6	3570
2026-01-02 14:45:10.83	175.84	67.27	-22.7	-22.5	18.9	0.00e+00	0	44	0	2264924160	6	3538
2026-01-02 14:45:11.84	176.16	67.71	-22.3	-22.2	19.1	0.00e+00	0	44	0	2272264192	5	3562
2026-01-02 14:45:12.84	176.49	68.15	-22.2	-22.1	19.3	0.00e+00	0	44	0	2279604224	5	3536
2026-01-02 14:45:13.85	176.84	68.60	-22.5	-22.6	18.9	0.00e+00	0	44	0	2286944256	5	3660
2026-01-02 14:45:14.86	177.21	69.05	-22.6	-22.9	18.9	0.00e+00	0	44	0	2294284288	5	3720
2026-01-02 14:45:15.86	177.58	69.49	-22.4	-22.5	19.2	0.00e+00	0	44	0	2301624320	5	3637
2026-01-02 14:45:16.85	177.98	69.93	-22.6	-22.8	19.0	0.00e+00	0	44	0	2307915776	5	3704
2026-01-02 14:45:17.86	178.40	70.38	-22.3	-22.3	19.3	0.00e+00	0	44	0	2315255808	5	3577
2026-01-02 14:45:18.86	178.83	70.83	-22.3	-22.4	19.2	0.00e+00	0	44	0	2322595840	5	3604
2026-01-02 14:45:19.86	179.29	71.28	-22.9	-23.0	18.6	0.00e+00	0	44	0	2329935872	6	3632
2026-01-02 14:45:20.86	179.77	71.73	-22.9	-23.0	18.6	0.00e+00	0	44	0	2337275904	6	3654
2026-01-02 14:45:21.86	180.28	72.18	-23.1	-23.3	18.5	0.00e+00	0	44	0	2344615936	6	3724
2026-01-02 14:45:22.86	180.82	72.63	-23.1	-23.5	18.3	0.00e+00	0	44	0	2351955968	6	3751
2026-01-02 14:45:23.87	181.39	73.09	-23.0	-23.3	18.4	0.00e+00	0	44	0	2359296000	6	3704
2026-01-02 14:45:24.88	181.99	73.54	-23.2	-23.7	17.9	0.00e+00	0	44	0	2366636032	6	3801
2026-01-02 14:45:25.88	182.63	73.99	-22.6	-22.4	18.8	0.00e+00	0	44	0	2372927488	6	3523
2026-01-02 14:45:26.89	183.31	74.45	-22.7	-22.5	18.8	0.00e+00	0	44	0	2380267520	6	3546
2026-01-02 14:45:27.89	184.02	74.90	-22.3	-22.2	19.2	0.00e+00	0	44	0	2387607552	5	3581
2026-01-02 14:45:28.90	184.79	75.35	-22.4	-22.5	19.2	0.00e+00	0	44	0	2394947584	5	3633
2026-01-02 14:45:29.90	185.60	75.80	-22.2	-22.1	19.3	0.00e+00	0	44	0	2402287616	5	3540
2026-01-02 14:45:30.91	186.47	76.25	-22.3	-22.2	19.3	0.00e+00	0	44	0	2409627648	5	3575
2026-01-02 14:45:31.91	187.39	76.70	-22.4	-22.6	19.1	0.00e+00	0	44	0	2416967680	5	3647
2026-01-02 14:45:32.91	188.38	77.14	-21.8	-21.7	19.8	0.00e+00	0	44	0	2424307712	4	3560
2026-01-02 14:45:33.92	189.45	77.58	-21.4	-21.5	20.2	0.00e+00	0	44	0	2431647744	3	3625
2026-01-02 14:45:34.92	190.59	78.02	-21.1	-20.7	20.5	0.00e+00	0	44	0	2438987776	3	3456
2026-01-02 14:45:35.92	191.82	78.45	-21.1	-20.8	20.5	0.00e+00	0	44	0	2446327808	3	3470
2026-01-02 14:45:36.93	193.16	78.88	-21.4	-21.4	20.2	0.00e+00	0	44	0	2452619264	3	3588
2026-01-02 14:45:37.93	194.60	79.31	-21.5	-21.6	20.1	0.00e+00	0	44	0	2459959296	3	3650
2026-01-02 14:45:38.93	196.15	79.72	-21.8	-22.1	19.9	0.00e+00	0	44	0	2467299328	3	3760
2026-01-02 14:45:39.92	197.82	80.13	-21.4	-21.3	20.2	0.00e+00	0	44	0	2474639360	3	3585
2026-01-02 14:45:40.93	199.67	80.54	-21.2	-21.0	20.4	0.00e+00	0	44	0	2481979392	3	3516
2026-01-02 14:45:41.93	201.66	80.93	-21.3	-21.3	20.3	0.00e+00	0	44	0	2489319424	3	3566
2026-01-02 14:45:42.93	203.84	81.31	-21.4	-21.4	20.2	0.00e+00	0	44	0	2496659456	3	3609
2026-01-02 14:45:43.93	206.21	81.68	-21.6	-21.7	20.1	0.00e+00	0	44	0	2503999488	3	3670
2026-01-02 14:45:44.93	208.80	82.03	-21.3	-21.2	20.4	0.00e+00	0	44	0	2511339520	3	3561
2026-01-02 14:45:45.94	211.66	82.37	-21.2	-21.0	20.4	0.00e+00	0	44	0	2517630976	3	3518
2026-01-02 14:45:46.94	214.74	82.68	-21.1	-20.8	20.6	0.00e+00	0	44	0	2524971008	3	3469
2026-01-02 14:45:47.94	218.10	82.98	-21.1	-20.8	20.5	0.00e+00	0	44	0	2532311040	3	3477
2026-01-02 14:45:48.94	221.73	83.25	-21.3	-21.2	20.3	0.00e+00	0	44	0	2539651072	3	3564
2026-01-02 14:45:49.95	225.69	83.49	-21.5	-21.5	20.2	0.00e+00	0	44	0	2546991104	3	3623
2026-01-02 14:45:50.95	229.89	83.69	-21.7	-22.0	19.9	0.00e+00	0	44	0	2554331136	3	3723
2026-01-02 14:45:51.96	234.40	83.87	-21.7	-21.9	20.0	0.00e+00	0	44	0	2561671168	3	3713
2026-01-02 14:45:52.95	239.05	84.00	-21.8	-22.2	19.9	0.00e+00	0	44	0	2569011200	3	3777
2026-01-02 14:45:53.95	243.91	84.09	-21.6	-21.9	20.0	0.00e+00	0	44	0	2576351232	3	3701
2026-01-02 14:45:54.95	248.90	84.13	-21.8	-22.3	19.8	0.00e+00	0	44	0	2583691264	3	3794
2026-01-02 14:45:55.95	253.92	84.14	-22.1	-22.3	19.4	0.00e+00	0	44	0	2591031296	4	3693
2026-01-02 14:45:56.95	258.91	84.10	-22.2	-22.5	19.3	0.00e+00	0	44	0	2598371328	4	3735
2026-01-02 14:45:57.95	263.80	84.01	-22.2	-22.5	19.3	0.00e+00	0	44	0	2604662784	4	3730
2026-01-02 14:45:58.94	268.46	83.88	-22.0	-22.2	19.5	0.00e+00	0	44	0	2612002816	4	3663
2026-01-02 14:45:59.95	273.00	83.72	-22.6	-22.8	18.9	0.00e+00	0	44	0	2619342848	5	3706
2026-01-02 14:46:00.94	277.19	83.52	-22.6	-22.9	19.0	0.00e+00	0	44	0	2626682880	5	3718
2026-01-02 14:46:01.95	281.19	83.28	-22.5	-22.7	19.1	0.00e+00	0	44	0	2634022912	5	3669
2026-01-02 14:46:02.95	284.86	83.01	-22.4	-22.5	19.2	0.00e+00	0	44	0	2641362944	5	3630
2026-01-02 14:46:03.95	288.24	82.72	-22.7	-23.1	18.8	0.00e+00	0	44	0	2648702976	5	3771
2026-01-02 14:46:04.96	291.39	82.41	-22.1	-21.9	19.5	0.00e+00	0	44	0	2656043008	5	3504
2026-01-02 14:46:05.96	294.24	82.07	-21.8	-21.8	19.7	0.00e+00	0	44	0	2662334464	4	3581
2026-01-02 14:46:06.97	296.89	81.72	-21.9	-21.9	19.7	0.00e+00	0	44	0	2669674496	4	3615
2026-01-02 14:46:07.97	299.28	81.35	-21.7	-21.5	19.9	0.00e+00	0	44	0	2677014528	4	3515
2026-01-02 14:46:08.98	301.50	80.97	-21.5	-21.2	20.0	0.00e+00	0	44	0	2684354560	4	3452
2026-01-02 14:46:09.98	303.51	80.58	-21.5	-21.1	20.0	0.00e+00	0	44	0	2691694592	4	3429
2026-01-02 14:46:10.98	305.36	80.18	-21.4	-21.0	20.1	0.00e+00	0	44	0	2699034624	4	3414
2026-01-02 14:46:11.98	307.06	79.77	-21.6	-21.2	20.0	0.00e+00	0	44	0	2706374656	4	3462
2026-01-02 14:46:12.99	308.65	79.35	-21.3	-21.2	20.2	0.00e+00	0	44	0	2713714688	3	3547
2026-01-02 14:46:13.99	310.09	78.93	-21.3	-21.3	20.3	0.00e+00	0	44	0	2721054720	3	3569
2026-01-02 14:46:15.00	311.44	78.50	-21.5	-21.6	20.1	0.00e+00	0	44	0	2728394752	3	3634
2026-01-02 14:46:16.00	312.68	78.07	-21.2	-21.0	20.3	0.00e+00	0	44	0	2735734784	3	3504
2026-01-02 14:46:17.01	313.84	77.62	-21.1	-20.9	20.4	0.00e+00	0	44	0	2743074816	3	3481
2026-01-02 14:46:18.01	314.91	77.19	-21.6	-21.8	20.0	0.00e+00	0	44	0	2749366272	3	3687
2026-01-02 14:46:19.01	315.90	76.74	-21.8	-22.1	19.6	0.00e+00	0	44	0	2756706304	3	3756
2026-01-02 14:46:20.01	316.83	76.30	-22.0	-22.7	19.5	0.00e+00	0	44	0	2764046336	3	3888
2026-01-02 14:46:21.02	317.71	75.85	-22.1	-22.3	19.3	0.00e+00	0	44	0	2771386368	4	3703
2026-01-02 14:46:22.01	318.51	75.41	-22.4	-23.1	18.9	0.00e+00	0	44	0	2778726400	4	3869
2026-01-02 14:46:23.01	319.28	74.96	-22.5	-22.7	19.0	0.00e+00	0	44	0	2786066432	5	3673
2026-01-02 14:46:24.02	320.00	74.50	-22.5	-22.6	19.0	0.00e+00	0	44	0	2793406464	5	3668
2026-01-02 14:46:25.02	320.68	74.05	-22.5	-22.7	18.9	0.00e+00	0	44	0	2800746496	5	3675
2026-01-02 14:46:26.02	321.32	73.60	-22.7	-23.2	18.3	0.00e+00	0	44	0	2808086528	5	3796
2026-01-02 14:46:27.03	321.93	73.15	-23.2	-23.7	18.3	0.00e+00	0	44	0	2814377984	6	3801
2026-01-02 14:46:28.03	322.50	72.70	-23.3	-23.8	18.2	0.00e+00	0	44	0	2821718016	6	3826
2026-01-02 14:46:29.03	323.03	72.25	-23.3	-23.8	18.2	0.00e+00	0	44	0	2829058048	6	3817
2026-01-02 14:46:30.04	323.55	71.80	-23.1	-23.5	18.3	0.00e+00	0	44	0	2836398080	6	3752
2026-01-02 14:46:31.04	324.04	71.35	-23.2	-23.7	18.2	0.00e+00	0	44	0	2843738112	6	3804
2026-01-02 14:46:32.04	324.50	70.90	-23.4	-24.1	18.0	0.00e+00	0	44	0	2851078144	6	3891
2026-01-02 14:46:33.05	324.94	70.45	-23.5	-24.3	17.8	0.00e+00	0	44	0	2858418176	6	3938
2026-01-02 14:46:34.05	325.36	70.00	-23.3	-23.9	18.1	0.00e+00	0	44	0	2865758208	6	3843
2026-01-02 14:46:35.06	325.76	69.55	-23.3	-23.8	18.1	0.00e+00	0	44	0	2873098240	6	3816
2026-01-02 14:46:36.07	326.15	69.10	-23.2	-23.6	18.2	0.00e+00	0	44	0	2880438272	6	3781
2026-01-02 14:46:37.07	326.51	68.66	-22.8	-22.8	18.7	0.00e+00	0	44	0	2887778304	6	3590
2026-01-02 14:46:38.07	326.86	68.22	-22.6	-22.3	18.9	0.00e+00	0	44	0	2894069760	6	3489
2026-01-02 14:46:39.08	327.19	67.78	-22.7	-22.7	18.7	0.00e+00	0	44	0	2901409792	6	3569
2026-01-02 14:46:40.08	327.51	67.34	-22.8	-22.9	18.5	0.00e+00	0	44	0	2908749824	6	3621
2026-01-02 14:46:41.09	327.82	66.90	-22.5	-22.2	19.0	0.00e+00	0	44	0	2916089856	6	3459
2026-01-02 14:46:42.08	328.11	66.47	-22.3	-22.3	19.1	0.00e+00	0	44	0	2923429888	5	3578
2026-01-02 14:46:43.09	328.40	66.03	-22.4	-22.5	19.0	0.00e+00	0	44	0	2930769920	5	3628
2026-01-02 14:46:44.09	328.67	65.60	-22.7	-23.1	18.7	0.00e+00	0	44	0	2938109952	5	3766
2026-01-02 14:46:45.10	328.93	65.17	-22.9	-23.5	18.5	0.00e+00	0	44	0	2945449984	5	3869
2026-01-02 14:46:46.10	329.18	64.74	-23.2	-23.6	18.2	0.00e+00	0	44	0	2952790016	6	3768
2026-01-02 14:46:47.10	329.43	64.32	-23.1	-23.4	18.3	0.00e+00	0	44	0	2960130048	6	3727
2026-01-02 14:46:48.10	329.66	63.89	-23.0	-23.2	18.4	0.00e+00	0	44	0	2967470080	6	3695
2026-01-02 14:46:49.11	329.89	63.47	-23.1	-23.4	18.4	0.00e+00	0	44	0	2974810112	6	3717
2026-01-02 14:46:50.12	330.11	63.05	-23.0	-23.2	18.4	0.00e+00	0	44	0	2981101568	6	3686
2026-01-02 14:46:51.12	330.32	62.63	-23.4	-24.1	18.0	0.00e+00	0	44	0	2988441600	6	3886
2026-01-02 14:46:52.13	330.52	62.21	-23.6	-24.4	17.8	0.00e+00	0	44	0	2995781632	6	3956
2026-01-02 14:46:53.14	330.72	61.80	-23.9	-24.7	17.5	0.00e+00	0	44	0	3003121664	7	3922
2026-01-02 14:46:54.14	330.91	61.39	-24.3	-25.0	16.9	0.00e+00	0	44	0	3010461696	8	3903
2026-01-02 14:46:55.14	331.10	60.98	-24.2	-24.7	17.2	0.00e+00	0	44	0	3017801728	8	3809
2026-01-02 14:46:56.15	331.28	60.57	-24.4	-25.2	16.9	0.00e+00	0	44	0	3025141760	8	3947
2026-01-02 14:46:57.15	331.45	60.17	-24.6	-25.5	16.7	0.00e+00	0	44	0	3032481792	8	4001
2026-01-02 14:46:58.15	331.62	59.77	-24.8	-25.6	16.5	0.00e+00	0	44	0	3039821824	9	3935
2026-01-02 14:46:59.16	331.78	59.37	-24.9	-25.7	16.4	0.00e+00	0	44	0	3047161856	9	3942
2026-01-02 14:47:00.16	331.94	58.97	-24.6	-25.2	16.7	0.00e+00	0	44	0	3054501888	9	3825
2026-01-02 14:47:01.16	332.09	58.58	-25.0	-25.4	16.1	0.00e+00	0	44	0	3060793344	10	3778
2026-01-02 14:47:02.16	332.24	58.19	-24.7	-24.7	16.6	0.00e+00	0	44	0	3068133376	10	3627
2026-01-02 14:47:03.17	332.39	57.79	-24.4	-24.6	17.0	0.00e+00	0	44	0	3075473408	9	3699
2026-01-02 14:47:04.17	332.53	57.41	-24.5	-25.0	16.8	0.00e+00	0	44	0	3082813440	9	3783
2026-01-02 14:47:05.17	332.66	57.03	-24.5	-25.0	16.8	0.00e+00	0	44	0	3090153472	9	3786
2026-01-02 14:47:06.16	332.80	56.65	-24.2	-24.3	17.0	0.00e+00	0	44	0	3097493504	9	3636
2026-01-02 14:47:07.17	332.93	56.27	-24.0	-23.9	17.3	0.00e+00	0	44	0	3104833536	9	3535
2026-01-02 14:47:08.16	333.05	55.89	-23.9	-24.2	17.4	0.00e+00	0	44	0	3112173568	8	3701
2026-01-02 14:47:09.17	333.18	55.52	-24.3	-24.9	17.0	0.00e+00	0	44	0	3119513600	8	3865
2026-01-02 14:47:10.18	333.30	55.14	-24.2	-24.8	17.1	0.00e+00	0	44	0	3125805056	8	3832
2026-01-02 14:47:11.18	333.41	54.77	-24.4	-25.1	16.9	0.00e+00	0	44	0	3133145088	8	3911
2026-01-02 14:47:12.18	333.53	54.41	-24.1	-24.6	17.2	0.00e+00	0	44	0	3140485120	8	3784
2026-01-02 14:47:13.19	333.64	54.04	-24.4	-25.1	16.7	0.00e+00	0	44	0	3147825152	8	3917
2026-01-02 14:47:14.19	333.75	53.68	-24.3	-25.0	17.0	0.00e+00	0	44	0	3155165184	8	3891
2026-01-02 14:47:15.19	333.86	53.32	-24.4	-25.1	16.9	0.00e+00	0	44	0	3162505216	8	3910
2026-01-02 14:47:16.19	333.96	52.96	-24.4	-25.2	16.9	0.00e+00	0	44	0	3169845248	8	3926
2026-01-02 14:47:17.19	334.06	52.61	-24.4	-25.2	16.9	0.00e+00	0	44	0	3177185280	8	3948
2026-01-02 14:47:18.19	334.16	52.26	-24.8	-25.5	16.4	0.00e+00	0	44	0	3184525312	9	3905
2026-01-02 14:47:19.20	334.26	51.91	-25.1	-26.1	16.1	0.00e+00	0	44	0	3191865344	9	4054
2026-01-02 14:47:20.20	334.35	51.56	-25.5	-26.0	15.5	0.00e+00	0	44	0	3199205376	11	3803
2026-01-02 14:47:21.21	334.44	51.21	-25.1	-25.1	16.2	0.00e+00	0	44	0	3206545408	11	3599
2026-01-02 14:47:22.21	334.54	50.87	-24.9	-24.7	16.2	0.00e+00	0	44	0	3212836864	11	3528
2026-01-02 14:47:23.22	334.62	50.53	-24.9	-24.8	16.3	0.00e+00	0	44	0	3220176896	11	3538
2026-01-02 14:47:24.23	334.71	50.19	-24.8	-25.1	16.4	0.00e+00	0	44	0	3227516928	10	3703
2026-01-02 14:47:25.23	334.80	49.85	-24.8	-25.0	16.4	0.00e+00	0	44	0	3234856960	10	3677
2026-01-02 14:47:26.24	334.88	49.52	-25.0	-25.5	16.2	0.00e+00	0	44	0	3242196992	10	3793
2026-01-02 14:47:27.24	334.96	49.19	-24.4	-24.2	16.9	0.00e+00	0	44	0	3249537024	10	3507
2026-01-02 14:47:28.24	335.04	48.86	-24.1	-24.0	17.2	0.00e+00	0	44	0	3256877056	9	3561
2026-01-02 14:47:29.24	335.12	48.54	-23.8	-23.9	17.5	0.00e+00	0	44	0	3264217088	8	3630
2026-01-02 14:47:30.25	335.20	48.21	-23.7	-23.7	17.3	0.00e+00	0	44	0	3271557120	8	3599
2026-01-02 14:47:31.25	335.27	47.89	-23.7	-23.7	17.6	0.00e+00	0	44	0	3278897152	8	3594
2026-01-02 14:47:32.25	335.35	47.57	-23.7	-23.7	17.6	0.00e+00	0	44	0	3286237184	8	3594
2026-01-02 14:47:33.25	335.42	47.26	-23.7	-23.7	17.6	0.00e+00	0	44	0	3292528640	8	3607
2026-01-02 14:47:34.25	335.49	46.95	-23.5	-23.3	17.7	0.00e+00	0	44	0	3299868672	8	3521
2026-01-02 14:47:35.26	335.56	46.63	-23.5	-23.3	17.8	0.00e+00	0	44	0	3307208704	8	3508
2026-01-02 14:47:36.26	335.63	46.32	-23.6	-23.5	17.7	0.00e+00	0	44	0	3314548736	8	3556
2026-01-02 14:47:37.26	335.69	46.02	-23.8	-23.8	17.5	0.00e+00	0	44	0	3321888768	8	3622
2026-01-02 14:47:38.26	335.76	45.71	-23.6	-23.4	17.7	0.00e+00	0	44	0	3329228800	8	3529
2026-01-02 14:47:39.26	335.82	45.41	-23.9	-24.1	17.4	0.00e+00	0	44	0	3336568832	8	3676
2026-01-02 14:47:40.27	335.89	45.11	-23.6	-23.5	17.7	0.00e+00	0	44	0	3343908864	8	3550
2026-01-02 14:47:41.27	335.95	44.81	-23.2	-23.0	17.6	0.00e+00	0	44	0	3351248896	7	3555
2026-01-02 14:47:42.27	336.01	44.52	-23.1	-22.9	18.2	0.00e+00	0	44	0	3357540352	7	3519
2026-01-02 14:47:43.28	336.07	44.22	-22.9	-22.5	18.4	0.00e+00	0	44	0	3364880384	7	3443
2026-01-02 14:47:44.29	336.13	43.93	-22.8	-22.8	18.5	0.00e+00	0	44	0	3372220416	6	3596
2026-01-02 14:47:45.29	336.19	43.64	-22.7	-22.6	18.6	0.00e+00	0	44	0	3379560448	6	3549
2026-01-02 14:47:46.30	336.25	43.35	-22.6	-22.5	18.4	0.00e+00	0	44	0	3386900480	6	3533
2026-01-02 14:47:47.31	336.30	43.06	-23.0	-23.1	18.3	0.00e+00	0	44	0	3394240512	6	3674
2026-01-02 14:47:48.31	336.36	42.78	-23.1	-23.4	18.2	0.00e+00	0	44	0	3401580544	6	3732
2026-01-02 14:47:49.31	336.41	42.50	-23.1	-23.5	18.1	0.00e+00	0	44	0	3408920576	6	3758
2026-01-02 14:47:50.31	336.47	42.22	-23.2	-23.7	18.1	1.10e-06	0	44	0	3416260608	6	3807
2026-01-02 14:47:51.31	336.52	41.95	-23.3	-23.9	17.8	0.00e+00	0	44	0	3423600640	6	3854
2026-01-02 14:47:52.31	336.57	41.67	-23.2	-23.6	18.0	0.00e+00	0	44	0	3430940672	6	3780
2026-01-02 14:47:53.32	336.62	41.40	-23.1	-23.5	18.1	0.00e+00	0	44	0	3437232128	6	3761
2026-01-02 14:47:54.32	336.67	41.13	-23.3	-23.9	17.9	0.00e+00	0	44	0	3444572160	6	3842
2026-01-02 14:47:55.33	336.72	40.86	-23.6	-24.0	17.6	0.00e+00	0	44	0	3451912192	7	3770
2026-01-02 14:47:56.33	336.77	40.59	-23.4	-23.5	17.9	0.00e+00	0	44	0	3459252224	7	3643
2026-01-02 14:47:57.33	336.82	40.33	-23.2	-23.2	17.9	0.00e+00	0	44	0	3466592256	7	3587
2026-01-02 14:47:58.33	336.87	40.07	-23.3	-23.4	17.9	0.00e+00	0	44	0	3473932288	7	3640
2026-01-02 14:47:59.34	336.91	39.80	-23.5	-23.8	17.7	0.00e+00	0	44	0	3481272320	7	3715
2026-01-02 14:48:00.34	336.96	39.55	-23.6	-24.0	17.6	0.00e+00	0	44	0	3488612352	7	3767
2026-01-02 14:48:01.35	337.01	39.29	-23.4	-23.6	17.6	0.00e+00	0	44	0	3495952384	7	3691
2026-01-02 14:48:02.35	337.05	39.03	-23.5	-23.7	17.7	0.00e+00	0	44	0	3503292416	7	3706
2026-01-02 14:48:03.36	337.09	38.78	-23.4	-23.5	17.8	0.00e+00	0	44	0	3510632448	7	3665
2026-01-02 14:48:04.36	337.14	38.53	-23.3	-23.3	17.9	0.00e+00	0	44	0	3517972480	7	3611
2026-01-02 14:48:05.37	337.18	38.28	-23.1	-22.9	18.1	0.00e+00	0	44	0	3524263936	7	3528
2026-01-02 14:48:06.38	337.22	38.03	-23.1	-22.9	18.1	0.00e+00	0	44	0	3531603968	7	3533
2026-01-02 14:48:07.37	337.27	37.78	-22.7	-22.5	18.3	0.00e+00	0	44	0	3538944000	6	3537
2026-01-02 14:48:08.37	337.31	37.54	-22.6	-22.4	18.7	0.00e+00	0	44	0	3546284032	6	3504
2026-01-02 14:48:09.37	337.35	37.30	-22.6	-22.3	18.7	0.00e+00	0	44	0	3553624064	6	3500
2026-01-02 14:48:10.37	337.39	37.06	-22.6	-22.4	18.6	0.00e+00	0	44	0	3560964096	6	3503
2026-01-02 14:48:11.38	337.43	36.82	-22.5	-22.1	18.8	0.00e+00	0	44	0	3568304128	6	3447
2026-01-02 14:48:12.37	337.47	36.58	-22.4	-22.5	18.8	0.00e+00	0	44	0	3575644160	5	3628
2026-01-02 14:48:13.38	337.50	36.35	-22.4	-22.5	18.7	0.00e+00	0	44	0	3582984192	5	3641
2026-01-02 14:48:14.38	337.54	36.11	-22.3	-22.4	18.9	0.00e+00	0	44	0	3589275648	5	3610
2026-01-02 14:48:15.39	337.58	35.88	-22.5	-22.6	18.8	0.00e+00	0	44	0	3596615680	5	3674
2026-01-02 14:48:16.39	337.62	35.65	-22.6	-22.9	18.6	0.00e+00	0	44	0	3603955712	5	3725
2026-01-02 14:48:17.40	337.65	35.42	-22.5	-22.7	18.7	0.00e+00	0	44	0	3611295744	5	3684
2026-01-02 14:48:18.40	337.69	35.19	-22.6	-22.9	18.6	0.00e+00	0	44	0	3618635776	5	3739
2026-01-02 14:48:19.40	337.73	34.97	-22.6	-23.0	18.6	0.00e+00	0	44	0	3625975808	5	3752
2026-01-02 14:48:20.41	337.76	34.74	-22.6	-22.9	18.6	0.00e+00	0	44	0	3633315840	5	3741
2026-01-02 14:48:21.41	337.80	34.52	-22.8	-23.3	18.4	0.00e+00	0	44	0	3640655872	5	3820
2026-01-02 14:48:22.41	337.83	34.30	-23.0	-23.3	18.0	0.00e+00	0	44	0	3647995904	6	3718
2026-01-02 14:48:23.42	337.86	34.08	-22.8	-22.8	18.4	0.00e+00	0	44	0	3655335936	6	3591
2026-01-02 14:48:24.43	337.90	33.86	-22.6	-22.4	18.6	0.00e+00	0	44	0	3662675968	6	3512
2026-01-02 14:48:25.42	337.93	33.65	-22.5	-22.2	18.7	0.00e+00	0	44	0	3668967424	6	3479
2026-01-02 14:48:26.43	337.96	33.43	-22.5	-22.2	18.7	0.00e+00	0	44	0	3676307456	6	3474
2026-01-02 14:48:27.43	338.00	33.22	-22.5	-22.3	18.7	0.00e+00	0	44	0	3683647488	6	3489
2026-01-02 14:48:28.43	338.03	33.01	-22.7	-22.6	18.5	0.00e+00	0	44	0	3690987520	6	3559
2026-01-02 14:48:29.43	338.06	32.80	-22.7	-22.7	18.4	0.00e+00	0	44	0	3698327552	6	3575
2026-01-02 14:48:30.44	338.09	32.59	-22.6	-22.3	18.6	0.00e+00	0	44	0	3705667584	6	3496
2026-01-02 14:48:31.44	338.12	32.38	-22.7	-22.5	18.5	0.00e+00	0	44	0	3713007616	6	3545
2026-01-02 14:48:32.45	338.15	32.18	-22.6	-22.4	18.5	0.00e+00	0	44	0	3720347648	6	3520
2026-01-02 14:48:33.45	338.18	31.97	-22.7	-22.6	18.5	0.00e+00	0	44	0	3727687680	6	3561
2026-01-02 14:48:34.45	338.21	31.77	-22.7	-22.6	18.4	0.00e+00	0	44	0	3735027712	6	3566
2026-01-02 14:48:35.45	338.24	31.57	-22.8	-22.8	18.4	0.00e+00	0	44	0	3742367744	6	3593
2026-01-02 14:48:36.46	338.27	31.37	-22.9	-22.9	18.3	0.00e+00	0	44	0	3749707776	6	3638
2026-01-02 14:48:37.47	338.30	31.17	-22.8	-22.7	18.4	0.00e+00	0	44	0	3755999232	6	3593
2026-01-02 14:48:38.47	338.33	30.97	-22.9	-22.9	18.3	0.00e+00	0	44	0	3763339264	6	3634
2026-01-02 14:48:39.47	338.36	30.77	-23.0	-23.3	18.1	0.00e+00	0	44	0	3770679296	6	3709
2026-01-02 14:48:40.48	338.39	30.58	-22.9	-23.1	18.2	0.00e+00	0	44	0	3778019328	6	3667
2026-01-02 14:48:41.48	338.42	30.38	-22.9	-23.0	18.3	0.00e+00	0	44	0	3785359360	6	3660
2026-01-02 14:48:42.48	338.44	30.19	-23.1	-23.5	18.0	0.00e+00	0	44	0	3792699392	6	3757
2026-01-02 14:48:43.49	338.47	30.00	-23.2	-23.7	17.8	0.00e+00	0	44	0	3800039424	6	3807
2026-01-02 14:48:44.49	338.50	29.81	-23.5	-24.2	17.6	0.00e+00	0	44	0	3807379456	6	3937
2026-01-02 14:48:45.49	338.52	29.62	-23.6	-24.1	17.5	0.00e+00	0	44	0	3814719488	7	3783
2026-01-02 14:48:46.49	338.55	29.44	-23.3	-23.4	17.8	0.00e+00	0	44	0	3821010944	7	3646
2026-01-02 14:48:47.49	338.58	29.25	-23.2	-23.1	17.9	0.00e+00	0	44	0	3829399552	7	3583
2026-01-02 14:48:48.50	338.60	29.07	-23.2	-23.2	17.8	0.00e+00	0	44	0	3836739584	7	3602
2026-01-02 14:48:49.50	338.63	28.88	-23.3	-23.3	17.8	0.00e+00	0	44	0	3843031040	7	3620
2026-01-02 14:48:50.51	338.65	28.70	-23.4	-23.6	17.7	0.00e+00	0	44	0	3850371072	7	3678
2026-01-02 14:48:51.52	338.68	28.52	-23.5	-23.9	17.5	0.00e+00	0	44	0	3857711104	7	3735
2026-01-02 14:48:52.53	338.70	28.33	-23.3	-23.4	17.8	0.00e+00	0	44	0	3865051136	7	3626
2026-01-02 14:48:53.53	338.73	28.16	-23.4	-23.7	17.4	0.00e+00	0	44	0	3872391168	7	3693
2026-01-02 14:48:54.54	338.75	27.98	-23.9	-24.6	17.1	0.00e+00	0	44	0	3879731200	7	3905
2026-01-02 14:48:55.54	338.78	27.80	-23.6	-24.1	17.3	0.00e+00	0	44	0	3887071232	7	3792
2026-01-02 14:48:56.54	338.80	27.63	-23.5	-23.7	17.6	0.00e+00	0	44	0	3894411264	7	3710
2026-01-02 14:48:57.54	338.83	27.45	-23.8	-24.5	17.2	0.00e+00	0	44	0	3900702720	7	3891
2026-01-02 14:48:58.54	338.85	27.28	-23.4	-23.7	17.6	0.00e+00	0	44	0	3909091328	7	3694
2026-01-02 14:48:59.54	338.87	27.11	-23.2	-23.2	17.8	0.00e+00	0	44	0	3915382784	7	3602
2026-01-02 14:49:00.54	338.90	26.94	-23.3	-23.5	17.7	0.00e+00	0	44	0	3922722816	7	3653
2026-01-02 14:49:01.53	338.92	26.77	-23.3	-23.4	17.7	0.00e+00	0	44	0	3930062848	7	3635
2026-01-02 14:49:02.54	338.94	26.60	-23.3	-23.3	17.8	0.00e+00	0	44	0	3937402880	7	3623
2026-01-02 14:49:03.54	338.97	26.43	-23.4	-23.7	17.6	0.00e+00	0	44	0	3944742912	7	3699
2026-01-02 14:49:04.55	338.99	26.26	-23.4	-23.6	17.6	0.00e+00	0	44	0	3952082944	7	3680
2026-01-02 14:49:05.55	339.01	26.10	-23.4	-23.5	17.7	0.00e+00	0	44	0	3959422976	7	3658
2026-01-02 14:49:06.56	339.03	25.93	-23.3	-23.3	17.7	0.00e+00	0	44	0	3966763008	7	3620
2026-01-02 14:49:07.57	339.05	25.77	-23.3	-23.4	17.8	0.00e+00	0	44	0	3974103040	7	3627
2026-01-02 14:49:08.57	339.08	25.61	-23.3	-23.3	17.8	0.00e+00	0	44	0	3981443072	7	3607
2026-01-02 14:49:09.56	339.10	25.45	-23.4	-23.5	17.7	0.00e+00	0	44	0	3987734528	7	3663
2026-01-02 14:49:10.56	339.12	25.29	-23.2	-23.2	17.8	0.00e+00	0	44	0	3995074560	7	3602
2026-01-02 14:49:11.56	339.14	25.13	-23.2	-23.2	17.8	0.00e+00	0	44	0	4002414592	7	3586
2026-01-02 14:49:12.56	339.16	24.97	-23.0	-22.8	18.0	0.00e+00	0	44	0	4009754624	7	3513
2026-01-02 14:49:13.56	339.18	24.81	-23.0	-22.8	18.0	0.00e+00	0	44	0	4017094656	7	3506
2026-01-02 14:49:14.57	339.20	24.65	-22.9	-22.6	18.1	0.00e+00	0	44	0	4024434688	7	3463
2026-01-02 14:49:15.56	339.22	24.50	-22.9	-22.5	18.2	0.00e+00	0	44	0	4031774720	7	3445
2026-01-02 14:49:16.57	339.24	24.34	-22.8	-22.8	18.3	0.00e+00	0	44	0	4039114752	6	3616
2026-01-02 14:49:17.57	339.26	24.19	-22.8	-22.8	18.2	0.00e+00	0	44	0	4045406208	6	3608
2026-01-02 14:49:18.57	339.28	24.04	-22.9	-23.1	18.1	0.00e+00	0	44	0	4052746240	6	3673
2026-01-02 14:49:19.57	339.30	23.88	-22.8	-22.9	18.2	0.00e+00	0	44	0	4060086272	6	3617
2026-01-02 14:49:20.57	339.32	23.73	-22.9	-22.9	18.1	0.00e+00	0	44	0	4067426304	6	3636
2026-01-02 14:49:21.57	339.34	23.58	-22.9	-22.9	18.2	0.00e+00	0	44	0	4074766336	6	3631
2026-01-02 14:49:22.58	339.36	23.43	-22.8	-22.9	18.2	0.00e+00	0	44	0	4082106368	6	3619
2026-01-02 14:49:23.59	339.38	23.28	-22.9	-23.0	18.2	0.00e+00	0	44	0	4089446400	6	3644
2026-01-02 14:49:24.60	339.40	23.13	-22.8	-22.9	18.1	0.00e+00	0	44	0	4096786432	6	3630
2026-01-02 14:49:25.60	339.42	22.99	-22.9	-23.1	18.1	0.00e+00	0	44	0	4104126464	6	3674
2026-01-02 14:49:26.60	339.44	22.84	-23.2	-23.6	17.9	0.00e+00	0	44	0	4111466496	6	3774
2026-01-02 14:49:27.61	339.46	22.69	-23.0	-23.3	18.0	0.00e+00	0	44	0	4118806528	6	3707
2026-01-02 14:49:28.61	339.48	22.55	-23.4	-24.1	17.6	0.00e+00	0	44	0	4126146560	6	3908
2026-01-02 14:49:29.61	339.49	22.40	-23.5	-23.9	17.5	0.00e+00	0	44	0	4132438016	7	3737
2026-01-02 14:49:30.61	339.51	22.26	-23.6	-24.0	17.4	0.00e+00	0	44	0	4139778048	7	3764
2026-01-02 14:49:31.62	339.53	22.12	-23.6	-23.9	17.4	0.00e+00	0	44	0	4147118080	7	3759
2026-01-02 14:49:32.62	339.55	21.98	-23.8	-24.4	17.2	0.00e+00	0	44	0	4154458112	7	3861
2026-01-02 14:49:33.62	339.57	21.84	-23.8	-24.4	17.1	0.00e+00	0	44	0	4161798144	7	3850
2026-01-02 14:49:34.62	339.58	21.70	-23.6	-24.1	17.3	0.00e+00	0	44	0	4169138176	7	3796
2026-01-02 14:49:35.62	339.60	21.56	-23.4	-23.5	17.6	0.00e+00	0	44	0	4176478208	7	3655
2026-01-02 14:49:36.63	339.62	21.42	-24.3	-25.0	16.6	0.00e+00	0	44	0	4183818240	8	3904
2026-01-02 14:49:37.62	339.64	21.28	-24.2	-24.9	16.7	0.00e+00	0	44	0	4191158272	8	3870
2026-01-02 14:49:38.63	339.65	21.15	-24.1	-24.5	16.8	0.00e+00	0	44	0	4197449728	8	3784
2026-01-02 14:49:39.63	339.67	21.01	-23.9	-24.2	17.0	0.00e+00	0	44	0	4204789760	8	3707
2026-01-02 14:49:40.64	339.69	20.87	-23.6	-23.4	17.4	0.00e+00	0	44	0	4212129792	8	3550
2026-01-02 14:49:41.64	339.71	20.74	-23.5	-23.4	17.4	0.00e+00	0	44	0	4219469824	8	3534
2026-01-02 14:49:42.64	339.72	20.61	-23.5	-23.3	17.5	0.00e+00	0	44	0	4226809856	8	3507
2026-01-02 14:49:43.65	339.74	20.47	-23.5	-23.4	17.4	0.00e+00	0	44	0	4234149888	8	3534
2026-01-02 14:49:44.66	339.76	20.34	-23.6	-23.4	17.4	0.00e+00	0	44	0	4241489920	8	3547
2026-01-02 14:49:45.66	339.77	20.21	-23.6	-23.4	17.4	0.00e+00	0	44	0	4248829952	8	3541
2026-01-02 14:49:46.66	339.79	20.08	-23.7	-23.7	17.2	0.00e+00	0	44	0	4256169984	8	3595
2026-01-02 14:49:47.66	339.81	19.95	-23.6	-23.6	17.3	0.00e+00	0	44	0	4263510016	8	3577
2026-01-02 14:49:48.67	339.82	19.81	-23.6	-23.6	17.3	0.00e+00	0	44	0	4270850048	8	3584
2026-01-02 14:49:49.67	339.84	19.69	-23.7	-23.7	17.2	0.00e+00	0	44	0	4277141504	8	3615
2026-01-02 14:49:50.67	339.85	19.56	-23.9	-24.1	17.0	0.00e+00	0	44	0	4284481536	8	3689
2026-01-02 14:49:51.67	339.87	19.43	-23.9	-24.1	17.0	0.00e+00	0	44	0	4291821568	8	3687
2026-01-02 14:49:52.67	339.89	19.30	-23.9	-24.1	17.0	0.00e+00	0	44	0	4299161600	8	3692
2026-01-02 14:49:53.67	339.90	19.18	-23.9	-24.1	17.0	0.00e+00	0	44	0	4306501632	8	3702
2026-01-02 14:49:54.67	339.92	19.05	-24.0	-24.4	16.8	0.00e+00	0	44	0	4313841664	8	3765
2026-01-02 14:49:55.67	339.93	18.93	-24.0	-24.4	16.8	0.00e+00	0	44	0	4321181696	8	3758
2026-01-02 14:49:56.67	339.95	18.80	-24.0	-24.4	16.8	0.00e+00	0	44	0	4328521728	8	3763
2026-01-02 14:49:57.68	339.96	18.68	-24.2	-24.7	16.6	0.00e+00	0	44	0	4335861760	8	3831
2026-01-02 14:49:58.68	339.98	18.56	-24.1	-24.6	16.7	0.00e+00	0	44	0	4342153216	8	3812
2026-01-02 14:49:59.69	339.99	18.43	-24.1	-24.7	16.7	0.00e+00	0	44	0	4349493248	8	3823
2026-01-02 14:50:00.69	340.01	18.31	-24.1	-24.5	16.7	0.00e+00	0	44	0	4356833280	8	3791
2026-01-02 14:50:01.69	340.02	18.19	-24.0	-24.5	16.8	0.00e+00	0	44	0	4364173312	8	3780
2026-01-02 14:50:02.70	340.04	18.07	-24.4	-25.1	16.4	0.00e+00	0	44	0	4371513344	8	3938
2026-01-02 14:50:03.70	340.05	17.95	-24.3	-25.0	16.5	0.00e+00	0	44	0	4378853376	8	3911
2026-01-02 14:50:04.71	340.07	17.83	-24.4	-25.2	16.4	0.00e+00	0	44	0	4386193408	8	3948
2026-01-02 14:50:05.71	340.08	17.71	-24.4	-25.3	16.3	0.00e+00	0	44	0	4393533440	8	3967
2026-01-02 14:50:06.71	340.10	17.59	-24.4	-25.3	16.3	0.00e+00	0	44	0	4400873472	8	3964
2026-01-02 14:50:07.71	340.11	17.47	-24.5	-25.5	16.2	0.00e+00	0	44	0	4408213504	8	4018
2026-01-02 14:50:08.72	340.13	17.35	-24.5	-25.0	16.2	0.00e+00	0	44	0	4415553536	9	3788
2026-01-02 14:50:09.72	340.14	17.24	-24.4	-24.7	16.4	0.00e+00	0	44	0	4421844992	9	3730
2026-01-02 14:50:10.72	340.16	17.12	-24.4	-24.8	16.3	0.00e+00	0	44	0	4429185024	9	3751
2026-01-02 14:50:11.72	340.17	17.01	-24.5	-24.8	16.3	0.00e+00	0	44	0	4436525056	9	3759
2026-01-02 14:50:12.73	340.18	16.89	-24.4	-24.7	16.3	0.00e+00	0	44	0	4443865088	9	3737
2026-01-02 14:50:13.74	340.20	16.77	-24.6	-25.1	16.1	0.00e+00	0	44	0	4451205120	9	3831
2026-01-02 14:50:14.75	340.21	16.66	-24.5	-25.0	16.2	0.00e+00	0	44	0	4458545152	9	3812
2026-01-02 14:50:15.75	340.23	16.55	-24.4	-24.8	16.3	0.00e+00	0	44	0	4465885184	9	3746
2026-01-02 14:50:16.75	340.24	16.43	-24.6	-25.1	16.1	0.00e+00	0	44	0	4473225216	9	3817
2026-01-02 14:50:17.76	340.25	16.32	-24.5	-25.0	16.2	0.00e+00	0	44	0	4480565248	9	3792
2026-01-02 14:50:18.77	340.27	16.21	-24.6	-25.1	16.1	0.00e+00	0	44	0	4487905280	9	3834
2026-01-02 14:50:19.77	340.28	16.10	-24.7	-25.4	16.0	0.00e+00	0	44	0	4495245312	9	3888
2026-01-02 14:50:20.78	340.29	15.98	-24.6	-25.2	16.1	0.00e+00	0	44	0	4502585344	9	3837
2026-01-02 14:50:21.77	340.31	15.87	-25.1	-25.8	15.5	0.00e+00	0	44	0	4508876800	10	3879
2026-01-02 14:50:22.77	340.32	15.76	-25.0	-25.6	15.6	0.00e+00	0	44	0	4516216832	10	3846
2026-01-02 14:50:23.77	340.33	15.66	-24.8	-25.2	15.8	0.00e+00	0	44	0	4523556864	10	3738
2026-01-02 14:50:24.77	340.35	15.55	-24.7	-24.8	16.0	0.00e+00	0	44	0	4530896896	10	3657
2026-01-02 14:50:25.78	340.36	15.44	-24.7	-24.8	16.0	0.00e+00	0	44	0	4538236928	10	3654
2026-01-02 14:50:26.78	340.37	15.33	-24.8	-25.1	15.8	0.00e+00	0	44	0	4545576960	10	3727
2026-01-02 14:50:27.78	340.39	15.22	-24.9	-25.2	15.8	0.00e+00	0	44	0	4552916992	10	3745
2026-01-02 14:50:28.78	340.40	15.12	-24.9	-25.3	15.7	0.00e+00	0	44	0	4560257024	10	3770
2026-01-02 14:50:29.79	340.41	15.01	-25.0	-25.5	15.6	0.00e+00	0	44	0	4567597056	10	3805
2026-01-02 14:50:30.79	340.43	14.90	-24.8	-25.2	15.8	0.00e+00	0	44	0	4573888512	10	3736
2026-01-02 14:50:31.79	340.44	14.80	-24.8	-25.0	15.8	0.00e+00	0	44	0	4581228544	10	3712
2026-01-02 14:50:32.80	340.45	14.69	-24.8	-25.2	15.7	0.00e+00	0	44	0	4589617152	10	3749
2026-01-02 14:50:33.80	340.46	14.59	-24.9	-25.2	15.7	0.00e+00	0	44	0	4595908608	10	3756
2026-01-02 14:50:34.80	340.48	14.48	-24.8	-25.1	15.8	0.00e+00	0	44	0	4603248640	10	3735
2026-01-02 14:50:35.81	340.49	14.38	-25.3	-26.3	15.1	0.00e+00	0	44	0	4610588672	10	4009
2026-01-02 14:50:36.80	340.50	14.28	-25.2	-25.9	15.3	0.00e+00	0	44	0	4617928704	10	3922
2026-01-02 14:50:37.80	340.51	14.17	-25.0	-25.6	15.5	0.00e+00	0	44	0	4625268736	10	3852
2026-01-02 14:50:38.81	340.53	14.07	-25.0	-25.5	15.6	0.00e+00	0	44	0	4632608768	10	3812
2026-01-02 14:50:39.81	340.54	13.97	-24.9	-25.3	15.7	0.00e+00	0	44	0	4639948800	10	3767
2026-01-02 14:50:40.82	340.55	13.87	-24.9	-25.4	15.6	0.00e+00	0	44	0	4647288832	10	3796
2026-01-02 14:50:41.82	340.56	13.76	-25.0	-25.5	15.5	0.00e+00	0	44	0	4653580288	10	3822
2026-01-02 14:50:42.83	340.58	13.66	-25.1	-25.7	15.4	1.10e-06	0	44	0	4660920320	10	3869
2026-01-02 14:50:43.84	340.59	13.56	-25.1	-25.6	15.4	0.00e+00	0	44	0	4668260352	10	3850
2026-01-02 14:50:44.84	340.60	13.46	-25.1	-25.7	15.4	0.00e+00	0	44	0	4675600384	10	3874
2026-01-02 14:50:45.85	340.61	13.36	-25.0	-25.5	15.5	0.00e+00	0	44	0	4682940416	10	3822
2026-01-02 14:50:46.85	340.63	13.26	-25.2	-25.9	15.3	0.00e+00	0	44	0	4690280448	10	3926
2026-01-02 14:50:47.86	340.64	13.16	-25.1	-25.9	15.3	0.00e+00	0	44	0	4697620480	10	3910
2026-01-02 14:50:48.86	340.65	13.07	-25.2	-25.9	15.3	0.00e+00	0	44	0	4704960512	10	3916
2026-01-02 14:50:49.87	340.66	12.97	-25.2	-25.9	15.3	1.10e-06	0	44	0	4712300544	10	3927
2026-01-02 14:50:50.87	340.67	12.87	-25.3	-26.3	15.1	0.00e+00	0	44	0	4719640576	10	4017
2026-01-02 14:50:51.88	340.68	12.77	-25.5	-26.6	14.9	0.00e+00	0	44	0	4726980608	10	4090
2026-01-02 14:50:52.88	340.70	12.67	-25.4	-26.5	15.0	0.00e+00	0	44	0	4734320640	10	4068
2026-01-02 14:50:53.88	340.71	12.58	-25.7	-26.6	14.6	2.20e-06	0	44	0	4740612096	11	3985
2026-01-02 14:50:54.88	340.72	12.48	-25.5	-26.1	14.9	1.10e-06	0	44	0	4747952128	11	3871
2026-01-02 14:50:55.88	340.73	12.39	-25.7	-26.5	14.6	0.00e+00	0	44	0	4755292160	11	3970
2026-01-02 14:50:56.89	340.74	12.29	-25.6	-26.4	14.7	0.00e+00	0	44	0	4762632192	11	3929
2026-01-02 14:50:57.90	340.75	12.20	-25.8	-26.7	14.5	1.10e-06	0	44	0	4769972224	11	4020
2026-01-02 14:50:58.90	340.77	12.10	-25.6	-26.4	14.7	0.00e+00	0	44	0	4777312256	11	3934
2026-01-02 14:50:59.90	340.78	12.01	-25.7	-26.5	14.6	1.10e-06	0	44	0	4784652288	11	3978
2026-01-02 14:51:00.90	340.79	11.91	-25.7	-26.7	14.5	0.00e+00	0	44	0	4791992320	11	4007
2026-01-02 14:51:01.90	340.80	11.82	-25.9	-27.1	14.3	1.10e-06	0	44	0	4799332352	11	4106
2026-01-02 14:51:02.91	340.81	11.73	-25.7	-26.7	14.5	1.10e-06	0	44	0	4806672384	11	4013
2026-01-02 14:51:03.91	340.82	11.63	-25.7	-26.5	14.6	0.00e+00	0	44	0	4814012416	11	3976
2026-01-02 14:51:04.92	340.83	11.54	-25.7	-26.6	14.6	0.00e+00	0	44	0	4820303872	11	3991
2026-01-02 14:51:05.92	340.84	11.45	-25.6	-26.4	14.7	0.00e+00	0	44	0	4827643904	11	3937
2026-01-02 14:51:06.92	340.85	11.36	-25.6	-26.3	14.7	1.10e-06	0	44	0	4834983936	11	3909
2026-01-02 14:51:07.92	340.87	11.27	-25.5	-26.3	14.7	0.00e+00	0	44	0	4842323968	11	3912
2026-01-02 14:51:08.93	340.88	11.17	-25.6	-26.3	14.7	0.00e+00	0	44	0	4849664000	11	3920
2026-01-02 14:51:09.93	340.89	11.08	-25.6	-26.5	14.6	0.00e+00	0	44	0	4857004032	11	3968
2026-01-02 14:51:10.93	340.90	10.99	-25.7	-26.5	14.5	3.40e-06	0	44	0	4864344064	11	3977
2026-01-02 14:51:11.93	340.91	10.90	-25.7	-26.6	14.5	1.10e-06	0	44	0	4871684096	11	3988
2026-01-02 14:51:12.93	340.92	10.82	-25.7	-26.7	14.4	0.00e+00	0	44	0	4879024128	11	4010
2026-01-02 14:51:13.93	340.93	10.73	-25.8	-26.8	14.4	0.00e+00	0	44	0	4885315584	11	4029
2026-01-02 14:51:14.93	340.94	10.64	-25.9	-27.0	14.3	0.00e+00	0	44	0	4892655616	11	4095
2026-01-02 14:51:15.94	340.95	10.55	-25.8	-26.9	14.3	1.10e-06	0	44	0	4899995648	11	4078
2026-01-02 14:51:16.94	340.96	10.46	-25.9	-27.2	14.2	1.10e-06	0	44	0	4907335680	11	4139
2026-01-02 14:51:17.94	340.97	10.37	-26.0	-27.2	14.2	1.10e-06	0	44	0	4914675712	11	4147
2026-01-02 14:51:18.95	340.98	10.28	-25.9	-27.1	14.2	0.00e+00	0	44	0	4922015744	11	4116
2026-01-02 14:51:19.94	340.99	10.20	-26.0	-26.9	14.0	2.20e-06	0	44	0	4929355776	12	3970
2026-01-02 14:51:20.95	341.01	10.11	-25.9	-26.6	14.1	2.20e-06	0	44	0	4936695808	12	3884
