passes_logs/2026/01/02/R2M6_AANII_01/R2M6_AANII_01__20260102_221959_SUOMI_NPP_rec.log

#Pass ID: 20260102_221959_SUOMI NPP
#Satellite: SUOMI NPP
#Configuration: NPP
#almurnet v.1.7.20240730
#Start time: 2026-01-02 22:20:00

#Version: 2.2.20231116
#Station: R2M6_AANII_01
#Location: 30.233357 lon 59.946436 lat
#TLE: 1 37849U 11061A   26001.07732418  .00000182  00000+0  10735-3 0  9990
#TLE: 2 37849  98.7795 303.2470 0002580  87.2016 272.9455 14.19520779734739

#Time	Az	El	Level	Level2	SNR	BER	BlckErr	Temp	State	Recorded	gain1	gain2
2026-01-02 22:20:00.22	36.36	7.04	-30.7	-34.9	5.1	1.19e+00	0	41	0	0	22	5790
2026-01-02 22:20:01.22	36.49	7.09	-31.0	-35.7	4.8	1.25e+00	0	40	104	0	23	6183
2026-01-02 22:20:02.22	36.61	7.14	-31.1	-35.7	7.2	1.38e-01	0	41	0	0	23	6112
2026-01-02 22:20:03.23	36.73	7.19	-31.1	-35.6	7.3	1.19e-01	0	41	0	1048576	23	6064
2026-01-02 22:20:04.23	36.85	7.24	-31.2	-36.4	6.7	1.81e-01	0	41	0	3145728	23	6492
2026-01-02 22:20:05.24	36.97	7.30	-31.1	-35.8	7.1	1.57e-01	0	41	0	5242880	23	6176
2026-01-02 22:20:06.24	37.10	7.35	-31.1	-35.6	7.3	1.26e-01	0	41	0	7340032	23	6024
2026-01-02 22:20:07.25	37.22	7.40	-31.1	-35.3	7.5	1.05e-01	0	41	0	9437184	23	5896
2026-01-02 22:20:08.26	37.35	7.45	-31.0	-35.2	7.7	9.65e-02	0	41	0	10485760	23	5814
2026-01-02 22:20:09.26	37.47	7.50	-30.9	-34.9	7.9	8.89e-02	0	41	0	12582912	23	5684
2026-01-02 22:20:10.27	37.60	7.55	-30.9	-35.4	7.8	7.72e-02	0	41	0	14680064	22	6019
2026-01-02 22:20:11.28	37.72	7.61	-30.9	-35.3	7.9	7.70e-02	0	41	0	16777216	22	5947
2026-01-02 22:20:12.28	37.85	7.66	-30.6	-34.2	8.8	4.98e-02	0	41	0	18874368	22	5429
2026-01-02 22:20:13.29	37.97	7.71	-30.3	-33.2	9.9	1.28e-02	0	41	0	19922944	21	5058
2026-01-02 22:20:14.29	38.10	7.76	-30.1	-32.7	10.4	5.76e-03	0	41	0	22020096	21	4839
2026-01-02 22:20:15.30	38.23	7.81	-29.9	-32.0	10.9	3.26e-03	0	41	0	24117248	21	4570
2026-01-02 22:20:16.30	38.35	7.86	-29.9	-31.8	11.1	2.09e-03	0	41	0	26214400	21	4487
2026-01-02 22:20:17.31	38.48	7.91	-29.7	-31.9	11.4	1.19e-03	0	41	0	28311552	20	4598
2026-01-02 22:20:18.32	38.61	7.97	-29.9	-32.3	11.2	1.42e-03	0	41	0	29360128	20	4748
2026-01-02 22:20:19.32	38.74	8.02	-29.8	-32.2	11.3	1.47e-03	0	41	0	31457280	20	4699
2026-01-02 22:20:20.32	38.87	8.07	-29.9	-32.5	11.0	1.60e-03	0	41	0	33554432	20	4813
2026-01-02 22:20:21.33	39.00	8.12	-30.0	-32.5	11.0	1.62e-03	0	41	0	35651584	20	4846
2026-01-02 22:20:22.33	39.13	8.17	-30.0	-32.7	10.9	1.55e-03	0	41	0	37748736	20	4909
2026-01-02 22:20:23.34	39.26	8.22	-30.1	-32.9	10.7	3.01e-03	0	42	0	38797312	20	4996
2026-01-02 22:20:24.34	39.39	8.27	-29.9	-32.3	11.2	1.45e-03	0	41	0	40894464	20	4754
2026-01-02 22:20:25.35	39.52	8.33	-30.0	-32.7	10.9	1.54e-03	0	41	0	42991616	20	4893
2026-01-02 22:20:26.36	39.65	8.38	-30.0	-32.7	10.8	3.07e-03	0	41	0	45088768	20	4904
2026-01-02 22:20:27.37	39.79	8.43	-29.8	-32.1	11.3	1.29e-03	0	41	0	46137344	20	4669
2026-01-02 22:20:28.38	39.92	8.48	-29.6	-31.2	11.9	8.09e-04	0	41	0	48234496	20	4373
2026-01-02 22:20:29.38	40.05	8.53	-29.4	-30.9	12.2	3.24e-04	0	41	0	50331648	20	4241
2026-01-02 22:20:30.39	40.19	8.58	-29.5	-31.0	12.2	2.68e-04	0	42	0	52428800	20	4289
2026-01-02 22:20:31.39	40.32	8.63	-29.5	-31.1	12.1	1.91e-04	0	42	0	54525952	20	4315
2026-01-02 22:20:32.39	40.46	8.68	-29.6	-31.3	12.0	3.46e-04	0	41	0	56623104	20	4365
2026-01-02 22:20:33.40	40.59	8.74	-29.4	-30.7	12.4	1.55e-04	0	42	0	57671680	20	4175
2026-01-02 22:20:34.41	40.73	8.79	-29.4	-30.8	12.4	1.41e-04	0	42	0	59768832	20	4198
2026-01-02 22:20:35.42	40.86	8.84	-29.3	-30.5	12.5	1.28e-04	0	42	0	61865984	20	4121
2026-01-02 22:20:36.42	41.00	8.89	-29.2	-30.6	12.9	6.71e-05	0	42	0	63963136	19	4212
2026-01-02 22:20:37.42	41.14	8.94	-29.2	-30.5	12.9	5.11e-05	0	42	0	66060288	19	4194
2026-01-02 22:20:38.43	41.27	8.99	-29.1	-30.2	13.1	2.44e-05	0	42	0	67108864	19	4104
2026-01-02 22:20:39.43	41.41	9.04	-29.0	-30.1	13.2	2.82e-05	0	42	0	69206016	19	4077
2026-01-02 22:20:40.43	41.55	9.09	-29.0	-30.1	13.2	4.11e-05	0	42	0	71303168	19	4061
2026-01-02 22:20:41.44	41.69	9.14	-29.0	-29.9	13.3	1.22e-05	0	42	0	73400320	19	4024
2026-01-02 22:20:42.44	41.83	9.19	-28.9	-29.8	13.4	1.44e-05	0	42	0	74448896	19	3987
2026-01-02 22:20:43.45	41.97	9.25	-29.0	-30.0	13.3	1.67e-05	0	42	0	76546048	19	4036
2026-01-02 22:20:44.45	42.11	9.30	-29.0	-30.0	13.3	1.60e-05	0	42	0	78643200	19	4060
2026-01-02 22:20:45.46	42.25	9.35	-29.1	-30.5	13.0	1.90e-05	0	42	0	80740352	19	4198
2026-01-02 22:20:46.47	42.39	9.40	-29.2	-30.6	12.8	4.57e-05	0	42	0	82837504	19	4249
2026-01-02 22:20:47.48	42.53	9.45	-29.2	-30.6	12.9	4.04e-05	0	42	0	84934656	19	4232
2026-01-02 22:20:48.49	42.68	9.50	-29.3	-30.8	12.7	4.65e-05	0	42	0	85983232	19	4306
2026-01-02 22:20:49.49	42.82	9.55	-29.2	-30.7	12.8	6.79e-05	0	42	0	88080384	19	4255
2026-01-02 22:20:50.49	42.96	9.60	-29.3	-30.8	12.8	6.48e-05	0	42	0	90177536	19	4279
2026-01-02 22:20:51.49	43.10	9.65	-29.3	-30.8	12.8	6.56e-05	0	42	0	92274688	19	4281
2026-01-02 22:20:52.50	43.25	9.70	-29.3	-30.7	12.8	9.61e-05	0	42	0	93323264	19	4262
2026-01-02 22:20:53.51	43.39	9.75	-29.2	-30.6	12.9	5.87e-05	0	42	0	95420416	19	4219
2026-01-02 22:20:54.51	43.54	9.80	-29.1	-30.2	13.2	2.89e-05	0	42	0	97517568	19	4102
2026-01-02 22:20:55.52	43.68	9.85	-29.2	-30.5	13.0	8.08e-05	0	42	0	99614720	19	4190
2026-01-02 22:20:56.53	43.83	9.90	-29.1	-30.3	13.1	3.58e-05	0	42	0	101711872	19	4120
2026-01-02 22:20:57.53	43.98	9.95	-29.1	-30.3	13.2	2.59e-05	0	42	0	102760448	19	4117
2026-01-02 22:20:58.54	44.12	10.00	-29.1	-30.4	13.1	1.38e-04	0	42	0	104857600	19	4160
2026-01-02 22:20:59.54	44.27	10.05	-29.2	-30.6	12.9	4.50e-05	0	42	0	106954752	19	4219
2026-01-02 22:21:00.54	44.42	10.10	-29.2	-31.2	12.9	4.11e-05	0	42	0	109051904	18	4508
2026-01-02 22:21:01.54	44.57	10.15	-29.4	-31.6	12.6	5.49e-05	0	42	0	111149056	18	4635
2026-01-02 22:21:02.55	44.71	10.20	-29.3	-31.3	12.8	8.77e-05	0	42	0	112197632	18	4541
2026-01-02 22:21:03.55	44.86	10.25	-29.3	-31.4	12.8	4.57e-05	0	42	0	114294784	18	4561
2026-01-02 22:21:04.56	45.01	10.30	-29.4	-31.6	12.6	6.71e-05	0	42	0	116391936	18	4636
2026-01-02 22:21:05.57	45.17	10.35	-29.3	-31.4	12.8	6.94e-05	0	42	0	118489088	18	4563
2026-01-02 22:21:06.58	45.32	10.40	-29.3	-31.3	12.8	5.49e-05	0	42	0	120586240	18	4521
2026-01-02 22:21:07.58	45.47	10.45	-29.3	-31.2	12.9	4.95e-05	0	42	0	121634816	18	4490
2026-01-02 22:21:08.59	45.62	10.50	-29.3	-31.3	12.9	4.42e-05	0	42	0	123731968	18	4520
2026-01-02 22:21:09.59	45.77	10.55	-29.3	-31.3	12.8	3.66e-05	0	42	0	125829120	18	4525
2026-01-02 22:21:10.60	45.93	10.60	-29.3	-31.4	12.8	8.62e-05	0	42	0	127926272	18	4567
2026-01-02 22:21:11.60	46.08	10.65	-29.3	-31.2	12.9	4.95e-05	0	42	0	130023424	18	4511
2026-01-02 22:21:12.61	46.23	10.70	-29.3	-31.3	12.8	4.73e-05	0	42	0	131072000	18	4548
2026-01-02 22:21:13.60	46.38	10.74	-29.3	-31.4	12.8	6.33e-05	0	42	0	133169152	18	4570
2026-01-02 22:21:14.60	46.54	10.79	-29.3	-31.3	12.9	5.72e-05	0	42	0	135266304	18	4533
2026-01-02 22:21:15.61	46.69	10.84	-29.2	-31.2	12.9	4.11e-05	0	42	0	137363456	18	4486
2026-01-02 22:21:16.62	46.85	10.89	-29.4	-31.5	12.7	7.01e-05	0	42	0	139460608	18	4580
2026-01-02 22:21:17.62	47.01	10.94	-29.5	-31.8	12.6	6.63e-05	0	42	0	140509184	18	4686
2026-01-02 22:21:18.62	47.16	10.99	-29.3	-31.4	12.9	8.77e-05	0	42	0	142606336	18	4563
2026-01-02 22:21:19.63	47.32	11.04	-29.3	-31.4	12.9	5.11e-05	0	42	0	144703488	18	4549
2026-01-02 22:21:20.63	47.48	11.08	-29.3	-31.2	13.0	4.27e-05	0	42	0	146800640	18	4501
2026-01-02 22:21:21.63	47.64	11.13	-29.3	-31.4	12.9	4.50e-05	0	42	0	148897792	18	4560
2026-01-02 22:21:22.63	47.79	11.18	-29.4	-31.6	12.7	6.86e-05	0	42	0	149946368	18	4630
2026-01-02 22:21:23.64	47.95	11.23	-29.5	-31.4	12.5	1.50e-04	0	42	0	152043520	19	4475
2026-01-02 22:21:24.64	48.11	11.27	-29.1	-31.4	12.0	2.01e-04	0	42	0	154140672	19	4703
2026-01-02 22:21:25.64	48.27	11.32	-29.7	-32.1	12.0	3.30e-04	0	42	0	156237824	19	4698
2026-01-02 22:21:26.65	48.43	11.37	-29.7	-32.0	11.8	1.27e-03	0	42	0	158334976	19	4672
2026-01-02 22:21:27.65	48.59	11.42	-29.7	-31.9	11.8	2.59e-04	0	42	0	159383552	19	4650
2026-01-02 22:21:28.66	48.76	11.47	-29.5	-31.4	12.5	1.62e-04	0	42	0	161480704	19	4470
2026-01-02 22:21:29.66	48.92	11.51	-29.5	-31.3	12.5	2.29e-04	0	42	0	163577856	19	4437
2026-01-02 22:21:30.67	49.08	11.56	-29.8	-32.0	12.2	1.69e-04	0	43	0	165675008	19	4671
2026-01-02 22:21:31.67	49.25	11.61	-29.5	-31.2	12.7	1.22e-04	0	42	0	167772160	19	4392
2026-01-02 22:21:32.68	49.41	11.65	-29.5	-31.2	12.7	1.76e-04	0	42	0	168820736	19	4404
2026-01-02 22:21:33.69	49.58	11.70	-29.4	-31.1	12.7	9.53e-05	0	42	0	170917888	19	4351
2026-01-02 22:21:34.70	49.74	11.75	-29.4	-31.1	12.8	6.56e-05	0	42	0	173015040	19	4355
2026-01-02 22:21:35.70	49.91	11.79	-29.5	-31.4	12.5	1.01e-04	0	42	0	175112192	19	4474
2026-01-02 22:21:36.70	50.07	11.84	-29.6	-31.6	12.4	1.48e-04	0	42	0	176160768	19	4545
2026-01-02 22:21:37.71	50.24	11.89	-29.7	-31.8	12.3	1.80e-04	0	42	0	178257920	19	4586
2026-01-02 22:21:38.72	50.41	11.93	-29.6	-31.7	12.4	1.50e-04	0	43	0	180355072	19	4581
2026-01-02 22:21:39.72	50.57	11.98	-29.6	-31.5	12.5	2.06e-04	0	42	0	182452224	19	4497
2026-01-02 22:21:40.72	50.74	12.03	-29.5	-31.4	12.6	8.69e-05	0	43	0	184549376	19	4462
2026-01-02 22:21:41.73	50.91	12.07	-29.6	-31.7	12.4	1.30e-04	0	42	0	186646528	19	4564
2026-01-02 22:21:42.74	51.08	12.12	-29.6	-31.5	12.5	1.35e-04	0	43	0	187695104	19	4500
2026-01-02 22:21:43.75	51.25	12.16	-29.6	-31.6	12.5	1.05e-04	0	43	0	189792256	19	4510
2026-01-02 22:21:44.75	51.42	12.21	-29.6	-31.7	12.4	1.51e-04	0	42	0	191889408	19	4554
2026-01-02 22:21:45.76	51.59	12.26	-29.7	-31.8	12.3	1.25e-04	0	42	0	193986560	19	4599
2026-01-02 22:21:46.76	51.76	12.30	-29.7	-31.9	12.3	1.93e-04	0	43	0	195035136	19	4628
2026-01-02 22:21:47.76	51.93	12.34	-29.7	-31.7	12.4	2.85e-04	0	43	0	197132288	19	4578
2026-01-02 22:21:48.77	52.11	12.39	-29.5	-31.4	12.6	2.49e-04	0	43	0	199229440	19	4453
2026-01-02 22:21:49.78	52.28	12.44	-29.6	-31.5	12.5	9.46e-05	0	43	0	201326592	19	4502
2026-01-02 22:21:50.78	52.45	12.48	-29.6	-31.7	12.4	3.28e-04	0	43	0	203423744	19	4580
2026-01-02 22:21:51.78	52.62	12.52	-29.8	-32.2	12.0	3.11e-04	0	43	0	204472320	19	4742
2026-01-02 22:21:52.79	52.80	12.57	-29.9	-32.5	11.8	3.00e-04	0	43	0	206569472	19	4858
2026-01-02 22:21:53.79	52.97	12.61	-29.9	-32.4	11.9	4.97e-04	0	43	0	208666624	19	4828
2026-01-02 22:21:54.80	53.15	12.66	-29.9	-32.1	11.7	7.36e-04	0	43	0	210763776	20	4637
2026-01-02 22:21:55.81	53.33	12.70	-30.2	-32.9	11.1	1.13e-03	0	43	0	212860928	20	4932
2026-01-02 22:21:56.82	53.50	12.74	-30.1	-32.8	11.2	1.56e-03	0	43	0	213909504	20	4861
2026-01-02 22:21:57.82	53.68	12.79	-30.1	-32.8	11.3	1.28e-03	0	43	0	216006656	20	4862
2026-01-02 22:21:58.82	53.85	12.83	-30.1	-32.8	11.2	1.45e-03	0	43	0	218103808	20	4867
2026-01-02 22:21:59.83	54.03	12.87	-30.2	-33.0	11.1	1.11e-03	0	43	0	220200960	20	4950
2026-01-02 22:22:00.83	54.21	12.92	-30.1	-32.5	11.5	1.14e-03	0	43	0	222298112	20	4774
2026-01-02 22:22:01.83	54.39	12.96	-30.1	-32.6	11.4	9.78e-04	0	43	0	223346688	20	4807
2026-01-02 22:22:02.84	54.57	13.00	-30.2	-33.0	11.0	1.47e-03	0	43	0	225443840	20	4961
2026-01-02 22:22:03.85	54.75	13.05	-30.3	-33.1	11.0	2.08e-03	0	43	0	227540992	20	4999
2026-01-02 22:22:04.85	54.93	13.09	-30.4	-33.7	10.6	2.81e-03	0	43	0	229638144	20	5237
2026-01-02 22:22:05.85	55.11	13.13	-30.4	-33.6	10.7	4.07e-03	0	43	0	231735296	20	5215
2026-01-02 22:22:06.85	55.29	13.17	-30.2	-33.0	11.2	1.65e-03	0	43	0	232783872	20	4941
2026-01-02 22:22:07.86	55.47	13.21	-30.2	-32.9	11.1	1.41e-03	0	43	0	234881024	20	4939
2026-01-02 22:22:08.87	55.66	13.25	-30.1	-32.8	11.2	1.62e-03	0	43	0	236978176	20	4876
2026-01-02 22:22:09.87	55.84	13.30	-30.3	-33.4	10.9	2.10e-03	0	43	0	239075328	20	5126
2026-01-02 22:22:10.88	56.02	13.34	-30.2	-33.0	11.1	1.73e-03	0	43	0	241172480	20	4951
2026-01-02 22:22:11.88	56.20	13.38	-30.2	-32.8	11.3	1.79e-03	0	43	0	242221056	20	4881
2026-01-02 22:22:12.89	56.39	13.42	-30.2	-33.1	11.1	2.00e-03	0	43	0	244318208	20	4986
2026-01-02 22:22:13.90	56.58	13.46	-30.3	-33.1	11.0	2.05e-03	0	43	0	246415360	20	5013
2026-01-02 22:22:14.91	56.76	13.50	-30.3	-33.2	10.9	2.96e-03	0	43	0	248512512	20	5044
2026-01-02 22:22:15.91	56.95	13.54	-30.3	-33.2	11.0	3.37e-03	0	43	0	250609664	20	5032
2026-01-02 22:22:16.92	57.13	13.58	-30.3	-33.4	10.8	2.50e-03	0	43	0	251658240	20	5098
2026-01-02 22:22:17.93	57.32	13.62	-30.4	-33.5	10.8	2.17e-03	0	43	0	253755392	20	5133
2026-01-02 22:22:18.93	57.51	13.66	-30.5	-33.5	10.4	4.06e-03	0	43	0	255852544	21	5067
2026-01-02 22:22:19.94	57.70	13.70	-30.7	-34.1	9.9	7.47e-03	0	43	0	257949696	21	5319
2026-01-02 22:22:20.95	57.89	13.74	-30.5	-33.2	10.6	5.31e-03	0	43	0	260046848	21	4934
2026-01-02 22:22:21.95	58.07	13.78	-30.3	-33.1	11.0	2.67e-03	0	43	0	261095424	20	4979
2026-01-02 22:22:22.96	58.26	13.82	-30.1	-32.5	11.4	1.18e-03	0	43	0	263192576	20	4744
2026-01-02 22:22:23.97	58.45	13.85	-30.0	-32.4	11.5	7.79e-04	0	43	0	265289728	20	4737
2026-01-02 22:22:24.97	58.64	13.89	-30.3	-33.2	11.0	1.81e-03	0	43	0	267386880	20	5016
2026-01-02 22:22:25.98	58.84	13.93	-30.3	-33.1	11.0	1.94e-03	0	43	0	269484032	20	4991
2026-01-02 22:22:26.99	59.03	13.97	-30.3	-33.3	10.9	1.90e-03	0	43	0	270532608	20	5066
2026-01-02 22:22:27.99	59.22	14.01	-30.3	-33.3	11.0	2.33e-03	0	43	0	272629760	20	5056
2026-01-02 22:22:29.00	59.41	14.04	-30.3	-33.2	11.0	2.02e-03	0	43	0	274726912	20	5034
2026-01-02 22:22:30.00	59.60	14.08	-30.4	-33.4	10.9	2.47e-03	0	43	0	276824064	20	5122
2026-01-02 22:22:31.01	59.80	14.12	-30.2	-32.8	11.3	2.32e-03	0	43	0	278921216	20	4871
2026-01-02 22:22:32.01	59.99	14.15	-30.2	-32.7	11.4	1.21e-03	0	43	0	279969792	20	4839
2026-01-02 22:22:33.02	60.18	14.19	-30.1	-32.4	11.6	8.37e-04	0	43	0	282066944	20	4730
2026-01-02 22:22:34.03	60.38	14.23	-30.1	-32.4	11.5	6.92e-04	0	43	0	284164096	20	4715
2026-01-02 22:22:35.03	60.57	14.26	-29.9	-32.0	11.9	5.67e-04	0	43	0	286261248	20	4554
2026-01-02 22:22:36.04	60.77	14.30	-30.0	-32.3	11.7	4.02e-04	0	43	0	288358400	20	4671
2026-01-02 22:22:37.04	60.96	14.33	-30.0	-32.3	11.7	5.78e-04	0	43	0	289406976	20	4666
2026-01-02 22:22:38.04	61.16	14.37	-29.7	-31.3	12.4	2.59e-04	0	43	0	291504128	20	4328
2026-01-02 22:22:39.05	61.36	14.40	-29.3	-30.8	13.1	5.34e-05	0	43	0	293601280	19	4240
2026-01-02 22:22:40.05	61.55	14.44	-29.1	-30.2	13.5	8.30e-06	0	43	0	295698432	19	4054
2026-01-02 22:22:41.06	61.75	14.47	-29.1	-30.1	13.6	2.20e-06	0	43	0	297795584	19	4026
2026-01-02 22:22:42.06	61.95	14.50	-29.1	-30.5	13.6	4.50e-06	0	43	0	298844160	18	4248
2026-01-02 22:22:43.07	62.15	14.54	-28.9	-30.0	13.9	1.50e-06	0	43	0	300941312	18	4105
2026-01-02 22:22:44.08	62.35	14.57	-29.2	-30.7	13.5	6.10e-06	0	43	0	303038464	18	4302
2026-01-02 22:22:45.09	62.55	14.61	-29.2	-30.8	13.5	6.10e-06	0	43	0	305135616	18	4321
2026-01-02 22:22:46.10	62.75	14.64	-29.1	-30.4	13.8	6.80e-06	0	43	0	307232768	18	4222
2026-01-02 22:22:47.11	62.95	14.67	-29.0	-30.4	13.6	5.30e-06	0	43	0	308281344	18	4207
2026-01-02 22:22:48.11	63.15	14.70	-29.1	-30.9	13.1	6.80e-06	0	43	0	310378496	17	4443
2026-01-02 22:22:49.12	63.35	14.74	-29.1	-30.7	13.5	8.30e-06	0	43	0	312475648	18	4310
2026-01-02 22:22:50.12	63.55	14.77	-29.2	-30.9	12.6	1.23e-03	0	43	0	314572800	18	4359
2026-01-02 22:22:51.12	63.76	14.80	-29.3	-31.1	13.3	1.06e-05	0	43	0	316669952	18	4428
2026-01-02 22:22:52.13	63.96	14.83	-29.3	-31.0	13.4	9.10e-06	0	43	0	317718528	18	4411
2026-01-02 22:22:53.14	64.16	14.86	-29.2	-30.8	13.6	9.10e-06	0	43	0	319815680	18	4324
2026-01-02 22:22:54.14	64.36	14.89	-29.1	-30.4	13.8	8.30e-06	0	43	0	321912832	18	4217
2026-01-02 22:22:55.15	64.57	14.92	-29.1	-30.6	13.6	3.00e-06	0	43	0	324009984	18	4256
2026-01-02 22:22:56.15	64.77	14.95	-29.1	-30.4	13.7	5.30e-06	0	43	0	326107136	18	4219
2026-01-02 22:22:57.16	64.98	14.98	-29.1	-30.6	13.7	1.57e-03	0	43	0	327155712	18	4265
2026-01-02 22:22:58.16	65.18	15.01	-29.3	-31.2	13.3	1.37e-05	0	43	0	329252864	18	4463
2026-01-02 22:22:59.17	65.39	15.04	-29.4	-31.5	13.0	2.13e-05	0	43	0	331350016	18	4549
2026-01-02 22:23:00.18	65.59	15.07	-29.5	-31.2	12.9	1.38e-03	0	43	0	333447168	19	4371
2026-01-02 22:23:01.18	65.80	15.10	-29.5	-31.3	12.9	4.27e-05	0	43	0	335544320	19	4397
2026-01-02 22:23:02.18	66.00	15.12	-29.5	-31.3	12.9	6.25e-05	0	43	0	336592896	19	4388
2026-01-02 22:23:03.18	66.21	15.15	-29.3	-31.1	13.3	3.43e-05	0	43	0	338690048	18	4425
2026-01-02 22:23:04.19	66.42	15.18	-29.2	-30.7	13.6	8.30e-06	0	43	0	340787200	18	4294
2026-01-02 22:23:05.19	66.63	15.21	-29.2	-30.9	13.4	7.60e-06	0	43	0	342884352	18	4379
2026-01-02 22:23:06.20	66.83	15.23	-29.3	-31.2	13.3	1.06e-05	0	43	0	344981504	18	4455
2026-01-02 22:23:07.21	67.04	15.26	-29.4	-31.3	13.3	1.60e-05	0	43	0	346030080	18	4494
2026-01-02 22:23:08.21	67.25	15.29	-29.5	-31.6	13.0	4.58e-04	0	43	0	348127232	18	4608
2026-01-02 22:23:09.22	67.46	15.31	-29.6	-31.5	12.7	5.18e-05	0	43	0	350224384	19	4466
2026-01-02 22:23:10.23	67.67	15.34	-29.8	-32.0	12.3	1.40e-04	0	43	0	352321536	19	4642
2026-01-02 22:23:11.23	67.88	15.36	-29.6	-31.5	12.7	4.47e-04	0	43	0	354418688	19	4467
2026-01-02 22:23:12.24	68.09	15.39	-29.6	-31.4	12.7	6.25e-05	0	43	0	355467264	19	4438
2026-01-02 22:23:13.24	68.30	15.41	-29.6	-31.4	12.8	3.96e-05	0	43	0	357564416	19	4424
2026-01-02 22:23:14.24	68.51	15.44	-29.7	-31.6	12.7	5.90e-04	0	43	0	359661568	19	4477
2026-01-02 22:23:15.24	68.72	15.46	-29.7	-31.7	12.5	8.28e-04	0	43	0	361758720	19	4550
2026-01-02 22:23:16.25	68.93	15.48	-30.0	-32.5	12.1	1.85e-04	0	43	0	362807296	19	4816
2026-01-02 22:23:17.26	69.15	15.51	-30.1	-32.6	11.6	1.03e-03	0	43	0	364904448	20	4764
2026-01-02 22:23:18.26	69.36	15.53	-30.3	-33.0	11.3	1.64e-03	0	43	0	367001600	20	4916
2026-01-02 22:23:19.26	69.57	15.55	-30.0	-32.3	11.8	8.83e-04	0	43	0	369098752	20	4659
2026-01-02 22:23:20.27	69.78	15.58	-29.8	-31.6	12.3	2.72e-04	0	43	0	371195904	20	4398
2026-01-02 22:23:21.28	70.00	15.60	-29.5	-30.7	12.9	1.15e-04	0	43	0	373293056	20	4130
2026-01-02 22:23:22.29	70.21	15.62	-29.3	-30.1	13.3	3.12e-05	0	43	0	374341632	20	3953
2026-01-02 22:23:23.29	70.42	15.64	-29.4	-30.7	13.3	3.48e-04	0	43	0	376438784	19	4209
2026-01-02 22:23:24.30	70.64	15.66	-29.2	-30.9	13.5	5.02e-04	0	43	0	378535936	18	4355
2026-01-02 22:23:25.30	70.85	15.68	-29.4	-31.3	13.2	1.22e-05	0	43	0	380633088	18	4497
2026-01-02 22:23:26.31	71.07	15.70	-29.5	-31.2	13.0	4.40e-04	0	43	0	381681664	19	4351
2026-01-02 22:23:27.32	71.28	15.72	-29.7	-31.8	12.6	4.97e-04	0	43	0	383778816	19	4553
2026-01-02 22:23:28.32	71.50	15.74	-29.8	-31.9	12.5	9.68e-05	0	43	0	385875968	19	4600
2026-01-02 22:23:29.33	71.71	15.76	-29.5	-31.2	13.0	2.13e-04	0	43	0	387973120	19	4369
2026-01-02 22:23:30.33	71.93	15.78	-29.4	-30.8	13.3	7.09e-05	0	43	0	390070272	19	4214
2026-01-02 22:23:31.34	72.14	15.80	-29.3	-30.4	13.5	1.06e-05	0	43	0	391118848	19	4121
2026-01-02 22:23:32.35	72.36	15.81	-29.3	-30.4	13.5	1.83e-05	0	43	0	393216000	19	4114
2026-01-02 22:23:33.36	72.58	15.83	-29.3	-30.6	13.4	1.75e-05	0	43	0	395313152	19	4159
2026-01-02 22:23:34.36	72.79	15.85	-29.4	-30.8	13.2	2.21e-05	0	43	0	397410304	19	4217
2026-01-02 22:23:35.37	73.01	15.87	-29.4	-30.9	13.2	6.79e-05	0	43	0	399507456	19	4264
2026-01-02 22:23:36.37	73.23	15.88	-29.5	-31.0	13.1	1.50e-04	0	43	0	401604608	19	4296
2026-01-02 22:23:37.37	73.44	15.90	-29.4	-30.8	13.3	2.82e-05	0	43	0	402653184	19	4221
2026-01-02 22:23:38.37	73.66	15.91	-29.4	-30.9	13.2	1.23e-04	0	43	0	404750336	19	4265
2026-01-02 22:23:39.38	73.88	15.93	-29.4	-30.8	13.3	4.65e-05	0	43	0	406847488	19	4220
2026-01-02 22:23:40.38	74.10	15.94	-29.6	-31.3	12.9	3.66e-05	0	43	0	408944640	19	4390
2026-01-02 22:23:41.39	74.32	15.96	-29.8	-31.9	12.6	1.07e-04	0	43	0	409993216	19	4580
2026-01-02 22:23:42.39	74.53	15.97	-29.8	-32.1	12.4	9.76e-05	0	43	0	412090368	19	4658
2026-01-02 22:23:43.40	74.75	15.99	-30.0	-32.0	12.0	2.97e-04	0	43	0	414187520	20	4564
2026-01-02 22:23:44.41	74.97	16.00	-30.0	-32.0	12.0	2.93e-04	0	43	0	416284672	20	4561
2026-01-02 22:23:45.42	75.19	16.01	-29.8	-31.6	12.2	5.30e-04	0	43	0	418381824	20	4436
2026-01-02 22:23:46.42	75.41	16.03	-29.6	-31.1	12.6	1.72e-04	0	43	0	419430400	20	4249
2026-01-02 22:23:47.42	75.63	16.04	-29.7	-31.7	12.6	9.91e-05	0	43	0	421527552	19	4537
2026-01-02 22:23:48.43	75.85	16.05	-29.6	-31.4	12.8	2.36e-04	0	43	0	423624704	19	4441
2026-01-02 22:23:49.43	76.07	16.06	-29.6	-31.4	12.8	6.10e-05	0	43	0	425721856	19	4444
2026-01-02 22:23:50.43	76.29	16.07	-29.8	-31.9	12.5	9.91e-05	0	43	0	427819008	19	4600
2026-01-02 22:23:51.43	76.51	16.08	-29.9	-32.3	12.3	1.68e-04	0	43	0	428867584	19	4741
2026-01-02 22:23:52.44	76.73	16.09	-29.9	-31.9	12.1	2.35e-04	0	43	0	430964736	20	4529
2026-01-02 22:23:53.45	76.95	16.10	-30.0	-32.1	11.9	3.44e-04	0	43	0	433061888	20	4602
2026-01-02 22:23:54.45	77.17	16.11	-30.0	-32.2	12.0	3.40e-04	0	43	0	435159040	20	4609
2026-01-02 22:23:55.46	77.39	16.12	-29.9	-31.9	12.1	5.07e-04	0	43	0	437256192	20	4528
2026-01-02 22:23:56.46	77.61	16.13	-29.8	-31.6	12.3	4.29e-04	0	43	0	438304768	20	4400
2026-01-02 22:23:57.47	77.83	16.14	-29.8	-31.5	12.4	1.22e-04	0	43	0	440401920	20	4399
2026-01-02 22:23:58.47	78.05	16.15	-29.8	-31.5	12.3	1.77e-04	0	43	0	442499072	20	4395
2026-01-02 22:23:59.48	78.27	16.15	-29.8	-31.5	12.4	4.13e-04	0	43	0	444596224	20	4394
2026-01-02 22:24:00.48	78.49	16.16	-29.9	-32.2	12.3	1.72e-04	0	43	0	446693376	19	4712
2026-01-02 22:24:01.49	78.72	16.17	-29.7	-31.6	12.7	1.10e-04	0	43	0	447741952	19	4496
2026-01-02 22:24:02.49	78.94	16.17	-29.6	-31.4	12.9	5.41e-05	0	43	0	449839104	19	4423
2026-01-02 22:24:03.50	79.16	16.18	-29.5	-31.1	13.0	4.65e-05	0	43	0	451936256	19	4347
2026-01-02 22:24:04.51	79.38	16.18	-29.6	-31.3	13.0	4.04e-05	0	43	0	454033408	19	4392
2026-01-02 22:24:05.51	79.60	16.19	-29.5	-31.1	13.0	3.35e-05	0	43	0	456130560	19	4330
2026-01-02 22:24:06.52	79.83	16.19	-29.5	-31.0	13.1	2.59e-05	0	43	0	457179136	19	4302
2026-01-02 22:24:07.52	80.05	16.20	-29.6	-31.4	12.8	4.27e-05	0	43	0	459276288	19	4428
2026-01-02 22:24:08.53	80.27	16.20	-29.5	-31.3	12.9	6.10e-05	0	43	0	461373440	19	4392
2026-01-02 22:24:09.53	80.49	16.20	-29.5	-31.0	13.1	2.82e-05	0	43	0	463470592	19	4305
2026-01-02 22:24:10.54	80.71	16.21	-29.3	-30.5	13.4	1.29e-05	0	43	0	465567744	19	4149
2026-01-02 22:24:11.54	80.93	16.21	-29.2	-30.7	13.6	9.10e-06	0	43	0	466616320	18	4292
2026-01-02 22:24:12.55	81.16	16.21	-29.0	-30.4	13.9	3.00e-06	0	43	0	468713472	18	4197
2026-01-02 22:24:13.55	81.38	16.21	-28.9	-30.1	13.9	3.80e-06	0	43	0	470810624	18	4133
2026-01-02 22:24:14.56	81.60	16.22	-29.1	-30.6	13.7	6.80e-06	0	43	0	472907776	18	4264
2026-01-02 22:24:15.56	81.82	16.22	-29.2	-30.9	13.4	8.30e-06	0	43	0	475004928	18	4364
2026-01-02 22:24:16.58	82.05	16.22	-29.4	-31.3	13.1	1.75e-05	0	43	0	476053504	18	4484
2026-01-02 22:24:17.58	82.27	16.22	-29.4	-31.4	13.1	3.28e-05	0	43	0	478150656	18	4517
2026-01-02 22:24:18.58	82.49	16.22	-29.4	-31.3	13.2	1.98e-05	0	43	0	480247808	18	4498
2026-01-02 22:24:19.59	82.71	16.22	-29.4	-31.4	13.1	2.44e-05	0	43	0	482344960	18	4529
2026-01-02 22:24:20.60	82.94	16.22	-29.4	-30.9	13.1	2.67e-05	0	43	0	484442112	19	4269
2026-01-02 22:24:21.60	83.16	16.21	-29.3	-30.5	13.4	1.90e-05	0	43	0	485490688	19	4146
2026-01-02 22:24:22.61	83.38	16.21	-29.3	-30.6	13.4	9.90e-06	0	43	0	487587840	19	4176
2026-01-02 22:24:23.62	83.60	16.21	-29.5	-31.1	13.0	2.97e-05	0	43	0	489684992	19	4351
2026-01-02 22:24:24.62	83.83	16.21	-29.5	-31.2	13.0	4.19e-05	0	43	0	491782144	19	4374
2026-01-02 22:24:25.63	84.05	16.20	-29.6	-31.6	12.7	4.80e-05	0	43	0	493879296	19	4497
2026-01-02 22:24:26.63	84.27	16.20	-29.6	-31.5	12.8	5.56e-05	0	43	0	494927872	19	4456
2026-01-02 22:24:27.63	84.49	16.20	-29.6	-31.5	12.7	5.72e-05	0	43	0	497025024	19	4460
2026-01-02 22:24:28.63	84.71	16.19	-29.7	-31.6	12.7	5.87e-05	0	43	0	499122176	19	4498
2026-01-02 22:24:29.63	84.93	16.19	-29.5	-31.2	13.0	1.11e-04	0	43	0	501219328	19	4368
2026-01-02 22:24:30.63	85.15	16.18	-29.4	-30.8	13.1	2.82e-05	0	43	0	503316480	19	4244
2026-01-02 22:24:31.64	85.38	16.18	-29.3	-30.7	13.2	2.05e-05	0	43	0	504365056	19	4223
2026-01-02 22:24:32.64	85.60	16.17	-29.5	-31.3	12.9	1.75e-05	0	43	0	506462208	19	4398
2026-01-02 22:24:33.64	85.82	16.16	-29.6	-31.5	12.7	6.17e-05	0	43	0	508559360	19	4486
2026-01-02 22:24:34.65	86.04	16.16	-29.7	-31.9	12.5	1.03e-04	0	43	0	510656512	19	4600
2026-01-02 22:24:35.66	86.26	16.15	-29.8	-32.0	12.4	1.63e-04	0	43	0	511705088	19	4647
2026-01-02 22:24:36.66	86.48	16.14	-29.9	-32.4	12.2	2.29e-04	0	43	0	513802240	19	4778
2026-01-02 22:24:37.67	86.70	16.13	-29.9	-32.3	12.2	2.66e-04	0	43	0	515899392	19	4759
2026-01-02 22:24:38.68	86.93	16.13	-29.9	-32.2	12.3	1.93e-04	0	43	0	517996544	19	4693
2026-01-02 22:24:39.68	87.15	16.12	-29.7	-31.8	12.6	1.95e-04	0	43	0	520093696	19	4565
2026-01-02 22:24:40.68	87.37	16.11	-29.5	-31.2	12.9	6.63e-05	0	43	0	521142272	19	4380
2026-01-02 22:24:41.69	87.59	16.10	-29.6	-31.5	12.8	5.49e-05	0	43	0	523239424	19	4469
2026-01-02 22:24:42.69	87.81	16.09	-29.6	-31.5	12.7	7.01e-05	0	43	0	525336576	19	4454
2026-01-02 22:24:43.70	88.03	16.08	-29.4	-31.0	13.0	3.66e-05	0	43	0	527433728	19	4304
2026-01-02 22:24:44.71	88.25	16.07	-29.3	-30.7	13.2	1.98e-05	0	43	0	529530880	19	4219
2026-01-02 22:24:45.71	88.47	16.06	-29.5	-31.2	13.0	3.50e-05	0	43	0	530579456	19	4359
2026-01-02 22:24:46.71	88.69	16.04	-29.6	-31.5	12.8	5.72e-05	0	43	0	532676608	19	4477
2026-01-02 22:24:47.72	88.91	16.03	-29.6	-31.5	12.7	1.04e-04	0	43	0	534773760	19	4457
2026-01-02 22:24:48.72	89.13	16.02	-29.6	-31.5	12.7	8.16e-05	0	43	0	536870912	19	4463
2026-01-02 22:24:49.73	89.35	16.01	-29.6	-31.5	12.7	4.34e-05	0	43	0	538968064	19	4466
2026-01-02 22:24:50.74	89.57	15.99	-29.7	-31.7	12.6	9.84e-05	0	43	0	540016640	19	4527
2026-01-02 22:24:51.74	89.79	15.98	-29.6	-31.5	12.7	1.50e-04	0	43	0	542113792	19	4489
2026-01-02 22:24:52.75	90.01	15.97	-29.7	-31.7	12.5	9.68e-05	0	43	0	544210944	19	4555
2026-01-02 22:24:53.76	90.23	15.95	-29.7	-31.7	12.6	2.10e-04	0	43	0	546308096	19	4539
2026-01-02 22:24:54.76	90.44	15.94	-29.8	-31.9	12.5	7.85e-05	0	43	0	548405248	19	4604
2026-01-02 22:24:55.77	90.66	15.92	-29.6	-31.4	12.8	1.64e-04	0	43	0	549453824	19	4440
2026-01-02 22:24:56.78	90.88	15.91	-29.4	-30.8	13.2	3.12e-05	0	43	0	551550976	19	4256
2026-01-02 22:24:57.79	91.10	15.89	-29.3	-30.6	13.4	2.36e-05	0	43	0	553648128	19	4186
2026-01-02 22:24:58.79	91.32	15.88	-29.1	-30.1	13.6	1.98e-05	0	43	0	555745280	19	4033
2026-01-02 22:24:59.80	91.54	15.86	-29.2	-30.2	13.6	8.30e-06	0	43	0	557842432	19	4063
2026-01-02 22:25:00.80	91.75	15.84	-29.1	-30.0	13.7	1.83e-05	0	43	0	558891008	19	3993
2026-01-02 22:25:01.81	91.97	15.83	-28.9	-29.6	14.0	1.29e-05	0	43	0	560988160	19	3899
2026-01-02 22:25:02.81	92.19	15.81	-28.9	-29.5	14.0	1.06e-05	0	43	0	563085312	19	3858
2026-01-02 22:25:03.82	92.40	15.79	-28.9	-29.6	14.0	4.50e-06	0	43	0	565182464	19	3879
2026-01-02 22:25:04.82	92.62	15.77	-28.9	-29.6	14.0	1.06e-05	0	43	0	567279616	19	3882
2026-01-02 22:25:05.82	92.83	15.75	-28.9	-29.6	13.9	5.56e-05	0	43	0	568328192	19	3887
2026-01-02 22:25:06.83	93.05	15.73	-28.9	-29.5	14.1	7.00e-07	0	43	0	570425344	19	3847
2026-01-02 22:25:07.83	93.26	15.71	-28.8	-29.8	14.2	2.20e-06	0	43	0	572522496	18	4037
2026-01-02 22:25:08.83	93.48	15.69	-28.9	-30.0	14.0	1.10e-04	0	43	0	574619648	18	4087
2026-01-02 22:25:09.83	93.69	15.67	-29.0	-30.2	14.0	2.20e-06	0	43	0	576716800	18	4135
2026-01-02 22:25:10.84	93.91	15.65	-29.3	-30.9	13.6	1.06e-05	0	43	0	577765376	18	4352
2026-01-02 22:25:11.85	94.12	15.63	-29.3	-31.1	13.4	1.37e-05	0	43	0	579862528	18	4414
2026-01-02 22:25:12.85	94.34	15.61	-29.4	-31.3	13.2	1.83e-05	0	43	0	581959680	18	4472
2026-01-02 22:25:13.86	94.55	15.59	-29.4	-30.8	13.3	2.13e-05	0	43	0	584056832	19	4237
2026-01-02 22:25:14.85	94.76	15.57	-29.2	-30.8	13.6	1.29e-05	0	43	0	586153984	18	4319
2026-01-02 22:25:15.85	94.97	15.54	-29.1	-30.6	13.7	5.30e-06	0	43	0	587202560	18	4248
2026-01-02 22:25:16.86	95.19	15.52	-29.3	-30.9	13.5	1.22e-05	0	43	0	589299712	18	4329
2026-01-02 22:25:17.87	95.40	15.50	-29.1	-30.6	13.7	7.60e-06	0	43	0	591396864	18	4246
2026-01-02 22:25:18.87	95.61	15.48	-29.1	-30.5	13.8	9.10e-06	0	43	0	593494016	18	4233
2026-01-02 22:25:19.88	95.82	15.45	-29.3	-31.0	13.4	5.11e-05	0	43	0	595591168	18	4391
2026-01-02 22:25:20.88	96.03	15.43	-29.4	-31.3	13.2	9.90e-06	0	43	0	596639744	18	4488
2026-01-02 22:25:21.89	96.25	15.40	-29.3	-30.9	13.5	1.67e-05	0	43	0	598736896	18	4334
2026-01-02 22:25:22.90	96.46	15.38	-29.2	-30.7	13.7	9.10e-06	0	43	0	600834048	18	4277
2026-01-02 22:25:23.90	96.67	15.35	-29.1	-30.4	13.8	4.50e-06	0	43	0	602931200	18	4190
2026-01-02 22:25:24.91	96.88	15.33	-29.1	-30.5	13.8	3.80e-06	0	43	0	605028352	18	4234
2026-01-02 22:25:25.91	97.09	15.30	-28.7	-29.5	14.4	3.80e-06	0	43	0	606076928	18	3943
2026-01-02 22:25:26.92	97.30	15.28	-28.6	-29.1	14.7	0.00e+00	0	43	0	608174080	18	3831
2026-01-02 22:25:27.93	97.51	15.25	-28.5	-28.9	14.8	0.00e+00	0	43	0	610271232	18	3772
2026-01-02 22:25:28.94	97.72	15.22	-28.5	-28.9	14.8	7.00e-07	0	43	0	612368384	18	3763
2026-01-02 22:25:29.95	97.93	15.19	-28.6	-29.8	14.5	0.00e+00	0	43	0	614465536	17	4104
2026-01-02 22:25:30.95	98.13	15.17	-28.6	-29.8	14.5	7.00e-07	0	43	0	615514112	17	4113
2026-01-02 22:25:31.96	98.34	15.14	-28.8	-30.1	14.3	0.00e+00	0	43	0	617611264	17	4211
2026-01-02 22:25:32.95	98.55	15.11	-28.9	-30.4	14.1	0.00e+00	0	43	0	619708416	17	4286
2026-01-02 22:25:33.95	98.75	15.08	-29.1	-30.4	13.9	4.50e-06	0	43	0	621805568	18	4182
2026-01-02 22:25:34.96	98.96	15.05	-29.0	-30.2	13.9	5.30e-06	0	43	0	623902720	18	4145
2026-01-02 22:25:35.96	99.17	15.03	-29.0	-30.4	13.8	5.30e-06	0	43	0	624951296	18	4185
2026-01-02 22:25:36.97	99.37	15.00	-29.0	-30.3	13.9	3.80e-06	0	43	0	627048448	18	4167
2026-01-02 22:25:37.97	99.58	14.97	-28.9	-30.0	13.9	7.00e-07	0	43	0	629145600	18	4067
2026-01-02 22:25:38.98	99.78	14.94	-29.0	-30.3	13.9	1.50e-06	0	43	0	631242752	18	4157
2026-01-02 22:25:39.98	99.99	14.91	-29.0	-30.3	13.6	2.20e-06	0	43	0	633339904	18	4181
2026-01-02 22:25:40.99	100.19	14.88	-29.1	-30.5	13.6	6.10e-06	0	43	0	634388480	18	4222
2026-01-02 22:25:42.00	100.40	14.84	-29.2	-30.8	13.6	6.10e-06	0	43	0	636485632	18	4310
2026-01-02 22:25:43.00	100.60	14.81	-29.2	-30.7	13.6	8.30e-06	0	43	0	638582784	18	4292
2026-01-02 22:25:44.01	100.80	14.78	-29.2	-30.7	13.6	1.05e-04	0	43	0	640679936	18	4291
2026-01-02 22:25:45.02	101.01	14.75	-29.1	-30.3	13.8	6.10e-06	0	43	0	642777088	18	4172
2026-01-02 22:25:46.03	101.21	14.72	-29.0	-30.3	13.8	2.20e-06	0	43	0	643825664	18	4166
2026-01-02 22:25:47.03	101.41	14.69	-29.0	-30.2	14.0	6.86e-05	0	43	0	645922816	18	4127
2026-01-02 22:25:48.04	101.61	14.65	-29.1	-30.6	13.7	4.50e-06	0	43	0	648019968	18	4254
2026-01-02 22:25:49.04	101.81	14.62	-29.0	-30.2	13.8	3.80e-06	0	43	0	650117120	18	4143
2026-01-02 22:25:50.05	102.01	14.59	-28.9	-30.1	14.0	1.50e-06	0	43	0	652214272	18	4100
2026-01-02 22:25:51.05	102.21	14.55	-28.9	-30.0	14.1	3.00e-06	0	43	0	653262848	18	4070
2026-01-02 22:25:52.05	102.41	14.52	-28.9	-30.0	14.0	4.50e-06	0	43	0	655360000	18	4075
2026-01-02 22:25:53.06	102.61	14.49	-28.8	-29.7	14.2	2.20e-06	0	43	0	657457152	18	3992
2026-01-02 22:25:54.06	102.81	14.45	-29.0	-30.1	14.0	3.00e-06	0	43	0	659554304	18	4115
2026-01-02 22:25:55.07	103.01	14.42	-28.9	-30.1	14.0	8.85e-05	0	43	0	661651456	18	4101
2026-01-02 22:25:56.08	103.21	14.38	-29.1	-30.4	13.8	2.20e-06	0	43	0	662700032	18	4201
2026-01-02 22:25:57.09	103.40	14.35	-29.1	-30.5	13.7	7.60e-06	0	43	0	664797184	18	4224
2026-01-02 22:25:58.09	103.60	14.31	-29.3	-31.1	13.3	9.00e-05	0	43	0	666894336	18	4428
2026-01-02 22:25:59.10	103.80	14.28	-29.2	-30.9	13.5	1.22e-05	0	43	0	668991488	18	4350
2026-01-02 22:26:00.10	103.99	14.24	-29.3	-31.0	13.4	1.52e-05	0	43	0	670040064	18	4398
2026-01-02 22:26:01.10	104.19	14.20	-29.7	-31.6	12.6	1.68e-04	0	43	0	672137216	19	4505
2026-01-02 22:26:02.11	104.38	14.17	-29.4	-30.9	13.1	6.25e-05	0	43	0	674234368	19	4272
2026-01-02 22:26:03.11	104.58	14.13	-29.9	-32.1	12.3	9.15e-05	0	43	0	676331520	19	4655
2026-01-02 22:26:04.12	104.77	14.09	-30.0	-32.5	12.0	3.11e-04	0	43	0	678428672	19	4800
2026-01-02 22:26:05.13	104.97	14.06	-30.1	-32.3	11.7	6.23e-04	0	43	0	680525824	20	4655
2026-01-02 22:26:06.13	105.16	14.02	-30.1	-32.4	11.7	6.22e-04	0	43	0	681574400	20	4708
2026-01-02 22:26:07.13	105.35	13.98	-30.2	-32.6	11.5	1.20e-03	0	43	0	683671552	20	4774
2026-01-02 22:26:08.14	105.54	13.94	-30.1	-32.4	11.6	9.05e-04	0	43	0	685768704	20	4705
2026-01-02 22:26:09.15	105.74	13.91	-30.1	-32.3	11.7	5.19e-04	0	43	0	687865856	20	4656
2026-01-02 22:26:10.15	105.93	13.87	-30.0	-32.2	11.8	6.21e-04	0	43	0	688914432	20	4633
2026-01-02 22:26:11.16	106.12	13.83	-30.0	-32.1	11.9	5.74e-04	0	43	0	691011584	20	4585
2026-01-02 22:26:12.17	106.31	13.79	-30.2	-32.6	11.5	8.74e-04	0	43	0	693108736	20	4778
2026-01-02 22:26:13.18	106.50	13.75	-29.9	-31.9	12.0	6.13e-04	0	43	0	695205888	20	4508
2026-01-02 22:26:14.18	106.69	13.71	-29.7	-31.3	12.4	1.59e-04	0	43	0	697303040	20	4307
2026-01-02 22:26:15.18	106.88	13.67	-29.7	-31.2	12.5	1.01e-04	0	43	0	698351616	20	4277
2026-01-02 22:26:16.19	107.06	13.63	-29.8	-31.5	12.3	1.36e-04	0	43	0	700448768	20	4382
2026-01-02 22:26:17.19	107.25	13.59	-30.0	-32.1	11.8	4.16e-04	0	43	0	702545920	20	4590
2026-01-02 22:26:18.20	107.44	13.55	-30.2	-32.5	11.5	7.28e-04	0	43	0	704643072	20	4741
2026-01-02 22:26:19.20	107.63	13.51	-30.0	-32.2	11.8	7.59e-04	0	43	0	706740224	20	4635
2026-01-02 22:26:20.21	107.81	13.47	-30.0	-32.1	11.9	6.11e-04	0	43	0	707788800	20	4580
2026-01-02 22:26:21.22	108.00	13.43	-29.9	-31.9	12.0	3.75e-04	0	43	0	709885952	20	4502
2026-01-02 22:26:22.22	108.18	13.39	-29.8	-31.6	12.2	5.76e-04	0	43	0	711983104	20	4420
2026-01-02 22:26:23.23	108.37	13.35	-30.0	-32.0	11.9	6.56e-04	0	43	0	714080256	20	4538
2026-01-02 22:26:24.23	108.55	13.31	-29.8	-31.6	12.2	1.97e-04	0	43	0	716177408	20	4420
2026-01-02 22:26:25.23	108.74	13.27	-30.1	-32.4	11.6	3.50e-04	0	43	0	717225984	20	4693
2026-01-02 22:26:26.24	108.92	13.23	-30.0	-32.2	11.8	4.51e-04	0	43	0	719323136	20	4603
2026-01-02 22:26:27.24	109.10	13.18	-30.2	-32.7	11.4	8.67e-04	0	43	0	721420288	20	4800
2026-01-02 22:26:28.25	109.29	13.14	-30.1	-32.5	11.6	8.51e-04	0	43	0	723517440	20	4733
2026-01-02 22:26:29.26	109.47	13.10	-30.2	-32.9	11.3	1.24e-03	0	43	0	725614592	20	4869
2026-01-02 22:26:30.27	109.65	13.06	-30.2	-32.8	11.3	1.07e-03	0	43	0	726663168	20	4840
2026-01-02 22:26:31.27	109.83	13.01	-30.3	-33.1	11.2	1.34e-03	0	43	0	728760320	20	4937
2026-01-02 22:26:32.28	110.01	12.97	-30.4	-33.4	10.9	1.41e-03	0	43	0	730857472	20	5077
2026-01-02 22:26:33.28	110.19	12.93	-30.5	-33.3	10.6	2.75e-03	0	43	0	732954624	21	4940
2026-01-02 22:26:34.29	110.37	12.88	-30.5	-33.3	10.6	3.33e-03	0	43	0	735051776	21	4958
2026-01-02 22:26:35.30	110.55	12.84	-30.7	-33.8	10.2	4.45e-03	0	43	0	736100352	21	5177
2026-01-02 22:26:36.31	110.73	12.80	-30.5	-33.3	10.6	3.78e-03	0	43	0	738197504	21	4957
2026-01-02 22:26:37.32	110.91	12.75	-30.6	-33.6	10.3	6.60e-03	0	43	0	740294656	21	5067
2026-01-02 22:26:38.32	111.09	12.71	-30.3	-32.6	11.0	3.40e-03	0	43	0	742391808	21	4693
2026-01-02 22:26:39.33	111.26	12.66	-30.0	-31.8	11.7	1.25e-03	0	43	0	744488960	21	4384
2026-01-02 22:26:40.34	111.44	12.62	-29.9	-31.4	12.0	4.81e-04	0	43	0	745537536	21	4260
2026-01-02 22:26:41.35	111.62	12.58	-29.9	-31.2	12.1	2.55e-04	0	43	0	747634688	21	4203
2026-01-02 22:26:42.35	111.79	12.53	-29.8	-31.4	12.3	2.43e-04	0	43	0	749731840	20	4363
2026-01-02 22:26:43.36	111.97	12.49	-29.8	-31.6	12.1	3.96e-04	0	43	0	751828992	20	4430
2026-01-02 22:26:44.35	112.14	12.44	-29.9	-32.4	12.1	2.83e-04	0	43	0	753926144	19	4767
2026-01-02 22:26:45.36	112.31	12.40	-29.8	-31.6	12.1	3.38e-04	0	43	0	754974720	20	4425
2026-01-02 22:26:46.36	112.49	12.35	-30.0	-32.2	11.7	4.06e-04	0	43	0	757071872	20	4642
2026-01-02 22:26:47.37	112.66	12.31	-30.2	-32.6	11.4	1.08e-03	0	43	0	759169024	20	4781
2026-01-02 22:26:48.37	112.83	12.26	-30.1	-32.3	11.6	8.97e-04	0	43	0	761266176	20	4675
2026-01-02 22:26:49.37	113.00	12.22	-30.1	-32.5	11.6	7.87e-04	0	43	0	763363328	20	4720
2026-01-02 22:26:50.38	113.17	12.17	-30.2	-32.6	11.4	9.75e-04	0	43	0	764411904	20	4783
2026-01-02 22:26:51.38	113.34	12.12	-30.1	-32.5	11.5	1.12e-03	0	43	0	766509056	20	4726
2026-01-02 22:26:52.39	113.51	12.08	-30.2	-32.9	11.2	1.16e-03	0	43	0	768606208	20	4907
2026-01-02 22:26:53.40	113.68	12.03	-30.2	-32.8	11.3	1.06e-03	0	43	0	770703360	20	4853
2026-01-02 22:26:54.40	113.85	11.98	-30.2	-32.9	11.2	1.03e-03	0	43	0	772800512	20	4891
2026-01-02 22:26:55.41	114.02	11.94	-30.3	-33.1	11.0	1.59e-03	0	43	0	773849088	20	4984
2026-01-02 22:26:56.42	114.19	11.89	-30.1	-32.7	11.3	1.24e-03	0	43	0	775946240	20	4807
2026-01-02 22:26:57.42	114.36	11.84	-30.3	-33.2	11.0	1.61e-03	0	43	0	778043392	20	5007
2026-01-02 22:26:58.43	114.52	11.80	-30.1	-32.6	11.3	1.20e-03	0	43	0	780140544	20	4804
2026-01-02 22:26:59.43	114.69	11.75	-30.1	-32.5	11.4	9.49e-04	0	43	0	782237696	20	4762
2026-01-02 22:27:00.44	114.86	11.70	-30.1	-32.6	11.3	1.02e-03	0	43	0	783286272	20	4802
2026-01-02 22:27:01.44	115.02	11.66	-29.8	-32.3	11.3	9.06e-04	0	43	0	785383424	20	4830
2026-01-02 22:27:02.45	115.19	11.61	-30.2	-33.0	11.1	1.34e-03	0	43	0	787480576	20	4937
2026-01-02 22:27:03.45	115.35	11.56	-30.3	-33.1	10.9	1.54e-03	0	43	0	789577728	20	4997
2026-01-02 22:27:04.45	115.51	11.51	-30.3	-33.2	10.9	2.47e-03	0	43	0	791674880	20	5009
2026-01-02 22:27:05.46	115.68	11.47	-30.1	-32.5	11.4	1.74e-03	0	43	0	792723456	20	4765
2026-01-02 22:27:06.46	115.84	11.42	-30.0	-32.1	11.7	9.24e-04	0	43	0	794820608	20	4610
2026-01-02 22:27:07.47	116.00	11.37	-30.1	-32.4	11.4	1.01e-03	0	43	0	796917760	20	4724
2026-01-02 22:27:08.47	116.16	11.32	-30.0	-32.1	11.7	6.28e-04	0	43	0	799014912	20	4596
2026-01-02 22:27:09.47	116.33	11.27	-30.0	-32.6	11.7	5.42e-04	0	43	0	801112064	19	4885
2026-01-02 22:27:10.48	116.49	11.23	-29.8	-31.7	12.0	6.42e-04	0	43	0	802160640	20	4455
2026-01-02 22:27:11.48	116.65	11.18	-29.9	-32.0	11.7	4.54e-04	0	43	0	804257792	20	4564
2026-01-02 22:27:12.49	116.81	11.13	-29.9	-32.4	11.9	6.27e-04	0	43	0	806354944	19	4790
2026-01-02 22:27:13.49	116.97	11.08	-29.9	-32.2	12.0	3.64e-04	0	43	0	808452096	19	4737
2026-01-02 22:27:14.49	117.12	11.03	-29.9	-32.4	11.8	4.94e-04	0	43	0	810549248	19	4808
2026-01-02 22:27:15.50	117.28	10.98	-29.9	-32.3	11.9	3.47e-04	0	43	0	811597824	19	4754
2026-01-02 22:27:16.50	117.44	10.93	-29.7	-31.8	12.2	2.55e-04	0	43	0	813694976	19	4572
2026-01-02 22:27:17.50	117.60	10.89	-29.8	-32.0	12.1	2.58e-04	0	43	0	815792128	19	4653
2026-01-02 22:27:18.51	117.75	10.84	-29.6	-31.7	12.3	1.98e-04	0	43	0	817889280	19	4547
2026-01-02 22:27:19.51	117.91	10.79	-29.6	-31.4	12.5	1.29e-04	0	43	0	818937856	19	4444
2026-01-02 22:27:20.51	118.06	10.74	-29.6	-31.5	12.5	1.33e-04	0	43	0	821035008	19	4475
2026-01-02 22:27:21.51	118.22	10.69	-29.5	-31.3	12.6	1.11e-04	0	43	0	823132160	19	4414
2026-01-02 22:27:22.52	118.37	10.64	-29.6	-31.5	12.4	1.30e-04	0	43	0	825229312	19	4485
2026-01-02 22:27:23.52	118.53	10.59	-29.4	-31.0	12.8	1.11e-04	0	43	0	827326464	19	4322
2026-01-02 22:27:24.52	118.68	10.54	-29.5	-31.4	12.5	1.08e-04	0	43	0	828375040	19	4446
2026-01-02 22:27:25.52	118.83	10.49	-29.7	-31.7	12.3	1.68e-04	0	43	0	830472192	19	4566
2026-01-02 22:27:26.53	118.99	10.44	-29.7	-31.7	12.2	1.39e-04	0	43	0	832569344	19	4567
2026-01-02 22:27:27.54	119.14	10.39	-29.7	-32.0	12.0	2.92e-04	0	43	0	834666496	19	4668
2026-01-02 22:27:28.54	119.29	10.34	-29.7	-31.9	12.1	2.84e-04	0	43	0	836763648	19	4629
2026-01-02 22:27:29.54	119.44	10.29	-29.8	-32.0	12.0	3.81e-04	0	43	0	837812224	19	4660
2026-01-02 22:27:30.54	119.59	10.24	-29.7	-32.0	12.0	3.23e-04	0	43	0	839909376	19	4653
2026-01-02 22:27:31.55	119.74	10.19	-29.8	-32.1	12.0	3.33e-04	0	43	0	842006528	19	4690
2026-01-02 22:27:32.55	119.89	10.14	-29.7	-31.7	12.3	2.86e-04	0	43	0	844103680	19	4563
2026-01-02 22:27:33.56	120.04	10.09	-29.4	-31.0	12.7	9.38e-05	0	43	0	846200832	19	4340
2026-01-02 22:27:34.56	120.19	10.04	-29.4	-30.9	12.8	1.14e-04	0	43	0	847249408	19	4290
2026-01-02 22:27:35.56	120.34	9.99	-29.4	-31.1	12.6	6.79e-05	0	43	0	849346560	19	4351
2026-01-02 22:27:36.56	120.48	9.94	-29.3	-30.7	12.9	1.30e-04	0	43	0	851443712	19	4222
2026-01-02 22:27:37.57	120.63	9.89	-29.3	-30.7	12.9	2.44e-04	0	43	0	853540864	19	4232
2026-01-02 22:27:38.58	120.78	9.84	-29.2	-30.4	13.1	2.59e-05	0	43	0	855638016	19	4136
2026-01-02 22:27:39.59	120.93	9.79	-29.4	-31.4	12.8	4.31e-04	0	43	0	856686592	18	4534
2026-01-02 22:27:40.58	121.07	9.74	-29.5	-31.1	12.6	9.99e-05	0	43	0	858783744	19	4355
2026-01-02 22:27:41.59	121.22	9.69	-29.3	-30.8	12.8	8.54e-05	0	43	0	860880896	19	4268
2026-01-02 22:27:42.59	121.36	9.64	-29.5	-31.7	12.6	4.61e-04	0	43	0	862978048	18	4656
2026-01-02 22:27:43.60	121.50	9.59	-29.5	-31.4	12.4	5.03e-04	0	43	0	865075200	19	4452
2026-01-02 22:27:44.61	121.65	9.53	-29.5	-31.2	12.5	1.10e-04	0	43	0	866123776	19	4410
2026-01-02 22:27:45.61	121.79	9.48	-29.7	-31.7	12.2	2.12e-04	0	43	0	868220928	19	4572
2026-01-02 22:27:46.62	121.93	9.43	-29.6	-31.5	12.3	2.75e-04	0	43	0	870318080	19	4484
2026-01-02 22:27:47.62	122.08	9.38	-29.5	-31.4	12.4	1.37e-04	0	43	0	872415232	19	4451
2026-01-02 22:27:48.63	122.22	9.33	-29.7	-31.8	12.1	1.88e-04	0	43	0	874512384	19	4606
2026-01-02 22:27:49.62	122.36	9.28	-29.6	-31.8	12.1	2.07e-04	0	43	0	875560960	19	4600
2026-01-02 22:27:50.63	122.50	9.23	-29.8	-32.1	11.9	2.41e-04	0	43	0	877658112	19	4721
2026-01-02 22:27:51.64	122.64	9.18	-29.8	-32.2	11.8	6.00e-04	0	43	0	879755264	19	4738
2026-01-02 22:27:52.64	122.78	9.13	-29.8	-32.4	11.7	5.05e-04	0	43	0	881852416	19	4814
2026-01-02 22:27:53.65	122.92	9.07	-29.9	-32.6	11.6	5.24e-04	0	43	0	883949568	19	4891
2026-01-02 22:27:54.65	123.06	9.02	-29.8	-32.2	11.8	5.21e-04	0	43	0	884998144	19	4752
2026-01-02 22:27:55.66	123.20	8.97	-29.7	-31.9	12.0	4.62e-04	0	43	0	887095296	19	4652
2026-01-02 22:27:56.66	123.34	8.92	-29.7	-31.8	12.1	3.82e-04	0	43	0	889192448	19	4618
2026-01-02 22:27:57.66	123.47	8.87	-29.6	-31.5	12.3	1.85e-04	0	43	0	891289600	19	4506
2026-01-02 22:27:58.66	123.61	8.82	-29.5	-31.3	12.4	5.35e-04	0	43	0	893386752	19	4444
2026-01-02 22:27:59.67	123.75	8.77	-29.6	-31.5	12.2	1.57e-04	0	43	0	894435328	19	4518
2026-01-02 22:28:00.67	123.88	8.72	-29.5	-31.5	12.3	4.05e-04	0	43	0	896532480	19	4483
2026-01-02 22:28:01.67	124.02	8.66	-29.6	-31.5	12.3	1.68e-04	0	43	0	898629632	19	4490
2026-01-02 22:28:02.67	124.15	8.61	-29.6	-31.6	12.2	2.26e-04	0	43	0	900726784	19	4551
2026-01-02 22:28:03.68	124.29	8.56	-29.6	-31.5	12.2	2.51e-04	0	43	0	901775360	19	4525
2026-01-02 22:28:04.68	124.42	8.51	-29.7	-32.1	11.8	3.58e-04	0	43	0	903872512	19	4711
2026-01-02 22:28:05.69	124.56	8.46	-29.8	-32.3	11.7	5.19e-04	0	43	0	905969664	19	4790
2026-01-02 22:28:06.70	124.69	8.40	-30.0	-32.8	11.3	7.66e-04	0	43	0	908066816	19	4974
2026-01-02 22:28:07.70	124.82	8.35	-30.0	-32.6	11.1	1.26e-03	0	43	0	910163968	20	4833
2026-01-02 22:28:08.70	124.95	8.30	-30.1	-32.8	10.9	2.26e-03	0	43	0	911212544	20	4890
2026-01-02 22:28:09.71	125.09	8.25	-30.0	-32.5	11.2	1.48e-03	0	43	0	913309696	20	4797
2026-01-02 22:28:10.72	125.22	8.20	-29.9	-32.3	11.3	1.23e-03	0	43	0	915406848	20	4707
2026-01-02 22:28:11.72	125.35	8.15	-29.9	-32.3	11.2	9.72e-04	0	43	0	917504000	20	4720
2026-01-02 22:28:12.73	125.48	8.09	-29.9	-32.2	11.3	1.10e-03	0	43	0	919601152	20	4676
2026-01-02 22:28:13.74	125.61	8.04	-29.9	-32.3	11.2	1.14e-03	0	43	0	920649728	20	4716
2026-01-02 22:28:14.74	125.74	7.99	-29.8	-32.0	11.4	1.30e-03	0	43	0	922746880	20	4637
2026-01-02 22:28:15.75	125.87	7.94	-30.1	-32.7	10.9	1.19e-03	0	43	0	924844032	20	4880
2026-01-02 22:28:16.75	126.00	7.89	-30.0	-32.6	11.0	2.56e-03	0	43	0	926941184	20	4833
2026-01-02 22:28:17.76	126.13	7.83	-30.0	-32.7	10.9	1.74e-03	0	43	0	929038336	20	4880
2026-01-02 22:28:18.76	126.26	7.78	-30.0	-32.6	11.0	1.54e-03	0	43	0	930086912	20	4832
2026-01-02 22:28:19.77	126.38	7.73	-30.2	-33.1	10.6	1.94e-03	0	43	0	932184064	20	5043
2026-01-02 22:28:20.77	126.51	7.68	-30.1	-32.9	10.6	3.24e-03	0	43	0	934281216	20	4985
2026-01-02 22:28:21.77	126.64	7.63	-30.1	-32.8	10.7	2.98e-03	0	43	0	936378368	20	4939
2026-01-02 22:28:22.78	126.76	7.57	-30.1	-32.8	10.8	3.41e-03	0	43	0	938475520	20	4943
2026-01-02 22:28:23.79	126.89	7.52	-30.2	-33.3	10.4	2.97e-03	0	43	0	939524096	20	5122
2026-01-02 22:28:24.79	127.02	7.47	-30.2	-33.2	10.5	4.02e-03	0	43	0	941621248	20	5079
2026-01-02 22:28:25.80	127.14	7.42	-30.2	-33.3	10.4	4.48e-03	0	43	0	943718400	20	5129
2026-01-02 22:28:26.81	127.27	7.36	-30.2	-33.3	10.3	5.13e-03	0	43	0	945815552	20	5142
2026-01-02 22:28:27.82	127.39	7.31	-30.2	-33.3	10.3	5.24e-03	0	43	0	947912704	20	5148
2026-01-02 22:28:28.82	127.51	7.26	-30.3	-33.7	10.0	5.52e-03	0	43	0	948961280	20	5328
2026-01-02 22:28:29.83	127.64	7.21	-30.3	-33.7	10.0	9.82e-03	0	43	0	951058432	20	5339
2026-01-02 22:28:30.83	127.76	7.16	-30.4	-33.9	9.8	9.70e-03	0	43	0	953155584	20	5435
2026-01-02 22:28:31.83	127.88	7.10	-30.3	-33.8	9.9	9.17e-03	0	43	0	955252736	20	5384
2026-01-02 22:28:32.84	128.01	7.05	-32.4	-44.8	3.8	1.07e+00	0	43	104	956301312	24	15089
2026-01-02 22:28:33.85	128.13	7.00	-32.8	-45.3	3.8	1.49e+00	0	43	104	956301312	25	15218

#Closed at: 2026-01-02 22:28:34
#Recorded file [956 MB]: D:/data/31010_260103_012002.dat