passes_logs/2026/01/02/R2M6_AANII_01/R2M6_AANII_01__20260102_030003_FENGYUN_3D_rec.log

#Pass ID: 20260102_030003_FENGYUN 3D
#Satellite: FENGYUN 3D
#Configuration: FENGYUN 3D
#almurnet v.1.7.20240730
#Start time: 2026-01-02 03:00:03

#Version: 2.2.20231116
#Station: R2M6_AANII_01
#Location: 30.233357 lon 59.946436 lat
#TLE: 1 43010U 17072A   26001.33100487  .00000602  00000+0  30664-3 0  9999
#TLE: 2 43010  98.9910 332.9374 0001848 133.1047 227.0283 14.19692078421319

#Time	Az	El	Level	Level2	SNR	BER	BlckErr	Temp	State	Recorded	gain1	gain2
2026-01-02 03:00:03.82	15.78	7.03	-29.7	-33.4	5.2	7.97e-01	0	41	0	0	19	5531
2026-01-02 03:00:04.82	15.75	7.11	-30.1	-34.3	5.0	8.03e-01	0	41	104	0	20	5848
2026-01-02 03:00:05.82	15.72	7.19	-30.1	-34.2	7.9	9.61e-02	0	41	0	0	20	5768
2026-01-02 03:00:06.82	15.69	7.26	-30.5	-35.0	7.1	1.54e-01	0	41	0	5242880	21	6057
2026-01-02 03:00:07.83	15.66	7.34	-30.3	-34.7	7.6	1.35e-01	0	41	0	10485760	20	5982
2026-01-02 03:00:08.82	15.64	7.42	-30.2	-34.3	7.9	9.24e-02	0	41	0	16777216	20	5803
2026-01-02 03:00:09.83	15.61	7.49	-30.0	-33.9	8.2	6.51e-02	0	41	0	22020096	20	5589
2026-01-02 03:00:10.83	15.58	7.57	-29.9	-33.9	8.7	4.16e-02	0	41	0	28311552	19	5692
2026-01-02 03:00:11.84	15.55	7.65	-29.8	-33.7	8.8	3.39e-02	0	41	0	33554432	19	5618
2026-01-02 03:00:12.83	15.52	7.73	-29.5	-32.7	9.5	2.17e-02	0	41	0	38797312	19	5207
2026-01-02 03:00:13.84	15.49	7.80	-29.1	-32.0	10.3	1.09e-02	0	41	0	45088768	18	5048
2026-01-02 03:00:14.84	15.46	7.88	-28.7	-31.1	10.9	2.94e-03	0	41	0	50331648	18	4741
2026-01-02 03:00:15.84	15.43	7.96	-28.5	-30.9	11.4	1.23e-03	0	41	0	55574528	17	4770
2026-01-02 03:00:16.84	15.40	8.04	-27.9	-29.9	12.3	4.21e-04	0	41	0	61865984	16	4553
2026-01-02 03:00:17.85	15.37	8.12	-27.2	-28.9	13.1	9.72e-05	0	41	0	67108864	15	4374
2026-01-02 03:00:18.85	15.34	8.20	-26.9	-28.7	13.5	3.89e-05	0	41	0	72351744	14	4417
2026-01-02 03:00:19.85	15.31	8.28	-26.7	-28.8	13.7	4.50e-06	0	41	0	78643200	13	4557
2026-01-02 03:00:20.86	15.28	8.36	-26.9	-29.1	13.6	2.51e-05	0	41	0	83886080	13	4662
2026-01-02 03:00:21.86	15.25	8.44	-26.7	-28.7	13.8	5.70e-06	0	41	0	90177536	13	4527
2026-01-02 03:00:22.86	15.22	8.52	-26.6	-28.4	14.0	9.10e-06	0	41	0	95420416	13	4436
2026-01-02 03:00:23.86	15.18	8.60	-26.6	-28.6	13.9	3.40e-06	0	41	0	100663296	13	4487
2026-01-02 03:00:24.87	15.15	8.68	-26.6	-28.5	14.0	8.00e-06	0	41	0	106954752	13	4465
2026-01-02 03:00:25.87	15.12	8.76	-26.6	-28.4	14.0	9.10e-06	0	41	0	112197632	13	4440
2026-01-02 03:00:26.88	15.09	8.84	-26.7	-28.6	13.9	6.80e-06	0	41	0	118489088	13	4497
2026-01-02 03:00:27.88	15.06	8.92	-26.5	-28.2	14.1	3.40e-06	0	41	0	123731968	13	4392
2026-01-02 03:00:28.88	15.02	9.00	-26.6	-28.4	14.0	4.50e-06	0	41	0	128974848	13	4440
2026-01-02 03:00:29.88	14.99	9.09	-26.5	-28.3	14.1	4.50e-06	0	42	0	135266304	13	4401
2026-01-02 03:00:30.88	14.96	9.17	-26.3	-28.4	14.4	1.10e-06	0	42	0	140509184	12	4547
2026-01-02 03:00:31.89	14.92	9.25	-26.4	-28.4	14.4	0.00e+00	0	41	0	145752064	12	4552
2026-01-02 03:00:32.89	14.89	9.33	-26.4	-28.4	14.4	0.00e+00	0	42	0	152043520	12	4538
2026-01-02 03:00:33.88	14.86	9.42	-26.3	-28.3	14.4	4.50e-06	0	41	0	157286400	12	4522
2026-01-02 03:00:34.88	14.82	9.50	-26.2	-28.1	14.6	1.10e-06	0	42	0	163577856	12	4451
2026-01-02 03:00:35.89	14.79	9.58	-26.4	-28.5	14.4	1.10e-06	0	42	0	168820736	12	4584
2026-01-02 03:00:36.88	14.76	9.67	-26.2	-28.1	14.6	1.10e-06	0	42	0	174063616	12	4457
2026-01-02 03:00:37.89	14.72	9.75	-26.1	-27.9	14.7	0.00e+00	0	42	0	180355072	12	4395
2026-01-02 03:00:38.89	14.69	9.84	-26.1	-27.8	14.7	0.00e+00	0	42	0	185597952	12	4385
2026-01-02 03:00:39.90	14.65	9.92	-26.1	-27.7	14.8	0.00e+00	0	42	0	190840832	12	4355
2026-01-02 03:00:40.90	14.62	10.01	-26.3	-28.1	14.6	0.00e+00	0	41	0	197132288	12	4469
2026-01-02 03:00:41.90	14.58	10.09	-26.0	-27.6	14.9	0.00e+00	0	42	0	202375168	12	4308
2026-01-02 03:00:42.91	14.55	10.18	-25.8	-27.1	15.2	0.00e+00	0	42	0	208666624	12	4185
2026-01-02 03:00:43.91	14.51	10.26	-25.9	-27.8	15.2	0.00e+00	0	42	0	213909504	11	4477
2026-01-02 03:00:44.91	14.47	10.35	-25.9	-27.8	15.2	0.00e+00	0	42	0	219152384	11	4472
2026-01-02 03:00:45.91	14.44	10.43	-26.0	-27.5	15.0	0.00e+00	0	42	0	225443840	12	4290
2026-01-02 03:00:46.92	14.40	10.52	-26.0	-27.4	15.0	0.00e+00	0	42	0	230686720	12	4267
2026-01-02 03:00:47.93	14.36	10.61	-25.6	-26.8	15.1	1.10e-06	0	42	0	236978176	12	4123
2026-01-02 03:00:48.93	14.33	10.70	-25.4	-26.8	14.1	0.00e+00	0	42	0	242221056	12	4236
2026-01-02 03:00:49.94	14.29	10.78	-25.9	-27.3	14.5	0.00e+00	0	42	0	247463936	12	4225
2026-01-02 03:00:50.93	14.25	10.87	-26.0	-27.9	13.4	0.00e+00	0	42	0	253755392	11	4510
2026-01-02 03:00:51.93	14.22	10.96	-26.0	-28.0	14.5	0.00e+00	0	42	0	258998272	11	4527
2026-01-02 03:00:52.93	14.18	11.05	-25.9	-27.9	15.1	0.00e+00	0	42	0	264241152	11	4516
2026-01-02 03:00:53.94	14.14	11.14	-26.0	-28.0	15.1	1.10e-06	0	42	0	270532608	11	4533
2026-01-02 03:00:54.95	14.10	11.23	-26.0	-27.5	15.0	0.00e+00	0	42	0	275775488	12	4282
2026-01-02 03:00:55.95	14.06	11.32	-26.4	-28.4	14.5	2.29e-04	0	42	0	282066944	12	4531
2026-01-02 03:00:56.96	14.02	11.41	-26.7	-28.6	14.1	3.40e-06	0	42	0	287309824	13	4495
2026-01-02 03:00:57.96	13.98	11.50	-26.9	-29.2	13.8	3.40e-06	0	42	0	292552704	13	4656
2026-01-02 03:00:58.97	13.94	11.59	-26.6	-28.5	14.2	3.40e-06	0	42	0	298844160	13	4446
2026-01-02 03:00:59.97	13.90	11.68	-26.8	-28.8	14.0	3.40e-06	0	42	0	304087040	13	4544
2026-01-02 03:01:00.98	13.86	11.77	-26.7	-28.5	14.2	5.70e-06	0	42	0	310378496	13	4463
2026-01-02 03:01:01.98	13.82	11.86	-26.6	-28.5	14.2	3.40e-06	0	42	0	315621376	13	4449
2026-01-02 03:01:02.99	13.78	11.95	-26.6	-28.4	14.2	2.17e-03	0	42	0	320864256	13	4416
2026-01-02 03:01:03.98	13.74	12.04	-26.8	-28.8	14.0	3.40e-06	0	42	0	327155712	13	4542
2026-01-02 03:01:04.98	13.70	12.14	-26.5	-28.1	14.5	3.74e-04	0	42	0	332398592	13	4329
2026-01-02 03:01:05.98	13.66	12.23	-26.1	-27.8	14.9	0.00e+00	0	42	0	337641472	12	4368
2026-01-02 03:01:06.98	13.62	12.32	-25.9	-27.8	15.3	1.90e-03	0	42	0	343932928	11	4470
2026-01-02 03:01:07.99	13.58	12.42	-25.8	-27.5	15.4	3.25e-04	0	42	0	349175808	11	4401
2026-01-02 03:01:08.99	13.53	12.51	-25.8	-27.7	15.4	0.00e+00	0	42	0	355467264	11	4438
2026-01-02 03:01:10.00	13.49	12.60	-25.8	-27.5	15.4	2.09e-03	0	42	0	360710144	11	4388
2026-01-02 03:01:11.00	13.45	12.70	-25.6	-27.1	15.6	0.00e+00	0	42	0	365953024	11	4291
2026-01-02 03:01:11.99	13.41	12.79	-25.6	-27.2	15.6	1.97e-03	0	42	0	372244480	11	4298
2026-01-02 03:01:12.99	13.36	12.89	-25.6	-27.2	15.6	2.52e-04	0	42	0	377487360	11	4312
2026-01-02 03:01:14.00	13.32	12.98	-25.5	-26.9	15.8	3.09e-04	0	42	0	382730240	11	4222
2026-01-02 03:01:15.00	13.27	13.08	-25.6	-27.0	15.7	2.02e-03	0	42	0	389021696	11	4260
2026-01-02 03:01:16.00	13.23	13.17	-25.6	-27.2	15.6	0.00e+00	0	42	0	394264576	11	4299
2026-01-02 03:01:17.00	13.18	13.27	-25.7	-27.4	15.6	3.39e-04	0	42	0	399507456	11	4351
2026-01-02 03:01:18.01	13.14	13.37	-25.7	-27.3	15.6	0.00e+00	0	42	0	405798912	11	4342
2026-01-02 03:01:19.02	13.09	13.47	-25.6	-27.0	15.7	2.02e-03	0	42	0	411041792	11	4260
2026-01-02 03:01:20.02	13.05	13.56	-25.6	-27.0	15.8	3.08e-04	0	42	0	417333248	11	4253
2026-01-02 03:01:21.02	13.00	13.66	-25.8	-27.5	15.5	2.11e-03	0	42	0	422576128	11	4380
2026-01-02 03:01:22.02	12.96	13.76	-25.5	-26.9	15.8	1.87e-03	0	42	0	428867584	11	4212
2026-01-02 03:01:23.02	12.91	13.86	-25.4	-27.2	15.9	0.00e+00	0	42	0	434110464	10	4420
2026-01-02 03:01:24.02	12.86	13.96	-25.5	-27.0	15.8	1.93e-03	0	43	0	439353344	11	4241
2026-01-02 03:01:25.02	12.81	14.05	-25.5	-27.0	15.8	0.00e+00	0	42	0	445644800	11	4256
2026-01-02 03:01:26.03	12.77	14.16	-25.4	-26.7	16.0	2.99e-04	0	42	0	450887680	11	4161
2026-01-02 03:01:27.04	12.72	14.26	-25.4	-26.7	16.0	1.73e-03	0	43	0	456130560	11	4174
2026-01-02 03:01:28.04	12.67	14.36	-25.5	-27.0	15.9	2.00e-03	0	42	0	462422016	11	4241
2026-01-02 03:01:29.05	12.62	14.46	-25.3	-26.9	16.1	2.99e-04	0	43	0	467664896	10	4341
2026-01-02 03:01:30.05	12.57	14.56	-25.3	-27.0	16.1	1.91e-03	0	43	0	472907776	10	4363
2026-01-02 03:01:31.05	12.52	14.66	-25.5	-26.9	15.9	1.83e-03	0	43	0	479199232	11	4218
2026-01-02 03:01:32.06	12.47	14.76	-25.2	-26.7	16.3	0.00e+00	0	42	0	484442112	10	4273
2026-01-02 03:01:33.07	12.42	14.87	-25.1	-26.5	16.4	1.83e-03	0	43	0	490733568	10	4235
2026-01-02 03:01:34.07	12.37	14.97	-25.2	-26.6	16.3	1.66e-03	0	42	0	495976448	10	4255
2026-01-02 03:01:35.07	12.32	15.07	-25.2	-26.6	16.3	2.73e-04	0	42	0	502267904	10	4258
2026-01-02 03:01:36.08	12.27	15.18	-25.1	-26.6	16.3	1.61e-03	0	42	0	507510784	10	4250
2026-01-02 03:01:37.07	12.22	15.28	-25.0	-26.3	16.5	0.00e+00	0	43	0	512753664	10	4179
2026-01-02 03:01:38.07	12.16	15.39	-25.2	-26.7	16.3	2.47e-04	0	43	0	519045120	10	4276
2026-01-02 03:01:39.07	12.11	15.49	-24.9	-26.1	16.6	0.00e+00	0	43	0	524288000	10	4113
2026-01-02 03:01:40.07	12.06	15.60	-24.8	-25.8	16.8	1.65e-03	0	43	0	529530880	10	4045
2026-01-02 03:01:41.07	12.01	15.70	-24.7	-26.2	16.8	2.31e-04	0	43	0	534773760	9	4262
2026-01-02 03:01:42.07	11.95	15.81	-24.7	-26.2	16.8	2.38e-04	0	43	0	541065216	9	4260
2026-01-02 03:01:43.08	11.90	15.92	-25.0	-26.2	16.5	1.56e-03	0	43	0	546308096	10	4162
2026-01-02 03:01:44.08	11.84	16.02	-24.6	-25.4	17.0	0.00e+00	0	43	0	552599552	10	3960
2026-01-02 03:01:45.08	11.79	16.13	-24.5	-25.7	17.1	1.47e-03	0	42	0	557842432	9	4118
2026-01-02 03:01:46.09	11.73	16.24	-24.7	-26.0	16.9	0.00e+00	0	42	0	564133888	9	4213
2026-01-02 03:01:47.09	11.68	16.35	-24.7	-26.2	16.8	2.16e-04	0	43	0	569376768	9	4247
2026-01-02 03:01:48.10	11.62	16.46	-24.5	-25.7	17.1	0.00e+00	0	43	0	574619648	9	4137
2026-01-02 03:01:49.09	11.56	16.57	-24.4	-25.6	17.2	0.00e+00	0	42	0	580911104	9	4092
2026-01-02 03:01:50.10	11.50	16.68	-24.5	-25.6	17.1	0.00e+00	0	43	0	586153984	9	4108
2026-01-02 03:01:51.10	11.45	16.79	-24.5	-25.7	17.1	0.00e+00	0	43	0	591396864	9	4122
2026-01-02 03:01:52.11	11.39	16.90	-24.6	-25.9	17.0	1.44e-03	0	43	0	597688320	9	4180
2026-01-02 03:01:53.11	11.33	17.01	-24.5	-25.6	17.2	0.00e+00	0	43	0	602931200	9	4114
2026-01-02 03:01:54.10	11.27	17.12	-24.4	-25.5	17.2	1.27e-03	0	43	0	608174080	9	4082
2026-01-02 03:01:55.11	11.21	17.24	-24.5	-26.1	17.2	0.00e+00	0	43	0	614465536	8	4347
2026-01-02 03:01:56.11	11.15	17.35	-24.4	-25.5	17.3	0.00e+00	0	42	0	619708416	9	4076
2026-01-02 03:01:57.11	11.09	17.46	-24.5	-25.8	17.1	0.00e+00	0	43	0	625999872	9	4152
2026-01-02 03:01:58.11	11.03	17.58	-24.3	-25.3	17.3	0.00e+00	0	43	0	631242752	9	4041
2026-01-02 03:01:59.11	10.97	17.69	-24.3	-25.9	17.3	1.45e-04	0	43	0	636485632	8	4283
2026-01-02 03:02:00.11	10.91	17.80	-24.3	-25.9	17.3	0.00e+00	0	43	0	642777088	8	4285
2026-01-02 03:02:01.11	10.84	17.92	-24.3	-25.7	17.5	0.00e+00	0	43	0	648019968	8	4232
2026-01-02 03:02:02.12	10.78	18.04	-24.3	-25.7	17.4	0.00e+00	0	43	0	654311424	8	4251
2026-01-02 03:02:03.13	10.72	18.15	-24.3	-25.7	17.4	0.00e+00	0	43	0	659554304	8	4254
2026-01-02 03:02:04.13	10.65	18.27	-24.2	-25.6	17.5	0.00e+00	0	43	0	664797184	8	4212
2026-01-02 03:02:05.14	10.59	18.39	-24.4	-26.0	17.3	0.00e+00	0	43	0	671088640	8	4313
2026-01-02 03:02:06.14	10.52	18.51	-24.2	-25.6	17.5	0.00e+00	0	43	0	676331520	8	4229
2026-01-02 03:02:07.14	10.46	18.62	-24.2	-25.5	17.6	0.00e+00	0	43	0	681574400	8	4178
2026-01-02 03:02:08.15	10.39	18.74	-24.2	-25.6	17.5	0.00e+00	0	43	0	687865856	8	4208
2026-01-02 03:02:09.15	10.32	18.86	-24.1	-25.3	17.7	0.00e+00	0	42	0	693108736	8	4130
2026-01-02 03:02:10.15	10.26	18.98	-24.2	-25.6	17.5	0.00e+00	0	43	0	699400192	8	4218
2026-01-02 03:02:11.15	10.19	19.10	-24.4	-25.9	17.3	0.00e+00	0	43	0	704643072	8	4305
2026-01-02 03:02:12.15	10.12	19.23	-24.1	-25.3	17.7	0.00e+00	0	43	0	709885952	8	4148
2026-01-02 03:02:13.15	10.05	19.35	-24.0	-25.1	17.8	0.00e+00	0	43	0	716177408	8	4098
2026-01-02 03:02:14.14	9.98	19.47	-24.0	-25.2	17.8	0.00e+00	0	43	0	721420288	8	4103
2026-01-02 03:02:15.15	9.91	19.59	-24.1	-25.3	17.7	0.00e+00	0	43	0	726663168	8	4135
2026-01-02 03:02:16.15	9.84	19.72	-23.9	-24.9	17.9	0.00e+00	0	43	0	732954624	8	4042
2026-01-02 03:02:17.16	9.77	19.84	-23.9	-24.9	17.9	0.00e+00	0	43	0	738197504	8	4037
2026-01-02 03:02:18.16	9.70	19.96	-24.0	-25.0	17.9	0.00e+00	0	43	0	743440384	8	4062
2026-01-02 03:02:19.16	9.63	20.09	-23.9	-25.0	17.9	0.00e+00	0	43	0	749731840	8	4059
2026-01-02 03:02:20.17	9.55	20.22	-23.9	-24.9	17.9	0.00e+00	0	43	0	754974720	8	4035
2026-01-02 03:02:21.17	9.48	20.34	-24.1	-25.3	17.7	0.00e+00	0	43	0	761266176	8	4131
2026-01-02 03:02:22.17	9.40	20.47	-24.0	-25.0	17.9	0.00e+00	0	43	0	766509056	8	4066
2026-01-02 03:02:23.17	9.33	20.60	-23.9	-24.9	17.9	0.00e+00	0	43	0	772800512	8	4044
2026-01-02 03:02:24.17	9.25	20.72	-24.0	-25.1	17.9	0.00e+00	0	43	0	778043392	8	4078
2026-01-02 03:02:25.17	9.18	20.85	-23.9	-24.8	18.0	0.00e+00	0	43	0	783286272	8	4024
2026-01-02 03:02:26.17	9.10	20.98	-23.8	-24.6	18.1	0.00e+00	0	43	0	789577728	8	3973
2026-01-02 03:02:27.17	9.02	21.11	-23.8	-24.6	18.1	0.00e+00	0	43	0	794820608	8	3965
2026-01-02 03:02:28.18	8.94	21.24	-23.8	-24.7	18.1	0.00e+00	0	43	0	800063488	8	3983
2026-01-02 03:02:29.18	8.86	21.37	-23.8	-24.6	18.1	0.00e+00	0	43	0	806354944	8	3960
2026-01-02 03:02:30.18	8.78	21.51	-23.7	-24.9	18.2	0.00e+00	0	43	0	811597824	7	4156
2026-01-02 03:02:31.18	8.70	21.64	-23.6	-24.7	18.3	0.00e+00	0	43	0	816840704	7	4100
2026-01-02 03:02:32.19	8.62	21.77	-23.7	-25.0	18.2	0.00e+00	0	43	0	823132160	7	4164
2026-01-02 03:02:33.19	8.54	21.91	-23.7	-24.9	18.2	0.00e+00	0	43	0	828375040	7	4152
2026-01-02 03:02:34.20	8.46	22.04	-23.6	-24.7	18.3	0.00e+00	0	43	0	834666496	7	4104
2026-01-02 03:02:35.20	8.37	22.18	-23.6	-24.7	18.3	0.00e+00	0	43	0	839909376	7	4093
2026-01-02 03:02:36.20	8.29	22.31	-23.7	-24.9	18.2	0.00e+00	0	43	0	845152256	7	4156
2026-01-02 03:02:37.20	8.20	22.45	-23.6	-24.7	18.3	0.00e+00	0	43	0	851443712	7	4101
2026-01-02 03:02:38.21	8.12	22.58	-23.6	-24.7	18.3	0.00e+00	0	43	0	856686592	7	4105
2026-01-02 03:02:39.22	8.03	22.72	-23.7	-24.9	18.2	0.00e+00	0	43	0	861929472	7	4135
2026-01-02 03:02:40.22	7.94	22.86	-23.4	-24.4	18.5	0.00e+00	0	43	0	868220928	7	4022
2026-01-02 03:02:41.22	7.85	23.00	-23.5	-24.6	18.4	0.00e+00	0	43	0	873463808	7	4083
2026-01-02 03:02:42.22	7.77	23.14	-23.5	-24.5	18.4	0.00e+00	0	43	0	879755264	7	4057
2026-01-02 03:02:43.22	7.68	23.28	-23.4	-24.3	18.5	0.00e+00	0	43	0	884998144	7	4011
2026-01-02 03:02:44.22	7.58	23.42	-23.7	-25.0	18.2	0.00e+00	0	43	0	890241024	7	4189
2026-01-02 03:02:45.22	7.49	23.56	-23.5	-24.5	18.4	0.00e+00	0	43	0	896532480	7	4055
2026-01-02 03:02:46.23	7.40	23.71	-23.5	-24.5	18.5	0.00e+00	0	43	0	901775360	7	4054
2026-01-02 03:02:47.22	7.31	23.85	-23.4	-24.2	18.6	0.00e+00	0	43	0	908066816	7	3985
2026-01-02 03:02:48.23	7.21	23.99	-23.4	-24.3	18.6	0.00e+00	0	43	0	913309696	7	4000
2026-01-02 03:02:49.23	7.12	24.14	-23.3	-24.0	18.7	0.00e+00	0	43	0	918552576	7	3939
2026-01-02 03:02:50.23	7.02	24.28	-23.2	-23.9	18.7	0.00e+00	0	43	0	924844032	7	3912
2026-01-02 03:02:51.23	6.92	24.43	-23.3	-24.7	18.6	0.00e+00	0	43	0	930086912	6	4201
2026-01-02 03:02:52.24	6.83	24.57	-23.2	-24.4	18.8	0.00e+00	0	43	0	935329792	6	4127
2026-01-02 03:02:53.25	6.73	24.72	-23.2	-24.3	18.8	0.00e+00	0	43	0	941621248	6	4118
2026-01-02 03:02:54.25	6.63	24.87	-23.3	-24.7	18.7	0.00e+00	0	43	0	946864128	6	4199
2026-01-02 03:02:55.26	6.52	25.02	-23.6	-24.7	18.4	0.00e+00	0	43	0	953155584	7	4101
2026-01-02 03:02:56.25	6.42	25.17	-23.6	-24.7	18.4	0.00e+00	0	43	0	958398464	7	4106
2026-01-02 03:02:57.26	6.32	25.32	-23.7	-24.9	18.3	0.00e+00	0	43	0	963641344	7	4148
2026-01-02 03:02:58.26	6.22	25.47	-23.7	-24.9	18.3	0.00e+00	0	43	0	969932800	7	4146
2026-01-02 03:02:59.27	6.11	25.62	-23.2	-24.2	17.9	0.00e+00	0	43	0	975175680	7	4052
2026-01-02 03:03:00.27	6.00	25.78	-23.1	-24.2	15.4	0.00e+00	0	43	0	980418560	7	4072
2026-01-02 03:03:01.27	5.90	25.93	-23.7	-24.9	18.3	0.00e+00	0	43	0	986710016	7	4159
2026-01-02 03:03:02.27	5.79	26.08	-23.7	-25.1	17.8	0.00e+00	0	43	0	991952896	7	4189
2026-01-02 03:03:03.27	5.68	26.24	-23.8	-24.7	18.1	0.00e+00	0	43	0	998244352	8	3999
2026-01-02 03:03:04.27	5.57	26.39	-23.5	-24.0	18.5	0.00e+00	0	43	0	1003487232	8	3819
2026-01-02 03:03:05.27	5.46	26.55	-23.1	-24.1	18.9	1.26e-03	0	43	0	1008730112	6	4070
2026-01-02 03:03:06.27	5.35	26.71	-22.7	-23.4	19.3	0.00e+00	0	43	0	1015021568	6	3897
2026-01-02 03:03:07.27	5.23	26.87	-22.6	-23.2	19.4	0.00e+00	0	43	0	1020264448	6	3853
2026-01-02 03:03:08.27	5.12	27.02	-22.6	-23.6	19.4	0.00e+00	0	43	0	1026555904	5	4061
2026-01-02 03:03:09.27	5.00	27.18	-22.7	-23.9	19.3	0.00e+00	0	43	0	1031798784	5	4112
2026-01-02 03:03:10.27	4.88	27.34	-22.7	-23.8	19.4	0.00e+00	0	43	0	1037041664	5	4092
2026-01-02 03:03:11.27	4.77	27.50	-22.6	-23.6	19.5	0.00e+00	0	43	0	1042284544	5	4050
2026-01-02 03:03:12.28	4.64	27.67	-22.6	-23.6	19.5	1.38e-03	0	43	0	1048576000	5	4060
2026-01-02 03:03:13.28	4.52	27.83	-22.8	-24.1	19.2	0.00e+00	0	43	0	1053818880	5	4169
2026-01-02 03:03:14.29	4.40	28.00	-22.7	-23.8	19.4	1.40e-03	0	43	0	1060110336	5	4087
2026-01-02 03:03:15.29	4.28	28.16	-22.6	-23.7	19.4	0.00e+00	0	43	0	1065353216	5	4079
2026-01-02 03:03:16.30	4.15	28.33	-22.7	-23.9	19.3	0.00e+00	0	43	0	1070596096	5	4122
2026-01-02 03:03:17.30	4.02	28.49	-22.6	-23.7	19.4	1.21e-03	0	43	0	1076887552	5	4068
2026-01-02 03:03:18.31	3.90	28.66	-22.7	-23.7	19.4	0.00e+00	0	43	0	1082130432	5	4081
2026-01-02 03:03:19.31	3.77	28.83	-22.7	-23.8	19.4	2.20e-06	0	43	0	1088421888	5	4108
2026-01-02 03:03:20.31	3.64	29.00	-22.5	-23.4	19.6	0.00e+00	0	43	0	1093664768	5	4007
2026-01-02 03:03:21.32	3.50	29.17	-22.5	-23.3	19.6	1.40e-03	0	43	0	1099956224	5	3985
2026-01-02 03:03:22.33	3.37	29.34	-22.5	-23.3	19.6	0.00e+00	0	43	0	1105199104	5	3983
2026-01-02 03:03:23.33	3.23	29.51	-22.5	-23.4	19.6	1.28e-03	0	43	0	1110441984	5	4002
2026-01-02 03:03:24.33	3.10	29.68	-22.7	-23.7	19.4	1.34e-03	0	43	0	1116733440	5	4082
2026-01-02 03:03:25.34	2.96	29.86	-22.7	-23.9	19.4	0.00e+00	0	43	0	1121976320	5	4113
2026-01-02 03:03:26.35	2.82	30.03	-22.8	-24.1	19.3	1.40e-03	0	43	0	1127219200	5	4164
2026-01-02 03:03:27.35	2.68	30.21	-22.9	-24.2	19.2	3.43e-05	0	43	0	1133510656	5	4198
2026-01-02 03:03:28.36	2.53	30.39	-22.9	-24.3	19.1	0.00e+00	0	43	0	1138753536	5	4226
2026-01-02 03:03:29.36	2.39	30.56	-23.0	-24.5	19.1	1.49e-03	0	43	0	1143996416	5	4261
2026-01-02 03:03:30.36	2.24	30.74	-23.1	-24.1	19.0	1.47e-03	0	43	0	1150287872	6	4064
2026-01-02 03:03:31.37	2.10	30.92	-23.2	-24.3	18.9	0.00e+00	0	43	0	1155530752	6	4118
2026-01-02 03:03:32.37	1.95	31.10	-22.8	-23.5	19.4	1.40e-03	0	43	0	1161822208	6	3910
2026-01-02 03:03:33.38	1.80	31.28	-22.4	-23.3	19.7	1.48e-03	0	43	0	1167065088	5	3963
2026-01-02 03:03:34.39	1.64	31.46	-22.3	-23.0	19.9	0.00e+00	0	43	0	1173356544	5	3898
2026-01-02 03:03:35.40	1.49	31.65	-22.2	-23.3	19.9	1.39e-03	0	43	0	1178599424	4	4084
2026-01-02 03:03:36.40	1.33	31.83	-22.2	-23.4	19.9	1.39e-03	0	43	0	1183842304	4	4099
2026-01-02 03:03:37.41	1.17	32.01	-22.2	-23.4	19.9	6.80e-06	0	43	0	1190133760	4	4107
2026-01-02 03:03:38.41	1.01	32.20	-22.3	-23.5	19.8	1.29e-03	0	43	0	1195376640	4	4145
2026-01-02 03:03:39.41	0.85	32.38	-22.5	-23.8	19.7	1.00e-03	0	43	0	1200619520	4	4216
2026-01-02 03:03:40.41	0.69	32.57	-22.7	-23.8	19.5	0.00e+00	0	43	0	1206910976	5	4088
2026-01-02 03:03:41.41	0.52	32.76	-22.6	-23.7	19.6	0.00e+00	0	43	0	1212153856	5	4059
2026-01-02 03:03:42.42	0.35	32.95	-22.5	-23.3	19.7	1.27e-03	0	43	0	1218445312	5	3986
2026-01-02 03:03:43.43	0.18	33.14	-22.6	-23.6	19.6	0.00e+00	0	43	0	1223688192	5	4045
2026-01-02 03:03:44.44	0.01	33.33	-22.6	-23.7	19.5	1.25e-03	0	43	0	1228931072	5	4069
2026-01-02 03:03:45.45	359.83	33.52	-22.5	-23.5	19.6	0.00e+00	0	43	0	1235222528	5	4024
2026-01-02 03:03:46.45	359.66	33.71	-22.5	-23.3	19.7	0.00e+00	0	43	0	1240465408	5	3982
2026-01-02 03:03:47.45	359.48	33.90	-22.5	-23.4	19.7	1.23e-03	0	43	0	1246756864	5	3996
2026-01-02 03:03:48.46	359.30	34.10	-22.4	-23.2	19.8	0.00e+00	0	43	0	1251999744	5	3943
2026-01-02 03:03:49.46	359.12	34.29	-22.2	-22.8	20.0	1.10e-06	0	43	0	1257242624	5	3871
2026-01-02 03:03:50.46	358.93	34.49	-22.1	-23.1	20.1	0.00e+00	0	43	0	1263534080	4	4048
2026-01-02 03:03:51.45	358.75	34.68	-22.1	-23.2	20.1	1.20e-03	0	43	0	1268776960	4	4059
2026-01-02 03:03:52.45	358.56	34.88	-22.1	-23.1	20.1	0.00e+00	0	43	0	1274019840	4	4044
2026-01-02 03:03:53.45	358.37	35.08	-22.2	-23.2	20.0	0.00e+00	0	43	0	1280311296	4	4075
2026-01-02 03:03:54.46	358.17	35.28	-22.2	-23.3	20.0	1.20e-03	0	43	0	1285554176	4	4084
2026-01-02 03:03:55.47	357.97	35.48	-22.2	-23.3	20.0	0.00e+00	0	43	0	1290797056	4	4097
2026-01-02 03:03:56.48	357.77	35.68	-22.2	-23.3	20.0	1.13e-03	0	43	0	1297088512	4	4079
2026-01-02 03:03:57.48	357.57	35.88	-22.2	-23.2	20.0	0.00e+00	0	43	0	1302331392	4	4072
2026-01-02 03:03:58.48	357.37	36.08	-22.1	-23.0	20.1	0.00e+00	0	43	0	1308622848	4	4018
2026-01-02 03:03:59.49	357.16	36.29	-22.0	-23.0	20.2	0.00e+00	0	43	0	1313865728	4	4008
2026-01-02 03:04:00.50	356.95	36.49	-22.0	-23.0	20.2	0.00e+00	0	43	0	1320157184	4	4013
2026-01-02 03:04:01.50	356.74	36.70	-22.0	-22.8	20.3	0.00e+00	0	43	0	1325400064	4	3966
2026-01-02 03:04:02.50	356.53	36.90	-22.1	-23.2	20.1	0.00e+00	0	43	0	1330642944	4	4055
2026-01-02 03:04:03.51	356.31	37.11	-22.2	-23.3	20.0	0.00e+00	0	43	0	1336934400	4	4083
2026-01-02 03:04:04.51	356.09	37.32	-22.3	-23.5	19.9	0.00e+00	0	43	0	1342177280	4	4133
2026-01-02 03:04:05.52	355.86	37.53	-22.3	-23.5	19.9	0.00e+00	0	43	0	1348468736	4	4128
2026-01-02 03:04:06.53	355.63	37.74	-22.3	-23.5	19.9	0.00e+00	0	43	0	1353711616	4	4124
2026-01-02 03:04:07.54	355.40	37.95	-22.3	-23.6	19.9	0.00e+00	0	43	0	1358954496	4	4150
2026-01-02 03:04:08.54	355.17	38.16	-22.3	-23.5	19.9	0.00e+00	0	43	0	1365245952	4	4144
2026-01-02 03:04:09.54	354.94	38.37	-22.3	-23.5	19.9	0.00e+00	0	43	0	1370488832	4	4132
2026-01-02 03:04:10.55	354.70	38.59	-22.5	-23.8	19.8	0.00e+00	0	43	0	1375731712	4	4211
2026-01-02 03:04:11.55	354.46	38.80	-23.1	-24.3	19.1	0.00e+00	0	43	0	1382023168	6	4092
2026-01-02 03:04:12.55	354.21	39.01	-23.2	-24.5	19.0	0.00e+00	0	43	0	1387266048	6	4140
2026-01-02 03:04:13.55	353.97	39.23	-22.9	-23.8	19.3	0.00e+00	0	43	0	1393557504	6	3978
2026-01-02 03:04:14.56	353.71	39.44	-22.8	-23.6	19.4	0.00e+00	0	43	0	1398800384	6	3938
2026-01-02 03:04:15.55	353.46	39.66	-23.1	-24.1	19.2	0.00e+00	0	43	0	1404043264	6	4051
2026-01-02 03:04:16.56	353.20	39.88	-23.1	-24.1	19.2	0.00e+00	0	43	0	1410334720	6	4060
2026-01-02 03:04:17.57	352.94	40.09	-22.9	-23.8	19.3	0.00e+00	0	43	0	1415577600	6	3981
2026-01-02 03:04:18.57	352.67	40.31	-23.0	-23.9	19.2	0.00e+00	0	43	0	1421869056	6	4015
2026-01-02 03:04:19.58	352.40	40.53	-23.0	-24.0	19.2	0.00e+00	0	43	0	1427111936	6	4023
2026-01-02 03:04:20.58	352.13	40.75	-22.8	-23.5	19.5	0.00e+00	0	43	0	1432354816	6	3914
2026-01-02 03:04:21.59	351.85	40.97	-22.5	-23.3	19.8	0.00e+00	0	43	0	1438646272	5	3975
2026-01-02 03:04:22.59	351.57	41.19	-22.5	-23.4	19.8	0.00e+00	0	43	0	1443889152	5	3993
2026-01-02 03:04:23.59	351.29	41.41	-22.6	-23.5	19.7	0.00e+00	0	43	0	1449132032	5	4027
2026-01-02 03:04:24.59	351.00	41.63	-22.6	-23.7	19.6	0.00e+00	0	43	0	1455423488	5	4062
2026-01-02 03:04:25.59	350.71	41.86	-22.6	-23.7	19.7	0.00e+00	0	43	0	1460666368	5	4058
2026-01-02 03:04:26.59	350.41	42.08	-22.5	-23.4	19.8	0.00e+00	0	43	0	1466957824	5	3985
2026-01-02 03:04:27.60	350.11	42.30	-22.7	-23.9	19.5	0.00e+00	0	43	0	1472200704	5	4116
2026-01-02 03:04:28.60	349.81	42.52	-22.9	-24.2	19.4	0.00e+00	0	43	0	1477443584	5	4188
2026-01-02 03:04:29.60	349.50	42.75	-22.8	-24.0	19.5	0.00e+00	0	43	0	1483735040	5	4136
2026-01-02 03:04:30.60	349.19	42.97	-22.7	-23.9	19.5	0.00e+00	0	43	0	1488977920	5	4120
2026-01-02 03:04:31.61	348.86	43.20	-22.9	-24.3	19.3	0.00e+00	0	43	0	1494220800	5	4229
2026-01-02 03:04:32.61	348.54	43.42	-23.2	-24.4	19.0	0.00e+00	0	43	0	1500512256	6	4126
2026-01-02 03:04:33.62	348.21	43.65	-23.2	-24.4	19.0	0.00e+00	0	43	0	1505755136	6	4131
2026-01-02 03:04:34.62	347.88	43.87	-22.9	-23.8	19.3	0.00e+00	0	43	0	1510998016	6	3995
2026-01-02 03:04:35.63	347.54	44.10	-22.8	-23.6	19.4	0.00e+00	0	43	0	1517289472	6	3944
2026-01-02 03:04:36.63	347.20	44.33	-22.9	-23.7	19.4	0.00e+00	0	43	0	1522532352	6	3970
2026-01-02 03:04:37.63	346.86	44.55	-22.8	-23.5	19.5	0.00e+00	0	43	0	1528823808	6	3916
2026-01-02 03:04:38.63	346.51	44.78	-22.8	-23.6	19.5	0.00e+00	0	43	0	1534066688	6	3932
2026-01-02 03:04:39.64	346.15	45.01	-23.3	-24.5	19.0	0.00e+00	0	43	0	1540358144	6	4157
2026-01-02 03:04:40.64	345.79	45.23	-22.9	-23.8	19.3	0.00e+00	0	43	0	1545601024	6	3977
2026-01-02 03:04:41.64	345.42	45.46	-23.3	-24.6	18.9	0.00e+00	0	43	0	1550843904	6	4170
2026-01-02 03:04:42.64	345.05	45.68	-23.3	-24.2	18.9	0.00e+00	0	43	0	1557135360	7	3965
2026-01-02 03:04:43.64	344.67	45.91	-23.1	-23.6	19.2	0.00e+00	0	43	0	1562378240	7	3838
2026-01-02 03:04:44.64	344.29	46.13	-23.5	-24.6	18.7	0.00e+00	0	43	0	1567621120	7	4062
2026-01-02 03:04:45.64	343.90	46.36	-23.3	-24.0	19.0	0.00e+00	0	43	0	1573912576	7	3917
2026-01-02 03:04:46.65	343.51	46.59	-23.0	-23.5	19.2	0.00e+00	0	43	0	1579155456	7	3810
2026-01-02 03:04:47.65	343.11	46.81	-23.1	-24.1	19.2	0.00e+00	0	43	0	1584398336	6	4057
2026-01-02 03:04:48.65	342.70	47.03	-23.0	-23.9	19.3	0.00e+00	0	43	0	1590689792	6	4004
2026-01-02 03:04:49.65	342.29	47.26	-23.2	-24.5	19.0	0.00e+00	0	43	0	1595932672	6	4142
2026-01-02 03:04:50.66	341.87	47.48	-23.5	-24.5	18.7	0.00e+00	0	43	0	1602224128	7	4052
2026-01-02 03:04:51.66	341.45	47.71	-23.5	-24.6	18.7	0.00e+00	0	43	0	1607467008	7	4071
2026-01-02 03:04:52.66	341.02	47.93	-23.1	-23.8	19.1	0.00e+00	0	43	0	1612709888	7	3869
2026-01-02 03:04:53.66	340.58	48.15	-22.0	-22.5	19.5	0.00e+00	0	43	0	1619001344	6	3821
2026-01-02 03:04:54.66	340.14	48.37	-23.0	-23.8	19.3	0.00e+00	0	43	0	1624244224	6	3988
2026-01-02 03:04:55.66	339.69	48.59	-23.2	-24.4	15.2	0.00e+00	0	43	0	1629487104	6	4115
2026-01-02 03:04:56.66	339.24	48.81	-23.3	-24.6	17.7	0.00e+00	0	43	0	1635778560	6	4168
2026-01-02 03:04:57.66	338.78	49.03	-23.3	-24.7	18.9	0.00e+00	0	43	0	1641021440	6	4194
2026-01-02 03:04:58.66	338.31	49.25	-23.2	-24.3	19.1	0.00e+00	0	43	0	1646264320	6	4109
2026-01-02 03:04:59.66	337.84	49.46	-23.4	-24.7	18.9	0.00e+00	0	43	0	1652555776	6	4199
2026-01-02 03:05:00.67	337.35	49.68	-23.5	-24.6	18.7	0.00e+00	0	43	0	1657798656	7	4055
2026-01-02 03:05:01.67	336.86	49.90	-23.7	-24.9	18.6	0.00e+00	0	43	0	1664090112	7	4138
2026-01-02 03:05:02.67	336.37	50.11	-23.6	-24.8	18.6	7.72e-04	0	43	0	1669332992	7	4107
2026-01-02 03:05:03.67	335.86	50.32	-23.4	-24.3	18.9	0.00e+00	0	43	0	1674575872	7	4002
2026-01-02 03:05:04.67	335.36	50.53	-23.6	-24.7	18.7	0.00e+00	0	43	0	1680867328	7	4091
2026-01-02 03:05:05.67	334.84	50.74	-23.6	-24.7	18.7	0.00e+00	0	43	0	1686110208	7	4079
2026-01-02 03:05:06.68	334.31	50.95	-23.5	-24.5	18.8	0.00e+00	0	43	0	1692401664	7	4045
2026-01-02 03:05:07.68	333.78	51.16	-23.6	-24.6	18.7	1.05e-04	0	43	0	1697644544	7	4070
2026-01-02 03:05:08.69	333.23	51.36	-23.6	-24.7	18.7	0.00e+00	0	43	0	1702887424	7	4089
2026-01-02 03:05:09.69	332.69	51.56	-23.6	-24.7	18.7	0.00e+00	0	43	0	1709178880	7	4097
2026-01-02 03:05:10.69	332.14	51.76	-23.5	-24.5	18.8	0.00e+00	0	43	0	1714421760	7	4032
2026-01-02 03:05:11.69	331.57	51.96	-23.5	-24.5	18.8	6.35e-04	0	43	0	1719664640	7	4036
2026-01-02 03:05:12.70	331.00	52.16	-23.7	-25.0	18.5	0.00e+00	0	43	0	1725956096	7	4178
2026-01-02 03:05:13.71	330.42	52.36	-23.9	-25.4	18.4	6.77e-04	0	43	0	1731198976	7	4267
2026-01-02 03:05:14.71	329.83	52.55	-23.8	-24.7	18.5	7.13e-04	0	43	0	1737490432	8	3970
2026-01-02 03:05:15.71	329.24	52.74	-23.7	-24.4	18.7	0.00e+00	0	43	0	1742733312	8	3898
2026-01-02 03:05:16.71	328.64	52.92	-23.4	-24.3	18.9	7.98e-04	0	43	0	1747976192	7	3996
2026-01-02 03:05:17.72	328.03	53.11	-23.5	-24.6	18.8	0.00e+00	0	43	0	1754267648	7	4064
2026-01-02 03:05:18.72	327.42	53.29	-23.5	-24.6	18.8	0.00e+00	0	43	0	1759510528	7	4053
2026-01-02 03:05:19.72	326.79	53.47	-23.5	-24.6	18.8	1.04e-03	0	43	0	1765801984	7	4053
2026-01-02 03:05:20.73	326.16	53.65	-23.4	-24.2	18.9	1.11e-03	0	43	0	1771044864	7	3973
2026-01-02 03:05:21.73	325.52	53.82	-23.0	-23.5	19.3	0.00e+00	0	43	0	1776287744	7	3813
2026-01-02 03:05:22.73	324.87	53.99	-22.9	-23.8	19.4	1.05e-03	0	43	0	1782579200	6	3982
2026-01-02 03:05:23.74	324.21	54.16	-23.0	-24.0	19.3	9.88e-04	0	43	0	1787822080	6	4038
2026-01-02 03:05:24.75	323.55	54.32	-23.2	-24.4	19.1	0.00e+00	0	43	0	1793064960	6	4128
2026-01-02 03:05:25.75	322.88	54.48	-23.2	-24.3	19.2	7.63e-04	0	43	0	1799356416	6	4107
2026-01-02 03:05:26.76	322.20	54.64	-23.0	-23.9	19.4	7.16e-04	0	43	0	1804599296	6	4001
2026-01-02 03:05:27.76	321.51	54.79	-23.2	-24.3	19.2	0.00e+00	0	43	0	1810890752	6	4102
2026-01-02 03:05:28.76	320.82	54.94	-23.3	-24.5	19.1	7.24e-04	0	43	0	1816133632	6	4155
2026-01-02 03:05:29.76	320.12	55.09	-23.1	-24.2	19.2	6.52e-04	0	43	0	1821376512	6	4079
2026-01-02 03:05:30.77	319.41	55.23	-23.0	-23.9	19.4	0.00e+00	0	43	0	1827667968	6	3994
2026-01-02 03:05:31.77	318.70	55.37	-22.8	-23.5	19.6	0.00e+00	0	43	0	1832910848	6	3897
2026-01-02 03:05:32.78	317.97	55.50	-22.8	-23.6	19.5	1.25e-04	0	43	0	1839202304	6	3930
2026-01-02 03:05:33.78	317.25	55.63	-22.9	-23.7	19.5	0.00e+00	0	43	0	1844445184	6	3956
2026-01-02 03:05:34.78	316.52	55.76	-22.9	-23.6	19.5	5.96e-04	0	43	0	1849688064	6	3942
2026-01-02 03:05:35.79	315.77	55.88	-22.8	-23.5	19.6	6.26e-04	0	43	0	1855979520	6	3907
2026-01-02 03:05:36.80	315.02	55.99	-23.5	-24.9	18.9	0.00e+00	0	43	0	1861222400	6	4263
2026-01-02 03:05:37.81	314.26	56.11	-23.9	-25.4	18.4	6.90e-04	0	43	0	1866465280	7	4263
2026-01-02 03:05:38.81	313.50	56.21	-23.8	-25.1	18.5	0.00e+00	0	43	0	1872756736	7	4181
2026-01-02 03:05:39.82	312.73	56.32	-23.9	-25.3	18.4	0.00e+00	0	43	0	1877999616	7	4227
2026-01-02 03:05:40.82	311.96	56.41	-23.8	-24.6	18.6	0.00e+00	0	43	0	1884291072	8	3948
2026-01-02 03:05:41.83	311.18	56.51	-23.5	-24.6	18.8	6.02e-04	0	43	0	1889533952	7	4052
2026-01-02 03:05:42.84	310.39	56.59	-23.5	-24.4	18.9	0.00e+00	0	43	0	1895825408	7	4021
2026-01-02 03:05:43.84	309.61	56.68	-23.6	-24.6	18.8	0.00e+00	0	43	0	1901068288	7	4066
2026-01-02 03:05:44.84	308.82	56.75	-23.5	-24.4	18.9	6.88e-04	0	43	0	1906311168	7	4020
2026-01-02 03:05:45.84	308.02	56.83	-23.6	-24.8	18.7	0.00e+00	0	43	0	1912602624	7	4104
2026-01-02 03:05:46.85	307.22	56.89	-24.0	-25.6	18.3	6.75e-04	0	43	0	1917845504	7	4308
2026-01-02 03:05:47.85	306.42	56.95	-24.4	-25.9	17.9	0.00e+00	0	43	0	1923088384	8	4287
2026-01-02 03:05:48.85	305.61	57.01	-23.8	-24.7	18.5	0.00e+00	0	43	0	1929379840	8	3966
2026-01-02 03:05:49.85	304.81	57.06	-23.3	-24.1	19.1	0.00e+00	0	43	0	1934622720	7	3940
2026-01-02 03:05:50.85	303.99	57.11	-22.9	-23.2	19.5	0.00e+00	0	43	0	1940914176	7	3732
2026-01-02 03:05:51.86	303.17	57.15	-22.8	-23.5	19.6	0.00e+00	0	43	0	1946157056	6	3906
2026-01-02 03:05:52.86	302.36	57.18	-22.9	-23.8	19.4	0.00e+00	0	43	0	1951399936	6	3987
2026-01-02 03:05:53.87	301.53	57.21	-23.3	-24.5	19.1	6.32e-04	0	43	0	1957691392	6	4161
2026-01-02 03:05:54.88	300.71	57.23	-23.3	-24.5	19.1	0.00e+00	0	43	0	1962934272	6	4161
2026-01-02 03:05:55.88	299.89	57.25	-23.3	-24.6	19.1	0.00e+00	0	43	0	1969225728	6	4172
2026-01-02 03:05:56.87	299.07	57.26	-23.1	-24.1	19.3	0.00e+00	0	43	0	1974468608	6	4061
2026-01-02 03:05:57.88	298.24	57.27	-23.1	-24.1	19.3	0.00e+00	0	43	0	1979711488	6	4048
2026-01-02 03:05:58.89	297.41	57.27	-23.2	-24.4	19.2	0.00e+00	0	43	0	1986002944	6	4123
2026-01-02 03:05:59.89	296.59	57.26	-23.3	-24.6	19.0	0.00e+00	0	43	0	1991245824	6	4183
2026-01-02 03:06:00.90	295.76	57.25	-23.3	-24.6	19.1	0.00e+00	0	43	0	1996488704	6	4182
2026-01-02 03:06:01.90	294.94	57.23	-23.0	-24.0	19.4	0.00e+00	0	43	0	2002780160	6	4025
2026-01-02 03:06:02.90	294.12	57.21	-22.9	-23.8	19.5	0.00e+00	0	43	0	2008023040	6	3981
2026-01-02 03:06:03.90	293.31	57.18	-23.3	-24.6	19.1	0.00e+00	0	43	0	2014314496	6	4171
2026-01-02 03:06:04.90	292.49	57.15	-22.9	-23.7	19.5	0.00e+00	0	43	0	2019557376	6	3962
2026-01-02 03:06:05.90	291.68	57.11	-22.6	-23.1	19.8	0.00e+00	0	43	0	2024800256	6	3821
2026-01-02 03:06:06.91	290.86	57.07	-22.8	-23.5	19.6	0.00e+00	0	43	0	2031091712	6	3901
2026-01-02 03:06:07.92	290.04	57.02	-22.9	-23.8	19.5	0.00e+00	0	43	0	2036334592	6	3973
2026-01-02 03:06:08.92	289.24	56.96	-22.9	-23.8	19.5	0.00e+00	0	43	0	2042626048	6	3990
2026-01-02 03:06:09.93	288.43	56.90	-22.7	-23.3	19.7	0.00e+00	0	43	0	2047868928	6	3855
2026-01-02 03:06:10.94	287.62	56.83	-22.8	-24.0	19.6	0.00e+00	0	43	0	2053111808	5	4127
2026-01-02 03:06:11.94	286.82	56.76	-23.0	-24.4	19.4	1.10e-06	0	43	0	2059403264	5	4234
2026-01-02 03:06:12.95	286.03	56.68	-23.0	-24.0	19.4	0.00e+00	0	43	0	2064646144	6	4020
2026-01-02 03:06:13.95	285.24	56.60	-23.0	-23.9	19.4	0.00e+00	0	43	0	2069889024	6	4000
2026-01-02 03:06:14.95	284.46	56.51	-23.2	-24.4	19.2	1.10e-06	0	43	0	2076180480	6	4116
2026-01-02 03:06:15.96	283.68	56.42	-22.9	-23.8	19.5	0.00e+00	0	43	0	2081423360	6	3969
2026-01-02 03:06:16.96	282.91	56.32	-22.8	-23.5	19.6	0.00e+00	0	43	0	2087714816	6	3903
2026-01-02 03:06:17.96	282.14	56.22	-22.8	-23.5	19.6	0.00e+00	0	43	0	2092957696	6	3918
2026-01-02 03:06:18.96	281.38	56.12	-22.6	-23.2	19.8	0.00e+00	0	43	0	2098200576	6	3830
2026-01-02 03:06:19.96	280.63	56.01	-22.6	-23.7	19.8	0.00e+00	0	43	0	2104492032	5	4059
2026-01-02 03:06:20.97	279.88	55.89	-22.7	-23.9	19.6	0.00e+00	0	43	0	2109734912	5	4111
2026-01-02 03:06:21.97	279.14	55.77	-23.0	-24.4	19.4	0.00e+00	0	43	0	2114977792	5	4235
2026-01-02 03:06:22.98	278.39	55.64	-22.6	-23.6	19.8	0.00e+00	0	43	0	2121269248	5	4048
2026-01-02 03:06:23.98	277.67	55.51	-22.5	-23.3	19.9	0.00e+00	0	43	0	2126512128	5	3976
2026-01-02 03:06:24.99	276.94	55.38	-22.7	-23.8	19.7	0.00e+00	0	43	0	2132803584	5	4084
2026-01-02 03:06:25.98	276.23	55.24	-22.5	-23.5	19.8	0.00e+00	0	43	0	2138046464	5	4016
2026-01-02 03:06:26.99	275.52	55.10	-22.4	-23.1	20.0	0.00e+00	0	43	0	2143289344	5	3925
2026-01-02 03:06:27.99	274.82	54.96	-22.6	-23.6	19.8	0.00e+00	0	43	0	2149580800	5	4039
2026-01-02 03:06:29.00	274.12	54.81	-22.6	-23.5	19.8	0.00e+00	0	43	0	2154823680	5	4025
2026-01-02 03:06:30.00	273.43	54.65	-22.8	-24.1	19.6	4.50e-06	0	43	0	2161115136	5	4162
2026-01-02 03:06:31.00	272.76	54.50	-22.6	-23.7	19.7	0.00e+00	0	43	0	2166358016	5	4058
2026-01-02 03:06:32.00	272.09	54.34	-22.5	-23.5	19.8	0.00e+00	0	43	0	2171600896	5	4013
2026-01-02 03:06:33.00	271.42	54.17	-22.7	-23.7	19.7	0.00e+00	0	43	0	2177892352	5	4075
2026-01-02 03:06:34.00	270.77	54.01	-22.8	-24.0	19.6	0.00e+00	0	43	0	2183135232	5	4145
2026-01-02 03:06:35.01	270.11	53.84	-22.7	-23.9	19.6	0.00e+00	0	43	0	2188378112	5	4121
2026-01-02 03:06:36.01	269.47	53.66	-22.6	-23.6	19.8	2.20e-06	0	43	0	2194669568	5	4033
2026-01-02 03:06:37.01	268.84	53.49	-22.9	-24.2	19.4	0.00e+00	0	43	0	2199912448	5	4196
2026-01-02 03:06:38.01	268.22	53.31	-22.9	-24.3	19.4	0.00e+00	0	43	0	2205155328	5	4224
2026-01-02 03:06:39.01	267.60	53.13	-23.3	-24.5	19.1	2.20e-06	0	43	0	2211446784	6	4150
2026-01-02 03:06:40.01	266.99	52.94	-22.9	-23.7	19.5	0.00e+00	0	43	0	2216689664	6	3946
2026-01-02 03:06:41.01	266.39	52.76	-22.6	-23.2	19.7	0.00e+00	0	43	0	2222981120	6	3843
2026-01-02 03:06:42.01	265.80	52.57	-22.5	-23.3	19.9	0.00e+00	0	43	0	2228224000	5	3974
2026-01-02 03:06:43.01	265.21	52.38	-22.3	-22.9	20.1	0.00e+00	0	43	0	2233466880	5	3876
2026-01-02 03:06:44.01	264.63	52.18	-22.6	-23.6	19.8	0.00e+00	0	43	0	2239758336	5	4050
2026-01-02 03:06:45.02	264.05	51.98	-22.7	-23.9	19.6	0.00e+00	0	43	0	2245001216	5	4115
2026-01-02 03:06:46.02	263.49	51.79	-23.0	-24.4	19.4	0.00e+00	0	43	0	2250244096	5	4248
2026-01-02 03:06:47.03	262.93	51.58	-22.8	-23.5	19.4	0.00e+00	0	43	0	2256535552	6	3916
2026-01-02 03:06:48.03	262.38	51.38	-22.9	-23.7	19.5	2.20e-06	0	43	0	2261778432	6	3956
2026-01-02 03:06:49.03	261.84	51.18	-23.0	-24.0	19.3	0.00e+00	0	43	0	2268069888	6	4034
2026-01-02 03:06:50.03	261.31	50.97	-22.8	-23.4	19.6	0.00e+00	0	43	0	2273312768	6	3893
2026-01-02 03:06:51.03	260.78	50.76	-23.0	-23.9	19.4	0.00e+00	0	43	0	2278555648	6	4009
2026-01-02 03:06:52.04	260.26	50.55	-23.0	-24.0	19.3	0.00e+00	0	43	0	2284847104	6	4024
2026-01-02 03:06:53.04	259.75	50.34	-22.7	-23.4	19.6	9.52e-04	0	43	0	2290089984	6	3884
2026-01-02 03:06:54.04	259.24	50.13	-22.5	-22.8	19.9	0.00e+00	0	43	0	2296381440	6	3742
2026-01-02 03:06:55.05	258.74	49.91	-22.7	-23.7	19.7	0.00e+00	0	43	0	2301624320	5	4070
2026-01-02 03:06:56.05	258.25	49.70	-22.5	-23.5	19.8	0.00e+00	0	43	0	2306867200	5	4018
2026-01-02 03:06:57.05	257.77	49.48	-22.9	-24.3	19.4	0.00e+00	0	43	0	2313158656	5	4209
2026-01-02 03:06:58.05	257.29	49.26	-22.8	-24.0	19.5	9.37e-04	0	43	0	2318401536	5	4141
2026-01-02 03:06:59.06	256.81	49.04	-22.8	-23.9	19.5	0.00e+00	0	43	0	2323644416	5	4121
2026-01-02 03:07:00.06	256.35	48.82	-22.8	-24.1	19.4	0.00e+00	0	43	0	2329935872	5	4177
2026-01-02 03:07:01.06	255.89	48.60	-22.7	-23.9	19.6	0.00e+00	0	43	0	2335178752	5	4109
2026-01-02 03:07:02.07	255.44	48.38	-22.7	-23.9	19.6	8.70e-04	0	43	0	2340421632	5	4118
2026-01-02 03:07:03.07	255.00	48.16	-22.6	-23.7	19.7	0.00e+00	0	43	0	2346713088	5	4060
2026-01-02 03:07:04.07	254.56	47.94	-22.4	-23.1	19.9	6.38e-04	0	43	0	2351955968	5	3932
2026-01-02 03:07:05.08	254.12	47.71	-22.1	-22.6	20.2	5.53e-04	0	43	0	2358247424	5	3809
2026-01-02 03:07:06.08	253.70	47.49	-22.0	-22.3	20.3	0.00e+00	0	43	0	2363490304	5	3740
2026-01-02 03:07:07.09	253.28	47.26	-22.2	-23.2	20.1	6.16e-04	0	43	0	2369781760	4	4053
2026-01-02 03:07:08.10	252.86	47.04	-22.0	-23.0	20.1	0.00e+00	0	43	0	2375024640	4	4010
2026-01-02 03:07:09.10	252.45	46.81	-22.4	-23.7	19.7	0.00e+00	0	43	0	2380267520	4	4197
2026-01-02 03:07:10.10	252.05	46.58	-22.3	-23.6	19.9	7.54e-04	0	43	0	2386558976	4	4160
2026-01-02 03:07:11.10	251.66	46.36	-22.3	-23.6	19.8	6.71e-04	0	43	0	2391801856	4	4159
2026-01-02 03:07:12.10	251.27	46.13	-22.6	-23.7	19.6	3.89e-05	0	43	0	2397044736	5	4064
2026-01-02 03:07:13.11	250.88	45.90	-22.5	-23.4	19.7	0.00e+00	0	43	0	2403336192	5	3994
2026-01-02 03:07:14.11	250.50	45.68	-22.5	-23.3	19.8	6.71e-04	0	43	0	2408579072	5	3975
2026-01-02 03:07:15.12	250.13	45.45	-22.5	-23.5	19.7	0.00e+00	0	43	0	2413821952	5	4015
2026-01-02 03:07:16.12	249.76	45.22	-22.5	-23.4	19.8	9.21e-04	0	43	0	2420113408	5	4008
2026-01-02 03:07:17.12	249.40	45.00	-22.2	-22.8	20.1	1.11e-03	0	43	0	2425356288	5	3867
2026-01-02 03:07:18.13	249.04	44.77	-21.8	-22.0	20.5	2.20e-06	0	43	0	2431647744	5	3681
2026-01-02 03:07:19.13	248.68	44.54	-21.6	-22.0	20.7	1.38e-03	0	43	0	2436890624	4	3791
2026-01-02 03:07:20.13	248.34	44.32	-21.7	-22.7	20.7	1.45e-03	0	43	0	2443182080	3	4048
2026-01-02 03:07:21.13	248.00	44.09	-21.7	-22.7	20.6	3.54e-05	0	43	0	2448424960	3	4055
2026-01-02 03:07:22.13	247.66	43.86	-22.0	-23.3	20.4	0.00e+00	0	43	0	2453667840	3	4196
2026-01-02 03:07:23.14	247.32	43.64	-22.2	-23.3	20.1	1.62e-03	0	43	0	2459959296	4	4083
2026-01-02 03:07:24.15	246.99	43.41	-22.3	-23.6	19.9	1.05e-04	0	43	0	2465202176	4	4179
2026-01-02 03:07:25.15	246.67	43.18	-22.3	-23.4	20.0	1.77e-03	0	43	0	2470445056	4	4121
2026-01-02 03:07:26.15	246.35	42.96	-22.2	-23.3	20.1	1.94e-03	0	43	0	2476736512	4	4078
2026-01-02 03:07:27.15	246.04	42.73	-22.3	-23.5	19.9	0.00e+00	0	43	0	2481979392	4	4132
2026-01-02 03:07:28.16	245.72	42.51	-22.0	-22.8	20.3	1.69e-03	0	43	0	2487222272	4	3948
2026-01-02 03:07:29.16	245.42	42.28	-21.8	-22.5	20.4	0.00e+00	0	43	0	2493513728	4	3895
2026-01-02 03:07:30.16	245.12	42.06	-21.9	-22.8	20.3	1.15e-04	0	43	0	2498756608	4	3960
2026-01-02 03:07:31.17	244.82	41.83	-21.9	-22.8	20.3	1.13e-03	0	43	0	2505048064	4	3957
2026-01-02 03:07:32.18	244.52	41.61	-22.0	-22.8	20.3	1.03e-03	0	43	0	2510290944	4	3967
2026-01-02 03:07:33.18	244.23	41.39	-21.9	-22.7	20.4	2.95e-04	0	43	0	2516582400	4	3953
2026-01-02 03:07:34.18	243.95	41.17	-21.9	-22.7	20.4	0.00e+00	0	43	0	2521825280	4	3936
2026-01-02 03:07:35.18	243.67	40.95	-21.8	-22.5	20.4	1.20e-03	0	43	0	2527068160	4	3904
2026-01-02 03:07:36.19	243.39	40.72	-22.0	-22.8	20.3	0.00e+00	0	43	0	2533359616	4	3967
2026-01-02 03:07:37.20	243.11	40.50	-22.0	-22.8	20.3	1.22e-03	0	43	0	2538602496	4	3967
2026-01-02 03:07:38.21	242.84	40.28	-22.0	-22.9	20.2	0.00e+00	0	43	0	2543845376	4	3982
2026-01-02 03:07:39.21	242.57	40.06	-21.8	-22.6	20.4	0.00e+00	0	43	0	2550136832	4	3915
2026-01-02 03:07:40.21	242.31	39.84	-21.9	-22.7	20.3	1.11e-03	0	43	0	2555379712	4	3949
2026-01-02 03:07:41.21	242.05	39.63	-22.0	-22.8	20.3	0.00e+00	0	43	0	2560622592	4	3971
2026-01-02 03:07:42.21	241.80	39.41	-21.7	-22.3	20.6	0.00e+00	0	43	0	2566914048	4	3839
2026-01-02 03:07:43.22	241.54	39.19	-21.7	-22.1	20.6	0.00e+00	0	43	0	2572156928	4	3812
2026-01-02 03:07:44.22	241.30	38.98	-21.7	-22.2	20.6	3.32e-04	0	43	0	2578448384	4	3816
2026-01-02 03:07:45.22	241.05	38.76	-21.7	-22.2	20.6	0.00e+00	0	43	0	2583691264	4	3826
2026-01-02 03:07:46.22	240.81	38.55	-21.8	-22.5	20.4	0.00e+00	0	43	0	2589982720	4	3898
2026-01-02 03:07:47.22	240.57	38.34	-22.0	-22.8	20.3	2.20e-06	0	43	0	2595225600	4	3960
2026-01-02 03:07:48.22	240.34	38.12	-21.8	-22.4	20.4	0.00e+00	0	43	0	2600468480	4	3880
2026-01-02 03:07:49.22	240.10	37.91	-21.8	-22.4	20.5	0.00e+00	0	43	0	2606759936	4	3872
2026-01-02 03:07:50.23	239.87	37.70	-22.0	-22.8	20.3	0.00e+00	0	43	0	2612002816	4	3967
2026-01-02 03:07:51.23	239.64	37.49	-22.0	-22.9	20.2	0.00e+00	0	43	0	2617245696	4	3997
2026-01-02 03:07:52.23	239.42	37.28	-22.2	-23.2	20.0	0.00e+00	0	43	0	2623537152	4	4068
2026-01-02 03:07:53.23	239.20	37.07	-22.1	-23.2	20.0	0.00e+00	0	43	0	2628780032	4	4065
2026-01-02 03:07:54.23	238.98	36.87	-22.1	-23.2	20.1	0.00e+00	0	43	0	2634022912	4	4053
2026-01-02 03:07:55.24	238.76	36.66	-22.1	-23.0	20.2	0.00e+00	0	43	0	2640314368	4	4019
2026-01-02 03:07:56.24	238.55	36.45	-22.1	-23.1	20.1	1.10e-06	0	43	0	2645557248	4	4038
2026-01-02 03:07:57.25	238.34	36.25	-22.3	-23.4	19.9	0.00e+00	0	43	0	2651848704	4	4110
2026-01-02 03:07:58.26	238.13	36.04	-22.0	-23.0	20.2	0.00e+00	0	43	0	2657091584	4	4002
2026-01-02 03:07:59.25	237.93	35.84	-22.0	-22.8	20.2	0.00e+00	0	43	0	2662334464	4	3965
2026-01-02 03:08:00.25	237.73	35.64	-22.0	-23.0	20.1	0.00e+00	0	43	0	2668625920	4	4006
2026-01-02 03:08:01.25	237.53	35.44	-22.2	-23.2	20.0	0.00e+00	0	43	0	2673868800	4	4068
2026-01-02 03:08:02.25	237.33	35.24	-22.1	-23.1	20.1	0.00e+00	0	43	0	2679111680	4	4030
2026-01-02 03:08:03.25	237.14	35.04	-22.1	-23.1	20.1	0.00e+00	0	43	0	2685403136	4	4044
2026-01-02 03:08:04.25	236.94	34.84	-22.4	-23.7	19.8	0.00e+00	0	43	0	2690646016	4	4195
2026-01-02 03:08:05.25	236.75	34.64	-22.7	-23.8	19.5	0.00e+00	0	43	0	2695888896	5	4102
2026-01-02 03:08:06.25	236.57	34.44	-22.5	-23.4	19.7	0.00e+00	0	43	0	2702180352	5	3997
2026-01-02 03:08:07.26	236.38	34.25	-22.3	-23.0	19.9	0.00e+00	0	43	0	2707423232	5	3908
2026-01-02 03:08:08.26	236.20	34.05	-22.2	-22.9	20.0	4.50e-06	0	43	0	2713714688	5	3876
2026-01-02 03:08:09.27	236.01	33.85	-22.2	-22.9	20.0	0.00e+00	0	43	0	2718957568	5	3874
2026-01-02 03:08:10.27	235.84	33.66	-22.2	-22.9	20.0	0.00e+00	0	43	0	2725249024	5	3870
2026-01-02 03:08:11.28	235.66	33.47	-22.1	-22.5	20.1	2.20e-06	0	43	0	2730491904	5	3786
2026-01-02 03:08:12.28	235.48	33.28	-22.2	-22.9	19.9	0.00e+00	0	43	0	2735734784	5	3880
2026-01-02 03:08:13.29	235.31	33.08	-22.4	-23.6	19.8	0.00e+00	0	43	0	2742026240	4	4171
2026-01-02 03:08:14.29	235.14	32.89	-22.1	-23.1	20.0	0.00e+00	0	43	0	2747269120	4	4049
2026-01-02 03:08:15.30	234.97	32.70	-22.0	-23.0	20.1	0.00e+00	0	43	0	2752512000	4	4012
2026-01-02 03:08:16.30	234.80	32.51	-22.1	-23.1	20.0	0.00e+00	0	43	0	2758803456	4	4045
2026-01-02 03:08:17.31	234.64	32.33	-22.2	-23.3	20.0	0.00e+00	0	43	0	2764046336	4	4077
2026-01-02 03:08:18.31	234.48	32.14	-22.3	-23.5	19.8	0.00e+00	0	43	0	2769289216	4	4139
2026-01-02 03:08:19.31	234.32	31.95	-22.2	-23.4	19.9	0.00e+00	0	43	0	2775580672	4	4103
2026-01-02 03:08:20.32	234.15	31.77	-22.3	-23.5	19.9	4.50e-06	0	43	0	2780823552	4	4128
2026-01-02 03:08:21.32	234.00	31.59	-22.3	-23.6	19.8	0.00e+00	0	43	0	2787115008	4	4165
2026-01-02 03:08:22.33	233.84	31.40	-22.3	-23.5	19.8	0.00e+00	0	43	0	2792357888	4	4138
2026-01-02 03:08:23.33	233.69	31.22	-22.3	-23.5	19.8	0.00e+00	0	43	0	2798649344	4	4142
2026-01-02 03:08:24.34	233.54	31.04	-22.2	-23.4	19.9	0.00e+00	0	43	0	2803892224	4	4106
2026-01-02 03:08:25.34	233.39	30.86	-22.2	-23.4	19.9	0.00e+00	0	43	0	2809135104	4	4107
2026-01-02 03:08:26.34	233.24	30.68	-22.1	-23.2	20.0	0.00e+00	0	43	0	2815426560	4	4053
2026-01-02 03:08:27.34	233.09	30.50	-22.1	-23.2	20.0	0.00e+00	0	43	0	2820669440	4	4052
2026-01-02 03:08:28.34	232.95	30.32	-22.2	-23.3	19.9	0.00e+00	0	43	0	2825912320	4	4085
2026-01-02 03:08:29.34	232.80	30.15	-22.3	-23.5	19.8	2.20e-06	0	43	0	2832203776	4	4148
2026-01-02 03:08:30.35	232.66	29.97	-22.3	-23.6	19.8	0.00e+00	0	43	0	2837446656	4	4149
2026-01-02 03:08:31.35	232.52	29.80	-22.4	-23.8	19.7	0.00e+00	0	43	0	2842689536	4	4209
2026-01-02 03:08:32.35	232.38	29.62	-22.5	-23.8	19.6	0.00e+00	0	43	0	2848980992	4	4221
2026-01-02 03:08:33.36	232.24	29.45	-22.7	-23.8	19.4	0.00e+00	0	43	0	2854223872	5	4097
2026-01-02 03:08:34.36	232.11	29.28	-22.8	-24.1	19.3	0.00e+00	0	43	0	2860515328	5	4172
2026-01-02 03:08:35.35	231.97	29.11	-22.7	-23.8	19.4	0.00e+00	0	43	0	2865758208	5	4103
2026-01-02 03:08:36.36	231.84	28.93	-22.7	-23.8	19.4	0.00e+00	0	43	0	2871001088	5	4091
2026-01-02 03:08:37.37	231.71	28.76	-22.7	-23.8	19.4	0.00e+00	0	43	0	2877292544	5	4101
2026-01-02 03:08:38.37	231.58	28.59	-22.5	-23.5	19.5	0.00e+00	0	43	0	2882535424	5	4039
2026-01-02 03:08:39.37	231.45	28.43	-22.6	-23.6	19.5	0.00e+00	0	43	0	2888826880	5	4043
2026-01-02 03:08:40.37	231.32	28.26	-22.6	-23.6	19.5	0.00e+00	0	43	0	2894069760	5	4059
2026-01-02 03:08:41.38	231.20	28.09	-22.6	-23.6	19.5	0.00e+00	0	43	0	2899312640	5	4046
2026-01-02 03:08:42.38	231.07	27.93	-22.5	-23.3	19.6	0.00e+00	0	43	0	2905604096	5	3987
2026-01-02 03:08:43.39	230.95	27.76	-22.5	-23.4	19.6	0.00e+00	0	43	0	2910846976	5	4010
2026-01-02 03:08:44.40	230.82	27.60	-22.5	-23.4	19.6	0.00e+00	0	43	0	2916089856	5	4011
2026-01-02 03:08:45.40	230.70	27.43	-22.5	-23.4	19.6	0.00e+00	0	43	0	2922381312	5	3997
2026-01-02 03:08:46.41	230.58	27.27	-22.5	-23.5	19.5	0.00e+00	0	43	0	2927624192	5	4029
2026-01-02 03:08:47.40	230.47	27.11	-22.5	-23.4	19.6	0.00e+00	0	43	0	2933915648	5	3995
2026-01-02 03:08:48.40	230.35	26.95	-22.5	-23.4	19.6	0.00e+00	0	43	0	2939158528	5	4004
2026-01-02 03:08:49.40	230.23	26.79	-22.6	-23.6	19.5	0.00e+00	0	43	0	2944401408	5	4043
2026-01-02 03:08:50.40	230.12	26.63	-22.6	-23.6	19.5	0.00e+00	0	43	0	2950692864	5	4048
2026-01-02 03:08:51.41	230.01	26.47	-22.3	-23.2	19.3	0.00e+00	0	43	0	2955935744	5	3958
2026-01-02 03:08:52.40	229.89	26.32	-22.1	-22.9	18.3	0.00e+00	0	43	0	2961178624	5	3954
2026-01-02 03:08:53.40	229.78	26.16	-22.5	-23.5	18.8	0.00e+00	0	43	0	2967470080	5	4018
2026-01-02 03:08:54.41	229.67	26.00	-22.6	-23.6	14.6	0.00e+00	0	43	0	2972712960	5	4042
2026-01-02 03:08:55.41	229.56	25.85	-22.5	-23.4	15.9	0.00e+00	0	43	0	2977955840	5	3990
2026-01-02 03:08:56.41	229.46	25.70	-22.4	-23.2	19.6	0.00e+00	0	43	0	2984247296	5	3961
2026-01-02 03:08:57.41	229.35	25.54	-22.4	-23.2	19.6	1.26e-03	0	43	0	2989490176	5	3962
2026-01-02 03:08:58.42	229.24	25.39	-22.4	-23.2	19.7	0.00e+00	0	43	0	2995781632	5	3946
2026-01-02 03:08:59.42	229.14	25.24	-22.4	-23.2	19.6	0.00e+00	0	43	0	3001024512	5	3956
2026-01-02 03:09:00.42	229.03	25.09	-22.4	-23.2	19.6	0.00e+00	0	43	0	3006267392	5	3964
2026-01-02 03:09:01.43	228.93	24.94	-22.4	-23.2	19.6	0.00e+00	0	43	0	3012558848	5	3949
2026-01-02 03:09:02.42	228.83	24.79	-22.5	-23.4	19.5	0.00e+00	0	43	0	3017801728	5	4008
2026-01-02 03:09:03.43	228.73	24.64	-22.5	-23.5	19.5	0.00e+00	0	43	0	3024093184	5	4014
2026-01-02 03:09:04.43	228.63	24.49	-22.5	-23.5	19.5	1.22e-03	0	43	0	3029336064	5	4040
2026-01-02 03:09:05.44	228.53	24.34	-22.6	-23.7	19.4	0.00e+00	0	43	0	3034578944	5	4081
2026-01-02 03:09:06.45	228.43	24.19	-22.7	-23.9	19.2	1.09e-03	0	43	0	3040870400	5	4128
2026-01-02 03:09:07.45	228.33	24.05	-22.8	-24.1	19.2	0.00e+00	0	43	0	3046113280	5	4173
2026-01-02 03:09:08.45	228.24	23.90	-22.8	-24.1	19.1	0.00e+00	0	43	0	3052404736	5	4178
2026-01-02 03:09:09.46	228.14	23.76	-22.8	-24.1	19.1	8.32e-04	0	43	0	3057647616	5	4185
2026-01-02 03:09:10.46	228.05	23.61	-22.8	-24.1	19.1	0.00e+00	0	43	0	3062890496	5	4181
2026-01-02 03:09:11.46	227.95	23.47	-23.0	-24.5	18.9	2.78e-04	0	43	0	3069181952	5	4275
2026-01-02 03:09:12.47	227.86	23.33	-23.4	-24.9	18.5	0.00e+00	0	43	0	3074424832	6	4256
2026-01-02 03:09:13.48	227.77	23.18	-23.4	-24.2	18.5	7.39e-04	0	43	0	3080716288	7	3989
2026-01-02 03:09:14.48	227.68	23.04	-23.1	-23.8	18.8	2.17e-04	0	43	0	3085959168	7	3874
2026-01-02 03:09:15.48	227.59	22.90	-23.0	-23.9	19.0	7.01e-04	0	43	0	3091202048	6	4025
2026-01-02 03:09:16.48	227.50	22.76	-23.0	-23.9	19.0	6.29e-04	0	43	0	3097493504	6	4023
2026-01-02 03:09:17.48	227.41	22.63	-23.2	-24.3	18.8	9.95e-05	0	43	0	3102736384	6	4128
2026-01-02 03:09:18.48	227.32	22.49	-23.2	-24.4	18.7	7.35e-04	0	43	0	3107979264	6	4129
2026-01-02 03:09:19.47	227.24	22.35	-23.3	-24.6	18.6	0.00e+00	0	43	0	3114270720	6	4180
2026-01-02 03:09:20.47	227.15	22.22	-23.2	-24.5	18.7	0.00e+00	0	43	0	3119513600	6	4157
2026-01-02 03:09:21.47	227.07	22.08	-23.2	-24.4	18.7	9.90e-04	0	43	0	3125805056	6	4150
2026-01-02 03:09:22.47	226.98	21.94	-23.2	-24.3	18.7	1.26e-03	0	43	0	3131047936	6	4120
2026-01-02 03:09:23.47	226.90	21.81	-23.3	-24.7	18.5	0.00e+00	0	43	0	3136290816	6	4207
2026-01-02 03:09:24.48	226.82	21.67	-23.5	-24.6	18.3	1.20e-03	0	43	0	3142582272	7	4067
2026-01-02 03:09:25.48	226.73	21.54	-23.2	-24.3	18.7	1.26e-03	0	43	0	3147825152	6	4120
2026-01-02 03:09:26.48	226.65	21.41	-23.2	-24.4	18.7	0.00e+00	0	43	0	3153068032	6	4139
2026-01-02 03:09:27.48	226.57	21.28	-23.2	-24.4	18.7	1.33e-03	0	43	0	3159359488	6	4141
2026-01-02 03:09:28.49	226.49	21.14	-23.1	-24.2	18.7	1.27e-03	0	43	0	3164602368	6	4092
2026-01-02 03:09:29.49	226.41	21.01	-23.2	-24.3	18.7	0.00e+00	0	43	0	3169845248	6	4115
2026-01-02 03:09:30.49	226.33	20.88	-23.2	-24.3	18.7	1.22e-03	0	43	0	3176136704	6	4125
2026-01-02 03:09:31.49	226.26	20.75	-23.2	-24.4	18.6	1.27e-03	0	43	0	3181379584	6	4149
2026-01-02 03:09:32.49	226.18	20.62	-23.3	-24.5	18.6	2.74e-05	0	43	0	3187671040	6	4173
2026-01-02 03:09:33.50	226.10	20.49	-23.3	-24.5	18.6	1.36e-03	0	43	0	3192913920	6	4173
2026-01-02 03:09:34.50	226.03	20.37	-23.3	-24.6	18.6	1.35e-03	0	43	0	3198156800	6	4187
2026-01-02 03:09:35.50	225.95	20.24	-23.3	-24.7	18.5	1.82e-04	0	43	0	3204448256	6	4225
2026-01-02 03:09:36.51	225.88	20.11	-23.4	-24.9	18.4	1.50e-03	0	43	0	3209691136	6	4254
2026-01-02 03:09:37.51	225.80	19.99	-23.6	-24.7	18.1	1.37e-03	0	43	0	3214934016	7	4110
2026-01-02 03:09:38.51	225.73	19.86	-23.6	-24.8	18.2	0.00e+00	0	43	0	3221225472	7	4133
2026-01-02 03:09:39.52	225.66	19.73	-23.4	-24.4	18.4	1.40e-03	0	43	0	3226468352	7	4025
2026-01-02 03:09:40.52	225.58	19.61	-23.4	-24.4	18.4	5.70e-06	0	43	0	3231711232	7	4018
2026-01-02 03:09:41.52	225.51	19.49	-23.4	-24.8	18.4	2.44e-04	0	43	0	3238002688	6	4247
2026-01-02 03:09:42.52	225.44	19.36	-23.5	-25.0	18.3	1.56e-03	0	43	0	3243245568	6	4298
2026-01-02 03:09:43.51	225.37	19.24	-23.7	-24.9	18.1	1.27e-03	0	43	0	3249537024	7	4161
2026-01-02 03:09:44.51	225.30	19.12	-23.8	-25.2	18.0	3.12e-04	0	43	0	3254779904	7	4213
2026-01-02 03:09:45.52	225.23	19.00	-23.6	-24.7	18.2	0.00e+00	0	43	0	3261071360	7	4107
2026-01-02 03:09:46.53	225.16	18.87	-23.7	-25.0	18.0	1.49e-03	0	43	0	3266314240	7	4170
2026-01-02 03:09:47.53	225.10	18.75	-23.7	-24.9	18.1	0.00e+00	0	43	0	3271557120	7	4158
2026-01-02 03:09:48.53	225.03	18.63	-23.7	-25.0	18.0	1.58e-03	0	43	0	3277848576	7	4192
2026-01-02 03:09:49.54	224.96	18.51	-23.8	-25.1	18.0	8.00e-06	0	43	0	3283091456	7	4211
2026-01-02 03:09:50.53	224.90	18.40	-23.9	-25.3	17.9	0.00e+00	0	43	0	3288334336	7	4267
2026-01-02 03:09:51.54	224.83	18.28	-23.8	-25.3	17.9	1.69e-03	0	43	0	3294625792	7	4261
2026-01-02 03:09:52.54	224.76	18.16	-24.1	-25.3	17.6	3.40e-06	0	43	0	3299868672	8	4139
2026-01-02 03:09:53.54	224.70	18.04	-24.3	-25.9	17.3	3.55e-04	0	43	0	3305111552	8	4295
2026-01-02 03:09:54.54	224.63	17.93	-24.4	-25.6	17.2	0.00e+00	0	43	0	3311403008	9	4095
2026-01-02 03:09:55.55	224.57	17.81	-24.4	-25.5	17.2	9.65e-04	0	44	0	3316645888	9	4097
2026-01-02 03:09:56.55	224.51	17.69	-24.5	-25.7	17.1	0.00e+00	0	43	0	3322937344	9	4139
2026-01-02 03:09:57.55	224.44	17.58	-24.5	-25.7	17.1	0.00e+00	0	43	0	3328180224	9	4144
2026-01-02 03:09:58.55	224.38	17.46	-24.5	-25.6	17.2	1.43e-03	0	43	0	3333423104	9	4119
2026-01-02 03:09:59.55	224.32	17.35	-24.5	-26.2	17.1	0.00e+00	0	43	0	3339714560	8	4387
2026-01-02 03:10:00.55	224.26	17.23	-24.5	-25.8	17.1	1.22e-03	0	43	0	3344957440	9	4152
2026-01-02 03:10:01.55	224.20	17.12	-24.8	-26.3	16.8	1.10e-06	0	43	0	3350200320	9	4284
2026-01-02 03:10:02.55	224.14	17.01	-24.8	-26.3	16.8	0.00e+00	0	43	0	3356491776	9	4291
2026-01-02 03:10:03.55	224.08	16.90	-24.5	-25.6	17.1	0.00e+00	0	43	0	3361734656	9	4113
2026-01-02 03:10:04.55	224.02	16.78	-24.3	-25.3	17.3	9.10e-06	0	43	0	3366977536	9	4046
2026-01-02 03:10:05.56	223.96	16.67	-24.3	-25.3	17.3	2.07e-04	0	43	0	3373268992	9	4039
2026-01-02 03:10:06.56	223.90	16.56	-24.3	-25.3	17.3	0.00e+00	0	43	0	3378511872	9	4040
2026-01-02 03:10:07.57	223.84	16.45	-24.5	-26.2	17.1	8.91e-04	0	43	0	3384803328	8	4364
2026-01-02 03:10:08.57	223.79	16.34	-24.4	-25.5	17.2	0.00e+00	0	44	0	3390046208	9	4081
2026-01-02 03:10:09.57	223.73	16.23	-24.3	-25.4	17.3	0.00e+00	0	43	0	3396337664	9	4045
2026-01-02 03:10:10.58	223.67	16.12	-24.2	-25.6	17.4	5.70e-06	0	43	0	3401580544	8	4224
2026-01-02 03:10:11.59	223.61	16.01	-24.4	-26.0	17.2	0.00e+00	0	43	0	3406823424	8	4318
2026-01-02 03:10:12.58	223.56	15.90	-24.3	-25.9	17.2	0.00e+00	0	43	0	3413114880	8	4286
2026-01-02 03:10:13.58	223.50	15.80	-24.4	-26.0	17.1	2.20e-06	0	43	0	3418357760	8	4336
2026-01-02 03:10:14.58	223.45	15.69	-24.4	-26.0	17.1	0.00e+00	0	43	0	3423600640	8	4325
2026-01-02 03:10:15.59	223.39	15.58	-24.5	-25.8	17.0	0.00e+00	0	43	0	3429892096	9	4157
2026-01-02 03:10:16.59	223.34	15.48	-24.8	-26.4	16.6	0.00e+00	0	43	0	3435134976	9	4327
2026-01-02 03:10:17.59	223.29	15.37	-24.8	-26.4	16.7	0.00e+00	0	43	0	3440377856	9	4315
2026-01-02 03:10:18.59	223.23	15.27	-24.6	-26.0	16.9	0.00e+00	0	43	0	3446669312	9	4209
2026-01-02 03:10:19.58	223.18	15.16	-24.6	-26.0	16.8	0.00e+00	0	43	0	3451912192	9	4212
2026-01-02 03:10:20.59	223.13	15.06	-24.7	-26.2	16.7	0.00e+00	0	43	0	3458203648	9	4282
2026-01-02 03:10:21.58	223.08	14.95	-24.8	-26.4	16.6	0.00e+00	0	43	0	3463446528	9	4323
2026-01-02 03:10:22.58	223.02	14.85	-24.8	-26.4	16.6	0.00e+00	0	43	0	3468689408	9	4323
2026-01-02 03:10:23.59	222.97	14.75	-24.7	-26.2	16.7	0.00e+00	0	43	0	3474980864	9	4262
2026-01-02 03:10:24.59	222.92	14.64	-24.7	-26.2	16.7	0.00e+00	0	43	0	3480223744	9	4273
2026-01-02 03:10:25.59	222.87	14.54	-24.8	-26.3	16.7	0.00e+00	0	43	0	3485466624	9	4294
2026-01-02 03:10:26.60	222.82	14.44	-24.8	-26.4	16.6	0.00e+00	0	43	0	3491758080	9	4316
2026-01-02 03:10:27.60	222.77	14.34	-24.8	-26.3	16.6	0.00e+00	0	43	0	3497000960	9	4299
2026-01-02 03:10:28.61	222.72	14.23	-24.8	-26.3	16.6	0.00e+00	0	43	0	3502243840	9	4293
2026-01-02 03:10:29.61	222.67	14.13	-24.9	-26.5	16.5	0.00e+00	0	43	0	3508535296	9	4347
2026-01-02 03:10:30.61	222.62	14.03	-24.9	-26.6	16.5	0.00e+00	0	43	0	3513778176	9	4366
2026-01-02 03:10:31.61	222.57	13.93	-25.0	-26.7	16.4	0.00e+00	0	43	0	3520069632	9	4405
2026-01-02 03:10:32.61	222.53	13.83	-25.0	-26.7	16.4	0.00e+00	0	43	0	3525312512	9	4401
2026-01-02 03:10:33.61	222.48	13.73	-24.9	-26.5	16.5	0.00e+00	0	43	0	3530555392	9	4356
2026-01-02 03:10:34.62	222.43	13.63	-25.0	-26.4	16.3	1.10e-06	0	43	0	3536846848	10	4204
2026-01-02 03:10:35.62	222.38	13.53	-25.2	-26.7	16.1	0.00e+00	0	43	0	3542089728	10	4294
2026-01-02 03:10:36.62	222.34	13.44	-25.0	-26.3	16.4	0.00e+00	0	43	0	3548381184	10	4179
2026-01-02 03:10:37.63	222.29	13.34	-24.9	-26.1	16.5	0.00e+00	0	43	0	3553624064	10	4125
2026-01-02 03:10:38.64	222.24	13.24	-25.0	-26.4	16.3	0.00e+00	0	43	0	3558866944	10	4202
2026-01-02 03:10:39.65	222.20	13.14	-25.1	-26.5	16.2	0.00e+00	0	43	0	3565158400	10	4233
2026-01-02 03:10:40.65	222.15	13.05	-25.1	-26.4	16.3	0.00e+00	0	43	0	3570401280	10	4213
2026-01-02 03:10:41.65	222.11	12.95	-25.1	-26.6	16.2	0.00e+00	0	44	0	3575644160	10	4246
2026-01-02 03:10:42.66	222.06	12.85	-25.1	-26.5	16.2	0.00e+00	0	43	0	3581935616	10	4244
2026-01-02 03:10:43.66	222.02	12.76	-25.1	-26.4	16.2	0.00e+00	0	43	0	3587178496	10	4213
2026-01-02 03:10:44.66	221.97	12.66	-25.1	-26.6	16.2	0.00e+00	0	43	0	3593469952	10	4257
2026-01-02 03:10:45.66	221.93	12.57	-25.2	-26.8	16.0	0.00e+00	0	43	0	3598712832	10	4318
2026-01-02 03:10:46.67	221.88	12.47	-25.2	-26.8	16.0	0.00e+00	0	43	0	3603955712	10	4326
2026-01-02 03:10:47.67	221.84	12.38	-25.3	-26.9	15.9	0.00e+00	0	43	0	3610247168	10	4353
2026-01-02 03:10:48.68	221.80	12.28	-25.3	-27.0	15.9	0.00e+00	0	43	0	3615490048	10	4369
2026-01-02 03:10:49.68	221.75	12.19	-25.4	-27.2	15.8	0.00e+00	0	43	0	3621781504	10	4427
2026-01-02 03:10:50.68	221.71	12.10	-25.3	-26.9	15.9	0.00e+00	0	43	0	3627024384	10	4355
2026-01-02 03:10:51.69	221.67	12.00	-25.3	-27.0	15.9	0.00e+00	0	43	0	3632267264	10	4380
2026-01-02 03:10:52.70	221.63	11.91	-25.3	-27.1	15.8	0.00e+00	0	43	0	3638558720	10	4396
2026-01-02 03:10:53.70	221.58	11.82	-25.5	-26.9	15.6	0.00e+00	0	43	0	3643801600	11	4236
2026-01-02 03:10:54.71	221.54	11.72	-25.7	-27.4	15.4	0.00e+00	0	43	0	3649044480	11	4361
2026-01-02 03:10:55.71	221.50	11.63	-25.7	-27.3	15.4	0.00e+00	0	43	0	3655335936	11	4350
2026-01-02 03:10:56.72	221.46	11.54	-25.4	-26.8	15.7	0.00e+00	0	43	0	3660578816	11	4207
2026-01-02 03:10:57.72	221.42	11.45	-25.4	-26.7	15.8	0.00e+00	0	43	0	3666870272	11	4189
2026-01-02 03:10:58.73	221.38	11.36	-25.4	-26.7	15.8	0.00e+00	0	43	0	3672113152	11	4172
2026-01-02 03:10:59.73	221.34	11.27	-25.5	-26.9	15.6	0.00e+00	0	43	0	3678404608	11	4231
2026-01-02 03:11:00.74	221.30	11.18	-25.6	-27.2	15.5	0.00e+00	0	43	0	3683647488	11	4303
2026-01-02 03:11:01.73	221.26	11.09	-25.5	-27.0	15.5	0.00e+00	0	44	0	3688890368	11	4271
2026-01-02 03:11:02.74	221.22	11.00	-25.5	-27.0	15.5	0.00e+00	0	43	0	3695181824	11	4274
2026-01-02 03:11:03.74	221.18	10.91	-25.5	-27.0	15.5	0.00e+00	0	43	0	3700424704	11	4259
2026-01-02 03:11:04.75	221.14	10.82	-25.7	-27.5	15.3	0.00e+00	0	43	0	3705667584	11	4391
2026-01-02 03:11:05.75	221.10	10.73	-25.7	-27.3	15.4	0.00e+00	0	43	0	3711959040	11	4346
2026-01-02 03:11:06.75	221.06	10.65	-25.0	-26.4	14.2	0.00e+00	0	43	0	3717201920	11	4238
2026-01-02 03:11:07.76	221.03	10.56	-25.9	-27.9	15.0	0.00e+00	0	43	0	3722444800	11	4533
2026-01-02 03:11:08.76	220.99	10.47	-25.8	-27.2	13.0	0.00e+00	0	43	0	3728736256	12	4208
2026-01-02 03:11:09.76	220.95	10.38	-25.7	-27.5	13.4	1.10e-06	0	43	0	3733979136	11	4391
2026-01-02 03:11:10.76	220.91	10.30	-25.8	-27.6	15.2	0.00e+00	0	43	0	3740270592	11	4432
2026-01-02 03:11:11.76	220.88	10.21	-25.7	-27.5	15.1	0.00e+00	0	43	0	3745513472	11	4401
2026-01-02 03:11:12.77	220.84	10.12	-25.9	-27.8	15.0	0.00e+00	0	43	0	3750756352	11	4498
2026-01-02 03:11:13.77	220.80	10.04	-25.7	-27.3	15.3	0.00e+00	0	43	0	3757047808	11	4362
2026-01-02 03:11:14.77	220.77	9.95	-25.9	-27.8	15.0	0.00e+00	0	43	0	3762290688	11	4500
2026-01-02 03:11:15.78	220.73	9.86	-25.8	-27.7	15.1	8.64e-04	0	43	0	3768582144	11	4461
2026-01-02 03:11:16.78	220.69	9.78	-25.8	-27.7	15.1	0.00e+00	0	43	0	3773825024	11	4467
2026-01-02 03:11:17.78	220.66	9.69	-26.0	-28.0	14.9	9.15e-04	0	43	0	3779067904	11	4557
2026-01-02 03:11:18.78	220.62	9.61	-25.8	-27.3	15.0	0.00e+00	0	43	0	3785359360	12	4236
2026-01-02 03:11:19.78	220.59	9.53	-26.0	-27.6	14.8	1.10e-06	0	43	0	3790602240	12	4336
2026-01-02 03:11:20.78	220.55	9.44	-26.2	-28.0	14.6	9.70e-04	0	43	0	3795845120	12	4427
2026-01-02 03:11:21.79	220.52	9.36	-25.9	-27.5	14.8	0.00e+00	0	43	0	3802136576	12	4286
2026-01-02 03:11:22.79	220.48	9.27	-26.3	-28.3	14.4	2.20e-06	0	44	0	3807379456	12	4533
2026-01-02 03:11:23.79	220.45	9.19	-26.0	-27.5	14.8	0.00e+00	0	43	0	3813670912	12	4303
2026-01-02 03:11:24.79	220.42	9.11	-26.0	-27.5	14.8	8.85e-04	0	44	0	3818913792	12	4310
2026-01-02 03:11:25.80	220.38	9.02	-26.2	-28.0	14.5	0.00e+00	0	43	0	3824156672	12	4444
2026-01-02 03:11:26.80	220.35	8.94	-26.1	-27.9	14.5	3.40e-06	0	44	0	3830448128	12	4428
2026-01-02 03:11:27.80	220.31	8.86	-26.0	-27.6	14.7	9.46e-04	0	43	0	3835691008	12	4322
2026-01-02 03:11:28.81	220.28	8.78	-26.1	-27.8	14.5	1.10e-06	0	43	0	3840933888	12	4401
2026-01-02 03:11:29.82	220.25	8.70	-26.2	-28.0	14.4	9.69e-04	0	44	0	3847225344	12	4442
2026-01-02 03:11:30.81	220.21	8.62	-26.1	-27.9	14.5	0.00e+00	0	43	0	3852468224	12	4425
2026-01-02 03:11:31.82	220.18	8.53	-26.1	-27.8	14.6	5.70e-06	0	43	0	3857711104	12	4387
2026-01-02 03:11:32.82	220.15	8.45	-26.1	-27.9	14.5	9.90e-04	0	43	0	3864002560	12	4415
2026-01-02 03:11:33.82	220.12	8.37	-26.4	-28.5	14.1	2.20e-06	0	43	0	3869245440	12	4591
