passes_logs/2026/01/02/R2M6_AANII_01/R2M6_AANII_01__20260102_085240_NOAA_20_JPSS-1_rec.log

#Pass ID: 20260102_085240_NOAA 20 (JPSS-1)
#Satellite: NOAA 20 (JPSS-1)
#Configuration: NOAA 20
#almurnet v.1.7.20240730
#Start time: 2026-01-02 08:52:39

#Version: 2.2.20231116
#Station: R2M6_AANII_01
#Location: 30.233357 lon 59.946436 lat
#TLE: 1 43013U 17073A   26001.30344297  .00000183  00000+0  10758-3 0  9995
#TLE: 2 43013  98.7621 302.3885 0001938  59.1624 300.9742 14.19532032420790

#Time	Az	El	Level	Level2	SNR	BER	BlckErr	Temp	State	Recorded	gain1	gain2
2026-01-02 08:52:39.85	115.74	6.96	-31.8	-39.4	4.4	1.39e+00	0	41	0	0	25	8621
2026-01-02 08:52:40.85	115.67	7.03	-31.7	-38.8	4.6	1.33e+00	0	41	104	0	24	8151
2026-01-02 08:52:41.85	115.60	7.10	-31.6	-38.3	6.6	2.50e-01	0	41	0	0	24	7787
2026-01-02 08:52:42.86	115.53	7.17	-31.5	-37.9	7.0	1.80e-01	0	41	0	1048576	24	7500
2026-01-02 08:52:43.86	115.46	7.24	-31.5	-37.8	7.0	1.63e-01	0	41	0	3145728	24	7420
2026-01-02 08:52:44.86	115.39	7.32	-31.6	-38.2	6.8	1.58e-01	0	41	0	5242880	24	7669
2026-01-02 08:52:45.86	115.31	7.39	-31.6	-38.1	6.8	1.75e-01	0	41	0	7340032	24	7610
2026-01-02 08:52:46.87	115.24	7.46	-31.6	-38.0	6.9	1.74e-01	0	41	0	9437184	24	7530
2026-01-02 08:52:47.86	115.17	7.53	-31.5	-37.3	7.5	1.48e-01	0	41	0	10485760	24	7075
2026-01-02 08:52:48.86	115.10	7.60	-31.3	-36.7	8.0	8.62e-02	0	41	0	12582912	24	6658
2026-01-02 08:52:49.86	115.02	7.67	-31.2	-36.4	8.7	4.36e-02	0	41	0	14680064	23	6559
2026-01-02 08:52:50.86	114.95	7.74	-31.0	-35.6	9.2	2.73e-02	0	41	0	16777216	23	6150
2026-01-02 08:52:51.87	114.88	7.81	-30.8	-35.0	9.8	1.42e-02	0	41	0	17825792	23	5806
2026-01-02 08:52:52.86	114.80	7.88	-30.7	-34.8	10.3	7.48e-03	0	41	0	19922944	22	5806
2026-01-02 08:52:53.86	114.73	7.96	-30.6	-34.6	10.4	4.50e-03	0	41	0	22020096	22	5728
2026-01-02 08:52:54.87	114.65	8.03	-30.6	-34.7	10.4	4.39e-03	0	41	0	24117248	22	5766
2026-01-02 08:52:55.87	114.58	8.10	-30.6	-34.6	10.5	4.70e-03	0	41	0	26214400	22	5721
2026-01-02 08:52:56.87	114.50	8.17	-30.6	-34.4	10.7	2.99e-03	0	41	0	27262976	22	5615
2026-01-02 08:52:57.87	114.42	8.25	-30.6	-34.5	10.7	3.40e-03	0	41	0	29360128	22	5637
2026-01-02 08:52:58.87	114.35	8.32	-30.6	-34.6	10.6	3.12e-03	0	41	0	31457280	22	5695
2026-01-02 08:52:59.88	114.27	8.39	-30.6	-34.7	10.5	4.51e-03	0	41	0	33554432	22	5767
2026-01-02 08:53:00.88	114.19	8.47	-30.5	-34.3	10.8	2.68e-03	0	41	0	35651584	22	5569
2026-01-02 08:53:01.89	114.11	8.54	-30.4	-33.9	11.1	2.06e-03	0	41	0	36700160	22	5402
2026-01-02 08:53:02.89	114.04	8.61	-30.4	-33.8	11.2	1.45e-03	0	41	0	38797312	22	5349
2026-01-02 08:53:03.89	113.96	8.69	-30.5	-34.1	11.0	1.77e-03	0	41	0	40894464	22	5469
2026-01-02 08:53:04.89	113.88	8.76	-30.3	-33.6	11.4	1.05e-03	0	41	0	42991616	22	5249
2026-01-02 08:53:05.89	113.80	8.83	-30.5	-34.0	11.1	1.20e-03	0	41	0	45088768	22	5433
2026-01-02 08:53:06.89	113.72	8.91	-30.4	-33.8	11.3	1.28e-03	0	41	0	46137344	22	5322
2026-01-02 08:53:07.89	113.64	8.98	-30.5	-34.1	11.0	1.69e-03	0	41	0	48234496	22	5468
2026-01-02 08:53:08.90	113.56	9.06	-30.4	-34.0	11.2	1.62e-03	0	42	0	50331648	22	5393
2026-01-02 08:53:09.90	113.48	9.13	-30.5	-34.0	11.1	1.41e-03	0	42	0	52428800	22	5418
2026-01-02 08:53:10.91	113.39	9.21	-30.4	-33.9	11.3	1.07e-03	0	41	0	54525952	22	5357
2026-01-02 08:53:11.91	113.31	9.28	-30.5	-34.1	11.1	1.66e-03	0	42	0	55574528	22	5431
2026-01-02 08:53:12.91	113.23	9.36	-30.5	-34.0	11.2	1.48e-03	0	42	0	57671680	22	5412
2026-01-02 08:53:13.92	113.14	9.43	-30.4	-33.9	11.3	1.22e-03	0	42	0	59768832	22	5348
2026-01-02 08:53:14.92	113.06	9.51	-30.5	-34.0	11.2	1.18e-03	0	41	0	61865984	22	5408
2026-01-02 08:53:15.92	112.98	9.58	-30.4	-33.9	11.3	1.29e-03	0	42	0	62914560	22	5349
2026-01-02 08:53:16.93	112.89	9.66	-30.5	-34.1	11.1	1.43e-03	0	42	0	65011712	22	5452
2026-01-02 08:53:17.93	112.81	9.74	-30.4	-33.9	11.3	1.36e-03	0	42	0	67108864	22	5363
2026-01-02 08:53:18.93	112.72	9.81	-30.4	-33.9	11.3	1.16e-03	0	42	0	69206016	22	5345
2026-01-02 08:53:19.93	112.64	9.89	-30.5	-34.0	11.3	1.07e-03	0	42	0	71303168	22	5409
2026-01-02 08:53:20.92	112.55	9.96	-30.3	-33.5	11.6	9.25e-04	0	42	0	72351744	22	5203
2026-01-02 08:53:21.93	112.46	10.04	-30.2	-33.7	11.8	5.32e-04	0	42	0	74448896	21	5374
2026-01-02 08:53:22.93	112.38	10.12	-30.2	-33.7	11.9	5.07e-04	0	42	0	76546048	21	5352
2026-01-02 08:53:23.93	112.29	10.19	-30.2	-33.4	12.0	3.42e-04	0	42	0	78643200	21	5259
2026-01-02 08:53:24.93	112.20	10.27	-30.2	-33.5	11.9	3.45e-04	0	42	0	80740352	21	5302
2026-01-02 08:53:25.94	112.11	10.35	-30.2	-33.5	12.0	4.01e-04	0	42	0	81788928	21	5281
2026-01-02 08:53:26.93	112.02	10.43	-30.2	-33.7	11.8	3.97e-04	0	42	0	83886080	21	5358
2026-01-02 08:53:27.94	111.93	10.50	-30.3	-34.0	11.7	6.15e-04	0	42	0	85983232	21	5478
2026-01-02 08:53:28.94	111.84	10.58	-30.3	-33.7	11.9	5.43e-04	0	42	0	88080384	21	5375
2026-01-02 08:53:29.95	111.75	10.66	-30.2	-33.7	11.9	3.92e-04	0	42	0	90177536	21	5342
2026-01-02 08:53:30.96	111.66	10.74	-30.1	-33.4	12.1	2.99e-04	0	42	0	91226112	21	5230
2026-01-02 08:53:31.96	111.57	10.82	-30.3	-33.9	11.8	3.25e-04	0	42	0	93323264	21	5431
2026-01-02 08:53:32.97	111.48	10.90	-30.2	-33.6	12.0	3.27e-04	0	42	0	95420416	21	5296
2026-01-02 08:53:33.97	111.39	10.98	-30.1	-33.1	12.3	1.77e-04	0	42	0	97517568	21	5113
2026-01-02 08:53:34.97	111.29	11.05	-30.2	-33.5	12.0	2.37e-04	0	42	0	99614720	21	5276
2026-01-02 08:53:35.96	111.20	11.13	-30.2	-33.5	12.0	3.26e-04	0	42	0	100663296	21	5274
2026-01-02 08:53:36.96	111.11	11.21	-30.2	-33.5	12.1	3.00e-04	0	42	0	102760448	21	5271
2026-01-02 08:53:37.97	111.01	11.29	-30.1	-33.3	12.2	2.75e-04	0	42	0	104857600	21	5184
2026-01-02 08:53:38.97	110.92	11.37	-30.2	-33.6	12.0	2.50e-04	0	42	0	106954752	21	5297
2026-01-02 08:53:39.98	110.82	11.45	-30.2	-33.5	12.0	3.45e-04	0	42	0	108003328	21	5283
2026-01-02 08:53:40.98	110.72	11.53	-30.3	-33.7	12.0	4.01e-04	0	42	0	110100480	21	5332
2026-01-02 08:53:41.98	110.63	11.61	-30.2	-33.6	12.0	3.66e-04	0	42	0	112197632	21	5328
2026-01-02 08:53:42.98	110.53	11.69	-30.3	-33.7	11.9	2.94e-04	0	42	0	114294784	21	5342
2026-01-02 08:53:43.98	110.43	11.77	-30.3	-33.9	11.8	4.32e-04	0	42	0	116391936	21	5408
2026-01-02 08:53:44.98	110.33	11.85	-30.5	-34.5	11.4	6.86e-04	0	42	0	117440512	21	5702
2026-01-02 08:53:45.98	110.23	11.93	-30.3	-33.9	11.8	8.19e-04	0	42	0	119537664	21	5419
2026-01-02 08:53:46.99	110.13	12.02	-30.3	-33.6	12.0	3.94e-04	0	42	0	121634816	21	5315
2026-01-02 08:53:48.00	110.03	12.10	-30.2	-33.5	12.1	2.91e-04	0	42	0	123731968	21	5256
2026-01-02 08:53:49.01	109.93	12.18	-30.3	-33.7	12.0	3.35e-04	0	42	0	125829120	21	5342
2026-01-02 08:53:50.00	109.83	12.26	-30.2	-33.6	12.1	3.20e-04	0	42	0	126877696	21	5290
2026-01-02 08:53:51.00	109.73	12.34	-30.2	-33.5	12.1	2.81e-04	0	42	0	128974848	21	5266
2026-01-02 08:53:52.00	109.63	12.42	-30.3	-33.8	12.0	3.28e-04	0	42	0	131072000	21	5375
2026-01-02 08:53:53.01	109.52	12.51	-30.2	-33.6	12.1	3.13e-04	0	42	0	133169152	21	5288
2026-01-02 08:53:54.01	109.42	12.59	-30.2	-33.4	12.2	2.39e-04	0	43	0	135266304	21	5222
2026-01-02 08:53:55.01	109.32	12.67	-30.2	-33.5	12.2	2.49e-04	0	43	0	136314880	21	5237
2026-01-02 08:53:56.01	109.21	12.75	-30.3	-33.7	12.1	2.42e-04	0	42	0	138412032	21	5328
2026-01-02 08:53:57.02	109.11	12.84	-30.3	-33.8	12.0	2.87e-04	0	42	0	140509184	21	5352
2026-01-02 08:53:58.02	109.00	12.92	-30.3	-33.6	12.1	3.00e-04	0	42	0	142606336	21	5277
2026-01-02 08:53:59.02	108.89	13.00	-30.4	-33.9	11.9	3.22e-04	0	42	0	144703488	21	5426
2026-01-02 08:54:00.03	108.79	13.09	-30.5	-34.2	11.7	5.12e-04	0	42	0	145752064	21	5543
2026-01-02 08:54:01.03	108.68	13.17	-30.4	-34.0	11.8	4.78e-04	0	42	0	147849216	21	5475
2026-01-02 08:54:02.04	108.57	13.26	-30.3	-33.9	11.9	3.75e-04	0	42	0	149946368	21	5390
2026-01-02 08:54:03.04	108.46	13.34	-30.4	-34.0	11.9	3.58e-04	0	42	0	152043520	21	5460
2026-01-02 08:54:04.05	108.35	13.43	-30.5	-34.2	11.7	4.39e-04	0	42	0	153092096	21	5558
2026-01-02 08:54:05.05	108.24	13.51	-30.3	-33.8	12.0	3.92e-04	0	42	0	155189248	21	5389
2026-01-02 08:54:06.06	108.13	13.60	-30.2	-33.5	12.3	2.84e-04	0	43	0	157286400	21	5243
2026-01-02 08:54:07.06	108.02	13.68	-30.3	-33.7	12.1	2.78e-04	0	42	0	159383552	21	5313
2026-01-02 08:54:08.06	107.90	13.76	-30.3	-33.8	12.0	2.88e-04	0	43	0	161480704	21	5349
2026-01-02 08:54:09.07	107.79	13.85	-30.3	-33.6	12.1	2.04e-04	0	43	0	163577856	21	5300
2026-01-02 08:54:10.08	107.67	13.94	-30.4	-34.0	12.0	2.62e-04	0	42	0	164626432	21	5427
2026-01-02 08:54:11.08	107.56	14.02	-30.3	-33.8	12.1	3.16e-04	0	42	0	166723584	21	5357
2026-01-02 08:54:12.09	107.44	14.11	-30.4	-34.1	11.8	3.48e-04	0	43	0	168820736	21	5489
2026-01-02 08:54:13.08	107.33	14.19	-30.4	-33.9	12.0	4.03e-04	0	42	0	170917888	21	5392
2026-01-02 08:54:14.09	107.21	14.28	-30.4	-33.9	12.0	3.46e-04	0	42	0	171966464	21	5423
2026-01-02 08:54:15.09	107.10	14.37	-30.6	-34.4	11.6	5.82e-04	0	43	0	174063616	21	5631
2026-01-02 08:54:16.09	106.98	14.45	-30.5	-34.4	11.7	5.95e-04	0	43	0	176160768	21	5602
2026-01-02 08:54:17.10	106.86	14.54	-30.5	-34.2	11.8	4.86e-04	0	43	0	178257920	21	5527
2026-01-02 08:54:18.10	106.74	14.63	-30.5	-34.4	11.6	7.61e-04	0	42	0	180355072	21	5625
2026-01-02 08:54:19.10	106.62	14.71	-30.6	-34.5	11.6	6.34e-04	0	43	0	181403648	21	5637
2026-01-02 08:54:20.10	106.50	14.80	-30.5	-34.3	11.7	5.12e-04	0	42	0	183500800	21	5582
2026-01-02 08:54:21.10	106.38	14.89	-30.5	-34.3	11.8	6.32e-04	0	43	0	185597952	21	5554
2026-01-02 08:54:22.11	106.26	14.98	-30.4	-34.0	11.9	5.03e-04	0	42	0	187695104	21	5456
2026-01-02 08:54:23.11	106.13	15.06	-30.5	-34.4	11.7	4.54e-04	0	43	0	189792256	21	5637
2026-01-02 08:54:24.11	106.01	15.15	-30.8	-35.3	11.0	8.48e-04	0	43	0	190840832	21	6035
2026-01-02 08:54:25.12	105.89	15.24	-30.5	-34.4	11.7	6.02e-04	0	43	0	192937984	21	5606
2026-01-02 08:54:26.12	105.76	15.33	-30.4	-33.8	12.1	3.46e-04	0	43	0	195035136	21	5364
2026-01-02 08:54:27.12	105.63	15.42	-30.2	-33.5	12.4	2.17e-04	0	43	0	197132288	21	5217
2026-01-02 08:54:28.13	105.51	15.51	-30.2	-33.3	12.5	1.31e-04	0	43	0	199229440	21	5164
2026-01-02 08:54:29.13	105.38	15.60	-30.2	-33.3	12.6	9.91e-05	0	43	0	200278016	21	5134
2026-01-02 08:54:30.13	105.25	15.69	-30.1	-33.0	12.7	9.00e-05	0	43	0	202375168	21	5042
2026-01-02 08:54:31.13	105.12	15.77	-30.2	-33.2	12.6	9.68e-05	0	43	0	204472320	21	5115
2026-01-02 08:54:32.14	104.99	15.86	-30.2	-33.2	12.6	7.93e-05	0	43	0	206569472	21	5104
2026-01-02 08:54:33.14	104.86	15.95	-30.3	-33.5	12.4	1.26e-04	0	43	0	208666624	21	5243
2026-01-02 08:54:34.14	104.73	16.04	-30.3	-33.5	12.4	1.63e-04	0	43	0	209715200	21	5232
2026-01-02 08:54:35.14	104.60	16.13	-30.2	-33.4	12.4	1.53e-04	0	43	0	211812352	21	5205
2026-01-02 08:54:36.15	104.47	16.22	-30.2	-33.5	12.4	1.20e-04	0	43	0	213909504	21	5212
2026-01-02 08:54:37.15	104.33	16.31	-30.2	-33.4	12.5	1.38e-04	0	43	0	216006656	21	5193
2026-01-02 08:54:38.16	104.20	16.41	-30.4	-33.8	12.2	2.11e-04	0	43	0	218103808	21	5346
2026-01-02 08:54:39.16	104.06	16.50	-30.2	-33.2	12.6	1.19e-04	0	43	0	219152384	21	5105
2026-01-02 08:54:40.16	103.93	16.59	-30.1	-33.0	12.8	8.46e-05	0	43	0	221249536	21	5020
2026-01-02 08:54:41.17	103.79	16.68	-30.0	-32.8	12.9	5.95e-05	0	43	0	223346688	21	4964
2026-01-02 08:54:42.17	103.65	16.77	-30.0	-32.7	13.0	4.80e-05	0	43	0	225443840	21	4922
2026-01-02 08:54:43.17	103.51	16.86	-30.0	-32.7	13.0	4.65e-05	0	43	0	226492416	21	4913
2026-01-02 08:54:44.17	103.37	16.95	-29.9	-32.5	13.1	4.80e-05	0	43	0	228589568	21	4842
2026-01-02 08:54:45.17	103.23	17.04	-29.9	-32.6	13.1	2.74e-05	0	43	0	230686720	21	4864
2026-01-02 08:54:46.17	103.09	17.14	-30.0	-32.6	13.1	2.89e-05	0	43	0	232783872	21	4886
2026-01-02 08:54:47.17	102.95	17.23	-30.0	-32.8	12.9	4.19e-05	0	43	0	234881024	21	4951
2026-01-02 08:54:48.17	102.81	17.32	-29.9	-32.4	13.2	3.35e-05	0	43	0	235929600	21	4815
2026-01-02 08:54:49.17	102.66	17.41	-30.0	-32.7	13.0	2.74e-05	0	43	0	238026752	21	4911
2026-01-02 08:54:50.17	102.52	17.50	-30.2	-33.1	12.7	6.17e-05	0	43	0	240123904	21	5080
2026-01-02 08:54:51.18	102.37	17.60	-30.1	-32.9	12.9	5.56e-05	0	43	0	242221056	21	4981
2026-01-02 08:54:52.18	102.22	17.69	-30.0	-32.7	13.1	4.34e-05	0	43	0	244318208	21	4891
2026-01-02 08:54:53.19	102.08	17.78	-29.9	-32.5	13.2	2.28e-05	0	43	0	245366784	21	4842
2026-01-02 08:54:54.19	101.93	17.88	-30.0	-32.8	13.0	2.82e-05	0	43	0	247463936	21	4934
2026-01-02 08:54:55.20	101.78	17.97	-29.9	-32.5	13.2	1.60e-05	0	43	0	249561088	21	4818
2026-01-02 08:54:56.20	101.63	18.06	-29.9	-32.3	13.3	1.22e-05	0	43	0	251658240	21	4772
2026-01-02 08:54:57.20	101.48	18.16	-29.8	-32.2	13.4	1.90e-05	0	43	0	253755392	21	4738
2026-01-02 08:54:58.20	101.32	18.25	-29.8	-32.3	13.3	1.52e-05	0	43	0	254803968	21	4756
2026-01-02 08:54:59.20	101.17	18.34	-29.9	-32.3	13.3	1.83e-05	0	43	0	256901120	21	4777
2026-01-02 08:55:00.21	101.02	18.44	-29.8	-32.1	13.5	1.14e-05	0	43	0	258998272	21	4692
2026-01-02 08:55:01.22	100.86	18.53	-29.8	-32.2	13.4	1.67e-05	0	43	0	261095424	21	4729
2026-01-02 08:55:01.98	100.74	18.61	-29.8	-32.2	13.4	1.14e-05	0	43	0	263192576	21	4720
2026-01-02 08:55:03.28	100.54	18.73	-29.9	-32.4	13.4	1.22e-05	0	43	0	265289728	21	4784
2026-01-02 08:55:04.00	100.42	18.80	-29.9	-32.4	13.3	1.75e-05	0	43	0	266338304	21	4790
2026-01-02 08:55:05.29	100.22	18.92	-29.8	-32.1	13.5	9.10e-06	0	43	0	268435456	21	4686
2026-01-02 08:55:06.01	100.10	18.99	-29.8	-32.2	13.4	1.29e-05	0	43	0	270532608	21	4727
2026-01-02 08:55:07.30	99.90	19.11	-29.8	-32.7	13.5	1.29e-05	0	43	0	272629760	20	4986
2026-01-02 08:55:08.01	99.78	19.18	-29.7	-32.3	13.7	1.06e-05	0	43	0	273678336	20	4857
2026-01-02 08:55:09.30	99.57	19.30	-29.7	-32.4	13.7	1.22e-05	0	43	0	276824064	20	4879
2026-01-02 08:55:10.02	99.45	19.37	-29.8	-32.6	13.5	6.80e-06	0	43	0	277872640	20	4956
2026-01-02 08:55:11.31	99.24	19.49	-29.8	-32.5	13.6	7.60e-06	0	43	0	279969792	20	4940
2026-01-02 08:55:12.03	99.12	19.56	-29.8	-32.6	13.5	4.50e-06	0	43	0	282066944	20	4969
2026-01-02 08:55:13.32	98.91	19.68	-29.8	-32.7	13.5	1.44e-05	0	43	0	284164096	20	4980
2026-01-02 08:55:14.05	98.78	19.75	-29.9	-32.7	13.5	9.10e-06	0	43	0	285212672	20	5003
2026-01-02 08:55:15.33	98.57	19.87	-29.9	-33.0	13.3	1.75e-05	0	43	0	287309824	20	5093
2026-01-02 08:55:16.06	98.44	19.94	-29.9	-33.0	13.3	1.75e-05	0	43	0	289406976	20	5092
2026-01-02 08:55:17.35	98.22	20.07	-30.1	-33.4	13.1	2.28e-05	0	43	0	291504128	20	5246
2026-01-02 08:55:18.07	98.10	20.14	-30.1	-33.5	13.0	3.12e-05	0	43	0	292552704	20	5307
2026-01-02 08:55:19.36	97.87	20.26	-30.3	-33.8	12.7	4.42e-05	0	43	0	295698432	20	5442
2026-01-02 08:55:20.08	97.75	20.33	-30.2	-33.8	12.8	8.01e-05	0	43	0	296747008	20	5424
2026-01-02 08:55:21.37	97.52	20.45	-30.2	-33.6	12.9	5.03e-05	0	43	0	298844160	20	5319
2026-01-02 08:55:22.09	97.39	20.52	-30.2	-33.6	13.0	2.89e-05	0	43	0	300941312	20	5321
2026-01-02 08:55:23.38	97.16	20.65	-30.3	-33.8	12.8	4.04e-05	0	43	0	303038464	20	5407
2026-01-02 08:55:24.11	97.03	20.72	-30.2	-33.7	12.8	4.95e-05	0	43	0	304087040	20	5391
2026-01-02 08:55:25.40	96.80	20.84	-30.2	-33.7	12.8	5.87e-05	0	43	0	306184192	20	5389
2026-01-02 08:55:26.11	96.67	20.91	-30.3	-34.0	12.7	4.57e-05	0	43	0	308281344	20	5496
2026-01-02 08:55:27.40	96.44	21.04	-30.4	-34.3	12.5	1.05e-04	0	43	0	310378496	20	5631
2026-01-02 08:55:28.11	96.31	21.10	-30.4	-34.2	12.6	1.16e-04	0	43	0	311427072	20	5563
2026-01-02 08:55:29.41	96.07	21.23	-30.3	-33.9	12.8	6.25e-05	0	43	0	314572800	20	5449
2026-01-02 08:55:30.13	95.93	21.30	-30.3	-34.0	12.7	6.10e-05	0	43	0	315621376	20	5503
2026-01-02 08:55:31.42	95.69	21.43	-30.4	-34.3	12.5	1.09e-04	0	43	0	317718528	20	5628
2026-01-02 08:55:32.13	95.56	21.49	-30.4	-34.3	12.5	1.07e-04	0	43	0	318767104	20	5606
2026-01-02 08:55:33.42	95.31	21.62	-30.3	-34.0	12.7	8.16e-05	0	43	0	321912832	20	5490
2026-01-02 08:55:34.14	95.18	21.69	-30.2	-33.8	12.9	5.49e-05	0	43	0	322961408	20	5398
2026-01-02 08:55:35.43	94.93	21.81	-30.1	-33.3	13.2	2.36e-05	0	43	0	325058560	20	5211
2026-01-02 08:55:36.15	94.79	21.88	-30.0	-33.2	13.3	1.75e-05	0	43	0	327155712	20	5166
2026-01-02 08:55:37.43	94.54	22.01	-30.0	-33.1	13.4	1.75e-05	0	43	0	329252864	20	5117
2026-01-02 08:55:38.15	94.40	22.08	-30.0	-33.1	13.4	1.14e-05	0	43	0	330301440	20	5113
2026-01-02 08:55:39.44	94.14	22.20	-29.9	-32.9	13.5	1.29e-05	0	43	0	333447168	20	5045
2026-01-02 08:55:40.15	94.00	22.27	-30.0	-33.0	13.4	1.22e-05	0	43	0	334495744	20	5093
2026-01-02 08:55:41.44	93.75	22.40	-30.0	-33.1	13.3	1.44e-05	0	43	0	336592896	20	5133
2026-01-02 08:55:42.16	93.60	22.47	-30.1	-33.4	13.2	1.90e-05	0	43	0	337641472	20	5252
2026-01-02 08:55:43.45	93.34	22.59	-30.1	-33.3	13.2	1.83e-05	0	43	0	340787200	20	5215
2026-01-02 08:55:44.17	93.20	22.66	-30.3	-33.8	13.0	3.50e-05	0	43	0	341835776	20	5387
2026-01-02 08:55:45.46	92.93	22.79	-30.2	-33.7	13.0	2.59e-05	0	43	0	343932928	20	5356
2026-01-02 08:55:46.18	92.78	22.86	-30.3	-33.8	12.9	6.10e-05	0	43	0	346030080	20	5386
2026-01-02 08:55:47.47	92.52	22.98	-30.2	-33.6	13.0	2.44e-05	0	43	0	348127232	20	5326
2026-01-02 08:55:48.19	92.37	23.05	-30.1	-33.3	13.2	4.04e-05	0	43	0	349175808	20	5216
2026-01-02 08:55:49.47	92.10	23.18	-29.9	-32.9	13.5	1.44e-05	0	43	0	352321536	20	5040
2026-01-02 08:55:50.19	91.95	23.25	-29.7	-32.2	14.0	4.50e-06	0	43	0	353370112	20	4806
2026-01-02 08:55:51.48	91.67	23.37	-29.7	-32.1	14.0	5.30e-06	0	43	0	355467264	20	4777
2026-01-02 08:55:52.19	91.52	23.44	-29.6	-32.1	14.0	4.50e-06	0	43	0	356515840	20	4755
2026-01-02 08:55:53.48	91.24	23.57	-29.6	-31.9	14.1	2.20e-06	0	43	0	359661568	20	4707
2026-01-02 08:55:54.20	91.09	23.63	-29.5	-31.6	14.4	7.00e-07	0	43	0	360710144	20	4591
2026-01-02 08:55:55.49	90.81	23.76	-29.5	-31.6	14.4	1.50e-06	0	43	0	362807296	20	4602
2026-01-02 08:55:56.21	90.65	23.83	-29.6	-31.8	14.2	0.00e+00	0	43	0	363855872	20	4667
2026-01-02 08:55:57.50	90.36	23.95	-29.7	-32.2	14.0	7.00e-07	0	43	0	367001600	20	4791
2026-01-02 08:55:58.21	90.21	24.02	-29.6	-32.0	14.1	7.00e-07	0	43	0	368050176	20	4727
2026-01-02 08:55:59.50	89.92	24.14	-29.5	-31.7	14.3	3.80e-06	0	43	0	370147328	20	4639
2026-01-02 08:56:00.24	89.75	24.22	-29.6	-31.8	14.2	2.20e-06	0	43	0	372244480	20	4667
2026-01-02 08:56:01.53	89.46	24.34	-29.5	-31.6	14.4	7.00e-07	0	43	0	374341632	20	4595
2026-01-02 08:56:02.25	89.30	24.41	-29.5	-31.6	14.4	7.00e-07	0	43	0	375390208	20	4593
2026-01-02 08:56:03.54	89.00	24.53	-29.6	-31.9	14.2	1.50e-06	0	43	0	378535936	20	4681
2026-01-02 08:56:04.25	88.84	24.60	-29.4	-31.5	14.4	1.50e-06	0	43	0	379584512	20	4575
2026-01-02 08:56:05.54	88.54	24.72	-29.3	-31.2	14.6	0.00e+00	0	43	0	381681664	20	4473
2026-01-02 08:56:06.27	88.37	24.79	-29.4	-31.8	14.6	0.00e+00	0	43	0	382730240	19	4759
2026-01-02 08:56:07.55	88.07	24.91	-29.3	-31.5	14.9	7.00e-07	0	43	0	385875968	19	4653
2026-01-02 08:56:08.29	87.89	24.98	-29.3	-31.7	14.7	0.00e+00	0	43	0	386924544	19	4706
2026-01-02 08:56:09.57	87.59	25.10	-29.3	-31.7	14.7	0.00e+00	0	43	0	389021696	19	4707
2026-01-02 08:56:10.29	87.42	25.17	-29.4	-31.9	14.6	0.00e+00	0	43	0	391118848	19	4776
2026-01-02 08:56:11.58	87.11	25.29	-29.5	-32.1	14.4	7.00e-07	0	43	0	393216000	19	4871
2026-01-02 08:56:12.30	86.93	25.36	-29.5	-32.1	14.5	1.50e-06	0	43	0	394264576	19	4848
2026-01-02 08:56:13.59	86.62	25.48	-29.5	-32.0	14.5	0.00e+00	0	43	0	397410304	19	4826
2026-01-02 08:56:14.30	86.45	25.55	-29.6	-32.3	14.4	0.00e+00	0	43	0	398458880	19	4909
2026-01-02 08:56:15.59	86.13	25.67	-29.8	-33.0	13.9	4.50e-06	0	43	0	400556032	19	5182
2026-01-02 08:56:16.31	85.95	25.73	-29.8	-33.0	13.9	3.00e-06	0	43	0	401604608	19	5165
2026-01-02 08:56:17.60	85.63	25.85	-30.0	-33.3	13.7	4.50e-06	0	43	0	404750336	19	5311
2026-01-02 08:56:18.34	85.44	25.92	-30.0	-33.1	13.5	7.60e-06	0	43	0	405798912	20	5110
2026-01-02 08:56:19.62	85.12	26.04	-30.1	-33.3	13.3	1.37e-05	0	43	0	407896064	20	5193
2026-01-02 08:56:20.35	84.94	26.11	-30.1	-33.3	13.3	2.05e-05	0	43	0	409993216	20	5179
2026-01-02 08:56:21.64	84.61	26.22	-30.4	-34.1	12.8	3.89e-05	0	43	0	412090368	20	5497
2026-01-02 08:56:22.37	84.42	26.29	-30.3	-33.9	12.9	5.41e-05	0	43	0	413138944	20	5436
2026-01-02 08:56:23.66	84.09	26.41	-30.1	-33.1	13.4	2.82e-05	0	43	0	416284672	20	5123
2026-01-02 08:56:24.39	83.90	26.47	-30.0	-32.9	13.6	7.60e-06	0	43	0	417333248	20	5028
2026-01-02 08:56:25.68	83.56	26.59	-29.9	-32.6	13.8	6.10e-06	0	43	0	419430400	20	4930
2026-01-02 08:56:26.40	83.37	26.65	-29.9	-32.8	13.7	4.50e-06	0	43	0	420478976	20	4980
2026-01-02 08:56:27.68	83.04	26.77	-30.1	-33.2	13.4	1.29e-05	0	43	0	423624704	20	5151
2026-01-02 08:56:28.40	82.84	26.83	-30.1	-33.4	13.3	1.44e-05	0	43	0	424673280	20	5211
2026-01-02 08:56:29.69	82.50	26.95	-30.2	-33.5	13.2	2.89e-05	0	43	0	426770432	20	5285
2026-01-02 08:56:30.41	82.31	27.01	-30.1	-33.4	13.3	1.67e-05	0	43	0	428867584	20	5214
2026-01-02 08:56:31.69	81.96	27.12	-30.2	-33.6	13.2	2.51e-05	0	43	0	430964736	20	5308
2026-01-02 08:56:32.41	81.77	27.18	-30.3	-33.7	13.1	2.67e-05	0	43	0	432013312	20	5349
2026-01-02 08:56:33.70	81.41	27.30	-30.5	-33.9	12.6	5.11e-05	0	43	0	435159040	21	5299
2026-01-02 08:56:34.42	81.22	27.36	-30.6	-34.1	12.5	1.02e-04	0	43	0	436207616	21	5397
2026-01-02 08:56:35.71	80.86	27.47	-30.5	-33.9	12.6	1.12e-04	0	43	0	438304768	21	5306
2026-01-02 08:56:36.43	80.66	27.53	-30.6	-34.1	12.5	1.05e-04	0	43	0	439353344	21	5391
2026-01-02 08:56:37.72	80.30	27.64	-30.6	-34.2	12.4	1.50e-04	0	43	0	442499072	21	5451
2026-01-02 08:56:38.44	80.10	27.70	-30.6	-34.0	12.6	1.42e-04	0	43	0	443547648	21	5353
2026-01-02 08:56:39.72	79.74	27.81	-30.5	-34.0	12.6	7.55e-05	0	43	0	445644800	21	5331
2026-01-02 08:56:40.45	79.53	27.87	-30.7	-34.4	12.3	1.52e-04	0	43	0	447741952	21	5513
2026-01-02 08:56:41.73	79.17	27.98	-30.5	-33.8	12.8	1.07e-04	0	43	0	449839104	21	5253
2026-01-02 08:56:42.45	78.96	28.03	-30.5	-33.9	12.6	7.70e-05	0	43	0	450887680	21	5301
2026-01-02 08:56:43.74	78.59	28.14	-30.8	-34.8	12.1	7.55e-05	0	43	0	454033408	21	5657
2026-01-02 08:56:44.46	78.38	28.20	-30.7	-34.5	12.3	2.21e-04	0	43	0	455081984	21	5556
2026-01-02 08:56:45.74	78.01	28.30	-30.6	-34.0	12.6	1.04e-04	0	43	0	457179136	21	5331
2026-01-02 08:56:46.46	77.80	28.36	-30.6	-34.1	12.5	9.30e-05	0	43	0	458227712	21	5395
2026-01-02 08:56:47.75	77.42	28.46	-30.5	-33.9	12.6	9.38e-05	0	43	0	461373440	21	5314
2026-01-02 08:56:48.47	77.21	28.52	-30.5	-33.9	12.7	9.46e-05	0	43	0	462422016	21	5298
2026-01-02 08:56:49.77	76.82	28.62	-30.7	-34.3	12.4	7.78e-05	0	43	0	464519168	21	5480
2026-01-02 08:56:50.49	76.61	28.68	-30.6	-33.9	12.7	1.32e-04	0	43	0	466616320	21	5318
2026-01-02 08:56:51.78	76.22	28.77	-30.5	-33.7	12.9	6.17e-05	0	43	0	468713472	21	5211
2026-01-02 08:56:52.49	76.01	28.83	-30.3	-33.3	13.1	3.89e-05	0	43	0	469762048	21	5079
2026-01-02 08:56:53.78	75.62	28.93	-30.4	-33.6	12.9	2.82e-05	0	43	0	471859200	21	5187
2026-01-02 08:56:54.50	75.40	28.98	-30.5	-33.7	12.9	4.11e-05	0	43	0	473956352	21	5203
2026-01-02 08:56:55.80	75.00	29.08	-30.6	-33.9	12.7	5.56e-05	0	43	0	476053504	21	5319
2026-01-02 08:56:56.51	74.79	29.13	-30.5	-33.7	12.8	6.71e-05	0	43	0	477102080	21	5214
2026-01-02 08:56:57.80	74.39	29.22	-30.4	-33.4	13.0	2.67e-05	0	43	0	480247808	21	5098
2026-01-02 08:56:58.51	74.17	29.27	-30.4	-33.4	13.0	2.89e-05	0	43	0	481296384	21	5112
2026-01-02 08:56:59.80	73.77	29.36	-30.5	-33.7	12.8	4.65e-05	0	43	0	483393536	21	5229
2026-01-02 08:57:00.55	73.53	29.42	-30.5	-33.8	12.8	4.19e-05	0	43	0	485490688	21	5252
2026-01-02 08:57:01.84	73.13	29.51	-30.5	-33.8	12.8	5.03e-05	0	43	0	487587840	21	5241
2026-01-02 08:57:02.56	72.90	29.56	-30.5	-33.8	12.8	5.11e-05	0	43	0	488636416	21	5249
2026-01-02 08:57:03.84	72.50	29.64	-30.5	-33.7	12.8	5.34e-05	0	43	0	490733568	21	5199
2026-01-02 08:57:04.56	72.27	29.69	-30.6	-34.0	12.6	7.47e-05	0	43	0	492830720	21	5347
2026-01-02 08:57:05.85	71.86	29.78	-30.5	-33.7	12.9	8.01e-05	0	43	0	494927872	21	5218
2026-01-02 08:57:06.57	71.63	29.82	-30.4	-33.6	12.9	3.58e-05	0	43	0	495976448	21	5176
2026-01-02 08:57:07.86	71.21	29.91	-30.5	-33.8	12.8	5.64e-05	0	43	0	499122176	21	5246
2026-01-02 08:57:08.58	70.98	29.95	-30.5	-33.8	12.8	6.10e-05	0	43	0	500170752	21	5275
2026-01-02 08:57:09.86	70.56	30.03	-30.5	-33.6	12.9	7.01e-05	0	43	0	502267904	21	5186
2026-01-02 08:57:10.57	70.33	30.08	-30.6	-34.0	12.6	6.63e-05	0	43	0	504365056	21	5340
2026-01-02 08:57:11.86	69.91	30.16	-30.8	-34.6	12.2	1.38e-04	0	43	0	506462208	21	5578
2026-01-02 08:57:12.58	69.68	30.20	-30.8	-34.7	12.2	1.92e-04	0	43	0	507510784	21	5623
2026-01-02 08:57:13.87	69.25	30.27	-30.9	-35.0	12.0	2.54e-04	0	43	0	509607936	21	5756
2026-01-02 08:57:14.60	69.01	30.32	-30.9	-35.1	11.9	3.09e-04	0	43	0	511705088	21	5783
2026-01-02 08:57:15.89	68.58	30.39	-31.1	-35.1	11.6	4.52e-04	0	43	0	513802240	22	5684
2026-01-02 08:57:16.61	68.34	30.43	-31.2	-35.3	11.5	7.92e-04	0	43	0	514850816	22	5782
2026-01-02 08:57:17.90	67.91	30.50	-30.9	-34.6	11.9	4.82e-04	0	43	0	517996544	22	5478
2026-01-02 08:57:18.61	67.68	30.54	-30.9	-34.5	12.0	3.84e-04	0	43	0	519045120	22	5416
2026-01-02 08:57:19.90	67.24	30.61	-30.8	-34.2	12.2	2.34e-04	0	43	0	521142272	22	5302
2026-01-02 08:57:20.61	67.00	30.65	-30.8	-34.1	12.2	2.28e-04	0	43	0	522190848	22	5266
2026-01-02 08:57:21.90	66.57	30.71	-31.0	-34.6	11.9	3.38e-04	0	44	0	525336576	22	5481
2026-01-02 08:57:22.61	66.33	30.75	-30.8	-34.3	12.1	3.55e-04	0	43	0	526385152	22	5342
2026-01-02 08:57:23.90	65.89	30.81	-30.8	-34.3	12.1	1.91e-04	0	43	0	528482304	22	5347
2026-01-02 08:57:24.62	65.64	30.85	-30.7	-34.0	12.4	1.86e-04	0	43	0	530579456	22	5233
2026-01-02 08:57:25.91	65.20	30.91	-30.9	-34.3	12.1	1.73e-04	0	43	0	532676608	22	5363
2026-01-02 08:57:26.63	64.95	30.94	-30.8	-34.1	12.3	2.26e-04	0	43	0	533725184	22	5276
2026-01-02 08:57:27.92	64.51	31.00	-30.7	-33.8	12.5	1.32e-04	0	43	0	536870912	22	5142
2026-01-02 08:57:28.64	64.26	31.03	-30.7	-33.7	12.5	1.27e-04	0	43	0	537919488	22	5127
2026-01-02 08:57:29.93	63.81	31.08	-30.7	-33.7	12.6	8.85e-05	0	43	0	540016640	22	5109
2026-01-02 08:57:30.65	63.56	31.11	-30.5	-33.3	12.8	6.94e-05	0	43	0	541065216	22	4963
2026-01-02 08:57:31.94	63.12	31.16	-30.4	-32.9	13.1	3.50e-05	0	43	0	544210944	22	4823
2026-01-02 08:57:32.65	62.87	31.19	-30.4	-33.1	13.0	2.89e-05	0	43	0	545259520	22	4873
2026-01-02 08:57:33.93	62.42	31.24	-30.5	-33.3	12.8	4.65e-05	0	43	0	547356672	22	4970
2026-01-02 08:57:34.66	62.17	31.27	-30.5	-33.2	13.0	6.17e-05	0	43	0	549453824	22	4920
2026-01-02 08:57:35.95	61.71	31.31	-30.7	-33.8	12.5	6.71e-05	0	43	0	551550976	22	5138
2026-01-02 08:57:36.67	61.46	31.34	-30.6	-33.4	12.7	7.70e-05	0	43	0	552599552	22	5005
2026-01-02 08:57:37.96	61.00	31.38	-30.7	-33.9	12.4	1.43e-04	0	43	0	554696704	22	5199
2026-01-02 08:57:38.68	60.75	31.40	-30.7	-33.7	12.6	1.36e-04	0	43	0	556793856	22	5116
2026-01-02 08:57:39.98	60.29	31.44	-30.8	-34.2	12.3	1.27e-04	0	43	0	558891008	22	5299
2026-01-02 08:57:40.70	60.03	31.47	-30.9	-34.5	12.0	3.26e-04	0	43	0	559939584	22	5425
2026-01-02 08:57:41.99	59.58	31.50	-30.8	-34.2	12.3	2.18e-04	0	43	0	563085312	22	5304
2026-01-02 08:57:42.73	59.31	31.52	-30.8	-34.1	12.3	2.12e-04	0	43	0	564133888	22	5258
2026-01-02 08:57:44.02	58.85	31.56	-30.9	-34.4	12.1	2.29e-04	0	43	0	566231040	22	5372
2026-01-02 08:57:44.74	58.60	31.57	-31.0	-34.6	12.0	2.89e-04	0	43	0	568328192	22	5447
2026-01-02 08:57:46.03	58.13	31.60	-31.1	-35.0	11.7	6.03e-04	0	43	0	570425344	22	5624
2026-01-02 08:57:46.74	57.88	31.62	-31.2	-35.2	11.5	6.90e-04	0	43	0	571473920	22	5740
2026-01-02 08:57:48.03	57.42	31.65	-31.3	-35.6	11.3	1.38e-03	0	43	0	573571072	22	5906
2026-01-02 08:57:48.75	57.16	31.66	-31.2	-35.3	11.4	1.16e-03	0	43	0	575668224	22	5768
2026-01-02 08:57:50.05	56.69	31.68	-31.2	-35.2	11.5	9.19e-04	0	43	0	577765376	22	5745
2026-01-02 08:57:50.76	56.44	31.70	-31.2	-35.3	11.5	8.77e-04	0	43	0	578813952	22	5795
2026-01-02 08:57:52.04	55.98	31.72	-31.2	-35.4	11.4	1.05e-03	0	43	0	581959680	22	5843
2026-01-02 08:57:52.76	55.72	31.73	-31.3	-35.6	11.3	1.06e-03	0	43	0	583008256	22	5921
2026-01-02 08:57:54.04	55.25	31.74	-31.3	-35.5	11.3	1.15e-03	0	43	0	585105408	22	5888
2026-01-02 08:57:54.76	54.99	31.75	-31.3	-35.6	11.3	1.09e-03	0	43	0	586153984	22	5892
2026-01-02 08:57:56.06	54.53	31.77	-31.3	-35.6	11.3	1.60e-03	0	43	0	589299712	22	5905
2026-01-02 08:57:56.78	54.26	31.77	-31.2	-35.4	11.4	1.01e-03	0	43	0	590348288	22	5820
2026-01-02 08:57:58.07	53.80	31.78	-31.2	-35.3	11.5	1.03e-03	0	43	0	592445440	22	5777
2026-01-02 08:57:58.79	53.54	31.79	-31.2	-35.4	11.4	9.28e-04	0	43	0	594542592	22	5838
2026-01-02 08:58:00.08	53.07	31.80	-31.1	-35.0	11.7	6.38e-04	0	43	0	596639744	22	5635
2026-01-02 08:58:00.80	52.81	31.80	-31.0	-34.8	11.8	4.81e-04	0	43	0	597688320	22	5540
2026-01-02 08:58:02.08	52.35	31.80	-31.0	-34.8	11.9	5.29e-04	0	43	0	600834048	22	5538
2026-01-02 08:58:02.81	52.08	31.80	-30.9	-34.5	12.0	3.90e-04	0	43	0	601882624	22	5426
2026-01-02 08:58:04.09	51.62	31.80	-30.8	-34.1	12.3	2.08e-04	0	43	0	603979776	22	5261
2026-01-02 08:58:04.83	51.35	31.80	-30.8	-34.0	12.4	1.56e-04	0	43	0	606076928	22	5207
2026-01-02 08:58:06.12	50.88	31.80	-30.8	-34.0	12.3	1.77e-04	0	43	0	608174080	22	5234
2026-01-02 08:58:06.83	50.63	31.80	-30.8	-34.0	12.4	1.54e-04	0	43	0	609222656	22	5205
2026-01-02 08:58:08.12	50.16	31.79	-30.9	-34.5	12.0	3.26e-04	0	43	0	611319808	22	5418
2026-01-02 08:58:08.84	49.90	31.79	-30.9	-34.4	12.1	3.05e-04	0	43	0	613416960	22	5382
2026-01-02 08:58:10.13	49.43	31.78	-31.1	-35.1	11.6	6.54e-04	0	43	0	615514112	22	5705
2026-01-02 08:58:10.85	49.17	31.77	-31.1	-34.9	11.8	5.99e-04	0	43	0	616562688	22	5576
2026-01-02 08:58:12.13	48.71	31.76	-31.2	-35.4	11.4	9.90e-04	0	43	0	619708416	22	5818
2026-01-02 08:58:12.85	48.45	31.75	-31.1	-34.9	11.7	9.90e-04	0	43	0	620756992	22	5607
2026-01-02 08:58:14.14	47.98	31.73	-31.0	-34.8	11.8	5.03e-04	0	43	0	622854144	22	5544
2026-01-02 08:58:14.86	47.72	31.72	-31.0	-34.9	11.7	6.64e-04	0	43	0	623902720	22	5582
2026-01-02 08:58:16.15	47.26	31.71	-31.2	-35.2	11.5	7.96e-04	0	43	0	627048448	22	5752
2026-01-02 08:58:16.86	47.00	31.69	-31.1	-34.9	11.7	6.23e-04	0	43	0	628097024	22	5596
2026-01-02 08:58:18.15	46.54	31.67	-31.3	-35.5	11.3	1.30e-03	0	43	0	630194176	22	5879
2026-01-02 08:58:18.87	46.28	31.66	-31.2	-35.3	11.5	1.01e-03	0	43	0	632291328	22	5766
2026-01-02 08:58:20.16	45.82	31.63	-31.0	-34.6	11.9	5.99e-04	0	44	0	634388480	22	5458
2026-01-02 08:58:20.88	45.56	31.62	-31.0	-34.7	11.9	4.52e-04	0	43	0	635437056	22	5509
2026-01-02 08:58:22.17	45.10	31.59	-31.0	-34.6	12.0	4.43e-04	0	43	0	638582784	22	5464
2026-01-02 08:58:22.88	44.85	31.57	-30.9	-34.4	12.1	4.03e-04	0	43	0	639631360	22	5369
2026-01-02 08:58:24.17	44.39	31.54	-31.0	-34.6	12.0	2.70e-04	0	43	0	641728512	22	5459
2026-01-02 08:58:24.89	44.13	31.52	-31.0	-34.7	11.8	4.48e-04	0	43	0	642777088	22	5526
2026-01-02 08:58:26.18	43.67	31.48	-31.0	-34.8	11.8	7.09e-04	0	43	0	645922816	22	5562
2026-01-02 08:58:26.90	43.42	31.46	-30.9	-34.4	12.0	3.52e-04	0	43	0	646971392	22	5405
2026-01-02 08:58:28.19	42.96	31.42	-30.8	-34.1	12.4	1.73e-04	0	43	0	649068544	22	5243
2026-01-02 08:58:28.91	42.71	31.40	-30.8	-34.2	12.3	1.68e-04	0	43	0	651165696	22	5290
2026-01-02 08:58:30.20	42.25	31.36	-31.0	-34.8	11.8	3.71e-04	0	43	0	653262848	22	5556
2026-01-02 08:58:30.92	42.00	31.33	-31.1	-35.0	11.7	5.54e-04	0	43	0	654311424	22	5622
2026-01-02 08:58:32.21	41.55	31.29	-31.2	-35.3	11.4	1.07e-03	0	43	0	656408576	22	5800
2026-01-02 08:58:32.93	41.29	31.26	-31.1	-35.0	11.6	9.20e-04	0	43	0	658505728	22	5640
2026-01-02 08:58:34.22	40.84	31.21	-30.9	-34.3	12.1	3.90e-04	0	43	0	660602880	22	5349
2026-01-02 08:58:34.93	40.60	31.19	-30.9	-34.3	12.2	2.24e-04	0	43	0	661651456	22	5345
2026-01-02 08:58:36.22	40.15	31.14	-30.8	-34.1	12.2	2.23e-04	0	43	0	664797184	22	5279
2026-01-02 08:58:36.94	39.90	31.11	-30.8	-34.2	12.2	1.99e-04	0	43	0	665845760	22	5293
2026-01-02 08:58:38.22	39.45	31.05	-30.9	-34.5	12.0	3.34e-04	0	43	0	667942912	22	5412
2026-01-02 08:58:38.94	39.21	31.02	-31.0	-34.8	11.8	3.83e-04	0	43	0	670040064	22	5559
2026-01-02 08:58:40.23	38.76	30.97	-31.3	-35.6	11.2	9.35e-04	0	43	0	672137216	22	5906
2026-01-02 08:58:40.94	38.52	30.93	-31.2	-35.4	11.4	1.02e-03	0	43	0	673185792	22	5835
2026-01-02 08:58:42.23	38.08	30.87	-31.1	-35.1	11.6	7.72e-04	0	43	0	675282944	22	5689
2026-01-02 08:58:42.94	37.83	30.84	-31.1	-35.2	11.5	7.34e-04	0	43	0	677380096	22	5731
2026-01-02 08:58:44.23	37.39	30.78	-31.1	-35.0	11.6	9.63e-04	0	43	0	679477248	22	5667
2026-01-02 08:58:44.94	37.15	30.74	-31.0	-34.8	11.8	5.63e-04	0	43	0	680525824	22	5552
2026-01-02 08:58:46.23	36.72	30.68	-31.0	-34.9	11.8	4.99e-04	0	43	0	683671552	22	5585
2026-01-02 08:58:46.95	36.48	30.64	-31.1	-35.1	11.6	5.61e-04	0	43	0	684720128	22	5711
2026-01-02 08:58:48.25	36.04	30.57	-31.3	-35.6	11.2	9.65e-04	0	43	0	686817280	22	5904
2026-01-02 08:58:48.96	35.80	30.54	-31.4	-36.2	10.7	1.87e-03	0	43	0	687865856	22	6196
2026-01-02 08:58:50.25	35.37	30.47	-31.5	-35.9	10.6	2.46e-03	0	43	0	691011584	23	5973
2026-01-02 08:58:50.97	35.13	30.43	-31.6	-36.2	10.4	4.22e-03	0	43	0	692060160	23	6131
2026-01-02 08:58:52.26	34.70	30.35	-31.6	-36.1	10.4	4.60e-03	0	43	0	694157312	23	6087
2026-01-02 08:58:52.97	34.47	30.31	-31.6	-36.2	10.3	4.64e-03	0	43	0	696254464	23	6123
2026-01-02 08:58:54.27	34.04	30.24	-31.5	-36.0	10.5	4.76e-03	0	43	0	698351616	23	6009
2026-01-02 08:58:55.00	33.80	30.19	-31.6	-36.3	10.3	4.34e-03	0	43	0	699400192	23	6153
2026-01-02 08:58:56.29	33.38	30.11	-31.7	-36.6	10.0	8.66e-03	0	43	0	702545920	23	6345
2026-01-02 08:58:57.00	33.15	30.07	-31.8	-36.9	9.7	7.76e-03	0	43	0	703594496	23	6506
2026-01-02 08:58:58.29	32.73	29.99	-31.9	-37.0	9.3	2.07e-02	0	43	0	705691648	24	6435
2026-01-02 08:58:59.01	32.50	29.95	-31.9	-36.8	9.5	1.72e-02	0	43	0	706740224	24	6321
2026-01-02 08:59:00.30	32.09	29.86	-31.7	-36.1	10.0	9.77e-03	0	43	0	709885952	24	5992
2026-01-02 08:59:01.02	31.85	29.82	-31.6	-35.8	10.2	7.02e-03	0	43	0	710934528	24	5827
2026-01-02 08:59:02.32	31.44	29.73	-31.5	-35.3	10.6	3.92e-03	0	43	0	713031680	24	5603
2026-01-02 08:59:03.04	31.21	29.68	-31.5	-35.4	10.6	3.38e-03	0	43	0	715128832	24	5646
2026-01-02 08:59:04.33	30.80	29.60	-31.5	-35.5	10.5	4.57e-03	0	43	0	717225984	24	5668
2026-01-02 08:59:05.05	30.58	29.55	-31.5	-35.5	10.5	4.01e-03	0	43	0	718274560	24	5682
2026-01-02 08:59:06.34	30.17	29.46	-31.6	-35.8	10.2	8.28e-03	0	43	0	720371712	24	5828
2026-01-02 08:59:07.07	29.94	29.41	-31.4	-35.0	10.8	3.86e-03	0	43	0	722468864	24	5485
2026-01-02 08:59:08.36	29.54	29.32	-31.2	-34.8	11.3	1.68e-03	0	43	0	724566016	23	5489
2026-01-02 08:59:09.09	29.32	29.27	-31.0	-34.2	11.8	8.57e-04	0	44	0	725614592	23	5207
2026-01-02 08:59:10.39	28.92	29.17	-30.8	-34.2	12.1	3.07e-04	0	43	0	728760320	22	5326
2026-01-02 08:59:11.11	28.70	29.12	-30.7	-34.0	12.2	1.72e-04	0	43	0	729808896	22	5229
2026-01-02 08:59:12.40	28.30	29.03	-30.9	-34.3	12.1	2.48e-04	0	43	0	731906048	22	5370
2026-01-02 08:59:13.12	28.09	28.97	-30.9	-34.4	12.0	2.85e-04	0	43	0	734003200	22	5394
2026-01-02 08:59:14.40	27.70	28.88	-30.9	-34.4	12.0	4.31e-04	0	43	0	736100352	22	5397
2026-01-02 08:59:15.13	27.48	28.82	-30.7	-34.0	12.2	2.82e-04	0	43	0	737148928	22	5254
2026-01-02 08:59:16.43	27.09	28.72	-30.8	-34.2	12.1	2.46e-04	0	43	0	740294656	22	5306
2026-01-02 08:59:17.15	26.88	28.67	-30.8	-34.1	12.1	2.49e-04	0	43	0	741343232	22	5292
2026-01-02 08:59:18.44	26.49	28.57	-30.8	-34.3	12.0	3.31e-04	0	43	0	743440384	22	5348
2026-01-02 08:59:19.16	26.28	28.51	-30.8	-34.2	12.1	2.53e-04	0	43	0	744488960	22	5331
2026-01-02 08:59:20.45	25.90	28.41	-30.9	-34.5	11.9	3.17e-04	0	43	0	747634688	22	5435
2026-01-02 08:59:21.17	25.69	28.35	-30.8	-34.3	12.0	3.32e-04	0	43	0	748683264	22	5366
2026-01-02 08:59:22.46	25.32	28.25	-30.9	-34.6	11.8	4.40e-04	0	43	0	750780416	22	5488
2026-01-02 08:59:23.18	25.11	28.19	-30.9	-34.5	11.9	4.53e-04	0	43	0	752877568	22	5460
2026-01-02 08:59:24.46	24.74	28.09	-31.0	-34.7	11.7	6.60e-04	0	44	0	754974720	22	5557
2026-01-02 08:59:25.18	24.53	28.03	-31.0	-34.8	11.6	5.51e-04	0	43	0	756023296	22	5572
2026-01-02 08:59:26.48	24.16	27.92	-31.1	-35.1	11.4	7.51e-04	0	43	0	759169024	22	5733
2026-01-02 08:59:27.20	23.96	27.86	-31.0	-35.0	11.5	1.04e-03	0	43	0	760217600	22	5669
2026-01-02 08:59:28.48	23.60	27.75	-30.8	-34.3	12.0	3.68e-04	0	43	0	762314752	22	5357
2026-01-02 08:59:29.19	23.40	27.70	-30.6	-33.6	12.4	2.63e-04	0	43	0	763363328	22	5109
2026-01-02 08:59:30.50	23.04	27.58	-30.3	-32.9	12.9	7.17e-05	0	43	0	766509056	22	4822
2026-01-02 08:59:31.22	22.84	27.52	-30.2	-33.0	13.2	3.28e-05	0	43	0	767557632	21	4974
2026-01-02 08:59:32.51	22.48	27.41	-30.3	-33.2	13.0	3.58e-05	0	43	0	769654784	21	5060
2026-01-02 08:59:33.23	22.28	27.35	-30.4	-33.6	12.8	4.19e-05	0	43	0	771751936	21	5196
2026-01-02 08:59:34.52	21.93	27.24	-30.5	-34.0	12.5	7.40e-05	0	43	0	773849088	21	5347
2026-01-02 08:59:35.23	21.74	27.18	-30.5	-34.0	12.5	1.21e-04	0	43	0	774897664	21	5340
2026-01-02 08:59:36.52	21.39	27.07	-30.5	-33.7	12.6	9.99e-05	0	43	0	778043392	21	5245
2026-01-02 08:59:37.25	21.20	27.00	-30.4	-33.5	12.8	6.79e-05	0	43	0	779091968	21	5149
2026-01-02 08:59:38.54	20.85	26.89	-30.4	-33.5	12.8	5.72e-05	0	43	0	781189120	21	5151
2026-01-02 08:59:39.26	20.66	26.83	-30.4	-33.5	12.9	5.18e-05	0	43	0	782237696	21	5145
2026-01-02 08:59:40.55	20.32	26.71	-30.3	-33.3	13.0	3.28e-05	0	43	0	785383424	21	5084
2026-01-02 08:59:41.28	20.13	26.65	-30.3	-33.4	12.9	4.11e-05	0	43	0	786432000	21	5110
2026-01-02 08:59:42.57	19.79	26.53	-30.2	-33.1	13.0	3.66e-05	0	43	0	788529152	21	5029
2026-01-02 08:59:43.29	19.61	26.47	-30.1	-32.9	13.2	2.13e-05	0	43	0	790626304	21	4920
2026-01-02 08:59:44.58	19.27	26.35	-30.0	-32.5	13.5	1.22e-05	0	43	0	792723456	21	4784
2026-01-02 08:59:45.29	19.09	26.29	-29.9	-32.3	13.6	9.10e-06	0	43	0	793772032	21	4731
2026-01-02 08:59:46.58	18.76	26.17	-29.9	-32.2	13.7	5.30e-06	0	43	0	795869184	21	4687
2026-01-02 08:59:47.30	18.58	26.10	-29.8	-32.3	13.9	4.50e-06	0	43	0	797966336	20	4843
2026-01-02 08:59:48.59	18.26	25.99	-29.6	-31.9	14.2	7.00e-07	0	43	0	800063488	20	4684
2026-01-02 08:59:49.30	18.08	25.92	-29.5	-31.7	14.3	1.50e-06	0	44	0	801112064	20	4640
2026-01-02 08:59:50.60	17.76	25.80	-29.6	-31.8	14.2	0.00e+00	0	43	0	804257792	20	4672
2026-01-02 08:59:51.31	17.58	25.73	-29.5	-31.7	14.3	1.50e-06	0	43	0	805306368	20	4617
2026-01-02 08:59:52.60	17.26	25.62	-29.3	-31.0	14.7	0.00e+00	0	43	0	807403520	20	4412
2026-01-02 08:59:53.32	17.09	25.55	-29.3	-31.5	14.8	0.00e+00	0	43	0	808452096	19	4650
2026-01-02 08:59:54.60	16.78	25.43	-29.1	-31.2	15.0	0.00e+00	0	43	0	811597824	19	4548
2026-01-02 08:59:55.31	16.60	25.36	-29.1	-31.0	15.1	0.00e+00	0	43	0	812646400	19	4491
2026-01-02 08:59:56.60	16.29	25.24	-29.0	-30.7	15.2	0.00e+00	0	43	0	814743552	19	4418
2026-01-02 08:59:57.32	16.12	25.18	-29.0	-30.8	15.3	0.00e+00	0	43	0	816840704	19	4421
2026-01-02 08:59:58.62	15.81	25.05	-29.1	-31.0	15.1	0.00e+00	0	43	0	818937856	19	4491
2026-01-02 08:59:59.34	15.64	24.99	-29.0	-30.8	15.2	0.00e+00	0	43	0	819986432	19	4425
2026-01-02 09:00:00.63	15.34	24.86	-28.8	-30.8	15.5	0.00e+00	0	43	0	823132160	18	4530
2026-01-02 09:00:01.34	15.18	24.80	-28.7	-30.7	15.6	0.00e+00	0	43	0	824180736	18	4496
2026-01-02 09:00:02.63	14.88	24.67	-28.8	-30.8	15.5	0.00e+00	0	43	0	826277888	18	4528
2026-01-02 09:00:03.36	14.71	24.61	-28.8	-30.8	15.5	0.00e+00	0	43	0	827326464	18	4536
2026-01-02 09:00:04.65	14.42	24.48	-28.8	-30.8	15.4	0.00e+00	0	43	0	830472192	18	4546
2026-01-02 09:00:05.37	14.25	24.41	-28.9	-31.1	15.3	0.00e+00	0	43	0	831520768	18	4633
2026-01-02 09:00:06.65	13.96	24.29	-28.7	-30.7	15.6	0.00e+00	0	43	0	833617920	18	4500
2026-01-02 09:00:07.38	13.80	24.22	-28.6	-30.3	15.8	0.00e+00	0	43	0	835715072	18	4392
2026-01-02 09:00:08.67	13.51	24.10	-28.4	-29.8	16.1	0.00e+00	0	43	0	837812224	18	4238
2026-01-02 09:00:09.38	13.35	24.03	-28.4	-29.7	16.1	0.00e+00	0	43	0	838860800	18	4228
2026-01-02 09:00:10.67	13.07	23.91	-28.4	-29.9	16.0	0.00e+00	0	43	0	842006528	18	4261
2026-01-02 09:00:11.41	12.91	23.84	-28.4	-29.8	16.1	0.00e+00	0	43	0	843055104	18	4253
2026-01-02 09:00:12.70	12.63	23.71	-28.1	-29.6	16.4	0.00e+00	0	43	0	845152256	17	4285
2026-01-02 09:00:13.41	12.47	23.64	-28.1	-29.7	16.4	0.00e+00	0	43	0	846200832	17	4311
2026-01-02 09:00:14.70	12.20	23.52	-28.2	-29.8	16.3	0.00e+00	0	43	0	849346560	17	4347
2026-01-02 09:00:15.42	12.04	23.45	-28.2	-29.8	16.3	0.00e+00	0	43	0	850395136	17	4351
2026-01-02 09:00:16.71	11.77	23.33	-28.2	-29.8	16.3	0.00e+00	0	43	0	852492288	17	4367
2026-01-02 09:00:17.44	11.61	23.26	-28.2	-29.9	16.3	0.00e+00	0	43	0	854589440	17	4383
2026-01-02 09:00:18.73	11.34	23.13	-28.3	-30.2	16.1	0.00e+00	0	43	0	856686592	17	4464
2026-01-02 09:00:19.46	11.19	23.06	-28.3	-30.2	16.1	0.00e+00	0	43	0	857735168	17	4460
2026-01-02 09:00:20.74	10.93	22.94	-28.3	-30.0	16.2	0.00e+00	0	43	0	860880896	17	4423
2026-01-02 09:00:21.46	10.78	22.87	-28.4	-30.4	16.0	0.00e+00	0	43	0	861929472	17	4519
2026-01-02 09:00:22.76	10.51	22.74	-28.4	-30.4	15.9	0.00e+00	0	43	0	864026624	17	4530
2026-01-02 09:00:23.48	10.37	22.67	-28.4	-30.3	16.0	0.00e+00	0	44	0	865075200	17	4513
2026-01-02 09:00:24.77	10.11	22.55	-28.6	-30.9	15.6	0.00e+00	0	43	0	868220928	17	4690
2026-01-02 09:00:25.49	9.96	22.48	-28.6	-30.8	15.7	0.00e+00	0	43	0	869269504	17	4671
2026-01-02 09:00:26.79	9.70	22.35	-28.8	-31.3	15.4	0.00e+00	0	43	0	871366656	17	4831
2026-01-02 09:00:27.50	9.56	22.28	-28.7	-31.1	15.5	0.00e+00	0	43	0	873463808	17	4756
2026-01-02 09:00:28.79	9.31	22.16	-28.8	-31.4	15.3	0.00e+00	0	43	0	875560960	17	4849
2026-01-02 09:00:29.51	9.17	22.09	-28.8	-31.5	15.2	0.00e+00	0	43	0	876609536	17	4885
2026-01-02 09:00:30.79	8.92	21.97	-28.7	-31.2	15.4	0.00e+00	0	43	0	879755264	17	4799
2026-01-02 09:00:31.51	8.78	21.90	-28.7	-31.0	15.5	0.00e+00	0	43	0	880803840	17	4729
2026-01-02 09:00:32.80	8.54	21.77	-28.7	-31.1	15.5	0.00e+00	0	43	0	882900992	17	4770
2026-01-02 09:00:33.51	8.40	21.70	-28.7	-31.2	15.4	0.00e+00	0	43	0	883949568	17	4779
2026-01-02 09:00:34.80	8.16	21.58	-28.8	-31.3	15.3	0.00e+00	0	43	0	887095296	17	4840
2026-01-02 09:00:35.51	8.02	21.51	-28.9	-31.7	15.1	0.00e+00	0	43	0	888143872	17	4973
2026-01-02 09:00:36.80	7.78	21.39	-28.9	-31.2	15.1	0.00e+00	0	43	0	890241024	18	4669
2026-01-02 09:00:37.53	7.65	21.32	-28.9	-31.1	15.2	0.00e+00	0	43	0	892338176	18	4656
2026-01-02 09:00:38.81	7.41	21.19	-29.0	-31.3	15.1	0.00e+00	0	43	0	894435328	18	4719
2026-01-02 09:00:39.53	7.28	21.12	-29.0	-31.3	15.1	0.00e+00	0	43	0	895483904	18	4719
2026-01-02 09:00:40.82	7.04	21.00	-29.0	-31.5	15.0	0.00e+00	0	43	0	897581056	18	4767
2026-01-02 09:00:41.53	6.91	20.93	-29.0	-31.5	14.9	0.00e+00	0	43	0	899678208	18	4790
2026-01-02 09:00:42.82	6.68	20.81	-29.1	-31.5	14.9	7.00e-07	0	43	0	901775360	18	4793
2026-01-02 09:00:43.54	6.55	20.74	-29.0	-31.4	15.0	1.50e-06	0	43	0	902823936	18	4759
2026-01-02 09:00:44.83	6.32	20.61	-29.1	-31.7	14.8	0.00e+00	0	43	0	905969664	18	4830
2026-01-02 09:00:45.56	6.20	20.54	-29.1	-31.7	14.8	0.00e+00	0	43	0	907018240	18	4863
2026-01-02 09:00:46.84	5.97	20.42	-29.1	-31.7	14.8	7.00e-07	0	43	0	909115392	18	4859
2026-01-02 09:00:47.56	5.85	20.35	-29.2	-31.8	14.7	0.00e+00	0	43	0	910163968	18	4882
2026-01-02 09:00:48.85	5.62	20.23	-29.3	-32.1	14.5	7.00e-07	0	43	0	913309696	18	4991
2026-01-02 09:00:49.56	5.50	20.16	-29.2	-32.0	14.6	7.00e-07	0	43	0	914358272	18	4937
2026-01-02 09:00:50.85	5.28	20.04	-29.2	-31.9	14.6	1.50e-06	0	43	0	916455424	18	4919
2026-01-02 09:00:51.57	5.16	19.97	-29.1	-31.8	14.7	0.00e+00	0	43	0	918552576	18	4876
2026-01-02 09:00:52.85	4.94	19.85	-29.3	-32.2	14.5	0.00e+00	0	43	0	920649728	18	5011
2026-01-02 09:00:53.57	4.82	19.78	-29.2	-31.9	14.7	1.50e-06	0	43	0	921698304	18	4914
2026-01-02 09:00:54.86	4.61	19.65	-29.2	-32.0	14.6	0.00e+00	0	43	0	924844032	18	4950
2026-01-02 09:00:55.58	4.49	19.59	-29.3	-32.3	14.4	7.00e-07	0	43	0	925892608	18	5073
2026-01-02 09:00:56.86	4.28	19.46	-29.3	-32.3	14.4	0.00e+00	0	44	0	927989760	18	5062
2026-01-02 09:00:57.58	4.16	19.40	-29.4	-32.5	14.3	1.50e-06	0	43	0	929038336	18	5134
2026-01-02 09:00:58.87	3.95	19.27	-29.4	-32.6	14.2	7.00e-07	0	43	0	932184064	18	5159
2026-01-02 09:00:59.58	3.83	19.21	-29.6	-32.5	13.9	2.20e-06	0	43	0	933232640	19	5020
2026-01-02 09:01:00.87	3.63	19.09	-29.7	-32.8	13.8	7.00e-07	0	43	0	935329792	19	5125
2026-01-02 09:01:01.59	3.51	19.02	-29.7	-32.9	13.7	9.10e-06	0	43	0	937426944	19	5158
2026-01-02 09:01:02.89	3.31	18.89	-29.9	-33.4	13.4	9.10e-06	0	43	0	939524096	19	5363
2026-01-02 09:01:03.61	3.19	18.83	-29.9	-33.3	13.4	1.37e-05	0	43	0	940572672	19	5338
2026-01-02 09:01:04.89	2.99	18.71	-30.1	-33.3	13.0	2.28e-05	0	43	0	942669824	20	5247
2026-01-02 09:01:05.61	2.88	18.64	-30.1	-33.5	12.8	4.95e-05	0	43	0	944766976	20	5322
2026-01-02 09:01:06.89	2.68	18.52	-30.1	-33.5	12.9	6.79e-05	0	43	0	946864128	20	5290
2026-01-02 09:01:07.61	2.57	18.45	-30.3	-33.9	12.6	4.65e-05	0	43	0	947912704	20	5477
2026-01-02 09:01:08.90	2.38	18.33	-30.1	-33.3	12.9	6.40e-05	0	43	0	951058432	20	5243
2026-01-02 09:01:09.61	2.27	18.27	-30.1	-33.4	12.9	3.12e-05	0	43	0	952107008	20	5258
2026-01-02 09:01:10.89	2.08	18.15	-30.1	-33.5	12.8	4.57e-05	0	43	0	954204160	20	5331
2026-01-02 09:01:11.60	1.97	18.08	-30.0	-33.3	13.0	4.57e-05	0	43	0	955252736	20	5224
2026-01-02 09:01:12.89	1.78	17.96	-30.0	-33.2	13.0	3.35e-05	0	43	0	958398464	20	5213
2026-01-02 09:01:13.61	1.67	17.89	-30.0	-33.3	13.0	4.27e-05	0	43	0	959447040	20	5236
2026-01-02 09:01:14.90	1.48	17.77	-30.1	-33.3	13.0	4.04e-05	0	43	0	961544192	20	5259
2026-01-02 09:01:15.62	1.38	17.71	-30.2	-33.6	12.7	5.41e-05	0	43	0	963641344	20	5367
2026-01-02 09:01:16.91	1.19	17.59	-30.1	-33.5	12.8	5.64e-05	0	43	0	965738496	20	5312
2026-01-02 09:01:17.63	1.09	17.52	-30.1	-33.6	12.8	4.65e-05	0	43	0	966787072	20	5364
2026-01-02 09:01:18.92	0.90	17.40	-30.2	-33.8	12.6	7.32e-05	0	43	0	969932800	20	5451
2026-01-02 09:01:19.63	0.80	17.34	-30.3	-34.1	12.4	1.18e-04	0	44	0	970981376	20	5575
2026-01-02 09:01:20.92	0.62	17.22	-30.3	-33.9	12.5	1.28e-04	0	43	0	973078528	20	5483
2026-01-02 09:01:21.64	0.52	17.16	-30.4	-34.4	12.2	1.65e-04	0	44	0	974127104	20	5697
2026-01-02 09:01:22.92	0.34	17.04	-30.2	-33.9	12.5	1.70e-04	0	43	0	977272832	20	5473
2026-01-02 09:01:23.64	0.24	16.97	-30.2	-33.6	12.6	1.07e-04	0	43	0	978321408	20	5378
2026-01-02 09:01:24.93	0.06	16.86	-30.1	-33.5	12.8	7.40e-05	0	43	0	980418560	20	5317
2026-01-02 09:01:25.64	359.96	16.79	-30.1	-33.5	12.8	5.79e-05	0	43	0	982515712	20	5324
2026-01-02 09:01:26.93	359.79	16.67	-30.1	-33.5	12.7	7.93e-05	0	43	0	984612864	20	5328
2026-01-02 09:01:27.66	359.69	16.61	-30.1	-33.5	12.7	7.17e-05	0	43	0	985661440	20	5336
2026-01-02 09:01:28.95	359.51	16.49	-30.2	-33.8	12.5	9.46e-05	0	43	0	987758592	20	5466
2026-01-02 09:01:29.67	359.42	16.43	-30.2	-33.8	12.6	1.07e-04	0	43	0	989855744	20	5429
2026-01-02 09:01:30.96	359.25	16.31	-30.3	-34.1	12.3	1.47e-04	0	43	0	991952896	20	5566
2026-01-02 09:01:31.68	359.15	16.25	-30.3	-34.0	12.4	1.51e-04	0	43	0	993001472	20	5537
2026-01-02 09:01:32.97	358.98	16.13	-30.4	-34.3	12.1	1.67e-04	0	43	0	996147200	20	5680
2026-01-02 09:01:33.69	358.89	16.07	-30.3	-34.2	12.2	2.09e-04	0	43	0	997195776	20	5628
2026-01-02 09:01:34.98	358.72	15.95	-30.4	-34.6	11.9	3.70e-04	0	43	0	999292928	20	5791
2026-01-02 09:01:35.69	358.63	15.89	-30.3	-34.2	12.2	2.78e-04	0	43	0	1001390080	20	5606
2026-01-02 09:01:36.99	358.46	15.77	-30.3	-34.1	12.3	1.67e-04	0	43	0	1003487232	20	5579
2026-01-02 09:01:37.71	358.37	15.71	-30.3	-34.1	12.3	1.76e-04	0	43	0	1004535808	20	5560
2026-01-02 09:01:39.00	358.21	15.60	-30.2	-33.8	12.5	1.22e-04	0	43	0	1006632960	20	5437
2026-01-02 09:01:39.72	358.12	15.53	-30.2	-33.7	12.5	1.25e-04	0	44	0	1008730112	20	5420
2026-01-02 09:01:41.00	357.96	15.42	-30.2	-33.9	12.3	1.44e-04	0	43	0	1010827264	20	5515
2026-01-02 09:01:41.72	357.87	15.36	-30.3	-34.0	12.3	1.70e-04	0	43	0	1011875840	20	5541
2026-01-02 09:01:43.01	357.71	15.24	-30.1	-33.6	12.6	1.23e-04	0	43	0	1015021568	20	5392
2026-01-02 09:01:43.73	357.62	15.18	-30.1	-33.6	12.6	9.30e-05	0	43	0	1016070144	20	5383
2026-01-02 09:01:45.01	357.46	15.07	-30.2	-33.8	12.5	1.43e-04	0	43	0	1018167296	20	5444
2026-01-02 09:01:45.73	357.38	15.00	-30.2	-33.7	12.5	1.04e-04	0	43	0	1020264448	20	5423
2026-01-02 09:01:47.02	357.22	14.89	-30.2	-33.9	12.3	1.36e-04	0	43	0	1022361600	20	5522
2026-01-02 09:01:47.74	357.13	14.83	-30.2	-33.8	12.5	1.49e-04	0	43	0	1023410176	20	5441
2026-01-02 09:01:49.03	356.98	14.72	-30.2	-34.0	12.3	1.43e-04	0	43	0	1025507328	20	5549
2026-01-02 09:01:49.74	356.90	14.66	-30.3	-34.2	12.2	1.91e-04	0	43	0	1027604480	20	5619
2026-01-02 09:01:51.03	356.74	14.55	-30.2	-33.8	12.4	1.34e-04	0	43	0	1029701632	20	5465
2026-01-02 09:01:51.75	356.66	14.48	-30.1	-33.6	12.5	1.23e-04	0	43	0	1030750208	20	5387
2026-01-02 09:01:53.04	356.51	14.37	-30.1	-33.5	12.6	8.62e-05	0	43	0	1033895936	20	5345
2026-01-02 09:01:53.75	356.43	14.31	-30.1	-33.6	12.5	9.76e-05	0	43	0	1034944512	20	5382
2026-01-02 09:01:55.05	356.28	14.20	-30.1	-33.7	12.4	1.17e-04	0	43	0	1037041664	20	5447
2026-01-02 09:01:55.77	356.20	14.14	-30.3	-34.1	12.2	1.97e-04	0	43	0	1038090240	20	5591
2026-01-02 09:01:57.05	356.05	14.03	-30.2	-33.9	12.3	1.75e-04	0	43	0	1041235968	20	5498
2026-01-02 09:01:57.77	355.97	13.97	-30.2	-33.9	12.3	1.56e-04	0	43	0	1042284544	20	5493
2026-01-02 09:01:59.06	355.82	13.86	-30.2	-33.8	12.2	2.06e-04	0	43	0	1044381696	20	5491
2026-01-02 09:01:59.77	355.75	13.80	-30.2	-34.1	12.2	2.03e-04	0	43	0	1046478848	20	5582
2026-01-02 09:02:01.06	355.60	13.69	-30.3	-34.2	12.1	2.69e-04	0	43	0	1048576000	20	5660
2026-01-02 09:02:01.77	355.52	13.63	-30.4	-34.5	11.9	3.25e-04	0	43	0	1049624576	20	5769
2026-01-02 09:02:03.06	355.38	13.52	-30.3	-34.3	12.0	3.44e-04	0	43	0	1051721728	20	5691
2026-01-02 09:02:03.78	355.30	13.46	-30.4	-34.6	11.8	3.55e-04	0	43	0	1053818880	20	5826
2026-01-02 09:02:05.07	355.16	13.35	-30.4	-34.0	11.8	5.89e-04	0	43	0	1055916032	21	5456
2026-01-02 09:02:05.79	355.09	13.29	-30.4	-34.0	11.8	4.23e-04	0	43	0	1056964608	21	5459
2026-01-02 09:02:07.08	354.95	13.19	-30.5	-34.3	11.6	8.23e-04	0	43	0	1060110336	21	5575
2026-01-02 09:02:07.81	354.87	13.13	-30.4	-34.0	11.8	5.65e-04	0	43	0	1061158912	21	5442
2026-01-02 09:02:09.10	354.73	13.02	-30.4	-34.0	11.8	4.32e-04	0	43	0	1063256064	21	5446
2026-01-02 09:02:09.83	354.66	12.96	-30.3	-33.7	12.0	3.96e-04	0	43	0	1065353216	21	5330
2026-01-02 09:02:11.12	354.52	12.85	-30.3	-33.9	11.9	4.52e-04	0	43	0	1067450368	21	5412
2026-01-02 09:02:11.84	354.45	12.79	-30.4	-34.0	11.8	4.25e-04	0	43	0	1068498944	21	5447
2026-01-02 09:02:13.13	354.31	12.69	-30.4	-34.2	11.6	4.99e-04	0	43	0	1071644672	21	5558
2026-01-02 09:02:13.85	354.24	12.63	-30.5	-34.4	11.5	7.65e-04	0	43	0	1072693248	21	5635
2026-01-02 09:02:15.14	354.11	12.52	-30.3	-33.7	11.9	4.75e-04	0	43	0	1074790400	21	5342
2026-01-02 09:02:15.86	354.04	12.46	-30.3	-33.7	12.0	2.99e-04	0	43	0	1075838976	21	5322
2026-01-02 09:02:17.14	353.91	12.36	-30.2	-33.4	12.2	2.24e-04	0	43	0	1078984704	21	5199
2026-01-02 09:02:17.86	353.83	12.30	-30.4	-34.0	11.7	2.94e-04	0	43	0	1080033280	21	5484
2026-01-02 09:02:19.14	353.71	12.20	-30.5	-34.3	11.5	8.67e-04	0	43	0	1082130432	21	5605
2026-01-02 09:02:19.86	353.63	12.14	-30.3	-33.9	11.8	6.29e-04	0	43	0	1084227584	21	5437
2026-01-02 09:02:21.15	353.51	12.03	-30.2	-33.5	12.1	2.94e-04	0	43	0	1086324736	21	5255
2026-01-02 09:02:21.87	353.44	11.98	-30.1	-33.3	12.2	2.76e-04	0	43	0	1087373312	21	5172
2026-01-02 09:02:23.16	353.31	11.87	-30.2	-33.5	12.0	2.50e-04	0	43	0	1089470464	21	5275
2026-01-02 09:02:23.88	353.24	11.81	-30.2	-33.5	12.0	2.85e-04	0	43	0	1091567616	21	5266
2026-01-02 09:02:25.16	353.12	11.71	-30.2	-33.6	11.9	3.63e-04	0	43	0	1093664768	21	5320
2026-01-02 09:02:25.88	353.05	11.65	-30.2	-33.7	11.9	3.74e-04	0	43	0	1094713344	21	5334
2026-01-02 09:02:27.17	352.93	11.55	-30.3	-33.8	11.8	5.61e-04	0	43	0	1097859072	21	5403
2026-01-02 09:02:27.89	352.86	11.49	-30.3	-33.8	11.8	4.60e-04	0	43	0	1098907648	21	5391
2026-01-02 09:02:29.18	352.74	11.39	-30.3	-33.9	11.8	5.12e-04	0	43	0	1101004800	21	5424
2026-01-02 09:02:29.90	352.67	11.33	-30.3	-33.8	11.8	5.35e-04	0	43	0	1102053376	21	5410
2026-01-02 09:02:31.18	352.55	11.23	-30.4	-34.3	11.5	7.40e-04	0	43	0	1105199104	21	5606
2026-01-02 09:02:31.89	352.48	11.18	-30.4	-34.3	11.4	1.00e-03	0	43	0	1106247680	21	5623
2026-01-02 09:02:33.18	352.36	11.08	-30.5	-34.3	11.4	9.80e-04	0	43	0	1108344832	21	5628
2026-01-02 09:02:33.89	352.30	11.02	-30.4	-34.3	11.4	8.53e-04	0	43	0	1110441984	21	5630
2026-01-02 09:02:35.18	352.18	10.92	-30.5	-34.5	11.3	1.19e-03	0	43	0	1112539136	21	5720
2026-01-02 09:02:35.90	352.12	10.86	-30.5	-34.6	11.2	1.31e-03	0	43	0	1113587712	21	5745
2026-01-02 09:02:37.19	352.00	10.76	-30.5	-34.6	11.1	1.55e-03	0	43	0	1116733440	21	5770
2026-01-02 09:02:37.90	351.94	10.71	-30.6	-34.8	11.1	1.60e-03	0	43	0	1117782016	21	5839
2026-01-02 09:02:39.19	351.82	10.61	-30.6	-35.0	10.9	1.84e-03	0	43	0	1119879168	21	5933
2026-01-02 09:02:39.91	351.76	10.55	-30.7	-35.2	10.7	2.58e-03	0	43	0	1120927744	21	6063
2026-01-02 09:02:41.20	351.64	10.45	-30.6	-34.9	11.0	1.87e-03	0	43	0	1124073472	21	5888
2026-01-02 09:02:41.91	351.58	10.40	-30.7	-35.2	10.7	2.25e-03	0	44	0	1125122048	21	6036
2026-01-02 09:02:43.20	351.47	10.30	-30.6	-34.9	10.9	2.20e-03	0	43	0	1127219200	21	5880
2026-01-02 09:02:43.92	351.41	10.24	-30.6	-35.0	10.9	2.14e-03	0	43	0	1129316352	21	5936
2026-01-02 09:02:45.21	351.29	10.14	-30.6	-34.9	11.0	2.22e-03	0	43	0	1131413504	21	5882
2026-01-02 09:02:45.93	351.23	10.09	-30.6	-34.9	10.9	2.17e-03	0	43	0	1132462080	21	5920
2026-01-02 09:02:47.21	351.12	9.99	-30.6	-35.0	10.8	2.61e-03	0	43	0	1134559232	21	5968
2026-01-02 09:02:47.92	351.06	9.94	-30.6	-34.9	10.9	2.34e-03	0	43	0	1136656384	21	5890
2026-01-02 09:02:49.22	350.95	9.84	-30.6	-34.9	10.8	2.37e-03	0	43	0	1138753536	21	5920
2026-01-02 09:02:49.93	350.89	9.79	-30.7	-35.1	10.7	2.70e-03	0	43	0	1139802112	21	5985
2026-01-02 09:02:51.22	350.79	9.69	-30.6	-34.9	10.9	2.30e-03	0	43	0	1142947840	21	5923
2026-01-02 09:02:51.94	350.73	9.63	-30.6	-35.1	10.7	2.66e-03	0	43	0	1143996416	21	5989
2026-01-02 09:02:53.23	350.62	9.54	-30.7	-35.1	10.7	2.71e-03	0	43	0	1146093568	21	6028
2026-01-02 09:02:53.95	350.56	9.48	-30.7	-35.2	10.6	3.13e-03	0	43	0	1147142144	21	6046
2026-01-02 09:02:55.24	350.45	9.39	-30.6	-35.1	10.6	2.99e-03	0	43	0	1150287872	21	6031
2026-01-02 09:02:55.96	350.40	9.33	-30.7	-35.3	10.5	3.36e-03	0	43	0	1151336448	21	6132
2026-01-02 09:02:57.25	350.29	9.24	-30.7	-35.2	10.5	4.03e-03	0	43	0	1153433600	21	6074
2026-01-02 09:02:57.97	350.23	9.18	-30.8	-35.5	10.4	4.03e-03	0	43	0	1155530752	21	6199
2026-01-02 09:02:59.26	350.13	9.09	-30.7	-35.4	10.4	4.61e-03	0	43	0	1157627904	21	6191
2026-01-02 09:02:59.98	350.07	9.03	-30.7	-35.3	10.5	4.39e-03	0	43	0	1158676480	21	6129
2026-01-02 09:03:01.27	349.97	8.94	-30.9	-36.1	9.9	5.28e-03	0	44	0	1161822208	21	6528
2026-01-02 09:03:02.00	349.91	8.89	-30.8	-35.9	10.0	8.65e-03	0	44	0	1162870784	21	6427
2026-01-02 09:03:03.28	349.81	8.79	-30.8	-35.7	10.2	6.40e-03	0	43	0	1164967936	21	6321
2026-01-02 09:03:03.99	349.76	8.74	-30.8	-35.7	10.1	6.53e-03	0	43	0	1166016512	21	6349
2026-01-02 09:03:05.28	349.66	8.64	-30.9	-36.0	9.8	9.52e-03	0	43	0	1169162240	21	6528
2026-01-02 09:03:06.01	349.60	8.59	-30.8	-35.8	10.1	8.75e-03	0	43	0	1170210816	21	6374
2026-01-02 09:03:07.30	349.50	8.50	-30.8	-35.7	10.1	7.58e-03	0	43	0	1172307968	21	6353
2026-01-02 09:03:08.03	349.45	8.44	-30.9	-36.0	9.9	7.08e-03	0	43	0	1174405120	21	6517
2026-01-02 09:03:09.32	349.35	8.35	-30.9	-36.2	9.7	1.30e-02	0	43	0	1176502272	21	6644
2026-01-02 09:03:10.04	349.29	8.30	-30.9	-36.1	9.7	1.02e-02	0	43	0	1177550848	21	6582
2026-01-02 09:03:11.33	349.20	8.21	-30.9	-36.1	9.7	1.11e-02	0	43	0	1180696576	21	6598
2026-01-02 09:03:12.04	349.14	8.15	-30.9	-36.2	9.7	1.20e-02	0	43	0	1181745152	21	6600
2026-01-02 09:03:13.34	349.05	8.06	-30.9	-36.2	9.6	1.08e-02	0	43	0	1183842304	21	6646
2026-01-02 09:03:14.05	349.00	8.01	-30.9	-36.2	9.6	1.27e-02	0	43	0	1184890880	21	6637
2026-01-02 09:03:15.34	348.90	7.92	-31.0	-36.6	9.3	1.67e-02	0	43	0	1188036608	21	6853
2026-01-02 09:03:16.05	348.85	7.87	-31.0	-36.2	9.3	1.69e-02	0	43	0	1189085184	22	6519
2026-01-02 09:03:17.34	348.75	7.78	-31.1	-36.3	9.2	1.70e-02	0	43	0	1191182336	22	6597
2026-01-02 09:03:18.05	348.70	7.72	-31.1	-36.3	9.2	2.21e-02	0	43	0	1193279488	22	6597
2026-01-02 09:03:19.34	348.61	7.63	-31.0	-36.2	9.2	2.08e-02	0	43	0	1195376640	22	6545
2026-01-02 09:03:20.06	348.56	7.58	-31.1	-36.5	9.0	2.34e-02	0	44	0	1196425216	22	6711
2026-01-02 09:03:21.35	348.47	7.49	-31.1	-36.6	8.9	3.31e-02	0	43	0	1198522368	22	6785
2026-01-02 09:03:22.06	348.42	7.44	-31.1	-36.5	8.9	2.71e-02	0	43	0	1200619520	22	6741
2026-01-02 09:03:23.36	348.32	7.35	-31.1	-36.8	8.8	3.60e-02	0	43	0	1202716672	22	6870
2026-01-02 09:03:24.07	348.27	7.30	-31.0	-36.4	9.1	2.80e-02	0	44	0	1203765248	22	6633
2026-01-02 09:03:25.36	348.18	7.21	-31.0	-36.2	9.2	2.14e-02	0	43	0	1206910976	22	6538
2026-01-02 09:03:26.08	348.13	7.16	-31.0	-36.1	9.2	2.07e-02	0	44	0	1207959552	22	6510
2026-01-02 09:03:27.37	348.05	7.07	-32.6	-46.1	3.8	2.38e-02	0	43	104	1210056704	25	17017
2026-01-02 09:03:28.09	348.00	7.02	-32.8	-46.9	3.8	1.49e+00	0	43	104	1210056704	25	18264
2026-01-02 09:03:29.38	347.91	6.93	-33.1	-47.3	3.8	1.49e+00	0	43	104	1210056704	26	18371

#Closed at: 2026-01-02 09:03:29
#Recorded file [1210 MB]: D:/data/31010_260102_115241.dat