passes_logs/2026/01/02/R2M6_AANII_01/R2M6_AANII_01__20260102_012916_NOAA_21_JPSS-2_rec.log

#Pass ID: 20260102_012916_NOAA 21 (JPSS-2)
#Satellite: NOAA 21 (JPSS-2)
#Configuration: NOAA 21
#almurnet v.1.7.20240730
#Start time: 2026-01-02 01:31:17

#Version: 2.2.20231116
#Station: R2M6_AANII_01
#Location: 30.233357 lon 59.946436 lat
#TLE: 1 54234U 22150A   26001.26806856  .00000185  00000+0  10843-3 0  9990
#TLE: 2 54234  98.7484 302.3349 0001277 353.3887   6.7272 14.19530660162860

#Time	Az	El	Level	Level2	SNR	BER	BlckErr	Temp	State	Recorded	gain1	gain2
2026-01-02 01:31:17.29	3.38	17.23	-32.3	-43.7	3.8	8.46e-01	0	43	0	0	24	13399
2026-01-02 01:31:18.29	3.26	17.33	-33.6	-45.6	3.8	1.49e+00	0	43	104	0	27	14323
2026-01-02 01:31:19.28	3.15	17.43	-33.7	-45.6	3.8	1.49e+00	0	43	104	0	27	14284
2026-01-02 01:31:20.28	3.03	17.53	-33.7	-45.7	3.8	1.49e+00	0	43	104	0	27	14337
2026-01-02 01:31:21.27	2.91	17.63	-33.7	-45.7	3.8	1.49e+00	0	43	104	0	27	14381
2026-01-02 01:31:22.27	2.80	17.73	-33.7	-45.7	3.8	1.49e+00	0	43	104	0	27	14383
2026-01-02 01:31:23.26	2.68	17.83	-33.7	-45.8	3.8	1.49e+00	0	43	104	0	27	14450
2026-01-02 01:31:24.26	2.56	17.94	-33.7	-45.8	3.8	1.49e+00	0	43	104	0	27	14437
2026-01-02 01:31:25.26	2.44	18.04	-33.7	-45.8	3.8	1.49e+00	0	43	104	0	27	14431
2026-01-02 01:31:26.25	2.32	18.14	-33.7	-45.8	3.8	1.49e+00	0	43	104	0	27	14476
2026-01-02 01:31:27.25	2.19	18.24	-33.7	-45.8	3.8	1.49e+00	0	43	104	0	27	14453
2026-01-02 01:31:28.25	2.07	18.35	-33.7	-45.7	3.8	1.49e+00	0	43	104	0	27	14407
2026-01-02 01:31:29.24	1.95	18.45	-33.7	-45.7	3.8	1.49e+00	0	43	104	0	27	14408
2026-01-02 01:31:30.24	1.82	18.55	-33.7	-45.7	3.8	1.49e+00	0	43	104	0	27	14354
2026-01-02 01:31:31.23	1.70	18.66	-33.7	-45.7	3.8	1.49e+00	0	43	104	0	27	14352
2026-01-02 01:31:32.22	1.57	18.76	-33.7	-45.7	3.8	1.49e+00	0	43	104	0	27	14395
2026-01-02 01:31:33.22	1.44	18.87	-33.7	-45.7	3.8	1.49e+00	0	43	104	0	27	14358
2026-01-02 01:31:34.22	1.32	18.97	-33.7	-45.7	3.8	1.49e+00	0	43	104	0	27	14335
2026-01-02 01:31:35.21	1.19	19.08	-33.7	-45.7	3.8	1.49e+00	0	43	104	0	27	14319
2026-01-02 01:31:36.20	1.06	19.18	-33.7	-45.8	3.8	1.49e+00	0	43	104	0	27	14453
2026-01-02 01:31:37.21	0.93	19.29	-33.7	-45.8	3.8	1.49e+00	0	43	104	0	27	14402
2026-01-02 01:31:38.20	0.79	19.39	-33.7	-45.8	3.8	1.49e+00	0	43	104	0	27	14415
2026-01-02 01:31:39.20	0.66	19.50	-33.7	-45.8	3.8	1.49e+00	0	43	104	0	27	14414
2026-01-02 01:31:40.19	0.53	19.61	-33.7	-45.8	3.8	1.49e+00	0	43	104	0	27	14414
2026-01-02 01:31:41.18	0.40	19.71	-33.7	-45.8	3.8	1.49e+00	0	43	104	0	27	14421
2026-01-02 01:31:42.18	0.26	19.82	-33.7	-45.7	3.8	1.49e+00	0	43	104	0	27	14343
2026-01-02 01:31:43.18	0.12	19.93	-33.7	-45.7	3.8	1.49e+00	0	43	104	0	27	14332
2026-01-02 01:31:44.17	359.99	20.04	-33.6	-45.6	3.8	1.49e+00	0	43	104	0	27	14233
2026-01-02 01:31:45.17	359.85	20.14	-33.6	-45.5	3.8	1.49e+00	0	43	104	0	27	14219
2026-01-02 01:31:46.16	359.71	20.25	-33.6	-45.5	3.8	1.49e+00	0	43	104	0	27	14172
2026-01-02 01:31:47.16	359.57	20.36	-33.6	-45.5	3.8	1.49e+00	0	43	104	0	27	14199
2026-01-02 01:31:48.16	359.42	20.47	-33.5	-45.2	3.8	1.49e+00	0	43	104	0	27	13921
2026-01-02 01:31:49.16	359.28	20.58	-33.4	-45.6	3.8	1.49e+00	0	43	104	0	26	14669
2026-01-02 01:31:50.15	359.14	20.69	-33.3	-44.6	3.8	1.49e+00	0	43	104	0	26	13324
2026-01-02 01:31:51.14	358.99	20.80	-33.2	-45.2	3.8	1.49e+00	0	43	104	0	26	14232
2026-01-02 01:31:52.14	358.85	20.91	-33.2	-45.2	3.8	1.49e+00	0	43	104	0	26	14339
2026-01-02 01:31:53.15	358.70	21.02	-33.2	-45.3	3.8	1.49e+00	0	43	104	0	26	14509
2026-01-02 01:31:54.15	358.55	21.13	-33.3	-45.3	3.8	1.49e+00	0	43	104	0	26	14422
2026-01-02 01:31:55.14	358.40	21.24	-33.2	-45.1	3.8	1.49e+00	0	43	104	0	26	14182
2026-01-02 01:31:56.14	358.25	21.35	-33.2	-44.9	3.8	1.49e+00	0	43	104	0	26	13806
2026-01-02 01:31:57.14	358.10	21.46	-33.2	-44.6	3.8	1.49e+00	0	43	104	0	26	13470
2026-01-02 01:31:58.13	357.95	21.58	-33.2	-44.5	3.8	1.49e+00	0	43	104	0	26	13255
2026-01-02 01:31:59.13	357.79	21.69	-33.1	-44.3	3.8	1.49e+00	0	44	104	0	26	13033
2026-01-02 01:32:00.13	357.64	21.80	-33.1	-44.0	3.8	1.49e+00	0	43	104	0	26	12705
2026-01-02 01:32:01.13	357.48	21.91	-33.1	-43.5	3.8	1.49e+00	0	43	104	0	26	12042
2026-01-02 01:32:02.12	357.33	22.03	-33.0	-43.3	3.8	1.49e+00	0	43	104	0	26	11804
2026-01-02 01:32:03.11	357.17	22.14	-33.1	-43.6	3.8	1.48e+00	0	43	104	0	26	12095
2026-01-02 01:32:04.12	357.01	22.25	-33.2	-44.5	3.8	1.49e+00	0	43	104	0	26	13336
2026-01-02 01:32:05.12	356.85	22.37	-33.2	-45.2	3.8	1.49e+00	0	43	104	0	26	14377
2026-01-02 01:32:06.12	356.68	22.48	-33.1	-43.7	3.8	1.49e+00	0	43	104	0	26	12295
2026-01-02 01:32:07.13	356.52	22.60	-32.7	-41.4	4.0	1.48e+00	0	43	104	0	25	9873
2026-01-02 01:32:08.12	356.36	22.71	-31.8	-37.0	6.6	3.60e-01	0	43	104	0	24	6523
2026-01-02 01:32:09.12	356.19	22.83	-30.8	-34.5	9.1	4.09e-02	0	43	0	2097152	22	5473
2026-01-02 01:32:10.13	356.02	22.94	-30.1	-32.8	10.6	4.88e-03	0	44	0	5242880	21	4910
2026-01-02 01:32:11.12	355.85	23.06	-29.6	-32.5	11.5	8.86e-04	0	43	0	8388608	19	5002
2026-01-02 01:32:12.11	355.69	23.17	-29.8	-32.8	11.3	8.61e-04	0	43	0	11534336	19	5127
2026-01-02 01:32:13.11	355.51	23.29	-29.8	-32.9	11.3	1.04e-03	0	43	0	14680064	19	5144
2026-01-02 01:32:14.11	355.34	23.40	-29.6	-32.5	11.6	8.32e-04	0	43	0	17825792	19	5002
2026-01-02 01:32:15.10	355.17	23.52	-29.5	-32.1	11.8	4.40e-04	0	43	0	20971520	19	4868
2026-01-02 01:32:16.09	355.00	23.64	-29.8	-32.8	11.4	7.67e-04	0	43	0	24117248	19	5119
2026-01-02 01:32:17.09	354.82	23.75	-29.8	-32.9	11.3	1.64e-03	0	43	0	27262976	19	5144
2026-01-02 01:32:18.08	354.64	23.87	-29.9	-32.8	11.0	2.18e-03	0	43	0	30408704	20	5008
2026-01-02 01:32:19.08	354.47	23.99	-30.3	-33.9	10.2	3.93e-03	0	43	0	33554432	20	5463
2026-01-02 01:32:20.07	354.29	24.10	-29.9	-32.8	11.0	2.77e-03	0	43	0	36700160	20	5018
2026-01-02 01:32:21.06	354.11	24.22	-29.5	-32.1	11.8	6.38e-04	0	43	0	39845888	19	4846
2026-01-02 01:32:22.06	353.92	24.34	-28.8	-30.8	12.9	4.95e-05	0	43	0	42991616	18	4547
2026-01-02 01:32:23.06	353.74	24.46	-28.4	-29.8	13.5	1.88e-04	0	43	0	46137344	18	4246
2026-01-02 01:32:24.07	353.55	24.58	-27.9	-29.5	14.3	3.80e-06	0	43	0	49283072	16	4373
2026-01-02 01:32:25.06	353.37	24.69	-27.3	-28.9	14.8	1.50e-06	0	43	0	52428800	15	4294
2026-01-02 01:32:26.06	353.18	24.81	-26.9	-27.8	15.4	0.00e+00	0	43	0	55574528	15	4003
2026-01-02 01:32:27.06	352.99	24.93	-26.7	-28.3	15.7	3.00e-06	0	43	0	58720256	13	4361
2026-01-02 01:32:28.05	352.80	25.05	-26.9	-29.0	15.3	0.00e+00	0	43	0	61865984	13	4552
2026-01-02 01:32:29.04	352.61	25.17	-26.9	-28.9	15.4	7.00e-07	0	43	0	63963136	13	4519
2026-01-02 01:32:30.04	352.41	25.29	-27.0	-29.0	15.3	5.30e-06	0	43	0	67108864	13	4567
2026-01-02 01:32:31.03	352.22	25.41	-27.0	-28.6	15.3	0.00e+00	0	43	0	70254592	14	4338
2026-01-02 01:32:32.02	352.02	25.53	-27.2	-29.0	15.1	0.00e+00	0	43	0	73400320	14	4437
2026-01-02 01:32:33.02	351.82	25.65	-27.4	-29.6	14.7	0.00e+00	0	43	0	76546048	14	4619
2026-01-02 01:32:34.02	351.62	25.77	-27.1	-29.0	15.0	7.00e-07	0	43	0	79691776	14	4436
2026-01-02 01:32:35.01	351.42	25.89	-27.5	-29.4	14.6	7.00e-07	0	43	0	82837504	15	4440
2026-01-02 01:32:36.01	351.22	26.01	-27.1	-28.2	15.2	1.50e-06	0	44	0	85983232	15	4118
2026-01-02 01:32:37.00	351.01	26.13	-26.7	-27.8	15.7	0.00e+00	0	44	0	89128960	14	4108
2026-01-02 01:32:38.00	350.81	26.25	-26.4	-27.2	16.1	0.00e+00	0	43	0	92274688	14	3947
2026-01-02 01:32:39.00	350.60	26.37	-26.2	-27.8	16.2	0.00e+00	0	43	0	95420416	12	4335
2026-01-02 01:32:40.01	350.38	26.49	-26.4	-28.2	16.0	0.00e+00	0	43	0	98566144	12	4425
2026-01-02 01:32:41.00	350.17	26.61	-26.4	-28.3	15.9	0.00e+00	0	44	0	101711872	12	4473
2026-01-02 01:32:41.99	349.96	26.73	-26.9	-28.8	15.5	0.00e+00	0	43	0	104857600	13	4510
2026-01-02 01:32:43.00	349.75	26.85	-26.6	-28.2	15.8	0.00e+00	0	43	0	108003328	13	4339
2026-01-02 01:32:44.00	349.53	26.97	-26.5	-28.0	15.9	0.00e+00	0	43	0	111149056	13	4286
2026-01-02 01:32:45.01	349.31	27.10	-26.5	-28.1	15.9	1.59e-04	0	43	0	114294784	13	4296
2026-01-02 01:32:46.01	349.09	27.22	-26.5	-28.0	15.9	0.00e+00	0	43	0	117440512	13	4274
2026-01-02 01:32:47.00	348.87	27.34	-26.5	-27.9	15.9	0.00e+00	0	43	0	120586240	13	4251
2026-01-02 01:32:48.00	348.64	27.46	-26.5	-28.4	15.9	0.00e+00	0	43	0	123731968	12	4484
2026-01-02 01:32:49.01	348.42	27.58	-26.6	-28.3	15.8	0.00e+00	0	43	0	126877696	13	4345
2026-01-02 01:32:50.01	348.19	27.71	-26.8	-28.7	15.5	8.68e-04	0	43	0	130023424	13	4468
2026-01-02 01:32:51.00	347.96	27.83	-26.8	-28.6	15.6	0.00e+00	0	44	0	133169152	13	4427
2026-01-02 01:32:51.99	347.73	27.95	-26.8	-28.6	15.6	0.00e+00	0	43	0	136314880	13	4429
2026-01-02 01:32:52.99	347.50	28.07	-27.2	-29.0	15.2	0.00e+00	0	43	0	139460608	14	4452
2026-01-02 01:32:53.99	347.27	28.19	-27.0	-28.5	15.4	4.19e-04	0	43	0	142606336	14	4314
2026-01-02 01:32:54.99	347.03	28.31	-26.9	-28.4	15.5	0.00e+00	0	43	0	145752064	14	4269
2026-01-02 01:32:55.98	346.79	28.44	-26.9	-28.5	15.4	6.30e-04	0	43	0	148897792	14	4294
2026-01-02 01:32:56.98	346.56	28.56	-26.8	-28.7	15.6	0.00e+00	0	43	0	152043520	13	4468
2026-01-02 01:32:57.98	346.31	28.68	-26.9	-28.8	15.4	0.00e+00	0	44	0	155189248	13	4509
2026-01-02 01:32:58.98	346.07	28.80	-27.0	-28.5	15.4	1.66e-03	0	44	0	158334976	14	4297
2026-01-02 01:32:59.98	345.82	28.92	-27.0	-28.6	15.3	1.86e-03	0	43	0	161480704	14	4328
2026-01-02 01:33:00.97	345.58	29.04	-27.1	-28.9	15.1	0.00e+00	0	43	0	164626432	14	4403
2026-01-02 01:33:01.97	345.33	29.17	-27.1	-28.8	15.2	0.00e+00	0	43	0	167772160	14	4397
2026-01-02 01:33:02.97	345.08	29.29	-27.1	-28.8	15.2	0.00e+00	0	43	0	170917888	14	4398
2026-01-02 01:33:03.96	344.83	29.41	-27.3	-29.3	14.9	0.00e+00	0	43	0	174063616	14	4535
2026-01-02 01:33:04.96	344.57	29.53	-26.8	-28.7	15.5	8.44e-04	0	43	0	176160768	13	4478
2026-01-02 01:33:05.95	344.32	29.65	-26.9	-28.8	15.5	7.23e-04	0	43	0	179306496	13	4510
2026-01-02 01:33:06.95	344.06	29.77	-26.9	-29.0	15.4	0.00e+00	0	44	0	182452224	13	4550
2026-01-02 01:33:07.95	343.80	29.89	-27.0	-28.6	15.3	0.00e+00	0	43	0	185597952	14	4338
2026-01-02 01:33:08.94	343.54	30.01	-26.8	-28.7	15.5	8.64e-04	0	43	0	188743680	13	4470
2026-01-02 01:33:09.93	343.28	30.13	-26.8	-28.6	15.6	0.00e+00	0	43	0	191889408	13	4439
2026-01-02 01:33:10.92	343.01	30.25	-26.9	-28.8	15.5	1.25e-03	0	43	0	195035136	13	4498
2026-01-02 01:33:11.92	342.74	30.37	-26.8	-28.7	15.6	0.00e+00	0	43	0	198180864	13	4469
2026-01-02 01:33:12.91	342.48	30.49	-26.8	-28.7	15.5	7.00e-07	0	44	0	201326592	13	4462
2026-01-02 01:33:13.92	342.20	30.61	-26.8	-28.6	15.6	1.10e-03	0	43	0	204472320	13	4451
2026-01-02 01:33:14.91	341.93	30.73	-26.9	-28.9	15.4	9.51e-04	0	43	0	207618048	13	4523
2026-01-02 01:33:15.91	341.65	30.85	-27.1	-28.9	15.2	0.00e+00	0	43	0	210763776	14	4409
2026-01-02 01:33:16.90	341.37	30.96	-27.1	-28.8	15.2	8.12e-04	0	43	0	213909504	14	4392
2026-01-02 01:33:17.90	341.09	31.08	-27.2	-29.0	15.1	0.00e+00	0	43	0	217055232	14	4427
2026-01-02 01:33:18.89	340.81	31.20	-27.1	-28.9	15.2	0.00e+00	0	43	0	220200960	14	4417
2026-01-02 01:33:19.89	340.53	31.32	-27.2	-29.0	15.1	6.71e-04	0	43	0	223346688	14	4445
2026-01-02 01:33:20.88	340.24	31.44	-27.1	-28.9	15.2	6.83e-04	0	43	0	226492416	14	4406
2026-01-02 01:33:21.87	339.96	31.55	-27.1	-28.9	15.2	0.00e+00	0	43	0	229638144	14	4426
2026-01-02 01:33:22.87	339.67	31.67	-27.2	-29.2	15.0	7.00e-07	0	43	0	232783872	14	4496
2026-01-02 01:33:23.87	339.37	31.79	-27.2	-29.0	15.1	5.27e-04	0	43	0	235929600	14	4456
2026-01-02 01:33:24.86	339.08	31.90	-27.2	-29.1	15.0	0.00e+00	0	43	0	239075328	14	4478
2026-01-02 01:33:25.86	338.78	32.02	-26.9	-28.5	15.4	2.20e-04	0	43	0	242221056	14	4289
2026-01-02 01:33:26.85	338.48	32.13	-26.7	-28.3	15.7	1.72e-04	0	44	0	245366784	13	4364
2026-01-02 01:33:27.85	338.18	32.25	-26.7	-28.5	15.6	0.00e+00	0	43	0	248512512	13	4407
2026-01-02 01:33:28.86	337.87	32.36	-26.8	-28.6	15.6	9.68e-05	0	43	0	251658240	13	4444
2026-01-02 01:33:29.86	337.57	32.48	-27.0	-29.0	15.4	1.92e-04	0	43	0	254803968	13	4558
2026-01-02 01:33:30.85	337.26	32.59	-26.9	-28.4	15.5	0.00e+00	0	43	0	257949696	14	4256
2026-01-02 01:33:31.85	336.95	32.70	-26.9	-28.4	15.5	3.36e-04	0	43	0	261095424	14	4275
2026-01-02 01:33:32.85	336.64	32.81	-27.0	-28.7	15.3	5.31e-04	0	43	0	264241152	14	4350
2026-01-02 01:33:33.84	336.32	32.93	-26.9	-28.4	15.5	0.00e+00	0	43	0	267386880	14	4260
2026-01-02 01:33:34.84	336.01	33.04	-26.9	-28.9	15.5	6.45e-04	0	43	0	270532608	13	4510
2026-01-02 01:33:35.84	335.69	33.15	-27.0	-28.6	15.3	6.70e-04	0	43	0	273678336	14	4331
2026-01-02 01:33:36.84	335.37	33.26	-27.1	-28.9	15.2	0.00e+00	0	43	0	276824064	14	4408
2026-01-02 01:33:37.83	335.04	33.37	-27.2	-29.1	15.1	5.61e-04	0	43	0	278921216	14	4466
2026-01-02 01:33:38.84	334.71	33.48	-27.2	-29.1	15.1	4.30e-04	0	43	0	282066944	14	4454
2026-01-02 01:33:39.83	334.39	33.58	-27.4	-29.5	14.9	0.00e+00	0	43	0	285212672	14	4579
2026-01-02 01:33:40.83	334.06	33.69	-27.2	-29.0	15.2	2.74e-04	0	44	0	288358400	14	4422
2026-01-02 01:33:41.83	333.73	33.80	-27.1	-28.9	15.2	4.18e-04	0	43	0	291504128	14	4410
2026-01-02 01:33:42.83	333.39	33.90	-27.1	-28.8	15.2	0.00e+00	0	44	0	294649856	14	4372
2026-01-02 01:33:43.83	333.05	34.01	-27.5	-29.7	14.8	6.13e-04	0	44	0	297795584	14	4645
2026-01-02 01:33:44.82	332.72	34.11	-27.5	-29.2	14.8	5.86e-04	0	43	0	300941312	15	4378
2026-01-02 01:33:45.82	332.37	34.22	-27.4	-28.9	14.9	0.00e+00	0	44	0	304087040	15	4301
2026-01-02 01:33:46.82	332.03	34.32	-27.7	-29.6	14.5	1.10e-04	0	43	0	307232768	15	4509
2026-01-02 01:33:47.82	331.68	34.42	-27.4	-29.1	14.8	0.00e+00	0	44	0	310378496	15	4341
2026-01-02 01:33:48.82	331.34	34.52	-27.3	-29.2	15.0	0.00e+00	0	43	0	313524224	14	4491
2026-01-02 01:33:49.81	330.99	34.62	-27.3	-29.3	15.0	0.00e+00	0	43	0	316669952	14	4521
2026-01-02 01:33:50.80	330.64	34.72	-27.9	-30.1	14.2	1.51e-04	0	43	0	319815680	15	4652
2026-01-02 01:33:51.80	330.29	34.82	-28.5	-30.6	13.6	5.30e-06	0	44	0	322961408	17	4569
2026-01-02 01:33:52.79	329.93	34.91	-28.9	-31.0	13.0	9.53e-04	0	43	0	326107136	18	4586
2026-01-02 01:33:53.79	329.57	35.01	-28.9	-31.5	13.0	1.17e-03	0	43	0	329252864	17	4850
2026-01-02 01:33:54.79	329.21	35.11	-28.8	-30.8	13.1	3.96e-05	0	44	0	332398592	18	4517
2026-01-02 01:33:55.78	328.85	35.20	-28.2	-30.3	14.0	1.12e-03	0	44	0	335544320	16	4578
2026-01-02 01:33:56.77	328.49	35.29	-28.3	-30.6	13.8	1.56e-03	0	44	0	338690048	16	4693
2026-01-02 01:33:57.77	328.12	35.38	-28.2	-30.4	14.0	1.50e-06	0	43	0	341835776	16	4607
2026-01-02 01:33:58.76	327.76	35.48	-28.4	-30.9	13.7	3.80e-06	0	43	0	344981504	16	4773
2026-01-02 01:33:59.77	327.38	35.57	-27.9	-29.6	14.3	6.33e-04	0	44	0	348127232	16	4382
2026-01-02 01:34:00.76	327.01	35.65	-27.3	-28.8	15.0	7.00e-07	0	44	0	351272960	15	4265
2026-01-02 01:34:01.75	326.64	35.74	-27.1	-28.8	15.3	5.26e-04	0	43	0	354418688	14	4379
2026-01-02 01:34:02.74	326.26	35.83	-27.2	-29.0	15.2	7.20e-04	0	43	0	357564416	14	4428
2026-01-02 01:34:03.74	325.88	35.91	-27.3	-29.3	15.0	0.00e+00	0	43	0	360710144	14	4521
2026-01-02 01:34:04.73	325.51	36.00	-27.5	-29.3	14.7	0.00e+00	0	43	0	363855872	15	4414
2026-01-02 01:34:05.72	325.13	36.08	-27.7	-29.8	14.4	1.64e-03	0	43	0	367001600	15	4557
2026-01-02 01:34:06.73	324.74	36.16	-27.7	-29.7	14.5	1.50e-06	0	43	0	370147328	15	4522
2026-01-02 01:34:07.73	324.35	36.24	-27.7	-29.8	14.4	1.57e-03	0	44	0	372244480	15	4550
2026-01-02 01:34:08.72	323.96	36.32	-27.8	-30.0	14.3	1.50e-06	0	43	0	375390208	15	4614
2026-01-02 01:34:09.71	323.58	36.40	-27.9	-30.1	14.2	1.50e-06	0	44	0	378535936	15	4660
2026-01-02 01:34:10.71	323.18	36.47	-28.3	-30.5	13.9	8.07e-04	0	43	0	381681664	16	4640
2026-01-02 01:34:11.69	322.79	36.55	-28.3	-30.6	13.8	9.13e-04	0	43	0	384827392	16	4701
2026-01-02 01:34:12.69	322.40	36.62	-28.2	-30.5	13.9	6.10e-06	0	43	0	387973120	16	4643
2026-01-02 01:34:13.68	322.00	36.69	-28.3	-30.6	13.8	5.30e-06	0	43	0	391118848	16	4701
2026-01-02 01:34:14.68	321.60	36.77	-28.1	-30.2	14.1	3.00e-06	0	43	0	394264576	16	4556
2026-01-02 01:34:15.67	321.20	36.83	-27.8	-29.9	14.3	0.00e+00	0	44	0	397410304	15	4594
2026-01-02 01:34:16.67	320.80	36.90	-27.9	-30.2	14.2	6.54e-04	0	43	0	400556032	15	4675
2026-01-02 01:34:17.66	320.40	36.97	-28.2	-30.4	13.9	2.77e-04	0	43	0	403701760	16	4627
2026-01-02 01:34:18.66	319.99	37.03	-28.1	-30.2	14.1	3.80e-06	0	43	0	406847488	16	4549
2026-01-02 01:34:19.66	319.58	37.10	-28.1	-30.0	14.2	7.00e-07	0	43	0	409993216	16	4496
2026-01-02 01:34:20.65	319.17	37.16	-28.1	-30.2	14.1	3.00e-06	0	44	0	413138944	16	4543
2026-01-02 01:34:21.65	318.76	37.22	-28.0	-29.9	14.2	1.50e-06	0	43	0	416284672	16	4470
2026-01-02 01:34:22.65	318.35	37.28	-28.1	-30.0	14.1	4.68e-04	0	43	0	419430400	16	4505
2026-01-02 01:34:23.66	317.93	37.34	-27.9	-30.1	14.2	3.00e-06	0	43	0	422576128	15	4664
2026-01-02 01:34:24.66	317.51	37.39	-28.0	-30.3	14.1	1.50e-06	0	43	0	425721856	15	4710
2026-01-02 01:34:25.65	317.10	37.44	-28.0	-29.9	14.2	2.20e-06	0	44	0	428867584	16	4480
2026-01-02 01:34:26.64	316.68	37.50	-27.9	-29.6	14.4	2.55e-04	0	43	0	432013312	16	4389
2026-01-02 01:34:27.64	316.26	37.55	-27.9	-29.5	14.4	2.20e-06	0	43	0	435159040	16	4356
2026-01-02 01:34:28.63	315.84	37.60	-28.1	-30.2	14.0	7.00e-07	0	44	0	438304768	16	4549
2026-01-02 01:34:29.63	315.42	37.64	-28.5	-30.5	13.6	5.30e-06	0	43	0	441450496	17	4547
2026-01-02 01:34:30.62	315.00	37.69	-28.5	-30.6	13.6	1.06e-05	0	44	0	444596224	17	4567
2026-01-02 01:34:31.62	314.57	37.73	-28.4	-30.4	13.7	6.80e-06	0	44	0	447741952	17	4511
2026-01-02 01:34:32.62	314.15	37.77	-28.4	-30.3	13.7	9.23e-05	0	43	0	450887680	17	4472
2026-01-02 01:34:33.61	313.72	37.81	-28.3	-30.7	13.8	5.30e-06	0	43	0	454033408	16	4706
2026-01-02 01:34:34.61	313.30	37.85	-28.2	-30.3	14.0	3.80e-06	0	43	0	457179136	16	4586
2026-01-02 01:34:35.61	312.86	37.89	-28.3	-30.6	13.9	7.00e-07	0	44	0	460324864	16	4661
2026-01-02 01:34:36.60	312.44	37.92	-28.1	-30.1	14.2	1.50e-06	0	43	0	463470592	16	4532
2026-01-02 01:34:37.61	312.00	37.96	-28.2	-30.3	14.0	3.89e-04	0	43	0	466616320	16	4583
2026-01-02 01:34:38.60	311.57	37.99	-28.4	-30.8	13.8	7.60e-06	0	43	0	469762048	16	4752
2026-01-02 01:34:39.60	311.14	38.02	-28.4	-30.8	13.7	7.60e-06	0	43	0	472907776	16	4735
2026-01-02 01:34:40.59	310.71	38.05	-28.5	-30.9	13.7	4.50e-06	0	43	0	476053504	16	4785
2026-01-02 01:34:41.59	310.27	38.07	-28.7	-31.1	13.3	2.21e-05	0	44	0	478150656	17	4735
2026-01-02 01:34:42.58	309.84	38.10	-28.7	-30.9	13.3	1.60e-05	0	43	0	481296384	17	4679
2026-01-02 01:34:43.58	309.41	38.12	-28.4	-30.9	13.1	2.21e-05	0	43	0	484442112	17	4828
2026-01-02 01:34:44.57	308.97	38.14	-28.3	-30.6	12.6	4.65e-05	0	43	0	487587840	18	4700
2026-01-02 01:34:45.56	308.54	38.16	-29.0	-31.4	12.8	6.40e-05	0	43	0	490733568	18	4701
2026-01-02 01:34:46.56	308.10	38.17	-29.0	-31.2	12.3	5.03e-05	0	43	0	493879296	18	4682
2026-01-02 01:34:47.57	307.66	38.19	-29.1	-31.4	12.6	5.64e-05	0	43	0	497025024	18	4720
2026-01-02 01:34:48.56	307.23	38.20	-28.9	-30.9	13.1	3.28e-05	0	43	0	500170752	18	4555
2026-01-02 01:34:49.56	306.79	38.21	-27.5	-29.8	13.1	2.82e-05	0	43	0	503316480	17	4670
2026-01-02 01:34:50.55	306.35	38.22	-28.6	-30.8	13.3	2.82e-05	0	43	0	506462208	17	4655
2026-01-02 01:34:51.55	305.91	38.23	-28.4	-30.3	13.8	7.60e-06	0	43	0	509607936	17	4479
2026-01-02 01:34:52.54	305.48	38.23	-27.8	-28.9	14.6	1.50e-06	0	43	0	512753664	17	4069
2026-01-02 01:34:53.55	305.03	38.23	-27.6	-29.4	14.2	0.00e+00	0	43	0	515899392	15	4434
2026-01-02 01:34:54.54	304.60	38.24	-27.6	-29.5	14.6	0.00e+00	0	44	0	519045120	15	4461
2026-01-02 01:34:55.55	304.15	38.24	-27.7	-29.7	14.1	1.50e-06	0	43	0	522190848	15	4535
2026-01-02 01:34:56.54	303.72	38.23	-28.2	-30.3	14.1	7.00e-07	0	43	0	525336576	16	4583
2026-01-02 01:34:57.54	303.28	38.23	-28.7	-31.0	13.4	1.06e-05	0	43	0	528482304	17	4693
2026-01-02 01:34:58.53	302.84	38.22	-28.4	-30.3	13.8	1.29e-05	0	43	0	531628032	17	4467
2026-01-02 01:34:59.52	302.41	38.21	-28.1	-30.1	14.1	7.00e-07	0	43	0	534773760	16	4541
2026-01-02 01:35:00.52	301.97	38.20	-28.2	-30.2	14.1	1.50e-06	0	43	0	537919488	16	4557
2026-01-02 01:35:01.50	301.54	38.19	-28.1	-30.0	14.2	3.80e-06	0	43	0	541065216	16	4479
2026-01-02 01:35:02.49	301.10	38.18	-27.9	-29.7	14.4	7.00e-07	0	43	0	544210944	16	4405
2026-01-02 01:35:03.49	300.66	38.16	-28.2	-30.2	14.1	2.20e-06	0	43	0	547356672	16	4543
2026-01-02 01:35:04.49	300.23	38.14	-28.2	-30.3	14.0	5.30e-06	0	43	0	550502400	16	4582
2026-01-02 01:35:05.48	299.79	38.12	-28.3	-30.5	13.9	6.10e-06	0	43	0	553648128	16	4658
2026-01-02 01:35:06.47	299.36	38.10	-28.4	-30.7	13.8	5.30e-06	0	43	0	556793856	16	4711
2026-01-02 01:35:07.47	298.92	38.08	-28.3	-30.5	13.9	3.80e-06	0	43	0	559939584	16	4639
2026-01-02 01:35:08.47	298.49	38.05	-27.8	-29.4	14.6	7.00e-07	0	44	0	563085312	16	4310
2026-01-02 01:35:09.47	298.05	38.03	-27.7	-29.6	14.6	7.00e-07	0	43	0	566231040	15	4500
2026-01-02 01:35:10.47	297.62	38.00	-27.8	-29.9	14.4	1.50e-06	0	44	0	569376768	15	4586
2026-01-02 01:35:11.47	297.19	37.97	-27.8	-29.8	14.4	0.00e+00	0	43	0	571473920	15	4559
2026-01-02 01:35:12.46	296.76	37.93	-28.0	-30.4	14.1	2.20e-06	0	44	0	574619648	15	4732
2026-01-02 01:35:13.46	296.33	37.90	-28.3	-30.5	13.9	2.20e-06	0	44	0	577765376	16	4666
2026-01-02 01:35:14.45	295.90	37.86	-28.1	-30.1	14.2	1.50e-06	0	43	0	580911104	16	4519
2026-01-02 01:35:15.44	295.47	37.83	-28.1	-30.2	14.1	1.50e-06	0	43	0	584056832	16	4549
2026-01-02 01:35:16.44	295.04	37.79	-28.1	-30.1	14.1	3.00e-06	0	43	0	587202560	16	4541
2026-01-02 01:35:17.43	294.62	37.74	-27.9	-29.7	14.4	7.00e-07	0	43	0	590348288	16	4405
2026-01-02 01:35:18.44	294.19	37.70	-27.7	-29.8	14.4	0.00e+00	0	43	0	593494016	15	4548
2026-01-02 01:35:19.44	293.77	37.66	-27.7	-29.7	14.4	7.00e-07	0	43	0	596639744	15	4527
2026-01-02 01:35:20.44	293.34	37.61	-27.4	-29.0	14.9	0.00e+00	0	44	0	599785472	15	4319
2026-01-02 01:35:21.44	292.92	37.56	-27.4	-29.5	14.8	7.00e-07	0	44	0	602931200	14	4581
2026-01-02 01:35:22.43	292.50	37.51	-27.8	-29.8	14.4	0.00e+00	0	44	0	606076928	15	4561
2026-01-02 01:35:23.42	292.08	37.46	-27.9	-30.2	14.2	7.00e-07	0	44	0	609222656	15	4689
2026-01-02 01:35:24.42	291.67	37.40	-27.8	-29.9	14.3	3.00e-06	0	43	0	612368384	15	4601
2026-01-02 01:35:25.42	291.25	37.35	-27.8	-30.0	14.3	7.00e-07	0	43	0	615514112	15	4633
2026-01-02 01:35:26.41	290.84	37.29	-27.6	-29.5	14.6	0.00e+00	0	43	0	618659840	15	4465
2026-01-02 01:35:27.41	290.42	37.23	-27.6	-29.4	14.6	1.50e-06	0	43	0	621805568	15	4439
2026-01-02 01:35:28.40	290.01	37.17	-27.8	-29.9	14.3	7.00e-07	0	43	0	624951296	15	4602
2026-01-02 01:35:29.40	289.60	37.11	-27.7	-29.8	14.4	1.50e-06	0	43	0	628097024	15	4555
2026-01-02 01:35:30.39	289.19	37.05	-27.7	-29.7	14.5	0.00e+00	0	43	0	631242752	15	4519
2026-01-02 01:35:31.38	288.79	36.99	-27.8	-29.8	14.4	0.00e+00	0	43	0	634388480	15	4573
2026-01-02 01:35:32.39	288.38	36.92	-28.0	-30.3	14.1	0.00e+00	0	44	0	637534208	15	4726
2026-01-02 01:35:33.38	287.98	36.85	-27.8	-30.0	14.3	1.50e-06	0	43	0	640679936	15	4621
2026-01-02 01:35:34.38	287.57	36.78	-27.7	-29.8	14.4	7.00e-07	0	43	0	643825664	15	4552
2026-01-02 01:35:35.38	287.17	36.71	-27.6	-29.6	14.5	7.00e-07	0	43	0	646971392	15	4491
2026-01-02 01:35:36.38	286.77	36.64	-27.7	-29.7	14.5	0.00e+00	0	43	0	650117120	15	4538
2026-01-02 01:35:37.37	286.38	36.57	-27.7	-29.6	14.5	1.50e-06	0	43	0	653262848	15	4498
2026-01-02 01:35:38.37	285.98	36.49	-27.6	-29.4	14.6	7.00e-07	0	43	0	656408576	15	4453
2026-01-02 01:35:39.38	285.58	36.41	-27.8	-29.9	14.3	7.00e-07	0	43	0	659554304	15	4601
2026-01-02 01:35:40.36	285.20	36.34	-27.9	-30.2	14.1	7.00e-07	0	43	0	662700032	15	4700
2026-01-02 01:35:41.36	284.81	36.26	-28.3	-30.6	13.8	2.20e-06	0	43	0	665845760	16	4689
2026-01-02 01:35:42.35	284.42	36.18	-28.2	-30.4	13.9	1.50e-06	0	43	0	668991488	16	4630
2026-01-02 01:35:43.35	284.03	36.10	-28.3	-30.6	13.8	5.30e-06	0	43	0	672137216	16	4687
2026-01-02 01:35:44.35	283.65	36.01	-28.2	-30.2	14.0	3.80e-06	0	43	0	675282944	16	4572
2026-01-02 01:35:45.35	283.27	35.93	-28.0	-29.9	14.2	0.00e+00	0	43	0	678428672	16	4465
2026-01-02 01:35:46.35	282.88	35.84	-27.8	-29.4	14.4	2.20e-06	0	43	0	680525824	16	4345
2026-01-02 01:35:47.35	282.51	35.76	-27.4	-29.1	14.7	0.00e+00	0	43	0	683671552	15	4364
2026-01-02 01:35:48.35	282.13	35.67	-27.5	-29.2	14.6	0.00e+00	0	43	0	686817280	15	4390
2026-01-02 01:35:49.34	281.76	35.58	-27.7	-29.7	14.3	0.00e+00	0	43	0	689963008	15	4526
2026-01-02 01:35:50.35	281.38	35.49	-27.1	-29.3	14.2	4.50e-06	0	43	0	693108736	15	4625
2026-01-02 01:35:51.34	281.01	35.40	-27.3	-28.8	14.7	0.00e+00	0	43	0	696254464	15	4286
2026-01-02 01:35:52.34	280.64	35.31	-27.0	-28.2	15.2	7.00e-07	0	43	0	699400192	15	4095
2026-01-02 01:35:53.33	280.28	35.22	-27.1	-28.8	15.2	0.00e+00	0	43	0	702545920	14	4379
2026-01-02 01:35:54.31	279.92	35.12	-27.3	-29.2	14.9	7.00e-07	0	43	0	705691648	14	4511
2026-01-02 01:35:55.31	279.56	35.03	-27.6	-29.6	14.5	0.00e+00	0	43	0	708837376	15	4501
2026-01-02 01:35:56.30	279.20	34.93	-27.8	-30.1	14.2	0.00e+00	0	43	0	711983104	15	4650
2026-01-02 01:35:57.30	278.85	34.83	-28.2	-30.3	13.9	3.00e-06	0	43	0	715128832	16	4595
2026-01-02 01:35:58.30	278.49	34.74	-28.2	-30.4	13.8	7.00e-07	0	43	0	718274560	16	4635
2026-01-02 01:35:59.29	278.14	34.64	-28.2	-30.4	13.9	5.30e-06	0	43	0	721420288	16	4617
2026-01-02 01:36:00.29	277.79	34.54	-27.8	-29.4	14.4	7.00e-07	0	43	0	724566016	16	4330
2026-01-02 01:36:01.29	277.44	34.44	-27.4	-28.4	15.0	0.00e+00	0	44	0	727711744	16	4049
2026-01-02 01:36:02.29	277.09	34.33	-26.5	-27.9	14.9	0.00e+00	0	43	0	730857472	15	4241
2026-01-02 01:36:03.29	276.74	34.23	-27.5	-29.7	14.6	0.00e+00	0	43	0	734003200	14	4656
2026-01-02 01:36:04.28	276.40	34.13	-27.8	-29.9	14.2	7.00e-07	0	43	0	737148928	15	4607
2026-01-02 01:36:05.28	276.06	34.02	-27.9	-30.2	14.0	7.00e-07	0	44	0	740294656	15	4703
2026-01-02 01:36:06.28	275.72	33.92	-28.2	-30.3	13.8	1.50e-06	0	43	0	743440384	16	4619
2026-01-02 01:36:07.27	275.39	33.81	-28.1	-30.1	14.0	5.30e-06	0	44	0	746586112	16	4536
2026-01-02 01:36:08.27	275.06	33.71	-27.8	-29.5	14.3	3.00e-06	0	43	0	749731840	16	4379
2026-01-02 01:36:09.27	274.72	33.60	-27.6	-29.5	14.4	0.00e+00	0	43	0	752877568	15	4490
2026-01-02 01:36:10.27	274.39	33.49	-27.8	-29.9	14.2	2.20e-06	0	43	0	756023296	15	4589
2026-01-02 01:36:11.26	274.07	33.38	-27.8	-29.9	14.2	1.50e-06	0	43	0	759169024	15	4591
2026-01-02 01:36:12.26	273.74	33.27	-27.8	-29.9	14.2	7.00e-07	0	44	0	762314752	15	4587
2026-01-02 01:36:13.26	273.42	33.16	-27.8	-30.0	14.1	7.00e-07	0	44	0	765460480	15	4633
2026-01-02 01:36:14.26	273.10	33.05	-27.5	-30.0	13.9	2.20e-06	0	43	0	768606208	15	4770
2026-01-02 01:36:15.25	272.78	32.94	-27.6	-29.5	14.4	7.00e-07	0	43	0	771751936	15	4488
2026-01-02 01:36:16.25	272.47	32.83	-27.2	-29.1	14.3	0.00e+00	0	43	0	774897664	14	4477
2026-01-02 01:36:17.25	272.15	32.72	-27.0	-28.7	13.3	0.00e+00	0	43	0	778043392	14	4360
2026-01-02 01:36:18.26	271.84	32.60	-27.0	-28.7	15.2	0.00e+00	0	44	0	781189120	14	4343
2026-01-02 01:36:19.26	271.53	32.49	-27.4	-29.5	14.3	7.00e-07	0	44	0	784334848	14	4603
2026-01-02 01:36:20.25	271.22	32.37	-27.7	-29.8	14.3	0.00e+00	0	43	0	787480576	15	4557
2026-01-02 01:36:21.24	270.92	32.26	-28.3	-30.6	13.7	5.30e-06	0	44	0	790626304	16	4685
2026-01-02 01:36:22.24	270.62	32.14	-28.2	-30.5	13.7	4.50e-06	0	43	0	792723456	16	4660
2026-01-02 01:36:23.24	270.31	32.03	-28.3	-30.7	13.5	8.30e-06	0	43	0	795869184	16	4717
2026-01-02 01:36:24.24	270.01	31.91	-27.6	-28.9	14.6	3.00e-06	0	43	0	799014912	16	4197
2026-01-02 01:36:25.24	269.72	31.80	-25.8	-27.2	15.4	0.00e+00	0	43	0	802160640	14	4196
2026-01-02 01:36:26.23	269.42	31.68	-26.2	-27.4	15.3	0.00e+00	0	43	0	805306368	13	4109
2026-01-02 01:36:27.23	269.13	31.56	-26.1	-27.0	16.3	0.00e+00	0	43	0	808452096	13	4017
2026-01-02 01:36:28.23	268.84	31.44	-26.3	-28.0	14.8	1.90e-03	0	43	0	811597824	12	4394
2026-01-02 01:36:29.22	268.55	31.33	-26.6	-28.2	15.5	0.00e+00	0	44	0	814743552	13	4338
2026-01-02 01:36:30.23	268.27	31.21	-27.0	-28.6	15.2	0.00e+00	0	43	0	817889280	14	4346
2026-01-02 01:36:31.22	267.98	31.09	-27.1	-28.8	15.1	0.00e+00	0	43	0	821035008	14	4392
2026-01-02 01:36:32.22	267.70	30.97	-27.1	-28.7	15.1	0.00e+00	0	44	0	824180736	14	4371
2026-01-02 01:36:33.22	267.42	30.85	-27.1	-28.9	15.0	0.00e+00	0	43	0	827326464	14	4429
2026-01-02 01:36:34.22	267.14	30.73	-27.3	-29.2	14.8	7.00e-07	0	43	0	830472192	14	4519
2026-01-02 01:36:35.22	266.87	30.61	-27.1	-28.9	15.0	1.50e-06	0	43	0	833617920	14	4414
2026-01-02 01:36:36.21	266.59	30.49	-27.1	-28.9	15.0	0.00e+00	0	43	0	836763648	14	4422
2026-01-02 01:36:37.21	266.32	30.37	-27.3	-29.3	14.8	0.00e+00	0	43	0	839909376	14	4536
2026-01-02 01:36:38.21	266.05	30.25	-27.0	-28.6	15.2	2.83e-03	0	44	0	843055104	14	4336
2026-01-02 01:36:39.21	265.78	30.13	-26.9	-28.4	15.3	0.00e+00	0	43	0	846200832	14	4266
2026-01-02 01:36:40.22	265.51	30.01	-26.7	-28.5	15.5	0.00e+00	0	44	0	849346560	13	4422
2026-01-02 01:36:41.21	265.25	29.89	-26.7	-28.5	15.5	0.00e+00	0	43	0	852492288	13	4428
2026-01-02 01:36:42.22	264.99	29.77	-26.5	-28.0	15.8	0.00e+00	0	43	0	855638016	13	4287
2026-01-02 01:36:43.21	264.73	29.65	-26.4	-27.7	15.9	3.27e-03	0	43	0	858783744	13	4204
2026-01-02 01:36:44.21	264.47	29.52	-26.4	-27.7	15.9	3.09e-03	0	43	0	861929472	13	4190
2026-01-02 01:36:45.21	264.22	29.40	-26.2	-27.9	16.1	0.00e+00	0	43	0	865075200	12	4358
2026-01-02 01:36:46.22	263.96	29.28	-26.3	-28.0	16.0	0.00e+00	0	43	0	868220928	12	4403
2026-01-02 01:36:47.22	263.71	29.16	-26.4	-28.3	15.9	0.00e+00	0	43	0	871366656	12	4480
2026-01-02 01:36:48.22	263.46	29.03	-26.7	-28.4	15.6	0.00e+00	0	43	0	874512384	13	4390
2026-01-02 01:36:49.23	263.21	28.91	-26.9	-28.8	15.3	1.25e-03	0	43	0	877658112	13	4520
2026-01-02 01:36:50.23	262.96	28.79	-26.7	-28.4	15.6	0.00e+00	0	43	0	880803840	13	4384
2026-01-02 01:36:51.23	262.71	28.67	-26.6	-28.2	15.6	0.00e+00	0	43	0	883949568	13	4349
2026-01-02 01:36:52.23	262.47	28.54	-26.5	-28.0	15.8	6.79e-05	0	43	0	887095296	13	4272
2026-01-02 01:36:53.24	262.23	28.42	-26.5	-28.0	15.8	2.47e-03	0	43	0	890241024	13	4274
2026-01-02 01:36:54.24	261.99	28.30	-26.1	-27.5	16.3	0.00e+00	0	43	0	893386752	12	4247
2026-01-02 01:36:55.24	261.75	28.18	-26.1	-27.6	16.2	1.95e-03	0	43	0	896532480	12	4284
2026-01-02 01:36:56.25	261.51	28.05	-26.3	-28.1	16.0	1.62e-03	0	44	0	899678208	12	4407
2026-01-02 01:36:57.25	261.28	27.93	-26.7	-28.4	15.5	0.00e+00	0	44	0	902823936	13	4398
2026-01-02 01:36:58.25	261.05	27.81	-26.8	-28.7	15.4	3.41e-04	0	43	0	905969664	13	4485
2026-01-02 01:36:59.25	260.82	27.68	-26.5	-28.1	15.7	7.00e-07	0	43	0	909115392	13	4315
2026-01-02 01:37:00.25	260.59	27.56	-26.4	-27.8	15.8	0.00e+00	0	43	0	912261120	13	4220
2026-01-02 01:37:01.25	260.36	27.44	-26.3	-27.6	16.0	0.00e+00	0	43	0	915406848	13	4168
2026-01-02 01:37:02.26	260.14	27.32	-26.3	-27.5	16.0	5.37e-04	0	43	0	918552576	13	4143
2026-01-02 01:37:03.26	259.91	27.19	-26.3	-27.6	15.9	0.00e+00	0	43	0	921698304	13	4174
2026-01-02 01:37:04.26	259.69	27.07	-26.1	-27.6	16.2	2.86e-03	0	43	0	924844032	12	4291
2026-01-02 01:37:05.27	259.47	26.95	-26.2	-27.9	16.1	3.76e-03	0	43	0	927989760	12	4357
2026-01-02 01:37:06.27	259.25	26.83	-26.0	-27.5	16.3	0.00e+00	0	43	0	931135488	12	4249
2026-01-02 01:37:07.27	259.04	26.70	-26.2	-27.8	16.1	0.00e+00	0	43	0	934281216	12	4340
2026-01-02 01:37:08.27	258.82	26.58	-26.5	-28.5	15.7	3.64e-03	0	43	0	937426944	12	4542
2026-01-02 01:37:09.28	258.61	26.46	-26.6	-28.4	15.5	0.00e+00	0	43	0	940572672	13	4383
2026-01-02 01:37:10.29	258.39	26.34	-26.9	-29.0	15.1	3.76e-03	0	43	0	943718400	13	4577
2026-01-02 01:37:11.29	258.18	26.21	-27.1	-28.9	14.9	3.46e-03	0	43	0	946864128	14	4434
2026-01-02 01:37:12.29	257.98	26.09	-26.7	-27.9	15.5	0.00e+00	0	43	0	950009856	14	4160
2026-01-02 01:37:13.29	257.77	25.97	-26.3	-27.6	15.9	0.00e+00	0	43	0	953155584	13	4172
2026-01-02 01:37:14.30	257.56	25.85	-26.0	-27.3	16.3	3.76e-03	0	43	0	956301312	12	4202
2026-01-02 01:37:15.30	257.36	25.73	-25.9	-27.1	16.5	2.26e-04	0	43	0	959447040	12	4139
2026-01-02 01:37:16.30	257.16	25.61	-25.8	-27.5	16.6	3.80e-03	0	43	0	962592768	11	4362
2026-01-02 01:37:17.30	256.96	25.49	-25.9	-27.3	16.4	0.00e+00	0	43	0	965738496	12	4192
2026-01-02 01:37:18.30	256.76	25.37	-26.3	-28.0	16.0	0.00e+00	0	43	0	968884224	12	4392
2026-01-02 01:37:19.32	256.56	25.24	-26.7	-28.4	15.4	2.44e-03	0	43	0	972029952	13	4402
2026-01-02 01:37:20.32	256.36	25.12	-26.7	-28.6	15.3	2.24e-03	0	43	0	974127104	13	4461
2026-01-02 01:37:21.33	256.17	25.00	-26.9	-28.9	15.2	7.00e-07	0	43	0	977272832	13	4537
2026-01-02 01:37:22.33	255.97	24.88	-26.7	-28.5	15.4	0.00e+00	0	43	0	980418560	13	4419
2026-01-02 01:37:23.34	255.78	24.76	-26.5	-28.0	15.7	0.00e+00	0	43	0	983564288	13	4283
2026-01-02 01:37:24.34	255.59	24.64	-26.3	-27.6	15.9	0.00e+00	0	43	0	987758592	13	4163
2026-01-02 01:37:25.35	255.40	24.52	-26.2	-27.9	16.0	0.00e+00	0	43	0	990904320	12	4374
2026-01-02 01:37:26.35	255.21	24.40	-26.3	-28.1	15.9	0.00e+00	0	43	0	994050048	12	4418
2026-01-02 01:37:27.36	255.03	24.28	-26.3	-28.1	15.9	0.00e+00	0	43	0	996147200	12	4425
2026-01-02 01:37:28.35	254.84	24.17	-26.1	-27.7	16.1	0.00e+00	0	43	0	999292928	12	4303
2026-01-02 01:37:29.35	254.66	24.05	-26.2	-27.8	16.0	0.00e+00	0	43	0	1002438656	12	4347
2026-01-02 01:37:30.35	254.48	23.93	-26.1	-27.5	16.2	0.00e+00	0	43	0	1005584384	12	4268
2026-01-02 01:37:31.35	254.30	23.81	-25.8	-27.1	16.4	0.00e+00	0	43	0	1008730112	12	4137
2026-01-02 01:37:32.35	254.12	23.69	-25.7	-27.3	16.6	0.00e+00	0	43	0	1011875840	11	4307
2026-01-02 01:37:33.36	253.94	23.57	-25.9	-27.6	16.5	0.00e+00	0	43	0	1015021568	11	4384
2026-01-02 01:37:34.36	253.77	23.46	-26.0	-27.9	16.3	7.00e-07	0	43	0	1018167296	11	4464
2026-01-02 01:37:35.36	253.59	23.34	-26.5	-28.5	15.6	0.00e+00	0	43	0	1021313024	12	4535
2026-01-02 01:37:36.37	253.42	23.22	-26.7	-28.5	15.4	0.00e+00	0	43	0	1024458752	13	4414
2026-01-02 01:37:37.36	253.25	23.11	-26.5	-27.9	15.7	2.20e-06	0	43	0	1027604480	13	4269
2026-01-02 01:37:38.36	253.08	22.99	-26.5	-27.9	15.7	0.00e+00	0	43	0	1030750208	13	4271
2026-01-02 01:37:39.37	252.91	22.87	-26.4	-28.3	15.7	0.00e+00	0	44	0	1033895936	12	4496
2026-01-02 01:37:40.37	252.74	22.76	-26.4	-27.9	15.6	0.00e+00	0	43	0	1037041664	13	4265
2026-01-02 01:37:41.38	252.57	22.64	-26.3	-28.1	15.8	0.00e+00	0	43	0	1040187392	12	4418
2026-01-02 01:37:42.38	252.41	22.53	-26.3	-28.0	15.9	0.00e+00	0	43	0	1043333120	12	4397
2026-01-02 01:37:43.39	252.24	22.41	-26.3	-28.0	15.9	2.20e-06	0	43	0	1046478848	12	4399
2026-01-02 01:37:44.39	252.08	22.29	-26.1	-27.7	16.0	0.00e+00	0	43	0	1049624576	12	4308
2026-01-02 01:37:45.40	251.91	22.18	-26.1	-27.7	16.0	0.00e+00	0	43	0	1052770304	12	4324
2026-01-02 01:37:46.40	251.75	22.06	-26.3	-28.1	15.8	0.00e+00	0	43	0	1055916032	12	4433
2026-01-02 01:37:47.41	251.59	21.95	-26.4	-28.3	15.7	0.00e+00	0	43	0	1059061760	12	4488
2026-01-02 01:37:48.41	251.43	21.84	-26.6	-28.3	15.4	0.00e+00	0	43	0	1062207488	13	4372
2026-01-02 01:37:49.42	251.28	21.72	-26.3	-27.7	15.7	4.50e-06	0	43	0	1065353216	13	4198
2026-01-02 01:37:50.42	251.12	21.61	-26.1	-27.8	16.0	0.00e+00	0	43	0	1068498944	12	4332
2026-01-02 01:37:51.43	250.96	21.49	-26.2	-27.8	16.0	0.00e+00	0	43	0	1071644672	12	4338
2026-01-02 01:37:52.43	250.81	21.38	-26.2	-28.0	15.8	0.00e+00	0	43	0	1074790400	12	4389
2026-01-02 01:37:53.43	250.66	21.27	-26.4	-28.3	15.7	0.00e+00	0	44	0	1077936128	12	4476
2026-01-02 01:37:54.44	250.51	21.16	-26.4	-28.4	15.6	0.00e+00	0	43	0	1081081856	12	4530
2026-01-02 01:37:55.44	250.36	21.05	-26.5	-28.5	15.5	0.00e+00	0	43	0	1084227584	12	4554
2026-01-02 01:37:56.45	250.20	20.93	-26.6	-28.2	15.4	0.00e+00	0	43	0	1087373312	13	4359
2026-01-02 01:37:57.46	250.06	20.82	-26.7	-28.4	15.3	0.00e+00	0	43	0	1090519040	13	4417
2026-01-02 01:37:58.46	249.91	20.71	-26.6	-28.3	15.4	0.00e+00	0	43	0	1093664768	13	4367
2026-01-02 01:37:59.47	249.76	20.60	-26.5	-28.1	15.4	0.00e+00	0	43	0	1096810496	13	4326
2026-01-02 01:38:00.47	249.62	20.49	-26.7	-28.4	15.3	7.00e-07	0	43	0	1099956224	13	4418
2026-01-02 01:38:01.47	249.47	20.38	-26.7	-28.5	15.2	0.00e+00	0	43	0	1103101952	13	4433
2026-01-02 01:38:02.47	249.33	20.27	-26.5	-28.1	15.5	0.00e+00	0	43	0	1106247680	13	4307
2026-01-02 01:38:03.47	249.19	20.16	-26.5	-28.1	15.4	0.00e+00	0	43	0	1109393408	13	4320
2026-01-02 01:38:04.47	249.05	20.05	-26.6	-28.2	15.4	0.00e+00	0	43	0	1112539136	13	4357
2026-01-02 01:38:05.48	248.91	19.94	-26.6	-28.2	15.4	0.00e+00	0	43	0	1115684864	13	4352
2026-01-02 01:38:06.47	248.77	19.83	-26.5	-28.1	15.5	0.00e+00	0	43	0	1118830592	13	4311
2026-01-02 01:38:07.48	248.63	19.72	-26.6	-28.2	15.4	0.00e+00	0	43	0	1121976320	13	4354
2026-01-02 01:38:08.48	248.49	19.61	-26.5	-28.0	15.5	0.00e+00	0	43	0	1125122048	13	4300
2026-01-02 01:38:09.49	248.36	19.51	-26.2	-27.9	15.8	0.00e+00	0	43	0	1128267776	12	4361
2026-01-02 01:38:10.49	248.22	19.40	-26.0	-27.4	16.1	0.00e+00	0	43	0	1131413504	12	4245
2026-01-02 01:38:11.49	248.09	19.29	-26.1	-27.7	14.5	0.00e+00	0	43	0	1134559232	12	4307
2026-01-02 01:38:12.49	247.96	19.19	-26.0	-27.4	16.1	0.00e+00	0	43	0	1137704960	12	4240
2026-01-02 01:38:13.50	247.82	19.08	-26.0	-27.4	16.0	0.00e+00	0	43	0	1140850688	12	4230
2026-01-02 01:38:14.51	247.69	18.97	-26.0	-27.9	16.0	0.00e+00	0	43	0	1143996416	11	4490
2026-01-02 01:38:15.51	247.56	18.86	-26.0	-27.4	16.0	0.00e+00	0	44	0	1147142144	12	4244
2026-01-02 01:38:16.52	247.43	18.76	-26.1	-27.6	15.9	0.00e+00	0	43	0	1150287872	12	4295
2026-01-02 01:38:17.52	247.30	18.65	-26.2	-28.0	15.7	0.00e+00	0	43	0	1153433600	12	4399
2026-01-02 01:38:18.52	247.18	18.55	-26.2	-28.0	15.7	0.00e+00	0	43	0	1156579328	12	4410
2026-01-02 01:38:19.52	247.05	18.44	-26.3	-28.1	15.6	0.00e+00	0	43	0	1159725056	12	4446
2026-01-02 01:38:20.53	246.92	18.34	-26.3	-28.1	15.6	0.00e+00	0	43	0	1162870784	12	4425
2026-01-02 01:38:21.54	246.80	18.23	-26.2	-27.9	15.8	0.00e+00	0	43	0	1166016512	12	4369
2026-01-02 01:38:22.54	246.67	18.13	-26.3	-28.0	15.6	2.58e-04	0	43	0	1169162240	12	4415
2026-01-02 01:38:23.54	246.55	18.03	-26.2	-28.1	15.6	0.00e+00	0	43	0	1172307968	12	4444
2026-01-02 01:38:24.54	246.43	17.92	-26.2	-27.8	15.8	0.00e+00	0	43	0	1175453696	12	4350
2026-01-02 01:38:25.55	246.31	17.82	-26.1	-27.7	15.8	0.00e+00	0	43	0	1178599424	12	4315
2026-01-02 01:38:26.56	246.18	17.71	-26.2	-27.9	15.7	0.00e+00	0	43	0	1181745152	12	4382
2026-01-02 01:38:27.56	246.06	17.61	-26.1	-27.7	15.8	0.00e+00	0	43	0	1184890880	12	4323
2026-01-02 01:38:28.56	245.95	17.51	-26.1	-27.7	15.8	2.71e-03	0	43	0	1188036608	12	4324
2026-01-02 01:38:29.56	245.83	17.41	-26.2	-27.9	15.7	0.00e+00	0	43	0	1191182336	12	4393
2026-01-02 01:38:30.57	245.71	17.31	-26.3	-28.1	15.6	0.00e+00	0	43	0	1194328064	12	4446
2026-01-02 01:38:31.58	245.59	17.20	-26.4	-28.3	15.5	0.00e+00	0	43	0	1197473792	12	4506
2026-01-02 01:38:32.58	245.48	17.10	-26.4	-28.4	15.5	0.00e+00	0	43	0	1200619520	12	4512
2026-01-02 01:38:33.58	245.36	17.00	-26.5	-28.5	15.4	3.41e-03	0	43	0	1203765248	12	4560
2026-01-02 01:38:34.58	245.25	16.90	-26.5	-28.1	15.3	4.07e-03	0	43	0	1206910976	13	4327
2026-01-02 01:38:35.59	245.13	16.80	-26.6	-28.2	15.3	4.07e-04	0	43	0	1210056704	13	4351
2026-01-02 01:38:36.59	245.02	16.70	-26.6	-28.3	15.2	0.00e+00	0	43	0	1213202432	13	4386
2026-01-02 01:38:37.60	244.91	16.60	-26.6	-28.3	15.2	3.78e-03	0	43	0	1216348160	13	4391
2026-01-02 01:38:38.60	244.80	16.50	-26.7	-28.5	15.0	1.57e-03	0	43	0	1219493888	13	4450
2026-01-02 01:38:39.60	244.69	16.40	-26.7	-28.6	15.0	3.30e-03	0	43	0	1222639616	13	4467
2026-01-02 01:38:40.60	244.58	16.31	-26.8	-28.8	14.9	3.89e-03	0	43	0	1225785344	13	4536
2026-01-02 01:38:41.60	244.47	16.21	-26.8	-28.8	14.9	7.00e-07	0	43	0	1228931072	13	4532
2026-01-02 01:38:42.60	244.36	16.11	-26.8	-28.7	14.9	4.27e-05	0	43	0	1232076800	13	4506
2026-01-02 01:38:43.60	244.26	16.01	-26.8	-28.9	14.8	2.01e-03	0	43	0	1235222528	13	4550
2026-01-02 01:38:44.61	244.15	15.91	-26.9	-29.0	14.8	2.14e-03	0	43	0	1238368256	13	4579
2026-01-02 01:38:45.61	244.04	15.82	-26.9	-29.1	14.7	3.77e-03	0	43	0	1241513984	13	4610
2026-01-02 01:38:46.61	243.94	15.72	-26.9	-29.1	14.7	6.23e-03	0	43	0	1244659712	13	4606
2026-01-02 01:38:47.62	243.83	15.62	-26.9	-29.0	14.7	0.00e+00	0	43	0	1247805440	13	4580
2026-01-02 01:38:48.62	243.73	15.53	-26.9	-29.0	14.7	4.68e-03	0	43	0	1250951168	13	4596
2026-01-02 01:38:49.63	243.62	15.43	-26.9	-29.0	14.8	6.70e-03	0	43	0	1254096896	13	4579
2026-01-02 01:38:50.63	243.52	15.33	-26.8	-28.8	14.9	2.76e-03	0	43	0	1257242624	13	4522
2026-01-02 01:38:51.63	243.42	15.24	-26.8	-28.9	14.8	5.29e-03	0	43	0	1260388352	13	4562
2026-01-02 01:38:52.64	243.32	15.14	-26.8	-28.8	14.8	5.79e-03	0	43	0	1263534080	13	4528
2026-01-02 01:38:53.65	243.22	15.05	-26.8	-28.9	14.7	3.69e-03	0	43	0	1266679808	13	4575
2026-01-02 01:38:54.65	243.12	14.95	-26.8	-28.7	14.8	5.93e-03	0	44	0	1269825536	13	4504
2026-01-02 01:38:55.65	243.02	14.86	-26.8	-28.8	14.8	7.43e-03	0	43	0	1272971264	13	4526
2026-01-02 01:38:56.66	242.92	14.76	-26.9	-28.9	14.7	3.55e-03	0	43	0	1276116992	13	4581
2026-01-02 01:38:57.67	242.82	14.67	-26.9	-29.0	14.7	0.00e+00	0	43	0	1279262720	13	4602
2026-01-02 01:38:58.66	242.72	14.58	-26.9	-29.1	14.6	4.96e-03	0	43	0	1282408448	13	4638
2026-01-02 01:38:59.67	242.63	14.48	-27.0	-28.8	14.5	2.96e-03	0	43	0	1285554176	14	4437
2026-01-02 01:39:00.68	242.53	14.39	-27.0	-29.2	14.5	4.03e-03	0	43	0	1288699904	13	4668
2026-01-02 01:39:01.68	242.43	14.30	-27.0	-28.8	14.5	5.66e-03	0	43	0	1291845632	14	4432
2026-01-02 01:39:02.68	242.34	14.20	-27.1	-29.1	14.4	9.81e-04	0	43	0	1294991360	14	4500
2026-01-02 01:39:03.69	242.24	14.11	-27.1	-28.9	14.4	0.00e+00	0	43	0	1298137088	14	4472
2026-01-02 01:39:04.70	242.15	14.02	-27.1	-29.0	14.4	7.00e-07	0	43	0	1301282816	14	4479
2026-01-02 01:39:05.70	242.06	13.93	-27.1	-29.1	14.3	1.70e-03	0	43	0	1304428544	14	4510
2026-01-02 01:39:06.71	241.96	13.83	-27.2	-29.3	14.2	3.66e-03	0	43	0	1307574272	14	4590
2026-01-02 01:39:07.72	241.87	13.74	-27.2	-29.2	14.2	9.00e-04	0	43	0	1310720000	14	4550
2026-01-02 01:39:08.72	241.78	13.65	-27.1	-29.0	14.3	8.25e-04	0	43	0	1313865728	14	4483
2026-01-02 01:39:09.73	241.69	13.56	-27.1	-29.1	14.3	1.50e-06	0	43	0	1317011456	14	4504
2026-01-02 01:39:10.73	241.60	13.47	-27.0	-28.8	14.4	3.26e-03	0	43	0	1319108608	14	4442
2026-01-02 01:39:11.72	241.51	13.38	-26.9	-29.2	14.5	1.34e-03	0	43	0	1322254336	13	4659
2026-01-02 01:39:12.73	241.42	13.29	-26.8	-28.9	14.6	1.50e-06	0	43	0	1325400064	13	4584
2026-01-02 01:39:13.73	241.33	13.20	-26.8	-28.8	14.7	6.42e-04	0	43	0	1328545792	13	4550
2026-01-02 01:39:14.73	241.24	13.11	-26.9	-29.1	14.5	6.18e-04	0	43	0	1331691520	13	4631
2026-01-02 01:39:15.73	241.16	13.02	-26.8	-28.9	14.6	4.50e-06	0	44	0	1334837248	13	4554
2026-01-02 01:39:16.74	241.07	12.93	-26.7	-28.6	14.8	3.88e-03	0	43	0	1337982976	13	4482
2026-01-02 01:39:17.73	240.98	12.85	-26.7	-28.6	14.8	6.87e-04	0	43	0	1341128704	13	4468
2026-01-02 01:39:18.73	240.90	12.76	-26.7	-28.5	14.8	7.60e-06	0	43	0	1344274432	13	4462
2026-01-02 01:39:19.74	240.81	12.67	-26.8	-28.8	14.7	6.23e-04	0	43	0	1347420160	13	4525
2026-01-02 01:39:20.74	240.73	12.58	-26.7	-28.6	14.8	0.00e+00	0	43	0	1350565888	13	4479
2026-01-02 01:39:21.74	240.64	12.50	-26.7	-28.6	14.8	0.00e+00	0	43	0	1353711616	13	4492
2026-01-02 01:39:22.74	240.56	12.41	-26.8	-28.8	14.7	5.03e-04	0	43	0	1356857344	13	4535
2026-01-02 01:39:23.74	240.48	12.32	-26.8	-28.8	14.7	4.18e-04	0	43	0	1360003072	13	4535
2026-01-02 01:39:24.74	240.40	12.23	-26.9	-29.1	14.5	4.50e-06	0	43	0	1363148800	13	4625
2026-01-02 01:39:25.74	240.31	12.15	-27.0	-28.8	14.4	3.58e-04	0	43	0	1366294528	14	4440
2026-01-02 01:39:26.74	240.23	12.06	-27.2	-29.4	14.0	2.20e-06	0	43	0	1369440256	14	4597
2026-01-02 01:39:27.74	240.15	11.98	-27.2	-29.4	14.0	3.80e-06	0	43	0	1372585984	14	4600
2026-01-02 01:39:28.75	240.07	11.89	-27.2	-29.3	14.0	2.89e-04	0	43	0	1375731712	14	4600
2026-01-02 01:39:29.74	239.99	11.81	-27.3	-29.5	14.0	2.24e-04	0	43	0	1378877440	14	4631
2026-01-02 01:39:30.74	239.91	11.72	-27.3	-29.5	13.9	4.50e-06	0	43	0	1382023168	14	4634
2026-01-02 01:39:31.75	239.83	11.63	-27.4	-29.7	13.8	1.50e-06	0	43	0	1385168896	14	4715
2026-01-02 01:39:32.75	239.75	11.55	-27.5	-30.0	13.6	6.10e-06	0	44	0	1388314624	14	4805
2026-01-02 01:39:33.75	239.67	11.47	-27.3	-29.2	13.8	9.10e-06	0	43	0	1391460352	15	4442
2026-01-02 01:39:34.76	239.60	11.38	-27.3	-29.5	13.9	2.39e-04	0	43	0	1394606080	14	4661
2026-01-02 01:39:35.75	239.52	11.30	-27.4	-29.8	13.7	2.52e-04	0	43	0	1397751808	14	4758
2026-01-02 01:39:36.75	239.44	11.21	-27.4	-29.7	13.7	7.00e-07	0	43	0	1400897536	14	4728
2026-01-02 01:39:37.76	239.36	11.13	-27.4	-29.9	13.7	3.00e-06	0	43	0	1404043264	14	4762
2026-01-02 01:39:38.76	239.29	11.05	-27.5	-29.6	13.5	2.58e-04	0	43	0	1407188992	15	4588
2026-01-02 01:39:39.76	239.21	10.96	-27.6	-29.8	13.4	1.83e-05	0	43	0	1410334720	15	4625
2026-01-02 01:39:40.76	239.14	10.88	-27.6	-29.8	13.4	2.65e-04	0	43	0	1413480448	15	4627
2026-01-02 01:39:41.76	239.06	10.80	-27.5	-29.6	13.5	2.60e-04	0	43	0	1416626176	15	4576
2026-01-02 01:39:42.76	238.99	10.72	-27.7	-30.0	13.2	2.28e-05	0	43	0	1419771904	15	4707
2026-01-02 01:39:43.76	238.92	10.63	-27.7	-29.9	13.3	1.90e-05	0	43	0	1422917632	15	4674
2026-01-02 01:39:44.76	238.84	10.55	-27.6	-29.7	13.5	2.90e-04	0	43	0	1426063360	15	4600
2026-01-02 01:39:45.77	238.77	10.47	-27.6	-29.7	13.4	8.30e-06	0	43	0	1429209088	15	4610
2026-01-02 01:39:46.78	238.70	10.39	-27.5	-29.6	13.4	2.72e-04	0	43	0	1432354816	15	4584
2026-01-02 01:39:47.78	238.62	10.31	-27.7	-30.0	13.2	2.13e-05	0	43	0	1435500544	15	4708
2026-01-02 01:39:48.78	238.55	10.23	-27.6	-29.7	13.4	1.52e-05	0	43	0	1438646272	15	4617
2026-01-02 01:39:49.79	238.48	10.14	-27.5	-29.5	13.5	6.10e-06	0	43	0	1441792000	15	4540
2026-01-02 01:39:50.79	238.41	10.06	-27.4	-29.2	13.7	2.33e-04	0	43	0	1444937728	15	4457
2026-01-02 01:39:51.80	238.34	9.98	-27.3	-29.7	13.7	2.20e-06	0	43	0	1448083456	14	4706
2026-01-02 01:39:52.81	238.27	9.90	-27.3	-29.7	13.7	2.20e-04	0	43	0	1451229184	14	4700
2026-01-02 01:39:53.81	238.20	9.82	-27.3	-29.5	13.8	3.80e-06	0	43	0	1454374912	14	4655
2026-01-02 01:39:54.81	238.13	9.74	-27.4	-29.9	13.5	1.22e-05	0	43	0	1457520640	14	4783
2026-01-02 01:39:55.81	238.06	9.66	-27.4	-29.7	13.6	2.31e-04	0	43	0	1460666368	14	4725
2026-01-02 01:39:56.81	237.99	9.58	-27.3	-29.7	13.7	1.72e-04	0	43	0	1463812096	14	4709
2026-01-02 01:39:57.81	237.92	9.50	-27.3	-29.7	13.7	8.30e-06	0	43	0	1466957824	14	4713
2026-01-02 01:39:58.81	237.86	9.43	-27.5	-29.6	13.4	1.14e-05	0	43	0	1470103552	15	4565
2026-01-02 01:39:59.81	237.79	9.35	-27.6	-29.9	13.2	1.52e-05	0	43	0	1473249280	15	4667
2026-01-02 01:40:00.81	237.72	9.27	-27.5	-29.6	13.4	1.75e-05	0	44	0	1476395008	15	4570
2026-01-02 01:40:01.82	237.65	9.19	-27.6	-29.9	13.2	2.75e-04	0	43	0	1479540736	15	4682
2026-01-02 01:40:02.82	237.59	9.11	-27.6	-29.8	13.3	3.11e-04	0	43	0	1482686464	15	4648
2026-01-02 01:40:03.83	237.52	9.03	-27.5	-29.5	13.4	1.52e-05	0	43	0	1485832192	15	4554
2026-01-02 01:40:04.83	237.46	8.96	-27.5	-29.7	13.3	1.52e-05	0	43	0	1488977920	15	4608
2026-01-02 01:40:05.84	237.39	8.88	-27.5	-29.7	13.3	1.90e-05	0	43	0	1492123648	15	4603
2026-01-02 01:40:06.84	237.32	8.80	-27.5	-29.6	13.3	1.29e-05	0	44	0	1495269376	15	4597
2026-01-02 01:40:07.84	237.26	8.72	-27.6	-29.9	13.2	4.50e-04	0	43	0	1498415104	15	4669
2026-01-02 01:40:08.85	237.20	8.65	-27.6	-29.8	13.2	4.87e-04	0	43	0	1501560832	15	4641
2026-01-02 01:40:09.85	237.13	8.57	-27.7	-30.1	13.0	4.50e-05	0	43	0	1504706560	15	4764
2026-01-02 01:40:10.86	237.07	8.49	-27.8	-30.4	12.8	6.02e-05	0	43	0	1507852288	15	4840
2026-01-02 01:40:11.87	237.00	8.42	-27.8	-30.3	12.9	3.89e-05	0	43	0	1510998016	15	4815
2026-01-02 01:40:12.87	236.94	8.34	-28.2	-30.9	12.3	1.32e-04	0	43	0	1514143744	16	4895
2026-01-02 01:40:13.87	236.88	8.26	-28.2	-30.8	12.4	7.29e-04	0	43	0	1517289472	16	4838
2026-01-02 01:40:14.88	236.82	8.19	-28.3	-31.0	12.2	6.29e-04	0	43	0	1520435200	16	4926
2026-01-02 01:40:15.88	236.76	8.11	-28.2	-30.7	12.5	1.52e-04	0	43	0	1523580928	16	4829
2026-01-02 01:40:16.88	236.69	8.04	-27.9	-30.7	12.6	8.62e-05	0	43	0	1526726656	15	4949
2026-01-02 01:40:17.88	236.63	7.96	-28.2	-30.9	12.3	1.85e-04	0	43	0	1529872384	16	4881
2026-01-02 01:40:18.88	236.57	7.89	-28.1	-30.5	12.5	1.08e-04	0	43	0	1533018112	16	4770
2026-01-02 01:40:19.89	236.51	7.81	-28.1	-30.6	12.5	5.61e-04	0	43	0	1536163840	16	4806
2026-01-02 01:40:20.89	236.45	7.74	-28.1	-30.7	12.4	1.41e-04	0	43	0	1539309568	16	4817
2026-01-02 01:40:21.89	236.39	7.66	-28.4	-31.3	12.0	2.30e-04	0	43	0	1542455296	16	5041
2026-01-02 01:40:22.90	236.33	7.59	-28.3	-31.1	12.1	2.90e-04	0	43	0	1545601024	16	4963
2026-01-02 01:40:23.90	236.27	7.51	-28.4	-31.3	12.0	2.08e-04	0	43	0	1548746752	16	5020
2026-01-02 01:40:24.90	236.21	7.44	-28.5	-31.2	11.8	4.06e-04	0	43	0	1551892480	17	4891
2026-01-02 01:40:25.90	236.16	7.37	-28.5	-31.1	11.8	8.64e-04	0	43	0	1555038208	17	4863
2026-01-02 01:40:26.91	236.10	7.29	-28.3	-30.6	12.1	3.28e-04	0	43	0	1558183936	17	4692
2026-01-02 01:40:27.91	236.04	7.22	-28.3	-31.1	12.1	2.86e-04	0	43	0	1561329664	16	4975
2026-01-02 01:40:28.92	235.98	7.15	-28.2	-30.9	12.2	1.81e-04	0	43	0	1564475392	16	4886
2026-01-02 01:40:29.92	235.92	7.07	-32.0	-43.8	3.8	1.49e+00	0	43	104	1565523968	24	14036
2026-01-02 01:40:30.92	235.87	7.00	-31.8	-43.6	3.8	1.49e+00	0	43	104	1565523968	25	14011

#Closed at: 2026-01-02 01:40:31
#Recorded file [1565 MB]: D:/data/31010_260102_043208.dat