passes_logs/2026/01/02/R2M6_AANII_01/R2M6_AANII_01__20260102_003855_AQUA_rec.log

#Pass ID: 20260102_003855_AQUA
#Satellite: AQUA
#Configuration: AQUA
#almurnet v.1.7.20240730
#Start time: 2026-01-02 00:38:57

#Version: 2.2.20231116
#Station: R2M6_AANII_01
#Location: 30.233357 lon 59.946436 lat
#TLE: 1 27424U 02022A   25365.92641127  .00002078  00000+0  42628-3 0  9999
#TLE: 2 27424  98.4058 327.1196 0001962  94.7781 340.6230 14.61783896258835

#Time	Az	El	Level	Level2	SNR	BER	BlckErr	Temp	State	Recorded	gain1	gain2
2026-01-02 00:38:57.22	30.33	7.12	-31.3	-39.5	4.9	7.16e-01	0	41	0	0	23	9209
2026-01-02 00:38:58.21	30.43	7.18	-31.7	-40.8	4.8	7.15e-01	0	41	104	0	24	10363
2026-01-02 00:38:59.22	30.53	7.25	-31.7	-40.6	10.0	6.21e-01	0	41	0	0	24	10003
2026-01-02 00:39:00.22	30.63	7.32	-31.8	-41.4	9.4	6.26e-01	0	41	0	1572864	24	10801
2026-01-02 00:39:01.22	30.73	7.39	-31.8	-41.2	9.6	6.27e-01	0	41	0	3670016	24	10584
2026-01-02 00:39:02.23	30.83	7.46	-31.9	-41.4	9.4	6.25e-01	0	41	0	5242880	24	10770
2026-01-02 00:39:03.23	30.93	7.53	-31.8	-41.1	9.8	6.26e-01	0	41	0	7340032	24	10462
2026-01-02 00:39:04.24	31.04	7.60	-31.8	-40.8	10.0	6.18e-01	0	41	0	9437184	24	10082
2026-01-02 00:39:05.24	31.14	7.67	-29.6	-39.6	10.5	6.17e-01	0	41	0	11010048	21	11306
2026-01-02 00:39:06.25	31.24	7.74	-29.5	-40.6	9.8	6.22e-01	0	41	0	13107200	20	12886
2026-01-02 00:39:07.26	31.35	7.81	-29.4	-41.2	9.6	6.24e-01	0	41	0	14680064	19	13957
2026-01-02 00:39:08.25	31.45	7.88	-29.3	-40.5	10.2	6.20e-01	0	41	0	16777216	19	13029
2026-01-02 00:39:09.26	31.56	7.96	-31.6	-39.5	11.2	6.16e-01	0	41	0	18350080	24	8920
2026-01-02 00:39:10.26	31.66	8.03	-31.6	-39.8	10.9	6.14e-01	0	41	0	20447232	24	9233
2026-01-02 00:39:11.27	31.77	8.10	-31.7	-40.1	10.6	6.17e-01	0	41	0	22544384	24	9472
2026-01-02 00:39:12.27	31.87	8.17	-31.6	-39.6	11.1	6.17e-01	0	41	0	24117248	24	9079
2026-01-02 00:39:13.27	31.98	8.24	-31.4	-38.8	12.1	6.07e-01	0	41	0	26214400	23	8483
2026-01-02 00:39:14.27	32.09	8.31	-31.3	-38.0	12.9	6.07e-01	0	41	0	27787264	23	7847
2026-01-02 00:39:15.27	32.20	8.38	-31.1	-37.0	13.7	6.05e-01	0	41	0	29884416	23	7141
2026-01-02 00:39:16.28	32.31	8.45	-30.9	-36.8	14.3	6.04e-01	0	41	0	31981568	22	7102
2026-01-02 00:39:17.28	32.41	8.53	-30.7	-36.0	14.9	6.06e-01	0	41	0	33554432	22	6634
2026-01-02 00:39:18.28	32.52	8.60	-30.5	-35.3	15.5	6.03e-01	0	41	0	35651584	22	6236
2026-01-02 00:39:19.29	32.63	8.67	-30.4	-34.9	15.7	6.03e-01	0	41	0	37224448	22	6060
2026-01-02 00:39:20.29	32.75	8.74	-30.3	-35.1	16.0	6.03e-01	0	41	0	39321600	21	6253
2026-01-02 00:39:21.29	32.86	8.82	-30.4	-35.2	16.0	6.03e-01	0	41	0	41418752	21	6320
2026-01-02 00:39:22.29	32.97	8.89	-30.5	-35.7	15.6	6.03e-01	0	41	0	42991616	21	6557
2026-01-02 00:39:23.30	33.08	8.96	-30.0	-34.0	16.9	6.02e-01	0	42	0	45088768	21	5693
2026-01-02 00:39:24.29	33.19	9.03	-29.7	-33.6	17.4	6.02e-01	0	41	0	46661632	20	5620
2026-01-02 00:39:25.29	33.31	9.11	-29.6	-33.2	17.8	6.02e-01	0	41	0	48758784	20	5469
2026-01-02 00:39:26.29	33.42	9.18	-29.5	-32.8	18.0	6.01e-01	0	42	0	50331648	20	5281
2026-01-02 00:39:27.29	33.54	9.25	-29.5	-33.4	18.1	6.03e-01	0	42	0	52428800	19	5615
2026-01-02 00:39:28.30	33.65	9.33	-29.5	-33.4	18.2	6.03e-01	0	42	0	54525952	19	5603
2026-01-02 00:39:29.30	33.77	9.40	-29.5	-33.2	18.2	6.02e-01	0	42	0	56098816	19	5551
2026-01-02 00:39:30.30	33.89	9.47	-29.5	-33.2	18.2	6.03e-01	0	42	0	58195968	19	5538
2026-01-02 00:39:31.30	34.00	9.55	-29.5	-33.2	18.1	6.04e-01	0	42	0	59768832	19	5548
2026-01-02 00:39:32.30	34.12	9.62	-29.5	-33.2	18.2	6.04e-01	0	42	0	61865984	19	5542
2026-01-02 00:39:33.30	34.24	9.70	-29.5	-33.3	18.2	6.04e-01	0	42	0	63438848	19	5566
2026-01-02 00:39:34.29	34.36	9.77	-29.5	-33.3	18.2	6.04e-01	0	42	0	65536000	19	5595
2026-01-02 00:39:35.29	34.48	9.84	-29.5	-33.3	18.1	6.04e-01	0	42	0	67633152	19	5583
2026-01-02 00:39:36.30	34.60	9.92	-29.4	-33.2	18.1	6.02e-01	0	42	0	69206016	19	5556
2026-01-02 00:39:37.30	34.72	9.99	-29.4	-33.1	18.3	6.02e-01	0	42	0	71303168	19	5507
2026-01-02 00:39:38.30	34.84	10.07	-29.3	-32.9	18.4	6.02e-01	0	42	0	72876032	19	5419
2026-01-02 00:39:39.31	34.96	10.14	-29.3	-32.9	18.5	6.04e-01	0	42	0	74973184	19	5418
2026-01-02 00:39:40.31	35.09	10.22	-29.3	-32.9	18.4	6.03e-01	0	42	0	76546048	19	5443
2026-01-02 00:39:41.32	35.21	10.30	-29.3	-32.8	18.5	6.03e-01	0	42	0	78643200	19	5400
2026-01-02 00:39:42.32	35.33	10.37	-29.4	-33.0	18.4	6.02e-01	0	42	0	80740352	19	5455
2026-01-02 00:39:43.33	35.46	10.45	-29.3	-32.8	18.5	6.05e-01	0	42	0	82313216	19	5401
2026-01-02 00:39:44.33	35.59	10.52	-29.4	-32.9	18.5	6.03e-01	0	42	0	84410368	19	5433
2026-01-02 00:39:45.32	35.71	10.60	-29.4	-33.0	18.4	6.03e-01	0	42	0	86507520	19	5467
2026-01-02 00:39:46.32	35.84	10.67	-29.5	-33.2	18.3	6.02e-01	0	42	0	88080384	19	5524
2026-01-02 00:39:47.32	35.97	10.75	-29.3	-32.8	18.6	6.02e-01	0	42	0	90177536	19	5347
2026-01-02 00:39:48.33	36.10	10.83	-29.3	-32.8	18.6	6.04e-01	0	42	0	91750400	19	5343
2026-01-02 00:39:49.33	36.22	10.90	-29.3	-32.8	18.6	6.02e-01	0	42	0	93847552	19	5357
2026-01-02 00:39:50.33	36.35	10.98	-29.4	-32.9	18.5	6.05e-01	0	42	0	95420416	19	5382
2026-01-02 00:39:51.33	36.48	11.06	-29.5	-33.2	18.4	6.03e-01	0	42	0	97517568	19	5505
2026-01-02 00:39:52.34	36.62	11.14	-29.4	-33.0	18.5	6.04e-01	0	42	0	99614720	19	5452
2026-01-02 00:39:53.34	36.75	11.21	-29.5	-33.1	18.4	6.03e-01	0	42	0	101187584	19	5469
2026-01-02 00:39:54.35	36.88	11.29	-29.5	-33.2	18.3	6.03e-01	0	42	0	103284736	19	5523
2026-01-02 00:39:55.35	37.02	11.37	-29.6	-32.9	18.1	6.03e-01	0	42	0	104857600	20	5316
2026-01-02 00:39:56.36	37.15	11.45	-29.5	-33.1	18.4	6.01e-01	0	42	0	106954752	19	5484
2026-01-02 00:39:57.36	37.29	11.52	-29.5	-33.1	18.4	6.01e-01	0	42	0	108527616	19	5461
2026-01-02 00:39:58.37	37.42	11.60	-29.5	-33.2	18.3	6.04e-01	0	42	0	110624768	19	5533
2026-01-02 00:39:59.36	37.56	11.68	-29.5	-33.2	18.4	6.03e-01	0	42	0	112721920	19	5520
2026-01-02 00:40:00.37	37.70	11.76	-29.5	-32.8	18.2	6.03e-01	0	42	0	114294784	20	5267
2026-01-02 00:40:01.36	37.83	11.84	-29.6	-33.1	18.0	6.03e-01	0	42	0	116391936	20	5389
2026-01-02 00:40:02.36	37.97	11.91	-29.7	-33.2	17.9	6.04e-01	0	42	0	117964800	20	5418
2026-01-02 00:40:03.37	38.11	11.99	-29.4	-32.6	18.3	6.04e-01	0	42	0	120061952	20	5175
2026-01-02 00:40:04.37	38.25	12.07	-29.3	-32.2	18.6	6.03e-01	0	42	0	122159104	20	5040
2026-01-02 00:40:05.38	38.39	12.15	-29.3	-32.3	18.6	6.02e-01	0	42	0	123731968	20	5048
2026-01-02 00:40:06.39	38.54	12.23	-29.4	-32.4	18.6	6.02e-01	0	42	0	125829120	20	5091
2026-01-02 00:40:07.40	38.68	12.31	-29.3	-32.3	18.6	6.03e-01	0	42	0	127401984	20	5050
2026-01-02 00:40:08.40	38.83	12.39	-29.4	-33.0	18.5	6.01e-01	0	42	0	129499136	19	5439
2026-01-02 00:40:09.40	38.97	12.47	-29.2	-32.5	18.8	6.02e-01	0	42	0	131596288	19	5229
2026-01-02 00:40:10.39	39.11	12.55	-29.1	-32.2	19.0	6.02e-01	0	42	0	133169152	19	5120
2026-01-02 00:40:11.40	39.26	12.63	-29.1	-32.1	19.1	6.03e-01	0	42	0	135266304	19	5093
2026-01-02 00:40:12.41	39.41	12.71	-29.1	-32.1	19.1	6.01e-01	0	42	0	136839168	19	5091
2026-01-02 00:40:13.42	39.56	12.79	-29.1	-32.1	19.1	6.04e-01	0	42	0	138936320	19	5095
2026-01-02 00:40:14.42	39.71	12.87	-29.1	-32.1	19.1	6.02e-01	0	43	0	140509184	19	5104
2026-01-02 00:40:15.42	39.85	12.95	-29.1	-32.2	19.1	6.02e-01	0	42	0	142606336	19	5129
2026-01-02 00:40:16.42	40.00	13.03	-29.1	-32.1	19.1	6.04e-01	0	42	0	144703488	19	5107
2026-01-02 00:40:17.42	40.15	13.11	-29.1	-32.2	19.0	6.03e-01	0	42	0	146276352	19	5110
2026-01-02 00:40:18.42	40.31	13.19	-29.2	-32.3	19.0	6.02e-01	0	42	0	148373504	19	5180
2026-01-02 00:40:19.43	40.46	13.27	-29.1	-32.1	19.1	6.05e-01	0	42	0	150470656	19	5070
2026-01-02 00:40:20.43	40.61	13.35	-29.1	-32.1	19.1	6.03e-01	0	42	0	152043520	19	5101
2026-01-02 00:40:21.43	40.77	13.43	-29.1	-32.0	19.1	6.01e-01	0	42	0	154140672	19	5041
2026-01-02 00:40:22.43	40.92	13.52	-28.9	-31.6	19.4	6.02e-01	0	42	0	155713536	19	4893
2026-01-02 00:40:23.43	41.08	13.60	-28.9	-31.6	19.5	6.02e-01	0	42	0	157810688	19	4898
2026-01-02 00:40:24.44	41.24	13.68	-28.9	-31.6	19.3	6.02e-01	0	42	0	159383552	19	4902
2026-01-02 00:40:25.43	41.39	13.76	-28.9	-31.5	19.2	6.03e-01	0	42	0	161480704	19	4882
2026-01-02 00:40:26.44	41.55	13.84	-29.0	-31.8	19.4	6.02e-01	0	42	0	163577856	19	4969
2026-01-02 00:40:27.44	41.71	13.92	-29.0	-31.8	19.1	6.04e-01	0	42	0	165150720	19	4962
2026-01-02 00:40:28.44	41.87	14.01	-29.0	-32.3	19.3	6.03e-01	0	42	0	167247872	18	5265
2026-01-02 00:40:29.44	42.04	14.09	-29.0	-32.3	19.4	6.02e-01	0	42	0	168820736	18	5261
2026-01-02 00:40:30.44	42.20	14.17	-28.9	-32.1	19.5	6.01e-01	0	42	0	170917888	18	5168
2026-01-02 00:40:31.44	42.36	14.25	-29.0	-32.2	19.5	6.02e-01	0	42	0	172490752	18	5209
2026-01-02 00:40:32.45	42.53	14.33	-28.9	-32.1	19.6	6.01e-01	0	42	0	174587904	18	5168
2026-01-02 00:40:33.45	42.69	14.42	-28.9	-32.1	19.5	6.03e-01	0	42	0	176685056	18	5188
2026-01-02 00:40:34.45	42.86	14.50	-28.9	-32.1	19.6	6.02e-01	0	43	0	178257920	18	5195
2026-01-02 00:40:35.45	43.03	14.58	-28.9	-32.1	19.6	6.03e-01	0	42	0	180355072	18	5166
2026-01-02 00:40:36.46	43.20	14.66	-28.9	-32.1	19.6	6.04e-01	0	42	0	181927936	18	5164
2026-01-02 00:40:37.46	43.37	14.75	-28.9	-32.0	19.6	6.03e-01	0	43	0	184025088	18	5154
2026-01-02 00:40:38.47	43.54	14.83	-28.9	-31.9	19.7	6.04e-01	0	42	0	185597952	18	5106
2026-01-02 00:40:39.47	43.71	14.91	-28.9	-31.9	19.7	6.04e-01	0	43	0	187695104	18	5100
2026-01-02 00:40:40.47	43.88	15.00	-28.9	-31.9	19.7	6.02e-01	0	43	0	189792256	18	5104
2026-01-02 00:40:41.47	44.05	15.08	-28.9	-31.9	19.7	6.01e-01	0	43	0	191365120	18	5119
2026-01-02 00:40:42.47	44.23	15.16	-28.9	-32.0	19.6	6.03e-01	0	43	0	193462272	18	5146
2026-01-02 00:40:43.48	44.40	15.25	-29.0	-32.2	19.5	6.05e-01	0	43	0	195559424	18	5204
2026-01-02 00:40:44.48	44.58	15.33	-28.9	-32.1	19.6	6.02e-01	0	43	0	197132288	18	5158
2026-01-02 00:40:45.48	44.76	15.41	-29.0	-32.3	19.4	6.03e-01	0	43	0	199229440	18	5244
2026-01-02 00:40:46.48	44.94	15.50	-28.9	-32.0	19.6	6.02e-01	0	43	0	200802304	18	5142
2026-01-02 00:40:47.49	45.12	15.58	-28.9	-31.9	19.7	6.04e-01	0	43	0	202899456	18	5105
2026-01-02 00:40:48.49	45.30	15.66	-28.8	-31.7	19.8	6.02e-01	0	43	0	204472320	18	5037
2026-01-02 00:40:49.50	45.48	15.75	-28.9	-31.9	19.8	6.03e-01	0	43	0	206569472	18	5079
2026-01-02 00:40:50.50	45.66	15.83	-28.8	-31.7	19.8	5.99e-01	0	43	0	208666624	18	5037
2026-01-02 00:40:51.50	45.85	15.92	-28.8	-31.8	19.9	6.03e-01	0	43	0	210239488	18	5051
2026-01-02 00:40:52.51	46.03	16.00	-28.8	-31.7	19.9	6.02e-01	0	43	0	212336640	18	5011
2026-01-02 00:40:53.51	46.22	16.08	-28.9	-31.9	19.8	6.03e-01	0	43	0	213909504	18	5093
2026-01-02 00:40:54.51	46.40	16.17	-29.0	-32.2	19.6	6.03e-01	0	42	0	216006656	18	5183
2026-01-02 00:40:55.51	46.59	16.25	-29.0	-32.2	19.6	6.02e-01	0	43	0	217579520	18	5188
2026-01-02 00:40:56.52	46.78	16.34	-28.9	-32.0	19.7	6.01e-01	0	43	0	219676672	18	5146
2026-01-02 00:40:57.52	46.97	16.42	-28.9	-31.9	19.7	6.01e-01	0	43	0	221773824	18	5108
2026-01-02 00:40:58.53	47.17	16.51	-28.9	-31.9	19.8	6.02e-01	0	43	0	223346688	18	5093
2026-01-02 00:40:59.53	47.36	16.59	-28.9	-32.0	19.7	6.01e-01	0	43	0	225443840	18	5110
2026-01-02 00:41:00.53	47.55	16.67	-28.9	-32.0	19.7	6.04e-01	0	43	0	227016704	18	5118
2026-01-02 00:41:01.53	47.75	16.76	-29.0	-32.1	19.6	6.02e-01	0	43	0	229113856	18	5153
2026-01-02 00:41:02.53	47.94	16.84	-29.0	-32.1	19.6	6.03e-01	0	43	0	231211008	18	5170
2026-01-02 00:41:03.54	48.14	16.93	-29.0	-32.1	19.7	6.04e-01	0	42	0	232783872	18	5143
2026-01-02 00:41:04.54	48.34	17.01	-28.8	-31.7	20.0	6.02e-01	0	43	0	234881024	18	5007
2026-01-02 00:41:05.54	48.54	17.10	-28.8	-31.7	19.9	6.03e-01	0	42	0	236453888	18	4998
2026-01-02 00:41:06.54	48.74	17.18	-28.8	-31.6	20.0	6.02e-01	0	43	0	238551040	18	4985
2026-01-02 00:41:07.54	48.94	17.26	-28.8	-31.6	20.0	6.03e-01	0	43	0	240648192	18	4971
2026-01-02 00:41:08.54	49.14	17.35	-28.8	-31.7	20.0	6.03e-01	0	43	0	242221056	18	5002
2026-01-02 00:41:09.54	49.35	17.43	-28.8	-31.7	19.9	6.01e-01	0	43	0	244318208	18	5005
2026-01-02 00:41:10.53	49.55	17.52	-28.8	-31.7	19.9	6.03e-01	0	43	0	245891072	18	5022
2026-01-02 00:41:11.53	49.75	17.60	-28.8	-31.6	20.0	6.04e-01	0	43	0	247988224	18	4976
2026-01-02 00:41:12.53	49.96	17.68	-28.8	-31.7	19.9	6.04e-01	0	43	0	249561088	18	5021
2026-01-02 00:41:13.54	50.17	17.77	-28.8	-31.7	19.9	6.03e-01	0	43	0	251658240	18	5022
2026-01-02 00:41:14.55	50.38	17.85	-28.7	-31.4	20.1	6.06e-01	0	43	0	253755392	18	4895
2026-01-02 00:41:15.55	50.59	17.94	-28.7	-31.5	20.0	6.01e-01	0	43	0	255328256	18	4933
2026-01-02 00:41:16.55	50.81	18.02	-28.8	-31.7	19.9	6.02e-01	0	43	0	257425408	18	5013
2026-01-02 00:41:17.55	51.02	18.11	-28.8	-31.7	19.9	6.02e-01	0	43	0	258998272	18	5017
2026-01-02 00:41:18.57	51.24	18.19	-28.8	-31.5	20.0	6.01e-01	0	43	0	261095424	18	4959
2026-01-02 00:41:19.57	51.46	18.28	-28.7	-31.4	20.1	6.03e-01	0	43	0	263192576	18	4912
2026-01-02 00:41:20.58	51.67	18.36	-28.8	-31.7	20.0	6.03e-01	0	43	0	264765440	18	5010
2026-01-02 00:41:21.59	51.90	18.45	-28.9	-31.8	19.9	6.05e-01	0	43	0	266862592	18	5049
2026-01-02 00:41:22.59	52.11	18.53	-28.9	-31.9	19.8	6.02e-01	0	43	0	268435456	18	5080
2026-01-02 00:41:23.59	52.34	18.61	-29.0	-32.1	19.7	6.02e-01	0	43	0	270532608	18	5142
2026-01-02 00:41:24.59	52.56	18.70	-28.9	-31.8	19.9	6.03e-01	0	43	0	272629760	18	5055
2026-01-02 00:41:25.59	52.78	18.78	-28.9	-31.8	19.9	6.01e-01	0	43	0	274202624	18	5057
2026-01-02 00:41:26.60	53.01	18.86	-28.9	-32.0	19.8	6.03e-01	0	43	0	276299776	18	5130
2026-01-02 00:41:27.59	53.23	18.95	-29.0	-32.0	19.8	6.02e-01	0	43	0	277872640	18	5132
2026-01-02 00:41:28.60	53.46	19.03	-29.0	-32.3	19.6	6.03e-01	0	43	0	279969792	18	5211
2026-01-02 00:41:29.60	53.69	19.11	-29.2	-32.2	19.3	6.04e-01	0	43	0	281542656	19	5085
2026-01-02 00:41:30.60	53.92	19.20	-29.3	-32.3	19.3	6.03e-01	0	43	0	283639808	19	5109
2026-01-02 00:41:31.61	54.15	19.28	-29.1	-31.9	19.5	6.03e-01	0	43	0	285736960	19	4969
2026-01-02 00:41:32.61	54.39	19.36	-29.0	-31.5	19.8	6.02e-01	0	43	0	287309824	19	4839
2026-01-02 00:41:33.62	54.62	19.45	-29.1	-31.8	19.7	5.99e-01	0	43	0	289406976	19	4921
2026-01-02 00:41:34.61	54.85	19.53	-29.1	-31.7	19.8	6.02e-01	0	43	0	290979840	19	4883
2026-01-02 00:41:35.62	55.09	19.61	-29.0	-31.6	19.9	6.03e-01	0	43	0	293076992	19	4859
2026-01-02 00:41:36.62	55.33	19.69	-29.2	-32.0	19.7	6.05e-01	0	43	0	295174144	19	4986
2026-01-02 00:41:37.63	55.57	19.77	-29.1	-31.9	19.7	6.02e-01	0	43	0	296747008	19	4941
2026-01-02 00:41:38.63	55.81	19.86	-29.0	-31.5	19.9	6.03e-01	0	43	0	298844160	19	4821
2026-01-02 00:41:39.64	56.06	19.94	-29.0	-31.4	20.0	6.00e-01	0	43	0	300417024	19	4797
2026-01-02 00:41:40.64	56.30	20.02	-29.0	-31.5	20.0	6.04e-01	0	43	0	302514176	19	4797
2026-01-02 00:41:41.64	56.54	20.10	-29.1	-31.8	19.8	6.02e-01	0	43	0	304087040	19	4927
2026-01-02 00:41:42.65	56.79	20.18	-29.1	-31.9	19.7	6.02e-01	0	43	0	306184192	19	4942
2026-01-02 00:41:43.65	57.04	20.26	-29.0	-31.6	19.9	6.03e-01	0	43	0	308281344	19	4839
2026-01-02 00:41:44.66	57.29	20.34	-28.9	-31.3	20.1	6.03e-01	0	43	0	309854208	19	4753
2026-01-02 00:41:45.66	57.54	20.42	-28.9	-31.9	20.0	6.02e-01	0	43	0	311951360	18	5073
2026-01-02 00:41:46.66	57.79	20.50	-29.0	-32.1	20.0	6.03e-01	0	43	0	313524224	18	5120
2026-01-02 00:41:47.67	58.05	20.58	-29.0	-32.0	19.9	6.02e-01	0	43	0	315621376	18	5115
2026-01-02 00:41:48.67	58.30	20.66	-29.0	-32.1	19.9	6.04e-01	0	43	0	317718528	18	5145
2026-01-02 00:41:49.67	58.56	20.74	-29.1	-32.2	19.8	6.01e-01	0	43	0	319291392	18	5176
2026-01-02 00:41:50.67	58.81	20.82	-29.1	-32.2	19.8	6.04e-01	0	43	0	321388544	18	5178
2026-01-02 00:41:51.68	59.07	20.90	-29.1	-31.9	19.7	6.03e-01	0	43	0	322961408	19	4936
2026-01-02 00:41:52.68	59.33	20.98	-29.3	-32.3	19.5	6.03e-01	0	43	0	325058560	19	5093
2026-01-02 00:41:53.69	59.60	21.06	-29.3	-32.2	19.5	6.04e-01	0	43	0	327155712	19	5068
2026-01-02 00:41:54.69	59.86	21.14	-29.3	-32.4	19.5	6.04e-01	0	43	0	328728576	19	5114
2026-01-02 00:41:55.68	60.12	21.21	-29.3	-32.2	19.6	6.03e-01	0	43	0	330825728	19	5055
2026-01-02 00:41:56.68	60.38	21.29	-29.3	-32.2	19.6	6.03e-01	0	43	0	332398592	19	5051
2026-01-02 00:41:57.69	60.65	21.37	-29.2	-32.2	19.6	6.01e-01	0	43	0	334495744	19	5044
2026-01-02 00:41:58.69	60.92	21.44	-29.3	-32.2	19.6	6.02e-01	0	43	0	336068608	19	5058
2026-01-02 00:41:59.70	61.19	21.52	-29.4	-32.5	19.4	6.02e-01	0	43	0	338165760	19	5163
2026-01-02 00:42:00.70	61.46	21.60	-29.4	-32.5	19.4	6.03e-01	0	43	0	340262912	19	5161
2026-01-02 00:42:01.70	61.73	21.67	-29.2	-32.0	19.7	6.03e-01	0	43	0	341835776	19	4972
2026-01-02 00:42:02.71	62.01	21.75	-29.1	-31.7	19.8	6.01e-01	0	43	0	343932928	19	4884
2026-01-02 00:42:03.71	62.28	21.82	-29.2	-32.0	19.7	6.03e-01	0	43	0	345505792	19	4971
2026-01-02 00:42:04.71	62.56	21.90	-29.2	-31.9	19.8	6.04e-01	0	43	0	347602944	19	4953
2026-01-02 00:42:05.72	62.84	21.97	-29.1	-31.7	19.9	6.03e-01	0	43	0	349700096	19	4887
2026-01-02 00:42:06.73	63.12	22.04	-29.2	-32.0	19.7	6.02e-01	0	43	0	351272960	19	4974
2026-01-02 00:42:07.73	63.40	22.12	-29.2	-31.9	19.8	6.02e-01	0	43	0	353370112	19	4962
2026-01-02 00:42:08.73	63.68	22.19	-29.3	-32.3	19.6	6.03e-01	0	43	0	354942976	19	5078
2026-01-02 00:42:09.74	63.97	22.26	-29.2	-32.1	19.7	6.02e-01	0	43	0	357040128	19	5015
2026-01-02 00:42:10.75	64.25	22.33	-29.1	-31.8	19.8	6.03e-01	0	43	0	359137280	19	4919
2026-01-02 00:42:11.75	64.54	22.41	-29.2	-32.1	19.7	6.02e-01	0	43	0	360710144	19	5007
2026-01-02 00:42:12.75	64.83	22.48	-29.1	-31.9	19.8	6.03e-01	0	43	0	362807296	19	4948
2026-01-02 00:42:13.76	65.12	22.55	-29.1	-31.8	19.8	6.02e-01	0	43	0	364380160	19	4927
2026-01-02 00:42:14.76	65.41	22.62	-29.3	-32.2	19.5	6.03e-01	0	43	0	366477312	19	5067
2026-01-02 00:42:15.76	65.70	22.69	-29.4	-32.4	19.5	6.03e-01	0	43	0	368050176	19	5137
2026-01-02 00:42:16.76	65.99	22.75	-29.3	-32.2	19.6	6.02e-01	0	43	0	370147328	19	5034
2026-01-02 00:42:17.76	66.28	22.82	-29.5	-32.8	19.3	6.02e-01	0	43	0	372244480	19	5265
2026-01-02 00:42:18.77	66.58	22.89	-29.4	-32.2	19.2	6.03e-01	0	43	0	373817344	20	4956
2026-01-02 00:42:19.77	66.88	22.96	-29.2	-32.1	19.6	6.03e-01	0	43	0	375914496	19	5030
2026-01-02 00:42:20.77	67.17	23.02	-29.1	-31.9	19.8	6.03e-01	0	43	0	377487360	19	4934
2026-01-02 00:42:21.77	67.47	23.09	-29.2	-32.0	19.7	6.03e-01	0	43	0	379584512	19	4962
2026-01-02 00:42:22.76	67.77	23.15	-29.2	-32.0	19.7	6.01e-01	0	43	0	381157376	19	4972
2026-01-02 00:42:23.77	68.07	23.22	-29.2	-32.0	19.7	6.04e-01	0	43	0	383254528	19	4997
2026-01-02 00:42:24.77	68.37	23.28	-29.4	-32.6	18.7	6.03e-01	0	43	0	385351680	19	5194
2026-01-02 00:42:25.77	68.68	23.35	-29.3	-32.2	19.6	6.04e-01	0	43	0	386924544	19	5034
2026-01-02 00:42:26.77	68.98	23.41	-29.1	-32.1	19.5	6.02e-01	0	43	0	389021696	18	5135
2026-01-02 00:42:27.77	69.29	23.47	-29.2	-32.0	19.5	6.01e-01	0	43	0	390594560	19	4977
2026-01-02 00:42:28.76	69.59	23.53	-29.4	-32.6	19.4	6.04e-01	0	43	0	392691712	19	5179
2026-01-02 00:42:29.76	69.90	23.59	-29.2	-32.1	19.1	6.02e-01	0	43	0	394264576	19	5007
2026-01-02 00:42:30.76	70.21	23.65	-29.3	-32.2	19.2	6.03e-01	0	43	0	396361728	19	5048
2026-01-02 00:42:31.76	70.52	23.71	-29.3	-32.4	19.5	6.04e-01	0	43	0	398458880	19	5105
2026-01-02 00:42:32.76	70.84	23.77	-29.2	-32.1	19.6	6.01e-01	0	43	0	400031744	19	5016
2026-01-02 00:42:33.76	71.15	23.83	-29.4	-32.5	19.0	6.03e-01	0	43	0	402128896	19	5154
2026-01-02 00:42:34.76	71.47	23.89	-29.4	-32.5	19.5	6.04e-01	0	43	0	403701760	19	5165
2026-01-02 00:42:35.76	71.78	23.94	-29.4	-32.6	19.2	6.02e-01	0	43	0	405798912	19	5207
2026-01-02 00:42:36.77	72.10	24.00	-29.5	-32.8	19.3	6.05e-01	0	43	0	407896064	19	5259
2026-01-02 00:42:37.77	72.42	24.05	-29.7	-32.8	18.9	6.03e-01	0	43	0	409468928	20	5169
2026-01-02 00:42:38.77	72.74	24.11	-29.6	-32.6	19.0	6.03e-01	0	43	0	411566080	20	5104
2026-01-02 00:42:39.77	73.06	24.16	-29.4	-32.1	19.3	6.03e-01	0	43	0	413138944	20	4897
2026-01-02 00:42:40.77	73.38	24.21	-29.4	-32.1	19.4	6.04e-01	0	43	0	415236096	20	4893
2026-01-02 00:42:41.77	73.71	24.27	-29.6	-33.0	19.2	6.02e-01	0	43	0	417333248	19	5329
2026-01-02 00:42:42.78	74.03	24.32	-29.3	-32.3	19.6	6.01e-01	0	43	0	418906112	19	5080
2026-01-02 00:42:43.78	74.36	24.37	-29.2	-31.9	19.8	6.03e-01	0	43	0	421003264	19	4948
2026-01-02 00:42:44.78	74.68	24.42	-29.3	-32.2	19.7	6.00e-01	0	43	0	422576128	19	5042
2026-01-02 00:42:45.78	75.01	24.47	-29.3	-32.2	19.6	6.04e-01	0	43	0	424673280	19	5055
2026-01-02 00:42:46.79	75.34	24.51	-29.4	-32.5	19.4	6.02e-01	0	43	0	426246144	19	5156
2026-01-02 00:42:47.79	75.67	24.56	-29.3	-32.2	19.6	6.03e-01	0	43	0	428343296	19	5048
2026-01-02 00:42:48.80	76.01	24.61	-29.3	-32.3	19.6	6.02e-01	0	43	0	430440448	19	5073
2026-01-02 00:42:49.80	76.34	24.65	-29.5	-32.7	19.3	6.03e-01	0	43	0	432013312	19	5244
2026-01-02 00:42:50.80	76.67	24.70	-29.4	-32.4	19.5	6.04e-01	0	43	0	434110464	19	5123
2026-01-02 00:42:51.80	77.00	24.74	-29.2	-32.1	19.7	6.01e-01	0	43	0	435683328	19	5016
2026-01-02 00:42:52.80	77.34	24.78	-29.3	-32.3	19.6	6.03e-01	0	43	0	437780480	19	5070
2026-01-02 00:42:53.81	77.68	24.83	-29.3	-32.2	19.7	6.04e-01	0	43	0	439877632	19	5027
2026-01-02 00:42:54.82	78.02	24.87	-29.3	-32.4	19.5	6.03e-01	0	43	0	441450496	19	5115
2026-01-02 00:42:55.81	78.35	24.91	-29.4	-32.4	19.5	6.01e-01	0	43	0	443547648	19	5125
2026-01-02 00:42:56.82	78.69	24.95	-29.5	-32.9	19.3	6.04e-01	0	43	0	445120512	19	5299
2026-01-02 00:42:57.82	79.03	24.98	-29.4	-32.0	19.4	6.00e-01	0	43	0	447217664	20	4883
2026-01-02 00:42:58.82	79.37	25.02	-29.3	-31.8	19.6	6.03e-01	0	43	0	449314816	20	4791
2026-01-02 00:42:59.82	79.71	25.06	-29.3	-32.4	19.6	6.04e-01	0	43	0	450887680	19	5115
2026-01-02 00:43:00.82	80.05	25.09	-29.3	-32.2	19.7	6.02e-01	0	43	0	452984832	19	5025
2026-01-02 00:43:01.82	80.39	25.13	-29.4	-32.4	19.5	6.02e-01	0	43	0	454557696	19	5134
2026-01-02 00:43:02.83	80.74	25.16	-29.3	-32.3	19.6	6.03e-01	0	43	0	456654848	19	5078
2026-01-02 00:43:03.83	81.08	25.19	-29.2	-31.9	19.8	6.02e-01	0	43	0	458227712	19	4944
2026-01-02 00:43:04.83	81.43	25.22	-29.2	-32.0	19.8	6.03e-01	0	43	0	460324864	19	4966
2026-01-02 00:43:05.83	81.77	25.25	-29.3	-32.4	19.5	6.02e-01	0	43	0	462422016	19	5136
2026-01-02 00:43:06.83	82.12	25.28	-29.2	-32.1	19.7	6.02e-01	0	43	0	463994880	19	5019
2026-01-02 00:43:07.83	82.46	25.31	-29.3	-32.2	19.7	6.02e-01	0	43	0	466092032	19	5034
2026-01-02 00:43:08.83	82.81	25.34	-29.2	-32.0	19.7	6.01e-01	0	43	0	467664896	19	4991
2026-01-02 00:43:09.83	83.16	25.36	-29.2	-32.1	19.6	6.04e-01	0	43	0	469762048	19	5031
2026-01-02 00:43:10.83	83.50	25.39	-29.2	-32.0	19.7	6.00e-01	0	43	0	471334912	19	4989
2026-01-02 00:43:11.84	83.86	25.41	-29.3	-32.4	19.5	6.02e-01	0	43	0	473432064	19	5112
2026-01-02 00:43:12.83	84.20	25.43	-29.3	-32.2	19.7	6.03e-01	0	43	0	475529216	19	5033
2026-01-02 00:43:13.84	84.56	25.46	-29.2	-32.1	19.7	6.02e-01	0	43	0	477102080	19	5015
2026-01-02 00:43:14.83	84.90	25.48	-29.4	-32.6	19.4	6.02e-01	0	43	0	479199232	19	5180
2026-01-02 00:43:15.84	85.26	25.50	-29.3	-32.3	19.6	6.03e-01	0	43	0	480772096	19	5091
2026-01-02 00:43:16.84	85.61	25.51	-29.2	-32.1	19.7	6.03e-01	0	43	0	482869248	19	5001
2026-01-02 00:43:17.84	85.96	25.53	-29.3	-32.1	19.7	6.01e-01	0	43	0	484966400	19	5026
2026-01-02 00:43:18.84	86.31	25.55	-29.2	-32.1	19.7	6.02e-01	0	43	0	486539264	19	5015
2026-01-02 00:43:19.84	86.66	25.56	-29.2	-32.0	19.8	6.02e-01	0	43	0	488636416	19	4969
2026-01-02 00:43:20.84	87.02	25.58	-29.4	-32.5	19.5	6.02e-01	0	43	0	490209280	19	5148
2026-01-02 00:43:21.84	87.37	25.59	-29.4	-32.4	19.5	6.02e-01	0	43	0	492306432	19	5127
2026-01-02 00:43:22.84	87.72	25.60	-29.4	-32.6	19.4	6.04e-01	0	43	0	493879296	19	5210
2026-01-02 00:43:23.84	88.07	25.61	-29.3	-32.4	19.6	6.02e-01	0	43	0	495976448	19	5100
2026-01-02 00:43:24.85	88.43	25.62	-29.2	-32.1	19.7	6.03e-01	0	43	0	498073600	19	5001
2026-01-02 00:43:25.84	88.78	25.63	-29.2	-32.0	19.8	6.04e-01	0	43	0	499646464	19	4977
2026-01-02 00:43:26.85	89.14	25.64	-29.2	-31.9	19.9	6.03e-01	0	43	0	501743616	19	4950
2026-01-02 00:43:27.85	89.49	25.65	-29.4	-32.6	19.5	6.04e-01	0	43	0	503316480	19	5191
2026-01-02 00:43:28.85	89.85	25.65	-29.3	-32.2	19.6	6.01e-01	0	43	0	505413632	19	5054
2026-01-02 00:43:29.86	90.21	25.66	-29.1	-31.9	19.8	6.02e-01	0	43	0	506986496	19	4939
2026-01-02 00:43:30.86	90.56	25.66	-29.1	-31.7	20.0	6.03e-01	0	43	0	509083648	19	4874
2026-01-02 00:43:31.86	90.92	25.66	-29.1	-31.7	20.0	6.00e-01	0	43	0	511180800	19	4873
2026-01-02 00:43:32.86	91.27	25.66	-29.1	-31.8	19.9	6.04e-01	0	43	0	512753664	19	4902
2026-01-02 00:43:33.86	91.63	25.66	-29.2	-32.0	19.8	6.02e-01	0	43	0	514850816	19	4985
2026-01-02 00:43:34.87	91.98	25.66	-29.2	-31.9	19.8	6.02e-01	0	43	0	516423680	19	4945
2026-01-02 00:43:35.86	92.34	25.66	-29.1	-31.8	20.0	6.04e-01	0	43	0	518520832	19	4917
2026-01-02 00:43:36.85	92.69	25.66	-29.4	-32.5	19.6	6.02e-01	0	43	0	520093696	19	5135
2026-01-02 00:43:37.86	93.05	25.65	-29.2	-32.0	19.8	6.02e-01	0	43	0	522190848	19	4987
2026-01-02 00:43:38.86	93.40	25.65	-29.0	-31.6	20.0	6.01e-01	0	43	0	524288000	19	4837
2026-01-02 00:43:39.87	93.76	25.64	-29.2	-32.0	19.8	6.07e-01	0	43	0	525860864	19	4957
2026-01-02 00:43:40.87	94.11	25.63	-29.1	-31.8	19.9	6.04e-01	0	43	0	527958016	19	4913
2026-01-02 00:43:41.88	94.47	25.62	-29.0	-31.6	20.1	6.00e-01	0	43	0	530055168	19	4825
2026-01-02 00:43:42.88	94.82	25.61	-29.2	-31.9	19.9	6.01e-01	0	43	0	531628032	19	4941
2026-01-02 00:43:43.88	95.18	25.60	-29.1	-31.7	20.0	6.01e-01	0	43	0	533725184	19	4875
2026-01-02 00:43:44.88	95.53	25.59	-29.0	-31.6	20.1	6.03e-01	0	43	0	535298048	19	4824
2026-01-02 00:43:45.89	95.89	25.57	-29.2	-32.1	19.8	6.02e-01	0	43	0	537395200	19	4994
2026-01-02 00:43:46.89	96.24	25.56	-29.1	-31.9	19.8	6.02e-01	0	43	0	538968064	19	4942
2026-01-02 00:43:47.89	96.59	25.54	-29.0	-31.6	20.0	6.00e-01	0	43	0	541065216	19	4832
2026-01-02 00:43:48.89	96.94	25.53	-29.2	-32.1	19.8	6.03e-01	0	43	0	543162368	19	5025
2026-01-02 00:43:49.90	97.30	25.51	-29.1	-31.9	19.9	6.03e-01	0	43	0	544735232	19	4937
2026-01-02 00:43:50.90	97.65	25.49	-29.1	-31.7	20.0	6.01e-01	0	43	0	546832384	19	4868
2026-01-02 00:43:51.91	98.01	25.47	-29.2	-32.0	19.8	6.03e-01	0	43	0	548405248	19	4980
2026-01-02 00:43:52.91	98.36	25.45	-29.2	-32.0	19.8	6.03e-01	0	43	0	550502400	19	4989
2026-01-02 00:43:53.91	98.71	25.43	-29.3	-32.3	19.6	6.02e-01	0	43	0	552075264	19	5070
2026-01-02 00:43:54.91	99.06	25.40	-29.2	-32.1	19.7	6.04e-01	0	43	0	554172416	19	5023
2026-01-02 00:43:55.91	99.40	25.38	-29.3	-32.2	19.7	6.01e-01	0	43	0	556269568	19	5049
2026-01-02 00:43:56.92	99.76	25.35	-29.4	-32.5	19.5	6.03e-01	0	43	0	557842432	19	5166
2026-01-02 00:43:57.92	100.10	25.33	-29.2	-32.2	19.7	6.03e-01	0	43	0	559939584	19	5032
2026-01-02 00:43:58.93	100.45	25.30	-29.2	-32.1	19.7	6.04e-01	0	43	0	561512448	19	5012
2026-01-02 00:43:59.93	100.80	25.27	-29.2	-32.1	19.7	6.03e-01	0	43	0	563609600	19	5025
2026-01-02 00:44:00.93	101.15	25.24	-29.5	-32.8	19.2	6.03e-01	0	43	0	565706752	19	5291
2026-01-02 00:44:01.94	101.50	25.21	-29.3	-32.2	19.6	6.03e-01	0	43	0	567279616	19	5073
2026-01-02 00:44:02.94	101.84	25.18	-29.2	-32.0	19.8	6.03e-01	0	43	0	569376768	19	4975
2026-01-02 00:44:03.95	102.19	25.15	-29.1	-31.8	19.9	6.04e-01	0	43	0	570949632	19	4907
2026-01-02 00:44:04.95	102.53	25.11	-29.0	-31.7	20.0	6.02e-01	0	43	0	573046784	19	4875
2026-01-02 00:44:05.96	102.88	25.08	-29.0	-31.5	20.1	6.05e-01	0	43	0	575143936	19	4795
2026-01-02 00:44:06.96	103.22	25.04	-29.1	-31.8	19.9	6.04e-01	0	43	0	576716800	19	4922
2026-01-02 00:44:07.97	103.56	25.01	-29.1	-31.9	19.8	6.02e-01	0	43	0	578813952	19	4949
2026-01-02 00:44:08.97	103.90	24.97	-29.3	-32.2	19.6	6.04e-01	0	43	0	580386816	19	5060
2026-01-02 00:44:09.97	104.24	24.93	-29.0	-31.7	20.0	6.05e-01	0	43	0	582483968	19	4868
2026-01-02 00:44:10.98	104.58	24.89	-29.1	-31.8	19.9	6.03e-01	0	43	0	584581120	19	4901
2026-01-02 00:44:11.97	104.92	24.85	-29.1	-31.8	19.9	6.04e-01	0	43	0	586153984	19	4915
2026-01-02 00:44:12.97	105.25	24.81	-29.0	-31.5	20.1	6.06e-01	0	43	0	588251136	19	4801
2026-01-02 00:44:13.98	105.59	24.77	-29.1	-31.9	19.8	6.02e-01	0	43	0	589824000	19	4952
2026-01-02 00:44:14.98	105.93	24.72	-29.2	-32.1	19.7	6.01e-01	0	43	0	591921152	19	5018
2026-01-02 00:44:15.99	106.26	24.68	-29.1	-31.8	19.8	6.03e-01	0	43	0	593494016	19	4934
2026-01-02 00:44:16.99	106.60	24.64	-29.3	-32.4	19.5	6.03e-01	0	43	0	595591168	19	5120
2026-01-02 00:44:18.00	106.93	24.59	-29.2	-32.2	19.6	6.01e-01	0	43	0	597688320	19	5053
2026-01-02 00:44:19.00	107.26	24.54	-29.4	-32.5	19.4	6.03e-01	0	43	0	599261184	19	5178
2026-01-02 00:44:20.01	107.60	24.49	-29.2	-32.0	19.7	6.01e-01	0	43	0	601358336	19	4985
2026-01-02 00:44:21.01	107.93	24.45	-29.2	-32.1	19.7	6.02e-01	0	43	0	602931200	19	5014
2026-01-02 00:44:22.01	108.25	24.40	-29.4	-32.6	19.4	6.03e-01	0	43	0	605028352	19	5197
2026-01-02 00:44:23.01	108.58	24.35	-29.4	-32.6	19.4	6.03e-01	0	43	0	607125504	19	5199
2026-01-02 00:44:24.02	108.91	24.30	-29.4	-32.5	19.4	6.04e-01	0	43	0	608698368	19	5182
2026-01-02 00:44:25.02	109.23	24.24	-29.5	-32.9	19.1	6.04e-01	0	43	0	610795520	19	5330
2026-01-02 00:44:26.02	109.56	24.19	-29.3	-32.3	19.5	6.03e-01	0	43	0	612368384	19	5117
2026-01-02 00:44:27.03	109.88	24.14	-29.2	-32.1	19.7	6.02e-01	0	43	0	614465536	19	5028
2026-01-02 00:44:28.03	110.20	24.08	-29.2	-32.1	19.7	6.02e-01	0	43	0	616562688	19	5048
2026-01-02 00:44:29.03	110.52	24.03	-29.2	-32.1	19.6	6.02e-01	0	43	0	618135552	19	5045
2026-01-02 00:44:30.03	110.84	23.97	-29.4	-32.7	19.3	6.01e-01	0	43	0	620232704	19	5245
2026-01-02 00:44:31.02	111.16	23.92	-29.4	-32.6	19.3	6.01e-01	0	43	0	621805568	19	5231
2026-01-02 00:44:32.03	111.48	23.86	-29.5	-33.0	19.1	6.03e-01	0	43	0	623902720	19	5358
2026-01-02 00:44:33.03	111.79	23.80	-29.2	-32.2	19.4	6.02e-01	0	43	0	625475584	19	5080
2026-01-02 00:44:34.03	112.11	23.74	-29.1	-31.9	19.7	6.03e-01	0	43	0	627572736	19	4956
2026-01-02 00:44:35.04	112.42	23.68	-29.1	-31.9	19.8	6.01e-01	0	43	0	629669888	19	4952
2026-01-02 00:44:36.04	112.74	23.62	-29.1	-31.9	19.8	6.00e-01	0	43	0	631242752	19	4949
2026-01-02 00:44:37.04	113.05	23.56	-29.1	-31.8	19.8	6.05e-01	0	43	0	633339904	19	4917
2026-01-02 00:44:38.04	113.36	23.50	-29.1	-31.8	19.8	6.04e-01	0	43	0	634912768	19	4916
2026-01-02 00:44:39.05	113.67	23.44	-29.2	-32.1	19.5	6.03e-01	0	43	0	637009920	19	5017
2026-01-02 00:44:40.05	113.97	23.38	-29.1	-31.9	19.7	6.03e-01	0	43	0	638582784	19	4976
2026-01-02 00:44:41.05	114.28	23.31	-29.2	-32.3	19.2	6.02e-01	0	43	0	640679936	19	5108
2026-01-02 00:44:42.05	114.58	23.25	-29.2	-32.2	18.9	6.04e-01	0	43	0	642777088	19	5064
2026-01-02 00:44:43.06	114.89	23.18	-29.2	-32.1	19.6	6.03e-01	0	43	0	644349952	19	5035
2026-01-02 00:44:44.06	115.19	23.12	-29.3	-32.4	18.8	6.04e-01	0	43	0	646447104	19	5147
2026-01-02 00:44:45.07	115.49	23.05	-29.3	-32.3	19.4	6.04e-01	0	43	0	648019968	19	5119
2026-01-02 00:44:46.07	115.79	22.99	-29.3	-32.4	19.4	6.03e-01	0	43	0	650117120	19	5142
2026-01-02 00:44:47.07	116.09	22.92	-29.4	-32.7	19.2	6.03e-01	0	43	0	652214272	19	5243
2026-01-02 00:44:48.06	116.39	22.85	-29.5	-32.9	19.1	6.03e-01	0	43	0	653787136	19	5336
2026-01-02 00:44:49.06	116.68	22.78	-29.5	-32.8	19.1	6.04e-01	0	43	0	655884288	19	5310
2026-01-02 00:44:50.06	116.97	22.72	-29.4	-32.7	19.1	6.04e-01	0	43	0	657457152	19	5271
2026-01-02 00:44:51.07	117.27	22.65	-29.7	-32.9	18.6	6.02e-01	0	43	0	659554304	20	5247
2026-01-02 00:44:52.07	117.56	22.58	-29.8	-33.2	18.4	6.02e-01	0	43	0	661651456	20	5352
2026-01-02 00:44:53.08	117.85	22.51	-29.4	-32.2	19.1	6.01e-01	0	43	0	663224320	20	4978
2026-01-02 00:44:54.09	118.15	22.43	-29.3	-32.5	19.4	6.05e-01	0	43	0	665321472	19	5162
2026-01-02 00:44:55.09	118.43	22.36	-29.2	-32.1	19.5	6.03e-01	0	43	0	666894336	19	5045
2026-01-02 00:44:56.10	118.72	22.29	-29.1	-31.9	19.6	6.01e-01	0	43	0	668991488	19	4964
2026-01-02 00:44:57.10	119.01	22.22	-29.2	-32.1	19.5	6.03e-01	0	43	0	670564352	19	5042
2026-01-02 00:44:58.10	119.29	22.15	-29.3	-32.4	19.5	6.04e-01	0	43	0	672661504	19	5134
2026-01-02 00:44:59.10	119.57	22.07	-29.3	-32.4	19.4	6.02e-01	0	43	0	674758656	19	5158
2026-01-02 00:45:00.11	119.85	22.00	-29.3	-32.3	19.4	6.02e-01	0	43	0	676331520	19	5099
2026-01-02 00:45:01.11	120.13	21.92	-29.3	-32.3	19.4	6.03e-01	0	43	0	678428672	19	5086
2026-01-02 00:45:02.11	120.41	21.85	-29.2	-32.2	19.5	6.01e-01	0	43	0	680001536	19	5059
2026-01-02 00:45:03.11	120.69	21.78	-29.3	-32.3	19.4	6.04e-01	0	43	0	682098688	19	5114
2026-01-02 00:45:04.11	120.96	21.70	-29.3	-32.5	19.4	6.04e-01	0	43	0	683671552	19	5165
2026-01-02 00:45:05.11	121.24	21.62	-29.6	-33.1	19.0	6.04e-01	0	43	0	685768704	19	5393
2026-01-02 00:45:06.11	121.51	21.55	-29.2	-32.1	19.6	6.03e-01	0	43	0	687865856	19	5022
2026-01-02 00:45:07.11	121.78	21.47	-29.0	-31.6	19.9	6.03e-01	0	43	0	689438720	19	4847
2026-01-02 00:45:08.11	122.05	21.40	-28.9	-31.5	20.0	6.00e-01	0	43	0	691535872	19	4805
2026-01-02 00:45:09.11	122.32	21.32	-29.0	-31.5	19.9	6.03e-01	0	43	0	693108736	19	4806
2026-01-02 00:45:10.12	122.59	21.24	-28.9	-31.4	19.9	6.04e-01	0	43	0	695205888	19	4796
2026-01-02 00:45:11.12	122.85	21.16	-29.0	-31.5	19.9	6.02e-01	0	43	0	697303040	19	4817
2026-01-02 00:45:12.13	123.12	21.08	-29.1	-31.9	19.7	6.04e-01	0	43	0	698875904	19	4952
2026-01-02 00:45:13.13	123.38	21.01	-29.2	-32.1	19.6	6.02e-01	0	43	0	700973056	19	5016
2026-01-02 00:45:14.14	123.64	20.93	-29.0	-31.7	19.8	6.02e-01	0	43	0	702545920	19	4901
2026-01-02 00:45:15.13	123.90	20.85	-28.9	-31.4	20.0	6.04e-01	0	43	0	704643072	19	4792
2026-01-02 00:45:16.14	124.16	20.77	-28.9	-31.4	20.0	6.02e-01	0	43	0	706740224	19	4807
2026-01-02 00:45:17.13	124.42	20.69	-29.0	-31.7	19.8	6.02e-01	0	43	0	708313088	19	4881
2026-01-02 00:45:18.13	124.67	20.61	-29.0	-31.5	19.9	6.04e-01	0	43	0	710410240	19	4828
2026-01-02 00:45:19.14	124.93	20.53	-29.0	-31.6	19.8	6.02e-01	0	43	0	711983104	19	4850
2026-01-02 00:45:20.14	125.18	20.45	-29.1	-31.9	19.6	6.03e-01	0	43	0	714080256	19	4969
2026-01-02 00:45:21.14	125.44	20.37	-29.0	-31.6	19.8	6.04e-01	0	43	0	715653120	19	4840
2026-01-02 00:45:22.14	125.69	20.29	-28.9	-31.5	19.9	6.04e-01	0	43	0	717750272	19	4823
2026-01-02 00:45:23.14	125.93	20.21	-29.0	-31.6	19.8	6.03e-01	0	43	0	719847424	19	4875
2026-01-02 00:45:24.14	126.18	20.12	-29.0	-31.7	19.7	6.04e-01	0	43	0	721420288	19	4908
2026-01-02 00:45:25.15	126.43	20.04	-29.1	-32.0	19.6	6.04e-01	0	43	0	723517440	19	4987
2026-01-02 00:45:26.16	126.68	19.96	-29.0	-31.5	19.9	6.02e-01	0	43	0	725090304	19	4825
2026-01-02 00:45:27.15	126.92	19.88	-28.9	-31.2	20.1	6.03e-01	0	43	0	727187456	19	4740
2026-01-02 00:45:28.16	127.16	19.79	-28.9	-31.3	20.0	6.02e-01	0	43	0	728760320	19	4769
2026-01-02 00:45:29.17	127.41	19.71	-28.9	-31.9	20.0	6.00e-01	0	43	0	730857472	18	5065
2026-01-02 00:45:30.18	127.65	19.63	-28.9	-31.8	20.0	6.04e-01	0	43	0	732954624	18	5049
2026-01-02 00:45:31.18	127.89	19.55	-29.0	-32.0	19.8	6.04e-01	0	43	0	734527488	18	5119
2026-01-02 00:45:32.18	128.12	19.46	-28.9	-31.9	19.9	6.03e-01	0	43	0	736624640	18	5076
2026-01-02 00:45:33.18	128.36	19.38	-28.9	-32.0	19.8	6.02e-01	0	43	0	738721792	18	5135
2026-01-02 00:45:34.18	128.59	19.30	-28.9	-31.9	19.8	6.00e-01	0	43	0	740294656	18	5103
2026-01-02 00:45:35.19	128.83	19.21	-28.9	-31.8	19.9	6.03e-01	0	43	0	742391808	18	5074
2026-01-02 00:45:36.18	129.06	19.13	-28.9	-31.8	19.9	6.03e-01	0	43	0	743964672	18	5075
2026-01-02 00:45:37.19	129.29	19.05	-28.9	-31.9	19.8	6.02e-01	0	43	0	746061824	18	5099
2026-01-02 00:45:38.19	129.52	18.96	-28.9	-31.9	19.9	6.01e-01	0	43	0	747634688	18	5081
2026-01-02 00:45:39.19	129.75	18.88	-28.9	-32.1	19.7	6.04e-01	0	43	0	749731840	18	5165
2026-01-02 00:45:40.19	129.97	18.79	-28.8	-31.8	19.9	6.02e-01	0	43	0	751828992	18	5054
2026-01-02 00:45:41.19	130.20	18.71	-28.8	-31.6	20.0	6.00e-01	0	43	0	753401856	18	4992
2026-01-02 00:45:42.19	130.42	18.63	-28.8	-31.6	20.0	6.02e-01	0	43	0	755499008	18	4985
2026-01-02 00:45:43.19	130.65	18.54	-28.7	-31.6	20.0	6.02e-01	0	43	0	757071872	18	4980
2026-01-02 00:45:44.19	130.87	18.46	-28.7	-31.5	20.0	6.05e-01	0	43	0	759169024	18	4942
2026-01-02 00:45:45.19	131.09	18.37	-28.8	-31.6	19.9	6.02e-01	0	43	0	760741888	18	5003
2026-01-02 00:45:46.20	131.31	18.29	-28.9	-31.9	19.8	6.01e-01	0	43	0	762839040	18	5110
2026-01-02 00:45:47.19	131.52	18.20	-29.1	-32.1	19.3	6.02e-01	0	43	0	764936192	19	5068
2026-01-02 00:45:48.20	131.74	18.12	-29.0	-32.2	19.6	6.02e-01	0	43	0	766509056	18	5212
2026-01-02 00:45:49.20	131.96	18.03	-28.8	-31.8	19.8	6.02e-01	0	43	0	768606208	18	5071
2026-01-02 00:45:50.20	132.17	17.95	-28.9	-31.9	19.8	6.01e-01	0	43	0	770179072	18	5096
2026-01-02 00:45:51.20	132.38	17.86	-28.9	-31.9	19.7	6.02e-01	0	43	0	772276224	18	5103
2026-01-02 00:45:52.20	132.60	17.78	-28.8	-31.7	19.9	6.03e-01	0	43	0	774373376	18	5039
2026-01-02 00:45:53.20	132.81	17.70	-28.8	-31.8	19.8	6.01e-01	0	43	0	775946240	18	5065
2026-01-02 00:45:54.21	133.02	17.61	-28.9	-31.9	19.7	6.03e-01	0	43	0	778043392	18	5116
2026-01-02 00:45:55.21	133.22	17.52	-28.9	-32.1	19.6	6.05e-01	0	43	0	779616256	18	5185
2026-01-02 00:45:56.22	133.43	17.44	-28.9	-32.0	19.7	6.03e-01	0	43	0	781713408	18	5143
2026-01-02 00:45:57.21	133.64	17.35	-28.9	-31.9	19.7	6.02e-01	0	43	0	783286272	18	5137
2026-01-02 00:45:58.22	133.84	17.27	-28.9	-32.1	19.5	6.01e-01	0	43	0	785383424	18	5192
2026-01-02 00:45:59.23	134.05	17.18	-28.8	-31.8	19.7	6.01e-01	0	43	0	787480576	18	5100
2026-01-02 00:46:00.23	134.25	17.10	-28.8	-31.9	19.7	6.02e-01	0	43	0	789053440	18	5101
2026-01-02 00:46:01.23	134.45	17.01	-28.9	-32.0	19.6	6.01e-01	0	43	0	791150592	18	5151
2026-01-02 00:46:02.24	134.65	16.93	-28.9	-31.9	19.7	6.01e-01	0	43	0	792723456	18	5107
2026-01-02 00:46:03.24	134.85	16.84	-28.9	-31.9	19.7	6.00e-01	0	43	0	794820608	18	5102
2026-01-02 00:46:04.25	135.05	16.76	-28.9	-32.0	19.6	6.04e-01	0	43	0	796917760	18	5152
2026-01-02 00:46:05.25	135.24	16.67	-29.0	-32.3	19.5	6.03e-01	0	43	0	798490624	18	5244
2026-01-02 00:46:06.25	135.44	16.59	-29.0	-32.4	19.4	6.01e-01	0	43	0	800587776	18	5285
2026-01-02 00:46:07.25	135.63	16.50	-29.0	-32.2	19.5	6.02e-01	0	43	0	802160640	18	5218
2026-01-02 00:46:08.25	135.82	16.42	-29.0	-32.4	19.3	6.03e-01	0	43	0	804257792	18	5307
2026-01-02 00:46:09.25	136.02	16.33	-29.0	-32.4	19.3	6.02e-01	0	43	0	805830656	18	5327
2026-01-02 00:46:10.26	136.21	16.25	-29.1	-32.0	19.2	6.03e-01	0	43	0	807927808	19	5074
2026-01-02 00:46:11.25	136.40	16.16	-29.1	-32.1	19.2	6.01e-01	0	43	0	810024960	19	5087
2026-01-02 00:46:12.24	136.58	16.08	-29.1	-32.2	19.1	6.02e-01	0	43	0	811597824	19	5139
2026-01-02 00:46:13.24	136.77	16.00	-28.9	-31.8	19.3	6.04e-01	0	43	0	813694976	19	4980
2026-01-02 00:46:14.25	136.96	15.91	-28.8	-31.4	19.5	6.03e-01	0	43	0	815267840	19	4849
2026-01-02 00:46:15.25	137.14	15.83	-28.8	-31.4	19.6	6.03e-01	0	43	0	817364992	19	4840
2026-01-02 00:46:16.25	137.32	15.74	-28.8	-31.3	19.6	6.04e-01	0	43	0	819462144	19	4819
2026-01-02 00:46:17.25	137.51	15.66	-28.8	-31.7	19.6	6.03e-01	0	43	0	821035008	18	5072
2026-01-02 00:46:18.26	137.69	15.57	-28.8	-31.7	19.7	6.03e-01	0	43	0	823132160	18	5068
2026-01-02 00:46:19.26	137.87	15.49	-28.8	-31.8	19.6	6.03e-01	0	43	0	824705024	18	5106
2026-01-02 00:46:20.26	138.05	15.40	-28.8	-31.9	19.5	6.00e-01	0	43	0	826802176	18	5134
2026-01-02 00:46:21.26	138.23	15.32	-28.9	-32.0	19.5	6.05e-01	0	43	0	828375040	18	5159
2026-01-02 00:46:22.26	138.41	15.24	-28.9	-32.2	19.4	6.02e-01	0	43	0	830472192	18	5221
2026-01-02 00:46:23.26	138.58	15.15	-28.9	-32.1	19.4	6.04e-01	0	43	0	832569344	18	5194
2026-01-02 00:46:24.26	138.76	15.07	-28.9	-32.2	19.3	6.04e-01	0	43	0	834142208	18	5256
2026-01-02 00:46:25.27	138.93	14.98	-29.0	-32.4	19.2	6.02e-01	0	43	0	836239360	18	5326
2026-01-02 00:46:26.27	139.11	14.90	-29.0	-32.4	19.2	6.02e-01	0	43	0	837812224	18	5338
2026-01-02 00:46:27.28	139.28	14.81	-29.0	-32.5	19.1	6.02e-01	0	43	0	839909376	18	5383
2026-01-02 00:46:28.27	139.45	14.73	-29.1	-32.3	18.9	6.02e-01	0	43	0	842006528	19	5192
2026-01-02 00:46:29.28	139.62	14.65	-29.2	-32.4	18.7	6.02e-01	0	43	0	843579392	19	5245
2026-01-02 00:46:30.28	139.79	14.56	-29.0	-32.1	19.0	6.00e-01	0	43	0	845676544	19	5113
2026-01-02 00:46:31.28	139.96	14.48	-29.0	-32.0	19.0	6.03e-01	0	43	0	847249408	19	5101
2026-01-02 00:46:32.28	140.13	14.40	-28.9	-32.4	19.0	6.02e-01	0	43	0	849346560	18	5360
2026-01-02 00:46:33.29	140.30	14.31	-29.0	-32.6	18.8	6.02e-01	0	43	0	850919424	18	5473
2026-01-02 00:46:34.29	140.46	14.23	-28.9	-32.5	18.9	6.04e-01	0	43	0	853016576	18	5415
2026-01-02 00:46:35.30	140.63	14.15	-28.9	-32.5	18.9	6.01e-01	0	43	0	855113728	18	5426
2026-01-02 00:46:36.31	140.79	14.06	-29.0	-32.8	18.7	6.03e-01	0	43	0	856686592	18	5568
2026-01-02 00:46:37.31	140.95	13.98	-29.3	-32.9	18.3	6.02e-01	0	43	0	858783744	19	5497
2026-01-02 00:46:38.32	141.12	13.90	-29.3	-33.1	18.2	6.03e-01	0	43	0	860880896	19	5579
2026-01-02 00:46:39.33	141.28	13.81	-29.3	-32.9	18.2	6.03e-01	0	43	0	862453760	19	5498
2026-01-02 00:46:40.33	141.44	13.73	-29.0	-32.1	18.8	6.03e-01	0	43	0	864550912	19	5168
2026-01-02 00:46:41.34	141.60	13.65	-28.9	-32.5	18.9	6.03e-01	0	43	0	866123776	18	5427
2026-01-02 00:46:42.33	141.76	13.57	-29.0	-32.8	18.7	6.03e-01	0	43	0	868220928	18	5549
2026-01-02 00:46:43.34	141.92	13.49	-29.1	-32.4	18.6	6.02e-01	0	43	0	869793792	19	5294
2026-01-02 00:46:44.34	142.07	13.40	-29.0	-32.6	18.7	6.03e-01	0	43	0	871890944	18	5471
2026-01-02 00:46:45.34	142.23	13.32	-28.9	-32.4	18.8	6.00e-01	0	43	0	873988096	18	5429
2026-01-02 00:46:46.34	142.38	13.24	-28.9	-32.4	18.8	6.02e-01	0	43	0	875560960	18	5444
2026-01-02 00:46:47.35	142.54	13.16	-28.8	-32.3	18.9	6.02e-01	0	43	0	877658112	18	5379
2026-01-02 00:46:48.35	142.69	13.08	-28.9	-32.6	18.7	6.02e-01	0	43	0	879230976	18	5494
2026-01-02 00:46:49.36	142.84	13.00	-28.9	-32.6	18.7	6.03e-01	0	43	0	881328128	18	5508
2026-01-02 00:46:50.36	142.99	12.91	-29.1	-32.5	18.4	6.04e-01	0	43	0	882900992	19	5330
2026-01-02 00:46:51.37	143.14	12.83	-28.9	-32.0	18.7	6.02e-01	0	43	0	884998144	19	5155
2026-01-02 00:46:52.37	143.29	12.75	-28.9	-32.4	17.7	6.01e-01	0	43	0	887095296	18	5389
2026-01-02 00:46:53.38	143.44	12.67	-28.9	-32.4	18.3	6.01e-01	0	43	0	888668160	18	5379
2026-01-02 00:46:54.38	143.59	12.59	-29.0	-32.6	18.6	6.02e-01	0	43	0	890765312	18	5472
2026-01-02 00:46:55.39	143.74	12.51	-28.9	-32.5	18.7	6.00e-01	0	43	0	892862464	18	5433
2026-01-02 00:46:56.39	143.88	12.43	-29.0	-32.7	18.6	6.01e-01	0	43	0	894435328	18	5516
2026-01-02 00:46:57.40	144.03	12.35	-29.0	-32.6	18.7	6.03e-01	0	43	0	896532480	18	5480
2026-01-02 00:46:58.40	144.17	12.27	-29.0	-32.6	18.7	6.02e-01	0	43	0	898105344	18	5464
2026-01-02 00:46:59.41	144.32	12.19	-29.0	-32.7	18.6	6.03e-01	0	43	0	900202496	18	5521
2026-01-02 00:47:00.41	144.46	12.11	-29.0	-32.7	18.7	6.02e-01	0	43	0	901775360	18	5502
2026-01-02 00:47:01.41	144.60	12.03	-28.9	-32.5	18.8	6.03e-01	0	43	0	903872512	18	5418
2026-01-02 00:47:02.41	144.74	11.95	-28.9	-32.5	18.7	6.03e-01	0	43	0	905969664	18	5431
2026-01-02 00:47:03.41	144.88	11.87	-28.9	-32.4	18.8	6.04e-01	0	43	0	907542528	18	5396
2026-01-02 00:47:04.41	145.02	11.79	-28.9	-32.5	18.7	6.02e-01	0	43	0	909639680	18	5435
2026-01-02 00:47:05.41	145.16	11.71	-29.0	-32.7	18.6	6.02e-01	0	43	0	911212544	18	5513
2026-01-02 00:47:06.41	145.30	11.63	-28.9	-32.5	18.7	6.06e-01	0	43	0	913309696	18	5442
2026-01-02 00:47:07.41	145.43	11.55	-28.9	-32.4	18.8	6.00e-01	0	43	0	914882560	18	5371
2026-01-02 00:47:08.42	145.57	11.47	-29.0	-32.6	18.7	6.01e-01	0	43	0	916979712	18	5471
2026-01-02 00:47:09.42	145.71	11.40	-29.0	-32.5	18.7	6.04e-01	0	43	0	919076864	18	5440
2026-01-02 00:47:10.42	145.84	11.32	-29.0	-32.8	18.5	6.03e-01	0	43	0	920649728	18	5541
2026-01-02 00:47:11.42	145.98	11.24	-29.0	-32.6	18.7	6.02e-01	0	43	0	922746880	18	5471
2026-01-02 00:47:12.43	146.11	11.16	-29.0	-32.7	18.6	6.04e-01	0	43	0	924319744	18	5503
2026-01-02 00:47:13.43	146.24	11.08	-29.0	-32.8	18.5	6.02e-01	0	43	0	926416896	18	5538
2026-01-02 00:47:14.44	146.38	11.00	-29.0	-32.9	18.4	6.01e-01	0	43	0	928514048	18	5590
2026-01-02 00:47:15.44	146.51	10.93	-29.2	-32.8	18.2	6.02e-01	0	43	0	930086912	19	5441
2026-01-02 00:47:16.44	146.64	10.85	-29.2	-33.0	18.0	6.03e-01	0	43	0	932184064	19	5536
2026-01-02 00:47:17.44	146.77	10.77	-29.1	-32.7	18.2	6.03e-01	0	43	0	933756928	19	5460
2026-01-02 00:47:18.45	146.90	10.69	-29.2	-33.1	17.9	6.04e-01	0	43	0	935854080	19	5609
2026-01-02 00:47:19.45	147.03	10.62	-29.2	-33.2	17.8	6.04e-01	0	43	0	937951232	19	5675
2026-01-02 00:47:20.46	147.15	10.54	-29.1	-32.8	18.0	6.04e-01	0	43	0	939524096	19	5515
2026-01-02 00:47:21.46	147.28	10.46	-28.9	-32.6	18.5	6.02e-01	0	43	0	941621248	18	5524
2026-01-02 00:47:22.47	147.41	10.39	-28.9	-32.5	18.5	6.02e-01	0	43	0	943194112	18	5487
2026-01-02 00:47:23.47	147.53	10.31	-29.0	-33.1	18.3	6.03e-01	0	43	0	945291264	18	5719
2026-01-02 00:47:24.47	147.66	10.23	-29.0	-32.7	18.5	6.02e-01	0	43	0	947388416	18	5544
2026-01-02 00:47:25.47	147.78	10.16	-29.0	-32.8	18.4	6.03e-01	0	43	0	948961280	18	5567
2026-01-02 00:47:26.48	147.91	10.08	-29.0	-32.8	18.4	6.03e-01	0	43	0	951058432	18	5568
2026-01-02 00:47:27.48	148.03	10.01	-29.1	-33.1	18.3	6.01e-01	0	43	0	952631296	18	5681
2026-01-02 00:47:28.47	148.15	9.93	-29.2	-33.0	18.0	6.03e-01	0	43	0	954728448	19	5534
2026-01-02 00:47:29.47	148.27	9.86	-29.3	-33.0	17.9	6.05e-01	0	43	0	956301312	19	5562
2026-01-02 00:47:30.48	148.39	9.78	-29.2	-32.9	18.1	6.02e-01	0	43	0	958398464	19	5492
2026-01-02 00:47:31.48	148.51	9.70	-29.2	-32.9	18.1	6.03e-01	0	43	0	960495616	19	5497
2026-01-02 00:47:32.49	148.63	9.63	-29.3	-33.2	17.8	6.02e-01	0	43	0	962068480	19	5626
2026-01-02 00:47:33.48	148.75	9.55	-29.2	-33.0	18.0	6.01e-01	0	43	0	964165632	19	5558
2026-01-02 00:47:34.48	148.87	9.48	-29.3	-33.3	17.6	6.01e-01	0	43	0	965738496	19	5738
2026-01-02 00:47:35.48	148.99	9.41	-29.2	-33.0	17.8	6.03e-01	0	43	0	967835648	19	5601
2026-01-02 00:47:36.47	149.10	9.33	-29.1	-32.9	17.9	6.02e-01	0	43	0	969932800	19	5593
2026-01-02 00:47:37.48	149.22	9.26	-29.1	-33.0	17.9	6.03e-01	0	43	0	971505664	19	5624
2026-01-02 00:47:38.48	149.33	9.18	-29.5	-34.0	17.2	6.02e-01	0	43	0	973602816	19	6083
2026-01-02 00:47:39.48	149.45	9.11	-29.3	-33.4	17.6	6.02e-01	0	43	0	975175680	19	5801
2026-01-02 00:47:40.48	149.56	9.03	-29.3	-33.3	17.6	6.05e-01	0	43	0	977272832	19	5738
2026-01-02 00:47:41.49	149.68	8.96	-29.3	-33.3	17.6	6.03e-01	0	43	0	978845696	19	5740
2026-01-02 00:47:42.50	149.79	8.89	-29.3	-33.2	17.7	6.03e-01	0	43	0	980942848	19	5651
2026-01-02 00:47:43.50	149.91	8.81	-29.4	-33.7	17.4	6.03e-01	0	43	0	983040000	19	5909
2026-01-02 00:47:44.51	150.02	8.74	-29.4	-33.6	17.4	6.03e-01	0	43	0	984612864	19	5841
2026-01-02 00:47:45.52	150.13	8.67	-29.5	-33.8	17.3	6.04e-01	0	43	0	986710016	19	5917
2026-01-02 00:47:46.52	150.24	8.59	-29.4	-33.5	17.4	6.02e-01	0	43	0	988282880	19	5812
2026-01-02 00:47:47.52	150.35	8.52	-29.4	-33.7	17.3	6.03e-01	0	43	0	990380032	19	5899
2026-01-02 00:47:48.52	150.46	8.45	-29.4	-34.0	16.9	6.02e-01	0	43	0	992477184	19	6097
2026-01-02 00:47:49.53	150.57	8.37	-29.3	-33.9	16.9	6.04e-01	0	43	0	994050048	19	6122
2026-01-02 00:47:50.53	150.68	8.30	-29.2	-33.9	16.9	6.02e-01	0	43	0	996147200	19	6151
2026-01-02 00:47:51.53	150.79	8.23	-29.1	-33.8	16.8	6.02e-01	0	43	0	997720064	19	6160
2026-01-02 00:47:52.53	150.90	8.16	-29.1	-33.9	16.8	6.06e-01	0	43	0	999817216	19	6207
2026-01-02 00:47:53.54	151.00	8.09	-29.2	-34.1	16.7	6.01e-01	0	43	0	1001390080	19	6302
2026-01-02 00:47:54.55	151.11	8.01	-29.1	-33.8	16.8	6.03e-01	0	43	0	1003487232	19	6194
2026-01-02 00:47:55.55	151.22	7.94	-29.3	-34.5	16.3	6.00e-01	0	43	0	1005584384	19	6487
2026-01-02 00:47:56.56	151.32	7.87	-29.4	-34.7	16.2	6.02e-01	0	43	0	1007157248	19	6594
2026-01-02 00:47:57.56	151.43	7.80	-29.2	-34.1	16.6	6.04e-01	0	43	0	1009254400	19	6307
2026-01-02 00:47:58.56	151.53	7.73	-29.1	-33.7	16.9	6.04e-01	0	43	0	1010827264	19	6124
2026-01-02 00:47:59.57	151.64	7.66	-29.1	-34.2	16.9	6.03e-01	0	43	0	1012924416	18	6452
2026-01-02 00:48:00.58	151.74	7.58	-29.3	-33.8	16.9	6.04e-01	0	43	0	1015021568	19	6082
2026-01-02 00:48:01.58	151.84	7.51	-29.4	-34.2	16.6	6.03e-01	0	43	0	1016594432	19	6255
2026-01-02 00:48:02.58	151.95	7.44	-29.3	-33.8	16.9	6.02e-01	0	43	0	1018691584	19	6024
2026-01-02 00:48:03.59	152.05	7.37	-29.4	-34.0	16.8	6.02e-01	0	43	0	1020264448	19	6106
2026-01-02 00:48:04.59	152.15	7.30	-29.5	-34.0	16.8	6.04e-01	0	43	0	1022361600	19	6091
2026-01-02 00:48:05.59	152.25	7.23	-29.6	-34.3	16.7	6.02e-01	0	43	0	1024458752	19	6243
2026-01-02 00:48:06.60	152.35	7.16	-29.6	-33.9	16.5	6.02e-01	0	43	0	1026031616	20	5968
2026-01-02 00:48:07.60	152.45	7.09	-32.1	-51.0	3.6	7.47e-01	0	43	104	1027604480	25	32065
2026-01-02 00:48:08.60	152.55	7.02	-32.5	-52.4	3.8	7.48e-01	0	43	104	1027604480	25	35404
2026-01-02 00:48:09.60	152.65	6.95	-33.2	-52.7	3.8	7.44e-01	0	43	104	1027604480	27	33785

#Closed at: 2026-01-02 00:48:10
#Recorded file [1027 MB]: D:/data/31010_260102_033859.dat