passes_logs/2026/01/02/R2M6_AANII_01/R2M6_AANII_01__20260102_112231_NOAA_21_JPSS-2_rec.log

#Pass ID: 20260102_112231_NOAA 21 (JPSS-2)
#Satellite: NOAA 21 (JPSS-2)
#Configuration: NOAA 21
#almurnet v.1.7.20240730
#Start time: 2026-01-02 11:24:29

#Version: 2.2.20231116
#Station: R2M6_AANII_01
#Location: 30.233357 lon 59.946436 lat
#TLE: 1 54234U 22150A   26001.26806856  .00000185  00000+0  10843-3 0  9990
#TLE: 2 54234  98.7484 302.3349 0001277 353.3887   6.7272 14.19530660162860

#Time	Az	El	Level	Level2	SNR	BER	BlckErr	Temp	State	Recorded	gain1	gain2
2026-01-02 11:24:29.15	204.33	16.86	-33.4	-44.9	3.8	8.46e-01	0	43	0	0	26	13485
2026-01-02 11:24:30.14	204.45	16.96	-33.8	-45.4	3.8	1.49e+00	0	43	104	0	28	13733
2026-01-02 11:24:31.13	204.57	17.06	-33.8	-45.5	3.8	1.49e+00	0	44	104	0	28	13777
2026-01-02 11:24:32.14	204.69	17.16	-33.8	-45.5	3.8	1.49e+00	0	43	104	0	28	13825
2026-01-02 11:24:33.14	204.82	17.26	-33.8	-45.6	3.8	1.49e+00	0	43	104	0	28	13882
2026-01-02 11:24:34.14	204.94	17.36	-33.9	-45.6	3.8	1.49e+00	0	44	104	0	28	13877
2026-01-02 11:24:35.14	205.07	17.45	-33.9	-45.6	3.8	1.49e+00	0	43	104	0	28	13850
2026-01-02 11:24:36.14	205.20	17.55	-33.9	-45.7	3.8	1.49e+00	0	43	104	0	28	13952
2026-01-02 11:24:37.13	205.32	17.65	-33.9	-45.6	3.8	1.49e+00	0	43	104	0	28	13914
2026-01-02 11:24:38.13	205.45	17.75	-33.9	-45.7	3.8	1.49e+00	0	44	104	0	28	13970
2026-01-02 11:24:39.12	205.58	17.85	-33.9	-45.6	3.8	1.49e+00	0	43	104	0	28	13912
2026-01-02 11:24:40.11	205.71	17.95	-33.9	-45.6	3.8	1.49e+00	0	44	104	0	28	13897
2026-01-02 11:24:41.10	205.84	18.05	-33.9	-45.6	3.8	1.49e+00	0	44	104	0	28	13852
2026-01-02 11:24:42.10	205.97	18.15	-33.9	-45.6	3.8	1.49e+00	0	44	104	0	28	13883
2026-01-02 11:24:43.09	206.10	18.25	-33.9	-45.6	3.8	1.49e+00	0	44	104	0	28	13842
2026-01-02 11:24:44.09	206.23	18.36	-33.9	-45.6	3.8	1.49e+00	0	44	104	0	28	13854
2026-01-02 11:24:45.09	206.36	18.46	-33.9	-45.6	3.8	1.49e+00	0	44	104	0	28	13851
2026-01-02 11:24:46.08	206.50	18.56	-33.9	-45.6	3.8	1.49e+00	0	44	104	0	28	13888
2026-01-02 11:24:47.09	206.64	18.66	-33.8	-45.6	3.8	1.49e+00	0	44	104	0	28	13893
2026-01-02 11:24:48.09	206.77	18.77	-33.8	-45.5	3.8	1.49e+00	0	44	104	0	28	13814
2026-01-02 11:24:49.09	206.91	18.87	-33.8	-45.4	3.8	1.49e+00	0	44	104	0	28	13780
2026-01-02 11:24:50.09	207.05	18.97	-33.8	-45.4	3.8	1.49e+00	0	43	104	0	28	13713
2026-01-02 11:24:51.09	207.19	19.08	-33.8	-45.4	3.8	1.49e+00	0	44	104	0	28	13708
2026-01-02 11:24:52.09	207.33	19.18	-33.7	-45.3	3.8	1.49e+00	0	44	104	0	28	13638
2026-01-02 11:24:53.09	207.47	19.28	-33.6	-45.2	3.8	1.49e+00	0	44	104	0	28	13554
2026-01-02 11:24:54.09	207.61	19.39	-33.6	-45.1	3.8	1.49e+00	0	43	104	0	28	13459
2026-01-02 11:24:55.08	207.75	19.49	-33.6	-45.0	3.8	1.49e+00	0	44	104	0	28	13443
2026-01-02 11:24:56.08	207.90	19.60	-33.5	-44.9	3.8	1.49e+00	0	44	104	0	28	13352
2026-01-02 11:24:57.08	208.04	19.70	-33.5	-44.8	3.8	1.49e+00	0	44	104	0	28	13289
2026-01-02 11:24:58.08	208.19	19.81	-33.4	-44.7	3.8	1.49e+00	0	44	104	0	28	13148
2026-01-02 11:24:59.07	208.33	19.91	-33.4	-44.5	3.8	1.49e+00	0	43	104	0	28	12916
2026-01-02 11:25:00.06	208.48	20.02	-33.3	-44.1	3.8	1.49e+00	0	44	104	0	28	12535
2026-01-02 11:25:01.06	208.63	20.12	-33.3	-44.3	3.8	1.49e+00	0	43	104	0	27	12868
2026-01-02 11:25:02.05	208.78	20.23	-33.3	-44.5	3.8	1.49e+00	0	44	104	0	27	13076
2026-01-02 11:25:03.16	208.94	20.35	-33.3	-44.7	3.8	1.49e+00	0	43	104	0	27	13368
2026-01-02 11:25:04.02	209.07	20.44	-33.3	-44.8	3.8	1.49e+00	0	44	104	0	27	13587
2026-01-02 11:25:05.16	209.25	20.56	-33.3	-44.9	3.8	1.49e+00	0	44	104	0	27	13717
2026-01-02 11:25:06.01	209.38	20.65	-33.3	-45.0	3.8	1.49e+00	0	43	104	0	27	13800
2026-01-02 11:25:07.14	209.56	20.78	-33.3	-45.0	3.8	1.49e+00	0	44	104	0	27	13773
2026-01-02 11:25:07.99	209.69	20.87	-33.3	-44.8	3.8	1.49e+00	0	44	104	0	27	13540
2026-01-02 11:25:09.13	209.87	20.99	-33.3	-44.2	3.8	1.49e+00	0	43	104	0	27	12765
2026-01-02 11:25:09.97	210.00	21.08	-33.2	-43.7	3.8	1.49e+00	0	44	104	0	27	12033
2026-01-02 11:25:11.12	210.18	21.21	-33.1	-43.1	3.8	1.49e+00	0	44	104	0	27	11393
2026-01-02 11:25:11.97	210.32	21.30	-33.1	-42.9	3.8	1.49e+00	0	44	104	0	27	11078
2026-01-02 11:25:13.11	210.50	21.43	-33.1	-43.1	3.8	1.48e+00	0	44	104	0	27	11415
2026-01-02 11:25:13.97	210.64	21.52	-33.2	-43.6	3.8	1.49e+00	0	44	104	0	27	11995
2026-01-02 11:25:15.10	210.83	21.64	-33.1	-42.9	3.8	1.49e+00	0	44	104	0	27	11103
2026-01-02 11:25:15.95	210.97	21.74	-32.7	-39.7	4.7	1.48e+00	0	44	104	0	26	8117
2026-01-02 11:25:17.09	211.16	21.86	-31.4	-35.3	8.0	1.15e-01	0	44	0	1048576	24	5619
2026-01-02 11:25:17.94	211.30	21.96	-30.4	-33.0	10.3	1.83e-02	0	44	0	3145728	22	4863
2026-01-02 11:25:19.06	211.49	22.08	-29.1	-31.0	12.6	3.62e-04	0	44	0	7340032	19	4499
2026-01-02 11:25:19.92	211.63	22.18	-28.3	-29.5	13.8	1.22e-05	0	44	0	9437184	18	4156
2026-01-02 11:25:21.06	211.83	22.30	-27.6	-28.9	14.8	0.00e+00	0	44	0	12582912	16	4203
2026-01-02 11:25:21.92	211.98	22.40	-27.5	-28.8	14.8	0.00e+00	0	44	0	15728640	16	4156
2026-01-02 11:25:23.07	212.18	22.53	-27.9	-29.5	14.4	9.10e-06	0	44	0	18874368	16	4365
2026-01-02 11:25:23.92	212.32	22.62	-28.0	-29.9	14.2	1.50e-06	0	44	0	22020096	16	4465
2026-01-02 11:25:25.06	212.52	22.75	-27.7	-29.2	14.6	0.00e+00	0	44	0	25165824	16	4277
2026-01-02 11:25:25.91	212.67	22.85	-27.9	-29.6	14.4	0.00e+00	0	44	0	28311552	16	4377
2026-01-02 11:25:27.05	212.88	22.98	-27.7	-29.2	14.6	7.00e-07	0	44	0	31457280	16	4271
2026-01-02 11:25:27.90	213.03	23.07	-27.5	-28.7	14.9	7.00e-07	0	43	0	34603008	16	4122
2026-01-02 11:25:29.03	213.23	23.20	-27.1	-28.4	15.2	0.00e+00	0	44	0	37748736	15	4178
2026-01-02 11:25:29.88	213.39	23.30	-27.0	-28.1	15.4	0.00e+00	0	44	0	40894464	15	4079
2026-01-02 11:25:31.03	213.60	23.43	-26.8	-27.6	15.6	0.00e+00	0	44	0	44040192	15	3961
2026-01-02 11:25:31.89	213.76	23.52	-27.0	-28.0	15.5	0.00e+00	0	44	0	47185920	15	4064
2026-01-02 11:25:33.02	213.97	23.65	-27.1	-28.3	15.3	0.00e+00	0	44	0	50331648	15	4128
2026-01-02 11:25:33.88	214.13	23.75	-26.7	-27.9	15.8	0.00e+00	0	43	0	53477376	14	4137
2026-01-02 11:25:35.02	214.34	23.88	-26.4	-27.2	16.2	0.00e+00	0	44	0	56623104	14	3958
2026-01-02 11:25:35.87	214.50	23.98	-26.4	-27.2	16.2	0.00e+00	0	44	0	59768832	14	3945
2026-01-02 11:25:37.01	214.72	24.11	-26.3	-27.5	16.3	0.00e+00	0	44	0	62914560	13	4132
2026-01-02 11:25:37.86	214.88	24.21	-26.3	-27.6	16.3	0.00e+00	0	44	0	66060288	13	4156
2026-01-02 11:25:39.00	215.10	24.34	-26.3	-27.6	16.2	0.00e+00	0	44	0	69206016	13	4149
2026-01-02 11:25:39.85	215.27	24.44	-26.3	-27.4	16.3	0.00e+00	0	44	0	71303168	13	4110
2026-01-02 11:25:40.99	215.49	24.57	-26.2	-27.2	16.4	0.00e+00	0	43	0	75497472	13	4065
2026-01-02 11:25:41.85	215.66	24.67	-26.2	-27.3	16.4	0.00e+00	0	44	0	77594624	13	4091
2026-01-02 11:25:43.00	215.89	24.80	-26.4	-27.8	16.1	0.00e+00	0	44	0	81788928	13	4206
2026-01-02 11:25:43.85	216.06	24.90	-26.4	-27.7	16.2	0.00e+00	0	44	0	83886080	13	4174
2026-01-02 11:25:45.00	216.30	25.03	-26.6	-28.2	16.0	0.00e+00	0	44	0	88080384	13	4318
2026-01-02 11:25:45.85	216.47	25.13	-26.7	-28.4	15.8	0.00e+00	0	44	0	90177536	13	4385
2026-01-02 11:25:47.00	216.71	25.26	-26.6	-28.1	16.0	0.00e+00	0	44	0	94371840	13	4303
2026-01-02 11:25:47.85	216.88	25.36	-26.6	-28.2	15.9	0.00e+00	0	44	0	96468992	13	4324
2026-01-02 11:25:48.98	217.12	25.49	-26.6	-28.1	16.0	0.00e+00	0	44	0	100663296	13	4300
2026-01-02 11:25:49.83	217.29	25.59	-26.7	-28.4	15.9	3.00e-06	0	44	0	102760448	13	4376
2026-01-02 11:25:50.96	217.53	25.73	-26.6	-28.2	16.0	0.00e+00	0	44	0	106954752	13	4316
2026-01-02 11:25:51.82	217.72	25.83	-26.5	-28.0	16.1	0.00e+00	0	44	0	109051904	13	4255
2026-01-02 11:25:52.96	217.96	25.96	-26.6	-28.1	16.0	2.20e-06	0	43	0	113246208	13	4292
2026-01-02 11:25:53.80	218.14	26.06	-26.5	-28.0	16.0	0.00e+00	0	43	0	115343360	13	4267
2026-01-02 11:25:54.93	218.39	26.19	-26.8	-28.6	15.8	0.00e+00	0	43	0	118489088	13	4418
2026-01-02 11:25:55.79	218.57	26.29	-26.8	-28.5	15.8	0.00e+00	0	44	0	121634816	13	4415
2026-01-02 11:25:56.93	218.82	26.42	-26.6	-28.1	16.0	0.00e+00	0	44	0	124780544	13	4276
2026-01-02 11:25:57.78	219.01	26.52	-26.4	-27.7	16.2	0.00e+00	0	44	0	127926272	13	4183
2026-01-02 11:25:58.92	219.27	26.66	-26.4	-27.8	16.2	0.00e+00	0	44	0	131072000	13	4198
2026-01-02 11:25:59.77	219.46	26.76	-26.4	-27.8	16.2	0.00e+00	0	44	0	134217728	13	4214
2026-01-02 11:26:00.91	219.72	26.89	-26.6	-28.2	16.0	0.00e+00	0	44	0	137363456	13	4309
2026-01-02 11:26:01.76	219.91	26.99	-26.6	-28.3	15.9	0.00e+00	0	44	0	140509184	13	4337
2026-01-02 11:26:02.89	220.17	27.12	-26.6	-28.2	16.0	0.00e+00	0	44	0	143654912	13	4326
2026-01-02 11:26:03.74	220.37	27.22	-26.7	-28.4	15.9	0.00e+00	0	44	0	146800640	13	4366
2026-01-02 11:26:04.88	220.63	27.36	-26.8	-28.6	15.8	2.20e-06	0	44	0	149946368	13	4442
2026-01-02 11:26:05.74	220.84	27.46	-26.8	-28.7	15.7	0.00e+00	0	44	0	153092096	13	4465
2026-01-02 11:26:06.87	221.10	27.59	-27.0	-29.0	15.6	0.00e+00	0	44	0	156237824	13	4544
2026-01-02 11:26:07.72	221.31	27.69	-26.9	-28.8	15.7	0.00e+00	0	43	0	159383552	13	4503
2026-01-02 11:26:08.85	221.58	27.82	-26.9	-28.9	15.6	7.00e-07	0	44	0	162529280	13	4508
2026-01-02 11:26:09.70	221.78	27.92	-27.1	-28.7	15.5	0.00e+00	0	44	0	164626432	14	4357
2026-01-02 11:26:10.84	222.06	28.06	-27.4	-29.5	15.0	1.50e-06	0	44	0	168820736	14	4587
2026-01-02 11:26:11.70	222.27	28.16	-27.4	-28.9	15.1	0.00e+00	0	44	0	170917888	15	4298
2026-01-02 11:26:12.85	222.56	28.29	-27.3	-28.7	15.2	7.00e-07	0	44	0	175112192	15	4242
2026-01-02 11:26:13.70	222.77	28.39	-27.5	-29.2	14.9	6.80e-06	0	44	0	177209344	15	4377
2026-01-02 11:26:14.83	223.05	28.53	-27.4	-29.0	15.1	0.00e+00	0	44	0	181403648	15	4308
2026-01-02 11:26:15.68	223.26	28.62	-27.1	-28.3	15.4	0.00e+00	0	44	0	183500800	15	4134
2026-01-02 11:26:16.82	223.55	28.76	-26.9	-27.9	15.6	3.00e-06	0	44	0	187695104	15	4034
2026-01-02 11:26:17.67	223.77	28.86	-27.0	-28.1	15.5	0.00e+00	0	44	0	189792256	15	4094
2026-01-02 11:26:18.81	224.06	28.99	-27.0	-28.1	15.6	0.00e+00	0	43	0	193986560	15	4066
2026-01-02 11:26:19.66	224.29	29.09	-26.9	-27.7	15.8	0.00e+00	0	44	0	196083712	15	3983
2026-01-02 11:26:20.80	224.58	29.22	-26.6	-27.6	16.1	7.00e-07	0	44	0	200278016	14	4053
2026-01-02 11:26:21.66	224.81	29.32	-26.5	-27.5	16.2	0.00e+00	0	44	0	202375168	14	4013
2026-01-02 11:26:22.80	225.11	29.45	-26.5	-27.4	16.2	0.00e+00	0	44	0	205520896	14	4011
2026-01-02 11:26:23.66	225.34	29.55	-26.5	-27.4	16.2	0.00e+00	0	44	0	208666624	14	3994
2026-01-02 11:26:24.79	225.65	29.68	-26.5	-27.3	16.2	0.00e+00	0	44	0	211812352	14	3985
2026-01-02 11:26:25.65	225.88	29.78	-26.5	-27.5	16.1	0.00e+00	0	44	0	214958080	14	4031
2026-01-02 11:26:26.79	226.19	29.92	-26.6	-27.7	16.0	0.00e+00	0	43	0	218103808	14	4080
2026-01-02 11:26:27.63	226.42	30.01	-26.7	-27.8	16.0	0.00e+00	0	44	0	221249536	14	4102
2026-01-02 11:26:28.77	226.73	30.14	-26.7	-27.9	15.9	0.00e+00	0	44	0	224395264	14	4119
2026-01-02 11:26:29.63	226.97	30.24	-26.7	-27.8	16.0	0.00e+00	0	43	0	227540992	14	4102
2026-01-02 11:26:30.76	227.29	30.37	-26.6	-27.6	16.1	0.00e+00	0	44	0	230686720	14	4062
2026-01-02 11:26:31.61	227.53	30.47	-26.6	-27.6	16.1	0.00e+00	0	44	0	233832448	14	4052
2026-01-02 11:26:32.74	227.85	30.60	-26.7	-27.9	15.9	0.00e+00	0	44	0	236978176	14	4114
2026-01-02 11:26:33.60	228.10	30.69	-26.6	-27.6	16.1	0.00e+00	0	44	0	240123904	14	4037
2026-01-02 11:26:34.74	228.43	30.82	-26.6	-27.6	16.1	0.00e+00	0	43	0	243269632	14	4055
2026-01-02 11:26:35.59	228.67	30.92	-26.7	-27.8	16.0	0.00e+00	0	43	0	246415360	14	4102
2026-01-02 11:26:36.72	229.00	31.04	-26.7	-27.8	16.0	0.00e+00	0	44	0	249561088	14	4106
2026-01-02 11:26:37.58	229.25	31.14	-26.7	-27.9	16.0	0.00e+00	0	44	0	252706816	14	4135
2026-01-02 11:26:38.72	229.59	31.27	-26.8	-28.2	15.8	0.00e+00	0	44	0	255852544	14	4208
2026-01-02 11:26:39.57	229.85	31.36	-26.9	-28.4	15.6	0.00e+00	0	43	0	257949696	14	4272
2026-01-02 11:26:40.71	230.19	31.49	-27.0	-28.5	15.6	2.20e-06	0	44	0	262144000	14	4282
2026-01-02 11:26:41.56	230.44	31.58	-26.9	-28.4	15.7	0.00e+00	0	44	0	264241152	14	4260
2026-01-02 11:26:42.70	230.79	31.71	-27.0	-28.5	15.6	0.00e+00	0	44	0	268435456	14	4281
2026-01-02 11:26:43.55	231.05	31.80	-26.9	-28.4	15.7	4.50e-06	0	44	0	270532608	14	4261
2026-01-02 11:26:44.68	231.40	31.92	-26.9	-28.3	15.7	0.00e+00	0	43	0	274726912	14	4240
2026-01-02 11:26:45.55	231.67	32.02	-26.9	-28.4	15.7	0.00e+00	0	44	0	276824064	14	4261
2026-01-02 11:26:46.68	232.02	32.14	-27.1	-28.7	15.5	6.10e-06	0	44	0	281018368	14	4357
2026-01-02 11:26:47.53	232.29	32.23	-27.2	-28.9	15.4	0.00e+00	0	44	0	283115520	14	4393
2026-01-02 11:26:48.66	232.64	32.35	-27.3	-29.1	15.3	0.00e+00	0	44	0	287309824	14	4460
2026-01-02 11:26:49.51	232.91	32.44	-27.3	-29.3	15.2	0.00e+00	0	43	0	289406976	14	4516
2026-01-02 11:26:50.63	233.27	32.56	-27.4	-29.4	15.1	0.00e+00	0	44	0	292552704	14	4534
2026-01-02 11:26:51.48	233.55	32.65	-27.5	-29.6	15.0	0.00e+00	0	43	0	295698432	14	4615
2026-01-02 11:26:52.61	233.91	32.77	-27.6	-29.4	14.8	6.80e-06	0	44	0	298844160	15	4422
2026-01-02 11:26:53.47	234.19	32.86	-27.7	-29.7	14.7	7.00e-07	0	43	0	301989888	15	4508
2026-01-02 11:26:54.61	234.57	32.97	-27.6	-29.4	14.9	0.00e+00	0	44	0	305135616	15	4436
2026-01-02 11:26:55.47	234.85	33.06	-27.7	-29.6	14.8	0.00e+00	0	44	0	308281344	15	4481
2026-01-02 11:26:56.61	235.23	33.18	-27.7	-29.6	14.8	0.00e+00	0	44	0	311427072	15	4476
2026-01-02 11:26:57.46	235.51	33.26	-27.6	-29.5	14.9	0.00e+00	0	43	0	314572800	15	4445
2026-01-02 11:26:58.60	235.90	33.38	-27.7	-29.6	14.8	6.80e-06	0	44	0	317718528	15	4490
2026-01-02 11:26:59.45	236.19	33.46	-27.8	-29.8	14.6	7.00e-07	0	43	0	320864256	15	4554
2026-01-02 11:27:00.59	236.57	33.57	-27.9	-30.0	14.5	0.00e+00	0	44	0	324009984	15	4618
2026-01-02 11:27:01.45	236.87	33.66	-27.9	-30.1	14.5	7.00e-07	0	44	0	327155712	15	4642
2026-01-02 11:27:02.59	237.26	33.77	-28.1	-30.0	14.5	7.00e-07	0	44	0	330301440	16	4484
2026-01-02 11:27:03.45	237.56	33.85	-28.1	-29.9	14.5	0.00e+00	0	43	0	333447168	16	4442
2026-01-02 11:27:04.59	237.96	33.96	-28.1	-30.0	14.4	4.50e-06	0	44	0	336592896	16	4490
2026-01-02 11:27:05.43	238.25	34.04	-28.1	-30.1	14.4	2.20e-06	0	44	0	339738624	16	4510
2026-01-02 11:27:06.57	238.65	34.15	-28.1	-30.1	14.4	0.00e+00	0	43	0	342884352	16	4516
2026-01-02 11:27:07.43	238.96	34.23	-28.0	-29.8	14.5	3.00e-06	0	44	0	346030080	16	4437
2026-01-02 11:27:08.56	239.36	34.33	-28.1	-29.9	14.5	1.50e-06	0	43	0	349175808	16	4468
2026-01-02 11:27:09.41	239.66	34.41	-28.0	-29.8	14.6	0.00e+00	0	44	0	351272960	16	4428
2026-01-02 11:27:10.55	240.07	34.51	-28.1	-30.0	14.5	3.80e-06	0	44	0	355467264	16	4471
2026-01-02 11:27:11.40	240.38	34.59	-28.2	-30.2	14.4	0.00e+00	0	44	0	357564416	16	4543
2026-01-02 11:27:12.54	240.80	34.69	-28.0	-29.8	14.6	7.00e-07	0	44	0	361758720	16	4411
2026-01-02 11:27:13.38	241.10	34.76	-28.0	-29.8	14.5	3.80e-06	0	44	0	363855872	16	4432
2026-01-02 11:27:14.52	241.52	34.86	-28.2	-30.1	14.4	0.00e+00	0	44	0	368050176	16	4513
2026-01-02 11:27:15.38	241.84	34.93	-28.1	-30.0	14.5	7.00e-07	0	44	0	370147328	16	4484
2026-01-02 11:27:16.52	242.26	35.03	-28.1	-30.0	14.5	0.00e+00	0	44	0	374341632	16	4477
2026-01-02 11:27:17.37	242.58	35.10	-28.0	-29.9	14.5	0.00e+00	0	44	0	376438784	16	4457
2026-01-02 11:27:18.51	243.01	35.19	-28.0	-29.7	14.6	0.00e+00	0	44	0	379584512	16	4394
2026-01-02 11:27:19.36	243.33	35.26	-28.0	-29.8	14.6	7.00e-07	0	44	0	382730240	16	4408
2026-01-02 11:27:20.50	243.76	35.35	-27.7	-29.0	15.0	0.00e+00	0	44	0	385875968	16	4204
2026-01-02 11:27:21.35	244.09	35.41	-27.8	-29.3	14.9	7.00e-07	0	44	0	389021696	16	4269
2026-01-02 11:27:22.49	244.52	35.50	-28.0	-29.9	14.5	3.00e-06	0	43	0	392167424	16	4444
2026-01-02 11:27:23.34	244.85	35.57	-28.0	-29.9	14.5	7.00e-07	0	43	0	395313152	16	4448
2026-01-02 11:27:24.47	245.28	35.65	-28.1	-30.0	14.5	1.50e-06	0	43	0	398458880	16	4481
2026-01-02 11:27:25.32	245.61	35.71	-28.0	-29.8	14.6	4.50e-06	0	43	0	401604608	16	4415
2026-01-02 11:27:26.45	246.05	35.79	-27.8	-29.4	14.8	7.00e-07	0	44	0	404750336	16	4299
2026-01-02 11:27:27.30	246.39	35.85	-27.9	-29.5	14.8	0.00e+00	0	44	0	407896064	16	4340
2026-01-02 11:27:28.44	246.83	35.93	-28.1	-30.0	14.5	8.30e-06	0	44	0	411041792	16	4467
2026-01-02 11:27:29.29	247.17	35.99	-28.2	-30.3	14.3	7.00e-07	0	44	0	414187520	16	4578
2026-01-02 11:27:30.43	247.62	36.07	-28.4	-30.6	14.2	2.20e-06	0	44	0	417333248	16	4667
2026-01-02 11:27:31.28	247.96	36.12	-28.2	-30.2	14.4	1.06e-05	0	44	0	420478976	16	4544
2026-01-02 11:27:32.42	248.41	36.19	-27.9	-29.6	14.7	0.00e+00	0	43	0	423624704	16	4351
2026-01-02 11:27:33.27	248.75	36.25	-28.0	-29.7	14.7	0.00e+00	0	44	0	425721856	16	4395
2026-01-02 11:27:34.40	249.21	36.31	-28.2	-30.1	14.4	2.20e-06	0	44	0	429916160	16	4520
2026-01-02 11:27:35.25	249.55	36.37	-28.2	-30.3	14.3	7.00e-07	0	43	0	432013312	16	4566
2026-01-02 11:27:36.39	250.01	36.43	-28.4	-30.8	14.0	2.20e-06	0	44	0	436207616	16	4733
2026-01-02 11:27:37.25	250.36	36.48	-28.3	-30.4	14.2	9.10e-06	0	44	0	438304768	16	4597
2026-01-02 11:27:38.39	250.82	36.54	-28.1	-30.1	14.4	7.00e-07	0	44	0	442499072	16	4505
2026-01-02 11:27:39.24	251.17	36.59	-28.3	-30.5	14.2	1.50e-06	0	43	0	444596224	16	4632
2026-01-02 11:27:40.38	251.64	36.65	-28.3	-30.6	14.2	1.50e-06	0	44	0	448790528	16	4656
2026-01-02 11:27:41.23	251.99	36.69	-28.4	-30.7	14.0	7.00e-07	0	44	0	450887680	16	4702
2026-01-02 11:27:42.38	252.46	36.75	-28.4	-30.6	14.1	0.00e+00	0	44	0	455081984	16	4669
2026-01-02 11:27:43.22	252.81	36.79	-28.4	-30.6	14.1	2.20e-06	0	44	0	457179136	16	4677
2026-01-02 11:27:44.36	253.28	36.84	-28.4	-30.6	14.1	7.00e-07	0	44	0	461373440	16	4667
2026-01-02 11:27:45.22	253.64	36.88	-28.4	-30.7	14.1	7.00e-07	0	44	0	463470592	16	4702
2026-01-02 11:27:46.36	254.12	36.93	-28.4	-30.6	14.2	6.80e-06	0	44	0	466616320	16	4655
2026-01-02 11:27:47.22	254.48	36.96	-28.4	-30.7	14.1	1.50e-06	0	44	0	469762048	16	4678
2026-01-02 11:27:48.36	254.95	37.01	-28.6	-30.7	13.7	4.50e-06	0	43	0	472907776	17	4591
2026-01-02 11:27:49.21	255.31	37.04	-28.9	-31.4	13.4	1.90e-05	0	43	0	476053504	17	4791
2026-01-02 11:27:50.35	255.79	37.08	-28.7	-30.9	13.7	1.14e-05	0	44	0	479199232	17	4643
2026-01-02 11:27:51.20	256.15	37.11	-28.6	-30.6	13.8	1.50e-06	0	44	0	482344960	17	4562
2026-01-02 11:27:52.34	256.63	37.15	-28.6	-30.6	13.8	1.37e-05	0	44	0	485490688	17	4547
2026-01-02 11:27:53.20	257.00	37.17	-28.4	-30.2	14.1	3.00e-06	0	44	0	488636416	17	4417
2026-01-02 11:27:54.33	257.48	37.21	-28.3	-30.0	14.2	2.20e-06	0	44	0	491782144	17	4365
2026-01-02 11:27:55.19	257.84	37.23	-28.4	-30.3	14.0	1.22e-05	0	44	0	494927872	17	4462
2026-01-02 11:27:56.32	258.32	37.26	-28.3	-30.0	14.2	1.50e-06	0	44	0	498073600	17	4364
2026-01-02 11:27:57.18	258.69	37.28	-28.4	-30.1	14.1	3.80e-06	0	43	0	501219328	17	4412
2026-01-02 11:27:58.31	259.17	37.31	-28.2	-29.7	14.4	4.50e-06	0	44	0	504365056	17	4283
2026-01-02 11:27:59.17	259.54	37.32	-28.2	-29.8	14.3	1.50e-06	0	44	0	507510784	17	4318
2026-01-02 11:28:00.30	260.02	37.34	-28.3	-29.8	14.3	7.00e-07	0	44	0	510656512	17	4327
2026-01-02 11:28:01.16	260.39	37.36	-28.4	-30.1	14.2	8.30e-06	0	43	0	513802240	17	4403
2026-01-02 11:28:02.29	260.88	37.38	-28.2	-29.7	14.4	0.00e+00	0	44	0	516947968	17	4280
2026-01-02 11:28:03.15	261.25	37.39	-28.2	-29.6	14.4	7.00e-07	0	44	0	520093696	17	4254
2026-01-02 11:28:04.28	261.73	37.40	-28.2	-29.8	14.3	1.50e-06	0	44	0	523239424	17	4309
2026-01-02 11:28:05.13	262.10	37.41	-28.2	-29.8	14.4	0.00e+00	0	44	0	526385152	17	4299
2026-01-02 11:28:06.26	262.58	37.42	-28.1	-29.6	14.5	7.00e-07	0	43	0	529530880	17	4250
2026-01-02 11:28:07.12	262.95	37.43	-28.2	-29.8	14.3	6.10e-06	0	43	0	531628032	17	4318
2026-01-02 11:28:08.26	263.44	37.43	-28.1	-29.4	14.5	0.00e+00	0	43	0	535822336	17	4211
2026-01-02 11:28:09.11	263.81	37.44	-27.9	-29.0	14.8	0.00e+00	0	44	0	537919488	17	4099
2026-01-02 11:28:10.25	264.30	37.44	-28.0	-29.2	14.6	3.00e-06	0	43	0	542113792	17	4145
2026-01-02 11:28:11.10	264.67	37.44	-28.2	-29.6	14.4	7.00e-07	0	44	0	544210944	17	4262
2026-01-02 11:28:12.24	265.16	37.43	-28.1	-29.5	14.5	1.50e-06	0	44	0	548405248	17	4229
2026-01-02 11:28:13.10	265.53	37.43	-28.2	-29.8	14.3	1.06e-05	0	44	0	550502400	17	4319
2026-01-02 11:28:14.24	266.02	37.42	-28.2	-29.8	14.4	7.00e-07	0	44	0	554696704	17	4312
2026-01-02 11:28:15.10	266.39	37.42	-28.1	-29.6	14.5	0.00e+00	0	44	0	556793856	17	4246
2026-01-02 11:28:16.23	266.87	37.41	-28.2	-29.7	14.4	9.10e-06	0	43	0	560988160	17	4281
2026-01-02 11:28:17.08	267.24	37.40	-28.5	-30.4	14.0	1.50e-06	0	44	0	563085312	17	4470
2026-01-02 11:28:18.22	267.73	37.38	-28.4	-30.1	14.1	2.20e-06	0	44	0	567279616	17	4406
2026-01-02 11:28:19.06	268.09	37.37	-28.4	-30.1	14.2	9.90e-06	0	43	0	569376768	17	4386
2026-01-02 11:28:20.19	268.57	37.35	-28.3	-29.8	14.3	3.00e-06	0	43	0	572522496	17	4319
2026-01-02 11:28:21.05	268.94	37.34	-28.3	-30.0	14.2	0.00e+00	0	43	0	575668224	17	4352
2026-01-02 11:28:22.19	269.43	37.32	-28.6	-30.6	13.9	1.50e-06	0	43	0	578813952	17	4534
2026-01-02 11:28:23.04	269.79	37.30	-28.4	-30.3	14.0	3.00e-06	0	44	0	581959680	17	4450
2026-01-02 11:28:24.17	270.27	37.27	-28.5	-30.5	13.9	2.20e-06	0	44	0	585105408	17	4513
2026-01-02 11:28:25.03	270.64	37.25	-28.8	-31.1	13.6	9.10e-06	0	43	0	588251136	17	4689
2026-01-02 11:28:26.18	271.13	37.22	-28.9	-31.5	13.3	1.75e-05	0	43	0	591396864	17	4816
2026-01-02 11:28:27.04	271.49	37.19	-28.7	-31.0	13.7	1.60e-05	0	43	0	594542592	17	4657
2026-01-02 11:28:28.18	271.97	37.16	-28.6	-30.6	13.8	5.30e-06	0	44	0	597688320	17	4547
2026-01-02 11:28:29.03	272.33	37.13	-28.6	-30.8	13.8	7.60e-06	0	44	0	600834048	17	4600
2026-01-02 11:28:30.17	272.81	37.10	-28.7	-31.0	13.6	6.10e-06	0	44	0	603979776	17	4675
2026-01-02 11:28:31.02	273.17	37.07	-28.7	-30.9	13.6	2.28e-05	0	44	0	607125504	17	4654
2026-01-02 11:28:32.16	273.65	37.02	-28.9	-31.5	13.3	1.37e-05	0	44	0	610271232	17	4827
2026-01-02 11:28:33.01	274.01	36.99	-28.7	-30.9	13.7	6.80e-06	0	43	0	613416960	17	4634
2026-01-02 11:28:34.15	274.48	36.95	-28.5	-30.3	14.0	2.20e-06	0	43	0	616562688	17	4464
2026-01-02 11:28:35.00	274.84	36.91	-28.4	-30.3	14.0	2.20e-06	0	44	0	618659840	17	4449
2026-01-02 11:28:36.14	275.31	36.86	-28.4	-30.3	14.0	3.00e-06	0	44	0	622854144	17	4446
2026-01-02 11:28:36.99	275.67	36.82	-28.5	-30.4	14.0	3.80e-06	0	44	0	624951296	17	4492
2026-01-02 11:28:38.13	276.14	36.77	-28.4	-30.2	14.1	2.20e-06	0	44	0	629145600	17	4418
2026-01-02 11:28:38.99	276.49	36.73	-28.3	-30.0	14.2	3.00e-06	0	44	0	631242752	17	4381
2026-01-02 11:28:40.12	276.96	36.67	-28.4	-30.3	14.0	5.30e-06	0	44	0	635437056	17	4464
2026-01-02 11:28:40.97	277.31	36.63	-28.7	-30.9	13.7	1.50e-06	0	43	0	637534208	17	4644
2026-01-02 11:28:42.11	277.77	36.57	-28.7	-30.8	13.7	3.80e-06	0	44	0	641728512	17	4625
2026-01-02 11:28:42.98	278.13	36.52	-28.7	-30.8	13.7	6.10e-06	0	44	0	643825664	17	4617
2026-01-02 11:28:44.11	278.59	36.46	-28.6	-30.6	13.9	6.10e-06	0	43	0	648019968	17	4546
2026-01-02 11:28:44.97	278.93	36.41	-28.4	-30.2	14.1	3.00e-06	0	44	0	650117120	17	4427
2026-01-02 11:28:46.10	279.39	36.35	-28.3	-29.9	14.3	0.00e+00	0	43	0	654311424	17	4341
2026-01-02 11:28:46.96	279.73	36.29	-28.5	-30.3	14.0	1.50e-06	0	43	0	656408576	17	4468
2026-01-02 11:28:48.10	280.19	36.22	-28.6	-30.8	13.8	3.80e-06	0	44	0	660602880	17	4611
2026-01-02 11:28:48.94	280.53	36.17	-28.7	-31.0	13.7	3.80e-06	0	44	0	662700032	17	4670
2026-01-02 11:28:50.08	280.98	36.10	-28.6	-30.7	13.8	4.50e-06	0	44	0	665845760	17	4591
2026-01-02 11:28:50.94	281.32	36.04	-28.6	-30.6	13.8	3.80e-06	0	44	0	668991488	17	4567
2026-01-02 11:28:52.08	281.77	35.97	-28.5	-30.5	13.9	3.80e-06	0	43	0	672137216	17	4518
2026-01-02 11:28:52.93	282.10	35.91	-28.7	-30.9	13.7	4.50e-06	0	44	0	675282944	17	4639
2026-01-02 11:28:54.07	282.55	35.83	-28.7	-31.0	13.6	1.22e-05	0	44	0	678428672	17	4673
2026-01-02 11:28:54.93	282.88	35.77	-28.9	-31.5	13.4	1.29e-05	0	43	0	681574400	17	4828
2026-01-02 11:28:56.07	283.33	35.69	-28.5	-30.0	13.9	1.22e-05	0	44	0	684720128	18	4261
2026-01-02 11:28:56.92	283.65	35.62	-28.5	-29.8	14.0	3.80e-06	0	44	0	687865856	18	4216
2026-01-02 11:28:58.06	284.09	35.54	-28.8	-30.7	13.5	1.22e-05	0	44	0	691011584	18	4485
2026-01-02 11:28:58.92	284.42	35.47	-28.8	-30.7	13.5	9.90e-06	0	44	0	694157312	18	4485
2026-01-02 11:29:00.06	284.85	35.39	-28.8	-30.6	13.6	1.22e-05	0	44	0	697303040	18	4447
2026-01-02 11:29:00.89	285.17	35.32	-28.7	-30.4	13.7	6.10e-06	0	44	0	700448768	18	4363
2026-01-02 11:29:02.03	285.60	35.23	-28.5	-29.9	14.0	9.90e-06	0	44	0	703594496	18	4240
2026-01-02 11:29:02.88	285.92	35.16	-28.6	-30.1	13.9	2.20e-06	0	44	0	706740224	18	4290
2026-01-02 11:29:04.02	286.34	35.07	-28.4	-29.7	14.1	7.00e-07	0	44	0	709885952	18	4180
2026-01-02 11:29:04.88	286.66	35.00	-28.2	-29.7	14.4	2.20e-06	0	43	0	713031680	17	4272
2026-01-02 11:29:06.01	287.08	34.90	-27.9	-28.9	14.8	7.00e-07	0	44	0	716177408	17	4069
2026-01-02 11:29:06.86	287.39	34.83	-27.8	-29.2	14.9	0.00e+00	0	43	0	718274560	16	4249
2026-01-02 11:29:08.00	287.81	34.73	-27.9	-29.5	14.8	0.00e+00	0	44	0	722468864	16	4320
2026-01-02 11:29:08.86	288.12	34.66	-28.1	-29.9	14.5	0.00e+00	0	44	0	724566016	16	4455
2026-01-02 11:29:10.00	288.54	34.56	-28.4	-30.6	14.2	1.50e-06	0	44	0	728760320	16	4660
2026-01-02 11:29:10.86	288.85	34.48	-28.5	-30.8	14.0	4.50e-06	0	43	0	730857472	16	4739
2026-01-02 11:29:12.00	289.25	34.38	-28.1	-29.4	14.5	1.50e-06	0	43	0	735051776	17	4207
2026-01-02 11:29:12.84	289.55	34.30	-27.8	-28.9	14.9	2.20e-06	0	44	0	737148928	17	4058
2026-01-02 11:29:13.99	289.96	34.20	-27.8	-28.8	14.9	1.50e-06	0	43	0	741343232	17	4045
2026-01-02 11:29:14.85	290.26	34.12	-27.9	-29.0	14.8	0.00e+00	0	44	0	743440384	17	4098
2026-01-02 11:29:15.99	290.66	34.01	-27.8	-28.9	14.8	0.00e+00	0	43	0	747634688	17	4070
2026-01-02 11:29:16.85	290.96	33.93	-27.7	-29.2	15.0	0.00e+00	0	44	0	749731840	16	4243
2026-01-02 11:29:17.99	291.36	33.82	-27.8	-29.2	15.0	0.00e+00	0	44	0	753926144	16	4257
2026-01-02 11:29:18.84	291.65	33.74	-27.8	-29.3	14.9	0.00e+00	0	44	0	756023296	16	4271
2026-01-02 11:29:19.98	292.04	33.63	-27.8	-29.2	14.9	0.00e+00	0	43	0	760217600	16	4259
2026-01-02 11:29:20.84	292.33	33.55	-27.8	-29.2	14.9	0.00e+00	0	44	0	762314752	16	4252
2026-01-02 11:29:21.98	292.72	33.43	-27.8	-29.2	14.9	0.00e+00	0	43	0	766509056	16	4253
2026-01-02 11:29:22.83	293.01	33.35	-27.6	-28.7	15.2	0.00e+00	0	44	0	768606208	16	4122
2026-01-02 11:29:23.97	293.39	33.23	-27.8	-29.3	14.9	0.00e+00	0	44	0	772800512	16	4276
2026-01-02 11:29:24.82	293.67	33.15	-27.8	-29.3	14.9	0.00e+00	0	43	0	774897664	16	4281
2026-01-02 11:29:25.96	294.05	33.03	-28.0	-29.7	14.7	2.20e-06	0	44	0	778043392	16	4380
2026-01-02 11:29:26.81	294.32	32.95	-28.0	-29.7	14.7	1.50e-06	0	44	0	781189120	16	4392
2026-01-02 11:29:27.95	294.70	32.83	-27.9	-29.5	14.8	0.00e+00	0	44	0	784334848	16	4327
2026-01-02 11:29:28.80	294.97	32.74	-27.9	-29.4	14.8	0.00e+00	0	43	0	787480576	16	4316
2026-01-02 11:29:29.93	295.34	32.62	-27.9	-29.5	14.7	0.00e+00	0	44	0	790626304	16	4325
2026-01-02 11:29:30.79	295.61	32.53	-27.6	-28.9	15.0	0.00e+00	0	44	0	793772032	16	4181
2026-01-02 11:29:31.94	295.98	32.41	-27.7	-29.2	15.0	0.00e+00	0	44	0	796917760	16	4243
2026-01-02 11:29:32.80	296.25	32.32	-27.6	-28.8	15.1	0.00e+00	0	44	0	800063488	16	4156
2026-01-02 11:29:33.94	296.61	32.20	-27.3	-28.3	15.4	0.00e+00	0	44	0	803209216	16	4001
2026-01-02 11:29:34.79	296.87	32.11	-27.1	-28.2	15.6	0.00e+00	0	44	0	806354944	15	4102
2026-01-02 11:29:35.94	297.23	31.99	-27.3	-28.6	15.4	0.00e+00	0	44	0	809500672	15	4210
2026-01-02 11:29:36.79	297.49	31.89	-27.2	-28.6	15.4	0.00e+00	0	44	0	812646400	15	4193
2026-01-02 11:29:37.93	297.84	31.77	-27.1	-28.2	15.6	0.00e+00	0	44	0	815792128	15	4100
2026-01-02 11:29:38.78	298.10	31.68	-27.0	-28.1	15.6	0.00e+00	0	44	0	818937856	15	4083
2026-01-02 11:29:39.92	298.44	31.55	-27.1	-28.3	15.5	0.00e+00	0	44	0	822083584	15	4124
2026-01-02 11:29:40.77	298.70	31.46	-27.2	-28.4	15.5	0.00e+00	0	44	0	824180736	15	4145
2026-01-02 11:29:41.91	299.04	31.34	-27.2	-28.5	15.4	0.00e+00	0	44	0	828375040	15	4178
2026-01-02 11:29:42.77	299.29	31.24	-27.1	-28.3	15.5	0.00e+00	0	44	0	831520768	15	4112
2026-01-02 11:29:43.91	299.63	31.11	-26.9	-27.8	15.8	0.00e+00	0	44	0	834666496	15	4001
2026-01-02 11:29:44.75	299.87	31.02	-26.9	-27.8	15.8	0.00e+00	0	44	0	836763648	15	3982
2026-01-02 11:29:45.90	300.20	30.89	-26.8	-27.7	15.9	0.00e+00	0	44	0	840957952	15	3962
2026-01-02 11:29:46.75	300.45	30.80	-26.9	-27.8	15.8	0.00e+00	0	44	0	843055104	15	3991
2026-01-02 11:29:47.89	300.77	30.67	-27.1	-28.4	15.5	0.00e+00	0	44	0	847249408	15	4144
2026-01-02 11:29:48.75	301.02	30.57	-27.2	-28.5	15.4	0.00e+00	0	43	0	849346560	15	4176
2026-01-02 11:29:49.88	301.34	30.44	-27.3	-28.8	15.2	0.00e+00	0	44	0	853540864	15	4262
2026-01-02 11:29:50.74	301.58	30.35	-27.3	-28.6	15.3	0.00e+00	0	44	0	855638016	15	4211
2026-01-02 11:29:51.88	301.90	30.22	-27.1	-28.2	15.5	0.00e+00	0	44	0	859832320	15	4106
2026-01-02 11:29:52.74	302.13	30.12	-27.0	-28.1	15.6	0.00e+00	0	44	0	861929472	15	4081
2026-01-02 11:29:53.89	302.45	29.99	-27.0	-28.0	15.7	0.00e+00	0	44	0	866123776	15	4056
2026-01-02 11:29:54.75	302.68	29.89	-26.9	-27.7	15.8	0.00e+00	0	44	0	868220928	15	3977
2026-01-02 11:29:55.89	302.99	29.76	-27.0	-27.9	15.7	0.00e+00	0	44	0	872415232	15	4026
2026-01-02 11:29:56.74	303.22	29.66	-26.8	-27.6	15.9	0.00e+00	0	44	0	874512384	15	3949
2026-01-02 11:29:57.89	303.53	29.53	-26.7	-27.9	16.0	0.00e+00	0	44	0	878706688	14	4114
2026-01-02 11:29:58.74	303.75	29.43	-26.7	-27.8	16.0	0.00e+00	0	44	0	880803840	14	4096
2026-01-02 11:29:59.88	304.05	29.30	-26.8	-28.0	15.9	0.00e+00	0	44	0	884998144	14	4144
2026-01-02 11:30:00.73	304.27	29.20	-26.8	-28.1	15.9	0.00e+00	0	44	0	887095296	14	4182
2026-01-02 11:30:01.88	304.57	29.07	-26.8	-28.1	15.9	0.00e+00	0	44	0	890241024	14	4187
2026-01-02 11:30:02.75	304.80	28.97	-26.7	-27.8	16.1	0.00e+00	0	44	0	893386752	14	4084
2026-01-02 11:30:03.89	305.09	28.84	-26.5	-27.4	16.3	0.00e+00	0	44	0	896532480	14	3994
2026-01-02 11:30:04.75	305.31	28.74	-26.6	-27.6	16.2	0.00e+00	0	44	0	899678208	14	4034
2026-01-02 11:30:05.90	305.60	28.60	-26.7	-27.8	16.1	0.00e+00	0	44	0	902823936	14	4090
2026-01-02 11:30:06.76	305.81	28.50	-26.8	-28.0	16.0	0.00e+00	0	43	0	905969664	14	4142
2026-01-02 11:30:07.91	306.10	28.37	-27.0	-28.4	15.7	0.00e+00	0	44	0	909115392	14	4268
2026-01-02 11:30:08.77	306.31	28.27	-27.0	-28.5	15.7	0.00e+00	0	44	0	912261120	14	4280
2026-01-02 11:30:09.91	306.59	28.14	-27.0	-28.4	15.7	0.00e+00	0	44	0	915406848	14	4258
2026-01-02 11:30:10.77	306.80	28.03	-26.8	-28.0	15.9	0.00e+00	0	44	0	918552576	14	4145
2026-01-02 11:30:11.92	307.08	27.90	-26.7	-27.8	16.0	0.00e+00	0	44	0	921698304	14	4101
2026-01-02 11:30:12.78	307.28	27.80	-26.8	-28.1	15.9	0.00e+00	0	44	0	924844032	14	4180
2026-01-02 11:30:13.92	307.55	27.67	-26.7	-27.8	16.1	0.00e+00	0	44	0	927989760	14	4082
2026-01-02 11:30:14.78	307.76	27.57	-26.6	-27.5	16.2	0.00e+00	0	43	0	931135488	14	4015
2026-01-02 11:30:15.92	308.03	27.43	-26.4	-27.2	16.4	0.00e+00	0	44	0	934281216	14	3945
2026-01-02 11:30:16.78	308.23	27.33	-26.5	-27.3	16.3	0.00e+00	0	43	0	937426944	14	3976
2026-01-02 11:30:17.93	308.49	27.20	-26.5	-27.3	16.3	0.00e+00	0	43	0	940572672	14	3964
2026-01-02 11:30:18.79	308.69	27.10	-26.5	-27.4	16.2	0.00e+00	0	44	0	943718400	14	3994
2026-01-02 11:30:19.93	308.95	26.97	-26.4	-27.1	16.4	0.00e+00	0	44	0	946864128	14	3927
2026-01-02 11:30:20.79	309.14	26.87	-26.3	-27.0	16.5	0.00e+00	0	44	0	950009856	14	3879
2026-01-02 11:30:21.94	309.40	26.73	-26.3	-27.5	16.4	0.00e+00	0	43	0	953155584	13	4126
2026-01-02 11:30:22.80	309.60	26.63	-26.4	-27.7	16.3	0.00e+00	0	44	0	956301312	13	4167
2026-01-02 11:30:23.94	309.85	26.50	-26.4	-27.8	16.2	0.00e+00	0	44	0	959447040	13	4199
2026-01-02 11:30:24.80	310.04	26.40	-26.7	-28.3	16.0	0.00e+00	0	44	0	962592768	13	4337
2026-01-02 11:30:25.94	310.29	26.27	-26.6	-28.1	16.1	0.00e+00	0	44	0	965738496	13	4290
2026-01-02 11:30:26.80	310.47	26.17	-26.7	-28.3	15.9	0.00e+00	0	44	0	968884224	13	4353
2026-01-02 11:30:27.94	310.72	26.03	-26.8	-28.5	15.8	0.00e+00	0	44	0	972029952	13	4410
2026-01-02 11:30:28.80	310.90	25.93	-27.0	-29.0	15.6	0.00e+00	0	44	0	975175680	13	4537
2026-01-02 11:30:29.94	311.14	25.80	-27.0	-28.6	15.5	0.00e+00	0	44	0	978321408	14	4311
2026-01-02 11:30:30.80	311.32	25.70	-27.1	-28.7	15.5	0.00e+00	0	44	0	981467136	14	4353
2026-01-02 11:30:31.94	311.56	25.57	-27.0	-28.5	15.6	0.00e+00	0	44	0	984612864	14	4287
2026-01-02 11:30:32.81	311.74	25.47	-26.9	-28.3	15.7	0.00e+00	0	43	0	987758592	14	4222
2026-01-02 11:30:33.95	311.98	25.34	-26.8	-28.1	15.8	0.00e+00	0	43	0	990904320	14	4172
2026-01-02 11:30:34.81	312.16	25.24	-26.8	-28.1	15.8	0.00e+00	0	43	0	994050048	14	4186
2026-01-02 11:30:35.96	312.39	25.11	-26.7	-27.9	15.9	0.00e+00	0	44	0	997195776	14	4120
2026-01-02 11:30:36.81	312.56	25.01	-26.6	-27.6	16.0	0.00e+00	0	44	0	999292928	14	4054
2026-01-02 11:30:37.97	312.79	24.88	-26.6	-27.7	16.0	0.00e+00	0	44	0	1003487232	14	4062
2026-01-02 11:30:38.83	312.96	24.78	-26.5	-27.5	16.2	0.00e+00	0	44	0	1006632960	14	4014
2026-01-02 11:30:39.98	313.19	24.65	-26.7	-27.7	16.0	0.00e+00	0	44	0	1009778688	14	4083
2026-01-02 11:30:40.84	313.36	24.55	-26.5	-27.4	16.2	0.00e+00	0	44	0	1012924416	14	4007
2026-01-02 11:30:41.99	313.58	24.42	-26.4	-27.2	16.3	0.00e+00	0	43	0	1016070144	14	3938
2026-01-02 11:30:42.85	313.75	24.32	-26.4	-27.2	16.3	0.00e+00	0	43	0	1019215872	14	3951
2026-01-02 11:30:43.99	313.97	24.19	-26.6	-27.6	16.1	0.00e+00	0	44	0	1022361600	14	4045
2026-01-02 11:30:44.85	314.13	24.09	-26.5	-27.5	16.1	7.00e-07	0	43	0	1024458752	14	4024
2026-01-02 11:30:45.99	314.35	23.96	-26.5	-27.5	16.1	0.00e+00	0	43	0	1028653056	14	4015
2026-01-02 11:30:46.85	314.51	23.86	-26.5	-27.5	16.1	0.00e+00	0	44	0	1030750208	14	4009
2026-01-02 11:30:48.00	314.73	23.73	-26.6	-27.7	16.0	0.00e+00	0	44	0	1034944512	14	4064
2026-01-02 11:30:48.86	314.89	23.64	-26.5	-27.4	16.1	0.00e+00	0	43	0	1037041664	14	4006
2026-01-02 11:30:50.01	315.10	23.51	-26.5	-27.5	16.1	0.00e+00	0	44	0	1041235968	14	4028
2026-01-02 11:30:50.88	315.26	23.41	-26.5	-27.5	16.1	0.00e+00	0	44	0	1043333120	14	4026
2026-01-02 11:30:52.02	315.46	23.28	-26.7	-27.9	15.8	0.00e+00	0	44	0	1047527424	14	4131
2026-01-02 11:30:52.89	315.62	23.18	-26.7	-27.8	15.9	0.00e+00	0	44	0	1049624576	14	4111
2026-01-02 11:30:54.04	315.83	23.05	-26.6	-27.6	16.0	0.00e+00	0	43	0	1053818880	14	4042
2026-01-02 11:30:54.90	315.98	22.96	-26.6	-27.5	16.0	0.00e+00	0	43	0	1055916032	14	4037
2026-01-02 11:30:56.04	316.18	22.83	-26.6	-27.7	16.0	0.00e+00	0	44	0	1060110336	14	4071
2026-01-02 11:30:56.90	316.33	22.73	-26.6	-27.7	16.0	0.00e+00	0	43	0	1062207488	14	4065
2026-01-02 11:30:58.04	316.53	22.61	-26.6	-27.7	16.0	0.00e+00	0	43	0	1066401792	14	4073
2026-01-02 11:30:58.91	316.68	22.51	-26.8	-28.1	15.7	0.00e+00	0	43	0	1068498944	14	4188
2026-01-02 11:31:00.05	316.87	22.38	-26.8	-28.1	15.7	0.00e+00	0	43	0	1072693248	14	4186
2026-01-02 11:31:00.91	317.02	22.29	-26.9	-28.3	15.7	0.00e+00	0	44	0	1074790400	14	4226
2026-01-02 11:31:02.05	317.21	22.16	-27.0	-28.6	15.5	0.00e+00	0	44	0	1078984704	14	4331
2026-01-02 11:31:02.91	317.36	22.07	-27.3	-29.2	15.1	0.00e+00	0	44	0	1081081856	14	4490
2026-01-02 11:31:04.06	317.55	21.94	-27.2	-29.1	15.2	0.00e+00	0	44	0	1085276160	14	4467
2026-01-02 11:31:04.92	317.69	21.85	-27.1	-28.9	15.4	0.00e+00	0	44	0	1087373312	14	4394
2026-01-02 11:31:06.07	317.88	21.72	-27.5	-29.6	14.8	0.00e+00	0	44	0	1091567616	14	4629
2026-01-02 11:31:06.92	318.02	21.63	-27.4	-29.5	14.9	0.00e+00	0	44	0	1093664768	14	4582
2026-01-02 11:31:08.07	318.21	21.50	-27.6	-29.4	14.7	0.00e+00	0	44	0	1097859072	15	4441
2026-01-02 11:31:08.93	318.35	21.41	-27.5	-29.1	14.9	0.00e+00	0	44	0	1099956224	15	4363
2026-01-02 11:31:10.08	318.53	21.29	-27.4	-28.9	15.0	0.00e+00	0	44	0	1104150528	15	4307
2026-01-02 11:31:10.95	318.67	21.19	-27.4	-29.0	15.0	0.00e+00	0	44	0	1106247680	15	4317
2026-01-02 11:31:12.09	318.85	21.07	-27.1	-28.3	15.3	0.00e+00	0	43	0	1110441984	15	4144
2026-01-02 11:31:12.96	318.99	20.98	-27.2	-28.5	15.2	0.00e+00	0	44	0	1112539136	15	4184
2026-01-02 11:31:14.10	319.16	20.85	-27.1	-28.2	15.4	0.00e+00	0	44	0	1116733440	15	4106
2026-01-02 11:31:14.96	319.30	20.76	-26.9	-27.9	15.5	0.00e+00	0	44	0	1118830592	15	4034
2026-01-02 11:31:16.11	319.47	20.64	-26.9	-27.9	15.5	0.00e+00	0	44	0	1123024896	15	4026
2026-01-02 11:31:16.96	319.60	20.55	-27.0	-28.0	15.4	0.00e+00	0	44	0	1125122048	15	4064
2026-01-02 11:31:18.10	319.78	20.43	-27.0	-28.1	15.5	0.00e+00	0	44	0	1129316352	15	4068
2026-01-02 11:31:18.97	319.91	20.33	-27.1	-28.2	15.4	0.00e+00	0	44	0	1131413504	15	4099
2026-01-02 11:31:20.11	320.08	20.21	-27.0	-28.1	15.4	0.00e+00	0	43	0	1135607808	15	4087
2026-01-02 11:31:20.97	320.21	20.12	-27.1	-28.2	15.3	0.00e+00	0	44	0	1137704960	15	4118
2026-01-02 11:31:22.12	320.38	20.00	-26.9	-27.9	15.5	0.00e+00	0	44	0	1140850688	15	4041
2026-01-02 11:31:22.98	320.50	19.91	-26.9	-27.9	15.5	0.00e+00	0	44	0	1143996416	15	4035
2026-01-02 11:31:24.12	320.67	19.79	-26.9	-27.8	15.5	0.00e+00	0	43	0	1148190720	15	4013
2026-01-02 11:31:24.98	320.79	19.70	-26.9	-27.8	15.6	0.00e+00	0	43	0	1150287872	15	4002
2026-01-02 11:31:26.12	320.96	19.58	-27.0	-28.1	15.4	0.00e+00	0	44	0	1154482176	15	4078
2026-01-02 11:31:26.99	321.08	19.49	-27.5	-29.2	14.8	0.00e+00	0	44	0	1156579328	15	4370
2026-01-02 11:31:28.13	321.24	19.38	-27.2	-28.6	15.1	0.00e+00	0	43	0	1160773632	15	4217
2026-01-02 11:31:28.99	321.36	19.29	-27.1	-28.2	15.3	0.00e+00	0	43	0	1162870784	15	4120
2026-01-02 11:31:30.13	321.52	19.17	-27.1	-28.3	15.3	0.00e+00	0	44	0	1166016512	15	4143
2026-01-02 11:31:30.99	321.64	19.08	-27.2	-28.5	15.1	0.00e+00	0	44	0	1169162240	15	4195
2026-01-02 11:31:32.14	321.80	18.96	-27.2	-28.5	15.2	0.00e+00	0	43	0	1172307968	15	4176
2026-01-02 11:31:33.00	321.92	18.87	-27.3	-28.6	15.1	0.00e+00	0	43	0	1175453696	15	4227
2026-01-02 11:31:34.15	322.08	18.76	-27.6	-29.5	14.6	0.00e+00	0	44	0	1178599424	15	4479
2026-01-02 11:31:35.02	322.19	18.67	-27.7	-29.7	14.5	7.00e-07	0	44	0	1181745152	15	4536
2026-01-02 11:31:36.17	322.35	18.55	-27.7	-29.7	14.4	0.00e+00	0	44	0	1184890880	15	4543
2026-01-02 11:31:37.03	322.46	18.47	-27.8	-30.0	14.3	7.00e-07	0	44	0	1188036608	15	4631
2026-01-02 11:31:38.17	322.62	18.35	-27.7	-29.6	14.5	7.00e-07	0	44	0	1191182336	15	4500
2026-01-02 11:31:39.03	322.73	18.26	-27.1	-28.4	15.2	0.00e+00	0	44	0	1194328064	15	4150
2026-01-02 11:31:40.17	322.88	18.15	-27.3	-28.8	15.0	0.00e+00	0	43	0	1197473792	15	4257
2026-01-02 11:31:41.03	322.99	18.06	-27.6	-29.3	14.6	7.00e-07	0	43	0	1200619520	15	4424
2026-01-02 11:31:42.17	323.14	17.95	-27.1	-28.4	15.1	0.00e+00	0	44	0	1203765248	15	4167
2026-01-02 11:31:43.04	323.25	17.86	-27.1	-28.3	15.2	0.00e+00	0	43	0	1206910976	15	4133
2026-01-02 11:31:44.18	323.40	17.75	-26.9	-27.9	15.4	0.00e+00	0	43	0	1210056704	15	4039
2026-01-02 11:31:45.04	323.51	17.66	-26.9	-27.9	15.4	0.00e+00	0	44	0	1213202432	15	4028
2026-01-02 11:31:46.18	323.65	17.55	-26.9	-27.8	15.5	0.00e+00	0	44	0	1216348160	15	4010
2026-01-02 11:31:47.05	323.76	17.47	-26.9	-27.9	15.5	0.00e+00	0	44	0	1219493888	15	4017
2026-01-02 11:31:48.20	323.90	17.35	-27.0	-28.0	15.4	0.00e+00	0	43	0	1222639616	15	4065
2026-01-02 11:31:49.06	324.01	17.27	-27.0	-28.0	15.3	0.00e+00	0	44	0	1225785344	15	4065
2026-01-02 11:31:50.21	324.15	17.16	-27.0	-28.1	15.3	0.00e+00	0	44	0	1228931072	15	4070
2026-01-02 11:31:51.08	324.26	17.07	-27.1	-28.3	15.2	0.00e+00	0	44	0	1232076800	15	4137
2026-01-02 11:31:52.22	324.40	16.96	-27.2	-28.6	15.0	0.00e+00	0	44	0	1235222528	15	4208
2026-01-02 11:31:53.08	324.50	16.88	-27.2	-28.6	15.0	0.00e+00	0	43	0	1238368256	15	4223
2026-01-02 11:31:54.23	324.64	16.77	-27.2	-28.5	15.0	7.00e-07	0	44	0	1241513984	15	4201
2026-01-02 11:31:55.09	324.74	16.68	-27.4	-29.1	14.7	0.00e+00	0	44	0	1244659712	15	4366
2026-01-02 11:31:56.23	324.88	16.57	-27.6	-29.6	14.4	7.00e-07	0	43	0	1247805440	15	4500
2026-01-02 11:31:57.09	324.98	16.49	-27.9	-30.2	14.1	2.20e-06	0	44	0	1250951168	15	4693
2026-01-02 11:31:58.23	325.11	16.38	-27.7	-29.7	14.4	0.00e+00	0	44	0	1254096896	15	4545
2026-01-02 11:31:59.09	325.21	16.30	-27.5	-29.3	14.6	1.50e-06	0	43	0	1257242624	15	4427
2026-01-02 11:32:00.24	325.35	16.19	-27.3	-28.9	14.8	7.00e-07	0	43	0	1260388352	15	4300
2026-01-02 11:32:01.11	325.45	16.11	-27.7	-29.8	14.3	1.50e-06	0	44	0	1263534080	15	4549
2026-01-02 11:32:02.26	325.58	16.00	-27.4	-29.1	14.7	7.00e-07	0	44	0	1266679808	15	4364
2026-01-02 11:32:03.12	325.68	15.92	-27.4	-29.0	14.7	0.00e+00	0	43	0	1269825536	15	4346
2026-01-02 11:32:04.27	325.81	15.81	-27.5	-29.1	14.7	0.00e+00	0	43	0	1272971264	15	4376
2026-01-02 11:32:05.13	325.90	15.73	-27.6	-29.4	14.6	0.00e+00	0	44	0	1276116992	15	4446
2026-01-02 11:32:06.27	326.03	15.62	-27.8	-30.0	14.2	1.50e-06	0	44	0	1279262720	15	4627
2026-01-02 11:32:07.12	326.12	15.54	-27.8	-30.1	14.1	1.50e-06	0	43	0	1282408448	15	4652
2026-01-02 11:32:08.26	326.25	15.44	-28.0	-30.4	13.9	1.50e-06	0	44	0	1285554176	15	4763
2026-01-02 11:32:09.12	326.34	15.36	-28.3	-30.1	13.7	8.30e-06	0	44	0	1288699904	17	4430
2026-01-02 11:32:10.27	326.47	15.25	-28.0	-29.3	14.2	3.00e-06	0	44	0	1291845632	17	4207
2026-01-02 11:32:11.12	326.56	15.17	-28.0	-29.4	14.1	0.00e+00	0	43	0	1294991360	17	4225
2026-01-02 11:32:12.27	326.69	15.07	-28.1	-29.7	13.9	2.20e-06	0	44	0	1298137088	17	4304
2026-01-02 11:32:13.14	326.78	14.99	-28.3	-30.1	13.7	8.30e-06	0	44	0	1301282816	17	4427
2026-01-02 11:32:14.28	326.90	14.88	-28.2	-29.8	13.8	5.30e-06	0	43	0	1304428544	17	4353
2026-01-02 11:32:15.14	326.99	14.81	-28.2	-29.9	13.8	4.50e-06	0	44	0	1307574272	17	4379
2026-01-02 11:32:16.29	327.11	14.70	-27.9	-29.3	14.2	0.00e+00	0	44	0	1310720000	17	4188
2026-01-02 11:32:17.15	327.20	14.62	-27.8	-29.0	14.3	0.00e+00	0	44	0	1313865728	17	4120
2026-01-02 11:32:18.31	327.32	14.52	-27.8	-29.4	14.4	1.50e-06	0	44	0	1317011456	16	4338
2026-01-02 11:32:19.17	327.41	14.44	-27.9	-29.8	14.1	4.50e-06	0	44	0	1319108608	16	4444
2026-01-02 11:32:20.32	327.53	14.34	-27.8	-29.4	14.3	0.00e+00	0	43	0	1323302912	16	4342
2026-01-02 11:32:21.18	327.62	14.26	-27.9	-29.6	14.2	0.00e+00	0	43	0	1326448640	16	4383
2026-01-02 11:32:22.32	327.73	14.16	-27.9	-29.8	14.1	3.00e-06	0	44	0	1329594368	16	4450
2026-01-02 11:32:23.18	327.82	14.08	-28.0	-29.8	14.1	3.80e-06	0	44	0	1332740096	16	4465
2026-01-02 11:32:24.33	327.94	13.98	-27.9	-29.6	14.2	0.00e+00	0	43	0	1335885824	16	4393
2026-01-02 11:32:25.18	328.02	13.91	-28.0	-29.8	14.0	3.00e-06	0	44	0	1339031552	16	4461
2026-01-02 11:32:26.32	328.14	13.81	-28.3	-30.7	13.6	8.30e-06	0	44	0	1342177280	16	4726
2026-01-02 11:32:27.18	328.22	13.73	-28.1	-30.3	13.8	7.60e-06	0	44	0	1344274432	16	4597
2026-01-02 11:32:28.33	328.33	13.63	-27.9	-29.7	14.1	3.80e-06	0	44	0	1348468736	16	4435
2026-01-02 11:32:29.19	328.42	13.55	-27.9	-29.7	14.1	3.80e-06	0	44	0	1350565888	16	4435
2026-01-02 11:32:30.34	328.53	13.45	-27.9	-29.7	14.1	2.20e-06	0	44	0	1354760192	16	4441
2026-01-02 11:32:31.20	328.61	13.38	-27.8	-29.6	14.2	7.00e-07	0	44	0	1356857344	16	4388
2026-01-02 11:32:32.35	328.72	13.28	-27.9	-29.7	14.1	0.00e+00	0	44	0	1361051648	16	4415
2026-01-02 11:32:33.21	328.80	13.20	-28.0	-29.9	14.0	3.80e-06	0	44	0	1363148800	16	4495
2026-01-02 11:32:34.35	328.91	13.10	-28.0	-29.9	14.0	4.50e-06	0	44	0	1367343104	16	4489
2026-01-02 11:32:35.21	328.99	13.03	-27.9	-29.7	14.1	7.00e-07	0	44	0	1369440256	16	4438
2026-01-02 11:32:36.35	329.10	12.93	-28.1	-30.2	13.8	3.00e-06	0	44	0	1373634560	16	4579
2026-01-02 11:32:37.22	329.18	12.86	-28.0	-29.9	13.9	3.00e-06	0	44	0	1375731712	16	4495
2026-01-02 11:32:38.36	329.29	12.76	-27.9	-29.6	14.1	2.20e-06	0	44	0	1379926016	16	4408
2026-01-02 11:32:39.22	329.37	12.69	-27.9	-29.8	14.0	3.80e-06	0	44	0	1382023168	16	4446
2026-01-02 11:32:40.37	329.47	12.59	-27.8	-29.4	14.2	0.00e+00	0	44	0	1386217472	16	4338
2026-01-02 11:32:41.23	329.55	12.52	-27.8	-29.4	14.2	7.00e-07	0	44	0	1388314624	16	4345
2026-01-02 11:32:42.38	329.66	12.42	-27.8	-29.6	14.1	1.50e-06	0	43	0	1392508928	16	4398
2026-01-02 11:32:43.23	329.73	12.35	-27.7	-29.2	14.3	3.80e-06	0	44	0	1394606080	16	4300
2026-01-02 11:32:44.38	329.84	12.25	-27.8	-29.4	14.2	2.20e-06	0	44	0	1398800384	16	4346
2026-01-02 11:32:45.23	329.91	12.18	-27.9	-29.7	14.0	1.50e-06	0	44	0	1400897536	16	4432
2026-01-02 11:32:46.38	330.01	12.08	-27.8	-29.4	14.2	4.50e-06	0	44	0	1405091840	16	4353
2026-01-02 11:32:47.24	330.09	12.01	-28.0	-29.8	14.0	2.20e-06	0	44	0	1407188992	16	4460
2026-01-02 11:32:48.39	330.19	11.92	-27.8	-29.5	14.1	0.00e+00	0	44	0	1411383296	16	4386
2026-01-02 11:32:49.25	330.27	11.85	-27.8	-29.4	14.2	3.80e-06	0	43	0	1413480448	16	4345
2026-01-02 11:32:50.40	330.37	11.75	-27.7	-29.3	14.2	1.50e-06	0	43	0	1417674752	16	4323
2026-01-02 11:32:51.25	330.44	11.68	-27.8	-29.5	14.1	1.50e-06	0	44	0	1419771904	16	4358
2026-01-02 11:32:52.39	330.54	11.59	-27.8	-29.6	14.0	3.00e-06	0	44	0	1423966208	16	4424
2026-01-02 11:32:53.25	330.61	11.52	-28.0	-29.9	13.9	3.00e-06	0	44	0	1426063360	16	4475
2026-01-02 11:32:54.40	330.71	11.42	-27.9	-29.9	13.9	3.80e-06	0	44	0	1430257664	16	4486
2026-01-02 11:32:55.27	330.78	11.35	-28.0	-30.1	13.8	6.80e-06	0	44	0	1432354816	16	4554
2026-01-02 11:32:56.42	330.88	11.26	-28.0	-30.0	13.8	6.10e-06	0	43	0	1436549120	16	4536
2026-01-02 11:32:57.27	330.95	11.19	-28.0	-30.0	13.8	3.80e-06	0	44	0	1438646272	16	4526
2026-01-02 11:32:58.42	331.05	11.10	-28.2	-30.5	13.5	7.60e-06	0	44	0	1441792000	16	4689
2026-01-02 11:32:59.27	331.12	11.03	-28.0	-30.1	13.7	5.30e-06	0	44	0	1444937728	16	4541
2026-01-02 11:33:00.42	331.21	10.93	-28.2	-30.3	13.5	1.14e-05	0	44	0	1449132032	16	4629
2026-01-02 11:33:01.28	331.28	10.87	-28.1	-30.2	13.6	9.90e-06	0	44	0	1451229184	16	4587
2026-01-02 11:33:02.42	331.38	10.77	-28.1	-30.3	13.5	7.60e-06	0	43	0	1455423488	16	4639
2026-01-02 11:33:03.28	331.45	10.71	-28.1	-30.2	13.6	7.60e-06	0	44	0	1457520640	16	4608
2026-01-02 11:33:04.43	331.54	10.61	-28.2	-30.4	13.4	1.22e-05	0	44	0	1460666368	16	4680
2026-01-02 11:33:05.29	331.61	10.55	-28.3	-30.9	13.1	1.75e-05	0	44	0	1463812096	16	4832
2026-01-02 11:33:06.43	331.70	10.46	-28.3	-30.7	13.2	2.82e-05	0	43	0	1466957824	16	4782
2026-01-02 11:33:07.29	331.77	10.39	-28.3	-30.8	13.2	3.35e-05	0	44	0	1470103552	16	4796
2026-01-02 11:33:08.44	331.86	10.30	-28.2	-30.6	13.2	2.05e-05	0	44	0	1473249280	16	4748
2026-01-02 11:33:09.30	331.93	10.23	-28.1	-30.3	13.5	9.90e-06	0	44	0	1476395008	16	4660
2026-01-02 11:33:10.45	332.02	10.14	-28.1	-30.4	13.4	1.37e-05	0	44	0	1479540736	16	4683
2026-01-02 11:33:11.32	332.09	10.07	-28.2	-30.6	13.3	1.75e-05	0	44	0	1482686464	16	4731
2026-01-02 11:33:12.46	332.18	9.98	-28.2	-30.6	13.3	1.67e-05	0	44	0	1485832192	16	4744
2026-01-02 11:33:13.32	332.24	9.92	-28.2	-30.7	13.2	2.51e-05	0	43	0	1488977920	16	4777
2026-01-02 11:33:14.47	332.33	9.83	-28.1	-30.5	13.3	1.75e-05	0	44	0	1492123648	16	4731
2026-01-02 11:33:15.33	332.40	9.76	-28.1	-30.5	13.3	2.05e-05	0	44	0	1495269376	16	4721
2026-01-02 11:33:16.47	332.48	9.67	-28.1	-30.5	13.3	2.05e-05	0	44	0	1498415104	16	4717
2026-01-02 11:33:17.33	332.55	9.61	-28.2	-30.6	13.2	2.28e-05	0	44	0	1501560832	16	4764
2026-01-02 11:33:18.48	332.63	9.52	-28.1	-30.3	13.4	1.75e-05	0	44	0	1504706560	16	4639
2026-01-02 11:33:19.33	332.70	9.45	-28.1	-30.3	13.4	9.90e-06	0	44	0	1507852288	16	4650
2026-01-02 11:33:20.48	332.78	9.37	-28.1	-30.5	13.2	1.67e-05	0	44	0	1510998016	16	4721
2026-01-02 11:33:21.35	332.85	9.30	-28.1	-30.4	13.3	1.52e-05	0	44	0	1514143744	16	4692
2026-01-02 11:33:22.49	332.93	9.21	-28.2	-30.5	13.2	2.44e-05	0	44	0	1517289472	16	4736
2026-01-02 11:33:23.35	333.00	9.15	-28.1	-30.4	13.3	1.75e-05	0	44	0	1520435200	16	4705
2026-01-02 11:33:24.50	333.08	9.06	-28.3	-30.9	13.0	3.12e-05	0	44	0	1523580928	16	4843
2026-01-02 11:33:25.37	333.14	8.99	-28.4	-31.1	12.9	5.11e-05	0	44	0	1526726656	16	4915
2026-01-02 11:33:26.52	333.23	8.91	-28.4	-31.1	12.8	4.42e-05	0	44	0	1529872384	16	4928
2026-01-02 11:33:27.38	333.29	8.84	-28.5	-31.0	12.6	8.62e-05	0	44	0	1533018112	17	4798
2026-01-02 11:33:28.53	333.37	8.76	-28.3	-30.5	12.9	6.02e-05	0	44	0	1536163840	17	4625
2026-01-02 11:33:29.39	333.43	8.69	-28.3	-30.4	12.9	5.34e-05	0	44	0	1539309568	17	4617
2026-01-02 11:33:30.53	333.51	8.61	-28.4	-30.8	12.7	8.85e-05	0	43	0	1542455296	17	4736
2026-01-02 11:33:31.39	333.58	8.55	-28.4	-30.8	12.6	9.07e-05	0	44	0	1545601024	17	4756
2026-01-02 11:33:32.54	333.66	8.46	-28.5	-31.1	12.4	1.38e-04	0	43	0	1548746752	17	4847
2026-01-02 11:33:33.40	333.72	8.40	-28.4	-30.9	12.6	1.22e-04	0	43	0	1551892480	17	4761
2026-01-02 11:33:34.54	333.80	8.31	-28.3	-30.7	12.7	7.85e-05	0	44	0	1555038208	17	4719
2026-01-02 11:33:35.40	333.86	8.25	-28.4	-30.8	12.6	8.77e-05	0	43	0	1558183936	17	4744
2026-01-02 11:33:36.55	333.94	8.16	-28.5	-31.0	12.5	1.25e-04	0	44	0	1561329664	17	4832
2026-01-02 11:33:37.41	333.99	8.10	-28.5	-31.2	12.3	1.30e-04	0	44	0	1564475392	17	4904
2026-01-02 11:33:38.56	334.07	8.02	-28.6	-31.4	12.2	2.32e-04	0	44	0	1567621120	17	4980
2026-01-02 11:33:39.42	334.13	7.96	-28.6	-31.3	12.2	2.00e-04	0	44	0	1570766848	17	4933
2026-01-02 11:33:40.56	334.21	7.87	-28.6	-31.4	12.2	2.27e-04	0	44	0	1573912576	17	4965
2026-01-02 11:33:41.43	334.27	7.81	-28.6	-31.4	12.1	2.49e-04	0	44	0	1577058304	17	4973
2026-01-02 11:33:42.58	334.34	7.73	-28.7	-31.7	12.0	2.44e-04	0	44	0	1580204032	17	5055
2026-01-02 11:33:43.44	334.40	7.66	-28.8	-31.8	11.9	3.52e-04	0	44	0	1583349760	17	5107
2026-01-02 11:33:44.59	334.48	7.58	-28.8	-31.8	11.9	4.19e-04	0	44	0	1586495488	17	5084
2026-01-02 11:33:45.44	334.54	7.52	-28.9	-32.1	11.7	4.13e-04	0	43	0	1589641216	17	5186
2026-01-02 11:33:46.59	334.61	7.44	-29.1	-32.0	11.5	8.65e-04	0	44	0	1592786944	18	5015
2026-01-02 11:33:47.45	334.67	7.38	-29.1	-31.9	11.6	7.42e-04	0	44	0	1595932672	18	5003
2026-01-02 11:33:48.60	334.74	7.30	-29.2	-32.2	11.3	1.15e-03	0	44	0	1599078400	18	5101
2026-01-02 11:33:49.46	334.80	7.23	-29.1	-32.0	11.5	7.57e-04	0	44	0	1602224128	18	5018
2026-01-02 11:33:50.60	334.87	7.15	-29.3	-32.4	11.3	1.06e-03	0	44	0	1605369856	18	5147
2026-01-02 11:33:51.46	334.93	7.09	-31.2	-36.8	7.3	1.60e-03	0	43	0	1608515584	22	6859
2026-01-02 11:33:52.60	335.00	7.01	-31.4	-40.4	3.8	1.49e+00	0	44	104	1608515584	24	10062
2026-01-02 11:33:53.47	335.06	6.95	-33.3	-45.5	3.8	1.49e+00	0	44	104	1608515584	26	14590
2026-01-02 11:33:54.62	335.13	6.87	-33.3	-45.6	3.8	1.49e+00	0	43	104	1608515584	26	14801

#Closed at: 2026-01-02 11:33:55
#Recorded file [1608 MB]: D:/data/31010_260102_142516.dat