passes_logs/2026/01/02/R2M6_AANII_01/R2M6_AANII_01__20260102_093543_FENGYUN_3D_rec.log

#Pass ID: 20260102_093543_FENGYUN 3D
#Satellite: FENGYUN 3D
#Configuration: FENGYUN 3D
#almurnet v.1.7.20240730
#Start time: 2026-01-02 09:35:44

#Version: 2.2.20231116
#Station: R2M6_AANII_01
#Location: 30.233357 lon 59.946436 lat
#TLE: 1 43010U 17072A   26001.33100487  .00000602  00000+0  30664-3 0  9999
#TLE: 2 43010  98.9910 332.9374 0001848 133.1047 227.0283 14.19692078421319

#Time	Az	El	Level	Level2	SNR	BER	BlckErr	Temp	State	Recorded	gain1	gain2
2026-01-02 09:35:44.30	74.76	7.05	-30.7	-35.3	4.8	8.06e-01	0	41	0	0	22	6067
2026-01-02 09:35:45.30	74.64	7.10	-29.7	-32.8	5.3	7.69e-01	0	41	104	0	20	5151
2026-01-02 09:35:46.31	74.52	7.16	-29.6	-32.5	9.3	1.82e-02	0	41	0	0	20	5033
2026-01-02 09:35:47.31	74.39	7.21	-29.7	-33.0	9.0	1.82e-02	0	41	0	5242880	20	5214
2026-01-02 09:35:48.31	74.27	7.26	-29.7	-32.7	9.2	1.59e-02	0	41	0	10485760	20	5126
2026-01-02 09:35:49.31	74.15	7.31	-29.6	-32.5	9.3	1.54e-02	0	41	0	16777216	20	5042
2026-01-02 09:35:50.31	74.02	7.36	-29.4	-31.8	9.8	1.23e-02	0	41	0	22020096	20	4782
2026-01-02 09:35:51.31	73.90	7.41	-28.9	-31.0	10.8	2.46e-03	0	41	0	28311552	19	4579
2026-01-02 09:35:52.31	73.77	7.46	-28.4	-30.3	11.6	6.66e-04	0	41	0	33554432	18	4480
2026-01-02 09:35:53.31	73.65	7.51	-28.1	-29.9	12.1	2.46e-04	0	41	0	38797312	17	4462
2026-01-02 09:35:54.31	73.52	7.56	-27.8	-29.2	12.6	9.61e-05	0	41	0	45088768	17	4247
2026-01-02 09:35:55.31	73.40	7.62	-27.5	-28.9	13.1	2.05e-05	0	41	0	50331648	16	4265
2026-01-02 09:35:56.31	73.27	7.67	-27.0	-28.4	13.6	9.10e-06	0	41	0	55574528	15	4244
2026-01-02 09:35:57.32	73.14	7.72	-26.9	-28.2	13.7	0.00e+00	0	41	0	61865984	15	4178
2026-01-02 09:35:58.33	73.01	7.77	-26.7	-28.3	14.0	3.40e-06	0	41	0	67108864	14	4309
2026-01-02 09:35:59.33	72.88	7.82	-26.8	-28.5	13.8	3.40e-06	0	41	0	73400320	14	4370
2026-01-02 09:36:00.34	72.75	7.87	-26.9	-28.6	13.8	3.40e-06	0	41	0	78643200	14	4405
2026-01-02 09:36:01.34	72.62	7.92	-27.1	-29.1	13.5	8.00e-06	0	41	0	83886080	14	4559
2026-01-02 09:36:02.34	72.50	7.97	-26.9	-28.8	13.7	2.20e-06	0	41	0	90177536	14	4449
2026-01-02 09:36:03.34	72.37	8.02	-27.1	-29.1	13.5	6.80e-06	0	42	0	95420416	14	4537
2026-01-02 09:36:04.35	72.23	8.08	-26.9	-28.6	13.8	3.40e-06	0	41	0	100663296	14	4400
2026-01-02 09:36:05.36	72.10	8.13	-26.8	-28.6	13.8	3.40e-06	0	42	0	106954752	14	4385
2026-01-02 09:36:06.36	71.97	8.18	-26.8	-28.4	13.9	2.20e-06	0	42	0	112197632	14	4347
2026-01-02 09:36:07.36	71.84	8.23	-26.8	-28.5	13.9	0.00e+00	0	42	0	118489088	14	4370
2026-01-02 09:36:08.37	71.70	8.28	-26.7	-28.3	14.0	0.00e+00	0	42	0	123731968	14	4310
2026-01-02 09:36:09.37	71.57	8.33	-27.0	-28.9	13.7	0.00e+00	0	42	0	128974848	14	4475
2026-01-02 09:36:10.38	71.44	8.38	-27.0	-28.8	13.7	6.80e-06	0	42	0	135266304	14	4447
2026-01-02 09:36:11.38	71.30	8.43	-26.7	-28.3	14.0	1.10e-06	0	42	0	140509184	14	4299
2026-01-02 09:36:12.38	71.17	8.48	-26.7	-28.2	14.1	1.10e-06	0	42	0	146800640	14	4267
2026-01-02 09:36:13.37	71.04	8.53	-26.6	-28.1	14.2	2.20e-06	0	42	0	152043520	14	4237
2026-01-02 09:36:14.38	70.90	8.58	-26.5	-27.7	14.4	0.00e+00	0	42	0	157286400	14	4131
2026-01-02 09:36:15.38	70.76	8.63	-26.5	-27.7	14.4	0.00e+00	0	42	0	163577856	14	4132
2026-01-02 09:36:16.38	70.63	8.68	-26.5	-27.7	14.4	0.00e+00	0	42	0	168820736	14	4134
2026-01-02 09:36:17.39	70.49	8.73	-26.5	-27.8	14.3	0.00e+00	0	42	0	174063616	14	4173
2026-01-02 09:36:18.40	70.35	8.78	-26.6	-28.0	14.2	1.10e-06	0	42	0	180355072	14	4219
2026-01-02 09:36:19.39	70.22	8.83	-26.5	-27.7	14.4	0.00e+00	0	42	0	185597952	14	4129
2026-01-02 09:36:20.39	70.08	8.88	-26.5	-27.8	14.3	0.00e+00	0	42	0	190840832	14	4175
2026-01-02 09:36:21.40	69.94	8.93	-26.6	-27.9	14.3	0.00e+00	0	42	0	197132288	14	4189
2026-01-02 09:36:22.40	69.80	8.98	-26.5	-27.6	14.5	0.00e+00	0	42	0	202375168	14	4109
2026-01-02 09:36:23.40	69.66	9.03	-26.4	-27.6	14.5	0.00e+00	0	42	0	208666624	14	4108
2026-01-02 09:36:24.41	69.52	9.08	-26.4	-27.5	14.6	0.00e+00	0	42	0	213909504	14	4076
2026-01-02 09:36:25.41	69.38	9.13	-26.4	-27.6	14.5	0.00e+00	0	42	0	220200960	14	4101
2026-01-02 09:36:26.42	69.24	9.18	-26.4	-27.4	14.6	0.00e+00	0	42	0	225443840	14	4056
2026-01-02 09:36:27.42	69.10	9.23	-26.4	-27.6	14.5	0.00e+00	0	42	0	230686720	14	4098
2026-01-02 09:36:28.41	68.95	9.28	-26.6	-27.9	14.3	2.20e-06	0	42	0	236978176	14	4179
2026-01-02 09:36:29.41	68.81	9.33	-26.6	-27.9	14.3	0.00e+00	0	42	0	242221056	14	4183
2026-01-02 09:36:30.42	68.67	9.38	-26.5	-27.7	14.5	0.00e+00	0	42	0	247463936	14	4126
2026-01-02 09:36:31.42	68.52	9.43	-26.5	-27.8	14.4	0.00e+00	0	42	0	253755392	14	4153
2026-01-02 09:36:32.42	68.38	9.48	-26.7	-28.1	14.3	0.00e+00	0	42	0	258998272	14	4230
2026-01-02 09:36:33.42	68.24	9.53	-26.6	-28.0	14.3	0.00e+00	0	42	0	264241152	14	4220
2026-01-02 09:36:34.43	68.09	9.58	-26.6	-27.9	14.3	0.00e+00	0	42	0	270532608	14	4191
2026-01-02 09:36:35.43	67.95	9.63	-26.4	-27.4	14.6	0.00e+00	0	42	0	275775488	14	4058
2026-01-02 09:36:36.43	67.80	9.67	-26.3	-27.3	14.7	0.00e+00	0	42	0	282066944	14	4025
2026-01-02 09:36:37.44	67.65	9.72	-26.6	-27.9	14.4	2.20e-06	0	42	0	287309824	14	4176
2026-01-02 09:36:38.44	67.51	9.77	-26.3	-27.3	14.7	0.00e+00	0	42	0	292552704	14	4026
2026-01-02 09:36:39.43	67.36	9.82	-26.6	-27.9	14.4	0.00e+00	0	42	0	298844160	14	4187
2026-01-02 09:36:40.44	67.21	9.87	-26.6	-27.9	14.4	2.20e-06	0	42	0	304087040	14	4184
2026-01-02 09:36:41.44	67.06	9.92	-26.5	-27.8	14.5	0.00e+00	0	42	0	309329920	14	4151
2026-01-02 09:36:42.44	66.91	9.97	-26.4	-27.4	14.7	0.00e+00	0	42	0	315621376	14	4065
2026-01-02 09:36:43.44	66.76	10.01	-26.3	-27.4	14.7	0.00e+00	0	42	0	320864256	14	4050
2026-01-02 09:36:44.45	66.61	10.06	-26.2	-27.4	14.9	0.00e+00	0	42	0	327155712	13	4160
2026-01-02 09:36:45.46	66.46	10.11	-26.0	-27.1	15.0	0.00e+00	0	42	0	332398592	13	4091
2026-01-02 09:36:46.46	66.31	10.16	-26.1	-27.4	14.9	0.00e+00	0	42	0	337641472	13	4155
2026-01-02 09:36:47.47	66.16	10.21	-26.4	-28.0	14.6	0.00e+00	0	42	0	343932928	13	4316
2026-01-02 09:36:48.47	66.01	10.25	-26.4	-27.9	14.7	0.00e+00	0	42	0	349175808	13	4293
2026-01-02 09:36:49.47	65.85	10.30	-26.4	-27.9	14.7	0.00e+00	0	42	0	355467264	13	4303
2026-01-02 09:36:50.48	65.70	10.35	-26.4	-28.0	14.6	0.00e+00	0	42	0	360710144	13	4320
2026-01-02 09:36:51.48	65.55	10.40	-26.4	-27.9	14.7	0.00e+00	0	42	0	365953024	13	4284
2026-01-02 09:36:52.48	65.39	10.44	-26.2	-27.6	14.9	0.00e+00	0	42	0	372244480	13	4204
2026-01-02 09:36:53.48	65.24	10.49	-26.3	-27.8	14.7	0.00e+00	0	42	0	377487360	13	4270
2026-01-02 09:36:54.49	65.08	10.54	-26.5	-28.2	14.5	0.00e+00	0	42	0	382730240	13	4384
2026-01-02 09:36:55.49	64.93	10.59	-26.3	-27.7	14.8	0.00e+00	0	43	0	389021696	13	4233
2026-01-02 09:36:56.50	64.77	10.63	-26.2	-27.5	14.9	0.00e+00	0	43	0	394264576	13	4185
2026-01-02 09:36:57.51	64.61	10.68	-26.0	-27.1	15.1	0.00e+00	0	42	0	400556032	13	4071
2026-01-02 09:36:58.51	64.45	10.73	-25.9	-26.8	15.3	0.00e+00	0	43	0	405798912	13	4015
2026-01-02 09:36:59.51	64.30	10.77	-25.9	-26.8	15.3	1.10e-06	0	42	0	411041792	13	4007
2026-01-02 09:37:00.52	64.14	10.82	-25.8	-26.6	15.4	0.00e+00	0	43	0	417333248	13	3948
2026-01-02 09:37:01.52	63.98	10.87	-25.7	-26.9	15.5	0.00e+00	0	43	0	422576128	12	4122
2026-01-02 09:37:02.53	63.82	10.91	-25.9	-27.3	15.3	0.00e+00	0	43	0	428867584	12	4225
2026-01-02 09:37:03.53	63.66	10.96	-25.9	-27.4	15.2	0.00e+00	0	42	0	434110464	12	4265
2026-01-02 09:37:04.54	63.50	11.01	-25.9	-27.3	15.3	0.00e+00	0	43	0	439353344	12	4239
2026-01-02 09:37:05.55	63.34	11.05	-25.9	-27.3	15.4	0.00e+00	0	43	0	445644800	12	4223
2026-01-02 09:37:06.55	63.18	11.10	-25.9	-27.3	15.4	0.00e+00	0	43	0	450887680	12	4220
2026-01-02 09:37:07.56	63.01	11.14	-25.8	-27.1	15.5	0.00e+00	0	42	0	457179136	12	4167
2026-01-02 09:37:08.55	62.85	11.19	-26.0	-27.5	15.3	0.00e+00	0	43	0	462422016	12	4262
2026-01-02 09:37:09.55	62.69	11.23	-26.0	-27.4	15.4	0.00e+00	0	43	0	467664896	12	4255
2026-01-02 09:37:10.56	62.53	11.28	-25.9	-27.3	15.4	0.00e+00	0	43	0	473956352	12	4230
2026-01-02 09:37:11.56	62.36	11.32	-26.0	-27.4	15.4	0.00e+00	0	43	0	479199232	12	4252
2026-01-02 09:37:12.56	62.20	11.37	-26.0	-27.5	15.3	0.00e+00	0	43	0	484442112	12	4262
2026-01-02 09:37:13.56	62.03	11.41	-25.9	-27.3	15.4	0.00e+00	0	43	0	490733568	12	4231
2026-01-02 09:37:14.56	61.87	11.46	-26.1	-27.7	15.2	0.00e+00	0	43	0	495976448	12	4333
2026-01-02 09:37:15.56	61.70	11.50	-26.0	-27.5	15.3	0.00e+00	0	43	0	502267904	12	4268
2026-01-02 09:37:16.56	61.54	11.55	-25.8	-27.0	15.6	0.00e+00	0	43	0	507510784	12	4130
2026-01-02 09:37:17.56	61.37	11.59	-25.8	-27.0	15.6	0.00e+00	0	43	0	512753664	12	4128
2026-01-02 09:37:18.56	61.20	11.63	-25.7	-26.8	15.7	0.00e+00	0	43	0	519045120	12	4095
2026-01-02 09:37:19.55	61.04	11.68	-25.7	-26.9	15.7	0.00e+00	0	43	0	524288000	12	4101
2026-01-02 09:37:20.56	60.87	11.72	-25.7	-26.8	15.7	0.00e+00	0	43	0	529530880	12	4080
2026-01-02 09:37:21.57	60.70	11.76	-25.5	-26.4	15.9	0.00e+00	0	43	0	535822336	12	3985
2026-01-02 09:37:22.57	60.53	11.81	-25.7	-26.8	15.7	0.00e+00	0	43	0	541065216	12	4094
2026-01-02 09:37:23.58	60.36	11.85	-25.6	-26.6	15.8	0.00e+00	0	43	0	546308096	12	4038
2026-01-02 09:37:24.59	60.19	11.89	-25.7	-26.9	15.7	0.00e+00	0	43	0	552599552	12	4107
2026-01-02 09:37:25.59	60.02	11.94	-25.8	-27.1	15.6	0.00e+00	0	43	0	557842432	12	4155
2026-01-02 09:37:26.59	59.84	11.98	-25.9	-27.2	15.5	0.00e+00	0	43	0	564133888	12	4195
2026-01-02 09:37:27.59	59.67	12.02	-26.0	-27.4	15.4	0.00e+00	0	43	0	569376768	12	4243
2026-01-02 09:37:28.59	59.50	12.06	-25.9	-27.2	15.5	0.00e+00	0	43	0	574619648	12	4181
2026-01-02 09:37:29.59	59.33	12.10	-25.9	-27.3	15.5	0.00e+00	0	43	0	580911104	12	4222
2026-01-02 09:37:30.59	59.16	12.15	-25.9	-27.3	15.5	0.00e+00	0	43	0	586153984	12	4211
2026-01-02 09:37:31.60	58.98	12.19	-26.0	-27.6	15.3	0.00e+00	0	43	0	592445440	12	4290
2026-01-02 09:37:32.59	58.81	12.23	-26.0	-27.4	15.4	0.00e+00	0	43	0	597688320	12	4238
2026-01-02 09:37:33.61	58.63	12.27	-26.0	-27.4	15.4	0.00e+00	0	43	0	602931200	12	4251
2026-01-02 09:37:34.61	58.46	12.31	-26.0	-27.4	15.4	0.00e+00	0	43	0	609222656	12	4243
2026-01-02 09:37:35.62	58.28	12.35	-25.8	-27.0	15.6	0.00e+00	0	43	0	614465536	12	4139
2026-01-02 09:37:36.62	58.10	12.39	-25.8	-26.9	15.7	0.00e+00	0	43	0	619708416	12	4117
2026-01-02 09:37:37.62	57.93	12.43	-25.8	-27.1	15.6	0.00e+00	0	43	0	625999872	12	4154
2026-01-02 09:37:38.62	57.75	12.47	-25.7	-26.8	15.7	0.00e+00	0	43	0	631242752	12	4100
2026-01-02 09:37:39.63	57.57	12.51	-25.5	-26.4	16.0	0.00e+00	0	43	0	637534208	12	3991
2026-01-02 09:37:40.63	57.39	12.55	-25.4	-26.3	16.1	0.00e+00	0	43	0	642777088	12	3948
2026-01-02 09:37:41.64	57.21	12.59	-25.5	-26.4	16.0	0.00e+00	0	43	0	648019968	12	3986
2026-01-02 09:37:42.65	57.03	12.63	-25.5	-26.4	16.0	0.00e+00	0	43	0	654311424	12	3989
2026-01-02 09:37:43.65	56.85	12.67	-25.5	-26.3	16.0	0.00e+00	0	43	0	659554304	12	3965
2026-01-02 09:37:44.65	56.67	12.71	-25.5	-26.5	16.0	0.00e+00	0	43	0	665845760	12	4004
2026-01-02 09:37:45.65	56.49	12.75	-25.5	-26.3	16.0	0.00e+00	0	43	0	671088640	12	3960
2026-01-02 09:37:46.65	56.31	12.79	-25.4	-26.1	16.2	0.00e+00	0	43	0	676331520	12	3910
2026-01-02 09:37:47.65	56.13	12.83	-25.3	-26.4	16.3	0.00e+00	0	43	0	682622976	11	4086
2026-01-02 09:37:48.65	55.95	12.87	-25.1	-26.0	16.5	0.00e+00	0	43	0	687865856	11	3988
2026-01-02 09:37:49.66	55.76	12.90	-25.0	-25.8	16.6	0.00e+00	0	43	0	693108736	11	3946
2026-01-02 09:37:50.66	55.58	12.94	-25.3	-26.3	16.4	0.00e+00	0	43	0	699400192	11	4074
2026-01-02 09:37:51.67	55.40	12.98	-25.3	-26.5	16.3	0.00e+00	0	43	0	704643072	11	4112
2026-01-02 09:37:52.67	55.21	13.02	-25.5	-26.9	16.1	0.00e+00	0	43	0	710934528	11	4221
2026-01-02 09:37:53.68	55.03	13.05	-25.6	-27.2	15.9	0.00e+00	0	43	0	716177408	11	4288
2026-01-02 09:37:54.68	54.84	13.09	-25.8	-27.4	15.8	0.00e+00	0	43	0	721420288	11	4366
2026-01-02 09:37:55.68	54.66	13.13	-25.7	-27.4	15.8	0.00e+00	0	43	0	727711744	11	4348
2026-01-02 09:37:56.69	54.47	13.16	-25.6	-27.0	16.1	0.00e+00	0	43	0	732954624	11	4240
2026-01-02 09:37:57.69	54.28	13.20	-25.4	-26.7	16.2	0.00e+00	0	43	0	738197504	11	4167
2026-01-02 09:37:58.69	54.10	13.23	-25.5	-26.8	16.2	0.00e+00	0	43	0	744488960	11	4187
2026-01-02 09:37:59.69	53.91	13.27	-25.3	-26.4	16.4	0.00e+00	0	43	0	749731840	11	4086
2026-01-02 09:38:00.69	53.72	13.31	-25.2	-26.1	16.5	0.00e+00	0	43	0	754974720	11	4016
2026-01-02 09:38:01.70	53.53	13.34	-25.3	-26.5	16.3	0.00e+00	0	43	0	761266176	11	4104
2026-01-02 09:38:02.69	53.35	13.37	-25.4	-26.7	16.2	0.00e+00	0	43	0	766509056	11	4166
2026-01-02 09:38:03.70	53.16	13.41	-25.5	-26.9	16.1	0.00e+00	0	43	0	772800512	11	4213
2026-01-02 09:38:04.69	52.97	13.44	-25.5	-26.9	16.1	0.00e+00	0	43	0	778043392	11	4226
2026-01-02 09:38:05.70	52.78	13.48	-25.5	-26.9	16.1	0.00e+00	0	43	0	784334848	11	4228
2026-01-02 09:38:06.70	52.59	13.51	-25.4	-26.5	16.3	0.00e+00	0	43	0	789577728	11	4117
2026-01-02 09:38:07.70	52.40	13.54	-25.2	-26.3	16.5	0.00e+00	0	43	0	794820608	11	4045
2026-01-02 09:38:08.71	52.21	13.58	-25.3	-26.4	16.4	0.00e+00	0	43	0	801112064	11	4076
2026-01-02 09:38:09.71	52.01	13.61	-25.3	-26.4	16.4	0.00e+00	0	43	0	806354944	11	4082
2026-01-02 09:38:10.71	51.82	13.64	-25.3	-26.3	16.5	0.00e+00	0	43	0	811597824	11	4070
2026-01-02 09:38:11.72	51.63	13.68	-25.3	-26.5	16.4	0.00e+00	0	43	0	817889280	11	4105
2026-01-02 09:38:12.72	51.44	13.71	-25.4	-26.6	16.3	0.00e+00	0	43	0	823132160	11	4126
2026-01-02 09:38:13.73	51.24	13.74	-25.4	-26.6	16.3	0.00e+00	0	43	0	828375040	11	4133
2026-01-02 09:38:14.73	51.05	13.77	-25.3	-26.3	16.5	0.00e+00	0	43	0	834666496	11	4063
2026-01-02 09:38:15.74	50.85	13.80	-25.3	-26.4	16.4	0.00e+00	0	43	0	839909376	11	4091
2026-01-02 09:38:16.75	50.66	13.83	-25.2	-26.2	16.5	0.00e+00	0	43	0	846200832	11	4047
2026-01-02 09:38:17.75	50.46	13.86	-25.2	-26.1	16.6	0.00e+00	0	43	0	851443712	11	4007
2026-01-02 09:38:18.75	50.27	13.89	-25.2	-26.3	16.5	0.00e+00	0	43	0	857735168	11	4051
2026-01-02 09:38:19.76	50.07	13.92	-25.1	-26.1	16.6	0.00e+00	0	43	0	862978048	11	3996
2026-01-02 09:38:20.76	49.87	13.95	-25.2	-26.2	16.6	0.00e+00	0	43	0	868220928	11	4026
2026-01-02 09:38:21.76	49.68	13.98	-25.1	-26.0	16.6	0.00e+00	0	43	0	874512384	11	3995
2026-01-02 09:38:22.76	49.48	14.01	-25.1	-26.0	16.7	0.00e+00	0	43	0	879755264	11	3991
2026-01-02 09:38:23.76	49.28	14.04	-25.3	-26.4	16.4	0.00e+00	0	43	0	884998144	11	4076
2026-01-02 09:38:24.76	49.09	14.07	-25.2	-26.1	16.6	0.00e+00	0	43	0	891289600	11	4017
2026-01-02 09:38:25.77	48.89	14.10	-25.0	-25.8	16.7	0.00e+00	0	43	0	896532480	11	3941
2026-01-02 09:38:26.77	48.69	14.13	-25.0	-25.7	16.8	0.00e+00	0	43	0	901775360	11	3895
2026-01-02 09:38:27.77	48.49	14.15	-25.1	-25.9	16.7	0.00e+00	0	43	0	908066816	11	3959
2026-01-02 09:38:28.78	48.29	14.18	-25.0	-25.7	16.8	0.00e+00	0	43	0	913309696	11	3902
2026-01-02 09:38:29.78	48.09	14.21	-24.9	-25.5	16.9	0.00e+00	0	43	0	919601152	11	3855
2026-01-02 09:38:30.78	47.89	14.24	-25.0	-25.8	16.8	0.00e+00	0	43	0	924844032	11	3945
2026-01-02 09:38:31.78	47.69	14.26	-25.1	-26.0	16.7	0.00e+00	0	43	0	930086912	11	3982
2026-01-02 09:38:32.78	47.49	14.29	-25.3	-26.4	16.5	0.00e+00	0	43	0	936378368	11	4077
2026-01-02 09:38:33.79	47.29	14.31	-25.3	-26.4	16.5	0.00e+00	0	43	0	941621248	11	4086
2026-01-02 09:38:34.79	47.09	14.34	-25.2	-26.2	16.5	0.00e+00	0	43	0	946864128	11	4046
2026-01-02 09:38:35.79	46.88	14.36	-25.1	-26.0	16.7	0.00e+00	0	43	0	953155584	11	3975
2026-01-02 09:38:36.80	46.68	14.39	-25.0	-25.7	16.8	0.00e+00	0	43	0	958398464	11	3905
2026-01-02 09:38:37.80	46.48	14.41	-25.0	-25.8	16.8	0.00e+00	0	43	0	964689920	11	3938
2026-01-02 09:38:38.80	46.28	14.44	-25.2	-26.1	16.6	0.00e+00	0	43	0	969932800	11	4014
2026-01-02 09:38:39.80	46.07	14.46	-25.0	-25.8	16.8	0.00e+00	0	43	0	976224256	11	3938
2026-01-02 09:38:40.80	45.87	14.48	-24.9	-25.4	16.9	0.00e+00	0	43	0	981467136	11	3849
2026-01-02 09:38:41.81	45.67	14.51	-24.9	-25.5	16.9	0.00e+00	0	43	0	986710016	11	3857
2026-01-02 09:38:42.81	45.46	14.53	-24.9	-25.5	16.9	0.00e+00	0	43	0	993001472	11	3858
2026-01-02 09:38:43.82	45.26	14.55	-24.9	-25.5	16.9	0.00e+00	0	43	0	998244352	11	3874
2026-01-02 09:38:44.82	45.05	14.57	-25.1	-25.9	16.7	0.00e+00	0	43	0	1003487232	11	3965
2026-01-02 09:38:45.82	44.85	14.60	-25.0	-25.8	16.7	0.00e+00	0	43	0	1009778688	11	3936
2026-01-02 09:38:46.82	44.64	14.62	-24.9	-25.5	16.9	0.00e+00	0	43	0	1015021568	11	3856
2026-01-02 09:38:47.82	44.44	14.64	-25.0	-25.8	16.8	0.00e+00	0	43	0	1020264448	11	3932
2026-01-02 09:38:48.83	44.23	14.66	-25.1	-25.8	16.7	0.00e+00	0	43	0	1026555904	11	3946
2026-01-02 09:38:49.84	44.02	14.68	-25.2	-26.2	16.5	0.00e+00	0	43	0	1031798784	11	4032
2026-01-02 09:38:50.84	43.82	14.70	-25.2	-26.1	16.6	0.00e+00	0	43	0	1038090240	11	4002
2026-01-02 09:38:51.84	43.61	14.72	-25.1	-25.9	16.7	0.00e+00	0	43	0	1043333120	11	3948
2026-01-02 09:38:52.83	43.41	14.74	-25.0	-25.8	16.8	0.00e+00	0	43	0	1048576000	11	3935
2026-01-02 09:38:53.84	43.20	14.76	-25.1	-25.9	16.7	0.00e+00	0	43	0	1054867456	11	3967
2026-01-02 09:38:54.84	42.99	14.77	-24.8	-25.4	17.0	0.00e+00	0	43	0	1060110336	11	3834
2026-01-02 09:38:55.84	42.78	14.79	-24.8	-25.7	17.1	0.00e+00	0	43	0	1065353216	10	4018
2026-01-02 09:38:56.84	42.58	14.81	-24.7	-25.6	17.2	0.00e+00	0	43	0	1071644672	10	3985
2026-01-02 09:38:57.85	42.37	14.83	-24.8	-25.7	17.1	0.00e+00	0	43	0	1076887552	10	4014
2026-01-02 09:38:58.85	42.16	14.84	-24.8	-25.9	17.0	0.00e+00	0	43	0	1083179008	10	4058
2026-01-02 09:38:59.85	41.95	14.86	-24.8	-25.9	17.0	0.00e+00	0	43	0	1088421888	10	4067
2026-01-02 09:39:00.86	41.74	14.88	-24.8	-25.8	17.0	0.00e+00	0	43	0	1093664768	10	4038
2026-01-02 09:39:01.87	41.53	14.89	-24.7	-25.6	17.1	0.00e+00	0	43	0	1099956224	10	3987
2026-01-02 09:39:02.87	41.32	14.91	-24.7	-25.5	17.2	0.00e+00	0	43	0	1105199104	10	3965
2026-01-02 09:39:03.87	41.11	14.92	-24.8	-25.7	17.1	0.00e+00	0	43	0	1111490560	10	4022
2026-01-02 09:39:04.88	40.90	14.94	-24.8	-25.8	17.0	0.00e+00	0	43	0	1116733440	10	4051
2026-01-02 09:39:05.89	40.69	14.95	-24.9	-26.1	16.9	0.00e+00	0	43	0	1121976320	10	4114
2026-01-02 09:39:06.89	40.48	14.97	-25.0	-26.3	16.8	0.00e+00	0	43	0	1128267776	10	4169
2026-01-02 09:39:07.89	40.27	14.98	-25.1	-26.5	16.7	0.00e+00	0	43	0	1133510656	10	4215
2026-01-02 09:39:08.89	40.06	14.99	-25.0	-26.2	16.8	0.00e+00	0	43	0	1138753536	10	4152
2026-01-02 09:39:09.89	39.85	15.01	-24.9	-26.0	16.9	0.00e+00	0	43	0	1145044992	10	4096
2026-01-02 09:39:10.89	39.64	15.02	-24.9	-26.1	16.8	0.00e+00	0	43	0	1150287872	10	4117
2026-01-02 09:39:11.89	39.42	15.03	-24.7	-25.7	17.1	0.00e+00	0	43	0	1155530752	10	4001
2026-01-02 09:39:12.89	39.21	15.04	-24.7	-25.6	17.1	0.00e+00	0	43	0	1161822208	10	3977
2026-01-02 09:39:13.89	39.00	15.05	-24.8	-25.8	17.1	0.00e+00	0	43	0	1167065088	10	4028
2026-01-02 09:39:14.89	38.79	15.07	-25.1	-26.4	16.7	0.00e+00	0	43	0	1173356544	10	4206
2026-01-02 09:39:15.90	38.58	15.08	-25.0	-26.2	16.8	0.00e+00	0	43	0	1178599424	10	4133
2026-01-02 09:39:16.91	38.36	15.09	-25.0	-26.2	16.8	0.00e+00	0	43	0	1184890880	10	4143
2026-01-02 09:39:17.91	38.15	15.10	-24.9	-25.9	17.0	0.00e+00	0	43	0	1190133760	10	4074
2026-01-02 09:39:18.91	37.94	15.11	-24.9	-25.9	17.0	0.00e+00	0	43	0	1195376640	10	4067
2026-01-02 09:39:19.91	37.73	15.11	-25.0	-26.3	16.8	0.00e+00	0	43	0	1201668096	10	4163
2026-01-02 09:39:20.92	37.52	15.12	-24.9	-26.1	16.9	0.00e+00	0	43	0	1206910976	10	4115
2026-01-02 09:39:21.92	37.30	15.13	-25.3	-26.9	16.4	0.00e+00	0	43	0	1212153856	10	4337
2026-01-02 09:39:22.93	37.09	15.14	-25.2	-26.8	16.5	0.00e+00	0	44	0	1218445312	10	4292
2026-01-02 09:39:23.93	36.88	15.15	-25.5	-26.9	16.2	0.00e+00	0	43	0	1223688192	11	4225
2026-01-02 09:39:24.93	36.66	15.15	-25.4	-26.5	16.4	0.00e+00	0	43	0	1228931072	11	4121
2026-01-02 09:39:25.94	36.45	15.16	-25.1	-26.0	16.7	0.00e+00	0	43	0	1235222528	11	3974
2026-01-02 09:39:26.94	36.24	15.17	-24.9	-25.6	16.9	0.00e+00	0	43	0	1240465408	11	3876
2026-01-02 09:39:27.94	36.02	15.17	-24.9	-25.4	16.9	0.00e+00	0	43	0	1246756864	11	3847
2026-01-02 09:39:28.95	35.81	15.18	-24.9	-25.5	16.9	0.00e+00	0	43	0	1251999744	11	3861
2026-01-02 09:39:29.95	35.60	15.18	-24.8	-25.4	17.0	0.00e+00	0	43	0	1258291200	11	3831
2026-01-02 09:39:30.96	35.38	15.19	-24.7	-25.6	17.2	0.00e+00	0	43	0	1263534080	10	3986
2026-01-02 09:39:31.95	35.17	15.19	-24.9	-25.9	17.0	0.00e+00	0	43	0	1268776960	10	4066
2026-01-02 09:39:32.96	34.96	15.19	-24.8	-25.9	17.0	0.00e+00	0	43	0	1275068416	10	4060
2026-01-02 09:39:33.97	34.74	15.20	-24.9	-26.1	16.9	0.00e+00	0	44	0	1280311296	10	4110
2026-01-02 09:39:34.97	34.53	15.20	-24.9	-26.1	16.9	0.00e+00	0	43	0	1285554176	10	4103
2026-01-02 09:39:35.97	34.31	15.20	-25.0	-26.1	16.9	0.00e+00	0	43	0	1291845632	10	4119
2026-01-02 09:39:36.98	34.10	15.21	-25.0	-26.1	16.9	0.00e+00	0	43	0	1297088512	10	4129
2026-01-02 09:39:37.99	33.88	15.21	-25.0	-26.1	16.8	0.00e+00	0	43	0	1302331392	10	4122
2026-01-02 09:39:38.99	33.67	15.21	-24.9	-26.0	16.9	1.10e-06	0	43	0	1308622848	10	4100
2026-01-02 09:39:39.99	33.46	15.21	-25.0	-26.1	16.8	0.00e+00	0	43	0	1313865728	10	4128
2026-01-02 09:39:40.99	33.24	15.21	-24.7	-25.6	17.1	0.00e+00	0	43	0	1320157184	10	3987
2026-01-02 09:39:41.98	33.03	15.21	-24.6	-25.4	17.2	0.00e+00	0	43	0	1325400064	10	3936
2026-01-02 09:39:42.99	32.82	15.21	-24.6	-25.4	17.3	0.00e+00	0	43	0	1330642944	10	3933
2026-01-02 09:39:43.99	32.60	15.21	-24.8	-25.8	17.0	0.00e+00	0	43	0	1336934400	10	4049
2026-01-02 09:39:45.00	32.39	15.21	-24.8	-25.8	17.0	0.00e+00	0	43	0	1342177280	10	4049
2026-01-02 09:39:46.00	32.17	15.21	-24.8	-25.8	17.1	0.00e+00	0	43	0	1348468736	10	4037
2026-01-02 09:39:47.00	31.96	15.21	-24.9	-25.9	17.0	0.00e+00	0	43	0	1353711616	10	4068
2026-01-02 09:39:48.00	31.75	15.20	-24.8	-25.7	17.1	0.00e+00	0	43	0	1358954496	10	4018
2026-01-02 09:39:49.01	31.53	15.20	-24.8	-25.7	17.1	0.00e+00	0	43	0	1365245952	10	4021
2026-01-02 09:39:50.02	31.32	15.20	-24.9	-25.9	17.0	0.00e+00	0	43	0	1370488832	10	4073
2026-01-02 09:39:51.02	31.11	15.20	-25.2	-26.7	16.6	0.00e+00	0	43	0	1375731712	10	4275
2026-01-02 09:39:52.03	30.89	15.19	-24.9	-26.0	16.9	0.00e+00	0	43	0	1382023168	10	4094
2026-01-02 09:39:53.04	30.67	15.19	-24.7	-25.5	17.2	0.00e+00	0	43	0	1387266048	10	3978
2026-01-02 09:39:54.05	30.46	15.18	-24.7	-25.5	17.2	0.00e+00	0	43	0	1393557504	10	3959
2026-01-02 09:39:55.06	30.24	15.18	-24.7	-25.5	17.2	0.00e+00	0	43	0	1398800384	10	3965
2026-01-02 09:39:56.06	30.03	15.17	-24.7	-25.6	17.1	0.00e+00	0	43	0	1405091840	10	3992
2026-01-02 09:39:57.06	29.82	15.17	-24.8	-25.9	17.0	0.00e+00	0	43	0	1410334720	10	4057
2026-01-02 09:39:58.06	29.61	15.16	-24.9	-26.1	16.9	0.00e+00	0	43	0	1415577600	10	4111
2026-01-02 09:39:59.06	29.39	15.15	-25.0	-26.3	16.8	0.00e+00	0	43	0	1421869056	10	4163
2026-01-02 09:40:00.06	29.18	15.15	-24.9	-26.1	16.9	0.00e+00	0	43	0	1427111936	10	4111
2026-01-02 09:40:01.06	28.97	15.14	-25.0	-26.3	16.8	0.00e+00	0	43	0	1432354816	10	4164
2026-01-02 09:40:02.07	28.76	15.13	-24.8	-25.8	17.0	0.00e+00	0	43	0	1438646272	10	4050
2026-01-02 09:40:03.07	28.54	15.12	-24.8	-25.7	17.0	0.00e+00	0	43	0	1443889152	10	4026
2026-01-02 09:40:04.07	28.33	15.11	-25.0	-26.1	16.9	0.00e+00	0	43	0	1449132032	10	4115
2026-01-02 09:40:05.07	28.12	15.11	-24.9	-26.0	16.9	0.00e+00	0	43	0	1455423488	10	4087
2026-01-02 09:40:06.08	27.91	15.10	-24.8	-25.8	17.0	0.00e+00	0	43	0	1460666368	10	4042
2026-01-02 09:40:07.08	27.69	15.09	-24.8	-25.8	17.0	0.00e+00	0	43	0	1466957824	10	4045
2026-01-02 09:40:08.08	27.48	15.08	-24.9	-26.1	16.9	0.00e+00	0	43	0	1472200704	10	4105
2026-01-02 09:40:09.08	27.27	15.07	-24.8	-25.7	17.1	0.00e+00	0	44	0	1477443584	10	4029
2026-01-02 09:40:10.09	27.06	15.06	-24.8	-25.9	17.0	0.00e+00	0	43	0	1483735040	10	4055
2026-01-02 09:40:11.09	26.85	15.04	-24.9	-26.0	17.0	0.00e+00	0	43	0	1488977920	10	4097
2026-01-02 09:40:12.09	26.64	15.03	-25.0	-26.2	16.8	0.00e+00	0	43	0	1494220800	10	4152
2026-01-02 09:40:13.09	26.43	15.02	-24.7	-25.6	17.2	0.00e+00	0	43	0	1500512256	10	3978
2026-01-02 09:40:14.09	26.22	15.01	-24.5	-25.1	17.4	0.00e+00	0	43	0	1505755136	10	3870
2026-01-02 09:40:15.09	26.01	14.99	-24.6	-25.4	17.2	0.00e+00	0	43	0	1510998016	10	3952
2026-01-02 09:40:16.09	25.80	14.98	-24.8	-25.8	17.0	0.00e+00	0	43	0	1517289472	10	4041
2026-01-02 09:40:17.09	25.59	14.97	-24.6	-25.5	17.2	0.00e+00	0	43	0	1522532352	10	3957
2026-01-02 09:40:18.09	25.38	14.95	-24.7	-25.5	17.1	0.00e+00	0	43	0	1528823808	10	3970
2026-01-02 09:40:19.10	25.17	14.94	-25.0	-26.3	16.8	0.00e+00	0	44	0	1534066688	10	4179
2026-01-02 09:40:20.09	24.96	14.93	-24.7	-25.6	17.1	0.00e+00	0	43	0	1539309568	10	3994
2026-01-02 09:40:21.10	24.75	14.91	-24.6	-25.4	17.2	0.00e+00	0	43	0	1545601024	10	3942
2026-01-02 09:40:22.10	24.54	14.89	-24.7	-25.5	17.2	0.00e+00	0	43	0	1550843904	10	3973
2026-01-02 09:40:23.10	24.33	14.88	-24.9	-26.0	16.9	0.00e+00	0	43	0	1557135360	10	4083
2026-01-02 09:40:24.11	24.12	14.86	-25.2	-26.8	16.5	0.00e+00	0	43	0	1562378240	10	4294
2026-01-02 09:40:25.11	23.91	14.85	-25.2	-26.7	16.5	0.00e+00	0	43	0	1567621120	10	4281
2026-01-02 09:40:26.12	23.70	14.83	-25.4	-27.1	16.3	0.00e+00	0	43	0	1573912576	10	4390
2026-01-02 09:40:27.13	23.49	14.81	-25.2	-26.8	16.5	0.00e+00	0	43	0	1579155456	10	4292
2026-01-02 09:40:28.13	23.28	14.79	-25.1	-26.6	16.6	0.00e+00	0	43	0	1584398336	10	4231
2026-01-02 09:40:29.14	23.08	14.78	-25.0	-26.3	16.7	0.00e+00	0	43	0	1590689792	10	4170
2026-01-02 09:40:30.14	22.87	14.76	-25.0	-26.1	16.8	0.00e+00	0	43	0	1595932672	10	4126
2026-01-02 09:40:31.15	22.66	14.74	-25.1	-26.5	16.6	0.00e+00	0	43	0	1602224128	10	4218
2026-01-02 09:40:32.15	22.45	14.72	-25.3	-26.9	16.4	0.00e+00	0	43	0	1607467008	10	4324
2026-01-02 09:40:33.15	22.25	14.70	-25.3	-26.9	16.4	0.00e+00	0	43	0	1613758464	10	4313
2026-01-02 09:40:34.15	22.04	14.68	-25.4	-26.6	16.3	0.00e+00	0	43	0	1619001344	11	4144
2026-01-02 09:40:35.15	21.84	14.66	-25.1	-25.9	16.7	0.00e+00	0	43	0	1624244224	11	3954
2026-01-02 09:40:36.15	21.63	14.64	-24.8	-25.4	16.9	0.00e+00	0	43	0	1630535680	11	3838
2026-01-02 09:40:37.16	21.42	14.62	-24.6	-25.5	17.2	0.00e+00	0	44	0	1635778560	10	3957
2026-01-02 09:40:38.16	21.22	14.60	-24.7	-25.7	17.0	0.00e+00	0	43	0	1641021440	10	4009
2026-01-02 09:40:39.17	21.01	14.58	-24.8	-25.9	17.0	0.00e+00	0	43	0	1647312896	10	4059
2026-01-02 09:40:40.16	20.81	14.55	-24.9	-26.1	16.8	0.00e+00	0	43	0	1652555776	10	4123
2026-01-02 09:40:41.17	20.61	14.53	-25.0	-26.3	16.7	0.00e+00	0	43	0	1657798656	10	4159
2026-01-02 09:40:42.18	20.40	14.51	-24.9	-26.0	16.8	0.00e+00	0	43	0	1664090112	10	4091
2026-01-02 09:40:43.18	20.20	14.49	-24.8	-25.9	16.9	0.00e+00	0	43	0	1669332992	10	4057
2026-01-02 09:40:44.18	19.99	14.46	-24.8	-25.8	16.9	0.00e+00	0	43	0	1675624448	10	4044
2026-01-02 09:40:45.18	19.79	14.44	-24.8	-25.9	16.9	0.00e+00	0	43	0	1680867328	10	4067
2026-01-02 09:40:46.19	19.59	14.41	-24.9	-25.9	16.9	0.00e+00	0	44	0	1686110208	10	4070
2026-01-02 09:40:47.19	19.39	14.39	-25.1	-26.4	16.6	0.00e+00	0	43	0	1692401664	10	4203
2026-01-02 09:40:48.19	19.18	14.37	-25.1	-26.5	16.6	0.00e+00	0	43	0	1697644544	10	4211
2026-01-02 09:40:49.19	18.98	14.34	-25.0	-26.3	16.6	0.00e+00	0	43	0	1702887424	10	4175
2026-01-02 09:40:50.19	18.78	14.32	-25.1	-26.5	16.6	0.00e+00	0	43	0	1709178880	10	4213
2026-01-02 09:40:51.19	18.58	14.29	-25.1	-26.4	16.7	0.00e+00	0	43	0	1714421760	10	4189
2026-01-02 09:40:52.19	18.38	14.26	-25.0	-26.3	16.7	0.00e+00	0	44	0	1719664640	10	4171
2026-01-02 09:40:53.19	18.18	14.24	-25.3	-26.9	16.4	0.00e+00	0	43	0	1725956096	10	4332
2026-01-02 09:40:54.20	17.98	14.21	-25.6	-27.0	16.0	0.00e+00	0	43	0	1731198976	11	4233
2026-01-02 09:40:55.20	17.78	14.18	-25.5	-26.8	16.2	0.00e+00	0	43	0	1737490432	11	4195
2026-01-02 09:40:56.21	17.58	14.16	-25.5	-26.8	16.1	0.00e+00	0	43	0	1742733312	11	4201
2026-01-02 09:40:57.21	17.38	14.13	-25.5	-26.8	16.1	0.00e+00	0	44	0	1749024768	11	4199
2026-01-02 09:40:58.21	17.19	14.10	-25.2	-26.1	16.5	0.00e+00	0	43	0	1754267648	11	4009
2026-01-02 09:40:59.21	16.99	14.07	-25.1	-25.9	16.7	0.00e+00	0	43	0	1759510528	11	3958
2026-01-02 09:41:00.21	16.79	14.04	-25.0	-25.7	16.7	0.00e+00	0	43	0	1765801984	11	3919
2026-01-02 09:41:01.22	16.59	14.02	-25.2	-26.2	16.5	0.00e+00	0	43	0	1771044864	11	4036
2026-01-02 09:41:02.23	16.39	13.99	-25.2	-26.2	16.5	0.00e+00	0	43	0	1776287744	11	4024
2026-01-02 09:41:03.23	16.20	13.96	-25.2	-26.1	16.5	0.00e+00	0	43	0	1782579200	11	4020
2026-01-02 09:41:04.23	16.00	13.93	-25.3	-26.3	16.4	0.00e+00	0	43	0	1787822080	11	4061
2026-01-02 09:41:05.24	15.81	13.90	-25.2	-26.2	16.4	0.00e+00	0	43	0	1793064960	11	4037
2026-01-02 09:41:06.24	15.61	13.87	-25.1	-25.9	16.7	1.10e-06	0	44	0	1799356416	11	3947
2026-01-02 09:41:07.25	15.42	13.84	-25.1	-25.9	16.7	0.00e+00	0	44	0	1804599296	11	3964
2026-01-02 09:41:08.24	15.22	13.81	-25.2	-26.2	16.5	0.00e+00	0	44	0	1810890752	11	4020
2026-01-02 09:41:09.24	15.03	13.77	-25.1	-26.0	16.6	0.00e+00	0	43	0	1816133632	11	3993
2026-01-02 09:41:10.24	14.84	13.74	-25.3	-26.3	16.4	0.00e+00	0	43	0	1821376512	11	4063
2026-01-02 09:41:11.24	14.64	13.71	-25.4	-26.5	16.3	0.00e+00	0	43	0	1827667968	11	4113
2026-01-02 09:41:12.25	14.45	13.68	-25.1	-26.0	16.5	0.00e+00	0	43	0	1832910848	11	3995
2026-01-02 09:41:13.26	14.26	13.65	-25.2	-26.1	16.5	0.00e+00	0	43	0	1839202304	11	4017
2026-01-02 09:41:14.25	14.07	13.61	-25.2	-26.3	16.4	0.00e+00	0	43	0	1844445184	11	4045
2026-01-02 09:41:15.26	13.87	13.58	-25.3	-26.3	16.4	0.00e+00	0	43	0	1849688064	11	4059
2026-01-02 09:41:16.26	13.68	13.55	-25.3	-26.4	16.4	0.00e+00	0	43	0	1855979520	11	4088
2026-01-02 09:41:17.27	13.49	13.52	-25.3	-26.5	16.3	0.00e+00	0	43	0	1861222400	11	4099
2026-01-02 09:41:18.27	13.30	13.48	-25.4	-26.5	16.3	0.00e+00	0	43	0	1866465280	11	4108
2026-01-02 09:41:19.26	13.12	13.45	-25.3	-26.5	16.3	0.00e+00	0	43	0	1872756736	11	4114
2026-01-02 09:41:20.27	12.92	13.41	-25.4	-26.6	16.2	0.00e+00	0	43	0	1877999616	11	4139
2026-01-02 09:41:21.27	12.74	13.38	-25.4	-26.5	16.2	0.00e+00	0	43	0	1884291072	11	4115
2026-01-02 09:41:22.27	12.55	13.34	-25.4	-26.6	16.2	0.00e+00	0	43	0	1889533952	11	4136
2026-01-02 09:41:23.28	12.36	13.31	-25.4	-26.5	16.3	0.00e+00	0	43	0	1894776832	11	4114
2026-01-02 09:41:24.28	12.17	13.27	-25.4	-26.6	16.2	0.00e+00	0	43	0	1901068288	11	4146
2026-01-02 09:41:25.28	11.99	13.24	-25.4	-26.7	16.2	0.00e+00	0	43	0	1906311168	11	4150
2026-01-02 09:41:26.28	11.80	13.20	-25.2	-26.3	16.4	0.00e+00	0	43	0	1911554048	11	4053
2026-01-02 09:41:27.28	11.61	13.17	-25.2	-26.3	16.4	0.00e+00	0	43	0	1917845504	11	4050
2026-01-02 09:41:28.28	11.43	13.13	-25.2	-26.1	16.4	0.00e+00	0	43	0	1923088384	11	4008
2026-01-02 09:41:29.29	11.24	13.09	-25.2	-26.3	16.4	0.00e+00	0	43	0	1929379840	11	4049
2026-01-02 09:41:30.29	11.06	13.06	-25.2	-26.3	16.4	0.00e+00	0	43	0	1934622720	11	4062
2026-01-02 09:41:31.30	10.87	13.02	-25.2	-26.3	16.4	0.00e+00	0	44	0	1940914176	11	4059
2026-01-02 09:41:32.31	10.69	12.98	-25.3	-26.3	16.4	0.00e+00	0	43	0	1946157056	11	4067
2026-01-02 09:41:33.32	10.50	12.95	-25.4	-26.6	16.2	0.00e+00	0	43	0	1951399936	11	4124
2026-01-02 09:41:34.32	10.32	12.91	-25.3	-26.4	16.4	0.00e+00	0	43	0	1957691392	11	4086
2026-01-02 09:41:35.32	10.14	12.87	-25.3	-26.4	16.3	0.00e+00	0	43	0	1962934272	11	4092
2026-01-02 09:41:36.33	9.96	12.83	-25.3	-26.5	16.2	0.00e+00	0	43	0	1968177152	11	4099
2026-01-02 09:41:37.34	9.77	12.79	-25.3	-26.5	16.3	0.00e+00	0	43	0	1974468608	11	4114
2026-01-02 09:41:38.34	9.59	12.76	-25.5	-26.7	16.1	0.00e+00	0	44	0	1979711488	11	4176
2026-01-02 09:41:39.35	9.41	12.72	-25.4	-26.6	16.2	0.00e+00	0	43	0	1984954368	11	4137
2026-01-02 09:41:40.35	9.23	12.68	-25.4	-26.6	16.2	0.00e+00	0	43	0	1991245824	11	4129
2026-01-02 09:41:41.35	9.05	12.64	-25.2	-26.3	16.3	0.00e+00	0	44	0	1996488704	11	4065
2026-01-02 09:41:42.35	8.87	12.60	-25.2	-26.1	16.4	0.00e+00	0	43	0	2002780160	11	4017
2026-01-02 09:41:43.35	8.70	12.56	-25.5	-26.8	16.1	0.00e+00	0	44	0	2008023040	11	4178
2026-01-02 09:41:44.35	8.52	12.52	-25.4	-26.6	16.2	0.00e+00	0	43	0	2013265920	11	4146
2026-01-02 09:41:45.35	8.34	12.48	-25.4	-26.7	16.1	0.00e+00	0	43	0	2019557376	11	4164
2026-01-02 09:41:46.35	8.17	12.44	-25.3	-26.5	16.2	0.00e+00	0	43	0	2024800256	11	4108
2026-01-02 09:41:47.36	7.99	12.40	-25.3	-26.3	16.3	0.00e+00	0	43	0	2031091712	11	4068
2026-01-02 09:41:48.37	7.81	12.36	-25.4	-26.6	16.2	0.00e+00	0	43	0	2036334592	11	4134
2026-01-02 09:41:49.37	7.64	12.32	-25.5	-26.9	16.0	0.00e+00	0	44	0	2041577472	11	4207
2026-01-02 09:41:50.37	7.46	12.28	-25.4	-26.6	16.2	0.00e+00	0	44	0	2047868928	11	4147
2026-01-02 09:41:51.38	7.29	12.24	-25.6	-27.0	16.0	0.00e+00	0	43	0	2053111808	11	4230
2026-01-02 09:41:52.38	7.11	12.19	-25.8	-27.5	15.7	0.00e+00	0	43	0	2058354688	11	4380
2026-01-02 09:41:53.39	6.94	12.15	-25.8	-27.5	15.7	0.00e+00	0	43	0	2064646144	11	4373
2026-01-02 09:41:54.38	6.77	12.11	-25.9	-27.7	15.6	0.00e+00	0	43	0	2069889024	11	4455
2026-01-02 09:41:55.39	6.59	12.07	-25.8	-27.6	15.6	0.00e+00	0	43	0	2076180480	11	4417
2026-01-02 09:41:56.40	6.42	12.03	-25.8	-27.6	15.6	0.00e+00	0	43	0	2081423360	11	4419
2026-01-02 09:41:57.40	6.25	11.98	-25.6	-27.2	15.9	0.00e+00	0	43	0	2087714816	11	4292
2026-01-02 09:41:58.40	6.08	11.94	-25.6	-27.1	15.9	0.00e+00	0	43	0	2092957696	11	4261
2026-01-02 09:41:59.40	5.91	11.90	-25.5	-26.9	16.0	0.00e+00	0	44	0	2098200576	11	4213
2026-01-02 09:42:00.40	5.74	11.86	-25.6	-27.0	15.9	0.00e+00	0	43	0	2104492032	11	4243
2026-01-02 09:42:01.41	5.57	11.81	-25.6	-27.1	15.8	0.00e+00	0	43	0	2109734912	11	4283
2026-01-02 09:42:02.41	5.40	11.77	-25.7	-27.3	15.8	0.00e+00	0	43	0	2114977792	11	4336
2026-01-02 09:42:03.42	5.23	11.73	-25.8	-27.6	15.5	0.00e+00	0	43	0	2121269248	11	4402
2026-01-02 09:42:04.42	5.06	11.68	-25.9	-27.8	15.4	1.10e-06	0	43	0	2126512128	11	4480
2026-01-02 09:42:05.43	4.89	11.64	-25.8	-27.5	15.6	0.00e+00	0	43	0	2131755008	11	4387
2026-01-02 09:42:06.43	4.73	11.60	-25.8	-27.5	15.6	0.00e+00	0	43	0	2138046464	11	4382
2026-01-02 09:42:07.44	4.56	11.55	-25.8	-27.6	15.6	0.00e+00	0	43	0	2143289344	11	4420
2026-01-02 09:42:08.44	4.39	11.51	-25.8	-27.6	15.5	0.00e+00	0	43	0	2149580800	11	4426
2026-01-02 09:42:09.44	4.23	11.46	-25.9	-27.2	15.4	0.00e+00	0	43	0	2154823680	12	4202
2026-01-02 09:42:10.45	4.06	11.42	-25.8	-27.1	15.5	0.00e+00	0	43	0	2161115136	12	4165
2026-01-02 09:42:11.46	3.90	11.37	-25.8	-27.0	15.5	0.00e+00	0	43	0	2166358016	12	4148
2026-01-02 09:42:12.45	3.74	11.33	-25.8	-27.1	15.5	0.00e+00	0	43	0	2171600896	12	4175
2026-01-02 09:42:13.45	3.57	11.28	-25.8	-27.0	15.5	0.00e+00	0	43	0	2177892352	12	4132
2026-01-02 09:42:14.45	3.41	11.24	-25.9	-27.2	15.4	0.00e+00	0	43	0	2183135232	12	4191
2026-01-02 09:42:15.44	3.25	11.19	-25.9	-27.2	15.4	0.00e+00	0	43	0	2188378112	12	4196
2026-01-02 09:42:16.44	3.09	11.15	-25.9	-27.3	15.4	0.00e+00	0	43	0	2193620992	12	4213
2026-01-02 09:42:17.45	2.93	11.10	-26.0	-27.5	15.2	0.00e+00	0	43	0	2199912448	12	4273
2026-01-02 09:42:18.45	2.77	11.06	-26.0	-27.5	15.3	0.00e+00	0	44	0	2205155328	12	4263
2026-01-02 09:42:19.45	2.61	11.01	-26.0	-27.5	15.3	0.00e+00	0	43	0	2211446784	12	4268
2026-01-02 09:42:20.45	2.45	10.97	-26.0	-27.4	15.3	0.00e+00	0	44	0	2216689664	12	4252
2026-01-02 09:42:21.46	2.29	10.92	-25.9	-27.4	15.3	0.00e+00	0	43	0	2222981120	12	4238
2026-01-02 09:42:22.46	2.13	10.87	-25.7	-26.8	15.6	0.00e+00	0	44	0	2228224000	12	4090
2026-01-02 09:42:23.47	1.97	10.83	-25.7	-26.7	15.7	0.00e+00	0	43	0	2233466880	12	4070
2026-01-02 09:42:24.47	1.81	10.78	-25.7	-26.8	15.6	0.00e+00	0	43	0	2239758336	12	4091
2026-01-02 09:42:25.47	1.65	10.74	-25.6	-26.6	15.7	0.00e+00	0	44	0	2245001216	12	4032
2026-01-02 09:42:26.47	1.50	10.69	-25.7	-26.8	15.6	0.00e+00	0	43	0	2250244096	12	4094
2026-01-02 09:42:27.48	1.34	10.64	-25.8	-27.0	15.5	0.00e+00	0	43	0	2256535552	12	4143
2026-01-02 09:42:28.48	1.19	10.60	-25.8	-27.1	15.5	0.00e+00	0	44	0	2261778432	12	4173
2026-01-02 09:42:29.47	1.03	10.55	-25.9	-27.2	15.4	0.00e+00	0	44	0	2267021312	12	4210
2026-01-02 09:42:30.48	0.88	10.50	-25.8	-27.1	15.4	0.00e+00	0	43	0	2273312768	12	4182
2026-01-02 09:42:31.48	0.72	10.45	-25.8	-27.0	15.5	1.10e-06	0	44	0	2278555648	12	4131
2026-01-02 09:42:32.48	0.57	10.41	-25.7	-26.8	15.6	0.00e+00	0	43	0	2284847104	12	4079
2026-01-02 09:42:33.49	0.41	10.36	-25.7	-26.9	15.5	0.00e+00	0	43	0	2290089984	12	4118
2026-01-02 09:42:34.50	0.26	10.31	-25.7	-26.9	15.5	0.00e+00	0	43	0	2296381440	12	4100
2026-01-02 09:42:35.50	0.11	10.26	-25.9	-27.2	15.4	0.00e+00	0	43	0	2301624320	12	4182
2026-01-02 09:42:36.50	359.96	10.22	-25.9	-27.2	15.3	0.00e+00	0	43	0	2306867200	12	4207
2026-01-02 09:42:37.50	359.81	10.17	-26.0	-27.5	15.2	0.00e+00	0	43	0	2313158656	12	4269
2026-01-02 09:42:38.51	359.66	10.12	-26.1	-27.8	15.0	0.00e+00	0	43	0	2318401536	12	4352
2026-01-02 09:42:39.52	359.50	10.07	-26.2	-27.9	14.9	0.00e+00	0	43	0	2323644416	12	4387
2026-01-02 09:42:40.52	359.36	10.02	-26.4	-28.4	14.7	1.10e-06	0	43	0	2329935872	12	4518
2026-01-02 09:42:41.53	359.21	9.98	-26.4	-28.3	14.7	0.00e+00	0	44	0	2335178752	12	4502
2026-01-02 09:42:42.53	359.06	9.93	-26.3	-28.3	14.7	0.00e+00	0	43	0	2340421632	12	4499
2026-01-02 09:42:43.53	358.91	9.88	-26.3	-28.2	14.8	0.00e+00	0	44	0	2346713088	12	4464
2026-01-02 09:42:44.54	358.76	9.83	-26.3	-28.3	14.7	0.00e+00	0	44	0	2351955968	12	4497
2026-01-02 09:42:45.54	358.61	9.78	-26.3	-28.2	14.7	0.00e+00	0	43	0	2358247424	12	4489
2026-01-02 09:42:46.54	358.47	9.73	-26.3	-28.3	14.7	0.00e+00	0	44	0	2363490304	12	4504
2026-01-02 09:42:47.55	358.32	9.68	-26.4	-28.3	14.7	0.00e+00	0	43	0	2368733184	12	4515
2026-01-02 09:42:48.55	358.18	9.64	-26.4	-28.3	14.7	0.00e+00	0	44	0	2375024640	12	4514
2026-01-02 09:42:49.55	358.03	9.59	-26.3	-28.2	14.7	0.00e+00	0	43	0	2380267520	12	4484
2026-01-02 09:42:50.55	357.89	9.54	-26.4	-28.4	14.6	1.10e-06	0	44	0	2386558976	12	4534
2026-01-02 09:42:51.55	357.74	9.49	-26.5	-28.7	14.5	0.00e+00	0	44	0	2391801856	12	4615
2026-01-02 09:42:52.55	357.60	9.44	-26.6	-28.3	14.4	3.40e-06	0	43	0	2397044736	13	4394
2026-01-02 09:42:53.55	357.46	9.39	-26.6	-28.3	14.3	0.00e+00	0	43	0	2403336192	13	4392
2026-01-02 09:42:54.56	357.31	9.34	-26.4	-27.9	14.6	0.00e+00	0	44	0	2408579072	13	4285
2026-01-02 09:42:55.56	357.17	9.29	-26.3	-27.8	14.7	0.00e+00	0	44	0	2413821952	13	4250
2026-01-02 09:42:56.57	357.03	9.24	-26.4	-28.0	14.5	0.00e+00	0	44	0	2420113408	13	4315
2026-01-02 09:42:57.57	356.89	9.19	-26.4	-28.0	14.6	0.00e+00	0	43	0	2425356288	13	4312
2026-01-02 09:42:58.58	356.75	9.14	-26.3	-27.7	14.7	0.00e+00	0	43	0	2431647744	13	4214
2026-01-02 09:42:59.58	356.61	9.09	-26.2	-27.6	14.8	0.00e+00	0	43	0	2436890624	13	4193
2026-01-02 09:43:00.59	356.47	9.04	-26.3	-27.7	14.7	0.00e+00	0	43	0	2442133504	13	4217
2026-01-02 09:43:01.59	356.33	8.99	-26.3	-27.7	14.7	0.00e+00	0	44	0	2448424960	13	4235
2026-01-02 09:43:02.59	356.19	8.94	-26.3	-27.8	14.7	0.00e+00	0	44	0	2453667840	13	4238
2026-01-02 09:43:03.59	356.05	8.89	-26.5	-28.2	14.4	0.00e+00	0	43	0	2458910720	13	4358
2026-01-02 09:43:04.58	355.91	8.84	-26.5	-28.2	14.4	0.00e+00	0	44	0	2465202176	13	4366
2026-01-02 09:43:05.58	355.78	8.79	-26.4	-27.9	14.6	0.00e+00	0	43	0	2470445056	13	4276
2026-01-02 09:43:06.59	355.64	8.74	-26.4	-27.8	14.6	0.00e+00	0	44	0	2475687936	13	4260
2026-01-02 09:43:07.60	355.50	8.69	-26.5	-28.1	14.5	1.10e-06	0	44	0	2481979392	13	4335
2026-01-02 09:43:08.59	355.37	8.64	-26.4	-28.0	14.5	1.10e-06	0	43	0	2487222272	13	4312
2026-01-02 09:43:09.60	355.23	8.59	-26.6	-28.4	14.3	1.10e-06	0	43	0	2493513728	13	4417
2026-01-02 09:43:10.61	355.10	8.54	-26.6	-28.4	14.3	1.10e-06	0	44	0	2498756608	13	4416
2026-01-02 09:43:11.62	354.96	8.49	-26.5	-28.3	14.4	1.10e-06	0	43	0	2505048064	13	4392
2026-01-02 09:43:12.62	354.83	8.44	-26.5	-28.2	14.3	1.10e-06	0	44	0	2510290944	13	4380
2026-01-02 09:43:13.62	354.69	8.39	-26.5	-28.3	14.3	0.00e+00	0	43	0	2515533824	13	4395
2026-01-02 09:43:14.63	354.56	8.34	-26.5	-28.2	14.4	0.00e+00	0	43	0	2521825280	13	4356
2026-01-02 09:43:15.64	354.43	8.29	-26.5	-28.2	14.3	0.00e+00	0	44	0	2527068160	13	4353
2026-01-02 09:43:16.64	354.30	8.24	-26.6	-28.3	14.2	0.00e+00	0	44	0	2532311040	13	4408
2026-01-02 09:43:17.64	354.16	8.19	-26.5	-28.2	14.3	0.00e+00	0	44	0	2538602496	13	4376
2026-01-02 09:43:18.64	354.03	8.14	-26.6	-28.3	14.3	1.10e-06	0	43	0	2543845376	13	4411
2026-01-02 09:43:19.64	353.90	8.09	-26.6	-28.4	14.2	3.40e-06	0	44	0	2549088256	13	4426
2026-01-02 09:43:20.64	353.77	8.04	-26.6	-28.4	14.2	0.00e+00	0	43	0	2555379712	13	4434
2026-01-02 09:43:21.65	353.64	7.99	-26.7	-28.7	14.0	1.10e-06	0	44	0	2560622592	13	4515
2026-01-02 09:43:22.65	353.51	7.94	-26.6	-28.4	14.2	0.00e+00	0	44	0	2566914048	13	4415
2026-01-02 09:43:23.65	353.39	7.88	-26.5	-28.3	14.2	0.00e+00	0	43	0	2572156928	13	4392
2026-01-02 09:43:24.65	353.26	7.83	-26.8	-28.9	13.9	1.10e-06	0	44	0	2578448384	13	4565
2026-01-02 09:43:25.64	353.13	7.78	-26.9	-29.1	13.8	3.40e-06	0	44	0	2583691264	13	4627
2026-01-02 09:43:26.65	353.00	7.73	-26.8	-28.9	13.8	2.20e-06	0	43	0	2588934144	13	4574
2026-01-02 09:43:27.65	352.88	7.68	-26.8	-29.0	13.8	4.50e-06	0	44	0	2595225600	13	4600
2026-01-02 09:43:28.65	352.75	7.63	-26.7	-28.6	14.1	1.10e-06	0	44	0	2600468480	13	4480
2026-01-02 09:43:29.65	352.62	7.58	-26.6	-28.3	14.2	2.20e-06	0	44	0	2605711360	13	4405
2026-01-02 09:43:30.66	352.50	7.53	-26.6	-28.5	14.1	0.00e+00	0	44	0	2612002816	13	4459
2026-01-02 09:43:31.66	352.37	7.48	-26.7	-28.7	14.0	3.40e-06	0	43	0	2617245696	13	4507
2026-01-02 09:43:32.67	352.25	7.43	-26.6	-28.3	14.2	1.10e-06	0	44	0	2622488576	13	4397
2026-01-02 09:43:33.67	352.12	7.37	-26.6	-28.4	14.1	0.00e+00	0	44	0	2628780032	13	4433
2026-01-02 09:43:34.66	352.00	7.32	-26.6	-28.4	14.1	3.40e-06	0	44	0	2634022912	13	4441
2026-01-02 09:43:35.67	351.88	7.27	-26.5	-28.3	14.2	1.10e-06	0	44	0	2640314368	13	4401
2026-01-02 09:43:36.67	351.75	7.22	-26.8	-28.8	13.9	1.10e-06	0	44	0	2645557248	13	4552
2026-01-02 09:43:37.67	351.63	7.17	-26.7	-28.7	14.0	1.10e-06	0	44	0	2650800128	13	4528
2026-01-02 09:43:38.67	351.51	7.12	-26.8	-28.9	13.8	5.70e-06	0	44	0	2657091584	13	4584
2026-01-02 09:43:39.67	351.39	7.07	-32.6	-43.7	3.8	7.96e-01	0	44	104	2660237312	25	12867
2026-01-02 09:43:40.67	351.27	7.02	-32.9	-44.3	3.8	8.47e-01	0	44	104	2660237312	25	13427
2026-01-02 09:43:41.67	351.15	6.97	-33.1	-44.3	3.8	8.44e-01	0	44	104	2660237312	26	13059

#Closed at: 2026-01-02 09:43:42
#Recorded file [2660 MB]: D:/data/31010_260102_123546.dat