passes_logs/2026/01/02/R2M6_AANII_01/R2M6_AANII_01__20260102_044718_FENGYUN_3E_rec.log

#Pass ID: 20260102_044718_FENGYUN 3E
#Satellite: FENGYUN 3E
#Configuration: FENGYUN 3E
#almurnet v.1.7.20240730
#Start time: 2026-01-02 04:49:57

#Version: 2.2.20231116
#Station: R2M6_AANII_01
#Location: 30.233357 lon 59.946436 lat
#TLE: 1 49008U 21062A   26001.26445318  .00000475  00000+0  24453-3 0  9990
#TLE: 2 49008  98.7480   6.5551 0001357 167.8415 192.2795 14.19884467232890

#Time	Az	El	Level	Level2	SNR	BER	BlckErr	Temp	State	Recorded	gain1	gain2
2026-01-02 04:49:57.69	15.27	23.85	-33.0	-44.1	3.8	8.44e-01	0	43	0	0	26	12900
2026-01-02 04:49:58.67	15.24	24.00	-33.6	-43.5	3.8	8.47e-01	0	44	104	0	26	11268
2026-01-02 04:49:59.67	15.22	24.15	-33.6	-43.1	3.8	8.46e-01	0	43	104	0	27	10684
2026-01-02 04:50:00.66	15.19	24.30	-33.0	-42.3	3.8	8.46e-01	0	44	104	0	27	10614
2026-01-02 04:50:01.66	15.17	24.46	-33.6	-43.1	3.8	8.46e-01	0	44	104	0	27	10701
2026-01-02 04:50:02.66	15.14	24.61	-33.6	-43.1	3.8	8.46e-01	0	43	104	0	27	10736
2026-01-02 04:50:03.65	15.11	24.77	-33.7	-43.1	3.8	8.46e-01	0	44	104	0	27	10724
2026-01-02 04:50:04.66	15.09	24.93	-33.6	-43.1	3.8	8.47e-01	0	43	104	0	27	10731
2026-01-02 04:50:05.64	15.06	25.08	-33.7	-43.2	3.8	8.47e-01	0	43	104	0	27	10783
2026-01-02 04:50:06.63	15.03	25.24	-33.7	-43.2	3.8	8.47e-01	0	44	104	0	27	10772
2026-01-02 04:50:07.63	15.01	25.40	-33.7	-43.2	3.8	8.46e-01	0	43	104	0	27	10754
2026-01-02 04:50:08.63	14.98	25.56	-33.6	-43.1	3.8	8.45e-01	0	44	104	0	27	10728
2026-01-02 04:50:09.63	14.95	25.72	-33.6	-43.4	3.8	8.45e-01	0	43	104	0	26	11163
2026-01-02 04:50:10.62	14.92	25.88	-34.1	-43.9	3.8	8.46e-01	0	43	104	0	27	11080
2026-01-02 04:50:11.62	14.89	26.04	-33.6	-43.0	3.8	8.46e-01	0	44	104	0	27	10623
2026-01-02 04:50:12.62	14.86	26.21	-33.6	-43.1	3.8	8.45e-01	0	44	104	0	27	10714
2026-01-02 04:50:13.61	14.83	26.37	-33.6	-43.1	3.8	8.45e-01	0	44	104	0	27	10724
2026-01-02 04:50:14.61	14.80	26.54	-33.6	-43.1	3.8	8.46e-01	0	44	104	0	27	10722
2026-01-02 04:50:15.60	14.77	26.71	-33.7	-43.1	3.8	8.48e-01	0	43	104	0	27	10719
2026-01-02 04:50:16.59	14.74	26.87	-33.7	-43.2	3.8	8.45e-01	0	44	104	0	27	10786
2026-01-02 04:50:17.58	14.71	27.04	-33.7	-43.2	3.8	8.47e-01	0	44	104	0	27	10763
2026-01-02 04:50:18.58	14.68	27.21	-33.7	-43.2	3.8	8.46e-01	0	43	104	0	27	10776
2026-01-02 04:50:19.58	14.65	27.38	-33.7	-43.2	3.8	8.47e-01	0	44	104	0	27	10782
2026-01-02 04:50:20.58	14.62	27.56	-33.6	-43.2	3.8	8.45e-01	0	44	104	0	27	10773
2026-01-02 04:50:21.58	14.58	27.73	-33.6	-43.0	3.8	8.46e-01	0	44	104	0	27	10680
2026-01-02 04:50:22.58	14.55	27.91	-33.6	-43.1	3.8	8.46e-01	0	44	104	0	27	10718
2026-01-02 04:50:23.59	14.52	28.08	-33.6	-43.0	3.8	8.45e-01	0	44	104	0	27	10658
2026-01-02 04:50:24.59	14.48	28.26	-33.6	-43.0	3.8	8.46e-01	0	44	104	0	27	10650
2026-01-02 04:50:25.58	14.45	28.44	-33.5	-43.4	3.8	8.45e-01	0	44	104	0	26	11177
2026-01-02 04:50:26.59	14.41	28.62	-33.5	-43.1	3.8	8.45e-01	0	44	104	0	26	10962
2026-01-02 04:50:27.58	14.38	28.80	-33.1	-40.8	3.8	8.47e-01	0	44	104	0	26	8759
2026-01-02 04:50:28.58	14.34	28.98	-33.2	-41.3	3.8	8.45e-01	0	44	104	0	26	9178
2026-01-02 04:50:29.58	14.31	29.16	-33.3	-41.8	3.8	8.45e-01	0	44	104	0	26	9613
2026-01-02 04:50:30.58	14.27	29.35	-33.3	-42.2	3.8	8.46e-01	0	44	104	0	26	10072
2026-01-02 04:50:31.57	14.23	29.53	-33.3	-42.6	3.8	8.45e-01	0	43	104	0	26	10457
2026-01-02 04:50:32.57	14.20	29.72	-33.4	-42.9	3.8	8.47e-01	0	44	104	0	26	10740
2026-01-02 04:50:33.57	14.16	29.91	-33.4	-43.0	3.8	8.46e-01	0	44	104	0	26	10900
2026-01-02 04:50:34.57	14.12	30.10	-33.4	-43.0	3.8	8.47e-01	0	44	104	0	26	10932
2026-01-02 04:50:35.57	14.08	30.29	-33.4	-43.1	3.8	8.45e-01	0	44	104	0	26	10980
2026-01-02 04:50:36.57	14.04	30.48	-33.4	-43.1	3.8	8.46e-01	0	44	104	0	26	10955
2026-01-02 04:50:37.57	14.00	30.67	-33.4	-42.9	3.8	8.46e-01	0	44	104	0	26	10713
2026-01-02 04:50:38.58	13.96	30.87	-33.3	-41.8	3.8	8.47e-01	0	44	104	0	26	9635
2026-01-02 04:50:39.58	13.92	31.06	-32.9	-40.3	3.9	8.44e-01	0	44	104	0	25	8413
2026-01-02 04:50:40.57	13.88	31.26	-32.5	-38.5	4.1	8.37e-01	0	44	104	0	24	7216
2026-01-02 04:50:41.57	13.84	31.46	-32.2	-36.9	5.3	7.55e-01	0	44	104	0	24	6222
2026-01-02 04:50:42.56	13.79	31.65	-31.8	-36.0	6.0	5.58e-01	0	44	0	2097152	23	5854
2026-01-02 04:50:43.55	13.75	31.85	-30.9	-33.7	7.7	1.17e-01	0	44	0	8388608	22	4958
2026-01-02 04:50:44.54	13.71	32.05	-29.5	-30.8	10.3	1.22e-02	0	44	0	15728640	20	4168
2026-01-02 04:50:45.53	13.66	32.26	-27.6	-28.2	13.1	2.93e-04	0	44	0	23068672	16	3858
2026-01-02 04:50:46.53	13.62	32.46	-26.0	-26.6	14.9	6.98e-04	0	44	0	30408704	12	3864
2026-01-02 04:50:47.53	13.57	32.67	-24.8	-25.0	16.4	0.00e+00	0	44	0	37748736	10	3696
2026-01-02 04:50:48.52	13.53	32.87	-24.6	-25.1	16.6	6.72e-04	0	44	0	45088768	9	3818
2026-01-02 04:50:49.53	13.48	33.08	-24.8	-25.4	16.4	4.62e-04	0	44	0	51380224	9	3893
2026-01-02 04:50:50.52	13.43	33.29	-25.6	-26.7	15.5	0.00e+00	0	44	0	58720256	10	4095
2026-01-02 04:50:51.52	13.38	33.50	-26.3	-27.3	14.6	6.09e-04	0	44	0	66060288	12	4037
2026-01-02 04:50:52.52	13.33	33.72	-27.3	-28.5	13.3	7.47e-04	0	44	0	73400320	14	4143
2026-01-02 04:50:53.52	13.28	33.93	-26.8	-27.5	13.9	5.70e-06	0	44	0	80740352	14	3888
2026-01-02 04:50:54.52	13.23	34.15	-26.5	-27.3	14.3	3.29e-04	0	44	0	88080384	13	3924
2026-01-02 04:50:55.51	13.18	34.37	-26.3	-27.3	14.5	1.10e-06	0	44	0	95420416	12	4045
2026-01-02 04:50:56.51	13.13	34.59	-25.7	-26.1	15.3	0.00e+00	0	44	0	102760448	12	3734
2026-01-02 04:50:57.51	13.08	34.81	-25.1	-25.1	16.1	4.50e-06	0	44	0	109051904	11	3623
2026-01-02 04:50:58.51	13.03	35.03	-24.5	-24.4	16.8	0.00e+00	0	44	0	116391936	10	3550
2026-01-02 04:50:59.51	12.97	35.25	-24.0	-23.9	17.3	0.00e+00	0	44	0	123731968	9	3538
2026-01-02 04:51:00.50	12.92	35.48	-24.1	-24.5	17.2	2.69e-04	0	44	0	131072000	8	3775
2026-01-02 04:51:01.50	12.86	35.70	-23.8	-23.9	17.5	2.99e-04	0	44	0	138412032	8	3642
2026-01-02 04:51:02.49	12.80	35.93	-23.9	-24.1	17.4	0.00e+00	0	44	0	145752064	8	3694
2026-01-02 04:51:03.49	12.75	36.16	-23.4	-23.1	17.9	3.11e-04	0	44	0	153092096	8	3477
2026-01-02 04:51:04.49	12.69	36.39	-23.0	-23.1	18.4	2.71e-04	0	44	0	160432128	6	3673
2026-01-02 04:51:05.48	12.63	36.62	-22.7	-22.7	18.6	0.00e+00	0	44	0	166723584	6	3578
2026-01-02 04:51:06.47	12.57	36.86	-22.7	-22.6	18.7	2.62e-04	0	44	0	174063616	6	3550
2026-01-02 04:51:07.46	12.51	37.09	-22.6	-23.0	18.7	2.76e-04	0	44	0	181403648	5	3736
2026-01-02 04:51:08.46	12.45	37.33	-22.5	-22.7	18.8	0.00e+00	0	44	0	188743680	5	3681
2026-01-02 04:51:09.46	12.39	37.57	-22.5	-22.6	18.9	4.52e-04	0	44	0	196083712	5	3664
2026-01-02 04:51:10.46	12.32	37.81	-22.6	-22.9	18.8	5.13e-04	0	44	0	203423744	5	3713
2026-01-02 04:51:11.46	12.26	38.06	-22.3	-22.3	19.1	0.00e+00	0	44	0	209715200	5	3589
2026-01-02 04:51:12.46	12.19	38.30	-22.4	-22.4	19.0	3.41e-04	0	44	0	217055232	5	3625
2026-01-02 04:51:13.46	12.12	38.55	-22.4	-22.4	19.0	0.00e+00	0	44	0	224395264	5	3614
2026-01-02 04:51:14.44	12.06	38.79	-22.4	-22.4	19.0	0.00e+00	0	44	0	231735296	5	3618
2026-01-02 04:51:15.44	11.99	39.05	-22.6	-22.8	18.8	3.71e-04	0	44	0	239075328	5	3711
2026-01-02 04:51:16.44	11.92	39.30	-22.6	-22.8	18.8	2.67e-04	0	44	0	246415360	5	3709
2026-01-02 04:51:17.43	11.85	39.55	-22.5	-22.8	18.8	0.00e+00	0	44	0	252706816	5	3696
2026-01-02 04:51:18.42	11.77	39.80	-22.9	-23.5	18.4	1.68e-04	0	44	0	260046848	5	3864
2026-01-02 04:51:19.42	11.70	40.06	-22.9	-23.6	18.4	7.78e-05	0	44	0	267386880	5	3878
2026-01-02 04:51:20.42	11.62	40.32	-23.0	-23.7	18.4	0.00e+00	0	44	0	274726912	5	3902
2026-01-02 04:51:21.42	11.55	40.58	-22.9	-23.4	18.5	0.00e+00	0	44	0	282066944	5	3847
2026-01-02 04:51:22.42	11.47	40.85	-23.1	-23.8	18.3	0.00e+00	0	44	0	289406976	5	3938
2026-01-02 04:51:23.41	11.39	41.11	-23.3	-23.8	18.1	0.00e+00	0	44	0	296747008	6	3830
2026-01-02 04:51:24.41	11.31	41.38	-23.2	-23.7	18.1	0.00e+00	0	44	0	304087040	6	3805
2026-01-02 04:51:25.41	11.23	41.65	-23.1	-23.4	18.2	0.00e+00	0	44	0	311427072	6	3742
2026-01-02 04:51:26.41	11.14	41.92	-23.0	-23.3	18.4	0.00e+00	0	44	0	317718528	6	3703
2026-01-02 04:51:27.41	11.06	42.19	-22.8	-22.8	18.6	0.00e+00	0	44	0	325058560	6	3609
2026-01-02 04:51:28.41	10.97	42.47	-22.9	-23.0	18.5	0.00e+00	0	44	0	332398592	6	3648
2026-01-02 04:51:29.41	10.89	42.74	-22.9	-22.9	18.5	0.00e+00	0	44	0	339738624	6	3633
2026-01-02 04:51:30.41	10.80	43.02	-22.9	-23.1	18.5	0.00e+00	0	44	0	347078656	6	3659
2026-01-02 04:51:31.41	10.70	43.30	-23.2	-23.6	18.2	0.00e+00	0	44	0	354418688	6	3792
2026-01-02 04:51:32.41	10.61	43.59	-23.5	-24.2	17.9	0.00e+00	0	44	0	361758720	6	3925
2026-01-02 04:51:33.40	10.52	43.87	-23.5	-24.3	17.8	0.00e+00	0	44	0	369098752	6	3956
2026-01-02 04:51:34.40	10.42	44.16	-23.7	-24.3	17.6	0.00e+00	0	44	0	375390208	7	3836
2026-01-02 04:51:35.39	10.32	44.44	-23.8	-24.3	17.6	0.00e+00	0	44	0	382730240	7	3849
2026-01-02 04:51:36.39	10.22	44.74	-23.9	-24.5	17.5	0.00e+00	0	44	0	390070272	7	3884
2026-01-02 04:51:37.39	10.12	45.03	-23.7	-24.2	17.7	0.00e+00	0	44	0	397410304	7	3808
2026-01-02 04:51:38.39	10.02	45.32	-23.7	-24.3	17.6	0.00e+00	0	44	0	404750336	7	3825
2026-01-02 04:51:39.39	9.91	45.62	-23.5	-23.8	17.8	0.00e+00	0	44	0	412090368	7	3727
2026-01-02 04:51:40.40	9.80	45.92	-23.5	-23.7	17.9	0.00e+00	0	44	0	419430400	7	3702
2026-01-02 04:51:41.40	9.69	46.23	-23.6	-23.9	17.9	0.00e+00	0	44	0	426770432	7	3742
2026-01-02 04:51:42.39	9.58	46.53	-23.4	-23.6	18.0	0.00e+00	0	44	0	434110464	7	3667
2026-01-02 04:51:43.39	9.47	46.83	-23.3	-23.3	18.2	0.00e+00	0	44	0	440401920	7	3605
2026-01-02 04:51:44.39	9.35	47.14	-23.2	-23.1	18.2	0.00e+00	0	44	0	447741952	7	3573
2026-01-02 04:51:45.39	9.23	47.45	-23.4	-23.6	18.0	0.00e+00	0	44	0	455081984	7	3675
2026-01-02 04:51:46.38	9.11	47.76	-23.5	-23.8	17.9	0.00e+00	0	44	0	462422016	7	3712
2026-01-02 04:51:47.38	8.98	48.08	-23.6	-24.0	17.8	0.00e+00	0	44	0	469762048	7	3762
2026-01-02 04:51:48.37	8.86	48.39	-23.9	-24.5	17.5	0.00e+00	0	44	0	477102080	7	3876
2026-01-02 04:51:49.38	8.73	48.71	-23.7	-24.1	17.7	0.00e+00	0	44	0	483393536	7	3783
2026-01-02 04:51:50.37	8.59	49.03	-24.2	-24.8	17.2	0.00e+00	0	44	0	490733568	8	3840
2026-01-02 04:51:51.36	8.46	49.35	-24.3	-24.9	17.1	0.00e+00	0	44	0	498073600	8	3865
2026-01-02 04:51:52.36	8.32	49.67	-24.2	-24.7	17.2	0.00e+00	0	44	0	505413632	8	3815
2026-01-02 04:51:53.36	8.18	50.00	-24.5	-25.3	16.9	0.00e+00	0	44	0	512753664	8	3967
2026-01-02 04:51:54.36	8.03	50.33	-24.5	-24.9	16.8	0.00e+00	0	44	0	520093696	9	3773
2026-01-02 04:51:55.35	7.89	50.66	-24.5	-25.0	16.8	0.00e+00	0	44	0	527433728	9	3775
2026-01-02 04:51:56.34	7.74	50.99	-24.7	-25.3	16.6	0.00e+00	0	44	0	534773760	9	3854
2026-01-02 04:51:57.34	7.58	51.33	-25.1	-25.6	16.2	0.00e+00	0	44	0	541065216	10	3832
2026-01-02 04:51:58.34	7.42	51.67	-24.8	-25.0	16.6	3.02e-04	0	44	0	548405248	10	3684
2026-01-02 04:51:59.34	7.26	52.01	-24.7	-25.3	16.7	0.00e+00	0	44	0	555745280	9	3853
2026-01-02 04:52:00.34	7.10	52.35	-24.7	-25.2	16.6	0.00e+00	0	44	0	563085312	9	3842
2026-01-02 04:52:01.34	6.93	52.69	-24.9	-25.7	16.5	0.00e+00	0	44	0	570425344	9	3945
2026-01-02 04:52:02.33	6.75	53.04	-25.2	-25.9	16.1	0.00e+00	0	44	0	577765376	10	3893
2026-01-02 04:52:03.33	6.57	53.39	-24.9	-25.2	16.5	3.01e-04	0	44	0	584056832	10	3725
2026-01-02 04:52:04.33	6.39	53.74	-24.6	-24.6	16.7	0.00e+00	0	44	0	591396864	10	3601
2026-01-02 04:52:05.32	6.20	54.09	-24.5	-25.0	16.8	0.00e+00	0	44	0	598736896	9	3784
2026-01-02 04:52:06.31	6.01	54.44	-24.1	-24.1	17.3	3.65e-04	0	44	0	606076928	9	3587
2026-01-02 04:52:07.31	5.82	54.80	-24.2	-24.7	17.2	0.00e+00	0	44	0	613416960	8	3826
2026-01-02 04:52:08.31	5.61	55.16	-24.3	-25.0	17.0	0.00e+00	0	44	0	620756992	8	3887
2026-01-02 04:52:09.31	5.41	55.52	-24.3	-24.9	17.1	0.00e+00	0	44	0	628097024	8	3871
2026-01-02 04:52:10.31	5.19	55.88	-24.4	-24.6	17.0	0.00e+00	0	44	0	635437056	9	3687
2026-01-02 04:52:11.31	4.97	56.25	-24.5	-24.9	16.9	0.00e+00	0	44	0	642777088	9	3752
2026-01-02 04:52:12.31	4.75	56.62	-24.6	-25.0	16.8	0.00e+00	0	44	0	649068544	9	3795
2026-01-02 04:52:13.30	4.52	56.99	-24.4	-25.1	17.0	0.00e+00	0	44	0	656408576	8	3908
2026-01-02 04:52:14.29	4.28	57.35	-24.3	-24.9	17.1	0.00e+00	0	44	0	663748608	8	3873
2026-01-02 04:52:15.29	4.04	57.73	-24.4	-24.8	17.0	0.00e+00	0	44	0	671088640	9	3738
2026-01-02 04:52:16.29	3.79	58.10	-24.4	-24.6	17.0	8.72e-04	0	44	0	678428672	9	3701
2026-01-02 04:52:17.29	3.53	58.48	-24.6	-25.0	16.9	0.00e+00	0	44	0	685768704	9	3788
2026-01-02 04:52:18.29	3.26	58.86	-24.4	-24.6	17.0	0.00e+00	0	44	0	693108736	9	3704
2026-01-02 04:52:19.29	2.99	59.24	-24.3	-24.9	17.1	1.02e-03	0	44	0	699400192	8	3877
2026-01-02 04:52:20.28	2.71	59.62	-24.6	-25.2	16.7	0.00e+00	0	44	0	706740224	9	3831
2026-01-02 04:52:21.27	2.42	60.00	-24.1	-24.0	17.3	0.00e+00	0	44	0	714080256	9	3571
2026-01-02 04:52:22.27	2.12	60.39	-23.8	-23.8	17.7	0.00e+00	0	44	0	721420288	8	3613
2026-01-02 04:52:23.26	1.82	60.77	-23.5	-23.1	18.1	0.00e+00	0	44	0	728760320	8	3471
2026-01-02 04:52:24.26	1.50	61.16	-23.7	-24.1	17.8	1.23e-03	0	44	0	736100352	7	3776
2026-01-02 04:52:25.26	1.17	61.56	-23.5	-23.9	17.9	0.00e+00	0	44	0	743440384	7	3736
2026-01-02 04:52:26.25	0.83	61.94	-23.9	-24.0	17.6	0.00e+00	0	44	0	749731840	8	3669
2026-01-02 04:52:27.25	0.48	62.34	-23.6	-24.0	17.8	0.00e+00	0	44	0	757071872	7	3773
2026-01-02 04:52:28.25	0.12	62.73	-23.7	-24.1	17.8	0.00e+00	0	44	0	764411904	7	3796
2026-01-02 04:52:29.25	359.75	63.13	-23.1	-23.0	18.4	0.00e+00	0	44	0	771751936	7	3532
2026-01-02 04:52:30.24	359.36	63.52	-22.8	-22.9	18.7	0.00e+00	0	44	0	779091968	6	3611
2026-01-02 04:52:31.24	358.96	63.92	-22.1	-21.8	19.4	0.00e+00	0	44	0	786432000	5	3467
2026-01-02 04:52:32.24	358.55	64.32	-23.0	-23.2	18.5	0.00e+00	0	44	0	793772032	6	3678
2026-01-02 04:52:33.24	358.12	64.73	-22.9	-23.0	18.6	0.00e+00	0	44	0	801112064	6	3640
2026-01-02 04:52:34.24	357.67	65.13	-22.6	-22.9	18.9	0.00e+00	0	44	0	808452096	5	3732
2026-01-02 04:52:35.23	357.21	65.53	-22.6	-23.0	18.8	0.00e+00	0	44	0	814743552	5	3739
2026-01-02 04:52:36.23	356.73	65.93	-22.4	-22.5	18.9	0.00e+00	0	44	0	822083584	5	3625
2026-01-02 04:52:37.23	356.24	66.33	-23.2	-23.7	18.2	0.00e+00	0	44	0	829423616	6	3801
2026-01-02 04:52:38.22	355.72	66.73	-23.3	-23.7	18.2	0.00e+00	0	44	0	836763648	6	3808
2026-01-02 04:52:39.21	355.19	67.13	-23.4	-23.5	18.1	0.00e+00	0	44	0	844103680	7	3652
2026-01-02 04:52:40.21	354.64	67.54	-22.9	-23.0	18.6	0.00e+00	0	44	0	850395136	6	3631
2026-01-02 04:52:41.21	354.06	67.94	-22.8	-22.8	18.5	0.00e+00	0	44	0	857735168	6	3596
2026-01-02 04:52:42.21	353.45	68.34	-22.9	-23.0	18.6	0.00e+00	0	44	0	865075200	6	3649
2026-01-02 04:52:43.21	352.82	68.75	-22.8	-23.3	18.7	0.00e+00	0	44	0	872415232	5	3821
2026-01-02 04:52:44.21	352.17	69.15	-23.1	-23.4	18.4	0.00e+00	0	44	0	879755264	6	3723
2026-01-02 04:52:45.21	351.49	69.55	-23.3	-23.8	18.2	0.00e+00	0	44	0	887095296	6	3815
2026-01-02 04:52:46.21	350.77	69.95	-23.2	-23.6	18.1	0.00e+00	0	44	0	894435328	6	3779
2026-01-02 04:52:47.20	350.04	70.35	-23.4	-24.1	18.0	0.00e+00	0	44	0	901775360	6	3886
2026-01-02 04:52:48.19	349.27	70.74	-23.0	-23.2	18.5	0.00e+00	0	44	0	909115392	6	3691
2026-01-02 04:52:49.20	348.45	71.14	-23.1	-23.5	18.3	0.00e+00	0	44	0	915406848	6	3757
2026-01-02 04:52:50.20	347.60	71.53	-23.1	-23.4	18.4	0.00e+00	0	44	0	922746880	6	3732
2026-01-02 04:52:51.21	346.70	71.93	-23.0	-23.2	18.4	0.00e+00	0	44	0	930086912	6	3683
2026-01-02 04:52:52.20	345.78	72.31	-22.7	-23.1	18.7	0.00e+00	0	44	0	937426944	5	3760
2026-01-02 04:52:53.20	344.81	72.69	-22.6	-22.9	18.8	0.00e+00	0	44	0	944766976	5	3723
2026-01-02 04:52:54.20	343.79	73.08	-22.6	-22.9	18.8	0.00e+00	0	44	0	952107008	5	3725
2026-01-02 04:52:55.19	342.73	73.45	-22.5	-22.7	18.9	0.00e+00	0	44	0	959447040	5	3677
2026-01-02 04:52:56.19	341.61	73.82	-22.4	-22.5	19.1	0.00e+00	0	44	0	965738496	5	3636
2026-01-02 04:52:57.18	340.45	74.18	-22.3	-22.4	19.1	0.00e+00	0	44	0	973078528	5	3607
2026-01-02 04:52:58.18	339.21	74.54	-22.1	-21.9	19.4	0.00e+00	0	44	0	980418560	5	3500
2026-01-02 04:52:59.17	337.93	74.90	-22.2	-22.0	19.3	0.00e+00	0	44	0	987758592	5	3530
2026-01-02 04:53:00.17	336.57	75.24	-22.1	-21.9	19.4	0.00e+00	0	44	0	995098624	5	3507
2026-01-02 04:53:01.17	335.15	75.59	-22.0	-21.7	19.5	0.00e+00	0	44	0	1002438656	5	3469
2026-01-02 04:53:02.17	333.65	75.92	-21.8	-21.8	19.6	0.00e+00	0	43	0	1009778688	4	3585
2026-01-02 04:53:03.17	332.08	76.24	-21.8	-21.8	19.7	0.00e+00	0	44	0	1016070144	4	3584
2026-01-02 04:53:04.17	330.43	76.56	-21.5	-21.1	20.0	0.00e+00	0	44	0	1023410176	4	3445
2026-01-02 04:53:05.17	328.70	76.86	-21.6	-21.4	19.8	0.00e+00	0	44	0	1030750208	4	3494
2026-01-02 04:53:06.16	326.91	77.15	-21.6	-21.4	19.8	0.00e+00	0	44	0	1038090240	4	3498
2026-01-02 04:53:07.15	325.03	77.42	-21.7	-21.4	19.8	0.00e+00	0	44	0	1045430272	4	3509
2026-01-02 04:53:08.15	323.05	77.69	-21.6	-21.4	19.9	0.00e+00	0	44	0	1052770304	4	3496
2026-01-02 04:53:09.15	320.98	77.94	-21.4	-20.9	20.1	0.00e+00	0	44	0	1060110336	4	3401
2026-01-02 04:53:10.14	318.85	78.17	-21.2	-21.0	20.4	0.00e+00	0	44	0	1067450368	3	3516
2026-01-02 04:53:11.14	316.61	78.39	-21.3	-21.1	20.3	0.00e+00	0	44	0	1074790400	3	3532
2026-01-02 04:53:12.13	314.31	78.59	-21.3	-21.3	20.3	0.00e+00	0	44	0	1081081856	3	3569
2026-01-02 04:53:13.13	311.90	78.77	-21.4	-21.4	20.2	0.00e+00	0	44	0	1088421888	3	3590
2026-01-02 04:53:14.13	309.42	78.94	-21.4	-21.5	20.1	0.00e+00	0	44	0	1095761920	3	3613
2026-01-02 04:53:15.12	306.89	79.08	-21.2	-20.9	20.4	0.00e+00	0	44	0	1103101952	3	3497
2026-01-02 04:53:16.12	304.27	79.20	-21.6	-21.7	20.0	0.00e+00	0	44	0	1110441984	3	3665
2026-01-02 04:53:17.11	301.63	79.29	-21.4	-21.3	20.2	0.00e+00	0	44	0	1117782016	3	3566
2026-01-02 04:53:18.11	298.92	79.37	-21.7	-21.9	20.0	0.00e+00	0	44	0	1124073472	3	3717
2026-01-02 04:53:19.11	296.17	79.42	-21.9	-22.0	19.6	0.00e+00	0	44	0	1131413504	4	3632
2026-01-02 04:53:20.11	293.40	79.44	-21.5	-21.2	20.1	0.00e+00	0	44	0	1138753536	4	3456
2026-01-02 04:53:21.11	290.62	79.45	-21.6	-21.8	20.0	0.00e+00	0	44	0	1146093568	3	3680
2026-01-02 04:53:22.11	287.85	79.42	-21.5	-21.5	20.2	0.00e+00	0	44	0	1153433600	3	3617
2026-01-02 04:53:23.11	285.10	79.38	-21.2	-21.0	20.4	0.00e+00	0	44	0	1160773632	3	3508
2026-01-02 04:53:24.11	282.38	79.31	-20.9	-20.9	20.7	0.00e+00	0	44	0	1168113664	2	3600
2026-01-02 04:53:25.11	279.70	79.21	-21.3	-21.8	20.3	0.00e+00	0	44	0	1175453696	2	3786
2026-01-02 04:53:26.10	277.10	79.10	-21.6	-21.8	20.0	0.00e+00	0	44	0	1181745152	3	3694
2026-01-02 04:53:27.10	274.53	78.96	-21.3	-21.2	20.3	0.00e+00	0	44	0	1189085184	3	3552
2026-01-02 04:53:28.10	272.03	78.80	-20.9	-20.4	20.7	0.00e+00	0	44	0	1196425216	3	3383
2026-01-02 04:53:29.11	269.59	78.62	-20.9	-20.9	20.7	0.00e+00	0	44	0	1203765248	2	3595
2026-01-02 04:53:30.10	267.27	78.43	-21.0	-21.1	20.6	0.00e+00	0	44	0	1211105280	2	3643
2026-01-02 04:53:31.09	265.04	78.21	-21.1	-21.3	20.5	0.00e+00	0	44	0	1218445312	2	3668
2026-01-02 04:53:32.09	262.87	77.98	-21.2	-21.5	20.4	0.00e+00	0	44	0	1225785344	2	3713
2026-01-02 04:53:33.09	260.78	77.73	-21.0	-21.1	20.6	0.00e+00	0	44	0	1233125376	2	3631
2026-01-02 04:53:34.09	258.79	77.47	-21.2	-21.4	20.3	0.00e+00	0	44	0	1240465408	2	3697
2026-01-02 04:53:35.09	256.88	77.19	-21.5	-22.2	20.0	0.00e+00	0	44	0	1246756864	2	3871
2026-01-02 04:53:36.08	255.07	76.90	-21.9	-22.5	19.6	0.00e+00	0	44	0	1254096896	3	3843
2026-01-02 04:53:37.09	253.31	76.60	-22.0	-22.6	19.6	0.00e+00	0	44	0	1261436928	3	3855
2026-01-02 04:53:38.08	251.67	76.29	-22.1	-22.3	19.4	0.00e+00	0	44	0	1268776960	4	3685
2026-01-02 04:53:39.08	250.09	75.96	-22.2	-22.5	19.2	0.00e+00	0	44	0	1276116992	4	3737
2026-01-02 04:53:40.08	248.58	75.63	-22.1	-22.4	19.4	0.00e+00	0	44	0	1283457024	4	3710
2026-01-02 04:53:41.09	247.13	75.29	-21.9	-22.0	19.5	0.00e+00	0	44	0	1290797056	4	3628
2026-01-02 04:53:42.08	245.77	74.95	-22.3	-22.7	19.2	0.00e+00	0	44	0	1297088512	4	3775
2026-01-02 04:53:43.08	244.47	74.59	-22.3	-22.7	19.2	0.00e+00	0	44	0	1304428544	4	3777
2026-01-02 04:53:44.08	243.22	74.23	-22.6	-23.3	18.9	0.00e+00	0	44	0	1311768576	4	3915
2026-01-02 04:53:45.07	242.05	73.87	-22.9	-23.4	18.6	0.00e+00	0	44	0	1319108608	5	3840
2026-01-02 04:53:46.07	240.92	73.49	-22.9	-23.4	18.6	0.00e+00	0	44	0	1326448640	5	3849
2026-01-02 04:53:47.06	239.85	73.12	-22.9	-23.4	18.6	0.00e+00	0	44	0	1333788672	5	3839
2026-01-02 04:53:48.06	238.83	72.74	-23.1	-23.8	17.6	0.00e+00	0	44	0	1341128704	5	3943
2026-01-02 04:53:49.05	237.86	72.36	-22.8	-22.9	18.6	0.00e+00	0	44	0	1347420160	6	3617
2026-01-02 04:53:50.05	236.92	71.97	-22.8	-22.9	18.6	0.00e+00	0	44	0	1354760192	6	3617
2026-01-02 04:53:51.05	236.02	71.58	-23.0	-23.2	18.3	0.00e+00	0	44	0	1362100224	6	3683
2026-01-02 04:53:52.04	235.18	71.19	-22.8	-23.2	18.6	0.00e+00	0	44	0	1369440256	5	3805
2026-01-02 04:53:53.04	234.36	70.79	-22.7	-23.1	18.7	0.00e+00	0	44	0	1376780288	5	3775
2026-01-02 04:53:54.04	233.58	70.40	-23.0	-23.7	18.5	0.00e+00	0	44	0	1384120320	5	3904
2026-01-02 04:53:55.04	232.83	70.00	-22.5	-22.7	19.0	0.00e+00	0	44	0	1391460352	5	3673
2026-01-02 04:53:56.03	232.12	69.60	-22.3	-22.3	19.1	0.00e+00	0	44	0	1397751808	5	3589
2026-01-02 04:53:57.02	231.44	69.20	-22.5	-22.6	18.9	0.00e+00	0	44	0	1405091840	5	3656
2026-01-02 04:53:58.02	230.77	68.80	-22.4	-22.5	19.0	0.00e+00	0	44	0	1412431872	5	3643
2026-01-02 04:53:59.01	230.15	68.40	-22.6	-22.9	18.8	0.00e+00	0	44	0	1419771904	5	3727
2026-01-02 04:54:00.00	229.54	68.00	-22.5	-22.6	18.9	0.00e+00	0	44	0	1427111936	5	3654
2026-01-02 04:54:00.99	228.97	67.60	-22.5	-22.8	18.9	0.00e+00	0	44	0	1434451968	5	3695
2026-01-02 04:54:01.99	228.40	67.19	-22.5	-22.6	18.9	0.00e+00	0	44	0	1441792000	5	3663
2026-01-02 04:54:02.99	227.86	66.79	-22.7	-23.1	18.7	0.00e+00	0	44	0	1449132032	5	3776
2026-01-02 04:54:04.00	227.34	66.38	-22.8	-23.3	18.7	0.00e+00	0	44	0	1455423488	5	3809
2026-01-02 04:54:04.99	226.84	65.98	-22.6	-22.9	18.8	0.00e+00	0	44	0	1462763520	5	3720
2026-01-02 04:54:05.98	226.36	65.58	-22.5	-22.6	19.0	0.00e+00	0	44	0	1470103552	5	3648
2026-01-02 04:54:06.99	225.89	65.17	-22.4	-22.5	18.9	0.00e+00	0	44	0	1477443584	5	3629
2026-01-02 04:54:07.99	225.44	64.77	-22.4	-22.5	18.9	0.00e+00	0	44	0	1484783616	5	3633
2026-01-02 04:54:08.98	225.01	64.37	-22.6	-22.9	18.8	0.00e+00	0	44	0	1491075072	5	3719
2026-01-02 04:54:09.98	224.60	63.97	-22.6	-22.9	18.8	0.00e+00	0	44	0	1498415104	5	3719
2026-01-02 04:54:10.98	224.19	63.57	-22.7	-23.0	18.7	0.00e+00	0	44	0	1505755136	5	3748
2026-01-02 04:54:11.97	223.81	63.17	-22.6	-22.9	18.8	0.00e+00	0	44	0	1513095168	5	3728
2026-01-02 04:54:12.98	223.43	62.77	-22.9	-23.6	18.5	0.00e+00	0	44	0	1520435200	5	3875
2026-01-02 04:54:13.98	223.06	62.37	-23.1	-23.5	18.2	0.00e+00	0	44	0	1527775232	6	3762
2026-01-02 04:54:14.98	222.71	61.98	-23.5	-24.2	17.9	0.00e+00	0	44	0	1535115264	6	3918
2026-01-02 04:54:15.97	222.37	61.59	-23.4	-24.0	18.0	0.00e+00	0	44	0	1542455296	6	3862
2026-01-02 04:54:16.98	222.03	61.19	-23.3	-23.9	18.0	0.00e+00	0	44	0	1549795328	6	3844
2026-01-02 04:54:17.97	221.72	60.80	-23.4	-24.1	18.0	0.00e+00	0	44	0	1556086784	6	3887
2026-01-02 04:54:18.97	221.41	60.41	-23.9	-24.6	17.4	0.00e+00	0	44	0	1563426816	7	3915
2026-01-02 04:54:19.98	221.10	60.02	-24.0	-24.8	17.3	0.00e+00	0	44	0	1570766848	7	3959
2026-01-02 04:54:20.98	220.81	59.64	-24.1	-24.4	17.2	0.00e+00	0	44	0	1578106880	8	3762
2026-01-02 04:54:21.98	220.53	59.25	-23.9	-24.1	17.4	0.00e+00	0	44	0	1585446912	8	3696
2026-01-02 04:54:22.98	220.25	58.87	-23.9	-24.1	17.5	0.00e+00	0	44	0	1592786944	8	3689
2026-01-02 04:54:23.99	219.98	58.48	-24.3	-25.0	17.0	0.00e+00	0	44	0	1600126976	8	3898
2026-01-02 04:54:24.99	219.72	58.10	-23.9	-24.2	17.4	0.00e+00	0	44	0	1607467008	8	3703
2026-01-02 04:54:26.00	219.47	57.72	-23.8	-23.9	17.6	0.00e+00	0	44	0	1614807040	8	3632
2026-01-02 04:54:27.00	219.22	57.35	-23.6	-24.0	17.7	0.00e+00	0	44	0	1622147072	7	3778
2026-01-02 04:54:28.00	218.98	56.97	-23.6	-24.1	17.7	0.00e+00	0	44	0	1629487104	7	3779
2026-01-02 04:54:29.01	218.75	56.60	-23.7	-24.2	17.6	0.00e+00	0	44	0	1635778560	7	3816
2026-01-02 04:54:30.02	218.52	56.23	-23.6	-24.0	17.7	0.00e+00	0	44	0	1643118592	7	3768
2026-01-02 04:54:31.02	218.30	55.86	-23.7	-24.2	17.6	0.00e+00	0	44	0	1650458624	7	3811
2026-01-02 04:54:32.02	218.09	55.49	-23.8	-24.3	17.5	0.00e+00	0	44	0	1657798656	7	3839
2026-01-02 04:54:33.02	217.88	55.13	-23.8	-24.4	17.5	0.00e+00	0	44	0	1665138688	7	3858
2026-01-02 04:54:34.02	217.67	54.77	-23.8	-24.5	17.5	0.00e+00	0	44	0	1672478720	7	3871
2026-01-02 04:54:35.02	217.48	54.41	-23.7	-24.3	17.4	0.00e+00	0	44	0	1679818752	7	3824
2026-01-02 04:54:36.02	217.28	54.05	-23.9	-24.7	17.4	0.00e+00	0	44	0	1687158784	7	3923
2026-01-02 04:54:37.02	217.09	53.70	-23.9	-24.7	17.4	0.00e+00	0	44	0	1694498816	7	3924
2026-01-02 04:54:38.03	216.91	53.34	-24.2	-24.7	17.1	0.00e+00	0	44	0	1700790272	8	3817
2026-01-02 04:54:39.03	216.73	52.99	-24.2	-24.8	17.0	0.00e+00	0	44	0	1708130304	8	3840
2026-01-02 04:54:40.02	216.56	52.65	-24.1	-24.5	17.2	0.00e+00	0	44	0	1715470336	8	3773
2026-01-02 04:54:41.03	216.38	52.30	-23.5	-23.9	16.4	0.00e+00	0	44	0	1722810368	8	3786
2026-01-02 04:54:42.04	216.22	51.95	-23.6	-23.9	15.3	0.00e+00	0	44	0	1730150400	7	3747
2026-01-02 04:54:43.04	216.05	51.61	-23.7	-24.1	17.7	0.00e+00	0	44	0	1737490432	7	3782
2026-01-02 04:54:44.05	215.89	51.26	-23.5	-23.7	17.9	0.00e+00	0	44	0	1744830464	7	3684
2026-01-02 04:54:45.05	215.74	50.93	-23.5	-23.7	17.9	3.92e-04	0	44	0	1752170496	7	3692
2026-01-02 04:54:46.06	215.58	50.59	-23.7	-24.2	17.6	0.00e+00	0	44	0	1759510528	7	3815
2026-01-02 04:54:47.07	215.43	50.25	-23.8	-24.5	17.4	7.97e-04	0	44	0	1766850560	7	3878
2026-01-02 04:54:48.06	215.29	49.92	-24.0	-24.8	17.3	0.00e+00	0	44	0	1774190592	7	3963
2026-01-02 04:54:49.07	215.15	49.59	-23.9	-24.7	17.3	0.00e+00	0	44	0	1781530624	7	3924
2026-01-02 04:54:50.07	215.01	49.26	-23.9	-24.6	17.4	7.70e-04	0	44	0	1787822080	7	3901
2026-01-02 04:54:51.07	214.87	48.94	-23.8	-24.5	17.4	0.00e+00	0	44	0	1795162112	7	3881
2026-01-02 04:54:52.08	214.74	48.62	-23.9	-24.6	17.4	3.77e-05	0	44	0	1802502144	7	3900
2026-01-02 04:54:53.08	214.61	48.30	-23.7	-24.2	17.5	0.00e+00	0	44	0	1809842176	7	3823
2026-01-02 04:54:54.07	214.48	47.98	-23.5	-23.8	17.7	0.00e+00	0	44	0	1817182208	7	3731
2026-01-02 04:54:55.07	214.36	47.66	-23.4	-24.0	17.9	7.09e-05	0	44	0	1824522240	6	3872
2026-01-02 04:54:56.07	214.23	47.35	-23.5	-24.2	17.8	0.00e+00	0	44	0	1831862272	6	3924
2026-01-02 04:54:57.08	214.11	47.04	-23.1	-23.4	18.2	9.38e-04	0	44	0	1839202304	6	3732
2026-01-02 04:54:58.08	214.00	46.73	-23.2	-23.6	18.0	3.89e-05	0	44	0	1845493760	6	3777
2026-01-02 04:54:59.08	213.88	46.42	-23.4	-24.1	17.9	0.00e+00	0	44	0	1852833792	6	3884
2026-01-02 04:55:00.09	213.77	46.11	-23.2	-23.6	18.1	8.23e-04	0	44	0	1861222400	6	3784
2026-01-02 04:55:01.08	213.66	45.81	-23.2	-23.5	18.1	5.70e-06	0	44	0	1867513856	6	3767
2026-01-02 04:55:02.08	213.55	45.51	-23.2	-23.6	18.1	8.47e-04	0	44	0	1874853888	6	3777
2026-01-02 04:55:03.09	213.44	45.21	-23.2	-23.7	17.8	7.48e-04	0	44	0	1882193920	6	3793
2026-01-02 04:55:04.09	213.34	44.91	-23.5	-24.3	17.8	0.00e+00	0	44	0	1889533952	6	3943
2026-01-02 04:55:05.10	213.24	44.62	-23.0	-23.3	18.2	7.26e-04	0	44	0	1896873984	6	3714
2026-01-02 04:55:06.10	213.13	44.33	-22.7	-22.5	18.6	1.91e-04	0	44	0	1904214016	6	3540
2026-01-02 04:55:07.10	213.04	44.04	-22.6	-22.5	18.7	0.00e+00	0	44	0	1911554048	6	3526
2026-01-02 04:55:08.11	212.94	43.74	-22.8	-23.3	18.4	6.05e-04	0	44	0	1918894080	5	3821
2026-01-02 04:55:09.11	212.84	43.46	-22.9	-23.5	18.4	3.54e-04	0	44	0	1926234112	5	3869
2026-01-02 04:55:10.12	212.75	43.17	-23.2	-23.7	18.0	0.00e+00	0	44	0	1932525568	6	3810
2026-01-02 04:55:11.12	212.66	42.89	-22.8	-22.8	18.4	0.00e+00	0	44	0	1939865600	6	3592
2026-01-02 04:55:12.12	212.57	42.61	-22.6	-22.8	18.7	7.37e-04	0	44	0	1947205632	5	3704
2026-01-02 04:55:13.13	212.48	42.33	-22.4	-22.6	18.7	0.00e+00	0	44	0	1954545664	5	3654
2026-01-02 04:55:14.12	212.39	42.06	-22.3	-22.2	18.9	7.97e-04	0	44	0	1961885696	5	3570
2026-01-02 04:55:15.13	212.31	41.78	-22.3	-22.3	19.0	7.37e-04	0	44	0	1969225728	5	3582
2026-01-02 04:55:16.13	212.22	41.51	-22.4	-22.4	18.9	0.00e+00	0	44	0	1976565760	5	3619
2026-01-02 04:55:17.14	212.14	41.23	-22.3	-22.3	19.0	7.45e-04	0	44	0	1983905792	5	3606
2026-01-02 04:55:18.13	212.06	40.97	-22.5	-22.8	18.7	0.00e+00	0	44	0	1991245824	5	3695
2026-01-02 04:55:19.14	211.98	40.70	-22.5	-22.7	18.8	0.00e+00	0	44	0	1998585856	5	3680
2026-01-02 04:55:20.15	211.90	40.43	-22.6	-22.9	18.6	8.24e-04	0	44	0	2005925888	5	3732
2026-01-02 04:55:21.16	211.83	40.17	-22.6	-22.9	18.6	0.00e+00	0	44	0	2012217344	5	3733
2026-01-02 04:55:22.16	211.75	39.91	-22.7	-23.0	18.6	0.00e+00	0	44	0	2019557376	5	3752
2026-01-02 04:55:23.16	211.68	39.65	-22.6	-22.8	18.3	0.00e+00	0	44	0	2026897408	5	3702
2026-01-02 04:55:24.17	211.60	39.39	-22.8	-23.2	18.5	0.00e+00	0	44	0	2034237440	5	3803
2026-01-02 04:55:25.18	211.53	39.13	-23.0	-23.8	18.2	0.00e+00	0	44	0	2041577472	5	3925
2026-01-02 04:55:26.18	211.46	38.88	-22.8	-23.3	18.4	0.00e+00	0	44	0	2048917504	5	3826
2026-01-02 04:55:27.18	211.39	38.63	-22.8	-23.4	18.4	0.00e+00	0	44	0	2056257536	5	3834
2026-01-02 04:55:28.19	211.32	38.37	-22.9	-23.6	18.3	0.00e+00	0	44	0	2063597568	5	3890
2026-01-02 04:55:29.19	211.25	38.13	-23.0	-23.7	18.2	0.00e+00	0	44	0	2070937600	5	3914
2026-01-02 04:55:30.19	211.19	37.88	-22.9	-23.5	18.3	0.00e+00	0	44	0	2078277632	5	3865
2026-01-02 04:55:31.20	211.12	37.63	-22.8	-23.4	18.3	0.00e+00	0	44	0	2085617664	5	3845
2026-01-02 04:55:32.20	211.06	37.39	-22.9	-23.6	18.2	0.00e+00	0	44	0	2092957696	5	3887
2026-01-02 04:55:33.20	210.99	37.15	-22.6	-22.9	18.6	0.00e+00	0	44	0	2099249152	5	3733
2026-01-02 04:55:34.21	210.93	36.91	-22.4	-22.6	18.6	0.00e+00	0	44	0	2106589184	5	3650
2026-01-02 04:55:35.22	210.87	36.67	-22.3	-22.3	18.9	0.00e+00	0	44	0	2113929216	5	3600
2026-01-02 04:55:36.23	210.81	36.43	-22.5	-22.6	18.7	0.00e+00	0	44	0	2121269248	5	3664
2026-01-02 04:55:37.23	210.75	36.20	-22.5	-22.7	18.7	0.00e+00	0	44	0	2128609280	5	3682
2026-01-02 04:55:38.24	210.69	35.96	-22.5	-22.8	18.7	0.00e+00	0	44	0	2135949312	5	3697
2026-01-02 04:55:39.25	210.63	35.73	-22.6	-22.8	18.6	0.00e+00	0	44	0	2143289344	5	3707
2026-01-02 04:55:40.25	210.58	35.50	-22.6	-23.0	18.6	0.00e+00	0	44	0	2150629376	5	3751
2026-01-02 04:55:41.26	210.52	35.27	-22.8	-23.3	18.4	0.00e+00	0	44	0	2157969408	5	3813
2026-01-02 04:55:42.26	210.46	35.04	-22.8	-23.3	18.4	0.00e+00	0	44	0	2165309440	5	3829
2026-01-02 04:55:43.27	210.41	34.82	-22.8	-23.4	18.4	0.00e+00	0	44	0	2172649472	5	3843
2026-01-02 04:55:44.27	210.36	34.60	-22.7	-23.0	18.5	0.00e+00	0	44	0	2179989504	5	3760
2026-01-02 04:55:45.27	210.30	34.37	-22.7	-23.1	18.5	0.00e+00	0	44	0	2186280960	5	3774
2026-01-02 04:55:46.26	210.25	34.16	-22.5	-22.7	18.7	0.00e+00	0	44	0	2193620992	5	3683
2026-01-02 04:55:47.27	210.20	33.94	-22.2	-22.1	19.0	0.00e+00	0	44	0	2200961024	5	3562
2026-01-02 04:55:48.27	210.15	33.72	-22.2	-22.1	19.0	0.00e+00	0	44	0	2208301056	5	3566
2026-01-02 04:55:49.27	210.10	33.50	-22.3	-22.2	18.9	0.00e+00	0	44	0	2215641088	5	3577
2026-01-02 04:55:50.27	210.05	33.29	-22.3	-22.8	18.9	0.00e+00	0	44	0	2222981120	4	3803
2026-01-02 04:55:51.27	210.00	33.08	-22.0	-22.2	19.1	0.00e+00	0	44	0	2230321152	4	3686
2026-01-02 04:55:52.28	209.95	32.87	-21.9	-21.9	19.3	0.00e+00	0	44	0	2237661184	4	3605
2026-01-02 04:55:53.28	209.91	32.66	-21.9	-21.9	19.3	0.00e+00	0	44	0	2245001216	4	3603
2026-01-02 04:55:54.29	209.86	32.45	-21.9	-22.0	19.1	0.00e+00	0	44	0	2252341248	4	3625
2026-01-02 04:55:55.30	209.81	32.24	-21.9	-22.0	19.2	0.00e+00	0	44	0	2259681280	4	3636
2026-01-02 04:55:56.30	209.77	32.03	-22.0	-22.1	19.2	0.00e+00	0	44	0	2265972736	4	3666
2026-01-02 04:55:57.30	209.72	31.83	-22.1	-22.4	19.0	0.00e+00	0	44	0	2273312768	4	3726
2026-01-02 04:55:58.30	209.68	31.63	-22.3	-22.9	18.8	0.00e+00	0	44	0	2280652800	4	3825
2026-01-02 04:55:59.30	209.63	31.43	-22.3	-22.8	18.8	0.00e+00	0	44	0	2287992832	4	3804
2026-01-02 04:56:00.30	209.59	31.23	-22.5	-23.2	18.6	0.00e+00	0	44	0	2295332864	4	3903
2026-01-02 04:56:01.30	209.55	31.03	-22.5	-23.2	18.6	0.00e+00	0	44	0	2302672896	4	3905
2026-01-02 04:56:02.30	209.51	30.83	-22.4	-23.1	18.7	0.00e+00	0	44	0	2310012928	4	3873
2026-01-02 04:56:03.31	209.47	30.63	-22.5	-23.2	18.6	0.00e+00	0	44	0	2317352960	4	3903
2026-01-02 04:56:04.32	209.42	30.44	-22.7	-23.2	18.4	0.00e+00	0	44	0	2324692992	5	3788
2026-01-02 04:56:05.33	209.38	30.24	-22.9	-23.5	18.2	0.00e+00	0	44	0	2330984448	5	3865
2026-01-02 04:56:06.32	209.34	30.05	-22.6	-23.0	18.4	0.00e+00	0	44	0	2338324480	5	3756
2026-01-02 04:56:07.33	209.31	29.86	-22.4	-22.5	18.7	0.00e+00	0	44	0	2346713088	5	3633
2026-01-02 04:56:08.33	209.27	29.67	-22.3	-22.3	18.8	0.00e+00	0	44	0	2353004544	5	3596
2026-01-02 04:56:09.33	209.23	29.48	-22.3	-22.3	18.8	0.00e+00	0	44	0	2360344576	5	3587
2026-01-02 04:56:10.33	209.19	29.30	-22.3	-22.2	18.9	0.00e+00	0	44	0	2367684608	5	3584
2026-01-02 04:56:11.34	209.15	29.11	-22.3	-22.2	18.8	0.00e+00	0	44	0	2375024640	5	3587
2026-01-02 04:56:12.34	209.12	28.92	-22.3	-22.4	18.8	0.00e+00	0	44	0	2382364672	5	3612
2026-01-02 04:56:13.33	209.08	28.74	-22.3	-22.3	18.8	0.00e+00	0	44	0	2389704704	5	3604
2026-01-02 04:56:14.34	209.04	28.56	-22.4	-22.9	18.8	0.00e+00	0	44	0	2397044736	4	3833
2026-01-02 04:56:15.34	209.01	28.38	-22.4	-23.0	18.6	0.00e+00	0	44	0	2404384768	4	3865
2026-01-02 04:56:16.34	208.97	28.20	-22.5	-23.2	18.6	0.00e+00	0	44	0	2410676224	4	3900
2026-01-02 04:56:17.35	208.94	28.02	-22.5	-23.2	18.6	0.00e+00	0	44	0	2418016256	4	3909
2026-01-02 04:56:18.35	208.90	27.84	-22.7	-23.1	18.4	0.00e+00	0	44	0	2425356288	5	3771
2026-01-02 04:56:19.35	208.87	27.66	-22.6	-23.0	18.4	0.00e+00	0	44	0	2432696320	5	3752
2026-01-02 04:56:20.35	208.84	27.49	-22.7	-23.1	18.4	0.00e+00	0	44	0	2440036352	5	3782
2026-01-02 04:56:21.36	208.80	27.31	-22.8	-23.3	18.3	0.00e+00	0	44	0	2447376384	5	3814
2026-01-02 04:56:22.36	208.77	27.14	-22.8	-23.3	18.2	0.00e+00	0	44	0	2454716416	5	3829
2026-01-02 04:56:23.36	208.74	26.97	-22.9	-23.5	18.1	0.00e+00	0	44	0	2462056448	5	3874
2026-01-02 04:56:24.37	208.71	26.80	-22.8	-23.4	18.2	0.00e+00	0	44	0	2469396480	5	3853
2026-01-02 04:56:25.37	208.68	26.63	-22.9	-23.5	18.2	0.00e+00	0	44	0	2475687936	5	3868
2026-01-02 04:56:26.38	208.64	26.46	-23.0	-23.7	18.0	0.00e+00	0	44	0	2483027968	5	3915
2026-01-02 04:56:27.38	208.61	26.29	-22.9	-23.5	18.2	0.00e+00	0	44	0	2491416576	5	3859
2026-01-02 04:56:28.38	208.58	26.12	-22.9	-23.5	14.7	2.20e-06	0	44	0	2497708032	5	3873
2026-01-02 04:56:29.38	208.55	25.96	-22.9	-23.5	17.9	1.72e-04	0	44	0	2505048064	5	3868
2026-01-02 04:56:30.38	208.52	25.79	-22.8	-23.3	18.3	0.00e+00	0	44	0	2512388096	5	3821
2026-01-02 04:56:31.38	208.49	25.63	-22.9	-23.5	18.1	1.10e-06	0	44	0	2519728128	5	3870
2026-01-02 04:56:32.38	208.47	25.47	-22.6	-22.9	18.5	0.00e+00	0	44	0	2527068160	5	3725
2026-01-02 04:56:33.39	208.44	25.30	-22.6	-22.8	18.5	0.00e+00	0	44	0	2534408192	5	3714
2026-01-02 04:56:34.39	208.41	25.14	-22.5	-22.8	18.4	1.02e-03	0	44	0	2541748224	5	3707
2026-01-02 04:56:35.40	208.38	24.98	-22.6	-23.0	18.4	0.00e+00	0	44	0	2549088256	5	3751
2026-01-02 04:56:36.40	208.35	24.82	-22.6	-22.9	18.4	0.00e+00	0	44	0	2556428288	5	3729
2026-01-02 04:56:37.40	208.32	24.66	-22.6	-23.0	18.4	1.10e-06	0	44	0	2562719744	5	3745
2026-01-02 04:56:38.40	208.30	24.51	-22.5	-22.8	18.5	0.00e+00	0	44	0	2570059776	5	3708
2026-01-02 04:56:39.41	208.27	24.35	-22.7	-23.1	18.4	0.00e+00	0	44	0	2577399808	5	3768
2026-01-02 04:56:40.41	208.24	24.19	-22.7	-23.1	18.3	3.40e-06	0	44	0	2584739840	5	3771
2026-01-02 04:56:41.41	208.22	24.04	-22.8	-23.3	18.2	0.00e+00	0	44	0	2592079872	5	3827
2026-01-02 04:56:42.42	208.19	23.89	-22.9	-23.5	18.0	0.00e+00	0	44	0	2599419904	5	3878
2026-01-02 04:56:43.43	208.17	23.73	-23.1	-23.9	17.8	5.70e-06	0	44	0	2606759936	5	3963
2026-01-02 04:56:44.44	208.14	23.58	-23.3	-23.9	17.7	1.12e-03	0	44	0	2614099968	6	3852
2026-01-02 04:56:45.44	208.11	23.43	-23.4	-24.2	17.4	0.00e+00	0	44	0	2621440000	6	3928
2026-01-02 04:56:46.45	208.09	23.28	-23.2	-23.6	17.8	1.10e-03	0	44	0	2628780032	6	3784
2026-01-02 04:56:47.45	208.06	23.13	-23.2	-23.6	17.8	1.19e-03	0	44	0	2636120064	6	3794
2026-01-02 04:56:48.46	208.04	22.98	-23.2	-23.7	17.8	0.00e+00	0	44	0	2642411520	6	3806
2026-01-02 04:56:49.46	208.02	22.83	-23.2	-23.6	17.8	1.20e-03	0	44	0	2649751552	6	3792
2026-01-02 04:56:50.46	207.99	22.69	-23.0	-23.4	17.8	0.00e+00	0	44	0	2657091584	6	3735
2026-01-02 04:56:51.47	207.97	22.54	-23.1	-23.4	17.9	0.00e+00	0	44	0	2664431616	6	3738
2026-01-02 04:56:52.47	207.95	22.39	-23.0	-23.3	17.9	1.17e-03	0	44	0	2671771648	6	3718
2026-01-02 04:56:53.47	207.92	22.25	-23.0	-23.3	17.9	1.15e-03	0	44	0	2679111680	6	3713
2026-01-02 04:56:54.48	207.90	22.11	-23.0	-23.4	17.9	0.00e+00	0	44	0	2686451712	6	3732
2026-01-02 04:56:55.48	207.88	21.96	-23.0	-23.4	17.9	0.00e+00	0	44	0	2693791744	6	3740
2026-01-02 04:56:56.48	207.85	21.82	-23.0	-23.3	17.9	1.21e-03	0	44	0	2701131776	6	3719
2026-01-02 04:56:57.48	207.83	21.68	-23.0	-23.3	17.9	0.00e+00	0	44	0	2708471808	6	3729
2026-01-02 04:56:58.49	207.81	21.54	-23.0	-23.3	17.9	1.20e-03	0	44	0	2715811840	6	3709
2026-01-02 04:56:59.50	207.79	21.40	-23.0	-23.3	17.9	1.17e-03	0	44	0	2723151872	6	3714
2026-01-02 04:57:00.50	207.77	21.26	-23.0	-23.3	17.9	0.00e+00	0	44	0	2729443328	6	3728
2026-01-02 04:57:01.51	207.75	21.12	-23.0	-23.3	17.9	1.20e-03	0	44	0	2736783360	6	3715
2026-01-02 04:57:02.51	207.72	20.99	-23.1	-23.5	17.8	1.10e-03	0	44	0	2744123392	6	3772
2026-01-02 04:57:03.51	207.70	20.85	-23.2	-23.7	17.6	0.00e+00	0	44	0	2751463424	6	3818
2026-01-02 04:57:04.51	207.68	20.71	-23.0	-23.4	17.9	1.09e-03	0	44	0	2758803456	6	3733
2026-01-02 04:57:05.52	207.66	20.58	-23.1	-23.4	17.8	0.00e+00	0	44	0	2766143488	6	3755
2026-01-02 04:57:06.52	207.64	20.44	-23.2	-23.7	17.7	0.00e+00	0	44	0	2773483520	6	3809
2026-01-02 04:57:07.52	207.62	20.31	-23.3	-23.8	17.5	1.27e-03	0	44	0	2780823552	6	3840
2026-01-02 04:57:08.52	207.60	20.18	-23.2	-23.6	17.7	2.82e-04	0	44	0	2788163584	6	3799
2026-01-02 04:57:09.53	207.58	20.05	-23.2	-23.7	17.6	0.00e+00	0	44	0	2794455040	6	3818
2026-01-02 04:57:10.53	207.56	19.91	-23.2	-23.7	17.6	0.00e+00	0	44	0	2801795072	6	3808
2026-01-02 04:57:11.53	207.54	19.78	-23.3	-23.8	17.6	1.13e-03	0	44	0	2809135104	6	3843
2026-01-02 04:57:12.53	207.52	19.65	-23.3	-24.0	17.5	0.00e+00	0	44	0	2816475136	6	3872
2026-01-02 04:57:13.53	207.51	19.52	-23.3	-24.0	17.5	0.00e+00	0	44	0	2823815168	6	3876
2026-01-02 04:57:14.54	207.49	19.39	-23.5	-24.4	17.3	1.25e-03	0	44	0	2831155200	6	3974
2026-01-02 04:57:15.54	207.47	19.27	-23.6	-23.9	17.2	0.00e+00	0	44	0	2838495232	7	3765
2026-01-02 04:57:16.54	207.45	19.14	-23.5	-23.8	17.3	1.27e-03	0	44	0	2845835264	7	3721
2026-01-02 04:57:17.54	207.43	19.01	-23.5	-23.8	17.3	0.00e+00	0	44	0	2853175296	7	3731
2026-01-02 04:57:18.54	207.41	18.89	-23.6	-24.2	17.1	0.00e+00	0	44	0	2860515328	7	3816
2026-01-02 04:57:19.55	207.40	18.76	-23.7	-24.2	17.1	0.00e+00	0	44	0	2867855360	7	3822
2026-01-02 04:57:20.55	207.38	18.64	-23.6	-24.0	17.2	0.00e+00	0	44	0	2874146816	7	3786
2026-01-02 04:57:21.54	207.36	18.51	-23.7	-24.2	17.1	0.00e+00	0	44	0	2881486848	7	3825
2026-01-02 04:57:22.55	207.34	18.39	-23.8	-24.4	17.0	0.00e+00	0	44	0	2888826880	7	3868
2026-01-02 04:57:23.54	207.33	18.27	-23.8	-24.4	17.0	0.00e+00	0	44	0	2896166912	7	3874
2026-01-02 04:57:24.55	207.31	18.14	-23.9	-24.6	16.8	0.00e+00	0	44	0	2903506944	7	3912
2026-01-02 04:57:25.55	207.29	18.02	-23.8	-24.5	16.9	0.00e+00	0	44	0	2910846976	7	3900
2026-01-02 04:57:26.55	207.28	17.90	-23.9	-24.7	16.8	0.00e+00	0	44	0	2918187008	7	3952
2026-01-02 04:57:27.55	207.26	17.78	-24.0	-24.9	16.7	0.00e+00	0	44	0	2925527040	7	3980
2026-01-02 04:57:28.56	207.24	17.66	-24.2	-24.7	16.5	0.00e+00	0	44	0	2932867072	8	3846
2026-01-02 04:57:29.56	207.23	17.54	-24.4	-25.2	16.3	0.00e+00	0	44	0	2939158528	8	3957
2026-01-02 04:57:30.57	207.21	17.42	-24.5	-25.5	16.1	0.00e+00	0	44	0	2946498560	8	4026
2026-01-02 04:57:31.57	207.20	17.30	-24.2	-24.8	16.5	0.00e+00	0	44	0	2953838592	8	3861
2026-01-02 04:57:32.56	207.18	17.19	-24.1	-24.5	16.6	0.00e+00	0	44	0	2961178624	8	3800
2026-01-02 04:57:33.57	207.16	17.07	-24.1	-24.7	16.5	0.00e+00	0	44	0	2968518656	8	3826
2026-01-02 04:57:34.58	207.15	16.95	-24.1	-24.7	16.5	0.00e+00	0	44	0	2975858688	8	3838
2026-01-02 04:57:35.58	207.13	16.84	-24.2	-24.8	16.5	0.00e+00	0	44	0	2983198720	8	3866
2026-01-02 04:57:36.58	207.12	16.72	-24.2	-24.8	16.5	0.00e+00	0	44	0	2990538752	8	3864
2026-01-02 04:57:37.58	207.10	16.61	-24.2	-24.7	16.5	0.00e+00	0	44	0	2997878784	8	3847
2026-01-02 04:57:38.59	207.09	16.49	-24.2	-24.8	16.5	0.00e+00	0	44	0	3005218816	8	3848
2026-01-02 04:57:39.59	207.07	16.38	-24.3	-24.9	16.4	0.00e+00	0	44	0	3012558848	8	3895
2026-01-02 04:57:40.59	207.06	16.26	-24.3	-25.1	16.3	0.00e+00	0	44	0	3018850304	8	3930
2026-01-02 04:57:41.59	207.04	16.15	-24.3	-25.0	16.3	0.00e+00	0	44	0	3026190336	8	3923
2026-01-02 04:57:42.59	207.03	16.04	-24.3	-25.1	16.3	0.00e+00	0	44	0	3033530368	8	3926
2026-01-02 04:57:43.59	207.02	15.93	-24.4	-25.2	16.2	0.00e+00	0	44	0	3040870400	8	3954
2026-01-02 04:57:44.60	207.00	15.82	-24.4	-25.2	16.2	0.00e+00	0	44	0	3048210432	8	3948
2026-01-02 04:57:45.60	206.99	15.71	-24.4	-25.3	16.2	0.00e+00	0	44	0	3055550464	8	3983
2026-01-02 04:57:46.61	206.97	15.59	-24.5	-25.6	16.0	0.00e+00	0	44	0	3062890496	8	4047
2026-01-02 04:57:47.61	206.96	15.49	-24.7	-25.4	15.8	0.00e+00	0	44	0	3070230528	9	3892
2026-01-02 04:57:48.61	206.95	15.38	-24.7	-25.5	15.8	0.00e+00	0	44	0	3077570560	9	3917
2026-01-02 04:57:49.62	206.93	15.27	-24.8	-25.7	15.7	0.00e+00	0	44	0	3083862016	9	3967
2026-01-02 04:57:50.63	206.92	15.16	-24.6	-25.3	15.9	0.00e+00	0	44	0	3091202048	9	3865
2026-01-02 04:57:51.63	206.91	15.05	-24.7	-25.4	15.8	0.00e+00	0	44	0	3099590656	9	3901
2026-01-02 04:57:52.63	206.89	14.94	-24.7	-25.3	15.8	0.00e+00	0	44	0	3105882112	9	3889
2026-01-02 04:57:53.64	206.88	14.83	-24.9	-25.8	15.6	0.00e+00	0	44	0	3113222144	9	3991
2026-01-02 04:57:54.64	206.87	14.73	-24.8	-25.6	15.7	0.00e+00	0	44	0	3120562176	9	3948
2026-01-02 04:57:55.65	206.85	14.62	-24.7	-25.3	15.8	0.00e+00	0	44	0	3127902208	9	3878
2026-01-02 04:57:56.65	206.84	14.52	-24.5	-25.0	16.0	0.00e+00	0	44	0	3135242240	9	3812
2026-01-02 04:57:57.65	206.83	14.41	-24.5	-25.1	16.0	0.00e+00	0	44	0	3142582272	9	3824
2026-01-02 04:57:58.65	206.82	14.31	-24.5	-25.0	16.0	0.00e+00	0	44	0	3149922304	9	3817
2026-01-02 04:57:59.65	206.80	14.20	-24.6	-25.3	15.8	0.00e+00	0	44	0	3157262336	9	3871
2026-01-02 04:58:00.65	206.79	14.10	-24.6	-25.2	15.8	0.00e+00	0	44	0	3164602368	9	3853
2026-01-02 04:58:01.66	206.78	14.00	-24.6	-25.2	15.9	0.00e+00	0	44	0	3170893824	9	3855
2026-01-02 04:58:02.67	206.77	13.89	-24.6	-25.2	15.9	0.00e+00	0	44	0	3178233856	9	3851
2026-01-02 04:58:03.66	206.76	13.79	-24.5	-25.0	15.9	0.00e+00	0	44	0	3185573888	9	3818
2026-01-02 04:58:04.67	206.74	13.69	-24.5	-25.0	16.0	0.00e+00	0	44	0	3192913920	9	3812
2026-01-02 04:58:05.67	206.73	13.59	-24.5	-25.1	15.9	0.00e+00	0	44	0	3200253952	9	3830
2026-01-02 04:58:06.68	206.72	13.49	-24.6	-25.2	15.8	0.00e+00	0	44	0	3207593984	9	3856
2026-01-02 04:58:07.69	206.71	13.38	-24.7	-25.5	15.7	0.00e+00	0	44	0	3214934016	9	3928
2026-01-02 04:58:08.70	206.70	13.28	-24.7	-25.4	15.7	0.00e+00	0	44	0	3222274048	9	3903
2026-01-02 04:58:09.70	206.69	13.18	-24.8	-25.6	15.6	0.00e+00	0	44	0	3229614080	9	3946
2026-01-02 04:58:10.71	206.67	13.08	-24.8	-25.6	15.6	0.00e+00	0	44	0	3236954112	9	3962
2026-01-02 04:58:11.71	206.66	12.98	-24.9	-25.8	15.5	0.00e+00	0	44	0	3244294144	9	4008
2026-01-02 04:58:12.72	206.65	12.88	-24.8	-25.7	15.5	5.70e-06	0	44	0	3250585600	9	3979
2026-01-02 04:58:13.72	206.64	12.79	-24.8	-25.6	15.6	0.00e+00	0	44	0	3257925632	9	3948
2026-01-02 04:58:14.72	206.63	12.69	-24.9	-25.8	15.5	0.00e+00	0	44	0	3265265664	9	4001
2026-01-02 04:58:15.72	206.62	12.59	-24.9	-25.8	15.4	4.50e-06	0	44	0	3272605696	9	4010
2026-01-02 04:58:16.72	206.61	12.50	-24.9	-26.0	15.3	0.00e+00	0	44	0	3279945728	9	4050
2026-01-02 04:58:17.72	206.60	12.40	-25.0	-26.1	15.3	0.00e+00	0	44	0	3287285760	9	4075
2026-01-02 04:58:18.73	206.59	12.30	-25.0	-26.1	15.3	5.70e-06	0	44	0	3294625792	9	4088
2026-01-02 04:58:19.73	206.58	12.21	-24.8	-26.0	13.3	0.00e+00	0	44	0	3301965824	9	4104
2026-01-02 04:58:20.74	206.57	12.11	-25.3	-26.2	14.8	0.00e+00	0	44	0	3309305856	10	4009
2026-01-02 04:58:21.74	206.56	12.01	-25.7	-26.6	14.4	1.41e-03	0	44	0	3316645888	11	3997
2026-01-02 04:58:22.74	206.55	11.92	-25.5	-26.6	14.7	0.00e+00	0	44	0	3323985920	10	4111
2026-01-02 04:58:23.75	206.54	11.82	-25.2	-26.0	15.1	0.00e+00	0	44	0	3331325952	10	3949
2026-01-02 04:58:24.75	206.53	11.73	-25.2	-26.1	15.0	4.50e-06	0	44	0	3337617408	10	3970
2026-01-02 04:58:25.75	206.52	11.64	-25.3	-26.2	14.9	0.00e+00	0	44	0	3344957440	10	4002
2026-01-02 04:58:26.76	206.51	11.54	-25.3	-26.2	14.9	2.63e-05	0	44	0	3352297472	10	4004
2026-01-02 04:58:27.76	206.50	11.45	-25.3	-26.3	14.8	5.70e-06	0	44	0	3359637504	10	4040
2026-01-02 04:58:28.76	206.49	11.36	-25.7	-26.6	14.4	1.10e-06	0	44	0	3366977536	11	4009
2026-01-02 04:58:29.76	206.48	11.27	-25.5	-26.3	14.6	2.86e-05	0	44	0	3374317568	11	3913
2026-01-02 04:58:30.76	206.47	11.17	-25.5	-26.2	14.7	6.80e-06	0	44	0	3381657600	11	3892
2026-01-02 04:58:31.76	206.46	11.08	-25.5	-26.6	14.7	1.25e-03	0	44	0	3388997632	10	4105
2026-01-02 04:58:32.76	206.45	10.99	-25.6	-26.8	14.5	0.00e+00	0	44	0	3395289088	10	4167
2026-01-02 04:58:33.75	206.44	10.90	-25.7	-26.6	14.4	6.80e-06	0	44	0	3402629120	11	3987
2026-01-02 04:58:34.76	206.43	10.81	-25.6	-26.5	14.4	1.50e-03	0	44	0	3409969152	11	3974
2026-01-02 04:58:35.76	206.42	10.72	-25.5	-26.2	14.6	0.00e+00	0	44	0	3417309184	11	3895
2026-01-02 04:58:36.77	206.41	10.63	-25.5	-26.7	14.6	1.40e-03	0	44	0	3424649216	10	4129
2026-01-02 04:58:37.77	206.40	10.54	-25.5	-26.8	14.5	1.10e-03	0	44	0	3431989248	10	4154
2026-01-02 04:58:38.77	206.39	10.45	-25.6	-26.5	14.4	0.00e+00	0	44	0	3439329280	11	3967
2026-01-02 04:58:39.77	206.39	10.36	-25.6	-26.5	14.4	1.50e-03	0	44	0	3446669312	11	3969
2026-01-02 04:58:40.78	206.38	10.27	-25.7	-26.7	14.3	1.10e-06	0	44	0	3454009344	11	4021
2026-01-02 04:58:41.78	206.37	10.19	-25.7	-26.5	14.3	4.92e-05	0	44	0	3460300800	11	3981
2026-01-02 04:58:42.78	206.36	10.10	-25.5	-26.3	14.5	1.36e-03	0	44	0	3468689408	11	3913
2026-01-02 04:58:43.78	206.35	10.01	-25.6	-26.4	14.5	1.38e-03	0	44	0	3476029440	11	3942
2026-01-02 04:58:44.78	206.34	9.92	-25.7	-26.6	14.3	8.23e-05	0	44	0	3482320896	11	4002
2026-01-02 04:58:45.79	206.33	9.83	-25.6	-26.4	14.4	1.22e-03	0	44	0	3489660928	11	3952
2026-01-02 04:58:46.79	206.33	9.75	-25.8	-26.8	14.2	1.49e-03	0	44	0	3497000960	11	4057
2026-01-02 04:58:47.79	206.32	9.66	-25.8	-26.8	14.2	9.61e-05	0	44	0	3504340992	11	4045
2026-01-02 04:58:48.79	206.31	9.58	-25.9	-27.0	14.1	1.47e-03	0	44	0	3511681024	11	4096
2026-01-02 04:58:49.79	206.30	9.49	-25.8	-26.9	14.2	1.44e-03	0	44	0	3519021056	11	4066
2026-01-02 04:58:50.80	206.29	9.40	-25.8	-26.8	14.2	0.00e+00	0	44	0	3526361088	11	4052
2026-01-02 04:58:51.80	206.28	9.32	-25.7	-26.7	14.3	1.40e-03	0	44	0	3533701120	11	4016
2026-01-02 04:58:52.81	206.28	9.23	-25.8	-26.9	14.1	1.66e-03	0	44	0	3541041152	11	4068
2026-01-02 04:58:53.81	206.27	9.15	-25.8	-26.8	14.2	2.20e-06	0	44	0	3547332608	11	4064
2026-01-02 04:58:54.81	206.26	9.06	-25.9	-27.1	14.0	1.58e-03	0	44	0	3554672640	11	4119
2026-01-02 04:58:55.81	206.25	8.98	-25.9	-27.0	14.0	4.50e-06	0	44	0	3562012672	11	4108
2026-01-02 04:58:56.82	206.25	8.90	-25.8	-26.9	14.1	1.71e-05	0	44	0	3569352704	11	4078
2026-01-02 04:58:57.81	206.24	8.81	-25.8	-26.8	14.1	1.64e-03	0	44	0	3576692736	11	4052
2026-01-02 04:58:58.81	206.23	8.73	-25.9	-27.2	13.9	1.10e-06	0	44	0	3584032768	11	4146
2026-01-02 04:58:59.82	206.22	8.65	-25.9	-27.0	14.0	2.20e-06	0	44	0	3591372800	11	4106
2026-01-02 04:59:00.83	206.22	8.56	-26.0	-27.4	13.8	3.40e-06	0	44	0	3598712832	11	4205
2026-01-02 04:59:01.83	206.21	8.48	-25.9	-27.2	13.9	1.69e-03	0	44	0	3606052864	11	4168
2026-01-02 04:59:02.84	206.20	8.40	-25.9	-27.1	13.9	3.40e-06	0	44	0	3613392896	11	4148
2026-01-02 04:59:03.84	206.19	8.32	-25.9	-27.1	13.9	0.00e+00	0	44	0	3620732928	11	4137
2026-01-02 04:59:04.85	206.19	8.23	-26.1	-27.1	13.6	1.70e-03	0	44	0	3627024384	12	4037
2026-01-02 04:59:05.85	206.18	8.15	-26.1	-27.2	13.5	1.02e-05	0	44	0	3634364416	12	4050
2026-01-02 04:59:06.85	206.17	8.07	-26.2	-27.3	13.4	5.70e-06	0	44	0	3641704448	12	4087
2026-01-02 04:59:07.85	206.16	7.99	-26.4	-27.7	13.2	1.25e-05	0	44	0	3649044480	12	4203
2026-01-02 04:59:08.86	206.16	7.91	-26.3	-27.5	13.3	1.60e-05	0	44	0	3656384512	12	4147
2026-01-02 04:59:09.86	206.15	7.83	-26.6	-28.2	12.9	1.77e-03	0	44	0	3663724544	12	4335
2026-01-02 04:59:10.87	206.14	7.75	-26.6	-27.7	12.9	3.89e-05	0	44	0	3671064576	13	4086
2026-01-02 04:59:11.87	206.14	7.67	-26.5	-27.5	12.9	3.77e-05	0	44	0	3678404608	13	4052
2026-01-02 04:59:12.88	206.13	7.59	-26.3	-27.6	13.2	2.05e-05	0	44	0	3685744640	12	4157
2026-01-02 04:59:13.88	206.12	7.51	-26.4	-27.7	13.1	1.60e-05	0	44	0	3693084672	12	4201
2026-01-02 04:59:14.89	206.12	7.43	-26.2	-27.3	13.4	9.10e-06	0	44	0	3700424704	12	4077
2026-01-02 04:59:15.89	206.11	7.35	-26.1	-27.0	13.5	9.10e-06	0	44	0	3707764736	12	4024
2026-01-02 04:59:16.89	206.10	7.27	-26.0	-26.9	13.5	3.40e-06	0	44	0	3714056192	12	3999
2026-01-02 04:59:17.90	206.10	7.19	-26.1	-27.1	13.5	1.48e-05	0	44	0	3721396224	12	4030
2026-01-02 04:59:18.90	206.09	7.12	-26.2	-27.4	13.3	8.00e-06	0	44	0	3728736256	12	4117
2026-01-02 04:59:19.90	206.08	7.04	-32.4	-41.7	3.8	8.45e-01	0	44	104	3731881984	24	10550

#Closed at: 2026-01-02 04:59:20
#Recorded file [3731 MB]: D:/data/31010_260102_075041.dat