passes_logs/2026/01/02/R2M6_AANII_01/R2M6_AANII_01__20260102_035405_AQUA_rec.log

#Pass ID: 20260102_035405_AQUA
#Satellite: AQUA
#Configuration: AQUA
#almurnet v.1.7.20240730
#Start time: 2026-01-02 03:54:05

#Version: 2.2.20231116
#Station: R2M6_AANII_01
#Location: 30.233357 lon 59.946436 lat
#TLE: 1 27424U 02022A   25365.92641127  .00002078  00000+0  42628-3 0  9999
#TLE: 2 27424  98.4058 327.1196 0001962  94.7781 340.6230 14.61783896258835

#Time	Az	El	Level	Level2	SNR	BER	BlckErr	Temp	State	Recorded	gain1	gain2
2026-01-02 03:54:05.40	4.93	6.98	-32.4	-50.5	3.8	7.45e-01	0	41	0	0	25	28814
2026-01-02 03:54:06.40	4.82	7.04	-31.9	-48.4	3.8	7.45e-01	0	40	104	0	24	23935
2026-01-02 03:54:07.41	4.70	7.10	-31.9	-48.3	3.8	7.43e-01	0	41	104	0	24	23755
2026-01-02 03:54:08.41	4.58	7.17	-32.0	-48.6	3.8	7.44e-01	0	41	104	0	24	24349
2026-01-02 03:54:09.41	4.47	7.23	-32.0	-48.9	3.8	7.48e-01	0	41	104	0	24	25045
2026-01-02 03:54:10.42	4.35	7.30	-32.2	-49.0	3.8	7.44e-01	0	41	104	0	25	24871
2026-01-02 03:54:11.42	4.23	7.36	-32.3	-49.5	3.8	7.45e-01	0	41	104	0	25	26002
2026-01-02 03:54:12.43	4.11	7.42	-32.4	-49.9	3.8	7.44e-01	0	41	104	0	25	27007
2026-01-02 03:54:13.43	3.99	7.49	-32.2	-48.9	3.8	7.47e-01	0	41	104	0	25	24637
2026-01-02 03:54:14.43	3.87	7.55	-32.1	-48.5	3.8	7.47e-01	0	41	104	0	25	23641
2026-01-02 03:54:15.43	3.75	7.62	-31.9	-48.1	3.8	7.44e-01	0	41	104	0	24	23117
2026-01-02 03:54:16.44	3.63	7.68	-31.8	-47.3	3.8	7.44e-01	0	41	104	0	24	21624
2026-01-02 03:54:17.44	3.51	7.75	-31.3	-46.0	3.8	7.44e-01	0	41	104	0	23	19521
2026-01-02 03:54:18.44	3.39	7.81	-31.3	-46.0	3.8	7.47e-01	0	41	104	0	23	19536
2026-01-02 03:54:19.44	3.27	7.87	-31.5	-46.5	3.8	7.46e-01	0	41	104	0	23	20407
2026-01-02 03:54:20.45	3.14	7.94	-31.7	-47.0	3.8	7.46e-01	0	41	104	0	24	21026
2026-01-02 03:54:21.46	3.02	8.00	-31.5	-46.7	3.8	7.48e-01	0	41	104	0	23	20718
2026-01-02 03:54:22.46	2.89	8.07	-31.4	-46.5	3.8	7.46e-01	0	41	104	0	23	20321
2026-01-02 03:54:23.46	2.77	8.13	-31.3	-46.0	3.8	7.48e-01	0	41	104	0	23	19496
2026-01-02 03:54:24.47	2.64	8.20	-31.2	-45.5	3.8	7.40e-01	0	41	104	0	23	18807
2026-01-02 03:54:25.48	2.52	8.26	-31.3	-46.1	3.8	7.45e-01	0	41	104	0	23	19674
2026-01-02 03:54:26.49	2.39	8.33	-31.6	-46.9	3.8	7.42e-01	0	41	104	0	23	21056
2026-01-02 03:54:27.49	2.26	8.39	-31.7	-47.1	3.8	7.43e-01	0	41	104	0	24	21130
2026-01-02 03:54:28.50	2.13	8.46	-31.8	-47.5	3.8	7.43e-01	0	41	104	0	24	21938
2026-01-02 03:54:29.50	2.00	8.52	-32.0	-48.3	3.8	7.43e-01	0	41	104	0	24	23500
2026-01-02 03:54:30.50	1.87	8.59	-32.2	-48.8	3.8	7.44e-01	0	41	104	0	25	24206
2026-01-02 03:54:31.51	1.74	8.65	-32.2	-48.9	3.8	7.49e-01	0	41	104	0	25	24490
2026-01-02 03:54:32.51	1.61	8.72	-32.2	-48.7	3.8	7.45e-01	0	41	104	0	25	24065
2026-01-02 03:54:33.51	1.48	8.79	-32.2	-48.8	3.8	7.44e-01	0	41	104	0	25	24317
2026-01-02 03:54:34.52	1.35	8.85	-32.2	-48.7	3.8	7.47e-01	0	41	104	0	25	23966
2026-01-02 03:54:35.53	1.21	8.92	-32.2	-48.8	3.8	7.43e-01	0	41	104	0	25	24257
2026-01-02 03:54:36.53	1.08	8.98	-32.2	-48.7	3.8	7.47e-01	0	41	104	0	25	24010
2026-01-02 03:54:37.53	0.95	9.05	-32.3	-49.1	3.8	7.44e-01	0	41	104	0	25	25053
2026-01-02 03:54:38.53	0.81	9.11	-32.4	-49.6	3.8	7.44e-01	0	42	104	0	25	26219
2026-01-02 03:54:39.54	0.68	9.18	-32.5	-50.1	3.8	7.48e-01	0	42	104	0	25	27507
2026-01-02 03:54:40.54	0.54	9.24	-32.6	-50.6	3.8	7.43e-01	0	42	104	0	25	28589
2026-01-02 03:54:41.54	0.40	9.31	-32.6	-50.4	3.8	7.48e-01	0	41	104	0	26	27851
2026-01-02 03:54:42.55	0.26	9.38	-32.6	-50.2	3.8	7.46e-01	0	42	104	0	26	27390
2026-01-02 03:54:43.55	0.13	9.44	-32.5	-50.4	3.8	7.44e-01	0	42	104	0	25	28019
2026-01-02 03:54:44.56	359.99	9.51	-32.5	-50.4	3.8	7.45e-01	0	41	104	0	25	27998
2026-01-02 03:54:45.56	359.85	9.57	-32.5	-50.3	3.8	7.44e-01	0	42	104	0	25	27725
2026-01-02 03:54:46.56	359.71	9.64	-32.5	-50.1	3.8	7.43e-01	0	42	104	0	25	27267
2026-01-02 03:54:47.57	359.57	9.71	-32.5	-50.0	3.8	7.42e-01	0	42	104	0	25	26983
2026-01-02 03:54:48.57	359.42	9.77	-32.5	-49.8	3.8	7.43e-01	0	42	104	0	25	26514
2026-01-02 03:54:49.58	359.28	9.84	-32.5	-49.7	3.8	7.46e-01	0	42	104	0	25	26246
2026-01-02 03:54:50.58	359.14	9.90	-32.4	-49.6	3.8	7.45e-01	0	42	104	0	25	25865
2026-01-02 03:54:51.58	358.99	9.97	-32.4	-49.2	3.8	7.47e-01	0	42	104	0	25	24947
2026-01-02 03:54:52.59	358.85	10.04	-32.3	-48.7	3.8	7.45e-01	0	42	104	0	25	23937
2026-01-02 03:54:53.59	358.70	10.10	-32.1	-48.1	3.8	7.44e-01	0	42	104	0	25	22538
2026-01-02 03:54:54.59	358.56	10.17	-32.0	-47.3	3.8	7.46e-01	0	42	104	0	25	21014
2026-01-02 03:54:55.59	358.41	10.23	-31.7	-46.6	3.8	7.45e-01	0	42	104	0	24	20045
2026-01-02 03:54:56.60	358.26	10.30	-31.6	-46.2	3.8	7.41e-01	0	42	104	0	24	19375
2026-01-02 03:54:57.60	358.12	10.37	-31.6	-46.4	3.8	7.43e-01	0	42	104	0	24	19646
2026-01-02 03:54:58.61	357.96	10.43	-31.7	-46.8	3.8	7.43e-01	0	42	104	0	24	20314
2026-01-02 03:54:59.61	357.82	10.50	-31.9	-47.3	3.8	7.46e-01	0	42	104	0	24	21288
2026-01-02 03:55:00.60	357.67	10.57	-32.1	-48.1	3.8	7.45e-01	0	42	104	0	24	22688
2026-01-02 03:55:01.61	357.51	10.63	-32.2	-48.0	3.8	7.44e-01	0	42	104	0	25	22208
2026-01-02 03:55:02.61	357.36	10.70	-32.0	-47.4	3.8	7.44e-01	0	42	104	0	25	21214
2026-01-02 03:55:03.61	357.21	10.76	-31.8	-47.0	3.8	7.44e-01	0	42	104	0	24	20701
2026-01-02 03:55:04.62	357.06	10.83	-31.5	-45.9	3.8	7.43e-01	0	42	104	0	24	18871
2026-01-02 03:55:05.63	356.90	10.90	-31.3	-45.5	3.8	7.46e-01	0	42	104	0	23	18518
2026-01-02 03:55:06.63	356.75	10.96	-31.7	-46.6	3.8	7.43e-01	0	42	104	0	24	19960
2026-01-02 03:55:07.64	356.59	11.03	-31.9	-47.3	3.8	7.45e-01	0	42	104	0	24	21197
2026-01-02 03:55:08.65	356.43	11.10	-32.1	-48.1	3.8	7.45e-01	0	42	104	0	24	22745
2026-01-02 03:55:09.65	356.27	11.16	-32.3	-48.7	3.8	7.47e-01	0	42	104	0	25	23606
2026-01-02 03:55:10.66	356.11	11.23	-32.2	-47.9	3.8	7.46e-01	0	42	104	0	25	21962
2026-01-02 03:55:11.67	355.95	11.30	-31.8	-46.5	3.8	7.42e-01	0	42	104	0	25	19585
2026-01-02 03:55:12.66	355.80	11.36	-31.5	-45.8	3.8	7.44e-01	0	42	104	0	24	18641
2026-01-02 03:55:13.67	355.63	11.43	-30.2	-44.6	3.8	7.47e-01	0	42	104	0	23	18938
2026-01-02 03:55:14.68	355.47	11.50	-30.6	-44.6	3.8	7.43e-01	0	42	104	0	22	18077
2026-01-02 03:55:15.67	355.31	11.56	-31.7	-46.1	3.8	7.48e-01	0	42	104	0	23	18877
2026-01-02 03:55:16.67	355.15	11.63	-31.6	-46.7	3.8	7.45e-01	0	42	104	0	23	20583
2026-01-02 03:55:17.67	354.99	11.70	-31.8	-47.1	3.8	7.47e-01	0	42	104	0	24	20733
2026-01-02 03:55:18.68	354.82	11.76	-32.0	-47.9	3.8	7.44e-01	0	43	104	0	24	22453
2026-01-02 03:55:19.68	354.65	11.83	-32.2	-48.0	3.8	7.42e-01	0	42	104	0	25	22312
2026-01-02 03:55:20.68	354.49	11.89	-32.3	-48.6	3.8	7.45e-01	0	42	104	0	25	23413
2026-01-02 03:55:21.68	354.32	11.96	-32.3	-48.7	3.8	7.47e-01	0	42	104	0	25	23780
2026-01-02 03:55:22.69	354.15	12.03	-32.4	-48.8	3.8	7.43e-01	0	42	104	0	25	23837
2026-01-02 03:55:23.70	353.98	12.09	-32.4	-48.9	3.8	7.44e-01	0	42	104	0	25	24044
2026-01-02 03:55:24.71	353.81	12.16	-32.4	-49.1	3.8	7.47e-01	0	42	104	0	25	24578
2026-01-02 03:55:25.71	353.64	12.23	-32.4	-49.2	3.8	7.45e-01	0	42	104	0	25	24803
2026-01-02 03:55:26.71	353.47	12.29	-32.5	-49.7	3.8	7.44e-01	0	42	104	0	25	25882
2026-01-02 03:55:27.72	353.30	12.36	-32.6	-49.6	3.8	7.45e-01	0	42	104	0	26	25383
2026-01-02 03:55:28.73	353.12	12.42	-32.7	-50.1	3.8	7.45e-01	0	42	104	0	26	26694
2026-01-02 03:55:29.73	352.95	12.49	-32.8	-50.5	3.8	7.47e-01	0	42	104	0	26	27720
2026-01-02 03:55:30.72	352.78	12.56	-32.8	-50.4	3.8	7.40e-01	0	42	104	0	26	27456
2026-01-02 03:55:31.72	352.60	12.62	-32.7	-50.0	3.8	7.44e-01	0	42	104	0	26	26346
2026-01-02 03:55:32.72	352.43	12.69	-32.6	-49.5	3.8	7.45e-01	0	42	104	0	26	25188
2026-01-02 03:55:33.73	352.25	12.75	-32.5	-49.2	3.8	7.45e-01	0	42	104	0	25	24848
2026-01-02 03:55:34.73	352.07	12.82	-32.5	-49.2	3.8	7.46e-01	0	42	104	0	25	24702
2026-01-02 03:55:35.73	351.89	12.88	-32.4	-49.0	3.8	7.44e-01	0	43	104	0	25	24361
2026-01-02 03:55:36.73	351.71	12.95	-32.4	-48.7	3.8	7.46e-01	0	42	104	0	25	23546
2026-01-02 03:55:37.74	351.53	13.02	-32.3	-48.5	3.8	7.47e-01	0	42	104	0	25	23153
2026-01-02 03:55:38.75	351.35	13.08	-32.3	-48.3	3.8	7.43e-01	0	42	104	0	25	22862
2026-01-02 03:55:39.75	351.16	13.15	-32.2	-48.2	3.8	7.47e-01	0	42	104	0	25	22490
2026-01-02 03:55:40.76	350.98	13.21	-32.1	-47.6	3.8	7.42e-01	0	43	104	0	25	21427
2026-01-02 03:55:41.77	350.79	13.28	-31.9	-46.7	3.8	7.45e-01	0	43	104	0	25	19752
2026-01-02 03:55:42.76	350.61	13.34	-31.6	-46.0	3.8	7.45e-01	0	43	104	0	24	19026
2026-01-02 03:55:43.77	350.42	13.41	-31.2	-45.3	3.8	7.45e-01	0	42	104	0	23	18234
2026-01-02 03:55:44.78	350.24	13.47	-30.9	-44.3	3.8	7.44e-01	0	42	104	0	23	16736
2026-01-02 03:55:45.79	350.05	13.54	-30.6	-43.7	3.8	7.46e-01	0	42	104	0	22	16418
2026-01-02 03:55:46.79	349.86	13.60	-30.6	-44.3	3.8	7.41e-01	0	42	104	0	21	17529
2026-01-02 03:55:47.80	349.67	13.67	-30.7	-44.0	3.8	7.45e-01	0	42	104	0	22	16735
2026-01-02 03:55:48.79	349.48	13.73	-30.8	-44.3	3.8	7.45e-01	0	42	104	0	22	17121
2026-01-02 03:55:49.80	349.29	13.80	-31.0	-45.1	3.8	7.44e-01	0	42	104	0	22	18189
2026-01-02 03:55:50.80	349.09	13.86	-31.2	-45.3	3.8	7.42e-01	0	43	104	0	23	18079
2026-01-02 03:55:51.81	348.90	13.92	-31.5	-46.3	3.8	7.44e-01	0	43	104	0	23	19587
2026-01-02 03:55:52.81	348.70	13.99	-31.4	-45.7	3.8	7.46e-01	0	42	104	0	23	18769
2026-01-02 03:55:53.82	348.51	14.05	-31.2	-45.3	3.8	7.44e-01	0	43	104	0	23	18165
2026-01-02 03:55:54.82	348.31	14.12	-31.4	-45.6	3.8	7.43e-01	0	43	104	0	23	18617
2026-01-02 03:55:55.83	348.11	14.18	-31.7	-46.4	3.8	7.48e-01	0	43	104	0	24	19419
2026-01-02 03:55:56.83	347.92	14.24	-32.1	-47.8	3.8	7.46e-01	0	43	104	0	24	22002
2026-01-02 03:55:57.83	347.72	14.31	-32.3	-48.4	3.8	7.43e-01	0	43	104	0	25	22853
2026-01-02 03:55:58.83	347.52	14.37	-32.5	-48.9	3.8	7.44e-01	0	43	104	0	25	23915
2026-01-02 03:55:59.84	347.32	14.43	-32.7	-49.6	3.8	7.43e-01	0	42	104	0	26	25047
2026-01-02 03:56:00.84	347.12	14.50	-32.6	-48.8	3.8	7.45e-01	0	43	104	0	26	23268
2026-01-02 03:56:01.84	346.91	14.56	-32.3	-41.0	4.8	7.11e-01	0	42	104	0	25	9740
2026-01-02 03:56:02.84	346.71	14.62	-32.2	-39.5	11.8	6.09e-01	0	43	104	0	25	8370
2026-01-02 03:56:03.84	346.51	14.68	-32.2	-39.3	12.1	6.04e-01	0	43	0	1048576	25	8178
2026-01-02 03:56:04.84	346.30	14.74	-32.0	-38.8	12.8	6.03e-01	0	43	0	3145728	24	7920
2026-01-02 03:56:05.84	346.10	14.81	-31.8	-37.9	13.5	6.04e-01	0	43	0	4718592	24	7277
2026-01-02 03:56:06.85	345.89	14.87	-31.6	-37.3	14.1	6.03e-01	0	43	0	6815744	24	6907
2026-01-02 03:56:07.85	345.68	14.93	-31.6	-37.3	14.1	6.01e-01	0	43	0	8388608	24	6922
2026-01-02 03:56:08.86	345.47	14.99	-31.5	-37.0	14.3	6.00e-01	0	43	0	10485760	24	6713
2026-01-02 03:56:09.86	345.26	15.05	-31.8	-38.0	13.6	6.03e-01	0	43	0	12058624	24	7347
2026-01-02 03:56:10.87	345.05	15.11	-31.5	-36.8	14.4	6.05e-01	0	43	0	14155776	24	6642
2026-01-02 03:56:11.88	344.83	15.18	-31.1	-35.2	15.6	5.99e-01	0	43	0	16252928	24	5783
2026-01-02 03:56:12.88	344.62	15.24	-30.8	-34.7	16.3	6.02e-01	0	42	0	17825792	23	5679
2026-01-02 03:56:13.89	344.41	15.30	-30.3	-34.3	17.2	6.04e-01	0	43	0	19922944	21	5722
2026-01-02 03:56:14.89	344.19	15.36	-30.2	-33.9	17.5	5.99e-01	0	43	0	21495808	21	5539
2026-01-02 03:56:15.88	343.98	15.42	-30.0	-33.8	17.9	6.00e-01	0	43	0	23592960	20	5590
2026-01-02 03:56:16.89	343.76	15.48	-29.8	-33.3	18.2	6.00e-01	0	43	0	25165824	20	5396
2026-01-02 03:56:17.90	343.54	15.54	-29.4	-32.2	18.9	6.00e-01	0	43	0	27262976	20	4966
2026-01-02 03:56:18.90	343.32	15.60	-29.5	-32.6	18.8	6.00e-01	0	43	0	29360128	20	5103
2026-01-02 03:56:19.91	343.10	15.65	-29.5	-32.6	18.8	6.00e-01	0	43	0	30932992	20	5111
2026-01-02 03:56:20.91	342.88	15.71	-29.4	-32.2	19.0	6.01e-01	0	43	0	33030144	20	4965
2026-01-02 03:56:21.91	342.66	15.77	-29.5	-32.8	19.0	6.01e-01	0	43	0	35127296	19	5299
2026-01-02 03:56:22.92	342.44	15.83	-29.5	-32.9	19.0	6.01e-01	0	43	0	36700160	19	5339
2026-01-02 03:56:23.92	342.22	15.89	-29.4	-32.7	19.1	6.01e-01	0	43	0	38797312	19	5256
2026-01-02 03:56:24.93	341.99	15.95	-29.4	-32.7	19.1	5.98e-01	0	43	0	40370176	19	5246
2026-01-02 03:56:25.93	341.77	16.00	-29.5	-33.0	18.9	5.99e-01	0	43	0	42467328	19	5374
2026-01-02 03:56:26.94	341.54	16.06	-29.4	-32.8	19.0	6.02e-01	0	43	0	44564480	19	5291
2026-01-02 03:56:27.94	341.31	16.12	-29.6	-33.1	18.8	6.02e-01	0	43	0	46137344	19	5417
2026-01-02 03:56:28.95	341.08	16.18	-29.6	-32.8	18.6	6.01e-01	0	42	0	48234496	20	5184
2026-01-02 03:56:29.95	340.85	16.23	-29.9	-33.5	18.2	6.02e-01	0	43	0	49807360	20	5449
2026-01-02 03:56:30.96	340.62	16.29	-29.6	-32.7	18.6	6.00e-01	0	43	0	51904512	20	5170
2026-01-02 03:56:31.96	340.39	16.34	-29.4	-32.3	19.0	6.03e-01	0	43	0	53477376	20	4997
2026-01-02 03:56:32.96	340.16	16.40	-29.5	-32.4	18.9	6.02e-01	0	43	0	55574528	20	5049
2026-01-02 03:56:33.95	339.93	16.45	-29.5	-32.8	19.0	6.02e-01	0	43	0	57671680	19	5304
2026-01-02 03:56:34.95	339.70	16.51	-29.5	-32.5	18.8	6.00e-01	0	43	0	59244544	20	5063
2026-01-02 03:56:35.96	339.46	16.56	-29.4	-32.2	19.1	5.99e-01	0	43	0	61341696	20	4956
2026-01-02 03:56:36.97	339.23	16.62	-29.5	-32.8	19.0	6.01e-01	0	43	0	62914560	19	5302
2026-01-02 03:56:37.97	338.99	16.67	-29.4	-32.6	19.1	6.00e-01	0	43	0	65011712	19	5230
2026-01-02 03:56:38.97	338.76	16.72	-29.4	-32.6	19.2	6.01e-01	0	43	0	67108864	19	5200
2026-01-02 03:56:39.97	338.52	16.78	-29.4	-32.7	19.1	5.99e-01	0	43	0	68681728	19	5247
2026-01-02 03:56:40.97	338.28	16.83	-29.6	-33.0	18.8	6.04e-01	0	43	0	70778880	19	5379
2026-01-02 03:56:41.97	338.04	16.88	-29.7	-33.0	18.6	6.01e-01	0	43	0	72351744	20	5244
2026-01-02 03:56:42.97	337.80	16.93	-29.8	-33.4	18.3	6.02e-01	0	43	0	74448896	20	5423
2026-01-02 03:56:43.98	337.56	16.99	-29.8	-33.2	18.4	6.02e-01	0	43	0	76021760	20	5358
2026-01-02 03:56:44.98	337.32	17.04	-29.7	-32.9	18.7	6.03e-01	0	43	0	78118912	20	5215
2026-01-02 03:56:45.99	337.07	17.09	-29.6	-32.7	18.7	6.00e-01	0	43	0	80216064	20	5165
2026-01-02 03:56:46.99	336.83	17.14	-29.7	-33.0	18.6	6.02e-01	0	42	0	81788928	20	5246
2026-01-02 03:56:48.00	336.58	17.19	-29.6	-32.6	18.9	6.02e-01	0	43	0	83886080	20	5112
2026-01-02 03:56:49.00	336.33	17.24	-29.8	-33.2	18.4	6.00e-01	0	43	0	85458944	20	5333
2026-01-02 03:56:50.01	336.09	17.29	-29.6	-32.7	18.7	6.01e-01	0	43	0	87556096	20	5161
2026-01-02 03:56:51.01	335.84	17.34	-29.5	-32.4	18.9	6.01e-01	0	43	0	89653248	20	5039
2026-01-02 03:56:52.01	335.59	17.38	-29.5	-32.9	19.0	6.00e-01	0	43	0	91226112	19	5322
2026-01-02 03:56:53.01	335.34	17.43	-29.5	-32.5	18.9	6.04e-01	0	43	0	93323264	20	5064
2026-01-02 03:56:54.01	335.09	17.48	-29.6	-32.8	18.7	6.01e-01	0	43	0	94896128	20	5187
2026-01-02 03:56:55.01	334.84	17.53	-29.5	-32.4	19.0	6.01e-01	0	43	0	96993280	20	5036
2026-01-02 03:56:56.01	334.59	17.57	-29.5	-32.9	19.1	6.01e-01	0	43	0	99090432	19	5301
2026-01-02 03:56:57.02	334.34	17.62	-29.5	-33.0	19.0	5.99e-01	0	43	0	100663296	19	5354
2026-01-02 03:56:58.02	334.08	17.67	-29.5	-32.8	19.1	6.01e-01	0	43	0	102760448	19	5291
2026-01-02 03:56:59.02	333.83	17.71	-29.6	-33.0	19.0	6.01e-01	0	43	0	104333312	19	5357
2026-01-02 03:57:00.03	333.57	17.76	-29.5	-32.9	19.0	6.00e-01	0	43	0	106430464	19	5303
2026-01-02 03:57:01.03	333.32	17.80	-29.6	-33.1	18.9	5.99e-01	0	43	0	108003328	19	5382
2026-01-02 03:57:02.03	333.06	17.84	-29.5	-32.9	19.1	6.02e-01	0	43	0	110100480	19	5321
2026-01-02 03:57:03.03	332.80	17.89	-29.6	-32.6	18.9	6.01e-01	0	43	0	112197632	20	5091
2026-01-02 03:57:04.04	332.54	17.93	-29.8	-33.2	18.5	5.99e-01	0	43	0	113770496	20	5320
2026-01-02 03:57:05.03	332.29	17.97	-29.6	-32.8	18.7	5.99e-01	0	43	0	115867648	20	5188
2026-01-02 03:57:06.04	332.03	18.01	-29.4	-32.2	19.0	6.01e-01	0	43	0	117440512	20	4977
2026-01-02 03:57:07.04	331.77	18.06	-29.4	-32.7	19.2	6.02e-01	0	43	0	119537664	19	5241
2026-01-02 03:57:08.05	331.50	18.10	-29.6	-33.1	19.0	6.01e-01	0	43	0	121634816	19	5383
2026-01-02 03:57:09.06	331.24	18.14	-28.3	-31.4	18.6	6.06e-01	0	43	0	123207680	20	5170
2026-01-02 03:57:10.06	330.98	18.18	-29.7	-33.4	18.5	6.00e-01	0	43	0	125304832	19	5526
2026-01-02 03:57:11.06	330.71	18.22	-29.5	-32.4	19.0	5.98e-01	0	43	0	126877696	20	5029
2026-01-02 03:57:12.06	330.45	18.26	-29.6	-33.0	17.2	6.07e-01	0	43	0	128974848	19	5358
2026-01-02 03:57:13.06	330.18	18.29	-29.5	-32.5	17.1	6.01e-01	0	43	0	130547712	20	5086
2026-01-02 03:57:14.06	329.92	18.33	-29.5	-32.4	19.0	6.02e-01	0	43	0	132644864	20	5032
2026-01-02 03:57:15.06	329.65	18.37	-29.7	-32.9	17.0	6.02e-01	0	43	0	134742016	20	5215
2026-01-02 03:57:16.07	329.38	18.41	-29.6	-32.6	16.7	5.98e-01	0	43	0	136314880	20	5088
2026-01-02 03:57:17.07	329.12	18.44	-29.4	-32.2	19.1	6.02e-01	0	43	0	138412032	20	4947
2026-01-02 03:57:18.08	328.85	18.48	-29.5	-32.9	17.5	5.99e-01	0	43	0	139984896	19	5305
2026-01-02 03:57:19.08	328.58	18.51	-29.5	-32.8	18.6	6.00e-01	0	43	0	142082048	19	5272
2026-01-02 03:57:20.08	328.31	18.55	-29.6	-33.0	19.0	5.98e-01	0	43	0	144179200	19	5353
2026-01-02 03:57:21.08	328.04	18.58	-29.5	-32.9	18.9	5.99e-01	0	43	0	145752064	19	5296
2026-01-02 03:57:22.09	327.76	18.61	-29.5	-32.8	19.2	6.02e-01	0	43	0	147849216	19	5274
2026-01-02 03:57:23.10	327.49	18.65	-29.5	-32.9	19.0	6.02e-01	0	43	0	149422080	19	5324
2026-01-02 03:57:24.09	327.22	18.68	-29.6	-33.0	19.0	6.00e-01	0	43	0	151519232	19	5349
2026-01-02 03:57:25.09	326.95	18.71	-29.5	-32.5	18.9	6.01e-01	0	43	0	153616384	20	5066
2026-01-02 03:57:26.09	326.68	18.74	-29.7	-32.9	18.7	5.99e-01	0	43	0	155189248	20	5221
2026-01-02 03:57:27.09	326.40	18.77	-29.9	-33.4	18.3	6.01e-01	0	43	0	157286400	20	5412
2026-01-02 03:57:28.09	326.13	18.80	-29.6	-32.7	18.8	6.01e-01	0	43	0	158859264	20	5141
2026-01-02 03:57:29.10	325.85	18.83	-29.7	-33.0	18.6	6.02e-01	0	43	0	160956416	20	5267
2026-01-02 03:57:30.10	325.57	18.86	-29.9	-33.4	18.4	5.99e-01	0	43	0	162529280	20	5413
2026-01-02 03:57:31.10	325.30	18.88	-29.8	-33.2	18.5	6.00e-01	0	43	0	164626432	20	5341
2026-01-02 03:57:32.10	325.02	18.91	-29.8	-33.2	18.5	6.02e-01	0	43	0	166723584	20	5339
2026-01-02 03:57:33.11	324.74	18.94	-29.8	-33.1	18.6	5.99e-01	0	43	0	168296448	20	5283
2026-01-02 03:57:34.11	324.46	18.96	-29.8	-33.2	18.5	6.00e-01	0	43	0	170393600	20	5338
2026-01-02 03:57:35.11	324.19	18.99	-29.9	-33.6	18.3	6.02e-01	0	43	0	171966464	20	5491
2026-01-02 03:57:36.11	323.91	19.01	-30.2	-33.8	17.7	6.01e-01	0	43	0	174063616	21	5461
2026-01-02 03:57:37.12	323.63	19.04	-30.0	-33.2	18.1	6.01e-01	0	43	0	175636480	21	5236
2026-01-02 03:57:38.12	323.35	19.06	-29.8	-32.6	18.6	6.01e-01	0	43	0	177733632	21	4997
2026-01-02 03:57:39.13	323.06	19.08	-29.5	-32.5	18.9	6.01e-01	0	43	0	179830784	20	5061
2026-01-02 03:57:40.13	322.78	19.11	-29.6	-32.7	18.8	6.00e-01	0	43	0	181403648	20	5141
2026-01-02 03:57:41.14	322.50	19.13	-29.7	-32.9	18.7	6.01e-01	0	43	0	183500800	20	5192
2026-01-02 03:57:42.14	322.22	19.15	-29.6	-32.7	18.8	6.00e-01	0	43	0	185073664	20	5141
2026-01-02 03:57:43.15	321.93	19.17	-29.6	-32.8	18.7	6.00e-01	0	43	0	187170816	20	5182
2026-01-02 03:57:44.15	321.65	19.19	-29.6	-32.8	18.7	6.00e-01	0	43	0	189267968	20	5161
2026-01-02 03:57:45.15	321.37	19.21	-29.7	-32.8	18.7	6.00e-01	0	43	0	190840832	20	5190
2026-01-02 03:57:46.15	321.09	19.22	-29.5	-32.4	19.0	6.06e-01	0	43	0	192937984	20	5036
2026-01-02 03:57:47.15	320.80	19.24	-29.7	-32.9	18.7	6.00e-01	0	43	0	194510848	20	5210
2026-01-02 03:57:48.16	320.52	19.26	-29.5	-32.5	19.0	6.03e-01	0	43	0	196608000	20	5068
2026-01-02 03:57:49.16	320.23	19.27	-29.9	-33.6	18.2	6.03e-01	0	43	0	198705152	20	5477
2026-01-02 03:57:50.17	319.95	19.29	-29.6	-32.6	18.9	5.98e-01	0	43	0	200278016	20	5099
2026-01-02 03:57:51.18	319.66	19.30	-29.7	-33.0	18.6	6.00e-01	0	43	0	202375168	20	5259
2026-01-02 03:57:52.18	319.38	19.32	-29.7	-33.0	18.6	6.03e-01	0	43	0	203948032	20	5261
2026-01-02 03:57:53.19	319.09	19.33	-29.6	-32.6	18.8	6.00e-01	0	43	0	206045184	20	5110
2026-01-02 03:57:54.19	318.80	19.34	-29.9	-33.5	18.4	6.03e-01	0	43	0	208142336	20	5439
2026-01-02 03:57:55.20	318.51	19.35	-29.6	-32.5	18.9	6.02e-01	0	43	0	209715200	20	5077
2026-01-02 03:57:56.20	318.23	19.36	-29.7	-33.0	18.6	6.03e-01	0	43	0	211812352	20	5258
2026-01-02 03:57:57.20	317.94	19.37	-29.5	-32.5	19.0	6.01e-01	0	43	0	213385216	20	5054
2026-01-02 03:57:58.20	317.66	19.38	-30.0	-33.7	18.2	5.99e-01	0	43	0	215482368	20	5521
2026-01-02 03:57:59.20	317.37	19.39	-29.6	-33.1	19.0	6.01e-01	0	43	0	217579520	19	5395
2026-01-02 03:58:00.21	317.08	19.40	-29.5	-32.5	18.9	6.02e-01	0	43	0	219152384	20	5067
2026-01-02 03:58:01.21	316.79	19.41	-29.8	-33.2	18.5	5.99e-01	0	43	0	221249536	20	5324
2026-01-02 03:58:02.22	316.51	19.41	-29.3	-32.0	19.2	6.01e-01	0	43	0	222822400	20	4879
2026-01-02 03:58:03.23	316.22	19.42	-29.9	-33.5	18.3	6.01e-01	0	43	0	224919552	20	5446
2026-01-02 03:58:04.23	315.93	19.43	-29.5	-32.8	19.2	6.01e-01	0	43	0	226492416	19	5266
2026-01-02 03:58:05.23	315.64	19.43	-29.8	-33.1	18.5	6.03e-01	0	43	0	228589568	20	5301
2026-01-02 03:58:06.24	315.35	19.43	-29.8	-33.1	18.6	5.99e-01	0	43	0	230686720	20	5302
2026-01-02 03:58:07.24	315.06	19.44	-29.7	-32.8	18.7	5.98e-01	0	43	0	232259584	20	5193
2026-01-02 03:58:08.25	314.77	19.44	-30.2	-33.8	17.9	6.01e-01	0	43	0	234356736	21	5452
2026-01-02 03:58:09.26	314.48	19.44	-29.7	-32.9	18.6	6.00e-01	0	43	0	235929600	20	5207
2026-01-02 03:58:10.26	314.20	19.44	-29.9	-33.7	18.1	6.00e-01	0	43	0	238026752	20	5517
2026-01-02 03:58:11.26	313.91	19.44	-30.1	-34.0	18.1	6.01e-01	0	43	0	240123904	20	5655
2026-01-02 03:58:12.26	313.62	19.44	-30.2	-33.7	17.9	5.99e-01	0	43	0	241696768	21	5401
2026-01-02 03:58:13.27	313.33	19.44	-30.1	-33.6	17.9	5.99e-01	0	43	0	243793920	21	5381
2026-01-02 03:58:14.27	313.04	19.44	-29.5	-32.5	19.0	5.99e-01	0	43	0	245366784	20	5043
2026-01-02 03:58:15.27	312.76	19.44	-29.7	-33.1	18.6	6.01e-01	0	43	0	247463936	20	5278
2026-01-02 03:58:16.27	312.47	19.43	-29.7	-32.9	18.7	6.03e-01	0	43	0	249561088	20	5221
2026-01-02 03:58:17.27	312.18	19.43	-29.6	-32.8	18.8	6.02e-01	0	43	0	251133952	20	5169
2026-01-02 03:58:18.27	311.89	19.42	-29.8	-33.1	18.6	6.01e-01	0	43	0	253231104	20	5296
2026-01-02 03:58:19.27	311.61	19.42	-30.0	-33.6	18.3	6.03e-01	0	43	0	254803968	20	5503
2026-01-02 03:58:20.27	311.32	19.41	-29.8	-33.2	18.6	6.02e-01	0	43	0	256901120	20	5343
2026-01-02 03:58:21.27	311.03	19.40	-29.6	-32.6	18.9	6.01e-01	0	43	0	258473984	20	5107
2026-01-02 03:58:22.27	310.75	19.40	-30.0	-33.9	18.1	6.00e-01	0	43	0	260571136	20	5614
2026-01-02 03:58:23.27	310.46	19.39	-29.9	-33.6	18.3	6.02e-01	0	43	0	262668288	20	5466
2026-01-02 03:58:24.28	310.17	19.38	-29.8	-33.2	18.5	6.00e-01	0	43	0	264241152	20	5316
2026-01-02 03:58:25.29	309.88	19.37	-30.1	-33.6	18.0	5.98e-01	0	43	0	266338304	21	5367
2026-01-02 03:58:26.29	309.60	19.36	-30.2	-33.9	17.7	6.00e-01	0	43	0	267911168	21	5512
2026-01-02 03:58:27.29	309.31	19.35	-29.5	-32.5	18.9	6.02e-01	0	43	0	270008320	20	5065
2026-01-02 03:58:28.29	309.03	19.33	-29.9	-33.4	18.3	6.02e-01	0	43	0	271581184	20	5410
2026-01-02 03:58:29.29	308.74	19.32	-29.5	-32.4	19.1	6.01e-01	0	43	0	273678336	20	5010
2026-01-02 03:58:30.29	308.46	19.31	-29.5	-32.5	18.9	6.02e-01	0	43	0	275775488	20	5062
2026-01-02 03:58:31.29	308.17	19.29	-29.6	-32.7	18.8	6.01e-01	0	43	0	277348352	20	5135
2026-01-02 03:58:32.29	307.89	19.28	-30.2	-33.8	17.9	6.00e-01	0	43	0	279445504	21	5455
2026-01-02 03:58:33.28	307.61	19.26	-29.6	-32.0	18.9	6.01e-01	0	43	0	281018368	21	4776
2026-01-02 03:58:34.28	307.32	19.25	-29.9	-33.5	18.3	6.00e-01	0	43	0	283115520	20	5446
2026-01-02 03:58:35.28	307.04	19.23	-29.5	-32.3	19.0	6.01e-01	0	43	0	284688384	20	4996
2026-01-02 03:58:36.28	306.75	19.21	-29.4	-32.6	19.3	5.99e-01	0	43	0	286785536	19	5196
2026-01-02 03:58:37.28	306.47	19.19	-29.6	-32.8	18.6	6.01e-01	0	43	0	288882688	20	5179
2026-01-02 03:58:38.28	306.19	19.18	-29.6	-32.6	18.9	6.01e-01	0	43	0	290455552	20	5110
2026-01-02 03:58:39.29	305.90	19.16	-29.7	-32.9	18.5	6.01e-01	0	43	0	292552704	20	5226
2026-01-02 03:58:40.29	305.62	19.14	-29.5	-32.7	19.2	6.01e-01	0	43	0	294649856	19	5248
2026-01-02 03:58:41.30	305.34	19.11	-29.6	-32.6	18.8	6.03e-01	0	43	0	296222720	20	5092
2026-01-02 03:58:42.30	305.06	19.09	-29.1	-31.8	19.8	5.99e-01	0	43	0	298319872	19	4913
2026-01-02 03:58:43.30	304.78	19.07	-29.9	-33.1	18.0	6.01e-01	0	43	0	299892736	21	5217
2026-01-02 03:58:44.31	304.49	19.05	-29.2	-31.6	19.5	6.00e-01	0	43	0	301989888	20	4759
2026-01-02 03:58:45.31	304.21	19.02	-29.8	-33.3	18.3	6.02e-01	0	43	0	303562752	20	5370
2026-01-02 03:58:46.31	303.94	19.00	-29.1	-31.4	19.6	6.04e-01	0	43	0	305659904	20	4672
2026-01-02 03:58:47.31	303.66	18.97	-29.6	-32.7	18.8	6.02e-01	0	43	0	307757056	20	5148
2026-01-02 03:58:48.31	303.38	18.95	-29.1	-31.3	19.5	6.02e-01	0	43	0	309329920	20	4662
2026-01-02 03:58:49.31	303.10	18.92	-29.4	-32.7	19.2	6.00e-01	0	43	0	311427072	19	5254
2026-01-02 03:58:50.31	302.82	18.90	-29.3	-31.9	19.0	6.02e-01	0	43	0	312999936	20	4859
2026-01-02 03:58:51.32	302.54	18.87	-29.3	-32.4	19.4	6.00e-01	0	43	0	315097088	19	5144
2026-01-02 03:58:52.32	302.27	18.84	-29.5	-32.5	18.8	6.01e-01	0	43	0	316669952	20	5079
2026-01-02 03:58:53.33	301.99	18.81	-29.3	-32.3	19.5	6.04e-01	0	43	0	318767104	19	5080
2026-01-02 03:58:54.33	301.72	18.78	-29.5	-32.9	19.1	6.01e-01	0	43	0	320864256	19	5313
2026-01-02 03:58:55.33	301.44	18.75	-29.3	-32.3	19.3	6.02e-01	0	43	0	322437120	19	5088
2026-01-02 03:58:56.33	301.17	18.72	-29.2	-32.1	19.6	6.01e-01	0	43	0	324534272	19	5005
2026-01-02 03:58:57.34	300.89	18.69	-29.5	-32.4	18.8	6.00e-01	0	43	0	326107136	20	5051
2026-01-02 03:58:58.34	300.62	18.66	-29.1	-31.8	19.7	6.02e-01	0	43	0	328204288	19	4920
2026-01-02 03:58:59.35	300.34	18.63	-29.9	-33.5	18.0	6.01e-01	0	43	0	330301440	20	5479
2026-01-02 03:59:00.35	300.07	18.59	-29.0	-31.5	19.9	6.01e-01	0	43	0	331874304	19	4814
2026-01-02 03:59:01.35	299.80	18.56	-29.5	-32.9	19.0	5.99e-01	0	43	0	333971456	19	5314
2026-01-02 03:59:02.35	299.53	18.52	-29.2	-32.1	19.5	6.01e-01	0	43	0	335544320	19	5035
2026-01-02 03:59:03.35	299.26	18.49	-29.3	-32.2	19.5	6.03e-01	0	43	0	337641472	19	5059
2026-01-02 03:59:04.35	298.99	18.45	-29.8	-33.4	18.4	6.01e-01	0	43	0	339738624	20	5406
2026-01-02 03:59:05.36	298.72	18.42	-29.0	-31.0	19.8	6.01e-01	0	43	0	341311488	20	4546
2026-01-02 03:59:06.37	298.45	18.38	-29.7	-33.0	18.6	5.99e-01	0	43	0	343408640	20	5269
2026-01-02 03:59:07.37	298.18	18.34	-29.1	-31.5	19.5	6.02e-01	0	43	0	344981504	20	4703
2026-01-02 03:59:08.37	297.92	18.31	-29.5	-32.9	19.0	6.02e-01	0	43	0	347078656	19	5319
2026-01-02 03:59:09.38	297.65	18.27	-29.2	-32.2	19.4	6.01e-01	0	43	0	348651520	19	5057
2026-01-02 03:59:10.38	297.39	18.23	-29.6	-33.1	18.8	5.98e-01	0	43	0	350748672	19	5418
2026-01-02 03:59:11.38	297.12	18.19	-29.2	-31.5	19.4	5.99e-01	0	43	0	352845824	20	4718
2026-01-02 03:59:12.38	296.86	18.15	-29.7	-32.9	18.6	6.00e-01	0	43	0	354418688	20	5224
2026-01-02 03:59:13.38	296.60	18.11	-29.6	-32.9	18.6	6.01e-01	0	43	0	356515840	20	5212
2026-01-02 03:59:14.39	296.33	18.07	-29.5	-32.5	18.9	6.02e-01	0	43	0	358088704	20	5053
2026-01-02 03:59:15.39	296.07	18.03	-29.7	-33.1	18.4	6.01e-01	0	43	0	360185856	20	5289
2026-01-02 03:59:16.39	295.81	17.99	-29.3	-32.0	19.2	6.01e-01	0	43	0	362283008	20	4886
2026-01-02 03:59:17.39	295.55	17.94	-29.5	-33.1	18.9	6.00e-01	0	43	0	363855872	19	5404
2026-01-02 03:59:18.40	295.29	17.90	-28.5	-31.7	18.7	5.99e-01	0	43	0	365953024	20	5201
2026-01-02 03:59:19.40	295.03	17.86	-28.3	-31.5	18.8	6.04e-01	0	43	0	367525888	19	5216
2026-01-02 03:59:20.41	294.77	17.81	-29.8	-33.8	17.8	6.01e-01	0	43	0	369623040	19	5692
2026-01-02 03:59:21.41	294.52	17.77	-29.6	-32.9	16.9	6.07e-01	0	43	0	371195904	20	5253
2026-01-02 03:59:22.41	294.26	17.73	-29.4	-32.6	19.0	6.01e-01	0	43	0	373293056	19	5207
2026-01-02 03:59:23.41	294.00	17.68	-29.5	-32.6	16.2	6.01e-01	0	43	0	375390208	20	5139
2026-01-02 03:59:24.41	293.75	17.63	-29.6	-32.7	16.6	6.11e-01	0	43	0	376963072	20	5148
2026-01-02 03:59:25.42	293.49	17.59	-29.4	-32.7	18.8	6.01e-01	0	43	0	379060224	19	5263
2026-01-02 03:59:26.42	293.24	17.54	-29.2	-32.1	17.3	6.03e-01	0	43	0	380633088	19	5008
2026-01-02 03:59:27.42	292.99	17.49	-29.6	-33.1	16.8	6.03e-01	0	43	0	382730240	19	5404
2026-01-02 03:59:28.43	292.74	17.45	-29.2	-32.0	19.4	5.99e-01	0	43	0	384827392	19	5006
2026-01-02 03:59:29.43	292.49	17.40	-29.3	-32.4	18.3	6.02e-01	0	43	0	386400256	19	5150
2026-01-02 03:59:30.44	292.24	17.35	-29.7	-33.1	18.3	6.01e-01	0	43	0	388497408	20	5295
2026-01-02 03:59:31.44	291.99	17.30	-29.1	-31.3	19.5	5.99e-01	0	43	0	390070272	20	4661
2026-01-02 03:59:32.43	291.74	17.25	-29.2	-32.1	19.4	6.02e-01	0	43	0	392167424	19	5025
2026-01-02 03:59:33.44	291.49	17.20	-29.5	-33.1	18.8	6.02e-01	0	43	0	393740288	19	5398
2026-01-02 03:59:34.44	291.25	17.15	-29.2	-32.1	19.5	5.99e-01	0	43	0	395837440	19	5025
2026-01-02 03:59:35.44	291.00	17.10	-29.6	-33.2	18.8	6.02e-01	0	43	0	397934592	19	5440
2026-01-02 03:59:36.44	290.76	17.05	-29.5	-33.0	18.9	6.00e-01	0	43	0	399507456	19	5358
2026-01-02 03:59:37.45	290.52	17.00	-29.1	-32.3	19.6	6.01e-01	0	43	0	401604608	18	5214
2026-01-02 03:59:38.45	290.27	16.95	-29.5	-33.1	18.8	6.02e-01	0	43	0	403177472	19	5402
2026-01-02 03:59:39.45	290.03	16.90	-29.2	-32.3	19.2	6.01e-01	0	43	0	405274624	19	5097
2026-01-02 03:59:40.44	289.79	16.85	-29.0	-32.0	19.8	6.01e-01	0	43	0	407371776	18	5107
2026-01-02 03:59:41.45	289.55	16.79	-29.5	-33.1	18.8	6.02e-01	0	43	0	408944640	19	5408
2026-01-02 03:59:42.45	289.31	16.74	-29.6	-32.7	18.6	6.02e-01	0	43	0	411041792	20	5170
2026-01-02 03:59:43.45	289.08	16.69	-29.2	-32.0	19.5	6.01e-01	0	43	0	412614656	19	4993
2026-01-02 03:59:44.45	288.84	16.63	-29.6	-32.7	18.7	6.01e-01	0	43	0	414711808	20	5159
2026-01-02 03:59:45.45	288.60	16.58	-29.9	-33.7	17.9	6.01e-01	0	43	0	416808960	20	5572
2026-01-02 03:59:46.46	288.37	16.52	-29.3	-32.5	19.1	5.98e-01	0	43	0	418381824	19	5157
2026-01-02 03:59:47.46	288.13	16.47	-29.4	-32.8	19.0	5.98e-01	0	43	0	420478976	19	5279
2026-01-02 03:59:48.46	287.90	16.41	-29.8	-33.5	18.1	6.02e-01	0	43	0	422051840	20	5467
2026-01-02 03:59:49.47	287.66	16.36	-29.5	-32.9	18.8	6.01e-01	0	43	0	424148992	19	5348
2026-01-02 03:59:50.47	287.43	16.30	-29.5	-32.9	18.9	6.01e-01	0	43	0	425721856	19	5328
2026-01-02 03:59:51.47	287.20	16.25	-30.0	-33.9	17.9	6.01e-01	0	43	0	427819008	20	5663
2026-01-02 03:59:52.47	286.97	16.19	-30.2	-34.0	17.4	5.99e-01	0	43	0	429916160	21	5559
2026-01-02 03:59:53.48	286.74	16.13	-29.6	-32.8	18.6	6.03e-01	0	43	0	431489024	20	5177
2026-01-02 03:59:54.49	286.51	16.08	-29.6	-32.7	18.6	6.02e-01	0	43	0	433586176	20	5166
2026-01-02 03:59:55.48	286.29	16.02	-29.7	-33.1	18.3	6.02e-01	0	43	0	435159040	20	5337
2026-01-02 03:59:56.48	286.06	15.96	-29.4	-32.4	18.7	6.00e-01	0	43	0	437256192	20	5040
2026-01-02 03:59:57.49	285.84	15.90	-29.4	-32.7	19.0	5.97e-01	0	43	0	438829056	19	5264
2026-01-02 03:59:58.49	285.61	15.85	-29.6	-32.8	18.5	5.99e-01	0	43	0	440926208	20	5222
2026-01-02 03:59:59.49	285.39	15.79	-29.8	-33.5	18.1	6.00e-01	0	43	0	443023360	20	5471
2026-01-02 04:00:00.49	285.17	15.73	-29.7	-33.1	18.2	6.02e-01	0	43	0	444596224	20	5345
2026-01-02 04:00:01.49	284.95	15.67	-29.4	-32.8	18.9	6.02e-01	0	43	0	446693376	19	5303
2026-01-02 04:00:02.49	284.73	15.61	-29.5	-33.0	18.8	6.00e-01	0	43	0	448266240	19	5379
2026-01-02 04:00:03.50	284.50	15.55	-29.8	-33.5	18.1	5.99e-01	0	43	0	450363392	20	5472
2026-01-02 04:00:04.51	284.28	15.49	-29.7	-33.1	18.3	6.00e-01	0	43	0	452460544	20	5335
2026-01-02 04:00:05.52	284.06	15.43	-29.4	-32.8	18.9	6.01e-01	0	43	0	454033408	19	5283
2026-01-02 04:00:06.52	283.85	15.37	-29.5	-32.9	18.8	5.99e-01	0	43	0	456130560	19	5360
2026-01-02 04:00:07.53	283.63	15.31	-29.5	-32.6	18.6	6.01e-01	0	43	0	457703424	20	5152
2026-01-02 04:00:08.53	283.42	15.25	-29.7	-33.0	18.4	6.03e-01	0	43	0	459800576	20	5292
2026-01-02 04:00:09.53	283.20	15.19	-29.6	-32.7	18.5	6.01e-01	0	43	0	461897728	20	5190
2026-01-02 04:00:10.54	282.99	15.13	-29.4	-32.2	18.9	6.03e-01	0	43	0	463470592	20	4986
2026-01-02 04:00:11.53	282.78	15.07	-29.5	-33.1	18.7	6.00e-01	0	43	0	465567744	19	5413
2026-01-02 04:00:12.53	282.57	15.01	-29.5	-32.6	18.6	6.02e-01	0	43	0	467140608	20	5120
2026-01-02 04:00:13.53	282.36	14.95	-29.4	-32.4	18.6	6.00e-01	0	43	0	469237760	20	5077
2026-01-02 04:00:14.53	282.15	14.88	-29.3	-32.5	19.0	6.01e-01	0	43	0	470810624	19	5189
2026-01-02 04:00:15.53	281.94	14.82	-29.2	-32.3	19.2	6.03e-01	0	43	0	472907776	19	5131
2026-01-02 04:00:16.54	281.73	14.76	-29.4	-32.7	19.0	6.01e-01	0	43	0	475004928	19	5262
2026-01-02 04:00:17.54	281.53	14.70	-29.4	-32.7	18.9	6.02e-01	0	43	0	476577792	19	5282
2026-01-02 04:00:18.54	281.32	14.63	-29.2	-32.1	19.3	6.02e-01	0	43	0	478674944	19	5051
2026-01-02 04:00:19.55	281.11	14.57	-29.2	-32.3	19.2	5.97e-01	0	43	0	480247808	19	5122
2026-01-02 04:00:20.55	280.91	14.51	-29.3	-32.5	19.0	6.02e-01	0	43	0	482344960	19	5218
2026-01-02 04:00:21.55	280.71	14.45	-29.3	-32.4	19.1	6.04e-01	0	43	0	484442112	19	5179
2026-01-02 04:00:22.56	280.50	14.38	-29.2	-32.1	19.3	6.00e-01	0	43	0	486014976	19	5062
2026-01-02 04:00:23.56	280.30	14.32	-29.4	-32.7	18.9	6.01e-01	0	43	0	488112128	19	5280
2026-01-02 04:00:24.56	280.10	14.26	-29.5	-32.9	18.7	6.01e-01	0	43	0	489684992	19	5375
2026-01-02 04:00:25.56	279.91	14.19	-29.5	-33.0	18.7	6.03e-01	0	43	0	491782144	19	5395
2026-01-02 04:00:26.57	279.71	14.13	-29.4	-32.9	18.7	6.00e-01	0	43	0	493355008	19	5349
2026-01-02 04:00:27.57	279.51	14.06	-29.3	-32.6	18.9	6.00e-01	0	43	0	495452160	19	5228
2026-01-02 04:00:28.58	279.31	14.00	-29.6	-33.3	18.5	6.01e-01	0	43	0	497549312	19	5518
2026-01-02 04:00:29.58	279.12	13.94	-29.7	-33.3	18.1	6.02e-01	0	43	0	499122176	20	5427
2026-01-02 04:00:30.58	278.92	13.87	-29.7	-33.3	18.1	6.01e-01	0	43	0	501219328	20	5418
2026-01-02 04:00:31.58	278.73	13.81	-29.4	-32.5	18.6	6.00e-01	0	43	0	502792192	20	5105
2026-01-02 04:00:32.58	278.54	13.74	-29.4	-32.7	18.9	6.00e-01	0	43	0	504889344	19	5280
2026-01-02 04:00:33.58	278.34	13.68	-29.5	-33.0	18.7	6.00e-01	0	43	0	506986496	19	5412
2026-01-02 04:00:34.58	278.15	13.61	-29.6	-33.0	18.3	6.01e-01	0	43	0	508559360	20	5295
2026-01-02 04:00:35.58	277.96	13.55	-29.9	-33.6	17.9	6.02e-01	0	43	0	510656512	20	5555
2026-01-02 04:00:36.58	277.78	13.48	-29.7	-33.2	18.1	6.03e-01	0	43	0	512229376	20	5392
2026-01-02 04:00:37.58	277.59	13.42	-29.5	-32.5	18.6	6.00e-01	0	43	0	514326528	20	5108
2026-01-02 04:00:38.59	277.40	13.35	-29.4	-32.7	18.8	5.98e-01	0	43	0	515899392	19	5290
2026-01-02 04:00:39.59	277.21	13.29	-29.4	-32.9	18.7	6.00e-01	0	43	0	517996544	19	5376
2026-01-02 04:00:40.60	277.03	13.22	-29.5	-33.0	18.6	6.02e-01	0	43	0	520093696	19	5404
2026-01-02 04:00:41.60	276.84	13.16	-29.5	-33.0	18.6	5.99e-01	0	43	0	521666560	19	5403
2026-01-02 04:00:42.61	276.66	13.09	-29.4	-32.9	18.6	6.00e-01	0	43	0	523763712	19	5374
2026-01-02 04:00:43.61	276.47	13.03	-29.3	-32.4	19.0	6.01e-01	0	43	0	525336576	19	5179
2026-01-02 04:00:44.61	276.29	12.96	-29.2	-32.3	19.0	6.01e-01	0	43	0	527433728	19	5140
2026-01-02 04:00:45.60	276.11	12.90	-29.3	-32.5	18.9	6.02e-01	0	43	0	529530880	19	5204
2026-01-02 04:00:46.61	275.93	12.83	-29.2	-32.4	19.0	6.01e-01	0	43	0	531103744	19	5170
2026-01-02 04:00:47.60	275.75	12.77	-29.3	-32.4	19.0	6.02e-01	0	43	0	533200896	19	5180
2026-01-02 04:00:48.60	275.58	12.70	-29.4	-32.8	18.7	6.01e-01	0	43	0	534773760	19	5338
2026-01-02 04:00:49.60	275.40	12.63	-29.4	-32.7	18.7	6.03e-01	0	43	0	536870912	19	5305
2026-01-02 04:00:50.60	275.22	12.57	-29.3	-32.7	18.8	6.01e-01	0	43	0	538443776	19	5277
2026-01-02 04:00:51.61	275.04	12.50	-29.4	-32.7	18.8	6.03e-01	0	43	0	540540928	19	5308
2026-01-02 04:00:52.61	274.87	12.44	-29.5	-33.1	18.5	5.97e-01	0	43	0	542638080	19	5445
2026-01-02 04:00:53.61	274.70	12.37	-29.6	-33.3	18.4	6.03e-01	0	43	0	544210944	19	5520
2026-01-02 04:00:54.62	274.52	12.30	-29.4	-32.9	18.6	5.99e-01	0	43	0	546308096	19	5362
2026-01-02 04:00:55.62	274.35	12.24	-29.4	-32.7	18.7	5.99e-01	0	43	0	547880960	19	5283
2026-01-02 04:00:56.63	274.18	12.17	-29.4	-32.9	18.6	6.02e-01	0	43	0	549978112	19	5363
2026-01-02 04:00:57.63	274.00	12.10	-29.5	-33.1	18.5	6.00e-01	0	43	0	552075264	19	5445
2026-01-02 04:00:58.64	273.83	12.04	-29.5	-33.1	18.5	6.02e-01	0	43	0	553648128	19	5430
2026-01-02 04:00:59.64	273.66	11.97	-29.5	-32.8	18.3	6.02e-01	0	43	0	555745280	20	5229
2026-01-02 04:01:00.65	273.49	11.90	-29.7	-33.3	17.9	6.02e-01	0	43	0	557318144	20	5441
2026-01-02 04:01:01.66	273.33	11.84	-29.7	-33.1	18.1	6.02e-01	0	43	0	559415296	20	5373
2026-01-02 04:01:02.66	273.16	11.77	-29.4	-32.5	18.5	6.01e-01	0	43	0	561512448	20	5118
2026-01-02 04:01:03.66	272.99	11.70	-29.4	-32.9	18.6	6.03e-01	0	43	0	563085312	19	5373
2026-01-02 04:01:04.65	272.83	11.64	-29.6	-33.3	18.4	6.02e-01	0	43	0	565182464	19	5536
2026-01-02 04:01:05.65	272.67	11.57	-29.5	-32.6	18.4	5.99e-01	0	43	0	566755328	20	5149
2026-01-02 04:01:06.65	272.50	11.51	-29.4	-33.0	18.5	6.00e-01	0	43	0	568852480	19	5412
2026-01-02 04:01:07.64	272.34	11.44	-29.5	-33.1	18.5	6.00e-01	0	43	0	570425344	19	5445
2026-01-02 04:01:08.65	272.18	11.37	-29.4	-32.9	18.5	6.00e-01	0	43	0	572522496	19	5390
2026-01-02 04:01:09.65	272.02	11.31	-29.4	-32.7	18.7	6.02e-01	0	43	0	574619648	19	5316
2026-01-02 04:01:10.66	271.86	11.24	-29.3	-32.7	18.7	5.99e-01	0	43	0	576192512	19	5297
2026-01-02 04:01:11.66	271.70	11.17	-29.4	-32.9	18.6	6.03e-01	0	43	0	578289664	19	5360
2026-01-02 04:01:12.66	271.54	11.11	-29.6	-33.3	18.3	6.00e-01	0	43	0	579862528	19	5542
2026-01-02 04:01:13.66	271.38	11.04	-29.5	-32.7	18.3	6.00e-01	0	43	0	581959680	20	5214
2026-01-02 04:01:14.67	271.22	10.97	-29.5	-33.2	18.4	6.02e-01	0	43	0	584056832	19	5495
2026-01-02 04:01:15.67	271.07	10.91	-29.5	-33.1	18.4	6.03e-01	0	43	0	585629696	19	5468
2026-01-02 04:01:16.67	270.91	10.84	-29.5	-33.2	18.3	6.01e-01	0	43	0	587726848	19	5512
2026-01-02 04:01:17.67	270.76	10.77	-29.5	-33.2	18.4	5.99e-01	0	43	0	589299712	19	5494
2026-01-02 04:01:18.67	270.60	10.71	-29.4	-33.0	18.4	5.99e-01	0	43	0	591396864	19	5428
2026-01-02 04:01:19.67	270.45	10.64	-29.6	-33.4	18.2	5.99e-01	0	43	0	592969728	19	5574
2026-01-02 04:01:20.68	270.30	10.57	-29.7	-33.3	17.9	6.01e-01	0	43	0	595066880	20	5453
2026-01-02 04:01:21.68	270.15	10.51	-29.7	-33.2	17.9	6.01e-01	0	43	0	597164032	20	5400
2026-01-02 04:01:22.69	269.99	10.44	-29.5	-32.7	18.3	5.98e-01	0	43	0	598736896	20	5193
2026-01-02 04:01:23.69	269.84	10.37	-29.5	-32.9	18.1	6.00e-01	0	43	0	600834048	20	5274
2026-01-02 04:01:24.69	269.69	10.31	-29.6	-33.0	17.8	6.01e-01	0	43	0	602406912	20	5324
2026-01-02 04:01:25.69	269.55	10.24	-29.6	-33.0	18.0	6.02e-01	0	43	0	604504064	20	5340
2026-01-02 04:01:26.69	269.40	10.17	-29.7	-33.5	16.2	6.00e-01	0	43	0	606601216	20	5518
2026-01-02 04:01:27.70	269.25	10.11	-29.6	-33.2	17.7	6.00e-01	0	43	0	608174080	20	5396
2026-01-02 04:01:28.69	269.10	10.04	-29.5	-32.9	16.8	6.01e-01	0	43	0	610271232	20	5288
2026-01-02 04:01:29.70	268.96	9.98	-29.6	-33.0	17.2	6.03e-01	0	43	0	611844096	20	5316
2026-01-02 04:01:30.71	268.81	9.91	-29.6	-33.1	17.7	6.03e-01	0	43	0	613941248	20	5383
2026-01-02 04:01:31.71	268.67	9.84	-29.7	-33.5	17.5	5.99e-01	0	43	0	615514112	20	5532
2026-01-02 04:01:32.71	268.52	9.78	-29.7	-33.3	17.7	6.01e-01	0	43	0	617611264	20	5456
2026-01-02 04:01:33.72	268.38	9.71	-29.6	-33.1	17.8	6.03e-01	0	43	0	619708416	20	5396
2026-01-02 04:01:34.72	268.24	9.64	-29.5	-33.4	18.1	6.02e-01	0	43	0	621281280	19	5585
2026-01-02 04:01:35.72	268.10	9.58	-29.6	-33.5	18.0	5.99e-01	0	43	0	623378432	19	5654
2026-01-02 04:01:36.72	267.96	9.51	-29.7	-33.3	17.8	6.00e-01	0	43	0	624951296	20	5481
2026-01-02 04:01:37.73	267.81	9.44	-29.7	-33.4	17.7	6.00e-01	0	43	0	627048448	20	5494
2026-01-02 04:01:38.73	267.68	9.38	-29.6	-33.2	17.8	6.03e-01	0	43	0	629145600	20	5432
2026-01-02 04:01:39.74	267.54	9.31	-29.7	-33.4	17.6	5.96e-01	0	43	0	630718464	20	5532
2026-01-02 04:01:40.74	267.40	9.25	-29.8	-33.6	17.5	6.03e-01	0	43	0	632815616	20	5597
2026-01-02 04:01:41.75	267.26	9.18	-29.8	-33.7	17.4	6.02e-01	0	43	0	634388480	20	5658
2026-01-02 04:01:42.75	267.12	9.11	-29.7	-33.5	17.6	5.99e-01	0	43	0	636485632	20	5556
2026-01-02 04:01:43.75	266.99	9.05	-29.6	-33.2	17.8	6.00e-01	0	43	0	638582784	20	5448
2026-01-02 04:01:44.75	266.85	8.98	-29.5	-33.0	18.0	6.02e-01	0	43	0	640155648	20	5333
2026-01-02 04:01:45.75	266.72	8.92	-29.7	-33.4	17.8	6.01e-01	0	43	0	642252800	20	5494
2026-01-02 04:01:46.76	266.58	8.85	-29.6	-33.1	17.8	6.01e-01	0	43	0	643825664	20	5414
2026-01-02 04:01:47.76	266.45	8.79	-29.6	-33.1	17.8	6.00e-01	0	43	0	645922816	20	5379
2026-01-02 04:01:48.76	266.32	8.72	-29.7	-33.6	17.5	6.00e-01	0	43	0	647495680	20	5589
2026-01-02 04:01:49.77	266.18	8.65	-29.7	-33.5	17.6	6.01e-01	0	43	0	649592832	20	5563
2026-01-02 04:01:50.77	266.05	8.59	-29.8	-33.8	17.3	6.00e-01	0	43	0	651689984	20	5707
2026-01-02 04:01:51.78	265.92	8.52	-29.7	-33.5	17.5	6.02e-01	0	43	0	653262848	20	5574
2026-01-02 04:01:52.77	265.79	8.46	-29.6	-33.3	17.6	6.01e-01	0	43	0	655360000	20	5474
2026-01-02 04:01:53.77	265.66	8.39	-29.6	-33.1	17.8	6.03e-01	0	43	0	656932864	20	5377
2026-01-02 04:01:54.77	265.53	8.33	-29.6	-33.3	17.7	6.02e-01	0	43	0	659030016	20	5466
2026-01-02 04:01:55.78	265.41	8.26	-29.6	-33.2	17.7	6.01e-01	0	43	0	660602880	20	5464
2026-01-02 04:01:56.78	265.28	8.20	-29.7	-33.4	17.6	5.99e-01	0	43	0	662700032	20	5545
2026-01-02 04:01:57.78	265.15	8.13	-29.6	-33.3	17.6	6.01e-01	0	43	0	664797184	20	5508
2026-01-02 04:01:58.78	265.03	8.07	-29.9	-34.1	17.1	5.99e-01	0	43	0	666370048	20	5814
2026-01-02 04:01:59.79	264.90	8.00	-29.8	-33.7	17.4	6.03e-01	0	43	0	668467200	20	5642
2026-01-02 04:02:00.79	264.77	7.94	-29.7	-33.4	17.6	6.00e-01	0	43	0	670564352	20	5520
2026-01-02 04:02:01.79	264.65	7.87	-29.6	-33.1	17.7	6.04e-01	0	43	0	672137216	20	5422
2026-01-02 04:02:02.80	264.52	7.81	-29.6	-33.2	17.6	6.01e-01	0	43	0	674234368	20	5453
2026-01-02 04:02:03.80	264.40	7.74	-29.6	-33.2	17.6	6.02e-01	0	43	0	675807232	20	5478
2026-01-02 04:02:04.80	264.28	7.68	-29.7	-33.4	17.5	6.02e-01	0	43	0	677904384	20	5560
2026-01-02 04:02:05.80	264.16	7.62	-29.6	-33.2	17.6	6.01e-01	0	43	0	679477248	20	5466
2026-01-02 04:02:06.80	264.04	7.55	-29.6	-33.4	17.5	6.01e-01	0	43	0	681574400	20	5531
2026-01-02 04:02:07.80	263.92	7.49	-29.7	-33.6	17.4	6.01e-01	0	43	0	683671552	20	5622
2026-01-02 04:02:08.80	263.80	7.42	-29.7	-33.7	17.3	6.00e-01	0	43	0	685244416	20	5661
2026-01-02 04:02:09.80	263.68	7.36	-29.7	-33.5	17.4	6.00e-01	0	43	0	687341568	20	5606
2026-01-02 04:02:10.80	263.56	7.29	-29.6	-33.4	17.5	6.03e-01	0	43	0	688914432	20	5526
2026-01-02 04:02:11.80	263.44	7.23	-29.7	-33.5	17.4	6.02e-01	0	43	0	691011584	20	5579
2026-01-02 04:02:12.80	263.32	7.17	-29.7	-33.7	17.3	5.99e-01	0	43	0	692584448	20	5672
2026-01-02 04:02:13.80	263.20	7.10	-29.7	-33.5	17.3	6.01e-01	0	43	0	694681600	20	5599
2026-01-02 04:02:14.81	263.09	7.04	-32.7	-49.4	3.9	7.44e-01	0	43	104	695730176	26	24617

#Closed at: 2026-01-02 04:02:15
#Recorded file [695 MB]: D:/data/31010_260102_065603.dat