passes_logs/2026/01/02/R2M6_AANII_01/R2M6_AANII_01__20260102_015854_SUOMI_NPP_rec.log

#Pass ID: 20260102_015854_SUOMI NPP
#Satellite: SUOMI NPP
#Configuration: NPP
#almurnet v.1.7.20240730
#Start time: 2026-01-02 01:58:56

#Version: 2.2.20231116
#Station: R2M6_AANII_01
#Location: 30.233357 lon 59.946436 lat
#TLE: 1 37849U 11061A   26001.07732418  .00000182  00000+0  10735-3 0  9990
#TLE: 2 37849  98.7795 303.2470 0002580  87.2016 272.9455 14.19520779734739

#Time	Az	El	Level	Level2	SNR	BER	BlckErr	Temp	State	Recorded	gain1	gain2
2026-01-02 01:58:56.35	11.44	7.12	-31.5	-38.1	4.5	1.37e+00	0	41	0	0	22	7777
2026-01-02 01:58:57.36	11.36	7.19	-31.4	-37.9	4.5	1.36e+00	0	41	104	0	22	7561
2026-01-02 01:58:58.35	11.28	7.26	-31.6	-38.1	5.6	3.56e-01	0	41	0	0	23	7666
2026-01-02 01:58:59.36	11.21	7.33	-31.6	-38.3	5.5	4.86e-01	0	41	0	1048576	23	7752
2026-01-02 01:59:00.36	11.13	7.40	-31.6	-37.9	5.7	4.36e-01	0	41	0	3145728	23	7431
2026-01-02 01:59:01.37	11.05	7.47	-31.6	-38.3	5.5	4.46e-01	0	41	0	5242880	23	7806
2026-01-02 01:59:02.37	10.97	7.54	-31.6	-37.9	5.7	4.25e-01	0	41	0	7340032	23	7500
2026-01-02 01:59:03.37	10.90	7.60	-31.3	-36.9	6.7	2.51e-01	0	41	0	9437184	22	6839
2026-01-02 01:59:04.38	10.82	7.67	-31.1	-36.0	7.4	1.70e-01	0	41	0	10485760	22	6325
2026-01-02 01:59:05.38	10.74	7.74	-31.1	-36.0	7.5	1.12e-01	0	41	0	12582912	22	6281
2026-01-02 01:59:06.38	10.66	7.81	-30.9	-35.4	8.3	5.29e-02	0	41	0	14680064	21	6075
2026-01-02 01:59:07.38	10.58	7.88	-30.6	-34.4	9.1	3.09e-02	0	41	0	16777216	21	5565
2026-01-02 01:59:08.38	10.50	7.95	-30.4	-34.1	9.6	1.61e-02	0	41	0	17825792	20	5522
2026-01-02 01:59:09.38	10.42	8.02	-30.4	-34.1	9.7	1.27e-02	0	41	0	19922944	20	5521
2026-01-02 01:59:10.39	10.34	8.09	-30.5	-33.9	9.5	1.76e-02	0	41	0	22020096	21	5311
2026-01-02 01:59:11.39	10.26	8.16	-30.5	-33.9	9.5	1.64e-02	0	41	0	24117248	21	5333
2026-01-02 01:59:12.39	10.17	8.23	-30.4	-33.6	9.7	1.64e-02	0	41	0	26214400	21	5197
2026-01-02 01:59:13.40	10.09	8.31	-30.5	-33.7	9.6	1.53e-02	0	41	0	27262976	21	5223
2026-01-02 01:59:14.41	10.01	8.38	-30.6	-34.2	9.2	1.53e-02	0	41	0	29360128	21	5459
2026-01-02 01:59:15.41	9.93	8.45	-30.4	-33.5	9.8	1.18e-02	0	41	0	31457280	21	5129
2026-01-02 01:59:16.41	9.84	8.52	-30.5	-33.8	9.6	1.43e-02	0	42	0	33554432	21	5250
2026-01-02 01:59:17.42	9.76	8.59	-30.5	-33.9	9.5	2.44e-02	0	41	0	35651584	21	5328
2026-01-02 01:59:18.42	9.67	8.66	-30.3	-33.6	10.2	9.04e-03	0	42	0	36700160	20	5256
2026-01-02 01:59:19.42	9.59	8.73	-30.1	-32.9	10.7	6.12e-03	0	42	0	38797312	20	4993
2026-01-02 01:59:20.42	9.50	8.81	-30.1	-32.9	10.7	5.98e-03	0	41	0	40894464	20	4975
2026-01-02 01:59:21.43	9.42	8.88	-30.3	-33.6	10.2	5.09e-03	0	42	0	42991616	20	5277
2026-01-02 01:59:22.43	9.33	8.95	-30.6	-34.1	9.5	9.49e-03	0	42	0	45088768	21	5381
2026-01-02 01:59:23.43	9.25	9.02	-30.5	-34.1	9.8	1.14e-02	0	42	0	46137344	20	5491
2026-01-02 01:59:24.43	9.16	9.09	-30.4	-33.4	9.9	1.20e-02	0	42	0	48234496	21	5080
2026-01-02 01:59:25.44	9.07	9.17	-30.3	-33.4	10.3	1.14e-02	0	42	0	50331648	20	5175
2026-01-02 01:59:26.45	8.98	9.24	-30.3	-33.6	10.2	7.93e-03	0	42	0	52428800	20	5250
2026-01-02 01:59:27.44	8.89	9.31	-30.4	-33.9	10.1	6.87e-03	0	42	0	54525952	20	5376
2026-01-02 01:59:28.44	8.81	9.38	-30.2	-33.3	10.5	9.07e-03	0	42	0	55574528	20	5099
2026-01-02 01:59:29.44	8.72	9.46	-30.3	-33.4	10.5	7.48e-03	0	42	0	57671680	20	5152
2026-01-02 01:59:30.44	8.63	9.53	-30.4	-33.9	10.1	4.85e-03	0	42	0	59768832	20	5356
2026-01-02 01:59:31.44	8.54	9.60	-30.3	-33.4	10.5	8.25e-03	0	42	0	61865984	20	5135
2026-01-02 01:59:32.44	8.45	9.68	-30.1	-32.8	10.9	6.46e-03	0	42	0	62914560	20	4907
2026-01-02 01:59:33.45	8.35	9.75	-30.0	-32.4	11.2	2.45e-03	0	42	0	65011712	20	4745
2026-01-02 01:59:34.46	8.26	9.82	-29.9	-32.1	11.5	4.21e-03	0	42	0	67108864	20	4639
2026-01-02 01:59:35.46	8.17	9.90	-30.0	-32.8	11.4	3.83e-03	0	42	0	69206016	19	4972
2026-01-02 01:59:36.46	8.08	9.97	-29.9	-32.3	11.3	1.47e-03	0	42	0	71303168	20	4705
2026-01-02 01:59:37.46	7.98	10.05	-30.0	-32.4	11.3	4.38e-03	0	42	0	73400320	20	4743
2026-01-02 01:59:38.46	7.89	10.12	-30.0	-32.6	11.0	4.39e-03	0	42	0	74448896	20	4831
2026-01-02 01:59:39.47	7.80	10.20	-30.0	-32.3	11.3	1.54e-03	0	42	0	76546048	20	4719
2026-01-02 01:59:40.47	7.70	10.27	-30.0	-32.3	11.3	1.33e-03	0	42	0	78643200	20	4726
2026-01-02 01:59:41.47	7.61	10.34	-29.9	-32.2	11.3	4.99e-03	0	42	0	80740352	20	4682
2026-01-02 01:59:42.48	7.51	10.42	-30.0	-32.4	11.2	1.30e-03	0	42	0	81788928	20	4771
2026-01-02 01:59:43.47	7.42	10.49	-29.9	-32.2	11.4	1.35e-03	0	42	0	83886080	20	4694
2026-01-02 01:59:44.48	7.32	10.57	-30.1	-32.6	11.1	4.80e-03	0	42	0	85983232	20	4838
2026-01-02 01:59:45.47	7.22	10.64	-30.3	-33.3	10.6	2.43e-03	0	42	0	88080384	20	5095
2026-01-02 01:59:46.47	7.12	10.72	-30.2	-33.0	10.8	6.25e-03	0	42	0	90177536	20	4996
2026-01-02 01:59:47.47	7.03	10.80	-29.8	-32.0	11.6	1.04e-03	0	42	0	91226112	20	4592
2026-01-02 01:59:48.48	6.93	10.87	-29.7	-31.6	11.8	8.12e-04	0	42	0	93323264	20	4467
2026-01-02 01:59:49.48	6.83	10.95	-29.8	-32.3	11.8	3.22e-03	0	42	0	95420416	19	4782
2026-01-02 01:59:50.49	6.73	11.02	-29.7	-32.1	12.0	3.19e-04	0	42	0	97517568	19	4698
2026-01-02 01:59:51.49	6.63	11.10	-29.8	-32.4	11.8	4.07e-04	0	42	0	99614720	19	4807
2026-01-02 01:59:52.49	6.53	11.18	-29.8	-32.2	11.9	3.44e-03	0	42	0	100663296	19	4735
2026-01-02 01:59:53.50	6.42	11.25	-29.8	-32.2	11.9	4.59e-04	0	42	0	102760448	19	4740
2026-01-02 01:59:54.50	6.32	11.33	-29.9	-32.6	11.6	6.32e-04	0	42	0	104857600	19	4893
2026-01-02 01:59:55.51	6.22	11.41	-29.8	-32.3	11.9	3.70e-03	0	42	0	106954752	19	4768
2026-01-02 01:59:56.51	6.12	11.48	-29.9	-32.5	11.7	3.35e-03	0	42	0	109051904	19	4864
2026-01-02 01:59:57.51	6.01	11.56	-30.0	-32.4	11.4	7.39e-04	0	42	0	110100480	20	4723
2026-01-02 01:59:58.51	5.91	11.64	-30.0	-32.5	11.3	1.01e-03	0	42	0	112197632	20	4772
2026-01-02 01:59:59.51	5.80	11.72	-30.1	-32.6	11.2	4.30e-03	0	43	0	114294784	20	4825
2026-01-02 02:00:00.51	5.70	11.79	-29.9	-32.1	11.6	1.33e-03	0	42	0	116391936	20	4634
2026-01-02 02:00:01.52	5.59	11.87	-29.9	-31.9	11.7	7.70e-04	0	42	0	118489088	20	4562
2026-01-02 02:00:02.51	5.49	11.95	-29.7	-32.0	12.1	3.52e-03	0	42	0	119537664	19	4671
2026-01-02 02:00:03.51	5.38	12.03	-29.7	-32.0	12.1	6.40e-04	0	42	0	121634816	19	4664
2026-01-02 02:00:04.52	5.27	12.10	-29.7	-32.0	12.1	2.97e-04	0	43	0	123731968	19	4658
2026-01-02 02:00:05.52	5.16	12.18	-29.8	-32.0	12.0	4.49e-04	0	42	0	125829120	19	4681
2026-01-02 02:00:06.52	5.05	12.26	-29.7	-31.9	12.2	5.97e-04	0	43	0	126877696	19	4630
2026-01-02 02:00:07.52	4.95	12.34	-29.8	-32.1	12.1	1.87e-04	0	42	0	128974848	19	4708
2026-01-02 02:00:08.53	4.83	12.42	-29.7	-31.7	12.3	2.39e-04	0	42	0	131072000	19	4563
2026-01-02 02:00:09.53	4.72	12.50	-29.7	-31.8	12.2	1.73e-04	0	43	0	133169152	19	4592
2026-01-02 02:00:10.53	4.61	12.58	-29.7	-32.0	12.2	3.38e-03	0	42	0	135266304	19	4652
2026-01-02 02:00:11.53	4.50	12.66	-29.8	-32.3	12.0	3.09e-04	0	42	0	136314880	19	4763
2026-01-02 02:00:12.54	4.39	12.74	-29.9	-32.6	11.7	4.61e-04	0	43	0	138412032	19	4877
2026-01-02 02:00:13.54	4.27	12.82	-29.9	-32.1	11.7	3.34e-03	0	43	0	140509184	20	4637
2026-01-02 02:00:14.55	4.16	12.90	-30.0	-32.6	11.7	4.52e-04	0	42	0	142606336	19	4886
2026-01-02 02:00:15.55	4.05	12.98	-30.0	-32.5	11.4	7.16e-04	0	43	0	144703488	20	4747
2026-01-02 02:00:16.55	3.93	13.05	-30.1	-32.7	11.2	1.25e-03	0	43	0	145752064	20	4825
2026-01-02 02:00:17.55	3.81	13.13	-30.0	-32.4	11.5	1.14e-03	0	43	0	147849216	20	4734
2026-01-02 02:00:18.55	3.70	13.21	-30.0	-32.2	11.6	7.57e-04	0	43	0	149946368	20	4674
2026-01-02 02:00:19.56	3.58	13.30	-30.0	-32.3	11.5	7.89e-04	0	43	0	152043520	20	4685
2026-01-02 02:00:20.57	3.46	13.38	-29.9	-32.2	11.6	3.72e-03	0	43	0	154140672	20	4658
2026-01-02 02:00:21.56	3.35	13.46	-30.0	-32.3	11.5	4.65e-04	0	43	0	155189248	20	4708
2026-01-02 02:00:22.56	3.23	13.54	-29.9	-32.0	11.7	7.82e-04	0	43	0	157286400	20	4580
2026-01-02 02:00:23.57	3.11	13.62	-29.8	-31.8	11.8	5.68e-04	0	42	0	159383552	20	4516
2026-01-02 02:00:24.56	2.99	13.70	-29.7	-31.5	12.0	4.36e-04	0	43	0	161480704	20	4417
2026-01-02 02:00:25.57	2.86	13.78	-30.0	-32.6	11.7	4.18e-04	0	43	0	163577856	19	4895
2026-01-02 02:00:26.57	2.74	13.86	-29.9	-31.9	11.8	5.31e-04	0	43	0	164626432	20	4567
2026-01-02 02:00:27.57	2.62	13.94	-29.9	-32.0	11.7	6.01e-04	0	43	0	166723584	20	4604
2026-01-02 02:00:28.58	2.50	14.03	-30.1	-32.6	11.4	7.65e-04	0	43	0	168820736	20	4815
2026-01-02 02:00:29.57	2.37	14.11	-30.1	-32.5	11.4	7.29e-04	0	43	0	170917888	20	4777
2026-01-02 02:00:30.57	2.25	14.19	-30.2	-32.8	11.2	1.10e-03	0	43	0	171966464	20	4865
2026-01-02 02:00:31.57	2.12	14.27	-30.0	-32.3	11.5	1.27e-03	0	43	0	174063616	20	4676
2026-01-02 02:00:32.57	2.00	14.35	-30.0	-32.1	11.7	8.83e-04	0	43	0	176160768	20	4622
2026-01-02 02:00:33.57	1.87	14.43	-30.0	-32.3	11.6	7.83e-04	0	43	0	178257920	20	4696
2026-01-02 02:00:34.57	1.75	14.52	-30.0	-32.1	11.8	3.04e-04	0	43	0	180355072	20	4617
2026-01-02 02:00:35.58	1.62	14.60	-30.0	-32.2	11.7	6.41e-04	0	43	0	181403648	20	4646
2026-01-02 02:00:36.58	1.49	14.68	-29.9	-32.0	11.9	3.73e-04	0	43	0	183500800	20	4571
2026-01-02 02:00:37.58	1.36	14.77	-30.1	-32.5	11.4	3.66e-04	0	43	0	185597952	20	4763
2026-01-02 02:00:38.58	1.23	14.85	-30.1	-32.6	11.4	1.20e-03	0	43	0	187695104	20	4772
2026-01-02 02:00:39.59	1.10	14.93	-29.8	-31.5	12.0	4.83e-04	0	43	0	189792256	20	4408
2026-01-02 02:00:40.59	0.96	15.01	-29.8	-32.2	12.2	2.96e-04	0	43	0	190840832	19	4698
2026-01-02 02:00:41.60	0.83	15.10	-30.0	-32.1	11.8	4.00e-04	0	43	0	192937984	20	4597
2026-01-02 02:00:42.61	0.70	15.18	-30.1	-32.9	11.3	5.13e-04	0	43	0	195035136	19	4970
2026-01-02 02:00:43.61	0.56	15.27	-30.2	-32.7	10.4	4.90e-04	0	43	0	197132288	20	4821
2026-01-02 02:00:44.62	0.43	15.35	-30.3	-33.2	10.9	1.66e-03	0	43	0	199229440	20	4990
2026-01-02 02:00:45.62	0.29	15.43	-30.2	-32.8	10.8	6.87e-04	0	43	0	200278016	20	4868
2026-01-02 02:00:46.62	0.15	15.52	-30.5	-33.1	10.4	1.08e-03	0	43	0	202375168	21	4887
2026-01-02 02:00:47.62	0.02	15.60	-30.3	-32.7	11.1	2.17e-03	0	43	0	204472320	21	4706
2026-01-02 02:00:48.63	359.88	15.69	-30.3	-33.2	11.0	2.68e-03	0	43	0	206569472	20	4988
2026-01-02 02:00:49.63	359.74	15.77	-30.3	-33.1	11.1	1.70e-03	0	43	0	208666624	20	4972
2026-01-02 02:00:50.63	359.60	15.86	-30.4	-33.5	10.9	1.36e-03	0	43	0	209715200	20	5118
2026-01-02 02:00:51.63	359.46	15.94	-30.5	-33.2	10.7	5.78e-03	0	43	0	211812352	21	4917
2026-01-02 02:00:52.63	359.32	16.03	-30.5	-33.6	10.8	2.56e-03	0	43	0	213909504	20	5176
2026-01-02 02:00:53.62	359.18	16.11	-30.5	-33.2	10.7	1.08e-03	0	43	0	216006656	21	4897
2026-01-02 02:00:54.63	359.03	16.19	-30.6	-33.6	10.5	3.76e-03	0	43	0	217055232	21	5078
2026-01-02 02:00:55.64	358.89	16.28	-30.5	-33.0	10.9	4.98e-03	0	43	0	219152384	21	4832
2026-01-02 02:00:56.64	358.75	16.37	-30.5	-33.2	10.7	3.26e-03	0	43	0	221249536	21	4930
2026-01-02 02:00:57.64	358.60	16.45	-30.4	-33.5	10.9	2.92e-03	0	43	0	223346688	20	5108
2026-01-02 02:00:58.64	358.45	16.54	-30.1	-32.6	11.6	3.36e-03	0	43	0	225443840	20	4769
2026-01-02 02:00:59.65	358.31	16.62	-30.2	-32.6	11.5	9.49e-04	0	43	0	226492416	20	4772
2026-01-02 02:01:00.65	358.16	16.71	-30.0	-32.2	11.8	6.74e-04	0	43	0	228589568	20	4619
2026-01-02 02:01:01.66	358.01	16.79	-30.0	-32.3	11.8	3.49e-03	0	43	0	230686720	20	4649
2026-01-02 02:01:02.66	357.86	16.88	-29.9	-31.9	12.0	9.45e-04	0	43	0	232783872	20	4532
2026-01-02 02:01:03.66	357.71	16.97	-29.5	-31.2	12.9	2.88e-04	0	43	0	234881024	19	4364
2026-01-02 02:01:04.67	357.55	17.05	-29.6	-31.4	12.8	7.47e-05	0	43	0	235929600	19	4439
2026-01-02 02:01:05.67	357.40	17.14	-29.7	-31.8	12.5	4.45e-04	0	43	0	238026752	19	4565
2026-01-02 02:01:06.68	357.25	17.23	-30.0	-32.1	11.9	2.50e-04	0	43	0	240123904	20	4577
2026-01-02 02:01:07.68	357.09	17.31	-29.8	-31.9	12.4	2.39e-04	0	43	0	242221056	19	4618
2026-01-02 02:01:08.68	356.94	17.40	-29.8	-32.0	12.4	4.94e-04	0	43	0	244318208	19	4638
2026-01-02 02:01:09.68	356.78	17.48	-29.9	-32.1	12.4	2.38e-03	0	43	0	245366784	19	4664
2026-01-02 02:01:10.68	356.63	17.57	-30.0	-32.4	12.1	1.30e-04	0	43	0	247463936	19	4786
2026-01-02 02:01:11.68	356.47	17.66	-29.7	-31.1	12.6	3.26e-04	0	43	0	249561088	20	4252
2026-01-02 02:01:12.69	356.31	17.74	-29.6	-31.4	12.8	2.49e-03	0	43	0	251658240	19	4434
2026-01-02 02:01:13.69	356.15	17.83	-29.6	-31.4	12.9	2.37e-03	0	43	0	253755392	19	4413
2026-01-02 02:01:14.69	355.99	17.92	-29.6	-31.3	13.0	4.88e-05	0	43	0	254803968	19	4370
2026-01-02 02:01:15.69	355.83	18.00	-29.4	-31.2	13.3	2.25e-03	0	43	0	256901120	18	4456
2026-01-02 02:01:16.70	355.66	18.09	-29.4	-31.4	13.1	2.12e-03	0	43	0	258998272	18	4511
2026-01-02 02:01:17.70	355.50	18.18	-29.6	-31.4	12.9	4.27e-05	0	43	0	261095424	19	4429
2026-01-02 02:01:18.71	355.34	18.27	-29.6	-31.5	12.9	2.13e-03	0	43	0	263192576	19	4443
2026-01-02 02:01:19.71	355.17	18.35	-29.7	-31.6	12.8	2.53e-03	0	43	0	264241152	19	4490
2026-01-02 02:01:20.71	355.00	18.44	-29.9	-31.6	12.3	4.52e-04	0	43	0	266338304	20	4411
2026-01-02 02:01:21.71	354.84	18.53	-29.8	-31.9	12.5	1.10e-04	0	43	0	268435456	19	4581
2026-01-02 02:01:22.71	354.67	18.62	-29.9	-31.6	12.3	2.44e-03	0	43	0	270532608	20	4420
2026-01-02 02:01:23.71	354.50	18.70	-29.9	-31.7	12.3	5.39e-04	0	43	0	271581184	20	4442
2026-01-02 02:01:24.72	354.33	18.79	-29.6	-31.5	12.7	1.46e-04	0	43	0	273678336	19	4449
2026-01-02 02:01:25.72	354.16	18.88	-29.6	-31.4	12.9	2.14e-03	0	43	0	275775488	19	4435
2026-01-02 02:01:26.72	353.98	18.97	-29.4	-31.4	13.2	4.09e-04	0	43	0	277872640	18	4523
2026-01-02 02:01:27.73	353.81	19.05	-29.3	-31.0	13.5	2.02e-03	0	43	0	279969792	18	4372
2026-01-02 02:01:28.73	353.64	19.14	-29.4	-31.4	13.2	2.74e-05	0	43	0	281018368	18	4509
2026-01-02 02:01:29.73	353.46	19.23	-29.4	-31.3	13.2	3.17e-04	0	43	0	283115520	18	4478
2026-01-02 02:01:30.73	353.28	19.32	-29.4	-30.9	13.2	2.05e-03	0	43	0	285212672	19	4268
2026-01-02 02:01:31.73	353.11	19.40	-29.6	-31.4	12.9	1.84e-03	0	43	0	287309824	19	4437
2026-01-02 02:01:32.74	352.93	19.49	-29.5	-31.0	13.1	2.74e-04	0	43	0	289406976	19	4298
2026-01-02 02:01:33.74	352.75	19.58	-29.2	-30.7	13.6	1.64e-03	0	43	0	290455552	18	4309
2026-01-02 02:01:34.74	352.57	19.67	-29.2	-30.9	13.5	1.44e-03	0	43	0	292552704	18	4343
2026-01-02 02:01:35.74	352.39	19.75	-28.9	-30.0	14.1	2.20e-06	0	43	0	294649856	18	4076
2026-01-02 02:01:36.74	352.20	19.84	-28.9	-29.9	14.2	1.25e-03	0	43	0	296747008	18	4049
2026-01-02 02:01:37.75	352.02	19.93	-29.1	-30.5	13.8	1.26e-03	0	43	0	298844160	18	4229
2026-01-02 02:01:38.75	351.83	20.02	-29.0	-30.4	13.9	1.40e-04	0	43	0	299892736	18	4190
2026-01-02 02:01:39.76	351.65	20.11	-29.2	-30.6	13.7	1.46e-03	0	43	0	301989888	18	4268
2026-01-02 02:01:40.77	351.46	20.19	-29.4	-31.3	13.4	1.59e-03	0	43	0	304087040	18	4469
2026-01-02 02:01:41.77	351.27	20.28	-29.6	-31.2	13.0	4.80e-05	0	43	0	306184192	19	4370
2026-01-02 02:01:42.78	351.08	20.37	-29.7	-31.8	12.7	1.82e-03	0	43	0	308281344	19	4545
2026-01-02 02:01:43.77	350.89	20.46	-29.9	-31.6	12.3	1.90e-03	0	43	0	309329920	20	4419
2026-01-02 02:01:44.77	350.70	20.54	-30.0	-31.9	12.2	3.21e-04	0	43	0	311427072	20	4514
2026-01-02 02:01:45.77	350.51	20.63	-30.0	-32.0	12.1	2.30e-03	0	43	0	313524224	20	4541
2026-01-02 02:01:46.77	350.31	20.72	-29.9	-31.9	12.2	2.51e-03	0	43	0	315621376	20	4490
2026-01-02 02:01:47.77	350.12	20.81	-29.8	-31.5	12.5	2.91e-04	0	43	0	317718528	20	4363
2026-01-02 02:01:48.78	349.92	20.89	-29.9	-32.2	12.5	2.39e-03	0	43	0	318767104	19	4682
2026-01-02 02:01:49.78	349.73	20.98	-29.7	-31.7	12.8	2.64e-04	0	43	0	320864256	19	4499
2026-01-02 02:01:50.79	349.53	21.07	-29.8	-31.8	12.7	2.95e-04	0	43	0	322961408	19	4532
2026-01-02 02:01:51.79	349.33	21.16	-29.6	-31.5	12.9	2.23e-03	0	43	0	325058560	19	4443
2026-01-02 02:01:52.80	349.12	21.25	-29.6	-31.2	13.0	3.73e-05	0	43	0	326107136	19	4362
2026-01-02 02:01:53.80	348.92	21.33	-29.7	-31.5	12.9	2.50e-04	0	43	0	328204288	19	4463
2026-01-02 02:01:54.80	348.72	21.42	-29.7	-31.7	12.8	1.59e-03	0	43	0	330301440	19	4502
2026-01-02 02:01:55.80	348.52	21.51	-29.8	-31.9	12.6	1.49e-03	0	43	0	332398592	19	4579
2026-01-02 02:01:56.79	348.31	21.59	-29.8	-32.0	12.4	9.53e-05	0	43	0	334495744	19	4616
2026-01-02 02:01:57.79	348.11	21.68	-30.0	-32.0	12.1	1.01e-03	0	43	0	335544320	20	4536
2026-01-02 02:01:58.79	347.90	21.76	-30.0	-31.9	12.3	7.89e-04	0	43	0	337641472	20	4499
2026-01-02 02:01:59.80	347.69	21.85	-29.8	-32.0	12.5	6.79e-05	0	43	0	339738624	19	4603
2026-01-02 02:02:00.81	347.48	21.94	-29.8	-31.8	12.8	9.84e-05	0	43	0	341835776	19	4546
2026-01-02 02:02:01.81	347.27	22.03	-30.0	-32.0	12.3	9.46e-05	0	43	0	343932928	20	4524
2026-01-02 02:02:02.81	347.06	22.11	-30.0	-31.9	12.2	2.23e-04	0	43	0	344981504	20	4503
2026-01-02 02:02:03.81	346.84	22.20	-30.0	-31.8	12.3	1.78e-04	0	43	0	347078656	20	4466
2026-01-02 02:02:04.82	346.63	22.28	-30.2	-32.5	11.8	4.10e-04	0	43	0	349175808	20	4702
2026-01-02 02:02:05.82	346.41	22.37	-30.1	-32.2	12.1	4.55e-04	0	43	0	351272960	20	4596
2026-01-02 02:02:06.83	346.19	22.46	-29.9	-31.7	12.4	1.73e-04	0	43	0	353370112	20	4412
2026-01-02 02:02:07.83	345.97	22.54	-29.8	-32.0	12.6	1.19e-04	0	43	0	354418688	19	4616
2026-01-02 02:02:08.83	345.75	22.63	-29.9	-32.0	12.6	6.79e-05	0	43	0	356515840	19	4602
2026-01-02 02:02:09.84	345.53	22.71	-29.9	-32.1	12.5	1.18e-04	0	43	0	358612992	19	4646
2026-01-02 02:02:10.84	345.31	22.80	-29.9	-31.7	12.5	1.27e-04	0	43	0	360710144	20	4421
2026-01-02 02:02:11.84	345.09	22.88	-30.2	-32.5	11.8	2.45e-04	0	43	0	362807296	20	4682
2026-01-02 02:02:12.85	344.86	22.97	-30.1	-32.2	12.1	2.60e-03	0	43	0	363855872	20	4573
2026-01-02 02:02:13.84	344.64	23.05	-29.8	-31.9	12.6	7.24e-05	0	43	0	365953024	19	4569
2026-01-02 02:02:14.84	344.41	23.13	-30.0	-32.3	12.5	7.32e-05	0	43	0	368050176	19	4699
2026-01-02 02:02:15.84	344.18	23.22	-29.6	-31.2	13.2	2.63e-03	0	43	0	370147328	19	4322
2026-01-02 02:02:16.84	343.96	23.30	-29.3	-30.5	13.5	9.10e-06	0	43	0	371195904	19	4134
2026-01-02 02:02:17.85	343.72	23.38	-29.1	-30.0	14.0	7.60e-06	0	43	0	373293056	19	3976
2026-01-02 02:02:18.85	343.49	23.47	-28.9	-29.8	14.4	2.31e-03	0	43	0	375390208	18	4019
2026-01-02 02:02:19.85	343.26	23.55	-28.9	-30.4	14.3	7.00e-07	0	43	0	377487360	17	4277
2026-01-02 02:02:20.86	343.02	23.63	-28.7	-30.0	14.6	0.00e+00	0	43	0	379584512	17	4150
2026-01-02 02:02:21.86	342.79	23.72	-28.7	-29.9	14.5	0.00e+00	0	43	0	380633088	17	4140
2026-01-02 02:02:22.87	342.55	23.80	-29.0	-30.2	14.2	2.59e-03	0	43	0	382730240	18	4112
2026-01-02 02:02:23.87	342.31	23.88	-29.2	-30.6	13.9	0.00e+00	0	43	0	384827392	18	4259
2026-01-02 02:02:24.88	342.07	23.96	-29.1	-30.4	13.9	3.80e-06	0	43	0	386924544	18	4194
2026-01-02 02:02:25.88	341.83	24.04	-29.4	-31.3	13.5	3.92e-04	0	43	0	389021696	18	4470
2026-01-02 02:02:26.88	341.59	24.13	-29.6	-31.4	13.1	2.89e-05	0	43	0	390070272	19	4406
2026-01-02 02:02:27.88	341.34	24.21	-29.6	-31.4	13.0	1.67e-05	0	43	0	392167424	19	4405
2026-01-02 02:02:28.88	341.10	24.29	-29.8	-31.9	12.8	3.89e-05	0	43	0	394264576	19	4562
2026-01-02 02:02:29.89	340.85	24.37	-29.4	-30.6	13.5	3.50e-05	0	43	0	396361728	19	4152
2026-01-02 02:02:30.89	340.61	24.45	-29.3	-30.3	13.7	1.06e-05	0	43	0	398458880	19	4067
2026-01-02 02:02:31.90	340.36	24.53	-29.8	-31.8	12.7	2.82e-05	0	43	0	399507456	19	4556
2026-01-02 02:02:32.91	340.10	24.61	-29.9	-31.6	12.5	6.10e-05	0	43	0	401604608	20	4402
2026-01-02 02:02:33.90	339.86	24.68	-29.8	-31.7	12.8	8.39e-05	0	43	0	403701760	19	4519
2026-01-02 02:02:34.91	339.60	24.76	-29.7	-31.6	13.1	2.97e-05	0	43	0	405798912	19	4477
2026-01-02 02:02:35.91	339.35	24.84	-30.1	-32.3	12.2	4.73e-05	0	43	0	407896064	20	4634
2026-01-02 02:02:36.91	339.09	24.92	-29.9	-31.7	12.6	2.62e-04	0	43	0	408944640	20	4396
2026-01-02 02:02:37.91	338.84	25.00	-30.0	-32.0	12.3	1.21e-04	0	43	0	411041792	20	4511
2026-01-02 02:02:38.91	338.58	25.07	-30.3	-32.6	11.7	3.57e-04	0	43	0	413138944	20	4740
2026-01-02 02:02:39.91	338.32	25.15	-30.2	-31.8	12.0	7.45e-04	0	43	0	415236096	21	4357
2026-01-02 02:02:40.92	338.06	25.23	-30.1	-32.1	12.2	1.91e-04	0	43	0	417333248	20	4560
2026-01-02 02:02:41.92	337.80	25.30	-30.3	-32.7	11.8	3.26e-04	0	43	0	418381824	20	4777
2026-01-02 02:02:42.91	337.54	25.37	-30.3	-32.9	11.6	6.71e-04	0	43	0	420478976	20	4861
2026-01-02 02:02:43.91	337.28	25.45	-30.6	-33.1	11.1	1.14e-03	0	43	0	422576128	21	4840
2026-01-02 02:02:44.91	337.01	25.52	-30.6	-33.1	11.3	1.54e-03	0	43	0	424673280	21	4840
2026-01-02 02:02:45.91	336.75	25.60	-30.0	-32.0	12.3	3.85e-04	0	43	0	425721856	20	4510
2026-01-02 02:02:46.91	336.48	25.67	-29.6	-30.8	13.1	7.70e-05	0	43	0	427819008	20	4148
2026-01-02 02:02:47.91	336.21	25.74	-29.1	-29.9	13.9	6.10e-06	0	43	0	429916160	19	3957
2026-01-02 02:02:48.91	335.94	25.81	-29.0	-30.1	14.2	7.00e-07	0	43	0	432013312	18	4081
2026-01-02 02:02:49.91	335.67	25.89	-29.1	-30.4	14.1	3.00e-06	0	43	0	434110464	18	4178
2026-01-02 02:02:50.92	335.40	25.96	-29.2	-30.7	13.8	1.50e-06	0	43	0	435159040	18	4280
2026-01-02 02:02:51.92	335.13	26.03	-29.3	-31.0	13.7	6.10e-06	0	43	0	437256192	18	4370
2026-01-02 02:02:52.92	334.85	26.10	-29.6	-31.2	13.1	1.52e-05	0	43	0	439353344	19	4351
2026-01-02 02:02:53.92	334.58	26.17	-29.6	-31.3	13.2	2.59e-05	0	43	0	441450496	19	4358
2026-01-02 02:02:54.92	334.30	26.24	-29.2	-30.1	13.9	6.10e-06	0	43	0	443547648	19	4017
2026-01-02 02:02:55.92	334.02	26.31	-28.8	-29.7	14.4	0.00e+00	0	43	0	444596224	18	3995
2026-01-02 02:02:56.92	333.74	26.37	-28.7	-29.4	14.7	2.20e-06	0	43	0	446693376	18	3897
2026-01-02 02:02:57.92	333.46	26.44	-28.7	-29.8	14.8	0.00e+00	0	43	0	448790528	17	4088
2026-01-02 02:02:58.93	333.18	26.51	-27.9	-29.0	14.7	7.00e-07	0	43	0	450887680	17	4115
2026-01-02 02:02:59.93	332.89	26.57	-29.0	-30.6	13.4	1.50e-06	0	43	0	452984832	17	4345
2026-01-02 02:03:00.94	332.61	26.64	-29.3	-30.8	12.8	7.00e-07	0	43	0	454033408	18	4313
2026-01-02 02:03:01.94	332.32	26.70	-29.3	-30.9	13.4	3.00e-06	0	43	0	456130560	18	4342
2026-01-02 02:03:02.95	332.03	26.77	-29.3	-30.8	13.3	4.50e-06	0	43	0	458227712	18	4309
2026-01-02 02:03:03.94	331.75	26.83	-29.3	-30.8	13.8	7.60e-06	0	43	0	460324864	18	4310
2026-01-02 02:03:04.95	331.46	26.90	-29.2	-30.8	13.8	3.80e-06	0	43	0	462422016	18	4292
2026-01-02 02:03:05.96	331.16	26.96	-29.2	-30.6	14.0	9.10e-06	0	43	0	463470592	18	4262
2026-01-02 02:03:06.96	330.87	27.02	-29.3	-31.0	13.7	2.20e-06	0	43	0	465567744	18	4361
2026-01-02 02:03:07.96	330.58	27.08	-29.4	-31.3	13.5	5.66e-04	0	43	0	467664896	18	4473
2026-01-02 02:03:08.96	330.29	27.14	-29.2	-30.8	13.8	3.00e-06	0	43	0	469762048	18	4306
2026-01-02 02:03:09.97	329.99	27.20	-29.2	-30.8	13.8	4.50e-06	0	43	0	470810624	18	4308
2026-01-02 02:03:10.97	329.70	27.26	-29.3	-30.9	13.7	3.00e-06	0	43	0	472907776	18	4344
2026-01-02 02:03:11.97	329.40	27.32	-29.0	-30.2	14.2	2.24e-03	0	43	0	475004928	18	4135
2026-01-02 02:03:12.97	329.10	27.37	-28.9	-30.5	14.4	4.50e-06	0	43	0	477102080	17	4313
2026-01-02 02:03:13.98	328.80	27.43	-29.0	-30.1	14.3	0.00e+00	0	43	0	479199232	18	4103
2026-01-02 02:03:14.98	328.50	27.49	-28.8	-30.3	14.4	4.08e-04	0	43	0	480247808	17	4243
2026-01-02 02:03:15.97	328.20	27.54	-29.1	-30.4	14.2	1.50e-06	0	43	0	482344960	18	4172
2026-01-02 02:03:16.97	327.90	27.60	-29.2	-30.7	13.9	1.50e-06	0	43	0	484442112	18	4268
2026-01-02 02:03:17.98	327.59	27.65	-29.4	-30.7	13.6	2.24e-03	0	43	0	486539264	19	4185
2026-01-02 02:03:18.98	327.29	27.70	-29.2	-30.7	13.8	2.24e-03	0	43	0	488636416	18	4263
2026-01-02 02:03:19.99	326.98	27.76	-29.1	-30.5	14.1	7.00e-07	0	43	0	489684992	18	4198
2026-01-02 02:03:20.99	326.68	27.81	-28.9	-30.0	14.4	7.00e-07	0	43	0	491782144	18	4046
2026-01-02 02:03:21.99	326.37	27.86	-29.1	-30.5	14.0	2.09e-03	0	43	0	493879296	18	4210
2026-01-02 02:03:22.99	326.06	27.91	-28.9	-29.9	14.2	7.00e-07	0	43	0	495976448	18	4049
2026-01-02 02:03:24.00	325.75	27.95	-28.8	-30.1	14.5	0.00e+00	0	43	0	498073600	17	4191
2026-01-02 02:03:25.00	325.44	28.00	-29.1	-30.5	14.0	2.52e-03	0	43	0	499122176	18	4201
2026-01-02 02:03:26.01	325.13	28.05	-29.0	-30.1	14.2	1.04e-03	0	43	0	501219328	18	4102
2026-01-02 02:03:27.01	324.81	28.10	-29.3	-30.9	13.8	2.20e-06	0	43	0	503316480	18	4327
2026-01-02 02:03:28.02	324.50	28.14	-29.4	-31.3	13.5	2.66e-03	0	43	0	505413632	18	4471
2026-01-02 02:03:29.03	324.18	28.19	-29.4	-31.1	13.6	9.59e-04	0	43	0	507510784	18	4419
2026-01-02 02:03:30.03	323.87	28.23	-29.2	-30.7	13.8	2.84e-03	0	43	0	508559360	18	4290
2026-01-02 02:03:31.03	323.55	28.27	-29.2	-30.7	13.9	1.50e-06	0	43	0	510656512	18	4265
2026-01-02 02:03:32.03	323.24	28.31	-29.2	-30.5	13.9	1.10e-03	0	43	0	512753664	18	4217
2026-01-02 02:03:33.03	322.92	28.35	-28.6	-29.6	14.9	2.58e-03	0	43	0	514850816	17	4035
2026-01-02 02:03:34.03	322.60	28.39	-28.9	-30.3	14.4	7.00e-07	0	43	0	515899392	17	4244
2026-01-02 02:03:35.04	322.28	28.43	-29.0	-30.6	14.3	6.54e-04	0	43	0	517996544	17	4328
2026-01-02 02:03:36.04	321.96	28.47	-29.2	-30.7	13.9	2.98e-03	0	43	0	520093696	18	4251
2026-01-02 02:03:37.05	321.64	28.51	-29.1	-30.4	14.1	2.86e-03	0	43	0	522190848	18	4181
2026-01-02 02:03:38.05	321.32	28.54	-29.2	-30.5	14.0	7.00e-07	0	43	0	524288000	18	4201
2026-01-02 02:03:39.04	321.00	28.58	-29.2	-30.6	14.1	2.81e-03	0	43	0	525336576	18	4222
2026-01-02 02:03:40.04	320.68	28.61	-29.1	-30.4	14.1	2.77e-03	0	44	0	527433728	18	4172
2026-01-02 02:03:41.04	320.35	28.65	-29.5	-30.9	13.5	4.50e-06	0	44	0	529530880	19	4223
2026-01-02 02:03:42.05	320.03	28.68	-29.8	-31.9	12.8	3.07e-03	0	43	0	531628032	19	4552
2026-01-02 02:03:43.05	319.70	28.71	-30.1	-32.2	12.1	3.35e-03	0	43	0	533725184	20	4607
2026-01-02 02:03:44.06	319.38	28.74	-30.5	-33.4	11.4	5.55e-04	0	43	0	534773760	20	5030
2026-01-02 02:03:45.06	319.05	28.77	-30.6	-33.1	11.1	4.40e-03	0	43	0	536870912	21	4853
2026-01-02 02:03:46.07	318.72	28.80	-30.5	-33.3	11.3	3.88e-03	0	43	0	538968064	20	5005
2026-01-02 02:03:47.08	318.39	28.82	-30.4	-33.1	11.5	1.01e-03	0	43	0	541065216	20	4936
2026-01-02 02:03:48.08	318.06	28.85	-30.2	-32.6	11.9	3.43e-03	0	43	0	543162368	20	4749
2026-01-02 02:03:49.08	317.74	28.87	-30.2	-32.6	11.9	3.14e-03	0	43	0	544210944	20	4748
2026-01-02 02:03:50.08	317.41	28.90	-30.3	-32.9	11.7	4.08e-04	0	43	0	546308096	20	4828
2026-01-02 02:03:51.07	317.08	28.92	-30.4	-33.1	11.5	3.20e-03	0	44	0	548405248	20	4923
2026-01-02 02:03:52.07	316.75	28.94	-30.3	-33.0	11.7	3.51e-03	0	43	0	550502400	20	4862
2026-01-02 02:03:53.07	316.42	28.96	-30.1	-32.3	12.1	4.26e-04	0	43	0	552599552	20	4622
2026-01-02 02:03:54.07	316.09	28.98	-30.1	-32.1	12.2	2.39e-03	0	43	0	553648128	20	4547
2026-01-02 02:03:55.07	315.76	29.00	-30.1	-32.3	12.1	1.81e-03	0	43	0	555745280	20	4616
2026-01-02 02:03:56.08	315.43	29.02	-30.1	-32.2	12.2	5.22e-04	0	43	0	557842432	20	4577
2026-01-02 02:03:57.09	315.10	29.04	-30.2	-32.6	12.0	1.96e-03	0	43	0	559939584	20	4719
2026-01-02 02:03:58.09	314.76	29.05	-30.4	-33.3	11.4	2.10e-03	0	44	0	560988160	20	4988
2026-01-02 02:03:59.09	314.43	29.07	-30.3	-32.9	11.6	8.42e-04	0	43	0	563085312	20	4864
2026-01-02 02:04:00.09	314.10	29.08	-30.3	-33.0	11.6	1.43e-03	0	43	0	565182464	20	4890
2026-01-02 02:04:01.09	313.77	29.09	-30.5	-33.0	11.3	1.36e-03	0	43	0	567279616	21	4783
2026-01-02 02:04:02.09	313.43	29.10	-30.7	-33.5	10.8	1.99e-03	0	43	0	569376768	21	4993
2026-01-02 02:04:03.10	313.10	29.12	-30.5	-33.1	11.2	1.62e-03	0	43	0	571473920	21	4839
2026-01-02 02:04:04.11	312.76	29.12	-30.4	-32.8	11.3	2.05e-03	0	43	0	572522496	21	4729
2026-01-02 02:04:05.11	312.43	29.13	-30.4	-33.2	11.4	1.51e-03	0	44	0	574619648	20	4999
2026-01-02 02:04:06.11	312.10	29.14	-30.8	-33.9	10.5	3.10e-03	0	43	0	576716800	21	5179
2026-01-02 02:04:07.11	311.76	29.15	-30.8	-34.0	10.4	6.52e-03	0	44	0	578813952	21	5218
2026-01-02 02:04:08.12	311.43	29.15	-30.7	-33.7	10.7	4.67e-03	0	43	0	579862528	21	5089
2026-01-02 02:04:09.12	311.09	29.15	-30.3	-32.3	11.6	9.93e-04	0	43	0	581959680	21	4558
2026-01-02 02:04:10.13	310.75	29.16	-29.9	-31.6	12.5	3.31e-03	0	43	0	584056832	20	4375
2026-01-02 02:04:11.13	310.42	29.16	-29.7	-31.6	13.0	5.95e-04	0	43	0	586153984	19	4460
2026-01-02 02:04:12.13	310.09	29.16	-29.2	-30.1	14.0	2.75e-03	0	43	0	588251136	19	3990
2026-01-02 02:04:13.13	309.75	29.16	-29.6	-31.2	13.3	1.98e-05	0	43	0	589299712	19	4318
2026-01-02 02:04:14.13	309.42	29.16	-29.5	-31.1	13.4	2.29e-04	0	43	0	591396864	19	4293
2026-01-02 02:04:15.13	309.08	29.15	-29.9	-32.0	12.8	2.45e-03	0	43	0	593494016	19	4600
2026-01-02 02:04:16.14	308.75	29.15	-29.9	-31.7	12.5	8.92e-05	0	43	0	595591168	20	4415
2026-01-02 02:04:17.14	308.41	29.14	-30.2	-32.4	12.0	2.63e-04	0	43	0	597688320	20	4674
2026-01-02 02:04:18.15	308.08	29.14	-30.3	-32.7	11.9	2.96e-03	0	43	0	598736896	20	4753
2026-01-02 02:04:19.15	307.74	29.13	-30.5	-32.8	11.4	3.47e-03	0	43	0	600834048	21	4691
2026-01-02 02:04:20.16	307.41	29.12	-30.3	-32.3	11.8	8.04e-04	0	44	0	602931200	21	4516
2026-01-02 02:04:21.16	307.07	29.11	-30.3	-32.8	11.9	2.95e-03	0	43	0	605028352	20	4771
2026-01-02 02:04:22.16	306.74	29.10	-30.3	-32.7	12.0	2.85e-03	0	43	0	607125504	20	4733
2026-01-02 02:04:23.17	306.40	29.09	-30.2	-32.4	12.1	2.16e-04	0	44	0	608174080	20	4633
2026-01-02 02:04:24.17	306.07	29.08	-30.3	-32.5	12.1	3.93e-04	0	44	0	610271232	20	4680
2026-01-02 02:04:25.17	305.74	29.06	-29.9	-31.4	12.7	2.28e-03	0	43	0	612368384	20	4290
2026-01-02 02:04:26.17	305.41	29.05	-29.7	-31.0	13.0	5.11e-05	0	43	0	614465536	20	4187
2026-01-02 02:04:27.18	305.07	29.03	-30.0	-31.9	12.4	1.17e-04	0	43	0	616562688	20	4464
2026-01-02 02:04:28.18	304.74	29.02	-30.4	-33.1	11.6	2.88e-03	0	43	0	617611264	20	4908
2026-01-02 02:04:29.18	304.41	29.00	-30.6	-33.2	11.1	1.69e-03	0	43	0	619708416	21	4861
2026-01-02 02:04:30.18	304.08	28.98	-30.4	-32.6	11.6	8.53e-04	0	43	0	621805568	21	4630
2026-01-02 02:04:31.18	303.75	28.96	-30.2	-32.5	12.0	3.55e-04	0	43	0	623902720	20	4667
2026-01-02 02:04:32.19	303.42	28.94	-30.0	-31.9	12.4	5.34e-04	0	43	0	624951296	20	4481
2026-01-02 02:04:33.19	303.09	28.92	-29.7	-31.4	13.2	4.73e-05	0	43	0	627048448	19	4389
2026-01-02 02:04:34.19	302.76	28.89	-29.5	-31.0	13.3	1.98e-05	0	43	0	629145600	19	4280
2026-01-02 02:04:35.19	302.43	28.87	-29.6	-31.1	13.3	2.51e-05	0	43	0	631242752	19	4314
2026-01-02 02:04:36.19	302.10	28.84	-29.8	-31.8	12.9	2.41e-03	0	43	0	633339904	19	4521
2026-01-02 02:04:37.20	301.77	28.82	-29.5	-30.9	13.5	2.51e-05	0	43	0	635437056	19	4224
2026-01-02 02:04:38.20	301.45	28.79	-29.4	-30.7	13.6	5.30e-06	0	44	0	636485632	19	4182
2026-01-02 02:04:39.20	301.12	28.76	-29.2	-30.7	13.9	2.35e-03	0	43	0	638582784	18	4280
2026-01-02 02:04:40.20	300.79	28.73	-29.3	-30.9	13.7	3.00e-06	0	43	0	640679936	18	4344
2026-01-02 02:04:41.21	300.47	28.70	-29.4	-31.1	13.6	9.90e-06	0	43	0	642777088	18	4411
2026-01-02 02:04:42.21	300.14	28.67	-29.6	-31.1	13.3	9.90e-06	0	44	0	643825664	19	4310
2026-01-02 02:04:43.21	299.82	28.64	-29.3	-30.4	13.8	6.10e-06	0	43	0	645922816	19	4074
2026-01-02 02:04:44.21	299.50	28.61	-29.3	-30.3	13.8	3.00e-06	0	43	0	648019968	19	4046
2026-01-02 02:04:45.21	299.17	28.57	-29.5	-30.8	13.5	1.50e-06	0	43	0	650117120	19	4203
2026-01-02 02:04:46.21	298.85	28.54	-29.2	-30.7	13.9	2.32e-03	0	43	0	652214272	18	4265
2026-01-02 02:04:47.22	298.53	28.50	-29.1	-30.4	14.1	2.20e-06	0	43	0	653262848	18	4177
2026-01-02 02:04:48.22	298.21	28.46	-28.7	-29.4	14.7	7.00e-07	0	43	0	655360000	18	3897
2026-01-02 02:04:49.23	297.88	28.42	-28.8	-30.0	14.6	1.50e-06	0	43	0	657457152	17	4161
2026-01-02 02:04:50.23	297.57	28.38	-29.2	-30.7	13.9	2.20e-06	0	43	0	659554304	18	4247
2026-01-02 02:04:51.24	297.24	28.34	-29.3	-31.0	13.8	7.00e-07	0	43	0	661651456	18	4357
2026-01-02 02:04:52.24	296.93	28.30	-29.4	-31.2	13.6	2.20e-06	0	43	0	662700032	18	4425
2026-01-02 02:04:53.25	296.61	28.26	-29.3	-30.8	13.8	1.14e-05	0	43	0	664797184	18	4288
2026-01-02 02:04:54.25	296.29	28.22	-29.5	-31.0	13.5	8.30e-06	0	43	0	666894336	19	4246
2026-01-02 02:04:55.26	295.97	28.17	-29.8	-31.8	12.9	3.43e-05	0	43	0	668991488	19	4517
2026-01-02 02:04:56.26	295.66	28.13	-29.9	-32.1	12.8	4.88e-05	0	43	0	671088640	19	4612
2026-01-02 02:04:57.27	295.34	28.08	-30.2	-32.3	12.2	1.95e-04	0	43	0	672137216	20	4601
2026-01-02 02:04:58.27	295.03	28.04	-30.1	-32.1	12.3	1.54e-04	0	43	0	674234368	20	4541
2026-01-02 02:04:59.27	294.72	27.99	-30.2	-32.2	12.2	2.30e-04	0	44	0	676331520	20	4580
2026-01-02 02:05:00.28	294.41	27.94	-30.1	-32.1	12.3	2.15e-04	0	43	0	678428672	20	4548
2026-01-02 02:05:01.28	294.10	27.89	-29.6	-30.7	13.2	5.41e-05	0	43	0	680525824	20	4084
2026-01-02 02:05:02.28	293.79	27.84	-29.6	-31.0	12.5	1.60e-05	0	43	0	681574400	19	4253
2026-01-02 02:05:03.29	293.48	27.79	-29.6	-31.1	12.5	2.27e-03	0	43	0	683671552	19	4285
2026-01-02 02:05:04.29	293.17	27.74	-29.7	-31.3	13.3	8.30e-06	0	43	0	685768704	19	4339
2026-01-02 02:05:05.29	292.87	27.69	-29.8	-31.6	12.6	1.90e-05	0	43	0	687865856	19	4432
2026-01-02 02:05:06.29	292.56	27.64	-30.0	-31.7	12.3	3.05e-05	0	43	0	688914432	20	4384
2026-01-02 02:05:07.29	292.26	27.58	-29.9	-31.4	12.9	5.18e-05	0	43	0	691011584	20	4283
2026-01-02 02:05:08.29	291.96	27.53	-29.9	-31.6	12.7	9.68e-05	0	44	0	693108736	20	4339
2026-01-02 02:05:09.30	291.65	27.47	-29.4	-30.7	13.7	2.05e-05	0	43	0	695205888	19	4135
2026-01-02 02:05:10.31	291.35	27.42	-29.4	-30.9	13.9	2.17e-04	0	43	0	697303040	18	4303
2026-01-02 02:05:11.31	291.05	27.36	-29.5	-30.9	13.6	3.80e-06	0	43	0	698351616	19	4201
2026-01-02 02:05:12.32	290.75	27.30	-29.7	-31.3	13.3	1.44e-05	0	43	0	700448768	19	4339
2026-01-02 02:05:13.33	290.45	27.24	-29.7	-31.4	13.3	2.21e-05	0	43	0	702545920	19	4358
2026-01-02 02:05:14.33	290.16	27.18	-29.9	-31.5	12.8	2.97e-05	0	43	0	704643072	20	4324
2026-01-02 02:05:15.33	289.86	27.12	-30.0	-32.2	12.8	5.72e-05	0	43	0	706740224	19	4627
2026-01-02 02:05:16.34	289.56	27.06	-30.0	-31.8	12.6	7.70e-05	0	43	0	707788800	20	4419
2026-01-02 02:05:17.34	289.27	27.00	-30.1	-32.0	12.3	2.82e-03	0	43	0	709885952	20	4505
2026-01-02 02:05:18.34	288.98	26.94	-30.1	-32.1	12.3	1.65e-04	0	44	0	711983104	20	4526
2026-01-02 02:05:19.34	288.69	26.88	-30.4	-33.0	11.8	1.96e-04	0	43	0	714080256	20	4845
2026-01-02 02:05:20.35	288.40	26.81	-30.6	-32.9	11.4	3.57e-03	0	43	0	716177408	21	4717
2026-01-02 02:05:21.36	288.11	26.75	-30.5	-32.8	11.5	3.66e-03	0	43	0	717225984	21	4668
2026-01-02 02:05:22.36	287.82	26.68	-30.3	-32.1	12.0	5.87e-04	0	43	0	719323136	21	4422
2026-01-02 02:05:23.37	287.53	26.62	-30.4	-32.8	11.8	3.13e-03	0	43	0	721420288	20	4785
2026-01-02 02:05:24.37	287.25	26.55	-30.6	-32.9	11.5	3.28e-03	0	43	0	723517440	21	4718
2026-01-02 02:05:25.38	286.96	26.49	-30.7	-33.3	11.2	1.16e-03	0	43	0	725614592	21	4857
2026-01-02 02:05:26.38	286.68	26.42	-30.6	-33.1	11.3	8.65e-04	0	43	0	726663168	21	4788
2026-01-02 02:05:27.39	286.40	26.35	-30.5	-32.7	11.6	3.51e-03	0	44	0	728760320	21	4650
2026-01-02 02:05:28.39	286.12	26.28	-30.3	-32.0	12.1	4.25e-04	0	43	0	730857472	21	4411
2026-01-02 02:05:29.39	285.84	26.21	-30.2	-32.5	12.1	2.43e-04	0	43	0	732954624	20	4652
2026-01-02 02:05:30.40	285.56	26.14	-30.3	-32.6	12.0	2.82e-03	0	43	0	735051776	20	4679
2026-01-02 02:05:31.40	285.28	26.07	-30.2	-32.3	12.2	4.23e-04	0	43	0	736100352	20	4582
2026-01-02 02:05:32.40	285.01	26.00	-30.2	-32.2	12.3	1.28e-04	0	43	0	738197504	20	4563
2026-01-02 02:05:33.40	284.73	25.93	-30.0	-31.9	12.5	1.14e-04	0	43	0	740294656	20	4461
2026-01-02 02:05:34.40	284.46	25.86	-30.2	-32.4	12.1	1.73e-04	0	43	0	742391808	20	4635
2026-01-02 02:05:35.41	284.19	25.79	-30.2	-32.5	12.0	8.20e-04	0	43	0	744488960	20	4646
2026-01-02 02:05:36.41	283.92	25.72	-29.8	-31.3	12.8	1.95e-04	0	43	0	745537536	20	4263
2026-01-02 02:05:37.41	283.65	25.64	-29.3	-30.2	14.0	6.80e-06	0	44	0	747634688	19	4016
2026-01-02 02:05:38.41	283.38	25.57	-29.1	-29.7	14.3	1.29e-05	0	43	0	749731840	19	3868
2026-01-02 02:05:39.41	283.12	25.50	-28.8	-29.5	14.8	2.59e-04	0	43	0	751828992	18	3887
2026-01-02 02:05:40.41	282.85	25.42	-29.0	-30.1	14.4	0.00e+00	0	43	0	753926144	18	4060
2026-01-02 02:05:41.42	282.59	25.35	-29.2	-30.6	14.1	1.19e-03	0	43	0	754974720	18	4210
2026-01-02 02:05:42.42	282.32	25.27	-29.6	-31.2	13.4	1.21e-03	0	43	0	757071872	19	4317
2026-01-02 02:05:43.43	282.06	25.19	-29.7	-31.4	13.2	1.90e-05	0	43	0	759169024	19	4386
2026-01-02 02:05:44.43	281.80	25.12	-29.8	-31.7	13.0	4.38e-04	0	43	0	761266176	19	4468
2026-01-02 02:05:45.43	281.54	25.04	-29.9	-31.9	12.9	3.31e-04	0	43	0	762314752	19	4532
2026-01-02 02:05:46.43	281.28	24.96	-30.1	-32.2	12.2	9.61e-05	0	43	0	764411904	20	4553
2026-01-02 02:05:47.44	281.03	24.89	-30.0	-31.8	12.5	1.90e-04	0	43	0	766509056	20	4421
2026-01-02 02:05:48.44	280.77	24.81	-30.0	-31.8	12.5	2.23e-04	0	44	0	768606208	20	4434
2026-01-02 02:05:49.45	280.52	24.73	-30.1	-32.2	12.2	2.28e-04	0	43	0	770703360	20	4578
2026-01-02 02:05:50.44	280.27	24.65	-30.0	-31.8	12.4	2.23e-04	0	43	0	771751936	20	4440
2026-01-02 02:05:51.44	280.01	24.57	-30.1	-32.1	12.3	1.16e-03	0	44	0	773849088	20	4538
2026-01-02 02:05:52.44	279.76	24.49	-29.9	-31.6	12.6	8.85e-05	0	43	0	775946240	20	4383
2026-01-02 02:05:53.44	279.52	24.41	-29.9	-31.5	12.7	1.99e-03	0	43	0	778043392	20	4344
2026-01-02 02:05:54.43	279.27	24.33	-29.9	-31.5	12.6	2.16e-03	0	43	0	780140544	20	4353
2026-01-02 02:05:55.43	279.03	24.25	-29.9	-31.7	12.5	9.84e-05	0	43	0	781189120	20	4401
2026-01-02 02:05:56.44	278.78	24.17	-29.8	-31.3	12.7	2.43e-03	0	43	0	783286272	20	4287
2026-01-02 02:05:57.44	278.54	24.09	-30.0	-31.8	12.4	2.74e-03	0	43	0	785383424	20	4441
2026-01-02 02:05:58.44	278.29	24.01	-29.8	-31.7	12.9	2.62e-04	0	43	0	787480576	19	4479
2026-01-02 02:05:59.44	278.05	23.93	-29.5	-31.0	13.4	2.88e-03	0	44	0	788529152	19	4257
2026-01-02 02:06:00.44	277.81	23.85	-29.3	-30.9	13.8	2.85e-03	0	43	0	790626304	18	4308
2026-01-02 02:06:01.44	277.57	23.76	-29.2	-30.6	13.9	2.39e-04	0	43	0	792723456	18	4238
2026-01-02 02:06:02.44	277.34	23.68	-28.9	-29.7	14.5	2.74e-03	0	43	0	794820608	18	3969
2026-01-02 02:06:03.44	277.10	23.60	-28.9	-30.3	14.4	2.46e-03	0	43	0	796917760	17	4243
2026-01-02 02:06:04.45	276.87	23.52	-28.9	-30.2	14.4	2.42e-04	0	43	0	797966336	17	4221
2026-01-02 02:06:05.45	276.63	23.43	-28.9	-30.2	14.4	2.40e-03	0	44	0	800063488	17	4213
2026-01-02 02:06:06.45	276.40	23.35	-28.7	-29.8	14.7	2.63e-03	0	43	0	802160640	17	4101
2026-01-02 02:06:07.46	276.17	23.26	-28.7	-29.7	14.7	7.00e-07	0	43	0	804257792	17	4076
2026-01-02 02:06:08.46	275.94	23.18	-28.7	-29.9	14.6	2.18e-03	0	43	0	806354944	17	4131
2026-01-02 02:06:09.46	275.71	23.10	-28.5	-29.4	15.0	2.12e-03	0	43	0	807403520	17	3987
2026-01-02 02:06:10.46	275.48	23.01	-28.6	-29.5	14.9	1.50e-06	0	43	0	809500672	17	3997
2026-01-02 02:06:11.46	275.26	22.93	-28.5	-29.3	15.0	0.00e+00	0	43	0	811597824	17	3944
2026-01-02 02:06:12.46	275.03	22.84	-28.3	-29.4	15.3	2.09e-03	0	43	0	813694976	16	4075
2026-01-02 02:06:13.46	274.81	22.76	-28.2	-29.1	15.5	1.85e-04	0	43	0	815792128	16	3975
2026-01-02 02:06:14.46	274.59	22.67	-28.2	-29.0	15.5	2.16e-03	0	44	0	816840704	16	3971
2026-01-02 02:06:15.46	274.37	22.59	-28.1	-28.8	15.4	3.00e-06	0	43	0	818937856	16	3901
2026-01-02 02:06:16.47	274.14	22.50	-28.1	-28.9	15.6	2.25e-04	0	44	0	821035008	16	3931
2026-01-02 02:06:17.47	273.92	22.42	-28.1	-28.9	15.6	2.33e-03	0	43	0	823132160	16	3925
2026-01-02 02:06:18.47	273.71	22.33	-27.6	-28.3	16.0	3.80e-06	0	43	0	825229312	15	3875
2026-01-02 02:06:19.47	273.49	22.24	-27.7	-28.5	15.9	4.50e-05	0	44	0	826277888	15	3946
2026-01-02 02:06:20.48	273.27	22.16	-28.2	-29.0	15.5	2.18e-03	0	43	0	828375040	16	3951
2026-01-02 02:06:21.48	273.06	22.07	-28.5	-29.8	15.0	6.10e-06	0	43	0	830472192	16	4187
2026-01-02 02:06:22.48	272.85	21.98	-28.7	-29.7	14.7	0.00e+00	0	43	0	832569344	17	4068
2026-01-02 02:06:23.49	272.63	21.90	-28.8	-30.2	14.5	2.17e-03	0	43	0	833617920	17	4199
2026-01-02 02:06:24.49	272.42	21.81	-29.0	-30.2	14.1	2.50e-03	0	44	0	835715072	18	4130
2026-01-02 02:06:25.49	272.22	21.72	-29.3	-31.0	13.6	3.00e-06	0	43	0	837812224	18	4360
2026-01-02 02:06:26.49	272.01	21.64	-29.3	-30.9	13.7	2.44e-03	0	43	0	839909376	18	4324
2026-01-02 02:06:27.50	271.80	21.55	-29.2	-30.7	13.8	2.26e-03	0	43	0	842006528	18	4279
2026-01-02 02:06:28.50	271.59	21.46	-29.0	-30.0	14.2	7.00e-07	0	43	0	844103680	18	4057
2026-01-02 02:06:29.51	271.39	21.37	-28.8	-30.1	14.4	7.00e-07	0	43	0	845152256	17	4192
2026-01-02 02:06:30.52	271.18	21.29	-28.7	-29.8	14.6	1.99e-03	0	43	0	847249408	17	4091
2026-01-02 02:06:31.52	270.98	21.20	-28.7	-29.9	14.6	0.00e+00	0	43	0	849346560	17	4137
2026-01-02 02:06:32.52	270.78	21.11	-28.7	-29.9	14.5	7.00e-07	0	43	0	851443712	17	4123
2026-01-02 02:06:33.53	270.58	21.02	-29.0	-30.5	14.2	2.20e-06	0	43	0	852492288	17	4311
2026-01-02 02:06:34.53	270.38	20.94	-29.0	-30.1	14.2	1.50e-06	0	43	0	854589440	18	4084
2026-01-02 02:06:35.53	270.18	20.85	-28.9	-30.3	14.3	7.00e-07	0	43	0	856686592	17	4236
2026-01-02 02:06:36.53	269.99	20.76	-28.5	-29.4	14.8	7.00e-07	0	43	0	858783744	17	3983
2026-01-02 02:06:37.53	269.79	20.67	-28.1	-28.3	15.5	0.00e+00	0	43	0	860880896	17	3695
2026-01-02 02:06:38.54	269.60	20.58	-27.7	-27.8	16.1	0.00e+00	0	43	0	861929472	16	3655
2026-01-02 02:06:39.53	269.40	20.50	-27.2	-27.2	16.5	1.50e-06	0	43	0	864026624	15	3619
2026-01-02 02:06:40.54	269.21	20.41	-27.3	-27.5	16.4	0.00e+00	0	43	0	866123776	15	3687
2026-01-02 02:06:41.54	269.02	20.32	-27.5	-27.9	16.2	1.93e-03	0	44	0	868220928	15	3767
2026-01-02 02:06:42.54	268.83	20.23	-27.5	-28.0	16.1	0.00e+00	0	43	0	870318080	15	3801
2026-01-02 02:06:43.54	268.64	20.15	-27.7	-28.4	15.9	0.00e+00	0	43	0	871366656	15	3913
2026-01-02 02:06:44.54	268.46	20.06	-27.8	-28.7	15.7	2.36e-03	0	43	0	873463808	15	3995
2026-01-02 02:06:45.55	268.27	19.97	-28.2	-29.0	15.4	0.00e+00	0	43	0	875560960	16	3965
2026-01-02 02:06:46.55	268.08	19.88	-28.2	-29.2	15.3	0.00e+00	0	43	0	877658112	16	4011
2026-01-02 02:06:47.55	267.90	19.79	-28.2	-29.2	15.3	0.00e+00	0	43	0	879755264	16	4019
2026-01-02 02:06:48.56	267.71	19.70	-28.3	-29.4	15.1	0.00e+00	0	43	0	880803840	16	4065
2026-01-02 02:06:49.56	267.53	19.62	-28.1	-28.8	15.5	0.00e+00	0	43	0	882900992	16	3915
2026-01-02 02:06:50.57	267.35	19.53	-28.1	-28.9	15.4	0.00e+00	0	43	0	884998144	16	3950
2026-01-02 02:06:51.57	267.17	19.44	-28.0	-28.7	15.5	9.10e-06	0	43	0	887095296	16	3894
2026-01-02 02:06:52.57	266.99	19.35	-28.1	-29.0	15.4	7.00e-07	0	43	0	889192448	16	3961
2026-01-02 02:06:53.58	266.81	19.26	-28.3	-29.3	15.2	0.00e+00	0	43	0	890241024	16	4050
2026-01-02 02:06:54.58	266.63	19.18	-28.4	-29.5	15.1	6.80e-06	0	43	0	892338176	16	4110
2026-01-02 02:06:55.58	266.46	19.09	-28.3	-29.4	15.1	0.00e+00	0	44	0	894435328	16	4073
2026-01-02 02:06:56.57	266.28	19.00	-28.5	-29.9	14.9	0.00e+00	0	43	0	896532480	16	4215
2026-01-02 02:06:57.57	266.11	18.91	-28.6	-29.6	14.7	4.50e-06	0	43	0	897581056	17	4035
2026-01-02 02:06:58.58	265.94	18.83	-28.7	-29.8	14.5	0.00e+00	0	43	0	899678208	17	4119
2026-01-02 02:06:59.57	265.77	18.74	-28.7	-29.8	14.5	0.00e+00	0	43	0	901775360	17	4111
2026-01-02 02:07:00.58	265.59	18.65	-28.7	-29.9	14.5	0.00e+00	0	43	0	903872512	17	4121
2026-01-02 02:07:01.58	265.42	18.56	-28.8	-30.2	14.2	1.50e-06	0	43	0	905969664	17	4213
2026-01-02 02:07:02.59	265.25	18.47	-28.7	-29.9	14.5	2.20e-06	0	43	0	907018240	17	4131
2026-01-02 02:07:03.59	265.09	18.39	-28.6	-29.7	14.6	0.00e+00	0	44	0	909115392	17	4081
2026-01-02 02:07:04.58	264.92	18.30	-28.4	-29.1	15.0	7.00e-07	0	44	0	911212544	17	3896
2026-01-02 02:07:05.58	264.76	18.21	-28.3	-29.3	15.1	0.00e+00	0	44	0	913309696	16	4063
2026-01-02 02:07:06.59	264.59	18.12	-28.0	-28.7	15.5	0.00e+00	0	43	0	915406848	16	3896
2026-01-02 02:07:07.58	264.43	18.04	-28.1	-28.9	15.4	0.00e+00	0	44	0	916455424	16	3939
2026-01-02 02:07:08.59	264.26	17.95	-28.1	-29.0	15.3	0.00e+00	0	43	0	918552576	16	3972
2026-01-02 02:07:09.59	264.10	17.86	-28.2	-29.1	15.2	0.00e+00	0	43	0	920649728	16	4014
2026-01-02 02:07:10.59	263.94	17.78	-28.4	-29.7	14.8	0.00e+00	0	43	0	922746880	16	4180
2026-01-02 02:07:11.59	263.78	17.69	-28.7	-30.0	14.3	7.00e-07	0	43	0	923795456	17	4178
2026-01-02 02:07:12.60	263.62	17.60	-29.0	-30.6	14.1	9.90e-06	0	43	0	925892608	17	4359
2026-01-02 02:07:13.60	263.46	17.51	-29.1	-30.6	13.6	9.10e-06	0	44	0	927989760	18	4307
2026-01-02 02:07:14.61	263.30	17.43	-29.2	-31.0	13.3	1.22e-05	0	43	0	930086912	18	4435
2026-01-02 02:07:15.60	263.15	17.34	-29.2	-30.7	13.7	1.67e-05	0	43	0	932184064	18	4275
2026-01-02 02:07:16.59	262.99	17.26	-29.0	-30.2	13.9	3.80e-06	0	43	0	933232640	18	4144
2026-01-02 02:07:17.60	262.84	17.17	-28.9	-30.1	14.0	1.50e-06	0	43	0	935329792	18	4093
2026-01-02 02:07:18.60	262.68	17.08	-28.7	-30.0	14.3	2.20e-06	0	43	0	937426944	17	4178
2026-01-02 02:07:19.60	262.53	17.00	-28.5	-29.5	14.2	0.00e+00	0	43	0	939524096	17	4017
2026-01-02 02:07:20.61	262.38	16.91	-28.6	-29.6	14.5	7.00e-07	0	43	0	941621248	17	4047
2026-01-02 02:07:21.61	262.23	16.82	-28.7	-29.9	14.4	7.00e-07	0	43	0	942669824	17	4139
2026-01-02 02:07:22.61	262.08	16.74	-28.6	-29.6	14.5	7.00e-07	0	44	0	944766976	17	4052
2026-01-02 02:07:23.62	261.93	16.65	-28.7	-30.0	14.3	0.00e+00	0	43	0	946864128	17	4171
2026-01-02 02:07:24.62	261.78	16.56	-29.0	-30.2	13.9	3.80e-06	0	43	0	948961280	18	4135
2026-01-02 02:07:25.62	261.63	16.48	-28.8	-30.2	14.2	1.50e-06	0	43	0	951058432	17	4217
2026-01-02 02:07:26.62	261.48	16.39	-28.8	-30.3	14.2	1.71e-03	0	43	0	952107008	17	4260
2026-01-02 02:07:27.63	261.34	16.31	-29.0	-30.3	13.8	3.00e-06	0	43	0	954204160	18	4181
2026-01-02 02:07:28.63	261.19	16.22	-29.2	-30.7	13.6	8.30e-06	0	43	0	956301312	18	4289
2026-01-02 02:07:29.64	261.04	16.14	-29.4	-31.2	13.3	6.80e-06	0	43	0	958398464	18	4445
2026-01-02 02:07:30.64	260.90	16.05	-29.6	-31.2	12.9	2.05e-05	0	43	0	960495616	19	4364
2026-01-02 02:07:31.64	260.76	15.97	-29.6	-31.2	12.9	3.66e-05	0	43	0	961544192	19	4367
2026-01-02 02:07:32.64	260.62	15.88	-29.7	-31.6	12.7	6.63e-05	0	44	0	963641344	19	4484
2026-01-02 02:07:33.64	260.48	15.80	-29.6	-31.3	12.9	9.53e-05	0	44	0	965738496	19	4374
2026-01-02 02:07:34.65	260.33	15.71	-29.3	-30.9	13.4	1.52e-05	0	43	0	967835648	18	4355
2026-01-02 02:07:35.65	260.20	15.63	-29.0	-30.3	13.8	5.30e-06	0	43	0	969932800	18	4181
2026-01-02 02:07:36.65	260.06	15.54	-28.9	-30.0	14.0	1.50e-06	0	43	0	970981376	18	4079
2026-01-02 02:07:37.65	259.92	15.46	-28.9	-30.4	14.0	3.00e-06	0	43	0	973078528	17	4299
2026-01-02 02:07:38.66	259.78	15.37	-28.7	-30.0	14.3	4.50e-06	0	43	0	975175680	17	4159
2026-01-02 02:07:39.66	259.64	15.29	-28.9	-30.5	14.0	7.00e-07	0	43	0	977272832	17	4323
2026-01-02 02:07:40.67	259.51	15.20	-29.0	-30.4	13.7	3.10e-03	0	44	0	979369984	18	4192
2026-01-02 02:07:41.67	259.37	15.12	-29.1	-30.4	13.7	3.80e-06	0	44	0	980418560	18	4212
2026-01-02 02:07:42.68	259.24	15.04	-29.3	-31.0	13.3	1.29e-05	0	43	0	982515712	18	4378
2026-01-02 02:07:43.68	259.11	14.95	-29.3	-31.0	13.3	3.58e-03	0	43	0	984612864	18	4399
2026-01-02 02:07:44.68	258.97	14.87	-29.4	-31.3	13.1	4.51e-03	0	43	0	986710016	18	4497
2026-01-02 02:07:45.67	258.84	14.79	-29.2	-30.9	13.4	2.21e-05	0	43	0	987758592	18	4357
2026-01-02 02:07:46.68	258.71	14.70	-29.2	-30.9	13.4	4.01e-03	0	43	0	989855744	18	4352
2026-01-02 02:07:47.68	258.58	14.62	-29.0	-30.3	13.7	3.72e-03	0	43	0	991952896	18	4185
2026-01-02 02:07:48.68	258.45	14.54	-29.0	-30.7	13.7	2.20e-06	0	43	0	994050048	17	4392
2026-01-02 02:07:49.68	258.32	14.45	-28.8	-30.3	14.0	6.80e-06	0	44	0	996147200	17	4262
2026-01-02 02:07:50.69	258.19	14.37	-28.7	-30.1	14.1	2.89e-03	0	43	0	997195776	17	4209
2026-01-02 02:07:51.69	258.07	14.29	-28.7	-29.9	14.2	1.52e-03	0	43	0	999292928	17	4163
2026-01-02 02:07:52.70	257.94	14.21	-28.7	-30.0	14.1	7.00e-07	0	43	0	1001390080	17	4190
2026-01-02 02:07:53.70	257.81	14.12	-28.7	-30.1	14.1	3.01e-03	0	43	0	1003487232	17	4197
2026-01-02 02:07:54.70	257.69	14.04	-28.7	-30.1	14.1	7.95e-04	0	44	0	1005584384	17	4207
2026-01-02 02:07:55.70	257.56	13.96	-28.8	-30.2	14.0	7.60e-06	0	44	0	1006632960	17	4242
2026-01-02 02:07:56.71	257.44	13.88	-28.8	-30.4	13.9	2.98e-03	0	44	0	1008730112	17	4306
2026-01-02 02:07:57.71	257.32	13.79	-28.9	-30.4	13.9	5.29e-04	0	43	0	1010827264	17	4311
2026-01-02 02:07:58.72	257.19	13.71	-28.8	-30.3	14.0	2.92e-03	0	44	0	1012924416	17	4263
2026-01-02 02:07:59.73	257.07	13.63	-28.9	-30.6	13.8	1.50e-06	0	43	0	1015021568	17	4354
2026-01-02 02:08:00.73	256.95	13.55	-29.1	-30.4	13.6	4.34e-04	0	43	0	1016070144	18	4221
2026-01-02 02:08:01.73	256.83	13.47	-29.3	-31.0	13.2	2.94e-03	0	43	0	1018167296	18	4402
2026-01-02 02:08:02.74	256.71	13.39	-29.6	-31.3	12.7	3.26e-03	0	43	0	1020264448	19	4416
2026-01-02 02:08:03.74	256.59	13.31	-29.6	-31.4	12.6	5.25e-04	0	44	0	1022361600	19	4436
2026-01-02 02:08:04.74	256.47	13.23	-29.6	-31.4	12.5	3.47e-03	0	43	0	1024458752	19	4448
2026-01-02 02:08:05.75	256.35	13.14	-29.7	-31.8	12.3	3.40e-03	0	44	0	1025507328	19	4579
2026-01-02 02:08:06.75	256.24	13.06	-29.8	-32.0	12.2	8.76e-04	0	44	0	1027604480	19	4629
2026-01-02 02:08:07.76	256.12	12.98	-29.7	-31.6	12.4	3.43e-03	0	43	0	1029701632	19	4528
2026-01-02 02:08:08.76	256.00	12.90	-29.6	-31.4	12.5	3.03e-03	0	44	0	1031798784	19	4429
2026-01-02 02:08:09.76	255.89	12.82	-29.7	-31.7	12.4	6.90e-04	0	43	0	1033895936	19	4558
2026-01-02 02:08:10.76	255.77	12.74	-29.3	-31.2	13.0	2.83e-03	0	44	0	1034944512	18	4464
2026-01-02 02:08:11.77	255.66	12.66	-29.3	-31.2	13.0	3.06e-03	0	43	0	1037041664	18	4483
2026-01-02 02:08:12.77	255.55	12.58	-29.4	-31.5	12.9	5.18e-04	0	43	0	1039138816	18	4564
2026-01-02 02:08:13.78	255.43	12.50	-29.5	-31.3	12.6	2.90e-03	0	43	0	1041235968	19	4397
2026-01-02 02:08:14.78	255.32	12.42	-29.7	-31.9	12.2	2.60e-03	0	43	0	1043333120	19	4613
2026-01-02 02:08:15.79	255.21	12.34	-29.7	-31.7	12.3	4.43e-04	0	43	0	1044381696	19	4553
2026-01-02 02:08:16.79	255.10	12.27	-29.6	-31.5	12.4	2.64e-03	0	43	0	1046478848	19	4490
2026-01-02 02:08:17.79	254.99	12.19	-29.6	-31.5	12.4	2.45e-03	0	43	0	1048576000	19	4478
2026-01-02 02:08:18.79	254.88	12.11	-29.9	-32.4	11.8	5.26e-04	0	43	0	1050673152	19	4813
2026-01-02 02:08:19.80	254.77	12.03	-30.0	-32.1	11.6	3.26e-03	0	43	0	1051721728	20	4625
2026-01-02 02:08:20.79	254.66	11.95	-30.1	-32.6	11.2	1.15e-03	0	43	0	1053818880	20	4811
2026-01-02 02:08:21.79	254.55	11.87	-30.1	-32.6	11.2	1.85e-03	0	43	0	1055916032	20	4799
2026-01-02 02:08:22.79	254.45	11.80	-30.1	-32.5	11.3	4.75e-03	0	43	0	1058013184	20	4763
2026-01-02 02:08:23.79	254.34	11.72	-30.0	-32.3	11.4	4.60e-03	0	43	0	1060110336	20	4688
2026-01-02 02:08:24.79	254.23	11.64	-29.9	-32.1	11.6	1.31e-03	0	44	0	1061158912	20	4603
2026-01-02 02:08:25.80	254.13	11.56	-30.0	-32.1	11.6	4.12e-03	0	44	0	1063256064	20	4631
2026-01-02 02:08:26.80	254.02	11.49	-29.7	-31.9	12.1	4.25e-03	0	44	0	1065353216	19	4629
2026-01-02 02:08:27.80	253.92	11.41	-29.8	-32.0	12.0	2.66e-04	0	44	0	1067450368	19	4677
2026-01-02 02:08:28.81	253.81	11.33	-29.6	-31.4	12.5	3.73e-03	0	44	0	1069547520	19	4467
2026-01-02 02:08:29.81	253.71	11.25	-29.2	-31.1	13.0	3.44e-03	0	44	0	1070596096	18	4436
2026-01-02 02:08:30.81	253.61	11.18	-29.1	-30.7	13.3	3.12e-05	0	43	0	1072693248	18	4311
2026-01-02 02:08:31.82	253.51	11.10	-29.1	-30.5	13.3	3.43e-03	0	44	0	1074790400	18	4275
2026-01-02 02:08:32.83	253.40	11.02	-29.1	-30.7	13.2	3.31e-03	0	44	0	1076887552	18	4321
2026-01-02 02:08:33.83	253.30	10.95	-29.2	-31.0	13.0	1.32e-03	0	44	0	1078984704	18	4409
2026-01-02 02:08:34.83	253.20	10.87	-29.4	-31.4	12.8	3.96e-05	0	44	0	1080033280	18	4550
2026-01-02 02:08:35.84	253.10	10.79	-29.4	-31.5	12.7	3.83e-03	0	44	0	1082130432	18	4599
2026-01-02 02:08:36.84	253.00	10.72	-29.5	-31.4	12.3	1.74e-03	0	44	0	1084227584	19	4470
2026-01-02 02:08:37.84	252.90	10.64	-29.7	-31.9	12.1	3.06e-04	0	43	0	1086324736	19	4643
2026-01-02 02:08:38.84	252.81	10.57	-29.8	-32.3	11.7	4.58e-04	0	44	0	1088421888	19	4786
2026-01-02 02:08:39.85	252.71	10.49	-29.9	-32.5	11.6	2.64e-03	0	44	0	1089470464	19	4873
2026-01-02 02:08:40.85	252.61	10.42	-30.1	-32.7	11.0	1.34e-03	0	43	0	1091567616	20	4858
2026-01-02 02:08:41.86	252.51	10.34	-30.1	-32.6	11.1	1.94e-03	0	43	0	1093664768	20	4816
2026-01-02 02:08:42.86	252.42	10.26	-30.1	-32.7	10.9	4.27e-03	0	44	0	1095761920	20	4858
2026-01-02 02:08:43.86	252.32	10.19	-30.2	-33.2	10.6	9.12e-03	0	43	0	1097859072	20	5049
2026-01-02 02:08:44.86	252.23	10.11	-30.3	-33.4	10.5	4.17e-03	0	44	0	1098907648	20	5161
2026-01-02 02:08:45.86	252.13	10.04	-30.3	-33.3	10.5	3.93e-03	0	44	0	1101004800	20	5103
2026-01-02 02:08:46.86	252.04	9.97	-30.3	-33.4	10.4	9.39e-03	0	43	0	1103101952	20	5148
2026-01-02 02:08:47.85	251.94	9.89	-30.3	-33.6	10.3	5.25e-03	0	43	0	1105199104	20	5231
2026-01-02 02:08:48.85	251.85	9.82	-30.3	-33.4	10.5	4.14e-03	0	43	0	1106247680	20	5142
2026-01-02 02:08:49.86	251.76	9.74	-30.2	-33.1	10.6	9.03e-03	0	43	0	1108344832	20	5041
2026-01-02 02:08:50.86	251.66	9.67	-30.2	-33.1	10.7	8.89e-03	0	44	0	1110441984	20	5012
2026-01-02 02:08:51.86	251.57	9.60	-30.3	-33.3	10.5	3.47e-03	0	44	0	1112539136	20	5098
2026-01-02 02:08:52.86	251.48	9.52	-30.2	-33.0	10.5	3.38e-03	0	44	0	1114636288	20	4998
2026-01-02 02:08:53.87	251.39	9.45	-30.1	-33.0	10.6	8.32e-03	0	44	0	1115684864	20	4978
2026-01-02 02:08:54.87	251.30	9.38	-30.2	-33.0	10.6	3.26e-03	0	43	0	1117782016	20	4988
2026-01-02 02:08:55.87	251.21	9.30	-30.2	-33.1	10.5	3.25e-03	0	43	0	1119879168	20	5041
2026-01-02 02:08:56.88	251.12	9.23	-30.3	-33.4	10.3	4.20e-03	0	43	0	1121976320	20	5162
2026-01-02 02:08:57.87	251.03	9.16	-30.2	-33.3	10.4	4.62e-03	0	43	0	1124073472	20	5099
2026-01-02 02:08:58.87	250.94	9.09	-30.3	-33.4	10.3	3.65e-03	0	43	0	1125122048	20	5168
2026-01-02 02:08:59.87	250.86	9.01	-30.3	-33.5	10.3	4.89e-03	0	44	0	1127219200	20	5179
2026-01-02 02:09:00.87	250.77	8.94	-30.2	-33.2	10.4	5.15e-03	0	44	0	1129316352	20	5090
2026-01-02 02:09:01.87	250.68	8.87	-30.5	-33.7	9.8	1.03e-02	0	44	0	1131413504	21	5197
2026-01-02 02:09:02.88	250.59	8.80	-30.5	-33.6	9.8	1.25e-02	0	44	0	1133510656	21	5165
2026-01-02 02:09:03.89	250.51	8.72	-30.6	-34.3	9.3	9.85e-03	0	44	0	1134559232	21	5468
2026-01-02 02:09:04.89	250.42	8.65	-30.6	-34.1	9.4	2.00e-02	0	44	0	1136656384	21	5378
2026-01-02 02:09:05.90	250.33	8.58	-30.5	-33.8	9.6	1.56e-02	0	43	0	1138753536	21	5252
2026-01-02 02:09:06.90	250.25	8.51	-30.5	-33.8	9.6	1.20e-02	0	43	0	1140850688	21	5269
2026-01-02 02:09:07.90	250.16	8.44	-30.6	-34.1	9.3	1.60e-02	0	44	0	1142947840	21	5411
2026-01-02 02:09:08.90	250.08	8.37	-30.5	-33.9	9.4	1.53e-02	0	43	0	1143996416	21	5314
2026-01-02 02:09:09.90	250.00	8.29	-30.6	-34.0	9.4	1.59e-02	0	43	0	1146093568	21	5362
2026-01-02 02:09:10.91	249.91	8.22	-30.6	-34.0	9.4	1.93e-02	0	44	0	1148190720	21	5376
2026-01-02 02:09:11.91	249.83	8.15	-30.6	-34.3	9.2	1.71e-02	0	43	0	1150287872	21	5498
2026-01-02 02:09:12.92	249.75	8.08	-30.4	-33.4	9.8	1.50e-02	0	44	0	1151336448	21	5101
2026-01-02 02:09:13.92	249.66	8.01	-30.2	-33.1	10.4	7.01e-03	0	44	0	1153433600	20	5068
2026-01-02 02:09:14.92	249.58	7.94	-30.1	-33.1	10.4	5.15e-03	0	44	0	1155530752	20	5045
2026-01-02 02:09:15.92	249.50	7.87	-30.1	-32.9	10.6	2.82e-03	0	44	0	1157627904	20	4971
2026-01-02 02:09:16.93	249.42	7.80	-29.9	-32.2	11.0	2.24e-03	0	43	0	1159725056	20	4721
2026-01-02 02:09:17.93	249.34	7.73	-30.0	-32.5	10.9	2.05e-03	0	44	0	1160773632	20	4812
2026-01-02 02:09:18.94	249.26	7.66	-30.0	-32.5	10.8	2.25e-03	0	43	0	1162870784	20	4836
2026-01-02 02:09:19.94	249.18	7.59	-29.9	-32.3	11.0	1.92e-03	0	44	0	1164967936	20	4757
2026-01-02 02:09:20.95	249.10	7.52	-29.9	-32.2	11.0	1.96e-03	0	43	0	1167065088	20	4723
2026-01-02 02:09:21.96	249.02	7.45	-29.9	-32.2	11.0	1.54e-03	0	43	0	1169162240	20	4715
2026-01-02 02:09:22.96	248.94	7.38	-29.7	-31.8	11.3	1.28e-03	0	43	0	1170210816	20	4574
2026-01-02 02:09:23.97	248.86	7.31	-29.7	-32.2	11.5	8.67e-04	0	44	0	1172307968	19	4773
2026-01-02 02:09:24.97	248.78	7.24	-29.8	-32.5	11.2	1.03e-03	0	44	0	1174405120	19	4900
2026-01-02 02:09:25.98	248.71	7.17	-29.6	-32.5	11.1	1.56e-03	0	43	0	1176502272	19	4993
2026-01-02 02:09:26.98	248.63	7.10	-29.2	-32.0	10.6	2.48e-03	0	44	0	1178599424	20	4968
2026-01-02 02:09:27.98	248.55	7.03	-32.1	-44.3	3.8	9.08e-01	0	44	104	1178599424	24	14699
2026-01-02 02:09:28.97	248.48	6.97	-32.7	-45.0	3.8	1.49e+00	0	44	104	1178599424	25	14988
2026-01-02 02:09:29.97	248.40	6.90	-32.9	-45.5	3.8	1.49e+00	0	43	104	1178599424	25	15425

#Closed at: 2026-01-02 02:09:30
#Recorded file [1178 MB]: D:/data/31010_260102_045858.dat