passes_logs/2026/01/02/R2M6_AANII_01/R2M6_AANII_01__20260102_103156_NOAA_20_JPSS-1_rec.log

#Pass ID: 20260102_103156_NOAA 20 (JPSS-1)
#Satellite: NOAA 20 (JPSS-1)
#Configuration: NOAA 20
#almurnet v.1.7.20240730
#Start time: 2026-01-02 10:31:58

#Version: 2.2.20231116
#Station: R2M6_AANII_01
#Location: 30.233357 lon 59.946436 lat
#TLE: 1 43013U 17073A   26001.30344297  .00000183  00000+0  10758-3 0  9995
#TLE: 2 43013  98.7621 302.3885 0001938  59.1624 300.9742 14.19532032420790

#Time	Az	El	Level	Level2	SNR	BER	BlckErr	Temp	State	Recorded	gain1	gain2
2026-01-02 10:31:58.09	166.85	7.10	-31.4	-37.2	4.9	1.31e+00	0	41	0	0	24	7088
2026-01-02 10:31:59.09	166.87	7.18	-31.3	-37.3	5.0	1.28e+00	0	41	104	0	23	7220
2026-01-02 10:32:00.09	166.89	7.26	-31.2	-37.0	7.9	7.34e-02	0	41	0	0	23	6991
2026-01-02 10:32:01.09	166.90	7.33	-31.2	-36.6	8.3	5.46e-02	0	41	0	1048576	23	6778
2026-01-02 10:32:02.10	166.92	7.41	-30.9	-35.7	9.0	3.44e-02	0	41	0	3145728	23	6222
2026-01-02 10:32:03.10	166.94	7.49	-31.0	-36.2	8.6	3.96e-02	0	41	0	5242880	23	6497
2026-01-02 10:32:04.11	166.96	7.57	-31.1	-36.3	8.6	4.23e-02	0	41	0	7340032	23	6549
2026-01-02 10:32:05.12	166.97	7.65	-30.9	-35.5	9.1	2.68e-02	0	41	0	9437184	23	6127
2026-01-02 10:32:06.12	166.99	7.73	-30.7	-35.4	9.6	1.56e-02	0	41	0	10485760	22	6158
2026-01-02 10:32:07.13	167.01	7.81	-30.6	-34.8	10.1	1.11e-02	0	41	0	12582912	22	5858
2026-01-02 10:32:08.13	167.03	7.89	-30.4	-34.3	10.4	5.13e-03	0	41	0	14680064	22	5635
2026-01-02 10:32:09.13	167.04	7.97	-30.3	-33.9	10.7	3.29e-03	0	41	0	16777216	22	5453
2026-01-02 10:32:10.14	167.06	8.05	-30.2	-34.0	11.0	2.17e-03	0	41	0	17825792	21	5594
2026-01-02 10:32:11.14	167.08	8.13	-30.3	-34.4	10.8	2.45e-03	0	41	0	19922944	21	5771
2026-01-02 10:32:12.15	167.10	8.21	-30.4	-34.7	10.5	3.46e-03	0	41	0	22020096	21	5919
2026-01-02 10:32:13.15	167.12	8.29	-30.3	-34.4	10.8	3.27e-03	0	41	0	24117248	21	5781
2026-01-02 10:32:14.15	167.13	8.38	-30.3	-34.4	10.8	2.70e-03	0	41	0	26214400	21	5793
2026-01-02 10:32:15.15	167.15	8.46	-30.3	-34.5	10.7	2.69e-03	0	42	0	28311552	21	5825
2026-01-02 10:32:16.16	167.17	8.54	-30.4	-34.7	10.6	3.13e-03	0	42	0	29360128	21	5903
2026-01-02 10:32:17.17	167.19	8.62	-30.5	-35.1	10.3	4.21e-03	0	42	0	31457280	21	6113
2026-01-02 10:32:18.17	167.21	8.71	-30.4	-34.6	10.7	3.46e-03	0	41	0	33554432	21	5864
2026-01-02 10:32:19.18	167.22	8.79	-30.3	-34.4	10.9	2.44e-03	0	42	0	35651584	21	5766
2026-01-02 10:32:20.18	167.24	8.87	-30.2	-34.1	11.1	2.16e-03	0	42	0	36700160	21	5622
2026-01-02 10:32:21.19	167.26	8.96	-30.2	-34.0	11.2	1.30e-03	0	42	0	38797312	21	5583
2026-01-02 10:32:22.18	167.28	9.04	-30.2	-34.0	11.2	1.35e-03	0	42	0	40894464	21	5597
2026-01-02 10:32:23.18	167.30	9.12	-30.2	-34.0	11.2	1.59e-03	0	42	0	42991616	21	5597
2026-01-02 10:32:24.18	167.32	9.21	-30.3	-34.4	10.9	1.76e-03	0	42	0	45088768	21	5740
2026-01-02 10:32:25.18	167.34	9.29	-30.2	-34.0	11.2	1.59e-03	0	42	0	46137344	21	5577
2026-01-02 10:32:26.18	167.36	9.38	-30.0	-33.4	11.7	8.19e-04	0	42	0	48234496	21	5308
2026-01-02 10:32:27.19	167.38	9.46	-30.0	-33.2	11.8	4.73e-04	0	42	0	50331648	21	5245
2026-01-02 10:32:28.19	167.39	9.55	-30.0	-33.2	11.7	5.47e-04	0	42	0	52428800	21	5247
2026-01-02 10:32:29.20	167.41	9.63	-29.9	-33.2	11.8	4.54e-04	0	42	0	54525952	21	5212
2026-01-02 10:32:30.20	167.43	9.72	-30.0	-33.3	11.8	4.75e-04	0	42	0	55574528	21	5280
2026-01-02 10:32:31.20	167.45	9.80	-29.9	-32.9	12.1	3.08e-04	0	42	0	57671680	21	5094
2026-01-02 10:32:32.20	167.47	9.89	-29.9	-32.9	12.0	3.50e-04	0	42	0	59768832	21	5110
2026-01-02 10:32:33.20	167.49	9.98	-29.9	-33.0	12.0	3.13e-04	0	42	0	61865984	21	5137
2026-01-02 10:32:34.21	167.51	10.06	-29.9	-33.0	12.0	3.08e-04	0	42	0	63963136	21	5133
2026-01-02 10:32:35.21	167.53	10.15	-30.0	-33.2	11.8	3.87e-04	0	42	0	65011712	21	5229
2026-01-02 10:32:36.22	167.55	10.24	-30.1	-33.5	11.7	5.34e-04	0	42	0	67108864	21	5320
2026-01-02 10:32:37.22	167.57	10.33	-30.0	-33.2	11.9	4.81e-04	0	42	0	69206016	21	5194
2026-01-02 10:32:38.22	167.59	10.42	-29.9	-33.1	12.0	3.47e-04	0	42	0	71303168	21	5166
2026-01-02 10:32:39.22	167.61	10.51	-29.9	-33.0	12.0	3.20e-04	0	42	0	73400320	21	5126
2026-01-02 10:32:40.22	167.63	10.59	-29.9	-33.0	12.1	2.98e-04	0	42	0	74448896	21	5129
2026-01-02 10:32:41.22	167.65	10.68	-30.0	-33.1	12.0	3.52e-04	0	42	0	76546048	21	5169
2026-01-02 10:32:42.22	167.68	10.77	-29.9	-32.8	12.2	2.08e-04	0	42	0	78643200	21	5030
2026-01-02 10:32:43.22	167.70	10.86	-29.8	-32.7	12.3	1.73e-04	0	42	0	80740352	21	5018
2026-01-02 10:32:44.23	167.72	10.95	-29.9	-32.9	12.1	2.70e-04	0	42	0	81788928	21	5092
2026-01-02 10:32:45.23	167.74	11.04	-30.0	-33.2	12.0	3.00e-04	0	42	0	83886080	21	5202
2026-01-02 10:32:46.23	167.76	11.13	-30.2	-33.7	11.6	5.60e-04	0	42	0	85983232	21	5419
2026-01-02 10:32:47.24	167.78	11.23	-30.0	-33.2	11.9	4.67e-04	0	42	0	88080384	21	5216
2026-01-02 10:32:48.24	167.80	11.32	-29.9	-32.9	12.2	2.84e-04	0	42	0	90177536	21	5095
2026-01-02 10:32:49.24	167.82	11.41	-30.0	-33.2	12.0	2.82e-04	0	42	0	91226112	21	5205
2026-01-02 10:32:50.25	167.85	11.50	-30.1	-33.5	11.8	4.10e-04	0	42	0	93323264	21	5340
2026-01-02 10:32:51.24	167.87	11.59	-30.0	-33.3	11.9	4.07e-04	0	42	0	95420416	21	5255
2026-01-02 10:32:52.25	167.89	11.69	-30.0	-33.2	12.0	4.26e-04	0	42	0	97517568	21	5213
2026-01-02 10:32:53.26	167.91	11.78	-29.9	-33.1	12.1	2.97e-04	0	42	0	99614720	21	5154
2026-01-02 10:32:54.26	167.93	11.88	-30.0	-33.2	12.0	3.42e-04	0	42	0	100663296	21	5220
2026-01-02 10:32:55.27	167.96	11.97	-30.0	-33.1	12.0	2.97e-04	0	42	0	102760448	21	5196
2026-01-02 10:32:56.27	167.98	12.07	-30.0	-33.2	12.0	3.98e-04	0	42	0	104857600	21	5227
2026-01-02 10:32:57.28	168.00	12.16	-29.9	-33.0	12.2	2.95e-04	0	42	0	106954752	21	5125
2026-01-02 10:32:58.28	168.02	12.26	-29.9	-33.0	12.1	2.21e-04	0	42	0	109051904	21	5143
2026-01-02 10:32:59.29	168.05	12.35	-29.8	-32.8	12.2	2.37e-04	0	43	0	110100480	21	5085
2026-01-02 10:33:00.29	168.07	12.45	-29.6	-32.6	12.7	1.19e-04	0	42	0	112197632	20	5122
2026-01-02 10:33:01.30	168.09	12.54	-29.5	-32.3	13.0	6.94e-05	0	42	0	114294784	20	4992
2026-01-02 10:33:02.30	168.11	12.64	-29.3	-31.8	13.2	1.90e-05	0	43	0	116391936	20	4822
2026-01-02 10:33:03.30	168.14	12.74	-29.3	-32.4	13.3	1.75e-05	0	43	0	118489088	19	5113
2026-01-02 10:33:04.30	168.16	12.84	-29.3	-32.4	13.3	1.22e-05	0	43	0	119537664	19	5101
2026-01-02 10:33:05.30	168.18	12.93	-29.3	-32.3	13.3	1.98e-05	0	43	0	121634816	19	5093
2026-01-02 10:33:06.30	168.21	13.03	-29.4	-32.4	13.3	2.05e-05	0	43	0	123731968	19	5125
2026-01-02 10:33:07.30	168.23	13.13	-29.3	-32.4	13.3	1.52e-05	0	43	0	125829120	19	5124
2026-01-02 10:33:08.31	168.26	13.23	-29.3	-32.4	13.3	1.67e-05	0	43	0	127926272	19	5098
2026-01-02 10:33:09.32	168.28	13.33	-29.3	-32.3	13.4	1.44e-05	0	43	0	128974848	19	5076
2026-01-02 10:33:10.32	168.30	13.43	-29.4	-32.3	13.4	1.90e-05	0	43	0	131072000	19	5075
2026-01-02 10:33:11.33	168.33	13.53	-29.5	-32.7	13.2	1.83e-05	0	43	0	133169152	19	5188
2026-01-02 10:33:12.33	168.35	13.63	-29.5	-32.7	13.3	1.75e-05	0	43	0	135266304	19	5180
2026-01-02 10:33:13.33	168.38	13.73	-29.5	-32.6	13.3	1.83e-05	0	43	0	136314880	19	5164
2026-01-02 10:33:14.33	168.40	13.83	-29.5	-32.6	13.3	9.90e-06	0	43	0	138412032	19	5145
2026-01-02 10:33:15.34	168.43	13.94	-29.5	-32.7	13.3	1.44e-05	0	43	0	140509184	19	5184
2026-01-02 10:33:16.34	168.45	14.04	-29.5	-32.8	13.2	1.67e-05	0	43	0	142606336	19	5213
2026-01-02 10:33:17.34	168.48	14.14	-29.5	-32.7	13.3	2.21e-05	0	43	0	144703488	19	5196
2026-01-02 10:33:18.34	168.50	14.24	-29.4	-32.3	13.6	1.90e-05	0	43	0	146800640	19	5037
2026-01-02 10:33:19.35	168.53	14.35	-29.4	-32.3	13.6	1.67e-05	0	43	0	147849216	19	5024
2026-01-02 10:33:20.36	168.55	14.45	-29.4	-32.4	13.5	8.30e-06	0	43	0	149946368	19	5063
2026-01-02 10:33:21.35	168.58	14.56	-29.4	-32.5	13.5	9.90e-06	0	43	0	152043520	19	5095
2026-01-02 10:33:22.35	168.61	14.66	-29.5	-32.5	13.4	1.83e-05	0	43	0	154140672	19	5110
2026-01-02 10:33:23.36	168.63	14.77	-29.4	-32.4	13.5	9.90e-06	0	43	0	155189248	19	5075
2026-01-02 10:33:24.36	168.66	14.87	-29.5	-32.6	13.4	1.14e-05	0	43	0	157286400	19	5131
2026-01-02 10:33:25.37	168.69	14.98	-29.5	-32.6	13.4	9.90e-06	0	43	0	159383552	19	5146
2026-01-02 10:33:26.37	168.71	15.09	-29.5	-32.6	13.4	1.22e-05	0	43	0	161480704	19	5125
2026-01-02 10:33:27.37	168.74	15.19	-29.5	-32.5	13.5	1.37e-05	0	43	0	163577856	19	5105
2026-01-02 10:33:28.38	168.77	15.30	-29.5	-32.4	13.5	1.14e-05	0	43	0	164626432	19	5069
2026-01-02 10:33:29.38	168.79	15.41	-29.4	-32.3	13.6	9.90e-06	0	43	0	166723584	19	5021
2026-01-02 10:33:30.39	168.82	15.52	-29.4	-32.3	13.6	1.52e-05	0	43	0	168820736	19	5029
2026-01-02 10:33:31.39	168.85	15.63	-29.5	-32.4	13.6	9.10e-06	0	43	0	170917888	19	5051
2026-01-02 10:33:32.39	168.88	15.74	-29.5	-32.5	13.5	1.52e-05	0	43	0	173015040	19	5072
2026-01-02 10:33:33.39	168.90	15.85	-29.4	-32.3	13.7	8.30e-06	0	43	0	174063616	19	5015
2026-01-02 10:33:34.39	168.93	15.96	-29.5	-32.5	13.6	5.30e-06	0	43	0	176160768	19	5076
2026-01-02 10:33:35.39	168.96	16.07	-29.5	-32.5	13.6	1.37e-05	0	43	0	178257920	19	5056
2026-01-02 10:33:36.40	168.99	16.18	-29.4	-32.2	13.8	6.80e-06	0	43	0	180355072	19	4972
2026-01-02 10:33:37.40	169.02	16.30	-29.4	-32.3	13.7	8.30e-06	0	43	0	182452224	19	4992
2026-01-02 10:33:38.40	169.05	16.41	-29.4	-32.3	13.7	8.30e-06	0	43	0	183500800	19	4986
2026-01-02 10:33:39.40	169.07	16.52	-29.5	-32.4	13.7	4.50e-06	0	43	0	185597952	19	5012
2026-01-02 10:33:40.41	169.10	16.64	-29.5	-32.5	13.6	1.06e-05	0	43	0	187695104	19	5051
2026-01-02 10:33:41.41	169.13	16.75	-29.4	-32.3	13.8	3.80e-06	0	43	0	189792256	19	4979
2026-01-02 10:33:42.42	169.16	16.87	-29.5	-32.3	13.7	3.80e-06	0	43	0	191889408	19	4999
2026-01-02 10:33:43.42	169.19	16.98	-29.5	-32.3	13.7	9.90e-06	0	43	0	192937984	19	4995
2026-01-02 10:33:44.43	169.22	17.10	-29.5	-32.3	13.7	3.00e-06	0	43	0	195035136	19	4999
2026-01-02 10:33:45.43	169.25	17.21	-29.5	-32.5	13.6	6.80e-06	0	43	0	197132288	19	5066
2026-01-02 10:33:46.43	169.28	17.33	-29.4	-32.2	13.9	6.10e-06	0	43	0	199229440	19	4942
2026-01-02 10:33:47.44	169.31	17.45	-29.4	-32.0	13.9	3.80e-06	0	43	0	200278016	19	4896
2026-01-02 10:33:48.44	169.35	17.57	-29.5	-32.3	13.8	4.50e-06	0	43	0	202375168	19	4982
2026-01-02 10:33:49.45	169.38	17.69	-29.5	-32.4	13.7	7.60e-06	0	43	0	204472320	19	5010
2026-01-02 10:33:50.45	169.41	17.81	-29.4	-32.2	13.8	6.80e-06	0	43	0	206569472	19	4953
2026-01-02 10:33:51.45	169.44	17.92	-29.5	-32.3	13.8	6.10e-06	0	43	0	208666624	19	5004
2026-01-02 10:33:52.46	169.47	18.05	-29.4	-32.2	13.8	2.20e-06	0	43	0	209715200	19	4959
2026-01-02 10:33:53.46	169.50	18.17	-29.6	-32.6	13.6	6.80e-06	0	43	0	211812352	19	5093
2026-01-02 10:33:54.46	169.54	18.29	-29.7	-32.8	13.5	8.30e-06	0	43	0	213909504	19	5175
2026-01-02 10:33:55.46	169.57	18.41	-29.6	-32.8	13.5	1.29e-05	0	43	0	216006656	19	5164
2026-01-02 10:33:56.47	169.60	18.53	-29.8	-33.1	13.3	2.36e-05	0	43	0	218103808	19	5280
2026-01-02 10:33:57.48	169.63	18.66	-29.7	-33.0	13.4	1.60e-05	0	43	0	219152384	19	5242
2026-01-02 10:33:58.48	169.67	18.78	-29.8	-33.2	13.2	1.29e-05	0	43	0	221249536	19	5333
2026-01-02 10:33:59.49	169.70	18.91	-29.9	-33.4	13.1	3.20e-05	0	43	0	223346688	19	5393
2026-01-02 10:34:00.50	169.73	19.03	-29.8	-33.1	13.3	2.44e-05	0	43	0	225443840	19	5284
2026-01-02 10:34:01.50	169.77	19.16	-29.8	-33.2	13.3	1.44e-05	0	43	0	227540992	19	5310
2026-01-02 10:34:02.50	169.80	19.29	-29.8	-33.3	13.2	2.28e-05	0	43	0	228589568	19	5351
2026-01-02 10:34:03.51	169.84	19.41	-29.9	-33.4	13.1	2.97e-05	0	43	0	230686720	19	5390
2026-01-02 10:34:04.51	169.87	19.54	-29.9	-33.1	12.9	3.96e-05	0	43	0	232783872	20	5198
2026-01-02 10:34:05.52	169.91	19.67	-30.1	-33.5	12.6	6.79e-05	0	43	0	234881024	20	5353
2026-01-02 10:34:06.52	169.94	19.80	-30.2	-33.7	12.5	1.24e-04	0	43	0	236978176	20	5440
2026-01-02 10:34:07.52	169.98	19.93	-29.9	-33.0	13.0	4.50e-05	0	43	0	238026752	20	5153
2026-01-02 10:34:08.52	170.01	20.06	-29.8	-32.8	13.1	5.41e-05	0	43	0	240123904	20	5072
2026-01-02 10:34:09.52	170.05	20.19	-29.8	-32.6	13.3	2.13e-05	0	43	0	242221056	20	4984
2026-01-02 10:34:10.52	170.08	20.32	-29.7	-32.4	13.4	1.98e-05	0	43	0	244318208	20	4926
2026-01-02 10:34:11.52	170.12	20.46	-29.7	-32.3	13.5	1.60e-05	0	43	0	246415360	20	4880
2026-01-02 10:34:12.52	170.16	20.59	-29.8	-32.6	13.3	1.60e-05	0	43	0	247463936	20	4995
2026-01-02 10:34:13.53	170.20	20.72	-29.7	-32.4	13.4	1.37e-05	0	43	0	249561088	20	4922
2026-01-02 10:34:14.53	170.23	20.86	-29.7	-32.5	13.3	1.29e-05	0	43	0	251658240	20	4955
2026-01-02 10:34:15.54	170.27	20.99	-29.7	-32.3	13.5	8.30e-06	0	43	0	253755392	20	4889
2026-01-02 10:34:16.54	170.31	21.13	-29.7	-32.5	13.3	1.29e-05	0	43	0	254803968	20	4954
2026-01-02 10:34:17.54	170.35	21.27	-29.8	-32.6	13.3	1.60e-05	0	43	0	256901120	20	4981
2026-01-02 10:34:18.55	170.39	21.41	-29.9	-32.9	13.1	2.51e-05	0	43	0	258998272	20	5101
2026-01-02 10:34:19.55	170.43	21.54	-29.9	-32.9	13.1	3.05e-05	0	43	0	261095424	20	5088
2026-01-02 10:34:20.55	170.46	21.68	-29.9	-32.9	13.1	2.21e-05	0	43	0	263192576	20	5113
2026-01-02 10:34:21.54	170.50	21.82	-29.9	-32.9	13.1	3.28e-05	0	43	0	265289728	20	5105
2026-01-02 10:34:22.55	170.54	21.96	-29.9	-33.0	13.1	4.42e-05	0	43	0	266338304	20	5127
2026-01-02 10:34:23.56	170.58	22.10	-29.9	-32.9	13.1	1.67e-05	0	43	0	268435456	20	5111
2026-01-02 10:34:24.56	170.63	22.25	-29.9	-33.1	13.0	2.44e-05	0	43	0	270532608	20	5171
2026-01-02 10:34:25.57	170.67	22.39	-29.9	-33.1	13.0	3.20e-05	0	43	0	272629760	20	5165
2026-01-02 10:34:26.58	170.71	22.53	-29.8	-32.8	13.2	2.21e-05	0	43	0	273678336	20	5057
2026-01-02 10:34:27.58	170.75	22.68	-29.8	-32.8	13.2	1.37e-05	0	43	0	275775488	20	5046
2026-01-02 10:34:28.58	170.79	22.82	-29.9	-33.0	13.1	2.13e-05	0	43	0	277872640	20	5119
2026-01-02 10:34:29.58	170.83	22.97	-29.9	-32.9	13.2	2.44e-05	0	43	0	279969792	20	5087
2026-01-02 10:34:30.58	170.88	23.12	-29.9	-33.0	13.1	3.89e-05	0	43	0	282066944	20	5112
2026-01-02 10:34:31.59	170.92	23.27	-30.0	-33.2	13.0	2.74e-05	0	43	0	283115520	20	5198
2026-01-02 10:34:32.60	170.96	23.42	-30.1	-33.4	12.9	6.25e-05	0	43	0	285212672	20	5277
2026-01-02 10:34:33.60	171.01	23.56	-30.1	-33.4	12.9	6.10e-05	0	43	0	287309824	20	5286
2026-01-02 10:34:34.61	171.05	23.72	-30.1	-33.3	12.9	5.95e-05	0	43	0	289406976	20	5257
2026-01-02 10:34:35.61	171.10	23.87	-29.9	-33.0	13.1	4.34e-05	0	43	0	291504128	20	5125
2026-01-02 10:34:36.62	171.14	24.02	-30.0	-33.3	13.0	3.05e-05	0	43	0	292552704	20	5222
2026-01-02 10:34:37.62	171.19	24.17	-30.0	-33.2	13.0	5.18e-05	0	43	0	294649856	20	5186
2026-01-02 10:34:38.62	171.23	24.33	-29.9	-33.0	13.1	3.43e-05	0	43	0	296747008	20	5127
2026-01-02 10:34:39.63	171.28	24.48	-29.9	-32.9	13.2	2.28e-05	0	43	0	298844160	20	5067
2026-01-02 10:34:40.62	171.33	24.64	-29.9	-32.9	13.2	1.98e-05	0	43	0	300941312	20	5085
2026-01-02 10:34:41.62	171.37	24.79	-29.8	-32.7	13.3	2.36e-05	0	43	0	301989888	20	5025
2026-01-02 10:34:42.62	171.42	24.95	-29.8	-32.6	13.4	1.52e-05	0	43	0	304087040	20	4971
2026-01-02 10:34:43.63	171.47	25.11	-29.7	-32.4	13.6	7.60e-06	0	43	0	306184192	20	4883
2026-01-02 10:34:44.63	171.52	25.27	-29.9	-32.8	13.3	1.29e-05	0	43	0	308281344	20	5045
2026-01-02 10:34:45.63	171.57	25.43	-29.8	-32.6	13.4	1.90e-05	0	43	0	310378496	20	4960
2026-01-02 10:34:46.63	171.62	25.59	-29.8	-32.5	13.5	4.50e-06	0	43	0	311427072	20	4928
2026-01-02 10:34:47.63	171.67	25.75	-29.8	-32.7	13.4	1.67e-05	0	43	0	313524224	20	5009
2026-01-02 10:34:48.64	171.72	25.92	-29.9	-32.8	13.4	1.90e-05	0	43	0	315621376	20	5027
2026-01-02 10:34:49.64	171.77	26.08	-29.9	-32.8	13.3	1.60e-05	0	43	0	317718528	20	5049
2026-01-02 10:34:50.65	171.82	26.25	-30.0	-33.2	13.1	1.83e-05	0	43	0	319815680	20	5184
2026-01-02 10:34:51.65	171.87	26.41	-29.9	-33.0	13.2	3.12e-05	0	43	0	320864256	20	5103
2026-01-02 10:34:52.66	171.92	26.58	-29.8	-32.7	13.4	1.98e-05	0	43	0	322961408	20	5006
2026-01-02 10:34:53.66	171.98	26.75	-29.8	-32.5	13.6	1.14e-05	0	43	0	325058560	20	4918
2026-01-02 10:34:54.67	172.03	26.92	-29.8	-32.6	13.5	1.83e-05	0	43	0	327155712	20	4957
2026-01-02 10:34:55.68	172.08	27.09	-29.8	-32.5	13.5	1.29e-05	0	43	0	329252864	20	4944
2026-01-02 10:34:56.68	172.14	27.26	-30.0	-33.1	13.1	1.06e-05	0	43	0	330301440	20	5167
2026-01-02 10:34:57.68	172.19	27.43	-30.0	-33.0	13.2	2.89e-05	0	43	0	332398592	20	5123
2026-01-02 10:34:58.68	172.25	27.61	-29.9	-32.8	13.3	1.90e-05	0	43	0	334495744	20	5036
2026-01-02 10:34:59.68	172.31	27.78	-29.9	-32.9	13.3	1.60e-05	0	43	0	336592896	20	5069
2026-01-02 10:35:00.69	172.36	27.96	-29.9	-32.9	13.3	1.90e-05	0	43	0	337641472	20	5082
2026-01-02 10:35:01.69	172.42	28.13	-30.1	-33.4	13.0	3.12e-05	0	43	0	339738624	20	5270
2026-01-02 10:35:02.69	172.48	28.31	-30.2	-33.6	12.8	6.02e-05	0	43	0	341835776	20	5361
2026-01-02 10:35:03.70	172.54	28.49	-30.3	-34.0	12.6	9.76e-05	0	43	0	343932928	20	5501
2026-01-02 10:35:04.70	172.60	28.67	-30.5	-34.2	12.1	2.11e-04	0	43	0	346030080	21	5472
2026-01-02 10:35:05.70	172.66	28.85	-30.5	-34.2	12.1	3.39e-04	0	43	0	347078656	21	5465
2026-01-02 10:35:06.70	172.72	29.03	-30.5	-34.1	12.1	3.06e-04	0	43	0	349175808	21	5455
2026-01-02 10:35:07.71	172.78	29.22	-30.5	-34.0	12.2	2.16e-04	0	43	0	351272960	21	5415
2026-01-02 10:35:08.72	172.84	29.40	-30.6	-34.2	12.1	2.82e-04	0	43	0	353370112	21	5505
2026-01-02 10:35:09.72	172.90	29.59	-30.6	-34.4	11.9	3.38e-04	0	43	0	355467264	21	5591
2026-01-02 10:35:10.72	172.97	29.78	-30.7	-34.6	11.8	4.07e-04	0	43	0	356515840	21	5637
2026-01-02 10:35:11.72	173.03	29.96	-30.7	-34.5	11.8	4.86e-04	0	43	0	358612992	21	5627
2026-01-02 10:35:12.71	173.09	30.15	-30.7	-34.5	11.9	4.43e-04	0	43	0	360710144	21	5617
2026-01-02 10:35:13.71	173.16	30.34	-30.8	-34.9	11.6	4.78e-04	0	43	0	362807296	21	5808
2026-01-02 10:35:14.72	173.22	30.53	-30.8	-34.9	11.6	7.78e-04	0	43	0	364904448	21	5800
2026-01-02 10:35:15.72	173.29	30.73	-30.7	-34.5	11.9	4.06e-04	0	43	0	365953024	21	5612
2026-01-02 10:35:16.72	173.36	30.92	-30.7	-34.7	11.8	5.11e-04	0	43	0	368050176	21	5676
2026-01-02 10:35:17.72	173.43	31.12	-30.7	-34.7	11.7	4.40e-04	0	43	0	370147328	21	5704
2026-01-02 10:35:18.73	173.50	31.31	-30.8	-34.9	11.6	6.75e-04	0	43	0	372244480	21	5804
2026-01-02 10:35:19.74	173.57	31.51	-30.8	-35.0	11.6	6.64e-04	0	43	0	374341632	21	5834
2026-01-02 10:35:20.73	173.64	31.71	-30.9	-35.1	11.5	9.75e-04	0	43	0	375390208	21	5893
2026-01-02 10:35:21.73	173.71	31.91	-30.9	-35.3	11.4	1.06e-03	0	43	0	377487360	21	5948
2026-01-02 10:35:22.74	173.78	32.12	-30.9	-35.2	11.4	1.18e-03	0	43	0	379584512	21	5936
2026-01-02 10:35:23.74	173.85	32.32	-30.9	-35.1	11.5	8.67e-04	0	43	0	381681664	21	5869
2026-01-02 10:35:24.74	173.93	32.52	-30.8	-35.0	11.6	7.97e-04	0	43	0	383778816	21	5843
2026-01-02 10:35:25.75	174.00	32.73	-30.8	-35.0	11.5	6.55e-04	0	43	0	384827392	21	5844
2026-01-02 10:35:26.75	174.08	32.94	-30.8	-35.0	11.6	8.07e-04	0	43	0	386924544	21	5830
2026-01-02 10:35:27.75	174.16	33.15	-30.9	-35.2	11.4	8.89e-04	0	43	0	389021696	21	5918
2026-01-02 10:35:28.75	174.23	33.36	-30.8	-35.0	11.6	8.33e-04	0	43	0	391118848	21	5817
2026-01-02 10:35:29.76	174.31	33.57	-30.5	-34.0	12.3	3.97e-04	0	43	0	392167424	21	5386
2026-01-02 10:35:30.76	174.39	33.78	-30.2	-33.3	12.8	1.11e-04	0	43	0	394264576	21	5101
2026-01-02 10:35:31.77	174.47	34.00	-30.1	-32.8	13.2	3.50e-05	0	43	0	396361728	21	4910
2026-01-02 10:35:32.78	174.56	34.22	-29.9	-32.3	13.5	1.90e-05	0	43	0	398458880	21	4731
2026-01-02 10:35:33.77	174.64	34.43	-30.0	-32.5	13.4	2.21e-05	0	43	0	400556032	21	4808
2026-01-02 10:35:34.77	174.72	34.65	-29.9	-32.3	13.4	2.51e-05	0	43	0	401604608	21	4748
2026-01-02 10:35:35.78	174.81	34.87	-29.8	-32.1	13.6	3.00e-06	0	43	0	403701760	21	4670
2026-01-02 10:35:36.79	174.89	35.10	-29.9	-32.7	13.6	1.67e-05	0	43	0	405798912	20	4993
2026-01-02 10:35:37.79	174.98	35.32	-29.6	-31.9	14.0	3.80e-06	0	43	0	407896064	20	4707
2026-01-02 10:35:38.79	175.07	35.54	-29.4	-31.5	14.3	7.00e-07	0	43	0	409993216	20	4571
2026-01-02 10:35:39.79	175.16	35.77	-29.2	-31.3	14.8	1.50e-06	0	43	0	411041792	19	4615
2026-01-02 10:35:40.80	175.25	36.00	-29.2	-31.3	14.8	0.00e+00	0	43	0	413138944	19	4595
2026-01-02 10:35:41.81	175.34	36.23	-29.2	-31.4	14.8	7.00e-07	0	44	0	415236096	19	4629
2026-01-02 10:35:42.81	175.44	36.46	-29.3	-31.6	14.6	0.00e+00	0	43	0	417333248	19	4709
2026-01-02 10:35:43.81	175.53	36.69	-29.4	-31.9	14.4	0.00e+00	0	43	0	419430400	19	4820
2026-01-02 10:35:44.81	175.63	36.93	-29.5	-32.2	14.3	0.00e+00	0	43	0	420478976	19	4898
2026-01-02 10:35:45.81	175.72	37.16	-29.6	-32.4	14.2	7.00e-07	0	43	0	422576128	19	4963
2026-01-02 10:35:46.82	175.82	37.40	-29.7	-32.7	14.0	2.20e-06	0	43	0	424673280	19	5083
2026-01-02 10:35:47.82	175.92	37.64	-29.7	-32.7	14.0	3.80e-06	0	43	0	426770432	19	5090
2026-01-02 10:35:48.82	176.02	37.88	-29.8	-33.0	13.8	2.20e-06	0	43	0	428867584	19	5198
2026-01-02 10:35:49.82	176.12	38.12	-29.9	-33.3	13.6	5.30e-06	0	43	0	429916160	19	5291
2026-01-02 10:35:50.82	176.23	38.37	-29.9	-33.3	13.6	9.10e-06	0	43	0	432013312	19	5307
2026-01-02 10:35:51.83	176.34	38.61	-30.1	-33.4	13.1	1.14e-05	0	43	0	434110464	20	5239
2026-01-02 10:35:52.83	176.44	38.86	-30.2	-33.5	13.1	2.51e-05	0	43	0	436207616	20	5285
2026-01-02 10:35:53.84	176.55	39.11	-30.2	-33.7	13.0	3.12e-05	0	43	0	437256192	20	5364
2026-01-02 10:35:54.84	176.66	39.36	-30.5	-33.9	12.4	1.21e-04	0	43	0	439353344	21	5344
2026-01-02 10:35:55.84	176.78	39.61	-30.5	-34.0	12.4	1.30e-04	0	43	0	441450496	21	5372
2026-01-02 10:35:56.84	176.89	39.87	-30.5	-34.0	12.4	1.37e-04	0	44	0	443547648	21	5383
2026-01-02 10:35:57.85	177.01	40.13	-30.6	-34.2	12.2	1.95e-04	0	43	0	445644800	21	5479
2026-01-02 10:35:58.85	177.12	40.38	-30.6	-34.2	12.2	2.11e-04	0	43	0	447741952	21	5474
2026-01-02 10:35:59.85	177.24	40.64	-30.7	-34.4	12.1	2.32e-04	0	43	0	448790528	21	5558
2026-01-02 10:36:00.85	177.36	40.90	-30.6	-34.2	12.3	2.15e-04	0	44	0	450887680	21	5458
2026-01-02 10:36:01.86	177.49	41.17	-30.6	-34.1	12.3	1.62e-04	0	43	0	452984832	21	5398
2026-01-02 10:36:02.85	177.61	41.43	-30.6	-34.2	12.3	1.81e-04	0	43	0	455081984	21	5433
2026-01-02 10:36:03.86	177.74	41.70	-30.6	-34.2	12.2	2.37e-04	0	43	0	456130560	21	5468
2026-01-02 10:36:04.86	177.87	41.97	-30.7	-34.4	12.1	2.03e-04	0	43	0	458227712	21	5527
2026-01-02 10:36:05.86	178.00	42.24	-30.6	-34.1	12.3	1.96e-04	0	43	0	460324864	21	5407
2026-01-02 10:36:06.86	178.13	42.51	-30.4	-33.7	12.6	1.71e-04	0	43	0	462422016	21	5264
2026-01-02 10:36:07.85	178.27	42.78	-30.5	-34.0	12.4	1.07e-04	0	43	0	464519168	21	5364
2026-01-02 10:36:08.85	178.40	43.05	-30.4	-33.5	12.8	7.62e-05	0	43	0	465567744	21	5173
2026-01-02 10:36:09.86	178.54	43.33	-30.4	-33.6	12.7	6.17e-05	0	43	0	467664896	21	5203
2026-01-02 10:36:10.86	178.69	43.61	-30.5	-34.0	12.4	8.01e-05	0	43	0	469762048	21	5353
2026-01-02 10:36:11.86	178.83	43.89	-30.5	-33.8	12.6	1.24e-04	0	44	0	471859200	21	5291
2026-01-02 10:36:12.87	178.98	44.18	-30.4	-33.6	12.7	7.47e-05	0	43	0	473956352	21	5224
2026-01-02 10:36:13.88	179.13	44.46	-30.6	-34.2	12.3	1.08e-04	0	43	0	475004928	21	5460
2026-01-02 10:36:14.89	179.29	44.75	-30.7	-34.4	12.2	2.37e-04	0	43	0	477102080	21	5518
2026-01-02 10:36:15.89	179.44	45.04	-30.7	-34.6	12.1	2.46e-04	0	43	0	479199232	21	5615
2026-01-02 10:36:16.89	179.60	45.33	-30.6	-34.2	12.3	2.22e-04	0	43	0	481296384	21	5441
2026-01-02 10:36:17.89	179.76	45.62	-30.6	-34.3	12.2	1.57e-04	0	43	0	483393536	21	5494
2026-01-02 10:36:18.89	179.92	45.92	-30.6	-34.2	12.3	1.58e-04	0	43	0	484442112	21	5446
2026-01-02 10:36:19.90	180.09	46.22	-30.4	-33.7	12.7	1.24e-04	0	43	0	486539264	21	5231
2026-01-02 10:36:20.90	180.26	46.51	-30.5	-34.0	12.5	1.06e-04	0	43	0	488636416	21	5352
2026-01-02 10:36:21.90	180.44	46.81	-30.5	-33.9	12.5	1.20e-04	0	44	0	490733568	21	5319
2026-01-02 10:36:22.90	180.61	47.11	-30.5	-33.8	12.6	8.08e-05	0	43	0	492830720	21	5274
2026-01-02 10:36:23.90	180.79	47.42	-30.7	-34.5	12.2	1.59e-04	0	43	0	493879296	21	5568
2026-01-02 10:36:24.91	180.98	47.72	-30.7	-34.5	12.1	2.80e-04	0	43	0	495976448	21	5575
2026-01-02 10:36:25.92	181.17	48.03	-30.8	-34.8	11.9	3.11e-04	0	43	0	498073600	21	5702
2026-01-02 10:36:26.92	181.36	48.34	-31.0	-35.4	11.5	5.84e-04	0	43	0	500170752	21	5964
2026-01-02 10:36:27.92	181.55	48.65	-30.8	-34.7	12.0	6.42e-04	0	44	0	501219328	21	5643
2026-01-02 10:36:28.92	181.75	48.97	-30.6	-34.1	12.4	1.56e-04	0	43	0	503316480	21	5407
2026-01-02 10:36:29.93	181.95	49.28	-30.5	-33.9	12.5	1.57e-04	0	43	0	505413632	21	5339
2026-01-02 10:36:30.93	182.16	49.60	-30.1	-32.7	13.3	3.50e-05	0	44	0	507510784	21	4871
2026-01-02 10:36:31.93	182.37	49.92	-29.8	-32.0	13.8	1.29e-05	0	43	0	509607936	21	4625
2026-01-02 10:36:32.93	182.58	50.24	-29.7	-32.3	14.0	6.80e-06	0	43	0	510656512	20	4819
2026-01-02 10:36:33.94	182.81	50.56	-29.4	-31.4	14.5	0.00e+00	0	43	0	512753664	20	4532
2026-01-02 10:36:34.94	183.03	50.89	-29.0	-30.9	15.1	0.00e+00	0	44	0	514850816	19	4477
2026-01-02 10:36:35.95	183.26	51.21	-28.9	-30.6	15.4	0.00e+00	0	43	0	516947968	19	4368
2026-01-02 10:36:36.95	183.50	51.54	-28.8	-30.3	15.5	0.00e+00	0	43	0	519045120	19	4295
2026-01-02 10:36:37.95	183.74	51.87	-29.0	-30.9	15.2	0.00e+00	0	43	0	520093696	19	4478
2026-01-02 10:36:38.95	183.98	52.20	-28.6	-30.3	15.9	0.00e+00	0	43	0	522190848	18	4392
2026-01-02 10:36:39.95	184.23	52.53	-28.2	-29.9	16.4	0.00e+00	0	43	0	524288000	17	4385
2026-01-02 10:36:40.96	184.49	52.87	-27.9	-29.2	16.7	0.00e+00	0	43	0	526385152	17	4189
2026-01-02 10:36:41.96	184.75	53.21	-27.9	-29.2	16.8	0.00e+00	0	43	0	528482304	17	4161
2026-01-02 10:36:42.97	185.02	53.55	-27.9	-29.3	16.8	0.00e+00	0	43	0	529530880	17	4193
2026-01-02 10:36:43.98	185.30	53.89	-27.9	-29.2	16.8	0.00e+00	0	43	0	531628032	17	4179
2026-01-02 10:36:44.98	185.58	54.23	-27.8	-29.3	17.0	0.00e+00	0	43	0	533725184	16	4315
2026-01-02 10:36:45.99	185.87	54.58	-27.6	-29.0	17.3	0.00e+00	0	43	0	535822336	16	4221
2026-01-02 10:36:46.99	186.16	54.92	-27.5	-28.8	17.3	0.00e+00	0	43	0	537919488	16	4169
2026-01-02 10:36:47.99	186.46	55.27	-27.5	-28.8	17.4	0.00e+00	0	43	0	538968064	16	4158
2026-01-02 10:36:48.99	186.77	55.61	-27.6	-29.0	17.2	0.00e+00	0	43	0	541065216	16	4227
2026-01-02 10:36:49.99	187.08	55.96	-27.7	-29.3	17.1	0.00e+00	0	43	0	543162368	16	4293
2026-01-02 10:36:50.99	187.41	56.31	-28.2	-30.3	16.5	0.00e+00	0	43	0	545259520	16	4608
2026-01-02 10:36:51.99	187.74	56.66	-28.7	-31.0	15.9	0.00e+00	0	43	0	547356672	17	4696
2026-01-02 10:36:52.99	188.08	57.01	-28.9	-31.6	15.5	0.00e+00	0	43	0	548405248	17	4912
2026-01-02 10:36:53.98	188.42	57.36	-28.9	-31.5	15.5	0.00e+00	0	43	0	550502400	17	4873
2026-01-02 10:36:54.98	188.78	57.72	-28.9	-31.5	15.6	0.00e+00	0	43	0	552599552	17	4864
2026-01-02 10:36:55.98	189.15	58.07	-28.4	-30.3	16.3	0.00e+00	0	44	0	554696704	17	4474
2026-01-02 10:36:56.98	189.53	58.43	-28.1	-29.7	16.6	0.00e+00	0	43	0	555745280	17	4298
2026-01-02 10:36:57.98	189.91	58.79	-28.1	-29.7	16.7	0.00e+00	0	43	0	557842432	17	4306
2026-01-02 10:36:58.98	190.31	59.15	-28.4	-30.2	16.3	0.00e+00	0	43	0	559939584	17	4469
2026-01-02 10:36:59.98	190.72	59.50	-28.2	-29.9	16.5	0.00e+00	0	43	0	562036736	17	4373
2026-01-02 10:37:00.99	191.15	59.87	-28.1	-29.6	16.7	0.00e+00	0	43	0	564133888	17	4275
2026-01-02 10:37:01.99	191.58	60.23	-27.8	-29.0	17.1	0.00e+00	0	44	0	565182464	17	4109
2026-01-02 10:37:03.00	192.03	60.59	-27.8	-29.3	17.1	0.00e+00	0	43	0	567279616	16	4299
2026-01-02 10:37:04.01	192.49	60.96	-27.4	-28.5	17.6	0.00e+00	0	43	0	569376768	16	4095
2026-01-02 10:37:05.01	192.96	61.32	-27.1	-28.4	17.8	0.00e+00	0	43	0	571473920	15	4158
2026-01-02 10:37:06.01	193.44	61.68	-27.1	-28.4	17.8	0.00e+00	0	43	0	573571072	15	4164
2026-01-02 10:37:07.01	193.94	62.05	-27.1	-28.3	17.8	0.00e+00	0	43	0	574619648	15	4152
2026-01-02 10:37:08.01	194.46	62.41	-27.1	-28.2	17.9	0.00e+00	0	43	0	576716800	15	4124
2026-01-02 10:37:09.01	194.98	62.77	-27.4	-28.9	17.6	1.50e-06	0	43	0	578813952	15	4314
2026-01-02 10:37:10.02	195.54	63.14	-27.2	-28.5	17.7	0.00e+00	0	44	0	580911104	15	4191
2026-01-02 10:37:11.02	196.10	63.50	-27.3	-28.8	17.6	0.00e+00	0	43	0	583008256	15	4276
2026-01-02 10:37:12.02	196.68	63.86	-28.0	-30.4	16.7	3.00e-06	0	43	0	584056832	15	4745
2026-01-02 10:37:13.02	197.27	64.22	-27.7	-29.6	17.1	0.00e+00	0	43	0	586153984	15	4493
2026-01-02 10:37:14.02	197.89	64.58	-27.6	-29.5	17.3	0.00e+00	0	44	0	588251136	15	4465
2026-01-02 10:37:15.02	198.53	64.94	-27.8	-29.9	16.9	0.00e+00	0	43	0	590348288	15	4593
2026-01-02 10:37:16.03	199.19	65.31	-27.9	-30.3	16.8	0.00e+00	0	43	0	591396864	15	4702
2026-01-02 10:37:17.03	199.87	65.66	-28.9	-31.5	15.7	0.00e+00	0	43	0	593494016	17	4851
2026-01-02 10:37:18.04	200.58	66.02	-29.5	-32.1	14.8	1.50e-06	0	43	0	595591168	19	4822
2026-01-02 10:37:19.04	201.30	66.37	-30.4	-33.9	13.2	2.20e-06	0	43	0	597688320	20	5384
2026-01-02 10:37:20.04	202.05	66.73	-30.8	-34.7	12.3	1.90e-04	0	43	0	599785472	21	5602
2026-01-02 10:37:21.04	202.82	67.08	-30.6	-34.0	12.8	8.08e-05	0	43	0	601882624	21	5317
2026-01-02 10:37:22.05	203.62	67.43	-30.4	-33.4	13.3	3.05e-05	0	43	0	602931200	21	5066
2026-01-02 10:37:23.04	204.44	67.77	-30.5	-33.6	13.1	2.21e-05	0	43	0	605028352	21	5153
2026-01-02 10:37:24.05	205.30	68.11	-30.8	-34.6	12.4	7.70e-05	0	43	0	607125504	21	5574
2026-01-02 10:37:25.05	206.19	68.45	-30.9	-34.9	12.2	2.01e-04	0	43	0	609222656	21	5681
2026-01-02 10:37:26.05	207.10	68.78	-30.6	-34.1	12.8	1.26e-04	0	43	0	610271232	21	5342
2026-01-02 10:37:27.05	208.04	69.11	-30.2	-32.8	13.6	1.29e-05	0	43	0	612368384	21	4858
2026-01-02 10:37:28.05	209.02	69.44	-29.9	-31.9	14.2	3.00e-06	0	43	0	614465536	21	4563
2026-01-02 10:37:29.06	210.04	69.76	-30.0	-32.3	13.9	1.50e-06	0	43	0	616562688	21	4684
2026-01-02 10:37:30.07	211.09	70.08	-30.1	-32.6	13.8	3.80e-06	0	43	0	618659840	21	4781
2026-01-02 10:37:31.07	212.17	70.40	-30.0	-32.3	14.0	3.80e-06	0	43	0	619708416	21	4702
2026-01-02 10:37:32.07	213.29	70.70	-29.8	-32.2	14.3	0.00e+00	0	43	0	621805568	20	4758
2026-01-02 10:37:33.07	214.45	71.00	-30.1	-33.2	13.8	2.20e-06	0	44	0	623902720	20	5103
2026-01-02 10:37:34.08	215.65	71.30	-30.4	-33.9	13.3	1.29e-05	0	43	0	625999872	20	5380
2026-01-02 10:37:35.08	216.89	71.58	-31.0	-34.5	12.1	1.12e-04	0	43	0	628097024	22	5422
2026-01-02 10:37:36.08	218.16	71.86	-31.0	-34.6	12.1	2.46e-04	0	43	0	629145600	22	5453
2026-01-02 10:37:37.09	219.49	72.13	-30.6	-33.5	12.8	9.99e-05	0	43	0	631242752	22	5007
2026-01-02 10:37:38.09	220.85	72.39	-30.4	-32.8	13.3	1.44e-05	0	43	0	633339904	22	4736
2026-01-02 10:37:39.09	222.25	72.64	-30.7	-33.8	12.7	4.11e-05	0	43	0	635437056	22	5100
2026-01-02 10:37:40.09	223.69	72.89	-30.8	-33.9	12.6	9.91e-05	0	43	0	637534208	22	5168
2026-01-02 10:37:41.09	225.17	73.12	-31.0	-34.4	12.2	1.85e-04	0	43	0	638582784	22	5369
2026-01-02 10:37:42.10	226.72	73.34	-30.8	-33.9	12.7	1.58e-04	0	43	0	640679936	22	5171
2026-01-02 10:37:43.10	228.29	73.56	-30.4	-32.9	13.3	7.47e-05	0	43	0	642777088	22	4783
2026-01-02 10:37:44.10	229.90	73.75	-30.3	-32.6	13.4	1.06e-05	0	43	0	644874240	22	4666
2026-01-02 10:37:45.10	231.55	73.94	-30.4	-33.3	13.3	1.67e-05	0	43	0	646971392	21	5039
2026-01-02 10:37:46.10	233.24	74.12	-30.4	-33.4	13.3	1.06e-05	0	44	0	648019968	21	5055
2026-01-02 10:37:47.10	234.97	74.28	-30.6	-34.0	12.8	3.81e-05	0	43	0	650117120	21	5330
2026-01-02 10:37:48.11	236.75	74.43	-30.3	-33.2	13.3	2.67e-05	0	43	0	652214272	21	5011
2026-01-02 10:37:49.11	238.55	74.56	-30.2	-32.7	13.8	2.20e-06	0	43	0	654311424	21	4824
2026-01-02 10:37:50.12	240.39	74.68	-30.4	-33.3	13.3	6.10e-06	0	43	0	655360000	21	5049
2026-01-02 10:37:51.12	242.25	74.78	-30.2	-32.7	13.7	9.90e-06	0	43	0	657457152	21	4835
2026-01-02 10:37:52.12	244.13	74.87	-29.9	-32.0	14.1	7.00e-07	0	43	0	659554304	21	4575
2026-01-02 10:37:53.12	246.03	74.94	-29.8	-32.4	14.3	7.00e-07	0	43	0	661651456	20	4806
2026-01-02 10:37:54.13	247.97	75.00	-30.2	-33.3	13.7	3.00e-06	0	43	0	663748608	20	5143
2026-01-02 10:37:55.13	249.90	75.04	-30.2	-33.3	13.5	3.80e-06	0	43	0	664797184	20	5163
2026-01-02 10:37:56.14	251.85	75.06	-30.1	-33.1	13.8	6.80e-06	0	43	0	666894336	20	5087
2026-01-02 10:37:57.14	253.80	75.06	-29.9	-32.5	14.2	1.50e-06	0	44	0	668991488	20	4850
2026-01-02 10:37:58.13	255.72	75.06	-30.1	-33.0	13.9	3.80e-06	0	43	0	671088640	20	5028
2026-01-02 10:37:59.13	257.65	75.03	-30.3	-33.5	13.5	9.90e-06	0	44	0	673185792	20	5225
2026-01-02 10:38:00.13	259.58	74.99	-30.5	-33.7	13.0	2.21e-05	0	43	0	674234368	21	5192
2026-01-02 10:38:01.14	261.51	74.93	-30.4	-33.3	13.4	1.75e-05	0	43	0	676331520	21	5029
2026-01-02 10:38:02.14	263.41	74.85	-30.5	-33.5	13.3	1.37e-05	0	44	0	678428672	21	5113
2026-01-02 10:38:03.14	265.29	74.76	-30.5	-33.6	13.1	2.89e-05	0	43	0	680525824	21	5156
2026-01-02 10:38:04.15	267.15	74.66	-30.3	-33.2	13.4	1.75e-05	0	43	0	682622976	21	4981
2026-01-02 10:38:05.15	268.98	74.53	-31.1	-34.9	11.9	1.20e-04	0	43	0	683671552	22	5569
2026-01-02 10:38:06.15	270.77	74.40	-31.8	-36.5	10.4	1.58e-03	0	43	0	685768704	23	6235
2026-01-02 10:38:07.15	272.52	74.25	-32.2	-37.6	9.4	1.05e-02	0	43	0	687865856	24	6716
2026-01-02 10:38:08.16	274.26	74.08	-32.0	-36.7	9.8	1.38e-02	0	43	0	689963008	24	6232
2026-01-02 10:38:09.17	275.96	73.91	-31.5	-35.0	11.1	4.99e-03	0	43	0	692060160	24	5393
2026-01-02 10:38:10.17	277.60	73.72	-31.1	-34.5	11.9	5.61e-04	0	43	0	693108736	23	5278
2026-01-02 10:38:11.17	279.20	73.52	-31.4	-35.2	11.4	8.23e-04	0	43	0	695205888	23	5576
2026-01-02 10:38:12.18	280.78	73.30	-31.6	-36.0	10.9	1.24e-03	0	43	0	697303040	23	5946
2026-01-02 10:38:13.18	282.30	73.08	-32.0	-36.9	9.7	6.50e-03	0	43	0	699400192	24	6314
2026-01-02 10:38:14.18	283.77	72.84	-31.6	-35.3	10.9	8.59e-03	0	44	0	700448768	24	5559
2026-01-02 10:38:15.18	285.21	72.60	-31.0	-34.0	12.2	3.58e-04	0	44	0	702545920	23	5111
2026-01-02 10:38:16.18	286.60	72.34	-30.7	-33.8	12.7	1.27e-04	0	43	0	704643072	22	5107
2026-01-02 10:38:17.19	287.96	72.08	-30.6	-33.5	12.8	7.09e-05	0	43	0	706740224	22	5004
2026-01-02 10:38:18.19	289.26	71.81	-30.5	-33.2	13.1	4.19e-05	0	43	0	708837376	22	4895
2026-01-02 10:38:19.19	290.53	71.53	-30.4	-32.8	13.3	1.44e-05	0	44	0	709885952	22	4754
2026-01-02 10:38:20.20	291.77	71.24	-30.6	-33.3	13.1	2.28e-05	0	43	0	711983104	22	4943
2026-01-02 10:38:21.20	292.95	70.95	-30.5	-33.3	13.0	5.26e-05	0	43	0	714080256	22	4924
2026-01-02 10:38:22.20	294.10	70.65	-30.2	-32.8	13.7	1.60e-05	0	43	0	716177408	21	4869
2026-01-02 10:38:23.20	295.21	70.34	-30.1	-32.5	13.8	1.22e-05	0	43	0	718274560	21	4770
2026-01-02 10:38:24.20	296.28	70.03	-30.3	-33.1	13.4	5.30e-06	0	44	0	719323136	21	4973
2026-01-02 10:38:25.20	297.32	69.71	-30.6	-33.9	12.9	1.83e-05	0	43	0	721420288	21	5277
2026-01-02 10:38:26.21	298.33	69.39	-30.5	-33.8	12.9	6.25e-05	0	43	0	723517440	21	5238
2026-01-02 10:38:27.22	299.31	69.06	-30.4	-33.4	13.2	3.05e-05	0	44	0	725614592	21	5091
2026-01-02 10:38:28.22	300.24	68.73	-30.5	-33.6	13.2	1.98e-05	0	43	0	727711744	21	5144
2026-01-02 10:38:29.22	301.15	68.39	-30.6	-34.1	12.7	4.80e-05	0	43	0	728760320	21	5359
2026-01-02 10:38:30.22	302.03	68.05	-30.6	-34.1	12.7	6.33e-05	0	43	0	730857472	21	5381
2026-01-02 10:38:31.22	302.87	67.71	-30.5	-33.9	12.8	7.24e-05	0	44	0	732954624	21	5290
2026-01-02 10:38:32.22	303.69	67.37	-30.5	-33.8	13.0	5.26e-05	0	43	0	735051776	21	5231
2026-01-02 10:38:33.22	304.49	67.02	-31.0	-35.0	12.1	1.34e-04	0	44	0	737148928	21	5749
2026-01-02 10:38:34.22	305.25	66.67	-31.1	-35.0	11.8	3.68e-04	0	43	0	738197504	22	5608
2026-01-02 10:38:35.22	305.99	66.32	-30.4	-32.9	13.2	8.77e-05	0	43	0	740294656	22	4787
2026-01-02 10:38:36.21	306.71	65.97	-29.6	-31.8	14.5	3.80e-06	0	43	0	742391808	20	4637
2026-01-02 10:38:37.22	307.41	65.62	-29.8	-32.3	14.2	1.50e-06	0	43	0	744488960	20	4798
2026-01-02 10:38:38.22	308.08	65.26	-29.6	-31.8	14.5	1.50e-06	0	43	0	745537536	20	4635
2026-01-02 10:38:39.23	308.74	64.90	-29.6	-31.8	14.4	1.50e-06	0	44	0	747634688	20	4650
2026-01-02 10:38:40.24	309.38	64.54	-28.6	-30.3	16.1	7.00e-07	0	43	0	749731840	18	4373
2026-01-02 10:38:41.24	309.99	64.18	-27.4	-28.5	17.7	0.00e+00	0	43	0	751828992	16	4066
2026-01-02 10:38:42.25	310.59	63.81	-26.8	-28.1	18.3	0.00e+00	0	43	0	753926144	14	4191
2026-01-02 10:38:43.25	311.17	63.45	-27.1	-28.9	17.8	0.00e+00	0	43	0	754974720	14	4407
2026-01-02 10:38:44.26	311.73	63.09	-27.1	-28.8	17.8	1.50e-06	0	44	0	757071872	14	4387
2026-01-02 10:38:45.25	312.27	62.73	-26.9	-28.3	18.1	0.00e+00	0	44	0	759169024	14	4235
2026-01-02 10:38:46.25	312.79	62.37	-25.9	-26.7	19.2	0.00e+00	0	43	0	761266176	13	3934
2026-01-02 10:38:47.26	313.31	62.00	-25.7	-26.8	19.4	0.00e+00	0	43	0	763363328	12	4069
2026-01-02 10:38:48.26	313.80	61.64	-26.4	-28.2	18.7	0.00e+00	0	43	0	764411904	12	4436
2026-01-02 10:38:49.25	314.28	61.28	-27.5	-29.3	17.3	0.00e+00	0	43	0	766509056	15	4422
2026-01-02 10:38:50.26	314.75	60.92	-27.8	-29.9	17.0	0.00e+00	0	43	0	768606208	15	4587
2026-01-02 10:38:51.26	315.21	60.56	-27.5	-29.1	17.3	0.00e+00	0	44	0	770703360	15	4373
2026-01-02 10:38:52.27	315.65	60.19	-27.2	-28.4	17.7	0.00e+00	0	43	0	772800512	15	4172
2026-01-02 10:38:53.27	316.08	59.83	-27.7	-29.7	17.0	0.00e+00	0	43	0	773849088	15	4538
2026-01-02 10:38:54.28	316.51	59.47	-29.2	-31.8	15.1	0.00e+00	0	43	0	775946240	18	4851
2026-01-02 10:38:55.28	316.91	59.11	-30.8	-34.7	12.2	7.62e-05	0	43	0	778043392	21	5654
2026-01-02 10:38:56.28	317.31	58.76	-31.3	-35.8	11.0	1.47e-03	0	43	0	780140544	22	6028
2026-01-02 10:38:57.29	317.70	58.40	-30.4	-33.0	13.0	5.29e-04	0	43	0	782237696	22	4857
2026-01-02 10:38:58.29	318.07	58.04	-29.4	-31.3	14.7	6.10e-06	0	43	0	783286272	20	4467
2026-01-02 10:38:59.28	318.43	57.69	-29.4	-31.6	14.9	0.00e+00	0	43	0	785383424	19	4663
2026-01-02 10:39:00.29	318.79	57.33	-29.8	-32.7	14.3	7.00e-07	0	43	0	787480576	19	5046
2026-01-02 10:39:01.29	319.14	56.98	-30.5	-34.1	13.0	2.20e-06	0	43	0	789577728	20	5486
2026-01-02 10:39:02.30	319.48	56.63	-30.8	-34.6	12.2	3.13e-04	0	43	0	791674880	21	5598
2026-01-02 10:39:03.30	319.81	56.28	-29.8	-32.2	14.1	1.29e-05	0	43	0	792723456	20	4775
2026-01-02 10:39:04.31	320.14	55.93	-28.7	-30.5	15.8	0.00e+00	0	43	0	794820608	18	4436
2026-01-02 10:39:05.31	320.45	55.58	-28.3	-29.6	16.4	0.00e+00	0	43	0	796917760	18	4172
2026-01-02 10:39:06.31	320.76	55.24	-28.6	-30.3	16.0	0.00e+00	0	44	0	799014912	18	4388
2026-01-02 10:39:07.31	321.06	54.89	-28.9	-31.0	15.6	0.00e+00	0	43	0	801112064	18	4582
2026-01-02 10:39:08.31	321.35	54.55	-28.8	-30.8	15.7	0.00e+00	0	43	0	802160640	18	4530
2026-01-02 10:39:09.31	321.63	54.21	-28.6	-30.3	16.0	0.00e+00	0	43	0	804257792	18	4374
2026-01-02 10:39:10.31	321.91	53.87	-27.8	-28.8	17.0	0.00e+00	0	43	0	806354944	17	4073
2026-01-02 10:39:11.32	322.19	53.53	-26.6	-27.8	18.3	0.00e+00	0	43	0	808452096	14	4107
2026-01-02 10:39:12.32	322.45	53.19	-26.2	-27.3	18.8	0.00e+00	0	43	0	809500672	13	4080
2026-01-02 10:39:13.32	322.71	52.86	-26.6	-28.1	18.4	0.00e+00	0	43	0	811597824	13	4307
2026-01-02 10:39:14.32	322.97	52.53	-27.6	-29.4	17.2	0.00e+00	0	43	0	813694976	15	4457
2026-01-02 10:39:15.33	323.22	52.19	-28.6	-30.8	16.0	0.00e+00	0	43	0	815792128	17	4634
2026-01-02 10:39:16.33	323.46	51.86	-29.2	-31.8	15.1	0.00e+00	0	43	0	817889280	18	4861
2026-01-02 10:39:17.34	323.70	51.53	-29.0	-31.4	15.3	0.00e+00	0	43	0	818937856	18	4727
2026-01-02 10:39:18.34	323.94	51.21	-28.9	-31.1	15.5	7.00e-07	0	43	0	821035008	18	4616
2026-01-02 10:39:19.34	324.17	50.88	-28.9	-31.1	15.5	0.00e+00	0	43	0	823132160	18	4624
2026-01-02 10:39:20.34	324.39	50.56	-29.3	-31.9	15.0	0.00e+00	0	43	0	825229312	18	4882
2026-01-02 10:39:21.34	324.61	50.24	-29.7	-32.6	14.2	7.00e-07	0	43	0	827326464	19	5020
2026-01-02 10:39:22.35	324.82	49.92	-30.7	-34.4	12.4	5.95e-05	0	43	0	828375040	21	5493
2026-01-02 10:39:23.35	325.03	49.60	-31.9	-37.3	9.4	3.18e-03	0	43	0	830472192	23	6726
2026-01-02 10:39:24.35	325.24	49.29	-32.5	-39.5	7.4	6.71e-02	0	43	0	832569344	24	8096
2026-01-02 10:39:25.35	325.44	48.98	-32.1	-37.7	8.7	9.21e-02	0	43	0	834666496	24	6845
2026-01-02 10:39:26.36	325.64	48.66	-31.1	-34.7	11.3	3.56e-03	0	43	0	836763648	23	5437
2026-01-02 10:39:27.36	325.83	48.35	-30.6	-33.6	12.5	2.70e-04	0	43	0	837812224	22	5069
2026-01-02 10:39:28.36	326.02	48.05	-30.7	-33.7	12.5	1.15e-04	0	43	0	839909376	22	5113
2026-01-02 10:39:29.37	326.21	47.74	-30.6	-33.7	12.5	1.50e-04	0	43	0	842006528	22	5108
2026-01-02 10:39:30.37	326.39	47.43	-30.5	-33.3	12.7	6.10e-05	0	44	0	844103680	22	4966
2026-01-02 10:39:31.38	326.58	47.13	-30.9	-34.5	11.9	1.49e-04	0	43	0	846200832	22	5455
2026-01-02 10:39:32.38	326.75	46.83	-31.3	-35.8	11.0	9.58e-04	0	43	0	847249408	22	6025
2026-01-02 10:39:33.38	326.92	46.53	-31.3	-35.9	10.9	2.42e-03	0	43	0	849346560	22	6070
2026-01-02 10:39:34.38	327.09	46.24	-31.0	-34.9	11.6	1.59e-03	0	43	0	851443712	22	5638
2026-01-02 10:39:35.39	327.26	45.94	-30.6	-33.7	12.4	3.30e-04	0	43	0	853540864	22	5147
2026-01-02 10:39:36.39	327.42	45.65	-30.3	-32.8	13.0	5.18e-05	0	44	0	855638016	22	4782
2026-01-02 10:39:37.39	327.59	45.36	-30.3	-33.1	13.1	2.36e-05	0	43	0	856686592	21	5007
2026-01-02 10:39:38.40	327.74	45.07	-30.3	-33.1	13.1	5.11e-05	0	43	0	858783744	21	5011
2026-01-02 10:39:39.40	327.90	44.78	-29.9	-32.2	13.7	6.80e-06	0	43	0	860880896	21	4696
2026-01-02 10:39:40.40	328.05	44.49	-30.0	-32.5	13.5	5.30e-06	0	43	0	862978048	21	4791
2026-01-02 10:39:41.40	328.20	44.21	-30.2	-33.0	13.2	6.10e-06	0	43	0	864026624	21	4956
2026-01-02 10:39:42.41	328.35	43.93	-30.5	-33.8	12.7	5.49e-05	0	43	0	866123776	21	5297
2026-01-02 10:39:43.41	328.49	43.65	-30.2	-32.9	13.2	4.42e-05	0	44	0	868220928	21	4940
2026-01-02 10:39:44.41	328.64	43.37	-30.0	-32.4	13.5	8.30e-06	0	43	0	870318080	21	4768
2026-01-02 10:39:45.41	328.78	43.10	-29.7	-32.1	14.1	2.20e-06	0	44	0	872415232	20	4750
2026-01-02 10:39:46.42	328.91	42.82	-29.6	-31.8	14.3	7.00e-07	0	44	0	873463808	20	4668
2026-01-02 10:39:47.42	329.05	42.55	-29.4	-31.4	14.6	0.00e+00	0	43	0	875560960	20	4526
2026-01-02 10:39:48.43	329.18	42.27	-29.5	-31.6	14.4	0.00e+00	0	43	0	877658112	20	4591
2026-01-02 10:39:49.43	329.31	42.01	-29.7	-32.1	14.1	1.50e-06	0	43	0	879755264	20	4765
2026-01-02 10:39:50.44	329.44	41.74	-29.5	-31.7	14.3	1.50e-06	0	44	0	881852416	20	4616
2026-01-02 10:39:51.45	329.57	41.47	-30.1	-33.2	13.3	2.20e-06	0	43	0	882900992	20	5171
2026-01-02 10:39:52.45	329.70	41.21	-30.8	-34.7	12.0	8.31e-05	0	43	0	884998144	21	5670
2026-01-02 10:39:53.46	329.82	40.94	-31.4	-36.3	10.6	1.58e-03	0	44	0	887095296	22	6290
2026-01-02 10:39:54.46	329.94	40.68	-31.7	-36.6	9.9	8.64e-03	0	44	0	889192448	23	6381
2026-01-02 10:39:55.46	330.06	40.43	-31.4	-35.6	10.6	6.08e-03	0	43	0	891289600	23	5859
2026-01-02 10:39:56.47	330.18	40.17	-30.6	-33.7	12.3	4.61e-04	0	43	0	892338176	22	5127
2026-01-02 10:39:57.47	330.29	39.91	-29.8	-32.0	13.7	1.44e-05	0	44	0	894435328	21	4639
2026-01-02 10:39:58.47	330.41	39.66	-29.5	-31.7	14.3	7.00e-07	0	43	0	896532480	20	4622
2026-01-02 10:39:59.47	330.52	39.41	-29.4	-31.4	14.5	1.50e-06	0	43	0	898629632	20	4519
2026-01-02 10:40:00.47	330.63	39.16	-29.6	-31.9	14.3	7.00e-07	0	43	0	900726784	20	4673
2026-01-02 10:40:01.47	330.74	38.91	-30.0	-32.9	13.6	1.50e-06	0	43	0	901775360	20	5039
2026-01-02 10:40:02.47	330.85	38.67	-30.4	-34.1	12.8	4.27e-05	0	43	0	903872512	20	5496
2026-01-02 10:40:03.47	330.95	38.43	-30.6	-34.1	12.4	8.46e-05	0	43	0	905969664	21	5424
2026-01-02 10:40:04.48	331.06	38.18	-31.0	-35.3	11.6	5.71e-04	0	43	0	908066816	21	5937
2026-01-02 10:40:05.49	331.16	37.94	-31.0	-34.9	11.5	9.11e-04	0	43	0	909115392	22	5653
2026-01-02 10:40:06.49	331.26	37.70	-30.9	-34.6	11.7	5.86e-04	0	43	0	911212544	22	5499
2026-01-02 10:40:07.50	331.36	37.46	-30.8	-34.3	11.9	5.22e-04	0	43	0	913309696	22	5410
2026-01-02 10:40:08.51	331.46	37.22	-30.6	-33.8	12.3	2.78e-04	0	43	0	915406848	22	5168
2026-01-02 10:40:09.52	331.56	36.98	-30.3	-32.9	12.9	9.84e-05	0	43	0	917504000	22	4838
2026-01-02 10:40:10.52	331.66	36.75	-30.0	-32.6	13.4	1.90e-05	0	43	0	919601152	21	4821
2026-01-02 10:40:11.52	331.75	36.52	-30.0	-32.4	13.5	1.29e-05	0	43	0	920649728	21	4751
2026-01-02 10:40:12.52	331.84	36.29	-29.9	-32.1	13.7	6.80e-06	0	43	0	922746880	21	4659
2026-01-02 10:40:13.53	331.94	36.06	-29.6	-31.8	14.2	1.50e-06	0	43	0	924844032	20	4664
2026-01-02 10:40:14.53	332.03	35.83	-29.6	-31.9	14.1	3.00e-06	0	43	0	926941184	20	4710
2026-01-02 10:40:15.54	332.12	35.61	-29.7	-32.0	14.0	0.00e+00	0	43	0	927989760	20	4744
2026-01-02 10:40:16.54	332.20	35.38	-29.8	-32.4	13.8	3.00e-06	0	43	0	930086912	20	4857
2026-01-02 10:40:17.55	332.29	35.16	-30.0	-33.0	13.4	1.06e-05	0	44	0	932184064	20	5082
2026-01-02 10:40:18.55	332.38	34.94	-30.1	-33.3	13.2	2.21e-05	0	43	0	934281216	20	5202
2026-01-02 10:40:19.55	332.46	34.72	-30.1	-33.3	13.2	2.21e-05	0	43	0	936378368	20	5216
2026-01-02 10:40:20.55	332.55	34.50	-30.4	-34.1	12.7	6.02e-05	0	43	0	937426944	20	5514
2026-01-02 10:40:21.55	332.63	34.29	-30.5	-33.9	12.5	1.41e-04	0	43	0	939524096	21	5328
2026-01-02 10:40:22.55	332.71	34.07	-30.5	-33.9	12.5	1.09e-04	0	43	0	941621248	21	5331
2026-01-02 10:40:23.56	332.79	33.86	-30.5	-34.1	12.3	1.58e-04	0	43	0	943718400	21	5408
2026-01-02 10:40:24.56	332.87	33.65	-30.6	-34.4	12.1	1.98e-04	0	43	0	945815552	21	5535
2026-01-02 10:40:25.56	332.95	33.44	-30.6	-34.4	12.1	2.79e-04	0	43	0	946864128	21	5535
2026-01-02 10:40:26.57	333.03	33.23	-30.6	-34.3	12.1	2.37e-04	0	43	0	948961280	21	5519
2026-01-02 10:40:27.57	333.11	33.02	-30.6	-34.1	12.3	2.91e-04	0	43	0	951058432	21	5434
2026-01-02 10:40:28.58	333.18	32.81	-30.5	-33.9	12.4	1.65e-04	0	43	0	953155584	21	5361
2026-01-02 10:40:29.57	333.26	32.61	-30.5	-33.9	12.4	1.38e-04	0	43	0	955252736	21	5364
2026-01-02 10:40:30.57	333.33	32.40	-30.4	-33.7	12.5	1.70e-04	0	44	0	956301312	21	5260
2026-01-02 10:40:31.56	333.40	32.20	-30.3	-33.5	12.7	1.29e-04	0	43	0	958398464	21	5184
2026-01-02 10:40:32.56	333.48	32.00	-30.4	-33.6	12.6	7.40e-05	0	43	0	960495616	21	5231
2026-01-02 10:40:33.56	333.55	31.80	-30.4	-33.6	12.6	1.12e-04	0	43	0	962592768	21	5233
2026-01-02 10:40:34.56	333.62	31.61	-30.4	-33.7	12.6	1.03e-04	0	43	0	964689920	21	5259
2026-01-02 10:40:35.56	333.69	31.41	-30.5	-33.9	12.4	9.91e-05	0	43	0	965738496	21	5347
2026-01-02 10:40:36.56	333.76	31.21	-30.4	-33.7	12.5	1.41e-04	0	43	0	967835648	21	5272
2026-01-02 10:40:37.56	333.83	31.02	-30.4	-34.0	12.2	1.86e-04	0	43	0	969932800	21	5437
2026-01-02 10:40:38.56	333.89	30.83	-30.3	-33.9	12.2	2.47e-04	0	43	0	972029952	21	5454
2026-01-02 10:40:39.56	333.96	30.64	-30.3	-33.8	12.4	1.54e-04	0	44	0	973078528	21	5362
2026-01-02 10:40:40.56	334.03	30.44	-30.4	-33.7	12.5	1.39e-04	0	43	0	975175680	21	5268
2026-01-02 10:40:41.56	334.09	30.26	-30.4	-33.8	12.5	1.40e-04	0	44	0	977272832	21	5302
2026-01-02 10:40:42.56	334.16	30.07	-30.5	-34.0	12.3	1.51e-04	0	44	0	979369984	21	5399
2026-01-02 10:40:43.56	334.22	29.88	-30.5	-34.0	12.3	2.07e-04	0	44	0	981467136	21	5401
2026-01-02 10:40:44.57	334.29	29.69	-30.5	-34.0	12.3	1.69e-04	0	43	0	982515712	21	5380
2026-01-02 10:40:45.57	334.35	29.51	-30.6	-34.2	12.2	2.00e-04	0	43	0	984612864	21	5487
2026-01-02 10:40:46.57	334.41	29.32	-30.5	-34.1	12.3	2.42e-04	0	43	0	986710016	21	5426
2026-01-02 10:40:47.57	334.47	29.14	-30.3	-33.4	12.7	1.11e-04	0	43	0	988807168	21	5144
2026-01-02 10:40:48.58	334.53	28.96	-30.1	-33.0	13.0	4.95e-05	0	43	0	990904320	21	5006
2026-01-02 10:40:49.58	334.59	28.78	-30.4	-33.6	12.6	6.86e-05	0	43	0	991952896	21	5215
2026-01-02 10:40:50.58	334.65	28.60	-30.1	-32.8	13.1	1.03e-04	0	43	0	994050048	21	4937
2026-01-02 10:40:51.59	334.71	28.42	-29.9	-32.3	13.4	1.06e-05	0	43	0	996147200	21	4759
2026-01-02 10:40:52.59	334.77	28.25	-29.9	-32.3	13.4	1.14e-05	0	43	0	998244352	21	4760
2026-01-02 10:40:53.58	334.83	28.07	-30.2	-33.1	13.0	9.90e-06	0	43	0	999292928	21	5025
2026-01-02 10:40:54.58	334.88	27.90	-30.3	-33.5	12.6	8.54e-05	0	43	0	1001390080	21	5179
2026-01-02 10:40:55.58	334.94	27.72	-29.8	-32.2	13.5	1.67e-05	0	43	0	1003487232	21	4706
2026-01-02 10:40:56.59	335.00	27.55	-29.4	-31.5	14.2	4.50e-06	0	43	0	1005584384	20	4570
2026-01-02 10:40:57.60	335.05	27.38	-29.2	-31.4	14.7	0.00e+00	0	44	0	1007681536	19	4640
2026-01-02 10:40:58.60	335.11	27.21	-29.2	-31.5	14.6	7.00e-07	0	43	0	1009778688	19	4668
2026-01-02 10:40:59.60	335.16	27.04	-29.3	-31.8	14.4	7.00e-07	0	43	0	1010827264	19	4777
2026-01-02 10:41:00.61	335.22	26.87	-29.3	-31.6	14.6	2.20e-06	0	43	0	1012924416	19	4695
2026-01-02 10:41:01.61	335.27	26.70	-29.1	-31.3	14.7	0.00e+00	0	44	0	1015021568	19	4611
2026-01-02 10:41:02.62	335.32	26.53	-29.1	-31.3	14.7	0.00e+00	0	44	0	1017118720	19	4601
2026-01-02 10:41:03.62	335.37	26.37	-29.2	-31.4	14.6	0.00e+00	0	44	0	1018167296	19	4661
2026-01-02 10:41:04.62	335.43	26.20	-29.3	-31.7	14.4	7.00e-07	0	43	0	1020264448	19	4757
2026-01-02 10:41:05.61	335.48	26.04	-29.3	-31.7	14.5	0.00e+00	0	43	0	1022361600	19	4756
2026-01-02 10:41:06.61	335.53	25.88	-29.4	-31.9	14.3	1.50e-06	0	43	0	1024458752	19	4808
2026-01-02 10:41:07.61	335.58	25.72	-29.4	-31.9	14.3	7.00e-07	0	44	0	1026555904	19	4831
2026-01-02 10:41:08.61	335.63	25.56	-29.4	-31.9	14.3	0.00e+00	0	43	0	1027604480	19	4806
2026-01-02 10:41:09.61	335.68	25.40	-29.3	-31.8	14.4	0.00e+00	0	43	0	1029701632	19	4773
2026-01-02 10:41:10.62	335.73	25.24	-29.3	-31.7	14.5	7.00e-07	0	43	0	1031798784	19	4746
2026-01-02 10:41:11.63	335.77	25.08	-29.3	-31.8	14.4	0.00e+00	0	43	0	1033895936	19	4784
2026-01-02 10:41:12.63	335.82	24.92	-29.3	-31.8	14.4	7.00e-07	0	43	0	1035993088	19	4769
2026-01-02 10:41:13.63	335.87	24.77	-29.2	-31.6	14.4	0.00e+00	0	43	0	1037041664	19	4699
2026-01-02 10:41:14.64	335.92	24.61	-29.1	-31.3	14.7	0.00e+00	0	43	0	1039138816	19	4621
2026-01-02 10:41:15.64	335.96	24.46	-29.1	-31.2	14.7	0.00e+00	0	43	0	1041235968	19	4593
2026-01-02 10:41:16.65	336.01	24.31	-29.2	-31.4	14.6	0.00e+00	0	43	0	1043333120	19	4653
2026-01-02 10:41:17.65	336.06	24.15	-29.0	-31.0	14.9	7.00e-07	0	43	0	1045430272	19	4522
2026-01-02 10:41:18.66	336.10	24.00	-28.7	-30.8	15.3	0.00e+00	0	44	0	1046478848	18	4551
2026-01-02 10:41:19.66	336.15	23.85	-28.6	-30.5	15.5	0.00e+00	0	43	0	1048576000	18	4465
2026-01-02 10:41:20.66	336.19	23.70	-28.6	-30.4	15.5	0.00e+00	0	43	0	1050673152	18	4441
2026-01-02 10:41:21.66	336.24	23.55	-28.6	-30.5	15.5	0.00e+00	0	43	0	1052770304	18	4459
2026-01-02 10:41:22.66	336.28	23.40	-28.6	-30.4	15.5	0.00e+00	0	43	0	1054867456	18	4450
2026-01-02 10:41:23.66	336.32	23.26	-28.4	-30.0	15.7	0.00e+00	0	43	0	1055916032	18	4318
2026-01-02 10:41:24.66	336.37	23.11	-28.3	-29.8	15.8	0.00e+00	0	43	0	1058013184	18	4270
2026-01-02 10:41:25.66	336.41	22.97	-28.3	-29.8	15.8	0.00e+00	0	43	0	1060110336	18	4267
2026-01-02 10:41:26.66	336.45	22.82	-28.4	-30.0	15.7	0.00e+00	0	43	0	1062207488	18	4330
2026-01-02 10:41:27.66	336.49	22.68	-28.4	-30.0	15.7	0.00e+00	0	43	0	1063256064	18	4328
2026-01-02 10:41:28.66	336.54	22.54	-28.6	-30.4	15.4	0.00e+00	0	43	0	1065353216	18	4458
2026-01-02 10:41:29.67	336.58	22.39	-28.6	-30.4	15.5	0.00e+00	0	44	0	1067450368	18	4440
2026-01-02 10:41:30.67	336.62	22.25	-28.5	-30.2	15.6	0.00e+00	0	43	0	1069547520	18	4391
2026-01-02 10:41:31.67	336.66	22.11	-28.5	-30.3	15.5	0.00e+00	0	43	0	1071644672	18	4424
2026-01-02 10:41:32.67	336.70	21.97	-28.6	-30.5	15.4	0.00e+00	0	43	0	1072693248	18	4489
2026-01-02 10:41:33.68	336.74	21.83	-28.6	-30.5	15.4	0.00e+00	0	43	0	1074790400	18	4469
2026-01-02 10:41:34.68	336.78	21.69	-28.6	-30.6	15.3	0.00e+00	0	43	0	1076887552	18	4501
2026-01-02 10:41:35.69	336.82	21.55	-28.7	-30.6	15.3	0.00e+00	0	43	0	1078984704	18	4512
2026-01-02 10:41:36.68	336.86	21.42	-28.6	-30.6	15.3	0.00e+00	0	43	0	1081081856	18	4510
2026-01-02 10:41:37.69	336.90	21.28	-28.6	-30.6	15.3	0.00e+00	0	43	0	1082130432	18	4500
2026-01-02 10:41:38.69	336.94	21.15	-28.7	-30.7	15.3	0.00e+00	0	43	0	1084227584	18	4524
2026-01-02 10:41:39.69	336.98	21.01	-28.7	-30.6	15.3	0.00e+00	0	43	0	1086324736	18	4513
2026-01-02 10:41:40.69	337.01	20.88	-28.8	-30.9	15.1	0.00e+00	0	43	0	1088421888	18	4599
2026-01-02 10:41:41.69	337.05	20.74	-28.7	-30.8	15.2	0.00e+00	0	43	0	1089470464	18	4551
2026-01-02 10:41:42.70	337.09	20.61	-28.6	-30.5	15.3	0.00e+00	0	43	0	1091567616	18	4475
2026-01-02 10:41:43.70	337.13	20.48	-28.7	-30.7	15.2	0.00e+00	0	43	0	1093664768	18	4543
2026-01-02 10:41:44.70	337.16	20.35	-28.7	-30.7	15.2	0.00e+00	0	43	0	1095761920	18	4535
2026-01-02 10:41:45.70	337.20	20.22	-28.6	-30.5	15.3	0.00e+00	0	43	0	1097859072	18	4486
2026-01-02 10:41:46.70	337.24	20.09	-28.7	-30.8	15.2	0.00e+00	0	43	0	1099956224	18	4575
2026-01-02 10:41:47.71	337.27	19.96	-28.8	-30.9	15.1	0.00e+00	0	43	0	1101004800	18	4609
2026-01-02 10:41:48.72	337.31	19.83	-28.9	-31.1	14.9	0.00e+00	0	43	0	1103101952	18	4678
2026-01-02 10:41:49.72	337.34	19.70	-28.9	-31.1	14.9	0.00e+00	0	43	0	1105199104	18	4680
2026-01-02 10:41:50.73	337.38	19.57	-28.8	-30.9	15.1	7.00e-07	0	43	0	1107296256	18	4607
2026-01-02 10:41:51.73	337.41	19.44	-28.9	-31.2	14.9	0.00e+00	0	43	0	1108344832	18	4699
2026-01-02 10:41:52.74	337.45	19.32	-28.9	-31.2	14.9	0.00e+00	0	43	0	1110441984	18	4703
2026-01-02 10:41:53.73	337.48	19.19	-29.0	-31.5	14.7	7.00e-07	0	43	0	1112539136	18	4790
2026-01-02 10:41:54.73	337.52	19.07	-29.0	-31.5	14.7	7.00e-07	0	43	0	1114636288	18	4803
2026-01-02 10:41:55.73	337.55	18.94	-29.1	-31.7	14.6	0.00e+00	0	43	0	1116733440	18	4866
2026-01-02 10:41:56.72	337.58	18.82	-29.1	-31.7	14.5	2.20e-06	0	43	0	1117782016	18	4891
2026-01-02 10:41:57.73	337.62	18.70	-29.2	-32.0	14.4	5.30e-06	0	44	0	1119879168	18	4988
2026-01-02 10:41:58.72	337.65	18.58	-29.1	-31.8	14.5	7.00e-07	0	43	0	1121976320	18	4894
2026-01-02 10:41:59.72	337.68	18.46	-29.1	-31.8	14.5	0.00e+00	0	43	0	1124073472	18	4912
2026-01-02 10:42:00.72	337.72	18.33	-29.1	-31.9	14.4	7.00e-07	0	43	0	1126170624	18	4938
2026-01-02 10:42:01.73	337.75	18.21	-29.2	-32.0	14.4	0.00e+00	0	43	0	1127219200	18	4976
2026-01-02 10:42:02.73	337.78	18.09	-29.2	-32.2	14.2	1.50e-06	0	43	0	1129316352	18	5045
2026-01-02 10:42:03.74	337.81	17.97	-29.3	-32.3	14.1	3.00e-06	0	44	0	1131413504	18	5087
2026-01-02 10:42:04.75	337.85	17.85	-29.4	-32.5	14.0	7.00e-07	0	43	0	1133510656	18	5180
2026-01-02 10:42:05.75	337.88	17.74	-29.5	-32.4	13.7	6.80e-06	0	43	0	1135607808	19	5005
2026-01-02 10:42:06.75	337.91	17.62	-29.7	-32.9	13.4	1.14e-05	0	43	0	1136656384	19	5216
2026-01-02 10:42:07.75	337.94	17.50	-29.7	-33.0	13.3	2.05e-05	0	43	0	1138753536	19	5253
2026-01-02 10:42:08.75	337.97	17.38	-29.8	-33.3	13.1	1.44e-05	0	43	0	1140850688	19	5372
2026-01-02 10:42:09.74	338.00	17.27	-29.8	-33.2	13.2	2.51e-05	0	43	0	1142947840	19	5312
2026-01-02 10:42:10.74	338.03	17.15	-29.6	-32.8	13.5	1.90e-05	0	43	0	1145044992	19	5161
2026-01-02 10:42:11.74	338.06	17.04	-29.5	-32.3	13.8	1.14e-05	0	44	0	1146093568	19	4977
2026-01-02 10:42:12.74	338.09	16.93	-29.6	-32.5	13.6	4.50e-06	0	44	0	1148190720	19	5081
2026-01-02 10:42:13.74	338.12	16.81	-29.5	-32.5	13.7	5.30e-06	0	43	0	1150287872	19	5051
2026-01-02 10:42:14.75	338.15	16.70	-29.6	-32.6	13.6	8.30e-06	0	43	0	1152385024	19	5092
2026-01-02 10:42:15.75	338.18	16.58	-29.8	-33.2	13.2	1.37e-05	0	43	0	1153433600	19	5324
2026-01-02 10:42:16.75	338.21	16.47	-29.7	-32.6	13.1	5.34e-05	0	43	0	1155530752	20	5014
2026-01-02 10:42:17.75	338.24	16.36	-29.6	-32.2	13.4	1.98e-05	0	43	0	1157627904	20	4859
2026-01-02 10:42:18.76	338.27	16.25	-29.5	-32.0	13.6	1.90e-05	0	43	0	1159725056	20	4772
2026-01-02 10:42:19.76	338.30	16.14	-29.5	-32.0	13.6	6.80e-06	0	43	0	1161822208	20	4780
2026-01-02 10:42:20.77	338.33	16.03	-29.5	-31.9	13.6	1.14e-05	0	43	0	1162870784	20	4765
2026-01-02 10:42:21.77	338.36	15.92	-29.6	-32.1	13.5	7.60e-06	0	43	0	1164967936	20	4827
2026-01-02 10:42:22.77	338.39	15.81	-29.5	-32.0	13.6	1.14e-05	0	43	0	1167065088	20	4791
2026-01-02 10:42:23.77	338.41	15.70	-29.5	-31.8	13.7	6.80e-06	0	44	0	1169162240	20	4726
2026-01-02 10:42:24.76	338.44	15.59	-29.5	-31.9	13.6	9.10e-06	0	43	0	1171259392	20	4763
2026-01-02 10:42:25.76	338.47	15.48	-29.4	-31.8	13.6	6.80e-06	0	43	0	1172307968	20	4726
2026-01-02 10:42:26.76	338.50	15.38	-29.4	-31.7	13.7	5.30e-06	0	43	0	1174405120	20	4673
2026-01-02 10:42:27.76	338.53	15.27	-29.5	-31.9	13.6	6.80e-06	0	44	0	1176502272	20	4740
2026-01-02 10:42:28.76	338.55	15.16	-29.4	-31.6	13.7	1.14e-05	0	43	0	1178599424	20	4655
2026-01-02 10:42:29.76	338.58	15.06	-29.4	-31.6	13.7	1.06e-05	0	43	0	1180696576	20	4667
2026-01-02 10:42:30.76	338.61	14.95	-29.4	-31.7	13.7	4.50e-06	0	43	0	1181745152	20	4696
2026-01-02 10:42:31.76	338.63	14.85	-29.4	-31.7	13.7	6.10e-06	0	43	0	1183842304	20	4687
2026-01-02 10:42:32.77	338.66	14.74	-29.5	-31.9	13.5	3.80e-06	0	44	0	1185939456	20	4754
2026-01-02 10:42:33.78	338.69	14.64	-29.4	-31.7	13.6	1.37e-05	0	43	0	1188036608	20	4701
2026-01-02 10:42:34.77	338.71	14.54	-29.4	-31.6	13.7	4.50e-06	0	44	0	1189085184	20	4670
2026-01-02 10:42:35.78	338.74	14.43	-29.4	-31.6	13.7	7.60e-06	0	43	0	1191182336	20	4650
2026-01-02 10:42:36.79	338.77	14.33	-29.3	-31.5	13.8	3.00e-06	0	43	0	1193279488	20	4611
2026-01-02 10:42:37.79	338.79	14.22	-29.3	-31.6	13.7	6.10e-06	0	43	0	1195376640	20	4652
2026-01-02 10:42:38.79	338.82	14.12	-29.4	-31.8	13.6	4.50e-06	0	43	0	1197473792	20	4739
2026-01-02 10:42:39.80	338.84	14.02	-29.4	-31.8	13.6	9.10e-06	0	43	0	1198522368	20	4728
2026-01-02 10:42:40.80	338.87	13.92	-29.7	-32.4	13.2	1.75e-05	0	44	0	1200619520	20	4949
2026-01-02 10:42:41.81	338.90	13.82	-29.6	-32.2	13.3	2.21e-05	0	43	0	1202716672	20	4868
2026-01-02 10:42:42.81	338.92	13.72	-29.4	-31.8	13.5	1.14e-05	0	43	0	1204813824	20	4735
2026-01-02 10:42:43.82	338.95	13.62	-29.4	-31.7	13.6	1.06e-05	0	43	0	1206910976	20	4700
2026-01-02 10:42:44.82	338.97	13.52	-29.3	-31.6	13.7	6.10e-06	0	43	0	1207959552	20	4651
2026-01-02 10:42:45.82	339.00	13.42	-29.5	-31.9	13.5	1.06e-05	0	43	0	1210056704	20	4763
2026-01-02 10:42:46.83	339.02	13.32	-29.5	-32.0	13.4	1.06e-05	0	43	0	1212153856	20	4790
2026-01-02 10:42:47.83	339.04	13.22	-29.5	-32.0	13.4	1.60e-05	0	43	0	1214251008	20	4819
2026-01-02 10:42:48.84	339.07	13.12	-29.6	-32.3	13.2	1.37e-05	0	43	0	1216348160	20	4926
2026-01-02 10:42:49.84	339.09	13.02	-29.6	-32.3	13.2	3.20e-05	0	43	0	1217396736	20	4902
2026-01-02 10:42:50.84	339.12	12.93	-29.6	-32.2	13.3	2.05e-05	0	43	0	1219493888	20	4858
2026-01-02 10:42:51.85	339.14	12.83	-29.6	-32.3	13.2	2.89e-05	0	43	0	1221591040	20	4914
2026-01-02 10:42:52.85	339.17	12.73	-29.8	-32.7	12.9	4.04e-05	0	44	0	1223688192	20	5073
2026-01-02 10:42:53.86	339.19	12.64	-29.7	-32.7	12.9	5.11e-05	0	43	0	1225785344	20	5076
2026-01-02 10:42:54.86	339.21	12.54	-29.8	-32.8	12.8	6.10e-05	0	43	0	1226833920	20	5116
2026-01-02 10:42:55.87	339.24	12.45	-29.6	-32.4	13.1	3.20e-05	0	43	0	1228931072	20	4942
2026-01-02 10:42:56.87	339.26	12.35	-29.7	-32.5	13.0	3.35e-05	0	43	0	1231028224	20	5002
2026-01-02 10:42:57.87	339.28	12.26	-29.7	-32.6	12.9	4.80e-05	0	43	0	1233125376	20	5044
2026-01-02 10:42:58.88	339.31	12.16	-29.7	-32.7	12.9	3.81e-05	0	44	0	1235222528	20	5057
2026-01-02 10:42:59.88	339.33	12.07	-29.8	-32.8	12.8	6.79e-05	0	43	0	1236271104	20	5087
2026-01-02 10:43:00.88	339.35	11.97	-29.8	-32.8	12.8	4.27e-05	0	43	0	1238368256	20	5115
2026-01-02 10:43:01.88	339.38	11.88	-29.8	-32.9	12.7	5.95e-05	0	43	0	1240465408	20	5159
2026-01-02 10:43:02.88	339.40	11.79	-29.8	-33.0	12.6	8.16e-05	0	43	0	1242562560	20	5178
2026-01-02 10:43:03.89	339.42	11.70	-29.8	-33.0	12.6	1.01e-04	0	44	0	1244659712	20	5200
2026-01-02 10:43:04.89	339.44	11.60	-30.0	-33.6	12.3	1.27e-04	0	43	0	1245708288	20	5417
2026-01-02 10:43:05.89	339.47	11.51	-30.1	-33.8	12.1	3.23e-04	0	43	0	1247805440	20	5523
2026-01-02 10:43:06.90	339.49	11.42	-30.2	-34.0	12.0	3.42e-04	0	43	0	1249902592	20	5594
2026-01-02 10:43:07.90	339.51	11.33	-30.1	-33.9	12.0	4.32e-04	0	43	0	1251999744	20	5560
2026-01-02 10:43:08.90	339.53	11.24	-30.1	-33.9	12.0	3.62e-04	0	44	0	1254096896	20	5565
2026-01-02 10:43:09.90	339.55	11.15	-30.3	-34.3	11.7	3.46e-04	0	43	0	1255145472	20	5747
2026-01-02 10:43:10.90	339.58	11.06	-30.2	-34.2	11.7	5.68e-04	0	43	0	1257242624	20	5680
2026-01-02 10:43:11.91	339.60	10.97	-30.3	-34.5	11.5	6.93e-04	0	43	0	1259339776	20	5846
2026-01-02 10:43:12.92	339.62	10.88	-30.2	-34.1	11.9	7.70e-04	0	43	0	1261436928	20	5630
2026-01-02 10:43:13.92	339.64	10.79	-30.0	-33.4	12.3	2.21e-04	0	43	0	1262485504	20	5356
2026-01-02 10:43:14.92	339.66	10.70	-29.9	-33.1	12.5	1.34e-04	0	43	0	1264582656	20	5245
2026-01-02 10:43:15.92	339.68	10.61	-29.7	-32.7	12.7	7.85e-05	0	44	0	1266679808	20	5086
2026-01-02 10:43:16.92	339.70	10.52	-29.7	-32.6	12.8	5.11e-05	0	43	0	1268776960	20	5033
2026-01-02 10:43:17.93	339.73	10.44	-29.6	-32.4	12.9	5.64e-05	0	43	0	1270874112	20	4985
2026-01-02 10:43:18.93	339.75	10.35	-29.7	-32.6	12.8	5.03e-05	0	44	0	1271922688	20	5034
2026-01-02 10:43:19.93	339.77	10.26	-29.6	-32.5	12.9	4.88e-05	0	43	0	1274019840	20	4996
2026-01-02 10:43:20.93	339.79	10.18	-29.5	-32.1	13.1	3.20e-05	0	43	0	1276116992	20	4872
2026-01-02 10:43:21.93	339.81	10.09	-29.5	-32.0	13.2	2.59e-05	0	43	0	1278214144	20	4843
2026-01-02 10:43:22.92	339.83	10.00	-29.4	-31.9	13.2	1.52e-05	0	43	0	1280311296	20	4796
