passes_logs/2026/01/02/R2M6_AANII_01/R2M6_AANII_01__20260102_162203_FENGYUN_3E_rec.log

#Pass ID: 20260102_162203_FENGYUN 3E
#Satellite: FENGYUN 3E
#Configuration: FENGYUN 3E
#almurnet v.1.7.20240730
#Start time: 2026-01-02 16:22:04

#Version: 2.2.20231116
#Station: R2M6_AANII_01
#Location: 30.233357 lon 59.946436 lat
#TLE: 1 49008U 21062A   26001.96913326  .00000001  00000+0  21174-4 0  9999
#TLE: 2 49008  98.7479   7.2511 0001416 166.5636 193.5578 14.19883387232993

#Time	Az	El	Level	Level2	SNR	BER	BlckErr	Temp	State	Recorded	gain1	gain2
2026-01-02 16:22:04.85	218.86	7.07	-27.5	-28.9	5.6	7.43e-01	0	41	0	0	15	4223
2026-01-02 16:22:05.86	218.97	7.13	-28.4	-30.2	5.4	7.58e-01	0	41	104	0	17	4406
2026-01-02 16:22:06.87	219.07	7.19	-28.8	-31.0	9.7	1.08e-02	0	41	0	0	17	4669
2026-01-02 16:22:07.88	219.18	7.25	-28.6	-30.5	10.0	1.05e-02	0	41	0	7340032	17	4498
2026-01-02 16:22:08.87	219.28	7.31	-28.2	-29.6	10.6	4.31e-03	0	41	0	14680064	17	4210
2026-01-02 16:22:09.87	219.39	7.37	-28.0	-29.1	10.9	2.37e-03	0	41	0	22020096	17	4067
2026-01-02 16:22:10.87	219.49	7.43	-27.7	-28.7	11.5	9.81e-04	0	41	0	28311552	16	4059
2026-01-02 16:22:11.87	219.60	7.49	-27.7	-28.8	11.5	8.73e-04	0	42	0	35651584	16	4100
2026-01-02 16:22:12.88	219.71	7.55	-27.8	-28.9	11.4	1.12e-03	0	42	0	42991616	16	4126
2026-01-02 16:22:13.87	219.81	7.61	-27.4	-28.2	11.9	5.95e-04	0	42	0	50331648	16	3914
2026-01-02 16:22:14.87	219.92	7.67	-27.0	-27.6	12.4	2.18e-04	0	42	0	57671680	15	3872
2026-01-02 16:22:15.87	220.03	7.73	-26.8	-27.6	12.7	1.32e-04	0	42	0	65011712	14	3963
2026-01-02 16:22:16.88	220.14	7.79	-26.7	-27.6	12.7	8.01e-05	0	42	0	72351744	14	3959
2026-01-02 16:22:17.88	220.25	7.86	-27.0	-28.3	12.3	2.00e-04	0	42	0	79691776	14	4144
2026-01-02 16:22:18.88	220.36	7.92	-26.7	-27.6	12.7	1.30e-04	0	42	0	85983232	14	3959
2026-01-02 16:22:19.89	220.47	7.98	-26.4	-26.8	13.1	4.69e-05	0	42	0	93323264	14	3774
2026-01-02 16:22:20.89	220.58	8.04	-26.1	-26.5	13.6	1.14e-05	0	42	0	100663296	13	3795
2026-01-02 16:22:21.89	220.69	8.10	-26.1	-26.6	13.6	8.00e-06	0	42	0	108003328	13	3810
2026-01-02 16:22:22.90	220.80	8.16	-26.1	-26.7	13.5	8.00e-06	0	42	0	115343360	13	3821
2026-01-02 16:22:23.91	220.91	8.22	-26.2	-26.8	13.5	1.71e-05	0	42	0	122683392	13	3874
2026-01-02 16:22:24.91	221.02	8.28	-25.9	-26.2	13.8	3.40e-06	0	42	0	130023424	13	3708
2026-01-02 16:22:25.92	221.14	8.35	-25.9	-26.5	14.0	0.00e+00	0	42	0	137363456	12	3874
2026-01-02 16:22:26.91	221.25	8.41	-26.0	-26.9	13.8	5.70e-06	0	42	0	144703488	12	3969
2026-01-02 16:22:27.91	221.36	8.47	-25.9	-26.7	13.8	4.50e-06	0	42	0	152043520	12	3935
2026-01-02 16:22:28.91	221.48	8.53	-26.0	-26.9	13.8	1.25e-05	0	42	0	159383552	12	3984
2026-01-02 16:22:29.91	221.59	8.59	-26.2	-27.3	13.5	4.50e-06	0	42	0	166723584	12	4087
2026-01-02 16:22:30.92	221.71	8.65	-26.2	-27.2	13.6	5.70e-06	0	42	0	173015040	12	4062
2026-01-02 16:22:31.91	221.82	8.72	-26.3	-27.5	13.4	1.71e-05	0	42	0	180355072	12	4138
2026-01-02 16:22:32.91	221.93	8.78	-26.2	-27.2	13.6	8.00e-06	0	42	0	187695104	12	4065
2026-01-02 16:22:33.90	222.05	8.84	-26.5	-27.9	13.2	1.71e-05	0	42	0	195035136	12	4242
2026-01-02 16:22:34.91	222.17	8.90	-26.4	-27.7	13.3	2.28e-05	0	42	0	202375168	12	4206
2026-01-02 16:22:35.91	222.28	8.96	-26.5	-27.4	13.2	2.97e-05	0	42	0	209715200	13	4010
2026-01-02 16:22:36.91	222.40	9.02	-26.9	-28.4	12.6	7.55e-05	0	42	0	217055232	13	4280
2026-01-02 16:22:37.92	222.52	9.09	-26.9	-27.8	12.7	1.19e-04	0	42	0	224395264	14	4016
2026-01-02 16:22:38.92	222.64	9.15	-26.6	-27.1	13.1	2.97e-05	0	42	0	230686720	14	3842
2026-01-02 16:22:39.92	222.76	9.21	-26.3	-27.1	13.4	1.83e-05	0	42	0	238026752	13	3928
2026-01-02 16:22:40.93	222.88	9.27	-26.3	-26.9	13.5	9.10e-06	0	42	0	245366784	13	3890
2026-01-02 16:22:41.92	223.00	9.33	-26.1	-26.7	13.7	4.50e-06	0	42	0	252706816	13	3821
2026-01-02 16:22:42.93	223.12	9.40	-26.2	-26.7	13.7	9.10e-06	0	42	0	260046848	13	3838
2026-01-02 16:22:43.93	223.24	9.46	-26.0	-26.4	13.8	4.50e-06	0	42	0	267386880	13	3762
2026-01-02 16:22:44.93	223.36	9.52	-26.0	-26.4	13.8	4.50e-06	0	42	0	274726912	13	3765
2026-01-02 16:22:45.94	223.48	9.59	-26.0	-26.2	13.9	5.70e-06	0	42	0	282066944	13	3716
2026-01-02 16:22:46.94	223.61	9.65	-26.1	-26.7	13.7	3.40e-06	0	42	0	289406976	13	3816
2026-01-02 16:22:47.94	223.73	9.71	-25.9	-26.6	14.1	2.20e-06	0	42	0	295698432	12	3891
2026-01-02 16:22:48.93	223.85	9.77	-25.7	-26.2	14.3	1.10e-06	0	42	0	303038464	12	3799
2026-01-02 16:22:49.93	223.98	9.83	-25.8	-26.3	14.2	6.80e-06	0	42	0	310378496	12	3825
2026-01-02 16:22:50.94	224.10	9.90	-25.6	-26.0	14.4	3.40e-06	0	42	0	317718528	12	3744
2026-01-02 16:22:51.95	224.23	9.96	-25.7	-26.1	14.3	0.00e+00	0	43	0	325058560	12	3781
2026-01-02 16:22:52.95	224.35	10.02	-25.4	-26.0	14.7	2.20e-06	0	42	0	332398592	11	3856
2026-01-02 16:22:53.96	224.48	10.09	-25.6	-26.5	14.5	0.00e+00	0	42	0	339738624	11	3959
2026-01-02 16:22:54.96	224.61	10.15	-25.5	-26.2	14.6	1.10e-06	0	43	0	347078656	11	3903
2026-01-02 16:22:55.96	224.73	10.21	-25.7	-26.6	14.4	2.20e-06	0	43	0	354418688	11	3993
2026-01-02 16:22:56.96	224.86	10.27	-25.7	-26.6	14.4	0.00e+00	0	42	0	361758720	11	3985
2026-01-02 16:22:57.97	224.99	10.34	-25.7	-26.6	14.4	1.10e-06	0	43	0	369098752	11	3997
2026-01-02 16:22:58.97	225.12	10.40	-25.8	-26.8	14.3	1.10e-06	0	43	0	376438784	11	4055
2026-01-02 16:22:59.98	225.25	10.46	-25.7	-26.6	14.4	2.20e-06	0	42	0	382730240	11	3983
2026-01-02 16:23:00.98	225.38	10.53	-25.6	-26.5	14.5	1.10e-06	0	43	0	390070272	11	3968
2026-01-02 16:23:01.99	225.51	10.59	-25.7	-26.6	14.4	3.40e-06	0	43	0	397410304	11	3991
2026-01-02 16:23:03.00	225.64	10.65	-25.8	-26.9	14.3	1.10e-06	0	43	0	404750336	11	4068
2026-01-02 16:23:03.99	225.77	10.72	-25.6	-26.3	14.6	0.00e+00	0	43	0	412090368	11	3919
2026-01-02 16:23:04.99	225.91	10.78	-25.6	-26.4	14.6	0.00e+00	0	42	0	419430400	11	3949
2026-01-02 16:23:05.99	226.04	10.84	-25.7	-26.6	14.4	0.00e+00	0	43	0	426770432	11	3994
2026-01-02 16:23:06.99	226.17	10.91	-25.7	-26.6	14.5	0.00e+00	0	43	0	434110464	11	3985
2026-01-02 16:23:07.99	226.30	10.97	-25.5	-26.3	14.6	0.00e+00	0	43	0	440401920	11	3909
2026-01-02 16:23:08.99	226.44	11.03	-25.7	-26.6	14.4	2.20e-06	0	43	0	447741952	11	4004
2026-01-02 16:23:09.99	226.57	11.10	-25.7	-26.7	14.4	0.00e+00	0	43	0	455081984	11	4019
2026-01-02 16:23:11.01	226.71	11.16	-25.6	-26.3	14.6	0.00e+00	0	43	0	462422016	11	3930
2026-01-02 16:23:12.01	226.85	11.22	-25.8	-26.8	14.4	3.40e-06	0	43	0	469762048	11	4046
2026-01-02 16:23:13.02	226.98	11.29	-25.7	-26.6	14.5	1.10e-06	0	43	0	477102080	11	3990
2026-01-02 16:23:14.02	227.12	11.35	-25.7	-26.6	14.5	1.10e-06	0	43	0	484442112	11	3998
2026-01-02 16:23:15.03	227.26	11.41	-25.7	-26.6	14.5	2.20e-06	0	43	0	491782144	11	4004
2026-01-02 16:23:16.03	227.40	11.48	-25.8	-26.9	14.3	0.00e+00	0	43	0	499122176	11	4076
2026-01-02 16:23:17.03	227.54	11.54	-25.6	-26.4	14.6	0.00e+00	0	43	0	506462208	11	3937
2026-01-02 16:23:18.03	227.68	11.60	-25.7	-26.7	14.4	0.00e+00	0	43	0	513802240	11	4024
2026-01-02 16:23:19.03	227.82	11.67	-25.5	-26.1	14.8	0.00e+00	0	43	0	521142272	11	3878
2026-01-02 16:23:20.04	227.96	11.73	-25.3	-25.7	15.0	0.00e+00	0	43	0	527433728	11	3778
2026-01-02 16:23:21.04	228.10	11.79	-25.3	-25.8	15.0	0.00e+00	0	43	0	534773760	11	3791
2026-01-02 16:23:22.04	228.24	11.86	-25.2	-25.5	15.1	0.00e+00	0	43	0	542113792	11	3724
2026-01-02 16:23:23.04	228.38	11.92	-25.3	-25.7	15.0	0.00e+00	0	43	0	549453824	11	3769
2026-01-02 16:23:24.04	228.53	11.98	-25.3	-25.7	15.0	0.00e+00	0	43	0	556793856	11	3775
2026-01-02 16:23:25.04	228.67	12.05	-25.3	-25.7	15.0	0.00e+00	0	43	0	564133888	11	3787
2026-01-02 16:23:26.05	228.81	12.11	-25.3	-25.6	15.1	0.00e+00	0	43	0	571473920	11	3757
2026-01-02 16:23:27.05	228.96	12.18	-25.5	-26.1	14.8	0.00e+00	0	43	0	578813952	11	3876
2026-01-02 16:23:28.06	229.11	12.24	-25.3	-25.8	15.0	0.00e+00	0	43	0	586153984	11	3790
2026-01-02 16:23:29.06	229.25	12.30	-25.3	-25.7	15.0	0.00e+00	0	43	0	593494016	11	3786
2026-01-02 16:23:30.06	229.40	12.37	-25.2	-25.5	15.1	0.00e+00	0	43	0	600834048	11	3732
2026-01-02 16:23:31.07	229.55	12.43	-25.2	-25.4	15.2	0.00e+00	0	43	0	608174080	11	3710
2026-01-02 16:23:32.08	229.70	12.49	-25.3	-25.7	15.1	0.00e+00	0	43	0	614465536	11	3759
2026-01-02 16:23:33.09	229.84	12.56	-25.1	-25.2	15.3	0.00e+00	0	43	0	621805568	11	3663
2026-01-02 16:23:34.08	229.99	12.62	-24.4	-24.6	15.6	0.00e+00	0	43	0	629145600	10	3693
2026-01-02 16:23:35.09	230.14	12.68	-24.9	-25.4	15.5	1.10e-06	0	43	0	636485632	10	3798
2026-01-02 16:23:36.09	230.29	12.75	-24.9	-25.2	15.6	0.00e+00	0	43	0	643825664	10	3758
2026-01-02 16:23:37.09	230.44	12.81	-25.0	-25.5	15.5	0.00e+00	0	43	0	651165696	10	3817
2026-01-02 16:23:38.09	230.60	12.87	-25.0	-25.6	15.4	1.10e-06	0	43	0	658505728	10	3835
2026-01-02 16:23:39.10	230.75	12.94	-25.2	-26.0	15.2	0.00e+00	0	43	0	665845760	10	3940
2026-01-02 16:23:40.10	230.90	13.00	-25.2	-25.9	15.2	1.10e-06	0	43	0	672137216	10	3931
2026-01-02 16:23:41.11	231.06	13.07	-25.2	-26.0	15.2	0.00e+00	0	43	0	680525824	10	3941
2026-01-02 16:23:42.11	231.21	13.13	-25.3	-26.2	15.1	0.00e+00	0	43	0	687865856	10	4000
2026-01-02 16:23:43.12	231.37	13.19	-25.3	-26.3	15.1	0.00e+00	0	43	0	694157312	10	4012
2026-01-02 16:23:44.12	231.52	13.26	-25.3	-26.3	15.0	0.00e+00	0	43	0	701497344	10	4023
2026-01-02 16:23:45.12	231.68	13.32	-25.2	-26.0	15.3	1.10e-06	0	43	0	708837376	10	3941
2026-01-02 16:23:46.12	231.83	13.38	-25.1	-25.7	15.4	0.00e+00	0	43	0	716177408	10	3866
2026-01-02 16:23:47.12	231.99	13.45	-25.1	-25.8	15.4	0.00e+00	0	43	0	723517440	10	3890
2026-01-02 16:23:48.13	232.15	13.51	-24.9	-25.4	15.5	0.00e+00	0	43	0	730857472	10	3808
2026-01-02 16:23:49.14	232.31	13.57	-24.9	-25.4	15.5	0.00e+00	0	43	0	738197504	10	3808
2026-01-02 16:23:50.14	232.47	13.64	-25.0	-25.5	15.5	0.00e+00	0	43	0	745537536	10	3822
2026-01-02 16:23:51.15	232.63	13.70	-25.0	-25.5	15.5	0.00e+00	0	43	0	752877568	10	3813
2026-01-02 16:23:52.15	232.79	13.76	-25.0	-25.6	15.4	0.00e+00	0	43	0	759169024	10	3843
2026-01-02 16:23:53.15	232.95	13.82	-24.9	-25.4	15.5	0.00e+00	0	43	0	766509056	10	3801
2026-01-02 16:23:54.15	233.11	13.89	-25.0	-25.5	15.5	0.00e+00	0	43	0	773849088	10	3827
2026-01-02 16:23:55.16	233.28	13.95	-24.9	-25.4	15.6	0.00e+00	0	43	0	781189120	10	3800
2026-01-02 16:23:56.17	233.44	14.01	-25.1	-25.9	15.3	0.00e+00	0	43	0	788529152	10	3910
2026-01-02 16:23:57.17	233.61	14.08	-25.3	-26.3	15.1	0.00e+00	0	43	0	795869184	10	4006
2026-01-02 16:23:58.17	233.77	14.14	-25.0	-25.5	15.5	3.40e-06	0	43	0	803209216	10	3819
2026-01-02 16:23:59.17	233.94	14.20	-24.8	-25.1	15.7	0.00e+00	0	43	0	810549248	10	3716
2026-01-02 16:24:00.17	234.10	14.26	-24.8	-25.1	15.7	0.00e+00	0	43	0	817889280	10	3731
2026-01-02 16:24:01.17	234.27	14.33	-24.7	-24.9	15.9	2.20e-06	0	43	0	825229312	10	3677
2026-01-02 16:24:02.17	234.44	14.39	-24.7	-24.9	15.8	0.00e+00	0	43	0	832569344	10	3691
2026-01-02 16:24:03.18	234.61	14.45	-25.0	-25.6	15.4	0.00e+00	0	43	0	839909376	10	3850
2026-01-02 16:24:04.19	234.78	14.52	-24.8	-25.0	15.8	0.00e+00	0	43	0	846200832	10	3710
2026-01-02 16:24:05.19	234.94	14.58	-24.6	-24.7	16.0	0.00e+00	0	43	0	853540864	10	3631
2026-01-02 16:24:06.20	235.12	14.64	-24.5	-24.5	16.1	0.00e+00	0	43	0	860880896	10	3601
2026-01-02 16:24:07.19	235.29	14.70	-24.6	-24.7	16.0	0.00e+00	0	43	0	868220928	10	3640
2026-01-02 16:24:08.20	235.46	14.76	-24.5	-24.4	16.2	0.00e+00	0	43	0	875560960	10	3579
2026-01-02 16:24:09.20	235.63	14.83	-24.6	-24.6	16.1	0.00e+00	0	43	0	882900992	10	3612
2026-01-02 16:24:10.20	235.80	14.89	-24.6	-24.7	16.0	0.00e+00	0	43	0	890241024	10	3629
2026-01-02 16:24:11.20	235.98	14.95	-24.4	-24.3	16.2	0.00e+00	0	43	0	897581056	10	3539
2026-01-02 16:24:12.22	236.15	15.01	-24.5	-24.4	16.1	0.00e+00	0	43	0	904921088	10	3572
2026-01-02 16:24:13.22	236.33	15.07	-24.3	-24.6	16.3	0.00e+00	0	43	0	912261120	9	3719
2026-01-02 16:24:14.22	236.50	15.13	-24.3	-24.6	16.3	0.00e+00	0	43	0	919601152	9	3723
2026-01-02 16:24:15.23	236.68	15.20	-24.4	-24.7	16.2	0.00e+00	0	43	0	925892608	9	3748
2026-01-02 16:24:16.23	236.86	15.26	-24.6	-25.1	16.1	0.00e+00	0	43	0	933232640	9	3822
2026-01-02 16:24:17.24	237.04	15.32	-24.3	-24.6	16.3	0.00e+00	0	43	0	940572672	9	3709
2026-01-02 16:24:18.24	237.22	15.38	-24.3	-24.6	16.3	0.00e+00	0	43	0	947912704	9	3704
2026-01-02 16:24:19.24	237.40	15.44	-24.4	-24.7	16.3	1.10e-06	0	44	0	955252736	9	3733
2026-01-02 16:24:20.24	237.58	15.50	-24.1	-24.1	16.6	0.00e+00	0	43	0	962592768	9	3606
2026-01-02 16:24:21.25	237.76	15.56	-24.3	-24.4	16.4	0.00e+00	0	43	0	969932800	9	3665
2026-01-02 16:24:22.25	237.94	15.62	-24.4	-24.7	16.3	1.10e-06	0	43	0	977272832	9	3724
2026-01-02 16:24:23.26	238.12	15.69	-24.2	-24.3	16.5	0.00e+00	0	43	0	984612864	9	3640
2026-01-02 16:24:24.26	238.30	15.75	-24.2	-24.4	16.5	0.00e+00	0	43	0	991952896	9	3659
2026-01-02 16:24:25.27	238.49	15.81	-24.2	-24.3	16.5	0.00e+00	0	43	0	999292928	9	3640
2026-01-02 16:24:26.27	238.67	15.87	-24.3	-24.5	16.4	0.00e+00	0	43	0	1006632960	9	3682
2026-01-02 16:24:27.27	238.86	15.93	-24.3	-24.5	16.4	0.00e+00	0	43	0	1012924416	9	3688
2026-01-02 16:24:28.27	239.04	15.99	-24.2	-24.3	16.5	0.00e+00	0	43	0	1020264448	9	3634
2026-01-02 16:24:29.28	239.23	16.05	-24.2	-24.2	16.6	0.00e+00	0	44	0	1027604480	9	3626
2026-01-02 16:24:30.28	239.42	16.11	-24.3	-24.5	16.4	0.00e+00	0	43	0	1034944512	9	3688
2026-01-02 16:24:31.28	239.61	16.17	-24.5	-24.9	16.2	0.00e+00	0	43	0	1042284544	9	3789
2026-01-02 16:24:32.28	239.80	16.22	-24.3	-24.5	16.4	0.00e+00	0	43	0	1049624576	9	3680
2026-01-02 16:24:33.28	239.98	16.28	-24.2	-24.2	16.6	0.00e+00	0	43	0	1056964608	9	3618
2026-01-02 16:24:34.28	240.17	16.34	-24.1	-24.1	16.6	0.00e+00	0	43	0	1064304640	9	3604
2026-01-02 16:24:35.28	240.36	16.40	-24.2	-24.3	16.5	0.00e+00	0	43	0	1070596096	9	3628
2026-01-02 16:24:36.28	240.56	16.46	-24.3	-24.6	16.4	0.00e+00	0	44	0	1077936128	9	3703
2026-01-02 16:24:37.28	240.75	16.52	-24.4	-24.7	16.3	0.00e+00	0	44	0	1085276160	9	3727
2026-01-02 16:24:38.29	240.94	16.58	-24.3	-24.6	16.4	0.00e+00	0	43	0	1092616192	9	3701
2026-01-02 16:24:39.29	241.14	16.63	-24.3	-24.5	16.4	0.00e+00	0	43	0	1099956224	9	3696
2026-01-02 16:24:40.30	241.33	16.69	-24.4	-24.7	16.3	0.00e+00	0	43	0	1107296256	9	3732
2026-01-02 16:24:41.29	241.52	16.75	-24.4	-24.8	16.3	0.00e+00	0	44	0	1114636288	9	3755
2026-01-02 16:24:42.30	241.72	16.81	-24.4	-24.7	16.3	0.00e+00	0	44	0	1121976320	9	3738
2026-01-02 16:24:43.31	241.92	16.87	-24.5	-24.9	16.2	0.00e+00	0	43	0	1129316352	9	3777
2026-01-02 16:24:44.32	242.12	16.92	-24.6	-25.1	16.1	0.00e+00	0	43	0	1136656384	9	3824
2026-01-02 16:24:45.32	242.32	16.98	-24.2	-24.4	16.5	0.00e+00	0	43	0	1143996416	9	3661
2026-01-02 16:24:46.33	242.52	17.04	-24.0	-23.8	16.8	0.00e+00	0	44	0	1151336448	9	3534
2026-01-02 16:24:47.33	242.72	17.10	-23.9	-23.6	16.9	0.00e+00	0	43	0	1157627904	9	3486
2026-01-02 16:24:48.33	242.92	17.15	-23.9	-24.2	16.9	0.00e+00	0	43	0	1164967936	8	3708
2026-01-02 16:24:49.33	243.12	17.21	-23.8	-24.0	17.0	0.00e+00	0	43	0	1172307968	8	3661
2026-01-02 16:24:50.34	243.32	17.26	-23.9	-24.2	16.9	0.00e+00	0	43	0	1179648000	8	3714
2026-01-02 16:24:51.34	243.52	17.32	-23.9	-24.1	17.0	0.00e+00	0	43	0	1186988032	8	3706
2026-01-02 16:24:52.35	243.73	17.38	-23.8	-23.9	17.1	0.00e+00	0	43	0	1194328064	8	3646
2026-01-02 16:24:53.35	243.93	17.43	-23.7	-23.7	17.1	0.00e+00	0	43	0	1201668096	8	3614
2026-01-02 16:24:54.35	244.14	17.49	-23.7	-23.8	17.1	0.00e+00	0	43	0	1209008128	8	3629
2026-01-02 16:24:55.35	244.34	17.54	-23.7	-23.8	17.1	0.00e+00	0	43	0	1216348160	8	3621
2026-01-02 16:24:56.35	244.55	17.60	-23.7	-23.7	17.2	0.00e+00	0	43	0	1222639616	8	3595
2026-01-02 16:24:57.36	244.76	17.65	-23.8	-24.0	17.0	0.00e+00	0	43	0	1231028224	8	3671
2026-01-02 16:24:58.36	244.96	17.71	-24.0	-24.3	16.9	0.00e+00	0	43	0	1238368256	8	3733
2026-01-02 16:24:59.37	245.17	17.76	-23.8	-23.9	17.1	0.00e+00	0	44	0	1244659712	8	3639
2026-01-02 16:25:00.37	245.38	17.81	-23.8	-23.9	17.0	0.00e+00	0	44	0	1251999744	8	3655
2026-01-02 16:25:01.37	245.59	17.87	-23.8	-24.1	17.0	0.00e+00	0	43	0	1259339776	8	3691
2026-01-02 16:25:02.36	245.80	17.92	-23.8	-24.1	17.0	0.00e+00	0	44	0	1266679808	8	3687
2026-01-02 16:25:03.37	246.01	17.97	-24.0	-24.4	16.8	0.00e+00	0	44	0	1274019840	8	3767
2026-01-02 16:25:04.37	246.22	18.03	-23.9	-24.2	16.9	0.00e+00	0	43	0	1281359872	8	3715
2026-01-02 16:25:05.37	246.44	18.08	-23.8	-24.0	17.0	0.00e+00	0	43	0	1288699904	8	3675
2026-01-02 16:25:06.37	246.65	18.13	-23.8	-23.9	17.1	0.00e+00	0	44	0	1296039936	8	3656
2026-01-02 16:25:07.37	246.86	18.18	-23.8	-24.0	17.0	0.00e+00	0	44	0	1302331392	8	3664
2026-01-02 16:25:08.38	247.08	18.23	-23.8	-23.9	17.1	0.00e+00	0	43	0	1309671424	8	3642
2026-01-02 16:25:09.38	247.29	18.29	-23.8	-24.0	17.0	0.00e+00	0	43	0	1317011456	8	3669
2026-01-02 16:25:10.39	247.51	18.34	-23.9	-24.2	16.9	0.00e+00	0	44	0	1324351488	8	3728
2026-01-02 16:25:11.39	247.73	18.39	-24.0	-24.3	16.9	0.00e+00	0	43	0	1331691520	8	3748
2026-01-02 16:25:12.39	247.95	18.44	-24.1	-24.6	16.7	0.00e+00	0	44	0	1339031552	8	3823
2026-01-02 16:25:13.39	248.16	18.49	-24.1	-24.6	16.7	0.00e+00	0	43	0	1346371584	8	3812
2026-01-02 16:25:14.39	248.38	18.54	-23.9	-24.2	16.9	0.00e+00	0	43	0	1353711616	8	3720
2026-01-02 16:25:15.39	248.60	18.59	-23.8	-24.0	17.1	0.00e+00	0	44	0	1361051648	8	3665
2026-01-02 16:25:16.39	248.82	18.64	-23.8	-23.9	17.1	0.00e+00	0	44	0	1367343104	8	3645
2026-01-02 16:25:17.39	249.04	18.69	-23.7	-23.7	17.2	0.00e+00	0	44	0	1374683136	8	3597
2026-01-02 16:25:18.39	249.26	18.73	-23.8	-23.9	17.1	0.00e+00	0	44	0	1382023168	8	3643
2026-01-02 16:25:19.40	249.49	18.78	-23.8	-23.8	17.2	0.00e+00	0	44	0	1389363200	8	3637
2026-01-02 16:25:20.39	249.71	18.83	-23.6	-23.5	17.3	0.00e+00	0	44	0	1396703232	8	3568
2026-01-02 16:25:21.40	249.93	18.88	-23.6	-23.5	17.3	4.50e-06	0	44	0	1404043264	8	3567
2026-01-02 16:25:22.40	250.16	18.93	-23.5	-23.4	17.4	0.00e+00	0	43	0	1411383296	8	3539
2026-01-02 16:25:23.40	250.38	18.97	-23.6	-23.5	17.3	0.00e+00	0	44	0	1418723328	8	3552
2026-01-02 16:25:24.41	250.61	19.02	-23.5	-23.3	17.5	0.00e+00	0	44	0	1426063360	8	3514
2026-01-02 16:25:25.41	250.84	19.07	-23.4	-23.5	17.6	0.00e+00	0	44	0	1433403392	7	3665
2026-01-02 16:25:26.42	251.07	19.11	-23.5	-23.8	17.4	0.00e+00	0	44	0	1440743424	7	3717
2026-01-02 16:25:27.43	251.30	19.16	-23.4	-23.5	17.6	0.00e+00	0	43	0	1448083456	7	3666
2026-01-02 16:25:28.43	251.52	19.20	-23.4	-23.6	17.5	0.00e+00	0	44	0	1454374912	7	3691
2026-01-02 16:25:29.44	251.75	19.25	-23.5	-23.7	17.5	0.00e+00	0	43	0	1461714944	7	3709
2026-01-02 16:25:30.44	251.98	19.29	-23.6	-24.1	17.2	0.00e+00	0	44	0	1469054976	7	3805
2026-01-02 16:25:31.44	252.21	19.34	-23.7	-24.1	17.2	0.00e+00	0	44	0	1476395008	7	3811
2026-01-02 16:25:32.45	252.45	19.38	-23.7	-24.3	17.2	0.00e+00	0	44	0	1483735040	7	3839
2026-01-02 16:25:33.44	252.68	19.42	-23.7	-24.2	17.2	2.20e-06	0	44	0	1491075072	7	3832
2026-01-02 16:25:34.45	252.91	19.47	-23.6	-24.1	17.2	0.00e+00	0	44	0	1498415104	7	3803
2026-01-02 16:25:35.45	253.14	19.51	-23.7	-24.2	17.2	0.00e+00	0	44	0	1505755136	7	3819
2026-01-02 16:25:36.45	253.38	19.55	-23.8	-24.5	17.0	1.10e-06	0	44	0	1513095168	7	3883
2026-01-02 16:25:37.46	253.61	19.59	-23.7	-24.3	17.2	0.00e+00	0	44	0	1520435200	7	3832
2026-01-02 16:25:38.46	253.85	19.63	-23.7	-24.3	17.2	0.00e+00	0	44	0	1527775232	7	3843
2026-01-02 16:25:39.47	254.08	19.68	-23.8	-24.5	17.0	5.70e-06	0	44	0	1534066688	7	3886
2026-01-02 16:25:40.47	254.32	19.72	-23.9	-24.7	17.0	0.00e+00	0	44	0	1541406720	7	3936
2026-01-02 16:25:41.48	254.56	19.76	-24.1	-24.5	16.8	0.00e+00	0	44	0	1548746752	8	3797
2026-01-02 16:25:42.48	254.80	19.80	-24.1	-24.5	16.8	2.20e-06	0	44	0	1556086784	8	3795
2026-01-02 16:25:43.49	255.04	19.84	-24.1	-24.6	16.8	0.00e+00	0	44	0	1563426816	8	3804
2026-01-02 16:25:44.50	255.28	19.88	-24.2	-24.8	16.7	0.00e+00	0	44	0	1570766848	8	3853
2026-01-02 16:25:45.50	255.52	19.91	-24.2	-24.7	16.7	1.10e-06	0	44	0	1578106880	8	3831
2026-01-02 16:25:46.51	255.76	19.95	-23.9	-24.2	17.0	0.00e+00	0	44	0	1585446912	8	3712
2026-01-02 16:25:47.51	256.00	19.99	-23.8	-23.8	17.2	0.00e+00	0	44	0	1592786944	8	3636
2026-01-02 16:25:48.52	256.24	20.03	-23.7	-23.6	17.3	1.10e-06	0	44	0	1600126976	8	3590
2026-01-02 16:25:49.52	256.48	20.06	-23.7	-23.7	17.3	0.00e+00	0	44	0	1607467008	8	3604
2026-01-02 16:25:50.52	256.72	20.10	-23.7	-23.7	17.2	0.00e+00	0	44	0	1614807040	8	3618
2026-01-02 16:25:51.52	256.96	20.14	-23.6	-23.6	17.3	1.10e-06	0	44	0	1621098496	8	3576
2026-01-02 16:25:52.52	257.21	20.17	-23.6	-23.5	17.4	0.00e+00	0	44	0	1628438528	8	3552
2026-01-02 16:25:53.52	257.45	20.21	-23.6	-23.4	17.4	0.00e+00	0	44	0	1635778560	8	3547
2026-01-02 16:25:54.52	257.69	20.24	-23.7	-23.6	17.3	0.00e+00	0	44	0	1643118592	8	3593
2026-01-02 16:25:55.52	257.94	20.27	-23.6	-23.4	17.4	0.00e+00	0	44	0	1650458624	8	3539
2026-01-02 16:25:56.52	258.18	20.31	-23.5	-23.3	17.5	0.00e+00	0	44	0	1657798656	8	3511
2026-01-02 16:25:57.53	258.43	20.34	-23.4	-23.1	17.6	0.00e+00	0	44	0	1665138688	8	3478
2026-01-02 16:25:58.53	258.68	20.37	-23.4	-23.5	17.6	0.00e+00	0	44	0	1672478720	7	3652
2026-01-02 16:25:59.53	258.92	20.40	-23.2	-23.2	17.8	0.00e+00	0	44	0	1678770176	7	3593
2026-01-02 16:26:00.54	259.17	20.44	-23.3	-23.3	17.7	0.00e+00	0	44	0	1686110208	7	3620
2026-01-02 16:26:01.54	259.42	20.47	-23.3	-23.3	17.7	0.00e+00	0	44	0	1693450240	7	3618
2026-01-02 16:26:02.55	259.67	20.50	-23.3	-23.5	17.6	0.00e+00	0	44	0	1700790272	7	3652
2026-01-02 16:26:03.55	259.92	20.53	-23.4	-23.5	17.6	0.00e+00	0	44	0	1708130304	7	3668
2026-01-02 16:26:04.56	260.17	20.56	-23.4	-23.6	17.6	0.00e+00	0	44	0	1715470336	7	3679
2026-01-02 16:26:05.56	260.42	20.59	-23.5	-23.7	17.5	0.00e+00	0	44	0	1722810368	7	3710
2026-01-02 16:26:06.56	260.67	20.61	-23.4	-23.6	17.6	0.00e+00	0	44	0	1730150400	7	3688
2026-01-02 16:26:07.55	260.91	20.64	-23.3	-23.4	17.7	0.00e+00	0	44	0	1737490432	7	3636
2026-01-02 16:26:08.55	261.17	20.67	-23.4	-23.6	17.6	0.00e+00	0	44	0	1744830464	7	3675
2026-01-02 16:26:09.56	261.42	20.70	-23.4	-23.5	17.6	0.00e+00	0	44	0	1752170496	7	3667
2026-01-02 16:26:10.56	261.67	20.72	-23.2	-23.3	17.8	0.00e+00	0	44	0	1759510528	7	3602
2026-01-02 16:26:11.57	261.92	20.75	-23.3	-23.3	17.7	0.00e+00	0	44	0	1765801984	7	3617
2026-01-02 16:26:12.57	262.18	20.77	-23.4	-23.5	17.6	0.00e+00	0	44	0	1773142016	7	3658
2026-01-02 16:26:13.57	262.43	20.80	-23.3	-23.4	17.7	0.00e+00	0	44	0	1780482048	7	3636
2026-01-02 16:26:14.57	262.68	20.82	-23.4	-23.7	17.5	0.00e+00	0	44	0	1787822080	7	3700
2026-01-02 16:26:15.58	262.94	20.85	-23.4	-23.7	17.5	0.00e+00	0	44	0	1795162112	7	3695
2026-01-02 16:26:16.58	263.19	20.87	-23.5	-23.8	17.5	0.00e+00	0	44	0	1802502144	7	3733
2026-01-02 16:26:17.58	263.44	20.89	-23.5	-23.8	17.5	0.00e+00	0	44	0	1809842176	7	3726
2026-01-02 16:26:18.58	263.70	20.92	-23.5	-23.7	17.6	0.00e+00	0	44	0	1817182208	7	3701
2026-01-02 16:26:19.58	263.95	20.94	-23.4	-23.6	17.6	0.00e+00	0	44	0	1824522240	7	3678
2026-01-02 16:26:20.58	264.21	20.96	-23.3	-23.3	17.7	0.00e+00	0	44	0	1830813696	7	3618
2026-01-02 16:26:21.59	264.47	20.98	-23.3	-23.4	17.7	0.00e+00	0	44	0	1838153728	7	3642
2026-01-02 16:26:22.59	264.72	21.00	-23.3	-23.3	17.7	0.00e+00	0	44	0	1845493760	7	3600
2026-01-02 16:26:23.60	264.98	21.02	-23.1	-23.1	17.9	0.00e+00	0	44	0	1852833792	7	3563
2026-01-02 16:26:24.59	265.24	21.04	-23.2	-23.1	17.8	0.00e+00	0	44	0	1860173824	7	3579
2026-01-02 16:26:25.59	265.49	21.06	-23.2	-23.2	17.8	0.00e+00	0	44	0	1867513856	7	3583
2026-01-02 16:26:26.59	265.75	21.07	-23.3	-23.4	17.7	0.00e+00	0	44	0	1874853888	7	3640
2026-01-02 16:26:27.59	266.01	21.09	-23.4	-23.6	17.6	0.00e+00	0	44	0	1882193920	7	3681
2026-01-02 16:26:28.60	266.27	21.11	-23.5	-23.8	17.5	0.00e+00	0	44	0	1889533952	7	3718
2026-01-02 16:26:29.60	266.52	21.12	-23.7	-24.2	17.3	0.00e+00	0	44	0	1895825408	7	3823
2026-01-02 16:26:30.60	266.78	21.14	-23.6	-24.1	17.3	0.00e+00	0	44	0	1904214016	7	3798
2026-01-02 16:26:31.60	267.04	21.15	-23.6	-23.9	17.4	0.00e+00	0	44	0	1910505472	7	3762
2026-01-02 16:26:32.61	267.30	21.17	-23.6	-23.9	17.4	0.00e+00	0	44	0	1917845504	7	3750
2026-01-02 16:26:33.60	267.56	21.18	-23.6	-24.0	17.4	0.00e+00	0	44	0	1925185536	7	3784
2026-01-02 16:26:34.61	267.82	21.19	-23.5	-23.8	17.5	0.00e+00	0	44	0	1932525568	7	3737
2026-01-02 16:26:35.62	268.08	21.21	-23.5	-23.8	17.5	0.00e+00	0	44	0	1939865600	7	3718
2026-01-02 16:26:36.61	268.34	21.22	-23.6	-23.9	17.4	0.00e+00	0	44	0	1947205632	7	3756
2026-01-02 16:26:37.62	268.60	21.23	-23.6	-24.0	17.4	0.00e+00	0	44	0	1954545664	7	3777
2026-01-02 16:26:38.62	268.86	21.24	-23.5	-23.7	17.5	0.00e+00	0	44	0	1961885696	7	3696
2026-01-02 16:26:39.62	269.12	21.25	-23.6	-24.0	17.4	1.10e-06	0	44	0	1969225728	7	3777
2026-01-02 16:26:40.62	269.38	21.26	-23.7	-24.2	17.3	0.00e+00	0	44	0	1975517184	7	3814
2026-01-02 16:26:41.61	269.64	21.27	-23.6	-24.0	17.4	0.00e+00	0	44	0	1982857216	7	3771
2026-01-02 16:26:42.62	269.90	21.28	-23.6	-23.9	17.4	0.00e+00	0	44	0	1990197248	7	3757
2026-01-02 16:26:43.62	270.16	21.29	-23.6	-24.0	17.4	0.00e+00	0	44	0	1997537280	7	3765
2026-01-02 16:26:44.62	270.42	21.29	-23.5	-23.9	17.5	0.00e+00	0	44	0	2004877312	7	3744
2026-01-02 16:26:45.63	270.68	21.30	-23.6	-23.9	17.4	0.00e+00	0	44	0	2012217344	7	3753
2026-01-02 16:26:46.63	270.94	21.31	-23.7	-24.2	17.3	0.00e+00	0	44	0	2019557376	7	3805
2026-01-02 16:26:47.63	271.20	21.31	-23.6	-24.0	17.4	0.00e+00	0	44	0	2026897408	7	3782
2026-01-02 16:26:48.64	271.47	21.32	-23.6	-24.0	17.4	0.00e+00	0	44	0	2034237440	7	3764
2026-01-02 16:26:49.64	271.73	21.32	-23.5	-23.8	17.5	0.00e+00	0	44	0	2040528896	7	3727
2026-01-02 16:26:50.65	271.99	21.32	-23.3	-23.3	17.8	0.00e+00	0	44	0	2048917504	7	3604
2026-01-02 16:26:51.64	272.25	21.33	-23.3	-23.4	17.7	0.00e+00	0	44	0	2055208960	7	3632
2026-01-02 16:26:52.65	272.51	21.33	-23.3	-23.3	17.7	0.00e+00	0	44	0	2062548992	7	3611
2026-01-02 16:26:53.64	272.77	21.33	-23.4	-23.6	17.6	0.00e+00	0	44	0	2069889024	7	3678
2026-01-02 16:26:54.64	273.03	21.33	-23.6	-23.9	17.4	0.00e+00	0	44	0	2077229056	7	3760
2026-01-02 16:26:55.64	273.30	21.33	-23.4	-23.6	17.6	0.00e+00	0	44	0	2084569088	7	3679
2026-01-02 16:26:56.65	273.56	21.33	-23.3	-23.5	17.7	1.10e-06	0	44	0	2091909120	7	3651
2026-01-02 16:26:57.65	273.82	21.33	-23.4	-23.5	17.6	0.00e+00	0	44	0	2099249152	7	3665
2026-01-02 16:26:58.65	274.08	21.33	-23.5	-23.7	17.5	0.00e+00	0	44	0	2106589184	7	3711
2026-01-02 16:26:59.64	274.34	21.33	-23.4	-23.6	17.6	0.00e+00	0	44	0	2112880640	7	3682
2026-01-02 16:27:00.64	274.60	21.33	-23.5	-23.9	17.4	0.00e+00	0	44	0	2120220672	7	3750
2026-01-02 16:27:01.65	274.86	21.33	-23.8	-24.5	17.1	0.00e+00	0	44	0	2127560704	7	3886
2026-01-02 16:27:02.65	275.13	21.32	-23.8	-24.5	17.1	0.00e+00	0	44	0	2134900736	7	3893
2026-01-02 16:27:03.65	275.39	21.32	-23.7	-24.2	17.3	0.00e+00	0	44	0	2142240768	7	3810
2026-01-02 16:27:04.65	275.65	21.31	-23.9	-24.7	17.1	0.00e+00	0	44	0	2149580800	7	3927
2026-01-02 16:27:05.66	275.91	21.31	-23.9	-24.6	17.1	0.00e+00	0	44	0	2156920832	7	3919
2026-01-02 16:27:06.66	276.17	21.30	-24.3	-25.0	16.6	0.00e+00	0	44	0	2164260864	8	3893
2026-01-02 16:27:07.67	276.43	21.30	-24.7	-25.3	16.2	0.00e+00	0	44	0	2171600896	9	3872
2026-01-02 16:27:08.67	276.69	21.29	-24.9	-25.8	15.9	0.00e+00	0	44	0	2178940928	9	3999
2026-01-02 16:27:09.68	276.96	21.28	-25.3	-26.1	15.6	1.10e-06	0	44	0	2185232384	10	3970
2026-01-02 16:27:10.69	277.22	21.27	-24.7	-24.8	16.2	0.00e+00	0	44	0	2192572416	10	3657
2026-01-02 16:27:11.69	277.48	21.26	-24.5	-24.9	16.4	0.00e+00	0	44	0	2199912448	9	3770
2026-01-02 16:27:12.69	277.74	21.25	-24.5	-24.9	16.4	0.00e+00	0	44	0	2207252480	9	3777
2026-01-02 16:27:13.69	278.00	21.24	-24.1	-24.0	16.9	0.00e+00	0	44	0	2214592512	9	3565
2026-01-02 16:27:14.69	278.26	21.23	-24.0	-23.8	17.0	0.00e+00	0	44	0	2221932544	9	3521
2026-01-02 16:27:15.69	278.52	21.22	-24.0	-23.8	17.0	0.00e+00	0	44	0	2229272576	9	3533
2026-01-02 16:27:16.69	278.78	21.21	-23.8	-23.9	17.2	0.00e+00	0	44	0	2236612608	8	3651
2026-01-02 16:27:17.69	279.04	21.20	-23.6	-23.6	17.4	0.00e+00	0	44	0	2242904064	8	3579
2026-01-02 16:27:18.70	279.30	21.19	-23.9	-24.1	17.1	0.00e+00	0	44	0	2251292672	8	3688
2026-01-02 16:27:19.70	279.56	21.17	-23.9	-24.1	17.1	0.00e+00	0	44	0	2258632704	8	3696
2026-01-02 16:27:20.70	279.81	21.16	-23.8	-23.9	17.2	0.00e+00	0	44	0	2264924160	8	3655
2026-01-02 16:27:21.70	280.07	21.14	-23.8	-24.0	17.2	0.00e+00	0	44	0	2272264192	8	3671
2026-01-02 16:27:22.70	280.33	21.13	-23.9	-24.1	17.1	0.00e+00	0	44	0	2279604224	8	3688
2026-01-02 16:27:23.71	280.59	21.11	-23.6	-23.5	17.5	0.00e+00	0	44	0	2286944256	8	3551
2026-01-02 16:27:24.71	280.85	21.10	-23.5	-23.3	17.5	0.00e+00	0	44	0	2294284288	8	3524
2026-01-02 16:27:25.72	281.11	21.08	-23.7	-23.8	17.3	0.00e+00	0	44	0	2301624320	8	3620
2026-01-02 16:27:26.73	281.37	21.06	-23.6	-23.4	17.5	0.00e+00	0	44	0	2308964352	8	3539
2026-01-02 16:27:27.74	281.63	21.04	-23.3	-23.3	17.7	0.00e+00	0	44	0	2316304384	7	3610
2026-01-02 16:27:28.74	281.88	21.02	-23.3	-23.4	17.7	0.00e+00	0	44	0	2323644416	7	3640
2026-01-02 16:27:29.75	282.14	21.01	-23.7	-24.2	17.3	0.00e+00	0	44	0	2330984448	7	3825
2026-01-02 16:27:30.75	282.39	20.99	-24.0	-24.9	16.9	0.00e+00	0	44	0	2338324480	7	3984
2026-01-02 16:27:31.75	282.65	20.97	-24.0	-24.8	16.9	0.00e+00	0	44	0	2345664512	7	3967
2026-01-02 16:27:32.75	282.90	20.94	-23.7	-24.2	17.3	0.00e+00	0	44	0	2351955968	7	3807
2026-01-02 16:27:33.75	283.16	20.92	-23.5	-23.8	17.5	0.00e+00	0	44	0	2359296000	7	3723
2026-01-02 16:27:34.75	283.41	20.90	-23.5	-23.7	17.5	0.00e+00	0	44	0	2366636032	7	3710
2026-01-02 16:27:35.75	283.67	20.88	-23.6	-23.9	17.4	0.00e+00	0	44	0	2373976064	7	3756
2026-01-02 16:27:36.74	283.92	20.86	-23.6	-24.1	17.3	0.00e+00	0	44	0	2381316096	7	3797
2026-01-02 16:27:37.75	284.17	20.83	-23.7	-24.1	17.3	0.00e+00	0	44	0	2388656128	7	3802
2026-01-02 16:27:38.75	284.43	20.81	-23.7	-24.2	17.3	0.00e+00	0	44	0	2394947584	7	3818
2026-01-02 16:27:39.74	284.68	20.78	-23.6	-24.0	17.4	0.00e+00	0	44	0	2402287616	7	3776
2026-01-02 16:27:40.75	284.93	20.76	-23.9	-24.7	17.0	0.00e+00	0	44	0	2410676224	7	3936
2026-01-02 16:27:41.76	285.18	20.73	-23.7	-24.3	17.3	0.00e+00	0	44	0	2416967680	7	3830
2026-01-02 16:27:42.77	285.44	20.71	-23.7	-24.3	17.2	0.00e+00	0	44	0	2424307712	7	3844
2026-01-02 16:27:43.77	285.69	20.68	-23.9	-24.6	17.0	0.00e+00	0	44	0	2431647744	7	3917
2026-01-02 16:27:44.77	285.94	20.65	-23.7	-24.3	17.2	0.00e+00	0	44	0	2438987776	7	3842
2026-01-02 16:27:45.77	286.19	20.62	-23.7	-24.1	17.3	0.00e+00	0	44	0	2446327808	7	3798
2026-01-02 16:27:46.77	286.44	20.60	-24.1	-25.0	16.8	0.00e+00	0	44	0	2453667840	7	4008
2026-01-02 16:27:47.78	286.69	20.57	-23.8	-23.9	17.2	0.00e+00	0	44	0	2461007872	8	3647
2026-01-02 16:27:48.78	286.94	20.54	-23.7	-23.8	17.3	0.00e+00	0	44	0	2468347904	8	3621
2026-01-02 16:27:49.79	287.19	20.51	-23.9	-24.1	17.1	0.00e+00	0	44	0	2474639360	8	3697
2026-01-02 16:27:50.79	287.43	20.48	-24.1	-24.5	16.9	0.00e+00	0	44	0	2481979392	8	3782
2026-01-02 16:27:51.79	287.68	20.45	-24.3	-24.9	16.7	0.00e+00	0	44	0	2489319424	8	3875
2026-01-02 16:27:52.79	287.93	20.42	-24.0	-24.4	16.9	0.00e+00	0	44	0	2496659456	8	3764
2026-01-02 16:27:53.80	288.17	20.38	-23.9	-24.0	17.1	0.00e+00	0	44	0	2503999488	8	3678
2026-01-02 16:27:54.81	288.42	20.35	-23.7	-23.7	17.4	0.00e+00	0	44	0	2511339520	8	3594
2026-01-02 16:27:55.82	288.67	20.32	-23.7	-23.7	17.3	0.00e+00	0	44	0	2518679552	8	3604
2026-01-02 16:27:56.82	288.91	20.29	-23.8	-23.8	17.2	0.00e+00	0	44	0	2526019584	8	3626
2026-01-02 16:27:57.83	289.16	20.25	-23.7	-23.7	17.3	0.00e+00	0	44	0	2533359616	8	3606
2026-01-02 16:27:58.83	289.40	20.22	-23.8	-24.0	17.2	0.00e+00	0	44	0	2540699648	8	3662
2026-01-02 16:27:59.84	289.65	20.18	-24.0	-24.4	16.9	0.00e+00	0	44	0	2548039680	8	3761
2026-01-02 16:28:00.84	289.89	20.15	-24.0	-24.2	17.0	0.00e+00	0	44	0	2555379712	8	3720
2026-01-02 16:28:01.84	290.13	20.11	-24.3	-25.0	16.6	0.00e+00	0	44	0	2561671168	8	3893
2026-01-02 16:28:02.84	290.37	20.08	-24.3	-25.0	16.6	0.00e+00	0	44	0	2569011200	8	3909
2026-01-02 16:28:03.85	290.62	20.04	-24.3	-25.1	16.6	0.00e+00	0	44	0	2577399808	8	3917
2026-01-02 16:28:04.85	290.86	20.00	-24.1	-24.6	16.8	0.00e+00	0	44	0	2583691264	8	3820
2026-01-02 16:28:05.86	291.10	19.97	-24.0	-24.4	16.9	0.00e+00	0	44	0	2591031296	8	3759
2026-01-02 16:28:06.86	291.34	19.93	-24.0	-24.4	16.9	0.00e+00	0	44	0	2598371328	8	3754
2026-01-02 16:28:07.86	291.57	19.89	-24.1	-24.6	16.8	0.00e+00	0	44	0	2605711360	8	3801
2026-01-02 16:28:08.87	291.81	19.85	-24.2	-24.7	16.7	0.00e+00	0	44	0	2613051392	8	3837
2026-01-02 16:28:09.87	292.05	19.81	-24.4	-25.3	16.4	0.00e+00	0	44	0	2620391424	8	3970
2026-01-02 16:28:10.88	292.29	19.77	-24.1	-24.6	16.8	0.00e+00	0	44	0	2627731456	8	3809
2026-01-02 16:28:11.88	292.53	19.73	-24.1	-24.5	16.9	0.00e+00	0	44	0	2635071488	8	3779
2026-01-02 16:28:12.89	292.76	19.69	-23.9	-24.2	17.0	0.00e+00	0	44	0	2642411520	8	3724
2026-01-02 16:28:13.90	293.00	19.65	-23.9	-24.1	17.0	0.00e+00	0	44	0	2649751552	8	3697
2026-01-02 16:28:14.90	293.23	19.61	-23.8	-24.0	17.2	0.00e+00	0	44	0	2657091584	8	3662
2026-01-02 16:28:15.91	293.47	19.57	-23.8	-23.8	17.2	0.00e+00	0	44	0	2663383040	8	3630
2026-01-02 16:28:16.91	293.70	19.53	-24.2	-24.7	16.8	0.00e+00	0	44	0	2670723072	8	3833
2026-01-02 16:28:17.91	293.93	19.49	-24.1	-24.5	16.9	0.00e+00	0	44	0	2678063104	8	3787
2026-01-02 16:28:18.91	294.17	19.44	-24.2	-24.8	16.7	0.00e+00	0	44	0	2685403136	8	3863
2026-01-02 16:28:19.92	294.40	19.40	-23.9	-24.2	17.0	0.00e+00	0	44	0	2692743168	8	3722
2026-01-02 16:28:20.92	294.63	19.36	-23.9	-24.2	17.0	0.00e+00	0	44	0	2700083200	8	3705
2026-01-02 16:28:21.93	294.86	19.31	-23.8	-24.0	17.1	0.00e+00	0	44	0	2707423232	8	3680
2026-01-02 16:28:22.93	295.09	19.27	-24.0	-24.4	16.9	0.00e+00	0	44	0	2714763264	8	3752
2026-01-02 16:28:23.93	295.32	19.22	-23.9	-24.1	17.0	0.00e+00	0	44	0	2722103296	8	3696
2026-01-02 16:28:24.93	295.55	19.18	-24.1	-24.6	16.8	0.00e+00	0	44	0	2728394752	8	3813
2026-01-02 16:28:25.93	295.77	19.13	-24.2	-24.8	16.7	0.00e+00	0	44	0	2735734784	8	3859
2026-01-02 16:28:26.93	296.00	19.09	-24.2	-24.8	16.7	0.00e+00	0	44	0	2743074816	8	3853
2026-01-02 16:28:27.94	296.23	19.04	-24.2	-24.7	16.7	0.00e+00	0	44	0	2750414848	8	3830
2026-01-02 16:28:28.94	296.45	19.00	-24.5	-25.5	16.3	0.00e+00	0	44	0	2757754880	8	4018
2026-01-02 16:28:29.94	296.68	18.95	-24.3	-25.0	16.5	0.00e+00	0	44	0	2765094912	8	3912
2026-01-02 16:28:30.95	296.90	18.90	-24.3	-25.1	16.5	0.00e+00	0	44	0	2772434944	8	3918
2026-01-02 16:28:31.96	297.13	18.85	-24.4	-25.3	16.4	0.00e+00	0	44	0	2779774976	8	3968
2026-01-02 16:28:32.96	297.35	18.81	-24.3	-25.1	16.5	0.00e+00	0	44	0	2787115008	8	3919
2026-01-02 16:28:33.96	297.57	18.76	-24.3	-25.1	16.5	0.00e+00	0	44	0	2794455040	8	3922
2026-01-02 16:28:34.97	297.79	18.71	-24.4	-25.1	16.5	0.00e+00	0	44	0	2801795072	8	3932
2026-01-02 16:28:35.97	298.01	18.66	-24.3	-25.0	16.5	0.00e+00	0	44	0	2809135104	8	3911
2026-01-02 16:28:36.97	298.23	18.61	-24.4	-25.2	16.5	0.00e+00	0	44	0	2815426560	8	3947
2026-01-02 16:28:37.98	298.45	18.56	-24.3	-25.0	16.5	0.00e+00	0	44	0	2822766592	8	3892
2026-01-02 16:28:38.98	298.67	18.51	-24.2	-24.7	16.7	0.00e+00	0	44	0	2830106624	8	3835
2026-01-02 16:28:39.99	298.89	18.46	-24.2	-24.7	16.7	0.00e+00	0	44	0	2837446656	8	3829
2026-01-02 16:28:40.99	299.11	18.41	-24.2	-24.8	16.7	0.00e+00	0	44	0	2844786688	8	3846
2026-01-02 16:28:42.00	299.33	18.36	-24.1	-24.5	16.8	0.00e+00	0	44	0	2852126720	8	3790
2026-01-02 16:28:42.99	299.54	18.31	-24.0	-24.4	16.9	0.00e+00	0	44	0	2859466752	8	3756
2026-01-02 16:28:44.00	299.75	18.26	-24.1	-24.6	16.7	1.10e-06	0	44	0	2866806784	8	3816
2026-01-02 16:28:45.00	299.97	18.21	-24.2	-24.7	16.7	0.00e+00	0	44	0	2874146816	8	3831
2026-01-02 16:28:46.01	300.18	18.16	-24.4	-25.1	16.5	0.00e+00	0	44	0	2881486848	8	3934
2026-01-02 16:28:47.01	300.40	18.11	-24.3	-24.9	16.6	0.00e+00	0	44	0	2888826880	8	3886
2026-01-02 16:28:48.02	300.61	18.05	-24.3	-25.1	16.5	0.00e+00	0	44	0	2895118336	8	3918
2026-01-02 16:28:49.02	300.82	18.00	-24.4	-25.2	16.4	0.00e+00	0	44	0	2902458368	8	3946
2026-01-02 16:28:50.02	301.03	17.95	-24.5	-25.4	16.3	0.00e+00	0	44	0	2909798400	8	4007
2026-01-02 16:28:51.03	301.24	17.90	-24.5	-25.4	16.3	0.00e+00	0	44	0	2917138432	8	3996
2026-01-02 16:28:52.03	301.45	17.84	-24.5	-25.5	16.3	0.00e+00	0	44	0	2924478464	8	4023
2026-01-02 16:28:53.03	301.66	17.79	-24.5	-25.5	16.3	0.00e+00	0	44	0	2931818496	8	4017
2026-01-02 16:28:54.03	301.87	17.74	-24.6	-25.2	16.2	0.00e+00	0	44	0	2939158528	9	3846
2026-01-02 16:28:55.03	302.07	17.68	-24.8	-25.6	15.9	0.00e+00	0	44	0	2946498560	9	3938
2026-01-02 16:28:56.03	302.28	17.63	-24.6	-25.1	16.2	1.10e-06	0	44	0	2953838592	9	3823
2026-01-02 16:28:57.03	302.48	17.58	-24.4	-24.8	16.4	0.00e+00	0	44	0	2960130048	9	3748
2026-01-02 16:28:58.03	302.69	17.52	-24.5	-24.8	16.4	0.00e+00	0	44	0	2967470080	9	3759
2026-01-02 16:28:59.03	302.89	17.47	-24.5	-25.0	16.3	0.00e+00	0	44	0	2974810112	9	3797
2026-01-02 16:29:00.03	303.10	17.41	-24.3	-24.5	16.5	0.00e+00	0	44	0	2982150144	9	3678
2026-01-02 16:29:01.02	303.30	17.36	-24.4	-24.7	16.4	0.00e+00	0	44	0	2989490176	9	3721
2026-01-02 16:29:02.03	303.50	17.30	-24.5	-24.9	16.3	0.00e+00	0	44	0	2996830208	9	3780
2026-01-02 16:29:03.03	303.70	17.25	-24.5	-24.8	16.3	0.00e+00	0	44	0	3004170240	9	3765
2026-01-02 16:29:04.03	303.90	17.19	-24.4	-24.7	16.4	0.00e+00	0	44	0	3011510272	9	3726
2026-01-02 16:29:05.04	304.10	17.13	-24.4	-24.8	16.4	0.00e+00	0	44	0	3018850304	9	3748
2026-01-02 16:29:06.04	304.30	17.08	-24.3	-24.5	16.5	0.00e+00	0	44	0	3025141760	9	3679
2026-01-02 16:29:07.04	304.50	17.02	-24.1	-24.2	16.7	0.00e+00	0	44	0	3032481792	9	3616
2026-01-02 16:29:08.04	304.70	16.96	-24.3	-24.5	16.5	0.00e+00	0	44	0	3039821824	9	3673
2026-01-02 16:29:09.04	304.89	16.91	-24.1	-24.1	16.7	0.00e+00	0	44	0	3047161856	9	3601
2026-01-02 16:29:10.05	305.09	16.85	-24.1	-24.1	16.7	0.00e+00	0	44	0	3054501888	9	3603
2026-01-02 16:29:11.05	305.29	16.79	-24.3	-24.4	16.6	0.00e+00	0	44	0	3061841920	9	3661
2026-01-02 16:29:12.05	305.48	16.74	-24.2	-24.3	16.6	0.00e+00	0	44	0	3069181952	9	3644
2026-01-02 16:29:13.05	305.67	16.68	-24.3	-24.4	16.5	0.00e+00	0	44	0	3076521984	9	3669
2026-01-02 16:29:14.05	305.87	16.62	-24.3	-24.6	16.4	0.00e+00	0	44	0	3083862016	9	3700
2026-01-02 16:29:15.06	306.06	16.56	-24.5	-24.9	16.3	0.00e+00	0	44	0	3091202048	9	3767
2026-01-02 16:29:16.06	306.25	16.50	-24.5	-25.0	16.2	0.00e+00	0	44	0	3098542080	9	3792
2026-01-02 16:29:17.07	306.44	16.45	-24.5	-25.0	16.2	0.00e+00	0	44	0	3104833536	9	3793
2026-01-02 16:29:18.07	306.63	16.39	-24.6	-25.2	16.1	0.00e+00	0	44	0	3112173568	9	3856
2026-01-02 16:29:19.08	306.83	16.33	-24.7	-25.3	16.1	0.00e+00	0	44	0	3119513600	9	3870
2026-01-02 16:29:20.08	307.01	16.27	-24.7	-25.3	16.1	0.00e+00	0	44	0	3126853632	9	3872
2026-01-02 16:29:21.09	307.20	16.21	-24.7	-25.3	16.0	0.00e+00	0	44	0	3134193664	9	3877
2026-01-02 16:29:22.09	307.39	16.15	-24.7	-25.4	16.0	0.00e+00	0	44	0	3141533696	9	3886
2026-01-02 16:29:23.09	307.58	16.09	-24.7	-25.4	16.0	0.00e+00	0	44	0	3148873728	9	3904
2026-01-02 16:29:24.09	307.76	16.03	-24.8	-25.6	15.9	0.00e+00	0	44	0	3156213760	9	3942
2026-01-02 16:29:25.09	307.95	15.98	-24.7	-25.3	16.0	0.00e+00	0	44	0	3163553792	9	3883
2026-01-02 16:29:26.09	308.13	15.92	-24.7	-25.4	16.0	0.00e+00	0	44	0	3169845248	9	3891
2026-01-02 16:29:27.09	308.32	15.86	-24.8	-25.6	15.9	0.00e+00	0	44	0	3177185280	9	3944
2026-01-02 16:29:28.09	308.50	15.80	-24.7	-25.3	16.0	0.00e+00	0	44	0	3184525312	9	3876
2026-01-02 16:29:29.10	308.68	15.74	-24.8	-25.5	15.9	0.00e+00	0	44	0	3191865344	9	3925
2026-01-02 16:29:30.11	308.87	15.68	-25.0	-26.0	15.6	0.00e+00	0	44	0	3199205376	9	4042
2026-01-02 16:29:31.11	309.05	15.62	-24.8	-25.5	15.9	0.00e+00	0	44	0	3206545408	9	3925
2026-01-02 16:29:32.11	309.23	15.56	-24.7	-25.4	16.0	0.00e+00	0	44	0	3213885440	9	3904
2026-01-02 16:29:33.12	309.41	15.49	-24.9	-25.8	15.8	0.00e+00	0	44	0	3221225472	9	3987
2026-01-02 16:29:34.12	309.59	15.43	-24.9	-25.8	15.8	0.00e+00	0	44	0	3228565504	9	3980
2026-01-02 16:29:35.13	309.77	15.37	-24.9	-25.7	15.8	0.00e+00	0	44	0	3235905536	9	3976
2026-01-02 16:29:36.13	309.94	15.31	-25.1	-25.7	15.5	0.00e+00	0	44	0	3243245568	10	3874
2026-01-02 16:29:37.14	310.12	15.25	-25.1	-25.7	15.6	0.00e+00	0	44	0	3249537024	10	3864
2026-01-02 16:29:38.14	310.30	15.19	-25.2	-25.9	15.4	0.00e+00	0	44	0	3256877056	10	3908
2026-01-02 16:29:39.14	310.47	15.13	-25.2	-25.9	15.4	0.00e+00	0	44	0	3264217088	10	3922
2026-01-02 16:29:40.15	310.65	15.07	-25.1	-25.7	15.5	0.00e+00	0	44	0	3271557120	10	3874
2026-01-02 16:29:41.15	310.82	15.01	-25.1	-25.7	15.6	0.00e+00	0	44	0	3278897152	10	3866
2026-01-02 16:29:42.16	311.00	14.95	-25.1	-25.7	15.5	0.00e+00	0	44	0	3286237184	10	3877
2026-01-02 16:29:43.16	311.17	14.88	-25.1	-25.8	15.5	0.00e+00	0	44	0	3293577216	10	3897
2026-01-02 16:29:44.16	311.34	14.82	-25.2	-25.9	15.4	0.00e+00	0	44	0	3300917248	10	3923
2026-01-02 16:29:45.17	311.51	14.76	-25.3	-26.2	15.2	0.00e+00	0	44	0	3308257280	10	3996
2026-01-02 16:29:46.17	311.68	14.70	-25.4	-26.4	15.2	0.00e+00	0	44	0	3315597312	10	4026
2026-01-02 16:29:47.18	311.85	14.64	-25.5	-26.6	15.1	0.00e+00	0	44	0	3322937344	10	4084
2026-01-02 16:29:48.18	312.02	14.58	-25.5	-26.6	15.0	0.00e+00	0	44	0	3330277376	10	4095
2026-01-02 16:29:49.19	312.19	14.51	-25.4	-26.4	15.1	0.00e+00	0	44	0	3336568832	10	4028
2026-01-02 16:29:50.19	312.36	14.45	-25.5	-26.6	15.0	0.00e+00	0	44	0	3343908864	10	4097
2026-01-02 16:29:51.20	312.53	14.39	-25.5	-26.6	15.0	0.00e+00	0	44	0	3352297472	10	4083
2026-01-02 16:29:52.20	312.69	14.33	-25.6	-26.3	14.9	0.00e+00	0	44	0	3358588928	11	3919
2026-01-02 16:29:53.21	312.86	14.27	-25.2	-25.4	15.4	0.00e+00	0	44	0	3365928960	11	3695
2026-01-02 16:29:54.22	313.03	14.20	-25.0	-25.0	15.6	0.00e+00	0	44	0	3373268992	11	3596
2026-01-02 16:29:55.22	313.19	14.14	-24.9	-25.3	15.7	0.00e+00	0	44	0	3380609024	10	3760
2026-01-02 16:29:56.21	313.35	14.08	-24.9	-25.4	15.7	0.00e+00	0	44	0	3387949056	10	3797
2026-01-02 16:29:57.22	313.52	14.02	-24.9	-25.2	15.7	0.00e+00	0	44	0	3395289088	10	3754
2026-01-02 16:29:58.22	313.68	13.95	-24.9	-25.4	15.6	0.00e+00	0	44	0	3402629120	10	3799
2026-01-02 16:29:59.23	313.84	13.89	-25.0	-25.6	15.5	0.00e+00	0	44	0	3409969152	10	3847
2026-01-02 16:30:00.24	314.01	13.83	-25.1	-25.7	15.5	0.00e+00	0	44	0	3417309184	10	3860
2026-01-02 16:30:01.24	314.17	13.77	-25.2	-25.9	15.4	0.00e+00	0	44	0	3423600640	10	3907
2026-01-02 16:30:02.24	314.33	13.70	-25.2	-26.0	15.3	0.00e+00	0	44	0	3430940672	10	3952
2026-01-02 16:30:03.24	314.48	13.64	-25.3	-26.2	15.2	0.00e+00	0	44	0	3438280704	10	3999
2026-01-02 16:30:04.24	314.64	13.58	-25.4	-26.3	15.1	0.00e+00	0	44	0	3445620736	10	4015
2026-01-02 16:30:05.25	314.80	13.52	-25.5	-26.6	15.0	0.00e+00	0	44	0	3452960768	10	4081
2026-01-02 16:30:06.25	314.96	13.45	-25.5	-26.5	15.0	0.00e+00	0	44	0	3460300800	10	4073
2026-01-02 16:30:07.25	315.11	13.39	-25.5	-26.5	15.0	0.00e+00	0	44	0	3467640832	10	4075
2026-01-02 16:30:08.26	315.27	13.33	-25.5	-26.6	15.0	1.10e-06	0	44	0	3474980864	10	4094
2026-01-02 16:30:09.26	315.43	13.27	-25.5	-26.6	15.0	0.00e+00	0	44	0	3482320896	10	4086
2026-01-02 16:30:10.27	315.58	13.20	-25.3	-26.3	15.1	0.00e+00	0	44	0	3489660928	10	4002
2026-01-02 16:30:11.27	315.74	13.14	-25.4	-26.3	15.1	0.00e+00	0	44	0	3497000960	10	4020
2026-01-02 16:30:12.28	315.89	13.08	-25.2	-26.0	15.3	0.00e+00	0	44	0	3503292416	10	3942
2026-01-02 16:30:13.29	316.04	13.01	-25.3	-26.1	15.3	0.00e+00	0	44	0	3510632448	10	3949
2026-01-02 16:30:14.30	316.20	12.95	-25.3	-26.2	15.2	0.00e+00	0	44	0	3519021056	10	3979
2026-01-02 16:30:15.30	316.35	12.89	-25.1	-25.7	15.4	1.10e-06	0	44	0	3525312512	10	3871
2026-01-02 16:30:16.31	316.50	12.82	-25.0	-25.5	15.6	0.00e+00	0	44	0	3532652544	10	3818
2026-01-02 16:30:17.31	316.65	12.76	-25.0	-25.6	15.5	0.00e+00	0	44	0	3539992576	10	3842
2026-01-02 16:30:18.31	316.80	12.70	-25.1	-25.8	15.4	0.00e+00	0	44	0	3547332608	10	3885
2026-01-02 16:30:19.32	316.95	12.63	-25.1	-25.7	15.4	0.00e+00	0	44	0	3554672640	10	3876
2026-01-02 16:30:20.32	317.10	12.57	-25.1	-25.7	15.5	0.00e+00	0	44	0	3562012672	10	3866
2026-01-02 16:30:21.31	317.24	12.51	-25.1	-25.8	15.4	0.00e+00	0	44	0	3569352704	10	3897
2026-01-02 16:30:22.32	317.39	12.45	-25.2	-25.9	15.3	0.00e+00	0	44	0	3576692736	10	3910
2026-01-02 16:30:23.32	317.54	12.38	-25.2	-25.9	15.3	0.00e+00	0	44	0	3584032768	10	3912
2026-01-02 16:30:24.33	317.69	12.32	-25.3	-26.1	15.1	0.00e+00	0	44	0	3590324224	10	3978
2026-01-02 16:30:25.33	317.83	12.26	-25.4	-26.4	15.1	0.00e+00	0	44	0	3597664256	10	4038
2026-01-02 16:30:26.34	317.98	12.19	-25.6	-26.3	14.8	0.00e+00	0	44	0	3605004288	11	3902
2026-01-02 16:30:27.34	318.12	12.13	-25.5	-26.2	14.9	0.00e+00	0	44	0	3612344320	11	3881
2026-01-02 16:30:28.34	318.26	12.07	-25.6	-26.4	14.8	0.00e+00	0	44	0	3619684352	11	3926
2026-01-02 16:30:29.35	318.41	12.01	-25.7	-26.6	14.6	0.00e+00	0	44	0	3627024384	11	3981
2026-01-02 16:30:30.35	318.55	11.94	-25.7	-26.7	14.6	0.00e+00	0	44	0	3634364416	11	4003
2026-01-02 16:30:31.35	318.69	11.88	-25.9	-27.1	14.4	1.10e-06	0	44	0	3641704448	11	4105
2026-01-02 16:30:32.36	318.83	11.82	-26.0	-27.3	14.2	0.00e+00	0	44	0	3649044480	11	4177
2026-01-02 16:30:33.35	318.97	11.75	-26.1	-27.4	14.2	1.10e-06	0	44	0	3656384512	11	4185
2026-01-02 16:30:34.36	319.11	11.69	-26.1	-27.0	14.0	2.20e-06	0	44	0	3663724544	12	3983
2026-01-02 16:30:35.37	319.25	11.63	-26.1	-27.1	14.0	2.20e-06	0	44	0	3670016000	12	4018
2026-01-02 16:30:36.37	319.39	11.56	-26.0	-26.9	14.1	4.50e-06	0	44	0	3677356032	12	3949
2026-01-02 16:30:37.37	319.53	11.50	-26.0	-26.8	14.1	1.10e-06	0	44	0	3684696064	12	3926
2026-01-02 16:30:38.37	319.67	11.44	-25.9	-26.6	14.2	2.20e-06	0	44	0	3692036096	12	3893
2026-01-02 16:30:39.37	319.80	11.38	-26.0	-26.7	14.2	3.40e-06	0	44	0	3699376128	12	3907
2026-01-02 16:30:40.37	319.94	11.31	-26.0	-26.9	14.1	4.50e-06	0	44	0	3706716160	12	3954
2026-01-02 16:30:41.37	320.08	11.25	-26.0	-26.7	14.2	3.40e-06	0	44	0	3714056192	12	3924
2026-01-02 16:30:42.38	320.21	11.19	-26.1	-26.9	14.0	1.10e-06	0	44	0	3721396224	12	3968
2026-01-02 16:30:43.38	320.35	11.13	-25.9	-26.5	14.2	1.10e-06	0	44	0	3728736256	12	3869
2026-01-02 16:30:44.39	320.48	11.06	-25.6	-25.9	14.6	0.00e+00	0	44	0	3735027712	12	3724
2026-01-02 16:30:45.39	320.62	11.00	-25.6	-25.9	14.6	0.00e+00	0	44	0	3742367744	12	3709
2026-01-02 16:30:46.39	320.75	10.94	-25.6	-25.9	14.6	0.00e+00	0	44	0	3749707776	12	3726
2026-01-02 16:30:47.40	320.88	10.87	-25.5	-25.8	14.7	0.00e+00	0	44	0	3757047808	12	3696
2026-01-02 16:30:48.40	321.02	10.81	-25.6	-26.0	14.6	1.10e-06	0	44	0	3764387840	12	3751
2026-01-02 16:30:49.41	321.15	10.75	-25.6	-25.9	14.6	0.00e+00	0	44	0	3771727872	12	3723
2026-01-02 16:30:50.41	321.28	10.69	-25.7	-26.2	14.5	0.00e+00	0	44	0	3779067904	12	3789
2026-01-02 16:30:51.42	321.41	10.62	-25.7	-26.2	14.5	0.00e+00	0	44	0	3786407936	12	3787
2026-01-02 16:30:52.42	321.54	10.56	-25.8	-26.2	14.4	3.40e-06	0	44	0	3793747968	12	3802
2026-01-02 16:30:53.42	321.67	10.50	-25.9	-26.5	14.3	0.00e+00	0	44	0	3801088000	12	3862
2026-01-02 16:30:54.41	321.80	10.44	-25.9	-26.6	14.2	4.50e-06	0	44	0	3808428032	12	3890
2026-01-02 16:30:55.41	321.92	10.37	-25.9	-26.6	14.2	3.40e-06	0	44	0	3815768064	12	3891
2026-01-02 16:30:56.42	322.05	10.31	-26.0	-26.8	14.1	5.70e-06	0	44	0	3822059520	12	3937
2026-01-02 16:30:57.43	322.18	10.25	-26.0	-26.7	14.1	3.40e-06	0	44	0	3829399552	12	3931
2026-01-02 16:30:58.43	322.31	10.19	-26.0	-26.7	14.1	2.20e-06	0	44	0	3836739584	12	3920
2026-01-02 16:30:59.43	322.43	10.13	-26.0	-26.7	14.1	2.20e-06	0	44	0	3844079616	12	3928
2026-01-02 16:31:00.43	322.56	10.06	-26.1	-27.0	14.0	1.10e-06	0	44	0	3851419648	12	3984
2026-01-02 16:31:01.43	322.68	10.00	-26.1	-26.9	14.0	2.20e-06	0	44	0	3858759680	12	3980
2026-01-02 16:31:02.43	322.81	9.94	-26.1	-27.1	13.9	1.02e-05	0	44	0	3866099712	12	4026
2026-01-02 16:31:03.44	322.93	9.88	-26.1	-27.1	13.9	1.10e-06	0	44	0	3873439744	12	4019
2026-01-02 16:31:04.44	323.06	9.81	-26.0	-26.9	14.0	2.20e-06	0	44	0	3879731200	12	3960
2026-01-02 16:31:05.44	323.18	9.75	-26.1	-26.9	14.0	6.80e-06	0	44	0	3887071232	12	3971
2026-01-02 16:31:06.44	323.30	9.69	-26.2	-27.3	13.7	8.00e-06	0	44	0	3894411264	12	4072
2026-01-02 16:31:07.45	323.43	9.63	-26.2	-27.3	13.7	1.25e-05	0	44	0	3901751296	12	4081
2026-01-02 16:31:08.45	323.55	9.57	-26.1	-26.9	13.9	9.10e-06	0	44	0	3909091328	12	3979
2026-01-02 16:31:09.45	323.67	9.51	-26.1	-26.9	13.9	4.50e-06	0	44	0	3916431360	12	3983
2026-01-02 16:31:10.46	323.79	9.44	-26.1	-27.0	13.9	3.40e-06	0	44	0	3923771392	12	3998
2026-01-02 16:31:11.46	323.91	9.38	-26.1	-27.1	13.8	9.10e-06	0	44	0	3931111424	12	4020
2026-01-02 16:31:12.47	324.03	9.32	-26.1	-27.0	13.9	1.10e-06	0	44	0	3938451456	12	4001
2026-01-02 16:31:13.47	324.15	9.26	-26.2	-27.2	13.8	9.10e-06	0	44	0	3945791488	12	4054
2026-01-02 16:31:14.48	324.27	9.20	-26.2	-27.3	13.7	9.10e-06	0	44	0	3953131520	12	4085
2026-01-02 16:31:15.48	324.39	9.13	-26.2	-27.3	13.7	8.00e-06	0	44	0	3960471552	12	4071
2026-01-02 16:31:16.49	324.51	9.07	-26.0	-26.9	13.9	2.20e-06	0	44	0	3966763008	12	3971
2026-01-02 16:31:17.50	324.63	9.01	-26.1	-27.0	13.9	5.70e-06	0	44	0	3975151616	12	3987
2026-01-02 16:31:18.50	324.74	8.95	-26.1	-27.0	13.9	3.40e-06	0	44	0	3982491648	12	4000
2026-01-02 16:31:19.50	324.86	8.89	-26.0	-26.8	14.0	4.50e-06	0	44	0	3988783104	12	3948
2026-01-02 16:31:20.51	324.97	8.83	-26.4	-27.7	13.5	1.25e-05	0	44	0	3996123136	12	4178
2026-01-02 16:31:21.51	325.09	8.77	-26.5	-27.9	13.3	1.48e-05	0	44	0	4003463168	12	4236
2026-01-02 16:31:22.52	325.21	8.70	-26.2	-27.3	13.7	6.80e-06	0	44	0	4010803200	12	4076
2026-01-02 16:31:23.52	325.32	8.64	-26.1	-26.9	13.9	3.40e-06	0	44	0	4018143232	12	3986
2026-01-02 16:31:24.53	325.44	8.58	-26.2	-27.3	13.7	8.00e-06	0	44	0	4025483264	12	4078
2026-01-02 16:31:25.54	325.55	8.52	-26.2	-27.3	13.6	1.14e-05	0	44	0	4032823296	12	4078
2026-01-02 16:31:26.54	325.66	8.46	-26.3	-27.5	13.6	6.80e-06	0	44	0	4040163328	12	4132
2026-01-02 16:31:27.54	325.78	8.40	-26.3	-27.6	13.5	1.48e-05	0	44	0	4046454784	12	4148
2026-01-02 16:31:28.55	325.89	8.34	-26.3	-27.4	13.6	3.40e-06	0	44	0	4054843392	12	4114
2026-01-02 16:31:29.55	326.00	8.28	-26.3	-27.5	13.5	1.14e-05	0	44	0	4062183424	12	4130
2026-01-02 16:31:30.56	326.11	8.22	-26.3	-27.6	13.5	8.00e-06	0	44	0	4068474880	12	4153
2026-01-02 16:31:31.56	326.22	8.15	-26.4	-27.7	13.4	1.71e-05	0	44	0	4075814912	12	4191
2026-01-02 16:31:32.57	326.33	8.09	-26.5	-27.9	13.2	2.17e-05	0	44	0	4083154944	12	4241
2026-01-02 16:31:33.58	326.45	8.03	-26.5	-28.1	13.1	2.86e-05	0	44	0	4090494976	12	4287
2026-01-02 16:31:34.59	326.56	7.97	-26.6	-28.1	13.1	3.20e-05	0	44	0	4097835008	12	4305
2026-01-02 16:31:35.58	326.66	7.91	-26.8	-28.1	12.9	5.72e-05	0	44	0	4105175040	13	4180
2026-01-02 16:31:36.59	326.77	7.85	-26.8	-28.2	12.8	9.26e-05	0	44	0	4112515072	13	4213
2026-01-02 16:31:37.59	326.88	7.79	-26.6	-27.6	13.1	4.11e-05	0	44	0	4119855104	13	4069
2026-01-02 16:31:38.59	326.99	7.73	-26.6	-27.6	13.1	3.66e-05	0	44	0	4127195136	13	4063
2026-01-02 16:31:39.60	327.10	7.67	-26.5	-27.5	13.1	2.63e-05	0	44	0	4134535168	13	4034
2026-01-02 16:31:40.60	327.20	7.61	-26.5	-27.6	13.1	2.05e-05	0	44	0	4141875200	13	4046
2026-01-02 16:31:41.60	327.31	7.55	-26.5	-27.6	13.1	2.51e-05	0	44	0	4149215232	13	4045
2026-01-02 16:31:42.61	327.42	7.49	-26.6	-27.6	13.0	3.43e-05	0	44	0	4155506688	13	4073
2026-01-02 16:31:43.61	327.52	7.43	-26.5	-27.6	13.1	3.66e-05	0	44	0	4162846720	13	4046
2026-01-02 16:31:44.60	327.63	7.37	-26.7	-27.9	12.9	4.23e-05	0	44	0	4170186752	13	4137
2026-01-02 16:31:45.61	327.73	7.31	-26.7	-27.9	12.9	4.80e-05	0	44	0	4177526784	13	4125
2026-01-02 16:31:46.61	327.84	7.25	-26.8	-28.1	12.8	6.52e-05	0	44	0	4184866816	13	4192
2026-01-02 16:31:47.61	327.94	7.19	-26.8	-28.2	12.7	1.15e-04	0	44	0	4192206848	13	4207
2026-01-02 16:31:48.62	328.05	7.13	-26.9	-28.5	12.6	1.09e-04	0	44	0	4199546880	13	4295
2026-01-02 16:31:49.62	328.15	7.07	-32.4	-41.6	3.8	3.78e-01	0	44	104	4204789760	24	10304
2026-01-02 16:31:50.62	328.25	7.01	-32.8	-42.5	3.8	8.47e-01	0	44	104	4204789760	25	10991

#Closed at: 2026-01-02 16:31:51
#Recorded file [4204 MB]: D:/data/31010_260102_192206.dat