passes_logs/2026/01/02/R2M6_AANII_01/R2M6_AANII_01__20260102_235934_SUOMI_NPP_rec.log

#Pass ID: 20260102_235934_SUOMI NPP
#Satellite: SUOMI NPP
#Configuration: NPP
#almurnet v.1.7.20240730
#Start time: 2026-01-02 23:59:36

#Version: 2.2.20231116
#Station: R2M6_AANII_01
#Location: 30.233357 lon 59.946436 lat
#TLE: 1 37849U 11061A   26001.07732418  .00000182  00000+0  10735-3 0  9990
#TLE: 2 37849  98.7795 303.2470 0002580  87.2016 272.9455 14.19520779734739

#Time	Az	El	Level	Level2	SNR	BER	BlckErr	Temp	State	Recorded	gain1	gain2
2026-01-02 23:59:36.21	20.58	7.14	-31.4	-38.0	4.5	1.39e+00	0	41	0	0	22	7696
2026-01-02 23:59:37.21	20.61	7.21	-31.5	-38.1	4.4	1.41e+00	0	41	104	0	23	7637
2026-01-02 23:59:38.22	20.63	7.29	-31.6	-38.3	5.5	4.36e-01	0	41	0	0	23	7770
2026-01-02 23:59:39.22	20.66	7.37	-31.6	-38.6	5.3	5.25e-01	0	41	0	1048576	23	8009
2026-01-02 23:59:40.23	20.69	7.44	-31.6	-38.0	5.7	4.37e-01	0	41	0	3145728	23	7569
2026-01-02 23:59:41.23	20.72	7.52	-31.5	-37.8	5.8	4.16e-01	0	41	0	5242880	23	7393
2026-01-02 23:59:42.24	20.75	7.60	-31.5	-37.7	5.9	3.65e-01	0	41	0	7340032	23	7309
2026-01-02 23:59:43.24	20.77	7.68	-31.4	-37.0	6.3	2.87e-01	0	41	0	9437184	23	6834
2026-01-02 23:59:44.25	20.80	7.76	-31.2	-36.4	7.1	1.71e-01	0	41	0	10485760	22	6521
2026-01-02 23:59:45.26	20.83	7.83	-31.1	-35.6	7.7	1.24e-01	0	41	0	12582912	22	6107
2026-01-02 23:59:46.26	20.86	7.91	-30.8	-34.6	8.5	5.55e-02	0	41	0	14680064	22	5587
2026-01-02 23:59:47.27	20.89	7.99	-30.7	-34.6	8.8	2.77e-02	0	41	0	16777216	21	5683
2026-01-02 23:59:48.28	20.92	8.07	-30.6	-34.2	9.2	2.40e-02	0	41	0	18874368	21	5488
2026-01-02 23:59:49.28	20.95	8.15	-30.3	-33.3	9.8	1.14e-02	0	41	0	19922944	21	5084
2026-01-02 23:59:50.29	20.98	8.23	-30.3	-33.7	10.0	1.19e-02	0	41	0	22020096	20	5316
2026-01-02 23:59:51.29	21.01	8.31	-30.4	-34.0	9.7	8.35e-03	0	41	0	24117248	20	5474
2026-01-02 23:59:52.30	21.04	8.39	-30.5	-34.0	9.3	1.45e-02	0	41	0	26214400	21	5387
2026-01-02 23:59:53.30	21.07	8.47	-30.3	-33.7	9.9	1.25e-02	0	41	0	28311552	20	5336
2026-01-02 23:59:54.31	21.10	8.55	-30.2	-33.5	10.2	8.90e-03	0	41	0	29360128	20	5216
2026-01-02 23:59:55.32	21.13	8.63	-30.3	-33.7	10.0	6.04e-03	0	41	0	31457280	20	5321
2026-01-02 23:59:56.33	21.16	8.72	-30.4	-33.7	9.7	1.65e-02	0	41	0	33554432	21	5213
2026-01-02 23:59:57.33	21.19	8.80	-30.3	-33.7	10.0	1.06e-02	0	41	0	35651584	20	5303
2026-01-02 23:59:58.33	21.22	8.88	-30.4	-33.9	9.9	9.42e-03	0	41	0	37748736	20	5411
2026-01-02 23:59:59.34	21.25	8.96	-30.3	-33.5	10.2	9.75e-03	0	41	0	38797312	20	5235
2026-01-03 00:00:00.34	21.28	9.04	-30.2	-33.3	10.4	7.61e-03	0	42	0	40894464	20	5119
2026-01-03 00:00:01.34	21.31	9.12	-30.2	-33.1	10.5	4.36e-03	0	41	0	42991616	20	5065
2026-01-03 00:00:02.35	21.34	9.21	-30.1	-32.8	10.7	3.06e-03	0	42	0	45088768	20	4940
2026-01-03 00:00:03.35	21.37	9.29	-30.1	-33.0	10.6	5.74e-03	0	41	0	46137344	20	5026
2026-01-03 00:00:04.35	21.40	9.37	-30.1	-33.0	10.6	3.59e-03	0	41	0	48234496	20	5001
2026-01-03 00:00:05.36	21.43	9.46	-30.1	-33.0	10.6	4.50e-03	0	42	0	50331648	20	4992
2026-01-03 00:00:06.36	21.46	9.54	-30.2	-33.3	10.4	8.17e-03	0	42	0	52428800	20	5138
2026-01-03 00:00:07.37	21.50	9.62	-30.0	-32.6	10.9	2.99e-03	0	41	0	54525952	20	4835
2026-01-03 00:00:08.38	21.53	9.71	-29.8	-32.4	11.5	3.72e-03	0	41	0	56623104	19	4834
2026-01-03 00:00:09.38	21.56	9.79	-29.6	-31.9	11.9	2.87e-03	0	42	0	57671680	19	4641
2026-01-03 00:00:10.39	21.59	9.88	-29.5	-31.4	12.3	2.59e-04	0	41	0	59768832	19	4483
2026-01-03 00:00:11.39	21.63	9.96	-29.5	-31.9	12.3	2.57e-03	0	42	0	61865984	18	4728
2026-01-03 00:00:12.40	21.66	10.05	-29.4	-31.7	12.4	2.45e-03	0	42	0	63963136	18	4671
2026-01-03 00:00:13.40	21.69	10.14	-29.5	-31.4	12.3	1.64e-04	0	41	0	65011712	19	4461
2026-01-03 00:00:14.40	21.72	10.22	-29.4	-31.7	12.4	2.42e-03	0	42	0	67108864	18	4678
2026-01-03 00:00:15.40	21.76	10.31	-29.5	-31.2	12.4	2.22e-03	0	42	0	69206016	19	4415
2026-01-03 00:00:16.41	21.79	10.39	-29.4	-31.0	12.5	1.41e-04	0	42	0	71303168	19	4334
2026-01-03 00:00:17.42	21.82	10.48	-29.4	-31.6	12.5	2.20e-03	0	42	0	73400320	18	4632
2026-01-03 00:00:18.42	21.86	10.57	-29.3	-31.4	12.7	2.48e-03	0	42	0	74448896	18	4561
2026-01-03 00:00:19.42	21.89	10.66	-29.5	-31.3	12.4	1.13e-04	0	42	0	76546048	19	4448
2026-01-03 00:00:20.43	21.92	10.74	-29.4	-31.7	12.5	2.54e-03	0	42	0	78643200	18	4655
2026-01-03 00:00:21.44	21.96	10.83	-29.5	-31.8	12.5	2.41e-03	0	42	0	80740352	18	4685
2026-01-03 00:00:22.44	21.99	10.92	-29.5	-31.7	12.5	1.72e-04	0	42	0	82837504	18	4671
2026-01-03 00:00:23.45	22.03	11.01	-29.4	-31.5	12.6	8.85e-05	0	42	0	83886080	18	4590
2026-01-03 00:00:24.46	22.06	11.10	-29.4	-31.4	12.7	2.22e-03	0	42	0	85983232	18	4567
2026-01-03 00:00:25.47	22.10	11.19	-29.4	-31.6	12.6	6.33e-05	0	42	0	88080384	18	4606
2026-01-03 00:00:26.47	22.13	11.28	-29.5	-31.7	12.5	1.15e-04	0	42	0	90177536	18	4670
2026-01-03 00:00:27.48	22.17	11.37	-29.5	-31.4	12.4	2.44e-03	0	42	0	92274688	19	4448
2026-01-03 00:00:28.49	22.20	11.46	-29.3	-30.8	12.7	9.15e-05	0	42	0	93323264	19	4324
2026-01-03 00:00:29.49	22.24	11.55	-29.4	-31.5	12.7	5.56e-05	0	42	0	95420416	18	4595
2026-01-03 00:00:30.50	22.28	11.64	-29.3	-31.3	12.8	8.62e-05	0	42	0	97517568	18	4529
2026-01-03 00:00:31.50	22.31	11.73	-28.7	-30.4	13.0	5.11e-05	0	42	0	99614720	18	4414
2026-01-03 00:00:32.50	22.35	11.83	-29.3	-31.2	12.7	2.07e-03	0	42	0	101711872	18	4469
2026-01-03 00:00:33.51	22.38	11.92	-29.3	-31.2	12.9	4.04e-05	0	42	0	102760448	18	4475
2026-01-03 00:00:34.51	22.42	12.01	-29.2	-31.0	13.1	4.65e-05	0	42	0	104857600	18	4416
2026-01-03 00:00:35.52	22.46	12.10	-29.2	-30.9	13.2	1.87e-03	0	42	0	106954752	18	4379
2026-01-03 00:00:36.52	22.49	12.20	-29.2	-30.9	13.1	2.97e-05	0	42	0	109051904	18	4384
2026-01-03 00:00:37.52	22.53	12.29	-29.3	-31.1	13.0	2.28e-05	0	42	0	111149056	18	4448
2026-01-03 00:00:38.53	22.57	12.38	-29.3	-31.2	13.0	1.92e-03	0	42	0	112197632	18	4468
2026-01-03 00:00:39.54	22.61	12.48	-29.1	-30.7	13.2	2.89e-05	0	42	0	114294784	18	4321
2026-01-03 00:00:40.55	22.65	12.57	-29.3	-31.2	12.9	3.58e-05	0	42	0	116391936	18	4490
2026-01-03 00:00:41.55	22.68	12.67	-29.4	-31.4	12.8	5.34e-05	0	42	0	118489088	18	4548
2026-01-03 00:00:42.55	22.72	12.76	-29.3	-31.0	13.1	1.70e-03	0	42	0	120586240	18	4424
2026-01-03 00:00:43.56	22.76	12.86	-29.4	-31.6	12.7	7.01e-05	0	42	0	121634816	18	4615
2026-01-03 00:00:44.56	22.80	12.96	-29.7	-31.7	12.3	1.21e-04	0	42	0	123731968	19	4559
2026-01-03 00:00:45.57	22.84	13.05	-29.9	-32.3	11.9	2.46e-04	0	42	0	125829120	19	4761
2026-01-03 00:00:46.58	22.88	13.15	-29.8	-32.0	12.1	5.81e-04	0	42	0	127926272	19	4657
2026-01-03 00:00:47.58	22.92	13.25	-29.8	-32.1	12.1	2.62e-04	0	42	0	130023424	19	4688
2026-01-03 00:00:48.59	22.96	13.34	-29.8	-32.2	12.0	3.29e-04	0	42	0	131072000	19	4729
2026-01-03 00:00:49.60	23.00	13.44	-29.9	-32.4	11.9	5.90e-04	0	42	0	133169152	19	4796
2026-01-03 00:00:50.60	23.04	13.54	-29.8	-32.2	12.0	4.36e-04	0	42	0	135266304	19	4733
2026-01-03 00:00:51.61	23.08	13.64	-30.0	-32.2	11.6	3.52e-04	0	42	0	137363456	20	4633
2026-01-03 00:00:52.62	23.12	13.74	-30.2	-32.8	11.2	1.58e-03	0	42	0	139460608	20	4855
2026-01-03 00:00:53.62	23.16	13.84	-30.1	-32.7	11.3	1.97e-03	0	42	0	140509184	20	4820
2026-01-03 00:00:54.63	23.20	13.94	-29.8	-31.7	11.9	6.38e-04	0	42	0	142606336	20	4474
2026-01-03 00:00:55.64	23.24	14.04	-29.6	-31.5	12.4	2.55e-04	0	42	0	144703488	19	4490
2026-01-03 00:00:56.64	23.28	14.14	-29.4	-31.4	12.9	4.76e-04	0	42	0	146800640	18	4532
2026-01-03 00:00:57.65	23.32	14.24	-29.4	-31.3	13.0	3.12e-05	0	43	0	148897792	18	4505
2026-01-03 00:00:58.65	23.37	14.34	-28.4	-30.3	12.9	4.57e-05	0	42	0	149946368	18	4493
2026-01-03 00:00:59.66	23.41	14.45	-29.4	-31.4	12.3	5.16e-04	0	42	0	152043520	18	4530
2026-01-03 00:01:00.66	23.45	14.55	-29.3	-31.2	13.0	3.12e-05	0	42	0	154140672	18	4476
2026-01-03 00:01:01.67	23.50	14.65	-29.5	-31.2	12.7	3.73e-05	0	42	0	156237824	19	4388
2026-01-03 00:01:02.67	23.54	14.75	-29.6	-31.6	12.5	2.14e-03	0	42	0	158334976	19	4503
2026-01-03 00:01:03.68	23.58	14.86	-29.5	-31.3	12.7	1.33e-04	0	42	0	159383552	19	4407
2026-01-03 00:01:04.68	23.63	14.96	-29.6	-31.4	12.7	4.34e-05	0	43	0	161480704	19	4449
2026-01-03 00:01:05.69	23.67	15.07	-29.6	-31.4	12.6	1.36e-04	0	43	0	163577856	19	4444
2026-01-03 00:01:06.70	23.71	15.17	-29.3	-30.6	13.1	2.89e-05	0	42	0	165675008	19	4186
2026-01-03 00:01:07.71	23.76	15.28	-29.2	-30.8	13.4	5.68e-04	0	43	0	167772160	18	4320
2026-01-03 00:01:08.71	23.80	15.38	-29.3	-31.1	13.2	1.44e-05	0	42	0	168820736	18	4413
2026-01-03 00:01:09.72	23.85	15.49	-29.2	-30.8	13.4	2.21e-05	0	43	0	170917888	18	4337
2026-01-03 00:01:10.73	23.89	15.60	-29.1	-30.6	13.5	5.77e-04	0	42	0	173015040	18	4271
2026-01-03 00:01:11.74	23.94	15.71	-29.0	-30.7	13.7	4.50e-06	0	43	0	175112192	17	4393
2026-01-03 00:01:12.74	23.99	15.81	-29.0	-30.3	13.7	2.20e-06	0	43	0	177209344	18	4178
2026-01-03 00:01:13.74	24.03	15.92	-29.1	-30.5	13.6	2.59e-03	0	43	0	178257920	18	4223
2026-01-03 00:01:14.74	24.08	16.03	-29.1	-30.4	13.7	5.22e-04	0	42	0	180355072	18	4211
2026-01-03 00:01:15.74	24.13	16.14	-29.0	-30.2	13.8	3.00e-06	0	43	0	182452224	18	4155
2026-01-03 00:01:16.74	24.17	16.25	-29.1	-30.7	13.5	2.62e-03	0	43	0	184549376	18	4287
2026-01-03 00:01:17.75	24.22	16.36	-29.1	-30.5	13.6	5.96e-04	0	43	0	186646528	18	4238
2026-01-03 00:01:18.76	24.27	16.47	-29.0	-30.2	13.8	6.80e-06	0	43	0	187695104	18	4134
2026-01-03 00:01:19.76	24.32	16.58	-28.9	-30.6	13.9	2.38e-03	0	43	0	189792256	17	4353
2026-01-03 00:01:20.77	24.37	16.69	-29.0	-30.7	13.8	2.51e-03	0	43	0	191889408	17	4397
2026-01-03 00:01:21.78	24.41	16.80	-28.8	-30.3	14.0	3.00e-06	0	43	0	193986560	17	4265
2026-01-03 00:01:22.79	24.46	16.92	-29.0	-30.6	13.8	2.21e-03	0	42	0	196083712	17	4373
2026-01-03 00:01:23.80	24.51	17.03	-28.8	-30.3	14.1	2.01e-03	0	43	0	197132288	17	4269
2026-01-03 00:01:24.80	24.56	17.14	-28.8	-30.3	14.1	7.00e-07	0	43	0	199229440	17	4273
2026-01-03 00:01:25.81	24.61	17.26	-29.1	-30.6	13.6	6.10e-06	0	43	0	201326592	18	4264
2026-01-03 00:01:26.81	24.66	17.37	-29.2	-30.7	13.5	2.31e-03	0	43	0	203423744	18	4286
2026-01-03 00:01:27.81	24.71	17.49	-29.2	-30.9	13.4	1.14e-05	0	42	0	205520896	18	4352
2026-01-03 00:01:28.82	24.77	17.60	-29.2	-30.7	13.5	4.54e-04	0	43	0	206569472	18	4292
2026-01-03 00:01:29.83	24.82	17.72	-29.1	-30.5	13.7	2.15e-03	0	43	0	208666624	18	4224
2026-01-03 00:01:30.83	24.87	17.84	-29.2	-30.7	13.6	7.60e-06	0	43	0	210763776	18	4289
2026-01-03 00:01:31.83	24.92	17.95	-29.1	-30.4	13.7	1.92e-03	0	43	0	212860928	18	4206
2026-01-03 00:01:32.83	24.97	18.07	-29.3	-31.0	13.4	1.76e-03	0	43	0	214958080	18	4387
2026-01-03 00:01:33.84	25.03	18.19	-29.3	-31.1	13.3	2.21e-05	0	42	0	216006656	18	4417
2026-01-03 00:01:34.84	25.08	18.31	-29.3	-31.2	13.3	1.62e-03	0	43	0	218103808	18	4434
2026-01-03 00:01:35.84	25.13	18.43	-29.3	-31.0	13.4	9.76e-05	0	43	0	220200960	18	4380
2026-01-03 00:01:36.85	25.19	18.55	-29.0	-30.4	13.8	6.80e-06	0	43	0	222298112	18	4185
2026-01-03 00:01:37.85	25.24	18.67	-28.9	-30.1	13.9	6.90e-04	0	43	0	223346688	18	4090
2026-01-03 00:01:38.86	25.30	18.79	-29.1	-30.4	13.7	4.07e-04	0	43	0	225443840	18	4204
2026-01-03 00:01:39.87	25.36	18.91	-29.0	-30.3	13.8	3.00e-06	0	43	0	227540992	18	4163
2026-01-03 00:01:40.87	25.41	19.03	-29.1	-30.4	13.8	3.63e-04	0	43	0	229638144	18	4192
2026-01-03 00:01:41.87	25.47	19.15	-29.1	-30.4	13.8	3.87e-04	0	43	0	231735296	18	4203
2026-01-03 00:01:42.87	25.52	19.28	-29.0	-30.3	13.9	3.80e-06	0	43	0	232783872	18	4153
2026-01-03 00:01:43.88	25.58	19.40	-29.0	-30.6	13.9	5.24e-04	0	43	0	234881024	17	4354
2026-01-03 00:01:44.88	25.64	19.53	-28.9	-30.1	14.0	7.16e-04	0	43	0	236978176	18	4094
2026-01-03 00:01:45.89	25.70	19.65	-29.2	-30.7	13.6	2.20e-06	0	43	0	239075328	18	4300
2026-01-03 00:01:46.90	25.76	19.78	-29.1	-30.4	13.8	1.03e-03	0	43	0	241172480	18	4195
2026-01-03 00:01:47.91	25.81	19.91	-29.1	-30.4	13.8	1.02e-03	0	43	0	243269632	18	4206
2026-01-03 00:01:48.92	25.87	20.03	-29.2	-30.8	13.5	7.60e-06	0	43	0	244318208	18	4329
2026-01-03 00:01:49.92	25.93	20.16	-29.2	-30.7	13.6	4.10e-04	0	43	0	246415360	18	4279
2026-01-03 00:01:50.92	25.99	20.29	-29.3	-30.9	13.4	1.17e-03	0	43	0	248512512	18	4364
2026-01-03 00:01:51.93	26.05	20.42	-29.3	-30.9	13.5	1.60e-05	0	43	0	250609664	18	4340
2026-01-03 00:01:52.94	26.12	20.55	-29.3	-31.1	13.3	4.57e-05	0	43	0	251658240	18	4425
2026-01-03 00:01:53.94	26.18	20.68	-29.3	-31.1	13.4	4.61e-04	0	43	0	253755392	18	4405
2026-01-03 00:01:54.95	26.24	20.81	-29.3	-30.5	13.4	1.29e-05	0	43	0	255852544	19	4136
2026-01-03 00:01:55.95	26.30	20.94	-29.6	-31.2	13.0	1.72e-03	0	43	0	257949696	19	4343
2026-01-03 00:01:56.96	26.37	21.07	-29.5	-30.9	13.2	4.41e-04	0	43	0	260046848	19	4270
2026-01-03 00:01:57.96	26.43	21.21	-29.2	-30.2	13.6	1.06e-05	0	43	0	261095424	19	4044
2026-01-03 00:01:58.96	26.49	21.34	-29.1	-30.4	13.9	1.57e-03	0	43	0	263192576	18	4196
2026-01-03 00:01:59.97	26.56	21.47	-29.0	-30.1	14.0	4.50e-06	0	43	0	265289728	18	4104
2026-01-03 00:02:00.99	26.63	21.61	-29.1	-30.4	13.9	3.00e-06	0	43	0	267386880	18	4187
2026-01-03 00:02:01.99	26.69	21.75	-28.8	-29.8	14.2	1.42e-03	0	43	0	269484032	18	4014
2026-01-03 00:02:03.00	26.76	21.88	-28.8	-30.2	14.2	0.00e+00	0	43	0	270532608	17	4227
2026-01-03 00:02:04.00	26.82	22.02	-28.7	-29.8	14.5	0.00e+00	0	43	0	272629760	17	4115
2026-01-03 00:02:05.00	26.89	22.16	-28.7	-29.9	14.5	3.38e-04	0	43	0	274726912	17	4128
2026-01-03 00:02:06.01	26.96	22.30	-28.5	-29.5	14.8	7.00e-07	0	43	0	276824064	17	4009
2026-01-03 00:02:07.02	27.03	22.44	-28.4	-29.2	14.9	0.00e+00	0	43	0	278921216	17	3938
2026-01-03 00:02:08.02	27.10	22.58	-28.6	-29.5	14.7	2.85e-04	0	43	0	279969792	17	4031
2026-01-03 00:02:09.02	27.17	22.72	-28.5	-29.4	14.7	7.70e-04	0	43	0	282066944	17	3999
2026-01-03 00:02:10.03	27.24	22.86	-28.4	-29.0	15.0	0.00e+00	0	43	0	284164096	17	3888
2026-01-03 00:02:11.04	27.31	23.00	-28.2	-29.2	15.2	2.30e-04	0	43	0	286261248	16	4019
2026-01-03 00:02:12.04	27.38	23.14	-28.1	-28.8	15.5	2.41e-04	0	43	0	288358400	16	3919
2026-01-03 00:02:13.05	27.45	23.29	-28.1	-28.8	15.4	0.00e+00	0	43	0	289406976	16	3927
2026-01-03 00:02:14.06	27.53	23.43	-28.0	-28.7	15.5	0.00e+00	0	43	0	291504128	16	3905
2026-01-03 00:02:15.06	27.60	23.58	-27.9	-28.3	15.8	1.79e-04	0	43	0	293601280	16	3784
2026-01-03 00:02:16.07	27.67	23.72	-28.1	-29.0	15.4	0.00e+00	0	43	0	295698432	16	3958
2026-01-03 00:02:17.07	27.75	23.87	-28.1	-28.9	15.4	0.00e+00	0	43	0	297795584	16	3940
2026-01-03 00:02:18.08	27.82	24.02	-28.0	-28.6	15.6	2.08e-04	0	43	0	298844160	16	3869
2026-01-03 00:02:19.08	27.90	24.17	-28.1	-28.8	15.5	0.00e+00	0	43	0	300941312	16	3917
2026-01-03 00:02:20.09	27.98	24.32	-28.0	-28.5	15.7	0.00e+00	0	43	0	303038464	16	3841
2026-01-03 00:02:21.10	28.06	24.47	-28.0	-28.7	15.5	0.00e+00	0	43	0	305135616	16	3897
2026-01-03 00:02:22.10	28.13	24.62	-28.0	-28.7	15.6	0.00e+00	0	43	0	307232768	16	3892
2026-01-03 00:02:23.10	28.21	24.77	-28.2	-29.2	15.3	0.00e+00	0	43	0	308281344	16	4010
2026-01-03 00:02:24.11	28.29	24.92	-27.9	-28.5	15.7	0.00e+00	0	43	0	310378496	16	3829
2026-01-03 00:02:25.12	28.37	25.08	-27.9	-28.4	15.8	0.00e+00	0	43	0	312475648	16	3803
2026-01-03 00:02:26.12	28.45	25.23	-27.6	-28.3	15.9	3.21e-04	0	43	0	314572800	15	3875
2026-01-03 00:02:27.13	28.54	25.38	-27.7	-28.6	15.8	0.00e+00	0	43	0	316669952	15	3956
2026-01-03 00:02:28.14	28.62	25.54	-28.1	-28.9	15.4	0.00e+00	0	43	0	317718528	16	3951
2026-01-03 00:02:29.14	28.70	25.70	-28.1	-28.8	15.5	1.84e-04	0	43	0	319815680	16	3904
2026-01-03 00:02:30.14	28.79	25.85	-28.2	-29.1	15.4	0.00e+00	0	43	0	321912832	16	3998
2026-01-03 00:02:31.15	28.87	26.01	-28.2	-29.2	15.3	0.00e+00	0	43	0	324009984	16	4021
2026-01-03 00:02:32.15	28.96	26.17	-28.2	-29.1	15.4	0.00e+00	0	43	0	326107136	16	3987
2026-01-03 00:02:33.15	29.04	26.33	-28.4	-29.7	15.0	0.00e+00	0	43	0	327155712	16	4175
2026-01-03 00:02:34.15	29.13	26.49	-28.5	-29.4	14.9	0.00e+00	0	43	0	329252864	17	3981
2026-01-03 00:02:35.16	29.22	26.66	-28.5	-29.5	14.8	0.00e+00	0	43	0	331350016	17	4008
2026-01-03 00:02:36.16	29.31	26.82	-28.4	-29.2	15.0	0.00e+00	0	43	0	333447168	17	3920
2026-01-03 00:02:37.17	29.40	26.98	-28.2	-28.7	15.3	9.23e-05	0	43	0	335544320	17	3787
2026-01-03 00:02:38.17	29.49	27.15	-28.3	-28.8	15.2	0.00e+00	0	43	0	336592896	17	3826
2026-01-03 00:02:39.18	29.58	27.31	-28.2	-28.6	15.3	0.00e+00	0	43	0	338690048	17	3777
2026-01-03 00:02:40.19	29.67	27.48	-28.3	-28.9	15.2	2.20e-06	0	43	0	340787200	17	3840
2026-01-03 00:02:41.19	29.77	27.65	-28.1	-28.3	15.5	0.00e+00	0	43	0	342884352	17	3706
2026-01-03 00:02:42.20	29.86	27.82	-28.3	-29.4	15.2	0.00e+00	0	43	0	344981504	16	4068
2026-01-03 00:02:43.21	29.96	27.99	-28.3	-29.3	15.3	0.00e+00	0	43	0	346030080	16	4052
2026-01-03 00:02:44.21	30.06	28.16	-28.4	-29.5	15.2	0.00e+00	0	43	0	348127232	16	4095
2026-01-03 00:02:45.21	30.15	28.33	-28.7	-29.9	14.6	0.00e+00	0	43	0	350224384	17	4108
2026-01-03 00:02:46.22	30.25	28.50	-28.4	-29.0	15.2	0.00e+00	0	43	0	352321536	17	3862
2026-01-03 00:02:47.23	30.35	28.68	-28.4	-29.1	15.1	7.00e-07	0	43	0	354418688	17	3902
2026-01-03 00:02:48.23	30.45	28.85	-28.4	-29.0	15.2	0.00e+00	0	43	0	355467264	17	3862
2026-01-03 00:02:49.24	30.55	29.03	-28.5	-29.3	15.0	0.00e+00	0	43	0	357564416	17	3964
2026-01-03 00:02:50.24	30.66	29.20	-28.6	-29.5	14.9	0.00e+00	0	43	0	359661568	17	4000
2026-01-03 00:02:51.25	30.76	29.38	-28.8	-30.0	14.6	0.00e+00	0	43	0	361758720	17	4152
2026-01-03 00:02:52.25	30.87	29.56	-28.8	-30.0	14.6	7.00e-07	0	43	0	362807296	17	4146
2026-01-03 00:02:53.26	30.97	29.74	-28.8	-30.1	14.5	0.00e+00	0	43	0	364904448	17	4174
2026-01-03 00:02:54.27	31.08	29.92	-29.3	-30.8	13.8	1.50e-06	0	43	0	367001600	18	4303
2026-01-03 00:02:55.28	31.19	30.10	-29.3	-31.0	13.8	1.50e-06	0	43	0	369098752	18	4336
2026-01-03 00:02:56.28	31.30	30.28	-29.5	-31.3	13.6	6.10e-06	0	43	0	371195904	18	4435
2026-01-03 00:02:57.29	31.41	30.47	-29.5	-30.9	13.4	1.67e-05	0	43	0	373293056	19	4231
2026-01-03 00:02:58.29	31.52	30.65	-29.5	-30.9	13.5	3.96e-05	0	43	0	374341632	19	4218
2026-01-03 00:02:59.29	31.63	30.84	-29.6	-31.1	13.3	2.44e-05	0	43	0	376438784	19	4285
2026-01-03 00:03:00.29	31.75	31.02	-29.8	-31.6	13.0	2.74e-05	0	43	0	378535936	19	4458
2026-01-03 00:03:01.30	31.86	31.21	-29.7	-31.3	13.2	5.79e-05	0	43	0	380633088	19	4364
2026-01-03 00:03:02.30	31.98	31.40	-30.0	-31.8	12.5	8.16e-05	0	43	0	381681664	20	4441
2026-01-03 00:03:03.30	32.10	31.59	-30.0	-31.9	12.4	2.09e-04	0	43	0	383778816	20	4470
2026-01-03 00:03:04.31	32.22	31.78	-30.3	-32.3	11.8	6.19e-04	0	43	0	385875968	21	4510
2026-01-03 00:03:05.31	32.34	31.98	-30.6	-33.0	11.3	1.03e-03	0	43	0	387973120	21	4758
2026-01-03 00:03:06.32	32.46	32.17	-30.8	-33.7	10.9	1.99e-03	0	43	0	390070272	21	5025
2026-01-03 00:03:07.33	32.59	32.37	-30.8	-33.7	10.9	3.28e-03	0	43	0	391118848	21	5021
2026-01-03 00:03:08.33	32.71	32.56	-30.8	-33.9	10.6	2.26e-03	0	43	0	393216000	21	5107
2026-01-03 00:03:09.33	32.84	32.76	-31.0	-34.3	10.4	3.15e-03	0	43	0	395313152	21	5263
2026-01-03 00:03:10.34	32.97	32.96	-30.6	-33.0	11.3	2.31e-03	0	43	0	397410304	21	4743
2026-01-03 00:03:11.35	33.10	33.16	-30.7	-33.3	11.1	1.02e-03	0	43	0	399507456	21	4871
2026-01-03 00:03:12.36	33.23	33.36	-30.6	-33.1	11.2	1.67e-03	0	43	0	401604608	21	4778
2026-01-03 00:03:13.36	33.37	33.56	-30.3	-32.7	11.9	6.66e-04	0	43	0	402653184	20	4748
2026-01-03 00:03:14.37	33.50	33.77	-30.4	-32.9	11.8	3.40e-04	0	43	0	404750336	20	4803
2026-01-03 00:03:15.38	33.64	33.97	-30.0	-31.7	12.6	1.42e-04	0	43	0	406847488	20	4370
2026-01-03 00:03:16.38	33.78	34.17	-30.0	-31.6	12.6	5.71e-04	0	43	0	408944640	20	4359
2026-01-03 00:03:17.38	33.91	34.38	-29.7	-31.5	13.2	4.19e-05	0	43	0	409993216	19	4393
2026-01-03 00:03:18.39	34.06	34.59	-29.9	-31.5	12.8	5.64e-05	0	43	0	412090368	20	4305
2026-01-03 00:03:19.39	34.20	34.80	-29.8	-31.1	13.0	7.85e-05	0	43	0	414187520	20	4191
2026-01-03 00:03:20.39	34.34	35.01	-29.6	-31.2	13.4	2.05e-05	0	43	0	416284672	19	4296
2026-01-03 00:03:21.40	34.49	35.22	-29.8	-31.7	13.0	4.57e-05	0	43	0	418381824	19	4459
2026-01-03 00:03:22.40	34.64	35.43	-29.8	-31.5	13.2	2.67e-05	0	43	0	419430400	19	4398
2026-01-03 00:03:23.40	34.79	35.64	-30.0	-31.8	12.6	2.47e-04	0	43	0	421527552	20	4415
2026-01-03 00:03:24.40	34.94	35.86	-29.9	-31.5	12.8	6.63e-05	0	43	0	423624704	20	4310
2026-01-03 00:03:25.41	35.10	36.08	-30.2	-32.3	12.3	7.55e-05	0	43	0	425721856	20	4594
2026-01-03 00:03:26.41	35.25	36.29	-30.3	-32.6	12.1	4.87e-04	0	43	0	427819008	20	4690
2026-01-03 00:03:27.42	35.41	36.51	-30.5	-32.7	11.6	3.84e-04	0	43	0	428867584	21	4626
2026-01-03 00:03:28.43	35.57	36.73	-30.6	-33.0	11.4	8.00e-04	0	43	0	430964736	21	4764
2026-01-03 00:03:29.43	35.74	36.95	-30.5	-32.8	11.5	1.29e-03	0	43	0	433061888	21	4677
2026-01-03 00:03:30.44	35.90	37.18	-30.6	-33.0	11.5	6.45e-04	0	43	0	435159040	21	4765
2026-01-03 00:03:31.45	36.07	37.40	-30.5	-32.6	11.7	8.47e-04	0	43	0	437256192	21	4603
2026-01-03 00:03:32.45	36.24	37.63	-30.5	-32.7	11.7	4.81e-04	0	43	0	438304768	21	4635
2026-01-03 00:03:33.46	36.41	37.85	-30.2	-31.9	12.2	3.22e-04	0	43	0	440401920	21	4343
2026-01-03 00:03:34.47	36.59	38.08	-30.5	-32.8	11.6	3.75e-04	0	43	0	442499072	21	4662
2026-01-03 00:03:35.47	36.76	38.31	-30.8	-33.6	11.0	1.42e-03	0	43	0	444596224	21	4985
2026-01-03 00:03:36.48	36.94	38.54	-30.9	-34.0	10.7	1.36e-03	0	43	0	446693376	21	5128
2026-01-03 00:03:37.49	37.13	38.78	-31.2	-34.2	10.1	6.08e-03	0	43	0	447741952	22	5133
2026-01-03 00:03:38.49	37.31	39.01	-31.3	-34.6	9.8	1.15e-02	0	43	0	449839104	22	5310
2026-01-03 00:03:39.50	37.50	39.24	-31.4	-35.1	9.6	9.64e-03	0	43	0	451936256	22	5520
2026-01-03 00:03:40.51	37.69	39.48	-31.1	-34.0	10.5	5.51e-03	0	43	0	454033408	22	5041
2026-01-03 00:03:41.52	37.88	39.72	-31.2	-34.3	10.2	5.17e-03	0	43	0	456130560	22	5152
2026-01-03 00:03:42.52	38.08	39.95	-30.8	-33.1	11.1	3.53e-03	0	43	0	457179136	22	4681
2026-01-03 00:03:43.53	38.27	40.19	-31.0	-33.6	10.7	3.15e-03	0	43	0	459276288	22	4860
2026-01-03 00:03:44.53	38.47	40.43	-30.8	-33.0	11.1	4.27e-03	0	43	0	461373440	22	4658
2026-01-03 00:03:45.54	38.68	40.68	-30.4	-32.0	11.9	6.81e-04	0	43	0	463470592	22	4288
2026-01-03 00:03:46.54	38.88	40.92	-30.4	-31.8	12.0	2.72e-04	0	43	0	465567744	22	4245
2026-01-03 00:03:47.55	39.10	41.16	-30.3	-32.0	12.2	3.16e-04	0	43	0	466616320	21	4381
2026-01-03 00:03:48.56	39.31	41.41	-30.4	-32.2	12.0	4.35e-04	0	43	0	468713472	21	4472
2026-01-03 00:03:49.56	39.52	41.66	-30.2	-31.8	12.2	3.39e-04	0	43	0	470810624	21	4337
2026-01-03 00:03:50.57	39.75	41.91	-30.5	-32.6	11.7	6.01e-04	0	43	0	472907776	21	4605
2026-01-03 00:03:51.58	39.97	42.16	-30.9	-33.4	10.8	1.45e-03	0	43	0	475004928	22	4799
2026-01-03 00:03:52.58	40.19	42.41	-30.8	-33.1	11.1	2.77e-03	0	43	0	476053504	22	4664
2026-01-03 00:03:53.59	40.43	42.66	-30.3	-31.5	12.2	3.75e-04	0	43	0	478150656	22	4143
2026-01-03 00:03:54.59	40.66	42.91	-30.1	-31.4	12.7	1.72e-04	0	43	0	480247808	21	4180
2026-01-03 00:03:55.60	40.90	43.17	-29.9	-31.0	12.9	1.11e-04	0	43	0	482344960	21	4066
2026-01-03 00:03:56.61	41.14	43.42	-29.8	-31.2	13.1	2.67e-05	0	43	0	484442112	20	4216
2026-01-03 00:03:57.61	41.38	43.68	-30.0	-31.5	12.9	3.35e-05	0	43	0	485490688	20	4315
2026-01-03 00:03:58.61	41.63	43.93	-30.1	-32.0	12.6	4.65e-05	0	43	0	487587840	20	4461
2026-01-03 00:03:59.62	41.88	44.19	-30.2	-32.2	12.5	5.56e-05	0	43	0	489684992	20	4537
2026-01-03 00:04:00.63	42.14	44.45	-30.1	-32.0	12.6	1.98e-04	0	43	0	491782144	20	4477
2026-01-03 00:04:01.64	42.40	44.72	-30.0	-31.7	12.7	8.62e-05	0	43	0	493879296	20	4381
2026-01-03 00:04:02.64	42.66	44.98	-29.9	-31.3	13.0	1.14e-04	0	43	0	494927872	20	4230
2026-01-03 00:04:03.65	42.93	45.24	-30.0	-31.5	13.0	3.12e-05	0	43	0	497025024	20	4320
2026-01-03 00:04:04.65	43.21	45.51	-29.9	-31.3	13.1	3.28e-05	0	43	0	499122176	20	4252
2026-01-03 00:04:05.66	43.49	45.77	-30.1	-32.0	12.6	4.19e-05	0	43	0	501219328	20	4477
2026-01-03 00:04:06.66	43.77	46.04	-29.7	-30.9	13.3	3.96e-05	0	43	0	503316480	20	4130
2026-01-03 00:04:07.66	44.05	46.30	-29.4	-30.1	13.8	1.14e-05	0	43	0	504365056	20	3899
2026-01-03 00:04:08.66	44.35	46.57	-29.3	-30.2	14.2	3.00e-06	0	43	0	506462208	19	3993
2026-01-03 00:04:09.66	44.64	46.84	-28.9	-29.1	14.9	0.00e+00	0	43	0	508559360	19	3705
2026-01-03 00:04:10.67	44.95	47.11	-29.2	-30.0	14.4	0.00e+00	0	43	0	510656512	19	3931
2026-01-03 00:04:11.68	45.25	47.38	-29.0	-29.4	14.6	1.14e-05	0	43	0	512753664	19	3786
2026-01-03 00:04:12.69	45.57	47.65	-28.9	-29.2	14.8	0.00e+00	0	43	0	513802240	19	3720
2026-01-03 00:04:13.69	45.89	47.93	-29.1	-29.7	14.5	1.50e-06	0	43	0	515899392	19	3869
2026-01-03 00:04:14.71	46.22	48.20	-29.6	-31.0	13.7	6.10e-06	0	43	0	517996544	19	4233
2026-01-03 00:04:15.72	46.55	48.48	-29.6	-31.0	13.6	6.10e-06	0	43	0	520093696	19	4239
2026-01-03 00:04:16.72	46.88	48.75	-29.6	-30.9	13.7	1.37e-05	0	43	0	522190848	19	4210
2026-01-03 00:04:17.73	47.22	49.03	-29.5	-30.9	13.8	3.12e-05	0	43	0	523239424	19	4193
2026-01-03 00:04:18.73	47.57	49.31	-29.8	-31.4	13.5	9.90e-06	0	43	0	525336576	19	4361
2026-01-03 00:04:19.74	47.93	49.58	-29.4	-30.4	14.1	7.85e-05	0	43	0	527433728	19	4044
2026-01-03 00:04:20.74	48.29	49.86	-29.7	-31.4	13.5	1.68e-04	0	43	0	529530880	19	4339
2026-01-03 00:04:21.74	48.65	50.14	-29.9	-31.7	13.3	2.51e-05	0	43	0	531628032	19	4462
2026-01-03 00:04:22.75	49.03	50.42	-30.0	-31.8	12.8	3.28e-05	0	43	0	532676608	20	4388
2026-01-03 00:04:23.75	49.41	50.69	-30.2	-32.1	12.6	1.43e-04	0	43	0	534773760	20	4509
2026-01-03 00:04:24.75	49.79	50.97	-29.6	-30.5	13.7	2.63e-04	0	43	0	536870912	20	3986
2026-01-03 00:04:25.76	50.19	51.25	-29.0	-29.5	14.6	2.29e-04	0	43	0	538968064	19	3803
2026-01-03 00:04:26.76	50.59	51.53	-28.9	-29.2	14.8	9.90e-06	0	43	0	540016640	19	3716
2026-01-03 00:04:27.75	50.99	51.81	-28.8	-29.4	15.1	2.45e-04	0	43	0	542113792	18	3849
2026-01-03 00:04:28.76	51.41	52.09	-28.7	-29.8	15.2	1.97e-04	0	43	0	544210944	17	4057
2026-01-03 00:04:29.77	51.84	52.37	-29.0	-30.1	14.6	7.00e-07	0	43	0	546308096	18	4040
2026-01-03 00:04:30.78	52.28	52.65	-29.3	-30.6	14.4	3.06e-04	0	43	0	548405248	18	4195
2026-01-03 00:04:31.78	52.72	52.93	-29.3	-30.7	14.3	4.93e-04	0	43	0	550502400	18	4213
2026-01-03 00:04:32.79	53.17	53.21	-28.8	-29.4	15.1	0.00e+00	0	43	0	551550976	18	3860
2026-01-03 00:04:33.79	53.63	53.49	-28.3	-28.7	15.8	0.00e+00	0	43	0	553648128	17	3763
2026-01-03 00:04:34.80	54.10	53.77	-28.2	-29.0	15.9	8.69e-04	0	43	0	555745280	16	3935
2026-01-03 00:04:35.81	54.57	54.05	-28.9	-30.1	14.9	1.85e-04	0	43	0	557842432	17	4169
2026-01-03 00:04:36.82	55.06	54.33	-29.2	-30.5	14.3	1.50e-06	0	43	0	559939584	18	4170
2026-01-03 00:04:37.82	55.56	54.61	-29.4	-30.9	14.1	7.00e-07	0	43	0	560988160	18	4300
2026-01-03 00:04:38.82	56.06	54.88	-29.0	-29.5	14.7	2.59e-04	0	43	0	563085312	19	3786
2026-01-03 00:04:39.83	56.58	55.16	-28.5	-28.8	15.5	0.00e+00	0	43	0	565182464	18	3696
2026-01-03 00:04:40.83	57.10	55.44	-28.1	-28.1	16.1	3.35e-05	0	43	0	567279616	17	3626
2026-01-03 00:04:41.84	57.64	55.71	-27.7	-27.9	16.6	1.06e-04	0	43	0	568328192	16	3647
2026-01-03 00:04:42.85	58.19	55.99	-27.6	-27.6	16.8	0.00e+00	0	43	0	570425344	16	3576
2026-01-03 00:04:43.85	58.74	56.26	-27.7	-27.8	16.6	1.17e-04	0	43	0	572522496	16	3625
2026-01-03 00:04:44.85	59.31	56.53	-27.8	-28.1	16.4	1.23e-04	0	43	0	574619648	16	3703
2026-01-03 00:04:45.86	59.89	56.80	-27.9	-28.2	16.4	5.03e-05	0	43	0	576716800	16	3720
2026-01-03 00:04:46.86	60.48	57.07	-28.2	-28.8	16.0	1.39e-04	0	43	0	578813952	16	3898
2026-01-03 00:04:47.86	61.07	57.33	-28.4	-29.0	15.6	2.32e-04	0	43	0	579862528	17	3854
2026-01-03 00:04:48.87	61.69	57.60	-28.8	-29.9	15.1	5.79e-05	0	43	0	581959680	17	4082
2026-01-03 00:04:49.88	62.32	57.86	-29.0	-30.0	14.8	1.44e-05	0	43	0	584056832	18	4002
2026-01-03 00:04:50.88	62.95	58.12	-29.4	-30.9	14.2	8.69e-05	0	43	0	586153984	18	4276
2026-01-03 00:04:51.88	63.60	58.38	-29.5	-30.7	13.9	1.50e-06	0	43	0	587202560	19	4135
2026-01-03 00:04:52.88	64.26	58.64	-29.3	-30.2	14.4	1.07e-04	0	43	0	589299712	19	3976
2026-01-03 00:04:53.89	64.94	58.89	-29.2	-30.0	14.5	0.00e+00	0	43	0	591396864	19	3921
2026-01-03 00:04:54.90	65.63	59.14	-29.7	-31.2	13.8	2.20e-06	0	43	0	593494016	19	4263
2026-01-03 00:04:55.90	66.33	59.39	-29.8	-31.5	13.5	8.30e-06	0	43	0	595591168	19	4366
2026-01-03 00:04:56.91	67.05	59.64	-30.5	-32.4	12.2	1.40e-04	0	43	0	596639744	21	4489
2026-01-03 00:04:57.92	67.78	59.88	-30.4	-32.1	12.4	1.43e-04	0	43	0	598736896	21	4390
2026-01-03 00:04:58.92	68.52	60.12	-30.1	-31.9	12.8	9.84e-05	0	43	0	600834048	20	4412
2026-01-03 00:04:59.92	69.27	60.36	-29.8	-30.8	13.6	5.18e-05	0	43	0	602931200	20	4080
2026-01-03 00:05:00.93	70.05	60.59	-29.6	-30.4	13.9	6.10e-06	0	43	0	605028352	20	3948
2026-01-03 00:05:01.93	70.83	60.82	-30.0	-31.6	13.1	5.30e-06	0	43	0	606076928	20	4296
2026-01-03 00:05:02.94	71.63	61.04	-30.5	-32.4	12.2	1.50e-04	0	43	0	608174080	21	4474
2026-01-03 00:05:03.94	72.44	61.26	-30.7	-33.0	11.8	2.37e-04	0	43	0	610271232	21	4691
2026-01-03 00:05:04.95	73.27	61.48	-29.9	-30.9	13.3	9.61e-05	0	43	0	612368384	21	4001
2026-01-03 00:05:05.96	74.12	61.69	-29.4	-30.9	13.5	7.60e-06	0	43	0	614465536	18	4269
2026-01-03 00:05:06.96	74.97	61.90	-29.3	-30.5	13.9	0.00e+00	0	43	0	615514112	18	4166
2026-01-03 00:05:07.97	75.84	62.10	-28.9	-29.6	15.1	0.00e+00	0	43	0	617611264	18	3897
2026-01-03 00:05:08.98	76.73	62.30	-28.7	-29.1	15.3	2.20e-06	0	43	0	619708416	18	3779
2026-01-03 00:05:09.98	77.63	62.49	-28.6	-28.9	15.4	0.00e+00	0	43	0	621805568	18	3718
2026-01-03 00:05:10.99	78.54	62.68	-28.9	-29.5	15.2	0.00e+00	0	43	0	623902720	18	3871
2026-01-03 00:05:11.99	79.47	62.86	-28.6	-29.3	15.5	1.24e-04	0	43	0	624951296	17	3915
2026-01-03 00:05:13.00	80.41	63.03	-29.1	-30.0	14.9	4.53e-04	0	43	0	627048448	18	4017
2026-01-03 00:05:14.01	81.37	63.20	-28.9	-29.6	15.0	0.00e+00	0	43	0	629145600	18	3915
2026-01-03 00:05:15.01	82.33	63.36	-28.6	-28.9	15.4	1.53e-04	0	44	0	631242752	18	3721
2026-01-03 00:05:16.02	83.32	63.52	-29.1	-30.1	14.8	0.00e+00	0	43	0	633339904	18	4047
2026-01-03 00:05:17.02	84.31	63.67	-29.5	-30.6	14.2	0.00e+00	0	43	0	634388480	19	4089
2026-01-03 00:05:18.03	85.32	63.81	-30.1	-31.7	13.0	1.14e-05	0	43	0	636485632	20	4363
2026-01-03 00:05:19.03	86.33	63.95	-30.1	-31.8	13.0	1.37e-05	0	43	0	638582784	20	4385
2026-01-03 00:05:20.04	87.37	64.08	-29.6	-30.4	13.9	5.30e-06	0	43	0	640679936	20	3954
2026-01-03 00:05:21.04	88.40	64.20	-29.2	-30.3	14.6	7.00e-07	0	43	0	642777088	18	4109
2026-01-03 00:05:22.05	89.46	64.31	-29.2	-30.3	14.8	7.00e-07	0	43	0	643825664	18	4090
2026-01-03 00:05:23.05	90.52	64.42	-29.6	-30.9	13.9	7.00e-07	0	43	0	645922816	19	4193
2026-01-03 00:05:24.05	91.58	64.52	-30.2	-32.1	12.9	2.58e-03	0	43	0	648019968	20	4472
2026-01-03 00:05:25.06	92.67	64.61	-29.9	-31.3	13.3	5.34e-05	0	43	0	650117120	20	4225
2026-01-03 00:05:26.06	93.75	64.69	-29.9	-31.1	13.4	2.13e-05	0	43	0	652214272	20	4146
2026-01-03 00:05:27.06	94.84	64.77	-29.9	-31.2	13.4	2.27e-03	0	43	0	653262848	20	4175
2026-01-03 00:05:28.07	95.95	64.83	-29.6	-30.7	14.1	2.00e-03	0	43	0	655360000	19	4121
2026-01-03 00:05:29.08	97.07	64.89	-29.3	-30.2	14.4	7.00e-07	0	43	0	657457152	19	3973
2026-01-03 00:05:30.08	98.17	64.94	-28.6	-28.8	15.6	1.67e-03	0	43	0	659554304	18	3689
2026-01-03 00:05:31.09	99.30	64.98	-27.8	-28.0	16.5	1.96e-03	0	43	0	661651456	16	3665
2026-01-03 00:05:32.10	100.43	65.02	-28.1	-28.7	16.2	0.00e+00	0	43	0	662700032	16	3848
2026-01-03 00:05:33.10	101.55	65.04	-28.7	-29.6	15.4	1.01e-03	0	43	0	664797184	17	3993
2026-01-03 00:05:34.11	102.68	65.06	-28.5	-29.0	15.7	1.67e-03	0	43	0	666894336	17	3850
2026-01-03 00:05:35.11	103.81	65.06	-27.8	-27.5	16.5	0.00e+00	0	43	0	668991488	17	3476
2026-01-03 00:05:36.12	104.94	65.06	-28.2	-28.8	16.2	1.14e-04	0	43	0	671088640	16	3875
2026-01-03 00:05:37.12	106.06	65.05	-28.9	-30.0	15.1	1.59e-03	0	43	0	672137216	17	4111
2026-01-03 00:05:38.13	107.20	65.03	-29.4	-30.4	14.4	0.00e+00	0	43	0	674234368	19	4022
2026-01-03 00:05:39.14	108.33	65.01	-28.8	-29.3	15.3	1.70e-03	0	43	0	676331520	18	3834
2026-01-03 00:05:40.15	109.45	64.97	-28.8	-29.9	15.1	1.00e-03	0	43	0	678428672	17	4073
2026-01-03 00:05:41.15	110.57	64.93	-28.9	-29.7	15.1	0.00e+00	0	43	0	680525824	18	3922
2026-01-03 00:05:42.16	111.69	64.87	-28.0	-27.8	16.4	4.57e-04	0	43	0	681574400	17	3539
2026-01-03 00:05:43.17	112.80	64.81	-27.3	-27.3	17.1	2.07e-04	0	43	0	683671552	15	3599
2026-01-03 00:05:44.17	113.90	64.74	-27.6	-28.0	16.8	0.00e+00	0	43	0	685768704	15	3769
2026-01-03 00:05:45.17	114.98	64.66	-27.8	-28.6	16.4	5.30e-06	0	43	0	687865856	15	3920
2026-01-03 00:05:46.18	116.08	64.58	-28.5	-29.2	15.6	1.38e-04	0	43	0	689963008	17	3896
2026-01-03 00:05:47.19	117.16	64.48	-28.8	-30.0	15.1	7.00e-07	0	43	0	691011584	17	4094
2026-01-03 00:05:48.20	118.23	64.38	-29.3	-30.5	14.6	2.08e-04	0	43	0	693108736	18	4165
2026-01-03 00:05:49.20	119.29	64.27	-29.1	-30.2	14.7	7.00e-07	0	43	0	695205888	18	4058
2026-01-03 00:05:50.21	120.34	64.16	-29.2	-30.3	14.7	0.00e+00	0	43	0	697303040	18	4082
2026-01-03 00:05:51.21	121.37	64.03	-28.9	-29.7	15.0	1.80e-04	0	43	0	699400192	18	3923
2026-01-03 00:05:52.22	122.41	63.90	-28.9	-29.6	15.1	0.00e+00	0	43	0	700448768	18	3893
2026-01-03 00:05:53.22	123.42	63.76	-28.9	-29.6	15.1	7.00e-07	0	43	0	702545920	18	3886
2026-01-03 00:05:54.23	124.42	63.62	-28.7	-29.5	15.4	5.41e-04	0	43	0	704643072	17	3974
2026-01-03 00:05:55.24	125.42	63.46	-28.8	-29.9	15.1	1.37e-03	0	43	0	706740224	17	4082
2026-01-03 00:05:56.24	126.39	63.31	-29.4	-30.9	14.4	0.00e+00	0	43	0	708837376	18	4259
2026-01-03 00:05:57.25	127.36	63.14	-30.1	-31.8	12.9	6.56e-05	0	43	0	709885952	20	4380
2026-01-03 00:05:58.25	128.31	62.97	-30.0	-31.4	13.2	2.19e-03	0	43	0	711983104	20	4247
2026-01-03 00:05:59.26	129.25	62.79	-29.2	-29.9	14.6	2.20e-06	0	43	0	714080256	19	3885
2026-01-03 00:06:00.27	130.17	62.61	-29.2	-30.3	14.6	1.79e-04	0	43	0	716177408	18	4106
2026-01-03 00:06:01.27	131.08	62.42	-29.0	-30.0	14.8	7.00e-07	0	43	0	718274560	18	4010
2026-01-03 00:06:02.28	131.98	62.23	-28.7	-29.0	15.4	1.50e-06	0	43	0	719323136	18	3749
2026-01-03 00:06:03.29	132.86	62.02	-28.3	-28.6	16.0	5.30e-06	0	43	0	721420288	17	3723
2026-01-03 00:06:04.29	133.72	61.82	-28.4	-28.9	15.7	0.00e+00	0	43	0	723517440	17	3815
2026-01-03 00:06:05.30	134.58	61.61	-28.5	-29.2	15.6	0.00e+00	0	43	0	725614592	17	3896
2026-01-03 00:06:06.30	135.41	61.40	-27.4	-27.1	17.0	0.00e+00	0	43	0	726663168	16	3469
2026-01-03 00:06:07.30	136.23	61.18	-27.1	-26.8	17.3	0.00e+00	0	43	0	728760320	15	3503
2026-01-03 00:06:08.31	137.05	60.96	-28.0	-28.9	16.2	0.00e+00	0	43	0	730857472	15	4024
2026-01-03 00:06:09.32	137.84	60.73	-28.1	-28.8	16.2	3.92e-04	0	43	0	732954624	16	3874
2026-01-03 00:06:10.33	138.63	60.50	-27.8	-28.5	16.3	0.00e+00	0	43	0	735051776	15	3910
2026-01-03 00:06:11.33	139.39	60.27	-26.8	-26.1	17.7	0.00e+00	0	43	0	737148928	15	3345
2026-01-03 00:06:12.34	140.15	60.03	-26.2	-25.9	18.2	0.00e+00	0	43	0	738197504	13	3461
2026-01-03 00:06:13.34	140.88	59.79	-26.0	-26.0	18.5	0.00e+00	0	43	0	740294656	12	3589
2026-01-03 00:06:14.35	141.61	59.54	-26.2	-26.3	18.4	0.00e+00	0	43	0	742391808	12	3650
2026-01-03 00:06:15.35	142.32	59.29	-26.7	-27.0	17.8	1.62e-04	0	43	0	744488960	13	3720
2026-01-03 00:06:16.36	143.02	59.04	-27.3	-28.0	17.0	0.00e+00	0	43	0	745537536	14	3867
2026-01-03 00:06:17.36	143.70	58.79	-26.7	-26.4	17.8	0.00e+00	0	43	0	747634688	14	3496
2026-01-03 00:06:18.37	144.38	58.53	-26.2	-25.9	18.3	0.00e+00	0	43	0	749731840	13	3464
2026-01-03 00:06:19.38	145.04	58.27	-26.1	-26.4	18.2	0.00e+00	0	43	0	751828992	12	3742
2026-01-03 00:06:20.38	145.68	58.02	-26.9	-27.5	17.5	0.00e+00	0	43	0	753926144	13	3854
2026-01-03 00:06:21.39	146.32	57.75	-27.2	-27.6	17.1	0.00e+00	0	43	0	754974720	14	3792
2026-01-03 00:06:22.40	146.95	57.49	-26.3	-26.1	18.1	0.00e+00	0	43	0	757071872	13	3529
2026-01-03 00:06:23.40	147.55	57.22	-26.3	-26.0	17.9	0.00e+00	0	43	0	759169024	13	3506
2026-01-03 00:06:24.40	148.15	56.95	-26.9	-27.1	17.4	1.22e-05	0	43	0	761266176	14	3647
2026-01-03 00:06:25.41	148.74	56.68	-27.2	-27.6	17.1	0.00e+00	0	43	0	763363328	14	3787
2026-01-03 00:06:26.41	149.31	56.41	-26.8	-26.6	16.8	9.61e-05	0	43	0	765460480	14	3543
2026-01-03 00:06:27.42	149.88	56.14	-26.5	-26.7	17.1	1.98e-04	0	43	0	766509056	13	3649
2026-01-03 00:06:28.42	150.43	55.87	-26.9	-27.4	17.5	0.00e+00	0	43	0	768606208	13	3828
2026-01-03 00:06:29.42	150.97	55.59	-26.5	-26.5	17.9	0.00e+00	0	43	0	770703360	13	3618
2026-01-03 00:06:30.43	151.50	55.31	-26.4	-26.3	18.1	0.00e+00	0	43	0	772800512	13	3574
2026-01-03 00:06:31.43	152.02	55.04	-26.9	-27.6	17.4	0.00e+00	0	43	0	773849088	13	3877
2026-01-03 00:06:32.44	152.54	54.76	-27.4	-28.1	16.9	0.00e+00	0	43	0	775946240	14	3895
2026-01-03 00:06:33.44	153.04	54.48	-27.4	-28.1	16.8	4.97e-04	0	43	0	778043392	14	3905
2026-01-03 00:06:34.44	153.53	54.20	-27.5	-27.9	16.7	0.00e+00	0	43	0	780140544	15	3754
2026-01-03 00:06:35.45	154.02	53.92	-27.6	-28.1	16.5	0.00e+00	0	43	0	782237696	15	3814
2026-01-03 00:06:36.45	154.49	53.65	-27.6	-28.2	16.5	4.02e-04	0	43	0	783286272	15	3828
2026-01-03 00:06:37.46	154.95	53.36	-28.5	-29.6	15.6	0.00e+00	0	43	0	785383424	16	4110
2026-01-03 00:06:38.46	155.41	53.08	-30.0	-31.6	13.1	1.50e-06	0	43	0	787480576	20	4327
2026-01-03 00:06:39.47	155.86	52.80	-29.9	-31.3	13.1	5.26e-05	0	43	0	789577728	20	4223
2026-01-03 00:06:40.47	156.30	52.52	-29.3	-30.1	14.3	1.50e-06	0	43	0	791674880	19	3970
2026-01-03 00:06:41.48	156.73	52.24	-28.9	-29.8	14.9	0.00e+00	0	43	0	792723456	18	3954
2026-01-03 00:06:42.49	157.15	51.96	-29.7	-31.2	13.7	0.00e+00	0	43	0	794820608	19	4272
2026-01-03 00:06:43.49	157.57	51.68	-30.0	-31.7	12.9	2.23e-04	0	43	0	796917760	20	4345
2026-01-03 00:06:44.50	157.98	51.39	-30.0	-31.5	13.1	1.52e-04	0	43	0	799014912	20	4297
2026-01-03 00:06:45.50	158.38	51.11	-29.8	-30.9	13.4	2.13e-05	0	43	0	801112064	20	4110
2026-01-03 00:06:46.51	158.77	50.83	-30.0	-31.7	13.0	2.49e-04	0	43	0	802160640	20	4349
2026-01-03 00:06:47.51	159.15	50.55	-30.3	-32.5	12.3	2.85e-04	0	43	0	804257792	20	4632
2026-01-03 00:06:48.52	159.53	50.27	-30.0	-31.7	12.9	4.04e-05	0	43	0	806354944	20	4367
2026-01-03 00:06:49.52	159.90	50.00	-30.0	-31.7	12.9	3.58e-05	0	43	0	808452096	20	4366
2026-01-03 00:06:50.53	160.27	49.71	-30.7	-33.1	11.7	3.60e-04	0	43	0	810549248	21	4750
2026-01-03 00:06:51.53	160.63	49.44	-31.0	-33.7	10.8	1.44e-03	0	43	0	811597824	22	4912
2026-01-03 00:06:52.54	160.98	49.16	-30.7	-32.6	11.6	1.11e-03	0	43	0	813694976	22	4499
2026-01-03 00:06:53.54	161.33	48.88	-30.7	-32.6	11.7	1.15e-03	0	43	0	815792128	22	4483
2026-01-03 00:06:54.55	161.67	48.60	-30.5	-32.5	12.0	7.74e-04	0	43	0	817889280	21	4548
2026-01-03 00:06:55.55	162.00	48.33	-30.3	-32.1	12.3	1.29e-04	0	43	0	819986432	21	4393
2026-01-03 00:06:56.56	162.33	48.05	-30.9	-33.9	11.1	1.08e-03	0	43	0	821035008	21	5049
2026-01-03 00:06:57.56	162.65	47.78	-30.6	-32.4	11.8	2.01e-03	0	43	0	823132160	22	4428
2026-01-03 00:06:58.57	162.97	47.51	-29.6	-30.6	13.7	1.09e-04	0	43	0	825229312	20	4020
2026-01-03 00:06:59.58	163.28	47.23	-29.5	-30.8	13.9	1.22e-05	0	43	0	827326464	19	4174
2026-01-03 00:07:00.58	163.59	46.96	-29.7	-31.2	13.6	2.60e-04	0	43	0	829423616	19	4270
2026-01-03 00:07:01.59	163.89	46.69	-30.2	-32.1	12.6	1.90e-05	0	43	0	830472192	20	4515
2026-01-03 00:07:02.60	164.19	46.42	-31.0	-33.8	10.7	1.35e-03	0	43	0	832569344	22	4974
2026-01-03 00:07:03.60	164.48	46.15	-31.2	-34.5	10.0	5.75e-03	0	44	0	834666496	22	5268
2026-01-03 00:07:04.60	164.76	45.88	-30.9	-33.4	11.0	3.95e-03	0	43	0	836763648	22	4813
2026-01-03 00:07:05.61	165.04	45.62	-30.4	-32.4	12.1	1.45e-03	0	43	0	838860800	21	4510
2026-01-03 00:07:06.62	165.32	45.35	-30.5	-32.8	11.8	7.24e-04	0	43	0	839909376	21	4640
2026-01-03 00:07:07.63	165.59	45.08	-30.6	-32.9	11.7	9.83e-04	0	43	0	842006528	21	4698
2026-01-03 00:07:08.64	165.86	44.82	-30.7	-33.2	11.5	6.32e-04	0	43	0	844103680	21	4806
2026-01-03 00:07:09.65	166.13	44.55	-31.9	-36.4	8.4	2.62e-03	0	43	0	846200832	23	6064
2026-01-03 00:07:10.66	166.39	44.29	-32.5	-38.6	6.0	1.83e-01	0	43	0	848297984	25	7231
2026-01-03 00:07:11.67	166.64	44.03	-32.7	-40.2	5.0	5.08e-01	0	43	0	849346560	25	8471
2026-01-03 00:07:12.68	166.90	43.77	-32.4	-38.1	6.3	6.60e-01	0	43	0	851443712	25	6923
2026-01-03 00:07:13.68	167.14	43.51	-31.6	-34.8	9.2	5.35e-02	0	43	0	853540864	24	5194
2026-01-03 00:07:14.69	167.39	43.25	-30.7	-32.5	11.6	4.30e-03	0	43	0	855638016	22	4471
2026-01-03 00:07:15.69	167.62	43.00	-30.5	-32.4	12.1	1.35e-03	0	43	0	857735168	21	4514
2026-01-03 00:07:16.70	167.86	42.74	-30.8	-33.6	11.2	5.65e-04	0	43	0	858783744	21	4953
2026-01-03 00:07:17.70	168.09	42.49	-30.9	-33.4	11.0	3.68e-03	0	43	0	860880896	22	4778
2026-01-03 00:07:18.71	168.32	42.24	-31.0	-33.6	10.8	4.38e-03	0	43	0	862978048	22	4854
2026-01-03 00:07:19.72	168.55	41.98	-31.1	-34.1	10.5	3.97e-03	0	43	0	865075200	22	5067
2026-01-03 00:07:20.72	168.77	41.74	-30.0	-31.3	12.7	5.88e-04	0	43	0	867172352	21	4168
2026-01-03 00:07:21.73	168.99	41.49	-28.9	-29.1	14.8	2.23e-04	0	43	0	868220928	19	3706
2026-01-03 00:07:22.73	169.20	41.24	-27.9	-27.8	16.2	5.30e-06	0	43	0	870318080	17	3545
2026-01-03 00:07:23.74	169.41	40.99	-27.8	-27.9	16.4	0.00e+00	0	43	0	872415232	16	3660
2026-01-03 00:07:24.75	169.62	40.75	-28.0	-28.6	15.9	0.00e+00	0	43	0	874512384	16	3877
2026-01-03 00:07:25.75	169.83	40.50	-29.5	-31.2	13.9	8.30e-06	0	43	0	876609536	18	4390
2026-01-03 00:07:26.76	170.03	40.26	-30.3	-32.5	12.3	8.62e-05	0	43	0	877658112	20	4646
2026-01-03 00:07:27.77	170.23	40.02	-31.3	-34.7	10.1	1.83e-03	0	43	0	879755264	22	5309
2026-01-03 00:07:28.78	170.43	39.78	-31.5	-34.9	9.3	2.09e-02	0	43	0	881852416	23	5342
2026-01-03 00:07:29.78	170.62	39.54	-31.2	-33.9	10.3	8.17e-03	0	43	0	883949568	23	4895
2026-01-03 00:07:30.78	170.81	39.30	-30.9	-33.4	10.8	2.79e-03	0	43	0	886046720	22	4806
2026-01-03 00:07:31.79	171.00	39.07	-30.1	-31.6	12.5	6.77e-04	0	43	0	887095296	21	4243
2026-01-03 00:07:32.80	171.19	38.83	-29.6	-30.4	13.6	3.72e-04	0	43	0	889192448	20	3976
2026-01-03 00:07:33.81	171.37	38.60	-29.4	-30.0	13.9	1.50e-06	0	43	0	891289600	20	3868
2026-01-03 00:07:34.81	171.55	38.37	-30.0	-31.9	13.1	1.75e-05	0	43	0	893386752	19	4528
2026-01-03 00:07:35.81	171.73	38.14	-29.7	-30.7	13.5	4.57e-05	0	43	0	895483904	20	4054
2026-01-03 00:07:36.82	171.91	37.91	-30.4	-32.7	12.1	6.48e-05	0	43	0	896532480	20	4726
2026-01-03 00:07:37.83	172.08	37.68	-31.0	-34.1	10.8	1.13e-03	0	43	0	898629632	21	5166
2026-01-03 00:07:38.83	172.25	37.45	-31.3	-34.6	10.1	3.68e-03	0	43	0	900726784	22	5272
2026-01-03 00:07:39.84	172.42	37.22	-31.5	-34.7	9.6	1.39e-02	0	43	0	902823936	23	5254
2026-01-03 00:07:40.85	172.59	37.00	-31.5	-34.7	9.6	1.67e-02	0	43	0	904921088	23	5247
2026-01-03 00:07:41.85	172.75	36.78	-30.8	-32.9	11.3	6.12e-03	0	43	0	905969664	22	4603
2026-01-03 00:07:42.85	172.91	36.56	-30.1	-31.6	12.5	6.61e-04	0	43	0	908066816	21	4240
2026-01-03 00:07:43.86	173.07	36.33	-29.4	-30.4	14.0	3.80e-06	0	43	0	910163968	19	4059
2026-01-03 00:07:44.86	173.23	36.12	-28.9	-29.1	14.8	3.80e-06	0	43	0	912261120	19	3710
2026-01-03 00:07:45.87	173.39	35.90	-28.7	-29.2	15.0	0.00e+00	0	43	0	914358272	18	3822
2026-01-03 00:07:46.87	173.54	35.68	-28.7	-29.2	15.0	7.00e-07	0	43	0	915406848	18	3819
2026-01-03 00:07:47.88	173.69	35.46	-28.6	-28.9	15.2	0.00e+00	0	43	0	917504000	18	3726
2026-01-03 00:07:48.88	173.84	35.25	-28.5	-28.7	15.4	0.00e+00	0	43	0	919601152	18	3688
2026-01-03 00:07:49.88	173.99	35.04	-28.6	-29.5	14.5	0.00e+00	0	43	0	921698304	17	4002
2026-01-03 00:07:50.89	174.13	34.83	-28.8	-30.0	14.3	2.21e-05	0	43	0	923795456	17	4125
2026-01-03 00:07:51.90	174.28	34.61	-29.3	-30.7	14.1	1.83e-05	0	43	0	924844032	18	4225
2026-01-03 00:07:52.90	174.42	34.41	-29.7	-31.3	13.4	5.18e-05	0	43	0	926941184	19	4320
2026-01-03 00:07:53.91	174.56	34.20	-30.1	-31.9	12.6	1.46e-04	0	43	0	929038336	20	4452
2026-01-03 00:07:54.92	174.70	33.99	-30.5	-33.0	11.9	2.04e-04	0	43	0	931135488	20	4848
2026-01-03 00:07:55.93	174.84	33.78	-30.5	-32.6	11.8	9.11e-04	0	43	0	933232640	21	4605
2026-01-03 00:07:56.93	174.97	33.58	-30.8	-33.6	11.0	2.38e-03	0	43	0	934281216	21	4968
2026-01-03 00:07:57.94	175.11	33.37	-31.0	-33.8	10.7	3.08e-03	0	43	0	936378368	22	4967
2026-01-03 00:07:58.94	175.24	33.17	-31.5	-35.4	9.4	1.00e-02	0	43	0	938475520	22	5656
2026-01-03 00:07:59.94	175.37	32.97	-31.0	-33.9	10.5	8.21e-03	0	43	0	940572672	22	5012
2026-01-03 00:08:00.95	175.50	32.77	-31.0	-33.7	10.6	2.44e-03	0	43	0	941621248	22	4904
2026-01-03 00:08:01.96	175.63	32.57	-30.8	-33.7	11.0	2.97e-03	0	43	0	943718400	21	4999
2026-01-03 00:08:02.96	175.75	32.38	-30.2	-31.8	12.3	6.13e-04	0	43	0	945815552	21	4336
2026-01-03 00:08:03.97	175.88	32.18	-30.2	-31.7	12.4	4.79e-04	0	43	0	947912704	21	4281
2026-01-03 00:08:04.98	176.00	31.98	-30.2	-32.2	12.4	5.25e-04	0	43	0	950009856	20	4530
2026-01-03 00:08:05.98	176.12	31.79	-29.8	-31.1	13.1	3.63e-04	0	43	0	952107008	20	4196
2026-01-03 00:08:06.99	176.25	31.59	-30.0	-31.7	12.7	8.77e-05	0	43	0	953155584	20	4388
2026-01-03 00:08:07.99	176.36	31.40	-30.0	-31.7	12.6	4.87e-04	0	43	0	955252736	20	4396
2026-01-03 00:08:09.00	176.48	31.21	-30.3	-32.7	12.1	4.36e-04	0	43	0	957349888	20	4721
2026-01-03 00:08:10.01	176.60	31.02	-30.1	-32.1	12.4	3.49e-04	0	43	0	959447040	20	4524
2026-01-03 00:08:11.01	176.71	30.83	-30.7	-33.2	11.4	8.84e-04	0	43	0	961544192	21	4804
2026-01-03 00:08:12.02	176.83	30.65	-30.5	-32.6	11.7	1.49e-03	0	43	0	962592768	21	4609
2026-01-03 00:08:13.03	176.94	30.46	-30.6	-33.0	11.4	6.77e-04	0	43	0	964689920	21	4748
2026-01-03 00:08:14.03	177.05	30.27	-30.4	-32.5	11.8	1.05e-03	0	43	0	966787072	21	4573
2026-01-03 00:08:15.04	177.16	30.09	-30.4	-32.4	11.8	1.14e-03	0	43	0	968884224	21	4538
2026-01-03 00:08:16.04	177.27	29.91	-30.7	-33.3	11.3	6.19e-04	0	43	0	969932800	21	4863
2026-01-03 00:08:17.05	177.38	29.72	-30.4	-32.4	11.8	8.81e-04	0	43	0	972029952	21	4539
2026-01-03 00:08:18.06	177.49	29.54	-30.2	-32.4	12.2	1.19e-03	0	43	0	974127104	20	4622
2026-01-03 00:08:19.06	177.59	29.36	-30.3	-32.7	12.0	2.49e-04	0	43	0	976224256	20	4724
2026-01-03 00:08:20.07	177.70	29.18	-30.1	-31.9	12.6	1.49e-04	0	43	0	978321408	20	4446
2026-01-03 00:08:21.07	177.80	29.01	-30.0	-31.8	12.6	2.97e-04	0	43	0	980418560	20	4431
2026-01-03 00:08:22.07	177.90	28.83	-29.9	-31.5	12.8	1.14e-04	0	43	0	981467136	20	4306
2026-01-03 00:08:23.07	178.00	28.65	-30.0	-31.7	12.7	6.18e-04	0	43	0	983564288	20	4402
2026-01-03 00:08:24.08	178.10	28.48	-29.9	-32.0	12.9	6.28e-04	0	43	0	985661440	19	4562
2026-01-03 00:08:25.09	178.20	28.30	-29.6	-31.2	13.3	2.89e-05	0	43	0	987758592	19	4312
2026-01-03 00:08:26.09	178.30	28.13	-29.3	-30.8	14.0	2.19e-03	0	43	0	988807168	18	4274
2026-01-03 00:08:27.09	178.39	27.96	-28.8	-30.1	14.6	1.62e-03	0	43	0	990904320	17	4156
2026-01-03 00:08:28.10	178.49	27.79	-28.7	-29.8	14.8	2.20e-06	0	43	0	993001472	17	4068
2026-01-03 00:08:29.11	178.59	27.62	-28.5	-29.2	15.1	2.34e-03	0	43	0	995098624	17	3926
2026-01-03 00:08:30.12	178.68	27.45	-28.6	-29.5	15.0	7.00e-07	0	43	0	997195776	17	3993
2026-01-03 00:08:31.12	178.77	27.28	-28.6	-29.6	14.8	7.00e-07	0	43	0	998244352	17	4026
2026-01-03 00:08:32.13	178.86	27.11	-28.5	-29.2	15.2	2.24e-03	0	43	0	1000341504	17	3912
2026-01-03 00:08:33.13	178.96	26.95	-28.3	-28.8	15.4	0.00e+00	0	43	0	1002438656	17	3817
2026-01-03 00:08:34.14	179.05	26.78	-28.5	-29.3	15.1	4.50e-06	0	43	0	1004535808	17	3943
2026-01-03 00:08:35.15	179.14	26.62	-28.5	-29.4	15.1	2.14e-03	0	43	0	1006632960	17	3968
2026-01-03 00:08:36.15	179.22	26.46	-28.4	-29.0	15.3	2.40e-03	0	43	0	1007681536	17	3862
2026-01-03 00:08:37.15	179.31	26.29	-28.2	-28.5	15.6	7.60e-06	0	43	0	1009778688	17	3738
2026-01-03 00:08:38.15	179.40	26.13	-28.4	-29.7	15.1	1.89e-03	0	43	0	1011875840	16	4155
2026-01-03 00:08:39.17	179.48	25.97	-28.3	-29.4	15.3	2.66e-03	0	43	0	1013972992	16	4078
2026-01-03 00:08:40.17	179.57	25.81	-28.4	-29.1	15.2	3.75e-04	0	43	0	1016070144	17	3902
2026-01-03 00:08:41.17	179.65	25.65	-28.7	-29.8	14.8	1.26e-03	0	43	0	1017118720	17	4100
2026-01-03 00:08:42.17	179.74	25.50	-28.5	-29.3	15.1	2.15e-03	0	43	0	1019215872	17	3956
2026-01-03 00:08:43.19	179.82	25.34	-29.0	-30.6	14.3	1.50e-06	0	43	0	1021313024	17	4312
2026-01-03 00:08:44.19	179.90	25.18	-28.9	-30.4	14.4	1.50e-06	0	43	0	1023410176	17	4252
2026-01-03 00:08:45.19	179.98	25.03	-29.3	-30.9	13.8	1.94e-03	0	43	0	1025507328	18	4311
2026-01-03 00:08:46.20	180.06	24.87	-29.5	-30.9	13.5	6.80e-06	0	43	0	1026555904	19	4211
2026-01-03 00:08:47.21	180.14	24.72	-29.3	-30.3	13.8	6.10e-06	0	43	0	1028653056	19	4054
2026-01-03 00:08:48.21	180.22	24.57	-29.0	-30.1	14.3	6.10e-06	0	43	0	1030750208	18	4091
2026-01-03 00:08:49.22	180.30	24.41	-29.0	-30.0	14.3	9.10e-06	0	43	0	1032847360	18	4054
2026-01-03 00:08:50.22	180.38	24.26	-28.9	-29.9	14.5	0.00e+00	0	43	0	1034944512	18	4014
2026-01-03 00:08:51.22	180.45	24.11	-28.8	-29.7	14.5	0.00e+00	0	43	0	1035993088	18	3953
2026-01-03 00:08:52.23	180.53	23.96	-28.7	-29.3	14.8	8.92e-05	0	43	0	1038090240	18	3850
2026-01-03 00:08:53.24	180.61	23.81	-28.9	-30.4	14.4	7.00e-07	0	43	0	1040187392	17	4265
2026-01-03 00:08:54.25	180.68	23.67	-28.6	-29.6	14.8	0.00e+00	0	43	0	1042284544	17	4030
2026-01-03 00:08:55.25	180.75	23.52	-28.7	-29.9	14.7	7.00e-07	0	43	0	1044381696	17	4129
2026-01-03 00:08:56.26	180.83	23.37	-28.8	-30.1	14.5	0.00e+00	0	43	0	1045430272	17	4187
2026-01-03 00:08:57.27	180.90	23.23	-28.6	-29.6	14.8	0.00e+00	0	43	0	1047527424	17	4049
2026-01-03 00:08:58.27	180.97	23.08	-28.9	-30.4	14.3	0.00e+00	0	43	0	1049624576	17	4276
2026-01-03 00:08:59.27	181.04	22.94	-28.5	-29.4	14.9	0.00e+00	0	43	0	1051721728	17	3985
2026-01-03 00:09:00.27	181.11	22.80	-28.5	-29.4	14.9	7.00e-07	0	43	0	1053818880	17	3984
2026-01-03 00:09:01.28	181.19	22.65	-28.6	-29.6	14.8	0.00e+00	0	43	0	1054867456	17	4038
2026-01-03 00:09:02.28	181.25	22.51	-28.5	-29.3	15.0	1.19e-04	0	43	0	1056964608	17	3968
2026-01-03 00:09:03.29	181.32	22.37	-28.3	-29.0	15.2	0.00e+00	0	43	0	1059061760	17	3873
2026-01-03 00:09:04.29	181.39	22.23	-28.0	-28.1	15.7	2.92e-04	0	43	0	1061158912	17	3634
2026-01-03 00:09:05.30	181.46	22.09	-27.9	-28.4	15.8	0.00e+00	0	43	0	1063256064	16	3811
2026-01-03 00:09:06.30	181.53	21.95	-27.7	-28.5	15.9	0.00e+00	0	43	0	1064304640	15	3932
2026-01-03 00:09:07.31	181.59	21.81	-26.9	-27.9	15.5	0.00e+00	0	43	0	1066401792	15	4000
2026-01-03 00:09:08.32	181.66	21.68	-26.6	-27.6	15.3	0.00e+00	0	43	0	1068498944	16	4004
2026-01-03 00:09:09.32	181.73	21.54	-28.4	-29.5	15.0	0.00e+00	0	43	0	1070596096	16	4120
2026-01-03 00:09:10.33	181.79	21.40	-27.6	-28.5	13.2	0.00e+00	0	43	0	1072693248	17	3987
2026-01-03 00:09:11.33	181.86	21.27	-28.8	-30.2	13.2	0.00e+00	0	43	0	1073741824	17	4219
2026-01-03 00:09:12.34	181.92	21.13	-28.8	-30.1	14.4	0.00e+00	0	43	0	1075838976	17	4195
2026-01-03 00:09:13.35	181.98	21.00	-28.9	-30.5	13.8	7.00e-07	0	43	0	1077936128	17	4319
2026-01-03 00:09:14.36	182.05	20.87	-28.9	-30.4	13.9	2.20e-06	0	43	0	1080033280	17	4275
2026-01-03 00:09:15.35	182.11	20.74	-29.1	-30.5	13.9	5.30e-06	0	43	0	1082130432	18	4221
2026-01-03 00:09:16.36	182.17	20.60	-29.1	-30.4	13.9	2.95e-03	0	43	0	1083179008	18	4179
2026-01-03 00:09:17.36	182.23	20.47	-29.2	-30.6	13.8	1.50e-06	0	43	0	1085276160	18	4257
2026-01-03 00:09:18.37	182.29	20.34	-29.2	-30.8	13.7	3.80e-06	0	43	0	1087373312	18	4295
2026-01-03 00:09:19.38	182.35	20.21	-29.2	-30.6	13.8	9.10e-06	0	43	0	1089470464	18	4237
2026-01-03 00:09:20.38	182.41	20.08	-28.9	-30.3	14.2	2.01e-03	0	43	0	1091567616	17	4262
2026-01-03 00:09:21.39	182.47	19.95	-28.7	-29.9	14.5	0.00e+00	0	43	0	1092616192	17	4128
2026-01-03 00:09:22.40	182.53	19.82	-28.3	-29.4	15.1	0.00e+00	0	43	0	1094713344	16	4088
2026-01-03 00:09:23.41	182.59	19.70	-28.2	-29.2	15.3	2.46e-03	0	43	0	1096810496	16	4020
2026-01-03 00:09:24.41	182.65	19.57	-28.2	-29.2	15.3	0.00e+00	0	43	0	1098907648	16	4015
2026-01-03 00:09:25.41	182.71	19.45	-28.2	-29.2	15.3	0.00e+00	0	43	0	1101004800	16	4028
2026-01-03 00:09:26.41	182.76	19.32	-27.8	-28.9	15.6	2.23e-03	0	43	0	1102053376	15	4047
2026-01-03 00:09:27.42	182.82	19.20	-27.9	-28.9	15.5	0.00e+00	0	43	0	1104150528	15	4066
2026-01-03 00:09:28.43	182.88	19.07	-28.0	-28.7	15.5	2.43e-04	0	43	0	1106247680	16	3907
2026-01-03 00:09:29.44	182.93	18.95	-27.9	-29.0	15.5	0.00e+00	0	43	0	1108344832	15	4082
2026-01-03 00:09:30.44	182.99	18.82	-27.7	-28.6	15.7	1.50e-06	0	43	0	1110441984	15	3977
2026-01-03 00:09:31.44	183.04	18.70	-27.9	-29.0	15.5	1.45e-03	0	43	0	1111490560	15	4080
2026-01-03 00:09:32.44	183.10	18.58	-27.8	-28.8	15.5	0.00e+00	0	43	0	1113587712	15	4039
2026-01-03 00:09:33.44	183.15	18.46	-28.2	-29.2	15.2	0.00e+00	0	43	0	1115684864	16	4036
2026-01-03 00:09:34.45	183.21	18.34	-28.1	-29.0	15.4	1.39e-03	0	43	0	1117782016	16	3963
2026-01-03 00:09:35.44	183.26	18.22	-28.2	-29.1	15.3	0.00e+00	0	43	0	1118830592	16	3992
2026-01-03 00:09:36.44	183.31	18.10	-28.3	-29.4	15.1	0.00e+00	0	43	0	1120927744	16	4077
2026-01-03 00:09:37.45	183.37	17.98	-28.3	-29.5	15.1	1.33e-03	0	43	0	1123024896	16	4111
2026-01-03 00:09:38.45	183.42	17.86	-28.2	-29.1	15.3	1.56e-03	0	43	0	1125122048	16	3992
2026-01-03 00:09:39.46	183.47	17.74	-28.3	-29.4	15.0	0.00e+00	0	43	0	1127219200	16	4098
2026-01-03 00:09:40.46	183.52	17.63	-28.3	-29.4	15.1	1.80e-03	0	43	0	1128267776	16	4079
2026-01-03 00:09:41.47	183.57	17.51	-28.2	-29.2	15.2	1.18e-03	0	43	0	1130364928	16	4043
2026-01-03 00:09:42.48	183.62	17.39	-28.2	-29.3	15.1	4.50e-06	0	43	0	1132462080	16	4057
2026-01-03 00:09:43.49	183.67	17.28	-28.1	-28.9	15.3	1.55e-03	0	43	0	1134559232	16	3961
2026-01-03 00:09:44.49	183.72	17.16	-28.2	-29.2	15.1	1.25e-03	0	43	0	1136656384	16	4038
2026-01-03 00:09:45.49	183.77	17.05	-28.2	-29.2	15.1	2.20e-06	0	43	0	1137704960	16	4039
2026-01-03 00:09:46.50	183.82	16.93	-28.4	-29.3	14.8	0.00e+00	0	44	0	1139802112	17	3963
2026-01-03 00:09:47.50	183.87	16.82	-28.3	-29.5	15.0	1.45e-03	0	43	0	1141899264	16	4117
2026-01-03 00:09:48.51	183.92	16.71	-28.2	-29.2	15.1	3.80e-06	0	43	0	1143996416	16	4045
2026-01-03 00:09:49.52	183.97	16.59	-28.5	-29.8	14.8	9.45e-04	0	43	0	1146093568	16	4215
2026-01-03 00:09:50.52	184.02	16.48	-28.5	-29.3	14.8	1.09e-03	0	43	0	1147142144	17	3975
2026-01-03 00:09:51.53	184.07	16.37	-28.6	-29.8	14.7	4.50e-06	0	43	0	1149239296	17	4113
2026-01-03 00:09:52.53	184.11	16.26	-28.7	-29.9	14.4	5.93e-04	0	43	0	1151336448	17	4152
2026-01-03 00:09:53.54	184.16	16.15	-28.7	-29.9	14.4	3.10e-04	0	43	0	1153433600	17	4128
2026-01-03 00:09:54.55	184.21	16.04	-28.6	-29.7	14.5	3.80e-06	0	43	0	1155530752	17	4073
2026-01-03 00:09:55.55	184.25	15.93	-28.8	-30.1	14.3	4.17e-04	0	43	0	1156579328	17	4208
2026-01-03 00:09:56.56	184.30	15.82	-29.0	-30.6	14.0	4.65e-04	0	43	0	1158676480	17	4350
2026-01-03 00:09:57.56	184.35	15.71	-29.1	-30.4	13.8	6.80e-06	0	43	0	1160773632	18	4186
2026-01-03 00:09:58.57	184.39	15.60	-29.0	-30.2	13.9	3.96e-04	0	43	0	1162870784	18	4139
2026-01-03 00:09:59.57	184.44	15.49	-29.2	-30.8	13.5	1.76e-04	0	43	0	1164967936	18	4329
2026-01-03 00:10:00.58	184.48	15.39	-29.3	-31.1	13.4	1.37e-05	0	43	0	1166016512	18	4406
2026-01-03 00:10:01.58	184.53	15.28	-29.3	-31.0	13.3	3.16e-04	0	43	0	1168113664	18	4388
2026-01-03 00:10:02.58	184.57	15.17	-29.5	-31.0	13.1	3.23e-04	0	43	0	1170210816	19	4286
2026-01-03 00:10:03.59	184.61	15.07	-29.6	-31.4	12.8	6.56e-05	0	43	0	1172307968	19	4419
2026-01-03 00:10:04.60	184.66	14.96	-29.7	-31.5	12.7	8.12e-04	0	43	0	1174405120	19	4460
2026-01-03 00:10:05.60	184.70	14.86	-29.8	-31.9	12.5	1.61e-04	0	43	0	1175453696	19	4578
2026-01-03 00:10:06.60	184.74	14.75	-29.8	-31.9	12.5	1.37e-04	0	43	0	1177550848	19	4585
2026-01-03 00:10:07.60	184.79	14.65	-29.9	-32.3	12.1	5.69e-04	0	43	0	1179648000	19	4739
2026-01-03 00:10:08.61	184.83	14.54	-29.9	-31.8	12.1	4.83e-04	0	43	0	1181745152	20	4501
2026-01-03 00:10:09.62	184.87	14.44	-29.9	-31.8	12.1	2.21e-04	0	43	0	1183842304	20	4497
2026-01-03 00:10:10.62	184.91	14.34	-30.1	-32.3	11.7	1.01e-03	0	43	0	1184890880	20	4671
2026-01-03 00:10:11.62	184.96	14.23	-30.2	-32.7	11.5	1.33e-03	0	43	0	1186988032	20	4801
2026-01-03 00:10:12.63	185.00	14.13	-30.2	-32.8	11.3	9.04e-04	0	43	0	1189085184	20	4856
2026-01-03 00:10:13.64	185.04	14.03	-30.3	-32.9	11.3	1.62e-03	0	43	0	1191182336	20	4903
2026-01-03 00:10:14.63	185.08	13.93	-30.3	-33.1	11.1	2.38e-03	0	43	0	1193279488	20	4945
2026-01-03 00:10:15.64	185.12	13.83	-30.2	-32.8	11.3	1.12e-03	0	43	0	1194328064	20	4837
2026-01-03 00:10:16.64	185.16	13.73	-30.3	-33.1	11.1	1.21e-03	0	43	0	1196425216	20	4952
2026-01-03 00:10:17.65	185.20	13.63	-30.3	-33.2	11.1	2.14e-03	0	43	0	1198522368	20	4991
2026-01-03 00:10:18.66	185.24	13.53	-30.4	-33.5	10.8	2.19e-03	0	43	0	1200619520	20	5109
2026-01-03 00:10:19.66	185.28	13.43	-30.3	-33.2	11.0	2.54e-03	0	43	0	1202716672	20	5012
2026-01-03 00:10:20.67	185.32	13.33	-30.4	-33.3	10.9	2.24e-03	0	43	0	1203765248	20	5056
2026-01-03 00:10:21.68	185.36	13.23	-30.4	-33.6	10.8	2.54e-03	0	43	0	1205862400	20	5150
2026-01-03 00:10:22.68	185.40	13.13	-30.3	-33.1	11.1	2.35e-03	0	43	0	1207959552	20	4957
2026-01-03 00:10:23.69	185.44	13.03	-30.5	-33.6	10.7	2.50e-03	0	43	0	1210056704	20	5179
2026-01-03 00:10:24.69	185.48	12.94	-30.5	-33.3	10.6	4.43e-03	0	43	0	1212153856	21	4945
2026-01-03 00:10:25.70	185.51	12.84	-30.3	-32.6	11.1	2.87e-03	0	43	0	1213202432	21	4674
2026-01-03 00:10:26.70	185.55	12.74	-30.3	-33.2	10.9	1.75e-03	0	43	0	1215299584	20	5027
2026-01-03 00:10:27.71	185.59	12.65	-30.4	-33.3	10.9	2.31e-03	0	43	0	1217396736	20	5059
2026-01-03 00:10:28.72	185.63	12.55	-30.4	-33.3	10.9	2.47e-03	0	43	0	1219493888	20	5045
2026-01-03 00:10:29.72	185.67	12.46	-30.4	-33.5	10.7	2.90e-03	0	43	0	1221591040	20	5136
2026-01-03 00:10:30.73	185.70	12.36	-30.4	-33.3	10.9	2.15e-03	0	43	0	1222639616	20	5060
2026-01-03 00:10:31.74	185.74	12.26	-30.4	-33.5	10.7	2.59e-03	0	43	0	1224736768	20	5147
2026-01-03 00:10:32.75	185.78	12.17	-30.2	-32.8	11.2	2.05e-03	0	43	0	1226833920	20	4859
2026-01-03 00:10:33.76	185.81	12.08	-30.2	-32.7	11.3	9.84e-04	0	43	0	1228931072	20	4832
2026-01-03 00:10:34.76	185.85	11.98	-30.2	-33.0	11.2	1.61e-03	0	43	0	1229979648	20	4915
2026-01-03 00:10:35.76	185.89	11.89	-30.2	-32.7	11.3	1.83e-03	0	43	0	1232076800	20	4819
2026-01-03 00:10:36.77	185.92	11.80	-30.0	-32.1	11.8	6.90e-04	0	43	0	1234173952	20	4602
2026-01-03 00:10:37.77	185.96	11.70	-30.1	-32.5	11.5	1.19e-03	0	43	0	1236271104	20	4733
2026-01-03 00:10:38.77	185.99	11.61	-29.8	-31.7	12.0	1.34e-03	0	43	0	1238368256	20	4462
2026-01-03 00:10:39.77	186.03	11.52	-29.9	-32.0	11.8	3.36e-04	0	43	0	1240465408	20	4551
2026-01-03 00:10:40.77	186.06	11.43	-29.9	-32.0	11.8	1.31e-03	0	43	0	1241513984	20	4549
2026-01-03 00:10:41.78	186.10	11.34	-29.7	-31.2	12.3	6.29e-04	0	43	0	1243611136	20	4283
2026-01-03 00:10:42.78	186.13	11.25	-29.7	-31.7	12.4	1.94e-04	0	43	0	1245708288	19	4549
2026-01-03 00:10:43.78	186.17	11.16	-29.6	-31.6	12.5	5.38e-04	0	43	0	1247805440	19	4500
2026-01-03 00:10:44.78	186.20	11.07	-29.7	-31.7	12.4	3.97e-04	0	43	0	1248854016	19	4545
2026-01-03 00:10:45.79	186.23	10.98	-29.6	-31.5	12.5	1.11e-04	0	44	0	1250951168	19	4487
2026-01-03 00:10:46.80	186.27	10.89	-29.3	-31.1	13.1	2.42e-04	0	43	0	1253048320	18	4442
2026-01-03 00:10:47.81	186.30	10.80	-29.3	-31.3	13.0	3.08e-04	0	43	0	1255145472	18	4485
2026-01-03 00:10:48.82	186.34	10.71	-29.3	-31.2	13.1	3.73e-05	0	43	0	1257242624	18	4456
2026-01-03 00:10:49.82	186.37	10.62	-29.3	-31.2	13.0	3.65e-04	0	43	0	1258291200	18	4485
2026-01-03 00:10:50.83	186.40	10.53	-29.7	-31.6	12.4	7.47e-04	0	43	0	1260388352	19	4528
2026-01-03 00:10:51.84	186.44	10.44	-29.6	-31.3	12.6	1.66e-04	0	43	0	1262485504	19	4426
2026-01-03 00:10:52.84	186.47	10.35	-29.6	-31.5	12.5	4.30e-04	0	43	0	1264582656	19	4487
2026-01-03 00:10:53.85	186.50	10.27	-29.6	-31.5	12.5	5.31e-04	0	43	0	1266679808	19	4478
2026-01-03 00:10:54.86	186.53	10.18	-29.4	-31.4	12.9	3.46e-04	0	43	0	1268776960	18	4533
2026-01-03 00:10:55.87	186.57	10.09	-29.3	-31.2	13.0	4.49e-04	0	43	0	1269825536	18	4468
2026-01-03 00:10:56.88	186.60	10.00	-29.4	-31.5	12.8	4.11e-05	0	43	0	1271922688	18	4568
2026-01-03 00:10:57.89	186.63	9.92	-29.4	-31.3	12.9	4.32e-04	0	43	0	1274019840	18	4521
2026-01-03 00:10:58.89	186.66	9.83	-29.5	-31.3	12.6	4.67e-04	0	43	0	1276116992	19	4429
2026-01-03 00:10:59.89	186.69	9.75	-29.8	-32.1	12.0	5.75e-04	0	43	0	1277165568	19	4683
2026-01-03 00:11:00.90	186.73	9.66	-29.7	-31.8	12.3	8.70e-04	0	43	0	1279262720	19	4589
2026-01-03 00:11:01.91	186.76	9.58	-29.6	-31.4	12.5	1.22e-03	0	43	0	1281359872	19	4446
2026-01-03 00:11:02.91	186.79	9.49	-29.2	-31.0	13.0	4.09e-04	0	43	0	1283457024	18	4432
2026-01-03 00:11:03.92	186.82	9.41	-29.2	-31.1	13.0	9.01e-04	0	43	0	1285554176	18	4436
2026-01-03 00:11:04.92	186.85	9.32	-29.2	-31.1	13.0	1.50e-03	0	43	0	1286602752	18	4434
2026-01-03 00:11:05.93	186.88	9.24	-29.2	-30.9	13.1	3.98e-04	0	43	0	1288699904	18	4381
2026-01-03 00:11:06.94	186.91	9.15	-29.2	-31.0	13.0	1.22e-03	0	43	0	1290797056	18	4426
