passes_logs/2026/01/02/R2M6_AANII_01/R2M6_AANII_01__20260102_021609_AQUA_rec.log

#Pass ID: 20260102_021609_AQUA
#Satellite: AQUA
#Configuration: AQUA
#almurnet v.1.7.20240730
#Start time: 2026-01-02 02:16:09

#Version: 2.2.20231116
#Station: R2M6_AANII_01
#Location: 30.233357 lon 59.946436 lat
#TLE: 1 27424U 02022A   25365.92641127  .00002078  00000+0  42628-3 0  9999
#TLE: 2 27424  98.4058 327.1196 0001962  94.7781 340.6230 14.61783896258835

#Time	Az	El	Level	Level2	SNR	BER	BlckErr	Temp	State	Recorded	gain1	gain2
2026-01-02 02:16:09.59	15.48	6.99	-31.4	-47.2	3.8	7.44e-01	0	41	0	0	23	22097
2026-01-02 02:16:10.59	15.46	7.07	-31.7	-48.2	3.8	7.44e-01	0	41	104	0	24	23831
2026-01-02 02:16:11.59	15.44	7.15	-31.8	-48.2	3.8	7.46e-01	0	41	104	0	24	23820
2026-01-02 02:16:12.60	15.43	7.23	-31.7	-47.7	3.8	7.46e-01	0	41	104	0	24	22695
2026-01-02 02:16:13.60	15.41	7.31	-31.7	-47.7	3.8	7.47e-01	0	41	104	0	24	22760
2026-01-02 02:16:14.61	15.40	7.40	-31.5	-46.8	3.8	7.44e-01	0	41	104	0	24	20897
2026-01-02 02:16:15.61	15.38	7.48	-31.3	-46.3	3.8	7.48e-01	0	41	104	0	23	20274
2026-01-02 02:16:16.61	15.36	7.56	-31.2	-46.1	3.8	7.43e-01	0	41	104	0	23	19831
2026-01-02 02:16:17.62	15.35	7.65	-31.0	-45.3	3.8	7.46e-01	0	41	104	0	23	18632
2026-01-02 02:16:18.62	15.33	7.73	-30.8	-44.9	3.8	7.44e-01	0	41	104	0	22	18430
2026-01-02 02:16:19.63	15.31	7.81	-30.5	-44.2	3.8	7.41e-01	0	41	104	0	22	17415
2026-01-02 02:16:20.63	15.30	7.90	-30.2	-43.9	3.8	7.44e-01	0	41	104	0	21	17258
2026-01-02 02:16:21.62	15.28	7.98	-30.1	-43.3	3.8	7.43e-01	0	41	104	0	21	16537
2026-01-02 02:16:22.63	15.26	8.07	-29.9	-43.3	3.8	7.46e-01	0	41	104	0	20	16881
2026-01-02 02:16:23.63	15.25	8.15	-29.8	-43.1	3.8	7.42e-01	0	41	104	0	20	16635
2026-01-02 02:16:24.64	15.23	8.24	-30.0	-43.6	3.8	7.45e-01	0	41	104	0	20	17213
2026-01-02 02:16:25.64	15.21	8.32	-29.7	-43.2	3.8	7.44e-01	0	41	104	0	21	16928
2026-01-02 02:16:26.65	15.19	8.41	-29.1	-42.9	3.8	7.43e-01	0	41	104	0	21	17624
2026-01-02 02:16:27.66	15.18	8.50	-30.6	-44.9	3.8	7.46e-01	0	41	104	0	21	18715
2026-01-02 02:16:28.66	15.16	8.58	-30.8	-45.2	3.8	7.47e-01	0	41	104	0	22	18820
2026-01-02 02:16:29.67	15.14	8.67	-31.0	-45.9	3.8	7.41e-01	0	41	104	0	22	20014
2026-01-02 02:16:30.68	15.12	8.76	-31.1	-46.0	3.8	7.46e-01	0	41	104	0	22	20122
2026-01-02 02:16:31.68	15.10	8.85	-31.2	-46.0	3.8	7.46e-01	0	41	104	0	23	19811
2026-01-02 02:16:32.68	15.08	8.93	-31.4	-46.5	3.8	7.48e-01	0	41	104	0	23	20623
2026-01-02 02:16:33.68	15.06	9.02	-31.5	-47.0	3.8	7.46e-01	0	41	104	0	23	21445
2026-01-02 02:16:34.68	15.05	9.11	-31.7	-47.3	3.8	7.42e-01	0	42	104	0	24	21704
2026-01-02 02:16:35.69	15.03	9.20	-31.8	-47.7	3.8	7.46e-01	0	41	104	0	24	22583
2026-01-02 02:16:36.69	15.01	9.29	-31.9	-48.4	3.8	7.45e-01	0	42	104	0	24	23905
2026-01-02 02:16:37.70	14.99	9.38	-32.0	-48.8	3.8	7.46e-01	0	41	104	0	24	24779
2026-01-02 02:16:38.70	14.97	9.47	-32.1	-48.7	3.8	7.44e-01	0	41	104	0	25	24434
2026-01-02 02:16:39.70	14.95	9.56	-32.2	-49.2	3.8	7.44e-01	0	42	104	0	25	25491
2026-01-02 02:16:40.71	14.93	9.65	-32.3	-49.7	3.8	7.48e-01	0	42	104	0	25	26716
2026-01-02 02:16:41.71	14.91	9.74	-32.3	-49.9	3.8	7.47e-01	0	42	104	0	25	27163
2026-01-02 02:16:42.71	14.89	9.84	-32.3	-49.8	3.8	7.45e-01	0	42	104	0	25	27021
2026-01-02 02:16:43.72	14.87	9.93	-32.3	-49.9	3.8	7.46e-01	0	42	104	0	25	27067
2026-01-02 02:16:44.73	14.85	10.02	-32.3	-49.8	3.8	7.43e-01	0	42	104	0	25	26985
2026-01-02 02:16:45.73	14.83	10.11	-32.3	-49.8	3.8	7.46e-01	0	42	104	0	25	26966
2026-01-02 02:16:46.73	14.81	10.21	-32.3	-49.8	3.8	7.48e-01	0	42	104	0	25	26824
2026-01-02 02:16:47.74	14.79	10.30	-32.3	-49.5	3.8	7.43e-01	0	42	104	0	25	26029
2026-01-02 02:16:48.74	14.76	10.40	-32.3	-49.3	3.8	7.47e-01	0	42	104	0	25	25508
2026-01-02 02:16:49.75	14.74	10.49	-32.2	-49.0	3.8	7.45e-01	0	42	104	0	25	24823
2026-01-02 02:16:50.75	14.72	10.59	-32.2	-49.0	3.8	7.44e-01	0	42	104	0	25	24734
2026-01-02 02:16:51.75	14.70	10.68	-32.2	-49.0	3.8	7.43e-01	0	42	104	0	25	24785
2026-01-02 02:16:52.75	14.68	10.78	-32.3	-49.2	3.8	7.45e-01	0	42	104	0	25	25321
2026-01-02 02:16:53.75	14.66	10.87	-32.3	-49.3	3.8	7.43e-01	0	42	104	0	25	25388
2026-01-02 02:16:54.75	14.63	10.97	-32.2	-49.0	3.8	7.43e-01	0	42	104	0	25	24708
2026-01-02 02:16:55.74	14.61	11.06	-32.2	-48.8	3.8	7.44e-01	0	42	104	0	25	24276
2026-01-02 02:16:56.75	14.59	11.16	-32.1	-48.3	3.8	7.46e-01	0	42	104	0	25	23144
2026-01-02 02:16:57.75	14.57	11.26	-31.9	-47.9	3.8	7.45e-01	0	42	104	0	24	22616
2026-01-02 02:16:58.75	14.54	11.36	-31.8	-47.5	3.8	7.45e-01	0	42	104	0	24	21866
2026-01-02 02:16:59.75	14.52	11.46	-31.6	-46.7	3.8	7.42e-01	0	42	104	0	24	20425
2026-01-02 02:17:00.76	14.50	11.55	-31.5	-46.4	3.8	7.43e-01	0	42	104	0	23	20217
2026-01-02 02:17:01.77	14.47	11.66	-31.3	-45.9	3.8	7.45e-01	0	42	104	0	23	19321
2026-01-02 02:17:02.77	14.45	11.75	-31.1	-45.1	3.8	7.48e-01	0	42	104	0	23	18080
2026-01-02 02:17:03.76	14.43	11.85	-30.8	-44.6	3.8	7.46e-01	0	42	104	0	22	17656
2026-01-02 02:17:04.76	14.40	11.95	-30.8	-44.6	3.8	7.43e-01	0	42	104	0	22	17616
2026-01-02 02:17:05.77	14.38	12.06	-30.5	-44.3	3.8	7.43e-01	0	42	104	0	21	17590
2026-01-02 02:17:06.77	14.35	12.16	-30.3	-43.8	3.8	7.43e-01	0	42	104	0	21	16988
2026-01-02 02:17:07.77	14.33	12.26	-30.0	-43.0	3.8	7.45e-01	0	42	104	0	21	15927
2026-01-02 02:17:08.77	14.30	12.36	-29.9	-43.0	3.8	7.44e-01	0	42	104	0	20	16333
2026-01-02 02:17:09.78	14.28	12.47	-29.7	-42.4	3.8	7.46e-01	0	42	104	0	20	15651
2026-01-02 02:17:10.78	14.25	12.57	-29.5	-42.0	3.8	7.42e-01	0	42	104	0	20	15144
2026-01-02 02:17:11.79	14.23	12.67	-29.4	-42.2	3.8	7.46e-01	0	42	104	0	19	15708
2026-01-02 02:17:12.79	14.20	12.78	-29.5	-42.4	3.8	7.44e-01	0	42	104	0	19	15896
2026-01-02 02:17:13.80	14.17	12.88	-29.7	-42.4	3.8	7.45e-01	0	42	104	0	20	15687
2026-01-02 02:17:14.79	14.15	12.99	-29.9	-43.0	3.8	7.43e-01	0	42	104	0	20	16331
2026-01-02 02:17:15.79	14.12	13.09	-30.1	-43.2	3.8	7.43e-01	0	42	104	0	21	16287
2026-01-02 02:17:16.79	14.09	13.20	-30.5	-44.3	3.8	7.47e-01	0	42	104	0	21	17703
2026-01-02 02:17:17.80	14.07	13.31	-30.9	-45.1	3.8	7.46e-01	0	42	104	0	22	18383
2026-01-02 02:17:18.81	14.04	13.42	-31.0	-45.4	3.8	7.44e-01	0	42	104	0	22	18902
2026-01-02 02:17:19.81	14.01	13.53	-31.2	-45.5	3.8	7.43e-01	0	42	104	0	23	18727
2026-01-02 02:17:20.81	13.98	13.63	-31.3	-45.7	3.8	7.44e-01	0	42	104	0	23	19008
2026-01-02 02:17:21.81	13.96	13.74	-31.4	-46.3	3.8	7.45e-01	0	42	104	0	23	19828
2026-01-02 02:17:22.81	13.93	13.85	-31.6	-46.8	3.8	7.42e-01	0	42	104	0	23	20663
2026-01-02 02:17:23.82	13.90	13.96	-31.7	-46.7	3.8	7.47e-01	0	42	104	0	24	20302
2026-01-02 02:17:24.82	13.87	14.07	-31.9	-47.5	3.8	7.43e-01	0	42	104	0	24	21634
2026-01-02 02:17:25.83	13.84	14.19	-32.1	-48.2	3.8	7.45e-01	0	42	104	0	24	23084
2026-01-02 02:17:26.83	13.81	14.30	-32.2	-48.3	3.8	7.45e-01	0	42	104	0	25	22914
2026-01-02 02:17:27.84	13.78	14.41	-32.3	-48.9	3.8	7.42e-01	0	43	104	0	25	24285
2026-01-02 02:17:28.85	13.75	14.53	-32.5	-49.5	3.8	7.45e-01	0	42	104	0	25	25662
2026-01-02 02:17:29.85	13.72	14.64	-32.4	-49.2	3.8	7.44e-01	0	43	104	0	25	25001
2026-01-02 02:17:30.85	13.69	14.75	-32.3	-48.5	3.8	7.47e-01	0	42	104	0	25	23395
2026-01-02 02:17:31.85	13.66	14.87	-32.3	-48.6	3.8	7.42e-01	0	43	104	0	25	23574
2026-01-02 02:17:32.87	13.63	14.99	-32.3	-48.6	3.8	7.47e-01	0	42	104	0	25	23453
2026-01-02 02:17:33.87	13.60	15.10	-32.3	-48.6	3.8	7.47e-01	0	42	104	0	25	23582
2026-01-02 02:17:34.87	13.56	15.22	-32.3	-48.8	3.8	7.44e-01	0	42	104	0	25	23849
2026-01-02 02:17:35.87	13.53	15.33	-32.3	-48.8	3.8	7.42e-01	0	43	104	0	25	23909
2026-01-02 02:17:36.88	13.50	15.45	-32.3	-48.8	3.8	7.42e-01	0	43	104	0	25	23910
2026-01-02 02:17:37.88	13.47	15.57	-32.4	-48.9	3.8	7.47e-01	0	43	104	0	25	24258
2026-01-02 02:17:38.89	13.43	15.69	-32.4	-48.8	3.8	7.43e-01	0	42	104	0	25	23845
2026-01-02 02:17:39.89	13.40	15.81	-32.3	-48.5	3.8	7.43e-01	0	43	104	0	25	23306
2026-01-02 02:17:40.90	13.37	15.93	-32.3	-48.4	3.8	7.45e-01	0	43	104	0	25	22964
2026-01-02 02:17:41.89	13.33	16.05	-32.2	-48.3	3.8	7.46e-01	0	43	104	0	25	22781
2026-01-02 02:17:42.90	13.30	16.18	-32.2	-48.3	3.8	7.45e-01	0	43	104	0	25	22772
2026-01-02 02:17:43.91	13.26	16.30	-32.3	-48.3	3.8	7.47e-01	0	43	104	0	25	22781
2026-01-02 02:17:44.91	13.23	16.42	-32.2	-47.8	3.8	7.45e-01	0	43	104	0	25	21752
2026-01-02 02:17:45.91	13.19	16.55	-32.0	-47.1	3.8	7.44e-01	0	43	104	0	25	20564
2026-01-02 02:17:46.91	13.16	16.67	-31.8	-47.0	3.8	7.46e-01	0	43	104	0	24	20726
2026-01-02 02:17:47.92	13.12	16.80	-31.6	-46.2	3.8	7.43e-01	0	42	104	0	24	19267
2026-01-02 02:17:48.93	13.09	16.92	-31.4	-45.6	3.8	7.44e-01	0	42	104	0	24	18328
2026-01-02 02:17:49.93	13.05	17.05	-31.2	-45.1	3.8	7.44e-01	0	43	104	0	23	17984
2026-01-02 02:17:50.93	13.01	17.18	-30.9	-44.4	3.8	7.42e-01	0	43	104	0	23	16945
2026-01-02 02:17:51.94	12.97	17.30	-30.6	-43.9	3.8	7.45e-01	0	43	104	0	22	16642
2026-01-02 02:17:52.94	12.94	17.43	-30.4	-43.8	3.8	7.43e-01	0	43	104	0	21	16766
2026-01-02 02:17:53.95	12.90	17.56	-30.7	-44.2	3.8	7.46e-01	0	43	104	0	22	17026
2026-01-02 02:17:54.94	12.86	17.69	-30.7	-44.1	3.8	7.44e-01	0	43	104	0	22	16826
2026-01-02 02:17:55.95	12.82	17.82	-30.7	-44.0	3.8	7.44e-01	0	43	104	0	22	16727
2026-01-02 02:17:56.95	12.78	17.96	-30.8	-44.5	3.8	7.44e-01	0	42	104	0	22	17407
2026-01-02 02:17:57.95	12.74	18.09	-30.5	-43.6	3.8	7.42e-01	0	43	104	0	22	16245
2026-01-02 02:17:58.95	12.70	18.22	-30.3	-43.6	3.8	7.47e-01	0	43	104	0	21	16545
2026-01-02 02:17:59.95	12.66	18.35	-30.0	-42.7	3.8	7.43e-01	0	43	104	0	21	15520
2026-01-02 02:18:00.96	12.62	18.49	-29.8	-42.7	3.8	7.45e-01	0	43	104	0	20	15869
2026-01-02 02:18:01.97	12.58	18.63	-29.6	-42.1	3.8	7.48e-01	0	43	104	0	20	15151
2026-01-02 02:18:02.97	12.54	18.76	-29.4	-41.6	3.8	7.46e-01	0	43	104	0	20	14704
2026-01-02 02:18:03.98	12.49	18.90	-29.7	-42.4	3.8	7.45e-01	0	43	104	0	20	15476
2026-01-02 02:18:04.97	12.45	19.04	-30.0	-43.3	3.8	7.46e-01	0	43	104	0	20	16538
2026-01-02 02:18:05.98	12.41	19.18	-30.4	-43.9	3.8	7.47e-01	0	43	104	0	21	16962
2026-01-02 02:18:06.98	12.37	19.32	-30.9	-44.7	3.8	7.45e-01	0	43	104	0	22	17679
2026-01-02 02:18:07.99	12.32	19.46	-31.3	-45.6	3.8	7.44e-01	0	43	104	0	23	18642
2026-01-02 02:18:08.99	12.28	19.60	-31.7	-46.5	3.8	7.46e-01	0	43	104	0	24	19745
2026-01-02 02:18:10.00	12.23	19.74	-31.8	-46.7	3.8	7.42e-01	0	43	104	0	24	19939
2026-01-02 02:18:11.00	12.19	19.89	-31.9	-47.0	3.8	7.46e-01	0	43	104	0	24	20502
2026-01-02 02:18:12.00	12.14	20.03	-32.0	-47.4	3.8	7.45e-01	0	43	104	0	24	21235
2026-01-02 02:18:13.01	12.09	20.18	-32.1	-47.3	3.8	7.43e-01	0	43	104	0	25	20653
2026-01-02 02:18:14.01	12.05	20.32	-32.2	-47.6	3.8	7.44e-01	0	43	104	0	25	21127
2026-01-02 02:18:15.01	12.00	20.47	-32.2	-40.0	4.9	7.11e-01	0	43	104	0	25	8819
2026-01-02 02:18:16.02	11.95	20.62	-32.4	-40.3	11.3	6.13e-01	0	43	0	0	25	8928
2026-01-02 02:18:17.01	11.90	20.77	-32.6	-41.4	10.3	6.18e-01	0	43	0	1572864	25	9940
2026-01-02 02:18:18.01	11.85	20.92	-32.4	-40.4	11.2	6.11e-01	0	43	0	3670016	25	9038
2026-01-02 02:18:19.01	11.80	21.07	-32.2	-39.1	12.3	6.07e-01	0	43	0	5242880	25	8007
2026-01-02 02:18:20.02	11.75	21.22	-31.9	-37.8	13.3	6.06e-01	0	43	0	7340032	25	7117
2026-01-02 02:18:21.02	11.70	21.37	-31.7	-37.3	14.2	6.03e-01	0	43	0	9437184	24	6881
2026-01-02 02:18:22.02	11.65	21.52	-31.4	-36.1	15.1	6.05e-01	0	43	0	11010048	24	6241
2026-01-02 02:18:23.02	11.60	21.68	-31.1	-35.8	15.7	6.02e-01	0	43	0	13107200	23	6179
2026-01-02 02:18:24.03	11.55	21.83	-31.0	-35.4	15.9	6.04e-01	0	43	0	14680064	23	5972
2026-01-02 02:18:25.03	11.49	21.99	-31.2	-36.1	15.5	6.02e-01	0	43	0	16777216	23	6329
2026-01-02 02:18:26.03	11.44	22.15	-31.0	-35.2	16.1	6.05e-01	0	43	0	18350080	23	5877
2026-01-02 02:18:27.03	11.39	22.31	-30.7	-34.8	16.7	6.03e-01	0	43	0	20447232	22	5808
2026-01-02 02:18:28.04	11.33	22.47	-30.5	-34.7	16.0	6.08e-01	0	43	0	22544384	21	5837
2026-01-02 02:18:29.04	11.28	22.63	-30.3	-34.1	16.7	6.04e-01	0	43	0	24117248	21	5612
2026-01-02 02:18:30.04	11.22	22.79	-30.2	-33.7	17.8	6.01e-01	0	43	0	26214400	21	5439
2026-01-02 02:18:31.04	11.16	22.95	-29.7	-33.5	18.0	6.05e-01	0	43	0	27787264	20	5537
2026-01-02 02:18:32.04	11.11	23.12	-30.0	-33.8	17.1	6.04e-01	0	43	0	29884416	20	5577
2026-01-02 02:18:33.04	11.05	23.28	-30.1	-34.0	18.0	6.03e-01	0	43	0	31981568	20	5654
2026-01-02 02:18:34.05	10.99	23.45	-29.7	-32.9	18.6	6.03e-01	0	43	0	33554432	20	5234
2026-01-02 02:18:35.05	10.93	23.62	-29.4	-32.6	19.1	6.02e-01	0	43	0	35651584	19	5208
2026-01-02 02:18:36.04	10.87	23.78	-29.2	-32.0	19.6	6.03e-01	0	43	0	37224448	19	4981
2026-01-02 02:18:37.05	10.81	23.95	-28.9	-31.9	19.8	6.04e-01	0	43	0	39321600	18	5058
2026-01-02 02:18:38.04	10.75	24.12	-28.9	-31.9	20.0	6.02e-01	0	43	0	41418752	18	5060
2026-01-02 02:18:39.04	10.68	24.29	-29.0	-32.2	19.8	6.02e-01	0	43	0	42991616	18	5170
2026-01-02 02:18:40.05	10.62	24.47	-29.1	-31.9	19.7	6.02e-01	0	43	0	45088768	19	4951
2026-01-02 02:18:41.05	10.56	24.64	-29.1	-31.9	19.7	6.03e-01	0	43	0	46661632	19	4937
2026-01-02 02:18:42.06	10.49	24.82	-29.1	-31.8	19.7	6.04e-01	0	43	0	48758784	19	4902
2026-01-02 02:18:43.06	10.43	25.00	-29.2	-32.1	19.6	6.02e-01	0	43	0	50331648	19	5037
2026-01-02 02:18:44.06	10.36	25.18	-29.2	-32.1	19.6	6.02e-01	0	43	0	52428800	19	5024
2026-01-02 02:18:45.06	10.29	25.35	-29.3	-32.3	19.5	6.03e-01	0	43	0	54525952	19	5080
2026-01-02 02:18:46.06	10.22	25.53	-29.4	-32.7	19.2	6.03e-01	0	43	0	56098816	19	5223
2026-01-02 02:18:47.06	10.15	25.72	-29.3	-32.3	19.5	6.02e-01	0	43	0	58195968	19	5079
2026-01-02 02:18:48.07	10.08	25.90	-29.3	-32.3	19.5	6.02e-01	0	43	0	59768832	19	5097
2026-01-02 02:18:49.08	10.01	26.09	-29.3	-32.3	19.4	6.01e-01	0	43	0	61865984	19	5075
2026-01-02 02:18:50.08	9.94	26.27	-29.2	-32.1	19.6	6.04e-01	0	43	0	63438848	19	5002
2026-01-02 02:18:51.07	9.87	26.46	-29.2	-31.9	19.7	6.03e-01	0	43	0	65536000	19	4956
2026-01-02 02:18:52.07	9.80	26.65	-29.2	-32.1	19.5	6.03e-01	0	43	0	67633152	19	5012
2026-01-02 02:18:53.07	9.72	26.84	-29.1	-32.2	19.8	6.04e-01	0	43	0	69206016	18	5166
2026-01-02 02:18:54.07	9.65	27.03	-29.1	-32.2	19.8	6.02e-01	0	43	0	71303168	18	5168
2026-01-02 02:18:55.07	9.57	27.22	-28.9	-31.8	20.1	6.00e-01	0	43	0	72876032	18	5011
2026-01-02 02:18:56.07	9.49	27.41	-28.9	-31.7	20.2	6.02e-01	0	43	0	74973184	18	4981
2026-01-02 02:18:57.07	9.41	27.61	-28.9	-31.8	20.1	6.00e-01	0	43	0	76546048	18	5031
2026-01-02 02:18:58.07	9.33	27.81	-28.9	-31.8	20.1	6.03e-01	0	43	0	78643200	18	5021
2026-01-02 02:18:59.06	9.25	28.00	-28.9	-31.7	20.2	6.04e-01	0	43	0	80740352	18	4984
2026-01-02 02:19:00.07	9.17	28.21	-28.8	-31.4	20.3	6.01e-01	0	43	0	82313216	18	4900
2026-01-02 02:19:01.07	9.09	28.41	-28.8	-31.6	20.3	6.04e-01	0	43	0	84410368	18	4948
2026-01-02 02:19:02.08	9.00	28.61	-28.9	-31.9	20.1	6.01e-01	0	43	0	85983232	18	5051
2026-01-02 02:19:03.08	8.92	28.82	-28.8	-31.5	20.3	6.03e-01	0	43	0	88080384	18	4920
2026-01-02 02:19:04.08	8.83	29.02	-28.7	-31.4	20.4	6.03e-01	0	43	0	90177536	18	4874
2026-01-02 02:19:05.08	8.75	29.23	-28.8	-31.5	20.3	6.02e-01	0	43	0	91750400	18	4917
2026-01-02 02:19:06.09	8.66	29.44	-28.7	-31.2	20.5	6.01e-01	0	43	0	93847552	18	4831
2026-01-02 02:19:07.09	8.57	29.65	-28.8	-31.4	20.4	6.03e-01	0	43	0	95420416	18	4892
2026-01-02 02:19:08.09	8.47	29.86	-28.8	-31.4	20.4	6.02e-01	0	43	0	97517568	18	4893
2026-01-02 02:19:09.09	8.38	30.08	-28.7	-31.4	20.4	6.04e-01	0	43	0	99614720	18	4879
2026-01-02 02:19:10.09	8.29	30.29	-28.6	-30.9	20.6	6.03e-01	0	43	0	101187584	18	4721
2026-01-02 02:19:11.09	8.19	30.51	-28.6	-31.4	20.7	6.02e-01	0	43	0	103284736	17	5006
2026-01-02 02:19:12.09	8.10	30.73	-28.8	-31.4	20.4	6.03e-01	0	43	0	104857600	18	4892
2026-01-02 02:19:13.09	8.00	30.95	-29.0	-31.9	20.1	6.04e-01	0	43	0	106954752	18	5057
2026-01-02 02:19:14.10	7.90	31.17	-28.8	-31.5	20.3	6.04e-01	0	43	0	108527616	18	4911
2026-01-02 02:19:15.09	7.80	31.40	-28.9	-31.7	20.3	6.03e-01	0	43	0	110624768	18	4985
2026-01-02 02:19:16.10	7.69	31.62	-29.1	-31.7	19.9	6.01e-01	0	43	0	112721920	19	4872
2026-01-02 02:19:17.11	7.59	31.85	-29.0	-32.1	20.1	6.03e-01	0	43	0	114294784	18	5130
2026-01-02 02:19:18.11	7.48	32.08	-29.2	-32.0	19.8	6.04e-01	0	43	0	116391936	19	4959
2026-01-02 02:19:19.12	7.38	32.32	-29.2	-32.1	19.7	6.03e-01	0	43	0	117964800	19	5011
2026-01-02 02:19:20.12	7.27	32.55	-29.0	-31.4	20.2	6.02e-01	0	43	0	120061952	19	4754
2026-01-02 02:19:21.12	7.16	32.79	-29.0	-31.4	20.1	6.03e-01	0	43	0	121634816	19	4759
2026-01-02 02:19:22.12	7.04	33.02	-29.0	-32.1	20.1	6.04e-01	0	43	0	123731968	18	5111
2026-01-02 02:19:23.13	6.93	33.26	-29.1	-32.1	20.0	6.02e-01	0	43	0	125829120	18	5125
2026-01-02 02:19:24.13	6.81	33.50	-29.0	-31.9	20.2	6.04e-01	0	43	0	127401984	18	5045
2026-01-02 02:19:25.14	6.69	33.75	-28.9	-31.8	20.3	6.04e-01	0	43	0	129499136	18	5012
2026-01-02 02:19:26.14	6.57	33.99	-29.0	-31.9	20.2	6.03e-01	0	43	0	131072000	18	5036
2026-01-02 02:19:27.13	6.45	34.24	-29.0	-32.0	20.1	6.04e-01	0	43	0	133169152	18	5081
2026-01-02 02:19:28.14	6.33	34.49	-29.1	-31.6	20.0	6.03e-01	0	43	0	135266304	19	4839
2026-01-02 02:19:29.13	6.21	34.73	-29.2	-31.9	19.9	6.03e-01	0	43	0	136839168	19	4933
2026-01-02 02:19:30.13	6.08	34.99	-29.4	-32.4	19.6	6.04e-01	0	43	0	138936320	19	5091
2026-01-02 02:19:31.14	5.95	35.24	-29.3	-32.1	19.8	6.04e-01	0	43	0	140509184	19	5002
2026-01-02 02:19:32.14	5.81	35.50	-29.2	-32.0	19.8	6.02e-01	0	43	0	142606336	19	4974
2026-01-02 02:19:33.14	5.68	35.76	-29.3	-32.3	19.7	6.03e-01	0	43	0	144703488	19	5075
2026-01-02 02:19:34.14	5.54	36.02	-29.5	-32.7	19.5	6.02e-01	0	43	0	146276352	19	5207
2026-01-02 02:19:35.15	5.40	36.28	-29.7	-32.8	19.0	6.05e-01	0	43	0	148373504	20	5159
2026-01-02 02:19:36.16	5.26	36.55	-29.8	-33.2	18.8	6.02e-01	0	43	0	149946368	20	5290
2026-01-02 02:19:37.16	5.12	36.82	-29.8	-33.1	18.9	6.03e-01	0	43	0	152043520	20	5243
2026-01-02 02:19:38.16	4.97	37.09	-29.6	-32.6	19.1	6.02e-01	0	43	0	153616384	20	5066
2026-01-02 02:19:39.15	4.83	37.35	-29.7	-32.7	19.0	6.04e-01	0	43	0	155713536	20	5119
2026-01-02 02:19:40.16	4.67	37.63	-30.0	-33.5	18.6	6.04e-01	0	43	0	157810688	20	5413
2026-01-02 02:19:41.16	4.52	37.90	-30.0	-33.5	18.6	6.02e-01	0	43	0	159383552	20	5412
2026-01-02 02:19:42.16	4.36	38.18	-30.1	-33.5	18.3	6.03e-01	0	43	0	161480704	21	5296
2026-01-02 02:19:43.16	4.20	38.46	-30.4	-34.2	17.8	6.01e-01	0	43	0	163053568	21	5587
2026-01-02 02:19:44.16	4.04	38.74	-30.4	-34.1	17.9	6.03e-01	0	43	0	165150720	21	5538
2026-01-02 02:19:45.16	3.88	39.03	-30.2	-33.6	18.2	6.03e-01	0	43	0	167247872	21	5341
2026-01-02 02:19:46.17	3.71	39.32	-30.1	-33.5	18.4	6.05e-01	0	43	0	168820736	21	5276
2026-01-02 02:19:47.17	3.54	39.60	-30.4	-34.1	18.0	6.02e-01	0	43	0	170917888	21	5520
2026-01-02 02:19:48.17	3.36	39.89	-30.9	-35.2	16.9	6.02e-01	0	43	0	172490752	22	5885
2026-01-02 02:19:49.17	3.18	40.19	-31.0	-35.6	16.7	6.05e-01	0	43	0	174587904	22	6071
2026-01-02 02:19:50.17	3.00	40.48	-30.7	-34.6	17.3	6.02e-01	0	43	0	176160768	22	5632
2026-01-02 02:19:51.18	2.81	40.78	-30.5	-34.0	17.6	6.03e-01	0	43	0	178257920	22	5386
2026-01-02 02:19:52.18	2.63	41.08	-30.7	-34.5	17.4	6.02e-01	0	43	0	180355072	22	5587
2026-01-02 02:19:53.19	2.43	41.39	-30.7	-34.7	17.3	6.02e-01	0	43	0	181927936	22	5663
2026-01-02 02:19:54.19	2.24	41.69	-30.6	-34.3	17.5	6.04e-01	0	43	0	184025088	22	5498
2026-01-02 02:19:55.19	2.04	42.00	-30.7	-34.7	17.3	6.04e-01	0	43	0	185597952	22	5655
2026-01-02 02:19:56.19	1.83	42.31	-31.1	-35.2	16.6	6.03e-01	0	43	0	187695104	23	5784
2026-01-02 02:19:57.19	1.63	42.62	-30.8	-34.3	17.2	6.04e-01	0	43	0	189792256	23	5388
2026-01-02 02:19:58.19	1.41	42.93	-30.3	-33.3	18.1	6.02e-01	0	43	0	191365120	22	5109
2026-01-02 02:19:59.19	1.20	43.25	-29.8	-32.9	19.0	6.03e-01	0	43	0	193462272	20	5168
2026-01-02 02:20:00.19	0.98	43.57	-29.7	-32.7	19.1	6.03e-01	0	43	0	195035136	20	5092
2026-01-02 02:20:01.19	0.75	43.89	-29.7	-32.8	19.1	6.05e-01	0	43	0	197132288	20	5119
2026-01-02 02:20:02.19	0.52	44.21	-29.8	-33.0	19.0	6.03e-01	0	43	0	198705152	20	5196
2026-01-02 02:20:03.20	0.28	44.54	-29.6	-32.6	19.3	6.04e-01	0	43	0	200802304	20	5055
2026-01-02 02:20:04.20	0.04	44.87	-29.5	-32.2	19.5	6.04e-01	0	43	0	202899456	20	4927
2026-01-02 02:20:05.20	359.80	45.19	-29.4	-32.5	19.7	6.03e-01	0	43	0	204472320	19	5125
2026-01-02 02:20:06.21	359.55	45.53	-29.6	-32.9	19.4	6.04e-01	0	43	0	206569472	19	5283
2026-01-02 02:20:07.21	359.29	45.86	-29.8	-33.0	19.0	6.02e-01	0	43	0	208142336	20	5200
2026-01-02 02:20:08.21	359.03	46.20	-29.6	-32.5	19.3	6.02e-01	0	43	0	210239488	20	5014
2026-01-02 02:20:09.22	358.76	46.54	-29.8	-32.9	19.0	6.03e-01	0	43	0	212336640	20	5180
2026-01-02 02:20:10.23	358.48	46.89	-29.7	-32.8	19.2	6.03e-01	0	43	0	213909504	20	5129
2026-01-02 02:20:11.23	358.20	47.23	-29.6	-32.5	19.3	6.04e-01	0	43	0	216006656	20	5028
2026-01-02 02:20:12.23	357.91	47.58	-29.8	-33.0	19.1	6.04e-01	0	43	0	217579520	20	5197
2026-01-02 02:20:13.23	357.62	47.92	-30.0	-33.6	18.7	6.02e-01	0	43	0	219676672	20	5438
2026-01-02 02:20:14.24	357.32	48.28	-29.9	-33.3	18.8	6.02e-01	0	43	0	221773824	20	5302
2026-01-02 02:20:15.24	357.01	48.63	-29.5	-32.3	19.4	6.04e-01	0	43	0	223346688	20	4933
2026-01-02 02:20:16.24	356.70	48.98	-29.7	-32.8	19.2	6.04e-01	0	43	0	225443840	20	5121
2026-01-02 02:20:17.24	356.38	49.34	-30.0	-33.5	18.7	6.04e-01	0	43	0	227016704	20	5405
2026-01-02 02:20:18.24	356.05	49.70	-30.1	-33.3	18.5	6.00e-01	0	43	0	229113856	21	5218
2026-01-02 02:20:19.24	355.71	50.06	-29.9	-32.7	18.9	6.03e-01	0	43	0	230686720	21	4994
2026-01-02 02:20:20.24	355.36	50.42	-30.0	-33.5	18.8	6.04e-01	0	43	0	232783872	20	5381
2026-01-02 02:20:21.25	355.00	50.79	-29.9	-33.3	18.8	6.02e-01	0	43	0	234881024	20	5321
2026-01-02 02:20:22.25	354.64	51.15	-30.0	-33.4	18.7	6.05e-01	0	43	0	236453888	20	5372
2026-01-02 02:20:23.25	354.27	51.52	-29.9	-33.2	18.9	6.02e-01	0	43	0	238551040	20	5282
2026-01-02 02:20:24.25	353.89	51.89	-29.7	-32.8	19.2	6.03e-01	0	43	0	240123904	20	5112
2026-01-02 02:20:25.25	353.50	52.26	-30.1	-33.7	18.6	6.02e-01	0	43	0	242221056	20	5467
2026-01-02 02:20:26.26	353.09	52.63	-29.8	-33.0	19.0	6.04e-01	0	43	0	243793920	20	5205
2026-01-02 02:20:27.26	352.68	53.01	-29.5	-32.2	19.5	6.04e-01	0	43	0	245891072	20	4917
2026-01-02 02:20:28.27	352.25	53.39	-29.5	-32.6	19.6	6.02e-01	0	43	0	247988224	19	5176
2026-01-02 02:20:29.27	351.81	53.76	-29.4	-32.5	19.7	6.03e-01	0	43	0	249561088	19	5123
2026-01-02 02:20:30.28	351.36	54.14	-29.2	-31.9	20.1	6.03e-01	0	43	0	251658240	19	4896
2026-01-02 02:20:31.28	350.90	54.52	-29.2	-31.9	20.1	6.04e-01	0	43	0	253231104	19	4895
2026-01-02 02:20:32.29	350.43	54.91	-28.8	-30.8	20.7	6.04e-01	0	43	0	255328256	19	4549
2026-01-02 02:20:33.29	349.94	55.29	-29.0	-31.3	20.4	6.04e-01	0	43	0	257425408	19	4723
2026-01-02 02:20:34.30	349.44	55.67	-29.3	-32.0	20.0	6.05e-01	0	43	0	258998272	19	4948
2026-01-02 02:20:35.30	348.93	56.05	-29.3	-32.0	20.0	6.02e-01	0	43	0	261095424	19	4957
2026-01-02 02:20:36.30	348.40	56.43	-29.3	-32.1	20.0	6.05e-01	0	43	0	262668288	19	4979
2026-01-02 02:20:37.30	347.86	56.82	-29.7	-32.6	19.3	6.01e-01	0	43	0	264765440	20	5061
2026-01-02 02:20:38.30	347.30	57.20	-29.5	-32.1	19.6	6.01e-01	0	43	0	266862592	20	4868
2026-01-02 02:20:39.31	346.73	57.59	-28.2	-31.1	19.8	6.03e-01	0	43	0	268435456	19	5022
2026-01-02 02:20:40.32	346.13	57.97	-29.5	-32.7	18.8	6.03e-01	0	43	0	270532608	19	5169
2026-01-02 02:20:41.32	345.52	58.36	-29.6	-32.9	19.6	6.03e-01	0	43	0	272105472	19	5252
2026-01-02 02:20:42.33	344.89	58.74	-29.8	-32.9	17.3	6.09e-01	0	43	0	274202624	20	5156
2026-01-02 02:20:43.33	344.25	59.12	-29.8	-32.8	17.8	6.06e-01	0	43	0	275775488	20	5137
2026-01-02 02:20:44.33	343.59	59.50	-29.7	-32.6	19.3	6.02e-01	0	43	0	277872640	20	5036
2026-01-02 02:20:45.34	342.90	59.89	-29.9	-33.3	18.9	6.04e-01	0	43	0	279969792	20	5303
2026-01-02 02:20:46.33	342.20	60.26	-29.9	-33.3	17.2	6.02e-01	0	43	0	281542656	20	5322
2026-01-02 02:20:47.33	341.48	60.63	-30.0	-33.6	18.7	6.03e-01	0	43	0	283639808	20	5434
2026-01-02 02:20:48.33	340.73	61.01	-30.0	-33.5	18.3	6.03e-01	0	43	0	285212672	20	5398
2026-01-02 02:20:49.33	339.96	61.38	-30.2	-33.7	18.3	6.02e-01	0	43	0	287309824	21	5356
2026-01-02 02:20:50.34	339.16	61.75	-30.0	-33.1	18.7	6.06e-01	0	43	0	289406976	21	5115
2026-01-02 02:20:51.34	338.34	62.12	-30.2	-33.7	18.4	6.04e-01	0	43	0	290979840	21	5339
2026-01-02 02:20:52.33	337.51	62.48	-30.0	-33.5	18.8	6.04e-01	0	43	0	293076992	20	5371
2026-01-02 02:20:53.34	336.63	62.84	-30.5	-34.5	17.8	6.05e-01	0	43	0	294649856	21	5682
2026-01-02 02:20:54.35	335.73	63.20	-30.1	-33.6	18.8	6.03e-01	0	43	0	296747008	20	5433
2026-01-02 02:20:55.35	334.81	63.56	-30.5	-34.4	18.0	6.03e-01	0	43	0	298844160	21	5620
2026-01-02 02:20:56.35	333.86	63.90	-30.5	-34.4	18.0	6.03e-01	0	43	0	300417024	21	5635
2026-01-02 02:20:57.35	332.88	64.25	-30.5	-34.3	18.0	6.03e-01	0	43	0	302514176	21	5584
2026-01-02 02:20:58.36	331.86	64.59	-30.7	-34.5	17.6	6.02e-01	0	43	0	304087040	22	5583
2026-01-02 02:20:59.35	330.83	64.91	-30.9	-34.9	17.3	6.03e-01	0	43	0	306184192	22	5730
2026-01-02 02:21:00.36	329.75	65.24	-31.0	-35.4	17.1	6.04e-01	0	43	0	307757056	22	5939
2026-01-02 02:21:01.37	328.63	65.57	-31.4	-36.0	16.2	6.02e-01	0	43	0	309854208	23	6117
2026-01-02 02:21:02.37	327.50	65.88	-31.3	-35.7	16.5	6.04e-01	0	43	0	311951360	23	5980
2026-01-02 02:21:03.38	326.32	66.18	-31.3	-35.7	16.6	6.03e-01	0	43	0	313524224	23	5956
2026-01-02 02:21:04.38	325.12	66.48	-31.4	-36.1	16.2	6.01e-01	0	43	0	315621376	23	6175
2026-01-02 02:21:05.38	323.89	66.77	-31.1	-35.0	17.0	6.03e-01	0	43	0	317194240	23	5655
2026-01-02 02:21:06.39	322.61	67.05	-31.3	-35.8	16.4	6.03e-01	0	43	0	319291392	23	6030
2026-01-02 02:21:07.39	321.30	67.32	-31.4	-36.0	16.3	6.02e-01	0	43	0	321388544	23	6119
2026-01-02 02:21:08.39	319.97	67.57	-31.3	-35.7	16.4	6.04e-01	0	43	0	322961408	23	5978
2026-01-02 02:21:09.38	318.61	67.82	-31.3	-35.6	16.6	6.02e-01	0	43	0	325058560	23	5942
2026-01-02 02:21:10.39	317.20	68.06	-31.4	-36.1	16.2	6.03e-01	0	43	0	326631424	23	6171
2026-01-02 02:21:11.39	315.77	68.28	-31.3	-35.8	16.4	6.02e-01	0	43	0	328728576	23	6014
2026-01-02 02:21:12.40	314.28	68.50	-31.5	-36.2	16.2	6.03e-01	0	43	0	330825728	23	6226
2026-01-02 02:21:13.40	312.79	68.70	-31.3	-35.3	16.4	6.03e-01	0	43	0	332398592	24	5667
2026-01-02 02:21:14.40	311.26	68.88	-31.5	-35.8	16.2	6.04e-01	0	43	0	334495744	24	5902
2026-01-02 02:21:15.40	309.71	69.06	-31.9	-37.0	15.2	6.03e-01	0	43	0	336068608	24	6529
2026-01-02 02:21:16.41	308.11	69.21	-31.3	-35.6	16.5	6.01e-01	0	43	0	338165760	23	5921
2026-01-02 02:21:17.41	306.50	69.36	-31.5	-36.5	16.1	6.03e-01	0	43	0	339738624	23	6335
2026-01-02 02:21:18.41	304.87	69.49	-31.5	-35.9	16.0	6.00e-01	0	43	0	341835776	24	5959
2026-01-02 02:21:19.41	303.22	69.60	-31.4	-35.6	16.2	6.03e-01	0	43	0	343932928	24	5820
2026-01-02 02:21:20.42	301.53	69.70	-31.1	-34.4	17.1	6.01e-01	0	43	0	345505792	24	5293
2026-01-02 02:21:21.41	299.86	69.77	-31.8	-37.0	15.3	6.02e-01	0	43	0	347602944	24	6517
2026-01-02 02:21:22.41	298.17	69.84	-31.2	-35.4	16.6	6.03e-01	0	43	0	349175808	23	5839
2026-01-02 02:21:23.42	296.44	69.89	-31.6	-36.5	16.2	6.01e-01	0	43	0	351272960	23	6333
2026-01-02 02:21:24.42	294.72	69.92	-32.2	-37.9	14.3	6.07e-01	0	43	0	352845824	25	6919
2026-01-02 02:21:25.42	293.00	69.93	-31.6	-36.3	15.8	6.04e-01	0	43	0	354942976	24	6134
2026-01-02 02:21:26.42	291.28	69.93	-31.9	-37.1	15.2	6.00e-01	0	43	0	357040128	24	6561
2026-01-02 02:21:27.43	289.55	69.91	-32.1	-37.4	14.6	6.05e-01	0	43	0	358612992	25	6647
2026-01-02 02:21:28.44	287.82	69.87	-32.0	-37.4	15.0	6.04e-01	0	43	0	360710144	24	6754
2026-01-02 02:21:29.44	286.11	69.81	-32.1	-37.4	14.6	6.02e-01	0	43	0	362807296	25	6663
2026-01-02 02:21:30.44	284.42	69.74	-31.9	-37.3	15.0	6.03e-01	0	43	0	364380160	24	6674
2026-01-02 02:21:31.45	282.72	69.66	-31.6	-36.0	16.0	6.03e-01	0	43	0	366477312	24	6004
2026-01-02 02:21:32.45	281.06	69.55	-31.4	-35.5	16.4	6.02e-01	0	43	0	368050176	24	5793
2026-01-02 02:21:33.46	279.40	69.43	-31.7	-36.6	15.5	6.04e-01	0	43	0	370147328	24	6336
2026-01-02 02:21:34.46	277.78	69.30	-31.2	-35.5	16.6	6.05e-01	0	43	0	371720192	23	5857
2026-01-02 02:21:35.47	276.17	69.15	-31.4	-36.1	16.2	6.04e-01	0	43	0	373817344	23	6162
2026-01-02 02:21:36.47	274.59	68.98	-31.6	-36.4	15.7	6.05e-01	0	43	0	375914496	24	6203
2026-01-02 02:21:37.47	273.05	68.80	-31.7	-36.5	15.7	6.02e-01	0	43	0	377487360	24	6258
2026-01-02 02:21:38.47	271.53	68.61	-31.6	-36.0	15.9	6.03e-01	0	43	0	379584512	24	6006
2026-01-02 02:21:39.47	270.05	68.41	-32.0	-37.8	14.7	6.02e-01	0	43	0	381157376	24	6970
2026-01-02 02:21:40.47	268.60	68.19	-31.9	-37.2	15.0	6.04e-01	0	43	0	383254528	24	6648
2026-01-02 02:21:41.47	267.17	67.96	-31.9	-37.2	15.1	6.04e-01	0	43	0	384827392	24	6655
2026-01-02 02:21:42.48	265.77	67.71	-32.0	-37.6	14.8	6.03e-01	0	43	0	386924544	24	6888
2026-01-02 02:21:43.49	264.40	67.46	-31.8	-36.9	15.3	6.05e-01	0	43	0	389021696	24	6455
2026-01-02 02:21:44.49	263.08	67.20	-31.7	-36.5	15.6	6.03e-01	0	43	0	390594560	24	6257
2026-01-02 02:21:45.50	261.78	66.92	-31.5	-36.3	16.1	6.05e-01	0	43	0	392691712	23	6277
2026-01-02 02:21:46.50	260.53	66.64	-31.7	-36.4	15.7	6.03e-01	0	43	0	394264576	24	6206
2026-01-02 02:21:47.50	259.31	66.34	-31.6	-36.3	15.8	6.03e-01	0	43	0	396361728	24	6162
2026-01-02 02:21:48.51	258.11	66.04	-31.7	-36.4	15.7	6.04e-01	0	43	0	398458880	24	6229
2026-01-02 02:21:49.51	256.95	65.73	-31.6	-36.3	15.7	6.03e-01	0	43	0	400031744	24	6155
2026-01-02 02:21:50.51	255.83	65.42	-31.7	-36.4	15.6	6.03e-01	0	43	0	402128896	24	6202
2026-01-02 02:21:51.51	254.74	65.10	-31.6	-36.6	15.9	6.03e-01	0	43	0	403701760	23	6412
2026-01-02 02:21:52.52	253.68	64.76	-32.0	-37.6	14.8	6.03e-01	0	43	0	405798912	24	6883
2026-01-02 02:21:53.52	252.65	64.43	-31.6	-36.2	15.8	6.04e-01	0	43	0	407896064	24	6103
2026-01-02 02:21:54.52	251.65	64.09	-31.1	-35.0	17.0	6.04e-01	0	43	0	409468928	23	5632
2026-01-02 02:21:55.52	250.68	63.74	-31.3	-35.9	16.4	6.04e-01	0	43	0	411566080	23	6057
2026-01-02 02:21:56.51	249.75	63.40	-31.3	-35.6	16.5	6.02e-01	0	43	0	413138944	23	5922
2026-01-02 02:21:57.52	248.83	63.04	-31.0	-34.8	17.0	6.03e-01	0	43	0	415236096	23	5595
2026-01-02 02:21:58.52	247.95	62.68	-30.9	-35.1	17.3	6.01e-01	0	43	0	416808960	22	5792
2026-01-02 02:21:59.52	247.09	62.32	-30.7	-34.3	17.7	6.03e-01	0	43	0	418906112	22	5485
2026-01-02 02:22:00.53	246.25	61.95	-30.8	-34.8	17.3	6.03e-01	0	43	0	421003264	22	5709
2026-01-02 02:22:01.53	245.44	61.58	-30.4	-33.5	18.1	6.03e-01	0	43	0	422576128	22	5167
2026-01-02 02:22:02.54	244.65	61.20	-30.4	-33.7	18.1	6.04e-01	0	43	0	424673280	22	5220
2026-01-02 02:22:03.54	243.89	60.83	-30.1	-33.3	18.7	6.03e-01	0	43	0	426246144	21	5182
2026-01-02 02:22:04.54	243.15	60.45	-30.4	-34.2	18.1	6.03e-01	0	43	0	428343296	21	5565
2026-01-02 02:22:05.55	242.43	60.07	-30.5	-33.8	18.0	6.02e-01	0	43	0	430440448	22	5278
2026-01-02 02:22:06.55	241.74	59.69	-29.8	-32.5	19.1	6.01e-01	0	43	0	432013312	21	4900
2026-01-02 02:22:07.55	241.06	59.31	-29.8	-33.1	19.1	6.04e-01	0	43	0	434110464	20	5211
2026-01-02 02:22:08.56	240.40	58.93	-30.1	-33.7	18.7	6.02e-01	0	43	0	435683328	20	5472
2026-01-02 02:22:09.56	239.77	58.54	-29.9	-32.7	19.0	6.02e-01	0	43	0	437780480	21	4957
2026-01-02 02:22:10.57	239.14	58.16	-30.0	-33.4	18.8	6.04e-01	0	43	0	439877632	20	5358
2026-01-02 02:22:11.57	238.54	57.77	-29.6	-32.4	19.4	6.01e-01	0	43	0	441450496	20	4990
2026-01-02 02:22:12.57	237.96	57.39	-29.5	-32.6	19.7	6.03e-01	0	43	0	443547648	19	5155
2026-01-02 02:22:13.57	237.39	57.01	-29.5	-32.8	19.6	6.02e-01	0	43	0	445120512	19	5216
2026-01-02 02:22:14.57	236.84	56.62	-29.3	-31.7	19.8	6.03e-01	0	43	0	447217664	20	4731
2026-01-02 02:22:15.58	236.30	56.23	-29.4	-32.4	19.8	6.03e-01	0	43	0	448790528	19	5077
2026-01-02 02:22:16.57	235.79	55.86	-29.3	-31.6	19.9	6.03e-01	0	43	0	450887680	20	4701
2026-01-02 02:22:17.58	235.27	55.47	-28.8	-30.9	20.7	6.03e-01	0	43	0	452984832	19	4571
2026-01-02 02:22:18.57	234.79	55.09	-29.0	-32.0	20.4	6.01e-01	0	43	0	454557696	18	5067
2026-01-02 02:22:19.58	234.30	54.71	-29.0	-31.9	20.4	6.03e-01	0	43	0	456654848	18	5023
2026-01-02 02:22:20.59	233.83	54.32	-29.2	-31.8	20.1	6.02e-01	0	43	0	458227712	19	4882
2026-01-02 02:22:21.59	233.38	53.94	-29.5	-32.7	19.6	6.04e-01	0	43	0	460324864	19	5202
2026-01-02 02:22:22.60	232.93	53.56	-29.6	-32.4	19.3	6.04e-01	0	43	0	462422016	20	5008
2026-01-02 02:22:23.59	232.51	53.19	-28.9	-31.1	20.5	6.05e-01	0	43	0	463994880	19	4648
2026-01-02 02:22:24.59	232.09	52.81	-28.6	-31.0	20.9	6.04e-01	0	43	0	466092032	18	4722
2026-01-02 02:22:25.59	231.68	52.44	-28.5	-31.3	21.0	6.03e-01	0	43	0	467664896	17	4935
2026-01-02 02:22:26.60	231.27	52.06	-29.1	-32.2	20.2	6.02e-01	0	43	0	469762048	18	5140
2026-01-02 02:22:27.60	230.89	51.69	-29.2	-31.9	20.0	6.03e-01	0	43	0	471334912	19	4922
2026-01-02 02:22:28.59	230.51	51.32	-29.3	-32.3	19.8	6.03e-01	0	43	0	473432064	19	5054
2026-01-02 02:22:29.59	230.14	50.96	-29.1	-31.6	20.2	6.04e-01	0	43	0	475529216	19	4823
2026-01-02 02:22:30.60	229.78	50.59	-29.0	-32.0	20.3	6.01e-01	0	43	0	477102080	18	5054
2026-01-02 02:22:31.59	229.43	50.23	-29.1	-31.8	20.1	6.04e-01	0	43	0	479199232	19	4875
2026-01-02 02:22:32.60	229.08	49.86	-29.3	-32.3	19.8	6.03e-01	0	43	0	480772096	19	5044
2026-01-02 02:22:33.60	228.75	49.50	-29.5	-32.3	19.4	6.03e-01	0	43	0	482869248	20	4963
2026-01-02 02:22:34.60	228.42	49.14	-29.7	-32.9	19.1	6.02e-01	0	43	0	484966400	20	5174
2026-01-02 02:22:35.61	228.10	48.78	-29.7	-32.9	19.1	6.02e-01	0	43	0	486539264	20	5165
2026-01-02 02:22:36.61	227.79	48.43	-29.3	-31.8	19.7	6.04e-01	0	43	0	488636416	20	4774
2026-01-02 02:22:37.61	227.48	48.08	-28.9	-31.2	20.4	6.02e-01	0	43	0	490209280	19	4705
2026-01-02 02:22:38.62	227.18	47.72	-28.6	-30.5	20.8	6.04e-01	0	43	0	492306432	19	4482
2026-01-02 02:22:39.62	226.89	47.37	-28.7	-31.2	20.7	6.04e-01	0	43	0	493879296	18	4789
2026-01-02 02:22:40.63	226.61	47.02	-29.0	-32.1	20.2	6.03e-01	0	43	0	495976448	18	5108
2026-01-02 02:22:41.63	226.33	46.68	-29.0	-32.1	20.2	6.01e-01	0	43	0	498073600	18	5114
2026-01-02 02:22:42.63	226.06	46.34	-28.9	-31.6	20.4	6.04e-01	0	43	0	499646464	18	4943
2026-01-02 02:22:43.63	225.79	46.00	-29.0	-32.1	20.2	6.05e-01	0	43	0	501743616	18	5093
2026-01-02 02:22:44.64	225.53	45.66	-28.9	-31.8	19.8	6.03e-01	0	43	0	503316480	18	5016
2026-01-02 02:22:45.65	225.27	45.32	-28.6	-31.0	20.3	6.03e-01	0	43	0	505413632	18	4752
2026-01-02 02:22:46.65	225.02	44.99	-28.6	-31.1	20.8	6.05e-01	0	43	0	507510784	18	4756
2026-01-02 02:22:47.66	224.78	44.66	-28.8	-31.5	20.2	6.03e-01	0	43	0	509083648	18	4913
2026-01-02 02:22:48.65	224.54	44.33	-28.9	-31.7	20.3	6.02e-01	0	43	0	511180800	18	4957
2026-01-02 02:22:49.65	224.31	44.01	-29.0	-32.0	20.2	6.01e-01	0	43	0	512753664	18	5103
2026-01-02 02:22:50.66	224.08	43.68	-29.1	-31.9	19.9	6.00e-01	0	43	0	514850816	19	4927
2026-01-02 02:22:51.66	223.85	43.36	-29.3	-32.2	19.8	6.02e-01	0	43	0	516423680	19	5052
2026-01-02 02:22:52.66	223.63	43.04	-29.1	-31.8	20.0	6.03e-01	0	43	0	518520832	19	4905
2026-01-02 02:22:53.67	223.42	42.72	-29.0	-31.4	20.2	6.04e-01	0	43	0	520617984	19	4770
2026-01-02 02:22:54.67	223.21	42.41	-29.0	-31.9	20.2	6.01e-01	0	43	0	522190848	18	5060
2026-01-02 02:22:55.68	223.00	42.10	-29.4	-32.4	19.7	6.02e-01	0	43	0	524288000	19	5104
2026-01-02 02:22:56.67	222.80	41.79	-29.6	-33.0	19.3	6.03e-01	0	43	0	525860864	19	5318
2026-01-02 02:22:57.67	222.60	41.48	-29.5	-32.2	19.4	6.03e-01	0	43	0	527958016	20	4932
2026-01-02 02:22:58.68	222.40	41.18	-29.4	-32.1	19.5	6.01e-01	0	43	0	530055168	20	4882
2026-01-02 02:22:59.68	222.21	40.87	-29.5	-32.3	19.4	6.01e-01	0	43	0	531628032	20	4971
2026-01-02 02:23:00.68	222.03	40.57	-29.5	-32.3	19.3	6.03e-01	0	43	0	533725184	20	4968
2026-01-02 02:23:01.70	221.84	40.27	-29.5	-32.3	19.4	6.03e-01	0	43	0	535298048	20	4957
2026-01-02 02:23:02.70	221.66	39.98	-29.6	-32.5	19.2	6.02e-01	0	43	0	537395200	20	5025
2026-01-02 02:23:03.70	221.48	39.68	-29.8	-33.1	18.9	6.05e-01	0	43	0	539492352	20	5270
2026-01-02 02:23:04.70	221.31	39.39	-29.8	-33.2	18.8	6.03e-01	0	43	0	541065216	20	5298
2026-01-02 02:23:05.69	221.14	39.11	-29.8	-33.1	18.8	6.04e-01	0	43	0	543162368	20	5271
2026-01-02 02:23:06.70	220.97	38.82	-29.7	-32.7	19.0	6.00e-01	0	43	0	544735232	20	5131
2026-01-02 02:23:07.70	220.81	38.53	-29.8	-33.1	18.8	6.02e-01	0	43	0	546832384	20	5255
2026-01-02 02:23:08.70	220.64	38.25	-29.8	-33.1	18.8	6.02e-01	0	43	0	548405248	20	5267
2026-01-02 02:23:09.71	220.48	37.97	-30.0	-33.6	18.6	6.03e-01	0	43	0	550502400	20	5446
2026-01-02 02:23:10.71	220.33	37.69	-29.9	-33.4	18.6	6.02e-01	0	43	0	552599552	20	5393
2026-01-02 02:23:11.72	220.17	37.41	-29.8	-33.0	18.9	6.04e-01	0	43	0	554172416	20	5223
2026-01-02 02:23:12.73	220.02	37.14	-29.7	-32.7	19.1	6.03e-01	0	43	0	556269568	20	5118
2026-01-02 02:23:13.73	219.87	36.87	-29.8	-33.0	18.9	6.02e-01	0	43	0	557842432	20	5213
2026-01-02 02:23:14.74	219.73	36.60	-29.8	-33.0	18.9	6.04e-01	0	43	0	559939584	20	5235
2026-01-02 02:23:15.75	219.58	36.33	-29.8	-33.0	18.9	6.03e-01	0	43	0	562036736	20	5252
2026-01-02 02:23:16.74	219.44	36.07	-29.8	-33.3	18.7	6.04e-01	0	43	0	563609600	20	5335
2026-01-02 02:23:17.75	219.31	35.80	-29.6	-32.6	19.0	6.02e-01	0	43	0	565706752	20	5099
2026-01-02 02:23:18.75	219.17	35.54	-29.5	-32.7	19.4	6.03e-01	0	43	0	567279616	19	5215
2026-01-02 02:23:19.75	219.04	35.28	-29.3	-32.4	19.6	6.05e-01	0	43	0	569376768	19	5118
2026-01-02 02:23:20.75	218.91	35.03	-29.4	-32.6	19.5	6.02e-01	0	43	0	571473920	19	5195
2026-01-02 02:23:21.76	218.78	34.77	-29.4	-32.5	19.5	6.01e-01	0	43	0	573046784	19	5136
2026-01-02 02:23:22.76	218.65	34.52	-29.0	-31.6	20.0	6.04e-01	0	43	0	575143936	19	4838
2026-01-02 02:23:23.76	218.52	34.27	-28.9	-31.7	20.3	6.02e-01	0	43	0	576716800	18	4982
2026-01-02 02:23:24.76	218.40	34.02	-28.9	-31.7	20.3	6.04e-01	0	43	0	578813952	18	4967
2026-01-02 02:23:25.76	218.28	33.77	-28.9	-31.8	20.3	6.05e-01	0	43	0	580386816	18	5020
2026-01-02 02:23:26.77	218.16	33.53	-28.9	-31.9	20.2	6.03e-01	0	43	0	582483968	18	5051
2026-01-02 02:23:27.77	218.04	33.28	-28.8	-31.6	20.3	6.03e-01	0	43	0	584581120	18	4951
2026-01-02 02:23:28.77	217.93	33.04	-28.6	-31.1	20.6	6.03e-01	0	43	0	586153984	18	4781
2026-01-02 02:23:29.78	217.81	32.80	-28.6	-31.5	20.7	6.04e-01	0	43	0	588251136	17	5019
2026-01-02 02:23:30.78	217.70	32.57	-28.5	-31.2	20.8	6.02e-01	0	43	0	589824000	17	4925
2026-01-02 02:23:31.77	217.59	32.33	-28.4	-31.2	20.8	6.02e-01	0	43	0	591921152	17	4919
2026-01-02 02:23:32.77	217.48	32.10	-28.5	-31.3	20.7	6.03e-01	0	43	0	593494016	17	4982
2026-01-02 02:23:33.78	217.37	31.87	-28.4	-31.1	20.9	6.04e-01	0	43	0	595591168	17	4901
2026-01-02 02:23:34.79	217.27	31.64	-28.5	-31.3	20.7	6.02e-01	0	43	0	597688320	17	4959
2026-01-02 02:23:35.79	217.16	31.41	-28.5	-31.3	20.7	6.04e-01	0	43	0	599261184	17	4977
2026-01-02 02:23:36.79	217.06	31.18	-28.5	-31.3	20.7	6.04e-01	0	43	0	601358336	17	4984
2026-01-02 02:23:37.80	216.96	30.96	-28.7	-31.2	20.5	6.04e-01	0	43	0	603455488	18	4828
2026-01-02 02:23:38.80	216.86	30.73	-28.9	-31.7	20.2	6.04e-01	0	43	0	605028352	18	5005
2026-01-02 02:23:39.80	216.76	30.51	-28.7	-31.4	20.4	6.02e-01	0	43	0	607125504	18	4900
2026-01-02 02:23:40.80	216.67	30.30	-28.6	-31.1	20.6	6.04e-01	0	43	0	608698368	18	4790
2026-01-02 02:23:41.80	216.57	30.08	-28.6	-31.1	20.6	6.03e-01	0	43	0	610795520	18	4790
2026-01-02 02:23:42.80	216.48	29.86	-28.5	-30.8	20.7	6.02e-01	0	43	0	612368384	18	4678
2026-01-02 02:23:43.81	216.38	29.65	-28.5	-30.8	20.8	6.02e-01	0	43	0	614465536	18	4683
2026-01-02 02:23:44.81	216.29	29.43	-28.6	-31.1	20.5	6.02e-01	0	43	0	616562688	18	4798
2026-01-02 02:23:45.81	216.20	29.22	-28.5	-31.3	20.7	6.04e-01	0	43	0	618135552	17	4969
2026-01-02 02:23:46.82	216.11	29.01	-28.6	-31.2	20.5	6.02e-01	0	43	0	620232704	18	4809
2026-01-02 02:23:47.82	216.03	28.80	-28.9	-31.8	20.1	6.02e-01	0	43	0	621805568	18	5017
2026-01-02 02:23:48.82	215.94	28.60	-28.9	-31.7	20.2	6.02e-01	0	43	0	623902720	18	4990
2026-01-02 02:23:49.82	215.86	28.39	-29.1	-32.3	19.9	6.03e-01	0	43	0	625475584	18	5201
2026-01-02 02:23:50.82	215.77	28.19	-29.0	-31.5	20.0	6.02e-01	0	43	0	627572736	19	4808
2026-01-02 02:23:51.83	215.69	27.99	-28.8	-31.5	20.3	6.03e-01	0	43	0	629669888	18	4921
2026-01-02 02:23:52.82	215.61	27.79	-28.7	-31.3	20.4	6.02e-01	0	43	0	631242752	18	4855
2026-01-02 02:23:53.83	215.53	27.59	-28.8	-31.5	20.3	6.02e-01	0	43	0	633339904	18	4932
2026-01-02 02:23:54.83	215.45	27.39	-28.8	-31.6	20.3	6.02e-01	0	43	0	634912768	18	4942
2026-01-02 02:23:55.83	215.37	27.20	-29.1	-32.3	19.8	6.02e-01	0	43	0	637009920	18	5211
2026-01-02 02:23:56.84	215.29	27.00	-29.1	-31.8	19.8	6.02e-01	0	43	0	638582784	19	4909
2026-01-02 02:23:57.84	215.21	26.81	-29.0	-32.0	20.0	6.03e-01	0	43	0	640679936	18	5111
2026-01-02 02:23:58.84	215.14	26.62	-29.1	-32.0	19.8	6.03e-01	0	43	0	642777088	19	4975
2026-01-02 02:23:59.84	215.06	26.43	-29.4	-32.6	19.3	6.05e-01	0	43	0	644349952	19	5203
2026-01-02 02:24:00.84	214.99	26.24	-29.2	-32.1	19.6	6.01e-01	0	43	0	646447104	19	5033
2026-01-02 02:24:01.85	214.92	26.05	-29.2	-32.1	19.6	6.03e-01	0	43	0	648544256	19	5017
2026-01-02 02:24:02.86	214.85	25.86	-29.2	-32.1	19.6	6.04e-01	0	43	0	650117120	19	5024
2026-01-02 02:24:03.86	214.77	25.68	-29.3	-32.5	19.4	6.02e-01	0	43	0	652214272	19	5154
2026-01-02 02:24:04.86	214.70	25.50	-29.2	-32.2	19.6	6.04e-01	0	43	0	653787136	19	5049
2026-01-02 02:24:05.87	214.63	25.31	-29.1	-31.9	19.7	6.01e-01	0	43	0	655884288	19	4963
2026-01-02 02:24:06.87	214.57	25.13	-29.1	-31.9	19.7	6.03e-01	0	43	0	657457152	19	4958
2026-01-02 02:24:07.87	214.50	24.95	-29.2	-32.0	19.6	6.03e-01	0	43	0	659554304	19	5003
2026-01-02 02:24:08.88	214.43	24.78	-29.4	-32.7	19.2	6.04e-01	0	43	0	661651456	19	5257
2026-01-02 02:24:09.88	214.37	24.60	-29.3	-32.2	19.5	6.02e-01	0	43	0	663224320	19	5082
2026-01-02 02:24:10.89	214.30	24.42	-29.1	-31.9	19.7	6.05e-01	0	43	0	665321472	19	4950
2026-01-02 02:24:11.89	214.24	24.25	-29.0	-32.0	19.9	6.02e-01	0	43	0	666894336	18	5094
2026-01-02 02:24:12.90	214.17	24.07	-29.0	-32.2	19.8	6.05e-01	0	43	0	668991488	18	5171
2026-01-02 02:24:13.90	214.11	23.90	-29.0	-32.2	19.8	6.00e-01	0	43	0	671088640	18	5181
2026-01-02 02:24:14.91	214.05	23.73	-29.1	-32.4	19.6	6.06e-01	0	43	0	672661504	18	5240
2026-01-02 02:24:15.91	213.99	23.56	-29.2	-32.2	19.5	6.03e-01	0	43	0	674758656	19	5051
2026-01-02 02:24:16.91	213.93	23.39	-29.3	-32.5	19.3	6.02e-01	0	43	0	676331520	19	5178
2026-01-02 02:24:17.92	213.87	23.22	-29.3	-32.4	19.3	6.04e-01	0	43	0	678428672	19	5136
2026-01-02 02:24:18.92	213.81	23.06	-29.4	-32.7	19.1	6.02e-01	0	43	0	680525824	19	5259
2026-01-02 02:24:19.92	213.75	22.89	-29.3	-32.4	19.3	6.01e-01	0	43	0	682098688	19	5136
2026-01-02 02:24:20.93	213.69	22.73	-29.2	-32.2	19.4	6.04e-01	0	43	0	684195840	19	5085
2026-01-02 02:24:21.93	213.63	22.56	-29.2	-32.2	19.5	6.03e-01	0	43	0	685768704	19	5061
2026-01-02 02:24:22.94	213.58	22.40	-29.2	-32.1	19.5	6.03e-01	0	43	0	687865856	19	5030
2026-01-02 02:24:23.93	213.52	22.24	-29.3	-32.4	19.4	6.04e-01	0	43	0	689438720	19	5133
2026-01-02 02:24:24.94	213.47	22.08	-29.1	-31.9	19.6	6.02e-01	0	43	0	691535872	19	4958
2026-01-02 02:24:25.94	213.41	21.92	-29.0	-31.5	19.8	6.01e-01	0	43	0	693633024	19	4833
2026-01-02 02:24:26.94	213.36	21.77	-28.9	-31.9	19.9	6.01e-01	0	43	0	695205888	18	5088
2026-01-02 02:24:27.94	213.31	21.61	-28.9	-31.8	20.0	6.04e-01	0	43	0	697303040	18	5043
2026-01-02 02:24:28.95	213.25	21.45	-29.0	-32.1	19.8	6.01e-01	0	43	0	698875904	18	5144
2026-01-02 02:24:29.95	213.20	21.30	-28.9	-31.9	19.9	6.03e-01	0	43	0	700973056	18	5079
2026-01-02 02:24:30.95	213.15	21.15	-29.0	-32.1	19.8	6.03e-01	0	43	0	703070208	18	5156
2026-01-02 02:24:31.95	213.10	20.99	-29.0	-32.2	19.7	6.03e-01	0	43	0	704643072	18	5187
2026-01-02 02:24:32.95	213.05	20.84	-29.1	-32.3	19.6	6.02e-01	0	43	0	706740224	18	5247
2026-01-02 02:24:33.96	213.00	20.69	-29.2	-32.2	19.4	6.04e-01	0	43	0	708313088	19	5077
2026-01-02 02:24:34.96	212.95	20.54	-29.5	-32.9	18.9	6.04e-01	0	43	0	710410240	19	5360
2026-01-02 02:24:35.97	212.90	20.39	-29.3	-32.5	19.2	6.03e-01	0	43	0	711983104	19	5203
2026-01-02 02:24:36.97	212.85	20.24	-29.3	-32.4	19.2	6.03e-01	0	43	0	714080256	19	5150
2026-01-02 02:24:37.97	212.80	20.10	-29.3	-32.5	19.2	6.02e-01	0	43	0	716177408	19	5205
2026-01-02 02:24:38.98	212.76	19.95	-29.3	-32.5	19.2	6.03e-01	0	43	0	717750272	19	5186
2026-01-02 02:24:39.98	212.71	19.81	-29.3	-32.4	19.3	6.03e-01	0	43	0	719847424	19	5148
2026-01-02 02:24:40.98	212.66	19.66	-29.3	-32.5	19.1	6.02e-01	0	43	0	721420288	19	5211
2026-01-02 02:24:41.99	212.62	19.52	-29.2	-32.2	19.3	6.01e-01	0	43	0	723517440	19	5099
2026-01-02 02:24:42.99	212.57	19.38	-29.3	-32.4	19.2	6.03e-01	0	43	0	725614592	19	5167
2026-01-02 02:24:43.99	212.53	19.24	-28.0	-31.0	19.4	6.03e-01	0	43	0	727187456	19	5106
2026-01-02 02:24:45.00	212.48	19.09	-29.0	-32.2	18.3	6.09e-01	0	43	0	729284608	18	5216
2026-01-02 02:24:46.00	212.44	18.95	-29.1	-32.4	19.5	6.03e-01	0	43	0	730857472	18	5279
2026-01-02 02:24:47.00	212.40	18.82	-29.1	-32.3	17.6	6.10e-01	0	43	0	732954624	18	5255
2026-01-02 02:24:48.01	212.35	18.68	-29.1	-32.4	18.9	6.06e-01	0	43	0	735051776	18	5286
2026-01-02 02:24:49.01	212.31	18.54	-29.1	-32.4	19.4	6.03e-01	0	43	0	736624640	18	5274
2026-01-02 02:24:50.01	212.27	18.40	-29.2	-32.3	17.6	6.02e-01	0	43	0	738721792	19	5130
2026-01-02 02:24:51.01	212.23	18.27	-29.6	-33.2	17.5	6.04e-01	0	43	0	740294656	19	5464
2026-01-02 02:24:52.02	212.18	18.13	-29.3	-32.4	19.1	6.04e-01	0	43	0	742391808	19	5168
2026-01-02 02:24:53.02	212.14	18.00	-29.1	-32.4	18.4	6.02e-01	0	43	0	743964672	18	5276
2026-01-02 02:24:54.02	212.10	17.87	-29.0	-32.2	18.3	6.04e-01	0	43	0	746061824	18	5204
2026-01-02 02:24:55.02	212.06	17.73	-29.1	-32.0	19.3	6.01e-01	0	43	0	748158976	19	5030
2026-01-02 02:24:56.02	212.02	17.60	-29.2	-32.2	18.0	6.04e-01	0	43	0	749731840	19	5114
2026-01-02 02:24:57.03	211.98	17.47	-29.3	-32.7	18.9	6.04e-01	0	43	0	751828992	19	5273
2026-01-02 02:24:58.03	211.95	17.34	-29.2	-32.4	19.1	6.04e-01	0	43	0	753401856	19	5167
2026-01-02 02:24:59.03	211.91	17.21	-29.2	-32.2	19.1	6.04e-01	0	43	0	755499008	19	5117
2026-01-02 02:25:00.03	211.87	17.08	-29.2	-32.3	19.2	6.03e-01	0	43	0	757071872	19	5138
2026-01-02 02:25:01.01	211.83	16.96	-29.1	-32.1	19.3	6.04e-01	0	43	0	759169024	19	5081
2026-01-02 02:25:02.02	211.79	16.83	-29.3	-32.6	19.0	6.02e-01	0	43	0	761266176	19	5269
2026-01-02 02:25:03.03	211.76	16.70	-29.1	-32.1	19.2	6.03e-01	0	43	0	762839040	19	5077
2026-01-02 02:25:04.03	211.72	16.58	-29.0	-31.8	19.4	6.03e-01	0	43	0	764936192	19	4967
2026-01-02 02:25:05.03	211.68	16.45	-29.0	-32.2	19.5	6.02e-01	0	43	0	767033344	18	5238
2026-01-02 02:25:06.03	211.65	16.33	-29.0	-32.4	19.4	6.02e-01	0	43	0	768606208	18	5288
2026-01-02 02:25:07.04	211.61	16.20	-29.0	-32.3	19.4	6.02e-01	0	43	0	770703360	18	5274
2026-01-02 02:25:08.05	211.58	16.08	-29.0	-32.4	19.3	6.04e-01	0	43	0	772276224	18	5303
2026-01-02 02:25:09.05	211.54	15.96	-29.1	-32.5	19.2	6.03e-01	0	43	0	774373376	18	5340
2026-01-02 02:25:10.05	211.51	15.84	-29.2	-32.2	19.1	6.02e-01	0	43	0	775946240	19	5123
2026-01-02 02:25:11.04	211.47	15.72	-29.0	-32.4	19.3	6.04e-01	0	43	0	778043392	18	5318
2026-01-02 02:25:12.04	211.44	15.60	-29.0	-32.3	19.4	6.05e-01	0	43	0	780140544	18	5259
2026-01-02 02:25:13.04	211.40	15.48	-29.0	-32.4	19.3	6.00e-01	0	43	0	781713408	18	5307
2026-01-02 02:25:14.05	211.37	15.36	-29.0	-32.4	19.3	6.03e-01	0	43	0	783810560	18	5294
2026-01-02 02:25:15.05	211.34	15.24	-29.1	-32.5	19.2	6.03e-01	0	43	0	785383424	18	5354
2026-01-02 02:25:16.05	211.31	15.12	-29.3	-32.7	18.8	6.04e-01	0	43	0	787480576	19	5302
2026-01-02 02:25:17.05	211.27	15.00	-29.1	-32.2	19.1	6.04e-01	0	43	0	789053440	19	5124
2026-01-02 02:25:18.05	211.24	14.89	-28.9	-32.1	19.4	6.03e-01	0	43	0	791150592	18	5205
2026-01-02 02:25:19.06	211.21	14.77	-29.0	-32.2	19.4	6.02e-01	0	43	0	793247744	18	5242
2026-01-02 02:25:20.07	211.18	14.65	-29.0	-32.2	19.4	6.02e-01	0	43	0	794820608	18	5230
2026-01-02 02:25:21.06	211.15	14.54	-29.0	-32.3	19.3	6.00e-01	0	43	0	796917760	18	5256
2026-01-02 02:25:22.07	211.11	14.43	-28.9	-32.0	19.4	6.04e-01	0	43	0	798490624	18	5163
2026-01-02 02:25:23.07	211.08	14.31	-28.9	-32.2	19.4	6.06e-01	0	43	0	800587776	18	5220
2026-01-02 02:25:24.07	211.05	14.20	-28.9	-32.1	19.4	6.04e-01	0	43	0	802160640	18	5190
2026-01-02 02:25:25.08	211.02	14.09	-29.1	-32.5	19.1	6.01e-01	0	43	0	804257792	18	5357
2026-01-02 02:25:26.09	210.99	13.97	-28.9	-32.2	19.3	6.04e-01	0	43	0	806354944	18	5219
2026-01-02 02:25:27.08	210.96	13.86	-28.9	-32.0	19.5	6.02e-01	0	43	0	807927808	18	5145
2026-01-02 02:25:28.08	210.93	13.75	-29.0	-32.4	19.2	6.03e-01	0	43	0	810024960	18	5315
2026-01-02 02:25:29.08	210.90	13.64	-29.0	-32.3	19.3	6.01e-01	0	43	0	812122112	18	5272
2026-01-02 02:25:30.09	210.88	13.53	-29.1	-32.6	19.1	6.02e-01	0	43	0	813694976	18	5370
2026-01-02 02:25:31.09	210.85	13.42	-28.9	-32.1	19.3	6.03e-01	0	43	0	815792128	18	5210
2026-01-02 02:25:32.09	210.82	13.31	-29.0	-32.3	19.2	6.04e-01	0	43	0	817364992	18	5282
2026-01-02 02:25:33.10	210.79	13.21	-29.0	-32.4	19.2	6.04e-01	0	43	0	819462144	18	5314
2026-01-02 02:25:34.10	210.76	13.10	-29.1	-32.2	19.0	6.04e-01	0	43	0	821035008	19	5141
2026-01-02 02:25:35.11	210.73	12.99	-29.0	-32.5	19.1	6.03e-01	0	43	0	823132160	18	5355
2026-01-02 02:25:36.11	210.71	12.88	-28.9	-32.1	19.3	6.05e-01	0	43	0	825229312	18	5214
2026-01-02 02:25:37.12	210.68	12.78	-29.0	-32.2	19.2	6.02e-01	0	43	0	826802176	18	5259
2026-01-02 02:25:38.12	210.65	12.67	-29.0	-32.5	19.1	6.04e-01	0	43	0	828899328	18	5340
2026-01-02 02:25:39.13	210.63	12.57	-29.0	-32.5	19.1	6.02e-01	0	43	0	830472192	18	5345
2026-01-02 02:25:40.13	210.60	12.46	-29.1	-32.1	19.0	6.02e-01	0	43	0	832569344	19	5110
2026-01-02 02:25:41.13	210.57	12.36	-29.3	-32.6	18.7	6.03e-01	0	43	0	834666496	19	5292
2026-01-02 02:25:42.14	210.55	12.25	-29.1	-32.0	19.0	6.04e-01	0	43	0	836239360	19	5067
2026-01-02 02:25:43.15	210.52	12.15	-29.1	-32.0	19.0	6.04e-01	0	43	0	838336512	19	5073
2026-01-02 02:25:44.15	210.49	12.05	-29.0	-32.4	19.1	6.04e-01	0	43	0	839909376	18	5324
2026-01-02 02:25:45.16	210.47	11.94	-29.1	-32.2	18.9	6.02e-01	0	43	0	842006528	19	5116
2026-01-02 02:25:46.16	210.44	11.84	-29.0	-31.9	19.0	6.04e-01	0	43	0	844103680	19	5035
2026-01-02 02:25:47.16	210.42	11.74	-29.0	-32.4	19.0	6.01e-01	0	43	0	845676544	18	5341
2026-01-02 02:25:48.17	210.39	11.64	-29.0	-32.5	19.0	6.02e-01	0	43	0	847773696	18	5377
2026-01-02 02:25:49.16	210.37	11.54	-29.1	-32.6	18.9	6.02e-01	0	43	0	849346560	18	5416
2026-01-02 02:25:50.16	210.34	11.44	-29.2	-32.5	18.7	6.02e-01	0	43	0	851443712	19	5235
2026-01-02 02:25:51.16	210.32	11.34	-29.4	-32.9	18.4	6.01e-01	0	43	0	853016576	19	5424
2026-01-02 02:25:52.16	210.30	11.24	-29.5	-33.2	18.2	6.04e-01	0	43	0	855113728	19	5522
2026-01-02 02:25:53.17	210.27	11.14	-29.5	-33.2	18.2	6.02e-01	0	43	0	857210880	19	5528
2026-01-02 02:25:54.17	210.25	11.05	-29.4	-33.1	18.2	6.05e-01	0	43	0	858783744	19	5494
2026-01-02 02:25:55.18	210.23	10.95	-29.4	-33.0	18.3	6.01e-01	0	43	0	860880896	19	5459
2026-01-02 02:25:56.18	210.20	10.85	-29.4	-32.9	18.3	6.04e-01	0	43	0	862453760	19	5415
2026-01-02 02:25:57.18	210.18	10.75	-29.5	-33.3	18.0	6.03e-01	0	43	0	864550912	19	5595
2026-01-02 02:25:58.19	210.16	10.66	-29.6	-33.0	17.8	6.02e-01	0	43	0	866648064	20	5378
2026-01-02 02:25:59.19	210.13	10.56	-29.8	-33.7	17.4	6.03e-01	0	43	0	868220928	20	5639
2026-01-02 02:26:00.18	210.11	10.47	-29.5	-33.0	17.8	6.03e-01	0	43	0	870318080	20	5348
2026-01-02 02:26:01.18	210.09	10.37	-29.4	-33.0	18.2	6.04e-01	0	43	0	871890944	19	5462
2026-01-02 02:26:02.18	210.07	10.28	-29.3	-32.8	18.4	6.04e-01	0	43	0	873988096	19	5386
2026-01-02 02:26:03.19	210.04	10.18	-29.2	-32.4	18.6	6.03e-01	0	43	0	876085248	19	5237
2026-01-02 02:26:04.18	210.02	10.09	-29.2	-32.6	18.4	6.01e-01	0	43	0	877658112	19	5298
2026-01-02 02:26:05.19	210.00	9.99	-29.2	-32.5	18.6	6.01e-01	0	43	0	879755264	19	5277
2026-01-02 02:26:06.19	209.98	9.90	-29.4	-33.0	18.2	6.02e-01	0	43	0	881328128	19	5455
2026-01-02 02:26:07.19	209.96	9.81	-29.3	-32.8	18.4	6.02e-01	0	43	0	883425280	19	5378
2026-01-02 02:26:08.19	209.94	9.72	-29.4	-33.2	18.1	6.03e-01	0	43	0	884998144	19	5535
2026-01-02 02:26:09.19	209.92	9.62	-29.5	-33.0	17.8	6.01e-01	0	43	0	887095296	20	5363
2026-01-02 02:26:10.19	209.90	9.53	-29.3	-32.5	18.1	6.04e-01	0	43	0	889192448	20	5188
2026-01-02 02:26:11.19	209.87	9.44	-29.3	-32.9	18.2	6.02e-01	0	43	0	890765312	19	5449
2026-01-02 02:26:12.19	209.85	9.35	-29.5	-33.4	17.9	6.03e-01	0	43	0	892862464	19	5654
2026-01-02 02:26:13.19	209.83	9.26	-29.4	-33.3	17.9	6.01e-01	0	43	0	894435328	19	5589
2026-01-02 02:26:14.19	209.81	9.17	-29.5	-33.4	17.9	6.02e-01	0	43	0	896532480	19	5630
2026-01-02 02:26:15.19	209.79	9.08	-29.5	-32.9	17.8	6.04e-01	0	43	0	898105344	20	5348
2026-01-02 02:26:16.19	209.77	8.99	-29.7	-33.5	17.4	6.04e-01	0	43	0	900202496	20	5604
2026-01-02 02:26:17.19	209.75	8.90	-29.5	-32.9	17.7	6.03e-01	0	43	0	902299648	20	5363
2026-01-02 02:26:18.19	209.73	8.81	-29.6	-33.6	17.7	6.02e-01	0	43	0	903872512	19	5740
2026-01-02 02:26:19.19	209.72	8.73	-29.5	-33.0	17.7	6.04e-01	0	43	0	905969664	20	5412
2026-01-02 02:26:20.19	209.70	8.64	-29.7	-33.7	17.2	6.03e-01	0	43	0	907542528	20	5695
2026-01-02 02:26:21.19	209.68	8.55	-29.4	-32.9	17.8	6.03e-01	0	43	0	909639680	20	5351
2026-01-02 02:26:22.19	209.66	8.46	-29.4	-32.6	17.9	6.03e-01	0	43	0	911212544	20	5239
2026-01-02 02:26:23.19	209.64	8.38	-29.4	-33.2	18.0	6.02e-01	0	43	0	913309696	19	5567
2026-01-02 02:26:24.19	209.62	8.29	-29.5	-33.5	17.8	6.05e-01	0	43	0	915406848	19	5681
2026-01-02 02:26:25.19	209.60	8.20	-29.4	-33.2	18.0	6.02e-01	0	43	0	916979712	19	5566
2026-01-02 02:26:26.18	209.58	8.12	-29.5	-33.5	17.7	6.04e-01	0	43	0	919076864	19	5698
2026-01-02 02:26:27.18	209.56	8.03	-29.5	-33.5	17.7	6.04e-01	0	43	0	920649728	19	5713
2026-01-02 02:26:28.19	209.55	7.95	-29.5	-33.5	17.7	6.02e-01	0	43	0	922746880	19	5710
2026-01-02 02:26:29.19	209.53	7.86	-29.5	-33.6	17.7	6.04e-01	0	43	0	924319744	19	5734
2026-01-02 02:26:30.19	209.51	7.78	-29.5	-33.4	17.8	6.03e-01	0	43	0	926416896	19	5646
2026-01-02 02:26:31.19	209.49	7.69	-29.5	-33.1	17.5	6.04e-01	0	43	0	928514048	20	5444
2026-01-02 02:26:32.20	209.48	7.61	-29.6	-33.4	17.3	6.02e-01	0	43	0	930086912	20	5585
2026-01-02 02:26:33.20	209.46	7.52	-29.7	-33.6	17.2	6.01e-01	0	43	0	932184064	20	5670
2026-01-02 02:26:34.20	209.44	7.44	-29.7	-33.7	17.1	6.05e-01	0	43	0	933756928	20	5732
2026-01-02 02:26:35.21	209.42	7.36	-29.6	-33.4	17.3	6.02e-01	0	43	0	935854080	20	5595
2026-01-02 02:26:36.20	209.41	7.27	-29.4	-32.9	17.7	6.02e-01	0	43	0	937951232	20	5349
2026-01-02 02:26:37.20	209.39	7.19	-29.6	-33.3	17.4	6.02e-01	0	43	0	939524096	20	5534
2026-01-02 02:26:38.21	209.37	7.11	-30.7	-36.1	15.8	6.02e-01	0	43	0	941621248	22	6694
2026-01-02 02:26:39.22	209.35	7.03	-32.8	-52.1	3.8	7.45e-01	0	43	104	941621248	26	33316
2026-01-02 02:26:40.22	209.34	6.94	-33.1	-52.3	3.8	7.45e-01	0	43	104	941621248	27	32850

#Closed at: 2026-01-02 02:26:41
#Recorded file [941 MB]: D:/data/31010_260102_051815.dat