passes_logs/2026/01/02/R2M6_AANII_01/R2M6_AANII_01__20260102_115159_AQUA_rec.log

#Pass ID: 20260102_115159_AQUA
#Satellite: AQUA
#Configuration: AQUA
#almurnet v.1.7.20240730
#Start time: 2026-01-02 11:51:58

#Version: 2.2.20231116
#Station: R2M6_AANII_01
#Location: 30.233357 lon 59.946436 lat
#TLE: 1 27424U 02022A   25365.92641127  .00002078  00000+0  42628-3 0  9999
#TLE: 2 27424  98.4058 327.1196 0001962  94.7781 340.6230 14.61783896258835

#Time	Az	El	Level	Level2	SNR	BER	BlckErr	Temp	State	Recorded	gain1	gain2
2026-01-02 11:51:58.98	155.03	6.98	-30.3	-35.7	5.2	7.08e-01	0	41	0	0	22	6733
2026-01-02 11:51:59.97	155.02	7.06	-30.7	-37.2	5.1	7.10e-01	0	41	104	0	22	7576
2026-01-02 11:52:00.98	155.02	7.14	-30.8	-37.1	13.9	6.09e-01	0	41	104	0	22	7435
2026-01-02 11:52:01.99	155.01	7.22	-30.6	-35.7	15.1	6.07e-01	0	41	0	1572864	22	6514
2026-01-02 11:52:02.99	155.00	7.31	-30.9	-37.5	13.6	6.09e-01	0	41	0	3670016	22	7697
2026-01-02 11:52:03.99	154.99	7.39	-30.6	-36.2	14.7	6.05e-01	0	41	0	5242880	22	6822
2026-01-02 11:52:04.99	154.98	7.47	-30.3	-34.9	15.7	6.06e-01	0	41	0	7340032	22	6139
2026-01-02 11:52:05.99	154.98	7.56	-30.1	-34.6	15.8	6.09e-01	0	41	0	8912896	22	6037
2026-01-02 11:52:06.99	154.97	7.64	-30.0	-34.2	16.1	6.08e-01	0	41	0	11010048	22	5825
2026-01-02 11:52:07.99	154.96	7.73	-29.8	-34.2	16.4	6.08e-01	0	41	0	13107200	21	5970
2026-01-02 11:52:09.00	154.95	7.81	-29.9	-34.4	16.3	6.05e-01	0	41	0	14680064	21	6046
2026-01-02 11:52:10.00	154.94	7.90	-29.9	-34.4	16.3	6.06e-01	0	41	0	16777216	21	6070
2026-01-02 11:52:11.00	154.94	7.98	-30.2	-35.5	15.5	6.09e-01	0	41	0	18350080	21	6604
2026-01-02 11:52:12.01	154.93	8.07	-29.8	-34.2	16.4	6.05e-01	0	41	0	20447232	21	5954
2026-01-02 11:52:13.01	154.92	8.16	-29.7	-33.8	16.7	6.07e-01	0	41	0	22020096	21	5775
2026-01-02 11:52:14.02	154.91	8.24	-29.7	-33.6	16.9	6.07e-01	0	41	0	24117248	21	5632
2026-01-02 11:52:15.02	154.90	8.33	-29.5	-32.9	17.4	6.07e-01	0	41	0	26214400	21	5310
2026-01-02 11:52:16.02	154.89	8.42	-29.5	-32.9	17.5	6.07e-01	0	41	0	27787264	21	5330
2026-01-02 11:52:17.03	154.88	8.51	-29.6	-33.1	17.4	6.03e-01	0	41	0	29884416	21	5386
2026-01-02 11:52:18.03	154.87	8.59	-29.6	-33.0	17.6	6.06e-01	0	41	0	31457280	21	5301
2026-01-02 11:52:19.03	154.87	8.68	-29.6	-33.1	17.5	6.05e-01	0	41	0	33554432	21	5349
2026-01-02 11:52:20.03	154.86	8.77	-29.5	-32.7	17.7	6.06e-01	0	41	0	35651584	21	5219
2026-01-02 11:52:21.04	154.85	8.86	-29.8	-33.5	17.3	6.08e-01	0	41	0	37224448	21	5523
2026-01-02 11:52:22.04	154.84	8.95	-29.7	-33.2	17.5	6.07e-01	0	41	0	39321600	21	5367
2026-01-02 11:52:23.05	154.83	9.04	-29.6	-32.8	17.7	6.07e-01	0	42	0	40894464	21	5206
2026-01-02 11:52:24.05	154.82	9.13	-29.6	-32.9	17.7	6.08e-01	0	42	0	42991616	21	5266
2026-01-02 11:52:25.06	154.81	9.22	-29.7	-33.1	17.5	6.05e-01	0	41	0	45088768	21	5355
2026-01-02 11:52:26.06	154.80	9.31	-29.6	-32.9	17.6	6.05e-01	0	42	0	46661632	21	5281
2026-01-02 11:52:27.06	154.79	9.40	-29.6	-32.8	17.8	6.08e-01	0	42	0	48758784	21	5216
2026-01-02 11:52:28.06	154.78	9.49	-29.7	-33.0	17.7	6.07e-01	0	42	0	50331648	21	5280
2026-01-02 11:52:29.06	154.77	9.58	-29.6	-32.8	17.7	6.04e-01	0	42	0	52428800	21	5226
2026-01-02 11:52:30.05	154.76	9.68	-29.5	-32.7	17.8	6.05e-01	0	42	0	54001664	21	5205
2026-01-02 11:52:31.06	154.75	9.77	-29.6	-32.9	17.7	6.05e-01	0	42	0	56098816	21	5269
2026-01-02 11:52:32.06	154.74	9.86	-29.4	-32.5	18.0	6.05e-01	0	42	0	58195968	21	5120
2026-01-02 11:52:33.06	154.73	9.95	-29.5	-32.7	17.8	6.07e-01	0	42	0	59768832	21	5189
2026-01-02 11:52:34.06	154.72	10.05	-29.4	-32.4	18.0	6.06e-01	0	42	0	61865984	21	5065
2026-01-02 11:52:35.06	154.71	10.14	-29.5	-32.5	18.0	6.05e-01	0	42	0	63438848	21	5128
2026-01-02 11:52:36.06	154.70	10.24	-29.7	-33.1	17.6	6.06e-01	0	42	0	65536000	21	5350
2026-01-02 11:52:37.07	154.69	10.33	-29.5	-32.6	18.0	6.05e-01	0	42	0	67108864	21	5118
2026-01-02 11:52:38.07	154.68	10.43	-29.6	-32.9	17.8	6.06e-01	0	42	0	69206016	21	5237
2026-01-02 11:52:39.07	154.67	10.52	-29.6	-32.9	17.8	6.07e-01	0	42	0	71303168	21	5271
2026-01-02 11:52:40.07	154.66	10.62	-29.7	-33.0	17.7	6.06e-01	0	42	0	72876032	21	5264
2026-01-02 11:52:41.07	154.65	10.72	-29.7	-33.0	17.7	6.06e-01	0	42	0	74973184	21	5294
2026-01-02 11:52:42.07	154.64	10.81	-29.8	-33.5	17.4	6.07e-01	0	42	0	76546048	21	5472
2026-01-02 11:52:43.07	154.63	10.91	-29.8	-33.4	17.5	6.05e-01	0	42	0	78643200	21	5450
2026-01-02 11:52:44.07	154.61	11.01	-29.7	-33.0	17.8	6.05e-01	0	42	0	80216064	21	5264
2026-01-02 11:52:45.08	154.60	11.11	-29.8	-33.1	17.7	6.06e-01	0	42	0	82313216	21	5302
2026-01-02 11:52:46.08	154.59	11.21	-29.7	-32.8	18.0	6.07e-01	0	42	0	84410368	21	5181
2026-01-02 11:52:47.08	154.58	11.30	-29.5	-32.4	18.2	6.08e-01	0	42	0	85983232	21	5030
2026-01-02 11:52:48.09	154.57	11.41	-29.8	-33.1	17.8	6.07e-01	0	42	0	88080384	21	5293
2026-01-02 11:52:49.09	154.56	11.51	-29.8	-33.2	17.7	6.05e-01	0	42	0	90177536	21	5323
2026-01-02 11:52:50.09	154.55	11.61	-30.0	-33.7	17.4	6.07e-01	0	42	0	91750400	21	5503
2026-01-02 11:52:51.10	154.53	11.71	-29.7	-32.9	17.9	6.07e-01	0	42	0	93847552	21	5208
2026-01-02 11:52:52.09	154.52	11.81	-30.0	-33.7	17.5	6.05e-01	0	42	0	95420416	21	5509
2026-01-02 11:52:53.10	154.51	11.91	-30.5	-35.2	16.7	6.06e-01	0	42	0	97517568	21	6218
2026-01-02 11:52:54.10	154.50	12.01	-30.0	-33.7	17.5	6.07e-01	0	42	0	99090432	21	5497
2026-01-02 11:52:55.11	154.48	12.12	-29.7	-32.9	18.0	6.06e-01	0	42	0	101187584	21	5189
2026-01-02 11:52:56.11	154.47	12.22	-29.5	-32.4	18.4	6.06e-01	0	42	0	103284736	21	4972
2026-01-02 11:52:57.10	154.46	12.32	-29.5	-32.2	18.5	6.06e-01	0	42	0	104857600	21	4897
2026-01-02 11:52:58.11	154.45	12.43	-29.3	-32.2	18.8	6.06e-01	0	42	0	106954752	20	5023
2026-01-02 11:52:59.11	154.43	12.53	-29.3	-32.2	18.8	6.06e-01	0	42	0	108527616	20	5005
2026-01-02 11:53:00.11	154.42	12.64	-29.3	-32.1	18.9	6.05e-01	0	42	0	110624768	20	4986
2026-01-02 11:53:01.12	154.41	12.75	-29.3	-32.2	18.8	6.06e-01	0	42	0	112197632	20	5020
2026-01-02 11:53:02.11	154.39	12.85	-29.3	-32.1	18.9	6.07e-01	0	42	0	114294784	20	4986
2026-01-02 11:53:03.12	154.38	12.96	-29.3	-32.2	18.8	6.08e-01	0	42	0	116391936	20	5030
2026-01-02 11:53:04.12	154.37	13.07	-29.2	-32.0	19.0	6.05e-01	0	42	0	117964800	20	4941
2026-01-02 11:53:05.13	154.35	13.17	-29.3	-32.2	18.8	6.07e-01	0	42	0	120061952	20	5038
2026-01-02 11:53:06.13	154.34	13.28	-29.3	-32.2	18.8	6.04e-01	0	42	0	122159104	20	5029
2026-01-02 11:53:07.14	154.33	13.39	-29.3	-32.3	18.8	6.05e-01	0	42	0	123731968	20	5063
2026-01-02 11:53:08.14	154.31	13.50	-29.3	-32.3	18.7	6.04e-01	0	42	0	125829120	20	5077
2026-01-02 11:53:09.14	154.30	13.61	-29.2	-32.1	18.9	6.07e-01	0	42	0	127401984	20	5015
2026-01-02 11:53:10.14	154.28	13.72	-29.2	-32.1	18.9	6.06e-01	0	42	0	129499136	20	4995
2026-01-02 11:53:11.15	154.27	13.84	-29.2	-32.0	18.9	6.07e-01	0	42	0	131072000	20	4973
2026-01-02 11:53:12.15	154.26	13.95	-29.3	-32.3	18.8	6.06e-01	0	42	0	133169152	20	5074
2026-01-02 11:53:13.15	154.24	14.06	-29.3	-32.2	18.9	6.06e-01	0	43	0	135266304	20	5027
2026-01-02 11:53:14.16	154.23	14.17	-29.4	-32.5	18.6	6.07e-01	0	42	0	136839168	20	5157
2026-01-02 11:53:15.16	154.21	14.29	-29.3	-32.0	19.0	6.05e-01	0	42	0	138936320	20	4956
2026-01-02 11:53:16.16	154.20	14.40	-29.2	-31.9	19.1	6.06e-01	0	43	0	140509184	20	4887
2026-01-02 11:53:17.16	154.18	14.52	-29.2	-31.8	19.2	6.09e-01	0	42	0	142606336	20	4863
2026-01-02 11:53:18.17	154.16	14.63	-29.2	-31.9	19.2	6.06e-01	0	42	0	144179200	20	4898
2026-01-02 11:53:19.17	154.15	14.75	-29.2	-31.8	19.2	6.07e-01	0	43	0	146276352	20	4863
2026-01-02 11:53:20.17	154.13	14.86	-29.1	-31.6	19.4	6.08e-01	0	42	0	148373504	20	4800
2026-01-02 11:53:21.18	154.12	14.98	-29.2	-31.8	19.2	6.07e-01	0	43	0	149946368	20	4881
2026-01-02 11:53:22.18	154.10	15.10	-29.1	-31.6	19.3	6.07e-01	0	43	0	152043520	20	4800
2026-01-02 11:53:23.19	154.08	15.22	-29.2	-31.8	19.2	6.04e-01	0	42	0	153616384	20	4876
2026-01-02 11:53:24.19	154.07	15.34	-29.3	-32.2	19.0	6.05e-01	0	43	0	155713536	20	5017
2026-01-02 11:53:25.20	154.05	15.46	-29.2	-31.9	19.1	6.07e-01	0	42	0	157810688	20	4923
2026-01-02 11:53:26.20	154.04	15.58	-29.3	-32.0	19.1	6.06e-01	0	42	0	159383552	20	4937
2026-01-02 11:53:27.20	154.02	15.70	-29.4	-32.4	18.9	6.06e-01	0	42	0	161480704	20	5078
2026-01-02 11:53:28.21	154.00	15.82	-29.5	-32.6	18.8	6.07e-01	0	43	0	163053568	20	5144
2026-01-02 11:53:29.21	153.98	15.95	-29.5	-32.7	18.7	6.05e-01	0	43	0	165150720	20	5197
2026-01-02 11:53:30.22	153.97	16.07	-29.4	-32.5	18.9	6.06e-01	0	42	0	167247872	20	5104
2026-01-02 11:53:31.21	153.95	16.19	-29.3	-32.0	19.2	6.06e-01	0	43	0	168820736	20	4935
2026-01-02 11:53:32.22	153.93	16.32	-29.4	-32.5	18.9	6.07e-01	0	43	0	170917888	20	5107
2026-01-02 11:53:33.22	153.91	16.44	-29.5	-32.7	18.7	6.06e-01	0	43	0	172490752	20	5203
2026-01-02 11:53:34.22	153.90	16.57	-29.4	-32.4	18.9	6.08e-01	0	43	0	174587904	20	5075
2026-01-02 11:53:35.23	153.88	16.70	-29.3	-32.2	19.1	6.07e-01	0	43	0	176160768	20	5011
2026-01-02 11:53:36.23	153.86	16.82	-29.3	-32.2	19.1	6.06e-01	0	43	0	178257920	20	4993
2026-01-02 11:53:37.23	153.84	16.95	-29.3	-32.0	19.2	6.05e-01	0	43	0	180355072	20	4927
2026-01-02 11:53:38.23	153.82	17.08	-29.3	-32.0	19.2	6.04e-01	0	43	0	181927936	20	4935
2026-01-02 11:53:39.23	153.80	17.21	-29.4	-32.3	19.0	6.08e-01	0	43	0	184025088	20	5039
2026-01-02 11:53:40.24	153.78	17.34	-29.4	-32.2	19.2	6.05e-01	0	43	0	185597952	20	4964
2026-01-02 11:53:41.25	153.76	17.47	-29.3	-32.1	19.2	6.05e-01	0	43	0	187695104	20	4937
2026-01-02 11:53:42.25	153.74	17.60	-29.4	-32.3	19.1	6.07e-01	0	43	0	189792256	20	5020
2026-01-02 11:53:43.25	153.72	17.74	-29.4	-32.1	19.2	6.07e-01	0	43	0	191365120	20	4952
2026-01-02 11:53:44.25	153.70	17.87	-29.4	-32.2	19.2	6.06e-01	0	43	0	193462272	20	4985
2026-01-02 11:53:45.26	153.68	18.01	-29.2	-31.8	19.4	6.04e-01	0	43	0	195035136	20	4820
2026-01-02 11:53:46.26	153.66	18.14	-29.3	-31.8	19.5	6.06e-01	0	43	0	197132288	20	4836
2026-01-02 11:53:47.26	153.64	18.28	-29.4	-32.1	19.3	6.07e-01	0	43	0	198705152	20	4943
2026-01-02 11:53:48.26	153.62	18.41	-29.2	-31.7	19.5	6.07e-01	0	43	0	200802304	20	4796
2026-01-02 11:53:49.27	153.60	18.55	-29.3	-31.8	19.5	6.07e-01	0	43	0	202899456	20	4820
2026-01-02 11:53:50.26	153.58	18.69	-29.3	-31.9	19.5	6.06e-01	0	43	0	204472320	20	4844
2026-01-02 11:53:51.27	153.55	18.83	-29.5	-32.4	19.2	6.05e-01	0	43	0	206569472	20	5020
2026-01-02 11:53:52.27	153.53	18.97	-29.5	-32.3	19.2	6.07e-01	0	43	0	208142336	20	4986
2026-01-02 11:53:53.28	153.51	19.11	-29.5	-32.3	19.2	6.06e-01	0	43	0	210239488	20	4991
2026-01-02 11:53:54.27	153.49	19.25	-29.6	-32.6	19.1	6.05e-01	0	43	0	212336640	20	5098
2026-01-02 11:53:55.27	153.47	19.39	-29.6	-32.6	19.1	6.06e-01	0	43	0	213909504	20	5098
2026-01-02 11:53:56.27	153.44	19.54	-29.6	-32.7	19.0	6.07e-01	0	43	0	216006656	20	5128
2026-01-02 11:53:57.27	153.42	19.68	-29.8	-33.2	18.7	6.05e-01	0	43	0	217579520	20	5330
2026-01-02 11:53:58.27	153.40	19.83	-29.8	-33.0	18.8	6.06e-01	0	43	0	219676672	20	5246
2026-01-02 11:53:59.28	153.37	19.97	-29.8	-33.2	18.8	6.09e-01	0	43	0	221249536	20	5301
2026-01-02 11:54:00.28	153.35	20.12	-29.8	-33.1	18.8	6.05e-01	0	43	0	223346688	20	5264
2026-01-02 11:54:01.28	153.32	20.27	-29.6	-32.7	19.0	6.06e-01	0	43	0	225443840	20	5138
2026-01-02 11:54:02.29	153.30	20.42	-29.6	-32.6	19.1	6.08e-01	0	43	0	227016704	20	5099
2026-01-02 11:54:03.29	153.27	20.57	-29.6	-32.7	19.0	6.08e-01	0	43	0	229113856	20	5139
2026-01-02 11:54:04.29	153.25	20.72	-29.7	-32.9	18.9	6.05e-01	0	43	0	230686720	20	5208
2026-01-02 11:54:05.29	153.22	20.87	-29.6	-32.7	19.1	6.07e-01	0	43	0	232783872	20	5128
2026-01-02 11:54:06.29	153.20	21.02	-29.5	-32.5	19.1	6.05e-01	0	43	0	234881024	20	5080
2026-01-02 11:54:07.29	153.17	21.18	-29.6	-32.6	19.2	6.05e-01	0	43	0	236453888	20	5089
2026-01-02 11:54:08.28	153.15	21.33	-29.7	-32.8	19.0	6.08e-01	0	43	0	238551040	20	5191
2026-01-02 11:54:09.29	153.12	21.49	-29.8	-33.3	18.7	6.07e-01	0	43	0	240123904	20	5347
2026-01-02 11:54:10.29	153.09	21.65	-29.7	-32.8	19.1	6.05e-01	0	43	0	242221056	20	5150
2026-01-02 11:54:11.29	153.06	21.81	-29.6	-32.4	19.3	6.07e-01	0	43	0	243793920	20	5010
2026-01-02 11:54:12.29	153.04	21.96	-29.5	-32.2	19.5	6.07e-01	0	43	0	245891072	20	4925
2026-01-02 11:54:13.30	153.01	22.13	-29.4	-32.0	19.6	6.05e-01	0	43	0	247988224	20	4863
2026-01-02 11:54:14.31	152.98	22.29	-29.5	-32.2	19.5	6.06e-01	0	43	0	249561088	20	4924
2026-01-02 11:54:15.31	152.95	22.45	-29.5	-32.2	19.5	6.07e-01	0	43	0	251658240	20	4924
2026-01-02 11:54:16.31	152.92	22.62	-29.6	-32.4	19.4	6.06e-01	0	43	0	253231104	20	4995
2026-01-02 11:54:17.31	152.89	22.78	-29.4	-32.0	19.6	6.05e-01	0	43	0	255328256	20	4867
2026-01-02 11:54:18.31	152.86	22.95	-29.4	-31.9	19.7	6.06e-01	0	43	0	257425408	20	4817
2026-01-02 11:54:19.32	152.83	23.12	-29.4	-32.0	19.7	6.06e-01	0	43	0	258998272	20	4835
2026-01-02 11:54:20.32	152.80	23.28	-29.5	-32.2	19.5	6.07e-01	0	43	0	261095424	20	4914
2026-01-02 11:54:21.32	152.77	23.45	-29.6	-32.4	19.4	6.07e-01	0	43	0	262668288	20	4978
2026-01-02 11:54:22.33	152.74	23.63	-29.7	-32.7	19.3	6.06e-01	0	43	0	264765440	20	5079
2026-01-02 11:54:23.33	152.71	23.80	-29.5	-32.2	19.5	6.06e-01	0	43	0	266862592	20	4928
2026-01-02 11:54:24.33	152.68	23.97	-29.5	-32.3	19.5	6.08e-01	0	43	0	268435456	20	4935
2026-01-02 11:54:25.33	152.64	24.14	-29.5	-32.2	19.6	6.05e-01	0	43	0	270532608	20	4901
2026-01-02 11:54:26.33	152.61	24.32	-29.5	-32.2	19.6	6.06e-01	0	43	0	272105472	20	4917
2026-01-02 11:54:27.34	152.58	24.50	-29.5	-32.2	19.6	6.06e-01	0	43	0	274202624	20	4907
2026-01-02 11:54:28.34	152.54	24.68	-29.6	-32.5	19.4	6.07e-01	0	43	0	275775488	20	5023
2026-01-02 11:54:29.35	152.51	24.86	-29.7	-32.7	19.3	6.08e-01	0	43	0	277872640	20	5082
2026-01-02 11:54:30.35	152.47	25.04	-29.6	-32.5	19.4	6.04e-01	0	43	0	279969792	20	5003
2026-01-02 11:54:31.37	152.44	25.23	-29.7	-32.7	19.3	6.06e-01	0	43	0	281542656	20	5080
2026-01-02 11:54:32.37	152.40	25.41	-29.9	-33.2	19.0	6.05e-01	0	43	0	283639808	20	5255
2026-01-02 11:54:33.37	152.37	25.59	-29.6	-32.5	19.5	6.08e-01	0	43	0	285212672	20	5011
2026-01-02 11:54:34.37	152.33	25.78	-29.6	-32.5	19.4	6.07e-01	0	43	0	287309824	20	5028
2026-01-02 11:54:35.37	152.29	25.97	-29.9	-33.2	19.0	6.06e-01	0	43	0	289406976	20	5280
2026-01-02 11:54:36.36	152.26	26.16	-29.8	-32.8	19.3	6.06e-01	0	43	0	290979840	20	5129
2026-01-02 11:54:37.37	152.22	26.35	-29.8	-33.0	19.2	6.07e-01	0	43	0	293076992	20	5195
2026-01-02 11:54:38.37	152.18	26.54	-29.7	-32.6	19.4	6.04e-01	0	43	0	294649856	20	5051
2026-01-02 11:54:39.37	152.14	26.73	-29.7	-32.7	19.4	6.06e-01	0	43	0	296747008	20	5082
2026-01-02 11:54:40.37	152.10	26.93	-29.7	-32.6	19.4	6.08e-01	0	43	0	298319872	20	5048
2026-01-02 11:54:41.37	152.06	27.13	-29.6	-32.3	19.6	6.03e-01	0	43	0	300417024	20	4929
2026-01-02 11:54:42.38	152.02	27.33	-29.4	-31.9	19.9	6.06e-01	0	43	0	302514176	20	4800
2026-01-02 11:54:43.37	151.98	27.52	-29.4	-31.8	20.0	6.09e-01	0	43	0	304087040	20	4746
2026-01-02 11:54:44.37	151.94	27.72	-29.3	-31.6	20.1	6.07e-01	0	43	0	306184192	20	4688
2026-01-02 11:54:45.37	151.89	27.93	-29.1	-31.2	20.3	6.05e-01	0	43	0	307757056	20	4558
2026-01-02 11:54:46.37	151.85	28.13	-29.1	-31.0	20.4	6.05e-01	0	43	0	309854208	20	4505
2026-01-02 11:54:47.37	151.81	28.34	-29.1	-31.2	20.3	6.06e-01	0	43	0	311427072	20	4553
2026-01-02 11:54:48.38	151.76	28.55	-29.2	-31.3	20.3	6.07e-01	0	43	0	313524224	20	4588
2026-01-02 11:54:49.38	151.72	28.76	-29.3	-31.6	20.1	6.05e-01	0	43	0	315621376	20	4693
2026-01-02 11:54:50.38	151.67	28.97	-29.3	-31.7	20.1	6.08e-01	0	43	0	317194240	20	4716
2026-01-02 11:54:51.38	151.63	29.18	-29.4	-31.9	19.9	6.08e-01	0	43	0	319291392	20	4780
2026-01-02 11:54:52.38	151.58	29.39	-29.3	-31.6	20.1	6.09e-01	0	43	0	320864256	20	4687
2026-01-02 11:54:53.39	151.53	29.61	-29.2	-31.3	20.3	6.05e-01	0	43	0	322961408	20	4592
2026-01-02 11:54:54.39	151.48	29.83	-29.1	-31.2	20.3	6.05e-01	0	43	0	325058560	20	4567
2026-01-02 11:54:55.39	151.43	30.05	-29.2	-31.3	20.3	6.06e-01	0	43	0	326631424	20	4585
2026-01-02 11:54:56.39	151.38	30.27	-29.1	-31.2	20.4	6.09e-01	0	43	0	328728576	20	4551
2026-01-02 11:54:57.39	151.33	30.49	-29.0	-30.7	20.7	6.04e-01	0	43	0	330301440	20	4412
2026-01-02 11:54:58.39	151.28	30.72	-29.1	-31.2	20.4	6.07e-01	0	43	0	332398592	20	4552
2026-01-02 11:54:59.39	151.23	30.95	-29.3	-31.5	20.2	6.06e-01	0	43	0	334495744	20	4664
2026-01-02 11:55:00.39	151.18	31.18	-29.3	-31.7	20.1	6.06e-01	0	43	0	336068608	20	4709
2026-01-02 11:55:01.39	151.12	31.41	-29.3	-31.6	20.1	6.05e-01	0	43	0	338165760	20	4695
2026-01-02 11:55:02.39	151.07	31.64	-29.2	-31.3	20.3	6.05e-01	0	43	0	339738624	20	4585
2026-01-02 11:55:03.23	151.02	31.84	-29.2	-31.2	20.4	6.06e-01	0	43	0	341835776	20	4563
2026-01-02 11:55:04.38	150.96	32.11	-29.2	-31.2	20.4	6.07e-01	0	43	0	343932928	20	4564
2026-01-02 11:55:05.24	150.91	32.31	-29.2	-31.4	20.2	6.06e-01	0	43	0	345505792	20	4609
2026-01-02 11:55:06.39	150.84	32.59	-29.3	-31.7	20.2	6.09e-01	0	43	0	347602944	20	4702
2026-01-02 11:55:07.25	150.79	32.80	-29.4	-31.8	20.0	6.06e-01	0	43	0	349175808	20	4764
2026-01-02 11:55:08.40	150.72	33.08	-29.3	-31.5	20.2	6.07e-01	0	43	0	351272960	20	4646
2026-01-02 11:55:09.25	150.67	33.29	-29.3	-31.4	20.3	6.06e-01	0	43	0	352845824	20	4631
2026-01-02 11:55:10.39	150.60	33.57	-29.3	-31.7	20.1	6.08e-01	0	43	0	354942976	20	4703
2026-01-02 11:55:11.25	150.55	33.79	-29.6	-32.3	19.8	6.07e-01	0	43	0	356515840	20	4925
2026-01-02 11:55:12.40	150.47	34.08	-29.7	-32.6	19.6	6.07e-01	0	43	0	359137280	20	5026
2026-01-02 11:55:13.26	150.42	34.30	-29.7	-32.5	19.6	6.06e-01	0	43	0	360710144	20	4993
2026-01-02 11:55:14.40	150.34	34.59	-29.6	-32.5	19.7	6.07e-01	0	43	0	362807296	20	4994
2026-01-02 11:55:15.26	150.28	34.81	-29.6	-32.3	19.8	6.07e-01	0	43	0	364380160	20	4946
2026-01-02 11:55:16.41	150.20	35.11	-29.6	-32.3	19.8	6.08e-01	0	43	0	366477312	20	4922
2026-01-02 11:55:17.28	150.14	35.34	-29.7	-32.7	19.5	6.07e-01	0	43	0	368050176	20	5078
2026-01-02 11:55:18.43	150.06	35.65	-29.9	-33.2	19.2	6.05e-01	0	43	0	370147328	20	5260
2026-01-02 11:55:19.29	150.00	35.88	-30.0	-33.5	19.1	6.06e-01	0	43	0	371720192	20	5341
2026-01-02 11:55:20.44	149.91	36.19	-30.2	-33.4	18.9	6.06e-01	0	43	0	373817344	21	5194
2026-01-02 11:55:21.29	149.85	36.43	-30.3	-33.7	18.7	6.05e-01	0	43	0	375390208	21	5306
2026-01-02 11:55:22.44	149.76	36.74	-30.3	-33.7	18.7	6.05e-01	0	43	0	377487360	21	5309
2026-01-02 11:55:23.30	149.70	36.98	-30.2	-33.3	18.9	6.06e-01	0	43	0	379584512	21	5149
2026-01-02 11:55:24.44	149.61	37.30	-30.3	-33.8	18.7	6.07e-01	0	43	0	381681664	21	5335
2026-01-02 11:55:25.29	149.54	37.54	-30.5	-34.1	18.4	6.05e-01	0	43	0	383254528	21	5495
2026-01-02 11:55:26.44	149.44	37.87	-30.5	-34.2	18.4	6.06e-01	0	43	0	385351680	21	5501
2026-01-02 11:55:27.29	149.37	38.12	-30.5	-34.2	18.4	6.06e-01	0	43	0	386924544	21	5513
2026-01-02 11:55:28.44	149.27	38.45	-30.4	-33.8	18.6	6.06e-01	0	43	0	389021696	21	5373
2026-01-02 11:55:29.30	149.20	38.70	-30.4	-34.0	18.5	6.06e-01	0	43	0	390594560	21	5442
2026-01-02 11:55:30.45	149.10	39.04	-30.5	-34.1	18.4	6.06e-01	0	43	0	392691712	21	5482
2026-01-02 11:55:31.30	149.02	39.30	-30.5	-34.1	18.5	6.07e-01	0	43	0	394264576	21	5450
2026-01-02 11:55:32.45	148.92	39.65	-30.6	-34.0	18.2	6.08e-01	0	43	0	396361728	22	5314
2026-01-02 11:55:33.31	148.84	39.91	-30.7	-34.3	18.1	6.07e-01	0	43	0	397934592	22	5414
2026-01-02 11:55:34.46	148.73	40.26	-30.6	-33.9	18.3	6.06e-01	0	43	0	400031744	22	5270
2026-01-02 11:55:35.32	148.64	40.53	-30.4	-33.4	18.7	6.06e-01	0	43	0	402128896	22	5072
2026-01-02 11:55:36.47	148.53	40.88	-30.5	-33.6	18.6	6.06e-01	0	43	0	404226048	22	5134
2026-01-02 11:55:37.34	148.44	41.16	-30.5	-33.6	18.5	6.04e-01	0	43	0	405798912	22	5133
2026-01-02 11:55:38.48	148.32	41.52	-30.4	-33.3	18.7	6.08e-01	0	43	0	407896064	22	5033
2026-01-02 11:55:39.34	148.23	41.80	-30.3	-33.2	18.8	6.05e-01	0	43	0	409468928	22	4988
2026-01-02 11:55:40.48	148.11	42.17	-30.3	-33.1	18.8	6.06e-01	0	43	0	411566080	22	4985
2026-01-02 11:55:41.34	148.01	42.45	-30.4	-33.3	18.7	6.07e-01	0	43	0	413138944	22	5027
2026-01-02 11:55:42.48	147.88	42.82	-30.3	-33.1	18.8	6.06e-01	0	43	0	415236096	22	4977
2026-01-02 11:55:43.34	147.78	43.11	-30.1	-32.7	19.1	6.07e-01	0	43	0	416808960	22	4826
2026-01-02 11:55:44.48	147.65	43.49	-29.8	-32.2	19.7	6.07e-01	0	43	0	418906112	21	4753
2026-01-02 11:55:45.34	147.54	43.78	-29.7	-32.1	19.7	6.05e-01	0	43	0	420478976	21	4737
2026-01-02 11:55:46.49	147.40	44.17	-29.9	-32.4	19.6	6.05e-01	0	43	0	423100416	21	4841
2026-01-02 11:55:47.34	147.30	44.46	-29.9	-32.4	19.5	6.05e-01	0	43	0	424673280	21	4837
2026-01-02 11:55:48.49	147.15	44.86	-29.8	-32.3	19.7	6.07e-01	0	43	0	426770432	21	4778
2026-01-02 11:55:49.35	147.03	45.17	-29.8	-32.3	19.6	6.07e-01	0	43	0	428343296	21	4809
2026-01-02 11:55:50.49	146.88	45.57	-30.1	-33.1	19.2	6.05e-01	0	43	0	430440448	21	5061
2026-01-02 11:55:51.35	146.76	45.87	-29.9	-32.6	19.4	6.06e-01	0	43	0	432013312	21	4911
2026-01-02 11:55:52.49	146.60	46.28	-29.5	-31.6	20.1	6.06e-01	0	43	0	434110464	21	4562
2026-01-02 11:55:53.36	146.48	46.60	-29.7	-32.1	19.8	6.04e-01	0	43	0	435683328	21	4719
2026-01-02 11:55:54.51	146.30	47.02	-29.8	-32.4	19.6	6.07e-01	0	43	0	437780480	21	4820
2026-01-02 11:55:55.37	146.17	47.34	-29.7	-32.0	19.8	6.07e-01	0	43	0	439353344	21	4694
2026-01-02 11:55:56.52	146.00	47.77	-29.9	-32.4	19.6	6.06e-01	0	43	0	441450496	21	4835
2026-01-02 11:55:57.38	145.86	48.09	-29.8	-32.3	19.7	6.06e-01	0	43	0	443023360	21	4789
2026-01-02 11:55:58.52	145.67	48.52	-29.9	-32.4	19.6	6.05e-01	0	43	0	445644800	21	4840
2026-01-02 11:55:59.38	145.53	48.85	-29.8	-32.2	19.7	6.08e-01	0	43	0	447217664	21	4750
2026-01-02 11:56:00.52	145.33	49.29	-29.7	-31.9	19.9	6.06e-01	0	43	0	449314816	21	4675
2026-01-02 11:56:01.39	145.18	49.62	-30.0	-32.7	19.5	6.07e-01	0	43	0	450887680	21	4933
2026-01-02 11:56:02.53	144.97	50.07	-30.2	-33.3	19.1	6.07e-01	0	43	0	452984832	21	5140
2026-01-02 11:56:03.39	144.81	50.41	-29.9	-32.6	19.5	6.06e-01	0	43	0	454557696	21	4906
2026-01-02 11:56:04.53	144.59	50.86	-29.9	-32.5	19.6	6.05e-01	0	43	0	456654848	21	4873
2026-01-02 11:56:05.39	144.42	51.21	-30.0	-32.8	19.4	6.05e-01	0	43	0	458227712	21	4966
2026-01-02 11:56:06.54	144.19	51.67	-29.7	-32.1	19.8	6.05e-01	0	43	0	460324864	21	4726
2026-01-02 11:56:07.40	144.01	52.02	-29.9	-32.5	19.5	6.05e-01	0	43	0	461897728	21	4879
2026-01-02 11:56:08.56	143.76	52.50	-29.8	-32.4	19.6	6.07e-01	0	43	0	463994880	21	4823
2026-01-02 11:56:09.42	143.57	52.85	-29.8	-32.4	19.7	6.04e-01	0	43	0	466092032	21	4837
2026-01-02 11:56:10.57	143.31	53.33	-29.5	-31.6	20.1	6.05e-01	0	43	0	468189184	21	4573
2026-01-02 11:56:11.43	143.11	53.69	-29.4	-31.6	20.4	6.06e-01	0	43	0	469762048	20	4684
2026-01-02 11:56:12.58	142.83	54.18	-29.5	-32.1	20.1	6.07e-01	0	43	0	471859200	20	4833
2026-01-02 11:56:13.43	142.62	54.54	-29.4	-31.7	20.3	6.05e-01	0	43	0	473432064	20	4692
2026-01-02 11:56:14.57	142.33	55.03	-29.3	-31.4	20.6	6.04e-01	0	43	0	475529216	20	4605
2026-01-02 11:56:15.43	142.10	55.40	-29.5	-32.0	20.2	6.06e-01	0	43	0	477102080	20	4792
2026-01-02 11:56:16.58	141.79	55.90	-29.7	-32.4	19.9	6.05e-01	0	43	0	479199232	20	4946
2026-01-02 11:56:17.43	141.55	56.28	-29.6	-32.3	20.0	6.07e-01	0	43	0	480772096	20	4908
2026-01-02 11:56:18.58	141.22	56.78	-30.2	-33.4	19.1	6.06e-01	0	43	0	482869248	21	5192
2026-01-02 11:56:19.44	140.96	57.17	-30.0	-32.7	19.5	6.07e-01	0	43	0	484442112	21	4914
2026-01-02 11:56:20.58	140.61	57.68	-30.0	-32.7	19.6	6.05e-01	0	43	0	486539264	21	4904
2026-01-02 11:56:21.44	140.33	58.06	-30.3	-33.4	19.1	6.07e-01	0	43	0	488112128	21	5177
2026-01-02 11:56:22.58	139.95	58.58	-30.3	-33.5	19.1	6.07e-01	0	43	0	490733568	21	5211
2026-01-02 11:56:23.45	139.65	58.97	-30.3	-33.5	19.0	6.05e-01	0	43	0	492306432	21	5239
2026-01-02 11:56:24.59	139.25	59.50	-30.4	-33.9	18.8	6.07e-01	0	43	0	494403584	21	5397
2026-01-02 11:56:25.45	138.93	59.89	-30.6	-33.9	18.5	6.06e-01	0	43	0	495976448	22	5247
2026-01-02 11:56:26.60	138.49	60.42	-30.4	-33.4	18.9	6.07e-01	0	43	0	498073600	22	5051
2026-01-02 11:56:27.46	138.15	60.82	-30.3	-33.0	19.1	6.07e-01	0	43	0	499646464	22	4923
2026-01-02 11:56:28.61	137.68	61.36	-30.5	-33.5	18.8	6.06e-01	0	43	0	501743616	22	5081
2026-01-02 11:56:29.47	137.31	61.76	-30.7	-34.0	18.5	6.06e-01	0	43	0	503316480	22	5277
2026-01-02 11:56:30.61	136.80	62.30	-30.3	-33.1	19.0	6.06e-01	0	43	0	505413632	22	4954
2026-01-02 11:56:31.47	136.40	62.71	-30.5	-33.6	18.8	6.06e-01	0	43	0	506986496	22	5128
2026-01-02 11:56:32.62	135.85	63.25	-30.8	-34.3	18.3	6.07e-01	0	43	0	509607936	22	5392
2026-01-02 11:56:33.48	135.42	63.66	-31.0	-34.8	18.0	6.05e-01	0	43	0	511180800	22	5610
2026-01-02 11:56:34.62	134.82	64.21	-31.6	-35.6	17.8	6.05e-01	0	43	0	513277952	23	5690
2026-01-02 11:56:35.48	134.35	64.62	-31.3	-35.3	17.4	6.05e-01	0	43	0	514850816	23	5686
2026-01-02 11:56:36.62	133.70	65.17	-31.7	-35.9	16.7	6.07e-01	0	43	0	516947968	24	5858
2026-01-02 11:56:37.48	133.19	65.58	-31.6	-35.7	16.8	6.05e-01	0	43	0	518520832	24	5765
2026-01-02 11:56:38.62	132.48	66.13	-31.9	-36.5	16.3	6.07e-01	0	43	0	520617984	24	6141
2026-01-02 11:56:39.48	131.92	66.54	-32.2	-37.0	15.5	6.08e-01	0	43	0	522190848	25	6276
2026-01-02 11:56:40.62	131.15	67.09	-31.8	-35.7	16.5	6.08e-01	0	43	0	524288000	25	5655
2026-01-02 11:56:41.48	130.54	67.50	-32.2	-37.0	15.6	6.08e-01	0	43	0	525860864	25	6267
2026-01-02 11:56:42.63	129.68	68.05	-32.1	-36.6	15.8	6.07e-01	0	43	0	527958016	25	6063
2026-01-02 11:56:43.49	129.01	68.47	-31.9	-36.0	16.3	6.04e-01	0	43	0	529530880	25	5778
2026-01-02 11:56:44.64	128.06	69.02	-32.3	-37.3	15.4	6.08e-01	0	43	0	531628032	25	6421
2026-01-02 11:56:45.50	127.32	69.43	-32.1	-36.6	15.7	6.06e-01	0	43	0	533725184	25	6088
2026-01-02 11:56:46.65	126.28	69.97	-31.9	-36.1	16.3	6.07e-01	0	43	0	535822336	25	5825
2026-01-02 11:56:47.52	125.44	70.38	-31.7	-35.4	16.7	6.05e-01	0	43	0	537395200	25	5509
2026-01-02 11:56:48.66	124.30	70.92	-32.3	-37.4	15.4	6.07e-01	0	43	0	539492352	25	6469
2026-01-02 11:56:49.52	123.38	71.32	-31.8	-35.6	16.6	6.05e-01	0	43	0	541065216	25	5604
2026-01-02 11:56:50.66	122.11	71.84	-31.9	-36.0	16.4	6.05e-01	0	43	0	543162368	25	5764
2026-01-02 11:56:51.52	121.10	72.23	-32.2	-37.0	15.6	6.06e-01	0	43	0	544735232	25	6284
2026-01-02 11:56:52.66	119.68	72.75	-31.7	-35.5	16.6	6.07e-01	0	43	0	546832384	25	5569
2026-01-02 11:56:53.52	118.55	73.13	-31.9	-35.9	16.4	6.05e-01	0	43	0	548405248	25	5733
2026-01-02 11:56:54.67	116.95	73.63	-31.9	-36.0	16.3	6.04e-01	0	43	0	550502400	25	5750
2026-01-02 11:56:55.53	115.69	74.00	-31.8	-35.8	16.5	6.06e-01	0	43	0	552075264	25	5673
2026-01-02 11:56:56.68	113.90	74.48	-32.0	-36.4	16.1	6.05e-01	0	43	0	554696704	25	5964
2026-01-02 11:56:57.54	112.49	74.83	-32.0	-36.5	16.0	6.07e-01	0	43	0	556269568	25	6021
2026-01-02 11:56:58.68	110.51	75.29	-31.3	-34.6	17.6	6.08e-01	0	43	0	558366720	24	5273
2026-01-02 11:56:59.54	108.93	75.62	-31.7	-35.9	16.8	6.04e-01	0	43	0	559939584	24	5847
2026-01-02 11:57:00.69	106.70	76.04	-31.7	-35.8	16.7	6.08e-01	0	43	0	562036736	24	5787
2026-01-02 11:57:01.55	104.94	76.35	-31.3	-34.5	17.7	6.07e-01	0	43	0	563609600	24	5244
2026-01-02 11:57:02.70	102.46	76.74	-31.9	-36.5	16.4	6.05e-01	0	43	0	565706752	24	6123
2026-01-02 11:57:03.57	100.48	77.01	-31.8	-36.3	16.5	6.05e-01	0	43	0	567279616	24	6012
2026-01-02 11:57:04.70	97.79	77.35	-31.1	-34.0	18.0	6.07e-01	0	43	0	569376768	24	5030
2026-01-02 11:57:05.56	95.64	77.59	-31.5	-35.1	17.4	6.07e-01	0	43	0	570949632	24	5468
2026-01-02 11:57:06.71	92.63	77.88	-31.5	-35.1	17.2	6.06e-01	0	43	0	573046784	24	5478
2026-01-02 11:57:07.57	90.29	78.08	-31.2	-34.3	17.9	6.07e-01	0	43	0	575143936	24	5136
2026-01-02 11:57:08.71	87.07	78.31	-32.0	-36.3	16.1	6.05e-01	0	43	0	576716800	25	5925
2026-01-02 11:57:09.58	84.53	78.46	-31.5	-34.8	17.2	6.06e-01	0	43	0	578813952	25	5263
2026-01-02 11:57:10.72	81.11	78.62	-31.2	-34.2	18.0	6.03e-01	0	43	0	580911104	24	5093
2026-01-02 11:57:11.58	78.47	78.72	-31.2	-34.4	17.8	6.05e-01	0	43	0	582483968	24	5181
2026-01-02 11:57:12.73	74.88	78.81	-31.2	-34.3	17.9	6.07e-01	0	43	0	584581120	24	5138
2026-01-02 11:57:13.60	72.13	78.85	-31.0	-33.7	18.3	6.06e-01	0	43	0	586153984	24	4915
2026-01-02 11:57:14.75	68.48	78.86	-31.3	-34.6	17.7	6.07e-01	0	43	0	588251136	24	5267
2026-01-02 11:57:15.61	65.75	78.84	-31.2	-34.3	17.9	6.07e-01	0	43	0	589824000	24	5158
2026-01-02 11:57:16.76	62.13	78.77	-31.3	-34.5	17.8	6.06e-01	0	43	0	591921152	24	5211
2026-01-02 11:57:17.62	59.45	78.70	-31.2	-34.3	17.8	6.06e-01	0	43	0	593494016	24	5138
2026-01-02 11:57:18.77	55.94	78.56	-31.3	-34.6	17.7	6.07e-01	0	43	0	596115456	24	5270
2026-01-02 11:57:19.63	53.39	78.43	-31.1	-34.0	18.0	6.05e-01	0	43	0	597688320	24	5038
2026-01-02 11:57:20.78	50.06	78.22	-31.1	-34.2	18.0	6.05e-01	0	43	0	599785472	24	5092
2026-01-02 11:57:21.64	47.66	78.04	-31.3	-34.5	17.7	6.07e-01	0	43	0	601358336	24	5235
2026-01-02 11:57:22.78	44.60	77.77	-31.3	-34.6	17.6	6.07e-01	0	43	0	603455488	24	5276
2026-01-02 11:57:23.64	42.39	77.54	-31.1	-34.1	18.0	6.07e-01	0	43	0	605028352	24	5068
2026-01-02 11:57:24.78	39.58	77.22	-30.9	-33.4	18.4	6.08e-01	0	43	0	607125504	24	4824
2026-01-02 11:57:25.64	37.56	76.96	-31.0	-34.2	18.2	6.06e-01	0	43	0	608698368	23	5212
2026-01-02 11:57:26.79	34.99	76.58	-31.3	-35.3	17.4	6.05e-01	0	43	0	610795520	23	5667
2026-01-02 11:57:27.64	33.19	76.29	-31.2	-34.9	17.7	6.06e-01	0	43	0	612368384	23	5526
2026-01-02 11:57:28.79	30.88	75.88	-31.3	-35.1	17.5	6.07e-01	0	43	0	614465536	23	5601
2026-01-02 11:57:29.65	29.24	75.56	-31.3	-35.2	17.5	6.05e-01	0	43	0	616038400	23	5622
2026-01-02 11:57:30.80	27.16	75.11	-32.0	-36.8	16.1	6.06e-01	0	43	0	618659840	24	6253
2026-01-02 11:57:31.66	25.70	74.77	-31.8	-36.1	16.6	6.06e-01	0	43	0	620232704	24	5944
2026-01-02 11:57:32.81	23.84	74.29	-31.6	-35.7	16.8	6.07e-01	0	43	0	622329856	24	5761
2026-01-02 11:57:33.67	22.53	73.93	-31.8	-36.2	16.5	6.06e-01	0	43	0	623902720	24	5983
2026-01-02 11:57:34.82	20.87	73.44	-32.0	-36.8	16.0	6.06e-01	0	43	0	625999872	24	6295
2026-01-02 11:57:35.68	19.70	73.06	-32.0	-37.0	15.9	6.07e-01	0	44	0	627572736	24	6380
2026-01-02 11:57:36.83	18.21	72.55	-32.2	-37.1	15.6	6.03e-01	0	43	0	629669888	25	6296
2026-01-02 11:57:37.70	17.15	72.15	-32.6	-38.4	14.5	6.10e-01	0	43	0	631242752	25	7067
2026-01-02 11:57:38.84	15.83	71.63	-32.3	-37.7	15.0	6.08e-01	0	43	0	633339904	25	6650
2026-01-02 11:57:39.70	14.89	71.24	-32.4	-37.9	14.9	6.07e-01	0	43	0	634912768	25	6797
2026-01-02 11:57:40.84	13.70	70.71	-32.5	-38.3	14.6	6.07e-01	0	43	0	637009920	25	6995
2026-01-02 11:57:41.70	12.85	70.30	-33.3	-40.8	11.9	6.13e-01	0	43	0	638582784	27	8530
2026-01-02 11:57:42.84	11.78	69.77	-33.3	-40.5	11.9	6.11e-01	0	43	0	641204224	27	8331
2026-01-02 11:57:43.70	11.01	69.36	-33.2	-40.1	12.4	6.11e-01	0	44	0	642777088	27	7985
2026-01-02 11:57:44.85	10.03	68.81	-33.6	-42.4	9.7	6.27e-01	0	43	0	644874240	28	9934
2026-01-02 11:57:45.71	9.34	68.40	-33.4	-41.4	10.6	6.19e-01	0	43	0	646447104	28	9036
2026-01-02 11:57:46.86	8.45	67.85	-33.1	-39.2	12.5	6.10e-01	0	43	0	648544256	28	7346
2026-01-02 11:57:47.72	7.82	67.44	-33.2	-40.1	11.8	6.12e-01	0	43	0	650117120	28	7981
2026-01-02 11:57:48.87	7.02	66.88	-33.2	-40.1	11.8	6.15e-01	0	43	0	652214272	28	7974
2026-01-02 11:57:49.73	6.44	66.47	-33.3	-41.0	11.0	6.18e-01	0	43	0	653787136	28	8723
2026-01-02 11:57:50.88	5.70	65.92	-32.9	-38.9	12.6	6.10e-01	0	43	0	655884288	28	7143
2026-01-02 11:57:51.74	5.18	65.51	-32.6	-37.7	14.1	6.11e-01	0	43	0	657457152	27	6482
2026-01-02 11:57:52.89	4.51	64.96	-32.5	-37.3	14.5	6.06e-01	0	43	0	660078592	27	6276
2026-01-02 11:57:53.75	4.02	64.55	-32.3	-37.2	14.9	6.05e-01	0	43	0	661651456	26	6301
2026-01-02 11:57:54.89	3.41	64.00	-31.3	-34.9	17.2	6.09e-01	0	43	0	663748608	24	5421
2026-01-02 11:57:55.76	2.96	63.59	-31.2	-34.4	17.6	6.08e-01	0	44	0	665321472	24	5223
2026-01-02 11:57:56.90	2.40	63.05	-31.2	-34.4	17.5	6.06e-01	0	43	0	667418624	24	5247
2026-01-02 11:57:57.76	1.99	62.64	-31.2	-34.7	17.4	6.07e-01	0	43	0	668991488	24	5353
2026-01-02 11:57:58.90	1.47	62.10	-31.1	-34.2	17.7	6.06e-01	0	43	0	671088640	24	5159
2026-01-02 11:57:59.76	1.09	61.70	-30.4	-32.7	18.9	6.06e-01	0	43	0	672661504	23	4706
2026-01-02 11:58:00.90	0.61	61.17	-30.3	-33.0	19.1	6.05e-01	0	43	0	674758656	22	4896
2026-01-02 11:58:01.76	0.26	60.77	-30.6	-33.9	18.5	6.06e-01	0	43	0	676331520	22	5251
2026-01-02 11:58:02.91	359.81	60.24	-30.7	-34.2	18.3	6.08e-01	0	43	0	678428672	22	5381
2026-01-02 11:58:03.77	359.49	59.84	-30.4	-33.3	18.8	6.05e-01	0	43	0	680525824	22	5017
2026-01-02 11:58:04.92	359.07	59.31	-30.2	-32.6	19.2	6.08e-01	0	44	0	682622976	22	4774
2026-01-02 11:58:05.78	358.77	58.92	-30.5	-33.6	18.7	6.06e-01	0	43	0	684195840	22	5132
2026-01-02 11:58:06.93	358.38	58.40	-30.6	-33.8	18.5	6.06e-01	0	43	0	686292992	22	5217
2026-01-02 11:58:07.79	358.09	58.01	-30.7	-34.0	18.3	6.07e-01	0	44	0	687865856	22	5302
2026-01-02 11:58:08.93	357.73	57.50	-30.0	-32.2	19.4	6.07e-01	0	43	0	689963008	22	4635
2026-01-02 11:58:09.79	357.47	57.12	-29.7	-31.9	20.0	6.07e-01	0	43	0	691535872	21	4646
2026-01-02 11:58:10.94	357.13	56.61	-29.2	-31.2	20.6	6.05e-01	0	43	0	693633024	20	4527
2026-01-02 11:58:11.79	356.88	56.24	-29.1	-31.0	20.7	6.04e-01	0	43	0	695205888	20	4493
2026-01-02 11:58:12.94	356.57	55.74	-29.1	-31.1	20.7	6.07e-01	0	43	0	697303040	20	4508
2026-01-02 11:58:13.79	356.34	55.37	-29.0	-30.7	20.9	6.06e-01	0	44	0	698875904	20	4397
2026-01-02 11:58:14.94	356.04	54.88	-29.0	-30.8	20.9	6.06e-01	0	43	0	700973056	20	4409
2026-01-02 11:58:15.81	355.82	54.50	-29.2	-31.3	20.6	6.07e-01	0	44	0	702545920	20	4559
2026-01-02 11:58:16.95	355.54	54.02	-28.7	-30.4	21.4	6.06e-01	0	43	0	705167360	19	4397
2026-01-02 11:58:17.81	355.33	53.66	-28.7	-30.5	21.4	6.06e-01	0	43	0	706740224	19	4423
2026-01-02 11:58:18.95	355.07	53.18	-29.0	-31.1	21.0	6.06e-01	0	43	0	708837376	19	4622
2026-01-02 11:58:19.81	354.88	52.83	-28.9	-31.1	21.0	6.06e-01	0	43	0	710410240	19	4597
2026-01-02 11:58:20.96	354.63	52.35	-28.9	-31.0	21.1	6.08e-01	0	43	0	712507392	19	4576
2026-01-02 11:58:21.82	354.44	52.00	-29.0	-31.3	20.9	6.07e-01	0	43	0	714080256	19	4675
2026-01-02 11:58:22.96	354.21	51.54	-28.7	-30.5	21.3	6.06e-01	0	43	0	716177408	19	4438
2026-01-02 11:58:23.82	354.04	51.20	-28.9	-31.0	21.1	6.05e-01	0	43	0	717750272	19	4577
2026-01-02 11:58:24.97	353.81	50.74	-29.3	-32.0	20.5	6.05e-01	0	43	0	719847424	19	4903
2026-01-02 11:58:25.83	353.65	50.40	-29.5	-32.1	20.0	6.07e-01	0	43	0	721420288	20	4849
2026-01-02 11:58:26.97	353.44	49.95	-29.5	-32.0	20.1	6.04e-01	0	43	0	723517440	20	4813
2026-01-02 11:58:27.83	353.28	49.62	-29.5	-32.1	20.0	6.05e-01	0	43	0	725614592	20	4846
2026-01-02 11:58:28.98	353.08	49.17	-29.2	-31.3	20.4	6.08e-01	0	43	0	727711744	20	4585
2026-01-02 11:58:29.83	352.94	48.85	-29.1	-30.9	20.7	6.07e-01	0	43	0	729284608	20	4438
2026-01-02 11:58:30.97	352.75	48.41	-29.4	-31.6	20.3	6.06e-01	0	43	0	731381760	20	4681
2026-01-02 11:58:31.83	352.61	48.09	-29.5	-31.9	20.2	6.06e-01	0	43	0	732954624	20	4762
2026-01-02 11:58:32.97	352.43	47.67	-29.8	-32.7	19.7	6.04e-01	0	43	0	735051776	20	5038
2026-01-02 11:58:33.83	352.30	47.35	-29.7	-32.5	19.8	6.08e-01	0	43	0	736624640	20	4972
2026-01-02 11:58:34.98	352.12	46.93	-29.5	-32.1	20.0	6.02e-01	0	43	0	738721792	20	4839
2026-01-02 11:58:35.83	352.00	46.62	-29.6	-32.4	19.8	5.98e-01	0	43	0	740294656	20	4941
2026-01-02 11:58:36.98	351.83	46.20	-29.6	-32.4	19.8	6.00e-01	0	43	0	742391808	20	4934
2026-01-02 11:58:37.84	351.71	45.89	-29.4	-31.7	20.2	6.00e-01	0	43	0	743964672	20	4712
2026-01-02 11:58:38.99	351.56	45.49	-29.3	-31.6	20.3	6.02e-01	0	43	0	746061824	20	4661
2026-01-02 11:58:39.85	351.44	45.19	-29.4	-31.7	20.2	5.98e-01	0	43	0	747634688	20	4714
2026-01-02 11:58:41.01	351.29	44.78	-29.4	-31.8	20.2	6.00e-01	0	43	0	750256128	20	4725
2026-01-02 11:58:41.87	351.18	44.49	-29.3	-31.6	20.3	6.00e-01	0	43	0	751828992	20	4658
2026-01-02 11:58:43.01	351.04	44.10	-29.5	-32.0	20.1	6.00e-01	0	43	0	753926144	20	4796
2026-01-02 11:58:43.87	350.93	43.80	-29.6	-32.4	19.8	6.01e-01	0	43	0	755499008	20	4935
2026-01-02 11:58:45.02	350.80	43.42	-29.8	-32.8	19.6	5.99e-01	0	43	0	757596160	20	5078
2026-01-02 11:58:45.88	350.69	43.13	-29.7	-32.6	19.7	6.03e-01	0	43	0	759169024	20	5000
2026-01-02 11:58:47.03	350.56	42.75	-29.7	-32.6	19.8	6.02e-01	0	43	0	761266176	20	4989
2026-01-02 11:58:47.89	350.47	42.47	-29.9	-33.2	19.4	6.00e-01	0	43	0	762839040	20	5208
2026-01-02 11:58:49.04	350.34	42.10	-29.9	-32.9	19.5	6.01e-01	0	43	0	764936192	20	5129
2026-01-02 11:58:49.90	350.25	41.82	-29.9	-33.1	19.4	6.05e-01	0	43	0	766509056	20	5180
2026-01-02 11:58:51.04	350.13	41.46	-29.9	-33.1	19.4	6.02e-01	0	44	0	769130496	20	5173
2026-01-02 11:58:51.90	350.04	41.19	-30.1	-33.5	19.1	5.99e-01	0	44	0	770703360	20	5359
2026-01-02 11:58:53.05	349.93	40.83	-30.2	-33.3	18.9	6.00e-01	0	43	0	772800512	21	5154
2026-01-02 11:58:53.90	349.84	40.56	-30.3	-33.7	18.7	6.01e-01	0	43	0	774373376	21	5293
2026-01-02 11:58:55.05	349.73	40.21	-30.4	-34.0	18.5	6.00e-01	0	44	0	776470528	21	5440
2026-01-02 11:58:55.92	349.65	39.94	-30.5	-34.3	18.3	6.01e-01	0	44	0	778043392	21	5535
2026-01-02 11:58:57.07	349.54	39.59	-30.3	-33.5	18.8	6.02e-01	0	43	0	780140544	21	5242
2026-01-02 11:58:57.92	349.46	39.34	-30.2	-33.4	18.9	6.02e-01	0	43	0	781713408	21	5195
2026-01-02 11:58:59.07	349.36	39.00	-30.4	-33.9	18.6	6.01e-01	0	43	0	783810560	21	5376
2026-01-02 11:58:59.94	349.29	38.74	-30.4	-33.9	18.6	6.00e-01	0	43	0	785383424	21	5374
2026-01-02 11:59:01.08	349.19	38.41	-30.4	-33.9	18.6	6.02e-01	0	43	0	787480576	21	5367
2026-01-02 11:59:01.94	349.12	38.16	-30.4	-33.9	18.5	6.02e-01	0	43	0	789053440	21	5390
2026-01-02 11:59:03.08	349.02	37.84	-30.4	-34.0	18.5	6.02e-01	0	43	0	791674880	21	5437
2026-01-02 11:59:03.94	348.95	37.59	-30.7	-34.1	18.1	6.02e-01	0	43	0	793247744	22	5356
2026-01-02 11:59:05.09	348.86	37.27	-30.7	-34.4	18.0	6.03e-01	0	43	0	795344896	22	5464
2026-01-02 11:59:05.95	348.79	37.03	-31.0	-35.2	17.4	6.01e-01	0	43	0	796917760	22	5825
2026-01-02 11:59:07.10	348.70	36.71	-30.9	-34.9	17.6	6.00e-01	0	44	0	799014912	22	5692
2026-01-02 11:59:07.95	348.64	36.48	-31.1	-35.3	17.3	6.00e-01	0	43	0	800587776	22	5881
2026-01-02 11:59:09.10	348.55	36.16	-30.6	-33.9	18.2	6.00e-01	0	43	0	802684928	22	5283
2026-01-02 11:59:09.96	348.49	35.93	-30.4	-33.5	18.5	6.01e-01	0	43	0	804257792	22	5103
2026-01-02 11:59:11.11	348.41	35.63	-30.1	-32.6	19.1	6.00e-01	0	43	0	806354944	22	4790
2026-01-02 11:59:11.97	348.35	35.40	-30.0	-32.2	19.3	5.98e-01	0	43	0	807927808	22	4662
2026-01-02 11:59:13.12	348.27	35.10	-29.8	-32.3	19.5	6.02e-01	0	43	0	810549248	21	4801
2026-01-02 11:59:13.99	348.21	34.87	-29.6	-31.9	19.8	5.99e-01	0	43	0	812122112	21	4668
2026-01-02 11:59:15.14	348.13	34.57	-29.4	-31.2	20.1	6.02e-01	0	43	0	814219264	21	4462
2026-01-02 11:59:16.00	348.08	34.35	-29.4	-31.8	20.1	6.01e-01	0	43	0	815792128	20	4734
2026-01-02 11:59:17.14	348.01	34.06	-29.5	-32.0	19.9	6.02e-01	0	43	0	817889280	20	4817
2026-01-02 11:59:18.00	347.95	33.85	-29.4	-31.8	20.0	6.01e-01	0	43	0	819462144	20	4750
2026-01-02 11:59:19.14	347.88	33.56	-29.3	-31.6	20.1	6.00e-01	0	43	0	821559296	20	4698
2026-01-02 11:59:20.00	347.83	33.35	-29.2	-31.4	20.2	6.01e-01	0	43	0	823132160	20	4636
2026-01-02 11:59:21.15	347.76	33.07	-29.2	-31.3	20.3	6.01e-01	0	43	0	825229312	20	4585
2026-01-02 11:59:22.00	347.71	32.86	-29.2	-31.2	20.4	6.00e-01	0	43	0	826802176	20	4569
2026-01-02 11:59:23.14	347.64	32.59	-29.2	-31.2	20.4	6.02e-01	0	43	0	828899328	20	4573
2026-01-02 11:59:24.00	347.59	32.38	-29.0	-30.7	20.6	6.00e-01	0	43	0	830472192	20	4416
2026-01-02 11:59:25.15	347.53	32.11	-28.8	-30.9	20.9	6.01e-01	0	43	0	832569344	19	4574
2026-01-02 11:59:26.00	347.48	31.91	-28.9	-31.0	20.8	6.02e-01	0	43	0	834142208	19	4599
2026-01-02 11:59:27.14	347.42	31.64	-28.8	-30.8	21.0	6.03e-01	0	43	0	836763648	19	4544
2026-01-02 11:59:28.00	347.37	31.45	-28.7	-30.6	21.1	6.00e-01	0	43	0	838336512	19	4464
2026-01-02 11:59:29.15	347.31	31.18	-28.7	-30.6	21.1	6.00e-01	0	43	0	840433664	19	4470
2026-01-02 11:59:30.01	347.26	30.99	-28.7	-30.6	21.1	6.01e-01	0	43	0	842006528	19	4463
2026-01-02 11:59:31.16	347.21	30.73	-28.9	-30.9	20.8	6.01e-01	0	43	0	844103680	19	4581
2026-01-02 11:59:32.02	347.16	30.54	-28.8	-30.9	20.8	5.99e-01	0	43	0	845676544	19	4585
2026-01-02 11:59:33.17	347.11	30.28	-28.9	-31.1	20.7	6.02e-01	0	43	0	847773696	19	4639
2026-01-02 11:59:34.02	347.06	30.09	-29.0	-31.2	20.6	6.01e-01	0	43	0	849346560	19	4674
2026-01-02 11:59:35.17	347.01	29.84	-29.0	-31.3	20.6	6.02e-01	0	43	0	851443712	19	4679
2026-01-02 11:59:36.03	346.97	29.66	-28.9	-31.2	20.6	6.00e-01	0	43	0	853016576	19	4655
2026-01-02 11:59:37.17	346.91	29.41	-29.1	-31.6	20.5	6.00e-01	0	43	0	855638016	19	4787
2026-01-02 11:59:38.04	346.87	29.23	-29.3	-31.9	20.2	5.99e-01	0	43	0	857210880	19	4910
2026-01-02 11:59:39.18	346.82	28.99	-29.1	-31.6	20.5	6.02e-01	0	43	0	859308032	19	4781
2026-01-02 11:59:40.04	346.78	28.81	-29.2	-31.7	20.4	5.99e-01	0	43	0	860880896	19	4836
2026-01-02 11:59:41.19	346.73	28.57	-29.2	-31.7	20.4	6.00e-01	0	44	0	862978048	19	4839
2026-01-02 11:59:42.05	346.69	28.39	-29.1	-31.6	20.5	6.01e-01	0	43	0	864550912	19	4774
2026-01-02 11:59:43.19	346.65	28.16	-29.2	-31.8	20.4	6.02e-01	0	44	0	866648064	19	4854
2026-01-02 11:59:44.05	346.61	27.98	-29.3	-32.2	20.1	6.04e-01	0	43	0	868220928	19	4981
2026-01-02 11:59:45.20	346.56	27.75	-29.6	-32.8	19.8	6.00e-01	0	43	0	870318080	19	5215
2026-01-02 11:59:46.05	346.53	27.58	-29.6	-32.5	19.5	6.00e-01	0	43	0	871890944	20	5008
2026-01-02 11:59:47.20	346.48	27.35	-29.5	-32.2	19.7	6.02e-01	0	43	0	873988096	20	4912
2026-01-02 11:59:48.06	346.45	27.18	-29.4	-31.9	19.9	5.98e-01	0	43	0	875560960	20	4800
2026-01-02 11:59:49.20	346.40	26.96	-29.5	-32.2	19.7	6.03e-01	0	43	0	877658112	20	4906
2026-01-02 11:59:50.06	346.37	26.79	-29.5	-32.1	19.7	6.01e-01	0	43	0	879230976	20	4851
2026-01-02 11:59:51.21	346.32	26.57	-29.5	-32.1	19.7	6.01e-01	0	43	0	881852416	20	4877
2026-01-02 11:59:52.07	346.29	26.41	-29.5	-32.1	19.7	6.01e-01	0	43	0	883425280	20	4873
2026-01-02 11:59:53.21	346.25	26.19	-29.3	-31.7	19.9	6.00e-01	0	43	0	885522432	20	4732
2026-01-02 11:59:54.07	346.22	26.03	-29.3	-31.7	19.9	6.02e-01	0	43	0	887095296	20	4735
2026-01-02 11:59:55.21	346.18	25.82	-29.5	-32.1	19.7	6.00e-01	0	43	0	889192448	20	4867
2026-01-02 11:59:56.08	346.14	25.66	-29.5	-32.1	19.7	5.99e-01	0	43	0	890765312	20	4850
2026-01-02 11:59:57.23	346.10	25.45	-29.5	-32.0	19.7	6.01e-01	0	43	0	892862464	20	4844
2026-01-02 11:59:58.08	346.07	25.29	-29.5	-32.1	19.6	6.02e-01	0	43	0	894435328	20	4867
2026-01-02 11:59:59.23	346.03	25.08	-29.4	-32.0	19.7	5.98e-01	0	43	0	896532480	20	4823
2026-01-02 12:00:00.09	346.00	24.93	-29.4	-32.0	19.7	6.00e-01	0	43	0	898105344	20	4833
2026-01-02 12:00:01.23	345.97	24.72	-29.4	-32.0	19.7	6.00e-01	0	43	0	900726784	20	4820
2026-01-02 12:00:02.09	345.94	24.57	-29.4	-32.0	19.8	6.01e-01	0	43	0	902299648	20	4818
2026-01-02 12:00:03.23	345.90	24.37	-29.5	-32.2	19.6	6.01e-01	0	43	0	904396800	20	4899
2026-01-02 12:00:04.10	345.87	24.22	-29.5	-32.2	19.6	6.01e-01	0	43	0	905969664	20	4900
2026-01-02 12:00:05.25	345.84	24.02	-29.6	-32.5	19.4	6.01e-01	0	43	0	908066816	20	5018
2026-01-02 12:00:06.11	345.81	23.87	-29.6	-32.4	19.4	6.00e-01	0	43	0	909639680	20	4990
2026-01-02 12:00:07.25	345.77	23.68	-29.7	-32.6	19.3	6.01e-01	0	43	0	911736832	20	5047
2026-01-02 12:00:08.11	345.75	23.53	-29.7	-32.7	19.3	6.02e-01	0	43	0	913309696	20	5098
2026-01-02 12:00:09.25	345.71	23.34	-29.9	-33.2	19.0	6.00e-01	0	43	0	915406848	20	5270
2026-01-02 12:00:10.10	345.69	23.20	-29.8	-33.0	19.1	6.02e-01	0	43	0	916979712	20	5212
2026-01-02 12:00:11.25	345.65	23.01	-29.9	-33.1	19.0	6.03e-01	0	43	0	919076864	20	5249
2026-01-02 12:00:12.12	345.63	22.86	-29.8	-33.0	19.1	6.01e-01	0	43	0	920649728	20	5208
2026-01-02 12:00:13.26	345.60	22.67	-29.9	-33.3	18.9	6.02e-01	0	43	0	922746880	20	5305
2026-01-02 12:00:14.12	345.57	22.53	-30.1	-33.7	18.6	6.01e-01	0	43	0	924844032	20	5456
2026-01-02 12:00:15.27	345.54	22.35	-29.8	-32.9	19.1	6.00e-01	0	43	0	926941184	20	5181
2026-01-02 12:00:16.13	345.52	22.21	-29.7	-32.7	19.2	6.01e-01	0	43	0	928514048	20	5086
2026-01-02 12:00:17.27	345.48	22.03	-29.6	-32.6	19.2	6.01e-01	0	43	0	930611200	20	5057
2026-01-02 12:00:18.14	345.46	21.89	-29.6	-32.5	19.4	5.98e-01	0	43	0	932184064	20	5008
2026-01-02 12:00:19.28	345.43	21.71	-29.6	-32.5	19.4	6.01e-01	0	44	0	934281216	20	5008
2026-01-02 12:00:20.14	345.41	21.58	-29.6	-32.4	19.4	6.02e-01	0	43	0	935854080	20	4991
2026-01-02 12:00:21.29	345.38	21.40	-29.5	-32.1	19.6	6.01e-01	0	44	0	937951232	20	4884
2026-01-02 12:00:22.15	345.36	21.27	-29.5	-32.1	19.6	5.99e-01	0	43	0	939524096	20	4885
2026-01-02 12:00:23.29	345.33	21.09	-29.4	-32.0	19.6	5.98e-01	0	43	0	941621248	20	4857
2026-01-02 12:00:24.15	345.31	20.96	-29.4	-31.9	19.7	6.01e-01	0	43	0	943194112	20	4828
2026-01-02 12:00:25.30	345.28	20.79	-29.4	-31.9	19.7	6.00e-01	0	44	0	945815552	20	4809
2026-01-02 12:00:26.15	345.26	20.66	-29.4	-31.9	19.7	6.00e-01	0	43	0	947388416	20	4814
2026-01-02 12:00:27.30	345.23	20.49	-29.4	-32.0	19.6	6.00e-01	0	43	0	949485568	20	4852
2026-01-02 12:00:28.16	345.21	20.36	-29.5	-32.2	19.5	6.04e-01	0	43	0	951058432	20	4912
2026-01-02 12:00:29.30	345.18	20.19	-29.4	-32.0	19.6	5.99e-01	0	43	0	953155584	20	4847
2026-01-02 12:00:30.16	345.16	20.07	-29.3	-31.8	19.7	5.99e-01	0	43	0	954728448	20	4774
2026-01-02 12:00:31.31	345.13	19.90	-29.4	-32.0	19.6	6.00e-01	0	43	0	956825600	20	4859
2026-01-02 12:00:32.17	345.12	19.78	-29.4	-32.0	19.6	6.02e-01	0	43	0	958398464	20	4859
2026-01-02 12:00:33.31	345.09	19.61	-29.4	-32.0	19.6	6.00e-01	0	43	0	960495616	20	4845
2026-01-02 12:00:34.17	345.07	19.49	-29.4	-32.0	19.5	6.01e-01	0	43	0	962068480	20	4851
2026-01-02 12:00:35.32	345.04	19.33	-29.4	-32.1	19.5	5.99e-01	0	43	0	964689920	20	4878
2026-01-02 12:00:36.18	345.03	19.21	-29.5	-32.2	19.4	6.03e-01	0	43	0	966262784	20	4912
2026-01-02 12:00:37.32	345.00	19.05	-29.4	-32.1	19.5	6.02e-01	0	43	0	968359936	20	4885
2026-01-02 12:00:38.18	344.98	18.93	-29.5	-32.2	19.4	6.01e-01	0	43	0	969932800	20	4915
2026-01-02 12:00:39.33	344.96	18.77	-29.5	-32.3	19.3	6.00e-01	0	43	0	972029952	20	4975
2026-01-02 12:00:40.19	344.94	18.65	-29.5	-32.3	19.3	6.01e-01	0	43	0	973602816	20	4971
2026-01-02 12:00:41.34	344.92	18.49	-29.5	-32.3	19.3	6.01e-01	0	43	0	975699968	20	4977
2026-01-02 12:00:42.20	344.90	18.38	-29.5	-32.3	19.3	6.01e-01	0	43	0	977272832	20	4954
2026-01-02 12:00:43.34	344.88	18.22	-29.8	-33.0	18.9	6.02e-01	0	43	0	979369984	20	5207
2026-01-02 12:00:44.20	344.86	18.11	-29.9	-33.5	18.6	6.01e-01	0	43	0	980942848	20	5408
2026-01-02 12:00:45.35	344.84	17.95	-29.8	-33.2	18.8	6.00e-01	0	43	0	983040000	20	5291
2026-01-02 12:00:46.21	344.82	17.84	-29.9	-33.5	18.6	6.01e-01	0	44	0	984612864	20	5420
2026-01-02 12:00:47.35	344.80	17.69	-30.0	-33.7	18.4	6.02e-01	0	43	0	986710016	20	5496
2026-01-02 12:00:48.21	344.78	17.58	-29.9	-33.3	18.7	6.03e-01	0	43	0	988282880	20	5346
2026-01-02 12:00:49.36	344.76	17.43	-29.9	-33.3	18.7	5.99e-01	0	43	0	990904320	20	5348
2026-01-02 12:00:50.22	344.74	17.31	-29.9	-33.2	18.7	5.99e-01	0	44	0	992477184	20	5322
2026-01-02 12:00:51.37	344.72	17.17	-29.8	-33.0	18.9	6.03e-01	0	43	0	994574336	20	5240
2026-01-02 12:00:52.23	344.71	17.06	-29.7	-32.7	19.0	6.02e-01	0	43	0	996147200	20	5133
2026-01-02 12:00:53.38	344.69	16.91	-29.6	-32.6	19.1	5.99e-01	0	43	0	998244352	20	5093
2026-01-02 12:00:54.24	344.67	16.80	-29.6	-32.7	19.0	6.01e-01	0	43	0	999817216	20	5110
2026-01-02 12:00:55.39	344.65	16.66	-29.6	-32.6	19.1	6.01e-01	0	43	0	1001914368	20	5077
2026-01-02 12:00:56.25	344.64	16.55	-29.7	-32.8	19.0	5.99e-01	0	43	0	1003487232	20	5158
2026-01-02 12:00:57.41	344.62	16.41	-29.7	-32.8	19.0	5.99e-01	0	43	0	1005584384	20	5152
2026-01-02 12:00:58.26	344.60	16.30	-29.6	-32.7	19.0	6.01e-01	0	43	0	1007157248	20	5121
2026-01-02 12:00:59.41	344.58	16.16	-29.6	-32.6	19.0	6.02e-01	0	43	0	1009778688	20	5104
2026-01-02 12:01:00.27	344.57	16.05	-29.6	-32.5	19.1	6.00e-01	0	43	0	1011351552	20	5052
2026-01-02 12:01:01.42	344.55	15.91	-29.5	-32.4	19.2	6.02e-01	0	43	0	1013448704	20	5021
2026-01-02 12:01:02.28	344.54	15.81	-29.5	-32.3	19.2	6.00e-01	0	43	0	1015021568	20	4978
2026-01-02 12:01:03.42	344.52	15.67	-29.4	-32.1	19.3	5.99e-01	0	43	0	1017118720	20	4910
2026-01-02 12:01:04.28	344.50	15.57	-29.5	-32.4	19.2	6.01e-01	0	43	0	1018691584	20	5000
2026-01-02 12:01:05.43	344.49	15.43	-29.4	-32.2	19.2	6.02e-01	0	43	0	1020788736	20	4933
2026-01-02 12:01:06.29	344.47	15.33	-29.4	-32.1	19.3	6.02e-01	0	43	0	1022361600	20	4912
2026-01-02 12:01:07.44	344.45	15.20	-29.4	-32.0	19.3	6.01e-01	0	43	0	1024458752	20	4869
2026-01-02 12:01:08.29	344.44	15.10	-29.4	-32.0	19.3	6.01e-01	0	43	0	1026031616	20	4882
2026-01-02 12:01:09.44	344.42	14.96	-29.4	-32.0	19.3	6.02e-01	0	43	0	1028128768	20	4875
2026-01-02 12:01:10.30	344.41	14.86	-29.5	-32.3	19.1	6.01e-01	0	43	0	1029701632	20	4983
2026-01-02 12:01:11.45	344.39	14.73	-29.5	-32.2	19.2	6.02e-01	0	43	0	1032323072	20	4951
2026-01-02 12:01:12.32	344.38	14.63	-29.5	-32.4	19.1	6.00e-01	0	43	0	1033895936	20	5005
2026-01-02 12:01:13.47	344.36	14.50	-29.5	-32.3	19.1	6.01e-01	0	43	0	1035993088	20	4994
2026-01-02 12:01:14.33	344.35	14.40	-29.5	-32.4	19.1	6.01e-01	0	43	0	1037565952	20	5007
2026-01-02 12:01:15.48	344.34	14.27	-29.8	-33.1	18.6	6.00e-01	0	44	0	1039663104	20	5279
2026-01-02 12:01:16.33	344.32	14.18	-29.6	-32.7	18.9	5.99e-01	0	43	0	1041235968	20	5119
2026-01-02 12:01:17.48	344.31	14.05	-29.4	-32.0	19.3	6.02e-01	0	43	0	1043333120	20	4882
2026-01-02 12:01:18.34	344.30	13.95	-29.4	-32.0	19.3	6.00e-01	0	43	0	1044905984	20	4882
2026-01-02 12:01:19.48	344.28	13.83	-29.5	-32.3	19.2	6.01e-01	0	43	0	1047003136	20	4966
2026-01-02 12:01:20.35	344.27	13.73	-29.5	-32.3	19.1	6.00e-01	0	43	0	1048576000	20	4990
2026-01-02 12:01:21.49	344.25	13.61	-29.4	-32.2	19.1	6.02e-01	0	43	0	1051197440	20	4969
2026-01-02 12:01:22.35	344.24	13.51	-29.4	-32.2	19.2	6.01e-01	0	43	0	1052770304	20	4961
2026-01-02 12:01:23.50	344.23	13.39	-29.3	-31.9	19.4	5.99e-01	0	43	0	1054867456	20	4832
2026-01-02 12:01:24.35	344.22	13.30	-29.4	-32.1	19.2	5.99e-01	0	43	0	1056440320	20	4913
2026-01-02 12:01:25.50	344.20	13.17	-29.4	-32.0	19.2	6.01e-01	0	43	0	1058537472	20	4889
2026-01-02 12:01:26.35	344.19	13.08	-29.3	-32.0	19.2	6.02e-01	0	43	0	1060110336	20	4888
2026-01-02 12:01:27.50	344.18	12.96	-29.4	-32.2	19.1	6.01e-01	0	43	0	1062207488	20	4956
2026-01-02 12:01:28.36	344.17	12.87	-29.4	-32.1	19.1	6.03e-01	0	43	0	1063780352	20	4917
2026-01-02 12:01:29.51	344.15	12.75	-29.3	-32.0	19.2	6.01e-01	0	43	0	1065877504	20	4891
2026-01-02 12:01:30.37	344.14	12.66	-29.4	-32.0	19.2	5.99e-01	0	43	0	1067450368	20	4905
2026-01-02 12:01:31.52	344.13	12.54	-29.5	-32.4	18.9	5.99e-01	0	43	0	1069547520	20	5034
2026-01-02 12:01:32.38	344.12	12.45	-29.4	-32.2	19.0	6.03e-01	0	43	0	1071644672	20	4957
2026-01-02 12:01:33.52	344.10	12.33	-29.4	-32.0	19.1	6.00e-01	0	43	0	1073741824	20	4906
2026-01-02 12:01:34.38	344.09	12.24	-29.4	-32.3	19.0	5.99e-01	0	43	0	1075314688	20	4978
2026-01-02 12:01:35.53	344.08	12.12	-29.4	-32.3	19.0	6.03e-01	0	43	0	1077411840	20	4989
2026-01-02 12:01:36.38	344.07	12.04	-29.4	-32.3	19.0	6.01e-01	0	43	0	1078984704	20	4983
2026-01-02 12:01:37.53	344.06	11.92	-29.4	-32.3	18.9	5.99e-01	0	43	0	1081081856	20	4999
2026-01-02 12:01:38.39	344.05	11.83	-29.5	-32.3	18.9	6.01e-01	0	43	0	1082654720	20	5000
2026-01-02 12:01:39.53	344.04	11.72	-29.4	-32.2	19.0	6.01e-01	0	43	0	1084751872	20	4971
2026-01-02 12:01:40.40	344.03	11.63	-29.4	-32.2	19.0	5.99e-01	0	43	0	1086324736	20	4954
2026-01-02 12:01:41.54	344.01	11.52	-29.5	-32.5	18.9	5.99e-01	0	43	0	1088421888	20	5070
2026-01-02 12:01:42.40	344.00	11.43	-29.4	-32.3	18.9	6.02e-01	0	43	0	1089994752	20	4999
2026-01-02 12:01:43.56	343.99	11.32	-29.4	-32.3	18.9	6.01e-01	0	43	0	1092091904	20	5008
2026-01-02 12:01:44.42	343.98	11.23	-29.4	-32.3	18.9	6.00e-01	0	43	0	1094189056	20	4994
2026-01-02 12:01:45.57	343.97	11.12	-29.6	-32.6	18.7	6.04e-01	0	43	0	1096286208	20	5110
2026-01-02 12:01:46.43	343.96	11.04	-29.4	-32.3	18.9	6.00e-01	0	43	0	1097859072	20	4986
2026-01-02 12:01:47.58	343.95	10.93	-29.5	-32.4	18.8	6.01e-01	0	44	0	1099956224	20	5023
2026-01-02 12:01:48.44	343.94	10.84	-29.5	-32.3	18.8	6.01e-01	0	44	0	1101529088	20	5021
2026-01-02 12:01:49.59	343.93	10.73	-29.5	-32.6	18.6	5.99e-01	0	43	0	1103626240	20	5115
2026-01-02 12:01:50.45	343.92	10.65	-29.5	-32.5	18.7	6.00e-01	0	43	0	1105199104	20	5085
2026-01-02 12:01:51.60	343.91	10.54	-29.7	-33.0	18.4	6.01e-01	0	44	0	1107296256	20	5263
2026-01-02 12:01:52.46	343.90	10.46	-29.6	-32.8	18.5	5.98e-01	0	43	0	1108869120	20	5199
2026-01-02 12:01:53.61	343.89	10.35	-29.7	-33.1	18.4	5.99e-01	0	43	0	1110966272	20	5290
2026-01-02 12:01:54.47	343.88	10.27	-29.7	-33.0	18.4	6.00e-01	0	43	0	1113063424	20	5276
2026-01-02 12:01:55.61	343.87	10.16	-29.7	-33.0	18.4	6.01e-01	0	43	0	1114636288	20	5253
2026-01-02 12:01:56.48	343.86	10.08	-29.7	-33.0	18.4	6.02e-01	0	43	0	1116733440	20	5267
2026-01-02 12:01:57.62	343.85	9.98	-29.8	-33.4	18.2	6.00e-01	0	43	0	1118830592	20	5453
2026-01-02 12:01:58.48	343.85	9.90	-29.9	-33.7	17.9	6.00e-01	0	43	0	1120403456	20	5560
2026-01-02 12:01:59.63	343.83	9.79	-30.0	-33.8	17.9	6.00e-01	0	43	0	1122500608	20	5614
2026-01-02 12:02:00.50	343.83	9.71	-30.0	-33.8	17.9	5.99e-01	0	43	0	1124073472	20	5590
2026-01-02 12:02:01.64	343.82	9.61	-29.9	-33.8	17.9	6.00e-01	0	43	0	1126170624	20	5585
2026-01-02 12:02:02.49	343.81	9.53	-30.0	-33.9	17.8	6.02e-01	0	43	0	1127743488	20	5650
2026-01-02 12:02:03.64	343.80	9.43	-29.9	-33.7	17.9	5.99e-01	0	43	0	1129840640	20	5553
2026-01-02 12:02:04.50	343.79	9.35	-30.1	-34.2	17.6	6.00e-01	0	43	0	1131413504	20	5767
2026-01-02 12:02:05.64	343.78	9.25	-30.0	-33.5	17.7	6.04e-01	0	43	0	1133510656	21	5366
2026-01-02 12:02:06.51	343.77	9.17	-29.9	-33.2	17.9	6.00e-01	0	43	0	1135083520	21	5272
2026-01-02 12:02:07.65	343.77	9.07	-29.8	-32.8	18.1	6.01e-01	0	43	0	1137704960	21	5108
2026-01-02 12:02:08.50	343.76	8.99	-29.8	-32.8	18.2	6.01e-01	0	43	0	1139277824	21	5107
2026-01-02 12:02:09.65	343.75	8.89	-29.8	-32.9	18.1	6.00e-01	0	44	0	1141374976	21	5152
2026-01-02 12:02:10.51	343.74	8.81	-29.8	-33.0	18.1	6.00e-01	0	43	0	1142947840	21	5161
2026-01-02 12:02:11.66	343.73	8.71	-29.8	-33.0	18.1	6.03e-01	0	43	0	1145044992	21	5172
2026-01-02 12:02:12.52	343.73	8.64	-29.8	-33.0	18.1	6.01e-01	0	43	0	1146617856	21	5170
2026-01-02 12:02:13.66	343.72	8.54	-29.9	-33.1	17.9	6.00e-01	0	43	0	1148715008	21	5236
2026-01-02 12:02:14.52	343.71	8.46	-30.0	-33.6	17.6	5.99e-01	0	43	0	1150287872	21	5440
2026-01-02 12:02:15.67	343.70	8.36	-30.1	-33.6	17.6	6.01e-01	0	43	0	1152385024	21	5430
2026-01-02 12:02:16.53	343.69	8.29	-30.0	-33.5	17.7	5.99e-01	0	44	0	1153957888	21	5369
2026-01-02 12:02:17.68	343.69	8.19	-30.0	-33.5	17.7	6.01e-01	0	43	0	1156579328	21	5372
2026-01-02 12:02:18.55	343.68	8.12	-30.1	-33.7	17.5	6.02e-01	0	43	0	1158152192	21	5464
2026-01-02 12:02:19.69	343.67	8.02	-30.0	-33.7	17.6	6.00e-01	0	43	0	1160249344	21	5462
2026-01-02 12:02:20.56	343.66	7.95	-30.2	-34.2	17.2	5.99e-01	0	43	0	1161822208	21	5678
2026-01-02 12:02:21.70	343.66	7.85	-30.2	-34.2	17.2	5.99e-01	0	43	0	1163919360	21	5682
2026-01-02 12:02:22.56	343.65	7.78	-30.3	-34.5	17.0	6.00e-01	0	43	0	1165492224	21	5833
2026-01-02 12:02:23.69	343.64	7.68	-30.1	-33.9	17.3	6.02e-01	0	43	0	1167589376	21	5574
2026-01-02 12:02:24.55	343.64	7.61	-30.0	-33.6	17.5	6.04e-01	0	43	0	1169162240	21	5440
2026-01-02 12:02:25.69	343.63	7.52	-30.0	-33.7	17.4	6.02e-01	0	43	0	1171259392	21	5466
2026-01-02 12:02:26.55	343.62	7.45	-30.0	-33.6	17.5	6.01e-01	0	43	0	1172832256	21	5462
2026-01-02 12:02:27.69	343.61	7.35	-30.3	-34.4	16.9	5.99e-01	0	44	0	1174929408	21	5805
2026-01-02 12:02:28.55	343.61	7.28	-30.2	-34.3	17.0	6.01e-01	0	43	0	1176502272	21	5737
2026-01-02 12:02:29.70	343.60	7.19	-30.1	-33.9	17.2	6.03e-01	0	43	0	1178599424	21	5592
2026-01-02 12:02:30.57	343.59	7.12	-33.0	-46.6	4.2	7.34e-01	0	43	104	1180172288	27	17196
2026-01-02 12:02:31.71	343.59	7.02	-33.4	-51.7	3.9	7.47e-01	0	43	104	1180172288	27	29484
2026-01-02 12:02:32.58	343.58	6.95	-33.6	-52.6	3.8	7.44e-01	0	43	104	1180172288	28	32146

#Closed at: 2026-01-02 12:02:33
#Recorded file [1180 MB]: D:/data/31010_260102_145200.dat