passes_logs/2026/01/02/R2M6_AANII_01/R2M6_AANII_01__20260102_121429_NOAA_20_JPSS-1_rec.log

#Pass ID: 20260102_121429_NOAA 20 (JPSS-1)
#Satellite: NOAA 20 (JPSS-1)
#Configuration: NOAA 20
#almurnet v.1.7.20240730
#Start time: 2026-01-02 12:14:30

#Version: 2.2.20231116
#Station: R2M6_AANII_01
#Location: 30.233357 lon 59.946436 lat
#TLE: 1 43013U 17073A   26001.30344297  .00000183  00000+0  10758-3 0  9995
#TLE: 2 43013  98.7621 302.3885 0001938  59.1624 300.9742 14.19532032420790

#Time	Az	El	Level	Level2	SNR	BER	BlckErr	Temp	State	Recorded	gain1	gain2
2026-01-02 12:14:30.43	224.76	7.06	-30.9	-35.8	5.2	1.16e+00	0	41	0	0	23	6277
2026-01-02 12:14:31.43	224.87	7.12	-31.3	-37.2	5.0	1.20e+00	0	41	104	0	23	7109
2026-01-02 12:14:32.43	224.99	7.18	-31.3	-37.1	7.9	6.84e-02	0	41	0	0	23	7021
2026-01-02 12:14:33.44	225.10	7.23	-31.3	-37.2	7.9	8.21e-02	0	41	0	1048576	23	7123
2026-01-02 12:14:34.44	225.21	7.29	-31.1	-36.3	8.6	5.82e-02	0	41	0	3145728	23	6526
2026-01-02 12:14:35.44	225.33	7.35	-31.0	-35.8	9.0	3.01e-02	0	41	0	5242880	23	6276
2026-01-02 12:14:36.45	225.44	7.40	-30.9	-35.4	9.3	2.41e-02	0	41	0	7340032	23	6060
2026-01-02 12:14:37.45	225.56	7.46	-30.8	-35.2	9.5	1.48e-02	0	41	0	9437184	23	5922
2026-01-02 12:14:38.45	225.67	7.52	-30.8	-35.1	9.6	1.46e-02	0	41	0	10485760	23	5868
2026-01-02 12:14:39.44	225.79	7.57	-30.9	-35.5	9.3	1.36e-02	0	41	0	12582912	23	6103
2026-01-02 12:14:40.44	225.90	7.63	-31.0	-35.8	9.0	2.68e-02	0	41	0	14680064	23	6259
2026-01-02 12:14:41.43	226.02	7.69	-30.8	-34.9	9.7	1.46e-02	0	41	0	16777216	23	5793
2026-01-02 12:14:42.44	226.13	7.74	-30.6	-34.8	10.2	7.85e-03	0	41	0	17825792	22	5847
2026-01-02 12:14:43.44	226.25	7.80	-30.6	-34.7	10.4	4.68e-03	0	41	0	19922944	22	5753
2026-01-02 12:14:44.45	226.37	7.86	-30.5	-34.2	10.7	3.29e-03	0	41	0	22020096	22	5526
2026-01-02 12:14:45.45	226.49	7.92	-30.5	-34.3	10.7	2.69e-03	0	41	0	24117248	22	5601
2026-01-02 12:14:46.46	226.61	7.97	-30.5	-34.4	10.6	2.98e-03	0	41	0	26214400	22	5632
2026-01-02 12:14:47.47	226.73	8.03	-30.5	-34.3	10.7	2.96e-03	0	41	0	27262976	22	5569
2026-01-02 12:14:48.47	226.85	8.09	-30.5	-34.3	10.7	2.60e-03	0	41	0	29360128	22	5593
2026-01-02 12:14:49.47	226.97	8.15	-30.5	-34.5	10.6	3.61e-03	0	42	0	31457280	22	5664
2026-01-02 12:14:50.48	227.09	8.20	-30.3	-33.7	11.2	1.76e-03	0	42	0	33554432	22	5310
2026-01-02 12:14:51.49	227.21	8.26	-30.3	-33.5	11.3	1.37e-03	0	42	0	35651584	22	5241
2026-01-02 12:14:52.49	227.33	8.32	-30.3	-34.0	11.3	1.25e-03	0	41	0	36700160	21	5544
2026-01-02 12:14:53.49	227.45	8.38	-30.2	-33.9	11.4	1.06e-03	0	42	0	38797312	21	5488
2026-01-02 12:14:54.49	227.58	8.43	-30.3	-34.2	11.1	1.29e-03	0	42	0	40894464	21	5641
2026-01-02 12:14:55.49	227.70	8.49	-30.3	-34.3	11.1	1.88e-03	0	42	0	42991616	21	5657
2026-01-02 12:14:56.50	227.82	8.55	-30.3	-34.0	11.3	1.21e-03	0	42	0	45088768	21	5550
2026-01-02 12:14:57.50	227.95	8.60	-30.3	-34.1	11.3	1.08e-03	0	42	0	46137344	21	5562
2026-01-02 12:14:58.50	228.07	8.66	-30.3	-34.1	11.2	1.28e-03	0	42	0	48234496	21	5607
2026-01-02 12:14:59.50	228.20	8.72	-30.3	-34.0	11.3	1.39e-03	0	42	0	50331648	21	5548
2026-01-02 12:15:00.50	228.32	8.78	-30.2	-33.9	11.4	9.68e-04	0	42	0	52428800	21	5514
2026-01-02 12:15:01.50	228.45	8.83	-30.2	-33.8	11.5	1.18e-03	0	42	0	54525952	21	5474
2026-01-02 12:15:02.51	228.57	8.89	-30.1	-33.4	11.8	6.09e-04	0	42	0	55574528	21	5274
2026-01-02 12:15:03.52	228.70	8.95	-30.0	-33.3	11.9	4.07e-04	0	42	0	57671680	21	5235
2026-01-02 12:15:04.52	228.83	9.01	-30.0	-33.1	12.0	3.94e-04	0	42	0	59768832	21	5154
2026-01-02 12:15:05.53	228.96	9.07	-30.0	-33.3	11.9	3.78e-04	0	42	0	61865984	21	5236
2026-01-02 12:15:06.53	229.08	9.12	-30.0	-33.2	12.0	4.24e-04	0	42	0	63963136	21	5192
2026-01-02 12:15:07.54	229.21	9.18	-30.0	-33.0	12.1	2.76e-04	0	42	0	65011712	21	5110
2026-01-02 12:15:08.54	229.34	9.24	-29.9	-32.8	12.3	2.39e-04	0	42	0	67108864	21	5020
2026-01-02 12:15:09.54	229.47	9.30	-30.0	-33.1	12.0	2.82e-04	0	42	0	69206016	21	5163
2026-01-02 12:15:10.54	229.60	9.35	-30.0	-33.1	12.0	3.62e-04	0	42	0	71303168	21	5142
2026-01-02 12:15:11.54	229.73	9.41	-30.0	-33.1	12.1	2.86e-04	0	42	0	73400320	21	5136
2026-01-02 12:15:12.54	229.86	9.47	-30.0	-33.2	12.0	3.07e-04	0	42	0	74448896	21	5180
2026-01-02 12:15:13.54	229.99	9.53	-30.1	-33.4	11.8	3.41e-04	0	42	0	76546048	21	5272
2026-01-02 12:15:14.54	230.13	9.58	-30.1	-33.4	11.8	5.13e-04	0	42	0	78643200	21	5278
2026-01-02 12:15:15.54	230.26	9.64	-29.9	-33.0	12.2	3.24e-04	0	42	0	80740352	21	5094
2026-01-02 12:15:16.53	230.39	9.70	-30.0	-33.0	12.2	1.89e-04	0	42	0	81788928	21	5096
2026-01-02 12:15:17.54	230.52	9.76	-29.9	-32.9	12.3	2.17e-04	0	42	0	83886080	21	5049
2026-01-02 12:15:18.55	230.66	9.81	-30.0	-33.0	12.2	2.38e-04	0	42	0	85983232	21	5092
2026-01-02 12:15:19.55	230.79	9.87	-30.0	-33.2	12.0	2.95e-04	0	42	0	88080384	21	5192
2026-01-02 12:15:20.55	230.93	9.93	-30.1	-33.3	11.9	2.78e-04	0	42	0	90177536	21	5235
2026-01-02 12:15:21.55	231.06	9.99	-30.1	-33.4	11.9	4.96e-04	0	42	0	91226112	21	5246
2026-01-02 12:15:22.56	231.20	10.04	-30.1	-33.5	11.8	3.55e-04	0	42	0	93323264	21	5307
2026-01-02 12:15:23.56	231.34	10.10	-30.2	-33.7	11.7	5.71e-04	0	42	0	95420416	21	5361
2026-01-02 12:15:24.57	231.48	10.16	-30.2	-33.6	11.8	4.73e-04	0	42	0	97517568	21	5334
2026-01-02 12:15:25.57	231.61	10.22	-30.2	-33.6	11.8	5.96e-04	0	42	0	99614720	21	5345
2026-01-02 12:15:26.57	231.75	10.27	-30.1	-33.4	11.9	4.20e-04	0	42	0	100663296	21	5273
2026-01-02 12:15:27.57	231.89	10.33	-30.2	-33.8	11.6	4.84e-04	0	42	0	102760448	21	5445
2026-01-02 12:15:28.57	232.03	10.39	-30.2	-33.7	11.7	7.21e-04	0	42	0	104857600	21	5392
2026-01-02 12:15:29.58	232.17	10.45	-30.1	-33.3	12.0	4.42e-04	0	42	0	106954752	21	5226
2026-01-02 12:15:30.58	232.31	10.50	-30.0	-33.2	12.0	2.92e-04	0	42	0	108003328	21	5191
2026-01-02 12:15:31.58	232.45	10.56	-30.1	-33.3	12.1	3.06e-04	0	43	0	110100480	21	5213
2026-01-02 12:15:32.58	232.59	10.62	-30.0	-33.1	12.2	2.47e-04	0	42	0	112197632	21	5139
2026-01-02 12:15:33.58	232.73	10.68	-30.0	-33.1	12.2	2.33e-04	0	42	0	114294784	21	5139
2026-01-02 12:15:34.59	232.88	10.73	-30.1	-33.3	12.1	3.01e-04	0	42	0	116391936	21	5215
2026-01-02 12:15:35.59	233.02	10.79	-30.1	-33.2	12.1	2.84e-04	0	42	0	118489088	21	5181
2026-01-02 12:15:36.60	233.16	10.85	-30.0	-33.1	12.2	2.04e-04	0	42	0	119537664	21	5136
2026-01-02 12:15:37.61	233.31	10.91	-30.0	-33.1	12.2	2.39e-04	0	43	0	121634816	21	5119
2026-01-02 12:15:38.61	233.45	10.96	-30.1	-33.2	12.2	2.14e-04	0	42	0	123731968	21	5156
2026-01-02 12:15:39.61	233.60	11.02	-30.1	-33.2	12.1	2.01e-04	0	42	0	125829120	21	5173
2026-01-02 12:15:40.62	233.75	11.08	-30.1	-33.3	12.1	3.31e-04	0	42	0	126877696	21	5194
2026-01-02 12:15:41.62	233.89	11.14	-30.1	-33.4	12.0	3.02e-04	0	42	0	128974848	21	5242
2026-01-02 12:15:42.63	234.04	11.19	-30.1	-33.2	12.1	3.39e-04	0	43	0	131072000	21	5176
2026-01-02 12:15:43.64	234.19	11.25	-30.0	-33.1	12.2	2.27e-04	0	42	0	133169152	21	5116
2026-01-02 12:15:44.64	234.34	11.31	-30.0	-33.0	12.3	1.79e-04	0	43	0	135266304	21	5072
2026-01-02 12:15:45.65	234.49	11.37	-29.9	-32.8	12.5	1.62e-04	0	43	0	136314880	21	4992
2026-01-02 12:15:46.65	234.64	11.42	-29.9	-32.6	12.6	8.69e-05	0	43	0	138412032	21	4943
2026-01-02 12:15:47.65	234.78	11.48	-29.9	-32.7	12.6	9.99e-05	0	43	0	140509184	21	4953
2026-01-02 12:15:48.66	234.94	11.54	-30.0	-33.1	12.2	1.66e-04	0	43	0	142606336	21	5133
2026-01-02 12:15:49.66	235.09	11.59	-30.0	-33.1	12.2	2.69e-04	0	43	0	144703488	21	5117
2026-01-02 12:15:50.66	235.24	11.65	-29.9	-32.8	12.5	1.59e-04	0	43	0	145752064	21	4998
2026-01-02 12:15:51.67	235.39	11.71	-29.9	-32.6	12.6	1.01e-04	0	43	0	147849216	21	4944
2026-01-02 12:15:52.68	235.54	11.76	-29.9	-32.7	12.6	9.61e-05	0	43	0	149946368	21	4963
2026-01-02 12:15:53.68	235.70	11.82	-29.9	-32.7	12.5	1.25e-04	0	43	0	152043520	21	4984
2026-01-02 12:15:54.68	235.85	11.88	-29.9	-32.8	12.5	1.50e-04	0	43	0	154140672	21	5006
2026-01-02 12:15:55.69	236.01	11.93	-30.0	-32.9	12.4	1.35e-04	0	42	0	155189248	21	5056
2026-01-02 12:15:56.69	236.16	11.99	-30.0	-32.8	12.5	1.38e-04	0	43	0	157286400	21	5020
2026-01-02 12:15:57.69	236.32	12.05	-29.9	-32.7	12.6	1.10e-04	0	43	0	159383552	21	4958
2026-01-02 12:15:58.68	236.47	12.10	-29.9	-32.7	12.5	9.46e-05	0	43	0	161480704	21	4972
2026-01-02 12:15:59.69	236.63	12.16	-30.0	-32.9	12.4	1.28e-04	0	43	0	163577856	21	5033
2026-01-02 12:16:00.69	236.78	12.22	-30.0	-32.8	12.4	1.81e-04	0	43	0	164626432	21	5013
2026-01-02 12:16:01.69	236.94	12.27	-29.9	-32.7	12.6	1.03e-04	0	43	0	166723584	21	4949
2026-01-02 12:16:02.69	237.10	12.33	-30.0	-32.8	12.5	1.06e-04	0	43	0	168820736	21	5007
2026-01-02 12:16:03.70	237.26	12.39	-30.1	-33.1	12.3	1.61e-04	0	43	0	170917888	21	5130
2026-01-02 12:16:04.70	237.42	12.44	-30.0	-33.0	12.3	2.19e-04	0	43	0	173015040	21	5084
2026-01-02 12:16:05.71	237.58	12.50	-30.0	-33.0	12.3	1.49e-04	0	43	0	174063616	21	5083
2026-01-02 12:16:06.71	237.74	12.55	-30.1	-33.4	12.1	2.11e-04	0	43	0	176160768	21	5218
2026-01-02 12:16:07.72	237.90	12.61	-30.1	-33.3	12.2	3.13e-04	0	43	0	178257920	21	5172
2026-01-02 12:16:08.73	238.07	12.67	-29.9	-32.8	12.5	1.09e-04	0	43	0	180355072	21	4983
2026-01-02 12:16:09.74	238.23	12.72	-29.8	-32.3	12.8	6.63e-05	0	43	0	182452224	21	4823
2026-01-02 12:16:10.74	238.39	12.78	-29.8	-32.9	12.8	3.43e-05	0	43	0	183500800	20	5116
2026-01-02 12:16:11.75	238.56	12.83	-29.8	-32.8	12.9	6.71e-05	0	43	0	185597952	20	5089
2026-01-02 12:16:12.75	238.72	12.89	-29.7	-32.5	13.1	3.50e-05	0	43	0	187695104	20	4971
2026-01-02 12:16:13.75	238.89	12.94	-29.7	-32.6	13.0	3.96e-05	0	43	0	189792256	20	5014
2026-01-02 12:16:14.76	239.05	13.00	-29.7	-32.6	13.1	3.58e-05	0	43	0	191889408	20	5008
2026-01-02 12:16:15.75	239.22	13.05	-29.7	-32.6	13.0	3.73e-05	0	43	0	192937984	20	5035
2026-01-02 12:16:16.75	239.38	13.11	-29.6	-32.4	13.2	2.51e-05	0	43	0	195035136	20	4939
2026-01-02 12:16:17.76	239.55	13.16	-29.6	-32.4	13.2	2.05e-05	0	43	0	197132288	20	4928
2026-01-02 12:16:18.76	239.72	13.22	-29.6	-32.3	13.2	2.82e-05	0	43	0	199229440	20	4920
2026-01-02 12:16:19.76	239.89	13.27	-29.6	-32.2	13.3	1.98e-05	0	43	0	200278016	20	4869
2026-01-02 12:16:20.76	240.06	13.33	-29.6	-32.2	13.3	2.21e-05	0	43	0	202375168	20	4865
2026-01-02 12:16:21.76	240.23	13.38	-29.6	-32.1	13.3	8.30e-06	0	43	0	204472320	20	4849
2026-01-02 12:16:22.77	240.40	13.44	-29.8	-32.7	13.0	2.21e-05	0	43	0	206569472	20	5049
2026-01-02 12:16:23.77	240.57	13.49	-29.7	-32.5	13.1	4.11e-05	0	43	0	208666624	20	4962
2026-01-02 12:16:24.77	240.74	13.55	-29.6	-32.2	13.3	2.05e-05	0	43	0	209715200	20	4881
2026-01-02 12:16:25.77	240.91	13.60	-29.6	-32.2	13.4	1.22e-05	0	43	0	211812352	20	4856
2026-01-02 12:16:26.78	241.09	13.65	-29.5	-32.0	13.5	1.37e-05	0	43	0	213909504	20	4803
2026-01-02 12:16:27.78	241.26	13.71	-29.5	-31.9	13.5	1.06e-05	0	43	0	216006656	20	4779
2026-01-02 12:16:28.78	241.43	13.76	-29.5	-31.9	13.6	9.10e-06	0	43	0	218103808	20	4750
2026-01-02 12:16:29.79	241.61	13.82	-29.6	-32.1	13.4	8.30e-06	0	43	0	219152384	20	4847
2026-01-02 12:16:30.79	241.78	13.87	-29.4	-31.8	13.6	1.83e-05	0	43	0	221249536	20	4718
2026-01-02 12:16:31.78	241.96	13.92	-29.3	-31.4	13.9	3.80e-06	0	43	0	223346688	20	4586
2026-01-02 12:16:32.78	242.13	13.97	-29.4	-32.1	13.8	7.00e-07	0	43	0	225443840	19	4904
2026-01-02 12:16:33.79	242.31	14.03	-29.4	-32.1	13.8	4.50e-06	0	43	0	227540992	19	4907
2026-01-02 12:16:34.79	242.49	14.08	-29.4	-32.2	13.7	3.00e-06	0	43	0	228589568	19	4965
2026-01-02 12:16:35.79	242.67	14.13	-29.4	-32.0	13.9	7.60e-06	0	43	0	230686720	19	4895
2026-01-02 12:16:36.79	242.84	14.19	-29.4	-32.0	13.9	1.50e-06	0	43	0	232783872	19	4898
2026-01-02 12:16:37.80	243.02	14.24	-29.4	-32.2	13.8	4.50e-06	0	43	0	234881024	19	4942
2026-01-02 12:16:38.80	243.20	14.29	-29.5	-32.3	13.7	6.10e-06	0	43	0	236978176	19	4979
2026-01-02 12:16:39.80	243.38	14.34	-29.4	-32.1	13.9	5.30e-06	0	43	0	238026752	19	4911
2026-01-02 12:16:40.81	243.57	14.40	-29.6	-32.6	13.5	4.50e-06	0	43	0	240123904	19	5088
2026-01-02 12:16:41.82	243.75	14.45	-29.5	-32.3	13.7	3.80e-06	0	43	0	242221056	19	5000
2026-01-02 12:16:42.82	243.93	14.50	-29.4	-32.2	13.9	3.00e-06	0	43	0	244318208	19	4946
2026-01-02 12:16:43.82	244.12	14.55	-29.4	-32.1	13.8	5.30e-06	0	43	0	245366784	19	4934
2026-01-02 12:16:44.83	244.30	14.60	-29.5	-32.3	13.8	2.20e-06	0	43	0	247463936	19	4978
2026-01-02 12:16:45.83	244.49	14.65	-29.3	-32.0	13.9	5.30e-06	0	43	0	249561088	19	4864
2026-01-02 12:16:46.83	244.67	14.71	-29.4	-32.1	13.9	2.20e-06	0	43	0	251658240	19	4902
2026-01-02 12:16:47.83	244.86	14.76	-29.5	-32.4	13.7	4.50e-06	0	43	0	253755392	19	5015
2026-01-02 12:16:48.83	245.04	14.81	-29.4	-32.3	13.8	3.00e-06	0	43	0	254803968	19	4980
2026-01-02 12:16:49.84	245.23	14.86	-29.4	-32.2	13.8	3.00e-06	0	43	0	256901120	19	4962
2026-01-02 12:16:50.84	245.42	14.91	-29.6	-32.6	13.6	3.00e-06	0	43	0	258998272	19	5080
2026-01-02 12:16:51.85	245.61	14.96	-29.6	-32.6	13.5	9.10e-06	0	43	0	261095424	19	5108
2026-01-02 12:16:52.85	245.79	15.01	-29.7	-32.9	13.4	1.75e-05	0	43	0	263192576	19	5216
2026-01-02 12:16:53.85	245.98	15.06	-29.7	-32.8	13.4	1.22e-05	0	43	0	264241152	19	5168
2026-01-02 12:16:54.86	246.17	15.11	-29.5	-32.5	13.6	9.90e-06	0	43	0	266338304	19	5059
2026-01-02 12:16:55.86	246.36	15.16	-29.5	-32.5	13.6	6.80e-06	0	43	0	268435456	19	5060
2026-01-02 12:16:56.86	246.56	15.21	-29.5	-32.5	13.6	6.80e-06	0	43	0	270532608	19	5045
2026-01-02 12:16:57.86	246.75	15.26	-29.7	-32.8	13.4	1.14e-05	0	43	0	272629760	19	5173
2026-01-02 12:16:58.86	246.94	15.30	-29.8	-33.1	13.3	1.90e-05	0	43	0	273678336	19	5278
2026-01-02 12:16:59.87	247.13	15.35	-29.8	-33.1	13.2	2.59e-05	0	43	0	275775488	19	5283
2026-01-02 12:17:00.87	247.33	15.40	-29.9	-33.6	12.9	3.50e-05	0	43	0	277872640	19	5478
2026-01-02 12:17:01.87	247.52	15.45	-29.8	-33.3	13.1	2.67e-05	0	43	0	279969792	19	5352
2026-01-02 12:17:02.87	247.71	15.50	-29.8	-33.2	13.1	2.67e-05	0	43	0	282066944	19	5342
2026-01-02 12:17:03.87	247.91	15.55	-29.8	-33.3	13.1	3.35e-05	0	43	0	283115520	19	5379
2026-01-02 12:17:04.87	248.11	15.59	-29.9	-33.5	13.0	3.58e-05	0	43	0	285212672	19	5432
2026-01-02 12:17:05.87	248.30	15.64	-30.0	-33.3	12.7	5.49e-05	0	43	0	287309824	20	5265
2026-01-02 12:17:06.87	248.50	15.69	-30.2	-34.0	12.2	1.91e-04	0	43	0	289406976	20	5566
2026-01-02 12:17:07.88	248.70	15.74	-30.2	-33.8	12.4	2.30e-04	0	43	0	290455552	20	5456
2026-01-02 12:17:08.88	248.90	15.78	-30.0	-33.3	12.7	1.13e-04	0	43	0	292552704	20	5271
2026-01-02 12:17:09.88	249.09	15.83	-29.9	-33.0	12.9	5.41e-05	0	43	0	294649856	20	5155
2026-01-02 12:17:10.89	249.30	15.87	-30.0	-33.2	12.8	5.72e-05	0	43	0	296747008	20	5225
2026-01-02 12:17:11.89	249.50	15.92	-29.9	-33.1	12.8	6.86e-05	0	43	0	298844160	20	5183
2026-01-02 12:17:12.89	249.70	15.97	-30.0	-33.3	12.7	7.93e-05	0	43	0	300941312	20	5262
2026-01-02 12:17:13.89	249.90	16.01	-30.0	-33.2	12.8	6.71e-05	0	43	0	301989888	20	5215
2026-01-02 12:17:14.90	250.10	16.06	-30.0	-33.3	12.7	5.49e-05	0	43	0	304087040	20	5274
2026-01-02 12:17:15.90	250.30	16.10	-30.1	-33.6	12.6	9.23e-05	0	43	0	306184192	20	5373
2026-01-02 12:17:16.90	250.50	16.15	-30.1	-33.5	12.6	1.01e-04	0	43	0	308281344	20	5351
2026-01-02 12:17:17.90	250.71	16.19	-30.2	-33.9	12.4	1.25e-04	0	43	0	309329920	20	5486
2026-01-02 12:17:18.90	250.91	16.23	-30.3	-34.0	12.3	1.90e-04	0	43	0	311427072	20	5555
2026-01-02 12:17:19.91	251.12	16.28	-30.3	-34.2	12.1	2.57e-04	0	43	0	313524224	20	5635
2026-01-02 12:17:20.91	251.32	16.32	-30.3	-34.3	12.1	2.65e-04	0	43	0	315621376	20	5668
2026-01-02 12:17:21.91	251.53	16.37	-30.3	-34.2	12.1	3.20e-04	0	43	0	317718528	20	5641
2026-01-02 12:17:22.91	251.74	16.41	-30.4	-34.6	11.9	3.52e-04	0	43	0	318767104	20	5799
2026-01-02 12:17:23.91	251.94	16.45	-30.4	-34.6	11.9	4.36e-04	0	43	0	320864256	20	5787
2026-01-02 12:17:24.92	252.15	16.49	-30.6	-34.6	11.5	5.71e-04	0	43	0	322961408	21	5697
2026-01-02 12:17:25.92	252.36	16.54	-30.9	-35.4	10.9	1.28e-03	0	43	0	325058560	21	6094
2026-01-02 12:17:26.92	252.57	16.58	-30.8	-35.2	11.1	1.62e-03	0	43	0	327155712	21	5949
2026-01-02 12:17:27.93	252.78	16.62	-30.6	-34.7	11.4	1.21e-03	0	43	0	328204288	21	5765
2026-01-02 12:17:28.93	252.99	16.66	-30.5	-34.3	11.7	7.43e-04	0	43	0	330301440	21	5559
2026-01-02 12:17:29.93	253.20	16.70	-30.4	-33.9	12.0	3.62e-04	0	43	0	332398592	21	5389
2026-01-02 12:17:30.94	253.41	16.74	-30.4	-33.8	12.1	2.92e-04	0	43	0	334495744	21	5359
2026-01-02 12:17:31.94	253.62	16.78	-30.4	-34.0	12.0	2.60e-04	0	43	0	336592896	21	5429
2026-01-02 12:17:32.94	253.84	16.82	-30.3	-33.6	12.2	2.75e-04	0	43	0	337641472	21	5271
2026-01-02 12:17:33.95	254.05	16.86	-30.3	-33.6	12.2	1.98e-04	0	43	0	339738624	21	5278
2026-01-02 12:17:34.96	254.26	16.90	-30.2	-33.3	12.4	1.95e-04	0	43	0	341835776	21	5154
2026-01-02 12:17:35.96	254.48	16.94	-30.3	-33.5	12.3	1.50e-04	0	43	0	343932928	21	5229
2026-01-02 12:17:36.96	254.69	16.98	-30.3	-33.7	12.1	2.01e-04	0	43	0	346030080	21	5332
2026-01-02 12:17:37.97	254.91	17.02	-30.2	-33.2	12.5	1.50e-04	0	43	0	347078656	21	5123
2026-01-02 12:17:38.98	255.13	17.06	-30.1	-32.9	12.7	1.11e-04	0	43	0	349175808	21	5008
2026-01-02 12:17:39.97	255.34	17.10	-30.1	-33.0	12.7	7.93e-05	0	43	0	351272960	21	5029
2026-01-02 12:17:40.97	255.56	17.14	-30.1	-33.0	12.6	8.92e-05	0	43	0	353370112	21	5051
2026-01-02 12:17:41.97	255.77	17.17	-30.1	-33.1	12.6	9.30e-05	0	43	0	354418688	21	5084
2026-01-02 12:17:42.97	255.99	17.21	-30.1	-33.0	12.7	9.23e-05	0	43	0	356515840	21	5033
2026-01-02 12:17:43.97	256.21	17.25	-30.1	-33.1	12.6	9.76e-05	0	43	0	358612992	21	5062
2026-01-02 12:17:44.98	256.43	17.28	-30.1	-32.9	12.7	8.62e-05	0	43	0	360710144	21	5003
2026-01-02 12:17:45.99	256.65	17.32	-30.1	-33.1	12.6	9.23e-05	0	43	0	362807296	21	5067
2026-01-02 12:17:46.98	256.87	17.35	-29.9	-32.6	13.0	5.11e-05	0	43	0	363855872	21	4870
2026-01-02 12:17:47.99	257.09	17.39	-29.9	-32.5	13.0	4.19e-05	0	43	0	365953024	21	4861
2026-01-02 12:17:48.99	257.31	17.42	-30.1	-32.9	12.7	4.88e-05	0	43	0	368050176	21	4996
2026-01-02 12:17:50.00	257.53	17.46	-29.9	-32.4	13.1	5.95e-05	0	43	0	370147328	21	4805
2026-01-02 12:17:50.99	257.75	17.49	-29.7	-32.5	13.3	1.44e-05	0	43	0	372244480	20	4957
2026-01-02 12:17:51.99	257.97	17.53	-29.8	-32.6	13.3	1.29e-05	0	43	0	373293056	20	5003
2026-01-02 12:17:53.00	258.20	17.56	-29.9	-32.9	13.1	2.36e-05	0	43	0	375390208	20	5119
2026-01-02 12:17:54.00	258.42	17.59	-30.0	-33.4	12.8	4.57e-05	0	43	0	377487360	20	5286
2026-01-02 12:17:55.00	258.64	17.63	-29.9	-33.0	13.0	4.95e-05	0	43	0	379584512	20	5149
2026-01-02 12:17:56.01	258.87	17.66	-29.9	-32.9	13.0	3.12e-05	0	43	0	381681664	20	5116
2026-01-02 12:17:57.02	259.09	17.69	-30.0	-33.3	12.9	4.34e-05	0	43	0	382730240	20	5234
2026-01-02 12:17:58.02	259.32	17.72	-30.0	-33.2	12.9	4.42e-05	0	43	0	384827392	20	5206
2026-01-02 12:17:59.02	259.54	17.75	-30.0	-33.1	12.9	3.73e-05	0	43	0	386924544	20	5200
2026-01-02 12:18:00.03	259.77	17.78	-30.0	-33.3	12.9	4.27e-05	0	43	0	389021696	20	5236
2026-01-02 12:18:01.02	259.99	17.81	-30.2	-33.9	12.4	1.16e-04	0	43	0	391118848	20	5489
2026-01-02 12:18:02.02	260.22	17.84	-30.1	-33.5	12.7	8.08e-05	0	43	0	392167424	20	5314
2026-01-02 12:18:03.03	260.45	17.87	-29.9	-33.0	13.1	3.66e-05	0	43	0	394264576	20	5124
2026-01-02 12:18:04.03	260.68	17.90	-29.9	-32.9	13.2	2.28e-05	0	43	0	396361728	20	5093
2026-01-02 12:18:05.04	260.91	17.93	-29.8	-32.7	13.3	1.98e-05	0	43	0	398458880	20	5021
2026-01-02 12:18:06.05	261.14	17.96	-29.9	-32.9	13.2	2.97e-05	0	43	0	400556032	20	5081
2026-01-02 12:18:07.05	261.36	17.99	-29.9	-32.9	13.1	2.89e-05	0	43	0	401604608	20	5108
2026-01-02 12:18:08.06	261.60	18.01	-30.0	-33.2	12.9	4.95e-05	0	43	0	403701760	20	5220
2026-01-02 12:18:09.06	261.82	18.04	-29.9	-33.1	13.0	3.89e-05	0	43	0	405798912	20	5171
2026-01-02 12:18:10.07	262.06	18.07	-30.0	-33.2	12.9	3.35e-05	0	43	0	407896064	20	5214
2026-01-02 12:18:11.07	262.29	18.10	-30.0	-33.2	12.9	4.88e-05	0	43	0	408944640	20	5205
2026-01-02 12:18:12.07	262.52	18.12	-30.0	-33.2	12.9	4.19e-05	0	43	0	411041792	20	5204
2026-01-02 12:18:13.07	262.75	18.15	-30.1	-33.4	12.8	5.11e-05	0	43	0	413138944	20	5295
2026-01-02 12:18:14.08	262.98	18.17	-30.2	-33.7	12.5	8.46e-05	0	43	0	415236096	20	5418
2026-01-02 12:18:15.08	263.21	18.20	-30.0	-33.1	13.0	5.11e-05	0	43	0	417333248	20	5165
2026-01-02 12:18:16.09	263.45	18.22	-29.8	-32.7	13.3	2.28e-05	0	43	0	419430400	20	5008
2026-01-02 12:18:17.08	263.68	18.24	-29.8	-32.6	13.4	1.37e-05	0	43	0	420478976	20	4973
2026-01-02 12:18:18.08	263.91	18.27	-29.9	-32.9	13.1	3.73e-05	0	43	0	422576128	20	5103
2026-01-02 12:18:19.08	264.14	18.29	-29.9	-32.8	13.2	3.35e-05	0	43	0	424673280	20	5069
2026-01-02 12:18:20.09	264.38	18.31	-29.9	-33.1	13.0	3.12e-05	0	43	0	426770432	20	5155
2026-01-02 12:18:21.09	264.61	18.33	-30.0	-33.1	13.1	4.34e-05	0	43	0	427819008	20	5147
2026-01-02 12:18:22.10	264.85	18.36	-29.9	-32.8	13.2	2.59e-05	0	43	0	429916160	20	5066
2026-01-02 12:18:23.11	265.08	18.38	-29.9	-33.0	13.0	2.21e-05	0	43	0	432013312	20	5148
2026-01-02 12:18:24.11	265.32	18.40	-29.9	-32.8	13.2	3.66e-05	0	43	0	434110464	20	5067
2026-01-02 12:18:25.12	265.55	18.42	-29.8	-32.8	13.2	1.60e-05	0	43	0	436207616	20	5056
2026-01-02 12:18:26.13	265.79	18.44	-29.9	-32.9	13.1	2.67e-05	0	43	0	437256192	20	5082
2026-01-02 12:18:27.13	266.03	18.46	-29.8	-32.8	13.3	1.75e-05	0	43	0	439353344	20	5036
2026-01-02 12:18:28.14	266.26	18.48	-29.9	-33.0	13.1	2.89e-05	0	43	0	441450496	20	5146
2026-01-02 12:18:29.14	266.50	18.49	-29.9	-32.8	13.2	2.13e-05	0	43	0	443547648	20	5058
2026-01-02 12:18:30.14	266.74	18.51	-29.8	-32.6	13.4	1.52e-05	0	43	0	445644800	20	4971
2026-01-02 12:18:31.14	266.97	18.53	-29.8	-32.7	13.3	1.60e-05	0	43	0	446693376	20	5017
2026-01-02 12:18:32.14	267.21	18.55	-29.8	-32.6	13.3	1.98e-05	0	43	0	448790528	20	4993
2026-01-02 12:18:33.15	267.45	18.56	-29.7	-32.4	13.4	1.83e-05	0	43	0	450887680	20	4917
2026-01-02 12:18:34.15	267.69	18.58	-29.6	-32.2	13.6	6.80e-06	0	43	0	452984832	20	4830
2026-01-02 12:18:35.16	267.93	18.59	-29.6	-32.0	13.7	4.50e-06	0	43	0	455081984	20	4772
2026-01-02 12:18:36.16	268.16	18.61	-29.7	-32.3	13.6	1.52e-05	0	43	0	456130560	20	4854
2026-01-02 12:18:37.16	268.40	18.62	-29.7	-32.3	13.6	9.90e-06	0	43	0	458227712	20	4876
2026-01-02 12:18:38.16	268.64	18.64	-29.8	-32.7	13.3	1.52e-05	0	43	0	460324864	20	5024
2026-01-02 12:18:39.17	268.88	18.65	-29.9	-32.8	13.2	2.89e-05	0	43	0	462422016	20	5063
2026-01-02 12:18:40.18	269.12	18.66	-29.9	-33.0	13.1	3.66e-05	0	43	0	464519168	20	5145
2026-01-02 12:18:41.18	269.36	18.68	-30.0	-33.2	13.0	3.73e-05	0	43	0	465567744	20	5205
2026-01-02 12:18:42.18	269.60	18.69	-29.9	-33.0	13.0	4.42e-05	0	43	0	467664896	20	5143
2026-01-02 12:18:43.17	269.83	18.70	-30.0	-33.1	13.0	4.80e-05	0	43	0	469762048	20	5172
2026-01-02 12:18:44.17	270.07	18.71	-30.1	-33.4	12.8	4.80e-05	0	43	0	471859200	20	5279
2026-01-02 12:18:45.18	270.31	18.72	-29.9	-32.9	13.1	3.96e-05	0	43	0	472907776	20	5098
2026-01-02 12:18:46.17	270.55	18.73	-29.9	-32.9	13.2	3.20e-05	0	43	0	475004928	20	5091
2026-01-02 12:18:47.17	270.79	18.74	-29.9	-33.0	13.1	3.28e-05	0	43	0	477102080	20	5136
2026-01-02 12:18:48.18	271.03	18.75	-30.0	-33.1	13.1	1.98e-05	0	43	0	479199232	20	5165
2026-01-02 12:18:49.18	271.27	18.76	-30.0	-33.2	12.9	3.05e-05	0	43	0	481296384	20	5200
2026-01-02 12:18:50.18	271.51	18.77	-30.1	-33.6	12.7	6.17e-05	0	43	0	482344960	20	5348
2026-01-02 12:18:51.18	271.75	18.78	-30.1	-33.5	12.7	5.11e-05	0	43	0	484442112	20	5335
2026-01-02 12:18:52.18	271.99	18.78	-30.3	-34.0	12.4	1.12e-04	0	43	0	486539264	20	5522
2026-01-02 12:18:53.19	272.24	18.79	-30.4	-34.4	12.1	2.30e-04	0	43	0	488636416	20	5686
2026-01-02 12:18:54.19	272.48	18.80	-30.4	-34.3	12.2	2.64e-04	0	43	0	490733568	20	5679
2026-01-02 12:18:55.19	272.72	18.80	-30.5	-34.6	12.0	2.62e-04	0	43	0	491782144	20	5768
2026-01-02 12:18:56.19	272.96	18.81	-30.6	-34.6	11.6	5.05e-04	0	43	0	493879296	21	5670
2026-01-02 12:18:57.20	273.20	18.81	-30.7	-34.7	11.5	7.76e-04	0	43	0	495976448	21	5731
2026-01-02 12:18:58.20	273.44	18.82	-30.4	-34.0	12.1	3.11e-04	0	43	0	498073600	21	5426
2026-01-02 12:18:59.21	273.68	18.82	-30.4	-33.9	12.1	3.05e-04	0	43	0	500170752	21	5398
2026-01-02 12:19:00.21	273.93	18.83	-30.3	-33.5	12.4	1.86e-04	0	43	0	501219328	21	5216
2026-01-02 12:19:01.21	274.17	18.83	-30.3	-33.5	12.4	1.52e-04	0	43	0	503316480	21	5215
2026-01-02 12:19:02.21	274.41	18.83	-30.3	-33.7	12.3	1.77e-04	0	43	0	505413632	21	5302
2026-01-02 12:19:03.21	274.65	18.83	-30.4	-33.9	12.1	2.36e-04	0	43	0	507510784	21	5388
2026-01-02 12:19:04.21	274.89	18.83	-30.6	-34.6	11.6	3.58e-04	0	43	0	509607936	21	5677
2026-01-02 12:19:05.21	275.13	18.84	-30.9	-35.5	11.0	1.97e-03	0	43	0	510656512	21	6101
2026-01-02 12:19:06.22	275.37	18.84	-31.0	-35.4	10.8	2.53e-03	0	43	0	512753664	22	5930
2026-01-02 12:19:07.22	275.61	18.84	-31.2	-35.9	10.3	4.43e-03	0	43	0	514850816	22	6196
2026-01-02 12:19:08.21	275.85	18.83	-30.9	-35.0	11.0	3.32e-03	0	43	0	516947968	22	5778
2026-01-02 12:19:09.22	276.10	18.83	-30.7	-34.3	11.5	9.80e-04	0	43	0	517996544	22	5446
2026-01-02 12:19:10.22	276.34	18.83	-30.6	-33.9	11.8	5.94e-04	0	43	0	520093696	22	5293
2026-01-02 12:19:11.23	276.58	18.83	-30.4	-33.4	12.2	3.75e-04	0	43	0	522190848	22	5076
2026-01-02 12:19:12.22	276.82	18.83	-30.4	-33.3	12.2	2.27e-04	0	43	0	524288000	22	5039
2026-01-02 12:19:13.23	277.06	18.82	-30.4	-33.2	12.3	2.44e-04	0	43	0	526385152	22	4986
2026-01-02 12:19:14.23	277.30	18.82	-30.2	-33.4	12.5	1.06e-04	0	43	0	527433728	21	5171
2026-01-02 12:19:15.24	277.55	18.82	-30.3	-33.6	12.4	1.61e-04	0	43	0	529530880	21	5258
2026-01-02 12:19:16.24	277.79	18.81	-30.1	-33.0	12.7	9.00e-05	0	43	0	531628032	21	5020
2026-01-02 12:19:17.24	278.03	18.81	-30.1	-32.9	12.8	5.41e-05	0	43	0	533725184	21	4994
2026-01-02 12:19:18.24	278.27	18.80	-30.1	-32.9	12.8	7.40e-05	0	43	0	535822336	21	4995
2026-01-02 12:19:19.24	278.51	18.80	-30.1	-33.0	12.8	6.63e-05	0	43	0	536870912	21	5011
2026-01-02 12:19:20.24	278.75	18.79	-30.2	-33.2	12.7	6.33e-05	0	43	0	538968064	21	5092
2026-01-02 12:19:21.24	278.99	18.78	-30.2	-33.3	12.5	9.61e-05	0	43	0	541065216	21	5152
2026-01-02 12:19:22.23	279.23	18.77	-30.3	-33.6	12.4	1.40e-04	0	43	0	543162368	21	5252
2026-01-02 12:19:23.23	279.47	18.77	-30.2	-33.2	12.6	1.03e-04	0	43	0	545259520	21	5110
2026-01-02 12:19:24.23	279.71	18.76	-30.1	-33.0	12.7	6.86e-05	0	43	0	546308096	21	5037
2026-01-02 12:19:25.23	279.95	18.75	-30.2	-33.3	12.6	6.25e-05	0	43	0	548405248	21	5139
2026-01-02 12:19:26.23	280.19	18.74	-30.3	-33.6	12.4	1.51e-04	0	43	0	550502400	21	5245
2026-01-02 12:19:27.23	280.42	18.73	-30.2	-33.4	12.5	1.63e-04	0	43	0	552599552	21	5172
2026-01-02 12:19:28.23	280.66	18.72	-30.1	-32.9	12.8	8.69e-05	0	44	0	553648128	21	4996
2026-01-02 12:19:29.22	280.90	18.71	-30.0	-32.8	12.9	5.41e-05	0	43	0	555745280	21	4956
2026-01-02 12:19:30.23	281.14	18.70	-30.1	-32.9	12.8	5.03e-05	0	43	0	557842432	21	4999
2026-01-02 12:19:31.23	281.38	18.69	-30.2	-33.1	12.7	5.49e-05	0	43	0	559939584	21	5073
2026-01-02 12:19:32.23	281.62	18.67	-30.1	-33.0	12.7	7.17e-05	0	43	0	562036736	21	5037
2026-01-02 12:19:33.22	281.85	18.66	-30.2	-33.3	12.5	1.05e-04	0	43	0	563085312	21	5146
2026-01-02 12:19:34.23	282.09	18.65	-30.3	-33.6	12.3	1.75e-04	0	43	0	565182464	21	5278
2026-01-02 12:19:35.24	282.34	18.63	-30.3	-33.6	12.4	1.55e-04	0	43	0	567279616	21	5269
2026-01-02 12:19:36.24	282.57	18.62	-30.5	-34.0	12.0	2.82e-04	0	43	0	569376768	21	5438
2026-01-02 12:19:37.24	282.81	18.61	-30.4	-33.8	12.2	2.20e-04	0	44	0	571473920	21	5333
2026-01-02 12:19:38.25	283.05	18.59	-30.3	-33.6	12.4	2.04e-04	0	43	0	572522496	21	5258
2026-01-02 12:19:39.25	283.29	18.57	-30.3	-33.7	12.3	1.78e-04	0	43	0	574619648	21	5287
2026-01-02 12:19:40.25	283.52	18.56	-30.4	-33.9	12.2	1.46e-04	0	43	0	576716800	21	5374
2026-01-02 12:19:41.25	283.76	18.54	-30.3	-33.7	12.3	2.67e-04	0	43	0	578813952	21	5289
2026-01-02 12:19:42.26	284.00	18.52	-30.1	-32.9	12.8	1.02e-04	0	43	0	580911104	21	4982
2026-01-02 12:19:43.26	284.23	18.51	-29.9	-32.4	13.2	3.50e-05	0	43	0	581959680	21	4793
2026-01-02 12:19:44.26	284.47	18.49	-29.7	-32.4	13.5	1.44e-05	0	43	0	584056832	20	4914
2026-01-02 12:19:45.26	284.70	18.47	-29.7	-32.2	13.6	1.22e-05	0	43	0	586153984	20	4846
2026-01-02 12:19:46.27	284.94	18.45	-29.7	-32.2	13.6	8.30e-06	0	43	0	588251136	20	4838
2026-01-02 12:19:47.27	285.18	18.43	-29.7	-32.3	13.6	5.30e-06	0	43	0	590348288	20	4870
2026-01-02 12:19:48.26	285.41	18.41	-29.7	-32.5	13.4	9.90e-06	0	43	0	591396864	20	4928
2026-01-02 12:19:49.27	285.65	18.39	-29.8	-32.5	13.4	9.10e-06	0	43	0	593494016	20	4949
2026-01-02 12:19:50.28	285.88	18.37	-29.8	-32.7	13.3	1.83e-05	0	43	0	595591168	20	5028
2026-01-02 12:19:51.28	286.12	18.35	-29.8	-32.7	13.3	1.83e-05	0	43	0	597688320	20	5029
2026-01-02 12:19:52.29	286.35	18.33	-29.9	-32.9	13.2	2.36e-05	0	43	0	599785472	20	5104
2026-01-02 12:19:53.29	286.58	18.31	-29.9	-32.9	13.2	2.28e-05	0	43	0	600834048	20	5078
2026-01-02 12:19:54.29	286.82	18.29	-30.0	-33.0	13.1	3.58e-05	0	43	0	602931200	20	5139
2026-01-02 12:19:55.29	287.05	18.26	-29.9	-32.9	13.1	2.67e-05	0	43	0	605028352	20	5105
2026-01-02 12:19:56.29	287.28	18.24	-30.0	-33.2	13.0	3.12e-05	0	43	0	607125504	20	5198
2026-01-02 12:19:57.29	287.51	18.22	-30.0	-33.3	12.9	3.58e-05	0	43	0	608174080	20	5230
2026-01-02 12:19:58.28	287.74	18.19	-30.0	-33.1	13.1	3.89e-05	0	43	0	610271232	20	5160
2026-01-02 12:19:59.28	287.97	18.17	-30.0	-33.1	13.0	4.42e-05	0	43	0	612368384	20	5177
2026-01-02 12:20:00.28	288.20	18.14	-29.9	-33.0	13.1	1.98e-05	0	43	0	614465536	20	5114
2026-01-02 12:20:01.29	288.43	18.12	-30.0	-33.1	13.0	3.05e-05	0	43	0	616562688	20	5173
2026-01-02 12:20:02.30	288.67	18.09	-29.8	-32.7	13.3	2.21e-05	0	43	0	617611264	20	5024
2026-01-02 12:20:03.30	288.89	18.06	-29.8	-32.6	13.4	1.98e-05	0	43	0	619708416	20	4978
2026-01-02 12:20:04.30	289.12	18.04	-29.8	-32.6	13.3	1.60e-05	0	43	0	621805568	20	4990
2026-01-02 12:20:05.31	289.35	18.01	-29.8	-32.7	13.2	2.44e-05	0	43	0	623902720	20	5025
2026-01-02 12:20:06.32	289.58	17.98	-29.7	-32.4	13.5	1.37e-05	0	43	0	625999872	20	4889
2026-01-02 12:20:07.32	289.81	17.96	-29.5	-31.9	13.8	6.80e-06	0	43	0	627048448	20	4732
2026-01-02 12:20:08.32	290.04	17.93	-29.4	-31.5	14.1	7.00e-07	0	43	0	629145600	20	4586
2026-01-02 12:20:09.32	290.27	17.90	-29.3	-31.4	14.1	7.00e-07	0	44	0	631242752	20	4582
2026-01-02 12:20:10.32	290.49	17.87	-29.4	-31.6	14.0	3.80e-06	0	43	0	633339904	20	4625
2026-01-02 12:20:11.32	290.72	17.84	-29.5	-31.8	13.8	3.00e-06	0	43	0	635437056	20	4712
2026-01-02 12:20:12.32	290.94	17.81	-29.5	-31.8	13.9	2.20e-06	0	43	0	636485632	20	4692
2026-01-02 12:20:13.33	291.17	17.78	-29.6	-32.1	13.6	1.50e-06	0	43	0	638582784	20	4809
2026-01-02 12:20:14.33	291.40	17.75	-29.7	-32.4	13.5	1.60e-05	0	43	0	640679936	20	4901
2026-01-02 12:20:15.32	291.62	17.72	-29.5	-31.9	13.8	4.50e-06	0	43	0	642777088	20	4744
2026-01-02 12:20:16.32	291.84	17.69	-29.5	-31.8	13.9	2.20e-06	0	43	0	643825664	20	4688
2026-01-02 12:20:17.33	292.07	17.65	-29.5	-31.8	13.9	3.80e-06	0	43	0	645922816	20	4692
2026-01-02 12:20:18.32	292.29	17.62	-29.5	-31.8	13.9	3.00e-06	0	43	0	648019968	20	4687
2026-01-02 12:20:19.33	292.51	17.59	-29.4	-31.7	13.9	3.00e-06	0	43	0	650117120	20	4659
2026-01-02 12:20:20.33	292.73	17.56	-29.6	-32.1	13.7	6.80e-06	0	43	0	652214272	20	4811
2026-01-02 12:20:21.33	292.95	17.52	-29.5	-31.9	13.8	4.50e-06	0	44	0	653262848	20	4732
2026-01-02 12:20:22.34	293.18	17.49	-29.6	-32.1	13.7	7.60e-06	0	43	0	655360000	20	4806
2026-01-02 12:20:23.34	293.40	17.46	-29.6	-32.0	13.7	8.30e-06	0	43	0	657457152	20	4776
2026-01-02 12:20:24.34	293.62	17.42	-29.3	-31.4	14.1	6.10e-06	0	43	0	659554304	20	4563
2026-01-02 12:20:25.34	293.84	17.39	-29.3	-31.8	14.3	0.00e+00	0	43	0	661651456	19	4780
2026-01-02 12:20:26.34	294.06	17.35	-29.2	-31.6	14.3	3.00e-06	0	43	0	662700032	19	4735
2026-01-02 12:20:27.35	294.28	17.32	-29.2	-31.6	14.4	2.20e-06	0	44	0	664797184	19	4745
2026-01-02 12:20:28.35	294.49	17.28	-29.5	-32.3	14.0	2.20e-06	0	43	0	666894336	19	4950
2026-01-02 12:20:29.36	294.71	17.24	-29.5	-32.3	13.9	6.10e-06	0	43	0	668991488	19	4965
2026-01-02 12:20:30.36	294.93	17.21	-29.5	-32.2	13.9	6.10e-06	0	43	0	671088640	19	4922
2026-01-02 12:20:31.36	295.15	17.17	-29.4	-32.1	14.0	1.50e-06	0	43	0	672137216	19	4911
2026-01-02 12:20:32.36	295.36	17.13	-29.5	-32.1	14.0	1.52e-05	0	43	0	674234368	19	4911
2026-01-02 12:20:33.36	295.58	17.10	-29.7	-32.8	13.6	2.20e-06	0	43	0	676331520	19	5153
2026-01-02 12:20:34.37	295.79	17.06	-29.9	-33.3	13.3	1.52e-05	0	43	0	678428672	19	5346
2026-01-02 12:20:35.37	296.01	17.02	-29.8	-33.2	13.4	1.83e-05	0	43	0	680525824	19	5287
2026-01-02 12:20:36.38	296.22	16.98	-29.9	-33.4	13.2	1.14e-05	0	43	0	681574400	19	5376
2026-01-02 12:20:37.39	296.44	16.94	-30.0	-33.2	13.0	9.61e-05	0	43	0	683671552	20	5204
2026-01-02 12:20:38.39	296.65	16.90	-29.6	-32.2	13.6	1.44e-05	0	44	0	685768704	20	4826
2026-01-02 12:20:39.39	296.86	16.87	-29.2	-31.6	14.3	1.50e-06	0	43	0	687865856	19	4741
2026-01-02 12:20:40.40	297.08	16.83	-29.1	-31.3	14.6	0.00e+00	0	43	0	689963008	19	4617
2026-01-02 12:20:41.41	297.29	16.78	-29.2	-31.4	14.5	2.20e-06	0	43	0	691011584	19	4650
2026-01-02 12:20:42.41	297.50	16.74	-29.1	-31.1	14.7	0.00e+00	0	43	0	693108736	19	4573
2026-01-02 12:20:43.42	297.71	16.70	-29.1	-31.3	14.6	0.00e+00	0	43	0	695205888	19	4623
2026-01-02 12:20:44.42	297.92	16.66	-29.2	-31.6	14.3	7.00e-07	0	43	0	697303040	19	4726
2026-01-02 12:20:45.43	298.13	16.62	-29.3	-31.9	14.2	7.00e-07	0	43	0	698351616	19	4821
2026-01-02 12:20:46.42	298.34	16.58	-29.6	-32.5	13.8	1.50e-06	0	43	0	700448768	19	5049
2026-01-02 12:20:47.43	298.55	16.54	-29.5	-32.2	14.0	3.80e-06	0	43	0	702545920	19	4923
2026-01-02 12:20:48.43	298.76	16.50	-29.3	-31.7	14.3	1.50e-06	0	44	0	704643072	19	4747
2026-01-02 12:20:49.44	298.96	16.45	-29.2	-31.6	14.3	1.50e-06	0	43	0	706740224	19	4732
2026-01-02 12:20:50.44	299.17	16.41	-29.2	-31.5	14.4	7.00e-07	0	43	0	708837376	19	4693
2026-01-02 12:20:51.44	299.38	16.37	-29.2	-31.5	14.4	0.00e+00	0	43	0	709885952	19	4686
2026-01-02 12:20:52.45	299.58	16.33	-29.4	-32.0	14.1	7.00e-07	0	43	0	711983104	19	4864
2026-01-02 12:20:53.46	299.79	16.28	-29.3	-31.7	14.3	5.30e-06	0	43	0	714080256	19	4767
2026-01-02 12:20:54.46	299.99	16.24	-29.1	-31.4	14.5	2.20e-06	0	44	0	716177408	19	4657
2026-01-02 12:20:55.47	300.20	16.19	-29.3	-31.8	14.2	0.00e+00	0	43	0	717225984	19	4810
2026-01-02 12:20:56.48	300.40	16.15	-29.4	-31.9	14.1	4.50e-06	0	43	0	719323136	19	4839
2026-01-02 12:20:57.48	300.60	16.10	-29.4	-32.1	14.1	2.20e-06	0	43	0	721420288	19	4882
2026-01-02 12:20:58.49	300.81	16.06	-29.3	-31.9	14.1	2.20e-06	0	43	0	723517440	19	4816
2026-01-02 12:20:59.49	301.01	16.01	-29.3	-31.8	14.2	0.00e+00	0	43	0	725614592	19	4800
2026-01-02 12:21:00.49	301.21	15.97	-29.4	-32.0	14.1	3.00e-06	0	43	0	726663168	19	4862
2026-01-02 12:21:01.50	301.41	15.92	-29.4	-31.9	14.1	1.50e-06	0	43	0	728760320	19	4832
2026-01-02 12:21:02.50	301.61	15.88	-29.3	-31.9	14.1	3.80e-06	0	43	0	730857472	19	4836
2026-01-02 12:21:03.51	301.81	15.83	-29.5	-32.2	13.9	2.20e-06	0	43	0	732954624	19	4937
2026-01-02 12:21:04.51	302.01	15.79	-29.6	-32.6	13.7	2.20e-06	0	43	0	735051776	19	5089
2026-01-02 12:21:05.52	302.20	15.74	-29.8	-33.1	13.3	1.14e-05	0	43	0	736100352	19	5287
2026-01-02 12:21:06.52	302.40	15.69	-30.0	-33.6	13.1	2.05e-05	0	44	0	738197504	19	5464
2026-01-02 12:21:07.52	302.60	15.65	-30.0	-33.2	12.9	4.50e-05	0	43	0	740294656	20	5211
2026-01-02 12:21:08.52	302.79	15.60	-30.0	-33.4	12.7	7.32e-05	0	43	0	742391808	20	5283
2026-01-02 12:21:09.53	302.99	15.55	-30.0	-33.4	12.7	7.47e-05	0	43	0	744488960	20	5285
2026-01-02 12:21:10.53	303.18	15.50	-30.1	-33.5	12.6	9.07e-05	0	43	0	745537536	20	5352
2026-01-02 12:21:11.53	303.38	15.46	-30.1	-33.6	12.6	8.92e-05	0	43	0	747634688	20	5371
2026-01-02 12:21:12.53	303.57	15.41	-30.2	-33.7	12.5	8.46e-05	0	43	0	749731840	20	5415
2026-01-02 12:21:13.53	303.76	15.36	-30.2	-33.7	12.6	1.23e-04	0	43	0	751828992	20	5422
2026-01-02 12:21:14.54	303.95	15.31	-30.0	-33.4	12.7	6.48e-05	0	43	0	753926144	20	5296
2026-01-02 12:21:15.54	304.15	15.26	-30.1	-33.5	12.7	6.86e-05	0	43	0	754974720	20	5340
2026-01-02 12:21:16.54	304.34	15.22	-30.0	-33.3	12.8	1.04e-04	0	43	0	757071872	20	5272
2026-01-02 12:21:17.55	304.53	15.17	-30.0	-33.1	12.9	4.65e-05	0	43	0	759169024	20	5199
2026-01-02 12:21:18.54	304.71	15.12	-29.9	-33.1	13.0	4.65e-05	0	44	0	761266176	20	5174
2026-01-02 12:21:19.55	304.90	15.07	-29.9	-33.0	13.0	3.73e-05	0	43	0	763363328	20	5146
2026-01-02 12:21:20.55	305.09	15.02	-29.8	-32.8	13.1	2.21e-05	0	43	0	764411904	20	5065
2026-01-02 12:21:21.56	305.28	14.97	-29.9	-32.9	13.0	2.82e-05	0	44	0	766509056	20	5110
2026-01-02 12:21:22.56	305.47	14.92	-30.0	-33.3	12.8	4.80e-05	0	44	0	768606208	20	5255
2026-01-02 12:21:23.57	305.66	14.87	-30.1	-33.5	12.6	6.86e-05	0	43	0	770703360	20	5355
2026-01-02 12:21:24.57	305.84	14.82	-30.1	-33.6	12.5	1.15e-04	0	43	0	771751936	20	5396
2026-01-02 12:21:25.57	306.03	14.77	-30.2	-33.8	12.4	1.41e-04	0	43	0	773849088	20	5473
2026-01-02 12:21:26.58	306.21	14.72	-30.3	-34.1	12.2	2.38e-04	0	43	0	775946240	20	5575
2026-01-02 12:21:27.58	306.40	14.67	-30.3	-34.1	12.2	2.14e-04	0	43	0	778043392	20	5593
2026-01-02 12:21:28.58	306.58	14.62	-30.4	-34.4	12.0	2.59e-04	0	43	0	780140544	20	5719
2026-01-02 12:21:29.58	306.76	14.56	-30.5	-34.7	11.8	4.53e-04	0	43	0	781189120	20	5838
2026-01-02 12:21:30.58	306.94	14.51	-30.5	-34.2	11.7	5.53e-04	0	44	0	783286272	21	5538
2026-01-02 12:21:31.59	307.13	14.46	-30.5	-34.2	11.7	5.18e-04	0	44	0	785383424	21	5537
2026-01-02 12:21:32.59	307.31	14.41	-30.6	-34.5	11.5	6.32e-04	0	43	0	787480576	21	5676
2026-01-02 12:21:33.59	307.49	14.36	-30.6	-34.5	11.5	8.24e-04	0	43	0	789577728	21	5665
2026-01-02 12:21:34.59	307.67	14.31	-30.6	-34.6	11.5	9.04e-04	0	43	0	790626304	21	5726
2026-01-02 12:21:35.60	307.85	14.25	-30.5	-34.2	11.7	7.36e-04	0	43	0	792723456	21	5527
2026-01-02 12:21:36.60	308.03	14.20	-30.5	-34.4	11.6	5.73e-04	0	43	0	794820608	21	5620
2026-01-02 12:21:37.60	308.20	14.15	-30.5	-34.2	11.7	8.74e-04	0	44	0	796917760	21	5533
2026-01-02 12:21:38.61	308.38	14.10	-30.3	-33.6	12.1	2.69e-04	0	43	0	799014912	21	5301
2026-01-02 12:21:39.61	308.56	14.05	-30.3	-33.7	12.1	2.53e-04	0	43	0	800063488	21	5319
2026-01-02 12:21:40.61	308.73	13.99	-30.2	-33.4	12.3	2.26e-04	0	43	0	802160640	21	5188
2026-01-02 12:21:41.62	308.91	13.94	-30.3	-33.6	12.2	2.25e-04	0	43	0	804257792	21	5262
2026-01-02 12:21:42.63	309.09	13.89	-30.3	-33.6	12.1	2.71e-04	0	44	0	806354944	21	5298
2026-01-02 12:21:43.64	309.26	13.83	-30.3	-33.6	12.1	2.12e-04	0	43	0	808452096	21	5292
2026-01-02 12:21:44.64	309.44	13.78	-30.2	-33.5	12.2	2.40e-04	0	43	0	809500672	21	5261
2026-01-02 12:21:45.65	309.61	13.73	-30.0	-32.9	12.6	1.27e-04	0	44	0	811597824	21	5019
2026-01-02 12:21:46.66	309.78	13.67	-29.9	-32.6	12.9	7.09e-05	0	43	0	813694976	21	4890
2026-01-02 12:21:47.66	309.96	13.62	-29.8	-32.3	13.0	4.34e-05	0	43	0	815792128	21	4789
2026-01-02 12:21:48.66	310.13	13.57	-29.8	-32.4	13.0	3.81e-05	0	44	0	817889280	21	4826
2026-01-02 12:21:49.67	310.30	13.51	-29.9	-32.6	12.8	5.18e-05	0	44	0	818937856	21	4899
2026-01-02 12:21:50.67	310.47	13.46	-29.8	-32.3	13.0	5.49e-05	0	44	0	821035008	21	4794
2026-01-02 12:21:51.67	310.64	13.40	-30.0	-33.3	12.7	3.81e-05	0	43	0	823132160	20	5266
2026-01-02 12:21:52.68	310.81	13.35	-30.1	-33.7	12.4	1.30e-04	0	44	0	825229312	20	5438
2026-01-02 12:21:53.68	310.97	13.30	-30.1	-33.6	12.5	1.17e-04	0	43	0	827326464	20	5395
2026-01-02 12:21:54.68	311.14	13.24	-30.0	-33.4	12.6	1.32e-04	0	43	0	828375040	20	5316
2026-01-02 12:21:55.69	311.31	13.19	-30.0	-33.5	12.6	1.33e-04	0	43	0	830472192	20	5344
2026-01-02 12:21:56.69	311.48	13.13	-30.1	-33.7	12.4	8.39e-05	0	43	0	832569344	20	5453
2026-01-02 12:21:57.69	311.64	13.08	-30.2	-33.9	12.3	2.51e-04	0	43	0	834666496	20	5513
2026-01-02 12:21:58.69	311.81	13.02	-30.3	-34.1	12.1	2.20e-04	0	43	0	836763648	20	5600
2026-01-02 12:21:59.69	311.97	12.97	-30.5	-34.7	11.7	3.81e-04	0	43	0	837812224	20	5875
2026-01-02 12:22:00.70	312.14	12.91	-30.6	-34.6	11.4	1.01e-03	0	43	0	839909376	21	5739
2026-01-02 12:22:01.70	312.30	12.86	-30.7	-34.9	11.2	1.35e-03	0	43	0	842006528	21	5866
2026-01-02 12:22:02.70	312.46	12.80	-30.7	-35.0	11.1	1.73e-03	0	43	0	844103680	21	5900
2026-01-02 12:22:03.71	312.63	12.75	-30.6	-34.8	11.2	8.25e-04	0	43	0	845152256	21	5819
2026-01-02 12:22:04.71	312.79	12.69	-30.8	-35.2	10.9	1.80e-03	0	43	0	847249408	21	6001
2026-01-02 12:22:05.71	312.95	12.64	-30.4	-33.9	11.8	1.33e-03	0	43	0	849346560	21	5425
2026-01-02 12:22:06.72	313.11	12.58	-30.1	-33.0	12.5	2.70e-04	0	43	0	851443712	21	5070
2026-01-02 12:22:07.71	313.27	12.53	-29.8	-32.2	13.0	1.07e-04	0	43	0	853540864	21	4768
2026-01-02 12:22:08.71	313.43	12.47	-29.8	-32.7	13.0	2.82e-05	0	43	0	854589440	20	5047
2026-01-02 12:22:09.71	313.58	12.42	-29.6	-32.1	13.4	2.82e-05	0	43	0	856686592	20	4827
2026-01-02 12:22:10.71	313.74	12.36	-29.9	-33.0	12.9	2.44e-05	0	44	0	858783744	20	5153
2026-01-02 12:22:11.71	313.90	12.31	-29.9	-33.0	12.8	1.81e-04	0	43	0	860880896	20	5167
2026-01-02 12:22:12.71	314.06	12.25	-29.7	-32.4	13.2	2.13e-05	0	43	0	862978048	20	4946
2026-01-02 12:22:13.71	314.21	12.19	-29.7	-32.4	13.2	2.13e-05	0	43	0	864026624	20	4918
2026-01-02 12:22:14.71	314.37	12.14	-29.6	-32.3	13.2	1.83e-05	0	43	0	866123776	20	4910
2026-01-02 12:22:15.72	314.52	12.08	-29.6	-32.2	13.3	2.21e-05	0	44	0	868220928	20	4871
2026-01-02 12:22:16.71	314.68	12.03	-29.7	-32.6	13.1	2.67e-05	0	44	0	870318080	20	5003
2026-01-02 12:22:17.71	314.83	11.97	-29.7	-32.6	13.0	3.89e-05	0	43	0	872415232	20	5013
2026-01-02 12:22:18.72	314.99	11.92	-29.7	-32.4	13.2	2.97e-05	0	44	0	873463808	20	4947
2026-01-02 12:22:19.72	315.14	11.86	-29.8	-32.7	13.0	3.35e-05	0	43	0	875560960	20	5062
2026-01-02 12:22:20.72	315.29	11.80	-29.8	-32.8	12.9	5.18e-05	0	44	0	877658112	20	5088
2026-01-02 12:22:21.72	315.44	11.75	-29.9	-33.0	12.8	3.66e-05	0	43	0	879755264	20	5181
2026-01-02 12:22:22.72	315.59	11.69	-29.9	-33.2	12.6	6.33e-05	0	44	0	880803840	20	5245
2026-01-02 12:22:23.73	315.74	11.63	-30.1	-33.5	12.5	8.92e-05	0	44	0	882900992	20	5369
2026-01-02 12:22:24.73	315.89	11.58	-30.2	-33.9	12.2	1.56e-04	0	43	0	884998144	20	5516
2026-01-02 12:22:25.73	316.04	11.52	-30.1	-33.7	12.3	2.10e-04	0	43	0	887095296	20	5442
2026-01-02 12:22:26.74	316.19	11.46	-30.1	-33.7	12.3	1.55e-04	0	43	0	889192448	20	5446
2026-01-02 12:22:27.74	316.34	11.41	-30.2	-34.1	12.0	2.53e-04	0	44	0	891289600	20	5607
2026-01-02 12:22:28.74	316.49	11.35	-30.2	-33.9	12.2	2.43e-04	0	43	0	892338176	20	5515
2026-01-02 12:22:29.74	316.64	11.30	-30.2	-33.9	12.1	2.06e-04	0	43	0	894435328	20	5541
2026-01-02 12:22:30.74	316.78	11.24	-30.2	-34.1	12.0	3.98e-04	0	44	0	896532480	20	5608
2026-01-02 12:22:31.74	316.93	11.18	-30.5	-34.8	11.5	4.33e-04	0	43	0	898629632	20	5944
2026-01-02 12:22:32.75	317.08	11.13	-30.4	-34.1	11.7	8.79e-04	0	43	0	899678208	21	5509
2026-01-02 12:22:33.75	317.22	11.07	-30.1	-33.2	12.3	3.06e-04	0	43	0	901775360	21	5134
2026-01-02 12:22:34.75	317.37	11.01	-29.8	-32.4	12.8	9.07e-05	0	44	0	903872512	21	4830
2026-01-02 12:22:35.76	317.51	10.96	-29.7	-32.6	13.0	4.19e-05	0	43	0	905969664	20	5001
2026-01-02 12:22:36.76	317.65	10.90	-29.8	-32.9	12.8	3.66e-05	0	43	0	908066816	20	5137
2026-01-02 12:22:37.76	317.80	10.84	-30.0	-33.3	12.5	8.31e-05	0	44	0	909115392	20	5291
2026-01-02 12:22:38.76	317.94	10.79	-30.1	-33.6	12.3	1.36e-04	0	43	0	911212544	20	5411
2026-01-02 12:22:39.76	318.08	10.73	-30.2	-34.1	12.0	2.51e-04	0	43	0	913309696	20	5617
2026-01-02 12:22:40.76	318.22	10.67	-30.2	-34.1	12.0	3.85e-04	0	44	0	915406848	20	5619
2026-01-02 12:22:41.77	318.36	10.61	-30.3	-34.3	11.8	3.39e-04	0	43	0	917504000	20	5731
2026-01-02 12:22:42.77	318.50	10.56	-30.3	-34.3	11.8	5.53e-04	0	43	0	918552576	20	5717
2026-01-02 12:22:43.77	318.64	10.50	-30.3	-34.2	11.9	3.97e-04	0	43	0	920649728	20	5678
2026-01-02 12:22:44.78	318.78	10.44	-30.4	-34.5	11.7	5.34e-04	0	43	0	922746880	20	5811
2026-01-02 12:22:45.78	318.92	10.39	-30.4	-34.6	11.6	7.65e-04	0	44	0	924844032	20	5867
2026-01-02 12:22:46.78	319.06	10.33	-30.3	-34.4	11.7	5.19e-04	0	43	0	925892608	20	5785
2026-01-02 12:22:47.78	319.20	10.27	-30.6	-34.9	11.0	9.83e-04	0	44	0	927989760	21	5880
2026-01-02 12:22:48.79	319.34	10.22	-30.7	-35.1	10.8	2.67e-03	0	43	0	930086912	21	5993
2026-01-02 12:22:49.79	319.47	10.16	-30.8	-35.6	10.5	2.35e-03	0	43	0	932184064	21	6230
2026-01-02 12:22:50.79	319.61	10.10	-30.8	-35.4	10.6	4.08e-03	0	43	0	934281216	21	6122
2026-01-02 12:22:51.79	319.74	10.05	-30.7	-35.2	10.8	2.59e-03	0	44	0	936378368	21	6019
2026-01-02 12:22:52.80	319.88	9.99	-30.7	-35.2	10.7	2.79e-03	0	43	0	937426944	21	6044
2026-01-02 12:22:53.80	320.01	9.93	-30.8	-35.4	10.6	4.11e-03	0	43	0	939524096	21	6151
2026-01-02 12:22:54.80	320.15	9.87	-30.7	-35.1	10.8	2.74e-03	0	43	0	941621248	21	5982
2026-01-02 12:22:55.81	320.28	9.82	-30.8	-35.5	10.5	3.05e-03	0	43	0	943718400	21	6205
2026-01-02 12:22:56.81	320.42	9.76	-30.8	-35.5	10.4	6.56e-03	0	44	0	944766976	21	6210
2026-01-02 12:22:57.82	320.55	9.70	-30.5	-34.7	11.0	2.93e-03	0	44	0	946864128	21	5840
2026-01-02 12:22:58.82	320.68	9.65	-30.2	-33.8	11.6	1.22e-03	0	44	0	948961280	21	5420
2026-01-02 12:22:59.83	320.81	9.59	-30.1	-33.5	11.8	8.40e-04	0	44	0	951058432	21	5301
2026-01-02 12:23:00.84	320.95	9.53	-29.8	-32.7	12.3	4.84e-04	0	44	0	953155584	21	4996
2026-01-02 12:23:01.84	321.08	9.47	-30.0	-33.1	12.1	1.36e-03	0	44	0	954204160	21	5126
2026-01-02 12:23:02.84	321.21	9.42	-29.9	-32.8	12.3	5.42e-04	0	44	0	956301312	21	5042
2026-01-02 12:23:03.84	321.34	9.36	-29.9	-32.8	12.3	4.58e-04	0	44	0	958398464	21	5017
2026-01-02 12:23:04.84	321.47	9.30	-30.1	-33.2	12.1	2.95e-04	0	44	0	960495616	21	5176
2026-01-02 12:23:05.84	321.59	9.25	-30.2	-33.7	11.7	5.93e-04	0	44	0	962592768	21	5362
2026-01-02 12:23:06.85	321.72	9.19	-30.2	-33.6	11.8	5.77e-04	0	43	0	963641344	21	5356
2026-01-02 12:23:07.86	321.85	9.13	-30.3	-34.1	11.5	6.88e-04	0	43	0	965738496	21	5541
2026-01-02 12:23:08.86	321.98	9.08	-30.2	-33.8	11.6	9.28e-04	0	43	0	967835648	21	5423
2026-01-02 12:23:09.86	322.11	9.02	-30.3	-34.0	11.5	8.62e-04	0	44	0	969932800	21	5508
2026-01-02 12:23:10.86	322.23	8.96	-30.2	-33.6	11.7	8.34e-04	0	43	0	972029952	21	5368
2026-01-02 12:23:11.86	322.36	8.91	-30.2	-33.8	11.6	1.49e-03	0	43	0	973078528	21	5409
2026-01-02 12:23:12.87	322.48	8.85	-30.2	-33.5	11.9	1.31e-03	0	44	0	975175680	21	5284
2026-01-02 12:23:13.87	322.61	8.79	-30.3	-33.8	11.6	5.61e-04	0	43	0	977272832	21	5436
2026-01-02 12:23:14.87	322.73	8.73	-30.3	-34.1	11.5	7.35e-04	0	43	0	979369984	21	5538
2026-01-02 12:23:15.88	322.86	8.68	-30.5	-34.6	11.0	8.13e-04	0	44	0	981467136	21	5776
2026-01-02 12:23:16.88	322.98	8.62	-30.3	-34.1	11.3	2.77e-03	0	43	0	982515712	21	5572
2026-01-02 12:23:17.88	323.10	8.56	-30.3	-34.0	11.3	2.54e-03	0	44	0	984612864	21	5550
2026-01-02 12:23:18.88	323.23	8.51	-30.4	-34.5	11.0	3.14e-03	0	43	0	986710016	21	5759
2026-01-02 12:23:19.88	323.35	8.45	-30.4	-34.4	11.0	2.16e-03	0	44	0	988807168	21	5743
2026-01-02 12:23:20.89	323.47	8.39	-30.4	-34.5	11.0	2.12e-03	0	43	0	990904320	21	5765
2026-01-02 12:23:21.89	323.59	8.34	-30.6	-35.4	10.3	4.01e-03	0	44	0	991952896	21	6212
2026-01-02 12:23:22.89	323.71	8.28	-30.5	-35.2	10.3	1.01e-02	0	43	0	994050048	21	6148
2026-01-02 12:23:23.90	323.83	8.22	-30.6	-35.5	10.0	1.81e-02	0	43	0	996147200	21	6330
2026-01-02 12:23:24.90	323.95	8.17	-30.6	-35.4	10.0	2.12e-02	0	44	0	998244352	21	6298
2026-01-02 12:23:25.90	324.07	8.11	-30.4	-35.0	10.3	1.81e-02	0	43	0	999292928	21	6117
2026-01-02 12:23:26.91	324.19	8.05	-30.6	-35.8	9.6	2.21e-02	0	43	0	1001390080	21	6576
2026-01-02 12:23:27.91	324.31	8.00	-30.3	-35.0	10.2	2.05e-02	0	44	0	1003487232	21	6186
2026-01-02 12:23:28.91	324.43	7.94	-30.9	-36.2	9.8	6.94e-03	0	43	0	1005584384	21	6587
2026-01-02 12:23:29.91	324.55	7.88	-30.9	-36.2	9.8	1.21e-02	0	43	0	1007681536	21	6592
2026-01-02 12:23:30.91	324.66	7.83	-31.0	-36.0	9.5	1.03e-02	0	43	0	1008730112	22	6372
2026-01-02 12:23:31.91	324.78	7.77	-30.5	-35.3	9.6	1.61e-02	0	43	0	1010827264	22	6290
2026-01-02 12:23:32.91	324.90	7.71	-30.4	-35.0	9.8	2.30e-02	0	44	0	1012924416	22	6131
2026-01-02 12:23:33.91	325.01	7.66	-30.5	-35.1	9.8	2.05e-02	0	43	0	1015021568	22	6156
2026-01-02 12:23:34.92	325.13	7.60	-30.6	-35.6	9.4	1.90e-02	0	43	0	1017118720	22	6404
2026-01-02 12:23:35.91	325.24	7.55	-30.7	-35.9	9.2	2.32e-02	0	43	0	1018167296	22	6530
2026-01-02 12:23:36.92	325.36	7.49	-30.7	-35.5	9.6	2.11e-02	0	43	0	1020264448	22	6288
2026-01-02 12:23:37.92	325.47	7.43	-30.7	-35.3	9.8	1.33e-02	0	44	0	1022361600	22	6134
2026-01-02 12:23:38.93	325.58	7.38	-30.6	-35.0	10.0	9.73e-03	0	44	0	1024458752	22	5981
2026-01-02 12:23:39.92	325.70	7.32	-30.6	-34.8	10.3	7.19e-03	0	43	0	1026555904	22	5822
2026-01-02 12:23:40.93	325.81	7.26	-30.5	-34.3	10.6	1.02e-02	0	44	0	1027604480	22	5608
2026-01-02 12:23:41.94	325.92	7.21	-30.4	-34.3	10.6	6.74e-03	0	44	0	1029701632	22	5591
2026-01-02 12:23:42.95	326.04	7.15	-30.6	-34.7	10.3	1.10e-02	0	44	0	1031798784	22	5771
2026-01-02 12:23:43.95	326.15	7.09	-30.9	-35.4	10.0	6.66e-03	0	44	0	1033895936	22	6069
2026-01-02 12:23:44.96	326.26	7.04	-32.8	-46.3	3.8	1.17e+00	0	44	104	1034944512	25	17115
2026-01-02 12:23:45.97	326.37	6.98	-33.1	-47.3	3.8	1.49e+00	0	44	104	1034944512	26	18458

#Closed at: 2026-01-02 12:23:46
#Recorded file [1034 MB]: D:/data/31010_260102_151432.dat