passes_logs/2026/01/02/R2M6_AANII_01/R2M6_AANII_01__20260102_130053_FENGYUN_3E_rec.log

#Pass ID: 20260102_130053_FENGYUN 3E
#Satellite: FENGYUN 3E
#Configuration: FENGYUN 3E
#almurnet v.1.7.20240730
#Start time: 2026-01-02 13:04:54

#Version: 2.2.20231116
#Station: R2M6_AANII_01
#Location: 30.233357 lon 59.946436 lat
#TLE: 1 49008U 21062A   26001.96913326  .00000001  00000+0  21174-4 0  9999
#TLE: 2 49008  98.7479   7.2511 0001416 166.5636 193.5578 14.19883387232993

#Time	Az	El	Level	Level2	SNR	BER	BlckErr	Temp	State	Recorded	gain1	gain2
2026-01-02 13:04:54.18	73.47	26.18	-33.5	-44.5	3.8	8.47e-01	0	43	0	0	27	12848
2026-01-02 13:04:55.17	73.19	26.25	-33.8	-42.9	3.8	8.46e-01	0	44	104	0	28	10268
2026-01-02 13:04:56.17	72.91	26.31	-33.8	-42.9	3.8	8.44e-01	0	44	104	0	28	10277
2026-01-02 13:04:57.18	72.63	26.38	-33.8	-43.0	3.8	8.47e-01	0	44	104	0	28	10326
2026-01-02 13:04:58.18	72.34	26.45	-33.9	-43.1	3.8	8.46e-01	0	44	104	0	28	10421
2026-01-02 13:04:59.17	72.06	26.51	-33.9	-43.1	3.8	8.46e-01	0	44	104	0	28	10354
2026-01-02 13:05:00.17	71.78	26.57	-33.9	-43.0	3.8	8.45e-01	0	44	104	0	28	10320
2026-01-02 13:05:01.17	71.49	26.64	-33.9	-43.0	3.8	8.46e-01	0	44	104	0	28	10328
2026-01-02 13:05:02.17	71.20	26.70	-33.8	-43.1	3.8	8.46e-01	0	44	104	0	28	10394
2026-01-02 13:05:03.16	70.92	26.76	-33.9	-43.1	3.8	8.46e-01	0	44	104	0	28	10422
2026-01-02 13:05:04.16	70.63	26.82	-33.9	-43.1	3.8	8.46e-01	0	44	104	0	28	10396
2026-01-02 13:05:05.16	70.34	26.88	-33.9	-43.0	3.8	8.47e-01	0	44	104	0	28	10347
2026-01-02 13:05:06.15	70.05	26.94	-33.9	-43.1	3.8	8.46e-01	0	44	104	0	28	10404
2026-01-02 13:05:07.15	69.76	27.00	-33.9	-43.1	3.8	8.45e-01	0	43	104	0	28	10428
2026-01-02 13:05:08.14	69.46	27.06	-33.9	-43.1	3.8	8.47e-01	0	44	104	0	28	10401
2026-01-02 13:05:09.13	69.17	27.12	-33.9	-43.1	3.8	8.46e-01	0	44	104	0	28	10376
2026-01-02 13:05:10.12	68.88	27.17	-33.9	-43.0	3.8	8.45e-01	0	44	104	0	28	10363
2026-01-02 13:05:11.12	68.58	27.23	-33.8	-43.0	3.8	8.46e-01	0	44	104	0	28	10344
2026-01-02 13:05:12.11	68.29	27.28	-33.8	-43.0	3.8	8.46e-01	0	44	104	0	28	10356
2026-01-02 13:05:13.11	67.99	27.34	-33.9	-43.1	3.8	8.47e-01	0	44	104	0	28	10364
2026-01-02 13:05:14.11	67.69	27.39	-33.8	-43.0	3.8	8.46e-01	0	44	104	0	28	10345
2026-01-02 13:05:15.09	67.39	27.45	-33.9	-43.0	3.8	8.46e-01	0	44	104	0	28	10337
2026-01-02 13:05:16.09	67.09	27.50	-33.9	-43.1	3.8	8.46e-01	0	44	104	0	28	10420
2026-01-02 13:05:17.08	66.79	27.55	-33.9	-43.1	3.8	8.46e-01	0	44	104	0	28	10384
2026-01-02 13:05:18.08	66.49	27.60	-33.8	-43.0	3.8	8.46e-01	0	44	104	0	28	10284
2026-01-02 13:05:19.08	66.18	27.65	-33.8	-43.0	3.8	8.46e-01	0	43	104	0	28	10323
2026-01-02 13:05:20.07	65.88	27.70	-33.8	-42.9	3.8	8.46e-01	0	44	104	0	28	10342
2026-01-02 13:05:21.07	65.57	27.75	-33.7	-42.8	3.8	8.45e-01	0	44	104	0	28	10226
2026-01-02 13:05:22.06	65.27	27.80	-33.7	-42.8	3.8	8.46e-01	0	44	104	0	28	10196
2026-01-02 13:05:23.05	64.96	27.84	-33.8	-42.9	3.8	8.46e-01	0	44	104	0	28	10266
2026-01-02 13:05:24.04	64.65	27.89	-33.7	-42.8	3.8	8.46e-01	0	44	104	0	28	10197
2026-01-02 13:05:25.04	64.34	27.93	-33.7	-42.7	3.8	8.45e-01	0	44	104	0	28	10184
2026-01-02 13:05:26.03	64.03	27.98	-33.8	-43.1	3.8	8.47e-01	0	44	104	0	28	10426
2026-01-02 13:05:27.04	63.72	28.02	-33.8	-42.9	3.8	8.46e-01	0	44	104	0	28	10305
2026-01-02 13:05:28.03	63.41	28.06	-33.8	-42.9	3.8	8.46e-01	0	44	104	0	28	10277
2026-01-02 13:05:29.02	63.10	28.10	-33.7	-42.7	3.8	8.46e-01	0	44	104	0	28	10172
2026-01-02 13:05:30.02	62.78	28.14	-33.6	-42.6	3.8	8.46e-01	0	44	104	0	28	10038
2026-01-02 13:05:31.01	62.47	28.18	-33.6	-42.6	3.8	8.45e-01	0	44	104	0	28	10072
2026-01-02 13:05:32.01	62.15	28.22	-33.5	-41.8	3.8	8.45e-01	0	44	104	0	27	9399
2026-01-02 13:05:33.01	61.84	28.26	-33.4	-41.4	3.8	8.46e-01	0	44	104	0	27	8970
2026-01-02 13:05:34.01	61.52	28.30	-33.5	-41.5	3.8	8.46e-01	0	44	104	0	27	9063
2026-01-02 13:05:35.01	61.20	28.34	-33.5	-41.8	3.8	8.45e-01	0	44	104	0	27	9365
2026-01-02 13:05:36.01	60.88	28.37	-33.5	-42.2	3.8	8.45e-01	0	44	104	0	27	9707
2026-01-02 13:05:37.01	60.56	28.40	-33.6	-42.6	3.8	8.46e-01	0	44	104	0	27	10111
2026-01-02 13:05:38.00	60.24	28.44	-33.6	-42.8	3.8	8.47e-01	0	44	104	0	27	10326
2026-01-02 13:05:38.99	59.93	28.47	-33.6	-42.7	3.8	8.45e-01	0	44	104	0	27	10278
2026-01-02 13:05:39.99	59.60	28.50	-33.6	-42.5	3.8	8.46e-01	0	44	104	0	27	10016
2026-01-02 13:05:40.99	59.28	28.53	-33.6	-42.6	3.8	8.45e-01	0	44	104	0	27	10180
2026-01-02 13:05:41.98	58.96	28.56	-33.6	-42.8	3.8	8.46e-01	0	44	104	0	27	10415
2026-01-02 13:05:42.98	58.64	28.59	-33.6	-42.4	3.8	8.45e-01	0	44	104	0	27	9959
2026-01-02 13:05:43.97	58.32	28.62	-33.6	-42.5	3.8	8.46e-01	0	44	104	0	27	10044
2026-01-02 13:05:44.97	57.99	28.64	-33.3	-40.5	3.8	8.46e-01	0	44	104	0	27	8248
2026-01-02 13:05:45.97	57.67	28.67	-31.7	-34.9	4.7	7.85e-01	0	44	104	0	24	5197
2026-01-02 13:05:46.98	57.34	28.69	-29.1	-30.1	11.4	7.32e-03	0	44	0	0	19	4034
2026-01-02 13:05:47.98	57.01	28.72	-26.7	-27.1	14.3	0.00e+00	0	44	0	7340032	14	3783
2026-01-02 13:05:48.97	56.69	28.74	-26.6	-27.0	14.5	1.10e-06	0	44	0	14680064	14	3746
2026-01-02 13:05:49.96	56.36	28.76	-27.3	-28.6	13.5	0.00e+00	0	44	0	22020096	14	4146
2026-01-02 13:05:50.97	56.03	28.78	-26.8	-27.2	14.3	1.10e-06	0	44	0	28311552	14	3810
2026-01-02 13:05:51.98	55.70	28.80	-26.2	-26.4	15.0	0.00e+00	0	44	0	36700160	13	3715
2026-01-02 13:05:52.98	55.37	28.82	-26.0	-26.1	15.2	0.00e+00	0	44	0	42991616	13	3640
2026-01-02 13:05:53.98	55.04	28.84	-25.8	-26.2	15.4	0.00e+00	0	44	0	50331648	12	3769
2026-01-02 13:05:54.98	54.71	28.85	-26.1	-26.7	15.2	0.00e+00	0	44	0	57671680	12	3884
2026-01-02 13:05:55.97	54.39	28.87	-26.7	-27.6	14.4	1.10e-06	0	44	0	65011712	13	4011
2026-01-02 13:05:56.97	54.06	28.88	-26.3	-26.6	14.9	0.00e+00	0	44	0	72351744	13	3765
2026-01-02 13:05:57.96	53.73	28.90	-25.5	-25.9	15.9	0.00e+00	0	44	0	79691776	11	3792
2026-01-02 13:05:58.96	53.40	28.91	-24.8	-24.9	16.8	0.00e+00	0	44	0	85983232	10	3652
2026-01-02 13:05:59.95	53.07	28.92	-25.3	-26.1	16.2	0.00e+00	0	44	0	93323264	10	3929
2026-01-02 13:06:00.94	52.75	28.93	-24.5	-24.4	17.0	0.00e+00	0	44	0	100663296	10	3555
2026-01-02 13:06:01.94	52.42	28.94	-24.9	-25.2	16.6	0.00e+00	0	44	0	108003328	10	3733
2026-01-02 13:06:02.94	52.08	28.95	-24.6	-24.6	17.0	0.00e+00	0	44	0	115343360	10	3585
2026-01-02 13:06:03.93	51.76	28.95	-24.3	-24.5	17.2	0.00e+00	0	44	0	122683392	9	3660
2026-01-02 13:06:04.93	51.42	28.96	-24.3	-24.4	17.3	0.00e+00	0	44	0	130023424	9	3639
2026-01-02 13:06:05.93	51.09	28.96	-24.5	-24.8	17.1	0.00e+00	0	44	0	137363456	9	3741
2026-01-02 13:06:06.93	50.76	28.97	-24.6	-25.1	16.9	0.00e+00	0	44	0	144703488	9	3797
2026-01-02 13:06:07.93	50.43	28.97	-25.3	-26.0	16.2	0.00e+00	0	44	0	150994944	10	3918
2026-01-02 13:06:08.93	50.10	28.97	-24.7	-24.9	16.8	0.00e+00	0	44	0	158334976	10	3654
2026-01-02 13:06:09.93	49.77	28.97	-24.3	-24.4	17.3	0.00e+00	0	44	0	165675008	9	3652
2026-01-02 13:06:10.92	49.44	28.97	-23.9	-23.7	17.7	0.00e+00	0	44	0	173015040	9	3492
2026-01-02 13:06:11.92	49.11	28.97	-23.6	-23.6	18.0	0.00e+00	0	44	0	180355072	8	3564
2026-01-02 13:06:12.92	48.78	28.97	-23.8	-23.8	17.8	0.00e+00	0	44	0	186646528	8	3623
2026-01-02 13:06:13.91	48.45	28.96	-24.1	-24.4	17.5	0.00e+00	0	44	0	193986560	8	3748
2026-01-02 13:06:14.91	48.12	28.96	-23.8	-23.8	17.8	0.00e+00	0	44	0	201326592	8	3623
2026-01-02 13:06:15.91	47.78	28.95	-23.5	-23.2	18.2	0.00e+00	0	44	0	208666624	8	3486
2026-01-02 13:06:16.90	47.46	28.94	-23.5	-23.2	18.1	0.00e+00	0	44	0	216006656	8	3486
2026-01-02 13:06:17.89	47.13	28.94	-23.6	-23.5	18.0	0.00e+00	0	44	0	223346688	8	3552
2026-01-02 13:06:18.89	46.80	28.93	-23.5	-23.3	18.1	0.00e+00	0	44	0	230686720	8	3513
2026-01-02 13:06:19.88	46.47	28.92	-23.5	-23.3	18.1	0.00e+00	0	44	0	238026752	8	3509
2026-01-02 13:06:20.88	46.14	28.91	-23.6	-23.4	18.1	0.00e+00	0	44	0	244318208	8	3519
2026-01-02 13:06:21.87	45.81	28.89	-23.2	-23.2	18.4	0.00e+00	0	44	0	251658240	7	3577
2026-01-02 13:06:22.86	45.49	28.88	-23.2	-23.1	18.4	0.00e+00	0	44	0	258998272	7	3562
2026-01-02 13:06:23.86	45.16	28.87	-23.2	-23.1	18.4	0.00e+00	0	44	0	266338304	7	3556
2026-01-02 13:06:24.87	44.82	28.85	-23.1	-22.9	18.5	0.00e+00	0	44	0	273678336	7	3522
2026-01-02 13:06:25.86	44.50	28.83	-23.1	-22.9	18.5	0.00e+00	0	44	0	281018368	7	3520
2026-01-02 13:06:26.86	44.17	28.82	-23.3	-23.4	18.2	0.00e+00	0	44	0	288358400	7	3631
2026-01-02 13:06:27.87	43.84	28.80	-23.4	-23.5	18.2	0.00e+00	0	44	0	294649856	7	3655
2026-01-02 13:06:28.86	43.51	28.78	-23.5	-23.7	18.1	0.00e+00	0	44	0	301989888	7	3687
2026-01-02 13:06:29.86	43.19	28.76	-23.5	-23.7	18.1	0.00e+00	0	44	0	309329920	7	3684
2026-01-02 13:06:30.85	42.86	28.74	-23.6	-23.9	18.0	0.00e+00	0	44	0	316669952	7	3729
2026-01-02 13:06:31.85	42.54	28.71	-23.5	-23.7	18.1	0.00e+00	0	44	0	324009984	7	3690
2026-01-02 13:06:32.85	42.21	28.69	-23.5	-23.8	18.0	0.00e+00	0	44	0	331350016	7	3711
2026-01-02 13:06:33.85	41.88	28.66	-23.9	-24.5	17.7	0.00e+00	0	44	0	338690048	7	3875
2026-01-02 13:06:34.84	41.56	28.64	-23.5	-23.8	18.0	0.00e+00	0	44	0	346030080	7	3718
2026-01-02 13:06:35.83	41.24	28.61	-23.1	-22.9	18.4	0.00e+00	0	44	0	352321536	7	3525
2026-01-02 13:06:36.83	40.92	28.58	-23.1	-22.8	18.5	0.00e+00	0	44	0	359661568	7	3506
2026-01-02 13:06:37.83	40.59	28.56	-23.0	-22.8	18.5	0.00e+00	0	44	0	367001600	7	3495
2026-01-02 13:06:38.83	40.27	28.53	-23.1	-22.9	18.5	0.00e+00	0	44	0	374341632	7	3520
2026-01-02 13:06:39.82	39.95	28.50	-23.1	-22.8	18.5	0.00e+00	0	44	0	381681664	7	3503
2026-01-02 13:06:40.81	39.63	28.46	-23.0	-22.8	18.6	0.00e+00	0	44	0	389021696	7	3493
2026-01-02 13:06:41.80	39.32	28.43	-23.1	-22.9	18.5	0.00e+00	0	44	0	395313152	7	3516
2026-01-02 13:06:42.81	38.99	28.40	-23.1	-23.0	18.5	0.00e+00	0	44	0	402653184	7	3537
2026-01-02 13:06:43.81	38.67	28.36	-23.1	-23.0	18.5	0.00e+00	0	44	0	409993216	7	3538
2026-01-02 13:06:44.81	38.36	28.33	-23.2	-23.2	18.3	0.00e+00	0	44	0	417333248	7	3590
2026-01-02 13:06:45.80	38.04	28.29	-23.1	-22.9	18.5	0.00e+00	0	44	0	424673280	7	3526
2026-01-02 13:06:46.79	37.73	28.26	-23.0	-22.7	18.5	0.00e+00	0	44	0	432013312	7	3486
2026-01-02 13:06:47.78	37.41	28.22	-23.2	-23.2	18.3	0.00e+00	0	44	0	439353344	7	3581
2026-01-02 13:06:48.77	37.10	28.18	-23.1	-23.0	18.4	0.00e+00	0	44	0	445644800	7	3545
2026-01-02 13:06:49.77	36.79	28.14	-23.2	-23.1	18.4	0.00e+00	0	44	0	452984832	7	3556
2026-01-02 13:06:50.76	36.47	28.10	-23.2	-23.2	18.3	0.00e+00	0	44	0	460324864	7	3581
2026-01-02 13:06:51.75	36.16	28.06	-23.2	-23.1	18.3	0.00e+00	0	44	0	467664896	7	3570
2026-01-02 13:06:52.75	35.85	28.01	-23.3	-23.3	18.3	0.00e+00	0	44	0	475004928	7	3598
2026-01-02 13:06:53.75	35.54	27.97	-23.3	-23.4	18.2	0.00e+00	0	44	0	482344960	7	3625
2026-01-02 13:06:54.75	35.23	27.93	-23.2	-23.2	18.3	0.00e+00	0	44	0	489684992	7	3582
2026-01-02 13:06:55.74	34.92	27.88	-23.0	-22.8	18.5	0.00e+00	0	44	0	495976448	7	3496
2026-01-02 13:06:56.74	34.61	27.84	-22.9	-22.5	18.7	0.00e+00	0	44	0	503316480	7	3430
2026-01-02 13:06:57.74	34.30	27.79	-22.9	-22.9	18.7	0.00e+00	0	44	0	510656512	6	3617
2026-01-02 13:06:58.74	34.00	27.74	-22.6	-22.4	18.8	0.00e+00	0	44	0	517996544	6	3499
2026-01-02 13:06:59.74	33.69	27.69	-22.8	-22.8	18.7	0.00e+00	0	44	0	525336576	6	3604
2026-01-02 13:07:00.74	33.39	27.64	-22.9	-23.0	18.6	0.00e+00	0	44	0	532676608	6	3638
2026-01-02 13:07:01.73	33.08	27.59	-22.9	-23.1	18.6	0.00e+00	0	44	0	540016640	6	3658
2026-01-02 13:07:02.73	32.78	27.54	-22.9	-23.0	18.6	0.00e+00	0	44	0	547356672	6	3652
2026-01-02 13:07:03.72	32.48	27.49	-23.0	-23.2	18.5	0.00e+00	0	44	0	553648128	6	3696
2026-01-02 13:07:04.72	32.18	27.44	-23.0	-23.2	18.5	0.00e+00	0	44	0	560988160	6	3680
2026-01-02 13:07:05.71	31.88	27.38	-23.0	-23.2	18.5	0.00e+00	0	44	0	568328192	6	3690
2026-01-02 13:07:06.71	31.58	27.33	-23.0	-23.2	18.5	0.00e+00	0	44	0	575668224	6	3684
2026-01-02 13:07:07.71	31.29	27.28	-23.1	-23.4	18.4	0.00e+00	0	44	0	583008256	6	3740
2026-01-02 13:07:08.71	30.99	27.22	-23.1	-23.5	18.3	0.00e+00	0	44	0	590348288	6	3753
2026-01-02 13:07:09.70	30.69	27.16	-23.1	-23.3	18.4	0.00e+00	0	44	0	597688320	6	3719
2026-01-02 13:07:10.70	30.40	27.11	-23.0	-23.1	18.6	0.00e+00	0	44	0	603979776	6	3665
2026-01-02 13:07:11.69	30.11	27.05	-22.9	-22.9	18.6	0.00e+00	0	44	0	611319808	6	3630
2026-01-02 13:07:12.69	29.82	26.99	-22.8	-22.9	18.7	0.00e+00	0	44	0	618659840	6	3610
2026-01-02 13:07:13.69	29.52	26.93	-23.0	-23.1	18.5	0.00e+00	0	44	0	625999872	6	3671
2026-01-02 13:07:14.69	29.23	26.87	-22.8	-22.9	18.6	0.00e+00	0	44	0	633339904	6	3618
2026-01-02 13:07:15.69	28.94	26.81	-22.8	-22.9	18.7	0.00e+00	0	44	0	640679936	6	3611
2026-01-02 13:07:16.70	28.65	26.75	-22.9	-23.1	18.5	0.00e+00	0	44	0	648019968	6	3659
2026-01-02 13:07:17.70	28.36	26.69	-23.0	-23.2	18.5	0.00e+00	0	44	0	655360000	6	3685
2026-01-02 13:07:18.69	28.08	26.63	-23.1	-23.3	18.4	0.00e+00	0	44	0	661651456	6	3719
2026-01-02 13:07:19.68	27.80	26.56	-23.1	-23.4	18.3	0.00e+00	0	44	0	668991488	6	3721
2026-01-02 13:07:20.68	27.51	26.50	-23.1	-23.4	18.4	0.00e+00	0	44	0	676331520	6	3730
2026-01-02 13:07:21.68	27.23	26.43	-23.0	-23.2	18.4	0.00e+00	0	44	0	683671552	6	3695
2026-01-02 13:07:22.66	26.95	26.37	-23.0	-23.1	18.5	0.00e+00	0	44	0	691011584	6	3672
2026-01-02 13:07:23.66	26.67	26.31	-23.0	-23.2	18.5	0.00e+00	0	44	0	698351616	6	3678
2026-01-02 13:07:24.65	26.40	26.24	-22.9	-23.0	18.5	0.00e+00	0	44	0	704643072	6	3645
2026-01-02 13:07:25.64	26.12	26.17	-22.8	-22.8	18.6	0.00e+00	0	44	0	711983104	6	3602
2026-01-02 13:07:26.64	25.84	26.11	-23.1	-23.4	18.3	0.00e+00	0	44	0	719323136	6	3735
2026-01-02 13:07:27.63	25.57	26.04	-23.1	-23.4	18.3	0.00e+00	0	44	0	726663168	6	3734
2026-01-02 13:07:28.63	25.30	25.97	-23.1	-23.4	18.4	0.00e+00	0	44	0	734003200	6	3728
2026-01-02 13:07:29.61	25.03	25.90	-23.2	-23.7	18.2	0.00e+00	0	44	0	741343232	6	3797
2026-01-02 13:07:30.61	24.76	25.83	-23.3	-23.8	18.1	0.00e+00	0	44	0	747634688	6	3815
2026-01-02 13:07:31.61	24.49	25.76	-23.3	-23.8	18.1	0.00e+00	0	44	0	754974720	6	3829
2026-01-02 13:07:32.62	24.21	25.69	-23.5	-24.3	17.9	0.00e+00	0	44	0	762314752	6	3935
2026-01-02 13:07:33.62	23.94	25.62	-23.5	-23.7	18.0	0.00e+00	0	44	0	769654784	7	3687
2026-01-02 13:07:34.62	23.68	25.55	-23.3	-23.3	18.1	0.00e+00	0	44	0	776994816	7	3610
2026-01-02 13:07:35.62	23.41	25.48	-23.1	-23.0	18.3	0.00e+00	0	44	0	784334848	7	3542
2026-01-02 13:07:36.61	23.15	25.40	-23.0	-22.8	18.4	0.00e+00	0	44	0	791674880	7	3500
2026-01-02 13:07:37.61	22.88	25.33	-23.0	-22.8	18.4	0.00e+00	0	44	0	799014912	7	3502
2026-01-02 13:07:38.60	22.62	25.26	-23.2	-23.0	18.3	0.00e+00	0	44	0	805306368	7	3549
2026-01-02 13:07:39.60	22.36	25.18	-23.2	-23.1	18.3	0.00e+00	0	44	0	812646400	7	3561
2026-01-02 13:07:40.59	22.11	25.11	-23.1	-22.9	18.3	0.00e+00	0	44	0	819986432	7	3531
2026-01-02 13:07:41.59	21.85	25.04	-23.2	-23.1	18.2	0.00e+00	0	44	0	827326464	7	3573
2026-01-02 13:07:42.59	21.59	24.96	-23.2	-23.0	18.3	0.00e+00	0	44	0	834666496	7	3553
2026-01-02 13:07:43.58	21.34	24.89	-23.0	-22.8	18.4	0.00e+00	0	44	0	842006528	7	3492
2026-01-02 13:07:44.58	21.08	24.81	-23.1	-22.9	18.4	0.00e+00	0	44	0	849346560	7	3514
2026-01-02 13:07:45.58	20.83	24.73	-23.1	-22.9	18.3	0.00e+00	0	44	0	856686592	7	3529
2026-01-02 13:07:46.57	20.58	24.66	-23.1	-23.0	18.3	0.00e+00	0	44	0	862978048	7	3543
2026-01-02 13:07:47.57	20.33	24.58	-23.3	-23.3	18.2	0.00e+00	0	44	0	870318080	7	3603
2026-01-02 13:07:48.57	20.08	24.50	-23.3	-23.4	18.1	0.00e+00	0	44	0	877658112	7	3622
2026-01-02 13:07:49.57	19.83	24.42	-23.3	-23.4	18.1	0.00e+00	0	44	0	884998144	7	3624
2026-01-02 13:07:50.56	19.58	24.35	-23.2	-23.1	18.2	0.00e+00	0	44	0	892338176	7	3564
2026-01-02 13:07:51.55	19.34	24.27	-23.2	-23.1	18.2	0.00e+00	0	44	0	899678208	7	3578
2026-01-02 13:07:52.55	19.09	24.19	-23.2	-23.0	18.2	0.00e+00	0	44	0	905969664	7	3555
2026-01-02 13:07:53.54	18.85	24.11	-23.2	-23.1	18.2	0.00e+00	0	44	0	913309696	7	3554
2026-01-02 13:07:54.53	18.61	24.03	-23.2	-23.1	18.2	0.00e+00	0	44	0	920649728	7	3562
2026-01-02 13:07:55.53	18.37	23.95	-23.1	-23.0	18.3	0.00e+00	0	44	0	927989760	7	3541
2026-01-02 13:07:56.52	18.13	23.87	-23.2	-23.0	18.2	0.00e+00	0	44	0	935329792	7	3554
2026-01-02 13:07:57.52	17.89	23.79	-23.3	-23.4	18.1	0.00e+00	0	44	0	942669824	7	3632
2026-01-02 13:07:58.51	17.66	23.71	-23.3	-23.4	18.1	0.00e+00	0	44	0	948961280	7	3631
2026-01-02 13:07:59.51	17.42	23.63	-23.3	-23.3	18.1	0.00e+00	0	44	0	956301312	7	3597
2026-01-02 13:08:00.50	17.19	23.55	-23.3	-23.4	18.1	0.00e+00	0	44	0	963641344	7	3622
2026-01-02 13:08:01.51	16.95	23.47	-23.4	-23.5	18.0	0.00e+00	0	44	0	970981376	7	3648
2026-01-02 13:08:02.51	16.72	23.39	-23.5	-23.7	17.9	0.00e+00	0	44	0	978321408	7	3698
2026-01-02 13:08:03.51	16.49	23.30	-23.4	-23.5	18.0	0.00e+00	0	44	0	985661440	7	3646
2026-01-02 13:08:04.51	16.26	23.22	-23.4	-23.6	17.9	0.00e+00	0	44	0	993001472	7	3675
2026-01-02 13:08:05.52	16.03	23.14	-23.4	-23.7	17.9	0.00e+00	0	44	0	1000341504	7	3687
2026-01-02 13:08:06.51	15.80	23.06	-23.4	-23.5	18.0	0.00e+00	0	44	0	1007681536	7	3651
2026-01-02 13:08:07.50	15.58	22.97	-23.2	-23.2	18.1	0.00e+00	0	44	0	1013972992	7	3590
2026-01-02 13:08:08.50	15.35	22.89	-23.1	-22.9	18.3	0.00e+00	0	44	0	1021313024	7	3522
2026-01-02 13:08:09.49	15.13	22.81	-23.1	-22.8	18.3	0.00e+00	0	44	0	1028653056	7	3504
2026-01-02 13:08:10.49	14.91	22.72	-23.2	-23.1	18.2	0.00e+00	0	44	0	1035993088	7	3555
2026-01-02 13:08:11.48	14.69	22.64	-23.1	-22.9	18.3	0.00e+00	0	44	0	1043333120	7	3521
2026-01-02 13:08:12.48	14.47	22.56	-23.2	-23.1	18.2	0.00e+00	0	44	0	1050673152	7	3568
2026-01-02 13:08:13.48	14.25	22.47	-23.4	-23.6	17.9	0.00e+00	0	44	0	1058013184	7	3678
2026-01-02 13:08:14.48	14.03	22.39	-23.6	-23.9	17.7	0.00e+00	0	44	0	1065353216	7	3747
2026-01-02 13:08:15.47	13.81	22.31	-23.4	-23.6	17.9	0.00e+00	0	44	0	1071644672	7	3670
2026-01-02 13:08:16.47	13.60	22.22	-23.6	-23.9	17.7	0.00e+00	0	44	0	1078984704	7	3753
2026-01-02 13:08:17.47	13.38	22.14	-23.6	-24.0	17.7	0.00e+00	0	44	0	1086324736	7	3756
2026-01-02 13:08:18.46	13.17	22.05	-23.5	-23.8	17.8	0.00e+00	0	44	0	1093664768	7	3721
2026-01-02 13:08:19.45	12.96	21.97	-23.6	-23.9	17.8	0.00e+00	0	44	0	1101004800	7	3736
2026-01-02 13:08:20.44	12.75	21.88	-23.5	-23.9	17.8	0.00e+00	0	44	0	1108344832	7	3732
2026-01-02 13:08:21.44	12.54	21.80	-23.5	-23.9	17.8	0.00e+00	0	44	0	1114636288	7	3733
2026-01-02 13:08:22.44	12.33	21.71	-23.6	-24.0	17.7	0.00e+00	0	44	0	1121976320	7	3763
2026-01-02 13:08:23.45	12.12	21.62	-23.5	-23.9	17.8	0.00e+00	0	44	0	1129316352	7	3734
2026-01-02 13:08:24.44	11.92	21.54	-23.6	-23.9	17.7	0.00e+00	0	44	0	1136656384	7	3734
2026-01-02 13:08:25.44	11.71	21.45	-23.5	-23.8	17.8	0.00e+00	0	44	0	1143996416	7	3720
2026-01-02 13:08:26.44	11.51	21.37	-23.7	-24.1	17.6	0.00e+00	0	44	0	1151336448	7	3792
2026-01-02 13:08:27.43	11.31	21.28	-23.6	-24.0	17.7	0.00e+00	0	44	0	1158676480	7	3753
2026-01-02 13:08:28.43	11.11	21.20	-23.7	-24.2	17.6	0.00e+00	0	44	0	1166016512	7	3819
2026-01-02 13:08:29.42	10.91	21.11	-23.6	-24.1	17.6	0.00e+00	0	44	0	1172307968	7	3784
2026-01-02 13:08:30.42	10.71	21.03	-23.7	-24.1	17.6	0.00e+00	0	44	0	1179648000	7	3793
2026-01-02 13:08:31.41	10.51	20.94	-23.6	-24.0	17.7	0.00e+00	0	44	0	1186988032	7	3762
2026-01-02 13:08:32.41	10.32	20.85	-23.7	-24.2	17.6	0.00e+00	0	44	0	1194328064	7	3806
2026-01-02 13:08:33.40	10.12	20.77	-23.6	-23.9	17.7	0.00e+00	0	44	0	1201668096	7	3742
2026-01-02 13:08:34.39	9.93	20.68	-23.7	-24.2	17.5	0.00e+00	0	44	0	1209008128	7	3817
2026-01-02 13:08:35.38	9.74	20.60	-23.9	-24.6	17.4	0.00e+00	0	44	0	1215299584	7	3894
2026-01-02 13:08:36.38	9.54	20.51	-23.9	-24.6	17.4	0.00e+00	0	44	0	1222639616	7	3899
2026-01-02 13:08:37.39	9.35	20.42	-23.9	-24.7	17.3	0.00e+00	0	44	0	1229979648	7	3920
2026-01-02 13:08:38.39	9.16	20.34	-24.2	-24.8	17.0	0.00e+00	0	44	0	1237319680	8	3851
2026-01-02 13:08:39.38	8.97	20.25	-24.5	-25.3	16.7	0.00e+00	0	44	0	1244659712	8	3971
2026-01-02 13:08:40.38	8.78	20.16	-24.1	-24.6	17.1	0.00e+00	0	44	0	1251999744	8	3800
2026-01-02 13:08:41.38	8.60	20.08	-24.0	-24.4	17.2	0.00e+00	0	44	0	1259339776	8	3750
2026-01-02 13:08:42.38	8.41	19.99	-24.1	-24.4	17.2	0.00e+00	0	44	0	1266679808	8	3764
2026-01-02 13:08:43.37	8.23	19.90	-24.2	-24.7	17.0	0.00e+00	0	44	0	1272971264	8	3820
2026-01-02 13:08:44.36	8.04	19.82	-24.4	-24.8	16.7	0.00e+00	0	44	0	1280311296	9	3732
2026-01-02 13:08:45.36	7.86	19.73	-24.2	-24.3	16.9	0.00e+00	0	44	0	1287651328	9	3643
2026-01-02 13:08:46.36	7.68	19.64	-24.1	-24.0	17.1	0.00e+00	0	44	0	1294991360	9	3575
2026-01-02 13:08:47.35	7.50	19.56	-24.2	-24.3	17.0	0.00e+00	0	44	0	1302331392	9	3628
2026-01-02 13:08:48.35	7.32	19.47	-24.5	-24.8	16.7	0.00e+00	0	44	0	1309671424	9	3746
2026-01-02 13:08:49.34	7.14	19.38	-24.3	-24.4	16.9	0.00e+00	0	44	0	1317011456	9	3648
2026-01-02 13:08:50.33	6.97	19.30	-24.5	-24.9	16.7	0.00e+00	0	44	0	1323302912	9	3762
2026-01-02 13:08:51.33	6.79	19.21	-24.3	-24.4	16.9	0.00e+00	0	44	0	1330642944	9	3653
2026-01-02 13:08:52.33	6.61	19.12	-24.2	-24.2	17.0	0.00e+00	0	44	0	1337982976	9	3617
2026-01-02 13:08:53.33	6.44	19.04	-24.2	-24.3	17.0	0.00e+00	0	44	0	1345323008	9	3639
2026-01-02 13:08:54.32	6.27	18.95	-24.3	-24.4	16.9	0.00e+00	0	44	0	1352663040	9	3659
2026-01-02 13:08:55.32	6.09	18.86	-24.1	-24.0	17.2	0.00e+00	0	44	0	1358954496	9	3559
2026-01-02 13:08:56.31	5.92	18.78	-24.0	-23.8	17.2	0.00e+00	0	44	0	1366294528	9	3521
2026-01-02 13:08:57.31	5.75	18.69	-24.1	-24.0	17.1	0.00e+00	0	44	0	1373634560	9	3561
2026-01-02 13:08:58.30	5.58	18.61	-23.9	-23.6	17.3	0.00e+00	0	44	0	1380974592	9	3490
2026-01-02 13:08:59.30	5.42	18.52	-23.9	-24.1	17.3	0.00e+00	0	44	0	1388314624	8	3686
2026-01-02 13:09:00.30	5.25	18.43	-23.9	-24.0	17.3	0.00e+00	0	44	0	1395654656	8	3674
2026-01-02 13:09:01.30	5.08	18.35	-24.0	-24.2	17.2	0.00e+00	0	44	0	1402994688	8	3718
2026-01-02 13:09:02.30	4.91	18.26	-24.0	-24.2	17.2	0.00e+00	0	44	0	1410334720	8	3715
2026-01-02 13:09:03.29	4.75	18.17	-24.0	-24.4	17.1	0.00e+00	0	44	0	1417674752	8	3750
2026-01-02 13:09:04.29	4.59	18.09	-24.1	-24.6	17.1	0.00e+00	0	44	0	1423966208	8	3793
2026-01-02 13:09:05.29	4.42	18.00	-24.2	-24.7	17.0	0.00e+00	0	44	0	1431306240	8	3821
2026-01-02 13:09:06.29	4.26	17.92	-24.4	-25.1	16.8	0.00e+00	0	44	0	1438646272	8	3917
2026-01-02 13:09:07.28	4.10	17.83	-24.3	-25.0	16.8	0.00e+00	0	44	0	1445986304	8	3907
2026-01-02 13:09:08.28	3.94	17.74	-24.4	-25.2	16.7	0.00e+00	0	44	0	1453326336	8	3939
2026-01-02 13:09:09.28	3.78	17.66	-24.3	-25.1	16.8	0.00e+00	0	44	0	1460666368	8	3912
2026-01-02 13:09:10.28	3.62	17.57	-24.5	-25.3	16.7	0.00e+00	0	44	0	1468006400	8	3973
2026-01-02 13:09:11.29	3.47	17.49	-24.6	-25.5	16.6	0.00e+00	0	44	0	1475346432	8	4017
2026-01-02 13:09:12.28	3.31	17.40	-24.7	-25.3	16.4	0.00e+00	0	44	0	1482686464	9	3864
2026-01-02 13:09:13.29	3.15	17.31	-24.6	-25.1	16.5	0.00e+00	0	44	0	1488977920	9	3806
2026-01-02 13:09:14.28	3.00	17.23	-24.5	-25.0	16.5	0.00e+00	0	44	0	1496317952	9	3787
2026-01-02 13:09:15.27	2.85	17.14	-24.7	-25.4	16.3	0.00e+00	0	44	0	1503657984	9	3885
2026-01-02 13:09:16.28	2.69	17.06	-24.8	-25.5	16.3	1.10e-06	0	44	0	1510998016	9	3901
2026-01-02 13:09:17.27	2.54	16.97	-24.7	-25.3	16.3	0.00e+00	0	44	0	1518338048	9	3866
2026-01-02 13:09:18.28	2.39	16.89	-24.7	-25.4	16.3	0.00e+00	0	44	0	1524629504	9	3883
2026-01-02 13:09:19.27	2.24	16.80	-24.7	-25.4	16.3	0.00e+00	0	44	0	1531969536	9	3886
2026-01-02 13:09:20.26	2.09	16.72	-24.8	-25.5	16.3	0.00e+00	0	44	0	1539309568	9	3918
2026-01-02 13:09:21.26	1.94	16.63	-24.8	-25.5	16.3	0.00e+00	0	44	0	1546649600	9	3903
2026-01-02 13:09:22.25	1.80	16.55	-24.8	-25.5	16.2	0.00e+00	0	44	0	1553989632	9	3911
2026-01-02 13:09:23.24	1.65	16.47	-24.8	-25.6	16.2	0.00e+00	0	44	0	1561329664	9	3923
2026-01-02 13:09:24.24	1.51	16.38	-24.7	-25.4	16.3	0.00e+00	0	44	0	1568669696	9	3874
2026-01-02 13:09:25.24	1.36	16.30	-24.8	-25.6	16.2	0.00e+00	0	44	0	1576009728	9	3925
2026-01-02 13:09:26.23	1.22	16.21	-24.9	-25.7	16.1	0.00e+00	0	44	0	1583349760	9	3950
2026-01-02 13:09:27.23	1.07	16.13	-25.2	-25.8	15.8	0.00e+00	0	44	0	1589641216	10	3890
2026-01-02 13:09:28.23	0.93	16.04	-25.1	-25.7	15.8	0.00e+00	0	44	0	1596981248	10	3866
2026-01-02 13:09:29.23	0.79	15.96	-25.1	-25.8	15.8	0.00e+00	0	44	0	1604321280	10	3880
2026-01-02 13:09:30.23	0.65	15.88	-25.2	-26.0	15.7	0.00e+00	0	44	0	1611661312	10	3926
2026-01-02 13:09:31.23	0.51	15.79	-25.2	-25.8	15.8	0.00e+00	0	44	0	1619001344	10	3882
2026-01-02 13:09:32.23	0.37	15.71	-25.3	-26.0	15.7	0.00e+00	0	44	0	1626341376	10	3940
2026-01-02 13:09:33.23	0.23	15.62	-25.3	-26.1	15.6	0.00e+00	0	44	0	1633681408	10	3943
2026-01-02 13:09:34.22	0.09	15.54	-25.3	-26.2	15.5	0.00e+00	0	44	0	1639972864	10	3978
2026-01-02 13:09:35.22	359.95	15.46	-25.2	-26.0	15.7	0.00e+00	0	44	0	1647312896	10	3921
2026-01-02 13:09:36.21	359.82	15.37	-25.2	-26.0	15.6	1.10e-06	0	44	0	1654652928	10	3936
2026-01-02 13:09:37.21	359.68	15.29	-25.1	-25.7	15.8	0.00e+00	0	44	0	1661992960	10	3862
2026-01-02 13:09:38.20	359.55	15.21	-25.1	-25.8	15.7	0.00e+00	0	44	0	1669332992	10	3877
2026-01-02 13:09:39.20	359.42	15.13	-25.3	-26.2	15.5	0.00e+00	0	44	0	1676673024	10	3991
2026-01-02 13:09:40.20	359.28	15.04	-25.1	-25.8	15.8	0.00e+00	0	44	0	1684013056	10	3872
2026-01-02 13:09:41.19	359.15	14.96	-25.0	-25.5	15.9	0.00e+00	0	44	0	1690304512	10	3807
2026-01-02 13:09:42.19	359.02	14.88	-25.2	-25.9	15.7	0.00e+00	0	44	0	1697644544	10	3906
2026-01-02 13:09:43.18	358.89	14.80	-25.2	-25.8	15.7	0.00e+00	0	44	0	1704984576	10	3889
2026-01-02 13:09:44.18	358.76	14.71	-25.2	-25.9	15.7	0.00e+00	0	44	0	1712324608	10	3911
2026-01-02 13:09:45.18	358.63	14.63	-25.1	-25.7	15.8	0.00e+00	0	44	0	1719664640	10	3865
2026-01-02 13:09:46.18	358.50	14.55	-25.1	-25.7	15.8	0.00e+00	0	44	0	1727004672	10	3854
2026-01-02 13:09:47.18	358.37	14.47	-25.2	-26.0	15.6	0.00e+00	0	44	0	1734344704	10	3928
2026-01-02 13:09:48.19	358.24	14.39	-25.1	-25.8	15.7	0.00e+00	0	44	0	1741684736	10	3876
2026-01-02 13:09:49.17	358.12	14.31	-25.2	-26.0	15.6	0.00e+00	0	44	0	1747976192	10	3926
2026-01-02 13:09:50.17	357.99	14.22	-25.2	-26.0	15.6	0.00e+00	0	44	0	1755316224	10	3929
2026-01-02 13:09:51.16	357.87	14.14	-25.4	-26.4	15.3	0.00e+00	0	44	0	1762656256	10	4039
2026-01-02 13:09:52.15	357.75	14.06	-25.4	-26.3	15.4	0.00e+00	0	44	0	1769996288	10	4001
2026-01-02 13:09:53.15	357.62	13.98	-25.4	-26.4	15.3	0.00e+00	0	44	0	1777336320	10	4046
2026-01-02 13:09:54.14	357.50	13.90	-25.4	-26.3	15.3	0.00e+00	0	44	0	1784676352	10	4017
2026-01-02 13:09:55.14	357.38	13.82	-25.5	-26.5	15.3	0.00e+00	0	44	0	1790967808	10	4056
2026-01-02 13:09:56.14	357.26	13.74	-25.5	-26.7	15.2	0.00e+00	0	44	0	1798307840	10	4098
2026-01-02 13:09:57.14	357.13	13.66	-25.5	-26.6	15.3	0.00e+00	0	44	0	1805647872	10	4077
2026-01-02 13:09:58.13	357.02	13.58	-25.4	-26.4	15.3	0.00e+00	0	44	0	1812987904	10	4024
2026-01-02 13:09:59.13	356.90	13.50	-25.4	-26.3	15.3	0.00e+00	0	44	0	1820327936	10	4014
2026-01-02 13:10:00.12	356.78	13.42	-25.4	-26.4	15.3	0.00e+00	0	44	0	1827667968	10	4024
2026-01-02 13:10:01.11	356.66	13.34	-25.4	-26.4	15.3	0.00e+00	0	44	0	1833959424	10	4041
2026-01-02 13:10:02.12	356.54	13.26	-25.5	-26.2	15.2	0.00e+00	0	44	0	1841299456	11	3866
2026-01-02 13:10:03.12	356.42	13.18	-25.4	-25.9	15.3	0.00e+00	0	44	0	1848639488	11	3797
2026-01-02 13:10:04.12	356.31	13.10	-25.5	-26.2	15.1	0.00e+00	0	44	0	1855979520	11	3870
2026-01-02 13:10:05.12	356.19	13.02	-25.3	-25.7	15.4	0.00e+00	0	44	0	1863319552	11	3753
2026-01-02 13:10:06.12	356.08	12.94	-25.4	-25.8	15.3	0.00e+00	0	44	0	1870659584	11	3783
2026-01-02 13:10:07.12	355.96	12.86	-25.5	-26.1	15.2	0.00e+00	0	44	0	1877999616	11	3858
2026-01-02 13:10:08.12	355.85	12.78	-25.5	-26.2	15.1	0.00e+00	0	44	0	1885339648	11	3881
2026-01-02 13:10:09.11	355.74	12.70	-25.7	-26.6	14.9	0.00e+00	0	44	0	1892679680	11	3986
2026-01-02 13:10:10.11	355.62	12.62	-25.9	-27.0	14.7	0.00e+00	0	44	0	1898971136	11	4075
2026-01-02 13:10:11.10	355.51	12.55	-25.7	-26.6	14.9	0.00e+00	0	44	0	1906311168	11	3973
2026-01-02 13:10:12.09	355.40	12.47	-25.7	-26.6	14.9	0.00e+00	0	44	0	1913651200	11	3991
2026-01-02 13:10:13.09	355.29	12.39	-25.9	-27.0	14.6	0.00e+00	0	44	0	1920991232	11	4074
2026-01-02 13:10:14.08	355.18	12.31	-25.9	-27.1	14.6	0.00e+00	0	44	0	1928331264	11	4098
2026-01-02 13:10:15.09	355.07	12.23	-25.9	-26.9	14.7	0.00e+00	0	44	0	1935671296	11	4052
2026-01-02 13:10:16.09	354.96	12.16	-26.0	-27.2	14.5	1.10e-06	0	44	0	1943011328	11	4133
2026-01-02 13:10:17.10	354.85	12.08	-25.8	-26.7	14.7	1.10e-06	0	44	0	1950351360	11	4015
2026-01-02 13:10:18.10	354.74	12.00	-25.7	-26.5	14.9	0.00e+00	0	44	0	1956642816	11	3955
2026-01-02 13:10:19.10	354.64	11.92	-25.6	-26.3	15.0	0.00e+00	0	44	0	1963982848	11	3916
2026-01-02 13:10:20.09	354.53	11.85	-25.7	-26.5	14.9	0.00e+00	0	44	0	1971322880	11	3965
2026-01-02 13:10:21.09	354.42	11.77	-25.8	-26.7	14.8	0.00e+00	0	44	0	1978662912	11	3994
2026-01-02 13:10:22.10	354.32	11.69	-25.9	-26.9	14.6	0.00e+00	0	44	0	1986002944	11	4064
2026-01-02 13:10:23.11	354.21	11.61	-26.0	-27.3	14.4	0.00e+00	0	44	0	1993342976	11	4146
2026-01-02 13:10:24.11	354.11	11.54	-26.0	-27.3	14.4	0.00e+00	0	44	0	2000683008	11	4157
2026-01-02 13:10:25.11	354.00	11.46	-26.1	-26.9	14.3	1.10e-06	0	44	0	2008023040	12	3963
2026-01-02 13:10:26.09	353.90	11.38	-26.3	-27.3	14.0	1.10e-06	0	44	0	2015363072	12	4062
2026-01-02 13:10:27.09	353.80	11.31	-26.2	-27.2	14.1	3.40e-06	0	44	0	2021654528	12	4040
2026-01-02 13:10:28.09	353.70	11.23	-26.2	-27.2	14.1	2.20e-06	0	44	0	2028994560	12	4033
2026-01-02 13:10:29.09	353.60	11.16	-26.3	-27.3	14.0	1.10e-06	0	44	0	2036334592	12	4075
2026-01-02 13:10:30.08	353.50	11.08	-26.4	-27.5	13.9	2.20e-06	0	44	0	2043674624	12	4124
2026-01-02 13:10:31.08	353.40	11.00	-26.3	-27.3	14.0	1.10e-06	0	44	0	2051014656	12	4052
2026-01-02 13:10:32.09	353.29	10.93	-26.3	-27.3	14.0	1.10e-06	0	44	0	2058354688	12	4069
2026-01-02 13:10:33.09	353.19	10.85	-26.4	-27.5	13.9	3.40e-06	0	44	0	2065694720	12	4129
2026-01-02 13:10:34.10	353.09	10.78	-26.2	-27.2	14.0	0.00e+00	0	44	0	2073034752	12	4042
2026-01-02 13:10:35.11	353.00	10.70	-26.3	-27.4	14.0	0.00e+00	0	44	0	2080374784	12	4078
2026-01-02 13:10:36.11	352.90	10.62	-26.4	-27.6	13.8	3.40e-06	0	44	0	2086666240	12	4140
2026-01-02 13:10:37.11	352.80	10.55	-26.2	-27.1	14.1	0.00e+00	0	44	0	2094006272	12	4009
2026-01-02 13:10:38.11	352.70	10.48	-26.1	-26.9	14.2	1.10e-06	0	44	0	2101346304	12	3958
2026-01-02 13:10:39.11	352.61	10.40	-26.2	-27.1	14.1	2.20e-06	0	44	0	2108686336	12	4002
2026-01-02 13:10:40.12	352.51	10.33	-26.1	-26.9	14.2	1.10e-06	0	44	0	2116026368	12	3957
2026-01-02 13:10:41.12	352.41	10.25	-26.0	-26.8	14.3	0.00e+00	0	44	0	2123366400	12	3926
2026-01-02 13:10:42.12	352.32	10.18	-26.0	-26.7	14.3	1.10e-06	0	44	0	2130706432	12	3917
2026-01-02 13:10:43.12	352.23	10.10	-26.1	-27.1	14.1	2.20e-06	0	44	0	2138046464	12	4003
2026-01-02 13:10:44.12	352.13	10.03	-26.1	-26.9	14.2	3.40e-06	0	44	0	2144337920	12	3950
2026-01-02 13:10:45.12	352.04	9.95	-26.1	-26.9	14.1	0.00e+00	0	44	0	2151677952	12	3965
2026-01-02 13:10:46.12	351.95	9.88	-26.1	-27.0	14.1	0.00e+00	0	44	0	2159017984	12	3978
2026-01-02 13:10:47.13	351.85	9.81	-26.1	-27.1	14.1	1.10e-06	0	44	0	2166358016	12	4000
2026-01-02 13:10:48.12	351.76	9.73	-26.1	-27.1	14.1	6.80e-06	0	44	0	2173698048	12	4007
2026-01-02 13:10:49.13	351.67	9.66	-26.2	-27.1	14.0	1.10e-06	0	44	0	2181038080	12	4026
2026-01-02 13:10:50.13	351.58	9.59	-26.3	-27.4	13.8	1.10e-06	0	44	0	2188378112	12	4097
2026-01-02 13:10:51.14	351.49	9.51	-26.3	-27.3	13.9	2.20e-06	0	44	0	2195718144	12	4074
2026-01-02 13:10:52.15	351.40	9.44	-26.2	-27.2	14.0	4.50e-06	0	44	0	2203058176	12	4046
2026-01-02 13:10:53.15	351.31	9.37	-26.3	-27.3	13.9	3.40e-06	0	44	0	2210398208	12	4077
2026-01-02 13:10:54.16	351.22	9.29	-26.3	-27.5	13.8	3.40e-06	0	44	0	2217738240	12	4109
2026-01-02 13:10:55.17	351.13	9.22	-26.4	-27.6	13.7	4.50e-06	0	44	0	2225078272	12	4135
2026-01-02 13:10:56.17	351.04	9.15	-26.3	-27.4	13.8	0.00e+00	0	44	0	2231369728	12	4096
2026-01-02 13:10:57.17	350.95	9.08	-26.3	-27.4	13.8	2.20e-06	0	44	0	2238709760	12	4104
2026-01-02 13:10:58.18	350.86	9.00	-26.4	-27.8	13.6	8.00e-06	0	44	0	2247098368	12	4196
2026-01-02 13:10:59.18	350.78	8.93	-26.4	-27.7	13.6	2.20e-06	0	44	0	2253389824	12	4178
2026-01-02 13:11:00.18	350.69	8.86	-26.5	-28.0	13.4	8.00e-06	0	44	0	2260729856	12	4271
2026-01-02 13:11:01.18	350.60	8.79	-26.5	-27.9	13.5	3.40e-06	0	44	0	2268069888	12	4236
2026-01-02 13:11:02.19	350.52	8.72	-26.6	-28.0	13.4	4.50e-06	0	44	0	2275409920	12	4257
2026-01-02 13:11:03.19	350.43	8.65	-26.5	-27.9	13.5	5.70e-06	0	44	0	2282749952	12	4242
2026-01-02 13:11:04.20	350.35	8.57	-26.7	-27.9	13.2	1.83e-05	0	44	0	2290089984	13	4114
2026-01-02 13:11:05.20	350.26	8.50	-26.9	-28.3	13.0	4.00e-05	0	44	0	2297430016	13	4220
2026-01-02 13:11:06.21	350.18	8.43	-26.7	-27.9	13.2	2.28e-05	0	44	0	2304770048	13	4111
2026-01-02 13:11:07.22	350.09	8.36	-26.8	-28.1	13.1	2.51e-05	0	44	0	2311061504	13	4174
2026-01-02 13:11:08.23	350.01	8.29	-26.6	-27.6	13.3	1.25e-05	0	44	0	2318401536	13	4053
2026-01-02 13:11:09.23	349.93	8.22	-26.6	-27.6	13.3	1.60e-05	0	44	0	2326790144	13	4046
2026-01-02 13:11:10.24	349.84	8.15	-26.6	-27.6	13.3	9.10e-06	0	44	0	2333081600	13	4043
2026-01-02 13:11:11.24	349.76	8.08	-26.6	-27.7	13.3	1.94e-05	0	44	0	2340421632	13	4058
2026-01-02 13:11:12.25	349.68	8.01	-26.5	-27.4	13.4	9.10e-06	0	44	0	2347761664	13	3988
2026-01-02 13:11:13.24	349.60	7.94	-26.4	-27.2	13.5	9.10e-06	0	44	0	2355101696	13	3945
2026-01-02 13:11:14.25	349.52	7.87	-26.4	-27.1	13.6	1.14e-05	0	44	0	2362441728	13	3919
2026-01-02 13:11:15.26	349.44	7.80	-26.4	-27.1	13.5	5.70e-06	0	44	0	2369781760	13	3917
2026-01-02 13:11:16.26	349.36	7.73	-26.2	-26.8	13.7	8.00e-06	0	44	0	2377121792	13	3832
2026-01-02 13:11:17.26	349.28	7.66	-26.3	-27.0	13.6	6.80e-06	0	44	0	2384461824	13	3896
2026-01-02 13:11:18.27	349.20	7.59	-26.3	-27.0	13.6	6.80e-06	0	44	0	2391801856	13	3881
2026-01-02 13:11:19.27	349.12	7.52	-26.5	-27.4	13.3	1.71e-05	0	44	0	2398093312	13	3994
2026-01-02 13:11:20.28	349.04	7.45	-26.4	-27.1	13.5	2.20e-06	0	44	0	2406481920	13	3927
2026-01-02 13:11:21.27	348.97	7.38	-26.4	-27.2	13.5	6.80e-06	0	44	0	2412773376	13	3948
2026-01-02 13:11:22.28	348.89	7.31	-26.5	-27.4	13.3	1.60e-05	0	44	0	2420113408	13	4000
2026-01-02 13:11:23.29	348.81	7.24	-26.5	-27.5	13.3	1.94e-05	0	44	0	2427453440	13	4025
2026-01-02 13:11:24.30	348.73	7.18	-26.7	-27.9	13.0	2.51e-05	0	44	0	2434793472	13	4140
2026-01-02 13:11:25.30	348.66	7.11	-28.5	-30.6	10.9	7.55e-05	0	44	0	2442133504	16	4588
2026-01-02 13:11:26.30	348.58	7.04	-32.6	-40.8	3.8	8.43e-01	0	44	104	2443182080	25	9241
2026-01-02 13:11:27.30	348.51	6.97	-33.1	-42.6	3.8	8.46e-01	0	44	104	2443182080	26	10673
2026-01-02 13:11:28.31	348.43	6.90	-33.3	-43.0	3.8	8.46e-01	0	44	104	2443182080	26	10988

#Closed at: 2026-01-02 13:11:28
#Recorded file [2443 MB]: D:/data/31010_260102_160546.dat