passes_logs/2026/01/02/R2M6_AANII_01/R2M6_AANII_01__20260102_044040_FENGYUN_3D_rec.log

#Pass ID: 20260102_044040_FENGYUN 3D
#Satellite: FENGYUN 3D
#Configuration: FENGYUN 3D
#almurnet v.1.7.20240730
#Start time: 2026-01-02 04:40:40

#Version: 2.2.20231116
#Station: R2M6_AANII_01
#Location: 30.233357 lon 59.946436 lat
#TLE: 1 43010U 17072A   26001.33100487  .00000602  00000+0  30664-3 0  9999
#TLE: 2 43010  98.9910 332.9374 0001848 133.1047 227.0283 14.19692078421319

#Time	Az	El	Level	Level2	SNR	BER	BlckErr	Temp	State	Recorded	gain1	gain2
2026-01-02 04:40:40.53	10.00	7.00	-30.8	-36.1	4.7	8.18e-01	0	40	0	0	21	6656
2026-01-02 04:40:41.53	9.90	7.06	-30.2	-34.4	5.0	7.93e-01	0	41	104	0	20	5887
2026-01-02 04:40:42.53	9.79	7.12	-30.1	-34.0	8.1	5.46e-02	0	41	0	0	20	5668
2026-01-02 04:40:43.54	9.69	7.18	-30.0	-33.7	8.4	4.57e-02	0	41	0	5242880	20	5546
2026-01-02 04:40:44.54	9.58	7.24	-30.1	-34.0	8.1	4.69e-02	0	41	0	10485760	20	5665
2026-01-02 04:40:45.54	9.48	7.30	-30.2	-34.3	7.9	7.24e-02	0	41	0	16777216	20	5820
2026-01-02 04:40:46.54	9.37	7.35	-30.3	-34.6	7.8	7.01e-02	0	41	0	22020096	20	5946
2026-01-02 04:40:47.55	9.26	7.41	-30.4	-35.0	7.5	8.74e-02	0	41	0	28311552	20	6134
2026-01-02 04:40:48.55	9.16	7.47	-30.3	-34.3	7.6	1.18e-01	0	41	0	33554432	21	5712
2026-01-02 04:40:49.55	9.05	7.53	-30.0	-33.9	8.3	5.13e-02	0	41	0	38797312	20	5589
2026-01-02 04:40:50.56	8.94	7.59	-29.6	-33.0	9.3	2.30e-02	0	41	0	45088768	19	5334
2026-01-02 04:40:51.55	8.83	7.65	-29.0	-31.7	10.6	3.30e-03	0	41	0	50331648	18	4919
2026-01-02 04:40:52.55	8.72	7.71	-28.4	-30.8	11.5	3.25e-03	0	41	0	55574528	17	4738
2026-01-02 04:40:53.56	8.61	7.77	-28.1	-30.4	12.0	2.53e-03	0	41	0	61865984	16	4720
2026-01-02 04:40:54.56	8.50	7.83	-27.9	-29.9	12.4	1.05e-04	0	41	0	67108864	16	4550
2026-01-02 04:40:55.56	8.39	7.89	-27.3	-29.6	13.0	2.13e-03	0	41	0	72351744	14	4690
2026-01-02 04:40:56.57	8.28	7.95	-27.1	-29.2	13.3	1.60e-05	0	41	0	78643200	14	4571
2026-01-02 04:40:57.57	8.17	8.01	-27.0	-28.9	13.4	2.31e-04	0	41	0	83886080	14	4475
2026-01-02 04:40:58.57	8.06	8.07	-27.0	-28.8	13.5	4.50e-06	0	41	0	90177536	14	4460
2026-01-02 04:40:59.57	7.95	8.13	-26.9	-29.2	13.6	6.80e-06	0	41	0	95420416	13	4694
2026-01-02 04:41:00.56	7.84	8.19	-26.9	-28.8	13.6	2.70e-04	0	41	0	100663296	14	4432
2026-01-02 04:41:01.56	7.72	8.25	-26.7	-28.7	13.9	3.40e-06	0	41	0	106954752	13	4517
2026-01-02 04:41:02.57	7.61	8.31	-26.8	-28.8	13.9	1.99e-03	0	41	0	112197632	13	4542
2026-01-02 04:41:03.57	7.50	8.37	-26.8	-28.9	13.8	3.40e-06	0	41	0	117440512	13	4581
2026-01-02 04:41:04.56	7.38	8.43	-26.7	-28.7	13.9	1.82e-03	0	41	0	123731968	13	4508
2026-01-02 04:41:05.56	7.27	8.49	-26.5	-28.2	14.2	0.00e+00	0	41	0	128974848	13	4376
2026-01-02 04:41:06.56	7.15	8.55	-26.4	-28.0	14.3	0.00e+00	0	41	0	134217728	13	4321
2026-01-02 04:41:07.56	7.04	8.61	-26.5	-28.2	14.1	1.65e-03	0	41	0	140509184	13	4384
2026-01-02 04:41:08.57	6.92	8.67	-26.4	-27.9	14.4	0.00e+00	0	41	0	145752064	13	4297
2026-01-02 04:41:09.57	6.80	8.73	-26.3	-27.8	14.5	1.54e-04	0	42	0	152043520	13	4256
2026-01-02 04:41:10.58	6.69	8.79	-26.4	-28.4	14.4	1.10e-06	0	41	0	157286400	12	4548
2026-01-02 04:41:11.57	6.57	8.85	-26.3	-28.3	14.4	0.00e+00	0	41	0	162529280	12	4520
2026-01-02 04:41:12.59	6.45	8.91	-26.3	-28.3	14.4	1.10e-06	0	42	0	168820736	12	4518
2026-01-02 04:41:13.59	6.33	8.97	-26.4	-28.6	14.3	1.10e-06	0	42	0	174063616	12	4595
2026-01-02 04:41:14.60	6.21	9.03	-26.5	-28.1	14.3	1.10e-06	0	42	0	180355072	13	4351
2026-01-02 04:41:15.60	6.09	9.09	-26.3	-27.7	14.5	0.00e+00	0	42	0	185597952	13	4234
2026-01-02 04:41:16.60	5.97	9.15	-26.3	-28.2	14.6	0.00e+00	0	41	0	190840832	12	4477
2026-01-02 04:41:17.59	5.85	9.21	-26.3	-28.2	14.5	0.00e+00	0	42	0	197132288	12	4473
2026-01-02 04:41:18.59	5.73	9.27	-26.3	-28.2	14.5	0.00e+00	0	42	0	202375168	12	4490
2026-01-02 04:41:19.59	5.61	9.33	-26.2	-28.1	14.6	0.00e+00	0	42	0	208666624	12	4458
2026-01-02 04:41:20.60	5.48	9.39	-26.3	-28.1	14.6	1.10e-06	0	42	0	213909504	12	4467
2026-01-02 04:41:21.60	5.36	9.45	-26.3	-28.2	14.6	0.00e+00	0	42	0	219152384	12	4477
2026-01-02 04:41:22.61	5.24	9.52	-26.3	-28.3	14.5	0.00e+00	0	42	0	225443840	12	4514
2026-01-02 04:41:23.60	5.11	9.57	-26.3	-28.3	14.5	0.00e+00	0	42	0	230686720	12	4531
2026-01-02 04:41:24.61	4.99	9.64	-26.3	-28.2	14.5	1.10e-06	0	42	0	235929600	12	4484
2026-01-02 04:41:25.62	4.86	9.70	-26.3	-28.2	14.6	0.00e+00	0	42	0	242221056	12	4495
2026-01-02 04:41:26.62	4.74	9.76	-26.3	-28.2	14.6	0.00e+00	0	42	0	247463936	12	4492
2026-01-02 04:41:27.63	4.61	9.82	-26.3	-28.2	14.6	0.00e+00	0	42	0	252706816	12	4475
2026-01-02 04:41:28.63	4.48	9.88	-26.4	-28.4	14.4	0.00e+00	0	42	0	258998272	12	4548
2026-01-02 04:41:29.64	4.35	9.94	-26.3	-28.2	14.6	0.00e+00	0	42	0	264241152	12	4488
2026-01-02 04:41:30.64	4.23	10.00	-26.2	-28.0	14.7	0.00e+00	0	42	0	270532608	12	4443
2026-01-02 04:41:31.65	4.10	10.06	-26.3	-28.3	14.6	0.00e+00	0	42	0	275775488	12	4501
2026-01-02 04:41:32.65	3.97	10.12	-26.3	-28.2	14.6	0.00e+00	0	42	0	282066944	12	4476
2026-01-02 04:41:33.65	3.84	10.18	-26.1	-27.9	14.8	0.00e+00	0	42	0	287309824	12	4397
2026-01-02 04:41:34.65	3.71	10.24	-26.2	-28.0	14.7	0.00e+00	0	42	0	292552704	12	4444
2026-01-02 04:41:35.65	3.58	10.30	-26.3	-28.1	14.7	0.00e+00	0	42	0	298844160	12	4462
2026-01-02 04:41:36.66	3.45	10.36	-26.3	-28.1	14.7	0.00e+00	0	42	0	304087040	12	4460
2026-01-02 04:41:37.66	3.31	10.43	-26.6	-28.4	14.2	0.00e+00	0	42	0	309329920	13	4438
2026-01-02 04:41:38.67	3.18	10.49	-26.3	-27.8	14.6	2.20e-06	0	42	0	315621376	13	4268
2026-01-02 04:41:39.67	3.05	10.55	-26.0	-27.0	15.0	0.00e+00	0	42	0	320864256	13	4044
2026-01-02 04:41:40.68	2.91	10.61	-25.9	-27.3	15.1	0.00e+00	0	42	0	326107136	12	4234
2026-01-02 04:41:41.68	2.78	10.67	-26.3	-28.3	14.6	0.00e+00	0	42	0	332398592	12	4508
2026-01-02 04:41:42.69	2.64	10.73	-26.3	-28.2	14.7	0.00e+00	0	42	0	337641472	12	4480
2026-01-02 04:41:43.70	2.51	10.79	-26.1	-27.8	14.8	0.00e+00	0	42	0	343932928	12	4380
2026-01-02 04:41:44.70	2.37	10.85	-26.2	-28.0	14.7	0.00e+00	0	42	0	349175808	12	4429
2026-01-02 04:41:45.71	2.23	10.91	-26.4	-28.4	14.5	0.00e+00	0	42	0	355467264	12	4531
2026-01-02 04:41:46.71	2.10	10.97	-26.3	-28.2	14.7	0.00e+00	0	42	0	360710144	12	4477
2026-01-02 04:41:47.72	1.96	11.03	-26.2	-28.1	14.7	0.00e+00	0	42	0	365953024	12	4446
2026-01-02 04:41:48.72	1.82	11.09	-26.3	-28.3	14.6	1.10e-06	0	42	0	372244480	12	4513
2026-01-02 04:41:49.73	1.68	11.16	-26.4	-28.4	14.6	0.00e+00	0	42	0	377487360	12	4535
2026-01-02 04:41:50.73	1.54	11.22	-26.1	-27.8	14.9	0.00e+00	0	42	0	382730240	12	4384
2026-01-02 04:41:51.73	1.40	11.28	-25.9	-27.2	15.2	0.00e+00	0	42	0	389021696	12	4215
2026-01-02 04:41:52.74	1.26	11.34	-25.9	-27.8	15.1	1.10e-06	0	42	0	394264576	11	4490
2026-01-02 04:41:53.74	1.12	11.40	-25.1	-26.3	15.2	0.00e+00	0	42	0	400556032	12	4172
2026-01-02 04:41:54.74	0.98	11.46	-25.8	-27.7	12.4	0.00e+00	0	42	0	405798912	11	4436
2026-01-02 04:41:55.74	0.84	11.52	-25.8	-27.6	13.2	0.00e+00	0	42	0	411041792	11	4417
2026-01-02 04:41:56.75	0.69	11.58	-25.8	-27.5	15.4	0.00e+00	0	42	0	417333248	11	4403
2026-01-02 04:41:57.75	0.55	11.64	-25.8	-27.6	15.3	0.00e+00	0	42	0	422576128	11	4421
2026-01-02 04:41:58.76	0.40	11.70	-25.8	-27.6	15.4	0.00e+00	0	43	0	428867584	11	4417
2026-01-02 04:41:59.76	0.26	11.76	-25.8	-27.5	15.4	0.00e+00	0	42	0	434110464	11	4394
2026-01-02 04:42:00.77	0.11	11.82	-25.9	-27.8	15.3	0.00e+00	0	42	0	439353344	11	4483
2026-01-02 04:42:01.78	359.97	11.88	-25.9	-27.7	15.3	1.71e-03	0	43	0	445644800	11	4456
2026-01-02 04:42:02.78	359.82	11.94	-25.9	-27.7	15.4	0.00e+00	0	42	0	450887680	11	4447
2026-01-02 04:42:03.78	359.67	12.00	-25.9	-27.9	15.3	1.72e-03	0	43	0	457179136	11	4489
2026-01-02 04:42:04.79	359.52	12.06	-25.8	-27.6	15.4	0.00e+00	0	42	0	462422016	11	4430
2026-01-02 04:42:05.80	359.38	12.12	-25.8	-27.5	15.5	0.00e+00	0	42	0	467664896	11	4381
2026-01-02 04:42:06.80	359.23	12.18	-25.7	-27.4	15.6	1.58e-03	0	43	0	473956352	11	4366
2026-01-02 04:42:07.81	359.08	12.24	-25.7	-27.3	15.6	0.00e+00	0	43	0	479199232	11	4330
2026-01-02 04:42:08.81	358.93	12.30	-25.7	-27.3	15.6	2.15e-04	0	43	0	484442112	11	4323
2026-01-02 04:42:09.81	358.77	12.36	-25.7	-27.3	15.6	0.00e+00	0	43	0	490733568	11	4334
2026-01-02 04:42:10.82	358.62	12.42	-25.8	-27.5	15.5	1.59e-03	0	42	0	495976448	11	4380
2026-01-02 04:42:11.81	358.47	12.48	-25.8	-27.5	15.5	2.04e-04	0	43	0	502267904	11	4389
2026-01-02 04:42:12.82	358.32	12.54	-25.7	-27.4	15.6	0.00e+00	0	43	0	507510784	11	4360
2026-01-02 04:42:13.82	358.16	12.60	-25.8	-27.5	15.5	1.44e-03	0	42	0	512753664	11	4383
2026-01-02 04:42:14.82	358.01	12.66	-25.7	-27.3	15.6	0.00e+00	0	43	0	519045120	11	4332
2026-01-02 04:42:15.83	357.86	12.72	-25.7	-27.4	15.6	1.57e-03	0	43	0	524288000	11	4367
2026-01-02 04:42:16.84	357.70	12.78	-25.7	-27.3	15.6	0.00e+00	0	42	0	530579456	11	4326
2026-01-02 04:42:17.84	357.54	12.84	-26.0	-28.0	15.2	2.94e-04	0	43	0	535822336	11	4517
2026-01-02 04:42:18.84	357.39	12.90	-25.8	-27.6	15.4	1.30e-03	0	43	0	541065216	11	4408
2026-01-02 04:42:19.84	357.23	12.96	-25.6	-27.1	15.7	1.60e-03	0	42	0	547356672	11	4280
2026-01-02 04:42:20.84	357.07	13.02	-25.5	-26.8	15.9	1.81e-04	0	43	0	552599552	11	4202
2026-01-02 04:42:21.84	356.91	13.08	-25.5	-27.4	15.9	1.42e-03	0	43	0	557842432	10	4470
2026-01-02 04:42:22.84	356.75	13.14	-25.4	-26.7	16.0	1.39e-03	0	43	0	564133888	11	4163
2026-01-02 04:42:23.84	356.60	13.20	-25.4	-27.2	16.0	2.00e-04	0	43	0	569376768	10	4414
2026-01-02 04:42:24.84	356.43	13.26	-25.4	-27.2	16.0	1.43e-03	0	43	0	575668224	10	4403
2026-01-02 04:42:25.84	356.27	13.31	-25.3	-27.0	16.1	1.23e-03	0	43	0	580911104	10	4368
2026-01-02 04:42:26.84	356.11	13.37	-25.4	-27.1	16.0	1.74e-04	0	43	0	586153984	10	4400
2026-01-02 04:42:27.85	355.95	13.43	-25.4	-27.2	16.0	1.22e-03	0	43	0	592445440	10	4422
2026-01-02 04:42:28.85	355.79	13.49	-25.4	-26.6	16.1	8.35e-04	0	42	0	597688320	11	4142
2026-01-02 04:42:29.85	355.62	13.55	-25.3	-26.9	16.2	1.50e-04	0	43	0	602931200	10	4339
2026-01-02 04:42:30.86	355.46	13.61	-25.3	-26.9	16.2	1.26e-03	0	43	0	609222656	10	4331
2026-01-02 04:42:31.86	355.29	13.67	-25.3	-27.0	16.1	1.13e-03	0	43	0	614465536	10	4349
2026-01-02 04:42:32.87	355.12	13.72	-25.2	-26.8	16.2	1.65e-04	0	43	0	619708416	10	4298
2026-01-02 04:42:33.88	354.96	13.78	-25.2	-26.7	16.3	1.11e-03	0	43	0	625999872	10	4275
2026-01-02 04:42:34.87	354.79	13.84	-25.1	-26.5	16.4	1.05e-03	0	43	0	631242752	10	4238
2026-01-02 04:42:35.87	354.62	13.90	-25.1	-26.4	16.4	0.00e+00	0	43	0	637534208	10	4203
2026-01-02 04:42:36.87	354.46	13.96	-25.2	-26.6	16.3	1.10e-03	0	43	0	642777088	10	4262
2026-01-02 04:42:37.87	354.29	14.01	-25.1	-26.4	16.4	1.13e-03	0	43	0	648019968	10	4206
2026-01-02 04:42:38.87	354.12	14.07	-25.0	-26.3	16.5	2.66e-04	0	43	0	654311424	10	4178
2026-01-02 04:42:39.87	353.95	14.13	-25.3	-26.9	16.2	1.02e-03	0	43	0	659554304	10	4323
2026-01-02 04:42:40.87	353.78	14.19	-25.2	-26.8	16.3	0.00e+00	0	42	0	664797184	10	4309
2026-01-02 04:42:41.87	353.61	14.24	-25.4	-27.2	16.0	2.31e-04	0	43	0	671088640	10	4418
2026-01-02 04:42:42.87	353.43	14.30	-25.4	-26.7	16.0	0.00e+00	0	43	0	676331520	11	4174
2026-01-02 04:42:43.88	353.26	14.36	-25.5	-26.8	16.0	8.40e-04	0	43	0	681574400	11	4193
2026-01-02 04:42:44.89	353.08	14.41	-25.5	-26.8	16.0	0.00e+00	0	43	0	687865856	11	4205
2026-01-02 04:42:45.90	352.91	14.47	-25.6	-27.1	15.8	7.37e-04	0	43	0	693108736	11	4280
2026-01-02 04:42:46.90	352.73	14.53	-25.5	-26.8	16.0	0.00e+00	0	43	0	699400192	11	4206
2026-01-02 04:42:47.90	352.56	14.58	-25.4	-26.6	16.1	0.00e+00	0	43	0	704643072	11	4149
2026-01-02 04:42:48.91	352.38	14.64	-25.4	-26.7	16.1	6.08e-04	0	43	0	710934528	11	4162
2026-01-02 04:42:49.92	352.20	14.70	-25.2	-26.7	16.3	0.00e+00	0	43	0	716177408	10	4277
2026-01-02 04:42:50.92	352.02	14.75	-25.1	-26.6	16.4	4.92e-05	0	43	0	721420288	10	4246
2026-01-02 04:42:51.93	351.84	14.81	-25.2	-26.6	16.4	0.00e+00	0	43	0	727711744	10	4259
2026-01-02 04:42:52.94	351.66	14.87	-24.9	-26.0	16.7	0.00e+00	0	43	0	732954624	10	4091
2026-01-02 04:42:53.94	351.48	14.92	-24.9	-26.0	16.7	0.00e+00	0	43	0	739246080	10	4086
2026-01-02 04:42:54.95	351.30	14.98	-24.9	-26.0	16.7	0.00e+00	0	43	0	744488960	10	4095
2026-01-02 04:42:55.94	351.12	15.03	-24.7	-26.2	16.8	0.00e+00	0	43	0	749731840	9	4262
2026-01-02 04:42:56.94	350.94	15.09	-24.8	-26.4	16.8	0.00e+00	0	43	0	756023296	9	4303
2026-01-02 04:42:57.94	350.76	15.14	-24.8	-26.4	16.8	0.00e+00	0	43	0	761266176	9	4303
2026-01-02 04:42:58.95	350.57	15.20	-25.0	-26.7	16.6	0.00e+00	0	43	0	766509056	9	4397
2026-01-02 04:42:59.96	350.39	15.25	-24.8	-26.4	16.8	0.00e+00	0	43	0	772800512	9	4306
2026-01-02 04:43:00.96	350.20	15.31	-24.8	-26.4	16.8	0.00e+00	0	43	0	778043392	9	4305
2026-01-02 04:43:01.96	350.02	15.36	-24.9	-26.6	16.7	0.00e+00	0	43	0	784334848	9	4368
2026-01-02 04:43:02.96	349.83	15.41	-24.9	-26.5	16.7	0.00e+00	0	43	0	789577728	9	4347
2026-01-02 04:43:03.97	349.64	15.47	-24.9	-26.5	16.7	0.00e+00	0	43	0	794820608	9	4347
2026-01-02 04:43:04.97	349.45	15.52	-24.8	-26.3	16.8	0.00e+00	0	43	0	801112064	9	4285
2026-01-02 04:43:05.97	349.27	15.57	-24.8	-26.4	16.8	0.00e+00	0	43	0	806354944	9	4315
2026-01-02 04:43:06.97	349.08	15.63	-25.0	-26.2	16.7	0.00e+00	0	43	0	811597824	10	4144
2026-01-02 04:43:07.97	348.89	15.68	-25.3	-26.9	16.3	0.00e+00	0	43	0	817889280	10	4332
2026-01-02 04:43:08.98	348.70	15.73	-25.2	-26.7	16.4	0.00e+00	0	43	0	823132160	10	4267
2026-01-02 04:43:09.98	348.51	15.79	-24.8	-25.8	16.9	0.00e+00	0	43	0	829423616	10	4050
2026-01-02 04:43:10.99	348.31	15.84	-24.7	-26.1	17.0	0.00e+00	0	43	0	834666496	9	4224
2026-01-02 04:43:11.99	348.12	15.89	-24.6	-26.0	17.0	0.00e+00	0	43	0	839909376	9	4194
2026-01-02 04:43:12.98	347.93	15.94	-25.0	-26.7	16.6	0.00e+00	0	43	0	846200832	9	4404
2026-01-02 04:43:13.98	347.74	15.99	-25.1	-26.4	16.6	0.00e+00	0	43	0	851443712	10	4196
2026-01-02 04:43:14.98	347.54	16.05	-25.1	-26.4	16.6	0.00e+00	0	43	0	856686592	10	4205
2026-01-02 04:43:15.99	347.35	16.10	-24.9	-26.1	16.7	0.00e+00	0	43	0	862978048	10	4132
2026-01-02 04:43:16.99	347.15	16.15	-24.9	-26.2	16.7	0.00e+00	0	43	0	868220928	10	4136
2026-01-02 04:43:17.99	346.95	16.20	-25.1	-26.6	16.4	0.00e+00	0	43	0	874512384	10	4243
2026-01-02 04:43:19.00	346.76	16.25	-25.0	-26.3	16.6	0.00e+00	0	43	0	879755264	10	4181
2026-01-02 04:43:20.00	346.56	16.30	-24.8	-25.9	16.8	0.00e+00	0	43	0	884998144	10	4075
2026-01-02 04:43:21.00	346.36	16.35	-24.9	-26.0	16.7	0.00e+00	0	43	0	891289600	10	4097
2026-01-02 04:43:22.01	346.16	16.40	-24.8	-26.3	16.8	0.00e+00	0	43	0	896532480	9	4298
2026-01-02 04:43:23.02	345.96	16.45	-24.9	-26.5	16.7	0.00e+00	0	43	0	901775360	9	4344
2026-01-02 04:43:24.02	345.76	16.50	-24.7	-26.1	16.9	0.00e+00	0	43	0	908066816	9	4245
2026-01-02 04:43:25.02	345.56	16.55	-24.7	-26.1	16.9	0.00e+00	0	43	0	913309696	9	4239
2026-01-02 04:43:26.02	345.36	16.60	-24.7	-26.1	16.9	0.00e+00	0	43	0	919601152	9	4243
2026-01-02 04:43:27.02	345.15	16.65	-24.9	-26.5	16.7	0.00e+00	0	43	0	924844032	9	4350
2026-01-02 04:43:28.02	344.95	16.69	-24.7	-26.1	17.0	0.00e+00	0	43	0	930086912	9	4226
2026-01-02 04:43:29.03	344.75	16.74	-24.6	-25.9	17.1	0.00e+00	0	43	0	936378368	9	4170
2026-01-02 04:43:30.03	344.54	16.79	-24.4	-25.5	17.3	0.00e+00	0	43	0	941621248	9	4089
2026-01-02 04:43:31.02	344.34	16.84	-24.5	-25.7	17.2	0.00e+00	0	43	0	946864128	9	4139
2026-01-02 04:43:32.02	344.13	16.88	-24.4	-25.5	17.3	0.00e+00	0	43	0	953155584	9	4068
2026-01-02 04:43:33.02	343.93	16.93	-24.4	-25.6	17.2	0.00e+00	0	43	0	958398464	9	4098
2026-01-02 04:43:34.02	343.72	16.98	-24.4	-25.4	17.4	0.00e+00	0	43	0	963641344	9	4055
2026-01-02 04:43:35.03	343.51	17.02	-24.2	-25.1	17.5	0.00e+00	0	43	0	969932800	9	3982
2026-01-02 04:43:36.03	343.30	17.07	-24.3	-25.2	17.4	0.00e+00	0	43	0	975175680	9	4011
2026-01-02 04:43:37.03	343.09	17.11	-24.2	-25.6	17.5	0.00e+00	0	43	0	981467136	8	4213
2026-01-02 04:43:38.03	342.89	17.16	-24.3	-25.8	17.4	0.00e+00	0	43	0	986710016	8	4257
2026-01-02 04:43:39.03	342.68	17.21	-24.5	-25.7	17.2	0.00e+00	0	43	0	991952896	9	4122
2026-01-02 04:43:40.02	342.47	17.25	-24.4	-25.4	17.4	0.00e+00	0	43	0	998244352	9	4049
2026-01-02 04:43:41.02	342.26	17.29	-24.4	-25.5	17.3	0.00e+00	0	43	0	1003487232	9	4086
2026-01-02 04:43:42.02	342.04	17.34	-24.4	-25.4	17.4	0.00e+00	0	43	0	1008730112	9	4052
2026-01-02 04:43:43.02	341.83	17.38	-24.4	-25.9	17.3	0.00e+00	0	43	0	1015021568	8	4304
2026-01-02 04:43:44.02	341.62	17.42	-24.2	-25.6	17.5	0.00e+00	0	43	0	1020264448	8	4201
2026-01-02 04:43:45.02	341.40	17.47	-24.3	-25.8	17.4	0.00e+00	0	43	0	1026555904	8	4269
2026-01-02 04:43:46.03	341.19	17.51	-24.2	-25.6	17.5	0.00e+00	0	43	0	1031798784	8	4209
2026-01-02 04:43:47.03	340.97	17.55	-24.2	-25.5	17.3	0.00e+00	0	43	0	1037041664	8	4193
2026-01-02 04:43:48.03	340.76	17.60	-24.2	-25.6	13.9	0.00e+00	0	43	0	1043333120	8	4222
2026-01-02 04:43:49.03	340.54	17.64	-24.2	-25.4	17.6	0.00e+00	0	43	0	1048576000	8	4172
2026-01-02 04:43:50.03	340.32	17.68	-24.2	-25.6	17.5	0.00e+00	0	43	0	1053818880	8	4212
2026-01-02 04:43:51.03	340.11	17.72	-24.1	-25.2	17.7	0.00e+00	0	43	0	1060110336	8	4122
2026-01-02 04:43:52.03	339.89	17.76	-24.0	-25.1	17.7	0.00e+00	0	43	0	1065353216	8	4095
2026-01-02 04:43:53.04	339.67	17.80	-24.1	-25.3	17.7	6.40e-05	0	43	0	1071644672	8	4129
2026-01-02 04:43:54.04	339.45	17.84	-24.3	-25.8	17.4	0.00e+00	0	43	0	1076887552	8	4276
2026-01-02 04:43:55.04	339.23	17.88	-24.1	-25.4	17.6	1.48e-03	0	43	0	1082130432	8	4154
2026-01-02 04:43:56.04	339.01	17.92	-24.0	-25.1	17.8	0.00e+00	0	43	0	1088421888	8	4087
2026-01-02 04:43:57.05	338.79	17.96	-24.1	-25.3	17.7	0.00e+00	0	43	0	1093664768	8	4139
2026-01-02 04:43:58.05	338.57	18.00	-24.1	-25.3	17.7	0.00e+00	0	43	0	1099956224	8	4141
2026-01-02 04:43:59.05	338.34	18.03	-24.2	-25.5	17.6	0.00e+00	0	43	0	1105199104	8	4181
2026-01-02 04:44:00.06	338.12	18.07	-24.1	-25.4	17.6	1.67e-03	0	43	0	1110441984	8	4156
2026-01-02 04:44:01.06	337.90	18.11	-24.1	-25.4	17.7	0.00e+00	0	43	0	1116733440	8	4169
2026-01-02 04:44:02.06	337.67	18.15	-24.1	-25.4	17.6	6.80e-06	0	43	0	1121976320	8	4162
2026-01-02 04:44:03.07	337.44	18.18	-24.0	-25.0	17.8	0.00e+00	0	43	0	1127219200	8	4071
2026-01-02 04:44:04.07	337.22	18.22	-23.9	-24.8	17.9	0.00e+00	0	43	0	1133510656	8	4019
2026-01-02 04:44:05.08	336.99	18.25	-23.9	-24.8	18.0	0.00e+00	0	43	0	1138753536	8	4008
2026-01-02 04:44:06.08	336.77	18.29	-24.1	-25.3	17.7	0.00e+00	0	43	0	1145044992	8	4147
2026-01-02 04:44:07.08	336.54	18.32	-24.0	-25.2	17.7	1.61e-03	0	43	0	1150287872	8	4112
2026-01-02 04:44:08.08	336.31	18.36	-24.1	-25.3	17.7	0.00e+00	0	43	0	1155530752	8	4140
2026-01-02 04:44:09.08	336.09	18.39	-24.2	-25.4	17.6	1.61e-03	0	43	0	1161822208	8	4175
2026-01-02 04:44:10.08	335.86	18.43	-24.1	-25.2	17.7	1.07e-04	0	43	0	1167065088	8	4120
2026-01-02 04:44:11.09	335.63	18.46	-24.0	-25.2	17.8	0.00e+00	0	43	0	1173356544	8	4115
2026-01-02 04:44:12.10	335.40	18.49	-24.1	-25.3	17.7	1.48e-03	0	43	0	1178599424	8	4129
2026-01-02 04:44:13.10	335.17	18.52	-24.2	-25.5	17.6	0.00e+00	0	43	0	1183842304	8	4188
2026-01-02 04:44:14.11	334.93	18.56	-24.3	-25.7	17.5	0.00e+00	0	43	0	1190133760	8	4229
2026-01-02 04:44:15.12	334.70	18.59	-24.1	-25.4	17.6	0.00e+00	0	43	0	1195376640	8	4158
2026-01-02 04:44:16.13	334.47	18.62	-24.0	-25.1	17.8	1.47e-03	0	43	0	1200619520	8	4091
2026-01-02 04:44:17.13	334.24	18.65	-24.0	-25.0	17.8	0.00e+00	0	43	0	1206910976	8	4069
2026-01-02 04:44:18.14	334.00	18.68	-24.0	-25.1	17.8	1.40e-03	0	43	0	1212153856	8	4082
2026-01-02 04:44:19.14	333.77	18.71	-24.0	-25.1	17.8	1.43e-03	0	43	0	1218445312	8	4085
2026-01-02 04:44:20.14	333.54	18.74	-23.9	-24.8	18.0	0.00e+00	0	43	0	1223688192	8	4012
2026-01-02 04:44:21.14	333.30	18.77	-24.1	-25.3	17.7	1.34e-03	0	43	0	1228931072	8	4140
2026-01-02 04:44:22.15	333.07	18.80	-23.8	-24.7	18.0	0.00e+00	0	43	0	1235222528	8	3991
2026-01-02 04:44:23.15	332.83	18.82	-23.6	-24.3	18.2	0.00e+00	0	43	0	1240465408	8	3890
2026-01-02 04:44:24.15	332.60	18.85	-23.6	-24.7	18.2	1.16e-03	0	43	0	1246756864	7	4101
2026-01-02 04:44:25.15	332.36	18.88	-23.7	-24.9	18.1	1.27e-03	0	43	0	1251999744	7	4152
2026-01-02 04:44:26.16	332.13	18.90	-23.7	-25.0	18.1	0.00e+00	0	43	0	1257242624	7	4176
2026-01-02 04:44:27.16	331.89	18.93	-23.8	-25.2	18.0	0.00e+00	0	43	0	1263534080	7	4233
2026-01-02 04:44:28.17	331.65	18.96	-23.6	-24.7	18.3	1.27e-03	0	43	0	1268776960	7	4095
2026-01-02 04:44:29.18	331.41	18.98	-23.5	-24.6	18.3	0.00e+00	0	43	0	1274019840	7	4065
2026-01-02 04:44:30.18	331.18	19.00	-23.6	-24.7	18.3	1.35e-03	0	43	0	1280311296	7	4091
2026-01-02 04:44:31.18	330.94	19.03	-23.5	-24.6	18.3	0.00e+00	0	43	0	1285554176	7	4078
2026-01-02 04:44:32.19	330.70	19.05	-23.6	-24.7	18.3	0.00e+00	0	43	0	1291845632	7	4105
2026-01-02 04:44:33.20	330.46	19.08	-23.6	-24.7	18.2	1.19e-03	0	43	0	1297088512	7	4104
2026-01-02 04:44:34.21	330.22	19.10	-23.7	-25.0	18.1	0.00e+00	0	43	0	1302331392	7	4179
2026-01-02 04:44:35.21	329.98	19.12	-23.8	-25.2	18.0	0.00e+00	0	43	0	1308622848	7	4236
2026-01-02 04:44:36.21	329.74	19.14	-23.8	-25.3	18.0	0.00e+00	0	43	0	1313865728	7	4244
2026-01-02 04:44:37.21	329.50	19.16	-24.1	-25.3	17.7	1.31e-03	0	43	0	1320157184	8	4131
2026-01-02 04:44:38.21	329.26	19.18	-23.7	-24.4	18.2	0.00e+00	0	43	0	1325400064	8	3908
2026-01-02 04:44:39.21	329.02	19.20	-24.0	-25.0	17.9	0.00e+00	0	43	0	1330642944	8	4070
2026-01-02 04:44:40.21	328.78	19.22	-23.5	-24.5	18.4	0.00e+00	0	43	0	1336934400	7	4040
2026-01-02 04:44:41.21	328.54	19.24	-23.5	-24.5	18.4	0.00e+00	0	43	0	1342177280	7	4048
2026-01-02 04:44:42.22	328.29	19.26	-23.5	-24.6	18.3	1.16e-03	0	43	0	1347420160	7	4087
2026-01-02 04:44:43.22	328.05	19.28	-23.6	-24.8	18.2	0.00e+00	0	43	0	1353711616	7	4133
2026-01-02 04:44:44.23	327.81	19.29	-23.7	-24.9	18.2	0.00e+00	0	43	0	1358954496	7	4144
2026-01-02 04:44:45.23	327.57	19.31	-23.8	-25.2	18.0	0.00e+00	0	43	0	1364197376	7	4222
2026-01-02 04:44:46.24	327.32	19.33	-23.9	-24.9	17.9	0.00e+00	0	43	0	1370488832	8	4042
2026-01-02 04:44:47.23	327.08	19.34	-23.7	-24.4	18.2	0.00e+00	0	43	0	1375731712	8	3910
2026-01-02 04:44:48.23	326.84	19.36	-23.5	-24.5	18.4	0.00e+00	0	43	0	1382023168	7	4046
2026-01-02 04:44:49.24	326.59	19.37	-23.4	-24.3	18.5	0.00e+00	0	43	0	1387266048	7	3989
2026-01-02 04:44:50.24	326.35	19.39	-23.4	-24.4	18.4	0.00e+00	0	43	0	1393557504	7	4026
2026-01-02 04:44:51.25	326.10	19.40	-23.6	-24.7	18.3	0.00e+00	0	43	0	1398800384	7	4108
2026-01-02 04:44:52.25	325.86	19.41	-23.6	-24.7	18.3	0.00e+00	0	43	0	1404043264	7	4091
2026-01-02 04:44:53.25	325.62	19.43	-23.6	-24.7	18.3	0.00e+00	0	43	0	1410334720	7	4085
2026-01-02 04:44:54.25	325.37	19.44	-23.6	-24.9	18.2	0.00e+00	0	43	0	1415577600	7	4143
2026-01-02 04:44:55.25	325.13	19.45	-23.7	-24.9	18.2	0.00e+00	0	43	0	1420820480	7	4146
2026-01-02 04:44:56.25	324.88	19.46	-23.6	-24.7	18.3	0.00e+00	0	43	0	1427111936	7	4097
2026-01-02 04:44:57.25	324.64	19.47	-23.7	-24.9	18.1	0.00e+00	0	43	0	1432354816	7	4158
2026-01-02 04:44:58.26	324.39	19.48	-23.8	-25.1	18.0	0.00e+00	0	43	0	1437597696	7	4194
2026-01-02 04:44:59.26	324.15	19.49	-23.5	-24.5	18.4	0.00e+00	0	43	0	1443889152	7	4042
2026-01-02 04:45:00.25	323.90	19.50	-23.8	-25.3	18.0	0.00e+00	0	43	0	1449132032	7	4246
2026-01-02 04:45:01.25	323.66	19.51	-24.1	-25.4	17.7	0.00e+00	0	43	0	1455423488	8	4165
2026-01-02 04:45:02.25	323.41	19.51	-24.2	-25.6	17.6	0.00e+00	0	43	0	1460666368	8	4214
2026-01-02 04:45:03.26	323.16	19.52	-24.0	-25.2	17.8	0.00e+00	0	43	0	1465909248	8	4118
2026-01-02 04:45:04.26	322.92	19.53	-24.2	-25.6	17.6	0.00e+00	0	43	0	1472200704	8	4202
2026-01-02 04:45:05.26	322.67	19.53	-24.1	-25.3	17.7	0.00e+00	0	43	0	1477443584	8	4145
2026-01-02 04:45:06.26	322.43	19.54	-24.2	-25.1	17.6	0.00e+00	0	43	0	1482686464	9	3983
2026-01-02 04:45:07.26	322.18	19.54	-23.7	-24.6	18.1	0.00e+00	0	43	0	1488977920	8	3956
2026-01-02 04:45:08.27	321.93	19.55	-23.5	-24.6	18.4	0.00e+00	0	43	0	1494220800	7	4063
2026-01-02 04:45:09.27	321.69	19.55	-23.6	-24.7	18.3	0.00e+00	0	43	0	1499463680	7	4104
2026-01-02 04:45:10.27	321.44	19.55	-23.6	-24.8	18.2	0.00e+00	0	43	0	1505755136	7	4124
2026-01-02 04:45:11.28	321.19	19.56	-23.8	-25.2	18.0	0.00e+00	0	43	0	1510998016	7	4220
2026-01-02 04:45:12.28	320.94	19.56	-23.6	-24.9	18.2	0.00e+00	0	43	0	1517289472	7	4143
2026-01-02 04:45:13.27	320.70	19.56	-23.5	-24.5	18.4	0.00e+00	0	43	0	1522532352	7	4049
2026-01-02 04:45:14.28	320.45	19.56	-23.4	-24.3	18.5	0.00e+00	0	43	0	1527775232	7	4000
2026-01-02 04:45:15.29	320.20	19.56	-23.4	-24.4	18.4	0.00e+00	0	43	0	1534066688	7	4030
2026-01-02 04:45:16.29	319.96	19.56	-23.5	-24.6	18.3	0.00e+00	0	43	0	1539309568	7	4069
2026-01-02 04:45:17.30	319.71	19.56	-23.3	-24.2	18.6	0.00e+00	0	43	0	1545601024	7	3971
2026-01-02 04:45:18.30	319.46	19.56	-23.4	-24.4	18.4	0.00e+00	0	43	0	1550843904	7	4027
2026-01-02 04:45:19.31	319.21	19.56	-23.4	-24.4	18.5	0.00e+00	0	43	0	1556086784	7	4014
2026-01-02 04:45:20.31	318.97	19.56	-23.3	-24.7	18.5	0.00e+00	0	43	0	1562378240	6	4200
2026-01-02 04:45:21.31	318.72	19.55	-23.4	-24.8	18.5	0.00e+00	0	43	0	1567621120	6	4244
2026-01-02 04:45:22.32	318.47	19.55	-23.4	-24.7	18.5	0.00e+00	0	43	0	1572864000	6	4221
2026-01-02 04:45:23.33	318.22	19.55	-23.5	-24.6	18.4	0.00e+00	0	43	0	1579155456	7	4074
2026-01-02 04:45:24.34	317.97	19.54	-23.7	-25.0	18.1	0.00e+00	0	43	0	1584398336	7	4170
2026-01-02 04:45:25.34	317.73	19.54	-23.5	-24.6	18.3	0.00e+00	0	43	0	1590689792	7	4085
2026-01-02 04:45:26.35	317.48	19.53	-23.5	-24.5	18.4	0.00e+00	0	43	0	1595932672	7	4061
2026-01-02 04:45:27.34	317.24	19.52	-23.5	-24.6	18.3	0.00e+00	0	43	0	1602224128	7	4074
2026-01-02 04:45:28.35	316.99	19.52	-23.6	-24.8	18.2	0.00e+00	0	43	0	1607467008	7	4126
2026-01-02 04:45:29.35	316.74	19.51	-22.8	-23.6	17.3	0.00e+00	0	43	0	1612709888	7	3937
2026-01-02 04:45:30.35	316.50	19.50	-23.3	-24.2	13.5	0.00e+00	0	43	0	1619001344	7	3968
2026-01-02 04:45:31.35	316.25	19.49	-23.2	-24.5	18.0	0.00e+00	0	43	0	1624244224	6	4153
2026-01-02 04:45:32.35	316.01	19.48	-23.3	-24.6	18.1	7.03e-04	0	43	0	1629487104	6	4176
2026-01-02 04:45:33.36	315.76	19.47	-23.1	-24.2	18.7	0.00e+00	0	43	0	1635778560	6	4081
2026-01-02 04:45:34.36	315.51	19.46	-23.1	-24.3	18.7	0.00e+00	0	43	0	1641021440	6	4100
2026-01-02 04:45:35.37	315.27	19.45	-23.2	-24.4	18.7	0.00e+00	0	43	0	1646264320	6	4128
2026-01-02 04:45:36.37	315.02	19.44	-23.2	-24.5	18.6	0.00e+00	0	43	0	1652555776	6	4148
2026-01-02 04:45:37.38	314.78	19.43	-23.4	-24.9	18.4	0.00e+00	0	43	0	1657798656	6	4263
2026-01-02 04:45:38.38	314.53	19.42	-23.4	-24.8	18.5	0.00e+00	0	43	0	1664090112	6	4230
2026-01-02 04:45:39.39	314.29	19.41	-23.3	-24.6	18.5	1.28e-03	0	43	0	1669332992	6	4197
2026-01-02 04:45:40.39	314.04	19.39	-23.3	-24.5	18.6	0.00e+00	0	43	0	1675624448	6	4171
2026-01-02 04:45:41.39	313.80	19.38	-23.4	-24.8	18.5	1.21e-03	0	43	0	1680867328	6	4247
2026-01-02 04:45:42.39	313.55	19.36	-23.5	-24.6	18.3	0.00e+00	0	43	0	1686110208	7	4077
2026-01-02 04:45:43.39	313.31	19.35	-23.5	-24.6	18.3	1.60e-04	0	43	0	1692401664	7	4077
2026-01-02 04:45:44.39	313.07	19.33	-23.6	-24.6	18.3	1.24e-03	0	43	0	1697644544	7	4083
2026-01-02 04:45:45.39	312.83	19.32	-23.5	-24.6	18.3	0.00e+00	0	43	0	1702887424	7	4080
2026-01-02 04:45:46.39	312.58	19.30	-23.8	-25.2	18.0	1.43e-04	0	43	0	1709178880	7	4226
2026-01-02 04:45:47.39	312.34	19.28	-23.9	-25.0	17.9	0.00e+00	0	43	0	1714421760	8	4060
2026-01-02 04:45:48.39	312.10	19.27	-24.0	-25.1	17.8	1.39e-03	0	43	0	1719664640	8	4086
2026-01-02 04:45:49.40	311.86	19.25	-24.2	-25.5	17.6	1.67e-04	0	43	0	1725956096	8	4197
2026-01-02 04:45:50.40	311.61	19.23	-24.0	-25.1	17.8	1.47e-03	0	43	0	1731198976	8	4094
2026-01-02 04:45:51.40	311.37	19.21	-23.7	-24.5	18.1	1.34e-03	0	43	0	1737490432	8	3952
2026-01-02 04:45:52.41	311.13	19.19	-23.4	-23.9	18.4	0.00e+00	0	43	0	1742733312	8	3805
2026-01-02 04:45:53.42	310.89	19.17	-23.4	-24.3	18.5	1.40e-03	0	43	0	1747976192	7	3999
2026-01-02 04:45:54.43	310.64	19.15	-23.5	-24.5	18.4	0.00e+00	0	43	0	1754267648	7	4043
2026-01-02 04:45:55.43	310.40	19.13	-23.4	-24.3	18.5	1.10e-06	0	43	0	1759510528	7	3997
2026-01-02 04:45:56.43	310.17	19.11	-23.3	-24.2	18.5	1.34e-03	0	43	0	1764753408	7	3975
2026-01-02 04:45:57.43	309.93	19.09	-23.3	-24.1	18.6	1.17e-03	0	43	0	1771044864	7	3959
2026-01-02 04:45:58.43	309.69	19.06	-23.5	-24.6	18.3	0.00e+00	0	43	0	1776287744	7	4079
2026-01-02 04:45:59.44	309.45	19.04	-23.7	-24.9	18.1	1.16e-03	0	43	0	1782579200	7	4160
2026-01-02 04:46:00.44	309.21	19.02	-23.5	-24.6	18.3	1.06e-03	0	43	0	1787822080	7	4069
2026-01-02 04:46:01.44	308.97	18.99	-23.5	-24.5	18.3	0.00e+00	0	43	0	1793064960	7	4057
2026-01-02 04:46:02.45	308.73	18.97	-23.5	-24.4	18.4	1.11e-03	0	43	0	1799356416	7	4034
2026-01-02 04:46:03.46	308.49	18.94	-23.5	-24.5	18.3	1.32e-03	0	43	0	1804599296	7	4059
2026-01-02 04:46:04.46	308.26	18.92	-23.5	-24.6	18.3	0.00e+00	0	43	0	1810890752	7	4083
2026-01-02 04:46:05.46	308.02	18.89	-23.6	-24.8	18.2	1.44e-03	0	43	0	1816133632	7	4116
2026-01-02 04:46:06.47	307.78	18.86	-23.8	-25.1	18.1	0.00e+00	0	43	0	1821376512	7	4195
2026-01-02 04:46:07.47	307.55	18.84	-23.8	-25.1	18.0	0.00e+00	0	43	0	1827667968	7	4197
2026-01-02 04:46:08.48	307.31	18.81	-23.8	-25.2	18.0	0.00e+00	0	43	0	1832910848	7	4225
2026-01-02 04:46:09.48	307.08	18.78	-23.9	-25.4	17.9	1.31e-03	0	43	0	1838153728	7	4288
2026-01-02 04:46:10.49	306.84	18.75	-23.9	-25.0	17.9	0.00e+00	0	43	0	1844445184	8	4055
2026-01-02 04:46:11.49	306.61	18.72	-23.8	-24.7	18.0	1.06e-03	0	43	0	1849688064	8	3979
2026-01-02 04:46:12.49	306.37	18.69	-23.8	-24.8	18.0	1.17e-03	0	43	0	1855979520	8	4014
2026-01-02 04:46:13.49	306.14	18.66	-23.8	-24.8	18.0	0.00e+00	0	43	0	1861222400	8	4011
2026-01-02 04:46:14.49	305.91	18.63	-23.8	-24.6	18.0	8.66e-04	0	43	0	1866465280	8	3972
2026-01-02 04:46:15.50	305.67	18.60	-23.8	-25.2	18.0	0.00e+00	0	43	0	1872756736	7	4219
2026-01-02 04:46:16.50	305.44	18.57	-23.7	-25.0	18.0	0.00e+00	0	43	0	1877999616	7	4183
2026-01-02 04:46:17.50	305.21	18.54	-23.5	-24.5	18.3	0.00e+00	0	43	0	1884291072	7	4039
2026-01-02 04:46:18.51	304.98	18.51	-23.4	-24.4	18.4	0.00e+00	0	43	0	1889533952	7	4014
2026-01-02 04:46:19.51	304.75	18.47	-23.5	-24.5	18.3	0.00e+00	0	43	0	1894776832	7	4048
2026-01-02 04:46:20.51	304.52	18.44	-23.5	-24.6	18.3	0.00e+00	0	43	0	1901068288	7	4081
2026-01-02 04:46:21.52	304.29	18.41	-23.5	-24.5	18.3	1.22e-03	0	43	0	1906311168	7	4063
2026-01-02 04:46:22.52	304.06	18.37	-23.4	-24.3	18.4	0.00e+00	0	43	0	1911554048	7	4008
2026-01-02 04:46:23.53	303.83	18.34	-23.4	-24.3	18.4	0.00e+00	0	43	0	1917845504	7	4005
2026-01-02 04:46:24.53	303.60	18.30	-23.4	-24.2	18.5	0.00e+00	0	43	0	1923088384	7	3989
2026-01-02 04:46:25.54	303.38	18.27	-23.4	-24.4	18.4	0.00e+00	0	43	0	1929379840	7	4022
2026-01-02 04:46:26.54	303.15	18.23	-23.6	-24.7	18.2	0.00e+00	0	43	0	1934622720	7	4097
2026-01-02 04:46:27.54	302.92	18.20	-23.7	-24.9	18.1	0.00e+00	0	43	0	1939865600	7	4145
2026-01-02 04:46:28.54	302.70	18.16	-23.7	-25.0	18.1	0.00e+00	0	43	0	1946157056	7	4177
2026-01-02 04:46:29.53	302.48	18.13	-23.8	-25.2	18.0	0.00e+00	0	43	0	1951399936	7	4215
2026-01-02 04:46:30.54	302.25	18.09	-23.7	-25.0	18.1	0.00e+00	0	43	0	1957691392	7	4170
2026-01-02 04:46:31.53	302.03	18.05	-23.8	-25.1	18.0	0.00e+00	0	43	0	1962934272	7	4203
2026-01-02 04:46:32.53	301.81	18.01	-23.8	-25.2	18.0	0.00e+00	0	43	0	1968177152	7	4218
2026-01-02 04:46:33.54	301.58	17.97	-23.7	-25.0	18.0	0.00e+00	0	43	0	1974468608	7	4174
2026-01-02 04:46:34.54	301.36	17.94	-23.8	-25.2	18.0	0.00e+00	0	43	0	1979711488	7	4216
2026-01-02 04:46:35.54	301.14	17.90	-23.8	-25.2	17.9	0.00e+00	0	43	0	1984954368	7	4224
2026-01-02 04:46:36.54	300.92	17.86	-23.7	-25.0	18.1	0.00e+00	0	43	0	1991245824	7	4165
2026-01-02 04:46:37.54	300.70	17.82	-23.7	-25.0	18.1	0.00e+00	0	43	0	1996488704	7	4176
2026-01-02 04:46:38.55	300.48	17.78	-23.6	-24.8	18.2	0.00e+00	0	43	0	2001731584	7	4116
2026-01-02 04:46:39.54	300.26	17.74	-23.5	-24.5	18.3	0.00e+00	0	43	0	2008023040	7	4063
2026-01-02 04:46:40.55	300.04	17.70	-23.6	-24.9	18.1	0.00e+00	0	43	0	2013265920	7	4138
2026-01-02 04:46:41.55	299.82	17.65	-23.7	-25.1	18.0	0.00e+00	0	43	0	2019557376	7	4200
2026-01-02 04:46:42.56	299.60	17.61	-23.7	-25.0	18.1	0.00e+00	0	43	0	2024800256	7	4174
2026-01-02 04:46:43.57	299.38	17.57	-23.7	-24.9	18.0	0.00e+00	0	43	0	2030043136	7	4164
2026-01-02 04:46:44.57	299.17	17.53	-23.8	-25.2	17.9	0.00e+00	0	43	0	2036334592	7	4231
2026-01-02 04:46:45.57	298.95	17.49	-24.0	-25.1	17.7	0.00e+00	0	43	0	2041577472	8	4086
2026-01-02 04:46:46.57	298.74	17.44	-23.8	-24.6	18.0	0.00e+00	0	43	0	2046820352	8	3970
2026-01-02 04:46:47.58	298.52	17.40	-23.8	-25.1	18.0	0.00e+00	0	43	0	2053111808	7	4212
2026-01-02 04:46:48.58	298.31	17.35	-23.7	-25.1	18.0	0.00e+00	0	43	0	2058354688	7	4194
2026-01-02 04:46:49.58	298.10	17.31	-23.7	-25.1	18.0	0.00e+00	0	43	0	2064646144	7	4198
2026-01-02 04:46:50.58	297.88	17.27	-23.8	-25.1	17.9	0.00e+00	0	43	0	2069889024	7	4199
2026-01-02 04:46:51.58	297.67	17.22	-23.8	-25.2	17.9	0.00e+00	0	43	0	2075131904	7	4228
2026-01-02 04:46:52.58	297.46	17.18	-23.9	-25.5	17.7	0.00e+00	0	43	0	2081423360	7	4304
2026-01-02 04:46:53.58	297.25	17.13	-24.1	-25.4	17.6	0.00e+00	0	43	0	2086666240	8	4154
2026-01-02 04:46:54.59	297.04	17.09	-24.3	-25.7	17.4	0.00e+00	0	43	0	2092957696	8	4257
2026-01-02 04:46:55.60	296.83	17.04	-24.2	-25.6	17.4	0.00e+00	0	43	0	2098200576	8	4216
2026-01-02 04:46:56.60	296.62	16.99	-24.3	-25.7	17.4	0.00e+00	0	43	0	2103443456	8	4235
2026-01-02 04:46:57.61	296.41	16.95	-24.2	-25.6	17.5	0.00e+00	0	43	0	2109734912	8	4212
2026-01-02 04:46:58.61	296.20	16.90	-24.2	-25.6	17.4	2.20e-06	0	43	0	2114977792	8	4219
2026-01-02 04:46:59.61	296.00	16.85	-24.2	-25.5	17.5	0.00e+00	0	43	0	2120220672	8	4183
2026-01-02 04:47:00.61	295.79	16.81	-24.3	-25.6	17.4	0.00e+00	0	43	0	2126512128	8	4227
2026-01-02 04:47:01.61	295.59	16.76	-24.2	-25.4	17.5	0.00e+00	0	43	0	2131755008	8	4176
2026-01-02 04:47:02.61	295.38	16.71	-24.3	-25.7	17.4	0.00e+00	0	43	0	2138046464	8	4248
2026-01-02 04:47:03.61	295.18	16.66	-24.3	-25.7	17.4	0.00e+00	0	43	0	2143289344	8	4237
2026-01-02 04:47:04.62	294.97	16.61	-24.1	-25.3	17.6	0.00e+00	0	43	0	2148532224	8	4149
2026-01-02 04:47:05.62	294.77	16.56	-24.2	-25.5	17.5	0.00e+00	0	43	0	2154823680	8	4198
2026-01-02 04:47:06.63	294.57	16.51	-24.5	-26.2	17.2	0.00e+00	0	43	0	2160066560	8	4361
2026-01-02 04:47:07.63	294.37	16.47	-24.2	-25.5	17.5	3.40e-06	0	43	0	2166358016	8	4198
2026-01-02 04:47:08.64	294.16	16.42	-24.1	-25.4	17.6	0.00e+00	0	43	0	2171600896	8	4162
2026-01-02 04:47:09.64	293.96	16.37	-24.2	-25.6	17.4	0.00e+00	0	43	0	2176843776	8	4218
2026-01-02 04:47:10.65	293.76	16.31	-24.4	-25.9	17.2	0.00e+00	0	43	0	2183135232	8	4306
2026-01-02 04:47:11.65	293.56	16.26	-24.4	-25.9	17.3	0.00e+00	0	43	0	2188378112	8	4291
2026-01-02 04:47:12.65	293.37	16.21	-24.5	-26.1	17.1	0.00e+00	0	43	0	2193620992	8	4360
2026-01-02 04:47:13.66	293.17	16.16	-24.5	-26.1	17.2	0.00e+00	0	43	0	2199912448	8	4353
2026-01-02 04:47:14.66	292.97	16.11	-24.5	-25.7	17.1	0.00e+00	0	43	0	2205155328	9	4145
2026-01-02 04:47:15.67	292.77	16.06	-24.6	-25.9	17.0	0.00e+00	0	43	0	2211446784	9	4190
2026-01-02 04:47:16.67	292.58	16.01	-24.3	-25.3	16.6	1.10e-06	0	43	0	2216689664	9	4067
2026-01-02 04:47:17.67	292.38	15.96	-23.8	-24.6	14.6	0.00e+00	0	43	0	2221932544	9	3961
2026-01-02 04:47:18.67	292.19	15.91	-24.3	-25.6	16.7	1.02e-04	0	43	0	2228224000	8	4225
2026-01-02 04:47:19.68	291.99	15.85	-24.3	-25.7	14.7	0.00e+00	0	43	0	2233466880	8	4244
2026-01-02 04:47:20.68	291.80	15.80	-24.4	-26.0	16.9	0.00e+00	0	43	0	2238709760	8	4312
2026-01-02 04:47:21.68	291.61	15.75	-24.9	-26.5	16.7	0.00e+00	0	43	0	2245001216	9	4341
2026-01-02 04:47:22.69	291.42	15.69	-24.9	-26.6	16.6	0.00e+00	0	43	0	2250244096	9	4372
2026-01-02 04:47:23.69	291.23	15.64	-24.7	-26.1	16.9	0.00e+00	0	43	0	2256535552	9	4228
2026-01-02 04:47:24.70	291.04	15.59	-24.7	-26.1	16.8	0.00e+00	0	43	0	2261778432	9	4247
2026-01-02 04:47:25.70	290.85	15.53	-24.6	-26.0	16.9	1.49e-03	0	43	0	2267021312	9	4200
2026-01-02 04:47:26.70	290.66	15.48	-24.5	-25.7	17.1	0.00e+00	0	43	0	2273312768	9	4127
2026-01-02 04:47:27.70	290.47	15.43	-24.5	-25.7	17.1	0.00e+00	0	43	0	2278555648	9	4126
2026-01-02 04:47:28.71	290.28	15.37	-24.5	-25.7	17.1	0.00e+00	0	44	0	2284847104	9	4133
2026-01-02 04:47:29.71	290.10	15.32	-24.6	-25.9	16.9	0.00e+00	0	43	0	2290089984	9	4194
2026-01-02 04:47:30.71	289.91	15.26	-24.7	-26.1	16.8	0.00e+00	0	43	0	2295332864	9	4230
2026-01-02 04:47:31.72	289.72	15.21	-24.5	-25.7	17.0	0.00e+00	0	43	0	2301624320	9	4140
2026-01-02 04:47:32.72	289.54	15.15	-24.5	-25.8	17.0	1.63e-03	0	43	0	2306867200	9	4149
2026-01-02 04:47:33.72	289.36	15.10	-24.5	-25.7	17.0	0.00e+00	0	43	0	2312110080	9	4121
2026-01-02 04:47:34.72	289.17	15.04	-24.5	-25.7	17.0	1.69e-03	0	43	0	2318401536	9	4130
2026-01-02 04:47:35.72	288.99	14.99	-24.6	-26.0	16.9	0.00e+00	0	43	0	2323644416	9	4203
2026-01-02 04:47:36.73	288.81	14.93	-24.7	-26.2	16.8	0.00e+00	0	43	0	2328887296	9	4264
2026-01-02 04:47:37.73	288.63	14.88	-24.8	-26.4	16.6	1.60e-03	0	43	0	2335178752	9	4312
2026-01-02 04:47:38.73	288.45	14.82	-24.8	-26.3	16.7	1.41e-03	0	43	0	2340421632	9	4285
2026-01-02 04:47:39.74	288.27	14.77	-24.7	-26.1	16.8	0.00e+00	0	43	0	2346713088	9	4235
2026-01-02 04:47:40.73	288.09	14.71	-24.8	-26.4	16.6	0.00e+00	0	43	0	2351955968	9	4306
2026-01-02 04:47:41.73	287.91	14.65	-24.8	-26.3	16.7	1.23e-03	0	43	0	2357198848	9	4277
2026-01-02 04:47:42.73	287.73	14.60	-24.8	-26.3	16.7	0.00e+00	0	43	0	2363490304	9	4283
2026-01-02 04:47:43.74	287.56	14.54	-25.1	-26.5	16.4	1.36e-03	0	43	0	2368733184	10	4221
2026-01-02 04:47:44.74	287.38	14.48	-25.0	-26.4	16.4	1.42e-03	0	43	0	2375024640	10	4194
2026-01-02 04:47:45.74	287.20	14.43	-24.8	-25.8	16.7	2.18e-04	0	43	0	2380267520	10	4062
2026-01-02 04:47:46.75	287.03	14.37	-24.7	-26.1	16.8	1.61e-03	0	43	0	2385510400	9	4239
2026-01-02 04:47:47.75	286.85	14.31	-24.6	-25.9	16.9	4.76e-04	0	43	0	2391801856	9	4189
2026-01-02 04:47:48.75	286.68	14.26	-24.7	-26.1	16.8	2.97e-04	0	43	0	2397044736	9	4234
2026-01-02 04:47:49.75	286.51	14.20	-24.7	-26.0	16.8	1.64e-03	0	43	0	2402287616	9	4222
2026-01-02 04:47:50.75	286.34	14.14	-24.7	-26.0	16.8	1.83e-03	0	43	0	2408579072	9	4216
2026-01-02 04:47:51.76	286.16	14.08	-24.7	-26.2	16.7	1.81e-04	0	43	0	2413821952	9	4278
2026-01-02 04:47:52.75	285.99	14.03	-24.9	-26.5	16.5	1.64e-03	0	43	0	2420113408	9	4349
2026-01-02 04:47:53.75	285.82	13.97	-24.9	-26.6	16.4	1.77e-03	0	43	0	2425356288	9	4382
2026-01-02 04:47:54.75	285.65	13.91	-24.9	-26.2	16.5	1.57e-04	0	43	0	2430599168	10	4154
2026-01-02 04:47:55.75	285.49	13.85	-24.9	-26.0	16.6	1.78e-03	0	43	0	2436890624	10	4103
2026-01-02 04:47:56.75	285.32	13.79	-24.9	-26.5	16.5	1.69e-03	0	43	0	2442133504	9	4347
2026-01-02 04:47:57.75	285.15	13.74	-24.8	-26.3	16.6	3.49e-04	0	43	0	2447376384	9	4302
2026-01-02 04:47:58.74	284.99	13.68	-24.6	-26.0	16.8	1.83e-03	0	43	0	2453667840	9	4213
2026-01-02 04:47:59.75	284.82	13.62	-24.7	-26.1	16.8	1.10e-06	0	43	0	2458910720	9	4230
2026-01-02 04:48:00.75	284.65	13.56	-24.7	-26.2	16.7	4.43e-04	0	43	0	2464153600	9	4260
2026-01-02 04:48:01.76	284.49	13.50	-24.9	-26.6	16.5	1.85e-03	0	43	0	2470445056	9	4364
2026-01-02 04:48:02.77	284.32	13.44	-24.9	-26.5	16.5	1.79e-03	0	43	0	2475687936	9	4357
2026-01-02 04:48:03.77	284.16	13.38	-24.9	-26.7	16.4	2.97e-04	0	43	0	2481979392	9	4390
2026-01-02 04:48:04.77	284.00	13.33	-24.9	-26.6	16.4	1.58e-03	0	43	0	2487222272	9	4388
2026-01-02 04:48:05.77	283.83	13.27	-24.8	-26.3	16.6	1.54e-03	0	43	0	2492465152	9	4293
2026-01-02 04:48:06.78	283.67	13.21	-24.8	-26.4	16.6	0.00e+00	0	43	0	2498756608	9	4319
2026-01-02 04:48:07.78	283.51	13.15	-24.9	-26.6	16.4	1.67e-03	0	43	0	2503999488	9	4370
2026-01-02 04:48:08.79	283.35	13.09	-25.0	-26.8	16.3	0.00e+00	0	43	0	2510290944	9	4415
2026-01-02 04:48:09.80	283.19	13.03	-25.1	-26.5	16.2	3.27e-04	0	43	0	2515533824	10	4224
2026-01-02 04:48:10.80	283.03	12.97	-25.2	-26.7	16.1	0.00e+00	0	43	0	2520776704	10	4286
2026-01-02 04:48:11.81	282.87	12.91	-25.2	-26.8	16.0	0.00e+00	0	43	0	2527068160	10	4327
2026-01-02 04:48:12.81	282.71	12.85	-25.3	-26.9	16.0	2.71e-04	0	43	0	2532311040	10	4337
2026-01-02 04:48:13.82	282.55	12.79	-25.3	-27.0	15.9	0.00e+00	0	43	0	2537553920	10	4378
2026-01-02 04:48:14.82	282.40	12.73	-25.3	-27.0	15.9	1.54e-03	0	43	0	2543845376	10	4374
2026-01-02 04:48:15.82	282.24	12.67	-25.4	-27.1	15.9	0.00e+00	0	43	0	2549088256	10	4405
2026-01-02 04:48:16.83	282.09	12.61	-25.4	-27.2	15.8	0.00e+00	0	43	0	2555379712	10	4414
2026-01-02 04:48:17.83	281.93	12.55	-25.3	-26.9	16.0	0.00e+00	0	43	0	2560622592	10	4331
2026-01-02 04:48:18.84	281.78	12.49	-25.3	-27.0	16.0	0.00e+00	0	43	0	2566914048	10	4368
2026-01-02 04:48:19.84	281.62	12.43	-25.4	-27.1	15.9	0.00e+00	0	43	0	2572156928	10	4406
2026-01-02 04:48:20.85	281.47	12.37	-25.4	-27.1	15.8	0.00e+00	0	43	0	2577399808	10	4409
2026-01-02 04:48:21.86	281.32	12.31	-25.4	-27.3	15.8	2.05e-04	0	43	0	2583691264	10	4444
2026-01-02 04:48:22.86	281.16	12.25	-25.3	-27.1	15.9	0.00e+00	0	43	0	2588934144	10	4384
2026-01-02 04:48:23.87	281.01	12.19	-25.2	-26.8	16.0	0.00e+00	0	43	0	2594177024	10	4322
2026-01-02 04:48:24.87	280.86	12.13	-25.3	-27.1	15.9	0.00e+00	0	43	0	2600468480	10	4381
2026-01-02 04:48:25.87	280.71	12.07	-25.2	-26.8	16.0	0.00e+00	0	43	0	2605711360	10	4323
2026-01-02 04:48:26.87	280.57	12.01	-25.4	-27.2	15.8	0.00e+00	0	43	0	2610954240	10	4416
2026-01-02 04:48:27.87	280.42	11.95	-25.3	-27.0	15.9	0.00e+00	0	43	0	2617245696	10	4368
2026-01-02 04:48:28.87	280.27	11.89	-25.3	-27.0	15.9	0.00e+00	0	43	0	2622488576	10	4358
2026-01-02 04:48:29.87	280.12	11.83	-25.4	-27.2	15.8	0.00e+00	0	43	0	2628780032	10	4435
2026-01-02 04:48:30.88	279.98	11.77	-25.4	-27.1	15.8	0.00e+00	0	43	0	2634022912	10	4405
2026-01-02 04:48:31.88	279.83	11.71	-25.4	-27.3	15.7	0.00e+00	0	43	0	2640314368	10	4453
2026-01-02 04:48:32.89	279.68	11.64	-25.4	-27.2	15.8	0.00e+00	0	43	0	2645557248	10	4433
2026-01-02 04:48:33.89	279.54	11.58	-25.4	-27.1	15.8	0.00e+00	0	43	0	2650800128	10	4406
2026-01-02 04:48:34.90	279.39	11.52	-25.5	-27.4	15.7	0.00e+00	0	43	0	2657091584	10	4480
2026-01-02 04:48:35.89	279.25	11.46	-25.4	-26.8	15.7	0.00e+00	0	43	0	2662334464	11	4196
2026-01-02 04:48:36.90	279.11	11.40	-25.4	-26.8	15.7	0.00e+00	0	43	0	2667577344	11	4195
2026-01-02 04:48:37.91	278.97	11.34	-25.5	-26.9	15.6	0.00e+00	0	43	0	2673868800	11	4226
2026-01-02 04:48:38.91	278.82	11.28	-25.6	-27.1	15.5	0.00e+00	0	43	0	2679111680	11	4278
2026-01-02 04:48:39.92	278.68	11.22	-25.6	-27.2	15.5	0.00e+00	0	43	0	2684354560	11	4303
2026-01-02 04:48:40.92	278.54	11.16	-25.6	-27.2	15.5	0.00e+00	0	43	0	2690646016	11	4304
2026-01-02 04:48:41.92	278.40	11.10	-25.5	-27.0	15.6	0.00e+00	0	43	0	2695888896	11	4259
2026-01-02 04:48:42.93	278.26	11.04	-25.6	-27.2	15.5	0.00e+00	0	43	0	2702180352	11	4310
2026-01-02 04:48:43.93	278.12	10.98	-25.6	-27.1	15.5	0.00e+00	0	43	0	2707423232	11	4275
2026-01-02 04:48:44.93	277.99	10.91	-25.6	-27.1	15.5	0.00e+00	0	43	0	2712666112	11	4277
2026-01-02 04:48:45.93	277.85	10.85	-25.6	-27.2	15.5	0.00e+00	0	44	0	2718957568	11	4300
2026-01-02 04:48:46.94	277.71	10.79	-25.6	-27.1	15.5	0.00e+00	0	43	0	2724200448	11	4297
2026-01-02 04:48:47.94	277.58	10.73	-25.7	-27.4	15.3	0.00e+00	0	43	0	2730491904	11	4382
2026-01-02 04:48:48.94	277.44	10.67	-25.6	-27.2	15.5	0.00e+00	0	43	0	2735734784	11	4308
2026-01-02 04:48:49.94	277.30	10.61	-25.6	-27.1	15.5	0.00e+00	0	43	0	2740977664	11	4275
2026-01-02 04:48:50.95	277.17	10.55	-25.7	-27.3	15.4	0.00e+00	0	43	0	2747269120	11	4340
2026-01-02 04:48:51.95	277.04	10.49	-25.6	-27.2	15.4	0.00e+00	0	43	0	2752512000	11	4310
2026-01-02 04:48:52.96	276.90	10.43	-25.6	-27.1	15.4	0.00e+00	0	43	0	2757754880	11	4298
2026-01-02 04:48:53.96	276.77	10.37	-25.6	-27.2	15.4	0.00e+00	0	43	0	2764046336	11	4317
2026-01-02 04:48:54.96	276.64	10.31	-25.6	-27.2	15.4	0.00e+00	0	43	0	2769289216	11	4324
2026-01-02 04:48:55.97	276.50	10.24	-25.8	-27.5	15.2	0.00e+00	0	43	0	2775580672	11	4411
2026-01-02 04:48:56.97	276.37	10.18	-25.8	-27.5	15.2	0.00e+00	0	43	0	2780823552	11	4409
2026-01-02 04:48:57.97	276.24	10.12	-25.9	-27.8	15.0	0.00e+00	0	43	0	2786066432	11	4484
2026-01-02 04:48:58.98	276.11	10.06	-25.8	-27.7	15.1	0.00e+00	0	43	0	2792357888	11	4447
2026-01-02 04:48:59.98	275.98	10.00	-26.0	-27.6	14.8	0.00e+00	0	43	0	2797600768	12	4324
2026-01-02 04:49:00.99	275.85	9.94	-26.4	-28.5	14.3	1.10e-06	0	43	0	2803892224	12	4569
2026-01-02 04:49:01.99	275.72	9.88	-26.1	-27.8	14.7	0.00e+00	0	43	0	2809135104	12	4370
2026-01-02 04:49:03.00	275.59	9.82	-25.9	-27.3	15.0	0.00e+00	0	43	0	2814377984	12	4246
2026-01-02 04:49:04.00	275.47	9.76	-25.7	-27.0	15.1	0.00e+00	0	43	0	2820669440	12	4144
2026-01-02 04:49:05.00	275.34	9.70	-25.2	-26.9	13.7	0.00e+00	0	43	0	2825912320	11	4375
2026-01-02 04:49:06.00	275.21	9.64	-25.9	-27.8	14.8	0.00e+00	0	43	0	2831155200	11	4498
2026-01-02 04:49:07.01	275.09	9.57	-26.0	-27.5	11.7	2.15e-03	0	43	0	2837446656	12	4304
2026-01-02 04:49:08.01	274.96	9.51	-26.1	-27.9	14.0	0.00e+00	0	43	0	2842689536	12	4398
2026-01-02 04:49:09.01	274.84	9.45	-26.1	-27.7	14.7	0.00e+00	0	43	0	2848980992	12	4357
2026-01-02 04:49:10.02	274.71	9.39	-25.9	-27.4	14.9	0.00e+00	0	43	0	2854223872	12	4277
2026-01-02 04:49:11.02	274.59	9.33	-26.0	-28.0	14.9	0.00e+00	0	43	0	2859466752	11	4533
2026-01-02 04:49:12.02	274.47	9.27	-26.0	-27.6	14.8	0.00e+00	0	43	0	2865758208	12	4316
2026-01-02 04:49:13.02	274.35	9.21	-26.0	-27.5	14.8	0.00e+00	0	43	0	2871001088	12	4292
2026-01-02 04:49:14.04	274.22	9.15	-26.0	-27.7	14.7	2.11e-03	0	43	0	2877292544	12	4348
2026-01-02 04:49:15.04	274.10	9.09	-26.0	-27.7	14.7	0.00e+00	0	43	0	2882535424	12	4353
2026-01-02 04:49:16.03	273.98	9.03	-26.1	-27.8	14.6	1.94e-03	0	43	0	2887778304	12	4389
2026-01-02 04:49:17.04	273.86	8.97	-26.1	-27.8	14.7	0.00e+00	0	43	0	2894069760	12	4370
2026-01-02 04:49:18.05	273.74	8.91	-26.1	-27.8	14.6	0.00e+00	0	43	0	2899312640	12	4377
2026-01-02 04:49:19.06	273.62	8.85	-26.1	-27.7	14.7	1.73e-03	0	43	0	2904555520	12	4369
2026-01-02 04:49:20.06	273.50	8.79	-26.1	-27.7	14.7	0.00e+00	0	43	0	2910846976	12	4364
2026-01-02 04:49:21.07	273.38	8.72	-26.2	-28.0	14.5	7.08e-04	0	43	0	2916089856	12	4427
2026-01-02 04:49:22.07	273.26	8.66	-26.0	-27.6	14.7	2.20e-06	0	43	0	2922381312	12	4332
2026-01-02 04:49:23.07	273.14	8.60	-26.0	-27.6	14.7	2.16e-03	0	43	0	2927624192	12	4320
2026-01-02 04:49:24.07	273.03	8.54	-26.3	-28.2	14.4	2.96e-04	0	44	0	2932867072	12	4483
2026-01-02 04:49:25.08	272.91	8.48	-26.1	-27.8	14.6	9.10e-06	0	43	0	2939158528	12	4382
2026-01-02 04:49:26.08	272.79	8.42	-26.2	-28.0	14.5	2.31e-03	0	43	0	2944401408	12	4429
2026-01-02 04:49:27.08	272.68	8.36	-26.4	-28.5	14.1	4.34e-04	0	43	0	2950692864	12	4599
2026-01-02 04:49:28.09	272.56	8.30	-26.3	-28.4	14.2	2.46e-03	0	43	0	2955935744	12	4549
2026-01-02 04:49:29.08	272.45	8.24	-26.3	-28.3	14.3	1.99e-04	0	43	0	2961178624	12	4515
2026-01-02 04:49:30.09	272.33	8.18	-26.3	-28.3	14.3	4.32e-04	0	43	0	2967470080	12	4529
2026-01-02 04:49:31.09	272.22	8.12	-26.4	-28.5	14.2	2.59e-03	0	43	0	2972712960	12	4588
2026-01-02 04:49:32.09	272.11	8.06	-26.5	-28.7	14.0	2.63e-03	0	43	0	2977955840	12	4640
2026-01-02 04:49:33.10	271.99	8.00	-26.4	-28.4	14.2	7.49e-04	0	43	0	2984247296	12	4572
2026-01-02 04:49:34.10	271.88	7.94	-26.2	-28.1	14.4	2.60e-03	0	43	0	2989490176	12	4464
2026-01-02 04:49:35.10	271.77	7.88	-26.1	-27.7	14.6	2.37e-03	0	43	0	2995781632	12	4370
2026-01-02 04:49:36.10	271.66	7.82	-26.2	-28.0	14.4	7.53e-04	0	43	0	3001024512	12	4447
2026-01-02 04:49:37.10	271.55	7.76	-26.2	-28.1	14.3	2.25e-03	0	43	0	3006267392	12	4483
2026-01-02 04:49:38.11	271.44	7.70	-26.2	-28.0	14.4	2.59e-03	0	43	0	3012558848	12	4453
2026-01-02 04:49:39.10	271.33	7.64	-26.3	-28.3	14.2	3.56e-04	0	43	0	3017801728	12	4535
2026-01-02 04:49:40.11	271.22	7.58	-26.3	-28.3	14.2	2.46e-03	0	43	0	3023044608	12	4518
2026-01-02 04:49:41.11	271.11	7.52	-26.4	-28.5	14.0	6.75e-05	0	43	0	3029336064	12	4605
2026-01-02 04:49:42.12	271.00	7.46	-26.5	-28.7	13.9	2.20e-06	0	43	0	3034578944	12	4655
2026-01-02 04:49:43.12	270.89	7.40	-26.6	-28.5	13.7	2.55e-03	0	43	0	3039821824	13	4480
2026-01-02 04:49:44.12	270.79	7.34	-26.9	-29.2	13.3	2.79e-03	0	43	0	3046113280	13	4692
2026-01-02 04:49:45.13	270.68	7.28	-26.7	-28.8	13.5	6.40e-05	0	43	0	3051356160	13	4578
2026-01-02 04:49:46.14	270.57	7.22	-26.7	-28.7	13.6	2.48e-03	0	43	0	3057647616	13	4554
2026-01-02 04:49:47.14	270.46	7.16	-26.7	-28.7	13.7	2.65e-03	0	43	0	3062890496	13	4523
2026-01-02 04:49:48.14	270.36	7.11	-26.9	-29.2	13.4	4.50e-06	0	43	0	3069181952	13	4681
2026-01-02 04:49:49.14	270.25	7.05	-32.4	-43.7	3.8	8.45e-01	0	43	104	3070230528	24	13211
2026-01-02 04:49:50.14	270.15	6.99	-32.7	-44.0	3.8	8.46e-01	0	43	104	3070230528	25	13167

#Closed at: 2026-01-02 04:49:50
#Recorded file [3070 MB]: D:/data/31010_260102_074042.dat