passes_logs/2026/01/02/R2M6_AANII_01/R2M6_AANII_01__20260102_233004_NOAA_21_JPSS-2_rec.log

#Pass ID: 20260102_233004_NOAA 21 (JPSS-2)
#Satellite: NOAA 21 (JPSS-2)
#Configuration: NOAA 21
#almurnet v.1.7.20240730
#Start time: 2026-01-02 23:30:04

#Version: 2.2.20231116
#Station: R2M6_AANII_01
#Location: 30.233357 lon 59.946436 lat
#TLE: 1 54234U 22150A   26002.25486487  .00000200  00000+0  11573-3 0  9993
#TLE: 2 54234  98.7485 303.3096 0001220 350.9074   9.2080 14.19531212163006

#Time	Az	El	Level	Level2	SNR	BER	BlckErr	Temp	State	Recorded	gain1	gain2
2026-01-02 23:30:04.05	23.16	7.00	-30.0	-34.9	4.6	1.40e+00	0	40	0	0	20	6325
2026-01-02 23:30:05.05	23.21	7.07	-30.6	-36.4	4.4	1.42e+00	0	40	104	0	21	7006
2026-01-02 23:30:06.05	23.26	7.14	-30.5	-35.5	7.3	1.32e-01	0	41	0	0	21	6364
2026-01-02 23:30:07.06	23.31	7.22	-30.4	-35.3	7.8	8.79e-02	0	41	0	3145728	20	6339
2026-01-02 23:30:08.07	23.36	7.29	-30.5	-35.5	7.3	1.20e-01	0	41	0	6291456	21	6339
2026-01-02 23:30:09.07	23.41	7.36	-30.7	-35.9	7.0	1.58e-01	0	41	0	9437184	21	6557
2026-01-02 23:30:10.08	23.46	7.44	-30.5	-35.3	7.5	1.22e-01	0	41	0	12582912	21	6225
2026-01-02 23:30:11.09	23.52	7.51	-30.4	-35.2	7.9	8.73e-02	0	41	0	15728640	20	6311
2026-01-02 23:30:12.10	23.57	7.59	-30.5	-35.7	7.6	9.21e-02	0	41	0	18874368	20	6559
2026-01-02 23:30:13.10	23.62	7.66	-30.9	-36.8	6.5	2.07e-01	0	41	0	22020096	21	7088
2026-01-02 23:30:14.10	23.67	7.74	-30.7	-35.8	7.1	1.50e-01	0	41	0	25165824	21	6518
2026-01-02 23:30:15.11	23.73	7.81	-30.4	-34.7	7.9	7.97e-02	0	41	0	28311552	21	5939
2026-01-02 23:30:16.12	23.78	7.89	-30.0	-34.1	8.7	4.67e-02	0	41	0	31457280	20	5754
2026-01-02 23:30:17.12	23.83	7.97	-29.9	-33.8	8.9	2.94e-02	0	41	0	34603008	20	5598
2026-01-02 23:30:18.13	23.89	8.04	-29.7	-33.1	9.4	1.77e-02	0	41	0	37748736	20	5324
2026-01-02 23:30:19.14	23.94	8.12	-29.8	-33.7	9.5	1.39e-02	0	41	0	40894464	19	5632
2026-01-02 23:30:20.15	24.00	8.19	-29.8	-33.8	9.4	1.47e-02	0	41	0	44040192	19	5694
2026-01-02 23:30:21.15	24.05	8.27	-30.0	-34.1	8.7	3.34e-02	0	41	0	47185920	20	5724
2026-01-02 23:30:22.16	24.11	8.35	-29.7	-33.1	9.5	1.51e-02	0	41	0	50331648	20	5297
2026-01-02 23:30:23.16	24.16	8.42	-29.6	-33.0	10.0	7.20e-03	0	41	0	53477376	19	5341
2026-01-02 23:30:24.17	24.22	8.50	-29.0	-31.3	11.1	3.27e-03	0	41	0	56623104	19	4731
2026-01-02 23:30:25.18	24.27	8.58	-28.8	-31.4	11.5	1.24e-03	0	41	0	59768832	18	4834
2026-01-02 23:30:26.19	24.33	8.66	-28.6	-31.4	11.8	6.97e-04	0	41	0	62914560	17	4953
2026-01-02 23:30:27.20	24.39	8.74	-28.4	-30.8	12.1	3.06e-04	0	41	0	66060288	17	4761
2026-01-02 23:30:28.20	24.44	8.81	-28.5	-31.0	12.1	2.91e-04	0	41	0	69206016	17	4820
2026-01-02 23:30:29.21	24.50	8.89	-28.5	-31.6	12.0	2.82e-04	0	41	0	72351744	16	5122
2026-01-02 23:30:30.22	24.56	8.97	-28.4	-30.9	12.1	2.19e-04	0	41	0	75497472	17	4776
2026-01-02 23:30:31.22	24.61	9.05	-28.6	-31.3	11.9	4.69e-04	0	41	0	78643200	17	4914
2026-01-02 23:30:32.23	24.67	9.13	-28.4	-30.7	12.2	2.48e-04	0	42	0	81788928	17	4700
2026-01-02 23:30:33.24	24.73	9.21	-27.9	-29.6	12.9	6.33e-05	0	42	0	84934656	17	4352
2026-01-02 23:30:34.24	24.79	9.29	-27.9	-30.0	13.0	4.88e-05	0	42	0	88080384	16	4588
2026-01-02 23:30:35.25	24.85	9.37	-28.0	-30.2	12.9	5.95e-05	0	42	0	91226112	16	4654
2026-01-02 23:30:36.25	24.91	9.45	-28.1	-30.4	12.7	7.93e-05	0	42	0	94371840	16	4735
2026-01-02 23:30:37.25	24.96	9.53	-27.8	-30.4	12.9	4.42e-05	0	42	0	97517568	15	4860
2026-01-02 23:30:38.26	25.02	9.61	-27.8	-30.2	13.0	3.28e-05	0	42	0	100663296	15	4787
2026-01-02 23:30:39.27	25.08	9.69	-27.9	-30.5	12.8	3.73e-05	0	42	0	103809024	15	4885
2026-01-02 23:30:40.28	25.14	9.77	-27.7	-30.0	13.2	2.21e-05	0	42	0	106954752	15	4708
2026-01-02 23:30:41.29	25.21	9.85	-27.8	-30.3	13.0	2.13e-05	0	42	0	110100480	15	4804
2026-01-02 23:30:42.29	25.27	9.93	-27.7	-30.1	13.1	2.13e-05	0	42	0	113246208	15	4752
2026-01-02 23:30:43.29	25.33	10.02	-27.8	-30.2	13.0	3.66e-05	0	42	0	116391936	15	4788
2026-01-02 23:30:44.30	25.39	10.10	-27.6	-29.8	13.3	1.67e-05	0	41	0	118489088	15	4650
2026-01-02 23:30:45.30	25.45	10.18	-27.7	-30.0	13.2	1.75e-05	0	42	0	122683392	15	4696
2026-01-02 23:30:46.31	25.51	10.26	-27.6	-29.7	13.4	1.98e-05	0	42	0	125829120	15	4619
2026-01-02 23:30:47.31	25.57	10.34	-27.5	-29.6	13.4	9.10e-06	0	42	0	128974848	15	4579
2026-01-02 23:30:48.32	25.64	10.43	-27.3	-29.1	13.7	4.50e-06	0	42	0	132120576	15	4428
2026-01-02 23:30:49.33	25.70	10.51	-27.4	-29.3	13.6	9.10e-06	0	42	0	135266304	15	4486
2026-01-02 23:30:50.33	25.76	10.59	-27.3	-29.1	13.7	5.30e-06	0	42	0	138412032	15	4437
2026-01-02 23:30:51.34	25.83	10.68	-27.3	-29.1	13.8	5.30e-06	0	42	0	141557760	15	4425
2026-01-02 23:30:52.34	25.89	10.76	-27.2	-28.7	14.0	4.50e-06	0	42	0	143654912	15	4318
2026-01-02 23:30:53.35	25.95	10.85	-27.3	-29.1	13.7	2.20e-06	0	42	0	146800640	15	4436
2026-01-02 23:30:54.35	26.02	10.93	-27.2	-28.9	13.9	4.50e-06	0	42	0	150994944	15	4368
2026-01-02 23:30:55.36	26.08	11.01	-27.1	-28.5	14.1	2.20e-06	0	42	0	154140672	15	4256
2026-01-02 23:30:56.37	26.15	11.10	-27.0	-28.4	14.2	7.00e-07	0	42	0	157286400	15	4216
2026-01-02 23:30:57.38	26.22	11.19	-26.9	-28.2	14.3	7.00e-07	0	42	0	160432128	15	4157
2026-01-02 23:30:58.38	26.28	11.27	-27.0	-28.3	14.3	3.28e-05	0	42	0	163577856	15	4186
2026-01-02 23:30:59.39	26.35	11.36	-27.2	-28.9	14.0	1.50e-06	0	42	0	165675008	15	4349
2026-01-02 23:31:00.40	26.42	11.44	-27.0	-28.4	14.2	2.20e-06	0	42	0	169869312	15	4215
2026-01-02 23:31:01.41	26.48	11.53	-26.9	-28.2	14.4	7.00e-07	0	42	0	173015040	15	4166
2026-01-02 23:31:02.41	26.55	11.62	-26.8	-28.4	14.5	0.00e+00	0	42	0	176160768	14	4326
2026-01-02 23:31:03.42	26.62	11.70	-26.9	-28.6	14.4	4.17e-04	0	42	0	179306496	14	4395
2026-01-02 23:31:04.43	26.69	11.79	-27.0	-28.7	14.3	3.90e-04	0	42	0	182452224	14	4423
2026-01-02 23:31:05.44	26.76	11.88	-26.9	-28.7	14.3	0.00e+00	0	42	0	185597952	14	4413
2026-01-02 23:31:06.44	26.82	11.97	-26.9	-28.7	14.4	0.00e+00	0	42	0	188743680	14	4405
2026-01-02 23:31:07.45	26.89	12.05	-27.0	-28.9	14.3	1.50e-06	0	42	0	190840832	14	4473
2026-01-02 23:31:08.45	26.96	12.14	-27.0	-28.8	14.3	2.20e-06	0	42	0	195035136	14	4440
2026-01-02 23:31:09.46	27.03	12.23	-26.8	-28.4	14.6	4.67e-04	0	42	0	198180864	14	4320
2026-01-02 23:31:10.47	27.10	12.32	-26.7	-28.2	14.7	4.39e-04	0	42	0	201326592	14	4272
2026-01-02 23:31:11.48	27.18	12.41	-26.8	-28.4	14.6	0.00e+00	0	42	0	204472320	14	4335
2026-01-02 23:31:12.48	27.25	12.50	-26.7	-28.2	14.7	0.00e+00	0	42	0	207618048	14	4276
2026-01-02 23:31:13.49	27.32	12.59	-26.9	-28.6	14.5	4.08e-04	0	42	0	210763776	14	4383
2026-01-02 23:31:14.49	27.39	12.68	-26.9	-28.7	14.4	7.00e-07	0	42	0	213909504	14	4399
2026-01-02 23:31:15.49	27.46	12.77	-26.9	-28.7	14.5	3.14e-04	0	42	0	216006656	14	4412
2026-01-02 23:31:16.49	27.54	12.86	-26.9	-28.6	14.5	2.29e-04	0	42	0	219152384	14	4379
2026-01-02 23:31:17.50	27.61	12.95	-27.0	-28.9	14.3	0.00e+00	0	42	0	223346688	14	4473
2026-01-02 23:31:18.50	27.68	13.04	-26.9	-28.6	14.5	9.68e-05	0	42	0	226492416	14	4366
2026-01-02 23:31:19.51	27.76	13.13	-27.1	-29.2	14.2	7.01e-05	0	43	0	229638144	14	4549
2026-01-02 23:31:20.52	27.83	13.22	-27.0	-28.9	14.3	1.50e-06	0	42	0	232783872	14	4465
2026-01-02 23:31:21.53	27.91	13.32	-26.8	-28.3	14.7	2.44e-05	0	42	0	235929600	14	4289
2026-01-02 23:31:22.54	27.98	13.41	-26.7	-28.0	14.8	7.00e-07	0	42	0	238026752	14	4218
2026-01-02 23:31:23.54	28.06	13.50	-26.6	-27.9	14.9	7.00e-07	0	42	0	241172480	14	4195
2026-01-02 23:31:24.55	28.14	13.60	-26.6	-28.0	14.9	2.20e-06	0	42	0	244318208	14	4193
2026-01-02 23:31:25.56	28.21	13.69	-26.6	-27.9	15.0	1.50e-06	0	43	0	248512512	14	4170
2026-01-02 23:31:26.56	28.29	13.78	-26.5	-27.7	15.0	0.00e+00	0	43	0	251658240	14	4123
2026-01-02 23:31:27.57	28.37	13.88	-26.5	-27.7	15.0	0.00e+00	0	42	0	254803968	14	4131
2026-01-02 23:31:28.57	28.45	13.97	-26.5	-27.7	15.1	0.00e+00	0	42	0	257949696	14	4128
2026-01-02 23:31:29.58	28.53	14.07	-26.6	-27.9	14.9	7.00e-07	0	42	0	261095424	14	4187
2026-01-02 23:31:30.58	28.61	14.16	-26.7	-28.1	14.8	3.00e-06	0	42	0	263192576	14	4243
2026-01-02 23:31:31.59	28.69	14.26	-26.7	-28.2	14.8	7.00e-07	0	42	0	266338304	14	4268
2026-01-02 23:31:32.59	28.77	14.35	-26.8	-28.3	14.7	0.00e+00	0	42	0	269484032	14	4297
2026-01-02 23:31:33.60	28.85	14.45	-26.7	-28.0	14.9	0.00e+00	0	43	0	272629760	14	4220
2026-01-02 23:31:34.60	28.93	14.54	-26.7	-28.2	14.8	7.00e-07	0	42	0	276824064	14	4248
2026-01-02 23:31:35.61	29.01	14.64	-26.8	-28.4	14.7	7.00e-07	0	43	0	279969792	14	4312
2026-01-02 23:31:36.61	29.09	14.74	-26.8	-29.0	14.7	0.00e+00	0	43	0	283115520	13	4597
2026-01-02 23:31:37.62	29.17	14.83	-26.7	-28.7	14.8	0.00e+00	0	43	0	285212672	13	4517
2026-01-02 23:31:38.63	29.26	14.93	-27.0	-28.7	14.5	7.00e-07	0	43	0	288358400	14	4410
2026-01-02 23:31:39.63	29.34	15.03	-27.2	-29.3	14.1	2.20e-06	0	43	0	291504128	14	4599
2026-01-02 23:31:40.63	29.43	15.13	-27.2	-29.3	14.2	3.00e-06	0	43	0	294649856	14	4572
2026-01-02 23:31:41.63	29.51	15.23	-26.9	-28.5	14.7	7.00e-07	0	43	0	297795584	14	4350
2026-01-02 23:31:42.64	29.60	15.33	-26.7	-28.0	14.9	0.00e+00	0	43	0	300941312	14	4219
2026-01-02 23:31:43.64	29.68	15.42	-26.6	-28.4	15.0	7.00e-07	0	43	0	304087040	13	4421
2026-01-02 23:31:44.64	29.77	15.52	-26.6	-28.4	15.0	0.00e+00	0	43	0	307232768	13	4428
2026-01-02 23:31:45.65	29.85	15.62	-26.7	-28.6	14.9	0.00e+00	0	43	0	310378496	13	4480
2026-01-02 23:31:46.65	29.94	15.72	-26.7	-28.5	14.9	0.00e+00	0	43	0	313524224	13	4463
2026-01-02 23:31:47.66	30.03	15.82	-26.7	-28.6	14.9	0.00e+00	0	43	0	316669952	13	4490
2026-01-02 23:31:48.66	30.12	15.93	-26.8	-28.7	14.8	0.00e+00	0	43	0	319815680	13	4525
2026-01-02 23:31:49.67	30.21	16.03	-26.8	-28.7	14.8	0.00e+00	0	43	0	322961408	13	4511
2026-01-02 23:31:50.68	30.30	16.13	-26.8	-28.9	14.7	1.50e-06	0	43	0	326107136	13	4582
2026-01-02 23:31:51.68	30.39	16.23	-27.0	-28.9	14.5	0.00e+00	0	43	0	329252864	14	4446
2026-01-02 23:31:52.69	30.48	16.33	-27.2	-29.2	14.3	7.00e-07	0	42	0	332398592	14	4558
2026-01-02 23:31:53.69	30.57	16.44	-27.2	-29.1	14.3	1.50e-06	0	43	0	335544320	14	4526
2026-01-02 23:31:54.70	30.66	16.54	-27.1	-28.9	14.4	3.00e-06	0	43	0	338690048	14	4469
2026-01-02 23:31:55.71	30.76	16.64	-27.0	-28.8	14.5	1.50e-06	0	43	0	341835776	14	4427
2026-01-02 23:31:56.72	30.85	16.75	-27.0	-28.7	14.6	1.50e-06	0	43	0	344981504	14	4407
2026-01-02 23:31:57.72	30.94	16.85	-27.0	-28.8	14.5	0.00e+00	0	43	0	348127232	14	4437
2026-01-02 23:31:58.73	31.04	16.96	-27.1	-28.9	14.5	7.00e-07	0	43	0	351272960	14	4450
2026-01-02 23:31:59.73	31.13	17.06	-27.0	-28.7	14.6	0.00e+00	0	43	0	354418688	14	4408
2026-01-02 23:32:00.74	31.23	17.17	-26.9	-28.6	14.6	0.00e+00	0	43	0	357564416	14	4378
2026-01-02 23:32:01.74	31.33	17.27	-27.1	-29.0	14.5	0.00e+00	0	43	0	360710144	14	4486
2026-01-02 23:32:02.75	31.42	17.38	-27.0	-28.9	14.6	7.00e-07	0	43	0	363855872	14	4441
2026-01-02 23:32:03.76	31.52	17.49	-27.1	-29.0	14.5	1.50e-06	0	42	0	367001600	14	4490
2026-01-02 23:32:04.76	31.62	17.60	-27.1	-29.0	14.5	7.00e-07	0	43	0	370147328	14	4475
2026-01-02 23:32:05.77	31.72	17.70	-27.2	-29.2	14.4	7.00e-07	0	43	0	373293056	14	4535
2026-01-02 23:32:06.78	31.82	17.81	-27.1	-29.1	14.4	0.00e+00	0	43	0	376438784	14	4498
2026-01-02 23:32:07.78	31.92	17.92	-27.1	-29.0	14.5	0.00e+00	0	43	0	379584512	14	4481
2026-01-02 23:32:08.78	32.02	18.03	-27.1	-28.9	14.5	0.00e+00	0	43	0	382730240	14	4449
2026-01-02 23:32:09.79	32.12	18.14	-27.0	-28.7	14.6	0.00e+00	0	43	0	385875968	14	4401
2026-01-02 23:32:10.80	32.23	18.25	-27.2	-29.2	14.4	0.00e+00	0	43	0	389021696	14	4529
2026-01-02 23:32:11.80	32.33	18.36	-27.2	-29.1	14.4	0.00e+00	0	43	0	392167424	14	4517
2026-01-02 23:32:12.81	32.43	18.47	-27.1	-29.0	14.5	7.00e-07	0	43	0	395313152	14	4466
2026-01-02 23:32:13.82	32.54	18.58	-27.2	-29.1	14.4	0.00e+00	0	43	0	398458880	14	4520
2026-01-02 23:32:14.83	32.65	18.69	-27.2	-29.1	14.4	7.00e-07	0	43	0	401604608	14	4519
2026-01-02 23:32:15.83	32.75	18.80	-27.2	-29.2	14.4	0.00e+00	0	43	0	404750336	14	4525
2026-01-02 23:32:16.84	32.86	18.91	-27.0	-28.8	14.6	1.50e-06	0	43	0	407896064	14	4432
2026-01-02 23:32:17.84	32.97	19.03	-27.2	-29.3	14.4	7.00e-07	0	43	0	411041792	14	4563
2026-01-02 23:32:18.86	33.08	19.14	-27.0	-28.8	14.7	0.00e+00	0	43	0	414187520	14	4422
2026-01-02 23:32:19.86	33.19	19.25	-26.8	-28.3	14.9	0.00e+00	0	43	0	417333248	14	4283
2026-01-02 23:32:20.86	33.29	19.37	-26.7	-28.1	15.1	0.00e+00	0	43	0	420478976	14	4209
2026-01-02 23:32:21.87	33.41	19.48	-26.7	-28.0	15.0	0.00e+00	0	43	0	423624704	14	4195
2026-01-02 23:32:22.87	33.52	19.59	-26.6	-27.8	15.2	0.00e+00	0	43	0	426770432	14	4131
2026-01-02 23:32:23.88	33.63	19.71	-26.5	-27.6	15.3	6.25e-05	0	43	0	429916160	14	4093
2026-01-02 23:32:24.88	33.74	19.82	-26.5	-27.6	15.4	1.01e-04	0	43	0	433061888	14	4069
2026-01-02 23:32:25.89	33.86	19.94	-26.7	-28.0	15.1	0.00e+00	0	43	0	436207616	14	4182
2026-01-02 23:32:26.89	33.97	20.06	-26.6	-27.8	15.2	0.00e+00	0	43	0	439353344	14	4140
2026-01-02 23:32:27.90	34.09	20.17	-26.7	-27.9	15.2	7.00e-07	0	43	0	442499072	14	4179
2026-01-02 23:32:28.91	34.21	20.29	-26.6	-27.8	15.3	0.00e+00	0	43	0	445644800	14	4132
2026-01-02 23:32:29.92	34.32	20.41	-26.5	-28.0	15.4	7.03e-04	0	43	0	448790528	13	4301
2026-01-02 23:32:30.92	34.44	20.53	-26.5	-28.0	15.4	7.68e-04	0	43	0	451936256	13	4309
2026-01-02 23:32:31.93	34.56	20.65	-26.4	-28.0	15.4	0.00e+00	0	43	0	455081984	13	4288
2026-01-02 23:32:32.94	34.68	20.77	-26.3	-28.2	15.6	0.00e+00	0	43	0	458227712	12	4465
2026-01-02 23:32:33.94	34.80	20.88	-26.1	-27.6	15.9	6.87e-04	0	43	0	461373440	12	4303
2026-01-02 23:32:34.95	34.93	21.00	-25.9	-27.2	16.1	0.00e+00	0	43	0	464519168	12	4187
2026-01-02 23:32:35.96	35.05	21.13	-25.7	-26.9	16.3	6.63e-04	0	43	0	467664896	12	4099
2026-01-02 23:32:36.96	35.17	21.25	-25.9	-27.8	16.2	8.46e-04	0	43	0	470810624	11	4453
2026-01-02 23:32:37.97	35.30	21.37	-25.8	-27.4	16.3	0.00e+00	0	43	0	473956352	11	4356
2026-01-02 23:32:38.98	35.42	21.49	-25.7	-27.3	16.4	1.14e-03	0	43	0	477102080	11	4332
2026-01-02 23:32:39.98	35.55	21.61	-25.9	-27.6	16.2	7.84e-04	0	43	0	480247808	11	4410
2026-01-02 23:32:40.99	35.68	21.73	-25.9	-27.8	16.2	0.00e+00	0	43	0	483393536	11	4459
2026-01-02 23:32:42.00	35.81	21.86	-26.1	-27.6	15.9	7.27e-04	0	43	0	486539264	12	4300
2026-01-02 23:32:43.01	35.94	21.98	-26.3	-28.2	15.6	7.10e-04	0	43	0	489684992	12	4461
2026-01-02 23:32:44.01	36.07	22.10	-26.1	-27.6	15.9	0.00e+00	0	43	0	492830720	12	4300
2026-01-02 23:32:45.02	36.20	22.23	-25.8	-27.0	16.3	1.37e-03	0	43	0	495976448	12	4139
2026-01-02 23:32:46.02	36.33	22.35	-25.7	-27.2	16.5	1.58e-03	0	43	0	499122176	11	4299
2026-01-02 23:32:47.02	36.46	22.48	-25.8	-27.4	16.4	0.00e+00	0	43	0	502267904	11	4351
2026-01-02 23:32:48.03	36.60	22.60	-25.6	-27.1	16.5	0.00e+00	0	43	0	505413632	11	4273
2026-01-02 23:32:49.03	36.73	22.73	-25.6	-27.0	16.6	0.00e+00	0	43	0	508559360	11	4250
2026-01-02 23:32:50.04	36.87	22.86	-25.7	-27.3	16.4	0.00e+00	0	43	0	511705088	11	4329
2026-01-02 23:32:51.05	37.01	22.98	-25.5	-26.9	16.6	2.20e-03	0	43	0	514850816	11	4224
2026-01-02 23:32:52.05	37.15	23.11	-25.5	-26.9	16.7	2.21e-03	0	43	0	517996544	11	4209
2026-01-02 23:32:53.06	37.29	23.24	-25.6	-27.0	16.6	7.00e-07	0	43	0	521142272	11	4247
2026-01-02 23:32:54.06	37.43	23.37	-25.5	-26.9	16.7	0.00e+00	0	43	0	524288000	11	4207
2026-01-02 23:32:55.07	37.57	23.50	-25.8	-27.4	16.4	0.00e+00	0	43	0	527433728	11	4359
2026-01-02 23:32:56.08	37.72	23.63	-25.6	-27.0	16.7	1.50e-06	0	43	0	530579456	11	4232
2026-01-02 23:32:57.09	37.86	23.76	-25.5	-26.8	16.8	1.52e-03	0	43	0	533725184	11	4177
2026-01-02 23:32:58.09	38.01	23.89	-25.6	-27.0	16.6	0.00e+00	0	43	0	536870912	11	4242
2026-01-02 23:32:59.10	38.16	24.02	-25.6	-27.1	16.6	7.00e-07	0	43	0	540016640	11	4275
2026-01-02 23:33:00.10	38.30	24.15	-25.6	-27.1	16.6	0.00e+00	0	43	0	543162368	11	4266
2026-01-02 23:33:01.12	38.46	24.28	-25.8	-27.4	16.4	0.00e+00	0	43	0	546308096	11	4352
2026-01-02 23:33:02.12	38.61	24.42	-25.7	-27.3	16.5	0.00e+00	0	43	0	549453824	11	4335
2026-01-02 23:33:03.12	38.76	24.55	-25.7	-27.4	16.5	0.00e+00	0	43	0	552599552	11	4336
2026-01-02 23:33:04.12	38.91	24.68	-25.8	-27.6	16.4	0.00e+00	0	43	0	555745280	11	4401
2026-01-02 23:33:05.13	39.06	24.81	-25.9	-27.6	16.4	0.00e+00	0	43	0	558891008	11	4412
2026-01-02 23:33:06.13	39.22	24.95	-25.9	-27.7	16.3	0.00e+00	0	43	0	562036736	11	4421
2026-01-02 23:33:07.13	39.37	25.08	-25.9	-27.3	16.2	0.00e+00	0	43	0	565182464	12	4215
2026-01-02 23:33:08.15	39.54	25.22	-26.0	-27.5	16.1	0.00e+00	0	43	0	568328192	12	4260
2026-01-02 23:33:09.15	39.69	25.35	-26.1	-27.6	16.0	0.00e+00	0	43	0	571473920	12	4306
2026-01-02 23:33:10.15	39.85	25.49	-26.1	-27.7	16.0	0.00e+00	0	43	0	574619648	12	4310
2026-01-02 23:33:11.15	40.02	25.63	-26.2	-27.9	15.9	0.00e+00	0	43	0	577765376	12	4372
2026-01-02 23:33:12.16	40.18	25.76	-26.2	-27.9	15.9	0.00e+00	0	43	0	580911104	12	4374
2026-01-02 23:33:13.16	40.34	25.90	-26.2	-28.0	15.8	0.00e+00	0	43	0	584056832	12	4403
2026-01-02 23:33:14.16	40.51	26.04	-26.2	-27.8	15.9	0.00e+00	0	43	0	587202560	12	4355
2026-01-02 23:33:15.17	40.68	26.18	-26.2	-27.9	15.9	0.00e+00	0	43	0	590348288	12	4386
2026-01-02 23:33:16.17	40.85	26.31	-26.2	-27.9	15.9	0.00e+00	0	43	0	593494016	12	4376
2026-01-02 23:33:17.18	41.02	26.45	-26.2	-27.9	15.9	0.00e+00	0	43	0	596639744	12	4364
2026-01-02 23:33:18.18	41.19	26.59	-26.3	-28.1	15.8	0.00e+00	0	43	0	599785472	12	4422
2026-01-02 23:33:19.19	41.36	26.73	-26.1	-27.7	16.0	0.00e+00	0	43	0	602931200	12	4323
2026-01-02 23:33:20.20	41.54	26.88	-26.2	-27.8	16.0	0.00e+00	0	43	0	606076928	12	4342
2026-01-02 23:33:21.20	41.72	27.02	-26.3	-28.1	15.8	0.00e+00	0	43	0	609222656	12	4431
2026-01-02 23:33:22.21	41.90	27.16	-26.5	-28.1	15.5	0.00e+00	0	43	0	612368384	13	4304
2026-01-02 23:33:23.21	42.07	27.30	-26.3	-27.5	15.9	0.00e+00	0	43	0	615514112	13	4156
2026-01-02 23:33:24.22	42.26	27.44	-26.2	-27.4	15.9	0.00e+00	0	43	0	618659840	13	4122
2026-01-02 23:33:25.22	42.44	27.58	-26.3	-27.5	15.8	0.00e+00	0	43	0	621805568	13	4166
2026-01-02 23:33:26.23	42.62	27.73	-26.3	-27.7	15.8	0.00e+00	0	43	0	624951296	13	4204
2026-01-02 23:33:27.23	42.81	27.87	-26.5	-28.1	15.6	0.00e+00	0	43	0	628097024	13	4306
2026-01-02 23:33:28.23	43.00	28.02	-26.5	-28.0	15.6	0.00e+00	0	43	0	631242752	13	4301
2026-01-02 23:33:29.24	43.19	28.16	-26.5	-28.0	15.6	0.00e+00	0	43	0	634388480	13	4284
2026-01-02 23:33:30.25	43.38	28.31	-26.6	-28.3	15.5	0.00e+00	0	43	0	637534208	13	4361
2026-01-02 23:33:31.25	43.57	28.45	-26.4	-27.9	15.7	0.00e+00	0	43	0	640679936	13	4267
2026-01-02 23:33:32.26	43.77	28.60	-26.4	-27.8	15.8	0.00e+00	0	43	0	643825664	13	4231
2026-01-02 23:33:33.26	43.96	28.74	-26.5	-27.9	15.7	0.00e+00	0	43	0	646971392	13	4261
2026-01-02 23:33:34.27	44.16	28.89	-26.4	-27.8	15.8	0.00e+00	0	43	0	650117120	13	4229
2026-01-02 23:33:35.28	44.36	29.04	-26.4	-27.8	15.7	0.00e+00	0	43	0	653262848	13	4235
2026-01-02 23:33:36.28	44.56	29.19	-26.3	-27.7	15.8	0.00e+00	0	43	0	656408576	13	4200
2026-01-02 23:33:37.28	44.76	29.33	-26.3	-27.5	15.9	0.00e+00	0	43	0	659554304	13	4153
2026-01-02 23:33:38.29	44.97	29.48	-26.2	-27.5	15.9	0.00e+00	0	43	0	662700032	13	4144
2026-01-02 23:33:39.30	45.18	29.63	-26.3	-27.6	15.9	0.00e+00	0	43	0	665845760	13	4167
2026-01-02 23:33:40.31	45.39	29.78	-26.2	-27.8	16.0	0.00e+00	0	43	0	668991488	12	4344
2026-01-02 23:33:41.31	45.60	29.93	-26.3	-28.0	15.9	0.00e+00	0	43	0	672137216	12	4394
2026-01-02 23:33:42.31	45.81	30.08	-26.3	-28.2	15.8	0.00e+00	0	43	0	675282944	12	4451
2026-01-02 23:33:43.32	46.03	30.23	-26.2	-28.0	16.0	0.00e+00	0	43	0	678428672	12	4385
2026-01-02 23:33:44.32	46.24	30.38	-26.3	-28.0	15.9	1.04e-04	0	43	0	681574400	12	4399
2026-01-02 23:33:45.32	46.46	30.53	-26.3	-28.2	15.8	2.82e-05	0	43	0	684720128	12	4446
2026-01-02 23:33:46.32	46.68	30.68	-26.4	-28.2	15.8	0.00e+00	0	43	0	687865856	12	4468
2026-01-02 23:33:47.31	46.90	30.83	-26.6	-28.2	15.6	0.00e+00	0	43	0	691011584	13	4329
2026-01-02 23:33:48.32	47.13	30.99	-26.8	-28.8	15.2	0.00e+00	0	43	0	694157312	13	4504
2026-01-02 23:33:49.33	47.35	31.14	-26.8	-28.8	15.2	0.00e+00	0	43	0	697303040	13	4514
2026-01-02 23:33:50.33	47.58	31.29	-26.9	-29.0	15.1	6.40e-05	0	43	0	700448768	13	4584
2026-01-02 23:33:51.33	47.81	31.44	-27.1	-28.8	15.0	0.00e+00	0	43	0	703594496	14	4397
2026-01-02 23:33:52.33	48.04	31.60	-27.3	-29.3	14.7	7.00e-07	0	43	0	706740224	14	4533
2026-01-02 23:33:53.34	48.28	31.75	-27.3	-29.4	14.6	0.00e+00	0	43	0	709885952	14	4584
2026-01-02 23:33:54.34	48.52	31.90	-27.3	-29.3	14.7	1.06e-05	0	43	0	713031680	14	4535
2026-01-02 23:33:55.35	48.76	32.06	-27.1	-29.0	14.9	0.00e+00	0	43	0	716177408	14	4453
2026-01-02 23:33:56.36	49.00	32.21	-27.2	-29.2	14.7	1.67e-05	0	43	0	719323136	14	4532
2026-01-02 23:33:57.36	49.24	32.37	-27.4	-29.7	14.5	0.00e+00	0	43	0	722468864	14	4666
2026-01-02 23:33:58.37	49.49	32.52	-27.4	-29.7	14.5	0.00e+00	0	43	0	725614592	14	4665
2026-01-02 23:33:59.37	49.74	32.68	-27.3	-29.0	14.6	0.00e+00	0	43	0	728760320	15	4336
2026-01-02 23:34:00.37	49.99	32.83	-27.5	-29.2	14.4	1.60e-05	0	43	0	731906048	15	4415
2026-01-02 23:34:01.38	50.25	32.99	-27.4	-29.1	14.6	0.00e+00	0	43	0	735051776	15	4356
2026-01-02 23:34:02.38	50.50	33.14	-27.3	-28.9	14.6	1.34e-04	0	43	0	738197504	15	4323
2026-01-02 23:34:03.39	50.76	33.30	-27.4	-29.0	14.6	2.17e-04	0	43	0	741343232	15	4341
2026-01-02 23:34:04.40	51.02	33.46	-27.2	-28.7	14.8	0.00e+00	0	43	0	744488960	15	4256
2026-01-02 23:34:05.41	51.29	33.61	-27.3	-28.7	14.8	3.40e-04	0	43	0	747634688	15	4261
2026-01-02 23:34:06.41	51.55	33.77	-27.4	-29.1	14.6	2.71e-04	0	43	0	750780416	15	4361
2026-01-02 23:34:07.41	51.82	33.92	-27.3	-28.9	14.7	7.00e-07	0	43	0	753926144	15	4322
2026-01-02 23:34:08.42	52.09	34.08	-27.3	-29.4	14.6	0.00e+00	0	43	0	757071872	14	4590
2026-01-02 23:34:09.42	52.36	34.24	-27.4	-29.6	14.6	4.58e-04	0	43	0	760217600	14	4627
2026-01-02 23:34:10.43	52.64	34.40	-27.2	-29.2	14.8	0.00e+00	0	43	0	763363328	14	4513
2026-01-02 23:34:11.43	52.92	34.55	-27.2	-29.2	14.8	5.11e-04	0	43	0	766509056	14	4508
2026-01-02 23:34:12.43	53.20	34.71	-27.3	-29.2	14.7	5.43e-04	0	43	0	769654784	14	4524
2026-01-02 23:34:13.44	53.49	34.87	-27.2	-29.1	14.8	0.00e+00	0	43	0	772800512	14	4494
2026-01-02 23:34:14.45	53.77	35.02	-27.3	-29.4	14.7	0.00e+00	0	43	0	775946240	14	4587
2026-01-02 23:34:15.45	54.06	35.18	-27.5	-29.8	14.5	0.00e+00	0	43	0	779091968	14	4684
2026-01-02 23:34:16.46	54.36	35.34	-27.5	-29.3	14.4	1.50e-06	0	43	0	782237696	15	4418
2026-01-02 23:34:17.47	54.65	35.50	-27.7	-29.8	14.1	2.20e-06	0	43	0	785383424	15	4570
2026-01-02 23:34:18.47	54.95	35.65	-27.7	-29.8	14.2	3.80e-06	0	43	0	788529152	15	4569
2026-01-02 23:34:19.48	55.25	35.81	-27.8	-30.0	14.1	3.80e-06	0	43	0	791674880	15	4634
2026-01-02 23:34:20.48	55.55	35.96	-27.7	-29.8	14.2	7.00e-07	0	43	0	794820608	15	4583
2026-01-02 23:34:21.49	55.86	36.12	-27.6	-29.6	14.3	5.60e-04	0	43	0	797966336	15	4521
2026-01-02 23:34:22.49	56.17	36.28	-27.6	-29.5	14.4	0.00e+00	0	43	0	801112064	15	4481
2026-01-02 23:34:23.49	56.48	36.43	-27.7	-29.7	14.2	2.20e-06	0	43	0	804257792	15	4552
2026-01-02 23:34:24.50	56.80	36.59	-27.8	-30.0	14.1	1.50e-06	0	43	0	807403520	15	4631
2026-01-02 23:34:25.50	57.12	36.75	-27.9	-30.3	13.9	3.00e-06	0	43	0	810549248	15	4742
2026-01-02 23:34:26.49	57.43	36.90	-28.2	-30.4	13.7	1.31e-03	0	43	0	813694976	16	4643
2026-01-02 23:34:27.49	57.76	37.05	-28.2	-30.5	13.7	5.30e-06	0	43	0	816840704	16	4678
2026-01-02 23:34:28.50	58.08	37.21	-28.3	-30.6	13.6	6.10e-06	0	43	0	819986432	16	4699
2026-01-02 23:34:29.50	58.41	37.36	-28.2	-30.5	13.7	1.29e-05	0	43	0	823132160	16	4655
2026-01-02 23:34:30.50	58.75	37.52	-28.0	-29.8	14.1	2.20e-06	0	43	0	826277888	16	4455
2026-01-02 23:34:31.51	59.08	37.67	-27.9	-29.7	14.1	7.00e-07	0	43	0	829423616	16	4436
2026-01-02 23:34:32.51	59.42	37.82	-27.9	-29.6	14.2	2.20e-06	0	43	0	832569344	16	4391
2026-01-02 23:34:33.52	59.77	37.98	-27.8	-29.5	14.3	1.50e-06	0	43	0	835715072	16	4350
2026-01-02 23:34:34.53	60.12	38.13	-27.8	-29.4	14.3	3.80e-06	0	43	0	838860800	16	4333
2026-01-02 23:34:35.54	60.47	38.29	-27.7	-29.3	14.4	1.50e-06	0	43	0	842006528	16	4308
2026-01-02 23:34:36.55	60.82	38.44	-27.8	-29.4	14.4	2.20e-06	0	43	0	845152256	16	4328
2026-01-02 23:34:37.56	61.18	38.59	-27.8	-29.4	14.3	0.00e+00	0	43	0	848297984	16	4346
2026-01-02 23:34:38.56	61.54	38.74	-27.9	-29.7	14.2	3.80e-06	0	43	0	851443712	16	4405
2026-01-02 23:34:39.57	61.90	38.89	-27.8	-29.5	14.3	7.00e-07	0	43	0	854589440	16	4356
2026-01-02 23:34:40.58	62.27	39.04	-27.8	-29.5	14.3	1.50e-06	0	43	0	857735168	16	4359
2026-01-02 23:34:41.58	62.64	39.19	-27.8	-29.5	14.3	2.20e-06	0	43	0	860880896	16	4365
2026-01-02 23:34:42.59	63.01	39.34	-27.8	-29.5	14.3	0.00e+00	0	43	0	864026624	16	4360
2026-01-02 23:34:43.60	63.39	39.49	-27.9	-29.7	14.2	1.50e-06	0	43	0	867172352	16	4426
2026-01-02 23:34:44.61	63.77	39.63	-28.0	-29.9	14.1	1.50e-06	0	43	0	870318080	16	4467
2026-01-02 23:34:45.61	64.15	39.78	-28.0	-29.9	14.1	2.20e-06	0	43	0	873463808	16	4482
2026-01-02 23:34:46.62	64.54	39.93	-28.0	-30.0	14.0	1.50e-06	0	43	0	876609536	16	4501
2026-01-02 23:34:47.62	64.93	40.07	-28.1	-30.1	14.0	3.80e-06	0	43	0	879755264	16	4546
2026-01-02 23:34:48.62	65.32	40.21	-28.2	-30.3	13.8	6.10e-06	0	43	0	882900992	16	4615
2026-01-02 23:34:49.63	65.72	40.36	-28.3	-30.7	13.7	1.14e-05	0	43	0	886046720	16	4730
2026-01-02 23:34:50.63	66.12	40.50	-28.6	-30.8	13.3	1.67e-05	0	43	0	889192448	17	4664
2026-01-02 23:34:51.63	66.52	40.64	-28.7	-31.0	13.1	2.89e-05	0	43	0	892338176	17	4729
2026-01-02 23:34:52.64	66.93	40.78	-28.7	-31.0	13.1	2.82e-05	0	43	0	895483904	17	4708
2026-01-02 23:34:53.64	67.34	40.92	-28.7	-31.1	13.0	3.20e-05	0	43	0	898629632	17	4745
2026-01-02 23:34:54.64	67.75	41.05	-28.9	-31.7	12.7	6.02e-05	0	43	0	901775360	17	4934
2026-01-02 23:34:55.65	68.17	41.19	-28.9	-31.1	12.8	6.56e-05	0	43	0	904921088	18	4618
2026-01-02 23:34:56.65	68.59	41.32	-28.7	-30.5	13.2	2.05e-05	0	43	0	908066816	18	4435
2026-01-02 23:34:57.65	69.01	41.46	-28.6	-30.3	13.3	1.90e-05	0	43	0	911212544	18	4382
2026-01-02 23:34:58.66	69.44	41.59	-28.6	-30.4	13.2	2.89e-05	0	43	0	914358272	18	4420
2026-01-02 23:34:59.67	69.88	41.72	-28.8	-30.7	13.1	2.36e-05	0	43	0	917504000	18	4511
2026-01-02 23:35:00.67	70.31	41.85	-28.9	-31.0	12.9	4.88e-05	0	43	0	920649728	18	4596
2026-01-02 23:35:01.67	70.75	41.98	-28.9	-31.0	12.9	5.03e-05	0	43	0	923795456	18	4606
2026-01-02 23:35:02.68	71.19	42.11	-28.9	-30.9	12.9	4.50e-05	0	43	0	926941184	18	4576
2026-01-02 23:35:03.68	71.63	42.24	-29.1	-31.7	12.4	8.31e-05	0	43	0	930086912	18	4807
2026-01-02 23:35:04.69	72.08	42.36	-29.2	-31.9	12.3	2.04e-04	0	43	0	933232640	18	4913
2026-01-02 23:35:05.70	72.54	42.48	-29.4	-32.3	12.1	2.10e-04	0	43	0	936378368	18	5036
2026-01-02 23:35:06.71	73.00	42.61	-29.3	-32.1	12.2	1.99e-04	0	43	0	939524096	18	4972
2026-01-02 23:35:07.72	73.46	42.73	-29.3	-32.1	12.3	1.86e-04	0	43	0	942669824	18	4953
2026-01-02 23:35:08.72	73.92	42.84	-29.1	-31.5	12.5	1.26e-04	0	43	0	945815552	18	4772
2026-01-02 23:35:09.73	74.39	42.96	-28.9	-31.1	12.8	6.25e-05	0	43	0	948961280	18	4636
2026-01-02 23:35:10.74	74.86	43.08	-29.0	-31.3	12.7	6.94e-05	0	43	0	952107008	18	4692
2026-01-02 23:35:11.74	75.33	43.19	-29.1	-31.6	12.5	7.09e-05	0	43	0	955252736	18	4788
2026-01-02 23:35:12.75	75.81	43.30	-28.9	-31.1	12.8	7.17e-05	0	43	0	958398464	18	4636
2026-01-02 23:35:13.75	76.28	43.41	-28.8	-30.9	12.9	3.96e-05	0	43	0	961544192	18	4549
2026-01-02 23:35:14.76	76.77	43.52	-29.0	-31.4	12.7	7.62e-05	0	43	0	964689920	18	4721
2026-01-02 23:35:15.77	77.26	43.62	-29.1	-31.5	12.6	9.00e-05	0	43	0	967835648	18	4767
2026-01-02 23:35:16.77	77.74	43.73	-29.5	-32.1	11.9	2.01e-04	0	43	0	970981376	19	4842
2026-01-02 23:35:17.78	78.24	43.83	-29.6	-32.4	11.7	6.99e-04	0	43	0	974127104	19	4968
2026-01-02 23:35:18.78	78.73	43.93	-29.6	-32.4	11.7	4.68e-04	0	43	0	977272832	19	4975
2026-01-02 23:35:19.79	79.23	44.03	-29.7	-32.5	11.6	7.09e-04	0	43	0	980418560	19	4998
2026-01-02 23:35:20.80	79.73	44.12	-29.7	-32.7	11.5	8.20e-04	0	43	0	983564288	19	5064
2026-01-02 23:35:21.80	80.24	44.21	-29.9	-33.1	11.2	1.18e-03	0	43	0	986710016	19	5236
2026-01-02 23:35:22.80	80.74	44.30	-30.1	-33.4	10.7	2.38e-03	0	43	0	989855744	20	5225
2026-01-02 23:35:23.81	81.25	44.39	-30.0	-33.0	10.9	2.74e-03	0	43	0	993001472	20	5071
2026-01-02 23:35:24.81	81.76	44.48	-30.0	-33.0	10.9	2.15e-03	0	43	0	996147200	20	5091
2026-01-02 23:35:25.82	82.28	44.56	-30.0	-33.0	10.9	2.13e-03	0	43	0	999292928	20	5086
2026-01-02 23:35:26.83	82.80	44.65	-30.1	-33.3	10.7	3.08e-03	0	43	0	1002438656	20	5214
2026-01-02 23:35:27.84	83.33	44.73	-29.8	-32.4	11.3	1.25e-03	0	43	0	1005584384	20	4876
2026-01-02 23:35:28.85	83.85	44.80	-29.5	-31.6	11.9	5.08e-04	0	43	0	1008730112	20	4592
2026-01-02 23:35:29.86	84.38	44.88	-29.2	-31.4	12.3	2.19e-04	0	43	0	1011875840	19	4610
2026-01-02 23:35:30.86	84.90	44.95	-29.1	-31.1	12.5	1.11e-04	0	43	0	1015021568	19	4519
2026-01-02 23:35:31.87	85.44	45.02	-29.1	-31.1	12.5	2.10e-04	0	43	0	1018167296	19	4537
2026-01-02 23:35:32.87	85.97	45.09	-29.1	-31.0	12.6	1.19e-04	0	43	0	1021313024	19	4502
2026-01-02 23:35:33.88	86.51	45.15	-28.9	-30.4	13.0	4.88e-05	0	43	0	1024458752	19	4321
2026-01-02 23:35:34.88	87.04	45.21	-29.0	-30.7	12.7	4.50e-05	0	43	0	1027604480	19	4401
2026-01-02 23:35:35.89	87.58	45.27	-29.2	-31.4	12.4	2.41e-04	0	43	0	1030750208	19	4610
2026-01-02 23:35:36.90	88.13	45.33	-29.0	-30.9	12.7	1.04e-04	0	43	0	1033895936	19	4462
2026-01-02 23:35:37.90	88.67	45.38	-28.9	-30.6	12.9	2.01e-04	0	43	0	1037041664	19	4375
2026-01-02 23:35:38.91	89.21	45.43	-28.9	-31.0	13.0	2.60e-04	0	43	0	1040187392	18	4592
2026-01-02 23:35:39.92	89.76	45.48	-28.8	-30.8	13.1	2.51e-05	0	43	0	1043333120	18	4538
2026-01-02 23:35:40.92	90.31	45.53	-28.9	-31.1	12.9	1.28e-04	0	43	0	1046478848	18	4639
2026-01-02 23:35:41.93	90.86	45.57	-29.0	-31.2	12.8	1.40e-04	0	43	0	1049624576	18	4673
2026-01-02 23:35:42.93	91.41	45.61	-29.2	-31.9	12.3	1.31e-04	0	43	0	1052770304	18	4906
2026-01-02 23:35:43.94	91.96	45.65	-29.2	-31.9	12.3	8.44e-04	0	43	0	1055916032	18	4914
2026-01-02 23:35:44.95	92.52	45.68	-29.3	-32.0	12.3	1.40e-03	0	43	0	1059061760	18	4942
2026-01-02 23:35:45.95	93.07	45.71	-28.9	-31.1	12.8	8.39e-05	0	43	0	1062207488	18	4637
2026-01-02 23:35:46.95	93.63	45.74	-29.1	-31.7	12.6	1.11e-04	0	43	0	1065353216	18	4819
2026-01-02 23:35:47.96	94.19	45.77	-28.9	-30.9	12.9	3.15e-04	0	43	0	1068498944	18	4577
2026-01-02 23:35:48.96	94.74	45.79	-28.7	-30.6	13.1	2.67e-05	0	43	0	1071644672	18	4461
2026-01-02 23:35:49.96	95.30	45.81	-28.6	-30.3	13.3	9.99e-05	0	43	0	1074790400	18	4395
2026-01-02 23:35:50.96	95.85	45.82	-28.6	-30.4	13.3	1.83e-05	0	43	0	1077936128	18	4415
2026-01-02 23:35:51.97	96.42	45.84	-28.4	-29.8	13.6	1.06e-05	0	43	0	1081081856	18	4242
2026-01-02 23:35:52.97	96.97	45.85	-28.3	-30.0	13.8	2.21e-05	0	43	0	1084227584	17	4400
2026-01-02 23:35:53.98	97.54	45.86	-28.5	-30.6	13.4	1.39e-04	0	43	0	1086324736	17	4591
2026-01-02 23:35:54.98	98.09	45.86	-28.5	-30.7	13.4	1.98e-05	0	43	0	1089470464	17	4610
2026-01-02 23:35:55.99	98.66	45.86	-28.7	-31.0	13.2	2.21e-05	0	43	0	1092616192	17	4709
2026-01-02 23:35:56.99	99.22	45.86	-28.7	-31.1	13.2	2.36e-05	0	43	0	1095761920	17	4759
2026-01-02 23:35:58.00	99.78	45.86	-28.8	-31.2	13.1	2.51e-05	0	43	0	1098907648	17	4786
2026-01-02 23:35:59.00	100.34	45.85	-28.8	-31.4	13.0	3.05e-05	0	43	0	1103101952	17	4836
2026-01-02 23:36:00.01	100.90	45.84	-28.7	-31.1	13.1	7.32e-05	0	43	0	1106247680	17	4751
2026-01-02 23:36:01.01	101.46	45.83	-28.5	-30.5	13.5	1.29e-05	0	43	0	1108344832	17	4555
2026-01-02 23:36:02.01	102.02	45.81	-28.6	-30.8	13.3	1.06e-05	0	43	0	1111490560	17	4650
2026-01-02 23:36:03.02	102.58	45.80	-28.8	-31.4	13.0	3.05e-05	0	43	0	1114636288	17	4851
2026-01-02 23:36:04.03	103.14	45.77	-28.8	-31.2	13.1	3.50e-05	0	43	0	1117782016	17	4778
2026-01-02 23:36:05.03	103.69	45.75	-28.7	-31.0	13.2	3.12e-05	0	43	0	1120927744	17	4706
2026-01-02 23:36:06.04	104.25	45.72	-28.8	-31.3	13.1	2.21e-05	0	43	0	1124073472	17	4796
2026-01-02 23:36:07.04	104.81	45.69	-28.6	-30.7	13.4	1.44e-05	0	43	0	1127219200	17	4614
2026-01-02 23:36:08.05	105.36	45.66	-28.5	-30.6	13.5	1.60e-05	0	43	0	1130364928	17	4562
2026-01-02 23:36:09.05	105.91	45.62	-28.5	-30.6	13.5	8.30e-06	0	43	0	1133510656	17	4573
2026-01-02 23:36:10.06	106.47	45.58	-28.5	-30.5	13.5	9.10e-06	0	43	0	1136656384	17	4562
2026-01-02 23:36:11.06	107.02	45.54	-28.4	-30.4	13.5	1.29e-05	0	43	0	1139802112	17	4533
2026-01-02 23:36:12.07	107.57	45.50	-28.6	-30.7	13.4	8.30e-06	0	43	0	1142947840	17	4613
2026-01-02 23:36:13.07	108.11	45.45	-28.4	-30.3	13.6	1.22e-05	0	43	0	1146093568	17	4484
2026-01-02 23:36:14.07	108.66	45.40	-28.2	-29.8	14.0	6.10e-06	0	43	0	1149239296	17	4351
2026-01-02 23:36:15.08	109.20	45.35	-28.3	-30.0	13.8	6.80e-06	0	43	0	1152385024	17	4403
2026-01-02 23:36:16.08	109.74	45.29	-28.4	-30.4	13.5	9.10e-06	0	43	0	1155530752	17	4532
2026-01-02 23:36:17.09	110.29	45.23	-28.6	-30.8	13.3	9.90e-06	0	43	0	1158676480	17	4653
2026-01-02 23:36:18.10	110.83	45.17	-28.8	-31.4	12.9	3.35e-05	0	43	0	1161822208	17	4844
2026-01-02 23:36:19.10	111.36	45.11	-28.8	-31.2	13.1	2.44e-05	0	43	0	1164967936	17	4769
2026-01-02 23:36:20.11	111.90	45.04	-28.5	-30.7	13.4	1.83e-05	0	43	0	1168113664	17	4595
2026-01-02 23:36:21.11	112.43	44.98	-28.5	-30.6	13.5	1.06e-05	0	43	0	1171259392	17	4592
2026-01-02 23:36:22.11	112.95	44.91	-28.6	-30.9	13.2	1.75e-05	0	43	0	1174405120	17	4682
2026-01-02 23:36:23.11	113.48	44.83	-28.8	-31.3	13.0	2.28e-05	0	43	0	1177550848	17	4818
2026-01-02 23:36:24.12	114.01	44.76	-28.9	-31.5	12.9	4.50e-05	0	43	0	1180696576	17	4867
2026-01-02 23:36:25.13	114.53	44.68	-28.7	-31.2	13.1	3.50e-05	0	43	0	1183842304	17	4755
2026-01-02 23:36:26.14	115.05	44.60	-28.6	-30.9	13.2	2.44e-05	0	43	0	1186988032	17	4677
2026-01-02 23:36:27.14	115.57	44.51	-28.5	-30.6	13.4	1.29e-05	0	43	0	1190133760	17	4583
2026-01-02 23:36:28.15	116.09	44.43	-28.4	-30.4	13.6	1.29e-05	0	43	0	1193279488	17	4504
2026-01-02 23:36:29.16	116.60	44.34	-28.1	-29.6	14.0	2.20e-06	0	43	0	1196425216	17	4285
2026-01-02 23:36:30.16	117.11	44.25	-28.3	-30.0	13.8	7.00e-07	0	43	0	1199570944	17	4389
2026-01-02 23:36:31.16	117.61	44.16	-28.8	-31.2	13.0	1.52e-05	0	43	0	1202716672	17	4781
2026-01-02 23:36:32.16	118.11	44.06	-28.9	-31.5	12.9	3.43e-05	0	43	0	1205862400	17	4866
2026-01-02 23:36:33.17	118.61	43.96	-29.1	-31.5	12.7	9.30e-05	0	43	0	1209008128	18	4753
2026-01-02 23:36:34.18	119.11	43.86	-28.8	-30.8	13.0	3.50e-05	0	43	0	1212153856	18	4536
2026-01-02 23:36:35.18	119.61	43.76	-28.7	-30.5	13.2	2.59e-05	0	43	0	1215299584	18	4444
2026-01-02 23:36:36.19	120.10	43.66	-28.7	-30.5	13.2	2.05e-05	0	43	0	1218445312	18	4435
2026-01-02 23:36:37.19	120.58	43.56	-28.7	-30.5	13.2	1.90e-05	0	43	0	1221591040	18	4448
2026-01-02 23:36:38.19	121.07	43.45	-28.6	-30.3	13.3	1.83e-05	0	43	0	1224736768	18	4384
2026-01-02 23:36:39.20	121.55	43.34	-28.9	-30.9	13.0	2.21e-05	0	43	0	1227882496	18	4577
2026-01-02 23:36:40.20	122.03	43.23	-29.2	-31.8	12.4	1.42e-04	0	44	0	1231028224	18	4859
2026-01-02 23:36:41.21	122.50	43.12	-29.1	-31.5	12.6	9.00e-05	0	43	0	1234173952	18	4764
2026-01-02 23:36:42.22	122.98	43.00	-29.2	-31.8	12.5	1.05e-04	0	43	0	1237319680	18	4846
2026-01-02 23:36:43.22	123.44	42.89	-29.0	-31.3	12.7	1.27e-04	0	43	0	1240465408	18	4705
2026-01-02 23:36:44.23	123.91	42.77	-28.7	-30.5	13.2	3.28e-05	0	43	0	1243611136	18	4448
2026-01-02 23:36:45.23	124.37	42.65	-28.4	-29.9	13.6	7.60e-06	0	43	0	1246756864	18	4255
2026-01-02 23:36:46.24	124.83	42.53	-28.5	-30.0	13.6	1.06e-05	0	43	0	1249902592	18	4281
2026-01-02 23:36:47.25	125.29	42.40	-28.8	-30.8	13.0	3.12e-05	0	43	0	1253048320	18	4531
2026-01-02 23:36:48.25	125.74	42.28	-29.0	-31.2	12.7	5.56e-05	0	43	0	1256194048	18	4683
2026-01-02 23:36:49.26	126.19	42.15	-29.0	-31.3	12.6	1.04e-04	0	43	0	1259339776	18	4708
2026-01-02 23:36:50.27	126.63	42.02	-28.8	-30.9	12.9	5.56e-05	0	43	0	1262485504	18	4562
2026-01-02 23:36:51.27	127.07	41.90	-28.5	-30.1	13.4	1.98e-05	0	43	0	1265631232	18	4320
2026-01-02 23:36:52.28	127.51	41.77	-28.2	-29.9	13.8	1.50e-06	0	43	0	1268776960	17	4361
2026-01-02 23:36:53.28	127.94	41.63	-28.4	-30.3	13.7	1.06e-05	0	43	0	1271922688	17	4480
2026-01-02 23:36:54.28	128.37	41.50	-28.1	-29.7	13.9	3.00e-06	0	43	0	1275068416	17	4312
2026-01-02 23:36:55.29	128.80	41.37	-28.1	-29.5	14.0	2.20e-06	0	43	0	1278214144	17	4259
2026-01-02 23:36:56.30	129.23	41.23	-28.1	-29.6	14.0	3.00e-06	0	43	0	1281359872	17	4277
2026-01-02 23:36:57.30	129.65	41.10	-28.3	-30.0	13.7	1.22e-05	0	43	0	1284505600	17	4404
2026-01-02 23:36:58.30	130.06	40.96	-28.4	-30.3	13.6	2.59e-05	0	43	0	1287651328	17	4490
2026-01-02 23:36:59.30	130.47	40.82	-28.2	-29.8	13.8	5.30e-06	0	43	0	1290797056	17	4356
2026-01-02 23:37:00.31	130.88	40.68	-28.2	-29.8	13.9	1.50e-06	0	43	0	1293942784	17	4334
2026-01-02 23:37:01.31	131.29	40.54	-28.4	-30.3	13.6	8.30e-06	0	43	0	1297088512	17	4487
2026-01-02 23:37:02.32	131.69	40.40	-28.5	-30.6	13.4	2.21e-05	0	43	0	1300234240	17	4590
2026-01-02 23:37:03.32	132.09	40.25	-28.5	-30.7	13.3	1.83e-05	0	43	0	1303379968	17	4635
2026-01-02 23:37:04.33	132.49	40.11	-28.8	-31.5	12.8	4.73e-05	0	43	0	1306525696	17	4875
2026-01-02 23:37:05.33	132.88	39.97	-28.8	-31.5	12.8	6.56e-05	0	43	0	1309671424	17	4880
2026-01-02 23:37:06.34	133.27	39.82	-28.9	-31.7	12.7	7.85e-05	0	43	0	1312817152	17	4951
2026-01-02 23:37:07.35	133.66	39.67	-28.8	-31.4	12.9	6.25e-05	0	43	0	1315962880	17	4857
2026-01-02 23:37:08.35	134.04	39.53	-28.8	-31.4	12.9	1.16e-04	0	43	0	1319108608	17	4853
2026-01-02 23:37:09.36	134.42	39.38	-28.9	-31.6	12.8	4.42e-05	0	43	0	1322254336	17	4921
2026-01-02 23:37:10.37	134.79	39.23	-28.9	-31.1	12.7	2.08e-04	0	43	0	1325400064	18	4628
2026-01-02 23:37:11.38	135.17	39.08	-28.7	-30.5	13.1	1.70e-04	0	43	0	1328545792	18	4454
2026-01-02 23:37:12.39	135.54	38.93	-28.4	-29.9	13.5	1.90e-05	0	43	0	1331691520	18	4269
2026-01-02 23:37:13.40	135.90	38.77	-28.5	-30.1	13.4	2.38e-04	0	43	0	1334837248	18	4343
2026-01-02 23:37:14.40	136.26	38.62	-28.4	-29.8	13.5	3.86e-04	0	43	0	1337982976	18	4249
2026-01-02 23:37:15.40	136.62	38.47	-28.1	-29.6	13.9	4.50e-06	0	43	0	1341128704	17	4285
2026-01-02 23:37:16.41	136.98	38.32	-28.0	-29.4	14.1	1.69e-04	0	43	0	1344274432	17	4220
2026-01-02 23:37:17.41	137.33	38.17	-28.1	-29.7	13.9	3.80e-06	0	43	0	1347420160	17	4311
2026-01-02 23:37:18.41	137.67	38.01	-28.0	-29.4	14.1	6.10e-06	0	43	0	1350565888	17	4235
2026-01-02 23:37:19.41	138.02	37.86	-27.7	-29.3	14.4	3.13e-04	0	43	0	1353711616	16	4320
2026-01-02 23:37:20.42	138.36	37.71	-27.8	-29.4	14.3	4.20e-04	0	43	0	1356857344	16	4340
2026-01-02 23:37:21.43	138.70	37.55	-27.7	-29.2	14.5	7.00e-07	0	43	0	1360003072	16	4290
2026-01-02 23:37:22.43	139.04	37.40	-27.8	-29.4	14.4	0.00e+00	0	43	0	1363148800	16	4337
2026-01-02 23:37:23.44	139.37	37.24	-27.8	-29.4	14.3	5.21e-04	0	43	0	1366294528	16	4343
2026-01-02 23:37:24.44	139.70	37.09	-27.6	-28.9	14.5	2.20e-06	0	43	0	1369440256	16	4187
2026-01-02 23:37:25.45	140.03	36.93	-27.2	-28.6	14.9	2.38e-04	0	43	0	1372585984	15	4235
2026-01-02 23:37:26.46	140.35	36.77	-27.3	-28.9	14.7	4.57e-05	0	43	0	1375731712	15	4314
2026-01-02 23:37:27.46	140.67	36.62	-27.3	-28.8	14.8	0.00e+00	0	43	0	1378877440	15	4268
2026-01-02 23:37:28.47	140.99	36.46	-27.0	-28.7	15.1	0.00e+00	0	43	0	1382023168	14	4353
2026-01-02 23:37:29.47	141.30	36.30	-27.0	-28.7	15.1	7.00e-07	0	43	0	1385168896	14	4367
2026-01-02 23:37:30.48	141.62	36.14	-27.0	-28.7	15.1	0.00e+00	0	43	0	1388314624	14	4355
2026-01-02 23:37:31.48	141.92	35.99	-27.0	-28.5	15.2	0.00e+00	0	43	0	1391460352	14	4317
2026-01-02 23:37:32.49	142.23	35.83	-27.1	-28.8	15.1	0.00e+00	0	43	0	1394606080	14	4385
2026-01-02 23:37:33.49	142.53	35.67	-27.0	-28.6	15.1	0.00e+00	0	43	0	1397751808	14	4345
2026-01-02 23:37:34.49	142.83	35.51	-27.0	-28.7	15.1	0.00e+00	0	43	0	1400897536	14	4359
2026-01-02 23:37:35.49	143.13	35.36	-27.3	-29.3	14.8	2.98e-03	0	43	0	1404043264	14	4552
2026-01-02 23:37:36.49	143.42	35.20	-27.4	-29.6	14.6	7.00e-07	0	43	0	1407188992	14	4627
2026-01-02 23:37:37.50	143.71	35.04	-27.3	-29.4	14.7	0.00e+00	0	43	0	1410334720	14	4581
2026-01-02 23:37:38.51	144.00	34.88	-27.4	-29.5	14.7	0.00e+00	0	43	0	1413480448	14	4599
2026-01-02 23:37:39.52	144.29	34.72	-27.2	-29.1	14.9	0.00e+00	0	43	0	1416626176	14	4480
2026-01-02 23:37:40.52	144.57	34.57	-26.9	-28.5	15.2	0.00e+00	0	43	0	1419771904	14	4318
2026-01-02 23:37:41.52	144.85	34.41	-26.8	-28.8	15.4	0.00e+00	0	43	0	1422917632	13	4494
2026-01-02 23:37:42.53	145.13	34.25	-26.9	-29.0	15.1	7.00e-07	0	43	0	1426063360	13	4570
2026-01-02 23:37:43.54	145.41	34.09	-27.0	-28.8	15.1	0.00e+00	0	43	0	1429209088	14	4388
2026-01-02 23:37:44.55	145.68	33.94	-27.2	-29.2	14.8	0.00e+00	0	43	0	1432354816	14	4499
2026-01-02 23:37:45.55	145.95	33.78	-27.3	-29.4	14.7	0.00e+00	0	43	0	1435500544	14	4558
2026-01-02 23:37:46.55	146.22	33.62	-27.4	-29.6	14.5	1.50e-06	0	43	0	1438646272	14	4637
2026-01-02 23:37:47.56	146.48	33.46	-27.3	-29.4	14.6	1.50e-06	0	43	0	1441792000	14	4578
2026-01-02 23:37:48.57	146.75	33.31	-27.3	-29.3	14.7	0.00e+00	0	43	0	1444937728	14	4541
2026-01-02 23:37:49.58	147.01	33.15	-27.1	-29.0	14.9	0.00e+00	0	43	0	1448083456	14	4448
2026-01-02 23:37:50.59	147.27	32.99	-27.2	-29.1	14.8	0.00e+00	0	43	0	1451229184	14	4496
2026-01-02 23:37:51.59	147.52	32.84	-27.3	-29.3	14.7	7.00e-07	0	43	0	1454374912	14	4539
2026-01-02 23:37:52.60	147.77	32.68	-27.3	-29.4	14.7	0.00e+00	0	43	0	1457520640	14	4578
2026-01-02 23:37:53.60	148.02	32.52	-27.1	-29.0	14.9	0.00e+00	0	43	0	1460666368	14	4451
2026-01-02 23:37:54.60	148.27	32.37	-26.9	-28.5	15.2	0.00e+00	0	43	0	1463812096	14	4328
2026-01-02 23:37:55.60	148.51	32.21	-27.0	-29.1	15.1	0.00e+00	0	43	0	1466957824	13	4610
2026-01-02 23:37:56.61	148.76	32.06	-26.8	-28.3	15.3	0.00e+00	0	43	0	1470103552	14	4246
2026-01-02 23:37:57.62	149.00	31.90	-26.8	-28.1	15.4	0.00e+00	0	43	0	1473249280	14	4206
2026-01-02 23:37:58.62	149.24	31.75	-26.8	-28.7	15.4	0.00e+00	0	43	0	1476395008	13	4468
2026-01-02 23:37:59.62	149.48	31.59	-26.9	-28.9	15.2	0.00e+00	0	43	0	1479540736	13	4550
2026-01-02 23:38:00.63	149.71	31.44	-26.8	-28.7	15.3	0.00e+00	0	43	0	1482686464	13	4477
2026-01-02 23:38:01.63	149.94	31.28	-26.6	-28.4	15.5	0.00e+00	0	43	0	1485832192	13	4382
2026-01-02 23:38:02.63	150.17	31.13	-26.6	-28.2	15.5	0.00e+00	0	43	0	1488977920	13	4342
2026-01-02 23:38:03.63	150.40	30.98	-26.5	-28.0	15.7	0.00e+00	0	43	0	1492123648	13	4277
2026-01-02 23:38:04.64	150.63	30.82	-26.4	-27.9	15.8	0.00e+00	0	43	0	1495269376	13	4243
2026-01-02 23:38:05.65	150.85	30.67	-26.5	-28.1	15.7	0.00e+00	0	43	0	1498415104	13	4302
2026-01-02 23:38:06.65	151.07	30.52	-26.6	-28.3	15.5	0.00e+00	0	43	0	1501560832	13	4370
2026-01-02 23:38:07.66	151.29	30.37	-26.6	-28.1	15.6	0.00e+00	0	43	0	1504706560	13	4325
2026-01-02 23:38:08.66	151.51	30.22	-26.5	-28.1	15.6	0.00e+00	0	43	0	1507852288	13	4310
2026-01-02 23:38:09.67	151.73	30.06	-26.4	-27.8	15.8	0.00e+00	0	43	0	1510998016	13	4213
2026-01-02 23:38:10.68	151.94	29.91	-26.5	-28.0	15.6	0.00e+00	0	43	0	1514143744	13	4287
2026-01-02 23:38:11.68	152.15	29.76	-26.5	-28.1	15.6	3.00e-06	0	43	0	1517289472	13	4300
2026-01-02 23:38:12.68	152.36	29.61	-26.5	-28.0	15.7	0.00e+00	0	43	0	1520435200	13	4295
2026-01-02 23:38:13.69	152.57	29.46	-26.6	-28.3	15.5	0.00e+00	0	43	0	1523580928	13	4364
2026-01-02 23:38:14.70	152.78	29.31	-26.5	-28.0	15.6	6.80e-06	0	43	0	1526726656	13	4289
2026-01-02 23:38:15.70	152.98	29.16	-26.5	-27.9	15.7	0.00e+00	0	43	0	1529872384	13	4268
2026-01-02 23:38:16.71	153.18	29.01	-26.4	-27.9	15.7	0.00e+00	0	43	0	1533018112	13	4247
2026-01-02 23:38:17.71	153.38	28.87	-26.3	-27.5	15.9	9.90e-06	0	43	0	1536163840	13	4163
2026-01-02 23:38:18.72	153.58	28.72	-26.4	-28.4	15.0	0.00e+00	0	43	0	1539309568	12	4524
2026-01-02 23:38:19.73	153.78	28.57	-26.3	-28.0	14.2	0.00e+00	0	43	0	1542455296	12	4400
2026-01-02 23:38:20.73	153.98	28.42	-26.5	-28.5	15.6	9.10e-06	0	43	0	1545601024	12	4530
2026-01-02 23:38:21.74	154.17	28.28	-26.3	-27.7	15.6	0.00e+00	0	43	0	1548746752	13	4202
2026-01-02 23:38:22.75	154.36	28.13	-26.3	-28.1	15.8	0.00e+00	0	43	0	1551892480	12	4419
2026-01-02 23:38:23.76	154.55	27.98	-26.3	-28.0	15.9	0.00e+00	0	43	0	1555038208	12	4408
2026-01-02 23:38:24.76	154.74	27.84	-26.4	-28.3	15.7	2.86e-03	0	43	0	1558183936	12	4481
2026-01-02 23:38:25.77	154.93	27.69	-26.2	-27.9	15.9	0.00e+00	0	43	0	1561329664	12	4367
2026-01-02 23:38:26.78	155.12	27.55	-26.1	-27.7	16.0	0.00e+00	0	43	0	1564475392	12	4310
2026-01-02 23:38:27.79	155.30	27.40	-26.1	-27.7	16.0	0.00e+00	0	43	0	1567621120	12	4326
2026-01-02 23:38:28.79	155.48	27.26	-26.5	-28.5	15.6	3.36e-03	0	43	0	1570766848	12	4532
2026-01-02 23:38:29.80	155.66	27.12	-26.4	-27.8	15.7	0.00e+00	0	43	0	1573912576	13	4243
2026-01-02 23:38:30.80	155.84	26.97	-26.2	-27.8	16.0	3.28e-03	0	43	0	1577058304	12	4338
2026-01-02 23:38:31.80	156.02	26.83	-26.3	-28.1	15.8	0.00e+00	0	43	0	1580204032	12	4433
2026-01-02 23:38:32.80	156.19	26.69	-26.5	-28.5	15.6	0.00e+00	0	43	0	1583349760	12	4560
2026-01-02 23:38:33.81	156.37	26.55	-26.5	-28.0	15.6	3.37e-03	0	43	0	1586495488	13	4288
2026-01-02 23:38:34.82	156.54	26.41	-26.4	-28.4	15.6	3.24e-03	0	43	0	1589641216	12	4530
2026-01-02 23:38:35.82	156.71	26.27	-26.4	-28.3	15.7	0.00e+00	0	43	0	1592786944	12	4486
2026-01-02 23:38:36.83	156.88	26.13	-26.3	-28.2	15.8	7.00e-07	0	43	0	1595932672	12	4458
2026-01-02 23:38:37.84	157.05	25.99	-26.4	-28.4	15.7	3.00e-03	0	43	0	1599078400	12	4505
2026-01-02 23:38:38.84	157.22	25.85	-26.2	-27.9	15.9	0.00e+00	0	43	0	1602224128	12	4382
2026-01-02 23:38:39.85	157.38	25.71	-26.1	-27.7	16.0	3.02e-03	0	43	0	1605369856	12	4318
2026-01-02 23:38:40.86	157.55	25.57	-26.1	-27.6	16.1	3.47e-03	0	43	0	1608515584	12	4281
2026-01-02 23:38:41.86	157.71	25.44	-26.0	-27.3	16.2	0.00e+00	0	43	0	1611661312	12	4208
2026-01-02 23:38:42.87	157.87	25.30	-25.9	-27.2	16.3	0.00e+00	0	43	0	1614807040	12	4185
2026-01-02 23:38:43.87	158.03	25.16	-25.9	-27.3	16.2	3.49e-03	0	43	0	1617952768	12	4205
2026-01-02 23:38:44.88	158.19	25.03	-25.9	-27.3	16.2	0.00e+00	0	43	0	1621098496	12	4200
2026-01-02 23:38:45.89	158.35	24.89	-26.4	-28.2	15.7	3.64e-03	0	43	0	1624244224	12	4470
2026-01-02 23:38:46.89	158.50	24.75	-26.2	-28.0	15.9	3.27e-03	0	43	0	1627389952	12	4390
2026-01-02 23:38:47.89	158.66	24.62	-26.0	-27.5	16.1	0.00e+00	0	43	0	1630535680	12	4254
2026-01-02 23:38:48.90	158.81	24.49	-26.0	-27.4	16.2	3.32e-03	0	43	0	1633681408	12	4244
2026-01-02 23:38:49.91	158.97	24.35	-26.0	-27.4	16.2	3.54e-03	0	43	0	1636827136	12	4234
2026-01-02 23:38:50.92	159.12	24.22	-26.2	-27.9	15.9	0.00e+00	0	43	0	1639972864	12	4387
2026-01-02 23:38:51.92	159.27	24.09	-26.2	-28.0	15.8	3.74e-03	0	43	0	1643118592	12	4393
2026-01-02 23:38:52.93	159.42	23.95	-26.5	-28.1	15.5	0.00e+00	0	43	0	1646264320	13	4316
2026-01-02 23:38:53.94	159.56	23.82	-26.4	-27.8	15.6	0.00e+00	0	43	0	1649410048	13	4247
2026-01-02 23:38:54.94	159.71	23.69	-26.3	-28.2	15.7	0.00e+00	0	43	0	1652555776	12	4450
2026-01-02 23:38:55.94	159.85	23.56	-26.4	-28.5	15.5	3.27e-03	0	43	0	1655701504	12	4534
2026-01-02 23:38:56.95	160.00	23.43	-26.6	-28.2	15.4	0.00e+00	0	43	0	1658847232	13	4355
2026-01-02 23:38:57.95	160.14	23.30	-26.9	-28.9	15.0	0.00e+00	0	43	0	1661992960	13	4558
2026-01-02 23:38:58.95	160.28	23.17	-26.7	-28.6	15.2	0.00e+00	0	43	0	1665138688	13	4454
2026-01-02 23:38:59.96	160.42	23.04	-26.4	-27.9	15.5	0.00e+00	0	43	0	1668284416	13	4279
2026-01-02 23:39:00.96	160.56	22.91	-26.4	-28.3	15.6	0.00e+00	0	43	0	1671430144	12	4492
2026-01-02 23:39:01.97	160.70	22.79	-26.6	-28.4	15.3	0.00e+00	0	43	0	1674575872	13	4403
2026-01-02 23:39:02.96	160.83	22.66	-26.9	-29.1	14.9	0.00e+00	0	43	0	1677721600	13	4602
2026-01-02 23:39:03.96	160.97	22.53	-26.7	-28.6	15.2	0.00e+00	0	43	0	1680867328	13	4458
2026-01-02 23:39:04.97	161.10	22.41	-26.6	-28.3	15.3	0.00e+00	0	43	0	1684013056	13	4382
2026-01-02 23:39:05.98	161.24	22.28	-26.6	-28.4	15.3	0.00e+00	0	43	0	1687158784	13	4420
2026-01-02 23:39:06.98	161.37	22.15	-26.8	-28.8	15.1	0.00e+00	0	43	0	1690304512	13	4516
2026-01-02 23:39:07.98	161.50	22.03	-26.9	-29.0	15.0	0.00e+00	0	43	0	1693450240	13	4579
2026-01-02 23:39:08.99	161.63	21.90	-27.1	-29.0	14.7	0.00e+00	0	43	0	1696595968	14	4467
2026-01-02 23:39:10.00	161.76	21.78	-27.2	-29.1	14.6	0.00e+00	0	43	0	1699741696	14	4514
2026-01-02 23:39:11.01	161.89	21.66	-27.3	-29.4	14.5	0.00e+00	0	43	0	1702887424	14	4593
2026-01-02 23:39:12.01	162.02	21.53	-27.3	-29.4	14.5	7.00e-07	0	43	0	1706033152	14	4585
2026-01-02 23:39:13.01	162.15	21.41	-27.5	-29.4	14.1	1.50e-06	0	43	0	1709178880	15	4493
2026-01-02 23:39:14.02	162.27	21.29	-27.2	-29.2	14.6	7.00e-07	0	43	0	1712324608	14	4545
2026-01-02 23:39:15.02	162.40	21.17	-26.9	-28.6	14.9	0.00e+00	0	43	0	1715470336	14	4356
2026-01-02 23:39:16.02	162.52	21.05	-26.7	-28.6	15.1	0.00e+00	0	43	0	1718616064	13	4483
2026-01-02 23:39:17.03	162.64	20.92	-26.7	-28.5	15.2	0.00e+00	0	43	0	1721761792	13	4455
2026-01-02 23:39:18.04	162.77	20.80	-26.8	-28.7	15.1	0.00e+00	0	43	0	1724907520	13	4504
2026-01-02 23:39:19.04	162.89	20.68	-26.5	-28.2	15.4	0.00e+00	0	43	0	1728053248	13	4350
2026-01-02 23:39:20.05	163.01	20.56	-26.5	-28.1	15.4	0.00e+00	0	43	0	1731198976	13	4318
2026-01-02 23:39:21.05	163.13	20.44	-26.5	-28.2	15.4	0.00e+00	0	43	0	1734344704	13	4365
2026-01-02 23:39:22.06	163.25	20.32	-26.8	-28.7	15.0	0.00e+00	0	43	0	1737490432	13	4514
2026-01-02 23:39:23.07	163.36	20.21	-26.5	-28.1	15.4	0.00e+00	0	43	0	1740636160	13	4330
2026-01-02 23:39:24.07	163.48	20.09	-26.4	-27.8	15.5	0.00e+00	0	43	0	1743781888	13	4240
2026-01-02 23:39:25.08	163.60	19.97	-26.3	-28.3	15.6	0.00e+00	0	43	0	1746927616	12	4490
2026-01-02 23:39:26.09	163.71	19.85	-26.4	-28.3	15.5	0.00e+00	0	43	0	1750073344	12	4512
2026-01-02 23:39:27.09	163.83	19.74	-26.4	-28.4	15.5	0.00e+00	0	43	0	1753219072	12	4545
2026-01-02 23:39:28.09	163.94	19.62	-26.2	-27.9	15.7	0.00e+00	0	43	0	1756364800	12	4398
2026-01-02 23:39:29.10	164.05	19.51	-26.1	-27.7	15.9	7.60e-06	0	43	0	1759510528	12	4321
2026-01-02 23:39:30.10	164.16	19.39	-26.2	-27.8	15.8	0.00e+00	0	43	0	1762656256	12	4357
2026-01-02 23:39:31.11	164.27	19.28	-26.0	-27.6	15.9	0.00e+00	0	43	0	1765801984	12	4292
2026-01-02 23:39:32.12	164.38	19.16	-26.0	-27.5	16.0	0.00e+00	0	43	0	1768947712	12	4280
2026-01-02 23:39:33.12	164.49	19.05	-26.1	-27.6	15.9	0.00e+00	0	43	0	1772093440	12	4309
2026-01-02 23:39:34.14	164.60	18.93	-26.1	-27.6	15.9	0.00e+00	0	43	0	1775239168	12	4301
2026-01-02 23:39:35.14	164.71	18.82	-26.2	-27.9	15.7	0.00e+00	0	43	0	1778384896	12	4394
2026-01-02 23:39:36.15	164.82	18.71	-26.2	-27.9	15.7	0.00e+00	0	43	0	1781530624	12	4382
2026-01-02 23:39:37.15	164.92	18.59	-26.4	-28.4	15.5	0.00e+00	0	43	0	1784676352	12	4520
2026-01-02 23:39:38.16	165.03	18.48	-26.4	-28.4	15.4	0.00e+00	0	43	0	1787822080	12	4527
2026-01-02 23:39:39.16	165.13	18.37	-26.7	-28.5	15.1	0.00e+00	0	43	0	1790967808	13	4440
2026-01-02 23:39:40.17	165.24	18.26	-26.9	-29.1	14.8	0.00e+00	0	43	0	1794113536	13	4610
2026-01-02 23:39:41.18	165.34	18.15	-26.8	-28.9	14.9	4.50e-06	0	43	0	1797259264	13	4548
2026-01-02 23:39:42.18	165.44	18.04	-26.8	-28.9	14.9	0.00e+00	0	43	0	1800404992	13	4567
2026-01-02 23:39:43.18	165.54	17.93	-27.2	-29.1	14.5	7.00e-07	0	43	0	1803550720	14	4513
2026-01-02 23:39:44.19	165.65	17.82	-27.5	-29.8	14.1	3.80e-06	0	44	0	1806696448	14	4728
2026-01-02 23:39:45.20	165.75	17.71	-27.4	-29.6	14.2	2.20e-06	0	43	0	1809842176	14	4663
2026-01-02 23:39:46.20	165.85	17.60	-27.4	-29.8	14.1	1.50e-06	0	43	0	1812987904	14	4710
2026-01-02 23:39:47.21	165.95	17.49	-27.6	-29.6	13.9	3.00e-06	0	43	0	1816133632	15	4553
2026-01-02 23:39:48.21	166.04	17.39	-27.8	-30.1	13.6	9.10e-06	0	43	0	1819279360	15	4720
2026-01-02 23:39:49.22	166.14	17.28	-27.5	-29.5	13.9	3.51e-03	0	43	0	1822425088	15	4528
2026-01-02 23:39:50.22	166.24	17.17	-27.7	-30.0	13.7	1.50e-06	0	43	0	1825570816	15	4675
2026-01-02 23:39:51.22	166.33	17.06	-27.8	-30.2	13.5	9.10e-06	0	43	0	1828716544	15	4745
2026-01-02 23:39:52.23	166.43	16.96	-27.5	-29.5	13.9	3.80e-06	0	43	0	1831862272	15	4534
2026-01-02 23:39:53.25	166.53	16.85	-27.5	-29.5	13.9	2.20e-06	0	43	0	1833959424	15	4514
2026-01-02 23:39:54.26	166.62	16.74	-27.3	-29.6	14.2	3.94e-03	0	43	0	1838153728	14	4658
2026-01-02 23:39:55.26	166.71	16.64	-27.4	-29.8	14.1	3.84e-03	0	43	0	1841299456	14	4718
2026-01-02 23:39:56.26	166.81	16.54	-27.5	-29.5	13.9	2.15e-04	0	43	0	1844445184	15	4522
2026-01-02 23:39:57.27	166.90	16.43	-27.7	-30.0	13.6	7.60e-06	0	43	0	1847590912	15	4684
2026-01-02 23:39:58.27	166.99	16.33	-27.3	-29.1	14.2	1.50e-06	0	43	0	1850736640	15	4394
2026-01-02 23:39:59.28	167.08	16.22	-27.0	-28.9	14.6	1.86e-04	0	43	0	1853882368	14	4444
2026-01-02 23:40:00.28	167.17	16.12	-26.9	-28.5	14.8	3.39e-03	0	43	0	1857028096	14	4329
2026-01-02 23:40:01.29	167.26	16.02	-26.7	-28.6	15.0	3.92e-03	0	43	0	1859125248	13	4478
2026-01-02 23:40:02.29	167.35	15.92	-26.6	-28.4	15.0	0.00e+00	0	43	0	1862270976	13	4432
2026-01-02 23:40:03.30	167.44	15.81	-26.7	-28.6	14.9	0.00e+00	0	43	0	1865416704	13	4491
2026-01-02 23:40:04.30	167.53	15.71	-26.8	-28.8	14.8	3.62e-03	0	43	0	1869611008	13	4538
2026-01-02 23:40:05.31	167.62	15.61	-26.8	-28.8	14.8	2.14e-04	0	43	0	1872756736	13	4527
2026-01-02 23:40:06.32	167.71	15.51	-26.8	-28.8	14.8	3.68e-03	0	43	0	1875902464	13	4529
2026-01-02 23:40:07.32	167.79	15.41	-26.9	-29.1	14.6	3.40e-03	0	43	0	1879048192	13	4619
2026-01-02 23:40:08.32	167.88	15.31	-26.9	-29.0	14.7	2.34e-04	0	43	0	1881145344	13	4605
2026-01-02 23:40:09.33	167.96	15.21	-26.7	-28.6	14.9	3.35e-03	0	43	0	1884291072	13	4474
2026-01-02 23:40:10.34	168.05	15.11	-26.6	-28.5	15.0	3.84e-03	0	43	0	1887436800	13	4457
2026-01-02 23:40:11.35	168.13	15.01	-26.7	-28.7	14.9	2.35e-04	0	43	0	1890582528	13	4514
2026-01-02 23:40:12.35	168.22	14.91	-26.7	-28.7	14.9	3.89e-03	0	43	0	1894776832	13	4517
2026-01-02 23:40:13.36	168.30	14.81	-26.8	-29.0	14.7	3.74e-03	0	43	0	1897922560	13	4598
2026-01-02 23:40:14.37	168.39	14.71	-26.9	-29.2	14.6	0.00e+00	0	43	0	1901068288	13	4662
2026-01-02 23:40:15.37	168.47	14.61	-26.8	-29.0	14.7	3.69e-03	0	43	0	1904214016	13	4606
2026-01-02 23:40:16.38	168.55	14.52	-26.8	-29.0	14.7	3.38e-03	0	43	0	1906311168	13	4602
2026-01-02 23:40:17.38	168.63	14.42	-26.9	-29.1	14.6	2.37e-04	0	43	0	1909456896	13	4638
2026-01-02 23:40:18.39	168.71	14.32	-26.9	-29.2	14.5	0.00e+00	0	43	0	1912602624	13	4665
2026-01-02 23:40:19.40	168.79	14.23	-26.9	-29.1	14.6	0.00e+00	0	43	0	1915748352	13	4636
2026-01-02 23:40:20.40	168.87	14.13	-26.9	-29.1	14.6	0.00e+00	0	43	0	1919942656	13	4628
2026-01-02 23:40:21.41	168.95	14.03	-27.0	-29.3	14.5	4.26e-03	0	43	0	1923088384	13	4697
2026-01-02 23:40:22.41	169.03	13.94	-27.0	-28.8	14.5	4.34e-03	0	43	0	1926234112	14	4445
2026-01-02 23:40:23.42	169.11	13.84	-27.0	-28.8	14.5	0.00e+00	0	44	0	1929379840	14	4448
2026-01-02 23:40:24.43	169.19	13.75	-27.0	-28.9	14.4	0.00e+00	0	43	0	1931476992	14	4480
2026-01-02 23:40:25.44	169.27	13.65	-27.1	-29.0	14.4	7.00e-07	0	43	0	1934622720	14	4510
2026-01-02 23:40:26.44	169.34	13.56	-27.1	-29.1	14.3	7.00e-07	0	43	0	1937768448	14	4534
2026-01-02 23:40:27.45	169.42	13.46	-27.1	-29.2	14.3	7.00e-07	0	43	0	1941962752	14	4550
2026-01-02 23:40:28.46	169.49	13.37	-27.1	-29.1	14.3	7.00e-07	0	43	0	1945108480	14	4520
2026-01-02 23:40:29.46	169.57	13.28	-27.1	-29.2	14.3	3.00e-06	0	43	0	1948254208	14	4548
2026-01-02 23:40:30.46	169.64	13.19	-27.1	-29.2	14.3	2.20e-06	0	43	0	1951399936	14	4544
2026-01-02 23:40:31.46	169.72	13.09	-27.2	-29.3	14.2	7.00e-07	0	43	0	1953497088	14	4573
2026-01-02 23:40:32.46	169.79	13.00	-27.1	-29.1	14.3	2.20e-06	0	43	0	1956642816	14	4518
2026-01-02 23:40:33.47	169.87	12.91	-27.2	-29.2	14.2	1.50e-06	0	43	0	1959788544	14	4566
2026-01-02 23:40:34.48	169.94	12.82	-27.2	-29.4	14.1	1.50e-06	0	43	0	1962934272	14	4610
2026-01-02 23:40:35.48	170.01	12.73	-27.2	-29.3	14.1	1.50e-06	0	43	0	1966080000	14	4595
2026-01-02 23:40:36.49	170.09	12.63	-27.2	-29.3	14.1	1.50e-06	0	43	0	1969225728	14	4587
2026-01-02 23:40:37.50	170.16	12.54	-27.2	-29.4	14.1	4.50e-06	0	43	0	1972371456	14	4610
2026-01-02 23:40:38.50	170.23	12.45	-27.2	-29.4	14.1	7.00e-07	0	43	0	1976565760	14	4617
2026-01-02 23:40:39.51	170.30	12.36	-27.3	-29.5	14.0	3.80e-06	0	43	0	1978662912	14	4648
2026-01-02 23:40:40.52	170.37	12.27	-27.3	-29.5	14.0	0.00e+00	0	43	0	1981808640	14	4668
2026-01-02 23:40:41.53	170.44	12.18	-27.4	-29.8	13.9	3.80e-06	0	43	0	1984954368	14	4735
2026-01-02 23:40:42.53	170.51	12.09	-27.3	-29.5	14.0	7.00e-07	0	43	0	1988100096	14	4658
2026-01-02 23:40:43.53	170.58	12.00	-27.3	-29.5	14.0	2.21e-05	0	43	0	1991245824	14	4647
2026-01-02 23:40:44.53	170.65	11.92	-27.3	-29.6	14.0	4.50e-06	0	43	0	1994391552	14	4672
2026-01-02 23:40:45.55	170.72	11.83	-27.4	-29.7	13.9	3.00e-06	0	43	0	1997537280	14	4724
2026-01-02 23:40:46.55	170.79	11.74	-27.4	-29.8	13.8	6.10e-06	0	43	0	2000683008	14	4752
2026-01-02 23:40:47.55	170.86	11.65	-27.4	-29.8	13.8	4.50e-06	0	43	0	2003828736	14	4746
2026-01-02 23:40:48.56	170.92	11.56	-27.4	-29.9	13.8	5.30e-06	0	43	0	2006974464	14	4772
2026-01-02 23:40:49.56	170.99	11.48	-27.4	-29.9	13.8	2.59e-05	0	43	0	2010120192	14	4773
2026-01-02 23:40:50.57	171.06	11.39	-27.4	-29.9	13.7	2.20e-06	0	43	0	2013265920	14	4779
2026-01-02 23:40:51.58	171.13	11.30	-27.5	-29.4	13.7	5.30e-06	0	43	0	2016411648	15	4531
2026-01-02 23:40:52.58	171.19	11.22	-27.5	-29.6	13.6	2.20e-06	0	43	0	2019557376	15	4577
2026-01-02 23:40:53.59	171.26	11.13	-27.5	-29.6	13.6	7.60e-06	0	43	0	2022703104	15	4569
2026-01-02 23:40:54.60	171.32	11.04	-27.5	-29.5	13.6	3.80e-06	0	43	0	2025848832	15	4542
2026-01-02 23:40:55.60	171.39	10.96	-27.6	-29.8	13.5	2.51e-05	0	43	0	2028994560	15	4643
2026-01-02 23:40:56.61	171.45	10.87	-27.5	-29.7	13.5	8.30e-06	0	43	0	2032140288	15	4599
2026-01-02 23:40:57.62	171.52	10.79	-27.6	-29.8	13.4	8.30e-06	0	43	0	2035286016	15	4649
2026-01-02 23:40:58.62	171.58	10.70	-27.7	-29.9	13.4	3.28e-05	0	43	0	2038431744	15	4676
2026-01-02 23:40:59.63	171.65	10.62	-27.6	-29.8	13.4	2.13e-05	0	43	0	2041577472	15	4644
2026-01-02 23:41:00.63	171.71	10.53	-27.6	-29.9	13.4	1.44e-05	0	43	0	2044723200	15	4660
2026-01-02 23:41:01.64	171.77	10.45	-27.6	-29.9	13.4	4.19e-05	0	43	0	2047868928	15	4654
2026-01-02 23:41:02.65	171.83	10.36	-27.7	-30.0	13.3	1.90e-05	0	43	0	2051014656	15	4709
2026-01-02 23:41:03.65	171.90	10.28	-27.7	-30.0	13.3	1.67e-05	0	43	0	2054160384	15	4714
2026-01-02 23:41:04.66	171.96	10.20	-27.7	-30.1	13.2	2.82e-05	0	43	0	2057306112	15	4734
2026-01-02 23:41:05.67	172.02	10.11	-27.7	-30.0	13.3	1.29e-05	0	43	0	2060451840	15	4706
2026-01-02 23:41:06.67	172.08	10.03	-27.7	-30.1	13.2	2.21e-05	0	43	0	2063597568	15	4717
2026-01-02 23:41:07.67	172.14	9.95	-27.7	-30.0	13.3	2.13e-05	0	43	0	2066743296	15	4707
2026-01-02 23:41:08.67	172.20	9.87	-27.7	-29.9	13.3	2.13e-05	0	43	0	2069889024	15	4685
2026-01-02 23:41:09.68	172.26	9.78	-27.7	-30.0	13.2	2.44e-05	0	43	0	2073034752	15	4712
2026-01-02 23:41:10.68	172.32	9.70	-27.7	-30.1	13.2	4.80e-05	0	43	0	2076180480	15	4731
2026-01-02 23:41:11.68	172.38	9.62	-27.7	-30.1	13.2	2.36e-05	0	43	0	2079326208	15	4730
2026-01-02 23:41:12.69	172.44	9.54	-27.8	-30.2	13.1	2.67e-05	0	43	0	2082471936	15	4769
2026-01-02 23:41:13.70	172.50	9.46	-27.9	-30.5	13.0	3.89e-05	0	43	0	2085617664	15	4854
2026-01-02 23:41:14.70	172.56	9.38	-27.8	-30.4	13.0	3.58e-05	0	43	0	2088763392	15	4838
2026-01-02 23:41:15.70	172.62	9.30	-27.8	-30.4	13.0	3.89e-05	0	43	0	2091909120	15	4830
2026-01-02 23:41:16.71	172.68	9.22	-28.3	-30.9	12.6	5.72e-05	0	43	0	2095054848	16	4865
2026-01-02 23:41:17.72	172.73	9.14	-28.1	-30.6	12.8	8.01e-05	0	43	0	2098200576	16	4758
2026-01-02 23:41:18.72	172.79	9.06	-27.9	-30.1	13.1	4.11e-05	0	43	0	2101346304	16	4621
2026-01-02 23:41:19.72	172.85	8.98	-27.8	-30.2	13.1	3.73e-05	0	43	0	2104492032	15	4758
2026-01-02 23:41:20.73	172.91	8.90	-27.9	-30.4	13.0	5.11e-05	0	43	0	2107637760	15	4846
2026-01-02 23:41:21.73	172.96	8.82	-26.8	-29.4	12.8	4.22e-04	0	43	0	2110783488	15	4874
2026-01-02 23:41:22.74	173.02	8.74	-28.0	-30.8	12.6	4.57e-05	0	43	0	2113929216	15	4962
2026-01-02 23:41:23.74	173.07	8.66	-28.1	-30.5	12.1	7.40e-05	0	43	0	2117074944	16	4745
2026-01-02 23:41:24.74	173.13	8.58	-27.8	-30.3	12.9	4.34e-05	0	43	0	2120220672	15	4800
2026-01-02 23:41:25.75	173.19	8.50	-27.7	-30.1	13.1	2.97e-05	0	43	0	2123366400	15	4742
2026-01-02 23:41:26.76	173.24	8.42	-27.7	-30.1	13.1	1.20e-03	0	43	0	2126512128	15	4740
2026-01-02 23:41:27.77	173.30	8.35	-27.8	-30.2	13.1	1.41e-03	0	43	0	2129657856	15	4771
2026-01-02 23:41:28.78	173.35	8.27	-27.8	-30.2	13.0	3.43e-05	0	43	0	2132803584	15	4779
2026-01-02 23:41:29.78	173.41	8.19	-27.8	-30.4	12.9	4.57e-05	0	43	0	2135949312	15	4840
2026-01-02 23:41:30.78	173.46	8.11	-27.8	-30.4	12.9	5.79e-05	0	43	0	2139095040	15	4830
2026-01-02 23:41:31.78	173.51	8.04	-27.9	-30.5	12.9	1.76e-04	0	43	0	2142240768	15	4866
