passes_logs/2026/01/02/R2M6_AANII_01/R2M6_AANII_01__20260102_125250_FENGYUN_3D_rec.log

#Pass ID: 20260102_125250_FENGYUN 3D
#Satellite: FENGYUN 3D
#Configuration: FENGYUN 3D
#almurnet v.1.7.20240730
#Start time: 2026-01-02 12:52:51

#Version: 2.2.20231116
#Station: R2M6_AANII_01
#Location: 30.233357 lon 59.946436 lat
#TLE: 1 43010U 17072A   26001.96529979  .00000409  00000+0  21503-3 0  9996
#TLE: 2 43010  98.9910 333.5811 0001886 133.0441 227.0893 14.19692048421405

#Time	Az	El	Level	Level2	SNR	BER	BlckErr	Temp	State	Recorded	gain1	gain2
2026-01-02 12:52:51.83	177.08	7.08	-27.1	-29.3	5.8	7.70e-01	0	41	0	0	14	4604
2026-01-02 12:52:52.83	177.11	7.16	-27.8	-29.7	5.7	7.73e-01	0	41	104	0	16	4499
2026-01-02 12:52:53.84	177.15	7.23	-27.9	-29.9	12.4	1.84e-04	0	41	0	0	16	4567
2026-01-02 12:52:54.84	177.19	7.31	-27.7	-29.5	12.7	1.99e-04	0	41	0	5242880	16	4440
2026-01-02 12:52:55.83	177.22	7.39	-27.3	-28.6	13.3	6.86e-05	0	41	0	10485760	16	4178
2026-01-02 12:52:56.83	177.26	7.46	-26.7	-28.3	13.8	1.02e-05	0	41	0	16777216	14	4308
2026-01-02 12:52:57.83	177.30	7.54	-26.4	-27.5	14.3	3.40e-06	0	41	0	22020096	14	4092
2026-01-02 12:52:58.83	177.33	7.62	-26.4	-27.6	14.3	3.40e-06	0	41	0	27262976	14	4108
2026-01-02 12:52:59.83	177.37	7.69	-26.4	-27.4	14.3	3.40e-06	0	41	0	33554432	14	4069
2026-01-02 12:53:00.84	177.41	7.77	-26.5	-27.8	14.1	2.20e-06	0	41	0	38797312	14	4166
2026-01-02 12:53:01.84	177.45	7.85	-26.3	-27.3	14.4	2.20e-06	0	41	0	45088768	14	4042
2026-01-02 12:53:02.85	177.48	7.93	-26.4	-27.6	14.2	3.40e-06	0	41	0	50331648	14	4127
2026-01-02 12:53:03.86	177.52	8.01	-26.4	-27.6	14.3	3.40e-06	0	41	0	55574528	14	4117
2026-01-02 12:53:04.87	177.56	8.09	-26.4	-27.4	14.4	2.20e-06	0	41	0	61865984	14	4071
2026-01-02 12:53:05.87	177.60	8.17	-26.2	-27.5	14.6	0.00e+00	0	41	0	67108864	13	4195
2026-01-02 12:53:06.87	177.64	8.25	-26.2	-27.6	14.6	2.20e-06	0	41	0	73400320	13	4210
2026-01-02 12:53:07.87	177.68	8.33	-26.1	-27.3	14.7	1.10e-06	0	41	0	78643200	13	4150
2026-01-02 12:53:08.87	177.72	8.41	-26.2	-27.5	14.7	1.10e-06	0	42	0	83886080	13	4180
2026-01-02 12:53:09.88	177.75	8.49	-26.1	-27.3	14.7	0.00e+00	0	42	0	90177536	13	4144
2026-01-02 12:53:10.88	177.79	8.57	-26.2	-27.6	14.6	1.10e-06	0	42	0	95420416	13	4204
2026-01-02 12:53:11.88	177.83	8.65	-25.9	-26.8	15.1	0.00e+00	0	42	0	100663296	13	4008
2026-01-02 12:53:12.88	177.87	8.73	-25.9	-26.8	15.1	0.00e+00	0	42	0	106954752	13	4016
2026-01-02 12:53:13.89	177.91	8.81	-25.8	-26.6	15.2	1.10e-06	0	42	0	112197632	13	3965
2026-01-02 12:53:14.90	177.95	8.89	-25.9	-26.8	15.1	2.17e-05	0	42	0	118489088	13	3998
2026-01-02 12:53:15.89	177.99	8.97	-25.8	-27.0	15.2	1.10e-06	0	42	0	123731968	12	4177
2026-01-02 12:53:16.90	178.03	9.05	-25.8	-27.2	15.2	0.00e+00	0	42	0	128974848	12	4203
2026-01-02 12:53:17.90	178.08	9.14	-26.0	-27.6	14.9	0.00e+00	0	42	0	135266304	12	4318
2026-01-02 12:53:18.91	178.12	9.22	-26.1	-27.7	14.8	0.00e+00	0	42	0	140509184	12	4364
2026-01-02 12:53:19.92	178.16	9.30	-25.8	-27.2	15.2	0.00e+00	0	42	0	146800640	12	4205
2026-01-02 12:53:20.92	178.20	9.39	-25.9	-27.3	15.1	0.00e+00	0	42	0	152043520	12	4241
2026-01-02 12:53:21.93	178.24	9.47	-26.0	-27.7	14.9	0.00e+00	0	42	0	157286400	12	4341
2026-01-02 12:53:22.93	178.28	9.55	-25.8	-27.1	15.2	0.00e+00	0	42	0	163577856	12	4190
2026-01-02 12:53:23.94	178.33	9.64	-25.7	-26.8	15.4	1.48e-05	0	42	0	168820736	12	4111
2026-01-02 12:53:24.94	178.37	9.72	-25.7	-26.9	15.4	0.00e+00	0	42	0	175112192	12	4144
2026-01-02 12:53:25.95	178.41	9.81	-25.7	-26.8	15.4	1.10e-06	0	42	0	180355072	12	4107
2026-01-02 12:53:26.95	178.45	9.89	-25.6	-26.7	15.5	1.02e-05	0	42	0	185597952	12	4080
2026-01-02 12:53:27.96	178.50	9.98	-25.6	-26.7	15.5	0.00e+00	0	42	0	191889408	12	4084
2026-01-02 12:53:28.97	178.54	10.06	-25.6	-26.7	15.4	0.00e+00	0	42	0	197132288	12	4090
2026-01-02 12:53:29.97	178.58	10.15	-25.5	-26.5	15.6	9.10e-06	0	42	0	202375168	12	4039
2026-01-02 12:53:30.97	178.63	10.23	-25.6	-26.6	15.5	0.00e+00	0	42	0	208666624	12	4063
2026-01-02 12:53:31.97	178.67	10.32	-25.5	-26.5	15.6	0.00e+00	0	42	0	213909504	12	4025
2026-01-02 12:53:32.98	178.72	10.40	-25.5	-26.5	15.6	4.50e-06	0	42	0	220200960	12	4035
2026-01-02 12:53:33.98	178.76	10.49	-25.6	-26.6	15.6	0.00e+00	0	42	0	225443840	12	4058
2026-01-02 12:53:34.98	178.80	10.58	-25.6	-26.7	15.5	0.00e+00	0	42	0	230686720	12	4090
2026-01-02 12:53:35.97	178.85	10.66	-25.7	-26.8	15.5	6.80e-06	0	42	0	236978176	12	4105
2026-01-02 12:53:36.98	178.89	10.75	-25.7	-26.9	15.4	0.00e+00	0	42	0	242221056	12	4137
2026-01-02 12:53:37.98	178.94	10.84	-25.7	-26.9	15.4	0.00e+00	0	42	0	247463936	12	4144
2026-01-02 12:53:38.99	178.99	10.93	-25.7	-26.9	15.5	0.00e+00	0	42	0	253755392	12	4132
2026-01-02 12:53:39.99	179.03	11.02	-25.9	-27.3	15.2	0.00e+00	0	42	0	258998272	12	4227
2026-01-02 12:53:40.99	179.08	11.10	-25.6	-26.7	15.6	0.00e+00	0	42	0	265289728	12	4092
2026-01-02 12:53:41.99	179.12	11.19	-25.7	-26.8	15.5	0.00e+00	0	42	0	270532608	12	4119
2026-01-02 12:53:43.00	179.17	11.28	-25.6	-26.7	15.6	0.00e+00	0	42	0	275775488	12	4078
2026-01-02 12:53:44.00	179.22	11.37	-25.6	-26.7	15.6	0.00e+00	0	42	0	282066944	12	4086
2026-01-02 12:53:45.00	179.26	11.46	-25.6	-26.7	15.6	9.10e-06	0	42	0	287309824	12	4080
2026-01-02 12:53:46.01	179.31	11.55	-25.7	-26.8	15.5	0.00e+00	0	42	0	293601280	12	4108
2026-01-02 12:53:47.01	179.36	11.64	-25.7	-27.0	15.4	0.00e+00	0	43	0	298844160	12	4151
2026-01-02 12:53:48.01	179.41	11.73	-25.8	-27.1	15.3	0.00e+00	0	42	0	304087040	12	4190
2026-01-02 12:53:49.02	179.46	11.83	-25.6	-26.8	15.5	0.00e+00	0	42	0	310378496	12	4100
2026-01-02 12:53:50.01	179.50	11.92	-25.6	-26.6	15.6	0.00e+00	0	42	0	315621376	12	4059
2026-01-02 12:53:51.02	179.55	12.01	-25.5	-26.5	15.7	0.00e+00	0	42	0	320864256	12	4025
2026-01-02 12:53:52.03	179.60	12.10	-25.7	-26.8	15.5	0.00e+00	0	42	0	327155712	12	4102
2026-01-02 12:53:53.02	179.65	12.19	-25.5	-26.4	15.7	1.10e-06	0	42	0	332398592	12	4011
2026-01-02 12:53:54.02	179.70	12.29	-25.5	-26.5	15.7	0.00e+00	0	42	0	337641472	12	4033
2026-01-02 12:53:55.03	179.75	12.38	-25.6	-26.6	15.6	0.00e+00	0	42	0	343932928	12	4063
2026-01-02 12:53:56.04	179.80	12.47	-25.5	-26.4	15.8	0.00e+00	0	42	0	349175808	12	3999
2026-01-02 12:53:57.04	179.85	12.57	-25.5	-26.4	15.8	0.00e+00	0	42	0	355467264	12	3988
2026-01-02 12:53:58.04	179.90	12.66	-25.6	-26.6	15.7	0.00e+00	0	43	0	360710144	12	4056
2026-01-02 12:53:59.04	179.96	12.76	-25.4	-26.2	15.9	0.00e+00	0	43	0	367001600	12	3944
2026-01-02 12:54:00.04	180.01	12.85	-25.4	-26.2	15.9	0.00e+00	0	42	0	372244480	12	3954
2026-01-02 12:54:01.04	180.06	12.94	-25.3	-26.1	16.0	0.00e+00	0	43	0	377487360	12	3924
2026-01-02 12:54:02.04	180.11	13.04	-25.4	-26.1	16.0	0.00e+00	0	43	0	383778816	12	3925
2026-01-02 12:54:03.04	180.16	13.14	-25.3	-26.6	16.0	0.00e+00	0	43	0	389021696	11	4146
2026-01-02 12:54:04.05	180.22	13.23	-25.3	-26.4	16.1	0.00e+00	0	43	0	394264576	11	4104
2026-01-02 12:54:05.04	180.27	13.33	-25.2	-26.3	16.2	0.00e+00	0	43	0	400556032	11	4066
2026-01-02 12:54:06.05	180.32	13.43	-25.2	-26.3	16.2	0.00e+00	0	43	0	405798912	11	4069
2026-01-02 12:54:07.06	180.38	13.52	-25.1	-26.0	16.4	0.00e+00	0	43	0	411041792	11	4006
2026-01-02 12:54:08.06	180.43	13.62	-25.2	-26.3	16.2	0.00e+00	0	43	0	417333248	11	4084
2026-01-02 12:54:09.06	180.49	13.72	-25.0	-25.9	16.5	0.00e+00	0	43	0	422576128	11	3971
2026-01-02 12:54:10.07	180.54	13.82	-25.0	-25.8	16.5	0.00e+00	0	43	0	428867584	11	3960
2026-01-02 12:54:11.07	180.60	13.92	-25.1	-25.9	16.4	0.00e+00	0	43	0	434110464	11	3979
2026-01-02 12:54:12.08	180.65	14.02	-25.0	-25.8	16.5	0.00e+00	0	43	0	439353344	11	3943
2026-01-02 12:54:13.08	180.71	14.12	-24.9	-25.7	16.6	0.00e+00	0	43	0	445644800	11	3929
2026-01-02 12:54:14.09	180.76	14.22	-24.9	-25.7	16.6	0.00e+00	0	43	0	450887680	11	3916
2026-01-02 12:54:15.09	180.82	14.32	-25.0	-25.8	16.5	0.00e+00	0	43	0	457179136	11	3941
2026-01-02 12:54:16.09	180.88	14.42	-24.9	-25.6	16.7	0.00e+00	0	43	0	462422016	11	3898
2026-01-02 12:54:17.10	180.93	14.52	-24.9	-25.7	16.6	0.00e+00	0	43	0	467664896	11	3916
2026-01-02 12:54:18.10	180.99	14.62	-24.9	-25.5	16.7	0.00e+00	0	43	0	473956352	11	3867
2026-01-02 12:54:19.10	181.05	14.72	-24.9	-25.6	16.6	0.00e+00	0	43	0	479199232	11	3897
2026-01-02 12:54:20.10	181.11	14.83	-24.8	-25.4	16.8	0.00e+00	0	43	0	484442112	11	3853
2026-01-02 12:54:21.11	181.17	14.93	-24.9	-25.7	16.6	0.00e+00	0	43	0	490733568	11	3914
2026-01-02 12:54:22.11	181.23	15.03	-24.8	-25.4	16.7	0.00e+00	0	43	0	495976448	11	3863
2026-01-02 12:54:23.11	181.29	15.14	-24.8	-25.4	16.8	0.00e+00	0	43	0	502267904	11	3850
2026-01-02 12:54:24.12	181.35	15.24	-24.9	-25.6	16.6	0.00e+00	0	43	0	507510784	11	3915
2026-01-02 12:54:25.13	181.41	15.35	-24.8	-25.8	16.8	0.00e+00	0	43	0	512753664	10	4061
2026-01-02 12:54:26.13	181.47	15.45	-24.7	-25.7	16.9	0.00e+00	0	43	0	519045120	10	4045
2026-01-02 12:54:27.14	181.53	15.56	-24.7	-25.7	16.9	0.00e+00	0	43	0	524288000	10	4028
2026-01-02 12:54:28.15	181.59	15.66	-24.7	-25.6	16.9	0.00e+00	0	43	0	530579456	10	4016
2026-01-02 12:54:29.14	181.65	15.77	-24.6	-25.6	17.0	0.00e+00	0	43	0	535822336	10	4001
2026-01-02 12:54:30.14	181.72	15.87	-24.6	-25.5	17.0	0.00e+00	0	43	0	541065216	10	3991
2026-01-02 12:54:31.15	181.78	15.98	-24.5	-25.3	17.1	0.00e+00	0	43	0	547356672	10	3945
2026-01-02 12:54:32.15	181.84	16.09	-24.6	-25.5	17.0	0.00e+00	0	43	0	552599552	10	3989
2026-01-02 12:54:33.15	181.91	16.20	-24.5	-25.2	17.2	0.00e+00	0	43	0	557842432	10	3910
2026-01-02 12:54:34.15	181.97	16.31	-24.6	-25.4	17.1	0.00e+00	0	43	0	564133888	10	3953
2026-01-02 12:54:35.16	182.03	16.42	-24.4	-25.1	17.2	0.00e+00	0	43	0	569376768	10	3883
2026-01-02 12:54:36.16	182.10	16.52	-24.3	-25.2	17.4	0.00e+00	0	43	0	575668224	9	4015
2026-01-02 12:54:37.16	182.16	16.63	-24.3	-25.3	17.4	0.00e+00	0	43	0	580911104	9	4043
2026-01-02 12:54:38.16	182.23	16.74	-24.1	-24.8	17.6	0.00e+00	0	43	0	586153984	9	3928
2026-01-02 12:54:39.17	182.30	16.86	-24.1	-24.9	17.6	0.00e+00	0	43	0	592445440	9	3938
2026-01-02 12:54:40.17	182.36	16.97	-24.1	-24.9	17.6	0.00e+00	0	43	0	597688320	9	3938
2026-01-02 12:54:41.17	182.43	17.08	-24.1	-24.9	17.6	0.00e+00	0	43	0	602931200	9	3937
2026-01-02 12:54:42.18	182.50	17.19	-24.2	-25.1	17.5	0.00e+00	0	43	0	609222656	9	4000
2026-01-02 12:54:43.19	182.57	17.30	-24.2	-25.1	17.5	0.00e+00	0	43	0	614465536	9	3987
2026-01-02 12:54:44.20	182.64	17.42	-24.2	-25.2	17.5	0.00e+00	0	43	0	620756992	9	4012
2026-01-02 12:54:45.20	182.71	17.53	-24.1	-24.9	17.6	0.00e+00	0	43	0	625999872	9	3950
2026-01-02 12:54:46.20	182.78	17.65	-24.1	-24.8	17.7	0.00e+00	0	43	0	631242752	9	3922
2026-01-02 12:54:47.21	182.85	17.76	-24.2	-25.0	17.6	2.20e-06	0	43	0	637534208	9	3967
2026-01-02 12:54:48.21	182.92	17.88	-24.0	-24.6	17.8	0.00e+00	0	43	0	642777088	9	3869
2026-01-02 12:54:49.21	182.99	17.99	-24.0	-24.7	17.8	0.00e+00	0	43	0	649068544	9	3886
2026-01-02 12:54:50.21	183.06	18.11	-24.1	-24.9	17.6	0.00e+00	0	43	0	654311424	9	3948
2026-01-02 12:54:51.22	183.13	18.22	-23.9	-24.4	17.9	0.00e+00	0	43	0	659554304	9	3830
2026-01-02 12:54:52.22	183.21	18.34	-23.8	-24.6	18.1	0.00e+00	0	43	0	665845760	8	3973
2026-01-02 12:54:53.22	183.28	18.46	-23.7	-24.5	18.1	0.00e+00	0	43	0	671088640	8	3946
2026-01-02 12:54:54.23	183.35	18.58	-23.8	-24.7	18.1	0.00e+00	0	43	0	676331520	8	3987
2026-01-02 12:54:55.23	183.43	18.70	-24.0	-25.1	17.8	0.00e+00	0	43	0	682622976	8	4103
2026-01-02 12:54:56.23	183.50	18.81	-24.0	-25.2	17.8	4.50e-06	0	43	0	687865856	8	4121
2026-01-02 12:54:57.23	183.58	18.93	-24.0	-25.1	17.9	0.00e+00	0	43	0	693108736	8	4093
2026-01-02 12:54:58.23	183.65	19.05	-24.0	-25.2	17.8	0.00e+00	0	43	0	699400192	8	4133
2026-01-02 12:54:59.23	183.73	19.17	-24.0	-25.2	17.8	3.40e-06	0	43	0	704643072	8	4112
2026-01-02 12:55:00.23	183.81	19.30	-24.1	-25.3	17.7	0.00e+00	0	43	0	710934528	8	4156
2026-01-02 12:55:01.23	183.88	19.42	-24.0	-25.1	17.9	0.00e+00	0	43	0	716177408	8	4092
2026-01-02 12:55:02.24	183.96	19.54	-23.9	-24.9	18.0	2.20e-06	0	43	0	722468864	8	4047
2026-01-02 12:55:03.24	184.04	19.66	-23.9	-25.0	17.9	0.00e+00	0	43	0	727711744	8	4070
2026-01-02 12:55:04.25	184.12	19.79	-23.8	-24.8	18.0	0.00e+00	0	43	0	732954624	8	4030
2026-01-02 12:55:05.26	184.20	19.91	-23.8	-24.8	18.0	0.00e+00	0	43	0	739246080	8	4019
2026-01-02 12:55:06.26	184.28	20.04	-23.8	-24.7	18.1	0.00e+00	0	43	0	744488960	8	4002
2026-01-02 12:55:07.26	184.37	20.16	-23.8	-24.7	18.1	0.00e+00	0	43	0	749731840	8	4009
2026-01-02 12:55:08.25	184.45	20.29	-23.9	-25.0	17.9	0.00e+00	0	43	0	756023296	8	4082
2026-01-02 12:55:09.25	184.53	20.41	-23.8	-24.8	18.0	0.00e+00	0	43	0	761266176	8	4034
2026-01-02 12:55:10.26	184.61	20.54	-23.6	-24.4	18.2	0.00e+00	0	43	0	766509056	8	3926
2026-01-02 12:55:11.27	184.70	20.67	-23.8	-24.7	18.1	0.00e+00	0	43	0	772800512	8	4005
2026-01-02 12:55:12.27	184.78	20.80	-23.7	-24.5	18.1	0.00e+00	0	43	0	778043392	8	3965
2026-01-02 12:55:13.28	184.87	20.93	-23.8	-24.7	18.1	0.00e+00	0	43	0	784334848	8	3992
2026-01-02 12:55:14.28	184.96	21.06	-23.8	-24.7	18.1	0.00e+00	0	43	0	789577728	8	3997
2026-01-02 12:55:15.28	185.04	21.19	-23.8	-24.6	18.1	0.00e+00	0	43	0	794820608	8	3992
2026-01-02 12:55:16.29	185.13	21.32	-23.8	-24.7	18.1	0.00e+00	0	43	0	801112064	8	3994
2026-01-02 12:55:17.29	185.22	21.45	-23.7	-24.5	18.2	0.00e+00	0	43	0	806354944	8	3945
2026-01-02 12:55:18.30	185.31	21.58	-23.6	-24.4	18.3	0.00e+00	0	43	0	812646400	8	3919
2026-01-02 12:55:19.31	185.40	21.72	-23.6	-24.3	18.4	0.00e+00	0	43	0	817889280	8	3893
2026-01-02 12:55:20.31	185.49	21.85	-23.4	-24.0	18.5	0.00e+00	0	43	0	823132160	8	3828
2026-01-02 12:55:21.32	185.58	21.98	-23.4	-24.0	18.5	0.00e+00	0	43	0	829423616	8	3827
2026-01-02 12:55:22.33	185.67	22.12	-23.4	-24.0	18.5	0.00e+00	0	43	0	834666496	8	3829
2026-01-02 12:55:23.34	185.77	22.25	-23.2	-23.9	18.7	0.00e+00	0	43	0	840957952	7	3921
2026-01-02 12:55:24.34	185.86	22.39	-23.1	-23.8	18.8	0.00e+00	0	43	0	846200832	7	3883
2026-01-02 12:55:25.34	185.96	22.53	-23.2	-23.9	18.8	0.00e+00	0	43	0	851443712	7	3909
2026-01-02 12:55:26.34	186.05	22.66	-23.1	-23.8	18.8	0.00e+00	0	43	0	857735168	7	3893
2026-01-02 12:55:27.34	186.15	22.80	-23.1	-23.6	18.9	0.00e+00	0	43	0	862978048	7	3851
2026-01-02 12:55:28.34	186.24	22.94	-23.0	-23.5	19.0	0.00e+00	0	43	0	869269504	7	3822
2026-01-02 12:55:29.35	186.34	23.08	-23.0	-23.6	18.9	0.00e+00	0	43	0	874512384	7	3847
2026-01-02 12:55:30.36	186.44	23.22	-23.2	-23.9	18.8	0.00e+00	0	43	0	879755264	7	3920
2026-01-02 12:55:31.37	186.54	23.36	-23.2	-23.9	18.8	0.00e+00	0	43	0	886046720	7	3911
2026-01-02 12:55:32.37	186.64	23.50	-23.3	-24.1	18.7	0.00e+00	0	43	0	891289600	7	3956
2026-01-02 12:55:33.38	186.74	23.64	-23.2	-23.9	18.8	0.00e+00	0	43	0	896532480	7	3913
2026-01-02 12:55:34.38	186.84	23.79	-23.1	-23.8	18.9	0.00e+00	0	43	0	902823936	7	3891
2026-01-02 12:55:35.39	186.95	23.93	-23.1	-23.8	18.9	0.00e+00	0	43	0	908066816	7	3902
2026-01-02 12:55:36.39	187.05	24.07	-23.0	-23.6	19.0	0.00e+00	0	43	0	914358272	7	3833
2026-01-02 12:55:37.40	187.16	24.22	-22.9	-23.4	19.1	0.00e+00	0	43	0	919601152	7	3786
2026-01-02 12:55:38.39	187.26	24.36	-23.0	-23.5	19.0	0.00e+00	0	43	0	925892608	7	3820
2026-01-02 12:55:39.40	187.37	24.51	-23.0	-23.5	19.0	0.00e+00	0	43	0	931135488	7	3828
2026-01-02 12:55:40.40	187.48	24.66	-22.9	-23.2	19.2	0.00e+00	0	43	0	936378368	7	3758
2026-01-02 12:55:41.40	187.58	24.80	-22.8	-23.2	19.2	0.00e+00	0	43	0	942669824	7	3741
2026-01-02 12:55:42.40	187.69	24.95	-22.8	-23.2	19.2	0.00e+00	0	43	0	947912704	7	3739
2026-01-02 12:55:43.41	187.80	25.10	-22.9	-23.3	19.1	0.00e+00	0	43	0	953155584	7	3778
2026-01-02 12:55:44.41	187.92	25.25	-22.9	-23.4	19.1	0.00e+00	0	43	0	959447040	7	3785
2026-01-02 12:55:45.42	188.03	25.40	-23.0	-23.6	19.0	0.00e+00	0	43	0	964689920	7	3839
2026-01-02 12:55:46.42	188.14	25.55	-23.1	-23.7	19.0	0.00e+00	0	43	0	969932800	7	3859
2026-01-02 12:55:47.43	188.26	25.70	-22.9	-23.4	19.1	0.00e+00	0	43	0	976224256	7	3789
2026-01-02 12:55:48.43	188.37	25.86	-22.8	-23.1	19.2	0.00e+00	0	43	0	981467136	7	3721
2026-01-02 12:55:49.44	188.49	26.01	-22.9	-23.2	19.2	0.00e+00	0	43	0	987758592	7	3756
2026-01-02 12:55:50.45	188.61	26.17	-22.9	-23.3	19.2	0.00e+00	0	43	0	993001472	7	3766
2026-01-02 12:55:51.45	188.73	26.32	-22.7	-23.5	19.3	0.00e+00	0	43	0	999292928	6	3925
2026-01-02 12:55:52.46	188.85	26.48	-22.8	-23.5	19.3	0.00e+00	0	43	0	1004535808	6	3929
2026-01-02 12:55:53.46	188.97	26.63	-22.8	-23.7	19.2	0.00e+00	0	43	0	1009778688	6	3962
2026-01-02 12:55:54.46	189.09	26.79	-22.9	-23.7	19.2	0.00e+00	0	43	0	1016070144	6	3977
2026-01-02 12:55:55.46	189.22	26.95	-22.8	-23.6	19.2	0.00e+00	0	43	0	1021313024	6	3956
2026-01-02 12:55:56.47	189.34	27.11	-22.9	-23.8	19.1	0.00e+00	0	43	0	1026555904	6	4000
2026-01-02 12:55:57.47	189.47	27.27	-22.8	-23.6	19.2	0.00e+00	0	43	0	1032847360	6	3963
2026-01-02 12:55:58.47	189.59	27.43	-22.9	-23.9	19.1	0.00e+00	0	43	0	1038090240	6	4025
2026-01-02 12:55:59.47	189.72	27.59	-22.9	-23.8	19.2	0.00e+00	0	43	0	1043333120	6	3987
2026-01-02 12:56:00.47	189.85	27.75	-22.8	-23.6	19.3	0.00e+00	0	43	0	1049624576	6	3939
2026-01-02 12:56:01.47	189.98	27.91	-22.8	-23.6	19.3	0.00e+00	0	43	0	1054867456	6	3947
2026-01-02 12:56:02.47	190.11	28.07	-22.8	-23.6	19.3	0.00e+00	0	43	0	1061158912	6	3948
2026-01-02 12:56:03.48	190.25	28.24	-22.9	-23.9	19.2	0.00e+00	0	43	0	1066401792	6	4009
2026-01-02 12:56:04.49	190.39	28.41	-22.9	-23.8	19.2	0.00e+00	0	43	0	1072693248	6	3986
2026-01-02 12:56:05.48	190.52	28.57	-22.8	-23.7	19.3	0.00e+00	0	43	0	1077936128	6	3960
2026-01-02 12:56:06.48	190.66	28.74	-22.9	-23.8	19.2	0.00e+00	0	43	0	1083179008	6	3985
2026-01-02 12:56:07.49	190.80	28.91	-22.9	-23.8	19.2	0.00e+00	0	43	0	1089470464	6	4001
2026-01-02 12:56:08.50	190.94	29.08	-22.8	-23.5	19.3	0.00e+00	0	43	0	1094713344	6	3933
2026-01-02 12:56:09.49	191.08	29.24	-22.7	-23.4	19.4	0.00e+00	0	43	0	1099956224	6	3892
2026-01-02 12:56:10.49	191.22	29.41	-22.8	-23.5	19.3	0.00e+00	0	43	0	1106247680	6	3927
2026-01-02 12:56:11.50	191.37	29.58	-22.9	-23.7	19.2	0.00e+00	0	43	0	1111490560	6	3985
2026-01-02 12:56:12.51	191.52	29.76	-22.8	-23.5	19.4	0.00e+00	0	43	0	1116733440	6	3939
2026-01-02 12:56:13.50	191.66	29.93	-22.8	-23.7	19.3	0.00e+00	0	43	0	1123024896	6	3978
2026-01-02 12:56:14.51	191.81	30.10	-23.0	-24.0	19.1	0.00e+00	0	43	0	1128267776	6	4046
2026-01-02 12:56:15.51	191.96	30.28	-22.9	-23.9	19.2	0.00e+00	0	43	0	1134559232	6	4015
2026-01-02 12:56:16.52	192.12	30.45	-22.8	-23.5	19.3	0.00e+00	0	43	0	1139802112	6	3937
2026-01-02 12:56:17.52	192.27	30.63	-22.8	-23.6	19.3	0.00e+00	0	43	0	1145044992	6	3959
2026-01-02 12:56:18.52	192.43	30.81	-22.8	-23.5	19.4	0.00e+00	0	43	0	1151336448	6	3938
2026-01-02 12:56:19.52	192.58	30.98	-22.7	-23.4	19.4	0.00e+00	0	43	0	1156579328	6	3903
2026-01-02 12:56:20.53	192.75	31.16	-22.8	-23.6	19.3	0.00e+00	0	43	0	1161822208	6	3956
2026-01-02 12:56:21.53	192.91	31.34	-22.8	-23.7	19.3	0.00e+00	0	43	0	1168113664	6	3963
2026-01-02 12:56:22.54	193.07	31.52	-22.8	-23.6	19.3	0.00e+00	0	43	0	1173356544	6	3956
2026-01-02 12:56:23.54	193.23	31.70	-22.8	-23.6	19.3	0.00e+00	0	43	0	1179648000	6	3959
2026-01-02 12:56:24.55	193.40	31.89	-22.7	-23.5	19.4	0.00e+00	0	43	0	1184890880	6	3924
2026-01-02 12:56:25.55	193.57	32.07	-22.6	-23.3	19.5	0.00e+00	0	43	0	1190133760	6	3867
2026-01-02 12:56:26.55	193.74	32.25	-22.7	-23.5	19.4	0.00e+00	0	43	0	1196425216	6	3915
2026-01-02 12:56:27.56	193.91	32.44	-22.7	-23.4	19.4	0.00e+00	0	43	0	1201668096	6	3900
2026-01-02 12:56:28.57	194.09	32.63	-22.8	-23.6	19.4	0.00e+00	0	43	0	1207959552	6	3942
2026-01-02 12:56:29.57	194.26	32.81	-22.8	-23.6	19.3	0.00e+00	0	43	0	1213202432	6	3960
2026-01-02 12:56:30.58	194.44	33.00	-22.6	-23.1	19.6	0.00e+00	0	44	0	1218445312	6	3822
2026-01-02 12:56:31.59	194.62	33.19	-22.5	-22.9	19.7	0.00e+00	0	43	0	1224736768	6	3782
2026-01-02 12:56:32.59	194.81	33.38	-22.5	-22.9	19.7	0.00e+00	0	43	0	1229979648	6	3795
2026-01-02 12:56:33.59	194.99	33.57	-22.6	-23.1	19.6	0.00e+00	0	43	0	1236271104	6	3832
2026-01-02 12:56:34.58	195.17	33.76	-22.5	-23.1	19.6	0.00e+00	0	43	0	1241513984	6	3829
2026-01-02 12:56:35.59	195.36	33.95	-22.7	-23.3	19.5	0.00e+00	0	43	0	1246756864	6	3880
2026-01-02 12:56:36.60	195.55	34.14	-22.6	-23.1	19.6	0.00e+00	0	43	0	1253048320	6	3832
2026-01-02 12:56:37.60	195.75	34.34	-22.4	-22.7	19.8	0.00e+00	0	43	0	1258291200	6	3744
2026-01-02 12:56:38.61	195.94	34.53	-22.4	-22.8	19.8	0.00e+00	0	43	0	1263534080	6	3759
2026-01-02 12:56:39.62	196.14	34.73	-22.4	-22.7	19.8	0.00e+00	0	43	0	1269825536	6	3750
2026-01-02 12:56:40.63	196.34	34.93	-22.4	-22.7	19.8	3.40e-06	0	43	0	1275068416	6	3742
2026-01-02 12:56:41.63	196.54	35.12	-22.5	-23.1	19.6	0.00e+00	0	43	0	1281359872	6	3823
2026-01-02 12:56:42.64	196.75	35.32	-22.5	-23.0	19.7	0.00e+00	0	43	0	1286602752	6	3809
2026-01-02 12:56:43.65	196.96	35.52	-22.4	-22.8	19.7	0.00e+00	0	43	0	1292894208	6	3769
2026-01-02 12:56:44.65	197.17	35.72	-22.4	-22.9	19.7	0.00e+00	0	43	0	1298137088	6	3780
2026-01-02 12:56:45.66	197.38	35.92	-22.3	-22.6	19.8	0.00e+00	0	43	0	1303379968	6	3725
2026-01-02 12:56:46.66	197.60	36.12	-22.2	-22.8	20.0	0.00e+00	0	43	0	1309671424	5	3876
2026-01-02 12:56:47.65	197.81	36.32	-22.2	-22.9	20.0	0.00e+00	0	43	0	1314914304	5	3884
2026-01-02 12:56:48.66	198.03	36.52	-22.1	-22.7	20.0	0.00e+00	0	43	0	1320157184	5	3843
2026-01-02 12:56:49.66	198.25	36.73	-22.2	-22.9	19.9	0.00e+00	0	43	0	1326448640	5	3890
2026-01-02 12:56:50.66	198.48	36.93	-22.2	-22.8	20.0	0.00e+00	0	43	0	1331691520	5	3869
2026-01-02 12:56:51.67	198.71	37.14	-22.2	-22.8	20.0	0.00e+00	0	43	0	1336934400	5	3865
2026-01-02 12:56:52.66	198.94	37.34	-22.1	-22.6	20.1	0.00e+00	0	43	0	1343225856	5	3832
2026-01-02 12:56:53.67	199.17	37.55	-22.0	-22.3	20.2	0.00e+00	0	43	0	1348468736	5	3758
2026-01-02 12:56:54.67	199.41	37.75	-22.1	-22.6	20.1	0.00e+00	0	43	0	1354760192	5	3831
2026-01-02 12:56:55.68	199.65	37.96	-22.0	-22.4	20.2	0.00e+00	0	43	0	1360003072	5	3779
2026-01-02 12:56:56.68	199.89	38.17	-22.0	-22.4	20.2	0.00e+00	0	43	0	1365245952	5	3772
2026-01-02 12:56:57.68	200.13	38.38	-22.2	-22.8	20.0	0.00e+00	0	43	0	1371537408	5	3871
2026-01-02 12:56:58.69	200.39	38.59	-22.3	-23.1	19.9	0.00e+00	0	43	0	1376780288	5	3939
2026-01-02 12:56:59.69	200.64	38.80	-22.4	-23.2	19.9	0.00e+00	0	43	0	1383071744	5	3954
2026-01-02 12:57:00.69	200.89	39.01	-22.3	-23.1	19.9	0.00e+00	0	43	0	1388314624	5	3944
2026-01-02 12:57:01.69	201.15	39.23	-22.5	-23.5	19.7	0.00e+00	0	43	0	1393557504	5	4027
2026-01-02 12:57:02.70	201.41	39.44	-22.8	-24.0	19.5	0.00e+00	0	43	0	1399848960	5	4160
2026-01-02 12:57:03.69	201.67	39.65	-22.6	-23.7	19.6	0.00e+00	0	43	0	1405091840	5	4088
2026-01-02 12:57:04.69	201.94	39.86	-22.5	-23.6	19.7	0.00e+00	0	43	0	1410334720	5	4041
2026-01-02 12:57:05.69	202.21	40.08	-22.6	-23.6	19.7	0.00e+00	0	43	0	1416626176	5	4051
2026-01-02 12:57:06.69	202.49	40.29	-22.5	-23.5	19.7	0.00e+00	0	43	0	1421869056	5	4040
2026-01-02 12:57:07.69	202.77	40.51	-22.4	-23.3	19.8	0.00e+00	0	43	0	1428160512	5	3981
2026-01-02 12:57:08.69	203.05	40.72	-22.6	-23.6	19.7	0.00e+00	0	43	0	1433403392	5	4052
2026-01-02 12:57:09.69	203.34	40.94	-22.5	-23.5	19.7	0.00e+00	0	43	0	1438646272	5	4020
2026-01-02 12:57:10.69	203.63	41.16	-22.5	-23.4	19.8	0.00e+00	0	43	0	1444937728	5	4000
2026-01-02 12:57:11.69	203.92	41.38	-22.6	-23.7	19.7	0.00e+00	0	43	0	1450180608	5	4065
2026-01-02 12:57:12.69	204.22	41.59	-22.5	-23.3	19.8	0.00e+00	0	43	0	1455423488	5	3989
2026-01-02 12:57:13.70	204.52	41.81	-22.5	-23.5	19.7	0.00e+00	0	43	0	1461714944	5	4036
2026-01-02 12:57:14.69	204.82	42.03	-22.7	-24.0	19.5	0.00e+00	0	43	0	1466957824	5	4146
2026-01-02 12:57:15.69	205.13	42.25	-22.8	-24.1	19.5	0.00e+00	0	43	0	1472200704	5	4170
2026-01-02 12:57:16.69	205.45	42.47	-22.5	-23.5	19.7	0.00e+00	0	43	0	1478492160	5	4029
2026-01-02 12:57:17.70	205.77	42.69	-22.3	-23.0	20.0	0.00e+00	0	43	0	1483735040	5	3919
2026-01-02 12:57:18.70	206.09	42.91	-22.4	-23.2	19.9	0.00e+00	0	43	0	1490026496	5	3949
2026-01-02 12:57:19.70	206.42	43.13	-22.5	-23.6	19.7	0.00e+00	0	43	0	1495269376	5	4046
2026-01-02 12:57:20.70	206.75	43.35	-22.6	-23.7	19.6	0.00e+00	0	43	0	1500512256	5	4094
2026-01-02 12:57:21.70	207.08	43.57	-22.5	-23.5	19.8	0.00e+00	0	43	0	1506803712	5	4021
2026-01-02 12:57:22.70	207.43	43.79	-22.4	-23.2	19.9	0.00e+00	0	43	0	1512046592	5	3954
2026-01-02 12:57:23.70	207.77	44.02	-22.6	-23.6	19.7	0.00e+00	0	43	0	1517289472	5	4058
2026-01-02 12:57:24.70	208.12	44.24	-22.7	-23.8	19.6	0.00e+00	0	43	0	1523580928	5	4109
2026-01-02 12:57:25.70	208.47	44.46	-22.9	-24.4	19.3	0.00e+00	0	43	0	1528823808	5	4262
2026-01-02 12:57:26.70	208.83	44.68	-22.9	-23.8	19.4	0.00e+00	0	43	0	1534066688	6	3989
2026-01-02 12:57:27.70	209.20	44.90	-22.6	-23.2	19.7	0.00e+00	0	43	0	1540358144	6	3859
2026-01-02 12:57:28.71	209.57	45.13	-22.6	-23.2	19.7	0.00e+00	0	43	0	1545601024	6	3850
2026-01-02 12:57:29.71	209.95	45.35	-22.9	-23.8	19.4	0.00e+00	0	43	0	1551892480	6	3987
2026-01-02 12:57:30.71	210.33	45.57	-23.1	-24.2	19.2	0.00e+00	0	43	0	1557135360	6	4093
2026-01-02 12:57:31.72	210.72	45.79	-22.8	-23.6	19.5	0.00e+00	0	43	0	1562378240	6	3945
2026-01-02 12:57:32.72	211.11	46.01	-22.7	-23.3	19.6	0.00e+00	0	44	0	1568669696	6	3883
2026-01-02 12:57:33.73	211.51	46.24	-22.9	-23.7	19.5	0.00e+00	0	43	0	1573912576	6	3965
2026-01-02 12:57:34.73	211.91	46.46	-23.0	-24.0	19.3	0.00e+00	0	43	0	1579155456	6	4045
2026-01-02 12:57:35.74	212.32	46.68	-23.3	-24.6	19.2	0.00e+00	0	43	0	1585446912	6	4174
2026-01-02 12:57:36.74	212.73	46.90	-23.2	-24.5	19.2	0.00e+00	0	43	0	1590689792	6	4146
2026-01-02 12:57:37.74	213.15	47.12	-23.0	-23.9	19.5	0.00e+00	0	43	0	1596981248	6	4009
2026-01-02 12:57:38.75	213.58	47.34	-22.7	-23.3	19.8	0.00e+00	0	43	0	1602224128	6	3854
2026-01-02 12:57:39.74	214.01	47.55	-22.5	-22.8	20.1	0.00e+00	0	43	0	1607467008	6	3744
2026-01-02 12:57:40.75	214.45	47.77	-22.7	-23.3	19.8	0.00e+00	0	43	0	1613758464	6	3864
2026-01-02 12:57:41.76	214.90	47.99	-22.9	-23.7	19.6	0.00e+00	0	43	0	1619001344	6	3951
2026-01-02 12:57:42.76	215.35	48.21	-23.3	-24.6	19.2	0.00e+00	0	43	0	1625292800	6	4184
2026-01-02 12:57:43.77	215.80	48.43	-23.5	-24.5	19.0	0.00e+00	0	43	0	1630535680	7	4046
2026-01-02 12:57:44.77	216.27	48.64	-23.6	-24.8	18.9	0.00e+00	0	43	0	1635778560	7	4103
2026-01-02 12:57:45.78	216.74	48.86	-23.3	-24.1	19.2	0.00e+00	0	44	0	1642070016	7	3941
2026-01-02 12:57:46.79	217.22	49.07	-23.0	-23.5	19.5	0.00e+00	0	44	0	1647312896	7	3789
2026-01-02 12:57:47.79	217.70	49.28	-23.0	-23.4	19.5	0.00e+00	0	43	0	1653604352	7	3781
2026-01-02 12:57:48.79	218.19	49.49	-23.2	-23.9	19.3	0.00e+00	0	43	0	1658847232	7	3901
2026-01-02 12:57:49.80	218.69	49.70	-23.1	-23.7	19.4	0.00e+00	0	43	0	1664090112	7	3838
2026-01-02 12:57:50.80	219.19	49.91	-23.6	-24.6	18.9	0.00e+00	0	43	0	1670381568	7	4070
2026-01-02 12:57:51.80	219.70	50.12	-23.4	-24.4	19.1	0.00e+00	0	43	0	1675624448	7	3999
2026-01-02 12:57:52.80	220.21	50.32	-23.0	-23.5	19.5	0.00e+00	0	43	0	1680867328	7	3786
2026-01-02 12:57:53.81	220.74	50.53	-22.9	-23.2	19.7	0.00e+00	0	43	0	1687158784	7	3734
2026-01-02 12:57:54.81	221.27	50.73	-22.9	-23.3	19.7	0.00e+00	0	43	0	1692401664	7	3749
2026-01-02 12:57:55.81	221.80	50.93	-23.0	-23.6	19.5	0.00e+00	0	43	0	1698693120	7	3820
2026-01-02 12:57:56.81	222.34	51.13	-23.2	-23.9	19.3	0.00e+00	0	43	0	1703936000	7	3899
2026-01-02 12:57:57.82	222.90	51.32	-23.2	-23.9	19.3	0.00e+00	0	43	0	1709178880	7	3879
2026-01-02 12:57:58.82	223.46	51.52	-23.2	-23.8	19.4	0.00e+00	0	43	0	1715470336	7	3878
2026-01-02 12:57:59.82	224.02	51.71	-23.5	-24.5	19.0	0.00e+00	0	44	0	1720713216	7	4031
2026-01-02 12:58:00.83	224.60	51.90	-23.3	-24.1	19.2	0.00e+00	0	43	0	1725956096	7	3944
2026-01-02 12:58:01.82	225.17	52.09	-23.3	-24.0	19.3	0.00e+00	0	43	0	1732247552	7	3927
2026-01-02 12:58:02.82	225.76	52.28	-23.4	-24.2	19.2	0.00e+00	0	43	0	1737490432	7	3962
2026-01-02 12:58:03.82	226.35	52.46	-23.4	-24.2	19.2	0.00e+00	0	43	0	1743781888	7	3968
2026-01-02 12:58:04.83	226.96	52.64	-23.1	-23.6	19.5	0.00e+00	0	43	0	1749024768	7	3826
2026-01-02 12:58:05.84	227.57	52.82	-23.2	-23.8	19.4	0.00e+00	0	44	0	1754267648	7	3859
2026-01-02 12:58:06.84	228.19	53.00	-23.6	-24.7	18.9	0.00e+00	0	44	0	1760559104	7	4090
2026-01-02 12:58:07.85	228.82	53.17	-23.3	-24.2	19.2	0.00e+00	0	44	0	1765801984	7	3950
2026-01-02 12:58:08.85	229.45	53.34	-23.1	-23.5	19.5	0.00e+00	0	43	0	1772093440	7	3799
2026-01-02 12:58:09.86	230.09	53.51	-23.3	-24.0	19.3	0.00e+00	0	43	0	1777336320	7	3913
2026-01-02 12:58:10.87	230.74	53.68	-23.4	-24.3	19.1	0.00e+00	0	43	0	1782579200	7	3995
2026-01-02 12:58:11.88	231.40	53.84	-23.4	-24.4	19.1	0.00e+00	0	43	0	1788870656	7	3996
2026-01-02 12:58:12.88	232.06	54.00	-23.3	-24.0	19.3	0.00e+00	0	43	0	1794113536	7	3901
2026-01-02 12:58:13.88	232.72	54.15	-23.3	-24.1	19.3	0.00e+00	0	43	0	1799356416	7	3939
2026-01-02 12:58:14.87	233.39	54.30	-23.5	-24.5	19.1	0.00e+00	0	43	0	1805647872	7	4027
2026-01-02 12:58:15.88	234.08	54.45	-23.4	-24.3	19.1	0.00e+00	0	43	0	1810890752	7	4000
2026-01-02 12:58:16.89	234.77	54.59	-23.4	-24.3	19.1	0.00e+00	0	43	0	1817182208	7	3999
2026-01-02 12:58:17.89	235.47	54.73	-23.2	-23.9	19.3	0.00e+00	0	43	0	1822425088	7	3899
2026-01-02 12:58:18.89	236.17	54.87	-23.2	-23.9	19.4	0.00e+00	0	43	0	1828716544	7	3885
2026-01-02 12:58:19.89	236.87	55.00	-23.5	-24.4	19.1	0.00e+00	0	43	0	1833959424	7	4020
2026-01-02 12:58:20.90	237.60	55.13	-23.5	-24.4	19.1	0.00e+00	0	43	0	1839202304	7	4016
2026-01-02 12:58:21.91	238.32	55.26	-23.7	-25.0	18.8	0.00e+00	0	43	0	1845493760	7	4149
2026-01-02 12:58:22.91	239.05	55.38	-23.6	-24.6	19.0	0.00e+00	0	43	0	1850736640	7	4062
2026-01-02 12:58:23.91	239.78	55.49	-23.4	-24.3	19.2	0.00e+00	0	43	0	1855979520	7	3988
2026-01-02 12:58:24.92	240.53	55.60	-23.4	-24.3	19.2	0.00e+00	0	43	0	1862270976	7	3980
2026-01-02 12:58:25.92	241.27	55.71	-23.4	-24.2	19.2	0.00e+00	0	43	0	1867513856	7	3964
2026-01-02 12:58:26.92	242.02	55.81	-23.3	-24.1	19.3	0.00e+00	0	43	0	1872756736	7	3928
2026-01-02 12:58:27.92	242.78	55.91	-23.3	-24.0	19.3	0.00e+00	0	43	0	1879048192	7	3917
2026-01-02 12:58:28.92	243.54	56.00	-23.4	-24.2	19.2	0.00e+00	0	43	0	1884291072	7	3971
2026-01-02 12:58:29.92	244.30	56.09	-23.5	-24.5	19.1	0.00e+00	0	43	0	1890582528	7	4032
2026-01-02 12:58:30.93	245.08	56.18	-23.7	-24.9	18.8	0.00e+00	0	43	0	1895825408	7	4151
2026-01-02 12:58:31.92	245.84	56.26	-23.4	-24.4	19.1	0.00e+00	0	43	0	1901068288	7	4001
2026-01-02 12:58:32.92	246.62	56.33	-23.4	-24.3	19.2	0.00e+00	0	43	0	1907359744	7	3989
2026-01-02 12:58:33.92	247.41	56.40	-23.8	-25.1	18.8	0.00e+00	0	43	0	1912602624	7	4196
2026-01-02 12:58:34.92	248.19	56.46	-23.6	-24.6	19.0	0.00e+00	0	43	0	1917845504	7	4058
2026-01-02 12:58:35.93	248.99	56.52	-23.3	-24.0	19.4	0.00e+00	0	44	0	1924136960	7	3903
2026-01-02 12:58:36.93	249.78	56.57	-23.7	-24.9	18.9	0.00e+00	0	43	0	1929379840	7	4131
2026-01-02 12:58:37.94	250.58	56.62	-24.1	-25.3	18.4	0.00e+00	0	44	0	1935671296	8	4131
2026-01-02 12:58:38.95	251.39	56.67	-24.0	-25.0	18.6	0.00e+00	0	44	0	1940914176	8	4044
2026-01-02 12:58:39.95	252.19	56.70	-24.0	-25.0	18.6	0.00e+00	0	43	0	1946157056	8	4058
2026-01-02 12:58:40.96	253.00	56.74	-24.4	-25.9	18.1	0.00e+00	0	44	0	1952448512	8	4282
2026-01-02 12:58:41.96	253.81	56.76	-24.2	-24.9	18.4	0.00e+00	0	44	0	1957691392	9	3903
2026-01-02 12:58:42.96	254.61	56.79	-24.1	-24.7	18.5	0.00e+00	0	43	0	1963982848	9	3863
2026-01-02 12:58:43.96	255.42	56.80	-24.1	-24.7	18.5	0.00e+00	0	43	0	1969225728	9	3875
2026-01-02 12:58:44.96	256.23	56.81	-24.0	-24.5	18.6	0.00e+00	0	44	0	1974468608	9	3819
2026-01-02 12:58:45.96	257.03	56.82	-24.2	-24.9	18.4	0.00e+00	0	43	0	1980760064	9	3917
2026-01-02 12:58:46.97	257.85	56.82	-24.0	-24.6	18.6	0.00e+00	0	44	0	1986002944	9	3836
2026-01-02 12:58:47.97	258.66	56.81	-23.7	-24.3	19.0	0.00e+00	0	43	0	1991245824	8	3878
2026-01-02 12:58:48.98	259.47	56.80	-23.9	-24.9	18.7	0.00e+00	0	43	0	1997537280	8	4015
2026-01-02 12:58:49.97	260.27	56.79	-24.0	-25.1	18.5	0.00e+00	0	43	0	2002780160	8	4082
2026-01-02 12:58:50.98	261.09	56.77	-24.2	-25.4	18.4	0.00e+00	0	43	0	2008023040	8	4157
2026-01-02 12:58:51.98	261.89	56.74	-23.8	-24.5	18.8	0.00e+00	0	43	0	2014314496	8	3925
2026-01-02 12:58:52.99	262.70	56.71	-23.6	-24.3	19.0	0.00e+00	0	43	0	2019557376	8	3872
2026-01-02 12:58:53.98	263.49	56.67	-23.5	-23.9	19.2	0.00e+00	0	44	0	2025848832	8	3789
2026-01-02 12:58:54.99	264.30	56.63	-23.3	-23.6	19.3	0.00e+00	0	44	0	2031091712	8	3718
2026-01-02 12:58:55.99	265.09	56.58	-23.4	-23.7	19.3	0.00e+00	0	44	0	2037383168	8	3745
2026-01-02 12:58:56.98	265.88	56.53	-23.6	-24.2	19.0	0.00e+00	0	44	0	2042626048	8	3864
2026-01-02 12:58:57.99	266.68	56.47	-23.5	-23.9	19.2	0.00e+00	0	44	0	2047868928	8	3794
2026-01-02 12:58:58.99	267.46	56.40	-23.4	-23.8	19.2	0.00e+00	0	43	0	2054160384	8	3755
2026-01-02 12:58:59.99	268.24	56.34	-23.7	-24.4	18.9	0.00e+00	0	44	0	2059403264	8	3909
2026-01-02 12:59:00.99	269.02	56.26	-23.7	-24.3	18.9	0.00e+00	0	43	0	2064646144	8	3890
2026-01-02 12:59:02.00	269.80	56.18	-24.2	-25.4	18.4	0.00e+00	0	43	0	2070937600	8	4147
2026-01-02 12:59:03.00	270.57	56.10	-23.9	-24.8	18.7	0.00e+00	0	43	0	2076180480	8	4003
2026-01-02 12:59:04.00	271.34	56.01	-23.6	-24.1	19.0	0.00e+00	0	44	0	2081423360	8	3832
2026-01-02 12:59:05.00	272.10	55.92	-23.4	-23.9	19.2	0.00e+00	0	43	0	2087714816	8	3776
2026-01-02 12:59:06.01	272.86	55.82	-23.5	-24.0	19.1	0.00e+00	0	43	0	2092957696	8	3814
2026-01-02 12:59:07.01	273.61	55.72	-23.4	-23.8	19.2	0.00e+00	0	44	0	2099249152	8	3760
2026-01-02 12:59:08.01	274.35	55.61	-23.4	-23.7	19.3	0.00e+00	0	44	0	2104492032	8	3739
2026-01-02 12:59:09.01	275.09	55.50	-23.3	-23.6	19.3	0.00e+00	0	43	0	2109734912	8	3725
2026-01-02 12:59:10.01	275.82	55.39	-23.8	-24.5	18.9	0.00e+00	0	44	0	2116026368	8	3929
2026-01-02 12:59:11.02	276.56	55.27	-24.0	-25.0	18.6	0.00e+00	0	44	0	2121269248	8	4052
2026-01-02 12:59:12.02	277.28	55.14	-24.2	-25.5	18.3	0.00e+00	0	44	0	2126512128	8	4169
2026-01-02 12:59:13.02	277.99	55.01	-24.0	-25.1	18.6	0.00e+00	0	43	0	2132803584	8	4066
2026-01-02 12:59:14.02	278.70	54.88	-23.7	-24.5	18.9	0.00e+00	0	44	0	2138046464	8	3923
2026-01-02 12:59:15.02	279.40	54.75	-23.6	-24.3	19.0	0.00e+00	0	43	0	2143289344	8	3864
2026-01-02 12:59:16.02	280.09	54.61	-23.7	-24.5	18.9	0.00e+00	0	43	0	2149580800	8	3915
2026-01-02 12:59:17.02	280.78	54.46	-23.6	-24.2	19.0	0.00e+00	0	43	0	2154823680	8	3859
2026-01-02 12:59:18.03	281.46	54.32	-23.7	-24.5	18.9	0.00e+00	0	44	0	2161115136	8	3916
2026-01-02 12:59:19.03	282.14	54.17	-23.6	-24.1	19.1	0.00e+00	0	44	0	2166358016	8	3839
2026-01-02 12:59:20.03	282.80	54.01	-23.4	-23.8	19.2	0.00e+00	0	43	0	2171600896	8	3769
2026-01-02 12:59:21.03	283.46	53.86	-23.4	-23.7	19.3	0.00e+00	0	43	0	2177892352	8	3733
2026-01-02 12:59:22.04	284.12	53.69	-23.2	-23.8	19.5	0.00e+00	0	44	0	2183135232	7	3854
2026-01-02 12:59:23.05	284.77	53.53	-23.4	-24.3	19.2	0.00e+00	0	43	0	2189426688	7	3991
2026-01-02 12:59:24.06	285.41	53.36	-23.6	-24.7	18.9	0.00e+00	0	44	0	2194669568	7	4091
2026-01-02 12:59:25.06	286.04	53.19	-23.2	-23.8	19.4	0.00e+00	0	43	0	2199912448	7	3867
2026-01-02 12:59:26.07	286.67	53.02	-23.2	-23.8	19.4	0.00e+00	0	43	0	2206203904	7	3869
2026-01-02 12:59:27.07	287.29	52.84	-23.5	-24.6	19.0	0.00e+00	0	44	0	2211446784	7	4064
2026-01-02 12:59:28.08	287.90	52.66	-23.5	-24.4	19.1	0.00e+00	0	44	0	2216689664	7	4014
2026-01-02 12:59:29.09	288.51	52.48	-23.3	-24.0	19.3	0.00e+00	0	44	0	2222981120	7	3910
2026-01-02 12:59:30.09	289.10	52.30	-23.3	-24.0	19.4	0.00e+00	0	44	0	2228224000	7	3911
2026-01-02 12:59:31.09	289.69	52.11	-23.5	-24.6	19.1	0.00e+00	0	43	0	2234515456	7	4047
2026-01-02 12:59:32.10	290.27	51.93	-23.3	-24.1	19.3	0.00e+00	0	43	0	2239758336	7	3942
2026-01-02 12:59:33.10	290.84	51.74	-23.1	-23.7	19.5	0.00e+00	0	43	0	2246049792	7	3853
2026-01-02 12:59:34.10	291.41	51.54	-23.1	-23.6	19.6	0.00e+00	0	44	0	2251292672	7	3814
2026-01-02 12:59:35.10	291.96	51.35	-23.0	-23.4	19.6	0.00e+00	0	44	0	2256535552	7	3786
2026-01-02 12:59:36.11	292.52	51.15	-23.1	-23.7	19.5	0.00e+00	0	43	0	2262827008	7	3834
2026-01-02 12:59:37.11	293.06	50.96	-23.0	-23.4	19.7	0.00e+00	0	44	0	2268069888	7	3786
2026-01-02 12:59:38.11	293.59	50.76	-23.4	-24.2	19.3	0.00e+00	0	44	0	2273312768	7	3958
2026-01-02 12:59:39.12	294.13	50.55	-23.2	-23.8	19.4	0.00e+00	0	44	0	2279604224	7	3876
2026-01-02 12:59:40.12	294.65	50.35	-23.1	-23.6	19.5	0.00e+00	0	44	0	2284847104	7	3821
2026-01-02 12:59:41.13	295.17	50.15	-23.1	-23.7	19.5	0.00e+00	0	44	0	2290089984	7	3831
2026-01-02 12:59:42.13	295.68	49.94	-23.2	-23.8	19.5	0.00e+00	0	44	0	2296381440	7	3865
2026-01-02 12:59:43.14	296.18	49.73	-23.4	-24.2	19.3	0.00e+00	0	43	0	2301624320	7	3957
2026-01-02 12:59:44.14	296.68	49.52	-23.3	-24.0	19.4	0.00e+00	0	43	0	2307915776	7	3908
2026-01-02 12:59:45.15	297.17	49.31	-23.2	-23.8	19.4	0.00e+00	0	44	0	2313158656	7	3870
2026-01-02 12:59:46.15	297.65	49.10	-23.0	-23.5	19.6	0.00e+00	0	43	0	2319450112	7	3809
2026-01-02 12:59:47.16	298.13	48.89	-22.9	-23.3	19.7	0.00e+00	0	44	0	2324692992	7	3756
2026-01-02 12:59:48.16	298.59	48.68	-23.0	-23.4	19.6	0.00e+00	0	44	0	2329935872	7	3782
2026-01-02 12:59:49.16	299.06	48.46	-22.8	-23.0	19.8	0.00e+00	0	43	0	2336227328	7	3686
2026-01-02 12:59:50.16	299.51	48.25	-22.7	-23.4	19.9	0.00e+00	0	44	0	2341470208	6	3882
2026-01-02 12:59:51.16	299.96	48.03	-22.9	-23.7	19.7	0.00e+00	0	43	0	2346713088	6	3951
2026-01-02 12:59:52.17	300.41	47.81	-23.0	-24.0	19.6	0.00e+00	0	44	0	2353004544	6	4019
2026-01-02 12:59:53.17	300.84	47.60	-23.0	-24.0	19.6	0.00e+00	0	44	0	2358247424	6	4024
2026-01-02 12:59:54.17	301.27	47.38	-23.2	-24.3	19.4	0.00e+00	0	44	0	2363490304	6	4103
2026-01-02 12:59:55.17	301.70	47.16	-23.1	-24.2	19.5	0.00e+00	0	43	0	2369781760	6	4086
2026-01-02 12:59:56.17	302.12	46.95	-23.1	-24.2	19.5	0.00e+00	0	43	0	2375024640	6	4074
2026-01-02 12:59:57.17	302.53	46.73	-23.2	-24.3	19.4	0.00e+00	0	43	0	2381316096	6	4098
2026-01-02 12:59:58.18	302.94	46.50	-23.2	-24.4	19.4	0.00e+00	0	44	0	2386558976	6	4119
2026-01-02 12:59:59.18	303.34	46.29	-23.1	-24.1	19.5	0.00e+00	0	44	0	2391801856	6	4035
2026-01-02 13:00:00.19	303.74	46.06	-23.3	-24.5	19.4	0.00e+00	0	44	0	2398093312	6	4138
2026-01-02 13:00:01.19	304.13	45.84	-23.5	-24.4	19.1	0.00e+00	0	43	0	2403336192	7	4022
2026-01-02 13:00:02.20	304.52	45.62	-23.2	-23.8	19.4	0.00e+00	0	43	0	2409627648	7	3867
2026-01-02 13:00:03.20	304.90	45.40	-23.0	-23.4	19.6	0.00e+00	0	43	0	2414870528	7	3767
2026-01-02 13:00:04.20	305.28	45.18	-23.1	-23.6	19.6	0.00e+00	0	44	0	2420113408	7	3810
2026-01-02 13:00:05.20	305.65	44.96	-23.4	-24.3	19.1	0.00e+00	0	44	0	2426404864	7	3993
2026-01-02 13:00:06.21	306.01	44.74	-23.3	-24.1	19.3	0.00e+00	0	44	0	2431647744	7	3936
2026-01-02 13:00:07.21	306.37	44.52	-23.1	-23.8	19.4	0.00e+00	0	44	0	2436890624	7	3859
2026-01-02 13:00:08.22	306.73	44.29	-23.0	-23.4	19.6	0.00e+00	0	44	0	2443182080	7	3787
2026-01-02 13:00:09.22	307.08	44.07	-22.8	-23.1	19.8	0.00e+00	0	44	0	2448424960	7	3716
2026-01-02 13:00:10.23	307.43	43.85	-22.8	-23.0	19.8	0.00e+00	0	44	0	2454716416	7	3696
2026-01-02 13:00:11.23	307.77	43.63	-22.9	-23.2	19.7	0.00e+00	0	44	0	2459959296	7	3730
2026-01-02 13:00:12.24	308.11	43.41	-22.8	-23.5	19.8	0.00e+00	0	44	0	2466250752	6	3896
2026-01-02 13:00:13.24	308.44	43.19	-23.1	-24.2	19.5	0.00e+00	0	43	0	2471493632	6	4069
2026-01-02 13:00:14.24	308.77	42.97	-23.2	-24.4	19.3	0.00e+00	0	44	0	2476736512	6	4136
2026-01-02 13:00:15.24	309.09	42.75	-22.9	-23.7	19.7	0.00e+00	0	43	0	2483027968	6	3959
2026-01-02 13:00:16.25	309.41	42.53	-22.7	-23.3	19.9	0.00e+00	0	43	0	2488270848	6	3858
2026-01-02 13:00:17.25	309.72	42.31	-22.8	-23.4	19.8	0.00e+00	0	44	0	2493513728	6	3886
2026-01-02 13:00:18.26	310.04	42.09	-23.0	-23.9	19.6	0.00e+00	0	43	0	2499805184	6	4010
2026-01-02 13:00:19.27	310.35	41.87	-23.0	-24.0	19.5	0.00e+00	0	43	0	2505048064	6	4020
2026-01-02 13:00:20.28	310.65	41.65	-23.1	-24.2	19.4	0.00e+00	0	43	0	2510290944	6	4071
2026-01-02 13:00:21.28	310.95	41.43	-23.4	-24.8	19.1	0.00e+00	0	43	0	2516582400	6	4215
2026-01-02 13:00:22.29	311.24	41.21	-23.1	-24.1	19.5	0.00e+00	0	43	0	2521825280	6	4056
2026-01-02 13:00:23.29	311.53	41.00	-22.8	-23.5	19.7	0.00e+00	0	44	0	2528116736	6	3915
2026-01-02 13:00:24.30	311.82	40.78	-22.7	-23.4	19.8	0.00e+00	0	44	0	2533359616	6	3871
2026-01-02 13:00:25.30	312.10	40.57	-22.9	-23.7	19.7	0.00e+00	0	44	0	2539651072	6	3953
2026-01-02 13:00:26.30	312.38	40.35	-23.0	-24.0	19.5	0.00e+00	0	43	0	2544893952	6	4025
2026-01-02 13:00:27.30	312.66	40.14	-23.1	-24.1	19.5	0.00e+00	0	43	0	2550136832	6	4056
2026-01-02 13:00:28.30	312.93	39.92	-23.2	-24.3	19.3	0.00e+00	0	43	0	2556428288	6	4107
2026-01-02 13:00:29.31	313.20	39.71	-23.0	-23.9	19.5	0.00e+00	0	44	0	2561671168	6	4007
2026-01-02 13:00:30.31	313.46	39.50	-22.9	-23.7	19.6	0.00e+00	0	44	0	2566914048	6	3955
2026-01-02 13:00:31.31	313.72	39.29	-22.9	-23.7	19.7	0.00e+00	0	44	0	2573205504	6	3949
2026-01-02 13:00:32.32	313.98	39.07	-23.1	-24.2	19.4	0.00e+00	0	44	0	2578448384	6	4064
2026-01-02 13:00:33.33	314.24	38.86	-23.4	-24.8	19.1	0.00e+00	0	44	0	2583691264	6	4221
2026-01-02 13:00:34.33	314.49	38.65	-23.1	-24.1	19.5	0.00e+00	0	43	0	2589982720	6	4039
2026-01-02 13:00:35.34	314.74	38.44	-22.8	-23.5	19.8	0.00e+00	0	44	0	2595225600	6	3901
2026-01-02 13:00:36.34	314.99	38.23	-22.6	-23.0	20.0	0.00e+00	0	44	0	2601517056	6	3796
2026-01-02 13:00:37.35	315.23	38.02	-22.5	-23.0	20.0	0.00e+00	0	44	0	2606759936	6	3781
2026-01-02 13:00:38.35	315.47	37.82	-22.5	-22.9	20.0	0.00e+00	0	44	0	2613051392	6	3772
2026-01-02 13:00:39.35	315.70	37.61	-22.5	-22.9	20.1	0.00e+00	0	43	0	2618294272	6	3761
2026-01-02 13:00:40.35	315.94	37.41	-22.6	-23.0	20.0	0.00e+00	0	44	0	2623537152	6	3800
2026-01-02 13:00:41.35	316.17	37.20	-22.5	-22.9	20.1	0.00e+00	0	44	0	2629828608	6	3760
2026-01-02 13:00:42.36	316.40	37.00	-22.5	-22.8	20.1	0.00e+00	0	44	0	2635071488	6	3752
2026-01-02 13:00:43.37	316.62	36.79	-22.4	-22.7	20.1	0.00e+00	0	44	0	2640314368	6	3724
2026-01-02 13:00:44.37	316.85	36.59	-22.2	-22.9	20.3	0.00e+00	0	43	0	2646605824	5	3870
2026-01-02 13:00:45.38	317.07	36.39	-22.2	-22.8	20.3	0.00e+00	0	44	0	2651848704	5	3853
2026-01-02 13:00:46.38	317.28	36.19	-22.2	-22.8	20.3	0.00e+00	0	44	0	2657091584	5	3845
2026-01-02 13:00:47.39	317.50	35.99	-22.3	-22.9	20.2	0.00e+00	0	44	0	2663383040	5	3887
2026-01-02 13:00:48.39	317.71	35.79	-22.3	-22.9	20.2	0.00e+00	0	43	0	2668625920	5	3887
2026-01-02 13:00:49.39	317.92	35.59	-22.4	-23.2	20.1	0.00e+00	0	44	0	2674917376	5	3945
2026-01-02 13:00:50.39	318.12	35.39	-22.5	-23.3	20.0	0.00e+00	0	44	0	2680160256	5	3979
2026-01-02 13:00:51.39	318.33	35.20	-22.4	-23.1	20.1	0.00e+00	0	44	0	2686451712	5	3921
2026-01-02 13:00:52.40	318.53	35.00	-22.4	-23.2	20.1	0.00e+00	0	43	0	2691694592	5	3939
2026-01-02 13:00:53.40	318.73	34.80	-22.5	-23.4	20.0	0.00e+00	0	44	0	2696937472	5	3984
2026-01-02 13:00:54.40	318.93	34.61	-22.5	-23.4	20.0	0.00e+00	0	43	0	2703228928	5	4005
2026-01-02 13:00:55.41	319.12	34.42	-22.6	-23.5	19.9	0.00e+00	0	43	0	2708471808	5	4025
2026-01-02 13:00:56.41	319.32	34.22	-22.6	-23.6	19.9	0.00e+00	0	43	0	2713714688	5	4037
2026-01-02 13:00:57.42	319.51	34.03	-22.5	-23.4	20.0	0.00e+00	0	43	0	2720006144	5	4006
2026-01-02 13:00:58.42	319.70	33.84	-22.4	-23.2	20.1	0.00e+00	0	44	0	2725249024	5	3936
2026-01-02 13:00:59.42	319.88	33.65	-22.4	-23.2	20.1	0.00e+00	0	43	0	2730491904	5	3953
2026-01-02 13:01:00.42	320.07	33.46	-22.5	-23.3	20.0	0.00e+00	0	43	0	2736783360	5	3980
2026-01-02 13:01:01.42	320.25	33.28	-22.5	-23.4	20.0	0.00e+00	0	43	0	2742026240	5	3984
2026-01-02 13:01:02.41	320.43	33.09	-22.6	-23.5	19.9	0.00e+00	0	43	0	2748317696	5	4020
2026-01-02 13:01:03.41	320.60	32.91	-22.6	-23.6	19.9	0.00e+00	0	44	0	2753560576	5	4052
2026-01-02 13:01:04.41	320.78	32.72	-22.7	-23.8	19.8	0.00e+00	0	44	0	2758803456	5	4095
2026-01-02 13:01:05.42	320.95	32.53	-22.7	-23.9	19.7	0.00e+00	0	43	0	2765094912	5	4112
2026-01-02 13:01:06.42	321.13	32.35	-22.9	-24.2	19.6	0.00e+00	0	43	0	2770337792	5	4190
2026-01-02 13:01:07.42	321.30	32.17	-22.8	-24.1	19.6	0.00e+00	0	44	0	2775580672	5	4168
2026-01-02 13:01:08.42	321.46	31.99	-23.0	-24.0	19.5	0.00e+00	0	44	0	2781872128	6	4033
2026-01-02 13:01:09.43	321.63	31.80	-23.0	-24.0	19.4	0.00e+00	0	44	0	2787115008	6	4031
2026-01-02 13:01:10.43	321.80	31.62	-23.3	-24.5	19.2	0.00e+00	0	44	0	2792357888	6	4153
2026-01-02 13:01:11.44	321.96	31.44	-23.4	-24.7	19.1	0.00e+00	0	44	0	2798649344	6	4213
2026-01-02 13:01:12.44	322.12	31.26	-23.4	-24.8	19.0	0.00e+00	0	43	0	2803892224	6	4224
2026-01-02 13:01:13.45	322.28	31.09	-23.3	-24.5	19.1	0.00e+00	0	44	0	2810183680	6	4156
2026-01-02 13:01:14.45	322.44	30.91	-23.1	-24.1	19.4	0.00e+00	0	44	0	2815426560	6	4047
2026-01-02 13:01:15.44	322.59	30.73	-23.0	-23.9	19.4	0.00e+00	0	43	0	2821718016	6	4009
2026-01-02 13:01:16.44	322.75	30.56	-23.2	-24.4	19.2	0.00e+00	0	44	0	2826960896	6	4116
2026-01-02 13:01:17.45	322.90	30.38	-22.9	-23.8	19.5	0.00e+00	0	44	0	2832203776	6	3966
2026-01-02 13:01:18.45	323.05	30.21	-22.9	-23.7	19.5	0.00e+00	0	43	0	2838495232	6	3957
2026-01-02 13:01:19.45	323.20	30.04	-22.9	-23.6	19.6	0.00e+00	0	44	0	2843738112	6	3935
2026-01-02 13:01:20.46	323.35	29.87	-22.9	-23.7	19.6	0.00e+00	0	44	0	2848980992	6	3957
2026-01-02 13:01:21.46	323.50	29.70	-23.0	-24.0	19.4	0.00e+00	0	44	0	2855272448	6	4038
2026-01-02 13:01:22.47	323.64	29.52	-23.2	-24.3	19.3	0.00e+00	0	44	0	2860515328	6	4094
2026-01-02 13:01:23.47	323.79	29.35	-23.2	-24.3	19.2	0.00e+00	0	43	0	2865758208	6	4108
2026-01-02 13:01:24.48	323.93	29.18	-23.2	-24.3	19.2	0.00e+00	0	44	0	2872049664	6	4108
2026-01-02 13:01:25.49	324.07	29.02	-23.1	-24.1	19.3	0.00e+00	0	44	0	2877292544	6	4062
2026-01-02 13:01:26.50	324.21	28.85	-23.2	-24.4	19.2	0.00e+00	0	44	0	2883584000	6	4143
2026-01-02 13:01:27.49	324.35	28.68	-23.1	-24.3	19.2	0.00e+00	0	44	0	2888826880	6	4098
2026-01-02 13:01:28.50	324.49	28.52	-23.1	-24.1	19.3	0.00e+00	0	44	0	2895118336	6	4063
2026-01-02 13:01:29.50	324.62	28.35	-23.2	-24.3	19.2	0.00e+00	0	43	0	2900361216	6	4101
2026-01-02 13:01:30.51	324.76	28.19	-23.3	-24.6	19.1	0.00e+00	0	43	0	2905604096	6	4186
2026-01-02 13:01:31.51	324.89	28.03	-23.4	-24.2	19.0	0.00e+00	0	44	0	2911895552	7	3961
2026-01-02 13:01:32.52	325.02	27.86	-23.1	-23.6	19.3	0.00e+00	0	44	0	2917138432	7	3829
2026-01-02 13:01:33.52	325.15	27.70	-22.9	-23.2	19.5	0.00e+00	0	44	0	2922381312	7	3741
2026-01-02 13:01:34.52	325.28	27.54	-22.9	-23.1	19.6	0.00e+00	0	44	0	2928672768	7	3717
2026-01-02 13:01:35.53	325.41	27.38	-22.9	-23.2	19.5	0.00e+00	0	44	0	2933915648	7	3730
2026-01-02 13:01:36.53	325.53	27.22	-22.8	-23.1	19.6	0.00e+00	0	44	0	2940207104	7	3712
2026-01-02 13:01:37.53	325.66	27.06	-22.9	-23.2	19.5	0.00e+00	0	44	0	2945449984	7	3742
2026-01-02 13:01:38.53	325.78	26.91	-22.8	-23.1	19.5	0.00e+00	0	43	0	2950692864	7	3724
2026-01-02 13:01:39.53	325.91	26.75	-23.0	-23.4	19.4	0.00e+00	0	44	0	2956984320	7	3784
2026-01-02 13:01:40.54	326.03	26.59	-22.9	-23.3	19.5	0.00e+00	0	44	0	2962227200	7	3760
2026-01-02 13:01:41.55	326.15	26.44	-22.8	-23.1	19.5	0.00e+00	0	44	0	2968518656	7	3722
2026-01-02 13:01:42.56	326.27	26.28	-23.0	-23.4	19.4	0.00e+00	0	44	0	2973761536	7	3781
2026-01-02 13:01:43.56	326.39	26.13	-22.9	-23.3	19.4	0.00e+00	0	44	0	2979004416	7	3767
2026-01-02 13:01:44.56	326.50	25.98	-22.9	-23.3	19.4	0.00e+00	0	44	0	2985295872	7	3762
2026-01-02 13:01:45.57	326.62	25.83	-23.2	-23.8	19.2	0.00e+00	0	43	0	2990538752	7	3869
2026-01-02 13:01:46.57	326.74	25.67	-23.1	-23.6	19.3	0.00e+00	0	43	0	2995781632	7	3834
2026-01-02 13:01:47.57	326.85	25.52	-23.4	-24.2	19.0	0.00e+00	0	44	0	3002073088	7	3968
2026-01-02 13:01:48.57	326.96	25.37	-23.3	-24.1	19.0	0.00e+00	0	44	0	3007315968	7	3949
2026-01-02 13:01:49.57	327.07	25.23	-23.2	-23.8	19.2	0.00e+00	0	44	0	3013607424	7	3873
2026-01-02 13:01:50.58	327.19	25.08	-23.3	-24.0	19.1	0.00e+00	0	43	0	3018850304	7	3918
2026-01-02 13:01:51.58	327.30	24.93	-23.2	-23.9	19.1	0.00e+00	0	43	0	3024093184	7	3902
2026-01-02 13:01:52.58	327.40	24.78	-23.4	-24.2	19.0	0.00e+00	0	43	0	3030384640	7	3971
2026-01-02 13:01:53.58	327.51	24.64	-23.5	-24.4	18.9	0.00e+00	0	43	0	3035627520	7	4020
2026-01-02 13:01:54.59	327.62	24.49	-23.4	-24.4	18.8	0.00e+00	0	44	0	3041918976	7	4015
2026-01-02 13:01:55.59	327.73	24.35	-23.5	-24.6	18.8	0.00e+00	0	44	0	3047161856	7	4062
2026-01-02 13:01:56.60	327.83	24.20	-23.6	-24.7	18.7	0.00e+00	0	44	0	3052404736	7	4090
2026-01-02 13:01:57.60	327.94	24.06	-23.5	-24.5	18.8	0.00e+00	0	44	0	3058696192	7	4054
2026-01-02 13:01:58.60	328.04	23.92	-23.5	-24.6	18.7	0.00e+00	0	44	0	3063939072	7	4073
2026-01-02 13:01:59.61	328.14	23.77	-23.6	-24.8	18.7	0.00e+00	0	44	0	3069181952	7	4122
2026-01-02 13:02:00.61	328.24	23.63	-23.6	-24.8	18.6	0.00e+00	0	44	0	3075473408	7	4114
2026-01-02 13:02:01.62	328.34	23.49	-23.5	-24.5	18.8	0.00e+00	0	44	0	3080716288	7	4052
2026-01-02 13:02:02.63	328.44	23.35	-23.6	-24.7	18.7	0.00e+00	0	44	0	3087007744	7	4105
2026-01-02 13:02:03.63	328.54	23.21	-23.5	-24.5	18.8	0.00e+00	0	44	0	3092250624	7	4053
2026-01-02 13:02:04.64	328.64	23.07	-23.6	-24.7	18.7	0.00e+00	0	44	0	3098542080	7	4082
2026-01-02 13:02:05.64	328.74	22.94	-23.6	-24.7	18.7	0.00e+00	0	44	0	3103784960	7	4100
2026-01-02 13:02:06.64	328.84	22.80	-23.7	-24.9	18.6	0.00e+00	0	44	0	3109027840	7	4133
2026-01-02 13:02:07.64	328.93	22.66	-23.5	-24.6	18.7	0.00e+00	0	44	0	3115319296	7	4072
2026-01-02 13:02:08.64	329.03	22.53	-23.5	-24.6	18.7	0.00e+00	0	43	0	3120562176	7	4066
2026-01-02 13:02:09.64	329.12	22.39	-23.6	-24.7	18.7	0.00e+00	0	44	0	3125805056	7	4076
2026-01-02 13:02:10.64	329.21	22.26	-23.6	-24.8	18.6	0.00e+00	0	44	0	3132096512	7	4111
2026-01-02 13:02:11.65	329.31	22.12	-23.7	-25.0	18.5	0.00e+00	0	44	0	3137339392	7	4169
2026-01-02 13:02:12.65	329.40	21.99	-23.8	-25.1	18.5	0.00e+00	0	43	0	3142582272	7	4180
2026-01-02 13:02:13.65	329.49	21.86	-24.0	-25.5	18.2	0.00e+00	0	44	0	3148873728	7	4283
2026-01-02 13:02:14.65	329.58	21.73	-23.9	-24.8	18.4	0.00e+00	0	44	0	3154116608	8	4005
2026-01-02 13:02:15.65	329.67	21.59	-23.9	-24.9	18.3	0.00e+00	0	44	0	3160408064	8	4030
2026-01-02 13:02:16.65	329.76	21.46	-24.1	-25.2	18.1	0.00e+00	0	44	0	3165650944	8	4115
2026-01-02 13:02:17.65	329.84	21.33	-24.1	-25.2	18.1	0.00e+00	0	44	0	3170893824	8	4110
2026-01-02 13:02:18.66	329.93	21.20	-24.2	-25.4	18.1	0.00e+00	0	43	0	3177185280	8	4159
2026-01-02 13:02:19.66	330.02	21.08	-24.1	-25.3	18.1	0.00e+00	0	44	0	3182428160	8	4136
2026-01-02 13:02:20.66	330.10	20.95	-23.9	-24.9	18.3	0.00e+00	0	44	0	3187671040	8	4025
2026-01-02 13:02:21.66	330.19	20.82	-24.1	-25.2	18.1	0.00e+00	0	44	0	3193962496	8	4107
2026-01-02 13:02:22.66	330.27	20.69	-24.0	-25.0	18.2	0.00e+00	0	44	0	3199205376	8	4068
2026-01-02 13:02:23.67	330.36	20.57	-23.9	-24.9	18.3	0.00e+00	0	44	0	3204448256	8	4022
2026-01-02 13:02:24.67	330.44	20.44	-24.0	-25.1	18.2	0.00e+00	0	44	0	3210739712	8	4079
2026-01-02 13:02:25.67	330.52	20.31	-24.0	-25.1	18.2	0.00e+00	0	44	0	3215982592	8	4071
2026-01-02 13:02:26.67	330.61	20.19	-24.1	-25.3	18.1	0.00e+00	0	44	0	3222274048	8	4133
2026-01-02 13:02:27.68	330.69	20.06	-24.1	-25.2	18.1	0.00e+00	0	44	0	3227516928	8	4105
2026-01-02 13:02:28.68	330.77	19.94	-24.3	-25.7	17.9	0.00e+00	0	44	0	3232759808	8	4226
2026-01-02 13:02:29.68	330.85	19.82	-24.4	-25.5	17.7	0.00e+00	0	44	0	3239051264	9	4073
2026-01-02 13:02:30.68	330.93	19.70	-24.4	-25.3	17.8	0.00e+00	0	44	0	3244294144	9	4026
2026-01-02 13:02:31.68	331.01	19.57	-24.4	-25.4	17.8	0.00e+00	0	44	0	3249537024	9	4038
2026-01-02 13:02:32.69	331.09	19.45	-24.4	-25.4	17.7	0.00e+00	0	44	0	3255828480	9	4043
2026-01-02 13:02:33.69	331.16	19.33	-24.4	-25.4	17.7	0.00e+00	0	44	0	3261071360	9	4041
2026-01-02 13:02:34.69	331.24	19.21	-24.6	-25.8	17.5	0.00e+00	0	44	0	3267362816	9	4148
2026-01-02 13:02:35.70	331.32	19.09	-24.5	-25.7	17.6	0.00e+00	0	44	0	3272605696	9	4113
2026-01-02 13:02:36.69	331.39	18.97	-24.5	-25.5	17.6	0.00e+00	0	44	0	3277848576	9	4074
2026-01-02 13:02:37.70	331.47	18.85	-24.4	-25.5	17.6	0.00e+00	0	44	0	3284140032	9	4076
2026-01-02 13:02:38.71	331.55	18.73	-24.4	-25.4	17.7	0.00e+00	0	43	0	3289382912	9	4031
2026-01-02 13:02:39.71	331.62	18.62	-24.4	-25.5	17.6	0.00e+00	0	44	0	3295674368	9	4060
2026-01-02 13:02:40.71	331.69	18.50	-24.5	-25.6	17.6	0.00e+00	0	44	0	3300917248	9	4097
2026-01-02 13:02:41.71	331.77	18.38	-24.5	-25.6	17.6	0.00e+00	0	44	0	3306160128	9	4103
2026-01-02 13:02:42.71	331.84	18.27	-24.5	-25.6	17.6	0.00e+00	0	44	0	3312451584	9	4091
2026-01-02 13:02:43.72	331.91	18.15	-24.7	-26.0	17.3	0.00e+00	0	43	0	3317694464	9	4195
2026-01-02 13:02:44.72	331.99	18.04	-24.6	-25.8	17.4	0.00e+00	0	44	0	3322937344	9	4156
2026-01-02 13:02:45.72	332.06	17.92	-24.7	-26.0	17.3	0.00e+00	0	43	0	3329228800	9	4201
2026-01-02 13:02:46.72	332.13	17.81	-24.7	-26.0	17.4	0.00e+00	0	44	0	3334471680	9	4186
2026-01-02 13:02:47.72	332.20	17.69	-24.6	-25.9	17.4	0.00e+00	0	44	0	3339714560	9	4174
2026-01-02 13:02:48.72	332.27	17.58	-24.9	-26.4	17.1	0.00e+00	0	44	0	3346006016	9	4307
2026-01-02 13:02:49.73	332.34	17.47	-24.8	-26.2	17.2	0.00e+00	0	44	0	3351248896	9	4261
2026-01-02 13:02:50.73	332.41	17.36	-24.9	-26.5	17.1	0.00e+00	0	44	0	3357540352	9	4326
2026-01-02 13:02:51.73	332.47	17.24	-25.3	-26.9	16.6	0.00e+00	0	44	0	3362783232	10	4309
2026-01-02 13:02:52.73	332.54	17.13	-25.3	-26.9	16.6	0.00e+00	0	44	0	3368026112	10	4315
2026-01-02 13:02:53.74	332.61	17.02	-25.4	-27.0	16.5	0.00e+00	0	44	0	3374317568	10	4355
2026-01-02 13:02:54.74	332.68	16.91	-25.6	-27.0	16.2	0.00e+00	0	44	0	3379560448	11	4236
2026-01-02 13:02:55.74	332.74	16.80	-25.2	-26.2	16.7	0.00e+00	0	44	0	3385851904	11	4025
2026-01-02 13:02:56.74	332.81	16.69	-25.3	-26.5	16.5	0.00e+00	0	44	0	3391094784	11	4102
2026-01-02 13:02:57.75	332.88	16.58	-25.4	-26.5	16.5	0.00e+00	0	44	0	3396337664	11	4111
2026-01-02 13:02:58.75	332.94	16.47	-25.4	-26.5	16.5	0.00e+00	0	44	0	3402629120	11	4113
2026-01-02 13:02:59.75	333.01	16.37	-25.4	-26.7	16.4	0.00e+00	0	44	0	3407872000	11	4164
2026-01-02 13:03:00.75	333.07	16.26	-25.5	-26.9	16.3	0.00e+00	0	44	0	3413114880	11	4204
2026-01-02 13:03:01.76	333.13	16.15	-25.5	-26.9	16.3	0.00e+00	0	44	0	3419406336	11	4210
2026-01-02 13:03:02.77	333.20	16.04	-25.5	-26.9	16.3	0.00e+00	0	44	0	3424649216	11	4215
2026-01-02 13:03:03.77	333.26	15.94	-25.7	-27.2	16.1	0.00e+00	0	43	0	3430940672	11	4289
2026-01-02 13:03:04.77	333.32	15.83	-25.7	-27.2	16.1	0.00e+00	0	43	0	3436183552	11	4291
2026-01-02 13:03:05.78	333.39	15.73	-25.8	-27.5	15.9	0.00e+00	0	44	0	3441426432	11	4371
2026-01-02 13:03:06.78	333.45	15.62	-25.8	-27.6	15.9	1.10e-06	0	44	0	3447717888	11	4395
2026-01-02 13:03:07.79	333.51	15.52	-25.8	-27.6	15.9	0.00e+00	0	44	0	3452960768	11	4403
2026-01-02 13:03:08.80	333.57	15.41	-25.7	-27.3	16.0	0.00e+00	0	44	0	3459252224	11	4312
2026-01-02 13:03:09.80	333.63	15.31	-25.8	-27.5	15.9	0.00e+00	0	44	0	3464495104	11	4389
2026-01-02 13:03:10.80	333.69	15.20	-25.8	-27.6	15.9	0.00e+00	0	43	0	3469737984	11	4394
2026-01-02 13:03:11.81	333.75	15.10	-25.8	-27.4	16.0	0.00e+00	0	44	0	3476029440	11	4354
2026-01-02 13:03:12.81	333.81	15.00	-26.2	-27.8	15.4	0.00e+00	0	44	0	3481272320	12	4342
2026-01-02 13:03:13.82	333.87	14.90	-26.2	-27.9	15.4	0.00e+00	0	44	0	3486515200	12	4367
2026-01-02 13:03:14.82	333.93	14.79	-26.0	-27.3	15.6	0.00e+00	0	44	0	3492806656	12	4224
2026-01-02 13:03:15.83	333.99	14.69	-26.0	-27.3	15.6	0.00e+00	0	44	0	3498049536	12	4222
2026-01-02 13:03:16.83	334.05	14.59	-26.3	-28.1	15.2	0.00e+00	0	44	0	3504340992	12	4428
2026-01-02 13:03:17.83	334.10	14.49	-26.2	-28.0	15.3	0.00e+00	0	44	0	3509583872	12	4400
2026-01-02 13:03:18.84	334.16	14.39	-26.2	-28.0	15.3	0.00e+00	0	44	0	3515875328	12	4389
2026-01-02 13:03:19.84	334.22	14.29	-26.6	-28.2	14.8	0.00e+00	0	44	0	3521118208	13	4353
2026-01-02 13:03:20.84	334.28	14.19	-26.5	-28.1	14.9	0.00e+00	0	43	0	3526361088	13	4316
2026-01-02 13:03:21.84	334.33	14.09	-26.3	-27.7	15.1	0.00e+00	0	43	0	3532652544	13	4204
2026-01-02 13:03:22.84	334.39	13.99	-26.1	-27.2	15.4	0.00e+00	0	44	0	3537895424	13	4078
2026-01-02 13:03:23.84	334.44	13.90	-26.3	-27.6	15.2	1.10e-06	0	44	0	3543138304	13	4172
2026-01-02 13:03:24.84	334.50	13.80	-26.2	-27.5	15.2	0.00e+00	0	44	0	3549429760	13	4153
2026-01-02 13:03:25.85	334.55	13.70	-26.6	-28.2	14.8	0.00e+00	0	44	0	3554672640	13	4353
2026-01-02 13:03:26.85	334.61	13.60	-26.3	-27.5	15.2	0.00e+00	0	44	0	3559915520	13	4171
2026-01-02 13:03:27.85	334.66	13.51	-26.1	-27.1	15.4	0.00e+00	0	44	0	3566206976	13	4045
2026-01-02 13:03:28.86	334.72	13.41	-26.0	-26.8	15.6	0.00e+00	0	44	0	3571449856	13	3987
2026-01-02 13:03:29.86	334.77	13.31	-25.9	-26.7	15.6	0.00e+00	0	44	0	3577741312	13	3951
2026-01-02 13:03:30.85	334.82	13.22	-26.0	-27.0	15.5	0.00e+00	0	44	0	3582984192	13	4023
2026-01-02 13:03:31.86	334.88	13.12	-26.1	-27.1	15.4	0.00e+00	0	44	0	3588227072	13	4052
2026-01-02 13:03:32.86	334.93	13.03	-26.1	-27.1	15.4	0.00e+00	0	44	0	3594518528	13	4061
2026-01-02 13:03:33.87	334.98	12.93	-25.9	-26.8	15.5	0.00e+00	0	44	0	3599761408	13	3986
2026-01-02 13:03:34.87	335.03	12.84	-25.9	-26.7	15.6	0.00e+00	0	44	0	3605004288	13	3955
2026-01-02 13:03:35.88	335.09	12.75	-25.9	-26.8	15.5	0.00e+00	0	44	0	3611295744	13	3977
2026-01-02 13:03:36.89	335.14	12.65	-26.1	-27.2	15.3	0.00e+00	0	44	0	3616538624	13	4071
2026-01-02 13:03:37.90	335.19	12.56	-25.9	-26.8	15.5	0.00e+00	0	44	0	3622830080	13	3968
2026-01-02 13:03:38.90	335.24	12.46	-25.8	-26.5	15.7	0.00e+00	0	44	0	3628072960	13	3905
2026-01-02 13:03:39.91	335.29	12.37	-25.9	-26.6	15.6	0.00e+00	0	44	0	3633315840	13	3939
2026-01-02 13:03:40.91	335.34	12.28	-25.9	-26.6	15.6	0.00e+00	0	43	0	3639607296	13	3936
2026-01-02 13:03:41.91	335.39	12.19	-25.9	-26.6	15.6	0.00e+00	0	44	0	3644850176	13	3928
2026-01-02 13:03:42.92	335.44	12.10	-25.9	-26.8	15.5	0.00e+00	0	44	0	3651141632	13	3984
2026-01-02 13:03:43.93	335.49	12.00	-26.1	-27.1	15.3	0.00e+00	0	44	0	3656384512	13	4059
2026-01-02 13:03:44.93	335.54	11.91	-25.9	-26.8	15.5	0.00e+00	0	44	0	3661627392	13	3988
2026-01-02 13:03:45.93	335.59	11.82	-26.0	-26.9	15.5	0.00e+00	0	44	0	3667918848	13	3995
2026-01-02 13:03:46.93	335.64	11.73	-25.8	-26.6	15.6	0.00e+00	0	44	0	3673161728	13	3937
2026-01-02 13:03:47.94	335.69	11.64	-26.0	-27.0	15.4	0.00e+00	0	44	0	3679453184	13	4020
2026-01-02 13:03:48.95	335.73	11.55	-26.0	-26.9	15.4	0.00e+00	0	44	0	3684696064	13	4008
2026-01-02 13:03:49.96	335.78	11.46	-25.9	-26.8	15.5	0.00e+00	0	44	0	3689938944	13	3978
2026-01-02 13:03:50.96	335.83	11.37	-26.0	-26.9	15.4	0.00e+00	0	44	0	3696230400	13	4011
2026-01-02 13:03:51.96	335.88	11.29	-25.9	-26.8	15.5	0.00e+00	0	44	0	3701473280	13	3969
2026-01-02 13:03:52.97	335.92	11.20	-26.3	-27.5	15.1	0.00e+00	0	44	0	3706716160	13	4171
2026-01-02 13:03:53.97	335.97	11.11	-26.3	-27.6	15.0	0.00e+00	0	44	0	3713007616	13	4188
2026-01-02 13:03:54.97	336.02	11.02	-26.5	-28.0	14.8	0.00e+00	0	43	0	3718250496	13	4297
2026-01-02 13:03:55.98	336.06	10.93	-26.3	-27.6	15.0	0.00e+00	0	44	0	3724541952	13	4188
2026-01-02 13:03:56.99	336.11	10.84	-26.2	-27.4	15.1	0.00e+00	0	44	0	3729784832	13	4139
2026-01-02 13:03:57.99	336.16	10.76	-26.4	-27.9	14.8	0.00e+00	0	43	0	3736076288	13	4258
2026-01-02 13:03:59.00	336.20	10.67	-26.6	-28.2	14.6	0.00e+00	0	44	0	3741319168	13	4367
2026-01-02 13:04:00.01	336.25	10.58	-26.4	-27.8	14.9	0.00e+00	0	44	0	3746562048	13	4229
2026-01-02 13:04:01.01	336.29	10.50	-26.2	-27.5	15.1	0.00e+00	0	44	0	3752853504	13	4157
2026-01-02 13:04:02.01	336.34	10.41	-26.3	-27.5	15.0	0.00e+00	0	44	0	3758096384	13	4173
2026-01-02 13:04:03.01	336.38	10.33	-26.3	-27.7	14.9	0.00e+00	0	44	0	3763339264	13	4211
2026-01-02 13:04:04.01	336.43	10.24	-26.3	-27.6	15.0	3.40e-06	0	44	0	3769630720	13	4187
2026-01-02 13:04:05.02	336.47	10.16	-26.3	-27.6	14.9	0.00e+00	0	44	0	3774873600	13	4193
2026-01-02 13:04:06.02	336.51	10.07	-26.3	-27.7	14.9	1.10e-06	0	44	0	3780116480	13	4222
2026-01-02 13:04:07.02	336.56	9.99	-26.5	-28.1	14.6	1.10e-06	0	43	0	3786407936	13	4334
2026-01-02 13:04:08.02	336.60	9.91	-26.4	-27.9	14.8	0.00e+00	0	44	0	3791650816	13	4264
2026-01-02 13:04:09.02	336.64	9.82	-26.5	-28.1	14.7	1.10e-06	0	44	0	3797942272	13	4323
2026-01-02 13:04:10.02	336.69	9.74	-26.8	-28.7	14.2	1.10e-06	0	44	0	3803185152	13	4514
2026-01-02 13:04:11.02	336.73	9.66	-26.7	-28.5	14.4	4.50e-06	0	44	0	3808428032	13	4437
2026-01-02 13:04:12.02	336.77	9.57	-26.7	-28.6	14.3	2.20e-06	0	44	0	3814719488	13	4458
2026-01-02 13:04:13.02	336.81	9.49	-26.8	-28.8	14.2	2.20e-06	0	44	0	3819962368	13	4543
2026-01-02 13:04:14.02	336.86	9.41	-26.7	-28.5	14.4	1.10e-06	0	44	0	3825205248	13	4448
2026-01-02 13:04:15.02	336.90	9.33	-27.1	-28.9	13.9	6.80e-06	0	44	0	3831496704	14	4446
2026-01-02 13:04:16.03	336.94	9.24	-26.7	-28.1	14.3	0.00e+00	0	44	0	3836739584	14	4231
2026-01-02 13:04:17.03	336.98	9.16	-26.5	-27.7	14.5	5.70e-06	0	44	0	3841982464	14	4120
2026-01-02 13:04:18.04	337.02	9.08	-26.7	-28.1	14.3	3.40e-06	0	44	0	3848273920	14	4219
