passes_logs/2026/01/02/R2M6_AANII_01/R2M6_AANII_01__20260102_080347_NOAA_21_JPSS-2_rec.log

#Pass ID: 20260102_080347_NOAA 21 (JPSS-2)
#Satellite: NOAA 21 (JPSS-2)
#Configuration: NOAA 21
#almurnet v.1.7.20240730
#Start time: 2026-01-02 08:03:48

#Version: 2.2.20231116
#Station: R2M6_AANII_01
#Location: 30.233357 lon 59.946436 lat
#TLE: 1 54234U 22150A   26001.26806856  .00000185  00000+0  10843-3 0  9990
#TLE: 2 54234  98.7484 302.3349 0001277 353.3887   6.7272 14.19530660162860

#Time	Az	El	Level	Level2	SNR	BER	BlckErr	Temp	State	Recorded	gain1	gain2
2026-01-02 08:03:48.67	90.02	7.09	-31.7	-39.7	4.0	1.47e+00	0	40	0	0	24	9037
2026-01-02 08:03:49.67	89.92	7.15	-31.2	-37.7	4.2	1.44e+00	0	41	104	0	23	7587
2026-01-02 08:03:50.67	89.81	7.20	-31.1	-36.4	6.3	3.08e-01	0	41	0	0	23	6606
2026-01-02 08:03:51.68	89.70	7.26	-31.1	-36.2	6.4	2.50e-01	0	41	0	3145728	23	6471
2026-01-02 08:03:52.68	89.60	7.32	-31.0	-35.7	6.7	1.99e-01	0	41	0	6291456	23	6227
2026-01-02 08:03:53.69	89.49	7.38	-30.9	-35.4	6.9	1.66e-01	0	41	0	9437184	23	6066
2026-01-02 08:03:54.69	89.38	7.44	-30.9	-35.3	7.0	1.57e-01	0	41	0	12582912	23	6022
2026-01-02 08:03:55.69	89.27	7.50	-31.0	-35.6	6.9	1.75e-01	0	41	0	15728640	23	6164
2026-01-02 08:03:56.70	89.16	7.56	-30.8	-34.9	7.4	1.30e-01	0	41	0	18874368	23	5769
2026-01-02 08:03:57.71	89.05	7.62	-30.3	-33.8	8.6	5.80e-02	0	41	0	22020096	22	5344
2026-01-02 08:03:58.71	88.94	7.68	-30.0	-33.4	9.2	1.88e-02	0	41	0	24117248	21	5269
2026-01-02 08:03:59.71	88.83	7.74	-29.7	-32.8	10.0	1.32e-02	0	41	0	27262976	20	5138
2026-01-02 08:04:00.71	88.72	7.80	-29.4	-31.8	10.7	4.09e-03	0	41	0	30408704	20	4763
2026-01-02 08:04:01.71	88.61	7.86	-29.1	-31.5	11.3	1.51e-03	0	41	0	33554432	19	4741
2026-01-02 08:04:02.72	88.50	7.92	-28.8	-30.8	11.8	5.40e-04	0	41	0	37748736	19	4535
2026-01-02 08:04:03.72	88.39	7.98	-28.7	-30.8	12.1	2.86e-04	0	41	0	40894464	18	4627
2026-01-02 08:04:04.73	88.27	8.04	-28.6	-30.8	12.2	2.08e-04	0	41	0	44040192	18	4598
2026-01-02 08:04:05.73	88.16	8.10	-28.7	-31.0	12.0	2.86e-04	0	41	0	47185920	18	4679
2026-01-02 08:04:06.74	88.05	8.16	-28.7	-30.9	12.1	2.47e-04	0	41	0	49283072	18	4640
2026-01-02 08:04:07.74	87.93	8.22	-28.7	-30.8	12.2	3.13e-04	0	41	0	52428800	18	4616
2026-01-02 08:04:08.75	87.82	8.28	-28.7	-30.9	12.1	2.54e-04	0	41	0	55574528	18	4632
2026-01-02 08:04:09.75	87.70	8.34	-28.7	-31.0	12.1	2.25e-04	0	41	0	58720256	18	4665
2026-01-02 08:04:10.76	87.58	8.40	-28.8	-31.2	11.9	3.64e-04	0	41	0	61865984	18	4747
2026-01-02 08:04:11.76	87.47	8.46	-28.7	-30.9	12.2	2.58e-04	0	41	0	65011712	18	4630
2026-01-02 08:04:12.77	87.35	8.52	-28.6	-30.6	12.4	1.30e-04	0	42	0	69206016	18	4535
2026-01-02 08:04:13.77	87.23	8.58	-28.4	-30.3	12.7	1.23e-04	0	42	0	71303168	18	4432
2026-01-02 08:04:14.77	87.12	8.64	-28.5	-30.3	12.6	6.17e-05	0	42	0	74448896	18	4442
2026-01-02 08:04:15.78	87.00	8.70	-28.4	-30.0	12.8	5.49e-05	0	42	0	77594624	18	4356
2026-01-02 08:04:16.78	86.88	8.76	-28.2	-30.2	13.0	2.82e-05	0	42	0	80740352	17	4514
2026-01-02 08:04:17.78	86.76	8.82	-28.1	-29.8	13.2	1.75e-05	0	42	0	83886080	17	4405
2026-01-02 08:04:18.78	86.64	8.88	-28.1	-29.8	13.2	2.36e-05	0	42	0	87031808	17	4405
2026-01-02 08:04:19.78	86.52	8.94	-27.9	-29.4	13.5	2.05e-05	0	42	0	90177536	17	4275
2026-01-02 08:04:20.79	86.40	9.00	-27.9	-29.4	13.5	4.50e-06	0	42	0	93323264	17	4273
2026-01-02 08:04:21.79	86.28	9.06	-27.8	-29.2	13.6	9.10e-06	0	42	0	96468992	17	4225
2026-01-02 08:04:22.79	86.16	9.12	-27.8	-29.1	13.7	7.60e-06	0	42	0	99614720	17	4192
2026-01-02 08:04:23.80	86.03	9.18	-27.9	-29.3	13.6	6.80e-06	0	42	0	102760448	17	4243
2026-01-02 08:04:24.81	85.91	9.24	-28.1	-29.8	13.3	1.83e-05	0	42	0	105906176	17	4374
2026-01-02 08:04:25.81	85.79	9.30	-28.0	-29.5	13.5	1.37e-05	0	42	0	109051904	17	4289
2026-01-02 08:04:26.81	85.66	9.37	-27.9	-29.3	13.6	7.60e-06	0	42	0	112197632	17	4234
2026-01-02 08:04:27.81	85.54	9.43	-27.9	-29.3	13.6	7.60e-06	0	42	0	115343360	17	4238
2026-01-02 08:04:28.81	85.42	9.49	-28.1	-29.8	13.3	1.75e-05	0	42	0	118489088	17	4375
2026-01-02 08:04:29.80	85.29	9.55	-27.9	-29.5	13.5	1.52e-05	0	42	0	121634816	17	4300
2026-01-02 08:04:30.80	85.17	9.61	-27.8	-29.1	13.8	6.80e-06	0	42	0	124780544	17	4170
2026-01-02 08:04:31.80	85.04	9.67	-27.7	-29.4	13.8	6.80e-06	0	42	0	127926272	16	4383
2026-01-02 08:04:32.80	84.91	9.73	-27.6	-29.2	14.0	3.00e-06	0	42	0	131072000	16	4302
2026-01-02 08:04:33.79	84.79	9.79	-28.0	-30.0	13.5	7.60e-06	0	42	0	134217728	16	4556
2026-01-02 08:04:34.80	84.66	9.85	-27.6	-29.1	14.1	3.80e-06	0	42	0	137363456	16	4283
2026-01-02 08:04:35.80	84.53	9.91	-27.5	-28.9	14.2	0.00e+00	0	42	0	140509184	16	4234
2026-01-02 08:04:36.80	84.40	9.97	-27.6	-29.1	14.0	3.00e-06	0	42	0	143654912	16	4288
2026-01-02 08:04:37.79	84.27	10.03	-27.6	-29.2	14.1	3.00e-06	0	42	0	146800640	16	4296
2026-01-02 08:04:38.80	84.14	10.09	-27.8	-29.5	13.9	4.50e-06	0	42	0	149946368	16	4386
2026-01-02 08:04:39.81	84.01	10.15	-27.7	-29.3	13.9	2.20e-06	0	42	0	153092096	16	4351
2026-01-02 08:04:40.81	83.88	10.21	-27.7	-29.3	13.9	7.60e-06	0	42	0	156237824	16	4351
2026-01-02 08:04:41.81	83.75	10.27	-27.6	-29.2	14.0	2.20e-06	0	42	0	159383552	16	4311
2026-01-02 08:04:42.81	83.62	10.33	-27.6	-29.2	14.0	1.50e-06	0	42	0	162529280	16	4324
2026-01-02 08:04:43.81	83.49	10.39	-27.9	-29.8	13.6	1.29e-05	0	42	0	165675008	16	4503
2026-01-02 08:04:44.81	83.35	10.45	-27.8	-29.7	13.8	6.10e-06	0	42	0	168820736	16	4448
2026-01-02 08:04:45.81	83.22	10.51	-27.6	-29.2	14.0	2.20e-06	0	42	0	171966464	16	4307
2026-01-02 08:04:46.82	83.08	10.57	-27.5	-28.9	14.3	1.50e-06	0	42	0	175112192	16	4218
2026-01-02 08:04:47.82	82.95	10.63	-27.5	-28.9	14.2	1.50e-06	0	42	0	178257920	16	4218
2026-01-02 08:04:48.82	82.81	10.69	-27.5	-28.8	14.3	7.00e-07	0	42	0	181403648	16	4181
2026-01-02 08:04:49.82	82.68	10.75	-27.4	-28.7	14.4	1.50e-06	0	42	0	184549376	16	4155
2026-01-02 08:04:50.82	82.54	10.81	-27.4	-28.6	14.4	7.00e-07	0	42	0	187695104	16	4127
2026-01-02 08:04:51.82	82.40	10.87	-27.4	-28.6	14.4	7.00e-07	0	42	0	190840832	16	4147
2026-01-02 08:04:52.83	82.26	10.94	-27.7	-29.2	14.1	1.50e-06	0	42	0	193986560	16	4315
2026-01-02 08:04:53.84	82.12	11.00	-27.6	-29.2	14.1	7.00e-07	0	42	0	197132288	16	4301
2026-01-02 08:04:54.85	81.98	11.06	-27.7	-29.3	14.0	7.00e-07	0	42	0	200278016	16	4351
2026-01-02 08:04:55.85	81.85	11.12	-28.2	-30.5	13.3	9.90e-06	0	42	0	203423744	16	4693
2026-01-02 08:04:56.86	81.70	11.18	-28.3	-30.8	13.2	2.21e-05	0	42	0	206569472	16	4796
2026-01-02 08:04:57.86	81.56	11.24	-28.2	-30.5	13.3	2.21e-05	0	42	0	209715200	16	4710
2026-01-02 08:04:58.86	81.42	11.30	-28.0	-30.1	13.6	1.83e-05	0	43	0	212860928	16	4583
2026-01-02 08:04:59.86	81.28	11.36	-27.6	-29.1	14.2	0.00e+00	0	43	0	216006656	16	4277
2026-01-02 08:05:00.87	81.14	11.42	-28.3	-30.8	13.2	6.10e-06	0	42	0	219152384	16	4806
2026-01-02 08:05:01.87	80.99	11.48	-28.0	-30.1	13.6	9.10e-06	0	42	0	222298112	16	4557
2026-01-02 08:05:02.87	80.85	11.54	-28.4	-31.0	13.0	1.75e-05	0	42	0	225443840	16	4853
2026-01-02 08:05:03.87	80.71	11.60	-28.2	-30.5	13.4	1.75e-05	0	42	0	228589568	16	4706
2026-01-02 08:05:04.88	80.56	11.66	-28.1	-30.2	13.5	1.52e-05	0	42	0	231735296	16	4609
2026-01-02 08:05:05.88	80.41	11.72	-27.8	-29.6	13.9	4.50e-06	0	42	0	234881024	16	4425
2026-01-02 08:05:06.88	80.27	11.78	-27.5	-28.9	14.3	1.50e-06	0	43	0	238026752	16	4221
2026-01-02 08:05:07.89	80.12	11.84	-27.7	-29.2	14.1	2.20e-06	0	42	0	241172480	16	4303
2026-01-02 08:05:08.90	79.97	11.90	-27.9	-29.7	13.8	2.20e-06	0	42	0	244318208	16	4458
2026-01-02 08:05:09.90	79.82	11.96	-28.0	-30.0	13.7	5.30e-06	0	43	0	247463936	16	4531
2026-01-02 08:05:10.91	79.67	12.02	-27.9	-29.8	13.8	1.29e-05	0	42	0	250609664	16	4485
2026-01-02 08:05:11.91	79.52	12.08	-27.7	-29.3	14.1	1.50e-06	0	42	0	253755392	16	4338
2026-01-02 08:05:12.92	79.37	12.14	-27.6	-29.1	14.3	3.00e-06	0	43	0	256901120	16	4278
2026-01-02 08:05:13.92	79.22	12.20	-27.6	-29.1	14.2	2.20e-06	0	43	0	260046848	16	4273
2026-01-02 08:05:14.93	79.07	12.26	-27.6	-29.1	14.2	0.00e+00	0	43	0	263192576	16	4259
2026-01-02 08:05:15.93	78.92	12.32	-27.9	-29.7	13.9	1.50e-06	0	42	0	266338304	16	4452
2026-01-02 08:05:16.94	78.77	12.38	-27.6	-29.1	14.2	7.60e-06	0	42	0	269484032	16	4283
2026-01-02 08:05:17.94	78.61	12.44	-27.5	-28.9	14.4	2.20e-06	0	42	0	272629760	16	4205
2026-01-02 08:05:18.94	78.46	12.50	-27.4	-28.5	14.6	0.00e+00	0	43	0	275775488	16	4111
2026-01-02 08:05:19.95	78.30	12.56	-27.4	-28.6	14.6	0.00e+00	0	43	0	278921216	16	4121
2026-01-02 08:05:20.96	78.15	12.62	-27.4	-28.6	14.6	7.00e-07	0	43	0	282066944	16	4124
2026-01-02 08:05:21.96	77.99	12.68	-27.4	-28.7	14.5	7.00e-07	0	43	0	285212672	16	4152
2026-01-02 08:05:22.97	77.84	12.74	-27.4	-28.6	14.6	0.00e+00	0	43	0	288358400	16	4141
2026-01-02 08:05:23.97	77.68	12.80	-27.5	-28.9	14.4	1.50e-06	0	42	0	291504128	16	4203
2026-01-02 08:05:24.97	77.52	12.86	-27.5	-28.7	14.5	1.50e-06	0	43	0	294649856	16	4168
2026-01-02 08:05:25.98	77.36	12.92	-27.4	-28.6	14.6	0.00e+00	0	43	0	297795584	16	4117
2026-01-02 08:05:26.98	77.20	12.98	-27.4	-28.7	14.5	0.00e+00	0	43	0	300941312	16	4152
2026-01-02 08:05:27.98	77.04	13.04	-27.4	-28.5	14.6	0.00e+00	0	43	0	304087040	16	4117
2026-01-02 08:05:28.99	76.88	13.10	-27.4	-28.7	14.6	0.00e+00	0	42	0	307232768	16	4145
2026-01-02 08:05:29.99	76.72	13.15	-27.5	-28.8	14.5	7.00e-07	0	43	0	310378496	16	4173
2026-01-02 08:05:31.00	76.56	13.21	-27.4	-28.6	14.6	0.00e+00	0	43	0	313524224	16	4140
2026-01-02 08:05:32.00	76.40	13.27	-27.7	-29.2	14.3	0.00e+00	0	42	0	316669952	16	4283
2026-01-02 08:05:33.00	76.24	13.33	-27.5	-28.8	14.5	0.00e+00	0	43	0	319815680	16	4174
2026-01-02 08:05:34.01	76.07	13.39	-27.5	-28.8	14.5	0.00e+00	0	42	0	322961408	16	4198
2026-01-02 08:05:35.02	75.91	13.45	-27.4	-28.6	14.6	7.00e-07	0	43	0	326107136	16	4138
2026-01-02 08:05:36.02	75.74	13.51	-27.4	-28.7	14.6	1.50e-06	0	43	0	329252864	16	4146
2026-01-02 08:05:37.02	75.58	13.56	-27.5	-28.8	14.4	1.50e-06	0	43	0	332398592	16	4189
2026-01-02 08:05:38.03	75.41	13.62	-27.6	-29.0	14.4	0.00e+00	0	43	0	335544320	16	4232
2026-01-02 08:05:39.03	75.24	13.68	-27.6	-29.1	14.3	7.00e-07	0	43	0	338690048	16	4281
2026-01-02 08:05:40.04	75.08	13.74	-27.5	-28.9	14.5	1.50e-06	0	43	0	341835776	16	4205
2026-01-02 08:05:41.05	74.91	13.80	-27.6	-29.0	14.4	1.50e-06	0	43	0	344981504	16	4249
2026-01-02 08:05:42.05	74.74	13.86	-27.6	-29.0	14.4	0.00e+00	0	43	0	348127232	16	4232
2026-01-02 08:05:43.05	74.57	13.91	-27.6	-29.0	14.4	7.00e-07	0	43	0	350224384	16	4226
2026-01-02 08:05:44.06	74.40	13.97	-27.7	-29.4	14.2	0.00e+00	0	43	0	353370112	16	4338
2026-01-02 08:05:45.06	74.23	14.03	-27.7	-29.2	14.3	7.00e-07	0	43	0	356515840	16	4298
2026-01-02 08:05:46.07	74.05	14.09	-27.6	-29.0	14.4	0.00e+00	0	43	0	360710144	16	4224
2026-01-02 08:05:47.07	73.88	14.14	-27.4	-28.5	14.7	7.00e-07	0	43	0	363855872	16	4112
2026-01-02 08:05:48.07	73.71	14.20	-27.5	-28.7	14.6	7.00e-07	0	43	0	367001600	16	4151
2026-01-02 08:05:49.07	73.54	14.26	-27.4	-28.6	14.7	7.00e-07	0	43	0	370147328	16	4133
2026-01-02 08:05:50.07	73.36	14.31	-27.6	-29.1	14.4	0.00e+00	0	43	0	372244480	16	4260
2026-01-02 08:05:51.07	73.19	14.37	-27.5	-28.9	14.5	0.00e+00	0	43	0	375390208	16	4196
2026-01-02 08:05:52.08	73.01	14.43	-27.5	-28.7	14.6	7.00e-07	0	43	0	378535936	16	4159
2026-01-02 08:05:53.08	72.84	14.48	-27.5	-28.7	14.6	7.00e-07	0	43	0	381681664	16	4158
2026-01-02 08:05:54.07	72.66	14.54	-27.4	-28.6	14.6	7.00e-07	0	43	0	384827392	16	4128
2026-01-02 08:05:55.08	72.48	14.59	-27.5	-28.8	14.5	0.00e+00	0	43	0	387973120	16	4172
2026-01-02 08:05:56.08	72.31	14.65	-27.4	-28.5	14.8	0.00e+00	0	43	0	391118848	16	4081
2026-01-02 08:05:57.08	72.13	14.71	-27.4	-28.5	14.7	7.00e-07	0	43	0	394264576	16	4094
2026-01-02 08:05:58.09	71.95	14.76	-27.7	-29.3	14.2	7.00e-07	0	43	0	397410304	16	4320
2026-01-02 08:05:59.08	71.77	14.82	-27.6	-29.0	14.4	1.50e-06	0	43	0	400556032	16	4231
2026-01-02 08:06:00.09	71.59	14.87	-27.7	-29.1	14.4	0.00e+00	0	43	0	403701760	16	4274
2026-01-02 08:06:01.09	71.41	14.93	-27.8	-29.4	14.2	3.00e-06	0	43	0	406847488	16	4359
2026-01-02 08:06:02.09	71.23	14.98	-27.9	-29.7	14.1	1.50e-06	0	43	0	409993216	16	4431
2026-01-02 08:06:03.09	71.04	15.04	-27.9	-29.9	13.9	2.20e-06	0	43	0	413138944	16	4482
2026-01-02 08:06:04.09	70.86	15.09	-28.0	-29.9	14.0	3.80e-06	0	43	0	416284672	16	4485
2026-01-02 08:06:05.10	70.67	15.15	-27.9	-29.6	14.2	7.00e-07	0	43	0	419430400	16	4399
2026-01-02 08:06:06.11	70.49	15.20	-27.7	-29.3	14.3	1.50e-06	0	43	0	422576128	16	4320
2026-01-02 08:06:07.11	70.30	15.25	-27.8	-29.6	14.2	1.50e-06	0	43	0	425721856	16	4397
2026-01-02 08:06:08.11	70.12	15.31	-28.1	-30.2	13.8	2.20e-06	0	43	0	428867584	16	4587
2026-01-02 08:06:09.11	69.93	15.36	-27.9	-29.8	14.0	3.80e-06	0	43	0	432013312	16	4464
2026-01-02 08:06:10.11	69.74	15.41	-28.0	-29.9	13.9	0.00e+00	0	43	0	435159040	16	4497
2026-01-02 08:06:11.11	69.56	15.47	-28.2	-30.5	13.6	6.10e-06	0	43	0	438304768	16	4684
2026-01-02 08:06:12.11	69.37	15.52	-28.0	-30.0	14.0	3.00e-06	0	43	0	441450496	16	4504
2026-01-02 08:06:13.11	69.18	15.57	-28.0	-29.9	14.0	3.00e-06	0	43	0	444596224	16	4476
2026-01-02 08:06:14.11	68.99	15.63	-27.8	-29.4	14.3	7.00e-07	0	43	0	447741952	16	4335
2026-01-02 08:06:15.11	68.80	15.68	-27.6	-29.1	14.5	0.00e+00	0	43	0	450887680	16	4253
2026-01-02 08:06:16.11	68.61	15.73	-27.5	-28.9	14.6	7.00e-07	0	43	0	454033408	16	4187
2026-01-02 08:06:17.12	68.41	15.78	-27.5	-28.8	14.6	1.50e-06	0	43	0	457179136	16	4184
2026-01-02 08:06:18.12	68.22	15.83	-27.5	-28.8	14.7	0.00e+00	0	43	0	460324864	16	4159
2026-01-02 08:06:19.12	68.03	15.89	-27.3	-28.3	14.9	0.00e+00	0	43	0	463470592	16	4029
2026-01-02 08:06:20.13	67.83	15.94	-27.1	-28.5	14.9	0.00e+00	0	43	0	466616320	15	4194
2026-01-02 08:06:21.14	67.64	15.99	-27.2	-28.5	14.9	0.00e+00	0	43	0	469762048	15	4200
2026-01-02 08:06:22.14	67.44	16.04	-27.2	-28.5	14.9	0.00e+00	0	43	0	472907776	15	4215
2026-01-02 08:06:23.14	67.25	16.09	-27.2	-28.5	14.9	7.00e-07	0	43	0	476053504	15	4218
2026-01-02 08:06:24.15	67.05	16.14	-27.1	-28.5	15.0	7.00e-07	0	43	0	479199232	15	4197
2026-01-02 08:06:25.15	66.85	16.19	-27.2	-28.6	14.9	0.00e+00	0	43	0	482344960	15	4223
2026-01-02 08:06:26.16	66.65	16.24	-27.2	-28.5	14.9	0.00e+00	0	43	0	485490688	15	4211
2026-01-02 08:06:27.17	66.45	16.29	-27.3	-28.8	14.8	7.00e-07	0	43	0	488636416	15	4275
2026-01-02 08:06:28.17	66.25	16.34	-27.4	-29.0	14.6	1.50e-06	0	43	0	491782144	15	4347
2026-01-02 08:06:29.17	66.05	16.39	-27.4	-29.0	14.6	0.00e+00	0	43	0	494927872	15	4343
2026-01-02 08:06:30.17	65.85	16.44	-27.5	-29.2	14.5	0.00e+00	0	43	0	498073600	15	4412
2026-01-02 08:06:31.18	65.65	16.49	-27.5	-29.3	14.5	1.50e-06	0	43	0	501219328	15	4428
2026-01-02 08:06:32.18	65.45	16.54	-27.5	-29.3	14.5	3.00e-06	0	43	0	504365056	15	4436
2026-01-02 08:06:33.19	65.24	16.59	-27.6	-29.6	14.3	2.20e-06	0	43	0	507510784	15	4509
2026-01-02 08:06:34.19	65.04	16.63	-27.4	-29.1	14.6	0.00e+00	0	43	0	510656512	15	4362
2026-01-02 08:06:35.20	64.83	16.68	-27.4	-29.1	14.6	0.00e+00	0	43	0	513802240	15	4382
2026-01-02 08:06:36.21	64.63	16.73	-27.3	-28.9	14.7	0.00e+00	0	43	0	516947968	15	4319
2026-01-02 08:06:37.21	64.42	16.78	-27.4	-29.2	14.6	0.00e+00	0	43	0	520093696	15	4388
2026-01-02 08:06:38.22	64.21	16.82	-27.2	-28.5	15.0	7.00e-07	0	43	0	523239424	15	4203
2026-01-02 08:06:39.23	64.00	16.87	-26.9	-28.0	15.2	0.00e+00	0	43	0	526385152	15	4055
2026-01-02 08:06:40.23	63.80	16.92	-26.8	-28.1	15.4	0.00e+00	0	43	0	529530880	14	4203
2026-01-02 08:06:41.23	63.59	16.96	-26.8	-28.1	15.5	0.00e+00	0	43	0	532676608	14	4193
2026-01-02 08:06:42.24	63.38	17.01	-26.7	-27.9	15.5	0.00e+00	0	43	0	535822336	14	4149
2026-01-02 08:06:43.24	63.17	17.05	-26.8	-28.1	15.4	3.80e-06	0	43	0	538968064	14	4201
2026-01-02 08:06:44.25	62.96	17.10	-26.8	-28.1	15.5	0.00e+00	0	43	0	542113792	14	4188
2026-01-02 08:06:45.25	62.75	17.14	-26.7	-28.0	15.5	0.00e+00	0	43	0	545259520	14	4166
2026-01-02 08:06:46.25	62.54	17.19	-26.8	-28.2	15.4	0.00e+00	0	43	0	548405248	14	4231
2026-01-02 08:06:47.25	62.33	17.23	-26.6	-27.8	15.6	0.00e+00	0	43	0	551550976	14	4124
2026-01-02 08:06:48.26	62.11	17.27	-26.6	-27.7	15.7	0.00e+00	0	43	0	554696704	14	4081
2026-01-02 08:06:49.26	61.90	17.32	-26.6	-27.8	15.6	0.00e+00	0	43	0	557842432	14	4109
2026-01-02 08:06:50.27	61.69	17.36	-26.5	-27.6	15.7	0.00e+00	0	43	0	560988160	14	4054
2026-01-02 08:06:51.27	61.47	17.40	-26.6	-27.8	15.6	0.00e+00	0	43	0	564133888	14	4122
2026-01-02 08:06:52.28	61.26	17.45	-26.9	-28.4	15.3	0.00e+00	0	43	0	567279616	14	4284
2026-01-02 08:06:53.29	61.04	17.49	-26.9	-28.4	15.3	0.00e+00	0	43	0	570425344	14	4270
2026-01-02 08:06:54.29	60.82	17.53	-27.2	-29.0	14.9	0.00e+00	0	43	0	573571072	14	4452
2026-01-02 08:06:55.30	60.60	17.57	-27.0	-28.7	15.1	0.00e+00	0	43	0	576716800	14	4362
2026-01-02 08:06:56.30	60.39	17.61	-26.9	-28.3	15.3	0.00e+00	0	43	0	579862528	14	4252
2026-01-02 08:06:57.31	60.17	17.65	-26.8	-28.1	15.5	0.00e+00	0	43	0	583008256	14	4196
2026-01-02 08:06:58.31	59.95	17.69	-26.7	-28.1	15.5	0.00e+00	0	43	0	586153984	14	4186
2026-01-02 08:06:59.32	59.73	17.73	-26.8	-28.2	15.4	0.00e+00	0	43	0	589299712	14	4228
2026-01-02 08:07:00.32	59.51	17.77	-26.7	-28.1	15.5	0.00e+00	0	43	0	592445440	14	4188
2026-01-02 08:07:01.33	59.29	17.81	-26.7	-27.9	15.6	0.00e+00	0	43	0	595591168	14	4141
2026-01-02 08:07:02.33	59.07	17.85	-26.6	-27.7	15.7	0.00e+00	0	43	0	598736896	14	4094
2026-01-02 08:07:03.33	58.85	17.89	-26.7	-27.9	15.6	0.00e+00	0	43	0	601882624	14	4146
2026-01-02 08:07:04.33	58.63	17.93	-26.7	-27.9	15.6	0.00e+00	0	43	0	605028352	14	4147
2026-01-02 08:07:05.32	58.41	17.96	-26.6	-27.7	15.7	0.00e+00	0	43	0	608174080	14	4077
2026-01-02 08:07:06.33	58.18	18.00	-26.5	-27.6	15.8	0.00e+00	0	43	0	611319808	14	4058
2026-01-02 08:07:07.34	57.96	18.04	-26.4	-27.3	15.9	0.00e+00	0	43	0	614465536	14	3997
2026-01-02 08:07:08.34	57.73	18.07	-26.4	-27.2	16.0	0.00e+00	0	43	0	617611264	14	3953
2026-01-02 08:07:09.34	57.51	18.11	-26.4	-27.3	16.0	0.00e+00	0	43	0	620756992	14	3981
2026-01-02 08:07:10.34	57.28	18.15	-26.5	-27.5	15.9	0.00e+00	0	43	0	623902720	14	4025
2026-01-02 08:07:11.34	57.06	18.18	-26.4	-27.4	15.9	0.00e+00	0	43	0	627048448	14	4004
2026-01-02 08:07:12.34	56.83	18.22	-26.4	-27.3	15.9	0.00e+00	0	43	0	630194176	14	3997
2026-01-02 08:07:13.34	56.61	18.25	-26.4	-27.3	15.9	0.00e+00	0	43	0	633339904	14	3997
2026-01-02 08:07:14.34	56.38	18.28	-26.4	-27.3	15.9	0.00e+00	0	43	0	636485632	14	3998
2026-01-02 08:07:15.34	56.15	18.32	-26.4	-27.4	15.9	0.00e+00	0	43	0	639631360	14	4011
2026-01-02 08:07:16.34	55.92	18.35	-26.5	-27.5	15.8	0.00e+00	0	43	0	642777088	14	4050
2026-01-02 08:07:17.34	55.70	18.38	-26.5	-27.6	15.8	0.00e+00	0	43	0	645922816	14	4053
2026-01-02 08:07:18.34	55.47	18.42	-26.6	-27.7	15.7	0.00e+00	0	43	0	649068544	14	4103
2026-01-02 08:07:19.34	55.24	18.45	-26.6	-27.7	15.7	0.00e+00	0	43	0	651165696	14	4096
2026-01-02 08:07:20.34	55.01	18.48	-26.6	-27.7	15.7	0.00e+00	0	43	0	654311424	14	4090
2026-01-02 08:07:21.34	54.78	18.51	-26.5	-27.6	15.8	0.00e+00	0	43	0	657457152	14	4066
2026-01-02 08:07:22.35	54.55	18.54	-26.5	-27.5	15.9	0.00e+00	0	43	0	660602880	14	4027
2026-01-02 08:07:23.35	54.32	18.57	-26.6	-27.7	15.7	0.00e+00	0	43	0	663748608	14	4077
2026-01-02 08:07:24.36	54.08	18.60	-26.7	-27.8	15.7	0.00e+00	0	43	0	666894336	14	4131
2026-01-02 08:07:25.36	53.85	18.63	-26.8	-28.1	15.5	0.00e+00	0	43	0	670040064	14	4198
2026-01-02 08:07:26.36	53.62	18.66	-27.0	-28.5	15.3	0.00e+00	0	43	0	673185792	14	4319
2026-01-02 08:07:27.36	53.38	18.69	-27.1	-28.9	15.1	0.00e+00	0	43	0	676331520	14	4411
2026-01-02 08:07:28.36	53.15	18.71	-27.1	-28.9	15.1	0.00e+00	0	43	0	679477248	14	4407
2026-01-02 08:07:29.37	52.92	18.74	-27.0	-28.7	15.3	0.00e+00	0	43	0	682622976	14	4351
2026-01-02 08:07:30.37	52.68	18.77	-27.0	-28.7	15.3	0.00e+00	0	43	0	685768704	14	4350
2026-01-02 08:07:31.38	52.44	18.79	-27.1	-28.8	15.2	0.00e+00	0	43	0	688914432	14	4379
2026-01-02 08:07:32.38	52.21	18.82	-27.2	-29.0	15.1	0.00e+00	0	43	0	692060160	14	4453
2026-01-02 08:07:33.37	51.98	18.84	-27.1	-28.9	15.1	0.00e+00	0	43	0	695205888	14	4411
2026-01-02 08:07:34.38	51.74	18.87	-27.1	-28.9	15.1	0.00e+00	0	43	0	698351616	14	4403
2026-01-02 08:07:35.38	51.50	18.89	-27.0	-28.7	15.2	0.00e+00	0	43	0	701497344	14	4358
2026-01-02 08:07:36.38	51.27	18.92	-27.0	-28.5	15.3	0.00e+00	0	43	0	704643072	14	4320
2026-01-02 08:07:37.38	51.03	18.94	-27.0	-28.6	15.3	0.00e+00	0	43	0	707788800	14	4332
2026-01-02 08:07:38.39	50.79	18.96	-27.0	-28.5	15.3	0.00e+00	0	43	0	710934528	14	4310
2026-01-02 08:07:39.39	50.55	18.99	-27.0	-28.5	15.3	0.00e+00	0	43	0	714080256	14	4315
2026-01-02 08:07:40.40	50.31	19.01	-27.0	-28.6	15.2	7.00e-07	0	43	0	717225984	14	4344
2026-01-02 08:07:41.40	50.07	19.03	-27.1	-28.9	15.1	0.00e+00	0	43	0	720371712	14	4420
2026-01-02 08:07:42.41	49.83	19.05	-27.2	-29.2	14.9	0.00e+00	0	43	0	723517440	14	4496
2026-01-02 08:07:43.42	49.59	19.07	-27.1	-28.9	15.1	7.00e-07	0	43	0	726663168	14	4406
2026-01-02 08:07:44.42	49.35	19.09	-27.1	-28.9	15.2	0.00e+00	0	43	0	729808896	14	4404
2026-01-02 08:07:45.42	49.11	19.11	-27.1	-28.9	15.2	0.00e+00	0	43	0	732954624	14	4409
2026-01-02 08:07:46.43	48.87	19.13	-27.1	-28.8	15.2	0.00e+00	0	43	0	736100352	14	4380
2026-01-02 08:07:47.44	48.63	19.15	-27.1	-28.8	15.2	0.00e+00	0	43	0	739246080	14	4374
2026-01-02 08:07:48.44	48.39	19.17	-27.1	-28.8	15.2	0.00e+00	0	43	0	742391808	14	4387
2026-01-02 08:07:49.44	48.15	19.18	-27.1	-28.8	15.2	0.00e+00	0	43	0	745537536	14	4382
2026-01-02 08:07:50.44	47.91	19.20	-27.1	-28.7	15.2	0.00e+00	0	43	0	748683264	14	4367
2026-01-02 08:07:51.44	47.67	19.22	-27.2	-29.0	15.1	0.00e+00	0	43	0	751828992	14	4437
2026-01-02 08:07:52.44	47.42	19.23	-27.2	-29.0	15.1	0.00e+00	0	43	0	754974720	14	4430
2026-01-02 08:07:53.45	47.18	19.25	-27.3	-29.2	15.0	0.00e+00	0	43	0	758120448	14	4502
2026-01-02 08:07:54.45	46.94	19.26	-27.3	-29.3	14.9	0.00e+00	0	43	0	761266176	14	4521
2026-01-02 08:07:55.46	46.69	19.28	-27.3	-28.9	14.9	0.00e+00	0	43	0	764411904	15	4293
2026-01-02 08:07:56.46	46.45	19.29	-27.5	-29.3	14.7	7.00e-07	0	43	0	767557632	15	4413
2026-01-02 08:07:57.46	46.21	19.31	-27.1	-28.3	15.2	0.00e+00	0	43	0	770703360	15	4156
2026-01-02 08:07:58.45	45.97	19.32	-27.0	-28.2	15.3	0.00e+00	0	43	0	773849088	15	4105
2026-01-02 08:07:59.46	45.72	19.33	-26.9	-28.0	15.4	0.00e+00	0	43	0	776994816	15	4057
2026-01-02 08:08:00.47	45.48	19.34	-27.0	-28.0	15.4	7.00e-07	0	43	0	780140544	15	4062
2026-01-02 08:08:01.47	45.23	19.35	-27.1	-28.3	15.2	0.00e+00	0	43	0	783286272	15	4142
2026-01-02 08:08:02.48	44.99	19.36	-27.0	-28.0	15.4	7.00e-07	0	43	0	786432000	15	4071
2026-01-02 08:08:03.48	44.74	19.37	-27.1	-28.2	15.3	0.00e+00	0	43	0	789577728	15	4121
2026-01-02 08:08:04.48	44.50	19.38	-27.0	-28.2	15.2	0.00e+00	0	43	0	792723456	15	4103
2026-01-02 08:08:05.49	44.25	19.39	-26.9	-27.8	15.5	0.00e+00	0	43	0	795869184	15	4017
2026-01-02 08:08:06.48	44.01	19.40	-26.8	-27.7	15.5	0.00e+00	0	43	0	799014912	15	3983
2026-01-02 08:08:07.49	43.77	19.41	-26.9	-27.8	15.5	0.00e+00	0	43	0	802160640	15	4014
2026-01-02 08:08:08.50	43.52	19.42	-27.0	-28.2	15.3	0.00e+00	0	43	0	805306368	15	4107
2026-01-02 08:08:09.50	43.27	19.42	-27.0	-28.0	15.4	0.00e+00	0	43	0	808452096	15	4066
2026-01-02 08:08:10.51	43.03	19.43	-26.9	-28.0	15.4	0.00e+00	0	43	0	811597824	15	4056
2026-01-02 08:08:11.51	42.78	19.43	-27.0	-28.2	15.2	0.00e+00	0	43	0	814743552	15	4115
2026-01-02 08:08:12.51	42.54	19.44	-27.2	-28.6	15.1	0.00e+00	0	43	0	817889280	15	4211
2026-01-02 08:08:13.51	42.29	19.44	-26.9	-28.0	15.4	0.00e+00	0	43	0	821035008	15	4063
2026-01-02 08:08:14.51	42.05	19.45	-26.9	-28.0	15.4	0.00e+00	0	43	0	824180736	15	4051
2026-01-02 08:08:15.52	41.80	19.45	-26.8	-27.7	15.5	0.00e+00	0	43	0	827326464	15	3987
2026-01-02 08:08:16.53	41.55	19.45	-26.8	-27.6	15.6	0.00e+00	0	43	0	830472192	15	3954
2026-01-02 08:08:17.53	41.31	19.46	-26.9	-27.8	15.4	0.00e+00	0	43	0	833617920	15	4016
2026-01-02 08:08:18.53	41.06	19.46	-26.8	-27.6	15.6	0.00e+00	0	43	0	836763648	15	3956
2026-01-02 08:08:19.55	40.81	19.46	-26.8	-28.1	15.6	0.00e+00	0	43	0	839909376	14	4183
2026-01-02 08:08:20.54	40.57	19.46	-26.7	-28.0	15.6	0.00e+00	0	43	0	843055104	14	4174
2026-01-02 08:08:21.55	40.32	19.46	-26.8	-28.1	15.6	0.00e+00	0	43	0	846200832	14	4197
2026-01-02 08:08:22.55	40.08	19.46	-26.8	-28.2	15.5	0.00e+00	0	43	0	849346560	14	4228
2026-01-02 08:08:23.56	39.83	19.46	-26.9	-28.4	15.4	0.00e+00	0	43	0	852492288	14	4275
2026-01-02 08:08:24.56	39.59	19.46	-26.9	-28.3	15.4	0.00e+00	0	43	0	855638016	14	4252
2026-01-02 08:08:25.56	39.34	19.46	-26.8	-28.2	15.5	0.00e+00	0	43	0	858783744	14	4233
2026-01-02 08:08:26.56	39.10	19.45	-26.7	-28.0	15.6	0.00e+00	0	43	0	861929472	14	4177
2026-01-02 08:08:27.56	38.85	19.45	-26.8	-28.1	15.6	0.00e+00	0	43	0	865075200	14	4198
2026-01-02 08:08:28.56	38.61	19.45	-26.9	-28.3	15.5	0.00e+00	0	43	0	868220928	14	4245
2026-01-02 08:08:29.57	38.36	19.44	-26.7	-28.0	15.6	0.00e+00	0	43	0	871366656	14	4172
2026-01-02 08:08:30.57	38.12	19.44	-26.7	-27.9	15.7	0.00e+00	0	43	0	874512384	14	4149
2026-01-02 08:08:31.57	37.87	19.43	-26.8	-28.2	15.5	0.00e+00	0	43	0	877658112	14	4222
2026-01-02 08:08:32.58	37.62	19.43	-26.9	-28.5	15.3	0.00e+00	0	43	0	880803840	14	4294
2026-01-02 08:08:33.58	37.38	19.42	-26.9	-28.5	15.3	0.00e+00	0	43	0	883949568	14	4308
2026-01-02 08:08:34.59	37.13	19.41	-27.0	-28.6	15.3	0.00e+00	0	43	0	887095296	14	4329
2026-01-02 08:08:35.59	36.89	19.40	-26.8	-28.2	15.5	0.00e+00	0	43	0	890241024	14	4219
2026-01-02 08:08:36.59	36.64	19.40	-26.8	-28.2	15.5	0.00e+00	0	43	0	893386752	14	4213
2026-01-02 08:08:37.60	36.40	19.39	-26.7	-28.0	15.6	0.00e+00	0	43	0	896532480	14	4176
2026-01-02 08:08:38.60	36.15	19.38	-26.6	-27.7	15.7	0.00e+00	0	43	0	899678208	14	4103
2026-01-02 08:08:39.60	35.91	19.37	-26.6	-27.7	15.8	0.00e+00	0	43	0	902823936	14	4077
2026-01-02 08:08:40.60	35.67	19.36	-26.7	-27.9	15.7	0.00e+00	0	43	0	905969664	14	4145
2026-01-02 08:08:41.60	35.42	19.35	-26.7	-27.8	15.7	0.00e+00	0	43	0	909115392	14	4129
2026-01-02 08:08:42.61	35.18	19.34	-26.7	-27.9	15.7	0.00e+00	0	43	0	912261120	14	4149
2026-01-02 08:08:43.60	34.94	19.32	-26.7	-28.0	15.6	0.00e+00	0	43	0	915406848	14	4161
2026-01-02 08:08:44.61	34.69	19.31	-26.7	-28.0	15.6	0.00e+00	0	43	0	918552576	14	4177
2026-01-02 08:08:45.62	34.45	19.30	-26.7	-28.0	15.6	0.00e+00	0	43	0	921698304	14	4160
2026-01-02 08:08:46.62	34.21	19.29	-26.6	-28.0	15.5	0.00e+00	0	43	0	924844032	14	4223
2026-01-02 08:08:47.63	33.96	19.27	-26.3	-27.9	15.2	7.00e-07	0	43	0	927989760	14	4313
2026-01-02 08:08:48.63	33.72	19.26	-26.4	-28.8	14.8	7.00e-07	0	43	0	931135488	13	4726
2026-01-02 08:08:49.64	33.48	19.24	-26.8	-29.1	14.9	0.00e+00	0	43	0	934281216	13	4723
2026-01-02 08:08:50.65	33.23	19.23	-26.9	-29.0	15.1	0.00e+00	0	43	0	937426944	13	4636
2026-01-02 08:08:51.66	32.99	19.21	-26.9	-29.1	15.1	0.00e+00	0	43	0	940572672	13	4624
2026-01-02 08:08:52.66	32.75	19.19	-27.1	-28.9	14.9	0.00e+00	0	43	0	943718400	14	4462
2026-01-02 08:08:53.66	32.51	19.18	-27.3	-29.5	14.7	0.00e+00	0	43	0	946864128	14	4628
2026-01-02 08:08:54.66	32.27	19.16	-27.3	-28.9	14.8	0.00e+00	0	43	0	948961280	15	4310
2026-01-02 08:08:55.67	32.03	19.14	-27.1	-28.3	15.2	0.00e+00	0	43	0	953155584	15	4137
2026-01-02 08:08:56.67	31.79	19.12	-26.9	-27.9	15.4	0.00e+00	0	43	0	956301312	15	4040
2026-01-02 08:08:57.68	31.54	19.10	-27.0	-28.2	15.2	0.00e+00	0	43	0	959447040	15	4135
2026-01-02 08:08:58.68	31.30	19.08	-27.1	-28.5	15.0	7.00e-07	0	43	0	962592768	15	4190
2026-01-02 08:08:59.68	31.07	19.06	-27.5	-29.2	14.6	0.00e+00	0	43	0	965738496	15	4410
2026-01-02 08:09:00.68	30.83	19.04	-27.2	-28.7	14.9	0.00e+00	0	43	0	968884224	15	4247
2026-01-02 08:09:01.69	30.59	19.02	-26.8	-27.6	15.5	0.00e+00	0	43	0	972029952	15	3973
2026-01-02 08:09:02.70	30.35	19.00	-26.7	-27.9	15.6	0.00e+00	0	43	0	974127104	14	4145
2026-01-02 08:09:03.69	30.11	18.98	-26.6	-27.6	15.8	0.00e+00	0	43	0	977272832	14	4066
2026-01-02 08:09:04.70	29.87	18.95	-26.5	-27.6	15.8	0.00e+00	0	43	0	980418560	14	4060
2026-01-02 08:09:05.70	29.64	18.93	-26.6	-27.7	15.7	0.00e+00	0	43	0	983564288	14	4089
2026-01-02 08:09:06.71	29.40	18.91	-26.7	-27.9	15.6	0.00e+00	0	43	0	986710016	14	4143
2026-01-02 08:09:07.71	29.16	18.88	-26.6	-27.8	15.7	0.00e+00	0	43	0	989855744	14	4118
2026-01-02 08:09:08.72	28.92	18.86	-26.6	-27.7	15.7	0.00e+00	0	43	0	994050048	14	4085
2026-01-02 08:09:09.73	28.69	18.83	-26.7	-27.9	15.6	0.00e+00	0	43	0	997195776	14	4145
2026-01-02 08:09:10.72	28.45	18.81	-26.7	-27.9	15.6	0.00e+00	0	43	0	999292928	14	4138
2026-01-02 08:09:11.73	28.22	18.78	-26.6	-27.8	15.6	0.00e+00	0	43	0	1002438656	14	4118
2026-01-02 08:09:12.73	27.98	18.76	-26.6	-27.7	15.7	0.00e+00	0	43	0	1005584384	14	4102
2026-01-02 08:09:13.73	27.75	18.73	-26.7	-27.9	15.6	0.00e+00	0	43	0	1008730112	14	4141
2026-01-02 08:09:14.74	27.52	18.70	-26.8	-28.2	15.4	0.00e+00	0	43	0	1011875840	14	4215
2026-01-02 08:09:15.74	27.28	18.67	-26.8	-28.1	15.5	0.00e+00	0	43	0	1015021568	14	4200
2026-01-02 08:09:16.75	27.05	18.64	-26.9	-28.4	15.3	0.00e+00	0	43	0	1018167296	14	4266
2026-01-02 08:09:17.75	26.82	18.62	-26.9	-28.4	15.3	0.00e+00	0	43	0	1021313024	14	4281
2026-01-02 08:09:18.75	26.59	18.59	-26.8	-28.1	15.4	0.00e+00	0	43	0	1024458752	14	4206
2026-01-02 08:09:19.75	26.35	18.56	-26.8	-28.2	15.4	0.00e+00	0	43	0	1027604480	14	4221
2026-01-02 08:09:20.76	26.12	18.53	-26.9	-28.3	15.3	0.00e+00	0	43	0	1030750208	14	4259
2026-01-02 08:09:21.76	25.89	18.50	-27.0	-28.6	15.2	0.00e+00	0	43	0	1033895936	14	4328
2026-01-02 08:09:22.77	25.66	18.46	-26.9	-28.4	15.3	0.00e+00	0	43	0	1037041664	14	4271
2026-01-02 08:09:23.78	25.43	18.43	-26.8	-28.3	15.4	0.00e+00	0	43	0	1040187392	14	4241
2026-01-02 08:09:24.78	25.20	18.40	-27.0	-28.5	15.2	0.00e+00	0	43	0	1043333120	14	4317
2026-01-02 08:09:25.79	24.97	18.37	-26.9	-28.4	15.3	0.00e+00	0	43	0	1046478848	14	4291
2026-01-02 08:09:26.80	24.74	18.34	-27.0	-28.6	15.2	0.00e+00	0	43	0	1049624576	14	4343
2026-01-02 08:09:27.80	24.51	18.30	-27.0	-28.7	15.2	7.00e-07	0	43	0	1052770304	14	4351
2026-01-02 08:09:28.80	24.29	18.27	-27.0	-28.6	15.2	0.00e+00	0	43	0	1055916032	14	4340
2026-01-02 08:09:29.81	24.06	18.23	-26.9	-28.5	15.2	0.00e+00	0	43	0	1059061760	14	4311
2026-01-02 08:09:30.81	23.83	18.20	-26.8	-28.3	15.4	0.00e+00	0	43	0	1062207488	14	4245
2026-01-02 08:09:31.81	23.61	18.16	-27.0	-28.7	15.1	0.00e+00	0	43	0	1065353216	14	4364
2026-01-02 08:09:32.81	23.38	18.13	-27.0	-28.6	15.2	0.00e+00	0	43	0	1068498944	14	4339
2026-01-02 08:09:33.81	23.16	18.09	-26.8	-28.1	15.5	0.00e+00	0	43	0	1071644672	14	4189
2026-01-02 08:09:34.81	22.94	18.06	-26.7	-27.9	15.5	0.00e+00	0	43	0	1074790400	14	4140
2026-01-02 08:09:35.82	22.71	18.02	-26.7	-28.1	15.4	0.00e+00	0	43	0	1077936128	14	4191
2026-01-02 08:09:36.82	22.49	17.98	-26.8	-28.2	15.3	7.00e-07	0	43	0	1081081856	14	4220
2026-01-02 08:09:37.83	22.27	17.95	-26.8	-28.1	15.4	0.00e+00	0	43	0	1084227584	14	4208
2026-01-02 08:09:38.83	22.05	17.91	-26.9	-28.4	15.2	0.00e+00	0	43	0	1087373312	14	4285
2026-01-02 08:09:39.84	21.82	17.87	-26.8	-28.3	15.3	0.00e+00	0	43	0	1090519040	14	4245
2026-01-02 08:09:40.85	21.60	17.83	-26.8	-28.2	15.3	0.00e+00	0	43	0	1093664768	14	4227
2026-01-02 08:09:41.85	21.38	17.79	-26.9	-28.4	15.2	1.50e-06	0	43	0	1096810496	14	4275
2026-01-02 08:09:42.85	21.16	17.75	-26.9	-28.5	15.2	0.00e+00	0	43	0	1099956224	14	4306
2026-01-02 08:09:43.86	20.94	17.71	-27.1	-28.8	15.0	0.00e+00	0	43	0	1103101952	14	4395
2026-01-02 08:09:44.86	20.72	17.67	-26.9	-28.5	15.2	0.00e+00	0	43	0	1106247680	14	4304
2026-01-02 08:09:45.86	20.51	17.63	-26.7	-28.0	15.5	0.00e+00	0	43	0	1109393408	14	4175
2026-01-02 08:09:46.86	20.29	17.59	-26.7	-28.1	15.4	0.00e+00	0	43	0	1112539136	14	4185
2026-01-02 08:09:47.87	20.07	17.55	-26.6	-27.8	15.6	0.00e+00	0	43	0	1115684864	14	4120
2026-01-02 08:09:48.87	19.86	17.51	-26.6	-27.7	15.6	0.00e+00	0	43	0	1118830592	14	4101
2026-01-02 08:09:49.88	19.64	17.47	-26.6	-27.7	15.6	0.00e+00	0	43	0	1121976320	14	4087
2026-01-02 08:09:50.89	19.43	17.43	-26.6	-27.6	15.6	0.00e+00	0	43	0	1125122048	14	4073
2026-01-02 08:09:51.89	19.21	17.38	-26.6	-27.7	15.7	0.00e+00	0	43	0	1128267776	14	4090
2026-01-02 08:09:52.89	19.00	17.34	-26.7	-28.0	15.4	0.00e+00	0	43	0	1131413504	14	4176
2026-01-02 08:09:53.90	18.78	17.30	-26.6	-27.7	15.6	0.00e+00	0	43	0	1134559232	14	4102
2026-01-02 08:09:54.91	18.57	17.25	-26.6	-27.7	15.6	0.00e+00	0	43	0	1137704960	14	4104
2026-01-02 08:09:55.91	18.36	17.21	-26.8	-28.2	15.4	0.00e+00	0	43	0	1140850688	14	4225
2026-01-02 08:09:56.91	18.15	17.17	-26.9	-28.3	15.3	0.00e+00	0	43	0	1143996416	14	4258
2026-01-02 08:09:57.91	17.94	17.12	-27.2	-29.0	14.9	0.00e+00	0	43	0	1147142144	14	4449
2026-01-02 08:09:58.92	17.73	17.08	-27.0	-28.6	15.1	0.00e+00	0	43	0	1150287872	14	4341
2026-01-02 08:09:59.92	17.52	17.03	-27.0	-28.6	15.1	0.00e+00	0	43	0	1153433600	14	4330
2026-01-02 08:10:00.92	17.31	16.99	-27.0	-28.7	15.1	0.00e+00	0	43	0	1156579328	14	4366
2026-01-02 08:10:01.92	17.11	16.94	-27.0	-28.7	15.1	0.00e+00	0	43	0	1159725056	14	4352
2026-01-02 08:10:02.92	16.90	16.90	-26.9	-28.5	15.1	7.00e-07	0	43	0	1162870784	14	4321
2026-01-02 08:10:03.92	16.69	16.85	-27.0	-28.7	15.0	0.00e+00	0	43	0	1166016512	14	4366
2026-01-02 08:10:04.93	16.49	16.80	-26.8	-28.2	15.3	0.00e+00	0	43	0	1169162240	14	4227
2026-01-02 08:10:05.93	16.28	16.76	-26.7	-28.0	15.4	0.00e+00	0	43	0	1172307968	14	4163
2026-01-02 08:10:06.92	16.08	16.71	-26.7	-27.9	15.4	0.00e+00	0	43	0	1175453696	14	4160
2026-01-02 08:10:07.93	15.87	16.66	-26.8	-28.3	15.3	0.00e+00	0	43	0	1178599424	14	4245
2026-01-02 08:10:08.93	15.67	16.62	-26.8	-28.3	15.3	0.00e+00	0	43	0	1181745152	14	4243
2026-01-02 08:10:09.93	15.47	16.57	-26.8	-28.1	15.3	0.00e+00	0	43	0	1184890880	14	4208
2026-01-02 08:10:10.94	15.27	16.52	-26.8	-28.3	15.2	0.00e+00	0	43	0	1188036608	14	4247
2026-01-02 08:10:11.94	15.07	16.47	-27.1	-28.8	14.9	0.00e+00	0	43	0	1191182336	14	4395
2026-01-02 08:10:12.94	14.87	16.42	-27.1	-29.0	14.8	7.00e-07	0	43	0	1194328064	14	4446
2026-01-02 08:10:13.94	14.67	16.37	-27.2	-29.2	14.7	7.00e-07	0	43	0	1197473792	14	4508
2026-01-02 08:10:14.95	14.47	16.32	-27.0	-28.7	15.0	0.00e+00	0	43	0	1200619520	14	4378
2026-01-02 08:10:15.95	14.27	16.27	-26.9	-28.5	15.1	0.00e+00	0	43	0	1203765248	14	4320
2026-01-02 08:10:16.95	14.07	16.22	-26.9	-28.4	15.2	0.00e+00	0	44	0	1206910976	14	4293
2026-01-02 08:10:17.95	13.87	16.18	-27.2	-29.1	14.7	0.00e+00	0	43	0	1210056704	14	4498
2026-01-02 08:10:18.95	13.68	16.12	-27.0	-28.7	15.0	0.00e+00	0	43	0	1213202432	14	4357
2026-01-02 08:10:19.95	13.48	16.07	-26.9	-28.5	15.1	0.00e+00	0	43	0	1216348160	14	4310
2026-01-02 08:10:20.96	13.29	16.02	-26.9	-28.5	15.1	0.00e+00	0	43	0	1219493888	14	4319
2026-01-02 08:10:21.96	13.09	15.97	-26.9	-28.5	15.1	0.00e+00	0	43	0	1222639616	14	4312
2026-01-02 08:10:22.96	12.90	15.92	-27.0	-28.5	15.1	0.00e+00	0	43	0	1225785344	14	4326
2026-01-02 08:10:23.97	12.70	15.87	-27.1	-28.9	14.8	0.00e+00	0	43	0	1228931072	14	4443
2026-01-02 08:10:24.97	12.51	15.82	-26.9	-28.5	15.1	0.00e+00	0	43	0	1232076800	14	4323
2026-01-02 08:10:25.97	12.32	15.77	-27.0	-28.6	15.0	0.00e+00	0	43	0	1235222528	14	4331
2026-01-02 08:10:26.98	12.13	15.71	-26.9	-28.5	15.0	0.00e+00	0	43	0	1238368256	14	4307
2026-01-02 08:10:27.99	11.94	15.66	-27.0	-28.7	15.0	0.00e+00	0	43	0	1241513984	14	4364
2026-01-02 08:10:28.99	11.75	15.61	-27.0	-28.6	15.0	0.00e+00	0	43	0	1244659712	14	4355
2026-01-02 08:10:29.99	11.56	15.56	-27.0	-28.8	14.9	0.00e+00	0	43	0	1247805440	14	4392
2026-01-02 08:10:31.00	11.37	15.50	-27.1	-28.8	14.9	0.00e+00	0	43	0	1250951168	14	4391
2026-01-02 08:10:32.01	11.18	15.45	-27.1	-29.0	14.8	0.00e+00	0	43	0	1254096896	14	4450
2026-01-02 08:10:33.01	10.99	15.40	-27.1	-28.9	14.9	0.00e+00	0	43	0	1257242624	14	4425
2026-01-02 08:10:34.02	10.80	15.34	-27.2	-29.0	14.8	0.00e+00	0	43	0	1260388352	14	4471
2026-01-02 08:10:35.02	10.62	15.29	-27.1	-29.0	14.8	0.00e+00	0	43	0	1263534080	14	4447
2026-01-02 08:10:36.02	10.43	15.24	-27.3	-29.3	14.6	0.00e+00	0	43	0	1266679808	14	4557
2026-01-02 08:10:37.03	10.25	15.18	-27.2	-29.1	14.7	7.00e-07	0	43	0	1269825536	14	4498
2026-01-02 08:10:38.03	10.07	15.13	-27.2	-29.1	14.7	0.00e+00	0	43	0	1272971264	14	4489
2026-01-02 08:10:39.03	9.88	15.07	-27.2	-29.2	14.6	1.50e-06	0	43	0	1276116992	14	4517
2026-01-02 08:10:40.04	9.70	15.02	-27.4	-29.7	14.3	1.50e-06	0	43	0	1279262720	14	4668
2026-01-02 08:10:41.05	9.52	14.96	-27.4	-29.6	14.3	2.20e-06	0	43	0	1282408448	14	4646
2026-01-02 08:10:42.05	9.34	14.91	-27.4	-29.6	14.3	0.00e+00	0	43	0	1285554176	14	4646
2026-01-02 08:10:43.06	9.15	14.85	-27.7	-29.9	13.9	0.00e+00	0	43	0	1288699904	15	4617
2026-01-02 08:10:44.06	8.97	14.80	-27.8	-30.2	13.8	2.20e-06	0	43	0	1291845632	15	4705
2026-01-02 08:10:45.07	8.79	14.74	-28.1	-30.2	13.7	9.10e-06	0	43	0	1294991360	16	4579
2026-01-02 08:10:46.08	8.62	14.69	-27.7	-29.3	14.2	1.50e-06	0	44	0	1298137088	16	4307
2026-01-02 08:10:47.09	8.44	14.63	-27.9	-29.7	14.0	1.50e-06	0	43	0	1301282816	16	4429
2026-01-02 08:10:48.09	8.26	14.58	-27.6	-29.1	14.3	2.20e-06	0	43	0	1304428544	16	4254
2026-01-02 08:10:49.10	8.08	14.52	-27.4	-28.6	14.6	0.00e+00	0	43	0	1307574272	16	4130
2026-01-02 08:10:50.10	7.91	14.46	-27.4	-28.5	14.7	0.00e+00	0	43	0	1310720000	16	4096
2026-01-02 08:10:51.10	7.73	14.41	-27.4	-28.6	14.6	0.00e+00	0	43	0	1313865728	16	4125
2026-01-02 08:10:52.11	7.56	14.35	-27.5	-28.7	14.5	0.00e+00	0	43	0	1317011456	16	4155
2026-01-02 08:10:53.11	7.38	14.29	-27.9	-29.6	13.9	1.50e-06	0	43	0	1320157184	16	4423
2026-01-02 08:10:54.11	7.21	14.24	-27.6	-28.9	14.4	7.00e-07	0	43	0	1322254336	16	4217
2026-01-02 08:10:55.11	7.04	14.18	-27.5	-28.9	14.4	1.50e-06	0	43	0	1325400064	16	4197
2026-01-02 08:10:56.11	6.87	14.12	-27.6	-29.0	14.3	2.20e-06	0	43	0	1328545792	16	4229
2026-01-02 08:10:57.11	6.70	14.07	-27.5	-28.8	14.4	1.50e-06	0	43	0	1331691520	16	4190
2026-01-02 08:10:58.11	6.53	14.01	-27.5	-28.8	14.4	7.00e-07	0	43	0	1334837248	16	4194
2026-01-02 08:10:59.12	6.36	13.95	-27.5	-28.9	14.4	1.50e-06	0	43	0	1337982976	16	4209
2026-01-02 08:11:00.11	6.19	13.90	-27.3	-28.4	14.6	7.00e-07	0	43	0	1341128704	16	4078
2026-01-02 08:11:01.12	6.02	13.84	-27.1	-28.3	14.8	7.00e-07	0	43	0	1344274432	15	4161
2026-01-02 08:11:02.13	5.85	13.78	-27.0	-28.2	14.8	7.00e-07	0	43	0	1347420160	15	4143
2026-01-02 08:11:03.13	5.69	13.72	-27.1	-28.3	14.8	0.00e+00	0	43	0	1350565888	15	4170
2026-01-02 08:11:04.14	5.52	13.67	-27.1	-28.5	14.7	0.00e+00	0	43	0	1353711616	15	4215
2026-01-02 08:11:05.14	5.35	13.61	-27.1	-28.5	14.7	0.00e+00	0	43	0	1356857344	15	4220
2026-01-02 08:11:06.15	5.19	13.55	-27.4	-29.0	14.4	7.00e-07	0	43	0	1360003072	15	4363
2026-01-02 08:11:07.15	5.02	13.49	-27.4	-29.1	14.3	3.80e-06	0	43	0	1363148800	15	4377
2026-01-02 08:11:08.16	4.86	13.43	-27.3	-28.9	14.4	1.50e-06	0	43	0	1366294528	15	4335
2026-01-02 08:11:09.16	4.70	13.37	-27.4	-29.2	14.3	0.00e+00	0	43	0	1369440256	15	4396
2026-01-02 08:11:10.16	4.54	13.32	-27.4	-29.0	14.3	1.50e-06	0	43	0	1372585984	15	4368
2026-01-02 08:11:11.15	4.38	13.26	-27.6	-29.5	14.1	1.50e-06	0	43	0	1375731712	15	4511
2026-01-02 08:11:12.15	4.22	13.20	-27.5	-29.3	14.2	1.50e-06	0	43	0	1378877440	15	4444
2026-01-02 08:11:13.16	4.05	13.14	-27.5	-29.4	14.1	1.50e-06	0	43	0	1382023168	15	4490
2026-01-02 08:11:14.15	3.90	13.08	-27.3	-28.9	14.4	7.00e-07	0	43	0	1385168896	15	4344
2026-01-02 08:11:15.16	3.74	13.02	-27.1	-28.5	14.6	0.00e+00	0	43	0	1388314624	15	4211
2026-01-02 08:11:16.16	3.58	12.97	-27.1	-28.4	14.7	7.00e-07	0	43	0	1391460352	15	4185
2026-01-02 08:11:17.16	3.42	12.91	-27.2	-28.6	14.5	7.00e-07	0	43	0	1394606080	15	4248
2026-01-02 08:11:18.17	3.26	12.85	-27.1	-28.5	14.7	0.00e+00	0	43	0	1397751808	15	4202
2026-01-02 08:11:19.17	3.11	12.79	-27.1	-28.4	14.7	0.00e+00	0	43	0	1400897536	15	4199
2026-01-02 08:11:20.17	2.95	12.73	-27.1	-28.5	14.7	1.50e-06	0	43	0	1404043264	15	4204
2026-01-02 08:11:21.18	2.80	12.67	-27.2	-28.7	14.5	0.00e+00	0	43	0	1407188992	15	4264
2026-01-02 08:11:22.18	2.64	12.61	-27.4	-29.2	14.3	7.00e-07	0	43	0	1410334720	15	4410
2026-01-02 08:11:23.19	2.49	12.55	-27.4	-29.0	14.3	2.20e-06	0	43	0	1413480448	15	4370
2026-01-02 08:11:24.19	2.33	12.49	-27.4	-29.1	14.3	0.00e+00	0	43	0	1416626176	15	4378
2026-01-02 08:11:25.19	2.18	12.43	-27.3	-28.9	14.4	0.00e+00	0	43	0	1419771904	15	4343
2026-01-02 08:11:26.19	2.03	12.37	-27.4	-29.2	14.2	3.80e-06	0	43	0	1422917632	15	4409
2026-01-02 08:11:27.19	1.88	12.31	-27.4	-29.2	14.2	1.50e-06	0	43	0	1426063360	15	4413
2026-01-02 08:11:28.20	1.73	12.25	-27.4	-29.2	14.2	2.20e-06	0	43	0	1429209088	15	4429
2026-01-02 08:11:29.20	1.58	12.19	-27.5	-29.5	14.0	7.00e-07	0	43	0	1432354816	15	4514
2026-01-02 08:11:30.21	1.43	12.13	-27.5	-29.4	14.1	2.20e-06	0	43	0	1435500544	15	4491
2026-01-02 08:11:31.21	1.28	12.07	-27.5	-29.4	14.1	2.20e-06	0	43	0	1438646272	15	4468
2026-01-02 08:11:32.21	1.13	12.01	-27.7	-29.8	13.9	2.20e-06	0	43	0	1441792000	15	4599
2026-01-02 08:11:33.20	0.98	11.96	-27.6	-29.7	14.0	2.20e-06	0	43	0	1444937728	15	4557
2026-01-02 08:11:34.21	0.84	11.90	-27.7	-29.9	13.7	3.80e-06	0	43	0	1448083456	15	4642
2026-01-02 08:11:35.22	0.69	11.84	-27.8	-30.0	13.6	8.30e-06	0	43	0	1451229184	15	4682
2026-01-02 08:11:36.23	0.54	11.77	-27.7	-29.8	13.8	9.10e-06	0	43	0	1454374912	15	4616
2026-01-02 08:11:37.23	0.40	11.71	-27.8	-30.0	13.7	6.10e-06	0	43	0	1457520640	15	4668
2026-01-02 08:11:38.24	0.25	11.65	-27.9	-30.3	13.4	1.52e-05	0	43	0	1460666368	15	4776
2026-01-02 08:11:39.23	0.11	11.60	-27.8	-30.2	13.5	9.10e-06	0	43	0	1463812096	15	4716
2026-01-02 08:11:40.23	359.97	11.54	-27.9	-30.3	13.5	3.80e-06	0	43	0	1466957824	15	4746
2026-01-02 08:11:41.23	359.82	11.48	-27.9	-30.5	13.4	1.44e-05	0	44	0	1470103552	15	4809
2026-01-02 08:11:42.24	359.68	11.41	-28.2	-30.5	13.3	2.44e-05	0	43	0	1473249280	16	4688
2026-01-02 08:11:43.24	359.54	11.35	-27.9	-29.9	13.6	1.06e-05	0	44	0	1476395008	16	4510
2026-01-02 08:11:44.23	359.40	11.30	-27.9	-29.7	13.7	3.00e-06	0	43	0	1479540736	16	4456
2026-01-02 08:11:45.24	359.26	11.23	-27.9	-29.7	13.7	9.10e-06	0	43	0	1482686464	16	4446
2026-01-02 08:11:46.24	359.12	11.17	-28.1	-30.2	13.4	1.29e-05	0	43	0	1485832192	16	4607
2026-01-02 08:11:47.24	358.98	11.11	-28.3	-30.7	13.1	2.82e-05	0	44	0	1488977920	16	4771
2026-01-02 08:11:48.25	358.84	11.05	-28.2	-30.4	13.3	2.13e-05	0	43	0	1492123648	16	4679
2026-01-02 08:11:49.25	358.70	10.99	-28.1	-30.4	13.3	1.75e-05	0	43	0	1495269376	16	4671
2026-01-02 08:11:50.25	358.57	10.93	-28.2	-30.5	13.3	2.44e-05	0	43	0	1498415104	16	4689
2026-01-02 08:11:51.26	358.43	10.87	-28.0	-30.1	13.5	9.90e-06	0	43	0	1501560832	16	4560
2026-01-02 08:11:52.26	358.29	10.81	-28.0	-30.2	13.4	1.44e-05	0	43	0	1504706560	16	4594
2026-01-02 08:11:53.27	358.16	10.75	-28.1	-30.2	13.4	1.29e-05	0	43	0	1507852288	16	4611
2026-01-02 08:11:54.27	358.02	10.69	-28.2	-30.6	13.2	2.28e-05	0	43	0	1510998016	16	4741
2026-01-02 08:11:55.28	357.89	10.63	-27.9	-29.7	13.7	9.90e-06	0	44	0	1514143744	16	4466
2026-01-02 08:11:56.28	357.75	10.57	-27.7	-29.3	13.9	4.50e-06	0	43	0	1517289472	16	4340
2026-01-02 08:11:57.29	357.62	10.51	-27.8	-29.5	13.8	3.80e-06	0	44	0	1520435200	16	4399
2026-01-02 08:11:58.28	357.49	10.45	-28.0	-30.0	13.6	8.30e-06	0	43	0	1523580928	16	4533
2026-01-02 08:11:59.28	357.35	10.39	-27.8	-29.6	13.8	4.50e-06	0	43	0	1526726656	16	4426
2026-01-02 08:12:00.28	357.22	10.33	-27.9	-29.8	13.6	9.10e-06	0	43	0	1529872384	16	4497
2026-01-02 08:12:01.29	357.09	10.27	-27.9	-30.0	13.6	9.10e-06	0	43	0	1533018112	16	4535
2026-01-02 08:12:02.29	356.96	10.21	-28.1	-30.3	13.4	1.37e-05	0	43	0	1536163840	16	4631
2026-01-02 08:12:03.29	356.83	10.15	-28.1	-30.3	13.3	1.44e-05	0	43	0	1539309568	16	4657
2026-01-02 08:12:04.29	356.70	10.09	-28.2	-30.7	13.1	2.21e-05	0	43	0	1542455296	16	4759
2026-01-02 08:12:05.29	356.57	10.03	-28.3	-30.7	13.1	2.59e-05	0	43	0	1545601024	16	4779
2026-01-02 08:12:06.29	356.44	9.97	-28.3	-30.9	13.0	3.50e-05	0	43	0	1548746752	16	4839
2026-01-02 08:12:07.30	356.32	9.91	-28.4	-31.0	12.8	5.72e-05	0	43	0	1551892480	16	4882
2026-01-02 08:12:08.30	356.19	9.85	-28.3	-30.8	13.0	3.81e-05	0	43	0	1555038208	16	4819
2026-01-02 08:12:09.31	356.06	9.79	-28.4	-31.0	12.9	6.25e-05	0	44	0	1558183936	16	4875
2026-01-02 08:12:10.31	355.93	9.73	-28.4	-31.1	12.8	5.95e-05	0	43	0	1561329664	16	4905
2026-01-02 08:12:11.31	355.81	9.67	-28.4	-31.0	12.9	4.42e-05	0	43	0	1564475392	16	4870
2026-01-02 08:12:12.31	355.68	9.61	-28.4	-31.0	12.9	5.18e-05	0	43	0	1567621120	16	4866
2026-01-02 08:12:13.31	355.56	9.55	-28.2	-30.6	13.1	3.58e-05	0	43	0	1570766848	16	4758
2026-01-02 08:12:14.31	355.44	9.49	-28.3	-30.9	12.9	3.96e-05	0	43	0	1572864000	16	4850
2026-01-02 08:12:15.30	355.31	9.43	-28.4	-31.1	12.8	5.72e-05	0	43	0	1576009728	16	4910
2026-01-02 08:12:16.31	355.19	9.37	-28.3	-30.8	13.0	5.03e-05	0	43	0	1579155456	16	4811
2026-01-02 08:12:17.31	355.07	9.31	-28.4	-31.0	12.8	5.95e-05	0	43	0	1582301184	16	4874
2026-01-02 08:12:18.31	354.95	9.25	-28.4	-31.1	12.7	7.24e-05	0	43	0	1585446912	16	4902
2026-01-02 08:12:19.31	354.82	9.19	-28.4	-31.2	12.7	6.02e-05	0	43	0	1588592640	16	4929
2026-01-02 08:12:20.32	354.70	9.13	-28.6	-31.2	12.4	1.24e-04	0	43	0	1592786944	17	4826
2026-01-02 08:12:21.33	354.58	9.06	-28.7	-31.4	12.2	2.17e-04	0	43	0	1595932672	17	4889
2026-01-02 08:12:22.32	354.46	9.01	-28.6	-31.2	12.4	1.50e-04	0	43	0	1598029824	17	4827
2026-01-02 08:12:23.32	354.34	8.95	-28.6	-31.2	12.3	1.83e-04	0	43	0	1601175552	17	4845
2026-01-02 08:12:24.32	354.22	8.89	-28.8	-31.6	12.1	2.44e-04	0	43	0	1604321280	17	4989
2026-01-02 08:12:25.33	354.11	8.83	-28.9	-31.5	11.9	4.71e-04	0	43	0	1607467008	18	4816
2026-01-02 08:12:26.33	353.99	8.77	-28.9	-31.3	12.0	3.28e-04	0	43	0	1610612736	18	4748
2026-01-02 08:12:27.33	353.87	8.71	-28.9	-31.3	12.0	4.51e-04	0	44	0	1613758464	18	4754
2026-01-02 08:12:28.34	353.75	8.65	-28.6	-30.6	12.4	1.40e-04	0	44	0	1616904192	18	4543
2026-01-02 08:12:29.34	353.64	8.59	-28.5	-30.3	12.6	9.68e-05	0	43	0	1620049920	18	4448
2026-01-02 08:12:30.34	353.52	8.53	-28.5	-30.4	12.5	7.24e-05	0	43	0	1623195648	18	4478
2026-01-02 08:12:31.35	353.40	8.47	-28.5	-30.4	12.5	1.32e-04	0	44	0	1626341376	18	4470
2026-01-02 08:12:32.36	353.29	8.40	-28.5	-30.4	12.5	1.08e-04	0	43	0	1629487104	18	4481
2026-01-02 08:12:33.35	353.18	8.35	-28.7	-30.8	12.2	2.14e-04	0	43	0	1632632832	18	4609
2026-01-02 08:12:34.36	353.06	8.29	-28.6	-30.7	12.3	1.67e-04	0	44	0	1635778560	18	4570
2026-01-02 08:12:35.35	352.95	8.23	-28.8	-31.0	12.1	2.68e-04	0	44	0	1638924288	18	4669
2026-01-02 08:12:36.36	352.83	8.17	-28.6	-30.7	12.3	1.95e-04	0	43	0	1642070016	18	4577
2026-01-02 08:12:37.37	352.72	8.11	-28.5	-30.5	12.5	1.10e-04	0	44	0	1645215744	18	4504
2026-01-02 08:12:38.37	352.61	8.05	-28.6	-30.6	12.4	1.40e-04	0	44	0	1648361472	18	4529
2026-01-02 08:12:39.37	352.50	7.99	-28.9	-31.3	11.9	3.27e-04	0	44	0	1651507200	18	4768
2026-01-02 08:12:40.38	352.39	7.93	-28.9	-31.5	11.8	4.89e-04	0	43	0	1654652928	18	4842
2026-01-02 08:12:41.38	352.27	7.87	-28.8	-31.2	12.0	3.11e-04	0	44	0	1657798656	18	4735
2026-01-02 08:12:42.39	352.16	7.81	-28.8	-31.1	12.0	2.86e-04	0	43	0	1660944384	18	4703
2026-01-02 08:12:43.40	352.05	7.75	-28.8	-31.3	11.9	4.55e-04	0	43	0	1664090112	18	4764
2026-01-02 08:12:44.40	351.94	7.69	-28.8	-31.1	12.0	3.33e-04	0	43	0	1667235840	18	4689
2026-01-02 08:12:45.41	351.83	7.63	-28.8	-31.2	11.9	3.15e-04	0	44	0	1670381568	18	4728
2026-01-02 08:12:46.41	351.73	7.57	-28.9	-31.4	11.9	4.80e-04	0	44	0	1673527296	18	4788
2026-01-02 08:12:47.41	351.62	7.51	-28.7	-31.0	12.0	3.07e-04	0	43	0	1676673024	18	4665
2026-01-02 08:12:48.41	351.51	7.45	-28.7	-31.0	12.1	3.78e-04	0	43	0	1679818752	18	4666
2026-01-02 08:12:49.41	351.40	7.39	-28.6	-30.8	12.2	2.60e-04	0	43	0	1682964480	18	4595
2026-01-02 08:12:50.41	351.30	7.33	-28.7	-31.0	12.0	1.87e-04	0	43	0	1686110208	18	4665
2026-01-02 08:12:51.40	351.19	7.28	-28.7	-30.8	12.1	2.31e-04	0	44	0	1689255936	18	4617
2026-01-02 08:12:52.40	351.09	7.22	-28.8	-31.1	12.0	3.19e-04	0	43	0	1692401664	18	4692
2026-01-02 08:12:53.40	350.98	7.16	-28.7	-30.9	12.1	2.85e-04	0	44	0	1695547392	18	4631
2026-01-02 08:12:54.41	350.88	7.10	-28.7	-30.9	12.1	2.39e-04	0	43	0	1698693120	18	4630
2026-01-02 08:12:55.41	350.77	7.04	-30.4	-34.8	8.9	3.38e-04	0	44	0	1701838848	20	6000
2026-01-02 08:12:56.42	350.67	6.98	-32.8	-44.5	3.8	1.49e+00	0	43	104	1701838848	25	13915
2026-01-02 08:12:57.43	350.56	6.92	-33.1	-45.0	3.8	1.49e+00	0	43	104	1701838848	26	14167
2026-01-02 08:12:58.43	350.46	6.86	-33.2	-45.3	3.8	1.49e+00	0	43	104	1701838848	26	14445

#Closed at: 2026-01-02 08:12:58
#Recorded file [1701 MB]: D:/data/31010_260102_110350.dat