passes_logs/2026/01/02/R2M6_AANII_01/R2M6_AANII_01__20260102_101108_SUOMI_NPP_rec.log

#Pass ID: 20260102_101108_SUOMI NPP
#Satellite: SUOMI NPP
#Configuration: NPP
#almurnet v.1.7.20240730
#Start time: 2026-01-02 10:11:09

#Version: 2.2.20231116
#Station: R2M6_AANII_01
#Location: 30.233357 lon 59.946436 lat
#TLE: 1 37849U 11061A   26001.07732418  .00000182  00000+0  10735-3 0  9990
#TLE: 2 37849  98.7795 303.2470 0002580  87.2016 272.9455 14.19520779734739

#Time	Az	El	Level	Level2	SNR	BER	BlckErr	Temp	State	Recorded	gain1	gain2
2026-01-02 10:11:09.58	153.84	7.07	-30.2	-34.2	5.2	1.27e+00	0	41	0	0	21	5747
2026-01-02 10:11:10.58	153.83	7.14	-30.6	-35.0	5.0	1.32e+00	0	41	104	0	22	5964
2026-01-02 10:11:11.58	153.83	7.22	-30.6	-34.9	7.9	6.56e-02	0	41	0	0	22	5910
2026-01-02 10:11:12.58	153.82	7.30	-30.6	-34.7	8.1	7.21e-02	0	41	0	1048576	22	5760
2026-01-02 10:11:13.59	153.81	7.38	-30.5	-34.1	8.6	4.33e-02	0	41	0	3145728	22	5457
2026-01-02 10:11:14.60	153.81	7.46	-30.3	-33.3	9.2	2.23e-02	0	41	0	5242880	22	5092
2026-01-02 10:11:15.59	153.80	7.54	-30.1	-33.1	9.8	1.59e-02	0	41	0	7340032	21	5088
2026-01-02 10:11:16.59	153.79	7.62	-30.2	-33.2	9.7	9.60e-03	0	41	0	9437184	21	5131
2026-01-02 10:11:17.59	153.79	7.70	-30.2	-33.5	9.5	1.36e-02	0	41	0	10485760	21	5267
2026-01-02 10:11:18.60	153.78	7.78	-30.1	-33.1	9.9	1.25e-02	0	41	0	12582912	21	5056
2026-01-02 10:11:19.61	153.77	7.86	-30.1	-33.1	9.9	9.92e-03	0	41	0	14680064	21	5052
2026-01-02 10:11:20.61	153.76	7.94	-30.1	-32.9	10.0	8.31e-03	0	41	0	16777216	21	4992
2026-01-02 10:11:21.61	153.76	8.02	-30.1	-33.0	10.0	8.35e-03	0	41	0	17825792	21	5005
2026-01-02 10:11:22.61	153.75	8.10	-30.1	-33.0	10.0	8.60e-03	0	41	0	19922944	21	5019
2026-01-02 10:11:23.61	153.74	8.18	-30.1	-32.8	10.2	6.43e-03	0	41	0	22020096	21	4901
2026-01-02 10:11:24.61	153.74	8.26	-30.1	-32.8	10.2	4.97e-03	0	41	0	24117248	21	4900
2026-01-02 10:11:25.61	153.73	8.34	-30.1	-32.7	10.3	5.53e-03	0	41	0	26214400	21	4875
2026-01-02 10:11:26.61	153.72	8.42	-30.1	-32.8	10.2	5.10e-03	0	41	0	27262976	21	4917
2026-01-02 10:11:27.61	153.71	8.51	-30.0	-32.5	10.4	5.76e-03	0	41	0	29360128	21	4797
2026-01-02 10:11:28.60	153.71	8.59	-29.9	-32.0	10.8	3.12e-03	0	42	0	31457280	21	4603
2026-01-02 10:11:29.60	153.70	8.67	-29.8	-32.2	11.1	1.62e-03	0	41	0	33554432	20	4749
2026-01-02 10:11:30.61	153.69	8.75	-29.8	-32.2	11.1	1.30e-03	0	42	0	35651584	20	4749
2026-01-02 10:11:31.61	153.68	8.84	-29.7	-32.0	11.2	1.42e-03	0	42	0	36700160	20	4693
2026-01-02 10:11:32.62	153.68	8.92	-29.8	-32.2	11.1	2.01e-03	0	42	0	38797312	20	4752
2026-01-02 10:11:33.62	153.67	9.01	-29.7	-32.1	11.1	1.33e-03	0	42	0	40894464	20	4737
2026-01-02 10:11:34.63	153.66	9.09	-29.7	-32.0	11.2	1.60e-03	0	42	0	42991616	20	4691
2026-01-02 10:11:35.63	153.65	9.17	-29.6	-31.7	11.4	1.32e-03	0	42	0	45088768	20	4604
2026-01-02 10:11:36.63	153.64	9.26	-29.7	-32.0	11.2	1.61e-03	0	42	0	46137344	20	4715
2026-01-02 10:11:37.63	153.64	9.34	-29.7	-32.1	11.2	1.36e-03	0	42	0	48234496	20	4730
2026-01-02 10:11:38.64	153.63	9.43	-29.5	-31.6	11.4	1.11e-03	0	42	0	50331648	20	4605
2026-01-02 10:11:39.63	153.62	9.51	-29.3	-31.2	11.7	8.58e-04	0	42	0	52428800	20	4474
2026-01-02 10:11:40.64	153.61	9.60	-29.4	-31.4	11.6	5.62e-04	0	42	0	54525952	20	4543
2026-01-02 10:11:41.64	153.60	9.69	-29.5	-31.7	11.4	7.84e-04	0	42	0	55574528	20	4625
2026-01-02 10:11:42.64	153.60	9.77	-29.4	-31.5	11.5	7.61e-04	0	42	0	57671680	20	4589
2026-01-02 10:11:43.64	153.59	9.86	-29.5	-31.5	11.5	8.60e-04	0	42	0	59768832	20	4570
2026-01-02 10:11:44.64	153.58	9.95	-29.5	-31.5	11.6	7.74e-04	0	42	0	61865984	20	4552
2026-01-02 10:11:45.64	153.57	10.03	-29.6	-31.8	11.5	7.20e-04	0	42	0	62914560	20	4614
2026-01-02 10:11:46.64	153.56	10.12	-29.6	-31.8	11.5	6.72e-04	0	42	0	65011712	20	4615
2026-01-02 10:11:47.64	153.55	10.21	-29.6	-31.6	11.7	6.42e-04	0	42	0	67108864	20	4542
2026-01-02 10:11:48.65	153.54	10.30	-29.7	-31.7	11.6	5.82e-04	0	42	0	69206016	20	4550
2026-01-02 10:11:49.65	153.53	10.39	-29.7	-31.8	11.6	4.98e-04	0	42	0	71303168	20	4563
2026-01-02 10:11:50.65	153.53	10.48	-29.7	-31.6	11.8	4.61e-04	0	42	0	72351744	20	4480
2026-01-02 10:11:51.66	153.52	10.57	-29.8	-31.8	11.7	4.90e-04	0	42	0	74448896	20	4536
2026-01-02 10:11:52.67	153.51	10.66	-29.7	-31.6	11.7	7.50e-04	0	42	0	76546048	20	4488
2026-01-02 10:11:53.67	153.50	10.75	-29.7	-31.6	11.8	4.05e-04	0	42	0	78643200	20	4462
2026-01-02 10:11:54.66	153.49	10.84	-29.8	-31.8	11.7	4.42e-04	0	42	0	80740352	20	4523
2026-01-02 10:11:55.66	153.48	10.93	-29.7	-31.5	12.0	4.61e-04	0	42	0	81788928	20	4426
2026-01-02 10:11:56.66	153.47	11.02	-29.8	-31.8	11.7	4.67e-04	0	42	0	83886080	20	4542
2026-01-02 10:11:57.67	153.46	11.11	-29.9	-32.0	11.6	5.74e-04	0	42	0	85983232	20	4591
2026-01-02 10:11:58.66	153.45	11.20	-29.7	-31.6	11.9	4.78e-04	0	42	0	88080384	20	4482
2026-01-02 10:11:59.66	153.44	11.29	-29.7	-31.6	11.9	4.59e-04	0	42	0	90177536	20	4457
2026-01-02 10:12:00.67	153.43	11.38	-29.8	-31.8	11.7	4.61e-04	0	42	0	91226112	20	4537
2026-01-02 10:12:01.66	153.42	11.48	-29.8	-31.8	11.8	5.02e-04	0	42	0	93323264	20	4523
2026-01-02 10:12:02.66	153.41	11.57	-29.9	-32.0	11.6	4.90e-04	0	42	0	95420416	20	4619
2026-01-02 10:12:03.67	153.40	11.66	-29.8	-31.9	11.7	5.39e-04	0	42	0	97517568	20	4565
2026-01-02 10:12:04.68	153.39	11.76	-29.8	-31.7	11.8	6.03e-04	0	42	0	98566144	20	4517
2026-01-02 10:12:05.68	153.38	11.85	-29.8	-31.9	11.7	4.89e-04	0	42	0	100663296	20	4588
2026-01-02 10:12:06.68	153.37	11.95	-29.8	-31.9	11.7	5.12e-04	0	42	0	102760448	20	4559
2026-01-02 10:12:07.69	153.36	12.04	-29.7	-31.5	12.0	4.99e-04	0	42	0	104857600	20	4440
2026-01-02 10:12:08.68	153.35	12.14	-29.6	-31.4	12.1	4.40e-04	0	43	0	106954752	20	4398
2026-01-02 10:12:09.68	153.34	12.23	-29.7	-31.5	12.0	3.91e-04	0	42	0	108003328	20	4452
2026-01-02 10:12:10.68	153.33	12.33	-29.7	-31.5	12.0	3.62e-04	0	42	0	110100480	20	4431
2026-01-02 10:12:11.68	153.32	12.42	-29.6	-31.4	12.1	2.85e-04	0	42	0	112197632	20	4393
2026-01-02 10:12:12.68	153.31	12.52	-29.6	-31.3	12.2	2.68e-04	0	42	0	114294784	20	4379
2026-01-02 10:12:13.68	153.30	12.62	-29.7	-31.5	12.1	1.75e-04	0	42	0	116391936	20	4414
2026-01-02 10:12:14.69	153.29	12.71	-29.6	-31.3	12.2	2.43e-04	0	42	0	117440512	20	4360
2026-01-02 10:12:15.69	153.28	12.81	-29.7	-31.3	12.2	1.86e-04	0	42	0	119537664	20	4366
2026-01-02 10:12:16.69	153.27	12.91	-29.7	-31.3	12.2	2.30e-04	0	43	0	121634816	20	4354
2026-01-02 10:12:17.69	153.26	13.01	-29.6	-31.3	12.2	2.28e-04	0	42	0	123731968	20	4338
2026-01-02 10:12:18.69	153.25	13.11	-29.8	-31.5	12.1	2.05e-04	0	42	0	125829120	20	4421
2026-01-02 10:12:19.69	153.23	13.21	-29.6	-31.2	12.4	1.70e-04	0	43	0	126877696	20	4312
2026-01-02 10:12:20.69	153.22	13.31	-29.8	-31.6	12.1	1.46e-04	0	42	0	128974848	20	4439
2026-01-02 10:12:21.69	153.21	13.41	-29.8	-31.6	12.0	3.25e-04	0	42	0	131072000	20	4470
2026-01-02 10:12:22.69	153.20	13.51	-29.6	-31.1	12.4	1.78e-04	0	42	0	133169152	20	4298
2026-01-02 10:12:23.69	153.19	13.61	-29.6	-31.1	12.4	1.62e-04	0	42	0	135266304	20	4280
2026-01-02 10:12:24.69	153.18	13.71	-29.7	-31.5	12.1	1.97e-04	0	42	0	136314880	20	4422
2026-01-02 10:12:25.69	153.16	13.81	-29.6	-31.2	12.4	2.07e-04	0	42	0	138412032	20	4319
2026-01-02 10:12:26.68	153.15	13.91	-29.6	-31.2	12.3	1.45e-04	0	43	0	140509184	20	4334
2026-01-02 10:12:27.68	153.14	14.01	-29.6	-31.2	12.4	1.45e-04	0	43	0	142606336	20	4322
2026-01-02 10:12:28.69	153.13	14.12	-29.7	-31.4	12.2	1.93e-04	0	43	0	143654912	20	4370
2026-01-02 10:12:29.69	153.12	14.22	-29.6	-31.2	12.4	1.76e-04	0	43	0	145752064	20	4300
2026-01-02 10:12:30.70	153.10	14.33	-29.6	-31.2	12.4	1.42e-04	0	43	0	147849216	20	4328
2026-01-02 10:12:31.69	153.09	14.43	-29.6	-31.1	12.5	1.29e-04	0	43	0	149946368	20	4284
2026-01-02 10:12:32.70	153.08	14.54	-29.8	-31.6	12.1	1.96e-04	0	43	0	152043520	20	4437
2026-01-02 10:12:33.70	153.07	14.64	-29.8	-31.7	12.1	2.29e-04	0	43	0	153092096	20	4462
2026-01-02 10:12:34.71	153.05	14.75	-29.8	-31.7	12.1	2.35e-04	0	42	0	155189248	20	4476
2026-01-02 10:12:35.71	153.04	14.85	-29.7	-31.4	12.3	1.95e-04	0	43	0	157286400	20	4361
2026-01-02 10:12:36.71	153.03	14.96	-29.8	-31.5	12.3	1.14e-04	0	43	0	159383552	20	4387
2026-01-02 10:12:37.72	153.01	15.07	-29.7	-31.3	12.4	1.04e-04	0	43	0	161480704	20	4317
2026-01-02 10:12:38.72	153.00	15.18	-29.6	-31.1	12.5	1.21e-04	0	43	0	162529280	20	4275
2026-01-02 10:12:39.72	152.99	15.28	-29.7	-31.3	12.5	1.46e-04	0	43	0	164626432	20	4323
2026-01-02 10:12:40.73	152.97	15.39	-29.7	-31.3	12.5	1.76e-04	0	43	0	166723584	20	4308
2026-01-02 10:12:41.73	152.96	15.50	-29.6	-30.9	12.7	7.93e-05	0	43	0	168820736	20	4203
2026-01-02 10:12:42.74	152.95	15.61	-29.5	-30.7	12.9	5.03e-05	0	43	0	170917888	20	4132
2026-01-02 10:12:43.74	152.93	15.72	-29.4	-30.3	13.1	4.88e-05	0	43	0	171966464	20	4014
2026-01-02 10:12:44.74	152.92	15.83	-29.4	-30.5	13.1	2.97e-05	0	43	0	174063616	20	4059
2026-01-02 10:12:45.73	152.90	15.94	-29.5	-30.5	13.0	3.20e-05	0	43	0	176160768	20	4081
2026-01-02 10:12:46.74	152.89	16.06	-29.4	-30.2	13.2	1.98e-05	0	43	0	178257920	20	3972
2026-01-02 10:12:47.74	152.88	16.17	-29.5	-30.5	13.0	3.20e-05	0	43	0	180355072	20	4075
2026-01-02 10:12:48.75	152.86	16.28	-29.4	-30.4	13.1	3.66e-05	0	43	0	181403648	20	4025
2026-01-02 10:12:49.75	152.85	16.40	-29.3	-30.2	13.3	2.13e-05	0	43	0	183500800	20	3957
2026-01-02 10:12:50.75	152.83	16.51	-29.4	-30.7	13.3	1.44e-05	0	43	0	185597952	19	4207
2026-01-02 10:12:51.75	152.82	16.62	-29.3	-30.5	13.5	8.30e-06	0	43	0	187695104	19	4139
2026-01-02 10:12:52.76	152.80	16.74	-29.3	-30.5	13.5	1.22e-05	0	43	0	188743680	19	4143
2026-01-02 10:12:53.75	152.79	16.85	-29.3	-30.6	13.4	8.30e-06	0	43	0	190840832	19	4177
2026-01-02 10:12:54.76	152.77	16.97	-29.3	-30.5	13.5	9.90e-06	0	43	0	192937984	19	4121
2026-01-02 10:12:55.76	152.75	17.09	-29.4	-30.7	13.4	6.80e-06	0	43	0	195035136	19	4180
2026-01-02 10:12:56.77	152.74	17.21	-29.4	-30.8	13.4	1.14e-05	0	43	0	197132288	19	4222
2026-01-02 10:12:57.77	152.72	17.32	-29.4	-30.7	13.5	9.90e-06	0	43	0	198180864	19	4176
2026-01-02 10:12:58.76	152.71	17.44	-29.5	-30.9	13.3	1.44e-05	0	43	0	200278016	19	4252
2026-01-02 10:12:59.77	152.69	17.56	-29.4	-30.7	13.4	1.22e-05	0	43	0	202375168	19	4189
2026-01-02 10:13:00.77	152.68	17.68	-29.4	-30.8	13.4	1.60e-05	0	43	0	204472320	19	4194
2026-01-02 10:13:01.78	152.66	17.80	-29.5	-30.9	13.4	1.37e-05	0	43	0	206569472	19	4233
2026-01-02 10:13:02.78	152.64	17.92	-29.5	-30.9	13.4	1.06e-05	0	43	0	207618048	19	4234
2026-01-02 10:13:03.78	152.63	18.04	-29.5	-30.8	13.5	1.44e-05	0	43	0	209715200	19	4213
2026-01-02 10:13:04.78	152.61	18.16	-29.5	-30.9	13.4	2.05e-05	0	43	0	211812352	19	4223
2026-01-02 10:13:05.78	152.59	18.28	-29.5	-31.0	13.4	1.44e-05	0	43	0	213909504	19	4261
2026-01-02 10:13:06.78	152.57	18.41	-29.5	-30.9	13.5	5.30e-06	0	43	0	214958080	19	4226
2026-01-02 10:13:07.78	152.56	18.53	-29.5	-30.8	13.5	2.28e-05	0	43	0	217055232	19	4202
2026-01-02 10:13:08.78	152.54	18.65	-29.3	-30.4	13.8	8.30e-06	0	43	0	219152384	19	4065
2026-01-02 10:13:09.78	152.52	18.78	-29.3	-30.4	13.8	4.50e-06	0	43	0	221249536	19	4067
2026-01-02 10:13:10.79	152.50	18.91	-29.2	-30.2	14.0	6.10e-06	0	43	0	223346688	19	4017
2026-01-02 10:13:11.79	152.49	19.03	-29.3	-30.5	13.8	6.10e-06	0	43	0	225443840	19	4094
2026-01-02 10:13:12.79	152.47	19.16	-29.5	-30.9	13.5	3.00e-06	0	43	0	226492416	19	4234
2026-01-02 10:13:13.79	152.45	19.28	-29.5	-30.8	13.6	8.30e-06	0	43	0	228589568	19	4183
2026-01-02 10:13:14.80	152.43	19.41	-29.4	-30.7	13.7	6.10e-06	0	43	0	230686720	19	4164
2026-01-02 10:13:15.80	152.41	19.54	-29.4	-30.5	13.8	3.80e-06	0	43	0	232783872	19	4112
2026-01-02 10:13:16.80	152.39	19.67	-29.5	-30.8	13.6	6.80e-06	0	43	0	233832448	19	4197
2026-01-02 10:13:17.80	152.37	19.80	-29.5	-30.9	13.5	8.30e-06	0	43	0	235929600	19	4230
2026-01-02 10:13:18.81	152.35	19.93	-29.7	-31.4	13.2	1.06e-05	0	43	0	238026752	19	4360
2026-01-02 10:13:19.81	152.34	20.06	-29.7	-31.4	13.2	1.75e-05	0	43	0	240123904	19	4379
2026-01-02 10:13:20.82	152.32	20.20	-29.9	-31.8	13.0	2.59e-05	0	43	0	242221056	19	4518
2026-01-02 10:13:21.82	152.30	20.33	-29.7	-31.4	13.3	3.12e-05	0	43	0	243269632	19	4368
2026-01-02 10:13:22.82	152.28	20.46	-29.6	-31.2	13.4	1.67e-05	0	43	0	245366784	19	4312
2026-01-02 10:13:23.83	152.26	20.60	-29.6	-31.0	13.5	1.37e-05	0	43	0	247463936	19	4260
2026-01-02 10:13:24.83	152.23	20.73	-29.4	-30.6	13.8	6.80e-06	0	43	0	249561088	19	4137
2026-01-02 10:13:25.84	152.21	20.87	-29.4	-30.6	13.8	1.50e-06	0	43	0	251658240	19	4114
2026-01-02 10:13:26.84	152.19	21.01	-29.4	-30.5	13.9	6.10e-06	0	43	0	252706816	19	4083
2026-01-02 10:13:27.84	152.17	21.14	-29.4	-30.5	13.9	2.20e-06	0	43	0	254803968	19	4085
2026-01-02 10:13:28.85	152.15	21.28	-29.2	-30.1	14.1	0.00e+00	0	43	0	256901120	19	3985
2026-01-02 10:13:29.85	152.13	21.42	-29.2	-30.1	14.2	0.00e+00	0	43	0	258998272	19	3971
2026-01-02 10:13:30.85	152.11	21.56	-29.3	-30.4	14.0	7.00e-07	0	43	0	261095424	19	4048
2026-01-02 10:13:31.86	152.08	21.70	-29.2	-29.9	14.3	3.00e-06	0	43	0	262144000	19	3923
2026-01-02 10:13:32.85	152.06	21.84	-29.1	-29.6	14.5	7.00e-07	0	43	0	264241152	19	3843
2026-01-02 10:13:33.85	152.04	21.98	-29.0	-29.4	14.6	0.00e+00	0	43	0	266338304	19	3783
2026-01-02 10:13:34.85	152.02	22.12	-29.0	-29.4	14.6	0.00e+00	0	43	0	268435456	19	3775
2026-01-02 10:13:35.86	151.99	22.27	-28.9	-29.3	14.7	0.00e+00	0	43	0	270532608	19	3745
2026-01-02 10:13:36.86	151.97	22.41	-28.9	-29.2	14.8	0.00e+00	0	43	0	271581184	19	3719
2026-01-02 10:13:37.87	151.95	22.56	-28.9	-29.3	14.8	0.00e+00	0	43	0	273678336	19	3744
2026-01-02 10:13:38.87	151.92	22.70	-28.9	-29.2	14.8	1.50e-06	0	43	0	275775488	19	3717
2026-01-02 10:13:39.87	151.90	22.85	-28.8	-29.0	14.9	0.00e+00	0	43	0	277872640	19	3682
2026-01-02 10:13:40.87	151.88	23.00	-28.9	-29.2	14.9	0.00e+00	0	43	0	278921216	19	3720
2026-01-02 10:13:41.88	151.85	23.15	-28.8	-29.3	15.1	0.00e+00	0	43	0	281018368	18	3835
2026-01-02 10:13:42.89	151.83	23.30	-28.7	-29.3	15.1	6.10e-06	0	43	0	283115520	18	3821
2026-01-02 10:13:43.90	151.80	23.45	-28.7	-29.1	15.2	0.00e+00	0	43	0	285212672	18	3770
2026-01-02 10:13:44.90	151.78	23.60	-28.8	-29.3	15.0	0.00e+00	0	43	0	287309824	18	3832
2026-01-02 10:13:45.91	151.75	23.75	-28.9	-29.6	14.9	0.00e+00	0	43	0	289406976	18	3914
2026-01-02 10:13:46.92	151.72	23.90	-28.7	-29.1	15.2	0.00e+00	0	43	0	290455552	18	3789
2026-01-02 10:13:47.92	151.70	24.06	-28.6	-28.9	15.3	0.00e+00	0	43	0	292552704	18	3717
2026-01-02 10:13:48.93	151.67	24.21	-28.7	-29.2	15.2	0.00e+00	0	43	0	294649856	18	3800
2026-01-02 10:13:49.93	151.65	24.37	-28.8	-29.4	15.1	0.00e+00	0	43	0	296747008	18	3846
2026-01-02 10:13:50.93	151.62	24.52	-28.7	-29.1	15.2	7.00e-07	0	43	0	297795584	18	3781
2026-01-02 10:13:51.94	151.59	24.68	-28.6	-28.9	15.3	0.00e+00	0	43	0	299892736	18	3736
2026-01-02 10:13:52.94	151.56	24.84	-28.8	-29.3	15.1	0.00e+00	0	43	0	301989888	18	3839
2026-01-02 10:13:53.95	151.54	25.00	-28.8	-29.4	15.0	0.00e+00	0	43	0	304087040	18	3866
2026-01-02 10:13:54.95	151.51	25.16	-28.9	-29.7	14.9	0.00e+00	0	43	0	306184192	18	3943
2026-01-02 10:13:55.95	151.48	25.32	-29.0	-29.9	14.8	7.00e-07	0	43	0	307232768	18	3974
2026-01-02 10:13:56.96	151.45	25.48	-29.0	-30.0	14.7	7.00e-07	0	43	0	309329920	18	4022
2026-01-02 10:13:57.96	151.42	25.65	-29.0	-29.8	14.9	0.00e+00	0	43	0	311427072	18	3965
2026-01-02 10:13:58.95	151.39	25.81	-28.8	-29.5	15.1	0.00e+00	0	43	0	313524224	18	3868
2026-01-02 10:13:59.96	151.36	25.98	-28.6	-28.9	15.4	0.00e+00	0	43	0	315621376	18	3718
2026-01-02 10:14:00.96	151.33	26.14	-28.6	-29.0	15.3	1.50e-06	0	43	0	316669952	18	3747
2026-01-02 10:14:01.97	151.30	26.31	-28.8	-29.5	15.0	0.00e+00	0	43	0	318767104	18	3870
2026-01-02 10:14:02.97	151.27	26.48	-28.9	-29.6	15.0	0.00e+00	0	43	0	320864256	18	3896
2026-01-02 10:14:03.98	151.24	26.65	-29.2	-30.3	14.6	7.00e-07	0	43	0	322961408	18	4098
2026-01-02 10:14:04.98	151.21	26.82	-29.3	-30.7	14.3	7.00e-07	0	43	0	325058560	18	4212
2026-01-02 10:14:05.99	151.17	26.99	-29.4	-30.8	14.3	7.00e-07	0	43	0	326107136	18	4250
2026-01-02 10:14:06.99	151.14	27.16	-29.3	-30.2	14.3	2.20e-06	0	43	0	328204288	19	3984
2026-01-02 10:14:07.99	151.11	27.33	-29.3	-30.2	14.3	1.50e-06	0	43	0	330301440	19	3976
2026-01-02 10:14:09.00	151.08	27.51	-29.7	-31.2	13.7	1.50e-06	0	43	0	332398592	19	4276
2026-01-02 10:14:10.00	151.04	27.69	-29.5	-30.7	14.1	7.60e-06	0	43	0	334495744	19	4111
2026-01-02 10:14:11.00	151.01	27.86	-29.7	-31.1	13.8	3.80e-06	0	43	0	335544320	19	4245
2026-01-02 10:14:12.00	150.97	28.04	-30.0	-31.6	13.1	1.14e-05	0	43	0	337641472	20	4300
2026-01-02 10:14:13.01	150.94	28.22	-29.8	-30.8	13.5	2.05e-05	0	43	0	339738624	20	4071
2026-01-02 10:14:14.02	150.90	28.40	-29.4	-29.8	14.2	3.00e-06	0	43	0	341835776	20	3792
2026-01-02 10:14:15.02	150.87	28.58	-29.4	-30.0	14.2	7.00e-07	0	43	0	343932928	20	3825
2026-01-02 10:14:16.03	150.83	28.77	-29.3	-29.7	14.3	3.00e-06	0	43	0	344981504	20	3760
2026-01-02 10:14:17.03	150.80	28.95	-29.7	-31.2	13.8	2.20e-06	0	43	0	347078656	19	4275
2026-01-02 10:14:18.04	150.76	29.14	-29.7	-31.2	13.8	1.50e-06	0	43	0	349175808	19	4254
2026-01-02 10:14:19.04	150.72	29.32	-29.8	-31.4	13.7	3.80e-06	0	43	0	351272960	19	4327
2026-01-02 10:14:20.05	150.68	29.51	-30.2	-32.0	12.9	4.11e-05	0	43	0	353370112	20	4420
2026-01-02 10:14:21.05	150.64	29.70	-30.3	-32.2	12.7	9.23e-05	0	43	0	354418688	20	4512
2026-01-02 10:14:22.06	150.61	29.89	-30.6	-32.6	12.1	7.78e-05	0	43	0	356515840	21	4552
2026-01-02 10:14:23.06	150.57	30.08	-30.7	-33.0	11.9	2.97e-04	0	43	0	358612992	21	4689
2026-01-02 10:14:24.06	150.53	30.27	-30.5	-32.5	12.2	4.07e-04	0	43	0	360710144	21	4503
2026-01-02 10:14:25.06	150.49	30.46	-30.7	-32.9	11.9	4.42e-04	0	43	0	362807296	21	4651
2026-01-02 10:14:26.05	150.45	30.66	-30.7	-33.1	11.8	2.68e-04	0	43	0	363855872	21	4728
2026-01-02 10:14:27.05	150.40	30.85	-30.7	-32.9	12.0	2.00e-04	0	43	0	365953024	21	4649
2026-01-02 10:14:28.05	150.36	31.05	-30.8	-33.1	11.8	5.40e-04	0	43	0	368050176	21	4729
2026-01-02 10:14:29.05	150.32	31.25	-30.5	-32.4	12.3	3.99e-04	0	43	0	370147328	21	4475
2026-01-02 10:14:30.05	150.28	31.45	-30.5	-32.4	12.3	2.73e-04	0	43	0	371195904	21	4487
2026-01-02 10:14:31.05	150.23	31.65	-30.7	-33.0	12.0	3.26e-04	0	43	0	373293056	21	4674
2026-01-02 10:14:32.05	150.19	31.85	-30.9	-33.5	11.6	4.89e-04	0	43	0	375390208	21	4859
2026-01-02 10:14:33.06	150.14	32.06	-31.1	-33.6	11.1	1.98e-03	0	43	0	377487360	22	4802
2026-01-02 10:14:34.07	150.10	32.26	-31.3	-34.4	10.6	3.37e-03	0	43	0	379584512	22	5124
2026-01-02 10:14:35.07	150.05	32.47	-31.3	-34.4	10.7	1.98e-03	0	43	0	380633088	22	5112
2026-01-02 10:14:36.08	150.00	32.68	-31.3	-34.4	10.6	2.00e-03	0	43	0	382730240	22	5112
2026-01-02 10:14:37.09	149.96	32.89	-31.0	-33.4	11.4	1.37e-03	0	43	0	384827392	22	4726
2026-01-02 10:14:38.08	149.91	33.10	-31.0	-33.3	11.4	8.23e-04	0	43	0	386924544	22	4680
2026-01-02 10:14:39.09	149.86	33.32	-31.0	-33.3	11.4	5.55e-04	0	43	0	389021696	22	4698
2026-01-02 10:14:40.09	149.81	33.53	-30.9	-33.0	11.6	7.69e-04	0	44	0	390070272	22	4586
2026-01-02 10:14:41.09	149.76	33.74	-31.1	-33.6	11.2	1.08e-03	0	43	0	392167424	22	4805
2026-01-02 10:14:42.09	149.71	33.96	-31.2	-34.0	11.0	2.23e-03	0	43	0	394264576	22	4941
2026-01-02 10:14:43.09	149.66	34.18	-31.5	-34.8	10.3	2.82e-03	0	43	0	396361728	22	5309
2026-01-02 10:14:44.10	149.61	34.40	-31.7	-35.2	9.7	6.61e-03	0	43	0	398458880	23	5368
2026-01-02 10:14:45.10	149.55	34.62	-31.5	-34.5	10.2	6.21e-03	0	43	0	399507456	23	5077
2026-01-02 10:14:46.10	149.50	34.84	-31.3	-33.7	10.7	5.32e-03	0	43	0	401604608	23	4776
2026-01-02 10:14:47.10	149.44	35.07	-31.2	-33.5	10.9	3.22e-03	0	43	0	403701760	23	4670
2026-01-02 10:14:48.10	149.39	35.30	-30.9	-32.6	11.5	1.57e-03	0	43	0	405798912	23	4373
2026-01-02 10:14:49.10	149.33	35.52	-30.4	-31.5	12.7	3.49e-04	0	43	0	407896064	22	4090
2026-01-02 10:14:50.11	149.28	35.75	-30.1	-31.2	13.2	8.23e-05	0	43	0	408944640	21	4088
2026-01-02 10:14:51.12	149.22	35.99	-30.1	-31.2	13.2	4.57e-05	0	43	0	411041792	21	4098
2026-01-02 10:14:52.13	149.16	36.22	-30.1	-31.2	13.2	3.89e-05	0	43	0	413138944	21	4099
2026-01-02 10:14:53.13	149.10	36.46	-30.3	-31.9	12.7	2.74e-05	0	43	0	415236096	21	4292
2026-01-02 10:14:54.13	149.04	36.69	-30.5	-32.4	12.4	7.40e-05	0	43	0	416284672	21	4464
2026-01-02 10:14:55.14	148.98	36.93	-30.3	-31.8	12.9	3.58e-05	0	43	0	418381824	21	4253
2026-01-02 10:14:56.14	148.91	37.17	-30.4	-32.0	12.7	2.28e-05	0	43	0	420478976	21	4318
2026-01-02 10:14:57.14	148.85	37.41	-29.9	-30.5	13.7	1.44e-05	0	43	0	422576128	21	3879
2026-01-02 10:14:58.14	148.79	37.65	-29.6	-30.5	14.0	2.20e-06	0	43	0	424673280	20	3956
2026-01-02 10:14:59.14	148.72	37.90	-29.5	-30.1	14.3	6.10e-06	0	43	0	425721856	20	3843
2026-01-02 10:15:00.14	148.65	38.14	-29.3	-30.1	14.7	7.00e-07	0	43	0	427819008	19	3939
2026-01-02 10:15:01.15	148.59	38.39	-29.5	-30.5	14.3	1.50e-06	0	43	0	429916160	19	4042
2026-01-02 10:15:02.15	148.52	38.64	-29.7	-31.1	14.0	2.20e-06	0	43	0	432013312	19	4237
2026-01-02 10:15:03.16	148.45	38.90	-29.9	-31.6	13.7	5.30e-06	0	43	0	434110464	19	4379
2026-01-02 10:15:04.16	148.38	39.15	-30.1	-31.6	13.3	5.30e-06	0	43	0	435159040	20	4303
2026-01-02 10:15:05.17	148.30	39.41	-30.2	-31.8	13.2	2.05e-05	0	43	0	437256192	20	4366
2026-01-02 10:15:06.18	148.23	39.67	-30.3	-32.2	12.9	6.25e-05	0	43	0	439353344	20	4499
2026-01-02 10:15:07.18	148.16	39.93	-30.4	-32.1	12.7	5.95e-05	0	43	0	441450496	21	4357
2026-01-02 10:15:08.18	148.08	40.19	-30.8	-33.2	12.0	4.23e-04	0	43	0	443547648	21	4734
2026-01-02 10:15:09.19	148.00	40.45	-30.8	-32.7	11.9	4.82e-04	0	43	0	444596224	22	4456
2026-01-02 10:15:10.20	147.92	40.72	-31.0	-33.4	11.5	3.19e-04	0	43	0	446693376	22	4711
2026-01-02 10:15:11.20	147.84	40.99	-31.2	-33.8	11.2	1.06e-03	0	43	0	448790528	22	4855
2026-01-02 10:15:12.20	147.76	41.25	-30.8	-32.5	12.2	1.47e-03	0	43	0	450887680	22	4409
2026-01-02 10:15:13.21	147.68	41.53	-31.2	-33.9	11.2	9.15e-04	0	43	0	452984832	22	4887
2026-01-02 10:15:14.21	147.60	41.80	-31.4	-34.4	10.7	3.11e-03	0	43	0	454033408	22	5092
2026-01-02 10:15:15.21	147.51	42.07	-31.4	-33.9	10.8	1.60e-03	0	43	0	456130560	23	4825
2026-01-02 10:15:16.22	147.42	42.35	-31.3	-33.8	10.8	1.90e-03	0	43	0	458227712	23	4783
2026-01-02 10:15:17.22	147.33	42.63	-31.6	-34.6	10.3	2.37e-03	0	43	0	460324864	23	5115
2026-01-02 10:15:18.22	147.24	42.91	-31.6	-34.9	10.0	6.56e-03	0	43	0	462422016	23	5220
2026-01-02 10:15:19.22	147.15	43.19	-31.8	-35.3	9.8	5.64e-03	0	43	0	463470592	23	5422
2026-01-02 10:15:20.23	147.06	43.48	-31.8	-35.0	9.6	1.39e-02	0	43	0	465567744	24	5216
2026-01-02 10:15:21.23	146.96	43.76	-31.6	-34.1	10.2	1.19e-02	0	43	0	467664896	24	4814
2026-01-02 10:15:22.24	146.87	44.06	-31.6	-34.1	10.3	1.30e-02	0	43	0	469762048	24	4819
2026-01-02 10:15:23.24	146.77	44.35	-31.9	-35.3	9.4	1.09e-02	0	43	0	471859200	24	5297
2026-01-02 10:15:24.25	146.66	44.64	-31.7	-34.3	10.1	7.03e-03	0	43	0	472907776	24	4899
2026-01-02 10:15:25.25	146.56	44.94	-31.5	-33.7	10.7	3.52e-03	0	43	0	475004928	24	4645
2026-01-02 10:15:26.25	146.46	45.23	-31.4	-33.5	10.7	3.92e-03	0	43	0	477102080	24	4579
2026-01-02 10:15:27.25	146.35	45.53	-31.0	-32.7	11.7	2.32e-03	0	43	0	479199232	23	4376
2026-01-02 10:15:28.26	146.24	45.83	-30.7	-32.1	12.4	2.46e-04	0	43	0	481296384	22	4266
2026-01-02 10:15:29.26	146.13	46.14	-30.5	-32.1	12.8	6.56e-05	0	43	0	482344960	21	4342
2026-01-02 10:15:30.27	146.02	46.44	-30.5	-32.2	12.7	3.20e-05	0	43	0	484442112	21	4380
2026-01-02 10:15:31.27	145.90	46.75	-30.5	-32.2	12.7	1.06e-04	0	43	0	486539264	21	4379
2026-01-02 10:15:32.27	145.78	47.06	-30.7	-32.7	12.3	1.20e-04	0	43	0	488636416	21	4552
2026-01-02 10:15:33.27	145.66	47.37	-31.2	-33.7	11.4	7.42e-04	0	43	0	489684992	22	4795
2026-01-02 10:15:34.27	145.54	47.68	-31.1	-33.4	11.5	8.69e-04	0	43	0	491782144	22	4718
2026-01-02 10:15:35.27	145.42	48.00	-30.9	-32.9	11.9	6.30e-04	0	43	0	493879296	22	4526
2026-01-02 10:15:36.28	145.29	48.32	-30.9	-32.7	12.1	6.62e-04	0	43	0	495976448	22	4468
2026-01-02 10:15:37.27	145.16	48.64	-30.5	-31.8	12.7	1.97e-04	0	43	0	498073600	22	4152
2026-01-02 10:15:38.28	145.02	48.96	-30.2	-31.3	13.4	3.20e-05	0	43	0	499122176	21	4082
2026-01-02 10:15:39.28	144.89	49.29	-29.8	-30.9	13.9	3.80e-06	0	43	0	501219328	20	4068
2026-01-02 10:15:40.28	144.75	49.61	-30.0	-31.3	13.7	1.50e-06	0	43	0	503316480	20	4178
2026-01-02 10:15:41.29	144.60	49.95	-29.9	-31.0	13.8	5.30e-06	0	43	0	505413632	20	4093
2026-01-02 10:15:42.30	144.46	50.28	-29.7	-30.6	14.1	8.30e-06	0	43	0	507510784	20	3973
2026-01-02 10:15:43.30	144.31	50.61	-29.3	-29.6	14.7	1.50e-06	0	43	0	508559360	20	3708
2026-01-02 10:15:44.31	144.15	50.95	-29.2	-29.7	15.0	7.00e-07	0	43	0	510656512	19	3806
2026-01-02 10:15:45.31	144.00	51.29	-29.1	-29.5	15.1	0.00e+00	0	43	0	512753664	19	3776
2026-01-02 10:15:46.31	143.84	51.63	-29.1	-29.4	15.2	0.00e+00	0	43	0	514850816	19	3733
2026-01-02 10:15:47.31	143.67	51.97	-28.9	-28.9	15.5	0.00e+00	0	43	0	516947968	19	3625
2026-01-02 10:15:48.31	143.51	52.32	-29.0	-29.2	15.4	0.00e+00	0	43	0	517996544	19	3686
2026-01-02 10:15:49.31	143.34	52.66	-28.9	-29.5	15.4	0.00e+00	0	43	0	520093696	18	3863
2026-01-02 10:15:50.31	143.16	53.01	-29.4	-30.8	14.7	0.00e+00	0	43	0	522190848	18	4205
2026-01-02 10:15:51.31	142.98	53.36	-29.4	-30.8	14.7	0.00e+00	0	43	0	524288000	18	4212
2026-01-02 10:15:52.32	142.79	53.72	-29.1	-30.0	15.2	0.00e+00	0	43	0	526385152	18	3979
2026-01-02 10:15:53.32	142.61	54.07	-28.8	-29.2	15.7	0.00e+00	0	43	0	527433728	18	3781
2026-01-02 10:15:54.32	142.41	54.43	-29.1	-30.0	15.4	7.00e-07	0	43	0	529530880	18	3979
2026-01-02 10:15:55.33	142.21	54.79	-28.7	-29.0	15.8	0.00e+00	0	43	0	531628032	18	3710
2026-01-02 10:15:56.33	142.01	55.15	-29.0	-29.8	15.2	0.00e+00	0	43	0	533725184	18	3937
2026-01-02 10:15:57.33	141.80	55.52	-29.2	-30.4	14.9	1.50e-06	0	43	0	534773760	18	4094
2026-01-02 10:15:58.33	141.58	55.88	-29.5	-30.6	14.6	0.00e+00	0	43	0	536870912	19	4070
2026-01-02 10:15:59.34	141.36	56.25	-29.3	-30.1	14.9	7.00e-07	0	43	0	538968064	19	3923
2026-01-02 10:16:00.34	141.13	56.62	-29.3	-30.0	14.9	1.50e-06	0	43	0	541065216	19	3883
2026-01-02 10:16:01.34	140.90	56.99	-29.4	-30.2	14.8	0.00e+00	0	43	0	543162368	19	3946
2026-01-02 10:16:02.35	140.66	57.37	-29.5	-30.5	14.5	1.50e-06	0	43	0	544210944	19	4043
2026-01-02 10:16:03.35	140.41	57.74	-29.9	-31.1	13.8	3.80e-06	0	43	0	546308096	20	4113
2026-01-02 10:16:04.35	140.16	58.12	-30.1	-31.5	13.6	6.10e-06	0	43	0	548405248	20	4238
2026-01-02 10:16:05.36	139.90	58.50	-30.1	-31.6	13.5	5.30e-06	0	43	0	550502400	20	4268
2026-01-02 10:16:06.36	139.63	58.89	-29.9	-30.9	14.0	4.50e-06	0	43	0	552599552	20	4071
2026-01-02 10:16:07.36	139.35	59.27	-29.8	-30.7	14.1	6.10e-06	0	43	0	553648128	20	3997
2026-01-02 10:16:08.36	139.07	59.65	-29.4	-29.7	14.7	0.00e+00	0	43	0	555745280	20	3725
2026-01-02 10:16:09.37	138.77	60.04	-29.2	-29.6	15.2	7.00e-07	0	43	0	557842432	19	3789
2026-01-02 10:16:10.37	138.47	60.43	-29.0	-29.1	15.4	0.00e+00	0	43	0	559939584	19	3649
2026-01-02 10:16:11.38	138.15	60.82	-29.2	-29.7	15.1	0.00e+00	0	43	0	562036736	19	3801
2026-01-02 10:16:12.38	137.83	61.22	-29.4	-30.2	14.9	0.00e+00	0	43	0	563085312	19	3938
2026-01-02 10:16:13.38	137.50	61.61	-29.6	-30.8	14.4	0.00e+00	0	43	0	565182464	19	4127
2026-01-02 10:16:14.39	137.15	62.01	-29.6	-30.7	14.5	1.50e-06	0	43	0	567279616	19	4079
2026-01-02 10:16:15.39	136.80	62.40	-29.5	-30.5	14.6	0.00e+00	0	43	0	569376768	19	4037
2026-01-02 10:16:16.39	136.43	62.80	-30.1	-31.5	13.7	3.80e-06	0	43	0	571473920	20	4230
2026-01-02 10:16:17.39	136.05	63.20	-30.3	-32.0	13.3	3.00e-06	0	43	0	572522496	20	4408
2026-01-02 10:16:18.40	135.66	63.60	-30.6	-32.3	12.9	4.04e-05	0	43	0	574619648	21	4397
2026-01-02 10:16:19.40	135.25	64.00	-29.8	-30.2	14.1	3.00e-06	0	43	0	576716800	21	3766
2026-01-02 10:16:20.41	134.83	64.40	-29.7	-30.4	14.5	7.00e-07	0	43	0	578813952	20	3903
2026-01-02 10:16:21.41	134.39	64.81	-29.5	-30.4	14.7	3.00e-06	0	43	0	580911104	19	4005
2026-01-02 10:16:22.42	133.94	65.21	-29.1	-29.4	15.3	0.00e+00	0	43	0	581959680	19	3723
2026-01-02 10:16:23.42	133.47	65.62	-29.0	-29.8	15.4	0.00e+00	0	43	0	584056832	18	3909
2026-01-02 10:16:24.43	132.98	66.03	-29.3	-30.0	14.9	0.00e+00	0	43	0	586153984	19	3880
2026-01-02 10:16:25.44	132.47	66.43	-29.6	-30.6	14.6	7.00e-07	0	43	0	588251136	19	4049
2026-01-02 10:16:26.44	131.95	66.84	-29.9	-30.9	14.1	3.00e-06	0	43	0	590348288	20	4056
2026-01-02 10:16:27.44	131.40	67.24	-29.5	-29.8	14.7	7.00e-07	0	43	0	591396864	20	3758
2026-01-02 10:16:28.45	130.83	67.65	-29.4	-30.3	14.8	0.00e+00	0	43	0	593494016	19	3959
2026-01-02 10:16:29.45	130.24	68.06	-29.8	-31.1	14.4	0.00e+00	0	43	0	595591168	19	4202
2026-01-02 10:16:30.46	129.62	68.46	-29.7	-30.9	14.4	7.00e-07	0	43	0	597688320	19	4133
2026-01-02 10:16:31.46	128.98	68.87	-29.7	-30.8	14.5	0.00e+00	0	43	0	599785472	19	4109
2026-01-02 10:16:32.47	128.31	69.27	-30.3	-32.0	13.3	4.50e-06	0	43	0	600834048	20	4406
2026-01-02 10:16:33.47	127.61	69.68	-30.8	-32.9	12.3	4.19e-05	0	43	0	602931200	21	4608
2026-01-02 10:16:34.47	126.89	70.08	-30.7	-32.5	12.6	1.91e-04	0	43	0	605028352	21	4470
2026-01-02 10:16:35.48	126.12	70.48	-30.2	-31.2	13.4	2.05e-05	0	43	0	607125504	21	4051
2026-01-02 10:16:36.48	125.33	70.88	-29.7	-30.4	14.3	3.00e-06	0	43	0	608174080	20	3914
2026-01-02 10:16:37.48	124.50	71.27	-29.5	-29.8	14.8	0.00e+00	0	43	0	610271232	20	3765
2026-01-02 10:16:38.48	123.64	71.66	-29.6	-30.3	14.5	1.50e-06	0	43	0	612368384	20	3872
2026-01-02 10:16:39.48	122.73	72.05	-29.3	-29.8	15.1	0.00e+00	0	43	0	614465536	19	3832
2026-01-02 10:16:40.47	121.80	72.44	-29.6	-30.7	14.5	0.00e+00	0	43	0	616562688	19	4081
2026-01-02 10:16:41.47	120.80	72.82	-30.0	-31.3	13.9	7.00e-07	0	43	0	617611264	20	4162
2026-01-02 10:16:42.47	119.76	73.20	-30.2	-31.8	13.6	1.29e-05	0	43	0	619708416	20	4321
2026-01-02 10:16:43.48	118.66	73.58	-30.5	-32.0	13.1	2.28e-05	0	43	0	621805568	21	4295
2026-01-02 10:16:44.47	117.53	73.95	-30.3	-31.5	13.4	3.73e-05	0	43	0	623902720	21	4130
2026-01-02 10:16:45.47	116.33	74.31	-29.7	-30.5	14.3	6.10e-06	0	43	0	625999872	20	3922
2026-01-02 10:16:46.47	115.07	74.67	-29.0	-29.2	15.5	0.00e+00	0	43	0	627048448	19	3661
2026-01-02 10:16:47.48	113.74	75.03	-29.6	-30.5	14.8	0.00e+00	0	44	0	629145600	19	4024
2026-01-02 10:16:48.48	112.35	75.37	-30.1	-31.5	13.7	1.50e-06	0	43	0	631242752	20	4237
2026-01-02 10:16:49.48	110.90	75.71	-30.5	-32.1	13.0	3.28e-05	0	43	0	633339904	21	4309
2026-01-02 10:16:50.48	109.37	76.04	-30.3	-31.5	13.4	3.58e-05	0	44	0	635437056	21	4120
2026-01-02 10:16:51.48	107.76	76.36	-30.0	-30.7	13.9	5.30e-06	0	43	0	636485632	21	3892
2026-01-02 10:16:52.49	106.06	76.67	-30.4	-31.8	13.0	2.89e-05	0	43	0	638582784	21	4232
2026-01-02 10:16:53.49	104.30	76.97	-30.5	-32.2	12.9	4.34e-05	0	44	0	640679936	21	4343
2026-01-02 10:16:54.50	102.43	77.26	-31.3	-33.9	11.5	2.10e-04	0	43	0	642777088	22	4865
2026-01-02 10:16:55.50	100.50	77.53	-31.7	-34.8	10.6	1.34e-03	0	43	0	644874240	23	5102
2026-01-02 10:16:56.51	98.46	77.79	-31.7	-34.8	10.6	3.65e-03	0	43	0	645922816	23	5106
2026-01-02 10:16:57.51	96.35	78.03	-32.1	-35.4	9.8	5.26e-03	0	43	0	648019968	24	5272
2026-01-02 10:16:58.50	94.18	78.26	-32.8	-38.2	7.1	3.56e-02	0	43	0	650117120	25	6647
2026-01-02 10:16:59.51	91.88	78.47	-32.9	-38.3	7.1	1.60e-01	0	43	0	652214272	25	6736
2026-01-02 10:17:00.52	89.49	78.66	-33.0	-38.3	6.7	1.96e-01	0	44	0	653262848	26	6618
2026-01-02 10:17:01.52	87.05	78.84	-33.1	-39.2	6.0	2.61e-01	0	44	0	655360000	26	7268
2026-01-02 10:17:02.52	84.53	78.99	-32.7	-36.7	7.8	2.21e-01	0	43	0	657457152	26	5754
2026-01-02 10:17:03.52	81.95	79.12	-32.2	-35.4	9.2	3.19e-02	0	43	0	659554304	25	5189
2026-01-02 10:17:04.53	79.28	79.23	-32.3	-35.6	9.2	9.19e-03	0	44	0	661651456	25	5301
2026-01-02 10:17:05.54	76.57	79.31	-32.3	-35.9	8.9	2.80e-02	0	43	0	663748608	25	5426
2026-01-02 10:17:06.54	73.84	79.38	-32.5	-36.3	8.4	3.11e-02	0	43	0	664797184	25	5639
2026-01-02 10:17:07.53	71.11	79.41	-32.0	-34.5	9.9	1.13e-02	0	43	0	666894336	25	4818
2026-01-02 10:17:08.53	68.34	79.43	-32.3	-36.2	9.2	8.29e-03	0	44	0	668991488	24	5683
2026-01-02 10:17:09.54	65.55	79.42	-32.8	-38.1	7.2	4.83e-02	0	43	0	671088640	25	6612
2026-01-02 10:17:10.54	62.79	79.38	-31.8	-33.9	10.4	3.21e-02	0	43	0	672137216	25	4573
2026-01-02 10:17:11.55	60.03	79.32	-30.9	-32.3	12.4	7.39e-04	0	43	0	674234368	23	4186
2026-01-02 10:17:12.55	57.34	79.24	-31.0	-32.9	12.2	1.52e-04	0	43	0	676331520	22	4475
2026-01-02 10:17:13.55	54.69	79.13	-31.2	-33.5	11.8	4.43e-04	0	43	0	678428672	22	4688
2026-01-02 10:17:14.56	52.08	79.00	-30.7	-32.0	12.9	2.17e-04	0	43	0	680525824	22	4187
2026-01-02 10:17:15.57	49.53	78.85	-31.3	-33.8	11.6	5.64e-05	0	43	0	681574400	22	4813
2026-01-02 10:17:16.57	47.08	78.68	-31.6	-34.3	10.9	2.75e-03	0	44	0	683671552	23	4918
2026-01-02 10:17:17.56	44.73	78.49	-31.1	-32.6	12.1	5.90e-04	0	43	0	685768704	23	4298
2026-01-02 10:17:18.57	42.42	78.28	-31.9	-35.3	10.1	5.34e-04	0	43	0	687865856	23	5325
2026-01-02 10:17:19.56	40.24	78.06	-32.4	-36.6	8.7	3.77e-02	0	43	0	689963008	24	5865
2026-01-02 10:17:20.57	38.11	77.82	-32.3	-35.9	9.0	2.57e-02	0	43	0	691011584	25	5441
2026-01-02 10:17:21.58	36.06	77.56	-32.3	-35.8	9.0	2.41e-02	0	43	0	693108736	25	5403
2026-01-02 10:17:22.58	34.12	77.29	-32.3	-35.8	8.9	3.61e-02	0	44	0	695205888	25	5382
2026-01-02 10:17:23.58	32.26	77.00	-32.8	-37.9	7.3	1.05e-01	0	44	0	697303040	25	6506
2026-01-02 10:17:24.58	30.49	76.71	-33.0	-38.6	6.5	2.68e-01	0	44	0	698351616	26	6815
2026-01-02 10:17:25.58	28.80	76.40	-33.2	-39.7	5.7	3.22e-01	0	43	0	700448768	26	7575
2026-01-02 10:17:26.57	27.20	76.08	-33.3	-40.4	5.2	5.24e-01	0	44	0	702545920	26	8202
2026-01-02 10:17:27.58	25.65	75.75	-33.2	-39.4	5.9	5.47e-01	0	43	0	704643072	26	7353
2026-01-02 10:17:28.58	24.19	75.42	-32.7	-37.1	7.6	1.35e-01	0	43	0	706740224	26	5952
2026-01-02 10:17:29.58	22.79	75.07	-33.0	-38.5	6.6	1.11e-01	0	43	0	707788800	26	6769
2026-01-02 10:17:30.58	21.46	74.72	-32.8	-37.4	7.2	1.47e-01	0	44	0	709885952	26	6135
2026-01-02 10:17:31.59	20.18	74.36	-32.1	-34.9	9.6	4.02e-02	0	43	0	711983104	25	5003
2026-01-02 10:17:32.60	18.97	73.99	-31.7	-34.2	10.4	8.92e-03	0	44	0	714080256	24	4811
2026-01-02 10:17:33.60	17.82	73.62	-31.0	-32.5	12.0	7.33e-04	0	43	0	716177408	23	4283
2026-01-02 10:17:34.60	16.72	73.25	-29.8	-30.3	14.1	4.57e-05	0	44	0	717225984	21	3786
2026-01-02 10:17:35.60	15.68	72.87	-28.8	-28.7	15.7	0.00e+00	0	44	0	719323136	19	3545
2026-01-02 10:17:36.61	14.67	72.48	-29.1	-30.0	15.3	7.00e-07	0	43	0	721420288	18	3966
2026-01-02 10:17:37.61	13.72	72.10	-30.0	-31.1	13.9	7.00e-07	0	43	0	723517440	20	4122
2026-01-02 10:17:38.61	12.81	71.71	-30.3	-32.1	13.3	1.37e-05	0	43	0	725614592	20	4405
2026-01-02 10:17:39.61	11.95	71.32	-30.2	-31.7	13.4	9.90e-06	0	44	0	726663168	20	4302
2026-01-02 10:17:40.62	11.11	70.92	-29.7	-30.4	14.3	2.20e-06	0	43	0	728760320	20	3911
2026-01-02 10:17:41.62	10.31	70.52	-29.6	-30.7	14.5	0.00e+00	0	44	0	730857472	19	4064
2026-01-02 10:17:42.63	9.55	70.12	-30.8	-32.8	12.4	4.50e-06	0	44	0	732954624	21	4572
2026-01-02 10:17:43.63	8.82	69.72	-30.6	-32.0	12.8	8.23e-05	0	44	0	735051776	22	4209
2026-01-02 10:17:44.63	8.12	69.32	-30.4	-31.7	13.2	1.67e-05	0	44	0	736100352	21	4198
2026-01-02 10:17:45.63	7.45	68.92	-30.7	-32.6	12.7	1.51e-04	0	43	0	738197504	21	4485
2026-01-02 10:17:46.63	6.81	68.52	-31.3	-34.1	11.4	2.84e-04	0	43	0	740294656	22	4952
2026-01-02 10:17:47.64	6.19	68.11	-31.6	-34.5	10.5	3.63e-03	0	43	0	742391808	23	5023
2026-01-02 10:17:48.63	5.60	67.71	-31.0	-32.6	11.8	1.90e-03	0	43	0	743440384	23	4334
2026-01-02 10:17:49.64	5.03	67.30	-30.0	-30.8	13.7	8.54e-05	0	43	0	745537536	21	3950
2026-01-02 10:17:50.64	4.48	66.90	-29.4	-30.2	14.8	0.00e+00	0	44	0	747634688	19	3935
2026-01-02 10:17:51.64	3.96	66.49	-30.1	-31.4	13.7	1.50e-06	0	43	0	749731840	20	4218
2026-01-02 10:17:52.64	3.45	66.09	-30.1	-31.7	13.6	2.20e-06	0	43	0	751828992	20	4293
2026-01-02 10:17:53.65	2.96	65.68	-30.2	-31.8	13.4	2.59e-05	0	43	0	753926144	20	4346
2026-01-02 10:17:54.65	2.49	65.28	-30.3	-31.7	13.2	3.43e-05	0	44	0	754974720	21	4213
2026-01-02 10:17:55.66	2.03	64.88	-30.1	-31.0	13.5	5.41e-05	0	44	0	757071872	21	4004
2026-01-02 10:17:56.66	1.60	64.47	-29.5	-30.0	14.6	2.20e-06	0	43	0	759169024	20	3802
2026-01-02 10:17:57.67	1.17	64.07	-29.8	-30.7	14.1	2.20e-06	0	43	0	761266176	20	4007
2026-01-02 10:17:58.67	0.76	63.67	-30.7	-32.7	12.5	5.87e-05	0	43	0	762314752	21	4559
2026-01-02 10:17:59.67	0.37	63.27	-30.4	-31.9	12.9	1.37e-04	0	44	0	764411904	21	4281
2026-01-02 10:18:00.67	359.99	62.88	-30.5	-32.3	12.6	2.36e-05	0	44	0	766509056	21	4408
2026-01-02 10:18:01.68	359.62	62.48	-30.8	-33.0	12.1	1.69e-04	0	44	0	768606208	21	4648
2026-01-02 10:18:02.68	359.26	62.08	-29.9	-30.5	13.8	1.75e-05	0	44	0	770703360	21	3873
2026-01-02 10:18:03.68	358.92	61.69	-29.5	-30.1	14.5	7.00e-07	0	44	0	771751936	20	3830
2026-01-02 10:18:04.69	358.58	61.29	-30.0	-31.4	13.8	1.50e-06	0	43	0	773849088	20	4209
2026-01-02 10:18:05.70	358.26	60.90	-29.3	-29.5	14.8	3.80e-06	0	43	0	775946240	20	3688
2026-01-02 10:18:06.70	357.94	60.51	-29.2	-29.6	15.1	0.00e+00	0	43	0	778043392	19	3793
2026-01-02 10:18:07.70	357.64	60.12	-29.3	-29.9	15.0	7.00e-07	0	43	0	780140544	19	3869
2026-01-02 10:18:08.70	357.35	59.74	-29.7	-30.9	14.3	7.00e-07	0	43	0	781189120	19	4149
2026-01-02 10:18:09.70	357.06	59.35	-29.6	-30.8	14.4	7.00e-07	0	43	0	783286272	19	4119
2026-01-02 10:18:10.71	356.78	58.97	-31.1	-33.4	11.7	2.86e-04	0	43	0	785383424	22	4683
2026-01-02 10:18:11.70	356.52	58.59	-31.2	-33.8	11.3	9.63e-04	0	44	0	787480576	22	4857
2026-01-02 10:18:12.70	356.25	58.21	-30.1	-31.2	13.4	1.65e-04	0	43	0	789577728	21	4053
2026-01-02 10:18:13.70	356.00	57.84	-29.8	-30.9	14.0	3.80e-06	0	43	0	790626304	20	4050
2026-01-02 10:18:14.71	355.75	57.46	-30.1	-31.5	13.5	1.06e-05	0	44	0	792723456	20	4247
2026-01-02 10:18:15.71	355.51	57.09	-31.0	-33.5	11.8	5.64e-05	0	44	0	794820608	21	4827
2026-01-02 10:18:16.70	355.28	56.72	-31.1	-33.4	11.6	1.16e-03	0	44	0	796917760	22	4704
2026-01-02 10:18:17.71	355.05	56.35	-30.9	-32.8	12.1	3.89e-04	0	44	0	799014912	22	4484
2026-01-02 10:18:18.71	354.83	55.98	-30.7	-32.3	12.4	3.69e-04	0	43	0	800063488	22	4314
2026-01-02 10:18:19.72	354.61	55.61	-30.5	-31.8	12.7	2.83e-04	0	44	0	802160640	22	4165
2026-01-02 10:18:20.72	354.40	55.25	-29.5	-29.9	14.4	2.28e-05	0	43	0	804257792	20	3788
2026-01-02 10:18:21.72	354.20	54.89	-29.5	-30.4	14.7	7.00e-07	0	43	0	806354944	19	4002
2026-01-02 10:18:22.72	354.00	54.53	-29.9	-31.6	13.8	3.80e-06	0	44	0	807403520	19	4356
2026-01-02 10:18:23.72	353.81	54.17	-29.5	-29.9	14.4	3.00e-06	0	44	0	809500672	20	3788
2026-01-02 10:18:24.73	353.61	53.82	-29.1	-29.5	15.2	0.00e+00	0	43	0	811597824	19	3758
2026-01-02 10:18:25.72	353.43	53.47	-29.7	-31.0	14.4	0.00e+00	0	43	0	813694976	19	4166
2026-01-02 10:18:26.73	353.25	53.11	-30.2	-31.7	13.4	2.20e-06	0	44	0	815792128	20	4306
2026-01-02 10:18:27.72	353.08	52.77	-30.1	-31.5	13.5	2.21e-05	0	43	0	816840704	20	4239
2026-01-02 10:18:28.72	352.90	52.43	-29.5	-30.1	14.4	1.50e-06	0	44	0	818937856	20	3846
2026-01-02 10:18:29.72	352.74	52.08	-29.8	-30.8	14.0	3.00e-06	0	43	0	821035008	20	4029
2026-01-02 10:18:30.73	352.57	51.74	-31.0	-33.6	11.8	2.51e-05	0	43	0	823132160	21	4874
2026-01-02 10:18:31.73	352.41	51.40	-31.4	-33.8	10.9	4.36e-03	0	43	0	825229312	23	4766
2026-01-02 10:18:32.74	352.25	51.06	-31.1	-33.0	11.4	9.94e-04	0	43	0	826277888	23	4486
2026-01-02 10:18:33.75	352.10	50.72	-30.6	-32.0	12.6	4.76e-04	0	43	0	828375040	22	4212
2026-01-02 10:18:34.75	351.95	50.39	-30.3	-31.7	13.0	5.56e-05	0	43	0	830472192	21	4224
2026-01-02 10:18:35.75	351.80	50.06	-30.1	-31.2	13.4	1.98e-05	0	43	0	832569344	21	4058
2026-01-02 10:18:36.76	351.66	49.73	-30.4	-31.8	13.0	1.44e-05	0	43	0	834666496	21	4255
2026-01-02 10:18:37.75	351.52	49.40	-30.4	-31.9	12.8	9.38e-05	0	43	0	835715072	21	4282
2026-01-02 10:18:38.75	351.39	49.08	-30.9	-33.4	11.9	2.08e-04	0	44	0	837812224	21	4788
2026-01-02 10:18:39.75	351.25	48.76	-30.5	-31.8	12.6	4.90e-04	0	43	0	839909376	22	4149
2026-01-02 10:18:40.75	351.12	48.44	-31.5	-34.7	10.6	4.46e-04	0	44	0	842006528	22	5199
2026-01-02 10:18:41.76	350.99	48.12	-31.5	-34.4	10.4	6.26e-03	0	43	0	844103680	23	5011
2026-01-02 10:18:42.77	350.87	47.80	-31.1	-33.1	11.3	1.52e-03	0	43	0	845152256	23	4510
2026-01-02 10:18:43.77	350.74	47.49	-30.2	-31.3	13.2	1.94e-04	0	43	0	847249408	21	4112
2026-01-02 10:18:44.78	350.62	47.17	-30.2	-31.4	13.2	2.28e-05	0	44	0	849346560	21	4134
2026-01-02 10:18:45.78	350.50	46.87	-30.4	-32.1	12.7	6.94e-05	0	43	0	851443712	21	4353
2026-01-02 10:18:46.78	350.39	46.56	-31.1	-33.4	11.5	3.64e-04	0	43	0	852492288	22	4725
2026-01-02 10:18:47.79	350.27	46.25	-30.6	-31.9	12.5	1.56e-03	0	43	0	854589440	22	4200
2026-01-02 10:18:48.79	350.16	45.95	-29.8	-30.3	13.8	7.60e-06	0	43	0	856686592	21	3802
2026-01-02 10:18:49.79	350.06	45.65	-29.8	-30.7	14.0	2.20e-06	0	43	0	858783744	20	3998
2026-01-02 10:18:50.80	349.95	45.35	-30.2	-31.9	13.2	5.30e-06	0	43	0	860880896	20	4385
2026-01-02 10:18:51.80	349.84	45.05	-31.1	-33.6	11.4	4.34e-04	0	43	0	861929472	22	4778
2026-01-02 10:18:52.80	349.74	44.76	-31.8	-35.4	9.6	5.50e-03	0	43	0	864026624	23	5457
2026-01-02 10:18:53.80	349.64	44.47	-32.3	-36.3	8.1	6.04e-02	0	43	0	866123776	25	5730
2026-01-02 10:18:54.80	349.54	44.18	-32.5	-37.4	7.3	9.86e-02	0	44	0	868220928	25	6291
2026-01-02 10:18:55.80	349.44	43.89	-32.8	-38.8	6.3	2.31e-01	0	43	0	870318080	25	7171
2026-01-02 10:18:56.81	349.35	43.60	-33.0	-40.2	5.4	3.86e-01	0	43	0	871366656	25	8232
2026-01-02 10:18:57.81	349.26	43.32	-33.2	-40.9	4.8	8.76e-01	0	43	0	873463808	26	8767
2026-01-02 10:18:58.81	349.16	43.04	-32.3	-35.9	7.9	1.90e-01	0	43	0	875560960	26	5432
2026-01-02 10:18:59.82	349.07	42.76	-31.3	-33.3	10.7	1.71e-02	0	43	0	877658112	24	4494
2026-01-02 10:19:00.82	348.98	42.48	-30.7	-32.2	12.3	9.00e-04	0	43	0	879755264	22	4309
2026-01-02 10:19:01.82	348.90	42.20	-31.0	-33.2	11.6	5.60e-04	0	43	0	880803840	22	4648
2026-01-02 10:19:02.83	348.81	41.93	-30.8	-32.7	12.0	4.26e-04	0	43	0	882900992	22	4476
2026-01-02 10:19:03.83	348.73	41.66	-31.1	-33.7	11.2	5.45e-04	0	44	0	884998144	22	4815
2026-01-02 10:19:04.83	348.65	41.39	-31.3	-34.2	10.8	1.95e-03	0	43	0	887095296	22	5047
2026-01-02 10:19:05.83	348.56	41.12	-31.6	-34.7	10.1	3.95e-03	0	43	0	889192448	23	5145
2026-01-02 10:19:06.83	348.49	40.85	-31.9	-35.7	9.3	1.10e-02	0	44	0	890241024	23	5586
2026-01-02 10:19:07.84	348.41	40.59	-32.5	-37.7	7.5	3.29e-02	0	43	0	892338176	24	6562
2026-01-02 10:19:08.83	348.33	40.33	-32.5	-37.5	7.2	1.23e-01	0	43	0	894435328	25	6360
2026-01-02 10:19:09.83	348.25	40.07	-31.7	-34.6	9.7	2.78e-02	0	43	0	896532480	24	5027
2026-01-02 10:19:10.84	348.18	39.81	-31.1	-33.0	11.3	5.80e-03	0	44	0	898629632	23	4488
2026-01-02 10:19:11.85	348.11	39.55	-30.3	-31.8	12.8	6.79e-05	0	44	0	899678208	21	4274
2026-01-02 10:19:12.85	348.03	39.29	-30.1	-31.2	13.2	1.98e-05	0	44	0	901775360	21	4089
2026-01-02 10:19:13.85	347.96	39.04	-30.5	-32.2	12.6	2.44e-05	0	43	0	903872512	21	4405
2026-01-02 10:19:14.85	347.89	38.79	-30.7	-33.0	12.0	1.52e-04	0	43	0	905969664	21	4660
2026-01-02 10:19:15.85	347.83	38.54	-31.0	-33.4	11.4	6.23e-04	0	43	0	907018240	22	4708
2026-01-02 10:19:16.85	347.76	38.29	-31.7	-35.1	9.8	2.85e-03	0	43	0	909115392	23	5330
2026-01-02 10:19:17.86	347.69	38.05	-32.1	-36.1	8.7	2.68e-02	0	43	0	911212544	24	5688
2026-01-02 10:19:18.86	347.63	37.80	-32.2	-36.4	8.1	6.00e-02	0	44	0	913309696	24	5883
2026-01-02 10:19:19.86	347.56	37.56	-31.9	-35.3	9.2	5.21e-02	0	44	0	915406848	24	5316
2026-01-02 10:19:20.85	347.50	37.32	-31.8	-34.8	9.6	1.43e-02	0	44	0	916455424	24	5113
2026-01-02 10:19:21.85	347.44	37.08	-31.6	-34.1	10.1	1.05e-02	0	43	0	918552576	24	4815
2026-01-02 10:19:22.86	347.38	36.84	-31.4	-33.6	10.5	4.31e-03	0	44	0	920649728	24	4631
2026-01-02 10:19:23.86	347.32	36.61	-31.5	-33.8	10.4	5.10e-03	0	43	0	922746880	24	4698
2026-01-02 10:19:24.85	347.26	36.38	-31.8	-34.9	9.5	8.45e-03	0	43	0	924844032	24	5167
2026-01-02 10:19:25.85	347.20	36.14	-32.1	-36.3	8.5	3.01e-02	0	44	0	925892608	24	5812
2026-01-02 10:19:26.85	347.14	35.91	-32.1	-36.0	8.7	4.19e-02	0	44	0	927989760	24	5663
2026-01-02 10:19:27.85	347.08	35.69	-32.2	-36.6	8.2	3.48e-02	0	44	0	930086912	24	5986
2026-01-02 10:19:28.86	347.03	35.46	-31.8	-35.1	9.3	4.69e-02	0	43	0	932184064	24	5268
2026-01-02 10:19:29.85	346.97	35.23	-31.2	-33.4	10.8	4.68e-03	0	44	0	934281216	23	4642
2026-01-02 10:19:30.86	346.92	35.01	-30.8	-32.6	11.9	5.77e-04	0	44	0	935329792	22	4440
2026-01-02 10:19:31.87	346.86	34.78	-30.3	-31.8	12.9	7.78e-05	0	43	0	937426944	21	4256
2026-01-02 10:19:32.87	346.81	34.56	-30.0	-30.9	13.5	6.10e-06	0	43	0	939524096	21	3989
2026-01-02 10:19:33.88	346.76	34.34	-29.8	-30.9	13.7	7.60e-06	0	43	0	941621248	20	4090
2026-01-02 10:19:34.88	346.71	34.12	-30.3	-32.2	12.8	2.05e-05	0	44	0	942669824	20	4506
2026-01-02 10:19:35.89	346.66	33.90	-30.5	-32.2	12.5	1.30e-04	0	43	0	944766976	21	4405
2026-01-02 10:19:36.89	346.61	33.69	-31.2	-34.0	11.0	8.16e-04	0	44	0	946864128	22	4947
2026-01-02 10:19:37.89	346.56	33.47	-31.7	-35.3	9.6	4.09e-03	0	43	0	948961280	23	5419
2026-01-02 10:19:38.89	346.51	33.26	-32.0	-36.0	8.6	2.06e-02	0	43	0	951058432	24	5693
2026-01-02 10:19:39.88	346.46	33.05	-32.1	-36.4	8.3	6.00e-02	0	43	0	952107008	24	5886
2026-01-02 10:19:40.89	346.41	32.84	-32.0	-35.9	8.7	5.22e-02	0	44	0	954204160	24	5613
2026-01-02 10:19:41.89	346.37	32.64	-31.9	-35.3	9.1	4.21e-02	0	43	0	956301312	24	5353
2026-01-02 10:19:42.89	346.32	32.43	-31.6	-34.3	9.8	1.32e-02	0	43	0	958398464	24	4942
2026-01-02 10:19:43.90	346.28	32.22	-31.6	-34.3	9.9	7.10e-03	0	43	0	960495616	24	4909
2026-01-02 10:19:44.90	346.23	32.02	-31.3	-33.4	10.6	7.31e-03	0	43	0	961544192	24	4559
2026-01-02 10:19:45.89	346.19	31.82	-31.5	-34.1	10.0	4.76e-03	0	43	0	963641344	24	4838
2026-01-02 10:19:46.90	346.15	31.62	-31.2	-33.5	10.9	3.20e-03	0	43	0	965738496	23	4672
2026-01-02 10:19:47.91	346.10	31.41	-31.1	-33.1	11.1	1.38e-03	0	43	0	967835648	23	4564
2026-01-02 10:19:48.92	346.06	31.21	-31.3	-33.7	10.6	2.09e-03	0	43	0	969932800	23	4771
2026-01-02 10:19:49.92	346.02	31.02	-31.3	-33.7	10.6	3.65e-03	0	43	0	970981376	23	4775
2026-01-02 10:19:50.92	345.98	30.82	-31.2	-33.4	10.9	3.08e-03	0	43	0	973078528	23	4651
2026-01-02 10:19:51.93	345.94	30.63	-31.0	-33.0	11.2	1.63e-03	0	43	0	975175680	23	4521
2026-01-02 10:19:52.93	345.90	30.43	-31.0	-32.9	11.2	8.43e-04	0	43	0	977272832	23	4495
2026-01-02 10:19:53.93	345.86	30.24	-31.1	-33.1	11.1	1.33e-03	0	43	0	979369984	23	4558
2026-01-02 10:19:54.93	345.82	30.05	-31.3	-33.8	10.6	2.26e-03	0	43	0	980418560	23	4802
2026-01-02 10:19:55.93	345.78	29.86	-31.1	-33.3	11.0	3.87e-03	0	44	0	982515712	23	4605
2026-01-02 10:19:56.94	345.74	29.67	-30.8	-32.7	11.8	6.73e-04	0	43	0	984612864	22	4484
2026-01-02 10:19:57.94	345.70	29.49	-30.5	-32.0	12.2	2.88e-04	0	44	0	986710016	22	4254
2026-01-02 10:19:58.94	345.67	29.30	-30.7	-32.3	12.1	3.71e-04	0	43	0	988807168	22	4354
2026-01-02 10:19:59.94	345.63	29.12	-30.7	-32.5	11.9	3.61e-04	0	44	0	989855744	22	4432
2026-01-02 10:20:00.94	345.59	28.93	-31.1	-33.7	11.0	8.69e-04	0	44	0	991952896	22	4867
2026-01-02 10:20:01.94	345.56	28.75	-31.3	-34.5	10.4	3.21e-03	0	43	0	994050048	22	5198
2026-01-02 10:20:02.94	345.52	28.57	-31.4	-34.7	10.2	4.34e-03	0	43	0	996147200	22	5271
2026-01-02 10:20:03.94	345.49	28.39	-31.4	-34.7	10.3	5.46e-03	0	43	0	998244352	22	5277
2026-01-02 10:20:04.95	345.45	28.21	-31.3	-33.9	10.3	6.91e-03	0	44	0	999292928	23	4848
2026-01-02 10:20:05.95	345.42	28.03	-31.3	-33.9	10.5	6.36e-03	0	44	0	1001390080	23	4844
2026-01-02 10:20:06.95	345.39	27.86	-31.0	-32.9	11.1	1.61e-03	0	43	0	1003487232	23	4494
2026-01-02 10:20:07.95	345.35	27.68	-31.0	-32.8	11.2	1.10e-03	0	43	0	1005584384	23	4460
2026-01-02 10:20:08.95	345.32	27.51	-30.5	-31.9	12.3	5.89e-04	0	44	0	1006632960	22	4220
2026-01-02 10:20:09.95	345.29	27.34	-30.3	-31.4	12.5	1.33e-04	0	44	0	1008730112	22	4086
2026-01-02 10:20:10.94	345.26	27.17	-30.6	-32.2	12.0	2.07e-04	0	44	0	1010827264	22	4323
2026-01-02 10:20:11.95	345.22	26.99	-30.1	-31.2	13.0	6.56e-05	0	43	0	1012924416	21	4092
2026-01-02 10:20:12.95	345.19	26.83	-29.5	-30.2	14.1	1.14e-05	0	43	0	1015021568	20	3885
2026-01-02 10:20:13.96	345.16	26.65	-29.2	-29.9	14.6	0.00e+00	0	44	0	1016070144	19	3884
2026-01-02 10:20:14.96	345.13	26.49	-28.9	-29.2	15.0	0.00e+00	0	44	0	1018167296	19	3717
2026-01-02 10:20:15.97	345.10	26.32	-29.0	-29.3	14.9	0.00e+00	0	43	0	1020264448	19	3734
2026-01-02 10:20:16.97	345.07	26.15	-29.2	-29.8	14.5	2.20e-06	0	44	0	1022361600	19	3881
2026-01-02 10:20:17.97	345.04	25.99	-29.1	-29.6	14.7	0.00e+00	0	44	0	1024458752	19	3821
2026-01-02 10:20:18.97	345.01	25.83	-29.2	-30.0	14.5	7.00e-07	0	43	0	1025507328	19	3921
2026-01-02 10:20:19.98	344.98	25.66	-29.7	-31.1	13.8	2.20e-06	0	44	0	1027604480	19	4246
2026-01-02 10:20:20.99	344.96	25.50	-30.0	-31.5	13.2	1.06e-05	0	44	0	1029701632	20	4275
2026-01-02 10:20:21.99	344.93	25.34	-30.2	-32.0	12.7	4.80e-05	0	43	0	1031798784	20	4452
2026-01-02 10:20:22.99	344.90	25.18	-30.6	-32.9	11.8	2.55e-04	0	43	0	1033895936	21	4675
2026-01-02 10:20:23.99	344.87	25.02	-30.7	-33.1	11.6	6.11e-04	0	43	0	1034944512	21	4745
2026-01-02 10:20:25.00	344.85	24.86	-30.6	-32.8	11.9	6.08e-04	0	43	0	1037041664	21	4632
2026-01-02 10:20:26.01	344.82	24.70	-30.6	-32.7	11.9	3.46e-04	0	43	0	1039138816	21	4588
2026-01-02 10:20:27.02	344.79	24.55	-30.4	-32.2	12.2	2.35e-04	0	43	0	1041235968	21	4444
2026-01-02 10:20:28.02	344.77	24.39	-30.2	-31.6	12.7	1.24e-04	0	43	0	1043333120	21	4220
2026-01-02 10:20:29.02	344.74	24.24	-30.1	-31.4	12.9	7.09e-05	0	44	0	1044381696	21	4184
2026-01-02 10:20:30.03	344.71	24.08	-30.1	-31.3	12.9	5.41e-05	0	43	0	1046478848	21	4137
2026-01-02 10:20:31.02	344.69	23.93	-30.1	-31.5	12.8	5.64e-05	0	43	0	1048576000	21	4192
2026-01-02 10:20:32.02	344.66	23.78	-30.1	-31.2	12.9	4.57e-05	0	43	0	1050673152	21	4117
2026-01-02 10:20:33.02	344.64	23.63	-29.9	-30.9	13.1	5.03e-05	0	43	0	1051721728	21	4029
2026-01-02 10:20:34.02	344.62	23.48	-29.9	-30.9	13.1	2.21e-05	0	43	0	1053818880	21	4018
2026-01-02 10:20:35.02	344.59	23.33	-30.2	-31.7	12.6	5.11e-05	0	43	0	1055916032	21	4257
2026-01-02 10:20:36.03	344.57	23.18	-30.3	-31.9	12.4	1.11e-04	0	44	0	1058013184	21	4339
2026-01-02 10:20:37.04	344.54	23.03	-30.4	-32.1	12.2	1.83e-04	0	43	0	1060110336	21	4403
2026-01-02 10:20:38.04	344.52	22.89	-30.5	-32.6	12.0	2.37e-04	0	44	0	1061158912	21	4556
2026-01-02 10:20:39.03	344.50	22.74	-30.9	-33.7	11.2	4.89e-04	0	43	0	1063256064	21	4999
2026-01-02 10:20:40.04	344.47	22.60	-30.7	-33.1	11.6	1.15e-03	0	43	0	1065353216	21	4737
2026-01-02 10:20:41.04	344.45	22.45	-31.0	-34.0	10.9	1.78e-03	0	43	0	1067450368	21	5112
2026-01-02 10:20:42.05	344.43	22.31	-30.8	-33.4	11.3	1.63e-03	0	43	0	1069547520	21	4865
2026-01-02 10:20:43.06	344.41	22.17	-30.4	-32.2	12.2	4.00e-04	0	44	0	1070596096	21	4422
2026-01-02 10:20:44.06	344.38	22.03	-30.2	-31.5	12.6	8.39e-05	0	43	0	1072693248	21	4217
2026-01-02 10:20:45.07	344.36	21.88	-29.9	-30.7	13.2	4.57e-05	0	44	0	1074790400	21	3976
2026-01-02 10:20:46.07	344.34	21.74	-29.7	-30.6	13.6	1.90e-05	0	43	0	1076887552	20	4024
2026-01-02 10:20:47.08	344.32	21.60	-29.6	-30.5	13.6	3.80e-06	0	44	0	1078984704	20	3987
2026-01-02 10:20:48.08	344.30	21.47	-29.7	-30.7	13.5	9.10e-06	0	44	0	1080033280	20	4045
2026-01-02 10:20:49.08	344.28	21.33	-29.5	-30.3	13.8	5.30e-06	0	43	0	1082130432	20	3926
2026-01-02 10:20:50.08	344.26	21.19	-29.6	-30.6	13.6	1.50e-06	0	43	0	1084227584	20	4031
2026-01-02 10:20:51.08	344.24	21.06	-29.3	-29.8	14.1	1.06e-05	0	43	0	1086324736	20	3790
2026-01-02 10:20:52.08	344.22	20.92	-29.6	-31.0	13.7	1.50e-06	0	43	0	1088421888	19	4228
2026-01-02 10:20:53.09	344.20	20.78	-29.8	-31.6	13.3	7.60e-06	0	43	0	1089470464	19	4428
2026-01-02 10:20:54.09	344.18	20.65	-29.6	-30.9	13.7	1.50e-06	0	43	0	1091567616	19	4210
2026-01-02 10:20:55.10	344.16	20.52	-29.5	-30.7	13.8	7.60e-06	0	44	0	1093664768	19	4123
2026-01-02 10:20:56.10	344.14	20.38	-29.5	-30.6	13.9	4.50e-06	0	43	0	1095761920	19	4116
2026-01-02 10:20:57.10	344.12	20.25	-29.6	-31.0	13.6	2.20e-06	0	43	0	1097859072	19	4225
2026-01-02 10:20:58.11	344.10	20.12	-29.7	-31.3	13.4	1.50e-06	0	44	0	1098907648	19	4332
2026-01-02 10:20:59.11	344.08	19.99	-29.6	-30.9	13.7	9.10e-06	0	44	0	1101004800	19	4205
2026-01-02 10:21:00.12	344.06	19.86	-29.5	-30.8	13.8	3.80e-06	0	43	0	1103101952	19	4182
2026-01-02 10:21:01.12	344.04	19.73	-29.7	-31.2	13.5	4.50e-06	0	43	0	1105199104	19	4286
2026-01-02 10:21:02.13	344.03	19.60	-29.8	-31.5	13.3	1.44e-05	0	43	0	1106247680	19	4402
2026-01-02 10:21:03.13	344.01	19.47	-29.7	-31.2	13.5	8.30e-06	0	43	0	1108344832	19	4293
2026-01-02 10:21:04.13	343.99	19.35	-30.0	-31.5	12.8	2.21e-05	0	44	0	1110441984	20	4324
2026-01-02 10:21:05.14	343.97	19.22	-29.8	-31.2	13.1	3.66e-05	0	43	0	1112539136	20	4221
2026-01-02 10:21:06.15	343.95	19.09	-29.8	-31.1	13.1	2.82e-05	0	43	0	1114636288	20	4196
2026-01-02 10:21:07.15	343.94	18.97	-29.9	-31.5	12.9	5.49e-05	0	44	0	1116733440	20	4311
2026-01-02 10:21:08.15	343.92	18.84	-29.9	-31.5	12.9	4.50e-05	0	44	0	1117782016	20	4307
2026-01-02 10:21:09.15	343.90	18.72	-30.2	-32.2	12.3	9.84e-05	0	44	0	1119879168	20	4549
2026-01-02 10:21:10.16	343.89	18.59	-30.2	-32.3	12.3	2.53e-04	0	43	0	1121976320	20	4581
2026-01-02 10:21:11.17	343.87	18.47	-30.4	-32.9	11.8	3.17e-04	0	43	0	1124073472	20	4786
2026-01-02 10:21:12.17	343.85	18.35	-30.6	-32.9	11.7	4.35e-04	0	43	0	1125122048	21	4683
2026-01-02 10:21:13.17	343.84	18.23	-30.7	-33.2	11.3	8.85e-04	0	44	0	1127219200	21	4820
2026-01-02 10:21:14.18	343.82	18.10	-30.7	-33.1	11.4	8.83e-04	0	43	0	1129316352	21	4775
2026-01-02 10:21:15.18	343.81	17.98	-30.9	-34.0	10.7	1.63e-03	0	44	0	1131413504	21	5129
2026-01-02 10:21:16.18	343.79	17.86	-30.9	-34.0	10.7	1.92e-03	0	43	0	1133510656	21	5127
2026-01-02 10:21:17.18	343.77	17.74	-30.8	-33.7	11.0	2.32e-03	0	44	0	1134559232	21	4995
2026-01-02 10:21:18.19	343.76	17.63	-31.0	-33.6	10.7	3.32e-03	0	43	0	1136656384	22	4894
2026-01-02 10:21:19.19	343.74	17.51	-31.0	-33.7	10.6	4.10e-03	0	44	0	1138753536	22	4916
2026-01-02 10:21:20.20	343.73	17.39	-31.0	-33.8	10.5	3.86e-03	0	44	0	1140850688	22	4962
2026-01-02 10:21:21.20	343.71	17.27	-31.0	-33.9	10.5	3.85e-03	0	43	0	1142947840	22	4996
2026-01-02 10:21:22.21	343.70	17.15	-30.9	-33.5	10.7	3.72e-03	0	44	0	1143996416	22	4862
2026-01-02 10:21:23.20	343.68	17.04	-30.7	-32.9	11.1	1.75e-03	0	44	0	1146093568	22	4611
2026-01-02 10:21:24.21	343.67	16.92	-30.9	-33.3	10.8	1.53e-03	0	44	0	1148190720	22	4791
2026-01-02 10:21:25.20	343.65	16.81	-30.6	-32.5	11.5	1.07e-03	0	43	0	1150287872	22	4488
2026-01-02 10:21:26.21	343.64	16.70	-30.5	-32.3	11.6	6.46e-04	0	43	0	1152385024	22	4410
2026-01-02 10:21:27.21	343.63	16.58	-30.5	-32.3	11.5	1.10e-03	0	43	0	1153433600	22	4407
2026-01-02 10:21:28.22	343.61	16.47	-30.3	-31.6	12.0	3.84e-04	0	43	0	1155530752	22	4181
2026-01-02 10:21:29.22	343.60	16.36	-30.3	-32.2	11.9	3.07e-04	0	43	0	1157627904	21	4485
2026-01-02 10:21:30.22	343.58	16.24	-30.1	-31.6	12.3	2.41e-04	0	43	0	1159725056	21	4280
2026-01-02 10:21:31.23	343.57	16.13	-30.0	-31.3	12.6	2.10e-04	0	44	0	1161822208	21	4162
2026-01-02 10:21:32.23	343.56	16.02	-30.1	-31.7	12.3	1.78e-04	0	43	0	1162870784	21	4290
2026-01-02 10:21:33.23	343.54	15.91	-30.1	-31.4	12.5	1.52e-04	0	43	0	1164967936	21	4207
2026-01-02 10:21:34.24	343.53	15.80	-30.1	-31.6	12.4	9.99e-05	0	43	0	1167065088	21	4263
2026-01-02 10:21:35.24	343.52	15.69	-30.1	-31.6	12.3	1.65e-04	0	43	0	1169162240	21	4275
2026-01-02 10:21:36.24	343.50	15.58	-30.1	-31.5	12.4	1.59e-04	0	43	0	1171259392	21	4231
2026-01-02 10:21:37.24	343.49	15.47	-30.2	-31.8	12.2	1.45e-04	0	44	0	1172307968	21	4356
2026-01-02 10:21:38.25	343.48	15.36	-30.2	-32.0	12.0	2.97e-04	0	43	0	1174405120	21	4405
2026-01-02 10:21:39.25	343.47	15.26	-30.3	-32.0	12.0	3.37e-04	0	44	0	1176502272	21	4421
2026-01-02 10:21:40.25	343.45	15.15	-30.5	-32.6	11.6	4.49e-04	0	44	0	1178599424	21	4629
2026-01-02 10:21:41.26	343.44	15.04	-30.6	-33.1	11.2	1.01e-03	0	43	0	1179648000	21	4811
2026-01-02 10:21:42.27	343.43	14.93	-30.5	-32.8	11.4	7.57e-04	0	43	0	1181745152	21	4703
2026-01-02 10:21:43.27	343.42	14.83	-30.5	-32.9	11.4	9.09e-04	0	43	0	1183842304	21	4725
2026-01-02 10:21:44.27	343.41	14.72	-30.6	-33.1	11.2	1.12e-03	0	43	0	1185939456	21	4799
2026-01-02 10:21:45.27	343.39	14.62	-30.5	-32.8	11.4	1.40e-03	0	43	0	1188036608	21	4674
2026-01-02 10:21:46.27	343.38	14.51	-30.6	-33.1	11.2	1.29e-03	0	43	0	1189085184	21	4792
2026-01-02 10:21:47.28	343.37	14.41	-30.7	-33.6	10.9	1.94e-03	0	43	0	1191182336	21	4981
2026-01-02 10:21:48.28	343.36	14.31	-30.7	-33.3	11.1	1.94e-03	0	43	0	1193279488	21	4879
2026-01-02 10:21:49.28	343.35	14.20	-30.7	-33.6	10.9	1.82e-03	0	44	0	1195376640	21	4985
2026-01-02 10:21:50.28	343.34	14.10	-30.6	-33.0	11.1	1.74e-03	0	43	0	1197473792	21	4777
2026-01-02 10:21:51.28	343.32	14.00	-30.7	-33.5	10.8	1.35e-03	0	44	0	1198522368	21	4967
2026-01-02 10:21:52.29	343.31	13.90	-30.8	-33.7	10.7	3.64e-03	0	44	0	1200619520	21	5031
2026-01-02 10:21:53.29	343.30	13.79	-30.6	-33.2	11.0	2.34e-03	0	43	0	1202716672	21	4865
2026-01-02 10:21:54.29	343.29	13.69	-30.5	-33.0	11.3	1.67e-03	0	43	0	1204813824	21	4762
2026-01-02 10:21:55.29	343.28	13.59	-30.5	-33.0	11.2	1.48e-03	0	43	0	1206910976	21	4769
2026-01-02 10:21:56.30	343.27	13.49	-30.5	-32.8	11.3	1.11e-03	0	44	0	1207959552	21	4721
2026-01-02 10:21:57.30	343.26	13.39	-30.4	-32.6	11.4	1.22e-03	0	44	0	1210056704	21	4638
2026-01-02 10:21:58.29	343.25	13.29	-30.5	-32.9	11.2	1.83e-03	0	44	0	1212153856	21	4745
2026-01-02 10:21:59.29	343.24	13.20	-30.5	-32.7	11.3	1.05e-03	0	43	0	1214251008	21	4685
2026-01-02 10:22:00.29	343.23	13.10	-30.6	-33.2	11.0	1.48e-03	0	44	0	1216348160	21	4877
2026-01-02 10:22:01.30	343.22	13.00	-30.4	-32.6	11.4	1.58e-03	0	44	0	1217396736	21	4631
2026-01-02 10:22:02.30	343.21	12.90	-30.4	-32.6	11.5	9.70e-04	0	44	0	1219493888	21	4626
2026-01-02 10:22:03.30	343.20	12.80	-30.5	-33.0	11.1	1.69e-03	0	43	0	1221591040	21	4789
2026-01-02 10:22:04.31	343.19	12.71	-30.3	-32.4	11.5	7.44e-04	0	43	0	1223688192	21	4572
2026-01-02 10:22:05.31	343.18	12.61	-30.3	-32.3	11.7	5.26e-04	0	44	0	1224736768	21	4522
2026-01-02 10:22:06.32	343.17	12.51	-30.3	-32.3	11.6	6.90e-04	0	43	0	1226833920	21	4525
2026-01-02 10:22:07.32	343.16	12.42	-30.2	-32.1	11.8	5.35e-04	0	44	0	1228931072	21	4444
2026-01-02 10:22:08.33	343.15	12.32	-30.2	-32.1	11.7	5.39e-04	0	43	0	1231028224	21	4455
2026-01-02 10:22:09.34	343.14	12.23	-30.2	-32.1	11.7	4.39e-04	0	44	0	1233125376	21	4472
2026-01-02 10:22:10.33	343.13	12.13	-30.2	-32.1	11.8	7.27e-04	0	44	0	1234173952	21	4447
2026-01-02 10:22:11.34	343.12	12.04	-30.2	-32.0	11.8	6.58e-04	0	43	0	1236271104	21	4423
2026-01-02 10:22:12.34	343.11	11.94	-30.2	-32.0	11.7	5.73e-04	0	43	0	1238368256	21	4445
2026-01-02 10:22:13.35	343.10	11.85	-30.2	-32.0	11.8	4.88e-04	0	43	0	1240465408	21	4416
2026-01-02 10:22:14.35	343.09	11.76	-30.2	-32.1	11.7	4.91e-04	0	44	0	1242562560	21	4458
2026-01-02 10:22:15.36	343.08	11.66	-30.2	-31.9	11.8	4.76e-04	0	43	0	1243611136	21	4403
2026-01-02 10:22:16.36	343.07	11.57	-30.3	-32.2	11.6	5.16e-04	0	43	0	1245708288	21	4520
2026-01-02 10:22:17.37	343.07	11.48	-30.2	-32.2	11.6	4.71e-04	0	44	0	1247805440	21	4496
2026-01-02 10:22:18.37	343.06	11.39	-30.2	-31.9	11.8	4.72e-04	0	44	0	1249902592	21	4413
2026-01-02 10:22:19.38	343.05	11.29	-30.1	-31.9	11.8	4.55e-04	0	44	0	1251999744	21	4399
2026-01-02 10:22:20.39	343.04	11.20	-30.1	-31.9	11.8	6.03e-04	0	43	0	1253048320	21	4405
2026-01-02 10:22:21.40	343.03	11.11	-30.1	-31.7	12.0	4.18e-04	0	44	0	1255145472	21	4327
2026-01-02 10:22:22.40	343.02	11.02	-30.1	-31.8	11.9	3.94e-04	0	43	0	1257242624	21	4382
2026-01-02 10:22:23.41	343.01	10.93	-30.1	-31.8	11.8	5.53e-04	0	44	0	1259339776	21	4367
2026-01-02 10:22:24.40	343.01	10.84	-30.2	-32.1	11.7	3.84e-04	0	44	0	1261436928	21	4473
2026-01-02 10:22:25.40	343.00	10.75	-30.2	-32.0	11.7	6.00e-04	0	43	0	1262485504	21	4433
2026-01-02 10:22:26.41	342.99	10.66	-30.1	-31.6	12.0	5.11e-04	0	44	0	1264582656	21	4322
2026-01-02 10:22:27.41	342.98	10.57	-30.1	-31.7	11.9	3.42e-04	0	44	0	1266679808	21	4336
2026-01-02 10:22:28.41	342.97	10.48	-30.1	-31.7	11.9	3.95e-04	0	44	0	1268776960	21	4352
2026-01-02 10:22:29.41	342.97	10.40	-30.0	-31.6	12.0	3.93e-04	0	43	0	1270874112	21	4303
2026-01-02 10:22:30.40	342.96	10.31	-30.2	-32.1	11.7	2.98e-04	0	44	0	1271922688	21	4469
2026-01-02 10:22:31.40	342.95	10.22	-30.2	-32.1	11.7	5.94e-04	0	44	0	1274019840	21	4474
2026-01-02 10:22:32.41	342.94	10.13	-30.0	-31.6	12.0	3.57e-04	0	43	0	1276116992	21	4301
2026-01-02 10:22:33.40	342.94	10.05	-30.1	-31.8	11.8	2.93e-04	0	43	0	1278214144	21	4381
2026-01-02 10:22:34.41	342.93	9.96	-30.1	-31.7	11.9	5.97e-04	0	44	0	1280311296	21	4342
2026-01-02 10:22:35.41	342.92	9.87	-30.0	-31.6	11.9	3.87e-04	0	44	0	1281359872	21	4323
