passes_logs/2026/01/02/R2M6_AANII_01/R2M6_AANII_01__20260102_011949_FENGYUN_3D_rec.log

#Pass ID: 20260102_011949_FENGYUN 3D
#Satellite: FENGYUN 3D
#Configuration: FENGYUN 3D
#almurnet v.1.7.20240730
#Start time: 2026-01-02 01:19:50

#Version: 2.2.20231116
#Station: R2M6_AANII_01
#Location: 30.233357 lon 59.946436 lat
#TLE: 1 43010U 17072A   26001.33100487  .00000602  00000+0  30664-3 0  9999
#TLE: 2 43010  98.9910 332.9374 0001848 133.1047 227.0283 14.19692078421319

#Time	Az	El	Level	Level2	SNR	BER	BlckErr	Temp	State	Recorded	gain1	gain2
2026-01-02 01:19:50.81	25.55	7.11	-29.1	-32.2	5.4	7.82e-01	0	41	0	0	18	5167
2026-01-02 01:19:51.81	25.62	7.18	-29.9	-34.0	5.1	7.97e-01	0	41	104	0	19	5798
2026-01-02 01:19:52.82	25.68	7.26	-29.9	-33.7	8.2	4.01e-02	0	41	0	0	20	5568
2026-01-02 01:19:53.83	25.75	7.33	-30.2	-34.5	7.7	6.23e-02	0	41	0	5242880	20	5933
2026-01-02 01:19:54.83	25.81	7.40	-30.1	-34.1	8.0	8.31e-02	0	41	0	11534336	20	5742
2026-01-02 01:19:55.83	25.88	7.47	-29.8	-33.1	8.7	3.40e-02	0	41	0	16777216	20	5290
2026-01-02 01:19:56.84	25.95	7.54	-29.4	-32.5	9.6	1.66e-02	0	41	0	22020096	19	5129
2026-01-02 01:19:57.84	26.01	7.62	-28.9	-31.7	10.4	4.04e-03	0	41	0	28311552	18	4958
2026-01-02 01:19:58.85	26.08	7.69	-28.6	-31.2	11.1	1.99e-03	0	41	0	33554432	17	4889
2026-01-02 01:19:59.85	26.15	7.76	-28.2	-30.8	11.7	5.50e-04	0	41	0	38797312	16	4841
2026-01-02 01:20:00.86	26.21	7.83	-27.8	-29.7	12.4	1.67e-04	0	41	0	45088768	16	4516
2026-01-02 01:20:01.86	26.28	7.91	-27.4	-28.7	13.0	1.94e-05	0	41	0	50331648	16	4219
2026-01-02 01:20:02.86	26.35	7.98	-27.1	-28.6	13.2	1.94e-05	0	41	0	55574528	15	4299
2026-01-02 01:20:03.87	26.42	8.05	-26.9	-29.1	13.5	9.10e-06	0	41	0	61865984	13	4663
2026-01-02 01:20:04.87	26.49	8.13	-26.8	-29.0	13.6	4.50e-06	0	41	0	67108864	13	4639
2026-01-02 01:20:05.87	26.56	8.20	-27.2	-29.5	13.0	1.14e-05	0	41	0	73400320	14	4659
2026-01-02 01:20:06.87	26.62	8.27	-26.9	-28.7	13.5	6.80e-06	0	41	0	78643200	14	4415
2026-01-02 01:20:07.88	26.69	8.35	-26.4	-28.1	14.2	0.00e+00	0	41	0	84934656	13	4352
2026-01-02 01:20:08.88	26.76	8.42	-26.2	-27.6	14.4	0.00e+00	0	41	0	90177536	13	4209
2026-01-02 01:20:09.88	26.83	8.49	-26.0	-27.6	14.7	0.00e+00	0	41	0	95420416	12	4323
2026-01-02 01:20:10.88	26.91	8.57	-26.0	-27.6	14.7	1.10e-06	0	41	0	101711872	12	4339
2026-01-02 01:20:11.88	26.98	8.64	-26.2	-28.1	14.4	0.00e+00	0	41	0	106954752	12	4475
2026-01-02 01:20:12.88	27.05	8.72	-26.1	-27.9	14.6	0.00e+00	0	41	0	112197632	12	4402
2026-01-02 01:20:13.88	27.12	8.79	-25.9	-27.4	14.8	0.00e+00	0	41	0	118489088	12	4278
2026-01-02 01:20:14.88	27.19	8.87	-26.0	-27.5	14.8	1.10e-06	0	41	0	123731968	12	4301
2026-01-02 01:20:15.88	27.26	8.94	-25.9	-27.5	14.9	0.00e+00	0	41	0	128974848	12	4287
2026-01-02 01:20:16.89	27.34	9.02	-26.0	-27.6	14.8	0.00e+00	0	41	0	135266304	12	4332
2026-01-02 01:20:17.90	27.41	9.10	-25.9	-27.4	14.9	0.00e+00	0	41	0	140509184	12	4269
2026-01-02 01:20:18.89	27.48	9.17	-26.0	-27.6	14.7	0.00e+00	0	42	0	146800640	12	4338
2026-01-02 01:20:19.90	27.56	9.25	-25.8	-27.2	15.0	1.10e-06	0	42	0	152043520	12	4202
2026-01-02 01:20:20.90	27.63	9.32	-25.8	-27.2	15.0	0.00e+00	0	41	0	157286400	12	4203
2026-01-02 01:20:21.90	27.70	9.40	-25.9	-27.8	15.0	0.00e+00	0	42	0	163577856	11	4472
2026-01-02 01:20:22.91	27.78	9.48	-25.8	-27.6	15.2	0.00e+00	0	42	0	168820736	11	4418
2026-01-02 01:20:23.91	27.85	9.55	-25.8	-27.7	15.1	0.00e+00	0	42	0	174063616	11	4447
2026-01-02 01:20:24.90	27.93	9.63	-25.8	-27.6	15.2	0.00e+00	0	42	0	180355072	11	4424
2026-01-02 01:20:25.91	28.00	9.71	-25.8	-27.6	15.2	0.00e+00	0	42	0	185597952	11	4422
2026-01-02 01:20:26.92	28.08	9.79	-25.7	-27.5	15.3	0.00e+00	0	42	0	191889408	11	4387
2026-01-02 01:20:27.92	28.16	9.86	-25.8	-27.6	15.2	0.00e+00	0	42	0	197132288	11	4426
2026-01-02 01:20:28.93	28.24	9.94	-25.8	-27.5	15.2	0.00e+00	0	42	0	202375168	11	4410
2026-01-02 01:20:29.93	28.31	10.02	-25.8	-27.5	15.2	0.00e+00	0	42	0	208666624	11	4406
2026-01-02 01:20:30.93	28.39	10.10	-25.7	-27.4	15.3	0.00e+00	0	42	0	213909504	11	4362
2026-01-02 01:20:31.93	28.47	10.18	-25.7	-27.4	15.3	4.50e-06	0	42	0	220200960	11	4369
2026-01-02 01:20:32.94	28.55	10.26	-26.0	-28.0	15.0	0.00e+00	0	42	0	225443840	11	4534
2026-01-02 01:20:33.94	28.63	10.34	-25.7	-27.0	15.2	0.00e+00	0	42	0	230686720	12	4149
2026-01-02 01:20:34.94	28.71	10.41	-25.7	-27.4	15.3	0.00e+00	0	42	0	236978176	11	4366
2026-01-02 01:20:35.94	28.79	10.49	-25.7	-27.4	15.4	0.00e+00	0	42	0	242221056	11	4366
2026-01-02 01:20:36.95	28.87	10.57	-25.9	-27.8	15.1	0.00e+00	0	42	0	247463936	11	4491
2026-01-02 01:20:37.95	28.95	10.65	-25.8	-27.7	15.2	0.00e+00	0	42	0	253755392	11	4458
2026-01-02 01:20:38.95	29.03	10.73	-25.1	-26.8	15.1	0.00e+00	0	42	0	258998272	11	4364
2026-01-02 01:20:39.95	29.11	10.81	-25.8	-27.7	13.8	0.00e+00	0	42	0	264241152	11	4446
2026-01-02 01:20:40.96	29.19	10.89	-25.7	-27.4	15.3	0.00e+00	0	42	0	270532608	11	4375
2026-01-02 01:20:41.97	29.27	10.98	-25.7	-27.3	15.5	0.00e+00	0	42	0	275775488	11	4349
2026-01-02 01:20:42.96	29.36	11.06	-25.8	-27.5	15.3	0.00e+00	0	42	0	282066944	11	4398
2026-01-02 01:20:43.97	29.44	11.14	-25.8	-27.5	15.3	0.00e+00	0	42	0	287309824	11	4396
2026-01-02 01:20:44.96	29.52	11.22	-25.6	-27.1	15.6	1.21e-04	0	42	0	293601280	11	4286
2026-01-02 01:20:45.96	29.61	11.30	-25.4	-26.7	15.8	0.00e+00	0	42	0	298844160	11	4168
2026-01-02 01:20:46.97	29.69	11.38	-25.4	-26.6	15.9	0.00e+00	0	42	0	304087040	11	4149
2026-01-02 01:20:47.97	29.78	11.46	-25.3	-27.1	15.9	0.00e+00	0	42	0	310378496	10	4390
2026-01-02 01:20:48.97	29.86	11.55	-25.3	-27.0	15.9	0.00e+00	0	42	0	315621376	10	4358
2026-01-02 01:20:49.96	29.95	11.63	-25.3	-27.0	15.9	0.00e+00	0	42	0	320864256	10	4359
2026-01-02 01:20:50.96	30.03	11.71	-25.5	-26.9	15.7	0.00e+00	0	42	0	327155712	11	4242
2026-01-02 01:20:51.97	30.12	11.79	-25.7	-27.3	15.4	2.02e-04	0	42	0	332398592	11	4350
2026-01-02 01:20:52.98	30.21	11.88	-25.5	-26.8	15.7	0.00e+00	0	42	0	337641472	11	4213
2026-01-02 01:20:53.98	30.30	11.96	-25.3	-27.1	15.9	2.05e-04	0	42	0	343932928	10	4394
2026-01-02 01:20:54.98	30.38	12.04	-25.3	-27.1	15.9	0.00e+00	0	42	0	349175808	10	4381
2026-01-02 01:20:55.99	30.47	12.13	-25.4	-26.7	15.8	0.00e+00	0	42	0	355467264	11	4181
2026-01-02 01:20:56.98	30.56	12.21	-25.2	-26.8	16.0	2.61e-04	0	42	0	360710144	10	4315
2026-01-02 01:20:57.98	30.65	12.30	-25.2	-26.7	16.1	0.00e+00	0	42	0	365953024	10	4288
2026-01-02 01:20:58.99	30.74	12.38	-25.2	-26.7	16.1	0.00e+00	0	42	0	372244480	10	4289
2026-01-02 01:20:59.99	30.83	12.47	-25.0	-26.2	16.3	0.00e+00	0	42	0	377487360	10	4161
2026-01-02 01:21:01.00	30.92	12.55	-24.9	-26.2	16.4	2.83e-04	0	42	0	382730240	10	4147
2026-01-02 01:21:02.00	31.01	12.64	-25.0	-26.4	16.3	0.00e+00	0	42	0	389021696	10	4200
2026-01-02 01:21:03.01	31.11	12.72	-24.9	-26.1	16.5	0.00e+00	0	42	0	394264576	10	4120
2026-01-02 01:21:04.01	31.20	12.81	-24.8	-26.5	16.5	3.04e-04	0	42	0	399507456	9	4337
2026-01-02 01:21:05.01	31.29	12.89	-24.9	-26.5	16.5	0.00e+00	0	42	0	405798912	9	4344
2026-01-02 01:21:06.02	31.39	12.98	-25.2	-26.8	16.1	3.22e-04	0	42	0	411041792	10	4306
2026-01-02 01:21:07.02	31.48	13.07	-25.0	-26.3	16.4	0.00e+00	0	42	0	417333248	10	4192
2026-01-02 01:21:08.03	31.58	13.15	-24.9	-26.0	16.5	0.00e+00	0	42	0	422576128	10	4107
2026-01-02 01:21:09.03	31.67	13.24	-24.9	-26.5	16.5	3.57e-04	0	42	0	428867584	9	4354
2026-01-02 01:21:10.04	31.77	13.33	-24.8	-26.3	16.6	2.69e-04	0	42	0	434110464	9	4304
2026-01-02 01:21:11.04	31.86	13.42	-24.8	-26.4	16.6	0.00e+00	0	42	0	439353344	9	4313
2026-01-02 01:21:12.04	31.96	13.50	-24.8	-26.3	16.6	1.62e-04	0	42	0	445644800	9	4287
2026-01-02 01:21:13.05	32.06	13.59	-24.8	-26.4	16.6	1.50e-04	0	42	0	450887680	9	4311
2026-01-02 01:21:14.05	32.16	13.68	-24.9	-26.5	16.5	0.00e+00	0	42	0	456130560	9	4355
2026-01-02 01:21:15.05	32.26	13.77	-25.0	-26.3	16.4	1.14e-04	0	43	0	462422016	10	4174
2026-01-02 01:21:16.05	32.35	13.86	-25.5	-26.9	15.8	1.48e-04	0	42	0	467664896	11	4233
2026-01-02 01:21:17.05	32.45	13.94	-25.1	-26.0	16.3	0.00e+00	0	42	0	472907776	11	4002
2026-01-02 01:21:18.06	32.55	14.03	-25.1	-26.1	16.3	1.58e-04	0	42	0	479199232	11	4012
2026-01-02 01:21:19.07	32.66	14.12	-25.2	-26.8	16.2	1.84e-04	0	43	0	484442112	10	4300
2026-01-02 01:21:20.07	32.76	14.21	-25.2	-26.8	16.1	0.00e+00	0	42	0	490733568	10	4323
2026-01-02 01:21:21.08	32.86	14.30	-25.2	-26.8	16.2	0.00e+00	0	42	0	495976448	10	4319
2026-01-02 01:21:22.08	32.96	14.39	-25.3	-26.9	16.1	2.48e-04	0	42	0	502267904	10	4325
2026-01-02 01:21:23.09	33.07	14.49	-25.4	-27.1	16.0	0.00e+00	0	42	0	507510784	10	4381
2026-01-02 01:21:24.09	33.17	14.58	-25.8	-27.5	15.5	3.34e-04	0	42	0	512753664	11	4396
2026-01-02 01:21:25.09	33.27	14.67	-25.3	-26.5	16.1	3.52e-04	0	43	0	519045120	11	4118
2026-01-02 01:21:26.10	33.38	14.76	-25.0	-25.8	16.4	0.00e+00	0	42	0	524288000	11	3956
2026-01-02 01:21:27.10	33.49	14.85	-24.8	-25.9	16.7	3.60e-04	0	42	0	529530880	10	4086
2026-01-02 01:21:28.11	33.59	14.94	-24.7	-26.2	16.8	0.00e+00	0	43	0	535822336	9	4265
2026-01-02 01:21:29.11	33.70	15.03	-24.8	-26.3	16.7	0.00e+00	0	42	0	541065216	9	4305
2026-01-02 01:21:30.12	33.81	15.13	-24.9	-26.6	16.6	0.00e+00	0	43	0	547356672	9	4364
2026-01-02 01:21:31.12	33.92	15.22	-24.7	-26.1	16.8	4.97e-04	0	42	0	552599552	9	4236
2026-01-02 01:21:32.12	34.02	15.31	-24.6	-25.9	17.0	0.00e+00	0	43	0	557842432	9	4173
2026-01-02 01:21:33.13	34.13	15.41	-24.6	-25.8	17.0	0.00e+00	0	42	0	564133888	9	4170
2026-01-02 01:21:34.13	34.24	15.50	-24.5	-25.7	17.1	2.49e-04	0	42	0	569376768	9	4123
2026-01-02 01:21:35.14	34.36	15.59	-24.6	-25.9	16.9	0.00e+00	0	42	0	575668224	9	4183
2026-01-02 01:21:36.15	34.47	15.69	-24.7	-26.1	16.8	2.18e-04	0	42	0	580911104	9	4253
2026-01-02 01:21:37.15	34.58	15.78	-24.5	-25.8	17.0	0.00e+00	0	43	0	586153984	9	4165
2026-01-02 01:21:38.15	34.69	15.88	-24.7	-26.1	16.9	0.00e+00	0	43	0	592445440	9	4232
2026-01-02 01:21:39.16	34.81	15.97	-24.7	-26.1	16.9	0.00e+00	0	43	0	597688320	9	4238
2026-01-02 01:21:40.16	34.92	16.07	-24.6	-25.9	17.0	0.00e+00	0	43	0	602931200	9	4175
2026-01-02 01:21:41.16	35.04	16.16	-24.6	-25.9	17.0	0.00e+00	0	43	0	609222656	9	4181
2026-01-02 01:21:42.16	35.15	16.26	-24.6	-25.8	17.0	0.00e+00	0	43	0	614465536	9	4166
2026-01-02 01:21:43.16	35.27	16.35	-24.4	-25.4	17.3	2.21e-04	0	43	0	620756992	9	4068
2026-01-02 01:21:44.17	35.38	16.45	-24.5	-25.7	17.0	0.00e+00	0	43	0	625999872	9	4144
2026-01-02 01:21:45.17	35.50	16.54	-24.5	-25.7	17.1	0.00e+00	0	43	0	631242752	9	4123
2026-01-02 01:21:46.17	35.62	16.64	-24.4	-25.4	17.3	0.00e+00	0	43	0	637534208	9	4066
2026-01-02 01:21:47.18	35.74	16.74	-24.3	-25.3	17.3	0.00e+00	0	43	0	642777088	9	4040
2026-01-02 01:21:48.17	35.86	16.83	-24.5	-25.6	17.2	0.00e+00	0	43	0	649068544	9	4115
2026-01-02 01:21:49.17	35.98	16.93	-24.3	-25.4	17.3	0.00e+00	0	43	0	654311424	9	4045
2026-01-02 01:21:50.17	36.10	17.03	-24.5	-25.6	17.2	0.00e+00	0	43	0	659554304	9	4099
2026-01-02 01:21:51.18	36.22	17.13	-24.5	-25.7	17.1	0.00e+00	0	43	0	665845760	9	4138
2026-01-02 01:21:52.18	36.35	17.23	-24.4	-25.4	17.3	0.00e+00	0	43	0	671088640	9	4064
2026-01-02 01:21:53.18	36.47	17.32	-24.4	-25.5	17.2	0.00e+00	0	43	0	676331520	9	4088
2026-01-02 01:21:54.19	36.60	17.42	-24.3	-25.3	17.4	0.00e+00	0	43	0	682622976	9	4025
2026-01-02 01:21:55.19	36.72	17.52	-24.3	-25.2	17.4	0.00e+00	0	43	0	687865856	9	4010
2026-01-02 01:21:56.18	36.84	17.62	-24.4	-25.6	17.2	0.00e+00	0	43	0	693108736	9	4094
2026-01-02 01:21:57.19	36.97	17.72	-24.2	-25.1	17.5	0.00e+00	0	43	0	699400192	9	3979
2026-01-02 01:21:58.19	37.10	17.82	-24.3	-25.2	17.5	0.00e+00	0	43	0	704643072	9	4000
2026-01-02 01:21:59.19	37.23	17.92	-24.3	-25.2	17.5	0.00e+00	0	43	0	710934528	9	4014
2026-01-02 01:22:00.18	37.36	18.02	-24.4	-25.5	17.3	0.00e+00	0	42	0	716177408	9	4090
2026-01-02 01:22:01.18	37.49	18.12	-24.2	-25.1	17.5	0.00e+00	0	43	0	721420288	9	3983
2026-01-02 01:22:02.18	37.62	18.22	-24.2	-25.0	17.6	0.00e+00	0	43	0	727711744	9	3952
2026-01-02 01:22:03.18	37.75	18.32	-24.2	-25.0	17.6	0.00e+00	0	43	0	732954624	9	3957
2026-01-02 01:22:04.18	37.88	18.42	-24.3	-25.3	17.5	0.00e+00	0	43	0	738197504	9	4023
2026-01-02 01:22:05.18	38.01	18.52	-24.2	-25.0	17.6	0.00e+00	0	43	0	744488960	9	3966
2026-01-02 01:22:06.18	38.15	18.62	-24.4	-25.5	17.3	0.00e+00	0	43	0	749731840	9	4073
2026-01-02 01:22:07.18	38.28	18.73	-24.2	-25.0	17.6	0.00e+00	0	43	0	754974720	9	3947
2026-01-02 01:22:08.19	38.42	18.83	-23.9	-24.7	17.7	0.00e+00	0	43	0	761266176	9	3912
2026-01-02 01:22:09.19	38.56	18.93	-23.9	-24.6	17.6	0.00e+00	0	43	0	766509056	9	3931
2026-01-02 01:22:10.20	38.70	19.04	-24.1	-24.8	17.8	0.00e+00	0	43	0	772800512	9	3897
2026-01-02 01:22:11.20	38.83	19.14	-24.0	-24.7	17.6	0.00e+00	0	43	0	778043392	9	3902
2026-01-02 01:22:12.21	38.98	19.24	-23.3	-24.2	17.7	0.00e+00	0	43	0	783286272	8	4008
2026-01-02 01:22:13.20	39.11	19.35	-23.7	-24.5	18.1	0.00e+00	0	43	0	789577728	8	3945
2026-01-02 01:22:14.21	39.26	19.45	-23.8	-24.6	18.1	0.00e+00	0	43	0	794820608	8	3960
2026-01-02 01:22:15.21	39.40	19.56	-23.8	-24.6	18.1	0.00e+00	0	43	0	800063488	8	3976
2026-01-02 01:22:16.21	39.54	19.66	-23.6	-24.3	18.3	0.00e+00	0	43	0	806354944	8	3884
2026-01-02 01:22:17.22	39.69	19.77	-23.6	-24.2	18.3	0.00e+00	0	43	0	811597824	8	3874
2026-01-02 01:22:18.23	39.83	19.87	-23.6	-24.2	18.3	0.00e+00	0	43	0	817889280	8	3879
2026-01-02 01:22:19.23	39.98	19.98	-23.5	-24.1	18.4	0.00e+00	0	43	0	823132160	8	3845
2026-01-02 01:22:20.23	40.13	20.08	-23.6	-24.2	18.4	0.00e+00	0	43	0	829423616	8	3862
2026-01-02 01:22:21.23	40.28	20.19	-23.6	-24.2	18.3	0.00e+00	0	43	0	834666496	8	3867
2026-01-02 01:22:22.23	40.43	20.30	-23.7	-24.4	18.2	0.00e+00	0	43	0	839909376	8	3921
2026-01-02 01:22:23.24	40.58	20.40	-23.7	-24.5	18.2	0.00e+00	0	43	0	846200832	8	3929
2026-01-02 01:22:24.25	40.73	20.51	-23.8	-24.6	18.1	0.00e+00	0	43	0	851443712	8	3972
2026-01-02 01:22:25.25	40.88	20.62	-23.7	-24.5	18.2	0.00e+00	0	43	0	856686592	8	3945
2026-01-02 01:22:26.25	41.03	20.72	-23.8	-24.6	18.1	0.00e+00	0	43	0	862978048	8	3976
2026-01-02 01:22:27.26	41.19	20.83	-23.7	-24.5	18.2	0.00e+00	0	43	0	868220928	8	3932
2026-01-02 01:22:28.27	41.35	20.94	-23.7	-24.5	18.2	0.00e+00	0	43	0	874512384	8	3949
2026-01-02 01:22:29.28	41.51	21.05	-23.6	-24.3	18.3	0.00e+00	0	43	0	879755264	8	3897
2026-01-02 01:22:30.27	41.66	21.16	-23.6	-24.3	18.4	0.00e+00	0	43	0	884998144	8	3886
2026-01-02 01:22:31.28	41.82	21.27	-23.5	-24.1	18.4	0.00e+00	0	43	0	891289600	8	3848
2026-01-02 01:22:32.28	41.98	21.38	-23.6	-24.2	18.3	0.00e+00	0	43	0	896532480	8	3879
2026-01-02 01:22:33.28	42.14	21.49	-23.6	-24.2	18.4	0.00e+00	0	43	0	902823936	8	3876
2026-01-02 01:22:34.27	42.30	21.59	-23.6	-24.3	18.3	0.00e+00	0	43	0	908066816	8	3901
2026-01-02 01:22:35.28	42.47	21.70	-23.4	-23.8	18.6	0.00e+00	0	43	0	913309696	8	3786
2026-01-02 01:22:36.28	42.63	21.81	-23.2	-23.9	18.8	0.00e+00	0	43	0	919601152	7	3913
2026-01-02 01:22:37.28	42.79	21.92	-23.3	-24.1	18.7	0.00e+00	0	43	0	924844032	7	3953
2026-01-02 01:22:38.28	42.96	22.03	-23.4	-24.3	18.6	0.00e+00	0	43	0	930086912	7	3989
2026-01-02 01:22:39.29	43.13	22.15	-23.4	-24.4	18.5	0.00e+00	0	43	0	936378368	7	4028
2026-01-02 01:22:40.30	43.30	22.26	-23.3	-24.1	18.7	0.00e+00	0	43	0	941621248	7	3957
2026-01-02 01:22:41.30	43.47	22.37	-23.3	-24.1	18.7	0.00e+00	0	43	0	946864128	7	3948
2026-01-02 01:22:42.30	43.64	22.48	-23.2	-24.0	18.7	0.00e+00	0	42	0	953155584	7	3932
2026-01-02 01:22:43.30	43.81	22.59	-23.2	-23.8	18.8	0.00e+00	0	43	0	958398464	7	3883
2026-01-02 01:22:44.30	43.99	22.70	-23.1	-23.7	18.9	0.00e+00	0	43	0	964689920	7	3857
2026-01-02 01:22:45.30	44.16	22.81	-23.2	-23.9	18.8	0.00e+00	0	43	0	969932800	7	3902
2026-01-02 01:22:46.30	44.34	22.93	-23.3	-24.2	18.7	0.00e+00	0	43	0	975175680	7	3962
2026-01-02 01:22:47.30	44.51	23.04	-23.4	-24.2	17.8	0.00e+00	0	43	0	981467136	7	3973
2026-01-02 01:22:48.30	44.69	23.15	-23.1	-23.8	17.6	0.00e+00	0	43	0	986710016	7	3923
2026-01-02 01:22:49.30	44.87	23.26	-23.3	-24.2	18.7	0.00e+00	0	43	0	991952896	7	3975
2026-01-02 01:22:50.30	45.05	23.38	-23.4	-24.3	17.0	0.00e+00	0	43	0	998244352	7	3986
2026-01-02 01:22:51.30	45.24	23.49	-23.4	-24.3	18.0	0.00e+00	0	43	0	1003487232	7	4008
2026-01-02 01:22:52.30	45.42	23.60	-23.5	-24.5	18.5	0.00e+00	0	43	0	1008730112	7	4041
2026-01-02 01:22:53.31	45.61	23.72	-23.6	-24.8	18.4	0.00e+00	0	43	0	1015021568	7	4122
2026-01-02 01:22:54.31	45.79	23.83	-23.3	-24.2	18.7	5.70e-04	0	43	0	1020264448	7	3962
2026-01-02 01:22:55.31	45.98	23.95	-23.1	-23.7	19.0	0.00e+00	0	43	0	1026555904	7	3849
2026-01-02 01:22:56.31	46.17	24.06	-22.9	-23.7	19.2	0.00e+00	0	43	0	1031798784	6	3968
2026-01-02 01:22:57.31	46.36	24.17	-22.9	-23.7	19.2	0.00e+00	0	43	0	1037041664	6	3970
2026-01-02 01:22:58.32	46.55	24.29	-22.9	-23.8	19.2	0.00e+00	0	42	0	1043333120	6	3977
2026-01-02 01:22:59.32	46.74	24.40	-23.0	-23.9	19.1	0.00e+00	0	42	0	1048576000	6	4002
2026-01-02 01:23:00.32	46.94	24.52	-23.1	-24.1	19.0	0.00e+00	0	43	0	1054867456	6	4060
2026-01-02 01:23:01.32	47.13	24.63	-22.9	-23.7	19.2	0.00e+00	0	43	0	1060110336	6	3971
2026-01-02 01:23:02.32	47.33	24.75	-22.9	-23.8	19.2	0.00e+00	0	43	0	1065353216	6	3978
2026-01-02 01:23:03.32	47.53	24.87	-22.9	-23.7	19.2	6.75e-05	0	43	0	1071644672	6	3970
2026-01-02 01:23:04.32	47.73	24.98	-22.9	-23.7	19.2	0.00e+00	0	43	0	1076887552	6	3972
2026-01-02 01:23:05.32	47.93	25.10	-22.7	-23.4	19.4	8.00e-06	0	43	0	1082130432	6	3886
2026-01-02 01:23:06.32	48.13	25.21	-22.8	-23.6	19.3	3.40e-06	0	43	0	1088421888	6	3939
2026-01-02 01:23:07.33	48.34	25.33	-22.9	-23.7	19.2	0.00e+00	0	43	0	1093664768	6	3966
2026-01-02 01:23:08.33	48.54	25.45	-22.7	-23.4	19.4	0.00e+00	0	43	0	1099956224	6	3881
2026-01-02 01:23:09.34	48.75	25.56	-22.6	-23.2	19.5	0.00e+00	0	43	0	1105199104	6	3838
2026-01-02 01:23:10.34	48.96	25.68	-22.6	-23.2	19.5	0.00e+00	0	43	0	1110441984	6	3835
2026-01-02 01:23:11.34	49.17	25.80	-22.7	-23.2	19.5	1.97e-04	0	43	0	1116733440	6	3852
2026-01-02 01:23:12.35	49.39	25.91	-22.5	-22.9	19.6	2.27e-04	0	43	0	1121976320	6	3778
2026-01-02 01:23:13.35	49.60	26.03	-22.5	-23.0	19.6	0.00e+00	0	43	0	1127219200	6	3789
2026-01-02 01:23:14.35	49.81	26.15	-22.6	-23.2	19.5	0.00e+00	0	43	0	1133510656	6	3834
2026-01-02 01:23:15.35	50.03	26.26	-22.7	-23.2	19.5	2.88e-04	0	43	0	1138753536	6	3851
2026-01-02 01:23:16.35	50.25	26.38	-22.7	-23.4	19.4	0.00e+00	0	43	0	1143996416	6	3883
2026-01-02 01:23:17.35	50.47	26.50	-22.7	-23.3	19.4	3.05e-04	0	43	0	1150287872	6	3877
2026-01-02 01:23:18.36	50.69	26.62	-22.7	-23.3	19.5	3.08e-04	0	43	0	1155530752	6	3862
2026-01-02 01:23:19.36	50.91	26.73	-22.6	-23.1	19.6	0.00e+00	0	43	0	1161822208	6	3815
2026-01-02 01:23:20.37	51.14	26.85	-22.5	-23.0	19.6	3.32e-04	0	43	0	1167065088	6	3801
2026-01-02 01:23:21.37	51.37	26.97	-22.6	-23.5	19.6	3.47e-04	0	43	0	1173356544	5	4034
2026-01-02 01:23:22.38	51.60	27.09	-22.7	-24.0	19.4	0.00e+00	0	43	0	1178599424	5	4137
2026-01-02 01:23:23.39	51.83	27.21	-22.6	-23.6	19.6	0.00e+00	0	43	0	1183842304	5	4040
2026-01-02 01:23:24.39	52.06	27.32	-22.6	-23.6	19.5	3.89e-05	0	43	0	1190133760	5	4055
2026-01-02 01:23:25.39	52.29	27.44	-22.5	-23.5	19.6	0.00e+00	0	43	0	1195376640	5	4024
2026-01-02 01:23:26.39	52.53	27.56	-22.4	-23.3	19.7	1.60e-04	0	43	0	1200619520	5	3969
2026-01-02 01:23:27.39	52.76	27.68	-22.5	-23.4	19.7	1.22e-04	0	43	0	1206910976	5	3988
2026-01-02 01:23:28.39	53.00	27.79	-22.5	-23.5	19.6	0.00e+00	0	43	0	1212153856	5	4012
2026-01-02 01:23:29.40	53.24	27.91	-22.3	-23.0	19.9	0.00e+00	0	43	0	1217396736	5	3907
2026-01-02 01:23:30.40	53.48	28.03	-22.3	-23.1	19.9	0.00e+00	0	43	0	1223688192	5	3917
2026-01-02 01:23:31.41	53.73	28.15	-22.3	-23.0	19.9	0.00e+00	0	43	0	1228931072	5	3906
2026-01-02 01:23:32.41	53.97	28.27	-22.3	-23.0	19.9	0.00e+00	0	43	0	1235222528	5	3914
2026-01-02 01:23:33.41	54.22	28.38	-22.4	-23.1	19.8	0.00e+00	0	43	0	1240465408	5	3935
2026-01-02 01:23:34.41	54.47	28.50	-22.5	-23.4	19.7	0.00e+00	0	43	0	1246756864	5	3997
2026-01-02 01:23:35.42	54.72	28.62	-22.4	-23.3	19.8	6.80e-06	0	43	0	1251999744	5	3974
2026-01-02 01:23:36.43	54.97	28.74	-22.2	-22.8	20.0	5.70e-06	0	43	0	1257242624	5	3866
2026-01-02 01:23:37.43	55.23	28.85	-22.0	-22.4	20.2	0.00e+00	0	43	0	1263534080	5	3775
2026-01-02 01:23:38.44	55.49	28.97	-22.0	-22.4	20.2	0.00e+00	0	43	0	1268776960	5	3769
2026-01-02 01:23:39.44	55.74	29.09	-22.0	-22.4	20.2	0.00e+00	0	43	0	1274019840	5	3763
2026-01-02 01:23:40.45	56.00	29.21	-22.1	-22.6	20.1	0.00e+00	0	43	0	1280311296	5	3803
2026-01-02 01:23:41.45	56.27	29.32	-22.4	-23.2	19.8	1.10e-06	0	43	0	1285554176	5	3958
2026-01-02 01:23:42.46	56.53	29.44	-22.4	-23.3	19.8	0.00e+00	0	43	0	1290797056	5	3970
2026-01-02 01:23:43.46	56.80	29.56	-22.4	-23.2	19.8	0.00e+00	0	43	0	1297088512	5	3962
2026-01-02 01:23:44.47	57.07	29.67	-22.2	-22.9	20.0	0.00e+00	0	43	0	1302331392	5	3871
2026-01-02 01:23:45.47	57.33	29.79	-22.2	-22.7	20.1	0.00e+00	0	43	0	1308622848	5	3841
2026-01-02 01:23:46.48	57.61	29.91	-22.2	-22.7	20.0	0.00e+00	0	43	0	1313865728	5	3841
2026-01-02 01:23:47.48	57.88	30.02	-22.1	-22.7	20.1	0.00e+00	0	43	0	1320157184	5	3823
2026-01-02 01:23:48.48	58.15	30.14	-22.1	-22.6	20.1	0.00e+00	0	43	0	1325400064	5	3812
2026-01-02 01:23:49.48	58.43	30.25	-22.1	-22.6	20.1	0.00e+00	0	43	0	1330642944	5	3805
2026-01-02 01:23:50.48	58.71	30.37	-22.1	-22.6	20.1	0.00e+00	0	43	0	1336934400	5	3803
2026-01-02 01:23:51.48	58.99	30.48	-22.1	-22.7	20.1	0.00e+00	0	43	0	1342177280	5	3820
2026-01-02 01:23:52.49	59.27	30.59	-22.1	-22.5	20.2	0.00e+00	0	43	0	1347420160	5	3788
2026-01-02 01:23:53.49	59.56	30.71	-21.9	-22.2	20.3	0.00e+00	0	43	0	1353711616	5	3724
2026-01-02 01:23:54.49	59.84	30.82	-22.0	-22.9	20.2	3.11e-04	0	43	0	1358954496	4	3984
2026-01-02 01:23:55.49	60.13	30.94	-22.1	-23.1	20.1	0.00e+00	0	43	0	1364197376	4	4046
2026-01-02 01:23:56.50	60.43	31.05	-22.2	-23.3	20.0	2.44e-04	0	43	0	1370488832	4	4082
2026-01-02 01:23:57.50	60.72	31.16	-22.2	-23.2	20.1	0.00e+00	0	43	0	1375731712	4	4071
2026-01-02 01:23:58.51	61.01	31.27	-22.3	-23.4	19.9	0.00e+00	0	43	0	1382023168	4	4124
2026-01-02 01:23:59.51	61.31	31.39	-22.3	-23.4	20.0	3.22e-04	0	43	0	1387266048	4	4119
2026-01-02 01:24:00.51	61.61	31.50	-22.1	-23.1	20.1	0.00e+00	0	43	0	1393557504	4	4043
2026-01-02 01:24:01.52	61.91	31.61	-22.1	-23.1	20.1	0.00e+00	0	43	0	1398800384	4	4036
2026-01-02 01:24:02.52	62.21	31.72	-22.2	-23.4	20.0	0.00e+00	0	43	0	1404043264	4	4102
2026-01-02 01:24:03.53	62.52	31.83	-22.2	-23.3	20.0	0.00e+00	0	43	0	1410334720	4	4080
2026-01-02 01:24:04.53	62.83	31.94	-22.1	-23.1	20.1	0.00e+00	0	43	0	1415577600	4	4046
2026-01-02 01:24:05.53	63.14	32.05	-22.3	-23.4	20.0	0.00e+00	0	43	0	1420820480	4	4117
2026-01-02 01:24:06.54	63.45	32.16	-22.5	-23.9	19.7	0.00e+00	0	43	0	1427111936	4	4237
2026-01-02 01:24:07.54	63.76	32.27	-22.8	-24.0	19.5	0.00e+00	0	43	0	1432354816	5	4141
2026-01-02 01:24:08.55	64.08	32.38	-22.7	-23.8	19.5	0.00e+00	0	43	0	1437597696	5	4096
2026-01-02 01:24:09.54	64.39	32.48	-22.3	-23.0	19.9	0.00e+00	0	43	0	1443889152	5	3911
2026-01-02 01:24:10.55	64.72	32.59	-22.3	-22.9	20.0	0.00e+00	0	43	0	1449132032	5	3885
2026-01-02 01:24:11.54	65.03	32.69	-22.3	-23.0	19.9	0.00e+00	0	43	0	1455423488	5	3913
2026-01-02 01:24:12.55	65.36	32.80	-22.4	-23.1	19.9	0.00e+00	0	43	0	1460666368	5	3934
2026-01-02 01:24:13.55	65.68	32.90	-22.2	-22.8	20.1	0.00e+00	0	43	0	1465909248	5	3850
2026-01-02 01:24:14.56	66.01	33.01	-22.2	-22.7	20.1	0.00e+00	0	43	0	1472200704	5	3833
2026-01-02 01:24:15.57	66.35	33.11	-22.1	-22.5	20.2	0.00e+00	0	43	0	1477443584	5	3791
2026-01-02 01:24:16.57	66.68	33.22	-22.0	-22.3	20.3	0.00e+00	0	43	0	1483735040	5	3743
2026-01-02 01:24:17.57	67.01	33.32	-22.1	-22.5	20.2	0.00e+00	0	43	0	1488977920	5	3796
2026-01-02 01:24:18.57	67.35	33.42	-22.2	-22.8	20.1	0.00e+00	0	43	0	1494220800	5	3848
2026-01-02 01:24:19.58	67.69	33.52	-22.1	-22.7	20.1	0.00e+00	0	43	0	1500512256	5	3835
2026-01-02 01:24:20.59	68.03	33.62	-22.1	-22.7	20.1	0.00e+00	0	43	0	1505755136	5	3825
2026-01-02 01:24:21.59	68.37	33.72	-22.0	-22.3	20.3	0.00e+00	0	43	0	1510998016	5	3735
2026-01-02 01:24:22.59	68.71	33.82	-21.7	-22.2	20.6	0.00e+00	0	43	0	1517289472	4	3826
2026-01-02 01:24:23.60	69.06	33.92	-21.7	-22.2	20.6	0.00e+00	0	43	0	1522532352	4	3831
2026-01-02 01:24:24.60	69.41	34.01	-21.8	-22.5	20.5	0.00e+00	0	43	0	1528823808	4	3894
2026-01-02 01:24:25.61	69.76	34.11	-21.9	-22.7	20.3	0.00e+00	0	43	0	1534066688	4	3941
2026-01-02 01:24:26.61	70.12	34.20	-22.0	-22.9	20.0	0.00e+00	0	43	0	1539309568	4	4003
2026-01-02 01:24:27.61	70.47	34.30	-22.0	-22.9	20.0	0.00e+00	0	43	0	1545601024	4	4013
2026-01-02 01:24:28.62	70.83	34.39	-21.9	-22.7	20.2	0.00e+00	0	43	0	1550843904	4	3959
2026-01-02 01:24:29.62	71.19	34.48	-21.8	-22.5	20.3	0.00e+00	0	43	0	1557135360	4	3905
2026-01-02 01:24:30.62	71.55	34.57	-21.8	-22.6	20.2	0.00e+00	0	43	0	1562378240	4	3923
2026-01-02 01:24:31.63	71.91	34.66	-21.8	-22.5	20.3	0.00e+00	0	43	0	1567621120	4	3906
2026-01-02 01:24:32.63	72.27	34.75	-21.7	-22.4	20.3	0.00e+00	0	43	0	1573912576	4	3880
2026-01-02 01:24:33.63	72.64	34.84	-21.8	-22.5	20.3	0.00e+00	0	43	0	1579155456	4	3901
2026-01-02 01:24:34.63	73.01	34.93	-21.9	-22.7	20.2	0.00e+00	0	43	0	1584398336	4	3963
2026-01-02 01:24:35.63	73.38	35.01	-22.0	-22.9	20.0	0.00e+00	0	43	0	1590689792	4	4021
2026-01-02 01:24:36.64	73.75	35.10	-22.0	-22.9	20.1	0.00e+00	0	43	0	1595932672	4	4001
2026-01-02 01:24:37.65	74.13	35.18	-21.9	-22.8	20.1	0.00e+00	0	43	0	1602224128	4	3981
2026-01-02 01:24:38.65	74.50	35.26	-22.0	-23.0	20.1	0.00e+00	0	43	0	1607467008	4	4017
2026-01-02 01:24:39.65	74.88	35.35	-22.1	-23.2	19.9	0.00e+00	0	43	0	1612709888	4	4082
2026-01-02 01:24:40.65	75.26	35.43	-22.2	-23.3	19.9	0.00e+00	0	43	0	1619001344	4	4106
2026-01-02 01:24:41.65	75.64	35.51	-22.2	-23.4	19.9	0.00e+00	0	43	0	1624244224	4	4124
2026-01-02 01:24:42.65	76.02	35.58	-22.2	-23.4	19.8	0.00e+00	0	43	0	1629487104	4	4127
2026-01-02 01:24:43.65	76.41	35.66	-22.1	-23.2	19.9	0.00e+00	0	43	0	1635778560	4	4073
2026-01-02 01:24:44.65	76.79	35.73	-22.1	-23.1	20.0	0.00e+00	0	43	0	1641021440	4	4052
2026-01-02 01:24:45.65	77.18	35.81	-22.0	-23.0	20.1	0.00e+00	0	43	0	1646264320	4	4016
2026-01-02 01:24:46.65	77.57	35.88	-22.2	-23.3	19.9	0.00e+00	0	43	0	1652555776	4	4108
2026-01-02 01:24:47.65	77.96	35.95	-22.2	-23.3	19.9	0.00e+00	0	43	0	1657798656	4	4099
2026-01-02 01:24:48.66	78.36	36.02	-22.0	-23.0	20.0	0.00e+00	0	43	0	1664090112	4	4030
2026-01-02 01:24:49.67	78.76	36.09	-21.9	-22.8	20.1	0.00e+00	0	43	0	1669332992	4	3987
2026-01-02 01:24:50.67	79.16	36.16	-21.8	-22.5	20.2	0.00e+00	0	43	0	1675624448	4	3920
2026-01-02 01:24:51.68	79.56	36.23	-21.7	-22.3	20.3	0.00e+00	0	43	0	1680867328	4	3874
2026-01-02 01:24:52.68	79.96	36.29	-21.7	-22.4	20.3	0.00e+00	0	43	0	1686110208	4	3880
2026-01-02 01:24:53.69	80.36	36.36	-21.7	-22.3	20.4	0.00e+00	0	43	0	1692401664	4	3859
2026-01-02 01:24:54.68	80.76	36.42	-21.6	-22.2	20.4	0.00e+00	0	43	0	1697644544	4	3842
2026-01-02 01:24:55.69	81.17	36.48	-21.6	-22.2	20.4	0.00e+00	0	43	0	1702887424	4	3830
2026-01-02 01:24:56.69	81.58	36.54	-21.7	-22.4	20.3	0.00e+00	0	43	0	1709178880	4	3877
2026-01-02 01:24:57.69	81.98	36.59	-21.9	-22.7	20.2	0.00e+00	0	43	0	1714421760	4	3953
2026-01-02 01:24:58.69	82.39	36.65	-21.9	-22.7	18.1	0.00e+00	0	43	0	1720713216	4	3948
2026-01-02 01:24:59.69	82.80	36.70	-21.9	-22.7	18.9	0.00e+00	0	43	0	1725956096	4	3960
2026-01-02 01:25:00.69	83.21	36.76	-21.7	-22.3	20.3	0.00e+00	0	43	0	1731198976	4	3871
2026-01-02 01:25:01.70	83.63	36.81	-21.4	-21.8	20.6	0.00e+00	0	43	0	1737490432	4	3743
2026-01-02 01:25:02.70	84.04	36.86	-21.3	-21.5	20.7	0.00e+00	0	43	0	1742733312	4	3691
2026-01-02 01:25:03.70	84.46	36.91	-21.4	-21.8	20.6	0.00e+00	0	43	0	1747976192	4	3745
2026-01-02 01:25:04.69	84.87	36.95	-21.5	-21.8	20.6	0.00e+00	0	43	0	1754267648	4	3750
2026-01-02 01:25:05.69	85.29	37.00	-21.7	-22.4	20.3	0.00e+00	0	43	0	1759510528	4	3887
2026-01-02 01:25:06.69	85.71	37.04	-21.7	-22.4	20.3	0.00e+00	0	43	0	1764753408	4	3893
2026-01-02 01:25:07.70	86.13	37.08	-21.5	-22.0	20.5	3.11e-04	0	43	0	1771044864	4	3787
2026-01-02 01:25:08.70	86.55	37.12	-21.5	-21.9	20.6	0.00e+00	0	43	0	1776287744	4	3775
2026-01-02 01:25:09.71	86.98	37.16	-21.5	-21.8	20.6	0.00e+00	0	43	0	1782579200	4	3753
2026-01-02 01:25:10.71	87.40	37.20	-21.6	-22.1	20.5	0.00e+00	0	43	0	1787822080	4	3811
2026-01-02 01:25:11.72	87.83	37.24	-21.6	-22.2	20.4	0.00e+00	0	43	0	1794113536	4	3850
2026-01-02 01:25:12.72	88.26	37.27	-21.6	-22.2	20.4	0.00e+00	0	43	0	1799356416	4	3832
2026-01-02 01:25:13.72	88.68	37.30	-21.7	-22.3	20.3	0.00e+00	0	43	0	1804599296	4	3874
2026-01-02 01:25:14.73	89.11	37.33	-22.0	-22.9	20.1	2.05e-04	0	43	0	1810890752	4	4002
2026-01-02 01:25:15.73	89.54	37.36	-21.9	-22.8	20.1	0.00e+00	0	43	0	1816133632	4	3975
2026-01-02 01:25:16.74	89.97	37.39	-21.6	-22.2	20.4	6.75e-05	0	43	0	1821376512	4	3848
2026-01-02 01:25:17.74	90.40	37.41	-21.5	-22.0	20.5	0.00e+00	0	43	0	1827667968	4	3786
2026-01-02 01:25:18.75	90.83	37.43	-21.4	-21.8	20.6	0.00e+00	0	43	0	1832910848	4	3740
2026-01-02 01:25:19.74	91.26	37.45	-21.6	-22.1	20.5	1.10e-06	0	43	0	1838153728	4	3814
2026-01-02 01:25:20.75	91.69	37.47	-21.6	-22.0	20.5	0.00e+00	0	43	0	1844445184	4	3804
2026-01-02 01:25:21.75	92.12	37.49	-21.5	-21.9	20.6	0.00e+00	0	43	0	1849688064	4	3761
2026-01-02 01:25:22.75	92.55	37.51	-21.6	-22.1	20.4	0.00e+00	0	43	0	1855979520	4	3820
2026-01-02 01:25:23.75	92.99	37.52	-21.5	-21.8	20.6	0.00e+00	0	43	0	1861222400	4	3754
2026-01-02 01:25:24.76	93.42	37.53	-21.4	-21.8	20.6	0.00e+00	0	43	0	1867513856	4	3741
2026-01-02 01:25:25.76	93.86	37.54	-21.6	-22.1	20.5	0.00e+00	0	43	0	1872756736	4	3818
2026-01-02 01:25:26.76	94.29	37.55	-21.6	-22.1	20.4	2.20e-06	0	43	0	1877999616	4	3816
2026-01-02 01:25:27.77	94.72	37.56	-21.4	-21.8	20.6	0.00e+00	0	43	0	1884291072	4	3746
2026-01-02 01:25:28.76	95.15	37.57	-21.5	-21.9	20.6	6.06e-05	0	43	0	1889533952	4	3764
2026-01-02 01:25:29.77	95.59	37.57	-21.5	-21.8	20.6	0.00e+00	0	44	0	1894776832	4	3761
2026-01-02 01:25:30.78	96.03	37.57	-21.7	-22.3	20.3	0.00e+00	0	43	0	1901068288	4	3873
2026-01-02 01:25:31.78	96.46	37.57	-21.8	-22.5	20.2	0.00e+00	0	43	0	1906311168	4	3914
2026-01-02 01:25:32.78	96.90	37.57	-21.7	-22.3	20.3	1.10e-06	0	43	0	1911554048	4	3875
2026-01-02 01:25:33.78	97.33	37.56	-21.7	-22.4	20.3	0.00e+00	0	43	0	1917845504	4	3881
2026-01-02 01:25:34.78	97.76	37.56	-21.6	-22.1	20.5	5.03e-05	0	43	0	1923088384	4	3827
2026-01-02 01:25:35.78	98.19	37.55	-21.5	-22.0	20.5	3.43e-05	0	43	0	1929379840	4	3778
2026-01-02 01:25:36.79	98.63	37.54	-21.6	-22.0	20.5	0.00e+00	0	43	0	1934622720	4	3803
2026-01-02 01:25:37.79	99.06	37.53	-21.5	-21.9	20.6	0.00e+00	0	43	0	1939865600	4	3759
2026-01-02 01:25:38.80	99.50	37.52	-21.4	-21.6	20.7	0.00e+00	0	43	0	1946157056	4	3707
2026-01-02 01:25:39.80	99.93	37.50	-21.5	-21.9	20.6	0.00e+00	0	43	0	1951399936	4	3762
2026-01-02 01:25:40.80	100.36	37.49	-21.5	-21.9	20.5	0.00e+00	0	43	0	1956642816	4	3777
2026-01-02 01:25:41.81	100.80	37.47	-21.8	-22.5	20.3	4.50e-06	0	43	0	1962934272	4	3901
2026-01-02 01:25:42.81	101.23	37.45	-21.7	-22.4	20.3	0.00e+00	0	43	0	1968177152	4	3878
2026-01-02 01:25:43.82	101.66	37.42	-21.6	-22.2	20.4	0.00e+00	0	43	0	1974468608	4	3834
2026-01-02 01:25:44.83	102.10	37.40	-21.6	-22.2	20.4	2.20e-06	0	43	0	1979711488	4	3851
2026-01-02 01:25:45.84	102.53	37.37	-21.6	-22.1	20.4	0.00e+00	0	43	0	1984954368	4	3830
2026-01-02 01:25:46.84	102.96	37.35	-21.7	-22.3	20.3	0.00e+00	0	43	0	1991245824	4	3870
2026-01-02 01:25:47.84	103.38	37.32	-21.6	-22.2	20.4	1.48e-05	0	43	0	1996488704	4	3831
2026-01-02 01:25:48.85	103.81	37.29	-21.4	-21.8	20.6	0.00e+00	0	43	0	2002780160	4	3752
2026-01-02 01:25:49.85	104.24	37.26	-21.4	-21.8	20.6	2.51e-05	0	43	0	2008023040	4	3745
2026-01-02 01:25:50.85	104.67	37.22	-21.7	-22.2	20.4	0.00e+00	0	43	0	2013265920	4	3846
2026-01-02 01:25:51.86	105.09	37.19	-21.6	-22.1	20.4	0.00e+00	0	43	0	2019557376	4	3825
2026-01-02 01:25:52.86	105.52	37.15	-21.6	-22.1	20.4	0.00e+00	0	43	0	2024800256	4	3822
2026-01-02 01:25:53.87	105.94	37.11	-21.7	-22.4	20.3	7.32e-05	0	43	0	2031091712	4	3887
2026-01-02 01:25:54.87	106.36	37.07	-21.8	-22.5	20.2	0.00e+00	0	43	0	2036334592	4	3922
2026-01-02 01:25:55.88	106.79	37.02	-21.6	-22.1	20.4	0.00e+00	0	43	0	2041577472	4	3811
2026-01-02 01:25:56.88	107.21	36.98	-21.5	-22.0	20.5	3.89e-05	0	43	0	2047868928	4	3794
2026-01-02 01:25:57.89	107.63	36.93	-21.7	-22.3	20.3	0.00e+00	0	43	0	2053111808	4	3865
2026-01-02 01:25:58.89	108.05	36.89	-21.6	-22.2	20.4	1.48e-05	0	43	0	2058354688	4	3830
2026-01-02 01:25:59.90	108.46	36.84	-21.7	-22.3	20.3	0.00e+00	0	43	0	2064646144	4	3865
2026-01-02 01:26:00.88	108.87	36.79	-21.8	-22.5	20.2	0.00e+00	0	43	0	2069889024	4	3916
2026-01-02 01:26:01.88	109.28	36.74	-21.7	-22.3	20.3	0.00e+00	0	43	0	2076180480	4	3853
2026-01-02 01:26:02.88	109.70	36.68	-21.7	-22.4	20.3	0.00e+00	0	43	0	2081423360	4	3876
2026-01-02 01:26:03.89	110.11	36.63	-21.7	-22.4	20.2	0.00e+00	0	43	0	2086666240	4	3892
2026-01-02 01:26:04.89	110.52	36.57	-21.9	-22.7	20.1	0.00e+00	0	43	0	2092957696	4	3957
2026-01-02 01:26:05.90	110.93	36.51	-21.7	-22.3	20.3	0.00e+00	0	43	0	2098200576	4	3860
2026-01-02 01:26:06.90	111.34	36.45	-21.7	-22.4	20.3	0.00e+00	0	43	0	2103443456	4	3885
2026-01-02 01:26:07.90	111.74	36.39	-21.7	-22.4	20.3	0.00e+00	0	43	0	2109734912	4	3879
2026-01-02 01:26:08.90	112.14	36.33	-21.9	-22.7	20.1	0.00e+00	0	43	0	2114977792	4	3968
2026-01-02 01:26:09.90	112.54	36.26	-21.8	-22.5	20.2	0.00e+00	0	43	0	2120220672	4	3903
2026-01-02 01:26:10.91	112.95	36.20	-21.7	-22.2	20.3	0.00e+00	0	43	0	2126512128	4	3851
2026-01-02 01:26:11.91	113.35	36.13	-21.8	-22.5	20.2	0.00e+00	0	43	0	2131755008	4	3909
2026-01-02 01:26:12.91	113.74	36.06	-21.7	-22.3	20.4	0.00e+00	0	43	0	2138046464	4	3853
2026-01-02 01:26:13.91	114.14	35.99	-21.6	-22.1	20.4	0.00e+00	0	43	0	2143289344	4	3829
2026-01-02 01:26:14.91	114.53	35.92	-21.5	-22.0	20.5	0.00e+00	0	43	0	2149580800	4	3799
2026-01-02 01:26:15.92	114.93	35.85	-21.7	-22.2	20.3	0.00e+00	0	43	0	2154823680	4	3849
2026-01-02 01:26:16.93	115.32	35.77	-21.7	-22.3	20.3	0.00e+00	0	43	0	2160066560	4	3871
2026-01-02 01:26:17.94	115.71	35.70	-21.9	-22.8	20.1	0.00e+00	0	43	0	2166358016	4	3979
2026-01-02 01:26:18.94	116.10	35.62	-21.9	-22.7	20.1	0.00e+00	0	43	0	2171600896	4	3969
2026-01-02 01:26:19.95	116.49	35.54	-21.8	-22.6	20.2	0.00e+00	0	43	0	2176843776	4	3929
2026-01-02 01:26:20.96	116.88	35.46	-21.8	-22.6	20.1	0.00e+00	0	43	0	2183135232	4	3941
2026-01-02 01:26:21.96	117.26	35.38	-22.0	-22.9	20.0	0.00e+00	0	43	0	2188378112	4	3996
2026-01-02 01:26:22.97	117.64	35.30	-21.9	-22.8	20.0	0.00e+00	0	43	0	2194669568	4	3993
2026-01-02 01:26:23.97	118.02	35.22	-22.2	-23.4	19.7	0.00e+00	0	43	0	2199912448	4	4137
2026-01-02 01:26:24.97	118.39	35.14	-22.1	-23.2	19.8	0.00e+00	0	43	0	2205155328	4	4072
2026-01-02 01:26:25.97	118.77	35.05	-22.1	-23.2	19.8	0.00e+00	0	43	0	2211446784	4	4078
2026-01-02 01:26:26.98	119.14	34.97	-22.2	-23.5	19.7	0.00e+00	0	43	0	2216689664	4	4144
2026-01-02 01:26:27.98	119.51	34.88	-22.2	-23.3	19.8	0.00e+00	0	43	0	2222981120	4	4098
2026-01-02 01:26:28.98	119.88	34.79	-22.2	-23.5	19.7	0.00e+00	0	43	0	2228224000	4	4144
2026-01-02 01:26:29.99	120.25	34.70	-22.5	-23.6	19.4	0.00e+00	0	43	0	2233466880	5	4061
2026-01-02 01:26:30.99	120.61	34.61	-22.2	-22.8	19.8	0.00e+00	0	43	0	2239758336	5	3880
2026-01-02 01:26:31.99	120.97	34.52	-22.2	-22.8	19.8	0.00e+00	0	43	0	2245001216	5	3879
2026-01-02 01:26:32.99	121.33	34.43	-22.4	-23.3	19.6	0.00e+00	0	43	0	2250244096	5	3986
2026-01-02 01:26:33.99	121.69	34.34	-22.4	-23.4	19.5	0.00e+00	0	43	0	2256535552	5	4010
2026-01-02 01:26:34.99	122.05	34.24	-22.3	-23.2	19.6	0.00e+00	0	43	0	2261778432	5	3964
2026-01-02 01:26:36.00	122.40	34.15	-22.4	-23.3	19.5	0.00e+00	0	43	0	2267021312	5	3986
2026-01-02 01:26:37.00	122.76	34.05	-22.2	-22.8	19.8	0.00e+00	0	43	0	2273312768	5	3860
2026-01-02 01:26:38.01	123.11	33.96	-22.0	-22.5	19.9	0.00e+00	0	43	0	2278555648	5	3800
2026-01-02 01:26:39.02	123.46	33.86	-22.2	-22.9	19.7	0.00e+00	0	43	0	2284847104	5	3904
2026-01-02 01:26:40.02	123.81	33.76	-22.3	-23.0	19.7	0.00e+00	0	43	0	2290089984	5	3924
2026-01-02 01:26:41.02	124.15	33.66	-22.5	-23.6	19.4	0.00e+00	0	43	0	2296381440	5	4068
2026-01-02 01:26:42.03	124.49	33.56	-22.3	-23.2	19.6	0.00e+00	0	43	0	2301624320	5	3975
2026-01-02 01:26:43.03	124.83	33.46	-22.2	-22.9	19.7	0.00e+00	0	43	0	2306867200	5	3893
2026-01-02 01:26:44.03	125.17	33.36	-22.0	-22.6	19.9	0.00e+00	0	43	0	2313158656	5	3819
2026-01-02 01:26:45.03	125.51	33.26	-22.0	-22.5	19.9	0.00e+00	0	43	0	2318401536	5	3805
2026-01-02 01:26:46.03	125.84	33.15	-22.2	-22.9	19.7	0.00e+00	0	43	0	2323644416	5	3895
2026-01-02 01:26:47.03	126.17	33.05	-22.0	-22.5	19.9	0.00e+00	0	43	0	2329935872	5	3809
2026-01-02 01:26:48.03	126.50	32.95	-22.0	-22.5	19.9	0.00e+00	0	43	0	2335178752	5	3803
2026-01-02 01:26:49.04	126.83	32.84	-22.3	-23.1	19.6	0.00e+00	0	43	0	2340421632	5	3945
2026-01-02 01:26:50.04	127.16	32.74	-22.3	-23.1	19.6	0.00e+00	0	43	0	2346713088	5	3945
2026-01-02 01:26:51.04	127.48	32.63	-22.3	-23.2	19.5	0.00e+00	0	43	0	2351955968	5	3969
2026-01-02 01:26:52.05	127.80	32.52	-22.1	-22.7	19.8	0.00e+00	0	43	0	2358247424	5	3857
2026-01-02 01:26:53.06	128.12	32.41	-22.3	-23.0	19.6	0.00e+00	0	43	0	2363490304	5	3925
2026-01-02 01:26:54.06	128.44	32.31	-22.3	-23.2	19.5	0.00e+00	0	43	0	2369781760	5	3960
2026-01-02 01:26:55.06	128.76	32.20	-22.5	-23.5	19.4	0.00e+00	0	43	0	2375024640	5	4038
2026-01-02 01:26:56.06	129.07	32.09	-22.3	-23.1	19.6	0.00e+00	0	43	0	2380267520	5	3946
2026-01-02 01:26:57.07	129.38	31.98	-22.3	-23.1	19.6	0.00e+00	0	43	0	2386558976	5	3949
2026-01-02 01:26:58.07	129.69	31.87	-22.3	-23.1	19.6	0.00e+00	0	43	0	2391801856	5	3939
2026-01-02 01:26:59.07	130.00	31.76	-22.3	-23.2	19.5	5.70e-06	0	43	0	2397044736	5	3968
2026-01-02 01:27:00.07	130.30	31.65	-22.6	-23.7	19.3	0.00e+00	0	43	0	2403336192	5	4102
2026-01-02 01:27:01.08	130.61	31.53	-22.6	-23.7	19.3	0.00e+00	0	43	0	2408579072	5	4082
2026-01-02 01:27:02.08	130.91	31.42	-22.5	-23.4	19.4	6.80e-06	0	43	0	2413821952	5	4022
2026-01-02 01:27:03.08	131.20	31.31	-22.5	-23.6	19.4	0.00e+00	0	43	0	2420113408	5	4067
2026-01-02 01:27:04.08	131.50	31.20	-22.5	-23.5	19.4	0.00e+00	0	43	0	2425356288	5	4037
2026-01-02 01:27:05.09	131.80	31.08	-22.5	-23.6	19.3	4.50e-06	0	43	0	2431647744	5	4071
2026-01-02 01:27:06.09	132.09	30.97	-22.8	-24.1	19.0	0.00e+00	0	43	0	2436890624	5	4207
2026-01-02 01:27:07.10	132.38	30.86	-22.7	-23.9	19.1	5.70e-06	0	43	0	2442133504	5	4152
2026-01-02 01:27:08.10	132.67	30.74	-22.4	-23.4	19.4	2.20e-06	0	43	0	2448424960	5	4020
2026-01-02 01:27:09.11	132.96	30.63	-22.3	-23.2	19.5	0.00e+00	0	43	0	2453667840	5	3968
2026-01-02 01:27:10.11	133.25	30.51	-22.4	-23.3	19.4	0.00e+00	0	43	0	2459959296	5	3988
2026-01-02 01:27:11.11	133.53	30.40	-22.5	-23.5	19.4	1.10e-06	0	43	0	2465202176	5	4041
2026-01-02 01:27:12.12	133.81	30.28	-22.5	-23.5	19.3	0.00e+00	0	43	0	2470445056	5	4057
2026-01-02 01:27:13.12	134.09	30.17	-22.4	-23.3	19.5	0.00e+00	0	43	0	2476736512	5	3990
2026-01-02 01:27:14.12	134.36	30.05	-22.3	-23.1	19.6	2.60e-04	0	43	0	2481979392	5	3955
2026-01-02 01:27:15.11	134.64	29.93	-22.3	-23.1	19.6	0.00e+00	0	43	0	2487222272	5	3944
2026-01-02 01:27:16.12	134.91	29.82	-22.2	-22.8	19.7	4.65e-04	0	43	0	2493513728	5	3874
2026-01-02 01:27:17.12	135.18	29.70	-22.2	-23.0	19.6	5.69e-04	0	43	0	2498756608	5	3914
2026-01-02 01:27:18.12	135.45	29.58	-22.3	-23.1	19.6	0.00e+00	0	43	0	2505048064	5	3944
2026-01-02 01:27:19.12	135.72	29.47	-22.4	-23.3	19.5	7.49e-04	0	43	0	2510290944	5	3998
2026-01-02 01:27:20.12	135.98	29.35	-22.4	-23.4	19.4	1.10e-06	0	43	0	2515533824	5	4021
2026-01-02 01:27:21.12	136.25	29.23	-22.4	-23.3	19.4	0.00e+00	0	43	0	2521825280	5	4004
2026-01-02 01:27:22.13	136.51	29.12	-22.4	-23.3	19.4	0.00e+00	0	43	0	2527068160	5	4005
2026-01-02 01:27:23.13	136.77	29.00	-22.3	-23.1	19.5	3.28e-04	0	43	0	2532311040	5	3956
2026-01-02 01:27:24.13	137.03	28.88	-22.3	-23.2	19.5	0.00e+00	0	43	0	2538602496	5	3968
2026-01-02 01:27:25.13	137.28	28.76	-22.5	-23.4	19.3	0.00e+00	0	43	0	2543845376	5	4025
2026-01-02 01:27:26.14	137.54	28.64	-22.7	-23.9	19.1	3.71e-04	0	43	0	2549088256	5	4137
2026-01-02 01:27:27.15	137.79	28.52	-22.8	-24.2	18.9	0.00e+00	0	43	0	2555379712	5	4221
2026-01-02 01:27:28.14	138.04	28.41	-23.0	-24.5	18.8	3.94e-04	0	43	0	2560622592	5	4309
2026-01-02 01:27:29.15	138.29	28.29	-22.8	-24.2	18.9	3.98e-04	0	43	0	2566914048	5	4234
2026-01-02 01:27:30.16	138.54	28.17	-22.7	-23.9	19.1	0.00e+00	0	43	0	2572156928	5	4155
2026-01-02 01:27:31.16	138.78	28.05	-22.7	-24.0	19.1	3.51e-04	0	43	0	2578448384	5	4165
2026-01-02 01:27:32.17	139.03	27.93	-22.7	-24.0	19.0	3.13e-04	0	43	0	2583691264	5	4171
2026-01-02 01:27:33.17	139.27	27.81	-22.5	-23.6	19.2	0.00e+00	0	43	0	2588934144	5	4061
2026-01-02 01:27:34.18	139.51	27.69	-22.6	-23.7	19.2	0.00e+00	0	43	0	2595225600	5	4099
2026-01-02 01:27:35.18	139.75	27.58	-22.6	-23.7	19.2	3.67e-04	0	43	0	2600468480	5	4095
2026-01-02 01:27:36.18	139.99	27.46	-22.7	-24.0	19.1	0.00e+00	0	43	0	2605711360	5	4160
2026-01-02 01:27:37.19	140.22	27.34	-22.9	-24.3	18.9	6.86e-04	0	43	0	2612002816	5	4243
2026-01-02 01:27:38.19	140.45	27.22	-22.7	-24.0	19.0	7.11e-04	0	43	0	2617245696	5	4171
2026-01-02 01:27:39.20	140.69	27.10	-22.6	-23.7	19.2	0.00e+00	0	43	0	2622488576	5	4102
2026-01-02 01:27:40.20	140.92	26.98	-22.6	-23.8	19.1	6.92e-04	0	43	0	2628780032	5	4135
2026-01-02 01:27:41.21	141.15	26.86	-22.5	-23.6	19.3	0.00e+00	0	43	0	2634022912	5	4068
2026-01-02 01:27:42.22	141.38	26.74	-22.4	-23.4	19.3	0.00e+00	0	43	0	2640314368	5	4015
2026-01-02 01:27:43.21	141.60	26.63	-22.4	-23.3	19.4	0.00e+00	0	43	0	2645557248	5	3999
2026-01-02 01:27:44.21	141.82	26.51	-22.5	-23.6	19.2	7.06e-04	0	43	0	2651848704	5	4064
2026-01-02 01:27:45.22	142.04	26.39	-22.4	-23.4	19.3	0.00e+00	0	43	0	2657091584	5	4017
2026-01-02 01:27:46.23	142.26	26.27	-22.5	-23.6	19.2	0.00e+00	0	43	0	2662334464	5	4074
2026-01-02 01:27:47.23	142.48	26.15	-22.6	-23.7	19.1	5.78e-04	0	43	0	2668625920	5	4091
2026-01-02 01:27:48.23	142.70	26.03	-22.7	-23.9	19.0	0.00e+00	0	43	0	2673868800	5	4144
2026-01-02 01:27:49.22	142.91	25.92	-22.6	-23.8	19.1	5.77e-04	0	43	0	2679111680	5	4122
2026-01-02 01:27:50.22	143.12	25.80	-22.6	-23.7	19.1	0.00e+00	0	43	0	2685403136	5	4099
2026-01-02 01:27:51.22	143.34	25.68	-22.6	-23.8	19.1	0.00e+00	0	43	0	2690646016	5	4110
2026-01-02 01:27:52.23	143.55	25.56	-22.6	-23.7	19.1	0.00e+00	0	43	0	2695888896	5	4106
2026-01-02 01:27:53.23	143.76	25.45	-22.6	-23.8	19.1	0.00e+00	0	43	0	2702180352	5	4122
2026-01-02 01:27:54.24	143.97	25.33	-22.7	-24.0	19.0	0.00e+00	0	43	0	2707423232	5	4176
2026-01-02 01:27:55.24	144.17	25.21	-22.7	-23.9	19.0	0.00e+00	0	43	0	2713714688	5	4160
2026-01-02 01:27:56.24	144.38	25.10	-22.7	-24.0	18.9	9.76e-04	0	43	0	2718957568	5	4184
2026-01-02 01:27:57.25	144.58	24.98	-22.9	-24.3	18.8	0.00e+00	0	43	0	2724200448	5	4264
2026-01-02 01:27:58.25	144.78	24.86	-22.9	-24.3	18.8	0.00e+00	0	43	0	2730491904	5	4252
2026-01-02 01:27:59.25	144.98	24.75	-22.9	-24.4	18.7	0.00e+00	0	43	0	2735734784	5	4285
2026-01-02 01:28:00.26	145.18	24.63	-23.1	-24.2	18.6	0.00e+00	0	43	0	2742026240	6	4114
2026-01-02 01:28:01.25	145.38	24.51	-23.1	-24.3	18.6	1.08e-03	0	43	0	2747269120	6	4131
2026-01-02 01:28:02.26	145.57	24.40	-23.0	-24.1	18.6	0.00e+00	0	43	0	2752512000	6	4093
2026-01-02 01:28:03.26	145.77	24.28	-23.1	-24.2	18.6	2.97e-05	0	43	0	2758803456	6	4112
2026-01-02 01:28:04.26	145.96	24.16	-23.1	-24.3	18.6	0.00e+00	0	43	0	2764046336	6	4129
2026-01-02 01:28:05.26	146.15	24.05	-23.0	-24.0	18.7	4.92e-05	0	43	0	2769289216	6	4056
2026-01-02 01:28:06.26	146.34	23.93	-22.9	-24.0	18.7	0.00e+00	0	43	0	2775580672	6	4050
2026-01-02 01:28:07.26	146.53	23.82	-23.0	-24.1	18.6	0.00e+00	0	43	0	2780823552	6	4101
2026-01-02 01:28:08.26	146.72	23.70	-23.0	-24.2	18.6	0.00e+00	0	43	0	2787115008	6	4113
2026-01-02 01:28:09.27	146.90	23.59	-23.0	-24.1	18.6	4.50e-06	0	43	0	2792357888	6	4083
2026-01-02 01:28:10.28	147.09	23.47	-23.0	-24.2	18.5	0.00e+00	0	43	0	2797600768	6	4122
2026-01-02 01:28:11.29	147.28	23.36	-23.1	-24.3	18.5	0.00e+00	0	43	0	2803892224	6	4152
2026-01-02 01:28:12.29	147.46	23.24	-23.1	-24.3	18.5	0.00e+00	0	43	0	2809135104	6	4153
2026-01-02 01:28:13.29	147.64	23.13	-23.1	-24.3	18.5	0.00e+00	0	43	0	2814377984	6	4147
2026-01-02 01:28:14.30	147.82	23.02	-23.0	-24.2	18.5	8.00e-06	0	43	0	2820669440	6	4110
2026-01-02 01:28:15.30	148.00	22.90	-23.0	-24.1	18.6	0.00e+00	0	43	0	2825912320	6	4089
2026-01-02 01:28:16.31	148.18	22.79	-22.9	-24.0	18.6	0.00e+00	0	43	0	2832203776	6	4048
2026-01-02 01:28:17.32	148.35	22.67	-23.0	-24.0	18.6	0.00e+00	0	43	0	2837446656	6	4064
2026-01-02 01:28:18.32	148.53	22.56	-23.0	-24.1	18.6	0.00e+00	0	43	0	2843738112	6	4086
2026-01-02 01:28:19.32	148.70	22.45	-23.0	-24.2	18.5	1.10e-06	0	43	0	2848980992	6	4097
2026-01-02 01:28:20.32	148.87	22.34	-23.0	-24.2	18.5	0.00e+00	0	43	0	2854223872	6	4094
2026-01-02 01:28:21.32	149.04	22.23	-23.2	-24.4	18.4	0.00e+00	0	43	0	2860515328	6	4166
2026-01-02 01:28:22.32	149.21	22.11	-23.2	-24.5	18.3	0.00e+00	0	44	0	2865758208	6	4188
2026-01-02 01:28:23.32	149.38	22.00	-23.3	-24.7	18.2	0.00e+00	0	43	0	2871001088	6	4238
2026-01-02 01:28:24.33	149.55	21.89	-23.3	-24.8	18.2	0.00e+00	0	43	0	2877292544	6	4269
2026-01-02 01:28:25.32	149.71	21.78	-23.4	-25.0	18.1	0.00e+00	0	43	0	2882535424	6	4300
2026-01-02 01:28:26.32	149.88	21.67	-23.4	-25.0	18.1	0.00e+00	0	43	0	2887778304	6	4312
2026-01-02 01:28:27.33	150.04	21.56	-23.5	-25.1	18.0	0.00e+00	0	43	0	2894069760	6	4338
2026-01-02 01:28:28.32	150.21	21.45	-23.4	-25.0	18.1	0.00e+00	0	43	0	2899312640	6	4326
2026-01-02 01:28:29.32	150.37	21.34	-23.5	-25.0	18.1	0.00e+00	0	44	0	2905604096	6	4323
2026-01-02 01:28:30.32	150.53	21.23	-23.5	-25.1	18.0	0.00e+00	0	43	0	2910846976	6	4344
2026-01-02 01:28:31.33	150.69	21.12	-23.7	-25.1	17.8	0.00e+00	0	43	0	2916089856	7	4212
2026-01-02 01:28:32.33	150.85	21.01	-23.8	-25.4	17.6	0.00e+00	0	43	0	2922381312	7	4290
2026-01-02 01:28:33.34	151.00	20.90	-23.7	-25.0	17.8	0.00e+00	0	44	0	2927624192	7	4188
2026-01-02 01:28:34.34	151.16	20.79	-23.9	-25.5	17.5	0.00e+00	0	43	0	2932867072	7	4324
2026-01-02 01:28:35.34	151.32	20.68	-23.9	-25.4	17.6	0.00e+00	0	43	0	2939158528	7	4310
2026-01-02 01:28:36.34	151.47	20.58	-24.0	-25.2	17.5	0.00e+00	0	43	0	2944401408	8	4128
2026-01-02 01:28:37.35	151.62	20.47	-24.0	-25.2	17.5	0.00e+00	0	43	0	2949644288	8	4134
2026-01-02 01:28:38.35	151.78	20.36	-24.0	-25.2	17.5	0.00e+00	0	43	0	2955935744	8	4137
2026-01-02 01:28:39.35	151.93	20.25	-24.0	-25.3	17.4	0.00e+00	0	43	0	2961178624	8	4159
2026-01-02 01:28:40.35	152.08	20.14	-23.9	-25.1	17.5	0.00e+00	0	43	0	2967470080	8	4117
2026-01-02 01:28:41.35	152.22	20.04	-24.0	-25.1	17.5	0.00e+00	0	43	0	2972712960	8	4123
2026-01-02 01:28:42.35	152.37	19.93	-24.0	-25.1	17.5	0.00e+00	0	43	0	2977955840	8	4128
2026-01-02 01:28:43.36	152.52	19.82	-23.9	-25.1	17.5	2.20e-06	0	43	0	2984247296	8	4105
2026-01-02 01:28:44.36	152.67	19.72	-23.9	-25.1	17.5	0.00e+00	0	43	0	2989490176	8	4110
2026-01-02 01:28:45.36	152.81	19.61	-24.0	-25.2	17.4	0.00e+00	0	43	0	2995781632	8	4130
2026-01-02 01:28:46.37	152.96	19.51	-24.0	-25.3	17.3	0.00e+00	0	43	0	3001024512	8	4172
2026-01-02 01:28:47.37	153.10	19.40	-24.0	-25.3	17.3	0.00e+00	0	43	0	3006267392	8	4166
2026-01-02 01:28:48.38	153.24	19.29	-24.1	-25.4	17.3	0.00e+00	0	43	0	3012558848	8	4195
2026-01-02 01:28:49.38	153.38	19.19	-24.0	-25.2	17.4	2.20e-06	0	43	0	3017801728	8	4125
2026-01-02 01:28:50.38	153.52	19.09	-24.0	-25.2	17.4	0.00e+00	0	43	0	3023044608	8	4143
2026-01-02 01:28:51.39	153.66	18.98	-24.1	-25.5	17.2	0.00e+00	0	43	0	3029336064	8	4213
2026-01-02 01:28:52.40	153.80	18.88	-24.2	-25.7	17.1	4.50e-06	0	43	0	3034578944	8	4265
2026-01-02 01:28:53.40	153.94	18.77	-24.2	-25.7	17.1	0.00e+00	0	43	0	3040870400	8	4256
2026-01-02 01:28:54.40	154.08	18.67	-24.1	-25.4	17.3	0.00e+00	0	43	0	3046113280	8	4194
2026-01-02 01:28:55.39	154.21	18.57	-24.3	-25.8	17.0	1.10e-06	0	43	0	3051356160	8	4306
2026-01-02 01:28:56.40	154.35	18.46	-24.3	-25.4	17.0	0.00e+00	0	43	0	3057647616	9	4068
2026-01-02 01:28:57.40	154.48	18.36	-24.1	-25.0	17.2	0.00e+00	0	43	0	3062890496	9	3994
2026-01-02 01:28:58.40	154.61	18.26	-24.3	-25.9	17.0	1.10e-06	0	43	0	3068133376	8	4319
2026-01-02 01:28:59.40	154.75	18.16	-24.3	-26.0	17.0	0.00e+00	0	43	0	3074424832	8	4349
2026-01-02 01:29:00.40	154.88	18.06	-24.2	-25.6	17.1	0.00e+00	0	43	0	3079667712	8	4260
2026-01-02 01:29:01.40	155.01	17.95	-24.3	-25.8	17.0	8.00e-06	0	44	0	3084910592	8	4305
2026-01-02 01:29:02.41	155.14	17.85	-24.3	-26.0	17.0	0.00e+00	0	43	0	3091202048	8	4346
2026-01-02 01:29:03.41	155.27	17.75	-24.4	-26.1	16.9	0.00e+00	0	43	0	3096444928	8	4373
2026-01-02 01:29:04.41	155.39	17.65	-24.4	-26.0	16.9	1.14e-05	0	43	0	3102736384	8	4364
2026-01-02 01:29:05.42	155.52	17.55	-24.4	-26.1	16.9	0.00e+00	0	43	0	3107979264	8	4367
2026-01-02 01:29:06.42	155.65	17.45	-24.4	-26.0	16.9	0.00e+00	0	43	0	3114270720	8	4366
2026-01-02 01:29:07.43	155.77	17.35	-24.4	-26.2	16.8	1.09e-03	0	44	0	3119513600	8	4407
2026-01-02 01:29:08.43	155.90	17.25	-24.5	-26.3	16.8	0.00e+00	0	43	0	3124756480	8	4435
2026-01-02 01:29:09.43	156.02	17.15	-24.4	-25.7	16.8	1.07e-03	0	43	0	3131047936	9	4152
2026-01-02 01:29:10.44	156.15	17.05	-24.4	-25.7	16.8	8.00e-06	0	43	0	3136290816	9	4155
2026-01-02 01:29:11.45	156.27	16.95	-24.5	-25.8	16.8	4.34e-05	0	43	0	3141533696	9	4183
2026-01-02 01:29:12.44	156.39	16.86	-24.5	-25.8	16.7	5.81e-04	0	43	0	3147825152	9	4194
2026-01-02 01:29:13.44	156.51	16.76	-24.5	-25.8	16.7	8.00e-06	0	43	0	3153068032	9	4189
2026-01-02 01:29:14.44	156.63	16.66	-24.2	-25.3	17.0	0.00e+00	0	43	0	3158310912	9	4045
2026-01-02 01:29:15.44	156.75	16.56	-24.2	-25.6	17.1	0.00e+00	0	43	0	3164602368	8	4253
2026-01-02 01:29:16.45	156.87	16.46	-24.3	-25.8	17.0	1.05e-03	0	43	0	3169845248	8	4303
2026-01-02 01:29:17.45	156.99	16.37	-24.3	-25.8	17.0	0.00e+00	0	43	0	3176136704	8	4295
2026-01-02 01:29:18.45	157.10	16.27	-24.3	-25.8	17.0	0.00e+00	0	43	0	3181379584	8	4286
2026-01-02 01:29:19.46	157.22	16.17	-24.5	-25.8	16.7	1.19e-03	0	43	0	3187671040	9	4177
2026-01-02 01:29:20.46	157.34	16.08	-24.4	-25.6	16.8	0.00e+00	0	43	0	3192913920	9	4135
2026-01-02 01:29:21.47	157.45	15.98	-24.5	-25.7	16.8	1.21e-03	0	43	0	3198156800	9	4164
2026-01-02 01:29:22.47	157.57	15.89	-24.6	-26.0	16.6	0.00e+00	0	43	0	3204448256	9	4241
2026-01-02 01:29:23.48	157.68	15.79	-24.6	-26.0	16.6	0.00e+00	0	43	0	3209691136	9	4245
2026-01-02 01:29:24.48	157.79	15.69	-24.7	-26.3	16.5	1.10e-03	0	43	0	3214934016	9	4308
2026-01-02 01:29:25.49	157.91	15.60	-24.7	-26.2	16.5	1.05e-03	0	43	0	3221225472	9	4281
2026-01-02 01:29:26.49	158.02	15.50	-24.7	-26.3	16.4	0.00e+00	0	43	0	3226468352	9	4326
2026-01-02 01:29:27.50	158.13	15.41	-24.8	-26.5	16.3	1.07e-03	0	43	0	3231711232	9	4367
2026-01-02 01:29:28.49	158.24	15.32	-24.8	-26.5	16.4	1.09e-03	0	43	0	3238002688	9	4369
2026-01-02 01:29:29.49	158.35	15.22	-24.9	-26.7	16.2	0.00e+00	0	44	0	3243245568	9	4420
2026-01-02 01:29:30.49	158.46	15.13	-24.8	-26.6	16.3	9.93e-04	0	43	0	3249537024	9	4394
2026-01-02 01:29:31.49	158.56	15.04	-25.0	-26.5	16.1	1.09e-03	0	43	0	3254779904	10	4258
2026-01-02 01:29:32.50	158.67	14.94	-25.2	-26.9	15.8	0.00e+00	0	43	0	3260022784	10	4367
2026-01-02 01:29:33.50	158.78	14.85	-25.2	-26.8	15.9	1.06e-03	0	43	0	3266314240	10	4352
2026-01-02 01:29:34.51	158.89	14.76	-25.2	-26.8	15.9	1.01e-03	0	44	0	3271557120	10	4339
2026-01-02 01:29:35.51	158.99	14.67	-25.2	-26.9	15.8	0.00e+00	0	43	0	3277848576	10	4369
2026-01-02 01:29:36.52	159.10	14.57	-25.3	-27.1	15.7	0.00e+00	0	43	0	3283091456	10	4431
2026-01-02 01:29:37.52	159.20	14.48	-25.3	-27.0	15.8	1.13e-03	0	43	0	3288334336	10	4398
2026-01-02 01:29:38.52	159.31	14.39	-25.4	-27.3	15.6	0.00e+00	0	43	0	3294625792	10	4491
2026-01-02 01:29:39.52	159.41	14.30	-25.8	-27.6	15.2	1.22e-03	0	43	0	3299868672	11	4448
2026-01-02 01:29:40.52	159.51	14.21	-25.8	-27.2	15.0	1.19e-03	0	43	0	3305111552	12	4239
2026-01-02 01:29:41.52	159.61	14.12	-25.5	-26.6	15.3	0.00e+00	0	43	0	3311403008	12	4079
2026-01-02 01:29:42.53	159.71	14.03	-25.3	-27.0	15.7	1.08e-03	0	43	0	3316645888	10	4402
2026-01-02 01:29:43.54	159.82	13.94	-25.2	-26.9	15.8	0.00e+00	0	43	0	3322937344	10	4371
2026-01-02 01:29:44.54	159.92	13.85	-25.3	-27.0	15.7	0.00e+00	0	43	0	3328180224	10	4409
2026-01-02 01:29:45.54	160.02	13.76	-25.2	-27.0	15.7	1.08e-03	0	43	0	3333423104	10	4385
2026-01-02 01:29:46.54	160.11	13.67	-25.2	-26.9	15.7	1.26e-03	0	43	0	3339714560	10	4384
2026-01-02 01:29:47.55	160.21	13.58	-25.1	-26.7	15.9	0.00e+00	0	43	0	3344957440	10	4325
2026-01-02 01:29:48.55	160.31	13.49	-25.2	-27.0	15.7	0.00e+00	0	43	0	3350200320	10	4391
2026-01-02 01:29:49.54	160.41	13.40	-25.3	-27.0	15.7	1.37e-03	0	43	0	3356491776	10	4403
2026-01-02 01:29:50.55	160.51	13.31	-25.2	-27.0	15.7	0.00e+00	0	44	0	3361734656	10	4404
2026-01-02 01:29:51.55	160.60	13.22	-25.3	-27.2	15.5	1.34e-03	0	43	0	3366977536	10	4458
2026-01-02 01:29:52.56	160.70	13.14	-25.4	-27.3	15.5	0.00e+00	0	43	0	3373268992	10	4479
2026-01-02 01:29:53.57	160.79	13.05	-25.3	-27.1	15.6	0.00e+00	0	43	0	3378511872	10	4441
2026-01-02 01:29:54.57	160.89	12.96	-25.3	-27.1	15.6	0.00e+00	0	43	0	3384803328	10	4432
2026-01-02 01:29:55.58	160.98	12.87	-25.3	-27.0	15.7	0.00e+00	0	44	0	3390046208	10	4413
2026-01-02 01:29:56.58	161.08	12.79	-25.3	-27.1	15.6	0.00e+00	0	43	0	3396337664	10	4442
2026-01-02 01:29:57.58	161.17	12.70	-25.4	-27.3	15.5	0.00e+00	0	43	0	3401580544	10	4494
2026-01-02 01:29:58.58	161.26	12.61	-25.4	-27.2	15.5	1.32e-03	0	43	0	3406823424	10	4467
2026-01-02 01:29:59.58	161.35	12.53	-25.5	-27.5	15.4	0.00e+00	0	43	0	3413114880	10	4533
2026-01-02 01:30:00.60	161.45	12.44	-25.4	-27.4	15.4	0.00e+00	0	43	0	3418357760	10	4512
2026-01-02 01:30:01.60	161.54	12.35	-25.4	-27.2	15.5	0.00e+00	0	43	0	3423600640	10	4466
2026-01-02 01:30:02.60	161.63	12.27	-25.4	-27.4	15.4	0.00e+00	0	43	0	3429892096	10	4509
2026-01-02 01:30:03.60	161.72	12.18	-25.4	-27.3	15.5	1.24e-03	0	44	0	3435134976	10	4484
2026-01-02 01:30:04.60	161.81	12.10	-25.4	-27.3	15.5	0.00e+00	0	43	0	3440377856	10	4477
2026-01-02 01:30:05.60	161.89	12.01	-25.4	-27.4	15.4	0.00e+00	0	43	0	3446669312	10	4519
2026-01-02 01:30:06.60	161.98	11.93	-25.4	-27.4	15.4	0.00e+00	0	43	0	3451912192	10	4514
2026-01-02 01:30:07.61	162.07	11.85	-25.4	-27.3	15.4	0.00e+00	0	43	0	3458203648	10	4504
2026-01-02 01:30:08.61	162.16	11.76	-25.5	-27.1	15.3	0.00e+00	0	43	0	3463446528	11	4323
2026-01-02 01:30:09.61	162.24	11.68	-25.6	-27.4	15.1	0.00e+00	0	43	0	3469737984	11	4405
2026-01-02 01:30:10.62	162.33	11.59	-25.7	-27.5	15.0	0.00e+00	0	43	0	3474980864	11	4451
2026-01-02 01:30:11.62	162.42	11.51	-25.7	-27.4	15.0	0.00e+00	0	43	0	3480223744	11	4428
2026-01-02 01:30:12.62	162.50	11.43	-25.7	-27.5	15.0	0.00e+00	0	43	0	3486515200	11	4446
2026-01-02 01:30:13.63	162.59	11.34	-25.7	-27.6	15.0	0.00e+00	0	43	0	3491758080	11	4467
2026-01-02 01:30:14.63	162.67	11.26	-25.7	-27.6	14.9	0.00e+00	0	43	0	3497000960	11	4489
2026-01-02 01:30:15.63	162.76	11.18	-25.7	-27.6	15.0	0.00e+00	0	43	0	3503292416	11	4463
2026-01-02 01:30:16.63	162.84	11.10	-25.8	-27.9	14.8	0.00e+00	0	43	0	3508535296	11	4563
2026-01-02 01:30:17.63	162.92	11.02	-25.8	-27.9	14.8	0.00e+00	0	43	0	3513778176	11	4574
2026-01-02 01:30:18.63	163.01	10.93	-25.9	-28.1	14.6	0.00e+00	0	43	0	3520069632	11	4645
2026-01-02 01:30:19.63	163.09	10.85	-25.8	-27.4	14.7	0.00e+00	0	43	0	3525312512	12	4311
2026-01-02 01:30:20.63	163.17	10.77	-25.7	-27.2	14.7	0.00e+00	0	43	0	3531603968	12	4273
2026-01-02 01:30:21.64	163.25	10.69	-25.8	-27.8	14.8	0.00e+00	0	44	0	3536846848	11	4541
2026-01-02 01:30:22.64	163.33	10.61	-25.8	-27.9	14.7	0.00e+00	0	43	0	3542089728	11	4576
2026-01-02 01:30:23.64	163.41	10.53	-25.8	-27.9	14.7	0.00e+00	0	43	0	3548381184	11	4562
2026-01-02 01:30:24.64	163.49	10.45	-25.8	-27.9	14.7	5.70e-06	0	43	0	3553624064	11	4566
2026-01-02 01:30:25.65	163.58	10.37	-25.7	-27.6	14.9	0.00e+00	0	43	0	3558866944	11	4481
2026-01-02 01:30:26.66	163.66	10.29	-25.8	-27.7	14.9	0.00e+00	0	43	0	3565158400	11	4512
2026-01-02 01:30:27.65	163.73	10.21	-25.7	-27.6	14.8	0.00e+00	0	43	0	3570401280	11	4486
2026-01-02 01:30:28.66	163.81	10.13	-25.8	-27.8	14.8	0.00e+00	0	43	0	3575644160	11	4532
2026-01-02 01:30:29.66	163.89	10.05	-25.9	-28.1	14.6	1.10e-06	0	43	0	3581935616	11	4624
2026-01-02 01:30:30.66	163.97	9.97	-25.9	-27.9	14.7	0.00e+00	0	43	0	3587178496	11	4570
2026-01-02 01:30:31.67	164.05	9.89	-25.7	-27.7	14.8	1.10e-06	0	43	0	3593469952	11	4485
2026-01-02 01:30:32.66	164.12	9.81	-25.9	-27.9	14.7	0.00e+00	0	43	0	3598712832	11	4562
2026-01-02 01:30:33.66	164.20	9.73	-25.8	-27.8	14.7	1.02e-05	0	43	0	3605004288	11	4529
2026-01-02 01:30:34.66	164.27	9.66	-25.9	-28.0	14.6	0.00e+00	0	43	0	3610247168	11	4584
2026-01-02 01:30:35.66	164.35	9.58	-25.8	-27.8	14.7	0.00e+00	0	43	0	3615490048	11	4537
2026-01-02 01:30:36.66	164.43	9.50	-25.9	-27.5	14.5	9.10e-06	0	43	0	3621781504	12	4325
2026-01-02 01:30:37.66	164.50	9.42	-26.2	-28.1	14.2	0.00e+00	0	43	0	3627024384	12	4511
2026-01-02 01:30:38.67	164.58	9.34	-26.0	-27.8	14.4	1.10e-06	0	43	0	3632267264	12	4405
2026-01-02 01:30:39.68	164.65	9.27	-25.9	-27.6	14.5	1.10e-06	0	43	0	3638558720	12	4352
2026-01-02 01:30:40.68	164.72	9.19	-26.0	-27.7	14.4	0.00e+00	0	43	0	3643801600	12	4392
2026-01-02 01:30:41.68	164.80	9.11	-26.2	-28.1	14.2	1.10e-06	0	43	0	3649044480	12	4505
2026-01-02 01:30:42.69	164.87	9.03	-26.1	-28.0	14.2	9.10e-06	0	43	0	3655335936	12	4475
2026-01-02 01:30:43.69	164.94	8.96	-26.2	-28.1	14.2	2.20e-06	0	44	0	3660578816	12	4506
2026-01-02 01:30:44.70	165.02	8.88	-26.2	-28.1	14.2	2.20e-06	0	43	0	3666870272	12	4499
2026-01-02 01:30:45.70	165.09	8.81	-26.4	-28.6	13.9	1.25e-05	0	43	0	3672113152	12	4641
2026-01-02 01:30:46.70	165.16	8.73	-26.2	-28.2	14.1	2.20e-06	0	43	0	3677356032	12	4550
2026-01-02 01:30:47.69	165.23	8.65	-26.1	-27.9	14.3	1.10e-06	0	43	0	3683647488	12	4445
2026-01-02 01:30:48.70	165.30	8.58	-26.1	-28.1	14.2	1.37e-05	0	43	0	3688890368	12	4496
2026-01-02 01:30:49.69	165.37	8.50	-26.0	-27.7	14.4	0.00e+00	0	43	0	3694133248	12	4384
2026-01-02 01:30:50.69	165.44	8.43	-26.1	-28.0	14.2	1.10e-06	0	43	0	3700424704	12	4469
2026-01-02 01:30:51.69	165.51	8.35	-26.1	-28.0	14.2	3.40e-06	0	43	0	3705667584	12	4479
2026-01-02 01:30:52.69	165.58	8.28	-26.2	-28.1	14.1	1.10e-06	0	44	0	3710910464	12	4503
2026-01-02 01:30:53.69	165.65	8.21	-26.2	-28.3	14.0	0.00e+00	0	43	0	3717201920	12	4565
2026-01-02 01:30:54.70	165.72	8.13	-26.1	-28.0	14.2	2.20e-06	0	43	0	3722444800	12	4474
2026-01-02 01:30:55.70	165.79	8.06	-26.2	-28.2	14.0	1.10e-06	0	43	0	3728736256	12	4540
2026-01-02 01:30:56.71	165.86	7.98	-26.3	-28.4	13.9	0.00e+00	0	43	0	3733979136	12	4602
2026-01-02 01:30:57.71	165.93	7.91	-26.2	-28.2	14.0	2.20e-06	0	43	0	3740270592	12	4538
2026-01-02 01:30:58.71	165.99	7.83	-26.1	-28.0	14.1	1.10e-06	0	43	0	3745513472	12	4470
2026-01-02 01:30:59.72	166.06	7.76	-26.1	-28.0	14.2	1.10e-06	0	43	0	3750756352	12	4458
2026-01-02 01:31:00.72	166.13	7.69	-26.2	-28.1	14.1	0.00e+00	0	43	0	3757047808	12	4496
2026-01-02 01:31:01.72	166.19	7.61	-26.2	-28.1	14.1	0.00e+00	0	43	0	3762290688	12	4503
2026-01-02 01:31:02.72	166.26	7.54	-25.5	-27.4	13.9	2.20e-06	0	43	0	3767533568	12	4454
2026-01-02 01:31:03.71	166.33	7.47	-26.0	-28.2	12.8	3.40e-06	0	43	0	3773825024	12	4629
2026-01-02 01:31:04.72	166.39	7.40	-26.3	-28.4	13.8	2.20e-06	0	43	0	3779067904	12	4603
2026-01-02 01:31:05.72	166.46	7.32	-26.4	-28.2	12.9	9.10e-06	0	43	0	3784310784	13	4436
2026-01-02 01:31:06.73	166.52	7.25	-26.6	-28.7	13.4	1.60e-05	0	43	0	3790602240	13	4556
2026-01-02 01:31:07.73	166.59	7.18	-26.6	-28.7	13.4	1.14e-05	0	43	0	3795845120	13	4553
2026-01-02 01:31:08.74	166.65	7.11	-26.8	-29.1	13.2	1.02e-05	0	43	0	3802136576	13	4694
2026-01-02 01:31:09.74	166.72	7.04	-32.1	-43.0	3.8	8.46e-01	0	43	104	3805282304	24	12649

#Closed at: 2026-01-02 01:31:10
#Recorded file [3805 MB]: D:/data/31010_260102_041952.dat