passes_logs/2026/01/02/R2M6_AANII_01/R2M6_AANII_01__20260102_111302_FENGYUN_3D_rec.log

#Pass ID: 20260102_111302_FENGYUN 3D
#Satellite: FENGYUN 3D
#Configuration: FENGYUN 3D
#almurnet v.1.7.20240730
#Start time: 2026-01-02 11:13:02

#Version: 2.2.20231116
#Station: R2M6_AANII_01
#Location: 30.233357 lon 59.946436 lat
#TLE: 1 43010U 17072A   26001.33100487  .00000602  00000+0  30664-3 0  9999
#TLE: 2 43010  98.9910 332.9374 0001848 133.1047 227.0283 14.19692078421319

#Time	Az	El	Level	Level2	SNR	BER	BlckErr	Temp	State	Recorded	gain1	gain2
2026-01-02 11:13:02.76	125.55	7.01	-29.7	-33.0	5.3	7.93e-01	0	41	0	0	20	5224
2026-01-02 11:13:03.76	125.50	7.09	-29.6	-32.6	5.3	7.91e-01	0	41	104	0	20	5095
2026-01-02 11:13:04.77	125.44	7.16	-29.6	-32.6	9.4	1.32e-02	0	41	0	0	20	5043
2026-01-02 11:13:05.77	125.39	7.23	-29.6	-32.6	9.4	1.20e-02	0	41	0	5242880	20	5071
2026-01-02 11:13:06.78	125.33	7.31	-29.7	-32.6	9.4	1.13e-02	0	41	0	11534336	20	5071
2026-01-02 11:13:07.78	125.28	7.38	-29.4	-31.8	10.0	8.57e-03	0	41	0	16777216	20	4758
2026-01-02 11:13:08.79	125.22	7.46	-29.4	-32.3	10.1	5.40e-03	0	41	0	22020096	19	5052
2026-01-02 11:13:09.80	125.17	7.53	-29.5	-32.5	9.9	6.09e-03	0	41	0	28311552	19	5113
2026-01-02 11:13:10.80	125.11	7.61	-29.7	-33.3	9.5	1.06e-02	0	41	0	33554432	19	5402
2026-01-02 11:13:11.81	125.05	7.68	-29.5	-32.7	9.8	8.97e-03	0	41	0	39845888	19	5188
2026-01-02 11:13:12.81	125.00	7.76	-29.1	-31.4	10.8	3.27e-03	0	41	0	45088768	19	4723
2026-01-02 11:13:13.82	124.94	7.83	-28.6	-30.6	11.6	6.79e-04	0	41	0	50331648	18	4546
2026-01-02 11:13:14.83	124.88	7.91	-28.1	-30.0	12.3	2.04e-04	0	41	0	56623104	17	4464
2026-01-02 11:13:15.83	124.82	7.98	-27.8	-29.2	12.7	5.03e-05	0	41	0	61865984	17	4242
2026-01-02 11:13:16.83	124.77	8.06	-27.4	-28.8	13.3	2.17e-05	0	41	0	67108864	16	4238
2026-01-02 11:13:17.84	124.71	8.14	-27.0	-28.3	13.7	1.02e-05	0	41	0	73400320	15	4192
2026-01-02 11:13:18.84	124.65	8.21	-27.0	-28.3	13.8	5.70e-06	0	41	0	78643200	15	4187
2026-01-02 11:13:19.84	124.59	8.29	-26.9	-28.1	13.9	4.50e-06	0	41	0	84934656	15	4150
2026-01-02 11:13:20.84	124.53	8.37	-27.1	-28.6	13.6	6.80e-06	0	42	0	90177536	15	4279
2026-01-02 11:13:21.85	124.47	8.44	-27.0	-28.3	13.8	2.20e-06	0	41	0	95420416	15	4207
2026-01-02 11:13:22.85	124.41	8.52	-26.9	-28.2	13.9	0.00e+00	0	41	0	101711872	15	4163
2026-01-02 11:13:23.86	124.35	8.60	-27.0	-28.3	13.8	2.20e-06	0	41	0	106954752	15	4196
2026-01-02 11:13:24.86	124.29	8.68	-27.1	-28.6	13.6	4.50e-06	0	42	0	113246208	15	4272
2026-01-02 11:13:25.86	124.23	8.75	-26.9	-28.2	13.9	1.10e-06	0	42	0	118489088	15	4159
2026-01-02 11:13:26.86	124.17	8.83	-27.1	-28.5	13.7	0.00e+00	0	42	0	123731968	15	4253
2026-01-02 11:13:27.86	124.11	8.91	-27.0	-28.2	13.9	0.00e+00	0	42	0	130023424	15	4172
2026-01-02 11:13:28.86	124.04	8.99	-26.8	-27.9	14.1	0.00e+00	0	42	0	135266304	15	4084
2026-01-02 11:13:29.87	123.98	9.07	-26.7	-28.1	14.3	0.00e+00	0	42	0	140509184	14	4240
2026-01-02 11:13:30.87	123.92	9.14	-26.7	-28.2	14.2	0.00e+00	0	42	0	146800640	14	4257
2026-01-02 11:13:31.87	123.86	9.22	-26.7	-28.1	14.3	0.00e+00	0	42	0	152043520	14	4231
2026-01-02 11:13:32.87	123.79	9.30	-26.6	-28.0	14.4	1.10e-06	0	42	0	158334976	14	4200
2026-01-02 11:13:33.87	123.73	9.38	-26.7	-28.1	14.3	1.10e-06	0	42	0	163577856	14	4238
2026-01-02 11:13:34.88	123.67	9.46	-26.5	-27.8	14.5	0.00e+00	0	42	0	168820736	14	4146
2026-01-02 11:13:35.89	123.60	9.54	-26.5	-27.7	14.6	0.00e+00	0	42	0	175112192	14	4120
2026-01-02 11:13:36.89	123.54	9.62	-26.6	-27.8	14.5	1.10e-06	0	42	0	180355072	14	4150
2026-01-02 11:13:37.89	123.47	9.70	-26.7	-28.0	14.4	0.00e+00	0	42	0	185597952	14	4216
2026-01-02 11:13:38.89	123.41	9.78	-26.7	-28.0	14.4	0.00e+00	0	42	0	191889408	14	4218
2026-01-02 11:13:39.89	123.34	9.86	-26.8	-28.4	14.1	1.10e-06	0	42	0	197132288	14	4317
2026-01-02 11:13:40.90	123.27	9.95	-26.6	-28.0	14.4	2.20e-06	0	42	0	202375168	14	4194
2026-01-02 11:13:41.90	123.21	10.03	-26.5	-27.6	14.6	0.00e+00	0	42	0	208666624	14	4091
2026-01-02 11:13:42.91	123.14	10.11	-26.5	-27.6	14.6	2.20e-06	0	42	0	213909504	14	4111
2026-01-02 11:13:43.91	123.07	10.19	-26.5	-27.7	14.6	0.00e+00	0	42	0	220200960	14	4122
2026-01-02 11:13:44.91	123.00	10.27	-26.6	-27.8	14.5	1.10e-06	0	42	0	225443840	14	4161
2026-01-02 11:13:45.92	122.94	10.35	-26.5	-27.6	14.7	0.00e+00	0	42	0	231735296	14	4087
2026-01-02 11:13:46.92	122.87	10.44	-26.6	-27.8	14.5	0.00e+00	0	42	0	236978176	14	4158
2026-01-02 11:13:47.92	122.80	10.52	-26.4	-27.5	14.7	1.10e-06	0	42	0	242221056	14	4068
2026-01-02 11:13:48.93	122.73	10.60	-26.2	-27.4	15.1	0.00e+00	0	42	0	248512512	13	4139
2026-01-02 11:13:49.92	122.66	10.68	-26.2	-27.5	15.0	0.00e+00	0	42	0	253755392	13	4166
2026-01-02 11:13:50.92	122.59	10.77	-26.2	-27.5	15.0	0.00e+00	0	42	0	258998272	13	4178
2026-01-02 11:13:51.93	122.52	10.85	-26.2	-27.5	15.0	0.00e+00	0	42	0	265289728	13	4185
2026-01-02 11:13:52.93	122.45	10.94	-26.2	-27.6	15.0	0.00e+00	0	42	0	270532608	13	4202
2026-01-02 11:13:53.93	122.38	11.02	-26.1	-27.2	15.2	0.00e+00	0	42	0	275775488	13	4103
2026-01-02 11:13:54.94	122.30	11.10	-26.1	-27.2	15.2	6.80e-06	0	42	0	282066944	13	4084
2026-01-02 11:13:55.94	122.23	11.19	-26.1	-27.3	15.2	0.00e+00	0	42	0	287309824	13	4122
2026-01-02 11:13:56.94	122.16	11.27	-26.1	-27.2	15.2	0.00e+00	0	42	0	293601280	13	4085
2026-01-02 11:13:57.94	122.09	11.36	-26.0	-27.0	15.3	0.00e+00	0	42	0	298844160	13	4051
2026-01-02 11:13:58.95	122.01	11.44	-26.0	-27.0	15.3	0.00e+00	0	42	0	304087040	13	4049
2026-01-02 11:13:59.95	121.94	11.53	-25.9	-26.9	15.4	0.00e+00	0	42	0	310378496	13	4014
2026-01-02 11:14:00.96	121.86	11.62	-25.9	-26.8	15.5	0.00e+00	0	42	0	315621376	13	3984
2026-01-02 11:14:01.96	121.79	11.70	-26.0	-27.0	15.3	0.00e+00	0	42	0	321912832	13	4051
2026-01-02 11:14:02.97	121.71	11.79	-25.9	-26.8	15.5	0.00e+00	0	43	0	327155712	13	3979
2026-01-02 11:14:03.97	121.64	11.87	-25.9	-26.7	15.5	1.10e-06	0	42	0	332398592	13	3968
2026-01-02 11:14:04.97	121.56	11.96	-26.0	-27.0	15.3	0.00e+00	0	42	0	338690048	13	4040
2026-01-02 11:14:05.97	121.48	12.05	-26.0	-27.0	15.4	0.00e+00	0	42	0	343932928	13	4052
2026-01-02 11:14:06.98	121.40	12.14	-26.0	-27.0	15.4	2.20e-06	0	43	0	349175808	13	4030
2026-01-02 11:14:07.98	121.33	12.22	-26.0	-27.1	15.3	0.00e+00	0	42	0	355467264	13	4063
2026-01-02 11:14:08.99	121.25	12.31	-26.2	-27.5	15.1	0.00e+00	0	43	0	360710144	13	4181
2026-01-02 11:14:09.99	121.17	12.40	-26.1	-27.4	15.2	2.20e-06	0	42	0	367001600	13	4141
2026-01-02 11:14:11.00	121.09	12.49	-26.1	-27.3	15.2	0.00e+00	0	43	0	372244480	13	4113
2026-01-02 11:14:12.01	121.01	12.58	-26.1	-27.3	15.2	0.00e+00	0	43	0	377487360	13	4128
2026-01-02 11:14:13.01	120.93	12.67	-26.1	-27.2	15.2	1.10e-06	0	43	0	383778816	13	4108
2026-01-02 11:14:14.02	120.85	12.76	-26.0	-27.1	15.3	0.00e+00	0	43	0	389021696	13	4075
2026-01-02 11:14:15.03	120.77	12.85	-26.3	-27.7	15.0	0.00e+00	0	43	0	395313152	13	4217
2026-01-02 11:14:16.03	120.68	12.94	-26.0	-27.1	15.3	0.00e+00	0	43	0	400556032	13	4080
2026-01-02 11:14:17.04	120.60	13.03	-26.0	-27.1	15.4	0.00e+00	0	43	0	405798912	13	4064
2026-01-02 11:14:18.04	120.52	13.12	-26.0	-27.1	15.3	0.00e+00	0	43	0	412090368	13	4085
2026-01-02 11:14:19.05	120.43	13.21	-26.1	-27.3	15.3	0.00e+00	0	43	0	417333248	13	4114
2026-01-02 11:14:20.04	120.35	13.30	-25.9	-26.8	15.5	0.00e+00	0	43	0	422576128	13	3994
2026-01-02 11:14:21.05	120.27	13.39	-25.8	-26.6	15.6	0.00e+00	0	43	0	428867584	13	3950
2026-01-02 11:14:22.06	120.18	13.48	-25.9	-26.8	15.5	0.00e+00	0	43	0	434110464	13	3988
2026-01-02 11:14:23.06	120.10	13.57	-25.8	-26.7	15.6	0.00e+00	0	43	0	440401920	13	3963
2026-01-02 11:14:24.06	120.01	13.67	-25.9	-26.8	15.5	0.00e+00	0	43	0	445644800	13	3998
2026-01-02 11:14:25.06	119.92	13.76	-26.0	-27.1	15.4	1.10e-06	0	43	0	451936256	13	4063
2026-01-02 11:14:26.07	119.83	13.85	-25.9	-26.8	15.6	0.00e+00	0	43	0	457179136	13	3989
2026-01-02 11:14:27.06	119.75	13.94	-25.8	-26.6	15.7	0.00e+00	0	43	0	462422016	13	3942
2026-01-02 11:14:28.07	119.66	14.04	-25.9	-26.7	15.6	0.00e+00	0	43	0	468713472	13	3969
2026-01-02 11:14:29.07	119.57	14.13	-25.8	-26.6	15.7	0.00e+00	0	43	0	473956352	13	3942
2026-01-02 11:14:30.07	119.48	14.22	-25.9	-26.8	15.6	0.00e+00	0	43	0	479199232	13	3984
2026-01-02 11:14:31.07	119.39	14.32	-25.8	-26.7	15.6	0.00e+00	0	43	0	485490688	13	3964
2026-01-02 11:14:32.08	119.30	14.41	-25.8	-26.7	15.7	0.00e+00	0	43	0	490733568	13	3958
2026-01-02 11:14:33.08	119.21	14.51	-25.9	-26.8	15.6	0.00e+00	0	43	0	495976448	13	3979
2026-01-02 11:14:34.08	119.12	14.60	-25.7	-26.9	15.8	0.00e+00	0	43	0	502267904	12	4131
2026-01-02 11:14:35.08	119.03	14.69	-25.9	-27.2	15.6	0.00e+00	0	43	0	507510784	12	4206
2026-01-02 11:14:36.08	118.93	14.79	-25.7	-26.8	15.9	0.00e+00	0	43	0	513802240	12	4104
2026-01-02 11:14:37.08	118.84	14.89	-25.7	-26.8	15.9	0.00e+00	0	43	0	519045120	12	4095
2026-01-02 11:14:38.09	118.74	14.98	-25.6	-26.7	15.9	0.00e+00	0	43	0	524288000	12	4074
2026-01-02 11:14:39.09	118.65	15.08	-25.5	-26.5	16.0	0.00e+00	0	43	0	530579456	12	4018
2026-01-02 11:14:40.09	118.55	15.17	-25.6	-26.6	16.0	0.00e+00	0	43	0	535822336	12	4048
2026-01-02 11:14:41.10	118.46	15.27	-25.5	-26.4	16.1	0.00e+00	0	43	0	541065216	12	3993
2026-01-02 11:14:42.10	118.36	15.37	-25.5	-26.4	16.1	0.00e+00	0	43	0	547356672	12	3992
2026-01-02 11:14:43.10	118.26	15.47	-25.5	-26.5	16.0	0.00e+00	0	43	0	552599552	12	4015
2026-01-02 11:14:44.10	118.17	15.56	-25.4	-26.2	16.2	0.00e+00	0	43	0	557842432	12	3950
2026-01-02 11:14:45.10	118.07	15.66	-25.4	-26.2	16.2	0.00e+00	0	43	0	564133888	12	3936
2026-01-02 11:14:46.10	117.97	15.76	-25.4	-26.2	16.2	0.00e+00	0	43	0	569376768	12	3934
2026-01-02 11:14:47.11	117.87	15.86	-25.4	-26.2	16.2	0.00e+00	0	43	0	575668224	12	3940
2026-01-02 11:14:48.12	117.77	15.96	-25.5	-26.4	16.1	0.00e+00	0	43	0	580911104	12	3987
2026-01-02 11:14:49.12	117.66	16.06	-25.4	-26.1	16.3	0.00e+00	0	43	0	587202560	12	3930
2026-01-02 11:14:50.12	117.56	16.16	-25.5	-26.3	16.2	0.00e+00	0	43	0	592445440	12	3972
2026-01-02 11:14:51.13	117.46	16.26	-25.6	-26.6	16.0	0.00e+00	0	43	0	597688320	12	4053
2026-01-02 11:14:52.12	117.36	16.36	-25.4	-26.2	16.2	0.00e+00	0	43	0	603979776	12	3946
2026-01-02 11:14:53.13	117.25	16.46	-25.4	-26.2	16.3	0.00e+00	0	43	0	609222656	12	3939
2026-01-02 11:14:54.12	117.15	16.56	-25.4	-26.2	16.2	0.00e+00	0	43	0	614465536	12	3946
2026-01-02 11:14:55.12	117.04	16.66	-25.4	-26.2	16.2	0.00e+00	0	43	0	620756992	12	3956
2026-01-02 11:14:56.13	116.94	16.76	-25.5	-26.4	16.1	0.00e+00	0	43	0	625999872	12	4001
2026-01-02 11:14:57.13	116.83	16.86	-25.7	-26.8	15.9	0.00e+00	0	43	0	631242752	12	4088
2026-01-02 11:14:58.13	116.72	16.97	-25.4	-26.2	16.3	0.00e+00	0	43	0	637534208	12	3939
2026-01-02 11:14:59.13	116.61	17.07	-25.3	-26.5	16.5	0.00e+00	0	43	0	642777088	11	4118
2026-01-02 11:15:00.14	116.50	17.17	-25.3	-26.4	16.5	0.00e+00	0	43	0	649068544	11	4112
2026-01-02 11:15:01.14	116.39	17.27	-25.3	-26.4	16.5	0.00e+00	0	43	0	654311424	11	4101
2026-01-02 11:15:02.15	116.28	17.38	-25.3	-26.4	16.5	0.00e+00	0	43	0	659554304	11	4106
2026-01-02 11:15:03.15	116.17	17.48	-25.1	-26.0	16.8	0.00e+00	0	43	0	665845760	11	3986
2026-01-02 11:15:04.17	116.05	17.59	-25.1	-26.0	16.8	0.00e+00	0	43	0	671088640	11	3986
2026-01-02 11:15:05.17	115.94	17.69	-25.2	-26.2	16.7	0.00e+00	0	43	0	677380096	11	4042
2026-01-02 11:15:06.17	115.83	17.80	-25.1	-25.9	16.8	0.00e+00	0	43	0	682622976	11	3977
2026-01-02 11:15:07.17	115.71	17.90	-25.0	-25.7	16.9	0.00e+00	0	43	0	687865856	11	3932
2026-01-02 11:15:08.17	115.60	18.01	-25.0	-25.7	17.0	0.00e+00	0	43	0	694157312	11	3913
2026-01-02 11:15:09.17	115.48	18.11	-25.0	-25.8	16.9	0.00e+00	0	43	0	699400192	11	3938
2026-01-02 11:15:10.17	115.36	18.22	-25.1	-26.0	16.8	0.00e+00	0	43	0	704643072	11	3997
2026-01-02 11:15:11.18	115.24	18.33	-25.0	-25.8	16.9	0.00e+00	0	43	0	710934528	11	3949
2026-01-02 11:15:12.18	115.13	18.43	-25.1	-25.9	16.9	0.00e+00	0	43	0	716177408	11	3972
2026-01-02 11:15:13.18	115.01	18.54	-25.0	-25.8	16.9	0.00e+00	0	43	0	722468864	11	3948
2026-01-02 11:15:14.18	114.88	18.65	-24.9	-25.6	17.0	0.00e+00	0	43	0	727711744	11	3907
2026-01-02 11:15:15.18	114.76	18.75	-24.8	-25.4	17.1	0.00e+00	0	43	0	732954624	11	3856
2026-01-02 11:15:16.18	114.64	18.86	-25.1	-25.9	16.9	0.00e+00	0	43	0	739246080	11	3973
2026-01-02 11:15:17.18	114.52	18.97	-24.8	-25.8	17.2	0.00e+00	0	43	0	744488960	10	4044
2026-01-02 11:15:18.19	114.39	19.08	-24.6	-25.4	17.4	0.00e+00	0	43	0	749731840	10	3951
2026-01-02 11:15:19.19	114.27	19.19	-24.5	-25.3	17.5	0.00e+00	0	43	0	756023296	10	3925
2026-01-02 11:15:20.20	114.14	19.30	-24.5	-25.3	17.5	0.00e+00	0	43	0	761266176	10	3929
2026-01-02 11:15:21.21	114.01	19.41	-24.6	-25.5	17.4	0.00e+00	0	43	0	766509056	10	3969
2026-01-02 11:15:22.21	113.88	19.52	-24.4	-25.1	17.6	0.00e+00	0	43	0	772800512	10	3866
2026-01-02 11:15:23.22	113.75	19.63	-24.4	-25.1	17.6	0.00e+00	0	43	0	778043392	10	3879
2026-01-02 11:15:24.22	113.62	19.74	-24.5	-25.3	17.5	0.00e+00	0	43	0	784334848	10	3915
2026-01-02 11:15:25.22	113.49	19.85	-24.5	-25.1	17.6	0.00e+00	0	43	0	789577728	10	3876
2026-01-02 11:15:26.22	113.36	19.96	-24.6	-25.4	17.4	0.00e+00	0	43	0	795869184	10	3950
2026-01-02 11:15:27.23	113.23	20.08	-24.5	-25.2	17.5	0.00e+00	0	43	0	801112064	10	3906
2026-01-02 11:15:28.23	113.09	20.19	-24.5	-25.2	17.5	0.00e+00	0	43	0	806354944	10	3913
2026-01-02 11:15:29.23	112.96	20.30	-24.6	-25.5	17.4	0.00e+00	0	43	0	812646400	10	3969
2026-01-02 11:15:30.24	112.82	20.41	-24.6	-25.4	17.5	0.00e+00	0	43	0	817889280	10	3957
2026-01-02 11:15:31.25	112.69	20.53	-24.7	-25.6	17.4	0.00e+00	0	43	0	823132160	10	4002
2026-01-02 11:15:32.24	112.55	20.64	-24.5	-25.1	17.6	0.00e+00	0	43	0	829423616	10	3885
2026-01-02 11:15:33.24	112.41	20.75	-24.4	-25.0	17.7	0.00e+00	0	43	0	834666496	10	3848
2026-01-02 11:15:34.25	112.27	20.87	-24.5	-25.1	17.5	0.00e+00	0	43	0	839909376	10	3881
2026-01-02 11:15:35.25	112.13	20.98	-24.2	-25.1	17.9	0.00e+00	0	43	0	846200832	9	3995
2026-01-02 11:15:36.26	111.98	21.10	-24.0	-24.7	18.1	0.00e+00	0	43	0	851443712	9	3891
2026-01-02 11:15:37.27	111.84	21.22	-23.9	-24.5	18.2	0.00e+00	0	43	0	857735168	9	3835
2026-01-02 11:15:38.28	111.70	21.33	-24.2	-25.0	18.0	0.00e+00	0	43	0	862978048	9	3951
2026-01-02 11:15:39.28	111.55	21.45	-23.9	-24.5	18.2	0.00e+00	0	43	0	869269504	9	3839
2026-01-02 11:15:40.28	111.40	21.56	-23.9	-24.5	18.2	0.00e+00	0	43	0	874512384	9	3844
2026-01-02 11:15:41.29	111.25	21.68	-23.9	-24.5	18.2	0.00e+00	0	43	0	879755264	9	3834
2026-01-02 11:15:42.30	111.10	21.80	-23.9	-24.4	18.3	0.00e+00	0	43	0	886046720	9	3807
2026-01-02 11:15:43.31	110.95	21.92	-23.9	-24.9	18.3	0.00e+00	0	43	0	891289600	8	4033
2026-01-02 11:15:44.31	110.80	22.03	-23.8	-24.7	18.4	0.00e+00	0	43	0	897581056	8	3988
2026-01-02 11:15:45.31	110.65	22.15	-23.9	-24.9	18.3	0.00e+00	0	43	0	902823936	8	4036
2026-01-02 11:15:46.32	110.50	22.27	-24.0	-25.1	18.2	0.00e+00	0	43	0	908066816	8	4098
2026-01-02 11:15:47.32	110.34	22.39	-23.7	-24.5	18.5	0.00e+00	0	43	0	914358272	8	3938
2026-01-02 11:15:48.32	110.19	22.51	-23.6	-24.2	18.6	0.00e+00	0	43	0	919601152	8	3883
2026-01-02 11:15:49.32	110.03	22.63	-23.6	-24.3	18.6	0.00e+00	0	43	0	925892608	8	3901
2026-01-02 11:15:50.32	109.87	22.75	-23.6	-24.2	18.6	0.00e+00	0	43	0	931135488	8	3873
2026-01-02 11:15:51.32	109.71	22.86	-23.6	-24.4	18.6	0.00e+00	0	43	0	936378368	8	3914
2026-01-02 11:15:52.32	109.55	22.98	-23.7	-24.5	18.5	0.00e+00	0	43	0	942669824	8	3954
2026-01-02 11:15:53.33	109.39	23.11	-23.7	-24.5	18.5	0.00e+00	0	43	0	947912704	8	3951
2026-01-02 11:15:54.34	109.22	23.23	-23.7	-24.4	18.5	0.00e+00	0	43	0	953155584	8	3934
2026-01-02 11:15:55.34	109.06	23.35	-23.8	-24.7	18.4	0.00e+00	0	43	0	959447040	8	3990
2026-01-02 11:15:56.35	108.89	23.47	-23.8	-24.7	18.4	0.00e+00	0	43	0	964689920	8	4001
2026-01-02 11:15:57.35	108.73	23.59	-23.9	-24.8	18.3	0.00e+00	0	43	0	969932800	8	4023
2026-01-02 11:15:58.34	108.56	23.71	-23.8	-24.6	18.4	0.00e+00	0	43	0	976224256	8	3975
2026-01-02 11:15:59.35	108.39	23.84	-23.7	-24.4	18.5	0.00e+00	0	43	0	981467136	8	3935
2026-01-02 11:16:00.35	108.22	23.96	-23.8	-24.8	18.3	0.00e+00	0	43	0	987758592	8	4017
2026-01-02 11:16:01.36	108.04	24.08	-23.6	-24.3	18.6	0.00e+00	0	43	0	993001472	8	3891
2026-01-02 11:16:02.37	107.87	24.21	-23.5	-24.1	18.7	0.00e+00	0	43	0	999292928	8	3864
2026-01-02 11:16:03.37	107.69	24.33	-23.5	-24.1	18.7	0.00e+00	0	43	0	1004535808	8	3861
2026-01-02 11:16:04.37	107.52	24.45	-23.5	-24.2	18.7	0.00e+00	0	43	0	1009778688	8	3877
2026-01-02 11:16:05.38	107.34	24.58	-23.5	-24.1	18.7	0.00e+00	0	43	0	1016070144	8	3864
2026-01-02 11:16:06.38	107.16	24.70	-23.5	-24.0	18.8	0.00e+00	0	43	0	1021313024	8	3828
2026-01-02 11:16:07.38	106.98	24.83	-23.6	-24.2	18.7	0.00e+00	0	43	0	1026555904	8	3879
2026-01-02 11:16:08.39	106.79	24.95	-23.6	-24.2	18.7	0.00e+00	0	43	0	1032847360	8	3879
2026-01-02 11:16:09.39	106.61	25.08	-23.4	-24.0	18.8	0.00e+00	0	43	0	1038090240	8	3822
2026-01-02 11:16:10.39	106.42	25.20	-23.4	-23.9	18.8	0.00e+00	0	43	0	1043333120	8	3800
2026-01-02 11:16:11.40	106.24	25.33	-23.4	-23.9	18.9	0.00e+00	0	43	0	1049624576	8	3801
2026-01-02 11:16:12.41	106.05	25.45	-23.3	-23.7	19.0	0.00e+00	0	43	0	1054867456	8	3755
2026-01-02 11:16:13.42	105.85	25.58	-23.3	-24.1	19.0	0.00e+00	0	43	0	1061158912	7	3969
2026-01-02 11:16:14.41	105.67	25.71	-23.4	-24.3	18.9	0.00e+00	0	43	0	1066401792	7	4001
2026-01-02 11:16:15.41	105.47	25.83	-23.2	-23.9	19.1	0.00e+00	0	43	0	1072693248	7	3921
2026-01-02 11:16:16.41	105.28	25.96	-23.2	-23.9	19.1	0.00e+00	0	43	0	1077936128	7	3921
2026-01-02 11:16:17.42	105.08	26.09	-23.2	-23.9	19.1	0.00e+00	0	43	0	1083179008	7	3920
2026-01-02 11:16:18.41	104.88	26.21	-23.2	-24.0	19.0	0.00e+00	0	43	0	1089470464	7	3938
2026-01-02 11:16:19.42	104.68	26.34	-23.2	-24.0	19.0	0.00e+00	0	43	0	1094713344	7	3947
2026-01-02 11:16:20.41	104.49	26.47	-23.2	-24.0	19.0	0.00e+00	0	43	0	1099956224	7	3933
2026-01-02 11:16:21.41	104.28	26.60	-23.3	-24.1	19.0	0.00e+00	0	43	0	1106247680	7	3957
2026-01-02 11:16:22.41	104.08	26.72	-23.2	-24.0	19.0	0.00e+00	0	43	0	1111490560	7	3940
2026-01-02 11:16:23.42	103.87	26.85	-23.3	-24.2	18.9	0.00e+00	0	43	0	1116733440	7	3988
2026-01-02 11:16:24.43	103.66	26.98	-23.3	-24.2	18.9	0.00e+00	0	43	0	1123024896	7	3997
2026-01-02 11:16:25.42	103.46	27.11	-23.2	-24.0	19.0	0.00e+00	0	43	0	1128267776	7	3929
2026-01-02 11:16:26.43	103.24	27.24	-23.1	-23.8	19.1	0.00e+00	0	43	0	1134559232	7	3899
2026-01-02 11:16:27.44	103.03	27.37	-23.2	-23.9	19.1	0.00e+00	0	43	0	1139802112	7	3906
2026-01-02 11:16:28.44	102.81	27.50	-23.2	-23.8	19.1	0.00e+00	0	43	0	1145044992	7	3899
2026-01-02 11:16:29.44	102.60	27.63	-23.2	-23.9	19.2	0.00e+00	0	44	0	1151336448	7	3903
2026-01-02 11:16:30.44	102.38	27.76	-23.2	-24.0	19.1	0.00e+00	0	43	0	1156579328	7	3933
2026-01-02 11:16:31.44	102.16	27.89	-23.3	-24.1	19.0	0.00e+00	0	43	0	1161822208	7	3969
2026-01-02 11:16:32.45	101.94	28.02	-23.4	-24.3	18.9	0.00e+00	0	43	0	1168113664	7	4004
2026-01-02 11:16:33.45	101.71	28.15	-23.3	-24.2	19.0	0.00e+00	0	43	0	1173356544	7	3984
2026-01-02 11:16:34.45	101.49	28.28	-23.3	-24.2	19.0	0.00e+00	0	43	0	1178599424	7	3985
2026-01-02 11:16:35.44	101.27	28.40	-23.4	-24.4	18.9	0.00e+00	0	43	0	1184890880	7	4038
2026-01-02 11:16:36.44	101.04	28.53	-23.4	-24.4	18.9	0.00e+00	0	43	0	1190133760	7	4024
2026-01-02 11:16:37.44	100.81	28.66	-23.2	-24.0	19.1	0.00e+00	0	43	0	1196425216	7	3944
2026-01-02 11:16:38.44	100.57	28.79	-23.3	-24.1	19.1	0.00e+00	0	43	0	1201668096	7	3951
2026-01-02 11:16:39.45	100.34	28.93	-23.2	-23.9	19.1	0.00e+00	0	43	0	1206910976	7	3918
2026-01-02 11:16:40.45	100.10	29.06	-23.0	-23.6	19.3	0.00e+00	0	43	0	1213202432	7	3832
2026-01-02 11:16:41.46	99.86	29.19	-23.0	-23.5	19.4	0.00e+00	0	43	0	1218445312	7	3817
2026-01-02 11:16:42.46	99.62	29.32	-23.0	-23.4	19.4	0.00e+00	0	43	0	1224736768	7	3799
2026-01-02 11:16:43.46	99.38	29.45	-22.9	-23.4	19.4	0.00e+00	0	43	0	1229979648	7	3785
2026-01-02 11:16:44.46	99.13	29.58	-23.0	-23.5	19.4	0.00e+00	0	43	0	1235222528	7	3806
2026-01-02 11:16:45.46	98.89	29.71	-23.0	-23.6	19.3	0.00e+00	0	43	0	1241513984	7	3838
2026-01-02 11:16:46.47	98.64	29.84	-23.0	-23.6	19.3	0.00e+00	0	43	0	1246756864	7	3834
2026-01-02 11:16:47.48	98.39	29.97	-23.1	-23.8	19.2	0.00e+00	0	44	0	1251999744	7	3880
2026-01-02 11:16:48.49	98.13	30.10	-23.1	-23.6	19.3	0.00e+00	0	43	0	1258291200	7	3849
2026-01-02 11:16:49.49	97.88	30.24	-22.9	-23.3	19.5	0.00e+00	0	43	0	1263534080	7	3772
2026-01-02 11:16:50.50	97.62	30.37	-22.9	-23.4	19.5	0.00e+00	0	43	0	1269825536	7	3785
2026-01-02 11:16:51.50	97.36	30.50	-22.9	-23.4	19.4	0.00e+00	0	43	0	1275068416	7	3796
2026-01-02 11:16:52.51	97.10	30.63	-22.9	-23.3	19.5	0.00e+00	0	43	0	1280311296	7	3767
2026-01-02 11:16:53.50	96.84	30.76	-22.9	-23.4	19.4	0.00e+00	0	43	0	1286602752	7	3790
2026-01-02 11:16:54.51	96.57	30.89	-23.0	-23.6	19.3	0.00e+00	0	43	0	1291845632	7	3835
2026-01-02 11:16:55.51	96.30	31.02	-23.1	-23.7	19.3	0.00e+00	0	43	0	1298137088	7	3865
2026-01-02 11:16:56.52	96.03	31.15	-23.0	-23.6	19.3	0.00e+00	0	43	0	1303379968	7	3848
2026-01-02 11:16:57.52	95.76	31.28	-23.1	-23.8	19.3	0.00e+00	0	43	0	1308622848	7	3880
2026-01-02 11:16:58.52	95.48	31.41	-23.2	-23.9	19.2	0.00e+00	0	43	0	1314914304	7	3914
2026-01-02 11:16:59.52	95.21	31.54	-23.2	-23.8	19.2	0.00e+00	0	43	0	1320157184	7	3894
2026-01-02 11:17:00.53	94.93	31.67	-23.2	-23.9	19.2	0.00e+00	0	43	0	1325400064	7	3918
2026-01-02 11:17:01.54	94.65	31.80	-23.3	-24.1	19.1	0.00e+00	0	43	0	1331691520	7	3949
2026-01-02 11:17:02.54	94.36	31.93	-23.2	-24.0	19.2	0.00e+00	0	43	0	1336934400	7	3934
2026-01-02 11:17:03.55	94.08	32.06	-23.3	-24.1	19.1	0.00e+00	0	43	0	1343225856	7	3959
2026-01-02 11:17:04.56	93.79	32.19	-23.3	-24.0	19.2	0.00e+00	0	44	0	1348468736	7	3942
2026-01-02 11:17:05.56	93.50	32.31	-23.3	-24.1	19.2	0.00e+00	0	43	0	1354760192	7	3944
2026-01-02 11:17:06.56	93.20	32.44	-23.2	-23.9	19.3	0.00e+00	0	43	0	1360003072	7	3896
2026-01-02 11:17:07.57	92.91	32.57	-22.9	-23.3	19.5	0.00e+00	0	43	0	1365245952	7	3762
2026-01-02 11:17:08.57	92.61	32.70	-22.7	-23.4	19.7	0.00e+00	0	43	0	1371537408	6	3889
2026-01-02 11:17:09.57	92.31	32.82	-22.7	-23.4	19.7	0.00e+00	0	43	0	1376780288	6	3904
2026-01-02 11:17:10.57	92.01	32.95	-22.7	-23.4	19.7	0.00e+00	0	43	0	1382023168	6	3904
2026-01-02 11:17:11.57	91.71	33.07	-22.5	-23.1	19.9	0.00e+00	0	43	0	1388314624	6	3818
2026-01-02 11:17:12.58	91.40	33.20	-22.5	-22.9	20.0	0.00e+00	0	43	0	1393557504	6	3770
2026-01-02 11:17:13.58	91.09	33.33	-22.6	-23.1	19.9	0.00e+00	0	43	0	1398800384	6	3835
2026-01-02 11:17:14.59	90.78	33.45	-22.6	-23.3	19.8	0.00e+00	0	43	0	1405091840	6	3866
2026-01-02 11:17:15.59	90.47	33.58	-22.5	-23.0	19.9	0.00e+00	0	43	0	1410334720	6	3814
2026-01-02 11:17:16.60	90.15	33.70	-22.5	-23.0	19.9	0.00e+00	0	43	0	1416626176	6	3811
2026-01-02 11:17:17.61	89.83	33.82	-22.6	-23.2	19.9	0.00e+00	0	44	0	1421869056	6	3844
2026-01-02 11:17:18.62	89.50	33.95	-22.6	-23.1	19.9	0.00e+00	0	43	0	1428160512	6	3834
2026-01-02 11:17:19.62	89.18	34.07	-22.5	-23.0	20.0	0.00e+00	0	43	0	1433403392	6	3800
2026-01-02 11:17:20.63	88.85	34.19	-22.6	-23.1	19.9	0.00e+00	0	43	0	1438646272	6	3820
2026-01-02 11:17:21.62	88.53	34.31	-22.5	-23.0	20.0	0.00e+00	0	43	0	1444937728	6	3800
2026-01-02 11:17:22.63	88.19	34.43	-22.6	-23.1	19.9	0.00e+00	0	44	0	1450180608	6	3835
2026-01-02 11:17:23.63	87.86	34.55	-22.7	-23.4	19.7	0.00e+00	0	43	0	1455423488	6	3907
2026-01-02 11:17:24.63	87.53	34.67	-22.9	-23.7	19.6	0.00e+00	0	43	0	1461714944	6	3977
2026-01-02 11:17:25.63	87.19	34.79	-23.1	-24.2	19.3	0.00e+00	0	44	0	1466957824	6	4083
2026-01-02 11:17:26.63	86.85	34.91	-23.0	-24.1	19.3	0.00e+00	0	44	0	1472200704	6	4071
2026-01-02 11:17:27.64	86.50	35.03	-23.0	-23.9	19.4	0.00e+00	0	44	0	1478492160	6	4020
2026-01-02 11:17:28.63	86.16	35.14	-23.0	-23.9	19.4	0.00e+00	0	43	0	1483735040	6	4025
2026-01-02 11:17:29.64	85.81	35.26	-22.8	-23.6	19.6	0.00e+00	0	43	0	1490026496	6	3955
2026-01-02 11:17:30.64	85.46	35.37	-22.6	-23.3	19.8	0.00e+00	0	43	0	1495269376	6	3865
2026-01-02 11:17:31.65	85.11	35.49	-22.7	-23.4	19.7	0.00e+00	0	43	0	1500512256	6	3902
2026-01-02 11:17:32.65	84.75	35.60	-22.8	-23.6	19.7	0.00e+00	0	43	0	1506803712	6	3952
2026-01-02 11:17:33.66	84.39	35.71	-22.8	-23.6	19.7	0.00e+00	0	44	0	1512046592	6	3934
2026-01-02 11:17:34.67	84.03	35.83	-22.5	-23.0	20.0	0.00e+00	0	43	0	1518338048	6	3793
2026-01-02 11:17:35.68	83.66	35.94	-22.4	-22.7	20.1	0.00e+00	0	43	0	1523580928	6	3733
2026-01-02 11:17:36.68	83.30	36.05	-22.5	-22.9	20.0	0.00e+00	0	44	0	1528823808	6	3777
2026-01-02 11:17:37.69	82.93	36.16	-22.5	-23.0	19.9	0.00e+00	0	43	0	1535115264	6	3815
2026-01-02 11:17:38.69	82.56	36.26	-22.7	-23.3	19.8	0.00e+00	0	44	0	1540358144	6	3872
2026-01-02 11:17:39.69	82.19	36.37	-22.7	-23.4	19.7	0.00e+00	0	43	0	1545601024	6	3905
2026-01-02 11:17:40.69	81.81	36.47	-22.6	-23.1	19.9	0.00e+00	0	44	0	1551892480	6	3828
2026-01-02 11:17:41.70	81.43	36.58	-22.4	-22.8	20.0	0.00e+00	0	43	0	1557135360	6	3759
2026-01-02 11:17:42.70	81.05	36.68	-22.4	-22.9	20.0	0.00e+00	0	43	0	1563426816	6	3772
2026-01-02 11:17:43.70	80.67	36.78	-22.4	-22.8	20.0	0.00e+00	0	43	0	1568669696	6	3763
2026-01-02 11:17:44.70	80.29	36.88	-22.7	-23.3	19.8	0.00e+00	0	43	0	1573912576	6	3874
2026-01-02 11:17:45.70	79.90	36.98	-22.9	-23.8	19.6	0.00e+00	0	43	0	1580204032	6	3986
2026-01-02 11:17:46.70	79.51	37.08	-23.0	-23.9	19.5	0.00e+00	0	43	0	1585446912	6	4031
2026-01-02 11:17:47.71	79.12	37.18	-22.7	-23.4	19.8	0.00e+00	0	43	0	1591738368	6	3899
2026-01-02 11:17:48.72	78.72	37.28	-22.5	-22.9	20.0	0.00e+00	0	44	0	1596981248	6	3779
2026-01-02 11:17:49.72	78.33	37.37	-22.6	-23.0	19.9	0.00e+00	0	44	0	1602224128	6	3810
2026-01-02 11:17:50.72	77.93	37.47	-22.5	-23.1	19.9	0.00e+00	0	43	0	1608515584	6	3817
2026-01-02 11:17:51.72	77.53	37.56	-22.7	-23.4	19.7	0.00e+00	0	43	0	1613758464	6	3909
2026-01-02 11:17:52.73	77.12	37.65	-22.8	-23.6	19.7	0.00e+00	0	43	0	1619001344	6	3935
2026-01-02 11:17:53.74	76.71	37.74	-22.6	-23.2	19.9	0.00e+00	0	43	0	1625292800	6	3842
2026-01-02 11:17:54.73	76.31	37.83	-22.6	-23.1	19.9	0.00e+00	0	43	0	1630535680	6	3819
2026-01-02 11:17:55.74	75.90	37.91	-22.8	-23.6	19.7	0.00e+00	0	43	0	1636827136	6	3931
2026-01-02 11:17:56.74	75.49	38.00	-22.9	-23.8	19.6	0.00e+00	0	44	0	1642070016	6	3982
2026-01-02 11:17:57.74	75.07	38.08	-23.0	-24.1	19.4	0.00e+00	0	43	0	1647312896	6	4063
2026-01-02 11:17:58.74	74.66	38.16	-22.9	-23.9	19.5	0.00e+00	0	43	0	1653604352	6	4003
2026-01-02 11:17:59.75	74.24	38.25	-22.8	-23.6	19.6	0.00e+00	0	44	0	1658847232	6	3946
2026-01-02 11:18:00.75	73.82	38.32	-22.8	-23.5	19.7	0.00e+00	0	44	0	1664090112	6	3924
2026-01-02 11:18:01.76	73.39	38.40	-23.0	-23.9	19.5	0.00e+00	0	43	0	1670381568	6	4024
2026-01-02 11:18:02.76	72.97	38.48	-23.1	-24.1	19.4	0.00e+00	0	44	0	1675624448	6	4073
2026-01-02 11:18:03.76	72.54	38.55	-23.3	-24.6	19.2	0.00e+00	0	43	0	1681915904	6	4193
2026-01-02 11:18:04.77	72.11	38.62	-23.2	-24.4	19.3	0.00e+00	0	43	0	1687158784	6	4127
2026-01-02 11:18:05.77	71.68	38.70	-22.9	-23.8	19.6	0.00e+00	0	43	0	1692401664	6	3984
2026-01-02 11:18:06.76	71.25	38.76	-22.9	-23.7	19.6	0.00e+00	0	43	0	1698693120	6	3966
2026-01-02 11:18:07.77	70.82	38.83	-22.9	-23.8	19.6	0.00e+00	0	44	0	1703936000	6	4000
2026-01-02 11:18:08.77	70.38	38.90	-23.1	-24.2	19.4	0.00e+00	0	43	0	1710227456	6	4089
2026-01-02 11:18:09.78	69.94	38.96	-23.0	-24.1	19.5	0.00e+00	0	44	0	1715470336	6	4054
2026-01-02 11:18:10.78	69.50	39.02	-22.9	-23.7	19.6	0.00e+00	0	43	0	1720713216	6	3969
2026-01-02 11:18:11.78	69.06	39.08	-23.0	-23.9	19.5	0.00e+00	0	43	0	1727004672	6	4014
2026-01-02 11:18:12.79	68.62	39.14	-22.8	-23.6	19.7	0.00e+00	0	43	0	1732247552	6	3937
2026-01-02 11:18:13.78	68.18	39.20	-23.0	-23.9	19.5	0.00e+00	0	44	0	1737490432	6	4026
2026-01-02 11:18:14.79	67.73	39.25	-22.6	-23.2	19.9	0.00e+00	0	44	0	1743781888	6	3834
2026-01-02 11:18:15.79	67.28	39.31	-22.3	-22.6	20.2	0.00e+00	0	43	0	1749024768	6	3718
2026-01-02 11:18:16.79	66.84	39.36	-22.5	-22.9	20.0	0.00e+00	0	44	0	1754267648	6	3789
2026-01-02 11:18:17.79	66.39	39.41	-22.8	-23.6	19.9	0.00e+00	0	44	0	1760559104	6	3930
2026-01-02 11:18:18.79	65.94	39.45	-23.0	-23.9	19.7	0.00e+00	0	43	0	1765801984	6	3997
2026-01-02 11:18:19.80	65.48	39.50	-23.0	-23.9	19.7	0.00e+00	0	43	0	1772093440	6	4001
2026-01-02 11:18:20.80	65.03	39.54	-23.0	-23.9	19.8	0.00e+00	0	43	0	1777336320	6	3997
2026-01-02 11:18:21.81	64.57	39.58	-23.2	-24.4	19.5	0.00e+00	0	43	0	1782579200	6	4122
2026-01-02 11:18:22.81	64.12	39.62	-23.2	-24.3	19.5	0.00e+00	0	43	0	1788870656	6	4088
2026-01-02 11:18:23.81	63.66	39.66	-22.9	-23.6	19.8	0.00e+00	0	43	0	1794113536	6	3935
2026-01-02 11:18:24.82	63.20	39.69	-22.5	-22.9	20.2	0.00e+00	0	43	0	1800404992	6	3775
2026-01-02 11:18:25.83	62.74	39.73	-22.4	-22.7	20.3	0.00e+00	0	43	0	1805647872	6	3729
2026-01-02 11:18:26.82	62.28	39.76	-22.7	-23.3	20.0	0.00e+00	0	43	0	1810890752	6	3856
2026-01-02 11:18:27.83	61.82	39.79	-22.8	-23.5	19.9	0.00e+00	0	43	0	1817182208	6	3910
2026-01-02 11:18:28.84	61.35	39.81	-22.8	-23.5	20.0	0.00e+00	0	43	0	1822425088	6	3901
2026-01-02 11:18:29.84	60.89	39.84	-22.8	-23.4	20.0	0.00e+00	0	43	0	1828716544	6	3880
2026-01-02 11:18:30.84	60.43	39.86	-23.1	-24.1	19.6	0.00e+00	0	43	0	1833959424	6	4054
2026-01-02 11:18:31.85	59.96	39.88	-23.0	-24.0	19.7	0.00e+00	0	43	0	1839202304	6	4027
2026-01-02 11:18:32.85	59.50	39.90	-22.8	-23.5	20.0	0.00e+00	0	43	0	1845493760	6	3898
2026-01-02 11:18:33.85	59.04	39.91	-22.4	-22.7	20.4	0.00e+00	0	43	0	1850736640	6	3708
2026-01-02 11:18:34.85	58.57	39.93	-22.4	-22.6	20.4	0.00e+00	0	43	0	1855979520	6	3702
2026-01-02 11:18:35.85	58.11	39.94	-22.6	-23.2	20.1	0.00e+00	0	43	0	1862270976	6	3831
2026-01-02 11:18:36.84	57.65	39.95	-22.5	-22.8	20.3	0.00e+00	0	44	0	1867513856	6	3754
2026-01-02 11:18:37.84	57.18	39.96	-22.4	-22.6	20.4	0.00e+00	0	43	0	1872756736	6	3701
2026-01-02 11:18:38.84	56.72	39.96	-22.6	-23.0	20.2	0.00e+00	0	43	0	1879048192	6	3790
2026-01-02 11:18:39.85	56.25	39.97	-22.7	-23.2	20.1	0.00e+00	0	44	0	1884291072	6	3839
2026-01-02 11:18:40.85	55.78	39.97	-22.7	-23.2	20.1	0.00e+00	0	43	0	1890582528	6	3837
2026-01-02 11:18:41.85	55.32	39.97	-22.7	-23.2	20.1	0.00e+00	0	44	0	1895825408	6	3836
2026-01-02 11:18:42.85	54.85	39.96	-22.9	-23.6	19.9	0.00e+00	0	44	0	1901068288	6	3920
2026-01-02 11:18:43.86	54.38	39.96	-22.7	-23.3	20.1	0.00e+00	0	43	0	1907359744	6	3845
2026-01-02 11:18:44.85	53.92	39.95	-22.8	-23.5	19.9	0.00e+00	0	43	0	1912602624	6	3911
2026-01-02 11:18:45.85	53.46	39.94	-22.8	-23.5	19.9	0.00e+00	0	44	0	1917845504	6	3915
2026-01-02 11:18:46.85	52.99	39.93	-22.8	-23.4	20.0	0.00e+00	0	43	0	1924136960	6	3890
2026-01-02 11:18:47.86	52.53	39.91	-22.8	-23.6	19.9	0.00e+00	0	44	0	1929379840	6	3917
2026-01-02 11:18:48.86	52.06	39.90	-22.6	-23.1	20.1	0.00e+00	0	43	0	1935671296	6	3820
2026-01-02 11:18:49.86	51.60	39.88	-22.6	-23.1	20.2	0.00e+00	0	44	0	1940914176	6	3807
2026-01-02 11:18:50.86	51.14	39.86	-22.8	-23.4	20.0	0.00e+00	0	43	0	1946157056	6	3887
2026-01-02 11:18:51.87	50.67	39.84	-22.7	-23.2	20.1	0.00e+00	0	43	0	1952448512	6	3844
2026-01-02 11:18:52.87	50.21	39.81	-22.4	-22.7	20.3	0.00e+00	0	44	0	1957691392	6	3720
2026-01-02 11:18:53.87	49.75	39.79	-22.3	-22.5	20.4	0.00e+00	0	44	0	1963982848	6	3672
2026-01-02 11:18:54.88	49.29	39.76	-22.4	-22.6	20.4	0.00e+00	0	44	0	1969225728	6	3707
2026-01-02 11:18:55.89	48.82	39.73	-22.2	-22.8	20.5	0.00e+00	0	44	0	1974468608	5	3849
2026-01-02 11:18:56.88	48.37	39.69	-22.1	-22.6	20.6	0.00e+00	0	44	0	1980760064	5	3793
2026-01-02 11:18:57.89	47.91	39.66	-22.2	-22.9	20.5	0.00e+00	0	44	0	1986002944	5	3860
2026-01-02 11:18:58.90	47.45	39.62	-22.3	-22.9	20.5	0.00e+00	0	43	0	1991245824	5	3865
2026-01-02 11:18:59.90	46.99	39.58	-22.3	-23.1	20.4	0.00e+00	0	44	0	1997537280	5	3910
2026-01-02 11:19:00.90	46.54	39.54	-22.3	-22.9	20.5	0.00e+00	0	44	0	2002780160	5	3865
2026-01-02 11:19:01.91	46.08	39.50	-22.3	-23.0	20.4	0.00e+00	0	43	0	2009071616	5	3886
2026-01-02 11:19:02.91	45.63	39.45	-22.5	-23.5	20.2	0.00e+00	0	43	0	2014314496	5	3999
2026-01-02 11:19:03.91	45.18	39.41	-22.4	-23.2	20.3	0.00e+00	0	43	0	2019557376	5	3935
2026-01-02 11:19:04.92	44.73	39.36	-22.5	-23.4	20.2	0.00e+00	0	43	0	2025848832	5	3980
2026-01-02 11:19:05.93	44.28	39.31	-22.6	-23.7	20.1	0.00e+00	0	43	0	2031091712	5	4058
2026-01-02 11:19:06.94	43.83	39.25	-22.7	-23.8	20.0	0.00e+00	0	43	0	2037383168	5	4077
2026-01-02 11:19:07.93	43.39	39.20	-22.4	-23.1	20.3	0.00e+00	0	43	0	2042626048	5	3921
2026-01-02 11:19:08.94	42.94	39.14	-22.3	-23.0	20.4	0.00e+00	0	44	0	2047868928	5	3887
2026-01-02 11:19:09.94	42.50	39.08	-22.5	-23.4	20.2	0.00e+00	0	43	0	2054160384	5	3996
2026-01-02 11:19:10.95	42.06	39.02	-22.5	-23.5	20.1	0.00e+00	0	44	0	2059403264	5	4018
2026-01-02 11:19:11.95	41.62	38.96	-22.4	-23.3	20.2	0.00e+00	0	43	0	2064646144	5	3957
2026-01-02 11:19:12.95	41.18	38.90	-22.5	-23.3	20.2	0.00e+00	0	43	0	2070937600	5	3960
2026-01-02 11:19:13.95	40.75	38.83	-23.0	-24.3	19.8	0.00e+00	0	43	0	2076180480	5	4211
2026-01-02 11:19:14.96	40.31	38.76	-22.9	-23.8	19.8	0.00e+00	0	43	0	2082471936	6	3975
2026-01-02 11:19:15.96	39.88	38.70	-22.9	-23.7	19.8	0.00e+00	0	43	0	2087714816	6	3944
2026-01-02 11:19:16.97	39.45	38.62	-23.0	-24.0	19.7	0.00e+00	0	44	0	2092957696	6	4019
2026-01-02 11:19:17.97	39.02	38.55	-23.0	-23.8	19.7	0.00e+00	0	44	0	2099249152	6	3979
2026-01-02 11:19:18.97	38.60	38.48	-23.0	-23.9	19.7	0.00e+00	0	43	0	2104492032	6	3999
2026-01-02 11:19:19.98	38.17	38.40	-23.1	-24.0	19.6	0.00e+00	0	44	0	2110783488	6	4029
2026-01-02 11:19:20.98	37.75	38.32	-22.6	-23.2	20.1	0.00e+00	0	44	0	2116026368	6	3830
2026-01-02 11:19:21.98	37.33	38.25	-22.2	-22.8	20.5	0.00e+00	0	44	0	2121269248	5	3843
2026-01-02 11:19:22.98	36.91	38.17	-22.0	-22.3	20.7	0.00e+00	0	43	0	2127560704	5	3740
2026-01-02 11:19:23.99	36.50	38.08	-21.9	-22.2	20.7	0.00e+00	0	44	0	2132803584	5	3710
2026-01-02 11:19:24.99	36.08	38.00	-22.1	-22.5	20.6	0.00e+00	0	44	0	2138046464	5	3771
2026-01-02 11:19:25.99	35.67	37.91	-22.0	-22.3	20.7	0.00e+00	0	44	0	2144337920	5	3734
2026-01-02 11:19:26.99	35.26	37.83	-22.2	-22.8	20.5	0.00e+00	0	43	0	2149580800	5	3844
2026-01-02 11:19:27.99	34.86	37.74	-22.1	-22.6	20.6	0.00e+00	0	43	0	2154823680	5	3800
2026-01-02 11:19:28.99	34.45	37.65	-22.3	-23.0	20.3	0.00e+00	0	43	0	2161115136	5	3899
2026-01-02 11:19:29.98	34.06	37.56	-22.1	-22.6	20.5	0.00e+00	0	43	0	2166358016	5	3796
2026-01-02 11:19:30.99	33.65	37.47	-22.1	-22.6	20.5	0.00e+00	0	43	0	2172649472	5	3809
2026-01-02 11:19:31.99	33.26	37.38	-22.4	-23.1	20.3	0.00e+00	0	44	0	2177892352	5	3923
2026-01-02 11:19:33.00	32.86	37.28	-22.5	-23.3	20.2	0.00e+00	0	43	0	2183135232	5	3970
2026-01-02 11:19:34.00	32.47	37.19	-22.6	-23.6	20.0	0.00e+00	0	44	0	2189426688	5	4036
2026-01-02 11:19:35.01	32.07	37.09	-22.5	-23.3	20.2	0.00e+00	0	44	0	2194669568	5	3965
2026-01-02 11:19:36.01	31.68	36.99	-22.4	-23.3	20.2	0.00e+00	0	43	0	2200961024	5	3960
2026-01-02 11:19:37.02	31.29	36.89	-22.4	-23.2	20.2	0.00e+00	0	44	0	2206203904	5	3941
2026-01-02 11:19:38.02	30.91	36.79	-22.1	-22.6	20.5	0.00e+00	0	44	0	2211446784	5	3812
2026-01-02 11:19:39.02	30.53	36.69	-22.1	-22.5	20.5	0.00e+00	0	43	0	2217738240	5	3785
2026-01-02 11:19:40.03	30.15	36.58	-22.2	-22.8	20.4	0.00e+00	0	43	0	2222981120	5	3850
2026-01-02 11:19:41.04	29.77	36.48	-22.1	-22.6	20.5	0.00e+00	0	43	0	2228224000	5	3809
2026-01-02 11:19:42.03	29.40	36.37	-22.3	-23.0	20.3	0.00e+00	0	44	0	2234515456	5	3889
2026-01-02 11:19:43.03	29.03	36.27	-22.1	-22.6	20.5	0.00e+00	0	44	0	2239758336	5	3810
2026-01-02 11:19:44.04	28.66	36.16	-22.6	-23.5	20.1	0.00e+00	0	44	0	2246049792	5	4016
2026-01-02 11:19:45.04	28.29	36.05	-22.3	-23.0	20.3	0.00e+00	0	43	0	2251292672	5	3900
2026-01-02 11:19:46.04	27.93	35.94	-22.2	-22.7	20.5	0.00e+00	0	43	0	2256535552	5	3833
2026-01-02 11:19:47.05	27.56	35.83	-22.2	-22.7	20.4	0.00e+00	0	44	0	2262827008	5	3838
2026-01-02 11:19:48.06	27.20	35.72	-22.2	-22.7	20.5	0.00e+00	0	44	0	2268069888	5	3817
2026-01-02 11:19:49.07	26.84	35.61	-22.3	-22.9	20.4	0.00e+00	0	44	0	2274361344	5	3872
2026-01-02 11:19:50.07	26.49	35.49	-22.2	-22.9	20.4	0.00e+00	0	44	0	2279604224	5	3862
2026-01-02 11:19:51.08	26.13	35.38	-22.2	-22.8	20.4	0.00e+00	0	43	0	2284847104	5	3856
2026-01-02 11:19:52.08	25.78	35.27	-22.4	-23.2	20.3	0.00e+00	0	44	0	2291138560	5	3931
2026-01-02 11:19:53.09	25.43	35.15	-22.1	-22.6	20.5	0.00e+00	0	44	0	2296381440	5	3813
2026-01-02 11:19:54.09	25.09	35.03	-22.1	-22.6	20.5	0.00e+00	0	44	0	2301624320	5	3797
2026-01-02 11:19:55.09	24.75	34.92	-22.0	-22.4	20.6	0.00e+00	0	43	0	2307915776	5	3753
2026-01-02 11:19:56.10	24.41	34.80	-22.0	-22.3	20.6	0.00e+00	0	44	0	2313158656	5	3742
2026-01-02 11:19:57.09	24.07	34.68	-22.2	-22.8	20.4	0.00e+00	0	43	0	2319450112	5	3836
2026-01-02 11:19:58.09	23.74	34.56	-22.1	-22.5	20.5	0.00e+00	0	43	0	2324692992	5	3786
2026-01-02 11:19:59.09	23.41	34.44	-22.2	-22.7	20.4	0.00e+00	0	44	0	2329935872	5	3839
2026-01-02 11:20:00.09	23.08	34.33	-22.2	-22.7	20.4	0.00e+00	0	44	0	2336227328	5	3825
2026-01-02 11:20:01.10	22.75	34.20	-22.1	-22.6	20.5	0.00e+00	0	44	0	2341470208	5	3807
2026-01-02 11:20:02.09	22.43	34.08	-22.3	-22.9	20.3	0.00e+00	0	44	0	2346713088	5	3878
2026-01-02 11:20:03.09	22.11	33.96	-22.4	-23.1	20.2	0.00e+00	0	44	0	2353004544	5	3927
2026-01-02 11:20:04.10	21.79	33.84	-22.2	-22.7	20.4	0.00e+00	0	43	0	2358247424	5	3820
2026-01-02 11:20:05.11	21.47	33.71	-22.1	-22.5	20.5	0.00e+00	0	44	0	2363490304	5	3778
2026-01-02 11:20:06.10	21.15	33.59	-22.0	-22.3	20.6	0.00e+00	0	43	0	2369781760	5	3724
2026-01-02 11:20:07.10	20.84	33.47	-22.2	-22.7	20.4	0.00e+00	0	44	0	2375024640	5	3820
2026-01-02 11:20:08.11	20.53	33.34	-22.2	-22.8	20.4	0.00e+00	0	44	0	2381316096	5	3841
2026-01-02 11:20:09.12	20.22	33.22	-22.5	-23.4	20.1	0.00e+00	0	43	0	2386558976	5	3987
2026-01-02 11:20:10.12	19.92	33.09	-22.5	-23.4	20.1	0.00e+00	0	43	0	2392850432	5	3989
2026-01-02 11:20:11.13	19.61	32.97	-22.6	-23.6	20.0	0.00e+00	0	44	0	2398093312	5	4044
2026-01-02 11:20:12.13	19.31	32.84	-22.7	-23.9	19.8	0.00e+00	0	44	0	2403336192	5	4104
2026-01-02 11:20:13.13	19.01	32.71	-22.6	-23.6	19.9	0.00e+00	0	44	0	2409627648	5	4043
2026-01-02 11:20:14.13	18.72	32.59	-22.6	-23.5	20.0	0.00e+00	0	44	0	2414870528	5	4018
2026-01-02 11:20:15.13	18.42	32.46	-22.4	-23.3	20.1	0.00e+00	0	44	0	2420113408	5	3966
2026-01-02 11:20:16.13	18.13	32.33	-22.4	-23.2	20.1	0.00e+00	0	44	0	2426404864	5	3948
2026-01-02 11:20:17.13	17.84	32.21	-22.6	-23.6	20.0	0.00e+00	0	44	0	2431647744	5	4029
2026-01-02 11:20:18.14	17.56	32.08	-22.5	-23.4	20.0	0.00e+00	0	43	0	2436890624	5	3995
2026-01-02 11:20:19.14	17.27	31.95	-22.7	-23.8	19.8	0.00e+00	0	43	0	2443182080	5	4090
2026-01-02 11:20:20.14	16.99	31.82	-22.6	-23.5	20.0	0.00e+00	0	43	0	2448424960	5	4030
2026-01-02 11:20:21.15	16.71	31.69	-22.5	-23.3	20.1	0.00e+00	0	44	0	2454716416	5	3980
2026-01-02 11:20:22.16	16.43	31.56	-22.4	-23.3	20.1	0.00e+00	0	44	0	2459959296	5	3961
2026-01-02 11:20:23.16	16.15	31.43	-22.5	-23.3	20.1	0.00e+00	0	44	0	2466250752	5	3971
2026-01-02 11:20:24.15	15.88	31.31	-22.6	-23.5	20.0	0.00e+00	0	44	0	2471493632	5	4024
2026-01-02 11:20:25.16	15.61	31.18	-22.8	-24.1	19.7	0.00e+00	0	44	0	2476736512	5	4151
2026-01-02 11:20:26.16	15.34	31.05	-22.7	-23.8	19.8	0.00e+00	0	43	0	2481979392	5	4082
2026-01-02 11:20:27.16	15.08	30.92	-22.6	-23.5	19.9	0.00e+00	0	44	0	2488270848	5	4022
2026-01-02 11:20:28.16	14.81	30.79	-22.6	-23.7	19.9	0.00e+00	0	44	0	2493513728	5	4058
2026-01-02 11:20:29.16	14.55	30.66	-22.8	-24.0	19.7	0.00e+00	0	44	0	2499805184	5	4142
2026-01-02 11:20:30.17	14.29	30.53	-22.8	-24.0	19.7	0.00e+00	0	43	0	2505048064	5	4123
2026-01-02 11:20:31.16	14.03	30.40	-23.1	-24.1	19.4	0.00e+00	0	44	0	2510290944	6	4041
2026-01-02 11:20:32.16	13.78	30.27	-23.0	-23.9	19.5	0.00e+00	0	44	0	2516582400	6	4012
2026-01-02 11:20:33.17	13.52	30.14	-23.0	-23.9	19.5	0.00e+00	0	44	0	2521825280	6	3995
2026-01-02 11:20:34.18	13.27	30.01	-22.9	-23.8	19.5	0.00e+00	0	43	0	2528116736	6	3984
2026-01-02 11:20:35.18	13.02	29.88	-22.8	-23.5	19.7	0.00e+00	0	44	0	2533359616	6	3909
2026-01-02 11:20:36.19	12.77	29.75	-22.8	-23.5	19.7	0.00e+00	0	44	0	2538602496	6	3907
2026-01-02 11:20:37.19	12.52	29.62	-22.9	-23.8	19.6	0.00e+00	0	44	0	2544893952	6	3973
2026-01-02 11:20:38.20	12.28	29.48	-22.8	-23.5	19.7	0.00e+00	0	44	0	2550136832	6	3908
2026-01-02 11:20:39.20	12.03	29.35	-22.8	-23.5	19.7	0.00e+00	0	43	0	2555379712	6	3904
2026-01-02 11:20:40.20	11.80	29.22	-22.8	-23.6	19.6	0.00e+00	0	44	0	2561671168	6	3925
2026-01-02 11:20:41.21	11.56	29.09	-22.9	-23.8	19.6	0.00e+00	0	44	0	2566914048	6	3972
2026-01-02 11:20:42.21	11.32	28.96	-22.8	-23.5	19.7	0.00e+00	0	44	0	2573205504	6	3911
2026-01-02 11:20:43.21	11.09	28.83	-22.7	-23.4	19.7	0.00e+00	0	44	0	2578448384	6	3881
2026-01-02 11:20:44.22	10.85	28.70	-22.7	-23.4	19.8	0.00e+00	0	44	0	2583691264	6	3872
2026-01-02 11:20:45.22	10.62	28.57	-22.7	-23.4	19.7	0.00e+00	0	44	0	2589982720	6	3882
2026-01-02 11:20:46.22	10.40	28.44	-22.7	-23.2	19.8	0.00e+00	0	43	0	2595225600	6	3840
2026-01-02 11:20:47.23	10.17	28.31	-22.6	-23.2	19.8	0.00e+00	0	44	0	2601517056	6	3838
2026-01-02 11:20:48.23	9.94	28.18	-22.7	-23.3	19.8	0.00e+00	0	44	0	2606759936	6	3861
2026-01-02 11:20:49.23	9.72	28.06	-22.8	-23.4	19.7	0.00e+00	0	44	0	2612002816	6	3891
2026-01-02 11:20:50.24	9.50	27.92	-22.8	-23.6	19.6	0.00e+00	0	44	0	2618294272	6	3928
2026-01-02 11:20:51.24	9.28	27.80	-23.0	-24.0	19.4	0.00e+00	0	44	0	2623537152	6	4023
2026-01-02 11:20:52.24	9.06	27.67	-23.0	-23.9	19.5	0.00e+00	0	43	0	2628780032	6	3994
2026-01-02 11:20:53.24	8.85	27.54	-23.0	-23.9	19.5	0.00e+00	0	44	0	2635071488	6	3993
2026-01-02 11:20:54.23	8.64	27.41	-23.1	-24.1	19.3	0.00e+00	0	44	0	2640314368	6	4056
2026-01-02 11:20:55.23	8.42	27.28	-22.8	-23.6	19.6	0.00e+00	0	44	0	2645557248	6	3925
2026-01-02 11:20:56.24	8.21	27.15	-22.8	-23.5	19.7	0.00e+00	0	43	0	2651848704	6	3910
2026-01-02 11:20:57.24	8.00	27.03	-22.9	-23.7	19.5	0.00e+00	0	44	0	2657091584	6	3955
2026-01-02 11:20:58.24	7.80	26.90	-22.9	-23.7	19.5	0.00e+00	0	44	0	2663383040	6	3964
2026-01-02 11:20:59.24	7.59	26.77	-23.0	-24.0	19.4	0.00e+00	0	44	0	2668625920	6	4038
2026-01-02 11:21:00.25	7.39	26.64	-22.9	-23.8	19.5	0.00e+00	0	44	0	2673868800	6	3988
2026-01-02 11:21:01.25	7.19	26.51	-23.0	-23.8	19.5	0.00e+00	0	44	0	2680160256	6	3988
2026-01-02 11:21:02.25	6.99	26.39	-23.0	-24.0	19.4	0.00e+00	0	44	0	2685403136	6	4015
2026-01-02 11:21:03.26	6.79	26.26	-23.0	-23.8	19.5	0.00e+00	0	44	0	2690646016	6	3989
2026-01-02 11:21:04.27	6.59	26.13	-23.0	-23.9	19.4	0.00e+00	0	44	0	2696937472	6	4009
2026-01-02 11:21:05.27	6.39	26.01	-23.1	-24.2	19.2	0.00e+00	0	44	0	2702180352	6	4089
2026-01-02 11:21:06.27	6.20	25.88	-23.1	-24.2	19.3	0.00e+00	0	44	0	2708471808	6	4073
2026-01-02 11:21:07.28	6.01	25.75	-23.1	-24.2	19.3	0.00e+00	0	44	0	2713714688	6	4075
2026-01-02 11:21:08.28	5.81	25.63	-23.1	-24.1	19.3	0.00e+00	0	43	0	2718957568	6	4051
2026-01-02 11:21:09.28	5.63	25.50	-23.1	-24.2	19.3	0.00e+00	0	44	0	2725249024	6	4066
2026-01-02 11:21:10.29	5.44	25.37	-23.2	-24.4	19.2	0.00e+00	0	44	0	2730491904	6	4116
2026-01-02 11:21:11.29	5.25	25.25	-23.1	-24.0	19.3	0.00e+00	0	44	0	2736783360	6	4036
2026-01-02 11:21:12.30	5.06	25.12	-23.0	-24.0	19.4	0.00e+00	0	44	0	2742026240	6	4020
2026-01-02 11:21:13.31	4.88	25.00	-23.1	-24.2	19.3	0.00e+00	0	44	0	2747269120	6	4075
2026-01-02 11:21:14.31	4.70	24.87	-23.2	-24.3	19.2	0.00e+00	0	44	0	2753560576	6	4100
2026-01-02 11:21:15.31	4.52	24.75	-23.2	-24.4	19.1	0.00e+00	0	44	0	2758803456	6	4117
2026-01-02 11:21:16.32	4.34	24.63	-23.1	-24.2	19.3	0.00e+00	0	44	0	2765094912	6	4076
2026-01-02 11:21:17.32	4.16	24.50	-23.2	-24.3	19.2	0.00e+00	0	43	0	2770337792	6	4093
2026-01-02 11:21:18.32	3.99	24.38	-23.1	-24.1	19.3	0.00e+00	0	44	0	2775580672	6	4053
2026-01-02 11:21:19.32	3.81	24.26	-23.1	-24.2	19.2	0.00e+00	0	43	0	2781872128	6	4066
2026-01-02 11:21:20.32	3.64	24.13	-23.1	-24.1	19.3	0.00e+00	0	44	0	2787115008	6	4053
2026-01-02 11:21:21.32	3.47	24.01	-23.1	-24.2	19.2	0.00e+00	0	44	0	2792357888	6	4086
2026-01-02 11:21:22.32	3.30	23.89	-23.1	-24.1	19.3	0.00e+00	0	43	0	2798649344	6	4064
2026-01-02 11:21:23.33	3.13	23.77	-23.2	-24.3	19.2	0.00e+00	0	44	0	2803892224	6	4097
2026-01-02 11:21:24.33	2.96	23.65	-23.2	-24.4	19.1	0.00e+00	0	43	0	2810183680	6	4130
2026-01-02 11:21:25.33	2.79	23.53	-23.0	-24.0	19.3	0.00e+00	0	44	0	2815426560	6	4036
2026-01-02 11:21:26.33	2.63	23.41	-23.0	-23.9	19.3	0.00e+00	0	44	0	2820669440	6	4015
2026-01-02 11:21:27.33	2.46	23.28	-23.1	-24.2	19.2	0.00e+00	0	44	0	2826960896	6	4071
2026-01-02 11:21:28.34	2.30	23.16	-23.2	-24.3	19.2	0.00e+00	0	44	0	2832203776	6	4098
2026-01-02 11:21:29.34	2.14	23.04	-23.3	-24.5	19.1	0.00e+00	0	43	0	2837446656	6	4147
2026-01-02 11:21:30.34	1.98	22.92	-23.3	-24.6	19.0	0.00e+00	0	44	0	2843738112	6	4165
2026-01-02 11:21:31.35	1.82	22.80	-23.4	-24.7	18.9	0.00e+00	0	43	0	2848980992	6	4207
2026-01-02 11:21:32.35	1.66	22.69	-23.3	-24.6	19.0	0.00e+00	0	43	0	2855272448	6	4181
2026-01-02 11:21:33.36	1.51	22.57	-23.4	-24.7	18.9	0.00e+00	0	44	0	2860515328	6	4202
2026-01-02 11:21:34.37	1.35	22.45	-23.4	-24.8	18.9	0.00e+00	0	43	0	2865758208	6	4215
2026-01-02 11:21:35.38	1.19	22.33	-23.5	-24.5	18.8	0.00e+00	0	44	0	2872049664	7	4035
2026-01-02 11:21:36.38	1.04	22.21	-23.6	-24.8	18.6	0.00e+00	0	43	0	2877292544	7	4115
2026-01-02 11:21:37.38	0.89	22.09	-23.7	-25.0	18.5	0.00e+00	0	44	0	2883584000	7	4155
2026-01-02 11:21:38.38	0.74	21.98	-23.5	-24.5	18.8	0.00e+00	0	44	0	2888826880	7	4044
2026-01-02 11:21:39.39	0.59	21.86	-23.4	-24.4	18.8	0.00e+00	0	44	0	2894069760	7	4003
2026-01-02 11:21:40.39	0.44	21.74	-23.5	-24.4	18.8	0.00e+00	0	44	0	2900361216	7	4029
2026-01-02 11:21:41.40	0.29	21.63	-23.5	-24.5	18.8	0.00e+00	0	44	0	2905604096	7	4037
2026-01-02 11:21:42.40	0.15	21.51	-23.6	-24.7	18.6	0.00e+00	0	44	0	2910846976	7	4095
2026-01-02 11:21:43.40	0.00	21.39	-23.5	-24.5	18.8	0.00e+00	0	44	0	2917138432	7	4028
2026-01-02 11:21:44.41	359.86	21.28	-23.5	-24.5	18.7	0.00e+00	0	44	0	2922381312	7	4050
2026-01-02 11:21:45.42	359.72	21.16	-23.6	-24.7	18.7	0.00e+00	0	44	0	2928672768	7	4077
2026-01-02 11:21:46.42	359.57	21.05	-23.6	-24.7	18.7	0.00e+00	0	43	0	2933915648	7	4080
2026-01-02 11:21:47.43	359.43	20.93	-23.7	-24.9	18.6	0.00e+00	0	44	0	2940207104	7	4131
2026-01-02 11:21:48.43	359.29	20.82	-23.7	-25.0	18.5	0.00e+00	0	44	0	2945449984	7	4159
2026-01-02 11:21:49.44	359.15	20.71	-23.8	-25.1	18.5	0.00e+00	0	44	0	2950692864	7	4182
2026-01-02 11:21:50.44	359.02	20.59	-23.8	-25.2	18.4	0.00e+00	0	44	0	2956984320	7	4228
2026-01-02 11:21:51.44	358.88	20.48	-23.9	-25.4	18.3	0.00e+00	0	44	0	2962227200	7	4277
2026-01-02 11:21:52.45	358.75	20.37	-23.9	-25.4	18.3	0.00e+00	0	44	0	2967470080	7	4277
2026-01-02 11:21:53.46	358.61	20.25	-24.0	-25.1	18.2	0.00e+00	0	43	0	2973761536	8	4092
2026-01-02 11:21:54.46	358.48	20.14	-24.3	-25.6	17.9	0.00e+00	0	43	0	2979004416	8	4211
2026-01-02 11:21:55.46	358.35	20.03	-24.2	-25.6	17.9	0.00e+00	0	43	0	2985295872	8	4200
2026-01-02 11:21:56.46	358.21	19.92	-24.0	-25.0	18.2	0.00e+00	0	44	0	2990538752	8	4065
2026-01-02 11:21:57.46	358.08	19.81	-23.8	-24.7	18.4	0.00e+00	0	43	0	2995781632	8	3972
2026-01-02 11:21:58.46	357.96	19.70	-23.8	-24.6	18.5	0.00e+00	0	44	0	3002073088	8	3950
2026-01-02 11:21:59.46	357.83	19.59	-23.8	-24.6	18.4	0.00e+00	0	44	0	3007315968	8	3962
2026-01-02 11:22:00.46	357.70	19.48	-23.9	-24.8	18.4	0.00e+00	0	44	0	3013607424	8	3994
2026-01-02 11:22:01.47	357.57	19.37	-23.9	-24.9	18.3	0.00e+00	0	43	0	3018850304	8	4015
2026-01-02 11:22:02.47	357.45	19.26	-23.9	-24.9	18.3	0.00e+00	0	44	0	3024093184	8	4023
2026-01-02 11:22:03.47	357.32	19.15	-24.0	-25.0	18.2	0.00e+00	0	43	0	3030384640	8	4055
2026-01-02 11:22:04.48	357.20	19.04	-24.0	-25.1	18.1	0.00e+00	0	43	0	3035627520	8	4088
2026-01-02 11:22:05.48	357.08	18.94	-24.1	-25.4	18.0	0.00e+00	0	43	0	3040870400	8	4146
2026-01-02 11:22:06.48	356.95	18.83	-24.4	-25.8	17.8	0.00e+00	0	44	0	3047161856	8	4269
2026-01-02 11:22:07.49	356.83	18.72	-24.7	-26.2	17.3	0.00e+00	0	43	0	3052404736	9	4240
2026-01-02 11:22:08.49	356.71	18.61	-24.7	-26.2	17.4	0.00e+00	0	44	0	3057647616	9	4240
2026-01-02 11:22:09.49	356.59	18.51	-24.8	-26.3	17.3	0.00e+00	0	44	0	3063939072	9	4271
2026-01-02 11:22:10.49	356.48	18.40	-24.9	-26.5	17.1	0.00e+00	0	44	0	3069181952	9	4330
2026-01-02 11:22:11.49	356.36	18.29	-24.9	-26.5	17.1	0.00e+00	0	44	0	3075473408	9	4330
2026-01-02 11:22:12.50	356.24	18.19	-24.6	-25.9	17.5	0.00e+00	0	43	0	3080716288	9	4158
2026-01-02 11:22:13.50	356.12	18.08	-24.6	-25.8	17.5	0.00e+00	0	44	0	3085959168	9	4134
2026-01-02 11:22:14.50	356.01	17.98	-24.6	-25.8	17.5	0.00e+00	0	43	0	3092250624	9	4151
2026-01-02 11:22:15.50	355.90	17.87	-24.8	-26.2	17.3	0.00e+00	0	43	0	3097493504	9	4241
2026-01-02 11:22:16.51	355.78	17.77	-24.8	-26.2	17.3	0.00e+00	0	44	0	3103784960	9	4239
2026-01-02 11:22:17.52	355.67	17.66	-24.8	-26.2	17.3	0.00e+00	0	44	0	3109027840	9	4239
2026-01-02 11:22:18.52	355.56	17.56	-24.8	-26.3	17.2	0.00e+00	0	44	0	3114270720	9	4270
2026-01-02 11:22:19.53	355.44	17.45	-24.8	-26.3	17.2	0.00e+00	0	44	0	3120562176	9	4261
2026-01-02 11:22:20.53	355.33	17.35	-24.8	-26.2	17.2	0.00e+00	0	44	0	3125805056	9	4242
2026-01-02 11:22:21.53	355.23	17.25	-24.8	-26.3	17.2	0.00e+00	0	44	0	3131047936	9	4262
2026-01-02 11:22:22.53	355.12	17.15	-24.8	-26.3	17.2	0.00e+00	0	44	0	3137339392	9	4271
2026-01-02 11:22:23.54	355.01	17.04	-24.7	-26.1	17.3	0.00e+00	0	44	0	3142582272	9	4227
2026-01-02 11:22:24.54	354.90	16.94	-24.8	-26.3	17.2	0.00e+00	0	44	0	3148873728	9	4285
2026-01-02 11:22:25.55	354.79	16.84	-24.9	-26.5	17.1	0.00e+00	0	43	0	3154116608	9	4332
2026-01-02 11:22:26.55	354.69	16.74	-25.1	-26.4	16.9	0.00e+00	0	44	0	3159359488	10	4179
2026-01-02 11:22:27.55	354.58	16.64	-25.1	-26.3	16.9	0.00e+00	0	44	0	3165650944	10	4177
2026-01-02 11:22:28.56	354.48	16.54	-25.0	-26.3	16.9	0.00e+00	0	43	0	3170893824	10	4156
2026-01-02 11:22:29.56	354.38	16.44	-25.0	-26.3	16.9	0.00e+00	0	44	0	3177185280	10	4167
2026-01-02 11:22:30.56	354.27	16.34	-25.1	-26.4	16.8	0.00e+00	0	43	0	3182428160	10	4191
2026-01-02 11:22:31.57	354.17	16.24	-25.0	-26.3	16.9	0.00e+00	0	44	0	3187671040	10	4156
2026-01-02 11:22:32.57	354.07	16.14	-25.1	-26.4	16.9	0.00e+00	0	44	0	3193962496	10	4190
2026-01-02 11:22:33.58	353.97	16.04	-25.2	-26.6	16.7	0.00e+00	0	44	0	3199205376	10	4230
2026-01-02 11:22:34.58	353.87	15.94	-25.2	-26.7	16.6	0.00e+00	0	44	0	3204448256	10	4275
2026-01-02 11:22:35.58	353.77	15.84	-25.0	-26.2	16.9	0.00e+00	0	44	0	3210739712	10	4142
2026-01-02 11:22:36.58	353.67	15.74	-25.0	-26.3	16.9	0.00e+00	0	43	0	3215982592	10	4162
2026-01-02 11:22:37.59	353.57	15.64	-25.1	-26.4	16.8	0.00e+00	0	44	0	3222274048	10	4187
2026-01-02 11:22:38.58	353.48	15.55	-25.1	-26.5	16.8	0.00e+00	0	44	0	3227516928	10	4216
2026-01-02 11:22:39.59	353.38	15.45	-25.1	-26.5	16.8	0.00e+00	0	44	0	3232759808	10	4218
2026-01-02 11:22:40.59	353.28	15.35	-25.2	-26.7	16.6	0.00e+00	0	44	0	3239051264	10	4280
2026-01-02 11:22:41.60	353.19	15.26	-25.3	-27.0	16.5	0.00e+00	0	44	0	3244294144	10	4348
2026-01-02 11:22:42.60	353.09	15.16	-25.3	-26.9	16.5	0.00e+00	0	44	0	3249537024	10	4330
2026-01-02 11:22:43.60	353.00	15.06	-25.3	-26.9	16.5	0.00e+00	0	44	0	3255828480	10	4315
2026-01-02 11:22:44.60	352.90	14.97	-25.4	-27.0	16.4	0.00e+00	0	44	0	3261071360	10	4358
2026-01-02 11:22:45.60	352.81	14.87	-25.4	-27.1	16.4	0.00e+00	0	44	0	3266314240	10	4376
2026-01-02 11:22:46.61	352.72	14.78	-25.4	-27.1	16.4	0.00e+00	0	44	0	3272605696	10	4373
2026-01-02 11:22:47.61	352.63	14.68	-25.2	-26.7	16.6	0.00e+00	0	44	0	3277848576	10	4272
2026-01-02 11:22:48.61	352.54	14.59	-25.2	-26.7	16.6	0.00e+00	0	44	0	3284140032	10	4277
2026-01-02 11:22:49.62	352.44	14.49	-25.3	-26.8	16.5	0.00e+00	0	43	0	3289382912	10	4292
2026-01-02 11:22:50.62	352.36	14.40	-25.3	-26.9	16.5	1.10e-06	0	44	0	3295674368	10	4326
2026-01-02 11:22:51.63	352.27	14.31	-25.5	-26.9	16.2	0.00e+00	0	44	0	3300917248	11	4207
2026-01-02 11:22:52.63	352.18	14.21	-25.5	-26.9	16.2	0.00e+00	0	43	0	3306160128	11	4197
2026-01-02 11:22:53.64	352.09	14.12	-25.6	-26.9	16.2	0.00e+00	0	44	0	3312451584	11	4216
2026-01-02 11:22:54.63	352.00	14.03	-25.7	-27.3	16.0	0.00e+00	0	43	0	3317694464	11	4317
2026-01-02 11:22:55.64	351.91	13.93	-25.8	-27.5	15.9	0.00e+00	0	44	0	3322937344	11	4359
2026-01-02 11:22:56.64	351.83	13.84	-25.6	-27.1	16.1	0.00e+00	0	44	0	3329228800	11	4262
2026-01-02 11:22:57.65	351.74	13.75	-25.7	-27.3	15.9	0.00e+00	0	44	0	3334471680	11	4330
2026-01-02 11:22:58.64	351.66	13.66	-25.7	-27.2	16.0	1.10e-06	0	44	0	3339714560	11	4292
2026-01-02 11:22:59.64	351.57	13.57	-26.0	-27.9	15.6	0.00e+00	0	44	0	3346006016	11	4475
2026-01-02 11:23:00.64	351.49	13.48	-26.0	-27.5	15.5	0.00e+00	0	43	0	3351248896	12	4265
2026-01-02 11:23:01.64	351.41	13.39	-25.8	-26.9	15.8	0.00e+00	0	44	0	3357540352	12	4100
2026-01-02 11:23:02.63	351.32	13.30	-25.8	-26.9	15.8	0.00e+00	0	44	0	3362783232	12	4112
2026-01-02 11:23:03.63	351.24	13.21	-25.7	-26.9	15.8	0.00e+00	0	43	0	3368026112	12	4095
2026-01-02 11:23:04.63	351.16	13.12	-25.7	-26.8	15.8	0.00e+00	0	43	0	3374317568	12	4092
2026-01-02 11:23:05.64	351.08	13.03	-25.7	-26.8	15.8	0.00e+00	0	43	0	3379560448	12	4090
2026-01-02 11:23:06.64	351.00	12.94	-25.8	-27.1	15.7	0.00e+00	0	43	0	3384803328	12	4155
2026-01-02 11:23:07.64	350.92	12.85	-25.8	-27.0	15.7	0.00e+00	0	44	0	3391094784	12	4121
2026-01-02 11:23:08.64	350.84	12.76	-25.6	-26.5	16.0	0.00e+00	0	44	0	3396337664	12	3993
2026-01-02 11:23:09.65	350.76	12.67	-25.5	-26.3	16.1	0.00e+00	0	44	0	3401580544	12	3961
2026-01-02 11:23:10.65	350.68	12.58	-25.5	-26.3	16.1	0.00e+00	0	44	0	3407872000	12	3963
2026-01-02 11:23:11.66	350.60	12.49	-25.6	-26.6	15.9	0.00e+00	0	44	0	3413114880	12	4042
2026-01-02 11:23:12.66	350.52	12.40	-25.7	-26.8	15.8	0.00e+00	0	44	0	3419406336	12	4090
2026-01-02 11:23:13.66	350.44	12.32	-25.8	-27.0	15.7	0.00e+00	0	44	0	3424649216	12	4130
2026-01-02 11:23:14.67	350.36	12.23	-26.0	-27.5	15.4	0.00e+00	0	44	0	3430940672	12	4274
2026-01-02 11:23:15.67	350.29	12.14	-26.0	-27.4	15.4	0.00e+00	0	43	0	3436183552	12	4246
2026-01-02 11:23:16.67	350.21	12.06	-25.8	-27.1	15.6	0.00e+00	0	44	0	3441426432	12	4152
2026-01-02 11:23:17.68	350.14	11.97	-25.8	-27.0	15.7	0.00e+00	0	43	0	3447717888	12	4126
2026-01-02 11:23:18.69	350.06	11.88	-25.8	-27.0	15.6	0.00e+00	0	44	0	3452960768	12	4144
2026-01-02 11:23:19.69	349.99	11.80	-25.8	-27.0	15.7	0.00e+00	0	43	0	3458203648	12	4136
2026-01-02 11:23:20.69	349.91	11.71	-25.9	-27.2	15.5	0.00e+00	0	43	0	3464495104	12	4175
2026-01-02 11:23:21.69	349.84	11.62	-25.9	-27.2	15.5	0.00e+00	0	44	0	3469737984	12	4190
2026-01-02 11:23:22.69	349.76	11.54	-26.0	-27.3	15.4	0.00e+00	0	43	0	3474980864	12	4229
2026-01-02 11:23:23.70	349.69	11.45	-26.0	-27.4	15.4	0.00e+00	0	44	0	3481272320	12	4251
2026-01-02 11:23:24.71	349.62	11.37	-26.1	-27.7	15.2	0.00e+00	0	44	0	3486515200	12	4332
2026-01-02 11:23:25.71	349.55	11.28	-26.1	-27.6	15.3	0.00e+00	0	44	0	3492806656	12	4300
2026-01-02 11:23:26.71	349.48	11.20	-25.9	-27.2	15.5	0.00e+00	0	43	0	3498049536	12	4199
2026-01-02 11:23:27.71	349.40	11.12	-26.2	-28.0	15.1	0.00e+00	0	44	0	3504340992	12	4412
2026-01-02 11:23:28.71	349.33	11.03	-26.4	-28.4	14.8	0.00e+00	0	43	0	3509583872	12	4524
2026-01-02 11:23:29.71	349.26	10.95	-26.6	-28.4	14.5	1.10e-06	0	44	0	3514826752	13	4424
2026-01-02 11:23:30.71	349.19	10.87	-26.3	-27.7	15.0	0.00e+00	0	44	0	3521118208	13	4210
2026-01-02 11:23:31.71	349.12	10.78	-26.4	-27.8	14.9	0.00e+00	0	43	0	3526361088	13	4251
2026-01-02 11:23:32.72	349.05	10.70	-26.4	-27.9	14.8	0.00e+00	0	43	0	3531603968	13	4269
2026-01-02 11:23:33.72	348.99	10.62	-26.8	-28.8	14.3	0.00e+00	0	44	0	3537895424	13	4530
2026-01-02 11:23:34.73	348.92	10.53	-26.9	-28.5	14.2	1.10e-06	0	44	0	3543138304	14	4341
2026-01-02 11:23:35.72	348.85	10.45	-26.6	-27.8	14.6	0.00e+00	0	44	0	3548381184	14	4140
2026-01-02 11:23:36.73	348.78	10.37	-26.2	-27.4	15.0	0.00e+00	0	44	0	3554672640	13	4144
2026-01-02 11:23:37.73	348.72	10.29	-26.1	-27.2	15.2	0.00e+00	0	44	0	3559915520	13	4084
2026-01-02 11:23:38.74	348.65	10.21	-26.1	-27.2	15.2	0.00e+00	0	44	0	3566206976	13	4088
2026-01-02 11:23:39.75	348.58	10.12	-26.1	-27.2	15.1	0.00e+00	0	44	0	3571449856	13	4100
2026-01-02 11:23:40.76	348.52	10.04	-26.2	-27.4	15.1	0.00e+00	0	43	0	3576692736	13	4133
2026-01-02 11:23:41.76	348.45	9.96	-26.2	-27.4	15.0	0.00e+00	0	44	0	3582984192	13	4148
2026-01-02 11:23:42.77	348.38	9.88	-26.1	-27.3	15.1	0.00e+00	0	43	0	3588227072	13	4118
2026-01-02 11:23:43.77	348.32	9.80	-26.2	-27.4	15.0	0.00e+00	0	43	0	3594518528	13	4146
2026-01-02 11:23:44.78	348.26	9.72	-26.2	-27.4	15.0	0.00e+00	0	44	0	3599761408	13	4133
2026-01-02 11:23:45.78	348.19	9.64	-26.3	-27.8	14.8	1.10e-06	0	44	0	3605004288	13	4254
2026-01-02 11:23:46.79	348.13	9.56	-26.4	-27.9	14.7	0.00e+00	0	43	0	3611295744	13	4288
2026-01-02 11:23:47.79	348.06	9.48	-26.3	-27.8	14.8	0.00e+00	0	43	0	3616538624	13	4246
2026-01-02 11:23:48.80	348.00	9.40	-26.4	-28.0	14.6	0.00e+00	0	44	0	3621781504	13	4304
2026-01-02 11:23:49.80	347.94	9.32	-26.5	-28.0	14.6	0.00e+00	0	43	0	3628072960	13	4312
2026-01-02 11:23:50.80	347.88	9.24	-26.5	-28.2	14.5	0.00e+00	0	43	0	3633315840	13	4366
2026-01-02 11:23:51.80	347.82	9.16	-26.5	-28.1	14.5	0.00e+00	0	44	0	3639607296	13	4335
2026-01-02 11:23:52.81	347.75	9.09	-26.4	-27.9	14.7	0.00e+00	0	43	0	3644850176	13	4273
2026-01-02 11:23:53.81	347.69	9.01	-26.5	-28.0	14.6	0.00e+00	0	44	0	3651141632	13	4307
2026-01-02 11:23:54.82	347.63	8.93	-26.4	-27.8	14.7	0.00e+00	0	44	0	3656384512	13	4262
2026-01-02 11:23:55.82	347.57	8.85	-26.4	-27.8	14.7	0.00e+00	0	43	0	3661627392	13	4259
2026-01-02 11:23:56.82	347.51	8.77	-26.4	-27.9	14.6	0.00e+00	0	44	0	3667918848	13	4287
2026-01-02 11:23:57.83	347.45	8.70	-26.3	-27.6	14.8	0.00e+00	0	44	0	3673161728	13	4205
2026-01-02 11:23:58.83	347.39	8.62	-26.3	-27.6	14.8	0.00e+00	0	44	0	3678404608	13	4195
2026-01-02 11:23:59.83	347.33	8.54	-26.3	-27.6	14.8	0.00e+00	0	44	0	3684696064	13	4208
2026-01-02 11:24:00.84	347.27	8.47	-26.4	-27.8	14.7	0.00e+00	0	44	0	3689938944	13	4257
2026-01-02 11:24:01.84	347.22	8.39	-26.4	-27.9	14.6	0.00e+00	0	43	0	3695181824	13	4267
2026-01-02 11:24:02.84	347.16	8.31	-26.5	-28.1	14.5	0.00e+00	0	44	0	3701473280	13	4334
2026-01-02 11:24:03.85	347.10	8.24	-26.6	-28.3	14.4	1.10e-06	0	44	0	3706716160	13	4379
2026-01-02 11:24:04.85	347.04	8.16	-26.5	-28.1	14.4	1.10e-06	0	44	0	3713007616	13	4350
2026-01-02 11:24:05.85	346.99	8.08	-26.5	-28.3	14.4	0.00e+00	0	44	0	3718250496	13	4382
2026-01-02 11:24:06.85	346.93	8.01	-26.5	-28.1	14.4	2.20e-06	0	44	0	3723493376	13	4349
2026-01-02 11:24:07.85	346.87	7.93	-26.6	-28.3	14.3	0.00e+00	0	43	0	3729784832	13	4403
2026-01-02 11:24:08.85	346.82	7.86	-26.5	-28.2	14.4	0.00e+00	0	43	0	3735027712	13	4359
2026-01-02 11:24:09.86	346.76	7.78	-26.7	-28.5	14.2	0.00e+00	0	43	0	3740270592	13	4459
2026-01-02 11:24:10.86	346.70	7.71	-26.6	-28.4	14.3	0.00e+00	0	44	0	3746562048	13	4415
2026-01-02 11:24:11.87	346.65	7.63	-26.5	-28.2	14.3	0.00e+00	0	44	0	3751804928	13	4380
2026-01-02 11:24:12.88	346.59	7.56	-26.6	-28.5	14.2	0.00e+00	0	43	0	3758096384	13	4443
2026-01-02 11:24:13.88	346.54	7.49	-26.6	-28.4	14.2	1.10e-06	0	43	0	3763339264	13	4429
2026-01-02 11:24:14.89	346.48	7.41	-26.6	-28.4	14.2	0.00e+00	0	44	0	3768582144	13	4443
2026-01-02 11:24:15.89	346.43	7.34	-26.8	-28.8	13.9	0.00e+00	0	44	0	3774873600	13	4559
2026-01-02 11:24:16.90	346.38	7.26	-26.8	-28.8	14.0	0.00e+00	0	44	0	3780116480	13	4534
2026-01-02 11:24:17.90	346.32	7.19	-26.8	-29.0	13.8	0.00e+00	0	43	0	3786407936	13	4601
2026-01-02 11:24:18.90	346.27	7.12	-26.7	-28.7	14.0	2.20e-06	0	43	0	3791650816	13	4503
2026-01-02 11:24:19.90	346.22	7.04	-32.2	-39.5	4.0	6.14e-01	0	44	104	3794796544	25	8346
2026-01-02 11:24:20.90	346.17	6.97	-33.0	-44.1	3.8	8.45e-01	0	43	104	3794796544	25	12884
2026-01-02 11:24:21.91	346.11	6.90	-33.3	-44.7	3.8	8.46e-01	0	44	104	3794796544	26	13300

#Closed at: 2026-01-02 11:24:22
#Recorded file [3794 MB]: D:/data/31010_260102_141304.dat