passes_logs/2026/01/02/R2M6_AANII_01/R2M6_AANII_01__20260102_001821_SUOMI_NPP_rec.log

#Pass ID: 20260102_001821_SUOMI NPP
#Satellite: SUOMI NPP
#Configuration: NPP
#almurnet v.1.7.20240730
#Start time: 2026-01-02 00:18:22

#Version: 2.2.20231116
#Station: R2M6_AANII_01
#Location: 30.233357 lon 59.946436 lat
#TLE: 1 37849U 11061A   26001.07732418  .00000182  00000+0  10735-3 0  9990
#TLE: 2 37849  98.7795 303.2470 0002580  87.2016 272.9455 14.19520779734739

#Time	Az	El	Level	Level2	SNR	BER	BlckErr	Temp	State	Recorded	gain1	gain2
2026-01-02 00:18:22.14	18.75	7.07	-31.3	-37.3	4.7	1.37e+00	0	41	0	0	22	7155
2026-01-02 00:18:23.14	18.76	7.15	-31.2	-36.6	4.8	1.35e+00	0	41	104	0	22	6688
2026-01-02 00:18:24.14	18.77	7.23	-31.3	-36.8	6.8	1.84e-01	0	41	0	0	22	6787
2026-01-02 00:18:25.14	18.78	7.31	-31.3	-36.9	6.8	1.94e-01	0	41	0	1048576	22	6833
2026-01-02 00:18:26.14	18.79	7.38	-31.3	-36.8	6.9	1.73e-01	0	41	0	3145728	22	6783
2026-01-02 00:18:27.14	18.80	7.46	-31.3	-36.9	6.8	1.94e-01	0	41	0	5242880	22	6832
2026-01-02 00:18:28.14	18.81	7.54	-31.2	-36.4	7.2	1.55e-01	0	41	0	7340032	22	6549
2026-01-02 00:18:29.14	18.82	7.62	-31.0	-35.5	7.9	8.28e-02	0	41	0	9437184	22	5992
2026-01-02 00:18:30.15	18.83	7.70	-30.8	-34.5	8.6	5.22e-02	0	41	0	10485760	22	5519
2026-01-02 00:18:31.15	18.84	7.78	-30.6	-34.3	9.2	3.13e-02	0	41	0	12582912	21	5480
2026-01-02 00:18:32.16	18.85	7.86	-30.4	-34.1	9.7	1.47e-02	0	41	0	14680064	20	5489
2026-01-02 00:18:33.16	18.86	7.94	-30.2	-33.4	10.2	5.67e-03	0	41	0	16777216	20	5189
2026-01-02 00:18:34.17	18.87	8.02	-30.1	-32.8	10.7	3.86e-03	0	41	0	17825792	20	4928
2026-01-02 00:18:35.17	18.88	8.10	-29.9	-32.6	11.3	2.99e-03	0	41	0	19922944	19	4925
2026-01-02 00:18:36.18	18.89	8.18	-29.8	-32.3	11.5	1.00e-03	0	41	0	22020096	19	4807
2026-01-02 00:18:37.18	18.90	8.26	-29.9	-32.6	11.2	1.22e-03	0	41	0	24117248	19	4941
2026-01-02 00:18:38.18	18.91	8.34	-30.0	-32.9	11.1	1.19e-03	0	41	0	26214400	19	5061
2026-01-02 00:18:39.18	18.92	8.42	-29.8	-32.4	11.4	9.93e-04	0	41	0	27262976	19	4850
2026-01-02 00:18:40.18	18.93	8.50	-29.8	-32.5	11.4	1.06e-03	0	41	0	29360128	19	4882
2026-01-02 00:18:41.19	18.94	8.58	-29.9	-32.8	11.2	1.15e-03	0	41	0	31457280	19	4994
2026-01-02 00:18:42.19	18.96	8.66	-29.8	-32.4	11.5	9.38e-04	0	41	0	33554432	19	4838
2026-01-02 00:18:43.19	18.97	8.75	-29.9	-32.5	11.4	1.98e-03	0	41	0	35651584	19	4895
2026-01-02 00:18:44.19	18.98	8.83	-29.9	-32.7	11.3	1.13e-03	0	41	0	36700160	19	4950
2026-01-02 00:18:45.19	18.99	8.91	-29.8	-32.5	11.5	9.75e-04	0	42	0	38797312	19	4860
2026-01-02 00:18:46.20	19.00	9.00	-29.1	-31.9	11.1	2.04e-03	0	41	0	40894464	19	4986
2026-01-02 00:18:47.20	19.01	9.08	-30.1	-33.1	10.8	1.70e-03	0	41	0	42991616	19	5107
2026-01-02 00:18:48.20	19.02	9.16	-30.1	-32.8	10.7	2.76e-03	0	41	0	45088768	20	4923
2026-01-02 00:18:49.21	19.03	9.25	-30.0	-32.5	10.4	2.95e-03	0	42	0	46137344	20	4806
2026-01-02 00:18:50.22	19.04	9.33	-29.9	-32.5	11.4	1.99e-03	0	42	0	48234496	19	4870
2026-01-02 00:18:51.22	19.05	9.42	-29.7	-31.9	11.9	5.19e-04	0	42	0	50331648	19	4651
2026-01-02 00:18:52.23	19.06	9.50	-29.8	-32.2	11.3	4.11e-03	0	42	0	52428800	19	4750
2026-01-02 00:18:53.22	19.07	9.58	-29.8	-32.4	11.6	1.83e-03	0	42	0	54525952	19	4815
2026-01-02 00:18:54.23	19.08	9.67	-29.8	-32.2	11.7	5.25e-04	0	41	0	55574528	19	4753
2026-01-02 00:18:55.23	19.10	9.76	-29.8	-32.4	11.7	5.17e-04	0	42	0	57671680	19	4812
2026-01-02 00:18:56.23	19.11	9.84	-29.8	-32.2	11.8	1.53e-03	0	42	0	59768832	19	4754
2026-01-02 00:18:57.23	19.12	9.93	-29.7	-32.1	11.8	4.14e-04	0	42	0	61865984	19	4719
2026-01-02 00:18:58.23	19.13	10.01	-29.8	-32.4	11.6	5.68e-04	0	42	0	62914560	19	4838
2026-01-02 00:18:59.23	19.14	10.10	-29.9	-32.7	11.4	4.29e-03	0	42	0	65011712	19	4935
2026-01-02 00:19:00.23	19.15	10.19	-29.8	-32.3	11.6	7.45e-04	0	42	0	67108864	19	4800
2026-01-02 00:19:01.23	19.16	10.27	-29.9	-32.6	11.5	6.81e-04	0	42	0	69206016	19	4915
2026-01-02 00:19:02.23	19.17	10.36	-29.9	-32.2	11.3	9.18e-04	0	42	0	71303168	20	4694
2026-01-02 00:19:03.22	19.19	10.45	-30.0	-32.5	11.1	1.94e-03	0	42	0	72351744	20	4780
2026-01-02 00:19:04.23	19.20	10.54	-30.0	-32.6	11.1	2.55e-03	0	42	0	74448896	20	4806
2026-01-02 00:19:05.23	19.21	10.63	-30.1	-32.8	10.9	1.58e-03	0	42	0	76546048	20	4886
2026-01-02 00:19:06.23	19.22	10.72	-30.1	-32.6	11.1	2.00e-03	0	42	0	78643200	20	4809
2026-01-02 00:19:07.22	19.23	10.80	-30.0	-32.7	11.5	1.89e-03	0	42	0	80740352	19	4946
2026-01-02 00:19:08.23	19.24	10.89	-30.0	-32.4	11.2	1.01e-03	0	42	0	81788928	20	4738
2026-01-02 00:19:09.23	19.25	10.98	-29.9	-32.2	11.4	1.06e-03	0	42	0	83886080	20	4660
2026-01-02 00:19:10.24	19.27	11.07	-30.0	-32.3	11.3	4.58e-03	0	42	0	85983232	20	4696
2026-01-02 00:19:11.24	19.28	11.17	-29.9	-32.5	11.6	1.70e-03	0	42	0	88080384	19	4845
2026-01-02 00:19:12.25	19.29	11.26	-29.6	-31.6	12.2	4.53e-04	0	42	0	90177536	19	4545
2026-01-02 00:19:13.24	19.30	11.35	-29.5	-31.4	12.4	3.73e-03	0	42	0	91226112	19	4467
2026-01-02 00:19:14.24	19.31	11.44	-29.3	-31.4	12.8	9.39e-04	0	42	0	93323264	18	4541
2026-01-02 00:19:15.24	19.32	11.53	-29.3	-31.3	12.8	3.66e-05	0	42	0	95420416	18	4502
2026-01-02 00:19:16.24	19.34	11.62	-29.4	-31.5	12.7	5.95e-05	0	42	0	97517568	18	4593
2026-01-02 00:19:17.24	19.35	11.71	-29.3	-31.1	12.9	3.34e-03	0	42	0	99614720	18	4461
2026-01-02 00:19:18.24	19.36	11.81	-29.3	-31.1	13.0	4.19e-05	0	42	0	100663296	18	4437
2026-01-02 00:19:19.25	19.37	11.90	-29.2	-30.9	13.2	2.44e-05	0	42	0	102760448	18	4378
2026-01-02 00:19:20.25	19.38	12.00	-29.2	-30.9	13.2	3.13e-03	0	42	0	104857600	18	4369
2026-01-02 00:19:21.26	19.40	12.09	-29.0	-30.4	13.5	1.69e-04	0	42	0	106954752	18	4233
2026-01-02 00:19:22.26	19.41	12.18	-29.1	-30.7	13.2	2.51e-05	0	42	0	108003328	18	4324
2026-01-02 00:19:23.27	19.42	12.28	-29.2	-30.9	13.2	3.02e-03	0	42	0	110100480	18	4373
2026-01-02 00:19:24.27	19.43	12.38	-29.1	-30.7	13.3	1.37e-04	0	42	0	112197632	18	4315
2026-01-02 00:19:25.28	19.45	12.47	-29.1	-30.6	13.3	5.77e-04	0	42	0	114294784	18	4277
2026-01-02 00:19:26.28	19.46	12.57	-29.2	-30.8	13.2	2.44e-05	0	42	0	116391936	18	4350
2026-01-02 00:19:27.29	19.47	12.66	-29.0	-30.5	13.4	1.26e-04	0	42	0	117440512	18	4244
2026-01-02 00:19:28.30	19.48	12.76	-29.0	-30.5	13.4	2.76e-03	0	42	0	119537664	18	4255
2026-01-02 00:19:29.29	19.50	12.86	-29.2	-30.8	13.2	1.52e-05	0	42	0	121634816	18	4344
2026-01-02 00:19:30.30	19.51	12.96	-29.1	-30.6	13.3	1.53e-04	0	42	0	123731968	18	4293
2026-01-02 00:19:31.30	19.52	13.05	-29.2	-30.8	13.2	2.98e-03	0	42	0	125829120	18	4335
2026-01-02 00:19:32.30	19.53	13.15	-29.1	-30.5	13.4	4.58e-04	0	42	0	126877696	18	4267
2026-01-02 00:19:33.30	19.55	13.25	-28.8	-29.9	13.8	6.71e-05	0	42	0	128974848	18	4061
2026-01-02 00:19:34.30	19.56	13.35	-28.9	-30.5	13.7	2.78e-03	0	42	0	131072000	17	4359
2026-01-02 00:19:35.30	19.57	13.45	-28.9	-30.6	13.7	2.61e-03	0	42	0	133169152	17	4379
2026-01-02 00:19:36.30	19.59	13.55	-28.8	-30.4	13.9	8.30e-06	0	42	0	135266304	17	4306
2026-01-02 00:19:37.31	19.60	13.65	-28.8	-30.4	13.8	2.55e-03	0	42	0	136314880	17	4311
2026-01-02 00:19:38.31	19.61	13.75	-28.7	-30.1	14.0	2.78e-03	0	42	0	138412032	17	4214
2026-01-02 00:19:39.32	19.63	13.85	-28.7	-30.1	14.1	7.70e-05	0	42	0	140509184	17	4212
2026-01-02 00:19:40.32	19.64	13.95	-28.8	-30.2	13.9	2.85e-03	0	42	0	142606336	17	4248
2026-01-02 00:19:41.32	19.65	14.05	-28.7	-30.0	14.1	2.81e-03	0	42	0	144703488	17	4175
2026-01-02 00:19:42.32	19.67	14.16	-28.7	-30.1	14.0	5.41e-05	0	42	0	145752064	17	4222
2026-01-02 00:19:43.32	19.68	14.26	-28.8	-30.4	13.9	3.80e-06	0	42	0	147849216	17	4297
2026-01-02 00:19:44.32	19.69	14.36	-28.8	-30.2	14.0	2.62e-03	0	43	0	149946368	17	4233
2026-01-02 00:19:45.32	19.71	14.47	-28.7	-30.1	14.0	2.97e-05	0	42	0	152043520	17	4221
2026-01-02 00:19:46.32	19.72	14.57	-28.8	-30.3	13.9	2.52e-03	0	42	0	153092096	17	4273
2026-01-02 00:19:47.32	19.73	14.67	-28.7	-29.9	14.1	2.72e-03	0	43	0	155189248	17	4165
2026-01-02 00:19:48.32	19.75	14.78	-28.7	-30.0	14.1	2.21e-05	0	42	0	157286400	17	4198
2026-01-02 00:19:49.32	19.76	14.89	-28.6	-29.8	14.3	2.78e-03	0	42	0	159383552	17	4127
2026-01-02 00:19:50.33	19.77	14.99	-28.7	-30.0	14.1	1.50e-06	0	43	0	161480704	17	4200
2026-01-02 00:19:51.33	19.79	15.10	-28.7	-30.1	14.0	5.26e-05	0	42	0	162529280	17	4225
2026-01-02 00:19:52.33	19.80	15.20	-28.7	-29.9	14.2	2.68e-03	0	43	0	164626432	17	4150
2026-01-02 00:19:53.33	19.82	15.31	-28.8	-30.2	14.0	2.55e-03	0	43	0	166723584	17	4239
2026-01-02 00:19:54.33	19.83	15.42	-28.7	-29.9	14.2	7.00e-07	0	43	0	168820736	17	4168
2026-01-02 00:19:55.33	19.84	15.53	-28.7	-30.1	14.1	2.49e-03	0	43	0	170917888	17	4214
2026-01-02 00:19:56.33	19.86	15.64	-28.8	-30.3	14.0	2.84e-03	0	43	0	171966464	17	4277
2026-01-02 00:19:57.34	19.87	15.75	-28.6	-29.7	14.3	1.50e-06	0	43	0	174063616	17	4106
2026-01-02 00:19:58.34	19.89	15.86	-28.6	-29.7	14.4	2.78e-03	0	43	0	176160768	17	4095
2026-01-02 00:19:59.34	19.90	15.97	-28.6	-29.8	14.3	2.79e-03	0	43	0	178257920	17	4114
2026-01-02 00:20:00.34	19.92	16.08	-28.7	-30.0	14.3	5.79e-05	0	43	0	180355072	17	4166
2026-01-02 00:20:01.34	19.93	16.19	-28.6	-29.7	14.4	2.89e-03	0	43	0	181403648	17	4106
2026-01-02 00:20:02.34	19.95	16.30	-28.6	-29.8	14.3	2.85e-03	0	43	0	183500800	17	4136
2026-01-02 00:20:03.34	19.96	16.41	-28.6	-29.7	14.4	1.37e-05	0	43	0	185597952	17	4089
2026-01-02 00:20:04.35	19.98	16.53	-28.6	-29.8	14.4	7.88e-04	0	43	0	187695104	17	4112
2026-01-02 00:20:05.36	19.99	16.64	-28.7	-29.9	14.3	3.00e-03	0	43	0	189792256	17	4131
2026-01-02 00:20:06.36	20.01	16.75	-28.6	-29.8	14.3	1.50e-06	0	43	0	190840832	17	4136
2026-01-02 00:20:07.37	20.02	16.87	-28.7	-29.9	14.3	1.75e-04	0	43	0	192937984	17	4145
2026-01-02 00:20:08.37	20.04	16.98	-28.7	-30.0	14.2	3.05e-03	0	43	0	195035136	17	4182
2026-01-02 00:20:09.37	20.05	17.10	-28.7	-30.1	14.2	2.20e-06	0	43	0	197132288	17	4198
2026-01-02 00:20:10.38	20.07	17.22	-29.0	-30.6	13.8	3.05e-03	0	43	0	198180864	17	4363
2026-01-02 00:20:11.38	20.08	17.33	-29.2	-30.7	13.5	7.12e-04	0	43	0	200278016	18	4276
2026-01-02 00:20:12.39	20.10	17.45	-29.1	-30.5	13.7	1.50e-06	0	43	0	202375168	18	4221
2026-01-02 00:20:13.39	20.11	17.57	-29.2	-30.8	13.5	2.85e-03	0	43	0	204472320	18	4323
2026-01-02 00:20:14.39	20.13	17.69	-29.1	-30.4	13.7	5.30e-06	0	43	0	206569472	18	4205
2026-01-02 00:20:15.38	20.15	17.80	-29.1	-30.5	13.7	3.00e-06	0	43	0	207618048	18	4215
2026-01-02 00:20:16.38	20.16	17.92	-29.2	-30.8	13.5	3.05e-03	0	43	0	209715200	18	4322
2026-01-02 00:20:17.38	20.18	18.04	-29.3	-31.1	13.3	2.93e-03	0	43	0	211812352	18	4408
2026-01-02 00:20:18.39	20.19	18.17	-29.2	-30.9	13.4	1.14e-05	0	43	0	213909504	18	4335
2026-01-02 00:20:19.38	20.21	18.29	-29.4	-31.3	13.2	3.00e-03	0	43	0	216006656	18	4480
2026-01-02 00:20:20.38	20.23	18.41	-29.3	-30.9	13.4	3.03e-03	0	43	0	217055232	18	4354
2026-01-02 00:20:21.39	20.24	18.53	-29.4	-31.3	13.2	1.22e-05	0	43	0	219152384	18	4474
2026-01-02 00:20:22.39	20.26	18.65	-29.3	-31.1	13.3	1.08e-03	0	43	0	221249536	18	4405
2026-01-02 00:20:23.39	20.28	18.78	-29.3	-30.9	13.4	3.35e-03	0	43	0	223346688	18	4343
2026-01-02 00:20:24.39	20.29	18.90	-29.2	-30.8	13.5	2.05e-05	0	43	0	225443840	18	4335
2026-01-02 00:20:25.40	20.31	19.03	-29.3	-31.1	13.4	7.94e-04	0	43	0	226492416	18	4405
2026-01-02 00:20:26.40	20.33	19.15	-29.2	-30.8	13.5	3.19e-03	0	43	0	228589568	18	4322
2026-01-02 00:20:27.40	20.34	19.28	-29.4	-31.2	13.2	2.51e-05	0	43	0	230686720	18	4453
2026-01-02 00:20:28.41	20.36	19.41	-29.4	-31.2	13.3	2.36e-05	0	43	0	232783872	18	4447
2026-01-02 00:20:29.42	20.38	19.53	-29.4	-31.4	13.1	1.29e-03	0	43	0	234881024	18	4521
2026-01-02 00:20:30.43	20.40	19.66	-29.5	-31.1	13.0	3.35e-05	0	43	0	235929600	19	4325
2026-01-02 00:20:31.44	20.41	19.79	-29.6	-31.4	12.9	6.40e-05	0	43	0	238026752	19	4417
2026-01-02 00:20:32.44	20.43	19.92	-29.5	-31.2	13.0	9.92e-04	0	43	0	240123904	19	4338
2026-01-02 00:20:33.44	20.45	20.05	-29.9	-32.2	12.3	5.11e-05	0	43	0	242221056	19	4696
2026-01-02 00:20:34.44	20.47	20.18	-30.1	-32.4	11.7	3.64e-03	0	43	0	243269632	20	4678
2026-01-02 00:20:35.45	20.49	20.32	-30.0	-32.4	12.2	1.03e-03	0	43	0	245366784	19	4748
2026-01-02 00:20:36.46	20.50	20.45	-29.9	-31.8	12.0	1.69e-04	0	43	0	247463936	20	4471
2026-01-02 00:20:37.46	20.52	20.58	-30.0	-32.1	11.9	3.69e-03	0	43	0	249561088	20	4567
2026-01-02 00:20:38.46	20.54	20.72	-30.1	-32.3	11.8	3.86e-04	0	43	0	251658240	20	4658
2026-01-02 00:20:39.47	20.56	20.85	-30.1	-32.2	11.8	4.44e-04	0	43	0	253755392	20	4592
2026-01-02 00:20:40.47	20.58	20.99	-30.1	-32.3	11.8	1.16e-03	0	43	0	254803968	20	4626
2026-01-02 00:20:41.47	20.60	21.12	-30.1	-32.4	11.8	5.28e-04	0	43	0	256901120	20	4673
2026-01-02 00:20:42.48	20.61	21.26	-30.1	-32.4	11.7	6.69e-04	0	43	0	258998272	20	4681
2026-01-02 00:20:43.47	20.63	21.40	-30.0	-32.1	11.9	1.39e-03	0	43	0	261095424	20	4588
2026-01-02 00:20:44.48	20.65	21.54	-30.1	-32.3	11.9	3.68e-03	0	43	0	262144000	20	4621
2026-01-02 00:20:45.48	20.67	21.67	-30.1	-32.2	11.9	3.58e-04	0	43	0	264241152	20	4622
2026-01-02 00:20:46.49	20.69	21.81	-30.2	-32.6	11.7	1.35e-03	0	43	0	266338304	20	4727
2026-01-02 00:20:47.49	20.71	21.96	-30.3	-32.8	11.5	1.78e-03	0	43	0	268435456	20	4824
2026-01-02 00:20:48.50	20.73	22.10	-30.0	-32.1	12.0	3.70e-04	0	43	0	270532608	20	4563
2026-01-02 00:20:49.50	20.75	22.24	-30.0	-32.1	12.0	1.33e-03	0	43	0	271581184	20	4554
2026-01-02 00:20:50.50	20.77	22.38	-30.0	-32.0	12.0	1.30e-03	0	43	0	273678336	20	4549
2026-01-02 00:20:51.50	20.79	22.53	-29.9	-31.8	12.2	2.15e-04	0	43	0	275775488	20	4461
2026-01-02 00:20:52.51	20.81	22.67	-30.0	-32.0	12.1	2.65e-04	0	43	0	277872640	20	4523
2026-01-02 00:20:53.51	20.83	22.82	-30.1	-32.3	11.8	1.35e-03	0	43	0	279969792	20	4632
2026-01-02 00:20:54.51	20.85	22.96	-30.1	-32.2	12.0	3.39e-04	0	43	0	281018368	20	4593
2026-01-02 00:20:55.51	20.87	23.11	-30.2	-32.7	11.7	3.76e-04	0	43	0	283115520	20	4768
2026-01-02 00:20:56.52	20.89	23.26	-30.0	-32.1	12.1	4.37e-04	0	43	0	285212672	20	4549
2026-01-02 00:20:57.53	20.91	23.41	-30.2	-32.5	11.8	3.99e-04	0	43	0	287309824	20	4691
2026-01-02 00:20:58.52	20.94	23.55	-30.3	-32.7	11.6	7.19e-04	0	43	0	289406976	20	4785
2026-01-02 00:20:59.53	20.96	23.71	-30.1	-32.4	11.9	2.88e-04	0	43	0	290455552	20	4650
2026-01-02 00:21:00.54	20.98	23.86	-30.0	-32.1	12.0	2.81e-04	0	43	0	292552704	20	4552
2026-01-02 00:21:01.53	21.00	24.01	-30.0	-31.8	12.2	8.73e-04	0	43	0	294649856	20	4469
2026-01-02 00:21:02.54	21.02	24.16	-29.8	-31.5	12.5	1.62e-04	0	43	0	296747008	20	4344
2026-01-02 00:21:03.54	21.04	24.32	-29.9	-31.7	12.3	1.17e-04	0	43	0	298844160	20	4432
2026-01-02 00:21:04.54	21.07	24.47	-29.9	-31.7	12.4	6.93e-04	0	43	0	299892736	20	4401
2026-01-02 00:21:05.54	21.09	24.63	-29.9	-31.5	12.5	1.23e-04	0	43	0	301989888	20	4366
2026-01-02 00:21:06.55	21.11	24.79	-30.0	-31.8	12.2	1.55e-04	0	43	0	304087040	20	4460
2026-01-02 00:21:07.55	21.13	24.94	-29.8	-31.8	12.6	5.48e-04	0	43	0	306184192	19	4546
2026-01-02 00:21:08.55	21.16	25.10	-29.8	-31.8	12.7	6.71e-05	0	43	0	308281344	19	4514
2026-01-02 00:21:09.55	21.18	25.26	-29.8	-31.8	12.7	7.24e-05	0	43	0	309329920	19	4542
2026-01-02 00:21:10.55	21.20	25.42	-29.8	-31.8	12.8	6.48e-05	0	43	0	311427072	19	4519
2026-01-02 00:21:11.55	21.23	25.58	-29.7	-31.4	12.9	4.58e-04	0	43	0	313524224	19	4398
2026-01-02 00:21:12.55	21.25	25.74	-29.7	-31.4	13.0	3.20e-05	0	43	0	315621376	19	4397
2026-01-02 00:21:13.56	21.27	25.91	-29.6	-31.3	13.1	2.28e-05	0	43	0	317718528	19	4381
2026-01-02 00:21:14.55	21.30	26.07	-29.5	-30.9	13.3	4.10e-04	0	43	0	318767104	19	4235
2026-01-02 00:21:15.55	21.32	26.24	-29.5	-31.1	13.2	2.10e-03	0	43	0	320864256	19	4287
2026-01-02 00:21:16.56	21.35	26.40	-29.4	-31.1	13.5	8.30e-06	0	43	0	322961408	18	4386
2026-01-02 00:21:17.57	21.37	26.57	-29.3	-30.9	13.6	4.50e-06	0	43	0	325058560	18	4344
2026-01-02 00:21:18.57	21.40	26.74	-29.4	-31.3	13.4	1.37e-05	0	43	0	326107136	18	4446
2026-01-02 00:21:19.57	21.42	26.91	-29.3	-30.9	13.7	1.60e-05	0	43	0	328204288	18	4318
2026-01-02 00:21:20.57	21.45	27.08	-29.5	-31.1	13.3	9.90e-06	0	43	0	330301440	19	4288
2026-01-02 00:21:21.58	21.47	27.25	-29.6	-31.2	13.1	4.19e-05	0	43	0	332398592	19	4339
2026-01-02 00:21:22.58	21.50	27.43	-29.3	-30.8	13.7	2.07e-03	0	43	0	334495744	18	4293
2026-01-02 00:21:23.58	21.52	27.60	-29.6	-31.3	13.1	3.05e-05	0	43	0	335544320	19	4370
2026-01-02 00:21:24.58	21.55	27.78	-29.6	-31.3	13.1	3.43e-05	0	43	0	337641472	19	4367
2026-01-02 00:21:25.59	21.58	27.95	-29.4	-31.1	13.6	2.18e-04	0	43	0	339738624	18	4405
2026-01-02 00:21:26.59	21.60	28.13	-29.4	-30.7	13.5	9.10e-06	0	43	0	341835776	19	4179
2026-01-02 00:21:27.59	21.63	28.31	-29.3	-30.8	13.9	9.90e-06	0	43	0	343932928	18	4298
2026-01-02 00:21:28.59	21.66	28.49	-29.3	-30.9	13.7	1.25e-04	0	43	0	344981504	18	4313
2026-01-02 00:21:29.59	21.69	28.67	-29.3	-30.8	13.7	4.50e-06	0	43	0	347078656	18	4287
2026-01-02 00:21:30.59	21.71	28.85	-29.3	-30.9	13.7	4.50e-06	0	43	0	349175808	18	4314
2026-01-02 00:21:31.59	21.74	29.03	-29.3	-31.0	13.6	9.10e-06	0	43	0	351272960	18	4354
2026-01-02 00:21:32.59	21.77	29.22	-29.3	-30.9	13.7	2.20e-06	0	43	0	353370112	18	4332
2026-01-02 00:21:33.59	21.80	29.40	-29.3	-31.0	13.7	2.01e-03	0	43	0	354418688	18	4347
2026-01-02 00:21:34.60	21.83	29.59	-29.5	-30.9	13.4	1.75e-05	0	43	0	356515840	19	4233
2026-01-02 00:21:35.60	21.86	29.78	-29.7	-31.5	13.0	1.52e-05	0	43	0	358612992	19	4437
2026-01-02 00:21:36.61	21.89	29.97	-29.6	-31.2	13.2	2.31e-03	0	43	0	360710144	19	4331
2026-01-02 00:21:37.61	21.92	30.16	-29.6	-31.1	13.3	2.21e-03	0	43	0	362807296	19	4294
2026-01-02 00:21:38.62	21.95	30.35	-29.9	-32.0	12.7	2.51e-05	0	43	0	363855872	19	4573
2026-01-02 00:21:39.62	21.98	30.55	-29.6	-31.3	13.2	2.20e-03	0	43	0	365953024	19	4358
2026-01-02 00:21:40.62	22.01	30.74	-29.7	-31.5	13.1	2.03e-03	0	43	0	368050176	19	4421
2026-01-02 00:21:41.63	22.04	30.94	-30.0	-31.9	12.4	6.10e-05	0	43	0	370147328	20	4473
2026-01-02 00:21:42.63	22.07	31.13	-30.0	-31.8	12.4	2.25e-03	0	43	0	371195904	20	4435
2026-01-02 00:21:43.63	22.10	31.33	-30.3	-32.7	11.7	2.67e-03	0	43	0	373293056	20	4764
2026-01-02 00:21:44.63	22.14	31.53	-30.4	-32.5	11.7	9.20e-04	0	43	0	375390208	21	4569
2026-01-02 00:21:45.64	22.17	31.73	-30.7	-33.4	11.1	1.07e-03	0	43	0	377487360	21	4904
2026-01-02 00:21:46.63	22.20	31.93	-31.0	-33.9	10.3	8.26e-03	0	43	0	379584512	22	5032
2026-01-02 00:21:47.64	22.24	32.14	-31.0	-33.9	10.3	5.12e-03	0	43	0	380633088	22	5042
2026-01-02 00:21:48.64	22.27	32.34	-31.2	-34.6	9.8	8.23e-03	0	43	0	382730240	22	5315
2026-01-02 00:21:49.64	22.30	32.55	-31.4	-35.3	9.1	2.29e-02	0	43	0	384827392	22	5651
2026-01-02 00:21:50.64	22.34	32.76	-31.1	-34.3	10.0	8.97e-03	0	43	0	386924544	22	5203
2026-01-02 00:21:51.65	22.37	32.97	-31.2	-34.6	9.9	8.51e-03	0	43	0	389021696	22	5321
2026-01-02 00:21:52.66	22.41	33.18	-31.0	-33.9	10.4	1.20e-02	0	43	0	390070272	22	5031
2026-01-02 00:21:53.66	22.44	33.39	-31.2	-34.4	9.9	8.35e-03	0	43	0	392167424	22	5261
2026-01-02 00:21:54.66	22.48	33.61	-31.2	-34.5	9.9	9.72e-03	0	43	0	394264576	22	5299
2026-01-02 00:21:55.67	22.52	33.83	-31.3	-35.0	9.5	1.38e-02	0	43	0	396361728	22	5500
2026-01-02 00:21:56.68	22.55	34.04	-31.1	-34.1	10.1	7.15e-03	0	43	0	398458880	22	5131
2026-01-02 00:21:57.67	22.59	34.26	-30.7	-33.2	11.1	4.34e-03	0	43	0	399507456	21	4854
2026-01-02 00:21:58.67	22.63	34.48	-30.5	-32.7	11.5	3.23e-03	0	43	0	401604608	21	4654
2026-01-02 00:21:59.66	22.67	34.70	-30.2	-31.9	12.1	5.34e-04	0	43	0	403701760	21	4390
2026-01-02 00:22:00.67	22.70	34.92	-30.1	-32.2	12.2	1.89e-03	0	43	0	405798912	20	4546
2026-01-02 00:22:01.67	22.74	35.15	-30.1	-32.2	12.3	1.99e-03	0	43	0	407896064	20	4552
2026-01-02 00:22:02.68	22.78	35.38	-29.4	-30.0	13.7	5.34e-05	0	43	0	408944640	20	3877
2026-01-02 00:22:03.68	22.82	35.60	-29.5	-30.9	13.5	1.65e-03	0	43	0	411041792	19	4206
2026-01-02 00:22:04.68	22.86	35.83	-29.4	-31.0	13.8	1.60e-03	0	43	0	413138944	18	4325
2026-01-02 00:22:05.69	22.91	36.07	-29.1	-30.2	14.3	3.80e-06	0	43	0	415236096	18	4104
2026-01-02 00:22:06.69	22.95	36.30	-29.2	-30.6	14.1	1.39e-03	0	43	0	417333248	18	4218
2026-01-02 00:22:07.70	22.99	36.54	-29.2	-30.5	14.1	1.39e-03	0	43	0	418381824	18	4185
2026-01-02 00:22:08.70	23.03	36.77	-29.0	-30.0	14.4	0.00e+00	0	43	0	420478976	18	4049
2026-01-02 00:22:09.71	23.08	37.01	-28.7	-29.3	14.8	0.00e+00	0	43	0	422576128	18	3862
2026-01-02 00:22:10.72	23.12	37.25	-28.7	-29.8	14.9	1.29e-03	0	43	0	424673280	17	4063
2026-01-02 00:22:11.73	23.17	37.50	-28.6	-29.5	15.0	0.00e+00	0	43	0	425721856	17	3995
2026-01-02 00:22:12.74	23.21	37.74	-28.7	-29.7	14.9	9.40e-04	0	43	0	427819008	17	4038
2026-01-02 00:22:13.74	23.26	37.99	-28.9	-30.2	14.6	7.00e-07	0	43	0	429916160	17	4195
2026-01-02 00:22:14.74	23.30	38.24	-28.9	-30.2	14.6	7.00e-07	0	43	0	432013312	17	4193
2026-01-02 00:22:15.74	23.35	38.48	-29.0	-30.5	14.5	4.95e-04	0	43	0	434110464	17	4273
2026-01-02 00:22:16.74	23.40	38.73	-28.9	-29.7	14.7	7.00e-07	0	43	0	435159040	18	3951
2026-01-02 00:22:17.75	23.45	38.99	-28.7	-29.3	14.9	0.00e+00	0	43	0	437256192	18	3858
2026-01-02 00:22:18.74	23.50	39.24	-29.2	-30.4	14.3	2.69e-04	0	43	0	439353344	18	4161
2026-01-02 00:22:19.75	23.55	39.50	-28.6	-28.9	15.1	0.00e+00	0	43	0	441450496	18	3749
2026-01-02 00:22:20.74	23.60	39.75	-28.6	-28.9	15.2	0.00e+00	0	43	0	443547648	18	3732
2026-01-02 00:22:21.75	23.65	40.02	-28.7	-29.7	15.0	1.34e-04	0	43	0	444596224	17	4051
2026-01-02 00:22:22.75	23.70	40.28	-28.7	-29.8	14.9	6.25e-05	0	43	0	446693376	17	4065
2026-01-02 00:22:23.75	23.75	40.54	-28.9	-30.3	14.6	1.50e-06	0	43	0	448790528	17	4229
2026-01-02 00:22:24.75	23.81	40.81	-29.0	-29.9	14.6	2.20e-06	0	43	0	450887680	18	4004
2026-01-02 00:22:25.76	23.86	41.08	-29.3	-30.6	14.1	3.28e-05	0	43	0	452984832	18	4219
2026-01-02 00:22:26.76	23.92	41.35	-29.1	-30.3	14.3	2.20e-06	0	43	0	454033408	18	4119
2026-01-02 00:22:27.77	23.97	41.62	-29.5	-31.2	13.8	4.50e-06	0	43	0	456130560	18	4396
2026-01-02 00:22:28.78	24.03	41.90	-29.7	-31.3	13.3	5.41e-05	0	43	0	458227712	19	4320
2026-01-02 00:22:29.78	24.09	42.17	-29.6	-31.2	13.5	5.30e-06	0	43	0	460324864	19	4289
2026-01-02 00:22:30.77	24.15	42.45	-29.4	-30.6	13.8	5.30e-06	0	43	0	462422016	19	4125
2026-01-02 00:22:31.78	24.21	42.73	-29.6	-31.0	13.6	3.80e-06	0	43	0	463470592	19	4223
2026-01-02 00:22:32.79	24.27	43.01	-29.6	-31.1	13.5	1.50e-06	0	43	0	465567744	19	4253
2026-01-02 00:22:33.78	24.33	43.29	-29.3	-30.3	14.0	6.10e-06	0	43	0	467664896	19	4021
2026-01-02 00:22:34.79	24.40	43.58	-29.0	-29.5	14.6	0.00e+00	0	43	0	469762048	19	3800
2026-01-02 00:22:35.79	24.46	43.87	-29.0	-29.4	14.6	7.00e-07	0	43	0	470810624	19	3772
2026-01-02 00:22:36.78	24.52	44.16	-29.3	-30.3	14.1	0.00e+00	0	43	0	472907776	19	4033
2026-01-02 00:22:37.78	24.59	44.45	-29.4	-30.4	13.9	6.80e-06	0	43	0	475004928	19	4061
2026-01-02 00:22:38.78	24.66	44.74	-29.8	-31.6	13.2	5.30e-06	0	43	0	477102080	19	4439
2026-01-02 00:22:39.78	24.73	45.04	-29.8	-31.6	13.3	2.05e-05	0	43	0	479199232	19	4409
2026-01-02 00:22:40.78	24.80	45.34	-30.2	-32.3	12.4	7.55e-05	0	43	0	480247808	20	4555
2026-01-02 00:22:41.78	24.87	45.64	-30.7	-33.2	11.4	4.49e-04	0	43	0	482344960	21	4807
2026-01-02 00:22:42.79	24.94	45.95	-31.2	-34.4	10.2	2.85e-03	0	43	0	484442112	22	5191
2026-01-02 00:22:43.80	25.02	46.25	-31.3	-34.9	9.9	7.67e-03	0	43	0	486539264	22	5405
2026-01-02 00:22:44.80	25.09	46.56	-31.4	-35.0	9.7	1.03e-02	0	43	0	488636416	22	5456
2026-01-02 00:22:45.80	25.17	46.87	-31.4	-34.6	9.6	1.70e-02	0	43	0	489684992	23	5190
2026-01-02 00:22:46.80	25.25	47.18	-31.2	-34.0	9.9	1.01e-02	0	43	0	491782144	23	4933
2026-01-02 00:22:47.81	25.33	47.50	-31.3	-34.3	9.9	6.95e-03	0	43	0	493879296	23	5063
2026-01-02 00:22:48.81	25.41	47.82	-30.8	-32.9	11.3	3.09e-03	0	43	0	495976448	22	4605
2026-01-02 00:22:49.81	25.49	48.14	-30.8	-33.0	11.2	2.55e-03	0	43	0	498073600	22	4627
2026-01-02 00:22:50.82	25.57	48.46	-30.3	-31.6	12.2	7.42e-04	0	43	0	499122176	22	4156
2026-01-02 00:22:51.82	25.66	48.79	-30.0	-31.2	12.8	3.68e-04	0	43	0	501219328	21	4117
2026-01-02 00:22:52.82	25.75	49.11	-29.8	-31.1	13.3	5.95e-05	0	43	0	503316480	20	4177
2026-01-02 00:22:53.83	25.84	49.44	-29.5	-30.6	14.1	6.10e-06	0	43	0	505413632	19	4120
2026-01-02 00:22:54.83	25.93	49.77	-29.1	-30.3	14.4	0.00e+00	0	43	0	507510784	18	4101
2026-01-02 00:22:55.83	26.02	50.11	-29.1	-30.2	14.5	0.00e+00	0	43	0	508559360	18	4092
2026-01-02 00:22:56.83	26.12	50.44	-28.7	-29.2	15.1	0.00e+00	0	43	0	510656512	18	3820
2026-01-02 00:22:57.83	26.22	50.78	-28.1	-28.3	15.9	0.00e+00	0	43	0	512753664	17	3671
2026-01-02 00:22:58.82	26.32	51.12	-28.5	-29.1	15.4	0.00e+00	0	43	0	514850816	17	3876
2026-01-02 00:22:59.83	26.42	51.46	-28.4	-28.8	15.6	0.00e+00	0	43	0	515899392	17	3808
2026-01-02 00:23:00.83	26.52	51.81	-28.7	-29.7	15.1	0.00e+00	0	43	0	517996544	17	4038
2026-01-02 00:23:01.84	26.63	52.16	-28.6	-29.4	15.3	0.00e+00	0	43	0	520093696	17	3962
2026-01-02 00:23:02.84	26.74	52.51	-28.7	-29.6	15.1	0.00e+00	0	43	0	522190848	17	4020
2026-01-02 00:23:03.84	26.85	52.86	-28.5	-29.2	15.4	0.00e+00	0	43	0	524288000	17	3900
2026-01-02 00:23:04.83	26.96	53.21	-28.4	-29.4	15.5	0.00e+00	0	43	0	525336576	16	4035
2026-01-02 00:23:05.84	27.08	53.58	-28.3	-29.3	15.6	0.00e+00	0	43	0	527433728	16	4020
2026-01-02 00:23:06.84	27.20	53.94	-28.5	-29.2	15.4	0.00e+00	0	43	0	529530880	17	3916
2026-01-02 00:23:07.84	27.32	54.30	-28.4	-28.9	15.6	0.00e+00	0	43	0	531628032	17	3823
2026-01-02 00:23:08.84	27.45	54.66	-27.9	-28.2	15.9	0.00e+00	0	43	0	533725184	16	3729
2026-01-02 00:23:09.84	27.58	55.03	-27.3	-27.4	16.4	0.00e+00	0	43	0	534773760	15	3633
2026-01-02 00:23:10.84	27.71	55.40	-27.0	-26.7	17.3	0.00e+00	0	43	0	536870912	15	3479
2026-01-02 00:23:11.84	27.85	55.77	-26.8	-27.3	17.5	0.00e+00	0	43	0	538968064	13	3795
2026-01-02 00:23:12.85	27.99	56.15	-26.4	-26.3	17.9	0.00e+00	0	43	0	541065216	13	3577
2026-01-02 00:23:13.85	28.13	56.53	-26.5	-26.5	17.8	0.00e+00	0	43	0	543162368	13	3616
2026-01-02 00:23:14.85	28.28	56.91	-26.7	-27.1	17.6	5.62e-04	0	43	0	544210944	13	3757
2026-01-02 00:23:15.85	28.43	57.29	-27.4	-28.1	16.8	0.00e+00	0	43	0	546308096	14	3895
2026-01-02 00:23:16.86	28.58	57.67	-27.9	-28.7	16.3	0.00e+00	0	43	0	548405248	15	3963
2026-01-02 00:23:17.86	28.74	58.06	-27.7	-28.3	16.4	4.18e-04	0	43	0	550502400	15	3866
2026-01-02 00:23:18.87	28.91	58.45	-27.5	-27.9	16.5	0.00e+00	0	43	0	552599552	15	3771
2026-01-02 00:23:19.87	29.08	58.85	-27.3	-27.4	16.6	0.00e+00	0	43	0	553648128	15	3645
2026-01-02 00:23:20.88	29.25	59.24	-27.2	-27.0	17.0	0.00e+00	0	43	0	555745280	15	3545
2026-01-02 00:23:21.88	29.43	59.64	-27.5	-27.8	16.7	3.60e-04	0	43	0	557842432	15	3745
2026-01-02 00:23:22.87	29.61	60.03	-27.9	-28.8	16.1	0.00e+00	0	43	0	559939584	15	3983
2026-01-02 00:23:23.87	29.80	60.43	-28.2	-29.0	15.9	0.00e+00	0	43	0	562036736	16	3927
2026-01-02 00:23:24.87	30.00	60.84	-28.2	-28.9	16.0	2.28e-04	0	43	0	563085312	16	3909
2026-01-02 00:23:25.87	30.20	61.24	-27.8	-28.0	16.5	2.20e-06	0	43	0	565182464	16	3678
2026-01-02 00:23:26.87	30.41	61.65	-27.5	-27.7	16.9	0.00e+00	0	43	0	567279616	15	3715
2026-01-02 00:23:27.87	30.63	62.06	-27.5	-28.0	16.6	0.00e+00	0	43	0	569376768	15	3775
2026-01-02 00:23:28.88	30.85	62.47	-27.1	-26.8	17.2	7.00e-07	0	43	0	570425344	15	3502
2026-01-02 00:23:29.88	31.08	62.89	-27.0	-26.6	17.3	0.00e+00	0	43	0	572522496	15	3457
2026-01-02 00:23:30.88	31.32	63.30	-27.3	-27.8	17.0	0.00e+00	0	43	0	574619648	14	3818
2026-01-02 00:23:31.88	31.57	63.72	-27.7	-28.3	16.4	3.80e-06	0	43	0	576716800	15	3870
2026-01-02 00:23:32.89	31.83	64.14	-28.5	-29.1	15.5	1.90e-04	0	43	0	578813952	17	3871
2026-01-02 00:23:33.90	32.09	64.57	-29.2	-30.5	14.5	0.00e+00	0	43	0	579862528	18	4152
2026-01-02 00:23:34.90	32.37	64.99	-29.5	-30.7	14.1	7.60e-06	0	43	0	581959680	19	4114
2026-01-02 00:23:35.90	32.66	65.42	-29.6	-30.8	13.9	5.65e-04	0	43	0	584056832	19	4164
2026-01-02 00:23:36.91	32.96	65.85	-29.0	-30.0	14.7	1.50e-06	0	43	0	586153984	18	4003
2026-01-02 00:23:37.92	33.27	66.28	-28.6	-28.8	15.5	0.00e+00	0	43	0	588251136	18	3705
2026-01-02 00:23:38.92	33.59	66.72	-28.3	-28.7	15.8	9.55e-04	0	43	0	589299712	17	3765
2026-01-02 00:23:39.92	33.92	67.15	-28.6	-29.3	15.4	4.52e-04	0	43	0	591396864	17	3925
2026-01-02 00:23:40.92	34.27	67.58	-29.4	-30.4	14.2	5.30e-06	0	43	0	593494016	19	4050
2026-01-02 00:23:41.92	34.64	68.02	-30.0	-31.6	13.0	6.15e-04	0	43	0	595591168	20	4313
2026-01-02 00:23:42.93	35.02	68.46	-30.6	-32.8	12.0	1.01e-03	0	43	0	597688320	21	4621
2026-01-02 00:23:43.93	35.41	68.90	-30.7	-33.2	11.6	4.52e-04	0	43	0	598736896	21	4773
2026-01-02 00:23:44.93	35.83	69.34	-30.5	-32.3	12.2	4.03e-04	0	43	0	600834048	21	4467
2026-01-02 00:23:45.93	36.26	69.78	-30.3	-31.9	12.5	9.51e-04	0	43	0	602931200	21	4323
2026-01-02 00:23:46.93	36.72	70.22	-30.3	-31.7	12.7	2.06e-04	0	43	0	605028352	21	4258
2026-01-02 00:23:47.94	37.20	70.66	-30.1	-31.9	12.9	6.17e-05	0	43	0	607125504	20	4399
2026-01-02 00:23:48.94	37.70	71.11	-29.9	-31.2	13.3	9.60e-04	0	43	0	608174080	20	4179
2026-01-02 00:23:49.95	38.23	71.55	-29.9	-31.2	13.4	3.43e-05	0	43	0	610271232	20	4197
2026-01-02 00:23:50.95	38.78	72.00	-29.8	-31.5	13.6	1.04e-03	0	43	0	612368384	19	4353
2026-01-02 00:23:51.96	39.37	72.44	-29.9	-31.7	13.5	1.05e-03	0	43	0	614465536	19	4416
2026-01-02 00:23:52.96	39.98	72.89	-30.4	-32.6	12.5	4.80e-05	0	43	0	616562688	20	4636
2026-01-02 00:23:53.97	40.64	73.34	-29.8	-31.0	13.5	9.25e-04	0	43	0	617611264	20	4118
2026-01-02 00:23:54.96	41.32	73.78	-29.8	-31.3	13.6	1.52e-05	0	43	0	619708416	19	4308
2026-01-02 00:23:55.96	42.04	74.22	-30.7	-33.1	11.8	1.59e-04	0	43	0	621805568	21	4751
2026-01-02 00:23:56.96	42.81	74.66	-31.6	-34.9	9.7	8.01e-03	0	43	0	623902720	23	5284
2026-01-02 00:23:57.97	43.63	75.10	-32.0	-36.1	8.4	4.12e-02	0	43	0	624951296	24	5737
2026-01-02 00:23:58.97	44.50	75.54	-31.2	-33.7	10.7	6.46e-03	0	43	0	627048448	23	4755
2026-01-02 00:23:59.97	45.43	75.98	-31.0	-33.3	11.3	2.64e-03	0	43	0	629145600	22	4721
2026-01-02 00:24:00.97	46.41	76.41	-30.9	-33.5	11.5	1.96e-03	0	43	0	631242752	21	4877
2026-01-02 00:24:01.97	47.46	76.84	-31.5	-34.5	10.1	1.39e-03	0	43	0	633339904	23	5119
2026-01-02 00:24:02.98	48.60	77.28	-32.0	-36.1	8.5	1.95e-02	0	43	0	634388480	24	5733
2026-01-02 00:24:03.99	49.82	77.71	-32.1	-36.3	8.4	6.93e-02	0	43	0	636485632	24	5827
2026-01-02 00:24:04.99	51.11	78.13	-31.7	-34.8	9.6	3.05e-02	0	43	0	638582784	24	5138
2026-01-02 00:24:05.99	52.50	78.54	-31.5	-34.5	10.2	9.88e-03	0	43	0	640679936	23	5064
2026-01-02 00:24:06.99	54.00	78.95	-31.2	-33.9	11.1	4.82e-03	0	43	0	642777088	22	4923
2026-01-02 00:24:07.99	55.61	79.35	-30.8	-32.7	11.8	1.14e-03	0	43	0	643825664	22	4482
2026-01-02 00:24:09.00	57.37	79.75	-31.4	-34.2	10.3	3.74e-03	0	43	0	645922816	23	4968
2026-01-02 00:24:10.00	59.24	80.13	-31.6	-35.0	9.8	1.05e-02	0	43	0	648019968	23	5275
2026-01-02 00:24:11.01	61.30	80.51	-31.7	-35.3	9.6	1.46e-02	0	43	0	650117120	23	5396
2026-01-02 00:24:12.01	63.50	80.87	-30.8	-32.8	11.7	5.95e-03	0	43	0	652214272	22	4508
2026-01-02 00:24:13.01	65.88	81.22	-30.0	-30.8	13.1	5.68e-04	0	43	0	653262848	21	3976
2026-01-02 00:24:14.01	68.45	81.55	-29.4	-29.9	14.4	6.80e-06	0	43	0	655360000	20	3799
2026-01-02 00:24:15.01	71.23	81.86	-29.2	-29.8	14.8	4.30e-04	0	43	0	657457152	19	3846
2026-01-02 00:24:16.02	74.26	82.16	-29.2	-30.2	14.9	0.00e+00	0	43	0	659554304	18	4057
2026-01-02 00:24:17.02	77.49	82.43	-29.3	-30.5	14.8	0.00e+00	0	43	0	661651456	18	4141
2026-01-02 00:24:18.02	80.95	82.68	-29.0	-29.9	15.0	1.91e-03	0	43	0	662700032	18	3977
2026-01-02 00:24:19.02	84.64	82.90	-28.8	-29.3	15.4	1.48e-03	0	43	0	664797184	18	3811
2026-01-02 00:24:20.02	88.55	83.09	-28.3	-28.2	16.1	0.00e+00	0	43	0	666894336	18	3527
2026-01-02 00:24:21.02	92.65	83.24	-28.4	-29.4	16.0	3.89e-04	0	43	0	668991488	16	4033
2026-01-02 00:24:22.03	96.97	83.36	-28.4	-28.8	15.9	1.26e-03	0	43	0	670040064	17	3786
2026-01-02 00:24:23.03	101.38	83.44	-28.3	-28.7	16.1	0.00e+00	0	43	0	672137216	17	3745
2026-01-02 00:24:24.03	105.87	83.48	-28.6	-29.3	15.6	3.89e-05	0	43	0	674234368	17	3914
2026-01-02 00:24:25.04	110.44	83.48	-29.0	-30.2	15.2	3.54e-04	0	43	0	676331520	17	4156
2026-01-02 00:24:26.04	114.93	83.44	-28.2	-28.2	16.3	0.00e+00	0	43	0	678428672	17	3632
2026-01-02 00:24:27.04	119.34	83.36	-27.6	-27.5	17.0	0.00e+00	0	43	0	679477248	16	3544
2026-01-02 00:24:28.04	123.63	83.25	-28.4	-29.3	15.9	1.20e-03	0	43	0	681574400	16	4004
2026-01-02 00:24:29.03	127.70	83.09	-29.9	-31.7	13.7	0.00e+00	0	43	0	683671552	19	4404
2026-01-02 00:24:30.04	131.66	82.91	-30.4	-32.6	12.6	5.41e-05	0	43	0	685768704	20	4628
2026-01-02 00:24:31.03	135.32	82.69	-30.3	-31.7	12.9	1.81e-04	0	43	0	687865856	21	4220
2026-01-02 00:24:32.03	138.79	82.45	-31.1	-33.7	11.2	1.89e-04	0	43	0	688914432	22	4856
2026-01-02 00:24:33.03	142.03	82.18	-31.5	-34.6	10.1	7.98e-03	0	43	0	691011584	23	5097
2026-01-02 00:24:34.04	145.08	81.88	-31.5	-34.2	10.5	3.08e-03	0	43	0	693108736	23	4938
2026-01-02 00:24:35.04	147.87	81.57	-32.1	-36.0	8.8	1.15e-02	0	43	0	695205888	24	5660
2026-01-02 00:24:36.05	150.48	81.23	-32.3	-37.1	7.8	9.11e-02	0	43	0	697303040	24	6248
2026-01-02 00:24:37.05	152.87	80.88	-32.2	-36.4	8.4	4.21e-02	0	43	0	698351616	24	5887
2026-01-02 00:24:38.05	155.08	80.52	-32.6	-38.3	6.5	1.63e-01	0	43	0	700448768	25	6905
2026-01-02 00:24:39.05	157.12	80.15	-32.4	-37.1	7.6	1.66e-01	0	43	0	702545920	25	6147
2026-01-02 00:24:40.06	159.03	79.76	-32.3	-37.0	8.0	4.80e-02	0	43	0	704643072	24	6220
2026-01-02 00:24:41.06	160.77	79.37	-32.6	-37.9	6.8	1.14e-01	0	43	0	706740224	25	6653
2026-01-02 00:24:42.07	162.41	78.96	-32.0	-35.2	8.8	1.03e-01	0	43	0	707788800	25	5225
2026-01-02 00:24:43.07	163.91	78.55	-31.7	-34.5	9.8	1.06e-02	0	43	0	709885952	24	5001
2026-01-02 00:24:44.07	165.30	78.14	-31.1	-32.9	11.4	1.56e-03	0	43	0	711983104	23	4476
2026-01-02 00:24:45.07	166.60	77.72	-31.7	-35.0	9.8	2.65e-03	0	43	0	714080256	23	5292
2026-01-02 00:24:46.07	167.81	77.29	-32.5	-37.8	6.8	3.73e-02	0	43	0	715128832	25	6588
2026-01-02 00:24:47.06	168.93	76.87	-33.1	-40.9	4.8	8.07e-01	0	43	0	717225984	26	8840
2026-01-02 00:24:48.07	170.00	76.43	-33.2	-41.3	4.5	1.00e+00	0	43	0	719323136	26	9161
2026-01-02 00:24:49.07	170.99	76.00	-33.3	-42.7	4.1	1.37e+00	0	43	0	720371712	26	10684
2026-01-02 00:24:50.07	171.91	75.56	-32.8	-38.8	5.8	6.95e-01	0	43	0	721420288	26	7156
2026-01-02 00:24:51.08	172.79	75.12	-31.9	-34.9	9.0	7.01e-02	0	43	0	722468864	25	5090
2026-01-02 00:24:52.08	173.61	74.68	-31.4	-34.2	10.4	4.80e-03	0	43	0	724566016	23	4958
2026-01-02 00:24:53.10	174.40	74.23	-31.9	-36.0	9.0	1.59e-02	0	43	0	726663168	23	5783
2026-01-02 00:24:54.09	175.12	73.79	-32.5	-38.0	7.2	7.35e-02	0	43	0	728760320	24	6794
2026-01-02 00:24:55.10	175.81	73.34	-32.6	-38.2	6.4	2.96e-01	0	43	0	730857472	25	6832
2026-01-02 00:24:56.10	176.46	72.90	-32.1	-35.8	8.3	1.13e-01	0	43	0	732954624	25	5498
2026-01-02 00:24:57.11	177.08	72.45	-31.6	-34.2	9.9	1.65e-02	0	43	0	734003200	24	4885
2026-01-02 00:24:58.11	177.67	72.00	-32.1	-36.3	8.3	1.99e-02	0	43	0	736100352	24	5845
2026-01-02 00:24:59.11	178.22	71.56	-32.8	-39.7	5.6	2.42e-01	0	43	0	738197504	25	7919
2026-01-02 00:25:00.10	178.74	71.12	-32.8	-39.5	5.6	5.21e-01	0	43	0	740294656	25	7782
2026-01-02 00:25:01.07	179.23	70.69	-32.4	-37.2	7.2	2.31e-01	0	43	0	741343232	25	6245
2026-01-02 00:25:02.07	179.71	70.25	-31.6	-34.3	9.8	4.49e-02	0	43	0	743440384	24	4933
2026-01-02 00:25:03.07	180.17	69.80	-31.3	-33.8	10.6	5.16e-03	0	43	0	745537536	23	4812
2026-01-02 00:25:04.08	180.60	69.36	-31.3	-34.0	10.4	4.72e-03	0	43	0	747634688	23	4894
2026-01-02 00:25:05.08	181.02	68.92	-31.2	-33.5	10.7	2.86e-03	0	43	0	749731840	23	4723
2026-01-02 00:25:06.08	181.42	68.48	-30.6	-32.2	12.0	1.31e-03	0	43	0	750780416	22	4312
2026-01-02 00:25:07.08	181.80	68.04	-30.1	-31.4	12.9	4.57e-05	0	43	0	752877568	21	4142
2026-01-02 00:25:08.09	182.17	67.60	-30.7	-33.0	11.9	1.99e-04	0	43	0	754974720	21	4706
2026-01-02 00:25:09.09	182.52	67.17	-30.4	-32.1	12.5	4.61e-04	0	43	0	757071872	21	4369
2026-01-02 00:25:10.10	182.86	66.73	-30.4	-32.1	12.5	1.51e-04	0	43	0	759169024	21	4375
2026-01-02 00:25:11.11	183.18	66.29	-30.5	-32.3	12.5	8.23e-05	0	43	0	760217600	21	4441
2026-01-02 00:25:12.11	183.49	65.86	-30.7	-33.1	11.7	5.58e-04	0	43	0	762314752	21	4715
2026-01-02 00:25:13.12	183.79	65.43	-30.1	-31.1	13.1	2.26e-04	0	43	0	764411904	21	4081
2026-01-02 00:25:14.13	184.08	65.00	-29.6	-30.4	13.8	7.60e-06	0	43	0	766509056	20	3949
2026-01-02 00:25:15.13	184.36	64.57	-30.1	-31.8	12.9	2.05e-05	0	43	0	767557632	20	4387
2026-01-02 00:25:16.13	184.62	64.15	-30.9	-33.7	11.3	4.19e-04	0	43	0	769654784	21	4953
2026-01-02 00:25:17.13	184.88	63.73	-31.4	-34.4	9.9	2.46e-03	0	43	0	771751936	23	5051
2026-01-02 00:25:18.13	185.13	63.31	-31.4	-34.3	10.1	6.31e-03	0	43	0	773849088	23	5024
2026-01-02 00:25:19.13	185.37	62.89	-31.3	-33.9	10.5	9.99e-03	0	43	0	775946240	23	4859
2026-01-02 00:25:20.13	185.60	62.48	-30.9	-33.2	11.3	3.77e-03	0	43	0	776994816	22	4672
2026-01-02 00:25:21.14	185.83	62.06	-31.2	-34.0	10.6	1.86e-03	0	43	0	779091968	22	4989
2026-01-02 00:25:22.14	186.04	61.65	-31.1	-33.9	10.9	1.65e-03	0	43	0	781189120	22	4933
2026-01-02 00:25:23.14	186.25	61.24	-31.9	-36.3	8.7	1.15e-02	0	43	0	783286272	23	5954
2026-01-02 00:25:24.14	186.45	60.84	-31.5	-34.8	9.7	1.76e-02	0	43	0	785383424	23	5264
2026-01-02 00:25:25.14	186.65	60.43	-31.7	-35.4	9.3	1.28e-02	0	43	0	786432000	23	5494
2026-01-02 00:25:26.15	186.84	60.03	-31.6	-35.0	9.7	1.34e-02	0	43	0	788529152	23	5315
2026-01-02 00:25:27.15	187.03	59.63	-31.3	-34.3	10.4	1.44e-02	0	43	0	790626304	22	5119
2026-01-02 00:25:28.15	187.21	59.23	-31.1	-33.8	10.9	1.71e-03	0	43	0	792723456	22	4904
2026-01-02 00:25:29.15	187.38	58.83	-31.7	-35.5	9.2	6.68e-03	0	43	0	794820608	23	5564
2026-01-02 00:25:30.16	187.55	58.44	-32.1	-36.4	8.2	3.10e-02	0	43	0	795869184	24	5935
2026-01-02 00:25:31.16	187.71	58.05	-31.6	-34.6	9.3	4.82e-02	0	43	0	797966336	24	5069
2026-01-02 00:25:32.16	187.87	57.66	-29.8	-30.5	13.3	1.04e-03	0	43	0	800063488	21	3913
2026-01-02 00:25:33.17	188.03	57.27	-28.7	-29.2	15.2	0.00e+00	0	43	0	802160640	18	3801
2026-01-02 00:25:34.17	188.18	56.89	-28.7	-29.1	15.2	2.13e-05	0	43	0	804257792	18	3782
2026-01-02 00:25:35.16	188.33	56.51	-29.7	-31.3	13.6	3.31e-04	0	43	0	805306368	19	4322
2026-01-02 00:25:36.17	188.47	56.13	-30.1	-32.0	12.8	2.05e-05	0	43	0	807403520	20	4450
2026-01-02 00:25:37.17	188.61	55.75	-30.5	-32.6	12.0	1.23e-04	0	43	0	809500672	21	4587
2026-01-02 00:25:38.18	188.75	55.38	-30.0	-31.5	13.0	4.25e-04	0	43	0	811597824	20	4298
2026-01-02 00:25:39.17	188.88	55.01	-29.6	-30.4	13.8	9.90e-06	0	44	0	813694976	20	3971
2026-01-02 00:25:40.18	189.01	54.64	-29.3	-30.1	14.4	3.80e-06	0	43	0	814743552	19	3951
2026-01-02 00:25:41.19	189.14	54.27	-29.5	-30.6	14.1	2.33e-04	0	43	0	816840704	19	4085
2026-01-02 00:25:42.19	189.26	53.90	-30.1	-32.0	12.7	3.26e-04	0	43	0	818937856	20	4462
2026-01-02 00:25:43.19	189.38	53.54	-30.3	-32.6	12.3	1.86e-04	0	43	0	821035008	20	4676
2026-01-02 00:25:44.20	189.50	53.18	-30.2	-32.1	12.6	5.61e-04	0	43	0	823132160	20	4491
2026-01-02 00:25:45.20	189.61	52.82	-29.8	-31.6	13.4	3.89e-04	0	43	0	824180736	19	4389
2026-01-02 00:25:46.20	189.72	52.47	-29.6	-30.9	13.8	5.30e-06	0	43	0	826277888	19	4184
2026-01-02 00:25:47.20	189.83	52.12	-30.5	-33.0	12.1	3.35e-05	0	43	0	828375040	20	4804
2026-01-02 00:25:48.21	189.94	51.77	-31.2	-34.4	10.2	5.26e-03	0	43	0	830472192	22	5210
2026-01-02 00:25:49.21	190.04	51.42	-31.3	-34.0	10.3	1.08e-02	0	43	0	831520768	23	4946
2026-01-02 00:25:50.21	190.14	51.08	-31.1	-34.0	10.6	4.33e-03	0	43	0	833617920	22	4999
2026-01-02 00:25:51.21	190.24	50.74	-30.5	-32.7	11.8	1.63e-03	0	43	0	835715072	21	4605
2026-01-02 00:25:52.20	190.34	50.40	-29.8	-31.0	13.3	2.36e-05	0	44	0	837812224	20	4127
2026-01-02 00:25:53.20	190.44	50.06	-29.3	-30.2	14.1	8.22e-04	0	43	0	839909376	19	3988
2026-01-02 00:25:54.21	190.53	49.72	-29.0	-30.0	14.5	0.00e+00	0	43	0	840957952	18	4022
2026-01-02 00:25:55.20	190.62	49.40	-29.1	-30.3	14.4	1.50e-06	0	43	0	843055104	18	4112
2026-01-02 00:25:56.20	190.71	49.07	-29.5	-31.1	14.0	4.66e-04	0	43	0	845152256	18	4368
2026-01-02 00:25:57.21	190.80	48.74	-30.1	-32.0	12.7	5.57e-04	0	43	0	847249408	20	4475
2026-01-02 00:25:58.21	190.88	48.41	-31.4	-35.2	9.7	6.26e-03	0	43	0	849346560	22	5554
2026-01-02 00:25:59.22	190.97	48.08	-31.6	-35.3	9.2	3.14e-02	0	43	0	850395136	23	5506
2026-01-02 00:26:00.22	191.05	47.76	-30.1	-31.6	12.5	2.52e-03	0	43	0	852492288	21	4260
2026-01-02 00:26:01.22	191.13	47.45	-29.0	-29.4	14.6	9.10e-06	0	43	0	854589440	19	3774
2026-01-02 00:26:02.22	191.21	47.13	-28.4	-28.9	15.5	9.08e-04	0	43	0	856686592	17	3819
2026-01-02 00:26:03.23	191.29	46.81	-28.9	-29.8	14.7	9.93e-04	0	43	0	858783744	18	3967
2026-01-02 00:26:04.23	191.37	46.50	-29.4	-30.9	14.0	1.50e-06	0	43	0	859832320	18	4298
2026-01-02 00:26:05.24	191.44	46.19	-29.9	-31.8	13.3	1.38e-03	0	43	0	861929472	19	4485
2026-01-02 00:26:06.25	191.52	45.88	-29.6	-31.0	13.7	1.27e-03	0	43	0	864026624	19	4223
2026-01-02 00:26:07.25	191.59	45.58	-29.8	-31.6	13.3	4.50e-06	0	43	0	866123776	19	4423
2026-01-02 00:26:08.26	191.66	45.27	-30.0	-31.8	12.7	1.29e-03	0	43	0	868220928	20	4418
2026-01-02 00:26:09.26	191.73	44.97	-29.9	-31.4	12.9	1.19e-03	0	43	0	869269504	20	4310
2026-01-02 00:26:10.26	191.80	44.68	-29.8	-31.2	13.2	2.89e-05	0	43	0	871366656	20	4217
2026-01-02 00:26:11.26	191.87	44.38	-29.4	-30.6	13.9	9.61e-04	0	43	0	873463808	19	4123
2026-01-02 00:26:12.27	191.93	44.08	-29.3	-30.2	14.1	9.45e-04	0	43	0	875560960	19	4000
2026-01-02 00:26:13.27	192.00	43.79	-28.8	-29.4	15.0	0.00e+00	0	43	0	876609536	18	3857
2026-01-02 00:26:14.27	192.06	43.50	-28.4	-29.0	15.4	1.04e-03	0	43	0	878706688	17	3858
2026-01-02 00:26:15.27	192.12	43.22	-28.6	-29.5	15.1	0.00e+00	0	43	0	880803840	17	3998
2026-01-02 00:26:16.27	192.19	42.93	-29.0	-30.4	14.7	7.00e-07	0	43	0	882900992	17	4227
2026-01-02 00:26:17.27	192.25	42.65	-29.7	-31.2	13.5	1.29e-03	0	43	0	884998144	19	4292
2026-01-02 00:26:18.28	192.31	42.37	-30.6	-32.9	11.7	1.48e-03	0	43	0	886046720	21	4708
2026-01-02 00:26:19.28	192.37	42.09	-31.2	-34.3	10.3	3.64e-03	0	43	0	888143872	22	5168
2026-01-02 00:26:20.29	192.42	41.81	-31.1	-34.0	10.5	5.73e-03	0	43	0	890241024	22	5032
2026-01-02 00:26:21.29	192.48	41.53	-30.8	-33.2	11.0	5.89e-03	0	43	0	892338176	22	4719
2026-01-02 00:26:22.28	192.54	41.27	-30.3	-31.5	12.2	2.91e-04	0	43	0	894435328	22	4149
2026-01-02 00:26:23.29	192.59	40.99	-30.0	-31.8	12.7	1.84e-03	0	43	0	895483904	20	4402
2026-01-02 00:26:24.28	192.65	40.73	-29.8	-31.0	13.3	1.84e-03	0	43	0	897581056	20	4169
2026-01-02 00:26:25.29	192.70	40.46	-30.1	-32.0	12.6	3.50e-05	0	43	0	899678208	20	4467
2026-01-02 00:26:26.28	192.75	40.20	-30.3	-32.5	12.3	2.41e-03	0	43	0	901775360	20	4636
2026-01-02 00:26:27.29	192.80	39.93	-30.1	-31.9	12.6	2.04e-03	0	43	0	903872512	20	4445
2026-01-02 00:26:28.29	192.86	39.67	-30.2	-32.3	12.3	1.16e-04	0	43	0	904921088	20	4560
2026-01-02 00:26:29.29	192.91	39.41	-30.7	-33.2	11.3	1.09e-03	0	43	0	907018240	21	4828
2026-01-02 00:26:30.29	192.96	39.16	-30.9	-34.1	10.1	8.44e-03	0	43	0	909115392	22	5213
2026-01-02 00:26:31.30	193.00	38.90	-31.7	-36.0	8.6	2.36e-02	0	43	0	911212544	23	5910
2026-01-02 00:26:32.30	193.05	38.64	-32.3	-38.0	6.6	2.01e-01	0	43	0	913309696	24	6971
2026-01-02 00:26:33.30	193.10	38.39	-32.2	-37.8	6.7	1.67e-01	0	43	0	914358272	24	6833
2026-01-02 00:26:34.30	193.15	38.14	-32.4	-38.7	6.1	2.34e-01	0	43	0	916455424	24	7445
2026-01-02 00:26:35.30	193.19	37.90	-32.0	-36.8	7.4	2.62e-01	0	43	0	918552576	24	6256
2026-01-02 00:26:36.31	193.24	37.65	-31.4	-34.8	9.3	2.76e-02	0	43	0	920649728	23	5336
2026-01-02 00:26:37.31	193.28	37.40	-31.2	-34.0	10.0	8.03e-03	0	43	0	921698304	23	4976
2026-01-02 00:26:38.31	193.33	37.16	-31.0	-33.8	10.5	1.01e-02	0	43	0	923795456	22	4958
2026-01-02 00:26:39.31	193.37	36.92	-30.9	-34.1	10.6	2.58e-03	0	43	0	925892608	21	5205
2026-01-02 00:26:40.31	193.41	36.68	-31.1	-34.1	10.2	2.36e-03	0	43	0	927989760	22	5107
2026-01-02 00:26:41.32	193.46	36.44	-31.2	-34.4	10.1	7.84e-03	0	43	0	930086912	22	5190
2026-01-02 00:26:42.32	193.50	36.21	-31.0	-33.6	10.7	8.39e-03	0	43	0	931135488	22	4891
2026-01-02 00:26:43.32	193.54	35.98	-31.3	-34.8	9.8	6.26e-03	0	43	0	933232640	22	5382
2026-01-02 00:26:44.33	193.58	35.74	-31.3	-34.8	9.8	1.01e-02	0	43	0	935329792	22	5400
2026-01-02 00:26:45.33	193.62	35.51	-31.5	-35.3	9.4	1.46e-02	0	43	0	937426944	22	5634
2026-01-02 00:26:46.33	193.66	35.28	-31.7	-35.8	8.6	4.10e-02	0	43	0	939524096	23	5765
2026-01-02 00:26:47.33	193.70	35.06	-31.6	-35.4	9.0	3.24e-02	0	43	0	940572672	23	5560
2026-01-02 00:26:48.34	193.74	34.83	-31.8	-36.1	8.4	5.29e-02	0	43	0	942669824	23	5950
2026-01-02 00:26:49.34	193.78	34.60	-32.0	-36.8	7.5	6.90e-02	0	43	0	944766976	24	6252
2026-01-02 00:26:50.34	193.82	34.38	-32.4	-38.9	6.0	1.34e-01	0	43	0	946864128	24	7591
2026-01-02 00:26:51.34	193.85	34.16	-32.4	-38.6	6.2	2.57e-01	0	43	0	948961280	24	7353
2026-01-02 00:26:52.35	193.89	33.94	-32.3	-38.2	6.4	2.67e-01	0	43	0	950009856	24	7114
2026-01-02 00:26:53.35	193.93	33.72	-32.3	-38.1	6.5	3.49e-01	0	43	0	952107008	24	7051
2026-01-02 00:26:54.35	193.96	33.51	-32.0	-36.9	7.4	1.70e-01	0	43	0	954204160	24	6313
2026-01-02 00:26:55.36	194.00	33.29	-32.0	-36.8	7.4	1.01e-01	0	43	0	956301312	24	6249
2026-01-02 00:26:56.36	194.03	33.08	-32.0	-36.7	7.5	1.16e-01	0	43	0	958398464	24	6163
2026-01-02 00:26:57.36	194.07	32.87	-32.1	-36.9	7.3	1.04e-01	0	44	0	959447040	24	6310
2026-01-02 00:26:58.35	194.10	32.66	-31.8	-36.0	8.1	8.37e-02	0	43	0	961544192	24	5776
2026-01-02 00:26:59.36	194.14	32.45	-31.7	-35.7	8.7	4.88e-02	0	43	0	963641344	23	5710
2026-01-02 00:27:00.35	194.17	32.24	-31.4	-34.7	9.5	2.25e-02	0	43	0	965738496	23	5242
2026-01-02 00:27:01.35	194.20	32.04	-30.8	-33.0	11.1	4.37e-03	0	43	0	966787072	22	4650
2026-01-02 00:27:02.35	194.24	31.83	-30.6	-32.9	11.5	1.37e-03	0	43	0	968884224	21	4708
2026-01-02 00:27:03.35	194.27	31.63	-30.3	-32.6	12.0	4.18e-04	0	43	0	970981376	20	4687
2026-01-02 00:27:04.36	194.30	31.43	-29.9	-31.3	12.8	7.55e-05	0	43	0	973078528	20	4261
2026-01-02 00:27:05.35	194.33	31.23	-29.8	-31.3	12.9	5.87e-05	0	43	0	975175680	20	4250
2026-01-02 00:27:06.36	194.37	31.03	-30.0	-31.8	12.6	9.53e-05	0	43	0	976224256	20	4404
2026-01-02 00:27:07.36	194.40	30.83	-30.0	-31.9	12.5	8.77e-05	0	43	0	978321408	20	4437
2026-01-02 00:27:08.37	194.43	30.63	-30.2	-32.3	12.3	1.56e-04	0	43	0	980418560	20	4579
2026-01-02 00:27:09.37	194.46	30.44	-30.6	-33.2	11.3	4.58e-04	0	43	0	982515712	21	4818
2026-01-02 00:27:10.37	194.49	30.24	-31.0	-34.2	10.5	3.58e-03	0	43	0	984612864	21	5227
2026-01-02 00:27:11.37	194.52	30.05	-31.4	-35.1	9.5	8.72e-03	0	43	0	985661440	22	5512
2026-01-02 00:27:12.37	194.55	29.86	-31.8	-36.2	8.3	4.80e-02	0	43	0	987758592	23	6021
2026-01-02 00:27:13.37	194.58	29.67	-32.1	-37.2	7.1	1.11e-01	0	43	0	989855744	24	6471
2026-01-02 00:27:14.38	194.61	29.48	-32.2	-38.1	6.5	1.90e-01	0	43	0	991952896	24	7075
2026-01-02 00:27:15.38	194.63	29.29	-32.2	-37.9	6.5	2.48e-01	0	43	0	994050048	24	6962
2026-01-02 00:27:16.38	194.66	29.11	-32.2	-37.8	6.7	2.61e-01	0	43	0	995098624	24	6892
2026-01-02 00:27:17.38	194.69	28.92	-32.1	-37.5	6.8	1.93e-01	0	43	0	997195776	24	6674
2026-01-02 00:27:18.38	194.72	28.74	-31.9	-36.3	7.7	9.25e-02	0	43	0	999292928	24	5993
2026-01-02 00:27:19.38	194.74	28.56	-31.5	-35.2	9.0	4.09e-02	0	43	0	1001390080	23	5511
2026-01-02 00:27:20.38	194.77	28.38	-31.3	-34.9	9.5	1.74e-02	0	43	0	1002438656	22	5448
2026-01-02 00:27:21.39	194.80	28.19	-30.9	-33.5	10.7	4.70e-03	0	43	0	1004535808	22	4868
2026-01-02 00:27:22.39	194.83	28.01	-30.5	-32.9	11.5	1.76e-03	0	43	0	1006632960	21	4711
2026-01-02 00:27:23.39	194.85	27.84	-30.6	-33.0	11.3	1.15e-03	0	43	0	1008730112	21	4767
2026-01-02 00:27:24.39	194.88	27.66	-30.3	-32.0	12.1	5.25e-04	0	43	0	1010827264	21	4409
2026-01-02 00:27:25.39	194.90	27.49	-30.3	-32.6	12.1	3.62e-04	0	43	0	1011875840	20	4689
2026-01-02 00:27:26.40	194.93	27.31	-30.0	-32.1	12.2	1.79e-04	0	43	0	1013972992	20	4564
2026-01-02 00:27:27.41	194.96	27.13	-30.1	-32.1	12.3	3.41e-04	0	43	0	1016070144	20	4538
2026-01-02 00:27:28.41	194.98	26.96	-29.3	-31.4	12.2	3.75e-04	0	43	0	1018167296	20	4583
2026-01-02 00:27:29.41	195.01	26.79	-29.5	-32.3	11.9	2.46e-04	0	43	0	1020264448	19	4944
2026-01-02 00:27:30.42	195.03	26.62	-29.9	-31.5	12.6	3.12e-04	0	43	0	1021313024	20	4329
2026-01-02 00:27:31.42	195.05	26.45	-29.6	-31.0	12.0	2.31e-04	0	43	0	1023410176	19	4268
2026-01-02 00:27:32.42	195.08	26.28	-29.4	-31.1	12.0	1.29e-05	0	43	0	1025507328	18	4378
2026-01-02 00:27:33.42	195.10	26.12	-29.8	-31.6	12.8	9.90e-06	0	43	0	1027604480	19	4436
2026-01-02 00:27:34.42	195.13	25.95	-29.6	-31.1	13.2	2.38e-04	0	43	0	1029701632	19	4296
2026-01-02 00:27:35.43	195.15	25.78	-29.4	-31.1	13.6	9.90e-06	0	43	0	1030750208	18	4369
2026-01-02 00:27:36.42	195.17	25.62	-28.9	-30.3	14.4	7.00e-07	0	43	0	1032847360	17	4225
2026-01-02 00:27:37.42	195.20	25.46	-28.5	-29.7	15.1	2.67e-03	0	44	0	1034944512	16	4167
2026-01-02 00:27:38.43	195.22	25.30	-28.4	-29.5	15.2	0.00e+00	0	43	0	1037041664	16	4101
2026-01-02 00:27:39.44	195.24	25.13	-28.2	-29.1	15.4	4.15e-04	0	43	0	1039138816	16	3990
2026-01-02 00:27:40.44	195.27	24.97	-28.3	-29.4	15.3	2.51e-03	0	43	0	1040187392	16	4064
2026-01-02 00:27:41.44	195.29	24.81	-28.4	-29.6	15.2	0.00e+00	0	44	0	1042284544	16	4128
2026-01-02 00:27:42.45	195.31	24.66	-28.5	-29.8	15.1	4.19e-04	0	43	0	1044381696	16	4170
2026-01-02 00:27:43.45	195.33	24.50	-28.4	-29.6	15.1	3.97e-04	0	43	0	1046478848	16	4128
2026-01-02 00:27:44.46	195.35	24.34	-28.5	-29.4	15.0	2.24e-03	0	43	0	1048576000	17	3969
2026-01-02 00:27:45.47	195.38	24.18	-28.7	-29.9	14.6	4.39e-04	0	43	0	1049624576	17	4123
2026-01-02 00:27:46.47	195.40	24.03	-28.7	-29.9	14.7	4.15e-04	0	43	0	1051721728	17	4116
2026-01-02 00:27:47.47	195.42	23.88	-28.8	-30.1	14.5	1.96e-03	0	43	0	1053818880	17	4170
2026-01-02 00:27:48.48	195.44	23.72	-28.9	-30.3	14.4	4.23e-04	0	44	0	1055916032	17	4219
2026-01-02 00:27:49.48	195.46	23.57	-28.7	-29.8	14.7	3.69e-04	0	43	0	1056964608	17	4080
2026-01-02 00:27:50.48	195.48	23.42	-28.5	-29.2	15.1	0.00e+00	0	43	0	1059061760	17	3921
2026-01-02 00:27:51.48	195.50	23.27	-28.4	-29.1	15.1	5.71e-04	0	43	0	1061158912	17	3900
2026-01-02 00:27:52.49	195.52	23.12	-28.3	-29.2	15.4	3.49e-04	0	43	0	1063256064	16	4019
2026-01-02 00:27:53.48	195.54	22.97	-28.2	-29.1	15.4	0.00e+00	0	43	0	1065353216	16	4002
2026-01-02 00:27:54.48	195.56	22.83	-28.1	-28.9	15.5	5.19e-04	0	43	0	1066401792	16	3936
2026-01-02 00:27:55.48	195.58	22.68	-27.8	-28.7	15.8	2.48e-03	0	43	0	1068498944	15	3979
2026-01-02 00:27:56.48	195.60	22.54	-27.6	-28.3	16.0	0.00e+00	0	43	0	1070596096	15	3885
2026-01-02 00:27:57.48	195.62	22.39	-27.5	-27.9	16.3	3.51e-04	0	43	0	1072693248	15	3776
2026-01-02 00:27:58.49	195.64	22.25	-27.4	-28.3	16.3	2.22e-03	0	43	0	1074790400	14	3966
2026-01-02 00:27:59.50	195.66	22.10	-27.3	-28.0	16.4	0.00e+00	0	43	0	1075838976	14	3900
2026-01-02 00:28:00.50	195.68	21.96	-27.5	-28.3	16.2	2.94e-04	0	43	0	1077936128	14	3988
2026-01-02 00:28:01.50	195.70	21.82	-27.3	-28.0	16.4	2.44e-03	0	43	0	1080033280	14	3909
2026-01-02 00:28:02.51	195.72	21.68	-27.6	-28.2	16.0	2.13e-03	0	43	0	1082130432	15	3861
2026-01-02 00:28:03.51	195.74	21.54	-27.7	-28.6	15.8	2.69e-04	0	43	0	1084227584	15	3951
2026-01-02 00:28:04.52	195.76	21.39	-27.8	-28.7	15.8	2.10e-03	0	43	0	1085276160	15	3985
2026-01-02 00:28:05.53	195.77	21.26	-27.9	-29.0	15.5	1.93e-03	0	43	0	1087373312	15	4073
2026-01-02 00:28:06.53	195.79	21.12	-28.2	-29.2	15.3	2.47e-04	0	43	0	1089470464	16	4014
2026-01-02 00:28:07.53	195.81	20.98	-28.4	-29.7	15.0	2.51e-04	0	43	0	1091567616	16	4168
2026-01-02 00:28:08.54	195.83	20.84	-28.7	-29.9	14.6	2.20e-03	0	43	0	1093664768	17	4132
2026-01-02 00:28:09.54	195.85	20.71	-28.9	-30.4	14.2	5.65e-04	0	43	0	1094713344	17	4272
2026-01-02 00:28:10.54	195.87	20.57	-29.1	-30.3	14.0	2.30e-04	0	43	0	1096810496	18	4147
2026-01-02 00:28:11.55	195.88	20.44	-29.2	-30.7	13.8	1.96e-03	0	43	0	1098907648	18	4277
2026-01-02 00:28:12.55	195.90	20.30	-29.3	-31.1	13.6	5.07e-04	0	43	0	1101004800	18	4386
2026-01-02 00:28:13.54	195.92	20.17	-29.5	-31.0	13.2	2.09e-03	0	43	0	1103101952	19	4285
2026-01-02 00:28:14.54	195.94	20.04	-29.6	-31.3	13.0	1.71e-03	0	43	0	1104150528	19	4379
2026-01-02 00:28:15.54	195.95	19.91	-29.6	-31.3	13.0	5.58e-04	0	43	0	1106247680	19	4381
2026-01-02 00:28:16.54	195.97	19.78	-29.9	-32.0	12.6	1.94e-03	0	43	0	1108344832	19	4602
2026-01-02 00:28:17.54	195.99	19.65	-29.9	-31.6	12.4	1.32e-04	0	43	0	1110441984	20	4378
2026-01-02 00:28:18.55	196.00	19.52	-29.8	-31.7	12.7	3.29e-04	0	43	0	1112539136	19	4510
2026-01-02 00:28:19.55	196.02	19.39	-29.9	-32.1	12.5	1.99e-03	0	43	0	1113587712	19	4637
2026-01-02 00:28:20.55	196.04	19.26	-29.9	-32.1	12.5	1.62e-03	0	43	0	1115684864	19	4656
2026-01-02 00:28:21.55	196.05	19.14	-30.0	-32.1	12.1	4.76e-04	0	43	0	1117782016	20	4549
2026-01-02 00:28:22.55	196.07	19.01	-30.1	-32.2	12.0	2.28e-03	0	43	0	1119879168	20	4581
2026-01-02 00:28:23.55	196.09	18.89	-29.9	-31.5	12.4	1.43e-03	0	43	0	1120927744	20	4367
2026-01-02 00:28:24.55	196.10	18.76	-29.9	-32.0	12.5	3.49e-04	0	44	0	1123024896	19	4622
2026-01-02 00:28:25.56	196.12	18.63	-29.9	-31.6	12.4	9.24e-04	0	43	0	1125122048	20	4379
2026-01-02 00:28:26.56	196.13	18.51	-29.7	-31.5	12.9	6.45e-04	0	43	0	1127219200	19	4436
2026-01-02 00:28:27.57	196.15	18.39	-29.7	-31.6	12.8	4.66e-04	0	43	0	1129316352	19	4483
2026-01-02 00:28:28.57	196.17	18.26	-29.7	-31.6	12.8	4.08e-04	0	43	0	1130364928	19	4459
2026-01-02 00:28:29.57	196.18	18.14	-29.6	-31.3	13.0	2.40e-04	0	43	0	1132462080	19	4379
2026-01-02 00:28:30.56	196.20	18.02	-29.7	-31.6	12.8	4.23e-04	0	43	0	1134559232	19	4457
2026-01-02 00:28:31.57	196.21	17.90	-29.7	-31.4	12.8	7.09e-05	0	43	0	1136656384	19	4418
2026-01-02 00:28:32.58	196.23	17.78	-29.7	-31.4	12.9	7.32e-05	0	43	0	1138753536	19	4418
2026-01-02 00:28:33.58	196.24	17.66	-29.8	-31.7	12.7	3.81e-04	0	43	0	1139802112	19	4507
2026-01-02 00:28:34.58	196.26	17.54	-29.8	-31.8	12.6	2.07e-04	0	43	0	1141899264	19	4536
2026-01-02 00:28:35.58	196.27	17.42	-29.8	-31.8	12.6	9.76e-05	0	43	0	1143996416	19	4544
2026-01-02 00:28:36.58	196.29	17.30	-29.8	-31.8	12.7	3.13e-04	0	43	0	1146093568	19	4536
2026-01-02 00:28:37.58	196.30	17.18	-29.7	-31.6	12.7	2.25e-04	0	43	0	1147142144	19	4474
2026-01-02 00:28:38.58	196.32	17.07	-29.7	-31.6	12.7	8.46e-05	0	43	0	1149239296	19	4488
2026-01-02 00:28:39.58	196.33	16.95	-29.8	-31.8	12.5	1.67e-04	0	43	0	1151336448	19	4544
2026-01-02 00:28:40.57	196.35	16.84	-29.8	-31.7	12.6	4.73e-04	0	43	0	1153433600	19	4510
2026-01-02 00:28:41.57	196.36	16.72	-29.9	-32.2	12.3	5.97e-04	0	43	0	1155530752	19	4681
2026-01-02 00:28:42.58	196.38	16.61	-29.9	-31.7	12.3	2.53e-04	0	43	0	1156579328	20	4425
2026-01-02 00:28:43.58	196.39	16.49	-29.9	-32.2	12.3	8.09e-04	0	43	0	1158676480	19	4674
2026-01-02 00:28:44.58	196.41	16.38	-30.0	-32.1	12.0	1.17e-03	0	43	0	1160773632	20	4573
2026-01-02 00:28:45.59	196.42	16.26	-29.9	-31.8	12.1	2.27e-04	0	43	0	1162870784	20	4470
2026-01-02 00:28:46.59	196.43	16.15	-30.0	-31.9	12.1	1.26e-03	0	43	0	1164967936	20	4514
2026-01-02 00:28:47.60	196.45	16.04	-30.0	-32.0	12.0	1.49e-03	0	43	0	1166016512	20	4541
2026-01-02 00:28:48.60	196.46	15.93	-29.8	-31.6	12.3	2.78e-04	0	43	0	1168113664	20	4391
2026-01-02 00:28:49.61	196.48	15.82	-30.0	-32.1	12.0	3.36e-04	0	43	0	1170210816	20	4558
2026-01-02 00:28:50.61	196.49	15.70	-30.0	-32.1	11.9	1.92e-03	0	43	0	1172307968	20	4588
2026-01-02 00:28:51.62	196.50	15.59	-30.1	-32.3	11.8	4.07e-04	0	44	0	1174405120	20	4652
2026-01-02 00:28:52.62	196.52	15.48	-30.1	-32.4	11.7	5.55e-04	0	43	0	1175453696	20	4690
2026-01-02 00:28:53.63	196.53	15.37	-30.1	-32.3	11.8	2.23e-03	0	43	0	1177550848	20	4633
2026-01-02 00:28:54.63	196.54	15.27	-30.2	-32.7	11.5	7.80e-04	0	43	0	1179648000	20	4794
2026-01-02 00:28:55.63	196.56	15.16	-30.3	-33.1	11.2	1.21e-03	0	43	0	1181745152	20	4947
2026-01-02 00:28:56.63	196.57	15.05	-30.3	-33.0	11.2	9.03e-04	0	43	0	1183842304	20	4916
2026-01-02 00:28:57.63	196.58	14.94	-30.4	-33.3	11.1	1.27e-03	0	43	0	1184890880	20	5018
2026-01-02 00:28:58.63	196.60	14.84	-30.4	-32.8	11.0	3.55e-03	0	43	0	1186988032	21	4747
2026-01-02 00:28:59.63	196.61	14.73	-30.4	-33.5	10.9	1.99e-03	0	43	0	1189085184	20	5097
2026-01-02 00:29:00.63	196.62	14.62	-30.5	-33.1	10.8	2.64e-03	0	43	0	1191182336	21	4848
2026-01-02 00:29:01.63	196.64	14.52	-30.5	-33.0	10.8	4.43e-03	0	43	0	1193279488	21	4840
2026-01-02 00:29:02.64	196.65	14.41	-30.5	-33.0	10.8	2.59e-03	0	44	0	1194328064	21	4842
2026-01-02 00:29:03.64	196.66	14.31	-30.5	-33.2	10.7	2.63e-03	0	43	0	1196425216	21	4923
2026-01-02 00:29:04.64	196.67	14.21	-30.5	-33.1	10.7	4.79e-03	0	43	0	1198522368	21	4873
2026-01-02 00:29:05.65	196.69	14.10	-30.6	-33.4	10.5	3.22e-03	0	43	0	1200619520	21	4997
2026-01-02 00:29:06.65	196.70	14.00	-30.6	-33.5	10.4	4.21e-03	0	43	0	1202716672	21	5053
2026-01-02 00:29:07.65	196.71	13.90	-30.6	-33.5	10.5	4.82e-03	0	43	0	1203765248	21	5053
2026-01-02 00:29:08.66	196.73	13.79	-30.8	-34.2	9.9	7.49e-03	0	43	0	1205862400	21	5323
2026-01-02 00:29:09.66	196.74	13.69	-30.7	-34.0	10.1	1.02e-02	0	43	0	1207959552	21	5244
2026-01-02 00:29:10.66	196.75	13.59	-30.6	-33.5	10.4	5.34e-03	0	43	0	1210056704	21	5063
2026-01-02 00:29:11.66	196.76	13.49	-30.5	-33.3	10.5	6.32e-03	0	43	0	1211105280	21	4956
2026-01-02 00:29:12.67	196.77	13.39	-30.3	-32.7	11.0	2.31e-03	0	43	0	1213202432	21	4737
2026-01-02 00:29:13.67	196.79	13.29	-30.2	-32.7	11.4	1.12e-03	0	43	0	1215299584	20	4802
2026-01-02 00:29:14.67	196.80	13.19	-30.1	-32.6	11.5	7.35e-04	0	43	0	1217396736	20	4767
2026-01-02 00:29:15.67	196.81	13.09	-30.1	-32.5	11.5	8.83e-04	0	43	0	1219493888	20	4736
2026-01-02 00:29:16.67	196.82	12.99	-30.0	-32.3	11.7	7.06e-04	0	43	0	1220542464	20	4671
2026-01-02 00:29:17.68	196.84	12.89	-30.2	-32.9	11.2	1.39e-03	0	43	0	1222639616	20	4905
2026-01-02 00:29:18.67	196.85	12.79	-30.0	-32.2	11.7	1.11e-03	0	43	0	1224736768	20	4645
2026-01-02 00:29:19.68	196.86	12.70	-30.0	-32.3	11.6	5.49e-04	0	43	0	1226833920	20	4669
2026-01-02 00:29:20.69	196.87	12.60	-30.0	-32.1	11.7	5.40e-04	0	43	0	1228931072	20	4607
2026-01-02 00:29:21.69	196.88	12.50	-29.9	-32.0	11.8	3.73e-04	0	43	0	1229979648	20	4562
2026-01-02 00:29:22.69	196.89	12.40	-29.9	-32.0	11.8	4.61e-04	0	43	0	1232076800	20	4579
2026-01-02 00:29:23.70	196.91	12.31	-29.8	-32.1	12.2	3.13e-04	0	44	0	1234173952	19	4668
2026-01-02 00:29:24.71	196.92	12.21	-29.7	-31.7	12.4	2.00e-04	0	43	0	1236271104	19	4551
2026-01-02 00:29:25.72	196.93	12.11	-29.8	-32.2	12.1	1.73e-04	0	43	0	1238368256	19	4701
2026-01-02 00:29:26.73	196.94	12.02	-29.7	-31.9	12.3	2.20e-04	0	43	0	1239416832	19	4608
2026-01-02 00:29:27.73	196.95	11.92	-29.7	-31.8	12.4	1.32e-04	0	43	0	1241513984	19	4563
2026-01-02 00:29:28.73	196.96	11.83	-29.6	-31.5	12.5	1.22e-04	0	43	0	1243611136	19	4490
2026-01-02 00:29:29.73	196.97	11.74	-29.6	-31.4	12.6	7.09e-05	0	43	0	1245708288	19	4431
2026-01-02 00:29:30.73	196.99	11.64	-29.6	-31.5	12.5	1.20e-04	0	43	0	1247805440	19	4481
2026-01-02 00:29:31.73	197.00	11.55	-29.5	-31.2	12.7	1.12e-04	0	43	0	1248854016	19	4390
2026-01-02 00:29:32.74	197.01	11.46	-29.6	-31.5	12.5	8.85e-05	0	43	0	1250951168	19	4469
2026-01-02 00:29:33.74	197.02	11.36	-29.8	-32.0	12.2	1.46e-04	0	43	0	1253048320	19	4637
2026-01-02 00:29:34.75	197.03	11.27	-29.6	-31.6	12.4	1.88e-04	0	43	0	1255145472	19	4516
2026-01-02 00:29:35.75	197.04	11.18	-29.7	-31.7	12.3	1.13e-04	0	43	0	1257242624	19	4564
2026-01-02 00:29:36.76	197.05	11.09	-28.9	-30.9	12.3	1.36e-04	0	43	0	1258291200	19	4547
2026-01-02 00:29:37.77	197.06	10.99	-29.6	-32.0	11.9	1.19e-04	0	43	0	1260388352	18	4752
2026-01-02 00:29:38.77	197.07	10.90	-29.8	-32.0	12.1	1.82e-04	0	43	0	1262485504	19	4651
2026-01-02 00:29:39.77	197.08	10.81	-29.8	-31.9	11.3	2.27e-04	0	43	0	1264582656	19	4633
2026-01-02 00:29:40.77	197.10	10.72	-29.6	-31.6	11.5	1.65e-04	0	43	0	1266679808	19	4509
2026-01-02 00:29:41.78	197.11	10.63	-29.6	-31.5	12.5	1.01e-04	0	43	0	1267728384	19	4470
2026-01-02 00:29:42.79	197.12	10.54	-29.5	-31.6	12.7	1.21e-04	0	43	0	1269825536	18	4606
2026-01-02 00:29:43.78	197.13	10.45	-29.5	-31.4	12.5	9.99e-05	0	43	0	1271922688	19	4445
2026-01-02 00:29:44.78	197.14	10.37	-29.5	-31.4	12.5	1.07e-04	0	43	0	1274019840	19	4445
2026-01-02 00:29:45.78	197.15	10.28	-29.5	-31.6	12.7	1.04e-04	0	43	0	1275068416	18	4617
2026-01-02 00:29:46.79	197.16	10.19	-29.6	-31.4	12.5	4.29e-04	0	43	0	1277165568	19	4458
2026-01-02 00:29:47.79	197.17	10.10	-29.7	-31.8	12.3	1.84e-04	0	44	0	1279262720	19	4580
2026-01-02 00:29:48.79	197.18	10.01	-29.6	-31.6	12.4	2.69e-04	0	43	0	1281359872	19	4522
2026-01-02 00:29:49.79	197.19	9.93	-29.6	-31.4	12.4	2.41e-03	0	44	0	1283457024	19	4465
2026-01-02 00:29:50.79	197.20	9.84	-29.4	-31.0	12.7	6.48e-05	0	43	0	1284505600	19	4329
2026-01-02 00:29:51.79	197.21	9.75	-29.2	-31.0	13.0	3.35e-05	0	44	0	1286602752	18	4415
