passes_logs/2026/01/02/R2M6_AANII_01/R2M6_AANII_01__20260102_083231_SUOMI_NPP_rec.log

#Pass ID: 20260102_083231_SUOMI NPP
#Satellite: SUOMI NPP
#Configuration: NPP
#almurnet v.1.7.20240730
#Start time: 2026-01-02 08:32:32

#Version: 2.2.20231116
#Station: R2M6_AANII_01
#Location: 30.233357 lon 59.946436 lat
#TLE: 1 37849U 11061A   26001.07732418  .00000182  00000+0  10735-3 0  9990
#TLE: 2 37849  98.7795 303.2470 0002580  87.2016 272.9455 14.19520779734739

#Time	Az	El	Level	Level2	SNR	BER	BlckErr	Temp	State	Recorded	gain1	gain2
2026-01-02 08:32:32.89	102.91	7.08	-31.7	-38.2	4.3	1.40e+00	0	41	0	0	24	7618
2026-01-02 08:32:33.88	102.82	7.14	-31.5	-36.9	4.6	1.34e+00	0	41	104	0	24	6656
2026-01-02 08:32:34.88	102.73	7.21	-31.5	-36.9	6.2	2.74e-01	0	41	0	0	24	6648
2026-01-02 08:32:35.88	102.64	7.27	-31.5	-36.7	6.4	2.60e-01	0	41	0	1048576	24	6514
2026-01-02 08:32:36.89	102.55	7.34	-31.5	-36.7	6.4	2.60e-01	0	41	0	3145728	24	6519
2026-01-02 08:32:37.89	102.46	7.40	-31.5	-36.6	6.4	2.52e-01	0	41	0	5242880	24	6472
2026-01-02 08:32:38.90	102.37	7.47	-31.4	-35.7	7.1	2.09e-01	0	41	0	7340032	24	5932
2026-01-02 08:32:39.90	102.28	7.54	-31.1	-35.0	8.1	7.93e-02	0	41	0	9437184	23	5623
2026-01-02 08:32:40.90	102.18	7.60	-30.9	-34.0	8.9	3.66e-02	0	41	0	10485760	23	5147
2026-01-02 08:32:41.91	102.09	7.67	-30.8	-33.7	9.2	2.60e-02	0	41	0	12582912	23	5001
2026-01-02 08:32:42.91	102.00	7.73	-30.7	-33.7	9.5	1.53e-02	0	41	0	14680064	22	5091
2026-01-02 08:32:43.92	101.90	7.80	-30.8	-34.0	9.3	1.41e-02	0	41	0	16777216	22	5218
2026-01-02 08:32:44.92	101.81	7.87	-30.9	-34.6	8.8	2.45e-02	0	41	0	17825792	22	5520
2026-01-02 08:32:45.92	101.72	7.93	-31.0	-35.0	8.5	3.96e-02	0	41	0	19922944	22	5705
2026-01-02 08:32:46.92	101.62	8.00	-30.9	-34.7	8.7	3.35e-02	0	41	0	22020096	22	5564
2026-01-02 08:32:47.92	101.53	8.07	-30.9	-34.7	8.8	2.93e-02	0	41	0	24117248	22	5532
2026-01-02 08:32:48.93	101.43	8.13	-30.7	-34.1	9.2	2.47e-02	0	41	0	26214400	22	5269
2026-01-02 08:32:49.93	101.34	8.20	-30.6	-33.7	9.4	1.74e-02	0	41	0	27262976	22	5109
2026-01-02 08:32:50.93	101.24	8.27	-30.7	-34.0	9.2	1.88e-02	0	42	0	29360128	22	5246
2026-01-02 08:32:51.93	101.14	8.33	-30.6	-33.4	9.6	1.85e-02	0	42	0	31457280	22	5021
2026-01-02 08:32:52.93	101.05	8.40	-30.8	-34.4	8.7	2.83e-02	0	42	0	33554432	22	5471
2026-01-02 08:32:53.93	100.95	8.47	-30.7	-34.0	9.1	2.60e-02	0	42	0	35651584	22	5246
2026-01-02 08:32:54.93	100.85	8.54	-30.6	-33.5	9.5	1.81e-02	0	42	0	36700160	22	5043
2026-01-02 08:32:55.94	100.75	8.60	-30.6	-33.4	9.7	1.21e-02	0	42	0	38797312	22	4974
2026-01-02 08:32:56.95	100.65	8.67	-30.4	-33.0	10.0	7.65e-03	0	42	0	40894464	22	4829
2026-01-02 08:32:57.95	100.55	8.74	-30.4	-33.0	9.9	8.61e-03	0	42	0	42991616	22	4842
2026-01-02 08:32:58.95	100.45	8.81	-30.5	-33.4	9.6	9.48e-03	0	42	0	45088768	22	5001
2026-01-02 08:32:59.95	100.35	8.87	-30.7	-34.0	9.1	1.93e-02	0	42	0	46137344	22	5257
2026-01-02 08:33:00.95	100.25	8.94	-30.8	-34.2	9.0	2.30e-02	0	42	0	48234496	22	5343
2026-01-02 08:33:01.95	100.15	9.01	-31.0	-34.9	8.4	3.14e-02	0	42	0	50331648	22	5685
2026-01-02 08:33:02.95	100.05	9.08	-31.0	-34.9	8.5	4.35e-02	0	42	0	52428800	22	5673
2026-01-02 08:33:03.95	99.94	9.15	-31.1	-35.3	8.2	4.93e-02	0	42	0	54525952	22	5873
2026-01-02 08:33:04.95	99.84	9.21	-30.9	-34.7	8.6	4.18e-02	0	42	0	55574528	22	5578
2026-01-02 08:33:05.96	99.74	9.28	-31.1	-35.4	8.2	3.76e-02	0	42	0	57671680	22	5933
2026-01-02 08:33:06.96	99.63	9.35	-30.9	-34.7	8.7	4.87e-02	0	42	0	59768832	22	5574
2026-01-02 08:33:07.96	99.53	9.42	-30.7	-33.6	9.6	1.96e-02	0	42	0	61865984	22	5062
2026-01-02 08:33:08.97	99.42	9.49	-30.5	-32.9	10.2	8.98e-03	0	42	0	62914560	22	4765
2026-01-02 08:33:09.96	99.32	9.56	-30.4	-32.7	10.4	4.38e-03	0	42	0	65011712	22	4685
2026-01-02 08:33:10.96	99.21	9.63	-30.4	-32.7	10.4	3.61e-03	0	42	0	67108864	22	4667
2026-01-02 08:33:11.95	99.11	9.69	-30.7	-33.5	9.9	5.04e-03	0	42	0	69206016	22	4972
2026-01-02 08:33:12.96	99.00	9.76	-30.8	-34.0	9.5	8.95e-03	0	42	0	71303168	22	5184
2026-01-02 08:33:13.96	98.89	9.83	-30.8	-34.1	9.4	1.61e-02	0	42	0	72351744	22	5236
2026-01-02 08:33:14.97	98.78	9.90	-30.7	-33.6	9.7	1.64e-02	0	42	0	74448896	22	5040
2026-01-02 08:33:15.97	98.67	9.97	-30.5	-32.9	10.3	8.12e-03	0	42	0	76546048	22	4726
2026-01-02 08:33:16.97	98.56	10.04	-30.4	-32.6	10.6	4.09e-03	0	42	0	78643200	22	4616
2026-01-02 08:33:17.98	98.45	10.11	-30.5	-32.9	10.3	4.56e-03	0	42	0	80740352	22	4739
2026-01-02 08:33:18.98	98.34	10.18	-30.6	-33.2	10.1	6.23e-03	0	42	0	81788928	22	4880
2026-01-02 08:33:19.98	98.23	10.25	-30.8	-34.1	9.5	8.78e-03	0	42	0	83886080	22	5244
2026-01-02 08:33:20.98	98.12	10.32	-30.7	-33.7	9.7	1.10e-02	0	42	0	85983232	22	5085
2026-01-02 08:33:21.98	98.01	10.39	-30.7	-33.7	9.7	1.04e-02	0	42	0	88080384	22	5091
2026-01-02 08:33:22.99	97.90	10.46	-30.7	-33.7	9.7	1.10e-02	0	42	0	90177536	22	5071
2026-01-02 08:33:23.99	97.78	10.53	-30.7	-33.6	9.7	1.11e-02	0	42	0	91226112	22	5041
2026-01-02 08:33:24.99	97.67	10.60	-30.8	-34.1	9.3	1.20e-02	0	42	0	93323264	22	5247
2026-01-02 08:33:26.00	97.56	10.67	-30.7	-33.8	9.6	1.43e-02	0	42	0	95420416	22	5104
2026-01-02 08:33:27.00	97.44	10.74	-30.8	-33.9	9.5	1.25e-02	0	42	0	97517568	22	5162
2026-01-02 08:33:28.00	97.33	10.81	-31.1	-35.1	8.7	2.44e-02	0	42	0	99614720	22	5696
2026-01-02 08:33:29.01	97.21	10.88	-31.1	-35.3	8.5	3.37e-02	0	42	0	100663296	22	5787
2026-01-02 08:33:30.01	97.09	10.96	-31.1	-35.2	8.6	3.84e-02	0	42	0	102760448	22	5736
2026-01-02 08:33:31.02	96.98	11.03	-31.0	-34.6	9.1	3.07e-02	0	42	0	104857600	22	5452
2026-01-02 08:33:32.02	96.86	11.10	-31.0	-34.6	9.2	2.22e-02	0	42	0	106954752	22	5433
2026-01-02 08:33:33.02	96.74	11.17	-31.1	-35.2	8.6	2.42e-02	0	42	0	108003328	22	5731
2026-01-02 08:33:34.03	96.62	11.24	-31.1	-34.8	9.0	2.67e-02	0	42	0	110100480	22	5560
2026-01-02 08:33:35.03	96.50	11.31	-31.4	-36.2	7.9	5.27e-02	0	42	0	112197632	22	6256
2026-01-02 08:33:36.03	96.38	11.38	-31.2	-35.4	8.5	5.95e-02	0	42	0	114294784	22	5847
2026-01-02 08:33:37.03	96.26	11.45	-31.0	-34.5	9.3	2.45e-02	0	42	0	116391936	22	5375
2026-01-02 08:33:38.04	96.14	11.52	-30.7	-33.5	10.1	9.22e-03	0	42	0	117440512	22	4924
2026-01-02 08:33:39.04	96.02	11.60	-30.4	-32.3	11.0	4.45e-03	0	42	0	119537664	22	4480
2026-01-02 08:33:40.04	95.90	11.67	-30.2	-32.1	11.6	1.23e-03	0	42	0	121634816	21	4484
2026-01-02 08:33:41.05	95.77	11.74	-30.0	-31.4	12.1	4.56e-04	0	42	0	123731968	21	4255
2026-01-02 08:33:42.05	95.65	11.81	-30.1	-31.7	11.9	3.34e-04	0	42	0	125829120	21	4352
2026-01-02 08:33:43.05	95.53	11.88	-30.1	-31.9	11.8	3.64e-04	0	42	0	126877696	21	4412
2026-01-02 08:33:44.06	95.40	11.96	-30.1	-31.9	11.7	5.84e-04	0	42	0	128974848	21	4412
2026-01-02 08:33:45.06	95.27	12.03	-30.1	-31.7	11.9	3.44e-04	0	42	0	131072000	21	4353
2026-01-02 08:33:46.07	95.15	12.10	-30.2	-32.0	11.7	4.42e-04	0	42	0	133169152	21	4439
2026-01-02 08:33:47.07	95.02	12.17	-30.1	-31.9	11.8	5.67e-04	0	42	0	135266304	21	4395
2026-01-02 08:33:48.07	94.89	12.24	-30.1	-31.7	12.0	3.44e-04	0	43	0	136314880	21	4337
2026-01-02 08:33:49.08	94.77	12.32	-30.0	-31.6	12.0	4.16e-04	0	42	0	138412032	21	4296
2026-01-02 08:33:50.08	94.64	12.39	-29.9	-31.3	12.2	3.69e-04	0	43	0	140509184	21	4210
2026-01-02 08:33:51.08	94.51	12.46	-29.9	-31.2	12.4	1.47e-04	0	43	0	142606336	21	4159
2026-01-02 08:33:52.09	94.38	12.53	-30.0	-31.4	12.2	2.27e-04	0	43	0	144703488	21	4231
2026-01-02 08:33:53.09	94.25	12.61	-29.9	-31.3	12.3	1.75e-04	0	43	0	145752064	21	4192
2026-01-02 08:33:54.09	94.12	12.68	-29.9	-31.0	12.5	1.40e-04	0	43	0	147849216	21	4122
2026-01-02 08:33:55.09	93.98	12.75	-29.9	-31.2	12.4	1.60e-04	0	43	0	149946368	21	4169
2026-01-02 08:33:56.10	93.85	12.82	-30.0	-31.4	12.2	1.08e-04	0	43	0	152043520	21	4249
2026-01-02 08:33:57.10	93.72	12.90	-30.0	-31.3	12.4	1.89e-04	0	43	0	154140672	21	4207
2026-01-02 08:33:58.10	93.58	12.97	-29.9	-31.2	12.4	1.69e-04	0	43	0	155189248	21	4175
2026-01-02 08:33:59.10	93.45	13.04	-30.0	-31.3	12.4	1.37e-04	0	43	0	157286400	21	4184
2026-01-02 08:34:00.10	93.32	13.12	-29.9	-31.1	12.5	1.38e-04	0	43	0	159383552	21	4123
2026-01-02 08:34:01.10	93.18	13.19	-29.9	-31.0	12.6	1.04e-04	0	42	0	161480704	21	4090
2026-01-02 08:34:02.11	93.04	13.26	-30.0	-31.4	12.3	1.05e-04	0	43	0	163577856	21	4217
2026-01-02 08:34:03.11	92.91	13.34	-30.1	-31.7	12.1	2.84e-04	0	43	0	164626432	21	4327
2026-01-02 08:34:04.12	92.77	13.41	-30.0	-31.5	12.3	2.63e-04	0	43	0	166723584	21	4243
2026-01-02 08:34:05.12	92.63	13.48	-30.1	-31.7	12.2	2.58e-04	0	43	0	168820736	21	4311
2026-01-02 08:34:06.12	92.49	13.56	-30.2	-31.9	12.0	2.72e-04	0	43	0	170917888	21	4386
2026-01-02 08:34:07.13	92.35	13.63	-30.0	-31.4	12.3	2.07e-04	0	43	0	171966464	21	4238
2026-01-02 08:34:08.13	92.21	13.70	-30.0	-31.3	12.4	1.97e-04	0	43	0	174063616	21	4204
2026-01-02 08:34:09.13	92.07	13.78	-30.0	-31.4	12.3	1.40e-04	0	43	0	176160768	21	4235
2026-01-02 08:34:10.14	91.92	13.85	-30.2	-31.9	12.0	2.10e-04	0	43	0	178257920	21	4380
2026-01-02 08:34:11.14	91.78	13.92	-30.1	-31.6	12.3	2.39e-04	0	43	0	180355072	21	4277
2026-01-02 08:34:12.14	91.64	14.00	-30.1	-31.6	12.3	1.96e-04	0	43	0	181403648	21	4285
2026-01-02 08:34:13.14	91.49	14.07	-30.3	-32.1	12.0	2.32e-04	0	43	0	183500800	21	4458
2026-01-02 08:34:14.15	91.35	14.14	-30.4	-32.4	11.8	2.89e-04	0	43	0	185597952	21	4546
2026-01-02 08:34:15.15	91.20	14.22	-30.2	-32.1	11.8	4.36e-04	0	43	0	187695104	21	4508
2026-01-02 08:34:16.16	91.05	14.29	-30.1	-31.8	12.0	4.59e-04	0	43	0	189792256	21	4388
2026-01-02 08:34:17.16	90.91	14.37	-30.1	-32.0	11.9	4.60e-04	0	43	0	190840832	21	4466
2026-01-02 08:34:18.16	90.76	14.44	-30.2	-32.1	11.8	3.78e-04	0	43	0	192937984	21	4495
2026-01-02 08:34:19.16	90.61	14.51	-30.2	-32.1	11.9	3.51e-04	0	43	0	195035136	21	4485
2026-01-02 08:34:20.17	90.46	14.59	-30.4	-32.8	11.3	6.80e-04	0	43	0	197132288	21	4756
2026-01-02 08:34:21.17	90.31	14.66	-30.4	-32.7	11.4	8.08e-04	0	43	0	199229440	21	4723
2026-01-02 08:34:22.18	90.16	14.74	-30.5	-32.9	11.3	9.69e-04	0	43	0	200278016	21	4788
2026-01-02 08:34:23.19	90.00	14.81	-30.3	-32.4	11.7	7.33e-04	0	43	0	202375168	21	4598
2026-01-02 08:34:24.19	89.85	14.88	-30.2	-32.0	12.0	5.47e-04	0	43	0	204472320	21	4447
2026-01-02 08:34:25.19	89.70	14.96	-30.1	-31.7	12.1	3.00e-04	0	43	0	206569472	21	4364
2026-01-02 08:34:26.19	89.55	15.03	-30.1	-31.8	12.2	2.53e-04	0	43	0	208666624	21	4372
2026-01-02 08:34:27.19	89.39	15.11	-30.1	-31.9	12.1	2.29e-04	0	43	0	209715200	21	4403
2026-01-02 08:34:28.18	89.24	15.18	-30.2	-32.1	11.9	3.71e-04	0	43	0	211812352	21	4470
2026-01-02 08:34:29.18	89.08	15.25	-30.3	-32.5	11.6	4.11e-04	0	43	0	213909504	21	4627
2026-01-02 08:34:30.18	88.92	15.33	-30.4	-32.6	11.6	4.50e-04	0	43	0	216006656	21	4671
2026-01-02 08:34:31.17	88.77	15.40	-30.3	-32.4	11.7	4.79e-04	0	43	0	217055232	21	4576
2026-01-02 08:34:32.17	88.61	15.47	-30.4	-32.6	11.5	7.86e-04	0	43	0	219152384	21	4671
2026-01-02 08:34:33.17	88.45	15.55	-30.4	-32.6	11.5	8.32e-04	0	43	0	221249536	21	4666
2026-01-02 08:34:34.18	88.29	15.62	-30.5	-33.1	11.2	1.03e-03	0	43	0	223346688	21	4828
2026-01-02 08:34:35.18	88.13	15.70	-30.4	-32.9	11.4	9.67e-04	0	43	0	225443840	21	4757
2026-01-02 08:34:36.19	87.96	15.77	-30.4	-32.7	11.5	8.68e-04	0	43	0	226492416	21	4713
2026-01-02 08:34:37.19	87.80	15.85	-30.4	-32.7	11.5	7.52e-04	0	43	0	228589568	21	4700
2026-01-02 08:34:38.20	87.64	15.92	-30.4	-32.6	11.6	6.50e-04	0	43	0	230686720	21	4640
2026-01-02 08:34:39.19	87.47	15.99	-30.5	-32.9	11.4	9.59e-04	0	43	0	232783872	21	4758
2026-01-02 08:34:40.19	87.31	16.07	-30.4	-32.6	11.6	7.32e-04	0	43	0	234881024	21	4639
2026-01-02 08:34:41.19	87.14	16.14	-30.3	-32.3	11.9	6.00e-04	0	43	0	235929600	21	4543
2026-01-02 08:34:42.19	86.98	16.21	-30.2	-32.0	12.1	3.49e-04	0	43	0	238026752	21	4433
2026-01-02 08:34:43.19	86.81	16.29	-30.2	-32.0	12.1	3.02e-04	0	43	0	240123904	21	4455
2026-01-02 08:34:44.19	86.64	16.36	-30.1	-31.7	12.2	2.10e-04	0	43	0	242221056	21	4343
2026-01-02 08:34:45.20	86.47	16.44	-30.1	-31.8	12.2	2.50e-04	0	43	0	244318208	21	4381
2026-01-02 08:34:46.20	86.30	16.51	-30.4	-32.7	11.6	5.18e-04	0	43	0	245366784	21	4675
2026-01-02 08:34:47.20	86.13	16.58	-30.5	-32.9	11.5	7.22e-04	0	43	0	247463936	21	4764
2026-01-02 08:34:48.20	85.96	16.66	-30.4	-32.8	11.5	7.38e-04	0	43	0	249561088	21	4717
2026-01-02 08:34:49.20	85.79	16.73	-30.5	-32.9	11.4	8.67e-04	0	43	0	251658240	21	4742
2026-01-02 08:34:50.19	85.61	16.80	-30.2	-32.1	12.0	5.47e-04	0	43	0	253755392	21	4488
2026-01-02 08:34:51.20	85.44	16.88	-30.2	-32.0	12.1	2.37e-04	0	43	0	254803968	21	4442
2026-01-02 08:34:52.20	85.26	16.95	-30.4	-32.6	11.7	4.74e-04	0	43	0	256901120	21	4632
2026-01-02 08:34:53.21	85.09	17.03	-30.3	-32.2	12.0	6.60e-04	0	43	0	258998272	21	4514
2026-01-02 08:34:54.21	84.91	17.10	-30.4	-32.6	11.7	5.52e-04	0	43	0	261095424	21	4656
2026-01-02 08:34:55.21	84.73	17.17	-30.3	-32.4	11.9	4.35e-04	0	43	0	262144000	21	4565
2026-01-02 08:34:56.21	84.55	17.25	-30.4	-32.6	11.8	3.33e-04	0	43	0	264241152	21	4619
2026-01-02 08:34:57.22	84.37	17.32	-30.6	-33.1	11.4	8.07e-04	0	43	0	266338304	21	4811
2026-01-02 08:34:58.22	84.19	17.39	-30.6	-33.4	11.2	7.99e-04	0	43	0	268435456	21	4923
2026-01-02 08:34:59.22	84.01	17.47	-30.9	-34.2	10.6	3.24e-03	0	43	0	270532608	21	5246
2026-01-02 08:35:00.23	83.83	17.54	-30.8	-33.8	10.8	2.50e-03	0	43	0	271581184	21	5105
2026-01-02 08:35:01.23	83.64	17.61	-30.7	-33.5	11.1	2.14e-03	0	43	0	273678336	21	4968
2026-01-02 08:35:02.23	83.46	17.68	-30.8	-33.8	10.9	2.62e-03	0	43	0	275775488	21	5069
2026-01-02 08:35:03.23	83.27	17.76	-30.7	-33.6	11.0	1.91e-03	0	43	0	277872640	21	5012
2026-01-02 08:35:04.23	83.09	17.83	-31.0	-33.8	10.5	2.85e-03	0	43	0	279969792	22	5000
2026-01-02 08:35:05.22	82.90	17.90	-30.7	-33.1	11.1	2.64e-03	0	43	0	281018368	22	4703
2026-01-02 08:35:06.22	82.72	17.97	-30.5	-32.3	11.7	6.53e-04	0	43	0	283115520	22	4420
2026-01-02 08:35:07.23	82.53	18.05	-30.4	-32.1	11.8	6.35e-04	0	43	0	285212672	22	4358
2026-01-02 08:35:08.23	82.34	18.12	-30.2	-31.9	12.3	2.51e-04	0	43	0	287309824	21	4381
2026-01-02 08:35:09.24	82.14	18.19	-30.3	-32.2	12.0	2.39e-04	0	43	0	289406976	21	4500
2026-01-02 08:35:10.24	81.95	18.26	-30.3	-32.3	12.0	3.12e-04	0	43	0	290455552	21	4524
2026-01-02 08:35:11.25	81.76	18.34	-30.3	-32.1	12.1	2.60e-04	0	43	0	292552704	21	4470
2026-01-02 08:35:12.25	81.57	18.41	-30.3	-32.3	12.0	2.94e-04	0	43	0	294649856	21	4534
2026-01-02 08:35:13.25	81.37	18.48	-30.0	-31.5	12.5	1.91e-04	0	43	0	296747008	21	4263
2026-01-02 08:35:14.26	81.18	18.55	-30.0	-31.4	12.6	9.00e-05	0	43	0	298844160	21	4227
2026-01-02 08:35:15.26	80.98	18.62	-30.0	-31.3	12.6	6.02e-05	0	43	0	299892736	21	4213
2026-01-02 08:35:16.27	80.78	18.69	-30.0	-31.5	12.5	8.23e-05	0	43	0	301989888	21	4266
2026-01-02 08:35:17.27	80.58	18.76	-29.9	-31.2	12.7	7.32e-05	0	43	0	304087040	21	4168
2026-01-02 08:35:18.27	80.39	18.84	-29.7	-31.0	13.2	2.59e-05	0	43	0	306184192	20	4203
2026-01-02 08:35:19.28	80.18	18.91	-29.6	-30.7	13.4	2.67e-05	0	43	0	307232768	20	4102
2026-01-02 08:35:20.28	79.98	18.98	-29.5	-30.7	13.4	1.29e-05	0	43	0	309329920	20	4094
2026-01-02 08:35:21.29	79.78	19.05	-29.7	-31.1	13.2	2.28e-05	0	43	0	311427072	20	4220
2026-01-02 08:35:22.29	79.58	19.12	-29.5	-30.6	13.5	1.52e-05	0	43	0	313524224	20	4062
2026-01-02 08:35:23.30	79.37	19.19	-29.3	-30.4	14.0	6.10e-06	0	43	0	315621376	19	4102
2026-01-02 08:35:24.31	79.17	19.26	-29.1	-30.0	14.3	7.00e-07	0	43	0	317718528	19	3974
2026-01-02 08:35:25.31	78.96	19.33	-29.2	-30.1	14.2	7.00e-07	0	43	0	318767104	19	4007
2026-01-02 08:35:26.31	78.76	19.40	-29.2	-30.2	14.1	1.50e-06	0	43	0	320864256	19	4029
2026-01-02 08:35:27.32	78.55	19.47	-29.2	-30.2	14.2	2.20e-06	0	43	0	322961408	19	4027
2026-01-02 08:35:28.33	78.34	19.54	-29.4	-30.6	13.9	1.50e-06	0	43	0	325058560	19	4139
2026-01-02 08:35:29.33	78.13	19.61	-29.3	-30.4	14.0	6.10e-06	0	43	0	326107136	19	4091
2026-01-02 08:35:30.33	77.92	19.68	-29.3	-30.3	14.1	1.50e-06	0	43	0	328204288	19	4066
2026-01-02 08:35:31.33	77.71	19.74	-29.2	-30.1	14.2	3.00e-06	0	43	0	330301440	19	4001
2026-01-02 08:35:32.33	77.50	19.81	-29.2	-30.2	14.2	4.50e-06	0	43	0	332398592	19	4018
2026-01-02 08:35:33.34	77.28	19.88	-29.3	-30.5	14.0	3.00e-06	0	43	0	334495744	19	4112
2026-01-02 08:35:34.34	77.07	19.95	-29.1	-29.8	14.4	1.50e-06	0	43	0	335544320	19	3913
2026-01-02 08:35:35.34	76.85	20.02	-29.1	-29.7	14.5	3.80e-06	0	43	0	337641472	19	3895
2026-01-02 08:35:36.35	76.63	20.08	-29.1	-30.0	14.3	7.00e-07	0	43	0	339738624	19	3967
2026-01-02 08:35:37.35	76.42	20.15	-29.4	-30.7	13.9	3.00e-06	0	43	0	341835776	19	4158
2026-01-02 08:35:38.35	76.20	20.22	-29.3	-30.5	13.9	4.50e-06	0	43	0	343932928	19	4102
2026-01-02 08:35:39.36	75.98	20.28	-29.5	-30.8	13.8	1.50e-06	0	43	0	344981504	19	4203
2026-01-02 08:35:40.36	75.76	20.35	-29.4	-30.7	13.9	1.50e-06	0	43	0	347078656	19	4178
2026-01-02 08:35:41.36	75.54	20.42	-29.5	-30.9	13.8	3.00e-06	0	43	0	349175808	19	4233
2026-01-02 08:35:42.36	75.32	20.48	-29.5	-30.9	13.7	3.00e-06	0	43	0	351272960	19	4235
2026-01-02 08:35:43.36	75.10	20.55	-29.3	-30.3	14.1	2.20e-06	0	43	0	353370112	19	4056
2026-01-02 08:35:44.37	74.87	20.61	-29.3	-30.3	14.1	2.20e-06	0	43	0	354418688	19	4042
2026-01-02 08:35:45.37	74.65	20.68	-29.3	-30.2	14.2	1.50e-06	0	43	0	356515840	19	4032
2026-01-02 08:35:46.37	74.42	20.74	-29.1	-29.8	14.5	0.00e+00	0	43	0	358612992	19	3904
2026-01-02 08:35:47.37	74.20	20.81	-29.0	-29.7	14.6	0.00e+00	0	43	0	360710144	19	3869
2026-01-02 08:35:48.37	73.97	20.87	-28.9	-29.3	14.8	0.00e+00	0	43	0	362807296	19	3761
2026-01-02 08:35:49.37	73.74	20.93	-28.8	-29.0	15.0	0.00e+00	0	43	0	363855872	19	3702
2026-01-02 08:35:50.37	73.51	21.00	-28.7	-29.3	15.1	0.00e+00	0	43	0	365953024	18	3852
2026-01-02 08:35:51.37	73.28	21.06	-28.7	-29.4	15.0	0.00e+00	0	43	0	368050176	18	3876
2026-01-02 08:35:52.38	73.05	21.12	-28.9	-29.8	14.9	0.00e+00	0	43	0	370147328	18	3980
2026-01-02 08:35:53.38	72.82	21.18	-28.7	-29.3	15.1	0.00e+00	0	43	0	371195904	18	3854
2026-01-02 08:35:54.39	72.58	21.25	-28.7	-29.3	15.2	0.00e+00	0	43	0	373293056	18	3841
2026-01-02 08:35:55.40	72.35	21.31	-28.7	-29.3	15.2	0.00e+00	0	43	0	375390208	18	3838
2026-01-02 08:35:56.40	72.11	21.37	-28.8	-29.5	15.0	0.00e+00	0	43	0	377487360	18	3905
2026-01-02 08:35:57.41	71.87	21.43	-28.6	-29.0	15.3	7.00e-07	0	43	0	379584512	18	3759
2026-01-02 08:35:58.40	71.64	21.49	-28.7	-29.3	15.2	0.00e+00	0	43	0	380633088	18	3843
2026-01-02 08:35:59.41	71.40	21.55	-28.8	-29.6	15.0	0.00e+00	0	43	0	382730240	18	3932
2026-01-02 08:36:00.41	71.16	21.61	-28.8	-29.4	15.1	0.00e+00	0	43	0	384827392	18	3872
2026-01-02 08:36:01.42	70.92	21.67	-28.8	-29.4	15.1	0.00e+00	0	43	0	386924544	18	3875
2026-01-02 08:36:02.42	70.68	21.73	-28.8	-29.5	15.1	7.00e-07	0	43	0	389021696	18	3884
2026-01-02 08:36:03.42	70.44	21.79	-28.8	-29.5	15.1	0.00e+00	0	43	0	390070272	18	3892
2026-01-02 08:36:04.43	70.20	21.85	-28.7	-29.4	15.2	7.00e-07	0	43	0	392167424	18	3866
2026-01-02 08:36:05.43	69.95	21.90	-28.7	-29.2	15.2	0.00e+00	0	43	0	394264576	18	3823
2026-01-02 08:36:06.43	69.71	21.96	-28.5	-28.9	15.4	0.00e+00	0	43	0	396361728	18	3741
2026-01-02 08:36:07.43	69.46	22.02	-28.7	-29.2	15.3	0.00e+00	0	43	0	398458880	18	3818
2026-01-02 08:36:08.42	69.22	22.07	-28.8	-29.5	15.0	0.00e+00	0	43	0	399507456	18	3906
2026-01-02 08:36:09.43	68.97	22.13	-28.7	-29.3	15.2	0.00e+00	0	43	0	401604608	18	3839
2026-01-02 08:36:10.43	68.73	22.19	-28.6	-29.1	15.3	0.00e+00	0	43	0	403701760	18	3782
2026-01-02 08:36:11.43	68.48	22.24	-28.8	-29.5	15.1	0.00e+00	0	43	0	405798912	18	3883
2026-01-02 08:36:12.43	68.23	22.29	-28.7	-29.3	15.2	0.00e+00	0	43	0	407896064	18	3842
2026-01-02 08:36:13.43	67.98	22.35	-28.7	-29.3	15.2	0.00e+00	0	43	0	408944640	18	3844
2026-01-02 08:36:14.44	67.72	22.40	-28.9	-29.7	14.9	0.00e+00	0	43	0	411041792	18	3960
2026-01-02 08:36:15.44	67.47	22.46	-28.9	-29.8	14.9	0.00e+00	0	43	0	413138944	18	3978
2026-01-02 08:36:16.44	67.22	22.51	-28.9	-29.8	14.9	7.00e-07	0	43	0	415236096	18	3969
2026-01-02 08:36:17.45	66.96	22.56	-28.8	-29.5	15.1	0.00e+00	0	43	0	417333248	18	3890
2026-01-02 08:36:18.45	66.71	22.61	-28.9	-29.7	15.0	0.00e+00	0	43	0	418381824	18	3956
2026-01-02 08:36:19.46	66.45	22.66	-28.8	-29.4	15.2	0.00e+00	0	43	0	420478976	18	3868
2026-01-02 08:36:20.46	66.20	22.71	-29.0	-30.0	14.8	0.00e+00	0	43	0	422576128	18	4023
2026-01-02 08:36:21.46	65.94	22.76	-28.8	-29.5	15.0	0.00e+00	0	43	0	424673280	18	3887
2026-01-02 08:36:22.46	65.68	22.81	-28.7	-29.3	15.2	0.00e+00	0	43	0	425721856	18	3846
2026-01-02 08:36:23.46	65.42	22.86	-28.7	-29.2	15.3	0.00e+00	0	43	0	427819008	18	3812
2026-01-02 08:36:24.46	65.16	22.91	-28.8	-29.5	15.1	0.00e+00	0	43	0	429916160	18	3891
2026-01-02 08:36:25.46	64.90	22.96	-28.8	-29.6	15.1	7.00e-07	0	43	0	432013312	18	3913
2026-01-02 08:36:26.45	64.65	23.01	-28.6	-28.9	15.4	0.00e+00	0	43	0	434110464	18	3747
2026-01-02 08:36:27.45	64.39	23.05	-28.5	-28.7	15.6	0.00e+00	0	43	0	435159040	18	3693
2026-01-02 08:36:28.45	64.12	23.10	-28.6	-29.0	15.5	0.00e+00	0	43	0	437256192	18	3763
2026-01-02 08:36:29.45	63.86	23.15	-28.8	-29.4	15.2	7.00e-07	0	43	0	439353344	18	3866
2026-01-02 08:36:30.45	63.60	23.19	-28.5	-28.7	15.6	0.00e+00	0	43	0	441450496	18	3679
2026-01-02 08:36:31.44	63.33	23.23	-28.4	-28.5	15.7	0.00e+00	0	43	0	443547648	18	3629
2026-01-02 08:36:32.45	63.07	23.28	-28.4	-28.5	15.7	0.00e+00	0	43	0	444596224	18	3642
2026-01-02 08:36:33.45	62.80	23.32	-28.3	-28.8	15.8	7.00e-07	0	43	0	446693376	17	3789
2026-01-02 08:36:34.45	62.53	23.36	-28.5	-29.2	15.6	0.00e+00	0	43	0	448790528	17	3910
2026-01-02 08:36:35.46	62.26	23.41	-28.5	-29.3	15.5	0.00e+00	0	43	0	450887680	17	3924
2026-01-02 08:36:36.47	61.99	23.45	-28.8	-29.9	15.2	0.00e+00	0	43	0	452984832	17	4091
2026-01-02 08:36:37.47	61.72	23.49	-29.0	-29.9	14.9	0.00e+00	0	43	0	454033408	18	3996
2026-01-02 08:36:38.47	61.45	23.53	-29.1	-30.2	14.7	1.50e-06	0	43	0	456130560	18	4084
2026-01-02 08:36:39.47	61.18	23.57	-29.3	-30.7	14.4	3.00e-06	0	43	0	458227712	18	4224
2026-01-02 08:36:40.48	60.91	23.61	-29.6	-31.1	13.8	3.80e-06	0	43	0	460324864	19	4257
2026-01-02 08:36:41.48	60.64	23.65	-29.8	-31.6	13.5	9.10e-06	0	43	0	461373440	19	4427
2026-01-02 08:36:42.48	60.36	23.69	-30.0	-31.6	13.1	2.59e-05	0	43	0	463470592	20	4348
2026-01-02 08:36:43.48	60.09	23.72	-30.2	-32.1	12.8	4.65e-05	0	43	0	465567744	20	4508
2026-01-02 08:36:44.48	59.82	23.76	-30.2	-32.2	12.7	9.99e-05	0	43	0	467664896	20	4537
2026-01-02 08:36:45.49	59.54	23.80	-30.1	-31.8	12.9	6.71e-05	0	43	0	469762048	20	4394
2026-01-02 08:36:46.49	59.26	23.83	-29.7	-31.0	13.5	3.81e-05	0	43	0	470810624	20	4139
2026-01-02 08:36:47.50	58.99	23.87	-29.6	-30.6	13.7	1.75e-05	0	43	0	472907776	20	4021
2026-01-02 08:36:48.50	58.71	23.90	-29.6	-30.7	13.7	8.30e-06	0	43	0	475004928	20	4056
2026-01-02 08:36:49.51	58.43	23.93	-29.6	-30.7	13.6	1.06e-05	0	43	0	477102080	20	4074
2026-01-02 08:36:50.51	58.15	23.97	-29.8	-31.0	13.4	9.90e-06	0	43	0	479199232	20	4163
2026-01-02 08:36:51.51	57.87	24.00	-29.6	-30.7	13.7	1.06e-05	0	43	0	480247808	20	4057
2026-01-02 08:36:52.51	57.60	24.03	-29.4	-30.1	14.1	3.00e-06	0	43	0	482344960	20	3891
2026-01-02 08:36:53.51	57.32	24.06	-29.3	-29.9	14.2	3.00e-06	0	43	0	484442112	20	3840
2026-01-02 08:36:54.52	57.03	24.09	-29.3	-29.8	14.2	0.00e+00	0	43	0	486539264	20	3802
2026-01-02 08:36:55.52	56.75	24.12	-29.5	-30.8	14.0	0.00e+00	0	43	0	488636416	19	4172
2026-01-02 08:36:56.53	56.47	24.15	-29.6	-30.9	13.9	1.50e-06	0	43	0	489684992	19	4217
2026-01-02 08:36:57.54	56.19	24.17	-29.6	-31.1	13.8	7.00e-07	0	43	0	491782144	19	4273
2026-01-02 08:36:58.53	55.91	24.20	-29.6	-31.1	13.8	7.60e-06	0	43	0	493879296	19	4266
2026-01-02 08:36:59.53	55.63	24.23	-29.7	-31.3	13.7	5.30e-06	0	43	0	495976448	19	4336
2026-01-02 08:37:00.53	55.34	24.25	-29.8	-31.5	13.5	9.10e-06	0	43	0	498073600	19	4410
2026-01-02 08:37:01.54	55.06	24.28	-29.9	-31.8	13.4	8.30e-06	0	43	0	499122176	19	4510
2026-01-02 08:37:02.54	54.77	24.30	-29.9	-31.7	13.4	1.14e-05	0	43	0	501219328	19	4472
2026-01-02 08:37:03.54	54.49	24.32	-29.9	-31.9	13.2	1.29e-05	0	43	0	503316480	19	4539
2026-01-02 08:37:04.54	54.21	24.34	-29.9	-31.4	13.2	2.74e-05	0	43	0	505413632	20	4280
2026-01-02 08:37:05.54	53.92	24.37	-30.1	-31.9	12.9	3.96e-05	0	43	0	507510784	20	4444
2026-01-02 08:37:06.54	53.64	24.39	-30.2	-32.3	12.6	6.40e-05	0	43	0	508559360	20	4585
2026-01-02 08:37:07.55	53.35	24.41	-30.1	-32.1	12.7	9.07e-05	0	43	0	510656512	20	4522
2026-01-02 08:37:08.56	53.06	24.43	-30.1	-32.2	12.7	6.33e-05	0	43	0	512753664	20	4542
2026-01-02 08:37:09.57	52.77	24.45	-30.0	-31.8	13.0	4.57e-05	0	43	0	514850816	20	4409
2026-01-02 08:37:10.57	52.48	24.46	-30.0	-31.7	13.1	3.96e-05	0	43	0	515899392	20	4367
2026-01-02 08:37:11.57	52.20	24.48	-30.1	-32.0	12.8	4.65e-05	0	43	0	517996544	20	4452
2026-01-02 08:37:12.58	51.91	24.50	-30.2	-32.3	12.6	6.17e-05	0	43	0	520093696	20	4580
2026-01-02 08:37:13.58	51.62	24.51	-30.0	-31.8	13.0	4.50e-05	0	43	0	522190848	20	4390
2026-01-02 08:37:14.58	51.33	24.53	-30.0	-31.7	13.0	4.73e-05	0	43	0	524288000	20	4380
2026-01-02 08:37:15.58	51.04	24.54	-30.2	-32.4	12.6	6.63e-05	0	44	0	525336576	20	4610
2026-01-02 08:37:16.58	50.76	24.55	-30.3	-32.7	12.4	1.60e-04	0	43	0	527433728	20	4724
2026-01-02 08:37:17.58	50.47	24.57	-30.5	-32.5	12.1	2.49e-04	0	43	0	529530880	21	4572
2026-01-02 08:37:18.58	50.18	24.58	-30.2	-31.7	12.6	7.85e-05	0	43	0	531628032	21	4291
2026-01-02 08:37:19.59	49.89	24.59	-29.9	-30.9	13.2	4.65e-05	0	43	0	533725184	21	4024
2026-01-02 08:37:20.59	49.60	24.60	-29.8	-31.0	13.5	2.51e-05	0	43	0	534773760	20	4149
2026-01-02 08:37:21.60	49.31	24.61	-29.6	-30.6	13.8	3.80e-06	0	43	0	536870912	20	4026
2026-01-02 08:37:22.60	49.02	24.62	-29.5	-30.4	13.9	7.00e-07	0	43	0	538968064	20	3970
2026-01-02 08:37:23.60	48.73	24.62	-29.3	-29.9	14.2	5.30e-06	0	43	0	541065216	20	3831
2026-01-02 08:37:24.61	48.44	24.63	-29.3	-30.3	14.3	1.50e-06	0	43	0	543162368	19	4046
2026-01-02 08:37:25.61	48.15	24.64	-29.3	-30.3	14.3	7.00e-07	0	43	0	544210944	19	4042
2026-01-02 08:37:26.62	47.85	24.64	-29.6	-31.0	13.8	3.80e-06	0	43	0	546308096	19	4242
2026-01-02 08:37:27.63	47.56	24.65	-29.8	-31.6	13.5	1.22e-05	0	43	0	548405248	19	4440
2026-01-02 08:37:28.62	47.27	24.65	-30.0	-31.9	12.8	4.11e-05	0	44	0	550502400	20	4444
2026-01-02 08:37:29.62	46.98	24.65	-30.1	-32.0	12.7	4.88e-05	0	43	0	552599552	20	4489
2026-01-02 08:37:30.61	46.70	24.65	-30.1	-31.9	12.8	4.57e-05	0	43	0	553648128	20	4465
2026-01-02 08:37:31.61	46.41	24.66	-29.9	-31.5	13.1	3.96e-05	0	43	0	555745280	20	4331
2026-01-02 08:37:32.62	46.11	24.66	-29.9	-31.5	13.1	2.59e-05	0	43	0	557842432	20	4314
2026-01-02 08:37:33.62	45.82	24.66	-30.0	-31.6	13.1	4.04e-05	0	43	0	559939584	20	4356
2026-01-02 08:37:34.63	45.53	24.65	-29.8	-31.2	13.3	2.05e-05	0	43	0	560988160	20	4236
2026-01-02 08:37:35.63	45.24	24.65	-29.7	-30.9	13.5	1.60e-05	0	43	0	563085312	20	4145
2026-01-02 08:37:36.63	44.95	24.65	-29.5	-30.5	13.8	5.30e-06	0	43	0	565182464	20	4012
2026-01-02 08:37:37.63	44.66	24.65	-29.5	-30.2	13.9	4.50e-06	0	43	0	567279616	20	3923
2026-01-02 08:37:38.64	44.37	24.64	-29.6	-30.5	13.8	6.10e-06	0	43	0	569376768	20	4013
2026-01-02 08:37:39.64	44.08	24.64	-29.4	-30.2	13.9	6.10e-06	0	43	0	571473920	20	3916
2026-01-02 08:37:40.64	43.79	24.63	-29.4	-30.0	13.9	3.00e-06	0	43	0	572522496	20	3875
2026-01-02 08:37:41.65	43.50	24.62	-29.6	-30.5	13.8	6.10e-06	0	43	0	574619648	20	4015
2026-01-02 08:37:42.66	43.20	24.62	-29.5	-30.4	13.9	5.30e-06	0	43	0	576716800	20	3960
2026-01-02 08:37:43.66	42.91	24.61	-29.4	-30.0	14.2	0.00e+00	0	43	0	578813952	20	3856
2026-01-02 08:37:44.66	42.63	24.60	-29.4	-30.4	14.3	7.00e-07	0	43	0	579862528	19	4039
2026-01-02 08:37:45.66	42.34	24.59	-29.6	-30.9	13.9	3.00e-06	0	43	0	581959680	19	4194
2026-01-02 08:37:46.66	42.05	24.58	-29.8	-31.5	13.6	3.00e-06	0	43	0	584056832	19	4362
2026-01-02 08:37:47.67	41.76	24.57	-29.7	-31.2	13.7	1.14e-05	0	43	0	586153984	19	4297
2026-01-02 08:37:48.67	41.47	24.55	-29.3	-30.2	14.4	1.50e-06	0	43	0	588251136	19	3987
2026-01-02 08:37:49.67	41.18	24.54	-28.8	-28.9	15.2	0.00e+00	0	43	0	589299712	19	3644
2026-01-02 08:37:50.67	40.89	24.53	-28.5	-28.7	15.6	0.00e+00	0	43	0	591396864	18	3682
2026-01-02 08:37:51.68	40.60	24.51	-28.6	-28.8	15.5	0.00e+00	0	43	0	593494016	18	3698
2026-01-02 08:37:52.68	40.32	24.50	-28.6	-29.0	15.4	0.00e+00	0	44	0	595591168	18	3755
2026-01-02 08:37:53.69	40.03	24.48	-28.8	-29.4	15.2	7.00e-07	0	43	0	597688320	18	3850
2026-01-02 08:37:54.69	39.74	24.46	-28.4	-28.5	15.7	0.00e+00	0	43	0	598736896	18	3616
2026-01-02 08:37:55.69	39.45	24.44	-28.1	-28.2	16.1	0.00e+00	0	43	0	600834048	17	3647
2026-01-02 08:37:56.69	39.17	24.43	-27.9	-27.7	16.4	0.00e+00	0	43	0	602931200	17	3516
2026-01-02 08:37:57.70	38.88	24.41	-27.8	-28.1	16.5	0.00e+00	0	43	0	605028352	16	3702
2026-01-02 08:37:58.70	38.59	24.39	-28.0	-28.4	16.3	0.00e+00	0	43	0	607125504	16	3797
2026-01-02 08:37:59.71	38.31	24.37	-28.2	-29.0	16.0	0.00e+00	0	43	0	608174080	16	3947
2026-01-02 08:38:00.71	38.02	24.34	-28.2	-28.9	16.0	0.00e+00	0	43	0	610271232	16	3910
2026-01-02 08:38:01.71	37.74	24.32	-28.3	-29.1	15.9	0.00e+00	0	43	0	612368384	16	3966
2026-01-02 08:38:02.71	37.45	24.30	-28.3	-29.3	15.8	0.00e+00	0	43	0	614465536	16	4012
2026-01-02 08:38:03.72	37.17	24.27	-28.4	-29.4	15.7	0.00e+00	0	43	0	616562688	16	4040
2026-01-02 08:38:04.72	36.89	24.25	-28.5	-29.6	15.6	0.00e+00	0	43	0	617611264	16	4092
2026-01-02 08:38:05.72	36.60	24.22	-28.5	-29.2	15.5	0.00e+00	0	43	0	619708416	17	3891
2026-01-02 08:38:06.72	36.32	24.20	-28.5	-29.3	15.5	0.00e+00	0	43	0	621805568	17	3924
2026-01-02 08:38:07.73	36.04	24.17	-28.6	-29.4	15.3	0.00e+00	0	43	0	623902720	17	3959
2026-01-02 08:38:08.73	35.76	24.14	-28.6	-29.4	15.4	0.00e+00	0	43	0	624951296	17	3954
2026-01-02 08:38:09.74	35.47	24.12	-28.8	-29.8	15.2	0.00e+00	0	43	0	627048448	17	4046
2026-01-02 08:38:10.74	35.19	24.09	-28.7	-29.6	15.3	0.00e+00	0	43	0	629145600	17	4008
2026-01-02 08:38:11.74	34.91	24.06	-28.8	-29.8	15.2	0.00e+00	0	44	0	631242752	17	4055
2026-01-02 08:38:12.75	34.63	24.03	-28.8	-29.8	15.2	0.00e+00	0	43	0	633339904	17	4066
2026-01-02 08:38:13.75	34.35	24.00	-29.1	-30.2	14.6	0.00e+00	0	43	0	635437056	18	4085
2026-01-02 08:38:14.76	34.07	23.96	-29.1	-30.3	14.7	7.00e-07	0	43	0	636485632	18	4101
2026-01-02 08:38:15.76	33.80	23.93	-29.4	-31.1	14.1	7.00e-07	0	43	0	638582784	18	4341
2026-01-02 08:38:16.77	33.52	23.90	-29.4	-30.3	14.3	3.00e-06	0	43	0	640679936	19	4029
2026-01-02 08:38:17.77	33.24	23.86	-29.3	-30.0	14.5	1.50e-06	0	44	0	642777088	19	3946
2026-01-02 08:38:18.77	32.97	23.83	-29.3	-30.2	14.4	0.00e+00	0	43	0	643825664	19	3973
2026-01-02 08:38:19.77	32.69	23.79	-29.2	-29.9	14.6	0.00e+00	0	44	0	645922816	19	3889
2026-01-02 08:38:20.78	32.42	23.76	-29.4	-30.3	14.3	2.20e-06	0	43	0	648019968	19	4016
2026-01-02 08:38:21.79	32.14	23.72	-29.4	-30.5	14.2	3.00e-06	0	43	0	650117120	19	4070
2026-01-02 08:38:22.79	31.87	23.68	-29.5	-30.8	14.0	1.50e-06	0	43	0	652214272	19	4158
2026-01-02 08:38:23.79	31.60	23.65	-29.8	-31.4	13.6	4.50e-06	0	43	0	653262848	19	4354
2026-01-02 08:38:24.80	31.32	23.61	-29.8	-31.5	13.6	9.10e-06	0	44	0	655360000	19	4384
2026-01-02 08:38:25.81	31.05	23.57	-29.8	-31.4	13.6	1.06e-05	0	43	0	657457152	19	4344
2026-01-02 08:38:26.80	30.78	23.53	-29.7	-31.2	13.7	4.50e-06	0	43	0	659554304	19	4273
2026-01-02 08:38:27.80	30.51	23.49	-29.6	-30.9	13.9	6.80e-06	0	44	0	661651456	19	4197
2026-01-02 08:38:28.81	30.24	23.45	-29.8	-31.6	13.4	1.14e-05	0	43	0	662700032	19	4430
2026-01-02 08:38:29.81	29.97	23.41	-29.8	-31.6	13.4	1.14e-05	0	43	0	664797184	19	4427
2026-01-02 08:38:30.82	29.70	23.36	-30.0	-31.5	13.0	2.74e-05	0	43	0	666894336	20	4314
2026-01-02 08:38:31.82	29.44	23.32	-30.1	-32.0	12.8	3.89e-05	0	43	0	668991488	20	4459
2026-01-02 08:38:32.82	29.17	23.28	-30.0	-31.7	12.9	1.01e-04	0	43	0	671088640	20	4380
2026-01-02 08:38:33.82	28.91	23.23	-29.8	-31.2	13.2	2.89e-05	0	43	0	672137216	20	4229
2026-01-02 08:38:34.83	28.64	23.19	-29.7	-30.8	13.5	3.20e-05	0	43	0	674234368	20	4089
2026-01-02 08:38:35.83	28.38	23.14	-29.6	-30.5	13.6	9.10e-06	0	43	0	676331520	20	4017
2026-01-02 08:38:36.84	28.11	23.10	-29.7	-31.0	13.4	1.22e-05	0	43	0	678428672	20	4144
2026-01-02 08:38:37.84	27.85	23.05	-29.7	-30.8	13.5	1.83e-05	0	43	0	680525824	20	4087
2026-01-02 08:38:38.84	27.59	23.01	-29.7	-30.8	13.5	1.22e-05	0	43	0	681574400	20	4093
2026-01-02 08:38:39.84	27.33	22.96	-29.8	-31.1	13.3	1.22e-05	0	43	0	683671552	20	4189
2026-01-02 08:38:40.85	27.07	22.91	-29.9	-31.4	13.1	3.81e-05	0	44	0	685768704	20	4280
2026-01-02 08:38:41.85	26.81	22.86	-30.1	-31.9	12.7	6.79e-05	0	43	0	687865856	20	4462
2026-01-02 08:38:42.85	26.55	22.81	-29.9	-31.6	12.9	7.62e-05	0	43	0	689963008	20	4352
2026-01-02 08:38:43.85	26.29	22.76	-30.0	-31.7	12.9	5.56e-05	0	43	0	691011584	20	4387
2026-01-02 08:38:44.85	26.04	22.71	-29.8	-31.2	13.2	3.89e-05	0	43	0	693108736	20	4220
2026-01-02 08:38:45.86	25.78	22.66	-29.6	-30.7	13.5	1.44e-05	0	43	0	695205888	20	4070
2026-01-02 08:38:46.86	25.53	22.61	-29.5	-30.4	13.7	6.10e-06	0	43	0	697303040	20	3992
2026-01-02 08:38:47.86	25.27	22.56	-29.7	-31.0	13.3	8.30e-06	0	43	0	698351616	20	4172
2026-01-02 08:38:48.87	25.02	22.51	-29.6	-30.6	13.6	1.22e-05	0	43	0	700448768	20	4066
2026-01-02 08:38:49.87	24.77	22.45	-29.6	-30.7	13.5	8.30e-06	0	44	0	702545920	20	4080
2026-01-02 08:38:50.88	24.51	22.40	-29.6	-30.7	13.5	1.98e-05	0	43	0	704643072	20	4085
2026-01-02 08:38:51.88	24.26	22.35	-30.0	-31.9	12.7	2.51e-05	0	43	0	706740224	20	4442
2026-01-02 08:38:52.89	24.01	22.29	-30.2	-32.4	12.4	8.23e-05	0	43	0	708837376	20	4612
2026-01-02 08:38:53.90	23.76	22.24	-30.3	-32.6	12.2	1.56e-04	0	44	0	709885952	20	4710
2026-01-02 08:38:54.89	23.51	22.18	-30.2	-32.3	12.4	1.98e-04	0	43	0	711983104	20	4609
2026-01-02 08:38:55.89	23.27	22.13	-29.9	-31.6	12.9	9.00e-05	0	43	0	714080256	20	4346
2026-01-02 08:38:56.89	23.02	22.07	-29.8	-31.2	13.1	3.12e-05	0	43	0	716177408	20	4238
2026-01-02 08:38:57.90	22.77	22.02	-29.8	-31.1	13.2	2.74e-05	0	43	0	717225984	20	4212
2026-01-02 08:38:58.89	22.53	21.96	-30.1	-32.1	12.6	3.50e-05	0	43	0	719323136	20	4502
2026-01-02 08:38:59.89	22.29	21.90	-29.9	-31.6	13.0	2.97e-05	0	43	0	721420288	20	4349
2026-01-02 08:39:00.89	22.05	21.85	-29.9	-31.6	12.9	3.58e-05	0	43	0	723517440	20	4372
2026-01-02 08:39:01.89	21.81	21.79	-30.2	-32.5	12.2	8.77e-05	0	43	0	725614592	20	4653
2026-01-02 08:39:02.89	21.57	21.73	-30.5	-32.9	11.6	3.13e-04	0	43	0	726663168	21	4728
2026-01-02 08:39:03.90	21.33	21.67	-30.5	-32.7	11.8	8.47e-04	0	43	0	728760320	21	4646
2026-01-02 08:39:04.90	21.09	21.61	-30.8	-33.6	11.0	1.16e-03	0	43	0	730857472	21	5002
2026-01-02 08:39:05.90	20.85	21.55	-30.4	-32.4	11.9	9.92e-04	0	43	0	732954624	21	4561
2026-01-02 08:39:06.91	20.61	21.49	-30.1	-31.7	12.4	1.26e-04	0	43	0	735051776	21	4320
2026-01-02 08:39:07.92	20.37	21.43	-29.7	-31.0	13.3	3.50e-05	0	43	0	736100352	20	4162
2026-01-02 08:39:08.92	20.14	21.37	-29.6	-30.7	13.5	1.60e-05	0	43	0	738197504	20	4082
2026-01-02 08:39:09.92	19.90	21.31	-29.7	-31.0	13.3	1.90e-05	0	43	0	740294656	20	4155
2026-01-02 08:39:10.92	19.67	21.25	-29.5	-30.4	13.7	6.10e-06	0	43	0	742391808	20	3990
2026-01-02 08:39:11.92	19.44	21.19	-29.7	-30.9	13.4	5.30e-06	0	44	0	743440384	20	4125
2026-01-02 08:39:12.92	19.21	21.12	-29.8	-31.1	13.2	2.67e-05	0	43	0	745537536	20	4182
2026-01-02 08:39:13.92	18.98	21.06	-30.0	-31.7	12.8	6.17e-05	0	43	0	747634688	20	4393
2026-01-02 08:39:14.93	18.75	21.00	-29.9	-31.5	12.9	7.78e-05	0	43	0	749731840	20	4330
2026-01-02 08:39:15.93	18.52	20.94	-29.7	-31.0	13.2	2.97e-05	0	43	0	751828992	20	4179
2026-01-02 08:39:16.94	18.29	20.87	-29.5	-30.4	13.6	7.60e-06	0	43	0	753926144	20	3989
2026-01-02 08:39:17.94	18.06	20.81	-28.8	-29.6	14.0	2.20e-06	0	44	0	754974720	19	3978
2026-01-02 08:39:18.95	17.84	20.74	-29.1	-29.9	14.3	1.50e-06	0	43	0	757071872	19	3916
2026-01-02 08:39:19.96	17.61	20.68	-29.1	-29.8	14.3	7.00e-07	0	43	0	759169024	19	3902
2026-01-02 08:39:20.96	17.39	20.61	-29.1	-29.7	14.4	7.00e-07	0	43	0	761266176	19	3872
2026-01-02 08:39:21.96	17.17	20.55	-29.1	-29.7	14.5	1.50e-06	0	43	0	762314752	19	3873
2026-01-02 08:39:22.96	16.94	20.48	-29.2	-30.1	14.2	7.00e-07	0	43	0	764411904	19	3970
2026-01-02 08:39:23.97	16.72	20.42	-29.0	-29.4	14.6	7.00e-07	0	43	0	766509056	19	3793
2026-01-02 08:39:24.97	16.50	20.35	-28.9	-29.2	14.8	0.00e+00	0	43	0	768606208	19	3751
2026-01-02 08:39:25.97	16.28	20.29	-28.8	-29.6	14.7	0.00e+00	0	43	0	770703360	18	3940
2026-01-02 08:39:26.97	16.07	20.22	-29.2	-30.5	14.2	0.00e+00	0	43	0	771751936	18	4203
2026-01-02 08:39:27.97	15.85	20.15	-29.3	-30.9	14.0	3.00e-06	0	44	0	773849088	18	4327
2026-01-02 08:39:28.97	15.63	20.09	-29.6	-31.2	13.5	9.90e-06	0	43	0	775946240	19	4331
2026-01-02 08:39:29.97	15.42	20.02	-29.6	-31.1	13.5	9.10e-06	0	43	0	778043392	19	4297
2026-01-02 08:39:30.96	15.21	19.95	-29.8	-31.5	13.2	1.98e-05	0	43	0	780140544	19	4427
2026-01-02 08:39:31.97	14.99	19.89	-29.7	-31.4	13.3	2.13e-05	0	43	0	781189120	19	4389
2026-01-02 08:39:32.97	14.78	19.82	-29.6	-31.3	13.4	1.14e-05	0	44	0	783286272	19	4347
2026-01-02 08:39:33.97	14.57	19.75	-29.6	-31.2	13.4	2.51e-05	0	43	0	785383424	19	4336
2026-01-02 08:39:34.97	14.36	19.68	-29.6	-31.3	13.4	1.98e-05	0	43	0	787480576	19	4352
2026-01-02 08:39:35.98	14.15	19.61	-29.8	-31.7	13.1	1.67e-05	0	43	0	788529152	19	4482
2026-01-02 08:39:36.98	13.94	19.54	-29.5	-31.0	13.5	1.29e-05	0	43	0	790626304	19	4262
2026-01-02 08:39:37.99	13.73	19.47	-29.4	-30.6	13.8	6.10e-06	0	43	0	792723456	19	4131
2026-01-02 08:39:38.99	13.53	19.41	-29.3	-30.3	14.0	2.20e-06	0	43	0	794820608	19	4061
2026-01-02 08:39:39.99	13.32	19.34	-29.1	-29.9	14.2	2.20e-06	0	43	0	796917760	19	3930
2026-01-02 08:39:41.00	13.11	19.27	-29.0	-29.7	14.3	7.00e-07	0	43	0	799014912	19	3891
2026-01-02 08:39:42.00	12.91	19.20	-29.0	-29.7	14.4	2.20e-06	0	43	0	800063488	19	3878
2026-01-02 08:39:43.00	12.71	19.13	-29.0	-29.5	14.5	0.00e+00	0	43	0	802160640	19	3837
2026-01-02 08:39:44.00	12.51	19.06	-29.3	-30.2	14.0	1.50e-06	0	43	0	804257792	19	4029
2026-01-02 08:39:45.00	12.31	18.99	-29.2	-30.1	14.1	2.20e-06	0	43	0	806354944	19	3981
2026-01-02 08:39:46.00	12.11	18.92	-29.3	-30.5	13.9	0.00e+00	0	43	0	807403520	19	4100
2026-01-02 08:39:47.01	11.91	18.85	-29.6	-31.1	13.5	5.30e-06	0	43	0	809500672	19	4294
2026-01-02 08:39:48.01	11.71	18.78	-29.6	-31.1	13.5	1.37e-05	0	43	0	811597824	19	4289
2026-01-02 08:39:49.01	11.51	18.70	-29.7	-31.5	13.3	1.90e-05	0	43	0	813694976	19	4411
2026-01-02 08:39:50.01	11.32	18.63	-29.4	-30.7	13.7	1.06e-05	0	43	0	815792128	19	4163
2026-01-02 08:39:51.01	11.12	18.56	-29.1	-30.0	14.2	3.80e-06	0	43	0	816840704	19	3960
2026-01-02 08:39:52.01	10.93	18.49	-29.1	-29.9	14.2	7.00e-07	0	43	0	818937856	19	3944
2026-01-02 08:39:53.02	10.73	18.42	-29.4	-30.5	13.8	3.00e-06	0	43	0	821035008	19	4121
2026-01-02 08:39:54.02	10.54	18.35	-29.4	-30.7	13.7	6.10e-06	0	43	0	823132160	19	4169
2026-01-02 08:39:55.03	10.35	18.28	-29.6	-31.1	13.5	1.06e-05	0	44	0	825229312	19	4307
2026-01-02 08:39:56.03	10.16	18.20	-29.5	-31.0	13.5	1.22e-05	0	43	0	826277888	19	4254
2026-01-02 08:39:57.04	9.97	18.13	-29.4	-30.7	13.8	6.10e-06	0	43	0	828375040	19	4175
2026-01-02 08:39:58.05	9.78	18.06	-29.4	-30.5	13.9	7.60e-06	0	44	0	830472192	19	4105
2026-01-02 08:39:59.05	9.59	17.99	-29.4	-30.6	13.8	6.80e-06	0	43	0	832569344	19	4128
2026-01-02 08:40:00.05	9.40	17.92	-29.2	-30.0	14.2	0.00e+00	0	43	0	834666496	19	3968
2026-01-02 08:40:01.05	9.22	17.84	-29.0	-29.6	14.4	7.00e-07	0	43	0	835715072	19	3843
2026-01-02 08:40:02.06	9.03	17.77	-29.0	-29.5	14.5	0.00e+00	0	43	0	837812224	19	3836
2026-01-02 08:40:03.07	8.84	17.70	-29.0	-29.5	14.5	0.00e+00	0	43	0	839909376	19	3836
2026-01-02 08:40:04.07	8.66	17.62	-29.0	-29.5	14.5	3.00e-06	0	43	0	842006528	19	3818
2026-01-02 08:40:05.06	8.48	17.55	-29.0	-29.7	14.3	7.00e-07	0	43	0	844103680	19	3869
2026-01-02 08:40:06.06	8.30	17.48	-28.9	-29.3	14.6	0.00e+00	0	43	0	845152256	19	3761
2026-01-02 08:40:07.07	8.12	17.41	-29.0	-29.5	14.5	7.00e-07	0	43	0	847249408	19	3823
2026-01-02 08:40:08.07	7.94	17.33	-29.1	-29.8	14.3	0.00e+00	0	43	0	849346560	19	3910
2026-01-02 08:40:09.07	7.76	17.26	-29.4	-30.5	13.8	1.50e-06	0	44	0	851443712	19	4109
2026-01-02 08:40:10.07	7.58	17.19	-29.4	-30.5	13.8	2.20e-06	0	43	0	852492288	19	4116
2026-01-02 08:40:11.07	7.40	17.11	-29.5	-30.7	13.7	1.50e-06	0	43	0	854589440	19	4180
2026-01-02 08:40:12.07	7.23	17.04	-29.3	-30.4	13.9	7.00e-07	0	43	0	856686592	19	4084
2026-01-02 08:40:13.08	7.05	16.97	-29.0	-29.6	14.4	0.00e+00	0	43	0	858783744	19	3845
2026-01-02 08:40:14.08	6.88	16.89	-28.7	-29.3	14.9	0.00e+00	0	43	0	860880896	18	3846
2026-01-02 08:40:15.08	6.70	16.82	-28.6	-29.1	15.1	0.00e+00	0	43	0	861929472	18	3790
2026-01-02 08:40:16.08	6.53	16.75	-28.7	-29.1	15.0	0.00e+00	0	43	0	864026624	18	3809
2026-01-02 08:40:17.08	6.36	16.67	-28.7	-29.2	15.0	0.00e+00	0	43	0	866123776	18	3836
2026-01-02 08:40:18.08	6.19	16.60	-28.8	-29.5	14.8	0.00e+00	0	43	0	868220928	18	3907
2026-01-02 08:40:19.09	6.02	16.53	-29.0	-30.1	14.5	7.00e-07	0	44	0	870318080	18	4064
2026-01-02 08:40:20.09	5.85	16.45	-29.0	-30.0	14.6	7.00e-07	0	43	0	871366656	18	4038
2026-01-02 08:40:21.08	5.68	16.38	-29.0	-30.0	14.5	7.00e-07	0	44	0	873463808	18	4056
2026-01-02 08:40:22.09	5.51	16.31	-29.0	-30.2	14.4	0.00e+00	0	43	0	875560960	18	4099
2026-01-02 08:40:23.09	5.35	16.23	-29.2	-30.6	14.2	7.00e-07	0	43	0	877658112	18	4209
2026-01-02 08:40:24.10	5.18	16.16	-29.2	-30.7	14.0	1.50e-06	0	44	0	879755264	18	4241
2026-01-02 08:40:25.10	5.01	16.09	-29.2	-30.7	14.1	7.00e-07	0	43	0	880803840	18	4243
2026-01-02 08:40:26.10	4.85	16.01	-29.1	-30.4	14.3	7.00e-07	0	44	0	882900992	18	4151
2026-01-02 08:40:27.11	4.69	15.94	-29.0	-30.1	14.3	7.00e-07	0	43	0	884998144	18	4077
2026-01-02 08:40:28.12	4.52	15.86	-29.0	-30.0	14.4	0.00e+00	0	43	0	887095296	18	4052
2026-01-02 08:40:29.12	4.36	15.79	-29.1	-30.2	14.4	0.00e+00	0	43	0	889192448	18	4099
2026-01-02 08:40:30.13	4.20	15.72	-28.7	-29.2	14.9	0.00e+00	0	43	0	890241024	18	3832
2026-01-02 08:40:31.13	4.04	15.64	-28.8	-29.7	14.6	0.00e+00	0	43	0	892338176	18	3954
2026-01-02 08:40:32.13	3.88	15.57	-28.8	-29.6	14.7	0.00e+00	0	43	0	894435328	18	3931
2026-01-02 08:40:33.13	3.72	15.49	-29.0	-30.0	14.5	0.00e+00	0	43	0	896532480	18	4040
2026-01-02 08:40:34.14	3.56	15.42	-29.4	-31.2	13.7	1.50e-06	0	43	0	898629632	18	4422
2026-01-02 08:40:35.13	3.41	15.35	-29.4	-31.2	13.7	6.10e-06	0	43	0	899678208	18	4405
2026-01-02 08:40:36.13	3.25	15.27	-29.9	-31.9	12.9	2.74e-05	0	43	0	901775360	19	4535
2026-01-02 08:40:37.13	3.10	15.20	-30.1	-32.1	12.3	1.10e-04	0	44	0	903872512	20	4526
2026-01-02 08:40:38.13	2.94	15.13	-29.8	-31.4	12.8	9.61e-05	0	43	0	905969664	20	4294
2026-01-02 08:40:39.13	2.79	15.05	-29.8	-31.4	12.8	5.41e-05	0	43	0	907018240	20	4296
2026-01-02 08:40:40.14	2.63	14.98	-29.7	-30.9	13.1	2.74e-05	0	43	0	909115392	20	4137
2026-01-02 08:40:41.14	2.48	14.90	-29.5	-30.3	13.5	1.37e-05	0	43	0	911212544	20	3977
2026-01-02 08:40:42.14	2.33	14.83	-29.4	-30.3	13.5	7.60e-06	0	43	0	913309696	20	3956
2026-01-02 08:40:43.14	2.18	14.76	-29.5	-30.5	13.4	1.83e-05	0	43	0	915406848	20	4025
2026-01-02 08:40:44.15	2.03	14.68	-29.4	-30.1	13.6	1.14e-05	0	44	0	916455424	20	3907
2026-01-02 08:40:45.15	1.88	14.61	-29.5	-30.4	13.4	1.14e-05	0	44	0	918552576	20	4013
2026-01-02 08:40:46.15	1.73	14.54	-29.3	-30.0	13.7	3.00e-06	0	44	0	920649728	20	3870
2026-01-02 08:40:47.15	1.58	14.46	-29.4	-30.5	13.7	4.50e-06	0	43	0	922746880	19	4120
2026-01-02 08:40:48.16	1.43	14.39	-29.3	-30.4	13.8	7.60e-06	0	43	0	924844032	19	4088
2026-01-02 08:40:49.16	1.29	14.32	-29.5	-30.9	13.5	1.29e-05	0	43	0	925892608	19	4213
2026-01-02 08:40:50.16	1.14	14.24	-29.5	-31.0	13.4	1.22e-05	0	43	0	927989760	19	4272
2026-01-02 08:40:51.16	1.00	14.17	-29.8	-31.8	12.9	1.44e-05	0	43	0	930086912	19	4505
2026-01-02 08:40:52.16	0.85	14.10	-29.8	-31.8	12.9	4.11e-05	0	43	0	932184064	19	4505
2026-01-02 08:40:53.16	0.71	14.02	-30.0	-31.9	12.4	1.42e-04	0	43	0	934281216	20	4465
2026-01-02 08:40:54.17	0.57	13.95	-30.0	-31.8	12.5	1.53e-04	0	43	0	935329792	20	4429
2026-01-02 08:40:55.17	0.43	13.87	-29.9	-31.5	12.7	8.08e-05	0	43	0	937426944	20	4331
2026-01-02 08:40:56.17	0.28	13.80	-29.9	-31.7	12.5	1.12e-04	0	43	0	939524096	20	4417
2026-01-02 08:40:57.17	0.14	13.73	-29.8	-31.3	12.7	8.69e-05	0	43	0	941621248	20	4298
2026-01-02 08:40:58.17	0.01	13.66	-29.5	-30.5	13.3	4.73e-05	0	44	0	942669824	20	4029
2026-01-02 08:40:59.17	359.87	13.58	-29.3	-30.5	13.7	1.37e-05	0	43	0	944766976	19	4107
2026-01-02 08:41:00.16	359.73	13.51	-29.2	-30.2	13.8	6.10e-06	0	44	0	946864128	19	4022
2026-01-02 08:41:01.17	359.59	13.44	-29.1	-29.8	14.1	7.00e-07	0	44	0	948961280	19	3913
2026-01-02 08:41:02.17	359.45	13.36	-29.0	-29.7	14.2	0.00e+00	0	43	0	951058432	19	3875
2026-01-02 08:41:03.17	359.32	13.29	-29.0	-29.7	14.2	3.00e-06	0	43	0	952107008	19	3887
2026-01-02 08:41:04.17	359.18	13.22	-28.8	-29.3	14.4	2.20e-06	0	43	0	954204160	19	3771
2026-01-02 08:41:05.17	359.05	13.15	-29.2	-30.1	13.9	2.20e-06	0	43	0	956301312	19	4003
2026-01-02 08:41:06.18	358.91	13.07	-29.1	-30.0	14.0	3.80e-06	0	43	0	958398464	19	3965
2026-01-02 08:41:07.18	358.78	13.00	-29.1	-30.0	14.0	7.00e-07	0	43	0	960495616	19	3968
2026-01-02 08:41:08.18	358.65	12.93	-29.2	-30.1	13.8	9.10e-06	0	43	0	961544192	19	4013
2026-01-02 08:41:09.19	358.51	12.85	-29.2	-30.2	13.8	5.30e-06	0	43	0	963641344	19	4045
2026-01-02 08:41:10.19	358.38	12.78	-29.2	-30.3	13.7	6.80e-06	0	43	0	965738496	19	4060
2026-01-02 08:41:11.19	358.25	12.71	-29.2	-30.1	13.8	3.80e-06	0	43	0	967835648	19	4007
2026-01-02 08:41:12.19	358.12	12.64	-29.2	-30.3	13.7	4.50e-06	0	43	0	969932800	19	4065
2026-01-02 08:41:13.20	357.99	12.56	-29.2	-30.2	13.8	4.50e-06	0	43	0	970981376	19	4031
2026-01-02 08:41:14.20	357.86	12.49	-29.2	-30.3	13.7	7.60e-06	0	43	0	973078528	19	4064
2026-01-02 08:41:15.20	357.73	12.42	-29.3	-30.5	13.6	1.06e-05	0	43	0	975175680	19	4119
2026-01-02 08:41:16.20	357.61	12.35	-29.4	-30.8	13.4	4.50e-06	0	44	0	977272832	19	4224
2026-01-02 08:41:17.20	357.48	12.28	-29.5	-31.0	13.3	1.52e-05	0	43	0	979369984	19	4288
2026-01-02 08:41:18.21	357.35	12.20	-29.6	-31.3	13.0	1.67e-05	0	43	0	980418560	19	4375
2026-01-02 08:41:19.21	357.23	12.13	-29.8	-31.8	12.7	6.56e-05	0	43	0	982515712	19	4551
2026-01-02 08:41:20.20	357.10	12.06	-29.6	-31.4	12.9	6.17e-05	0	43	0	984612864	19	4402
2026-01-02 08:41:21.21	356.98	11.99	-29.7	-31.4	12.9	5.41e-05	0	43	0	986710016	19	4425
2026-01-02 08:41:22.21	356.85	11.92	-29.7	-31.6	12.8	4.95e-05	0	43	0	987758592	19	4486
2026-01-02 08:41:23.22	356.73	11.85	-29.7	-31.5	12.8	4.11e-05	0	43	0	989855744	19	4456
2026-01-02 08:41:24.22	356.61	11.77	-29.8	-31.8	12.7	6.25e-05	0	43	0	991952896	19	4540
2026-01-02 08:41:25.22	356.49	11.70	-29.8	-31.9	12.6	7.70e-05	0	43	0	994050048	19	4591
2026-01-02 08:41:26.23	356.36	11.63	-29.9	-32.2	12.4	1.43e-04	0	43	0	996147200	19	4672
2026-01-02 08:41:27.23	356.24	11.56	-29.9	-32.2	12.3	1.32e-04	0	43	0	997195776	19	4693
2026-01-02 08:41:28.23	356.12	11.49	-30.0	-32.0	12.1	1.76e-04	0	43	0	999292928	20	4556
2026-01-02 08:41:29.24	356.00	11.42	-30.0	-32.1	12.0	3.00e-04	0	43	0	1001390080	20	4582
2026-01-02 08:41:30.24	355.88	11.35	-30.1	-32.3	11.9	3.62e-04	0	43	0	1003487232	20	4643
2026-01-02 08:41:31.25	355.76	11.28	-30.1	-32.3	11.8	5.44e-04	0	43	0	1005584384	20	4660
2026-01-02 08:41:32.26	355.65	11.20	-30.0	-32.2	12.0	3.46e-04	0	44	0	1006632960	20	4595
2026-01-02 08:41:33.26	355.53	11.13	-30.0	-31.9	12.2	3.67e-04	0	43	0	1008730112	20	4493
2026-01-02 08:41:34.27	355.41	11.06	-29.9	-31.7	12.3	1.63e-04	0	43	0	1010827264	20	4442
2026-01-02 08:41:35.27	355.29	10.99	-29.8	-31.3	12.5	1.66e-04	0	43	0	1012924416	20	4314
2026-01-02 08:41:36.28	355.18	10.92	-29.6	-30.8	12.8	9.30e-05	0	43	0	1015021568	20	4136
2026-01-02 08:41:37.28	355.06	10.85	-29.7	-31.0	12.7	8.62e-05	0	43	0	1016070144	20	4220
2026-01-02 08:41:38.29	354.95	10.78	-29.6	-30.8	12.8	6.56e-05	0	43	0	1018167296	20	4157
2026-01-02 08:41:39.29	354.83	10.71	-29.7	-31.1	12.7	5.79e-05	0	43	0	1020264448	20	4243
2026-01-02 08:41:40.29	354.72	10.64	-29.8	-31.4	12.5	1.35e-04	0	43	0	1022361600	20	4345
2026-01-02 08:41:41.28	354.61	10.57	-30.0	-31.9	12.1	2.17e-04	0	44	0	1024458752	20	4512
2026-01-02 08:41:42.28	354.50	10.50	-30.1	-32.3	11.8	4.53e-04	0	43	0	1025507328	20	4643
2026-01-02 08:41:43.28	354.39	10.43	-30.2	-32.6	11.7	4.69e-04	0	44	0	1027604480	20	4770
2026-01-02 08:41:44.28	354.28	10.36	-30.4	-33.4	11.1	1.22e-03	0	43	0	1029701632	20	5043
2026-01-02 08:41:45.28	354.17	10.29	-30.4	-32.9	11.0	1.89e-03	0	43	0	1031798784	21	4762
2026-01-02 08:41:46.28	354.06	10.22	-30.4	-32.9	11.0	1.82e-03	0	44	0	1032847360	21	4779
2026-01-02 08:41:47.29	353.95	10.15	-30.6	-33.4	10.7	3.58e-03	0	43	0	1034944512	21	4961
2026-01-02 08:41:48.29	353.84	10.08	-30.6	-33.5	10.6	3.55e-03	0	43	0	1037041664	21	5003
2026-01-02 08:41:49.30	353.73	10.01	-30.6	-33.4	10.6	3.41e-03	0	43	0	1039138816	21	4986
2026-01-02 08:41:50.30	353.62	9.94	-30.6	-33.6	10.4	3.51e-03	0	43	0	1041235968	21	5085
2026-01-02 08:41:51.31	353.51	9.87	-30.7	-33.7	10.3	5.00e-03	0	43	0	1043333120	21	5113
2026-01-02 08:41:52.31	353.41	9.81	-30.4	-32.7	11.1	3.25e-03	0	43	0	1044381696	21	4719
2026-01-02 08:41:53.31	353.30	9.74	-30.3	-32.5	11.3	1.42e-03	0	43	0	1046478848	21	4632
2026-01-02 08:41:54.31	353.19	9.67	-30.1	-31.9	11.6	7.72e-04	0	43	0	1048576000	21	4450
2026-01-02 08:41:55.31	353.09	9.60	-30.0	-31.6	11.9	4.01e-04	0	43	0	1050673152	21	4324
2026-01-02 08:41:56.31	352.98	9.53	-30.0	-31.5	11.9	4.80e-04	0	43	0	1051721728	21	4314
2026-01-02 08:41:57.32	352.88	9.46	-30.0	-31.6	11.8	4.01e-04	0	44	0	1053818880	21	4344
2026-01-02 08:41:58.31	352.78	9.39	-30.0	-31.7	11.8	4.18e-04	0	44	0	1055916032	21	4368
2026-01-02 08:41:59.31	352.67	9.33	-30.1	-32.0	11.5	7.22e-04	0	44	0	1058013184	21	4474
2026-01-02 08:42:00.31	352.57	9.26	-30.0	-31.7	11.8	7.75e-04	0	43	0	1060110336	21	4382
2026-01-02 08:42:01.31	352.47	9.19	-30.1	-32.0	11.5	7.39e-04	0	43	0	1061158912	21	4479
2026-01-02 08:42:02.32	352.37	9.12	-30.2	-32.2	11.3	9.33e-04	0	43	0	1063256064	21	4542
2026-01-02 08:42:03.33	352.27	9.05	-30.3	-32.8	11.0	1.39e-03	0	43	0	1065353216	21	4759
2026-01-02 08:42:04.33	352.16	8.99	-30.4	-32.8	10.9	2.17e-03	0	43	0	1067450368	21	4773
2026-01-02 08:42:05.32	352.07	8.92	-30.4	-32.9	10.8	2.18e-03	0	43	0	1069547520	21	4810
2026-01-02 08:42:06.32	351.97	8.85	-30.5	-33.4	10.4	3.21e-03	0	43	0	1070596096	21	5021
2026-01-02 08:42:07.32	351.87	8.78	-30.5	-33.3	10.5	3.78e-03	0	43	0	1072693248	21	4965
2026-01-02 08:42:08.32	351.77	8.72	-30.6	-33.7	10.2	4.52e-03	0	44	0	1074790400	21	5142
2026-01-02 08:42:09.33	351.67	8.65	-30.7	-34.0	10.0	7.40e-03	0	43	0	1076887552	21	5251
2026-01-02 08:42:10.33	351.57	8.58	-30.7	-34.0	10.0	6.86e-03	0	43	0	1077936128	21	5248
2026-01-02 08:42:11.33	351.47	8.51	-30.7	-34.0	9.9	6.97e-03	0	43	0	1080033280	21	5268
2026-01-02 08:42:12.34	351.38	8.45	-30.7	-33.9	10.0	7.95e-03	0	43	0	1082130432	21	5218
2026-01-02 08:42:13.34	351.28	8.38	-30.7	-33.9	10.0	9.17e-03	0	43	0	1084227584	21	5227
2026-01-02 08:42:14.34	351.19	8.31	-30.6	-33.8	10.1	6.91e-03	0	44	0	1086324736	21	5171
2026-01-02 08:42:15.35	351.09	8.25	-30.6	-33.8	10.1	7.22e-03	0	43	0	1088421888	21	5178
2026-01-02 08:42:16.35	350.99	8.18	-30.5	-33.4	10.4	6.47e-03	0	43	0	1089470464	21	5022
2026-01-02 08:42:17.35	350.90	8.11	-30.6	-33.6	10.2	5.16e-03	0	43	0	1091567616	21	5096
2026-01-02 08:42:18.35	350.81	8.05	-30.6	-33.6	10.2	6.41e-03	0	43	0	1093664768	21	5085
2026-01-02 08:42:19.35	350.71	7.98	-30.5	-33.3	10.4	4.84e-03	0	44	0	1095761920	21	4991
2026-01-02 08:42:20.35	350.62	7.91	-30.5	-33.4	10.3	4.41e-03	0	43	0	1096810496	21	5024
2026-01-02 08:42:21.34	350.53	7.85	-30.5	-33.5	10.2	5.69e-03	0	43	0	1098907648	21	5069
2026-01-02 08:42:22.35	350.43	7.78	-30.5	-33.3	10.4	4.64e-03	0	44	0	1101004800	21	4982
2026-01-02 08:42:23.35	350.34	7.72	-30.6	-33.6	10.2	4.37e-03	0	43	0	1103101952	21	5109
2026-01-02 08:42:24.36	350.25	7.65	-30.7	-34.0	9.9	6.91e-03	0	43	0	1105199104	21	5255
2026-01-02 08:42:25.36	350.16	7.58	-30.5	-33.5	10.2	6.14e-03	0	43	0	1106247680	21	5083
2026-01-02 08:42:26.36	350.07	7.52	-30.6	-33.8	9.9	7.12e-03	0	43	0	1108344832	21	5197
2026-01-02 08:42:27.37	349.98	7.45	-30.6	-33.9	9.9	8.88e-03	0	44	0	1110441984	21	5256
2026-01-02 08:42:28.37	349.89	7.39	-30.7	-34.2	9.6	1.15e-02	0	43	0	1112539136	21	5402
2026-01-02 08:42:29.36	349.80	7.32	-30.8	-34.4	9.5	1.11e-02	0	43	0	1114636288	21	5454
2026-01-02 08:42:30.36	349.71	7.26	-30.9	-34.8	9.1	1.73e-02	0	43	0	1115684864	21	5675
2026-01-02 08:42:31.36	349.62	7.19	-30.9	-34.8	9.2	2.32e-02	0	43	0	1117782016	21	5650
2026-01-02 08:42:32.37	349.53	7.13	-30.9	-34.9	9.1	2.55e-02	0	43	0	1119879168	21	5708
2026-01-02 08:42:33.36	349.45	7.06	-32.5	-39.6	5.8	2.05e-02	0	44	0	1121976320	24	8125
2026-01-02 08:42:34.36	349.36	7.00	-32.8	-45.2	3.8	1.49e+00	0	43	104	1121976320	25	15001
2026-01-02 08:42:35.36	349.27	6.93	-33.1	-45.4	3.8	1.49e+00	0	43	104	1121976320	26	14916
2026-01-02 08:42:36.36	349.19	6.87	-33.3	-45.8	3.8	1.49e+00	0	43	104	1121976320	26	15243

#Closed at: 2026-01-02 08:42:37
#Recorded file [1121 MB]: D:/data/31010_260102_113234.dat