passes_logs/2026/01/02/R2M6_AANII_01/R2M6_AANII_01__20260102_062753_FENGYUN_3E_rec.log

#Pass ID: 20260102_062753_FENGYUN 3E
#Satellite: FENGYUN 3E
#Configuration: FENGYUN 3E
#almurnet v.1.7.20240730
#Start time: 2026-01-02 06:27:55

#Version: 2.2.20231116
#Station: R2M6_AANII_01
#Location: 30.233357 lon 59.946436 lat
#TLE: 1 49008U 21062A   26001.26445318  .00000475  00000+0  24453-3 0  9990
#TLE: 2 49008  98.7480   6.5551 0001357 167.8415 192.2795 14.19884467232890

#Time	Az	El	Level	Level2	SNR	BER	BlckErr	Temp	State	Recorded	gain1	gain2
2026-01-02 06:27:55.43	10.40	7.12	-29.9	-33.3	5.0	7.92e-01	0	41	0	0	19	5298
2026-01-02 06:27:56.44	10.31	7.19	-29.9	-32.8	5.0	7.96e-01	0	41	104	0	20	5031
2026-01-02 06:27:57.44	10.22	7.25	-30.0	-33.3	7.6	1.01e-01	0	41	0	0	19	5307
2026-01-02 06:27:58.44	10.13	7.32	-29.9	-33.2	7.7	8.91e-02	0	41	0	7340032	19	5239
2026-01-02 06:27:59.44	10.04	7.38	-29.8	-32.7	8.1	6.24e-02	0	41	0	14680064	19	5042
2026-01-02 06:28:00.44	9.95	7.45	-29.6	-32.2	8.4	5.13e-02	0	41	0	20971520	19	4865
2026-01-02 06:28:01.44	9.86	7.51	-29.4	-32.2	8.8	3.55e-02	0	41	0	28311552	18	4949
2026-01-02 06:28:02.45	9.77	7.58	-29.3	-31.9	9.0	2.91e-02	0	41	0	35651584	18	4846
2026-01-02 06:28:03.46	9.68	7.65	-29.5	-32.4	8.7	3.76e-02	0	41	0	42991616	18	5033
2026-01-02 06:28:04.46	9.59	7.71	-29.5	-31.7	8.8	3.57e-02	0	41	0	50331648	19	4685
2026-01-02 06:28:05.47	9.49	7.78	-28.9	-30.7	9.9	1.77e-02	0	41	0	57671680	18	4426
2026-01-02 06:28:06.47	9.40	7.84	-28.3	-30.3	10.7	6.34e-03	0	41	0	65011712	16	4504
2026-01-02 06:28:07.47	9.31	7.91	-27.6	-29.1	11.6	8.63e-04	0	41	0	72351744	15	4264
2026-01-02 06:28:08.47	9.22	7.98	-27.2	-28.5	12.3	2.53e-03	0	41	0	79691776	14	4209
2026-01-02 06:28:09.47	9.12	8.04	-26.8	-28.1	12.8	2.21e-03	0	41	0	85983232	13	4199
2026-01-02 06:28:10.46	9.03	8.11	-26.5	-27.5	13.2	2.66e-04	0	41	0	93323264	13	4033
2026-01-02 06:28:11.46	8.94	8.17	-26.3	-27.6	13.4	2.25e-03	0	41	0	100663296	12	4155
2026-01-02 06:28:12.46	8.84	8.24	-26.2	-27.2	13.7	2.27e-03	0	41	0	108003328	12	4058
2026-01-02 06:28:13.47	8.74	8.31	-26.1	-27.1	13.7	2.37e-04	0	41	0	115343360	12	4038
2026-01-02 06:28:14.47	8.65	8.37	-26.3	-27.4	13.6	2.30e-03	0	42	0	122683392	12	4101
2026-01-02 06:28:15.47	8.55	8.44	-26.6	-28.1	13.2	2.23e-03	0	42	0	130023424	12	4300
2026-01-02 06:28:16.47	8.46	8.51	-26.9	-28.4	12.7	3.72e-04	0	42	0	137363456	13	4269
2026-01-02 06:28:17.48	8.36	8.58	-26.6	-27.7	13.1	2.30e-03	0	41	0	144703488	13	4080
2026-01-02 06:28:18.48	8.26	8.64	-26.6	-27.6	13.2	2.57e-03	0	42	0	150994944	13	4063
2026-01-02 06:28:19.49	8.16	8.71	-26.8	-28.1	12.9	4.46e-05	0	42	0	159383552	13	4199
2026-01-02 06:28:20.49	8.06	8.78	-26.9	-28.3	12.8	2.75e-03	0	42	0	166723584	13	4237
2026-01-02 06:28:21.50	7.96	8.85	-26.5	-27.4	13.3	2.17e-05	0	42	0	173015040	13	4005
2026-01-02 06:28:22.49	7.86	8.91	-26.1	-27.0	13.8	2.20e-06	0	42	0	180355072	12	4005
2026-01-02 06:28:23.50	7.76	8.98	-26.0	-26.9	13.9	2.24e-03	0	42	0	187695104	12	3964
2026-01-02 06:28:24.49	7.66	9.05	-26.1	-27.0	13.9	2.20e-06	0	42	0	195035136	12	3987
2026-01-02 06:28:25.50	7.56	9.12	-26.0	-26.9	13.9	2.52e-04	0	42	0	202375168	12	3967
2026-01-02 06:28:26.50	7.46	9.18	-26.0	-27.2	14.1	1.10e-06	0	42	0	209715200	11	4160
2026-01-02 06:28:27.50	7.36	9.25	-25.8	-26.9	14.3	0.00e+00	0	42	0	217055232	11	4061
2026-01-02 06:28:28.50	7.26	9.32	-25.9	-27.0	14.2	2.21e-04	0	42	0	224395264	11	4090
2026-01-02 06:28:29.51	7.15	9.39	-25.9	-27.0	14.2	2.20e-06	0	42	0	230686720	11	4099
2026-01-02 06:28:30.51	7.05	9.46	-25.9	-27.0	14.2	2.11e-03	0	42	0	238026752	11	4095
2026-01-02 06:28:31.52	6.94	9.53	-25.8	-26.8	14.4	0.00e+00	0	42	0	245366784	11	4038
2026-01-02 06:28:32.52	6.84	9.60	-25.8	-26.7	14.4	0.00e+00	0	42	0	252706816	11	4030
2026-01-02 06:28:33.53	6.73	9.66	-25.8	-26.8	14.3	1.88e-03	0	42	0	260046848	11	4055
2026-01-02 06:28:34.53	6.63	9.73	-25.7	-26.6	14.5	2.20e-06	0	42	0	267386880	11	3983
2026-01-02 06:28:35.54	6.52	9.80	-25.7	-26.7	14.4	1.10e-06	0	42	0	274726912	11	4019
2026-01-02 06:28:36.54	6.41	9.87	-25.7	-26.7	14.5	1.10e-06	0	42	0	282066944	11	4013
2026-01-02 06:28:37.54	6.31	9.94	-25.8	-26.8	14.4	0.00e+00	0	42	0	289406976	11	4033
2026-01-02 06:28:38.55	6.20	10.01	-25.8	-26.8	14.4	0.00e+00	0	42	0	296747008	11	4036
2026-01-02 06:28:39.55	6.09	10.08	-25.7	-26.7	14.5	1.10e-06	0	42	0	304087040	11	4012
2026-01-02 06:28:40.55	5.98	10.15	-25.9	-27.1	14.2	0.00e+00	0	42	0	311427072	11	4110
2026-01-02 06:28:41.55	5.87	10.22	-25.9	-27.1	14.2	1.10e-06	0	42	0	317718528	11	4125
2026-01-02 06:28:42.55	5.76	10.29	-25.8	-26.9	14.3	1.10e-06	0	42	0	325058560	11	4064
2026-01-02 06:28:43.54	5.65	10.36	-25.8	-26.8	14.4	1.10e-06	0	42	0	332398592	11	4056
2026-01-02 06:28:44.55	5.54	10.43	-25.9	-27.0	14.3	1.10e-06	0	42	0	339738624	11	4094
2026-01-02 06:28:45.55	5.43	10.50	-25.9	-27.1	14.3	1.10e-06	0	42	0	347078656	11	4112
2026-01-02 06:28:46.55	5.32	10.57	-26.0	-27.3	14.2	0.00e+00	0	42	0	354418688	11	4160
2026-01-02 06:28:47.55	5.21	10.64	-26.0	-27.2	14.2	3.40e-06	0	42	0	361758720	11	4141
2026-01-02 06:28:48.55	5.09	10.71	-25.9	-27.0	14.3	0.00e+00	0	42	0	369098752	11	4087
2026-01-02 06:28:49.55	4.98	10.78	-26.1	-27.0	14.0	3.40e-06	0	42	0	376438784	12	3989
2026-01-02 06:28:50.56	4.87	10.85	-26.6	-27.7	13.3	1.60e-05	0	42	0	382730240	13	4082
2026-01-02 06:28:51.57	4.75	10.92	-26.3	-27.0	13.7	1.14e-05	0	42	0	390070272	13	3887
2026-01-02 06:28:52.58	4.63	10.99	-26.2	-27.3	13.8	5.70e-06	0	42	0	397410304	12	4082
2026-01-02 06:28:53.58	4.52	11.06	-26.4	-27.7	13.6	8.00e-06	0	43	0	404750336	12	4182
2026-01-02 06:28:54.58	4.40	11.13	-26.1	-27.0	14.0	2.20e-06	0	42	0	412090368	12	3987
2026-01-02 06:28:55.58	4.28	11.20	-26.0	-26.9	14.1	2.20e-06	0	42	0	419430400	12	3955
2026-01-02 06:28:56.59	4.17	11.27	-26.0	-26.7	14.1	1.10e-06	0	42	0	426770432	12	3925
2026-01-02 06:28:57.59	4.05	11.34	-26.0	-27.2	14.2	1.10e-06	0	43	0	434110464	11	4131
2026-01-02 06:28:58.59	3.93	11.41	-26.1	-27.4	14.1	0.00e+00	0	42	0	441450496	11	4207
2026-01-02 06:28:59.59	3.81	11.48	-25.7	-26.5	14.7	1.10e-06	0	43	0	448790528	11	3961
2026-01-02 06:29:00.59	3.69	11.55	-25.4	-26.0	14.9	0.00e+00	0	43	0	456130560	11	3844
2026-01-02 06:29:01.59	3.57	11.63	-25.4	-26.5	14.9	0.00e+00	0	43	0	462422016	10	4064
2026-01-02 06:29:02.59	3.45	11.70	-25.4	-26.4	15.0	0.00e+00	0	42	0	469762048	10	4055
2026-01-02 06:29:03.59	3.33	11.77	-25.4	-26.5	14.9	0.00e+00	0	43	0	477102080	10	4067
2026-01-02 06:29:04.59	3.20	11.84	-25.5	-26.5	14.9	0.00e+00	0	43	0	484442112	10	4081
2026-01-02 06:29:05.60	3.08	11.91	-25.4	-26.4	15.0	0.00e+00	0	43	0	491782144	10	4055
2026-01-02 06:29:06.60	2.96	11.98	-25.4	-26.5	14.9	0.00e+00	0	43	0	499122176	10	4067
2026-01-02 06:29:07.60	2.83	12.05	-25.4	-26.4	15.0	0.00e+00	0	43	0	506462208	10	4051
2026-01-02 06:29:08.61	2.71	12.13	-25.4	-26.4	15.0	0.00e+00	0	43	0	513802240	10	4050
2026-01-02 06:29:09.62	2.58	12.20	-25.4	-26.5	15.0	0.00e+00	0	42	0	521142272	10	4066
2026-01-02 06:29:10.62	2.45	12.27	-25.3	-26.2	15.1	0.00e+00	0	43	0	527433728	10	3993
2026-01-02 06:29:11.62	2.33	12.34	-25.4	-26.4	15.0	0.00e+00	0	43	0	534773760	10	4032
2026-01-02 06:29:12.62	2.20	12.41	-25.4	-26.4	15.0	1.10e-06	0	43	0	542113792	10	4053
2026-01-02 06:29:13.62	2.07	12.49	-25.4	-26.5	15.0	0.00e+00	0	43	0	549453824	10	4071
2026-01-02 06:29:14.63	1.94	12.56	-25.5	-26.1	14.9	0.00e+00	0	42	0	556793856	11	3866
2026-01-02 06:29:15.63	1.81	12.63	-25.8	-26.8	14.6	1.10e-06	0	43	0	564133888	11	4030
2026-01-02 06:29:16.63	1.68	12.70	-25.6	-26.4	14.8	0.00e+00	0	42	0	571473920	11	3932
2026-01-02 06:29:17.64	1.55	12.78	-25.6	-26.8	14.8	0.00e+00	0	43	0	578813952	10	4141
2026-01-02 06:29:18.64	1.42	12.85	-25.5	-26.2	14.8	0.00e+00	0	43	0	586153984	11	3894
2026-01-02 06:29:19.64	1.29	12.92	-25.5	-26.2	14.9	0.00e+00	0	43	0	593494016	11	3880
2026-01-02 06:29:20.64	1.15	12.99	-25.5	-26.1	14.9	0.00e+00	0	43	0	600834048	11	3870
2026-01-02 06:29:21.64	1.02	13.07	-25.4	-26.4	15.1	0.00e+00	0	43	0	607125504	10	4037
2026-01-02 06:29:22.64	0.89	13.14	-25.5	-26.6	15.0	0.00e+00	0	43	0	614465536	10	4082
2026-01-02 06:29:23.64	0.75	13.21	-25.5	-26.1	15.0	0.00e+00	0	43	0	621805568	11	3867
2026-01-02 06:29:24.64	0.62	13.28	-25.4	-26.4	15.0	0.00e+00	0	43	0	629145600	10	4046
2026-01-02 06:29:25.65	0.48	13.36	-25.4	-26.4	15.1	0.00e+00	0	43	0	636485632	10	4045
2026-01-02 06:29:26.65	0.34	13.43	-25.7	-26.6	14.7	0.00e+00	0	43	0	643825664	11	3981
2026-01-02 06:29:27.65	0.21	13.50	-25.5	-26.0	15.0	0.00e+00	0	43	0	651165696	11	3842
2026-01-02 06:29:28.66	0.07	13.58	-25.2	-25.5	15.3	0.00e+00	0	43	0	658505728	11	3724
2026-01-02 06:29:29.66	359.93	13.65	-25.0	-25.5	15.6	0.00e+00	0	43	0	665845760	10	3819
2026-01-02 06:29:30.66	359.79	13.72	-25.1	-26.2	15.4	0.00e+00	0	43	0	672137216	9	4098
2026-01-02 06:29:31.66	359.65	13.79	-25.0	-26.0	15.6	0.00e+00	0	43	0	679477248	9	4035
2026-01-02 06:29:32.67	359.51	13.87	-24.9	-25.8	15.7	0.00e+00	0	43	0	686817280	9	3994
2026-01-02 06:29:33.68	359.36	13.94	-24.9	-25.8	15.7	0.00e+00	0	43	0	694157312	9	4008
2026-01-02 06:29:34.68	359.22	14.01	-25.2	-25.9	15.4	0.00e+00	0	43	0	701497344	10	3909
2026-01-02 06:29:35.68	359.08	14.09	-24.9	-25.4	15.6	0.00e+00	0	43	0	708837376	10	3800
2026-01-02 06:29:36.68	358.93	14.16	-25.0	-26.0	15.6	0.00e+00	0	43	0	716177408	9	4039
2026-01-02 06:29:37.68	358.79	14.23	-25.0	-25.6	15.6	0.00e+00	0	43	0	723517440	10	3829
2026-01-02 06:29:38.69	358.64	14.31	-25.1	-25.7	15.5	0.00e+00	0	43	0	730857472	10	3867
2026-01-02 06:29:39.69	358.50	14.38	-25.0	-25.5	15.6	0.00e+00	0	43	0	738197504	10	3824
2026-01-02 06:29:40.69	358.35	14.46	-25.0	-26.0	15.6	0.00e+00	0	43	0	745537536	9	4047
2026-01-02 06:29:41.70	358.20	14.53	-25.0	-25.6	15.6	0.00e+00	0	43	0	752877568	10	3843
2026-01-02 06:29:42.71	358.05	14.60	-25.0	-25.6	15.6	0.00e+00	0	43	0	759169024	10	3846
2026-01-02 06:29:43.71	357.90	14.68	-24.4	-25.5	14.7	0.00e+00	0	43	0	766509056	9	4096
2026-01-02 06:29:44.71	357.75	14.75	-25.1	-25.7	12.1	0.00e+00	0	43	0	773849088	10	3867
2026-01-02 06:29:45.71	357.60	14.82	-24.9	-25.4	15.6	2.61e-04	0	43	0	781189120	10	3784
2026-01-02 06:29:46.70	357.45	14.90	-25.0	-25.9	15.5	0.00e+00	0	43	0	788529152	9	4032
2026-01-02 06:29:47.71	357.30	14.97	-25.0	-25.9	15.6	0.00e+00	0	43	0	795869184	9	4029
2026-01-02 06:29:48.71	357.15	15.04	-24.9	-25.8	15.7	0.00e+00	0	43	0	803209216	9	3999
2026-01-02 06:29:49.72	356.99	15.12	-24.9	-25.8	15.7	0.00e+00	0	43	0	810549248	9	4000
2026-01-02 06:29:50.72	356.84	15.19	-24.9	-25.7	15.8	1.67e-03	0	43	0	816840704	9	3976
2026-01-02 06:29:51.72	356.68	15.27	-24.8	-25.6	15.8	0.00e+00	0	43	0	824180736	9	3954
2026-01-02 06:29:52.73	356.53	15.34	-25.0	-25.9	15.7	0.00e+00	0	43	0	831520768	9	4030
2026-01-02 06:29:53.73	356.37	15.41	-24.9	-25.8	15.7	0.00e+00	0	43	0	838860800	9	4004
2026-01-02 06:29:54.73	356.21	15.49	-24.7	-25.4	15.9	0.00e+00	0	43	0	846200832	9	3910
2026-01-02 06:29:55.74	356.05	15.56	-24.8	-25.6	15.9	1.46e-03	0	43	0	853540864	9	3944
2026-01-02 06:29:56.75	355.89	15.64	-24.7	-25.3	16.0	0.00e+00	0	43	0	860880896	9	3884
2026-01-02 06:29:57.75	355.73	15.71	-24.8	-25.5	15.9	1.05e-04	0	43	0	868220928	9	3925
2026-01-02 06:29:58.75	355.57	15.78	-24.9	-25.9	15.7	1.46e-03	0	43	0	875560960	9	4006
2026-01-02 06:29:59.75	355.41	15.86	-24.9	-25.9	15.7	0.00e+00	0	43	0	882900992	9	4012
2026-01-02 06:30:00.75	355.25	15.93	-24.7	-25.3	16.0	9.95e-05	0	43	0	890241024	9	3878
2026-01-02 06:30:01.76	355.08	16.00	-24.5	-24.9	16.3	0.00e+00	0	43	0	897581056	9	3773
2026-01-02 06:30:02.76	354.92	16.08	-24.5	-25.0	16.2	1.19e-03	0	43	0	903872512	9	3799
2026-01-02 06:30:03.77	354.75	16.15	-24.5	-25.0	16.2	1.43e-04	0	43	0	911212544	9	3790
2026-01-02 06:30:04.77	354.59	16.23	-24.5	-24.9	16.3	0.00e+00	0	43	0	918552576	9	3778
2026-01-02 06:30:05.78	354.42	16.30	-24.4	-25.3	16.3	1.14e-03	0	43	0	925892608	8	3980
2026-01-02 06:30:06.78	354.25	16.37	-24.4	-25.1	16.4	1.88e-04	0	43	0	933232640	8	3932
2026-01-02 06:30:07.78	354.08	16.45	-24.1	-24.7	16.6	1.08e-03	0	43	0	940572672	8	3823
2026-01-02 06:30:08.79	353.91	16.52	-24.1	-24.7	16.7	1.12e-03	0	43	0	947912704	8	3824
2026-01-02 06:30:09.79	353.74	16.59	-24.1	-24.5	16.7	2.09e-04	0	43	0	955252736	8	3794
2026-01-02 06:30:10.79	353.57	16.67	-24.1	-24.5	16.7	1.01e-03	0	43	0	962592768	8	3784
2026-01-02 06:30:11.80	353.40	16.74	-24.1	-24.6	16.7	0.00e+00	0	43	0	969932800	8	3806
2026-01-02 06:30:12.80	353.23	16.82	-24.1	-24.6	16.7	1.76e-04	0	43	0	977272832	8	3811
2026-01-02 06:30:13.81	353.05	16.89	-24.2	-24.7	16.6	8.75e-04	0	43	0	984612864	8	3840
2026-01-02 06:30:14.81	352.88	16.96	-24.3	-24.9	16.5	0.00e+00	0	43	0	990904320	8	3891
2026-01-02 06:30:15.82	352.70	17.04	-24.1	-24.7	16.7	1.22e-04	0	43	0	998244352	8	3826
2026-01-02 06:30:16.81	352.53	17.11	-24.1	-24.5	16.8	0.00e+00	0	43	0	1005584384	8	3771
2026-01-02 06:30:17.81	352.35	17.18	-24.1	-24.6	16.7	9.44e-04	0	43	0	1012924416	8	3818
2026-01-02 06:30:18.82	352.17	17.26	-24.1	-24.7	16.7	1.15e-04	0	43	0	1020264448	8	3826
2026-01-02 06:30:19.82	351.99	17.33	-24.1	-24.7	16.7	0.00e+00	0	43	0	1027604480	8	3825
2026-01-02 06:30:20.82	351.81	17.40	-24.3	-25.0	16.5	8.75e-04	0	43	0	1034944512	8	3914
2026-01-02 06:30:21.83	351.63	17.47	-24.3	-25.0	16.5	0.00e+00	0	43	0	1042284544	8	3900
2026-01-02 06:30:22.83	351.45	17.55	-24.3	-25.0	16.5	0.00e+00	0	43	0	1048576000	8	3904
2026-01-02 06:30:23.83	351.27	17.62	-24.7	-25.3	16.1	9.52e-04	0	43	0	1055916032	9	3873
2026-01-02 06:30:24.84	351.08	17.69	-24.5	-24.9	16.3	0.00e+00	0	43	0	1064304640	9	3785
2026-01-02 06:30:25.84	350.90	17.76	-24.3	-25.1	16.5	1.01e-03	0	43	0	1070596096	8	3922
2026-01-02 06:30:26.83	350.72	17.84	-24.4	-25.2	16.4	0.00e+00	0	43	0	1077936128	8	3941
2026-01-02 06:30:27.83	350.53	17.91	-24.4	-25.2	16.4	0.00e+00	0	43	0	1085276160	8	3949
2026-01-02 06:30:28.83	350.34	17.98	-24.4	-25.2	16.4	1.26e-03	0	43	0	1092616192	8	3948
2026-01-02 06:30:29.83	350.16	18.05	-24.3	-25.1	16.5	0.00e+00	0	43	0	1099956224	8	3927
2026-01-02 06:30:30.84	349.97	18.12	-24.4	-25.2	16.5	8.81e-05	0	43	0	1107296256	8	3946
2026-01-02 06:30:31.83	349.78	18.20	-24.6	-25.2	16.2	0.00e+00	0	43	0	1113587712	9	3841
2026-01-02 06:30:32.82	349.59	18.27	-25.0	-25.9	15.8	0.00e+00	0	43	0	1120927744	9	4015
2026-01-02 06:30:33.83	349.40	18.34	-24.7	-24.8	16.1	1.53e-04	0	43	0	1128267776	10	3653
2026-01-02 06:30:34.82	349.21	18.41	-24.3	-24.5	16.5	0.00e+00	0	43	0	1135607808	9	3690
2026-01-02 06:30:35.82	349.01	18.48	-24.0	-24.4	16.9	0.00e+00	0	43	0	1142947840	8	3767
2026-01-02 06:30:36.82	348.82	18.55	-23.8	-24.0	17.1	0.00e+00	0	43	0	1150287872	8	3677
2026-01-02 06:30:37.82	348.63	18.62	-23.9	-24.7	16.9	0.00e+00	0	43	0	1157627904	7	3941
2026-01-02 06:30:38.82	348.43	18.69	-24.0	-24.8	16.9	8.44e-04	0	43	0	1164967936	7	3962
2026-01-02 06:30:39.82	348.23	18.76	-23.9	-24.7	16.9	0.00e+00	0	43	0	1172307968	7	3941
2026-01-02 06:30:40.81	348.04	18.83	-23.9	-24.7	17.0	0.00e+00	0	43	0	1178599424	7	3946
2026-01-02 06:30:41.81	347.84	18.90	-24.0	-24.8	16.9	0.00e+00	0	43	0	1185939456	7	3961
2026-01-02 06:30:42.81	347.64	18.97	-24.0	-24.9	16.9	0.00e+00	0	43	0	1193279488	7	3993
2026-01-02 06:30:43.81	347.44	19.04	-24.1	-25.0	16.8	0.00e+00	0	43	0	1200619520	7	4013
2026-01-02 06:30:44.81	347.24	19.11	-24.2	-24.7	16.8	0.00e+00	0	43	0	1207959552	8	3830
2026-01-02 06:30:45.82	347.04	19.18	-24.2	-24.8	16.7	0.00e+00	0	43	0	1215299584	8	3852
2026-01-02 06:30:46.82	346.83	19.25	-24.3	-24.9	16.6	0.00e+00	0	43	0	1222639616	8	3884
2026-01-02 06:30:47.82	346.63	19.32	-24.1	-24.6	16.8	0.00e+00	0	43	0	1229979648	8	3819
2026-01-02 06:30:48.83	346.42	19.39	-24.0	-24.4	16.9	0.00e+00	0	43	0	1236271104	8	3749
2026-01-02 06:30:49.83	346.21	19.46	-24.1	-24.5	16.9	0.00e+00	0	43	0	1243611136	8	3773
2026-01-02 06:30:50.83	346.01	19.53	-24.2	-24.7	16.7	0.00e+00	0	43	0	1250951168	8	3832
2026-01-02 06:30:51.83	345.80	19.60	-24.0	-24.3	17.0	0.00e+00	0	43	0	1258291200	8	3747
2026-01-02 06:30:52.84	345.59	19.67	-23.9	-24.2	17.0	0.00e+00	0	43	0	1265631232	8	3718
2026-01-02 06:30:53.84	345.38	19.74	-23.9	-24.1	17.1	0.00e+00	0	43	0	1272971264	8	3693
2026-01-02 06:30:54.83	345.17	19.80	-23.8	-23.9	17.2	0.00e+00	0	43	0	1280311296	8	3653
2026-01-02 06:30:55.83	344.96	19.87	-24.0	-24.3	17.0	0.00e+00	0	43	0	1287651328	8	3744
2026-01-02 06:30:56.83	344.75	19.94	-23.9	-24.2	17.0	0.00e+00	0	43	0	1294991360	8	3720
2026-01-02 06:30:57.82	344.54	20.01	-23.9	-24.2	17.0	0.00e+00	0	43	0	1301282816	8	3725
2026-01-02 06:30:58.82	344.32	20.07	-23.9	-24.7	17.0	0.00e+00	0	43	0	1308622848	7	3925
2026-01-02 06:30:59.82	344.11	20.14	-24.2	-24.9	16.7	0.00e+00	0	43	0	1315962880	8	3869
2026-01-02 06:31:00.82	343.89	20.21	-24.6	-25.2	16.2	0.00e+00	0	43	0	1323302912	9	3858
2026-01-02 06:31:01.83	343.67	20.27	-24.4	-24.8	16.5	0.00e+00	0	43	0	1330642944	9	3743
2026-01-02 06:31:02.82	343.45	20.34	-24.1	-24.7	16.8	0.00e+00	0	43	0	1337982976	8	3828
2026-01-02 06:31:03.83	343.23	20.40	-24.0	-24.4	16.9	0.00e+00	0	43	0	1345323008	8	3768
2026-01-02 06:31:04.83	343.01	20.47	-24.0	-24.3	17.0	0.00e+00	0	43	0	1352663040	8	3746
2026-01-02 06:31:05.83	342.79	20.53	-23.9	-24.2	17.0	0.00e+00	0	43	0	1360003072	8	3723
2026-01-02 06:31:06.84	342.57	20.60	-23.9	-24.0	17.1	0.00e+00	0	43	0	1367343104	8	3679
2026-01-02 06:31:07.84	342.34	20.66	-23.9	-24.6	17.1	0.00e+00	0	43	0	1374683136	7	3905
2026-01-02 06:31:08.84	342.12	20.73	-23.8	-24.4	17.2	0.00e+00	0	43	0	1380974592	7	3860
2026-01-02 06:31:09.84	341.89	20.79	-23.9	-24.7	17.0	0.00e+00	0	43	0	1388314624	7	3929
2026-01-02 06:31:10.85	341.67	20.86	-23.8	-24.4	17.2	0.00e+00	0	43	0	1395654656	7	3862
2026-01-02 06:31:11.85	341.44	20.92	-23.6	-24.1	17.3	0.00e+00	0	43	0	1402994688	7	3796
2026-01-02 06:31:12.83	341.22	20.98	-23.6	-24.0	17.4	0.00e+00	0	43	0	1410334720	7	3767
2026-01-02 06:31:13.83	340.99	21.04	-23.7	-24.1	17.3	0.00e+00	0	43	0	1417674752	7	3803
2026-01-02 06:31:14.82	340.76	21.11	-23.5	-23.7	17.5	0.00e+00	0	43	0	1423966208	7	3704
2026-01-02 06:31:15.82	340.53	21.17	-23.6	-24.1	17.3	0.00e+00	0	43	0	1431306240	7	3790
2026-01-02 06:31:16.82	340.30	21.23	-23.5	-23.7	17.5	0.00e+00	0	43	0	1438646272	7	3703
2026-01-02 06:31:17.82	340.07	21.29	-23.3	-23.9	17.7	0.00e+00	0	43	0	1445986304	6	3856
2026-01-02 06:31:18.82	339.83	21.35	-23.4	-24.0	17.6	0.00e+00	0	43	0	1453326336	6	3875
2026-01-02 06:31:19.81	339.60	21.41	-23.3	-23.8	17.7	0.00e+00	0	43	0	1460666368	6	3835
2026-01-02 06:31:20.82	339.36	21.47	-23.5	-24.3	17.5	0.00e+00	0	43	0	1468006400	6	3944
2026-01-02 06:31:21.82	339.13	21.53	-23.6	-23.9	17.4	0.00e+00	0	43	0	1475346432	7	3760
2026-01-02 06:31:22.82	338.89	21.59	-23.5	-23.8	17.5	0.00e+00	0	43	0	1482686464	7	3724
2026-01-02 06:31:23.82	338.65	21.65	-23.3	-23.4	17.8	0.00e+00	0	43	0	1488977920	7	3635
2026-01-02 06:31:24.82	338.41	21.71	-23.3	-23.4	17.7	0.00e+00	0	43	0	1496317952	7	3642
2026-01-02 06:31:25.83	338.17	21.77	-23.4	-24.2	17.6	0.00e+00	0	43	0	1503657984	6	3918
2026-01-02 06:31:26.82	337.93	21.83	-23.5	-24.4	17.5	0.00e+00	0	43	0	1510998016	6	3964
2026-01-02 06:31:27.82	337.69	21.88	-23.6	-24.0	17.4	0.00e+00	0	43	0	1518338048	7	3767
2026-01-02 06:31:28.81	337.45	21.94	-23.6	-24.0	17.4	0.00e+00	0	43	0	1525678080	7	3767
2026-01-02 06:31:29.82	337.20	22.00	-23.7	-24.2	17.3	0.00e+00	0	43	0	1533018112	7	3820
2026-01-02 06:31:30.82	336.96	22.05	-23.4	-23.6	17.6	0.00e+00	0	43	0	1540358144	7	3693
2026-01-02 06:31:31.83	336.71	22.11	-23.6	-24.0	17.4	0.00e+00	0	43	0	1546649600	7	3772
2026-01-02 06:31:32.82	336.47	22.16	-23.5	-23.8	17.6	0.00e+00	0	44	0	1553989632	7	3717
2026-01-02 06:31:33.83	336.22	22.22	-23.5	-23.8	17.5	0.00e+00	0	43	0	1561329664	7	3733
2026-01-02 06:31:34.83	335.97	22.27	-23.5	-23.8	17.5	0.00e+00	0	43	0	1568669696	7	3736
2026-01-02 06:31:35.84	335.72	22.33	-23.4	-23.6	17.6	0.00e+00	0	43	0	1576009728	7	3677
2026-01-02 06:31:36.84	335.47	22.38	-23.7	-24.1	17.4	0.00e+00	0	43	0	1583349760	7	3799
2026-01-02 06:31:37.85	335.22	22.44	-23.4	-23.5	17.7	0.00e+00	0	43	0	1590689792	7	3661
2026-01-02 06:31:38.85	334.97	22.49	-23.3	-23.9	17.7	0.00e+00	0	43	0	1598029824	6	3843
2026-01-02 06:31:39.86	334.71	22.54	-23.3	-23.8	17.7	0.00e+00	0	43	0	1605369856	6	3838
2026-01-02 06:31:40.86	334.46	22.59	-23.3	-23.8	17.8	0.00e+00	0	44	0	1612709888	6	3833
2026-01-02 06:31:41.87	334.20	22.64	-23.6	-24.4	17.5	0.00e+00	0	43	0	1620049920	6	3978
2026-01-02 06:31:42.86	333.95	22.69	-23.6	-23.9	17.5	0.00e+00	0	43	0	1627389952	7	3758
2026-01-02 06:31:43.87	333.69	22.75	-23.8	-24.5	17.1	0.00e+00	0	43	0	1633681408	7	3895
2026-01-02 06:31:44.87	333.43	22.79	-23.5	-23.8	17.5	0.00e+00	0	43	0	1641021440	7	3722
2026-01-02 06:31:45.87	333.18	22.84	-23.2	-23.3	17.8	0.00e+00	0	43	0	1648361472	7	3606
2026-01-02 06:31:46.87	332.92	22.89	-23.1	-23.5	17.9	0.00e+00	0	43	0	1655701504	6	3751
2026-01-02 06:31:47.86	332.66	22.94	-23.1	-23.4	18.0	0.00e+00	0	43	0	1663041536	6	3734
2026-01-02 06:31:48.87	332.40	22.99	-23.1	-23.5	18.0	0.00e+00	0	43	0	1670381568	6	3746
2026-01-02 06:31:49.86	332.14	23.03	-23.3	-23.8	17.8	0.00e+00	0	43	0	1677721600	6	3822
2026-01-02 06:31:50.87	331.88	23.08	-23.4	-24.0	17.7	0.00e+00	0	43	0	1685061632	6	3886
2026-01-02 06:31:51.87	331.61	23.13	-23.3	-23.9	17.7	0.00e+00	0	43	0	1692401664	6	3860
2026-01-02 06:31:52.87	331.35	23.17	-23.3	-23.8	17.8	0.00e+00	0	43	0	1698693120	6	3825
2026-01-02 06:31:53.88	331.09	23.22	-23.4	-24.2	17.6	0.00e+00	0	43	0	1706033152	6	3920
2026-01-02 06:31:54.89	330.82	23.26	-23.3	-23.9	17.7	0.00e+00	0	44	0	1714421760	6	3852
2026-01-02 06:31:55.89	330.55	23.30	-23.2	-23.6	17.9	0.00e+00	0	43	0	1720713216	6	3776
2026-01-02 06:31:56.90	330.28	23.35	-23.2	-23.7	17.9	0.00e+00	0	43	0	1728053248	6	3793
2026-01-02 06:31:57.89	330.02	23.39	-23.2	-23.7	17.8	0.00e+00	0	44	0	1735393280	6	3807
2026-01-02 06:31:58.89	329.75	23.43	-23.6	-24.0	17.4	0.00e+00	0	43	0	1742733312	7	3775
2026-01-02 06:31:59.89	329.48	23.47	-23.4	-23.6	17.7	0.00e+00	0	43	0	1750073344	7	3677
2026-01-02 06:32:00.90	329.21	23.51	-23.1	-23.0	17.9	0.00e+00	0	43	0	1757413376	7	3553
2026-01-02 06:32:01.89	328.95	23.55	-23.2	-23.6	17.9	0.00e+00	0	43	0	1764753408	6	3795
2026-01-02 06:32:02.89	328.68	23.59	-23.3	-23.8	17.8	0.00e+00	0	43	0	1772093440	6	3825
2026-01-02 06:32:03.89	328.40	23.63	-23.3	-23.8	17.8	0.00e+00	0	44	0	1778384896	6	3828
2026-01-02 06:32:04.90	328.13	23.67	-23.4	-24.1	17.6	0.00e+00	0	43	0	1785724928	6	3901
2026-01-02 06:32:05.90	327.86	23.70	-23.3	-23.9	17.7	0.00e+00	0	43	0	1793064960	6	3858
2026-01-02 06:32:06.90	327.58	23.74	-23.2	-23.7	17.9	0.00e+00	0	43	0	1800404992	6	3804
2026-01-02 06:32:07.91	327.31	23.78	-22.8	-23.3	15.1	0.00e+00	0	43	0	1807745024	6	3850
2026-01-02 06:32:08.91	327.03	23.81	-23.1	-23.9	17.5	0.00e+00	0	43	0	1815085056	5	3959
2026-01-02 06:32:09.92	326.76	23.85	-23.2	-23.7	17.8	0.00e+00	0	43	0	1822425088	6	3795
2026-01-02 06:32:10.92	326.48	23.88	-23.2	-23.6	17.9	0.00e+00	0	43	0	1829765120	6	3782
2026-01-02 06:32:11.92	326.20	23.91	-23.1	-23.4	18.0	0.00e+00	0	43	0	1837105152	6	3743
2026-01-02 06:32:12.93	325.93	23.95	-23.1	-23.4	18.0	0.00e+00	0	43	0	1843396608	6	3736
2026-01-02 06:32:13.93	325.65	23.98	-23.2	-23.7	17.9	0.00e+00	0	43	0	1850736640	6	3814
2026-01-02 06:32:14.93	325.37	24.01	-23.3	-23.8	17.8	0.00e+00	0	43	0	1859125248	6	3821
2026-01-02 06:32:15.94	325.09	24.04	-23.1	-23.4	18.0	7.49e-04	0	44	0	1865416704	6	3746
2026-01-02 06:32:16.94	324.81	24.07	-23.0	-23.3	18.1	6.53e-04	0	43	0	1872756736	6	3707
2026-01-02 06:32:17.94	324.53	24.10	-23.2	-23.6	17.9	0.00e+00	0	43	0	1880096768	6	3773
2026-01-02 06:32:18.95	324.25	24.13	-23.0	-23.3	18.1	5.00e-04	0	44	0	1887436800	6	3719
2026-01-02 06:32:19.95	323.97	24.16	-23.2	-23.6	17.9	0.00e+00	0	43	0	1894776832	6	3782
2026-01-02 06:32:20.96	323.68	24.18	-23.1	-23.5	18.0	4.07e-04	0	44	0	1902116864	6	3771
2026-01-02 06:32:21.96	323.40	24.21	-23.2	-23.6	17.9	3.67e-04	0	43	0	1909456896	6	3770
2026-01-02 06:32:22.97	323.12	24.24	-23.4	-24.0	17.7	0.00e+00	0	43	0	1916796928	6	3874
2026-01-02 06:32:23.97	322.83	24.26	-23.2	-23.6	17.9	4.32e-04	0	44	0	1924136960	6	3789
2026-01-02 06:32:24.98	322.55	24.28	-23.1	-23.4	18.0	1.54e-04	0	44	0	1930428416	6	3726
2026-01-02 06:32:25.98	322.27	24.31	-23.0	-23.3	18.1	8.06e-04	0	43	0	1937768448	6	3716
2026-01-02 06:32:26.98	321.98	24.33	-23.1	-23.5	18.0	3.39e-04	0	43	0	1945108480	6	3761
2026-01-02 06:32:27.99	321.69	24.35	-23.0	-23.3	18.1	1.25e-03	0	43	0	1952448512	6	3718
2026-01-02 06:32:28.99	321.41	24.37	-23.0	-23.3	18.1	1.53e-03	0	43	0	1959788544	6	3718
2026-01-02 06:32:29.99	321.13	24.39	-23.0	-23.7	18.1	7.91e-04	0	43	0	1967128576	5	3924
2026-01-02 06:32:30.99	320.84	24.41	-23.0	-23.8	18.1	1.64e-03	0	44	0	1974468608	5	3941
2026-01-02 06:32:31.99	320.55	24.43	-23.0	-23.7	18.1	1.56e-03	0	44	0	1981808640	5	3916
2026-01-02 06:32:33.00	320.27	24.45	-23.0	-23.8	18.1	7.43e-04	0	43	0	1989148672	5	3938
2026-01-02 06:32:34.00	319.98	24.47	-23.2	-23.7	17.9	1.44e-03	0	43	0	1996488704	6	3806
2026-01-02 06:32:35.00	319.69	24.48	-23.3	-23.8	17.8	1.48e-03	0	43	0	2003828736	6	3832
2026-01-02 06:32:36.00	319.41	24.50	-23.3	-23.8	17.8	3.84e-04	0	43	0	2010120192	6	3836
2026-01-02 06:32:37.01	319.12	24.51	-23.3	-23.9	17.8	1.64e-03	0	44	0	2017460224	6	3850
2026-01-02 06:32:38.01	318.83	24.53	-23.1	-23.5	18.0	7.59e-04	0	43	0	2024800256	6	3768
2026-01-02 06:32:39.02	318.54	24.54	-23.1	-23.4	18.1	6.64e-04	0	43	0	2032140288	6	3737
2026-01-02 06:32:40.02	318.25	24.55	-23.2	-23.6	17.9	1.79e-03	0	43	0	2039480320	6	3792
2026-01-02 06:32:41.02	317.96	24.57	-23.0	-23.2	18.1	1.82e-03	0	44	0	2046820352	6	3696
2026-01-02 06:32:42.03	317.67	24.58	-23.3	-23.9	17.8	6.61e-04	0	43	0	2054160384	6	3851
2026-01-02 06:32:43.03	317.38	24.59	-23.0	-23.3	18.1	0.00e+00	0	43	0	2061500416	6	3706
2026-01-02 06:32:44.04	317.09	24.60	-22.8	-23.3	18.4	1.79e-03	0	44	0	2068840448	5	3807
2026-01-02 06:32:45.04	316.80	24.60	-23.1	-23.9	18.0	0.00e+00	0	43	0	2076180480	5	3957
2026-01-02 06:32:46.05	316.51	24.61	-22.9	-23.5	18.2	1.74e-03	0	44	0	2083520512	5	3874
2026-01-02 06:32:47.05	316.22	24.62	-23.2	-23.7	17.9	0.00e+00	0	43	0	2090860544	6	3804
2026-01-02 06:32:48.06	315.93	24.63	-23.4	-24.1	17.7	0.00e+00	0	43	0	2097152000	6	3899
2026-01-02 06:32:49.07	315.63	24.63	-23.4	-24.0	17.7	1.88e-03	0	43	0	2104492032	6	3872
2026-01-02 06:32:50.07	315.34	24.64	-23.6	-24.4	17.5	0.00e+00	0	43	0	2111832064	6	3967
2026-01-02 06:32:51.07	315.05	24.64	-23.5	-24.2	17.6	0.00e+00	0	43	0	2119172096	6	3928
2026-01-02 06:32:52.07	314.76	24.64	-23.4	-24.2	17.6	0.00e+00	0	43	0	2126512128	6	3914
2026-01-02 06:32:53.07	314.47	24.64	-23.5	-24.3	17.6	0.00e+00	0	44	0	2133852160	6	3947
2026-01-02 06:32:54.08	314.18	24.65	-23.8	-24.3	17.3	3.54e-05	0	44	0	2141192192	7	3844
2026-01-02 06:32:55.08	313.89	24.65	-24.2	-24.9	16.8	0.00e+00	0	44	0	2148532224	8	3866
2026-01-02 06:32:56.08	313.60	24.65	-23.7	-24.2	17.4	0.00e+00	0	44	0	2154823680	7	3818
2026-01-02 06:32:57.09	313.31	24.65	-23.3	-23.4	17.8	0.00e+00	0	43	0	2163212288	7	3641
2026-01-02 06:32:58.08	313.02	24.64	-23.1	-23.5	18.0	0.00e+00	0	43	0	2170552320	6	3764
2026-01-02 06:32:59.09	312.73	24.64	-23.3	-23.9	17.8	0.00e+00	0	43	0	2176843776	6	3847
2026-01-02 06:33:00.09	312.44	24.64	-23.3	-23.9	17.8	0.00e+00	0	43	0	2184183808	6	3858
2026-01-02 06:33:01.09	312.15	24.63	-23.4	-24.1	17.7	0.00e+00	0	43	0	2191523840	6	3898
2026-01-02 06:33:02.10	311.86	24.63	-23.3	-23.9	17.8	0.00e+00	0	43	0	2198863872	6	3843
2026-01-02 06:33:03.10	311.57	24.62	-23.3	-23.9	17.8	0.00e+00	0	43	0	2206203904	6	3857
2026-01-02 06:33:04.10	311.28	24.62	-23.2	-23.7	17.9	0.00e+00	0	43	0	2213543936	6	3794
2026-01-02 06:33:05.11	310.99	24.61	-23.3	-23.9	17.8	0.00e+00	0	43	0	2220883968	6	3855
2026-01-02 06:33:06.11	310.70	24.60	-23.2	-23.7	17.9	0.00e+00	0	43	0	2228224000	6	3813
2026-01-02 06:33:07.11	310.41	24.59	-23.5	-24.3	17.6	0.00e+00	0	43	0	2235564032	6	3951
2026-01-02 06:33:08.12	310.12	24.58	-23.2	-23.7	17.9	0.00e+00	0	43	0	2241855488	6	3800
2026-01-02 06:33:09.12	309.83	24.57	-23.0	-23.3	18.1	0.00e+00	0	43	0	2249195520	6	3718
2026-01-02 06:33:10.12	309.54	24.56	-22.9	-23.1	18.2	0.00e+00	0	44	0	2256535552	6	3664
2026-01-02 06:33:11.12	309.25	24.55	-23.0	-23.2	18.2	0.00e+00	0	44	0	2263875584	6	3694
2026-01-02 06:33:12.12	308.96	24.53	-23.0	-23.2	18.2	0.00e+00	0	43	0	2271215616	6	3685
2026-01-02 06:33:13.12	308.67	24.52	-23.0	-23.2	18.2	0.00e+00	0	43	0	2278555648	6	3691
2026-01-02 06:33:14.13	308.38	24.51	-23.1	-23.4	18.1	0.00e+00	0	43	0	2285895680	6	3735
2026-01-02 06:33:15.13	308.10	24.49	-22.9	-23.6	18.2	0.00e+00	0	43	0	2293235712	5	3886
2026-01-02 06:33:16.13	307.81	24.48	-23.0	-23.8	18.1	0.00e+00	0	43	0	2300575744	5	3934
2026-01-02 06:33:17.13	307.52	24.46	-22.8	-23.3	18.3	0.00e+00	0	44	0	2306867200	5	3825
2026-01-02 06:33:18.14	307.23	24.44	-22.8	-23.3	18.4	0.00e+00	0	43	0	2315255808	5	3810
2026-01-02 06:33:19.14	306.95	24.42	-22.7	-23.2	18.4	0.00e+00	0	44	0	2322595840	5	3786
2026-01-02 06:33:20.15	306.66	24.40	-22.8	-23.3	18.4	0.00e+00	0	44	0	2328887296	5	3808
2026-01-02 06:33:21.15	306.37	24.38	-22.8	-23.4	18.3	0.00e+00	0	44	0	2336227328	5	3831
2026-01-02 06:33:22.16	306.09	24.36	-22.8	-23.2	18.4	0.00e+00	0	43	0	2343567360	5	3799
2026-01-02 06:33:23.16	305.80	24.34	-22.8	-23.3	18.4	0.00e+00	0	43	0	2350907392	5	3815
2026-01-02 06:33:24.16	305.52	24.32	-22.8	-23.2	18.4	0.00e+00	0	44	0	2358247424	5	3804
2026-01-02 06:33:25.17	305.23	24.30	-23.0	-23.6	18.2	0.00e+00	0	43	0	2365587456	5	3894
2026-01-02 06:33:26.17	304.95	24.27	-22.9	-23.4	18.3	0.00e+00	0	43	0	2372927488	5	3851
2026-01-02 06:33:27.17	304.66	24.25	-22.9	-23.5	18.2	0.00e+00	0	44	0	2380267520	5	3856
2026-01-02 06:33:28.17	304.38	24.22	-23.0	-23.7	18.2	0.00e+00	0	43	0	2386558976	5	3905
2026-01-02 06:33:29.17	304.10	24.20	-23.1	-23.9	18.0	0.00e+00	0	43	0	2393899008	5	3958
2026-01-02 06:33:30.17	303.82	24.17	-23.2	-23.6	17.9	0.00e+00	0	43	0	2401239040	6	3779
2026-01-02 06:33:31.18	303.53	24.14	-22.9	-23.0	18.2	0.00e+00	0	44	0	2408579072	6	3654
2026-01-02 06:33:32.19	303.25	24.11	-23.0	-23.8	18.1	0.00e+00	0	43	0	2415919104	5	3929
2026-01-02 06:33:33.20	302.97	24.09	-23.1	-23.5	18.0	0.00e+00	0	43	0	2423259136	6	3755
2026-01-02 06:33:34.19	302.69	24.06	-23.2	-23.7	17.9	0.00e+00	0	43	0	2430599168	6	3816
2026-01-02 06:33:35.19	302.41	24.03	-23.1	-23.4	18.1	0.00e+00	0	44	0	2437939200	6	3734
2026-01-02 06:33:36.19	302.13	24.00	-23.6	-24.1	17.4	0.00e+00	0	44	0	2445279232	7	3784
2026-01-02 06:33:37.19	301.85	23.96	-23.3	-23.4	17.8	0.00e+00	0	44	0	2452619264	7	3646
2026-01-02 06:33:38.18	301.58	23.93	-23.2	-23.8	17.9	0.00e+00	0	43	0	2459959296	6	3816
2026-01-02 06:33:39.19	301.30	23.90	-23.6	-24.5	17.5	0.00e+00	0	43	0	2467299328	6	3990
2026-01-02 06:33:40.18	301.03	23.87	-23.3	-23.4	17.8	0.00e+00	0	43	0	2473590784	7	3640
2026-01-02 06:33:41.18	300.75	23.83	-23.6	-23.9	17.5	0.00e+00	0	43	0	2480930816	7	3753
2026-01-02 06:33:42.18	300.47	23.80	-23.4	-23.6	17.7	0.00e+00	0	44	0	2488270848	7	3676
2026-01-02 06:33:43.18	300.20	23.76	-23.1	-23.5	18.0	0.00e+00	0	43	0	2495610880	6	3763
2026-01-02 06:33:44.18	299.93	23.72	-23.3	-23.9	17.8	0.00e+00	0	44	0	2502950912	6	3842
2026-01-02 06:33:45.19	299.65	23.69	-23.2	-23.7	17.9	0.00e+00	0	44	0	2510290944	6	3796
2026-01-02 06:33:46.19	299.38	23.65	-23.6	-24.4	17.5	0.00e+00	0	44	0	2517630976	6	3971
2026-01-02 06:33:47.19	299.11	23.61	-23.1	-23.5	18.0	0.00e+00	0	44	0	2524971008	6	3767
2026-01-02 06:33:48.19	298.83	23.57	-23.0	-23.1	18.1	0.00e+00	0	44	0	2532311040	6	3680
2026-01-02 06:33:49.19	298.56	23.53	-22.9	-23.0	18.3	0.00e+00	0	44	0	2538602496	6	3645
2026-01-02 06:33:50.19	298.29	23.49	-22.9	-23.0	18.2	0.00e+00	0	43	0	2545942528	6	3662
2026-01-02 06:33:51.20	298.02	23.45	-23.1	-23.4	18.0	0.00e+00	0	43	0	2553282560	6	3738
2026-01-02 06:33:52.20	297.75	23.41	-23.2	-23.6	17.9	0.00e+00	0	44	0	2560622592	6	3786
2026-01-02 06:33:53.20	297.49	23.37	-23.0	-23.2	18.1	0.00e+00	0	44	0	2567962624	6	3694
2026-01-02 06:33:54.21	297.22	23.33	-22.9	-22.9	18.3	0.00e+00	0	43	0	2575302656	6	3630
2026-01-02 06:33:55.22	296.95	23.28	-22.9	-23.1	18.2	0.00e+00	0	43	0	2582642688	6	3671
2026-01-02 06:33:56.22	296.68	23.24	-23.0	-23.1	18.2	0.00e+00	0	44	0	2589982720	6	3675
2026-01-02 06:33:57.22	296.42	23.19	-22.9	-23.1	18.2	0.00e+00	0	43	0	2596274176	6	3663
2026-01-02 06:33:58.22	296.15	23.15	-22.9	-23.0	18.2	0.00e+00	0	43	0	2603614208	6	3652
2026-01-02 06:33:59.23	295.89	23.10	-22.9	-23.1	18.2	0.00e+00	0	43	0	2610954240	6	3675
2026-01-02 06:34:00.23	295.62	23.06	-22.9	-23.0	18.2	0.00e+00	0	43	0	2618294272	6	3644
2026-01-02 06:34:01.23	295.36	23.01	-23.0	-23.7	18.1	0.00e+00	0	43	0	2625634304	5	3907
2026-01-02 06:34:02.24	295.10	22.96	-22.9	-23.5	18.0	0.00e+00	0	44	0	2632974336	5	3861
2026-01-02 06:34:03.25	294.84	22.91	-22.9	-23.5	18.2	0.00e+00	0	43	0	2640314368	5	3860
2026-01-02 06:34:04.25	294.58	22.87	-22.9	-23.5	18.2	0.00e+00	0	43	0	2647654400	5	3866
2026-01-02 06:34:05.26	294.32	22.82	-23.3	-23.8	17.8	0.00e+00	0	43	0	2654994432	6	3822
2026-01-02 06:34:06.26	294.06	22.77	-23.1	-23.5	17.9	0.00e+00	0	43	0	2662334464	6	3759
2026-01-02 06:34:07.27	293.80	22.72	-23.2	-23.7	17.8	0.00e+00	0	43	0	2669674496	6	3816
2026-01-02 06:34:08.27	293.54	22.67	-23.2	-23.6	17.9	0.00e+00	0	43	0	2677014528	6	3776
2026-01-02 06:34:09.28	293.28	22.61	-23.1	-23.5	16.1	0.00e+00	0	43	0	2683305984	6	3767
2026-01-02 06:34:10.29	293.03	22.56	-23.1	-23.5	17.9	0.00e+00	0	43	0	2691694592	6	3749
2026-01-02 06:34:11.30	292.77	22.51	-22.9	-23.0	18.1	0.00e+00	0	43	0	2699034624	6	3656
2026-01-02 06:34:12.30	292.52	22.46	-22.9	-23.1	18.1	0.00e+00	0	44	0	2705326080	6	3662
2026-01-02 06:34:13.31	292.26	22.40	-23.1	-23.4	18.0	7.75e-04	0	43	0	2712666112	6	3725
2026-01-02 06:34:14.31	292.01	22.35	-23.0	-23.3	18.1	0.00e+00	0	43	0	2720006144	6	3709
2026-01-02 06:34:15.31	291.76	22.30	-23.2	-23.6	17.9	0.00e+00	0	43	0	2727346176	6	3779
2026-01-02 06:34:16.31	291.51	22.24	-23.2	-23.8	17.8	1.40e-03	0	44	0	2734686208	6	3819
2026-01-02 06:34:17.32	291.26	22.19	-23.4	-24.1	17.6	0.00e+00	0	43	0	2742026240	6	3908
2026-01-02 06:34:18.33	291.01	22.13	-23.3	-23.9	17.7	1.27e-03	0	43	0	2749366272	6	3850
2026-01-02 06:34:19.33	290.77	22.08	-23.3	-23.9	17.7	0.00e+00	0	43	0	2756706304	6	3853
2026-01-02 06:34:20.34	290.52	22.02	-23.3	-23.8	17.8	0.00e+00	0	43	0	2764046336	6	3827
2026-01-02 06:34:21.34	290.27	21.96	-23.1	-23.5	17.9	9.33e-04	0	43	0	2771386368	6	3749
2026-01-02 06:34:22.35	290.03	21.90	-23.1	-23.4	17.9	0.00e+00	0	43	0	2778726400	6	3740
2026-01-02 06:34:23.35	289.78	21.85	-23.1	-23.5	17.9	0.00e+00	0	43	0	2785017856	6	3762
2026-01-02 06:34:24.36	289.54	21.79	-22.9	-23.0	18.2	9.37e-04	0	43	0	2792357888	6	3652
2026-01-02 06:34:25.36	289.30	21.73	-22.9	-23.0	18.1	9.11e-04	0	43	0	2799697920	6	3655
2026-01-02 06:34:26.36	289.06	21.67	-22.9	-22.9	18.2	0.00e+00	0	43	0	2807037952	6	3632
2026-01-02 06:34:27.37	288.82	21.61	-22.9	-23.1	18.1	0.00e+00	0	44	0	2814377984	6	3667
2026-01-02 06:34:28.37	288.58	21.55	-23.1	-23.5	17.9	2.68e-04	0	43	0	2821718016	6	3750
2026-01-02 06:34:29.37	288.34	21.49	-23.0	-23.2	18.1	0.00e+00	0	43	0	2829058048	6	3693
2026-01-02 06:34:30.38	288.10	21.43	-23.0	-23.2	18.0	8.64e-04	0	43	0	2836398080	6	3689
2026-01-02 06:34:31.38	287.87	21.37	-23.1	-23.5	17.9	8.50e-04	0	44	0	2843738112	6	3759
2026-01-02 06:34:32.39	287.63	21.31	-23.1	-23.5	17.9	0.00e+00	0	43	0	2851078144	6	3762
2026-01-02 06:34:33.39	287.40	21.25	-23.2	-23.8	17.7	8.16e-04	0	43	0	2858418176	6	3816
2026-01-02 06:34:34.39	287.16	21.19	-23.2	-23.7	17.8	0.00e+00	0	43	0	2865758208	6	3815
2026-01-02 06:34:35.39	286.93	21.12	-23.2	-23.7	17.7	0.00e+00	0	43	0	2872049664	6	3819
2026-01-02 06:34:36.40	286.70	21.06	-23.1	-23.5	17.9	4.03e-04	0	44	0	2879389696	6	3763
2026-01-02 06:34:37.40	286.47	21.00	-23.1	-23.5	17.8	0.00e+00	0	43	0	2886729728	6	3758
2026-01-02 06:34:38.41	286.24	20.93	-23.1	-23.5	17.9	0.00e+00	0	43	0	2894069760	6	3767
2026-01-02 06:34:39.41	286.01	20.87	-23.2	-23.6	17.8	0.00e+00	0	44	0	2901409792	6	3789
2026-01-02 06:34:40.42	285.78	20.81	-23.4	-24.0	17.6	8.92e-05	0	43	0	2908749824	6	3883
2026-01-02 06:34:41.43	285.55	20.74	-23.1	-23.4	17.9	0.00e+00	0	43	0	2916089856	6	3734
2026-01-02 06:34:42.43	285.33	20.68	-23.0	-23.3	18.0	0.00e+00	0	44	0	2923429888	6	3722
2026-01-02 06:34:43.43	285.10	20.61	-23.1	-23.4	17.9	5.37e-05	0	43	0	2930769920	6	3738
2026-01-02 06:34:44.42	284.88	20.55	-23.1	-23.5	17.9	0.00e+00	0	43	0	2937061376	6	3753
2026-01-02 06:34:45.43	284.66	20.48	-23.2	-23.6	17.8	0.00e+00	0	44	0	2944401408	6	3788
2026-01-02 06:34:46.43	284.43	20.42	-23.2	-23.6	17.8	1.11e-03	0	43	0	2951741440	6	3793
2026-01-02 06:34:47.43	284.21	20.35	-23.3	-23.9	17.7	0.00e+00	0	44	0	2959081472	6	3844
2026-01-02 06:34:48.44	283.99	20.29	-23.4	-24.0	17.6	1.26e-03	0	44	0	2966421504	6	3886
2026-01-02 06:34:49.44	283.77	20.22	-23.4	-24.0	17.6	0.00e+00	0	43	0	2973761536	6	3887
2026-01-02 06:34:50.44	283.56	20.15	-23.4	-24.2	17.5	0.00e+00	0	43	0	2981101568	6	3920
2026-01-02 06:34:51.44	283.34	20.09	-23.4	-24.1	17.6	0.00e+00	0	43	0	2988441600	6	3889
2026-01-02 06:34:52.45	283.12	20.02	-23.5	-24.3	17.4	0.00e+00	0	44	0	2995781632	6	3951
2026-01-02 06:34:53.45	282.91	19.95	-23.5	-24.2	17.5	0.00e+00	0	44	0	3003121664	6	3929
2026-01-02 06:34:54.46	282.69	19.88	-23.5	-23.8	17.5	0.00e+00	0	43	0	3010461696	7	3715
2026-01-02 06:34:55.47	282.48	19.81	-23.4	-23.6	17.5	0.00e+00	0	44	0	3016753152	7	3684
2026-01-02 06:34:56.48	282.26	19.74	-23.4	-23.6	17.5	0.00e+00	0	44	0	3024093184	7	3692
2026-01-02 06:34:57.48	282.05	19.68	-23.4	-23.6	17.5	0.00e+00	0	44	0	3032481792	7	3693
2026-01-02 06:34:58.49	281.84	19.61	-23.3	-23.4	17.6	0.00e+00	0	44	0	3038773248	7	3642
2026-01-02 06:34:59.50	281.63	19.54	-23.3	-23.4	17.6	0.00e+00	0	43	0	3046113280	7	3632
2026-01-02 06:35:00.49	281.42	19.47	-23.4	-23.6	17.6	0.00e+00	0	43	0	3053453312	7	3675
2026-01-02 06:35:01.50	281.21	19.40	-23.5	-23.7	17.5	0.00e+00	0	44	0	3060793344	7	3714
2026-01-02 06:35:02.50	281.01	19.33	-23.5	-23.7	17.4	0.00e+00	0	43	0	3068133376	7	3714
2026-01-02 06:35:03.51	280.80	19.26	-23.5	-23.9	17.3	0.00e+00	0	43	0	3075473408	7	3751
2026-01-02 06:35:04.50	280.60	19.19	-23.6	-24.0	17.3	0.00e+00	0	44	0	3082813440	7	3769
2026-01-02 06:35:05.51	280.39	19.12	-23.5	-23.9	17.4	0.00e+00	0	44	0	3090153472	7	3740
2026-01-02 06:35:06.51	280.19	19.05	-23.7	-24.2	17.2	0.00e+00	0	43	0	3097493504	7	3820
2026-01-02 06:35:07.52	279.99	18.98	-23.6	-24.1	17.2	0.00e+00	0	44	0	3103784960	7	3788
2026-01-02 06:35:08.52	279.79	18.91	-23.8	-24.4	17.0	0.00e+00	0	44	0	3111124992	7	3877
2026-01-02 06:35:09.52	279.59	18.84	-23.8	-24.4	17.1	0.00e+00	0	44	0	3118465024	7	3859
2026-01-02 06:35:10.53	279.39	18.77	-23.7	-24.2	17.1	0.00e+00	0	43	0	3125805056	7	3824
2026-01-02 06:35:11.53	279.19	18.70	-23.7	-24.3	17.1	0.00e+00	0	43	0	3133145088	7	3834
2026-01-02 06:35:12.54	278.99	18.62	-23.8	-24.5	17.0	0.00e+00	0	44	0	3140485120	7	3887
2026-01-02 06:35:13.54	278.79	18.55	-23.8	-24.4	17.1	0.00e+00	0	44	0	3147825152	7	3867
2026-01-02 06:35:14.55	278.60	18.48	-23.7	-24.2	17.2	0.00e+00	0	44	0	3155165184	7	3819
2026-01-02 06:35:15.56	278.40	18.41	-23.8	-24.5	17.0	0.00e+00	0	44	0	3162505216	7	3894
2026-01-02 06:35:16.56	278.21	18.34	-23.9	-24.6	16.9	0.00e+00	0	43	0	3169845248	7	3916
2026-01-02 06:35:17.57	278.01	18.27	-23.8	-24.5	17.0	0.00e+00	0	44	0	3177185280	7	3901
2026-01-02 06:35:18.57	277.82	18.19	-24.0	-24.9	16.7	0.00e+00	0	44	0	3183476736	7	3983
2026-01-02 06:35:19.57	277.63	18.12	-24.2	-24.8	16.6	0.00e+00	0	43	0	3190816768	8	3868
2026-01-02 06:35:20.57	277.44	18.05	-24.4	-25.2	16.4	0.00e+00	0	43	0	3198156800	8	3949
2026-01-02 06:35:21.58	277.25	17.98	-24.6	-25.1	16.2	0.00e+00	0	43	0	3205496832	9	3826
2026-01-02 06:35:22.59	277.06	17.90	-24.4	-25.2	16.4	0.00e+00	0	44	0	3212836864	8	3957
2026-01-02 06:35:23.59	276.88	17.83	-24.7	-25.3	16.1	0.00e+00	0	44	0	3220176896	9	3870
2026-01-02 06:35:24.59	276.69	17.76	-24.7	-25.5	16.0	0.00e+00	0	43	0	3227516928	9	3918
2026-01-02 06:35:25.60	276.50	17.68	-24.7	-25.4	16.0	0.00e+00	0	44	0	3234856960	9	3892
2026-01-02 06:35:26.60	276.32	17.61	-25.0	-26.0	15.7	0.00e+00	0	44	0	3242196992	9	4051
2026-01-02 06:35:27.60	276.14	17.54	-24.7	-24.9	16.1	0.00e+00	0	44	0	3249537024	10	3664
2026-01-02 06:35:28.61	275.95	17.47	-24.3	-24.4	16.5	0.00e+00	0	43	0	3256877056	9	3662
2026-01-02 06:35:29.61	275.77	17.39	-24.1	-24.1	16.7	0.00e+00	0	43	0	3264217088	9	3592
2026-01-02 06:35:30.62	275.59	17.32	-24.0	-24.3	16.8	0.00e+00	0	43	0	3270508544	8	3748
2026-01-02 06:35:31.62	275.41	17.25	-23.9	-24.2	16.8	0.00e+00	0	43	0	3277848576	8	3723
2026-01-02 06:35:32.63	275.23	17.17	-24.0	-24.3	16.8	0.00e+00	0	43	0	3285188608	8	3749
2026-01-02 06:35:33.64	275.05	17.10	-24.0	-24.5	16.7	0.00e+00	0	43	0	3292528640	8	3781
2026-01-02 06:35:34.64	274.87	17.02	-24.2	-24.8	16.6	0.00e+00	0	43	0	3299868672	8	3862
2026-01-02 06:35:35.64	274.70	16.95	-24.2	-24.9	16.5	0.00e+00	0	44	0	3307208704	8	3877
2026-01-02 06:35:36.65	274.52	16.88	-24.2	-24.9	16.5	0.00e+00	0	43	0	3314548736	8	3880
2026-01-02 06:35:37.65	274.34	16.80	-24.4	-25.1	16.4	0.00e+00	0	43	0	3321888768	8	3939
2026-01-02 06:35:38.65	274.17	16.73	-24.4	-25.2	16.3	0.00e+00	0	44	0	3329228800	8	3940
2026-01-02 06:35:39.66	274.00	16.66	-24.4	-25.2	16.3	0.00e+00	0	44	0	3336568832	8	3953
2026-01-02 06:35:40.66	273.82	16.58	-24.4	-25.2	16.3	0.00e+00	0	43	0	3343908864	8	3949
2026-01-02 06:35:41.66	273.65	16.51	-24.6	-25.6	16.1	0.00e+00	0	44	0	3351248896	8	4052
2026-01-02 06:35:42.66	273.48	16.44	-24.8	-25.7	15.8	0.00e+00	0	43	0	3357540352	9	3963
2026-01-02 06:35:43.66	273.31	16.36	-24.7	-25.5	15.9	0.00e+00	0	44	0	3364880384	9	3906
2026-01-02 06:35:44.67	273.14	16.29	-24.8	-25.5	15.9	0.00e+00	0	44	0	3372220416	9	3919
2026-01-02 06:35:45.67	272.98	16.21	-24.7	-25.4	16.0	0.00e+00	0	44	0	3379560448	9	3889
2026-01-02 06:35:46.68	272.81	16.14	-24.8	-25.5	15.9	0.00e+00	0	44	0	3386900480	9	3924
2026-01-02 06:35:47.69	272.64	16.06	-24.7	-25.4	15.9	0.00e+00	0	44	0	3394240512	9	3893
2026-01-02 06:35:48.69	272.48	15.99	-24.6	-25.2	16.1	0.00e+00	0	43	0	3401580544	9	3835
2026-01-02 06:35:49.70	272.31	15.92	-24.6	-25.1	16.1	0.00e+00	0	44	0	3408920576	9	3815
2026-01-02 06:35:50.70	272.15	15.84	-24.5	-24.8	16.2	1.40e-03	0	43	0	3416260608	9	3765
2026-01-02 06:35:51.71	271.98	15.77	-24.3	-25.1	16.4	0.00e+00	0	44	0	3423600640	8	3923
2026-01-02 06:35:52.71	271.82	15.69	-24.4	-25.2	16.3	0.00e+00	0	44	0	3430940672	8	3943
2026-01-02 06:35:53.71	271.66	15.62	-24.5	-25.4	16.2	0.00e+00	0	43	0	3437232128	8	4002
2026-01-02 06:35:54.72	271.50	15.54	-24.5	-25.4	16.2	0.00e+00	0	44	0	3444572160	8	4001
2026-01-02 06:35:55.72	271.34	15.47	-24.5	-25.4	16.2	2.20e-06	0	43	0	3451912192	8	4004
2026-01-02 06:35:56.73	271.18	15.40	-24.6	-25.1	16.1	0.00e+00	0	43	0	3459252224	9	3823
2026-01-02 06:35:57.73	271.02	15.32	-24.6	-25.3	16.0	1.90e-03	0	43	0	3466592256	9	3870
2026-01-02 06:35:58.73	270.86	15.25	-24.7	-25.4	15.9	0.00e+00	0	43	0	3473932288	9	3899
2026-01-02 06:35:59.73	270.71	15.17	-24.8	-25.6	15.8	0.00e+00	0	44	0	3481272320	9	3936
2026-01-02 06:36:00.74	270.55	15.10	-24.9	-25.4	15.7	1.97e-03	0	43	0	3488612352	10	3795
2026-01-02 06:36:01.74	270.40	15.03	-24.7	-25.4	15.9	0.00e+00	0	43	0	3495952384	9	3910
2026-01-02 06:36:02.75	270.24	14.95	-24.8	-25.5	15.8	2.06e-03	0	43	0	3503292416	9	3934
2026-01-02 06:36:03.75	270.09	14.88	-24.9	-25.7	15.7	2.32e-03	0	44	0	3510632448	9	3969
2026-01-02 06:36:04.76	269.93	14.80	-24.8	-25.7	15.7	3.64e-04	0	43	0	3517972480	9	3968
2026-01-02 06:36:05.76	269.78	14.73	-24.8	-25.6	15.8	2.39e-03	0	44	0	3524263936	9	3935
2026-01-02 06:36:06.77	269.63	14.65	-24.8	-25.7	15.7	0.00e+00	0	43	0	3531603968	9	3958
2026-01-02 06:36:07.77	269.48	14.58	-25.0	-26.0	15.5	3.02e-04	0	44	0	3538944000	9	4049
2026-01-02 06:36:08.78	269.33	14.51	-25.0	-26.0	15.5	2.19e-03	0	44	0	3546284032	9	4049
2026-01-02 06:36:09.79	269.18	14.43	-25.1	-26.2	15.4	2.13e-03	0	43	0	3553624064	9	4091
2026-01-02 06:36:10.78	269.03	14.36	-25.1	-25.7	15.4	3.63e-04	0	43	0	3560964096	10	3862
2026-01-02 06:36:11.79	268.88	14.28	-25.2	-25.9	15.3	0.00e+00	0	43	0	3568304128	10	3929
2026-01-02 06:36:12.79	268.74	14.21	-25.2	-26.0	15.3	2.30e-03	0	44	0	3575644160	10	3940
2026-01-02 06:36:13.80	268.59	14.14	-25.1	-25.8	15.4	8.22e-04	0	43	0	3582984192	10	3881
2026-01-02 06:36:14.80	268.45	14.06	-25.1	-25.7	15.4	2.19e-03	0	43	0	3590324224	10	3881
2026-01-02 06:36:15.81	268.30	13.99	-25.1	-25.7	15.4	2.19e-03	0	43	0	3597664256	10	3864
2026-01-02 06:36:16.81	268.16	13.92	-25.3	-26.2	15.1	0.00e+00	0	44	0	3603955712	10	3987
2026-01-02 06:36:17.81	268.02	13.84	-25.1	-25.9	15.3	2.13e-03	0	43	0	3611295744	10	3906
2026-01-02 06:36:18.82	267.87	13.77	-25.0	-25.5	15.5	1.87e-03	0	44	0	3618635776	10	3830
2026-01-02 06:36:19.83	267.73	13.69	-25.0	-26.1	15.5	0.00e+00	0	43	0	3625975808	9	4064
2026-01-02 06:36:20.83	267.59	13.62	-25.1	-26.2	15.4	1.93e-03	0	44	0	3633315840	9	4087
2026-01-02 06:36:21.83	267.45	13.55	-25.0	-26.0	15.5	2.20e-06	0	44	0	3640655872	9	4034
2026-01-02 06:36:22.83	267.31	13.47	-25.0	-26.0	15.5	2.17e-05	0	44	0	3647995904	9	4042
2026-01-02 06:36:23.84	267.17	13.40	-25.0	-26.0	15.5	0.00e+00	0	44	0	3655335936	9	4038
2026-01-02 06:36:24.85	267.03	13.33	-25.0	-25.9	15.5	5.70e-06	0	44	0	3662675968	9	4031
2026-01-02 06:36:25.85	266.89	13.25	-25.1	-25.8	15.3	0.00e+00	0	44	0	3670016000	10	3905
2026-01-02 06:36:26.86	266.76	13.18	-25.3	-26.2	15.1	0.00e+00	0	43	0	3677356032	10	3990
2026-01-02 06:36:27.86	266.62	13.11	-25.2	-25.9	15.3	2.08e-03	0	44	0	3684696064	10	3919
2026-01-02 06:36:28.87	266.49	13.03	-25.2	-26.0	15.2	0.00e+00	0	44	0	3690987520	10	3952
2026-01-02 06:36:29.87	266.35	12.96	-25.2	-26.0	15.2	0.00e+00	0	44	0	3698327552	10	3937
2026-01-02 06:36:30.87	266.22	12.89	-25.4	-26.4	15.0	3.40e-06	0	44	0	3705667584	10	4031
2026-01-02 06:36:31.87	266.08	12.82	-25.3	-26.2	15.1	0.00e+00	0	44	0	3713007616	10	3992
2026-01-02 06:36:32.87	265.95	12.74	-25.4	-26.4	15.0	0.00e+00	0	43	0	3720347648	10	4039
2026-01-02 06:36:33.87	265.82	12.67	-25.4	-26.3	15.0	0.00e+00	0	44	0	3727687680	10	4024
2026-01-02 06:36:34.88	265.69	12.60	-25.4	-26.5	14.9	0.00e+00	0	44	0	3735027712	10	4076
2026-01-02 06:36:35.88	265.56	12.52	-25.7	-26.5	14.6	1.10e-06	0	44	0	3742367744	11	3975
2026-01-02 06:36:36.88	265.43	12.45	-25.8	-26.8	14.5	1.10e-06	0	44	0	3749707776	11	4035
2026-01-02 06:36:37.88	265.30	12.38	-25.8	-26.7	14.5	0.00e+00	0	44	0	3755999232	11	4028
2026-01-02 06:36:38.89	265.17	12.31	-25.9	-26.9	14.4	0.00e+00	0	44	0	3764387840	11	4077
2026-01-02 06:36:39.89	265.04	12.24	-25.8	-26.8	14.5	0.00e+00	0	44	0	3771727872	11	4047
2026-01-02 06:36:40.90	264.91	12.16	-25.8	-26.9	14.4	1.10e-06	0	44	0	3778019328	11	4063
2026-01-02 06:36:41.90	264.79	12.09	-25.8	-26.8	14.5	0.00e+00	0	44	0	3785359360	11	4035
2026-01-02 06:36:42.90	264.66	12.02	-26.0	-27.4	14.1	0.00e+00	0	44	0	3792699392	11	4193
2026-01-02 06:36:43.90	264.54	11.95	-25.7	-26.6	14.5	0.00e+00	0	44	0	3800039424	11	3996
2026-01-02 06:36:44.91	264.41	11.87	-25.6	-26.4	14.7	0.00e+00	0	44	0	3807379456	11	3929
2026-01-02 06:36:45.91	264.29	11.80	-25.4	-26.5	14.9	2.20e-06	0	44	0	3814719488	10	4063
2026-01-02 06:36:46.91	264.16	11.73	-25.4	-26.4	14.9	0.00e+00	0	44	0	3822059520	10	4050
2026-01-02 06:36:47.91	264.04	11.66	-25.6	-26.3	14.7	1.10e-06	0	44	0	3829399552	11	3916
2026-01-02 06:36:48.91	263.92	11.59	-26.0	-26.9	14.0	1.10e-06	0	44	0	3835691008	12	3964
2026-01-02 06:36:49.92	263.80	11.52	-25.9	-26.5	14.2	1.10e-06	0	44	0	3843031040	12	3865
2026-01-02 06:36:50.92	263.68	11.44	-25.8	-26.8	14.4	1.10e-06	0	44	0	3850371072	11	4041
2026-01-02 06:36:51.92	263.55	11.37	-26.2	-27.2	13.7	2.20e-06	0	44	0	3857711104	12	4055
2026-01-02 06:36:52.92	263.44	11.30	-26.7	-28.0	13.1	2.28e-05	0	44	0	3865051136	13	4149
2026-01-02 06:36:53.93	263.32	11.23	-26.2	-27.3	13.7	3.40e-06	0	44	0	3872391168	12	4075
2026-01-02 06:36:54.94	263.20	11.16	-26.0	-26.9	13.9	3.40e-06	0	44	0	3879731200	12	3968
2026-01-02 06:36:55.95	263.08	11.09	-26.1	-27.0	13.9	6.80e-06	0	44	0	3887071232	12	4005
2026-01-02 06:36:56.95	262.96	11.02	-26.1	-27.0	13.9	2.20e-06	0	44	0	3894411264	12	3991
2026-01-02 06:36:57.95	262.84	10.95	-26.0	-27.3	14.1	1.10e-06	0	43	0	3901751296	11	4173
2026-01-02 06:36:58.95	262.73	10.88	-26.3	-27.4	13.5	1.10e-06	0	44	0	3909091328	12	4111
2026-01-02 06:36:59.95	262.61	10.81	-26.8	-28.1	12.9	1.48e-05	0	44	0	3916431360	13	4194
2026-01-02 06:37:00.96	262.49	10.73	-26.0	-26.2	14.0	1.94e-05	0	44	0	3922722816	13	3704
2026-01-02 06:37:01.96	262.38	10.66	-25.8	-26.4	14.2	0.00e+00	0	44	0	3930062848	12	3850
2026-01-02 06:37:02.96	262.27	10.59	-25.8	-26.8	14.3	1.10e-06	0	44	0	3937402880	11	4054
2026-01-02 06:37:03.97	262.15	10.52	-26.2	-27.3	13.7	2.20e-06	0	44	0	3944742912	12	4078
2026-01-02 06:37:04.97	262.04	10.45	-25.9	-26.6	14.1	3.40e-06	0	43	0	3952082944	12	3891
2026-01-02 06:37:05.98	261.93	10.38	-25.9	-27.0	14.2	2.20e-06	0	44	0	3959422976	11	4104
2026-01-02 06:37:06.98	261.81	10.31	-25.9	-27.1	14.2	0.00e+00	0	44	0	3966763008	11	4131
2026-01-02 06:37:07.99	261.70	10.24	-25.6	-26.3	14.6	0.00e+00	0	44	0	3974103040	11	3915
2026-01-02 06:37:08.99	261.59	10.17	-25.5	-26.2	14.6	1.10e-06	0	44	0	3981443072	11	3906
2026-01-02 06:37:10.00	261.48	10.10	-25.7	-26.5	14.5	1.10e-06	0	43	0	3988783104	11	3977
2026-01-02 06:37:11.01	261.37	10.03	-25.6	-26.4	14.5	2.20e-06	0	44	0	3996123136	11	3934
2026-01-02 06:37:12.01	261.26	9.96	-25.6	-26.4	14.6	0.00e+00	0	44	0	4002414592	11	3940
2026-01-02 06:37:13.02	261.15	9.89	-25.5	-26.7	14.6	0.00e+00	0	44	0	4009754624	10	4132
2026-01-02 06:37:14.02	261.04	9.82	-25.5	-26.6	14.7	1.10e-06	0	44	0	4017094656	10	4102
2026-01-02 06:37:15.02	260.93	9.75	-25.5	-26.7	14.6	0.00e+00	0	44	0	4024434688	10	4118
2026-01-02 06:37:16.02	260.83	9.69	-25.5	-26.7	14.6	0.00e+00	0	44	0	4031774720	10	4120
2026-01-02 06:37:17.03	260.72	9.62	-25.5	-26.7	14.6	0.00e+00	0	44	0	4039114752	10	4119
2026-01-02 06:37:18.04	260.61	9.55	-25.6	-26.4	14.5	0.00e+00	0	44	0	4046454784	11	3945
2026-01-02 06:37:19.04	260.51	9.48	-25.6	-26.4	14.5	1.10e-06	0	44	0	4053794816	11	3939
2026-01-02 06:37:20.05	260.40	9.41	-25.6	-26.5	14.4	0.00e+00	0	44	0	4061134848	11	3971
2026-01-02 06:37:21.05	260.30	9.34	-25.7	-26.6	14.3	0.00e+00	0	44	0	4068474880	11	4007
2026-01-02 06:37:22.04	260.19	9.27	-25.8	-27.0	14.1	0.00e+00	0	44	0	4075814912	11	4093
2026-01-02 06:37:23.04	260.09	9.20	-25.7	-26.7	14.3	0.00e+00	0	44	0	4083154944	11	4021
2026-01-02 06:37:24.05	259.99	9.13	-25.8	-26.9	14.2	3.40e-06	0	44	0	4089446400	11	4075
2026-01-02 06:37:25.06	259.88	9.07	-26.0	-27.2	14.0	2.20e-06	0	44	0	4096786432	11	4155
2026-01-02 06:37:26.06	259.78	9.00	-26.0	-27.0	13.8	3.40e-06	0	44	0	4104126464	12	3994
2026-01-02 06:37:27.07	259.68	8.93	-25.8	-26.7	13.5	5.70e-06	0	44	0	4111466496	12	3992
2026-01-02 06:37:28.08	259.58	8.86	-26.0	-27.3	13.9	1.10e-06	0	44	0	4118806528	11	4197
2026-01-02 06:37:29.08	259.48	8.79	-26.1	-27.5	13.7	3.40e-06	0	44	0	4126146560	11	4254
2026-01-02 06:37:30.09	259.38	8.72	-26.0	-27.3	13.8	4.76e-03	0	44	0	4133486592	11	4193
2026-01-02 06:37:31.09	259.28	8.66	-26.0	-27.0	13.7	4.50e-06	0	44	0	4140826624	12	4000
2026-01-02 06:37:32.09	259.18	8.59	-26.1	-27.2	13.5	3.40e-06	0	44	0	4148166656	12	4062
2026-01-02 06:37:33.10	259.08	8.52	-26.1	-27.2	13.5	9.36e-04	0	43	0	4155506688	12	4062
2026-01-02 06:37:34.11	258.98	8.45	-26.1	-27.2	13.5	8.00e-06	0	44	0	4162846720	12	4048
2026-01-02 06:37:35.12	258.88	8.39	-26.3	-27.6	13.2	5.05e-03	0	44	0	4170186752	12	4184
2026-01-02 06:37:36.11	258.78	8.32	-26.4	-27.7	13.2	1.60e-05	0	44	0	4176478208	12	4189
2026-01-02 06:37:37.12	258.69	8.25	-26.3	-27.6	13.3	1.48e-05	0	43	0	4183818240	12	4168
2026-01-02 06:37:38.12	258.59	8.19	-26.4	-27.8	13.1	4.46e-03	0	44	0	4191158272	12	4228
2026-01-02 06:37:39.13	258.49	8.12	-26.3	-27.5	13.3	2.17e-05	0	44	0	4198498304	12	4153
2026-01-02 06:37:40.13	258.40	8.05	-26.2	-27.3	13.4	5.86e-04	0	44	0	4205838336	12	4097
2026-01-02 06:37:41.13	258.30	7.98	-26.2	-27.3	13.4	1.94e-05	0	44	0	4213178368	12	4099
2026-01-02 06:37:42.14	258.21	7.92	-26.2	-27.3	13.4	4.52e-03	0	43	0	4220518400	12	4081
2026-01-02 06:37:43.15	258.11	7.85	-26.4	-27.7	13.2	5.55e-04	0	44	0	4227858432	12	4191
2026-01-02 06:37:44.15	258.02	7.78	-26.0	-26.9	13.6	3.99e-03	0	44	0	4235198464	12	3987
2026-01-02 06:37:45.16	257.93	7.72	-26.0	-27.4	13.7	3.07e-03	0	44	0	4242538496	11	4214
2026-01-02 06:37:46.16	257.83	7.65	-25.9	-27.1	13.9	5.70e-06	0	44	0	4249878528	11	4129
2026-01-02 06:37:47.17	257.74	7.59	-26.0	-27.3	13.8	2.58e-03	0	44	0	4256169984	11	4198
2026-01-02 06:37:48.17	257.65	7.52	-26.1	-27.1	13.5	1.98e-03	0	44	0	4263510016	12	4030
2026-01-02 06:37:49.18	257.56	7.45	-26.2	-27.3	13.4	5.14e-05	0	44	0	4270850048	12	4098
2026-01-02 06:37:50.17	257.47	7.39	-26.1	-27.5	13.6	1.75e-03	0	44	0	4278190080	11	4247
2026-01-02 06:37:51.18	257.37	7.32	-26.0	-26.9	13.6	2.42e-03	0	43	0	4285530112	12	3992
2026-01-02 06:37:52.18	257.28	7.26	-26.0	-27.0	13.6	5.72e-04	0	43	0	4292870144	12	4002
2026-01-02 06:37:53.18	257.20	7.19	-26.1	-27.1	13.5	3.17e-03	0	43	0	4300210176	12	4035
2026-01-02 06:37:54.18	257.11	7.13	-26.2	-27.3	13.4	3.74e-03	0	44	0	4307550208	12	4099
2026-01-02 06:37:55.19	257.02	7.06	-27.6	-29.6	11.5	1.11e-03	0	44	0	4314890240	14	4540
2026-01-02 06:37:56.19	256.93	6.99	-32.5	-42.3	3.8	8.47e-01	0	44	104	4315938816	24	11207

#Closed at: 2026-01-02 06:37:56
#Recorded file [4315 MB]: D:/data/31010_260102_092757.dat