passes_logs/2026/01/02/R2M6_AANII_01/R2M6_AANII_01__20260102_224024_NOAA_20_JPSS-1_rec.log

#Pass ID: 20260102_224024_NOAA 20 (JPSS-1)
#Satellite: NOAA 20 (JPSS-1)
#Configuration: NOAA 20
#almurnet v.1.7.20240730
#Start time: 2026-01-02 22:40:25

#Version: 2.2.20231116
#Station: R2M6_AANII_01
#Location: 30.233357 lon 59.946436 lat
#TLE: 1 43013U 17073A   26002.21975278  .00000202  00000+0  11669-3 0  9999
#TLE: 2 43013  98.7622 303.2950 0001915  57.9213 302.2149 14.19532512420923

#Time	Az	El	Level	Level2	SNR	BER	BlckErr	Temp	State	Recorded	gain1	gain2
2026-01-02 22:40:25.30	30.68	7.04	-31.1	-37.3	4.9	1.23e+00	0	41	0	0	23	7376
2026-01-02 22:40:26.29	30.77	7.10	-31.6	-39.8	4.5	1.36e+00	0	41	104	0	23	9282
2026-01-02 22:40:27.30	30.87	7.16	-31.5	-39.4	6.0	3.29e-01	0	41	0	0	23	8880
2026-01-02 22:40:28.30	30.97	7.22	-31.5	-39.3	6.0	3.74e-01	0	41	0	1048576	23	8848
2026-01-02 22:40:29.31	31.07	7.28	-31.5	-38.8	6.4	2.85e-01	0	41	0	3145728	23	8356
2026-01-02 22:40:30.31	31.17	7.34	-31.3	-38.0	7.0	2.05e-01	0	41	0	5242880	23	7762
2026-01-02 22:40:31.31	31.27	7.41	-31.2	-37.4	7.5	1.39e-01	0	41	0	7340032	23	7319
2026-01-02 22:40:32.32	31.37	7.47	-31.1	-37.5	7.8	8.87e-02	0	41	0	9437184	22	7487
2026-01-02 22:40:33.32	31.47	7.53	-31.2	-37.7	7.7	1.03e-01	0	41	0	10485760	22	7601
2026-01-02 22:40:34.32	31.57	7.59	-31.1	-37.0	8.2	7.19e-02	0	41	0	12582912	22	7141
2026-01-02 22:40:35.33	31.67	7.66	-30.8	-36.6	8.9	3.39e-02	0	41	0	14680064	21	7000
2026-01-02 22:40:36.32	31.77	7.72	-30.7	-36.1	9.3	2.07e-02	0	41	0	16777216	21	6676
2026-01-02 22:40:37.33	31.88	7.78	-30.6	-35.5	9.9	1.18e-02	0	41	0	17825792	21	6372
2026-01-02 22:40:38.34	31.98	7.84	-30.4	-35.0	10.2	8.81e-03	0	41	0	19922944	21	6104
2026-01-02 22:40:39.34	32.08	7.91	-30.5	-35.3	10.0	6.36e-03	0	41	0	22020096	21	6226
2026-01-02 22:40:40.35	32.19	7.97	-30.6	-35.5	9.9	6.37e-03	0	41	0	24117248	21	6341
2026-01-02 22:40:41.36	32.29	8.03	-30.6	-35.6	9.7	1.11e-02	0	41	0	26214400	21	6394
2026-01-02 22:40:42.36	32.40	8.10	-30.4	-35.0	10.3	5.85e-03	0	41	0	28311552	21	6058
2026-01-02 22:40:43.37	32.50	8.16	-30.2	-34.3	10.7	3.80e-03	0	41	0	29360128	21	5731
2026-01-02 22:40:44.37	32.61	8.22	-30.1	-33.8	11.1	2.36e-03	0	41	0	31457280	21	5510
2026-01-02 22:40:45.38	32.71	8.28	-30.0	-33.4	11.4	1.06e-03	0	41	0	33554432	21	5352
2026-01-02 22:40:46.38	32.82	8.35	-30.0	-33.3	11.5	8.25e-04	0	41	0	35651584	21	5306
2026-01-02 22:40:47.39	32.93	8.41	-30.0	-33.5	11.4	7.85e-04	0	41	0	36700160	21	5368
2026-01-02 22:40:48.39	33.03	8.47	-30.1	-33.6	11.3	1.10e-03	0	41	0	38797312	21	5419
2026-01-02 22:40:49.40	33.14	8.54	-30.0	-33.4	11.5	7.27e-04	0	41	0	40894464	21	5320
2026-01-02 22:40:50.41	33.25	8.60	-29.9	-33.2	11.6	6.60e-04	0	41	0	42991616	21	5246
2026-01-02 22:40:51.41	33.36	8.67	-30.0	-33.4	11.5	7.88e-04	0	41	0	45088768	21	5344
2026-01-02 22:40:52.42	33.47	8.73	-30.0	-33.5	11.4	9.99e-04	0	42	0	46137344	21	5373
2026-01-02 22:40:53.42	33.58	8.79	-29.9	-33.2	11.7	5.17e-04	0	41	0	48234496	21	5234
2026-01-02 22:40:54.42	33.69	8.86	-30.0	-33.4	11.5	7.86e-04	0	41	0	50331648	21	5341
2026-01-02 22:40:55.43	33.80	8.92	-30.0	-33.3	11.6	6.04e-04	0	41	0	52428800	21	5269
2026-01-02 22:40:56.44	33.91	8.99	-30.0	-33.3	11.6	5.99e-04	0	42	0	54525952	21	5296
2026-01-02 22:40:57.44	34.02	9.05	-30.0	-33.4	11.6	8.52e-04	0	42	0	55574528	21	5316
2026-01-02 22:40:58.44	34.13	9.11	-29.9	-33.0	11.9	5.26e-04	0	42	0	57671680	21	5147
2026-01-02 22:40:59.45	34.24	9.18	-29.7	-33.0	12.2	2.57e-04	0	42	0	59768832	20	5256
2026-01-02 22:41:00.45	34.36	9.24	-29.8	-33.2	12.1	2.21e-04	0	42	0	61865984	20	5327
2026-01-02 22:41:01.46	34.47	9.31	-29.8	-33.3	12.0	2.33e-04	0	42	0	63963136	20	5369
2026-01-02 22:41:02.45	34.58	9.37	-29.9	-33.6	11.7	4.10e-04	0	42	0	65011712	20	5510
2026-01-02 22:41:03.46	34.70	9.44	-30.0	-33.9	11.6	6.96e-04	0	42	0	67108864	20	5604
2026-01-02 22:41:04.46	34.81	9.50	-30.0	-33.8	11.7	5.23e-04	0	42	0	69206016	20	5574
2026-01-02 22:41:05.46	34.92	9.56	-30.0	-33.8	11.7	7.34e-04	0	42	0	71303168	20	5573
2026-01-02 22:41:06.47	35.04	9.63	-29.9	-33.5	11.9	4.89e-04	0	42	0	73400320	20	5450
2026-01-02 22:41:07.48	35.16	9.69	-29.9	-33.3	12.1	2.94e-04	0	42	0	74448896	20	5377
2026-01-02 22:41:08.48	35.27	9.76	-29.8	-33.3	12.1	2.66e-04	0	42	0	76546048	20	5343
2026-01-02 22:41:09.48	35.39	9.82	-29.9	-33.5	11.9	2.75e-04	0	42	0	78643200	20	5437
2026-01-02 22:41:10.49	35.51	9.89	-29.9	-33.4	12.0	4.16e-04	0	42	0	80740352	20	5392
2026-01-02 22:41:11.49	35.63	9.95	-29.8	-33.1	12.2	2.41e-04	0	42	0	82837504	20	5291
2026-01-02 22:41:12.50	35.75	10.02	-29.7	-32.8	12.5	1.37e-04	0	42	0	83886080	20	5162
2026-01-02 22:41:13.51	35.86	10.09	-29.7	-33.0	12.3	1.69e-04	0	42	0	85983232	20	5231
2026-01-02 22:41:14.51	35.98	10.15	-29.7	-32.8	12.4	2.27e-04	0	42	0	88080384	20	5161
2026-01-02 22:41:15.51	36.10	10.22	-29.9	-33.3	12.1	2.30e-04	0	42	0	90177536	20	5369
2026-01-02 22:41:16.51	36.22	10.28	-29.8	-33.2	12.2	2.70e-04	0	42	0	92274688	20	5334
2026-01-02 22:41:17.51	36.34	10.35	-29.8	-33.0	12.4	1.63e-04	0	42	0	93323264	20	5243
2026-01-02 22:41:18.52	36.47	10.41	-29.8	-33.0	12.3	1.69e-04	0	42	0	95420416	20	5232
2026-01-02 22:41:19.53	36.59	10.48	-29.8	-33.1	12.3	1.71e-04	0	42	0	97517568	20	5276
2026-01-02 22:41:20.53	36.71	10.54	-29.8	-33.1	12.3	2.47e-04	0	42	0	99614720	20	5293
2026-01-02 22:41:21.54	36.84	10.61	-29.7	-32.8	12.5	1.71e-04	0	42	0	101711872	20	5152
2026-01-02 22:41:22.54	36.96	10.67	-29.7	-33.0	12.4	1.52e-04	0	42	0	102760448	20	5212
2026-01-02 22:41:23.55	37.08	10.74	-29.7	-32.7	12.6	1.35e-04	0	42	0	104857600	20	5111
2026-01-02 22:41:24.56	37.21	10.81	-29.6	-32.7	12.6	9.46e-05	0	42	0	106954752	20	5091
2026-01-02 22:41:25.56	37.33	10.87	-29.6	-32.7	12.6	9.84e-05	0	42	0	109051904	20	5088
2026-01-02 22:41:26.57	37.46	10.94	-29.7	-32.7	12.6	9.07e-05	0	42	0	111149056	20	5105
2026-01-02 22:41:27.58	37.59	11.01	-29.6	-32.5	12.7	8.23e-05	0	42	0	112197632	20	5033
2026-01-02 22:41:28.58	37.71	11.07	-29.6	-32.6	12.7	7.47e-05	0	42	0	114294784	20	5081
2026-01-02 22:41:29.59	37.84	11.14	-29.6	-32.5	12.7	6.48e-05	0	42	0	116391936	20	5042
2026-01-02 22:41:30.59	37.97	11.20	-29.6	-32.6	12.7	7.40e-05	0	42	0	118489088	20	5070
2026-01-02 22:41:31.60	38.10	11.27	-29.6	-32.7	12.6	7.24e-05	0	42	0	119537664	20	5097
2026-01-02 22:41:32.60	38.23	11.34	-29.5	-32.3	12.8	1.74e-04	0	42	0	121634816	20	4972
2026-01-02 22:41:33.61	38.36	11.40	-29.6	-32.6	12.7	6.63e-05	0	42	0	123731968	20	5068
2026-01-02 22:41:34.61	38.49	11.47	-29.5	-32.4	12.9	5.56e-05	0	42	0	125829120	20	4985
2026-01-02 22:41:35.61	38.62	11.54	-29.6	-32.5	12.7	7.62e-05	0	42	0	127926272	20	5028
2026-01-02 22:41:36.62	38.75	11.60	-29.6	-32.5	12.8	7.01e-05	0	42	0	130023424	20	5016
2026-01-02 22:41:37.62	38.88	11.67	-29.5	-32.3	12.9	4.27e-05	0	42	0	131072000	20	4943
2026-01-02 22:41:38.63	39.02	11.74	-29.5	-32.3	12.8	5.26e-05	0	42	0	133169152	20	4976
2026-01-02 22:41:39.63	39.15	11.80	-29.5	-32.3	12.9	5.79e-05	0	42	0	135266304	20	4968
2026-01-02 22:41:40.63	39.28	11.87	-29.5	-32.3	12.9	7.09e-05	0	42	0	137363456	20	4969
2026-01-02 22:41:41.64	39.42	11.94	-29.6	-32.5	12.8	4.80e-05	0	42	0	138412032	20	5021
2026-01-02 22:41:42.64	39.55	12.00	-29.6	-32.5	12.8	5.11e-05	0	43	0	140509184	20	5023
2026-01-02 22:41:43.64	39.69	12.07	-29.5	-32.3	12.9	4.27e-05	0	42	0	142606336	20	4935
2026-01-02 22:41:44.65	39.82	12.14	-29.5	-32.2	13.0	3.81e-05	0	42	0	144703488	20	4904
2026-01-02 22:41:45.66	39.96	12.21	-29.6	-32.4	12.9	5.03e-05	0	42	0	146800640	20	4994
2026-01-02 22:41:46.67	40.10	12.27	-29.6	-32.4	12.9	1.01e-04	0	42	0	147849216	20	4977
2026-01-02 22:41:47.67	40.24	12.34	-29.7	-33.1	12.9	1.85e-04	0	42	0	149946368	19	5325
2026-01-02 22:41:48.68	40.38	12.41	-29.6	-33.0	12.9	4.04e-05	0	42	0	152043520	19	5296
2026-01-02 22:41:49.69	40.52	12.48	-29.7	-33.0	12.9	2.50e-04	0	42	0	154140672	19	5319
2026-01-02 22:41:50.69	40.66	12.54	-29.7	-33.1	12.9	1.64e-04	0	42	0	156237824	19	5328
2026-01-02 22:41:51.69	40.80	12.61	-29.6	-33.0	13.0	5.26e-05	0	42	0	157286400	19	5284
2026-01-02 22:41:52.70	40.94	12.68	-29.6	-32.9	13.0	3.89e-05	0	42	0	159383552	19	5260
2026-01-02 22:41:53.71	41.08	12.74	-29.6	-32.8	13.1	3.20e-05	0	42	0	161480704	19	5200
2026-01-02 22:41:54.71	41.22	12.81	-29.5	-32.7	13.2	2.89e-05	0	42	0	163577856	19	5160
2026-01-02 22:41:55.71	41.37	12.88	-29.5	-32.5	13.3	2.74e-05	0	42	0	165675008	19	5112
2026-01-02 22:41:56.71	41.51	12.95	-29.5	-32.6	13.2	2.13e-05	0	42	0	166723584	19	5129
2026-01-02 22:41:57.71	41.65	13.01	-29.6	-32.9	13.1	1.52e-05	0	42	0	168820736	19	5241
2026-01-02 22:41:58.72	41.80	13.08	-29.5	-32.7	13.1	3.12e-05	0	42	0	170917888	19	5162
2026-01-02 22:41:59.73	41.94	13.15	-29.5	-32.5	13.3	1.90e-05	0	43	0	173015040	19	5104
2026-01-02 22:42:00.74	42.09	13.22	-29.5	-32.7	13.2	1.75e-05	0	43	0	175112192	19	5172
2026-01-02 22:42:01.75	42.24	13.28	-29.5	-32.7	13.2	2.82e-05	0	42	0	176160768	19	5159
2026-01-02 22:42:02.75	42.39	13.35	-29.6	-32.7	13.2	2.13e-05	0	42	0	178257920	19	5197
2026-01-02 22:42:03.75	42.53	13.42	-29.7	-33.0	13.0	3.96e-05	0	43	0	180355072	19	5309
2026-01-02 22:42:04.76	42.68	13.49	-29.6	-32.9	13.1	4.27e-05	0	42	0	182452224	19	5266
2026-01-02 22:42:05.77	42.83	13.55	-29.6	-33.0	13.0	2.74e-05	0	43	0	184549376	19	5285
2026-01-02 22:42:06.77	42.98	13.62	-29.7	-33.2	12.9	4.57e-05	0	42	0	185597952	19	5383
2026-01-02 22:42:07.78	43.13	13.69	-29.7	-33.0	13.0	5.26e-05	0	42	0	187695104	19	5300
2026-01-02 22:42:08.78	43.29	13.76	-29.6	-32.8	13.2	2.82e-05	0	43	0	189792256	19	5200
2026-01-02 22:42:09.79	43.44	13.83	-29.7	-33.0	13.0	2.97e-05	0	43	0	191889408	19	5281
2026-01-02 22:42:10.79	43.59	13.89	-29.8	-33.4	12.7	3.43e-05	0	43	0	193986560	19	5437
2026-01-02 22:42:11.79	43.74	13.96	-29.7	-33.2	13.0	1.18e-03	0	43	0	195035136	19	5353
2026-01-02 22:42:12.79	43.90	14.03	-29.6	-32.7	13.2	3.12e-05	0	43	0	197132288	19	5172
2026-01-02 22:42:13.79	44.05	14.09	-29.5	-32.6	13.3	1.75e-05	0	43	0	199229440	19	5131
2026-01-02 22:42:14.80	44.21	14.16	-29.6	-32.8	13.2	1.33e-03	0	43	0	201326592	19	5189
2026-01-02 22:42:15.80	44.36	14.23	-29.6	-32.8	13.2	1.98e-05	0	43	0	203423744	19	5212
2026-01-02 22:42:16.81	44.52	14.30	-29.7	-33.2	13.0	2.59e-05	0	43	0	204472320	19	5356
2026-01-02 22:42:17.81	44.68	14.37	-29.6	-32.9	13.1	4.57e-05	0	43	0	206569472	19	5249
2026-01-02 22:42:18.81	44.84	14.43	-29.5	-32.6	13.4	1.98e-05	0	43	0	208666624	19	5111
2026-01-02 22:42:19.82	45.00	14.50	-29.5	-32.5	13.4	1.52e-05	0	43	0	210763776	19	5101
2026-01-02 22:42:20.82	45.16	14.57	-29.5	-32.5	13.5	6.10e-06	0	43	0	212860928	19	5077
2026-01-02 22:42:21.83	45.32	14.64	-29.6	-32.8	13.3	1.44e-05	0	43	0	213909504	19	5202
2026-01-02 22:42:22.83	45.48	14.70	-29.6	-32.8	13.2	1.37e-05	0	43	0	216006656	19	5191
2026-01-02 22:42:23.84	45.64	14.77	-29.7	-32.9	13.1	1.83e-05	0	42	0	218103808	19	5257
2026-01-02 22:42:24.85	45.80	14.84	-29.7	-33.2	13.0	2.59e-05	0	43	0	220200960	19	5349
2026-01-02 22:42:25.85	45.97	14.91	-29.8	-33.2	13.0	4.19e-05	0	43	0	222298112	19	5368
2026-01-02 22:42:26.85	46.13	14.97	-29.9	-33.6	12.7	5.95e-05	0	43	0	223346688	19	5509
2026-01-02 22:42:27.86	46.29	15.04	-29.8	-33.4	12.9	5.87e-05	0	43	0	225443840	19	5419
2026-01-02 22:42:28.86	46.46	15.11	-29.9	-33.5	12.8	6.86e-05	0	43	0	227540992	19	5485
2026-01-02 22:42:29.86	46.63	15.18	-30.0	-33.8	12.6	8.46e-05	0	43	0	229638144	19	5592
2026-01-02 22:42:30.86	46.79	15.24	-29.8	-33.3	12.9	7.40e-05	0	43	0	231735296	19	5387
2026-01-02 22:42:31.87	46.96	15.31	-29.7	-33.0	13.1	3.89e-05	0	43	0	232783872	19	5262
2026-01-02 22:42:32.87	47.13	15.38	-29.7	-32.9	13.3	2.28e-05	0	43	0	234881024	19	5222
2026-01-02 22:42:33.88	47.30	15.44	-29.6	-32.9	13.3	1.83e-05	0	43	0	236978176	19	5209
2026-01-02 22:42:34.88	47.47	15.51	-29.6	-32.8	13.3	1.60e-05	0	43	0	239075328	19	5203
2026-01-02 22:42:35.88	47.64	15.58	-29.7	-33.1	13.2	2.97e-05	0	43	0	240123904	19	5295
2026-01-02 22:42:36.88	47.81	15.65	-29.6	-32.8	13.3	1.98e-05	0	43	0	242221056	19	5200
2026-01-02 22:42:37.89	47.98	15.71	-29.7	-33.0	13.2	1.67e-05	0	43	0	244318208	19	5262
2026-01-02 22:42:38.89	48.15	15.78	-29.9	-33.6	12.8	4.11e-05	0	43	0	246415360	19	5521
2026-01-02 22:42:39.89	48.33	15.85	-29.7	-33.0	13.2	3.43e-05	0	43	0	248512512	19	5275
2026-01-02 22:42:40.90	48.50	15.91	-29.6	-32.6	13.5	1.44e-05	0	43	0	249561088	19	5100
2026-01-02 22:42:41.90	48.68	15.98	-29.4	-32.2	13.7	5.30e-06	0	43	0	251658240	19	4969
2026-01-02 22:42:42.91	48.85	16.05	-29.4	-32.1	13.8	3.80e-06	0	43	0	253755392	19	4929
2026-01-02 22:42:43.92	49.03	16.11	-29.4	-32.1	13.8	2.20e-06	0	43	0	255852544	19	4940
2026-01-02 22:42:44.92	49.21	16.18	-29.2	-31.7	14.1	5.30e-06	0	43	0	257949696	19	4774
2026-01-02 22:42:45.92	49.38	16.25	-29.2	-31.5	14.2	1.83e-05	0	43	0	258998272	19	4728
2026-01-02 22:42:46.93	49.56	16.31	-29.2	-31.7	14.1	7.00e-07	0	43	0	261095424	19	4791
2026-01-02 22:42:47.94	49.75	16.38	-29.2	-31.5	14.2	3.00e-06	0	43	0	263192576	19	4715
2026-01-02 22:42:48.94	49.92	16.45	-29.1	-32.0	14.3	2.20e-06	0	43	0	265289728	18	4976
2026-01-02 22:42:49.95	50.11	16.51	-29.1	-31.9	14.3	2.68e-04	0	43	0	267386880	18	4964
2026-01-02 22:42:50.95	50.29	16.58	-29.0	-31.6	14.5	2.20e-06	0	43	0	268435456	18	4870
2026-01-02 22:42:51.95	50.47	16.64	-29.0	-31.5	14.5	1.50e-06	0	43	0	270532608	18	4817
2026-01-02 22:42:52.96	50.66	16.71	-28.9	-31.4	14.6	3.07e-04	0	43	0	272629760	18	4799
2026-01-02 22:42:53.97	50.84	16.78	-29.0	-31.7	14.4	0.00e+00	0	43	0	274726912	18	4904
2026-01-02 22:42:54.98	51.03	16.84	-28.8	-31.7	14.7	7.00e-07	0	43	0	276824064	17	4993
2026-01-02 22:42:55.99	51.21	16.91	-29.0	-32.0	14.5	3.54e-04	0	43	0	277872640	17	5116
2026-01-02 22:42:56.99	51.40	16.97	-28.8	-31.6	14.8	0.00e+00	0	43	0	279969792	17	4970
2026-01-02 22:42:58.00	51.59	17.04	-28.8	-31.5	14.8	7.00e-07	0	43	0	282066944	17	4931
2026-01-02 22:42:59.01	51.78	17.11	-28.8	-31.6	14.8	8.29e-04	0	43	0	284164096	17	4961
2026-01-02 22:43:00.01	51.97	17.17	-28.8	-31.5	14.9	0.00e+00	0	43	0	286261248	17	4922
2026-01-02 22:43:01.02	52.16	17.24	-28.8	-31.6	14.8	0.00e+00	0	43	0	287309824	17	4971
2026-01-02 22:43:02.03	52.35	17.30	-28.8	-31.7	14.8	0.00e+00	0	43	0	289406976	17	4989
2026-01-02 22:43:03.03	52.54	17.37	-28.8	-31.6	14.8	7.00e-07	0	43	0	291504128	17	4979
2026-01-02 22:43:04.03	52.73	17.43	-28.9	-31.8	14.6	1.01e-03	0	43	0	293601280	17	5046
2026-01-02 22:43:05.04	52.93	17.49	-28.9	-31.8	14.7	0.00e+00	0	43	0	295698432	17	5043
2026-01-02 22:43:06.04	53.12	17.56	-28.8	-31.5	14.8	0.00e+00	0	43	0	296747008	17	4943
2026-01-02 22:43:07.05	53.32	17.62	-28.8	-31.6	14.8	4.84e-04	0	43	0	298844160	17	4950
2026-01-02 22:43:08.06	53.51	17.69	-28.8	-31.7	14.7	3.71e-04	0	43	0	300941312	17	4992
2026-01-02 22:43:09.06	53.71	17.75	-29.0	-31.7	14.5	2.20e-06	0	43	0	303038464	18	4878
2026-01-02 22:43:10.07	53.91	17.81	-29.3	-32.4	14.0	2.01e-04	0	43	0	305135616	18	5124
2026-01-02 22:43:11.08	54.11	17.88	-29.1	-31.8	14.4	3.14e-04	0	43	0	306184192	18	4922
2026-01-02 22:43:12.08	54.30	17.94	-29.0	-31.5	14.6	1.50e-06	0	43	0	308281344	18	4820
2026-01-02 22:43:13.09	54.50	18.01	-29.0	-31.6	14.6	9.23e-05	0	43	0	310378496	18	4834
2026-01-02 22:43:14.10	54.71	18.07	-29.1	-31.9	14.3	5.49e-05	0	43	0	312475648	18	4969
2026-01-02 22:43:15.10	54.91	18.13	-29.2	-32.1	14.2	7.00e-07	0	43	0	314572800	18	5031
2026-01-02 22:43:16.10	55.11	18.19	-29.3	-32.3	14.0	1.02e-04	0	43	0	315621376	18	5109
2026-01-02 22:43:17.10	55.31	18.26	-29.4	-32.5	14.0	9.38e-05	0	43	0	317718528	18	5179
2026-01-02 22:43:18.10	55.51	18.32	-29.4	-32.5	14.0	3.00e-06	0	43	0	319815680	18	5189
2026-01-02 22:43:19.10	55.72	18.38	-29.4	-32.6	13.9	7.00e-07	0	43	0	321912832	18	5198
2026-01-02 22:43:20.11	55.92	18.44	-29.4	-32.6	13.9	1.32e-04	0	43	0	324009984	18	5216
2026-01-02 22:43:21.11	56.13	18.50	-29.5	-32.3	13.8	3.00e-06	0	43	0	325058560	19	4983
2026-01-02 22:43:22.12	56.34	18.57	-29.6	-32.6	13.6	5.26e-05	0	43	0	327155712	19	5096
2026-01-02 22:43:23.13	56.55	18.63	-29.7	-32.9	13.4	7.09e-05	0	43	0	329252864	19	5203
2026-01-02 22:43:24.14	56.76	18.69	-29.6	-32.7	13.5	7.60e-06	0	43	0	331350016	19	5142
2026-01-02 22:43:25.14	56.97	18.75	-29.7	-32.9	13.4	2.20e-04	0	43	0	333447168	19	5220
2026-01-02 22:43:26.15	57.18	18.81	-29.7	-32.9	13.4	1.29e-05	0	43	0	334495744	19	5215
2026-01-02 22:43:27.16	57.39	18.87	-29.8	-33.2	13.2	2.21e-05	0	43	0	336592896	19	5335
2026-01-02 22:43:28.16	57.60	18.93	-29.9	-33.4	13.1	1.09e-03	0	43	0	338690048	19	5398
2026-01-02 22:43:29.17	57.81	18.99	-30.1	-33.4	12.7	5.64e-05	0	43	0	340787200	20	5318
2026-01-02 22:43:30.17	58.03	19.05	-30.3	-34.1	12.2	2.14e-04	0	43	0	342884352	20	5576
2026-01-02 22:43:31.18	58.24	19.11	-30.2	-33.8	12.4	7.42e-04	0	43	0	343932928	20	5474
2026-01-02 22:43:32.19	58.46	19.17	-30.4	-34.5	11.9	7.29e-04	0	43	0	346030080	20	5756
2026-01-02 22:43:33.19	58.67	19.23	-30.3	-34.1	12.2	2.68e-04	0	43	0	348127232	20	5613
2026-01-02 22:43:34.19	58.89	19.29	-30.2	-33.9	12.3	4.34e-04	0	43	0	350224384	20	5513
2026-01-02 22:43:35.19	59.11	19.35	-30.2	-33.8	12.4	4.18e-04	0	43	0	351272960	20	5461
2026-01-02 22:43:36.20	59.33	19.41	-30.2	-33.9	12.3	1.49e-04	0	43	0	353370112	20	5508
2026-01-02 22:43:37.21	59.55	19.46	-30.2	-34.0	12.3	1.84e-04	0	43	0	355467264	20	5543
2026-01-02 22:43:38.21	59.77	19.52	-30.3	-34.1	12.3	1.80e-04	0	43	0	357564416	20	5579
2026-01-02 22:43:39.21	59.99	19.58	-30.3	-34.1	12.2	2.61e-04	0	43	0	359661568	20	5608
2026-01-02 22:43:40.21	60.21	19.63	-30.3	-34.0	12.3	1.93e-04	0	43	0	361758720	20	5546
2026-01-02 22:43:41.22	60.43	19.69	-30.2	-34.0	12.3	2.45e-04	0	43	0	362807296	20	5542
2026-01-02 22:43:42.22	60.65	19.75	-30.2	-33.9	12.4	1.69e-04	0	43	0	364904448	20	5496
2026-01-02 22:43:43.23	60.88	19.80	-30.3	-34.1	12.2	1.87e-04	0	43	0	367001600	20	5568
2026-01-02 22:43:44.23	61.10	19.86	-30.4	-34.3	12.0	3.07e-04	0	43	0	369098752	20	5695
2026-01-02 22:43:45.24	61.33	19.92	-30.4	-34.5	11.9	3.49e-04	0	43	0	370147328	20	5773
2026-01-02 22:43:46.24	61.56	19.97	-30.5	-34.7	11.8	4.06e-04	0	43	0	372244480	20	5847
2026-01-02 22:43:47.25	61.79	20.03	-30.6	-34.6	11.5	6.30e-04	0	43	0	374341632	21	5690
2026-01-02 22:43:48.26	62.02	20.08	-30.6	-34.7	11.4	9.54e-04	0	43	0	376438784	21	5738
2026-01-02 22:43:49.26	62.24	20.14	-30.5	-34.2	11.8	5.98e-04	0	43	0	378535936	21	5545
2026-01-02 22:43:50.27	62.48	20.19	-30.3	-33.6	12.2	2.96e-04	0	43	0	380633088	21	5283
2026-01-02 22:43:51.27	62.70	20.24	-30.2	-33.3	12.4	1.82e-04	0	43	0	381681664	21	5137
2026-01-02 22:43:52.28	62.94	20.30	-30.0	-33.3	12.7	5.00e-04	0	43	0	383778816	20	5278
2026-01-02 22:43:53.29	63.17	20.35	-30.0	-33.3	12.8	4.42e-05	0	43	0	385875968	20	5244
2026-01-02 22:43:54.30	63.41	20.40	-30.0	-33.2	12.8	7.01e-05	0	43	0	387973120	20	5216
2026-01-02 22:43:55.30	63.64	20.46	-29.8	-32.6	13.2	2.51e-05	0	43	0	390070272	20	4986
2026-01-02 22:43:56.31	63.87	20.51	-29.8	-33.1	13.4	1.44e-05	0	43	0	391118848	19	5281
2026-01-02 22:43:57.31	64.11	20.56	-29.9	-33.4	13.1	3.35e-05	0	43	0	393216000	19	5417
2026-01-02 22:43:58.31	64.34	20.61	-29.9	-33.5	13.0	3.05e-05	0	43	0	395313152	19	5460
2026-01-02 22:43:59.32	64.58	20.66	-30.1	-33.5	12.6	8.01e-05	0	43	0	397410304	20	5364
2026-01-02 22:44:00.33	64.82	20.71	-30.2	-33.9	12.3	1.75e-04	0	43	0	398458880	20	5525
2026-01-02 22:44:01.33	65.06	20.76	-30.1	-33.6	12.6	1.27e-04	0	43	0	400556032	20	5408
2026-01-02 22:44:02.34	65.30	20.81	-30.2	-33.8	12.5	1.19e-04	0	43	0	402653184	20	5455
2026-01-02 22:44:03.33	65.54	20.86	-30.3	-34.0	12.2	1.57e-04	0	43	0	404750336	20	5564
2026-01-02 22:44:04.34	65.78	20.91	-30.2	-33.9	12.3	2.08e-04	0	43	0	406847488	20	5530
2026-01-02 22:44:05.35	66.02	20.96	-30.1	-33.4	12.6	9.53e-05	0	43	0	407896064	20	5319
2026-01-02 22:44:06.35	66.26	21.01	-30.0	-33.4	12.6	8.23e-05	0	43	0	409993216	20	5321
2026-01-02 22:44:07.34	66.50	21.05	-29.9	-33.1	12.9	7.32e-05	0	43	0	412090368	20	5206
2026-01-02 22:44:08.35	66.75	21.10	-29.7	-32.5	13.3	3.43e-05	0	43	0	414187520	20	4966
2026-01-02 22:44:09.35	66.99	21.15	-29.8	-33.0	13.4	7.82e-04	0	43	0	416284672	19	5256
2026-01-02 22:44:10.36	67.24	21.19	-29.7	-32.9	13.5	1.44e-05	0	43	0	417333248	19	5197
2026-01-02 22:44:11.37	67.48	21.24	-29.7	-32.9	13.4	1.90e-05	0	43	0	419430400	19	5219
2026-01-02 22:44:12.37	67.73	21.28	-29.8	-33.3	13.1	1.44e-05	0	43	0	421527552	19	5359
2026-01-02 22:44:13.38	67.98	21.33	-29.9	-33.5	13.1	2.36e-05	0	43	0	423624704	19	5426
2026-01-02 22:44:14.38	68.23	21.37	-30.0	-33.3	12.8	5.03e-05	0	43	0	425721856	20	5247
2026-01-02 22:44:15.39	68.48	21.42	-30.1	-33.5	12.6	8.54e-05	0	43	0	426770432	20	5354
2026-01-02 22:44:16.39	68.72	21.46	-29.9	-33.0	13.0	5.11e-05	0	43	0	428867584	20	5130
2026-01-02 22:44:17.40	68.98	21.50	-29.8	-32.6	13.3	2.28e-05	0	43	0	430964736	20	5000
2026-01-02 22:44:18.40	69.23	21.55	-29.7	-32.3	13.4	1.60e-05	0	43	0	433061888	20	4893
2026-01-02 22:44:19.41	69.48	21.59	-29.6	-32.7	13.6	2.42e-04	0	43	0	435159040	19	5131
2026-01-02 22:44:20.42	69.73	21.63	-29.6	-32.5	13.7	5.30e-06	0	43	0	436207616	19	5041
2026-01-02 22:44:21.42	69.98	21.67	-29.6	-32.6	13.7	4.50e-06	0	43	0	438304768	19	5077
2026-01-02 22:44:22.43	70.24	21.71	-29.6	-32.7	13.6	6.10e-06	0	43	0	440401920	19	5140
2026-01-02 22:44:23.43	70.49	21.75	-29.7	-32.7	13.5	1.06e-05	0	43	0	442499072	19	5141
2026-01-02 22:44:24.43	70.75	21.79	-29.3	-31.9	14.1	3.00e-06	0	43	0	444596224	19	4844
2026-01-02 22:44:25.44	71.00	21.83	-29.2	-31.5	14.4	7.00e-07	0	43	0	445644800	19	4700
2026-01-02 22:44:26.45	71.26	21.87	-29.2	-31.6	14.3	1.50e-06	0	43	0	447741952	19	4726
2026-01-02 22:44:27.45	71.52	21.91	-29.2	-31.6	14.3	9.23e-05	0	43	0	449839104	19	4722
2026-01-02 22:44:28.45	71.77	21.95	-29.3	-31.7	14.3	1.50e-06	0	43	0	451936256	19	4759
2026-01-02 22:44:29.46	72.03	21.98	-29.3	-31.7	14.2	1.50e-06	0	43	0	454033408	19	4779
2026-01-02 22:44:30.46	72.29	22.02	-29.3	-31.8	14.3	1.11e-04	0	43	0	455081984	19	4780
2026-01-02 22:44:31.46	72.55	22.06	-29.3	-31.7	14.3	1.13e-04	0	43	0	457179136	19	4765
2026-01-02 22:44:32.47	72.81	22.09	-29.4	-32.0	14.1	7.00e-07	0	43	0	459276288	19	4873
2026-01-02 22:44:33.47	73.07	22.13	-29.4	-32.1	14.0	8.08e-05	0	43	0	461373440	19	4897
2026-01-02 22:44:34.48	73.33	22.16	-29.5	-32.3	13.9	4.27e-05	0	43	0	463470592	19	4960
2026-01-02 22:44:35.48	73.59	22.19	-29.5	-32.3	13.9	6.80e-06	0	43	0	464519168	19	4972
2026-01-02 22:44:36.49	73.85	22.23	-29.5	-32.3	13.9	6.10e-06	0	43	0	466616320	19	4991
2026-01-02 22:44:37.49	74.12	22.26	-29.5	-32.3	13.9	2.28e-05	0	43	0	468713472	19	4983
2026-01-02 22:44:38.50	74.38	22.29	-29.6	-32.5	13.7	4.50e-06	0	43	0	470810624	19	5059
2026-01-02 22:44:39.50	74.64	22.32	-29.7	-32.8	13.5	8.77e-05	0	43	0	472907776	19	5158
2026-01-02 22:44:40.51	74.91	22.36	-29.7	-32.8	13.6	1.23e-04	0	43	0	473956352	19	5140
2026-01-02 22:44:41.51	75.17	22.39	-29.7	-32.9	13.5	8.30e-06	0	43	0	476053504	19	5180
2026-01-02 22:44:42.52	75.44	22.42	-29.8	-33.1	13.4	1.27e-04	0	43	0	478150656	19	5265
2026-01-02 22:44:43.52	75.70	22.44	-29.8	-33.2	13.3	1.58e-04	0	43	0	480247808	19	5300
2026-01-02 22:44:44.53	75.97	22.47	-29.8	-33.3	13.3	1.90e-05	0	43	0	482344960	19	5334
2026-01-02 22:44:45.54	76.24	22.50	-30.0	-33.6	13.1	1.89e-04	0	43	0	483393536	19	5471
2026-01-02 22:44:46.54	76.50	22.53	-30.0	-33.1	13.0	2.79e-04	0	43	0	485490688	20	5177
2026-01-02 22:44:47.55	76.77	22.56	-30.0	-33.4	12.8	5.11e-05	0	43	0	487587840	20	5273
2026-01-02 22:44:48.55	77.04	22.58	-30.0	-33.2	12.9	4.18e-04	0	43	0	489684992	20	5223
2026-01-02 22:44:49.55	77.31	22.61	-29.8	-32.8	13.2	3.81e-05	0	43	0	491782144	20	5069
2026-01-02 22:44:50.56	77.58	22.63	-29.8	-32.5	13.3	1.06e-05	0	43	0	492830720	20	4961
2026-01-02 22:44:51.57	77.85	22.66	-29.8	-33.1	13.4	4.19e-04	0	43	0	494927872	19	5250
2026-01-02 22:44:52.57	78.12	22.68	-29.9	-33.3	13.3	3.10e-04	0	43	0	497025024	19	5341
2026-01-02 22:44:53.58	78.39	22.70	-29.9	-33.4	13.2	1.52e-05	0	43	0	499122176	19	5373
2026-01-02 22:44:54.59	78.66	22.73	-29.8	-33.2	13.3	2.90e-04	0	43	0	500170752	19	5304
2026-01-02 22:44:55.59	78.93	22.75	-29.6	-32.6	13.7	2.84e-04	0	43	0	502267904	19	5081
2026-01-02 22:44:56.60	79.20	22.77	-29.4	-32.1	14.1	1.50e-06	0	43	0	504365056	19	4887
2026-01-02 22:44:57.60	79.48	22.79	-29.3	-31.8	14.2	2.23e-04	0	43	0	506462208	19	4812
2026-01-02 22:44:58.60	79.75	22.81	-29.4	-32.1	14.1	1.19e-04	0	43	0	508559360	19	4891
2026-01-02 22:44:59.61	80.02	22.83	-29.4	-32.1	14.1	1.50e-06	0	43	0	510656512	19	4892
2026-01-02 22:45:00.61	80.29	22.85	-29.5	-32.2	14.0	1.50e-06	0	43	0	511705088	19	4957
2026-01-02 22:45:01.62	80.57	22.87	-29.5	-32.4	13.9	2.52e-04	0	43	0	513802240	19	5010
2026-01-02 22:45:02.61	80.84	22.88	-29.6	-32.6	13.7	5.30e-06	0	43	0	515899392	19	5068
2026-01-02 22:45:03.62	81.11	22.90	-29.6	-32.6	13.7	6.10e-06	0	43	0	517996544	19	5086
2026-01-02 22:45:04.62	81.38	22.92	-29.6	-32.7	13.7	5.30e-06	0	43	0	519045120	19	5108
2026-01-02 22:45:05.63	81.66	22.93	-29.6	-32.6	13.7	4.50e-06	0	43	0	521142272	19	5089
2026-01-02 22:45:06.63	81.93	22.95	-29.5	-32.3	13.9	2.20e-06	0	43	0	523239424	19	4973
2026-01-02 22:45:07.64	82.21	22.96	-29.4	-31.9	14.1	3.00e-06	0	43	0	525336576	19	4843
2026-01-02 22:45:08.64	82.48	22.97	-29.3	-31.7	14.2	3.80e-06	0	43	0	527433728	19	4781
2026-01-02 22:45:09.65	82.76	22.99	-29.3	-31.7	14.3	1.50e-06	0	43	0	528482304	19	4781
2026-01-02 22:45:10.65	83.03	23.00	-29.4	-32.1	14.0	3.00e-06	0	43	0	530579456	19	4916
2026-01-02 22:45:11.66	83.31	23.01	-29.4	-32.2	14.0	5.30e-06	0	43	0	532676608	19	4930
2026-01-02 22:45:12.67	83.59	23.02	-29.5	-32.2	14.0	6.80e-06	0	43	0	534773760	19	4942
2026-01-02 22:45:13.67	83.86	23.03	-29.5	-32.4	13.8	4.50e-06	0	43	0	536870912	19	5011
2026-01-02 22:45:14.68	84.14	23.04	-29.6	-32.7	13.6	5.30e-06	0	43	0	537919488	19	5132
2026-01-02 22:45:15.68	84.42	23.05	-29.7	-32.8	13.6	4.50e-06	0	43	0	540016640	19	5145
2026-01-02 22:45:16.69	84.70	23.06	-29.7	-32.8	13.6	8.30e-06	0	43	0	542113792	19	5166
2026-01-02 22:45:17.69	84.97	23.07	-29.6	-32.7	13.7	4.50e-06	0	43	0	544210944	19	5116
2026-01-02 22:45:18.70	85.25	23.07	-29.8	-33.1	13.4	9.10e-06	0	43	0	546308096	19	5259
2026-01-02 22:45:19.70	85.53	23.08	-29.9	-33.5	13.1	1.44e-05	0	43	0	547356672	19	5420
2026-01-02 22:45:20.70	85.80	23.08	-29.7	-32.9	13.4	1.98e-05	0	43	0	549453824	19	5216
2026-01-02 22:45:21.71	86.08	23.09	-29.5	-32.4	13.8	7.60e-06	0	43	0	551550976	19	5013
2026-01-02 22:45:22.72	86.36	23.09	-29.5	-32.2	14.0	3.80e-06	0	43	0	553648128	19	4951
2026-01-02 22:45:23.73	86.64	23.10	-29.5	-32.5	13.8	3.80e-06	0	43	0	555745280	19	5031
2026-01-02 22:45:24.73	86.91	23.10	-29.7	-32.7	13.6	3.00e-06	0	43	0	556793856	19	5133
2026-01-02 22:45:25.74	87.19	23.10	-29.7	-33.0	13.5	1.37e-05	0	43	0	558891008	19	5234
2026-01-02 22:45:26.73	87.47	23.10	-29.9	-33.4	13.2	1.52e-05	0	43	0	560988160	19	5376
2026-01-02 22:45:27.74	87.75	23.10	-30.0	-33.7	13.0	3.81e-05	0	43	0	563085312	19	5500
2026-01-02 22:45:28.74	88.02	23.10	-30.0	-33.3	12.9	3.20e-05	0	43	0	565182464	20	5239
2026-01-02 22:45:29.75	88.30	23.10	-30.1	-33.6	12.6	4.65e-05	0	43	0	566231040	20	5386
2026-01-02 22:45:30.75	88.58	23.10	-30.0	-33.2	12.9	8.31e-05	0	43	0	568328192	20	5201
2026-01-02 22:45:31.76	88.86	23.10	-29.9	-33.0	13.0	3.05e-05	0	43	0	570425344	20	5156
2026-01-02 22:45:32.77	89.13	23.10	-30.0	-33.2	12.9	3.12e-05	0	43	0	572522496	20	5210
2026-01-02 22:45:33.77	89.41	23.09	-29.9	-32.9	13.1	3.43e-05	0	43	0	574619648	20	5093
2026-01-02 22:45:34.78	89.69	23.09	-29.7	-32.4	13.5	1.44e-05	0	43	0	575668224	20	4924
2026-01-02 22:45:35.78	89.97	23.08	-29.6	-32.1	13.6	1.14e-05	0	43	0	577765376	20	4813
2026-01-02 22:45:36.79	90.24	23.08	-29.4	-32.4	13.6	6.80e-06	0	43	0	579862528	19	5054
2026-01-02 22:45:37.80	90.52	23.07	-29.6	-32.5	13.8	3.00e-06	0	43	0	581959680	19	5033
2026-01-02 22:45:38.80	90.80	23.06	-29.4	-32.0	14.1	5.30e-06	0	43	0	584056832	19	4880
2026-01-02 22:45:39.81	91.08	23.06	-29.3	-32.2	14.3	2.41e-04	0	43	0	585105408	18	5051
2026-01-02 22:45:40.82	91.36	23.05	-29.5	-32.7	14.0	7.00e-07	0	43	0	587202560	18	5233
2026-01-02 22:45:41.83	91.63	23.04	-29.6	-32.5	13.8	7.00e-07	0	43	0	589299712	19	5059
2026-01-02 22:45:42.83	91.91	23.03	-29.8	-33.0	13.5	6.10e-06	0	43	0	591396864	19	5246
2026-01-02 22:45:43.83	92.18	23.02	-29.8	-33.3	13.3	1.52e-05	0	43	0	593494016	19	5343
2026-01-02 22:45:44.84	92.46	23.01	-29.8	-33.2	13.4	1.22e-05	0	43	0	594542592	19	5309
2026-01-02 22:45:45.84	92.74	23.00	-29.7	-33.0	13.5	1.22e-05	0	43	0	596639744	19	5214
2026-01-02 22:45:46.84	93.01	22.98	-29.8	-33.0	13.5	9.90e-06	0	43	0	598736896	19	5235
2026-01-02 22:45:47.85	93.29	22.97	-29.9	-33.3	13.3	1.83e-05	0	43	0	600834048	19	5349
2026-01-02 22:45:48.86	93.56	22.96	-29.8	-33.1	13.4	1.90e-05	0	43	0	602931200	19	5268
2026-01-02 22:45:49.86	93.84	22.94	-29.6	-32.7	13.7	7.60e-06	0	43	0	603979776	19	5106
2026-01-02 22:45:50.87	94.11	22.93	-29.6	-32.6	13.8	5.30e-06	0	43	0	606076928	19	5064
2026-01-02 22:45:51.88	94.39	22.91	-29.6	-32.5	13.8	6.80e-06	0	43	0	608174080	19	5038
2026-01-02 22:45:52.89	94.67	22.90	-29.3	-31.9	14.2	3.80e-06	0	43	0	610271232	19	4815
2026-01-02 22:45:53.90	94.94	22.88	-29.3	-31.8	14.2	2.20e-06	0	43	0	612368384	19	4802
2026-01-02 22:45:54.90	95.21	22.86	-29.5	-32.2	14.0	3.00e-06	0	43	0	613416960	19	4931
2026-01-02 22:45:55.90	95.49	22.84	-29.5	-32.3	13.9	6.80e-06	0	43	0	615514112	19	4985
2026-01-02 22:45:56.90	95.76	22.82	-29.7	-32.9	13.6	8.30e-06	0	43	0	617611264	19	5199
2026-01-02 22:45:57.91	96.03	22.80	-29.7	-32.9	13.6	1.06e-05	0	43	0	619708416	19	5170
2026-01-02 22:45:58.91	96.30	22.78	-29.6	-32.5	13.8	7.60e-06	0	43	0	621805568	19	5021
2026-01-02 22:45:59.92	96.58	22.76	-29.5	-32.2	14.0	5.30e-06	0	43	0	622854144	19	4939
2026-01-02 22:46:00.93	96.85	22.74	-29.4	-32.0	14.1	1.50e-06	0	43	0	624951296	19	4849
2026-01-02 22:46:01.93	97.12	22.72	-29.4	-31.9	14.2	0.00e+00	0	43	0	627048448	19	4844
2026-01-02 22:46:02.94	97.39	22.70	-29.2	-31.5	14.4	3.80e-06	0	43	0	629145600	19	4687
2026-01-02 22:46:03.94	97.66	22.67	-29.2	-31.5	14.4	0.00e+00	0	43	0	630194176	19	4706
2026-01-02 22:46:04.94	97.93	22.65	-29.3	-31.7	14.3	7.00e-07	0	43	0	632291328	19	4751
2026-01-02 22:46:05.94	98.20	22.63	-29.3	-31.8	14.2	1.50e-06	0	43	0	634388480	19	4801
2026-01-02 22:46:06.94	98.47	22.60	-29.3	-31.7	14.3	7.00e-07	0	43	0	636485632	19	4775
2026-01-02 22:46:07.95	98.74	22.57	-29.4	-31.9	14.2	1.50e-06	0	43	0	638582784	19	4836
2026-01-02 22:46:08.96	99.01	22.55	-29.2	-31.5	14.4	1.90e-05	0	43	0	640679936	19	4701
2026-01-02 22:46:09.97	99.28	22.52	-29.1	-31.3	14.6	0.00e+00	0	43	0	641728512	19	4620
2026-01-02 22:46:10.97	99.54	22.49	-29.1	-31.2	14.6	0.00e+00	0	43	0	643825664	19	4613
2026-01-02 22:46:11.98	99.81	22.46	-28.9	-30.8	14.9	0.00e+00	0	43	0	645922816	19	4463
2026-01-02 22:46:12.98	100.08	22.44	-28.8	-30.6	15.0	0.00e+00	0	43	0	648019968	19	4424
2026-01-02 22:46:13.98	100.34	22.41	-28.9	-30.8	14.9	0.00e+00	0	43	0	649068544	19	4458
2026-01-02 22:46:14.99	100.61	22.38	-29.1	-31.2	14.6	7.00e-07	0	43	0	651165696	19	4597
2026-01-02 22:46:16.00	100.88	22.35	-29.0	-31.0	14.7	1.50e-06	0	43	0	653262848	19	4550
2026-01-02 22:46:17.01	101.14	22.31	-29.0	-31.1	14.7	0.00e+00	0	43	0	655360000	19	4574
2026-01-02 22:46:18.01	101.41	22.28	-28.9	-30.7	14.9	1.50e-06	0	43	0	657457152	19	4438
2026-01-02 22:46:19.02	101.67	22.25	-28.8	-30.5	15.0	7.00e-07	0	43	0	658505728	19	4393
2026-01-02 22:46:20.03	101.94	22.22	-29.0	-31.0	14.8	0.00e+00	0	43	0	660602880	19	4520
2026-01-02 22:46:21.03	102.20	22.18	-29.1	-31.2	14.6	0.00e+00	0	43	0	662700032	19	4592
2026-01-02 22:46:22.04	102.46	22.15	-28.9	-30.8	14.8	2.20e-06	0	43	0	664797184	19	4487
2026-01-02 22:46:23.05	102.72	22.11	-28.8	-30.9	15.1	0.00e+00	0	43	0	666894336	18	4605
2026-01-02 22:46:24.05	102.98	22.08	-28.8	-30.9	15.1	0.00e+00	0	43	0	668991488	18	4608
2026-01-02 22:46:25.06	103.25	22.04	-28.7	-30.7	15.2	3.00e-06	0	43	0	670040064	18	4547
2026-01-02 22:46:26.06	103.50	22.01	-28.8	-31.0	15.0	0.00e+00	0	43	0	672137216	18	4651
2026-01-02 22:46:27.07	103.76	21.97	-28.6	-30.6	15.3	0.00e+00	0	43	0	674234368	18	4520
2026-01-02 22:46:28.07	104.02	21.93	-28.6	-30.5	15.3	6.10e-06	0	43	0	676331520	18	4486
2026-01-02 22:46:29.08	104.28	21.89	-28.6	-30.5	15.3	0.00e+00	0	43	0	677380096	18	4495
2026-01-02 22:46:30.08	104.54	21.86	-28.3	-29.8	15.7	0.00e+00	0	43	0	679477248	18	4269
2026-01-02 22:46:31.09	104.79	21.82	-28.1	-29.8	16.0	1.50e-06	0	43	0	681574400	17	4365
2026-01-02 22:46:32.10	105.05	21.78	-28.0	-29.7	16.1	0.00e+00	0	43	0	683671552	17	4337
2026-01-02 22:46:33.10	105.31	21.74	-28.1	-30.4	15.9	0.00e+00	0	43	0	685768704	16	4669
2026-01-02 22:46:34.11	105.56	21.70	-28.2	-30.6	15.8	0.00e+00	0	43	0	686817280	16	4743
2026-01-02 22:46:35.11	105.82	21.66	-28.2	-30.5	15.9	0.00e+00	0	43	0	688914432	16	4704
2026-01-02 22:46:36.11	106.07	21.61	-28.3	-30.9	15.7	2.20e-04	0	43	0	691011584	16	4824
2026-01-02 22:46:37.12	106.32	21.57	-28.2	-30.6	15.8	0.00e+00	0	43	0	693108736	16	4736
2026-01-02 22:46:38.13	106.58	21.53	-28.4	-31.0	15.6	0.00e+00	0	43	0	695205888	16	4861
2026-01-02 22:46:39.14	106.83	21.49	-28.6	-31.0	15.3	2.42e-04	0	43	0	696254464	17	4749
2026-01-02 22:46:40.14	107.08	21.44	-28.5	-30.8	15.4	0.00e+00	0	43	0	698351616	17	4690
2026-01-02 22:46:41.15	107.33	21.40	-28.7	-31.4	15.0	0.00e+00	0	43	0	700448768	17	4873
2026-01-02 22:46:42.16	107.58	21.35	-28.8	-31.5	15.0	0.00e+00	0	43	0	702545920	17	4910
2026-01-02 22:46:43.17	107.83	21.31	-29.1	-31.7	14.6	0.00e+00	0	43	0	704643072	18	4880
2026-01-02 22:46:44.17	108.08	21.26	-29.0	-31.6	14.6	0.00e+00	0	43	0	705691648	18	4855
2026-01-02 22:46:45.18	108.33	21.22	-29.1	-31.7	14.5	1.50e-06	0	43	0	707788800	18	4896
2026-01-02 22:46:46.19	108.57	21.17	-29.0	-31.7	14.5	3.05e-05	0	43	0	709885952	18	4873
2026-01-02 22:46:47.19	108.82	21.13	-29.1	-31.8	14.5	1.50e-06	0	43	0	711983104	18	4916
2026-01-02 22:46:48.20	109.06	21.08	-28.9	-31.2	14.9	0.00e+00	0	43	0	714080256	18	4707
2026-01-02 22:46:49.20	109.31	21.03	-28.6	-30.7	15.2	0.00e+00	0	43	0	715128832	18	4542
2026-01-02 22:46:50.21	109.55	20.98	-28.6	-30.4	15.3	0.00e+00	0	43	0	717225984	18	4464
2026-01-02 22:46:51.21	109.79	20.93	-28.6	-30.5	15.3	0.00e+00	0	43	0	719323136	18	4481
2026-01-02 22:46:52.22	110.04	20.89	-28.6	-31.1	15.2	0.00e+00	0	43	0	721420288	17	4783
2026-01-02 22:46:53.23	110.28	20.84	-28.4	-30.6	15.5	0.00e+00	0	43	0	723517440	17	4615
2026-01-02 22:46:54.23	110.52	20.79	-28.6	-31.0	15.2	0.00e+00	0	43	0	724566016	17	4759
2026-01-02 22:46:55.24	110.76	20.74	-28.8	-31.5	14.9	0.00e+00	0	43	0	726663168	17	4934
2026-01-02 22:46:56.25	111.00	20.69	-28.7	-31.4	15.0	0.00e+00	0	43	0	728760320	17	4906
2026-01-02 22:46:57.25	111.24	20.63	-29.1	-31.8	14.4	1.50e-06	0	43	0	730857472	18	4906
2026-01-02 22:46:58.25	111.48	20.58	-29.3	-32.4	14.1	2.20e-06	0	43	0	732954624	18	5136
2026-01-02 22:46:59.26	111.71	20.53	-29.7	-33.0	13.1	7.00e-07	0	43	0	734003200	19	5264
2026-01-02 22:47:00.27	111.95	20.48	-30.0	-33.7	12.7	4.73e-05	0	43	0	736100352	19	5526
2026-01-02 22:47:01.27	112.18	20.43	-30.0	-33.7	12.9	5.95e-05	0	43	0	738197504	19	5542
2026-01-02 22:47:02.28	112.42	20.37	-30.1	-33.7	12.4	9.91e-05	0	43	0	740294656	20	5435
2026-01-02 22:47:03.29	112.66	20.32	-30.2	-34.0	12.2	2.47e-04	0	43	0	742391808	20	5578
2026-01-02 22:47:04.29	112.89	20.27	-30.1	-33.7	12.5	1.44e-04	0	43	0	743440384	20	5429
2026-01-02 22:47:05.29	113.12	20.21	-29.9	-33.1	12.9	8.23e-05	0	43	0	745537536	20	5203
2026-01-02 22:47:06.30	113.35	20.16	-29.8	-32.9	13.0	3.12e-05	0	43	0	747634688	20	5124
2026-01-02 22:47:07.30	113.58	20.11	-29.7	-32.5	13.2	2.67e-05	0	43	0	749731840	20	4963
2026-01-02 22:47:08.31	113.81	20.05	-29.7	-32.4	13.2	1.60e-05	0	43	0	751828992	20	4961
2026-01-02 22:47:09.31	114.04	20.00	-29.7	-33.0	13.3	3.05e-05	0	43	0	752877568	19	5263
2026-01-02 22:47:10.32	114.27	19.94	-29.4	-32.2	13.8	5.30e-06	0	43	0	754974720	19	4980
2026-01-02 22:47:11.32	114.49	19.88	-29.2	-31.7	14.1	0.00e+00	0	43	0	757071872	19	4794
2026-01-02 22:47:12.33	114.72	19.83	-29.1	-31.9	14.3	0.00e+00	0	43	0	759169024	18	4958
2026-01-02 22:47:13.34	114.95	19.77	-29.2	-32.1	14.2	7.00e-07	0	43	0	761266176	18	5029
2026-01-02 22:47:14.35	115.18	19.71	-29.3	-32.4	14.0	1.50e-06	0	43	0	762314752	18	5135
2026-01-02 22:47:15.35	115.40	19.66	-29.4	-32.5	13.9	3.80e-06	0	43	0	764411904	18	5201
2026-01-02 22:47:16.35	115.62	19.60	-29.6	-32.7	13.5	1.44e-05	0	43	0	766509056	19	5136
2026-01-02 22:47:17.36	115.84	19.54	-29.8	-33.2	13.2	9.61e-05	0	43	0	768606208	19	5323
2026-01-02 22:47:18.37	116.07	19.48	-29.7	-33.1	13.1	2.44e-05	0	43	0	770703360	19	5325
2026-01-02 22:47:19.37	116.29	19.43	-29.9	-33.5	12.9	4.04e-05	0	43	0	771751936	19	5457
2026-01-02 22:47:20.38	116.51	19.37	-29.8	-33.3	13.0	3.28e-05	0	43	0	773849088	19	5401
2026-01-02 22:47:21.39	116.73	19.31	-29.9	-33.5	12.9	4.73e-05	0	43	0	775946240	19	5488
2026-01-02 22:47:22.40	116.95	19.25	-29.8	-33.4	13.0	4.04e-05	0	43	0	778043392	19	5412
2026-01-02 22:47:23.40	117.16	19.19	-29.9	-33.6	12.8	5.26e-05	0	43	0	780140544	19	5536
2026-01-02 22:47:24.40	117.38	19.13	-29.8	-33.4	13.0	7.09e-05	0	43	0	781189120	19	5421
2026-01-02 22:47:25.41	117.60	19.07	-29.5	-32.6	13.5	1.60e-05	0	43	0	783286272	19	5127
2026-01-02 22:47:26.42	117.81	19.01	-29.3	-31.8	13.9	6.80e-06	0	43	0	785383424	19	4849
2026-01-02 22:47:27.43	118.03	18.95	-29.2	-31.6	14.1	1.50e-06	0	43	0	787480576	19	4773
2026-01-02 22:47:28.43	118.24	18.89	-29.2	-31.7	14.1	3.80e-06	0	43	0	789577728	19	4782
2026-01-02 22:47:29.43	118.45	18.83	-29.2	-31.7	14.1	1.50e-06	0	43	0	790626304	19	4783
2026-01-02 22:47:30.43	118.66	18.77	-29.2	-31.7	14.1	3.80e-06	0	43	0	792723456	19	4803
2026-01-02 22:47:31.44	118.88	18.71	-29.3	-31.9	13.9	3.00e-06	0	43	0	794820608	19	4867
2026-01-02 22:47:32.44	119.08	18.65	-29.4	-32.1	13.8	1.22e-05	0	43	0	796917760	19	4924
2026-01-02 22:47:33.46	119.30	18.58	-29.3	-32.0	13.9	4.42e-05	0	43	0	799014912	19	4907
2026-01-02 22:47:34.46	119.50	18.52	-29.3	-31.9	13.9	7.60e-06	0	43	0	800063488	19	4864
2026-01-02 22:47:35.46	119.71	18.46	-29.2	-31.7	14.1	1.22e-05	0	43	0	802160640	19	4786
2026-01-02 22:47:36.46	119.92	18.40	-29.2	-31.7	14.0	1.06e-05	0	43	0	804257792	19	4802
2026-01-02 22:47:37.46	120.12	18.33	-29.3	-32.1	13.8	5.30e-06	0	43	0	806354944	19	4937
2026-01-02 22:47:38.47	120.33	18.27	-29.4	-32.3	13.6	6.10e-06	0	43	0	808452096	19	5002
2026-01-02 22:47:39.47	120.53	18.21	-29.4	-32.4	13.6	8.30e-06	0	43	0	809500672	19	5032
2026-01-02 22:47:40.48	120.74	18.15	-29.5	-32.6	13.5	1.14e-05	0	43	0	811597824	19	5132
2026-01-02 22:47:41.48	120.94	18.08	-29.5	-32.4	13.5	1.06e-05	0	43	0	813694976	19	5053
2026-01-02 22:47:42.49	121.14	18.02	-29.5	-32.6	13.4	1.29e-05	0	43	0	815792128	19	5131
2026-01-02 22:47:43.49	121.34	17.96	-29.5	-32.4	13.5	1.29e-05	0	43	0	816840704	19	5073
2026-01-02 22:47:44.50	121.54	17.89	-29.5	-32.6	13.5	8.30e-06	0	43	0	818937856	19	5119
2026-01-02 22:47:45.50	121.74	17.83	-29.6	-32.9	13.2	1.98e-05	0	43	0	821035008	19	5257
2026-01-02 22:47:46.51	121.94	17.76	-29.7	-33.2	13.1	2.74e-05	0	43	0	823132160	19	5346
2026-01-02 22:47:47.51	122.14	17.70	-29.9	-33.6	12.8	5.95e-05	0	43	0	825229312	19	5511
2026-01-02 22:47:48.52	122.34	17.63	-29.9	-33.5	12.8	7.55e-05	0	43	0	827326464	19	5468
2026-01-02 22:47:49.53	122.53	17.57	-29.8	-33.3	13.0	3.43e-05	0	43	0	828375040	19	5377
2026-01-02 22:47:50.53	122.73	17.51	-29.6	-32.7	13.3	3.43e-05	0	43	0	830472192	19	5161
2026-01-02 22:47:51.54	122.92	17.44	-29.2	-31.8	14.0	3.80e-06	0	43	0	832569344	19	4826
2026-01-02 22:47:52.54	123.12	17.38	-28.9	-31.0	14.4	7.00e-07	0	43	0	834666496	19	4586
2026-01-02 22:47:53.54	123.31	17.31	-29.0	-31.1	14.4	0.00e+00	0	43	0	835715072	19	4599
2026-01-02 22:47:54.55	123.50	17.24	-29.1	-31.4	14.2	7.00e-07	0	43	0	837812224	19	4708
2026-01-02 22:47:55.54	123.69	17.18	-29.3	-31.9	13.9	3.00e-06	0	43	0	839909376	19	4875
2026-01-02 22:47:56.55	123.88	17.11	-29.5	-32.4	13.5	8.30e-06	0	43	0	842006528	19	5064
2026-01-02 22:47:57.56	124.07	17.05	-29.8	-33.4	12.9	2.97e-05	0	43	0	844103680	19	5442
2026-01-02 22:47:58.56	124.26	16.98	-29.8	-33.3	12.9	5.64e-05	0	43	0	845152256	19	5392
2026-01-02 22:47:59.57	124.45	16.92	-29.8	-33.3	12.9	4.80e-05	0	43	0	847249408	19	5400
2026-01-02 22:48:00.58	124.64	16.85	-29.6	-32.7	13.3	3.50e-05	0	43	0	849346560	19	5166
2026-01-02 22:48:01.59	124.82	16.78	-29.4	-32.1	13.7	9.10e-06	0	43	0	851443712	19	4956
2026-01-02 22:48:02.59	125.01	16.72	-29.3	-32.0	13.7	2.36e-05	0	43	0	853540864	19	4898
2026-01-02 22:48:03.60	125.20	16.65	-29.5	-32.4	13.5	9.90e-06	0	43	0	854589440	19	5059
2026-01-02 22:48:04.60	125.38	16.58	-29.7	-33.0	13.1	2.13e-05	0	43	0	856686592	19	5270
2026-01-02 22:48:05.61	125.56	16.52	-29.8	-33.4	12.8	4.42e-05	0	43	0	858783744	19	5459
2026-01-02 22:48:06.61	125.74	16.45	-29.9	-33.8	12.5	8.31e-05	0	43	0	860880896	19	5608
2026-01-02 22:48:07.62	125.93	16.38	-29.9	-33.4	12.4	1.50e-04	0	43	0	862978048	20	5373
2026-01-02 22:48:08.62	126.11	16.32	-29.8	-33.1	12.5	1.46e-04	0	43	0	864026624	20	5259
2026-01-02 22:48:09.63	126.29	16.25	-29.8	-33.0	12.6	1.13e-04	0	43	0	866123776	20	5206
2026-01-02 22:48:10.63	126.47	16.18	-29.8	-32.9	12.6	9.30e-05	0	43	0	868220928	20	5186
2026-01-02 22:48:11.64	126.65	16.12	-29.8	-33.1	12.6	9.00e-05	0	43	0	870318080	20	5239
2026-01-02 22:48:12.65	126.83	16.05	-29.8	-33.0	12.6	1.34e-04	0	43	0	872415232	20	5219
2026-01-02 22:48:13.65	127.00	15.98	-29.7	-32.6	12.8	6.33e-05	0	43	0	874512384	20	5064
2026-01-02 22:48:14.65	127.18	15.91	-29.6	-32.5	13.0	3.43e-05	0	43	0	875560960	20	4989
2026-01-02 22:48:15.65	127.35	15.85	-29.8	-33.0	12.6	4.80e-05	0	43	0	877658112	20	5211
2026-01-02 22:48:16.66	127.53	15.78	-30.0	-33.4	12.4	1.24e-04	0	43	0	879755264	20	5361
2026-01-02 22:48:17.67	127.70	15.71	-29.8	-33.1	12.6	1.20e-04	0	43	0	881852416	20	5247
2026-01-02 22:48:18.67	127.87	15.64	-29.7	-32.7	12.8	7.78e-05	0	43	0	882900992	20	5109
2026-01-02 22:48:19.68	128.05	15.58	-29.5	-32.2	13.0	6.94e-05	0	43	0	884998144	20	4943
2026-01-02 22:48:20.68	128.22	15.51	-29.4	-32.0	13.2	2.59e-05	0	43	0	887095296	20	4860
2026-01-02 22:48:21.69	128.39	15.44	-29.3	-32.3	13.4	1.90e-05	0	43	0	889192448	19	5092
2026-01-02 22:48:22.70	128.56	15.37	-29.3	-32.1	13.5	2.13e-05	0	43	0	891289600	19	5010
2026-01-02 22:48:23.70	128.73	15.31	-29.3	-32.2	13.3	1.14e-05	0	43	0	892338176	19	5036
2026-01-02 22:48:24.71	128.90	15.24	-29.5	-32.7	13.1	2.05e-05	0	43	0	894435328	19	5211
2026-01-02 22:48:25.72	129.07	15.17	-29.7	-33.4	12.6	2.89e-05	0	43	0	896532480	19	5476
2026-01-02 22:48:26.72	129.24	15.10	-29.8	-33.6	12.5	1.74e-04	0	43	0	898629632	19	5574
2026-01-02 22:48:27.73	129.40	15.03	-30.0	-34.0	12.3	1.38e-04	0	43	0	900726784	19	5703
2026-01-02 22:48:28.74	129.57	14.96	-29.9	-33.3	12.3	2.37e-04	0	44	0	901775360	20	5322
2026-01-02 22:48:29.75	129.74	14.90	-29.7	-32.8	12.7	1.37e-04	0	43	0	903872512	20	5127
2026-01-02 22:48:30.75	129.90	14.83	-29.7	-32.6	12.8	5.56e-05	0	43	0	905969664	20	5040
2026-01-02 22:48:31.76	130.06	14.76	-29.6	-32.4	12.9	5.49e-05	0	43	0	908066816	20	4981
2026-01-02 22:48:32.77	130.23	14.69	-29.7	-33.3	12.7	4.19e-05	0	43	0	910163968	19	5429
2026-01-02 22:48:33.77	130.39	14.62	-29.7	-33.1	12.8	6.56e-05	0	43	0	911212544	19	5377
2026-01-02 22:48:34.78	130.55	14.55	-29.6	-32.9	13.0	4.73e-05	0	43	0	913309696	19	5276
2026-01-02 22:48:35.78	130.71	14.49	-29.7	-33.3	12.6	4.57e-05	0	43	0	915406848	19	5454
2026-01-02 22:48:36.78	130.87	14.42	-29.8	-33.5	12.5	9.53e-05	0	43	0	917504000	19	5527
2026-01-02 22:48:37.78	131.03	14.35	-29.9	-33.9	12.3	1.78e-04	0	43	0	919601152	19	5685
2026-01-02 22:48:38.78	131.19	14.28	-29.9	-33.5	12.1	2.46e-04	0	43	0	920649728	20	5417
2026-01-02 22:48:39.79	131.34	14.21	-29.9	-33.3	12.2	2.40e-04	0	43	0	922746880	20	5354
2026-01-02 22:48:40.79	131.50	14.15	-29.9	-33.4	12.2	6.06e-04	0	43	0	924844032	20	5371
2026-01-02 22:48:41.80	131.66	14.08	-29.9	-33.9	12.3	2.25e-04	0	43	0	926941184	19	5674
2026-01-02 22:48:42.81	131.82	14.01	-30.0	-34.1	12.1	2.43e-04	0	43	0	929038336	19	5772
2026-01-02 22:48:43.81	131.97	13.94	-29.7	-32.8	12.5	3.46e-04	0	43	0	930086912	20	5169
2026-01-02 22:48:44.82	132.12	13.87	-29.5	-32.9	12.9	2.78e-04	0	43	0	932184064	19	5300
2026-01-02 22:48:45.82	132.28	13.80	-29.7	-33.5	12.4	8.23e-05	0	43	0	934281216	19	5575
2026-01-02 22:48:46.83	132.43	13.74	-29.8	-33.6	12.3	3.27e-04	0	43	0	936378368	19	5620
2026-01-02 22:48:47.83	132.58	13.67	-29.8	-33.8	12.2	3.97e-04	0	43	0	938475520	19	5697
2026-01-02 22:48:48.84	132.74	13.60	-29.9	-33.9	12.2	2.35e-04	0	43	0	939524096	19	5705
2026-01-02 22:48:49.85	132.89	13.53	-30.0	-33.7	11.9	5.09e-04	0	43	0	941621248	20	5550
2026-01-02 22:48:50.86	133.04	13.46	-30.0	-33.7	11.9	5.98e-04	0	43	0	943718400	20	5517
2026-01-02 22:48:51.86	133.19	13.39	-29.9	-33.4	12.1	3.25e-04	0	43	0	945815552	20	5386
2026-01-02 22:48:52.86	133.34	13.33	-29.8	-33.1	12.2	2.19e-04	0	43	0	947912704	20	5290
2026-01-02 22:48:53.87	133.48	13.26	-29.7	-33.0	12.3	2.72e-04	0	43	0	948961280	20	5247
2026-01-02 22:48:54.87	133.63	13.19	-29.5	-32.5	12.6	1.32e-04	0	43	0	951058432	20	5056
2026-01-02 22:48:55.88	133.78	13.12	-29.6	-32.8	12.4	2.95e-04	0	43	0	953155584	20	5183
2026-01-02 22:48:56.88	133.92	13.05	-29.6	-33.1	12.6	3.34e-04	0	43	0	955252736	19	5420
2026-01-02 22:48:57.88	134.07	12.99	-29.7	-33.5	12.3	1.29e-04	0	43	0	957349888	19	5583
2026-01-02 22:48:58.89	134.22	12.92	-29.8	-33.7	12.1	5.11e-04	0	43	0	958398464	19	5696
2026-01-02 22:48:59.90	134.36	12.85	-29.9	-34.0	11.9	2.37e-04	0	43	0	960495616	19	5810
2026-01-02 22:49:00.89	134.50	12.78	-30.0	-34.3	11.7	4.93e-04	0	43	0	962592768	19	5943
2026-01-02 22:49:01.90	134.65	12.71	-30.0	-33.9	11.6	1.02e-03	0	43	0	964689920	20	5654
2026-01-02 22:49:02.91	134.79	12.65	-30.0	-34.0	11.5	1.18e-03	0	43	0	966787072	20	5700
2026-01-02 22:49:03.91	134.93	12.58	-30.0	-34.0	11.5	7.49e-04	0	43	0	967835648	20	5714
2026-01-02 22:49:04.91	135.07	12.51	-30.0	-34.0	11.5	1.29e-03	0	43	0	969932800	20	5706
2026-01-02 22:49:05.92	135.21	12.44	-30.0	-34.1	11.5	1.05e-03	0	43	0	972029952	20	5726
2026-01-02 22:49:06.92	135.35	12.37	-30.1	-34.3	11.3	1.03e-03	0	43	0	974127104	20	5812
2026-01-02 22:49:07.92	135.49	12.31	-29.9	-33.7	11.8	9.79e-04	0	43	0	976224256	20	5551
2026-01-02 22:49:08.92	135.63	12.24	-30.0	-33.8	11.6	6.43e-04	0	43	0	977272832	20	5604
2026-01-02 22:49:09.93	135.77	12.17	-30.1	-34.2	11.4	7.01e-04	0	43	0	979369984	20	5779
2026-01-02 22:49:10.93	135.90	12.10	-29.9	-33.6	11.7	7.68e-04	0	43	0	981467136	20	5541
2026-01-02 22:49:11.94	136.04	12.04	-29.8	-33.5	11.8	5.10e-04	0	43	0	983564288	20	5485
2026-01-02 22:49:12.95	136.18	11.97	-29.7	-33.2	12.0	3.66e-04	0	43	0	984612864	20	5367
2026-01-02 22:49:13.95	136.31	11.90	-29.9	-34.1	11.8	4.45e-04	0	43	0	986710016	19	5865
2026-01-02 22:49:14.95	136.45	11.83	-29.8	-34.1	11.8	9.25e-04	0	43	0	988807168	19	5858
2026-01-02 22:49:15.95	136.58	11.77	-29.7	-33.7	12.1	4.85e-04	0	43	0	990904320	19	5689
2026-01-02 22:49:16.96	136.72	11.70	-29.6	-33.3	12.2	2.43e-04	0	43	0	993001472	19	5552
2026-01-02 22:49:17.96	136.85	11.63	-29.6	-33.3	12.3	2.05e-04	0	43	0	994050048	19	5529
2026-01-02 22:49:18.97	136.98	11.56	-29.6	-33.2	12.3	1.67e-04	0	43	0	996147200	19	5499
2026-01-02 22:49:19.97	137.11	11.50	-29.6	-33.3	12.3	7.38e-04	0	43	0	998244352	19	5501
2026-01-02 22:49:20.97	137.24	11.43	-29.7	-33.6	12.1	2.64e-04	0	43	0	1000341504	19	5660
2026-01-02 22:49:21.98	137.38	11.36	-29.8	-33.8	12.0	3.45e-04	0	43	0	1002438656	19	5718
2026-01-02 22:49:22.98	137.51	11.30	-29.8	-34.0	11.8	8.13e-04	0	43	0	1003487232	19	5812
2026-01-02 22:49:23.99	137.64	11.23	-29.9	-34.2	11.7	5.67e-04	0	43	0	1005584384	19	5898
2026-01-02 22:49:24.99	137.77	11.16	-30.0	-34.4	11.5	6.89e-04	0	43	0	1007681536	19	5975
2026-01-02 22:49:26.00	137.89	11.09	-30.0	-34.1	11.3	1.02e-03	0	43	0	1009778688	20	5753
2026-01-02 22:49:27.00	138.02	11.03	-30.1	-34.4	11.1	1.49e-03	0	43	0	1011875840	20	5898
2026-01-02 22:49:28.00	138.15	10.96	-30.1	-34.3	11.1	1.53e-03	0	43	0	1012924416	20	5866
2026-01-02 22:49:29.01	138.28	10.89	-30.1	-34.4	11.1	1.69e-03	0	43	0	1015021568	20	5906
2026-01-02 22:49:30.01	138.40	10.83	-29.9	-33.9	11.4	1.44e-03	0	43	0	1017118720	20	5691
2026-01-02 22:49:31.02	138.53	10.76	-30.0	-34.0	11.3	1.07e-03	0	43	0	1019215872	20	5729
2026-01-02 22:49:32.02	138.65	10.69	-29.9	-33.9	11.4	1.05e-03	0	43	0	1021313024	20	5682
2026-01-02 22:49:33.02	138.78	10.63	-29.9	-33.6	11.6	1.09e-03	0	43	0	1022361600	20	5552
2026-01-02 22:49:34.03	138.90	10.56	-29.9	-33.6	11.6	7.23e-04	0	43	0	1024458752	20	5559
2026-01-02 22:49:35.03	139.03	10.50	-29.9	-33.8	11.4	7.39e-04	0	43	0	1026555904	20	5655
2026-01-02 22:49:36.03	139.15	10.43	-30.0	-34.1	11.2	1.12e-03	0	43	0	1028653056	20	5774
2026-01-02 22:49:37.03	139.27	10.36	-29.9	-33.9	11.4	1.28e-03	0	43	0	1030750208	20	5680
2026-01-02 22:49:38.04	139.39	10.30	-30.0	-34.0	11.3	1.20e-03	0	44	0	1031798784	20	5740
2026-01-02 22:49:39.04	139.51	10.23	-30.0	-34.1	11.2	1.23e-03	0	43	0	1033895936	20	5795
2026-01-02 22:49:40.05	139.64	10.16	-30.1	-34.6	10.7	1.73e-03	0	43	0	1035993088	20	6048
2026-01-02 22:49:41.05	139.76	10.10	-30.0	-34.4	11.0	2.05e-03	0	43	0	1038090240	20	5915
2026-01-02 22:49:42.06	139.88	10.03	-30.2	-34.9	10.6	2.68e-03	0	43	0	1040187392	20	6171
2026-01-02 22:49:43.07	140.00	9.97	-30.1	-34.6	10.8	3.05e-03	0	43	0	1041235968	20	6015
2026-01-02 22:49:44.07	140.11	9.90	-30.1	-34.5	10.8	2.39e-03	0	43	0	1043333120	20	5981
2026-01-02 22:49:45.08	140.23	9.83	-30.2	-34.7	10.6	2.97e-03	0	43	0	1045430272	20	6109
2026-01-02 22:49:46.09	140.35	9.77	-30.2	-34.8	10.6	3.79e-03	0	43	0	1047527424	20	6126
2026-01-02 22:49:47.09	140.47	9.70	-30.2	-34.9	10.4	3.94e-03	0	43	0	1049624576	20	6204
2026-01-02 22:49:48.10	140.59	9.64	-30.4	-35.5	10.0	6.65e-03	0	43	0	1050673152	20	6502
2026-01-02 22:49:49.10	140.70	9.57	-30.3	-35.3	10.1	7.82e-03	0	43	0	1052770304	20	6424
2026-01-02 22:49:50.11	140.82	9.51	-30.4	-35.5	9.9	7.38e-03	0	43	0	1054867456	20	6525
2026-01-02 22:49:51.11	140.93	9.44	-30.4	-35.7	9.8	1.01e-02	0	43	0	1056964608	20	6598
2026-01-02 22:49:52.12	141.05	9.38	-29.9	-35.2	9.8	1.04e-02	0	43	0	1059061760	20	6598
2026-01-02 22:49:53.13	141.16	9.31	-30.4	-35.9	9.5	1.21e-02	0	43	0	1060110336	20	6720
2026-01-02 22:49:54.13	141.28	9.25	-30.3	-35.5	9.9	1.06e-02	0	43	0	1062207488	20	6522
2026-01-02 22:49:55.14	141.39	9.18	-30.5	-35.9	9.4	1.16e-02	0	43	0	1064304640	20	6759
2026-01-02 22:49:56.15	141.50	9.11	-30.4	-35.8	9.5	1.39e-02	0	43	0	1066401792	20	6678
2026-01-02 22:49:57.15	141.62	9.05	-30.4	-35.6	9.7	1.20e-02	0	43	0	1068498944	20	6565
2026-01-02 22:49:58.15	141.73	8.99	-30.4	-35.8	9.6	1.30e-02	0	43	0	1069547520	20	6692
2026-01-02 22:49:59.16	141.84	8.92	-30.4	-35.9	9.5	1.61e-02	0	43	0	1071644672	20	6747
2026-01-02 22:50:00.17	141.95	8.86	-30.4	-35.7	9.6	1.47e-02	0	43	0	1073741824	20	6659
2026-01-02 22:50:01.17	142.06	8.79	-30.4	-35.9	9.4	1.51e-02	0	43	0	1075838976	20	6764
2026-01-02 22:50:02.18	142.17	8.73	-30.3	-35.6	9.6	1.51e-02	0	43	0	1077936128	20	6628
2026-01-02 22:50:03.18	142.28	8.66	-30.3	-35.8	9.4	1.38e-02	0	43	0	1078984704	20	6766
2026-01-02 22:50:04.18	142.39	8.60	-30.4	-36.1	9.1	2.15e-02	0	43	0	1081081856	20	6969
2026-01-02 22:50:05.19	142.50	8.53	-30.3	-35.7	9.4	1.77e-02	0	43	0	1083179008	20	6735
2026-01-02 22:50:06.20	142.61	8.47	-30.3	-35.6	9.5	1.64e-02	0	43	0	1085276160	20	6642
2026-01-02 22:50:07.21	142.72	8.40	-30.2	-35.5	9.5	1.46e-02	0	43	0	1087373312	20	6629
2026-01-02 22:50:08.22	142.82	8.34	-30.1	-35.3	9.7	1.25e-02	0	43	0	1088421888	20	6505
2026-01-02 22:50:09.22	142.93	8.28	-30.2	-35.4	9.5	1.35e-02	0	43	0	1090519040	20	6595
2026-01-02 22:50:10.23	143.04	8.21	-30.2	-35.4	9.6	1.42e-02	0	43	0	1092616192	20	6542
2026-01-02 22:50:11.24	143.14	8.15	-30.1	-35.2	9.7	1.18e-02	0	43	0	1094713344	20	6487
2026-01-02 22:50:12.24	143.25	8.08	-30.1	-35.0	9.9	9.67e-03	0	43	0	1095761920	20	6324
2026-01-02 22:50:13.24	143.35	8.02	-30.1	-34.9	9.9	7.94e-03	0	43	0	1097859072	20	6289
2026-01-02 22:50:14.25	143.46	7.96	-30.1	-35.0	9.8	1.26e-02	0	43	0	1099956224	20	6345
2026-01-02 22:50:15.25	143.56	7.89	-30.1	-34.9	9.9	9.34e-03	0	43	0	1102053376	20	6290
2026-01-02 22:50:16.25	143.66	7.83	-30.2	-35.4	9.5	9.70e-03	0	43	0	1104150528	20	6554
2026-01-02 22:50:17.25	143.77	7.77	-30.3	-35.8	9.2	2.37e-02	0	43	0	1106247680	20	6795
2026-01-02 22:50:18.26	143.87	7.70	-30.2	-35.2	9.7	1.51e-02	0	44	0	1107296256	20	6445
2026-01-02 22:50:19.27	143.97	7.64	-30.2	-35.3	9.5	1.47e-02	0	43	0	1109393408	20	6513
2026-01-02 22:50:20.28	144.08	7.58	-30.1	-35.3	9.6	1.12e-02	0	43	0	1111490560	20	6487
2026-01-02 22:50:21.28	144.18	7.51	-30.1	-35.2	9.7	1.11e-02	0	43	0	1113587712	20	6448
2026-01-02 22:50:22.29	144.28	7.45	-30.2	-35.5	9.4	1.85e-02	0	43	0	1114636288	20	6636
2026-01-02 22:50:23.29	144.38	7.39	-30.2	-35.6	9.3	1.74e-02	0	43	0	1116733440	20	6687
2026-01-02 22:50:24.30	144.48	7.33	-30.2	-35.4	9.5	1.50e-02	0	43	0	1118830592	20	6551
2026-01-02 22:50:25.31	144.58	7.26	-30.2	-35.6	9.3	1.70e-02	0	43	0	1120927744	20	6699
2026-01-02 22:50:26.31	144.68	7.20	-30.1	-35.1	9.7	1.81e-02	0	43	0	1123024896	20	6422
2026-01-02 22:50:27.30	144.78	7.14	-30.1	-35.2	9.6	1.16e-02	0	43	0	1124073472	20	6465
2026-01-02 22:50:28.31	144.88	7.08	-31.7	-42.8	4.6	1.67e-02	0	43	0	1126170624	23	12877
2026-01-02 22:50:29.32	144.97	7.01	-32.3	-46.9	3.8	1.49e+00	0	43	104	1126170624	24	19173

#Closed at: 2026-01-02 22:50:29
#Recorded file [1126 MB]: D:/data/31010_260103_014027.dat