passes_logs/2026/01/19/R3.2S_Murmansk/R3.2S_Murmansk__20260119_060437_KANOPUS-V_5_rec.log

#Pass ID: 20260119_060437_KANOPUS-V 5
#Satellite: KANOPUS-V 5
#Configuration: KANOPUS-V_8320
#almurnet v.1.7.20251203
#Start time: 2026-01-19 06:04:36

#Version: 2.2.20231116
#Station: R3.2S_Murmansk
#Location: 33.079688 lon 68.888172 lat
#TLE: 1 43876U 18111A   26018.65182262  .00003158  00000+0  13545-3 0  9996
#TLE: 2 43876  97.3687 287.0998 0001777  87.4650 272.6790 15.23458333392021

#Time	Az	El	Level	Level2	SNR	BER	BlckErr	Temp	State	Recorded	gain1	gain2
2026-01-19 06:04:36.74	113.78	1.98	-53.1	-62.0	3.8	7.45e-01	0	36	0	0	78	9635
2026-01-19 06:04:37.76	113.71	2.05	-53.1	-62.0	3.8	7.46e-01	0	36	104	0	77	10197
2026-01-19 06:04:38.77	113.64	2.12	-53.1	-61.9	3.8	7.45e-01	0	36	104	0	77	10154
2026-01-19 06:04:39.77	113.58	2.18	-53.1	-61.9	3.8	7.46e-01	0	36	104	0	77	10141
2026-01-19 06:04:40.78	113.51	2.25	-53.1	-61.9	3.8	7.46e-01	0	36	104	0	77	10133
2026-01-19 06:04:41.79	113.44	2.32	-53.1	-61.9	3.8	7.44e-01	0	36	104	0	77	10118
2026-01-19 06:04:42.80	113.37	2.38	-53.1	-61.9	3.8	7.46e-01	0	36	104	0	77	10149
2026-01-19 06:04:43.80	113.31	2.45	-53.1	-61.9	3.8	7.48e-01	0	36	104	0	77	10098
2026-01-19 06:04:44.81	113.24	2.52	-53.1	-61.9	3.8	7.44e-01	0	36	104	0	77	10086
2026-01-19 06:04:45.82	113.17	2.59	-53.1	-61.9	3.8	7.46e-01	0	36	104	0	77	10074
2026-01-19 06:04:46.82	113.10	2.65	-53.1	-61.9	3.8	7.45e-01	0	36	104	0	77	10112
2026-01-19 06:04:47.83	113.03	2.72	-53.1	-61.9	3.8	7.45e-01	0	36	104	0	77	10113
2026-01-19 06:04:48.84	112.96	2.79	-53.1	-61.9	3.8	7.46e-01	0	36	104	0	77	10123
2026-01-19 06:04:49.85	112.88	2.86	-53.1	-61.9	3.8	7.46e-01	0	36	104	0	77	10119
2026-01-19 06:04:50.86	112.81	2.93	-53.1	-61.9	3.8	7.47e-01	0	36	104	0	77	10087
2026-01-19 06:04:51.86	112.74	3.00	-53.1	-61.9	3.8	7.46e-01	0	36	104	0	77	10104
2026-01-19 06:04:52.87	112.67	3.06	-53.1	-61.9	3.8	7.45e-01	0	36	104	0	77	10148
2026-01-19 06:04:53.88	112.60	3.13	-53.1	-61.9	3.8	7.45e-01	0	36	104	0	77	10126
2026-01-19 06:04:54.89	112.52	3.20	-53.1	-61.9	3.8	7.44e-01	0	36	104	0	77	10097
2026-01-19 06:04:55.90	112.45	3.27	-53.1	-61.9	3.8	7.46e-01	0	36	104	0	77	10076
2026-01-19 06:04:56.91	112.37	3.34	-53.1	-61.9	3.8	7.45e-01	0	36	104	0	77	10065
2026-01-19 06:04:57.92	112.30	3.41	-53.0	-61.8	3.8	7.45e-01	0	36	104	0	77	9954
2026-01-19 06:04:58.92	112.22	3.48	-53.0	-61.7	3.8	7.46e-01	0	36	104	0	77	9876
2026-01-19 06:04:59.93	112.15	3.55	-53.0	-61.7	3.8	7.46e-01	0	36	104	0	77	9844
2026-01-19 06:05:00.94	112.07	3.62	-53.0	-61.7	3.8	7.47e-01	0	36	104	0	77	9881
2026-01-19 06:05:01.95	111.99	3.70	-53.0	-61.7	3.8	7.44e-01	0	36	104	0	77	9884
2026-01-19 06:05:02.96	111.92	3.77	-53.0	-61.7	3.8	7.44e-01	0	36	104	0	77	9886
2026-01-19 06:05:03.96	111.84	3.84	-53.0	-61.8	3.8	7.44e-01	0	36	104	0	77	9956
2026-01-19 06:05:04.97	111.76	3.91	-53.0	-61.7	3.8	7.45e-01	0	36	104	0	77	9917
2026-01-19 06:05:05.98	111.68	3.98	-53.1	-61.8	3.8	7.45e-01	0	36	104	0	77	10053
2026-01-19 06:05:06.99	111.60	4.05	-53.1	-61.9	3.8	7.46e-01	0	36	104	0	77	10083
2026-01-19 06:05:07.99	111.52	4.12	-53.1	-61.9	3.8	7.46e-01	0	36	104	0	77	10103
2026-01-19 06:05:09.00	111.44	4.20	-53.0	-61.8	3.8	7.46e-01	0	36	104	0	77	10007
2026-01-19 06:05:10.01	111.36	4.27	-52.9	-61.5	3.8	7.46e-01	0	36	104	0	77	9619
2026-01-19 06:05:11.02	111.28	4.34	-52.9	-61.1	3.8	7.45e-01	0	37	104	0	77	9250
2026-01-19 06:05:12.02	111.20	4.41	-52.7	-60.5	3.8	7.43e-01	0	36	104	0	77	8586
2026-01-19 06:05:13.03	111.12	4.49	-52.5	-59.8	3.8	7.45e-01	0	36	104	0	77	7920
2026-01-19 06:05:14.04	111.03	4.56	-52.2	-58.7	4.1	7.36e-01	0	36	104	0	76	7430
2026-01-19 06:05:15.05	110.95	4.63	-52.3	-59.1	3.9	7.44e-01	0	37	104	0	76	7769
2026-01-19 06:05:16.06	110.86	4.71	-52.1	-58.4	4.1	7.35e-01	0	37	0	2097152	76	7162
2026-01-19 06:05:17.07	110.78	4.78	-52.3	-59.0	3.9	7.42e-01	0	37	104	12582912	76	7663
2026-01-19 06:05:18.07	110.70	4.86	-52.2	-58.7	3.9	7.42e-01	0	37	104	12582912	76	7427
2026-01-19 06:05:19.08	110.61	4.93	-52.2	-58.7	4.0	7.38e-01	0	37	0	18874368	76	7380
2026-01-19 06:05:20.09	110.52	5.01	-52.0	-58.2	4.2	7.33e-01	0	37	0	23068672	76	7001
2026-01-19 06:05:21.10	110.44	5.08	-51.9	-57.9	4.2	7.33e-01	0	37	0	37748736	75	7179
2026-01-19 06:05:22.10	110.35	5.16	-49.1	-52.3	8.5	6.34e-01	0	37	0	54525952	70	5021
2026-01-19 06:05:23.11	110.26	5.23	-52.3	-58.6	4.2	7.32e-01	0	36	0	69206016	75	7777
2026-01-19 06:05:24.12	110.17	5.31	-52.5	-59.6	3.8	7.43e-01	0	37	104	81788928	75	8675
2026-01-19 06:05:25.13	110.08	5.38	-48.1	-50.9	10.0	6.17e-01	0	37	0	88080384	67	5073
2026-01-19 06:05:26.14	109.99	5.46	-53.1	-61.7	3.8	7.46e-01	0	37	104	96468992	76	10471
2026-01-19 06:05:27.14	109.90	5.54	-47.8	-50.4	10.4	6.13e-01	0	37	104	96468992	67	4812
2026-01-19 06:05:28.15	109.81	5.61	-47.9	-50.7	10.4	6.12e-01	0	37	0	109051904	67	4927
2026-01-19 06:05:29.16	109.72	5.69	-48.0	-50.8	10.2	6.11e-01	0	37	0	125829120	67	4999
2026-01-19 06:05:30.17	109.62	5.77	-47.0	-49.9	11.0	6.06e-01	0	37	0	140509184	66	4764
2026-01-19 06:05:31.17	109.53	5.84	-48.0	-50.9	10.2	6.12e-01	0	37	0	155189248	66	5345
2026-01-19 06:05:32.18	109.44	5.92	-47.7	-50.4	10.7	6.09e-01	0	37	0	171966464	67	4768
2026-01-19 06:05:33.19	109.34	6.00	-47.4	-50.0	11.1	6.06e-01	0	37	0	186646528	66	4845
2026-01-19 06:05:34.20	109.25	6.08	-47.6	-50.3	10.7	6.07e-01	0	37	0	201326592	66	5033
2026-01-19 06:05:35.21	109.15	6.16	-47.2	-49.8	11.2	6.01e-01	0	37	0	218103808	65	5014
2026-01-19 06:05:36.21	109.06	6.23	-47.8	-50.5	10.6	6.10e-01	0	37	0	232783872	67	4860
2026-01-19 06:05:37.22	108.96	6.31	-47.1	-49.7	11.3	6.03e-01	0	37	0	247463936	66	4699
2026-01-19 06:05:38.23	108.86	6.39	-47.8	-50.5	10.5	6.11e-01	0	37	0	264241152	66	5138
2026-01-19 06:05:39.24	108.76	6.47	-47.0	-49.6	11.5	6.05e-01	0	37	0	278921216	66	4609
2026-01-19 06:05:40.25	108.66	6.55	-47.0	-49.5	11.5	6.06e-01	0	37	0	295698432	65	4865
2026-01-19 06:05:41.25	108.56	6.63	-46.2	-48.6	12.4	5.98e-01	0	37	0	310378496	64	4643
2026-01-19 06:05:42.26	108.46	6.71	-46.7	-49.2	11.9	6.01e-01	0	37	0	327155712	63	5239
2026-01-19 06:05:43.27	108.36	6.79	-46.7	-49.2	11.9	6.05e-01	0	37	0	341835776	64	4928
2026-01-19 06:05:44.28	108.26	6.87	-46.9	-49.5	11.6	6.07e-01	0	37	0	356515840	64	5121
2026-01-19 06:05:45.28	108.16	6.95	-46.3	-48.7	12.3	6.01e-01	0	37	0	373293056	64	4705
2026-01-19 06:05:46.29	108.05	7.03	-46.8	-49.3	11.8	6.04e-01	0	37	0	387973120	64	5012
2026-01-19 06:05:47.30	107.95	7.12	-46.3	-48.7	12.3	6.00e-01	0	37	0	402653184	64	4688
2026-01-19 06:05:48.31	107.84	7.20	-46.4	-48.8	12.3	5.98e-01	0	37	0	419430400	64	4758
2026-01-19 06:05:49.32	107.74	7.28	-46.4	-48.9	12.2	6.02e-01	0	37	0	434110464	64	4787
2026-01-19 06:05:50.33	107.63	7.36	-46.6	-49.1	12.0	6.03e-01	0	37	0	448790528	64	4911
2026-01-19 06:05:51.34	107.52	7.44	-46.0	-48.4	12.7	5.98e-01	0	37	0	465567744	63	4766
2026-01-19 06:05:52.34	107.41	7.53	-46.5	-49.0	12.2	6.03e-01	0	37	0	480247808	63	5125
2026-01-19 06:05:53.35	107.30	7.61	-46.2	-48.6	12.6	6.02e-01	0	37	0	497025024	63	4881
2026-01-19 06:05:54.36	107.19	7.69	-46.3	-48.8	12.4	6.04e-01	0	37	0	511705088	63	4987
2026-01-19 06:05:55.37	107.08	7.78	-46.0	-48.4	12.8	6.03e-01	0	37	0	528482304	63	4786
2026-01-19 06:05:56.38	106.97	7.86	-46.0	-48.3	12.8	6.01e-01	0	37	0	543162368	63	4754
2026-01-19 06:05:57.39	106.86	7.95	-46.2	-48.6	12.6	5.99e-01	0	37	0	557842432	63	4873
2026-01-19 06:05:58.39	106.75	8.03	-45.9	-48.3	12.9	6.00e-01	0	37	0	574619648	63	4725
2026-01-19 06:05:59.40	106.63	8.12	-46.1	-48.5	12.7	6.01e-01	0	37	0	589299712	63	4834
2026-01-19 06:06:00.41	106.52	8.20	-46.0	-48.4	12.8	5.98e-01	0	37	0	603979776	63	4780
2026-01-19 06:06:01.41	106.40	8.29	-46.1	-48.4	12.7	6.02e-01	0	37	0	620756992	63	4803
2026-01-19 06:06:02.42	106.28	8.37	-45.9	-48.3	12.9	6.01e-01	0	37	0	635437056	63	4710
2026-01-19 06:06:03.43	106.17	8.46	-45.9	-48.2	13.0	5.99e-01	0	37	0	650117120	63	4680
2026-01-19 06:06:04.44	106.05	8.54	-45.9	-48.2	13.0	5.99e-01	0	37	0	666894336	63	4695
2026-01-19 06:06:05.44	105.93	8.63	-46.1	-48.5	12.7	6.01e-01	0	37	0	681574400	63	4837
2026-01-19 06:06:06.45	105.81	8.72	-45.7	-47.9	13.3	6.01e-01	0	37	0	698351616	63	4528
2026-01-19 06:06:07.46	105.69	8.80	-45.6	-47.9	13.4	6.02e-01	0	37	0	713031680	63	4497
2026-01-19 06:06:08.47	105.57	8.89	-45.6	-47.8	13.4	6.02e-01	0	37	0	729808896	62	4746
2026-01-19 06:06:09.48	105.44	8.98	-45.4	-47.6	13.6	5.99e-01	0	37	0	744488960	62	4603
2026-01-19 06:06:10.49	105.32	9.07	-45.2	-47.4	13.8	6.01e-01	0	37	0	759169024	62	4506
2026-01-19 06:06:11.50	105.19	9.16	-45.4	-47.6	13.5	6.01e-01	0	37	0	775946240	62	4638
2026-01-19 06:06:12.50	105.07	9.25	-45.3	-47.5	13.7	5.96e-01	0	37	0	790626304	62	4576
2026-01-19 06:06:13.51	104.94	9.33	-45.3	-47.5	13.7	5.97e-01	0	37	0	805306368	62	4584
2026-01-19 06:06:14.52	104.81	9.42	-45.2	-47.4	13.8	6.01e-01	0	37	0	822083584	62	4514
2026-01-19 06:06:15.53	104.68	9.51	-45.2	-47.3	13.8	5.99e-01	0	37	0	836763648	62	4490
2026-01-19 06:06:16.53	104.55	9.60	-45.0	-47.2	14.0	5.99e-01	0	37	0	851443712	62	4394
2026-01-19 06:06:17.54	104.42	9.69	-45.1	-47.2	13.9	5.97e-01	0	37	0	866123776	62	4427
2026-01-19 06:06:18.55	104.29	9.78	-45.0	-47.1	14.0	6.02e-01	0	37	0	884998144	62	4371
2026-01-19 06:06:19.55	104.16	9.88	-45.0	-47.1	14.0	5.97e-01	0	37	0	899678208	61	4641
2026-01-19 06:06:20.56	104.02	9.97	-45.1	-47.2	13.9	6.01e-01	0	37	0	914358272	61	4701
2026-01-19 06:06:21.57	103.89	10.06	-45.2	-47.3	13.8	6.01e-01	0	37	0	931135488	61	4742
2026-01-19 06:06:22.58	103.75	10.15	-45.0	-47.1	14.0	6.03e-01	0	37	0	945815552	61	4609
2026-01-19 06:06:23.59	103.62	10.24	-45.0	-47.1	14.0	6.05e-01	0	37	0	960495616	61	4630
2026-01-19 06:06:24.59	103.48	10.33	-45.0	-47.1	14.0	6.03e-01	0	37	0	975175680	61	4635
2026-01-19 06:06:25.60	103.34	10.43	-44.9	-47.1	14.1	5.99e-01	0	37	0	991952896	61	4608
2026-01-19 06:06:26.61	103.20	10.52	-45.0	-47.1	14.0	6.03e-01	0	37	0	1006632960	61	4623
2026-01-19 06:06:27.62	103.06	10.62	-44.9	-47.0	14.2	5.98e-01	0	37	0	1021313024	61	4586
2026-01-19 06:06:28.62	102.91	10.71	-45.0	-47.1	14.1	6.03e-01	0	38	0	1038090240	61	4629
2026-01-19 06:06:29.63	102.77	10.80	-44.8	-46.9	14.2	6.04e-01	0	37	0	1052770304	61	4527
2026-01-19 06:06:30.64	102.62	10.90	-44.5	-46.6	14.5	6.02e-01	0	37	0	1067450368	61	4349
2026-01-19 06:06:31.65	102.48	10.99	-44.6	-46.6	14.5	6.04e-01	0	37	0	1084227584	60	4641
2026-01-19 06:06:32.66	102.33	11.09	-44.5	-46.6	14.5	6.01e-01	0	37	0	1101004800	60	4615
2026-01-19 06:06:33.66	102.18	11.18	-44.4	-46.4	14.7	5.99e-01	0	38	0	1115684864	60	4538
2026-01-19 06:06:34.67	102.03	11.28	-44.2	-46.2	14.8	6.01e-01	0	38	0	1130364928	60	4428
2026-01-19 06:06:35.68	101.88	11.38	-44.4	-46.4	14.6	5.98e-01	0	37	0	1147142144	60	4539
2026-01-19 06:06:36.68	101.73	11.47	-44.3	-46.4	14.7	5.99e-01	0	37	0	1161822208	60	4496
2026-01-19 06:06:37.69	101.58	11.57	-44.2	-46.2	14.9	6.01e-01	0	37	0	1176502272	60	4394
2026-01-19 06:06:38.70	101.42	11.67	-44.0	-46.0	15.1	5.97e-01	0	38	0	1193279488	60	4316
2026-01-19 06:06:39.71	101.26	11.76	-44.1	-46.1	15.0	5.98e-01	0	37	0	1207959552	60	4365
2026-01-19 06:06:40.72	101.11	11.86	-44.0	-45.9	15.2	5.96e-01	0	37	0	1222639616	60	4282
2026-01-19 06:06:41.72	100.95	11.96	-44.1	-46.1	15.0	6.01e-01	0	37	0	1239416832	59	4628
2026-01-19 06:06:42.73	100.79	12.06	-44.0	-45.9	15.1	5.99e-01	0	37	0	1254096896	59	4541
2026-01-19 06:06:43.73	100.63	12.16	-44.1	-46.1	15.0	5.98e-01	0	37	0	1268776960	59	4633
2026-01-19 06:06:44.74	100.47	12.26	-44.0	-46.0	15.0	5.99e-01	0	37	0	1285554176	59	4596
2026-01-19 06:06:45.75	100.30	12.36	-44.1	-46.2	14.9	5.97e-01	0	37	0	1302331392	59	4656
2026-01-19 06:06:46.76	100.14	12.46	-43.9	-46.0	15.0	6.00e-01	0	37	0	1317011456	59	4566
2026-01-19 06:06:47.77	99.97	12.56	-43.8	-45.8	15.2	5.98e-01	0	37	0	1331691520	59	4490
2026-01-19 06:06:48.78	99.80	12.66	-44.2	-46.3	14.8	5.95e-01	0	37	0	1348468736	59	4719
2026-01-19 06:06:49.79	99.63	12.76	-43.7	-45.8	15.2	5.97e-01	0	37	0	1363148800	59	4458
2026-01-19 06:06:50.79	99.46	12.86	-44.1	-46.2	14.8	5.97e-01	0	37	0	1377828864	59	4699
2026-01-19 06:06:51.80	99.29	12.96	-44.0	-46.1	15.0	5.98e-01	0	38	0	1394606080	59	4619
2026-01-19 06:06:52.81	99.11	13.06	-43.8	-46.0	15.1	5.98e-01	0	37	0	1409286144	59	4569
2026-01-19 06:06:53.82	98.94	13.17	-44.0	-46.2	14.9	5.97e-01	0	37	0	1423966208	59	4692
2026-01-19 06:06:54.82	98.76	13.27	-43.8	-46.0	15.1	5.98e-01	0	38	0	1440743424	59	4562
2026-01-19 06:06:55.83	98.58	13.37	-43.9	-46.0	15.0	6.00e-01	0	37	0	1455423488	59	4591
2026-01-19 06:06:56.84	98.40	13.47	-43.8	-45.9	15.1	6.00e-01	0	37	0	1470103552	59	4528
2026-01-19 06:06:57.85	98.22	13.58	-43.8	-45.9	15.2	5.99e-01	0	38	0	1486880768	59	4506
2026-01-19 06:06:58.86	98.04	13.68	-43.7	-45.7	15.3	5.89e-01	0	37	0	1503657984	59	4432
2026-01-19 06:06:59.86	97.85	13.79	-43.8	-45.9	15.3	5.89e-01	0	38	0	1518338048	59	4506
2026-01-19 06:07:00.87	97.67	13.89	-43.3	-45.3	15.7	5.87e-01	0	37	0	1533018112	58	4492
2026-01-19 06:07:01.88	97.48	14.00	-43.7	-45.7	15.4	5.87e-01	0	37	0	1549795328	58	4669
2026-01-19 06:07:02.89	97.29	14.10	-43.3	-45.3	15.8	5.86e-01	0	38	0	1564475392	58	4455
2026-01-19 06:07:03.90	97.10	14.21	-43.4	-45.4	15.7	5.86e-01	0	38	0	1579155456	58	4526
2026-01-19 06:07:04.90	96.90	14.31	-43.3	-45.2	15.8	5.86e-01	0	37	0	1595932672	58	4417
2026-01-19 06:07:05.91	96.71	14.42	-43.4	-45.3	15.8	5.87e-01	0	37	0	1610612736	58	4475
2026-01-19 06:07:06.92	96.51	14.53	-43.2	-45.1	15.9	5.87e-01	0	37	0	1625292800	58	4373
2026-01-19 06:07:07.93	96.31	14.63	-43.2	-45.2	15.9	5.86e-01	0	37	0	1642070016	58	4399
2026-01-19 06:07:08.94	96.11	14.74	-43.0	-45.0	16.0	5.87e-01	0	37	0	1656750080	58	4313
2026-01-19 06:07:09.94	95.91	14.85	-43.1	-45.1	15.9	5.87e-01	0	37	0	1671430144	58	4370
2026-01-19 06:07:10.95	95.71	14.96	-43.0	-45.0	16.0	5.86e-01	0	38	0	1688207360	58	4334
2026-01-19 06:07:11.96	95.51	15.06	-43.0	-45.1	16.0	5.86e-01	0	38	0	1704984576	58	4347
2026-01-19 06:07:12.97	95.30	15.17	-42.8	-44.9	16.1	5.87e-01	0	38	0	1719664640	57	4515
2026-01-19 06:07:13.98	95.09	15.28	-42.9	-44.9	16.0	5.87e-01	0	38	0	1734344704	57	4545
2026-01-19 06:07:14.98	94.88	15.39	-42.8	-44.8	16.1	5.86e-01	0	38	0	1751121920	57	4492
2026-01-19 06:07:15.99	94.67	15.50	-42.9	-44.9	16.0	5.86e-01	0	38	0	1765801984	57	4523
2026-01-19 06:07:17.00	94.45	15.61	-42.9	-45.0	16.1	5.87e-01	0	38	0	1780482048	57	4547
2026-01-19 06:07:18.01	94.24	15.72	-42.8	-44.9	16.1	5.87e-01	0	37	0	1797259264	57	4500
2026-01-19 06:07:19.01	94.02	15.83	-42.8	-44.8	16.1	5.86e-01	0	38	0	1811939328	57	4490
2026-01-19 06:07:20.02	93.80	15.94	-42.8	-44.7	16.2	5.87e-01	0	38	0	1826619392	57	4430
2026-01-19 06:07:21.03	93.58	16.05	-42.7	-44.6	16.3	5.87e-01	0	37	0	1843396608	57	4391
2026-01-19 06:07:22.04	93.35	16.16	-42.6	-44.5	16.4	5.86e-01	0	38	0	1858076672	57	4330
2026-01-19 06:07:23.05	93.13	16.27	-42.6	-44.6	16.3	5.86e-01	0	38	0	1874853888	57	4354
2026-01-19 06:07:24.05	92.90	16.39	-42.5	-44.5	16.4	5.86e-01	0	37	0	1889533952	57	4301
2026-01-19 06:07:25.06	92.67	16.50	-42.3	-44.2	16.6	5.87e-01	0	38	0	1906311168	56	4424
2026-01-19 06:07:26.07	92.44	16.61	-42.4	-44.3	16.6	5.86e-01	0	38	0	1920991232	56	4477
2026-01-19 06:07:27.08	92.21	16.72	-42.4	-44.3	16.5	6.03e-01	0	38	0	1935671296	56	4483
2026-01-19 06:07:28.09	91.97	16.84	-42.2	-44.1	16.6	6.02e-01	0	37	0	1952448512	56	4384
2026-01-19 06:07:29.09	91.73	16.95	-42.1	-44.0	16.7	6.02e-01	0	38	0	1967128576	56	4329
2026-01-19 06:07:30.10	91.49	17.06	-42.0	-43.8	16.9	6.02e-01	0	38	0	1981808640	56	4221
2026-01-19 06:07:31.11	91.25	17.17	-42.1	-44.0	16.9	6.02e-01	0	37	0	1998585856	55	4548
2026-01-19 06:07:32.12	91.00	17.29	-42.1	-43.9	17.0	6.02e-01	0	37	0	2013265920	55	4532
2026-01-19 06:07:33.13	90.76	17.40	-42.0	-43.9	17.1	6.02e-01	0	38	0	2027945984	55	4502
2026-01-19 06:07:34.14	90.51	17.52	-42.0	-43.9	17.0	6.04e-01	0	38	0	2044723200	55	4494
2026-01-19 06:07:35.15	90.26	17.63	-42.0	-43.9	17.0	6.04e-01	0	38	0	2061500416	55	4511
2026-01-19 06:07:36.16	90.00	17.74	-41.9	-43.8	17.0	6.01e-01	0	38	0	2076180480	55	4490
2026-01-19 06:07:37.16	89.75	17.86	-42.0	-43.9	17.0	6.01e-01	0	38	0	2090860544	55	4510
2026-01-19 06:07:38.17	89.49	17.97	-42.0	-44.0	16.9	6.03e-01	0	38	0	2107637760	55	4573
2026-01-19 06:07:39.18	89.23	18.09	-42.1	-44.0	16.9	6.02e-01	0	38	0	2122317824	55	4588
2026-01-19 06:07:40.19	88.97	18.20	-41.9	-43.9	17.0	6.03e-01	0	38	0	2136997888	55	4516
2026-01-19 06:07:41.20	88.70	18.32	-42.0	-43.9	17.0	6.02e-01	0	38	0	2153775104	55	4531
2026-01-19 06:07:42.20	88.44	18.43	-41.9	-43.8	17.0	6.02e-01	0	38	0	2168455168	55	4484
2026-01-19 06:07:43.21	88.17	18.55	-41.9	-43.8	17.1	6.03e-01	0	37	0	2183135232	55	4473
2026-01-19 06:07:44.22	87.89	18.66	-41.9	-43.8	17.1	6.03e-01	0	38	0	2199912448	55	4461
2026-01-19 06:07:45.23	87.62	18.78	-42.0	-43.9	17.0	6.03e-01	0	38	0	2214592512	55	4494
2026-01-19 06:07:46.24	87.34	18.89	-42.0	-44.0	17.0	6.00e-01	0	37	0	2229272576	55	4557
2026-01-19 06:07:47.24	87.07	19.01	-41.6	-43.5	17.4	6.04e-01	0	38	0	2243952640	55	4321
2026-01-19 06:07:48.25	86.78	19.13	-41.5	-43.4	17.4	6.03e-01	0	38	0	2262827008	55	4284
2026-01-19 06:07:49.26	86.50	19.24	-41.4	-43.4	17.4	6.03e-01	0	38	0	2277507072	54	4510
2026-01-19 06:07:50.27	86.21	19.36	-41.5	-43.5	17.3	6.05e-01	0	38	0	2292187136	54	4564
2026-01-19 06:07:51.28	85.92	19.47	-41.4	-43.4	17.4	6.03e-01	0	38	0	2308964352	54	4505
2026-01-19 06:07:52.29	85.63	19.59	-41.5	-43.5	17.3	6.02e-01	0	38	0	2323644416	54	4556
2026-01-19 06:07:53.29	85.34	19.70	-41.4	-43.3	17.5	6.02e-01	0	38	0	2338324480	54	4485
2026-01-19 06:07:54.30	85.04	19.82	-41.4	-43.3	17.5	6.03e-01	0	38	0	2353004544	54	4475
2026-01-19 06:07:55.30	84.74	19.93	-41.4	-43.4	17.4	6.02e-01	0	38	0	2369781760	54	4508
2026-01-19 06:07:56.31	84.44	20.05	-41.3	-43.2	17.5	6.03e-01	0	38	0	2384461824	54	4428
2026-01-19 06:07:57.32	84.14	20.17	-41.2	-43.2	17.6	6.03e-01	0	38	0	2399141888	54	4405
2026-01-19 06:07:58.33	83.83	20.28	-41.1	-43.1	17.6	6.03e-01	0	37	0	2415919104	54	4346
2026-01-19 06:07:59.34	83.52	20.40	-41.0	-43.0	17.8	6.02e-01	0	38	0	2430599168	54	4296
2026-01-19 06:08:00.34	83.21	20.51	-41.3	-43.2	17.5	6.01e-01	0	38	0	2445279232	54	4429
2026-01-19 06:08:01.35	82.89	20.63	-41.2	-43.1	17.6	6.00e-01	0	38	0	2462056448	54	4388
2026-01-19 06:08:02.36	82.57	20.74	-41.4	-43.4	17.4	6.01e-01	0	38	0	2478833664	54	4497
2026-01-19 06:08:03.37	82.25	20.86	-41.3	-43.2	17.6	6.01e-01	0	38	0	2493513728	54	4419
2026-01-19 06:08:04.37	81.93	20.97	-41.3	-43.1	17.6	6.03e-01	0	38	0	2508193792	54	4388
2026-01-19 06:08:05.38	81.60	21.08	-41.3	-43.1	17.7	6.03e-01	0	38	0	2524971008	54	4382
2026-01-19 06:08:06.39	81.27	21.20	-41.1	-43.0	17.8	6.02e-01	0	38	0	2539651072	54	4306
2026-01-19 06:08:07.40	80.94	21.31	-40.9	-42.8	17.8	6.03e-01	0	37	0	2554331136	53	4455
2026-01-19 06:08:08.40	80.61	21.42	-40.9	-42.9	17.7	6.03e-01	0	38	0	2571108352	53	4511
2026-01-19 06:08:09.41	80.27	21.54	-40.9	-42.9	17.8	6.03e-01	0	38	0	2585788416	53	4508
2026-01-19 06:08:10.42	79.93	21.65	-40.9	-43.0	17.7	6.03e-01	0	37	0	2600468480	53	4573
2026-01-19 06:08:11.42	79.59	21.76	-40.9	-42.9	17.7	6.03e-01	0	38	0	2617245696	53	4519
2026-01-19 06:08:12.43	79.24	21.87	-40.7	-42.8	17.9	6.03e-01	0	37	0	2631925760	53	4462
2026-01-19 06:08:13.44	78.89	21.99	-40.7	-42.8	17.9	6.02e-01	0	38	0	2646605824	53	4453
2026-01-19 06:08:14.45	78.54	22.10	-40.7	-42.7	17.9	6.01e-01	0	38	0	2663383040	53	4438
2026-01-19 06:08:15.45	78.19	22.21	-40.7	-42.7	18.0	6.03e-01	0	37	0	2680160256	53	4398
2026-01-19 06:08:16.46	77.83	22.32	-40.8	-42.8	17.9	6.01e-01	0	38	0	2694840320	53	4452
2026-01-19 06:08:17.47	77.47	22.43	-40.7	-42.7	17.9	6.02e-01	0	38	0	2709520384	53	4417
2026-01-19 06:08:18.48	77.10	22.54	-40.9	-42.8	17.8	6.01e-01	0	38	0	2726297600	53	4463
2026-01-19 06:08:19.49	76.74	22.65	-40.8	-42.7	17.9	6.04e-01	0	38	0	2740977664	53	4393
2026-01-19 06:08:20.50	76.37	22.76	-40.6	-42.6	18.0	6.02e-01	0	38	0	2755657728	53	4353
2026-01-19 06:08:21.50	76.00	22.86	-40.7	-42.7	17.9	6.03e-01	0	38	0	2772434944	53	4424
2026-01-19 06:08:22.51	75.62	22.97	-40.9	-42.9	17.8	6.02e-01	0	38	0	2787115008	53	4524
2026-01-19 06:08:23.52	75.24	23.08	-40.8	-42.9	17.8	6.02e-01	0	38	0	2801795072	53	4519
2026-01-19 06:08:24.53	74.86	23.18	-40.7	-42.8	17.9	6.03e-01	0	38	0	2818572288	53	4474
2026-01-19 06:08:25.53	74.48	23.29	-40.7	-42.8	17.9	6.02e-01	0	38	0	2833252352	53	4450
2026-01-19 06:08:26.54	74.10	23.39	-40.5	-42.6	18.1	6.03e-01	0	38	0	2847932416	53	4362
2026-01-19 06:08:27.55	73.71	23.49	-40.4	-42.5	18.0	6.02e-01	0	38	0	2864709632	52	4563
2026-01-19 06:08:28.56	73.31	23.60	-40.4	-42.4	18.1	6.02e-01	0	38	0	2881486848	52	4542
2026-01-19 06:08:29.57	72.92	23.70	-40.4	-42.4	18.2	6.05e-01	0	38	0	2896166912	52	4517
2026-01-19 06:08:30.58	72.52	23.80	-40.3	-42.3	18.2	6.03e-01	0	38	0	2910846976	52	4474
2026-01-19 06:08:31.58	72.12	23.90	-40.2	-42.2	18.2	6.03e-01	0	38	0	2927624192	52	4422
2026-01-19 06:08:32.59	71.72	24.00	-40.1	-42.1	18.3	6.03e-01	0	38	0	2942304256	52	4382
2026-01-19 06:08:33.60	71.31	24.10	-40.2	-42.2	18.3	6.03e-01	0	38	0	2956984320	52	4417
2026-01-19 06:08:34.61	70.90	24.19	-40.2	-42.2	18.3	6.06e-01	0	38	0	2973761536	52	4431
2026-01-19 06:08:35.62	70.49	24.29	-40.2	-42.2	18.3	6.03e-01	0	38	0	2988441600	52	4436
2026-01-19 06:08:36.62	70.07	24.39	-40.3	-42.4	18.2	6.02e-01	0	38	0	3003121664	52	4506
2026-01-19 06:08:37.63	69.65	24.48	-40.3	-42.3	18.2	6.02e-01	0	38	0	3019898880	52	4472
2026-01-19 06:08:38.64	69.23	24.57	-40.2	-42.2	18.2	6.03e-01	0	38	0	3034578944	52	4406
2026-01-19 06:08:39.65	68.81	24.67	-40.3	-42.3	18.3	6.02e-01	0	38	0	3051356160	52	4456
2026-01-19 06:08:40.66	68.38	24.76	-40.4	-42.4	18.2	6.04e-01	0	38	0	3066036224	52	4494
2026-01-19 06:08:41.67	67.95	24.85	-40.3	-42.4	18.2	6.03e-01	0	38	0	3082813440	52	4512
2026-01-19 06:08:42.68	67.52	24.93	-40.3	-42.5	18.1	6.01e-01	0	38	0	3097493504	52	4547
2026-01-19 06:08:43.68	67.09	25.02	-40.3	-42.5	18.1	6.00e-01	0	38	0	3112173568	52	4580
2026-01-19 06:08:44.69	66.65	25.11	-40.4	-42.5	18.1	6.04e-01	0	38	0	3128950784	52	4577
2026-01-19 06:08:45.70	66.21	25.19	-40.3	-42.5	18.1	6.02e-01	0	38	0	3143630848	52	4577
2026-01-19 06:08:46.71	65.77	25.27	-40.5	-42.6	18.1	6.04e-01	0	38	0	3158310912	52	4619
2026-01-19 06:08:47.72	65.32	25.36	-40.3	-42.4	18.2	6.04e-01	0	38	0	3175088128	52	4543
2026-01-19 06:08:48.72	64.88	25.43	-40.3	-42.5	18.1	6.04e-01	0	38	0	3189768192	52	4550
2026-01-19 06:08:49.73	64.43	25.51	-40.3	-42.4	18.1	6.05e-01	0	38	0	3204448256	52	4527
2026-01-19 06:08:50.74	63.97	25.59	-40.3	-42.4	18.1	6.03e-01	0	38	0	3221225472	52	4530
2026-01-19 06:08:51.75	63.52	25.67	-40.4	-42.6	18.1	6.03e-01	0	38	0	3238002688	52	4612
2026-01-19 06:08:52.75	63.07	25.74	-40.4	-42.6	18.1	6.01e-01	0	38	0	3252682752	52	4604
2026-01-19 06:08:53.76	62.61	25.81	-40.5	-42.5	18.1	6.02e-01	0	38	0	3267362816	52	4595
2026-01-19 06:08:54.77	62.14	25.88	-40.5	-42.6	18.1	6.03e-01	0	38	0	3284140032	52	4618
2026-01-19 06:08:55.78	61.68	25.95	-40.6	-42.7	17.9	6.01e-01	0	38	0	3298820096	52	4703
2026-01-19 06:08:56.79	61.21	26.02	-40.5	-42.8	18.0	6.02e-01	0	38	0	3313500160	52	4717
2026-01-19 06:08:57.79	60.75	26.09	-40.7	-42.9	17.9	6.03e-01	0	38	0	3330277376	52	4796
2026-01-19 06:08:58.80	60.27	26.15	-40.6	-42.8	17.9	6.03e-01	0	38	0	3344957440	52	4725
2026-01-19 06:08:59.81	59.80	26.21	-40.6	-42.8	17.9	6.02e-01	0	38	0	3359637504	52	4707
2026-01-19 06:09:00.82	59.33	26.27	-40.5	-42.7	17.9	6.02e-01	0	38	0	3376414720	52	4695
2026-01-19 06:09:01.83	58.85	26.33	-40.6	-42.9	17.8	6.04e-01	0	38	0	3391094784	52	4769
2026-01-19 06:09:02.83	58.37	26.39	-40.5	-42.8	17.9	6.03e-01	0	38	0	3405774848	52	4753
2026-01-19 06:09:03.84	57.89	26.44	-40.5	-42.8	17.9	6.03e-01	0	38	0	3422552064	52	4755
2026-01-19 06:09:04.85	57.41	26.50	-40.5	-42.9	17.9	6.04e-01	0	38	0	3437232128	52	4762
2026-01-19 06:09:05.86	56.92	26.55	-40.6	-42.9	17.8	6.02e-01	0	38	0	3454009344	52	4798
2026-01-19 06:09:06.86	56.44	26.60	-40.6	-42.9	17.8	6.03e-01	0	38	0	3468689408	52	4814
2026-01-19 06:09:07.87	55.95	26.64	-40.6	-42.8	17.9	6.03e-01	0	38	0	3485466624	52	4730
2026-01-19 06:09:08.88	55.47	26.69	-40.5	-42.8	18.0	6.03e-01	0	38	0	3500146688	52	4712
2026-01-19 06:09:09.89	54.97	26.73	-40.5	-42.8	17.9	6.03e-01	0	38	0	3514826752	52	4718
2026-01-19 06:09:10.90	54.48	26.77	-40.6	-42.9	17.9	6.04e-01	0	38	0	3531603968	52	4785
2026-01-19 06:09:11.90	53.99	26.81	-40.5	-42.8	17.9	6.02e-01	0	38	0	3546284032	52	4719
2026-01-19 06:09:12.91	53.50	26.85	-40.6	-42.8	17.9	6.02e-01	0	38	0	3560964096	52	4741
2026-01-19 06:09:13.92	53.00	26.88	-40.6	-42.9	17.9	6.03e-01	0	38	0	3575644160	52	4764
2026-01-19 06:09:14.93	52.50	26.92	-40.5	-42.8	17.9	6.02e-01	0	38	0	3592421376	52	4733
2026-01-19 06:09:15.93	52.01	26.95	-40.6	-42.9	17.8	6.05e-01	0	38	0	3607101440	52	4788
2026-01-19 06:09:16.94	51.51	26.98	-40.5	-42.8	17.9	6.05e-01	0	38	0	3621781504	52	4739
2026-01-19 06:09:17.95	51.01	27.00	-40.5	-42.8	17.9	6.06e-01	0	38	0	3640655872	52	4741
2026-01-19 06:09:18.96	50.51	27.03	-40.4	-42.8	17.9	6.04e-01	0	38	0	3655335936	52	4741
2026-01-19 06:09:19.97	50.01	27.05	-40.4	-42.7	18.0	6.05e-01	0	38	0	3670016000	52	4670
2026-01-19 06:09:20.98	49.50	27.07	-40.4	-42.7	18.0	6.04e-01	0	38	0	3684696064	52	4673
2026-01-19 06:09:21.98	49.00	27.09	-40.5	-42.8	17.9	6.03e-01	0	38	0	3701473280	52	4709
2026-01-19 06:09:22.99	48.50	27.10	-40.6	-42.9	17.8	6.05e-01	0	38	0	3716153344	52	4807
2026-01-19 06:09:24.00	47.99	27.11	-40.4	-42.8	17.9	6.03e-01	0	38	0	3730833408	52	4715
2026-01-19 06:09:25.01	47.49	27.12	-40.5	-42.8	17.9	6.03e-01	0	38	0	3747610624	52	4754
2026-01-19 06:09:26.02	46.98	27.13	-40.5	-42.9	17.9	6.02e-01	0	38	0	3762290688	52	4779
2026-01-19 06:09:27.02	46.48	27.14	-40.7	-43.1	17.7	6.03e-01	0	38	0	3776970752	52	4903
2026-01-19 06:09:28.03	45.98	27.14	-40.5	-42.8	17.9	6.01e-01	0	38	0	3793747968	52	4736
2026-01-19 06:09:29.04	45.47	27.14	-40.5	-42.8	17.9	6.02e-01	0	38	0	3808428032	52	4740
2026-01-19 06:09:30.05	44.97	27.14	-40.4	-42.8	18.0	6.02e-01	0	38	0	3825205248	52	4728
2026-01-19 06:09:31.05	44.47	27.14	-40.5	-42.8	17.9	6.02e-01	0	38	0	3839885312	52	4753
2026-01-19 06:09:32.06	43.96	27.14	-40.4	-42.7	18.0	6.01e-01	0	38	0	3856662528	52	4683
2026-01-19 06:09:33.07	43.45	27.13	-40.4	-42.8	17.9	6.01e-01	0	38	0	3871342592	52	4745
2026-01-19 06:09:34.08	42.95	27.12	-40.5	-42.9	17.9	6.02e-01	0	38	0	3886022656	52	4785
2026-01-19 06:09:35.09	42.44	27.11	-40.6	-43.0	17.8	6.05e-01	0	38	0	3902799872	52	4837
2026-01-19 06:09:36.10	41.94	27.09	-40.7	-43.1	17.7	6.01e-01	0	38	0	3917479936	52	4921
2026-01-19 06:09:37.10	41.44	27.08	-40.8	-43.2	17.7	6.04e-01	0	38	0	3932160000	52	4928
2026-01-19 06:09:38.11	40.94	27.06	-40.7	-43.0	17.7	6.01e-01	0	38	0	3948937216	52	4870
2026-01-19 06:09:39.12	40.44	27.04	-40.6	-43.1	17.8	6.02e-01	0	38	0	3963617280	52	4880
2026-01-19 06:09:40.13	39.93	27.02	-40.7	-43.2	17.7	6.02e-01	0	38	0	3978297344	52	4942
2026-01-19 06:09:41.13	39.44	26.99	-40.6	-43.0	17.7	6.03e-01	0	38	0	3995074560	52	4862
2026-01-19 06:09:42.14	38.94	26.96	-40.6	-43.1	17.7	6.02e-01	0	38	0	4009754624	52	4880
2026-01-19 06:09:43.15	38.44	26.93	-40.6	-43.0	17.8	6.02e-01	0	38	0	4026531840	52	4831
2026-01-19 06:09:44.16	37.94	26.90	-40.8	-43.1	17.7	5.99e-01	0	38	0	4041211904	52	4898
2026-01-19 06:09:45.16	37.45	26.87	-40.7	-43.0	17.8	6.02e-01	0	38	0	4057989120	52	4830
2026-01-19 06:09:46.17	36.95	26.83	-40.6	-43.0	17.8	6.03e-01	0	38	0	4072669184	52	4840
2026-01-19 06:09:47.18	36.46	26.79	-40.7	-43.1	17.7	6.00e-01	0	38	0	4087349248	52	4895
2026-01-19 06:09:48.19	35.97	26.75	-40.8	-43.4	17.5	6.01e-01	0	38	0	4104126464	52	5050
2026-01-19 06:09:49.20	35.48	26.71	-40.9	-43.5	17.4	6.02e-01	0	38	0	4118806528	52	5110
2026-01-19 06:09:50.20	34.99	26.67	-40.9	-43.4	17.5	6.04e-01	0	38	0	4133486592	52	5082
2026-01-19 06:09:51.21	34.50	26.62	-40.8	-43.3	17.5	6.00e-01	0	38	0	4150263808	52	5012
2026-01-19 06:09:52.22	34.02	26.57	-41.0	-43.4	17.5	6.02e-01	0	38	0	4164943872	52	5061
2026-01-19 06:09:53.23	33.53	26.52	-40.8	-43.3	17.6	6.02e-01	0	38	0	4179623936	52	4997
2026-01-19 06:09:54.24	33.05	26.47	-41.0	-43.5	17.4	6.00e-01	0	38	0	4196401152	52	5113
2026-01-19 06:09:55.24	32.57	26.42	-41.0	-43.6	17.4	6.00e-01	0	38	0	4211081216	52	5178
2026-01-19 06:09:56.25	32.09	26.36	-41.1	-43.7	17.3	5.99e-01	0	38	0	4227858432	52	5272
2026-01-19 06:09:57.26	31.61	26.30	-41.1	-43.7	17.2	6.01e-01	0	38	0	4242538496	52	5276
2026-01-19 06:09:58.26	31.14	26.25	-41.2	-43.7	17.2	6.00e-01	0	38	0	4259315712	52	5277
2026-01-19 06:09:59.27	30.67	26.18	-41.1	-43.6	17.4	5.91e-01	0	38	0	4273995776	52	5194
2026-01-19 06:10:00.28	30.20	26.12	-41.0	-43.6	17.3	6.01e-01	0	38	0	4288675840	52	5168
2026-01-19 06:10:01.29	29.73	26.06	-41.2	-43.7	17.2	6.02e-01	0	38	0	4305453056	52	5275
2026-01-19 06:10:02.30	29.26	25.99	-41.2	-43.8	17.2	6.00e-01	0	38	0	4320133120	52	5281
2026-01-19 06:10:03.30	28.80	25.92	-41.4	-44.0	17.1	6.01e-01	0	38	0	4334813184	53	5109
2026-01-19 06:10:04.31	28.34	25.85	-41.3	-43.8	17.2	6.02e-01	0	38	0	4351590400	53	5026
2026-01-19 06:10:05.32	27.87	25.78	-41.3	-43.8	17.2	6.04e-01	0	38	0	4366270464	53	5007
2026-01-19 06:10:06.33	27.42	25.71	-41.4	-43.8	17.1	6.02e-01	0	38	0	4380950528	53	5037
2026-01-19 06:10:07.34	26.96	25.63	-41.3	-43.8	17.2	6.02e-01	0	38	0	4397727744	53	4993
2026-01-19 06:10:08.34	26.51	25.56	-41.3	-43.8	17.2	6.00e-01	0	38	0	4412407808	53	5022
2026-01-19 06:10:09.35	26.06	25.48	-41.5	-43.9	17.1	6.02e-01	0	38	0	4429185024	53	5086
2026-01-19 06:10:10.36	25.61	25.40	-41.5	-44.0	17.0	6.02e-01	0	38	0	4443865088	53	5118
2026-01-19 06:10:11.37	25.17	25.32	-41.5	-44.0	17.1	6.02e-01	0	38	0	4460642304	53	5122
2026-01-19 06:10:12.38	24.72	25.24	-41.4	-43.9	17.1	6.02e-01	0	38	0	4475322368	53	5052
2026-01-19 06:10:13.38	24.29	25.15	-41.2	-43.8	17.2	5.98e-01	0	38	0	4490002432	53	5005
2026-01-19 06:10:14.39	23.85	25.07	-41.3	-43.8	17.2	5.99e-01	0	38	0	4506779648	53	5020
2026-01-19 06:10:15.40	23.41	24.98	-41.2	-43.7	17.2	5.99e-01	0	38	0	4521459712	53	4975
2026-01-19 06:10:16.41	22.98	24.89	-41.2	-43.7	17.3	6.02e-01	0	38	0	4536139776	53	4946
2026-01-19 06:10:17.42	22.55	24.81	-41.2	-43.7	17.2	6.00e-01	0	38	0	4552916992	53	4974
2026-01-19 06:10:18.43	22.12	24.72	-41.2	-43.7	17.2	6.02e-01	0	38	0	4567597056	53	4954
2026-01-19 06:10:19.44	21.70	24.62	-41.3	-43.8	17.2	6.01e-01	0	38	0	4582277120	53	4994
2026-01-19 06:10:20.44	21.28	24.53	-41.3	-43.8	17.1	6.05e-01	0	38	0	4596957184	53	5038
2026-01-19 06:10:21.45	20.86	24.44	-41.2	-43.7	17.2	6.01e-01	0	38	0	4615831552	53	4982
2026-01-19 06:10:22.46	20.44	24.35	-41.2	-43.7	17.3	5.97e-01	0	38	0	4630511616	53	4956
2026-01-19 06:10:23.47	20.03	24.25	-41.3	-43.8	17.2	6.02e-01	0	38	0	4645191680	53	4987
2026-01-19 06:10:24.47	19.62	24.15	-41.3	-43.8	17.2	6.00e-01	0	38	0	4661968896	53	5030
2026-01-19 06:10:25.48	19.22	24.06	-41.4	-44.0	17.0	6.03e-01	0	38	0	4676648960	53	5120
2026-01-19 06:10:26.49	18.81	23.96	-41.5	-44.1	16.9	6.01e-01	0	38	0	4691329024	53	5196
2026-01-19 06:10:27.50	18.41	23.86	-41.7	-44.3	16.8	6.01e-01	0	38	0	4708106240	53	5285
2026-01-19 06:10:28.50	18.01	23.76	-41.8	-44.4	16.8	6.02e-01	0	38	0	4722786304	54	5048
2026-01-19 06:10:29.51	17.62	23.66	-41.9	-44.4	16.7	6.01e-01	0	38	0	4737466368	54	5100
2026-01-19 06:10:30.52	17.22	23.56	-41.7	-44.2	16.9	6.01e-01	0	38	0	4754243584	54	4972
2026-01-19 06:10:31.53	16.83	23.45	-41.5	-43.9	17.1	6.02e-01	0	38	0	4768923648	54	4784
2026-01-19 06:10:32.54	16.45	23.35	-41.4	-43.9	17.1	6.00e-01	0	38	0	4783603712	54	4768
2026-01-19 06:10:33.54	16.06	23.25	-41.4	-43.9	17.1	6.01e-01	0	38	0	4798283776	54	4804
2026-01-19 06:10:34.55	15.68	23.14	-41.6	-44.1	16.9	6.01e-01	0	38	0	4817158144	54	4891
2026-01-19 06:10:35.56	15.30	23.03	-41.5	-44.1	17.0	6.02e-01	0	38	0	4831838208	54	4875
2026-01-19 06:10:36.57	14.93	22.93	-41.6	-44.2	16.9	6.01e-01	0	38	0	4846518272	54	4944
2026-01-19 06:10:37.58	14.55	22.82	-41.6	-44.1	16.9	5.98e-01	0	38	0	4863295488	54	4916
2026-01-19 06:10:38.59	14.18	22.71	-41.6	-44.1	17.0	6.02e-01	0	38	0	4877975552	54	4884
2026-01-19 06:10:39.60	13.82	22.61	-41.7	-44.2	16.9	6.00e-01	0	38	0	4892655616	54	4936
2026-01-19 06:10:40.60	13.46	22.50	-41.7	-44.2	16.9	6.02e-01	0	38	0	4907335680	54	4940
2026-01-19 06:10:41.61	13.09	22.39	-41.8	-44.2	16.9	6.01e-01	0	38	0	4924112896	54	4946
2026-01-19 06:10:42.62	12.74	22.28	-41.8	-44.2	16.9	6.01e-01	0	38	0	4938792960	54	4959
2026-01-19 06:10:43.63	12.38	22.17	-41.8	-44.1	17.0	6.01e-01	0	38	0	4953473024	54	4893
2026-01-19 06:10:44.64	12.03	22.06	-41.8	-44.1	16.9	6.01e-01	0	38	0	4970250240	54	4905
2026-01-19 06:10:45.64	11.68	21.95	-41.8	-44.2	16.8	6.01e-01	0	38	0	4984930304	54	4971
2026-01-19 06:10:46.65	11.33	21.84	-41.8	-44.2	16.8	6.01e-01	0	38	0	5001707520	54	4982
2026-01-19 06:10:47.66	10.99	21.72	-41.8	-44.3	16.8	6.03e-01	0	38	0	5016387584	54	4996
2026-01-19 06:10:48.67	10.65	21.61	-41.9	-44.4	16.7	6.02e-01	0	38	0	5033164800	54	5080
2026-01-19 06:10:49.68	10.31	21.50	-41.9	-44.3	16.7	6.02e-01	0	38	0	5047844864	54	5036
2026-01-19 06:10:50.68	9.98	21.39	-41.8	-44.3	16.8	6.01e-01	0	38	0	5062524928	54	4994
2026-01-19 06:10:51.69	9.64	21.27	-42.0	-44.5	16.7	6.01e-01	0	38	0	5079302144	54	5103
2026-01-19 06:10:52.70	9.31	21.16	-41.9	-44.4	16.7	5.98e-01	0	38	0	5093982208	54	5067
2026-01-19 06:10:53.71	8.99	21.04	-42.0	-44.5	16.6	6.00e-01	0	38	0	5108662272	54	5132
2026-01-19 06:10:54.72	8.66	20.93	-42.1	-44.5	16.6	5.99e-01	0	38	0	5125439488	54	5154
2026-01-19 06:10:55.72	8.34	20.82	-42.2	-44.6	16.6	5.99e-01	0	38	0	5140119552	54	5199
2026-01-19 06:10:56.73	8.02	20.70	-42.3	-44.7	16.4	6.01e-01	0	38	0	5154799616	55	4969
2026-01-19 06:10:57.74	7.71	20.59	-42.4	-44.8	16.4	6.00e-01	0	38	0	5171576832	55	5014
2026-01-19 06:10:58.74	7.40	20.47	-42.3	-44.8	16.4	6.00e-01	0	38	0	5186256896	55	4997
2026-01-19 06:10:59.75	7.09	20.36	-42.4	-44.8	16.4	6.01e-01	0	38	0	5203034112	55	5028
2026-01-19 06:11:00.76	6.78	20.24	-42.5	-44.9	16.3	6.02e-01	0	38	0	5217714176	55	5091
2026-01-19 06:11:01.77	6.47	20.13	-42.5	-44.9	16.3	6.01e-01	0	38	0	5234491392	55	5086
2026-01-19 06:11:02.77	6.17	20.02	-42.5	-44.9	16.3	6.01e-01	0	38	0	5249171456	55	5072
2026-01-19 06:11:03.78	5.87	19.90	-42.4	-44.8	16.3	6.02e-01	0	38	0	5263851520	55	5038
2026-01-19 06:11:04.79	5.57	19.78	-42.4	-44.8	16.4	6.01e-01	0	38	0	5280628736	55	5016
2026-01-19 06:11:05.80	5.28	19.67	-42.4	-44.8	16.3	6.04e-01	0	38	0	5295308800	55	5005
2026-01-19 06:11:06.81	4.99	19.55	-42.4	-44.8	16.3	6.02e-01	0	38	0	5309988864	55	5032
2026-01-19 06:11:07.82	4.70	19.44	-42.5	-45.0	16.2	6.01e-01	0	38	0	5326766080	55	5140
2026-01-19 06:11:08.82	4.41	19.32	-42.6	-45.1	16.1	6.01e-01	0	38	0	5341446144	55	5209
2026-01-19 06:11:09.83	4.13	19.21	-42.6	-45.1	16.1	6.01e-01	0	38	0	5356126208	55	5205
2026-01-19 06:11:10.84	3.84	19.09	-42.7	-45.2	16.0	5.99e-01	0	38	0	5372903424	55	5257
2026-01-19 06:11:11.85	3.56	18.98	-42.7	-45.1	15.9	6.00e-01	0	38	0	5389680640	56	4907
2026-01-19 06:11:12.86	3.29	18.86	-42.5	-44.9	16.2	6.00e-01	0	38	0	5404360704	56	4776
2026-01-19 06:11:13.86	3.01	18.75	-42.5	-44.9	16.2	6.01e-01	0	38	0	5419040768	56	4760
2026-01-19 06:11:14.87	2.74	18.63	-42.7	-45.0	16.0	5.99e-01	0	38	0	5435817984	56	4838
2026-01-19 06:11:15.88	2.47	18.52	-42.5	-44.8	16.2	6.01e-01	0	38	0	5450498048	56	4722
2026-01-19 06:11:16.89	2.20	18.40	-42.6	-44.9	16.1	6.01e-01	0	38	0	5465178112	56	4802
2026-01-19 06:11:17.89	1.94	18.29	-42.7	-45.1	16.0	6.02e-01	0	38	0	5481955328	56	4875
2026-01-19 06:11:18.90	1.68	18.17	-42.7	-45.1	16.0	6.02e-01	0	38	0	5496635392	56	4887
2026-01-19 06:11:19.91	1.42	18.06	-42.9	-45.2	15.8	6.00e-01	0	38	0	5511315456	56	4969
2026-01-19 06:11:20.92	1.16	17.95	-42.8	-45.2	15.9	6.01e-01	0	38	0	5528092672	56	4947
2026-01-19 06:11:21.93	0.90	17.83	-42.8	-45.2	15.9	6.01e-01	0	38	0	5542772736	56	4932
2026-01-19 06:11:22.93	0.65	17.72	-42.8	-45.2	15.9	6.01e-01	0	38	0	5557452800	56	4941
2026-01-19 06:11:23.94	0.40	17.60	-42.8	-45.2	15.9	5.99e-01	0	38	0	5574230016	56	4931
2026-01-19 06:11:24.95	0.15	17.49	-42.9	-45.2	15.8	5.98e-01	0	38	0	5591007232	56	4956
2026-01-19 06:11:25.96	359.90	17.38	-42.9	-45.2	15.8	6.00e-01	0	38	0	5605687296	56	4981
2026-01-19 06:11:26.96	359.66	17.26	-43.1	-45.4	15.7	6.02e-01	0	38	0	5620367360	56	5055
2026-01-19 06:11:27.97	359.42	17.15	-43.1	-45.4	15.7	6.01e-01	0	38	0	5637144576	56	5085
2026-01-19 06:11:28.98	359.17	17.04	-43.2	-45.6	15.6	6.01e-01	0	38	0	5651824640	56	5169
2026-01-19 06:11:29.99	358.94	16.93	-43.2	-45.6	15.5	6.01e-01	0	38	0	5666504704	56	5199
2026-01-19 06:11:30.99	358.70	16.81	-43.3	-45.7	15.5	6.00e-01	0	38	0	5683281920	57	4938
2026-01-19 06:11:32.00	358.47	16.70	-43.2	-45.6	15.5	6.02e-01	0	38	0	5697961984	57	4919
2026-01-19 06:11:33.01	358.23	16.59	-43.3	-45.7	15.4	6.01e-01	0	38	0	5712642048	57	4946
2026-01-19 06:11:34.02	358.00	16.48	-43.3	-45.7	15.4	6.01e-01	0	38	0	5729419264	57	4955
2026-01-19 06:11:35.03	357.78	16.37	-43.3	-45.6	15.4	6.03e-01	0	38	0	5744099328	57	4914
2026-01-19 06:11:36.04	357.55	16.26	-43.3	-45.7	15.4	6.02e-01	0	38	0	5758779392	57	4963
2026-01-19 06:11:37.04	357.33	16.15	-43.5	-45.9	15.2	6.04e-01	0	38	0	5775556608	57	5083
2026-01-19 06:11:38.05	357.11	16.03	-43.4	-45.8	15.4	5.87e-01	0	38	0	5792333824	57	5039
2026-01-19 06:11:39.05	356.89	15.93	-43.4	-45.8	15.4	5.86e-01	0	38	0	5807013888	57	5028
2026-01-19 06:11:40.06	356.67	15.81	-43.5	-45.9	15.3	5.87e-01	0	38	0	5821693952	57	5098
2026-01-19 06:11:41.07	356.45	15.71	-43.6	-46.1	15.2	5.87e-01	0	38	0	5838471168	57	5163
2026-01-19 06:11:42.08	356.24	15.60	-43.7	-46.1	15.1	5.87e-01	0	38	0	5853151232	57	5206
2026-01-19 06:11:43.09	356.02	15.49	-43.8	-46.3	15.0	5.86e-01	0	38	0	5867831296	58	4988
2026-01-19 06:11:44.10	355.81	15.38	-43.9	-46.5	14.8	5.87e-01	0	38	0	5884608512	58	5114
2026-01-19 06:11:45.10	355.61	15.27	-43.9	-46.4	14.9	5.87e-01	0	38	0	5899288576	58	5089
2026-01-19 06:11:46.11	355.40	15.16	-44.0	-46.5	14.8	5.87e-01	0	38	0	5913968640	58	5135
2026-01-19 06:11:47.12	355.19	15.05	-45.5	-46.6	14.8	5.86e-01	0	38	0	5930745856	61	4352
2026-01-19 06:11:48.13	354.99	14.94	-45.4	-46.5	14.9	5.86e-01	0	38	0	5945425920	61	4323
2026-01-19 06:11:49.13	354.79	14.84	-54.5	-63.5	3.7	7.46e-01	0	38	0	5960105984	64	25726
2026-01-19 06:11:50.14	354.59	14.73	-54.0	-62.9	3.8	7.46e-01	0	38	104	5960105984	78	10730
2026-01-19 06:11:51.15	354.39	14.62	-54.0	-62.9	3.8	7.45e-01	0	38	104	5960105984	78	10681
2026-01-19 06:11:52.16	354.19	14.52	-54.1	-62.9	3.8	7.46e-01	0	38	104	5960105984	78	10756
2026-01-19 06:11:53.17	354.00	14.41	-54.0	-62.9	3.8	7.46e-01	0	38	104	5960105984	78	10659
2026-01-19 06:11:54.17	353.81	14.31	-53.9	-62.8	3.8	7.44e-01	0	38	104	5960105984	78	10572
2026-01-19 06:11:55.18	353.62	14.20	-53.9	-62.8	3.8	7.45e-01	0	38	104	5960105984	78	10592
2026-01-19 06:11:56.19	353.43	14.09	-54.0	-62.8	3.8	7.45e-01	0	38	104	5960105984	78	10563
2026-01-19 06:11:57.20	353.24	13.99	-54.0	-62.8	3.8	7.46e-01	0	38	104	5960105984	78	10606
2026-01-19 06:11:58.20	353.05	13.89	-53.9	-62.8	3.8	7.46e-01	0	38	104	5960105984	78	10554
2026-01-19 06:11:59.21	352.87	13.78	-53.9	-62.8	3.8	7.46e-01	0	38	104	5960105984	78	10539
2026-01-19 06:12:00.22	352.68	13.68	-53.9	-62.8	3.8	7.46e-01	0	38	104	5960105984	78	10554
2026-01-19 06:12:01.23	352.50	13.57	-53.9	-62.8	3.8	7.45e-01	0	38	104	5960105984	78	10595
2026-01-19 06:12:02.24	352.32	13.47	-53.9	-62.7	3.8	7.45e-01	0	38	104	5960105984	78	10494
2026-01-19 06:12:03.24	352.14	13.37	-53.9	-62.7	3.8	7.46e-01	0	38	104	5960105984	78	10484
2026-01-19 06:12:04.25	351.97	13.27	-53.9	-62.7	3.8	7.47e-01	0	38	104	5960105984	78	10513
2026-01-19 06:12:05.26	351.79	13.16	-53.9	-62.7	3.8	7.44e-01	0	38	104	5960105984	78	10505
2026-01-19 06:12:06.27	351.62	13.06	-53.8	-62.7	3.8	7.45e-01	0	38	104	5960105984	78	10448
2026-01-19 06:12:07.27	351.45	12.96	-53.8	-62.7	3.8	7.45e-01	0	38	104	5960105984	78	10495
2026-01-19 06:12:08.28	351.27	12.86	-53.9	-62.7	3.8	7.45e-01	0	38	104	5960105984	78	10497
2026-01-19 06:12:09.29	351.10	12.76	-53.9	-62.7	3.8	7.45e-01	0	38	104	5960105984	78	10510
2026-01-19 06:12:10.30	350.94	12.66	-53.8	-62.7	3.8	7.46e-01	0	38	104	5960105984	78	10430
2026-01-19 06:12:11.30	350.77	12.56	-53.8	-62.7	3.8	7.45e-01	0	38	104	5960105984	78	10436
2026-01-19 06:12:12.31	350.60	12.46	-53.8	-62.7	3.8	7.46e-01	0	38	104	5960105984	78	10451
2026-01-19 06:12:13.32	350.44	12.36	-53.8	-62.7	3.8	7.44e-01	0	38	104	5960105984	78	10432
2026-01-19 06:12:14.33	350.28	12.26	-53.8	-62.6	3.8	7.45e-01	0	38	104	5960105984	78	10371
2026-01-19 06:12:15.34	350.11	12.16	-53.8	-62.6	3.8	7.46e-01	0	38	104	5960105984	78	10407
2026-01-19 06:12:16.34	349.96	12.06	-53.8	-62.7	3.8	7.44e-01	0	38	104	5960105984	78	10451
2026-01-19 06:12:17.35	349.80	11.96	-53.8	-62.6	3.8	7.44e-01	0	38	104	5960105984	78	10395
2026-01-19 06:12:18.36	349.64	11.87	-53.8	-62.6	3.8	7.45e-01	0	38	104	5960105984	78	10371
2026-01-19 06:12:19.37	349.48	11.77	-53.8	-62.6	3.8	7.43e-01	0	38	104	5960105984	78	10385
2026-01-19 06:12:20.37	349.33	11.67	-53.8	-62.6	3.8	7.45e-01	0	38	104	5960105984	78	10388
2026-01-19 06:12:21.38	349.18	11.58	-53.8	-62.6	3.8	7.46e-01	0	38	104	5960105984	78	10386
2026-01-19 06:12:22.39	349.02	11.48	-53.7	-62.6	3.8	7.47e-01	0	38	104	5960105984	78	10330
2026-01-19 06:12:23.40	348.87	11.38	-53.7	-62.6	3.8	7.46e-01	0	38	104	5960105984	78	10320
2026-01-19 06:12:24.40	348.72	11.29	-53.8	-62.6	3.8	7.45e-01	0	38	104	5960105984	78	10336
2026-01-19 06:12:25.41	348.57	11.19	-53.7	-62.6	3.8	7.45e-01	0	38	104	5960105984	78	10335
2026-01-19 06:12:26.42	348.43	11.10	-53.7	-62.6	3.8	7.45e-01	0	38	104	5960105984	78	10306
2026-01-19 06:12:27.43	348.28	11.00	-53.7	-62.6	3.8	7.45e-01	0	38	104	5960105984	78	10307
2026-01-19 06:12:28.43	348.14	10.91	-53.7	-62.6	3.8	7.44e-01	0	38	104	5960105984	78	10315
2026-01-19 06:12:29.44	347.99	10.81	-53.7	-62.6	3.8	7.46e-01	0	38	104	5960105984	78	10303
2026-01-19 06:12:30.45	347.85	10.72	-53.7	-62.5	3.8	7.44e-01	0	38	104	5960105984	78	10272
2026-01-19 06:12:31.46	347.71	10.63	-53.7	-62.6	3.8	7.46e-01	0	38	104	5960105984	78	10294
2026-01-19 06:12:32.47	347.57	10.53	-53.7	-62.5	3.8	7.46e-01	0	38	104	5960105984	78	10246
2026-01-19 06:12:33.48	347.43	10.44	-53.7	-62.5	3.8	7.46e-01	0	38	104	5960105984	78	10236
2026-01-19 06:12:34.48	347.29	10.35	-53.6	-62.5	3.8	7.45e-01	0	38	104	5960105984	78	10205
2026-01-19 06:12:35.49	347.15	10.26	-53.7	-62.5	3.8	7.45e-01	0	38	104	5960105984	78	10220
2026-01-19 06:12:36.50	347.01	10.16	-53.7	-62.5	3.8	7.45e-01	0	38	104	5960105984	78	10267
2026-01-19 06:12:37.51	346.88	10.07	-53.6	-62.5	3.8	7.45e-01	0	38	104	5960105984	78	10201
2026-01-19 06:12:38.51	346.75	9.98	-53.6	-62.4	3.8	7.45e-01	0	38	104	5960105984	78	10142
2026-01-19 06:12:39.52	346.61	9.89	-53.6	-62.5	3.8	7.46e-01	0	38	104	5960105984	78	10202
2026-01-19 06:12:40.53	346.48	9.80	-53.7	-62.5	3.8	7.46e-01	0	38	104	5960105984	78	10215
2026-01-19 06:12:41.54	346.35	9.71	-53.6	-62.4	3.8	7.46e-01	0	38	104	5960105984	78	10136
2026-01-19 06:12:42.55	346.22	9.62	-53.6	-62.4	3.8	7.44e-01	0	38	104	5960105984	78	10127
2026-01-19 06:12:43.56	346.09	9.53	-53.6	-62.4	3.8	7.47e-01	0	38	104	5960105984	78	10146
2026-01-19 06:12:44.56	345.96	9.44	-53.6	-62.5	3.8	7.46e-01	0	38	104	5960105984	78	10221
2026-01-19 06:12:45.57	345.84	9.35	-53.5	-62.4	3.8	7.45e-01	0	38	104	5960105984	78	10080
2026-01-19 06:12:46.58	345.71	9.26	-53.5	-62.4	3.8	7.44e-01	0	38	104	5960105984	78	10068
2026-01-19 06:12:47.59	345.59	9.17	-53.5	-62.4	3.8	7.46e-01	0	38	104	5960105984	78	10143
2026-01-19 06:12:48.60	345.46	9.09	-53.6	-62.4	3.8	7.46e-01	0	38	104	5960105984	78	10155
2026-01-19 06:12:49.60	345.34	9.00	-53.5	-62.3	3.8	7.47e-01	0	38	104	5960105984	78	10027
2026-01-19 06:12:50.61	345.22	8.91	-53.5	-62.3	3.8	7.45e-01	0	38	104	5960105984	78	10006
2026-01-19 06:12:51.62	345.10	8.82	-53.5	-62.3	3.8	7.44e-01	0	38	104	5960105984	78	10037
2026-01-19 06:12:52.63	344.98	8.74	-53.5	-62.4	3.8	7.45e-01	0	38	104	5960105984	78	10105
2026-01-19 06:12:53.63	344.86	8.65	-53.5	-62.3	3.8	7.45e-01	0	38	104	5960105984	78	10027
2026-01-19 06:12:54.64	344.74	8.56	-53.4	-62.3	3.8	7.45e-01	0	38	104	5960105984	78	9974
2026-01-19 06:12:55.65	344.62	8.48	-53.5	-62.3	3.8	7.46e-01	0	38	104	5960105984	78	10015
2026-01-19 06:12:56.66	344.51	8.39	-53.5	-62.4	3.8	7.45e-01	0	38	104	5960105984	78	10070
2026-01-19 06:12:57.67	344.39	8.31	-53.4	-62.3	3.8	7.45e-01	0	38	104	5960105984	78	9961
2026-01-19 06:12:58.68	344.27	8.22	-53.4	-62.2	3.8	7.46e-01	0	38	104	5960105984	78	9907
2026-01-19 06:12:59.68	344.16	8.14	-53.4	-62.3	3.8	7.45e-01	0	38	104	5960105984	78	9987
2026-01-19 06:13:00.69	344.05	8.05	-53.5	-62.3	3.8	7.45e-01	0	38	104	5960105984	78	10033
2026-01-19 06:13:01.70	343.94	7.97	-53.4	-62.2	3.8	7.46e-01	0	38	104	5960105984	78	9908
2026-01-19 06:13:02.71	343.82	7.88	-53.4	-62.2	3.8	7.47e-01	0	38	104	5960105984	78	9842
2026-01-19 06:13:03.72	343.71	7.80	-53.4	-62.2	3.8	7.44e-01	0	38	104	5960105984	78	9926
2026-01-19 06:13:04.72	343.60	7.72	-53.4	-62.3	3.8	7.44e-01	0	38	104	5960105984	78	9993
2026-01-19 06:13:05.73	343.50	7.63	-53.3	-62.2	3.8	7.45e-01	0	38	104	5960105984	78	9839
2026-01-19 06:13:06.74	343.39	7.55	-53.3	-62.2	3.8	7.46e-01	0	38	104	5960105984	78	9849
2026-01-19 06:13:07.75	343.28	7.47	-53.4	-62.2	3.8	7.46e-01	0	38	104	5960105984	78	9898
2026-01-19 06:13:08.75	343.17	7.39	-53.4	-62.3	3.8	7.45e-01	0	38	104	5960105984	78	9955
2026-01-19 06:13:09.76	343.07	7.31	-53.3	-62.1	3.8	7.46e-01	0	38	104	5960105984	78	9825
2026-01-19 06:13:10.77	342.96	7.22	-53.3	-62.1	3.8	7.45e-01	0	38	104	5960105984	78	9806
2026-01-19 06:13:11.78	342.86	7.14	-53.3	-62.2	3.8	7.47e-01	0	38	104	5960105984	78	9856
2026-01-19 06:13:12.79	342.75	7.06	-53.4	-62.2	3.8	7.46e-01	0	38	104	5960105984	78	9927
2026-01-19 06:13:13.80	342.65	6.98	-53.2	-62.1	3.8	7.45e-01	0	38	104	5960105984	78	9757
2026-01-19 06:13:14.80	342.55	6.90	-53.2	-62.1	3.8	7.45e-01	0	38	104	5960105984	78	9741
2026-01-19 06:13:15.81	342.45	6.82	-53.3	-62.1	3.8	7.45e-01	0	38	104	5960105984	78	9826
2026-01-19 06:13:16.82	342.35	6.74	-53.3	-62.2	3.8	7.46e-01	0	38	104	5960105984	78	9840
2026-01-19 06:13:17.83	342.25	6.66	-53.2	-62.0	3.8	7.46e-01	0	38	104	5960105984	78	9703
2026-01-19 06:13:18.84	342.15	6.58	-53.2	-62.0	3.8	7.46e-01	0	38	104	5960105984	78	9688
2026-01-19 06:13:19.84	342.05	6.50	-53.3	-62.1	3.8	7.44e-01	0	38	104	5960105984	78	9813
2026-01-19 06:13:20.85	341.95	6.42	-53.3	-62.1	3.8	7.45e-01	0	38	104	5960105984	78	9787
2026-01-19 06:13:21.86	341.86	6.34	-53.1	-62.0	3.8	7.46e-01	0	38	104	5960105984	78	9625
2026-01-19 06:13:22.86	341.76	6.26	-53.1	-62.0	3.8	7.45e-01	0	38	104	5960105984	78	9629
2026-01-19 06:13:23.87	341.66	6.19	-53.2	-62.0	3.8	7.44e-01	0	38	104	5960105984	78	9714
2026-01-19 06:13:24.88	341.57	6.11	-53.3	-62.1	3.8	7.45e-01	0	38	104	5960105984	78	9755
2026-01-19 06:13:25.89	341.48	6.03	-53.1	-61.9	3.8	7.44e-01	0	38	104	5960105984	78	9570
2026-01-19 06:13:26.90	341.38	5.95	-53.1	-61.9	3.8	7.45e-01	0	38	104	5960105984	78	9572
2026-01-19 06:13:27.90	341.29	5.88	-53.2	-62.0	3.8	7.44e-01	0	38	104	5960105984	78	9706
2026-01-19 06:13:28.91	341.20	5.80	-53.2	-62.0	3.8	7.45e-01	0	38	104	5960105984	78	9704
2026-01-19 06:13:29.92	341.10	5.72	-53.0	-61.9	3.8	7.44e-01	0	38	104	5960105984	78	9505
2026-01-19 06:13:30.93	341.01	5.65	-53.0	-61.9	3.8	7.46e-01	0	38	104	5960105984	78	9519
2026-01-19 06:13:31.94	340.92	5.57	-53.1	-62.0	3.8	7.44e-01	0	38	104	5960105984	78	9608
2026-01-19 06:13:32.95	340.83	5.49	-53.2	-62.0	3.8	7.45e-01	0	38	104	5960105984	78	9626
2026-01-19 06:13:33.96	340.74	5.42	-52.9	-61.8	3.8	7.46e-01	0	38	104	5960105984	77	9947
2026-01-19 06:13:34.96	340.66	5.34	-52.9	-61.8	3.8	7.44e-01	0	38	104	5960105984	77	9965
2026-01-19 06:13:35.97	340.57	5.27	-53.1	-61.9	3.8	7.45e-01	0	38	104	5960105984	77	10092
2026-01-19 06:13:36.98	340.48	5.19	-53.1	-61.9	3.8	7.46e-01	0	38	104	5960105984	77	10150
2026-01-19 06:13:37.98	340.39	5.12	-52.8	-61.7	3.8	7.46e-01	0	38	104	5960105984	77	9853
2026-01-19 06:13:38.99	340.31	5.04	-52.9	-61.7	3.8	7.45e-01	0	38	104	5960105984	77	9895
2026-01-19 06:13:40.00	340.22	4.97	-53.1	-62.0	3.8	7.45e-01	0	38	104	5960105984	77	10194
2026-01-19 06:13:41.00	340.14	4.89	-53.6	-62.4	3.8	7.45e-01	0	38	104	5960105984	77	10714
2026-01-19 06:13:42.01	340.05	4.82	-53.9	-62.7	3.8	7.45e-01	0	38	104	5960105984	78	10434
2026-01-19 06:13:43.02	339.97	4.75	-54.0	-62.9	3.8	7.45e-01	0	38	104	5960105984	78	10681
2026-01-19 06:13:44.03	339.88	4.67	-54.2	-63.0	3.8	7.46e-01	0	38	104	5960105984	78	10873
2026-01-19 06:13:45.03	339.80	4.60	-54.3	-63.2	3.8	7.46e-01	0	38	104	5960105984	79	10425
2026-01-19 06:13:46.04	339.72	4.53	-54.4	-63.2	3.8	7.45e-01	0	38	104	5960105984	79	10521
2026-01-19 06:13:47.05	339.64	4.45	-54.4	-63.4	3.8	7.46e-01	0	38	104	5960105984	79	10703
2026-01-19 06:13:48.06	339.56	4.38	-54.6	-63.5	3.8	7.45e-01	0	38	104	5960105984	79	10792
2026-01-19 06:13:49.06	339.48	4.31	-54.7	-63.5	3.8	7.46e-01	0	38	104	5960105984	79	10887
2026-01-19 06:13:50.07	339.40	4.24	-54.7	-63.5	3.8	7.46e-01	0	38	104	5960105984	80	10282
2026-01-19 06:13:51.08	339.32	4.16	-54.7	-63.6	3.8	7.46e-01	0	38	104	5960105984	80	10334
2026-01-19 06:13:52.09	339.24	4.09	-54.8	-63.6	3.8	7.46e-01	0	38	104	5960105984	80	10395
2026-01-19 06:13:53.10	339.16	4.02	-54.8	-63.7	3.8	7.46e-01	0	38	104	5960105984	80	10431
2026-01-19 06:13:54.10	339.08	3.95	-54.8	-63.7	3.8	7.47e-01	0	38	104	5960105984	80	10465
2026-01-19 06:13:55.11	339.00	3.88	-54.8	-63.7	3.8	7.44e-01	0	38	104	5960105984	80	10497
2026-01-19 06:13:56.12	338.93	3.81	-54.8	-63.7	3.8	7.44e-01	0	38	104	5960105984	80	10498
2026-01-19 06:13:57.13	338.85	3.74	-54.9	-63.7	3.8	7.46e-01	0	38	104	5960105984	80	10505
2026-01-19 06:13:58.14	338.77	3.67	-54.9	-63.7	3.8	7.44e-01	0	38	104	5960105984	80	10522
2026-01-19 06:13:59.14	338.70	3.60	-54.9	-63.8	3.8	7.46e-01	0	38	104	5960105984	80	10552
2026-01-19 06:14:00.15	338.62	3.53	-54.9	-63.8	3.8	7.44e-01	0	38	104	5960105984	80	10561
2026-01-19 06:14:01.16	338.55	3.46	-54.9	-63.8	3.8	7.45e-01	0	37	104	5960105984	80	10590
2026-01-19 06:14:02.17	338.48	3.39	-54.9	-63.8	3.8	7.45e-01	0	38	104	5960105984	80	10565
2026-01-19 06:14:03.17	338.40	3.32	-54.9	-63.8	3.8	7.46e-01	0	38	104	5960105984	80	10562
2026-01-19 06:14:04.18	338.33	3.25	-54.9	-63.7	3.8	7.45e-01	0	38	104	5960105984	80	10529
2026-01-19 06:14:05.19	338.26	3.18	-54.9	-63.7	3.8	7.46e-01	0	38	104	5960105984	80	10480
2026-01-19 06:14:06.20	338.18	3.11	-54.9	-63.7	3.8	7.46e-01	0	38	104	5960105984	80	10501
2026-01-19 06:14:07.21	338.11	3.04	-54.8	-63.7	3.8	7.45e-01	0	38	104	5960105984	80	10471
2026-01-19 06:14:08.22	338.04	2.97	-54.8	-63.7	3.8	7.46e-01	0	38	104	5960105984	80	10450
2026-01-19 06:14:09.23	337.97	2.90	-54.8	-63.7	3.8	7.45e-01	0	38	104	5960105984	80	10488
2026-01-19 06:14:10.24	337.90	2.83	-54.8	-63.7	3.8	7.45e-01	0	38	104	5960105984	80	10442
2026-01-19 06:14:11.24	337.83	2.77	-54.8	-63.7	3.8	7.46e-01	0	38	104	5960105984	80	10414
2026-01-19 06:14:12.25	337.76	2.70	-54.8	-63.7	3.8	7.44e-01	0	38	104	5960105984	80	10433
2026-01-19 06:14:13.26	337.69	2.63	-54.8	-63.7	3.8	7.45e-01	0	38	104	5960105984	80	10446
2026-01-19 06:14:14.26	337.62	2.56	-54.8	-63.6	3.8	7.46e-01	0	38	104	5960105984	80	10407
2026-01-19 06:14:15.27	337.56	2.50	-54.8	-63.6	3.8	7.44e-01	0	38	104	5960105984	80	10398
2026-01-19 06:14:16.28	337.49	2.43	-54.8	-63.7	3.8	7.47e-01	0	38	104	5960105984	80	10430
2026-01-19 06:14:17.29	337.42	2.36	-54.8	-63.7	3.8	7.45e-01	0	38	104	5960105984	80	10441
2026-01-19 06:14:18.30	337.35	2.30	-54.8	-63.6	3.8	7.44e-01	0	38	104	5960105984	80	10392
2026-01-19 06:14:19.30	337.29	2.23	-54.8	-63.6	3.8	7.45e-01	0	38	104	5960105984	80	10390
2026-01-19 06:14:20.31	337.22	2.16	-54.8	-63.7	3.8	7.46e-01	0	38	104	5960105984	80	10413
2026-01-19 06:14:21.32	337.15	2.10	-54.8	-63.6	3.8	7.46e-01	0	38	104	5960105984	80	10400
2026-01-19 06:14:22.33	337.09	2.03	-54.8	-63.7	3.8	7.45e-01	0	38	104	5960105984	80	10426
2026-01-19 06:14:23.34	337.02	1.96	-54.8	-63.7	3.8	7.45e-01	0	38	104	5960105984	80	10419

#Closed at: 2026-01-19 06:14:23
#Recorded file [5960 MB]: D:/lorett/data/31041_260119_090436.dat