passes_logs/2026/01/19/R3.2S_Murmansk/R3.2S_Murmansk__20260119_065510_NOAA_20_JPSS-1_rec.log

#Pass ID: 20260119_065510_NOAA 20 (JPSS-1)
#Satellite: NOAA 20 (JPSS-1)
#Configuration: NOAA 20
#almurnet v.1.7.20251203
#Start time: 2026-01-19 06:55:13

#Version: 2.2.20231116
#Station: R3.2S_Murmansk
#Location: 33.079688 lon 68.888172 lat
#TLE: 1 43013U 17073A   26018.92475364  .00000071  00000+0  54435-4 0  9998
#TLE: 2 43013  98.7641 319.8227 0001354  33.6678 326.4584 14.19536868423299

#Time	Az	El	Level	Level2	SNR	BER	BlckErr	Temp	State	Recorded	gain1	gain2
2026-01-19 06:55:13.00	93.18	2.13	-52.1	-67.0	3.8	1.49e+00	0	35	0	0	76	19264
2026-01-19 06:55:14.01	93.13	2.19	-52.0	-67.0	3.8	1.49e+00	0	35	104	0	74	21726
2026-01-19 06:55:15.02	93.08	2.25	-52.0	-67.0	3.8	1.49e+00	0	35	104	0	74	21693
2026-01-19 06:55:16.02	93.02	2.31	-52.0	-67.0	3.8	1.49e+00	0	35	104	0	74	21692
2026-01-19 06:55:17.03	92.97	2.37	-52.1	-67.0	3.8	1.49e+00	0	35	104	0	74	21643
2026-01-19 06:55:18.04	92.92	2.43	-52.0	-67.0	3.8	1.49e+00	0	35	104	0	74	21640
2026-01-19 06:55:19.05	92.86	2.49	-52.0	-67.0	3.8	1.49e+00	0	35	104	0	74	21679
2026-01-19 06:55:20.06	92.81	2.55	-52.0	-67.0	3.8	1.49e+00	0	36	104	0	74	21683
2026-01-19 06:55:21.07	92.75	2.61	-52.0	-67.0	3.8	1.49e+00	0	36	104	0	74	21598
2026-01-19 06:55:22.08	92.70	2.68	-52.0	-67.0	3.8	1.49e+00	0	35	104	0	74	21627
2026-01-19 06:55:23.09	92.65	2.74	-52.0	-67.0	3.8	1.49e+00	0	36	104	0	74	21572
2026-01-19 06:55:24.09	92.59	2.80	-52.0	-67.0	3.8	1.49e+00	0	36	104	0	74	21606
2026-01-19 06:55:25.10	92.54	2.86	-52.0	-67.0	3.8	1.49e+00	0	36	104	0	74	21574
2026-01-19 06:55:26.11	92.48	2.92	-52.0	-67.0	3.8	1.49e+00	0	36	104	0	74	21610
2026-01-19 06:55:27.12	92.42	2.98	-52.0	-67.0	3.8	1.49e+00	0	36	104	0	74	21557
2026-01-19 06:55:28.13	92.37	3.04	-52.0	-67.0	3.8	1.49e+00	0	36	104	0	74	21604
2026-01-19 06:55:29.13	92.31	3.10	-52.0	-66.9	3.8	1.49e+00	0	36	104	0	74	21487
2026-01-19 06:55:30.14	92.25	3.17	-52.0	-66.9	3.8	1.49e+00	0	36	104	0	74	21390
2026-01-19 06:55:31.15	92.20	3.23	-52.0	-66.9	3.8	1.49e+00	0	36	104	0	74	21395
2026-01-19 06:55:32.16	92.14	3.29	-52.0	-66.9	3.8	1.49e+00	0	36	104	0	74	21293
2026-01-19 06:55:33.17	92.08	3.35	-52.0	-66.8	3.8	1.49e+00	0	36	104	0	74	21242
2026-01-19 06:55:34.17	92.03	3.42	-52.0	-66.9	3.8	1.49e+00	0	36	104	0	74	21312
2026-01-19 06:55:35.18	91.97	3.48	-52.0	-66.9	3.8	1.49e+00	0	36	104	0	74	21377
2026-01-19 06:55:36.19	91.91	3.54	-52.0	-67.0	3.8	1.49e+00	0	36	104	0	74	21553
2026-01-19 06:55:37.20	91.85	3.60	-52.0	-67.0	3.8	1.49e+00	0	36	104	0	74	21595
2026-01-19 06:55:38.20	91.79	3.67	-52.0	-66.9	3.8	1.49e+00	0	36	104	0	74	21505
2026-01-19 06:55:39.21	91.73	3.73	-52.0	-66.8	3.8	1.49e+00	0	36	104	0	74	21248
2026-01-19 06:55:40.22	91.68	3.79	-52.0	-66.5	3.8	1.49e+00	0	36	104	0	74	20514
2026-01-19 06:55:41.23	91.62	3.85	-52.0	-66.3	3.8	1.49e+00	0	36	104	0	74	19918
2026-01-19 06:55:42.23	91.56	3.92	-52.0	-66.1	3.8	1.49e+00	0	36	104	0	74	19417
2026-01-19 06:55:43.24	91.50	3.98	-52.0	-65.5	3.8	1.49e+00	0	36	104	0	74	18129
2026-01-19 06:55:44.25	91.44	4.04	-51.9	-65.0	3.8	1.49e+00	0	36	104	0	74	17142
2026-01-19 06:55:45.26	91.38	4.11	-51.9	-64.0	3.9	1.47e+00	0	36	104	0	74	15389
2026-01-19 06:55:46.27	91.31	4.17	-51.8	-63.5	4.2	1.41e+00	0	36	0	0	74	14379
2026-01-19 06:55:47.28	91.25	4.24	-51.7	-62.2	4.6	1.35e+00	0	36	0	0	74	12428
2026-01-19 06:55:48.28	91.19	4.30	-51.7	-61.8	4.8	8.30e-01	0	36	0	2097152	74	11940
2026-01-19 06:55:49.29	91.13	4.36	-51.7	-61.8	4.8	7.19e-01	0	36	0	4194304	74	11927
2026-01-19 06:55:50.30	91.07	4.43	-51.3	-58.9	6.8	2.84e-01	0	36	0	6291456	74	8519
2026-01-19 06:55:51.31	91.01	4.49	-51.5	-60.0	5.9	2.87e-01	0	36	0	7340032	74	9699
2026-01-19 06:55:52.32	90.94	4.56	-51.2	-58.5	7.2	2.82e-01	0	36	0	9437184	74	8174
2026-01-19 06:55:53.32	90.88	4.62	-51.0	-57.5	8.3	7.84e-02	0	36	0	11534336	73	7670
2026-01-19 06:55:54.33	90.82	4.68	-51.4	-59.6	6.2	2.30e-01	0	36	0	13631488	73	9781
2026-01-19 06:55:55.34	90.75	4.75	-51.2	-58.3	7.3	1.84e-01	0	36	0	15728640	73	8456
2026-01-19 06:55:56.35	90.69	4.81	-51.3	-58.8	6.9	1.04e-01	0	36	0	16777216	73	8960
2026-01-19 06:55:57.36	90.63	4.88	-51.3	-59.1	6.7	2.07e-01	0	36	0	18874368	73	9255
2026-01-19 06:55:58.37	90.56	4.94	-51.4	-59.6	6.2	2.41e-01	0	36	0	20971520	73	9818
2026-01-19 06:55:59.37	90.50	5.01	-51.5	-60.6	5.6	3.31e-01	0	37	0	23068672	73	10963
2026-01-19 06:56:00.38	90.43	5.07	-51.6	-60.7	5.4	5.95e-01	0	36	0	25165824	73	11151
2026-01-19 06:56:01.39	90.37	5.14	-50.4	-55.3	10.7	1.34e-03	0	37	0	26214400	72	6301
2026-01-19 06:56:02.40	90.30	5.21	-51.6	-59.9	6.4	6.08e-03	0	36	0	28311552	73	10157
2026-01-19 06:56:03.40	90.24	5.27	-51.7	-61.3	4.2	1.48e+00	0	36	104	29360128	74	11209
2026-01-19 06:56:04.41	90.17	5.34	-50.0	-53.9	12.5	7.01e-05	0	36	0	29360128	71	5706
2026-01-19 06:56:05.42	90.10	5.40	-51.3	-58.1	7.5	9.60e-01	0	36	0	31457280	74	7737
2026-01-19 06:56:06.43	90.04	5.47	-50.0	-54.0	12.2	1.66e-04	0	37	0	33554432	71	5768
2026-01-19 06:56:07.44	89.97	5.54	-49.7	-53.3	13.0	1.20e-04	0	37	0	35651584	71	5321
2026-01-19 06:56:08.45	89.90	5.60	-49.7	-53.2	13.1	5.41e-05	0	36	0	36700160	71	5263
2026-01-19 06:56:09.45	89.84	5.67	-49.7	-53.3	13.0	2.28e-05	0	36	0	38797312	71	5314
2026-01-19 06:56:10.46	89.77	5.74	-49.4	-52.8	13.5	1.29e-05	0	37	0	40894464	70	5309
2026-01-19 06:56:11.47	89.70	5.80	-49.4	-52.8	13.6	1.98e-05	0	36	0	42991616	70	5297
2026-01-19 06:56:12.48	89.63	5.87	-49.4	-52.7	13.7	5.30e-06	0	36	0	44040192	70	5239
2026-01-19 06:56:13.49	89.56	5.94	-48.9	-51.8	14.6	4.50e-06	0	37	0	46137344	69	5019
2026-01-19 06:56:14.50	89.49	6.00	-48.9	-51.8	14.6	7.00e-07	0	37	0	48234496	69	5040
2026-01-19 06:56:15.51	89.42	6.07	-48.7	-51.3	15.2	0.00e+00	0	36	0	50331648	69	4757
2026-01-19 06:56:16.51	89.35	6.14	-48.7	-51.4	15.1	0.00e+00	0	37	0	52428800	69	4792
2026-01-19 06:56:17.52	89.28	6.21	-48.8	-51.5	14.9	0.00e+00	0	37	0	54525952	69	4870
2026-01-19 06:56:18.53	89.21	6.27	-48.7	-51.5	15.1	0.00e+00	0	37	0	55574528	69	4819
2026-01-19 06:56:19.53	89.14	6.34	-48.6	-51.3	15.3	0.00e+00	0	37	0	57671680	69	4707
2026-01-19 06:56:20.54	89.07	6.41	-48.7	-51.4	15.1	0.00e+00	0	37	0	59768832	69	4787
2026-01-19 06:56:21.55	89.00	6.48	-48.7	-51.3	15.2	7.00e-07	0	37	0	61865984	69	4733
2026-01-19 06:56:22.56	88.92	6.55	-48.7	-51.4	15.2	0.00e+00	0	37	0	63963136	69	4778
2026-01-19 06:56:23.56	88.85	6.61	-48.9	-51.6	14.9	0.00e+00	0	37	0	65011712	69	4918
2026-01-19 06:56:24.57	88.78	6.68	-48.6	-51.3	15.3	0.00e+00	0	37	0	67108864	69	4727
2026-01-19 06:56:25.58	88.71	6.75	-48.7	-51.3	15.3	0.00e+00	0	37	0	69206016	69	4731
2026-01-19 06:56:26.59	88.63	6.82	-48.8	-51.5	15.0	0.00e+00	0	37	0	71303168	69	4867
2026-01-19 06:56:27.60	88.56	6.89	-48.8	-51.5	15.1	0.00e+00	0	37	0	73400320	69	4866
2026-01-19 06:56:28.61	88.48	6.96	-48.4	-50.9	15.7	0.00e+00	0	37	0	74448896	68	4773
2026-01-19 06:56:29.62	88.41	7.03	-48.7	-51.3	15.4	0.00e+00	0	37	0	76546048	68	5003
2026-01-19 06:56:30.63	88.34	7.10	-48.7	-51.3	15.4	0.00e+00	0	37	0	78643200	68	4996
2026-01-19 06:56:31.63	88.26	7.16	-48.6	-51.1	15.5	0.00e+00	0	37	0	80740352	68	4914
2026-01-19 06:56:32.64	88.18	7.23	-48.7	-51.3	15.3	0.00e+00	0	37	0	82837504	68	4997
2026-01-19 06:56:33.65	88.11	7.30	-48.5	-51.1	15.5	0.00e+00	0	37	0	83886080	68	4890
2026-01-19 06:56:34.66	88.03	7.37	-48.7	-51.4	15.3	0.00e+00	0	37	0	85983232	68	5060
2026-01-19 06:56:35.67	87.95	7.44	-48.7	-51.3	15.4	0.00e+00	0	37	0	88080384	68	5000
2026-01-19 06:56:36.67	87.88	7.51	-48.6	-51.2	15.5	0.00e+00	0	37	0	90177536	68	4962
2026-01-19 06:56:37.68	87.80	7.58	-48.4	-50.9	15.8	0.00e+00	0	37	0	92274688	68	4773
2026-01-19 06:56:38.69	87.72	7.66	-48.5	-51.1	15.6	0.00e+00	0	37	0	93323264	68	4872
2026-01-19 06:56:39.69	87.64	7.73	-48.4	-50.8	15.8	0.00e+00	0	37	0	95420416	68	4743
2026-01-19 06:56:40.70	87.57	7.80	-48.4	-50.8	15.9	0.00e+00	0	37	0	97517568	68	4718
2026-01-19 06:56:41.71	87.49	7.87	-48.3	-50.7	16.1	0.00e+00	0	37	0	99614720	68	4659
2026-01-19 06:56:42.72	87.41	7.94	-48.4	-50.8	15.9	0.00e+00	0	37	0	101711872	68	4743
2026-01-19 06:56:43.73	87.33	8.01	-48.5	-50.9	15.8	0.00e+00	0	37	0	102760448	68	4786
2026-01-19 06:56:44.73	87.25	8.08	-48.4	-50.7	16.0	0.00e+00	0	37	0	104857600	68	4692
2026-01-19 06:56:45.74	87.17	8.15	-48.4	-50.8	15.9	0.00e+00	0	37	0	106954752	68	4728
2026-01-19 06:56:46.75	87.08	8.22	-48.4	-50.8	15.9	0.00e+00	0	37	0	109051904	68	4751
2026-01-19 06:56:47.76	87.00	8.30	-48.5	-50.9	15.8	0.00e+00	0	37	0	111149056	68	4809
2026-01-19 06:56:48.77	86.92	8.37	-48.3	-50.7	16.1	0.00e+00	0	37	0	112197632	68	4653
2026-01-19 06:56:49.77	86.84	8.44	-48.2	-50.5	16.2	0.00e+00	0	37	0	114294784	68	4576
2026-01-19 06:56:50.78	86.75	8.51	-48.1	-50.4	16.4	0.00e+00	0	37	0	116391936	68	4500
2026-01-19 06:56:51.79	86.67	8.58	-48.1	-50.4	16.3	0.00e+00	0	37	0	118489088	68	4524
2026-01-19 06:56:52.80	86.59	8.66	-48.2	-50.5	16.3	0.00e+00	0	37	0	120586240	68	4588
2026-01-19 06:56:53.81	86.50	8.73	-48.2	-50.4	16.4	0.00e+00	0	37	0	121634816	68	4528
2026-01-19 06:56:54.82	86.42	8.80	-48.2	-50.4	16.4	0.00e+00	0	37	0	123731968	68	4520
2026-01-19 06:56:55.83	86.33	8.88	-48.2	-50.5	16.3	0.00e+00	0	37	0	125829120	68	4558
2026-01-19 06:56:56.84	86.25	8.95	-48.3	-50.6	16.2	0.00e+00	0	37	0	127926272	68	4624
2026-01-19 06:56:57.84	86.16	9.02	-48.3	-50.6	16.2	0.00e+00	0	37	0	130023424	68	4614
2026-01-19 06:56:58.86	86.07	9.10	-48.0	-50.2	16.6	0.00e+00	0	37	0	131072000	68	4414
2026-01-19 06:56:59.86	85.99	9.17	-48.0	-50.2	16.6	0.00e+00	0	37	0	133169152	68	4436
2026-01-19 06:57:00.87	85.90	9.24	-48.0	-50.1	16.7	0.00e+00	0	37	0	135266304	68	4385
2026-01-19 06:57:01.88	85.81	9.32	-48.0	-50.1	16.6	0.00e+00	0	37	0	137363456	67	4644
2026-01-19 06:57:02.89	85.72	9.39	-47.9	-50.0	16.7	0.00e+00	0	37	0	139460608	67	4598
2026-01-19 06:57:03.90	85.64	9.46	-47.8	-50.0	16.8	0.00e+00	0	37	0	141557760	67	4552
2026-01-19 06:57:04.91	85.55	9.54	-47.9	-50.1	16.7	0.00e+00	0	37	0	142606336	67	4614
2026-01-19 06:57:05.91	85.46	9.61	-47.8	-49.9	16.9	0.00e+00	0	37	0	144703488	67	4512
2026-01-19 06:57:06.92	85.37	9.69	-47.9	-50.1	16.7	0.00e+00	0	37	0	146800640	67	4631
2026-01-19 06:57:07.93	85.28	9.76	-47.8	-50.0	16.8	0.00e+00	0	37	0	148897792	67	4551
2026-01-19 06:57:08.94	85.18	9.84	-47.9	-50.1	16.7	0.00e+00	0	37	0	149946368	67	4611
2026-01-19 06:57:09.95	85.09	9.91	-47.9	-50.0	16.7	0.00e+00	0	37	0	152043520	67	4589
2026-01-19 06:57:10.95	85.00	9.99	-47.9	-50.0	16.8	0.00e+00	0	37	0	154140672	67	4567
2026-01-19 06:57:11.96	84.91	10.06	-47.8	-49.9	16.9	0.00e+00	0	37	0	156237824	67	4510
2026-01-19 06:57:12.97	84.82	10.14	-47.9	-50.0	16.8	0.00e+00	0	37	0	158334976	67	4582
2026-01-19 06:57:13.98	84.72	10.21	-47.7	-49.8	17.0	0.00e+00	0	37	0	159383552	67	4464
2026-01-19 06:57:14.99	84.63	10.29	-47.9	-50.0	16.8	0.00e+00	0	37	0	161480704	67	4591
2026-01-19 06:57:15.99	84.53	10.37	-47.9	-50.0	16.8	0.00e+00	0	37	0	163577856	67	4577
2026-01-19 06:57:17.00	84.44	10.44	-48.0	-50.1	16.7	0.00e+00	0	37	0	165675008	67	4642
2026-01-19 06:57:18.01	84.34	10.52	-48.1	-50.4	16.4	0.00e+00	0	37	0	167772160	67	4775
2026-01-19 06:57:19.02	84.25	10.60	-48.2	-50.5	16.3	0.00e+00	0	37	0	169869312	67	4859
2026-01-19 06:57:20.02	84.15	10.67	-48.0	-50.1	16.7	0.00e+00	0	37	0	170917888	67	4645
2026-01-19 06:57:21.03	84.05	10.75	-47.9	-50.0	16.8	0.00e+00	0	37	0	173015040	67	4591
2026-01-19 06:57:22.04	83.96	10.83	-48.1	-50.3	16.5	0.00e+00	0	37	0	175112192	67	4730
2026-01-19 06:57:23.05	83.86	10.90	-48.0	-50.1	16.7	0.00e+00	0	37	0	177209344	67	4626
2026-01-19 06:57:24.06	83.76	10.98	-48.2	-50.4	16.4	0.00e+00	0	37	0	178257920	67	4805
2026-01-19 06:57:25.06	83.66	11.06	-48.1	-50.2	16.6	0.00e+00	0	37	0	180355072	67	4691
2026-01-19 06:57:26.07	83.56	11.13	-47.9	-50.1	16.8	0.00e+00	0	37	0	182452224	67	4611
2026-01-19 06:57:27.08	83.46	11.21	-48.0	-50.2	16.6	0.00e+00	0	37	0	184549376	67	4685
2026-01-19 06:57:28.09	83.36	11.29	-47.9	-50.0	16.9	0.00e+00	0	37	0	186646528	67	4565
2026-01-19 06:57:29.10	83.26	11.37	-47.9	-50.0	16.9	0.00e+00	0	37	0	188743680	67	4564
2026-01-19 06:57:30.10	83.16	11.45	-48.0	-50.1	16.8	0.00e+00	0	37	0	189792256	67	4617
2026-01-19 06:57:31.11	83.05	11.52	-47.9	-49.9	17.0	0.00e+00	0	37	0	191889408	67	4522
2026-01-19 06:57:32.12	82.95	11.60	-47.9	-50.1	16.8	0.00e+00	0	37	0	193986560	67	4602
2026-01-19 06:57:33.13	82.85	11.68	-47.9	-50.0	16.9	0.00e+00	0	37	0	196083712	67	4587
2026-01-19 06:57:34.14	82.74	11.76	-48.0	-50.1	16.8	0.00e+00	0	37	0	198180864	67	4626
2026-01-19 06:57:35.15	82.64	11.84	-47.9	-50.0	16.9	0.00e+00	0	37	0	199229440	67	4593
2026-01-19 06:57:36.16	82.53	11.92	-48.0	-50.1	16.8	0.00e+00	0	37	0	201326592	67	4650
2026-01-19 06:57:37.17	82.42	12.00	-47.9	-50.0	16.9	0.00e+00	0	37	0	203423744	67	4546
2026-01-19 06:57:38.17	82.32	12.08	-48.1	-50.3	16.7	0.00e+00	0	37	0	205520896	67	4710
2026-01-19 06:57:39.18	82.21	12.16	-47.8	-49.8	17.1	0.00e+00	0	37	0	206569472	67	4472
2026-01-19 06:57:40.19	82.10	12.24	-47.8	-49.8	17.1	0.00e+00	0	37	0	208666624	67	4471
2026-01-19 06:57:41.20	81.99	12.32	-48.1	-50.3	16.6	0.00e+00	0	37	0	210763776	67	4725
2026-01-19 06:57:42.21	81.88	12.40	-48.1	-50.3	16.7	0.00e+00	0	37	0	212860928	67	4717
2026-01-19 06:57:43.21	81.78	12.48	-48.2	-50.4	16.5	0.00e+00	0	37	0	214958080	67	4795
2026-01-19 06:57:44.22	81.67	12.56	-47.9	-49.9	17.0	0.00e+00	0	37	0	217055232	67	4540
2026-01-19 06:57:45.23	81.55	12.64	-48.0	-50.1	16.9	0.00e+00	0	37	0	218103808	67	4624
2026-01-19 06:57:46.23	81.44	12.72	-48.0	-50.2	16.8	0.00e+00	0	37	0	220200960	67	4656
2026-01-19 06:57:47.25	81.33	12.80	-47.9	-49.9	17.0	0.00e+00	0	37	0	222298112	67	4522
2026-01-19 06:57:48.25	81.22	12.88	-47.8	-49.9	17.1	0.00e+00	0	37	0	224395264	67	4505
2026-01-19 06:57:49.26	81.11	12.96	-47.8	-49.8	17.1	0.00e+00	0	37	0	226492416	67	4445
2026-01-19 06:57:50.27	80.99	13.04	-47.7	-49.7	17.2	0.00e+00	0	37	0	227540992	67	4412
2026-01-19 06:57:51.28	80.88	13.13	-47.8	-49.8	17.2	0.00e+00	0	37	0	229638144	67	4473
2026-01-19 06:57:52.29	80.76	13.21	-47.9	-50.0	17.0	0.00e+00	0	37	0	231735296	67	4553
2026-01-19 06:57:53.29	80.65	13.29	-47.8	-49.9	17.1	0.00e+00	0	37	0	233832448	67	4511
2026-01-19 06:57:54.30	80.53	13.37	-47.8	-49.8	17.1	0.00e+00	0	37	0	235929600	67	4492
2026-01-19 06:57:55.31	80.41	13.45	-47.8	-49.9	17.1	0.00e+00	0	37	0	236978176	67	4498
2026-01-19 06:57:56.32	80.29	13.54	-47.9	-50.0	17.0	0.00e+00	0	37	0	239075328	67	4560
2026-01-19 06:57:57.33	80.17	13.62	-47.8	-49.8	17.2	0.00e+00	0	37	0	241172480	67	4482
2026-01-19 06:57:58.33	80.06	13.70	-47.6	-49.5	17.4	0.00e+00	0	37	0	243269632	67	4325
2026-01-19 06:57:59.34	79.94	13.78	-47.6	-49.5	17.5	0.00e+00	0	37	0	245366784	67	4295
2026-01-19 06:58:00.35	79.81	13.87	-47.6	-49.5	17.5	0.00e+00	0	37	0	246415360	67	4311
2026-01-19 06:58:01.36	79.69	13.95	-47.6	-49.5	17.5	0.00e+00	0	37	0	248512512	67	4314
2026-01-19 06:58:02.37	79.57	14.03	-47.7	-49.6	17.4	0.00e+00	0	37	0	250609664	67	4365
2026-01-19 06:58:03.37	79.45	14.12	-47.5	-49.4	17.6	0.00e+00	0	37	0	252706816	67	4285
2026-01-19 06:58:04.38	79.32	14.20	-47.7	-49.6	17.4	0.00e+00	0	37	0	254803968	67	4369
2026-01-19 06:58:05.39	79.20	14.28	-47.6	-49.5	17.5	0.00e+00	0	37	0	255852544	67	4308
2026-01-19 06:58:06.40	79.08	14.37	-47.5	-49.4	17.6	0.00e+00	0	37	0	257949696	67	4270
2026-01-19 06:58:07.41	78.95	14.45	-47.6	-49.5	17.5	0.00e+00	0	37	0	260046848	67	4309
2026-01-19 06:58:08.42	78.82	14.54	-47.6	-49.5	17.6	0.00e+00	0	37	0	262144000	67	4316
2026-01-19 06:58:09.43	78.70	14.62	-47.6	-49.5	17.5	0.00e+00	0	37	0	264241152	67	4333
2026-01-19 06:58:10.43	78.57	14.70	-47.6	-49.6	17.5	0.00e+00	0	37	0	265289728	67	4341
2026-01-19 06:58:11.44	78.44	14.79	-47.7	-49.6	17.4	0.00e+00	0	37	0	267386880	67	4378
2026-01-19 06:58:12.45	78.31	14.87	-47.7	-49.7	17.3	0.00e+00	0	37	0	269484032	67	4407
2026-01-19 06:58:13.46	78.18	14.96	-47.6	-49.5	17.5	0.00e+00	0	37	0	271581184	67	4335
2026-01-19 06:58:14.47	78.05	15.04	-47.6	-49.6	17.5	0.00e+00	0	37	0	273678336	67	4351
2026-01-19 06:58:15.48	77.92	15.13	-47.7	-49.6	17.4	0.00e+00	0	37	0	274726912	67	4370
2026-01-19 06:58:16.49	77.78	15.21	-47.6	-49.4	17.6	0.00e+00	0	37	0	276824064	67	4285
2026-01-19 06:58:17.49	77.65	15.30	-47.5	-49.4	17.7	0.00e+00	0	37	0	278921216	66	4496
2026-01-19 06:58:18.50	77.52	15.38	-47.5	-49.4	17.7	0.00e+00	0	37	0	281018368	66	4512
2026-01-19 06:58:19.51	77.38	15.47	-47.5	-49.4	17.6	0.00e+00	0	37	0	283115520	66	4531
2026-01-19 06:58:20.52	77.25	15.56	-47.4	-49.2	17.9	0.00e+00	0	37	0	285212672	66	4425
2026-01-19 06:58:21.53	77.11	15.64	-47.6	-49.5	17.6	0.00e+00	0	37	0	286261248	66	4551
2026-01-19 06:58:22.54	76.97	15.73	-47.5	-49.3	17.8	0.00e+00	0	37	0	288358400	66	4480
2026-01-19 06:58:23.55	76.83	15.82	-47.3	-49.0	18.0	0.00e+00	0	37	0	290455552	66	4330
2026-01-19 06:58:24.55	76.70	15.90	-47.1	-48.8	18.3	0.00e+00	0	37	0	292552704	66	4211
2026-01-19 06:58:25.56	76.56	15.99	-47.1	-48.9	18.2	0.00e+00	0	37	0	293601280	66	4258
2026-01-19 06:58:26.57	76.42	16.07	-47.2	-49.0	18.1	0.00e+00	0	37	0	295698432	66	4305
2026-01-19 06:58:27.58	76.28	16.16	-47.1	-48.8	18.3	0.00e+00	0	37	0	297795584	66	4206
2026-01-19 06:58:28.59	76.13	16.25	-47.1	-48.8	18.3	0.00e+00	0	37	0	299892736	66	4213
2026-01-19 06:58:29.59	75.99	16.34	-47.1	-48.9	18.2	0.00e+00	0	37	0	301989888	66	4260
2026-01-19 06:58:30.60	75.85	16.42	-47.1	-48.8	18.3	0.00e+00	0	37	0	304087040	66	4218
2026-01-19 06:58:31.61	75.70	16.51	-47.1	-48.8	18.3	0.00e+00	0	37	0	305135616	66	4231
2026-01-19 06:58:32.62	75.56	16.60	-47.0	-48.7	18.5	0.00e+00	0	37	0	307232768	66	4148
2026-01-19 06:58:33.63	75.41	16.69	-47.0	-48.7	18.4	0.00e+00	0	37	0	309329920	65	4398
2026-01-19 06:58:34.64	75.26	16.77	-47.0	-48.8	18.3	0.00e+00	0	37	0	311427072	65	4444
2026-01-19 06:58:35.64	75.12	16.86	-46.9	-48.6	18.5	0.00e+00	0	37	0	313524224	65	4374
2026-01-19 06:58:36.65	74.97	16.95	-46.8	-48.4	18.7	0.00e+00	0	37	0	314572800	65	4274
2026-01-19 06:58:37.66	74.82	17.04	-46.7	-48.3	18.7	0.00e+00	0	37	0	316669952	65	4232
2026-01-19 06:58:38.67	74.67	17.12	-46.8	-48.4	18.6	0.00e+00	0	37	0	318767104	65	4283
2026-01-19 06:58:39.68	74.51	17.21	-46.9	-48.5	18.6	0.00e+00	0	37	0	320864256	65	4326
2026-01-19 06:58:40.69	74.36	17.30	-46.9	-48.5	18.6	0.00e+00	0	37	0	321912832	65	4323
2026-01-19 06:58:41.69	74.21	17.39	-46.9	-48.5	18.6	0.00e+00	0	37	0	324009984	65	4336
2026-01-19 06:58:42.70	74.05	17.48	-47.0	-48.7	18.4	0.00e+00	0	37	0	326107136	65	4402
2026-01-19 06:58:43.71	73.90	17.57	-46.9	-48.6	18.6	0.00e+00	0	37	0	328204288	65	4350
2026-01-19 06:58:44.72	73.74	17.66	-46.8	-48.4	18.7	0.00e+00	0	37	0	330301440	65	4279
2026-01-19 06:58:45.73	73.58	17.74	-46.8	-48.5	18.6	0.00e+00	0	37	0	332398592	65	4302
2026-01-19 06:58:46.73	73.43	17.83	-46.8	-48.4	18.7	0.00e+00	0	37	0	333447168	65	4290
2026-01-19 06:58:47.74	73.27	17.92	-46.8	-48.5	18.7	0.00e+00	0	37	0	335544320	65	4297
2026-01-19 06:58:48.75	73.11	18.01	-46.8	-48.4	18.7	0.00e+00	0	37	0	337641472	65	4264
2026-01-19 06:58:49.75	72.95	18.10	-46.8	-48.4	18.7	0.00e+00	0	37	0	339738624	65	4267
2026-01-19 06:58:50.76	72.79	18.19	-46.8	-48.4	18.8	0.00e+00	0	37	0	341835776	65	4250
2026-01-19 06:58:51.77	72.62	18.28	-46.8	-48.4	18.7	0.00e+00	0	37	0	342884352	65	4279
2026-01-19 06:58:52.78	72.46	18.37	-46.8	-48.4	18.7	0.00e+00	0	37	0	344981504	65	4289
2026-01-19 06:58:53.79	72.29	18.46	-46.8	-48.4	18.8	0.00e+00	0	37	0	347078656	65	4245
2026-01-19 06:58:54.79	72.13	18.55	-46.8	-48.4	18.7	0.00e+00	0	37	0	349175808	65	4271
2026-01-19 06:58:55.80	71.96	18.64	-46.9	-48.6	18.6	0.00e+00	0	37	0	351272960	65	4365
2026-01-19 06:58:56.81	71.79	18.73	-46.9	-48.5	18.7	0.00e+00	0	37	0	352321536	65	4322
2026-01-19 06:58:57.82	71.62	18.82	-46.9	-48.6	18.5	0.00e+00	0	37	0	354418688	65	4376
2026-01-19 06:58:58.82	71.46	18.91	-46.9	-48.5	18.6	0.00e+00	0	37	0	356515840	65	4332
2026-01-19 06:58:59.83	71.28	19.00	-46.9	-48.5	18.6	0.00e+00	0	37	0	358612992	65	4335
2026-01-19 06:59:00.84	71.11	19.09	-47.0	-48.6	18.5	0.00e+00	0	37	0	360710144	65	4375
2026-01-19 06:59:01.85	70.94	19.18	-46.9	-48.6	18.6	0.00e+00	0	37	0	361758720	65	4364
2026-01-19 06:59:02.86	70.76	19.27	-47.1	-48.7	18.4	0.00e+00	0	37	0	363855872	65	4439
2026-01-19 06:59:03.86	70.59	19.36	-47.2	-48.9	18.3	0.00e+00	0	37	0	365953024	65	4518
2026-01-19 06:59:04.87	70.41	19.45	-47.2	-48.9	18.3	0.00e+00	0	37	0	368050176	65	4521
2026-01-19 06:59:05.88	70.24	19.54	-47.2	-49.0	18.2	0.00e+00	0	37	0	370147328	65	4559
2026-01-19 06:59:06.89	70.06	19.63	-47.4	-49.2	18.0	0.00e+00	0	37	0	371195904	65	4668
2026-01-19 06:59:07.90	69.88	19.72	-47.3	-49.0	18.2	0.00e+00	0	37	0	373293056	65	4586
2026-01-19 06:59:08.91	69.70	19.81	-47.4	-49.2	18.0	0.00e+00	0	37	0	375390208	65	4655
2026-01-19 06:59:09.91	69.52	19.90	-47.3	-49.0	18.2	0.00e+00	0	37	0	377487360	65	4598
2026-01-19 06:59:10.92	69.34	19.99	-47.3	-49.0	18.2	0.00e+00	0	37	0	379584512	65	4581
2026-01-19 06:59:11.93	69.15	20.08	-47.3	-49.1	18.1	0.00e+00	0	37	0	380633088	65	4618
2026-01-19 06:59:12.93	68.97	20.17	-47.3	-49.1	18.1	0.00e+00	0	37	0	382730240	65	4611
2026-01-19 06:59:13.94	68.78	20.26	-47.4	-49.1	18.1	0.00e+00	0	37	0	384827392	65	4642
2026-01-19 06:59:14.95	68.60	20.35	-47.2	-49.0	18.3	0.00e+00	0	37	0	386924544	65	4553
2026-01-19 06:59:15.96	68.41	20.44	-47.2	-48.9	18.3	0.00e+00	0	37	0	389021696	65	4539
2026-01-19 06:59:16.97	68.22	20.53	-47.2	-49.0	18.2	0.00e+00	0	37	0	390070272	65	4549
2026-01-19 06:59:17.97	68.03	20.62	-47.2	-49.0	18.2	0.00e+00	0	37	0	392167424	65	4554
2026-01-19 06:59:18.99	67.84	20.71	-47.1	-48.7	18.5	0.00e+00	0	37	0	394264576	65	4440
2026-01-19 06:59:19.99	67.64	20.80	-47.0	-48.7	18.5	0.00e+00	0	37	0	396361728	65	4401
2026-01-19 06:59:21.00	67.45	20.89	-47.0	-48.7	18.5	0.00e+00	0	37	0	398458880	65	4418
2026-01-19 06:59:22.01	67.26	20.98	-46.9	-48.5	18.7	0.00e+00	0	37	0	399507456	65	4324
2026-01-19 06:59:23.02	67.06	21.07	-47.0	-48.6	18.6	0.00e+00	0	37	0	401604608	65	4382
2026-01-19 06:59:24.02	66.86	21.16	-46.9	-48.5	18.7	0.00e+00	0	37	0	403701760	65	4332
2026-01-19 06:59:25.03	66.66	21.25	-46.8	-48.4	18.8	0.00e+00	0	37	0	405798912	65	4291
2026-01-19 06:59:26.04	66.46	21.34	-47.0	-48.6	18.6	0.00e+00	0	37	0	407896064	65	4383
2026-01-19 06:59:27.05	66.26	21.43	-47.0	-48.6	18.6	0.00e+00	0	37	0	408944640	65	4369
2026-01-19 06:59:28.05	66.06	21.52	-47.0	-48.6	18.6	0.00e+00	0	37	0	411041792	65	4376
2026-01-19 06:59:29.06	65.86	21.61	-47.0	-48.7	18.6	0.00e+00	0	37	0	413138944	65	4394
2026-01-19 06:59:30.07	65.66	21.70	-46.9	-48.5	18.7	0.00e+00	0	37	0	415236096	65	4325
2026-01-19 06:59:31.08	65.45	21.79	-47.0	-48.6	18.6	0.00e+00	0	37	0	417333248	65	4382
2026-01-19 06:59:32.09	65.24	21.88	-46.8	-48.4	18.8	0.00e+00	0	37	0	418381824	65	4291
2026-01-19 06:59:33.09	65.04	21.97	-46.9	-48.6	18.7	0.00e+00	0	37	0	420478976	65	4351
2026-01-19 06:59:34.10	64.83	22.06	-46.8	-48.3	18.9	0.00e+00	0	37	0	422576128	65	4237
2026-01-19 06:59:35.11	64.62	22.15	-46.8	-48.4	18.8	0.00e+00	0	37	0	424673280	65	4268
2026-01-19 06:59:36.12	64.40	22.24	-46.6	-48.2	19.1	0.00e+00	0	37	0	426770432	65	4148
2026-01-19 06:59:37.13	64.19	22.33	-46.5	-48.0	19.2	0.00e+00	0	37	0	427819008	64	4332
2026-01-19 06:59:38.13	63.98	22.42	-46.6	-48.1	19.1	0.00e+00	0	37	0	429916160	64	4389
2026-01-19 06:59:39.14	63.76	22.51	-46.6	-48.1	19.1	0.00e+00	0	37	0	432013312	64	4366
2026-01-19 06:59:40.15	63.55	22.60	-46.5	-48.0	19.2	0.00e+00	0	37	0	434110464	64	4337
2026-01-19 06:59:41.16	63.33	22.69	-46.5	-48.0	19.3	0.00e+00	0	37	0	436207616	64	4295
2026-01-19 06:59:42.17	63.11	22.77	-46.3	-47.8	19.5	0.00e+00	0	37	0	437256192	64	4207
2026-01-19 06:59:43.17	62.89	22.86	-46.1	-47.6	19.7	0.00e+00	0	37	0	439353344	64	4103
2026-01-19 06:59:44.18	62.67	22.95	-46.0	-47.4	19.8	0.00e+00	0	37	0	441450496	64	4040
2026-01-19 06:59:45.19	62.45	23.04	-46.0	-47.4	19.9	0.00e+00	0	37	0	443547648	64	4017
2026-01-19 06:59:46.20	62.22	23.13	-46.0	-47.4	19.9	0.00e+00	0	37	0	445644800	63	4262
2026-01-19 06:59:47.21	62.00	23.21	-46.1	-47.6	19.8	0.00e+00	0	37	0	447741952	63	4341
2026-01-19 06:59:48.21	61.77	23.30	-46.2	-47.6	19.7	0.00e+00	0	37	0	448790528	63	4375
2026-01-19 06:59:49.22	61.54	23.39	-46.3	-47.7	19.7	0.00e+00	0	37	0	450887680	63	4405
2026-01-19 06:59:50.23	61.31	23.48	-46.2	-47.6	19.8	0.00e+00	0	37	0	452984832	63	4360
2026-01-19 06:59:51.24	61.08	23.56	-46.2	-47.6	19.7	0.00e+00	0	37	0	455081984	63	4389
2026-01-19 06:59:52.24	60.85	23.65	-46.1	-47.5	19.9	0.00e+00	0	37	0	456130560	63	4304
2026-01-19 06:59:53.25	60.62	23.74	-46.1	-47.5	19.8	0.00e+00	0	37	0	458227712	63	4327
2026-01-19 06:59:54.26	60.38	23.82	-46.1	-47.5	19.8	0.00e+00	0	37	0	460324864	63	4329
2026-01-19 06:59:55.27	60.15	23.91	-46.2	-47.6	19.8	0.00e+00	0	37	0	462422016	63	4354
2026-01-19 06:59:56.27	59.91	23.99	-46.3	-47.7	19.7	0.00e+00	0	37	0	464519168	63	4426
2026-01-19 06:59:57.28	59.67	24.08	-46.1	-47.5	19.9	0.00e+00	0	37	0	465567744	63	4302
2026-01-19 06:59:58.29	59.43	24.17	-46.0	-47.4	19.9	0.00e+00	0	37	0	467664896	63	4279
2026-01-19 06:59:59.29	59.20	24.25	-46.1	-47.5	19.9	0.00e+00	0	37	0	469762048	63	4311
2026-01-19 07:00:00.30	58.95	24.33	-46.0	-47.4	19.9	0.00e+00	0	37	0	471859200	63	4266
2026-01-19 07:00:01.31	58.71	24.42	-46.1	-47.5	19.9	0.00e+00	0	37	0	473956352	63	4310
2026-01-19 07:00:02.32	58.46	24.50	-46.1	-47.5	19.9	0.00e+00	0	37	0	476053504	63	4335
2026-01-19 07:00:03.33	58.22	24.59	-46.3	-47.7	19.7	0.00e+00	0	37	0	477102080	63	4405
2026-01-19 07:00:04.33	57.97	24.67	-46.4	-47.8	19.5	0.00e+00	0	37	0	479199232	63	4491
2026-01-19 07:00:05.34	57.72	24.75	-46.6	-48.1	19.3	0.00e+00	0	37	0	481296384	63	4605
2026-01-19 07:00:06.35	57.47	24.84	-46.6	-48.2	19.2	0.00e+00	0	37	0	483393536	63	4662
2026-01-19 07:00:07.36	57.22	24.92	-46.5	-48.1	19.4	0.00e+00	0	37	0	484442112	63	4600
2026-01-19 07:00:08.36	56.97	25.00	-46.3	-47.7	19.7	0.00e+00	0	37	0	486539264	63	4436
2026-01-19 07:00:09.37	56.71	25.08	-46.2	-47.7	19.7	0.00e+00	0	37	0	488636416	63	4399
2026-01-19 07:00:10.38	56.46	25.16	-46.3	-47.7	19.7	0.00e+00	0	37	0	490733568	63	4425
2026-01-19 07:00:11.39	56.20	25.25	-46.3	-47.7	19.7	0.00e+00	0	37	0	492830720	63	4438
2026-01-19 07:00:12.40	55.94	25.33	-46.4	-47.9	19.5	0.00e+00	0	37	0	494927872	63	4530
2026-01-19 07:00:13.41	55.68	25.41	-46.5	-47.9	19.5	0.00e+00	0	37	0	495976448	63	4535
2026-01-19 07:00:14.41	55.42	25.49	-46.4	-47.8	19.6	0.00e+00	0	37	0	498073600	63	4484
2026-01-19 07:00:15.42	55.16	25.57	-46.4	-47.9	19.5	0.00e+00	0	37	0	500170752	63	4527
2026-01-19 07:00:16.43	54.90	25.65	-46.4	-47.9	19.5	0.00e+00	0	37	0	502267904	63	4515
2026-01-19 07:00:17.44	54.63	25.72	-46.4	-47.9	19.5	0.00e+00	0	37	0	504365056	63	4511
2026-01-19 07:00:18.45	54.37	25.80	-46.5	-47.9	19.5	0.00e+00	0	37	0	505413632	63	4538
2026-01-19 07:00:19.46	54.10	25.88	-46.4	-47.8	19.6	0.00e+00	0	37	0	507510784	63	4478
2026-01-19 07:00:20.46	53.83	25.96	-46.6	-48.1	19.3	0.00e+00	0	37	0	509607936	63	4618
2026-01-19 07:00:21.47	53.56	26.03	-46.6	-48.2	19.1	0.00e+00	0	37	0	511705088	64	4412
2026-01-19 07:00:22.48	53.29	26.11	-46.8	-48.4	19.0	0.00e+00	0	37	0	512753664	64	4503
2026-01-19 07:00:23.49	53.02	26.19	-46.8	-48.3	19.0	0.00e+00	0	37	0	514850816	64	4490
2026-01-19 07:00:24.50	52.74	26.26	-46.8	-48.4	18.9	0.00e+00	0	37	0	516947968	64	4543
2026-01-19 07:00:25.50	52.47	26.34	-46.6	-48.1	19.3	0.00e+00	0	37	0	519045120	64	4349
2026-01-19 07:00:26.51	52.19	26.41	-46.4	-47.9	19.4	0.00e+00	0	37	0	521142272	64	4266
2026-01-19 07:00:27.52	51.91	26.48	-46.5	-48.0	19.4	0.00e+00	0	37	0	523239424	64	4302
2026-01-19 07:00:28.52	51.64	26.56	-46.4	-47.9	19.4	0.00e+00	0	37	0	524288000	64	4284
2026-01-19 07:00:29.53	51.36	26.63	-46.4	-47.9	19.5	0.00e+00	0	37	0	526385152	64	4260
2026-01-19 07:00:30.54	51.07	26.70	-46.3	-47.7	19.6	0.00e+00	0	37	0	528482304	64	4192
2026-01-19 07:00:31.55	50.79	26.77	-46.3	-47.8	19.5	0.00e+00	0	37	0	530579456	64	4199
2026-01-19 07:00:32.56	50.51	26.84	-46.2	-47.6	19.7	0.00e+00	0	37	0	532676608	64	4130
2026-01-19 07:00:33.56	50.22	26.91	-46.2	-47.6	19.7	0.00e+00	0	37	0	533725184	64	4107
2026-01-19 07:00:34.57	49.94	26.98	-46.1	-47.5	19.8	0.00e+00	0	37	0	535822336	64	4091
2026-01-19 07:00:35.58	49.65	27.05	-46.2	-47.6	19.7	0.00e+00	0	37	0	537919488	64	4112
2026-01-19 07:00:36.59	49.36	27.12	-46.2	-47.7	19.7	0.00e+00	0	37	0	540016640	64	4153
2026-01-19 07:00:37.60	49.07	27.19	-46.4	-47.8	19.5	0.00e+00	0	37	0	542113792	64	4238
2026-01-19 07:00:38.61	48.77	27.26	-46.4	-47.9	19.4	0.00e+00	0	37	0	543162368	64	4263
2026-01-19 07:00:39.61	48.48	27.32	-46.4	-47.9	19.5	0.00e+00	0	37	0	545259520	64	4277
2026-01-19 07:00:40.62	48.19	27.39	-46.5	-48.1	19.3	0.00e+00	0	37	0	547356672	64	4344
2026-01-19 07:00:41.63	47.89	27.45	-46.6	-48.1	19.2	0.00e+00	0	37	0	549453824	64	4370
2026-01-19 07:00:42.64	47.60	27.52	-46.6	-48.2	19.2	0.00e+00	0	37	0	551550976	64	4403
2026-01-19 07:00:43.64	47.30	27.58	-46.5	-48.0	19.2	0.00e+00	0	37	0	552599552	64	4332
2026-01-19 07:00:44.65	47.00	27.64	-46.5	-48.0	19.3	0.00e+00	0	37	0	554696704	64	4315
2026-01-19 07:00:45.66	46.70	27.71	-46.6	-48.2	19.2	0.00e+00	0	37	0	556793856	64	4402
2026-01-19 07:00:46.67	46.40	27.77	-46.8	-48.3	19.0	0.00e+00	0	37	0	558891008	64	4480
2026-01-19 07:00:47.68	46.10	27.83	-46.8	-48.4	18.9	0.00e+00	0	37	0	560988160	64	4520
2026-01-19 07:00:48.68	45.79	27.89	-46.9	-48.4	18.9	0.00e+00	0	37	0	562036736	64	4543
2026-01-19 07:00:49.69	45.49	27.95	-46.8	-48.4	19.0	0.00e+00	0	37	0	564133888	64	4518
2026-01-19 07:00:50.70	45.18	28.00	-46.8	-48.3	19.0	0.00e+00	0	37	0	566231040	64	4488
2026-01-19 07:00:51.71	44.87	28.06	-46.8	-48.3	19.1	0.00e+00	0	37	0	568328192	64	4482
2026-01-19 07:00:52.72	44.57	28.12	-46.9	-48.4	18.9	0.00e+00	0	37	0	570425344	64	4535
2026-01-19 07:00:53.73	44.26	28.18	-46.9	-48.6	18.8	0.00e+00	0	37	0	571473920	64	4600
2026-01-19 07:00:54.73	43.95	28.23	-46.9	-48.6	18.8	0.00e+00	0	37	0	573571072	64	4599
2026-01-19 07:00:55.74	43.64	28.28	-47.0	-48.6	18.8	0.00e+00	0	37	0	575668224	64	4607
2026-01-19 07:00:56.75	43.32	28.34	-47.0	-48.6	18.7	0.00e+00	0	37	0	577765376	64	4629
2026-01-19 07:00:57.76	43.01	28.39	-47.2	-48.9	18.5	0.00e+00	0	37	0	579862528	64	4777
2026-01-19 07:00:58.76	42.70	28.44	-47.2	-48.9	18.4	0.00e+00	0	37	0	580911104	65	4536
2026-01-19 07:00:59.77	42.38	28.49	-47.2	-48.9	18.5	0.00e+00	0	37	0	583008256	65	4517
2026-01-19 07:01:00.78	42.06	28.54	-47.3	-49.0	18.4	0.00e+00	0	37	0	585105408	65	4560
2026-01-19 07:01:01.79	41.75	28.59	-47.3	-49.0	18.4	0.00e+00	0	37	0	587202560	65	4564
2026-01-19 07:01:02.79	41.43	28.64	-47.4	-49.2	18.2	0.00e+00	0	37	0	589299712	65	4658
2026-01-19 07:01:03.80	41.11	28.69	-47.2	-48.9	18.4	0.00e+00	0	37	0	591396864	65	4533
2026-01-19 07:01:04.81	40.79	28.73	-47.3	-49.0	18.4	0.00e+00	0	37	0	592445440	65	4548
2026-01-19 07:01:05.82	40.47	28.78	-47.3	-49.0	18.4	0.00e+00	0	37	0	594542592	65	4564
2026-01-19 07:01:06.83	40.15	28.82	-47.3	-49.0	18.3	0.00e+00	0	37	0	596639744	65	4571
2026-01-19 07:01:07.84	39.82	28.87	-47.5	-49.2	18.1	0.00e+00	0	37	0	598736896	65	4703
2026-01-19 07:01:08.85	39.50	28.91	-47.5	-49.2	18.2	0.00e+00	0	37	0	599785472	65	4693
2026-01-19 07:01:09.85	39.18	28.95	-47.5	-49.2	18.2	0.00e+00	0	37	0	601882624	65	4695
2026-01-19 07:01:10.86	38.85	28.99	-47.5	-49.2	18.2	0.00e+00	0	37	0	603979776	65	4683
2026-01-19 07:01:11.87	38.52	29.03	-47.5	-49.2	18.2	0.00e+00	0	37	0	606076928	65	4705
2026-01-19 07:01:12.88	38.19	29.07	-47.6	-49.4	18.1	0.00e+00	0	37	0	608174080	65	4763
2026-01-19 07:01:13.89	37.87	29.11	-47.5	-49.2	18.1	0.00e+00	0	37	0	609222656	65	4704
2026-01-19 07:01:14.90	37.54	29.15	-47.5	-49.3	18.2	0.00e+00	0	37	0	611319808	65	4707
2026-01-19 07:01:15.91	37.21	29.18	-47.3	-49.0	18.4	0.00e+00	0	37	0	613416960	65	4556
2026-01-19 07:01:16.92	36.88	29.22	-47.3	-49.0	18.4	0.00e+00	0	37	0	615514112	65	4579
2026-01-19 07:01:17.93	36.54	29.25	-47.4	-49.1	18.3	0.00e+00	0	37	0	617611264	65	4612
2026-01-19 07:01:18.93	36.21	29.28	-47.5	-49.2	18.2	0.00e+00	0	37	0	619708416	65	4695
2026-01-19 07:01:19.94	35.88	29.31	-47.7	-49.6	17.9	0.00e+00	0	37	0	620756992	65	4882
2026-01-19 07:01:20.95	35.55	29.34	-47.6	-49.4	18.0	0.00e+00	0	37	0	622854144	65	4812
2026-01-19 07:01:21.96	35.21	29.37	-47.6	-49.4	18.0	0.00e+00	0	37	0	624951296	65	4793
2026-01-19 07:01:22.96	34.88	29.40	-47.8	-49.6	17.9	0.00e+00	0	37	0	627048448	66	4625
2026-01-19 07:01:23.97	34.55	29.43	-47.8	-49.6	17.8	0.00e+00	0	37	0	628097024	66	4636
2026-01-19 07:01:24.98	34.21	29.46	-48.0	-49.9	17.6	0.00e+00	0	37	0	630194176	66	4765
2026-01-19 07:01:25.99	33.88	29.48	-47.9	-49.8	17.6	0.00e+00	0	37	0	632291328	66	4744
2026-01-19 07:01:26.99	33.54	29.50	-48.1	-50.0	17.4	0.00e+00	0	37	0	634388480	66	4869
2026-01-19 07:01:28.00	33.20	29.53	-48.2	-50.2	17.2	0.00e+00	0	37	0	636485632	66	4927
2026-01-19 07:01:29.01	32.87	29.55	-48.3	-50.3	17.2	0.00e+00	0	37	0	638582784	67	4724
2026-01-19 07:01:30.02	32.53	29.57	-48.3	-50.4	17.1	0.00e+00	0	37	0	639631360	67	4775
2026-01-19 07:01:31.02	32.19	29.59	-48.3	-50.3	17.1	0.00e+00	0	37	0	641728512	67	4754
2026-01-19 07:01:32.03	31.85	29.61	-48.3	-50.3	17.2	0.00e+00	0	37	0	643825664	67	4715
2026-01-19 07:01:33.04	31.51	29.63	-48.2	-50.2	17.2	0.00e+00	0	37	0	645922816	67	4701
2026-01-19 07:01:34.05	31.17	29.64	-48.2	-50.2	17.3	0.00e+00	0	37	0	648019968	67	4678
2026-01-19 07:01:35.05	30.84	29.66	-48.2	-50.1	17.3	0.00e+00	0	37	0	649068544	67	4641
2026-01-19 07:01:36.06	30.50	29.67	-48.2	-50.1	17.3	0.00e+00	0	37	0	651165696	67	4634
2026-01-19 07:01:37.07	30.16	29.68	-48.4	-50.5	16.9	0.00e+00	0	37	0	653262848	67	4826
2026-01-19 07:01:38.08	29.82	29.70	-48.2	-50.2	17.2	0.00e+00	0	37	0	655360000	67	4691
2026-01-19 07:01:39.08	29.48	29.71	-48.1	-50.1	17.3	0.00e+00	0	37	0	656408576	67	4620
2026-01-19 07:01:40.09	29.14	29.72	-48.2	-50.1	17.3	0.00e+00	0	37	0	658505728	67	4633
2026-01-19 07:01:41.10	28.79	29.73	-48.1	-50.1	17.4	0.00e+00	0	37	0	660602880	67	4631
2026-01-19 07:01:42.11	28.45	29.73	-48.2	-50.2	17.2	0.00e+00	0	37	0	662700032	67	4700
2026-01-19 07:01:43.12	28.11	29.74	-48.3	-50.3	17.1	0.00e+00	0	37	0	664797184	67	4739
2026-01-19 07:01:44.12	27.77	29.74	-48.3	-50.3	17.1	0.00e+00	0	37	0	666894336	67	4730
2026-01-19 07:01:45.13	27.43	29.75	-48.3	-50.3	17.1	0.00e+00	0	37	0	667942912	67	4728
2026-01-19 07:01:46.14	27.09	29.75	-48.4	-50.5	17.0	0.00e+00	0	37	0	670040064	67	4828
2026-01-19 07:01:47.15	26.75	29.75	-48.4	-50.6	16.9	0.00e+00	0	37	0	672137216	67	4879
2026-01-19 07:01:48.15	26.41	29.75	-48.3	-50.3	17.2	0.00e+00	0	37	0	674234368	67	4726
2026-01-19 07:01:49.16	26.06	29.75	-48.1	-50.0	17.4	0.00e+00	0	37	0	676331520	67	4577
2026-01-19 07:01:50.17	25.72	29.75	-47.9	-49.8	17.6	0.00e+00	0	37	0	677380096	67	4484
2026-01-19 07:01:51.18	25.38	29.75	-47.9	-49.8	17.7	0.00e+00	0	37	0	679477248	67	4452
2026-01-19 07:01:52.19	25.04	29.74	-48.0	-49.9	17.5	0.00e+00	0	37	0	681574400	67	4526
2026-01-19 07:01:53.19	24.70	29.74	-48.1	-50.0	17.4	0.00e+00	0	37	0	683671552	67	4569
2026-01-19 07:01:54.20	24.36	29.73	-47.9	-49.8	17.6	0.00e+00	0	37	0	685768704	67	4465
2026-01-19 07:01:55.21	24.01	29.72	-47.6	-49.4	18.0	0.00e+00	0	37	0	686817280	67	4265
2026-01-19 07:01:56.22	23.67	29.72	-47.6	-49.3	18.1	0.00e+00	0	37	0	688914432	67	4238
2026-01-19 07:01:57.23	23.33	29.71	-47.7	-49.6	17.9	0.00e+00	0	37	0	691011584	67	4341
2026-01-19 07:01:58.23	22.99	29.69	-47.8	-49.7	17.8	0.00e+00	0	37	0	693108736	67	4423
2026-01-19 07:01:59.24	22.65	29.68	-47.8	-49.6	17.8	0.00e+00	0	37	0	695205888	67	4387
2026-01-19 07:02:00.25	22.31	29.67	-47.6	-49.3	18.1	0.00e+00	0	37	0	696254464	67	4231
2026-01-19 07:02:01.26	21.97	29.65	-47.3	-49.0	18.4	0.00e+00	0	37	0	698351616	66	4312
2026-01-19 07:02:02.27	21.63	29.64	-47.1	-48.7	18.7	0.00e+00	0	37	0	700448768	66	4186
2026-01-19 07:02:03.27	21.30	29.62	-47.2	-48.9	18.6	0.00e+00	0	37	0	702545920	66	4247
2026-01-19 07:02:04.28	20.96	29.61	-47.3	-49.0	18.5	0.00e+00	0	37	0	704643072	66	4301
2026-01-19 07:02:05.29	20.62	29.59	-47.4	-49.1	18.3	0.00e+00	0	37	0	705691648	66	4386
2026-01-19 07:02:06.30	20.28	29.57	-47.6	-49.3	18.1	0.00e+00	0	37	0	707788800	66	4483
2026-01-19 07:02:07.31	19.94	29.55	-47.6	-49.3	18.1	0.00e+00	0	37	0	709885952	66	4476
2026-01-19 07:02:08.31	19.61	29.52	-47.4	-49.1	18.3	0.00e+00	0	37	0	711983104	66	4379
2026-01-19 07:02:09.32	19.27	29.50	-47.4	-49.1	18.3	0.00e+00	0	37	0	714080256	66	4374
2026-01-19 07:02:10.33	18.93	29.48	-47.3	-49.0	18.2	0.00e+00	0	37	0	715128832	66	4299
2026-01-19 07:02:11.33	18.60	29.45	-47.2	-48.8	18.6	0.00e+00	0	37	0	717225984	66	4224
2026-01-19 07:02:12.34	18.26	29.42	-47.0	-48.7	18.8	0.00e+00	0	37	0	719323136	66	4146
2026-01-19 07:02:13.35	17.93	29.40	-47.1	-48.8	18.7	0.00e+00	0	37	0	721420288	66	4195
2026-01-19 07:02:14.36	17.60	29.37	-47.2	-48.9	18.6	0.00e+00	0	37	0	723517440	66	4260
2026-01-19 07:02:15.37	17.26	29.34	-47.2	-48.9	18.6	0.00e+00	0	37	0	724566016	66	4248
2026-01-19 07:02:16.37	16.93	29.31	-47.0	-48.6	18.8	0.00e+00	0	37	0	726663168	66	4131
2026-01-19 07:02:17.38	16.60	29.28	-47.1	-48.7	18.8	0.00e+00	0	37	0	728760320	66	4152
2026-01-19 07:02:18.39	16.27	29.24	-47.1	-48.7	18.7	0.00e+00	0	37	0	730857472	66	4170
2026-01-19 07:02:19.40	15.94	29.21	-47.4	-49.1	18.3	0.00e+00	0	37	0	732954624	66	4371
2026-01-19 07:02:20.40	15.61	29.18	-47.4	-49.1	18.3	0.00e+00	0	37	0	734003200	66	4373
2026-01-19 07:02:21.41	15.28	29.14	-47.2	-48.9	18.6	0.00e+00	0	37	0	736100352	66	4250
2026-01-19 07:02:22.42	14.95	29.10	-47.0	-48.6	18.8	0.00e+00	0	37	0	738197504	66	4120
2026-01-19 07:02:23.43	14.62	29.06	-47.0	-48.5	18.9	0.00e+00	0	37	0	740294656	65	4329
2026-01-19 07:02:24.44	14.29	29.03	-46.8	-48.3	19.1	0.00e+00	0	37	0	742391808	65	4234
2026-01-19 07:02:25.45	13.97	28.99	-46.8	-48.4	19.1	0.00e+00	0	37	0	743440384	65	4243
2026-01-19 07:02:26.45	13.65	28.95	-46.9	-48.5	18.9	0.00e+00	0	37	0	745537536	65	4329
2026-01-19 07:02:27.46	13.32	28.90	-47.1	-48.8	18.6	0.00e+00	0	37	0	747634688	65	4466
2026-01-19 07:02:28.47	13.00	28.86	-47.2	-48.8	18.6	0.00e+00	0	37	0	749731840	65	4488
2026-01-19 07:02:29.48	12.67	28.82	-47.3	-49.0	18.4	0.00e+00	0	37	0	751828992	65	4591
2026-01-19 07:02:30.48	12.35	28.77	-47.4	-49.1	18.3	0.00e+00	0	37	0	752877568	65	4621
2026-01-19 07:02:31.49	12.03	28.73	-47.5	-49.3	18.1	0.00e+00	0	37	0	754974720	65	4733
2026-01-19 07:02:32.50	11.71	28.68	-47.6	-49.4	18.0	0.00e+00	0	37	0	757071872	65	4812
2026-01-19 07:02:33.51	11.39	28.63	-47.6	-49.4	18.0	0.00e+00	0	37	0	759169024	65	4774
2026-01-19 07:02:34.52	11.07	28.58	-47.7	-49.5	17.9	0.00e+00	0	37	0	761266176	65	4852
2026-01-19 07:02:35.53	10.76	28.53	-47.8	-49.6	17.8	0.00e+00	0	37	0	762314752	66	4627
2026-01-19 07:02:36.53	10.44	28.49	-47.9	-49.8	17.7	0.00e+00	0	37	0	764411904	66	4737
2026-01-19 07:02:37.54	10.13	28.43	-47.9	-49.8	17.6	0.00e+00	0	37	0	766509056	66	4743
2026-01-19 07:02:38.55	9.81	28.38	-47.8	-49.6	17.8	0.00e+00	0	37	0	768606208	66	4626
2026-01-19 07:02:39.55	9.50	28.33	-47.9	-49.7	17.7	0.00e+00	0	37	0	770703360	66	4700
2026-01-19 07:02:40.56	9.19	28.28	-47.9	-49.7	17.7	0.00e+00	0	37	0	771751936	66	4703
2026-01-19 07:02:41.57	8.88	28.22	-47.9	-49.8	17.7	0.00e+00	0	37	0	773849088	66	4716
2026-01-19 07:02:42.58	8.57	28.17	-47.9	-49.8	17.6	0.00e+00	0	37	0	775946240	66	4736
2026-01-19 07:02:43.59	8.26	28.11	-47.9	-49.8	17.6	0.00e+00	0	37	0	778043392	66	4708
2026-01-19 07:02:44.60	7.95	28.05	-47.9	-49.8	17.5	0.00e+00	0	37	0	780140544	66	4753
2026-01-19 07:02:45.60	7.65	28.00	-48.0	-49.9	17.5	0.00e+00	0	37	0	782237696	66	4812
2026-01-19 07:02:46.61	7.34	27.94	-48.0	-49.9	17.5	0.00e+00	0	37	0	783286272	66	4793
2026-01-19 07:02:47.62	7.04	27.88	-48.1	-50.1	17.3	0.00e+00	0	37	0	785383424	66	4918
2026-01-19 07:02:48.63	6.73	27.82	-48.2	-50.1	17.4	0.00e+00	0	37	0	787480576	66	4919
2026-01-19 07:02:49.64	6.43	27.76	-48.2	-50.2	17.2	0.00e+00	0	37	0	789577728	67	4690
2026-01-19 07:02:50.65	6.13	27.70	-48.3	-50.3	17.2	0.00e+00	0	37	0	790626304	67	4720
2026-01-19 07:02:51.65	5.83	27.63	-48.2	-50.2	17.3	0.00e+00	0	37	0	792723456	67	4671
2026-01-19 07:02:52.66	5.53	27.57	-48.2	-50.2	17.2	0.00e+00	0	37	0	794820608	67	4677
2026-01-19 07:02:53.67	5.24	27.51	-48.2	-50.2	17.2	0.00e+00	0	37	0	796917760	67	4675
2026-01-19 07:02:54.68	4.94	27.44	-48.1	-50.0	17.4	0.00e+00	0	37	0	799014912	67	4596
2026-01-19 07:02:55.69	4.64	27.38	-48.0	-50.0	17.5	0.00e+00	0	37	0	800063488	67	4559
2026-01-19 07:02:56.69	4.35	27.31	-47.9	-49.8	17.6	0.00e+00	0	37	0	802160640	67	4492
2026-01-19 07:02:57.70	4.06	27.25	-48.0	-49.9	17.5	0.00e+00	0	37	0	804257792	67	4515
2026-01-19 07:02:58.71	3.77	27.18	-47.9	-49.8	17.5	0.00e+00	0	37	0	806354944	67	4491
2026-01-19 07:02:59.72	3.48	27.11	-47.8	-49.7	17.7	0.00e+00	0	37	0	808452096	67	4422
2026-01-19 07:03:00.73	3.19	27.04	-47.8	-49.6	17.8	0.00e+00	0	37	0	810549248	67	4374
2026-01-19 07:03:01.73	2.90	26.97	-47.8	-49.7	17.8	0.00e+00	0	37	0	811597824	67	4396
2026-01-19 07:03:02.74	2.62	26.90	-47.7	-49.5	17.9	0.00e+00	0	37	0	813694976	67	4334
2026-01-19 07:03:03.75	2.33	26.83	-47.7	-49.5	17.9	0.00e+00	0	37	0	815792128	67	4304
2026-01-19 07:03:04.76	2.05	26.76	-47.8	-49.7	17.7	0.00e+00	0	37	0	817889280	67	4417
2026-01-19 07:03:05.77	1.77	26.69	-47.8	-49.6	17.8	0.00e+00	0	37	0	818937856	67	4370
2026-01-19 07:03:06.77	1.49	26.62	-47.7	-49.5	17.9	0.00e+00	0	37	0	821035008	67	4323
2026-01-19 07:03:07.78	1.21	26.55	-47.5	-49.3	18.1	0.00e+00	0	37	0	823132160	67	4204
2026-01-19 07:03:08.79	0.93	26.47	-47.5	-49.2	18.2	0.00e+00	0	37	0	825229312	66	4418
2026-01-19 07:03:09.80	0.65	26.40	-47.4	-49.1	18.2	0.00e+00	0	37	0	827326464	66	4390
2026-01-19 07:03:10.81	0.37	26.33	-47.3	-48.9	18.5	0.00e+00	0	37	0	829423616	66	4290
2026-01-19 07:03:11.82	0.10	26.25	-47.2	-48.9	18.5	0.00e+00	0	37	0	830472192	66	4257
2026-01-19 07:03:12.83	359.82	26.18	-47.3	-49.0	18.4	0.00e+00	0	37	0	832569344	66	4297
2026-01-19 07:03:13.84	359.55	26.10	-47.4	-49.1	18.3	0.00e+00	0	37	0	834666496	66	4362
2026-01-19 07:03:14.84	359.28	26.02	-47.3	-49.0	18.5	0.00e+00	0	37	0	836763648	66	4294
2026-01-19 07:03:15.85	359.01	25.95	-47.2	-48.9	18.5	0.00e+00	0	37	0	838860800	66	4259
2026-01-19 07:03:16.86	358.75	25.87	-47.1	-48.8	18.6	0.00e+00	0	37	0	839909376	66	4210
2026-01-19 07:03:17.87	358.48	25.79	-47.0	-48.7	18.7	0.00e+00	0	37	0	842006528	66	4149
2026-01-19 07:03:18.88	358.21	25.71	-47.0	-48.6	18.8	0.00e+00	0	37	0	844103680	66	4143
2026-01-19 07:03:19.88	357.95	25.64	-47.0	-48.6	18.8	0.00e+00	0	37	0	846200832	66	4127
2026-01-19 07:03:20.89	357.69	25.56	-47.0	-48.6	18.7	0.00e+00	0	37	0	847249408	66	4116
2026-01-19 07:03:21.90	357.43	25.48	-46.9	-48.5	18.8	0.00e+00	0	37	0	849346560	65	4336
2026-01-19 07:03:22.91	357.17	25.40	-46.9	-48.5	18.9	0.00e+00	0	37	0	851443712	65	4310
2026-01-19 07:03:23.92	356.91	25.32	-46.8	-48.3	19.0	0.00e+00	0	37	0	853540864	65	4226
2026-01-19 07:03:24.93	356.65	25.24	-46.9	-48.5	18.6	0.00e+00	0	37	0	855638016	65	4297
2026-01-19 07:03:25.93	356.39	25.16	-46.8	-48.4	19.0	0.00e+00	0	37	0	857735168	65	4247
2026-01-19 07:03:26.94	356.14	25.07	-46.8	-48.4	19.0	0.00e+00	0	37	0	858783744	65	4283
2026-01-19 07:03:27.95	355.89	24.99	-46.8	-48.3	19.1	0.00e+00	0	37	0	860880896	65	4233
2026-01-19 07:03:28.96	355.63	24.91	-46.6	-48.2	19.2	0.00e+00	0	37	0	862978048	65	4147
2026-01-19 07:03:29.97	355.38	24.83	-46.4	-47.9	19.4	0.00e+00	0	37	0	865075200	64	4259
2026-01-19 07:03:30.97	355.13	24.75	-46.4	-47.9	19.4	0.00e+00	0	37	0	867172352	64	4280
2026-01-19 07:03:31.98	354.89	24.66	-46.4	-47.9	19.5	0.00e+00	0	37	0	868220928	64	4244
2026-01-19 07:03:32.99	354.64	24.58	-46.2	-47.6	19.7	0.00e+00	0	37	0	870318080	64	4138
2026-01-19 07:03:34.00	354.39	24.50	-46.3	-47.7	19.6	0.00e+00	0	37	0	872415232	64	4173
2026-01-19 07:03:35.01	354.15	24.41	-46.4	-47.8	19.5	0.00e+00	0	37	0	874512384	64	4233
2026-01-19 07:03:36.02	353.91	24.33	-46.3	-47.7	19.6	0.00e+00	0	37	0	876609536	64	4182
2026-01-19 07:03:37.02	353.67	24.24	-46.2	-47.7	19.6	0.00e+00	0	37	0	877658112	64	4162
2026-01-19 07:03:38.03	353.43	24.16	-46.1	-47.5	19.7	0.00e+00	0	37	0	879755264	64	4092
2026-01-19 07:03:39.04	353.19	24.07	-46.1	-47.5	19.9	0.00e+00	0	37	0	881852416	63	4305
2026-01-19 07:03:40.05	352.95	23.99	-46.0	-47.4	20.0	0.00e+00	0	37	0	883949568	63	4264
2026-01-19 07:03:41.05	352.71	23.90	-45.9	-47.3	20.1	0.00e+00	0	37	0	886046720	63	4204
2026-01-19 07:03:42.06	352.48	23.82	-45.8	-47.1	20.2	0.00e+00	0	37	0	887095296	63	4128
2026-01-19 07:03:43.07	352.24	23.73	-45.7	-47.0	20.4	0.00e+00	0	37	0	889192448	63	4056
2026-01-19 07:03:44.08	352.01	23.64	-45.6	-46.9	20.4	0.00e+00	0	37	0	891289600	63	4034
2026-01-19 07:03:45.09	351.78	23.56	-45.7	-47.0	20.4	0.00e+00	0	37	0	893386752	63	4063
2026-01-19 07:03:46.09	351.55	23.47	-45.6	-46.9	20.5	0.00e+00	0	37	0	895483904	63	4020
2026-01-19 07:03:47.10	351.32	23.38	-45.5	-46.8	20.5	0.00e+00	0	37	0	897581056	62	4214
2026-01-19 07:03:48.11	351.10	23.30	-45.3	-46.6	20.7	0.00e+00	0	37	0	898629632	62	4123
2026-01-19 07:03:49.12	350.87	23.21	-45.3	-46.5	20.8	0.00e+00	0	37	0	900726784	62	4083
2026-01-19 07:03:50.13	350.65	23.12	-45.3	-46.6	20.8	0.00e+00	0	37	0	902823936	62	4105
2026-01-19 07:03:51.13	350.42	23.03	-45.4	-46.7	20.7	0.00e+00	0	37	0	904921088	62	4168
2026-01-19 07:03:52.14	350.20	22.94	-45.3	-46.6	20.7	0.00e+00	0	37	0	905969664	62	4117
2026-01-19 07:03:53.15	349.98	22.86	-45.2	-46.4	20.9	0.00e+00	0	37	0	908066816	62	4035
2026-01-19 07:03:54.16	349.76	22.77	-45.2	-46.5	20.8	0.00e+00	0	37	0	910163968	62	4059
2026-01-19 07:03:55.16	349.54	22.68	-45.2	-46.4	20.9	0.00e+00	0	37	0	912261120	62	4029
2026-01-19 07:03:56.17	349.33	22.59	-45.0	-46.2	21.0	0.00e+00	0	37	0	914358272	62	3941
2026-01-19 07:03:57.18	349.11	22.50	-45.0	-46.2	21.1	0.00e+00	0	37	0	915406848	62	3946
2026-01-19 07:03:58.19	348.90	22.41	-44.9	-46.1	21.2	0.00e+00	0	37	0	917504000	61	4104
2026-01-19 07:03:59.20	348.68	22.32	-44.6	-45.7	21.5	0.00e+00	0	37	0	919601152	61	3950
2026-01-19 07:04:00.21	348.47	22.24	-44.6	-45.7	21.5	0.00e+00	0	37	0	921698304	61	3934
2026-01-19 07:04:01.21	348.26	22.15	-44.5	-45.7	21.5	0.00e+00	0	37	0	923795456	61	3921
2026-01-19 07:04:02.22	348.05	22.06	-44.6	-45.8	21.3	0.00e+00	0	37	0	925892608	61	3977
2026-01-19 07:04:03.23	347.84	21.97	-44.7	-45.8	21.4	0.00e+00	0	37	0	926941184	61	3991
2026-01-19 07:04:04.24	347.63	21.88	-44.7	-45.9	21.4	0.00e+00	0	37	0	929038336	61	4007
2026-01-19 07:04:05.25	347.43	21.79	-44.7	-45.9	21.3	0.00e+00	0	37	0	931135488	61	4030
2026-01-19 07:04:06.25	347.22	21.70	-44.8	-45.9	21.3	0.00e+00	0	37	0	933232640	61	4045
2026-01-19 07:04:07.26	347.02	21.61	-44.7	-45.9	21.4	0.00e+00	0	37	0	934281216	61	4012
2026-01-19 07:04:08.27	346.82	21.52	-44.6	-45.8	21.4	0.00e+00	0	37	0	936378368	61	3965
2026-01-19 07:04:09.28	346.62	21.43	-44.6	-45.7	21.5	0.00e+00	0	37	0	938475520	61	3946
2026-01-19 07:04:10.29	346.42	21.34	-44.6	-45.7	21.5	0.00e+00	0	37	0	940572672	61	3946
2026-01-19 07:04:11.29	346.22	21.25	-44.6	-45.8	21.4	0.00e+00	0	37	0	942669824	61	3959
2026-01-19 07:04:12.30	346.02	21.16	-44.7	-45.9	21.4	0.00e+00	0	37	0	944766976	61	4016
2026-01-19 07:04:13.31	345.82	21.07	-44.8	-46.0	21.3	0.00e+00	0	37	0	945815552	61	4068
2026-01-19 07:04:14.32	345.63	20.98	-44.6	-45.8	21.4	0.00e+00	0	37	0	947912704	61	3978
2026-01-19 07:04:15.33	345.43	20.89	-44.8	-45.9	21.3	0.00e+00	0	37	0	950009856	61	4049
2026-01-19 07:04:16.33	345.24	20.80	-44.8	-46.0	21.2	0.00e+00	0	37	0	952107008	61	4075
2026-01-19 07:04:17.34	345.05	20.71	-44.9	-46.0	21.2	0.00e+00	0	37	0	954204160	61	4095
2026-01-19 07:04:18.35	344.86	20.62	-44.8	-46.0	21.3	0.00e+00	0	37	0	955252736	61	4055
2026-01-19 07:04:19.36	344.67	20.53	-44.8	-46.0	21.2	0.00e+00	0	37	0	957349888	61	4075
2026-01-19 07:04:20.36	344.48	20.44	-44.9	-46.1	21.1	0.00e+00	0	37	0	959447040	61	4106
2026-01-19 07:04:21.37	344.29	20.35	-44.9	-46.1	21.1	0.00e+00	0	37	0	961544192	61	4124
2026-01-19 07:04:22.38	344.11	20.26	-44.9	-46.1	21.1	0.00e+00	0	37	0	962592768	61	4115
2026-01-19 07:04:23.38	343.92	20.17	-45.0	-46.2	21.0	0.00e+00	0	37	0	964689920	61	4193
2026-01-19 07:04:24.39	343.74	20.08	-45.1	-46.3	20.9	0.00e+00	0	37	0	966787072	61	4229
2026-01-19 07:04:25.40	343.56	19.99	-45.3	-46.5	20.7	0.00e+00	0	37	0	968884224	61	4331
2026-01-19 07:04:26.41	343.37	19.90	-45.3	-46.5	20.7	0.00e+00	0	37	0	970981376	61	4323
2026-01-19 07:04:27.42	343.19	19.81	-45.2	-46.5	20.7	0.00e+00	0	37	0	973078528	61	4307
2026-01-19 07:04:28.43	343.01	19.72	-45.4	-46.7	20.6	0.00e+00	0	37	0	974127104	61	4392
2026-01-19 07:04:29.43	342.84	19.63	-45.1	-46.4	20.8	0.00e+00	0	37	0	976224256	61	4257
2026-01-19 07:04:30.44	342.66	19.54	-45.2	-46.5	20.7	0.00e+00	0	37	0	978321408	61	4313
2026-01-19 07:04:31.45	342.48	19.45	-45.4	-46.6	20.6	0.00e+00	0	37	0	980418560	61	4386
2026-01-19 07:04:32.46	342.31	19.36	-45.5	-46.8	20.5	0.00e+00	0	37	0	982515712	61	4442
2026-01-19 07:04:33.47	342.13	19.27	-45.5	-46.8	20.4	0.00e+00	0	37	0	983564288	61	4489
2026-01-19 07:04:34.47	341.96	19.18	-45.8	-47.1	20.1	0.00e+00	0	37	0	985661440	62	4380
2026-01-19 07:04:35.48	341.79	19.09	-45.9	-47.2	20.0	0.00e+00	0	37	0	987758592	62	4439
2026-01-19 07:04:36.49	341.62	19.00	-46.1	-47.5	19.8	0.00e+00	0	37	0	989855744	62	4562
2026-01-19 07:04:37.50	341.45	18.91	-46.0	-47.4	19.9	0.00e+00	0	37	0	991952896	62	4512
2026-01-19 07:04:38.50	341.28	18.82	-46.0	-47.4	19.9	0.00e+00	0	37	0	993001472	62	4524
2026-01-19 07:04:39.51	341.11	18.73	-46.0	-47.4	19.9	0.00e+00	0	37	0	995098624	62	4512
2026-01-19 07:04:40.52	340.94	18.64	-46.0	-47.5	19.8	0.00e+00	0	37	0	997195776	62	4550
2026-01-19 07:04:41.53	340.77	18.55	-46.1	-47.5	19.7	0.00e+00	0	37	0	999292928	62	4578
2026-01-19 07:04:42.53	340.61	18.46	-46.0	-47.4	19.8	0.00e+00	0	37	0	1001390080	62	4539
2026-01-19 07:04:43.54	340.45	18.37	-46.1	-47.5	19.8	0.00e+00	0	37	0	1002438656	62	4564
2026-01-19 07:04:44.55	340.28	18.28	-46.1	-47.6	19.7	0.00e+00	0	37	0	1004535808	62	4599
2026-01-19 07:04:45.56	340.12	18.19	-46.2	-47.6	19.7	0.00e+00	0	37	0	1006632960	62	4644
2026-01-19 07:04:46.57	339.96	18.10	-46.2	-47.7	19.6	0.00e+00	0	37	0	1008730112	63	4406
2026-01-19 07:04:47.58	339.80	18.02	-46.1	-47.6	19.7	0.00e+00	0	37	0	1010827264	63	4344
2026-01-19 07:04:48.58	339.64	17.93	-46.1	-47.6	19.7	0.00e+00	0	37	0	1011875840	63	4358
2026-01-19 07:04:49.59	339.48	17.84	-46.3	-47.7	19.5	0.00e+00	0	37	0	1013972992	63	4429
2026-01-19 07:04:50.60	339.32	17.75	-46.3	-47.8	19.5	0.00e+00	0	37	0	1016070144	63	4468
2026-01-19 07:04:51.60	339.17	17.66	-46.3	-47.8	19.5	0.00e+00	0	37	0	1018167296	63	4459
2026-01-19 07:04:52.61	339.01	17.57	-46.2	-47.7	19.5	0.00e+00	0	37	0	1020264448	63	4418
2026-01-19 07:04:53.62	338.86	17.48	-46.3	-47.7	19.5	0.00e+00	0	37	0	1021313024	63	4434
2026-01-19 07:04:54.63	338.70	17.40	-46.3	-47.7	19.5	0.00e+00	0	37	0	1023410176	63	4428
2026-01-19 07:04:55.64	338.55	17.31	-46.2	-47.7	19.5	0.00e+00	0	37	0	1025507328	63	4422
2026-01-19 07:04:56.64	338.40	17.22	-46.3	-47.8	19.4	0.00e+00	0	37	0	1027604480	63	4475
2026-01-19 07:04:57.66	338.25	17.13	-46.4	-47.9	19.3	0.00e+00	0	37	0	1029701632	63	4517
2026-01-19 07:04:58.66	338.10	17.04	-46.5	-48.0	19.2	0.00e+00	0	37	0	1030750208	63	4561
2026-01-19 07:04:59.67	337.95	16.96	-46.4	-48.0	19.3	0.00e+00	0	37	0	1032847360	63	4546
2026-01-19 07:05:00.68	337.80	16.87	-46.4	-47.9	19.3	0.00e+00	0	37	0	1034944512	63	4520
2026-01-19 07:05:01.69	337.65	16.78	-46.5	-48.0	19.2	0.00e+00	0	37	0	1037041664	63	4570
2026-01-19 07:05:02.70	337.51	16.69	-46.5	-48.0	19.2	0.00e+00	0	37	0	1039138816	63	4556
2026-01-19 07:05:03.70	337.36	16.61	-46.5	-48.0	19.2	0.00e+00	0	37	0	1040187392	63	4574
2026-01-19 07:05:04.71	337.22	16.52	-46.4	-47.9	19.3	0.00e+00	0	37	0	1042284544	63	4539
2026-01-19 07:05:05.72	337.07	16.43	-46.3	-47.8	19.4	0.00e+00	0	37	0	1044381696	63	4474
2026-01-19 07:05:06.72	336.93	16.35	-46.5	-48.0	19.2	0.00e+00	0	37	0	1046478848	63	4569
2026-01-19 07:05:07.73	336.79	16.26	-46.5	-48.0	19.2	0.00e+00	0	37	0	1048576000	63	4589
2026-01-19 07:05:08.74	336.64	16.17	-46.7	-48.2	19.0	0.00e+00	0	37	0	1049624576	63	4692
2026-01-19 07:05:09.75	336.50	16.08	-46.6	-48.2	19.0	0.00e+00	0	37	0	1051721728	63	4674
2026-01-19 07:05:10.75	336.37	16.00	-46.7	-48.3	18.8	0.00e+00	0	37	0	1053818880	64	4466
2026-01-19 07:05:11.76	336.23	15.91	-46.7	-48.3	18.9	0.00e+00	0	37	0	1055916032	64	4450
2026-01-19 07:05:12.77	336.09	15.83	-46.7	-48.3	18.8	0.00e+00	0	37	0	1058013184	64	4492
2026-01-19 07:05:13.78	335.95	15.74	-46.8	-48.5	18.6	0.00e+00	0	37	0	1059061760	64	4552
2026-01-19 07:05:14.79	335.81	15.65	-46.7	-48.3	18.8	0.00e+00	0	37	0	1061158912	64	4447
2026-01-19 07:05:15.80	335.68	15.57	-46.7	-48.3	18.8	0.00e+00	0	37	0	1063256064	64	4461
2026-01-19 07:05:16.81	335.54	15.48	-46.7	-48.4	18.7	0.00e+00	0	37	0	1065353216	64	4509
2026-01-19 07:05:17.81	335.41	15.40	-46.9	-48.6	18.5	0.00e+00	0	37	0	1067450368	64	4619
2026-01-19 07:05:18.82	335.28	15.31	-46.8	-48.5	18.6	0.00e+00	0	37	0	1068498944	64	4562
2026-01-19 07:05:19.83	335.14	15.23	-46.9	-48.6	18.5	0.00e+00	0	37	0	1070596096	64	4603
2026-01-19 07:05:20.84	335.01	15.14	-47.0	-48.6	18.4	0.00e+00	0	37	0	1072693248	64	4651
2026-01-19 07:05:21.85	334.88	15.06	-46.8	-48.5	18.6	0.00e+00	0	37	0	1074790400	64	4567
2026-01-19 07:05:22.85	334.75	14.97	-46.8	-48.5	18.6	0.00e+00	0	37	0	1076887552	64	4553
2026-01-19 07:05:23.86	334.62	14.89	-46.9	-48.6	18.5	0.00e+00	0	37	0	1077936128	64	4614
2026-01-19 07:05:24.87	334.49	14.80	-47.0	-48.7	18.4	0.00e+00	0	37	0	1080033280	64	4659
2026-01-19 07:05:25.88	334.36	14.72	-47.0	-48.7	18.3	0.00e+00	0	37	0	1082130432	64	4700
2026-01-19 07:05:26.88	334.24	14.63	-47.0	-48.7	18.4	0.00e+00	0	37	0	1084227584	64	4672
2026-01-19 07:05:27.90	334.11	14.55	-47.2	-49.0	18.1	0.00e+00	0	37	0	1086324736	64	4843
2026-01-19 07:05:28.90	333.98	14.47	-47.1	-48.9	18.2	0.00e+00	0	37	0	1088421888	64	4761
2026-01-19 07:05:29.91	333.86	14.38	-47.1	-48.8	18.2	0.00e+00	0	37	0	1089470464	64	4727
2026-01-19 07:05:30.92	333.73	14.30	-47.2	-48.9	18.1	0.00e+00	0	37	0	1091567616	64	4805
2026-01-19 07:05:31.93	333.61	14.21	-47.2	-49.0	18.0	0.00e+00	0	37	0	1093664768	65	4587
2026-01-19 07:05:32.94	333.49	14.13	-47.1	-48.8	18.2	0.00e+00	0	37	0	1095761920	65	4483
2026-01-19 07:05:33.95	333.36	14.05	-47.2	-49.0	18.0	0.00e+00	0	37	0	1097859072	65	4561
2026-01-19 07:05:34.95	333.24	13.97	-47.2	-49.0	18.1	0.00e+00	0	37	0	1098907648	65	4562
2026-01-19 07:05:35.96	333.12	13.88	-47.3	-49.0	18.0	0.00e+00	0	37	0	1101004800	65	4592
2026-01-19 07:05:36.97	333.00	13.80	-47.3	-49.1	17.9	0.00e+00	0	37	0	1103101952	65	4625
2026-01-19 07:05:37.98	332.88	13.72	-47.2	-49.0	18.1	0.00e+00	0	37	0	1105199104	65	4562
2026-01-19 07:05:38.99	332.76	13.63	-47.3	-49.2	17.9	0.00e+00	0	37	0	1106247680	65	4655
2026-01-19 07:05:40.00	332.64	13.55	-47.3	-49.1	17.9	0.00e+00	0	37	0	1108344832	65	4614
2026-01-19 07:05:41.01	332.53	13.47	-47.3	-49.1	17.9	0.00e+00	0	37	0	1110441984	65	4604
2026-01-19 07:05:42.01	332.41	13.39	-47.3	-49.1	17.9	0.00e+00	0	37	0	1112539136	65	4606
2026-01-19 07:05:43.02	332.30	13.31	-47.2	-49.0	18.0	0.00e+00	0	37	0	1114636288	65	4592
2026-01-19 07:05:44.03	332.18	13.22	-47.3	-49.2	17.8	0.00e+00	0	37	0	1116733440	65	4667
2026-01-19 07:05:45.04	332.06	13.14	-47.3	-49.1	17.9	0.00e+00	0	37	0	1117782016	65	4636
2026-01-19 07:05:46.05	331.95	13.06	-47.3	-49.1	17.9	0.00e+00	0	37	0	1119879168	65	4612
2026-01-19 07:05:47.05	331.84	12.98	-47.1	-48.8	18.1	0.00e+00	0	37	0	1121976320	65	4493
2026-01-19 07:05:48.06	331.72	12.90	-47.3	-49.1	17.9	0.00e+00	0	37	0	1124073472	65	4641
2026-01-19 07:05:49.07	331.61	12.82	-47.3	-49.1	17.8	0.00e+00	0	37	0	1126170624	65	4642
2026-01-19 07:05:50.07	331.50	12.74	-47.4	-49.2	17.7	0.00e+00	0	37	0	1127219200	65	4696
2026-01-19 07:05:51.08	331.39	12.66	-47.5	-49.4	17.6	0.00e+00	0	37	0	1129316352	65	4797
2026-01-19 07:05:52.09	331.28	12.58	-47.6	-49.5	17.5	0.00e+00	0	37	0	1131413504	65	4842
2026-01-19 07:05:53.10	331.17	12.50	-47.5	-49.4	17.6	0.00e+00	0	37	0	1133510656	65	4763
2026-01-19 07:05:54.10	331.06	12.42	-47.6	-49.5	17.4	0.00e+00	0	37	0	1135607808	65	4855
2026-01-19 07:05:55.11	330.95	12.34	-47.6	-49.6	17.3	0.00e+00	0	37	0	1136656384	65	4908
2026-01-19 07:05:56.12	330.84	12.26	-47.6	-49.5	17.5	0.00e+00	0	37	0	1138753536	66	4562
2026-01-19 07:05:57.13	330.74	12.18	-47.9	-49.9	17.1	0.00e+00	0	37	0	1140850688	66	4793
2026-01-19 07:05:58.14	330.63	12.10	-47.7	-49.6	17.3	0.00e+00	0	37	0	1142947840	66	4640
2026-01-19 07:05:59.15	330.52	12.02	-47.9	-50.0	16.9	0.00e+00	0	37	0	1145044992	66	4851
2026-01-19 07:06:00.15	330.42	11.94	-47.6	-49.6	17.4	0.00e+00	0	37	0	1146093568	66	4628
2026-01-19 07:06:01.16	330.31	11.86	-47.7	-49.6	17.3	0.00e+00	0	37	0	1148190720	66	4650
2026-01-19 07:06:02.17	330.21	11.78	-47.7	-49.7	17.3	0.00e+00	0	37	0	1150287872	66	4660
2026-01-19 07:06:03.18	330.11	11.70	-47.8	-49.8	17.2	0.00e+00	0	37	0	1152385024	66	4721
2026-01-19 07:06:04.19	330.00	11.63	-47.6	-49.6	17.3	0.00e+00	0	37	0	1154482176	66	4616
2026-01-19 07:06:05.19	329.90	11.55	-47.8	-49.8	17.1	0.00e+00	0	37	0	1155530752	66	4736
2026-01-19 07:06:06.20	329.80	11.47	-47.8	-49.8	17.1	0.00e+00	0	37	0	1157627904	66	4722
2026-01-19 07:06:07.21	329.70	11.39	-47.7	-49.7	17.1	0.00e+00	0	37	0	1159725056	66	4700
2026-01-19 07:06:08.22	329.60	11.31	-47.6	-49.6	17.4	0.00e+00	0	37	0	1161822208	66	4604
2026-01-19 07:06:09.22	329.50	11.24	-47.7	-49.7	17.2	0.00e+00	0	37	0	1163919360	66	4674
2026-01-19 07:06:10.23	329.40	11.16	-47.8	-49.9	17.0	0.00e+00	0	37	0	1164967936	66	4779
2026-01-19 07:06:11.24	329.30	11.08	-47.9	-50.0	16.9	0.00e+00	0	37	0	1167065088	66	4845
2026-01-19 07:06:12.25	329.20	11.00	-48.0	-50.1	16.8	0.00e+00	0	37	0	1169162240	66	4917
2026-01-19 07:06:13.25	329.10	10.93	-48.1	-50.2	16.6	0.00e+00	0	37	0	1171259392	66	4964
2026-01-19 07:06:14.26	329.00	10.85	-48.2	-50.4	16.4	0.00e+00	0	37	0	1173356544	66	5073
2026-01-19 07:06:15.27	328.90	10.77	-48.2	-50.4	16.4	0.00e+00	0	37	0	1174405120	67	4813
2026-01-19 07:06:16.28	328.81	10.70	-48.1	-50.3	16.5	0.00e+00	0	37	0	1176502272	67	4751
2026-01-19 07:06:17.29	328.71	10.62	-48.2	-50.5	16.4	0.00e+00	0	37	0	1178599424	67	4819
2026-01-19 07:06:18.29	328.62	10.54	-48.3	-50.5	16.3	0.00e+00	0	37	0	1180696576	67	4866
2026-01-19 07:06:19.30	328.52	10.47	-48.4	-50.7	16.2	0.00e+00	0	37	0	1182793728	67	4964
2026-01-19 07:06:20.31	328.43	10.39	-48.2	-50.5	16.4	0.00e+00	0	37	0	1183842304	67	4818
2026-01-19 07:06:21.32	328.33	10.32	-48.3	-50.5	16.3	0.00e+00	0	37	0	1185939456	67	4855
2026-01-19 07:06:22.33	328.24	10.24	-48.2	-50.4	16.4	0.00e+00	0	37	0	1188036608	67	4814
2026-01-19 07:06:23.34	328.15	10.16	-48.1	-50.3	16.5	0.00e+00	0	37	0	1190133760	67	4720
2026-01-19 07:06:24.34	328.05	10.09	-47.9	-50.0	16.8	0.00e+00	0	37	0	1192230912	67	4571
2026-01-19 07:06:25.35	327.96	10.01	-47.9	-50.1	16.8	0.00e+00	0	37	0	1193279488	67	4613
2026-01-19 07:06:26.36	327.87	9.94	-47.9	-50.0	16.9	0.00e+00	0	37	0	1195376640	67	4552
2026-01-19 07:06:27.37	327.78	9.86	-48.0	-50.1	16.7	0.00e+00	0	37	0	1197473792	67	4649
2026-01-19 07:06:28.38	327.69	9.79	-47.8	-49.9	16.9	0.00e+00	0	37	0	1199570944	67	4534
2026-01-19 07:06:29.38	327.60	9.71	-48.0	-50.1	16.7	0.00e+00	0	37	0	1201668096	67	4635
2026-01-19 07:06:30.39	327.51	9.64	-48.0	-50.1	16.7	0.00e+00	0	37	0	1202716672	67	4632
2026-01-19 07:06:31.40	327.42	9.57	-48.0	-50.1	16.7	0.00e+00	0	37	0	1204813824	67	4626
2026-01-19 07:06:32.41	327.33	9.49	-48.1	-50.4	16.5	0.00e+00	0	37	0	1206910976	67	4765
2026-01-19 07:06:33.42	327.24	9.42	-48.0	-50.1	16.7	0.00e+00	0	37	0	1209008128	67	4640
2026-01-19 07:06:34.43	327.15	9.34	-48.0	-50.1	16.7	0.00e+00	0	37	0	1211105280	67	4634
2026-01-19 07:06:35.43	327.07	9.27	-48.0	-50.2	16.6	0.00e+00	0	37	0	1212153856	67	4658
2026-01-19 07:06:36.44	326.98	9.20	-48.0	-50.2	16.6	0.00e+00	0	37	0	1214251008	67	4674
2026-01-19 07:06:37.45	326.89	9.12	-48.0	-50.2	16.5	0.00e+00	0	37	0	1216348160	67	4692
2026-01-19 07:06:38.46	326.81	9.05	-48.1	-50.3	16.4	0.00e+00	0	37	0	1218445312	67	4744
2026-01-19 07:06:39.47	326.72	8.98	-48.2	-50.5	16.2	0.00e+00	0	37	0	1220542464	67	4858
2026-01-19 07:06:40.47	326.64	8.90	-48.2	-50.5	16.2	0.00e+00	0	37	0	1221591040	67	4856
2026-01-19 07:06:41.48	326.55	8.83	-48.2	-50.5	16.2	0.00e+00	0	37	0	1223688192	67	4848
2026-01-19 07:06:42.49	326.47	8.76	-48.3	-50.6	16.1	0.00e+00	0	37	0	1225785344	67	4926
2026-01-19 07:06:43.50	326.38	8.69	-48.2	-50.5	16.2	0.00e+00	0	37	0	1227882496	67	4843
2026-01-19 07:06:44.51	326.30	8.61	-48.3	-50.7	16.1	0.00e+00	0	37	0	1229979648	67	4934
2026-01-19 07:06:45.51	326.22	8.54	-48.5	-51.0	15.7	0.00e+00	0	37	0	1232076800	67	5120
2026-01-19 07:06:46.52	326.14	8.47	-48.4	-50.7	16.0	0.00e+00	0	37	0	1233125376	67	4973
2026-01-19 07:06:47.53	326.05	8.40	-48.4	-50.8	15.9	0.00e+00	0	37	0	1235222528	67	4994
2026-01-19 07:06:48.54	325.97	8.33	-48.5	-50.9	15.8	0.00e+00	0	37	0	1237319680	67	5066
2026-01-19 07:06:49.54	325.89	8.25	-48.3	-50.7	16.0	0.00e+00	0	37	0	1239416832	67	4957
2026-01-19 07:06:50.55	325.81	8.18	-48.5	-50.9	15.7	0.00e+00	0	37	0	1240465408	67	5100
