passes_logs/2026/01/19/R3.2S_Murmansk/R3.2S_Murmansk__20260119_073736_KANOPUS-V_5_rec.log

#Pass ID: 20260119_073736_KANOPUS-V 5
#Satellite: KANOPUS-V 5
#Configuration: KANOPUS-V_8320
#almurnet v.1.7.20251203
#Start time: 2026-01-19 07:37:37

#Version: 2.2.20231116
#Station: R3.2S_Murmansk
#Location: 33.079688 lon 68.888172 lat
#TLE: 1 43876U 18111A   26018.98023380  .00003393  00000+0  14531-3 0  9994
#TLE: 2 43876  97.3687 287.4223 0001779  87.4977 272.6464 15.23461071392076

#Time	Az	El	Level	Level2	SNR	BER	BlckErr	Temp	State	Recorded	gain1	gain2
2026-01-19 07:37:37.26	155.35	2.05	-53.1	-61.9	3.8	7.45e-01	0	36	0	0	78	9604
2026-01-19 07:37:38.27	155.36	2.12	-53.1	-61.9	3.8	7.45e-01	0	36	104	0	77	10163
2026-01-19 07:37:39.28	155.36	2.19	-53.1	-61.9	3.8	7.45e-01	0	36	104	0	77	10144
2026-01-19 07:37:40.29	155.36	2.27	-53.1	-61.9	3.8	7.45e-01	0	36	104	0	77	10170
2026-01-19 07:37:41.30	155.36	2.34	-53.1	-62.0	3.8	7.44e-01	0	36	104	0	77	10176
2026-01-19 07:37:42.31	155.36	2.41	-53.1	-61.9	3.8	7.45e-01	0	36	104	0	77	10153
2026-01-19 07:37:43.31	155.36	2.48	-53.1	-61.9	3.8	7.45e-01	0	36	104	0	77	10162
2026-01-19 07:37:44.32	155.36	2.55	-53.1	-61.9	3.8	7.45e-01	0	36	104	0	77	10140
2026-01-19 07:37:45.33	155.36	2.63	-53.1	-61.9	3.8	7.45e-01	0	36	104	0	77	10127
2026-01-19 07:37:46.33	155.36	2.70	-53.1	-61.9	3.8	7.44e-01	0	36	104	0	77	10129
2026-01-19 07:37:47.34	155.36	2.77	-53.1	-61.9	3.8	7.44e-01	0	36	104	0	77	10115
2026-01-19 07:37:48.35	155.37	2.85	-53.1	-61.9	3.8	7.45e-01	0	36	104	0	77	10097
2026-01-19 07:37:49.36	155.37	2.92	-53.1	-61.9	3.8	7.46e-01	0	36	104	0	77	10064
2026-01-19 07:37:50.36	155.37	2.99	-53.1	-61.9	3.8	7.46e-01	0	36	104	0	77	10089
2026-01-19 07:37:51.37	155.37	3.07	-53.1	-61.8	3.8	7.45e-01	0	36	104	0	77	10050
2026-01-19 07:37:52.38	155.37	3.14	-53.1	-61.9	3.8	7.44e-01	0	36	104	0	77	10068
2026-01-19 07:37:53.39	155.37	3.22	-53.1	-61.9	3.8	7.46e-01	0	36	104	0	77	10090
2026-01-19 07:37:54.40	155.37	3.29	-53.1	-61.9	3.8	7.46e-01	0	36	104	0	77	10099
2026-01-19 07:37:55.41	155.37	3.37	-53.1	-61.9	3.8	7.44e-01	0	36	104	0	77	10096
2026-01-19 07:37:56.41	155.37	3.45	-53.1	-61.9	3.8	7.46e-01	0	36	104	0	77	10104
2026-01-19 07:37:57.42	155.37	3.52	-53.1	-61.9	3.8	7.45e-01	0	36	104	0	77	10128
2026-01-19 07:37:58.43	155.37	3.60	-53.1	-61.9	3.8	7.46e-01	0	36	104	0	77	10080
2026-01-19 07:37:59.44	155.37	3.68	-53.0	-61.8	3.8	7.46e-01	0	36	104	0	77	9974
2026-01-19 07:38:00.44	155.37	3.75	-52.9	-61.4	3.8	7.45e-01	0	36	104	0	77	9545
2026-01-19 07:38:01.45	155.38	3.83	-52.8	-60.8	3.8	7.44e-01	0	37	104	0	77	8904
2026-01-19 07:38:02.46	155.38	3.91	-52.8	-60.8	3.8	7.45e-01	0	37	104	0	77	8865
2026-01-19 07:38:03.47	155.38	3.98	-52.3	-59.2	3.9	7.44e-01	0	37	104	0	76	7848
2026-01-19 07:38:04.48	155.38	4.06	-52.4	-59.5	3.8	7.43e-01	0	37	104	0	76	8149
2026-01-19 07:38:05.49	155.38	4.14	-52.3	-59.1	3.9	7.43e-01	0	36	104	0	76	7800
2026-01-19 07:38:06.50	155.38	4.22	-52.2	-58.9	3.9	7.42e-01	0	37	104	0	76	7559
2026-01-19 07:38:07.51	155.38	4.30	-51.9	-57.9	4.0	7.40e-01	0	37	104	0	75	7125
2026-01-19 07:38:08.51	155.38	4.38	-51.6	-57.1	4.6	7.13e-01	0	37	0	6291456	75	6523
2026-01-19 07:38:09.52	155.38	4.46	-51.2	-56.2	5.2	6.91e-01	0	37	0	23068672	74	6246
2026-01-19 07:38:10.53	155.38	4.54	-50.7	-55.2	5.9	6.67e-01	0	36	0	37748736	73	5889
2026-01-19 07:38:11.54	155.38	4.62	-50.4	-54.6	6.3	6.55e-01	0	37	0	52428800	72	5831
2026-01-19 07:38:12.55	155.38	4.70	-50.0	-53.8	7.1	6.33e-01	0	37	0	69206016	72	5329
2026-01-19 07:38:13.55	155.38	4.78	-49.3	-52.7	8.1	6.01e-01	0	36	0	83886080	70	5254
2026-01-19 07:38:14.56	155.38	4.86	-48.7	-52.0	8.8	6.14e-01	0	37	0	98566144	69	5118
2026-01-19 07:38:15.57	155.38	4.94	-48.0	-51.0	9.6	6.11e-01	0	37	0	115343360	68	4829
2026-01-19 07:38:16.58	155.38	5.02	-47.7	-50.6	10.1	6.08e-01	0	37	0	132120576	67	4904
2026-01-19 07:38:17.59	155.38	5.11	-48.7	-51.8	9.1	6.20e-01	0	37	0	146800640	67	5614
2026-01-19 07:38:18.60	155.38	5.19	-48.1	-51.0	9.7	6.17e-01	0	37	0	161480704	68	4831
2026-01-19 07:38:19.61	155.38	5.27	-47.8	-50.8	10.1	6.11e-01	0	37	0	178257920	66	5291
2026-01-19 07:38:20.61	155.38	5.36	-50.3	-54.3	6.6	6.64e-01	0	37	0	192937984	72	5601
2026-01-19 07:38:21.62	155.38	5.44	-46.6	-49.2	11.5	6.11e-01	0	37	0	207618048	65	4663
2026-01-19 07:38:22.63	155.38	5.52	-46.7	-49.3	11.4	5.98e-01	0	37	0	224395264	65	4756
2026-01-19 07:38:23.64	155.38	5.61	-46.2	-48.8	11.9	5.97e-01	0	37	0	239075328	64	4709
2026-01-19 07:38:24.65	155.38	5.69	-46.5	-49.1	11.6	6.08e-01	0	37	0	253755392	64	4891
2026-01-19 07:38:25.65	155.38	5.78	-46.4	-49.0	11.7	6.09e-01	0	37	0	270532608	64	4826
2026-01-19 07:38:26.66	155.39	5.86	-46.4	-49.0	11.7	6.11e-01	0	37	0	285212672	64	4829
2026-01-19 07:38:27.67	155.39	5.95	-46.5	-49.1	11.7	6.07e-01	0	37	0	301989888	64	4873
2026-01-19 07:38:28.68	155.39	6.04	-46.3	-48.8	12.0	6.09e-01	0	37	0	316669952	64	4710
2026-01-19 07:38:29.69	155.39	6.12	-46.0	-48.5	12.2	6.08e-01	0	37	0	333447168	64	4571
2026-01-19 07:38:30.69	155.39	6.21	-46.5	-49.0	11.8	6.06e-01	0	37	0	348127232	63	5137
2026-01-19 07:38:31.70	155.39	6.30	-46.2	-48.7	12.2	6.09e-01	0	37	0	362807296	63	4935
2026-01-19 07:38:32.71	155.39	6.38	-46.2	-48.7	12.1	6.05e-01	0	37	0	379584512	63	4931
2026-01-19 07:38:33.72	155.39	6.47	-46.0	-48.4	12.4	6.04e-01	0	37	0	394264576	63	4793
2026-01-19 07:38:34.73	155.39	6.56	-46.2	-48.6	12.2	6.06e-01	0	37	0	408944640	63	4911
2026-01-19 07:38:35.73	155.39	6.65	-45.9	-48.3	12.6	6.06e-01	0	37	0	425721856	63	4721
2026-01-19 07:38:36.74	155.38	6.74	-46.1	-48.5	12.4	6.06e-01	0	37	0	440401920	63	4845
2026-01-19 07:38:37.75	155.38	6.83	-45.9	-48.3	12.7	6.02e-01	0	37	0	455081984	63	4710
2026-01-19 07:38:38.76	155.38	6.92	-46.1	-48.5	12.4	6.03e-01	0	37	0	471859200	63	4842
2026-01-19 07:38:39.77	155.38	7.01	-46.0	-48.5	12.5	6.05e-01	0	37	0	488636416	63	4818
2026-01-19 07:38:40.77	155.38	7.10	-45.9	-48.3	12.7	6.04e-01	0	37	0	503316480	63	4726
2026-01-19 07:38:41.78	155.38	7.19	-45.6	-48.0	13.0	6.03e-01	0	37	0	517996544	63	4547
2026-01-19 07:38:42.79	155.38	7.29	-45.7	-48.1	12.9	6.03e-01	0	37	0	534773760	63	4620
2026-01-19 07:38:43.80	155.38	7.38	-45.8	-48.2	12.8	6.02e-01	0	37	0	549453824	63	4661
2026-01-19 07:38:44.81	155.38	7.47	-45.6	-48.0	13.0	6.04e-01	0	37	0	564133888	63	4559
2026-01-19 07:38:45.82	155.38	7.57	-45.5	-47.8	13.2	5.98e-01	0	37	0	580911104	63	4451
2026-01-19 07:38:46.82	155.38	7.66	-45.5	-47.8	13.1	6.02e-01	0	37	0	595591168	62	4745
2026-01-19 07:38:47.84	155.38	7.75	-45.5	-47.8	13.2	5.98e-01	0	37	0	610271232	62	4744
2026-01-19 07:38:48.84	155.38	7.85	-45.5	-47.8	13.2	6.00e-01	0	37	0	627048448	62	4719
2026-01-19 07:38:49.85	155.38	7.94	-45.4	-47.7	13.3	6.01e-01	0	37	0	641728512	62	4675
2026-01-19 07:38:50.86	155.38	8.04	-45.3	-47.6	13.4	6.02e-01	0	37	0	656408576	62	4642
2026-01-19 07:38:51.87	155.38	8.14	-45.3	-47.6	13.5	6.01e-01	0	37	0	673185792	62	4603
2026-01-19 07:38:52.87	155.38	8.23	-45.3	-47.5	13.5	6.03e-01	0	37	0	689963008	62	4590
2026-01-19 07:38:53.88	155.38	8.33	-45.3	-47.6	13.5	6.01e-01	0	37	0	704643072	62	4609
2026-01-19 07:38:54.89	155.38	8.43	-45.2	-47.4	13.6	6.01e-01	0	37	0	719323136	62	4540
2026-01-19 07:38:55.90	155.38	8.53	-45.3	-47.5	13.5	6.01e-01	0	37	0	736100352	62	4598
2026-01-19 07:38:56.91	155.38	8.63	-45.4	-47.7	13.4	6.03e-01	0	37	0	750780416	62	4663
2026-01-19 07:38:57.92	155.37	8.73	-45.4	-47.7	13.4	6.01e-01	0	37	0	765460480	62	4674
2026-01-19 07:38:58.93	155.37	8.83	-44.9	-47.2	13.9	6.02e-01	0	37	0	782237696	61	4653
2026-01-19 07:38:59.93	155.37	8.92	-45.1	-47.3	13.7	5.99e-01	0	37	0	796917760	61	4755
2026-01-19 07:39:00.94	155.37	9.03	-45.0	-47.2	13.9	6.02e-01	0	37	0	811597824	61	4677
2026-01-19 07:39:01.95	155.37	9.13	-45.0	-47.2	13.8	6.00e-01	0	37	0	828375040	61	4682
2026-01-19 07:39:02.95	155.37	9.23	-44.9	-47.1	14.0	6.01e-01	0	37	0	843055104	61	4612
2026-01-19 07:39:03.96	155.37	9.33	-44.8	-47.1	14.0	5.95e-01	0	37	0	857735168	61	4601
2026-01-19 07:39:04.97	155.37	9.44	-44.9	-47.2	13.9	6.00e-01	0	37	0	874512384	61	4667
2026-01-19 07:39:05.98	155.37	9.54	-44.9	-47.1	13.9	6.02e-01	0	37	0	891289600	61	4631
2026-01-19 07:39:06.99	155.37	9.64	-44.6	-46.8	14.3	6.02e-01	0	37	0	905969664	61	4452
2026-01-19 07:39:07.99	155.36	9.75	-44.6	-46.9	14.2	5.99e-01	0	37	0	920649728	60	4768
2026-01-19 07:39:09.00	155.36	9.85	-44.6	-46.9	14.2	6.00e-01	0	37	0	937426944	60	4776
2026-01-19 07:39:10.01	155.36	9.96	-44.5	-46.7	14.3	6.02e-01	0	37	0	952107008	60	4687
2026-01-19 07:39:11.02	155.36	10.07	-44.4	-46.6	14.4	6.02e-01	0	37	0	966787072	60	4651
2026-01-19 07:39:12.03	155.36	10.18	-44.5	-46.7	14.3	6.01e-01	0	37	0	983564288	60	4671
2026-01-19 07:39:13.03	155.36	10.28	-44.4	-46.6	14.5	6.02e-01	0	37	0	998244352	60	4613
2026-01-19 07:39:14.04	155.36	10.39	-44.4	-46.6	14.4	6.01e-01	0	37	0	1012924416	60	4635
2026-01-19 07:39:15.05	155.35	10.50	-44.4	-46.6	14.5	6.00e-01	0	37	0	1029701632	60	4610
2026-01-19 07:39:16.06	155.35	10.61	-44.2	-46.4	14.7	6.02e-01	0	37	0	1044381696	60	4505
2026-01-19 07:39:17.07	155.35	10.72	-44.3	-46.6	14.5	6.06e-01	0	37	0	1061158912	60	4601
2026-01-19 07:39:18.07	155.35	10.83	-44.4	-46.7	14.4	6.02e-01	0	37	0	1075838976	60	4674
2026-01-19 07:39:19.08	155.35	10.95	-44.1	-46.3	14.7	6.00e-01	0	37	0	1092616192	60	4482
2026-01-19 07:39:20.09	155.35	11.06	-44.2	-46.4	14.6	5.99e-01	0	37	0	1107296256	60	4543
2026-01-19 07:39:21.10	155.34	11.17	-44.2	-46.4	14.7	5.99e-01	0	37	0	1121976320	60	4510
2026-01-19 07:39:22.11	155.34	11.29	-44.2	-46.4	14.7	6.00e-01	0	37	0	1138753536	60	4537
2026-01-19 07:39:23.12	155.34	11.40	-44.0	-46.2	14.8	6.00e-01	0	37	0	1153433600	59	4683
2026-01-19 07:39:24.13	155.34	11.52	-44.2	-46.4	14.6	6.02e-01	0	37	0	1168113664	59	4795
2026-01-19 07:39:25.13	155.34	11.63	-44.1	-46.3	14.7	6.02e-01	0	38	0	1184890880	59	4732
2026-01-19 07:39:26.14	155.33	11.75	-44.0	-46.2	14.8	6.00e-01	0	37	0	1199570944	59	4670
2026-01-19 07:39:27.15	155.33	11.87	-44.1	-46.3	14.8	6.00e-01	0	37	0	1214251008	59	4712
2026-01-19 07:39:28.16	155.33	11.99	-44.0	-46.2	14.9	6.02e-01	0	37	0	1228931072	59	4675
2026-01-19 07:39:29.17	155.33	12.11	-44.0	-46.1	14.9	5.99e-01	0	37	0	1247805440	59	4648
2026-01-19 07:39:30.17	155.33	12.23	-43.9	-46.1	15.0	6.02e-01	0	37	0	1262485504	59	4618
2026-01-19 07:39:31.18	155.32	12.35	-43.9	-46.1	15.0	6.01e-01	0	37	0	1277165568	59	4606
2026-01-19 07:39:32.19	155.32	12.47	-44.0	-46.1	14.9	6.03e-01	0	37	0	1293942784	59	4651
2026-01-19 07:39:33.20	155.32	12.59	-44.0	-46.1	14.9	5.99e-01	0	37	0	1308622848	59	4637
2026-01-19 07:39:34.21	155.32	12.71	-44.0	-46.1	14.9	6.02e-01	0	37	0	1323302912	59	4627
2026-01-19 07:39:35.22	155.31	12.84	-44.1	-46.2	14.8	5.97e-01	0	37	0	1337982976	59	4700
2026-01-19 07:39:36.23	155.31	12.96	-43.9	-46.0	15.1	5.97e-01	0	37	0	1354760192	59	4581
2026-01-19 07:39:37.23	155.31	13.09	-44.0	-46.1	15.0	5.99e-01	0	37	0	1369440256	59	4650
2026-01-19 07:39:38.24	155.31	13.22	-43.9	-46.1	15.0	5.99e-01	0	37	0	1384120320	59	4602
2026-01-19 07:39:39.25	155.30	13.34	-43.9	-46.0	15.1	6.00e-01	0	37	0	1400897536	59	4577
2026-01-19 07:39:40.26	155.30	13.47	-43.8	-45.9	15.2	5.98e-01	0	37	0	1415577600	59	4519
2026-01-19 07:39:41.26	155.30	13.60	-43.7	-45.8	15.3	6.00e-01	0	37	0	1432354816	59	4452
2026-01-19 07:39:42.27	155.29	13.73	-43.7	-45.8	15.2	5.99e-01	0	37	0	1447034880	59	4476
2026-01-19 07:39:43.28	155.29	13.86	-43.7	-45.7	15.3	5.99e-01	0	37	0	1463812096	59	4439
2026-01-19 07:39:44.29	155.29	14.00	-43.5	-45.6	15.5	5.99e-01	0	38	0	1478492160	59	4348
2026-01-19 07:39:45.30	155.28	14.13	-43.3	-45.3	15.7	6.00e-01	0	37	0	1493172224	58	4473
2026-01-19 07:39:46.31	155.28	14.26	-43.2	-45.2	15.8	5.99e-01	0	37	0	1509949440	58	4429
2026-01-19 07:39:47.32	155.28	14.40	-43.3	-45.3	15.7	6.03e-01	0	37	0	1524629504	58	4481
2026-01-19 07:39:48.33	155.27	14.53	-43.1	-45.2	15.8	5.98e-01	0	38	0	1539309568	58	4414
2026-01-19 07:39:49.33	155.27	14.67	-43.3	-45.3	15.7	5.97e-01	0	37	0	1556086784	58	4482
2026-01-19 07:39:50.34	155.27	14.81	-43.1	-45.1	15.9	5.99e-01	0	37	0	1570766848	58	4347
2026-01-19 07:39:51.35	155.26	14.95	-43.0	-45.0	15.9	5.97e-01	0	38	0	1585446912	58	4326
2026-01-19 07:39:52.36	155.26	15.09	-43.0	-45.0	16.0	5.98e-01	0	37	0	1602224128	57	4581
2026-01-19 07:39:53.37	155.25	15.23	-42.8	-44.8	16.1	5.99e-01	0	37	0	1619001344	57	4470
2026-01-19 07:39:54.37	155.25	15.37	-42.9	-44.9	16.1	6.00e-01	0	38	0	1633681408	57	4523
2026-01-19 07:39:55.38	155.25	15.52	-42.8	-44.8	16.1	5.98e-01	0	37	0	1648361472	57	4483
2026-01-19 07:39:56.39	155.24	15.66	-42.8	-44.8	16.1	5.99e-01	0	37	0	1665138688	57	4476
2026-01-19 07:39:57.40	155.24	15.81	-42.6	-44.6	16.3	5.97e-01	0	37	0	1679818752	57	4390
2026-01-19 07:39:58.41	155.23	15.95	-42.5	-44.5	16.4	5.99e-01	0	37	0	1694498816	57	4328
2026-01-19 07:39:59.41	155.23	16.10	-42.6	-44.5	16.4	5.98e-01	0	37	0	1711276032	57	4338
2026-01-19 07:40:00.42	155.22	16.25	-42.6	-44.6	16.3	5.99e-01	0	38	0	1725956096	57	4346
2026-01-19 07:40:01.43	155.22	16.40	-42.4	-44.3	16.5	5.99e-01	0	38	0	1740636160	56	4470
2026-01-19 07:40:02.44	155.22	16.55	-42.4	-44.3	16.6	6.00e-01	0	37	0	1757413376	56	4466
2026-01-19 07:40:03.45	155.21	16.70	-42.4	-44.3	16.6	5.98e-01	0	38	0	1772093440	56	4455
2026-01-19 07:40:04.45	155.21	16.86	-42.2	-44.1	16.6	5.99e-01	0	38	0	1786773504	56	4380
2026-01-19 07:40:05.46	155.20	17.01	-42.2	-44.1	16.8	5.97e-01	0	37	0	1803550720	56	4351
2026-01-19 07:40:06.47	155.20	17.17	-42.2	-44.1	16.7	5.99e-01	0	38	0	1820327936	56	4363
2026-01-19 07:40:07.48	155.19	17.33	-42.4	-44.2	16.7	5.98e-01	0	38	0	1835008000	56	4435
2026-01-19 07:40:08.49	155.18	17.49	-42.2	-44.1	16.8	5.97e-01	0	38	0	1849688064	56	4345
2026-01-19 07:40:09.49	155.18	17.65	-42.0	-43.8	16.9	5.98e-01	0	38	0	1866465280	56	4238
2026-01-19 07:40:10.50	155.17	17.81	-42.1	-43.9	17.0	5.98e-01	0	37	0	1881145344	55	4545
2026-01-19 07:40:11.51	155.17	17.97	-42.1	-43.9	17.0	5.98e-01	0	38	0	1895825408	55	4535
2026-01-19 07:40:12.52	155.16	18.14	-42.1	-44.0	17.0	5.98e-01	0	38	0	1912602624	55	4556
2026-01-19 07:40:13.53	155.16	18.30	-42.0	-43.9	17.1	5.98e-01	0	38	0	1927282688	55	4494
2026-01-19 07:40:14.53	155.15	18.47	-42.1	-43.9	17.0	5.98e-01	0	37	0	1941962752	55	4533
2026-01-19 07:40:15.54	155.14	18.64	-42.0	-43.8	17.1	5.99e-01	0	38	0	1958739968	55	4481
2026-01-19 07:40:16.55	155.14	18.81	-42.0	-43.8	17.2	5.97e-01	0	38	0	1973420032	55	4448
2026-01-19 07:40:17.56	155.13	18.98	-42.1	-43.8	17.1	6.03e-01	0	38	0	1988100096	55	4493
2026-01-19 07:40:18.57	155.12	19.15	-42.0	-43.7	17.2	5.97e-01	0	38	0	2004877312	55	4441
2026-01-19 07:40:19.57	155.12	19.33	-41.9	-43.8	17.2	5.98e-01	0	38	0	2021654528	55	4446
2026-01-19 07:40:20.58	155.11	19.51	-41.9	-43.8	17.2	5.98e-01	0	38	0	2036334592	55	4452
2026-01-19 07:40:21.59	155.10	19.68	-41.9	-43.7	17.2	5.99e-01	0	37	0	2051014656	55	4423
2026-01-19 07:40:22.60	155.10	19.86	-41.9	-43.7	17.2	5.98e-01	0	38	0	2067791872	55	4427
2026-01-19 07:40:23.61	155.09	20.05	-41.8	-43.7	17.2	5.99e-01	0	38	0	2082471936	55	4421
2026-01-19 07:40:24.62	155.08	20.23	-41.8	-43.7	17.3	6.00e-01	0	38	0	2097152000	55	4422
2026-01-19 07:40:25.63	155.07	20.41	-41.8	-43.8	17.2	5.98e-01	0	37	0	2113929216	55	4446
2026-01-19 07:40:26.63	155.07	20.60	-41.7	-43.6	17.3	5.99e-01	0	38	0	2128609280	55	4369
2026-01-19 07:40:27.64	155.06	20.79	-41.7	-43.6	17.3	5.97e-01	0	38	0	2143289344	55	4384
2026-01-19 07:40:28.65	155.05	20.98	-41.7	-43.6	17.4	5.99e-01	0	38	0	2160066560	55	4366
2026-01-19 07:40:29.66	155.04	21.17	-41.6	-43.5	17.4	5.99e-01	0	38	0	2174746624	55	4310
2026-01-19 07:40:30.67	155.03	21.37	-41.6	-43.5	17.4	5.98e-01	0	38	0	2191523840	55	4328
2026-01-19 07:40:31.68	155.03	21.56	-41.5	-43.4	17.4	6.00e-01	0	38	0	2206203904	55	4282
2026-01-19 07:40:32.68	155.02	21.76	-41.4	-43.3	17.6	6.03e-01	0	38	0	2222981120	54	4477
2026-01-19 07:40:33.69	155.01	21.96	-41.4	-43.3	17.5	5.99e-01	0	38	0	2237661184	54	4462
2026-01-19 07:40:34.70	155.00	22.16	-41.3	-43.2	17.6	6.00e-01	0	38	0	2252341248	54	4422
2026-01-19 07:40:35.71	154.99	22.36	-41.2	-43.1	17.7	6.01e-01	0	38	0	2269118464	54	4362
2026-01-19 07:40:36.72	154.98	22.57	-41.3	-43.1	17.7	5.98e-01	0	38	0	2283798528	54	4379
2026-01-19 07:40:37.72	154.97	22.78	-41.3	-43.1	17.7	6.00e-01	0	38	0	2298478592	54	4372
2026-01-19 07:40:38.73	154.96	22.99	-41.3	-43.2	17.7	6.00e-01	0	38	0	2315255808	54	4393
2026-01-19 07:40:39.74	154.95	23.20	-41.3	-43.1	17.7	6.00e-01	0	38	0	2329935872	54	4379
2026-01-19 07:40:40.75	154.94	23.41	-41.4	-43.2	17.6	5.99e-01	0	38	0	2344615936	54	4417
2026-01-19 07:40:41.76	154.93	23.63	-41.4	-43.2	17.6	5.99e-01	0	38	0	2361393152	54	4429
2026-01-19 07:40:42.77	154.92	23.85	-41.4	-43.3	17.6	5.99e-01	0	38	0	2378170368	54	4455
2026-01-19 07:40:43.78	154.91	24.07	-41.6	-43.4	17.5	5.99e-01	0	38	0	2392850432	54	4525
2026-01-19 07:40:44.79	154.90	24.29	-41.6	-43.5	17.4	6.00e-01	0	38	0	2407530496	54	4557
2026-01-19 07:40:45.79	154.88	24.52	-41.6	-43.5	17.4	6.00e-01	0	38	0	2424307712	54	4550
2026-01-19 07:40:46.80	154.87	24.75	-41.7	-43.6	17.4	5.99e-01	0	38	0	2438987776	54	4620
2026-01-19 07:40:47.80	154.86	24.97	-41.8	-43.7	17.3	6.03e-01	0	38	0	2453667840	54	4665
2026-01-19 07:40:48.81	154.85	25.21	-41.7	-43.6	17.4	5.98e-01	0	38	0	2470445056	54	4602
2026-01-19 07:40:49.82	154.84	25.44	-41.9	-43.7	17.3	6.01e-01	0	38	0	2485125120	54	4669
2026-01-19 07:40:50.83	154.82	25.68	-41.7	-43.5	17.4	5.99e-01	0	38	0	2499805184	54	4592
2026-01-19 07:40:51.84	154.81	25.92	-41.7	-43.5	17.5	6.00e-01	0	38	0	2516582400	54	4560
2026-01-19 07:40:52.84	154.80	26.16	-41.5	-43.3	17.6	5.99e-01	0	38	0	2531262464	54	4459
2026-01-19 07:40:53.85	154.78	26.41	-41.6	-43.4	17.5	6.01e-01	0	38	0	2545942528	54	4507
2026-01-19 07:40:54.86	154.77	26.66	-41.4	-43.2	17.7	6.00e-01	0	37	0	2562719744	54	4418
2026-01-19 07:40:55.87	154.76	26.91	-41.3	-43.1	17.8	6.01e-01	0	38	0	2579496960	54	4350
2026-01-19 07:40:56.88	154.74	27.17	-41.2	-43.0	17.8	5.98e-01	0	38	0	2594177024	54	4321
2026-01-19 07:40:57.89	154.73	27.42	-41.3	-43.1	17.7	6.00e-01	0	38	0	2608857088	54	4377
2026-01-19 07:40:58.89	154.71	27.68	-41.4	-43.2	17.7	6.00e-01	0	38	0	2625634304	54	4397
2026-01-19 07:40:59.90	154.70	27.95	-41.5	-43.3	17.6	5.99e-01	0	38	0	2640314368	54	4465
2026-01-19 07:41:00.91	154.68	28.21	-41.5	-43.3	17.6	6.00e-01	0	38	0	2654994432	54	4454
2026-01-19 07:41:01.92	154.66	28.48	-41.5	-43.3	17.7	5.99e-01	0	38	0	2671771648	54	4461
2026-01-19 07:41:02.93	154.65	28.76	-41.4	-43.2	17.7	6.03e-01	0	38	0	2686451712	54	4397
2026-01-19 07:41:03.94	154.63	29.03	-41.4	-43.2	17.7	5.99e-01	0	38	0	2701131776	54	4435
2026-01-19 07:41:04.94	154.61	29.31	-41.3	-43.2	17.7	6.04e-01	0	38	0	2715811840	54	4396
2026-01-19 07:41:05.95	154.59	29.59	-41.4	-43.3	17.6	5.99e-01	0	38	0	2732589056	54	4472
2026-01-19 07:41:06.96	154.58	29.88	-41.4	-43.4	17.6	6.00e-01	0	38	0	2747269120	54	4504
2026-01-19 07:41:07.96	154.56	30.16	-41.5	-43.5	17.5	6.01e-01	0	38	0	2764046336	54	4560
2026-01-19 07:41:08.97	154.54	30.46	-41.6	-43.6	17.4	5.99e-01	0	38	0	2780823552	54	4619
2026-01-19 07:41:09.98	154.52	30.75	-41.6	-43.6	17.3	6.00e-01	0	38	0	2795503616	54	4643
2026-01-19 07:41:10.99	154.50	31.05	-41.8	-43.9	17.3	5.99e-01	0	38	0	2810183680	54	4762
2026-01-19 07:41:11.99	154.48	31.36	-41.7	-43.8	17.3	6.00e-01	0	38	0	2824863744	54	4736
2026-01-19 07:41:13.00	154.46	31.66	-41.7	-43.9	17.3	5.98e-01	0	38	0	2841640960	54	4760
2026-01-19 07:41:14.01	154.44	31.97	-41.8	-44.0	17.2	5.97e-01	0	38	0	2856321024	54	4815
2026-01-19 07:41:15.02	154.41	32.29	-41.7	-43.9	17.2	6.00e-01	0	38	0	2871001088	54	4801
2026-01-19 07:41:16.03	154.39	32.61	-41.8	-44.0	17.1	5.99e-01	0	38	0	2887778304	54	4838
2026-01-19 07:41:17.04	154.37	32.93	-41.7	-43.8	17.3	5.99e-01	0	38	0	2902458368	54	4759
2026-01-19 07:41:18.04	154.34	33.26	-41.5	-43.7	17.4	6.03e-01	0	38	0	2917138432	54	4662
2026-01-19 07:41:19.05	154.32	33.59	-41.7	-43.8	17.3	6.01e-01	0	38	0	2933915648	54	4730
2026-01-19 07:41:20.06	154.29	33.93	-41.6	-43.7	17.4	5.99e-01	0	38	0	2948595712	54	4678
2026-01-19 07:41:21.07	154.27	34.27	-41.3	-43.5	17.5	6.00e-01	0	38	0	2965372928	54	4550
2026-01-19 07:41:22.08	154.24	34.61	-41.0	-43.3	17.7	5.95e-01	0	38	0	2980052992	54	4454
2026-01-19 07:41:23.09	154.22	34.96	-41.0	-43.2	17.7	5.98e-01	0	38	0	2996830208	53	4702
2026-01-19 07:41:24.09	154.19	35.31	-40.8	-43.1	17.8	6.00e-01	0	38	0	3011510272	53	4618
2026-01-19 07:41:25.10	154.16	35.67	-40.7	-42.9	17.9	6.00e-01	0	38	0	3026190336	53	4531
2026-01-19 07:41:26.11	154.13	36.03	-40.6	-42.8	18.1	5.97e-01	0	38	0	3042967552	53	4458
2026-01-19 07:41:27.12	154.10	36.40	-40.4	-42.5	18.2	5.94e-01	0	38	0	3057647616	52	4570
2026-01-19 07:41:28.13	154.07	36.77	-40.3	-42.5	18.2	6.02e-01	0	38	0	3072327680	52	4578
2026-01-19 07:41:29.13	154.04	37.15	-40.1	-42.3	18.4	5.99e-01	0	38	0	3089104896	52	4476
2026-01-19 07:41:30.14	154.01	37.53	-40.1	-42.4	18.3	6.00e-01	0	38	0	3103784960	52	4522
2026-01-19 07:41:31.15	153.97	37.92	-40.1	-42.4	18.3	5.96e-01	0	38	0	3118465024	52	4529
2026-01-19 07:41:32.16	153.94	38.31	-40.0	-42.4	18.3	5.82e-01	0	38	0	3135242240	52	4531
2026-01-19 07:41:33.17	153.90	38.71	-40.0	-42.4	18.3	5.91e-01	0	38	0	3152019456	52	4525
2026-01-19 07:41:34.17	153.87	39.11	-40.0	-42.5	18.2	5.96e-01	0	38	0	3166699520	52	4551
2026-01-19 07:41:35.18	153.83	39.51	-39.7	-42.2	18.5	5.88e-01	0	38	0	3181379584	51	4674
2026-01-19 07:41:36.19	153.79	39.93	-39.6	-42.1	18.6	5.89e-01	0	38	0	3198156800	51	4621
2026-01-19 07:41:37.20	153.75	40.35	-39.5	-42.0	18.6	5.89e-01	0	38	0	3212836864	51	4562
2026-01-19 07:41:38.21	153.71	40.78	-39.4	-41.8	18.7	5.88e-01	0	38	0	3227516928	50	4758
2026-01-19 07:41:39.21	153.67	41.20	-39.2	-41.6	18.9	5.89e-01	0	38	0	3244294144	50	4625
2026-01-19 07:41:40.22	153.63	41.64	-39.2	-41.6	18.9	5.89e-01	0	38	0	3258974208	50	4616
2026-01-19 07:41:41.23	153.58	42.08	-39.2	-41.5	19.0	5.89e-01	0	38	0	3273654272	50	4564
2026-01-19 07:41:42.24	153.53	42.53	-38.7	-41.0	19.3	5.88e-01	0	38	0	3290431488	49	4554
2026-01-19 07:41:43.25	153.49	42.99	-38.5	-40.8	19.4	5.89e-01	0	38	0	3305111552	49	4464
2026-01-19 07:41:44.25	153.44	43.45	-38.6	-40.9	19.4	5.89e-01	0	38	0	3319791616	49	4527
2026-01-19 07:41:45.26	153.39	43.91	-38.5	-40.9	19.3	5.89e-01	0	38	0	3336568832	49	4512
2026-01-19 07:41:46.27	153.33	44.39	-38.6	-41.0	19.3	5.89e-01	0	38	0	3353346048	49	4584
2026-01-19 07:41:47.28	153.28	44.87	-38.6	-41.0	19.2	5.88e-01	0	38	0	3368026112	49	4564
2026-01-19 07:41:48.29	153.22	45.36	-38.5	-40.9	19.3	5.89e-01	0	38	0	3382706176	49	4539
2026-01-19 07:41:49.29	153.17	45.85	-38.4	-40.9	19.4	5.89e-01	0	38	0	3399483392	48	4762
2026-01-19 07:41:50.30	153.11	46.35	-38.6	-41.0	19.2	5.89e-01	0	38	0	3414163456	48	4847
2026-01-19 07:41:51.31	153.04	46.86	-38.4	-40.8	19.4	5.89e-01	0	38	0	3428843520	48	4732
2026-01-19 07:41:52.32	152.98	47.37	-38.4	-40.7	19.4	5.89e-01	0	38	0	3445620736	48	4688
2026-01-19 07:41:53.33	152.91	47.89	-38.5	-40.8	19.4	5.89e-01	0	38	0	3460300800	48	4731
2026-01-19 07:41:54.33	152.84	48.42	-38.5	-40.8	19.4	5.89e-01	0	38	0	3474980864	48	4709
2026-01-19 07:41:55.34	152.77	48.95	-38.6	-40.9	19.3	5.89e-01	0	38	0	3491758080	48	4787
2026-01-19 07:41:56.35	152.70	49.50	-38.6	-40.8	19.4	5.90e-01	0	38	0	3506438144	48	4726
2026-01-19 07:41:57.36	152.62	50.05	-38.8	-41.0	19.3	5.88e-01	0	38	0	3521118208	48	4836
2026-01-19 07:41:58.36	152.54	50.60	-38.9	-41.1	19.2	5.88e-01	0	38	0	3537895424	48	4883
2026-01-19 07:41:59.37	152.45	51.17	-38.9	-41.1	19.2	5.90e-01	0	38	0	3554672640	48	4913
2026-01-19 07:42:00.38	152.37	51.74	-38.8	-41.1	19.2	5.89e-01	0	38	0	3569352704	48	4899
2026-01-19 07:42:01.39	152.28	52.32	-38.9	-41.2	19.2	5.88e-01	0	38	0	3584032768	48	4964
2026-01-19 07:42:02.40	152.18	52.91	-39.3	-41.7	18.9	5.89e-01	0	38	0	3600809984	49	4960
2026-01-19 07:42:03.41	152.08	53.50	-39.6	-41.9	18.7	5.89e-01	0	38	0	3615490048	49	5082
2026-01-19 07:42:04.41	151.98	54.10	-39.6	-41.9	18.7	5.89e-01	0	38	0	3630170112	49	5061
2026-01-19 07:42:05.42	151.87	54.71	-39.5	-41.9	18.7	5.88e-01	0	38	0	3646947328	49	5056
2026-01-19 07:42:06.43	151.76	55.33	-39.7	-42.0	18.7	5.89e-01	0	38	0	3661627392	49	5118
2026-01-19 07:42:07.43	151.64	55.95	-40.2	-42.6	18.2	5.89e-01	0	38	0	3676307456	50	5216
2026-01-19 07:42:08.44	151.51	56.59	-40.5	-42.8	18.2	5.89e-01	0	38	0	3693084672	51	5017
2026-01-19 07:42:09.45	151.38	57.23	-40.2	-42.5	18.4	5.88e-01	0	38	0	3707764736	51	4847
2026-01-19 07:42:10.46	151.24	57.88	-40.0	-42.2	18.5	5.89e-01	0	38	0	3722444800	51	4703
2026-01-19 07:42:11.47	151.10	58.54	-40.0	-42.2	18.5	5.89e-01	0	38	0	3739222016	51	4657
2026-01-19 07:42:12.47	150.95	59.20	-40.2	-42.6	18.3	5.88e-01	0	38	0	3755999232	51	4883
2026-01-19 07:42:13.48	150.79	59.87	-40.1	-42.4	18.5	5.88e-01	0	38	0	3770679296	51	4812
2026-01-19 07:42:14.49	150.62	60.56	-40.1	-42.4	18.5	5.88e-01	0	38	0	3785359360	51	4788
2026-01-19 07:42:15.50	150.44	61.25	-40.1	-42.3	18.5	5.89e-01	0	38	0	3802136576	51	4746
2026-01-19 07:42:16.51	150.25	61.94	-39.6	-41.9	18.8	5.88e-01	0	38	0	3816816640	51	4501
2026-01-19 07:42:17.51	150.05	62.64	-39.4	-41.7	19.0	5.89e-01	0	38	0	3831496704	50	4670
2026-01-19 07:42:18.52	149.83	63.35	-39.6	-41.8	18.9	5.89e-01	0	38	0	3848273920	50	4729
2026-01-19 07:42:19.53	149.61	64.07	-39.2	-41.3	19.2	5.89e-01	0	38	0	3862953984	50	4473
2026-01-19 07:42:20.54	149.36	64.80	-39.1	-41.1	19.2	5.89e-01	0	38	0	3877634048	50	4387
2026-01-19 07:42:21.55	149.10	65.53	-38.9	-41.0	19.3	5.88e-01	0	38	0	3894411264	49	4573
2026-01-19 07:42:22.55	148.83	66.27	-39.0	-41.2	19.2	5.88e-01	0	38	0	3909091328	49	4656
2026-01-19 07:42:23.56	148.53	67.02	-39.1	-41.3	19.0	5.90e-01	0	38	0	3923771392	49	4738
2026-01-19 07:42:24.57	148.21	67.77	-39.0	-41.2	19.1	5.89e-01	0	38	0	3940548608	49	4694
2026-01-19 07:42:25.58	147.87	68.53	-39.0	-41.3	19.0	5.89e-01	0	38	0	3957325824	49	4730
2026-01-19 07:42:26.58	147.50	69.29	-39.3	-41.9	18.6	5.89e-01	0	38	0	3972005888	49	5082
2026-01-19 07:42:27.59	147.09	70.06	-39.2	-41.9	18.7	5.90e-01	0	38	0	3986685952	49	5100
2026-01-19 07:42:28.60	146.65	70.84	-39.0	-41.5	19.0	5.88e-01	0	38	0	4003463168	49	4851
2026-01-19 07:42:29.61	146.17	71.63	-39.3	-41.9	18.7	5.88e-01	0	38	0	4018143232	49	5096
2026-01-19 07:42:30.61	145.65	72.41	-38.9	-41.8	18.8	5.89e-01	0	38	0	4032823296	49	5000
2026-01-19 07:42:31.62	145.07	73.20	-38.4	-41.1	19.2	5.89e-01	0	38	0	4047503360	48	4887
2026-01-19 07:42:32.63	144.42	74.00	-38.4	-41.3	19.2	5.89e-01	0	38	0	4064280576	48	5011
2026-01-19 07:42:33.63	143.72	74.79	-38.0	-40.9	19.3	5.89e-01	0	38	0	4078960640	48	4780
2026-01-19 07:42:34.64	142.92	75.60	-36.9	-39.7	19.1	5.89e-01	0	38	0	4093640704	45	4939
2026-01-19 07:42:35.65	142.03	76.40	-37.0	-39.8	19.0	5.89e-01	0	38	0	4110417920	45	5022
2026-01-19 07:42:36.66	141.02	77.21	-37.0	-39.6	19.0	5.88e-01	0	38	0	4125097984	45	4874
2026-01-19 07:42:37.66	139.88	78.01	-36.9	-39.4	19.2	5.89e-01	0	38	0	4141875200	45	4774
2026-01-19 07:42:38.67	138.56	78.82	-36.9	-39.6	19.1	5.88e-01	0	38	0	4156555264	45	4872
2026-01-19 07:42:39.68	137.02	79.62	-36.1	-38.7	19.6	5.88e-01	0	38	0	4173332480	44	4653
2026-01-19 07:42:40.69	135.23	80.42	-36.0	-38.6	19.7	5.89e-01	0	38	0	4188012544	44	4620
2026-01-19 07:42:41.70	133.10	81.21	-35.8	-38.5	19.7	5.89e-01	0	38	0	4202692608	43	4821
2026-01-19 07:42:42.71	130.55	81.99	-35.8	-38.6	19.7	5.89e-01	0	38	0	4219469824	43	4888
2026-01-19 07:42:43.71	127.49	82.74	-35.6	-38.5	19.7	5.89e-01	0	38	0	4234149888	43	4862
2026-01-19 07:42:44.72	123.67	83.48	-35.4	-38.1	19.9	5.89e-01	0	38	0	4248829952	42	4878
2026-01-19 07:42:45.73	118.90	84.19	-35.1	-37.7	20.1	5.88e-01	0	38	0	4265607168	42	4700
2026-01-19 07:42:46.74	112.85	84.84	-35.2	-38.1	19.9	5.89e-01	0	38	0	4280287232	42	4894
2026-01-19 07:42:47.74	105.23	85.42	-35.1	-37.9	19.9	5.88e-01	0	38	0	4294967296	42	4806
2026-01-19 07:42:48.75	95.53	85.90	-34.8	-37.7	20.0	5.88e-01	0	38	0	4311744512	41	4968
2026-01-19 07:42:49.76	83.69	86.23	-35.0	-37.9	19.9	5.88e-01	0	38	0	4326424576	41	5088
2026-01-19 07:42:50.77	70.24	86.38	-35.0	-37.9	20.1	5.89e-01	0	38	0	4343201792	41	5091
2026-01-19 07:42:51.77	56.58	86.32	-35.1	-38.0	20.0	5.88e-01	0	38	0	4357881856	41	5120
2026-01-19 07:42:52.79	43.81	86.06	-35.5	-38.4	19.8	5.89e-01	0	38	0	4374659072	41	5379
2026-01-19 07:42:53.79	33.27	85.65	-35.3	-38.3	19.8	5.89e-01	0	38	0	4389339136	41	5317
2026-01-19 07:42:54.80	24.74	85.10	-35.0	-37.8	20.0	5.89e-01	0	38	0	4404019200	41	5001
2026-01-19 07:42:55.81	18.03	84.48	-34.8	-37.6	20.1	5.88e-01	0	38	0	4420796416	41	4878
2026-01-19 07:42:56.82	12.75	83.79	-35.1	-37.9	20.1	5.88e-01	0	38	0	4435476480	41	5061
2026-01-19 07:42:57.83	8.55	83.06	-35.4	-38.3	19.8	5.89e-01	0	38	0	4450156544	41	5304
2026-01-19 07:42:58.84	5.18	82.31	-35.5	-38.1	19.8	5.88e-01	0	38	0	4466933760	41	5217
2026-01-19 07:42:59.84	2.44	81.55	-35.8	-38.3	19.9	5.88e-01	0	38	0	4481613824	42	4984
2026-01-19 07:43:00.86	0.12	80.75	-36.2	-38.9	19.7	5.89e-01	0	38	0	4496293888	43	5055
2026-01-19 07:43:01.86	358.22	79.97	-36.6	-39.3	19.5	5.89e-01	0	38	0	4513071104	43	5283
2026-01-19 07:43:02.87	356.58	79.17	-36.5	-39.0	19.5	5.88e-01	0	38	0	4529848320	44	4847
2026-01-19 07:43:03.88	355.17	78.36	-36.6	-39.1	19.5	5.89e-01	0	38	0	4544528384	44	4901
2026-01-19 07:43:04.89	353.95	77.56	-37.0	-39.6	19.2	5.89e-01	0	38	0	4559208448	44	5162
2026-01-19 07:43:05.90	352.89	76.75	-37.1	-39.7	19.1	5.90e-01	0	38	0	4575985664	45	4950
2026-01-19 07:43:06.91	351.94	75.94	-37.1	-39.6	19.2	5.89e-01	0	38	0	4590665728	45	4897
2026-01-19 07:43:07.92	351.11	75.14	-37.3	-39.6	19.2	5.89e-01	0	38	0	4605345792	45	4919
2026-01-19 07:43:08.93	350.37	74.34	-37.4	-39.8	19.1	5.89e-01	0	38	0	4622123008	45	5026
2026-01-19 07:43:09.93	349.70	73.55	-37.5	-40.0	18.9	5.88e-01	0	38	0	4636803072	45	5112
2026-01-19 07:43:10.94	349.10	72.75	-37.3	-39.6	19.2	5.89e-01	0	38	0	4651483136	45	4873
2026-01-19 07:43:11.95	348.55	71.96	-37.3	-39.6	19.2	5.88e-01	0	38	0	4668260352	45	4887
2026-01-19 07:43:12.96	348.05	71.18	-37.8	-40.2	18.8	5.89e-01	0	38	0	4682940416	46	4937
2026-01-19 07:43:13.96	347.60	70.41	-38.0	-40.4	18.7	5.89e-01	0	38	0	4699717632	46	5071
2026-01-19 07:43:14.97	347.18	69.63	-38.0	-40.3	18.7	5.88e-01	0	38	0	4714397696	46	5009
2026-01-19 07:43:15.98	346.79	68.86	-38.1	-40.2	18.8	5.89e-01	0	38	0	4731174912	46	4977
2026-01-19 07:43:16.99	346.43	68.10	-38.3	-40.4	18.8	5.89e-01	0	38	0	4745854976	47	4811
2026-01-19 07:43:18.00	346.10	67.34	-38.6	-40.8	18.5	5.89e-01	0	38	0	4760535040	47	5007
2026-01-19 07:43:19.01	345.80	66.60	-39.9	-42.3	18.7	5.88e-01	0	38	0	4777312256	50	5013
2026-01-19 07:43:20.02	345.51	65.85	-40.0	-42.3	18.6	5.88e-01	0	38	0	4791992320	50	5005
2026-01-19 07:43:21.02	345.25	65.12	-40.0	-42.2	18.7	5.89e-01	0	38	0	4806672384	50	4978
2026-01-19 07:43:22.03	345.00	64.40	-40.0	-42.2	18.7	5.89e-01	0	38	0	4823449600	50	4973
2026-01-19 07:43:23.04	344.76	63.67	-40.3	-42.8	18.3	5.89e-01	0	38	0	4838129664	51	4985
2026-01-19 07:43:24.05	344.55	62.96	-40.5	-43.0	18.2	5.88e-01	0	38	0	4852809728	51	5113
2026-01-19 07:43:25.06	344.34	62.25	-40.5	-42.9	18.3	5.89e-01	0	38	0	4869586944	51	5067
2026-01-19 07:43:26.06	344.15	61.56	-40.6	-42.8	18.3	5.89e-01	0	38	0	4884267008	51	5033
2026-01-19 07:43:27.07	343.96	60.87	-40.5	-42.9	18.1	5.88e-01	0	38	0	4901044224	51	5081
2026-01-19 07:43:28.08	343.79	60.19	-40.7	-43.3	17.9	5.88e-01	0	38	0	4915724288	52	4991
2026-01-19 07:43:29.09	343.62	59.51	-40.7	-43.3	18.0	5.89e-01	0	38	0	4932501504	52	4989
2026-01-19 07:43:30.09	343.47	58.85	-40.6	-42.9	18.3	5.88e-01	0	38	0	4947181568	52	4807
2026-01-19 07:43:31.10	343.32	58.19	-40.3	-42.6	18.5	5.89e-01	0	38	0	4961861632	52	4602
2026-01-19 07:43:32.11	343.18	57.54	-40.3	-42.6	18.5	5.89e-01	0	38	0	4978638848	52	4599
2026-01-19 07:43:33.12	343.05	56.89	-40.2	-42.6	18.4	5.89e-01	0	38	0	4993318912	52	4599
2026-01-19 07:43:34.13	342.92	56.26	-40.3	-42.7	18.4	5.89e-01	0	38	0	5007998976	52	4654
2026-01-19 07:43:35.14	342.80	55.63	-40.3	-42.8	18.3	5.89e-01	0	38	0	5024776192	52	4709
2026-01-19 07:43:36.15	342.68	55.01	-40.2	-42.6	18.4	5.89e-01	0	38	0	5039456256	52	4651
2026-01-19 07:43:37.16	342.57	54.39	-40.2	-42.4	18.6	5.89e-01	0	38	0	5054136320	52	4521
2026-01-19 07:43:38.16	342.47	53.79	-40.4	-42.5	18.5	5.89e-01	0	38	0	5070913536	52	4583
2026-01-19 07:43:39.17	342.37	53.20	-40.5	-42.5	18.4	6.00e-01	0	38	0	5087690752	52	4588
2026-01-19 07:43:40.18	342.27	52.61	-39.9	-42.0	18.8	6.01e-01	0	38	0	5102370816	51	4596
2026-01-19 07:43:41.19	342.18	52.02	-39.6	-41.8	18.9	5.98e-01	0	38	0	5117050880	51	4479
2026-01-19 07:43:42.20	342.09	51.45	-39.4	-41.6	19.1	5.99e-01	0	38	0	5133828096	50	4648
2026-01-19 07:43:43.21	342.00	50.88	-39.5	-41.7	19.0	6.01e-01	0	38	0	5148508160	50	4698
2026-01-19 07:43:44.21	341.92	50.33	-39.0	-41.2	19.3	5.99e-01	0	38	0	5163188224	50	4413
2026-01-19 07:43:45.22	341.84	49.78	-38.7	-40.8	19.5	6.00e-01	0	38	0	5179965440	49	4459
2026-01-19 07:43:46.23	341.77	49.23	-38.8	-40.7	19.6	5.99e-01	0	38	0	5194645504	49	4429
2026-01-19 07:43:47.24	341.69	48.69	-38.8	-40.7	19.6	5.98e-01	0	38	0	5209325568	49	4416
2026-01-19 07:43:48.24	341.63	48.17	-38.6	-40.6	19.6	5.98e-01	0	38	0	5226102784	49	4341
2026-01-19 07:43:49.25	341.56	47.64	-38.7	-40.8	19.5	6.04e-01	0	38	0	5240782848	49	4482
2026-01-19 07:43:50.26	341.49	47.13	-38.8	-41.0	19.3	5.97e-01	0	38	0	5255462912	49	4574
2026-01-19 07:43:51.27	341.43	46.62	-39.0	-41.3	19.2	6.00e-01	0	38	0	5272240128	49	4722
2026-01-19 07:43:52.28	341.37	46.11	-39.1	-41.5	19.1	5.99e-01	0	38	0	5289017344	49	4820
2026-01-19 07:43:53.28	341.31	45.62	-39.2	-41.6	19.0	6.01e-01	0	38	0	5303697408	49	4881
2026-01-19 07:43:54.29	341.25	45.13	-39.1	-41.5	19.0	6.00e-01	0	38	0	5318377472	49	4858
2026-01-19 07:43:55.30	341.20	44.65	-39.1	-41.5	19.1	5.97e-01	0	38	0	5335154688	49	4829
2026-01-19 07:43:56.31	341.14	44.18	-39.0	-41.3	19.1	6.01e-01	0	38	0	5349834752	49	4725
2026-01-19 07:43:57.32	341.09	43.71	-39.1	-41.3	19.2	6.01e-01	0	38	0	5364514816	49	4730
2026-01-19 07:43:58.32	341.04	43.25	-39.0	-41.2	19.3	6.02e-01	0	38	0	5379194880	49	4683
2026-01-19 07:43:59.33	341.00	42.79	-39.0	-41.1	19.3	6.00e-01	0	38	0	5395972096	49	4642
2026-01-19 07:44:00.34	340.95	42.34	-38.9	-41.0	19.3	6.00e-01	0	38	0	5410652160	49	4598
2026-01-19 07:44:01.35	340.90	41.90	-39.1	-41.3	19.2	5.99e-01	0	38	0	5425332224	49	4746
2026-01-19 07:44:02.35	340.86	41.46	-39.2	-41.5	19.1	6.00e-01	0	38	0	5442109440	49	4829
2026-01-19 07:44:03.36	340.82	41.03	-39.5	-41.8	18.8	6.01e-01	0	38	0	5456789504	49	4998
2026-01-19 07:44:04.37	340.78	40.60	-39.8	-42.1	18.7	5.96e-01	0	38	0	5473566720	50	4908
2026-01-19 07:44:05.38	340.74	40.18	-39.9	-42.2	18.6	6.01e-01	0	38	0	5488246784	50	4975
2026-01-19 07:44:06.39	340.70	39.76	-40.1	-42.5	18.4	6.05e-01	0	38	0	5505024000	50	5129
2026-01-19 07:44:07.39	340.66	39.36	-40.1	-42.5	18.4	5.97e-01	0	38	0	5519704064	50	5140
2026-01-19 07:44:08.40	340.62	38.95	-40.2	-42.6	18.4	6.01e-01	0	38	0	5534384128	51	4903
2026-01-19 07:44:09.41	340.59	38.55	-40.3	-42.7	18.3	6.01e-01	0	38	0	5551161344	51	4953
2026-01-19 07:44:10.42	340.55	38.16	-40.4	-42.7	18.2	6.03e-01	0	38	0	5565841408	51	4968
2026-01-19 07:44:11.42	340.52	37.77	-40.4	-42.6	18.3	6.05e-01	0	38	0	5580521472	51	4900
2026-01-19 07:44:12.44	340.49	37.39	-40.4	-42.7	18.2	6.01e-01	0	38	0	5597298688	51	4938
2026-01-19 07:44:13.45	340.46	37.01	-40.6	-42.7	18.2	5.99e-01	0	38	0	5611978752	51	4979
2026-01-19 07:44:14.45	340.43	36.64	-40.6	-42.7	18.3	6.02e-01	0	38	0	5626658816	51	4944
2026-01-19 07:44:15.46	340.39	36.27	-40.7	-42.7	18.2	6.03e-01	0	38	0	5643436032	52	4695
2026-01-19 07:44:16.47	340.37	35.91	-40.7	-42.7	18.3	6.03e-01	0	38	0	5660213248	52	4674
2026-01-19 07:44:17.48	340.34	35.55	-40.7	-42.8	18.2	6.01e-01	0	38	0	5674893312	52	4707
2026-01-19 07:44:18.48	340.31	35.20	-41.0	-43.0	18.0	6.02e-01	0	38	0	5689573376	52	4833
2026-01-19 07:44:19.49	340.28	34.85	-41.1	-43.1	17.9	6.05e-01	0	38	0	5706350592	52	4875
2026-01-19 07:44:20.50	340.26	34.50	-41.2	-43.2	17.9	6.01e-01	0	38	0	5721030656	52	4947
2026-01-19 07:44:21.51	340.23	34.16	-41.2	-43.3	17.8	5.97e-01	0	38	0	5735710720	53	4733
2026-01-19 07:44:22.52	340.21	33.82	-41.4	-43.5	17.7	5.98e-01	0	38	0	5752487936	53	4833
2026-01-19 07:44:23.52	340.18	33.49	-41.5	-43.6	17.6	6.00e-01	0	38	0	5767168000	53	4918
2026-01-19 07:44:24.53	340.16	33.16	-41.6	-43.7	17.5	6.00e-01	0	38	0	5781848064	53	4975
2026-01-19 07:44:25.54	340.13	32.84	-41.8	-43.9	17.3	6.03e-01	0	38	0	5798625280	54	4780
2026-01-19 07:44:26.55	340.11	32.52	-41.9	-44.0	17.3	5.99e-01	0	38	0	5813305344	54	4841
2026-01-19 07:44:27.56	340.09	32.20	-41.8	-44.0	17.3	5.99e-01	0	38	0	5827985408	54	4832
2026-01-19 07:44:28.57	340.07	31.89	-41.9	-44.1	17.3	5.96e-01	0	38	0	5844762624	54	4871
2026-01-19 07:44:29.57	340.05	31.58	-42.0	-44.1	17.2	5.97e-01	0	38	0	5861539840	54	4913
2026-01-19 07:44:30.58	340.03	31.28	-42.0	-44.2	17.2	5.95e-01	0	38	0	5876219904	54	4946
2026-01-19 07:44:31.59	340.01	30.98	-42.0	-44.2	17.2	6.01e-01	0	38	0	5890899968	54	4932
2026-01-19 07:44:32.60	339.99	30.68	-42.0	-44.1	17.2	5.92e-01	0	38	0	5907677184	54	4892
2026-01-19 07:44:33.61	339.97	30.39	-42.0	-44.0	17.2	5.98e-01	0	38	0	5922357248	54	4860
2026-01-19 07:44:34.61	339.95	30.10	-41.9	-44.0	17.2	6.00e-01	0	38	0	5937037312	54	4859
2026-01-19 07:44:35.62	339.93	29.81	-42.0	-44.0	17.2	5.98e-01	0	38	0	5953814528	54	4867
2026-01-19 07:44:36.63	339.91	29.53	-42.0	-44.0	17.2	5.97e-01	0	38	0	5968494592	54	4859
2026-01-19 07:44:37.64	339.90	29.25	-41.9	-44.0	17.3	5.99e-01	0	38	0	5983174656	54	4824
2026-01-19 07:44:38.65	339.88	28.97	-42.0	-44.0	17.2	5.95e-01	0	38	0	5999951872	54	4868
2026-01-19 07:44:39.65	339.86	28.70	-42.0	-44.0	17.2	6.00e-01	0	38	0	6014631936	54	4852
2026-01-19 07:44:40.66	339.85	28.43	-42.0	-44.0	17.3	5.97e-01	0	38	0	6029312000	54	4829
2026-01-19 07:44:41.67	339.83	28.16	-41.9	-43.9	17.3	5.95e-01	0	38	0	6046089216	54	4779
2026-01-19 07:44:42.68	339.82	27.90	-41.9	-43.8	17.3	5.97e-01	0	38	0	6062866432	54	4755
2026-01-19 07:44:43.69	339.80	27.64	-42.0	-43.9	17.3	6.01e-01	0	38	0	6077546496	54	4772
2026-01-19 07:44:44.69	339.79	27.38	-41.9	-43.9	17.3	5.97e-01	0	38	0	6092226560	54	4761
2026-01-19 07:44:45.70	339.77	27.13	-42.0	-43.9	17.3	5.97e-01	0	38	0	6109003776	54	4793
2026-01-19 07:44:46.71	339.76	26.87	-42.0	-43.8	17.3	5.95e-01	0	38	0	6123683840	54	4759
2026-01-19 07:44:47.72	339.74	26.62	-41.8	-43.7	17.4	5.97e-01	0	38	0	6138363904	54	4682
2026-01-19 07:44:48.72	339.73	26.38	-41.9	-43.8	17.3	5.97e-01	0	38	0	6155141120	54	4720
2026-01-19 07:44:49.73	339.72	26.14	-41.8	-43.7	17.4	5.98e-01	0	38	0	6169821184	54	4702
2026-01-19 07:44:50.74	339.70	25.89	-41.8	-43.8	17.4	6.02e-01	0	38	0	6184501248	54	4708
2026-01-19 07:44:51.75	339.69	25.65	-41.8	-43.7	17.4	5.97e-01	0	38	0	6201278464	54	4704
2026-01-19 07:44:52.76	339.68	25.42	-41.8	-43.8	17.4	5.98e-01	0	38	0	6215958528	54	4707
2026-01-19 07:44:53.77	339.67	25.18	-41.7	-43.7	17.5	5.93e-01	0	38	0	6232735744	54	4667
2026-01-19 07:44:54.78	339.65	24.95	-41.8	-43.7	17.4	5.96e-01	0	38	0	6247415808	54	4698
2026-01-19 07:44:55.79	339.64	24.72	-41.7	-43.7	17.4	5.97e-01	0	38	0	6264193024	54	4669
2026-01-19 07:44:56.79	339.63	24.50	-41.8	-43.7	17.4	6.00e-01	0	38	0	6278873088	54	4702
2026-01-19 07:44:57.80	339.62	24.28	-41.7	-43.7	17.4	5.98e-01	0	38	0	6293553152	54	4657
2026-01-19 07:44:58.81	339.61	24.05	-41.8	-43.7	17.4	5.95e-01	0	38	0	6310330368	54	4682
2026-01-19 07:44:59.82	339.60	23.83	-41.8	-43.7	17.4	5.98e-01	0	38	0	6325010432	54	4700
2026-01-19 07:45:00.82	339.59	23.62	-41.8	-43.8	17.3	5.97e-01	0	38	0	6339690496	54	4723
2026-01-19 07:45:01.83	339.58	23.40	-41.8	-43.8	17.4	5.89e-01	0	38	0	6356467712	54	4706
2026-01-19 07:45:02.84	339.57	23.19	-41.8	-43.8	17.3	5.90e-01	0	38	0	6371147776	54	4740
2026-01-19 07:45:03.85	339.56	22.98	-41.9	-43.9	17.3	5.89e-01	0	38	0	6385827840	54	4801
2026-01-19 07:45:04.86	339.55	22.77	-41.8	-43.8	17.3	5.89e-01	0	38	0	6402605056	54	4753
2026-01-19 07:45:05.87	339.54	22.57	-41.8	-43.8	17.3	5.89e-01	0	38	0	6419382272	54	4742
2026-01-19 07:45:06.87	339.53	22.36	-41.9	-43.9	17.3	5.89e-01	0	38	0	6434062336	54	4765
2026-01-19 07:45:07.88	339.52	22.16	-42.0	-44.0	17.2	5.88e-01	0	38	0	6448742400	54	4837
2026-01-19 07:45:08.89	339.51	21.96	-41.9	-43.9	17.3	5.88e-01	0	38	0	6465519616	54	4799
2026-01-19 07:45:09.90	339.50	21.76	-42.0	-44.0	17.2	5.89e-01	0	38	0	6480199680	54	4817
2026-01-19 07:45:10.90	339.50	21.57	-42.1	-44.1	17.1	5.89e-01	0	38	0	6494879744	54	4888
2026-01-19 07:45:11.91	339.49	21.37	-42.0	-44.0	17.1	5.89e-01	0	38	0	6511656960	54	4866
2026-01-19 07:45:12.92	339.48	21.18	-42.0	-44.1	17.1	5.89e-01	0	38	0	6526337024	54	4876
2026-01-19 07:45:13.93	339.47	20.99	-42.1	-44.1	17.1	5.90e-01	0	38	0	6541017088	54	4901
2026-01-19 07:45:14.94	339.46	20.80	-42.1	-44.2	17.0	5.89e-01	0	38	0	6557794304	54	4945
2026-01-19 07:45:15.94	339.46	20.62	-43.2	-44.0	17.0	5.89e-01	0	38	0	6572474368	56	4327
2026-01-19 07:45:16.95	339.45	20.43	-54.3	-63.3	3.8	7.45e-01	0	38	104	6585057280	79	10542
2026-01-19 07:45:17.96	339.44	20.25	-54.3	-63.2	3.8	7.45e-01	0	38	104	6585057280	79	10475
2026-01-19 07:45:18.97	339.44	20.06	-54.3	-63.2	3.8	7.45e-01	0	38	104	6585057280	79	10427
2026-01-19 07:45:19.98	339.43	19.88	-54.3	-63.2	3.8	7.46e-01	0	38	104	6585057280	79	10413
2026-01-19 07:45:20.99	339.42	19.70	-54.3	-63.1	3.8	7.46e-01	0	38	104	6585057280	79	10381
2026-01-19 07:45:21.99	339.42	19.53	-54.3	-63.1	3.8	7.45e-01	0	38	104	6585057280	79	10368
2026-01-19 07:45:23.00	339.41	19.35	-54.2	-63.1	3.8	7.44e-01	0	38	104	6585057280	79	10314
2026-01-19 07:45:24.01	339.40	19.18	-54.2	-63.1	3.8	7.46e-01	0	38	104	6585057280	79	10342
2026-01-19 07:45:25.02	339.40	19.01	-54.3	-63.1	3.8	7.47e-01	0	38	104	6585057280	79	10360
2026-01-19 07:45:26.03	339.39	18.84	-54.2	-63.1	3.8	7.45e-01	0	38	104	6585057280	79	10316
2026-01-19 07:45:27.03	339.38	18.67	-54.2	-63.1	3.8	7.44e-01	0	38	104	6585057280	79	10352
2026-01-19 07:45:28.04	339.38	18.50	-54.2	-63.1	3.8	7.45e-01	0	38	104	6585057280	79	10298
2026-01-19 07:45:29.05	339.37	18.33	-54.2	-63.1	3.8	7.46e-01	0	38	104	6585057280	79	10354
2026-01-19 07:45:30.06	339.37	18.17	-54.2	-63.0	3.8	7.44e-01	0	38	104	6585057280	79	10261
2026-01-19 07:45:31.07	339.36	18.00	-54.2	-63.0	3.8	7.44e-01	0	38	104	6585057280	79	10285
2026-01-19 07:45:32.08	339.36	17.84	-54.2	-63.0	3.8	7.46e-01	0	38	104	6585057280	79	10239
2026-01-19 07:45:33.09	339.35	17.68	-54.2	-63.0	3.8	7.46e-01	0	38	104	6585057280	79	10257
2026-01-19 07:45:34.10	339.35	17.52	-54.2	-63.0	3.8	7.44e-01	0	38	104	6585057280	79	10235
2026-01-19 07:45:35.11	339.34	17.36	-54.2	-63.0	3.8	7.47e-01	0	38	104	6585057280	79	10211
2026-01-19 07:45:36.11	339.34	17.21	-54.2	-63.0	3.8	7.47e-01	0	38	104	6585057280	79	10258
2026-01-19 07:45:37.12	339.33	17.05	-54.2	-63.0	3.8	7.46e-01	0	38	104	6585057280	79	10256
2026-01-19 07:45:38.13	339.33	16.90	-54.1	-63.0	3.8	7.45e-01	0	38	104	6585057280	79	10177
2026-01-19 07:45:39.14	339.32	16.74	-54.1	-63.0	3.8	7.43e-01	0	38	104	6585057280	79	10202
2026-01-19 07:45:40.15	339.32	16.59	-54.1	-63.0	3.8	7.45e-01	0	38	104	6585057280	79	10194
2026-01-19 07:45:41.16	339.31	16.44	-54.1	-63.0	3.8	7.46e-01	0	38	104	6585057280	79	10229
2026-01-19 07:45:42.16	339.31	16.29	-54.1	-62.9	3.8	7.43e-01	0	38	104	6585057280	79	10173
2026-01-19 07:45:43.17	339.31	16.14	-54.1	-62.9	3.8	7.46e-01	0	38	104	6585057280	79	10170
2026-01-19 07:45:44.18	339.30	16.00	-54.1	-62.9	3.8	7.45e-01	0	38	104	6585057280	79	10145
2026-01-19 07:45:45.19	339.30	15.85	-54.1	-62.9	3.8	7.45e-01	0	38	104	6585057280	79	10162
2026-01-19 07:45:46.20	339.29	15.71	-54.1	-62.9	3.8	7.45e-01	0	38	104	6585057280	79	10129
2026-01-19 07:45:47.21	339.29	15.56	-54.1	-62.9	3.8	7.46e-01	0	38	104	6585057280	79	10140
2026-01-19 07:45:48.21	339.29	15.42	-54.0	-62.9	3.8	7.46e-01	0	38	104	6585057280	79	10067
2026-01-19 07:45:49.22	339.28	15.28	-54.1	-62.9	3.8	7.45e-01	0	38	104	6585057280	79	10149
2026-01-19 07:45:50.23	339.28	15.14	-54.0	-62.9	3.8	7.44e-01	0	38	104	6585057280	79	10101
2026-01-19 07:45:51.24	339.28	15.00	-54.0	-62.9	3.8	7.45e-01	0	38	104	6585057280	79	10092
2026-01-19 07:45:52.25	339.27	14.86	-54.0	-62.9	3.8	7.43e-01	0	38	104	6585057280	79	10076
2026-01-19 07:45:53.26	339.27	14.72	-54.1	-62.9	3.8	7.46e-01	0	38	104	6585057280	79	10114
2026-01-19 07:45:54.27	339.27	14.59	-54.0	-62.8	3.8	7.43e-01	0	38	104	6585057280	79	10041
2026-01-19 07:45:55.27	339.26	14.45	-54.0	-62.9	3.8	7.45e-01	0	38	104	6585057280	79	10082
2026-01-19 07:45:56.28	339.26	14.32	-54.0	-62.9	3.8	7.45e-01	0	38	104	6585057280	79	10061
2026-01-19 07:45:57.29	339.26	14.18	-54.0	-62.9	3.8	7.45e-01	0	38	104	6585057280	79	10061
2026-01-19 07:45:58.30	339.25	14.05	-54.0	-62.8	3.8	7.47e-01	0	38	104	6585057280	79	10028
2026-01-19 07:45:59.31	339.25	13.92	-54.0	-62.8	3.8	7.46e-01	0	38	104	6585057280	79	10051
2026-01-19 07:46:00.31	339.25	13.79	-54.0	-62.8	3.8	7.46e-01	0	38	104	6585057280	79	9995
2026-01-19 07:46:01.32	339.25	13.66	-54.0	-62.8	3.8	7.45e-01	0	38	104	6585057280	79	9990
2026-01-19 07:46:02.33	339.24	13.53	-54.0	-62.8	3.8	7.45e-01	0	38	104	6585057280	79	9997
2026-01-19 07:46:03.33	339.24	13.40	-53.9	-62.8	3.8	7.46e-01	0	38	104	6585057280	79	10002
2026-01-19 07:46:04.34	339.24	13.28	-53.9	-62.8	3.8	7.45e-01	0	38	104	6585057280	79	9956
2026-01-19 07:46:05.35	339.24	13.15	-54.0	-62.8	3.8	7.45e-01	0	38	104	6585057280	79	10028
2026-01-19 07:46:06.36	339.23	13.03	-53.9	-62.8	3.8	7.44e-01	0	38	104	6585057280	79	9973
2026-01-19 07:46:07.37	339.23	12.90	-53.9	-62.7	3.8	7.46e-01	0	38	104	6585057280	79	9910
2026-01-19 07:46:08.37	339.23	12.78	-53.9	-62.7	3.8	7.45e-01	0	38	104	6585057280	79	9923
2026-01-19 07:46:09.38	339.23	12.66	-53.9	-62.8	3.8	7.45e-01	0	38	104	6585057280	79	9982
2026-01-19 07:46:10.38	339.23	12.54	-53.9	-62.7	3.8	7.44e-01	0	38	104	6585057280	79	9939
2026-01-19 07:46:11.39	339.22	12.41	-53.9	-62.7	3.8	7.47e-01	0	38	104	6585057280	79	9915
2026-01-19 07:46:12.40	339.22	12.29	-53.9	-62.7	3.8	7.45e-01	0	38	104	6585057280	79	9915
2026-01-19 07:46:13.41	339.22	12.17	-53.9	-62.7	3.8	7.45e-01	0	38	104	6585057280	79	9935
2026-01-19 07:46:14.42	339.22	12.05	-53.9	-62.7	3.8	7.46e-01	0	38	104	6585057280	79	9904
2026-01-19 07:46:15.42	339.22	11.94	-53.8	-62.7	3.8	7.44e-01	0	38	104	6585057280	79	9860
2026-01-19 07:46:16.43	339.21	11.82	-53.9	-62.7	3.8	7.46e-01	0	38	104	6585057280	79	9888
2026-01-19 07:46:17.44	339.21	11.70	-53.9	-62.7	3.8	7.46e-01	0	38	104	6585057280	79	9901
2026-01-19 07:46:18.45	339.21	11.59	-53.8	-62.7	3.8	7.45e-01	0	38	104	6585057280	79	9850
2026-01-19 07:46:19.46	339.21	11.47	-53.8	-62.6	3.8	7.46e-01	0	38	104	6585057280	79	9817
2026-01-19 07:46:20.46	339.21	11.36	-53.8	-62.7	3.8	7.46e-01	0	38	104	6585057280	79	9841
2026-01-19 07:46:21.47	339.21	11.25	-53.8	-62.7	3.8	7.45e-01	0	38	104	6585057280	79	9885
2026-01-19 07:46:22.48	339.21	11.13	-53.8	-62.6	3.8	7.45e-01	0	38	104	6585057280	79	9823
2026-01-19 07:46:23.49	339.20	11.02	-53.8	-62.6	3.8	7.44e-01	0	38	104	6585057280	79	9815
2026-01-19 07:46:24.50	339.20	10.91	-53.8	-62.6	3.8	7.46e-01	0	38	104	6585057280	79	9826
2026-01-19 07:46:25.51	339.20	10.80	-53.8	-62.6	3.8	7.45e-01	0	38	104	6585057280	79	9792
2026-01-19 07:46:26.51	339.20	10.69	-53.8	-62.6	3.8	7.45e-01	0	38	104	6585057280	79	9769
2026-01-19 07:46:27.52	339.20	10.58	-53.7	-62.6	3.8	7.45e-01	0	38	104	6585057280	79	9763
2026-01-19 07:46:28.53	339.20	10.47	-53.8	-62.6	3.8	7.44e-01	0	38	104	6585057280	79	9778
2026-01-19 07:46:29.54	339.20	10.36	-53.8	-62.6	3.8	7.45e-01	0	38	104	6585057280	79	9743
2026-01-19 07:46:30.55	339.20	10.25	-53.7	-62.6	3.8	7.45e-01	0	38	104	6585057280	79	9736
2026-01-19 07:46:31.55	339.20	10.15	-53.7	-62.6	3.8	7.45e-01	0	38	104	6585057280	79	9727
2026-01-19 07:46:32.56	339.19	10.04	-53.7	-62.6	3.8	7.45e-01	0	38	104	6585057280	79	9764
2026-01-19 07:46:33.57	339.19	9.93	-53.7	-62.6	3.8	7.46e-01	0	38	104	6585057280	79	9764
2026-01-19 07:46:34.58	339.19	9.83	-53.7	-62.5	3.8	7.46e-01	0	38	104	6585057280	79	9705
2026-01-19 07:46:35.58	339.19	9.73	-53.6	-62.5	3.8	7.47e-01	0	38	104	6585057280	79	9619
2026-01-19 07:46:36.59	339.19	9.62	-53.7	-62.5	3.8	7.46e-01	0	38	104	6585057280	79	9698
2026-01-19 07:46:37.60	339.19	9.52	-53.7	-62.5	3.8	7.45e-01	0	38	104	6585057280	79	9692
2026-01-19 07:46:38.61	339.19	9.41	-53.7	-62.5	3.8	7.46e-01	0	38	104	6585057280	79	9666
2026-01-19 07:46:39.62	339.19	9.31	-53.6	-62.5	3.8	7.45e-01	0	38	104	6585057280	79	9616
2026-01-19 07:46:40.63	339.19	9.21	-53.7	-62.5	3.8	7.45e-01	0	38	104	6585057280	79	9673
2026-01-19 07:46:41.63	339.19	9.11	-53.6	-62.5	3.8	7.45e-01	0	38	104	6585057280	79	9643
2026-01-19 07:46:42.64	339.19	9.01	-53.6	-62.5	3.8	7.44e-01	0	38	104	6585057280	79	9641
2026-01-19 07:46:43.65	339.19	8.91	-53.6	-62.4	3.8	7.44e-01	0	38	104	6585057280	79	9578
2026-01-19 07:46:44.66	339.19	8.81	-53.6	-62.5	3.8	7.44e-01	0	38	104	6585057280	79	9637
2026-01-19 07:46:45.67	339.19	8.71	-53.6	-62.4	3.8	7.45e-01	0	38	104	6585057280	79	9589
2026-01-19 07:46:46.67	339.19	8.61	-53.6	-62.4	3.8	7.44e-01	0	38	104	6585057280	79	9574
2026-01-19 07:46:47.68	339.19	8.51	-53.5	-62.4	3.8	7.46e-01	0	38	104	6585057280	79	9512
2026-01-19 07:46:48.69	339.19	8.42	-53.6	-62.4	3.8	7.44e-01	0	38	104	6585057280	79	9588
2026-01-19 07:46:49.70	339.19	8.32	-53.6	-62.4	3.8	7.44e-01	0	38	104	6585057280	79	9572
2026-01-19 07:46:50.71	339.19	8.22	-53.5	-62.4	3.8	7.44e-01	0	38	104	6585057280	79	9531
2026-01-19 07:46:51.71	339.19	8.13	-53.5	-62.3	3.8	7.46e-01	0	38	104	6585057280	79	9476
2026-01-19 07:46:52.72	339.19	8.03	-53.6	-62.4	3.8	7.44e-01	0	38	104	6585057280	78	10095
2026-01-19 07:46:53.73	339.19	7.94	-53.5	-62.3	3.8	7.44e-01	0	38	104	6585057280	78	10056
2026-01-19 07:46:54.74	339.19	7.84	-53.5	-62.3	3.8	7.45e-01	0	38	104	6585057280	78	10018
2026-01-19 07:46:55.74	339.19	7.75	-53.4	-62.3	3.8	7.46e-01	0	38	104	6585057280	78	9967
2026-01-19 07:46:56.75	339.19	7.66	-53.5	-62.3	3.8	7.46e-01	0	38	104	6585057280	78	10057
2026-01-19 07:46:57.76	339.19	7.56	-53.4	-62.3	3.8	7.43e-01	0	38	104	6585057280	78	9986
2026-01-19 07:46:58.76	339.19	7.47	-53.4	-62.3	3.8	7.45e-01	0	38	104	6585057280	78	9990
2026-01-19 07:46:59.77	339.19	7.38	-53.4	-62.2	3.8	7.45e-01	0	38	104	6585057280	78	9892
2026-01-19 07:47:00.78	339.19	7.29	-53.5	-62.3	3.8	7.46e-01	0	38	104	6585057280	78	10009
2026-01-19 07:47:01.79	339.19	7.20	-53.4	-62.2	3.8	7.44e-01	0	38	104	6585057280	78	9900
2026-01-19 07:47:02.80	339.19	7.10	-53.4	-62.2	3.8	7.47e-01	0	38	104	6585057280	78	9928
2026-01-19 07:47:03.80	339.19	7.01	-53.3	-62.1	3.8	7.45e-01	0	38	104	6585057280	78	9804
2026-01-19 07:47:04.81	339.19	6.92	-53.4	-62.3	3.8	7.45e-01	0	38	104	6585057280	78	9989
2026-01-19 07:47:05.82	339.19	6.83	-53.4	-62.2	3.8	7.46e-01	0	38	104	6585057280	78	9906
2026-01-19 07:47:06.83	339.19	6.75	-53.3	-62.2	3.8	7.46e-01	0	38	104	6585057280	78	9852
2026-01-19 07:47:07.84	339.19	6.66	-53.3	-62.1	3.8	7.45e-01	0	38	104	6585057280	78	9727
2026-01-19 07:47:08.85	339.19	6.57	-53.4	-62.2	3.8	7.45e-01	0	38	104	6585057280	78	9930
2026-01-19 07:47:09.85	339.19	6.48	-53.3	-62.1	3.8	7.44e-01	0	38	104	6585057280	78	9788
2026-01-19 07:47:10.86	339.19	6.39	-53.3	-62.1	3.8	7.46e-01	0	38	104	6585057280	78	9807
2026-01-19 07:47:11.87	339.19	6.31	-53.2	-62.0	3.8	7.46e-01	0	38	104	6585057280	78	9681
2026-01-19 07:47:12.88	339.19	6.22	-53.3	-62.2	3.8	7.45e-01	0	38	104	6585057280	78	9837
2026-01-19 07:47:13.89	339.19	6.13	-53.2	-62.1	3.8	7.45e-01	0	38	104	6585057280	78	9752
2026-01-19 07:47:14.89	339.19	6.05	-53.2	-62.1	3.8	7.45e-01	0	38	104	6585057280	78	9722
2026-01-19 07:47:15.90	339.19	5.96	-53.1	-62.0	3.8	7.45e-01	0	38	104	6585057280	78	9633
2026-01-19 07:47:16.91	339.19	5.88	-53.3	-62.1	3.8	7.43e-01	0	38	104	6585057280	78	9770
2026-01-19 07:47:17.92	339.20	5.79	-53.2	-62.0	3.8	7.47e-01	0	38	104	6585057280	78	9696
2026-01-19 07:47:18.93	339.20	5.71	-53.2	-62.0	3.8	7.44e-01	0	38	104	6585057280	78	9702
2026-01-19 07:47:19.93	339.20	5.62	-53.0	-61.9	3.8	7.45e-01	0	38	104	6585057280	78	9556
2026-01-19 07:47:20.94	339.20	5.54	-53.2	-62.1	3.8	7.46e-01	0	38	104	6585057280	78	9752
2026-01-19 07:47:21.95	339.20	5.46	-53.1	-62.0	3.8	7.45e-01	0	38	104	6585057280	78	9652
2026-01-19 07:47:22.96	339.20	5.37	-53.1	-62.0	3.8	7.44e-01	0	38	104	6585057280	78	9607
2026-01-19 07:47:23.97	339.20	5.29	-52.9	-61.8	3.8	7.45e-01	0	38	104	6585057280	77	9969
2026-01-19 07:47:24.98	339.20	5.21	-53.2	-62.0	3.8	7.45e-01	0	38	104	6585057280	77	10257
2026-01-19 07:47:25.98	339.20	5.13	-53.0	-61.9	3.8	7.45e-01	0	38	104	6585057280	77	10069
2026-01-19 07:47:26.99	339.20	5.04	-53.0	-61.9	3.8	7.47e-01	0	38	104	6585057280	77	10078
2026-01-19 07:47:28.00	339.20	4.96	-53.3	-62.1	3.8	7.43e-01	0	38	104	6585057280	77	10380
2026-01-19 07:47:29.01	339.21	4.88	-53.7	-62.5	3.8	7.46e-01	0	38	104	6585057280	77	10853
2026-01-19 07:47:30.02	339.21	4.80	-53.9	-62.8	3.8	7.46e-01	0	38	104	6585057280	78	10550
2026-01-19 07:47:31.02	339.21	4.72	-54.1	-62.9	3.8	7.44e-01	0	38	104	6585057280	78	10742
2026-01-19 07:47:32.03	339.21	4.64	-54.2	-63.1	3.8	7.46e-01	0	38	104	6585057280	79	10333
2026-01-19 07:47:33.04	339.21	4.56	-54.4	-63.2	3.8	7.46e-01	0	38	104	6585057280	79	10477
2026-01-19 07:47:34.05	339.21	4.48	-54.5	-63.3	3.8	7.45e-01	0	38	104	6585057280	79	10590
2026-01-19 07:47:35.06	339.21	4.40	-54.6	-63.4	3.8	7.45e-01	0	38	104	6585057280	79	10735
2026-01-19 07:47:36.07	339.21	4.32	-54.7	-63.5	3.8	7.47e-01	0	38	104	6585057280	79	10855
2026-01-19 07:47:37.07	339.21	4.25	-54.7	-63.6	3.8	7.45e-01	0	38	104	6585057280	79	10921
2026-01-19 07:47:38.08	339.22	4.17	-54.7	-63.5	3.8	7.45e-01	0	38	104	6585057280	80	10277
2026-01-19 07:47:39.09	339.22	4.09	-54.7	-63.6	3.8	7.45e-01	0	38	104	6585057280	80	10372
2026-01-19 07:47:40.10	339.22	4.01	-54.8	-63.7	3.8	7.45e-01	0	38	104	6585057280	80	10421
2026-01-19 07:47:41.11	339.22	3.93	-54.8	-63.7	3.8	7.44e-01	0	38	104	6585057280	80	10423
2026-01-19 07:47:42.11	339.22	3.86	-54.8	-63.7	3.8	7.46e-01	0	38	104	6585057280	80	10458
2026-01-19 07:47:43.12	339.22	3.78	-54.9	-63.7	3.8	7.45e-01	0	38	104	6585057280	80	10515
2026-01-19 07:47:44.13	339.22	3.70	-54.9	-63.8	3.8	7.45e-01	0	38	104	6585057280	80	10545
2026-01-19 07:47:45.14	339.22	3.63	-54.9	-63.8	3.8	7.45e-01	0	38	104	6585057280	80	10545
2026-01-19 07:47:46.15	339.23	3.55	-54.9	-63.8	3.8	7.46e-01	0	38	104	6585057280	80	10567
2026-01-19 07:47:47.15	339.23	3.48	-54.9	-63.8	3.8	7.45e-01	0	38	104	6585057280	80	10576
2026-01-19 07:47:48.16	339.23	3.40	-54.9	-63.7	3.8	7.46e-01	0	38	104	6585057280	80	10522
2026-01-19 07:47:49.17	339.23	3.33	-54.9	-63.8	3.8	7.45e-01	0	38	104	6585057280	80	10565
2026-01-19 07:47:50.18	339.23	3.25	-54.9	-63.8	3.8	7.45e-01	0	38	104	6585057280	80	10570
2026-01-19 07:47:51.18	339.23	3.18	-54.9	-63.7	3.8	7.46e-01	0	38	104	6585057280	80	10529
2026-01-19 07:47:52.19	339.23	3.10	-54.9	-63.7	3.8	7.46e-01	0	38	104	6585057280	80	10504
2026-01-19 07:47:53.20	339.24	3.03	-54.8	-63.7	3.8	7.44e-01	0	38	104	6585057280	80	10456
2026-01-19 07:47:54.21	339.24	2.96	-54.8	-63.7	3.8	7.44e-01	0	38	104	6585057280	80	10494
2026-01-19 07:47:55.21	339.24	2.88	-54.8	-63.7	3.8	7.46e-01	0	38	104	6585057280	80	10469
2026-01-19 07:47:56.22	339.24	2.81	-54.8	-63.7	3.8	7.44e-01	0	38	104	6585057280	80	10430
2026-01-19 07:47:57.23	339.24	2.74	-54.8	-63.6	3.8	7.45e-01	0	38	104	6585057280	80	10403
2026-01-19 07:47:58.24	339.24	2.66	-54.8	-63.7	3.8	7.45e-01	0	38	104	6585057280	80	10446
2026-01-19 07:47:59.25	339.25	2.59	-54.8	-63.7	3.8	7.45e-01	0	38	104	6585057280	80	10415
2026-01-19 07:48:00.25	339.25	2.52	-54.8	-63.7	3.8	7.45e-01	0	38	104	6585057280	80	10429
2026-01-19 07:48:01.26	339.25	2.45	-54.8	-63.6	3.8	7.46e-01	0	38	104	6585057280	80	10405
2026-01-19 07:48:02.27	339.25	2.38	-54.8	-63.6	3.8	7.46e-01	0	38	104	6585057280	80	10412
2026-01-19 07:48:03.28	339.25	2.30	-54.8	-63.6	3.8	7.46e-01	0	38	104	6585057280	80	10402
2026-01-19 07:48:04.28	339.25	2.23	-54.8	-63.6	3.8	7.46e-01	0	38	104	6585057280	80	10407
2026-01-19 07:48:05.29	339.26	2.16	-54.8	-63.6	3.8	7.45e-01	0	38	104	6585057280	80	10358
2026-01-19 07:48:06.30	339.26	2.09	-54.8	-63.6	3.8	7.46e-01	0	38	104	6585057280	80	10357
2026-01-19 07:48:07.31	339.26	2.02	-54.8	-63.6	3.8	7.46e-01	0	38	104	6585057280	80	10398
2026-01-19 07:48:08.31	339.26	1.95	-54.8	-63.6	3.8	7.46e-01	0	38	104	6585057280	80	10358

#Closed at: 2026-01-19 07:48:09
#Recorded file [6585 MB]: D:/lorett/data/31041_260119_103737.dat