passes_logs/2026/01/19/R3.2S_Murmansk/R3.2S_Murmansk__20260119_093056_TY-42_rec.log

#Pass ID: 20260119_093056_TY-42
#Satellite: TY-42
#Configuration: TY-42_900M
#almurnet v.1.7.20251203
#Start time: 2026-01-19 09:30:58

#Version: 2.2.20231116
#Station: R3.2S_Murmansk
#Location: 33.079688 lon 68.888172 lat
#TLE: 1 64048U 25103A   26019.20939815  .00008010  00000-0  38191-3 0 09992
#TLE: 2 64048 097.4121 094.5476 0001781 091.9332 054.9025 15.19169097 37459

#Time	Az	El	Level	Level2	SNR	BER	BlckErr	Temp	State	Recorded	gain1	gain2
2026-01-19 09:30:58.15	20.88	2.15	-52.7	-54.9	6.2	0.00e+00	0	44	0	0	77	18008
2026-01-19 09:30:59.15	20.88	2.22	-52.7	-54.9	6.2	0.00e+00	0	44	104	0	77	18087
2026-01-19 09:31:00.16	20.88	2.29	-52.7	-54.9	6.2	0.00e+00	0	45	104	0	77	18051
2026-01-19 09:31:01.16	20.88	2.36	-52.7	-54.9	6.2	0.00e+00	0	45	104	0	77	17973
2026-01-19 09:31:02.17	20.88	2.43	-52.7	-54.9	6.2	0.00e+00	0	45	104	0	77	18019
2026-01-19 09:31:03.18	20.88	2.51	-52.7	-54.9	6.2	0.00e+00	0	44	104	0	77	17995
2026-01-19 09:31:04.19	20.88	2.58	-52.7	-54.9	6.2	0.00e+00	0	45	104	0	77	18051
2026-01-19 09:31:05.19	20.88	2.65	-52.7	-54.8	6.2	0.00e+00	0	45	104	0	77	17969
2026-01-19 09:31:06.20	20.88	2.72	-52.7	-54.9	6.2	0.00e+00	0	45	104	0	77	18017
2026-01-19 09:31:07.21	20.88	2.79	-52.7	-54.9	6.2	0.00e+00	0	45	104	0	77	18043
2026-01-19 09:31:08.22	20.87	2.87	-52.7	-54.9	6.2	0.00e+00	0	45	104	0	77	18039
2026-01-19 09:31:09.22	20.87	2.94	-52.7	-54.9	6.2	0.00e+00	0	45	104	0	77	18020
2026-01-19 09:31:10.23	20.87	3.01	-52.7	-54.9	6.2	0.00e+00	0	45	104	0	77	18033
2026-01-19 09:31:11.24	20.87	3.09	-52.7	-54.9	6.2	0.00e+00	0	45	104	0	77	18017
2026-01-19 09:31:12.25	20.87	3.16	-52.7	-54.9	6.2	0.00e+00	0	45	104	0	77	18003
2026-01-19 09:31:13.26	20.87	3.23	-52.7	-54.9	6.2	0.00e+00	0	45	104	0	77	18070
2026-01-19 09:31:14.27	20.87	3.31	-52.7	-54.9	6.2	0.00e+00	0	45	104	0	77	18027
2026-01-19 09:31:15.27	20.86	3.38	-52.7	-54.9	6.2	0.00e+00	0	45	104	0	77	18051
2026-01-19 09:31:16.28	20.86	3.46	-52.7	-54.9	6.2	0.00e+00	0	45	104	0	77	18005
2026-01-19 09:31:17.29	20.86	3.53	-52.7	-54.9	6.2	0.00e+00	0	45	104	0	77	18027
2026-01-19 09:31:18.30	20.86	3.61	-52.7	-54.9	6.2	0.00e+00	0	46	104	0	77	17982
2026-01-19 09:31:19.30	20.86	3.68	-52.7	-54.9	6.2	0.00e+00	0	45	104	0	77	18079
2026-01-19 09:31:20.31	20.86	3.76	-52.7	-54.9	6.2	0.00e+00	0	46	104	0	77	18071
2026-01-19 09:31:21.32	20.86	3.84	-52.7	-54.8	6.2	0.00e+00	0	46	104	0	77	17963
2026-01-19 09:31:22.33	20.85	3.91	-52.7	-54.9	6.2	0.00e+00	0	46	104	0	77	17977
2026-01-19 09:31:23.33	20.85	3.99	-52.7	-54.9	6.2	0.00e+00	0	45	104	0	77	18002
2026-01-19 09:31:24.34	20.85	4.07	-52.7	-54.8	6.2	0.00e+00	0	46	104	0	77	17954
2026-01-19 09:31:25.35	20.85	4.14	-52.7	-54.8	6.2	0.00e+00	0	46	104	0	77	17945
2026-01-19 09:31:26.36	20.85	4.22	-52.7	-54.8	6.2	0.00e+00	0	46	104	0	77	17882
2026-01-19 09:31:27.37	20.85	4.30	-52.7	-54.8	6.2	0.00e+00	0	46	104	0	77	17873
2026-01-19 09:31:28.38	20.84	4.38	-52.7	-54.8	6.2	0.00e+00	0	46	104	0	77	17767
2026-01-19 09:31:29.38	20.84	4.46	-52.7	-54.8	6.2	0.00e+00	0	46	104	0	77	17786
2026-01-19 09:31:30.39	20.84	4.53	-52.7	-54.8	6.2	0.00e+00	0	46	104	0	77	17772
2026-01-19 09:31:31.40	20.84	4.61	-52.6	-54.7	6.2	0.00e+00	0	46	104	0	77	17737
2026-01-19 09:31:32.41	20.84	4.69	-52.6	-54.7	6.2	0.00e+00	0	46	104	0	77	17689
2026-01-19 09:31:33.42	20.83	4.77	-52.6	-54.7	6.2	0.00e+00	0	46	104	0	77	17710
2026-01-19 09:31:34.42	20.83	4.85	-52.6	-54.7	6.2	0.00e+00	0	46	104	0	77	17587
2026-01-19 09:31:35.43	20.83	4.93	-52.6	-54.7	6.2	0.00e+00	0	46	104	0	77	17756
2026-01-19 09:31:36.44	20.83	5.01	-52.6	-54.7	6.2	0.00e+00	0	46	104	0	77	17670
2026-01-19 09:31:37.45	20.82	5.10	-52.7	-54.8	6.2	0.00e+00	0	46	104	0	77	17852
2026-01-19 09:31:38.46	20.82	5.18	-52.9	-55.0	6.2	0.00e+00	0	46	104	0	77	18303
2026-01-19 09:31:39.47	20.82	5.26	-52.7	-54.8	6.2	0.00e+00	0	46	104	0	77	17873
2026-01-19 09:31:40.47	20.82	5.34	-52.7	-54.8	6.2	0.00e+00	0	46	104	0	77	17861
2026-01-19 09:31:41.48	20.81	5.42	-52.7	-54.8	6.2	0.00e+00	0	46	104	0	77	17806
2026-01-19 09:31:42.49	20.81	5.51	-52.9	-54.9	6.2	0.00e+00	0	46	104	0	77	18155
2026-01-19 09:31:43.50	20.81	5.59	-52.7	-54.8	6.2	0.00e+00	0	47	104	0	77	17941
2026-01-19 09:31:44.51	20.81	5.67	-51.7	-53.4	6.3	0.00e+00	0	46	104	0	75	16968
2026-01-19 09:31:45.51	20.80	5.75	-50.2	-51.3	6.7	0.00e+00	0	46	104	0	72	15853
2026-01-19 09:31:46.52	20.80	5.84	-51.1	-52.5	6.4	0.00e+00	0	47	104	0	73	17232
2026-01-19 09:31:47.53	20.80	5.92	-50.5	-51.6	6.5	0.00e+00	0	46	104	0	72	16556
2026-01-19 09:31:48.54	20.80	6.01	-49.7	-50.5	6.9	0.00e+00	0	47	104	0	71	15437
2026-01-19 09:31:49.55	20.79	6.09	-48.4	-49.0	7.6	0.00e+00	0	47	104	0	68	15323
2026-01-19 09:31:50.55	20.79	6.18	-50.1	-51.1	6.8	0.00e+00	0	47	104	0	70	17520
2026-01-19 09:31:51.56	20.79	6.27	-45.4	-45.5	9.2	0.00e+00	19	47	104	0	63	13695
2026-01-19 09:31:52.57	20.78	6.35	-40.9	-40.9	12.0	0.00e+00	260	49	0	8388608	53	14332
2026-01-19 09:31:53.58	20.78	6.44	-41.7	-41.7	11.7	1.11e-01	100	49	0	125829120	53	15673
2026-01-19 09:31:54.58	20.78	6.52	-41.4	-41.3	11.9	1.11e-01	1132	50	0	234881024	54	14210
2026-01-19 09:31:55.59	20.77	6.61	-40.4	-40.4	12.4	1.11e-01	0	49	0	352321536	52	14334
2026-01-19 09:31:56.60	20.77	6.70	-40.3	-40.2	12.6	2.22e-01	0	49	0	461373440	51	14896
2026-01-19 09:31:57.61	20.77	6.79	-39.6	-39.5	13.0	2.22e-01	0	49	0	570425344	51	13777
2026-01-19 09:31:58.62	20.76	6.88	-39.7	-39.6	13.0	8.78e-02	0	49	0	687865856	51	13903
2026-01-19 09:31:59.62	20.76	6.97	-39.6	-39.5	13.1	8.78e-02	0	49	0	796917760	51	13709
2026-01-19 09:32:00.63	20.76	7.06	-39.1	-39.1	13.3	8.78e-02	0	49	0	914358272	50	13823
2026-01-19 09:32:01.64	20.75	7.15	-39.4	-39.4	13.2	8.78e-02	0	49	0	1023410176	50	14284
2026-01-19 09:32:02.65	20.75	7.24	-38.9	-38.8	13.4	6.05e-02	0	49	0	1132462080	49	14204
2026-01-19 09:32:03.66	20.75	7.33	-38.7	-38.7	13.5	6.05e-02	0	49	0	1258291200	49	13965
2026-01-19 09:32:04.67	20.74	7.42	-39.1	-39.0	13.3	4.52e-02	0	49	0	1375731712	49	14550
2026-01-19 09:32:05.67	20.74	7.51	-38.3	-38.2	13.8	4.52e-02	0	49	0	1484783616	48	14027
2026-01-19 09:32:06.68	20.73	7.60	-38.8	-38.7	13.5	4.42e-02	0	49	0	1593835520	48	14843
2026-01-19 09:32:07.69	20.73	7.69	-38.6	-38.5	13.6	4.42e-02	0	50	0	1711276032	48	14521
2026-01-19 09:32:08.70	20.73	7.79	-38.5	-38.4	13.7	4.42e-02	0	49	0	1820327936	48	14379
2026-01-19 09:32:09.70	20.72	7.88	-38.3	-38.2	13.8	4.42e-02	0	50	0	1937768448	48	14022
2026-01-19 09:32:10.71	20.72	7.97	-38.4	-38.3	13.7	3.91e-02	0	49	0	2046820352	48	14209
2026-01-19 09:32:11.72	20.71	8.07	-38.4	-38.3	13.7	3.91e-02	0	50	0	2164260864	48	14244
2026-01-19 09:32:12.73	20.71	8.16	-38.3	-38.2	13.8	3.69e-02	0	50	0	2273312768	48	14093
2026-01-19 09:32:13.74	20.71	8.26	-38.3	-38.2	13.8	3.69e-02	0	50	0	2382364672	48	13996
2026-01-19 09:32:14.74	20.70	8.35	-38.1	-38.1	13.9	3.69e-02	0	50	0	2499805184	48	13797
2026-01-19 09:32:15.75	20.70	8.45	-38.2	-38.1	13.8	3.36e-02	0	50	0	2608857088	48	13948
2026-01-19 09:32:16.76	20.69	8.55	-38.2	-38.1	13.9	3.36e-02	0	50	0	2734686208	48	13851
2026-01-19 09:32:17.77	20.69	8.65	-37.2	-37.1	13.5	3.14e-02	0	50	0	2843738112	46	13904
2026-01-19 09:32:18.78	20.68	8.74	-37.4	-37.4	13.4	3.14e-02	0	50	0	2961178624	46	14298
2026-01-19 09:32:19.78	20.68	8.84	-37.3	-37.2	13.4	3.14e-02	0	50	0	3070230528	46	14096
2026-01-19 09:32:20.79	20.67	8.94	-37.3	-37.2	13.4	4.82e-02	0	50	0	3187671040	46	14034
2026-01-19 09:32:21.80	20.67	9.04	-37.0	-37.0	13.6	4.82e-02	0	50	0	3296722944	46	13669
2026-01-19 09:32:22.81	20.66	9.14	-37.2	-37.1	13.5	4.37e-02	0	50	0	3405774848	45	14670
2026-01-19 09:32:23.81	20.66	9.24	-37.1	-37.0	13.5	4.37e-02	0	50	0	3523215360	45	14596
2026-01-19 09:32:24.82	20.65	9.34	-37.1	-37.1	13.5	4.37e-02	0	50	0	3632267264	45	14636
2026-01-19 09:32:25.83	20.65	9.44	-37.2	-37.1	13.5	4.47e-02	0	50	0	3749707776	45	14758
2026-01-19 09:32:26.84	20.64	9.54	-37.1	-37.0	13.6	4.47e-02	0	50	0	3858759680	45	14536
2026-01-19 09:32:27.84	20.64	9.65	-37.2	-37.1	13.5	4.47e-02	0	51	0	3967811584	45	14755
2026-01-19 09:32:28.85	20.63	9.75	-36.9	-36.8	13.7	4.30e-02	0	50	0	4085252096	45	14160
2026-01-19 09:32:29.86	20.63	9.85	-36.7	-36.6	13.8	4.30e-02	0	51	0	4211081216	45	13902
2026-01-19 09:32:30.87	20.62	9.96	-36.7	-36.6	13.8	4.30e-02	0	51	0	4320133120	45	13897
2026-01-19 09:32:31.88	20.61	10.06	-36.8	-36.8	13.7	3.48e-02	0	51	0	4429185024	45	14125
2026-01-19 09:32:32.88	20.61	10.17	-36.7	-36.6	13.8	3.48e-02	0	51	0	4546625536	45	13877
2026-01-19 09:32:33.89	20.60	10.27	-36.4	-36.4	13.9	3.48e-02	0	50	0	4655677440	44	14287
2026-01-19 09:32:34.90	20.60	10.38	-36.4	-36.3	13.9	3.11e-02	0	51	0	4773117952	44	14225
2026-01-19 09:32:35.91	20.59	10.49	-36.7	-36.6	13.8	3.11e-02	0	51	0	4882169856	44	14650
2026-01-19 09:32:36.92	20.58	10.59	-36.7	-36.6	13.8	3.11e-02	0	51	0	4999610368	44	14717
2026-01-19 09:32:37.92	20.58	10.70	-36.6	-36.6	13.8	3.23e-02	0	51	0	5108662272	44	14621
2026-01-19 09:32:38.93	20.57	10.81	-36.3	-36.2	14.0	3.23e-02	0	51	0	5217714176	44	14047
2026-01-19 09:32:39.94	20.57	10.92	-36.1	-36.0	14.1	2.88e-02	0	51	0	5335154688	44	13790
2026-01-19 09:32:40.94	20.56	11.03	-36.3	-36.2	14.0	2.88e-02	0	51	0	5444206592	44	14066
2026-01-19 09:32:41.95	20.55	11.14	-36.2	-36.1	14.0	2.88e-02	0	51	0	5561647104	44	13917
2026-01-19 09:32:42.96	20.54	11.25	-36.1	-36.0	14.1	2.58e-02	0	51	0	5679087616	44	13775
2026-01-19 09:32:43.97	20.54	11.37	-36.2	-36.1	14.1	2.58e-02	0	51	0	5796528128	44	13836
2026-01-19 09:32:44.98	20.53	11.48	-36.0	-35.9	14.2	2.58e-02	0	51	0	5905580032	43	14411
2026-01-19 09:32:45.99	20.52	11.59	-36.0	-35.9	14.2	2.33e-02	0	51	0	6014631936	43	14350
2026-01-19 09:32:46.99	20.52	11.71	-36.0	-35.9	14.2	2.33e-02	0	51	0	6132072448	43	14347
2026-01-19 09:32:48.00	20.51	11.82	-36.0	-35.9	14.2	2.33e-02	0	51	0	6241124352	43	14430
2026-01-19 09:32:49.01	20.50	11.94	-36.0	-35.9	14.2	2.05e-02	0	51	0	6358564864	43	14358
2026-01-19 09:32:50.02	20.49	12.06	-36.0	-35.9	14.2	2.05e-02	0	51	0	6467616768	43	14316
2026-01-19 09:32:51.02	20.49	12.17	-35.8	-35.7	14.3	2.02e-02	0	51	0	6585057280	43	14032
2026-01-19 09:32:52.03	20.48	12.29	-35.8	-35.7	14.3	2.02e-02	0	51	0	6694109184	43	13991
2026-01-19 09:32:53.04	20.47	12.41	-35.6	-35.5	14.4	2.02e-02	0	51	0	6803161088	43	13706
2026-01-19 09:32:54.05	20.46	12.53	-35.6	-35.5	14.4	1.75e-02	0	51	0	6920601600	43	13689
2026-01-19 09:32:55.06	20.45	12.65	-35.7	-35.6	14.4	1.75e-02	0	51	0	7046430720	43	13871
2026-01-19 09:32:56.07	20.45	12.77	-35.6	-35.5	14.5	1.75e-02	0	51	0	7155482624	43	13662
2026-01-19 09:32:57.07	20.44	12.89	-35.5	-35.4	14.4	1.62e-02	0	51	0	7264534528	43	13623
2026-01-19 09:32:58.08	20.43	13.01	-35.6	-35.6	14.4	1.62e-02	0	51	0	7381975040	43	13819
2026-01-19 09:32:59.09	20.42	13.14	-35.3	-35.2	14.5	1.56e-02	0	52	0	7491026944	42	14098
2026-01-19 09:33:00.10	20.41	13.26	-35.3	-35.2	14.6	1.56e-02	0	51	0	7608467456	42	14012
2026-01-19 09:33:01.10	20.40	13.39	-35.3	-35.2	14.5	1.56e-02	0	51	0	7717519360	42	14091
2026-01-19 09:33:02.11	20.39	13.51	-35.3	-35.2	14.5	1.56e-02	0	51	0	7826571264	42	14062
2026-01-19 09:33:03.12	20.39	13.64	-35.4	-35.3	14.5	1.29e-02	0	52	0	7944011776	42	14138
2026-01-19 09:33:04.13	20.38	13.77	-35.3	-35.2	14.5	1.29e-02	0	51	0	8053063680	42	14109
2026-01-19 09:33:05.14	20.37	13.90	-35.1	-35.0	14.6	1.29e-02	0	51	0	8170504192	42	13783
2026-01-19 09:33:06.14	20.36	14.03	-35.2	-35.1	14.6	1.25e-02	0	51	0	8279556096	42	13889
2026-01-19 09:33:07.15	20.35	14.16	-35.3	-35.2	14.6	1.25e-02	0	52	0	8396996608	42	14008
2026-01-19 09:33:08.16	20.34	14.29	-35.1	-35.0	14.6	1.25e-02	0	51	0	8514437120	42	13761
2026-01-19 09:33:09.17	20.33	14.42	-35.0	-34.9	14.7	1.15e-02	0	52	0	8631877632	42	13562
2026-01-19 09:33:10.18	20.32	14.55	-34.9	-34.8	14.7	1.15e-02	0	51	0	8740929536	41	14201
2026-01-19 09:33:11.18	20.31	14.69	-34.8	-34.7	14.8	1.04e-02	0	51	0	8858370048	41	14088
2026-01-19 09:33:12.19	20.30	14.82	-34.8	-34.8	14.8	1.04e-02	0	52	0	8967421952	41	14114
2026-01-19 09:33:13.20	20.29	14.96	-34.7	-34.6	14.8	1.04e-02	0	51	0	9076473856	41	13843
2026-01-19 09:33:14.21	20.27	15.10	-34.8	-34.7	14.8	9.18e-03	0	52	0	9193914368	41	14022
2026-01-19 09:33:15.21	20.26	15.23	-34.8	-34.7	14.8	9.18e-03	0	52	0	9302966272	41	13976
2026-01-19 09:33:16.22	20.25	15.37	-34.7	-34.6	14.8	8.52e-03	0	52	0	9420406784	41	13837
2026-01-19 09:33:17.23	20.24	15.51	-34.6	-34.5	14.9	8.52e-03	0	52	0	9529458688	41	13645
2026-01-19 09:33:18.24	20.23	15.65	-34.4	-34.3	14.9	8.52e-03	0	52	0	9638510592	40	14193
2026-01-19 09:33:19.25	20.22	15.80	-34.2	-34.1	15.0	7.79e-03	0	52	0	9755951104	40	13937
2026-01-19 09:33:20.25	20.21	15.94	-34.2	-34.2	15.0	7.79e-03	0	52	0	9865003008	40	13955
2026-01-19 09:33:21.26	20.19	16.08	-34.2	-34.1	15.0	7.79e-03	0	52	0	9990832128	40	13859
2026-01-19 09:33:22.27	20.18	16.23	-34.2	-34.1	15.0	6.23e-03	0	52	0	10099884032	40	13855
2026-01-19 09:33:23.28	20.17	16.38	-34.2	-34.1	15.0	6.23e-03	0	52	0	10217324544	40	13866
2026-01-19 09:33:24.29	20.16	16.52	-34.0	-33.9	15.1	5.98e-03	0	52	0	10326376448	40	13597
2026-01-19 09:33:25.29	20.14	16.67	-34.0	-33.9	15.1	5.98e-03	0	52	0	10443816960	40	13605
2026-01-19 09:33:26.30	20.13	16.82	-34.0	-33.9	15.1	5.98e-03	0	52	0	10552868864	40	13572
2026-01-19 09:33:27.31	20.12	16.97	-33.9	-33.8	15.2	5.22e-03	0	52	0	10661920768	39	14226
2026-01-19 09:33:28.32	20.11	17.13	-33.8	-33.7	15.2	5.22e-03	0	52	0	10779361280	39	13970
2026-01-19 09:33:29.33	20.09	17.28	-33.7	-33.6	15.2	5.22e-03	0	52	0	10888413184	39	13935
2026-01-19 09:33:30.33	20.08	17.43	-33.9	-33.8	15.2	4.45e-03	0	52	0	11005853696	39	14124
2026-01-19 09:33:31.35	20.06	17.59	-33.7	-33.6	15.2	4.45e-03	0	52	0	11114905600	39	13798
2026-01-19 09:33:32.35	20.05	17.75	-33.5	-33.4	15.3	3.60e-03	0	52	0	11223957504	39	13584
2026-01-19 09:33:33.36	20.04	17.91	-33.4	-33.4	15.3	3.60e-03	0	52	0	11349786624	38	14286
2026-01-19 09:33:34.37	20.02	18.07	-33.4	-33.3	15.3	3.60e-03	0	52	0	11467227136	38	14141
2026-01-19 09:33:35.37	20.01	18.23	-33.1	-33.0	15.4	2.76e-03	0	52	0	11576279040	38	13721
2026-01-19 09:33:36.38	19.99	18.39	-33.3	-33.2	15.4	2.76e-03	0	52	0	11685330944	38	14109
2026-01-19 09:33:37.39	19.98	18.56	-33.3	-33.2	15.4	2.76e-03	0	52	0	11802771456	38	14032
2026-01-19 09:33:38.40	19.96	18.72	-33.5	-33.4	15.3	2.36e-03	0	52	0	11911823360	38	14341
2026-01-19 09:33:39.40	19.94	18.89	-33.1	-33.1	15.4	2.36e-03	0	52	0	12029263872	38	13799
2026-01-19 09:33:40.41	19.93	19.06	-32.9	-32.8	15.5	2.36e-03	0	52	0	12138315776	37	14207
2026-01-19 09:33:41.42	19.91	19.23	-32.9	-32.8	15.5	2.34e-03	0	52	0	12255756288	37	14151
2026-01-19 09:33:42.43	19.89	19.40	-32.9	-32.8	15.5	2.34e-03	0	52	0	12364808192	37	14141
2026-01-19 09:33:43.44	19.88	19.57	-33.1	-33.1	15.4	1.74e-03	0	52	0	12473860096	37	14627
2026-01-19 09:33:44.44	19.86	19.74	-32.7	-32.6	15.5	1.74e-03	0	52	0	12591300608	37	13938
2026-01-19 09:33:45.45	19.84	19.92	-32.6	-32.5	15.6	1.74e-03	0	52	0	12700352512	37	13666
2026-01-19 09:33:46.46	19.83	20.10	-32.6	-32.5	15.6	1.45e-03	0	52	0	12826181632	37	13717
2026-01-19 09:33:47.47	19.81	20.28	-32.7	-32.6	15.5	1.45e-03	0	52	0	12935233536	37	13886
2026-01-19 09:33:48.48	19.79	20.46	-32.5	-32.4	15.6	1.45e-03	0	52	0	13052674048	37	13571
2026-01-19 09:33:49.49	19.77	20.64	-32.4	-32.3	15.6	1.24e-03	0	52	0	13161725952	36	14230
2026-01-19 09:33:50.50	19.75	20.82	-32.4	-32.3	15.6	1.24e-03	0	52	0	13279166464	36	14187
2026-01-19 09:33:51.51	19.73	21.01	-32.3	-32.2	15.6	1.24e-03	0	52	0	13388218368	36	14044
2026-01-19 09:33:52.51	19.71	21.20	-32.1	-32.0	15.7	1.19e-03	0	52	0	13497270272	36	13716
2026-01-19 09:33:53.52	19.69	21.38	-32.1	-32.0	15.7	1.19e-03	0	52	0	13614710784	36	13747
2026-01-19 09:33:54.53	19.67	21.58	-32.1	-32.0	15.7	1.19e-03	0	52	0	13723762688	36	13768
2026-01-19 09:33:55.53	19.65	21.77	-32.1	-32.0	15.7	7.96e-04	0	52	0	13841203200	36	13720
2026-01-19 09:33:56.54	19.63	21.96	-29.4	-29.3	15.4	7.96e-04	0	52	0	13950255104	30	14268
2026-01-19 09:33:57.55	19.61	22.16	-29.3	-29.2	15.4	7.96e-04	0	52	0	14059307008	30	14108
2026-01-19 09:33:58.56	19.59	22.36	-29.4	-29.3	15.4	2.00e-03	0	52	0	14185136128	30	14164
2026-01-19 09:33:59.57	19.57	22.56	-29.3	-29.2	15.4	2.00e-03	0	52	0	14302576640	30	14060
2026-01-19 09:34:00.57	19.54	22.76	-29.2	-29.1	15.4	2.13e-03	0	52	0	14411628544	30	13845
2026-01-19 09:34:01.58	19.52	22.96	-29.2	-29.2	15.4	2.13e-03	0	52	0	14520680448	30	13959
2026-01-19 09:34:02.59	19.50	23.17	-29.0	-28.9	15.5	2.13e-03	0	52	0	14638120960	30	13501
2026-01-19 09:34:03.60	19.47	23.38	-28.9	-28.8	15.5	1.86e-03	0	52	0	14747172864	29	14256
2026-01-19 09:34:04.61	19.45	23.59	-28.8	-28.7	15.5	1.86e-03	0	52	0	14864613376	29	14087
2026-01-19 09:34:05.61	19.43	23.80	-28.7	-28.6	15.6	1.86e-03	0	52	0	14973665280	29	13834
2026-01-19 09:34:06.62	19.40	24.01	-28.6	-28.5	15.6	1.52e-03	0	52	0	15091105792	29	13736
2026-01-19 09:34:07.63	19.38	24.23	-28.6	-28.5	15.6	1.52e-03	0	52	0	15200157696	29	13750
2026-01-19 09:34:08.64	19.35	24.45	-28.6	-28.5	15.6	1.15e-03	0	52	0	15309209600	29	13656
2026-01-19 09:34:09.65	19.32	24.67	-28.3	-28.2	15.7	1.15e-03	0	52	0	15426650112	28	14054
2026-01-19 09:34:10.65	19.30	24.89	-28.3	-28.2	15.7	1.15e-03	0	52	0	15535702016	28	14007
2026-01-19 09:34:11.66	19.27	25.12	-28.3	-28.2	15.7	9.87e-04	0	52	0	15661531136	28	14065
2026-01-19 09:34:12.67	19.24	25.35	-28.3	-28.2	15.6	9.87e-04	0	52	0	15770583040	28	14111
2026-01-19 09:34:13.68	19.21	25.58	-28.2	-28.1	15.7	9.87e-04	0	52	0	15888023552	28	13868
2026-01-19 09:34:14.68	19.19	25.81	-28.0	-27.9	15.8	8.34e-04	0	52	0	15997075456	28	13559
2026-01-19 09:34:15.69	19.16	26.04	-28.1	-28.0	15.8	8.34e-04	0	52	0	16114515968	28	13654
2026-01-19 09:34:16.70	19.13	26.28	-28.0	-27.9	15.8	8.34e-04	0	52	0	16223567872	27	14290
2026-01-19 09:34:17.71	19.10	26.52	-28.1	-28.0	15.8	8.34e-04	0	52	0	16332619776	27	14450
2026-01-19 09:34:18.72	19.06	26.77	-27.8	-27.7	15.9	5.05e-04	0	52	0	16450060288	27	14102
2026-01-19 09:34:19.73	19.03	27.01	-27.9	-27.8	15.9	5.05e-04	0	52	0	16559112192	27	14150
2026-01-19 09:34:20.73	19.00	27.26	-27.6	-27.5	15.9	3.53e-04	0	52	0	16676552704	27	13742
2026-01-19 09:34:21.74	18.97	27.51	-27.7	-27.6	15.9	3.53e-04	0	52	0	16785604608	27	13880
2026-01-19 09:34:22.75	18.93	27.76	-27.4	-27.3	16.0	3.53e-04	0	52	0	16894656512	26	14216
2026-01-19 09:34:23.76	18.90	28.02	-27.4	-27.3	16.0	3.53e-04	0	52	0	17020485632	26	14114
2026-01-19 09:34:24.76	18.87	28.28	-27.1	-27.0	16.0	1.95e-04	0	52	0	17137926144	26	13774
2026-01-19 09:34:25.77	18.83	28.54	-26.9	-26.8	16.1	1.95e-04	0	52	0	17246978048	25	14213
2026-01-19 09:34:26.78	18.79	28.81	-26.8	-26.7	16.1	1.95e-04	0	52	0	17356029952	25	14033
2026-01-19 09:34:27.79	18.76	29.08	-26.9	-26.8	16.1	1.29e-04	0	52	0	17473470464	25	14143
2026-01-19 09:34:28.80	18.72	29.35	-26.9	-26.8	16.1	1.29e-04	0	52	0	17582522368	25	14226
2026-01-19 09:34:29.81	18.68	29.62	-26.7	-26.6	16.2	1.00e-04	0	52	0	17699962880	25	13934
2026-01-19 09:34:30.82	18.64	29.90	-26.4	-26.3	16.2	1.00e-04	0	52	0	17809014784	24	14128
2026-01-19 09:34:31.83	18.60	30.18	-26.3	-26.1	16.3	1.00e-04	0	52	0	17918066688	24	13950
2026-01-19 09:34:32.83	18.56	30.46	-26.1	-26.0	16.3	5.72e-05	0	52	0	18035507200	24	13637
2026-01-19 09:34:33.84	18.52	30.75	-26.1	-26.0	16.3	5.72e-05	0	52	0	18144559104	24	13635
2026-01-19 09:34:34.84	18.48	31.04	-25.9	-25.8	16.3	4.29e-05	0	52	0	18261999616	23	14234
2026-01-19 09:34:35.85	18.43	31.34	-25.9	-25.8	16.3	4.29e-05	0	52	0	18371051520	23	14247
2026-01-19 09:34:36.86	18.39	31.63	-25.8	-25.7	16.4	4.29e-05	0	52	0	18496880640	23	14000
2026-01-19 09:34:37.86	18.34	31.93	-25.9	-25.8	16.3	2.38e-05	0	52	0	18605932544	23	14126
2026-01-19 09:34:38.87	18.30	32.24	-25.7	-25.6	16.4	2.38e-05	0	52	0	18723373056	23	13822
2026-01-19 09:34:39.88	18.25	32.55	-25.5	-25.4	16.4	1.43e-05	0	52	0	18832424960	23	13492
2026-01-19 09:34:40.89	18.20	32.86	-25.6	-25.5	16.4	1.43e-05	0	52	0	18949865472	23	13716
2026-01-19 09:34:41.90	18.15	33.18	-25.3	-25.2	16.5	1.43e-05	0	52	0	19058917376	22	14032
2026-01-19 09:34:42.91	18.10	33.50	-25.3	-25.2	16.5	9.50e-06	0	52	0	19167969280	22	14064
2026-01-19 09:34:43.92	18.05	33.82	-24.9	-24.8	16.5	9.50e-06	0	52	0	19285409792	21	14120
2026-01-19 09:34:44.92	17.99	34.15	-24.8	-24.7	16.6	9.50e-06	0	52	0	19394461696	21	14061
2026-01-19 09:34:45.93	17.94	34.48	-24.8	-24.6	16.6	4.70e-06	0	52	0	19511902208	21	13943
2026-01-19 09:34:46.95	17.88	34.82	-24.6	-24.5	16.6	4.70e-06	0	52	0	19620954112	21	13776
2026-01-19 09:34:47.95	17.83	35.16	-24.4	-24.3	16.7	4.70e-06	0	52	0	19730006016	20	14167
2026-01-19 09:34:48.96	17.77	35.50	-24.3	-24.2	16.7	9.50e-06	0	52	0	19855835136	20	13990
2026-01-19 09:34:49.97	17.71	35.85	-24.1	-24.0	16.7	9.50e-06	0	52	0	19973275648	20	13776
2026-01-19 09:34:50.97	17.65	36.20	-24.1	-24.0	16.7	9.50e-06	0	52	0	20082327552	19	14456
2026-01-19 09:34:51.98	17.58	36.56	-23.9	-23.8	16.8	0.00e+00	0	52	0	20191379456	19	14164
2026-01-19 09:34:52.98	17.52	36.92	-23.9	-23.8	16.8	0.00e+00	0	52	0	20308819968	19	14160
2026-01-19 09:34:54.00	17.45	37.29	-23.8	-23.7	16.8	0.00e+00	0	52	0	20417871872	19	14049
2026-01-19 09:34:55.00	17.39	37.66	-23.6	-23.5	16.8	0.00e+00	0	52	0	20535312384	19	13739
2026-01-19 09:34:56.01	17.32	38.04	-23.4	-23.3	16.9	0.00e+00	0	52	0	20644364288	18	14195
2026-01-19 09:34:57.02	17.24	38.42	-23.5	-23.4	16.9	0.00e+00	0	52	0	20753416192	18	14343
2026-01-19 09:34:58.02	17.17	38.80	-23.5	-23.4	16.9	0.00e+00	0	52	0	20870856704	18	14368
2026-01-19 09:34:59.03	17.10	39.19	-23.3	-23.2	16.9	0.00e+00	0	52	0	20979908608	18	13999
2026-01-19 09:35:00.04	17.02	39.59	-23.1	-23.0	17.0	0.00e+00	0	52	0	21097349120	18	13707
2026-01-19 09:35:01.05	16.94	39.99	-22.9	-22.8	16.9	0.00e+00	0	52	0	21206401024	17	14195
2026-01-19 09:35:02.06	16.86	40.40	-22.9	-22.8	17.0	0.00e+00	0	52	0	21332230144	17	14130
2026-01-19 09:35:03.06	16.77	40.81	-22.7	-22.6	17.0	0.00e+00	0	52	0	21441282048	17	13800
2026-01-19 09:35:04.07	16.69	41.23	-22.6	-22.5	17.0	0.00e+00	0	52	0	21558722560	17	13690
2026-01-19 09:35:05.08	16.60	41.65	-22.6	-22.5	17.1	0.00e+00	0	52	0	21667774464	17	13695
2026-01-19 09:35:06.09	16.51	42.08	-22.4	-22.3	17.1	0.00e+00	0	52	0	21776826368	16	14152
2026-01-19 09:35:07.10	16.41	42.51	-22.3	-22.2	17.1	0.00e+00	0	52	0	21894266880	16	13976
2026-01-19 09:35:08.11	16.32	42.95	-22.1	-21.9	17.1	0.00e+00	0	52	0	22003318784	16	13629
2026-01-19 09:35:09.11	16.22	43.40	-22.0	-21.9	17.1	0.00e+00	0	52	0	22120759296	16	13536
2026-01-19 09:35:10.12	16.12	43.85	-22.1	-21.9	17.1	0.00e+00	0	52	0	22229811200	16	13596
2026-01-19 09:35:11.12	16.01	44.30	-21.8	-21.6	17.2	0.00e+00	0	52	0	22347251712	15	13945
2026-01-19 09:35:12.13	15.90	44.76	-21.6	-21.5	17.2	0.00e+00	0	52	0	22456303616	15	13771
2026-01-19 09:35:13.13	15.79	45.23	-21.6	-21.4	17.2	0.00e+00	0	52	0	22565355520	15	13595
2026-01-19 09:35:14.14	15.67	45.70	-21.3	-21.1	17.2	0.00e+00	0	52	0	22682796032	14	13940
2026-01-19 09:35:15.14	15.55	46.18	-21.3	-21.1	17.3	0.00e+00	0	52	0	22791847936	14	13929
2026-01-19 09:35:16.16	15.43	46.67	-21.1	-21.0	17.3	0.00e+00	0	52	0	22917677056	14	13709
2026-01-19 09:35:17.16	15.30	47.16	-21.2	-21.1	17.3	0.00e+00	0	52	0	23026728960	14	13809
2026-01-19 09:35:18.17	15.17	47.67	-21.1	-20.9	17.3	0.00e+00	0	52	0	23144169472	14	13588
2026-01-19 09:35:19.17	15.03	48.17	-21.0	-20.9	17.3	0.00e+00	0	52	0	23253221376	14	13519
2026-01-19 09:35:20.18	14.89	48.68	-20.8	-20.7	17.4	0.00e+00	0	52	0	23370661888	13	13993
2026-01-19 09:35:21.19	14.74	49.20	-20.6	-20.5	17.4	0.00e+00	0	52	0	23479713792	13	13636
2026-01-19 09:35:22.19	14.59	49.72	-20.6	-20.4	17.4	0.00e+00	0	52	0	23588765696	13	13594
2026-01-19 09:35:23.20	14.43	50.26	-20.4	-20.3	17.4	0.00e+00	0	52	0	23706206208	12	14133
2026-01-19 09:35:24.21	14.27	50.80	-20.3	-20.1	17.4	0.00e+00	0	52	0	23815258112	12	13943
2026-01-19 09:35:25.22	14.09	51.34	-20.2	-20.1	17.5	0.00e+00	0	52	0	23932698624	12	13823
2026-01-19 09:35:26.23	13.92	51.90	-20.2	-20.1	17.5	0.00e+00	0	52	0	24041750528	12	13820
2026-01-19 09:35:27.24	13.73	52.46	-20.1	-19.9	17.5	0.00e+00	0	52	0	24150802432	12	13610
2026-01-19 09:35:28.25	13.54	53.02	-20.1	-19.9	17.6	0.00e+00	0	52	0	24268242944	11	14438
2026-01-19 09:35:29.25	13.34	53.59	-19.8	-19.7	17.6	0.00e+00	0	52	0	24377294848	11	13993
2026-01-19 09:35:30.26	13.13	54.17	-19.9	-19.8	17.5	0.00e+00	0	52	0	24503123968	11	14122
2026-01-19 09:35:31.27	12.91	54.76	-19.8	-19.7	17.6	0.00e+00	0	52	0	24612175872	11	14028
2026-01-19 09:35:32.28	12.69	55.36	-19.8	-19.7	17.6	0.00e+00	0	52	0	24729616384	11	14008
2026-01-19 09:35:33.28	12.45	55.95	-19.6	-19.4	17.6	0.00e+00	0	52	0	24838668288	11	13589
2026-01-19 09:35:34.29	12.20	56.56	-19.6	-19.4	17.6	0.00e+00	0	52	0	24956108800	11	13582
2026-01-19 09:35:35.30	11.94	57.18	-19.6	-19.4	17.7	0.00e+00	0	52	0	25065160704	11	13623
2026-01-19 09:35:36.30	11.67	57.79	-19.2	-19.1	17.7	0.00e+00	0	52	0	25174212608	10	13877
2026-01-19 09:35:37.31	11.39	58.42	-19.3	-19.2	17.7	0.00e+00	0	52	0	25291653120	10	14002
2026-01-19 09:35:38.32	11.09	59.05	-19.2	-19.0	17.7	0.00e+00	0	52	0	25400705024	10	13748
2026-01-19 09:35:39.33	10.77	59.70	-19.0	-18.9	17.7	0.00e+00	0	52	0	25518145536	10	13520
2026-01-19 09:35:40.34	10.44	60.34	-19.1	-18.9	17.7	0.00e+00	0	52	0	25627197440	10	13590
2026-01-19 09:35:41.35	10.09	61.00	-18.9	-18.8	17.7	0.00e+00	0	52	0	25744637952	9	14139
2026-01-19 09:35:42.36	9.72	61.66	-18.8	-18.6	17.8	0.00e+00	0	52	0	25862078464	9	13918
2026-01-19 09:35:43.36	9.34	62.32	-18.8	-18.7	17.8	0.00e+00	0	52	0	25979518976	9	14035
2026-01-19 09:35:44.37	8.93	62.99	-18.9	-18.7	17.8	0.00e+00	0	52	0	26088570880	9	14055
2026-01-19 09:35:45.38	8.49	63.67	-18.7	-18.6	17.8	0.00e+00	0	52	0	26206011392	9	13861
2026-01-19 09:35:46.38	8.03	64.35	-18.6	-18.4	17.8	0.00e+00	0	52	0	26315063296	9	13575
2026-01-19 09:35:47.39	7.54	65.04	-18.6	-18.5	17.8	0.00e+00	0	52	0	26424115200	9	13677
2026-01-19 09:35:48.40	7.02	65.73	-18.5	-18.4	17.8	0.00e+00	0	52	0	26541555712	9	13509
2026-01-19 09:35:49.41	6.46	66.43	-18.5	-18.4	17.9	0.00e+00	0	52	0	26650607616	9	13484
2026-01-19 09:35:50.42	5.86	67.14	-18.6	-18.4	17.9	0.00e+00	0	52	0	26768048128	9	13623
2026-01-19 09:35:51.42	5.23	67.84	-18.5	-18.4	17.8	0.00e+00	0	52	0	26877100032	9	13492
2026-01-19 09:35:52.43	4.54	68.55	-18.6	-18.5	17.8	0.00e+00	0	52	0	26986151936	9	13658
2026-01-19 09:35:53.43	3.81	69.25	-18.5	-18.3	17.9	0.00e+00	0	52	0	27103592448	9	13431
2026-01-19 09:35:54.44	3.02	69.97	-18.6	-18.5	17.8	0.00e+00	0	52	0	27212644352	9	13652
2026-01-19 09:35:55.45	2.16	70.69	-18.3	-18.2	17.8	0.00e+00	0	52	0	27330084864	8	14004
2026-01-19 09:35:56.46	1.23	71.41	-18.3	-18.2	17.8	0.00e+00	0	52	0	27447525376	8	13960
2026-01-19 09:35:57.46	0.23	72.12	-18.3	-18.1	17.8	0.00e+00	0	52	0	27564965888	8	13896
2026-01-19 09:35:58.47	359.13	72.84	-18.3	-18.2	17.8	0.00e+00	0	52	0	27674017792	8	14014
2026-01-19 09:35:59.47	357.95	73.55	-18.3	-18.1	17.8	0.00e+00	0	52	0	27791458304	8	13906
2026-01-19 09:36:00.48	356.63	74.26	-18.1	-18.0	17.8	0.00e+00	0	52	0	27900510208	8	13698
2026-01-19 09:36:01.49	355.18	74.97	-18.2	-18.1	17.8	0.00e+00	0	52	0	28009562112	8	13798
2026-01-19 09:36:02.49	353.60	75.67	-18.2	-18.0	17.8	0.00e+00	0	52	0	28127002624	8	13753
2026-01-19 09:36:03.50	351.84	76.37	-18.2	-18.1	17.8	0.00e+00	0	52	0	28236054528	8	13811
2026-01-19 09:36:04.51	349.88	77.05	-18.3	-18.1	17.8	0.00e+00	0	52	0	28353495040	8	13916
2026-01-19 09:36:05.51	347.71	77.72	-18.2	-18.0	17.8	0.00e+00	0	52	0	28462546944	8	13766
2026-01-19 09:36:06.52	345.27	78.38	-18.3	-18.1	17.8	0.00e+00	0	52	0	28579987456	8	13913
2026-01-19 09:36:07.53	342.54	79.01	-18.3	-18.1	17.8	0.00e+00	0	52	0	28689039360	8	13880
2026-01-19 09:36:08.54	339.46	79.62	-18.2	-18.0	17.8	0.00e+00	0	52	0	28798091264	8	13728
2026-01-19 09:36:09.55	336.00	80.20	-18.3	-18.1	17.8	0.00e+00	0	52	0	28915531776	8	13891
2026-01-19 09:36:10.55	332.16	80.74	-18.2	-18.0	17.9	0.00e+00	0	52	0	29024583680	8	13737
2026-01-19 09:36:11.56	327.81	81.24	-18.3	-18.1	17.8	0.00e+00	0	52	0	29150412800	8	13874
2026-01-19 09:36:12.57	322.96	81.68	-18.3	-18.2	17.8	0.00e+00	0	52	0	29259464704	8	13976
2026-01-19 09:36:13.58	317.60	82.06	-18.2	-18.0	17.9	0.00e+00	0	52	0	29376905216	8	13773
2026-01-19 09:36:14.58	311.82	82.36	-18.3	-18.2	17.9	0.00e+00	0	52	0	29485957120	8	14002
2026-01-19 09:36:15.59	305.57	82.57	-18.2	-18.0	17.9	0.00e+00	0	52	0	29603397632	8	13671
2026-01-19 09:36:16.60	299.01	82.70	-18.2	-18.0	17.9	0.00e+00	0	52	0	29712449536	8	13713
2026-01-19 09:36:17.61	292.31	82.73	-18.1	-18.0	17.9	0.00e+00	0	52	0	29821501440	8	13650
2026-01-19 09:36:18.62	285.65	82.66	-18.3	-18.1	17.9	0.00e+00	0	52	0	29938941952	8	13875
2026-01-19 09:36:19.62	279.26	82.50	-18.3	-18.1	17.9	0.00e+00	0	52	0	30047993856	8	13880
2026-01-19 09:36:20.63	273.16	82.25	-18.1	-18.0	17.9	0.00e+00	0	52	0	30165434368	8	13680
2026-01-19 09:36:21.64	267.50	81.91	-18.3	-18.1	17.9	0.00e+00	0	52	0	30274486272	8	13916
2026-01-19 09:36:22.65	262.35	81.51	-18.2	-18.0	18.0	0.00e+00	0	52	0	30383538176	8	13782
2026-01-19 09:36:23.66	257.70	81.04	-18.2	-18.0	17.9	0.00e+00	0	52	0	30509367296	8	13757
2026-01-19 09:36:24.66	253.59	80.53	-18.2	-18.0	18.0	0.00e+00	0	52	0	30626807808	8	13770
2026-01-19 09:36:25.67	249.88	79.97	-18.2	-18.0	17.9	0.00e+00	0	52	0	30735859712	8	13786
2026-01-19 09:36:26.68	246.58	79.38	-18.2	-18.0	17.9	0.00e+00	0	52	0	30844911616	8	13773
2026-01-19 09:36:27.69	243.65	78.76	-18.2	-18.1	17.9	0.00e+00	0	52	0	30962352128	8	13820
2026-01-19 09:36:28.69	241.06	78.12	-18.3	-18.2	17.9	0.00e+00	0	52	0	31071404032	8	13988
2026-01-19 09:36:29.70	238.72	77.45	-18.3	-18.1	17.9	0.00e+00	0	52	0	31188844544	8	13909
2026-01-19 09:36:30.70	236.65	76.78	-18.4	-18.3	17.8	0.00e+00	0	52	0	31297896448	8	14166
2026-01-19 09:36:31.71	234.77	76.09	-18.5	-18.3	17.8	0.00e+00	0	52	0	31406948352	8	14211
2026-01-19 09:36:32.72	233.07	75.39	-18.6	-18.5	17.8	0.00e+00	0	52	0	31524388864	8	14455
2026-01-19 09:36:33.73	231.54	74.68	-18.4	-18.3	17.8	0.00e+00	0	52	0	31633440768	8	14166
2026-01-19 09:36:34.74	230.15	73.97	-18.4	-18.3	17.8	0.00e+00	0	52	0	31750881280	8	14211
2026-01-19 09:36:35.74	228.89	73.26	-18.3	-18.2	17.8	0.00e+00	0	52	0	31859933184	8	14008
2026-01-19 09:36:36.75	227.73	72.54	-18.4	-18.3	17.7	0.00e+00	0	52	0	31977373696	8	14198
2026-01-19 09:36:37.76	226.67	71.82	-18.4	-18.2	17.8	0.00e+00	0	52	0	32094814208	8	14091
2026-01-19 09:36:38.76	225.71	71.10	-18.5	-18.4	17.7	0.00e+00	0	52	0	32212254720	8	14297
2026-01-19 09:36:39.77	224.81	70.38	-18.4	-18.2	17.7	0.00e+00	0	52	0	32321306624	8	14098
2026-01-19 09:36:40.78	223.97	69.67	-18.4	-18.3	17.7	0.00e+00	0	52	0	32430358528	8	14147
2026-01-19 09:36:41.79	223.20	68.95	-18.4	-18.3	17.7	0.00e+00	0	52	0	32547799040	8	14181
2026-01-19 09:36:42.80	222.49	68.24	-18.4	-18.2	17.7	0.00e+00	0	52	0	32656850944	8	14109
2026-01-19 09:36:43.80	221.83	67.53	-18.6	-18.4	17.7	0.00e+00	0	52	0	32774291456	8	14407
2026-01-19 09:36:44.81	221.21	66.82	-18.6	-18.5	17.7	0.00e+00	0	52	0	32883343360	8	14504
2026-01-19 09:36:45.82	220.63	66.12	-18.6	-18.4	17.7	0.00e+00	0	52	0	33000783872	8	14395
2026-01-19 09:36:46.83	220.08	65.42	-18.7	-18.6	17.7	0.00e+00	0	52	0	33109835776	8	14661
2026-01-19 09:36:47.84	219.57	64.73	-18.6	-18.5	17.7	0.00e+00	0	52	0	33218887680	8	14494
2026-01-19 09:36:48.84	219.10	64.05	-18.8	-18.6	17.7	0.00e+00	0	52	0	33336328192	8	14744
2026-01-19 09:36:49.85	218.65	63.36	-18.8	-18.6	17.7	0.00e+00	0	52	0	33445380096	8	14697
2026-01-19 09:36:50.86	218.22	62.69	-18.9	-18.7	17.7	0.00e+00	0	52	0	33571209216	8	14875
2026-01-19 09:36:51.86	217.82	62.02	-18.9	-18.7	17.8	0.00e+00	0	52	0	33680261120	8	14895
2026-01-19 09:36:52.87	217.44	61.36	-19.0	-18.9	17.7	0.00e+00	0	52	0	33797701632	8	15142
2026-01-19 09:36:53.88	217.08	60.70	-19.0	-18.8	17.8	0.00e+00	0	52	0	33906753536	8	15068
2026-01-19 09:36:54.89	216.74	60.04	-19.1	-19.0	17.8	0.00e+00	0	52	0	34024194048	8	15379
2026-01-19 09:36:55.89	216.42	59.40	-19.2	-19.1	17.8	0.00e+00	0	52	0	34133245952	9	14635
2026-01-19 09:36:56.90	216.11	58.76	-19.2	-19.1	17.8	0.00e+00	0	52	0	34242297856	9	14675
2026-01-19 09:36:57.91	215.81	58.13	-19.3	-19.2	17.8	0.00e+00	0	52	0	34359738368	9	14831
2026-01-19 09:36:58.92	215.53	57.50	-19.5	-19.3	17.8	0.00e+00	0	52	0	34468790272	9	15094
2026-01-19 09:36:59.93	215.27	56.88	-19.6	-19.4	17.8	0.00e+00	0	52	0	34586230784	9	15235
2026-01-19 09:37:00.94	215.01	56.27	-19.5	-19.4	17.8	0.00e+00	0	52	0	34695282688	9	15132
2026-01-19 09:37:01.94	214.77	55.67	-19.6	-19.4	17.7	0.00e+00	0	52	0	34804334592	9	15266
2026-01-19 09:37:02.95	214.54	55.07	-19.7	-19.6	17.8	0.00e+00	0	52	0	34921775104	10	14637
2026-01-19 09:37:03.96	214.31	54.47	-19.9	-19.7	17.8	0.00e+00	0	52	0	35047604224	10	14897
2026-01-19 09:37:04.97	214.10	53.89	-19.8	-19.7	17.7	0.00e+00	0	52	0	35156656128	10	14870
2026-01-19 09:37:05.98	213.89	53.31	-19.9	-19.8	17.7	0.00e+00	0	52	0	35265708032	10	15042
2026-01-19 09:37:06.98	213.70	52.74	-20.0	-19.9	17.6	0.00e+00	0	52	0	35383148544	10	15155
2026-01-19 09:37:07.99	213.51	52.17	-20.2	-20.1	17.6	0.00e+00	0	52	0	35492200448	10	15490
2026-01-19 09:37:09.00	213.33	51.62	-20.4	-20.2	17.6	0.00e+00	0	52	0	35609640960	11	14913
2026-01-19 09:37:10.01	213.15	51.06	-20.4	-20.3	17.6	0.00e+00	0	52	0	35718692864	11	14963
2026-01-19 09:37:11.02	212.98	50.52	-20.6	-20.4	17.6	0.00e+00	0	52	0	35836133376	11	15255
2026-01-19 09:37:12.03	212.82	49.98	-20.6	-20.5	17.5	0.00e+00	0	52	0	35945185280	11	15358
2026-01-19 09:37:13.04	212.66	49.45	-20.6	-20.5	17.6	0.00e+00	0	52	0	36054237184	12	14484
2026-01-19 09:37:14.04	212.51	48.93	-20.6	-20.5	17.5	0.00e+00	0	52	0	36171677696	12	14474
2026-01-19 09:37:15.05	212.37	48.41	-20.8	-20.6	17.5	0.00e+00	0	52	0	36280729600	12	14771
2026-01-19 09:37:16.06	212.23	47.90	-20.9	-20.8	17.4	0.00e+00	0	52	0	36406558720	12	15017
2026-01-19 09:37:17.07	212.09	47.39	-21.0	-20.9	17.4	0.00e+00	0	52	0	36515610624	12	15179
2026-01-19 09:37:18.07	211.96	46.90	-21.0	-20.9	17.4	0.00e+00	0	52	0	36633051136	12	15133
2026-01-19 09:37:19.08	211.84	46.40	-21.2	-21.0	17.4	0.00e+00	0	52	0	36742103040	12	15472
2026-01-19 09:37:20.09	211.71	45.92	-21.3	-21.2	17.4	0.00e+00	0	52	0	36859543552	13	14825
2026-01-19 09:37:21.10	211.59	45.44	-21.4	-21.2	17.4	0.00e+00	0	52	0	36968595456	13	14899
2026-01-19 09:37:22.11	211.48	44.96	-21.5	-21.4	17.4	0.00e+00	0	52	0	37077647360	13	15211
2026-01-19 09:37:23.11	211.37	44.50	-21.6	-21.5	17.4	0.00e+00	0	52	0	37195087872	13	15351
2026-01-19 09:37:24.12	211.26	44.04	-21.7	-21.5	17.3	0.00e+00	0	52	0	37304139776	13	15457
2026-01-19 09:37:25.13	211.16	43.58	-21.8	-21.7	17.3	0.00e+00	0	52	0	37421580288	14	14779
2026-01-19 09:37:26.13	211.05	43.13	-21.9	-21.8	17.3	0.00e+00	0	52	0	37530632192	14	15021
2026-01-19 09:37:27.14	210.96	42.69	-22.0	-21.9	17.3	0.00e+00	0	52	0	37639684096	14	15202
2026-01-19 09:37:28.14	210.86	42.25	-22.1	-21.9	17.2	0.00e+00	0	52	0	37757124608	14	15270
2026-01-19 09:37:29.15	210.77	41.82	-22.2	-22.1	17.2	0.00e+00	0	52	0	37866176512	15	14693
2026-01-19 09:37:30.16	210.68	41.39	-22.3	-22.2	17.3	0.00e+00	0	52	0	37992005632	15	14880
2026-01-19 09:37:31.17	210.59	40.97	-22.5	-22.4	17.2	0.00e+00	0	52	0	38101057536	15	15215
2026-01-19 09:37:32.18	210.50	40.55	-22.6	-22.5	17.2	0.00e+00	0	52	0	38218498048	15	15352
2026-01-19 09:37:33.18	210.42	40.15	-22.8	-22.7	17.2	0.00e+00	0	52	0	38327549952	16	14871
2026-01-19 09:37:34.19	210.34	39.74	-23.0	-22.8	17.2	0.00e+00	0	52	0	38444990464	16	15111
2026-01-19 09:37:35.20	210.26	39.34	-23.1	-22.9	17.2	0.00e+00	0	52	0	38554042368	16	15264
2026-01-19 09:37:36.21	210.19	38.95	-23.1	-23.0	17.1	0.00e+00	0	52	0	38663094272	16	15409
2026-01-19 09:37:37.22	210.11	38.55	-23.3	-23.1	17.1	0.00e+00	0	52	0	38780534784	17	14747
2026-01-19 09:37:38.23	210.04	38.17	-23.3	-23.2	17.1	0.00e+00	0	52	0	38889586688	17	14824
2026-01-19 09:37:39.23	209.97	37.79	-23.4	-23.3	17.1	0.00e+00	0	52	0	39007027200	17	15068
2026-01-19 09:37:40.24	209.90	37.42	-23.6	-23.4	17.1	0.00e+00	0	52	0	39116079104	17	15268
2026-01-19 09:37:41.25	209.83	37.04	-23.7	-23.6	17.1	0.00e+00	0	52	0	39233519616	17	15533
2026-01-19 09:37:42.26	209.77	36.68	-23.8	-23.7	17.1	0.00e+00	0	52	0	39350960128	18	14804
2026-01-19 09:37:43.26	209.70	36.32	-23.9	-23.8	17.1	0.00e+00	0	52	0	39468400640	18	15057
2026-01-19 09:37:44.27	209.64	35.96	-24.1	-24.0	17.0	0.00e+00	0	52	0	39577452544	18	15338
2026-01-19 09:37:45.28	209.58	35.61	-24.3	-24.2	17.0	0.00e+00	0	52	0	39686504448	19	14782
2026-01-19 09:37:46.29	209.52	35.26	-24.4	-24.3	17.0	0.00e+00	0	52	0	39803944960	19	15060
2026-01-19 09:37:47.30	209.46	34.92	-24.4	-24.3	17.0	0.00e+00	0	52	0	39912996864	19	14948
2026-01-19 09:37:48.30	209.40	34.58	-24.5	-24.4	16.9	0.00e+00	0	52	0	40030437376	19	15251
2026-01-19 09:37:49.31	209.35	34.24	-24.6	-24.5	16.9	0.00e+00	0	52	0	40139489280	19	15407
2026-01-19 09:37:50.32	209.29	33.91	-24.6	-24.5	16.9	0.00e+00	0	52	0	40248541184	20	14552
2026-01-19 09:37:51.33	209.24	33.58	-24.7	-24.5	16.9	0.00e+00	0	52	0	40365981696	20	14583
2026-01-19 09:37:52.34	209.19	33.26	-24.8	-24.7	16.9	0.00e+00	0	52	0	40475033600	20	14800
2026-01-19 09:37:53.35	209.14	32.94	-24.9	-24.7	16.9	4.70e-06	0	52	0	40592474112	20	14918
2026-01-19 09:37:54.35	209.09	32.63	-24.9	-24.8	16.8	4.70e-06	0	52	0	40701526016	20	15073
2026-01-19 09:37:55.36	209.04	32.32	-25.1	-25.0	16.8	4.70e-06	0	53	0	40827355136	20	15353
2026-01-19 09:37:56.37	208.99	32.01	-25.2	-25.1	16.8	0.00e+00	0	52	0	40936407040	20	15490
2026-01-19 09:37:57.38	208.95	31.70	-25.3	-25.1	16.8	0.00e+00	0	52	0	41053847552	21	14755
2026-01-19 09:37:58.39	208.90	31.40	-25.4	-25.2	16.8	0.00e+00	0	52	0	41162899456	21	14939
2026-01-19 09:37:59.39	208.86	31.11	-25.5	-25.4	16.8	0.00e+00	0	52	0	41280339968	21	15203
2026-01-19 09:38:00.40	208.82	30.81	-25.7	-25.6	16.7	0.00e+00	0	52	0	41389391872	21	15562
2026-01-19 09:38:01.41	208.77	30.52	-25.8	-25.7	16.7	9.50e-06	0	52	0	41498443776	22	14829
2026-01-19 09:38:02.42	208.73	30.24	-25.8	-25.7	16.7	9.50e-06	0	52	0	41615884288	22	14865
2026-01-19 09:38:03.42	208.69	29.95	-26.0	-25.9	16.7	9.50e-06	0	52	0	41724936192	22	15213
2026-01-19 09:38:04.43	208.65	29.67	-26.1	-26.0	16.6	2.38e-05	0	52	0	41842376704	22	15434
2026-01-19 09:38:05.44	208.61	29.40	-26.1	-26.0	16.6	2.38e-05	0	52	0	41951428608	22	15314
2026-01-19 09:38:06.45	208.57	29.12	-26.2	-26.1	16.6	2.38e-05	0	52	0	42060480512	22	15558
2026-01-19 09:38:07.46	208.54	28.85	-26.4	-26.3	16.6	2.38e-05	0	52	0	42186309632	23	14994
2026-01-19 09:38:08.46	208.50	28.59	-26.4	-26.3	16.6	2.38e-05	0	52	0	42303750144	23	14954
2026-01-19 09:38:09.47	208.46	28.32	-26.6	-26.4	16.5	5.24e-05	0	52	0	42412802048	23	15269
2026-01-19 09:38:10.48	208.43	28.06	-26.6	-26.5	16.5	5.24e-05	0	52	0	42521853952	23	15426
2026-01-19 09:38:11.49	208.39	27.80	-26.8	-26.7	16.5	5.24e-05	0	52	0	42639294464	24	14833
2026-01-19 09:38:12.50	208.36	27.54	-26.8	-26.7	16.5	6.19e-05	0	52	0	42748346368	24	14860
2026-01-19 09:38:13.51	208.32	27.29	-26.9	-26.8	16.5	6.19e-05	0	52	0	42865786880	24	15006
2026-01-19 09:38:14.51	208.29	27.04	-27.0	-26.9	16.5	6.67e-05	0	52	0	42974838784	24	15196
2026-01-19 09:38:15.52	208.26	26.79	-27.1	-27.0	16.4	6.67e-05	0	53	0	43092279296	24	15391
2026-01-19 09:38:16.53	208.23	26.55	-27.3	-27.1	16.4	6.67e-05	0	52	0	43201331200	25	14751
2026-01-19 09:38:17.53	208.20	26.31	-27.3	-27.2	16.4	6.67e-05	0	53	0	43310383104	25	14909
2026-01-19 09:38:18.54	208.17	26.07	-27.4	-27.3	16.4	8.58e-05	0	52	0	43427823616	25	15016
2026-01-19 09:38:19.55	208.14	25.83	-27.5	-27.4	16.3	8.58e-05	0	52	0	43536875520	25	15160
2026-01-19 09:38:20.56	208.11	25.59	-27.7	-27.6	16.3	1.29e-04	0	52	0	43662704640	25	15507
2026-01-19 09:38:21.57	208.08	25.36	-27.8	-27.7	16.3	1.29e-04	0	52	0	43771756544	26	14848
2026-01-19 09:38:22.57	208.05	25.13	-27.9	-27.7	16.2	1.29e-04	0	52	0	43889197056	26	14926
2026-01-19 09:38:23.58	208.02	24.91	-27.9	-27.8	16.2	2.05e-04	0	53	0	43998248960	26	14962
2026-01-19 09:38:24.59	208.00	24.68	-28.2	-28.0	16.1	2.05e-04	0	52	0	44115689472	26	15469
2026-01-19 09:38:25.60	207.97	24.46	-28.2	-28.1	16.2	2.05e-04	0	53	0	44224741376	27	14674
2026-01-19 09:38:26.60	207.94	24.24	-28.4	-28.3	16.1	2.38e-04	0	52	0	44333793280	27	14963
2026-01-19 09:38:27.61	207.92	24.02	-28.3	-28.2	16.1	2.38e-04	0	53	0	44451233792	27	14828
2026-01-19 09:38:28.62	207.89	23.80	-28.4	-28.3	16.1	2.38e-04	0	53	0	44560285696	27	15009
2026-01-19 09:38:29.63	207.87	23.59	-28.5	-28.4	16.0	3.62e-04	0	52	0	44677726208	27	15211
2026-01-19 09:38:30.64	207.84	23.38	-28.6	-28.5	16.0	3.62e-04	0	53	0	44786778112	27	15370
2026-01-19 09:38:31.65	207.82	23.17	-28.7	-28.6	16.0	3.62e-04	0	53	0	44895830016	27	15587
2026-01-19 09:38:32.65	207.79	22.96	-28.7	-28.5	16.0	5.58e-04	0	52	0	45013270528	28	14596
2026-01-19 09:38:33.66	207.77	22.76	-28.8	-28.6	16.0	5.58e-04	0	53	0	45130711040	28	14775
2026-01-19 09:38:34.67	207.75	22.55	-28.9	-28.8	15.9	7.34e-04	0	52	0	45248151552	28	14956
2026-01-19 09:38:35.68	207.73	22.35	-29.0	-28.8	15.9	7.34e-04	0	53	0	45357203456	28	15108
2026-01-19 09:38:36.69	207.70	22.15	-29.2	-29.1	15.8	7.06e-04	0	53	0	45474643968	28	15478
2026-01-19 09:38:37.69	207.68	21.95	-29.3	-29.2	15.8	7.06e-04	0	52	0	45583695872	29	14923
2026-01-19 09:38:38.70	207.66	21.76	-29.2	-29.1	15.9	7.06e-04	0	53	0	45701136384	29	14647
2026-01-19 09:38:39.71	207.64	21.56	-29.3	-29.1	15.8	9.54e-04	0	53	0	45810188288	29	14762
2026-01-19 09:38:40.71	207.62	21.37	-29.3	-29.2	15.8	9.54e-04	0	53	0	45919240192	29	14888
2026-01-19 09:38:41.72	207.60	21.18	-29.4	-29.3	15.7	9.54e-04	0	52	0	46036680704	29	15006
2026-01-19 09:38:42.73	207.58	20.99	-29.5	-29.4	15.7	1.24e-03	0	53	0	46145732608	29	15271
2026-01-19 09:38:43.73	207.56	20.81	-29.6	-29.5	15.7	1.24e-03	0	53	0	46263173120	29	15337
2026-01-19 09:38:44.74	207.54	20.62	-29.6	-29.5	15.7	1.24e-03	0	53	0	46372225024	29	15315
2026-01-19 09:38:45.74	207.52	20.44	-29.6	-29.4	15.7	1.60e-03	0	53	0	46489665536	29	15288
2026-01-19 09:38:46.75	207.50	20.26	-29.7	-29.6	15.6	1.60e-03	0	53	0	46598717440	29	15514
2026-01-19 09:38:47.76	207.48	20.08	-29.8	-29.7	15.6	1.88e-03	0	53	0	46724546560	30	14834
2026-01-19 09:38:48.76	207.46	19.90	-29.8	-29.7	15.6	1.88e-03	0	53	0	46833598464	30	14801
2026-01-19 09:38:49.77	207.45	19.72	-30.0	-29.9	15.5	1.88e-03	0	53	0	46942650368	30	15173
2026-01-19 09:38:50.77	207.43	19.55	-30.0	-29.9	15.5	1.96e-03	0	53	0	47060090880	30	15234
2026-01-19 09:38:51.78	207.41	19.37	-30.2	-30.1	15.4	1.96e-03	0	53	0	47169142784	31	14689
2026-01-19 09:38:52.79	207.39	19.20	-30.1	-30.0	15.5	1.96e-03	0	53	0	47286583296	31	14553
2026-01-19 09:38:53.80	207.38	19.03	-30.3	-30.2	15.4	2.68e-03	0	53	0	47395635200	31	14796
2026-01-19 09:38:54.80	207.36	18.86	-30.3	-30.2	15.4	2.68e-03	0	53	0	47513075712	31	14930
2026-01-19 09:38:55.81	207.34	18.69	-30.3	-30.2	15.4	3.09e-03	0	53	0	47622127616	31	14892
2026-01-19 09:38:56.82	207.33	18.53	-30.4	-30.4	15.3	3.09e-03	0	53	0	47731179520	31	15125
2026-01-19 09:38:57.83	207.31	18.36	-30.6	-30.5	15.3	3.09e-03	0	53	0	47848620032	31	15357
2026-01-19 09:38:58.84	207.30	18.20	-30.7	-30.6	15.3	3.99e-03	0	53	0	47957671936	31	15524
2026-01-19 09:38:59.85	207.28	18.03	-30.8	-30.7	15.2	3.99e-03	0	53	0	48075112448	32	14819
2026-01-19 09:39:00.85	207.27	17.87	-30.7	-30.6	15.2	3.99e-03	0	53	0	48192552960	32	14656
2026-01-19 09:39:01.87	207.25	17.71	-30.8	-30.7	15.2	4.32e-03	0	53	0	48309993472	32	14830
2026-01-19 09:39:02.87	207.24	17.56	-30.9	-30.8	15.1	4.32e-03	0	53	0	48419045376	32	14977
2026-01-19 09:39:03.88	207.22	17.40	-30.9	-30.8	15.1	4.32e-03	0	52	0	48536485888	32	15011
2026-01-19 09:39:04.89	207.21	17.24	-30.9	-30.8	15.1	5.31e-03	0	53	0	48645537792	32	15096
2026-01-19 09:39:05.89	207.19	17.09	-31.0	-30.9	15.1	5.31e-03	0	53	0	48754589696	32	15177
2026-01-19 09:39:06.90	207.18	16.93	-31.2	-31.1	15.0	5.31e-03	0	53	0	48872030208	32	15490
2026-01-19 09:39:07.91	207.17	16.78	-31.2	-31.1	15.0	6.21e-03	0	53	0	48981082112	32	15526
2026-01-19 09:39:08.92	207.15	16.63	-31.2	-31.2	15.0	6.21e-03	0	53	0	49098522624	33	14786
2026-01-19 09:39:09.93	207.14	16.48	-31.2	-31.1	15.0	6.97e-03	0	53	0	49207574528	33	14730
2026-01-19 09:39:10.94	207.13	16.33	-31.5	-31.4	14.9	6.97e-03	0	53	0	49316626432	33	15185
2026-01-19 09:39:11.95	207.11	16.18	-31.5	-31.4	14.9	6.97e-03	0	53	0	49434066944	33	15241
2026-01-19 09:39:12.95	207.10	16.04	-31.6	-31.5	14.8	6.97e-03	0	53	0	49543118848	33	15362
2026-01-19 09:39:13.96	207.09	15.89	-31.6	-31.5	14.8	8.58e-03	0	53	0	49668947968	33	15431
2026-01-19 09:39:14.97	207.08	15.75	-31.8	-31.7	14.7	8.58e-03	0	53	0	49777999872	34	14891
2026-01-19 09:39:15.98	207.06	15.61	-31.7	-31.7	14.7	8.58e-03	0	53	0	49895440384	34	14813
2026-01-19 09:39:16.99	207.05	15.46	-31.7	-31.6	14.8	1.03e-02	0	53	0	50004492288	34	14706
2026-01-19 09:39:17.99	207.04	15.32	-31.8	-31.7	14.7	1.03e-02	0	53	0	50121932800	34	14888
2026-01-19 09:39:19.00	207.03	15.18	-31.9	-31.9	14.7	1.03e-02	0	53	0	50230984704	34	15151
2026-01-19 09:39:20.00	207.02	15.05	-32.0	-31.9	14.6	1.02e-02	0	53	0	50340036608	34	15177
2026-01-19 09:39:21.01	207.01	14.91	-31.9	-31.8	14.7	1.02e-02	0	53	0	50457477120	34	14993
2026-01-19 09:39:22.02	207.00	14.77	-31.9	-31.8	14.7	1.14e-02	0	53	0	50566529024	34	15094
2026-01-19 09:39:23.03	206.98	14.63	-32.0	-31.9	14.6	1.14e-02	0	53	0	50683969536	34	15171
2026-01-19 09:39:24.03	206.97	14.50	-31.9	-31.9	14.6	1.14e-02	0	53	0	50793021440	34	15143
2026-01-19 09:39:25.04	206.96	14.37	-32.1	-32.1	14.5	1.19e-02	0	53	0	50910461952	34	15501
2026-01-19 09:39:26.05	206.95	14.23	-32.1	-32.0	14.5	1.19e-02	0	53	0	51019513856	34	15450
2026-01-19 09:39:27.06	206.94	14.10	-32.0	-31.9	14.6	1.28e-02	0	53	0	51145342976	34	15294
2026-01-19 09:39:28.07	206.93	13.97	-32.3	-32.2	14.5	1.28e-02	0	53	0	51254394880	35	14874
2026-01-19 09:39:29.08	206.92	13.84	-32.3	-32.2	14.5	1.39e-02	0	53	0	51371835392	35	14821
2026-01-19 09:39:30.09	206.91	13.71	-32.3	-32.2	14.4	1.39e-02	0	53	0	51480887296	35	14927
2026-01-19 09:39:31.09	206.90	13.58	-32.2	-32.2	14.5	1.39e-02	0	53	0	51589939200	35	14822
2026-01-19 09:39:32.10	206.89	13.45	-32.4	-32.3	14.4	1.52e-02	0	53	0	51707379712	35	15113
2026-01-19 09:39:33.11	206.88	13.33	-32.6	-32.5	14.3	1.52e-02	0	53	0	51816431616	35	15352
2026-01-19 09:39:34.12	206.87	13.20	-32.5	-32.5	14.3	1.52e-02	0	53	0	51933872128	35	15314
2026-01-19 09:39:35.12	206.86	13.08	-32.6	-32.5	14.3	1.75e-02	0	53	0	52042924032	35	15444
2026-01-19 09:39:36.13	206.86	12.95	-32.4	-32.4	14.4	1.75e-02	0	53	0	52151975936	35	15171
2026-01-19 09:39:37.14	206.85	12.83	-32.6	-32.5	14.3	1.80e-02	0	53	0	52269416448	35	15425
2026-01-19 09:39:38.15	206.84	12.71	-35.2	-35.1	14.8	1.80e-02	0	53	0	52378468352	40	15538
2026-01-19 09:39:39.15	206.83	12.59	-35.2	-35.1	14.8	1.80e-02	0	53	0	52495908864	41	14704
2026-01-19 09:39:40.16	206.82	12.46	-35.1	-35.0	14.9	1.80e-02	0	53	0	52613349376	41	14541
2026-01-19 09:39:41.17	206.81	12.34	-35.2	-35.1	14.8	1.11e-02	0	53	0	52730789888	41	14653
2026-01-19 09:39:42.18	206.80	12.22	-35.1	-35.1	14.8	1.11e-02	0	53	0	52839841792	41	14615
2026-01-19 09:39:43.19	206.80	12.11	-35.3	-35.2	14.8	8.44e-03	0	53	0	52948893696	41	14935
2026-01-19 09:39:44.19	206.79	11.99	-35.3	-35.2	14.8	8.44e-03	0	53	0	53066334208	41	14817
2026-01-19 09:39:45.20	206.78	11.87	-35.5	-35.4	14.7	8.44e-03	0	53	0	53175386112	41	15167
2026-01-19 09:39:46.21	206.77	11.75	-35.6	-35.5	14.6	1.04e-02	0	53	0	53292826624	41	15339
2026-01-19 09:39:47.22	206.76	11.64	-35.3	-35.3	14.7	1.04e-02	0	53	0	53401878528	41	14948
2026-01-19 09:39:48.22	206.76	11.52	-35.4	-35.3	14.7	1.04e-02	0	53	0	53519319040	41	15116
2026-01-19 09:39:49.23	206.75	11.41	-35.6	-35.5	14.6	1.07e-02	0	53	0	53628370944	41	15398
2026-01-19 09:39:50.24	206.74	11.30	-35.6	-35.5	14.6	1.07e-02	0	53	0	53737422848	41	15384
2026-01-19 09:39:51.25	206.73	11.18	-35.6	-35.5	14.6	1.20e-02	0	53	0	53854863360	41	15341
2026-01-19 09:39:52.26	206.73	11.07	-35.6	-35.5	14.6	1.20e-02	0	53	0	53980692480	41	15472
2026-01-19 09:39:53.27	206.72	10.96	-35.7	-35.6	14.6	1.20e-02	0	53	0	54089744384	41	15536
2026-01-19 09:39:54.27	206.71	10.85	-35.9	-35.8	14.5	1.22e-02	0	53	0	54198796288	42	15032
2026-01-19 09:39:55.28	206.70	10.74	-36.1	-36.0	14.4	1.22e-02	0	53	0	54316236800	42	15350
2026-01-19 09:39:56.29	206.70	10.63	-36.2	-36.1	14.3	1.22e-02	0	53	0	54425288704	42	15550
2026-01-19 09:39:57.30	206.69	10.52	-36.1	-36.0	14.4	1.56e-02	0	53	0	54542729216	42	15346
2026-01-19 09:39:58.30	206.68	10.41	-35.8	-35.7	14.5	1.56e-02	0	53	0	54651781120	42	14870
2026-01-19 09:39:59.31	206.68	10.30	-36.1	-36.0	14.3	1.56e-02	0	53	0	54769221632	42	15386
2026-01-19 09:40:00.32	206.67	10.20	-36.1	-36.1	14.3	1.67e-02	0	53	0	54878273536	42	15483
2026-01-19 09:40:01.33	206.66	10.09	-36.0	-36.0	14.4	1.67e-02	0	53	0	54987325440	42	15300
2026-01-19 09:40:02.34	206.66	9.98	-36.2	-36.1	14.3	1.82e-02	0	53	0	55104765952	43	14750
2026-01-19 09:40:03.35	206.65	9.88	-36.2	-36.2	14.3	1.82e-02	0	53	0	55213817856	43	14797
2026-01-19 09:40:04.35	206.65	9.77	-36.2	-36.1	14.3	1.82e-02	0	53	0	55331258368	43	14653
2026-01-19 09:40:05.36	206.64	9.67	-36.2	-36.1	14.3	1.83e-02	0	53	0	55448698880	43	14741
2026-01-19 09:40:06.37	206.63	9.57	-36.4	-36.3	14.2	1.83e-02	0	53	0	55566139392	43	15105
2026-01-19 09:40:07.38	206.63	9.46	-36.4	-36.3	14.2	1.83e-02	0	53	0	55675191296	43	14985
2026-01-19 09:40:08.39	206.62	9.36	-36.3	-36.2	14.2	2.01e-02	0	53	0	55792631808	43	14880
2026-01-19 09:40:09.39	206.62	9.26	-36.7	-36.7	14.0	2.01e-02	0	53	0	55901683712	44	14783
2026-01-19 09:40:10.40	206.61	9.16	-36.3	-36.2	14.2	2.27e-02	0	53	0	56010735616	44	14034
2026-01-19 09:40:11.41	206.60	9.06	-36.6	-36.5	14.0	2.27e-02	0	53	0	56128176128	44	14586
2026-01-19 09:40:12.42	206.60	8.96	-36.6	-36.6	14.0	2.27e-02	0	53	0	56237228032	44	14654
2026-01-19 09:40:13.43	206.59	8.86	-36.6	-36.5	14.0	2.40e-02	0	53	0	56354668544	44	14567
2026-01-19 09:40:14.43	206.59	8.76	-36.5	-36.5	14.1	2.40e-02	0	53	0	56463720448	44	14446
2026-01-19 09:40:15.44	206.58	8.66	-36.6	-36.5	14.0	2.50e-02	0	53	0	56572772352	44	14566
2026-01-19 09:40:16.45	206.58	8.56	-36.7	-36.7	13.9	2.50e-02	0	53	0	56690212864	44	14813
2026-01-19 09:40:17.46	206.57	8.46	-36.7	-36.6	14.0	2.71e-02	0	53	0	56816041984	44	14692
2026-01-19 09:40:18.46	206.57	8.37	-36.8	-36.8	13.9	2.71e-02	0	53	0	56925093888	44	14997
2026-01-19 09:40:19.47	206.56	8.27	-36.6	-36.5	14.0	2.71e-02	0	53	0	57034145792	44	14504
2026-01-19 09:40:20.48	206.56	8.17	-37.0	-37.0	13.8	2.61e-02	0	53	0	57151586304	44	15340
2026-01-19 09:40:21.49	206.55	8.08	-36.7	-36.6	14.0	2.61e-02	0	53	0	57260638208	44	14677
2026-01-19 09:40:22.50	206.55	7.98	-37.0	-37.0	13.8	2.61e-02	0	53	0	57378078720	44	15333
2026-01-19 09:40:23.51	206.54	7.89	-37.1	-37.1	13.7	2.95e-02	0	53	0	57487130624	44	15508
2026-01-19 09:40:24.51	206.54	7.79	-37.2	-37.1	13.7	2.95e-02	0	53	0	57596182528	44	15548
2026-01-19 09:40:25.52	206.53	7.70	-37.2	-37.1	13.6	2.95e-02	0	53	0	57713623040	44	15597
2026-01-19 09:40:26.53	206.53	7.61	-37.3	-37.3	13.6	3.18e-02	0	53	0	57822674944	45	14961
2026-01-19 09:40:27.54	206.52	7.51	-37.3	-37.3	13.6	3.18e-02	0	53	0	57940115456	45	14981
2026-01-19 09:40:28.54	206.52	7.42	-37.1	-37.1	13.7	3.27e-02	0	53	0	58049167360	45	14650
2026-01-19 09:40:29.55	206.52	7.33	-37.3	-37.2	13.6	3.27e-02	0	53	0	58166607872	45	14870
2026-01-19 09:40:30.56	206.51	7.24	-37.5	-37.4	13.5	3.27e-02	0	54	0	58284048384	45	15216
2026-01-19 09:40:31.56	206.51	7.15	-37.5	-37.4	13.5	3.44e-02	0	54	0	58401488896	45	15249
2026-01-19 09:40:32.57	206.50	7.06	-37.5	-37.5	13.4	3.44e-02	0	53	0	58510540800	45	15305
2026-01-19 09:40:33.58	206.50	6.97	-37.5	-37.5	13.4	3.88e-02	0	53	0	58627981312	45	15352
2026-01-19 09:40:34.59	206.49	6.88	-53.2	-55.5	6.2	3.88e-02	0	53	104	58703478784	76	20416
2026-01-19 09:40:35.60	206.49	6.79	-53.2	-55.4	6.2	3.88e-02	0	52	104	58703478784	76	20205
2026-01-19 09:40:36.61	206.49	6.70	-53.1	-55.3	6.2	3.88e-02	0	52	104	58703478784	76	20045
2026-01-19 09:40:37.61	206.48	6.61	-53.1	-55.3	6.2	3.88e-02	0	52	104	58703478784	76	20064
2026-01-19 09:40:38.62	206.48	6.52	-53.1	-55.3	6.2	3.88e-02	0	52	104	58703478784	76	20026
2026-01-19 09:40:39.63	206.47	6.43	-53.1	-55.2	6.2	3.88e-02	0	52	104	58703478784	76	19817
2026-01-19 09:40:40.64	206.47	6.34	-53.2	-55.3	6.2	3.88e-02	0	51	104	58703478784	76	20015
2026-01-19 09:40:41.65	206.47	6.26	-53.1	-55.2	6.2	1.07e-02	0	51	104	58703478784	76	19923
2026-01-19 09:40:42.66	206.46	6.17	-53.1	-55.2	6.2	1.07e-02	0	52	104	58703478784	76	19787
2026-01-19 09:40:43.66	206.46	6.09	-53.0	-55.1	6.2	1.07e-02	0	51	104	58703478784	76	19630
2026-01-19 09:40:44.67	206.46	6.00	-53.1	-55.2	6.2	1.07e-02	0	51	104	58703478784	76	19918
2026-01-19 09:40:45.68	206.45	5.91	-53.0	-55.2	6.2	1.07e-02	0	51	104	58703478784	76	19760
2026-01-19 09:40:46.69	206.45	5.83	-53.0	-55.1	6.2	1.07e-02	0	51	104	58703478784	76	19646
2026-01-19 09:40:47.69	206.45	5.74	-52.9	-55.0	6.2	1.07e-02	0	51	104	58703478784	76	19451
2026-01-19 09:40:48.70	206.44	5.66	-53.0	-55.2	6.2	1.07e-02	0	51	104	58703478784	76	19768
2026-01-19 09:40:49.71	206.44	5.58	-53.0	-55.1	6.2	1.07e-02	0	51	104	58703478784	76	19596
2026-01-19 09:40:50.72	206.44	5.49	-52.9	-55.1	6.2	1.07e-02	0	51	104	58703478784	76	19480
2026-01-19 09:40:51.73	206.43	5.41	-52.8	-54.9	6.2	1.07e-02	0	51	104	58703478784	76	19245
2026-01-19 09:40:52.73	206.43	5.33	-53.0	-55.1	6.2	1.07e-02	0	51	104	58703478784	76	19613
2026-01-19 09:40:53.74	206.43	5.24	-52.9	-55.0	6.2	0.00e+00	0	51	104	58703478784	76	19420
2026-01-19 09:40:54.75	206.42	5.16	-52.9	-55.0	6.2	0.00e+00	0	51	104	58703478784	76	19303
2026-01-19 09:40:55.76	206.42	5.08	-52.7	-54.9	6.2	0.00e+00	0	51	104	58703478784	76	19044
2026-01-19 09:40:56.76	206.42	5.00	-52.9	-55.0	6.2	0.00e+00	0	51	104	58703478784	76	19382
2026-01-19 09:40:57.77	206.41	4.92	-53.5	-55.6	6.2	0.00e+00	0	51	104	58703478784	77	19592
2026-01-19 09:40:58.78	206.41	4.83	-53.7	-55.8	6.2	0.00e+00	0	50	104	58703478784	77	20146
2026-01-19 09:40:59.79	206.41	4.75	-53.9	-56.1	6.2	0.00e+00	0	51	104	58703478784	78	19483
2026-01-19 09:41:00.80	206.41	4.67	-54.0	-56.1	6.2	0.00e+00	0	51	104	58703478784	78	19640
2026-01-19 09:41:01.80	206.40	4.59	-54.1	-56.2	6.2	0.00e+00	0	51	104	58703478784	78	19856
2026-01-19 09:41:02.81	206.40	4.51	-54.2	-56.3	6.2	0.00e+00	0	51	104	58703478784	78	19955
2026-01-19 09:41:03.82	206.40	4.43	-54.2	-56.4	6.2	0.00e+00	0	51	104	58703478784	79	19038
2026-01-19 09:41:04.83	206.40	4.36	-54.3	-56.4	6.2	0.00e+00	0	51	104	58703478784	79	19233
2026-01-19 09:41:05.84	206.39	4.28	-54.3	-56.4	6.2	0.00e+00	0	51	104	58703478784	79	19221
2026-01-19 09:41:06.85	206.39	4.20	-53.2	-54.8	6.2	0.00e+00	0	50	104	58703478784	78	16898
2026-01-19 09:41:07.85	206.39	4.12	-53.6	-55.4	6.2	0.00e+00	0	51	104	58703478784	78	18106
2026-01-19 09:41:08.86	206.39	4.04	-54.3	-56.4	6.2	0.00e+00	0	51	104	58703478784	79	19072
2026-01-19 09:41:09.87	206.38	3.96	-54.5	-56.6	6.2	0.00e+00	0	51	104	58703478784	79	19663
2026-01-19 09:41:10.88	206.38	3.89	-54.5	-56.7	6.2	0.00e+00	0	50	104	58703478784	79	19748
2026-01-19 09:41:11.89	206.38	3.81	-54.6	-56.7	6.2	0.00e+00	0	50	104	58703478784	79	19845
2026-01-19 09:41:12.89	206.38	3.73	-54.6	-56.7	6.2	0.00e+00	0	50	104	58703478784	79	19805
2026-01-19 09:41:13.90	206.37	3.66	-54.6	-56.7	6.2	0.00e+00	0	50	104	58703478784	79	19862
2026-01-19 09:41:14.91	206.37	3.58	-54.6	-56.7	6.2	0.00e+00	0	50	104	58703478784	79	19891
2026-01-19 09:41:15.92	206.37	3.50	-54.6	-56.7	6.2	0.00e+00	0	50	104	58703478784	79	19890
2026-01-19 09:41:16.92	206.37	3.43	-54.6	-56.7	6.2	0.00e+00	0	50	104	58703478784	79	19872
2026-01-19 09:41:17.93	206.37	3.35	-54.6	-56.8	6.2	0.00e+00	0	50	104	58703478784	79	19975
2026-01-19 09:41:18.94	206.36	3.28	-54.6	-56.8	6.2	0.00e+00	0	50	104	58703478784	79	20005
2026-01-19 09:41:19.95	206.36	3.20	-54.6	-56.7	6.2	0.00e+00	0	50	104	58703478784	79	19890
2026-01-19 09:41:20.96	206.36	3.13	-54.6	-56.7	6.2	0.00e+00	0	50	104	58703478784	79	19847
2026-01-19 09:41:21.96	206.36	3.06	-54.6	-56.7	6.2	0.00e+00	0	50	104	58703478784	79	19892
2026-01-19 09:41:22.97	206.36	2.98	-54.6	-56.7	6.2	0.00e+00	0	50	104	58703478784	79	19863
2026-01-19 09:41:23.98	206.35	2.91	-54.6	-56.7	6.2	0.00e+00	0	50	104	58703478784	79	19828
2026-01-19 09:41:24.98	206.35	2.83	-54.6	-56.7	6.2	0.00e+00	0	50	104	58703478784	79	19813
2026-01-19 09:41:25.99	206.35	2.76	-54.6	-56.7	6.2	0.00e+00	0	50	104	58703478784	79	19827
2026-01-19 09:41:27.00	206.35	2.69	-54.6	-56.7	6.2	0.00e+00	0	50	104	58703478784	79	19824
2026-01-19 09:41:28.01	206.35	2.62	-54.6	-56.7	6.2	0.00e+00	0	50	104	58703478784	79	19770
2026-01-19 09:41:29.02	206.34	2.54	-54.6	-56.7	6.2	0.00e+00	0	50	104	58703478784	79	19829
2026-01-19 09:41:30.03	206.34	2.47	-54.6	-56.7	6.2	0.00e+00	0	50	104	58703478784	79	19791
2026-01-19 09:41:31.03	206.34	2.40	-54.5	-56.7	6.2	0.00e+00	0	50	104	58703478784	79	19788
2026-01-19 09:41:32.04	206.34	2.33	-54.5	-56.7	6.2	0.00e+00	0	50	104	58703478784	79	19755
2026-01-19 09:41:33.05	206.34	2.26	-54.5	-56.7	6.2	0.00e+00	0	50	104	58703478784	79	19768
2026-01-19 09:41:34.06	206.34	2.18	-54.6	-56.7	6.2	0.00e+00	0	50	104	58703478784	79	19804
2026-01-19 09:41:35.07	206.33	2.11	-54.5	-56.7	6.2	0.00e+00	0	50	104	58703478784	79	19767
2026-01-19 09:41:36.08	206.33	2.04	-54.5	-56.7	6.2	0.00e+00	0	50	104	58703478784	79	19773
2026-01-19 09:41:37.09	206.33	1.97	-54.5	-56.6	6.2	0.00e+00	0	50	104	58703478784	79	19691
2026-01-19 09:41:38.09	206.33	1.90	-54.5	-56.7	6.2	0.00e+00	0	50	104	58703478784	79	19748

#Closed at: 2026-01-19 09:41:38
#Recorded file [58703 MB]: D:/lorett/data/31041_260119_123057.dat