passes_logs/2026/01/19/R3.2S_Murmansk/R3.2S_Murmansk__20260119_041516_FENGYUN_3D_rec.log

#Pass ID: 20260119_041516_FENGYUN 3D
#Satellite: FENGYUN 3D
#Configuration: FENGYUN 3D
#almurnet v.1.7.20251203
#Start time: 2026-01-19 04:15:18

#Version: 2.2.20231116
#Station: R3.2S_Murmansk
#Location: 33.079688 lon 68.888172 lat
#TLE: 1 43010U 17072A   26018.59788810  .00000129  00000+0  82801-4 0  9992
#TLE: 2 43010  98.9937 350.4692 0002400 102.4643 257.6801 14.19696801423766

#Time	Az	El	Level	Level2	SNR	BER	BlckErr	Temp	State	Recorded	gain1	gain2
2026-01-19 04:15:18.31	32.35	2.09	-47.9	-59.8	3.8	8.47e-01	0	35	0	0	66	14894
2026-01-19 04:15:19.31	32.32	2.15	-47.9	-59.7	3.8	8.47e-01	0	35	104	0	66	14876
2026-01-19 04:15:20.32	32.29	2.22	-47.9	-59.8	3.8	8.46e-01	0	35	104	0	66	14902
2026-01-19 04:15:21.32	32.26	2.28	-47.9	-59.8	3.8	8.46e-01	0	35	104	0	66	14910
2026-01-19 04:15:22.33	32.23	2.34	-47.9	-59.7	3.8	8.46e-01	0	35	104	0	66	14841
2026-01-19 04:15:23.34	32.19	2.41	-47.9	-59.7	3.8	8.46e-01	0	35	104	0	66	14863
2026-01-19 04:15:24.35	32.16	2.47	-47.9	-59.8	3.8	8.47e-01	0	35	104	0	66	14896
2026-01-19 04:15:25.35	32.13	2.53	-47.9	-59.8	3.8	8.47e-01	0	35	104	0	66	14885
2026-01-19 04:15:26.36	32.10	2.60	-47.9	-59.7	3.8	8.47e-01	0	35	104	0	66	14861
2026-01-19 04:15:27.37	32.06	2.66	-47.9	-59.8	3.8	8.45e-01	0	35	104	0	66	14889
2026-01-19 04:15:28.38	32.03	2.73	-47.9	-59.7	3.8	8.46e-01	0	35	104	0	66	14860
2026-01-19 04:15:29.39	32.00	2.79	-47.9	-59.8	3.8	8.46e-01	0	35	104	0	66	14886
2026-01-19 04:15:30.40	31.97	2.85	-47.9	-59.8	3.8	8.46e-01	0	35	104	0	66	14911
2026-01-19 04:15:31.40	31.93	2.92	-47.9	-59.8	3.8	8.47e-01	0	35	104	0	66	14905
2026-01-19 04:15:32.41	31.90	2.98	-47.9	-59.7	3.8	8.46e-01	0	35	104	0	66	14860
2026-01-19 04:15:33.42	31.87	3.05	-47.9	-59.8	3.8	8.45e-01	0	35	104	0	66	14886
2026-01-19 04:15:34.43	31.83	3.11	-47.9	-59.7	3.8	8.46e-01	0	35	104	0	66	14861
2026-01-19 04:15:35.44	31.80	3.18	-47.9	-59.8	3.8	8.45e-01	0	35	104	0	66	14883
2026-01-19 04:15:36.44	31.76	3.24	-47.9	-59.7	3.8	8.46e-01	0	35	104	0	66	14871
2026-01-19 04:15:37.45	31.73	3.31	-47.9	-59.8	3.8	8.46e-01	0	36	104	0	66	14880
2026-01-19 04:15:38.46	31.70	3.38	-47.9	-59.8	3.8	8.45e-01	0	36	104	0	66	14884
2026-01-19 04:15:39.47	31.66	3.44	-47.9	-59.8	3.8	8.47e-01	0	36	104	0	66	14890
2026-01-19 04:15:40.48	31.63	3.51	-47.9	-59.8	3.8	8.47e-01	0	36	104	0	66	14901
2026-01-19 04:15:41.48	31.59	3.57	-47.9	-59.8	3.8	8.46e-01	0	36	104	0	66	14918
2026-01-19 04:15:42.49	31.56	3.64	-47.9	-59.8	3.8	8.46e-01	0	36	104	0	66	14890
2026-01-19 04:15:43.50	31.52	3.71	-47.9	-59.8	3.8	8.46e-01	0	36	104	0	66	14947
2026-01-19 04:15:44.51	31.49	3.77	-47.9	-59.8	3.8	8.46e-01	0	36	104	0	66	14890
2026-01-19 04:15:45.51	31.45	3.84	-47.9	-59.8	3.8	8.46e-01	0	36	104	0	66	14899
2026-01-19 04:15:46.52	31.41	3.90	-47.9	-59.7	3.8	8.46e-01	0	36	104	0	66	14867
2026-01-19 04:15:47.53	31.38	3.97	-47.9	-59.8	3.8	8.47e-01	0	36	104	0	66	14906
2026-01-19 04:15:48.54	31.34	4.04	-47.9	-59.7	3.8	8.47e-01	0	36	104	0	66	14866
2026-01-19 04:15:49.54	31.31	4.11	-47.9	-59.8	3.8	8.48e-01	0	36	104	0	66	14905
2026-01-19 04:15:50.55	31.27	4.17	-47.9	-59.7	3.8	8.46e-01	0	36	104	0	66	14857
2026-01-19 04:15:51.56	31.23	4.24	-47.9	-59.7	3.8	8.45e-01	0	36	104	0	66	14868
2026-01-19 04:15:52.57	31.20	4.31	-47.9	-59.8	3.8	8.47e-01	0	36	104	0	66	14913
2026-01-19 04:15:53.58	31.16	4.38	-47.9	-59.7	3.8	8.46e-01	0	36	104	0	66	14866
2026-01-19 04:15:54.59	31.12	4.44	-47.9	-59.7	3.8	8.45e-01	0	36	104	0	66	14851
2026-01-19 04:15:55.59	31.08	4.51	-47.9	-59.8	3.8	8.46e-01	0	36	104	0	66	14897
2026-01-19 04:15:56.60	31.05	4.58	-47.9	-59.7	3.8	8.46e-01	0	36	104	0	66	14845
2026-01-19 04:15:57.61	31.01	4.65	-47.9	-59.7	3.8	8.46e-01	0	36	104	0	66	14863
2026-01-19 04:15:58.62	30.97	4.72	-47.9	-59.7	3.8	8.46e-01	0	36	104	0	66	14843
2026-01-19 04:15:59.63	30.93	4.79	-47.9	-59.7	3.8	8.46e-01	0	36	104	0	66	14814
2026-01-19 04:16:00.63	30.89	4.86	-47.9	-59.7	3.8	8.46e-01	0	36	104	0	66	14835
2026-01-19 04:16:01.64	30.85	4.92	-47.9	-59.7	3.8	8.47e-01	0	36	104	0	66	14823
2026-01-19 04:16:02.65	30.82	4.99	-47.9	-59.7	3.8	8.46e-01	0	36	104	0	66	14815
2026-01-19 04:16:03.65	30.78	5.06	-47.9	-59.7	3.8	8.46e-01	0	36	104	0	66	14833
2026-01-19 04:16:04.66	30.74	5.13	-47.9	-59.7	3.8	8.45e-01	0	36	104	0	66	14775
2026-01-19 04:16:05.67	30.70	5.20	-47.9	-59.7	3.8	8.46e-01	0	36	104	0	66	14823
2026-01-19 04:16:06.68	30.66	5.27	-47.9	-59.7	3.8	8.46e-01	0	36	104	0	66	14821
2026-01-19 04:16:07.69	30.62	5.34	-47.9	-59.7	3.8	8.45e-01	0	36	104	0	66	14776
2026-01-19 04:16:08.70	30.58	5.41	-47.9	-59.7	3.8	8.46e-01	0	36	104	0	66	14796
2026-01-19 04:16:09.70	30.54	5.48	-47.9	-59.7	3.8	8.46e-01	0	36	104	0	66	14798
2026-01-19 04:16:10.71	30.50	5.55	-47.9	-59.7	3.8	8.46e-01	0	36	104	0	66	14841
2026-01-19 04:16:11.72	30.46	5.63	-47.9	-59.7	3.8	8.47e-01	0	36	104	0	66	14829
2026-01-19 04:16:12.73	30.42	5.70	-47.9	-59.7	3.8	8.46e-01	0	36	104	0	66	14859
2026-01-19 04:16:13.73	30.37	5.77	-47.9	-59.7	3.8	8.45e-01	0	36	104	0	66	14848
2026-01-19 04:16:14.74	30.33	5.84	-47.9	-59.7	3.8	8.47e-01	0	36	104	0	66	14843
2026-01-19 04:16:15.75	30.29	5.91	-47.9	-59.7	3.8	8.46e-01	0	36	104	0	66	14859
2026-01-19 04:16:16.76	30.25	5.98	-47.9	-59.7	3.8	8.46e-01	0	36	104	0	66	14784
2026-01-19 04:16:17.77	30.21	6.05	-47.9	-59.7	3.8	8.45e-01	0	36	104	0	66	14821
2026-01-19 04:16:18.77	30.16	6.13	-47.9	-59.7	3.8	8.46e-01	0	36	104	0	66	14828
2026-01-19 04:16:19.78	30.12	6.20	-47.9	-59.7	3.8	8.46e-01	0	36	104	0	66	14846
2026-01-19 04:16:20.79	30.08	6.27	-47.9	-59.7	3.8	8.46e-01	0	36	104	0	66	14854
2026-01-19 04:16:21.80	30.04	6.34	-47.9	-59.7	3.8	8.46e-01	0	36	104	0	66	14805
2026-01-19 04:16:22.80	29.99	6.42	-47.9	-59.7	3.8	8.46e-01	0	36	104	0	66	14815
2026-01-19 04:16:23.81	29.95	6.49	-47.9	-59.7	3.8	8.45e-01	0	36	104	0	66	14879
2026-01-19 04:16:24.82	29.91	6.56	-47.9	-59.8	3.8	8.47e-01	0	37	104	0	66	14897
2026-01-19 04:16:25.83	29.86	6.64	-47.9	-59.8	3.8	8.46e-01	0	36	104	0	66	14894
2026-01-19 04:16:26.84	29.82	6.71	-47.9	-59.8	3.8	8.45e-01	0	36	104	0	66	14907
2026-01-19 04:16:27.85	29.77	6.78	-47.9	-59.8	3.8	8.45e-01	0	36	104	0	66	14882
2026-01-19 04:16:28.86	29.73	6.86	-47.9	-59.8	3.8	8.46e-01	0	36	104	0	66	14891
2026-01-19 04:16:29.86	29.68	6.93	-47.9	-59.7	3.8	8.47e-01	0	36	104	0	66	14834
2026-01-19 04:16:30.87	29.64	7.01	-47.9	-59.7	3.8	8.47e-01	0	36	104	0	66	14861
2026-01-19 04:16:31.88	29.59	7.08	-47.9	-59.7	3.8	8.46e-01	0	36	104	0	66	14870
2026-01-19 04:16:32.89	29.55	7.16	-47.9	-59.7	3.8	8.46e-01	0	36	104	0	66	14864
2026-01-19 04:16:33.90	29.50	7.23	-47.9	-59.7	3.8	8.46e-01	0	36	104	0	66	14866
2026-01-19 04:16:34.90	29.45	7.31	-47.9	-59.8	3.8	8.46e-01	0	36	104	0	66	14907
2026-01-19 04:16:35.91	29.41	7.38	-47.9	-59.7	3.8	8.46e-01	0	36	104	0	66	14847
2026-01-19 04:16:36.92	29.36	7.46	-47.9	-59.8	3.8	8.45e-01	0	36	104	0	66	14889
2026-01-19 04:16:37.93	29.31	7.53	-47.9	-59.8	3.8	8.45e-01	0	36	104	0	66	14895
2026-01-19 04:16:38.94	29.27	7.61	-47.9	-59.8	3.8	8.46e-01	0	36	104	0	66	14894
2026-01-19 04:16:39.94	29.22	7.68	-47.9	-59.8	3.8	8.46e-01	0	36	104	0	66	14895
2026-01-19 04:16:40.95	29.17	7.76	-47.9	-59.8	3.8	8.46e-01	0	36	104	0	66	14892
2026-01-19 04:16:41.96	29.12	7.84	-47.9	-59.8	3.8	8.47e-01	0	36	104	0	66	14903
2026-01-19 04:16:42.96	29.08	7.91	-47.9	-59.7	3.8	8.47e-01	0	36	104	0	66	14852
2026-01-19 04:16:43.97	29.03	7.99	-47.9	-59.7	3.8	8.46e-01	0	37	104	0	66	14866
2026-01-19 04:16:44.98	28.98	8.07	-47.9	-59.7	3.8	8.46e-01	0	36	104	0	66	14845
2026-01-19 04:16:45.99	28.93	8.15	-47.9	-59.7	3.8	8.46e-01	0	36	104	0	66	14865
2026-01-19 04:16:47.00	28.88	8.22	-47.9	-59.7	3.8	8.45e-01	0	36	104	0	66	14841
2026-01-19 04:16:48.00	28.83	8.30	-47.9	-59.7	3.8	8.46e-01	0	37	104	0	66	14811
2026-01-19 04:16:49.01	28.78	8.38	-47.9	-59.7	3.8	8.46e-01	0	37	104	0	66	14830
2026-01-19 04:16:50.02	28.73	8.46	-47.9	-59.7	3.8	8.46e-01	0	37	104	0	66	14828
2026-01-19 04:16:51.03	28.68	8.54	-47.9	-59.7	3.8	8.47e-01	0	36	104	0	66	14846
2026-01-19 04:16:52.04	28.63	8.62	-47.9	-59.7	3.8	8.45e-01	0	36	104	0	66	14796
2026-01-19 04:16:53.04	28.58	8.69	-47.9	-59.7	3.8	8.47e-01	0	36	104	0	66	14848
2026-01-19 04:16:54.05	28.52	8.77	-47.9	-59.7	3.8	8.45e-01	0	36	104	0	66	14828
2026-01-19 04:16:55.06	28.47	8.85	-47.9	-59.7	3.8	8.46e-01	0	36	104	0	66	14869
2026-01-19 04:16:56.07	28.42	8.93	-47.9	-59.7	3.8	8.47e-01	0	37	104	0	66	14875
2026-01-19 04:16:57.08	28.37	9.01	-47.9	-59.7	3.8	8.46e-01	0	36	104	0	66	14837
2026-01-19 04:16:58.08	28.31	9.09	-47.9	-59.7	3.8	8.46e-01	0	36	104	0	66	14831
2026-01-19 04:16:59.09	28.26	9.17	-47.9	-59.7	3.8	8.45e-01	0	36	104	0	66	14821
2026-01-19 04:17:00.10	28.21	9.25	-47.9	-59.7	3.8	8.46e-01	0	36	104	0	66	14799
2026-01-19 04:17:01.11	28.15	9.33	-47.9	-59.7	3.8	8.46e-01	0	36	104	0	66	14852
2026-01-19 04:17:02.12	28.10	9.42	-47.9	-59.7	3.8	8.46e-01	0	36	104	0	66	14827
2026-01-19 04:17:03.12	28.05	9.50	-47.9	-59.7	3.8	8.46e-01	0	37	104	0	66	14838
2026-01-19 04:17:04.13	27.99	9.58	-47.9	-59.7	3.8	8.46e-01	0	36	104	0	66	14855
2026-01-19 04:17:05.14	27.94	9.66	-47.9	-59.7	3.8	8.45e-01	0	37	104	0	66	14877
2026-01-19 04:17:06.14	27.88	9.74	-47.9	-59.8	3.8	8.46e-01	0	37	104	0	66	14888
2026-01-19 04:17:07.15	27.83	9.82	-47.9	-59.7	3.8	8.47e-01	0	36	104	0	66	14874
2026-01-19 04:17:08.17	27.77	9.91	-47.9	-59.7	3.8	8.47e-01	0	36	104	0	66	14829
2026-01-19 04:17:09.17	27.71	9.99	-47.9	-59.8	3.8	8.45e-01	0	36	104	0	66	14910
2026-01-19 04:17:10.18	27.66	10.07	-47.9	-59.7	3.8	8.47e-01	0	37	104	0	66	14871
2026-01-19 04:17:11.19	27.60	10.16	-47.9	-59.8	3.8	8.46e-01	0	36	104	0	66	14911
2026-01-19 04:17:12.20	27.54	10.24	-47.9	-59.7	3.8	8.46e-01	0	36	104	0	66	14838
2026-01-19 04:17:13.20	27.48	10.32	-47.9	-59.7	3.8	8.46e-01	0	37	104	0	66	14844
2026-01-19 04:17:14.21	27.43	10.41	-47.9	-59.7	3.8	8.46e-01	0	37	104	0	66	14876
2026-01-19 04:17:15.22	27.37	10.49	-47.9	-59.7	3.8	8.46e-01	0	37	104	0	66	14843
2026-01-19 04:17:16.23	27.31	10.58	-47.9	-59.8	3.8	8.46e-01	0	37	104	0	66	14884
2026-01-19 04:17:17.24	27.25	10.66	-47.9	-59.7	3.8	8.46e-01	0	36	104	0	66	14868
2026-01-19 04:17:18.24	27.19	10.75	-47.9	-59.7	3.8	8.46e-01	0	36	104	0	66	14833
2026-01-19 04:17:19.25	27.13	10.83	-47.9	-59.8	3.8	8.46e-01	0	37	104	0	66	14885
2026-01-19 04:17:20.26	27.07	10.92	-47.9	-59.7	3.8	8.46e-01	0	37	104	0	66	14874
2026-01-19 04:17:21.26	27.01	11.00	-47.9	-59.7	3.8	8.45e-01	0	37	104	0	66	14833
2026-01-19 04:17:22.27	26.95	11.09	-47.9	-59.8	3.8	8.46e-01	0	37	104	0	66	14891
2026-01-19 04:17:23.28	26.89	11.18	-47.9	-59.7	3.8	8.46e-01	0	37	104	0	66	14872
2026-01-19 04:17:24.29	26.82	11.26	-47.9	-59.8	3.8	8.46e-01	0	37	104	0	66	14883
2026-01-19 04:17:25.30	26.76	11.35	-47.9	-59.8	3.8	8.46e-01	0	36	104	0	66	14903
2026-01-19 04:17:26.30	26.70	11.44	-47.9	-59.7	3.8	8.45e-01	0	37	104	0	66	14876
2026-01-19 04:17:27.31	26.64	11.52	-47.9	-59.7	3.8	8.46e-01	0	37	104	0	66	14838
2026-01-19 04:17:28.32	26.57	11.61	-47.9	-59.7	3.8	8.46e-01	0	37	104	0	66	14835
2026-01-19 04:17:29.33	26.51	11.70	-47.9	-59.7	3.8	8.47e-01	0	37	104	0	66	14870
2026-01-19 04:17:30.34	26.44	11.79	-47.9	-59.7	3.8	8.46e-01	0	37	104	0	66	14875
2026-01-19 04:17:31.34	26.38	11.88	-47.9	-59.7	3.8	8.46e-01	0	37	104	0	66	14870
2026-01-19 04:17:32.35	26.31	11.96	-47.9	-59.8	3.8	8.47e-01	0	37	104	0	66	14889
2026-01-19 04:17:33.36	26.25	12.05	-47.9	-59.7	3.8	8.46e-01	0	37	104	0	66	14853
2026-01-19 04:17:34.37	26.18	12.14	-47.9	-59.7	3.8	8.45e-01	0	37	104	0	66	14841
2026-01-19 04:17:35.38	26.12	12.23	-47.9	-59.7	3.8	8.47e-01	0	37	104	0	66	14874
2026-01-19 04:17:36.38	26.05	12.32	-47.9	-59.7	3.8	8.46e-01	0	37	104	0	66	14844
2026-01-19 04:17:37.39	25.98	12.41	-47.9	-59.8	3.8	8.46e-01	0	37	104	0	66	14899
2026-01-19 04:17:38.40	25.92	12.50	-47.9	-59.8	3.8	8.47e-01	0	37	104	0	66	14882
2026-01-19 04:17:39.41	25.85	12.60	-47.9	-59.8	3.8	8.46e-01	0	37	104	0	66	14880
2026-01-19 04:17:40.41	25.78	12.69	-47.9	-59.7	3.8	8.47e-01	0	37	104	0	66	14861
2026-01-19 04:17:41.42	25.71	12.78	-47.9	-59.7	3.8	8.46e-01	0	37	104	0	66	14847
2026-01-19 04:17:42.43	25.64	12.87	-47.9	-59.8	3.8	8.47e-01	0	37	104	0	66	14900
2026-01-19 04:17:43.44	25.57	12.96	-47.9	-59.7	3.8	8.46e-01	0	37	104	0	66	14801
2026-01-19 04:17:44.45	25.50	13.05	-47.9	-59.7	3.8	8.45e-01	0	37	104	0	66	14876
2026-01-19 04:17:45.46	25.43	13.15	-47.9	-59.7	3.8	8.46e-01	0	37	104	0	66	14871
2026-01-19 04:17:46.46	25.36	13.24	-47.9	-59.7	3.8	8.47e-01	0	37	104	0	66	14846
2026-01-19 04:17:47.47	25.29	13.33	-47.9	-59.8	3.8	8.47e-01	0	37	104	0	66	14921
2026-01-19 04:17:48.48	25.21	13.43	-47.9	-59.8	3.8	8.47e-01	0	37	104	0	66	14905
2026-01-19 04:17:49.49	25.14	13.52	-47.9	-59.7	3.8	8.47e-01	0	37	104	0	66	14879
2026-01-19 04:17:50.50	25.07	13.62	-47.9	-59.8	3.8	8.46e-01	0	37	104	0	66	14894
2026-01-19 04:17:51.50	24.99	13.71	-47.9	-59.8	3.8	8.47e-01	0	37	104	0	66	14880
2026-01-19 04:17:52.51	24.92	13.81	-47.9	-59.7	3.8	8.46e-01	0	37	104	0	66	14858
2026-01-19 04:17:53.52	24.84	13.90	-47.9	-59.8	3.8	8.46e-01	0	37	104	0	66	14895
2026-01-19 04:17:54.53	24.77	14.00	-47.9	-59.7	3.8	8.45e-01	0	37	104	0	66	14846
2026-01-19 04:17:55.53	24.69	14.09	-47.9	-59.7	3.8	8.47e-01	0	37	104	0	66	14861
2026-01-19 04:17:56.54	24.62	14.19	-47.9	-59.8	3.8	8.46e-01	0	37	104	0	66	14904
2026-01-19 04:17:57.55	24.54	14.28	-47.9	-59.7	3.8	8.47e-01	0	37	104	0	66	14871
2026-01-19 04:17:58.56	24.46	14.38	-47.9	-59.8	3.8	8.45e-01	0	37	104	0	66	14907
2026-01-19 04:17:59.56	24.39	14.48	-47.9	-59.7	3.8	8.46e-01	0	37	104	0	66	14856
2026-01-19 04:18:00.57	24.31	14.58	-47.9	-59.7	3.8	8.46e-01	0	37	104	0	66	14855
2026-01-19 04:18:01.58	24.23	14.67	-47.9	-59.8	3.8	8.47e-01	0	37	104	0	66	14898
2026-01-19 04:18:02.59	24.15	14.77	-47.9	-59.7	3.8	8.45e-01	0	37	104	0	66	14846
2026-01-19 04:18:03.60	24.07	14.87	-47.9	-59.8	3.8	8.45e-01	0	37	104	0	66	14885
2026-01-19 04:18:04.60	23.99	14.97	-47.9	-59.8	3.8	8.46e-01	0	37	104	0	66	14906
2026-01-19 04:18:05.61	23.91	15.07	-47.9	-59.8	3.8	8.46e-01	0	37	104	0	66	14896
2026-01-19 04:18:06.62	23.83	15.17	-47.9	-59.7	3.8	8.45e-01	0	37	104	0	66	14859
2026-01-19 04:18:07.62	23.74	15.27	-47.9	-59.7	3.8	8.46e-01	0	37	104	0	66	14877
2026-01-19 04:18:08.63	23.66	15.37	-47.9	-59.8	3.8	8.47e-01	0	37	104	0	66	14896
2026-01-19 04:18:09.64	23.58	15.47	-47.9	-59.8	3.8	8.47e-01	0	37	104	0	66	14881
2026-01-19 04:18:10.65	23.49	15.57	-47.9	-59.7	3.8	8.47e-01	0	37	104	0	66	14843
2026-01-19 04:18:11.66	23.41	15.67	-47.9	-59.7	3.8	8.46e-01	0	37	104	0	66	14854
2026-01-19 04:18:12.67	23.32	15.77	-47.9	-59.7	3.8	8.46e-01	0	37	104	0	66	14865
2026-01-19 04:18:13.68	23.24	15.88	-47.9	-59.7	3.8	8.47e-01	0	37	104	0	66	14857
2026-01-19 04:18:14.68	23.15	15.98	-47.9	-59.7	3.8	8.46e-01	0	37	104	0	66	14865
2026-01-19 04:18:15.69	23.06	16.08	-47.9	-59.8	3.8	8.47e-01	0	37	104	0	66	14943
2026-01-19 04:18:16.70	22.98	16.18	-47.9	-59.7	3.8	8.46e-01	0	37	104	0	66	14844
2026-01-19 04:18:17.71	22.89	16.29	-47.9	-59.8	3.8	8.46e-01	0	37	104	0	66	14886
2026-01-19 04:18:18.71	22.80	16.39	-47.9	-59.8	3.8	8.45e-01	0	37	104	0	66	14896
2026-01-19 04:18:19.72	22.71	16.50	-47.9	-59.8	3.8	8.46e-01	0	37	104	0	66	14914
2026-01-19 04:18:20.73	22.62	16.60	-47.9	-59.8	3.8	8.46e-01	0	37	104	0	66	14882
2026-01-19 04:18:21.74	22.53	16.71	-47.9	-59.8	3.8	8.47e-01	0	37	104	0	66	14890
2026-01-19 04:18:22.74	22.44	16.81	-47.9	-59.7	3.8	8.47e-01	0	37	104	0	66	14859
2026-01-19 04:18:23.75	22.34	16.92	-47.9	-59.8	3.8	8.47e-01	0	37	104	0	66	14915
2026-01-19 04:18:24.76	22.25	17.02	-47.9	-59.8	3.8	8.47e-01	0	37	104	0	66	14886
2026-01-19 04:18:25.76	22.16	17.13	-47.9	-59.7	3.8	8.47e-01	0	37	104	0	66	14879
2026-01-19 04:18:26.77	22.06	17.24	-47.9	-59.7	3.8	8.45e-01	0	37	104	0	66	14865
2026-01-19 04:18:27.78	21.97	17.34	-47.9	-59.8	3.8	8.45e-01	0	37	104	0	66	14933
2026-01-19 04:18:28.79	21.87	17.45	-47.9	-59.8	3.8	8.47e-01	0	37	104	0	66	14906
2026-01-19 04:18:29.80	21.78	17.56	-47.9	-59.7	3.8	8.46e-01	0	37	104	0	66	14861
2026-01-19 04:18:30.80	21.68	17.67	-47.9	-59.7	3.8	8.46e-01	0	37	104	0	66	14867
2026-01-19 04:18:31.81	21.58	17.78	-47.9	-59.8	3.8	8.45e-01	0	37	104	0	66	14902
2026-01-19 04:18:32.82	21.48	17.89	-47.9	-59.7	3.8	8.46e-01	0	37	104	0	66	14849
2026-01-19 04:18:33.83	21.38	18.00	-47.9	-59.7	3.8	8.47e-01	0	37	104	0	66	14873
2026-01-19 04:18:34.84	21.28	18.11	-47.9	-59.7	3.8	8.46e-01	0	37	104	0	66	14841
2026-01-19 04:18:35.84	21.18	18.21	-47.9	-59.7	3.8	8.47e-01	0	37	104	0	66	14818
2026-01-19 04:18:36.85	21.08	18.33	-47.9	-59.7	3.8	8.47e-01	0	37	104	0	66	14837
2026-01-19 04:18:37.86	20.98	18.44	-47.9	-59.7	3.8	8.46e-01	0	37	104	0	66	14822
2026-01-19 04:18:38.87	20.88	18.55	-47.9	-59.7	3.8	8.47e-01	0	37	104	0	66	14795
2026-01-19 04:18:39.88	20.77	18.66	-47.9	-59.7	3.8	8.46e-01	0	37	104	0	66	14812
2026-01-19 04:18:40.89	20.67	18.77	-47.9	-59.7	3.8	8.46e-01	0	37	104	0	66	14793
2026-01-19 04:18:41.90	20.56	18.89	-47.9	-59.7	3.8	8.46e-01	0	37	104	0	66	14864
2026-01-19 04:18:42.90	20.45	19.00	-47.9	-59.7	3.8	8.46e-01	0	37	104	0	66	14857
2026-01-19 04:18:43.91	20.35	19.11	-47.9	-59.7	3.8	8.47e-01	0	37	104	0	66	14836
2026-01-19 04:18:44.92	20.24	19.23	-47.9	-59.7	3.8	8.46e-01	0	37	104	0	66	14844
2026-01-19 04:18:45.93	20.13	19.34	-47.9	-59.7	3.8	8.46e-01	0	37	104	0	66	14859
2026-01-19 04:18:46.94	20.02	19.46	-47.9	-59.7	3.8	8.46e-01	0	37	104	0	66	14879
2026-01-19 04:18:47.94	19.91	19.57	-47.9	-59.7	3.8	8.46e-01	0	37	104	0	66	14834
2026-01-19 04:18:48.95	19.80	19.69	-47.9	-59.7	3.8	8.47e-01	0	37	104	0	66	14864
2026-01-19 04:18:49.96	19.69	19.80	-47.9	-59.7	3.8	8.46e-01	0	37	104	0	66	14864
2026-01-19 04:18:50.96	19.57	19.92	-47.9	-59.7	3.8	8.47e-01	0	37	104	0	66	14839
2026-01-19 04:18:51.97	19.46	20.04	-47.9	-59.7	3.8	8.47e-01	0	37	104	0	66	14860
2026-01-19 04:18:52.99	19.34	20.16	-47.9	-59.7	3.8	8.46e-01	0	37	104	0	66	14863
2026-01-19 04:18:54.00	19.23	20.28	-47.9	-59.8	3.8	8.46e-01	0	37	104	0	66	14881
2026-01-19 04:18:55.00	19.11	20.39	-47.9	-59.7	3.8	8.45e-01	0	37	104	0	66	14855
2026-01-19 04:18:56.01	18.99	20.51	-47.9	-59.7	3.8	8.46e-01	0	37	104	0	66	14846
2026-01-19 04:18:57.02	18.87	20.63	-47.9	-59.8	3.8	8.45e-01	0	37	104	0	66	14882
2026-01-19 04:18:58.03	18.75	20.75	-47.9	-59.7	3.8	8.46e-01	0	37	104	0	66	14849
2026-01-19 04:18:59.04	18.63	20.87	-47.9	-59.7	3.8	8.47e-01	0	37	104	0	66	14856
2026-01-19 04:19:00.04	18.51	20.99	-47.9	-59.7	3.8	8.46e-01	0	37	104	0	66	14836
2026-01-19 04:19:01.05	18.39	21.11	-47.9	-59.8	3.8	8.46e-01	0	37	104	0	66	14885
2026-01-19 04:19:02.06	18.27	21.23	-47.9	-59.8	3.8	8.46e-01	0	37	104	0	66	14880
2026-01-19 04:19:03.07	18.14	21.36	-47.9	-59.8	3.8	8.47e-01	0	37	104	0	66	14881
2026-01-19 04:19:04.08	18.01	21.48	-47.9	-59.7	3.8	8.46e-01	0	37	104	0	66	14852
2026-01-19 04:19:05.08	17.89	21.60	-47.9	-59.8	3.8	8.46e-01	0	37	104	0	66	14913
2026-01-19 04:19:06.09	17.76	21.72	-47.9	-59.7	3.8	8.46e-01	0	37	104	0	66	14879
2026-01-19 04:19:07.10	17.63	21.85	-47.9	-59.8	3.8	8.46e-01	0	37	104	0	66	14882
2026-01-19 04:19:08.10	17.50	21.97	-47.9	-59.7	3.8	8.46e-01	0	37	104	0	66	14859
2026-01-19 04:19:09.11	17.37	22.10	-47.9	-59.7	3.8	8.46e-01	0	37	104	0	66	14872
2026-01-19 04:19:10.12	17.24	22.22	-47.9	-59.7	3.8	8.46e-01	0	37	104	0	66	14858
2026-01-19 04:19:11.13	17.11	22.35	-47.9	-59.7	3.8	8.46e-01	0	37	104	0	66	14877
2026-01-19 04:19:12.14	16.97	22.47	-47.9	-59.8	3.8	8.46e-01	0	37	104	0	66	14895
2026-01-19 04:19:13.15	16.84	22.60	-47.9	-59.7	3.8	8.45e-01	0	37	104	0	66	14863
2026-01-19 04:19:14.15	16.70	22.72	-47.9	-59.7	3.8	8.46e-01	0	37	104	0	66	14835
2026-01-19 04:19:15.16	16.56	22.85	-47.9	-59.8	3.8	8.46e-01	0	37	104	0	66	14905
2026-01-19 04:19:16.17	16.42	22.98	-47.9	-59.8	3.8	8.46e-01	0	37	104	0	66	14883
2026-01-19 04:19:17.17	16.29	23.11	-47.9	-59.7	3.8	8.46e-01	0	37	104	0	66	14852
2026-01-19 04:19:18.18	16.14	23.24	-47.9	-59.7	3.8	8.47e-01	0	37	104	0	66	14857
2026-01-19 04:19:19.19	16.00	23.37	-47.9	-59.7	3.8	8.46e-01	0	37	104	0	66	14864
2026-01-19 04:19:20.20	15.86	23.49	-47.9	-59.8	3.8	8.47e-01	0	37	104	0	66	14883
2026-01-19 04:19:21.21	15.71	23.62	-47.9	-59.8	3.8	8.46e-01	0	37	104	0	66	14884
2026-01-19 04:19:22.22	15.57	23.76	-47.9	-59.7	3.8	8.45e-01	0	37	104	0	66	14871
2026-01-19 04:19:23.23	15.42	23.89	-47.9	-59.8	3.8	8.46e-01	0	37	104	0	66	14889
2026-01-19 04:19:24.24	15.27	24.02	-47.9	-59.7	3.8	8.48e-01	0	37	104	0	66	14841
2026-01-19 04:19:25.24	15.12	24.15	-47.9	-59.8	3.8	8.46e-01	0	37	104	0	66	14882
2026-01-19 04:19:26.25	14.97	24.28	-47.9	-59.7	3.8	8.46e-01	0	37	104	0	66	14871
2026-01-19 04:19:27.26	14.82	24.41	-47.9	-59.7	3.8	8.47e-01	0	37	104	0	66	14867
2026-01-19 04:19:28.27	14.66	24.55	-47.9	-59.7	3.8	8.47e-01	0	37	104	0	66	14859
2026-01-19 04:19:29.27	14.51	24.68	-47.9	-59.8	3.8	8.46e-01	0	37	104	0	66	14885
2026-01-19 04:19:30.28	14.35	24.81	-47.9	-59.7	3.8	8.45e-01	0	37	104	0	66	14871
2026-01-19 04:19:31.29	14.20	24.95	-47.9	-59.7	3.8	8.46e-01	0	37	104	0	66	14871
2026-01-19 04:19:32.30	14.04	25.08	-47.9	-59.7	3.8	8.46e-01	0	37	104	0	66	14852
2026-01-19 04:19:33.31	13.88	25.22	-47.9	-59.8	3.8	8.45e-01	0	37	104	0	66	14914
2026-01-19 04:19:34.32	13.71	25.36	-47.9	-59.7	3.8	8.46e-01	0	37	104	0	66	14848
2026-01-19 04:19:35.32	13.55	25.49	-47.9	-59.8	3.8	8.45e-01	0	37	104	0	66	14885
2026-01-19 04:19:36.33	13.39	25.63	-47.9	-59.8	3.8	8.46e-01	0	37	104	0	66	14910
2026-01-19 04:19:37.34	13.22	25.76	-47.9	-59.7	3.8	8.46e-01	0	37	104	0	66	14863
2026-01-19 04:19:38.35	13.05	25.90	-47.9	-59.7	3.8	8.46e-01	0	37	104	0	66	14857
2026-01-19 04:19:39.35	12.88	26.04	-47.9	-59.7	3.8	8.46e-01	0	37	104	0	66	14852
2026-01-19 04:19:40.36	12.71	26.18	-47.9	-59.8	3.8	8.45e-01	0	37	104	0	66	14890
2026-01-19 04:19:41.37	12.54	26.32	-47.9	-59.8	3.8	8.47e-01	0	37	104	0	66	14895
2026-01-19 04:19:42.38	12.37	26.46	-47.9	-59.8	3.8	8.45e-01	0	37	104	0	66	14890
2026-01-19 04:19:43.39	12.19	26.60	-47.9	-59.7	3.8	8.45e-01	0	37	104	0	66	14853
2026-01-19 04:19:44.40	12.01	26.74	-47.9	-59.7	3.8	8.45e-01	0	37	104	0	66	14868
2026-01-19 04:19:45.40	11.84	26.88	-47.9	-59.7	3.8	8.45e-01	0	37	104	0	66	14858
2026-01-19 04:19:46.41	11.66	27.02	-47.9	-59.7	3.8	8.44e-01	0	37	104	0	66	14856
2026-01-19 04:19:47.42	11.47	27.16	-47.9	-59.8	3.8	8.47e-01	0	37	104	0	66	14881
2026-01-19 04:19:48.42	11.29	27.30	-47.9	-59.7	3.8	8.47e-01	0	37	104	0	66	14870
2026-01-19 04:19:49.43	11.11	27.44	-47.9	-59.7	3.8	8.46e-01	0	37	104	0	66	14849
2026-01-19 04:19:50.44	10.92	27.58	-47.9	-59.8	3.8	8.45e-01	0	37	104	0	66	14919
2026-01-19 04:19:51.45	10.73	27.73	-47.9	-59.7	3.8	8.45e-01	0	37	104	0	66	14834
2026-01-19 04:19:52.45	10.54	27.87	-47.9	-59.7	3.8	8.45e-01	0	37	104	0	66	14861
2026-01-19 04:19:53.46	10.35	28.01	-47.9	-59.7	3.8	8.46e-01	0	37	104	0	66	14865
2026-01-19 04:19:54.47	10.16	28.16	-47.9	-59.8	3.8	8.47e-01	0	37	104	0	66	14900
2026-01-19 04:19:55.48	9.96	28.30	-47.9	-59.8	3.8	8.46e-01	0	37	104	0	66	14904
2026-01-19 04:19:56.48	9.76	28.45	-47.9	-59.7	3.8	8.45e-01	0	37	104	0	66	14875
2026-01-19 04:19:57.50	9.56	28.59	-47.9	-59.8	3.8	8.46e-01	0	37	104	0	66	14896
2026-01-19 04:19:58.50	9.36	28.74	-47.9	-59.8	3.8	8.47e-01	0	37	104	0	66	14890
2026-01-19 04:19:59.51	9.16	28.88	-47.9	-59.7	3.8	8.45e-01	0	37	104	0	66	14859
2026-01-19 04:20:00.52	8.96	29.03	-47.9	-59.8	3.8	8.47e-01	0	37	104	0	66	14893
2026-01-19 04:20:01.53	8.75	29.18	-47.9	-59.8	3.8	8.46e-01	0	37	104	0	66	14921
2026-01-19 04:20:02.54	8.54	29.32	-47.9	-59.8	3.8	8.46e-01	0	37	104	0	66	14903
2026-01-19 04:20:03.55	8.33	29.47	-47.9	-59.7	3.8	8.47e-01	0	37	104	0	66	14853
2026-01-19 04:20:04.55	8.12	29.62	-47.9	-59.8	3.8	8.46e-01	0	37	104	0	66	14883
2026-01-19 04:20:05.56	7.90	29.77	-47.9	-59.7	3.8	8.46e-01	0	37	104	0	66	14861
2026-01-19 04:20:06.57	7.69	29.91	-47.9	-59.7	3.8	8.47e-01	0	37	104	0	66	14840
2026-01-19 04:20:07.58	7.47	30.06	-47.9	-59.8	3.8	8.48e-01	0	37	104	0	66	14892
2026-01-19 04:20:08.58	7.25	30.21	-47.9	-59.7	3.8	8.46e-01	0	37	104	0	66	14842
2026-01-19 04:20:09.59	7.03	30.36	-47.9	-59.7	3.8	8.46e-01	0	37	104	0	66	14851
2026-01-19 04:20:10.60	6.80	30.51	-47.9	-59.8	3.8	8.46e-01	0	37	104	0	66	14908
2026-01-19 04:20:11.60	6.58	30.66	-47.9	-59.7	3.8	8.47e-01	0	37	104	0	66	14876
2026-01-19 04:20:12.61	6.35	30.81	-47.9	-59.8	3.8	8.46e-01	0	37	104	0	66	14907
2026-01-19 04:20:13.62	6.11	30.96	-47.9	-59.7	3.8	8.47e-01	0	37	104	0	66	14864
2026-01-19 04:20:14.63	5.88	31.11	-47.9	-59.8	3.8	8.47e-01	0	37	104	0	66	14891
2026-01-19 04:20:15.64	5.64	31.26	-47.9	-59.8	3.8	8.45e-01	0	37	104	0	66	14900
2026-01-19 04:20:16.64	5.41	31.41	-47.9	-59.7	3.8	8.46e-01	0	37	104	0	66	14866
2026-01-19 04:20:17.65	5.17	31.56	-47.9	-59.8	3.8	8.45e-01	0	37	104	0	66	14897
2026-01-19 04:20:18.66	4.93	31.71	-47.9	-59.7	3.8	8.45e-01	0	37	104	0	66	14828
2026-01-19 04:20:19.67	4.68	31.86	-47.9	-59.7	3.8	8.45e-01	0	37	104	0	66	14878
2026-01-19 04:20:20.68	4.43	32.02	-47.9	-59.7	3.8	8.47e-01	0	37	104	0	66	14871
2026-01-19 04:20:21.68	4.19	32.17	-47.9	-59.7	3.8	8.46e-01	0	37	104	0	66	14854
2026-01-19 04:20:22.69	3.93	32.32	-47.9	-59.7	3.8	8.45e-01	0	37	104	0	66	14862
2026-01-19 04:20:23.70	3.68	32.47	-47.9	-59.7	3.8	8.46e-01	0	37	104	0	66	14859
2026-01-19 04:20:24.71	3.42	32.62	-47.9	-59.8	3.8	8.46e-01	0	37	104	0	66	14890
2026-01-19 04:20:25.72	3.16	32.78	-47.9	-59.8	3.8	8.47e-01	0	37	104	0	66	14903
2026-01-19 04:20:26.72	2.90	32.93	-47.9	-59.8	3.8	8.46e-01	0	37	104	0	66	14899
2026-01-19 04:20:27.73	2.64	33.08	-47.9	-59.8	3.8	8.45e-01	0	37	104	0	66	14886
2026-01-19 04:20:28.74	2.37	33.23	-47.9	-59.8	3.8	8.44e-01	0	37	104	0	66	14906
2026-01-19 04:20:29.75	2.10	33.39	-47.9	-59.7	3.8	8.45e-01	0	37	104	0	66	14872
2026-01-19 04:20:30.76	1.83	33.54	-47.9	-59.7	3.8	8.47e-01	0	37	104	0	66	14872
2026-01-19 04:20:31.77	1.56	33.69	-47.9	-59.7	3.8	8.46e-01	0	37	104	0	66	14870
2026-01-19 04:20:32.78	1.28	33.85	-47.9	-59.8	3.8	8.47e-01	0	37	104	0	66	14919
2026-01-19 04:20:33.78	1.00	34.00	-47.9	-59.7	3.8	8.46e-01	0	37	104	0	66	14865
2026-01-19 04:20:34.79	0.72	34.15	-47.9	-59.7	3.8	8.45e-01	0	37	104	0	66	14875
2026-01-19 04:20:35.80	0.43	34.30	-47.9	-59.8	3.8	8.47e-01	0	37	104	0	66	14906
2026-01-19 04:20:36.81	0.15	34.46	-47.9	-59.8	3.8	8.47e-01	0	37	104	0	66	14904
2026-01-19 04:20:37.82	359.86	34.61	-47.9	-59.7	3.8	8.45e-01	0	37	104	0	66	14869
2026-01-19 04:20:38.82	359.57	34.76	-47.9	-59.8	3.8	8.45e-01	0	37	104	0	66	14890
2026-01-19 04:20:39.83	359.27	34.91	-47.9	-59.8	3.8	8.46e-01	0	37	104	0	66	14888
2026-01-19 04:20:40.84	358.97	35.06	-47.9	-59.8	3.8	8.46e-01	0	37	104	0	66	14904
2026-01-19 04:20:41.85	358.67	35.22	-47.9	-59.7	3.8	8.46e-01	0	37	104	0	66	14875
2026-01-19 04:20:42.85	358.37	35.37	-47.9	-59.8	3.8	8.46e-01	0	37	104	0	66	14886
2026-01-19 04:20:43.86	358.06	35.52	-47.9	-59.7	3.8	8.46e-01	0	37	104	0	66	14837
2026-01-19 04:20:44.87	357.75	35.67	-47.9	-59.8	3.8	8.46e-01	0	37	104	0	66	14902
2026-01-19 04:20:45.88	357.43	35.82	-47.9	-59.7	3.8	8.46e-01	0	37	104	0	66	14866
2026-01-19 04:20:46.89	357.12	35.97	-47.9	-59.8	3.8	8.45e-01	0	37	104	0	66	14897
2026-01-19 04:20:47.90	356.80	36.12	-47.9	-59.7	3.8	8.48e-01	0	37	104	0	66	14865
2026-01-19 04:20:48.90	356.48	36.27	-47.9	-59.7	3.8	8.46e-01	0	37	104	0	66	14855
2026-01-19 04:20:49.91	356.15	36.42	-47.9	-59.7	3.8	8.47e-01	0	37	104	0	66	14846
2026-01-19 04:20:50.92	355.83	36.57	-47.9	-59.7	3.8	8.46e-01	0	37	104	0	66	14851
2026-01-19 04:20:51.93	355.50	36.72	-47.9	-59.8	3.8	8.46e-01	0	37	104	0	66	14902
2026-01-19 04:20:52.94	355.16	36.87	-47.9	-59.8	3.8	8.47e-01	0	37	104	0	66	14921
2026-01-19 04:20:53.95	354.82	37.02	-47.9	-59.7	3.8	8.47e-01	0	37	104	0	66	14850
2026-01-19 04:20:54.96	354.48	37.17	-47.9	-59.8	3.8	8.46e-01	0	37	104	0	66	14882
2026-01-19 04:20:55.96	354.14	37.31	-47.9	-59.7	3.8	8.48e-01	0	37	104	0	66	14874
2026-01-19 04:20:56.97	353.80	37.46	-47.9	-59.8	3.8	8.46e-01	0	37	104	0	66	14901
2026-01-19 04:20:57.98	353.45	37.60	-47.9	-59.8	3.8	8.46e-01	0	37	104	0	66	14889
2026-01-19 04:20:58.99	353.09	37.75	-47.9	-59.7	3.8	8.45e-01	0	37	104	0	66	14859
2026-01-19 04:21:00.00	352.74	37.90	-47.9	-59.8	3.8	8.48e-01	0	37	104	0	66	14902
2026-01-19 04:21:01.00	352.38	38.04	-47.9	-59.7	3.8	8.45e-01	0	37	104	0	66	14863
2026-01-19 04:21:02.01	352.02	38.18	-47.9	-59.8	3.8	8.47e-01	0	37	104	0	66	14889
2026-01-19 04:21:03.02	351.65	38.33	-47.9	-59.7	3.8	8.46e-01	0	37	104	0	66	14841
2026-01-19 04:21:04.03	351.28	38.47	-47.9	-59.7	3.8	8.46e-01	0	37	104	0	66	14873
2026-01-19 04:21:05.03	350.91	38.61	-47.9	-59.7	3.8	8.46e-01	0	37	104	0	66	14878
2026-01-19 04:21:06.04	350.54	38.75	-47.9	-59.8	3.8	8.46e-01	0	37	104	0	66	14904
2026-01-19 04:21:07.05	350.16	38.89	-47.9	-59.8	3.8	8.46e-01	0	37	104	0	66	14914
2026-01-19 04:21:08.06	349.77	39.03	-47.9	-59.7	3.8	8.46e-01	0	37	104	0	66	14857
2026-01-19 04:21:09.07	349.39	39.17	-47.9	-59.7	3.8	8.46e-01	0	37	104	0	66	14845
2026-01-19 04:21:10.08	349.00	39.30	-47.9	-59.7	3.8	8.46e-01	0	37	104	0	66	14852
2026-01-19 04:21:11.08	348.61	39.44	-47.9	-59.7	3.8	8.46e-01	0	37	104	0	66	14842
2026-01-19 04:21:12.09	348.22	39.57	-47.9	-59.8	3.8	8.46e-01	0	37	104	0	66	14884
2026-01-19 04:21:13.10	347.82	39.71	-47.9	-59.7	3.8	8.47e-01	0	37	104	0	66	14851
2026-01-19 04:21:14.10	347.42	39.84	-47.9	-59.7	3.8	8.45e-01	0	37	104	0	66	14859
2026-01-19 04:21:15.11	347.01	39.97	-47.9	-59.8	3.8	8.47e-01	0	37	104	0	66	14899
2026-01-19 04:21:16.12	346.60	40.10	-47.9	-59.7	3.8	8.45e-01	0	37	104	0	66	14873
2026-01-19 04:21:17.13	346.19	40.23	-47.9	-59.7	3.8	8.45e-01	0	37	104	0	66	14841
2026-01-19 04:21:18.14	345.78	40.36	-47.9	-59.8	3.8	8.46e-01	0	37	104	0	66	14898
2026-01-19 04:21:19.14	345.36	40.48	-47.9	-59.7	3.8	8.46e-01	0	37	104	0	66	14869
2026-01-19 04:21:20.15	344.94	40.61	-47.9	-59.7	3.8	8.47e-01	0	37	104	0	66	14866
2026-01-19 04:21:21.16	344.51	40.73	-47.9	-59.8	3.8	8.45e-01	0	37	104	0	66	14897
2026-01-19 04:21:22.17	344.09	40.86	-47.9	-59.8	3.8	8.46e-01	0	37	104	0	66	14889
2026-01-19 04:21:23.18	343.65	40.98	-47.9	-59.7	3.8	8.46e-01	0	37	104	0	66	14867
2026-01-19 04:21:24.18	343.22	41.10	-47.9	-59.8	3.8	8.46e-01	0	37	104	0	66	14926
2026-01-19 04:21:25.19	342.78	41.22	-47.9	-59.8	3.8	8.46e-01	0	37	104	0	66	14940
2026-01-19 04:21:26.20	342.34	41.33	-47.9	-59.8	3.8	8.46e-01	0	37	104	0	66	14881
2026-01-19 04:21:27.21	341.90	41.45	-47.9	-59.8	3.8	8.46e-01	0	37	104	0	66	14914
2026-01-19 04:21:28.22	341.45	41.56	-47.9	-59.7	3.8	8.45e-01	0	37	104	0	66	14844
2026-01-19 04:21:29.23	341.00	41.67	-47.9	-59.7	3.8	8.44e-01	0	37	104	0	66	14830
2026-01-19 04:21:30.23	340.55	41.78	-47.9	-59.8	3.8	8.46e-01	0	37	104	0	66	14885
2026-01-19 04:21:31.24	340.09	41.89	-47.9	-59.7	3.8	8.45e-01	0	37	104	0	66	14870
2026-01-19 04:21:32.25	339.63	42.00	-47.9	-59.8	3.8	8.46e-01	0	37	104	0	66	14885
2026-01-19 04:21:33.26	339.17	42.11	-47.9	-59.8	3.8	8.47e-01	0	37	104	0	66	14906
2026-01-19 04:21:34.27	338.70	42.21	-47.9	-59.8	3.8	8.45e-01	0	37	104	0	66	14900
2026-01-19 04:21:35.27	338.24	42.31	-47.9	-59.7	3.8	8.45e-01	0	37	104	0	66	14861
2026-01-19 04:21:36.28	337.76	42.41	-47.9	-59.8	3.8	8.47e-01	0	37	104	0	66	14903
2026-01-19 04:21:37.29	337.29	42.51	-47.9	-59.7	3.8	8.45e-01	0	37	104	0	66	14873
2026-01-19 04:21:38.29	336.81	42.60	-47.9	-59.7	3.8	8.46e-01	0	37	104	0	66	14858
2026-01-19 04:21:39.30	336.33	42.70	-47.9	-59.8	3.8	8.47e-01	0	37	104	0	66	14889
2026-01-19 04:21:40.31	335.85	42.79	-47.9	-59.7	3.8	8.45e-01	0	37	104	0	66	14866
2026-01-19 04:21:41.32	335.36	42.88	-47.9	-59.8	3.8	8.46e-01	0	37	104	0	66	14893
2026-01-19 04:21:42.33	334.87	42.96	-47.9	-59.8	3.8	8.45e-01	0	37	104	0	66	14890
2026-01-19 04:21:43.34	334.38	43.05	-47.9	-59.7	3.8	8.47e-01	0	37	104	0	66	14851
2026-01-19 04:21:44.34	333.89	43.13	-47.9	-59.7	3.8	8.46e-01	0	37	104	0	66	14866
2026-01-19 04:21:45.35	333.39	43.21	-47.9	-59.8	3.8	8.45e-01	0	37	104	0	66	14894
2026-01-19 04:21:46.36	332.89	43.29	-47.9	-59.7	3.8	8.45e-01	0	37	104	0	66	14844
2026-01-19 04:21:47.36	332.40	43.37	-47.9	-59.8	3.8	8.46e-01	0	37	104	0	66	14900
2026-01-19 04:21:48.37	331.89	43.44	-47.9	-59.7	3.8	8.47e-01	0	37	104	0	66	14876
2026-01-19 04:21:49.38	331.38	43.51	-47.9	-59.7	3.8	8.46e-01	0	37	104	0	66	14876
2026-01-19 04:21:50.39	330.87	43.58	-47.9	-59.8	3.8	8.47e-01	0	37	104	0	66	14895
2026-01-19 04:21:51.40	330.36	43.65	-47.9	-59.7	3.8	8.46e-01	0	37	104	0	66	14873
2026-01-19 04:21:52.41	329.85	43.71	-47.9	-59.8	3.8	8.45e-01	0	37	104	0	66	14901
2026-01-19 04:21:53.41	329.34	43.77	-47.9	-59.8	3.8	8.47e-01	0	37	104	0	66	14884
2026-01-19 04:21:54.42	328.82	43.83	-47.9	-59.8	3.8	8.46e-01	0	37	104	0	66	14897
2026-01-19 04:21:55.43	328.30	43.89	-47.9	-59.7	3.8	8.47e-01	0	37	104	0	66	14879
2026-01-19 04:21:56.44	327.78	43.94	-47.9	-59.7	3.8	8.46e-01	0	37	104	0	66	14831
2026-01-19 04:21:57.45	327.26	43.99	-47.9	-59.8	3.8	8.46e-01	0	37	104	0	66	14895
2026-01-19 04:21:58.45	326.74	44.04	-47.9	-59.7	3.8	8.45e-01	0	37	104	0	66	14857
2026-01-19 04:21:59.46	326.21	44.09	-47.9	-59.8	3.8	8.47e-01	0	37	104	0	66	14909
2026-01-19 04:22:00.45	325.69	44.13	-47.9	-59.7	3.8	8.46e-01	0	37	104	0	66	14868
2026-01-19 04:22:01.45	325.17	44.17	-47.9	-59.8	3.8	8.47e-01	0	37	104	0	66	14899
2026-01-19 04:22:02.46	324.64	44.21	-47.9	-59.8	3.8	8.46e-01	0	37	104	0	66	14890
2026-01-19 04:22:03.47	324.11	44.25	-47.9	-59.8	3.8	8.46e-01	0	37	104	0	66	14907
2026-01-19 04:22:04.48	323.58	44.28	-47.9	-59.7	3.8	8.45e-01	0	37	104	0	66	14846
2026-01-19 04:22:05.49	323.04	44.31	-47.9	-59.7	3.8	8.46e-01	0	37	104	0	66	14876
2026-01-19 04:22:06.49	322.51	44.34	-47.9	-59.8	3.8	8.46e-01	0	37	104	0	66	14889
2026-01-19 04:22:07.50	321.98	44.36	-47.9	-59.7	3.8	8.45e-01	0	37	104	0	66	14871
2026-01-19 04:22:08.51	321.44	44.38	-47.9	-59.7	3.8	8.46e-01	0	37	104	0	66	14861
2026-01-19 04:22:09.52	320.90	44.40	-47.9	-59.8	3.8	8.45e-01	0	37	104	0	66	14891
2026-01-19 04:22:10.53	320.37	44.42	-47.9	-59.8	3.8	8.45e-01	0	37	104	0	66	14928
2026-01-19 04:22:11.54	319.83	44.43	-47.9	-59.7	3.8	8.46e-01	0	37	104	0	66	14876
2026-01-19 04:22:12.55	319.29	44.44	-47.9	-59.8	3.8	8.46e-01	0	37	104	0	66	14904
2026-01-19 04:22:13.56	318.75	44.45	-47.9	-59.7	3.8	8.47e-01	0	37	104	0	66	14879
2026-01-19 04:22:14.56	318.21	44.46	-47.9	-59.7	3.8	8.46e-01	0	37	104	0	66	14853
2026-01-19 04:22:15.57	317.68	44.46	-47.9	-59.8	3.8	8.47e-01	0	37	104	0	66	14892
2026-01-19 04:22:16.58	317.14	44.46	-47.9	-59.7	3.8	8.48e-01	0	37	104	0	66	14872
2026-01-19 04:22:17.58	316.60	44.45	-47.9	-59.7	3.8	8.46e-01	0	37	104	0	66	14865
2026-01-19 04:22:18.59	316.06	44.45	-47.9	-59.7	3.8	8.46e-01	0	37	104	0	66	14849
2026-01-19 04:22:19.60	315.52	44.44	-47.9	-59.8	3.8	8.46e-01	0	37	104	0	66	14899
2026-01-19 04:22:20.61	314.98	44.43	-47.9	-59.8	3.8	8.46e-01	0	37	104	0	66	14921
2026-01-19 04:22:21.61	314.45	44.41	-47.9	-59.7	3.8	8.46e-01	0	37	104	0	66	14850
2026-01-19 04:22:22.62	313.91	44.39	-47.9	-59.7	3.8	8.46e-01	0	37	104	0	66	14859
2026-01-19 04:22:23.63	313.38	44.37	-47.9	-59.7	3.8	8.47e-01	0	37	104	0	66	14852
2026-01-19 04:22:24.64	312.84	44.35	-47.9	-59.7	3.8	8.46e-01	0	37	104	0	66	14868
2026-01-19 04:22:25.64	312.31	44.32	-47.9	-59.8	3.8	8.46e-01	0	37	104	0	66	14906
2026-01-19 04:22:26.65	311.78	44.30	-47.9	-59.7	3.8	8.47e-01	0	37	104	0	66	14872
2026-01-19 04:22:27.66	311.24	44.26	-47.9	-59.8	3.8	8.45e-01	0	37	104	0	66	14887
2026-01-19 04:22:28.66	310.71	44.23	-47.9	-59.7	3.8	8.46e-01	0	37	104	0	66	14876
2026-01-19 04:22:29.67	310.18	44.19	-47.9	-59.8	3.8	8.45e-01	0	37	104	0	66	14911
2026-01-19 04:22:30.68	309.65	44.15	-47.9	-59.7	3.8	8.46e-01	0	37	104	0	66	14855
2026-01-19 04:22:31.69	309.12	44.11	-47.9	-59.8	3.8	8.46e-01	0	37	104	0	66	14914
2026-01-19 04:22:32.70	308.60	44.07	-47.9	-59.8	3.8	8.45e-01	0	37	104	0	66	14919
2026-01-19 04:22:33.70	308.08	44.02	-47.9	-59.7	3.8	8.46e-01	0	37	104	0	66	14877
2026-01-19 04:22:34.71	307.55	43.97	-47.9	-59.7	3.8	8.46e-01	0	37	104	0	66	14849
2026-01-19 04:22:35.72	307.03	43.92	-47.9	-59.7	3.8	8.46e-01	0	37	104	0	66	14847
2026-01-19 04:22:36.73	306.51	43.86	-47.9	-59.7	3.8	8.45e-01	0	37	104	0	66	14846
2026-01-19 04:22:37.74	305.99	43.80	-47.9	-59.7	3.8	8.46e-01	0	37	104	0	66	14847
2026-01-19 04:22:38.74	305.48	43.74	-47.9	-59.7	3.8	8.46e-01	0	37	104	0	66	14874
2026-01-19 04:22:39.75	304.96	43.68	-47.9	-59.8	3.8	8.47e-01	0	37	104	0	66	14936
2026-01-19 04:22:40.76	304.45	43.61	-47.9	-59.7	3.8	8.46e-01	0	37	104	0	66	14848
2026-01-19 04:22:41.77	303.94	43.55	-47.9	-59.8	3.8	8.45e-01	0	37	104	0	66	14885
2026-01-19 04:22:42.77	303.44	43.48	-47.9	-59.7	3.8	8.47e-01	0	37	104	0	66	14878
2026-01-19 04:22:43.78	302.93	43.40	-47.9	-59.7	3.8	8.46e-01	0	37	104	0	66	14878
2026-01-19 04:22:44.79	302.43	43.33	-47.9	-59.8	3.8	8.45e-01	0	37	104	0	66	14888
2026-01-19 04:22:45.80	301.93	43.25	-47.9	-59.8	3.8	8.46e-01	0	37	104	0	66	14926
2026-01-19 04:22:46.80	301.43	43.17	-47.9	-59.8	3.8	8.46e-01	0	37	104	0	66	14881
2026-01-19 04:22:47.81	300.93	43.09	-47.9	-59.7	3.8	8.46e-01	0	37	104	0	66	14856
2026-01-19 04:22:48.82	300.44	43.01	-47.9	-59.7	3.8	8.47e-01	0	37	104	0	66	14859
2026-01-19 04:22:49.83	299.95	42.92	-47.9	-59.7	3.8	8.47e-01	0	37	104	0	66	14872
2026-01-19 04:22:50.84	299.46	42.83	-47.9	-59.8	3.8	8.46e-01	0	37	104	0	66	14904
2026-01-19 04:22:51.84	298.98	42.74	-47.9	-59.7	3.8	8.46e-01	0	37	104	0	66	14871
2026-01-19 04:22:52.85	298.50	42.65	-47.9	-59.8	3.8	8.46e-01	0	37	104	0	66	14916
2026-01-19 04:22:53.86	298.02	42.55	-47.9	-59.7	3.8	8.47e-01	0	37	104	0	66	14867
2026-01-19 04:22:54.87	297.54	42.46	-47.9	-59.7	3.8	8.46e-01	0	37	104	0	66	14872
2026-01-19 04:22:55.88	297.06	42.36	-47.9	-59.7	3.8	8.47e-01	0	37	104	0	66	14859
2026-01-19 04:22:56.88	296.60	42.26	-47.9	-59.8	3.8	8.47e-01	0	37	104	0	66	14892
2026-01-19 04:22:57.89	296.13	42.15	-47.9	-59.7	3.8	8.46e-01	0	37	104	0	66	14831
2026-01-19 04:22:58.90	295.66	42.05	-47.9	-59.7	3.8	8.45e-01	0	37	104	0	66	14871
2026-01-19 04:22:59.91	295.20	41.94	-47.9	-59.8	3.8	8.46e-01	0	37	104	0	66	14913
2026-01-19 04:23:00.91	294.74	41.84	-47.9	-59.8	3.8	8.46e-01	0	37	104	0	66	14915
2026-01-19 04:23:01.92	294.29	41.73	-47.9	-59.7	3.8	8.46e-01	0	37	104	0	66	14873
2026-01-19 04:23:02.93	293.83	41.62	-47.9	-59.7	3.8	8.47e-01	0	37	104	0	66	14863
2026-01-19 04:23:03.94	293.38	41.50	-47.9	-59.8	3.8	8.45e-01	0	37	104	0	66	14898
2026-01-19 04:23:04.95	292.94	41.39	-47.9	-59.8	3.8	8.46e-01	0	37	104	0	66	14903
2026-01-19 04:23:05.96	292.49	41.27	-47.9	-59.7	3.8	8.45e-01	0	37	104	0	66	14873
2026-01-19 04:23:06.96	292.06	41.15	-47.9	-59.7	3.8	8.46e-01	0	37	104	0	66	14850
2026-01-19 04:23:07.97	291.62	41.03	-47.9	-59.7	3.8	8.46e-01	0	37	104	0	66	14858
2026-01-19 04:23:08.98	291.19	40.91	-47.9	-59.8	3.8	8.45e-01	0	37	104	0	66	14916
2026-01-19 04:23:09.99	290.75	40.79	-47.9	-59.7	3.8	8.46e-01	0	37	104	0	66	14876
2026-01-19 04:23:10.99	290.33	40.67	-47.9	-59.8	3.8	8.47e-01	0	37	104	0	66	14883
2026-01-19 04:23:12.00	289.91	40.54	-47.9	-59.8	3.8	8.46e-01	0	37	104	0	66	14888
2026-01-19 04:23:13.01	289.49	40.42	-47.9	-59.8	3.8	8.46e-01	0	37	104	0	66	14896
2026-01-19 04:23:14.02	289.07	40.29	-47.9	-59.7	3.8	8.47e-01	0	37	104	0	66	14845
2026-01-19 04:23:15.03	288.65	40.16	-47.9	-59.7	3.8	8.47e-01	0	37	104	0	66	14859
2026-01-19 04:23:16.04	288.24	40.03	-47.9	-59.7	3.8	8.46e-01	0	37	104	0	66	14871
2026-01-19 04:23:17.04	287.84	39.90	-47.9	-59.8	3.8	8.45e-01	0	37	104	0	66	14909
2026-01-19 04:23:18.05	287.43	39.77	-47.9	-59.7	3.8	8.46e-01	0	37	104	0	66	14875
2026-01-19 04:23:19.06	287.03	39.63	-47.9	-59.7	3.8	8.46e-01	0	37	104	0	66	14827
2026-01-19 04:23:20.07	286.64	39.50	-47.9	-59.7	3.8	8.46e-01	0	37	104	0	66	14869
2026-01-19 04:23:21.07	286.24	39.36	-47.9	-59.7	3.8	8.47e-01	0	37	104	0	66	14876
2026-01-19 04:23:22.08	285.85	39.23	-47.9	-59.8	3.8	8.46e-01	0	37	104	0	66	14889
2026-01-19 04:23:23.09	285.47	39.09	-47.9	-59.7	3.8	8.46e-01	0	37	104	0	66	14819
2026-01-19 04:23:24.10	285.08	38.95	-47.9	-59.7	3.8	8.45e-01	0	37	104	0	66	14848
2026-01-19 04:23:25.11	284.70	38.81	-47.9	-59.7	3.8	8.47e-01	0	37	104	0	66	14865
2026-01-19 04:23:26.12	284.32	38.67	-47.9	-59.7	3.8	8.47e-01	0	37	104	0	66	14876
2026-01-19 04:23:27.12	283.95	38.53	-47.9	-59.7	3.8	8.45e-01	0	37	104	0	66	14871
2026-01-19 04:23:28.13	283.58	38.39	-47.9	-59.7	3.8	8.45e-01	0	37	104	0	66	14879
2026-01-19 04:23:29.14	283.21	38.24	-47.9	-59.7	3.8	8.46e-01	0	37	104	0	66	14875
2026-01-19 04:23:30.15	282.85	38.10	-47.9	-59.8	3.8	8.46e-01	0	37	104	0	66	14915
2026-01-19 04:23:31.16	282.48	37.96	-47.9	-59.7	3.8	8.46e-01	0	37	104	0	66	14850
2026-01-19 04:23:32.16	282.13	37.81	-47.9	-59.8	3.8	8.46e-01	0	37	104	0	66	14891
2026-01-19 04:23:33.17	281.77	37.67	-47.9	-59.8	3.8	8.46e-01	0	37	104	0	66	14894
2026-01-19 04:23:34.18	281.42	37.52	-47.9	-59.8	3.8	8.46e-01	0	37	104	0	66	14927
2026-01-19 04:23:35.19	281.07	37.37	-47.9	-59.7	3.8	8.47e-01	0	37	104	0	66	14878
2026-01-19 04:23:36.20	280.73	37.23	-47.9	-59.8	3.8	8.46e-01	0	37	104	0	66	14920
2026-01-19 04:23:37.20	280.39	37.08	-47.9	-59.7	3.8	8.47e-01	0	37	104	0	66	14878
2026-01-19 04:23:38.21	280.05	36.93	-47.9	-59.7	3.8	8.47e-01	0	37	104	0	66	14850
2026-01-19 04:23:39.22	279.71	36.78	-47.9	-59.7	3.8	8.46e-01	0	37	104	0	66	14852
2026-01-19 04:23:40.23	279.38	36.63	-47.9	-59.8	3.8	8.46e-01	0	37	104	0	66	14918
2026-01-19 04:23:41.24	279.05	36.48	-47.9	-59.7	3.8	8.46e-01	0	37	104	0	66	14856
2026-01-19 04:23:42.24	278.72	36.33	-47.9	-59.7	3.8	8.47e-01	0	37	104	0	66	14864
2026-01-19 04:23:43.25	278.40	36.18	-47.9	-59.7	3.8	8.45e-01	0	37	104	0	66	14877
2026-01-19 04:23:44.26	278.08	36.03	-47.9	-59.7	3.8	8.46e-01	0	37	104	0	66	14873
2026-01-19 04:23:45.27	277.76	35.88	-47.9	-59.8	3.8	8.47e-01	0	37	104	0	66	14884
2026-01-19 04:23:46.27	277.44	35.73	-47.9	-59.8	3.8	8.46e-01	0	37	104	0	66	14898
2026-01-19 04:23:47.28	277.13	35.58	-47.9	-59.7	3.8	8.47e-01	0	37	104	0	66	14871
2026-01-19 04:23:48.29	276.82	35.43	-47.9	-59.7	3.8	8.45e-01	0	37	104	0	66	14861
2026-01-19 04:23:49.30	276.52	35.27	-47.9	-59.8	3.8	8.45e-01	0	37	104	0	66	14903
2026-01-19 04:23:50.30	276.21	35.12	-47.9	-59.8	3.8	8.45e-01	0	37	104	0	66	14912
2026-01-19 04:23:51.31	275.91	34.97	-47.9	-59.8	3.8	8.46e-01	0	37	104	0	66	14887
2026-01-19 04:23:52.32	275.62	34.82	-47.9	-59.7	3.8	8.45e-01	0	37	104	0	66	14854
2026-01-19 04:23:53.33	275.32	34.67	-47.9	-59.8	3.8	8.46e-01	0	37	104	0	66	14888
2026-01-19 04:23:54.34	275.03	34.51	-47.9	-59.8	3.8	8.46e-01	0	37	104	0	66	14922
2026-01-19 04:23:55.34	274.74	34.36	-47.9	-59.8	3.8	8.48e-01	0	37	104	0	66	14906
2026-01-19 04:23:56.35	274.45	34.21	-47.9	-59.8	3.8	8.46e-01	0	37	104	0	66	14901
2026-01-19 04:23:57.36	274.17	34.05	-47.9	-59.8	3.8	8.46e-01	0	37	104	0	66	14892
2026-01-19 04:23:58.37	273.89	33.90	-47.9	-59.8	3.8	8.46e-01	0	37	104	0	66	14891
2026-01-19 04:23:59.38	273.61	33.75	-47.9	-59.8	3.8	8.46e-01	0	37	104	0	66	14894
2026-01-19 04:24:00.38	273.33	33.60	-47.9	-59.8	3.8	8.47e-01	0	37	104	0	66	14890
2026-01-19 04:24:01.38	273.06	33.44	-47.9	-59.8	3.8	8.46e-01	0	37	104	0	66	14902
2026-01-19 04:24:02.39	272.79	33.29	-47.9	-59.7	3.8	8.45e-01	0	37	104	0	66	14863
2026-01-19 04:24:03.40	272.52	33.14	-47.9	-59.8	3.8	8.47e-01	0	37	104	0	66	14884
2026-01-19 04:24:04.41	272.26	32.98	-47.9	-59.8	3.8	8.46e-01	0	37	104	0	66	14901
2026-01-19 04:24:05.42	271.99	32.83	-47.9	-59.8	3.8	8.47e-01	0	37	104	0	66	14893
2026-01-19 04:24:06.42	271.73	32.68	-47.9	-59.8	3.8	8.46e-01	0	37	104	0	66	14908
2026-01-19 04:24:07.43	271.48	32.53	-47.9	-59.8	3.8	8.46e-01	0	37	104	0	66	14921
2026-01-19 04:24:08.44	271.22	32.37	-47.9	-59.7	3.8	8.46e-01	0	37	104	0	66	14868
2026-01-19 04:24:09.45	270.97	32.22	-47.9	-59.8	3.8	8.47e-01	0	37	104	0	66	14881
2026-01-19 04:24:10.46	270.71	32.07	-47.9	-59.8	3.8	8.46e-01	0	37	104	0	66	14913
2026-01-19 04:24:11.46	270.47	31.92	-47.9	-59.7	3.8	8.45e-01	0	37	104	0	66	14875
2026-01-19 04:24:12.47	270.22	31.77	-47.9	-59.8	3.8	8.46e-01	0	37	104	0	66	14897
2026-01-19 04:24:13.48	269.98	31.61	-47.9	-59.7	3.8	8.46e-01	0	37	104	0	66	14858
2026-01-19 04:24:14.49	269.73	31.46	-47.9	-59.8	3.8	8.46e-01	0	37	104	0	66	14880
2026-01-19 04:24:15.50	269.49	31.31	-47.9	-59.8	3.8	8.45e-01	0	37	104	0	66	14905
2026-01-19 04:24:16.50	269.26	31.16	-47.9	-59.7	3.8	8.45e-01	0	37	104	0	66	14864
2026-01-19 04:24:17.51	269.02	31.01	-47.9	-59.7	3.8	8.45e-01	0	37	104	0	66	14862
2026-01-19 04:24:18.52	268.79	30.86	-47.9	-59.8	3.8	8.47e-01	0	37	104	0	66	14895
2026-01-19 04:24:19.53	268.56	30.71	-47.9	-59.7	3.8	8.46e-01	0	37	104	0	66	14868
2026-01-19 04:24:20.54	268.33	30.56	-47.9	-59.8	3.8	8.47e-01	0	37	104	0	66	14897
2026-01-19 04:24:21.54	268.11	30.41	-47.9	-59.8	3.8	8.47e-01	0	37	104	0	66	14889
2026-01-19 04:24:22.55	267.88	30.26	-47.9	-59.8	3.8	8.46e-01	0	37	104	0	66	14897
2026-01-19 04:24:23.56	267.66	30.11	-47.9	-59.8	3.8	8.46e-01	0	37	104	0	66	14900
2026-01-19 04:24:24.57	267.44	29.96	-47.9	-59.7	3.8	8.46e-01	0	37	104	0	66	14857
2026-01-19 04:24:25.58	267.22	29.81	-47.9	-59.8	3.8	8.45e-01	0	37	104	0	66	14929
2026-01-19 04:24:26.59	267.00	29.66	-47.9	-59.7	3.8	8.46e-01	0	37	104	0	66	14875
2026-01-19 04:24:27.59	266.79	29.51	-47.9	-59.7	3.8	8.47e-01	0	37	104	0	66	14878
2026-01-19 04:24:28.60	266.58	29.37	-47.9	-59.8	3.8	8.46e-01	0	37	104	0	66	14905
2026-01-19 04:24:29.61	266.37	29.22	-47.9	-59.8	3.8	8.46e-01	0	37	104	0	66	14911
2026-01-19 04:24:30.62	266.16	29.07	-47.9	-59.8	3.8	8.47e-01	0	37	104	0	66	14906
2026-01-19 04:24:31.62	265.96	28.93	-47.9	-59.7	3.8	8.47e-01	0	37	104	0	66	14869
2026-01-19 04:24:32.63	265.75	28.78	-47.9	-59.8	3.8	8.47e-01	0	37	104	0	66	14887
2026-01-19 04:24:33.64	265.55	28.63	-47.9	-59.8	3.8	8.46e-01	0	37	104	0	66	14925
2026-01-19 04:24:34.65	265.35	28.49	-47.9	-59.8	3.8	8.47e-01	0	37	104	0	66	14912
2026-01-19 04:24:35.66	265.15	28.34	-47.9	-59.8	3.8	8.45e-01	0	37	104	0	66	14880
2026-01-19 04:24:36.66	264.95	28.20	-47.9	-59.8	3.8	8.47e-01	0	37	104	0	66	14929
2026-01-19 04:24:37.67	264.76	28.05	-47.9	-59.7	3.8	8.47e-01	0	37	104	0	66	14852
2026-01-19 04:24:38.68	264.56	27.91	-47.9	-59.8	3.8	8.46e-01	0	37	104	0	66	14905
2026-01-19 04:24:39.69	264.37	27.76	-47.9	-59.8	3.8	8.46e-01	0	37	104	0	66	14906
2026-01-19 04:24:40.70	264.18	27.62	-47.9	-59.7	3.8	8.47e-01	0	37	104	0	66	14875
2026-01-19 04:24:41.70	263.99	27.48	-47.9	-59.8	3.8	8.46e-01	0	37	104	0	66	14898
2026-01-19 04:24:42.71	263.81	27.33	-47.9	-59.8	3.8	8.46e-01	0	37	104	0	66	14884
2026-01-19 04:24:43.72	263.62	27.19	-47.9	-59.8	3.8	8.46e-01	0	37	104	0	66	14885
2026-01-19 04:24:44.73	263.44	27.05	-47.9	-59.7	3.8	8.47e-01	0	37	104	0	66	14843
2026-01-19 04:24:45.74	263.26	26.91	-47.9	-59.8	3.8	8.47e-01	0	37	104	0	66	14917
2026-01-19 04:24:46.74	263.08	26.77	-47.9	-59.8	3.8	8.45e-01	0	37	104	0	66	14914
2026-01-19 04:24:47.75	262.90	26.63	-47.9	-59.8	3.8	8.46e-01	0	37	104	0	66	14905
2026-01-19 04:24:48.76	262.72	26.49	-47.9	-59.8	3.8	8.47e-01	0	37	104	0	66	14928
2026-01-19 04:24:49.77	262.55	26.35	-47.9	-59.7	3.8	8.46e-01	0	37	104	0	66	14853
2026-01-19 04:24:50.78	262.37	26.21	-47.9	-59.7	3.8	8.46e-01	0	37	104	0	66	14870
2026-01-19 04:24:51.79	262.20	26.07	-47.9	-59.7	3.8	8.46e-01	0	37	104	0	66	14861
2026-01-19 04:24:52.80	262.03	25.93	-47.9	-59.7	3.8	8.47e-01	0	37	104	0	66	14832
2026-01-19 04:24:53.80	261.86	25.79	-47.9	-59.7	3.8	8.46e-01	0	37	104	0	66	14865
2026-01-19 04:24:54.81	261.70	25.65	-47.9	-59.8	3.8	8.45e-01	0	37	104	0	66	14891
2026-01-19 04:24:55.82	261.53	25.52	-47.9	-59.8	3.8	8.47e-01	0	37	104	0	66	14883
2026-01-19 04:24:56.82	261.37	25.38	-47.9	-59.8	3.8	8.46e-01	0	37	104	0	66	14900
2026-01-19 04:24:57.83	261.20	25.24	-47.9	-59.7	3.8	8.45e-01	0	37	104	0	66	14871
2026-01-19 04:24:58.84	261.04	25.11	-47.9	-59.7	3.8	8.46e-01	0	37	104	0	66	14858
2026-01-19 04:24:59.85	260.88	24.97	-47.9	-59.8	3.8	8.46e-01	0	37	104	0	66	14883
2026-01-19 04:25:00.86	260.72	24.84	-47.9	-59.8	3.8	8.46e-01	0	37	104	0	66	14900
2026-01-19 04:25:01.86	260.57	24.70	-47.9	-59.8	3.8	8.47e-01	0	37	104	0	66	14907
2026-01-19 04:25:02.87	260.41	24.57	-47.9	-59.8	3.8	8.46e-01	0	37	104	0	66	14914
2026-01-19 04:25:03.88	260.25	24.44	-47.9	-59.8	3.8	8.45e-01	0	37	104	0	66	14885
2026-01-19 04:25:04.89	260.10	24.30	-47.9	-59.7	3.8	8.47e-01	0	37	104	0	66	14856
2026-01-19 04:25:05.90	259.95	24.17	-47.9	-59.8	3.8	8.46e-01	0	37	104	0	66	14909
2026-01-19 04:25:06.90	259.80	24.04	-47.9	-59.8	3.8	8.46e-01	0	37	104	0	66	14939
2026-01-19 04:25:07.91	259.65	23.91	-47.9	-59.7	3.8	8.45e-01	0	37	104	0	66	14862
2026-01-19 04:25:08.92	259.50	23.77	-47.9	-59.8	3.8	8.47e-01	0	37	104	0	66	14889
2026-01-19 04:25:09.93	259.35	23.64	-47.9	-59.8	3.8	8.45e-01	0	37	104	0	66	14884
2026-01-19 04:25:10.93	259.21	23.51	-47.9	-59.8	3.8	8.47e-01	0	37	104	0	66	14901
2026-01-19 04:25:11.94	259.06	23.38	-47.9	-59.8	3.8	8.46e-01	0	37	104	0	66	14963
2026-01-19 04:25:12.95	258.92	23.25	-47.9	-59.7	3.8	8.46e-01	0	37	104	0	66	14866
2026-01-19 04:25:13.96	258.78	23.12	-47.9	-59.8	3.8	8.46e-01	0	37	104	0	66	14952
2026-01-19 04:25:14.97	258.64	23.00	-47.9	-59.8	3.8	8.45e-01	0	37	104	0	66	14918
2026-01-19 04:25:15.98	258.50	22.87	-47.9	-59.7	3.8	8.46e-01	0	37	104	0	66	14867
2026-01-19 04:25:16.98	258.36	22.74	-47.9	-59.7	3.8	8.46e-01	0	37	104	0	66	14858
2026-01-19 04:25:17.99	258.22	22.61	-47.9	-59.8	3.8	8.47e-01	0	37	104	0	66	14903
2026-01-19 04:25:19.00	258.08	22.49	-47.9	-59.8	3.8	8.46e-01	0	37	104	0	66	14886
2026-01-19 04:25:20.01	257.95	22.36	-47.9	-59.8	3.8	8.47e-01	0	37	104	0	66	14889
2026-01-19 04:25:21.02	257.81	22.23	-47.9	-59.8	3.8	8.47e-01	0	37	104	0	66	14905
2026-01-19 04:25:22.02	257.68	22.11	-47.9	-59.8	3.8	8.46e-01	0	37	104	0	66	14906
2026-01-19 04:25:23.03	257.55	21.98	-47.9	-59.8	3.8	8.46e-01	0	37	104	0	66	14886
2026-01-19 04:25:24.04	257.42	21.86	-47.9	-59.8	3.8	8.46e-01	0	37	104	0	66	14938
2026-01-19 04:25:25.05	257.29	21.73	-47.9	-59.8	3.8	8.46e-01	0	37	104	0	66	14905
2026-01-19 04:25:26.05	257.16	21.61	-47.9	-59.8	3.8	8.47e-01	0	37	104	0	66	14910
2026-01-19 04:25:27.06	257.03	21.49	-47.9	-59.8	3.8	8.46e-01	0	37	104	0	66	14915
2026-01-19 04:25:28.07	256.91	21.36	-47.9	-59.8	3.8	8.46e-01	0	37	104	0	66	14898
2026-01-19 04:25:29.08	256.78	21.24	-47.9	-59.8	3.8	8.46e-01	0	37	104	0	66	14919
2026-01-19 04:25:30.09	256.66	21.12	-47.9	-59.8	3.8	8.45e-01	0	37	104	0	66	14886
2026-01-19 04:25:31.10	256.53	21.00	-47.9	-59.8	3.8	8.47e-01	0	37	104	0	66	14914
2026-01-19 04:25:32.10	256.41	20.88	-47.9	-59.8	3.8	8.46e-01	0	37	104	0	66	14896
2026-01-19 04:25:33.11	256.29	20.76	-47.9	-59.7	3.8	8.47e-01	0	37	104	0	66	14853
2026-01-19 04:25:34.12	256.17	20.64	-47.9	-59.8	3.8	8.46e-01	0	37	104	0	66	14914
2026-01-19 04:25:35.13	256.05	20.52	-47.9	-59.8	3.8	8.46e-01	0	37	104	0	66	14889
2026-01-19 04:25:36.14	255.93	20.40	-47.9	-59.7	3.8	8.46e-01	0	37	104	0	66	14854
2026-01-19 04:25:37.14	255.81	20.28	-47.9	-59.8	3.8	8.46e-01	0	37	104	0	66	14909
2026-01-19 04:25:38.15	255.70	20.16	-47.9	-59.8	3.8	8.47e-01	0	37	104	0	66	14882
2026-01-19 04:25:39.16	255.58	20.04	-47.9	-59.8	3.8	8.46e-01	0	37	104	0	66	14885
2026-01-19 04:25:40.17	255.46	19.92	-47.9	-59.7	3.8	8.46e-01	0	37	104	0	66	14872
2026-01-19 04:25:41.18	255.35	19.81	-47.9	-59.8	3.8	8.46e-01	0	37	104	0	66	14914
2026-01-19 04:25:42.19	255.24	19.69	-47.9	-59.8	3.8	8.45e-01	0	37	104	0	66	14895
2026-01-19 04:25:43.19	255.12	19.57	-47.9	-59.7	3.8	8.46e-01	0	37	104	0	66	14861
2026-01-19 04:25:44.20	255.01	19.46	-47.9	-59.8	3.8	8.46e-01	0	37	104	0	66	14930
2026-01-19 04:25:45.21	254.90	19.34	-47.9	-59.7	3.8	8.46e-01	0	37	104	0	66	14845
2026-01-19 04:25:46.22	254.79	19.23	-47.9	-59.8	3.8	8.47e-01	0	37	104	0	66	14921
2026-01-19 04:25:47.23	254.68	19.11	-47.9	-59.8	3.8	8.46e-01	0	37	104	0	66	14911
2026-01-19 04:25:48.24	254.57	19.00	-47.9	-59.8	3.8	8.45e-01	0	37	104	0	66	14908
2026-01-19 04:25:49.24	254.47	18.89	-47.9	-59.8	3.8	8.45e-01	0	37	104	0	66	14903
2026-01-19 04:25:50.25	254.36	18.77	-47.9	-59.8	3.8	8.47e-01	0	37	104	0	66	14902
2026-01-19 04:25:51.26	254.26	18.66	-47.9	-59.8	3.8	8.47e-01	0	37	104	0	66	14902
2026-01-19 04:25:52.26	254.15	18.55	-47.9	-59.8	3.8	8.47e-01	0	37	104	0	66	14902
2026-01-19 04:25:53.27	254.05	18.44	-47.9	-59.7	3.8	8.45e-01	0	37	104	0	66	14861
2026-01-19 04:25:54.28	253.94	18.32	-47.9	-59.8	3.8	8.46e-01	0	37	104	0	66	14905
2026-01-19 04:25:55.29	253.84	18.21	-47.9	-59.8	3.8	8.45e-01	0	37	104	0	66	14934
2026-01-19 04:25:56.30	253.74	18.10	-47.9	-59.7	3.8	8.47e-01	0	37	104	0	66	14875
2026-01-19 04:25:57.30	253.64	17.99	-47.9	-59.8	3.8	8.47e-01	0	37	104	0	66	14898
2026-01-19 04:25:58.31	253.54	17.88	-47.9	-59.8	3.8	8.46e-01	0	37	104	0	66	14924
2026-01-19 04:25:59.32	253.44	17.77	-47.9	-59.7	3.8	8.46e-01	0	37	104	0	66	14872
2026-01-19 04:26:00.33	253.34	17.66	-47.9	-59.8	3.8	8.47e-01	0	37	104	0	66	14912
2026-01-19 04:26:01.34	253.24	17.55	-47.9	-59.8	3.8	8.45e-01	0	37	104	0	66	14914
2026-01-19 04:26:02.34	253.15	17.44	-47.9	-59.8	3.8	8.47e-01	0	37	104	0	66	14929
2026-01-19 04:26:03.35	253.05	17.34	-47.9	-59.8	3.8	8.46e-01	0	37	104	0	66	14900
2026-01-19 04:26:04.36	252.95	17.23	-47.9	-59.7	3.8	8.46e-01	0	37	104	0	66	14863
2026-01-19 04:26:05.37	252.86	17.12	-47.9	-59.8	3.8	8.46e-01	0	37	104	0	66	14898
2026-01-19 04:26:06.38	252.76	17.01	-47.9	-59.8	3.8	8.47e-01	0	37	104	0	66	14896
2026-01-19 04:26:07.38	252.67	16.91	-47.9	-59.8	3.8	8.47e-01	0	37	104	0	66	14914
2026-01-19 04:26:08.39	252.58	16.80	-47.9	-59.7	3.8	8.47e-01	0	37	104	0	66	14849
2026-01-19 04:26:09.40	252.48	16.70	-47.9	-59.7	3.8	8.46e-01	0	37	104	0	66	14866
2026-01-19 04:26:10.41	252.39	16.59	-47.9	-59.7	3.8	8.46e-01	0	37	104	0	66	14875
2026-01-19 04:26:11.41	252.30	16.49	-47.9	-59.8	3.8	8.46e-01	0	37	104	0	66	14899
2026-01-19 04:26:12.42	252.21	16.38	-47.9	-59.8	3.8	8.47e-01	0	37	104	0	66	14905
2026-01-19 04:26:13.43	252.12	16.28	-47.9	-59.8	3.8	8.46e-01	0	37	104	0	66	14899
2026-01-19 04:26:14.44	252.03	16.17	-47.9	-59.8	3.8	8.46e-01	0	37	104	0	66	14889
2026-01-19 04:26:15.45	251.94	16.07	-47.9	-59.8	3.8	8.46e-01	0	37	104	0	66	14901
2026-01-19 04:26:16.46	251.86	15.96	-47.9	-59.8	3.8	8.45e-01	0	37	104	0	66	14912
2026-01-19 04:26:17.47	251.77	15.86	-47.9	-59.8	3.8	8.46e-01	0	37	104	0	66	14881
2026-01-19 04:26:18.48	251.68	15.76	-47.9	-59.7	3.8	8.45e-01	0	37	104	0	66	14859
2026-01-19 04:26:19.48	251.60	15.66	-47.9	-59.8	3.8	8.46e-01	0	37	104	0	66	14881
2026-01-19 04:26:20.49	251.51	15.56	-47.9	-59.8	3.8	8.46e-01	0	37	104	0	66	14891
2026-01-19 04:26:21.50	251.43	15.45	-47.9	-59.8	3.8	8.46e-01	0	37	104	0	66	14918
2026-01-19 04:26:22.51	251.34	15.35	-47.9	-59.8	3.8	8.46e-01	0	37	104	0	66	14893
2026-01-19 04:26:23.51	251.26	15.25	-47.9	-59.7	3.8	8.47e-01	0	37	104	0	66	14869
2026-01-19 04:26:24.52	251.18	15.15	-47.9	-59.7	3.8	8.46e-01	0	37	104	0	66	14846
2026-01-19 04:26:25.53	251.09	15.05	-47.9	-59.7	3.8	8.47e-01	0	37	104	0	66	14841
2026-01-19 04:26:26.54	251.01	14.95	-47.9	-59.8	3.8	8.46e-01	0	37	104	0	66	14908
2026-01-19 04:26:27.55	250.93	14.85	-47.9	-59.8	3.8	8.46e-01	0	37	104	0	66	14882
2026-01-19 04:26:28.56	250.85	14.75	-47.9	-59.8	3.8	8.46e-01	0	37	104	0	66	14888
2026-01-19 04:26:29.57	250.77	14.65	-47.9	-59.8	3.8	8.46e-01	0	37	104	0	66	14912
2026-01-19 04:26:30.58	250.69	14.56	-47.9	-59.8	3.8	8.46e-01	0	37	104	0	66	14908
2026-01-19 04:26:31.59	250.61	14.46	-47.9	-59.8	3.8	8.46e-01	0	37	104	0	66	14889
2026-01-19 04:26:32.60	250.53	14.36	-47.9	-59.7	3.8	8.46e-01	0	37	104	0	66	14854
2026-01-19 04:26:33.60	250.45	14.26	-47.9	-59.8	3.8	8.46e-01	0	37	104	0	66	14899
2026-01-19 04:26:34.61	250.38	14.17	-47.9	-59.8	3.8	8.46e-01	0	37	104	0	66	14930
2026-01-19 04:26:35.62	250.30	14.07	-47.9	-59.8	3.8	8.46e-01	0	37	104	0	66	14894
2026-01-19 04:26:36.63	250.22	13.97	-47.9	-59.7	3.8	8.46e-01	0	37	104	0	66	14866
2026-01-19 04:26:37.64	250.15	13.88	-47.9	-59.8	3.8	8.46e-01	0	37	104	0	66	14887
2026-01-19 04:26:38.64	250.07	13.78	-47.9	-59.8	3.8	8.46e-01	0	37	104	0	66	14888
2026-01-19 04:26:39.65	250.00	13.69	-47.9	-59.8	3.8	8.46e-01	0	37	104	0	66	14911
2026-01-19 04:26:40.66	249.92	13.59	-47.9	-59.7	3.8	8.46e-01	0	37	104	0	66	14872
2026-01-19 04:26:41.67	249.85	13.50	-47.9	-59.8	3.8	8.46e-01	0	37	104	0	66	14911
2026-01-19 04:26:42.67	249.77	13.40	-47.9	-59.8	3.8	8.45e-01	0	38	104	0	66	14901
2026-01-19 04:26:43.68	249.70	13.31	-47.9	-59.8	3.8	8.46e-01	0	37	104	0	66	14936
2026-01-19 04:26:44.69	249.63	13.22	-47.9	-59.8	3.8	8.46e-01	0	37	104	0	66	14921
2026-01-19 04:26:45.70	249.56	13.12	-47.9	-59.8	3.8	8.46e-01	0	37	104	0	66	14884
2026-01-19 04:26:46.71	249.48	13.03	-47.9	-59.7	3.8	8.47e-01	0	37	104	0	66	14878
2026-01-19 04:26:47.72	249.41	12.94	-47.9	-59.7	3.8	8.45e-01	0	37	104	0	66	14863
2026-01-19 04:26:48.72	249.34	12.84	-47.9	-59.8	3.8	8.46e-01	0	37	104	0	66	14910
2026-01-19 04:26:49.73	249.27	12.75	-47.9	-59.8	3.8	8.47e-01	0	37	104	0	66	14913
2026-01-19 04:26:50.74	249.20	12.66	-47.9	-59.8	3.8	8.46e-01	0	37	104	0	66	14930
2026-01-19 04:26:51.75	249.13	12.57	-47.9	-59.8	3.8	8.46e-01	0	37	104	0	66	14903
2026-01-19 04:26:52.76	249.06	12.48	-47.9	-59.8	3.8	8.47e-01	0	37	104	0	66	14911
2026-01-19 04:26:53.76	249.00	12.39	-47.9	-59.8	3.8	8.47e-01	0	37	104	0	66	14891
2026-01-19 04:26:54.77	248.93	12.30	-47.9	-59.8	3.8	8.46e-01	0	37	104	0	66	14894
2026-01-19 04:26:55.78	248.86	12.20	-47.9	-59.8	3.8	8.45e-01	0	37	104	0	66	14917
2026-01-19 04:26:56.78	248.79	12.12	-47.9	-59.8	3.8	8.46e-01	0	37	104	0	66	14883
2026-01-19 04:26:57.79	248.73	12.03	-47.9	-59.7	3.8	8.47e-01	0	37	104	0	66	14878
2026-01-19 04:26:58.80	248.66	11.94	-47.9	-59.7	3.8	8.45e-01	0	37	104	0	66	14878
2026-01-19 04:26:59.81	248.60	11.85	-47.9	-59.7	3.8	8.46e-01	0	37	104	0	66	14876
2026-01-19 04:27:00.82	248.53	11.76	-47.9	-59.8	3.8	8.46e-01	0	37	104	0	66	14883
2026-01-19 04:27:01.82	248.47	11.67	-47.9	-59.8	3.8	8.45e-01	0	37	104	0	66	14896
2026-01-19 04:27:02.83	248.40	11.58	-47.9	-59.7	3.8	8.46e-01	0	37	104	0	66	14855
2026-01-19 04:27:03.84	248.34	11.49	-47.9	-59.7	3.8	8.45e-01	0	37	104	0	66	14873
2026-01-19 04:27:04.85	248.27	11.40	-47.9	-59.8	3.8	8.46e-01	0	37	104	0	66	14902
2026-01-19 04:27:05.85	248.21	11.32	-47.9	-59.7	3.8	8.46e-01	0	37	104	0	66	14859
2026-01-19 04:27:06.86	248.15	11.23	-47.9	-59.7	3.8	8.46e-01	0	37	104	0	66	14869
2026-01-19 04:27:07.87	248.08	11.14	-47.9	-59.8	3.8	8.46e-01	0	37	104	0	66	14914
2026-01-19 04:27:08.88	248.02	11.06	-47.9	-59.8	3.8	8.46e-01	0	37	104	0	66	14906
2026-01-19 04:27:09.89	247.96	10.97	-47.9	-59.7	3.8	8.47e-01	0	37	104	0	66	14856
2026-01-19 04:27:10.89	247.90	10.88	-47.9	-59.7	3.8	8.46e-01	0	37	104	0	66	14849
2026-01-19 04:27:11.90	247.84	10.80	-47.9	-59.8	3.8	8.47e-01	0	37	104	0	66	14884
2026-01-19 04:27:12.91	247.78	10.71	-47.9	-59.8	3.8	8.44e-01	0	37	104	0	66	14889
2026-01-19 04:27:13.92	247.72	10.63	-47.9	-59.7	3.8	8.45e-01	0	37	104	0	66	14874
2026-01-19 04:27:14.92	247.66	10.54	-47.9	-59.7	3.8	8.46e-01	0	37	104	0	66	14867
2026-01-19 04:27:15.93	247.60	10.46	-47.9	-59.8	3.8	8.47e-01	0	37	104	0	66	14897
2026-01-19 04:27:16.94	247.54	10.37	-47.9	-59.8	3.8	8.45e-01	0	37	104	0	66	14918
2026-01-19 04:27:17.95	247.48	10.29	-47.9	-59.8	3.8	8.48e-01	0	37	104	0	66	14926
2026-01-19 04:27:18.96	247.42	10.20	-47.9	-59.7	3.8	8.46e-01	0	37	104	0	66	14877
2026-01-19 04:27:19.96	247.36	10.12	-47.9	-59.7	3.8	8.45e-01	0	37	104	0	66	14878
2026-01-19 04:27:20.97	247.31	10.04	-47.9	-59.8	3.8	8.46e-01	0	37	104	0	66	14936
2026-01-19 04:27:21.98	247.25	9.95	-47.9	-59.7	3.8	8.46e-01	0	37	104	0	66	14872
2026-01-19 04:27:22.99	247.19	9.87	-47.9	-59.7	3.8	8.47e-01	0	37	104	0	66	14860
2026-01-19 04:27:23.99	247.13	9.79	-47.9	-59.7	3.8	8.47e-01	0	37	104	0	66	14879
2026-01-19 04:27:25.00	247.08	9.71	-47.9	-59.8	3.8	8.45e-01	0	37	104	0	66	14897
2026-01-19 04:27:26.01	247.02	9.62	-47.9	-59.8	3.8	8.46e-01	0	37	104	0	66	14895
2026-01-19 04:27:27.02	246.97	9.54	-47.9	-59.8	3.8	8.47e-01	0	37	104	0	66	14889
2026-01-19 04:27:28.02	246.91	9.46	-47.9	-59.7	3.8	8.47e-01	0	37	104	0	66	14862
2026-01-19 04:27:29.03	246.86	9.38	-47.9	-59.7	3.8	8.46e-01	0	37	104	0	66	14855
2026-01-19 04:27:30.04	246.80	9.30	-47.9	-59.8	3.8	8.45e-01	0	37	104	0	66	14883
2026-01-19 04:27:31.05	246.75	9.22	-47.9	-59.7	3.8	8.47e-01	0	37	104	0	66	14874
2026-01-19 04:27:32.06	246.69	9.13	-47.9	-59.7	3.8	8.46e-01	0	37	104	0	66	14852
2026-01-19 04:27:33.06	246.64	9.05	-47.9	-59.7	3.8	8.46e-01	0	37	104	0	66	14873
2026-01-19 04:27:34.07	246.59	8.97	-47.9	-59.8	3.8	8.46e-01	0	37	104	0	66	14888
2026-01-19 04:27:35.08	246.53	8.89	-47.9	-59.8	3.8	8.46e-01	0	37	104	0	66	14883
2026-01-19 04:27:36.09	246.48	8.81	-47.9	-59.8	3.8	8.46e-01	0	37	104	0	66	14881
2026-01-19 04:27:37.09	246.43	8.73	-47.9	-59.7	3.8	8.46e-01	0	37	104	0	66	14854
2026-01-19 04:27:38.10	246.37	8.65	-47.9	-59.7	3.8	8.46e-01	0	37	104	0	66	14845
2026-01-19 04:27:39.11	246.32	8.58	-47.9	-59.7	3.8	8.47e-01	0	37	104	0	66	14869
2026-01-19 04:27:40.12	246.27	8.50	-47.9	-59.7	3.8	8.47e-01	0	37	104	0	66	14869
2026-01-19 04:27:41.12	246.22	8.42	-47.9	-59.7	3.8	8.47e-01	0	37	104	0	66	14845
2026-01-19 04:27:42.13	246.17	8.34	-47.9	-59.7	3.8	8.46e-01	0	37	104	0	66	14864
2026-01-19 04:27:43.14	246.12	8.26	-47.9	-59.8	3.8	8.46e-01	0	37	104	0	66	14880
2026-01-19 04:27:44.15	246.07	8.18	-47.9	-59.7	3.8	8.46e-01	0	37	104	0	66	14849
