passes_logs/2026/01/19/R3.2S_Murmansk/R3.2S_Murmansk__20260119_045213_AQUA_rec.log

#Pass ID: 20260119_045213_AQUA
#Satellite: AQUA
#Configuration: AQUA
#almurnet v.1.7.20251203
#Start time: 2026-01-19 04:52:14

#Version: 2.2.20231116
#Station: R3.2S_Murmansk
#Location: 33.079688 lon 68.888172 lat
#TLE: 1 27424U 02022A   26018.67315038  .00000896  00000+0  18931-3 0  9992
#TLE: 2 27424  98.4088 345.1622 0002002  73.7601  98.9671 14.61828261261423

#Time	Az	El	Level	Level2	SNR	BER	BlckErr	Temp	State	Recorded	gain1	gain2
2026-01-19 04:52:14.54	35.71	2.09	-49.6	-67.4	3.8	7.44e-01	0	35	0	0	69	30196
2026-01-19 04:52:15.54	35.64	2.15	-49.6	-67.4	3.8	7.46e-01	0	35	104	0	69	30367
2026-01-19 04:52:16.55	35.58	2.21	-49.6	-67.4	3.8	7.42e-01	0	35	104	0	69	30286
2026-01-19 04:52:17.56	35.52	2.27	-49.6	-67.4	3.8	7.46e-01	0	35	104	0	69	30264
2026-01-19 04:52:18.56	35.45	2.33	-49.6	-67.4	3.8	7.44e-01	0	35	104	0	69	30169
2026-01-19 04:52:19.57	35.39	2.39	-49.6	-67.4	3.8	7.44e-01	0	35	104	0	69	30224
2026-01-19 04:52:20.58	35.32	2.46	-49.6	-67.4	3.8	7.46e-01	0	35	104	0	69	30135
2026-01-19 04:52:21.59	35.26	2.52	-49.6	-67.4	3.8	7.46e-01	0	35	104	0	69	30218
2026-01-19 04:52:22.60	35.19	2.58	-49.6	-67.4	3.8	7.43e-01	0	35	104	0	69	30183
2026-01-19 04:52:23.60	35.12	2.64	-49.6	-67.4	3.8	7.45e-01	0	35	104	0	69	30149
2026-01-19 04:52:24.61	35.06	2.70	-49.6	-67.4	3.8	7.48e-01	0	35	104	0	69	30232
2026-01-19 04:52:25.62	34.99	2.77	-49.6	-67.4	3.8	7.47e-01	0	35	104	0	69	30215
2026-01-19 04:52:26.63	34.92	2.83	-49.6	-67.4	3.8	7.46e-01	0	35	104	0	69	30168
2026-01-19 04:52:27.64	34.86	2.89	-49.6	-67.4	3.8	7.45e-01	0	35	104	0	69	30256
2026-01-19 04:52:28.64	34.79	2.95	-49.6	-67.4	3.8	7.45e-01	0	35	104	0	69	30203
2026-01-19 04:52:29.65	34.72	3.02	-49.6	-67.4	3.8	7.43e-01	0	35	104	0	69	30195
2026-01-19 04:52:30.66	34.65	3.08	-49.6	-67.4	3.8	7.46e-01	0	36	104	0	69	30230
2026-01-19 04:52:31.67	34.58	3.14	-49.6	-67.4	3.8	7.42e-01	0	35	104	0	69	30220
2026-01-19 04:52:32.68	34.51	3.21	-49.6	-67.4	3.8	7.44e-01	0	35	104	0	69	30200
2026-01-19 04:52:33.68	34.44	3.27	-49.6	-67.4	3.8	7.44e-01	0	35	104	0	69	30173
2026-01-19 04:52:34.69	34.37	3.33	-49.6	-67.4	3.8	7.45e-01	0	35	104	0	69	30246
2026-01-19 04:52:35.70	34.30	3.39	-49.6	-67.4	3.8	7.42e-01	0	35	104	0	69	30189
2026-01-19 04:52:36.71	34.23	3.46	-49.6	-67.4	3.8	7.44e-01	0	35	104	0	69	30203
2026-01-19 04:52:37.72	34.16	3.52	-49.6	-67.4	3.8	7.44e-01	0	35	104	0	69	30267
2026-01-19 04:52:38.72	34.09	3.59	-49.6	-67.4	3.8	7.47e-01	0	35	104	0	69	30183
2026-01-19 04:52:39.73	34.02	3.65	-49.6	-67.4	3.8	7.46e-01	0	36	104	0	69	30259
2026-01-19 04:52:40.74	33.95	3.71	-49.6	-67.4	3.8	7.43e-01	0	36	104	0	69	30223
2026-01-19 04:52:41.75	33.88	3.78	-49.6	-67.4	3.8	7.45e-01	0	35	104	0	69	30168
2026-01-19 04:52:42.76	33.80	3.84	-49.6	-67.4	3.8	7.43e-01	0	36	104	0	69	30209
2026-01-19 04:52:43.76	33.73	3.91	-49.6	-67.4	3.8	7.44e-01	0	36	104	0	69	30181
2026-01-19 04:52:44.77	33.66	3.97	-49.6	-67.4	3.8	7.45e-01	0	36	104	0	69	30163
2026-01-19 04:52:45.78	33.58	4.04	-49.6	-67.4	3.8	7.47e-01	0	35	104	0	69	30218
2026-01-19 04:52:46.79	33.51	4.10	-49.6	-67.4	3.8	7.43e-01	0	36	104	0	69	30225
2026-01-19 04:52:47.80	33.43	4.17	-49.6	-67.4	3.8	7.47e-01	0	36	104	0	69	30217
2026-01-19 04:52:48.80	33.36	4.23	-49.6	-67.4	3.8	7.44e-01	0	36	104	0	69	30209
2026-01-19 04:52:49.81	33.28	4.30	-49.6	-67.4	3.8	7.46e-01	0	36	104	0	69	30238
2026-01-19 04:52:50.82	33.21	4.36	-49.6	-67.4	3.8	7.45e-01	0	36	104	0	69	30239
2026-01-19 04:52:51.83	33.13	4.43	-49.6	-67.4	3.8	7.47e-01	0	36	104	0	69	30185
2026-01-19 04:52:52.84	33.05	4.49	-49.6	-67.4	3.8	7.45e-01	0	36	104	0	69	30212
2026-01-19 04:52:53.85	32.98	4.56	-49.6	-67.4	3.8	7.43e-01	0	36	104	0	69	30188
2026-01-19 04:52:54.85	32.90	4.62	-49.6	-67.4	3.8	7.42e-01	0	36	104	0	69	30234
2026-01-19 04:52:55.86	32.82	4.69	-49.6	-67.4	3.8	7.46e-01	0	36	104	0	69	30213
2026-01-19 04:52:56.87	32.74	4.76	-49.6	-67.4	3.8	7.47e-01	0	36	104	0	69	30260
2026-01-19 04:52:57.88	32.67	4.82	-49.6	-67.4	3.8	7.45e-01	0	36	104	0	69	30255
2026-01-19 04:52:58.88	32.59	4.89	-49.6	-67.4	3.8	7.45e-01	0	36	104	0	69	30222
2026-01-19 04:52:59.89	32.51	4.95	-49.6	-67.4	3.8	7.45e-01	0	36	104	0	69	30181
2026-01-19 04:53:00.90	32.43	5.02	-49.6	-67.4	3.8	7.42e-01	0	36	104	0	69	30238
2026-01-19 04:53:01.90	32.35	5.09	-49.6	-67.4	3.8	7.45e-01	0	36	104	0	69	30228
2026-01-19 04:53:02.91	32.27	5.15	-49.6	-67.4	3.8	7.44e-01	0	36	104	0	69	30186
2026-01-19 04:53:03.92	32.19	5.22	-49.6	-67.4	3.8	7.47e-01	0	36	104	0	69	30232
2026-01-19 04:53:04.93	32.10	5.29	-49.6	-67.4	3.8	7.45e-01	0	36	104	0	69	30188
2026-01-19 04:53:05.94	32.02	5.36	-49.6	-67.4	3.8	7.43e-01	0	36	104	0	69	30204
2026-01-19 04:53:06.94	31.94	5.42	-49.6	-67.4	3.8	7.46e-01	0	36	104	0	69	30238
2026-01-19 04:53:07.95	31.86	5.49	-49.6	-67.4	3.8	7.43e-01	0	36	104	0	69	30220
2026-01-19 04:53:08.96	31.77	5.56	-49.6	-67.4	3.8	7.44e-01	0	36	104	0	69	30200
2026-01-19 04:53:09.96	31.69	5.63	-49.6	-67.4	3.8	7.49e-01	0	36	104	0	69	30254
2026-01-19 04:53:10.98	31.61	5.69	-49.6	-67.4	3.8	7.43e-01	0	36	104	0	69	30191
2026-01-19 04:53:11.98	31.52	5.76	-49.6	-67.4	3.8	7.44e-01	0	36	104	0	69	30250
2026-01-19 04:53:12.99	31.44	5.83	-49.6	-67.4	3.8	7.42e-01	0	36	104	0	69	30225
2026-01-19 04:53:14.00	31.35	5.90	-49.6	-67.4	3.8	7.46e-01	0	36	104	0	69	30234
2026-01-19 04:53:15.01	31.27	5.97	-49.6	-67.4	3.8	7.46e-01	0	36	104	0	69	30278
2026-01-19 04:53:16.02	31.18	6.04	-49.6	-67.4	3.8	7.45e-01	0	36	104	0	69	30203
2026-01-19 04:53:17.02	31.09	6.11	-49.6	-67.4	3.8	7.46e-01	0	36	104	0	69	30291
2026-01-19 04:53:18.03	31.01	6.17	-49.6	-67.4	3.8	7.47e-01	0	36	104	0	69	30250
2026-01-19 04:53:19.04	30.92	6.24	-49.6	-67.4	3.8	7.46e-01	0	36	104	0	69	30215
2026-01-19 04:53:20.05	30.83	6.31	-49.6	-67.4	3.8	7.46e-01	0	36	104	0	69	30269
2026-01-19 04:53:21.06	30.74	6.38	-49.6	-67.4	3.8	7.43e-01	0	36	104	0	69	30249
2026-01-19 04:53:22.06	30.65	6.45	-49.6	-67.4	3.8	7.46e-01	0	36	104	0	69	30258
2026-01-19 04:53:23.07	30.56	6.52	-49.6	-67.4	3.8	7.46e-01	0	36	104	0	69	30185
2026-01-19 04:53:24.08	30.47	6.59	-49.6	-67.4	3.8	7.46e-01	0	36	104	0	69	30219
2026-01-19 04:53:25.09	30.38	6.66	-49.6	-67.4	3.8	7.48e-01	0	36	104	0	69	30192
2026-01-19 04:53:26.10	30.29	6.73	-49.6	-67.4	3.8	7.47e-01	0	36	104	0	69	30219
2026-01-19 04:53:27.10	30.20	6.80	-49.6	-67.4	3.8	7.45e-01	0	36	104	0	69	30183
2026-01-19 04:53:28.11	30.11	6.87	-49.6	-67.4	3.8	7.47e-01	0	36	104	0	69	30237
2026-01-19 04:53:29.12	30.01	6.94	-49.6	-67.4	3.8	7.44e-01	0	36	104	0	69	30232
2026-01-19 04:53:30.13	29.92	7.01	-49.6	-67.4	3.8	7.42e-01	0	36	104	0	69	30175
2026-01-19 04:53:31.13	29.83	7.08	-49.6	-67.4	3.8	7.43e-01	0	36	104	0	69	30224
2026-01-19 04:53:32.14	29.73	7.16	-49.6	-67.4	3.8	7.46e-01	0	36	104	0	69	30292
2026-01-19 04:53:33.15	29.64	7.23	-49.6	-67.4	3.8	7.42e-01	0	36	104	0	69	30216
2026-01-19 04:53:34.16	29.54	7.30	-49.6	-67.4	3.8	7.44e-01	0	36	104	0	69	30241
2026-01-19 04:53:35.16	29.45	7.37	-49.6	-67.4	3.8	7.43e-01	0	36	104	0	69	30180
2026-01-19 04:53:36.17	29.35	7.44	-49.6	-67.4	3.8	7.47e-01	0	36	104	0	69	30225
2026-01-19 04:53:37.18	29.25	7.51	-49.6	-67.4	3.8	7.44e-01	0	36	104	0	69	30286
2026-01-19 04:53:38.19	29.16	7.59	-49.6	-67.4	3.8	7.43e-01	0	36	104	0	69	30209
2026-01-19 04:53:39.20	29.06	7.66	-49.6	-67.4	3.8	7.41e-01	0	36	104	0	69	30220
2026-01-19 04:53:40.21	28.96	7.73	-49.6	-67.4	3.8	7.43e-01	0	36	104	0	69	30219
2026-01-19 04:53:41.22	28.86	7.80	-49.6	-67.4	3.8	7.48e-01	0	36	104	0	69	30205
2026-01-19 04:53:42.23	28.76	7.87	-49.6	-67.4	3.8	7.44e-01	0	36	104	0	69	30217
2026-01-19 04:53:43.24	28.66	7.95	-49.6	-67.4	3.8	7.46e-01	0	36	104	0	69	30166
2026-01-19 04:53:44.24	28.56	8.02	-49.6	-67.4	3.8	7.48e-01	0	36	104	0	69	30257
2026-01-19 04:53:45.25	28.46	8.09	-49.6	-67.4	3.8	7.44e-01	0	36	104	0	69	30223
2026-01-19 04:53:46.26	28.36	8.17	-49.6	-67.4	3.8	7.44e-01	0	36	104	0	69	30131
2026-01-19 04:53:47.27	28.25	8.24	-49.6	-67.4	3.8	7.46e-01	0	36	104	0	69	30224
2026-01-19 04:53:48.28	28.15	8.31	-49.6	-67.4	3.8	7.46e-01	0	36	104	0	69	30165
2026-01-19 04:53:49.29	28.05	8.39	-49.6	-67.4	3.8	7.45e-01	0	36	104	0	69	30150
2026-01-19 04:53:50.30	27.94	8.46	-49.6	-67.4	3.8	7.45e-01	0	36	104	0	69	30118
2026-01-19 04:53:51.30	27.84	8.53	-49.6	-67.4	3.8	7.42e-01	0	36	104	0	69	30202
2026-01-19 04:53:52.31	27.73	8.61	-49.6	-67.4	3.8	7.44e-01	0	36	104	0	69	30161
2026-01-19 04:53:53.32	27.63	8.68	-49.6	-67.4	3.8	7.46e-01	0	36	104	0	69	30156
2026-01-19 04:53:54.33	27.52	8.76	-49.6	-67.4	3.8	7.44e-01	0	36	104	0	69	30176
2026-01-19 04:53:55.34	27.41	8.83	-49.6	-67.4	3.8	7.46e-01	0	36	104	0	69	30194
2026-01-19 04:53:56.34	27.31	8.91	-49.6	-67.4	3.8	7.46e-01	0	36	104	0	69	30148
2026-01-19 04:53:57.35	27.20	8.98	-49.6	-67.4	3.8	7.48e-01	0	36	104	0	69	30216
2026-01-19 04:53:58.36	27.09	9.06	-49.6	-67.4	3.8	7.43e-01	0	37	104	0	69	30252
2026-01-19 04:53:59.37	26.98	9.13	-49.6	-67.4	3.8	7.45e-01	0	37	104	0	69	30212
2026-01-19 04:54:00.38	26.87	9.21	-49.6	-67.4	3.8	7.45e-01	0	36	104	0	69	30251
2026-01-19 04:54:01.39	26.76	9.28	-49.6	-67.4	3.8	7.46e-01	0	36	104	0	69	30254
2026-01-19 04:54:02.39	26.65	9.36	-49.6	-67.4	3.8	7.46e-01	0	37	104	0	69	30188
2026-01-19 04:54:03.40	26.53	9.43	-49.6	-67.4	3.8	7.47e-01	0	37	104	0	69	30273
2026-01-19 04:54:04.41	26.42	9.51	-49.6	-67.4	3.8	7.43e-01	0	36	104	0	69	30269
2026-01-19 04:54:05.41	26.31	9.59	-49.6	-67.4	3.8	7.48e-01	0	37	104	0	69	30249
2026-01-19 04:54:06.42	26.19	9.66	-49.6	-67.4	3.8	7.46e-01	0	36	104	0	69	30286
2026-01-19 04:54:07.43	26.08	9.74	-49.6	-67.4	3.8	7.45e-01	0	36	104	0	69	30209
2026-01-19 04:54:08.44	25.96	9.82	-49.6	-67.4	3.8	7.42e-01	0	37	104	0	69	30248
2026-01-19 04:54:09.45	25.85	9.89	-49.6	-67.4	3.8	7.46e-01	0	36	104	0	69	30180
2026-01-19 04:54:10.46	25.73	9.97	-49.6	-67.4	3.8	7.45e-01	0	36	104	0	69	30295
2026-01-19 04:54:11.46	25.61	10.05	-49.6	-67.4	3.8	7.44e-01	0	37	104	0	69	30208
2026-01-19 04:54:12.47	25.49	10.12	-49.6	-67.4	3.8	7.43e-01	0	36	104	0	69	30257
2026-01-19 04:54:13.48	25.37	10.20	-49.6	-67.4	3.8	7.44e-01	0	36	104	0	69	30201
2026-01-19 04:54:14.49	25.25	10.28	-49.6	-67.4	3.8	7.45e-01	0	36	104	0	69	30223
2026-01-19 04:54:15.50	25.13	10.36	-49.6	-67.4	3.8	7.46e-01	0	36	104	0	69	30231
2026-01-19 04:54:16.50	25.01	10.43	-49.6	-67.4	3.8	7.45e-01	0	36	104	0	69	30262
2026-01-19 04:54:17.51	24.89	10.51	-49.6	-67.4	3.8	7.43e-01	0	36	104	0	69	30280
2026-01-19 04:54:18.52	24.77	10.59	-49.6	-67.4	3.8	7.46e-01	0	37	104	0	69	30227
2026-01-19 04:54:19.53	24.64	10.67	-49.6	-67.4	3.8	7.45e-01	0	37	104	0	69	30186
2026-01-19 04:54:20.54	24.52	10.75	-49.6	-67.4	3.8	7.42e-01	0	37	104	0	69	30227
2026-01-19 04:54:21.54	24.40	10.82	-49.6	-67.4	3.8	7.45e-01	0	36	104	0	69	30234
2026-01-19 04:54:22.55	24.27	10.90	-49.6	-67.4	3.8	7.45e-01	0	36	104	0	69	30249
2026-01-19 04:54:23.56	24.14	10.98	-49.6	-67.4	3.8	7.46e-01	0	37	104	0	69	30241
2026-01-19 04:54:24.57	24.02	11.06	-49.6	-67.4	3.8	7.46e-01	0	36	104	0	69	30201
2026-01-19 04:54:25.57	23.89	11.14	-49.6	-67.4	3.8	7.45e-01	0	36	104	0	69	30155
2026-01-19 04:54:26.59	23.76	11.22	-49.6	-67.4	3.8	7.45e-01	0	36	104	0	69	30152
2026-01-19 04:54:27.60	23.63	11.30	-49.6	-67.4	3.8	7.44e-01	0	36	104	0	69	30228
2026-01-19 04:54:28.60	23.50	11.38	-49.6	-67.4	3.8	7.45e-01	0	36	104	0	69	30155
2026-01-19 04:54:29.61	23.37	11.46	-49.6	-67.4	3.8	7.46e-01	0	37	104	0	69	30150
2026-01-19 04:54:30.62	23.24	11.54	-49.6	-67.4	3.8	7.47e-01	0	37	104	0	69	30250
2026-01-19 04:54:31.63	23.11	11.62	-49.6	-67.4	3.8	7.43e-01	0	36	104	0	69	30239
2026-01-19 04:54:32.64	22.97	11.70	-49.6	-67.4	3.8	7.46e-01	0	36	104	0	69	30247
2026-01-19 04:54:33.64	22.84	11.78	-49.6	-67.4	3.8	7.46e-01	0	37	104	0	69	30273
2026-01-19 04:54:34.65	22.70	11.86	-49.6	-67.4	3.8	7.43e-01	0	37	104	0	69	30294
2026-01-19 04:54:35.66	22.57	11.94	-49.6	-67.4	3.8	7.46e-01	0	36	104	0	69	30277
2026-01-19 04:54:36.67	22.43	12.02	-49.6	-67.4	3.8	7.44e-01	0	36	104	0	69	30265
2026-01-19 04:54:37.68	22.29	12.10	-49.6	-67.4	3.8	7.47e-01	0	36	104	0	69	30304
2026-01-19 04:54:38.69	22.16	12.18	-49.6	-67.4	3.8	7.44e-01	0	36	104	0	69	30284
2026-01-19 04:54:39.69	22.02	12.26	-49.6	-67.4	3.8	7.45e-01	0	36	104	0	69	30298
2026-01-19 04:54:40.70	21.88	12.35	-49.6	-67.4	3.8	7.41e-01	0	37	104	0	69	30262
2026-01-19 04:54:41.71	21.74	12.43	-49.6	-67.4	3.8	7.47e-01	0	37	104	0	69	30270
2026-01-19 04:54:42.72	21.59	12.51	-49.6	-67.4	3.8	7.48e-01	0	36	104	0	69	30218
2026-01-19 04:54:43.73	21.45	12.59	-49.6	-67.4	3.8	7.47e-01	0	37	104	0	69	30251
2026-01-19 04:54:44.74	21.31	12.67	-49.6	-67.4	3.8	7.44e-01	0	36	104	0	69	30212
2026-01-19 04:54:45.74	21.16	12.75	-49.6	-67.4	3.8	7.42e-01	0	37	104	0	69	30273
2026-01-19 04:54:46.75	21.02	12.84	-49.6	-67.4	3.8	7.42e-01	0	36	104	0	69	30202
2026-01-19 04:54:47.76	20.87	12.92	-49.6	-67.4	3.8	7.43e-01	0	37	104	0	69	30242
2026-01-19 04:54:48.77	20.73	13.00	-49.6	-67.4	3.8	7.47e-01	0	37	104	0	69	30197
2026-01-19 04:54:49.78	20.58	13.08	-49.6	-67.4	3.8	7.45e-01	0	37	104	0	69	30274
2026-01-19 04:54:50.79	20.43	13.17	-49.6	-67.4	3.8	7.45e-01	0	37	104	0	69	30233
2026-01-19 04:54:51.80	20.28	13.25	-49.6	-67.4	3.8	7.42e-01	0	37	104	0	69	30223
2026-01-19 04:54:52.80	20.13	13.33	-49.6	-67.4	3.8	7.47e-01	0	37	104	0	69	30210
2026-01-19 04:54:53.81	19.98	13.42	-49.6	-67.4	3.8	7.45e-01	0	37	104	0	69	30196
2026-01-19 04:54:54.82	19.83	13.50	-49.6	-67.4	3.8	7.44e-01	0	36	104	0	69	30258
2026-01-19 04:54:55.83	19.67	13.58	-49.6	-67.4	3.8	7.41e-01	0	37	104	0	69	30341
2026-01-19 04:54:56.84	19.52	13.67	-49.6	-67.4	3.8	7.43e-01	0	37	104	0	69	30225
2026-01-19 04:54:57.84	19.36	13.75	-49.6	-67.4	3.8	7.44e-01	0	37	104	0	69	30256
2026-01-19 04:54:58.85	19.21	13.83	-49.6	-67.4	3.8	7.43e-01	0	37	104	0	69	30265
2026-01-19 04:54:59.86	19.05	13.92	-49.6	-67.4	3.8	7.48e-01	0	37	104	0	69	30334
2026-01-19 04:55:00.87	18.89	14.00	-49.6	-67.4	3.8	7.43e-01	0	37	104	0	69	30250
2026-01-19 04:55:01.88	18.73	14.09	-49.6	-67.4	3.8	7.47e-01	0	37	104	0	69	30224
2026-01-19 04:55:02.88	18.57	14.17	-49.6	-67.4	3.8	7.46e-01	0	37	104	0	69	30252
2026-01-19 04:55:03.89	18.41	14.25	-49.6	-67.4	3.8	7.47e-01	0	37	104	0	69	30259
2026-01-19 04:55:04.90	18.25	14.34	-49.6	-67.4	3.8	7.44e-01	0	37	104	0	69	30302
2026-01-19 04:55:05.91	18.09	14.42	-49.6	-67.4	3.8	7.43e-01	0	37	104	0	69	30281
2026-01-19 04:55:06.92	17.92	14.51	-49.6	-67.4	3.8	7.45e-01	0	37	104	0	69	30221
2026-01-19 04:55:07.93	17.76	14.59	-49.6	-67.4	3.8	7.48e-01	0	36	104	0	69	30283
2026-01-19 04:55:08.94	17.59	14.68	-49.6	-67.4	3.8	7.42e-01	0	37	104	0	69	30284
2026-01-19 04:55:09.94	17.42	14.76	-49.6	-67.4	3.8	7.45e-01	0	37	104	0	69	30235
2026-01-19 04:55:10.95	17.25	14.85	-49.6	-67.4	3.8	7.47e-01	0	37	104	0	69	30285
2026-01-19 04:55:11.96	17.08	14.93	-49.6	-67.4	3.8	7.43e-01	0	36	104	0	69	30199
2026-01-19 04:55:12.97	16.91	15.02	-49.6	-67.4	3.8	7.44e-01	0	36	104	0	69	30206
2026-01-19 04:55:13.97	16.74	15.10	-49.6	-67.4	3.8	7.45e-01	0	37	104	0	69	30209
2026-01-19 04:55:14.98	16.57	15.19	-49.6	-67.4	3.8	7.47e-01	0	37	104	0	69	30200
2026-01-19 04:55:15.99	16.40	15.27	-49.6	-67.4	3.8	7.46e-01	0	37	104	0	69	30223
2026-01-19 04:55:17.00	16.22	15.36	-49.6	-67.4	3.8	7.46e-01	0	37	104	0	69	30271
2026-01-19 04:55:18.01	16.05	15.44	-49.6	-67.4	3.8	7.43e-01	0	37	104	0	69	30299
2026-01-19 04:55:19.02	15.87	15.53	-49.6	-67.4	3.8	7.43e-01	0	36	104	0	69	30247
2026-01-19 04:55:20.02	15.69	15.61	-49.6	-67.4	3.8	7.45e-01	0	37	104	0	69	30250
2026-01-19 04:55:21.03	15.51	15.70	-49.6	-67.4	3.8	7.43e-01	0	37	104	0	69	30288
2026-01-19 04:55:22.04	15.33	15.79	-49.6	-67.4	3.8	7.45e-01	0	37	104	0	69	30219
2026-01-19 04:55:23.05	15.15	15.87	-49.6	-67.4	3.8	7.50e-01	0	37	104	0	69	30270
2026-01-19 04:55:24.05	14.97	15.96	-49.6	-67.4	3.8	7.48e-01	0	37	104	0	69	30298
2026-01-19 04:55:25.06	14.79	16.04	-49.6	-67.4	3.8	7.46e-01	0	37	104	0	69	30249
2026-01-19 04:55:26.07	14.60	16.13	-49.6	-67.4	3.8	7.43e-01	0	37	104	0	69	30327
2026-01-19 04:55:27.08	14.41	16.21	-49.6	-67.4	3.8	7.44e-01	0	37	104	0	69	30225
2026-01-19 04:55:28.08	14.23	16.30	-49.6	-67.4	3.8	7.43e-01	0	37	104	0	69	30238
2026-01-19 04:55:29.09	14.04	16.39	-49.6	-67.4	3.8	7.46e-01	0	37	104	0	69	30269
2026-01-19 04:55:30.10	13.85	16.47	-49.6	-67.4	3.8	7.47e-01	0	37	104	0	69	30301
2026-01-19 04:55:31.11	13.66	16.56	-49.6	-67.4	3.8	7.48e-01	0	37	104	0	69	30283
2026-01-19 04:55:32.12	13.47	16.64	-49.6	-67.4	3.8	7.44e-01	0	37	104	0	69	30286
2026-01-19 04:55:33.12	13.28	16.73	-49.6	-67.4	3.8	7.46e-01	0	37	104	0	69	30232
2026-01-19 04:55:34.13	13.08	16.82	-49.6	-67.4	3.8	7.44e-01	0	37	104	0	69	30231
2026-01-19 04:55:35.14	12.89	16.90	-49.6	-67.4	3.8	7.47e-01	0	37	104	0	69	30261
2026-01-19 04:55:36.15	12.69	16.99	-49.6	-67.4	3.8	7.46e-01	0	37	104	0	69	30234
2026-01-19 04:55:37.16	12.49	17.08	-49.6	-67.4	3.8	7.48e-01	0	37	104	0	69	30243
2026-01-19 04:55:38.16	12.29	17.16	-49.6	-67.4	3.8	7.46e-01	0	37	104	0	69	30222
2026-01-19 04:55:39.17	12.09	17.25	-49.6	-67.4	3.8	7.46e-01	0	37	104	0	69	30299
2026-01-19 04:55:40.18	11.89	17.33	-49.6	-67.4	3.8	7.43e-01	0	37	104	0	69	30242
2026-01-19 04:55:41.19	11.69	17.42	-49.6	-67.4	3.8	7.46e-01	0	37	104	0	69	30247
2026-01-19 04:55:42.19	11.49	17.51	-49.6	-67.4	3.8	7.43e-01	0	37	104	0	69	30218
2026-01-19 04:55:43.20	11.28	17.59	-49.6	-67.4	3.8	7.45e-01	0	37	104	0	69	30252
2026-01-19 04:55:44.21	11.08	17.68	-49.6	-67.4	3.8	7.47e-01	0	37	104	0	69	30193
2026-01-19 04:55:45.22	10.87	17.76	-49.6	-67.4	3.8	7.47e-01	0	37	104	0	69	30274
2026-01-19 04:55:46.23	10.66	17.85	-49.6	-67.4	3.8	7.45e-01	0	37	104	0	69	30285
2026-01-19 04:55:47.24	10.45	17.94	-49.6	-67.4	3.8	7.44e-01	0	37	104	0	69	30228
2026-01-19 04:55:48.24	10.24	18.02	-49.6	-67.4	3.8	7.45e-01	0	37	104	0	69	30268
2026-01-19 04:55:49.25	10.02	18.11	-49.6	-67.4	3.8	7.49e-01	0	37	104	0	69	30233
2026-01-19 04:55:50.26	9.81	18.19	-49.6	-67.4	3.8	7.46e-01	0	37	104	0	69	30241
2026-01-19 04:55:51.27	9.59	18.28	-49.6	-67.4	3.8	7.45e-01	0	37	104	0	69	30295
2026-01-19 04:55:52.28	9.38	18.36	-49.6	-67.4	3.8	7.50e-01	0	37	104	0	69	30285
2026-01-19 04:55:53.28	9.16	18.45	-49.6	-67.4	3.8	7.42e-01	0	37	104	0	69	30279
2026-01-19 04:55:54.29	8.94	18.54	-49.6	-67.4	3.8	7.48e-01	0	37	104	0	69	30223
2026-01-19 04:55:55.30	8.72	18.62	-49.6	-67.4	3.8	7.42e-01	0	37	104	0	69	30238
2026-01-19 04:55:56.30	8.50	18.71	-49.6	-67.4	3.8	7.45e-01	0	36	104	0	69	30272
2026-01-19 04:55:57.31	8.28	18.79	-49.6	-67.4	3.8	7.46e-01	0	37	104	0	69	30247
2026-01-19 04:55:58.32	8.05	18.88	-49.6	-67.4	3.8	7.45e-01	0	37	104	0	69	30226
2026-01-19 04:55:59.33	7.82	18.96	-49.6	-67.4	3.8	7.49e-01	0	37	104	0	69	30247
2026-01-19 04:56:00.34	7.60	19.05	-49.6	-67.4	3.8	7.45e-01	0	37	104	0	69	30261
2026-01-19 04:56:01.34	7.37	19.13	-49.6	-67.4	3.8	7.44e-01	0	36	104	0	69	30212
2026-01-19 04:56:02.35	7.14	19.21	-49.6	-67.4	3.8	7.47e-01	0	37	104	0	69	30288
2026-01-19 04:56:03.36	6.91	19.30	-49.6	-67.4	3.8	7.46e-01	0	37	104	0	69	30286
2026-01-19 04:56:04.37	6.67	19.38	-49.6	-67.4	3.8	7.45e-01	0	37	104	0	69	30264
2026-01-19 04:56:05.37	6.44	19.47	-49.6	-67.4	3.8	7.46e-01	0	37	104	0	69	30274
2026-01-19 04:56:06.38	6.21	19.55	-49.6	-67.4	3.8	7.47e-01	0	37	104	0	69	30281
2026-01-19 04:56:07.39	5.97	19.63	-49.6	-67.4	3.8	7.44e-01	0	37	104	0	69	30255
2026-01-19 04:56:08.40	5.73	19.72	-49.6	-67.4	3.8	7.49e-01	0	37	104	0	69	30271
2026-01-19 04:56:09.41	5.49	19.80	-49.6	-67.4	3.8	7.45e-01	0	37	104	0	69	30235
2026-01-19 04:56:10.41	5.25	19.88	-49.6	-67.4	3.8	7.44e-01	0	37	104	0	69	30269
2026-01-19 04:56:11.42	5.01	19.97	-49.6	-67.4	3.8	7.46e-01	0	37	104	0	69	30278
2026-01-19 04:56:12.43	4.76	20.05	-49.6	-67.4	3.8	7.44e-01	0	37	104	0	69	30279
2026-01-19 04:56:13.44	4.52	20.13	-49.6	-67.4	3.8	7.45e-01	0	37	104	0	69	30256
2026-01-19 04:56:14.45	4.27	20.21	-49.6	-67.4	3.8	7.41e-01	0	37	104	0	69	30228
2026-01-19 04:56:15.45	4.02	20.29	-49.6	-67.4	3.8	7.44e-01	0	37	104	0	69	30313
2026-01-19 04:56:16.46	3.77	20.38	-49.6	-67.4	3.8	7.48e-01	0	37	104	0	69	30246
2026-01-19 04:56:17.47	3.52	20.46	-49.6	-67.4	3.8	7.47e-01	0	37	104	0	69	30274
2026-01-19 04:56:18.48	3.27	20.54	-49.6	-67.4	3.8	7.46e-01	0	37	104	0	69	30236
2026-01-19 04:56:19.49	3.02	20.62	-49.6	-67.4	3.8	7.42e-01	0	37	104	0	69	30286
2026-01-19 04:56:20.49	2.76	20.70	-49.6	-67.4	3.8	7.45e-01	0	37	104	0	69	30233
2026-01-19 04:56:21.50	2.51	20.78	-49.6	-67.4	3.8	7.44e-01	0	37	104	0	69	30180
2026-01-19 04:56:22.51	2.25	20.86	-49.6	-67.4	3.8	7.44e-01	0	37	104	0	69	30284
2026-01-19 04:56:23.52	1.99	20.94	-49.6	-67.4	3.8	7.47e-01	0	37	104	0	69	30315
2026-01-19 04:56:24.52	1.73	21.02	-49.6	-67.4	3.8	7.47e-01	0	37	104	0	69	30307
2026-01-19 04:56:25.53	1.47	21.10	-49.6	-67.4	3.8	7.45e-01	0	37	104	0	69	30285
2026-01-19 04:56:26.54	1.20	21.18	-49.6	-67.4	3.8	7.46e-01	0	37	104	0	69	30259
2026-01-19 04:56:27.55	0.94	21.26	-49.6	-67.4	3.8	7.46e-01	0	37	104	0	69	30308
2026-01-19 04:56:28.56	0.67	21.33	-49.6	-67.4	3.8	7.48e-01	0	37	104	0	69	30216
2026-01-19 04:56:29.56	0.40	21.41	-49.6	-67.4	3.8	7.46e-01	0	37	104	0	69	30298
2026-01-19 04:56:30.57	0.13	21.49	-49.6	-67.4	3.8	7.44e-01	0	37	104	0	69	30306
2026-01-19 04:56:31.58	359.86	21.56	-49.6	-67.4	3.8	7.46e-01	0	37	104	0	69	30247
2026-01-19 04:56:32.59	359.59	21.64	-49.6	-67.4	3.8	7.45e-01	0	37	104	0	69	30297
2026-01-19 04:56:33.59	359.32	21.72	-49.6	-67.4	3.8	7.44e-01	0	37	104	0	69	30240
2026-01-19 04:56:34.60	359.04	21.79	-49.6	-67.4	3.8	7.45e-01	0	37	104	0	69	30274
2026-01-19 04:56:35.61	358.77	21.87	-49.6	-67.4	3.8	7.46e-01	0	37	104	0	69	30230
2026-01-19 04:56:36.62	358.49	21.94	-49.6	-67.4	3.8	7.46e-01	0	37	104	0	69	30291
2026-01-19 04:56:37.63	358.21	22.02	-49.6	-67.4	3.8	7.46e-01	0	37	104	0	69	30224
2026-01-19 04:56:38.64	357.93	22.09	-49.6	-67.4	3.8	7.45e-01	0	37	104	0	69	30306
2026-01-19 04:56:39.64	357.65	22.16	-49.6	-67.4	3.8	7.46e-01	0	37	104	0	69	30301
2026-01-19 04:56:40.65	357.36	22.23	-49.6	-67.4	3.8	7.49e-01	0	37	104	0	69	30344
2026-01-19 04:56:41.66	357.08	22.31	-49.6	-67.4	3.8	7.44e-01	0	37	104	0	69	30231
2026-01-19 04:56:42.67	356.79	22.38	-49.6	-67.4	3.8	7.43e-01	0	37	104	0	69	30307
2026-01-19 04:56:43.67	356.50	22.45	-49.6	-67.4	3.8	7.43e-01	0	37	104	0	69	30257
2026-01-19 04:56:44.68	356.21	22.52	-49.6	-67.4	3.8	7.44e-01	0	37	104	0	69	30237
2026-01-19 04:56:45.69	355.92	22.59	-49.6	-67.4	3.8	7.45e-01	0	37	104	0	69	30247
2026-01-19 04:56:46.70	355.63	22.66	-49.6	-67.4	3.8	7.44e-01	0	37	104	0	69	30288
2026-01-19 04:56:47.70	355.34	22.73	-49.6	-67.4	3.8	7.45e-01	0	37	104	0	69	30290
2026-01-19 04:56:48.71	355.04	22.80	-49.6	-67.4	3.8	7.43e-01	0	37	104	0	69	30312
2026-01-19 04:56:49.72	354.75	22.86	-49.6	-67.4	3.8	7.46e-01	0	37	104	0	69	30297
2026-01-19 04:56:50.73	354.45	22.93	-49.6	-67.4	3.8	7.45e-01	0	37	104	0	69	30293
2026-01-19 04:56:51.74	354.15	23.00	-49.6	-67.4	3.8	7.47e-01	0	37	104	0	69	30268
2026-01-19 04:56:52.75	353.85	23.06	-49.6	-67.4	3.8	7.45e-01	0	37	104	0	69	30246
2026-01-19 04:56:53.76	353.55	23.13	-49.6	-67.4	3.8	7.46e-01	0	37	104	0	69	30304
2026-01-19 04:56:54.76	353.25	23.19	-49.6	-67.4	3.8	7.47e-01	0	37	104	0	69	30271
2026-01-19 04:56:55.77	352.94	23.26	-49.6	-67.4	3.8	7.43e-01	0	37	104	0	69	30280
2026-01-19 04:56:56.78	352.64	23.32	-49.6	-67.4	3.8	7.45e-01	0	37	104	0	69	30234
2026-01-19 04:56:57.78	352.33	23.38	-49.6	-67.4	3.8	7.43e-01	0	37	104	0	69	30293
2026-01-19 04:56:58.79	352.02	23.44	-49.6	-67.4	3.8	7.44e-01	0	37	104	0	69	30270
2026-01-19 04:56:59.80	351.71	23.51	-49.6	-67.4	3.8	7.43e-01	0	37	104	0	69	30260
2026-01-19 04:57:00.81	351.40	23.57	-49.6	-67.4	3.8	7.47e-01	0	37	104	0	69	30247
2026-01-19 04:57:01.81	351.09	23.63	-49.6	-67.4	3.8	7.43e-01	0	37	104	0	69	30232
2026-01-19 04:57:02.82	350.78	23.69	-49.6	-67.4	3.8	7.44e-01	0	37	104	0	69	30298
2026-01-19 04:57:03.83	350.47	23.74	-49.6	-67.4	3.8	7.48e-01	0	37	104	0	69	30296
2026-01-19 04:57:04.84	350.15	23.80	-49.6	-67.4	3.8	7.47e-01	0	37	104	0	69	30294
2026-01-19 04:57:05.85	349.83	23.86	-49.6	-67.4	3.8	7.42e-01	0	37	104	0	69	30241
2026-01-19 04:57:06.85	349.52	23.91	-49.6	-67.4	3.8	7.45e-01	0	37	104	0	69	30210
2026-01-19 04:57:07.86	349.20	23.97	-49.6	-67.4	3.8	7.47e-01	0	37	104	0	69	30280
2026-01-19 04:57:08.87	348.88	24.02	-49.6	-67.4	3.8	7.45e-01	0	37	104	0	69	30286
2026-01-19 04:57:09.88	348.55	24.08	-49.6	-67.4	3.8	7.42e-01	0	37	104	0	69	30325
2026-01-19 04:57:10.89	348.23	24.13	-49.6	-67.4	3.8	7.48e-01	0	37	104	0	69	30267
2026-01-19 04:57:11.90	347.91	24.18	-49.6	-67.4	3.8	7.48e-01	0	37	104	0	69	30241
2026-01-19 04:57:12.90	347.58	24.23	-49.6	-67.4	3.8	7.45e-01	0	37	104	0	69	30239
2026-01-19 04:57:13.91	347.26	24.28	-49.6	-67.4	3.8	7.49e-01	0	37	104	0	69	30278
2026-01-19 04:57:14.92	346.93	24.33	-49.6	-67.4	3.8	7.45e-01	0	37	104	0	69	30285
2026-01-19 04:57:15.93	346.60	24.38	-49.6	-67.4	3.8	7.46e-01	0	37	104	0	69	30210
2026-01-19 04:57:16.94	346.27	24.43	-49.6	-67.4	3.8	7.48e-01	0	37	104	0	69	30217
2026-01-19 04:57:17.94	345.94	24.47	-49.6	-67.4	3.8	7.44e-01	0	37	104	0	69	30217
2026-01-19 04:57:18.95	345.61	24.52	-49.6	-67.4	3.8	7.43e-01	0	37	104	0	69	30222
2026-01-19 04:57:19.96	345.28	24.56	-49.6	-67.4	3.8	7.45e-01	0	37	104	0	69	30224
2026-01-19 04:57:20.97	344.95	24.61	-49.6	-67.4	3.8	7.44e-01	0	37	104	0	69	30266
2026-01-19 04:57:21.97	344.61	24.65	-49.6	-67.4	3.8	7.45e-01	0	37	104	0	69	30269
2026-01-19 04:57:22.98	344.28	24.69	-49.6	-67.4	3.8	7.44e-01	0	37	104	0	69	30244
2026-01-19 04:57:23.99	343.94	24.73	-49.6	-67.4	3.8	7.46e-01	0	37	104	0	69	30302
2026-01-19 04:57:25.00	343.60	24.77	-49.6	-67.4	3.8	7.49e-01	0	37	104	0	69	30287
2026-01-19 04:57:26.01	343.27	24.81	-49.6	-67.4	3.8	7.48e-01	0	37	104	0	69	30293
2026-01-19 04:57:27.01	342.93	24.85	-49.6	-67.4	3.8	7.45e-01	0	37	104	0	69	30223
2026-01-19 04:57:28.02	342.59	24.89	-49.6	-67.4	3.8	7.46e-01	0	37	104	0	69	30279
2026-01-19 04:57:29.03	342.25	24.92	-49.6	-67.4	3.8	7.48e-01	0	37	104	0	69	30285
2026-01-19 04:57:30.04	341.91	24.96	-49.6	-67.4	3.8	7.46e-01	0	37	104	0	69	30245
2026-01-19 04:57:31.05	341.56	24.99	-49.6	-67.4	3.8	7.46e-01	0	37	104	0	69	30254
2026-01-19 04:57:32.06	341.22	25.02	-49.6	-67.4	3.8	7.45e-01	0	37	104	0	69	30302
2026-01-19 04:57:33.07	340.88	25.06	-49.6	-67.4	3.8	7.44e-01	0	37	104	0	69	30219
2026-01-19 04:57:34.08	340.53	25.09	-49.6	-67.4	3.8	7.45e-01	0	37	104	0	69	30249
2026-01-19 04:57:35.08	340.19	25.12	-49.6	-67.4	3.8	7.44e-01	0	37	104	0	69	30293
2026-01-19 04:57:36.09	339.84	25.15	-49.6	-67.4	3.8	7.46e-01	0	37	104	0	69	30251
2026-01-19 04:57:37.10	339.50	25.17	-49.6	-67.4	3.8	7.44e-01	0	37	104	0	69	30341
2026-01-19 04:57:38.11	339.15	25.20	-49.6	-67.4	3.8	7.47e-01	0	37	104	0	69	30259
2026-01-19 04:57:39.11	338.80	25.23	-49.6	-67.4	3.8	7.47e-01	0	37	104	0	69	30263
2026-01-19 04:57:40.12	338.45	25.25	-49.6	-67.4	3.8	7.43e-01	0	37	104	0	69	30228
2026-01-19 04:57:41.13	338.11	25.27	-49.6	-67.4	3.8	7.46e-01	0	37	104	0	69	30243
2026-01-19 04:57:42.14	337.76	25.30	-49.6	-67.4	3.8	7.46e-01	0	37	104	0	69	30329
2026-01-19 04:57:43.15	337.41	25.32	-49.6	-67.4	3.8	7.47e-01	0	37	104	0	69	30282
2026-01-19 04:57:44.15	337.06	25.34	-49.6	-67.4	3.8	7.45e-01	0	37	104	0	69	30182
2026-01-19 04:57:45.16	336.71	25.35	-49.6	-67.4	3.8	7.45e-01	0	37	104	0	69	30260
2026-01-19 04:57:46.17	336.36	25.37	-49.6	-67.4	3.8	7.46e-01	0	37	104	0	69	30291
2026-01-19 04:57:47.18	336.00	25.39	-49.6	-67.4	3.8	7.49e-01	0	37	104	0	69	30278
2026-01-19 04:57:48.19	335.65	25.40	-49.6	-67.4	3.8	7.44e-01	0	37	104	0	69	30258
2026-01-19 04:57:49.19	335.30	25.42	-49.6	-67.4	3.8	7.44e-01	0	37	104	0	69	30308
2026-01-19 04:57:50.20	334.95	25.43	-49.6	-67.4	3.8	7.48e-01	0	37	104	0	69	30246
2026-01-19 04:57:51.21	334.60	25.44	-49.6	-67.4	3.8	7.42e-01	0	37	104	0	69	30271
2026-01-19 04:57:52.22	334.24	25.45	-49.6	-67.4	3.8	7.44e-01	0	37	104	0	69	30336
2026-01-19 04:57:53.22	333.89	25.46	-49.6	-67.4	3.8	7.44e-01	0	37	104	0	69	30296
2026-01-19 04:57:54.23	333.54	25.47	-49.6	-67.4	3.8	7.47e-01	0	37	104	0	69	30276
2026-01-19 04:57:55.24	333.18	25.48	-49.6	-67.4	3.8	7.45e-01	0	37	104	0	69	30265
2026-01-19 04:57:56.24	332.83	25.49	-49.6	-67.4	3.8	7.43e-01	0	37	104	0	69	30286
2026-01-19 04:57:57.25	332.48	25.49	-49.6	-67.4	3.8	7.45e-01	0	37	104	0	69	30279
2026-01-19 04:57:58.26	332.12	25.50	-49.6	-67.4	3.8	7.45e-01	0	37	104	0	69	30290
2026-01-19 04:57:59.27	331.77	25.50	-49.6	-67.4	3.8	7.49e-01	0	37	104	0	69	30243
2026-01-19 04:58:00.28	331.41	25.50	-49.6	-67.4	3.8	7.49e-01	0	37	104	0	69	30271
2026-01-19 04:58:01.28	331.06	25.50	-49.6	-67.4	3.8	7.46e-01	0	37	104	0	69	30233
2026-01-19 04:58:02.29	330.71	25.50	-49.6	-67.4	3.8	7.46e-01	0	37	104	0	69	30246
2026-01-19 04:58:03.30	330.35	25.50	-49.6	-67.4	3.8	7.45e-01	0	37	104	0	69	30249
2026-01-19 04:58:04.31	330.00	25.50	-49.6	-67.4	3.8	7.43e-01	0	37	104	0	69	30256
2026-01-19 04:58:05.31	329.64	25.49	-49.6	-67.4	3.8	7.47e-01	0	37	104	0	69	30331
2026-01-19 04:58:06.33	329.29	25.49	-49.6	-67.4	3.8	7.44e-01	0	37	104	0	69	30245
2026-01-19 04:58:07.33	328.94	25.48	-49.6	-67.4	3.8	7.45e-01	0	37	104	0	69	30304
2026-01-19 04:58:08.34	328.58	25.47	-49.6	-67.4	3.8	7.46e-01	0	37	104	0	69	30218
2026-01-19 04:58:09.35	328.23	25.46	-49.6	-67.4	3.8	7.46e-01	0	37	104	0	69	30335
2026-01-19 04:58:10.35	327.88	25.45	-49.6	-67.4	3.8	7.46e-01	0	37	104	0	69	30272
2026-01-19 04:58:11.36	327.52	25.44	-49.6	-67.4	3.8	7.43e-01	0	37	104	0	69	30218
2026-01-19 04:58:12.37	327.17	25.43	-49.6	-67.4	3.8	7.44e-01	0	37	104	0	69	30289
2026-01-19 04:58:13.38	326.82	25.42	-49.6	-67.4	3.8	7.44e-01	0	37	104	0	69	30268
2026-01-19 04:58:14.38	326.47	25.40	-49.6	-67.4	3.8	7.47e-01	0	37	104	0	69	30369
2026-01-19 04:58:15.39	326.11	25.39	-49.6	-67.4	3.8	7.45e-01	0	37	104	0	69	30257
2026-01-19 04:58:16.40	325.76	25.37	-49.6	-67.4	3.8	7.44e-01	0	37	104	0	69	30296
2026-01-19 04:58:17.41	325.41	25.35	-49.6	-67.4	3.8	7.46e-01	0	37	104	0	69	30301
2026-01-19 04:58:18.42	325.06	25.33	-49.6	-67.4	3.8	7.46e-01	0	37	104	0	69	30244
2026-01-19 04:58:19.42	324.71	25.31	-49.6	-67.4	3.8	7.44e-01	0	37	104	0	69	30312
2026-01-19 04:58:20.43	324.36	25.29	-49.6	-67.4	3.8	7.43e-01	0	37	104	0	69	30289
2026-01-19 04:58:21.44	324.01	25.27	-49.6	-67.4	3.8	7.43e-01	0	37	104	0	69	30306
2026-01-19 04:58:22.45	323.66	25.25	-49.6	-67.4	3.8	7.46e-01	0	37	104	0	69	30345
2026-01-19 04:58:23.45	323.32	25.22	-49.6	-67.4	3.8	7.45e-01	0	37	104	0	69	30280
2026-01-19 04:58:24.46	322.97	25.20	-49.6	-67.4	3.8	7.41e-01	0	37	104	0	69	30255
2026-01-19 04:58:25.47	322.62	25.17	-49.6	-67.4	3.8	7.43e-01	0	37	104	0	69	30296
2026-01-19 04:58:26.48	322.27	25.14	-49.6	-67.4	3.8	7.45e-01	0	37	104	0	69	30354
2026-01-19 04:58:27.48	321.93	25.11	-49.6	-67.4	3.8	7.42e-01	0	37	104	0	69	30262
2026-01-19 04:58:28.49	321.59	25.08	-49.6	-67.4	3.8	7.44e-01	0	37	104	0	69	30275
2026-01-19 04:58:29.50	321.24	25.05	-49.6	-67.4	3.8	7.45e-01	0	37	104	0	69	30271
2026-01-19 04:58:30.51	320.90	25.02	-49.6	-67.4	3.8	7.45e-01	0	37	104	0	69	30316
2026-01-19 04:58:31.52	320.55	24.99	-49.6	-67.4	3.8	7.44e-01	0	37	104	0	69	30244
2026-01-19 04:58:32.52	320.21	24.95	-49.6	-67.4	3.8	7.49e-01	0	37	104	0	69	30266
2026-01-19 04:58:33.53	319.87	24.92	-49.6	-67.4	3.8	7.47e-01	0	37	104	0	69	30338
2026-01-19 04:58:34.54	319.53	24.88	-49.6	-67.4	3.8	7.47e-01	0	37	104	0	69	30256
2026-01-19 04:58:35.55	319.19	24.84	-49.6	-67.4	3.8	7.44e-01	0	37	104	0	69	30280
2026-01-19 04:58:36.56	318.85	24.81	-49.6	-67.4	3.8	7.42e-01	0	37	104	0	69	30251
2026-01-19 04:58:37.57	318.51	24.77	-49.6	-67.4	3.8	7.46e-01	0	37	104	0	69	30244
2026-01-19 04:58:38.58	318.17	24.73	-49.6	-67.4	3.8	7.46e-01	0	37	104	0	69	30248
2026-01-19 04:58:39.58	317.84	24.69	-49.6	-67.4	3.8	7.44e-01	0	37	104	0	69	30261
2026-01-19 04:58:40.59	317.50	24.64	-49.6	-67.4	3.8	7.44e-01	0	37	104	0	69	30214
2026-01-19 04:58:41.60	317.17	24.60	-49.6	-67.4	3.8	7.45e-01	0	37	104	0	69	30208
2026-01-19 04:58:42.61	316.84	24.56	-49.6	-67.4	3.8	7.48e-01	0	37	104	0	69	30290
2026-01-19 04:58:43.62	316.50	24.51	-49.6	-67.4	3.8	7.47e-01	0	37	104	0	69	30287
2026-01-19 04:58:44.62	316.17	24.47	-49.6	-67.4	3.8	7.42e-01	0	37	104	0	69	30281
2026-01-19 04:58:45.63	315.84	24.42	-49.6	-67.4	3.8	7.50e-01	0	37	104	0	69	30360
2026-01-19 04:58:46.64	315.51	24.37	-49.6	-67.4	3.8	7.44e-01	0	37	104	0	69	30300
2026-01-19 04:58:47.65	315.18	24.32	-49.6	-67.4	3.8	7.41e-01	0	37	104	0	69	30286
2026-01-19 04:58:48.66	314.86	24.27	-49.6	-67.4	3.8	7.42e-01	0	37	104	0	69	30357
2026-01-19 04:58:49.67	314.53	24.22	-49.6	-67.4	3.8	7.44e-01	0	37	104	0	69	30221
2026-01-19 04:58:50.68	314.20	24.17	-49.6	-67.4	3.8	7.45e-01	0	37	104	0	69	30233
2026-01-19 04:58:51.69	313.88	24.12	-49.6	-67.4	3.8	7.44e-01	0	37	104	0	69	30314
2026-01-19 04:58:52.69	313.56	24.07	-49.6	-67.4	3.8	7.44e-01	0	37	104	0	69	30263
2026-01-19 04:58:53.70	313.24	24.01	-49.6	-67.4	3.8	7.45e-01	0	37	104	0	69	30225
2026-01-19 04:58:54.71	312.92	23.96	-49.6	-67.4	3.8	7.44e-01	0	37	104	0	69	30279
2026-01-19 04:58:55.72	312.60	23.90	-49.6	-67.4	3.8	7.43e-01	0	37	104	0	69	30286
2026-01-19 04:58:56.72	312.28	23.85	-49.6	-67.4	3.8	7.47e-01	0	37	104	0	69	30268
2026-01-19 04:58:57.73	311.96	23.79	-49.6	-67.4	3.8	7.46e-01	0	37	104	0	69	30299
2026-01-19 04:58:58.74	311.65	23.73	-49.6	-67.4	3.8	7.44e-01	0	37	104	0	69	30259
2026-01-19 04:58:59.75	311.33	23.68	-49.6	-67.4	3.8	7.45e-01	0	37	104	0	69	30246
2026-01-19 04:59:00.76	311.02	23.62	-49.6	-67.4	3.8	7.45e-01	0	37	104	0	69	30226
2026-01-19 04:59:01.76	310.71	23.56	-49.6	-67.4	3.8	7.45e-01	0	37	104	0	69	30217
2026-01-19 04:59:02.77	310.40	23.50	-49.6	-67.4	3.8	7.46e-01	0	37	104	0	69	30244
2026-01-19 04:59:03.78	310.09	23.43	-49.6	-67.4	3.8	7.48e-01	0	37	104	0	69	30291
2026-01-19 04:59:04.79	309.78	23.37	-49.6	-67.4	3.8	7.46e-01	0	37	104	0	69	30241
2026-01-19 04:59:05.80	309.47	23.31	-49.6	-67.4	3.8	7.47e-01	0	37	104	0	69	30261
2026-01-19 04:59:06.80	309.17	23.25	-49.6	-67.4	3.8	7.46e-01	0	37	104	0	69	30264
2026-01-19 04:59:07.81	308.86	23.18	-49.6	-67.4	3.8	7.46e-01	0	37	104	0	69	30249
2026-01-19 04:59:08.82	308.56	23.12	-49.6	-67.4	3.8	7.48e-01	0	37	104	0	69	30302
2026-01-19 04:59:09.83	308.26	23.05	-49.6	-67.4	3.8	7.42e-01	0	37	104	0	69	30241
2026-01-19 04:59:10.84	307.96	22.99	-49.6	-67.4	3.8	7.46e-01	0	37	104	0	69	30275
2026-01-19 04:59:11.84	307.66	22.92	-49.6	-67.4	3.8	7.46e-01	0	37	104	0	69	30251
2026-01-19 04:59:12.85	307.36	22.85	-49.6	-67.4	3.8	7.44e-01	0	37	104	0	69	30234
2026-01-19 04:59:13.86	307.06	22.78	-49.6	-67.4	3.8	7.48e-01	0	37	104	0	69	30232
2026-01-19 04:59:14.87	306.77	22.72	-49.6	-67.4	3.8	7.44e-01	0	37	104	0	69	30225
2026-01-19 04:59:15.87	306.48	22.65	-49.6	-67.4	3.8	7.44e-01	0	37	104	0	69	30254
2026-01-19 04:59:16.88	306.19	22.58	-49.6	-67.4	3.8	7.48e-01	0	37	104	0	69	30297
2026-01-19 04:59:17.89	305.89	22.51	-49.6	-67.4	3.8	7.44e-01	0	37	104	0	69	30333
2026-01-19 04:59:18.90	305.60	22.44	-49.6	-67.4	3.8	7.46e-01	0	37	104	0	69	30279
2026-01-19 04:59:19.91	305.32	22.36	-49.6	-67.4	3.8	7.45e-01	0	37	104	0	69	30284
2026-01-19 04:59:20.92	305.03	22.29	-49.6	-67.4	3.8	7.44e-01	0	37	104	0	69	30229
2026-01-19 04:59:21.92	304.75	22.22	-49.6	-67.4	3.8	7.47e-01	0	37	104	0	69	30240
2026-01-19 04:59:22.93	304.46	22.15	-49.6	-67.4	3.8	7.45e-01	0	37	104	0	69	30269
2026-01-19 04:59:23.94	304.18	22.07	-49.6	-67.4	3.8	7.44e-01	0	37	104	0	69	30272
2026-01-19 04:59:24.95	303.90	22.00	-49.6	-67.4	3.8	7.44e-01	0	37	104	0	69	30242
2026-01-19 04:59:25.96	303.62	21.93	-49.6	-67.4	3.8	7.45e-01	0	37	104	0	69	30335
2026-01-19 04:59:26.96	303.34	21.85	-49.6	-67.4	3.8	7.48e-01	0	37	104	0	69	30286
2026-01-19 04:59:27.97	303.06	21.78	-49.6	-67.4	3.8	7.47e-01	0	37	104	0	69	30255
2026-01-19 04:59:28.98	302.79	21.70	-49.6	-67.4	3.8	7.43e-01	0	37	104	0	69	30265
2026-01-19 04:59:29.99	302.51	21.63	-49.6	-67.4	3.8	7.45e-01	0	37	104	0	69	30297
2026-01-19 04:59:31.00	302.24	21.55	-49.6	-67.4	3.8	7.40e-01	0	37	104	0	69	30265
2026-01-19 04:59:32.00	301.97	21.47	-49.6	-67.4	3.8	7.43e-01	0	37	104	0	69	30236
2026-01-19 04:59:33.01	301.70	21.39	-49.6	-67.4	3.8	7.44e-01	0	37	104	0	69	30240
2026-01-19 04:59:34.02	301.43	21.32	-49.6	-67.4	3.8	7.48e-01	0	37	104	0	69	30285
2026-01-19 04:59:35.03	301.16	21.24	-49.6	-67.4	3.8	7.46e-01	0	37	104	0	69	30217
2026-01-19 04:59:36.04	300.90	21.16	-49.6	-67.4	3.8	7.44e-01	0	37	104	0	69	30316
2026-01-19 04:59:37.05	300.63	21.08	-49.6	-67.4	3.8	7.43e-01	0	37	104	0	69	30277
2026-01-19 04:59:38.06	300.37	21.00	-49.6	-67.4	3.8	7.44e-01	0	37	104	0	69	30312
2026-01-19 04:59:39.06	300.11	20.92	-49.6	-67.4	3.8	7.45e-01	0	37	104	0	69	30254
2026-01-19 04:59:40.07	299.85	20.84	-49.6	-67.4	3.8	7.44e-01	0	37	104	0	69	30342
2026-01-19 04:59:41.08	299.59	20.76	-49.6	-67.4	3.8	7.44e-01	0	37	104	0	69	30247
2026-01-19 04:59:42.09	299.34	20.68	-49.6	-67.4	3.8	7.43e-01	0	37	104	0	69	30293
2026-01-19 04:59:43.10	299.08	20.60	-49.6	-67.4	3.8	7.45e-01	0	37	104	0	69	30252
2026-01-19 04:59:44.10	298.83	20.52	-49.6	-67.4	3.8	7.43e-01	0	37	104	0	69	30267
2026-01-19 04:59:45.11	298.57	20.44	-49.6	-67.4	3.8	7.48e-01	0	37	104	0	69	30366
2026-01-19 04:59:46.12	298.32	20.36	-49.6	-67.4	3.8	7.45e-01	0	37	104	0	69	30240
2026-01-19 04:59:47.13	298.07	20.28	-49.6	-67.4	3.8	7.46e-01	0	37	104	0	69	30244
2026-01-19 04:59:48.13	297.83	20.19	-49.6	-67.4	3.8	7.46e-01	0	37	104	0	69	30291
2026-01-19 04:59:49.14	297.58	20.11	-49.6	-67.4	3.8	7.43e-01	0	37	104	0	69	30255
2026-01-19 04:59:50.15	297.33	20.03	-49.6	-67.4	3.8	7.46e-01	0	37	104	0	69	30295
2026-01-19 04:59:51.16	297.09	19.95	-49.6	-67.4	3.8	7.44e-01	0	37	104	0	69	30283
2026-01-19 04:59:52.16	296.85	19.86	-49.6	-67.4	3.8	7.46e-01	0	37	104	0	69	30242
2026-01-19 04:59:53.17	296.61	19.78	-49.6	-67.4	3.8	7.48e-01	0	37	104	0	69	30272
2026-01-19 04:59:54.18	296.37	19.70	-49.6	-67.4	3.8	7.47e-01	0	37	104	0	69	30261
2026-01-19 04:59:55.19	296.13	19.61	-49.6	-67.4	3.8	7.47e-01	0	37	104	0	69	30308
2026-01-19 04:59:56.19	295.89	19.53	-49.6	-67.4	3.8	7.46e-01	0	37	104	0	69	30234
2026-01-19 04:59:57.20	295.66	19.45	-49.6	-67.4	3.8	7.50e-01	0	37	104	0	69	30357
2026-01-19 04:59:58.21	295.42	19.36	-49.6	-67.4	3.8	7.45e-01	0	37	104	0	69	30285
2026-01-19 04:59:59.22	295.19	19.28	-49.6	-67.4	3.8	7.46e-01	0	37	104	0	69	30222
2026-01-19 05:00:00.23	294.95	19.19	-49.6	-67.4	3.8	7.44e-01	0	37	104	0	69	30305
2026-01-19 05:00:01.24	294.72	19.11	-49.6	-67.4	3.8	7.47e-01	0	37	104	0	69	30293
2026-01-19 05:00:02.25	294.49	19.02	-49.6	-67.4	3.8	7.40e-01	0	37	104	0	69	30282
2026-01-19 05:00:03.25	294.27	18.94	-49.6	-67.4	3.8	7.44e-01	0	37	104	0	69	30302
2026-01-19 05:00:04.26	294.04	18.85	-49.6	-67.4	3.8	7.45e-01	0	37	104	0	69	30253
2026-01-19 05:00:05.27	293.82	18.77	-49.6	-67.4	3.8	7.44e-01	0	37	104	0	69	30255
2026-01-19 05:00:06.28	293.59	18.68	-49.6	-67.4	3.8	7.37e-01	0	37	104	0	69	30296
2026-01-19 05:00:07.28	293.37	18.60	-49.6	-67.4	3.8	7.45e-01	0	37	104	0	69	30288
2026-01-19 05:00:08.29	293.15	18.51	-49.6	-67.4	3.8	7.47e-01	0	37	104	0	69	30274
2026-01-19 05:00:09.30	292.93	18.43	-49.6	-67.4	3.8	7.45e-01	0	37	104	0	69	30245
2026-01-19 05:00:10.31	292.71	18.34	-49.6	-67.4	3.8	7.42e-01	0	37	104	0	69	30257
2026-01-19 05:00:11.32	292.50	18.26	-49.6	-67.4	3.8	7.46e-01	0	37	104	0	69	30257
2026-01-19 05:00:12.32	292.28	18.17	-49.6	-67.4	3.8	7.44e-01	0	37	104	0	69	30262
2026-01-19 05:00:13.33	292.07	18.08	-49.6	-67.4	3.8	7.48e-01	0	37	104	0	69	30307
2026-01-19 05:00:14.34	291.85	18.00	-49.6	-67.4	3.8	7.43e-01	0	37	104	0	69	30223
2026-01-19 05:00:15.35	291.64	17.91	-49.6	-67.4	3.8	7.44e-01	0	37	104	0	69	30286
2026-01-19 05:00:16.36	291.43	17.83	-49.6	-67.4	3.8	7.43e-01	0	37	104	0	69	30330
2026-01-19 05:00:17.37	291.22	17.74	-49.6	-67.4	3.8	7.47e-01	0	37	104	0	69	30266
2026-01-19 05:00:18.37	291.01	17.65	-49.6	-67.4	3.8	7.47e-01	0	37	104	0	69	30271
2026-01-19 05:00:19.38	290.81	17.57	-49.6	-67.4	3.8	7.45e-01	0	37	104	0	69	30250
2026-01-19 05:00:20.38	290.60	17.48	-49.6	-67.4	3.8	7.46e-01	0	37	104	0	69	30309
2026-01-19 05:00:21.40	290.40	17.39	-49.6	-67.4	3.8	7.45e-01	0	37	104	0	69	30192
2026-01-19 05:00:22.40	290.20	17.31	-49.6	-67.4	3.8	7.48e-01	0	37	104	0	69	30259
2026-01-19 05:00:23.41	289.99	17.22	-49.6	-67.4	3.8	7.47e-01	0	37	104	0	69	30340
2026-01-19 05:00:24.42	289.79	17.14	-49.6	-67.4	3.8	7.48e-01	0	37	104	0	69	30283
2026-01-19 05:00:25.43	289.59	17.05	-49.6	-67.4	3.8	7.41e-01	0	37	104	0	69	30307
2026-01-19 05:00:26.43	289.40	16.96	-49.6	-67.4	3.8	7.46e-01	0	37	104	0	69	30269
2026-01-19 05:00:27.44	289.20	16.88	-49.6	-67.4	3.8	7.46e-01	0	37	104	0	69	30280
2026-01-19 05:00:28.45	289.00	16.79	-49.6	-67.4	3.8	7.45e-01	0	37	104	0	69	30220
2026-01-19 05:00:29.46	288.81	16.70	-49.6	-67.4	3.8	7.45e-01	0	37	104	0	69	30273
2026-01-19 05:00:30.47	288.62	16.62	-49.6	-67.4	3.8	7.46e-01	0	37	104	0	69	30259
2026-01-19 05:00:31.48	288.42	16.53	-49.6	-67.4	3.8	7.46e-01	0	37	104	0	69	30340
2026-01-19 05:00:32.48	288.23	16.45	-49.6	-67.4	3.8	7.41e-01	0	37	104	0	69	30240
2026-01-19 05:00:33.49	288.04	16.36	-49.6	-67.4	3.8	7.45e-01	0	37	104	0	69	30292
2026-01-19 05:00:34.50	287.86	16.27	-49.6	-67.4	3.8	7.47e-01	0	37	104	0	69	30343
2026-01-19 05:00:35.51	287.67	16.19	-49.6	-67.4	3.8	7.46e-01	0	37	104	0	69	30222
2026-01-19 05:00:36.52	287.48	16.10	-49.6	-67.4	3.8	7.46e-01	0	37	104	0	69	30318
2026-01-19 05:00:37.53	287.30	16.01	-49.6	-67.4	3.8	7.45e-01	0	37	104	0	69	30305
2026-01-19 05:00:38.54	287.11	15.93	-49.6	-67.4	3.8	7.49e-01	0	37	104	0	69	30326
2026-01-19 05:00:39.54	286.93	15.84	-49.6	-67.4	3.8	7.44e-01	0	37	104	0	69	30268
2026-01-19 05:00:40.55	286.75	15.76	-49.6	-67.4	3.8	7.46e-01	0	37	104	0	69	30262
2026-01-19 05:00:41.56	286.57	15.67	-49.6	-67.4	3.8	7.49e-01	0	37	104	0	69	30253
2026-01-19 05:00:42.57	286.39	15.58	-49.6	-67.4	3.8	7.45e-01	0	37	104	0	69	30209
2026-01-19 05:00:43.57	286.21	15.50	-49.6	-67.4	3.8	7.45e-01	0	37	104	0	69	30197
2026-01-19 05:00:44.58	286.03	15.41	-49.6	-67.4	3.8	7.46e-01	0	37	104	0	69	30196
2026-01-19 05:00:45.59	285.86	15.33	-49.6	-67.4	3.8	7.43e-01	0	37	104	0	69	30341
2026-01-19 05:00:46.60	285.68	15.24	-49.6	-67.4	3.8	7.46e-01	0	37	104	0	69	30273
2026-01-19 05:00:47.60	285.51	15.16	-49.6	-67.4	3.8	7.45e-01	0	37	104	0	69	30225
2026-01-19 05:00:48.61	285.34	15.07	-49.6	-67.4	3.8	7.49e-01	0	37	104	0	69	30251
2026-01-19 05:00:49.62	285.16	14.99	-49.6	-67.4	3.8	7.42e-01	0	37	104	0	69	30292
2026-01-19 05:00:50.63	284.99	14.90	-49.6	-67.4	3.8	7.45e-01	0	37	104	0	69	30246
2026-01-19 05:00:51.64	284.82	14.82	-49.6	-67.4	3.8	7.47e-01	0	37	104	0	69	30308
2026-01-19 05:00:52.65	284.65	14.73	-49.6	-67.4	3.8	7.45e-01	0	37	104	0	69	30233
2026-01-19 05:00:53.65	284.49	14.65	-49.6	-67.4	3.8	7.40e-01	0	37	104	0	69	30239
2026-01-19 05:00:54.66	284.32	14.56	-49.6	-67.4	3.8	7.46e-01	0	37	104	0	69	30238
2026-01-19 05:00:55.67	284.16	14.48	-49.6	-67.4	3.8	7.48e-01	0	37	104	0	69	30160
2026-01-19 05:00:56.68	283.99	14.39	-49.6	-67.4	3.8	7.49e-01	0	37	104	0	69	30297
2026-01-19 05:00:57.68	283.83	14.31	-49.6	-67.4	3.8	7.45e-01	0	37	104	0	69	30284
2026-01-19 05:00:58.69	283.67	14.22	-49.6	-67.4	3.8	7.48e-01	0	37	104	0	69	30279
2026-01-19 05:00:59.70	283.50	14.14	-49.6	-67.4	3.8	7.49e-01	0	37	104	0	69	30265
2026-01-19 05:01:00.70	283.35	14.05	-49.6	-67.4	3.8	7.49e-01	0	37	104	0	69	30268
2026-01-19 05:01:01.71	283.19	13.97	-49.6	-67.4	3.8	7.46e-01	0	37	104	0	69	30245
2026-01-19 05:01:02.72	283.03	13.89	-49.6	-67.4	3.8	7.44e-01	0	37	104	0	69	30284
2026-01-19 05:01:03.73	282.87	13.80	-49.6	-67.4	3.8	7.47e-01	0	37	104	0	69	30248
2026-01-19 05:01:04.74	282.71	13.72	-49.6	-67.4	3.8	7.47e-01	0	37	104	0	69	30224
2026-01-19 05:01:05.75	282.56	13.63	-49.6	-67.4	3.8	7.48e-01	0	37	104	0	69	30238
2026-01-19 05:01:06.76	282.40	13.55	-49.6	-67.4	3.8	7.44e-01	0	37	104	0	69	30265
2026-01-19 05:01:07.76	282.25	13.47	-49.6	-67.4	3.8	7.42e-01	0	37	104	0	69	30351
2026-01-19 05:01:08.77	282.10	13.38	-49.6	-67.4	3.8	7.47e-01	0	37	104	0	69	30272
2026-01-19 05:01:09.78	281.94	13.30	-49.6	-67.4	3.8	7.46e-01	0	37	104	0	69	30267
2026-01-19 05:01:10.79	281.79	13.22	-49.6	-67.4	3.8	7.42e-01	0	37	104	0	69	30302
2026-01-19 05:01:11.79	281.64	13.13	-49.6	-67.4	3.8	7.48e-01	0	37	104	0	69	30235
2026-01-19 05:01:12.80	281.50	13.05	-49.6	-67.4	3.8	7.47e-01	0	37	104	0	69	30312
2026-01-19 05:01:13.81	281.35	12.97	-49.6	-67.4	3.8	7.44e-01	0	37	104	0	69	30286
2026-01-19 05:01:14.82	281.20	12.89	-49.6	-67.4	3.8	7.43e-01	0	37	104	0	69	30311
2026-01-19 05:01:15.83	281.05	12.80	-49.6	-67.4	3.8	7.41e-01	0	37	104	0	69	30236
2026-01-19 05:01:16.84	280.91	12.72	-49.6	-67.4	3.8	7.48e-01	0	37	104	0	69	30299
2026-01-19 05:01:17.84	280.76	12.64	-49.6	-67.4	3.8	7.41e-01	0	37	104	0	69	30274
2026-01-19 05:01:18.85	280.62	12.56	-49.6	-67.4	3.8	7.46e-01	0	37	104	0	69	30228
2026-01-19 05:01:19.86	280.48	12.48	-49.6	-67.4	3.8	7.44e-01	0	37	104	0	69	30179
2026-01-19 05:01:20.86	280.34	12.39	-49.6	-67.4	3.8	7.46e-01	0	37	104	0	69	30185
2026-01-19 05:01:21.87	280.19	12.31	-49.6	-67.4	3.8	7.39e-01	0	37	104	0	69	30254
2026-01-19 05:01:22.88	280.05	12.23	-49.6	-67.4	3.8	7.44e-01	0	37	104	0	69	30229
2026-01-19 05:01:23.89	279.91	12.15	-49.6	-67.4	3.8	7.45e-01	0	37	104	0	69	30295
2026-01-19 05:01:24.90	279.78	12.07	-49.6	-67.4	3.8	7.42e-01	0	37	104	0	69	30289
2026-01-19 05:01:25.90	279.64	11.99	-49.6	-67.4	3.8	7.45e-01	0	37	104	0	69	30253
2026-01-19 05:01:26.91	279.50	11.91	-49.6	-67.4	3.8	7.45e-01	0	37	104	0	69	30204
2026-01-19 05:01:27.92	279.37	11.83	-49.6	-67.4	3.8	7.45e-01	0	37	104	0	69	30207
2026-01-19 05:01:28.93	279.23	11.74	-49.5	-67.4	3.8	7.43e-01	0	37	104	0	69	30253
2026-01-19 05:01:29.94	279.10	11.66	-49.6	-67.4	3.8	7.48e-01	0	37	104	0	69	30268
2026-01-19 05:01:30.95	278.96	11.58	-49.6	-67.4	3.8	7.47e-01	0	37	104	0	69	30243
2026-01-19 05:01:31.96	278.83	11.50	-49.6	-67.4	3.8	7.42e-01	0	37	104	0	69	30293
2026-01-19 05:01:32.96	278.70	11.42	-49.6	-67.4	3.8	7.45e-01	0	37	104	0	69	30259
2026-01-19 05:01:33.97	278.57	11.34	-49.6	-67.4	3.8	7.46e-01	0	37	104	0	69	30284
2026-01-19 05:01:34.98	278.44	11.26	-49.6	-67.4	3.8	7.49e-01	0	37	104	0	69	30296
2026-01-19 05:01:35.99	278.31	11.18	-49.6	-67.4	3.8	7.45e-01	0	37	104	0	69	30297
2026-01-19 05:01:37.00	278.18	11.10	-49.6	-67.4	3.8	7.44e-01	0	37	104	0	69	30271
2026-01-19 05:01:38.00	278.05	11.03	-49.6	-67.4	3.8	7.45e-01	0	37	104	0	69	30279
2026-01-19 05:01:39.01	277.92	10.95	-49.6	-67.4	3.8	7.45e-01	0	37	104	0	69	30204
2026-01-19 05:01:40.02	277.80	10.87	-49.6	-67.4	3.8	7.46e-01	0	37	104	0	69	30248
2026-01-19 05:01:41.03	277.67	10.79	-49.6	-67.4	3.8	7.43e-01	0	37	104	0	69	30292
2026-01-19 05:01:42.03	277.55	10.71	-49.6	-67.4	3.8	7.45e-01	0	37	104	0	69	30222
2026-01-19 05:01:43.04	277.42	10.63	-49.6	-67.4	3.8	7.44e-01	0	37	104	0	69	30260
2026-01-19 05:01:44.05	277.30	10.55	-49.6	-67.4	3.8	7.45e-01	0	37	104	0	69	30284
2026-01-19 05:01:45.06	277.17	10.48	-49.6	-67.4	3.8	7.43e-01	0	37	104	0	69	30271
2026-01-19 05:01:46.07	277.05	10.40	-49.6	-67.4	3.8	7.47e-01	0	37	104	0	69	30310
2026-01-19 05:01:47.07	276.93	10.32	-49.6	-67.4	3.8	7.46e-01	0	37	104	0	69	30315
2026-01-19 05:01:48.08	276.81	10.24	-49.6	-67.4	3.8	7.48e-01	0	37	104	0	69	30240
2026-01-19 05:01:49.09	276.69	10.16	-49.6	-67.4	3.8	7.46e-01	0	37	104	0	69	30253
2026-01-19 05:01:50.09	276.57	10.09	-49.6	-67.4	3.8	7.43e-01	0	37	104	0	69	30247
2026-01-19 05:01:51.10	276.45	10.01	-49.6	-67.4	3.8	7.47e-01	0	37	104	0	69	30309
2026-01-19 05:01:52.11	276.33	9.93	-49.6	-67.4	3.8	7.45e-01	0	37	104	0	69	30291
2026-01-19 05:01:53.12	276.22	9.86	-49.6	-67.4	3.8	7.45e-01	0	37	104	0	69	30268
2026-01-19 05:01:54.13	276.10	9.78	-49.6	-67.4	3.8	7.43e-01	0	37	104	0	69	30268
2026-01-19 05:01:55.14	275.98	9.70	-49.6	-67.4	3.8	7.44e-01	0	37	104	0	69	30292
2026-01-19 05:01:56.15	275.87	9.62	-49.6	-67.4	3.8	7.45e-01	0	37	104	0	69	30232
2026-01-19 05:01:57.15	275.75	9.55	-49.6	-67.4	3.8	7.45e-01	0	37	104	0	69	30281
2026-01-19 05:01:58.16	275.64	9.47	-49.6	-67.4	3.8	7.48e-01	0	37	104	0	69	30252
2026-01-19 05:01:59.17	275.53	9.40	-49.6	-67.4	3.8	7.45e-01	0	37	104	0	69	30227
2026-01-19 05:02:00.17	275.42	9.32	-49.6	-67.4	3.8	7.44e-01	0	37	104	0	69	30286
2026-01-19 05:02:01.18	275.30	9.25	-49.6	-67.4	3.8	7.48e-01	0	37	104	0	69	30270
2026-01-19 05:02:02.19	275.19	9.17	-49.6	-67.4	3.8	7.45e-01	0	37	104	0	69	30208
2026-01-19 05:02:03.20	275.08	9.09	-49.6	-67.4	3.8	7.47e-01	0	37	104	0	69	30243
2026-01-19 05:02:04.20	274.97	9.02	-49.6	-67.4	3.8	7.45e-01	0	37	104	0	69	30189
2026-01-19 05:02:05.21	274.86	8.94	-49.6	-67.4	3.8	7.48e-01	0	37	104	0	69	30215
2026-01-19 05:02:06.22	274.75	8.87	-49.6	-67.4	3.8	7.46e-01	0	37	104	0	69	30238
2026-01-19 05:02:07.23	274.64	8.79	-49.6	-67.4	3.8	7.47e-01	0	37	104	0	69	30284
2026-01-19 05:02:08.24	274.54	8.72	-49.6	-67.4	3.8	7.41e-01	0	37	104	0	69	30232
2026-01-19 05:02:09.24	274.43	8.65	-49.6	-67.4	3.8	7.47e-01	0	37	104	0	69	30271
2026-01-19 05:02:10.25	274.32	8.57	-49.6	-67.4	3.8	7.48e-01	0	37	104	0	69	30211
2026-01-19 05:02:11.26	274.22	8.50	-49.6	-67.4	3.8	7.42e-01	0	37	104	0	69	30211
2026-01-19 05:02:12.27	274.11	8.42	-49.6	-67.4	3.8	7.44e-01	0	37	104	0	69	30328
2026-01-19 05:02:13.28	274.01	8.35	-49.6	-67.4	3.8	7.47e-01	0	37	104	0	69	30293
2026-01-19 05:02:14.28	273.91	8.28	-49.6	-67.4	3.8	7.44e-01	0	37	104	0	69	30305
2026-01-19 05:02:15.29	273.80	8.20	-49.6	-67.4	3.8	7.45e-01	0	37	104	0	69	30271
2026-01-19 05:02:16.30	273.70	8.13	-49.6	-67.4	3.8	7.42e-01	0	37	104	0	69	30283
2026-01-19 05:02:17.31	273.60	8.05	-49.6	-67.4	3.8	7.44e-01	0	37	104	0	69	30300
2026-01-19 05:02:18.32	273.49	7.98	-49.6	-67.4	3.8	7.46e-01	0	37	104	0	69	30280
2026-01-19 05:02:19.32	273.39	7.91	-49.6	-67.4	3.8	7.45e-01	0	37	104	0	69	30338
2026-01-19 05:02:20.33	273.29	7.84	-49.6	-67.4	3.8	7.46e-01	0	37	104	0	69	30341
2026-01-19 05:02:21.34	273.19	7.76	-49.6	-67.4	3.8	7.48e-01	0	37	104	0	69	30331
2026-01-19 05:02:22.34	273.09	7.69	-49.6	-67.4	3.8	7.45e-01	0	37	104	0	69	30241
2026-01-19 05:02:23.35	273.00	7.62	-49.6	-67.4	3.8	7.45e-01	0	37	104	0	69	30279
2026-01-19 05:02:24.36	272.90	7.55	-49.6	-67.4	3.8	7.42e-01	0	37	104	0	69	30253
2026-01-19 05:02:25.37	272.80	7.47	-49.6	-67.4	3.8	7.43e-01	0	37	104	0	69	30303
2026-01-19 05:02:26.38	272.70	7.40	-49.6	-67.4	3.8	7.47e-01	0	37	104	0	69	30293
2026-01-19 05:02:27.38	272.61	7.33	-49.6	-67.4	3.8	7.42e-01	0	37	104	0	69	30286
2026-01-19 05:02:28.39	272.51	7.26	-49.6	-67.4	3.8	7.43e-01	0	37	104	0	69	30265
2026-01-19 05:02:29.40	272.41	7.19	-49.6	-67.4	3.8	7.47e-01	0	37	104	0	69	30318
2026-01-19 05:02:30.41	272.32	7.12	-49.6	-67.4	3.8	7.48e-01	0	37	104	0	69	30285
2026-01-19 05:02:31.42	272.22	7.05	-49.6	-67.4	3.8	7.45e-01	0	37	104	0	69	30300
2026-01-19 05:02:32.42	272.13	6.97	-49.6	-67.4	3.8	7.47e-01	0	37	104	0	69	30210
2026-01-19 05:02:33.43	272.04	6.90	-49.6	-67.4	3.8	7.45e-01	0	37	104	0	69	30249
2026-01-19 05:02:34.44	271.94	6.83	-49.6	-67.4	3.8	7.45e-01	0	37	104	0	69	30247
2026-01-19 05:02:35.45	271.85	6.76	-49.6	-67.4	3.8	7.46e-01	0	37	104	0	69	30289
2026-01-19 05:02:36.46	271.76	6.69	-49.6	-67.4	3.8	7.42e-01	0	37	104	0	69	30248
2026-01-19 05:02:37.46	271.67	6.62	-49.6	-67.4	3.8	7.46e-01	0	37	104	0	69	30218
2026-01-19 05:02:38.47	271.58	6.55	-49.6	-67.4	3.8	7.45e-01	0	37	104	0	69	30214
2026-01-19 05:02:39.48	271.49	6.48	-49.6	-67.4	3.8	7.41e-01	0	37	104	0	69	30228
2026-01-19 05:02:40.48	271.40	6.41	-49.6	-67.4	3.8	7.43e-01	0	37	104	0	69	30204
2026-01-19 05:02:41.49	271.31	6.34	-49.6	-67.4	3.8	7.44e-01	0	37	104	0	69	30292
2026-01-19 05:02:42.50	271.22	6.27	-49.6	-67.4	3.8	7.45e-01	0	37	104	0	69	30310
2026-01-19 05:02:43.51	271.13	6.20	-49.6	-67.4	3.8	7.46e-01	0	37	104	0	69	30213
2026-01-19 05:02:44.52	271.04	6.13	-49.6	-67.4	3.8	7.44e-01	0	37	104	0	69	30267
2026-01-19 05:02:45.52	270.95	6.07	-49.6	-67.4	3.8	7.45e-01	0	37	104	0	69	30261
2026-01-19 05:02:46.54	270.87	6.00	-49.6	-67.4	3.8	7.44e-01	0	37	104	0	69	30259
2026-01-19 05:02:47.54	270.78	5.93	-49.6	-67.4	3.8	7.46e-01	0	37	104	0	69	30275
2026-01-19 05:02:48.55	270.69	5.86	-49.6	-67.4	3.8	7.46e-01	0	37	104	0	69	30232
2026-01-19 05:02:49.56	270.61	5.79	-49.6	-67.4	3.8	7.46e-01	0	37	104	0	69	30258
2026-01-19 05:02:50.57	270.52	5.72	-49.6	-67.4	3.8	7.45e-01	0	37	104	0	69	30273
2026-01-19 05:02:51.58	270.44	5.65	-49.6	-67.4	3.8	7.44e-01	0	37	104	0	69	30323
2026-01-19 05:02:52.58	270.35	5.59	-49.6	-67.4	3.8	7.44e-01	0	37	104	0	69	30335
2026-01-19 05:02:53.59	270.27	5.52	-49.6	-67.4	3.8	7.43e-01	0	37	104	0	69	30343
2026-01-19 05:02:54.60	270.18	5.45	-49.6	-67.4	3.8	7.45e-01	0	37	104	0	69	30287
2026-01-19 05:02:55.61	270.10	5.38	-49.6	-67.4	3.8	7.45e-01	0	37	104	0	69	30248
2026-01-19 05:02:56.62	270.02	5.31	-49.6	-67.4	3.8	7.44e-01	0	37	104	0	69	30276
2026-01-19 05:02:57.62	269.94	5.25	-49.6	-67.4	3.8	7.45e-01	0	37	104	0	69	30218
2026-01-19 05:02:58.63	269.86	5.18	-49.6	-67.4	3.8	7.45e-01	0	37	104	0	69	30238
2026-01-19 05:02:59.64	269.77	5.11	-49.6	-67.4	3.8	7.42e-01	0	37	104	0	69	30244
2026-01-19 05:03:00.64	269.69	5.05	-49.6	-67.4	3.8	7.44e-01	0	37	104	0	69	30226
2026-01-19 05:03:01.65	269.61	4.98	-49.6	-67.4	3.8	7.46e-01	0	37	104	0	69	30267
2026-01-19 05:03:02.66	269.53	4.91	-49.6	-67.4	3.8	7.42e-01	0	37	104	0	69	30282
2026-01-19 05:03:03.67	269.45	4.85	-49.6	-67.4	3.8	7.43e-01	0	37	104	0	69	30299
2026-01-19 05:03:04.68	269.37	4.78	-49.6	-67.4	3.8	7.44e-01	0	37	104	0	69	30301
2026-01-19 05:03:05.68	269.29	4.71	-49.6	-67.4	3.8	7.47e-01	0	37	104	0	69	30202
2026-01-19 05:03:06.69	269.22	4.65	-49.6	-67.4	3.8	7.44e-01	0	37	104	0	69	30227
2026-01-19 05:03:07.70	269.14	4.58	-49.6	-67.4	3.8	7.46e-01	0	37	104	0	69	30230
2026-01-19 05:03:08.71	269.06	4.52	-49.6	-67.4	3.8	7.45e-01	0	37	104	0	69	30305
2026-01-19 05:03:09.72	268.98	4.45	-49.6	-67.4	3.8	7.47e-01	0	37	104	0	69	30288
2026-01-19 05:03:10.72	268.91	4.38	-49.6	-67.4	3.8	7.42e-01	0	37	104	0	69	30236
2026-01-19 05:03:11.73	268.83	4.32	-49.6	-67.4	3.8	7.44e-01	0	37	104	0	69	30295
2026-01-19 05:03:12.74	268.75	4.25	-49.6	-67.4	3.8	7.43e-01	0	37	104	0	69	30222
2026-01-19 05:03:13.75	268.68	4.19	-49.6	-67.4	3.8	7.47e-01	0	37	104	0	69	30252
2026-01-19 05:03:14.76	268.60	4.12	-49.6	-67.4	3.8	7.42e-01	0	37	104	0	69	30305
2026-01-19 05:03:15.77	268.53	4.06	-49.6	-67.4	3.8	7.47e-01	0	37	104	0	69	30238
2026-01-19 05:03:16.78	268.45	3.99	-49.6	-67.4	3.8	7.47e-01	0	37	104	0	69	30206
2026-01-19 05:03:17.78	268.38	3.93	-49.6	-67.4	3.8	7.48e-01	0	37	104	0	69	30305
2026-01-19 05:03:18.79	268.30	3.86	-49.6	-67.4	3.8	7.46e-01	0	37	104	0	69	30283
2026-01-19 05:03:19.80	268.23	3.80	-49.6	-67.4	3.8	7.46e-01	0	37	104	0	69	30242
2026-01-19 05:03:20.81	268.16	3.73	-49.6	-67.4	3.8	7.44e-01	0	37	104	0	69	30238
2026-01-19 05:03:21.82	268.08	3.67	-49.6	-67.4	3.8	7.48e-01	0	37	104	0	69	30239
2026-01-19 05:03:22.82	268.01	3.61	-49.6	-67.4	3.8	7.46e-01	0	37	104	0	69	30230
2026-01-19 05:03:23.83	267.94	3.54	-49.6	-67.4	3.8	7.47e-01	0	37	104	0	69	30271
2026-01-19 05:03:24.84	267.87	3.48	-49.6	-67.4	3.8	7.43e-01	0	37	104	0	69	30212
2026-01-19 05:03:25.85	267.80	3.41	-49.6	-67.4	3.8	7.46e-01	0	37	104	0	69	30186
2026-01-19 05:03:26.86	267.73	3.35	-49.6	-67.4	3.8	7.42e-01	0	37	104	0	69	30274
2026-01-19 05:03:27.87	267.66	3.29	-49.6	-67.4	3.8	7.47e-01	0	37	104	0	69	30220
2026-01-19 05:03:28.88	267.58	3.22	-49.6	-67.4	3.8	7.49e-01	0	37	104	0	69	30243
2026-01-19 05:03:29.88	267.52	3.16	-49.6	-67.4	3.8	7.46e-01	0	37	104	0	69	30291
2026-01-19 05:03:30.89	267.45	3.10	-49.6	-67.4	3.8	7.44e-01	0	37	104	0	69	30202
2026-01-19 05:03:31.90	267.38	3.03	-49.6	-67.4	3.8	7.45e-01	0	37	104	0	69	30224
2026-01-19 05:03:32.91	267.31	2.97	-49.6	-67.4	3.8	7.46e-01	0	37	104	0	69	30176
2026-01-19 05:03:33.92	267.24	2.91	-49.6	-67.4	3.8	7.43e-01	0	37	104	0	69	30207
2026-01-19 05:03:34.92	267.17	2.85	-49.6	-67.4	3.8	7.43e-01	0	36	104	0	69	30295
2026-01-19 05:03:35.93	267.10	2.78	-49.6	-67.4	3.8	7.46e-01	0	37	104	0	69	30198
2026-01-19 05:03:36.94	267.04	2.72	-49.6	-67.4	3.8	7.45e-01	0	37	104	0	69	30249
2026-01-19 05:03:37.95	266.97	2.66	-49.6	-67.4	3.8	7.47e-01	0	37	104	0	69	30235
2026-01-19 05:03:38.96	266.90	2.60	-49.6	-67.4	3.8	7.45e-01	0	37	104	0	69	30229
2026-01-19 05:03:39.96	266.83	2.54	-49.6	-67.4	3.8	7.43e-01	0	37	104	0	69	30278
2026-01-19 05:03:40.97	266.77	2.47	-49.6	-67.4	3.8	7.45e-01	0	37	104	0	69	30186
2026-01-19 05:03:41.98	266.70	2.41	-49.6	-67.4	3.8	7.46e-01	0	37	104	0	69	30228
2026-01-19 05:03:42.99	266.64	2.35	-49.6	-67.4	3.8	7.44e-01	0	37	104	0	69	30297
2026-01-19 05:03:44.00	266.57	2.29	-49.6	-67.4	3.8	7.44e-01	0	37	104	0	69	30267
2026-01-19 05:03:45.01	266.51	2.23	-49.6	-67.4	3.8	7.42e-01	0	37	104	0	69	30247
2026-01-19 05:03:46.02	266.44	2.17	-49.6	-67.4	3.8	7.44e-01	0	37	104	0	69	30272
2026-01-19 05:03:47.02	266.38	2.10	-49.6	-67.4	3.8	7.48e-01	0	37	104	0	69	30253
2026-01-19 05:03:48.03	266.31	2.04	-49.6	-67.4	3.8	7.47e-01	0	36	104	0	69	30171
2026-01-19 05:03:49.04	266.25	1.98	-49.6	-67.4	3.8	7.45e-01	0	37	104	0	69	30183

#Closed at: 2026-01-19 05:03:49
#Recorded file [0 MB]: D:/lorett/data/31041_260119_075214.dat