passes_logs/2026/01/19/R3.2S_Murmansk/R3.2S_Murmansk__20260119_063457_SUOMI_NPP_rec.log

#Pass ID: 20260119_063457_SUOMI NPP
#Satellite: SUOMI NPP
#Configuration: NPP
#almurnet v.1.7.20251203
#Start time: 2026-01-19 06:34:58

#Version: 2.2.20231116
#Station: R3.2S_Murmansk
#Location: 33.079688 lon 68.888172 lat
#TLE: 1 37849U 11061A   26018.91022273  .00000066  00000+0  52264-4 0  9997
#TLE: 2 37849  98.7816 320.9252 0002364  56.8129 303.3273 14.19526186737260

#Time	Az	El	Level	Level2	SNR	BER	BlckErr	Temp	State	Recorded	gain1	gain2
2026-01-19 06:34:58.68	85.12	2.09	-52.0	-67.0	3.8	1.49e+00	0	35	0	0	76	19266
2026-01-19 06:34:59.68	85.06	2.15	-52.0	-67.0	3.8	1.49e+00	0	35	104	0	74	21580
2026-01-19 06:35:00.69	85.00	2.21	-52.0	-67.0	3.8	1.49e+00	0	35	104	0	74	21657
2026-01-19 06:35:01.70	84.95	2.27	-52.0	-66.9	3.8	1.49e+00	0	35	104	0	74	21500
2026-01-19 06:35:02.70	84.89	2.33	-52.0	-66.9	3.8	1.49e+00	0	35	104	0	74	21490
2026-01-19 06:35:03.71	84.83	2.39	-52.0	-67.0	3.8	1.49e+00	0	35	104	0	74	21514
2026-01-19 06:35:04.72	84.77	2.45	-52.0	-67.0	3.8	1.49e+00	0	35	104	0	74	21521
2026-01-19 06:35:05.73	84.71	2.51	-52.0	-66.9	3.8	1.49e+00	0	36	104	0	74	21496
2026-01-19 06:35:06.74	84.65	2.57	-52.0	-67.0	3.8	1.49e+00	0	35	104	0	74	21516
2026-01-19 06:35:07.74	84.59	2.63	-52.0	-67.0	3.8	1.49e+00	0	36	104	0	74	21565
2026-01-19 06:35:08.75	84.53	2.69	-52.0	-66.9	3.8	1.49e+00	0	36	104	0	74	21486
2026-01-19 06:35:09.76	84.47	2.75	-52.0	-66.9	3.8	1.49e+00	0	36	104	0	74	21476
2026-01-19 06:35:10.77	84.41	2.81	-52.0	-66.9	3.8	1.49e+00	0	36	104	0	74	21415
2026-01-19 06:35:11.77	84.35	2.87	-52.0	-66.9	3.8	1.49e+00	0	35	104	0	74	21410
2026-01-19 06:35:12.78	84.29	2.93	-52.0	-66.9	3.8	1.49e+00	0	36	104	0	74	21411
2026-01-19 06:35:13.79	84.23	2.99	-52.0	-66.9	3.8	1.49e+00	0	36	104	0	74	21460
2026-01-19 06:35:14.80	84.17	3.05	-52.0	-66.9	3.8	1.49e+00	0	36	104	0	74	21455
2026-01-19 06:35:15.81	84.11	3.11	-52.0	-66.9	3.8	1.49e+00	0	36	104	0	74	21405
2026-01-19 06:35:16.81	84.05	3.17	-52.0	-66.9	3.8	1.49e+00	0	36	104	0	74	21460
2026-01-19 06:35:17.82	83.98	3.23	-52.0	-66.9	3.8	1.49e+00	0	36	104	0	74	21386
2026-01-19 06:35:18.83	83.92	3.29	-52.0	-66.9	3.8	1.49e+00	0	36	104	0	74	21269
2026-01-19 06:35:19.84	83.86	3.35	-52.0	-66.8	3.8	1.49e+00	0	36	104	0	74	21179
2026-01-19 06:35:20.85	83.80	3.41	-52.0	-66.8	3.8	1.49e+00	0	36	104	0	74	21121
2026-01-19 06:35:21.85	83.73	3.47	-52.0	-66.8	3.8	1.49e+00	0	36	104	0	74	21066
2026-01-19 06:35:22.86	83.67	3.54	-52.0	-66.9	3.8	1.49e+00	0	36	104	0	74	21285
2026-01-19 06:35:23.87	83.61	3.60	-52.0	-66.9	3.8	1.49e+00	0	36	104	0	74	21299
2026-01-19 06:35:24.88	83.54	3.66	-52.0	-66.9	3.8	1.49e+00	0	36	104	0	74	21422
2026-01-19 06:35:25.89	83.48	3.72	-52.0	-66.9	3.8	1.49e+00	0	36	104	0	74	21446
2026-01-19 06:35:26.89	83.41	3.78	-52.0	-66.9	3.8	1.49e+00	0	36	104	0	74	21333
2026-01-19 06:35:27.90	83.35	3.84	-52.0	-66.8	3.8	1.49e+00	0	36	104	0	74	21041
2026-01-19 06:35:28.91	83.28	3.91	-52.0	-66.3	3.8	1.49e+00	0	36	104	0	74	20027
2026-01-19 06:35:29.92	83.22	3.97	-51.9	-65.7	3.8	1.49e+00	0	36	104	0	74	18687
2026-01-19 06:35:30.92	83.15	4.03	-51.9	-65.4	3.8	1.49e+00	0	36	104	0	74	18094
2026-01-19 06:35:31.93	83.08	4.09	-51.9	-64.5	3.8	1.49e+00	0	36	104	0	74	16279
2026-01-19 06:35:32.94	83.02	4.15	-51.8	-64.0	4.0	1.48e+00	0	36	104	0	74	15256
2026-01-19 06:35:33.95	82.95	4.22	-51.8	-63.3	4.2	1.41e+00	0	36	0	0	74	14074
2026-01-19 06:35:34.95	82.88	4.28	-51.7	-62.6	4.4	1.31e+00	111	36	0	0	74	13042
2026-01-19 06:35:35.96	82.82	4.34	-51.7	-62.0	4.7	9.33e-01	0	36	0	2097152	74	12176
2026-01-19 06:35:36.97	82.75	4.40	-51.6	-61.7	4.9	6.87e-01	0	36	0	4194304	74	11738
2026-01-19 06:35:37.98	82.68	4.47	-51.4	-60.1	5.8	5.02e-01	0	36	0	6291456	74	9782
2026-01-19 06:35:38.99	82.61	4.53	-51.5	-60.4	5.6	4.25e-01	0	36	0	8388608	74	10163
2026-01-19 06:35:39.99	82.55	4.59	-51.4	-60.1	5.8	3.53e-01	0	36	0	9437184	74	9787
2026-01-19 06:35:41.00	82.48	4.66	-51.4	-59.6	6.3	2.40e-01	0	36	0	11534336	74	9207
2026-01-19 06:35:42.01	82.41	4.72	-51.4	-59.6	6.2	3.28e-01	0	36	0	13631488	74	9272
2026-01-19 06:35:43.02	82.34	4.78	-51.2	-58.9	6.8	1.94e-01	0	37	0	15728640	74	8502
2026-01-19 06:35:44.03	82.27	4.85	-51.4	-59.7	6.1	3.21e-01	0	36	0	17825792	74	9316
2026-01-19 06:35:45.04	82.20	4.91	-51.5	-60.5	5.6	3.41e-01	0	36	0	18874368	74	10228
2026-01-19 06:35:46.04	82.13	4.97	-51.6	-61.1	5.2	5.71e-01	0	36	0	20971520	74	10982
2026-01-19 06:35:47.05	82.06	5.04	-51.7	-62.0	4.7	8.60e-01	0	36	0	23068672	74	12205
2026-01-19 06:35:48.06	81.99	5.10	-51.7	-61.8	4.8	7.31e-01	0	36	0	25165824	74	11924
2026-01-19 06:35:49.07	81.91	5.17	-51.5	-59.4	6.6	4.46e-01	0	36	0	26214400	74	8993
2026-01-19 06:35:50.07	81.84	5.23	-51.9	-65.2	3.8	1.43e+00	0	36	104	28311552	74	17520
2026-01-19 06:35:51.08	81.77	5.29	-50.0	-54.1	11.9	6.96e-01	0	36	0	28311552	72	5507
2026-01-19 06:35:52.09	81.70	5.36	-52.0	-65.3	3.8	4.31e-01	0	37	104	29360128	74	17856
2026-01-19 06:35:53.10	81.63	5.42	-50.3	-54.7	11.4	2.12e-02	0	36	0	29360128	72	5906
2026-01-19 06:35:54.11	81.55	5.49	-50.0	-54.0	12.1	2.70e-04	0	36	0	31457280	71	5771
2026-01-19 06:35:55.11	81.48	5.55	-50.3	-54.7	11.5	4.83e-04	0	36	0	33554432	71	6217
2026-01-19 06:35:56.12	81.41	5.62	-50.0	-53.9	12.3	5.07e-04	0	37	0	35651584	71	5705
2026-01-19 06:35:57.13	81.33	5.68	-50.1	-54.2	12.1	7.24e-05	0	37	0	37748736	71	5869
2026-01-19 06:35:58.14	81.26	5.75	-50.0	-53.9	12.4	1.58e-04	0	36	0	38797312	71	5666
2026-01-19 06:35:59.15	81.18	5.81	-50.0	-53.9	12.4	1.02e-04	0	36	0	40894464	71	5668
2026-01-19 06:36:00.16	81.11	5.88	-50.0	-53.8	12.5	9.07e-05	0	36	0	42991616	71	5647
2026-01-19 06:36:01.16	81.03	5.94	-49.7	-53.3	13.0	1.01e-04	0	36	0	45088768	71	5320
2026-01-19 06:36:02.17	80.96	6.01	-49.7	-53.2	13.1	3.20e-05	0	36	0	47185920	71	5266
2026-01-19 06:36:03.18	80.88	6.07	-49.5	-53.0	13.3	4.04e-05	0	37	0	48234496	71	5130
2026-01-19 06:36:04.19	80.80	6.14	-49.6	-53.2	13.1	1.90e-05	0	36	0	50331648	70	5587
2026-01-19 06:36:05.20	80.73	6.21	-49.7	-53.3	12.9	5.11e-05	0	37	0	52428800	70	5646
2026-01-19 06:36:06.20	80.65	6.27	-49.4	-52.8	13.6	8.30e-06	0	37	0	54525952	70	5290
2026-01-19 06:36:07.21	80.57	6.34	-49.6	-53.2	13.2	7.60e-06	0	37	0	56623104	70	5533
2026-01-19 06:36:08.22	80.49	6.40	-49.5	-53.0	13.4	9.10e-06	0	37	0	57671680	70	5407
2026-01-19 06:36:09.23	80.41	6.47	-48.6	-51.4	15.0	0.00e+00	0	37	0	59768832	69	4804
2026-01-19 06:36:10.24	80.34	6.54	-48.6	-51.4	15.1	0.00e+00	0	36	0	61865984	69	4773
2026-01-19 06:36:11.24	80.26	6.60	-48.7	-51.5	14.9	0.00e+00	0	37	0	63963136	69	4820
2026-01-19 06:36:12.25	80.18	6.67	-48.6	-51.3	15.1	0.00e+00	0	37	0	66060288	68	5012
2026-01-19 06:36:13.26	80.10	6.74	-48.1	-50.6	15.8	0.00e+00	0	36	0	67108864	68	4616
2026-01-19 06:36:14.26	80.02	6.80	-48.2	-50.7	15.8	0.00e+00	0	37	0	69206016	68	4677
2026-01-19 06:36:15.27	79.94	6.87	-48.5	-51.2	15.2	0.00e+00	0	36	0	71303168	68	4956
2026-01-19 06:36:16.28	79.86	6.94	-48.3	-50.9	15.6	0.00e+00	0	36	0	73400320	68	4781
2026-01-19 06:36:17.29	79.77	7.01	-48.4	-51.0	15.4	0.00e+00	0	36	0	75497472	68	4852
2026-01-19 06:36:18.30	79.69	7.07	-48.6	-51.4	15.1	0.00e+00	0	37	0	77594624	68	5050
2026-01-19 06:36:19.30	79.61	7.14	-48.5	-51.1	15.3	0.00e+00	0	37	0	78643200	68	4904
2026-01-19 06:36:20.31	79.53	7.21	-48.2	-50.7	15.8	0.00e+00	0	37	0	80740352	68	4671
2026-01-19 06:36:21.32	79.45	7.28	-48.5	-51.2	15.3	0.00e+00	0	37	0	82837504	68	4951
2026-01-19 06:36:22.32	79.36	7.34	-48.2	-50.6	15.8	0.00e+00	0	37	0	84934656	68	4648
2026-01-19 06:36:23.33	79.28	7.41	-48.2	-50.7	15.7	0.00e+00	0	37	0	85983232	67	4976
2026-01-19 06:36:24.34	79.19	7.48	-48.4	-51.1	15.3	0.00e+00	0	37	0	88080384	67	5183
2026-01-19 06:36:25.35	79.11	7.55	-48.3	-50.9	15.5	0.00e+00	0	37	0	90177536	67	5080
2026-01-19 06:36:26.35	79.02	7.62	-48.4	-51.1	15.4	0.00e+00	0	37	0	92274688	67	5165
2026-01-19 06:36:27.36	78.94	7.69	-48.4	-51.0	15.4	0.00e+00	0	37	0	94371840	67	5122
2026-01-19 06:36:28.37	78.85	7.75	-48.2	-50.8	15.6	0.00e+00	0	37	0	95420416	67	5011
2026-01-19 06:36:29.38	78.77	7.82	-48.6	-51.4	15.1	0.00e+00	0	37	0	97517568	67	5357
2026-01-19 06:36:30.39	78.68	7.89	-48.2	-50.7	15.8	0.00e+00	0	37	0	99614720	67	4975
2026-01-19 06:36:31.40	78.59	7.96	-48.2	-50.7	15.8	0.00e+00	0	37	0	101711872	67	4961
2026-01-19 06:36:32.40	78.51	8.03	-48.2	-50.7	15.8	0.00e+00	0	36	0	103809024	67	4958
2026-01-19 06:36:33.41	78.42	8.10	-48.0	-50.4	16.0	0.00e+00	0	37	0	105906176	67	4802
2026-01-19 06:36:34.42	78.33	8.17	-48.1	-50.6	15.9	0.00e+00	0	37	0	106954752	67	4891
2026-01-19 06:36:35.43	78.24	8.24	-48.3	-50.8	15.7	0.00e+00	0	37	0	109051904	67	5001
2026-01-19 06:36:36.43	78.15	8.31	-48.3	-50.9	15.6	0.00e+00	0	37	0	111149056	67	5068
2026-01-19 06:36:37.44	78.06	8.38	-48.4	-51.1	15.5	0.00e+00	0	37	0	113246208	67	5163
2026-01-19 06:36:38.45	77.97	8.45	-48.3	-50.9	15.6	0.00e+00	0	37	0	114294784	67	5073
2026-01-19 06:36:39.46	77.88	8.52	-48.3	-50.8	15.7	0.00e+00	0	37	0	116391936	67	5005
2026-01-19 06:36:40.46	77.79	8.59	-48.2	-50.7	15.8	0.00e+00	0	37	0	118489088	67	4942
2026-01-19 06:36:41.47	77.70	8.66	-48.2	-50.7	15.8	0.00e+00	0	36	0	120586240	67	4966
2026-01-19 06:36:42.48	77.61	8.73	-48.2	-50.6	15.9	0.00e+00	0	37	0	122683392	67	4898
2026-01-19 06:36:43.49	77.51	8.80	-47.9	-50.2	16.3	0.00e+00	0	37	0	124780544	67	4695
2026-01-19 06:36:44.49	77.42	8.87	-47.9	-50.2	16.3	0.00e+00	0	37	0	125829120	67	4692
2026-01-19 06:36:45.50	77.33	8.94	-48.2	-50.7	15.8	0.00e+00	0	37	0	127926272	67	4947
2026-01-19 06:36:46.51	77.23	9.01	-48.1	-50.5	16.1	0.00e+00	0	37	0	130023424	67	4817
2026-01-19 06:36:47.52	77.14	9.08	-48.1	-50.6	16.0	0.00e+00	0	37	0	132120576	67	4879
2026-01-19 06:36:48.53	77.04	9.15	-48.4	-50.9	15.6	0.00e+00	0	37	0	134217728	67	5091
2026-01-19 06:36:49.53	76.95	9.22	-48.3	-50.9	15.6	0.00e+00	0	37	0	135266304	67	5085
2026-01-19 06:36:50.54	76.85	9.30	-48.3	-50.8	15.8	0.00e+00	0	37	0	137363456	67	5041
2026-01-19 06:36:51.55	76.76	9.37	-48.2	-50.7	15.8	0.00e+00	0	37	0	139460608	67	4982
2026-01-19 06:36:52.56	76.66	9.44	-48.2	-50.7	15.9	0.00e+00	0	37	0	141557760	67	4965
2026-01-19 06:36:53.57	76.56	9.51	-48.4	-51.1	15.6	0.00e+00	0	37	0	142606336	67	5161
2026-01-19 06:36:54.58	76.46	9.58	-48.4	-50.9	15.7	0.00e+00	0	37	0	144703488	67	5076
2026-01-19 06:36:55.58	76.37	9.65	-48.2	-50.7	15.9	0.00e+00	0	37	0	146800640	67	4942
2026-01-19 06:36:56.59	76.27	9.73	-48.3	-50.8	15.7	0.00e+00	0	37	0	148897792	67	5040
2026-01-19 06:36:57.60	76.17	9.80	-48.2	-50.8	15.8	0.00e+00	0	37	0	150994944	67	4994
2026-01-19 06:36:58.61	76.07	9.87	-48.2	-50.7	15.9	0.00e+00	0	37	0	153092096	67	4970
2026-01-19 06:36:59.62	75.97	9.94	-48.2	-50.7	15.9	0.00e+00	0	37	0	154140672	67	4947
2026-01-19 06:37:00.63	75.87	10.02	-48.2	-50.7	15.9	0.00e+00	0	37	0	156237824	67	4974
2026-01-19 06:37:01.64	75.77	10.09	-48.0	-50.3	16.3	0.00e+00	0	37	0	158334976	67	4754
2026-01-19 06:37:02.64	75.66	10.16	-47.8	-50.0	16.6	0.00e+00	0	37	0	160432128	67	4590
2026-01-19 06:37:03.65	75.56	10.24	-47.8	-50.0	16.6	0.00e+00	0	37	0	162529280	67	4572
2026-01-19 06:37:04.66	75.46	10.31	-47.7	-50.0	16.6	0.00e+00	0	37	0	163577856	67	4551
2026-01-19 06:37:05.67	75.36	10.38	-47.8	-50.0	16.6	0.00e+00	0	37	0	165675008	67	4591
2026-01-19 06:37:06.67	75.25	10.46	-47.7	-49.9	16.7	0.00e+00	0	37	0	167772160	67	4526
2026-01-19 06:37:07.68	75.15	10.53	-47.7	-49.9	16.7	0.00e+00	0	37	0	169869312	67	4511
2026-01-19 06:37:08.69	75.04	10.60	-47.8	-50.1	16.5	0.00e+00	0	37	0	171966464	67	4625
2026-01-19 06:37:09.70	74.94	10.68	-48.1	-50.6	16.1	0.00e+00	0	37	0	173015040	67	4895
2026-01-19 06:37:10.71	74.83	10.75	-48.0	-50.4	16.3	0.00e+00	0	37	0	175112192	67	4765
2026-01-19 06:37:11.72	74.72	10.82	-47.9	-50.3	16.3	0.00e+00	0	37	0	177209344	67	4728
2026-01-19 06:37:12.72	74.62	10.90	-48.1	-50.5	16.2	0.00e+00	0	37	0	179306496	67	4823
2026-01-19 06:37:13.73	74.51	10.97	-48.0	-50.3	16.3	0.00e+00	0	37	0	181403648	67	4755
2026-01-19 06:37:14.74	74.40	11.05	-48.1	-50.5	16.3	0.00e+00	0	37	0	182452224	67	4830
2026-01-19 06:37:15.75	74.29	11.12	-47.7	-49.9	16.7	0.00e+00	0	37	0	184549376	67	4525
2026-01-19 06:37:16.75	74.18	11.20	-47.7	-49.9	16.8	0.00e+00	0	37	0	186646528	67	4500
2026-01-19 06:37:17.77	74.07	11.27	-47.8	-50.1	16.6	0.00e+00	0	37	0	188743680	67	4618
2026-01-19 06:37:18.77	73.96	11.35	-47.9	-50.1	16.6	0.00e+00	0	37	0	190840832	67	4651
2026-01-19 06:37:19.78	73.85	11.42	-47.8	-50.0	16.7	0.00e+00	0	37	0	191889408	67	4580
2026-01-19 06:37:20.79	73.74	11.50	-47.8	-50.1	16.6	0.00e+00	0	37	0	193986560	67	4602
2026-01-19 06:37:21.79	73.63	11.57	-47.7	-49.9	16.8	0.00e+00	0	37	0	196083712	67	4519
2026-01-19 06:37:22.80	73.51	11.65	-47.7	-49.9	16.8	0.00e+00	0	37	0	198180864	67	4526
2026-01-19 06:37:23.81	73.40	11.72	-47.7	-49.8	17.0	0.00e+00	0	37	0	200278016	67	4461
2026-01-19 06:37:24.82	73.29	11.80	-47.6	-49.7	16.9	0.00e+00	0	37	0	201326592	67	4438
2026-01-19 06:37:25.83	73.17	11.87	-47.6	-49.6	17.1	0.00e+00	0	37	0	203423744	67	4384
2026-01-19 06:37:26.83	73.06	11.95	-47.4	-49.4	17.3	0.00e+00	0	37	0	205520896	66	4516
2026-01-19 06:37:27.84	72.94	12.03	-47.5	-49.6	17.1	0.00e+00	0	37	0	207618048	66	4624
2026-01-19 06:37:28.85	72.82	12.10	-47.6	-49.7	17.0	0.00e+00	0	37	0	209715200	66	4689
2026-01-19 06:37:29.86	72.71	12.18	-47.6	-49.7	17.0	0.00e+00	0	37	0	210763776	66	4683
2026-01-19 06:37:30.86	72.59	12.25	-47.7	-49.9	16.9	0.00e+00	0	37	0	212860928	66	4772
2026-01-19 06:37:31.87	72.47	12.33	-47.7	-49.9	16.8	0.00e+00	0	37	0	214958080	66	4792
2026-01-19 06:37:32.88	72.35	12.41	-47.7	-49.9	16.9	0.00e+00	0	37	0	217055232	66	4769
2026-01-19 06:37:33.89	72.23	12.48	-47.8	-50.0	16.7	0.00e+00	0	37	0	219152384	66	4846
2026-01-19 06:37:34.90	72.11	12.56	-48.0	-50.3	16.5	0.00e+00	0	37	0	221249536	66	5011
2026-01-19 06:37:35.91	71.99	12.64	-47.9	-50.1	16.6	0.00e+00	0	37	0	222298112	66	4921
2026-01-19 06:37:36.92	71.87	12.72	-47.8	-50.0	16.7	0.00e+00	0	37	0	224395264	66	4867
2026-01-19 06:37:37.92	71.75	12.79	-48.0	-50.3	16.5	0.00e+00	0	37	0	226492416	66	5007
2026-01-19 06:37:38.93	71.62	12.87	-47.9	-50.1	16.6	0.00e+00	0	37	0	228589568	66	4912
2026-01-19 06:37:39.94	71.50	12.95	-48.0	-50.4	16.4	0.00e+00	0	37	0	229638144	66	5042
2026-01-19 06:37:40.94	71.37	13.02	-48.1	-50.4	16.3	0.00e+00	0	37	0	231735296	66	5055
2026-01-19 06:37:41.95	71.25	13.10	-48.0	-50.3	16.5	0.00e+00	0	37	0	233832448	66	5010
2026-01-19 06:37:42.96	71.12	13.18	-48.0	-50.3	16.5	0.00e+00	0	37	0	235929600	66	4993
2026-01-19 06:37:43.97	71.00	13.26	-47.9	-50.1	16.7	0.00e+00	0	37	0	238026752	66	4885
2026-01-19 06:37:44.97	70.87	13.33	-48.0	-50.3	16.5	0.00e+00	0	37	0	239075328	66	4991
2026-01-19 06:37:45.98	70.74	13.41	-47.9	-50.2	16.6	0.00e+00	0	37	0	241172480	66	4954
2026-01-19 06:37:46.99	70.61	13.49	-47.7	-49.9	16.9	0.00e+00	0	37	0	243269632	66	4788
2026-01-19 06:37:48.00	70.49	13.57	-47.5	-49.6	17.2	0.00e+00	0	37	0	245366784	66	4619
2026-01-19 06:37:49.01	70.36	13.65	-47.4	-49.3	17.4	0.00e+00	0	37	0	247463936	66	4492
2026-01-19 06:37:50.02	70.22	13.73	-47.3	-49.2	17.6	0.00e+00	0	37	0	249561088	66	4424
2026-01-19 06:37:51.03	70.09	13.81	-47.2	-49.1	17.7	0.00e+00	0	37	0	250609664	66	4344
2026-01-19 06:37:52.03	69.96	13.88	-47.1	-49.0	17.7	0.00e+00	0	37	0	252706816	66	4326
2026-01-19 06:37:53.04	69.83	13.96	-47.1	-48.9	17.8	0.00e+00	0	37	0	254803968	66	4288
2026-01-19 06:37:54.05	69.70	14.04	-46.9	-48.7	18.1	0.00e+00	0	37	0	256901120	65	4401
2026-01-19 06:37:55.05	69.56	14.12	-46.7	-48.5	18.3	0.00e+00	0	37	0	257949696	65	4305
2026-01-19 06:37:56.06	69.43	14.20	-46.7	-48.4	18.3	0.00e+00	0	37	0	260046848	65	4278
2026-01-19 06:37:57.07	69.29	14.28	-46.5	-48.2	18.5	0.00e+00	0	37	0	262144000	65	4181
2026-01-19 06:37:58.08	69.15	14.36	-46.5	-48.2	18.5	0.00e+00	0	37	0	264241152	65	4149
2026-01-19 06:37:59.08	69.02	14.44	-46.7	-48.4	18.4	0.00e+00	0	37	0	266338304	65	4277
2026-01-19 06:38:00.09	68.88	14.52	-46.8	-48.6	18.2	0.00e+00	0	37	0	268435456	65	4368
2026-01-19 06:38:01.10	68.74	14.60	-46.9	-48.7	18.1	0.00e+00	0	37	0	269484032	65	4411
2026-01-19 06:38:02.11	68.60	14.67	-46.9	-48.7	18.1	0.00e+00	0	37	0	271581184	65	4441
2026-01-19 06:38:03.11	68.46	14.75	-46.8	-48.6	18.2	0.00e+00	0	37	0	273678336	65	4367
2026-01-19 06:38:04.12	68.32	14.83	-46.9	-48.7	18.1	0.00e+00	0	37	0	275775488	65	4431
2026-01-19 06:38:05.13	68.18	14.91	-46.8	-48.6	18.2	0.00e+00	0	37	0	277872640	65	4343
2026-01-19 06:38:06.14	68.04	14.99	-46.8	-48.5	18.3	0.00e+00	0	37	0	278921216	65	4338
2026-01-19 06:38:07.14	67.90	15.07	-46.8	-48.6	18.2	0.00e+00	0	37	0	281018368	65	4375
2026-01-19 06:38:08.15	67.75	15.15	-46.9	-48.7	18.1	0.00e+00	0	37	0	283115520	65	4408
2026-01-19 06:38:09.16	67.61	15.23	-46.9	-48.7	18.1	0.00e+00	0	37	0	285212672	65	4405
2026-01-19 06:38:10.17	67.46	15.31	-46.8	-48.6	18.2	0.00e+00	0	37	0	286261248	65	4351
2026-01-19 06:38:11.18	67.31	15.39	-46.7	-48.4	18.4	0.00e+00	0	37	0	288358400	65	4280
2026-01-19 06:38:12.18	67.17	15.47	-46.6	-48.3	18.5	0.00e+00	0	37	0	290455552	65	4233
2026-01-19 06:38:13.19	67.02	15.56	-46.7	-48.4	18.4	0.00e+00	0	37	0	292552704	65	4278
2026-01-19 06:38:14.20	66.87	15.64	-46.8	-48.6	18.2	0.00e+00	0	37	0	294649856	65	4383
2026-01-19 06:38:15.21	66.72	15.72	-46.7	-48.4	18.4	0.00e+00	0	37	0	296747008	65	4270
2026-01-19 06:38:16.21	66.57	15.80	-46.6	-48.3	18.5	0.00e+00	0	37	0	297795584	65	4215
2026-01-19 06:38:17.22	66.42	15.88	-46.6	-48.3	18.6	0.00e+00	0	37	0	299892736	65	4199
2026-01-19 06:38:18.23	66.27	15.96	-46.6	-48.3	18.6	0.00e+00	0	37	0	301989888	65	4201
2026-01-19 06:38:19.24	66.11	16.04	-46.7	-48.5	18.3	0.00e+00	0	37	0	304087040	64	4556
2026-01-19 06:38:20.25	65.96	16.12	-46.8	-48.6	18.2	0.00e+00	0	37	0	306184192	64	4624
2026-01-19 06:38:21.26	65.81	16.20	-46.7	-48.5	18.3	0.00e+00	0	37	0	307232768	64	4567
2026-01-19 06:38:22.26	65.65	16.28	-46.8	-48.7	18.1	0.00e+00	0	37	0	309329920	64	4664
2026-01-19 06:38:23.27	65.50	16.36	-46.8	-48.7	18.1	0.00e+00	0	37	0	311427072	64	4669
2026-01-19 06:38:24.28	65.34	16.44	-46.7	-48.5	18.3	0.00e+00	0	37	0	313524224	64	4595
2026-01-19 06:38:25.28	65.18	16.53	-46.8	-48.6	18.2	0.00e+00	0	37	0	315621376	64	4651
2026-01-19 06:38:26.29	65.02	16.61	-46.9	-48.7	18.1	0.00e+00	0	37	0	316669952	64	4695
2026-01-19 06:38:27.30	64.86	16.69	-46.8	-48.6	18.2	0.00e+00	0	37	0	318767104	64	4632
2026-01-19 06:38:28.30	64.70	16.77	-46.9	-48.8	18.0	0.00e+00	0	37	0	320864256	64	4728
2026-01-19 06:38:29.31	64.54	16.85	-47.2	-49.2	17.7	0.00e+00	0	37	0	322961408	65	4700
2026-01-19 06:38:30.32	64.38	16.93	-47.4	-49.4	17.4	0.00e+00	0	37	0	325058560	65	4797
2026-01-19 06:38:31.33	64.21	17.01	-47.2	-49.1	17.7	0.00e+00	0	37	0	326107136	65	4645
2026-01-19 06:38:32.34	64.05	17.09	-47.2	-49.1	17.8	0.00e+00	0	37	0	328204288	65	4624
2026-01-19 06:38:33.35	63.88	17.18	-47.2	-49.2	17.6	0.00e+00	0	37	0	330301440	65	4683
2026-01-19 06:38:34.36	63.72	17.26	-47.5	-49.5	17.3	0.00e+00	0	37	0	332398592	65	4866
2026-01-19 06:38:35.36	63.55	17.34	-47.4	-49.5	17.4	0.00e+00	0	37	0	334495744	65	4834
2026-01-19 06:38:36.37	63.38	17.42	-47.5	-49.6	17.3	0.00e+00	0	37	0	335544320	65	4891
2026-01-19 06:38:37.38	63.22	17.50	-47.7	-49.9	17.0	0.00e+00	0	37	0	337641472	66	4809
2026-01-19 06:38:38.39	63.05	17.58	-47.6	-49.7	17.2	0.00e+00	0	37	0	339738624	66	4690
2026-01-19 06:38:39.40	62.87	17.67	-47.5	-49.5	17.4	0.00e+00	0	37	0	341835776	66	4576
2026-01-19 06:38:40.40	62.70	17.75	-47.6	-49.6	17.4	0.00e+00	0	37	0	343932928	66	4646
2026-01-19 06:38:41.41	62.53	17.83	-47.4	-49.5	17.5	0.00e+00	0	37	0	344981504	66	4554
2026-01-19 06:38:42.42	62.36	17.91	-47.3	-49.2	17.7	0.00e+00	0	37	0	347078656	66	4435
2026-01-19 06:38:43.43	62.18	17.99	-47.3	-49.2	17.7	0.00e+00	0	37	0	349175808	66	4435
2026-01-19 06:38:44.43	62.01	18.07	-47.5	-49.5	17.4	0.00e+00	0	37	0	351272960	66	4585
2026-01-19 06:38:45.44	61.83	18.15	-47.5	-49.6	17.3	0.00e+00	0	37	0	353370112	66	4614
2026-01-19 06:38:46.45	61.65	18.24	-47.4	-49.4	17.5	0.00e+00	0	37	0	354418688	66	4499
2026-01-19 06:38:47.46	61.48	18.32	-47.5	-49.5	17.5	0.00e+00	0	37	0	356515840	66	4565
2026-01-19 06:38:48.46	61.30	18.40	-47.2	-49.1	17.8	0.00e+00	0	37	0	358612992	66	4378
2026-01-19 06:38:49.47	61.12	18.48	-47.3	-49.2	17.7	0.00e+00	0	37	0	360710144	66	4440
2026-01-19 06:38:50.48	60.94	18.56	-46.9	-48.7	18.2	0.00e+00	0	37	0	362807296	65	4425
2026-01-19 06:38:51.49	60.75	18.64	-47.1	-49.0	18.0	0.00e+00	0	37	0	363855872	65	4554
2026-01-19 06:38:52.50	60.57	18.72	-47.0	-48.8	18.0	0.00e+00	0	37	0	365953024	65	4488
2026-01-19 06:38:53.50	60.39	18.81	-47.0	-48.8	18.1	0.00e+00	0	37	0	368050176	65	4469
2026-01-19 06:38:54.52	60.20	18.89	-47.0	-48.9	18.0	0.00e+00	0	37	0	370147328	65	4498
2026-01-19 06:38:55.52	60.02	18.97	-47.3	-49.2	17.7	0.00e+00	0	37	0	372244480	65	4697
2026-01-19 06:38:56.53	59.83	19.05	-47.5	-49.6	17.4	0.00e+00	0	37	0	373293056	65	4900
2026-01-19 06:38:57.54	59.64	19.13	-47.5	-49.5	17.4	0.00e+00	0	37	0	375390208	65	4855
2026-01-19 06:38:58.55	59.45	19.21	-47.5	-49.6	17.3	0.00e+00	0	37	0	377487360	65	4900
2026-01-19 06:38:59.56	59.26	19.29	-47.4	-49.4	17.6	0.00e+00	0	37	0	379584512	65	4797
2026-01-19 06:39:00.56	59.07	19.37	-47.2	-49.1	17.9	0.00e+00	0	37	0	381681664	65	4607
2026-01-19 06:39:01.57	58.88	19.45	-47.3	-49.2	17.7	0.00e+00	0	37	0	382730240	65	4678
2026-01-19 06:39:02.58	58.68	19.53	-47.1	-48.9	18.0	0.00e+00	0	37	0	384827392	65	4536
2026-01-19 06:39:03.59	58.49	19.62	-47.0	-48.8	18.1	0.00e+00	0	37	0	386924544	65	4473
2026-01-19 06:39:04.60	58.29	19.70	-46.9	-48.7	18.2	0.00e+00	0	37	0	389021696	65	4414
2026-01-19 06:39:05.61	58.10	19.78	-46.4	-48.1	18.8	0.00e+00	0	37	0	391118848	64	4362
2026-01-19 06:39:06.62	57.90	19.86	-46.6	-48.3	18.6	0.00e+00	0	37	0	392167424	64	4491
2026-01-19 06:39:07.62	57.70	19.94	-46.7	-48.4	18.5	0.00e+00	0	37	0	394264576	64	4520
2026-01-19 06:39:08.63	57.50	20.02	-46.8	-48.5	18.4	0.00e+00	0	37	0	396361728	64	4579
2026-01-19 06:39:09.64	57.30	20.10	-47.0	-48.8	18.2	0.00e+00	0	37	0	398458880	64	4720
2026-01-19 06:39:10.65	57.10	20.18	-47.1	-49.0	18.0	0.00e+00	0	37	0	400556032	64	4839
2026-01-19 06:39:11.66	56.90	20.26	-47.1	-48.9	18.0	0.00e+00	0	37	0	401604608	64	4808
2026-01-19 06:39:12.66	56.69	20.34	-47.3	-49.3	17.8	0.00e+00	0	37	0	403701760	65	4715
2026-01-19 06:39:13.67	56.49	20.42	-47.1	-49.0	18.0	0.00e+00	0	37	0	405798912	65	4574
2026-01-19 06:39:14.68	56.28	20.50	-47.1	-49.0	18.0	0.00e+00	0	37	0	407896064	65	4578
2026-01-19 06:39:15.69	56.07	20.58	-47.2	-49.1	17.9	0.00e+00	0	37	0	409993216	65	4621
2026-01-19 06:39:16.70	55.87	20.65	-46.8	-48.6	18.3	0.00e+00	0	37	0	412090368	65	4365
2026-01-19 06:39:17.70	55.66	20.73	-46.5	-48.2	18.8	0.00e+00	0	37	0	413138944	65	4153
2026-01-19 06:39:18.71	55.45	20.81	-46.4	-48.0	18.9	0.00e+00	0	37	0	415236096	64	4336
2026-01-19 06:39:19.72	55.24	20.89	-46.4	-48.1	18.9	0.00e+00	0	37	0	417333248	64	4357
2026-01-19 06:39:20.73	55.02	20.97	-46.3	-47.8	19.1	0.00e+00	0	37	0	419430400	63	4478
2026-01-19 06:39:21.73	54.81	21.05	-46.2	-47.8	19.2	0.00e+00	0	37	0	420478976	63	4452
2026-01-19 06:39:22.74	54.60	21.13	-46.0	-47.5	19.5	0.00e+00	0	37	0	422576128	63	4317
2026-01-19 06:39:23.75	54.38	21.20	-46.0	-47.6	19.4	0.00e+00	0	37	0	424673280	63	4343
2026-01-19 06:39:24.76	54.16	21.28	-45.9	-47.5	19.4	0.00e+00	0	37	0	426770432	63	4308
2026-01-19 06:39:25.76	53.95	21.36	-46.1	-47.7	19.3	0.00e+00	0	37	0	428867584	63	4394
2026-01-19 06:39:26.77	53.73	21.44	-46.3	-47.9	19.1	0.00e+00	0	37	0	429916160	63	4511
2026-01-19 06:39:27.78	53.51	21.51	-46.3	-47.9	19.0	0.00e+00	0	37	0	432013312	63	4528
2026-01-19 06:39:28.79	53.29	21.59	-46.1	-47.7	19.2	0.00e+00	0	37	0	434110464	63	4433
2026-01-19 06:39:29.80	53.06	21.67	-46.1	-47.7	19.2	0.00e+00	0	37	0	436207616	63	4421
2026-01-19 06:39:30.80	52.84	21.74	-46.1	-47.7	19.2	0.00e+00	0	37	0	438304768	63	4433
2026-01-19 06:39:31.81	52.62	21.82	-46.1	-47.7	19.3	0.00e+00	0	37	0	440401920	63	4415
2026-01-19 06:39:32.82	52.39	21.89	-45.8	-47.3	19.6	0.00e+00	0	37	0	441450496	63	4229
2026-01-19 06:39:33.83	52.16	21.97	-45.7	-47.1	19.8	0.00e+00	0	37	0	443547648	63	4130
2026-01-19 06:39:34.84	51.93	22.05	-45.4	-46.7	20.2	0.00e+00	0	37	0	445644800	62	4175
2026-01-19 06:39:35.85	51.70	22.12	-45.4	-46.7	20.2	0.00e+00	0	37	0	447741952	62	4171
2026-01-19 06:39:36.86	51.47	22.20	-45.4	-46.8	20.1	0.00e+00	0	37	0	448790528	62	4214
2026-01-19 06:39:37.86	51.24	22.27	-45.6	-47.0	19.9	0.00e+00	0	37	0	450887680	62	4333
2026-01-19 06:39:38.87	51.01	22.34	-45.8	-47.3	19.7	0.00e+00	0	37	0	452984832	62	4452
2026-01-19 06:39:39.88	50.78	22.42	-45.8	-47.3	19.7	0.00e+00	0	37	0	455081984	62	4457
2026-01-19 06:39:40.89	50.54	22.49	-45.6	-47.0	19.9	0.00e+00	0	37	0	457179136	62	4332
2026-01-19 06:39:41.90	50.31	22.57	-45.7	-47.1	19.9	0.00e+00	0	37	0	459276288	62	4358
2026-01-19 06:39:42.90	50.07	22.64	-45.4	-46.7	20.2	0.00e+00	0	37	0	460324864	62	4162
2026-01-19 06:39:43.91	49.83	22.71	-45.3	-46.7	20.3	0.00e+00	0	37	0	462422016	62	4147
2026-01-19 06:39:44.92	49.59	22.78	-45.2	-46.5	20.3	0.00e+00	0	37	0	464519168	62	4090
2026-01-19 06:39:45.92	49.36	22.86	-45.1	-46.4	20.5	0.00e+00	0	37	0	466616320	62	4005
2026-01-19 06:39:46.93	49.11	22.93	-44.8	-46.1	20.7	0.00e+00	0	37	0	468713472	61	4106
2026-01-19 06:39:47.94	48.87	23.00	-44.9	-46.2	20.7	0.00e+00	0	37	0	469762048	61	4158
2026-01-19 06:39:48.95	48.63	23.07	-45.1	-46.4	20.4	0.00e+00	0	37	0	471859200	61	4280
2026-01-19 06:39:49.96	48.38	23.14	-45.4	-46.8	20.1	0.00e+00	0	37	0	473956352	61	4455
2026-01-19 06:39:50.96	48.14	23.21	-45.4	-46.8	20.1	0.00e+00	0	37	0	476053504	61	4471
2026-01-19 06:39:51.97	47.89	23.28	-45.4	-46.8	20.1	0.00e+00	0	37	0	477102080	61	4467
2026-01-19 06:39:52.98	47.64	23.35	-45.3	-46.6	20.3	0.00e+00	0	37	0	479199232	61	4386
2026-01-19 06:39:53.99	47.39	23.42	-45.4	-46.7	20.2	0.00e+00	0	37	0	481296384	61	4437
2026-01-19 06:39:55.00	47.14	23.49	-45.4	-46.7	20.2	0.00e+00	0	37	0	483393536	61	4434
2026-01-19 06:39:56.00	46.89	23.56	-45.4	-46.8	20.2	0.00e+00	0	37	0	485490688	61	4450
2026-01-19 06:39:57.01	46.64	23.62	-45.3	-46.6	20.3	0.00e+00	0	37	0	487587840	61	4386
2026-01-19 06:39:58.02	46.38	23.69	-45.4	-46.8	20.2	0.00e+00	0	37	0	488636416	61	4465
2026-01-19 06:39:59.03	46.13	23.76	-45.7	-47.1	19.9	0.00e+00	0	37	0	490733568	61	4649
2026-01-19 06:40:00.04	45.87	23.83	-45.8	-47.2	19.8	0.00e+00	0	37	0	492830720	62	4414
2026-01-19 06:40:01.04	45.62	23.89	-46.0	-47.5	19.5	0.00e+00	0	37	0	494927872	62	4561
2026-01-19 06:40:02.05	45.36	23.96	-46.0	-47.4	19.6	0.00e+00	0	37	0	497025024	62	4544
2026-01-19 06:40:03.06	45.10	24.02	-45.8	-47.3	19.8	0.00e+00	0	37	0	498073600	62	4444
2026-01-19 06:40:04.06	44.84	24.09	-45.7	-47.1	19.9	0.00e+00	0	37	0	500170752	62	4362
2026-01-19 06:40:05.07	44.58	24.15	-45.9	-47.4	19.6	0.00e+00	0	37	0	502267904	62	4520
2026-01-19 06:40:06.08	44.32	24.21	-45.8	-47.3	19.8	0.00e+00	0	37	0	504365056	62	4458
2026-01-19 06:40:07.09	44.05	24.28	-45.8	-47.3	19.8	0.00e+00	0	37	0	506462208	62	4442
2026-01-19 06:40:08.10	43.79	24.34	-45.5	-46.8	20.1	0.00e+00	0	37	0	507510784	62	4233
2026-01-19 06:40:09.10	43.53	24.40	-45.3	-46.7	20.3	0.00e+00	0	37	0	509607936	62	4149
2026-01-19 06:40:10.11	43.26	24.46	-45.3	-46.7	20.2	0.00e+00	0	37	0	511705088	62	4156
2026-01-19 06:40:11.12	42.99	24.53	-45.5	-46.9	20.1	0.00e+00	0	37	0	513802240	62	4272
2026-01-19 06:40:12.13	42.72	24.59	-45.6	-47.0	20.1	0.00e+00	0	37	0	515899392	62	4294
2026-01-19 06:40:13.13	42.45	24.65	-45.5	-46.9	20.1	0.00e+00	0	37	0	516947968	62	4255
2026-01-19 06:40:14.14	42.18	24.71	-45.5	-46.8	20.2	0.00e+00	0	37	0	519045120	62	4242
2026-01-19 06:40:15.15	41.91	24.76	-45.5	-46.8	20.2	0.00e+00	0	37	0	521142272	62	4237
2026-01-19 06:40:16.16	41.64	24.82	-45.8	-47.3	19.8	0.00e+00	0	37	0	523239424	62	4447
2026-01-19 06:40:17.17	41.36	24.88	-45.6	-47.0	20.1	0.00e+00	0	37	0	525336576	62	4301
2026-01-19 06:40:18.18	41.09	24.94	-45.4	-46.8	20.2	0.00e+00	0	37	0	526385152	62	4217
2026-01-19 06:40:19.19	40.81	24.99	-45.1	-46.4	20.6	0.00e+00	0	37	0	528482304	62	4037
2026-01-19 06:40:20.19	40.54	25.05	-45.1	-46.3	20.6	0.00e+00	0	37	0	530579456	62	4000
2026-01-19 06:40:21.20	40.26	25.11	-45.1	-46.4	20.5	0.00e+00	0	37	0	532676608	62	4032
2026-01-19 06:40:22.21	39.98	25.16	-45.1	-46.4	20.6	0.00e+00	0	37	0	534773760	62	4019
2026-01-19 06:40:23.22	39.70	25.21	-45.3	-46.6	20.4	0.00e+00	0	37	0	535822336	62	4104
2026-01-19 06:40:24.23	39.42	25.27	-45.2	-46.5	20.5	0.00e+00	0	37	0	537919488	62	4065
2026-01-19 06:40:25.24	39.14	25.32	-45.1	-46.4	20.6	0.00e+00	0	37	0	540016640	62	4034
2026-01-19 06:40:26.25	38.85	25.37	-45.3	-46.6	20.5	0.00e+00	0	37	0	542113792	62	4107
2026-01-19 06:40:27.25	38.57	25.42	-45.4	-46.7	20.3	0.00e+00	0	37	0	544210944	62	4175
2026-01-19 06:40:28.26	38.29	25.47	-45.5	-46.9	20.2	0.00e+00	0	37	0	545259520	62	4245
2026-01-19 06:40:29.27	38.00	25.52	-45.6	-47.0	20.1	0.00e+00	0	37	0	547356672	62	4299
2026-01-19 06:40:30.27	37.72	25.57	-45.6	-46.9	20.1	0.00e+00	0	37	0	549453824	62	4278
2026-01-19 06:40:31.29	37.43	25.62	-45.5	-46.9	20.2	0.00e+00	0	37	0	551550976	62	4262
2026-01-19 06:40:32.29	37.14	25.67	-45.5	-46.8	20.2	0.00e+00	0	37	0	553648128	62	4217
2026-01-19 06:40:33.30	36.85	25.72	-45.7	-47.1	20.0	0.00e+00	0	37	0	555745280	62	4349
2026-01-19 06:40:34.31	36.56	25.76	-46.1	-47.6	19.6	0.00e+00	0	37	0	556793856	62	4599
2026-01-19 06:40:35.32	36.27	25.81	-46.0	-47.4	19.7	0.00e+00	0	37	0	558891008	62	4543
2026-01-19 06:40:36.32	35.98	25.86	-46.5	-48.0	19.0	0.00e+00	0	37	0	560988160	63	4595
2026-01-19 06:40:37.33	35.69	25.90	-46.6	-48.3	18.8	0.00e+00	0	37	0	563085312	64	4445
2026-01-19 06:40:38.34	35.39	25.94	-46.8	-48.5	18.7	0.00e+00	0	37	0	564133888	64	4552
2026-01-19 06:40:39.35	35.10	25.99	-46.9	-48.7	18.4	0.00e+00	0	37	0	566231040	64	4667
2026-01-19 06:40:40.36	34.81	26.03	-47.3	-49.1	18.1	0.00e+00	0	37	0	568328192	65	4628
2026-01-19 06:40:41.37	34.51	26.07	-47.3	-49.1	18.0	0.00e+00	0	37	0	570425344	65	4624
2026-01-19 06:40:42.38	34.21	26.11	-47.1	-48.9	18.2	0.00e+00	0	37	0	572522496	65	4494
2026-01-19 06:40:43.38	33.92	26.15	-47.6	-49.6	17.6	0.00e+00	0	37	0	574619648	66	4614
2026-01-19 06:40:44.39	33.62	26.19	-47.7	-49.6	17.5	0.00e+00	0	37	0	575668224	66	4644
2026-01-19 06:40:45.40	33.32	26.23	-47.2	-49.0	18.0	0.00e+00	0	37	0	577765376	66	4333
2026-01-19 06:40:46.41	33.02	26.26	-47.0	-48.7	18.4	0.00e+00	0	37	0	579862528	66	4180
2026-01-19 06:40:47.42	32.72	26.30	-46.7	-48.3	18.7	0.00e+00	0	37	0	581959680	65	4216
2026-01-19 06:40:48.42	32.42	26.34	-46.4	-47.9	19.2	0.00e+00	0	37	0	584056832	64	4249
2026-01-19 06:40:49.43	32.12	26.37	-46.5	-48.1	18.9	0.00e+00	0	37	0	585105408	64	4346
2026-01-19 06:40:50.44	31.82	26.41	-46.9	-48.7	18.4	0.00e+00	0	37	0	587202560	64	4654
2026-01-19 06:40:51.45	31.52	26.44	-46.9	-48.7	18.4	0.00e+00	0	37	0	589299712	64	4672
2026-01-19 06:40:52.45	31.22	26.47	-47.1	-49.0	18.2	0.00e+00	0	37	0	591396864	64	4822
2026-01-19 06:40:53.46	30.91	26.50	-47.4	-49.3	17.9	0.00e+00	0	37	0	592445440	65	4722
2026-01-19 06:40:54.47	30.61	26.53	-47.4	-49.3	17.9	0.00e+00	0	37	0	594542592	65	4735
2026-01-19 06:40:55.48	30.30	26.56	-47.3	-49.1	18.0	0.00e+00	0	37	0	596639744	65	4634
2026-01-19 06:40:56.49	29.99	26.59	-47.4	-49.2	17.8	0.00e+00	0	37	0	598736896	65	4697
2026-01-19 06:40:57.49	29.69	26.62	-47.2	-49.0	18.0	0.00e+00	0	37	0	600834048	65	4571
2026-01-19 06:40:58.50	29.38	26.65	-47.0	-48.7	18.3	0.00e+00	0	37	0	602931200	65	4420
2026-01-19 06:40:59.51	29.08	26.67	-46.9	-48.6	18.4	0.00e+00	0	37	0	603979776	65	4376
2026-01-19 06:41:00.52	28.77	26.70	-47.0	-48.8	18.3	0.00e+00	0	37	0	606076928	65	4460
2026-01-19 06:41:01.53	28.46	26.72	-47.1	-48.9	18.2	0.00e+00	0	37	0	608174080	65	4527
2026-01-19 06:41:02.54	28.15	26.75	-47.2	-49.1	18.0	0.00e+00	0	37	0	610271232	65	4616
2026-01-19 06:41:03.54	27.84	26.77	-47.2	-49.1	18.0	0.00e+00	0	37	0	612368384	65	4600
2026-01-19 06:41:04.55	27.53	26.79	-46.8	-48.6	18.5	0.00e+00	0	37	0	613416960	65	4347
2026-01-19 06:41:05.56	27.22	26.81	-46.7	-48.4	18.6	0.00e+00	0	37	0	615514112	65	4270
2026-01-19 06:41:06.57	26.91	26.83	-46.7	-48.4	18.7	0.00e+00	0	37	0	617611264	65	4284
2026-01-19 06:41:07.58	26.60	26.85	-46.6	-48.3	18.8	0.00e+00	0	37	0	619708416	65	4219
2026-01-19 06:41:08.59	26.29	26.87	-46.0	-47.7	18.9	0.00e+00	0	37	0	621805568	64	4147
2026-01-19 06:41:09.60	25.98	26.89	-46.6	-48.3	18.7	0.00e+00	0	37	0	622854144	64	4455
2026-01-19 06:41:10.60	25.67	26.90	-46.7	-48.4	18.6	0.00e+00	0	37	0	624951296	64	4498
2026-01-19 06:41:11.61	25.36	26.92	-46.9	-48.6	18.4	0.00e+00	0	37	0	627048448	64	4633
2026-01-19 06:41:12.62	25.04	26.93	-47.2	-49.1	17.9	0.00e+00	0	37	0	629145600	65	4635
2026-01-19 06:41:13.63	24.73	26.95	-47.5	-49.5	17.6	0.00e+00	0	37	0	631242752	65	4816
2026-01-19 06:41:14.64	24.42	26.96	-47.5	-49.5	17.6	0.00e+00	0	37	0	632291328	65	4860
2026-01-19 06:41:15.64	24.11	26.97	-47.6	-49.6	17.5	0.00e+00	0	37	0	634388480	65	4921
2026-01-19 06:41:16.65	23.79	26.98	-47.6	-49.6	17.6	0.00e+00	0	37	0	636485632	65	4905
2026-01-19 06:41:17.66	23.48	26.99	-47.6	-49.6	17.5	0.00e+00	0	37	0	638582784	66	4637
2026-01-19 06:41:18.67	23.17	27.00	-47.3	-49.1	18.0	0.00e+00	0	37	0	640679936	66	4372
2026-01-19 06:41:19.67	22.85	27.01	-47.2	-49.0	18.2	0.00e+00	0	37	0	641728512	65	4565
2026-01-19 06:41:20.68	22.54	27.02	-46.7	-48.3	18.7	0.00e+00	0	37	0	643825664	65	4218
2026-01-19 06:41:21.69	22.23	27.02	-46.2	-47.8	19.3	0.00e+00	0	37	0	645922816	64	4205
2026-01-19 06:41:22.70	21.91	27.03	-46.2	-47.7	19.3	0.00e+00	0	37	0	648019968	64	4186
2026-01-19 06:41:23.70	21.60	27.03	-46.4	-48.0	19.1	0.00e+00	0	37	0	650117120	64	4294
2026-01-19 06:41:24.71	21.28	27.03	-46.6	-48.3	18.8	0.00e+00	0	37	0	651165696	64	4461
2026-01-19 06:41:25.72	20.97	27.04	-46.8	-48.4	18.7	0.00e+00	0	37	0	653262848	64	4539
2026-01-19 06:41:26.73	20.65	27.04	-47.1	-48.9	18.2	0.00e+00	0	37	0	655360000	64	4778
2026-01-19 06:41:27.73	20.34	27.04	-47.1	-48.9	18.2	0.00e+00	0	37	0	657457152	64	4773
2026-01-19 06:41:28.74	20.03	27.04	-47.0	-48.8	18.2	0.00e+00	0	37	0	659554304	64	4725
2026-01-19 06:41:29.75	19.71	27.03	-47.1	-48.9	18.1	0.00e+00	0	37	0	660602880	64	4814
2026-01-19 06:41:30.76	19.40	27.03	-46.9	-48.6	18.4	0.00e+00	0	37	0	662700032	64	4634
2026-01-19 06:41:31.77	19.08	27.03	-46.9	-48.6	18.4	0.00e+00	0	37	0	664797184	64	4645
2026-01-19 06:41:32.77	18.77	27.02	-46.7	-48.4	18.7	0.00e+00	0	37	0	666894336	64	4519
2026-01-19 06:41:33.78	18.46	27.02	-46.5	-48.1	19.0	0.00e+00	0	37	0	668991488	64	4371
2026-01-19 06:41:34.79	18.14	27.01	-46.1	-47.6	19.4	0.00e+00	0	37	0	670040064	64	4112
2026-01-19 06:41:35.80	17.83	27.00	-46.2	-47.7	19.4	0.00e+00	0	37	0	672137216	63	4428
2026-01-19 06:41:36.80	17.52	27.00	-46.1	-47.6	19.5	0.00e+00	0	37	0	674234368	63	4365
2026-01-19 06:41:37.81	17.20	26.99	-46.3	-47.8	19.4	0.00e+00	0	37	0	676331520	63	4476
2026-01-19 06:41:38.82	16.89	26.98	-46.5	-48.1	19.1	0.00e+00	0	37	0	678428672	63	4602
2026-01-19 06:41:39.83	16.58	26.97	-46.5	-48.2	19.0	0.00e+00	0	37	0	679477248	63	4658
2026-01-19 06:41:40.84	16.26	26.95	-46.5	-48.1	19.0	0.00e+00	0	37	0	681574400	63	4647
2026-01-19 06:41:41.84	15.95	26.94	-46.4	-48.0	19.1	0.00e+00	0	37	0	683671552	63	4565
2026-01-19 06:41:42.85	15.64	26.93	-46.3	-47.9	19.2	0.00e+00	0	37	0	685768704	63	4524
2026-01-19 06:41:43.86	15.33	26.91	-46.1	-47.6	19.6	0.00e+00	0	37	0	687865856	63	4378
2026-01-19 06:41:44.86	15.02	26.90	-45.8	-47.2	19.9	0.00e+00	0	37	0	688914432	63	4154
2026-01-19 06:41:45.87	14.71	26.88	-45.4	-46.7	20.3	0.00e+00	0	37	0	691011584	62	4191
2026-01-19 06:41:46.88	14.39	26.86	-45.1	-46.3	20.7	0.00e+00	0	37	0	693108736	62	3999
2026-01-19 06:41:47.89	14.08	26.84	-45.0	-46.2	20.8	0.00e+00	0	37	0	695205888	61	4165
2026-01-19 06:41:48.89	13.78	26.82	-45.0	-46.2	20.8	0.00e+00	0	37	0	697303040	61	4165
2026-01-19 06:41:49.90	13.47	26.80	-45.2	-46.4	20.6	0.00e+00	0	37	0	698351616	61	4284
2026-01-19 06:41:50.91	13.16	26.78	-45.3	-46.6	20.5	0.00e+00	0	37	0	700448768	61	4359
2026-01-19 06:41:51.92	12.85	26.76	-45.3	-46.6	20.4	0.00e+00	0	37	0	702545920	61	4378
2026-01-19 06:41:52.93	12.54	26.74	-45.5	-46.8	20.3	0.00e+00	0	37	0	704643072	61	4454
2026-01-19 06:41:53.93	12.23	26.71	-45.4	-46.7	20.3	0.00e+00	0	37	0	706740224	61	4400
2026-01-19 06:41:54.94	11.92	26.69	-45.4	-46.8	20.3	0.00e+00	0	37	0	707788800	61	4451
2026-01-19 06:41:55.95	11.61	26.66	-45.7	-47.1	20.0	0.00e+00	0	37	0	709885952	61	4600
2026-01-19 06:41:56.96	11.31	26.63	-45.6	-47.0	20.1	0.00e+00	0	37	0	711983104	61	4579
2026-01-19 06:41:57.97	11.00	26.61	-45.9	-47.3	19.8	0.00e+00	0	37	0	714080256	62	4479
2026-01-19 06:41:58.97	10.70	26.58	-45.7	-47.1	19.9	0.00e+00	0	37	0	716177408	62	4374
2026-01-19 06:41:59.98	10.39	26.55	-45.8	-47.2	19.9	0.00e+00	0	37	0	717225984	62	4424
2026-01-19 06:42:00.99	10.09	26.52	-46.1	-47.6	19.5	0.00e+00	0	37	0	719323136	62	4627
2026-01-19 06:42:02.00	9.78	26.49	-46.1	-47.5	19.6	0.00e+00	0	37	0	721420288	63	4337
2026-01-19 06:42:03.00	9.48	26.46	-46.0	-47.4	19.7	0.00e+00	0	37	0	723517440	63	4266
2026-01-19 06:42:04.01	9.18	26.42	-46.1	-47.5	19.6	0.00e+00	0	37	0	725614592	63	4315
2026-01-19 06:42:05.02	8.88	26.39	-46.3	-47.8	19.4	0.00e+00	0	37	0	726663168	63	4480
2026-01-19 06:42:06.02	8.58	26.36	-46.4	-47.9	19.2	0.00e+00	0	37	0	728760320	63	4541
2026-01-19 06:42:07.03	8.28	26.32	-46.3	-47.8	19.4	0.00e+00	0	37	0	730857472	63	4462
2026-01-19 06:42:08.04	7.98	26.28	-46.4	-47.9	19.3	0.00e+00	0	37	0	732954624	63	4505
2026-01-19 06:42:09.05	7.68	26.25	-46.3	-47.8	19.4	0.00e+00	0	37	0	735051776	63	4466
2026-01-19 06:42:10.05	7.38	26.21	-46.4	-48.0	19.2	0.00e+00	0	37	0	736100352	63	4551
2026-01-19 06:42:11.07	7.08	26.17	-46.7	-48.3	18.8	0.00e+00	0	37	0	738197504	64	4474
2026-01-19 06:42:12.07	6.78	26.13	-46.8	-48.4	18.7	0.00e+00	0	37	0	740294656	64	4527
2026-01-19 06:42:13.08	6.49	26.09	-46.3	-47.9	19.1	0.00e+00	0	37	0	742391808	64	4247
2026-01-19 06:42:14.09	6.19	26.05	-46.0	-47.5	19.7	0.00e+00	0	37	0	744488960	63	4299
2026-01-19 06:42:15.10	5.90	26.01	-46.0	-47.4	19.7	0.00e+00	0	37	0	746586112	63	4256
2026-01-19 06:42:16.10	5.60	25.97	-46.2	-47.6	19.5	0.00e+00	0	37	0	747634688	63	4378
2026-01-19 06:42:17.11	5.31	25.92	-46.4	-47.9	19.3	0.00e+00	0	37	0	749731840	63	4501
2026-01-19 06:42:18.12	5.02	25.88	-46.5	-48.1	19.1	0.00e+00	0	37	0	751828992	63	4613
2026-01-19 06:42:19.13	4.73	25.84	-46.6	-48.2	18.9	0.00e+00	0	37	0	753926144	64	4426
2026-01-19 06:42:20.14	4.43	25.79	-46.6	-48.2	18.9	0.00e+00	0	37	0	754974720	64	4432
2026-01-19 06:42:21.14	4.15	25.74	-46.6	-48.1	18.9	0.00e+00	0	37	0	757071872	64	4391
2026-01-19 06:42:22.15	3.86	25.70	-46.7	-48.4	18.7	0.00e+00	0	37	0	759169024	64	4515
2026-01-19 06:42:23.16	3.57	25.65	-46.4	-47.9	19.1	0.00e+00	0	37	0	761266176	64	4283
2026-01-19 06:42:24.17	3.28	25.60	-46.5	-48.1	19.0	0.00e+00	0	37	0	763363328	64	4364
2026-01-19 06:42:25.18	2.99	25.55	-46.6	-48.2	18.9	0.00e+00	0	37	0	764411904	64	4417
2026-01-19 06:42:26.18	2.71	25.50	-46.9	-48.6	18.5	0.00e+00	0	37	0	766509056	64	4646
2026-01-19 06:42:27.19	2.42	25.45	-47.2	-49.1	18.0	0.00e+00	0	37	0	768606208	65	4620
2026-01-19 06:42:28.20	2.14	25.40	-47.4	-49.3	17.9	0.00e+00	0	37	0	770703360	65	4739
2026-01-19 06:42:29.21	1.86	25.35	-47.5	-49.5	17.7	0.00e+00	0	37	0	772800512	65	4824
2026-01-19 06:42:30.22	1.58	25.30	-47.4	-49.3	17.8	0.00e+00	0	37	0	774897664	66	4490
2026-01-19 06:42:31.22	1.30	25.25	-47.4	-49.4	17.8	0.00e+00	0	37	0	775946240	66	4495
2026-01-19 06:42:32.23	1.02	25.19	-47.3	-49.1	18.0	0.00e+00	0	37	0	778043392	66	4384
2026-01-19 06:42:33.24	0.74	25.14	-47.3	-49.2	18.0	0.00e+00	0	37	0	780140544	66	4414
2026-01-19 06:42:34.25	0.46	25.08	-47.2	-49.0	18.1	0.00e+00	0	37	0	782237696	66	4333
2026-01-19 06:42:35.26	0.18	25.03	-47.5	-49.4	17.8	0.00e+00	0	37	0	783286272	66	4500
2026-01-19 06:42:36.27	359.90	24.97	-47.3	-49.2	17.9	0.00e+00	0	37	0	785383424	66	4412
2026-01-19 06:42:37.28	359.63	24.91	-47.4	-49.2	17.9	0.00e+00	0	37	0	787480576	66	4429
2026-01-19 06:42:38.28	359.36	24.86	-47.2	-49.0	18.0	0.00e+00	0	37	0	789577728	66	4340
2026-01-19 06:42:39.29	359.08	24.80	-47.0	-48.7	18.3	0.00e+00	0	37	0	791674880	66	4183
2026-01-19 06:42:40.30	358.81	24.74	-46.9	-48.6	18.4	0.00e+00	0	37	0	793772032	65	4369
2026-01-19 06:42:41.31	358.54	24.68	-47.0	-48.7	18.3	0.00e+00	0	37	0	794820608	65	4419
2026-01-19 06:42:42.32	358.27	24.62	-46.8	-48.5	18.6	0.00e+00	0	37	0	796917760	65	4334
2026-01-19 06:42:43.32	358.00	24.56	-46.7	-48.3	18.7	0.00e+00	0	37	0	799014912	65	4237
2026-01-19 06:42:44.33	357.73	24.50	-46.7	-48.3	18.7	0.00e+00	0	37	0	801112064	65	4226
2026-01-19 06:42:45.34	357.47	24.44	-46.6	-48.3	18.8	0.00e+00	0	37	0	803209216	64	4445
2026-01-19 06:42:46.35	357.20	24.38	-46.8	-48.5	18.5	0.00e+00	0	37	0	804257792	64	4590
2026-01-19 06:42:47.36	356.94	24.32	-47.1	-48.9	18.1	0.00e+00	0	37	0	806354944	64	4781
2026-01-19 06:42:48.36	356.67	24.25	-46.8	-48.6	18.4	0.00e+00	0	37	0	808452096	64	4623
2026-01-19 06:42:49.37	356.41	24.19	-46.5	-48.1	18.8	0.00e+00	0	37	0	810549248	64	4387
2026-01-19 06:42:50.38	356.15	24.13	-46.2	-47.8	19.1	0.00e+00	0	37	0	811597824	64	4229
2026-01-19 06:42:51.39	355.89	24.06	-46.2	-47.8	19.2	0.00e+00	0	37	0	813694976	64	4227
2026-01-19 06:42:52.40	355.63	24.00	-46.1	-47.7	19.3	0.00e+00	0	37	0	815792128	64	4163
2026-01-19 06:42:53.41	355.37	23.93	-46.3	-47.9	19.0	0.00e+00	0	37	0	817889280	64	4270
2026-01-19 06:42:54.42	355.11	23.86	-47.0	-48.8	18.3	0.00e+00	0	37	0	819986432	64	4718
2026-01-19 06:42:55.42	354.86	23.80	-47.4	-49.3	17.7	0.00e+00	0	37	0	822083584	65	4734
2026-01-19 06:42:56.43	354.60	23.73	-47.7	-49.8	17.3	0.00e+00	0	37	0	823132160	65	5021
2026-01-19 06:42:57.44	354.35	23.66	-47.7	-49.8	17.3	0.00e+00	0	37	0	825229312	66	4710
2026-01-19 06:42:58.45	354.10	23.60	-47.6	-49.7	17.4	0.00e+00	0	37	0	827326464	66	4660
2026-01-19 06:42:59.46	353.84	23.53	-47.5	-49.6	17.6	0.00e+00	0	37	0	829423616	66	4599
2026-01-19 06:43:00.46	353.59	23.46	-47.3	-49.3	17.8	0.00e+00	0	37	0	831520768	66	4451
2026-01-19 06:43:01.47	353.34	23.39	-47.1	-49.0	18.1	0.00e+00	0	37	0	832569344	66	4310
2026-01-19 06:43:02.48	353.10	23.32	-46.7	-48.4	18.6	0.00e+00	0	37	0	834666496	65	4268
2026-01-19 06:43:03.49	352.85	23.25	-46.2	-47.7	19.1	0.00e+00	0	37	0	836763648	64	4186
2026-01-19 06:43:04.49	352.60	23.18	-46.2	-47.7	19.3	0.00e+00	0	37	0	838860800	63	4431
2026-01-19 06:43:05.50	352.36	23.11	-46.3	-47.9	19.2	0.00e+00	0	37	0	840957952	63	4497
2026-01-19 06:43:06.51	352.11	23.04	-46.2	-47.8	19.2	0.00e+00	0	37	0	842006528	63	4463
2026-01-19 06:43:07.52	351.87	22.97	-46.6	-48.3	18.8	0.00e+00	0	37	0	844103680	63	4716
2026-01-19 06:43:08.53	351.63	22.90	-46.7	-48.4	18.7	0.00e+00	0	37	0	846200832	63	4811
2026-01-19 06:43:09.53	351.39	22.83	-47.0	-48.9	18.1	0.00e+00	0	37	0	848297984	64	4813
2026-01-19 06:43:10.54	351.15	22.76	-47.0	-48.9	18.1	0.00e+00	0	37	0	850395136	64	4796
2026-01-19 06:43:11.55	350.91	22.68	-46.9	-48.7	18.3	0.00e+00	0	37	0	851443712	64	4699
2026-01-19 06:43:12.56	350.67	22.61	-46.8	-48.6	18.4	0.00e+00	0	37	0	853540864	64	4636
2026-01-19 06:43:13.57	350.44	22.54	-46.6	-48.3	18.7	0.00e+00	0	37	0	855638016	64	4458
2026-01-19 06:43:14.58	350.20	22.46	-46.0	-47.6	19.3	0.00e+00	0	37	0	857735168	64	4111
2026-01-19 06:43:15.59	349.97	22.39	-45.8	-47.3	19.7	0.00e+00	0	37	0	859832320	63	4195
2026-01-19 06:43:16.60	349.74	22.32	-45.6	-47.0	20.0	0.00e+00	0	37	0	861929472	63	4075
2026-01-19 06:43:17.60	349.51	22.24	-45.4	-46.8	20.2	0.00e+00	0	37	0	862978048	62	4220
2026-01-19 06:43:18.61	349.28	22.17	-45.5	-46.9	20.1	0.00e+00	0	37	0	865075200	62	4246
2026-01-19 06:43:19.62	349.05	22.09	-45.5	-46.9	20.2	0.00e+00	0	37	0	867172352	62	4248
2026-01-19 06:43:20.63	348.82	22.02	-45.5	-46.9	20.1	0.00e+00	0	37	0	869269504	62	4278
2026-01-19 06:43:21.64	348.59	21.94	-45.4	-46.8	20.1	0.00e+00	0	37	0	870318080	62	4208
2026-01-19 06:43:22.64	348.37	21.87	-45.5	-46.8	20.1	0.00e+00	0	37	0	872415232	62	4241
2026-01-19 06:43:23.65	348.14	21.79	-45.4	-46.7	20.2	0.00e+00	0	37	0	874512384	62	4174
2026-01-19 06:43:24.66	347.92	21.71	-45.4	-46.7	20.2	0.00e+00	0	37	0	876609536	62	4191
2026-01-19 06:43:25.66	347.70	21.64	-45.4	-46.8	20.1	0.00e+00	0	37	0	878706688	62	4224
2026-01-19 06:43:26.67	347.47	21.56	-45.5	-46.8	20.1	0.00e+00	0	37	0	879755264	62	4233
2026-01-19 06:43:27.68	347.25	21.49	-45.4	-46.8	20.1	0.00e+00	0	37	0	881852416	62	4212
2026-01-19 06:43:28.69	347.03	21.41	-45.2	-46.5	20.4	0.00e+00	0	37	0	883949568	62	4075
2026-01-19 06:43:29.70	346.81	21.33	-45.2	-46.6	20.3	0.00e+00	0	37	0	886046720	62	4103
2026-01-19 06:43:30.70	346.60	21.25	-45.2	-46.5	20.3	0.00e+00	0	37	0	888143872	62	4069
2026-01-19 06:43:31.71	346.38	21.18	-45.2	-46.6	20.3	0.00e+00	0	37	0	890241024	62	4120
2026-01-19 06:43:32.72	346.17	21.10	-45.5	-46.9	20.0	0.00e+00	0	37	0	891289600	62	4254
2026-01-19 06:43:33.73	345.95	21.02	-45.8	-47.2	19.6	0.00e+00	0	37	0	893386752	62	4439
2026-01-19 06:43:34.74	345.74	20.94	-45.8	-47.3	19.6	0.00e+00	0	37	0	895483904	62	4458
2026-01-19 06:43:35.74	345.53	20.86	-46.0	-47.6	19.4	0.00e+00	0	37	0	897581056	62	4608
2026-01-19 06:43:36.75	345.32	20.78	-46.0	-47.5	19.4	0.00e+00	0	37	0	898629632	62	4591
2026-01-19 06:43:37.76	345.11	20.71	-46.2	-47.8	19.1	0.00e+00	0	37	0	900726784	62	4743
2026-01-19 06:43:38.77	344.90	20.63	-46.3	-47.9	19.0	0.00e+00	0	37	0	902823936	63	4519
2026-01-19 06:43:39.78	344.69	20.55	-46.3	-48.0	19.0	0.00e+00	0	37	0	904921088	63	4561
2026-01-19 06:43:40.78	344.49	20.47	-46.1	-47.6	19.3	0.00e+00	0	37	0	907018240	63	4383
2026-01-19 06:43:41.79	344.28	20.39	-45.7	-47.2	19.7	0.00e+00	0	37	0	909115392	63	4166
2026-01-19 06:43:42.80	344.08	20.31	-45.6	-47.0	19.9	0.00e+00	0	37	0	910163968	63	4056
2026-01-19 06:43:43.80	343.88	20.23	-45.5	-46.9	20.0	0.00e+00	0	37	0	912261120	62	4246
2026-01-19 06:43:44.81	343.68	20.15	-45.6	-47.0	19.9	0.00e+00	0	37	0	914358272	62	4336
2026-01-19 06:43:45.82	343.47	20.07	-45.7	-47.1	19.8	0.00e+00	0	37	0	916455424	62	4363
2026-01-19 06:43:46.83	343.27	19.99	-45.9	-47.4	19.6	0.00e+00	0	37	0	918552576	62	4514
2026-01-19 06:43:47.84	343.08	19.91	-45.9	-47.4	19.5	0.00e+00	0	37	0	919601152	62	4531
2026-01-19 06:43:48.85	342.88	19.83	-45.7	-47.1	19.8	0.00e+00	0	37	0	921698304	62	4382
2026-01-19 06:43:49.85	342.68	19.75	-45.0	-46.3	20.5	0.00e+00	0	37	0	923795456	62	3988
2026-01-19 06:43:50.86	342.49	19.67	-44.8	-46.0	20.8	0.00e+00	0	37	0	925892608	61	4077
2026-01-19 06:43:51.86	342.29	19.59	-44.8	-46.0	20.8	0.00e+00	0	37	0	926941184	61	4070
2026-01-19 06:43:52.87	342.10	19.51	-44.7	-45.9	20.9	0.00e+00	0	37	0	929038336	61	4023
2026-01-19 06:43:53.88	341.91	19.43	-44.7	-46.0	20.9	0.00e+00	0	37	0	931135488	61	4066
2026-01-19 06:43:54.89	341.72	19.35	-44.8	-46.1	20.8	0.00e+00	0	37	0	933232640	61	4104
2026-01-19 06:43:55.90	341.52	19.27	-44.8	-46.1	20.7	0.00e+00	0	37	0	935329792	61	4121
2026-01-19 06:43:56.90	341.34	19.19	-45.0	-46.3	20.6	0.00e+00	0	37	0	937426944	61	4219
2026-01-19 06:43:57.91	341.15	19.11	-45.0	-46.2	20.6	0.00e+00	0	37	0	938475520	61	4186
2026-01-19 06:43:58.92	340.96	19.02	-44.9	-46.2	20.6	0.00e+00	0	37	0	940572672	61	4173
2026-01-19 06:43:59.93	340.77	18.94	-45.1	-46.4	20.5	0.00e+00	0	37	0	942669824	61	4258
2026-01-19 06:44:00.93	340.59	18.86	-45.3	-46.6	20.3	0.00e+00	0	37	0	944766976	61	4366
2026-01-19 06:44:01.94	340.41	18.78	-45.2	-46.5	20.4	0.00e+00	0	37	0	946864128	61	4307
2026-01-19 06:44:02.95	340.22	18.70	-45.1	-46.4	20.5	0.00e+00	0	37	0	947912704	61	4261
2026-01-19 06:44:03.96	340.04	18.62	-45.1	-46.4	20.4	0.00e+00	0	37	0	950009856	61	4268
2026-01-19 06:44:04.96	339.86	18.54	-44.9	-46.2	20.6	0.00e+00	0	37	0	952107008	61	4161
2026-01-19 06:44:05.97	339.68	18.46	-44.9	-46.2	20.7	0.00e+00	0	37	0	954204160	61	4149
2026-01-19 06:44:06.98	339.50	18.38	-45.0	-46.3	20.5	0.00e+00	0	37	0	955252736	61	4233
2026-01-19 06:44:07.99	339.32	18.29	-45.0	-46.3	20.6	0.00e+00	0	37	0	957349888	61	4195
2026-01-19 06:44:08.99	339.14	18.21	-45.2	-46.6	20.3	0.00e+00	0	37	0	959447040	61	4341
2026-01-19 06:44:10.00	338.97	18.13	-45.4	-46.7	20.1	0.00e+00	0	37	0	961544192	61	4437
2026-01-19 06:44:11.01	338.79	18.05	-45.3	-46.7	20.2	0.00e+00	0	37	0	963641344	61	4400
2026-01-19 06:44:12.02	338.62	17.97	-45.4	-46.8	20.1	0.00e+00	0	37	0	965738496	61	4465
2026-01-19 06:44:13.03	338.44	17.89	-45.5	-46.9	20.0	0.00e+00	0	37	0	966787072	61	4520
2026-01-19 06:44:14.04	338.27	17.81	-45.6	-47.0	19.9	0.00e+00	0	37	0	968884224	61	4592
2026-01-19 06:44:15.04	338.10	17.73	-45.5	-46.8	20.1	0.00e+00	0	37	0	970981376	61	4476
2026-01-19 06:44:16.05	337.93	17.64	-45.5	-46.8	20.0	0.00e+00	0	37	0	973078528	61	4493
2026-01-19 06:44:17.06	337.76	17.56	-45.2	-46.5	20.3	0.00e+00	0	37	0	975175680	61	4317
2026-01-19 06:44:18.07	337.59	17.48	-45.2	-46.5	20.3	0.00e+00	0	37	0	976224256	61	4332
2026-01-19 06:44:19.07	337.42	17.40	-44.8	-46.0	20.8	0.00e+00	0	37	0	978321408	61	4075
2026-01-19 06:44:20.08	337.25	17.32	-44.7	-46.0	20.8	0.00e+00	0	37	0	980418560	61	4065
2026-01-19 06:44:21.09	337.09	17.24	-44.6	-45.9	20.8	0.00e+00	0	37	0	982515712	61	4009
2026-01-19 06:44:22.10	336.92	17.16	-44.8	-46.0	20.7	0.00e+00	0	37	0	984612864	61	4091
2026-01-19 06:44:23.10	336.76	17.07	-45.0	-46.3	20.5	0.00e+00	0	37	0	985661440	61	4206
2026-01-19 06:44:24.11	336.60	16.99	-45.3	-46.7	20.1	0.00e+00	0	37	0	987758592	61	4419
2026-01-19 06:44:25.12	336.43	16.91	-45.6	-47.1	19.8	0.00e+00	0	37	0	989855744	61	4607
2026-01-19 06:44:26.13	336.27	16.83	-45.9	-47.4	19.5	0.00e+00	0	37	0	991952896	62	4499
2026-01-19 06:44:27.13	336.11	16.75	-46.2	-47.8	19.2	0.00e+00	0	37	0	994050048	63	4443
2026-01-19 06:44:28.14	335.95	16.67	-46.0	-47.5	19.4	0.00e+00	0	37	0	995098624	63	4332
2026-01-19 06:44:29.15	335.79	16.59	-46.2	-47.7	19.2	0.00e+00	0	37	0	997195776	63	4420
2026-01-19 06:44:30.16	335.63	16.51	-45.9	-47.4	19.5	0.00e+00	0	37	0	999292928	63	4257
2026-01-19 06:44:31.17	335.48	16.43	-45.8	-47.2	19.6	0.00e+00	0	37	0	1001390080	63	4189
2026-01-19 06:44:32.18	335.32	16.34	-45.6	-47.1	19.8	0.00e+00	0	37	0	1003487232	63	4110
2026-01-19 06:44:33.18	335.16	16.26	-45.7	-47.2	19.7	0.00e+00	0	37	0	1004535808	63	4157
2026-01-19 06:44:34.19	335.01	16.18	-45.8	-47.2	19.7	0.00e+00	0	37	0	1006632960	63	4179
2026-01-19 06:44:35.20	334.86	16.10	-45.6	-47.0	19.8	0.00e+00	0	37	0	1008730112	63	4089
2026-01-19 06:44:36.21	334.70	16.02	-45.8	-47.2	19.6	0.00e+00	0	37	0	1010827264	63	4180
2026-01-19 06:44:37.21	334.55	15.94	-45.6	-47.0	19.9	0.00e+00	0	37	0	1012924416	63	4056
2026-01-19 06:44:38.22	334.40	15.86	-45.9	-47.4	19.5	0.00e+00	0	37	0	1013972992	63	4286
2026-01-19 06:44:39.23	334.25	15.78	-46.0	-47.6	19.3	0.00e+00	0	37	0	1016070144	63	4344
2026-01-19 06:44:40.24	334.10	15.70	-46.4	-48.0	19.0	0.00e+00	0	37	0	1018167296	63	4555
2026-01-19 06:44:41.24	333.95	15.62	-46.5	-48.1	18.9	0.00e+00	0	37	0	1020264448	63	4610
2026-01-19 06:44:42.25	333.80	15.54	-46.6	-48.2	18.6	0.00e+00	0	37	0	1022361600	63	4704
2026-01-19 06:44:43.26	333.66	15.46	-46.9	-48.7	18.2	0.00e+00	0	37	0	1023410176	64	4676
2026-01-19 06:44:44.27	333.51	15.38	-46.9	-48.7	18.1	0.00e+00	0	37	0	1025507328	64	4689
2026-01-19 06:44:45.27	333.36	15.30	-47.2	-49.0	17.8	0.00e+00	0	37	0	1027604480	64	4867
2026-01-19 06:44:46.28	333.22	15.22	-46.8	-48.6	18.3	0.00e+00	0	37	0	1029701632	64	4600
2026-01-19 06:44:47.29	333.08	15.14	-46.6	-48.2	18.6	0.00e+00	0	37	0	1031798784	64	4431
2026-01-19 06:44:48.30	332.93	15.06	-46.2	-47.8	19.0	0.00e+00	0	37	0	1032847360	64	4215
2026-01-19 06:44:49.31	332.79	14.98	-46.1	-47.6	19.2	0.00e+00	0	37	0	1034944512	64	4126
2026-01-19 06:44:50.31	332.65	14.90	-45.8	-47.3	19.5	0.00e+00	0	37	0	1037041664	63	4200
2026-01-19 06:44:51.32	332.51	14.82	-45.8	-47.3	19.6	0.00e+00	0	37	0	1039138816	63	4205
2026-01-19 06:44:52.33	332.37	14.74	-45.9	-47.3	19.5	0.00e+00	0	37	0	1041235968	63	4230
2026-01-19 06:44:53.34	332.23	14.66	-45.6	-47.0	19.8	0.00e+00	0	37	0	1042284544	63	4093
2026-01-19 06:44:54.34	332.09	14.58	-46.0	-47.5	19.4	0.00e+00	0	37	0	1044381696	63	4307
2026-01-19 06:44:55.35	331.95	14.50	-46.3	-47.9	19.0	7.00e-07	0	37	0	1046478848	63	4508
2026-01-19 06:44:56.36	331.81	14.42	-46.5	-48.1	18.8	0.00e+00	0	37	0	1048576000	63	4617
2026-01-19 06:44:57.37	331.68	14.34	-46.5	-48.1	18.8	0.00e+00	0	37	0	1050673152	63	4602
2026-01-19 06:44:58.38	331.54	14.26	-46.6	-48.2	18.7	0.00e+00	0	37	0	1051721728	63	4688
2026-01-19 06:44:59.38	331.41	14.19	-46.3	-47.8	19.0	0.00e+00	0	37	0	1053818880	63	4483
2026-01-19 06:45:00.39	331.27	14.11	-46.1	-47.6	19.2	0.00e+00	0	37	0	1055916032	63	4368
2026-01-19 06:45:01.40	331.14	14.03	-46.2	-47.7	19.2	0.00e+00	0	37	0	1058013184	63	4408
2026-01-19 06:45:02.40	331.01	13.95	-46.1	-47.6	19.2	0.00e+00	0	37	0	1060110336	63	4355
2026-01-19 06:45:03.41	330.88	13.87	-46.0	-47.5	19.3	0.00e+00	0	37	0	1061158912	63	4323
2026-01-19 06:45:04.42	330.74	13.79	-46.2	-47.7	19.0	0.00e+00	0	37	0	1063256064	63	4437
2026-01-19 06:45:05.43	330.61	13.71	-46.4	-48.0	18.9	0.00e+00	0	37	0	1065353216	63	4567
2026-01-19 06:45:06.44	330.48	13.64	-46.2	-47.7	19.1	0.00e+00	0	37	0	1067450368	63	4427
2026-01-19 06:45:07.44	330.36	13.56	-46.1	-47.6	19.2	0.00e+00	0	37	0	1069547520	63	4383
2026-01-19 06:45:08.45	330.23	13.48	-46.2	-47.7	19.1	0.00e+00	0	37	0	1070596096	63	4441
2026-01-19 06:45:09.46	330.10	13.40	-46.0	-47.6	19.3	0.00e+00	0	37	0	1072693248	63	4341
2026-01-19 06:45:10.47	329.97	13.32	-46.1	-47.7	19.1	0.00e+00	0	37	0	1074790400	63	4401
2026-01-19 06:45:11.47	329.85	13.25	-46.1	-47.7	19.1	0.00e+00	0	37	0	1076887552	63	4408
2026-01-19 06:45:12.48	329.72	13.17	-46.2	-47.7	19.1	0.00e+00	0	37	0	1078984704	63	4424
2026-01-19 06:45:13.49	329.59	13.09	-46.1	-47.6	19.1	0.00e+00	0	37	0	1081081856	63	4378
2026-01-19 06:45:14.50	329.47	13.01	-46.4	-48.0	18.8	0.00e+00	0	37	0	1082130432	63	4572
2026-01-19 06:45:15.51	329.35	12.94	-46.4	-47.9	18.8	0.00e+00	0	37	0	1084227584	63	4543
2026-01-19 06:45:16.52	329.22	12.86	-46.4	-48.0	18.8	0.00e+00	0	37	0	1086324736	63	4572
2026-01-19 06:45:17.53	329.10	12.78	-46.7	-48.4	18.4	0.00e+00	0	37	0	1088421888	63	4769
2026-01-19 06:45:18.54	328.98	12.70	-46.7	-48.4	18.4	0.00e+00	0	37	0	1089470464	63	4767
2026-01-19 06:45:19.55	328.86	12.63	-46.6	-48.3	18.4	0.00e+00	0	37	0	1091567616	64	4461
2026-01-19 06:45:20.56	328.74	12.55	-46.7	-48.4	18.3	0.00e+00	0	37	0	1093664768	64	4513
2026-01-19 06:45:21.56	328.62	12.47	-46.7	-48.4	18.3	0.00e+00	0	37	0	1095761920	64	4527
2026-01-19 06:45:22.57	328.50	12.40	-46.5	-48.2	18.5	0.00e+00	0	37	0	1097859072	64	4414
2026-01-19 06:45:23.58	328.38	12.32	-46.5	-48.1	18.6	0.00e+00	0	37	0	1098907648	64	4373
2026-01-19 06:45:24.59	328.26	12.24	-46.4	-48.0	18.6	0.00e+00	0	37	0	1101004800	64	4331
2026-01-19 06:45:25.59	328.15	12.17	-46.3	-47.9	18.8	0.00e+00	0	37	0	1103101952	64	4289
2026-01-19 06:45:26.60	328.03	12.09	-46.4	-48.0	18.7	0.00e+00	0	37	0	1105199104	64	4340
2026-01-19 06:45:27.61	327.91	12.02	-46.3	-48.0	18.7	0.00e+00	0	37	0	1107296256	64	4297
2026-01-19 06:45:28.62	327.80	11.94	-46.6	-48.3	18.4	0.00e+00	0	37	0	1109393408	64	4448
2026-01-19 06:45:29.63	327.68	11.86	-46.9	-48.8	18.0	0.00e+00	0	37	0	1110441984	64	4710
2026-01-19 06:45:30.64	327.57	11.79	-47.1	-49.0	17.7	0.00e+00	0	37	0	1112539136	64	4831
2026-01-19 06:45:31.65	327.45	11.71	-47.1	-49.1	17.7	0.00e+00	0	37	0	1114636288	64	4875
2026-01-19 06:45:32.66	327.34	11.64	-47.3	-49.3	17.4	0.00e+00	0	37	0	1116733440	65	4724
2026-01-19 06:45:33.66	327.23	11.56	-47.6	-49.6	17.1	0.00e+00	0	37	0	1117782016	65	4923
2026-01-19 06:45:34.67	327.12	11.49	-47.5	-49.6	17.2	0.00e+00	0	37	0	1119879168	65	4875
2026-01-19 06:45:35.68	327.01	11.41	-47.7	-49.9	16.9	0.00e+00	0	37	0	1121976320	65	5042
2026-01-19 06:45:36.69	326.89	11.34	-47.6	-49.7	17.0	0.00e+00	0	37	0	1124073472	66	4674
2026-01-19 06:45:37.70	326.78	11.26	-47.3	-49.3	17.4	0.00e+00	0	37	0	1126170624	66	4455
2026-01-19 06:45:38.71	326.67	11.19	-47.3	-49.2	17.5	0.00e+00	0	37	0	1128267776	66	4432
2026-01-19 06:45:39.72	326.57	11.11	-46.8	-48.6	18.0	0.00e+00	0	37	0	1129316352	65	4386
2026-01-19 06:45:40.72	326.46	11.04	-46.7	-48.4	18.2	0.00e+00	0	37	0	1131413504	65	4269
2026-01-19 06:45:41.73	326.35	10.97	-46.6	-48.3	18.4	0.00e+00	0	37	0	1133510656	65	4201
2026-01-19 06:45:42.74	326.24	10.89	-46.4	-48.1	18.5	0.00e+00	0	37	0	1135607808	64	4357
2026-01-19 06:45:43.75	326.14	10.82	-46.3	-48.0	18.6	0.00e+00	0	37	0	1137704960	64	4308
2026-01-19 06:45:44.76	326.03	10.74	-46.4	-48.1	18.5	0.00e+00	0	37	0	1138753536	64	4352
2026-01-19 06:45:45.76	325.92	10.67	-46.5	-48.2	18.4	0.00e+00	0	37	0	1140850688	64	4408
2026-01-19 06:45:46.77	325.82	10.60	-46.5	-48.2	18.4	0.00e+00	0	37	0	1142947840	64	4425
2026-01-19 06:45:47.78	325.71	10.52	-46.7	-48.4	18.1	0.00e+00	0	37	0	1145044992	64	4541
2026-01-19 06:45:48.79	325.61	10.45	-46.9	-48.7	17.9	0.00e+00	0	37	0	1147142144	64	4681
2026-01-19 06:45:49.80	325.51	10.38	-47.0	-48.9	17.7	0.00e+00	0	37	0	1148190720	64	4807
2026-01-19 06:45:50.80	325.41	10.30	-47.4	-49.4	17.3	0.00e+00	0	37	0	1150287872	65	4792
2026-01-19 06:45:51.81	325.30	10.23	-47.5	-49.6	17.1	0.00e+00	0	37	0	1152385024	65	4880
2026-01-19 06:45:52.82	325.20	10.16	-47.6	-49.7	16.9	0.00e+00	0	37	0	1154482176	65	4974
2026-01-19 06:45:53.83	325.10	10.08	-47.9	-50.1	16.5	0.00e+00	0	37	0	1156579328	66	4901
2026-01-19 06:45:54.84	325.00	10.01	-48.0	-50.3	16.3	0.00e+00	0	37	0	1157627904	66	5009
2026-01-19 06:45:55.84	324.90	9.94	-48.0	-50.3	16.3	0.00e+00	0	37	0	1159725056	66	4986
2026-01-19 06:45:56.85	324.80	9.87	-48.0	-50.2	16.4	0.00e+00	0	37	0	1161822208	66	4982
2026-01-19 06:45:57.86	324.70	9.79	-47.9	-50.2	16.4	0.00e+00	0	37	0	1163919360	66	4958
2026-01-19 06:45:58.86	324.60	9.72	-48.0	-50.3	16.3	0.00e+00	0	37	0	1166016512	66	5028
2026-01-19 06:45:59.87	324.50	9.65	-47.9	-50.2	16.4	0.00e+00	0	37	0	1167065088	66	4941
2026-01-19 06:46:00.88	324.41	9.58	-47.8	-50.1	16.5	0.00e+00	0	37	0	1169162240	66	4874
2026-01-19 06:46:01.89	324.31	9.51	-47.9	-50.1	16.4	0.00e+00	0	37	0	1171259392	66	4924
2026-01-19 06:46:02.90	324.21	9.44	-47.8	-50.0	16.6	0.00e+00	0	37	0	1173356544	66	4863
2026-01-19 06:46:03.90	324.12	9.36	-47.8	-50.0	16.6	0.00e+00	0	37	0	1175453696	66	4834
2026-01-19 06:46:04.91	324.02	9.29	-47.9	-50.1	16.6	0.00e+00	0	37	0	1176502272	66	4890
2026-01-19 06:46:05.92	323.92	9.22	-47.8	-49.9	16.6	0.00e+00	0	37	0	1178599424	66	4806
2026-01-19 06:46:06.93	323.83	9.15	-47.7	-49.8	16.8	0.00e+00	0	37	0	1180696576	66	4737
2026-01-19 06:46:07.93	323.74	9.08	-47.7	-49.9	16.7	0.00e+00	0	37	0	1182793728	66	4783
2026-01-19 06:46:08.94	323.64	9.01	-47.7	-49.8	16.7	0.00e+00	0	37	0	1184890880	66	4753
2026-01-19 06:46:09.95	323.55	8.94	-48.0	-50.2	16.3	0.00e+00	0	37	0	1185939456	66	4972
2026-01-19 06:46:10.96	323.46	8.87	-47.9	-50.2	16.4	0.00e+00	0	37	0	1188036608	66	4948
2026-01-19 06:46:11.97	323.36	8.80	-48.0	-50.3	16.3	0.00e+00	0	37	0	1190133760	66	5014
2026-01-19 06:46:12.97	323.27	8.73	-48.0	-50.3	16.2	0.00e+00	0	37	0	1192230912	66	5002
2026-01-19 06:46:13.99	323.18	8.66	-48.4	-50.9	15.6	0.00e+00	0	37	0	1194328064	67	5088
2026-01-19 06:46:14.99	323.09	8.59	-48.5	-51.0	15.6	0.00e+00	0	37	0	1196425216	67	5139
2026-01-19 06:46:16.00	323.00	8.52	-48.9	-51.7	15.0	0.00e+00	0	37	0	1197473792	68	5220
2026-01-19 06:46:17.01	322.91	8.45	-49.0	-51.8	14.8	0.00e+00	0	37	0	1199570944	68	5328
2026-01-19 06:46:18.02	322.82	8.38	-49.0	-51.9	14.8	0.00e+00	0	37	0	1201668096	68	5368
2026-01-19 06:46:19.03	322.73	8.31	-48.8	-51.5	15.1	0.00e+00	0	37	0	1203765248	68	5134
2026-01-19 06:46:20.04	322.64	8.24	-48.9	-51.7	15.0	0.00e+00	0	37	0	1204813824	68	5221
2026-01-19 06:46:21.04	322.55	8.17	-48.6	-51.3	15.3	0.00e+00	0	37	0	1206910976	68	5011
2026-01-19 06:46:22.05	322.46	8.10	-48.7	-51.4	15.2	0.00e+00	0	37	0	1209008128	68	5090
2026-01-19 06:46:23.06	322.38	8.03	-48.6	-51.3	15.3	0.00e+00	0	37	0	1211105280	68	5015
2026-01-19 06:46:24.07	322.29	7.96	-48.6	-51.3	15.4	0.00e+00	0	37	0	1213202432	68	4989
2026-01-19 06:46:25.08	322.20	7.89	-48.4	-50.9	15.7	0.00e+00	0	37	0	1214251008	68	4763
2026-01-19 06:46:26.08	322.12	7.82	-48.2	-50.5	16.0	0.00e+00	0	37	0	1216348160	68	4595
2026-01-19 06:46:27.09	322.03	7.75	-48.2	-50.7	15.9	0.00e+00	0	37	0	1218445312	68	4652
2026-01-19 06:46:28.10	321.95	7.69	-47.7	-49.8	16.6	0.00e+00	0	37	0	1220542464	67	4490
2026-01-19 06:46:29.10	321.86	7.62	-47.5	-49.6	16.8	0.00e+00	0	37	0	1222639616	67	4378
2026-01-19 06:46:30.04	321.78	7.55	-47.6	-49.7	16.8	0.00e+00	0	37	0	1224736768	67	4406
2026-01-19 06:46:31.05	321.70	7.49	-47.3	-49.4	17.1	0.00e+00	0	37	0	1225785344	66	4500
2026-01-19 06:46:32.05	321.62	7.42	-47.3	-49.3	17.2	0.00e+00	0	37	0	1227882496	66	4460
2026-01-19 06:46:33.06	321.53	7.35	-47.3	-49.3	17.2	0.00e+00	0	37	0	1229979648	66	4456
2026-01-19 06:46:34.07	321.45	7.28	-46.9	-48.8	17.6	0.00e+00	0	37	0	1232076800	65	4464
2026-01-19 06:46:35.08	321.37	7.21	-47.0	-48.9	17.4	0.00e+00	0	37	0	1233125376	65	4531
2026-01-19 06:46:36.09	321.28	7.15	-47.2	-49.2	17.2	0.00e+00	0	37	0	1235222528	65	4691
