passes_logs/2026/01/19/R3.2S_Murmansk/R3.2S_Murmansk__20260119_201020_TY-39_rec.log

#Pass ID: 20260119_201020_TY-39
#Satellite: TY-39
#Configuration: TY-39
#almurnet v.1.7.20251203
#Start time: 2026-01-19 20:10:19

#Version: 2.2.20231116
#Station: R3.2S_Murmansk
#Location: 33.079688 lon 68.888172 lat
#TLE: 1 51832U 22019J   26018.97522574  .00002668  00000-0  12818-3 0  9996
#TLE: 2 51832  97.3645  85.5686 0009675  40.5117 319.6836 15.19653248215130

#Time	Az	El	Level	Level2	SNR	BER	BlckErr	Temp	State	Recorded	gain1	gain2
2026-01-19 20:10:19.69	213.48	1.98	-53.0	-55.1	3.7	0.00e+00	0	41	0	0	77	18497
2026-01-19 20:10:20.70	213.58	2.04	-53.0	-55.2	3.7	0.00e+00	0	41	104	0	77	18666
2026-01-19 20:10:21.71	213.68	2.10	-53.0	-55.1	3.7	0.00e+00	0	41	104	0	77	18578
2026-01-19 20:10:22.72	213.78	2.16	-53.0	-55.1	3.7	0.00e+00	0	41	104	0	77	18515
2026-01-19 20:10:23.73	213.88	2.22	-53.0	-55.1	3.7	0.00e+00	0	41	104	0	77	18480
2026-01-19 20:10:24.74	213.98	2.28	-53.0	-55.1	3.7	0.00e+00	0	41	104	0	77	18473
2026-01-19 20:10:25.75	214.08	2.34	-53.0	-55.1	3.7	0.00e+00	0	41	104	0	77	18476
2026-01-19 20:10:26.75	214.18	2.40	-53.0	-55.1	3.7	0.00e+00	0	41	104	0	77	18527
2026-01-19 20:10:27.76	214.29	2.46	-53.0	-55.1	3.7	0.00e+00	0	41	104	0	77	18519
2026-01-19 20:10:28.77	214.39	2.53	-53.0	-55.1	3.7	0.00e+00	0	41	104	0	77	18480
2026-01-19 20:10:29.78	214.49	2.59	-53.0	-55.1	3.7	0.00e+00	0	41	104	0	77	18425
2026-01-19 20:10:30.79	214.60	2.65	-53.0	-55.1	3.7	0.00e+00	0	41	104	0	77	18499
2026-01-19 20:10:31.79	214.70	2.71	-53.0	-55.1	3.6	0.00e+00	0	41	104	0	77	18458
2026-01-19 20:10:32.80	214.81	2.77	-53.0	-55.1	3.7	0.00e+00	0	41	104	0	77	18445
2026-01-19 20:10:33.81	214.91	2.83	-53.0	-55.1	3.7	0.00e+00	0	42	104	0	77	18458
2026-01-19 20:10:34.82	215.02	2.89	-53.0	-55.1	3.7	0.00e+00	0	41	104	0	77	18509
2026-01-19 20:10:35.82	215.13	2.96	-53.0	-55.1	3.7	0.00e+00	0	41	104	0	77	18473
2026-01-19 20:10:36.83	215.23	3.02	-52.9	-55.1	3.7	0.00e+00	0	42	104	0	77	18453
2026-01-19 20:10:37.84	215.34	3.08	-52.9	-55.1	3.7	0.00e+00	0	42	104	0	77	18439
2026-01-19 20:10:38.85	215.45	3.14	-53.0	-55.1	3.7	0.00e+00	0	42	104	0	77	18455
2026-01-19 20:10:39.85	215.56	3.20	-52.9	-55.1	3.7	0.00e+00	0	41	104	0	77	18478
2026-01-19 20:10:40.86	215.67	3.27	-53.0	-55.1	3.7	0.00e+00	0	42	104	0	77	18431
2026-01-19 20:10:41.87	215.78	3.33	-52.9	-55.1	3.7	0.00e+00	0	42	104	0	77	18455
2026-01-19 20:10:42.87	215.89	3.39	-52.9	-55.1	3.7	0.00e+00	0	42	104	0	77	18470
2026-01-19 20:10:43.88	216.00	3.45	-52.9	-55.1	3.7	0.00e+00	0	42	104	0	77	18469
2026-01-19 20:10:44.89	216.11	3.52	-52.9	-55.1	3.7	0.00e+00	0	42	104	0	77	18468
2026-01-19 20:10:45.90	216.23	3.58	-52.9	-55.1	3.7	0.00e+00	0	42	104	0	77	18421
2026-01-19 20:10:46.91	216.34	3.64	-52.9	-55.1	3.7	0.00e+00	0	42	104	0	77	18412
2026-01-19 20:10:47.91	216.45	3.70	-52.9	-55.1	3.7	0.00e+00	0	42	104	0	77	18413
2026-01-19 20:10:48.92	216.57	3.77	-52.9	-55.1	3.7	0.00e+00	0	42	104	0	77	18403
2026-01-19 20:10:49.93	216.68	3.83	-52.9	-55.1	3.7	0.00e+00	0	42	104	0	77	18509
2026-01-19 20:10:50.94	216.80	3.89	-52.9	-55.1	3.7	0.00e+00	0	42	104	0	77	18430
2026-01-19 20:10:51.95	216.92	3.96	-52.9	-55.1	3.7	0.00e+00	0	42	104	0	77	18447
2026-01-19 20:10:52.96	217.03	4.02	-53.0	-55.1	3.7	0.00e+00	0	42	104	0	77	18447
2026-01-19 20:10:53.96	217.15	4.09	-52.9	-55.1	3.7	0.00e+00	0	42	104	0	77	18431
2026-01-19 20:10:54.97	217.27	4.15	-52.9	-55.1	3.7	0.00e+00	0	42	104	0	77	18445
2026-01-19 20:10:55.98	217.39	4.21	-52.9	-55.1	3.7	0.00e+00	0	42	104	0	77	18480
2026-01-19 20:10:56.98	217.51	4.28	-52.9	-55.1	3.7	0.00e+00	0	42	104	0	77	18432
2026-01-19 20:10:57.99	217.63	4.34	-52.9	-55.1	3.7	0.00e+00	0	42	104	0	77	18488
2026-01-19 20:10:59.00	217.75	4.41	-52.9	-55.1	3.7	0.00e+00	0	42	104	0	77	18440
2026-01-19 20:11:00.01	217.87	4.47	-52.9	-55.0	3.7	0.00e+00	0	42	104	0	77	18385
2026-01-19 20:11:01.01	217.99	4.54	-53.0	-55.1	3.7	0.00e+00	0	42	104	0	77	18447
2026-01-19 20:11:02.02	218.11	4.60	-52.9	-55.1	3.7	0.00e+00	0	42	104	0	77	18446
2026-01-19 20:11:03.03	218.24	4.67	-52.9	-55.1	3.7	0.00e+00	0	42	104	0	77	18413
2026-01-19 20:11:04.04	218.36	4.73	-52.9	-55.1	3.7	0.00e+00	0	42	104	0	77	18450
2026-01-19 20:11:05.05	218.49	4.80	-52.9	-55.1	3.7	0.00e+00	0	42	104	0	77	18415
2026-01-19 20:11:06.05	218.61	4.86	-52.9	-55.1	3.7	0.00e+00	0	42	104	0	77	18488
2026-01-19 20:11:07.06	218.74	4.93	-52.9	-55.1	3.7	0.00e+00	0	42	104	0	77	18486
2026-01-19 20:11:08.07	218.86	4.99	-52.9	-55.1	3.7	0.00e+00	0	43	104	0	77	18474
2026-01-19 20:11:09.08	218.99	5.06	-52.9	-55.1	3.7	0.00e+00	0	43	104	0	77	18428
2026-01-19 20:11:10.09	219.12	5.12	-53.0	-55.1	3.7	0.00e+00	0	42	104	0	77	18546
2026-01-19 20:11:11.09	219.25	5.19	-52.9	-55.1	3.7	0.00e+00	0	43	104	0	77	18398
2026-01-19 20:11:12.10	219.38	5.25	-53.1	-55.2	3.7	0.00e+00	0	43	104	0	77	18782
2026-01-19 20:11:13.11	219.51	5.32	-53.0	-55.2	3.7	0.00e+00	0	43	104	0	77	18616
2026-01-19 20:11:14.12	219.64	5.39	-52.9	-55.1	3.7	0.00e+00	0	42	104	0	77	18442
2026-01-19 20:11:15.13	219.77	5.45	-52.9	-55.0	3.7	0.00e+00	0	43	104	0	77	18357
2026-01-19 20:11:16.13	219.90	5.52	-53.1	-55.2	3.7	0.00e+00	0	43	104	0	77	18801
2026-01-19 20:11:17.14	220.04	5.59	-53.0	-55.2	3.7	0.00e+00	0	43	104	0	77	18649
2026-01-19 20:11:18.15	220.17	5.65	-53.0	-55.1	3.7	0.00e+00	0	43	104	0	77	18476
2026-01-19 20:11:19.16	220.31	5.72	-52.9	-55.0	3.7	0.00e+00	0	43	104	0	77	18379
2026-01-19 20:11:20.17	220.44	5.79	-53.1	-55.2	3.7	0.00e+00	0	43	104	0	77	18812
2026-01-19 20:11:21.17	220.58	5.85	-53.1	-55.2	3.7	0.00e+00	0	43	104	0	77	18633
2026-01-19 20:11:22.18	220.71	5.92	-53.0	-55.1	3.7	0.00e+00	0	43	104	0	77	18506
2026-01-19 20:11:23.19	220.85	5.99	-52.9	-55.1	3.7	0.00e+00	0	42	104	0	77	18414
2026-01-19 20:11:24.20	220.99	6.05	-53.1	-55.2	3.7	0.00e+00	0	43	104	0	77	18782
2026-01-19 20:11:25.20	221.13	6.12	-53.1	-55.2	3.7	0.00e+00	0	43	104	0	77	18751
2026-01-19 20:11:26.21	221.27	6.19	-53.0	-55.1	3.7	0.00e+00	0	43	104	0	77	18586
2026-01-19 20:11:27.22	221.41	6.26	-53.0	-55.1	3.7	0.00e+00	0	43	104	0	77	18531
2026-01-19 20:11:28.23	221.55	6.33	-53.1	-55.3	3.7	0.00e+00	0	43	104	0	77	18867
2026-01-19 20:11:29.23	221.69	6.39	-53.1	-55.2	3.7	0.00e+00	0	43	104	0	77	18728
2026-01-19 20:11:30.24	221.84	6.46	-53.0	-55.2	3.7	0.00e+00	0	43	104	0	77	18684
2026-01-19 20:11:31.25	221.98	6.53	-53.0	-55.1	3.7	0.00e+00	0	43	104	0	77	18583
2026-01-19 20:11:32.26	222.13	6.60	-53.1	-55.3	3.7	0.00e+00	0	43	104	0	77	18935
2026-01-19 20:11:33.27	222.27	6.67	-40.3	-40.2	12.4	6.10e-04	0	43	0	8388608	52	14000
2026-01-19 20:11:34.27	222.42	6.73	-44.0	-44.0	9.3	1.27e-02	0	44	0	83886080	59	14563
2026-01-19 20:11:35.28	222.57	6.80	-39.9	-39.8	12.8	4.69e-03	0	44	0	159383552	51	14225
2026-01-19 20:11:36.29	222.72	6.87	-40.2	-40.1	12.6	3.46e-05	0	44	0	234881024	51	14736
2026-01-19 20:11:37.30	222.86	6.94	-40.0	-40.0	12.7	3.46e-05	0	44	0	310378496	51	14483
2026-01-19 20:11:38.30	223.01	7.01	-39.8	-39.7	12.9	4.16e-05	0	44	0	385875968	51	14088
2026-01-19 20:11:39.31	223.16	7.08	-39.9	-39.8	12.8	3.46e-05	0	44	0	461373440	51	14244
2026-01-19 20:11:40.32	223.32	7.15	-40.2	-40.1	12.6	5.54e-05	0	44	0	536870912	51	14754
2026-01-19 20:11:41.32	223.47	7.22	-40.2	-40.2	12.6	4.85e-05	0	44	0	612368384	51	14827
2026-01-19 20:11:42.33	223.62	7.28	-39.9	-39.8	12.8	3.46e-05	0	44	0	687865856	51	14273
2026-01-19 20:11:43.34	223.78	7.35	-39.6	-39.5	13.0	2.08e-05	0	44	0	763363328	51	13789
2026-01-19 20:11:44.35	223.93	7.42	-39.7	-39.6	13.0	6.90e-06	0	44	0	838860800	51	13942
2026-01-19 20:11:45.36	224.09	7.49	-39.5	-39.4	13.1	1.38e-05	0	44	0	914358272	51	13617
2026-01-19 20:11:46.37	224.25	7.56	-40.0	-40.0	12.8	1.38e-05	0	44	0	989855744	51	14476
2026-01-19 20:11:47.37	224.40	7.63	-39.7	-39.7	13.0	2.08e-05	0	44	0	1065353216	51	14022
2026-01-19 20:11:48.38	224.56	7.70	-39.7	-39.6	13.0	2.08e-05	0	44	0	1140850688	51	13890
2026-01-19 20:11:49.39	224.72	7.77	-39.8	-39.7	13.0	1.38e-05	0	44	0	1216348160	51	14037
2026-01-19 20:11:50.40	224.88	7.84	-39.8	-39.7	13.0	6.24e-05	0	44	0	1300234240	51	14047
2026-01-19 20:11:51.41	225.04	7.91	-39.8	-39.7	12.9	2.08e-05	0	44	0	1367343104	51	14096
2026-01-19 20:11:52.41	225.21	7.98	-39.7	-39.6	13.0	0.00e+00	0	44	0	1442840576	51	13933
2026-01-19 20:11:53.42	225.37	8.05	-39.7	-39.7	13.0	6.90e-06	0	44	0	1518338048	51	13969
2026-01-19 20:11:54.43	225.53	8.12	-39.3	-39.2	13.3	1.38e-05	0	44	0	1593835520	50	14110
2026-01-19 20:11:55.44	225.70	8.20	-39.4	-39.3	13.2	0.00e+00	0	44	0	1669332992	50	14215
2026-01-19 20:11:56.45	225.87	8.27	-39.3	-39.2	13.3	0.00e+00	0	44	0	1744830464	50	14010
2026-01-19 20:11:57.45	226.03	8.34	-39.2	-39.2	13.3	1.38e-05	0	44	0	1820327936	50	13973
2026-01-19 20:11:58.46	226.20	8.41	-39.4	-39.3	13.2	0.00e+00	0	45	0	1895825408	50	14207
2026-01-19 20:11:59.47	226.37	8.48	-39.1	-39.0	13.4	0.00e+00	0	44	0	1971322880	50	13781
2026-01-19 20:12:00.48	226.54	8.55	-39.1	-39.1	13.4	0.00e+00	0	44	0	2046820352	50	13791
2026-01-19 20:12:01.48	226.71	8.62	-38.9	-38.8	13.5	6.90e-06	0	44	0	2122317824	49	14257
2026-01-19 20:12:02.49	226.89	8.69	-38.9	-38.8	13.5	0.00e+00	0	45	0	2197815296	49	14240
2026-01-19 20:12:03.50	227.06	8.76	-39.1	-39.0	13.4	6.90e-06	0	44	0	2281701376	49	14595
2026-01-19 20:12:04.50	227.23	8.83	-39.4	-39.4	13.2	0.00e+00	0	44	0	2357198848	49	15180
2026-01-19 20:12:05.51	227.41	8.90	-39.2	-39.1	13.3	1.38e-05	0	45	0	2432696320	49	14706
2026-01-19 20:12:06.52	227.58	8.98	-39.0	-38.9	13.5	0.00e+00	0	44	0	2499805184	49	14327
2026-01-19 20:12:07.52	227.76	9.05	-38.7	-38.6	13.7	6.90e-06	0	45	0	2575302656	49	13895
2026-01-19 20:12:08.52	227.94	9.12	-39.0	-38.9	13.5	0.00e+00	0	45	0	2650800128	49	14361
2026-01-19 20:12:09.53	228.12	9.19	-38.8	-38.7	13.6	1.38e-05	0	44	0	2726297600	49	14090
2026-01-19 20:12:10.54	228.30	9.26	-38.7	-38.7	13.7	0.00e+00	0	45	0	2801795072	49	13975
2026-01-19 20:12:11.55	228.48	9.33	-38.8	-38.7	13.7	0.00e+00	0	45	0	2877292544	49	14060
2026-01-19 20:12:12.55	228.66	9.41	-38.7	-38.6	13.7	0.00e+00	0	45	0	2952790016	49	13848
2026-01-19 20:12:13.56	228.85	9.48	-38.7	-38.6	13.7	0.00e+00	0	45	0	3028287488	49	13930
2026-01-19 20:12:14.57	229.03	9.55	-38.7	-38.6	13.8	0.00e+00	0	45	0	3103784960	49	13854
2026-01-19 20:12:15.58	229.22	9.62	-38.7	-38.6	13.7	0.00e+00	0	45	0	3179282432	49	13861
2026-01-19 20:12:16.59	229.41	9.69	-38.6	-38.6	13.8	0.00e+00	0	45	0	3254779904	49	13802
2026-01-19 20:12:17.59	229.59	9.77	-38.6	-38.5	13.8	6.90e-06	0	45	0	3338665984	49	13773
2026-01-19 20:12:18.60	229.78	9.84	-38.7	-38.6	13.7	0.00e+00	0	45	0	3414163456	49	13891
2026-01-19 20:12:19.61	229.97	9.91	-38.5	-38.5	13.8	0.00e+00	0	45	0	3489660928	49	13656
2026-01-19 20:12:20.62	230.16	9.98	-38.6	-38.6	13.8	0.00e+00	0	45	0	3565158400	48	14615
2026-01-19 20:12:21.63	230.36	10.05	-38.6	-38.5	13.8	0.00e+00	0	45	0	3632267264	48	14553
2026-01-19 20:12:22.63	230.55	10.13	-38.7	-38.6	13.7	0.00e+00	0	45	0	3707764736	48	14741
2026-01-19 20:12:23.64	230.75	10.20	-38.6	-38.6	13.8	0.00e+00	0	45	0	3783262208	48	14621
2026-01-19 20:12:24.65	230.94	10.27	-38.7	-38.6	13.7	1.38e-05	0	45	0	3858759680	48	14675
2026-01-19 20:12:25.65	231.14	10.34	-38.5	-38.4	13.8	0.00e+00	0	45	0	3934257152	48	14416
2026-01-19 20:12:26.66	231.34	10.42	-38.3	-38.2	14.0	6.90e-06	0	45	0	4009754624	48	14030
2026-01-19 20:12:27.67	231.54	10.49	-38.4	-38.3	13.9	6.90e-06	0	45	0	4085252096	48	14186
2026-01-19 20:12:28.68	231.74	10.56	-38.3	-38.2	14.0	0.00e+00	0	45	0	4160749568	48	14082
2026-01-19 20:12:29.69	231.94	10.63	-38.3	-38.2	14.0	0.00e+00	0	45	0	4236247040	48	14018
2026-01-19 20:12:30.69	232.14	10.71	-38.4	-38.3	13.9	6.90e-06	0	45	0	4320133120	48	14187
2026-01-19 20:12:31.70	232.35	10.78	-38.1	-38.0	14.1	0.00e+00	0	45	0	4395630592	48	13705
2026-01-19 20:12:32.71	232.55	10.85	-38.1	-38.0	14.1	0.00e+00	0	45	0	4471128064	48	13755
2026-01-19 20:12:33.72	232.76	10.92	-38.3	-38.2	14.0	0.00e+00	0	45	0	4546625536	48	14016
2026-01-19 20:12:34.72	232.97	10.99	-38.0	-37.9	14.2	0.00e+00	0	45	0	4622123008	48	13529
2026-01-19 20:12:35.73	233.18	11.07	-37.3	-37.2	13.6	0.00e+00	0	45	0	4697620480	46	14033
2026-01-19 20:12:36.74	233.39	11.14	-37.3	-37.2	13.5	0.00e+00	0	45	0	4764729344	46	14092
2026-01-19 20:12:37.74	233.60	11.21	-37.3	-37.2	13.6	0.00e+00	0	45	0	4840226816	46	14059
2026-01-19 20:12:38.75	233.81	11.28	-37.3	-37.3	13.5	0.00e+00	0	45	0	4915724288	46	14118
2026-01-19 20:12:39.75	234.02	11.36	-37.3	-37.2	13.6	0.00e+00	0	45	0	4991221760	46	14071
2026-01-19 20:12:40.76	234.24	11.43	-37.5	-37.5	13.4	0.00e+00	0	45	0	5066719232	46	14474
2026-01-19 20:12:41.77	234.46	11.50	-37.4	-37.4	13.5	0.00e+00	0	45	0	5142216704	46	14306
2026-01-19 20:12:42.78	234.67	11.57	-37.3	-37.2	13.6	0.00e+00	0	45	0	5217714176	46	14004
2026-01-19 20:12:43.79	234.89	11.65	-37.3	-37.2	13.6	0.00e+00	0	45	0	5293211648	46	14053
2026-01-19 20:12:44.79	235.11	11.72	-37.2	-37.1	13.6	0.00e+00	0	45	0	5377097728	46	13924
2026-01-19 20:12:45.80	235.33	11.79	-37.2	-37.1	13.6	0.00e+00	0	45	0	5452595200	46	13926
2026-01-19 20:12:46.81	235.56	11.86	-37.1	-37.0	13.7	0.00e+00	0	45	0	5528092672	46	13696
2026-01-19 20:12:47.81	235.78	11.93	-36.9	-36.8	13.8	0.00e+00	0	45	0	5603590144	45	14191
2026-01-19 20:12:48.82	236.01	12.01	-37.1	-37.0	13.7	0.00e+00	0	45	0	5679087616	45	14568
2026-01-19 20:12:49.83	236.23	12.08	-36.9	-36.9	13.8	0.00e+00	0	45	0	5754585088	45	14299
2026-01-19 20:12:50.84	236.46	12.15	-37.0	-36.9	13.8	0.00e+00	0	45	0	5830082560	45	14314
2026-01-19 20:12:51.85	236.69	12.22	-36.8	-36.7	13.9	0.00e+00	0	45	0	5905580032	45	14068
2026-01-19 20:12:52.85	236.92	12.29	-37.0	-36.9	13.8	0.00e+00	0	45	0	5972688896	45	14363
2026-01-19 20:12:53.86	237.15	12.36	-36.9	-36.8	13.8	0.00e+00	0	45	0	6048186368	45	14206
2026-01-19 20:12:54.87	237.39	12.44	-36.9	-36.8	13.8	0.00e+00	0	45	0	6123683840	45	14153
2026-01-19 20:12:55.87	237.62	12.51	-36.8	-36.8	13.9	0.00e+00	0	45	0	6199181312	45	14137
2026-01-19 20:12:56.88	237.86	12.58	-36.9	-36.9	13.8	0.00e+00	0	45	0	6274678784	45	14275
2026-01-19 20:12:57.89	238.10	12.65	-36.7	-36.6	13.9	6.90e-06	0	45	0	6350176256	45	13883
2026-01-19 20:12:58.90	238.34	12.72	-36.8	-36.8	13.9	0.00e+00	0	45	0	6434062336	45	14116
2026-01-19 20:12:59.91	238.58	12.79	-36.7	-36.6	14.0	6.90e-06	0	45	0	6509559808	45	13930
2026-01-19 20:13:00.92	238.82	12.86	-36.7	-36.6	14.0	0.00e+00	0	45	0	6585057280	45	13893
2026-01-19 20:13:01.93	239.06	12.93	-36.7	-36.6	14.0	0.00e+00	0	45	0	6660554752	45	13900
2026-01-19 20:13:02.93	239.30	13.00	-36.7	-36.6	14.0	0.00e+00	0	45	0	6736052224	45	13929
2026-01-19 20:13:03.94	239.55	13.07	-36.9	-36.9	13.8	0.00e+00	0	45	0	6811549696	45	14286
2026-01-19 20:13:04.95	239.80	13.14	-36.6	-36.5	14.0	0.00e+00	0	45	0	6887047168	45	13745
2026-01-19 20:13:05.95	240.04	13.21	-36.6	-36.5	14.0	0.00e+00	0	46	0	6962544640	45	13772
2026-01-19 20:13:06.96	240.29	13.28	-36.6	-36.6	14.0	0.00e+00	0	45	0	7038042112	45	13806
2026-01-19 20:13:07.97	240.55	13.35	-36.5	-36.4	14.1	0.00e+00	0	45	0	7105150976	44	14313
2026-01-19 20:13:08.98	240.80	13.42	-36.4	-36.4	14.1	6.90e-06	0	46	0	7180648448	44	14313
2026-01-19 20:13:09.99	241.05	13.49	-36.6	-36.5	14.0	0.00e+00	0	45	0	7256145920	44	14492
2026-01-19 20:13:10.99	241.31	13.56	-36.4	-36.3	14.1	0.00e+00	0	45	0	7340032000	44	14197
2026-01-19 20:13:12.00	241.56	13.63	-36.5	-36.4	14.1	0.00e+00	0	45	0	7415529472	44	14369
2026-01-19 20:13:13.01	241.82	13.70	-36.5	-36.5	14.1	0.00e+00	0	45	0	7491026944	44	14467
2026-01-19 20:13:14.02	242.08	13.77	-36.4	-36.4	14.1	0.00e+00	0	45	0	7566524416	44	14301
2026-01-19 20:13:15.02	242.34	13.83	-36.4	-36.3	14.2	0.00e+00	0	46	0	7642021888	44	14158
2026-01-19 20:13:16.03	242.60	13.90	-36.4	-36.3	14.2	0.00e+00	0	46	0	7717519360	44	14154
2026-01-19 20:13:17.04	242.87	13.97	-36.3	-36.2	14.2	0.00e+00	0	45	0	7793016832	44	14100
2026-01-19 20:13:18.05	243.13	14.04	-36.4	-36.3	14.2	0.00e+00	0	45	0	7868514304	44	14220
2026-01-19 20:13:19.06	243.40	14.10	-36.4	-36.4	14.1	0.00e+00	0	45	0	7944011776	44	14287
2026-01-19 20:13:20.07	243.67	14.17	-36.3	-36.2	14.2	0.00e+00	0	46	0	8019509248	44	14058
2026-01-19 20:13:21.07	243.94	14.24	-36.2	-36.1	14.3	0.00e+00	0	45	0	8095006720	44	13882
2026-01-19 20:13:22.08	244.21	14.30	-36.2	-36.1	14.3	0.00e+00	0	46	0	8170504192	44	13937
2026-01-19 20:13:23.09	244.48	14.37	-36.2	-36.1	14.3	0.00e+00	0	45	0	8237613056	44	13903
2026-01-19 20:13:24.10	244.75	14.44	-36.2	-36.2	14.3	0.00e+00	0	46	0	8321499136	44	13976
2026-01-19 20:13:25.11	245.03	14.50	-36.2	-36.1	14.3	0.00e+00	0	46	0	8396996608	44	13843
2026-01-19 20:13:26.11	245.30	14.57	-36.2	-36.1	14.3	0.00e+00	0	46	0	8472494080	44	13926
2026-01-19 20:13:27.12	245.58	14.63	-36.1	-36.0	14.3	0.00e+00	0	46	0	8547991552	44	13789
2026-01-19 20:13:28.13	245.86	14.70	-36.1	-36.0	14.3	0.00e+00	0	46	0	8623489024	44	13788
2026-01-19 20:13:29.14	246.14	14.76	-36.1	-36.0	14.3	0.00e+00	0	45	0	8698986496	44	13779
2026-01-19 20:13:30.15	246.42	14.82	-36.1	-36.0	14.4	0.00e+00	0	46	0	8774483968	44	13693
2026-01-19 20:13:31.15	246.71	14.89	-36.1	-36.0	14.3	0.00e+00	0	45	0	8849981440	44	13684
2026-01-19 20:13:32.16	246.99	14.95	-36.2	-36.1	14.3	0.00e+00	0	46	0	8925478912	44	13812
2026-01-19 20:13:33.17	247.28	15.01	-36.1	-36.1	14.4	0.00e+00	0	46	0	9000976384	43	14632
2026-01-19 20:13:34.18	247.56	15.08	-36.1	-36.0	14.4	0.00e+00	0	46	0	9076473856	43	14590
2026-01-19 20:13:35.19	247.85	15.14	-36.1	-36.0	14.4	0.00e+00	0	46	0	9160359936	43	14473
2026-01-19 20:13:36.20	248.14	15.20	-36.1	-36.0	14.4	0.00e+00	0	46	0	9227468800	43	14485
2026-01-19 20:13:37.21	248.44	15.26	-36.0	-36.0	14.4	0.00e+00	0	46	0	9302966272	43	14443
2026-01-19 20:13:38.22	248.73	15.32	-36.2	-36.1	14.3	0.00e+00	0	46	0	9378463744	43	14694
2026-01-19 20:13:39.22	249.02	15.38	-36.0	-35.9	14.4	0.00e+00	0	46	0	9453961216	43	14437
2026-01-19 20:13:40.23	249.32	15.44	-35.9	-35.8	14.5	0.00e+00	0	46	0	9529458688	43	14245
2026-01-19 20:13:41.24	249.62	15.50	-36.0	-35.9	14.5	0.00e+00	0	46	0	9604956160	43	14298
2026-01-19 20:13:42.25	249.92	15.56	-36.0	-35.9	14.5	0.00e+00	0	46	0	9680453632	43	14297
2026-01-19 20:13:43.26	250.22	15.62	-36.0	-36.0	14.4	0.00e+00	0	46	0	9755951104	43	14458
2026-01-19 20:13:44.27	250.52	15.68	-36.1	-36.0	14.4	0.00e+00	0	46	0	9831448576	43	14497
2026-01-19 20:13:45.28	250.82	15.73	-35.9	-35.9	14.5	0.00e+00	0	46	0	9906946048	43	14275
2026-01-19 20:13:46.28	251.12	15.79	-35.9	-35.8	14.5	0.00e+00	0	46	0	9982443520	43	14216
2026-01-19 20:13:47.29	251.43	15.85	-36.0	-35.9	14.5	0.00e+00	0	46	0	10066329600	43	14407
2026-01-19 20:13:48.30	251.73	15.90	-36.1	-36.0	14.4	0.00e+00	0	46	0	10141827072	43	14505
2026-01-19 20:13:49.31	252.04	15.96	-35.9	-35.8	14.5	0.00e+00	0	46	0	10217324544	43	14151
2026-01-19 20:13:50.32	252.35	16.01	-36.0	-35.9	14.5	0.00e+00	0	46	0	10292822016	43	14412
2026-01-19 20:13:51.33	252.66	16.07	-35.9	-35.8	14.5	0.00e+00	0	46	0	10359930880	43	14222
2026-01-19 20:13:52.34	252.97	16.12	-35.9	-35.8	14.6	0.00e+00	0	46	0	10435428352	43	14173
2026-01-19 20:13:53.35	253.29	16.18	-35.8	-35.7	14.6	0.00e+00	0	46	0	10510925824	43	14099
2026-01-19 20:13:54.36	253.60	16.23	-36.0	-35.8	14.5	0.00e+00	0	46	0	10586423296	43	14273
2026-01-19 20:13:55.37	253.92	16.28	-35.8	-35.8	14.6	0.00e+00	0	46	0	10661920768	43	14113
2026-01-19 20:13:56.37	254.23	16.33	-35.9	-35.8	14.6	0.00e+00	0	46	0	10737418240	43	14204
2026-01-19 20:13:57.38	254.55	16.38	-35.8	-35.7	14.6	0.00e+00	0	46	0	10812915712	43	14102
2026-01-19 20:13:58.39	254.87	16.43	-35.8	-35.7	14.6	0.00e+00	0	46	0	10888413184	43	13963
2026-01-19 20:13:59.40	255.19	16.48	-35.8	-35.8	14.6	0.00e+00	0	46	0	10972299264	43	14117
2026-01-19 20:14:00.40	255.51	16.53	-35.8	-35.7	14.6	0.00e+00	0	46	0	11047796736	43	14010
2026-01-19 20:14:01.41	255.83	16.58	-35.8	-35.7	14.6	0.00e+00	0	45	0	11123294208	43	13999
2026-01-19 20:14:02.42	256.16	16.63	-35.9	-35.8	14.6	0.00e+00	0	46	0	11198791680	43	14118
2026-01-19 20:14:03.43	256.48	16.68	-35.7	-35.6	14.7	0.00e+00	0	46	0	11274289152	43	13818
2026-01-19 20:14:04.43	256.81	16.72	-35.8	-35.7	14.6	0.00e+00	0	46	0	11349786624	43	14009
2026-01-19 20:14:05.44	257.13	16.77	-35.7	-35.7	14.6	0.00e+00	0	46	0	11425284096	43	13957
2026-01-19 20:14:06.45	257.46	16.81	-35.7	-35.6	14.6	0.00e+00	0	46	0	11492392960	43	13819
2026-01-19 20:14:07.45	257.79	16.86	-35.7	-35.6	14.6	0.00e+00	0	46	0	11567890432	43	13950
2026-01-19 20:14:08.46	258.12	16.90	-35.6	-35.5	14.7	0.00e+00	0	46	0	11643387904	43	13739
2026-01-19 20:14:09.46	258.45	16.94	-35.7	-35.6	14.6	0.00e+00	0	46	0	11718885376	43	13888
2026-01-19 20:14:10.47	258.78	16.99	-35.5	-35.4	14.7	0.00e+00	0	46	0	11794382848	42	14287
2026-01-19 20:14:11.48	259.12	17.03	-35.5	-35.4	14.8	0.00e+00	0	46	0	11869880320	42	14362
2026-01-19 20:14:12.49	259.45	17.07	-35.6	-35.5	14.7	0.00e+00	0	46	0	11945377792	42	14598
2026-01-19 20:14:13.49	259.79	17.11	-35.8	-35.7	14.6	0.00e+00	0	46	0	12029263872	42	14836
2026-01-19 20:14:14.50	260.12	17.15	-35.7	-35.6	14.6	0.00e+00	0	46	0	12104761344	42	14662
2026-01-19 20:14:15.51	260.46	17.18	-35.9	-35.8	14.5	0.00e+00	0	46	0	12180258816	42	15004
2026-01-19 20:14:16.52	260.80	17.22	-35.8	-35.7	14.6	0.00e+00	0	46	0	12255756288	42	14795
2026-01-19 20:14:17.53	261.14	17.26	-35.7	-35.6	14.6	0.00e+00	0	46	0	12331253760	42	14758
2026-01-19 20:14:18.53	261.48	17.30	-35.6	-35.5	14.7	0.00e+00	0	46	0	12406751232	42	14522
2026-01-19 20:14:19.54	261.82	17.33	-35.6	-35.5	14.7	0.00e+00	0	46	0	12482248704	42	14566
2026-01-19 20:14:20.55	262.17	17.36	-35.6	-35.5	14.7	0.00e+00	0	46	0	12557746176	42	14581
2026-01-19 20:14:21.56	262.51	17.40	-35.6	-35.5	14.7	0.00e+00	0	46	0	12624855040	42	14481
2026-01-19 20:14:22.57	262.85	17.43	-35.6	-35.6	14.7	0.00e+00	0	46	0	12700352512	42	14610
2026-01-19 20:14:23.57	263.20	17.46	-35.7	-35.6	14.6	0.00e+00	0	46	0	12775849984	42	14713
2026-01-19 20:14:24.58	263.54	17.49	-35.7	-35.6	14.7	0.00e+00	0	46	0	12851347456	42	14711
2026-01-19 20:14:25.59	263.89	17.52	-35.5	-35.5	14.7	0.00e+00	0	46	0	12926844928	42	14441
2026-01-19 20:14:26.60	264.24	17.55	-35.6	-35.5	14.7	0.00e+00	0	46	0	13010731008	42	14592
2026-01-19 20:14:27.60	264.58	17.58	-35.5	-35.4	14.7	0.00e+00	0	46	0	13086228480	42	14330
2026-01-19 20:14:28.61	264.93	17.61	-35.4	-35.3	14.8	0.00e+00	0	46	0	13161725952	42	14260
2026-01-19 20:14:29.62	265.28	17.64	-35.4	-35.4	14.8	0.00e+00	0	46	0	13237223424	42	14277
2026-01-19 20:14:30.63	265.63	17.66	-35.6	-35.5	14.7	0.00e+00	0	46	0	13312720896	42	14485
2026-01-19 20:14:31.63	265.98	17.69	-35.4	-35.3	14.8	0.00e+00	0	46	0	13388218368	42	14208
2026-01-19 20:14:32.64	266.33	17.71	-35.5	-35.4	14.7	0.00e+00	0	46	0	13463715840	42	14289
2026-01-19 20:14:33.65	266.69	17.73	-35.3	-35.2	14.8	0.00e+00	0	46	0	13539213312	42	14053
2026-01-19 20:14:34.66	267.04	17.76	-35.3	-35.2	14.8	0.00e+00	0	46	0	13614710784	42	14071
2026-01-19 20:14:35.66	267.39	17.78	-35.4	-35.3	14.8	0.00e+00	0	46	0	13690208256	42	14124
2026-01-19 20:14:36.67	267.74	17.80	-35.4	-35.3	14.8	0.00e+00	0	46	0	13757317120	42	14225
2026-01-19 20:14:37.68	268.10	17.82	-35.3	-35.2	14.9	0.00e+00	0	46	0	13832814592	42	14044
2026-01-19 20:14:38.69	268.45	17.84	-35.3	-35.2	14.8	0.00e+00	0	46	0	13908312064	42	14068
2026-01-19 20:14:39.69	268.81	17.85	-35.4	-35.3	14.8	0.00e+00	0	46	0	13992198144	42	14245
2026-01-19 20:14:40.70	269.16	17.87	-35.5	-35.4	14.8	0.00e+00	0	46	0	14067695616	42	14351
2026-01-19 20:14:41.71	269.52	17.89	-35.6	-35.5	14.7	0.00e+00	0	46	0	14143193088	42	14577
2026-01-19 20:14:42.72	269.88	17.90	-35.3	-35.2	14.8	0.00e+00	0	46	0	14218690560	42	14109
2026-01-19 20:14:43.73	270.23	17.92	-35.4	-35.3	14.8	0.00e+00	0	46	0	14294188032	42	14168
2026-01-19 20:14:44.73	270.59	17.93	-35.4	-35.2	14.8	0.00e+00	0	46	0	14369685504	42	14106
2026-01-19 20:14:45.74	270.95	17.94	-35.3	-35.2	14.9	0.00e+00	0	46	0	14445182976	42	14003
2026-01-19 20:14:46.75	271.31	17.95	-35.3	-35.2	14.8	0.00e+00	0	46	0	14520680448	42	14083
2026-01-19 20:14:47.76	271.66	17.96	-35.3	-35.2	14.9	0.00e+00	0	46	0	14596177920	42	13997
2026-01-19 20:14:48.76	272.02	17.97	-35.4	-35.3	14.8	0.00e+00	0	46	0	14671675392	42	14133
2026-01-19 20:14:49.77	272.38	17.98	-35.3	-35.2	14.9	0.00e+00	0	46	0	14747172864	42	14052
2026-01-19 20:14:50.78	272.74	17.99	-35.4	-35.3	14.8	0.00e+00	0	46	0	14822670336	42	14172
2026-01-19 20:14:51.79	273.10	17.99	-35.3	-35.2	14.9	0.00e+00	0	46	0	14898167808	42	14054
2026-01-19 20:14:52.80	273.46	18.00	-35.4	-35.3	14.8	0.00e+00	0	46	0	14973665280	42	14262
2026-01-19 20:14:53.80	273.81	18.00	-35.4	-35.3	14.8	0.00e+00	0	46	0	15049162752	42	14261
2026-01-19 20:14:54.81	274.17	18.00	-35.4	-35.3	14.8	0.00e+00	0	46	0	15124660224	42	14209
2026-01-19 20:14:55.82	274.53	18.01	-35.4	-35.3	14.8	0.00e+00	0	46	0	15200157696	42	14135
2026-01-19 20:14:56.82	274.89	18.01	-35.4	-35.3	14.8	0.00e+00	0	46	0	15275655168	42	14120
2026-01-19 20:14:57.83	275.25	18.01	-35.4	-35.3	14.8	0.00e+00	0	46	0	15351152640	42	14177
2026-01-19 20:14:58.84	275.61	18.01	-35.4	-35.3	14.8	0.00e+00	0	46	0	15426650112	42	14147
2026-01-19 20:14:59.85	275.97	18.01	-35.4	-35.3	14.8	0.00e+00	0	46	0	15502147584	42	14260
2026-01-19 20:15:00.85	276.33	18.00	-35.5	-35.4	14.8	0.00e+00	0	46	0	15577645056	42	14297
2026-01-19 20:15:01.86	276.69	18.00	-35.3	-35.2	14.9	0.00e+00	0	46	0	15653142528	42	14058
2026-01-19 20:15:02.87	277.04	17.99	-35.4	-35.3	14.8	0.00e+00	0	46	0	15728640000	42	14251
2026-01-19 20:15:03.88	277.40	17.99	-35.5	-35.4	14.8	0.00e+00	0	46	0	15804137472	42	14287
2026-01-19 20:15:04.89	277.76	17.98	-35.4	-35.3	14.8	0.00e+00	0	46	0	15879634944	42	14248
2026-01-19 20:15:05.89	278.12	17.97	-35.4	-35.3	14.8	0.00e+00	0	46	0	15955132416	42	14160
2026-01-19 20:15:06.90	278.48	17.97	-35.4	-35.3	14.8	0.00e+00	0	46	0	16030629888	42	14265
2026-01-19 20:15:07.91	278.84	17.96	-35.4	-35.3	14.8	0.00e+00	0	46	0	16106127360	42	14235
2026-01-19 20:15:08.92	279.19	17.95	-35.4	-35.3	14.8	0.00e+00	0	46	0	16181624832	42	14186
2026-01-19 20:15:09.93	279.55	17.94	-35.4	-35.3	14.9	0.00e+00	0	46	0	16257122304	42	14195
2026-01-19 20:15:10.94	279.91	17.92	-35.5	-35.4	14.8	0.00e+00	0	46	0	16332619776	42	14408
2026-01-19 20:15:11.94	280.26	17.91	-35.5	-35.4	14.8	0.00e+00	0	46	0	16408117248	42	14281
2026-01-19 20:15:12.95	280.62	17.90	-35.5	-35.4	14.8	0.00e+00	0	46	0	16483614720	42	14404
2026-01-19 20:15:13.96	280.98	17.88	-35.6	-35.5	14.8	0.00e+00	0	46	0	16559112192	42	14484
2026-01-19 20:15:14.97	281.33	17.86	-35.6	-35.5	14.8	0.00e+00	0	46	0	16634609664	42	14498
2026-01-19 20:15:15.97	281.69	17.85	-35.5	-35.4	14.8	0.00e+00	0	46	0	16710107136	42	14419
2026-01-19 20:15:16.98	282.04	17.83	-35.4	-35.3	14.8	0.00e+00	0	46	0	16785604608	42	14274
2026-01-19 20:15:17.98	282.39	17.81	-35.5	-35.4	14.8	0.00e+00	0	46	0	16861102080	42	14404
2026-01-19 20:15:18.99	282.75	17.79	-35.5	-35.4	14.8	0.00e+00	0	46	0	16936599552	42	14323
2026-01-19 20:15:20.00	283.10	17.77	-35.6	-35.5	14.8	0.00e+00	0	46	0	17020485632	42	14458
2026-01-19 20:15:21.01	283.45	17.75	-35.6	-35.5	14.8	0.00e+00	0	46	0	17087594496	42	14479
2026-01-19 20:15:22.01	283.80	17.73	-35.6	-35.5	14.8	0.00e+00	0	46	0	17163091968	42	14513
2026-01-19 20:15:23.02	284.15	17.70	-35.6	-35.6	14.7	0.00e+00	0	46	0	17238589440	42	14611
2026-01-19 20:15:24.03	284.50	17.68	-35.7	-35.7	14.7	0.00e+00	0	46	0	17314086912	42	14777
2026-01-19 20:15:25.04	284.85	17.65	-35.7	-35.6	14.7	0.00e+00	0	46	0	17389584384	42	14760
2026-01-19 20:15:26.05	285.20	17.63	-35.7	-35.6	14.7	0.00e+00	0	46	0	17465081856	42	14721
2026-01-19 20:15:27.05	285.55	17.60	-35.6	-35.5	14.7	0.00e+00	0	46	0	17540579328	42	14573
2026-01-19 20:15:28.06	285.90	17.57	-35.6	-35.5	14.8	0.00e+00	0	46	0	17616076800	42	14553
2026-01-19 20:15:29.07	286.24	17.54	-35.6	-35.5	14.7	0.00e+00	0	46	0	17691574272	42	14588
2026-01-19 20:15:30.07	286.59	17.51	-35.6	-35.5	14.8	0.00e+00	0	46	0	17767071744	42	14538
2026-01-19 20:15:31.08	286.93	17.48	-35.7	-35.6	14.7	0.00e+00	0	46	0	17842569216	42	14659
2026-01-19 20:15:32.09	287.28	17.45	-35.8	-35.7	14.7	0.00e+00	0	46	0	17918066688	42	14807
2026-01-19 20:15:33.10	287.62	17.42	-35.7	-35.6	14.8	0.00e+00	0	46	0	18001952768	42	14696
2026-01-19 20:15:34.11	287.97	17.39	-35.7	-35.6	14.7	0.00e+00	0	46	0	18077450240	42	14732
2026-01-19 20:15:35.11	288.30	17.35	-35.7	-35.6	14.7	0.00e+00	0	46	0	18152947712	42	14660
2026-01-19 20:15:36.12	288.65	17.32	-35.6	-35.5	14.8	0.00e+00	0	46	0	18220056576	42	14579
2026-01-19 20:15:37.13	288.99	17.28	-35.7	-35.6	14.8	0.00e+00	0	46	0	18295554048	42	14680
2026-01-19 20:15:38.14	289.33	17.25	-35.7	-35.6	14.7	0.00e+00	0	46	0	18371051520	42	14657
2026-01-19 20:15:39.15	289.66	17.21	-35.8	-35.7	14.7	0.00e+00	0	46	0	18446548992	42	14799
2026-01-19 20:15:40.15	290.00	17.17	-35.8	-35.7	14.7	0.00e+00	0	46	0	18522046464	42	14882
2026-01-19 20:15:41.16	290.34	17.13	-35.8	-35.7	14.7	0.00e+00	0	46	0	18597543936	42	14791
2026-01-19 20:15:42.17	290.67	17.09	-35.8	-35.7	14.7	0.00e+00	0	46	0	18673041408	42	14860
2026-01-19 20:15:43.17	291.00	17.05	-35.8	-35.7	14.7	0.00e+00	0	46	0	18748538880	42	14893
2026-01-19 20:15:44.18	291.34	17.01	-35.8	-35.8	14.6	0.00e+00	0	46	0	18824036352	42	14981
2026-01-19 20:15:45.19	291.67	16.97	-35.9	-35.8	14.6	0.00e+00	0	46	0	18899533824	42	15116
2026-01-19 20:15:46.20	292.00	16.93	-35.9	-35.9	14.6	0.00e+00	0	46	0	18983419904	42	15148
2026-01-19 20:15:47.20	292.33	16.89	-35.9	-35.8	14.6	0.00e+00	0	46	0	19058917376	42	15023
2026-01-19 20:15:48.21	292.66	16.84	-35.9	-35.8	14.6	0.00e+00	0	46	0	19134414848	42	14967
2026-01-19 20:15:49.22	292.99	16.80	-35.9	-35.8	14.6	0.00e+00	0	46	0	19209912320	42	14997
2026-01-19 20:15:50.23	293.31	16.75	-35.9	-35.9	14.6	0.00e+00	0	46	0	19285409792	42	15132
2026-01-19 20:15:51.24	293.64	16.71	-36.0	-36.0	14.5	0.00e+00	0	47	0	19352518656	42	15298
2026-01-19 20:15:52.25	293.96	16.66	-36.0	-35.9	14.6	0.00e+00	0	46	0	19428016128	42	15269
2026-01-19 20:15:53.25	294.28	16.61	-36.0	-35.9	14.6	0.00e+00	0	46	0	19503513600	42	15281
2026-01-19 20:15:54.26	294.61	16.57	-36.1	-36.0	14.5	0.00e+00	0	46	0	19579011072	42	15328
2026-01-19 20:15:55.27	294.93	16.52	-36.1	-36.0	14.5	0.00e+00	0	46	0	19654508544	42	15430
2026-01-19 20:15:56.27	295.24	16.47	-36.0	-35.9	14.6	0.00e+00	0	46	0	19730006016	42	15151
2026-01-19 20:15:57.28	295.56	16.42	-36.0	-35.9	14.6	0.00e+00	0	46	0	19805503488	42	15189
2026-01-19 20:15:58.29	295.88	16.37	-36.1	-36.0	14.5	0.00e+00	0	46	0	19881000960	42	15362
2026-01-19 20:15:59.30	296.20	16.32	-36.1	-36.1	14.5	0.00e+00	0	46	0	19964887040	43	14625
2026-01-19 20:16:00.30	296.51	16.27	-36.1	-36.0	14.5	0.00e+00	0	46	0	20040384512	43	14602
2026-01-19 20:16:01.31	296.82	16.21	-36.3	-36.2	14.4	0.00e+00	0	46	0	20115881984	43	14827
2026-01-19 20:16:02.31	297.13	16.16	-36.2	-36.1	14.5	0.00e+00	0	46	0	20191379456	43	14710
2026-01-19 20:16:03.32	297.44	16.11	-36.4	-36.3	14.4	0.00e+00	0	46	0	20266876928	43	14994
2026-01-19 20:16:04.33	297.75	16.05	-36.3	-36.2	14.4	0.00e+00	0	46	0	20342374400	43	14808
2026-01-19 20:16:05.33	298.06	16.00	-36.2	-36.1	14.5	0.00e+00	0	46	0	20417871872	43	14660
2026-01-19 20:16:06.34	298.37	15.95	-36.2	-36.2	14.5	0.00e+00	0	46	0	20484980736	43	14788
2026-01-19 20:16:07.35	298.67	15.89	-36.2	-36.1	14.5	0.00e+00	0	46	0	20560478208	43	14743
2026-01-19 20:16:08.36	298.98	15.84	-36.4	-36.3	14.4	0.00e+00	0	46	0	20635975680	43	15076
2026-01-19 20:16:09.37	299.28	15.78	-36.3	-36.2	14.5	0.00e+00	0	46	0	20711473152	43	14833
2026-01-19 20:16:10.38	299.58	15.72	-36.4	-36.3	14.4	0.00e+00	0	46	0	20786970624	43	15105
2026-01-19 20:16:11.38	299.88	15.66	-36.2	-36.1	14.4	0.00e+00	0	46	0	20862468096	43	14772
2026-01-19 20:16:12.39	300.18	15.61	-36.4	-36.3	14.4	0.00e+00	0	47	0	20946354176	43	14981
2026-01-19 20:16:13.40	300.48	15.55	-36.3	-36.2	14.4	0.00e+00	0	46	0	21021851648	43	14880
2026-01-19 20:16:14.41	300.77	15.49	-36.5	-36.4	14.3	0.00e+00	0	47	0	21097349120	43	15292
2026-01-19 20:16:15.41	301.07	15.43	-36.5	-36.4	14.3	0.00e+00	0	47	0	21172846592	43	15209
2026-01-19 20:16:16.42	301.36	15.37	-36.4	-36.3	14.4	0.00e+00	0	46	0	21248344064	43	15095
2026-01-19 20:16:17.43	301.65	15.31	-36.3	-36.3	14.4	0.00e+00	0	46	0	21323841536	43	14953
2026-01-19 20:16:18.44	301.94	15.25	-36.4	-36.4	14.3	0.00e+00	0	46	0	21399339008	43	15147
2026-01-19 20:16:19.44	302.23	15.19	-36.6	-36.5	14.3	0.00e+00	0	46	0	21474836480	43	15352
2026-01-19 20:16:20.45	302.52	15.13	-53.8	-56.1	3.7	0.00e+00	1	46	0	21541945344	57	65525
2026-01-19 20:16:21.46	302.81	15.07	-54.0	-56.3	3.7	0.00e+00	0	46	104	21541945344	78	19962
2026-01-19 20:16:22.47	303.09	15.01	-54.0	-56.2	3.7	0.00e+00	0	46	104	21541945344	78	19783
2026-01-19 20:16:23.47	303.37	14.94	-54.0	-56.2	3.7	0.00e+00	0	46	104	21541945344	78	19777
2026-01-19 20:16:24.48	303.66	14.88	-54.0	-56.2	3.7	0.00e+00	0	46	104	21541945344	78	19789
2026-01-19 20:16:25.49	303.94	14.82	-54.0	-56.1	3.7	0.00e+00	0	45	104	21541945344	78	19694
2026-01-19 20:16:26.50	304.22	14.75	-54.0	-56.2	3.7	0.00e+00	0	45	104	21541945344	78	19758
2026-01-19 20:16:27.51	304.50	14.69	-54.0	-56.1	3.7	0.00e+00	0	46	104	21541945344	78	19657
2026-01-19 20:16:28.52	304.77	14.63	-54.0	-56.2	3.7	0.00e+00	0	45	104	21541945344	78	19767
2026-01-19 20:16:29.53	305.05	14.56	-54.0	-56.2	3.7	0.00e+00	0	45	104	21541945344	78	19744
2026-01-19 20:16:30.53	305.32	14.50	-54.0	-56.2	3.7	0.00e+00	0	45	104	21541945344	78	19782
2026-01-19 20:16:31.54	305.59	14.43	-54.0	-56.1	3.7	0.00e+00	0	45	104	21541945344	78	19549
2026-01-19 20:16:32.55	305.87	14.37	-54.0	-56.1	3.7	0.00e+00	0	45	104	21541945344	78	19698
2026-01-19 20:16:33.56	306.14	14.30	-54.0	-56.2	3.7	0.00e+00	0	45	104	21541945344	78	19707
2026-01-19 20:16:34.57	306.41	14.23	-54.0	-56.1	3.7	0.00e+00	0	45	104	21541945344	78	19590
2026-01-19 20:16:35.57	306.67	14.17	-54.0	-56.1	3.7	0.00e+00	0	45	104	21541945344	78	19518
2026-01-19 20:16:36.58	306.94	14.10	-54.0	-56.1	3.7	0.00e+00	0	45	104	21541945344	78	19698
2026-01-19 20:16:37.59	307.20	14.04	-54.0	-56.1	3.7	0.00e+00	0	45	104	21541945344	78	19622
2026-01-19 20:16:38.59	307.46	13.97	-54.0	-56.1	3.7	0.00e+00	0	45	104	21541945344	78	19598
2026-01-19 20:16:39.60	307.72	13.90	-53.9	-56.1	3.7	0.00e+00	0	45	104	21541945344	78	19507
2026-01-19 20:16:40.61	307.98	13.83	-54.0	-56.1	3.7	0.00e+00	0	45	104	21541945344	78	19523
2026-01-19 20:16:41.62	308.24	13.77	-53.9	-56.1	3.7	0.00e+00	0	45	104	21541945344	78	19494
2026-01-19 20:16:42.63	308.50	13.70	-53.9	-56.1	3.7	0.00e+00	0	45	104	21541945344	78	19493
2026-01-19 20:16:43.63	308.75	13.63	-53.9	-56.0	3.7	0.00e+00	0	45	104	21541945344	78	19452
2026-01-19 20:16:44.64	309.01	13.56	-53.9	-56.1	3.7	0.00e+00	0	45	104	21541945344	78	19506
2026-01-19 20:16:45.65	309.26	13.49	-53.9	-56.0	3.7	0.00e+00	0	45	104	21541945344	78	19437
2026-01-19 20:16:46.65	309.51	13.43	-53.9	-56.0	3.7	0.00e+00	0	45	104	21541945344	78	19440
2026-01-19 20:16:47.66	309.76	13.36	-53.9	-56.0	3.7	0.00e+00	0	45	104	21541945344	78	19307
2026-01-19 20:16:48.67	310.01	13.29	-53.9	-56.0	3.7	0.00e+00	0	45	104	21541945344	78	19455
2026-01-19 20:16:49.68	310.26	13.22	-53.9	-56.0	3.7	0.00e+00	0	45	104	21541945344	78	19405
2026-01-19 20:16:50.69	310.51	13.15	-53.9	-56.0	3.7	0.00e+00	0	45	104	21541945344	78	19288
2026-01-19 20:16:51.69	310.75	13.08	-53.8	-56.0	3.7	0.00e+00	0	45	104	21541945344	78	19266
2026-01-19 20:16:52.70	310.99	13.01	-53.9	-56.0	3.7	0.00e+00	0	45	104	21541945344	78	19357
2026-01-19 20:16:53.71	311.24	12.94	-53.8	-56.0	3.7	0.00e+00	0	45	104	21541945344	78	19356
2026-01-19 20:16:54.72	311.48	12.87	-53.8	-55.9	3.7	0.00e+00	0	45	104	21541945344	78	19208
2026-01-19 20:16:55.73	311.72	12.80	-53.8	-55.9	3.7	0.00e+00	0	45	104	21541945344	78	19195
2026-01-19 20:16:56.73	311.95	12.73	-53.8	-56.0	3.7	0.00e+00	0	45	104	21541945344	78	19304
2026-01-19 20:16:57.74	312.19	12.66	-53.8	-55.9	3.7	0.00e+00	0	45	104	21541945344	78	19210
2026-01-19 20:16:58.75	312.43	12.59	-53.8	-55.9	3.7	0.00e+00	0	45	104	21541945344	78	19143
2026-01-19 20:16:59.75	312.66	12.52	-53.8	-55.9	3.7	0.00e+00	0	45	104	21541945344	78	19105
2026-01-19 20:17:00.76	312.89	12.45	-53.8	-55.9	3.7	0.00e+00	0	45	104	21541945344	78	19209
2026-01-19 20:17:01.77	313.12	12.38	-53.8	-55.9	3.7	0.00e+00	0	45	104	21541945344	78	19100
2026-01-19 20:17:02.78	313.36	12.31	-53.7	-55.9	3.7	0.00e+00	0	45	104	21541945344	78	19040
2026-01-19 20:17:03.78	313.58	12.24	-53.7	-55.9	3.6	0.00e+00	0	45	104	21541945344	78	19082
2026-01-19 20:17:04.79	313.81	12.17	-53.8	-55.9	3.7	0.00e+00	0	45	104	21541945344	78	19157
2026-01-19 20:17:05.80	314.04	12.09	-53.7	-55.8	3.7	0.00e+00	0	45	104	21541945344	78	19030
2026-01-19 20:17:06.81	314.26	12.02	-53.7	-55.8	3.7	0.00e+00	0	45	104	21541945344	78	18924
2026-01-19 20:17:07.82	314.49	11.95	-53.7	-55.8	3.7	0.00e+00	0	45	104	21541945344	78	18968
2026-01-19 20:17:08.82	314.71	11.88	-53.7	-55.9	3.7	0.00e+00	0	45	104	21541945344	78	19122
2026-01-19 20:17:09.83	314.93	11.81	-53.7	-55.8	3.7	0.00e+00	0	45	104	21541945344	78	19008
2026-01-19 20:17:10.84	315.15	11.74	-53.7	-55.8	3.7	0.00e+00	0	45	104	21541945344	78	18844
2026-01-19 20:17:11.85	315.37	11.67	-53.7	-55.8	3.7	0.00e+00	0	45	104	21541945344	78	18898
2026-01-19 20:17:12.85	315.58	11.59	-53.7	-55.8	3.7	0.00e+00	0	45	104	21541945344	78	19002
2026-01-19 20:17:13.86	315.80	11.52	-53.7	-55.8	3.7	0.00e+00	0	45	104	21541945344	78	18923
2026-01-19 20:17:14.87	316.01	11.45	-53.6	-55.7	3.7	0.00e+00	0	45	104	21541945344	78	18731
2026-01-19 20:17:15.87	316.23	11.38	-53.6	-55.7	3.7	0.00e+00	0	45	104	21541945344	78	18781
2026-01-19 20:17:16.88	316.44	11.31	-53.7	-55.8	3.7	0.00e+00	0	45	104	21541945344	78	18922
2026-01-19 20:17:17.89	316.65	11.24	-53.6	-55.8	3.7	0.00e+00	0	45	104	21541945344	78	18892
2026-01-19 20:17:18.90	316.86	11.16	-53.5	-55.6	3.7	0.00e+00	0	45	104	21541945344	78	18542
2026-01-19 20:17:19.91	317.07	11.09	-53.5	-55.6	3.7	0.00e+00	0	45	104	21541945344	78	18556
2026-01-19 20:17:20.92	317.28	11.02	-53.6	-55.7	3.7	0.00e+00	0	45	104	21541945344	78	18727
2026-01-19 20:17:21.92	317.48	10.95	-53.5	-55.7	3.7	0.00e+00	0	45	104	21541945344	78	18638
2026-01-19 20:17:22.93	317.69	10.88	-53.5	-55.6	3.7	0.00e+00	0	45	104	21541945344	78	18574
2026-01-19 20:17:23.94	317.89	10.81	-53.5	-55.7	3.7	0.00e+00	0	45	104	21541945344	78	18628
2026-01-19 20:17:24.95	318.09	10.73	-53.6	-55.7	3.7	0.00e+00	0	45	104	21541945344	78	18773
2026-01-19 20:17:25.95	318.29	10.66	-53.6	-55.7	3.7	0.00e+00	0	45	104	21541945344	78	18722
2026-01-19 20:17:26.96	318.49	10.59	-53.5	-55.6	3.7	0.00e+00	0	44	104	21541945344	78	18399
2026-01-19 20:17:27.97	318.69	10.52	-53.5	-55.7	3.7	0.00e+00	0	45	104	21541945344	78	18635
2026-01-19 20:17:28.98	318.89	10.45	-53.6	-55.7	3.7	0.00e+00	0	45	104	21541945344	78	18768
2026-01-19 20:17:29.99	319.09	10.38	-53.5	-55.7	3.7	0.00e+00	0	45	104	21541945344	78	18620
2026-01-19 20:17:31.00	319.29	10.30	-53.5	-55.5	3.7	0.00e+00	0	45	104	21541945344	78	18307
2026-01-19 20:17:32.00	319.48	10.23	-53.5	-55.6	3.7	0.00e+00	0	45	104	21541945344	78	18555
2026-01-19 20:17:33.01	319.67	10.16	-53.6	-55.7	3.7	0.00e+00	0	44	104	21541945344	78	18740
2026-01-19 20:17:34.01	319.86	10.09	-53.5	-55.6	3.7	0.00e+00	0	45	104	21541945344	78	18538
2026-01-19 20:17:35.02	320.05	10.02	-53.4	-55.4	3.7	0.00e+00	0	44	104	21541945344	78	18162
2026-01-19 20:17:36.03	320.24	9.95	-53.5	-55.6	3.7	0.00e+00	0	45	104	21541945344	78	18468
2026-01-19 20:17:37.04	320.43	9.88	-53.5	-55.7	3.7	0.00e+00	0	44	104	21541945344	78	18651
2026-01-19 20:17:38.05	320.62	9.80	-53.5	-55.6	3.7	0.00e+00	0	45	104	21541945344	78	18479
2026-01-19 20:17:39.05	320.81	9.73	-53.3	-55.4	3.7	0.00e+00	0	45	104	21541945344	78	18058
2026-01-19 20:17:40.06	320.99	9.66	-53.4	-55.5	3.7	0.00e+00	0	45	104	21541945344	78	18356
2026-01-19 20:17:41.07	321.18	9.59	-53.5	-55.6	3.7	0.00e+00	0	45	104	21541945344	78	18591
2026-01-19 20:17:42.08	321.36	9.52	-53.4	-55.6	3.7	0.00e+00	0	45	104	21541945344	78	18438
2026-01-19 20:17:43.09	321.54	9.45	-53.3	-55.3	3.7	0.00e+00	0	45	104	21541945344	78	17914
2026-01-19 20:17:44.09	321.72	9.38	-53.4	-55.5	3.7	0.00e+00	0	45	104	21541945344	78	18279
2026-01-19 20:17:45.10	321.90	9.31	-53.5	-55.6	3.7	0.00e+00	0	45	104	21541945344	78	18483
2026-01-19 20:17:46.11	322.08	9.24	-53.4	-55.5	3.7	0.00e+00	0	45	104	21541945344	78	18346
2026-01-19 20:17:47.12	322.26	9.16	-53.2	-55.2	3.7	0.00e+00	0	45	104	21541945344	78	17764
2026-01-19 20:17:48.12	322.44	9.09	-53.4	-55.5	3.7	0.00e+00	0	45	104	21541945344	78	18208
2026-01-19 20:17:49.13	322.61	9.02	-53.4	-55.6	3.7	0.00e+00	0	44	104	21541945344	78	18429
2026-01-19 20:17:50.14	322.79	8.95	-53.4	-55.5	3.7	0.00e+00	0	45	104	21541945344	78	18296
2026-01-19 20:17:51.15	322.96	8.88	-53.1	-55.1	3.7	0.00e+00	0	45	104	21541945344	78	17481
2026-01-19 20:17:52.15	323.14	8.81	-53.3	-55.4	3.7	0.00e+00	0	44	104	21541945344	78	18154
2026-01-19 20:17:53.16	323.31	8.74	-53.4	-55.5	3.7	0.00e+00	0	45	104	21541945344	78	18329
2026-01-19 20:17:54.17	323.48	8.67	-53.3	-55.5	3.7	0.00e+00	0	45	104	21541945344	78	18185
2026-01-19 20:17:55.18	323.65	8.60	-53.1	-55.1	3.7	0.00e+00	0	45	104	21541945344	78	17362
2026-01-19 20:17:56.19	323.82	8.53	-53.3	-55.4	3.7	0.00e+00	0	44	104	21541945344	78	17990
2026-01-19 20:17:57.19	323.99	8.46	-53.4	-55.5	3.7	0.00e+00	0	45	104	21541945344	78	18316
2026-01-19 20:17:58.20	324.15	8.39	-53.3	-55.4	3.7	0.00e+00	0	45	104	21541945344	78	18107
2026-01-19 20:17:59.21	324.32	8.32	-53.1	-55.0	3.7	0.00e+00	0	44	104	21541945344	78	17329
2026-01-19 20:18:00.22	324.49	8.25	-53.2	-55.3	3.7	0.00e+00	0	45	104	21541945344	78	17936
2026-01-19 20:18:01.23	324.65	8.18	-53.3	-55.5	3.7	0.00e+00	0	44	104	21541945344	78	18220
2026-01-19 20:18:02.24	324.81	8.11	-53.3	-55.4	3.7	0.00e+00	0	45	104	21541945344	78	17999
2026-01-19 20:18:03.25	324.98	8.04	-52.8	-54.7	3.7	0.00e+00	0	45	104	21541945344	77	17592
2026-01-19 20:18:04.25	325.14	7.97	-52.8	-54.6	3.7	0.00e+00	0	45	104	21541945344	77	17526
2026-01-19 20:18:05.26	325.30	7.90	-52.4	-54.1	3.7	0.00e+00	0	44	104	21541945344	76	17476
2026-01-19 20:18:06.27	325.46	7.83	-52.0	-53.4	3.7	0.00e+00	0	44	104	21541945344	76	16128
2026-01-19 20:18:07.28	325.62	7.76	-52.1	-53.6	3.7	0.00e+00	0	44	104	21541945344	76	16413
2026-01-19 20:18:08.29	325.77	7.69	-53.0	-55.0	3.7	0.00e+00	0	44	104	21541945344	76	19334
2026-01-19 20:18:09.30	325.93	7.62	-53.2	-55.2	3.7	0.00e+00	0	44	104	21541945344	76	19922
2026-01-19 20:18:10.31	326.09	7.55	-52.9	-54.9	3.7	0.00e+00	0	45	104	21541945344	76	19052
2026-01-19 20:18:11.31	326.24	7.49	-52.7	-54.4	3.7	0.00e+00	0	44	104	21541945344	76	18099
2026-01-19 20:18:12.32	326.39	7.42	-52.5	-54.3	3.7	0.00e+00	0	45	104	21541945344	76	17781
2026-01-19 20:18:13.33	326.55	7.35	-52.5	-54.2	3.7	0.00e+00	0	44	104	21541945344	76	17636
2026-01-19 20:18:14.34	326.70	7.28	-52.4	-54.0	3.7	0.00e+00	0	44	104	21541945344	76	17199
2026-01-19 20:18:15.35	326.85	7.21	-52.5	-54.3	3.7	0.00e+00	0	44	104	21541945344	76	17805
2026-01-19 20:18:16.35	327.00	7.14	-53.0	-55.0	3.7	0.00e+00	0	44	104	21541945344	76	19473
2026-01-19 20:18:17.36	327.15	7.08	-53.1	-55.2	3.7	0.00e+00	0	44	104	21541945344	76	19769
2026-01-19 20:18:18.37	327.30	7.01	-52.8	-54.7	3.7	0.00e+00	0	45	104	21541945344	76	18702
2026-01-19 20:18:19.37	327.45	6.94	-52.5	-54.2	3.7	0.00e+00	0	44	104	21541945344	76	17607
2026-01-19 20:18:20.38	327.60	6.87	-52.3	-54.0	3.7	0.00e+00	0	44	104	21541945344	76	17186
2026-01-19 20:18:21.39	327.74	6.80	-52.3	-53.9	3.7	0.00e+00	0	44	104	21541945344	76	17041
2026-01-19 20:18:22.40	327.89	6.74	-52.2	-53.8	3.7	0.00e+00	0	44	104	21541945344	76	16850
2026-01-19 20:18:23.41	328.03	6.67	-52.3	-54.0	3.7	0.00e+00	0	44	104	21541945344	76	17174
2026-01-19 20:18:24.41	328.18	6.60	-53.0	-55.1	3.7	0.00e+00	0	44	104	21541945344	76	19517
2026-01-19 20:18:25.42	328.32	6.53	-52.9	-55.0	3.7	0.00e+00	0	44	104	21541945344	76	19443
2026-01-19 20:18:26.43	328.46	6.47	-52.6	-54.5	3.7	0.00e+00	0	44	104	21541945344	76	18220
2026-01-19 20:18:27.44	328.60	6.40	-52.2	-53.7	3.7	0.00e+00	0	44	104	21541945344	76	16771
2026-01-19 20:18:28.45	328.74	6.33	-52.1	-53.7	3.6	0.00e+00	0	44	104	21541945344	76	16636
2026-01-19 20:18:29.45	328.88	6.26	-52.0	-53.5	3.7	0.00e+00	0	45	104	21541945344	76	16276
2026-01-19 20:18:30.46	329.02	6.20	-52.1	-53.7	3.7	0.00e+00	0	44	104	21541945344	75	17716
2026-01-19 20:18:31.47	329.16	6.13	-52.3	-54.0	3.7	0.00e+00	0	45	104	21541945344	75	18362
2026-01-19 20:18:32.48	329.30	6.06	-52.9	-55.0	3.7	0.00e+00	0	45	104	21541945344	76	19309
2026-01-19 20:18:33.49	329.44	6.00	-52.8	-54.9	3.7	0.00e+00	0	44	104	21541945344	76	19162
2026-01-19 20:18:34.49	329.57	5.93	-52.3	-54.0	3.7	0.00e+00	0	45	104	21541945344	76	17194
2026-01-19 20:18:35.50	329.71	5.86	-51.9	-53.4	3.7	0.00e+00	0	44	104	21541945344	75	17046
2026-01-19 20:18:36.51	329.84	5.80	-51.8	-53.2	3.7	0.00e+00	0	44	104	21541945344	75	16762
2026-01-19 20:18:37.51	329.97	5.73	-51.7	-53.2	3.7	0.00e+00	0	44	104	21541945344	75	16696
2026-01-19 20:18:38.52	330.11	5.67	-51.9	-53.4	3.7	0.00e+00	0	44	104	21541945344	75	17020
2026-01-19 20:18:39.53	330.24	5.60	-51.8	-53.4	3.7	0.00e+00	0	45	104	21541945344	75	17032
2026-01-19 20:18:40.54	330.37	5.54	-52.8	-54.9	3.7	0.00e+00	0	44	104	21541945344	76	19125
2026-01-19 20:18:41.55	330.50	5.47	-52.7	-54.7	3.7	0.00e+00	0	44	104	21541945344	76	18709
2026-01-19 20:18:42.55	330.63	5.40	-52.1	-53.7	3.7	0.00e+00	0	45	104	21541945344	76	16631
2026-01-19 20:18:43.56	330.76	5.34	-51.6	-53.0	3.7	0.00e+00	0	44	104	21541945344	75	16329
2026-01-19 20:18:44.57	330.89	5.27	-51.6	-53.0	3.7	0.00e+00	0	44	104	21541945344	75	16270
2026-01-19 20:18:45.58	331.02	5.21	-51.3	-52.6	3.7	0.00e+00	0	44	104	21541945344	74	16470
2026-01-19 20:18:46.59	331.15	5.14	-51.0	-52.2	3.7	0.00e+00	0	44	104	21541945344	73	16748
2026-01-19 20:18:47.60	331.28	5.08	-51.8	-53.4	3.7	0.00e+00	0	44	104	21541945344	74	18142
2026-01-19 20:18:48.60	331.40	5.01	-51.9	-53.5	3.7	0.00e+00	0	44	104	21541945344	74	18369
2026-01-19 20:18:49.61	331.53	4.95	-53.3	-55.4	3.7	0.00e+00	0	44	104	21541945344	77	19226
2026-01-19 20:18:50.62	331.65	4.88	-53.6	-55.7	3.7	0.00e+00	0	44	104	21541945344	77	19880
2026-01-19 20:18:51.63	331.78	4.82	-53.8	-55.9	3.7	0.00e+00	0	44	104	21541945344	78	19167
2026-01-19 20:18:52.63	331.90	4.76	-53.9	-56.0	3.6	0.00e+00	0	44	104	21541945344	78	19403
2026-01-19 20:18:53.64	332.02	4.69	-54.0	-56.1	3.7	0.00e+00	0	44	104	21541945344	78	19684
2026-01-19 20:18:54.65	332.14	4.63	-54.1	-56.3	3.7	0.00e+00	0	44	104	21541945344	78	19971
2026-01-19 20:18:55.66	332.26	4.56	-54.2	-56.4	3.7	0.00e+00	0	44	104	21541945344	79	19133
2026-01-19 20:18:56.67	332.39	4.50	-54.3	-56.5	3.7	0.00e+00	0	44	104	21541945344	79	19263
2026-01-19 20:18:57.67	332.50	4.44	-54.4	-56.6	3.7	0.00e+00	0	44	104	21541945344	79	19504
2026-01-19 20:18:58.68	332.62	4.37	-54.5	-56.6	3.7	0.00e+00	0	44	104	21541945344	79	19698
2026-01-19 20:18:59.69	332.74	4.31	-54.5	-56.7	3.7	0.00e+00	0	44	104	21541945344	79	19717
2026-01-19 20:19:00.70	332.86	4.24	-54.6	-56.7	3.7	0.00e+00	0	44	104	21541945344	79	19789
2026-01-19 20:19:01.71	332.98	4.18	-54.6	-56.7	3.7	0.00e+00	0	44	104	21541945344	79	19834
2026-01-19 20:19:02.72	333.10	4.12	-54.6	-56.7	3.7	0.00e+00	0	44	104	21541945344	79	19918
2026-01-19 20:19:03.73	333.21	4.05	-54.6	-56.7	3.7	0.00e+00	0	44	104	21541945344	79	19899
2026-01-19 20:19:04.74	333.33	3.99	-54.6	-56.7	3.7	0.00e+00	0	44	104	21541945344	79	19908
2026-01-19 20:19:05.74	333.44	3.93	-54.6	-56.7	3.7	0.00e+00	0	44	104	21541945344	79	19916
2026-01-19 20:19:06.75	333.56	3.87	-54.6	-56.7	3.7	0.00e+00	0	44	104	21541945344	79	19866
2026-01-19 20:19:07.76	333.67	3.80	-54.6	-56.7	3.7	0.00e+00	0	44	104	21541945344	79	19840
2026-01-19 20:19:08.77	333.79	3.74	-54.5	-56.7	3.7	0.00e+00	0	44	104	21541945344	79	19768
2026-01-19 20:19:09.77	333.90	3.68	-54.5	-56.7	3.7	0.00e+00	0	44	104	21541945344	79	19790
2026-01-19 20:19:10.78	334.01	3.62	-54.5	-56.7	3.7	0.00e+00	0	44	104	21541945344	79	19717
2026-01-19 20:19:11.79	334.12	3.55	-54.5	-56.6	3.7	0.00e+00	0	44	104	21541945344	79	19635
2026-01-19 20:19:12.79	334.23	3.49	-54.5	-56.6	3.7	0.00e+00	0	44	104	21541945344	79	19541
2026-01-19 20:19:13.80	334.34	3.43	-54.4	-56.6	3.7	0.00e+00	0	44	104	21541945344	79	19534
2026-01-19 20:19:14.81	334.45	3.37	-54.4	-56.6	3.7	0.00e+00	0	44	104	21541945344	79	19496
2026-01-19 20:19:15.82	334.56	3.31	-54.4	-56.6	3.7	0.00e+00	0	44	104	21541945344	79	19494
2026-01-19 20:19:16.83	334.67	3.25	-54.4	-56.6	3.7	0.00e+00	0	45	104	21541945344	79	19520
2026-01-19 20:19:17.84	334.78	3.18	-54.4	-56.5	3.7	0.00e+00	0	44	104	21541945344	79	19475
2026-01-19 20:19:18.85	334.89	3.12	-54.4	-56.5	3.7	0.00e+00	0	44	104	21541945344	79	19470
2026-01-19 20:19:19.85	335.00	3.06	-54.4	-56.6	3.7	0.00e+00	0	44	104	21541945344	79	19550
2026-01-19 20:19:20.86	335.10	3.00	-54.4	-56.5	3.7	0.00e+00	0	44	104	21541945344	79	19478
2026-01-19 20:19:21.87	335.21	2.94	-54.4	-56.6	3.7	0.00e+00	0	44	104	21541945344	79	19537
2026-01-19 20:19:22.88	335.31	2.88	-54.4	-56.5	3.7	0.00e+00	0	44	104	21541945344	79	19408
2026-01-19 20:19:23.89	335.42	2.82	-54.4	-56.6	3.7	0.00e+00	0	44	104	21541945344	79	19502
2026-01-19 20:19:24.89	335.52	2.76	-54.4	-56.5	3.7	0.00e+00	0	44	104	21541945344	79	19395
2026-01-19 20:19:25.90	335.63	2.70	-54.4	-56.5	3.7	0.00e+00	0	44	104	21541945344	79	19400
2026-01-19 20:19:26.91	335.73	2.64	-54.4	-56.5	3.7	0.00e+00	0	44	104	21541945344	79	19419
2026-01-19 20:19:27.92	335.83	2.58	-54.4	-56.5	3.7	0.00e+00	0	44	104	21541945344	79	19375
2026-01-19 20:19:28.92	335.94	2.52	-54.4	-56.5	3.7	0.00e+00	0	44	104	21541945344	79	19381
2026-01-19 20:19:29.93	336.04	2.46	-54.4	-56.5	3.7	0.00e+00	0	44	104	21541945344	79	19372
2026-01-19 20:19:30.94	336.14	2.40	-54.4	-56.5	3.7	0.00e+00	0	44	104	21541945344	79	19366
2026-01-19 20:19:31.95	336.24	2.34	-54.4	-56.5	3.7	0.00e+00	0	44	104	21541945344	79	19366
2026-01-19 20:19:32.96	336.34	2.28	-54.3	-56.5	3.7	0.00e+00	0	45	104	21541945344	79	19272
2026-01-19 20:19:33.97	336.44	2.22	-54.3	-56.5	3.7	0.00e+00	0	44	104	21541945344	79	19319
2026-01-19 20:19:34.97	336.54	2.16	-54.3	-56.5	3.7	0.00e+00	0	44	104	21541945344	79	19393
2026-01-19 20:19:35.98	336.64	2.10	-54.3	-56.5	3.7	0.00e+00	0	44	104	21541945344	79	19329
2026-01-19 20:19:36.99	336.74	2.04	-54.3	-56.5	3.7	0.00e+00	0	44	104	21541945344	79	19337
2026-01-19 20:19:38.00	336.84	1.98	-54.3	-56.5	3.7	0.00e+00	0	44	104	21541945344	79	19345
2026-01-19 20:19:39.00	336.93	1.92	-54.3	-56.5	3.7	0.00e+00	0	44	104	21541945344	79	19307

#Closed at: 2026-01-19 20:19:39
#Recorded file [21541 MB]: D:/lorett/data/31041_260119_231019.dat