passes_logs/2026/01/19/R3.2S_Murmansk/R3.2S_Murmansk__20260119_033710_NOAA_20_JPSS-1_rec.log

#Pass ID: 20260119_033710_NOAA 20 (JPSS-1)
#Satellite: NOAA 20 (JPSS-1)
#Configuration: NOAA 20
#almurnet v.1.7.20251203
#Start time: 2026-01-19 03:37:12

#Version: 2.2.20231116
#Station: R3.2S_Murmansk
#Location: 33.079688 lon 68.888172 lat
#TLE: 1 43013U 17073A   26018.57232797  .00000065  00000+0  51758-4 0  9998
#TLE: 2 43013  98.7640 319.4740 0001368  34.2083 325.9181 14.19536753423241

#Time	Az	El	Level	Level2	SNR	BER	BlckErr	Temp	State	Recorded	gain1	gain2
2026-01-19 03:37:12.70	43.04	2.12	-48.0	-62.8	3.8	1.49e+00	0	35	0	0	66	21233
2026-01-19 03:37:13.70	42.98	2.18	-48.0	-62.8	3.8	1.49e+00	0	35	104	0	66	21225
2026-01-19 03:37:14.71	42.93	2.24	-47.9	-62.8	3.8	1.49e+00	0	35	104	0	66	21250
2026-01-19 03:37:15.72	42.87	2.30	-48.0	-62.8	3.8	1.49e+00	0	35	104	0	66	21215
2026-01-19 03:37:16.72	42.82	2.36	-47.9	-62.8	3.8	1.49e+00	0	35	104	0	66	21187
2026-01-19 03:37:17.73	42.76	2.42	-47.9	-62.8	3.8	1.49e+00	0	35	104	0	66	21206
2026-01-19 03:37:18.74	42.70	2.48	-48.0	-62.8	3.8	1.49e+00	0	35	104	0	66	21180
2026-01-19 03:37:19.75	42.64	2.54	-48.0	-62.8	3.8	1.49e+00	0	35	104	0	66	21183
2026-01-19 03:37:20.76	42.59	2.60	-48.0	-62.8	3.8	1.49e+00	0	35	104	0	66	21157
2026-01-19 03:37:21.77	42.53	2.66	-48.0	-62.8	3.8	1.49e+00	0	35	104	0	66	21234
2026-01-19 03:37:22.77	42.47	2.72	-48.0	-62.8	3.8	1.49e+00	0	35	104	0	66	21212
2026-01-19 03:37:23.78	42.41	2.78	-48.0	-62.8	3.8	1.49e+00	0	36	104	0	66	21192
2026-01-19 03:37:24.79	42.35	2.84	-48.0	-62.8	3.8	1.49e+00	0	36	104	0	66	21179
2026-01-19 03:37:25.80	42.29	2.90	-48.0	-62.8	3.8	1.49e+00	0	36	104	0	66	21214
2026-01-19 03:37:26.80	42.24	2.96	-48.0	-62.8	3.8	1.49e+00	0	35	104	0	66	21239
2026-01-19 03:37:27.81	42.18	3.02	-47.9	-62.8	3.8	1.49e+00	0	36	104	0	66	21226
2026-01-19 03:37:28.82	42.12	3.08	-47.9	-62.8	3.8	1.49e+00	0	36	104	0	66	21147
2026-01-19 03:37:29.83	42.06	3.14	-48.0	-62.8	3.8	1.49e+00	0	35	104	0	66	21223
2026-01-19 03:37:30.84	42.00	3.20	-47.9	-62.8	3.8	1.49e+00	0	36	104	0	66	21219
2026-01-19 03:37:31.84	41.94	3.26	-48.0	-62.8	3.8	1.49e+00	0	36	104	0	66	21174
2026-01-19 03:37:32.85	41.87	3.32	-48.0	-62.8	3.8	1.49e+00	0	36	104	0	66	21239
2026-01-19 03:37:33.86	41.81	3.38	-48.0	-62.8	3.8	1.49e+00	0	36	104	0	66	21232
2026-01-19 03:37:34.87	41.75	3.45	-48.0	-62.8	3.8	1.49e+00	0	36	104	0	66	21199
2026-01-19 03:37:35.88	41.69	3.51	-48.0	-62.8	3.8	1.49e+00	0	36	104	0	66	21208
2026-01-19 03:37:36.88	41.63	3.57	-48.0	-62.8	3.8	1.49e+00	0	36	104	0	66	21221
2026-01-19 03:37:37.89	41.57	3.63	-48.0	-62.8	3.8	1.49e+00	0	36	104	0	66	21240
2026-01-19 03:37:38.90	41.50	3.69	-47.9	-62.8	3.8	1.49e+00	0	36	104	0	66	21230
2026-01-19 03:37:39.91	41.44	3.75	-47.9	-62.8	3.8	1.49e+00	0	36	104	0	66	21183
2026-01-19 03:37:40.92	41.38	3.82	-48.0	-62.8	3.8	1.49e+00	0	36	104	0	66	21215
2026-01-19 03:37:41.92	41.32	3.88	-47.9	-62.8	3.8	1.49e+00	0	36	104	0	66	21238
2026-01-19 03:37:42.93	41.25	3.94	-48.0	-62.8	3.8	1.49e+00	0	36	104	0	66	21174
2026-01-19 03:37:43.94	41.19	4.00	-47.9	-62.8	3.8	1.49e+00	0	36	104	0	66	21224
2026-01-19 03:37:44.95	41.12	4.06	-48.0	-62.8	3.8	1.49e+00	0	36	104	0	66	21222
2026-01-19 03:37:45.96	41.06	4.13	-48.0	-62.8	3.8	1.49e+00	0	36	104	0	66	21190
2026-01-19 03:37:46.96	40.99	4.19	-48.0	-62.8	3.8	1.49e+00	0	36	104	0	66	21219
2026-01-19 03:37:47.97	40.93	4.25	-48.0	-62.8	3.8	1.49e+00	0	36	104	0	66	21174
2026-01-19 03:37:48.98	40.86	4.31	-48.0	-62.8	3.8	1.49e+00	0	36	104	0	66	21244
2026-01-19 03:37:49.99	40.80	4.38	-48.0	-62.8	3.8	1.49e+00	0	36	104	0	66	21199
2026-01-19 03:37:51.00	40.73	4.44	-48.0	-62.8	3.8	1.49e+00	0	36	104	0	66	21215
2026-01-19 03:37:52.00	40.67	4.50	-48.0	-62.8	3.8	1.49e+00	0	36	104	0	66	21211
2026-01-19 03:37:53.01	40.60	4.57	-48.0	-62.8	3.8	1.49e+00	0	36	104	0	66	21201
2026-01-19 03:37:54.02	40.53	4.63	-48.0	-62.8	3.8	1.49e+00	0	36	104	0	66	21206
2026-01-19 03:37:55.03	40.47	4.69	-48.0	-62.8	3.8	1.49e+00	0	36	104	0	66	21205
2026-01-19 03:37:56.04	40.40	4.76	-48.0	-62.8	3.8	1.49e+00	0	36	104	0	66	21208
2026-01-19 03:37:57.04	40.33	4.82	-48.0	-62.8	3.8	1.49e+00	0	36	104	0	66	21223
2026-01-19 03:37:58.06	40.26	4.88	-48.0	-62.8	3.8	1.49e+00	0	36	104	0	66	21152
2026-01-19 03:37:59.06	40.19	4.95	-48.0	-62.8	3.8	1.49e+00	0	36	104	0	66	21253
2026-01-19 03:38:00.07	40.13	5.01	-48.0	-62.8	3.8	1.49e+00	0	36	104	0	66	21210
2026-01-19 03:38:01.08	40.06	5.08	-48.0	-62.8	3.8	1.49e+00	0	36	104	0	66	21225
2026-01-19 03:38:02.08	39.99	5.14	-48.0	-62.8	3.8	1.49e+00	0	36	104	0	66	21196
2026-01-19 03:38:03.10	39.92	5.21	-48.0	-62.8	3.8	1.49e+00	0	36	104	0	66	21171
2026-01-19 03:38:04.10	39.85	5.27	-47.9	-62.8	3.8	1.49e+00	0	36	104	0	66	21209
2026-01-19 03:38:05.11	39.78	5.33	-48.0	-62.8	3.8	1.49e+00	0	36	104	0	66	21229
2026-01-19 03:38:06.12	39.71	5.40	-48.0	-62.8	3.8	1.49e+00	0	36	104	0	66	21238
2026-01-19 03:38:07.13	39.64	5.46	-48.0	-62.8	3.8	1.49e+00	0	36	104	0	66	21177
2026-01-19 03:38:08.13	39.57	5.53	-48.0	-62.8	3.8	1.49e+00	0	36	104	0	66	21196
2026-01-19 03:38:09.14	39.49	5.59	-48.0	-62.9	3.8	1.49e+00	0	36	104	0	66	21263
2026-01-19 03:38:10.15	39.42	5.66	-48.0	-62.8	3.8	1.49e+00	0	36	104	0	66	21215
2026-01-19 03:38:11.16	39.35	5.72	-47.9	-62.8	3.8	1.49e+00	0	36	104	0	66	21215
2026-01-19 03:38:12.17	39.28	5.79	-48.0	-62.8	3.8	1.49e+00	0	36	104	0	66	21196
2026-01-19 03:38:13.18	39.20	5.86	-48.0	-62.8	3.8	1.49e+00	0	36	104	0	66	21199
2026-01-19 03:38:14.18	39.13	5.92	-48.0	-62.8	3.8	1.49e+00	0	36	104	0	66	21208
2026-01-19 03:38:15.19	39.06	5.99	-48.0	-62.8	3.8	1.49e+00	0	36	104	0	66	21240
2026-01-19 03:38:16.20	38.98	6.05	-48.0	-62.8	3.8	1.49e+00	0	36	104	0	66	21226
2026-01-19 03:38:17.21	38.91	6.12	-48.0	-62.8	3.8	1.49e+00	0	36	104	0	66	21206
2026-01-19 03:38:18.22	38.83	6.18	-48.0	-62.8	3.8	1.49e+00	0	36	104	0	66	21246
2026-01-19 03:38:19.22	38.76	6.25	-48.0	-62.8	3.8	1.49e+00	0	36	104	0	66	21245
2026-01-19 03:38:20.23	38.68	6.32	-48.0	-62.8	3.8	1.49e+00	0	36	104	0	66	21240
2026-01-19 03:38:21.24	38.61	6.38	-48.0	-62.8	3.8	1.49e+00	0	36	104	0	66	21201
2026-01-19 03:38:22.25	38.53	6.45	-48.0	-62.8	3.8	1.49e+00	0	36	104	0	66	21226
2026-01-19 03:38:23.26	38.45	6.52	-48.0	-62.8	3.8	1.49e+00	0	36	104	0	66	21211
2026-01-19 03:38:24.26	38.38	6.58	-48.0	-62.8	3.8	1.49e+00	0	36	104	0	66	21190
2026-01-19 03:38:25.27	38.30	6.65	-48.0	-62.8	3.8	1.49e+00	0	36	104	0	66	21227
2026-01-19 03:38:26.28	38.22	6.72	-48.0	-62.8	3.8	1.49e+00	0	36	104	0	66	21252
2026-01-19 03:38:27.29	38.15	6.79	-48.0	-62.8	3.8	1.49e+00	0	36	104	0	66	21222
2026-01-19 03:38:28.30	38.07	6.85	-48.0	-62.8	3.8	1.49e+00	0	37	104	0	66	21235
2026-01-19 03:38:29.30	37.99	6.92	-48.0	-62.8	3.8	1.49e+00	0	36	104	0	66	21241
2026-01-19 03:38:30.31	37.91	6.99	-48.0	-62.8	3.8	1.49e+00	0	36	104	0	66	21224
2026-01-19 03:38:31.32	37.83	7.06	-48.0	-62.8	3.8	1.49e+00	0	37	104	0	66	21212
2026-01-19 03:38:32.32	37.75	7.12	-48.0	-62.8	3.8	1.49e+00	0	37	104	0	66	21179
2026-01-19 03:38:33.33	37.67	7.19	-48.0	-62.8	3.8	1.49e+00	0	36	104	0	66	21217
2026-01-19 03:38:34.34	37.59	7.26	-48.0	-62.8	3.8	1.49e+00	0	37	104	0	66	21230
2026-01-19 03:38:35.35	37.51	7.33	-48.0	-62.8	3.8	1.49e+00	0	36	104	0	66	21232
2026-01-19 03:38:36.36	37.43	7.40	-48.0	-62.8	3.8	1.49e+00	0	37	104	0	66	21246
2026-01-19 03:38:37.36	37.35	7.46	-48.0	-62.8	3.8	1.49e+00	0	36	104	0	66	21124
2026-01-19 03:38:38.37	37.26	7.53	-48.0	-62.8	3.8	1.49e+00	0	37	104	0	66	21231
2026-01-19 03:38:39.38	37.18	7.60	-48.0	-62.8	3.8	1.49e+00	0	37	104	0	66	21230
2026-01-19 03:38:40.39	37.10	7.67	-48.0	-62.8	3.8	1.49e+00	0	37	104	0	66	21255
2026-01-19 03:38:41.40	37.01	7.74	-48.0	-62.8	3.8	1.49e+00	0	37	104	0	66	21213
2026-01-19 03:38:42.40	36.93	7.81	-48.0	-62.8	3.8	1.49e+00	0	37	104	0	66	21207
2026-01-19 03:38:43.41	36.85	7.88	-48.0	-62.8	3.8	1.49e+00	0	37	104	0	66	21200
2026-01-19 03:38:44.42	36.76	7.95	-48.0	-62.8	3.8	1.49e+00	0	37	104	0	66	21236
2026-01-19 03:38:45.43	36.67	8.02	-48.0	-62.8	3.8	1.49e+00	0	37	104	0	66	21235
2026-01-19 03:38:46.44	36.59	8.09	-48.0	-62.8	3.8	1.49e+00	0	37	104	0	66	21221
2026-01-19 03:38:47.44	36.50	8.16	-48.0	-62.9	3.8	1.49e+00	0	37	104	0	66	21278
2026-01-19 03:38:48.45	36.42	8.23	-48.0	-62.8	3.8	1.49e+00	0	37	104	0	66	21180
2026-01-19 03:38:49.46	36.33	8.30	-48.0	-62.8	3.8	1.49e+00	0	37	104	0	66	21226
2026-01-19 03:38:50.47	36.24	8.37	-48.0	-62.8	3.8	1.49e+00	0	37	104	0	66	21249
2026-01-19 03:38:51.48	36.15	8.44	-48.0	-62.8	3.8	1.49e+00	0	37	104	0	66	21207
2026-01-19 03:38:52.48	36.07	8.51	-48.0	-62.8	3.8	1.49e+00	0	37	104	0	66	21145
2026-01-19 03:38:53.49	35.98	8.58	-48.0	-62.8	3.8	1.49e+00	0	37	104	0	66	21252
2026-01-19 03:38:54.50	35.89	8.65	-48.0	-62.8	3.8	1.49e+00	0	37	104	0	66	21247
2026-01-19 03:38:55.51	35.80	8.72	-48.0	-62.8	3.8	1.49e+00	0	37	104	0	66	21249
2026-01-19 03:38:56.52	35.71	8.79	-48.0	-62.8	3.8	1.49e+00	0	37	104	0	66	21242
2026-01-19 03:38:57.52	35.62	8.86	-48.0	-62.8	3.8	1.49e+00	0	37	104	0	66	21244
2026-01-19 03:38:58.53	35.53	8.93	-48.0	-62.8	3.8	1.49e+00	0	37	104	0	66	21193
2026-01-19 03:38:59.54	35.44	9.00	-48.0	-62.8	3.8	1.49e+00	0	37	104	0	66	21238
2026-01-19 03:39:00.55	35.34	9.07	-48.0	-62.8	3.8	1.49e+00	0	36	104	0	66	21243
2026-01-19 03:39:01.56	35.25	9.15	-48.0	-62.9	3.8	1.49e+00	0	37	104	0	66	21274
2026-01-19 03:39:02.57	35.16	9.22	-48.0	-62.8	3.8	1.49e+00	0	37	104	0	66	21224
2026-01-19 03:39:03.57	35.07	9.29	-48.0	-62.8	3.8	1.49e+00	0	37	104	0	66	21235
2026-01-19 03:39:04.58	34.97	9.36	-48.0	-62.8	3.8	1.49e+00	0	37	104	0	66	21209
2026-01-19 03:39:05.59	34.88	9.43	-48.0	-62.8	3.8	1.49e+00	0	37	104	0	66	21243
2026-01-19 03:39:06.60	34.78	9.51	-48.0	-62.8	3.8	1.49e+00	0	37	104	0	66	21176
2026-01-19 03:39:07.61	34.69	9.58	-48.0	-62.8	3.8	1.49e+00	0	37	104	0	66	21247
2026-01-19 03:39:08.62	34.59	9.65	-48.0	-62.8	3.8	1.49e+00	0	37	104	0	66	21232
2026-01-19 03:39:09.63	34.50	9.72	-48.0	-62.8	3.8	1.49e+00	0	37	104	0	66	21130
2026-01-19 03:39:10.64	34.40	9.80	-48.0	-62.8	3.8	1.49e+00	0	37	104	0	66	21221
2026-01-19 03:39:11.64	34.30	9.87	-48.0	-62.8	3.8	1.49e+00	0	37	104	0	66	21245
2026-01-19 03:39:12.65	34.20	9.94	-48.0	-62.8	3.8	1.49e+00	0	37	104	0	66	21247
2026-01-19 03:39:13.66	34.11	10.01	-48.0	-62.8	3.8	1.49e+00	0	37	104	0	66	21220
2026-01-19 03:39:14.67	34.01	10.09	-48.0	-62.8	3.8	1.49e+00	0	37	104	0	66	21239
2026-01-19 03:39:15.67	33.91	10.16	-48.0	-62.8	3.8	1.49e+00	0	37	104	0	66	21224
2026-01-19 03:39:16.68	33.81	10.23	-48.0	-62.8	3.8	1.49e+00	0	37	104	0	66	21242
2026-01-19 03:39:17.69	33.71	10.31	-48.0	-62.8	3.8	1.49e+00	0	37	104	0	66	21196
2026-01-19 03:39:18.70	33.61	10.38	-48.0	-62.9	3.8	1.49e+00	0	37	104	0	66	21264
2026-01-19 03:39:19.71	33.51	10.46	-48.0	-62.9	3.8	1.49e+00	0	37	104	0	66	21301
2026-01-19 03:39:20.72	33.40	10.53	-48.0	-62.8	3.8	1.49e+00	0	37	104	0	66	21226
2026-01-19 03:39:21.72	33.30	10.60	-48.0	-62.9	3.8	1.49e+00	0	37	104	0	66	21284
2026-01-19 03:39:22.73	33.20	10.68	-48.0	-62.9	3.8	1.49e+00	0	37	104	0	66	21261
2026-01-19 03:39:23.74	33.10	10.75	-48.0	-62.8	3.8	1.49e+00	0	37	104	0	66	21234
2026-01-19 03:39:24.75	32.99	10.83	-48.0	-62.8	3.8	1.49e+00	0	37	104	0	66	21229
2026-01-19 03:39:25.76	32.89	10.90	-48.0	-62.8	3.8	1.49e+00	0	37	104	0	66	21228
2026-01-19 03:39:26.76	32.78	10.98	-48.0	-62.8	3.8	1.49e+00	0	37	104	0	66	21194
2026-01-19 03:39:27.77	32.68	11.05	-48.0	-62.8	3.8	1.49e+00	0	37	104	0	66	21249
2026-01-19 03:39:28.78	32.57	11.13	-48.0	-62.8	3.8	1.49e+00	0	37	104	0	66	21258
2026-01-19 03:39:29.79	32.46	11.20	-48.0	-62.9	3.8	1.49e+00	0	37	104	0	66	21274
2026-01-19 03:39:30.80	32.36	11.28	-48.0	-62.8	3.8	1.49e+00	0	37	104	0	66	21233
2026-01-19 03:39:31.80	32.25	11.35	-48.0	-62.8	3.8	1.49e+00	0	37	104	0	66	21239
2026-01-19 03:39:32.81	32.14	11.43	-48.0	-62.8	3.8	1.49e+00	0	37	104	0	66	21251
2026-01-19 03:39:33.82	32.03	11.51	-48.0	-62.8	3.8	1.49e+00	0	37	104	0	66	21236
2026-01-19 03:39:34.83	31.92	11.58	-48.0	-62.8	3.8	1.49e+00	0	37	104	0	66	21210
2026-01-19 03:39:35.84	31.81	11.66	-48.0	-62.9	3.8	1.49e+00	0	37	104	0	66	21284
2026-01-19 03:39:36.84	31.70	11.73	-48.0	-62.8	3.8	1.49e+00	0	37	104	0	66	21190
2026-01-19 03:39:37.85	31.59	11.81	-48.0	-62.8	3.8	1.49e+00	0	37	104	0	66	21233
2026-01-19 03:39:38.86	31.48	11.89	-48.0	-62.8	3.8	1.49e+00	0	37	104	0	66	21224
2026-01-19 03:39:39.87	31.36	11.96	-48.0	-62.8	3.8	1.49e+00	0	37	104	0	66	21258
2026-01-19 03:39:40.87	31.25	12.04	-48.0	-62.8	3.8	1.49e+00	0	37	104	0	66	21247
2026-01-19 03:39:41.88	31.14	12.12	-48.0	-62.8	3.8	1.49e+00	0	37	104	0	66	21242
2026-01-19 03:39:42.89	31.02	12.19	-48.0	-62.8	3.8	1.49e+00	0	37	104	0	66	21228
2026-01-19 03:39:43.90	30.91	12.27	-48.0	-62.8	3.8	1.49e+00	0	37	104	0	66	21252
2026-01-19 03:39:44.91	30.79	12.35	-48.0	-62.8	3.8	1.49e+00	0	37	104	0	66	21197
2026-01-19 03:39:45.92	30.68	12.42	-48.0	-62.9	3.8	1.49e+00	0	37	104	0	66	21276
2026-01-19 03:39:46.92	30.56	12.50	-48.0	-62.8	3.8	1.49e+00	0	37	104	0	66	21257
2026-01-19 03:39:47.93	30.44	12.58	-48.0	-62.8	3.8	1.49e+00	0	37	104	0	66	21228
2026-01-19 03:39:48.94	30.32	12.66	-48.0	-62.8	3.8	1.49e+00	0	37	104	0	66	21185
2026-01-19 03:39:49.95	30.20	12.74	-48.0	-62.8	3.8	1.49e+00	0	37	104	0	66	21200
2026-01-19 03:39:50.96	30.08	12.81	-48.0	-62.8	3.8	1.49e+00	0	37	104	0	66	21238
2026-01-19 03:39:51.97	29.96	12.89	-48.0	-62.8	3.8	1.49e+00	0	37	104	0	66	21228
2026-01-19 03:39:52.97	29.84	12.97	-48.0	-62.9	3.8	1.49e+00	0	37	104	0	66	21277
2026-01-19 03:39:53.98	29.72	13.05	-48.0	-62.8	3.8	1.49e+00	0	37	104	0	66	21239
2026-01-19 03:39:54.99	29.60	13.13	-48.0	-62.8	3.8	1.49e+00	0	37	104	0	66	21224
2026-01-19 03:39:56.00	29.48	13.20	-48.0	-62.8	3.8	1.49e+00	0	37	104	0	66	21188
2026-01-19 03:39:57.01	29.35	13.28	-48.0	-62.9	3.8	1.49e+00	0	37	104	0	66	21287
2026-01-19 03:39:58.02	29.23	13.36	-48.0	-62.8	3.8	1.49e+00	0	37	104	0	66	21221
2026-01-19 03:39:59.02	29.11	13.44	-48.0	-62.8	3.8	1.49e+00	0	37	104	0	66	21249
2026-01-19 03:40:00.03	28.98	13.52	-48.0	-62.8	3.8	1.49e+00	0	37	104	0	66	21227
2026-01-19 03:40:01.04	28.85	13.60	-48.0	-62.9	3.8	1.49e+00	0	37	104	0	66	21261
2026-01-19 03:40:02.05	28.73	13.68	-48.0	-62.9	3.8	1.49e+00	0	37	104	0	66	21290
2026-01-19 03:40:03.05	28.60	13.76	-48.0	-62.8	3.8	1.49e+00	0	37	104	0	66	21248
2026-01-19 03:40:04.06	28.47	13.84	-48.0	-62.9	3.8	1.49e+00	0	37	104	0	66	21262
2026-01-19 03:40:05.07	28.34	13.92	-48.0	-62.9	3.8	1.49e+00	0	37	104	0	66	21266
2026-01-19 03:40:06.08	28.21	14.00	-48.0	-62.8	3.8	1.49e+00	0	37	104	0	66	21224
2026-01-19 03:40:07.08	28.08	14.08	-48.0	-62.9	3.8	1.49e+00	0	37	104	0	66	21319
2026-01-19 03:40:08.09	27.95	14.16	-48.0	-62.8	3.8	1.49e+00	0	37	104	0	66	21216
2026-01-19 03:40:09.10	27.82	14.24	-48.0	-62.8	3.8	1.49e+00	0	37	104	0	66	21245
2026-01-19 03:40:10.11	27.69	14.32	-48.0	-62.8	3.8	1.49e+00	0	37	104	0	66	21213
2026-01-19 03:40:11.11	27.55	14.40	-48.0	-62.8	3.8	1.49e+00	0	37	104	0	66	21226
2026-01-19 03:40:12.12	27.42	14.48	-48.0	-62.8	3.8	1.49e+00	0	37	104	0	66	21195
2026-01-19 03:40:13.13	27.28	14.56	-48.0	-62.8	3.8	1.49e+00	0	37	104	0	66	21209
2026-01-19 03:40:14.14	27.15	14.64	-48.0	-62.8	3.8	1.49e+00	0	37	104	0	66	21225
2026-01-19 03:40:15.15	27.01	14.72	-48.0	-62.8	3.8	1.49e+00	0	37	104	0	66	21196
2026-01-19 03:40:16.16	26.87	14.80	-48.0	-62.8	3.8	1.49e+00	0	37	104	0	66	21227
2026-01-19 03:40:17.16	26.74	14.88	-48.0	-62.8	3.8	1.49e+00	0	37	104	0	66	21171
2026-01-19 03:40:18.17	26.60	14.96	-48.0	-62.8	3.8	1.49e+00	0	37	104	0	66	21209
2026-01-19 03:40:19.18	26.46	15.04	-48.0	-62.8	3.8	1.49e+00	0	37	104	0	66	21243
2026-01-19 03:40:20.19	26.32	15.12	-48.0	-62.8	3.8	1.49e+00	0	37	104	0	66	21213
2026-01-19 03:40:21.20	26.18	15.20	-48.0	-62.8	3.8	1.49e+00	0	37	104	0	66	21217
2026-01-19 03:40:22.20	26.04	15.29	-48.0	-62.8	3.8	1.49e+00	0	37	104	0	66	21230
2026-01-19 03:40:23.21	25.89	15.37	-48.0	-62.9	3.8	1.49e+00	0	37	104	0	66	21269
2026-01-19 03:40:24.22	25.75	15.45	-48.0	-62.9	3.8	1.49e+00	0	37	104	0	66	21285
2026-01-19 03:40:25.23	25.61	15.53	-48.0	-62.9	3.8	1.49e+00	0	37	104	0	66	21293
2026-01-19 03:40:26.24	25.46	15.61	-48.0	-62.9	3.8	1.49e+00	0	37	104	0	66	21272
2026-01-19 03:40:27.24	25.32	15.69	-48.0	-62.8	3.8	1.49e+00	0	37	104	0	66	21242
2026-01-19 03:40:28.25	25.17	15.78	-48.0	-62.8	3.8	1.49e+00	0	37	104	0	66	21230
2026-01-19 03:40:29.26	25.02	15.86	-48.0	-62.8	3.8	1.49e+00	0	37	104	0	66	21240
2026-01-19 03:40:30.27	24.87	15.94	-48.0	-62.8	3.8	1.49e+00	0	37	104	0	66	21232
2026-01-19 03:40:31.27	24.73	16.02	-48.0	-62.8	3.8	1.49e+00	0	37	104	0	66	21201
2026-01-19 03:40:32.28	24.58	16.10	-48.0	-62.8	3.8	1.49e+00	0	37	104	0	66	21211
2026-01-19 03:40:33.29	24.42	16.19	-48.0	-62.9	3.8	1.49e+00	0	37	104	0	66	21267
2026-01-19 03:40:34.30	24.27	16.27	-48.0	-62.9	3.8	1.49e+00	0	37	104	0	66	21269
2026-01-19 03:40:35.30	24.12	16.35	-48.0	-62.8	3.8	1.49e+00	0	37	104	0	66	21256
2026-01-19 03:40:36.31	23.97	16.43	-48.0	-62.8	3.8	1.49e+00	0	37	104	0	66	21255
2026-01-19 03:40:37.32	23.81	16.52	-48.0	-62.9	3.8	1.49e+00	0	37	104	0	66	21286
2026-01-19 03:40:38.33	23.66	16.60	-48.0	-62.8	3.8	1.49e+00	0	37	104	0	66	21230
2026-01-19 03:40:39.33	23.50	16.68	-48.0	-62.8	3.8	1.49e+00	0	37	104	0	66	21245
2026-01-19 03:40:40.34	23.35	16.76	-48.0	-62.9	3.8	1.49e+00	0	37	104	0	66	21284
2026-01-19 03:40:41.35	23.19	16.85	-48.0	-62.9	3.8	1.49e+00	0	37	104	0	66	21267
2026-01-19 03:40:42.36	23.03	16.93	-48.0	-62.8	3.8	1.49e+00	0	37	104	0	66	21201
2026-01-19 03:40:43.37	22.87	17.01	-48.0	-62.9	3.8	1.49e+00	0	37	104	0	66	21264
2026-01-19 03:40:44.38	22.71	17.09	-48.0	-62.8	3.8	1.49e+00	0	37	104	0	66	21202
2026-01-19 03:40:45.38	22.55	17.18	-48.0	-62.8	3.8	1.49e+00	0	37	104	0	66	21255
2026-01-19 03:40:46.39	22.39	17.26	-48.0	-62.8	3.8	1.49e+00	0	37	104	0	66	21187
2026-01-19 03:40:47.40	22.22	17.34	-48.0	-62.8	3.8	1.49e+00	0	37	104	0	66	21260
2026-01-19 03:40:48.41	22.06	17.43	-48.0	-62.8	3.8	1.49e+00	0	37	104	0	66	21252
2026-01-19 03:40:49.42	21.89	17.51	-48.0	-62.9	3.8	1.49e+00	0	37	104	0	66	21269
2026-01-19 03:40:50.43	21.73	17.59	-48.0	-62.9	3.8	1.49e+00	0	37	104	0	66	21261
2026-01-19 03:40:51.43	21.56	17.68	-48.0	-62.9	3.8	1.49e+00	0	37	104	0	66	21276
2026-01-19 03:40:52.44	21.39	17.76	-48.0	-62.8	3.8	1.49e+00	0	37	104	0	66	21183
2026-01-19 03:40:53.45	21.23	17.84	-48.0	-62.8	3.8	1.49e+00	0	37	104	0	66	21209
2026-01-19 03:40:54.46	21.06	17.93	-48.0	-62.8	3.8	1.49e+00	0	37	104	0	66	21233
2026-01-19 03:40:55.47	20.89	18.01	-48.0	-62.8	3.8	1.49e+00	0	37	104	0	66	21251
2026-01-19 03:40:56.48	20.71	18.09	-48.0	-62.8	3.8	1.49e+00	0	37	104	0	66	21222
2026-01-19 03:40:57.48	20.54	18.18	-48.0	-62.8	3.8	1.49e+00	0	37	104	0	66	21247
2026-01-19 03:40:58.49	20.37	18.26	-48.0	-62.9	3.8	1.49e+00	0	37	104	0	66	21272
2026-01-19 03:40:59.50	20.19	18.34	-48.0	-62.9	3.8	1.49e+00	0	37	104	0	66	21279
2026-01-19 03:41:00.51	20.02	18.43	-48.0	-62.8	3.8	1.49e+00	0	37	104	0	66	21239
2026-01-19 03:41:01.51	19.84	18.51	-48.0	-62.8	3.8	1.49e+00	0	37	104	0	66	21216
2026-01-19 03:41:02.52	19.67	18.59	-48.0	-62.8	3.8	1.49e+00	0	37	104	0	66	21201
2026-01-19 03:41:03.53	19.49	18.68	-48.0	-62.9	3.8	1.49e+00	0	37	104	0	66	21261
2026-01-19 03:41:04.54	19.31	18.76	-48.0	-62.9	3.8	1.49e+00	0	37	104	0	66	21284
2026-01-19 03:41:05.55	19.13	18.84	-48.0	-62.8	3.8	1.49e+00	0	37	104	0	66	21241
2026-01-19 03:41:06.55	18.95	18.92	-48.0	-62.8	3.8	1.49e+00	0	37	104	0	66	21246
2026-01-19 03:41:07.56	18.76	19.01	-48.0	-62.8	3.8	1.49e+00	0	37	104	0	66	21245
2026-01-19 03:41:08.57	18.58	19.09	-48.0	-62.9	3.8	1.49e+00	0	37	104	0	66	21273
2026-01-19 03:41:09.58	18.40	19.17	-48.0	-62.8	3.8	1.49e+00	0	37	104	0	66	21252
2026-01-19 03:41:10.59	18.21	19.26	-48.0	-62.9	3.8	1.49e+00	0	37	104	0	66	21279
2026-01-19 03:41:11.59	18.03	19.34	-48.0	-62.9	3.8	1.49e+00	0	37	104	0	66	21269
2026-01-19 03:41:12.60	17.84	19.42	-48.0	-62.9	3.8	1.49e+00	0	37	104	0	66	21300
2026-01-19 03:41:13.61	17.65	19.51	-48.0	-62.8	3.8	1.49e+00	0	37	104	0	66	21249
2026-01-19 03:41:14.62	17.46	19.59	-48.0	-62.8	3.8	1.49e+00	0	37	104	0	66	21255
2026-01-19 03:41:15.63	17.27	19.67	-48.0	-62.9	3.8	1.49e+00	0	37	104	0	66	21289
2026-01-19 03:41:16.64	17.08	19.76	-48.0	-62.9	3.8	1.49e+00	0	37	104	0	66	21270
2026-01-19 03:41:17.64	16.89	19.84	-48.0	-62.9	3.8	1.49e+00	0	37	104	0	66	21303
2026-01-19 03:41:18.65	16.69	19.92	-48.0	-62.8	3.8	1.49e+00	0	37	104	0	66	21254
2026-01-19 03:41:19.66	16.50	20.00	-48.0	-62.8	3.8	1.49e+00	0	37	104	0	66	21234
2026-01-19 03:41:20.67	16.30	20.09	-48.0	-62.8	3.8	1.49e+00	0	37	104	0	66	21245
2026-01-19 03:41:21.68	16.10	20.17	-48.0	-62.9	3.8	1.49e+00	0	37	104	0	66	21301
2026-01-19 03:41:22.68	15.91	20.25	-48.0	-62.9	3.8	1.49e+00	0	37	104	0	66	21274
2026-01-19 03:41:23.69	15.71	20.33	-48.0	-62.9	3.8	1.49e+00	0	37	104	0	66	21266
2026-01-19 03:41:24.70	15.51	20.42	-48.0	-62.9	3.8	1.49e+00	0	37	104	0	66	21282
2026-01-19 03:41:25.71	15.31	20.50	-48.0	-62.9	3.8	1.49e+00	0	37	104	0	66	21280
2026-01-19 03:41:26.72	15.10	20.58	-48.0	-62.8	3.8	1.49e+00	0	37	104	0	66	21255
2026-01-19 03:41:27.72	14.90	20.66	-48.0	-62.8	3.8	1.49e+00	0	37	104	0	66	21253
2026-01-19 03:41:28.73	14.70	20.74	-48.0	-62.9	3.8	1.49e+00	0	37	104	0	66	21261
2026-01-19 03:41:29.74	14.49	20.82	-48.0	-62.8	3.8	1.49e+00	0	37	104	0	66	21256
2026-01-19 03:41:30.74	14.29	20.91	-48.0	-62.9	3.8	1.49e+00	0	37	104	0	66	21274
2026-01-19 03:41:31.75	14.08	20.99	-48.0	-62.8	3.8	1.49e+00	0	37	104	0	66	21228
2026-01-19 03:41:32.76	13.87	21.07	-48.0	-62.9	3.8	1.49e+00	0	37	104	0	66	21278
2026-01-19 03:41:33.77	13.66	21.15	-48.0	-62.9	3.8	1.49e+00	0	37	104	0	66	21269
2026-01-19 03:41:34.78	13.45	21.23	-48.0	-62.9	3.8	1.49e+00	0	37	104	0	66	21293
2026-01-19 03:41:35.79	13.23	21.31	-48.0	-62.8	3.8	1.49e+00	0	37	104	0	66	21202
2026-01-19 03:41:36.80	13.02	21.39	-48.0	-62.8	3.8	1.49e+00	0	37	104	0	66	21243
2026-01-19 03:41:37.80	12.81	21.47	-48.0	-62.8	3.8	1.49e+00	0	37	104	0	66	21235
2026-01-19 03:41:38.81	12.59	21.55	-48.0	-62.9	3.8	1.49e+00	0	37	104	0	66	21273
2026-01-19 03:41:39.82	12.37	21.63	-48.0	-62.9	3.8	1.49e+00	0	37	104	0	66	21321
2026-01-19 03:41:40.83	12.15	21.71	-48.0	-62.8	3.8	1.49e+00	0	37	104	0	66	21209
2026-01-19 03:41:41.84	11.94	21.79	-48.0	-62.8	3.8	1.49e+00	0	37	104	0	66	21244
2026-01-19 03:41:42.84	11.72	21.87	-48.0	-62.9	3.8	1.49e+00	0	37	104	0	66	21272
2026-01-19 03:41:43.85	11.50	21.95	-48.0	-62.8	3.8	1.49e+00	0	37	104	0	66	21244
2026-01-19 03:41:44.86	11.27	22.03	-48.0	-62.9	3.8	1.49e+00	0	37	104	0	66	21281
2026-01-19 03:41:45.87	11.05	22.11	-48.0	-62.8	3.8	1.49e+00	0	37	104	0	66	21217
2026-01-19 03:41:46.88	10.82	22.19	-48.0	-62.9	3.8	1.49e+00	0	37	104	0	66	21340
2026-01-19 03:41:47.88	10.60	22.26	-48.0	-62.9	3.8	1.49e+00	0	37	104	0	66	21299
2026-01-19 03:41:48.89	10.37	22.34	-48.0	-62.9	3.8	1.49e+00	0	37	104	0	66	21299
2026-01-19 03:41:49.90	10.14	22.42	-48.0	-62.9	3.8	1.49e+00	0	37	104	0	66	21271
2026-01-19 03:41:50.91	9.91	22.50	-48.0	-62.8	3.8	1.49e+00	0	37	104	0	66	21254
2026-01-19 03:41:51.92	9.68	22.58	-48.0	-62.9	3.8	1.49e+00	0	37	104	0	66	21312
2026-01-19 03:41:52.92	9.45	22.65	-48.0	-62.8	3.8	1.49e+00	0	37	104	0	66	21225
2026-01-19 03:41:53.93	9.22	22.73	-48.0	-62.9	3.8	1.49e+00	0	37	104	0	66	21283
2026-01-19 03:41:54.94	8.98	22.81	-48.0	-62.9	3.8	1.49e+00	0	37	104	0	66	21272
2026-01-19 03:41:55.95	8.75	22.88	-48.0	-62.8	3.8	1.49e+00	0	37	104	0	66	21236
2026-01-19 03:41:56.95	8.51	22.96	-48.0	-62.9	3.8	1.49e+00	0	37	104	0	66	21298
2026-01-19 03:41:57.96	8.28	23.03	-48.0	-62.8	3.8	1.49e+00	0	37	104	0	66	21228
2026-01-19 03:41:58.97	8.04	23.11	-48.0	-62.9	3.8	1.49e+00	0	37	104	0	66	21261
2026-01-19 03:41:59.98	7.80	23.18	-48.0	-62.9	3.8	1.49e+00	0	37	104	0	66	21292
2026-01-19 03:42:00.99	7.55	23.26	-48.0	-62.9	3.8	1.49e+00	0	37	104	0	66	21286
2026-01-19 03:42:01.99	7.31	23.33	-48.0	-62.8	3.8	1.49e+00	0	37	104	0	66	21257
2026-01-19 03:42:03.00	7.07	23.41	-48.0	-62.9	3.8	1.49e+00	0	37	104	0	66	21270
2026-01-19 03:42:04.01	6.83	23.48	-48.0	-62.8	3.8	1.49e+00	0	37	104	0	66	21231
2026-01-19 03:42:05.02	6.58	23.55	-48.0	-62.9	3.8	1.49e+00	0	37	104	0	66	21303
2026-01-19 03:42:06.02	6.33	23.63	-48.0	-62.8	3.8	1.49e+00	0	37	104	0	66	21253
2026-01-19 03:42:07.03	6.09	23.70	-48.0	-62.9	3.8	1.49e+00	0	37	104	0	66	21303
2026-01-19 03:42:08.04	5.84	23.77	-48.0	-62.9	3.8	1.49e+00	0	37	104	0	66	21262
2026-01-19 03:42:09.05	5.59	23.84	-48.0	-62.9	3.8	1.49e+00	0	37	104	0	66	21292
2026-01-19 03:42:10.06	5.33	23.91	-48.0	-62.8	3.8	1.49e+00	0	37	104	0	66	21203
2026-01-19 03:42:11.06	5.08	23.98	-48.0	-62.9	3.8	1.49e+00	0	37	104	0	66	21304
2026-01-19 03:42:12.07	4.83	24.05	-48.0	-62.9	3.8	1.49e+00	0	37	104	0	66	21281
2026-01-19 03:42:13.08	4.57	24.12	-48.0	-62.9	3.8	1.49e+00	0	37	104	0	66	21305
2026-01-19 03:42:14.09	4.32	24.19	-48.0	-62.9	3.8	1.49e+00	0	37	104	0	66	21289
2026-01-19 03:42:15.10	4.06	24.26	-48.0	-62.9	3.8	1.49e+00	0	37	104	0	66	21353
2026-01-19 03:42:16.10	3.80	24.33	-48.0	-62.9	3.8	1.49e+00	0	37	104	0	66	21301
2026-01-19 03:42:17.11	3.54	24.40	-48.0	-62.9	3.8	1.49e+00	0	37	104	0	66	21301
2026-01-19 03:42:18.12	3.28	24.47	-48.0	-62.9	3.8	1.49e+00	0	37	104	0	66	21304
2026-01-19 03:42:19.13	3.02	24.54	-48.0	-62.9	3.8	1.49e+00	0	37	104	0	66	21276
2026-01-19 03:42:20.14	2.76	24.60	-48.0	-62.8	3.8	1.49e+00	0	37	104	0	66	21232
2026-01-19 03:42:21.14	2.49	24.67	-48.0	-62.9	3.8	1.49e+00	0	37	104	0	66	21274
2026-01-19 03:42:22.15	2.23	24.73	-48.0	-62.9	3.8	1.49e+00	0	37	104	0	66	21282
2026-01-19 03:42:23.16	1.96	24.80	-48.0	-62.9	3.8	1.49e+00	0	37	104	0	66	21265
2026-01-19 03:42:24.17	1.69	24.86	-48.0	-62.9	3.8	1.49e+00	0	37	104	0	66	21263
2026-01-19 03:42:25.18	1.43	24.93	-48.0	-62.9	3.8	1.49e+00	0	37	104	0	66	21308
2026-01-19 03:42:26.18	1.16	24.99	-48.0	-62.9	3.8	1.49e+00	0	37	104	0	66	21294
2026-01-19 03:42:27.19	0.89	25.06	-48.0	-62.9	3.8	1.49e+00	0	37	104	0	66	21289
2026-01-19 03:42:28.20	0.61	25.12	-48.0	-62.9	3.8	1.49e+00	0	37	104	0	66	21270
2026-01-19 03:42:29.21	0.34	25.18	-48.0	-62.9	3.8	1.49e+00	0	37	104	0	66	21262
2026-01-19 03:42:30.21	0.07	25.24	-48.0	-62.8	3.8	1.49e+00	0	37	104	0	66	21260
2026-01-19 03:42:31.22	359.79	25.30	-48.0	-62.9	3.8	1.49e+00	0	37	104	0	66	21266
2026-01-19 03:42:32.23	359.52	25.36	-48.0	-62.9	3.8	1.49e+00	0	37	104	0	66	21277
2026-01-19 03:42:33.24	359.24	25.42	-48.0	-62.9	3.8	1.49e+00	0	37	104	0	66	21261
2026-01-19 03:42:34.25	358.96	25.48	-48.0	-62.9	3.8	1.49e+00	0	37	104	0	66	21284
2026-01-19 03:42:35.25	358.68	25.54	-48.0	-62.8	3.8	1.49e+00	0	37	104	0	66	21259
2026-01-19 03:42:36.26	358.40	25.60	-48.0	-62.9	3.8	1.49e+00	0	37	104	0	66	21324
2026-01-19 03:42:37.27	358.12	25.66	-48.0	-62.9	3.8	1.49e+00	0	37	104	0	66	21306
2026-01-19 03:42:38.28	357.84	25.71	-48.0	-62.9	3.8	1.49e+00	0	37	104	0	66	21286
2026-01-19 03:42:39.28	357.56	25.77	-48.0	-62.9	3.8	1.49e+00	0	37	104	0	66	21277
2026-01-19 03:42:40.29	357.27	25.82	-48.0	-62.9	3.8	1.49e+00	0	37	104	0	66	21328
2026-01-19 03:42:41.30	356.99	25.88	-48.0	-62.8	3.8	1.49e+00	0	37	104	0	66	21250
2026-01-19 03:42:42.31	356.70	25.93	-48.0	-62.8	3.8	1.49e+00	0	37	104	0	66	21259
2026-01-19 03:42:43.32	356.41	25.99	-48.0	-62.9	3.8	1.49e+00	0	37	104	0	66	21296
2026-01-19 03:42:44.32	356.13	26.04	-48.0	-62.9	3.8	1.49e+00	0	37	104	0	66	21288
2026-01-19 03:42:45.33	355.84	26.09	-48.0	-62.9	3.8	1.49e+00	0	37	104	0	66	21313
2026-01-19 03:42:46.34	355.54	26.14	-48.0	-62.8	3.8	1.49e+00	0	37	104	0	66	21241
2026-01-19 03:42:47.35	355.25	26.19	-48.0	-62.8	3.8	1.49e+00	0	37	104	0	66	21260
2026-01-19 03:42:48.36	354.96	26.24	-48.0	-62.9	3.8	1.49e+00	0	37	104	0	66	21264
2026-01-19 03:42:49.36	354.67	26.29	-48.0	-62.9	3.8	1.49e+00	0	37	104	0	66	21266
2026-01-19 03:42:50.37	354.38	26.34	-48.0	-62.9	3.8	1.49e+00	0	37	104	0	66	21299
2026-01-19 03:42:51.38	354.08	26.39	-48.0	-62.9	3.8	1.49e+00	0	37	104	0	66	21294
2026-01-19 03:42:52.39	353.78	26.43	-48.0	-62.8	3.8	1.49e+00	0	37	104	0	66	21232
2026-01-19 03:42:53.40	353.49	26.48	-48.0	-62.9	3.8	1.49e+00	0	37	104	0	66	21261
2026-01-19 03:42:54.40	353.19	26.52	-48.0	-62.9	3.8	1.49e+00	0	37	104	0	66	21266
2026-01-19 03:42:55.41	352.89	26.57	-48.0	-62.9	3.8	1.49e+00	0	37	104	0	66	21301
2026-01-19 03:42:56.42	352.59	26.61	-48.0	-62.9	3.8	1.49e+00	0	37	104	0	66	21300
2026-01-19 03:42:57.43	352.29	26.65	-48.0	-62.8	3.8	1.49e+00	0	37	104	0	66	21245
2026-01-19 03:42:58.44	351.99	26.70	-48.0	-62.9	3.8	1.49e+00	0	37	104	0	66	21304
2026-01-19 03:42:59.44	351.69	26.74	-48.0	-62.9	3.8	1.49e+00	0	37	104	0	66	21263
2026-01-19 03:43:00.45	351.39	26.78	-48.0	-62.9	3.8	1.49e+00	0	37	104	0	66	21268
2026-01-19 03:43:01.46	351.09	26.82	-48.0	-62.9	3.8	1.49e+00	0	37	104	0	66	21265
2026-01-19 03:43:02.47	350.78	26.86	-48.0	-62.9	3.8	1.49e+00	0	37	104	0	66	21325
2026-01-19 03:43:03.48	350.48	26.89	-48.0	-62.9	3.8	1.49e+00	0	37	104	0	66	21316
2026-01-19 03:43:04.48	350.17	26.93	-48.0	-62.9	3.8	1.49e+00	0	37	104	0	66	21313
2026-01-19 03:43:05.49	349.87	26.97	-48.0	-62.9	3.8	1.49e+00	0	37	104	0	66	21295
2026-01-19 03:43:06.50	349.56	27.00	-48.0	-62.9	3.8	1.49e+00	0	37	104	0	66	21271
2026-01-19 03:43:07.51	349.25	27.04	-48.0	-62.9	3.8	1.49e+00	0	37	104	0	66	21286
2026-01-19 03:43:08.51	348.95	27.07	-48.0	-62.8	3.8	1.49e+00	0	37	104	0	66	21228
2026-01-19 03:43:09.52	348.64	27.10	-48.0	-62.9	3.8	1.49e+00	0	37	104	0	66	21313
2026-01-19 03:43:10.53	348.33	27.14	-48.0	-62.9	3.8	1.49e+00	0	37	104	0	66	21298
2026-01-19 03:43:11.54	348.02	27.17	-48.0	-62.9	3.8	1.49e+00	0	37	104	0	66	21272
2026-01-19 03:43:12.55	347.71	27.20	-48.0	-62.9	3.8	1.49e+00	0	37	104	0	66	21286
2026-01-19 03:43:13.56	347.39	27.23	-48.0	-62.8	3.8	1.49e+00	0	37	104	0	66	21238
2026-01-19 03:43:14.56	347.08	27.25	-48.0	-62.9	3.8	1.49e+00	0	37	104	0	66	21282
2026-01-19 03:43:15.57	346.77	27.28	-48.0	-62.9	3.8	1.49e+00	0	37	104	0	66	21314
2026-01-19 03:43:16.58	346.46	27.31	-48.0	-62.9	3.8	1.49e+00	0	37	104	0	66	21309
2026-01-19 03:43:17.58	346.15	27.33	-48.0	-62.9	3.8	1.49e+00	0	37	104	0	66	21275
2026-01-19 03:43:18.59	345.83	27.36	-48.0	-62.8	3.8	1.49e+00	0	37	104	0	66	21217
2026-01-19 03:43:19.60	345.52	27.38	-48.0	-62.8	3.8	1.49e+00	0	37	104	0	66	21256
2026-01-19 03:43:20.61	345.20	27.40	-48.0	-62.9	3.8	1.49e+00	0	37	104	0	66	21314
2026-01-19 03:43:21.62	344.89	27.43	-48.0	-62.9	3.8	1.49e+00	0	37	104	0	66	21277
2026-01-19 03:43:22.62	344.57	27.45	-48.0	-62.9	3.8	1.49e+00	0	37	104	0	66	21299
2026-01-19 03:43:23.63	344.26	27.47	-48.0	-62.9	3.8	1.49e+00	0	37	104	0	66	21305
2026-01-19 03:43:24.64	343.94	27.49	-48.0	-62.8	3.8	1.49e+00	0	37	104	0	66	21253
2026-01-19 03:43:25.65	343.62	27.50	-48.0	-62.9	3.8	1.49e+00	0	37	104	0	66	21326
2026-01-19 03:43:26.66	343.31	27.52	-48.0	-62.9	3.8	1.49e+00	0	37	104	0	66	21261
2026-01-19 03:43:27.66	342.99	27.54	-48.0	-62.9	3.8	1.49e+00	0	37	104	0	66	21286
2026-01-19 03:43:28.67	342.67	27.55	-48.0	-62.9	3.8	1.49e+00	0	37	104	0	66	21292
2026-01-19 03:43:29.68	342.35	27.57	-48.0	-62.9	3.8	1.49e+00	0	37	104	0	66	21267
2026-01-19 03:43:30.69	342.03	27.58	-48.0	-62.9	3.8	1.49e+00	0	37	104	0	66	21319
2026-01-19 03:43:31.69	341.72	27.59	-48.0	-62.9	3.8	1.49e+00	0	37	104	0	66	21282
2026-01-19 03:43:32.70	341.40	27.60	-48.0	-62.9	3.8	1.49e+00	0	37	104	0	66	21287
2026-01-19 03:43:33.71	341.08	27.61	-48.0	-62.9	3.8	1.49e+00	0	37	104	0	66	21267
2026-01-19 03:43:34.72	340.76	27.62	-48.0	-62.9	3.8	1.49e+00	0	37	104	0	66	21334
2026-01-19 03:43:35.73	340.44	27.63	-48.0	-62.9	3.8	1.49e+00	0	37	104	0	66	21275
2026-01-19 03:43:36.74	340.12	27.64	-48.0	-62.9	3.8	1.49e+00	0	37	104	0	66	21280
2026-01-19 03:43:37.74	339.80	27.64	-48.0	-62.9	3.8	1.49e+00	0	37	104	0	66	21296
2026-01-19 03:43:38.75	339.48	27.65	-48.0	-62.9	3.8	1.49e+00	0	37	104	0	66	21322
2026-01-19 03:43:39.76	339.16	27.65	-48.0	-62.9	3.8	1.49e+00	0	37	104	0	66	21313
2026-01-19 03:43:40.77	338.84	27.66	-48.0	-62.9	3.8	1.49e+00	0	37	104	0	66	21265
2026-01-19 03:43:41.78	338.52	27.66	-48.0	-62.9	3.8	1.49e+00	0	37	104	0	66	21269
2026-01-19 03:43:42.79	338.20	27.66	-48.0	-62.9	3.8	1.49e+00	0	37	104	0	66	21325
2026-01-19 03:43:43.80	337.88	27.66	-48.0	-62.9	3.8	1.49e+00	0	37	104	0	66	21283
2026-01-19 03:43:44.80	337.56	27.66	-48.0	-62.9	3.8	1.49e+00	0	37	104	0	66	21261
2026-01-19 03:43:45.81	337.24	27.66	-48.0	-62.9	3.8	1.49e+00	0	37	104	0	66	21278
2026-01-19 03:43:46.82	336.92	27.65	-48.0	-62.9	3.8	1.49e+00	0	37	104	0	66	21325
2026-01-19 03:43:47.83	336.60	27.65	-48.0	-62.9	3.8	1.49e+00	0	37	104	0	66	21322
2026-01-19 03:43:48.84	336.28	27.65	-48.0	-62.9	3.8	1.49e+00	0	37	104	0	66	21313
2026-01-19 03:43:49.84	335.96	27.64	-48.0	-62.8	3.8	1.49e+00	0	37	104	0	66	21254
2026-01-19 03:43:50.85	335.64	27.63	-48.0	-62.8	3.8	1.49e+00	0	37	104	0	66	21239
2026-01-19 03:43:51.86	335.32	27.63	-48.0	-62.9	3.8	1.49e+00	0	37	104	0	66	21307
2026-01-19 03:43:52.87	335.00	27.62	-48.0	-62.9	3.8	1.49e+00	0	37	104	0	66	21302
2026-01-19 03:43:53.88	334.68	27.61	-48.0	-62.9	3.8	1.49e+00	0	37	104	0	66	21292
2026-01-19 03:43:54.88	334.37	27.60	-48.0	-62.9	3.8	1.49e+00	0	37	104	0	66	21287
2026-01-19 03:43:55.89	334.05	27.59	-48.0	-62.9	3.8	1.49e+00	0	37	104	0	66	21267
2026-01-19 03:43:56.90	333.73	27.57	-48.0	-62.9	3.8	1.49e+00	0	37	104	0	66	21298
2026-01-19 03:43:57.91	333.41	27.56	-48.0	-62.9	3.8	1.49e+00	0	37	104	0	66	21336
2026-01-19 03:43:58.91	333.09	27.54	-48.0	-62.9	3.8	1.49e+00	0	37	104	0	66	21346
2026-01-19 03:43:59.92	332.77	27.53	-48.0	-62.9	3.8	1.49e+00	0	37	104	0	66	21318
2026-01-19 03:44:00.93	332.46	27.51	-48.0	-62.8	3.8	1.49e+00	0	37	104	0	66	21256
2026-01-19 03:44:01.94	332.14	27.49	-48.0	-62.9	3.8	1.49e+00	0	37	104	0	66	21278
2026-01-19 03:44:02.95	331.82	27.48	-48.0	-62.9	3.8	1.49e+00	0	37	104	0	66	21324
2026-01-19 03:44:03.96	331.51	27.46	-48.0	-62.9	3.8	1.49e+00	0	37	104	0	66	21272
2026-01-19 03:44:04.96	331.19	27.44	-48.0	-62.9	3.8	1.49e+00	0	37	104	0	66	21343
2026-01-19 03:44:05.97	330.88	27.42	-48.0	-62.9	3.8	1.49e+00	0	37	104	0	66	21315
2026-01-19 03:44:06.98	330.56	27.39	-48.0	-62.9	3.8	1.49e+00	0	37	104	0	66	21289
2026-01-19 03:44:07.99	330.24	27.37	-48.0	-62.9	3.8	1.49e+00	0	37	104	0	66	21316
2026-01-19 03:44:08.99	329.93	27.35	-48.0	-62.9	3.8	1.49e+00	0	37	104	0	66	21329
2026-01-19 03:44:10.00	329.62	27.32	-48.0	-62.8	3.8	1.49e+00	0	37	104	0	66	21251
2026-01-19 03:44:11.01	329.31	27.30	-48.0	-62.9	3.8	1.49e+00	0	37	104	0	66	21311
2026-01-19 03:44:12.02	328.99	27.27	-48.0	-62.9	3.8	1.49e+00	0	37	104	0	66	21326
2026-01-19 03:44:13.03	328.68	27.24	-48.0	-62.9	3.8	1.49e+00	0	37	104	0	66	21298
2026-01-19 03:44:14.04	328.37	27.21	-48.0	-62.9	3.8	1.49e+00	0	37	104	0	66	21304
2026-01-19 03:44:15.04	328.06	27.18	-48.0	-62.8	3.8	1.49e+00	0	37	104	0	66	21257
2026-01-19 03:44:16.05	327.75	27.15	-48.0	-62.9	3.8	1.49e+00	0	37	104	0	66	21326
2026-01-19 03:44:17.06	327.44	27.12	-48.0	-62.9	3.8	1.49e+00	0	37	104	0	66	21308
2026-01-19 03:44:18.07	327.13	27.09	-48.0	-62.9	3.8	1.49e+00	0	37	104	0	66	21295
2026-01-19 03:44:19.08	326.82	27.05	-48.0	-62.9	3.8	1.49e+00	0	37	104	0	66	21322
2026-01-19 03:44:20.09	326.51	27.02	-48.0	-62.9	3.8	1.49e+00	0	37	104	0	66	21287
2026-01-19 03:44:21.09	326.21	26.99	-48.0	-62.9	3.8	1.49e+00	0	37	104	0	66	21304
2026-01-19 03:44:22.10	325.90	26.95	-48.0	-62.9	3.8	1.49e+00	0	37	104	0	66	21292
2026-01-19 03:44:23.11	325.59	26.91	-48.0	-62.9	3.8	1.49e+00	0	37	104	0	66	21320
2026-01-19 03:44:24.12	325.29	26.88	-48.0	-62.9	3.8	1.49e+00	0	37	104	0	66	21309
2026-01-19 03:44:25.12	324.98	26.84	-48.0	-62.9	3.8	1.49e+00	0	37	104	0	66	21294
2026-01-19 03:44:26.13	324.68	26.80	-48.0	-62.9	3.8	1.49e+00	0	37	104	0	66	21305
2026-01-19 03:44:27.14	324.38	26.76	-48.0	-62.9	3.8	1.49e+00	0	37	104	0	66	21304
2026-01-19 03:44:28.15	324.07	26.72	-48.0	-62.9	3.8	1.49e+00	0	37	104	0	66	21324
2026-01-19 03:44:29.16	323.77	26.68	-48.0	-62.9	3.8	1.49e+00	0	37	104	0	66	21309
2026-01-19 03:44:30.16	323.47	26.63	-48.0	-62.9	3.8	1.49e+00	0	37	104	0	66	21295
2026-01-19 03:44:31.17	323.17	26.59	-48.0	-62.9	3.8	1.49e+00	0	37	104	0	66	21338
2026-01-19 03:44:32.18	322.87	26.55	-48.0	-62.9	3.8	1.49e+00	0	37	104	0	66	21312
2026-01-19 03:44:33.19	322.58	26.50	-48.0	-62.9	3.8	1.49e+00	0	37	104	0	66	21351
2026-01-19 03:44:34.19	322.28	26.46	-48.0	-62.8	3.8	1.49e+00	0	37	104	0	66	21235
2026-01-19 03:44:35.20	321.98	26.41	-48.0	-62.9	3.8	1.49e+00	0	37	104	0	66	21367
2026-01-19 03:44:36.21	321.69	26.36	-48.0	-62.8	3.8	1.49e+00	0	37	104	0	66	21258
2026-01-19 03:44:37.22	321.39	26.31	-48.0	-62.9	3.8	1.49e+00	0	37	104	0	66	21314
2026-01-19 03:44:38.23	321.10	26.27	-48.0	-62.9	3.8	1.49e+00	0	37	104	0	66	21315
2026-01-19 03:44:39.24	320.81	26.22	-48.0	-62.9	3.8	1.49e+00	0	37	104	0	66	21299
2026-01-19 03:44:40.24	320.52	26.17	-48.0	-62.9	3.8	1.49e+00	0	37	104	0	66	21320
2026-01-19 03:44:41.25	320.23	26.12	-48.0	-62.9	3.8	1.49e+00	0	37	104	0	66	21327
2026-01-19 03:44:42.26	319.93	26.06	-48.0	-62.9	3.8	1.49e+00	0	37	104	0	66	21273
2026-01-19 03:44:43.27	319.65	26.01	-48.0	-62.9	3.8	1.49e+00	0	37	104	0	66	21287
2026-01-19 03:44:44.27	319.36	25.96	-48.0	-62.9	3.8	1.49e+00	0	37	104	0	66	21291
2026-01-19 03:44:45.28	319.07	25.90	-48.0	-62.9	3.8	1.49e+00	0	37	104	0	66	21328
2026-01-19 03:44:46.29	318.79	25.85	-48.0	-62.9	3.8	1.49e+00	0	37	104	0	66	21294
2026-01-19 03:44:47.30	318.50	25.80	-48.0	-62.9	3.8	1.49e+00	0	37	104	0	66	21311
2026-01-19 03:44:48.31	318.21	25.74	-48.0	-62.9	3.8	1.49e+00	0	37	104	0	66	21317
2026-01-19 03:44:49.32	317.93	25.68	-48.0	-62.9	3.8	1.49e+00	0	37	104	0	66	21284
2026-01-19 03:44:50.32	317.65	25.63	-48.0	-62.8	3.8	1.49e+00	0	37	104	0	66	21245
2026-01-19 03:44:51.33	317.37	25.57	-48.0	-62.9	3.8	1.49e+00	0	37	104	0	66	21296
2026-01-19 03:44:52.34	317.09	25.51	-48.0	-62.9	3.8	1.49e+00	0	37	104	0	66	21311
2026-01-19 03:44:53.35	316.81	25.45	-48.0	-62.9	3.8	1.49e+00	0	37	104	0	66	21313
2026-01-19 03:44:54.36	316.53	25.39	-48.0	-62.9	3.8	1.49e+00	0	37	104	0	66	21306
2026-01-19 03:44:55.36	316.26	25.33	-48.0	-62.9	3.8	1.49e+00	0	37	104	0	66	21316
2026-01-19 03:44:56.37	315.98	25.27	-48.0	-62.9	3.8	1.49e+00	0	37	104	0	66	21293
2026-01-19 03:44:57.38	315.71	25.21	-48.0	-62.9	3.8	1.49e+00	0	37	104	0	66	21268
2026-01-19 03:44:58.39	315.43	25.15	-48.0	-62.9	3.8	1.49e+00	0	37	104	0	66	21301
2026-01-19 03:44:59.40	315.16	25.09	-48.0	-62.9	3.8	1.49e+00	0	37	104	0	66	21316
2026-01-19 03:45:00.40	314.89	25.02	-48.0	-62.9	3.8	1.49e+00	0	37	104	0	66	21305
2026-01-19 03:45:01.41	314.62	24.96	-48.0	-62.9	3.8	1.49e+00	0	37	104	0	66	21301
2026-01-19 03:45:02.42	314.35	24.90	-48.0	-62.9	3.8	1.49e+00	0	37	104	0	66	21360
2026-01-19 03:45:03.43	314.08	24.83	-48.0	-62.9	3.8	1.49e+00	0	37	104	0	66	21374
2026-01-19 03:45:04.44	313.81	24.77	-48.0	-62.9	3.8	1.49e+00	0	37	104	0	66	21292
2026-01-19 03:45:05.44	313.55	24.70	-48.0	-62.9	3.8	1.49e+00	0	37	104	0	66	21355
2026-01-19 03:45:06.45	313.28	24.63	-48.0	-62.9	3.8	1.49e+00	0	37	104	0	66	21317
2026-01-19 03:45:07.46	313.02	24.57	-48.0	-62.9	3.8	1.49e+00	0	37	104	0	66	21337
2026-01-19 03:45:08.47	312.76	24.50	-48.0	-62.9	3.8	1.49e+00	0	37	104	0	66	21319
2026-01-19 03:45:09.48	312.49	24.43	-48.0	-62.9	3.8	1.49e+00	0	37	104	0	66	21304
2026-01-19 03:45:10.49	312.23	24.36	-48.0	-62.9	3.8	1.49e+00	0	37	104	0	66	21277
2026-01-19 03:45:11.50	311.97	24.30	-48.0	-62.9	3.8	1.49e+00	0	37	104	0	66	21279
2026-01-19 03:45:12.51	311.71	24.23	-48.0	-62.9	3.8	1.49e+00	0	37	104	0	66	21300
2026-01-19 03:45:13.52	311.46	24.16	-48.0	-62.9	3.8	1.49e+00	0	37	104	0	66	21326
2026-01-19 03:45:14.52	311.20	24.09	-48.0	-62.9	3.8	1.49e+00	0	37	104	0	66	21279
2026-01-19 03:45:15.53	310.95	24.02	-48.0	-62.9	3.8	1.49e+00	0	37	104	0	66	21292
2026-01-19 03:45:16.54	310.69	23.95	-48.0	-62.9	3.8	1.49e+00	0	37	104	0	66	21267
2026-01-19 03:45:17.55	310.44	23.88	-48.0	-62.9	3.8	1.49e+00	0	37	104	0	66	21292
2026-01-19 03:45:18.56	310.19	23.80	-48.0	-62.9	3.8	1.49e+00	0	37	104	0	66	21327
2026-01-19 03:45:19.56	309.94	23.73	-48.0	-62.9	3.8	1.49e+00	0	37	104	0	66	21273
2026-01-19 03:45:20.57	309.69	23.66	-48.0	-62.9	3.8	1.49e+00	0	37	104	0	66	21321
2026-01-19 03:45:21.58	309.44	23.59	-48.0	-62.9	3.8	1.49e+00	0	37	104	0	66	21271
2026-01-19 03:45:22.59	309.20	23.51	-48.0	-62.9	3.8	1.49e+00	0	37	104	0	66	21296
2026-01-19 03:45:23.60	308.95	23.44	-48.0	-62.9	3.8	1.49e+00	0	37	104	0	66	21332
2026-01-19 03:45:24.60	308.71	23.37	-48.0	-62.9	3.8	1.49e+00	0	37	104	0	66	21300
2026-01-19 03:45:25.61	308.47	23.29	-48.0	-62.9	3.8	1.49e+00	0	37	104	0	66	21328
2026-01-19 03:45:26.62	308.22	23.22	-48.0	-62.8	3.8	1.49e+00	0	37	104	0	66	21260
2026-01-19 03:45:27.63	307.98	23.14	-48.0	-62.8	3.8	1.49e+00	0	37	104	0	66	21255
2026-01-19 03:45:28.64	307.74	23.07	-48.0	-62.9	3.8	1.49e+00	0	37	104	0	66	21312
2026-01-19 03:45:29.65	307.50	22.99	-48.0	-62.9	3.8	1.49e+00	0	37	104	0	66	21301
2026-01-19 03:45:30.66	307.27	22.92	-48.0	-62.9	3.8	1.49e+00	0	37	104	0	66	21290
2026-01-19 03:45:31.67	307.03	22.84	-48.0	-62.9	3.8	1.49e+00	0	37	104	0	66	21286
2026-01-19 03:45:32.68	306.79	22.76	-48.0	-62.9	3.8	1.49e+00	0	37	104	0	66	21305
2026-01-19 03:45:33.68	306.56	22.69	-48.0	-62.9	3.8	1.49e+00	0	37	104	0	66	21284
2026-01-19 03:45:34.69	306.33	22.61	-48.0	-62.9	3.8	1.49e+00	0	37	104	0	66	21339
2026-01-19 03:45:35.70	306.10	22.53	-48.0	-62.9	3.8	1.49e+00	0	37	104	0	66	21298
2026-01-19 03:45:36.71	305.87	22.45	-48.0	-62.9	3.8	1.49e+00	0	37	104	0	66	21328
2026-01-19 03:45:37.72	305.64	22.38	-48.0	-62.8	3.8	1.49e+00	0	37	104	0	66	21240
2026-01-19 03:45:38.72	305.41	22.30	-48.0	-62.9	3.8	1.49e+00	0	37	104	0	66	21287
2026-01-19 03:45:39.73	305.18	22.22	-48.0	-62.9	3.8	1.49e+00	0	37	104	0	66	21297
2026-01-19 03:45:40.74	304.96	22.14	-48.0	-62.8	3.8	1.49e+00	0	37	104	0	66	21259
2026-01-19 03:45:41.75	304.73	22.06	-48.0	-62.9	3.8	1.49e+00	0	37	104	0	66	21306
2026-01-19 03:45:42.76	304.51	21.98	-48.0	-62.9	3.8	1.49e+00	0	37	104	0	66	21327
2026-01-19 03:45:43.76	304.29	21.91	-48.0	-62.9	3.8	1.49e+00	0	37	104	0	66	21284
2026-01-19 03:45:44.77	304.07	21.83	-48.0	-62.9	3.8	1.49e+00	0	37	104	0	66	21354
2026-01-19 03:45:45.78	303.85	21.75	-48.0	-62.9	3.8	1.49e+00	0	37	104	0	66	21290
2026-01-19 03:45:46.79	303.63	21.67	-48.0	-62.9	3.8	1.49e+00	0	37	104	0	66	21273
2026-01-19 03:45:47.80	303.41	21.59	-48.0	-62.9	3.8	1.49e+00	0	37	104	0	66	21322
2026-01-19 03:45:48.80	303.19	21.51	-48.0	-62.9	3.8	1.49e+00	0	37	104	0	66	21308
2026-01-19 03:45:49.81	302.98	21.43	-48.0	-62.9	3.8	1.49e+00	0	37	104	0	66	21343
2026-01-19 03:45:50.82	302.76	21.35	-48.0	-62.9	3.8	1.49e+00	0	37	104	0	66	21322
2026-01-19 03:45:51.83	302.55	21.26	-48.0	-62.9	3.8	1.49e+00	0	37	104	0	66	21316
2026-01-19 03:45:52.84	302.34	21.18	-48.0	-62.9	3.8	1.49e+00	0	37	104	0	66	21307
2026-01-19 03:45:53.85	302.13	21.10	-48.0	-62.9	3.8	1.49e+00	0	37	104	0	66	21331
2026-01-19 03:45:54.86	301.92	21.02	-48.0	-62.9	3.8	1.49e+00	0	37	104	0	66	21321
2026-01-19 03:45:55.86	301.71	20.94	-48.0	-62.8	3.8	1.49e+00	0	37	104	0	66	21240
2026-01-19 03:45:56.87	301.50	20.86	-48.0	-62.9	3.8	1.49e+00	0	37	104	0	66	21292
2026-01-19 03:45:57.88	301.30	20.78	-48.0	-62.9	3.8	1.49e+00	0	37	104	0	66	21335
2026-01-19 03:45:58.89	301.09	20.69	-48.0	-62.9	3.8	1.49e+00	0	37	104	0	66	21283
2026-01-19 03:45:59.90	300.89	20.61	-48.0	-62.9	3.8	1.49e+00	0	37	104	0	66	21335
2026-01-19 03:46:00.90	300.68	20.53	-48.0	-62.9	3.8	1.49e+00	0	37	104	0	66	21344
2026-01-19 03:46:01.91	300.48	20.45	-48.0	-62.9	3.8	1.49e+00	0	37	104	0	66	21306
2026-01-19 03:46:02.92	300.28	20.37	-48.0	-62.9	3.8	1.49e+00	0	37	104	0	66	21315
2026-01-19 03:46:03.93	300.08	20.28	-48.0	-62.9	3.8	1.49e+00	0	37	104	0	66	21332
2026-01-19 03:46:04.94	299.88	20.20	-48.0	-62.9	3.8	1.49e+00	0	37	104	0	66	21299
2026-01-19 03:46:05.95	299.68	20.12	-48.0	-62.9	3.8	1.49e+00	0	37	104	0	66	21289
2026-01-19 03:46:06.96	299.49	20.04	-48.0	-62.9	3.8	1.49e+00	0	37	104	0	66	21307
2026-01-19 03:46:07.97	299.29	19.95	-48.0	-62.9	3.8	1.49e+00	0	37	104	0	66	21271
2026-01-19 03:46:08.98	299.10	19.87	-48.0	-62.9	3.8	1.49e+00	0	37	104	0	66	21303
2026-01-19 03:46:09.99	298.90	19.79	-48.0	-62.9	3.8	1.49e+00	0	37	104	0	66	21347
2026-01-19 03:46:11.00	298.71	19.70	-48.0	-62.9	3.8	1.49e+00	0	37	104	0	66	21321
2026-01-19 03:46:12.00	298.52	19.62	-48.0	-62.9	3.8	1.49e+00	0	37	104	0	66	21301
2026-01-19 03:46:13.01	298.33	19.54	-48.0	-62.9	3.8	1.49e+00	0	37	104	0	66	21312
2026-01-19 03:46:14.02	298.14	19.46	-48.0	-62.9	3.8	1.49e+00	0	37	104	0	66	21312
2026-01-19 03:46:15.03	297.95	19.37	-48.0	-62.9	3.8	1.49e+00	0	37	104	0	66	21308
2026-01-19 03:46:16.04	297.76	19.29	-48.0	-62.9	3.8	1.49e+00	0	37	104	0	66	21305
2026-01-19 03:46:17.04	297.58	19.21	-48.0	-62.9	3.8	1.49e+00	0	37	104	0	66	21329
2026-01-19 03:46:18.05	297.39	19.12	-48.0	-62.9	3.8	1.49e+00	0	37	104	0	66	21261
2026-01-19 03:46:19.06	297.21	19.04	-48.0	-62.9	3.8	1.49e+00	0	37	104	0	66	21341
2026-01-19 03:46:20.06	297.03	18.96	-48.0	-62.9	3.8	1.49e+00	0	37	104	0	66	21339
2026-01-19 03:46:21.07	296.84	18.87	-48.0	-62.9	3.8	1.49e+00	0	37	104	0	66	21317
2026-01-19 03:46:22.08	296.66	18.79	-48.0	-62.9	3.8	1.49e+00	0	37	104	0	66	21302
2026-01-19 03:46:23.09	296.48	18.71	-48.0	-62.9	3.8	1.49e+00	0	37	104	0	66	21360
2026-01-19 03:46:24.10	296.30	18.62	-48.0	-62.9	3.8	1.49e+00	0	37	104	0	66	21285
2026-01-19 03:46:25.10	296.13	18.54	-48.0	-62.9	3.8	1.49e+00	0	37	104	0	66	21340
2026-01-19 03:46:26.11	295.95	18.46	-48.0	-62.9	3.8	1.49e+00	0	37	104	0	66	21306
2026-01-19 03:46:27.12	295.77	18.37	-48.0	-62.9	3.8	1.49e+00	0	37	104	0	66	21309
2026-01-19 03:46:28.13	295.60	18.29	-48.0	-62.9	3.8	1.49e+00	0	37	104	0	66	21306
2026-01-19 03:46:29.14	295.42	18.21	-48.0	-62.8	3.8	1.49e+00	0	37	104	0	66	21254
2026-01-19 03:46:30.14	295.25	18.12	-48.0	-62.9	3.8	1.49e+00	0	37	104	0	66	21318
2026-01-19 03:46:31.15	295.08	18.04	-48.0	-62.9	3.8	1.49e+00	0	37	104	0	66	21326
2026-01-19 03:46:32.16	294.91	17.96	-48.0	-62.9	3.8	1.49e+00	0	37	104	0	66	21315
2026-01-19 03:46:33.17	294.74	17.87	-48.0	-62.9	3.8	1.49e+00	0	37	104	0	66	21302
2026-01-19 03:46:34.18	294.57	17.79	-48.0	-62.9	3.8	1.49e+00	0	37	104	0	66	21271
2026-01-19 03:46:35.19	294.40	17.71	-48.0	-62.9	3.8	1.49e+00	0	37	104	0	66	21351
2026-01-19 03:46:36.20	294.23	17.62	-48.0	-62.9	3.8	1.49e+00	0	37	104	0	66	21280
2026-01-19 03:46:37.20	294.07	17.54	-48.0	-62.9	3.8	1.49e+00	0	37	104	0	66	21313
2026-01-19 03:46:38.21	293.90	17.46	-48.0	-62.9	3.8	1.49e+00	0	37	104	0	66	21312
2026-01-19 03:46:39.22	293.73	17.37	-48.0	-62.9	3.8	1.49e+00	0	37	104	0	66	21282
2026-01-19 03:46:40.23	293.57	17.29	-48.0	-62.9	3.8	1.49e+00	0	37	104	0	66	21341
2026-01-19 03:46:41.24	293.41	17.21	-48.0	-62.9	3.8	1.49e+00	0	37	104	0	66	21332
2026-01-19 03:46:42.24	293.25	17.12	-48.0	-62.9	3.8	1.49e+00	0	37	104	0	66	21274
2026-01-19 03:46:43.25	293.09	17.04	-48.0	-62.9	3.8	1.49e+00	0	37	104	0	66	21284
2026-01-19 03:46:44.26	292.92	16.96	-48.0	-62.9	3.8	1.49e+00	0	37	104	0	66	21280
2026-01-19 03:46:45.27	292.77	16.87	-48.0	-62.9	3.8	1.49e+00	0	37	104	0	66	21324
2026-01-19 03:46:46.27	292.61	16.79	-48.0	-62.9	3.8	1.49e+00	0	37	104	0	66	21267
2026-01-19 03:46:47.28	292.45	16.71	-48.0	-62.9	3.8	1.49e+00	0	37	104	0	66	21329
2026-01-19 03:46:48.29	292.29	16.63	-48.0	-62.8	3.8	1.49e+00	0	37	104	0	66	21258
2026-01-19 03:46:49.30	292.14	16.54	-48.0	-62.9	3.8	1.49e+00	0	37	104	0	66	21277
2026-01-19 03:46:50.31	291.98	16.46	-48.0	-62.8	3.8	1.49e+00	0	37	104	0	66	21254
2026-01-19 03:46:51.32	291.83	16.38	-48.0	-62.9	3.8	1.49e+00	0	37	104	0	66	21313
2026-01-19 03:46:52.33	291.68	16.30	-48.0	-62.9	3.8	1.49e+00	0	37	104	0	66	21329
2026-01-19 03:46:53.34	291.52	16.21	-48.0	-62.9	3.8	1.49e+00	0	37	104	0	66	21346
2026-01-19 03:46:54.35	291.37	16.13	-48.0	-62.9	3.8	1.49e+00	0	37	104	0	66	21272
2026-01-19 03:46:55.35	291.22	16.05	-48.0	-62.9	3.8	1.49e+00	0	37	104	0	66	21299
2026-01-19 03:46:56.36	291.07	15.97	-48.0	-62.9	3.8	1.49e+00	0	37	104	0	66	21294
2026-01-19 03:46:57.37	290.92	15.88	-48.0	-62.9	3.8	1.49e+00	0	37	104	0	66	21302
2026-01-19 03:46:58.38	290.77	15.80	-48.0	-62.9	3.8	1.49e+00	0	37	104	0	66	21305
2026-01-19 03:46:59.38	290.63	15.72	-48.0	-62.9	3.8	1.49e+00	0	37	104	0	66	21273
2026-01-19 03:47:00.39	290.48	15.64	-48.0	-62.9	3.8	1.49e+00	0	37	104	0	66	21349
2026-01-19 03:47:01.40	290.34	15.56	-48.0	-62.9	3.8	1.49e+00	0	37	104	0	66	21270
2026-01-19 03:47:02.41	290.19	15.47	-48.0	-62.9	3.8	1.49e+00	0	37	104	0	66	21327
2026-01-19 03:47:03.41	290.05	15.39	-48.0	-62.9	3.8	1.49e+00	0	37	104	0	66	21323
2026-01-19 03:47:04.42	289.90	15.31	-48.0	-62.8	3.8	1.49e+00	0	37	104	0	66	21260
2026-01-19 03:47:05.43	289.76	15.23	-48.0	-62.9	3.8	1.49e+00	0	37	104	0	66	21274
2026-01-19 03:47:06.44	289.62	15.15	-48.0	-62.9	3.8	1.49e+00	0	37	104	0	66	21265
2026-01-19 03:47:07.44	289.48	15.07	-48.0	-62.9	3.8	1.49e+00	0	37	104	0	66	21316
2026-01-19 03:47:08.45	289.34	14.99	-48.0	-62.9	3.8	1.49e+00	0	37	104	0	66	21322
2026-01-19 03:47:09.46	289.20	14.91	-48.0	-62.9	3.8	1.49e+00	0	37	104	0	66	21278
2026-01-19 03:47:10.47	289.06	14.82	-48.0	-62.9	3.8	1.49e+00	0	37	104	0	66	21294
2026-01-19 03:47:11.47	288.92	14.74	-48.0	-62.9	3.8	1.49e+00	0	37	104	0	66	21283
2026-01-19 03:47:12.48	288.79	14.66	-48.0	-62.9	3.8	1.49e+00	0	37	104	0	66	21333
2026-01-19 03:47:13.49	288.65	14.58	-48.0	-62.9	3.8	1.49e+00	0	37	104	0	66	21302
2026-01-19 03:47:14.50	288.52	14.50	-48.0	-62.9	3.8	1.49e+00	0	37	104	0	66	21291
2026-01-19 03:47:15.51	288.38	14.42	-48.0	-62.9	3.8	1.49e+00	0	37	104	0	66	21290
2026-01-19 03:47:16.52	288.25	14.34	-48.0	-62.9	3.8	1.49e+00	0	37	104	0	66	21264
2026-01-19 03:47:17.52	288.11	14.26	-48.0	-62.9	3.8	1.49e+00	0	37	104	0	66	21303
2026-01-19 03:47:18.53	287.98	14.18	-48.0	-62.8	3.8	1.49e+00	0	37	104	0	66	21247
2026-01-19 03:47:19.54	287.85	14.10	-48.0	-62.9	3.8	1.49e+00	0	37	104	0	66	21329
2026-01-19 03:47:20.55	287.72	14.02	-48.0	-62.9	3.8	1.49e+00	0	37	104	0	66	21323
2026-01-19 03:47:21.56	287.59	13.94	-48.0	-62.9	3.8	1.49e+00	0	37	104	0	66	21351
2026-01-19 03:47:22.56	287.46	13.86	-48.0	-62.9	3.8	1.49e+00	0	37	104	0	66	21287
2026-01-19 03:47:23.57	287.33	13.78	-48.0	-62.9	3.8	1.49e+00	0	37	104	0	66	21309
2026-01-19 03:47:24.58	287.20	13.70	-48.0	-62.9	3.8	1.49e+00	0	37	104	0	66	21268
2026-01-19 03:47:25.59	287.07	13.62	-48.0	-62.9	3.8	1.49e+00	0	37	104	0	66	21309
2026-01-19 03:47:26.60	286.95	13.54	-48.0	-62.9	3.8	1.49e+00	0	37	104	0	66	21271
2026-01-19 03:47:27.60	286.82	13.46	-48.0	-62.8	3.8	1.49e+00	0	37	104	0	66	21249
2026-01-19 03:47:28.61	286.70	13.38	-48.0	-62.9	3.8	1.49e+00	0	37	104	0	66	21333
2026-01-19 03:47:29.62	286.57	13.31	-48.0	-62.9	3.8	1.49e+00	0	37	104	0	66	21289
2026-01-19 03:47:30.63	286.45	13.23	-48.0	-62.9	3.8	1.49e+00	0	37	104	0	66	21342
2026-01-19 03:47:31.63	286.32	13.15	-48.0	-62.9	3.8	1.49e+00	0	37	104	0	66	21287
2026-01-19 03:47:32.64	286.20	13.07	-48.0	-62.9	3.8	1.49e+00	0	37	104	0	66	21332
2026-01-19 03:47:33.65	286.08	12.99	-48.0	-62.9	3.8	1.49e+00	0	37	104	0	66	21330
2026-01-19 03:47:34.66	285.96	12.91	-48.0	-62.9	3.8	1.49e+00	0	37	104	0	66	21281
2026-01-19 03:47:35.67	285.84	12.83	-48.0	-62.9	3.8	1.49e+00	0	37	104	0	66	21298
2026-01-19 03:47:36.68	285.72	12.76	-48.0	-62.9	3.8	1.49e+00	0	37	104	0	66	21296
2026-01-19 03:47:37.68	285.60	12.68	-48.0	-62.9	3.8	1.49e+00	0	37	104	0	66	21261
2026-01-19 03:47:38.69	285.48	12.60	-48.0	-62.9	3.8	1.49e+00	0	37	104	0	66	21342
2026-01-19 03:47:39.70	285.36	12.52	-48.0	-62.8	3.8	1.49e+00	0	37	104	0	66	21237
2026-01-19 03:47:40.71	285.24	12.45	-48.0	-62.8	3.8	1.49e+00	0	37	104	0	66	21225
2026-01-19 03:47:41.72	285.12	12.37	-48.0	-62.9	3.8	1.49e+00	0	37	104	0	66	21320
2026-01-19 03:47:42.72	285.01	12.29	-48.0	-62.9	3.8	1.49e+00	0	37	104	0	66	21343
2026-01-19 03:47:43.73	284.89	12.21	-48.0	-62.9	3.8	1.49e+00	0	37	104	0	66	21326
2026-01-19 03:47:44.74	284.78	12.14	-48.0	-62.9	3.8	1.49e+00	0	37	104	0	66	21280
2026-01-19 03:47:45.75	284.66	12.06	-48.0	-62.9	3.8	1.49e+00	0	37	104	0	66	21326
2026-01-19 03:47:46.76	284.55	11.98	-48.0	-62.9	3.8	1.49e+00	0	37	104	0	66	21315
2026-01-19 03:47:47.76	284.44	11.91	-48.0	-62.9	3.8	1.49e+00	0	37	104	0	66	21280
2026-01-19 03:47:48.77	284.32	11.83	-48.0	-62.9	3.8	1.49e+00	0	37	104	0	66	21281
2026-01-19 03:47:49.78	284.21	11.75	-48.0	-62.9	3.8	1.49e+00	0	37	104	0	66	21290
2026-01-19 03:47:50.79	284.10	11.68	-48.0	-62.9	3.8	1.49e+00	0	37	104	0	66	21283
2026-01-19 03:47:51.80	283.99	11.60	-48.0	-62.9	3.8	1.49e+00	0	37	104	0	66	21321
2026-01-19 03:47:52.80	283.88	11.53	-48.0	-62.9	3.8	1.49e+00	0	37	104	0	66	21320
2026-01-19 03:47:53.81	283.77	11.45	-48.0	-62.9	3.8	1.49e+00	0	37	104	0	66	21325
2026-01-19 03:47:54.82	283.66	11.37	-48.0	-62.9	3.8	1.49e+00	0	37	104	0	66	21311
2026-01-19 03:47:55.83	283.55	11.30	-48.0	-62.9	3.8	1.49e+00	0	37	104	0	66	21278
2026-01-19 03:47:56.84	283.44	11.22	-48.0	-62.8	3.8	1.49e+00	0	37	104	0	66	21257
2026-01-19 03:47:57.84	283.34	11.15	-48.0	-62.9	3.8	1.49e+00	0	37	104	0	66	21315
2026-01-19 03:47:58.85	283.23	11.07	-48.0	-62.9	3.8	1.49e+00	0	37	104	0	66	21270
2026-01-19 03:47:59.86	283.12	11.00	-48.0	-62.8	3.8	1.49e+00	0	37	104	0	66	21256
2026-01-19 03:48:00.87	283.02	10.92	-48.0	-62.9	3.8	1.49e+00	0	37	104	0	66	21296
2026-01-19 03:48:01.88	282.91	10.85	-48.0	-62.9	3.8	1.49e+00	0	37	104	0	66	21277
2026-01-19 03:48:02.88	282.81	10.77	-48.0	-62.9	3.8	1.49e+00	0	37	104	0	66	21295
2026-01-19 03:48:03.89	282.71	10.70	-48.0	-62.9	3.8	1.49e+00	0	37	104	0	66	21323
2026-01-19 03:48:04.90	282.60	10.62	-48.0	-62.9	3.8	1.49e+00	0	37	104	0	66	21273
2026-01-19 03:48:05.91	282.50	10.55	-48.0	-62.9	3.8	1.49e+00	0	37	104	0	66	21294
2026-01-19 03:48:06.92	282.40	10.47	-48.0	-62.9	3.8	1.49e+00	0	37	104	0	66	21276
2026-01-19 03:48:07.92	282.30	10.40	-48.0	-62.8	3.8	1.49e+00	0	37	104	0	66	21247
2026-01-19 03:48:08.93	282.19	10.33	-48.0	-62.9	3.8	1.49e+00	0	37	104	0	66	21325
2026-01-19 03:48:09.94	282.09	10.25	-48.0	-62.9	3.8	1.49e+00	0	37	104	0	66	21314
2026-01-19 03:48:10.95	281.99	10.18	-48.0	-62.9	3.8	1.49e+00	0	37	104	0	66	21286
2026-01-19 03:48:11.96	281.89	10.10	-48.0	-62.9	3.8	1.49e+00	0	37	104	0	66	21332
2026-01-19 03:48:12.97	281.79	10.03	-48.0	-62.9	3.8	1.49e+00	0	37	104	0	66	21312
2026-01-19 03:48:13.98	281.69	9.96	-48.0	-62.9	3.8	1.49e+00	0	37	104	0	66	21279
2026-01-19 03:48:14.99	281.60	9.88	-48.0	-62.9	3.8	1.49e+00	0	37	104	0	66	21264
2026-01-19 03:48:16.00	281.50	9.81	-48.0	-62.9	3.8	1.49e+00	0	37	104	0	66	21336
2026-01-19 03:48:17.01	281.40	9.74	-48.0	-62.9	3.8	1.49e+00	0	37	104	0	66	21273
2026-01-19 03:48:18.02	281.30	9.67	-48.0	-62.9	3.8	1.49e+00	0	37	104	0	66	21262
2026-01-19 03:48:19.02	281.21	9.59	-48.0	-62.9	3.8	1.49e+00	0	37	104	0	66	21311
2026-01-19 03:48:20.03	281.11	9.52	-48.0	-62.9	3.8	1.49e+00	0	37	104	0	66	21265
2026-01-19 03:48:21.04	281.02	9.45	-48.0	-62.8	3.8	1.49e+00	0	37	104	0	66	21230
2026-01-19 03:48:22.05	280.92	9.38	-48.0	-62.9	3.8	1.49e+00	0	37	104	0	66	21317
2026-01-19 03:48:23.06	280.83	9.30	-48.0	-62.9	3.8	1.49e+00	0	37	104	0	66	21294
2026-01-19 03:48:24.06	280.73	9.23	-48.0	-62.9	3.8	1.49e+00	0	37	104	0	66	21271
2026-01-19 03:48:25.07	280.64	9.16	-48.0	-62.8	3.8	1.49e+00	0	37	104	0	66	21253
2026-01-19 03:48:26.08	280.55	9.09	-48.0	-62.9	3.8	1.49e+00	0	37	104	0	66	21294
2026-01-19 03:48:27.08	280.46	9.02	-48.0	-62.8	3.8	1.49e+00	0	37	104	0	66	21244
2026-01-19 03:48:28.09	280.36	8.95	-48.0	-62.9	3.8	1.49e+00	0	37	104	0	66	21292
2026-01-19 03:48:29.10	280.27	8.87	-48.0	-62.9	3.8	1.49e+00	0	37	104	0	66	21296
2026-01-19 03:48:30.11	280.18	8.80	-48.0	-62.9	3.8	1.49e+00	0	37	104	0	66	21273
2026-01-19 03:48:31.11	280.09	8.73	-48.0	-62.9	3.8	1.49e+00	0	37	104	0	66	21287
2026-01-19 03:48:32.12	280.00	8.66	-48.0	-62.9	3.8	1.49e+00	0	37	104	0	66	21261
2026-01-19 03:48:33.13	279.91	8.59	-48.0	-62.9	3.8	1.49e+00	0	37	104	0	66	21292
2026-01-19 03:48:34.14	279.82	8.52	-48.0	-62.9	3.8	1.49e+00	0	37	104	0	66	21274
2026-01-19 03:48:35.15	279.73	8.45	-48.0	-62.9	3.8	1.49e+00	0	37	104	0	66	21300
2026-01-19 03:48:36.16	279.65	8.38	-48.0	-62.9	3.8	1.49e+00	0	37	104	0	66	21312
2026-01-19 03:48:37.16	279.56	8.31	-48.0	-62.9	3.8	1.49e+00	0	37	104	0	66	21268
2026-01-19 03:48:38.17	279.47	8.24	-48.0	-62.9	3.8	1.49e+00	0	37	104	0	66	21296
2026-01-19 03:48:39.18	279.38	8.17	-48.0	-62.9	3.8	1.49e+00	0	37	104	0	66	21286
2026-01-19 03:48:40.19	279.30	8.10	-48.0	-62.9	3.8	1.49e+00	0	37	104	0	66	21293
2026-01-19 03:48:41.20	279.21	8.03	-48.0	-62.9	3.8	1.49e+00	0	37	104	0	66	21299
2026-01-19 03:48:42.20	279.13	7.96	-48.0	-62.9	3.8	1.49e+00	0	37	104	0	66	21271
2026-01-19 03:48:43.21	279.04	7.89	-48.0	-62.9	3.8	1.49e+00	0	37	104	0	66	21331
2026-01-19 03:48:44.22	278.95	7.82	-48.0	-62.9	3.8	1.49e+00	0	37	104	0	66	21293
2026-01-19 03:48:45.22	278.87	7.75	-48.0	-62.9	3.8	1.49e+00	0	37	104	0	66	21346
2026-01-19 03:48:46.23	278.79	7.68	-48.0	-62.9	3.8	1.49e+00	0	37	104	0	66	21273
2026-01-19 03:48:47.24	278.70	7.61	-48.0	-62.9	3.8	1.49e+00	0	37	104	0	66	21317
2026-01-19 03:48:48.25	278.62	7.55	-48.0	-62.9	3.8	1.49e+00	0	37	104	0	66	21261
2026-01-19 03:48:49.26	278.54	7.48	-48.0	-62.9	3.8	1.49e+00	0	37	104	0	66	21298
2026-01-19 03:48:50.26	278.46	7.41	-48.0	-62.9	3.8	1.49e+00	0	37	104	0	66	21347
2026-01-19 03:48:51.27	278.37	7.34	-48.0	-62.8	3.8	1.49e+00	0	38	104	0	66	21238
2026-01-19 03:48:52.28	278.29	7.27	-48.0	-62.9	3.8	1.49e+00	0	37	104	0	66	21280
2026-01-19 03:48:53.29	278.21	7.20	-48.0	-62.9	3.8	1.49e+00	0	37	104	0	66	21287
2026-01-19 03:48:54.30	278.13	7.13	-48.0	-62.9	3.8	1.49e+00	0	37	104	0	66	21311
2026-01-19 03:48:55.30	278.05	7.07	-48.0	-62.9	3.8	1.49e+00	0	38	104	0	66	21265
2026-01-19 03:48:56.31	277.97	7.00	-48.0	-62.8	3.8	1.49e+00	0	37	104	0	66	21243
2026-01-19 03:48:57.32	277.89	6.93	-48.0	-62.8	3.8	1.49e+00	0	37	104	0	66	21238
2026-01-19 03:48:58.33	277.81	6.86	-48.0	-62.9	3.8	1.49e+00	0	37	104	0	66	21286
2026-01-19 03:48:59.33	277.73	6.80	-48.0	-62.9	3.8	1.49e+00	0	37	104	0	66	21321
2026-01-19 03:49:00.34	277.65	6.73	-48.0	-62.9	3.8	1.49e+00	0	37	104	0	66	21320
2026-01-19 03:49:01.35	277.57	6.66	-48.0	-62.9	3.8	1.49e+00	0	37	104	0	66	21290
2026-01-19 03:49:02.36	277.50	6.60	-48.0	-62.8	3.8	1.49e+00	0	37	104	0	66	21212
2026-01-19 03:49:03.37	277.42	6.53	-48.0	-62.8	3.8	1.49e+00	0	37	104	0	66	21228
2026-01-19 03:49:04.38	277.34	6.46	-48.0	-62.9	3.8	1.49e+00	0	38	104	0	66	21283
2026-01-19 03:49:05.38	277.27	6.39	-48.0	-62.9	3.8	1.49e+00	0	37	104	0	66	21291
2026-01-19 03:49:06.39	277.19	6.33	-48.0	-62.9	3.8	1.49e+00	0	37	104	0	66	21287
2026-01-19 03:49:07.40	277.11	6.26	-48.0	-62.9	3.8	1.49e+00	0	38	104	0	66	21292
2026-01-19 03:49:08.41	277.04	6.19	-48.0	-62.8	3.8	1.49e+00	0	37	104	0	66	21224
2026-01-19 03:49:09.42	276.96	6.13	-48.0	-62.9	3.8	1.49e+00	0	37	104	0	66	21284
2026-01-19 03:49:10.43	276.89	6.06	-48.0	-62.8	3.8	1.49e+00	0	37	104	0	66	21253
2026-01-19 03:49:11.44	276.81	6.00	-48.0	-62.9	3.8	1.49e+00	0	38	104	0	66	21305
2026-01-19 03:49:12.44	276.74	5.93	-48.0	-62.9	3.8	1.49e+00	0	37	104	0	66	21326
2026-01-19 03:49:13.45	276.67	5.87	-48.0	-62.9	3.8	1.49e+00	0	37	104	0	66	21264
2026-01-19 03:49:14.46	276.59	5.80	-48.0	-62.8	3.8	1.49e+00	0	37	104	0	66	21228
2026-01-19 03:49:15.47	276.52	5.73	-48.0	-62.9	3.8	1.49e+00	0	37	104	0	66	21328
2026-01-19 03:49:16.47	276.45	5.67	-48.0	-62.9	3.8	1.49e+00	0	38	104	0	66	21266
2026-01-19 03:49:17.48	276.37	5.60	-48.0	-62.9	3.8	1.49e+00	0	38	104	0	66	21302
2026-01-19 03:49:18.49	276.30	5.54	-48.0	-62.9	3.8	1.49e+00	0	38	104	0	66	21266
2026-01-19 03:49:19.50	276.23	5.47	-48.0	-62.9	3.8	1.49e+00	0	38	104	0	66	21289
2026-01-19 03:49:20.51	276.16	5.41	-48.0	-62.9	3.8	1.49e+00	0	38	104	0	66	21283
2026-01-19 03:49:21.52	276.09	5.34	-48.0	-62.9	3.8	1.49e+00	0	38	104	0	66	21298
2026-01-19 03:49:22.52	276.02	5.28	-48.0	-62.8	3.8	1.49e+00	0	38	104	0	66	21253
2026-01-19 03:49:23.53	275.95	5.21	-48.0	-62.9	3.8	1.49e+00	0	38	104	0	66	21263
2026-01-19 03:49:24.54	275.88	5.15	-48.0	-62.9	3.8	1.49e+00	0	38	104	0	66	21266
2026-01-19 03:49:25.55	275.81	5.09	-48.0	-62.9	3.8	1.49e+00	0	38	104	0	66	21273
2026-01-19 03:49:26.56	275.74	5.02	-48.0	-62.9	3.8	1.49e+00	0	38	104	0	66	21283
2026-01-19 03:49:27.57	275.67	4.96	-48.0	-62.8	3.8	1.49e+00	0	38	104	0	66	21257
2026-01-19 03:49:28.58	275.60	4.89	-48.0	-62.9	3.8	1.49e+00	0	38	104	0	66	21269
2026-01-19 03:49:29.58	275.53	4.83	-48.0	-62.8	3.8	1.49e+00	0	37	104	0	66	21253
2026-01-19 03:49:30.59	275.46	4.77	-48.0	-62.8	3.8	1.49e+00	0	38	104	0	66	21252
2026-01-19 03:49:31.60	275.39	4.70	-48.0	-62.9	3.8	1.49e+00	0	38	104	0	66	21284
2026-01-19 03:49:32.61	275.33	4.64	-48.0	-62.8	3.8	1.49e+00	0	38	104	0	66	21256
2026-01-19 03:49:33.62	275.26	4.57	-48.0	-62.8	3.8	1.49e+00	0	38	104	0	66	21253
2026-01-19 03:49:34.62	275.19	4.51	-48.0	-62.8	3.8	1.49e+00	0	38	104	0	66	21254
2026-01-19 03:49:35.63	275.13	4.45	-48.0	-62.9	3.8	1.49e+00	0	38	104	0	66	21298
2026-01-19 03:49:36.64	275.06	4.38	-48.0	-62.9	3.8	1.49e+00	0	37	104	0	66	21294
2026-01-19 03:49:37.65	274.99	4.32	-48.0	-62.8	3.8	1.49e+00	0	38	104	0	66	21254
2026-01-19 03:49:38.65	274.93	4.26	-48.0	-62.8	3.8	1.49e+00	0	37	104	0	66	21245
