passes_logs/2026/01/19/R3.2S_Murmansk/R3.2S_Murmansk__20260119_230739_NOAA_21_JPSS-2_rec.log

#Pass ID: 20260119_230739_NOAA 21 (JPSS-2)
#Satellite: NOAA 21 (JPSS-2)
#Configuration: NOAA-21
#almurnet v.1.7.20251203
#Start time: 2026-01-19 23:07:38

#Version: 2.2.20231116
#Station: R3.2S_Murmansk
#Location: 33.079688 lon 68.888172 lat
#TLE: 1 54234U 22150A   26019.31231101  .00000073  00000+0  55355-4 0  9994
#TLE: 2 54234  98.7504 320.1599 0000604 258.3686 101.7423 14.19535697165426

#Time	Az	El	Level	Level2	SNR	BER	BlckErr	Temp	State	Recorded	gain1	gain2
2026-01-19 23:07:38.54	19.97	1.97	-52.2	-64.9	3.8	1.49e+00	0	37	0	0	76	15077
2026-01-19 23:07:39.51	20.02	2.02	-52.1	-64.8	3.8	1.49e+00	0	37	104	0	74	16868
2026-01-19 23:07:40.48	20.06	2.08	-52.1	-64.8	3.8	1.49e+00	0	37	104	0	74	16770
2026-01-19 23:07:41.45	20.11	2.14	-52.1	-64.8	3.8	1.49e+00	0	37	104	0	74	16838
2026-01-19 23:07:42.42	20.16	2.20	-52.1	-64.8	3.8	1.49e+00	0	37	104	0	74	16844
2026-01-19 23:07:43.39	20.20	2.26	-52.1	-64.8	3.8	1.49e+00	0	37	104	0	74	16883
2026-01-19 23:07:44.36	20.25	2.32	-52.1	-64.8	3.8	1.49e+00	0	37	104	0	74	16803
2026-01-19 23:07:45.33	20.30	2.37	-52.1	-64.8	3.8	1.49e+00	0	37	104	0	74	16728
2026-01-19 23:07:46.30	20.34	2.43	-52.1	-64.6	3.8	1.49e+00	0	37	104	0	74	16352
2026-01-19 23:07:47.27	20.39	2.49	-52.1	-64.3	3.8	1.49e+00	0	37	104	0	74	15885
2026-01-19 23:07:48.25	20.44	2.55	-52.1	-64.3	3.8	1.49e+00	0	37	104	0	74	15928
2026-01-19 23:07:49.22	20.48	2.61	-52.1	-63.9	3.8	1.49e+00	0	37	104	0	74	15126
2026-01-19 23:07:50.19	20.53	2.67	-52.0	-63.8	3.8	1.49e+00	0	37	104	0	74	14966
2026-01-19 23:07:51.16	20.58	2.73	-52.0	-63.9	3.8	1.49e+00	0	37	104	0	74	15126
2026-01-19 23:07:52.13	20.63	2.79	-52.0	-63.9	3.8	1.49e+00	0	37	104	0	74	15161
2026-01-19 23:07:53.10	20.68	2.85	-52.1	-64.0	3.8	1.49e+00	0	38	104	0	74	15306
2026-01-19 23:07:54.06	20.72	2.91	-52.0	-64.0	3.8	1.49e+00	0	38	104	0	74	15255
2026-01-19 23:07:55.03	20.77	2.97	-52.1	-64.1	3.8	1.49e+00	0	37	104	0	74	15428
2026-01-19 23:07:56.00	20.82	3.03	-52.1	-64.1	3.8	1.49e+00	0	38	104	0	74	15460
2026-01-19 23:07:56.97	20.87	3.09	-52.0	-64.0	3.8	1.49e+00	0	38	104	0	74	15261
2026-01-19 23:07:57.95	20.92	3.15	-52.0	-63.9	3.8	1.49e+00	0	38	104	0	74	15121
2026-01-19 23:07:58.92	20.97	3.21	-52.0	-63.6	3.8	1.49e+00	0	38	104	0	74	14560
2026-01-19 23:07:59.89	21.02	3.27	-51.9	-62.9	3.8	1.48e+00	0	38	104	0	74	13566
2026-01-19 23:08:00.86	21.07	3.33	-51.9	-62.7	3.8	1.48e+00	0	37	104	0	74	13259
2026-01-19 23:08:01.83	21.12	3.39	-51.9	-62.3	4.0	1.48e+00	0	38	104	0	74	12603
2026-01-19 23:08:02.80	21.17	3.45	-51.9	-61.8	4.1	1.48e+00	0	38	104	0	74	11903
2026-01-19 23:08:03.77	21.22	3.51	-51.8	-61.8	4.1	1.48e+00	0	37	104	0	74	11833
2026-01-19 23:08:04.74	21.27	3.57	-51.9	-62.0	4.0	1.47e+00	0	38	104	0	74	12098
2026-01-19 23:08:05.70	21.32	3.63	-51.9	-62.5	3.9	1.48e+00	0	38	104	0	74	12923
2026-01-19 23:08:06.67	21.37	3.69	-51.9	-62.3	4.0	1.49e+00	0	38	104	0	74	12622
2026-01-19 23:08:07.65	21.42	3.75	-51.9	-62.5	4.0	1.48e+00	0	38	104	0	74	12826
2026-01-19 23:08:08.62	21.47	3.82	-51.9	-62.4	4.0	1.48e+00	0	38	104	0	74	12689
2026-01-19 23:08:09.59	21.52	3.88	-51.8	-61.6	4.1	1.47e+00	0	38	104	0	74	11676
2026-01-19 23:08:10.56	21.57	3.94	-51.8	-61.0	4.3	1.45e+00	0	38	104	0	74	10812
2026-01-19 23:08:11.53	21.63	4.00	-51.6	-60.1	4.6	1.36e+00	2	38	104	0	74	9794
2026-01-19 23:08:12.50	21.68	4.06	-51.4	-59.0	5.2	6.68e-01	0	38	0	2097152	74	8615
2026-01-19 23:08:13.47	21.73	4.12	-51.3	-58.2	5.6	4.65e-01	0	38	0	5242880	74	7894
2026-01-19 23:08:14.43	21.78	4.19	-51.0	-57.0	6.6	2.33e-01	0	38	0	7340032	74	6867
2026-01-19 23:08:15.40	21.83	4.25	-50.8	-56.2	7.3	1.40e-01	0	38	0	10485760	73	6615
2026-01-19 23:08:16.37	21.89	4.31	-50.7	-55.9	7.6	1.06e-01	0	38	0	13631488	73	6395
2026-01-19 23:08:17.34	21.94	4.37	-50.5	-55.5	8.0	7.07e-02	0	38	0	16777216	73	6099
2026-01-19 23:08:18.31	21.99	4.44	-50.5	-55.5	8.0	6.46e-02	0	38	0	19922944	73	6094
2026-01-19 23:08:19.29	22.05	4.50	-50.5	-55.4	8.1	5.29e-02	0	38	0	23068672	72	6385
2026-01-19 23:08:20.25	22.10	4.56	-50.5	-55.3	8.2	7.98e-02	0	38	0	26214400	72	6301
2026-01-19 23:08:21.22	22.15	4.62	-50.6	-55.7	7.8	7.01e-02	0	38	0	29360128	72	6640
2026-01-19 23:08:22.19	22.21	4.69	-50.7	-56.0	7.6	9.34e-02	0	38	0	32505856	72	6819
2026-01-19 23:08:23.16	22.26	4.75	-50.8	-56.4	7.1	1.66e-01	0	38	0	35651584	72	7137
2026-01-19 23:08:24.13	22.31	4.81	-50.9	-56.9	6.7	1.65e-01	0	38	0	37748736	72	7590
2026-01-19 23:08:25.10	22.37	4.88	-51.0	-57.1	6.5	2.23e-01	0	38	0	40894464	72	7763
2026-01-19 23:08:26.07	22.42	4.94	-51.0	-56.9	6.7	1.79e-01	0	38	0	44040192	72	7603
2026-01-19 23:08:27.04	22.48	5.01	-51.2	-57.8	6.0	2.84e-01	0	38	0	47185920	72	8396
2026-01-19 23:08:28.02	22.53	5.07	-51.6	-60.6	4.0	1.22e+00	0	38	104	49283072	73	10974
2026-01-19 23:08:28.99	22.59	5.13	-50.7	-55.9	7.7	2.98e-01	0	38	0	50331648	73	6403
2026-01-19 23:08:29.96	22.65	5.20	-51.7	-61.2	4.0	5.15e-01	3	38	104	53477376	73	11809
2026-01-19 23:08:30.93	22.70	5.26	-51.8	-61.4	4.1	1.44e+00	0	38	104	53477376	74	11385
2026-01-19 23:08:31.90	22.76	5.33	-47.2	-49.0	14.7	3.38e-01	0	38	0	54525952	66	4338
2026-01-19 23:08:32.87	22.81	5.39	-46.4	-48.1	15.9	0.00e+00	0	38	0	57671680	64	4355
2026-01-19 23:08:33.84	22.87	5.46	-46.8	-48.5	15.4	0.00e+00	0	38	0	59768832	64	4598
2026-01-19 23:08:34.81	22.93	5.52	-46.5	-48.2	15.7	0.00e+00	0	38	0	62914560	64	4434
2026-01-19 23:08:35.78	22.98	5.59	-46.4	-48.0	16.0	0.00e+00	0	38	0	66060288	64	4319
2026-01-19 23:08:36.75	23.04	5.65	-46.5	-48.2	15.8	0.00e+00	0	38	0	69206016	64	4410
2026-01-19 23:08:37.72	23.10	5.72	-46.1	-47.6	16.4	0.00e+00	0	38	0	72351744	64	4136
2026-01-19 23:08:38.69	23.16	5.78	-46.0	-47.5	16.6	0.00e+00	0	38	0	75497472	63	4338
2026-01-19 23:08:39.66	23.21	5.85	-46.1	-47.6	16.5	0.00e+00	0	38	0	78643200	63	4350
2026-01-19 23:08:40.63	23.27	5.91	-46.1	-47.6	16.5	0.00e+00	0	38	0	80740352	63	4390
2026-01-19 23:08:41.61	23.33	5.98	-46.1	-47.6	16.5	0.00e+00	0	38	0	83886080	63	4365
2026-01-19 23:08:42.58	23.39	6.05	-45.8	-47.2	16.9	0.00e+00	0	38	0	87031808	63	4160
2026-01-19 23:08:43.55	23.45	6.11	-45.9	-47.3	16.9	0.00e+00	0	38	0	90177536	63	4226
2026-01-19 23:08:44.51	23.51	6.18	-45.8	-47.3	16.9	0.00e+00	0	38	0	93323264	63	4205
2026-01-19 23:08:45.48	23.57	6.24	-45.8	-47.2	17.0	0.00e+00	0	38	0	96468992	63	4162
2026-01-19 23:08:46.45	23.63	6.31	-45.8	-47.3	16.9	0.00e+00	0	38	0	99614720	63	4215
2026-01-19 23:08:47.42	23.69	6.38	-45.9	-47.3	16.9	0.00e+00	0	38	0	102760448	63	4236
2026-01-19 23:08:48.39	23.75	6.44	-45.7	-47.1	17.1	0.00e+00	0	38	0	105906176	63	4100
2026-01-19 23:08:49.36	23.81	6.51	-45.8	-47.3	17.0	0.00e+00	0	38	0	109051904	63	4194
2026-01-19 23:08:50.33	23.87	6.58	-45.9	-47.4	16.9	0.00e+00	0	38	0	111149056	63	4253
2026-01-19 23:08:51.30	23.93	6.65	-45.5	-46.8	17.4	0.00e+00	0	38	0	114294784	62	4232
2026-01-19 23:08:52.27	23.99	6.71	-46.1	-47.6	16.6	0.00e+00	0	38	0	117440512	62	4631
2026-01-19 23:08:53.24	24.05	6.78	-46.1	-47.6	16.6	0.00e+00	0	38	0	120586240	62	4643
2026-01-19 23:08:54.21	24.11	6.85	-45.3	-46.6	17.6	0.00e+00	0	38	0	123731968	62	4116
2026-01-19 23:08:55.18	24.18	6.92	-45.9	-47.4	16.9	0.00e+00	0	38	0	126877696	62	4515
2026-01-19 23:08:56.15	24.24	6.99	-45.7	-47.1	17.2	0.00e+00	0	38	0	130023424	62	4354
2026-01-19 23:08:57.13	24.30	7.05	-45.8	-47.2	17.0	0.00e+00	0	38	0	133169152	62	4429
2026-01-19 23:08:58.10	24.36	7.12	-45.6	-47.0	17.2	0.00e+00	0	38	0	136314880	62	4322
2026-01-19 23:08:59.07	24.43	7.19	-45.5	-46.9	17.4	0.00e+00	0	38	0	139460608	62	4250
2026-01-19 23:09:00.04	24.49	7.26	-45.6	-46.9	17.3	0.00e+00	0	38	0	141557760	62	4279
2026-01-19 23:09:01.01	24.55	7.33	-45.6	-46.9	17.3	0.00e+00	0	38	0	144703488	62	4279
2026-01-19 23:09:01.98	24.62	7.40	-45.5	-46.9	17.4	0.00e+00	0	38	0	147849216	62	4244
2026-01-19 23:09:02.95	24.68	7.47	-45.4	-46.8	17.5	0.00e+00	0	38	0	150994944	62	4197
2026-01-19 23:09:03.92	24.75	7.54	-45.3	-46.6	17.6	0.00e+00	0	38	0	154140672	62	4122
2026-01-19 23:09:04.89	24.81	7.61	-45.3	-46.6	17.7	0.00e+00	0	38	0	157286400	62	4126
2026-01-19 23:09:05.86	24.88	7.68	-45.4	-46.7	17.6	0.00e+00	0	38	0	160432128	62	4161
2026-01-19 23:09:06.83	24.94	7.75	-45.3	-46.5	17.7	0.00e+00	0	38	0	163577856	62	4090
2026-01-19 23:09:07.80	25.01	7.82	-45.2	-46.5	17.7	0.00e+00	0	38	0	166723584	62	4087
2026-01-19 23:09:08.77	25.07	7.89	-45.2	-46.5	17.8	0.00e+00	0	38	0	168820736	62	4075
2026-01-19 23:09:09.73	25.14	7.96	-45.5	-46.8	17.5	0.00e+00	0	38	0	171966464	62	4209
2026-01-19 23:09:10.70	25.21	8.03	-45.5	-46.8	17.5	0.00e+00	0	38	0	175112192	62	4233
2026-01-19 23:09:11.66	25.27	8.10	-45.3	-46.6	17.7	0.00e+00	0	38	0	178257920	62	4110
2026-01-19 23:09:12.63	25.34	8.17	-45.4	-46.7	17.7	0.00e+00	0	38	0	181403648	62	4154
2026-01-19 23:09:13.60	25.41	8.24	-45.3	-46.6	17.7	0.00e+00	0	38	0	184549376	62	4118
2026-01-19 23:09:14.57	25.47	8.31	-45.3	-46.6	17.7	0.00e+00	0	38	0	187695104	62	4137
2026-01-19 23:09:15.54	25.54	8.38	-45.1	-46.4	17.9	0.00e+00	0	38	0	190840832	62	4032
2026-01-19 23:09:16.51	25.61	8.45	-45.4	-46.8	17.6	0.00e+00	0	39	0	192937984	62	4205
2026-01-19 23:09:17.48	25.68	8.52	-45.3	-46.5	17.8	0.00e+00	0	38	0	196083712	62	4090
2026-01-19 23:09:18.45	25.75	8.60	-45.3	-46.6	17.7	0.00e+00	0	38	0	199229440	62	4145
2026-01-19 23:09:19.42	25.82	8.67	-45.4	-46.7	17.7	0.00e+00	0	38	0	202375168	62	4152
2026-01-19 23:09:20.39	25.89	8.74	-45.4	-46.8	17.6	0.00e+00	0	38	0	205520896	62	4196
2026-01-19 23:09:21.36	25.96	8.81	-45.5	-46.8	17.6	0.00e+00	0	38	0	208666624	62	4218
2026-01-19 23:09:22.33	26.03	8.88	-45.4	-46.8	17.6	0.00e+00	0	38	0	211812352	62	4199
2026-01-19 23:09:23.30	26.10	8.96	-45.3	-46.6	17.8	0.00e+00	0	38	0	214958080	62	4139
2026-01-19 23:09:24.27	26.17	9.03	-45.3	-46.6	17.8	0.00e+00	0	38	0	218103808	62	4115
2026-01-19 23:09:25.24	26.24	9.10	-45.3	-46.6	17.9	0.00e+00	0	38	0	221249536	62	4101
2026-01-19 23:09:26.22	26.31	9.18	-45.3	-46.6	17.9	0.00e+00	0	38	0	223346688	62	4099
2026-01-19 23:09:27.18	26.38	9.25	-45.4	-46.7	17.7	0.00e+00	0	38	0	226492416	62	4174
2026-01-19 23:09:28.16	26.46	9.32	-45.2	-46.4	18.0	0.00e+00	0	38	0	229638144	62	4045
2026-01-19 23:09:29.13	26.53	9.40	-45.2	-46.5	18.0	0.00e+00	0	38	0	232783872	62	4054
2026-01-19 23:09:30.10	26.60	9.47	-45.1	-46.3	18.1	0.00e+00	0	39	0	235929600	62	3977
2026-01-19 23:09:31.07	26.68	9.55	-45.2	-46.5	18.0	0.00e+00	0	39	0	239075328	62	4066
2026-01-19 23:09:32.04	26.75	9.62	-45.0	-46.3	18.1	0.00e+00	0	38	0	242221056	62	3970
2026-01-19 23:09:33.01	26.82	9.70	-45.1	-46.4	18.1	0.00e+00	0	38	0	245366784	62	4005
2026-01-19 23:09:33.98	26.90	9.77	-45.1	-46.4	18.0	0.00e+00	0	38	0	248512512	61	4267
2026-01-19 23:09:34.96	26.97	9.85	-45.3	-46.6	17.9	0.00e+00	0	38	0	251658240	61	4361
2026-01-19 23:09:35.93	27.05	9.92	-45.0	-46.2	18.2	0.00e+00	0	39	0	253755392	61	4184
2026-01-19 23:09:36.90	27.12	10.00	-45.0	-46.2	18.2	0.00e+00	0	39	0	256901120	61	4170
2026-01-19 23:09:37.87	27.20	10.07	-45.0	-46.3	18.2	0.00e+00	0	39	0	260046848	61	4210
2026-01-19 23:09:38.83	27.27	10.15	-44.9	-46.1	18.3	0.00e+00	0	38	0	263192576	61	4134
2026-01-19 23:09:39.80	27.35	10.22	-45.0	-46.2	18.3	0.00e+00	0	38	0	266338304	61	4165
2026-01-19 23:09:40.77	27.43	10.30	-44.9	-46.1	18.3	0.00e+00	0	38	0	269484032	61	4134
2026-01-19 23:09:41.74	27.51	10.37	-44.9	-46.0	18.4	0.00e+00	0	39	0	272629760	61	4096
2026-01-19 23:09:42.71	27.58	10.45	-44.9	-46.1	18.4	0.00e+00	0	39	0	275775488	61	4111
2026-01-19 23:09:43.68	27.66	10.53	-44.7	-45.8	18.6	0.00e+00	0	38	0	278921216	61	3990
2026-01-19 23:09:44.65	27.74	10.60	-44.8	-46.0	18.5	0.00e+00	0	38	0	281018368	61	4069
2026-01-19 23:09:45.62	27.82	10.68	-44.6	-45.8	18.7	0.00e+00	0	38	0	284164096	61	3978
2026-01-19 23:09:46.59	27.90	10.76	-44.7	-45.9	18.6	0.00e+00	0	39	0	287309824	61	4017
2026-01-19 23:09:47.56	27.98	10.84	-44.7	-45.9	18.6	0.00e+00	0	38	0	290455552	60	4245
2026-01-19 23:09:48.52	28.06	10.91	-44.6	-45.8	18.7	0.00e+00	0	38	0	293601280	60	4206
2026-01-19 23:09:49.49	28.14	10.99	-44.8	-46.0	18.5	0.00e+00	0	39	0	296747008	60	4310
2026-01-19 23:09:50.46	28.22	11.07	-44.6	-45.8	18.7	0.00e+00	0	38	0	299892736	60	4201
2026-01-19 23:09:51.43	28.30	11.15	-44.7	-45.8	18.7	0.00e+00	0	39	0	301989888	60	4228
2026-01-19 23:09:52.40	28.38	11.23	-44.6	-45.7	18.8	0.00e+00	0	39	0	305135616	60	4187
2026-01-19 23:09:53.37	28.46	11.30	-44.8	-45.9	18.6	0.00e+00	0	38	0	308281344	60	4289
2026-01-19 23:09:54.34	28.55	11.38	-44.6	-45.8	18.7	0.00e+00	0	39	0	311427072	60	4209
2026-01-19 23:09:55.31	28.63	11.46	-44.8	-45.9	18.6	0.00e+00	0	39	0	314572800	60	4277
2026-01-19 23:09:56.27	28.71	11.54	-44.5	-45.6	18.8	0.00e+00	0	39	0	317718528	60	4145
2026-01-19 23:09:57.24	28.79	11.62	-44.6	-45.7	18.8	0.00e+00	0	39	0	320864256	60	4174
2026-01-19 23:09:58.21	28.88	11.70	-44.6	-45.7	18.8	0.00e+00	0	38	0	324009984	60	4172
2026-01-19 23:09:59.18	28.96	11.78	-44.5	-45.6	18.9	0.00e+00	0	38	0	327155712	60	4131
2026-01-19 23:10:00.16	29.05	11.86	-44.6	-45.7	18.8	0.00e+00	0	39	0	330301440	60	4182
2026-01-19 23:10:01.12	29.13	11.94	-44.4	-45.5	19.0	0.00e+00	0	39	0	332398592	60	4085
2026-01-19 23:10:02.09	29.22	12.02	-44.4	-45.6	19.0	0.00e+00	0	38	0	335544320	60	4099
2026-01-19 23:10:03.06	29.31	12.10	-44.4	-45.5	19.0	0.00e+00	0	39	0	338690048	60	4096
2026-01-19 23:10:04.04	29.39	12.18	-44.3	-45.4	19.2	0.00e+00	0	39	0	341835776	60	4016
2026-01-19 23:10:05.01	29.48	12.26	-44.4	-45.5	19.1	0.00e+00	0	39	0	344981504	60	4071
2026-01-19 23:10:05.98	29.57	12.35	-44.5	-45.6	19.0	0.00e+00	0	39	0	348127232	60	4124
2026-01-19 23:10:06.94	29.66	12.43	-44.3	-45.4	19.2	0.00e+00	0	39	0	351272960	60	4029
2026-01-19 23:10:07.91	29.74	12.51	-44.4	-45.4	19.1	0.00e+00	0	39	0	354418688	60	4051
2026-01-19 23:10:08.88	29.83	12.59	-44.4	-45.5	19.1	0.00e+00	0	39	0	357564416	60	4075
2026-01-19 23:10:09.85	29.92	12.67	-44.4	-45.4	19.1	0.00e+00	0	39	0	360710144	60	4046
2026-01-19 23:10:10.81	30.01	12.75	-44.4	-45.5	19.1	0.00e+00	0	39	0	362807296	60	4069
2026-01-19 23:10:11.78	30.10	12.84	-44.4	-45.5	19.1	0.00e+00	0	39	0	365953024	60	4072
2026-01-19 23:10:12.75	30.19	12.92	-44.5	-45.7	18.9	0.00e+00	0	39	0	369098752	60	4157
2026-01-19 23:10:13.73	30.29	13.00	-44.5	-45.6	19.0	0.00e+00	0	39	0	372244480	60	4121
2026-01-19 23:10:14.69	30.38	13.09	-44.4	-45.5	19.1	0.00e+00	0	39	0	375390208	60	4096
2026-01-19 23:10:15.66	30.47	13.17	-44.3	-45.3	19.3	0.00e+00	0	38	0	378535936	60	3994
2026-01-19 23:10:16.63	30.56	13.25	-44.2	-45.3	19.3	0.00e+00	0	39	0	381681664	60	3976
2026-01-19 23:10:17.60	30.66	13.34	-44.2	-45.3	19.3	0.00e+00	0	39	0	384827392	60	3971
2026-01-19 23:10:18.57	30.75	13.42	-44.2	-45.2	19.4	0.00e+00	0	39	0	387973120	60	3958
2026-01-19 23:10:19.54	30.84	13.51	-44.3	-45.4	19.2	0.00e+00	0	39	0	390070272	60	4011
2026-01-19 23:10:20.51	30.94	13.59	-44.4	-45.5	19.2	0.00e+00	0	39	0	393216000	60	4054
2026-01-19 23:10:21.48	31.03	13.68	-44.1	-45.2	19.4	0.00e+00	0	39	0	396361728	60	3918
2026-01-19 23:10:22.45	31.13	13.76	-44.1	-45.1	19.4	0.00e+00	0	39	0	399507456	60	3903
2026-01-19 23:10:23.42	31.23	13.85	-44.1	-45.2	19.4	0.00e+00	0	38	0	402653184	60	3930
2026-01-19 23:10:24.39	31.32	13.93	-44.2	-45.2	19.3	0.00e+00	0	39	0	405798912	60	3955
2026-01-19 23:10:25.36	31.42	14.02	-44.1	-45.1	19.5	0.00e+00	0	39	0	408944640	60	3896
2026-01-19 23:10:26.33	31.52	14.10	-44.3	-45.3	19.6	0.00e+00	0	39	0	411041792	59	4222
2026-01-19 23:10:27.29	31.62	14.19	-44.3	-45.4	19.5	0.00e+00	0	39	0	414187520	59	4245
2026-01-19 23:10:28.26	31.72	14.28	-44.6	-45.7	19.3	0.00e+00	0	39	0	417333248	59	4399
2026-01-19 23:10:29.23	31.82	14.36	-44.4	-45.5	19.4	0.00e+00	0	38	0	420478976	59	4324
2026-01-19 23:10:30.20	31.92	14.45	-44.4	-45.5	19.4	0.00e+00	0	39	0	423624704	59	4328
2026-01-19 23:10:31.17	32.02	14.54	-44.6	-45.7	19.3	0.00e+00	0	39	0	426770432	59	4396
2026-01-19 23:10:32.14	32.12	14.62	-44.5	-45.5	19.4	0.00e+00	0	39	0	429916160	59	4339
2026-01-19 23:10:33.11	32.22	14.71	-44.5	-45.7	19.3	0.00e+00	0	39	0	433061888	59	4393
2026-01-19 23:10:34.08	32.32	14.80	-44.5	-45.6	19.4	0.00e+00	0	39	0	436207616	59	4350
2026-01-19 23:10:35.04	32.43	14.89	-44.7	-45.8	19.2	0.00e+00	0	39	0	439353344	59	4457
2026-01-19 23:10:36.02	32.53	14.98	-44.7	-45.8	19.1	0.00e+00	0	38	0	441450496	59	4492
2026-01-19 23:10:36.99	32.64	15.06	-44.5	-45.6	19.0	0.00e+00	0	39	0	444596224	60	4120
2026-01-19 23:10:37.96	32.74	15.15	-44.4	-45.5	19.2	0.00e+00	0	39	0	447741952	60	4060
2026-01-19 23:10:38.93	32.85	15.24	-44.3	-45.4	19.2	0.00e+00	0	39	0	450887680	60	4025
2026-01-19 23:10:39.90	32.95	15.33	-44.2	-45.2	19.4	0.00e+00	0	38	0	454033408	60	3949
2026-01-19 23:10:40.87	33.06	15.42	-44.3	-45.4	19.3	0.00e+00	0	39	0	457179136	60	4009
2026-01-19 23:10:41.84	33.17	15.51	-44.2	-45.3	19.4	0.00e+00	0	39	0	460324864	60	3961
2026-01-19 23:10:42.81	33.28	15.60	-44.3	-45.4	19.2	0.00e+00	0	39	0	463470592	60	4034
2026-01-19 23:10:43.77	33.38	15.69	-44.2	-45.2	19.4	0.00e+00	0	39	0	466616320	60	3958
2026-01-19 23:10:44.74	33.49	15.78	-44.2	-45.2	19.4	0.00e+00	0	39	0	469762048	60	3954
2026-01-19 23:10:45.71	33.60	15.87	-44.2	-45.3	19.4	0.00e+00	0	38	0	471859200	60	3979
2026-01-19 23:10:46.68	33.71	15.96	-44.3	-45.4	19.3	0.00e+00	0	38	0	475004928	60	4011
2026-01-19 23:10:47.65	33.82	16.05	-44.3	-45.4	19.3	0.00e+00	0	39	0	478150656	60	4021
2026-01-19 23:10:48.62	33.94	16.15	-44.4	-45.5	19.2	0.00e+00	0	39	0	481296384	60	4072
2026-01-19 23:10:49.59	34.05	16.24	-44.4	-45.5	19.2	0.00e+00	0	38	0	484442112	60	4065
2026-01-19 23:10:50.56	34.16	16.33	-44.5	-45.5	19.2	0.00e+00	0	39	0	487587840	60	4097
2026-01-19 23:10:51.53	34.27	16.42	-44.5	-45.6	19.2	0.00e+00	0	39	0	490733568	60	4102
2026-01-19 23:10:52.50	34.39	16.51	-44.5	-45.6	19.1	0.00e+00	0	39	0	493879296	60	4121
2026-01-19 23:10:53.47	34.50	16.61	-44.5	-45.6	19.1	0.00e+00	0	39	0	497025024	60	4120
2026-01-19 23:10:54.44	34.62	16.70	-44.6	-45.7	19.1	0.00e+00	0	39	0	500170752	60	4182
2026-01-19 23:10:55.41	34.74	16.79	-44.6	-45.7	19.0	0.00e+00	0	38	0	502267904	60	4191
2026-01-19 23:10:56.38	34.85	16.89	-44.6	-45.7	19.0	0.00e+00	0	39	0	505413632	60	4191
2026-01-19 23:10:57.35	34.97	16.98	-44.4	-45.5	19.2	0.00e+00	0	39	0	508559360	60	4092
2026-01-19 23:10:58.32	35.09	17.07	-44.6	-45.7	19.1	0.00e+00	0	39	0	511705088	60	4169
2026-01-19 23:10:59.28	35.21	17.17	-44.4	-45.5	19.2	0.00e+00	0	39	0	514850816	60	4091
2026-01-19 23:11:00.25	35.33	17.26	-44.3	-45.4	19.3	0.00e+00	0	39	0	517996544	60	4011
2026-01-19 23:11:01.22	35.45	17.36	-44.3	-45.3	19.4	0.00e+00	0	38	0	520093696	60	3981
2026-01-19 23:11:02.19	35.57	17.45	-44.3	-45.4	19.3	0.00e+00	0	39	0	523239424	60	4029
2026-01-19 23:11:03.16	35.69	17.55	-44.4	-45.5	19.3	0.00e+00	0	38	0	526385152	60	4052
2026-01-19 23:11:04.12	35.82	17.64	-44.3	-45.4	19.3	0.00e+00	0	39	0	529530880	60	4037
2026-01-19 23:11:05.09	35.94	17.74	-44.3	-45.4	19.4	0.00e+00	0	38	0	532676608	60	4013
2026-01-19 23:11:06.06	36.06	17.83	-44.4	-45.4	19.3	0.00e+00	0	39	0	535822336	60	4048
2026-01-19 23:11:07.03	36.19	17.93	-44.4	-45.5	19.2	0.00e+00	0	39	0	538968064	60	4089
2026-01-19 23:11:08.00	36.32	18.03	-44.4	-45.5	19.2	0.00e+00	0	39	0	542113792	60	4082
2026-01-19 23:11:08.96	36.44	18.12	-44.3	-45.4	19.4	0.00e+00	0	39	0	545259520	60	4029
2026-01-19 23:11:09.93	36.57	18.22	-44.5	-45.6	19.2	0.00e+00	0	39	0	547356672	60	4101
2026-01-19 23:11:10.90	36.70	18.32	-44.3	-45.3	19.4	0.00e+00	0	39	0	550502400	60	4002
2026-01-19 23:11:11.87	36.83	18.41	-44.1	-45.2	19.6	0.00e+00	0	38	0	553648128	60	3929
2026-01-19 23:11:12.84	36.96	18.51	-44.3	-45.3	19.5	0.00e+00	0	39	0	556793856	60	3998
2026-01-19 23:11:13.81	37.09	18.61	-44.2	-45.3	19.5	0.00e+00	0	39	0	559939584	60	3971
2026-01-19 23:11:14.78	37.22	18.71	-44.0	-45.0	19.8	0.00e+00	0	38	0	563085312	60	3842
2026-01-19 23:11:15.75	37.35	18.81	-44.0	-45.1	19.7	0.00e+00	0	38	0	566231040	60	3871
2026-01-19 23:11:16.72	37.48	18.90	-44.2	-45.2	19.6	0.00e+00	0	39	0	569376768	60	3945
2026-01-19 23:11:17.70	37.62	19.00	-44.0	-45.0	19.8	0.00e+00	0	38	0	572522496	60	3859
2026-01-19 23:11:18.67	37.75	19.10	-44.4	-45.4	19.7	0.00e+00	0	38	0	575668224	59	4270
2026-01-19 23:11:19.63	37.89	19.20	-44.4	-45.4	19.7	0.00e+00	0	39	0	577765376	59	4275
2026-01-19 23:11:20.60	38.03	19.30	-44.3	-45.3	19.8	0.00e+00	0	39	0	580911104	59	4238
2026-01-19 23:11:21.57	38.16	19.40	-44.3	-45.4	19.7	0.00e+00	0	39	0	584056832	59	4262
2026-01-19 23:11:22.54	38.30	19.50	-44.3	-45.3	19.8	0.00e+00	0	39	0	587202560	59	4225
2026-01-19 23:11:23.51	38.44	19.60	-44.3	-45.3	19.8	0.00e+00	0	39	0	590348288	59	4234
2026-01-19 23:11:24.48	38.58	19.70	-44.3	-45.4	19.8	0.00e+00	0	39	0	593494016	59	4245
2026-01-19 23:11:25.45	38.72	19.80	-44.2	-45.2	19.9	0.00e+00	0	38	0	596639744	59	4164
2026-01-19 23:11:26.41	38.86	19.90	-44.1	-45.1	20.0	0.00e+00	0	39	0	599785472	59	4114
2026-01-19 23:11:27.38	39.01	20.01	-44.1	-45.1	20.0	0.00e+00	0	38	0	602931200	59	4115
2026-01-19 23:11:28.35	39.15	20.11	-43.9	-44.9	20.2	0.00e+00	0	39	0	606076928	59	4031
2026-01-19 23:11:29.32	39.29	20.21	-44.0	-45.0	20.1	0.00e+00	0	39	0	608174080	59	4058
2026-01-19 23:11:30.30	39.44	20.31	-43.9	-44.9	20.2	0.00e+00	0	38	0	611319808	59	4031
2026-01-19 23:11:31.27	39.59	20.41	-44.0	-45.0	20.2	0.00e+00	0	38	0	614465536	59	4056
2026-01-19 23:11:32.23	39.73	20.52	-44.0	-45.0	20.2	0.00e+00	0	39	0	617611264	59	4054
2026-01-19 23:11:33.20	39.88	20.62	-44.0	-45.0	20.1	0.00e+00	0	39	0	620756992	59	4087
2026-01-19 23:11:34.17	40.03	20.72	-44.2	-45.2	19.9	0.00e+00	0	38	0	623902720	59	4167
2026-01-19 23:11:35.14	40.18	20.83	-44.1	-45.1	20.0	0.00e+00	0	38	0	627048448	59	4141
2026-01-19 23:11:36.11	40.33	20.93	-44.0	-45.0	20.0	0.00e+00	0	39	0	629145600	59	4088
2026-01-19 23:11:37.07	40.48	21.03	-43.9	-44.9	20.2	0.00e+00	0	38	0	632291328	59	4027
2026-01-19 23:11:38.05	40.64	21.14	-43.9	-44.9	20.2	0.00e+00	0	39	0	635437056	59	4008
2026-01-19 23:11:39.01	40.79	21.24	-43.7	-44.7	20.3	0.00e+00	0	39	0	638582784	59	3933
2026-01-19 23:11:39.98	40.95	21.34	-43.5	-44.4	20.6	0.00e+00	0	39	0	641728512	58	4046
2026-01-19 23:11:40.95	41.10	21.45	-43.3	-44.3	20.7	0.00e+00	0	39	0	644874240	58	3973
2026-01-19 23:11:41.91	41.26	21.55	-43.4	-44.3	20.7	0.00e+00	0	39	0	648019968	58	3976
2026-01-19 23:11:42.88	41.42	21.66	-43.3	-44.3	20.8	0.00e+00	0	39	0	651165696	58	3964
2026-01-19 23:11:43.85	41.58	21.76	-43.3	-44.2	20.8	0.00e+00	0	38	0	654311424	58	3956
2026-01-19 23:11:44.82	41.74	21.87	-43.4	-44.3	20.7	0.00e+00	0	39	0	656408576	58	3981
2026-01-19 23:11:45.79	41.90	21.98	-43.5	-44.4	20.6	0.00e+00	0	39	0	659554304	58	4051
2026-01-19 23:11:46.75	42.06	22.08	-43.6	-44.5	20.6	0.00e+00	0	39	0	662700032	58	4085
2026-01-19 23:11:47.72	42.23	22.19	-43.7	-44.6	20.5	0.00e+00	0	39	0	665845760	58	4131
2026-01-19 23:11:48.69	42.39	22.29	-43.5	-44.5	20.6	0.00e+00	0	38	0	668991488	58	4070
2026-01-19 23:11:49.67	42.56	22.40	-43.6	-44.6	20.5	0.00e+00	0	39	0	672137216	58	4101
2026-01-19 23:11:50.64	42.73	22.51	-43.7	-44.7	20.4	0.00e+00	0	38	0	675282944	58	4171
2026-01-19 23:11:51.61	42.89	22.61	-43.5	-44.4	20.6	0.00e+00	0	39	0	678428672	58	4051
2026-01-19 23:11:52.58	43.06	22.72	-43.4	-44.3	20.7	0.00e+00	0	39	0	681574400	58	3995
2026-01-19 23:11:53.55	43.23	22.83	-43.2	-44.1	20.9	0.00e+00	0	38	0	684720128	58	3903
2026-01-19 23:11:54.51	43.40	22.94	-43.1	-44.0	21.0	0.00e+00	0	39	0	686817280	58	3848
2026-01-19 23:11:55.48	43.58	23.04	-43.2	-44.1	21.0	0.00e+00	0	39	0	689963008	58	3884
2026-01-19 23:11:56.45	43.75	23.15	-43.2	-44.1	21.0	0.00e+00	0	39	0	693108736	58	3902
2026-01-19 23:11:57.41	43.92	23.26	-43.4	-44.3	20.8	0.00e+00	0	38	0	696254464	58	3969
2026-01-19 23:11:58.39	44.10	23.37	-43.4	-44.3	20.7	0.00e+00	0	39	0	699400192	58	3997
2026-01-19 23:11:59.36	44.28	23.48	-43.4	-44.3	20.8	0.00e+00	0	39	0	702545920	58	3998
2026-01-19 23:12:00.33	44.46	23.59	-43.4	-44.3	20.8	0.00e+00	0	39	0	705691648	58	3970
2026-01-19 23:12:01.30	44.64	23.70	-43.4	-44.3	20.7	0.00e+00	0	39	0	708837376	58	3995
2026-01-19 23:12:02.27	44.82	23.80	-43.3	-44.2	20.9	0.00e+00	0	39	0	711983104	58	3923
2026-01-19 23:12:03.24	45.00	23.91	-43.3	-44.3	20.8	0.00e+00	0	38	0	714080256	58	3963
2026-01-19 23:12:04.21	45.18	24.02	-43.0	-43.9	21.1	0.00e+00	0	38	0	717225984	58	3813
2026-01-19 23:12:05.18	45.37	24.13	-42.9	-43.8	21.2	0.00e+00	0	39	0	720371712	57	3972
2026-01-19 23:12:06.16	45.56	24.24	-43.0	-43.8	21.2	0.00e+00	0	39	0	723517440	57	4002
2026-01-19 23:12:07.13	45.75	24.35	-43.1	-44.0	21.1	0.00e+00	0	39	0	726663168	57	4082
2026-01-19 23:12:08.10	45.93	24.46	-43.2	-44.1	21.0	0.00e+00	0	39	0	729808896	57	4104
2026-01-19 23:12:09.07	46.12	24.57	-43.4	-44.4	20.8	0.00e+00	0	39	0	732954624	57	4251
2026-01-19 23:12:10.04	46.32	24.69	-43.4	-44.3	20.8	0.00e+00	0	39	0	736100352	57	4218
2026-01-19 23:12:11.01	46.51	24.80	-43.4	-44.4	20.7	0.00e+00	0	39	0	738197504	57	4259
2026-01-19 23:12:11.98	46.70	24.91	-43.5	-44.4	20.6	0.00e+00	0	38	0	741343232	57	4283
2026-01-19 23:12:12.95	46.90	25.02	-43.5	-44.4	20.7	0.00e+00	0	39	0	744488960	57	4258
2026-01-19 23:12:13.92	47.09	25.13	-43.3	-44.2	20.9	0.00e+00	0	39	0	747634688	57	4191
2026-01-19 23:12:14.89	47.29	25.24	-43.3	-44.2	20.9	0.00e+00	0	38	0	750780416	57	4148
2026-01-19 23:12:15.86	47.49	25.35	-43.1	-43.9	21.1	0.00e+00	0	39	0	753926144	57	4049
2026-01-19 23:12:16.82	47.69	25.46	-43.2	-44.0	21.0	0.00e+00	0	39	0	757071872	57	4089
2026-01-19 23:12:17.80	47.89	25.57	-43.3	-44.2	20.9	0.00e+00	0	39	0	760217600	57	4193
2026-01-19 23:12:18.76	48.10	25.68	-43.6	-44.5	20.6	0.00e+00	0	39	0	763363328	57	4333
2026-01-19 23:12:19.73	48.30	25.80	-43.8	-44.8	20.5	0.00e+00	0	39	0	765460480	58	4200
2026-01-19 23:12:20.71	48.51	25.91	-44.0	-45.0	20.2	0.00e+00	0	39	0	768606208	58	4300
2026-01-19 23:12:21.68	48.72	26.02	-44.2	-45.2	20.1	0.00e+00	0	39	0	771751936	58	4406
2026-01-19 23:12:22.65	48.93	26.13	-44.3	-45.4	19.9	0.00e+00	0	39	0	774897664	59	4244
2026-01-19 23:12:23.62	49.14	26.24	-44.5	-45.5	19.7	0.00e+00	0	39	0	778043392	59	4332
2026-01-19 23:12:24.59	49.35	26.36	-44.3	-45.3	19.9	0.00e+00	0	39	0	781189120	59	4229
2026-01-19 23:12:25.57	49.56	26.47	-44.2	-45.2	20.0	0.00e+00	0	38	0	784334848	59	4163
2026-01-19 23:12:26.54	49.78	26.58	-44.1	-45.1	20.1	0.00e+00	0	39	0	787480576	59	4135
2026-01-19 23:12:27.51	50.00	26.69	-44.1	-45.1	20.1	0.00e+00	0	38	0	790626304	59	4134
2026-01-19 23:12:28.48	50.21	26.81	-44.2	-45.2	20.0	0.00e+00	0	38	0	793772032	59	4162
2026-01-19 23:12:29.45	50.43	26.92	-44.1	-45.1	20.1	0.00e+00	0	39	0	796917760	59	4126
2026-01-19 23:12:30.42	50.65	27.03	-44.2	-45.2	20.0	0.00e+00	0	39	0	799014912	59	4184
2026-01-19 23:12:31.39	50.88	27.14	-44.3	-45.4	19.9	0.00e+00	0	39	0	802160640	59	4250
2026-01-19 23:12:32.36	51.10	27.25	-44.2	-45.2	20.0	0.00e+00	0	39	0	805306368	59	4192
2026-01-19 23:12:33.33	51.33	27.37	-44.2	-45.2	20.0	0.00e+00	0	39	0	808452096	59	4176
2026-01-19 23:12:34.30	51.55	27.48	-44.1	-45.1	20.2	0.00e+00	0	39	0	811597824	59	4104
2026-01-19 23:12:35.27	51.78	27.59	-44.0	-45.0	20.3	0.00e+00	0	39	0	814743552	59	4055
2026-01-19 23:12:36.24	52.01	27.70	-43.9	-44.9	20.3	0.00e+00	0	39	0	817889280	59	4028
2026-01-19 23:12:37.22	52.25	27.82	-43.7	-44.7	20.5	0.00e+00	0	39	0	821035008	59	3930
2026-01-19 23:12:38.18	52.48	27.93	-43.9	-44.8	20.4	0.00e+00	0	39	0	824180736	59	3991
2026-01-19 23:12:39.15	52.71	28.04	-43.9	-44.8	20.4	0.00e+00	0	39	0	827326464	59	4002
2026-01-19 23:12:40.12	52.95	28.15	-44.0	-45.0	20.2	0.00e+00	0	39	0	829423616	59	4089
2026-01-19 23:12:41.09	53.19	28.26	-44.3	-45.3	20.0	0.00e+00	0	39	0	832569344	59	4228
2026-01-19 23:12:42.07	53.43	28.38	-44.2	-45.2	20.1	0.00e+00	0	38	0	835715072	59	4154
2026-01-19 23:12:43.03	53.67	28.49	-44.3	-45.3	19.9	0.00e+00	0	39	0	838860800	59	4230
2026-01-19 23:12:44.00	53.91	28.60	-44.0	-45.0	20.2	0.00e+00	0	39	0	842006528	59	4073
2026-01-19 23:12:44.97	54.16	28.71	-44.0	-44.9	20.3	0.00e+00	0	38	0	845152256	59	4040
2026-01-19 23:12:45.94	54.41	28.82	-44.0	-45.0	20.3	0.00e+00	0	39	0	848297984	59	4068
2026-01-19 23:12:46.91	54.66	28.93	-44.0	-45.0	20.3	0.00e+00	0	38	0	850395136	59	4087
2026-01-19 23:12:47.88	54.91	29.05	-44.1	-45.0	20.2	0.00e+00	0	39	0	853540864	59	4089
2026-01-19 23:12:48.85	55.16	29.16	-44.0	-45.0	20.3	0.00e+00	0	39	0	856686592	59	4080
2026-01-19 23:12:49.83	55.41	29.27	-44.0	-45.0	20.2	0.00e+00	0	38	0	859832320	59	4078
2026-01-19 23:12:50.80	55.67	29.38	-44.1	-45.1	20.2	0.00e+00	0	39	0	862978048	59	4105
2026-01-19 23:12:51.77	55.93	29.49	-44.0	-45.0	20.2	0.00e+00	0	39	0	866123776	59	4079
2026-01-19 23:12:52.74	56.18	29.60	-44.0	-45.0	20.3	0.00e+00	0	39	0	869269504	59	4058
2026-01-19 23:12:53.71	56.44	29.71	-43.9	-44.9	20.4	0.00e+00	0	39	0	872415232	59	4024
2026-01-19 23:12:54.68	56.71	29.82	-43.8	-44.7	20.5	0.00e+00	0	39	0	875560960	59	3950
2026-01-19 23:12:55.65	56.97	29.93	-43.9	-44.8	20.5	0.00e+00	0	39	0	878706688	59	3982
2026-01-19 23:12:56.62	57.24	30.04	-44.0	-45.0	20.3	0.00e+00	0	38	0	880803840	59	4055
2026-01-19 23:12:57.59	57.50	30.15	-44.1	-45.1	20.2	0.00e+00	0	39	0	883949568	59	4104
2026-01-19 23:12:58.56	57.77	30.26	-44.2	-45.2	20.1	0.00e+00	0	39	0	887095296	59	4159
2026-01-19 23:12:59.53	58.05	30.37	-44.3	-45.3	20.1	0.00e+00	0	39	0	890241024	59	4196
2026-01-19 23:13:00.51	58.32	30.48	-44.3	-45.3	20.0	0.00e+00	0	39	0	893386752	59	4231
2026-01-19 23:13:01.48	58.60	30.59	-44.3	-45.3	20.0	0.00e+00	0	39	0	896532480	59	4216
2026-01-19 23:13:02.45	58.87	30.69	-44.1	-45.1	20.2	0.00e+00	0	39	0	899678208	59	4127
2026-01-19 23:13:03.42	59.15	30.80	-44.1	-45.1	20.3	0.00e+00	0	39	0	902823936	59	4099
2026-01-19 23:13:04.38	59.43	30.91	-43.9	-44.9	20.4	0.00e+00	0	39	0	905969664	59	4033
2026-01-19 23:13:05.36	59.71	31.02	-43.9	-44.9	20.5	0.00e+00	0	39	0	909115392	59	4008
2026-01-19 23:13:06.33	60.00	31.12	-43.9	-44.9	20.4	0.00e+00	0	39	0	911212544	59	4021
2026-01-19 23:13:07.30	60.28	31.23	-43.9	-44.9	20.5	0.00e+00	0	39	0	914358272	59	4009
2026-01-19 23:13:08.27	60.57	31.34	-43.9	-44.9	20.5	0.00e+00	0	39	0	917504000	59	4009
2026-01-19 23:13:09.24	60.86	31.44	-44.0	-45.0	20.4	0.00e+00	0	38	0	920649728	59	4080
2026-01-19 23:13:10.21	61.15	31.55	-44.1	-45.0	20.3	0.00e+00	0	39	0	923795456	59	4089
2026-01-19 23:13:11.18	61.44	31.65	-44.3	-45.2	20.1	0.00e+00	0	39	0	926941184	59	4190
2026-01-19 23:13:12.15	61.74	31.76	-44.4	-45.4	20.0	0.00e+00	0	39	0	930086912	59	4249
2026-01-19 23:13:13.12	62.04	31.86	-44.5	-45.5	19.9	0.00e+00	0	39	0	933232640	59	4318
2026-01-19 23:13:14.09	62.34	31.96	-44.4	-45.4	19.9	0.00e+00	0	38	0	936378368	59	4284
2026-01-19 23:13:15.06	62.64	32.07	-44.5	-45.5	19.9	0.00e+00	0	39	0	939524096	59	4302
2026-01-19 23:13:16.03	62.94	32.17	-44.6	-45.6	19.8	0.00e+00	0	39	0	941621248	59	4358
2026-01-19 23:13:17.00	63.24	32.27	-44.7	-45.7	19.7	0.00e+00	0	39	0	944766976	59	4439
2026-01-19 23:13:17.97	63.55	32.37	-44.4	-45.4	19.7	0.00e+00	0	39	0	947912704	60	4032
2026-01-19 23:13:18.94	63.86	32.47	-44.4	-45.4	19.7	0.00e+00	0	39	0	951058432	60	4018
2026-01-19 23:13:19.91	64.17	32.57	-44.5	-45.5	19.6	0.00e+00	0	39	0	954204160	60	4082
2026-01-19 23:13:20.88	64.48	32.67	-44.5	-45.5	19.6	0.00e+00	0	39	0	957349888	60	4080
2026-01-19 23:13:21.85	64.79	32.77	-44.5	-45.5	19.6	0.00e+00	0	39	0	960495616	60	4085
2026-01-19 23:13:22.82	65.11	32.87	-44.6	-45.7	19.5	0.00e+00	0	38	0	962592768	60	4155
2026-01-19 23:13:23.79	65.43	32.97	-44.6	-45.7	19.5	0.00e+00	0	39	0	965738496	60	4156
2026-01-19 23:13:24.77	65.75	33.06	-44.7	-45.7	19.4	0.00e+00	0	38	0	968884224	60	4185
2026-01-19 23:13:25.74	66.07	33.16	-44.7	-45.7	19.4	0.00e+00	0	39	0	972029952	60	4169
2026-01-19 23:13:26.71	66.39	33.26	-44.8	-45.9	19.2	0.00e+00	0	39	0	975175680	60	4281
2026-01-19 23:13:27.68	66.72	33.35	-45.0	-46.1	19.1	0.00e+00	0	39	0	978321408	60	4352
2026-01-19 23:13:28.65	67.05	33.45	-45.0	-46.1	19.1	0.00e+00	0	38	0	981467136	60	4385
2026-01-19 23:13:29.62	67.38	33.54	-44.9	-45.9	19.2	0.00e+00	0	39	0	984612864	60	4289
2026-01-19 23:13:30.59	67.71	33.63	-44.8	-45.9	19.3	0.00e+00	0	39	0	987758592	60	4264
2026-01-19 23:13:31.56	68.04	33.73	-44.8	-45.9	19.3	0.00e+00	0	39	0	990904320	60	4262
2026-01-19 23:13:32.53	68.37	33.82	-44.8	-45.9	19.3	0.00e+00	0	39	0	993001472	60	4269
2026-01-19 23:13:33.50	68.71	33.91	-44.7	-45.7	19.4	0.00e+00	0	39	0	996147200	60	4187
2026-01-19 23:13:34.47	69.05	34.00	-44.7	-45.8	19.3	0.00e+00	0	39	0	999292928	60	4220
2026-01-19 23:13:35.44	69.39	34.09	-44.8	-45.8	19.3	0.00e+00	0	39	0	1002438656	60	4242
2026-01-19 23:13:36.41	69.73	34.17	-44.7	-45.7	19.4	0.00e+00	0	39	0	1005584384	60	4180
2026-01-19 23:13:37.38	70.07	34.26	-44.5	-45.6	19.6	0.00e+00	0	39	0	1008730112	60	4105
2026-01-19 23:13:38.34	70.42	34.35	-44.4	-45.4	19.8	0.00e+00	0	39	0	1011875840	60	4005
2026-01-19 23:13:39.32	70.77	34.43	-44.2	-45.2	19.9	0.00e+00	0	39	0	1015021568	60	3928
2026-01-19 23:13:40.29	71.12	34.52	-44.2	-45.2	19.8	0.00e+00	0	39	0	1018167296	60	3953
2026-01-19 23:13:41.27	71.47	34.60	-44.4	-45.5	19.6	0.00e+00	0	39	0	1021313024	60	4059
2026-01-19 23:13:42.24	71.82	34.68	-44.6	-45.6	19.5	0.00e+00	0	39	0	1023410176	60	4128
2026-01-19 23:13:43.21	72.18	34.77	-44.7	-45.7	19.4	0.00e+00	0	38	0	1026555904	60	4186
2026-01-19 23:13:44.18	72.53	34.85	-44.6	-45.7	19.5	0.00e+00	0	39	0	1029701632	60	4161
2026-01-19 23:13:45.15	72.89	34.93	-44.6	-45.7	19.5	0.00e+00	0	39	0	1032847360	60	4152
2026-01-19 23:13:46.12	73.25	35.00	-44.8	-45.8	19.3	0.00e+00	0	39	0	1035993088	60	4230
2026-01-19 23:13:47.09	73.61	35.08	-44.8	-45.9	19.3	0.00e+00	0	39	0	1039138816	60	4251
2026-01-19 23:13:48.06	73.98	35.16	-44.6	-45.7	19.5	0.00e+00	0	39	0	1042284544	60	4150
2026-01-19 23:13:49.03	74.34	35.23	-44.5	-45.6	19.6	0.00e+00	0	38	0	1045430272	60	4101
2026-01-19 23:13:50.00	74.71	35.31	-44.9	-45.9	19.2	0.00e+00	0	39	0	1048576000	60	4289
2026-01-19 23:13:50.97	75.07	35.38	-44.8	-45.9	19.3	0.00e+00	0	38	0	1051721728	60	4252
2026-01-19 23:13:51.94	75.44	35.45	-44.7	-45.8	19.4	0.00e+00	0	39	0	1054867456	60	4211
2026-01-19 23:13:52.91	75.82	35.52	-44.4	-45.5	19.7	0.00e+00	0	39	0	1056964608	60	4052
2026-01-19 23:13:53.88	76.19	35.59	-44.5	-45.5	19.7	0.00e+00	0	39	0	1060110336	60	4057
2026-01-19 23:13:54.85	76.56	35.66	-44.7	-45.8	19.4	0.00e+00	0	39	0	1063256064	60	4205
2026-01-19 23:13:55.82	76.94	35.73	-44.8	-45.9	19.3	0.00e+00	0	39	0	1066401792	60	4255
2026-01-19 23:13:56.79	77.32	35.80	-44.8	-45.9	19.2	0.00e+00	0	39	0	1069547520	60	4286
2026-01-19 23:13:57.76	77.70	35.86	-44.7	-45.8	19.4	0.00e+00	0	39	0	1072693248	60	4232
2026-01-19 23:13:58.74	78.08	35.92	-44.7	-45.7	19.4	0.00e+00	0	39	0	1074790400	60	4171
2026-01-19 23:13:59.71	78.46	35.99	-44.5	-45.6	19.6	0.00e+00	0	39	0	1077936128	60	4105
2026-01-19 23:14:00.68	78.85	36.05	-44.5	-45.5	19.6	0.00e+00	0	39	0	1081081856	60	4083
2026-01-19 23:14:01.65	79.23	36.11	-44.5	-45.6	19.5	0.00e+00	0	39	0	1084227584	60	4100
2026-01-19 23:14:02.62	79.62	36.17	-44.6	-45.7	19.5	0.00e+00	0	39	0	1087373312	60	4147
2026-01-19 23:14:03.59	80.00	36.22	-44.6	-45.7	19.5	0.00e+00	0	39	0	1090519040	60	4149
2026-01-19 23:14:04.56	80.39	36.28	-44.7	-45.7	19.4	0.00e+00	0	39	0	1093664768	60	4182
2026-01-19 23:14:05.53	80.78	36.33	-44.6	-45.7	19.4	0.00e+00	0	39	0	1096810496	60	4155
2026-01-19 23:14:06.50	81.17	36.39	-44.8	-45.8	19.3	0.00e+00	0	39	0	1099956224	60	4236
2026-01-19 23:14:07.47	81.57	36.44	-45.1	-46.3	19.0	0.00e+00	0	39	0	1103101952	60	4444
2026-01-19 23:14:08.44	81.96	36.49	-45.4	-46.6	18.6	0.00e+00	0	39	0	1106247680	61	4352
2026-01-19 23:14:09.42	82.36	36.54	-45.5	-46.8	18.5	0.00e+00	0	39	0	1108344832	61	4443
2026-01-19 23:14:10.38	82.75	36.58	-45.5	-46.7	18.5	0.00e+00	0	38	0	1111490560	61	4421
2026-01-19 23:14:11.35	83.15	36.63	-45.5	-46.7	18.5	0.00e+00	0	39	0	1114636288	61	4417
2026-01-19 23:14:12.32	83.55	36.68	-45.3	-46.5	18.7	0.00e+00	0	39	0	1117782016	61	4310
2026-01-19 23:14:13.29	83.95	36.72	-45.1	-46.2	19.0	0.00e+00	0	39	0	1120927744	61	4154
2026-01-19 23:14:14.27	84.35	36.76	-45.0	-46.1	19.0	0.00e+00	0	39	0	1124073472	61	4106
2026-01-19 23:14:15.24	84.75	36.80	-44.8	-45.8	19.2	0.00e+00	0	39	0	1127219200	61	4004
2026-01-19 23:14:16.21	85.16	36.84	-44.8	-45.9	19.2	0.00e+00	0	39	0	1130364928	61	4020
2026-01-19 23:14:17.18	85.56	36.88	-45.0	-46.0	19.1	0.00e+00	0	39	0	1133510656	61	4097
2026-01-19 23:14:18.15	85.96	36.91	-44.9	-46.0	19.2	0.00e+00	0	39	0	1136656384	61	4067
2026-01-19 23:14:19.12	86.37	36.95	-45.1	-46.2	19.0	0.00e+00	0	39	0	1138753536	61	4183
2026-01-19 23:14:20.10	86.78	36.98	-45.2	-46.3	18.9	0.00e+00	0	39	0	1141899264	61	4222
2026-01-19 23:14:21.07	87.19	37.01	-45.2	-46.3	18.9	0.00e+00	0	39	0	1145044992	61	4204
2026-01-19 23:14:22.04	87.59	37.04	-45.0	-46.0	19.2	0.00e+00	0	38	0	1148190720	61	4097
2026-01-19 23:14:23.01	88.00	37.07	-44.9	-46.0	19.2	0.00e+00	0	39	0	1151336448	61	4072
2026-01-19 23:14:23.98	88.41	37.09	-45.0	-46.1	19.0	0.00e+00	0	39	0	1154482176	61	4118
2026-01-19 23:14:24.95	88.82	37.12	-45.1	-46.2	19.0	0.00e+00	0	39	0	1157627904	61	4164
2026-01-19 23:14:25.92	89.23	37.14	-45.0	-46.0	19.1	0.00e+00	0	39	0	1160773632	61	4096
2026-01-19 23:14:26.89	89.64	37.16	-44.9	-45.9	19.2	0.00e+00	0	39	0	1163919360	61	4037
2026-01-19 23:14:27.86	90.05	37.18	-44.8	-45.9	19.2	0.00e+00	0	39	0	1167065088	61	4033
2026-01-19 23:14:28.84	90.47	37.20	-44.9	-45.9	19.2	0.00e+00	0	39	0	1169162240	61	4049
2026-01-19 23:14:29.81	90.88	37.22	-44.8	-45.9	19.2	0.00e+00	0	39	0	1172307968	61	4014
2026-01-19 23:14:30.78	91.30	37.23	-44.8	-45.8	19.2	0.00e+00	0	39	0	1175453696	61	3999
2026-01-19 23:14:31.75	91.71	37.24	-44.6	-45.7	19.4	0.00e+00	0	39	0	1178599424	61	3921
2026-01-19 23:14:32.72	92.12	37.26	-44.7	-45.8	19.4	0.00e+00	0	39	0	1181745152	61	3974
2026-01-19 23:14:33.69	92.54	37.27	-44.9	-46.0	19.2	0.00e+00	0	39	0	1184890880	61	4061
2026-01-19 23:14:34.66	92.95	37.27	-45.0	-46.1	19.1	0.00e+00	0	39	0	1188036608	61	4100
2026-01-19 23:14:35.63	93.36	37.28	-45.1	-46.2	19.1	0.00e+00	0	38	0	1190133760	61	4146
2026-01-19 23:14:36.61	93.78	37.29	-44.8	-45.8	19.3	0.00e+00	0	39	0	1193279488	61	4002
2026-01-19 23:14:37.58	94.20	37.29	-44.8	-45.9	19.3	0.00e+00	0	39	0	1196425216	61	4027
2026-01-19 23:14:38.55	94.61	37.29	-45.1	-46.2	19.0	0.00e+00	0	39	0	1199570944	61	4151
2026-01-19 23:14:39.52	95.02	37.29	-45.2	-46.3	18.9	0.00e+00	0	39	0	1202716672	61	4222
2026-01-19 23:14:40.49	95.44	37.29	-45.0	-46.1	19.1	0.00e+00	0	39	0	1205862400	61	4132
2026-01-19 23:14:41.46	95.85	37.29	-45.0	-46.1	19.1	0.00e+00	0	39	0	1209008128	61	4128
2026-01-19 23:14:42.43	96.27	37.28	-44.8	-45.9	19.4	0.00e+00	0	39	0	1212153856	61	4018
2026-01-19 23:14:43.40	96.68	37.27	-45.0	-46.0	19.2	0.00e+00	0	39	0	1215299584	61	4089
2026-01-19 23:14:44.37	97.10	37.27	-45.1	-46.3	18.9	0.00e+00	0	39	0	1218445312	61	4198
2026-01-19 23:14:45.34	97.51	37.26	-45.2	-46.3	18.8	0.00e+00	0	39	0	1221591040	61	4216
2026-01-19 23:14:46.31	97.92	37.25	-45.2	-46.3	18.9	0.00e+00	0	39	0	1223688192	61	4209
2026-01-19 23:14:47.28	98.34	37.23	-45.0	-46.1	19.0	0.00e+00	0	39	0	1226833920	61	4122
2026-01-19 23:14:48.25	98.75	37.22	-44.9	-46.0	19.1	0.00e+00	0	39	0	1229979648	61	4086
2026-01-19 23:14:49.23	99.17	37.20	-45.1	-46.2	18.9	0.00e+00	0	39	0	1233125376	61	4169
2026-01-19 23:14:50.20	99.58	37.18	-45.3	-46.5	18.7	0.00e+00	0	39	0	1236271104	61	4306
2026-01-19 23:14:51.17	99.99	37.16	-45.3	-46.4	18.7	0.00e+00	0	39	0	1239416832	61	4285
2026-01-19 23:14:52.14	100.40	37.14	-45.3	-46.4	18.7	0.00e+00	0	39	0	1242562560	61	4278
2026-01-19 23:14:53.11	100.81	37.12	-45.2	-46.3	18.9	0.00e+00	0	39	0	1245708288	61	4224
2026-01-19 23:14:54.08	101.22	37.09	-45.3	-46.4	18.8	0.00e+00	0	39	0	1248854016	61	4276
2026-01-19 23:14:55.05	101.63	37.07	-45.3	-46.4	18.7	0.00e+00	0	39	0	1251999744	61	4289
2026-01-19 23:14:56.02	102.04	37.04	-45.4	-46.6	18.6	0.00e+00	0	39	0	1254096896	61	4345
2026-01-19 23:14:56.99	102.45	37.01	-45.3	-46.4	18.7	0.00e+00	0	39	0	1257242624	61	4270
2026-01-19 23:14:57.96	102.85	36.98	-45.2	-46.3	18.8	0.00e+00	0	39	0	1260388352	61	4233
2026-01-19 23:14:58.93	103.26	36.95	-45.2	-46.3	18.9	0.00e+00	0	39	0	1263534080	61	4225
2026-01-19 23:14:59.90	103.67	36.92	-45.3	-46.5	18.7	0.00e+00	0	39	0	1266679808	61	4317
2026-01-19 23:15:00.87	104.07	36.88	-45.4	-46.6	18.6	0.00e+00	0	39	0	1269825536	61	4359
2026-01-19 23:15:01.84	104.48	36.84	-45.5	-46.8	18.4	0.00e+00	0	39	0	1272971264	61	4449
2026-01-19 23:15:02.82	104.88	36.80	-45.5	-46.7	18.5	0.00e+00	0	39	0	1276116992	61	4425
2026-01-19 23:15:03.79	105.29	36.76	-45.3	-46.5	18.7	0.00e+00	0	39	0	1278214144	61	4323
2026-01-19 23:15:04.76	105.69	36.72	-45.4	-46.6	18.6	0.00e+00	0	39	0	1281359872	61	4381
2026-01-19 23:15:05.73	106.09	36.68	-45.5	-46.7	18.6	0.00e+00	0	39	0	1284505600	61	4400
2026-01-19 23:15:06.70	106.49	36.64	-45.3	-46.4	18.8	0.00e+00	0	39	0	1287651328	61	4268
2026-01-19 23:15:07.67	106.88	36.59	-45.3	-46.5	18.7	0.00e+00	0	39	0	1290797056	61	4314
2026-01-19 23:15:08.64	107.28	36.54	-45.7	-46.9	18.3	0.00e+00	0	39	0	1293942784	61	4543
2026-01-19 23:15:09.62	107.68	36.49	-45.6	-46.8	18.4	0.00e+00	0	39	0	1297088512	62	4222
2026-01-19 23:15:10.58	108.07	36.44	-45.6	-46.8	18.4	0.00e+00	0	39	0	1300234240	62	4211
2026-01-19 23:15:11.55	108.46	36.39	-45.4	-46.6	18.6	0.00e+00	0	38	0	1303379968	62	4134
2026-01-19 23:15:12.52	108.86	36.34	-45.2	-46.3	18.8	0.00e+00	0	39	0	1305477120	62	4003
2026-01-19 23:15:13.50	109.25	36.28	-45.1	-46.2	18.9	0.00e+00	0	39	0	1308622848	62	3930
2026-01-19 23:15:14.48	109.65	36.23	-45.2	-46.3	18.8	0.00e+00	0	39	0	1311768576	62	3990
2026-01-19 23:15:15.44	110.03	36.17	-45.3	-46.5	18.7	0.00e+00	0	39	0	1314914304	62	4064
2026-01-19 23:15:16.42	110.42	36.11	-45.2	-46.3	18.9	0.00e+00	0	39	0	1318060032	62	3974
2026-01-19 23:15:17.39	110.81	36.05	-45.1	-46.2	19.0	0.00e+00	0	39	0	1321205760	62	3941
2026-01-19 23:15:18.36	111.19	35.99	-45.2	-46.3	18.9	0.00e+00	0	39	0	1324351488	62	3988
2026-01-19 23:15:19.33	111.57	35.93	-45.2	-46.3	18.9	0.00e+00	0	39	0	1327497216	62	3984
2026-01-19 23:15:20.30	111.95	35.86	-45.1	-46.2	18.9	0.00e+00	0	39	0	1330642944	62	3951
2026-01-19 23:15:21.27	112.33	35.80	-45.1	-46.2	19.0	0.00e+00	0	39	0	1333788672	62	3917
2026-01-19 23:15:22.24	112.71	35.73	-44.9	-45.9	19.2	0.00e+00	0	39	0	1335885824	61	4043
2026-01-19 23:15:23.21	113.09	35.67	-44.5	-45.5	19.6	0.00e+00	0	39	0	1339031552	61	3866
2026-01-19 23:15:24.18	113.46	35.60	-44.5	-45.6	19.6	0.00e+00	0	39	0	1342177280	60	4104
2026-01-19 23:15:25.16	113.84	35.53	-44.6	-45.6	19.5	0.00e+00	0	39	0	1345323008	60	4134
2026-01-19 23:15:26.13	114.21	35.46	-44.3	-45.3	19.8	0.00e+00	0	39	0	1348468736	60	3974
2026-01-19 23:15:27.10	114.58	35.38	-44.0	-45.0	20.0	0.00e+00	0	39	0	1351614464	60	3844
2026-01-19 23:15:28.06	114.95	35.31	-44.2	-45.2	19.9	0.00e+00	0	39	0	1354760192	60	3919
2026-01-19 23:15:29.04	115.32	35.24	-44.3	-45.3	19.8	0.00e+00	0	39	0	1357905920	60	3985
2026-01-19 23:15:30.01	115.69	35.16	-44.4	-45.4	19.7	0.00e+00	0	39	0	1361051648	60	4021
2026-01-19 23:15:30.98	116.05	35.08	-44.3	-45.3	19.8	0.00e+00	0	39	0	1364197376	60	4000
2026-01-19 23:15:31.95	116.41	35.01	-44.2	-45.2	19.9	0.00e+00	0	39	0	1367343104	60	3924
2026-01-19 23:15:32.93	116.78	34.93	-44.1	-45.0	20.0	0.00e+00	0	39	0	1369440256	60	3868
2026-01-19 23:15:33.90	117.14	34.85	-44.1	-45.1	19.9	0.00e+00	0	39	0	1372585984	60	3891
2026-01-19 23:15:34.87	117.49	34.77	-44.2	-45.2	19.9	0.00e+00	0	39	0	1375731712	60	3928
2026-01-19 23:15:35.84	117.85	34.68	-44.2	-45.2	19.9	0.00e+00	0	39	0	1378877440	60	3919
2026-01-19 23:15:36.81	118.20	34.60	-44.2	-45.1	19.9	0.00e+00	0	39	0	1382023168	60	3903
2026-01-19 23:15:37.78	118.55	34.52	-44.1	-45.1	19.9	0.00e+00	0	39	0	1385168896	60	3904
2026-01-19 23:15:38.76	118.91	34.43	-44.1	-45.1	20.0	0.00e+00	0	39	0	1388314624	60	3901
2026-01-19 23:15:39.73	119.26	34.35	-44.1	-45.1	19.9	0.00e+00	0	39	0	1390411776	60	3906
2026-01-19 23:15:40.70	119.60	34.26	-44.0	-44.9	20.1	0.00e+00	0	39	0	1393557504	60	3813
2026-01-19 23:15:41.67	119.95	34.17	-44.2	-45.2	20.1	0.00e+00	0	39	0	1396703232	59	4180
2026-01-19 23:15:42.64	120.29	34.08	-44.4	-45.4	20.0	0.00e+00	0	39	0	1399848960	59	4243
2026-01-19 23:15:43.61	120.63	33.99	-44.3	-45.3	20.0	0.00e+00	0	39	0	1402994688	59	4227
2026-01-19 23:15:44.58	120.97	33.90	-44.5	-45.5	19.9	0.00e+00	0	39	0	1406140416	59	4321
2026-01-19 23:15:45.56	121.31	33.81	-44.5	-45.5	19.9	0.00e+00	0	39	0	1409286144	59	4298
2026-01-19 23:15:46.53	121.65	33.72	-44.3	-45.3	20.0	0.00e+00	0	39	0	1412431872	59	4226
2026-01-19 23:15:47.50	121.98	33.63	-44.3	-45.3	19.9	0.00e+00	0	39	0	1415577600	59	4202
2026-01-19 23:15:48.47	122.31	33.54	-44.4	-45.4	19.8	0.00e+00	0	39	0	1418723328	59	4249
2026-01-19 23:15:49.44	122.64	33.44	-44.2	-45.2	20.0	0.00e+00	0	39	0	1421869056	59	4187
2026-01-19 23:15:50.41	122.97	33.35	-44.1	-45.1	20.1	0.00e+00	0	39	0	1423966208	59	4119
2026-01-19 23:15:51.38	123.29	33.25	-44.1	-45.0	20.2	0.00e+00	0	39	0	1427111936	59	4087
2026-01-19 23:15:52.35	123.62	33.16	-44.0	-44.9	20.3	0.00e+00	0	39	0	1430257664	59	4036
2026-01-19 23:15:53.32	123.94	33.06	-44.1	-45.1	20.1	0.00e+00	0	39	0	1433403392	59	4127
2026-01-19 23:15:54.29	124.26	32.96	-44.1	-45.1	20.1	0.00e+00	0	39	0	1436549120	59	4130
2026-01-19 23:15:55.26	124.58	32.86	-44.3	-45.3	20.0	0.00e+00	0	39	0	1439694848	59	4208
2026-01-19 23:15:56.23	124.90	32.76	-44.3	-45.3	19.9	0.00e+00	0	39	0	1442840576	59	4237
2026-01-19 23:15:57.20	125.21	32.66	-44.2	-45.3	20.0	0.00e+00	0	39	0	1445986304	59	4194
2026-01-19 23:15:58.16	125.52	32.57	-44.1	-45.1	20.2	0.00e+00	0	39	0	1449132032	59	4100
2026-01-19 23:15:59.13	125.83	32.46	-44.1	-45.0	20.2	0.00e+00	0	39	0	1451229184	59	4091
2026-01-19 23:16:00.10	126.14	32.36	-44.2	-45.2	20.0	0.00e+00	0	39	0	1454374912	59	4186
2026-01-19 23:16:01.08	126.45	32.26	-44.2	-45.2	20.1	0.00e+00	0	39	0	1457520640	59	4161
2026-01-19 23:16:02.05	126.76	32.16	-44.1	-45.1	20.2	0.00e+00	0	39	0	1460666368	59	4113
2026-01-19 23:16:03.01	127.06	32.06	-44.1	-45.1	20.2	0.00e+00	0	39	0	1463812096	59	4129
2026-01-19 23:16:03.99	127.36	31.95	-44.0	-44.9	20.3	0.00e+00	0	39	0	1466957824	59	4048
2026-01-19 23:16:04.95	127.66	31.85	-43.9	-44.8	20.5	0.00e+00	0	39	0	1470103552	59	3984
2026-01-19 23:16:05.92	127.96	31.75	-44.0	-44.9	20.4	0.00e+00	0	39	0	1473249280	59	4039
2026-01-19 23:16:06.89	128.25	31.64	-44.1	-45.0	20.3	0.00e+00	0	39	0	1476395008	59	4089
2026-01-19 23:16:07.86	128.55	31.54	-44.2	-45.2	20.1	0.00e+00	0	39	0	1479540736	59	4171
2026-01-19 23:16:08.83	128.84	31.43	-44.0	-45.0	20.4	0.00e+00	0	39	0	1481637888	59	4053
2026-01-19 23:16:09.80	129.13	31.32	-43.8	-44.7	20.6	0.00e+00	0	39	0	1484783616	59	3928
2026-01-19 23:16:10.77	129.42	31.22	-43.7	-44.6	20.7	0.00e+00	0	39	0	1487929344	59	3890
2026-01-19 23:16:11.75	129.71	31.11	-43.6	-44.5	20.8	0.00e+00	0	39	0	1491075072	59	3860
2026-01-19 23:16:12.71	129.99	31.00	-43.5	-44.4	20.8	0.00e+00	0	39	0	1494220800	59	3818
2026-01-19 23:16:13.69	130.28	30.89	-43.6	-44.5	20.7	0.00e+00	0	39	0	1497366528	58	4067
2026-01-19 23:16:14.66	130.56	30.79	-43.6	-44.5	20.7	0.00e+00	0	38	0	1500512256	58	4078
2026-01-19 23:16:15.63	130.84	30.68	-43.5	-44.5	20.8	0.00e+00	0	39	0	1502609408	58	4055
2026-01-19 23:16:16.60	131.11	30.57	-43.5	-44.4	20.8	0.00e+00	0	39	0	1505755136	58	4015
2026-01-19 23:16:17.57	131.39	30.46	-43.5	-44.5	20.7	0.00e+00	0	39	0	1508900864	58	4057
2026-01-19 23:16:18.55	131.67	30.35	-43.7	-44.7	20.5	0.00e+00	0	39	0	1512046592	58	4164
2026-01-19 23:16:19.52	131.94	30.24	-43.7	-44.6	20.6	0.00e+00	0	39	0	1515192320	58	4118
2026-01-19 23:16:20.49	132.21	30.13	-43.8	-44.7	20.5	0.00e+00	0	39	0	1518338048	58	4192
2026-01-19 23:16:21.46	132.48	30.02	-43.9	-44.8	20.4	0.00e+00	0	39	0	1521483776	58	4230
2026-01-19 23:16:22.43	132.74	29.91	-43.9	-44.9	20.3	0.00e+00	0	39	0	1524629504	58	4251
2026-01-19 23:16:23.40	133.01	29.80	-44.1	-45.0	20.2	0.00e+00	0	39	0	1527775232	58	4336
2026-01-19 23:16:24.37	133.27	29.69	-44.3	-45.3	20.0	0.00e+00	0	39	0	1530920960	59	4199
2026-01-19 23:16:25.34	133.53	29.58	-44.5	-45.6	19.7	0.00e+00	0	39	0	1534066688	59	4341
2026-01-19 23:16:26.31	133.79	29.47	-44.6	-45.7	19.6	0.00e+00	0	39	0	1536163840	59	4395
2026-01-19 23:16:27.28	134.05	29.36	-44.6	-45.7	19.6	0.00e+00	0	39	0	1539309568	59	4405
2026-01-19 23:16:28.26	134.31	29.24	-44.5	-45.6	19.7	0.00e+00	0	39	0	1542455296	59	4353
2026-01-19 23:16:29.23	134.56	29.13	-44.4	-45.5	19.8	0.00e+00	0	39	0	1545601024	59	4293
2026-01-19 23:16:30.20	134.82	29.02	-44.4	-45.4	19.9	0.00e+00	0	39	0	1548746752	59	4252
2026-01-19 23:16:31.17	135.07	28.91	-44.1	-45.1	20.1	0.00e+00	0	39	0	1551892480	59	4125
2026-01-19 23:16:32.14	135.32	28.80	-44.1	-45.1	20.1	0.00e+00	0	39	0	1555038208	59	4138
2026-01-19 23:16:33.12	135.57	28.68	-44.0	-45.0	20.2	0.00e+00	0	39	0	1558183936	59	4088
2026-01-19 23:16:34.09	135.81	28.57	-44.0	-45.0	20.2	0.00e+00	0	39	0	1561329664	59	4062
2026-01-19 23:16:35.06	136.06	28.46	-44.1	-45.1	20.2	0.00e+00	0	39	0	1564475392	59	4108
2026-01-19 23:16:36.03	136.30	28.35	-44.0	-45.0	20.2	0.00e+00	0	39	0	1566572544	59	4073
2026-01-19 23:16:37.01	136.54	28.23	-43.9	-44.9	20.4	0.00e+00	0	39	0	1569718272	59	4010
2026-01-19 23:16:37.98	136.78	28.12	-43.8	-44.7	20.4	0.00e+00	0	39	0	1572864000	59	3956
2026-01-19 23:16:38.95	137.02	28.01	-43.8	-44.8	20.4	0.00e+00	0	39	0	1576009728	59	3971
2026-01-19 23:16:39.92	137.25	27.89	-43.8	-44.8	20.4	0.00e+00	0	39	0	1579155456	59	3985
2026-01-19 23:16:40.89	137.49	27.78	-43.8	-44.8	20.4	0.00e+00	0	39	0	1582301184	59	3986
2026-01-19 23:16:41.85	137.72	27.67	-43.9	-44.8	20.4	0.00e+00	0	39	0	1585446912	59	3995
2026-01-19 23:16:42.82	137.95	27.56	-43.8	-44.8	20.4	0.00e+00	0	39	0	1588592640	59	3989
2026-01-19 23:16:43.80	138.18	27.44	-43.8	-44.8	20.4	0.00e+00	0	39	0	1591738368	59	3964
2026-01-19 23:16:44.76	138.41	27.33	-43.9	-44.9	20.3	0.00e+00	0	39	0	1593835520	59	4033
2026-01-19 23:16:45.73	138.63	27.22	-44.1	-45.1	20.1	0.00e+00	0	39	0	1596981248	59	4115
2026-01-19 23:16:46.71	138.86	27.10	-44.1	-45.1	20.1	0.00e+00	0	39	0	1600126976	59	4106
2026-01-19 23:16:47.68	139.08	26.99	-44.1	-45.1	20.1	0.00e+00	0	39	0	1603272704	59	4111
2026-01-19 23:16:48.65	139.30	26.88	-43.8	-44.7	20.4	0.00e+00	0	39	0	1606418432	59	3950
2026-01-19 23:16:49.62	139.52	26.77	-43.8	-44.7	20.4	0.00e+00	0	39	0	1609564160	59	3952
2026-01-19 23:16:50.59	139.74	26.65	-43.5	-44.5	20.6	0.00e+00	0	39	0	1612709888	59	3832
2026-01-19 23:16:51.56	139.96	26.54	-43.4	-44.4	20.8	0.00e+00	0	39	0	1615855616	58	4006
2026-01-19 23:16:52.53	140.18	26.43	-43.4	-44.3	20.8	0.00e+00	0	39	0	1617952768	58	4002
2026-01-19 23:16:53.51	140.39	26.31	-43.3	-44.2	20.9	0.00e+00	0	39	0	1621098496	58	3950
2026-01-19 23:16:54.48	140.61	26.20	-43.5	-44.4	20.7	0.00e+00	0	39	0	1624244224	58	4017
2026-01-19 23:16:55.46	140.82	26.09	-43.3	-44.3	20.9	0.00e+00	0	39	0	1627389952	58	3964
2026-01-19 23:16:56.43	141.03	25.97	-43.2	-44.1	20.9	0.00e+00	0	38	0	1630535680	58	3910
2026-01-19 23:16:57.40	141.24	25.86	-43.3	-44.2	20.9	0.00e+00	0	38	0	1633681408	58	3932
2026-01-19 23:16:58.37	141.44	25.75	-43.3	-44.2	20.9	0.00e+00	0	39	0	1636827136	58	3948
2026-01-19 23:16:59.34	141.65	25.64	-43.4	-44.3	20.8	0.00e+00	0	39	0	1639972864	58	3993
2026-01-19 23:17:00.31	141.85	25.53	-43.3	-44.2	20.9	0.00e+00	0	39	0	1643118592	58	3931
2026-01-19 23:17:01.28	142.06	25.41	-43.2	-44.1	21.0	0.00e+00	0	39	0	1646264320	58	3874
2026-01-19 23:17:02.26	142.26	25.30	-43.2	-44.1	21.0	0.00e+00	0	39	0	1649410048	58	3891
2026-01-19 23:17:03.23	142.46	25.19	-43.3	-44.2	20.9	0.00e+00	0	39	0	1651507200	58	3921
2026-01-19 23:17:04.21	142.66	25.08	-43.3	-44.2	20.8	0.00e+00	0	39	0	1654652928	58	3926
2026-01-19 23:17:05.18	142.86	24.96	-43.4	-44.3	20.8	0.00e+00	0	39	0	1657798656	58	3985
2026-01-19 23:17:06.15	143.05	24.85	-43.4	-44.3	20.7	0.00e+00	0	38	0	1660944384	58	3988
2026-01-19 23:17:07.12	143.25	24.74	-43.3	-44.2	20.8	0.00e+00	0	39	0	1664090112	58	3942
2026-01-19 23:17:08.09	143.44	24.63	-43.2	-44.1	21.0	0.00e+00	0	39	0	1667235840	58	3876
2026-01-19 23:17:09.07	143.63	24.52	-43.2	-44.1	21.0	0.00e+00	0	39	0	1670381568	58	3891
2026-01-19 23:17:10.04	143.82	24.41	-43.2	-44.1	20.9	0.00e+00	0	39	0	1673527296	58	3897
2026-01-19 23:17:11.03	144.02	24.29	-43.1	-44.0	21.0	0.00e+00	0	38	0	1676673024	58	3858
2026-01-19 23:17:12.02	144.21	24.18	-43.2	-44.1	20.9	0.00e+00	0	38	0	1679818752	58	3886
2026-01-19 23:17:13.01	144.40	24.07	-43.2	-44.1	20.9	0.00e+00	0	39	0	1682964480	58	3901
2026-01-19 23:17:14.00	144.59	23.96	-43.2	-44.1	20.9	0.00e+00	0	39	0	1686110208	58	3912
2026-01-19 23:17:14.99	144.77	23.84	-43.3	-44.2	20.7	0.00e+00	0	39	0	1688207360	58	3956
2026-01-19 23:17:15.99	144.96	23.73	-43.4	-44.3	20.7	0.00e+00	0	39	0	1691353088	58	3992
2026-01-19 23:17:16.99	145.15	23.62	-43.5	-44.5	20.6	0.00e+00	0	39	0	1694498816	58	4071
2026-01-19 23:17:18.00	145.34	23.50	-43.6	-44.5	20.5	0.00e+00	0	39	0	1697644544	58	4090
2026-01-19 23:17:19.01	145.52	23.39	-43.5	-44.5	20.5	0.00e+00	0	39	0	1700790272	58	4076
2026-01-19 23:17:20.02	145.71	23.27	-43.6	-44.5	20.5	0.00e+00	0	38	0	1703936000	58	4096
2026-01-19 23:17:21.03	145.89	23.16	-43.6	-44.5	20.5	0.00e+00	0	39	0	1707081728	58	4086
2026-01-19 23:17:22.04	146.07	23.05	-43.5	-44.5	20.6	0.00e+00	0	39	0	1710227456	58	4059
2026-01-19 23:17:23.04	146.25	22.94	-43.5	-44.5	20.5	0.00e+00	0	39	0	1713373184	58	4068
2026-01-19 23:17:24.03	146.43	22.83	-43.5	-44.5	20.6	0.00e+00	0	39	0	1716518912	58	4062
2026-01-19 23:17:25.04	146.61	22.71	-43.6	-44.6	20.5	0.00e+00	0	39	0	1719664640	58	4113
2026-01-19 23:17:26.04	146.78	22.60	-43.6	-44.6	20.4	0.00e+00	0	39	0	1723858944	58	4118
2026-01-19 23:17:27.05	146.96	22.49	-43.7	-44.6	20.4	0.00e+00	0	39	0	1727004672	58	4135
2026-01-19 23:17:28.05	147.13	22.38	-43.7	-44.6	20.4	0.00e+00	0	39	0	1730150400	58	4131
2026-01-19 23:17:29.05	147.30	22.27	-43.7	-44.7	20.4	0.00e+00	0	39	0	1733296128	58	4148
2026-01-19 23:17:30.05	147.48	22.16	-43.9	-44.8	20.2	0.00e+00	0	39	0	1735393280	58	4241
2026-01-19 23:17:31.05	147.64	22.05	-44.0	-45.0	20.1	0.00e+00	0	39	0	1738539008	58	4307
2026-01-19 23:17:32.05	147.81	21.94	-44.0	-45.0	20.0	0.00e+00	0	39	0	1741684736	58	4330
2026-01-19 23:17:33.05	147.98	21.83	-44.1	-45.1	19.9	0.00e+00	0	39	0	1744830464	58	4372
2026-01-19 23:17:34.05	148.15	21.72	-44.1	-45.1	20.0	0.00e+00	0	39	0	1747976192	58	4365
2026-01-19 23:17:35.06	148.31	21.61	-44.1	-45.1	19.9	0.00e+00	0	39	0	1751121920	58	4385
2026-01-19 23:17:36.07	148.48	21.50	-44.0	-45.0	20.0	0.00e+00	0	39	0	1754267648	58	4339
2026-01-19 23:17:37.07	148.64	21.39	-43.9	-44.9	20.1	0.00e+00	0	39	0	1757413376	58	4278
2026-01-19 23:17:38.07	148.80	21.28	-43.9	-44.9	20.1	0.00e+00	0	39	0	1760559104	58	4277
2026-01-19 23:17:39.07	148.96	21.17	-44.0	-45.0	20.0	0.00e+00	0	39	0	1763704832	58	4340
2026-01-19 23:17:40.07	149.12	21.06	-44.0	-45.1	19.9	0.00e+00	0	39	0	1766850560	58	4351
2026-01-19 23:17:41.07	149.28	20.95	-44.2	-45.2	19.8	0.00e+00	0	39	0	1769996288	58	4411
2026-01-19 23:17:42.07	149.44	20.85	-44.2	-45.2	19.8	0.00e+00	0	39	0	1773142016	59	4178
2026-01-19 23:17:43.07	149.59	20.74	-44.0	-45.1	19.9	0.00e+00	0	39	0	1776287744	59	4108
2026-01-19 23:17:44.08	149.75	20.63	-44.1	-45.1	20.0	0.00e+00	0	39	0	1779433472	59	4112
2026-01-19 23:17:45.08	149.90	20.52	-44.0	-45.0	20.0	0.00e+00	0	39	0	1782579200	59	4077
2026-01-19 23:17:46.08	150.06	20.42	-43.9	-44.9	20.1	0.00e+00	0	39	0	1785724928	59	4042
2026-01-19 23:17:47.08	150.21	20.31	-43.7	-44.6	20.3	0.00e+00	0	39	0	1788870656	59	3907
2026-01-19 23:17:48.08	150.36	20.21	-43.7	-44.6	20.3	0.00e+00	0	39	0	1792016384	59	3901
2026-01-19 23:17:49.08	150.51	20.10	-43.7	-44.7	20.3	0.00e+00	0	39	0	1795162112	59	3924
2026-01-19 23:17:50.08	150.66	19.99	-43.7	-44.7	20.3	0.00e+00	0	39	0	1798307840	59	3935
2026-01-19 23:17:51.09	150.81	19.89	-43.6	-44.5	20.4	0.00e+00	0	39	0	1801453568	59	3851
2026-01-19 23:17:52.09	150.96	19.78	-43.6	-44.6	20.4	0.00e+00	0	39	0	1804599296	59	3881
2026-01-19 23:17:53.09	151.10	19.68	-43.5	-44.5	20.4	0.00e+00	0	39	0	1807745024	59	3848
2026-01-19 23:17:54.09	151.25	19.57	-43.6	-44.5	20.4	0.00e+00	0	39	0	1810890752	59	3861
2026-01-19 23:17:55.10	151.39	19.47	-43.4	-44.3	20.6	0.00e+00	0	39	0	1814036480	58	3986
2026-01-19 23:17:56.09	151.53	19.36	-43.4	-44.4	20.6	0.00e+00	0	39	0	1817182208	58	4014
2026-01-19 23:17:57.10	151.68	19.26	-43.5	-44.5	20.4	0.00e+00	0	39	0	1820327936	58	4076
2026-01-19 23:17:58.11	151.82	19.16	-43.5	-44.5	20.5	0.00e+00	0	39	0	1823473664	58	4052
2026-01-19 23:17:59.11	151.96	19.05	-43.7	-44.6	20.3	0.00e+00	0	39	0	1826619392	58	4133
2026-01-19 23:18:00.10	152.10	18.95	-43.8	-44.7	20.2	0.00e+00	0	39	0	1829765120	58	4182
2026-01-19 23:18:01.10	152.24	18.85	-43.7	-44.7	20.2	0.00e+00	0	39	0	1832910848	58	4168
2026-01-19 23:18:02.11	152.38	18.74	-43.7	-44.7	20.3	0.00e+00	0	39	0	1836056576	58	4169
2026-01-19 23:18:03.11	152.51	18.64	-43.7	-44.7	20.2	0.00e+00	0	39	0	1839202304	58	4171
2026-01-19 23:18:04.12	152.65	18.54	-43.8	-44.8	20.1	0.00e+00	0	39	0	1842348032	58	4216
2026-01-19 23:18:05.12	152.79	18.44	-43.8	-44.8	20.1	0.00e+00	0	39	0	1845493760	58	4239
2026-01-19 23:18:06.13	152.92	18.34	-43.8	-44.8	20.1	0.00e+00	0	39	0	1848639488	58	4209
2026-01-19 23:18:07.13	153.06	18.23	-43.8	-44.8	20.1	0.00e+00	0	39	0	1851785216	58	4230
2026-01-19 23:18:08.13	153.19	18.13	-43.8	-44.8	20.1	0.00e+00	0	39	0	1854930944	58	4210
2026-01-19 23:18:09.14	153.32	18.03	-43.8	-44.8	20.1	0.00e+00	0	39	0	1858076672	58	4223
2026-01-19 23:18:10.14	153.45	17.93	-43.6	-44.6	20.3	0.00e+00	0	39	0	1861222400	58	4099
2026-01-19 23:18:11.14	153.58	17.83	-43.7	-44.6	20.3	0.00e+00	0	39	0	1864368128	58	4135
2026-01-19 23:18:12.14	153.71	17.73	-43.7	-44.7	20.2	0.00e+00	0	39	0	1867513856	58	4152
2026-01-19 23:18:13.14	153.84	17.63	-43.8	-44.8	20.1	0.00e+00	0	39	0	1870659584	58	4195
2026-01-19 23:18:14.14	153.97	17.53	-43.8	-44.8	20.1	0.00e+00	0	39	0	1873805312	58	4239
2026-01-19 23:18:15.15	154.09	17.43	-44.0	-45.0	19.9	0.00e+00	0	39	0	1876951040	58	4327
2026-01-19 23:18:16.15	154.22	17.33	-43.9	-45.0	19.9	0.00e+00	0	39	0	1880096768	58	4295
2026-01-19 23:18:17.15	154.35	17.24	-44.0	-45.0	19.9	0.00e+00	0	39	0	1883242496	58	4305
2026-01-19 23:18:18.15	154.47	17.14	-44.0	-45.0	19.9	0.00e+00	0	39	0	1886388224	58	4309
2026-01-19 23:18:19.15	154.59	17.04	-44.0	-45.1	19.9	0.00e+00	0	39	0	1889533952	58	4354
2026-01-19 23:18:20.15	154.72	16.94	-44.1	-45.1	19.8	0.00e+00	0	39	0	1892679680	58	4360
2026-01-19 23:18:21.15	154.84	16.84	-43.9	-44.9	20.0	0.00e+00	0	38	0	1895825408	58	4271
2026-01-19 23:18:22.15	154.96	16.75	-44.0	-45.0	19.9	0.00e+00	0	39	0	1898971136	58	4318
2026-01-19 23:18:23.15	155.08	16.65	-44.1	-45.1	19.8	0.00e+00	0	39	0	1902116864	58	4381
2026-01-19 23:18:24.14	155.20	16.56	-44.1	-45.1	19.7	0.00e+00	0	39	0	1905262592	58	4376
2026-01-19 23:18:25.14	155.32	16.46	-44.1	-45.1	19.8	0.00e+00	0	39	0	1908408320	58	4361
2026-01-19 23:18:26.14	155.44	16.36	-44.0	-45.0	19.8	0.00e+00	0	39	0	1911554048	58	4340
2026-01-19 23:18:27.14	155.55	16.27	-44.2	-45.2	19.7	0.00e+00	0	39	0	1913651200	58	4412
2026-01-19 23:18:28.14	155.67	16.17	-44.2	-45.3	19.6	0.00e+00	0	39	0	1917845504	59	4211
2026-01-19 23:18:29.14	155.79	16.08	-44.3	-45.4	19.5	0.00e+00	0	39	0	1920991232	59	4245
2026-01-19 23:18:30.14	155.90	15.98	-44.3	-45.4	19.5	0.00e+00	0	39	0	1923088384	59	4251
2026-01-19 23:18:31.13	156.02	15.89	-44.3	-45.4	19.5	0.00e+00	0	38	0	1926234112	59	4247
2026-01-19 23:18:32.13	156.13	15.79	-44.4	-45.5	19.4	0.00e+00	0	39	0	1929379840	59	4293
2026-01-19 23:18:33.13	156.24	15.70	-44.4	-45.5	19.4	0.00e+00	0	39	0	1932525568	59	4298
2026-01-19 23:18:34.13	156.36	15.61	-44.4	-45.5	19.3	0.00e+00	0	39	0	1935671296	59	4329
2026-01-19 23:18:35.14	156.47	15.51	-44.5	-45.6	19.3	0.00e+00	0	39	0	1938817024	59	4343
2026-01-19 23:18:36.14	156.58	15.42	-44.5	-45.6	19.3	0.00e+00	0	39	0	1941962752	59	4386
2026-01-19 23:18:37.14	156.69	15.32	-44.5	-45.6	19.3	0.00e+00	0	39	0	1945108480	59	4363
2026-01-19 23:18:38.14	156.80	15.23	-44.4	-45.5	19.4	0.00e+00	0	38	0	1948254208	59	4321
2026-01-19 23:18:39.14	156.91	15.14	-44.4	-45.5	19.4	0.00e+00	0	39	0	1951399936	59	4319
2026-01-19 23:18:40.14	157.02	15.05	-44.5	-45.6	19.3	0.00e+00	0	39	0	1954545664	59	4344
2026-01-19 23:18:41.14	157.13	14.95	-44.4	-45.5	19.4	0.00e+00	0	39	0	1957691392	59	4333
2026-01-19 23:18:42.13	157.23	14.86	-44.5	-45.6	19.3	0.00e+00	0	39	0	1960837120	59	4368
2026-01-19 23:18:43.14	157.34	14.77	-44.6	-45.7	19.2	0.00e+00	0	39	0	1963982848	59	4403
2026-01-19 23:18:44.13	157.45	14.68	-44.4	-45.5	19.4	0.00e+00	0	39	0	1967128576	59	4323
2026-01-19 23:18:45.13	157.55	14.59	-44.6	-45.7	19.2	0.00e+00	0	39	0	1970274304	59	4394
2026-01-19 23:18:46.13	157.66	14.50	-44.6	-45.7	19.1	0.00e+00	0	39	0	1973420032	59	4424
2026-01-19 23:18:47.13	157.76	14.41	-44.6	-45.8	19.1	0.00e+00	0	39	0	1976565760	59	4443
2026-01-19 23:18:48.13	157.86	14.32	-44.4	-45.5	19.1	0.00e+00	0	39	0	1979711488	60	4074
2026-01-19 23:18:49.13	157.97	14.23	-44.4	-45.5	19.1	0.00e+00	0	39	0	1982857216	60	4093
2026-01-19 23:18:50.13	158.07	14.14	-44.3	-45.4	19.2	0.00e+00	0	39	0	1986002944	60	4028
