passes_logs/2026/01/19/R3.2S_Murmansk/R3.2S_Murmansk__20260119_015716_NOAA_20_JPSS-1_rec.log

#Pass ID: 20260119_015716_NOAA 20 (JPSS-1)
#Satellite: NOAA 20 (JPSS-1)
#Configuration: NOAA 20
#almurnet v.1.7.20251203
#Start time: 2026-01-19 01:57:16

#Version: 2.2.20231116
#Station: R3.2S_Murmansk
#Location: 33.079688 lon 68.888172 lat
#TLE: 1 43013U 17073A   26018.57232797  .00000065  00000+0  51758-4 0  9998
#TLE: 2 43013  98.7640 319.4740 0001368  34.2083 325.9181 14.19536753423241

#Time	Az	El	Level	Level2	SNR	BER	BlckErr	Temp	State	Recorded	gain1	gain2
2026-01-19 01:57:16.82	30.46	2.03	-48.1	-62.9	3.8	1.49e+00	0	35	0	0	66	21499
2026-01-19 01:57:17.83	30.43	2.10	-48.1	-63.0	3.8	1.49e+00	0	35	104	0	66	21567
2026-01-19 01:57:18.84	30.41	2.16	-48.1	-62.9	3.8	1.49e+00	0	35	104	0	66	21496
2026-01-19 01:57:19.85	30.38	2.22	-48.1	-63.0	3.8	1.49e+00	0	35	104	0	66	21510
2026-01-19 01:57:20.86	30.35	2.29	-48.1	-63.0	3.8	1.49e+00	0	35	104	0	66	21523
2026-01-19 01:57:21.86	30.32	2.35	-48.1	-63.0	3.8	1.49e+00	0	35	104	0	66	21534
2026-01-19 01:57:22.87	30.30	2.41	-48.1	-62.9	3.8	1.49e+00	0	35	104	0	66	21480
2026-01-19 01:57:23.88	30.27	2.48	-48.1	-63.0	3.8	1.49e+00	0	35	104	0	66	21507
2026-01-19 01:57:24.89	30.24	2.54	-48.1	-63.0	3.8	1.49e+00	0	35	104	0	66	21526
2026-01-19 01:57:25.90	30.21	2.61	-48.1	-62.9	3.8	1.49e+00	0	35	104	0	66	21474
2026-01-19 01:57:26.90	30.18	2.67	-48.1	-63.0	3.8	1.49e+00	0	35	104	0	66	21525
2026-01-19 01:57:27.91	30.15	2.74	-48.1	-62.9	3.8	1.49e+00	0	35	104	0	66	21493
2026-01-19 01:57:28.92	30.12	2.80	-48.1	-62.9	3.8	1.49e+00	0	35	104	0	66	21422
2026-01-19 01:57:29.93	30.10	2.87	-48.1	-62.9	3.8	1.49e+00	0	35	104	0	66	21499
2026-01-19 01:57:30.94	30.07	2.93	-48.1	-62.9	3.8	1.49e+00	0	35	104	0	66	21468
2026-01-19 01:57:31.95	30.04	3.00	-48.1	-62.9	3.8	1.49e+00	0	35	104	0	66	21489
2026-01-19 01:57:32.96	30.01	3.06	-48.1	-62.9	3.8	1.49e+00	0	35	104	0	66	21496
2026-01-19 01:57:33.96	29.98	3.13	-48.1	-62.9	3.8	1.49e+00	0	35	104	0	66	21489
2026-01-19 01:57:34.97	29.95	3.19	-48.1	-62.9	3.8	1.49e+00	0	35	104	0	66	21498
2026-01-19 01:57:35.98	29.92	3.26	-48.1	-62.9	3.8	1.49e+00	0	35	104	0	66	21490
2026-01-19 01:57:36.99	29.89	3.32	-48.1	-62.9	3.8	1.49e+00	0	35	104	0	66	21459
2026-01-19 01:57:38.00	29.86	3.39	-48.1	-63.0	3.8	1.49e+00	0	35	104	0	66	21520
2026-01-19 01:57:39.00	29.83	3.46	-48.1	-63.0	3.8	1.49e+00	0	36	104	0	66	21516
2026-01-19 01:57:40.01	29.80	3.52	-48.1	-62.9	3.8	1.49e+00	0	35	104	0	66	21476
2026-01-19 01:57:41.02	29.77	3.59	-48.1	-63.0	3.8	1.49e+00	0	36	104	0	66	21511
2026-01-19 01:57:42.03	29.74	3.66	-48.1	-62.9	3.8	1.49e+00	0	35	104	0	66	21495
2026-01-19 01:57:43.03	29.70	3.72	-48.1	-62.9	3.8	1.49e+00	0	35	104	0	66	21476
2026-01-19 01:57:44.04	29.67	3.79	-48.1	-62.9	3.8	1.49e+00	0	35	104	0	66	21487
2026-01-19 01:57:45.05	29.64	3.86	-48.1	-62.9	3.8	1.49e+00	0	35	104	0	66	21496
2026-01-19 01:57:46.06	29.61	3.92	-48.1	-62.9	3.8	1.49e+00	0	35	104	0	66	21426
2026-01-19 01:57:47.06	29.58	3.99	-48.1	-62.9	3.8	1.49e+00	0	36	104	0	66	21368
2026-01-19 01:57:48.07	29.55	4.06	-48.1	-62.9	3.8	1.49e+00	0	36	104	0	66	21420
2026-01-19 01:57:49.08	29.51	4.13	-48.1	-62.9	3.8	1.49e+00	0	35	104	0	66	21419
2026-01-19 01:57:50.09	29.48	4.19	-48.1	-62.9	3.8	1.49e+00	0	35	104	0	66	21429
2026-01-19 01:57:51.10	29.45	4.26	-48.1	-62.9	3.8	1.49e+00	0	36	104	0	66	21440
2026-01-19 01:57:52.10	29.42	4.33	-48.1	-63.0	3.8	1.49e+00	0	36	104	0	66	21507
2026-01-19 01:57:53.11	29.38	4.40	-48.1	-62.9	3.8	1.49e+00	0	36	104	0	66	21483
2026-01-19 01:57:54.12	29.35	4.47	-48.1	-62.9	3.8	1.49e+00	0	36	104	0	66	21455
2026-01-19 01:57:55.13	29.32	4.54	-48.1	-62.9	3.8	1.49e+00	0	36	104	0	66	21458
2026-01-19 01:57:56.14	29.29	4.60	-48.1	-62.9	3.8	1.49e+00	0	36	104	0	66	21443
2026-01-19 01:57:57.14	29.25	4.67	-48.1	-62.9	3.8	1.49e+00	0	36	104	0	66	21407
2026-01-19 01:57:58.15	29.22	4.74	-48.1	-62.9	3.8	1.49e+00	0	36	104	0	66	21437
2026-01-19 01:57:59.16	29.19	4.81	-48.1	-62.9	3.8	1.49e+00	0	36	104	0	66	21411
2026-01-19 01:58:00.17	29.15	4.88	-48.1	-62.9	3.8	1.49e+00	0	36	104	0	66	21418
2026-01-19 01:58:01.18	29.12	4.95	-48.1	-62.9	3.8	1.49e+00	0	36	104	0	66	21415
2026-01-19 01:58:02.18	29.08	5.02	-48.1	-62.9	3.8	1.49e+00	0	36	104	0	66	21382
2026-01-19 01:58:03.19	29.05	5.09	-48.1	-62.9	3.8	1.49e+00	0	36	104	0	66	21427
2026-01-19 01:58:04.20	29.01	5.16	-48.1	-62.9	3.8	1.49e+00	0	36	104	0	66	21410
2026-01-19 01:58:05.21	28.98	5.23	-48.1	-62.9	3.8	1.49e+00	0	36	104	0	66	21457
2026-01-19 01:58:06.22	28.94	5.30	-48.1	-62.9	3.8	1.49e+00	0	36	104	0	66	21412
2026-01-19 01:58:07.22	28.91	5.37	-48.1	-62.9	3.8	1.49e+00	0	36	104	0	66	21471
2026-01-19 01:58:08.23	28.87	5.44	-48.1	-62.9	3.8	1.49e+00	0	36	104	0	66	21474
2026-01-19 01:58:09.24	28.84	5.51	-48.1	-62.9	3.8	1.49e+00	0	36	104	0	66	21503
2026-01-19 01:58:10.25	28.80	5.59	-48.1	-62.9	3.8	1.49e+00	0	36	104	0	66	21448
2026-01-19 01:58:11.26	28.77	5.66	-48.1	-62.9	3.8	1.49e+00	0	36	104	0	66	21428
2026-01-19 01:58:12.26	28.73	5.73	-48.1	-63.0	3.8	1.49e+00	0	36	104	0	66	21521
2026-01-19 01:58:13.27	28.69	5.80	-48.1	-62.9	3.8	1.49e+00	0	36	104	0	66	21475
2026-01-19 01:58:14.28	28.66	5.87	-48.1	-62.9	3.8	1.49e+00	0	36	104	0	66	21492
2026-01-19 01:58:15.29	28.62	5.95	-48.1	-62.9	3.8	1.49e+00	0	36	104	0	66	21480
2026-01-19 01:58:16.30	28.58	6.02	-48.1	-63.0	3.8	1.49e+00	0	36	104	0	66	21523
2026-01-19 01:58:17.30	28.55	6.09	-48.1	-62.9	3.8	1.49e+00	0	36	104	0	66	21476
2026-01-19 01:58:18.31	28.51	6.16	-48.1	-62.9	3.8	1.49e+00	0	36	104	0	66	21487
2026-01-19 01:58:19.32	28.47	6.24	-48.1	-62.9	3.8	1.49e+00	0	36	104	0	66	21494
2026-01-19 01:58:20.33	28.43	6.31	-48.1	-63.0	3.8	1.49e+00	0	36	104	0	66	21556
2026-01-19 01:58:21.34	28.39	6.38	-48.1	-62.9	3.8	1.49e+00	0	36	104	0	66	21406
2026-01-19 01:58:22.35	28.36	6.46	-48.1	-62.9	3.8	1.49e+00	0	36	104	0	66	21445
2026-01-19 01:58:23.35	28.32	6.53	-48.1	-62.9	3.8	1.49e+00	0	36	104	0	66	21452
2026-01-19 01:58:24.36	28.28	6.60	-48.1	-62.9	3.8	1.49e+00	0	36	104	0	66	21451
2026-01-19 01:58:25.36	28.24	6.68	-48.1	-62.9	3.8	1.49e+00	0	36	104	0	66	21393
2026-01-19 01:58:26.37	28.20	6.75	-48.1	-62.9	3.8	1.49e+00	0	36	104	0	66	21500
2026-01-19 01:58:27.38	28.16	6.83	-48.1	-62.9	3.8	1.49e+00	0	36	104	0	66	21445
2026-01-19 01:58:28.39	28.12	6.90	-48.1	-63.0	3.8	1.49e+00	0	36	104	0	66	21532
2026-01-19 01:58:29.40	28.08	6.98	-48.1	-63.0	3.8	1.49e+00	0	36	104	0	66	21526
2026-01-19 01:58:30.40	28.04	7.05	-48.1	-62.9	3.8	1.49e+00	0	36	104	0	66	21469
2026-01-19 01:58:31.41	28.00	7.13	-48.1	-62.9	3.8	1.49e+00	0	36	104	0	66	21504
2026-01-19 01:58:32.42	27.96	7.20	-48.1	-62.9	3.8	1.49e+00	0	36	104	0	66	21472
2026-01-19 01:58:33.43	27.92	7.28	-48.1	-62.9	3.8	1.49e+00	0	36	104	0	66	21494
2026-01-19 01:58:34.44	27.88	7.35	-48.1	-63.0	3.8	1.49e+00	0	36	104	0	66	21514
2026-01-19 01:58:35.45	27.84	7.43	-48.1	-63.0	3.8	1.49e+00	0	36	104	0	66	21526
2026-01-19 01:58:36.46	27.80	7.51	-48.1	-63.0	3.8	1.49e+00	0	36	104	0	66	21507
2026-01-19 01:58:37.46	27.76	7.58	-48.1	-63.0	3.8	1.49e+00	0	36	104	0	66	21510
2026-01-19 01:58:38.47	27.71	7.66	-48.1	-62.9	3.8	1.49e+00	0	36	104	0	66	21500
2026-01-19 01:58:39.48	27.67	7.74	-48.1	-63.0	3.8	1.49e+00	0	36	104	0	66	21510
2026-01-19 01:58:40.49	27.63	7.81	-48.1	-63.0	3.8	1.49e+00	0	36	104	0	66	21536
2026-01-19 01:58:41.50	27.59	7.89	-48.1	-63.0	3.8	1.49e+00	0	36	104	0	66	21559
2026-01-19 01:58:42.50	27.54	7.97	-48.1	-62.9	3.8	1.49e+00	0	36	104	0	66	21465
2026-01-19 01:58:43.51	27.50	8.05	-48.1	-63.0	3.8	1.49e+00	0	36	104	0	66	21511
2026-01-19 01:58:44.52	27.46	8.13	-48.1	-62.9	3.8	1.49e+00	0	36	104	0	66	21489
2026-01-19 01:58:45.53	27.41	8.20	-48.1	-62.9	3.8	1.49e+00	0	36	104	0	66	21478
2026-01-19 01:58:46.54	27.37	8.28	-48.1	-63.0	3.8	1.49e+00	0	36	104	0	66	21512
2026-01-19 01:58:47.54	27.33	8.36	-48.1	-62.9	3.8	1.49e+00	0	36	104	0	66	21470
2026-01-19 01:58:48.55	27.28	8.44	-48.1	-62.9	3.8	1.49e+00	0	36	104	0	66	21471
2026-01-19 01:58:49.56	27.24	8.52	-48.1	-62.9	3.8	1.49e+00	0	36	104	0	66	21493
2026-01-19 01:58:50.57	27.19	8.60	-48.1	-62.9	3.8	1.49e+00	0	36	104	0	66	21463
2026-01-19 01:58:51.58	27.15	8.68	-48.1	-63.0	3.8	1.49e+00	0	36	104	0	66	21532
2026-01-19 01:58:52.58	27.10	8.76	-48.1	-62.9	3.8	1.49e+00	0	36	104	0	66	21492
2026-01-19 01:58:53.59	27.06	8.84	-48.1	-62.9	3.8	1.49e+00	0	36	104	0	66	21433
2026-01-19 01:58:54.60	27.01	8.92	-48.1	-62.9	3.8	1.49e+00	0	36	104	0	66	21440
2026-01-19 01:58:55.61	26.96	9.00	-48.1	-62.9	3.8	1.49e+00	0	36	104	0	66	21422
2026-01-19 01:58:56.62	26.92	9.08	-48.1	-62.9	3.8	1.49e+00	0	36	104	0	66	21453
2026-01-19 01:58:57.63	26.87	9.16	-48.1	-62.9	3.8	1.49e+00	0	36	104	0	66	21407
2026-01-19 01:58:58.64	26.82	9.24	-48.1	-62.9	3.8	1.49e+00	0	36	104	0	66	21485
2026-01-19 01:58:59.65	26.77	9.33	-48.1	-63.0	3.8	1.49e+00	0	36	104	0	66	21515
2026-01-19 01:59:00.66	26.73	9.41	-48.1	-62.9	3.8	1.49e+00	0	36	104	0	66	21502
2026-01-19 01:59:01.66	26.68	9.49	-48.1	-63.0	3.8	1.49e+00	0	36	104	0	66	21526
2026-01-19 01:59:02.67	26.63	9.57	-48.1	-62.9	3.8	1.49e+00	0	37	104	0	66	21477
2026-01-19 01:59:03.68	26.58	9.65	-48.1	-63.0	3.8	1.49e+00	0	36	104	0	66	21524
2026-01-19 01:59:04.69	26.53	9.74	-48.1	-62.9	3.8	1.49e+00	0	36	104	0	66	21491
2026-01-19 01:59:05.70	26.48	9.82	-48.1	-63.0	3.8	1.49e+00	0	36	104	0	66	21580
2026-01-19 01:59:06.70	26.43	9.90	-48.1	-63.0	3.8	1.49e+00	0	36	104	0	66	21515
2026-01-19 01:59:07.71	26.38	9.99	-48.1	-63.0	3.8	1.49e+00	0	37	104	0	66	21519
2026-01-19 01:59:08.72	26.33	10.07	-48.1	-62.9	3.8	1.49e+00	0	36	104	0	66	21496
2026-01-19 01:59:09.73	26.28	10.16	-48.1	-62.9	3.8	1.49e+00	0	36	104	0	66	21418
2026-01-19 01:59:10.74	26.23	10.24	-48.1	-62.9	3.8	1.49e+00	0	36	104	0	66	21504
2026-01-19 01:59:11.74	26.18	10.32	-48.1	-62.9	3.8	1.49e+00	0	36	104	0	66	21491
2026-01-19 01:59:12.75	26.13	10.41	-48.1	-62.9	3.8	1.49e+00	0	36	104	0	66	21506
2026-01-19 01:59:13.76	26.08	10.49	-48.1	-62.9	3.8	1.49e+00	0	36	104	0	66	21480
2026-01-19 01:59:14.77	26.03	10.58	-48.1	-63.0	3.8	1.49e+00	0	36	104	0	66	21520
2026-01-19 01:59:15.78	25.97	10.67	-48.1	-62.9	3.8	1.49e+00	0	36	104	0	66	21414
2026-01-19 01:59:16.78	25.92	10.75	-48.1	-63.0	3.8	1.49e+00	0	36	104	0	66	21535
2026-01-19 01:59:17.79	25.87	10.84	-48.1	-62.9	3.8	1.49e+00	0	36	104	0	66	21491
2026-01-19 01:59:18.80	25.82	10.93	-48.1	-62.9	3.8	1.49e+00	0	36	104	0	66	21493
2026-01-19 01:59:19.81	25.76	11.01	-48.1	-62.9	3.8	1.49e+00	0	36	104	0	66	21501
2026-01-19 01:59:20.81	25.71	11.10	-48.1	-62.9	3.8	1.49e+00	0	36	104	0	66	21495
2026-01-19 01:59:21.82	25.65	11.19	-48.1	-62.9	3.8	1.49e+00	0	36	104	0	66	21487
2026-01-19 01:59:22.82	25.60	11.27	-48.1	-63.0	3.8	1.49e+00	0	36	104	0	66	21531
2026-01-19 01:59:23.83	25.54	11.36	-48.1	-62.9	3.8	1.49e+00	0	36	104	0	66	21453
2026-01-19 01:59:24.84	25.49	11.45	-48.1	-63.0	3.8	1.49e+00	0	36	104	0	66	21521
2026-01-19 01:59:25.85	25.43	11.54	-48.1	-62.9	3.8	1.49e+00	0	36	104	0	66	21487
2026-01-19 01:59:26.86	25.38	11.63	-48.1	-62.9	3.8	1.49e+00	0	36	104	0	66	21433
2026-01-19 01:59:27.87	25.32	11.72	-48.1	-62.9	3.8	1.49e+00	0	36	104	0	66	21499
2026-01-19 01:59:28.88	25.26	11.81	-48.1	-63.0	3.8	1.49e+00	0	36	104	0	66	21519
2026-01-19 01:59:29.88	25.21	11.90	-48.1	-62.9	3.8	1.49e+00	0	36	104	0	66	21490
2026-01-19 01:59:30.89	25.15	11.99	-48.1	-62.9	3.8	1.49e+00	0	36	104	0	66	21500
2026-01-19 01:59:31.90	25.09	12.08	-48.1	-62.9	3.8	1.49e+00	0	36	104	0	66	21472
2026-01-19 01:59:32.91	25.03	12.17	-48.1	-62.9	3.8	1.49e+00	0	36	104	0	66	21501
2026-01-19 01:59:33.91	24.97	12.26	-48.1	-63.0	3.8	1.49e+00	0	37	104	0	66	21552
2026-01-19 01:59:34.92	24.91	12.35	-48.1	-63.0	3.8	1.49e+00	0	36	104	0	66	21534
2026-01-19 01:59:35.93	24.85	12.44	-48.1	-63.0	3.8	1.49e+00	0	36	104	0	66	21525
2026-01-19 01:59:36.94	24.79	12.53	-48.1	-62.9	3.8	1.49e+00	0	36	104	0	66	21494
2026-01-19 01:59:37.95	24.73	12.63	-48.1	-63.0	3.8	1.49e+00	0	36	104	0	66	21535
2026-01-19 01:59:38.96	24.67	12.72	-48.1	-63.0	3.8	1.49e+00	0	36	104	0	66	21544
2026-01-19 01:59:39.96	24.61	12.81	-48.1	-62.9	3.8	1.49e+00	0	37	104	0	66	21487
2026-01-19 01:59:40.97	24.55	12.90	-48.1	-62.9	3.8	1.49e+00	0	36	104	0	66	21488
2026-01-19 01:59:41.98	24.49	13.00	-48.1	-63.0	3.8	1.49e+00	0	36	104	0	66	21509
2026-01-19 01:59:42.99	24.43	13.09	-48.1	-63.0	3.8	1.49e+00	0	36	104	0	66	21520
2026-01-19 01:59:44.00	24.36	13.19	-48.1	-62.9	3.8	1.49e+00	0	36	104	0	66	21481
2026-01-19 01:59:45.00	24.30	13.28	-48.1	-63.0	3.8	1.49e+00	0	36	104	0	66	21521
2026-01-19 01:59:46.01	24.24	13.38	-48.1	-63.0	3.8	1.49e+00	0	37	104	0	66	21527
2026-01-19 01:59:47.02	24.17	13.47	-48.1	-63.0	3.8	1.49e+00	0	36	104	0	66	21525
2026-01-19 01:59:48.02	24.11	13.57	-48.1	-63.0	3.8	1.49e+00	0	37	104	0	66	21513
2026-01-19 01:59:49.03	24.04	13.66	-48.1	-62.9	3.8	1.49e+00	0	37	104	0	66	21489
2026-01-19 01:59:50.04	23.98	13.76	-48.1	-63.0	3.8	1.49e+00	0	36	104	0	66	21519
2026-01-19 01:59:51.05	23.91	13.85	-48.1	-63.0	3.8	1.49e+00	0	37	104	0	66	21552
2026-01-19 01:59:52.05	23.84	13.95	-48.1	-62.9	3.8	1.49e+00	0	36	104	0	66	21461
2026-01-19 01:59:53.06	23.78	14.05	-48.1	-62.9	3.8	1.49e+00	0	36	104	0	66	21487
2026-01-19 01:59:54.07	23.71	14.15	-48.1	-63.0	3.8	1.49e+00	0	37	104	0	66	21532
2026-01-19 01:59:55.08	23.64	14.24	-48.1	-62.9	3.8	1.49e+00	0	37	104	0	66	21487
2026-01-19 01:59:56.08	23.57	14.34	-48.1	-62.9	3.8	1.49e+00	0	36	104	0	66	21477
2026-01-19 01:59:57.09	23.51	14.44	-48.1	-63.0	3.8	1.49e+00	0	37	104	0	66	21563
2026-01-19 01:59:58.10	23.44	14.54	-48.1	-63.0	3.8	1.49e+00	0	36	104	0	66	21552
2026-01-19 01:59:59.11	23.37	14.64	-48.1	-63.0	3.8	1.49e+00	0	37	104	0	66	21525
2026-01-19 02:00:00.12	23.30	14.74	-48.1	-62.9	3.8	1.49e+00	0	36	104	0	66	21500
2026-01-19 02:00:01.12	23.23	14.84	-48.1	-62.9	3.8	1.49e+00	0	36	104	0	66	21467
2026-01-19 02:00:02.13	23.15	14.94	-48.1	-62.9	3.8	1.49e+00	0	36	104	0	66	21482
2026-01-19 02:00:03.14	23.08	15.04	-48.1	-63.0	3.8	1.49e+00	0	37	104	0	66	21520
2026-01-19 02:00:04.15	23.01	15.14	-48.1	-62.9	3.8	1.49e+00	0	36	104	0	66	21505
2026-01-19 02:00:05.16	22.94	15.24	-48.1	-62.9	3.8	1.49e+00	0	37	104	0	66	21411
2026-01-19 02:00:06.17	22.86	15.35	-48.1	-63.0	3.8	1.49e+00	0	36	104	0	66	21521
2026-01-19 02:00:07.18	22.79	15.45	-48.1	-63.0	3.8	1.49e+00	0	36	104	0	66	21520
2026-01-19 02:00:08.18	22.72	15.55	-48.1	-62.9	3.8	1.49e+00	0	37	104	0	66	21427
2026-01-19 02:00:09.19	22.64	15.65	-48.1	-62.9	3.8	1.49e+00	0	36	104	0	66	21496
2026-01-19 02:00:10.20	22.57	15.76	-48.1	-62.9	3.8	1.49e+00	0	37	104	0	66	21471
2026-01-19 02:00:11.21	22.49	15.86	-48.1	-62.9	3.8	1.49e+00	0	37	104	0	66	21490
2026-01-19 02:00:12.21	22.41	15.96	-48.1	-63.0	3.8	1.49e+00	0	36	104	0	66	21513
2026-01-19 02:00:13.22	22.34	16.07	-48.1	-62.9	3.8	1.49e+00	0	37	104	0	66	21481
2026-01-19 02:00:14.23	22.26	16.17	-48.1	-62.9	3.8	1.49e+00	0	37	104	0	66	21479
2026-01-19 02:00:15.24	22.18	16.28	-48.1	-62.9	3.8	1.49e+00	0	37	104	0	66	21449
2026-01-19 02:00:16.25	22.10	16.39	-48.1	-62.9	3.8	1.49e+00	0	37	104	0	66	21478
2026-01-19 02:00:17.26	22.02	16.49	-48.1	-63.0	3.8	1.49e+00	0	37	104	0	66	21521
2026-01-19 02:00:18.26	21.94	16.60	-48.1	-62.9	3.8	1.49e+00	0	36	104	0	66	21458
2026-01-19 02:00:19.27	21.86	16.70	-48.1	-63.0	3.8	1.49e+00	0	37	104	0	66	21508
2026-01-19 02:00:20.28	21.78	16.81	-48.1	-63.0	3.8	1.49e+00	0	37	104	0	66	21543
2026-01-19 02:00:21.29	21.70	16.92	-48.1	-63.0	3.8	1.49e+00	0	36	104	0	66	21546
2026-01-19 02:00:22.30	21.62	17.03	-48.1	-63.0	3.8	1.49e+00	0	37	104	0	66	21549
2026-01-19 02:00:23.30	21.53	17.14	-48.1	-63.0	3.8	1.49e+00	0	37	104	0	66	21549
2026-01-19 02:00:24.31	21.45	17.25	-48.1	-62.9	3.8	1.49e+00	0	36	104	0	66	21467
2026-01-19 02:00:25.32	21.36	17.36	-48.1	-62.9	3.8	1.49e+00	0	36	104	0	66	21489
2026-01-19 02:00:26.33	21.28	17.47	-48.1	-62.9	3.8	1.49e+00	0	37	104	0	66	21438
2026-01-19 02:00:27.34	21.19	17.58	-48.1	-62.9	3.8	1.49e+00	0	37	104	0	66	21462
2026-01-19 02:00:28.34	21.11	17.69	-48.1	-62.9	3.8	1.49e+00	0	37	104	0	66	21488
2026-01-19 02:00:29.35	21.02	17.80	-48.1	-62.9	3.8	1.49e+00	0	36	104	0	66	21497
2026-01-19 02:00:30.36	20.93	17.91	-48.1	-63.0	3.8	1.49e+00	0	37	104	0	66	21537
2026-01-19 02:00:31.37	20.85	18.02	-48.1	-63.0	3.8	1.49e+00	0	36	104	0	66	21560
2026-01-19 02:00:32.37	20.76	18.13	-48.1	-62.9	3.8	1.49e+00	0	37	104	0	66	21408
2026-01-19 02:00:33.38	20.67	18.25	-48.1	-63.0	3.8	1.49e+00	0	36	104	0	66	21530
2026-01-19 02:00:34.39	20.58	18.36	-48.1	-62.9	3.8	1.49e+00	0	37	104	0	66	21494
2026-01-19 02:00:35.40	20.49	18.47	-48.1	-63.0	3.8	1.49e+00	0	37	104	0	66	21534
2026-01-19 02:00:36.41	20.39	18.59	-48.1	-63.0	3.8	1.49e+00	0	37	104	0	66	21525
2026-01-19 02:00:37.42	20.30	18.70	-48.1	-62.9	3.8	1.49e+00	0	36	104	0	66	21491
2026-01-19 02:00:38.42	20.21	18.82	-48.1	-62.9	3.8	1.49e+00	0	37	104	0	66	21502
2026-01-19 02:00:39.43	20.11	18.93	-48.1	-63.0	3.8	1.49e+00	0	37	104	0	66	21542
2026-01-19 02:00:40.44	20.02	19.05	-48.1	-63.0	3.8	1.49e+00	0	36	104	0	66	21516
2026-01-19 02:00:41.45	19.92	19.17	-48.1	-63.0	3.8	1.49e+00	0	37	104	0	66	21513
2026-01-19 02:00:42.46	19.83	19.28	-48.1	-63.0	3.8	1.49e+00	0	37	104	0	66	21562
2026-01-19 02:00:43.46	19.73	19.40	-48.1	-63.0	3.8	1.49e+00	0	37	104	0	66	21518
2026-01-19 02:00:44.47	19.63	19.52	-48.1	-62.9	3.8	1.49e+00	0	36	104	0	66	21467
2026-01-19 02:00:45.48	19.53	19.64	-48.1	-63.0	3.8	1.49e+00	0	36	104	0	66	21532
2026-01-19 02:00:46.49	19.43	19.76	-48.1	-63.0	3.8	1.49e+00	0	36	104	0	66	21584
2026-01-19 02:00:47.50	19.33	19.88	-48.1	-63.0	3.8	1.49e+00	0	36	104	0	66	21537
2026-01-19 02:00:48.50	19.23	20.00	-48.1	-63.0	3.8	1.49e+00	0	37	104	0	66	21509
2026-01-19 02:00:49.51	19.13	20.12	-48.1	-62.9	3.8	1.49e+00	0	36	104	0	66	21485
2026-01-19 02:00:50.52	19.03	20.24	-48.1	-63.0	3.8	1.49e+00	0	36	104	0	66	21548
2026-01-19 02:00:51.53	18.93	20.36	-48.1	-62.9	3.8	1.49e+00	0	36	104	0	66	21496
2026-01-19 02:00:52.54	18.82	20.48	-48.1	-63.0	3.8	1.49e+00	0	37	104	0	66	21552
2026-01-19 02:00:53.55	18.72	20.60	-48.1	-62.9	3.8	1.49e+00	0	37	104	0	66	21497
2026-01-19 02:00:54.56	18.61	20.73	-48.1	-63.0	3.8	1.49e+00	0	37	104	0	66	21521
2026-01-19 02:00:55.56	18.50	20.85	-48.1	-63.0	3.8	1.49e+00	0	37	104	0	66	21514
2026-01-19 02:00:56.57	18.40	20.97	-48.1	-63.0	3.8	1.49e+00	0	36	104	0	66	21509
2026-01-19 02:00:57.58	18.29	21.10	-48.1	-63.0	3.8	1.49e+00	0	37	104	0	66	21564
2026-01-19 02:00:58.59	18.18	21.22	-48.1	-63.0	3.8	1.49e+00	0	37	104	0	66	21548
2026-01-19 02:00:59.60	18.07	21.35	-48.1	-62.9	3.8	1.49e+00	0	37	104	0	66	21486
2026-01-19 02:01:00.61	17.95	21.47	-48.1	-63.0	3.8	1.49e+00	0	37	104	0	66	21538
2026-01-19 02:01:01.62	17.84	21.60	-48.1	-63.0	3.8	1.49e+00	0	37	104	0	66	21563
2026-01-19 02:01:02.62	17.73	21.73	-48.1	-62.9	3.8	1.49e+00	0	37	104	0	66	21505
2026-01-19 02:01:03.63	17.62	21.85	-48.1	-63.0	3.8	1.49e+00	0	37	104	0	66	21555
2026-01-19 02:01:04.64	17.50	21.98	-48.1	-63.0	3.8	1.49e+00	0	37	104	0	66	21555
2026-01-19 02:01:05.65	17.38	22.11	-48.1	-63.0	3.8	1.49e+00	0	37	104	0	66	21532
2026-01-19 02:01:06.66	17.27	22.24	-48.1	-62.9	3.8	1.49e+00	0	37	104	0	66	21478
2026-01-19 02:01:07.66	17.15	22.37	-48.1	-63.0	3.8	1.49e+00	0	37	104	0	66	21547
2026-01-19 02:01:08.67	17.03	22.50	-48.1	-63.0	3.8	1.49e+00	0	37	104	0	66	21565
2026-01-19 02:01:09.68	16.91	22.63	-48.1	-63.0	3.8	1.49e+00	0	37	104	0	66	21525
2026-01-19 02:01:10.69	16.79	22.76	-48.1	-63.0	3.8	1.49e+00	0	36	104	0	66	21551
2026-01-19 02:01:11.70	16.66	22.89	-48.1	-63.0	3.8	1.49e+00	0	37	104	0	66	21512
2026-01-19 02:01:12.70	16.54	23.02	-48.1	-62.9	3.8	1.49e+00	0	37	104	0	66	21485
2026-01-19 02:01:13.71	16.42	23.16	-48.1	-63.0	3.8	1.49e+00	0	37	104	0	66	21526
2026-01-19 02:01:14.72	16.29	23.29	-48.1	-63.0	3.8	1.49e+00	0	37	104	0	66	21544
2026-01-19 02:01:15.73	16.16	23.42	-48.1	-62.9	3.8	1.49e+00	0	37	104	0	66	21499
2026-01-19 02:01:16.74	16.04	23.56	-48.1	-63.0	3.8	1.49e+00	0	37	104	0	66	21563
2026-01-19 02:01:17.74	15.91	23.69	-48.1	-63.0	3.8	1.49e+00	0	37	104	0	66	21553
2026-01-19 02:01:18.75	15.78	23.83	-48.1	-63.0	3.8	1.49e+00	0	37	104	0	66	21594
2026-01-19 02:01:19.76	15.65	23.96	-48.1	-63.0	3.8	1.49e+00	0	37	104	0	66	21516
2026-01-19 02:01:20.77	15.51	24.10	-48.1	-62.9	3.8	1.49e+00	0	37	104	0	66	21506
2026-01-19 02:01:21.78	15.38	24.24	-48.1	-63.0	3.8	1.49e+00	0	37	104	0	66	21541
2026-01-19 02:01:22.79	15.24	24.37	-48.1	-63.0	3.8	1.49e+00	0	36	104	0	66	21586
2026-01-19 02:01:23.79	15.11	24.51	-48.1	-62.9	3.8	1.49e+00	0	37	104	0	66	21505
2026-01-19 02:01:24.80	14.97	24.65	-48.1	-63.0	3.8	1.49e+00	0	37	104	0	66	21515
2026-01-19 02:01:25.81	14.83	24.79	-48.1	-62.9	3.8	1.49e+00	0	37	104	0	66	21451
2026-01-19 02:01:26.82	14.69	24.93	-48.1	-63.0	3.8	1.49e+00	0	37	104	0	66	21592
2026-01-19 02:01:27.82	14.55	25.07	-48.1	-63.0	3.8	1.49e+00	0	37	104	0	66	21570
2026-01-19 02:01:28.83	14.41	25.21	-48.1	-63.0	3.8	1.49e+00	0	37	104	0	66	21567
2026-01-19 02:01:29.84	14.27	25.35	-48.1	-63.0	3.8	1.49e+00	0	37	104	0	66	21530
2026-01-19 02:01:30.85	14.12	25.49	-48.1	-63.0	3.8	1.49e+00	0	37	104	0	66	21549
2026-01-19 02:01:31.86	13.97	25.63	-48.1	-63.0	3.8	1.49e+00	0	37	104	0	66	21550
2026-01-19 02:01:32.86	13.83	25.78	-48.1	-63.0	3.8	1.49e+00	0	37	104	0	66	21580
2026-01-19 02:01:33.87	13.68	25.92	-48.1	-63.0	3.8	1.49e+00	0	37	104	0	66	21521
2026-01-19 02:01:34.88	13.53	26.06	-48.1	-63.0	3.8	1.49e+00	0	37	104	0	66	21528
2026-01-19 02:01:35.89	13.38	26.21	-48.1	-63.0	3.8	1.49e+00	0	37	104	0	66	21509
2026-01-19 02:01:36.89	13.22	26.35	-48.1	-63.0	3.8	1.49e+00	0	37	104	0	66	21570
2026-01-19 02:01:37.90	13.07	26.50	-48.1	-63.0	3.8	1.49e+00	0	37	104	0	66	21556
2026-01-19 02:01:38.91	12.91	26.65	-48.1	-63.0	3.8	1.49e+00	0	37	104	0	66	21572
2026-01-19 02:01:39.92	12.75	26.79	-48.1	-63.0	3.8	1.49e+00	0	37	104	0	66	21554
2026-01-19 02:01:40.93	12.59	26.94	-48.1	-63.0	3.8	1.49e+00	0	37	104	0	66	21533
2026-01-19 02:01:41.93	12.43	27.09	-48.1	-63.0	3.8	1.49e+00	0	37	104	0	66	21536
2026-01-19 02:01:42.94	12.27	27.24	-48.1	-63.0	3.8	1.49e+00	0	37	104	0	66	21528
2026-01-19 02:01:43.95	12.11	27.38	-48.1	-63.0	3.8	1.49e+00	0	37	104	0	66	21544
2026-01-19 02:01:44.96	11.94	27.53	-48.1	-62.9	3.8	1.49e+00	0	37	104	0	66	21497
2026-01-19 02:01:45.97	11.78	27.68	-48.1	-62.9	3.8	1.49e+00	0	37	104	0	66	21501
2026-01-19 02:01:46.98	11.61	27.84	-48.1	-63.0	3.8	1.49e+00	0	37	104	0	66	21593
2026-01-19 02:01:47.99	11.44	27.99	-48.1	-63.0	3.8	1.49e+00	0	37	104	0	66	21513
2026-01-19 02:01:48.99	11.27	28.14	-48.1	-63.0	3.8	1.49e+00	0	37	104	0	66	21589
2026-01-19 02:01:50.00	11.09	28.29	-48.1	-63.0	3.8	1.49e+00	0	37	104	0	66	21519
2026-01-19 02:01:51.01	10.92	28.44	-48.1	-63.0	3.8	1.49e+00	0	37	104	0	66	21544
2026-01-19 02:01:52.01	10.74	28.59	-48.1	-63.0	3.8	1.49e+00	0	37	104	0	66	21512
2026-01-19 02:01:53.02	10.56	28.75	-48.1	-63.0	3.8	1.49e+00	0	37	104	0	66	21540
2026-01-19 02:01:54.03	10.38	28.90	-48.1	-63.0	3.8	1.49e+00	0	37	104	0	66	21544
2026-01-19 02:01:55.04	10.20	29.06	-48.1	-63.0	3.8	1.49e+00	0	37	104	0	66	21543
2026-01-19 02:01:56.04	10.02	29.21	-48.1	-63.0	3.8	1.49e+00	0	37	104	0	66	21538
2026-01-19 02:01:57.05	9.83	29.37	-48.1	-63.0	3.8	1.49e+00	0	36	104	0	66	21547
2026-01-19 02:01:58.06	9.64	29.53	-48.1	-63.0	3.8	1.49e+00	0	37	104	0	66	21546
2026-01-19 02:01:59.07	9.45	29.68	-48.1	-63.0	3.8	1.49e+00	0	37	104	0	66	21617
2026-01-19 02:02:00.08	9.26	29.84	-48.1	-63.0	3.8	1.49e+00	0	37	104	0	66	21557
2026-01-19 02:02:01.08	9.07	30.00	-48.1	-63.0	3.8	1.49e+00	0	37	104	0	66	21543
2026-01-19 02:02:02.09	8.87	30.16	-48.1	-63.0	3.8	1.49e+00	0	37	104	0	66	21593
2026-01-19 02:02:03.10	8.68	30.32	-48.1	-63.0	3.8	1.49e+00	0	37	104	0	66	21571
2026-01-19 02:02:04.11	8.48	30.48	-48.1	-63.0	3.8	1.49e+00	0	37	104	0	66	21598
2026-01-19 02:02:05.12	8.27	30.64	-48.1	-62.9	3.8	1.49e+00	0	37	104	0	66	21486
2026-01-19 02:02:06.12	8.07	30.79	-48.1	-63.0	3.8	1.49e+00	0	37	104	0	66	21594
2026-01-19 02:02:07.13	7.87	30.96	-48.1	-63.0	3.8	1.49e+00	0	37	104	0	66	21538
2026-01-19 02:02:08.14	7.66	31.12	-48.1	-63.0	3.8	1.49e+00	0	37	104	0	66	21580
2026-01-19 02:02:09.15	7.45	31.28	-48.1	-63.0	3.8	1.49e+00	0	37	104	0	66	21547
2026-01-19 02:02:10.16	7.24	31.44	-48.1	-63.0	3.8	1.49e+00	0	37	104	0	66	21530
2026-01-19 02:02:11.16	7.03	31.60	-48.1	-63.0	3.8	1.49e+00	0	37	104	0	66	21567
2026-01-19 02:02:12.17	6.81	31.77	-48.1	-62.9	3.8	1.49e+00	0	37	104	0	66	21498
2026-01-19 02:02:13.18	6.59	31.93	-48.1	-63.0	3.8	1.49e+00	0	37	104	0	66	21524
2026-01-19 02:02:14.19	6.37	32.10	-48.1	-63.0	3.8	1.49e+00	0	37	104	0	66	21526
2026-01-19 02:02:15.20	6.15	32.26	-48.1	-63.0	3.8	1.49e+00	0	37	104	0	66	21545
2026-01-19 02:02:16.21	5.92	32.42	-48.1	-63.0	3.8	1.49e+00	0	37	104	0	66	21523
2026-01-19 02:02:17.22	5.69	32.59	-48.1	-63.0	3.8	1.49e+00	0	37	104	0	66	21567
2026-01-19 02:02:18.22	5.47	32.75	-48.1	-63.0	3.8	1.49e+00	0	37	104	0	66	21575
2026-01-19 02:02:19.23	5.23	32.92	-48.1	-63.0	3.8	1.49e+00	0	37	104	0	66	21565
2026-01-19 02:02:20.24	5.00	33.09	-48.1	-63.0	3.8	1.49e+00	0	37	104	0	66	21554
2026-01-19 02:02:21.25	4.76	33.25	-48.1	-63.0	3.8	1.49e+00	0	37	104	0	66	21558
2026-01-19 02:02:22.25	4.52	33.42	-48.1	-63.0	3.8	1.49e+00	0	37	104	0	66	21603
2026-01-19 02:02:23.27	4.28	33.59	-48.1	-63.0	3.8	1.49e+00	0	37	104	0	66	21550
2026-01-19 02:02:24.27	4.04	33.76	-48.1	-63.0	3.8	1.49e+00	0	37	104	0	66	21532
2026-01-19 02:02:25.28	3.79	33.92	-48.1	-63.0	3.8	1.49e+00	0	37	104	0	66	21572
2026-01-19 02:02:26.28	3.54	34.09	-48.1	-63.0	3.8	1.49e+00	0	37	104	0	66	21563
2026-01-19 02:02:27.29	3.29	34.26	-48.1	-62.9	3.8	1.49e+00	0	37	104	0	66	21500
2026-01-19 02:02:28.30	3.03	34.43	-48.1	-63.0	3.8	1.49e+00	0	36	104	0	66	21540
2026-01-19 02:02:29.31	2.77	34.60	-48.1	-63.0	3.8	1.49e+00	0	37	104	0	66	21543
2026-01-19 02:02:30.32	2.51	34.77	-48.1	-63.0	3.8	1.49e+00	0	37	104	0	66	21572
2026-01-19 02:02:31.32	2.25	34.94	-48.1	-63.0	3.8	1.49e+00	0	37	104	0	66	21533
2026-01-19 02:02:32.33	1.99	35.11	-48.1	-63.0	3.8	1.49e+00	0	37	104	0	66	21576
2026-01-19 02:02:33.34	1.72	35.28	-48.1	-63.0	3.8	1.49e+00	0	37	104	0	66	21545
2026-01-19 02:02:34.35	1.44	35.45	-48.1	-63.0	3.8	1.49e+00	0	37	104	0	66	21553
2026-01-19 02:02:35.36	1.17	35.62	-48.1	-63.0	3.8	1.49e+00	0	37	104	0	66	21544
2026-01-19 02:02:36.36	0.89	35.79	-48.1	-63.0	3.8	1.49e+00	0	37	104	0	66	21569
2026-01-19 02:02:37.37	0.61	35.96	-48.1	-63.0	3.8	1.49e+00	0	37	104	0	66	21558
2026-01-19 02:02:38.38	0.33	36.13	-48.1	-63.0	3.8	1.49e+00	0	37	104	0	66	21630
2026-01-19 02:02:39.39	0.04	36.30	-48.1	-63.0	3.8	1.49e+00	0	37	104	0	66	21595
2026-01-19 02:02:40.40	359.75	36.47	-48.1	-63.0	3.8	1.49e+00	0	37	104	0	66	21549
2026-01-19 02:02:41.40	359.46	36.64	-48.1	-63.0	3.8	1.49e+00	0	37	104	0	66	21624
2026-01-19 02:02:42.41	359.17	36.81	-48.1	-63.0	3.8	1.49e+00	0	37	104	0	66	21541
2026-01-19 02:02:43.42	358.87	36.98	-48.1	-63.0	3.8	1.49e+00	0	36	104	0	66	21587
2026-01-19 02:02:44.43	358.56	37.16	-48.1	-63.0	3.8	1.49e+00	0	37	104	0	66	21533
2026-01-19 02:02:45.44	358.26	37.33	-48.1	-63.0	3.8	1.49e+00	0	37	104	0	66	21527
2026-01-19 02:02:46.45	357.95	37.50	-48.1	-63.0	3.8	1.49e+00	0	37	104	0	66	21567
2026-01-19 02:02:47.45	357.64	37.67	-48.1	-62.9	3.8	1.49e+00	0	37	104	0	66	21490
2026-01-19 02:02:48.46	357.32	37.84	-48.1	-63.0	3.8	1.49e+00	0	37	104	0	66	21552
2026-01-19 02:02:49.47	357.01	38.01	-48.1	-63.0	3.8	1.49e+00	0	37	104	0	66	21595
2026-01-19 02:02:50.48	356.68	38.18	-48.1	-63.0	3.8	1.49e+00	0	37	104	0	66	21524
2026-01-19 02:02:51.48	356.36	38.35	-48.1	-63.0	3.8	1.49e+00	0	37	104	0	66	21591
2026-01-19 02:02:52.49	356.03	38.52	-48.1	-63.0	3.8	1.49e+00	0	37	104	0	66	21522
2026-01-19 02:02:53.50	355.70	38.69	-48.1	-63.0	3.8	1.49e+00	0	37	104	0	66	21550
2026-01-19 02:02:54.50	355.37	38.86	-48.1	-63.0	3.8	1.49e+00	0	36	104	0	66	21580
2026-01-19 02:02:55.51	355.03	39.03	-48.1	-63.0	3.8	1.49e+00	0	37	104	0	66	21583
2026-01-19 02:02:56.52	354.68	39.20	-48.1	-63.0	3.8	1.49e+00	0	37	104	0	66	21554
2026-01-19 02:02:57.53	354.34	39.37	-48.1	-63.0	3.8	1.49e+00	0	37	104	0	66	21574
2026-01-19 02:02:58.54	353.99	39.53	-48.1	-63.0	3.8	1.49e+00	0	37	104	0	66	21561
2026-01-19 02:02:59.54	353.64	39.70	-48.1	-63.0	3.8	1.49e+00	0	37	104	0	66	21585
2026-01-19 02:03:00.55	353.28	39.87	-48.1	-63.0	3.8	1.49e+00	0	37	104	0	66	21536
2026-01-19 02:03:01.56	352.92	40.04	-48.1	-63.0	3.8	1.49e+00	0	37	104	0	66	21571
2026-01-19 02:03:02.57	352.55	40.20	-48.1	-63.0	3.8	1.49e+00	0	37	104	0	66	21544
2026-01-19 02:03:03.58	352.18	40.37	-48.1	-63.0	3.8	1.49e+00	0	37	104	0	66	21554
2026-01-19 02:03:04.58	351.81	40.53	-48.1	-63.0	3.8	1.49e+00	0	37	104	0	66	21612
2026-01-19 02:03:05.59	351.43	40.70	-48.1	-63.0	3.8	1.49e+00	0	37	104	0	66	21549
2026-01-19 02:03:06.60	351.05	40.86	-48.1	-63.0	3.8	1.49e+00	0	37	104	0	66	21596
2026-01-19 02:03:07.61	350.67	41.02	-48.1	-63.0	3.8	1.49e+00	0	37	104	0	66	21521
2026-01-19 02:03:08.62	350.28	41.19	-48.1	-63.0	3.8	1.49e+00	0	37	104	0	66	21508
2026-01-19 02:03:09.62	349.89	41.35	-48.1	-62.9	3.8	1.49e+00	0	37	104	0	66	21475
2026-01-19 02:03:10.63	349.50	41.51	-48.1	-63.0	3.8	1.49e+00	0	37	104	0	66	21517
2026-01-19 02:03:11.64	349.09	41.67	-48.1	-63.0	3.8	1.49e+00	0	37	104	0	66	21564
2026-01-19 02:03:12.65	348.69	41.83	-48.1	-63.0	3.8	1.49e+00	0	37	104	0	66	21628
2026-01-19 02:03:13.66	348.28	41.99	-48.1	-63.0	3.8	1.49e+00	0	37	104	0	66	21532
2026-01-19 02:03:14.67	347.87	42.14	-48.1	-63.0	3.8	1.49e+00	0	37	104	0	66	21605
2026-01-19 02:03:15.68	347.45	42.30	-48.1	-63.0	3.8	1.49e+00	0	37	104	0	66	21581
2026-01-19 02:03:16.68	347.04	42.45	-48.1	-63.0	3.8	1.49e+00	0	37	104	0	66	21511
2026-01-19 02:03:17.69	346.61	42.61	-48.1	-63.0	3.8	1.49e+00	0	37	104	0	66	21602
2026-01-19 02:03:18.70	346.18	42.76	-48.1	-63.0	3.8	1.49e+00	0	37	104	0	66	21534
2026-01-19 02:03:19.71	345.75	42.91	-48.1	-63.0	3.8	1.49e+00	0	37	104	0	66	21517
2026-01-19 02:03:20.72	345.31	43.06	-48.1	-63.0	3.8	1.49e+00	0	37	104	0	66	21582
2026-01-19 02:03:21.73	344.87	43.21	-48.1	-63.0	3.8	1.49e+00	0	37	104	0	66	21569
2026-01-19 02:03:22.73	344.43	43.36	-48.1	-63.0	3.8	1.49e+00	0	37	104	0	66	21553
2026-01-19 02:03:23.74	343.98	43.50	-48.1	-63.0	3.8	1.49e+00	0	37	104	0	66	21573
2026-01-19 02:03:24.75	343.53	43.65	-48.1	-63.0	3.8	1.49e+00	0	37	104	0	66	21541
2026-01-19 02:03:25.76	343.07	43.79	-48.1	-63.0	3.8	1.49e+00	0	37	104	0	66	21579
2026-01-19 02:03:26.77	342.61	43.93	-48.1	-63.0	3.8	1.49e+00	0	36	104	0	66	21508
2026-01-19 02:03:27.78	342.14	44.07	-48.1	-63.0	3.8	1.49e+00	0	37	104	0	66	21545
2026-01-19 02:03:28.78	341.68	44.21	-48.1	-63.0	3.8	1.49e+00	0	37	104	0	66	21535
2026-01-19 02:03:29.79	341.20	44.35	-48.1	-63.0	3.8	1.49e+00	0	37	104	0	66	21532
2026-01-19 02:03:30.80	340.72	44.48	-48.1	-63.0	3.8	1.49e+00	0	36	104	0	66	21557
2026-01-19 02:03:31.80	340.24	44.62	-48.1	-63.0	3.8	1.49e+00	0	37	104	0	66	21551
2026-01-19 02:03:32.81	339.76	44.75	-48.1	-62.9	3.8	1.49e+00	0	37	104	0	66	21503
2026-01-19 02:03:33.82	339.27	44.88	-48.1	-63.0	3.8	1.49e+00	0	37	104	0	66	21583
2026-01-19 02:03:34.83	338.77	45.00	-48.1	-63.0	3.8	1.49e+00	0	37	104	0	66	21568
2026-01-19 02:03:35.84	338.27	45.13	-48.1	-63.0	3.8	1.49e+00	0	37	104	0	66	21599
2026-01-19 02:03:36.85	337.77	45.25	-48.1	-63.0	3.8	1.49e+00	0	37	104	0	66	21610
2026-01-19 02:03:37.85	337.27	45.37	-48.1	-63.0	3.8	1.49e+00	0	37	104	0	66	21563
2026-01-19 02:03:38.87	336.76	45.50	-48.1	-63.0	3.8	1.49e+00	0	37	104	0	66	21557
2026-01-19 02:03:39.87	336.25	45.61	-48.1	-63.0	3.8	1.49e+00	0	37	104	0	66	21515
2026-01-19 02:03:40.88	335.73	45.73	-48.1	-63.0	3.8	1.49e+00	0	37	104	0	66	21508
2026-01-19 02:03:41.89	335.21	45.84	-48.1	-63.0	3.8	1.49e+00	0	37	104	0	66	21525
2026-01-19 02:03:42.89	334.69	45.95	-48.1	-63.0	3.8	1.49e+00	0	37	104	0	66	21561
2026-01-19 02:03:43.90	334.16	46.06	-48.1	-63.0	3.8	1.49e+00	0	37	104	0	66	21647
2026-01-19 02:03:44.91	333.62	46.16	-48.1	-63.0	3.8	1.49e+00	0	37	104	0	66	21578
2026-01-19 02:03:45.92	333.09	46.27	-48.1	-63.0	3.8	1.49e+00	0	37	104	0	66	21563
2026-01-19 02:03:46.92	332.55	46.37	-48.1	-63.0	3.8	1.49e+00	0	37	104	0	66	21551
2026-01-19 02:03:47.93	332.01	46.46	-48.1	-63.0	3.8	1.49e+00	0	37	104	0	66	21586
2026-01-19 02:03:48.94	331.46	46.56	-48.1	-63.0	3.8	1.49e+00	0	37	104	0	66	21556
2026-01-19 02:03:49.94	330.92	46.65	-48.1	-63.0	3.8	1.49e+00	0	37	104	0	66	21575
2026-01-19 02:03:50.95	330.37	46.74	-48.1	-63.0	3.8	1.49e+00	0	37	104	0	66	21570
2026-01-19 02:03:51.96	329.81	46.83	-48.1	-63.0	3.8	1.49e+00	0	37	104	0	66	21600
2026-01-19 02:03:52.97	329.25	46.91	-48.1	-63.0	3.8	1.49e+00	0	37	104	0	66	21579
2026-01-19 02:03:53.98	328.69	46.99	-48.1	-63.0	3.8	1.49e+00	0	37	104	0	66	21555
2026-01-19 02:03:54.98	328.13	47.07	-48.1	-63.0	3.8	1.49e+00	0	37	104	0	66	21581
2026-01-19 02:03:55.99	327.56	47.15	-48.1	-63.0	3.8	1.49e+00	0	37	104	0	66	21577
2026-01-19 02:03:57.00	326.99	47.22	-48.1	-63.0	3.8	1.49e+00	0	37	104	0	66	21558
2026-01-19 02:03:58.01	326.42	47.29	-48.1	-63.0	3.8	1.49e+00	0	37	104	0	66	21556
2026-01-19 02:03:59.02	325.84	47.36	-48.1	-63.0	3.8	1.49e+00	0	37	104	0	66	21561
2026-01-19 02:04:00.02	325.27	47.42	-48.1	-63.0	3.8	1.49e+00	0	37	104	0	66	21608
2026-01-19 02:04:01.03	324.69	47.48	-48.1	-63.0	3.8	1.49e+00	0	37	104	0	66	21590
2026-01-19 02:04:02.04	324.10	47.54	-48.1	-63.0	3.8	1.49e+00	0	37	104	0	66	21525
2026-01-19 02:04:03.05	323.52	47.59	-48.1	-63.0	3.8	1.49e+00	0	37	104	0	66	21599
2026-01-19 02:04:04.06	322.93	47.64	-48.1	-63.0	3.8	1.49e+00	0	37	104	0	66	21584
2026-01-19 02:04:05.06	322.35	47.69	-48.1	-62.9	3.8	1.49e+00	0	37	104	0	66	21502
2026-01-19 02:04:06.07	321.76	47.74	-48.1	-63.0	3.8	1.49e+00	0	37	104	0	66	21562
2026-01-19 02:04:07.08	321.17	47.78	-48.1	-63.0	3.8	1.49e+00	0	37	104	0	66	21563
2026-01-19 02:04:08.09	320.57	47.81	-48.1	-63.0	3.8	1.49e+00	0	37	104	0	66	21555
2026-01-19 02:04:09.10	319.98	47.85	-48.1	-63.0	3.8	1.49e+00	0	37	104	0	66	21566
2026-01-19 02:04:10.10	319.39	47.88	-48.1	-63.0	3.8	1.49e+00	0	37	104	0	66	21588
2026-01-19 02:04:11.11	318.79	47.91	-48.1	-63.0	3.8	1.49e+00	0	37	104	0	66	21575
2026-01-19 02:04:12.12	318.19	47.93	-48.1	-63.0	3.8	1.49e+00	0	37	104	0	66	21618
2026-01-19 02:04:13.13	317.59	47.95	-48.1	-62.9	3.8	1.49e+00	0	37	104	0	66	21497
2026-01-19 02:04:14.14	316.99	47.97	-48.1	-63.0	3.8	1.49e+00	0	37	104	0	66	21587
2026-01-19 02:04:15.14	316.39	47.99	-48.1	-63.0	3.8	1.49e+00	0	37	104	0	66	21618
2026-01-19 02:04:16.15	315.79	48.00	-48.1	-63.0	3.8	1.49e+00	0	37	104	0	66	21580
2026-01-19 02:04:17.16	315.19	48.01	-48.1	-63.0	3.8	1.49e+00	0	37	104	0	66	21550
2026-01-19 02:04:18.17	314.59	48.01	-48.1	-63.0	3.8	1.49e+00	0	37	104	0	66	21580
2026-01-19 02:04:19.17	313.99	48.01	-48.1	-63.0	3.8	1.49e+00	0	36	104	0	66	21565
2026-01-19 02:04:20.18	313.39	48.01	-48.1	-63.0	3.8	1.49e+00	0	37	104	0	66	21534
2026-01-19 02:04:21.19	312.79	48.00	-48.1	-63.0	3.8	1.49e+00	0	37	104	0	66	21586
2026-01-19 02:04:22.20	312.19	47.99	-48.1	-63.0	3.8	1.49e+00	0	37	104	0	66	21547
2026-01-19 02:04:23.20	311.59	47.98	-48.1	-63.0	3.8	1.49e+00	0	37	104	0	66	21587
2026-01-19 02:04:24.21	310.99	47.96	-48.1	-63.0	3.8	1.49e+00	0	37	104	0	66	21537
2026-01-19 02:04:25.22	310.39	47.94	-48.1	-63.0	3.8	1.49e+00	0	37	104	0	66	21582
2026-01-19 02:04:26.23	309.79	47.92	-48.1	-63.0	3.8	1.49e+00	0	37	104	0	66	21576
2026-01-19 02:04:27.24	309.19	47.89	-48.1	-63.0	3.8	1.49e+00	0	37	104	0	66	21575
2026-01-19 02:04:28.24	308.60	47.86	-48.1	-63.0	3.8	1.49e+00	0	37	104	0	66	21565
2026-01-19 02:04:29.25	308.00	47.83	-48.1	-63.0	3.8	1.49e+00	0	37	104	0	66	21519
2026-01-19 02:04:30.26	307.41	47.79	-48.1	-63.0	3.8	1.49e+00	0	37	104	0	66	21570
2026-01-19 02:04:31.27	306.82	47.75	-48.1	-63.0	3.8	1.49e+00	0	37	104	0	66	21585
2026-01-19 02:04:32.27	306.23	47.71	-48.1	-63.0	3.8	1.49e+00	0	37	104	0	66	21585
2026-01-19 02:04:33.29	305.64	47.66	-48.1	-63.0	3.8	1.49e+00	0	37	104	0	66	21628
2026-01-19 02:04:34.29	305.05	47.61	-48.1	-63.0	3.8	1.49e+00	0	37	104	0	66	21574
2026-01-19 02:04:35.30	304.47	47.56	-48.1	-63.0	3.8	1.49e+00	0	37	104	0	66	21568
2026-01-19 02:04:36.31	303.88	47.50	-48.1	-63.0	3.8	1.49e+00	0	37	104	0	66	21538
2026-01-19 02:04:37.32	303.30	47.44	-48.1	-63.0	3.8	1.49e+00	0	37	104	0	66	21565
2026-01-19 02:04:38.32	302.73	47.38	-48.1	-63.0	3.8	1.49e+00	0	37	104	0	66	21562
2026-01-19 02:04:39.33	302.15	47.32	-48.1	-63.0	3.8	1.49e+00	0	37	104	0	66	21596
2026-01-19 02:04:40.34	301.57	47.25	-48.1	-63.0	3.8	1.49e+00	0	37	104	0	66	21578
2026-01-19 02:04:41.35	301.00	47.18	-48.1	-63.0	3.8	1.49e+00	0	37	104	0	66	21590
2026-01-19 02:04:42.36	300.43	47.10	-48.1	-63.0	3.8	1.49e+00	0	37	104	0	66	21621
2026-01-19 02:04:43.37	299.87	47.02	-48.1	-63.0	3.8	1.49e+00	0	37	104	0	66	21543
2026-01-19 02:04:44.38	299.30	46.94	-48.1	-63.0	3.8	1.49e+00	0	37	104	0	66	21635
2026-01-19 02:04:45.38	298.75	46.86	-48.1	-63.0	3.8	1.49e+00	0	37	104	0	66	21601
2026-01-19 02:04:46.39	298.19	46.77	-48.1	-63.0	3.8	1.49e+00	0	37	104	0	66	21601
2026-01-19 02:04:47.40	297.63	46.68	-48.1	-63.0	3.8	1.49e+00	0	37	104	0	66	21588
2026-01-19 02:04:48.41	297.08	46.59	-48.1	-63.0	3.8	1.49e+00	0	37	104	0	66	21590
2026-01-19 02:04:49.42	296.53	46.50	-48.1	-63.0	3.8	1.49e+00	0	37	104	0	66	21553
2026-01-19 02:04:50.42	295.99	46.40	-48.1	-63.0	3.8	1.49e+00	0	37	104	0	66	21538
2026-01-19 02:04:51.43	295.45	46.30	-48.1	-63.0	3.8	1.49e+00	0	37	104	0	66	21568
2026-01-19 02:04:52.44	294.91	46.20	-48.1	-63.0	3.8	1.49e+00	0	37	104	0	66	21569
2026-01-19 02:04:53.45	294.38	46.10	-48.1	-63.0	3.8	1.49e+00	0	37	104	0	66	21609
2026-01-19 02:04:54.46	293.85	45.99	-48.1	-63.0	3.8	1.49e+00	0	37	104	0	66	21560
2026-01-19 02:04:55.46	293.33	45.88	-48.1	-63.0	3.8	1.49e+00	0	37	104	0	66	21594
2026-01-19 02:04:56.47	292.80	45.77	-48.1	-63.0	3.8	1.49e+00	0	37	104	0	66	21591
2026-01-19 02:04:57.48	292.28	45.65	-48.1	-63.0	3.8	1.49e+00	0	37	104	0	66	21528
2026-01-19 02:04:58.49	291.77	45.54	-48.1	-63.0	3.8	1.49e+00	0	37	104	0	66	21616
2026-01-19 02:04:59.50	291.26	45.42	-48.1	-63.0	3.8	1.49e+00	0	37	104	0	66	21516
2026-01-19 02:05:00.50	290.75	45.30	-48.1	-63.0	3.8	1.49e+00	0	37	104	0	66	21584
2026-01-19 02:05:01.51	290.25	45.17	-48.1	-63.0	3.8	1.49e+00	0	37	104	0	66	21593
2026-01-19 02:05:02.52	289.75	45.05	-48.1	-63.0	3.8	1.49e+00	0	37	104	0	66	21569
2026-01-19 02:05:03.53	289.25	44.92	-48.1	-63.0	3.8	1.49e+00	0	37	104	0	66	21559
2026-01-19 02:05:04.54	288.76	44.79	-48.1	-63.0	3.8	1.49e+00	0	37	104	0	66	21573
2026-01-19 02:05:05.54	288.27	44.66	-48.1	-63.0	3.8	1.49e+00	0	37	104	0	66	21591
2026-01-19 02:05:06.55	287.79	44.53	-48.1	-63.0	3.8	1.49e+00	0	37	104	0	66	21577
2026-01-19 02:05:07.56	287.31	44.40	-48.1	-63.0	3.8	1.49e+00	0	37	104	0	66	21547
2026-01-19 02:05:08.56	286.84	44.26	-48.1	-63.0	3.8	1.49e+00	0	37	104	0	66	21570
2026-01-19 02:05:09.57	286.36	44.12	-48.1	-63.0	3.8	1.49e+00	0	37	104	0	66	21540
2026-01-19 02:05:10.58	285.90	43.98	-48.1	-63.0	3.8	1.49e+00	0	37	104	0	66	21653
2026-01-19 02:05:11.59	285.43	43.84	-48.1	-63.0	3.8	1.49e+00	0	37	104	0	66	21624
2026-01-19 02:05:12.59	284.98	43.70	-48.1	-63.0	3.8	1.49e+00	0	37	104	0	66	21605
2026-01-19 02:05:13.60	284.52	43.55	-48.1	-63.0	3.8	1.49e+00	0	37	104	0	66	21591
2026-01-19 02:05:14.61	284.07	43.41	-48.1	-63.0	3.8	1.49e+00	0	37	104	0	66	21562
2026-01-19 02:05:15.62	283.62	43.26	-48.1	-63.0	3.8	1.49e+00	0	37	104	0	66	21583
2026-01-19 02:05:16.63	283.18	43.11	-48.1	-63.0	3.8	1.49e+00	0	37	104	0	66	21577
2026-01-19 02:05:17.64	282.74	42.96	-48.1	-63.0	3.8	1.49e+00	0	37	104	0	66	21604
2026-01-19 02:05:18.64	282.31	42.81	-48.1	-63.0	3.8	1.49e+00	0	37	104	0	66	21559
2026-01-19 02:05:19.65	281.88	42.66	-48.1	-63.0	3.8	1.49e+00	0	37	104	0	66	21591
2026-01-19 02:05:20.66	281.45	42.51	-48.1	-63.0	3.8	1.49e+00	0	37	104	0	66	21639
2026-01-19 02:05:21.67	281.03	42.35	-48.1	-63.0	3.8	1.49e+00	0	37	104	0	66	21564
2026-01-19 02:05:22.68	280.61	42.19	-48.1	-63.0	3.8	1.49e+00	0	37	104	0	66	21574
2026-01-19 02:05:23.68	280.20	42.04	-48.1	-63.0	3.8	1.49e+00	0	37	104	0	66	21638
2026-01-19 02:05:24.69	279.79	41.88	-48.1	-63.0	3.8	1.49e+00	0	37	104	0	66	21602
2026-01-19 02:05:25.70	279.38	41.72	-48.1	-63.0	3.8	1.49e+00	0	37	104	0	66	21609
2026-01-19 02:05:26.71	278.98	41.56	-48.1	-63.0	3.8	1.49e+00	0	37	104	0	66	21606
2026-01-19 02:05:27.72	278.58	41.40	-48.1	-63.0	3.8	1.49e+00	0	37	104	0	66	21526
2026-01-19 02:05:28.72	278.19	41.24	-48.1	-63.0	3.8	1.49e+00	0	37	104	0	66	21600
2026-01-19 02:05:29.73	277.80	41.08	-48.1	-63.0	3.8	1.49e+00	0	37	104	0	66	21595
2026-01-19 02:05:30.74	277.41	40.91	-48.1	-63.0	3.8	1.49e+00	0	37	104	0	66	21617
2026-01-19 02:05:31.75	277.03	40.75	-48.1	-63.0	3.8	1.49e+00	0	37	104	0	66	21567
2026-01-19 02:05:32.76	276.65	40.58	-48.1	-63.0	3.8	1.49e+00	0	37	104	0	66	21575
2026-01-19 02:05:33.76	276.28	40.42	-48.1	-63.0	3.8	1.49e+00	0	37	104	0	66	21640
2026-01-19 02:05:34.77	275.91	40.25	-48.1	-63.0	3.8	1.49e+00	0	37	104	0	66	21640
2026-01-19 02:05:35.78	275.54	40.09	-48.1	-63.0	3.8	1.49e+00	0	37	104	0	66	21583
2026-01-19 02:05:36.79	275.17	39.92	-48.1	-63.0	3.8	1.49e+00	0	37	104	0	66	21675
2026-01-19 02:05:37.79	274.82	39.75	-48.1	-63.0	3.8	1.49e+00	0	37	104	0	66	21600
2026-01-19 02:05:38.80	274.46	39.59	-48.1	-63.0	3.8	1.49e+00	0	37	104	0	66	21557
2026-01-19 02:05:39.81	274.11	39.42	-48.1	-63.0	3.8	1.49e+00	0	37	104	0	66	21569
2026-01-19 02:05:40.82	273.76	39.25	-48.1	-63.0	3.8	1.49e+00	0	37	104	0	66	21553
2026-01-19 02:05:41.83	273.41	39.08	-48.1	-63.0	3.8	1.49e+00	0	37	104	0	66	21587
2026-01-19 02:05:42.84	273.07	38.91	-48.1	-63.0	3.8	1.49e+00	0	37	104	0	66	21594
2026-01-19 02:05:43.84	272.74	38.74	-48.1	-63.0	3.8	1.49e+00	0	37	104	0	66	21614
2026-01-19 02:05:44.85	272.40	38.57	-48.1	-63.0	3.8	1.49e+00	0	37	104	0	66	21577
2026-01-19 02:05:45.86	272.07	38.40	-48.1	-63.0	3.8	1.49e+00	0	37	104	0	66	21595
2026-01-19 02:05:46.87	271.75	38.23	-48.1	-63.0	3.8	1.49e+00	0	37	104	0	66	21561
2026-01-19 02:05:47.87	271.42	38.06	-48.1	-63.0	3.8	1.49e+00	0	37	104	0	66	21541
2026-01-19 02:05:48.88	271.10	37.89	-48.1	-63.0	3.8	1.49e+00	0	37	104	0	66	21552
2026-01-19 02:05:49.89	270.79	37.72	-48.1	-63.0	3.8	1.49e+00	0	37	104	0	66	21541
2026-01-19 02:05:50.90	270.47	37.55	-48.1	-63.0	3.8	1.49e+00	0	37	104	0	66	21588
2026-01-19 02:05:51.90	270.16	37.38	-48.1	-63.0	3.8	1.49e+00	0	37	104	0	66	21557
2026-01-19 02:05:52.91	269.86	37.20	-48.1	-63.0	3.8	1.49e+00	0	37	104	0	66	21590
2026-01-19 02:05:53.92	269.55	37.03	-48.1	-63.0	3.8	1.49e+00	0	37	104	0	66	21602
2026-01-19 02:05:54.93	269.25	36.86	-48.1	-63.0	3.8	1.49e+00	0	37	104	0	66	21585
2026-01-19 02:05:55.94	268.95	36.69	-48.1	-63.0	3.8	1.49e+00	0	37	104	0	66	21575
2026-01-19 02:05:56.94	268.66	36.52	-48.1	-63.0	3.8	1.49e+00	0	37	104	0	66	21558
2026-01-19 02:05:57.95	268.37	36.35	-48.1	-63.0	3.8	1.49e+00	0	37	104	0	66	21609
2026-01-19 02:05:58.96	268.08	36.18	-48.1	-63.0	3.8	1.49e+00	0	37	104	0	66	21530
2026-01-19 02:05:59.97	267.80	36.00	-48.1	-63.0	3.8	1.49e+00	0	37	104	0	66	21589
2026-01-19 02:06:00.97	267.52	35.83	-48.1	-63.0	3.8	1.49e+00	0	37	104	0	66	21550
2026-01-19 02:06:01.98	267.24	35.66	-48.1	-63.0	3.8	1.49e+00	0	37	104	0	66	21574
2026-01-19 02:06:02.99	266.96	35.49	-48.1	-63.0	3.8	1.49e+00	0	37	104	0	66	21594
2026-01-19 02:06:04.00	266.69	35.32	-48.1	-63.0	3.8	1.49e+00	0	37	104	0	66	21574
2026-01-19 02:06:05.01	266.42	35.15	-48.1	-63.0	3.8	1.49e+00	0	37	104	0	66	21552
2026-01-19 02:06:06.02	266.15	34.98	-48.1	-63.0	3.8	1.49e+00	0	37	104	0	66	21587
2026-01-19 02:06:07.03	265.88	34.81	-48.1	-63.0	3.8	1.49e+00	0	37	104	0	66	21630
2026-01-19 02:06:08.04	265.62	34.64	-48.1	-63.0	3.8	1.49e+00	0	37	104	0	66	21595
2026-01-19 02:06:09.04	265.36	34.47	-48.1	-63.0	3.8	1.49e+00	0	37	104	0	66	21611
2026-01-19 02:06:10.05	265.11	34.30	-48.1	-63.0	3.8	1.49e+00	0	37	104	0	66	21618
2026-01-19 02:06:11.06	264.85	34.13	-48.1	-63.0	3.8	1.49e+00	0	37	104	0	66	21551
2026-01-19 02:06:12.07	264.60	33.96	-48.1	-63.0	3.8	1.49e+00	0	37	104	0	66	21578
2026-01-19 02:06:13.08	264.35	33.79	-48.1	-63.0	3.8	1.49e+00	0	37	104	0	66	21561
2026-01-19 02:06:14.08	264.11	33.63	-48.1	-63.0	3.8	1.49e+00	0	37	104	0	66	21565
2026-01-19 02:06:15.09	263.86	33.46	-48.1	-63.0	3.8	1.49e+00	0	37	104	0	66	21592
2026-01-19 02:06:16.10	263.62	33.29	-48.1	-63.0	3.8	1.49e+00	0	37	104	0	66	21574
2026-01-19 02:06:17.11	263.38	33.12	-48.1	-63.0	3.8	1.49e+00	0	37	104	0	66	21621
2026-01-19 02:06:18.12	263.15	32.96	-48.1	-63.0	3.8	1.49e+00	0	37	104	0	66	21547
2026-01-19 02:06:19.12	262.91	32.79	-48.1	-63.0	3.8	1.49e+00	0	37	104	0	66	21589
2026-01-19 02:06:20.13	262.68	32.62	-48.1	-63.0	3.8	1.49e+00	0	37	104	0	66	21601
2026-01-19 02:06:21.14	262.45	32.46	-48.1	-63.0	3.8	1.49e+00	0	37	104	0	66	21578
2026-01-19 02:06:22.15	262.23	32.29	-48.1	-63.0	3.8	1.49e+00	0	37	104	0	66	21576
2026-01-19 02:06:23.16	262.00	32.13	-48.1	-63.0	3.8	1.49e+00	0	37	104	0	66	21617
2026-01-19 02:06:24.17	261.78	31.96	-48.1	-63.0	3.8	1.49e+00	0	37	104	0	66	21619
2026-01-19 02:06:25.18	261.56	31.80	-48.1	-63.0	3.8	1.49e+00	0	37	104	0	66	21535
2026-01-19 02:06:26.18	261.34	31.64	-48.1	-63.0	3.8	1.49e+00	0	37	104	0	66	21638
2026-01-19 02:06:27.19	261.13	31.47	-48.1	-63.0	3.8	1.49e+00	0	37	104	0	66	21576
2026-01-19 02:06:28.20	260.92	31.31	-48.1	-63.0	3.8	1.49e+00	0	37	104	0	66	21538
2026-01-19 02:06:29.20	260.71	31.15	-48.1	-63.0	3.8	1.49e+00	0	37	104	0	66	21603
2026-01-19 02:06:30.22	260.50	30.98	-48.1	-63.0	3.8	1.49e+00	0	37	104	0	66	21590
2026-01-19 02:06:31.22	260.29	30.82	-48.1	-63.0	3.8	1.49e+00	0	37	104	0	66	21552
2026-01-19 02:06:32.23	260.09	30.66	-48.1	-63.0	3.8	1.49e+00	0	37	104	0	66	21565
2026-01-19 02:06:33.24	259.88	30.50	-48.1	-63.0	3.8	1.49e+00	0	37	104	0	66	21548
2026-01-19 02:06:34.25	259.68	30.34	-48.1	-63.0	3.8	1.49e+00	0	37	104	0	66	21589
2026-01-19 02:06:35.26	259.48	30.18	-48.1	-63.0	3.8	1.49e+00	0	37	104	0	66	21565
2026-01-19 02:06:36.26	259.29	30.02	-48.1	-63.0	3.8	1.49e+00	0	37	104	0	66	21572
2026-01-19 02:06:37.27	259.09	29.86	-48.1	-63.0	3.8	1.49e+00	0	37	104	0	66	21583
2026-01-19 02:06:38.28	258.90	29.71	-48.1	-62.9	3.8	1.49e+00	0	37	104	0	66	21505
2026-01-19 02:06:39.29	258.71	29.55	-48.1	-63.0	3.8	1.49e+00	0	37	104	0	66	21561
2026-01-19 02:06:40.30	258.52	29.39	-48.1	-63.0	3.8	1.49e+00	0	37	104	0	66	21595
2026-01-19 02:06:41.31	258.33	29.23	-48.1	-63.0	3.8	1.49e+00	0	37	104	0	66	21591
2026-01-19 02:06:42.32	258.15	29.08	-48.1	-63.0	3.8	1.49e+00	0	37	104	0	66	21562
2026-01-19 02:06:43.32	257.97	28.92	-48.1	-63.0	3.8	1.49e+00	0	37	104	0	66	21615
2026-01-19 02:06:44.33	257.78	28.77	-48.1	-63.0	3.8	1.49e+00	0	36	104	0	66	21557
2026-01-19 02:06:45.34	257.60	28.61	-48.1	-63.0	3.8	1.49e+00	0	37	104	0	66	21569
2026-01-19 02:06:46.35	257.43	28.46	-48.1	-63.0	3.8	1.49e+00	0	37	104	0	66	21617
2026-01-19 02:06:47.36	257.25	28.31	-48.1	-63.0	3.8	1.49e+00	0	36	104	0	66	21595
2026-01-19 02:06:48.36	257.08	28.16	-48.1	-63.0	3.8	1.49e+00	0	37	104	0	66	21608
2026-01-19 02:06:49.37	256.90	28.00	-48.1	-63.0	3.8	1.49e+00	0	37	104	0	66	21565
2026-01-19 02:06:50.38	256.73	27.85	-48.1	-63.0	3.8	1.49e+00	0	37	104	0	66	21587
2026-01-19 02:06:51.39	256.56	27.70	-48.1	-63.0	3.8	1.49e+00	0	37	104	0	66	21566
2026-01-19 02:06:52.39	256.40	27.55	-48.1	-63.0	3.8	1.49e+00	0	37	104	0	66	21607
2026-01-19 02:06:53.40	256.23	27.40	-48.1	-63.0	3.8	1.49e+00	0	37	104	0	66	21578
2026-01-19 02:06:54.41	256.06	27.25	-48.1	-63.0	3.8	1.49e+00	0	37	104	0	66	21553
2026-01-19 02:06:55.42	255.90	27.10	-48.1	-63.0	3.8	1.49e+00	0	37	104	0	66	21631
2026-01-19 02:06:56.43	255.74	26.95	-48.1	-63.0	3.8	1.49e+00	0	37	104	0	66	21619
2026-01-19 02:06:57.43	255.58	26.81	-48.1	-63.0	3.8	1.49e+00	0	37	104	0	66	21578
2026-01-19 02:06:58.44	255.42	26.66	-48.1	-63.0	3.8	1.49e+00	0	37	104	0	66	21577
2026-01-19 02:06:59.45	255.26	26.51	-48.1	-63.0	3.8	1.49e+00	0	37	104	0	66	21613
2026-01-19 02:07:00.46	255.11	26.36	-48.1	-63.0	3.8	1.49e+00	0	37	104	0	66	21547
2026-01-19 02:07:01.47	254.95	26.22	-48.1	-63.0	3.8	1.49e+00	0	37	104	0	66	21629
2026-01-19 02:07:02.48	254.80	26.07	-48.1	-63.0	3.8	1.49e+00	0	37	104	0	66	21617
2026-01-19 02:07:03.48	254.65	25.93	-48.1	-63.0	3.8	1.49e+00	0	37	104	0	66	21554
2026-01-19 02:07:04.49	254.50	25.79	-48.1	-63.0	3.8	1.49e+00	0	37	104	0	66	21574
2026-01-19 02:07:05.50	254.35	25.64	-48.1	-63.0	3.8	1.49e+00	0	37	104	0	66	21596
2026-01-19 02:07:06.51	254.20	25.50	-48.1	-63.0	3.8	1.49e+00	0	37	104	0	66	21596
2026-01-19 02:07:07.51	254.06	25.36	-48.1	-63.0	3.8	1.49e+00	0	37	104	0	66	21547
2026-01-19 02:07:08.52	253.91	25.22	-48.1	-63.0	3.8	1.49e+00	0	37	104	0	66	21574
2026-01-19 02:07:09.53	253.77	25.07	-48.1	-63.0	3.8	1.49e+00	0	37	104	0	66	21576
2026-01-19 02:07:10.54	253.63	24.93	-48.1	-63.0	3.8	1.49e+00	0	37	104	0	66	21568
2026-01-19 02:07:11.55	253.49	24.79	-48.1	-63.0	3.8	1.49e+00	0	37	104	0	66	21558
2026-01-19 02:07:12.56	253.35	24.65	-48.1	-63.0	3.8	1.49e+00	0	37	104	0	66	21585
2026-01-19 02:07:13.56	253.21	24.51	-48.1	-63.0	3.8	1.49e+00	0	37	104	0	66	21544
2026-01-19 02:07:14.57	253.07	24.38	-48.1	-63.0	3.8	1.49e+00	0	37	104	0	66	21568
2026-01-19 02:07:15.58	252.93	24.24	-48.1	-63.0	3.8	1.49e+00	0	37	104	0	66	21518
2026-01-19 02:07:16.59	252.80	24.10	-48.1	-63.0	3.8	1.49e+00	0	37	104	0	66	21561
2026-01-19 02:07:17.60	252.67	23.96	-48.1	-63.0	3.8	1.49e+00	0	37	104	0	66	21615
2026-01-19 02:07:18.60	252.54	23.83	-48.1	-63.0	3.8	1.49e+00	0	37	104	0	66	21585
2026-01-19 02:07:19.61	252.40	23.69	-48.1	-63.0	3.8	1.49e+00	0	37	104	0	66	21558
2026-01-19 02:07:20.62	252.27	23.56	-48.1	-63.0	3.8	1.49e+00	0	37	104	0	66	21578
2026-01-19 02:07:21.63	252.15	23.42	-48.1	-63.0	3.8	1.49e+00	0	37	104	0	66	21527
2026-01-19 02:07:22.64	252.02	23.29	-48.1	-63.0	3.8	1.49e+00	0	37	104	0	66	21560
2026-01-19 02:07:23.64	251.89	23.15	-48.1	-63.0	3.8	1.49e+00	0	37	104	0	66	21600
2026-01-19 02:07:24.65	251.77	23.02	-48.1	-62.9	3.8	1.49e+00	0	37	104	0	66	21502
2026-01-19 02:07:25.66	251.64	22.89	-48.1	-63.0	3.8	1.49e+00	0	37	104	0	66	21579
2026-01-19 02:07:26.67	251.52	22.76	-48.1	-63.0	3.8	1.49e+00	0	37	104	0	66	21575
2026-01-19 02:07:27.68	251.40	22.62	-48.1	-63.0	3.8	1.49e+00	0	37	104	0	66	21620
2026-01-19 02:07:28.68	251.28	22.49	-48.1	-63.0	3.8	1.49e+00	0	37	104	0	66	21549
2026-01-19 02:07:29.69	251.16	22.36	-48.1	-63.0	3.8	1.49e+00	0	37	104	0	66	21539
2026-01-19 02:07:30.70	251.04	22.23	-48.1	-63.0	3.8	1.49e+00	0	37	104	0	66	21568
2026-01-19 02:07:31.71	250.92	22.10	-48.1	-63.0	3.8	1.49e+00	0	37	104	0	66	21565
2026-01-19 02:07:32.72	250.80	21.98	-48.1	-63.0	3.8	1.49e+00	0	37	104	0	66	21583
2026-01-19 02:07:33.72	250.69	21.85	-48.1	-63.0	3.8	1.49e+00	0	37	104	0	66	21560
2026-01-19 02:07:34.73	250.57	21.72	-48.1	-63.0	3.8	1.49e+00	0	37	104	0	66	21567
2026-01-19 02:07:35.74	250.46	21.59	-48.1	-63.0	3.8	1.49e+00	0	37	104	0	66	21641
2026-01-19 02:07:36.75	250.34	21.47	-48.1	-63.0	3.8	1.49e+00	0	37	104	0	66	21581
2026-01-19 02:07:37.75	250.23	21.34	-48.1	-63.0	3.8	1.49e+00	0	37	104	0	66	21633
2026-01-19 02:07:38.76	250.12	21.21	-48.1	-63.0	3.8	1.49e+00	0	37	104	0	66	21607
2026-01-19 02:07:39.77	250.01	21.09	-48.1	-63.0	3.8	1.49e+00	0	37	104	0	66	21604
2026-01-19 02:07:40.78	249.90	20.96	-48.1	-63.0	3.8	1.49e+00	0	37	104	0	66	21551
2026-01-19 02:07:41.78	249.79	20.84	-48.1	-63.0	3.8	1.49e+00	0	37	104	0	66	21598
2026-01-19 02:07:42.79	249.68	20.72	-48.1	-63.0	3.8	1.49e+00	0	37	104	0	66	21537
2026-01-19 02:07:43.80	249.58	20.59	-48.1	-63.0	3.8	1.49e+00	0	37	104	0	66	21578
2026-01-19 02:07:44.81	249.47	20.47	-48.1	-63.0	3.8	1.49e+00	0	37	104	0	66	21565
2026-01-19 02:07:45.82	249.37	20.35	-48.1	-63.0	3.8	1.49e+00	0	37	104	0	66	21536
2026-01-19 02:07:46.83	249.26	20.23	-48.1	-63.0	3.8	1.49e+00	0	37	104	0	66	21649
2026-01-19 02:07:47.83	249.16	20.11	-48.1	-63.0	3.8	1.49e+00	0	37	104	0	66	21537
2026-01-19 02:07:48.84	249.06	19.98	-48.1	-63.0	3.8	1.49e+00	0	37	104	0	66	21548
2026-01-19 02:07:49.85	248.95	19.86	-48.1	-63.0	3.8	1.49e+00	0	37	104	0	66	21561
2026-01-19 02:07:50.86	248.85	19.74	-48.1	-63.0	3.8	1.49e+00	0	37	104	0	66	21577
2026-01-19 02:07:51.86	248.75	19.63	-48.1	-63.0	3.8	1.49e+00	0	37	104	0	66	21567
2026-01-19 02:07:52.87	248.65	19.51	-48.1	-63.0	3.8	1.49e+00	0	37	104	0	66	21630
2026-01-19 02:07:53.88	248.56	19.39	-48.1	-63.0	3.8	1.49e+00	0	37	104	0	66	21600
2026-01-19 02:07:54.89	248.46	19.27	-48.1	-63.0	3.8	1.49e+00	0	37	104	0	66	21576
2026-01-19 02:07:55.90	248.36	19.15	-48.1	-63.0	3.8	1.49e+00	0	37	104	0	66	21596
2026-01-19 02:07:56.90	248.27	19.04	-48.1	-63.0	3.8	1.49e+00	0	37	104	0	66	21606
2026-01-19 02:07:57.91	248.17	18.92	-48.1	-63.0	3.8	1.49e+00	0	37	104	0	66	21556
2026-01-19 02:07:58.92	248.07	18.80	-48.1	-63.0	3.8	1.49e+00	0	37	104	0	66	21560
2026-01-19 02:07:59.93	247.98	18.69	-48.1	-63.0	3.8	1.49e+00	0	37	104	0	66	21553
2026-01-19 02:08:00.93	247.89	18.57	-48.1	-62.9	3.8	1.49e+00	0	37	104	0	66	21497
2026-01-19 02:08:01.94	247.80	18.46	-48.1	-63.0	3.8	1.49e+00	0	37	104	0	66	21562
2026-01-19 02:08:02.95	247.70	18.34	-48.1	-63.0	3.8	1.49e+00	0	37	104	0	66	21594
2026-01-19 02:08:03.96	247.61	18.23	-48.1	-63.0	3.8	1.49e+00	0	37	104	0	66	21591
2026-01-19 02:08:04.97	247.52	18.12	-48.1	-63.0	3.8	1.49e+00	0	37	104	0	66	21613
2026-01-19 02:08:05.98	247.43	18.00	-48.1	-63.0	3.8	1.49e+00	0	37	104	0	66	21589
2026-01-19 02:08:06.98	247.34	17.89	-48.1	-63.0	3.8	1.49e+00	0	37	104	0	66	21609
2026-01-19 02:08:07.99	247.26	17.78	-48.1	-63.0	3.8	1.49e+00	0	37	104	0	66	21602
2026-01-19 02:08:09.00	247.17	17.67	-48.1	-63.0	3.8	1.49e+00	0	37	104	0	66	21575
2026-01-19 02:08:10.01	247.08	17.56	-48.1	-63.0	3.8	1.49e+00	0	37	104	0	66	21546
2026-01-19 02:08:11.02	246.99	17.44	-48.1	-63.0	3.8	1.49e+00	0	37	104	0	66	21617
2026-01-19 02:08:12.02	246.91	17.34	-48.1	-63.0	3.8	1.49e+00	0	37	104	0	66	21642
2026-01-19 02:08:13.04	246.82	17.22	-48.1	-63.0	3.8	1.49e+00	0	37	104	0	66	21595
2026-01-19 02:08:14.04	246.74	17.12	-48.1	-63.0	3.8	1.49e+00	0	37	104	0	66	21585
2026-01-19 02:08:15.05	246.66	17.01	-48.1	-63.0	3.8	1.49e+00	0	37	104	0	66	21564
2026-01-19 02:08:16.06	246.57	16.90	-48.1	-63.0	3.8	1.49e+00	0	37	104	0	66	21616
2026-01-19 02:08:17.07	246.49	16.79	-48.1	-63.0	3.8	1.49e+00	0	37	104	0	66	21607
2026-01-19 02:08:18.08	246.41	16.68	-48.1	-63.0	3.8	1.49e+00	0	37	104	0	66	21537
2026-01-19 02:08:19.08	246.33	16.57	-48.1	-63.0	3.8	1.49e+00	0	37	104	0	66	21543
2026-01-19 02:08:20.09	246.25	16.47	-48.1	-63.0	3.8	1.49e+00	0	37	104	0	66	21599
2026-01-19 02:08:21.10	246.17	16.36	-48.1	-63.0	3.8	1.49e+00	0	37	104	0	66	21595
2026-01-19 02:08:22.11	246.09	16.25	-48.1	-63.0	3.8	1.49e+00	0	37	104	0	66	21554
2026-01-19 02:08:23.11	246.01	16.15	-48.1	-63.0	3.8	1.49e+00	0	37	104	0	66	21565
2026-01-19 02:08:24.12	245.93	16.04	-48.1	-63.0	3.8	1.49e+00	0	37	104	0	66	21620
2026-01-19 02:08:25.13	245.85	15.94	-48.1	-63.0	3.8	1.49e+00	0	37	104	0	66	21582
2026-01-19 02:08:26.14	245.77	15.83	-48.1	-63.0	3.8	1.49e+00	0	37	104	0	66	21555
2026-01-19 02:08:27.14	245.70	15.73	-48.1	-63.0	3.8	1.49e+00	0	37	104	0	66	21539
2026-01-19 02:08:28.15	245.62	15.63	-48.1	-63.0	3.8	1.49e+00	0	37	104	0	66	21569
2026-01-19 02:08:29.16	245.55	15.52	-48.1	-63.0	3.8	1.49e+00	0	37	104	0	66	21536
2026-01-19 02:08:30.17	245.47	15.42	-48.1	-63.0	3.8	1.49e+00	0	37	104	0	66	21560
2026-01-19 02:08:31.17	245.40	15.32	-48.1	-63.0	3.8	1.49e+00	0	37	104	0	66	21569
2026-01-19 02:08:32.18	245.32	15.22	-48.1	-63.0	3.8	1.49e+00	0	37	104	0	66	21591
2026-01-19 02:08:33.19	245.25	15.11	-48.1	-63.0	3.8	1.49e+00	0	37	104	0	66	21553
2026-01-19 02:08:34.20	245.18	15.01	-48.1	-63.0	3.8	1.49e+00	0	37	104	0	66	21596
2026-01-19 02:08:35.20	245.11	14.91	-48.1	-63.0	3.8	1.49e+00	0	37	104	0	66	21541
2026-01-19 02:08:36.21	245.03	14.81	-48.1	-63.0	3.8	1.49e+00	0	37	104	0	66	21513
2026-01-19 02:08:37.22	244.96	14.71	-48.1	-63.0	3.8	1.49e+00	0	37	104	0	66	21637
2026-01-19 02:08:38.23	244.89	14.61	-48.1	-63.0	3.8	1.49e+00	0	37	104	0	66	21621
2026-01-19 02:08:39.24	244.82	14.51	-48.1	-63.0	3.8	1.49e+00	0	37	104	0	66	21547
2026-01-19 02:08:40.24	244.75	14.41	-48.1	-63.0	3.8	1.49e+00	0	37	104	0	66	21537
2026-01-19 02:08:41.25	244.68	14.31	-48.1	-63.0	3.8	1.49e+00	0	37	104	0	66	21569
2026-01-19 02:08:42.26	244.61	14.21	-48.1	-63.0	3.8	1.49e+00	0	37	104	0	66	21598
2026-01-19 02:08:43.27	244.54	14.12	-48.1	-63.0	3.8	1.49e+00	0	37	104	0	66	21567
2026-01-19 02:08:44.28	244.48	14.02	-48.1	-63.0	3.8	1.49e+00	0	37	104	0	66	21551
2026-01-19 02:08:45.28	244.41	13.92	-48.1	-63.0	3.8	1.49e+00	0	37	104	0	66	21565
2026-01-19 02:08:46.29	244.34	13.82	-48.1	-63.0	3.8	1.49e+00	0	37	104	0	66	21590
2026-01-19 02:08:47.30	244.27	13.73	-48.1	-63.0	3.8	1.49e+00	0	37	104	0	66	21574
2026-01-19 02:08:48.31	244.21	13.63	-48.1	-63.0	3.8	1.49e+00	0	37	104	0	66	21592
2026-01-19 02:08:49.32	244.14	13.53	-48.1	-63.0	3.8	1.49e+00	0	37	104	0	66	21532
2026-01-19 02:08:50.33	244.08	13.44	-48.1	-63.0	3.8	1.49e+00	0	37	104	0	66	21529
2026-01-19 02:08:51.34	244.01	13.34	-48.1	-63.0	3.8	1.49e+00	0	37	104	0	66	21523
2026-01-19 02:08:52.34	243.95	13.25	-48.1	-63.0	3.8	1.49e+00	0	37	104	0	66	21607
2026-01-19 02:08:53.35	243.88	13.15	-48.1	-63.0	3.8	1.49e+00	0	37	104	0	66	21572
2026-01-19 02:08:54.36	243.82	13.06	-48.1	-63.0	3.8	1.49e+00	0	37	104	0	66	21536
2026-01-19 02:08:55.37	243.76	12.96	-48.1	-63.0	3.8	1.49e+00	0	37	104	0	66	21532
2026-01-19 02:08:56.38	243.69	12.87	-48.1	-63.0	3.8	1.49e+00	0	37	104	0	66	21594
2026-01-19 02:08:57.38	243.63	12.78	-48.1	-63.0	3.8	1.49e+00	0	37	104	0	66	21528
2026-01-19 02:08:58.39	243.57	12.68	-48.1	-63.0	3.8	1.49e+00	0	37	104	0	66	21578
2026-01-19 02:08:59.40	243.51	12.59	-48.1	-62.9	3.8	1.49e+00	0	37	104	0	66	21502
2026-01-19 02:09:00.40	243.45	12.50	-48.1	-63.0	3.8	1.49e+00	0	37	104	0	66	21586
2026-01-19 02:09:01.41	243.39	12.41	-48.1	-63.0	3.8	1.49e+00	0	37	104	0	66	21564
2026-01-19 02:09:02.42	243.33	12.31	-48.1	-63.0	3.8	1.49e+00	0	37	104	0	66	21622
2026-01-19 02:09:03.43	243.27	12.22	-48.1	-63.0	3.8	1.49e+00	0	37	104	0	66	21558
2026-01-19 02:09:04.44	243.21	12.13	-48.1	-63.0	3.8	1.49e+00	0	37	104	0	66	21590
2026-01-19 02:09:05.44	243.15	12.04	-48.1	-63.0	3.8	1.49e+00	0	37	104	0	66	21598
2026-01-19 02:09:06.45	243.09	11.95	-48.1	-63.0	3.8	1.49e+00	0	37	104	0	66	21580
2026-01-19 02:09:07.46	243.03	11.86	-48.1	-63.0	3.8	1.49e+00	0	37	104	0	66	21536
2026-01-19 02:09:08.47	242.97	11.77	-48.1	-63.0	3.8	1.49e+00	0	37	104	0	66	21577
2026-01-19 02:09:09.48	242.92	11.68	-48.1	-63.0	3.8	1.49e+00	0	37	104	0	66	21576
2026-01-19 02:09:10.49	242.86	11.59	-48.1	-63.0	3.8	1.49e+00	0	37	104	0	66	21572
2026-01-19 02:09:11.50	242.80	11.50	-48.1	-63.0	3.8	1.49e+00	0	37	104	0	66	21581
2026-01-19 02:09:12.50	242.75	11.41	-48.1	-63.0	3.8	1.49e+00	0	37	104	0	66	21557
2026-01-19 02:09:13.51	242.69	11.32	-48.1	-63.0	3.8	1.49e+00	0	37	104	0	66	21568
2026-01-19 02:09:14.52	242.63	11.23	-48.1	-63.0	3.8	1.49e+00	0	37	104	0	66	21625
2026-01-19 02:09:15.53	242.58	11.15	-48.1	-63.0	3.8	1.49e+00	0	37	104	0	66	21553
2026-01-19 02:09:16.54	242.52	11.06	-48.1	-63.0	3.8	1.49e+00	0	37	104	0	66	21588
2026-01-19 02:09:17.54	242.47	10.97	-48.1	-63.0	3.8	1.49e+00	0	37	104	0	66	21630
2026-01-19 02:09:18.55	242.42	10.88	-48.1	-63.0	3.8	1.49e+00	0	37	104	0	66	21578
2026-01-19 02:09:19.56	242.36	10.80	-48.1	-63.0	3.8	1.49e+00	0	37	104	0	66	21564
2026-01-19 02:09:20.57	242.31	10.71	-48.1	-63.0	3.8	1.49e+00	0	37	104	0	66	21550
2026-01-19 02:09:21.58	242.25	10.62	-48.1	-63.0	3.8	1.49e+00	0	37	104	0	66	21560
2026-01-19 02:09:22.59	242.20	10.54	-48.1	-63.0	3.8	1.49e+00	0	37	104	0	66	21598
2026-01-19 02:09:23.60	242.15	10.45	-48.1	-63.0	3.8	1.49e+00	0	37	104	0	66	21579
2026-01-19 02:09:24.60	242.10	10.37	-48.1	-63.0	3.8	1.49e+00	0	37	104	0	66	21577
2026-01-19 02:09:25.61	242.04	10.28	-48.1	-63.0	3.8	1.49e+00	0	37	104	0	66	21544
2026-01-19 02:09:26.62	241.99	10.20	-48.1	-63.0	3.8	1.49e+00	0	37	104	0	66	21566
2026-01-19 02:09:27.63	241.94	10.11	-48.1	-63.0	3.8	1.49e+00	0	37	104	0	66	21591
2026-01-19 02:09:28.64	241.89	10.03	-48.1	-63.0	3.8	1.49e+00	0	37	104	0	66	21594
2026-01-19 02:09:29.64	241.84	9.94	-48.1	-63.0	3.8	1.49e+00	0	37	104	0	66	21574
2026-01-19 02:09:30.65	241.79	9.86	-48.1	-63.0	3.8	1.49e+00	0	37	104	0	66	21572
2026-01-19 02:09:31.66	241.74	9.78	-48.1	-63.0	3.8	1.49e+00	0	37	104	0	66	21525
2026-01-19 02:09:32.66	241.69	9.69	-48.1	-63.0	3.8	1.49e+00	0	37	104	0	66	21564
2026-01-19 02:09:33.67	241.64	9.61	-48.1	-63.0	3.8	1.49e+00	0	37	104	0	66	21575
2026-01-19 02:09:34.68	241.59	9.53	-48.1	-63.0	3.8	1.49e+00	0	37	104	0	66	21611
2026-01-19 02:09:35.69	241.54	9.44	-48.1	-63.0	3.8	1.49e+00	0	37	104	0	66	21541
2026-01-19 02:09:36.70	241.49	9.36	-48.1	-63.0	3.8	1.49e+00	0	37	104	0	66	21580
2026-01-19 02:09:37.70	241.44	9.28	-48.1	-63.0	3.8	1.49e+00	0	37	104	0	66	21594
2026-01-19 02:09:38.71	241.40	9.20	-48.1	-63.0	3.8	1.49e+00	0	37	104	0	66	21553
2026-01-19 02:09:39.72	241.35	9.12	-48.1	-63.0	3.8	1.49e+00	0	37	104	0	66	21577
2026-01-19 02:09:40.72	241.30	9.04	-48.1	-63.0	3.8	1.49e+00	0	37	104	0	66	21590
2026-01-19 02:09:41.73	241.25	8.95	-48.1	-63.0	3.8	1.49e+00	0	37	104	0	66	21570
2026-01-19 02:09:42.74	241.21	8.87	-48.1	-63.0	3.8	1.49e+00	0	37	104	0	66	21562
