passes_logs/2026/01/19/R3.2S_Murmansk/R3.2S_Murmansk__20260119_103618_JILIN-01_KUANFU_02B_5_rec.log

#Pass ID: 20260119_103618_JILIN-01 KUANFU 02B 5
#Satellite: JILIN-01 KUANFU 02B 5
#Configuration: 01B_900M
#almurnet v.1.7.20251203
#Start time: 2026-01-19 10:36:18

#Version: 2.2.20231116
#Station: R3.2S_Murmansk
#Location: 33.079688 lon 68.888172 lat
#TLE: 1 61193U 24169E   26018.96157998  .00004469  00000+0  28079-3 0  9994
#TLE: 2 61193  97.5744 110.7813 0013795 121.3515 238.9066 15.09689719 73326

#Time	Az	El	Level	Level2	SNR	BER	BlckErr	Temp	State	Recorded	gain1	gain2
2026-01-19 10:36:18.05	21.34	1.96	-52.7	-54.8	6.3	0.00e+00	0	38	0	0	77	17889
2026-01-19 10:36:19.06	21.34	2.02	-52.6	-54.8	6.2	0.00e+00	0	38	104	0	76	19029
2026-01-19 10:36:20.07	21.34	2.09	-52.7	-54.8	6.2	0.00e+00	0	38	104	0	76	18969
2026-01-19 10:36:21.08	21.34	2.16	-52.7	-54.8	6.2	0.00e+00	0	38	104	0	76	18886
2026-01-19 10:36:22.09	21.34	2.23	-52.6	-54.8	6.2	0.00e+00	0	38	104	0	76	18927
2026-01-19 10:36:23.10	21.34	2.31	-52.6	-54.8	6.2	0.00e+00	0	38	104	0	76	18885
2026-01-19 10:36:24.11	21.34	2.38	-52.7	-54.8	6.2	0.00e+00	0	38	104	0	76	18951
2026-01-19 10:36:25.11	21.34	2.45	-52.7	-54.8	6.2	0.00e+00	0	38	104	0	76	18929
2026-01-19 10:36:26.12	21.34	2.52	-52.6	-54.8	6.2	0.00e+00	0	38	104	0	76	18900
2026-01-19 10:36:27.13	21.35	2.59	-52.7	-54.8	6.2	0.00e+00	0	38	104	0	76	18936
2026-01-19 10:36:28.14	21.35	2.66	-52.6	-54.8	6.2	0.00e+00	0	38	104	0	76	18895
2026-01-19 10:36:29.15	21.35	2.73	-52.6	-54.8	6.2	0.00e+00	0	38	104	0	76	18912
2026-01-19 10:36:30.15	21.35	2.80	-52.6	-54.8	6.2	0.00e+00	0	38	104	0	76	18865
2026-01-19 10:36:31.16	21.35	2.88	-52.6	-54.8	6.2	0.00e+00	0	39	104	0	76	18955
2026-01-19 10:36:32.17	21.35	2.95	-52.6	-54.7	6.2	0.00e+00	0	39	104	0	76	18802
2026-01-19 10:36:33.18	21.35	3.02	-52.6	-54.8	6.2	0.00e+00	0	38	104	0	76	18940
2026-01-19 10:36:34.18	21.35	3.09	-52.6	-54.7	6.2	0.00e+00	0	39	104	0	76	18806
2026-01-19 10:36:35.19	21.35	3.17	-52.6	-54.8	6.2	0.00e+00	0	38	104	0	76	18888
2026-01-19 10:36:36.20	21.35	3.24	-52.6	-54.8	6.2	0.00e+00	0	39	104	0	76	18844
2026-01-19 10:36:37.21	21.35	3.31	-52.6	-54.8	6.2	0.00e+00	0	38	104	0	76	18874
2026-01-19 10:36:38.22	21.35	3.39	-52.6	-54.8	6.2	0.00e+00	0	39	104	0	76	18887
2026-01-19 10:36:39.23	21.36	3.46	-52.6	-54.8	6.2	0.00e+00	0	39	104	0	76	18834
2026-01-19 10:36:40.23	21.36	3.54	-52.6	-54.8	6.2	0.00e+00	0	39	104	0	76	18904
2026-01-19 10:36:41.24	21.36	3.61	-52.6	-54.7	6.2	0.00e+00	0	39	104	0	76	18786
2026-01-19 10:36:42.25	21.36	3.69	-52.6	-54.8	6.2	0.00e+00	0	39	104	0	76	18882
2026-01-19 10:36:43.26	21.36	3.76	-52.6	-54.8	6.2	0.00e+00	0	39	104	0	76	18841
2026-01-19 10:36:44.27	21.36	3.84	-52.6	-54.7	6.2	0.00e+00	0	39	104	0	76	18806
2026-01-19 10:36:45.27	21.36	3.91	-52.6	-54.8	6.2	0.00e+00	0	39	104	0	76	18868
2026-01-19 10:36:46.28	21.36	3.99	-52.6	-54.8	6.2	0.00e+00	0	39	104	0	76	18835
2026-01-19 10:36:47.29	21.36	4.06	-52.6	-54.8	6.2	0.00e+00	0	39	104	0	76	18853
2026-01-19 10:36:48.30	21.36	4.14	-52.6	-54.8	6.2	0.00e+00	0	39	104	0	76	18835
2026-01-19 10:36:49.31	21.36	4.22	-52.6	-54.8	6.2	0.00e+00	0	39	104	0	76	18880
2026-01-19 10:36:50.32	21.36	4.30	-52.6	-54.8	6.2	0.00e+00	0	39	104	0	76	18923
2026-01-19 10:36:51.33	21.36	4.37	-52.6	-54.8	6.2	0.00e+00	0	39	104	0	76	18882
2026-01-19 10:36:52.34	21.36	4.45	-52.6	-54.8	6.2	0.00e+00	0	39	104	0	76	18887
2026-01-19 10:36:53.35	21.36	4.53	-52.6	-54.8	6.2	0.00e+00	0	39	104	0	76	18848
2026-01-19 10:36:54.35	21.36	4.61	-52.6	-54.8	6.2	0.00e+00	0	39	104	0	76	18856
2026-01-19 10:36:55.36	21.36	4.69	-52.6	-54.7	6.2	0.00e+00	0	39	104	0	76	18815
2026-01-19 10:36:56.37	21.36	4.76	-52.6	-54.7	6.2	0.00e+00	0	39	104	0	76	18807
2026-01-19 10:36:57.38	21.36	4.84	-52.6	-54.8	6.2	0.00e+00	0	39	104	0	76	18835
2026-01-19 10:36:58.38	21.36	4.92	-52.6	-54.8	6.2	0.00e+00	0	39	104	0	76	18883
2026-01-19 10:36:59.39	21.36	5.00	-52.6	-54.8	6.2	0.00e+00	0	39	104	0	76	18847
2026-01-19 10:37:00.40	21.36	5.08	-52.6	-54.8	6.2	0.00e+00	0	39	104	0	76	18884
2026-01-19 10:37:01.41	21.36	5.16	-52.7	-54.8	6.2	0.00e+00	0	39	104	0	76	19004
2026-01-19 10:37:02.42	21.36	5.24	-52.6	-54.8	6.2	0.00e+00	0	39	104	0	76	18939
2026-01-19 10:37:03.42	21.36	5.33	-52.7	-54.9	6.2	0.00e+00	0	39	104	0	76	19108
2026-01-19 10:37:04.43	21.36	5.41	-52.7	-54.9	6.2	0.00e+00	0	39	104	0	76	19126
2026-01-19 10:37:05.44	21.36	5.49	-52.6	-54.8	6.2	0.00e+00	0	39	104	0	76	18853
2026-01-19 10:37:06.45	21.36	5.57	-52.7	-54.9	6.2	0.00e+00	0	39	104	0	76	19081
2026-01-19 10:37:07.46	21.36	5.65	-52.8	-54.9	6.2	0.00e+00	0	39	104	0	76	19256
2026-01-19 10:37:08.46	21.36	5.74	-52.7	-54.9	6.2	0.00e+00	0	39	104	0	76	19109
2026-01-19 10:37:09.47	21.36	5.82	-52.7	-54.8	6.2	0.00e+00	0	39	104	0	76	19030
2026-01-19 10:37:10.48	21.36	5.90	-52.8	-54.9	6.2	0.00e+00	0	39	104	0	76	19162
2026-01-19 10:37:11.49	21.36	5.99	-52.8	-55.0	6.2	0.00e+00	0	39	104	0	76	19332
2026-01-19 10:37:12.50	21.36	6.07	-52.8	-54.9	6.2	0.00e+00	0	39	104	0	76	19246
2026-01-19 10:37:13.51	21.36	6.16	-52.8	-54.9	6.2	0.00e+00	0	39	104	0	76	19150
2026-01-19 10:37:14.51	21.36	6.24	-52.8	-55.0	6.2	0.00e+00	0	39	104	0	76	19268
2026-01-19 10:37:15.52	21.36	6.32	-52.9	-55.0	6.2	0.00e+00	0	39	104	0	76	19430
2026-01-19 10:37:16.53	21.36	6.41	-52.9	-55.0	6.2	0.00e+00	0	39	104	0	76	19467
2026-01-19 10:37:17.54	21.36	6.50	-52.8	-54.9	6.2	0.00e+00	0	39	104	0	76	19202
2026-01-19 10:37:18.55	21.36	6.58	-52.9	-55.0	6.2	0.00e+00	0	39	104	0	76	19352
2026-01-19 10:37:19.55	21.36	6.67	-52.9	-55.1	6.2	0.00e+00	0	39	104	0	76	19549
2026-01-19 10:37:20.56	21.36	6.76	-52.9	-55.0	6.2	0.00e+00	0	39	104	0	76	19377
2026-01-19 10:37:21.57	21.36	6.84	-52.9	-55.0	6.2	0.00e+00	0	39	104	0	76	19412
2026-01-19 10:37:22.57	21.36	6.93	-52.9	-55.1	6.2	0.00e+00	0	39	104	0	76	19513
2026-01-19 10:37:23.58	21.36	7.02	-53.0	-55.1	6.2	0.00e+00	0	40	104	0	76	19697
2026-01-19 10:37:24.59	21.36	7.11	-52.9	-55.1	6.2	0.00e+00	0	39	104	0	76	19542
2026-01-19 10:37:25.60	21.36	7.20	-52.9	-55.1	6.2	0.00e+00	0	40	104	0	76	19496
2026-01-19 10:37:26.60	21.36	7.29	-53.0	-55.1	6.2	0.00e+00	0	39	104	0	76	19605
2026-01-19 10:37:27.61	21.35	7.38	-53.0	-55.2	6.2	0.00e+00	0	40	104	0	76	19742
2026-01-19 10:37:28.62	21.35	7.47	-53.0	-55.1	6.2	0.00e+00	0	40	104	0	76	19632
2026-01-19 10:37:29.63	21.35	7.56	-53.0	-55.1	6.2	0.00e+00	0	40	104	0	76	19664
2026-01-19 10:37:30.64	21.35	7.65	-53.0	-55.2	6.2	0.00e+00	0	39	104	0	76	19705
2026-01-19 10:37:31.65	21.35	7.74	-53.1	-55.2	6.2	0.00e+00	0	40	104	0	76	19852
2026-01-19 10:37:32.65	21.35	7.83	-53.0	-55.1	6.2	0.00e+00	0	40	104	0	76	19669
2026-01-19 10:37:33.66	21.35	7.92	-53.0	-55.2	6.2	0.00e+00	0	40	104	0	76	19743
2026-01-19 10:37:34.67	21.35	8.02	-53.0	-55.2	6.2	0.00e+00	0	40	104	0	76	19780
2026-01-19 10:37:35.68	21.35	8.11	-53.1	-55.2	6.2	0.00e+00	0	40	104	0	76	19901
2026-01-19 10:37:36.68	21.35	8.20	-53.0	-55.2	6.2	0.00e+00	0	40	104	0	76	19754
2026-01-19 10:37:37.69	21.35	8.30	-53.1	-55.2	6.2	0.00e+00	0	40	104	0	76	19863
2026-01-19 10:37:38.70	21.34	8.39	-53.1	-55.2	6.2	0.00e+00	0	40	104	0	76	19897
2026-01-19 10:37:39.71	21.34	8.49	-53.1	-55.3	6.2	0.00e+00	0	40	104	0	76	20040
2026-01-19 10:37:40.71	21.34	8.58	-53.1	-55.2	6.2	0.00e+00	0	40	104	0	76	19819
2026-01-19 10:37:41.72	21.34	8.68	-53.1	-55.2	6.2	0.00e+00	0	40	104	0	76	19914
2026-01-19 10:37:42.73	21.34	8.78	-53.1	-55.3	6.2	0.00e+00	0	40	104	0	76	19962
2026-01-19 10:37:43.74	21.34	8.87	-53.2	-55.3	6.2	0.00e+00	0	40	104	0	76	20128
2026-01-19 10:37:44.75	21.34	8.97	-53.1	-55.3	6.2	0.00e+00	0	40	104	0	76	19950
2026-01-19 10:37:45.75	21.33	9.07	-53.2	-55.3	6.2	0.00e+00	0	40	104	0	76	20033
2026-01-19 10:37:46.76	21.33	9.17	-53.2	-55.3	6.2	0.00e+00	0	40	104	0	76	20087
2026-01-19 10:37:47.77	21.33	9.26	-53.2	-55.4	6.2	0.00e+00	0	40	104	0	76	20251
2026-01-19 10:37:48.78	21.33	9.36	-53.1	-55.3	6.2	0.00e+00	0	40	104	0	76	20003
2026-01-19 10:37:49.79	21.33	9.46	-53.2	-55.3	6.2	0.00e+00	0	40	104	0	76	20058
2026-01-19 10:37:50.79	21.33	9.56	-53.2	-55.3	6.2	0.00e+00	0	40	104	0	76	20096
2026-01-19 10:37:51.80	21.32	9.67	-53.2	-55.4	6.2	0.00e+00	0	40	104	0	77	19153
2026-01-19 10:37:52.81	21.32	9.77	-53.2	-55.4	6.2	0.00e+00	0	40	104	0	77	19057
2026-01-19 10:37:53.82	21.32	9.87	-53.2	-55.4	6.2	0.00e+00	0	40	104	0	77	19066
2026-01-19 10:37:54.83	21.32	9.97	-53.2	-55.3	6.2	0.00e+00	0	40	104	0	77	19030
2026-01-19 10:37:55.84	21.32	10.08	-53.2	-55.4	6.2	0.00e+00	0	40	104	0	77	19183
2026-01-19 10:37:56.85	21.31	10.18	-53.2	-55.3	6.2	0.00e+00	0	40	104	0	77	19035
2026-01-19 10:37:57.85	21.31	10.28	-53.3	-55.4	6.2	0.00e+00	0	40	104	0	77	19117
2026-01-19 10:37:58.86	21.31	10.39	-53.3	-55.4	6.2	0.00e+00	0	40	104	0	77	19089
2026-01-19 10:37:59.87	21.31	10.49	-53.2	-55.4	6.2	0.00e+00	0	40	104	0	77	19248
2026-01-19 10:38:00.88	21.30	10.60	-53.2	-55.4	6.2	0.00e+00	0	40	104	0	77	19089
2026-01-19 10:38:01.89	21.30	10.71	-53.3	-55.4	6.2	0.00e+00	0	40	104	0	77	19196
2026-01-19 10:38:02.89	21.30	10.81	-53.3	-55.4	6.2	0.00e+00	0	40	104	0	77	19189
2026-01-19 10:38:03.90	21.30	10.92	-53.3	-55.5	6.2	0.00e+00	0	40	104	0	77	19326
2026-01-19 10:38:04.91	21.29	11.03	-53.3	-55.4	6.2	0.00e+00	0	40	104	0	77	19171
2026-01-19 10:38:05.92	21.29	11.14	-53.3	-55.4	6.2	0.00e+00	0	40	104	0	77	19220
2026-01-19 10:38:06.92	21.29	11.25	-53.3	-55.4	6.2	0.00e+00	0	40	104	0	77	19199
2026-01-19 10:38:07.93	21.29	11.36	-53.3	-55.5	6.2	0.00e+00	0	40	104	0	77	19343
2026-01-19 10:38:08.94	21.28	11.47	-53.3	-55.4	6.2	0.00e+00	0	40	104	0	77	19189
2026-01-19 10:38:09.95	21.28	11.58	-53.3	-55.5	6.2	0.00e+00	0	40	104	0	77	19286
2026-01-19 10:38:10.96	21.28	11.70	-53.3	-55.5	6.2	0.00e+00	0	40	104	0	77	19313
2026-01-19 10:38:11.97	21.28	11.81	-53.3	-55.5	6.2	0.00e+00	0	40	104	0	77	19443
2026-01-19 10:38:12.98	21.27	11.92	-53.3	-55.5	6.2	0.00e+00	0	40	104	0	77	19272
2026-01-19 10:38:13.99	21.27	12.04	-53.4	-55.5	6.2	0.00e+00	0	40	104	0	77	19390
2026-01-19 10:38:14.99	21.27	12.15	-53.4	-55.5	6.2	0.00e+00	0	40	104	0	77	19385
2026-01-19 10:38:16.00	21.26	12.27	-53.3	-55.5	6.2	0.00e+00	0	40	104	0	77	19449
2026-01-19 10:38:17.01	21.26	12.38	-53.4	-55.5	6.2	0.00e+00	0	40	104	0	77	19390
2026-01-19 10:38:18.01	21.26	12.50	-53.4	-55.5	6.2	0.00e+00	0	40	104	0	77	19474
2026-01-19 10:38:19.02	21.25	12.62	-53.4	-55.5	6.2	0.00e+00	0	40	104	0	77	19438
2026-01-19 10:38:20.03	21.25	12.74	-53.3	-55.5	6.2	0.00e+00	0	40	104	0	77	19462
2026-01-19 10:38:21.04	21.25	12.86	-53.4	-55.5	6.2	0.00e+00	0	40	104	0	77	19461
2026-01-19 10:38:22.05	21.24	12.98	-53.4	-55.6	6.2	0.00e+00	0	40	104	0	77	19508
2026-01-19 10:38:23.05	21.24	13.10	-53.4	-55.6	6.2	0.00e+00	0	40	104	0	77	19484
2026-01-19 10:38:24.06	21.23	13.22	-53.3	-55.6	6.2	0.00e+00	0	40	104	0	77	19592
2026-01-19 10:38:25.07	21.23	13.34	-53.4	-55.6	6.2	0.00e+00	0	40	104	0	77	19504
2026-01-19 10:38:26.08	21.23	13.46	-53.4	-55.6	6.2	0.00e+00	0	40	104	0	77	19498
2026-01-19 10:38:27.08	21.22	13.59	-53.4	-55.5	6.2	0.00e+00	0	40	104	0	77	19472
2026-01-19 10:38:28.09	21.22	13.71	-53.4	-55.6	6.2	0.00e+00	0	40	104	0	77	19586
2026-01-19 10:38:29.10	21.21	13.84	-53.4	-55.6	6.2	0.00e+00	0	40	104	0	77	19512
2026-01-19 10:38:30.11	21.21	13.97	-53.4	-55.6	6.2	0.00e+00	0	40	104	0	77	19562
2026-01-19 10:38:31.12	21.20	14.09	-53.5	-55.6	6.2	0.00e+00	0	40	104	0	77	19614
2026-01-19 10:38:32.13	21.20	14.22	-53.4	-55.6	6.2	0.00e+00	0	40	104	0	77	19591
2026-01-19 10:38:33.14	21.20	14.35	-53.5	-55.6	6.2	0.00e+00	0	40	104	0	77	19550
2026-01-19 10:38:34.15	21.19	14.48	-53.5	-55.6	6.2	0.00e+00	0	40	104	0	77	19642
2026-01-19 10:38:35.15	21.19	14.61	-53.5	-55.6	6.2	0.00e+00	0	40	104	0	77	19668
2026-01-19 10:38:36.16	21.18	14.74	-53.4	-55.6	6.2	0.00e+00	0	40	104	0	77	19675
2026-01-19 10:38:37.17	21.18	14.88	-53.5	-55.6	6.2	0.00e+00	0	40	104	0	77	19629
2026-01-19 10:38:38.18	21.17	15.01	-53.5	-55.6	6.2	0.00e+00	0	40	104	0	77	19646
2026-01-19 10:38:39.18	21.17	15.14	-53.5	-55.6	6.2	0.00e+00	0	40	104	0	77	19681
2026-01-19 10:38:40.19	21.16	15.28	-53.4	-55.6	6.2	0.00e+00	0	40	104	0	77	19704
2026-01-19 10:38:41.20	21.15	15.42	-53.5	-55.7	6.2	0.00e+00	0	40	104	0	77	19709
2026-01-19 10:38:42.21	21.15	15.55	-53.5	-55.7	6.2	0.00e+00	0	40	104	0	77	19724
2026-01-19 10:38:43.22	21.14	15.69	-53.5	-55.7	6.2	0.00e+00	0	40	104	0	77	19809
2026-01-19 10:38:44.22	21.14	15.83	-53.4	-55.7	6.2	0.00e+00	0	40	104	0	77	19774
2026-01-19 10:38:45.23	21.13	15.97	-53.5	-55.7	6.2	0.00e+00	0	40	104	0	77	19749
2026-01-19 10:38:46.24	21.13	16.11	-53.5	-55.7	6.2	0.00e+00	0	40	104	0	77	19758
2026-01-19 10:38:47.25	21.12	16.26	-53.5	-55.7	6.2	0.00e+00	0	40	104	0	77	19733
2026-01-19 10:38:48.26	21.11	16.40	-53.5	-55.7	6.2	0.00e+00	0	40	104	0	77	19834
2026-01-19 10:38:49.27	21.11	16.54	-53.6	-55.7	6.2	0.00e+00	0	40	104	0	77	19769
2026-01-19 10:38:50.27	21.10	16.69	-53.5	-55.7	6.2	0.00e+00	0	40	104	0	77	19819
2026-01-19 10:38:51.28	21.10	16.84	-53.5	-55.7	6.2	0.00e+00	0	40	104	0	77	19767
2026-01-19 10:38:52.29	21.09	16.98	-53.5	-55.7	6.2	0.00e+00	0	40	104	0	77	19814
2026-01-19 10:38:53.30	21.08	17.13	-53.6	-55.7	6.2	0.00e+00	0	40	104	0	77	19834
2026-01-19 10:38:54.31	21.07	17.28	-53.6	-55.7	6.2	0.00e+00	0	40	104	0	77	19873
2026-01-19 10:38:55.31	21.07	17.43	-53.6	-55.7	6.2	0.00e+00	0	40	104	0	77	19862
2026-01-19 10:38:56.32	21.06	17.59	-53.5	-55.7	6.2	0.00e+00	0	40	104	0	77	19829
2026-01-19 10:38:57.33	21.05	17.74	-53.6	-55.7	6.2	0.00e+00	0	40	104	0	77	19844
2026-01-19 10:38:58.34	21.05	17.90	-53.6	-55.7	6.2	0.00e+00	0	40	104	0	77	19905
2026-01-19 10:38:59.35	21.04	18.05	-53.6	-55.7	6.2	0.00e+00	0	40	104	0	77	19902
2026-01-19 10:39:00.35	21.03	18.21	-53.6	-55.8	6.2	0.00e+00	0	40	104	0	77	19953
2026-01-19 10:39:01.36	21.02	18.37	-53.6	-55.7	6.2	0.00e+00	0	40	104	0	77	19913
2026-01-19 10:39:02.37	21.02	18.53	-53.6	-55.7	6.2	0.00e+00	0	40	104	0	77	19909
2026-01-19 10:39:03.38	21.01	18.69	-53.6	-55.8	6.2	0.00e+00	0	40	104	0	77	19966
2026-01-19 10:39:04.38	21.00	18.85	-53.6	-55.7	6.2	0.00e+00	0	40	104	0	77	19924
2026-01-19 10:39:05.39	20.99	19.02	-53.6	-55.8	6.2	0.00e+00	0	40	104	0	77	19961
2026-01-19 10:39:06.40	20.98	19.18	-53.6	-55.8	6.2	0.00e+00	0	40	104	0	77	19970
2026-01-19 10:39:07.41	20.97	19.35	-53.6	-55.8	6.2	0.00e+00	0	40	104	0	77	19989
2026-01-19 10:39:08.42	20.96	19.52	-53.6	-55.8	6.2	0.00e+00	0	40	104	0	77	20027
2026-01-19 10:39:09.42	20.96	19.68	-53.6	-55.8	6.2	0.00e+00	0	40	104	0	77	19955
2026-01-19 10:39:10.43	20.95	19.86	-53.6	-55.8	6.2	0.00e+00	0	40	104	0	77	19959
2026-01-19 10:39:11.44	20.94	20.03	-53.6	-55.8	6.2	0.00e+00	0	40	104	0	77	20064
2026-01-19 10:39:12.45	20.93	20.20	-53.6	-55.8	6.2	0.00e+00	0	40	104	0	77	20009
2026-01-19 10:39:13.45	20.92	20.38	-53.7	-55.8	6.2	0.00e+00	0	40	104	0	77	19994
2026-01-19 10:39:14.46	20.91	20.55	-53.6	-55.8	6.2	0.00e+00	0	40	104	0	77	20070
2026-01-19 10:39:15.47	20.90	20.73	-53.6	-55.8	6.2	0.00e+00	0	40	104	0	77	20020
2026-01-19 10:39:16.48	20.89	20.91	-53.6	-55.8	6.2	0.00e+00	0	40	104	0	77	20101
2026-01-19 10:39:17.49	20.88	21.10	-53.7	-55.8	6.2	0.00e+00	0	40	104	0	77	20105
2026-01-19 10:39:18.50	20.87	21.28	-53.6	-55.8	6.2	0.00e+00	0	40	104	0	77	20051
2026-01-19 10:39:19.51	20.86	21.46	-53.6	-55.8	6.2	0.00e+00	0	40	104	0	77	20124
2026-01-19 10:39:20.51	20.84	21.65	-53.6	-55.8	6.2	0.00e+00	0	40	104	0	77	20154
2026-01-19 10:39:21.52	20.83	21.84	-53.7	-55.8	6.2	0.00e+00	0	40	104	0	77	20115
2026-01-19 10:39:22.53	20.82	22.03	-53.6	-55.8	6.2	0.00e+00	0	40	104	0	77	20099
2026-01-19 10:39:23.54	20.81	22.22	-53.6	-55.8	6.2	0.00e+00	0	40	104	0	77	20133
2026-01-19 10:39:24.55	20.80	22.41	-53.7	-55.9	6.2	0.00e+00	0	40	104	0	77	20199
2026-01-19 10:39:25.56	20.79	22.61	-53.7	-55.9	6.2	0.00e+00	0	40	104	0	78	19151
2026-01-19 10:39:26.56	20.77	22.81	-53.7	-55.9	6.2	0.00e+00	0	40	104	0	78	19069
2026-01-19 10:39:27.57	20.76	23.00	-53.6	-55.9	6.2	0.00e+00	0	40	104	0	78	19099
2026-01-19 10:39:28.58	20.75	23.21	-53.7	-55.9	6.2	0.00e+00	0	40	104	0	78	19187
2026-01-19 10:39:29.59	20.74	23.41	-53.7	-55.9	6.2	0.00e+00	0	40	104	0	78	19107
2026-01-19 10:39:30.60	20.72	23.61	-53.7	-55.9	6.2	0.00e+00	0	40	104	0	78	19142
2026-01-19 10:39:31.60	20.71	23.82	-53.7	-55.9	6.2	0.00e+00	0	40	104	0	78	19091
2026-01-19 10:39:32.61	20.69	24.03	-53.8	-55.9	6.2	0.00e+00	0	40	104	0	78	19226
2026-01-19 10:39:33.62	20.68	24.24	-53.8	-55.9	6.2	0.00e+00	0	40	104	0	78	19176
2026-01-19 10:39:34.63	20.67	24.45	-53.7	-55.9	6.2	0.00e+00	0	40	104	0	78	19188
2026-01-19 10:39:35.64	20.65	24.67	-53.7	-55.9	6.2	0.00e+00	0	40	104	0	78	19156
2026-01-19 10:39:36.64	20.64	24.88	-53.8	-55.9	6.2	0.00e+00	0	40	104	0	78	19216
2026-01-19 10:39:37.65	20.62	25.10	-53.8	-55.9	6.2	0.00e+00	0	40	104	0	78	19231
2026-01-19 10:39:38.66	20.61	25.32	-53.8	-55.9	6.2	0.00e+00	0	40	104	0	78	19242
2026-01-19 10:39:39.67	20.59	25.55	-53.7	-55.9	6.2	0.00e+00	0	40	104	0	78	19208
2026-01-19 10:39:40.68	20.57	25.77	-53.8	-56.0	6.2	0.00e+00	0	40	104	0	78	19292
2026-01-19 10:39:41.69	20.56	26.00	-53.8	-56.0	6.2	0.00e+00	0	40	104	0	78	19329
2026-01-19 10:39:42.69	20.54	26.23	-53.8	-55.9	6.2	0.00e+00	0	40	104	0	78	19212
2026-01-19 10:39:43.70	20.52	26.46	-53.7	-56.0	6.2	0.00e+00	0	40	104	0	78	19277
2026-01-19 10:39:44.71	20.51	26.70	-53.8	-56.0	6.2	0.00e+00	0	40	104	0	78	19306
2026-01-19 10:39:45.72	20.49	26.94	-53.8	-56.0	6.2	0.00e+00	0	40	104	0	78	19374
2026-01-19 10:39:46.72	20.47	27.18	-53.8	-56.0	6.2	0.00e+00	0	40	104	0	78	19353
2026-01-19 10:39:47.73	20.45	27.42	-53.7	-56.0	6.2	0.00e+00	0	40	104	0	78	19295
2026-01-19 10:39:48.74	20.43	27.67	-53.9	-56.0	6.2	0.00e+00	0	40	104	0	78	19377
2026-01-19 10:39:49.75	20.41	27.91	-53.9	-56.0	6.2	0.00e+00	0	40	104	0	78	19381
2026-01-19 10:39:50.76	20.39	28.17	-53.8	-56.0	6.2	0.00e+00	0	40	104	0	78	19430
2026-01-19 10:39:51.77	20.37	28.42	-53.6	-56.0	6.2	0.00e+00	0	40	104	0	78	19314
2026-01-19 10:39:52.77	20.35	28.67	-53.9	-56.0	6.2	0.00e+00	0	40	104	0	78	19471
2026-01-19 10:39:53.78	20.33	28.93	-53.9	-56.0	6.2	0.00e+00	0	40	104	0	78	19428
2026-01-19 10:39:54.78	20.31	29.19	-53.9	-56.0	6.2	0.00e+00	0	40	104	0	78	19390
2026-01-19 10:39:55.79	20.29	29.46	-53.6	-56.0	6.2	0.00e+00	0	40	104	0	78	19321
2026-01-19 10:39:56.80	20.27	29.73	-53.9	-56.1	6.2	0.00e+00	0	40	104	0	78	19507
2026-01-19 10:39:57.81	20.24	30.00	-53.9	-56.0	6.2	0.00e+00	0	40	104	0	78	19465
2026-01-19 10:39:58.82	20.22	30.27	-53.9	-56.1	6.2	0.00e+00	0	40	104	0	78	19539
2026-01-19 10:39:59.82	20.20	30.55	-53.6	-56.0	6.2	0.00e+00	0	40	104	0	78	19348
2026-01-19 10:40:00.83	20.17	30.83	-53.9	-56.1	6.2	0.00e+00	0	40	104	0	78	19508
2026-01-19 10:40:01.84	20.15	31.11	-53.9	-56.1	6.2	0.00e+00	0	40	104	0	78	19519
2026-01-19 10:40:02.85	20.12	31.40	-53.9	-56.0	6.2	0.00e+00	0	40	104	0	78	19465
2026-01-19 10:40:03.86	20.10	31.69	-53.6	-56.0	6.2	0.00e+00	0	40	104	0	78	19321
2026-01-19 10:40:04.87	20.07	31.98	-53.9	-56.1	6.2	0.00e+00	0	40	104	0	78	19583
2026-01-19 10:40:05.87	20.04	32.27	-53.9	-56.1	6.2	0.00e+00	0	40	104	0	78	19570
2026-01-19 10:40:06.88	20.01	32.57	-53.9	-56.1	6.2	0.00e+00	0	40	104	0	78	19556
2026-01-19 10:40:07.89	19.99	32.88	-53.6	-56.0	6.2	0.00e+00	0	40	104	0	78	19387
2026-01-19 10:40:08.90	19.96	33.18	-54.0	-56.1	6.2	0.00e+00	0	40	104	0	78	19578
2026-01-19 10:40:09.90	19.93	33.49	-54.0	-56.1	6.2	0.00e+00	0	40	104	0	78	19648
2026-01-19 10:40:10.91	19.90	33.81	-53.9	-56.1	6.2	0.00e+00	0	40	104	0	78	19614
2026-01-19 10:40:11.92	19.87	34.12	-53.6	-56.0	6.2	0.00e+00	0	40	104	0	78	19400
2026-01-19 10:40:12.92	19.83	34.44	-54.0	-56.1	6.2	0.00e+00	0	40	104	0	78	19686
2026-01-19 10:40:13.93	19.80	34.77	-54.0	-56.1	6.2	0.00e+00	0	40	104	0	78	19650
2026-01-19 10:40:14.94	19.77	35.10	-54.0	-56.1	6.2	0.00e+00	0	40	104	0	78	19685
2026-01-19 10:40:15.95	19.73	35.43	-53.7	-56.0	6.2	0.00e+00	0	40	104	0	78	19453
2026-01-19 10:40:16.96	19.70	35.77	-54.0	-56.2	6.2	0.00e+00	0	40	104	0	78	19723
2026-01-19 10:40:17.97	19.66	36.11	-54.0	-56.2	6.2	0.00e+00	0	40	104	0	78	19742
2026-01-19 10:40:18.97	19.63	36.45	-54.0	-56.2	6.2	0.00e+00	0	40	104	0	78	19755
2026-01-19 10:40:19.98	19.59	36.80	-53.8	-56.1	6.2	0.00e+00	0	40	104	0	78	19587
2026-01-19 10:40:20.99	19.55	37.16	-54.0	-56.2	6.2	0.00e+00	0	40	104	0	78	19773
2026-01-19 10:40:22.00	19.51	37.52	-54.0	-56.2	6.2	0.00e+00	0	40	104	0	78	19772
2026-01-19 10:40:23.01	19.47	37.88	-54.0	-56.2	6.2	0.00e+00	0	40	104	0	78	19804
2026-01-19 10:40:24.02	19.43	38.25	-53.8	-56.1	6.2	0.00e+00	0	40	104	0	78	19607
2026-01-19 10:40:25.02	19.38	38.62	-54.1	-56.2	6.2	0.00e+00	0	40	104	0	78	19804
2026-01-19 10:40:26.03	19.34	39.00	-54.1	-56.2	6.2	0.00e+00	0	40	104	0	78	19846
2026-01-19 10:40:27.04	19.29	39.38	-54.1	-56.2	6.2	0.00e+00	0	40	104	0	78	19899
2026-01-19 10:40:28.05	19.25	39.76	-53.9	-56.2	6.2	0.00e+00	0	40	104	0	78	19846
2026-01-19 10:40:29.06	19.20	40.16	-54.1	-56.3	6.2	0.00e+00	0	40	104	0	78	19954
2026-01-19 10:40:30.07	19.15	40.55	-54.1	-56.3	6.2	0.00e+00	0	40	104	0	78	19989
2026-01-19 10:40:31.07	19.10	40.95	-54.1	-56.3	6.2	0.00e+00	0	41	104	0	78	20015
2026-01-19 10:40:32.08	19.05	41.36	-53.8	-56.2	6.2	0.00e+00	0	40	104	0	78	19829
2026-01-19 10:40:33.09	19.00	41.77	-54.1	-56.3	6.2	0.00e+00	0	40	104	0	78	19980
2026-01-19 10:40:34.10	18.94	42.18	-54.2	-56.3	6.2	0.00e+00	0	40	104	0	78	20059
2026-01-19 10:40:35.10	18.88	42.60	-54.1	-56.3	6.2	0.00e+00	0	40	104	0	78	20059
2026-01-19 10:40:36.11	18.83	43.03	-53.8	-56.2	6.2	0.00e+00	0	40	104	0	78	19801
2026-01-19 10:40:37.12	18.77	43.46	-54.2	-56.3	6.2	0.00e+00	0	40	104	0	78	20034
2026-01-19 10:40:38.13	18.70	43.90	-54.2	-56.3	6.2	0.00e+00	0	40	104	0	78	20065
2026-01-19 10:40:39.13	18.64	44.34	-54.1	-56.3	6.2	0.00e+00	0	40	104	0	78	20063
2026-01-19 10:40:40.14	18.57	44.79	-53.7	-56.2	6.2	0.00e+00	0	40	104	0	78	19861
2026-01-19 10:40:41.15	18.51	45.24	-54.2	-56.3	6.2	0.00e+00	0	41	104	0	78	20078
2026-01-19 10:40:42.16	18.44	45.71	-54.2	-56.4	6.2	0.00e+00	0	40	104	0	78	20206
2026-01-19 10:40:43.17	18.36	46.17	-54.1	-56.3	6.2	0.00e+00	0	41	104	0	78	20147
2026-01-19 10:40:44.17	18.29	46.64	-53.8	-56.2	6.2	0.00e+00	0	40	104	0	78	19848
2026-01-19 10:40:45.18	18.21	47.12	-54.2	-56.4	6.2	0.00e+00	0	41	104	0	78	20200
2026-01-19 10:40:46.19	18.13	47.60	-54.2	-56.3	6.2	0.00e+00	0	41	104	0	78	20111
2026-01-19 10:40:47.20	18.05	48.09	-54.2	-56.4	6.2	0.00e+00	0	40	104	0	78	20196
2026-01-19 10:40:48.21	17.97	48.59	-53.8	-56.2	6.2	0.00e+00	0	41	104	0	78	19898
2026-01-19 10:40:49.21	17.88	49.09	-54.2	-56.4	6.2	0.00e+00	0	41	104	0	79	19142
2026-01-19 10:40:50.22	17.79	49.60	-54.2	-56.4	6.2	0.00e+00	0	40	104	0	79	19129
2026-01-19 10:40:51.23	17.69	50.11	-54.2	-56.4	6.2	0.00e+00	0	40	104	0	79	19187
2026-01-19 10:40:52.24	17.59	50.64	-54.0	-56.3	6.2	0.00e+00	0	40	104	0	79	18966
2026-01-19 10:40:53.24	17.49	51.16	-54.3	-56.4	6.2	0.00e+00	0	40	104	0	79	19124
2026-01-19 10:40:54.25	17.39	51.70	-54.2	-56.4	6.2	0.00e+00	0	40	104	0	79	19150
2026-01-19 10:40:55.26	17.28	52.24	-54.2	-56.4	6.2	0.00e+00	0	41	104	0	79	19234
2026-01-19 10:40:56.26	17.16	52.78	-54.0	-56.3	6.2	0.00e+00	0	41	104	0	79	18982
2026-01-19 10:40:57.27	17.04	53.33	-54.3	-56.4	6.2	0.00e+00	0	40	104	0	79	19130
2026-01-19 10:40:58.28	16.92	53.90	-54.2	-56.5	6.2	0.00e+00	0	41	104	0	79	19260
2026-01-19 10:40:59.29	16.79	54.46	-54.2	-56.4	6.2	0.00e+00	0	41	104	0	79	19193
2026-01-19 10:41:00.30	16.66	55.04	-54.0	-56.3	6.2	0.00e+00	0	41	104	0	79	18972
2026-01-19 10:41:01.31	16.51	55.62	-54.3	-56.4	6.2	0.00e+00	0	40	104	0	79	19218
2026-01-19 10:41:02.31	16.37	56.20	-54.3	-56.5	6.2	0.00e+00	0	41	104	0	79	19304
2026-01-19 10:41:03.32	16.22	56.80	-54.2	-56.4	6.2	0.00e+00	0	40	104	0	79	19249
2026-01-19 10:41:04.33	16.05	57.40	-53.9	-56.3	6.2	0.00e+00	0	41	104	0	79	18973
2026-01-19 10:41:05.33	15.89	58.00	-54.3	-56.4	6.2	0.00e+00	0	41	104	0	79	19252
2026-01-19 10:41:06.34	15.71	58.62	-54.3	-56.4	6.2	0.00e+00	0	41	104	0	79	19215
2026-01-19 10:41:07.35	15.53	59.24	-54.2	-56.4	6.2	0.00e+00	0	41	104	0	79	19244
2026-01-19 10:41:08.36	15.33	59.87	-54.1	-56.4	6.2	0.00e+00	0	41	104	0	79	19137
2026-01-19 10:41:09.36	15.13	60.49	-54.3	-56.4	6.2	0.00e+00	0	40	104	0	79	19250
2026-01-19 10:41:10.37	14.91	61.14	-54.3	-56.5	6.2	0.00e+00	0	40	104	0	79	19294
2026-01-19 10:41:11.38	14.69	61.78	-54.2	-56.5	6.2	0.00e+00	0	41	104	0	79	19343
2026-01-19 10:41:12.39	14.45	62.44	-54.1	-56.4	6.2	0.00e+00	0	40	104	0	79	19124
2026-01-19 10:41:13.40	14.19	63.10	-54.3	-56.5	6.2	0.00e+00	0	41	104	0	79	19274
2026-01-19 10:41:14.41	13.93	63.77	-54.3	-56.5	6.2	0.00e+00	0	41	104	0	79	19368
2026-01-19 10:41:15.42	13.64	64.44	-54.2	-56.5	6.2	0.00e+00	0	41	104	0	79	19334
2026-01-19 10:41:16.42	13.34	65.11	-54.2	-56.5	6.2	0.00e+00	0	41	104	0	79	19290
2026-01-19 10:41:17.43	13.02	65.80	-54.3	-56.5	6.2	0.00e+00	0	41	104	0	79	19267
2026-01-19 10:41:18.44	12.68	66.49	-54.3	-56.5	6.2	0.00e+00	0	41	104	0	79	19364
2026-01-19 10:41:19.45	12.31	67.18	-54.2	-56.5	6.2	0.00e+00	0	41	104	0	79	19357
2026-01-19 10:41:20.46	11.92	67.88	-54.3	-56.5	6.2	0.00e+00	0	41	104	0	79	19422
2026-01-19 10:41:21.47	11.50	68.59	-54.4	-56.5	6.2	0.00e+00	0	40	104	0	79	19418
2026-01-19 10:41:22.48	11.05	69.30	-54.3	-56.5	6.2	0.00e+00	0	41	104	0	79	19379
2026-01-19 10:41:23.49	10.56	70.02	-54.2	-56.5	6.2	0.00e+00	0	41	104	0	79	19310
2026-01-19 10:41:24.50	10.03	70.74	-54.3	-56.5	6.2	0.00e+00	0	40	104	0	79	19380
2026-01-19 10:41:25.51	9.46	71.46	-54.4	-56.6	6.2	0.00e+00	0	40	104	0	79	19513
2026-01-19 10:41:26.51	8.85	72.18	-54.3	-56.5	6.2	0.00e+00	0	41	104	0	79	19425
2026-01-19 10:41:27.52	8.17	72.91	-54.3	-56.5	6.2	0.00e+00	0	41	104	0	79	19454
2026-01-19 10:41:28.53	7.43	73.65	-54.3	-56.5	6.2	0.00e+00	0	40	104	0	79	19398
2026-01-19 10:41:29.54	6.61	74.38	-54.4	-56.5	6.2	0.00e+00	0	40	104	0	79	19457
2026-01-19 10:41:30.55	5.71	75.12	-54.3	-56.6	6.2	0.00e+00	0	41	104	0	79	19493
2026-01-19 10:41:31.55	4.72	75.85	-54.2	-56.5	6.2	0.00e+00	0	41	104	0	79	19404
2026-01-19 10:41:32.56	3.61	76.59	-54.4	-56.5	6.2	0.00e+00	0	41	104	0	79	19472
2026-01-19 10:41:33.56	2.37	77.31	-54.4	-56.6	6.2	0.00e+00	0	41	104	0	79	19535
2026-01-19 10:41:34.57	0.97	78.05	-54.3	-56.6	6.2	0.00e+00	0	41	104	0	79	19512
2026-01-19 10:41:35.58	359.38	78.77	-54.3	-56.6	6.2	0.00e+00	0	41	104	0	79	19518
2026-01-19 10:41:36.59	357.56	79.50	-54.4	-56.6	6.2	0.00e+00	0	41	104	0	79	19489
2026-01-19 10:41:37.60	355.47	80.21	-54.4	-56.6	6.2	0.00e+00	0	40	104	0	79	19537
2026-01-19 10:41:38.60	353.07	80.90	-54.4	-56.6	6.2	0.00e+00	0	41	104	0	79	19504
2026-01-19 10:41:39.61	350.25	81.59	-54.4	-56.6	6.2	0.00e+00	0	41	104	0	79	19531
2026-01-19 10:41:40.62	346.93	82.25	-54.4	-56.6	6.2	0.00e+00	0	41	104	0	79	19497
2026-01-19 10:41:41.63	342.99	82.88	-54.5	-56.6	6.2	0.00e+00	0	41	104	0	79	19559
2026-01-19 10:41:42.63	338.35	83.47	-54.4	-56.6	6.2	0.00e+00	0	41	104	0	79	19553
2026-01-19 10:41:43.64	332.77	84.02	-54.4	-56.6	6.2	0.00e+00	0	41	104	0	79	19568
2026-01-19 10:41:44.65	326.14	84.49	-54.4	-56.6	6.2	0.00e+00	0	41	104	0	79	19505
2026-01-19 10:41:45.65	318.44	84.88	-54.4	-56.6	6.2	0.00e+00	0	41	104	0	79	19566
2026-01-19 10:41:46.66	309.57	85.17	-54.4	-56.6	6.2	0.00e+00	0	41	104	0	79	19539
2026-01-19 10:41:47.67	299.85	85.33	-54.4	-56.6	6.2	0.00e+00	0	41	104	0	79	19593
2026-01-19 10:41:48.68	289.76	85.34	-54.4	-56.6	6.2	0.00e+00	0	41	104	0	79	19557
2026-01-19 10:41:49.68	279.99	85.22	-54.4	-56.6	6.2	0.00e+00	0	41	104	0	79	19607
2026-01-19 10:41:50.69	270.88	84.96	-54.4	-56.6	6.2	0.00e+00	0	41	104	0	79	19678
2026-01-19 10:41:51.70	262.83	84.59	-54.2	-56.5	6.2	0.00e+00	0	41	104	0	79	19467
2026-01-19 10:41:52.71	255.94	84.13	-54.4	-56.6	6.2	0.00e+00	0	41	104	0	79	19593
2026-01-19 10:41:53.72	250.12	83.60	-54.4	-56.6	6.2	0.00e+00	0	41	104	0	79	19583
2026-01-19 10:41:54.73	245.24	83.02	-54.4	-56.6	6.2	0.00e+00	0	41	104	0	79	19628
2026-01-19 10:41:55.73	241.19	82.40	-54.2	-56.5	6.2	0.00e+00	0	40	104	0	79	19417
2026-01-19 10:41:56.74	237.73	81.74	-54.4	-56.6	6.2	0.00e+00	0	41	104	0	79	19583
2026-01-19 10:41:57.74	234.83	81.07	-54.4	-56.6	6.2	0.00e+00	0	41	104	0	79	19655
2026-01-19 10:41:58.75	232.32	80.37	-54.4	-56.6	6.2	0.00e+00	0	41	104	0	79	19618
2026-01-19 10:41:59.76	230.15	79.66	-54.3	-56.6	6.2	0.00e+00	0	41	104	0	79	19512
2026-01-19 10:42:00.77	228.28	78.94	-54.4	-56.6	6.2	0.00e+00	0	41	104	0	79	19539
2026-01-19 10:42:01.78	226.64	78.21	-54.4	-56.6	6.2	0.00e+00	0	41	104	0	79	19668
2026-01-19 10:42:02.78	225.20	77.49	-54.4	-56.6	6.2	0.00e+00	0	41	104	0	79	19642
2026-01-19 10:42:03.79	223.92	76.75	-54.3	-56.5	6.2	0.00e+00	0	41	104	0	79	19468
2026-01-19 10:42:04.80	222.78	76.01	-54.4	-56.6	6.2	0.00e+00	0	41	104	0	79	19556
2026-01-19 10:42:05.81	221.76	75.27	-54.5	-56.6	6.2	0.00e+00	0	41	104	0	79	19579
2026-01-19 10:42:06.81	220.84	74.54	-54.4	-56.6	6.2	0.00e+00	0	41	104	0	79	19614
2026-01-19 10:42:07.82	220.01	73.81	-54.3	-56.6	6.2	0.00e+00	0	41	104	0	79	19526
2026-01-19 10:42:08.83	219.25	73.07	-54.4	-56.6	6.2	0.00e+00	0	41	104	0	79	19538
2026-01-19 10:42:09.84	218.56	72.34	-54.5	-56.6	6.2	0.00e+00	0	40	104	0	79	19589
2026-01-19 10:42:10.85	217.92	71.61	-54.4	-56.6	6.2	0.00e+00	0	41	104	0	79	19541
2026-01-19 10:42:11.86	217.34	70.88	-54.1	-56.5	6.2	0.00e+00	0	41	104	0	79	19330
2026-01-19 10:42:12.86	216.81	70.17	-54.4	-56.5	6.2	0.00e+00	0	41	104	0	79	19448
2026-01-19 10:42:13.87	216.31	69.45	-54.4	-56.6	6.2	0.00e+00	0	41	104	0	79	19526
2026-01-19 10:42:14.88	215.85	68.74	-54.3	-56.6	6.2	0.00e+00	0	40	104	0	79	19527
2026-01-19 10:42:15.89	215.43	68.03	-54.0	-56.4	6.2	0.00e+00	0	41	104	0	79	19232
2026-01-19 10:42:16.90	215.03	67.32	-54.4	-56.6	6.2	0.00e+00	0	41	104	0	79	19501
2026-01-19 10:42:17.91	214.66	66.62	-54.4	-56.5	6.2	0.00e+00	0	41	104	0	79	19461
2026-01-19 10:42:18.91	214.31	65.94	-54.3	-56.5	6.2	0.00e+00	0	41	104	0	79	19466
2026-01-19 10:42:19.92	213.98	65.25	-54.0	-56.4	6.2	0.00e+00	0	41	104	0	79	19255
2026-01-19 10:42:20.93	213.68	64.57	-54.4	-56.5	6.2	0.00e+00	0	41	104	0	79	19427
2026-01-19 10:42:21.93	213.39	63.90	-54.4	-56.5	6.2	0.00e+00	0	41	104	0	79	19438
2026-01-19 10:42:22.94	213.12	63.23	-54.3	-56.5	6.2	0.00e+00	0	41	104	0	79	19447
2026-01-19 10:42:23.95	212.86	62.56	-54.1	-56.4	6.2	0.00e+00	0	41	104	0	79	19202
2026-01-19 10:42:24.96	212.62	61.91	-54.3	-56.5	6.2	0.00e+00	0	41	104	0	79	19429
2026-01-19 10:42:25.97	212.39	61.25	-54.4	-56.5	6.2	0.00e+00	0	40	104	0	79	19395
2026-01-19 10:42:26.97	212.17	60.62	-54.3	-56.5	6.2	0.00e+00	0	41	104	0	79	19467
2026-01-19 10:42:27.98	211.97	59.98	-54.0	-56.4	6.2	0.00e+00	0	41	104	0	79	19121
2026-01-19 10:42:28.99	211.77	59.35	-54.3	-56.5	6.2	0.00e+00	0	41	104	0	79	19403
2026-01-19 10:42:30.00	211.58	58.72	-54.3	-56.5	6.2	0.00e+00	0	41	104	0	79	19407
2026-01-19 10:42:31.00	211.41	58.11	-54.3	-56.5	6.2	0.00e+00	0	41	104	0	79	19394
2026-01-19 10:42:32.01	211.23	57.50	-54.0	-56.3	6.2	0.00e+00	0	41	104	0	79	19020
2026-01-19 10:42:33.02	211.07	56.89	-54.3	-56.5	6.2	0.00e+00	0	41	104	0	79	19293
2026-01-19 10:42:34.03	210.92	56.29	-54.3	-56.5	6.2	0.00e+00	0	41	104	0	79	19308
2026-01-19 10:42:35.03	210.77	55.71	-54.2	-56.5	6.2	0.00e+00	0	41	104	0	79	19301
2026-01-19 10:42:36.04	210.63	55.12	-54.0	-56.4	6.2	0.00e+00	0	41	104	0	79	19081
2026-01-19 10:42:37.05	210.49	54.55	-54.3	-56.4	6.2	0.00e+00	0	41	104	0	79	19236
2026-01-19 10:42:38.06	210.36	53.97	-54.3	-56.5	6.2	0.00e+00	0	41	104	0	79	19258
2026-01-19 10:42:39.07	210.24	53.41	-54.2	-56.4	6.2	0.00e+00	0	40	104	0	79	19209
2026-01-19 10:42:40.08	210.11	52.85	-53.9	-56.3	6.2	0.00e+00	0	41	104	0	79	18912
2026-01-19 10:42:41.08	210.00	52.31	-54.3	-56.4	6.2	0.00e+00	0	41	104	0	79	19198
2026-01-19 10:42:42.09	209.89	51.76	-54.2	-56.4	6.2	0.00e+00	0	41	104	0	79	19215
2026-01-19 10:42:43.10	209.78	51.22	-54.2	-56.4	6.2	0.00e+00	0	41	104	0	79	19109
2026-01-19 10:42:44.11	209.68	50.69	-53.8	-56.3	6.2	0.00e+00	0	41	104	0	79	18851
2026-01-19 10:42:45.11	209.58	50.17	-54.2	-56.4	6.2	0.00e+00	0	41	104	0	79	19180
2026-01-19 10:42:46.12	209.48	49.65	-54.2	-56.4	6.2	0.00e+00	0	41	104	0	79	19103
2026-01-19 10:42:47.13	209.39	49.14	-54.2	-56.4	6.2	0.00e+00	0	41	104	0	79	19169
2026-01-19 10:42:48.14	209.30	48.63	-53.9	-56.3	6.2	0.00e+00	0	41	104	0	79	18834
2026-01-19 10:42:49.15	209.22	48.13	-54.2	-56.4	6.2	0.00e+00	0	41	104	0	79	19118
2026-01-19 10:42:50.16	209.13	47.64	-54.2	-56.4	6.2	0.00e+00	0	41	104	0	79	19051
2026-01-19 10:42:51.16	209.05	47.16	-54.1	-56.4	6.2	0.00e+00	0	41	104	0	79	19100
2026-01-19 10:42:52.17	208.97	46.68	-53.8	-56.2	6.2	0.00e+00	0	41	104	0	79	18770
2026-01-19 10:42:53.18	208.90	46.20	-54.2	-56.4	6.2	0.00e+00	0	41	104	0	79	19074
2026-01-19 10:42:54.19	208.83	45.73	-54.1	-56.3	6.2	0.00e+00	0	41	104	0	79	19031
2026-01-19 10:42:55.20	208.76	45.27	-54.1	-56.3	6.2	0.00e+00	0	41	104	0	79	18936
2026-01-19 10:42:56.20	208.69	44.81	-53.8	-56.2	6.2	0.00e+00	0	41	104	0	79	18633
2026-01-19 10:42:57.21	208.62	44.36	-54.2	-56.3	6.2	0.00e+00	0	41	104	0	79	19024
2026-01-19 10:42:58.21	208.56	43.92	-54.1	-56.3	6.2	0.00e+00	0	41	104	0	79	18978
2026-01-19 10:42:59.22	208.50	43.48	-54.1	-56.3	6.2	0.00e+00	0	40	104	0	79	18966
2026-01-19 10:43:00.22	208.44	43.05	-53.8	-56.2	6.2	0.00e+00	0	41	104	0	79	18756
2026-01-19 10:43:01.23	208.38	42.62	-54.2	-56.3	6.2	0.00e+00	0	41	104	0	79	19022
2026-01-19 10:43:02.24	208.32	42.19	-54.1	-56.3	6.2	0.00e+00	0	41	104	0	79	18958
2026-01-19 10:43:03.25	208.26	41.77	-54.0	-56.3	6.2	0.00e+00	0	41	104	0	79	18881
2026-01-19 10:43:04.25	208.21	41.36	-53.7	-56.1	6.2	0.00e+00	0	41	104	0	79	18590
2026-01-19 10:43:05.26	208.16	40.95	-54.1	-56.3	6.2	0.00e+00	0	41	104	0	79	18924
2026-01-19 10:43:06.27	208.11	40.55	-54.0	-56.2	6.2	0.00e+00	0	41	104	0	79	18795
2026-01-19 10:43:07.27	208.06	40.15	-54.0	-56.3	6.2	0.00e+00	0	40	104	0	79	18826
2026-01-19 10:43:08.28	208.01	39.76	-53.7	-56.2	6.2	0.00e+00	0	41	104	0	79	18610
2026-01-19 10:43:09.29	207.96	39.37	-54.1	-56.3	6.2	0.00e+00	0	41	104	0	79	18925
2026-01-19 10:43:10.30	207.92	38.99	-54.0	-56.2	6.2	0.00e+00	0	41	104	0	79	18749
2026-01-19 10:43:11.31	207.87	38.61	-54.0	-56.2	6.2	0.00e+00	0	40	104	0	79	18756
2026-01-19 10:43:12.31	207.83	38.24	-53.7	-56.1	6.2	0.00e+00	0	41	104	0	79	18538
2026-01-19 10:43:13.32	207.79	37.87	-54.1	-56.3	6.2	0.00e+00	0	41	104	0	79	18857
2026-01-19 10:43:14.33	207.74	37.50	-54.0	-56.2	6.2	0.00e+00	0	40	104	0	79	18758
2026-01-19 10:43:15.33	207.70	37.14	-54.0	-56.2	6.2	0.00e+00	0	41	104	0	79	18802
2026-01-19 10:43:16.34	207.67	36.79	-53.7	-56.1	6.2	0.00e+00	0	40	104	0	79	18558
2026-01-19 10:43:17.35	207.63	36.43	-54.1	-56.3	6.2	0.00e+00	0	41	104	0	79	18824
2026-01-19 10:43:18.36	207.59	36.09	-53.9	-56.2	6.2	0.00e+00	0	41	104	0	79	18665
2026-01-19 10:43:19.37	207.55	35.74	-53.9	-56.2	6.2	0.00e+00	0	41	104	0	79	18704
2026-01-19 10:43:20.37	207.52	35.41	-53.8	-56.1	6.2	0.00e+00	0	41	104	0	79	18553
2026-01-19 10:43:21.38	207.48	35.07	-54.1	-56.2	6.2	0.00e+00	0	41	104	0	79	18747
2026-01-19 10:43:22.39	207.45	34.74	-53.9	-56.2	6.2	0.00e+00	0	41	104	0	79	18631
2026-01-19 10:43:23.40	207.42	34.41	-53.9	-56.2	6.2	0.00e+00	0	41	104	0	79	18675
2026-01-19 10:43:24.41	207.38	34.09	-53.8	-56.1	6.2	0.00e+00	0	41	104	0	79	18545
2026-01-19 10:43:25.42	207.35	33.77	-54.0	-56.2	6.2	0.00e+00	0	41	104	0	79	18719
2026-01-19 10:43:26.43	207.32	33.45	-53.9	-56.1	6.2	0.00e+00	0	41	104	0	79	18581
2026-01-19 10:43:27.44	207.29	33.14	-53.9	-56.2	6.2	0.00e+00	0	41	104	0	79	18657
2026-01-19 10:43:28.45	207.26	32.83	-53.8	-56.1	6.2	0.00e+00	0	41	104	0	79	18508
2026-01-19 10:43:29.45	207.23	32.53	-54.0	-56.2	6.2	0.00e+00	0	41	104	0	79	18639
2026-01-19 10:43:30.46	207.21	32.22	-53.8	-56.1	6.2	0.00e+00	0	41	104	0	79	18515
2026-01-19 10:43:31.47	207.18	31.93	-53.8	-56.1	6.2	0.00e+00	0	40	104	0	79	18521
2026-01-19 10:43:32.47	207.15	31.63	-53.8	-56.1	6.2	0.00e+00	0	40	104	0	79	18488
2026-01-19 10:43:33.48	207.12	31.34	-54.0	-56.2	6.2	0.00e+00	0	41	104	0	79	18619
2026-01-19 10:43:34.49	207.10	31.05	-53.8	-56.1	6.2	0.00e+00	0	41	104	0	79	18394
2026-01-19 10:43:35.50	207.07	30.77	-53.8	-56.1	6.2	0.00e+00	0	41	104	0	79	18443
2026-01-19 10:43:36.51	207.05	30.49	-53.8	-56.1	6.2	0.00e+00	0	41	104	0	79	18455
2026-01-19 10:43:37.51	207.02	30.21	-54.0	-56.1	6.2	0.00e+00	0	41	104	0	79	18524
2026-01-19 10:43:38.52	207.00	29.94	-53.8	-56.1	6.2	0.00e+00	0	41	104	0	79	18423
2026-01-19 10:43:39.53	206.98	29.66	-53.8	-56.1	6.2	0.00e+00	0	41	104	0	79	18437
2026-01-19 10:43:40.54	206.96	29.39	-53.8	-56.1	6.2	0.00e+00	0	41	104	0	79	18410
2026-01-19 10:43:41.55	206.93	29.13	-53.9	-56.1	6.2	0.00e+00	0	41	104	0	79	18523
2026-01-19 10:43:42.55	206.91	28.87	-53.8	-56.1	6.2	0.00e+00	0	41	104	0	79	18416
2026-01-19 10:43:43.56	206.89	28.61	-53.8	-56.1	6.2	0.00e+00	0	41	104	0	79	18406
2026-01-19 10:43:44.57	206.87	28.35	-53.9	-56.1	6.2	0.00e+00	0	41	104	0	79	18491
2026-01-19 10:43:45.58	206.85	28.09	-53.9	-56.1	6.2	0.00e+00	0	41	104	0	79	18481
2026-01-19 10:43:46.59	206.83	27.84	-53.8	-56.0	6.2	0.00e+00	0	41	104	0	79	18385
2026-01-19 10:43:47.59	206.81	27.59	-53.8	-56.1	6.2	0.00e+00	0	41	104	0	79	18425
2026-01-19 10:43:48.60	206.79	27.35	-53.8	-56.1	6.2	0.00e+00	0	40	104	0	79	18452
2026-01-19 10:43:49.61	206.77	27.10	-53.9	-56.1	6.2	0.00e+00	0	41	104	0	79	18441
2026-01-19 10:43:50.61	206.75	26.86	-53.8	-56.0	6.2	0.00e+00	0	41	104	0	79	18286
2026-01-19 10:43:51.62	206.73	26.62	-53.8	-56.0	6.2	0.00e+00	0	41	104	0	79	18316
2026-01-19 10:43:52.63	206.72	26.38	-53.8	-56.0	6.2	0.00e+00	0	41	104	0	79	18331
2026-01-19 10:43:53.63	206.70	26.15	-53.9	-56.0	6.2	0.00e+00	0	41	104	0	79	18351
2026-01-19 10:43:54.64	206.68	25.92	-53.7	-56.0	6.2	0.00e+00	0	41	104	0	79	18256
2026-01-19 10:43:55.65	206.66	25.69	-53.7	-56.0	6.2	0.00e+00	0	40	104	0	79	18255
2026-01-19 10:43:56.66	206.65	25.46	-53.8	-56.0	6.2	0.00e+00	0	41	104	0	79	18336
2026-01-19 10:43:57.67	206.63	25.24	-53.8	-56.0	6.2	0.00e+00	0	41	104	0	79	18295
2026-01-19 10:43:58.68	206.62	25.02	-53.7	-56.0	6.2	0.00e+00	0	41	104	0	79	18278
2026-01-19 10:43:59.69	206.60	24.79	-53.7	-56.0	6.2	0.00e+00	0	40	104	0	79	18266
2026-01-19 10:44:00.70	206.59	24.58	-53.8	-56.0	6.2	0.00e+00	0	41	104	0	79	18276
2026-01-19 10:44:01.70	206.57	24.36	-53.8	-56.0	6.2	0.00e+00	0	41	104	0	79	18287
2026-01-19 10:44:02.71	206.56	24.15	-53.8	-56.0	6.2	0.00e+00	0	40	104	0	79	18269
2026-01-19 10:44:03.72	206.54	23.94	-53.7	-56.0	6.2	0.00e+00	0	41	104	0	79	18221
2026-01-19 10:44:04.72	206.53	23.73	-53.8	-56.0	6.2	0.00e+00	0	41	104	0	79	18300
2026-01-19 10:44:05.74	206.51	23.52	-53.8	-56.0	6.2	0.00e+00	0	41	104	0	79	18215
2026-01-19 10:44:06.74	206.50	23.31	-53.8	-56.0	6.2	0.00e+00	0	41	104	0	79	18277
2026-01-19 10:44:07.75	206.49	23.11	-53.8	-56.0	6.2	0.00e+00	0	41	104	0	79	18208
2026-01-19 10:44:08.76	206.47	22.91	-53.8	-56.0	6.2	0.00e+00	0	41	104	0	79	18278
2026-01-19 10:44:09.77	206.46	22.71	-53.8	-56.0	6.2	0.00e+00	0	41	104	0	79	18188
2026-01-19 10:44:10.78	206.45	22.51	-53.8	-56.0	6.2	0.00e+00	0	41	104	0	79	18193
2026-01-19 10:44:11.79	206.43	22.31	-53.8	-55.9	6.2	0.00e+00	0	40	104	0	79	18138
2026-01-19 10:44:12.79	206.42	22.12	-53.8	-56.0	6.2	0.00e+00	0	41	104	0	79	18236
2026-01-19 10:44:13.80	206.41	21.93	-53.8	-56.0	6.2	0.00e+00	0	40	104	0	79	18195
2026-01-19 10:44:14.81	206.40	21.73	-53.8	-55.9	6.2	0.00e+00	0	41	104	0	79	18078
2026-01-19 10:44:15.82	206.39	21.55	-53.7	-55.9	6.2	0.00e+00	0	41	104	0	79	18123
2026-01-19 10:44:16.83	206.38	21.36	-53.8	-55.9	6.2	0.00e+00	0	41	104	0	79	18178
2026-01-19 10:44:17.83	206.36	21.17	-53.8	-55.9	6.2	0.00e+00	0	41	104	0	79	18171
2026-01-19 10:44:18.84	206.35	20.99	-53.7	-55.9	6.2	0.00e+00	0	41	104	0	79	18158
2026-01-19 10:44:19.85	206.34	20.81	-53.7	-55.9	6.2	0.00e+00	0	41	104	0	79	18094
2026-01-19 10:44:20.85	206.33	20.63	-53.8	-55.9	6.2	0.00e+00	0	41	104	0	79	18152
2026-01-19 10:44:21.86	206.32	20.45	-53.7	-55.9	6.2	0.00e+00	0	41	104	0	79	18034
2026-01-19 10:44:22.87	206.31	20.27	-53.7	-55.9	6.2	0.00e+00	0	41	104	0	79	18069
2026-01-19 10:44:23.88	206.30	20.09	-53.7	-55.9	6.2	0.00e+00	0	41	104	0	79	18063
2026-01-19 10:44:24.89	206.29	19.92	-53.8	-55.9	6.2	0.00e+00	0	41	104	0	79	18018
2026-01-19 10:44:25.89	206.28	19.75	-53.7	-55.9	6.2	0.00e+00	0	40	104	0	79	18071
2026-01-19 10:44:26.90	206.27	19.57	-53.7	-55.9	6.2	0.00e+00	0	41	104	0	79	18087
2026-01-19 10:44:27.91	206.26	19.40	-53.7	-55.8	6.2	0.00e+00	0	41	104	0	79	17921
2026-01-19 10:44:28.92	206.25	19.23	-53.7	-55.9	6.2	0.00e+00	0	41	104	0	79	18026
2026-01-19 10:44:29.93	206.24	19.07	-53.7	-55.9	6.2	0.00e+00	0	41	104	0	79	18051
2026-01-19 10:44:30.93	206.24	18.90	-53.7	-55.8	6.2	0.00e+00	0	41	104	0	79	17968
2026-01-19 10:44:31.94	206.23	18.74	-53.6	-55.8	6.2	0.00e+00	0	41	104	0	79	17912
2026-01-19 10:44:32.95	206.22	18.57	-53.7	-55.9	6.2	0.00e+00	0	41	104	0	79	17992
2026-01-19 10:44:33.96	206.21	18.41	-53.7	-55.8	6.2	0.00e+00	0	41	104	0	79	17968
2026-01-19 10:44:34.97	206.20	18.25	-53.7	-55.8	6.2	0.00e+00	0	41	104	0	79	17934
2026-01-19 10:44:35.97	206.19	18.09	-53.6	-55.8	6.2	0.00e+00	0	41	104	0	79	17849
2026-01-19 10:44:36.98	206.19	17.93	-53.7	-55.9	6.2	0.00e+00	0	41	104	0	79	18029
2026-01-19 10:44:37.99	206.18	17.78	-53.6	-55.8	6.2	0.00e+00	0	41	104	0	79	17898
2026-01-19 10:44:39.00	206.17	17.62	-53.6	-55.8	6.2	0.00e+00	0	41	104	0	79	17856
2026-01-19 10:44:40.01	206.16	17.47	-53.6	-55.8	6.2	0.00e+00	0	40	104	0	79	17866
2026-01-19 10:44:41.01	206.15	17.31	-53.7	-55.8	6.2	0.00e+00	0	41	104	0	79	17939
2026-01-19 10:44:42.02	206.15	17.16	-53.6	-55.8	6.2	0.00e+00	0	41	104	0	79	17820
2026-01-19 10:44:43.03	206.14	17.01	-53.6	-55.8	6.2	0.00e+00	0	41	104	0	79	17864
2026-01-19 10:44:44.04	206.13	16.86	-53.6	-55.8	6.2	0.00e+00	0	41	104	0	79	17821
2026-01-19 10:44:45.04	206.13	16.71	-53.7	-55.8	6.2	0.00e+00	0	41	104	0	79	17882
2026-01-19 10:44:46.05	206.12	16.57	-53.6	-55.8	6.2	0.00e+00	0	41	104	0	79	17845
2026-01-19 10:44:47.06	206.11	16.42	-53.6	-55.8	6.2	0.00e+00	0	41	104	0	79	17812
2026-01-19 10:44:48.07	206.11	16.27	-53.6	-55.8	6.2	0.00e+00	0	40	104	0	79	17792
2026-01-19 10:44:49.07	206.10	16.13	-53.6	-55.8	6.2	0.00e+00	0	41	104	0	79	17871
2026-01-19 10:44:50.08	206.09	15.99	-53.6	-55.8	6.2	0.00e+00	0	41	104	0	79	17797
2026-01-19 10:44:51.09	206.09	15.84	-53.6	-55.8	6.2	0.00e+00	0	41	104	0	79	17766
2026-01-19 10:44:52.09	206.08	15.71	-53.6	-55.7	6.2	0.00e+00	0	41	104	0	79	17758
2026-01-19 10:44:53.10	206.07	15.56	-53.6	-55.7	6.2	0.00e+00	0	41	104	0	79	17719
2026-01-19 10:44:54.11	206.07	15.43	-53.6	-55.7	6.2	0.00e+00	0	41	104	0	79	17744
2026-01-19 10:44:55.12	206.06	15.29	-53.6	-55.7	6.2	0.00e+00	0	41	104	0	79	17737
2026-01-19 10:44:56.12	206.06	15.15	-53.5	-55.7	6.2	0.00e+00	0	40	104	0	79	17716
2026-01-19 10:44:57.13	206.05	15.02	-53.6	-55.7	6.2	0.00e+00	0	41	104	0	79	17741
2026-01-19 10:44:58.14	206.04	14.88	-53.6	-55.7	6.2	0.00e+00	0	41	104	0	79	17718
2026-01-19 10:44:59.15	206.04	14.75	-53.5	-55.7	6.2	0.00e+00	0	40	104	0	79	17622
2026-01-19 10:45:00.16	206.03	14.61	-53.5	-55.7	6.2	0.00e+00	0	41	104	0	79	17640
2026-01-19 10:45:01.16	206.03	14.48	-53.6	-55.7	6.2	0.00e+00	0	41	104	0	79	17693
2026-01-19 10:45:02.17	206.02	14.35	-53.5	-55.7	6.2	0.00e+00	0	41	104	0	79	17629
2026-01-19 10:45:03.18	206.02	14.22	-53.5	-55.7	6.2	0.00e+00	0	41	104	0	79	17629
2026-01-19 10:45:04.19	206.01	14.09	-53.5	-55.7	6.2	0.00e+00	0	41	104	0	79	17592
2026-01-19 10:45:05.20	206.01	13.96	-53.5	-55.7	6.2	0.00e+00	0	41	104	0	78	18724
2026-01-19 10:45:06.21	206.00	13.83	-53.5	-55.6	6.2	0.00e+00	0	41	104	0	78	18568
2026-01-19 10:45:07.21	206.00	13.71	-53.5	-55.6	6.2	0.00e+00	0	41	104	0	78	18599
2026-01-19 10:45:08.22	205.99	13.58	-53.4	-55.6	6.2	0.00e+00	0	41	104	0	78	18527
2026-01-19 10:45:09.23	205.99	13.45	-53.5	-55.7	6.2	0.00e+00	0	41	104	0	78	18621
2026-01-19 10:45:10.23	205.98	13.33	-53.5	-55.6	6.2	0.00e+00	0	41	104	0	78	18569
2026-01-19 10:45:11.24	205.98	13.21	-53.5	-55.6	6.2	0.00e+00	0	41	104	0	78	18536
2026-01-19 10:45:12.25	205.98	13.08	-53.4	-55.6	6.2	0.00e+00	0	41	104	0	78	18507
2026-01-19 10:45:13.26	205.97	12.96	-53.5	-55.6	6.2	0.00e+00	0	41	104	0	78	18531
2026-01-19 10:45:14.27	205.97	12.84	-53.4	-55.6	6.2	0.00e+00	0	41	104	0	78	18479
2026-01-19 10:45:15.27	205.96	12.72	-53.4	-55.6	6.2	0.00e+00	0	41	104	0	78	18442
2026-01-19 10:45:16.28	205.96	12.60	-53.4	-55.6	6.2	0.00e+00	0	41	104	0	78	18480
2026-01-19 10:45:17.29	205.96	12.48	-53.5	-55.6	6.2	0.00e+00	0	41	104	0	78	18516
2026-01-19 10:45:18.30	205.95	12.36	-53.4	-55.6	6.2	0.00e+00	0	41	104	0	78	18420
2026-01-19 10:45:19.31	205.95	12.24	-53.4	-55.6	6.2	0.00e+00	0	40	104	0	78	18435
2026-01-19 10:45:20.31	205.94	12.13	-53.4	-55.6	6.2	0.00e+00	0	41	104	0	78	18439
2026-01-19 10:45:21.32	205.94	12.01	-53.4	-55.6	6.2	0.00e+00	0	41	104	0	78	18437
2026-01-19 10:45:22.33	205.94	11.90	-53.4	-55.5	6.2	0.00e+00	0	41	104	0	78	18370
2026-01-19 10:45:23.34	205.93	11.78	-53.4	-55.5	6.2	0.00e+00	0	41	104	0	78	18358
2026-01-19 10:45:24.35	205.93	11.67	-53.3	-55.5	6.2	0.00e+00	0	41	104	0	78	18352
2026-01-19 10:45:25.36	205.93	11.55	-53.4	-55.5	6.2	0.00e+00	0	41	104	0	78	18355
2026-01-19 10:45:26.37	205.92	11.44	-53.3	-55.5	6.2	0.00e+00	0	41	104	0	78	18330
2026-01-19 10:45:27.37	205.92	11.33	-53.3	-55.5	6.2	0.00e+00	0	41	104	0	78	18239
2026-01-19 10:45:28.38	205.92	11.22	-53.3	-55.5	6.2	0.00e+00	0	41	104	0	78	18286
2026-01-19 10:45:29.39	205.91	11.11	-53.4	-55.5	6.2	0.00e+00	0	41	104	0	78	18340
2026-01-19 10:45:30.40	205.91	11.00	-53.3	-55.5	6.2	0.00e+00	0	41	104	0	78	18263
2026-01-19 10:45:31.40	205.91	10.89	-53.3	-55.5	6.2	0.00e+00	0	41	104	0	78	18231
2026-01-19 10:45:32.41	205.90	10.78	-53.3	-55.5	6.2	0.00e+00	0	41	104	0	78	18249
2026-01-19 10:45:33.42	205.90	10.67	-53.3	-55.5	6.2	0.00e+00	0	41	104	0	78	18307
2026-01-19 10:45:34.43	205.90	10.56	-53.3	-55.5	6.2	0.00e+00	0	41	104	0	78	18191
2026-01-19 10:45:35.43	205.89	10.46	-53.3	-55.5	6.2	0.00e+00	0	40	104	0	78	18196
2026-01-19 10:45:36.44	205.89	10.35	-53.3	-55.4	6.2	0.00e+00	0	41	104	0	78	18157
2026-01-19 10:45:37.45	205.89	10.24	-53.3	-55.5	6.2	0.00e+00	0	41	104	0	78	18225
2026-01-19 10:45:38.46	205.89	10.14	-53.3	-55.4	6.2	0.00e+00	0	41	104	0	78	18104
2026-01-19 10:45:39.47	205.88	10.03	-53.2	-55.4	6.2	0.00e+00	0	41	104	0	78	18056
2026-01-19 10:45:40.47	205.88	9.93	-53.2	-55.4	6.2	0.00e+00	0	41	104	0	78	18107
2026-01-19 10:45:41.48	205.88	9.83	-53.3	-55.4	6.2	0.00e+00	0	41	104	0	78	18166
2026-01-19 10:45:42.49	205.88	9.72	-53.2	-55.4	6.2	0.00e+00	0	41	104	0	78	18057
2026-01-19 10:45:43.50	205.87	9.62	-53.2	-55.4	6.2	0.00e+00	0	41	104	0	78	18005
2026-01-19 10:45:44.51	205.87	9.52	-53.2	-55.4	6.2	0.00e+00	0	40	104	0	78	18013
2026-01-19 10:45:45.52	205.87	9.42	-53.3	-55.4	6.2	0.00e+00	0	41	104	0	78	18070
2026-01-19 10:45:46.52	205.87	9.32	-53.2	-55.3	6.2	0.00e+00	0	40	104	0	78	17971
2026-01-19 10:45:47.53	205.86	9.22	-53.2	-55.4	6.2	0.00e+00	0	40	104	0	78	17973
2026-01-19 10:45:48.54	205.86	9.12	-53.2	-55.4	6.2	0.00e+00	0	41	104	0	78	17995
2026-01-19 10:45:49.55	205.86	9.02	-53.2	-55.3	6.2	0.00e+00	0	41	104	0	78	17945
2026-01-19 10:45:50.56	205.86	8.92	-53.2	-55.3	6.2	0.00e+00	0	41	104	0	78	17950
2026-01-19 10:45:51.56	205.86	8.82	-53.1	-55.3	6.2	0.00e+00	0	41	104	0	78	17872
2026-01-19 10:45:52.57	205.85	8.72	-53.2	-55.4	6.2	0.00e+00	0	40	104	0	78	17987
2026-01-19 10:45:53.58	205.85	8.63	-53.2	-55.3	6.2	0.00e+00	0	41	104	0	78	17874
2026-01-19 10:45:54.59	205.85	8.53	-53.1	-55.3	6.2	0.00e+00	0	41	104	0	78	17897
2026-01-19 10:45:55.60	205.85	8.43	-53.1	-55.3	6.2	0.00e+00	0	41	104	0	78	17811
2026-01-19 10:45:56.60	205.85	8.34	-53.2	-55.3	6.2	0.00e+00	0	41	104	0	78	17866
2026-01-19 10:45:57.61	205.84	8.24	-53.1	-55.3	6.2	0.00e+00	0	41	104	0	78	17858
2026-01-19 10:45:58.62	205.84	8.15	-53.1	-55.3	6.2	0.00e+00	0	40	104	0	78	17796
2026-01-19 10:45:59.63	205.84	8.05	-53.1	-55.2	6.2	0.00e+00	0	41	104	0	78	17712
2026-01-19 10:46:00.63	205.84	7.96	-53.1	-55.3	6.2	0.00e+00	0	41	104	0	78	17869
2026-01-19 10:46:01.64	205.84	7.86	-53.1	-55.2	6.2	0.00e+00	0	40	104	0	78	17759
2026-01-19 10:46:02.65	205.84	7.77	-53.1	-55.3	6.2	0.00e+00	0	41	104	0	78	17775
2026-01-19 10:46:03.66	205.83	7.68	-53.0	-55.2	6.2	0.00e+00	0	41	104	0	78	17608
2026-01-19 10:46:04.67	205.83	7.59	-53.1	-55.3	6.2	0.00e+00	0	41	104	0	78	17869
2026-01-19 10:46:05.67	205.83	7.50	-53.1	-55.2	6.2	0.00e+00	0	41	104	0	78	17731
2026-01-19 10:46:06.68	205.83	7.40	-53.0	-55.2	6.2	0.00e+00	0	41	104	0	78	17700
2026-01-19 10:46:07.69	205.83	7.31	-53.0	-55.2	6.2	0.00e+00	0	41	104	0	78	17565
2026-01-19 10:46:08.70	205.83	7.22	-53.1	-55.2	6.2	0.00e+00	0	41	104	0	78	17725
2026-01-19 10:46:09.71	205.83	7.13	-53.0	-55.2	6.2	0.00e+00	0	41	104	0	78	17641
2026-01-19 10:46:10.71	205.82	7.04	-53.0	-55.2	6.2	0.00e+00	0	41	104	0	78	17593
2026-01-19 10:46:11.72	205.82	6.95	-52.9	-55.1	6.2	0.00e+00	0	41	104	0	77	18471
2026-01-19 10:46:12.73	205.82	6.86	-53.0	-55.2	6.2	0.00e+00	0	41	104	0	77	18628
2026-01-19 10:46:13.74	205.82	6.78	-53.0	-55.1	6.2	0.00e+00	0	41	104	0	77	18504
2026-01-19 10:46:14.75	205.82	6.69	-52.9	-55.1	6.2	0.00e+00	0	41	104	0	77	18450
2026-01-19 10:46:15.75	205.82	6.60	-52.9	-55.0	6.2	0.00e+00	0	41	104	0	77	18370
2026-01-19 10:46:16.76	205.82	6.51	-53.0	-55.1	6.2	0.00e+00	0	41	104	0	77	18574
2026-01-19 10:46:17.77	205.82	6.43	-52.9	-55.1	6.2	0.00e+00	0	41	104	0	77	18403
2026-01-19 10:46:18.78	205.82	6.34	-52.9	-55.0	6.2	0.00e+00	0	41	104	0	77	18376
2026-01-19 10:46:19.78	205.81	6.25	-52.8	-55.0	6.2	0.00e+00	0	41	104	0	77	18209
2026-01-19 10:46:20.79	205.81	6.17	-53.0	-55.1	6.2	0.00e+00	0	41	104	0	77	18532
2026-01-19 10:46:21.80	205.81	6.08	-52.9	-55.0	6.2	0.00e+00	0	41	104	0	77	18336
2026-01-19 10:46:22.81	205.81	6.00	-52.8	-55.0	6.2	0.00e+00	0	41	104	0	77	18281
2026-01-19 10:46:23.81	205.81	5.91	-52.8	-54.9	6.2	0.00e+00	0	41	104	0	77	18080
2026-01-19 10:46:24.82	205.81	5.83	-52.9	-55.1	6.2	0.00e+00	0	41	104	0	77	18422
2026-01-19 10:46:25.83	205.81	5.74	-52.8	-55.0	6.2	0.00e+00	0	41	104	0	77	18205
2026-01-19 10:46:26.84	205.81	5.66	-52.8	-55.0	6.2	0.00e+00	0	41	104	0	77	18209
2026-01-19 10:46:27.85	205.81	5.58	-52.7	-54.9	6.2	0.00e+00	0	41	104	0	77	17980
2026-01-19 10:46:28.85	205.81	5.50	-52.9	-55.0	6.2	0.00e+00	0	41	104	0	77	18240
2026-01-19 10:46:29.86	205.81	5.41	-52.8	-54.9	6.2	0.00e+00	0	41	104	0	77	18117
2026-01-19 10:46:30.87	205.81	5.33	-52.7	-54.9	6.2	0.00e+00	0	41	104	0	77	18105
2026-01-19 10:46:31.88	205.81	5.25	-52.6	-54.8	6.2	0.00e+00	0	41	104	0	77	17813
2026-01-19 10:46:32.89	205.80	5.17	-52.8	-55.0	6.2	0.00e+00	0	41	104	0	77	18185
2026-01-19 10:46:33.89	205.80	5.09	-52.7	-54.8	6.2	0.00e+00	0	41	104	0	77	17916
2026-01-19 10:46:34.91	205.80	5.00	-52.9	-55.0	6.2	0.00e+00	0	41	104	0	77	18384
2026-01-19 10:46:35.91	205.80	4.92	-53.3	-55.4	6.2	0.00e+00	0	41	104	0	77	19220
2026-01-19 10:46:36.92	205.80	4.84	-53.6	-55.7	6.2	0.00e+00	0	41	104	0	77	19857
2026-01-19 10:46:37.93	205.80	4.76	-53.7	-55.9	6.2	0.00e+00	0	41	104	0	77	20219
2026-01-19 10:46:38.93	205.80	4.68	-53.9	-56.0	6.2	0.00e+00	0	41	104	0	78	19341
2026-01-19 10:46:39.94	205.80	4.60	-53.9	-56.1	6.2	0.00e+00	0	41	104	0	78	19550
2026-01-19 10:46:40.95	205.80	4.52	-54.0	-56.1	6.2	0.00e+00	0	41	104	0	78	19691
2026-01-19 10:46:41.96	205.80	4.45	-54.1	-56.3	6.2	0.00e+00	0	41	104	0	78	19934
2026-01-19 10:46:42.97	205.80	4.37	-54.2	-56.3	6.2	0.00e+00	0	41	104	0	78	20067
2026-01-19 10:46:43.98	205.80	4.29	-54.2	-56.3	6.2	0.00e+00	0	41	104	0	78	20142
2026-01-19 10:46:44.99	205.80	4.21	-54.3	-56.4	6.2	0.00e+00	0	41	104	0	79	19197
2026-01-19 10:46:45.99	205.80	4.13	-54.3	-56.5	6.2	0.00e+00	0	41	104	0	79	19292
2026-01-19 10:46:47.00	205.80	4.06	-54.4	-56.5	6.2	0.00e+00	0	41	104	0	79	19382
2026-01-19 10:46:48.00	205.80	3.98	-54.4	-56.5	6.2	0.00e+00	0	41	104	0	79	19454
2026-01-19 10:46:49.01	205.80	3.90	-54.4	-56.6	6.2	0.00e+00	0	41	104	0	79	19488
2026-01-19 10:46:50.02	205.80	3.83	-54.4	-56.6	6.2	0.00e+00	0	41	104	0	79	19601
2026-01-19 10:46:51.03	205.80	3.75	-54.5	-56.6	6.2	0.00e+00	0	41	104	0	79	19630
2026-01-19 10:46:52.04	205.80	3.67	-54.5	-56.6	6.2	0.00e+00	0	41	104	0	79	19612
2026-01-19 10:46:53.05	205.80	3.60	-54.5	-56.6	6.2	0.00e+00	0	41	104	0	79	19621
2026-01-19 10:46:54.06	205.80	3.52	-54.5	-56.7	6.2	0.00e+00	0	41	104	0	79	19743
2026-01-19 10:46:55.06	205.80	3.45	-54.5	-56.6	6.2	0.00e+00	0	41	104	0	79	19683
2026-01-19 10:46:56.07	205.80	3.37	-54.6	-56.7	6.2	0.00e+00	0	41	104	0	79	19784
2026-01-19 10:46:57.08	205.80	3.30	-54.6	-56.7	6.2	0.00e+00	0	41	104	0	79	19801
2026-01-19 10:46:58.09	205.80	3.22	-54.5	-56.7	6.2	0.00e+00	0	41	104	0	79	19774
2026-01-19 10:46:59.10	205.80	3.15	-54.5	-56.6	6.2	0.00e+00	0	41	104	0	79	19678
2026-01-19 10:47:00.10	205.80	3.08	-54.5	-56.6	6.2	0.00e+00	0	41	104	0	79	19645
2026-01-19 10:47:01.11	205.80	3.00	-54.5	-56.6	6.2	0.00e+00	0	41	104	0	79	19657
2026-01-19 10:47:02.12	205.80	2.93	-54.5	-56.6	6.2	0.00e+00	0	41	104	0	79	19692
2026-01-19 10:47:03.13	205.80	2.86	-54.5	-56.6	6.2	0.00e+00	0	41	104	0	79	19684
2026-01-19 10:47:04.14	205.80	2.78	-54.5	-56.6	6.2	0.00e+00	0	41	104	0	79	19635
2026-01-19 10:47:05.15	205.80	2.71	-54.5	-56.6	6.2	0.00e+00	0	41	104	0	79	19597
2026-01-19 10:47:06.15	205.80	2.64	-54.5	-56.6	6.2	0.00e+00	0	41	104	0	79	19589
2026-01-19 10:47:07.16	205.80	2.57	-54.5	-56.6	6.2	0.00e+00	0	41	104	0	79	19575
2026-01-19 10:47:08.17	205.80	2.49	-54.5	-56.6	6.2	0.00e+00	0	41	104	0	79	19564
2026-01-19 10:47:09.18	205.80	2.42	-54.4	-56.6	6.2	0.00e+00	0	41	104	0	79	19598
2026-01-19 10:47:10.19	205.80	2.35	-54.4	-56.6	6.2	0.00e+00	0	41	104	0	79	19608
2026-01-19 10:47:11.19	205.80	2.28	-54.4	-56.6	6.2	0.00e+00	0	41	104	0	79	19574
2026-01-19 10:47:12.20	205.80	2.21	-54.4	-56.6	6.2	0.00e+00	0	41	104	0	79	19545
2026-01-19 10:47:13.21	205.80	2.14	-54.4	-56.6	6.2	0.00e+00	0	41	104	0	79	19564
2026-01-19 10:47:14.22	205.80	2.07	-54.4	-56.5	6.2	0.00e+00	0	41	104	0	79	19469
2026-01-19 10:47:15.22	205.80	2.00	-54.4	-56.6	6.2	0.00e+00	0	41	104	0	79	19550
2026-01-19 10:47:16.23	205.80	1.93	-54.4	-56.6	6.2	0.00e+00	0	41	104	0	79	19525

#Closed at: 2026-01-19 10:47:17
#Recorded file [0 MB]: D:/lorett/data/31041_260119_133617.dat