passes_logs/2026/01/19/R3.2S_Murmansk/R3.2S_Murmansk__20260119_013639_SUOMI_NPP_rec.log

#Pass ID: 20260119_013639_SUOMI NPP
#Satellite: SUOMI NPP
#Configuration: NPP
#almurnet v.1.7.20251203
#Start time: 2026-01-19 01:36:41

#Version: 2.2.20231116
#Station: R3.2S_Murmansk
#Location: 33.079688 lon 68.888172 lat
#TLE: 1 37849U 11061A   26018.62828014  .00000065  00000+0  51921-4 0  9990
#TLE: 2 37849  98.7815 320.6456 0002372  57.2989 302.8415 14.19526102737226

#Time	Az	El	Level	Level2	SNR	BER	BlckErr	Temp	State	Recorded	gain1	gain2
2026-01-19 01:36:41.46	28.23	2.10	-51.6	-66.6	3.8	1.49e+00	0	37	0	0	75	19414
2026-01-19 01:36:42.46	28.22	2.16	-51.6	-66.5	3.8	1.49e+00	0	37	104	0	73	21646
2026-01-19 01:36:43.47	28.20	2.23	-51.6	-66.5	3.8	1.49e+00	0	37	104	0	73	21572
2026-01-19 01:36:44.48	28.18	2.29	-51.6	-66.5	3.8	1.49e+00	0	37	104	0	73	21551
2026-01-19 01:36:45.48	28.16	2.36	-51.6	-66.4	3.8	1.49e+00	0	37	104	0	73	21483
2026-01-19 01:36:46.50	28.14	2.42	-51.6	-66.3	3.8	1.49e+00	0	37	104	0	73	21228
2026-01-19 01:36:47.50	28.13	2.49	-51.6	-66.3	3.8	1.49e+00	0	37	104	0	73	21090
2026-01-19 01:36:48.51	28.11	2.55	-51.6	-66.0	3.8	1.49e+00	0	37	104	0	73	20516
2026-01-19 01:36:49.52	28.09	2.62	-51.6	-66.0	3.8	1.49e+00	0	37	104	0	73	20334
2026-01-19 01:36:50.53	28.07	2.68	-51.6	-65.9	3.8	1.49e+00	0	36	104	0	73	20287
2026-01-19 01:36:51.54	28.05	2.75	-51.6	-65.8	3.8	1.49e+00	0	37	104	0	73	20022
2026-01-19 01:36:52.55	28.03	2.81	-51.6	-65.7	3.8	1.49e+00	0	36	104	0	73	19758
2026-01-19 01:36:53.56	28.01	2.88	-51.5	-65.7	3.8	1.49e+00	0	36	104	0	73	19756
2026-01-19 01:36:54.56	27.99	2.94	-51.6	-65.9	3.8	1.49e+00	0	37	104	0	73	20123
2026-01-19 01:36:55.57	27.98	3.01	-51.6	-66.2	3.8	1.49e+00	0	37	104	0	73	20926
2026-01-19 01:36:56.58	27.96	3.08	-51.6	-66.4	3.8	1.49e+00	0	37	104	0	73	21451
2026-01-19 01:36:57.59	27.94	3.14	-51.6	-66.4	3.8	1.49e+00	0	36	104	0	73	21475
2026-01-19 01:36:58.60	27.92	3.21	-51.6	-66.0	3.8	1.49e+00	0	37	104	0	73	20530
2026-01-19 01:36:59.60	27.90	3.27	-51.5	-65.2	3.8	1.49e+00	0	36	104	0	73	18714
2026-01-19 01:37:00.61	27.88	3.34	-51.4	-63.9	4.0	1.49e+00	0	37	104	0	73	16015
2026-01-19 01:37:01.62	27.86	3.41	-51.3	-62.1	4.5	1.37e+00	114	37	0	0	73	13042
2026-01-19 01:37:02.63	27.84	3.48	-51.2	-61.0	5.0	9.27e-01	0	36	0	2097152	73	11442
2026-01-19 01:37:03.63	27.82	3.54	-51.0	-59.8	5.8	4.86e-01	0	37	0	4194304	73	9963
2026-01-19 01:37:04.64	27.80	3.61	-50.8	-58.4	6.8	2.67e-01	0	37	0	5242880	73	8490
2026-01-19 01:37:05.65	27.78	3.68	-50.6	-57.4	7.7	1.49e-01	0	37	0	7340032	73	7612
2026-01-19 01:37:06.66	27.76	3.75	-50.2	-56.1	9.2	2.66e-02	0	37	0	9437184	72	6886
2026-01-19 01:37:07.66	27.74	3.81	-50.0	-55.1	10.2	1.31e-02	0	37	0	11534336	71	6527
2026-01-19 01:37:08.67	27.72	3.88	-49.7	-54.4	10.9	2.37e-03	0	37	0	13631488	71	6049
2026-01-19 01:37:09.68	27.70	3.95	-49.5	-53.8	11.6	9.26e-04	0	37	0	15728640	71	5622
2026-01-19 01:37:10.69	27.68	4.02	-49.3	-53.5	11.9	6.15e-04	0	37	0	16777216	70	5725
2026-01-19 01:37:11.70	27.65	4.09	-49.2	-53.2	12.2	2.28e-04	0	37	0	18874368	70	5575
2026-01-19 01:37:12.70	27.63	4.16	-49.2	-53.2	12.3	1.65e-04	0	37	0	20971520	70	5536
2026-01-19 01:37:13.71	27.61	4.22	-49.1	-53.1	12.4	1.38e-04	0	37	0	23068672	70	5488
2026-01-19 01:37:14.72	27.59	4.29	-49.2	-53.1	12.3	8.08e-05	0	36	0	24117248	69	5855
2026-01-19 01:37:15.73	27.57	4.36	-49.4	-53.7	11.7	4.28e-04	0	37	0	26214400	69	6238
2026-01-19 01:37:16.74	27.55	4.43	-49.4	-53.8	11.6	5.48e-04	0	36	0	28311552	69	6283
2026-01-19 01:37:17.74	27.53	4.50	-49.3	-53.5	11.9	4.60e-04	0	37	0	30408704	69	6124
2026-01-19 01:37:18.75	27.50	4.57	-50.1	-55.4	9.9	2.99e-03	0	37	0	32505856	70	7172
2026-01-19 01:37:19.76	27.48	4.64	-50.1	-55.6	9.8	7.68e-03	0	36	0	34603008	70	7299
2026-01-19 01:37:20.76	27.46	4.71	-50.2	-55.9	9.4	1.72e-02	0	37	0	35651584	71	7169
2026-01-19 01:37:21.77	27.44	4.78	-50.4	-56.5	8.7	2.07e-02	0	37	0	37748736	71	7704
2026-01-19 01:37:22.78	27.42	4.85	-50.8	-58.5	6.8	1.32e-01	0	37	0	39845888	72	9135
2026-01-19 01:37:23.79	27.39	4.92	-50.8	-58.3	6.9	2.12e-01	0	37	0	41943040	72	8912
2026-01-19 01:37:24.80	27.37	4.99	-50.9	-59.0	6.4	1.43e-01	0	37	0	44040192	72	9639
2026-01-19 01:37:25.80	27.35	5.06	-50.6	-56.3	10.8	2.35e-02	0	37	0	45088768	71	7491
2026-01-19 01:37:26.81	27.33	5.14	-48.3	-63.2	3.8	1.49e+00	0	37	104	46137344	68	19684
2026-01-19 01:37:27.82	27.30	5.21	-48.2	-63.1	3.8	1.49e+00	0	37	104	46137344	68	19533
2026-01-19 01:37:28.82	27.28	5.28	-48.2	-63.1	3.8	1.49e+00	0	37	104	46137344	68	19429
2026-01-19 01:37:29.83	27.26	5.35	-48.2	-63.1	3.8	1.49e+00	0	37	104	46137344	68	19431
2026-01-19 01:37:30.84	27.23	5.42	-48.2	-63.1	3.8	1.49e+00	0	37	104	46137344	68	19455
2026-01-19 01:37:31.85	27.21	5.49	-48.2	-63.1	3.8	1.49e+00	0	37	104	46137344	68	19445
2026-01-19 01:37:32.86	27.19	5.57	-48.2	-63.1	3.8	1.49e+00	0	37	104	46137344	68	19493
2026-01-19 01:37:33.87	27.16	5.64	-48.2	-63.1	3.8	1.49e+00	0	37	104	46137344	68	19445
2026-01-19 01:37:34.88	27.14	5.71	-48.2	-63.1	3.8	1.49e+00	0	37	104	46137344	68	19432
2026-01-19 01:37:35.88	27.11	5.79	-48.2	-63.1	3.8	1.49e+00	0	37	104	46137344	68	19418
2026-01-19 01:37:36.89	27.09	5.86	-48.2	-63.1	3.8	1.49e+00	0	37	104	46137344	68	19500
2026-01-19 01:37:37.90	27.07	5.93	-48.2	-63.1	3.8	1.49e+00	0	37	104	46137344	68	19405
2026-01-19 01:37:38.91	27.04	6.01	-48.2	-63.1	3.8	1.49e+00	0	37	104	46137344	68	19433
2026-01-19 01:37:39.92	27.02	6.08	-48.2	-63.1	3.8	1.49e+00	0	37	104	46137344	68	19439
2026-01-19 01:37:40.92	26.99	6.15	-48.2	-63.1	3.8	1.49e+00	0	37	104	46137344	68	19453
2026-01-19 01:37:41.93	26.97	6.23	-48.2	-63.1	3.8	1.49e+00	0	37	104	46137344	68	19460
2026-01-19 01:37:42.94	26.94	6.30	-48.2	-63.1	3.8	1.49e+00	0	37	104	46137344	68	19510
2026-01-19 01:37:43.95	26.92	6.38	-48.2	-63.1	3.8	1.49e+00	0	37	104	46137344	68	19494
2026-01-19 01:37:44.96	26.89	6.45	-48.2	-63.1	3.8	1.49e+00	0	37	104	46137344	68	19511
2026-01-19 01:37:45.96	26.87	6.53	-48.2	-63.1	3.8	1.49e+00	0	37	104	46137344	68	19465
2026-01-19 01:37:46.97	26.84	6.60	-48.2	-63.1	3.8	1.49e+00	0	37	104	46137344	68	19495
2026-01-19 01:37:47.98	26.81	6.68	-48.2	-63.1	3.8	1.49e+00	0	37	104	46137344	68	19493
2026-01-19 01:37:48.99	26.79	6.75	-48.2	-63.1	3.8	1.49e+00	0	37	104	46137344	68	19498
2026-01-19 01:37:49.99	26.76	6.83	-48.2	-63.1	3.8	1.49e+00	0	37	104	46137344	68	19498
2026-01-19 01:37:51.00	26.74	6.90	-48.2	-63.1	3.8	1.49e+00	0	37	104	46137344	68	19544
2026-01-19 01:37:52.01	26.71	6.98	-48.2	-63.1	3.8	1.49e+00	0	37	104	46137344	68	19495
2026-01-19 01:37:53.02	26.68	7.06	-48.2	-63.1	3.8	1.49e+00	0	37	104	46137344	68	19493
2026-01-19 01:37:54.03	26.66	7.13	-48.2	-63.1	3.8	1.49e+00	0	37	104	46137344	68	19499
2026-01-19 01:37:55.04	26.63	7.21	-48.2	-63.1	3.8	1.49e+00	0	37	104	46137344	68	19481
2026-01-19 01:37:56.04	26.60	7.29	-48.2	-63.1	3.8	1.49e+00	0	37	104	46137344	68	19488
2026-01-19 01:37:57.05	26.57	7.37	-48.2	-63.1	3.8	1.49e+00	0	37	104	46137344	68	19445
2026-01-19 01:37:58.06	26.55	7.44	-48.2	-63.1	3.8	1.49e+00	0	37	104	46137344	68	19437
2026-01-19 01:37:59.07	26.52	7.52	-48.2	-63.0	3.8	1.49e+00	0	37	104	46137344	68	19379
2026-01-19 01:38:00.08	26.49	7.60	-48.2	-63.1	3.8	1.49e+00	0	37	104	46137344	68	19412
2026-01-19 01:38:01.08	26.46	7.68	-48.2	-63.1	3.8	1.49e+00	0	37	104	46137344	68	19432
2026-01-19 01:38:02.09	26.44	7.76	-48.2	-63.1	3.8	1.49e+00	0	37	104	46137344	68	19439
2026-01-19 01:38:03.10	26.41	7.83	-48.2	-63.1	3.8	1.49e+00	0	37	104	46137344	68	19402
2026-01-19 01:38:04.10	26.38	7.91	-48.2	-63.1	3.8	1.49e+00	0	37	104	46137344	68	19414
2026-01-19 01:38:05.11	26.35	7.99	-48.2	-63.1	3.8	1.49e+00	0	37	104	46137344	68	19458
2026-01-19 01:38:06.12	26.32	8.07	-48.2	-63.1	3.8	1.49e+00	0	37	104	46137344	68	19489
2026-01-19 01:38:07.12	26.29	8.15	-48.2	-63.1	3.8	1.49e+00	0	37	104	46137344	68	19490
2026-01-19 01:38:08.13	26.26	8.23	-48.2	-63.1	3.8	1.49e+00	0	37	104	46137344	68	19429
2026-01-19 01:38:09.14	26.23	8.31	-48.2	-63.1	3.8	1.49e+00	0	37	104	46137344	68	19511
2026-01-19 01:38:10.15	26.20	8.39	-48.2	-63.1	3.8	1.49e+00	0	36	104	46137344	68	19427
2026-01-19 01:38:11.16	26.18	8.47	-48.2	-63.1	3.8	1.49e+00	0	37	104	46137344	68	19439
2026-01-19 01:38:12.16	26.15	8.55	-48.2	-63.1	3.8	1.49e+00	0	37	104	46137344	68	19445
2026-01-19 01:38:13.17	26.12	8.63	-48.2	-63.1	3.8	1.49e+00	0	37	104	46137344	68	19482
2026-01-19 01:38:14.18	26.08	8.72	-48.2	-63.1	3.8	1.49e+00	0	37	104	46137344	68	19478
2026-01-19 01:38:15.19	26.05	8.80	-48.2	-63.1	3.8	1.49e+00	0	37	104	46137344	68	19497
2026-01-19 01:38:16.20	26.02	8.88	-48.2	-63.1	3.8	1.49e+00	0	37	104	46137344	68	19488
2026-01-19 01:38:17.20	25.99	8.96	-48.2	-63.1	3.8	1.49e+00	0	37	104	46137344	68	19482
2026-01-19 01:38:18.21	25.96	9.04	-48.2	-63.1	3.8	1.49e+00	0	37	104	46137344	68	19448
2026-01-19 01:38:19.22	25.93	9.13	-48.2	-63.1	3.8	1.49e+00	0	37	104	46137344	68	19447
2026-01-19 01:38:20.23	25.90	9.21	-48.2	-63.1	3.8	1.49e+00	0	37	104	46137344	68	19459
2026-01-19 01:38:21.24	25.87	9.29	-48.2	-63.1	3.8	1.49e+00	0	37	104	46137344	68	19423
2026-01-19 01:38:22.24	25.84	9.38	-48.2	-63.1	3.8	1.49e+00	0	37	104	46137344	68	19445
2026-01-19 01:38:23.25	25.80	9.46	-48.2	-63.1	3.8	1.49e+00	0	37	104	46137344	68	19419
2026-01-19 01:38:24.26	25.77	9.55	-48.2	-63.1	3.8	1.49e+00	0	37	104	46137344	68	19438
2026-01-19 01:38:25.27	25.74	9.63	-48.2	-63.1	3.8	1.49e+00	0	37	104	46137344	68	19453
2026-01-19 01:38:26.27	25.71	9.71	-48.2	-63.1	3.8	1.49e+00	0	37	104	46137344	68	19442
2026-01-19 01:38:27.28	25.67	9.80	-48.2	-63.1	3.8	1.49e+00	0	37	104	46137344	68	19391
2026-01-19 01:38:28.29	25.64	9.88	-48.2	-63.0	3.8	1.49e+00	0	37	104	46137344	68	19363
2026-01-19 01:38:29.30	25.61	9.97	-48.2	-63.1	3.8	1.49e+00	0	37	104	46137344	68	19443
2026-01-19 01:38:30.31	25.57	10.06	-48.2	-63.1	3.8	1.49e+00	0	37	104	46137344	68	19461
2026-01-19 01:38:31.32	25.54	10.14	-48.2	-63.1	3.8	1.49e+00	0	37	104	46137344	68	19434
2026-01-19 01:38:32.32	25.50	10.23	-48.2	-63.1	3.8	1.49e+00	0	37	104	46137344	68	19401
2026-01-19 01:38:33.33	25.47	10.32	-48.2	-63.1	3.8	1.49e+00	0	37	104	46137344	68	19451
2026-01-19 01:38:34.34	25.44	10.40	-48.2	-63.1	3.8	1.49e+00	0	37	104	46137344	68	19417
2026-01-19 01:38:35.35	25.40	10.49	-48.2	-63.1	3.8	1.49e+00	0	37	104	46137344	68	19429
2026-01-19 01:38:36.36	25.37	10.58	-48.2	-63.1	3.8	1.49e+00	0	37	104	46137344	68	19486
2026-01-19 01:38:37.37	25.33	10.67	-48.2	-63.1	3.8	1.49e+00	0	37	104	46137344	68	19459
2026-01-19 01:38:38.37	25.30	10.75	-48.2	-63.1	3.8	1.49e+00	0	37	104	46137344	68	19422
2026-01-19 01:38:39.38	25.26	10.84	-48.2	-63.1	3.8	1.49e+00	0	37	104	46137344	68	19458
2026-01-19 01:38:40.38	25.22	10.93	-48.2	-63.1	3.8	1.49e+00	0	37	104	46137344	68	19494
2026-01-19 01:38:41.39	25.19	11.02	-48.2	-63.1	3.8	1.49e+00	0	37	104	46137344	68	19472
2026-01-19 01:38:42.40	25.15	11.11	-48.2	-63.1	3.8	1.49e+00	0	37	104	46137344	68	19476
2026-01-19 01:38:43.41	25.11	11.20	-48.2	-63.1	3.8	1.49e+00	0	37	104	46137344	68	19484
2026-01-19 01:38:44.42	25.08	11.29	-48.2	-63.1	3.8	1.49e+00	0	37	104	46137344	68	19469
2026-01-19 01:38:45.42	25.04	11.38	-48.2	-63.1	3.8	1.49e+00	0	37	104	46137344	68	19459
2026-01-19 01:38:46.43	25.00	11.47	-48.2	-63.1	3.8	1.49e+00	0	37	104	46137344	68	19487
2026-01-19 01:38:47.44	24.96	11.56	-48.2	-63.1	3.8	1.49e+00	0	37	104	46137344	68	19443
2026-01-19 01:38:48.45	24.93	11.65	-48.2	-63.1	3.8	1.49e+00	0	37	104	46137344	68	19422
2026-01-19 01:38:49.45	24.89	11.74	-48.2	-63.1	3.8	1.49e+00	0	37	104	46137344	68	19485
2026-01-19 01:38:50.46	24.85	11.84	-48.2	-63.1	3.8	1.49e+00	0	37	104	46137344	68	19508
2026-01-19 01:38:51.47	24.81	11.93	-48.2	-63.1	3.8	1.49e+00	0	37	104	46137344	68	19422
2026-01-19 01:38:52.48	24.77	12.02	-48.2	-63.1	3.8	1.49e+00	0	37	104	46137344	68	19489
2026-01-19 01:38:53.49	24.73	12.11	-48.2	-63.1	3.8	1.49e+00	0	37	104	46137344	68	19457
2026-01-19 01:38:54.50	24.69	12.21	-48.2	-63.1	3.8	1.49e+00	0	37	104	46137344	68	19445
2026-01-19 01:38:55.51	24.65	12.30	-48.2	-63.1	3.8	1.49e+00	0	37	104	46137344	68	19470
2026-01-19 01:38:56.52	24.61	12.40	-48.2	-63.1	3.8	1.49e+00	0	37	104	46137344	68	19467
2026-01-19 01:38:57.52	24.57	12.49	-48.2	-63.1	3.8	1.49e+00	0	37	104	46137344	68	19494
2026-01-19 01:38:58.53	24.53	12.58	-48.2	-63.1	3.8	1.49e+00	0	37	104	46137344	68	19447
2026-01-19 01:38:59.54	24.49	12.68	-48.2	-63.1	3.8	1.49e+00	0	36	104	46137344	68	19442
2026-01-19 01:39:00.55	24.45	12.77	-48.2	-63.1	3.8	1.49e+00	0	37	104	46137344	68	19483
2026-01-19 01:39:01.56	24.41	12.87	-48.2	-63.1	3.8	1.49e+00	0	37	104	46137344	68	19467
2026-01-19 01:39:02.56	24.37	12.97	-48.2	-63.1	3.8	1.49e+00	0	37	104	46137344	68	19422
2026-01-19 01:39:03.57	24.32	13.06	-48.2	-63.1	3.8	1.49e+00	0	37	104	46137344	68	19466
2026-01-19 01:39:04.58	24.28	13.16	-48.2	-63.1	3.8	1.49e+00	0	37	104	46137344	68	19485
2026-01-19 01:39:05.59	24.24	13.26	-48.2	-63.1	3.8	1.49e+00	0	37	104	46137344	68	19526
2026-01-19 01:39:06.59	24.20	13.35	-48.2	-63.1	3.8	1.49e+00	0	37	104	46137344	68	19487
2026-01-19 01:39:07.60	24.15	13.45	-48.2	-63.1	3.8	1.49e+00	0	37	104	46137344	68	19436
2026-01-19 01:39:08.61	24.11	13.55	-48.2	-63.1	3.8	1.49e+00	0	37	104	46137344	68	19487
2026-01-19 01:39:09.62	24.06	13.65	-48.2	-63.1	3.8	1.49e+00	0	37	104	46137344	68	19485
2026-01-19 01:39:10.63	24.02	13.75	-48.2	-63.1	3.8	1.49e+00	0	37	104	46137344	68	19459
2026-01-19 01:39:11.64	23.98	13.85	-48.2	-63.1	3.8	1.49e+00	0	37	104	46137344	68	19454
2026-01-19 01:39:12.64	23.93	13.95	-48.2	-63.0	3.8	1.49e+00	0	37	104	46137344	68	19359
2026-01-19 01:39:13.65	23.89	14.05	-48.2	-63.1	3.8	1.49e+00	0	37	104	46137344	68	19437
2026-01-19 01:39:14.66	23.84	14.15	-48.2	-63.1	3.8	1.49e+00	0	37	104	46137344	68	19470
2026-01-19 01:39:15.67	23.79	14.25	-48.2	-63.1	3.8	1.49e+00	0	37	104	46137344	68	19407
2026-01-19 01:39:16.67	23.75	14.35	-48.2	-63.1	3.8	1.49e+00	0	37	104	46137344	68	19419
2026-01-19 01:39:17.68	23.70	14.45	-48.2	-63.1	3.8	1.49e+00	0	37	104	46137344	68	19451
2026-01-19 01:39:18.69	23.65	14.56	-48.2	-63.1	3.8	1.49e+00	0	37	104	46137344	68	19480
2026-01-19 01:39:19.70	23.61	14.66	-48.2	-63.1	3.8	1.49e+00	0	37	104	46137344	68	19463
2026-01-19 01:39:20.70	23.56	14.76	-48.2	-63.1	3.8	1.49e+00	0	37	104	46137344	68	19479
2026-01-19 01:39:21.71	23.51	14.87	-48.2	-63.1	3.8	1.49e+00	0	37	104	46137344	68	19491
2026-01-19 01:39:22.72	23.46	14.97	-48.2	-63.1	3.8	1.49e+00	0	37	104	46137344	68	19434
2026-01-19 01:39:23.73	23.41	15.07	-48.2	-63.1	3.8	1.49e+00	0	37	104	46137344	68	19429
2026-01-19 01:39:24.74	23.36	15.18	-48.2	-63.1	3.8	1.49e+00	0	37	104	46137344	68	19393
2026-01-19 01:39:25.75	23.31	15.28	-48.2	-63.1	3.8	1.49e+00	0	37	104	46137344	68	19444
2026-01-19 01:39:26.76	23.26	15.39	-48.2	-63.1	3.8	1.49e+00	0	37	104	46137344	68	19473
2026-01-19 01:39:27.77	23.21	15.50	-48.2	-63.1	3.8	1.49e+00	0	37	104	46137344	68	19450
2026-01-19 01:39:28.78	23.16	15.60	-48.2	-63.1	3.8	1.49e+00	0	37	104	46137344	68	19455
2026-01-19 01:39:29.78	23.11	15.71	-48.2	-63.1	3.8	1.49e+00	0	37	104	46137344	68	19453
2026-01-19 01:39:30.79	23.06	15.82	-48.2	-63.1	3.8	1.49e+00	0	37	104	46137344	68	19509
2026-01-19 01:39:31.80	23.01	15.93	-48.2	-63.1	3.8	1.49e+00	0	37	104	46137344	68	19426
2026-01-19 01:39:32.81	22.96	16.03	-48.2	-63.1	3.8	1.49e+00	0	37	104	46137344	68	19435
2026-01-19 01:39:33.81	22.90	16.14	-48.2	-63.1	3.8	1.49e+00	0	37	104	46137344	68	19452
2026-01-19 01:39:34.82	22.85	16.25	-48.2	-63.1	3.8	1.49e+00	0	37	104	46137344	68	19439
2026-01-19 01:39:35.83	22.80	16.36	-48.2	-63.1	3.8	1.49e+00	0	37	104	46137344	68	19474
2026-01-19 01:39:36.84	22.74	16.47	-48.2	-63.1	3.8	1.49e+00	0	37	104	46137344	68	19448
2026-01-19 01:39:37.85	22.69	16.58	-48.2	-63.1	3.8	1.49e+00	0	37	104	46137344	68	19441
2026-01-19 01:39:38.86	22.63	16.69	-48.2	-63.1	3.8	1.49e+00	0	37	104	46137344	68	19454
2026-01-19 01:39:39.86	22.58	16.80	-48.2	-63.1	3.8	1.49e+00	0	37	104	46137344	68	19421
2026-01-19 01:39:40.87	22.52	16.92	-48.2	-63.1	3.8	1.49e+00	0	37	104	46137344	68	19463
2026-01-19 01:39:41.88	22.47	17.03	-48.2	-63.1	3.8	1.49e+00	0	37	104	46137344	68	19441
2026-01-19 01:39:42.89	22.41	17.14	-48.2	-63.1	3.8	1.49e+00	0	37	104	46137344	68	19434
2026-01-19 01:39:43.90	22.35	17.26	-48.2	-63.1	3.8	1.49e+00	0	37	104	46137344	68	19440
2026-01-19 01:39:44.90	22.29	17.37	-48.2	-63.1	3.8	1.49e+00	0	37	104	46137344	68	19424
2026-01-19 01:39:45.91	22.24	17.49	-48.2	-63.1	3.8	1.49e+00	0	37	104	46137344	68	19496
2026-01-19 01:39:46.92	22.18	17.60	-48.2	-63.1	3.8	1.49e+00	0	37	104	46137344	68	19451
2026-01-19 01:39:47.93	22.12	17.72	-48.2	-63.1	3.8	1.49e+00	0	37	104	46137344	68	19433
2026-01-19 01:39:48.94	22.06	17.83	-48.2	-63.1	3.8	1.49e+00	0	37	104	46137344	68	19469
2026-01-19 01:39:49.95	22.00	17.95	-48.2	-63.1	3.8	1.49e+00	0	37	104	46137344	68	19475
2026-01-19 01:39:50.96	21.94	18.07	-48.2	-63.1	3.8	1.49e+00	0	37	104	46137344	68	19468
2026-01-19 01:39:51.96	21.88	18.18	-48.2	-63.1	3.8	1.49e+00	0	37	104	46137344	68	19452
2026-01-19 01:39:52.97	21.82	18.30	-48.2	-63.1	3.8	1.49e+00	0	37	104	46137344	68	19452
2026-01-19 01:39:53.98	21.75	18.42	-48.2	-63.1	3.8	1.49e+00	0	37	104	46137344	68	19457
2026-01-19 01:39:54.99	21.69	18.54	-48.2	-63.1	3.8	1.49e+00	0	37	104	46137344	68	19400
2026-01-19 01:39:56.00	21.63	18.66	-48.2	-63.1	3.8	1.49e+00	0	37	104	46137344	68	19417
2026-01-19 01:39:57.00	21.57	18.78	-48.2	-63.1	3.8	1.49e+00	0	37	104	46137344	68	19429
2026-01-19 01:39:58.01	21.50	18.90	-48.2	-63.1	3.8	1.49e+00	0	36	104	46137344	68	19414
2026-01-19 01:39:59.02	21.44	19.02	-48.2	-63.0	3.8	1.49e+00	0	37	104	46137344	68	19385
2026-01-19 01:40:00.03	21.37	19.15	-48.2	-63.1	3.8	1.49e+00	0	37	104	46137344	68	19403
2026-01-19 01:40:01.03	21.31	19.27	-48.2	-63.1	3.8	1.49e+00	0	37	104	46137344	68	19436
2026-01-19 01:40:02.04	21.24	19.39	-48.2	-63.1	3.8	1.49e+00	0	37	104	46137344	68	19393
2026-01-19 01:40:03.05	21.17	19.51	-48.2	-63.1	3.8	1.49e+00	0	37	104	46137344	68	19442
2026-01-19 01:40:04.06	21.10	19.64	-48.2	-63.1	3.8	1.49e+00	0	37	104	46137344	68	19447
2026-01-19 01:40:05.07	21.04	19.76	-48.2	-63.1	3.8	1.49e+00	0	37	104	46137344	68	19462
2026-01-19 01:40:06.07	20.97	19.89	-48.2	-63.0	3.8	1.49e+00	0	37	104	46137344	68	19389
2026-01-19 01:40:07.08	20.90	20.01	-48.2	-63.1	3.8	1.49e+00	0	37	104	46137344	68	19442
2026-01-19 01:40:08.09	20.83	20.14	-48.2	-63.1	3.8	1.49e+00	0	37	104	46137344	68	19400
2026-01-19 01:40:09.09	20.76	20.27	-48.2	-63.1	3.8	1.49e+00	0	37	104	46137344	68	19415
2026-01-19 01:40:10.10	20.69	20.40	-48.2	-63.1	3.8	1.49e+00	0	37	104	46137344	68	19449
2026-01-19 01:40:11.11	20.62	20.52	-48.2	-63.1	3.8	1.49e+00	0	37	104	46137344	68	19409
2026-01-19 01:40:12.12	20.54	20.65	-48.2	-63.1	3.8	1.49e+00	0	37	104	46137344	68	19421
2026-01-19 01:40:13.13	20.47	20.78	-48.2	-63.1	3.8	1.49e+00	0	37	104	46137344	68	19449
2026-01-19 01:40:14.14	20.40	20.91	-48.2	-63.1	3.8	1.49e+00	0	37	104	46137344	68	19433
2026-01-19 01:40:15.15	20.32	21.05	-48.2	-63.0	3.8	1.49e+00	0	37	104	46137344	68	19387
2026-01-19 01:40:16.16	20.25	21.18	-48.2	-63.1	3.8	1.49e+00	0	37	104	46137344	68	19481
2026-01-19 01:40:17.16	20.17	21.31	-48.2	-63.1	3.8	1.49e+00	0	37	104	46137344	68	19418
2026-01-19 01:40:18.17	20.10	21.44	-48.2	-63.1	3.8	1.49e+00	0	37	104	46137344	68	19468
2026-01-19 01:40:19.18	20.02	21.58	-48.2	-63.1	3.8	1.49e+00	0	37	104	46137344	68	19486
2026-01-19 01:40:20.19	19.94	21.71	-48.2	-63.1	3.8	1.49e+00	0	37	104	46137344	68	19461
2026-01-19 01:40:21.19	19.86	21.84	-48.2	-63.1	3.8	1.49e+00	0	37	104	46137344	68	19497
2026-01-19 01:40:22.20	19.78	21.98	-48.2	-63.1	3.8	1.49e+00	0	37	104	46137344	68	19489
2026-01-19 01:40:23.21	19.70	22.12	-48.2	-63.1	3.8	1.49e+00	0	37	104	46137344	68	19454
2026-01-19 01:40:24.22	19.62	22.25	-48.2	-63.1	3.8	1.49e+00	0	37	104	46137344	68	19494
2026-01-19 01:40:25.23	19.54	22.39	-48.2	-63.1	3.8	1.49e+00	0	37	104	46137344	68	19451
2026-01-19 01:40:26.24	19.46	22.53	-48.2	-63.1	3.8	1.49e+00	0	37	104	46137344	68	19515
2026-01-19 01:40:27.24	19.38	22.67	-48.2	-63.1	3.8	1.49e+00	0	37	104	46137344	68	19534
2026-01-19 01:40:28.25	19.29	22.81	-48.2	-63.1	3.8	1.49e+00	0	37	104	46137344	68	19499
2026-01-19 01:40:29.26	19.21	22.95	-48.2	-63.1	3.8	1.49e+00	0	37	104	46137344	68	19410
2026-01-19 01:40:30.27	19.12	23.09	-48.2	-63.1	3.8	1.49e+00	0	37	104	46137344	68	19457
2026-01-19 01:40:31.27	19.04	23.23	-48.2	-63.1	3.8	1.49e+00	0	37	104	46137344	68	19431
2026-01-19 01:40:32.28	18.95	23.37	-48.2	-63.1	3.8	1.49e+00	0	37	104	46137344	68	19494
2026-01-19 01:40:33.29	18.86	23.51	-48.2	-63.1	3.8	1.49e+00	0	37	104	46137344	68	19482
2026-01-19 01:40:34.30	18.78	23.66	-48.2	-63.1	3.8	1.49e+00	0	37	104	46137344	68	19462
2026-01-19 01:40:35.31	18.69	23.80	-48.2	-63.1	3.8	1.49e+00	0	37	104	46137344	68	19437
2026-01-19 01:40:36.32	18.60	23.95	-48.2	-63.1	3.8	1.49e+00	0	37	104	46137344	68	19439
2026-01-19 01:40:37.33	18.50	24.09	-48.2	-63.1	3.8	1.49e+00	0	37	104	46137344	68	19482
2026-01-19 01:40:38.34	18.41	24.24	-48.2	-63.1	3.8	1.49e+00	0	37	104	46137344	68	19474
2026-01-19 01:40:39.34	18.32	24.39	-48.2	-63.1	3.8	1.49e+00	0	37	104	46137344	68	19466
2026-01-19 01:40:40.35	18.23	24.54	-48.2	-63.1	3.8	1.49e+00	0	37	104	46137344	68	19441
2026-01-19 01:40:41.36	18.13	24.69	-48.2	-63.1	3.8	1.49e+00	0	37	104	46137344	68	19456
2026-01-19 01:40:42.37	18.03	24.83	-48.2	-63.1	3.8	1.49e+00	0	37	104	46137344	68	19462
2026-01-19 01:40:43.37	17.94	24.98	-48.2	-63.1	3.8	1.49e+00	0	37	104	46137344	68	19486
2026-01-19 01:40:44.38	17.84	25.14	-48.2	-63.1	3.8	1.49e+00	0	37	104	46137344	68	19441
2026-01-19 01:40:45.39	17.74	25.29	-48.2	-63.1	3.8	1.49e+00	0	37	104	46137344	68	19471
2026-01-19 01:40:46.40	17.64	25.44	-48.2	-63.1	3.8	1.49e+00	0	37	104	46137344	68	19496
2026-01-19 01:40:47.40	17.54	25.59	-48.2	-63.1	3.8	1.49e+00	0	37	104	46137344	68	19446
2026-01-19 01:40:48.41	17.44	25.75	-48.2	-63.1	3.8	1.49e+00	0	37	104	46137344	68	19519
2026-01-19 01:40:49.42	17.34	25.90	-48.2	-63.1	3.8	1.49e+00	0	37	104	46137344	68	19477
2026-01-19 01:40:50.42	17.24	26.06	-48.2	-63.1	3.8	1.49e+00	0	37	104	46137344	68	19517
2026-01-19 01:40:51.43	17.13	26.21	-48.2	-63.1	3.8	1.49e+00	0	37	104	46137344	68	19438
2026-01-19 01:40:52.44	17.02	26.37	-48.2	-63.1	3.8	1.49e+00	0	37	104	46137344	68	19484
2026-01-19 01:40:53.45	16.92	26.53	-48.2	-63.1	3.8	1.49e+00	0	37	104	46137344	68	19441
2026-01-19 01:40:54.46	16.81	26.69	-48.2	-63.1	3.8	1.49e+00	0	37	104	46137344	68	19436
2026-01-19 01:40:55.46	16.70	26.85	-48.2	-63.1	3.8	1.49e+00	0	37	104	46137344	68	19445
2026-01-19 01:40:56.47	16.59	27.01	-48.2	-63.1	3.8	1.49e+00	0	37	104	46137344	68	19478
2026-01-19 01:40:57.48	16.48	27.17	-48.2	-63.1	3.8	1.49e+00	0	37	104	46137344	68	19486
2026-01-19 01:40:58.49	16.37	27.34	-48.2	-63.1	3.8	1.49e+00	0	37	104	46137344	68	19461
2026-01-19 01:40:59.50	16.25	27.50	-48.2	-63.1	3.8	1.49e+00	0	37	104	46137344	68	19479
2026-01-19 01:41:00.50	16.14	27.66	-48.2	-63.1	3.8	1.49e+00	0	37	104	46137344	68	19509
2026-01-19 01:41:01.51	16.02	27.83	-48.2	-63.1	3.8	1.49e+00	0	36	104	46137344	68	19464
2026-01-19 01:41:02.52	15.90	27.99	-48.2	-63.1	3.8	1.49e+00	0	37	104	46137344	68	19475
2026-01-19 01:41:03.53	15.79	28.16	-48.2	-63.1	3.8	1.49e+00	0	37	104	46137344	68	19408
2026-01-19 01:41:04.54	15.67	28.33	-48.2	-63.1	3.8	1.49e+00	0	37	104	46137344	68	19475
2026-01-19 01:41:05.55	15.54	28.50	-48.2	-63.1	3.8	1.49e+00	0	37	104	46137344	68	19406
2026-01-19 01:41:06.56	15.42	28.67	-48.2	-63.1	3.8	1.49e+00	0	37	104	46137344	68	19439
2026-01-19 01:41:07.56	15.30	28.84	-48.2	-63.1	3.8	1.49e+00	0	37	104	46137344	68	19466
2026-01-19 01:41:08.57	15.17	29.01	-48.2	-63.1	3.8	1.49e+00	0	37	104	46137344	68	19462
2026-01-19 01:41:09.58	15.05	29.18	-48.2	-63.1	3.8	1.49e+00	0	37	104	46137344	68	19430
2026-01-19 01:41:10.59	14.92	29.35	-48.2	-63.1	3.8	1.49e+00	0	37	104	46137344	68	19480
2026-01-19 01:41:11.60	14.79	29.53	-48.2	-63.1	3.8	1.49e+00	0	37	104	46137344	68	19508
2026-01-19 01:41:12.60	14.66	29.70	-48.2	-63.1	3.8	1.49e+00	0	37	104	46137344	68	19455
2026-01-19 01:41:13.62	14.52	29.88	-48.2	-63.1	3.8	1.49e+00	0	37	104	46137344	68	19472
2026-01-19 01:41:14.62	14.39	30.05	-48.2	-63.1	3.8	1.49e+00	0	37	104	46137344	68	19477
2026-01-19 01:41:15.63	14.25	30.23	-48.2	-63.1	3.8	1.49e+00	0	37	104	46137344	68	19494
2026-01-19 01:41:16.64	14.12	30.41	-48.2	-63.1	3.8	1.49e+00	0	37	104	46137344	68	19482
2026-01-19 01:41:17.65	13.98	30.59	-48.2	-63.1	3.8	1.49e+00	0	37	104	46137344	68	19479
2026-01-19 01:41:18.66	13.84	30.77	-48.2	-63.1	3.8	1.49e+00	0	37	104	46137344	68	19473
2026-01-19 01:41:19.66	13.70	30.95	-48.2	-63.1	3.8	1.49e+00	0	37	104	46137344	68	19440
2026-01-19 01:41:20.67	13.55	31.13	-48.2	-63.1	3.8	1.49e+00	0	37	104	46137344	68	19509
2026-01-19 01:41:21.68	13.41	31.31	-48.2	-63.1	3.8	1.49e+00	0	37	104	46137344	68	19523
2026-01-19 01:41:22.69	13.26	31.50	-48.2	-63.1	3.8	1.49e+00	0	37	104	46137344	68	19455
2026-01-19 01:41:23.70	13.11	31.68	-48.2	-63.1	3.8	1.49e+00	0	37	104	46137344	68	19473
2026-01-19 01:41:24.71	12.96	31.87	-48.2	-63.1	3.8	1.49e+00	0	37	104	46137344	68	19511
2026-01-19 01:41:25.72	12.81	32.06	-48.2	-63.1	3.8	1.49e+00	0	37	104	46137344	68	19536
2026-01-19 01:41:26.72	12.66	32.24	-48.2	-63.1	3.8	1.49e+00	0	37	104	46137344	68	19460
2026-01-19 01:41:27.73	12.50	32.43	-48.2	-63.1	3.8	1.49e+00	0	37	104	46137344	68	19508
2026-01-19 01:41:28.74	12.34	32.62	-48.2	-63.1	3.8	1.49e+00	0	37	104	46137344	68	19470
2026-01-19 01:41:29.75	12.18	32.81	-48.2	-63.1	3.8	1.49e+00	0	37	104	46137344	68	19462
2026-01-19 01:41:30.76	12.02	33.00	-48.2	-63.1	3.8	1.49e+00	0	36	104	46137344	68	19485
2026-01-19 01:41:31.76	11.86	33.19	-48.2	-63.1	3.8	1.49e+00	0	37	104	46137344	68	19487
2026-01-19 01:41:32.77	11.69	33.39	-48.2	-63.1	3.8	1.49e+00	0	37	104	46137344	68	19510
2026-01-19 01:41:33.78	11.53	33.58	-48.2	-63.1	3.8	1.49e+00	0	37	104	46137344	68	19452
2026-01-19 01:41:34.79	11.36	33.78	-48.2	-63.1	3.8	1.49e+00	0	36	104	46137344	68	19501
2026-01-19 01:41:35.80	11.18	33.98	-48.2	-63.1	3.8	1.49e+00	0	37	104	46137344	68	19495
2026-01-19 01:41:36.81	11.01	34.17	-48.2	-63.1	3.8	1.49e+00	0	37	104	46137344	68	19502
2026-01-19 01:41:37.82	10.83	34.37	-48.2	-63.1	3.8	1.49e+00	0	37	104	46137344	68	19516
2026-01-19 01:41:38.82	10.66	34.57	-48.2	-63.1	3.8	1.49e+00	0	37	104	46137344	68	19462
2026-01-19 01:41:39.83	10.48	34.77	-48.2	-63.1	3.8	1.49e+00	0	37	104	46137344	68	19516
2026-01-19 01:41:40.84	10.29	34.97	-48.2	-63.1	3.8	1.49e+00	0	37	104	46137344	68	19485
2026-01-19 01:41:41.85	10.11	35.17	-48.2	-63.1	3.8	1.49e+00	0	37	104	46137344	68	19487
2026-01-19 01:41:42.86	9.92	35.38	-48.2	-63.1	3.8	1.49e+00	0	36	104	46137344	68	19497
2026-01-19 01:41:43.86	9.73	35.58	-48.2	-63.1	3.8	1.49e+00	0	37	104	46137344	68	19499
2026-01-19 01:41:44.87	9.54	35.78	-48.2	-63.1	3.8	1.49e+00	0	37	104	46137344	68	19474
2026-01-19 01:41:45.88	9.35	35.99	-48.2	-63.1	3.8	1.49e+00	0	37	104	46137344	68	19499
2026-01-19 01:41:46.88	9.15	36.19	-48.2	-63.1	3.8	1.49e+00	0	37	104	46137344	68	19460
2026-01-19 01:41:47.89	8.95	36.40	-48.2	-63.1	3.8	1.49e+00	0	37	104	46137344	68	19503
2026-01-19 01:41:48.90	8.75	36.61	-48.2	-63.1	3.8	1.49e+00	0	37	104	46137344	68	19480
2026-01-19 01:41:49.91	8.54	36.82	-48.2	-63.1	3.8	1.49e+00	0	37	104	46137344	68	19449
2026-01-19 01:41:50.92	8.34	37.03	-48.2	-63.1	3.8	1.49e+00	0	37	104	46137344	68	19510
2026-01-19 01:41:51.92	8.13	37.24	-48.2	-63.1	3.8	1.49e+00	0	37	104	46137344	68	19520
2026-01-19 01:41:52.93	7.91	37.45	-48.2	-63.1	3.8	1.49e+00	0	37	104	46137344	68	19507
2026-01-19 01:41:53.94	7.70	37.67	-48.2	-63.1	3.8	1.49e+00	0	36	104	46137344	68	19536
2026-01-19 01:41:54.95	7.48	37.88	-48.2	-63.1	3.8	1.49e+00	0	37	104	46137344	68	19489
2026-01-19 01:41:55.96	7.26	38.10	-48.2	-63.1	3.8	1.49e+00	0	37	104	46137344	68	19521
2026-01-19 01:41:56.96	7.03	38.31	-48.2	-63.1	3.8	1.49e+00	0	37	104	46137344	68	19464
2026-01-19 01:41:57.98	6.80	38.53	-48.2	-63.1	3.8	1.49e+00	0	37	104	46137344	68	19434
2026-01-19 01:41:58.98	6.57	38.75	-48.2	-63.1	3.8	1.49e+00	0	37	104	46137344	68	19457
2026-01-19 01:41:59.99	6.34	38.96	-48.2	-63.1	3.8	1.49e+00	0	37	104	46137344	68	19515
2026-01-19 01:42:01.00	6.10	39.18	-48.2	-63.1	3.8	1.49e+00	0	37	104	46137344	68	19458
2026-01-19 01:42:02.01	5.86	39.40	-48.2	-63.1	3.8	1.49e+00	0	37	104	46137344	68	19477
2026-01-19 01:42:03.02	5.62	39.62	-48.2	-63.1	3.8	1.49e+00	0	37	104	46137344	68	19532
2026-01-19 01:42:04.02	5.37	39.84	-48.2	-63.1	3.8	1.49e+00	0	37	104	46137344	68	19478
2026-01-19 01:42:05.03	5.12	40.07	-48.2	-63.1	3.8	1.49e+00	0	37	104	46137344	68	19484
2026-01-19 01:42:06.04	4.87	40.29	-48.2	-63.1	3.8	1.49e+00	0	37	104	46137344	68	19459
2026-01-19 01:42:07.04	4.61	40.51	-48.2	-63.1	3.8	1.49e+00	0	37	104	46137344	68	19464
2026-01-19 01:42:08.05	4.35	40.74	-48.2	-63.1	3.8	1.49e+00	0	37	104	46137344	68	19481
2026-01-19 01:42:09.06	4.08	40.96	-48.2	-63.1	3.8	1.49e+00	0	37	104	46137344	68	19456
2026-01-19 01:42:10.06	3.82	41.19	-48.2	-63.1	3.8	1.49e+00	0	37	104	46137344	68	19537
2026-01-19 01:42:11.07	3.54	41.41	-48.2	-63.1	3.8	1.49e+00	0	37	104	46137344	68	19443
2026-01-19 01:42:12.08	3.27	41.64	-48.2	-63.1	3.8	1.49e+00	0	37	104	46137344	68	19472
2026-01-19 01:42:13.09	2.98	41.87	-48.2	-63.1	3.8	1.49e+00	0	37	104	46137344	68	19534
2026-01-19 01:42:14.10	2.70	42.10	-48.2	-63.1	3.8	1.49e+00	0	37	104	46137344	68	19485
2026-01-19 01:42:15.10	2.41	42.33	-48.2	-63.1	3.8	1.49e+00	0	37	104	46137344	68	19505
2026-01-19 01:42:16.11	2.12	42.56	-48.2	-63.1	3.8	1.49e+00	0	37	104	46137344	68	19494
2026-01-19 01:42:17.12	1.82	42.79	-48.2	-63.1	3.8	1.49e+00	0	37	104	46137344	68	19459
2026-01-19 01:42:18.13	1.52	43.02	-48.2	-63.1	3.8	1.49e+00	0	37	104	46137344	68	19428
2026-01-19 01:42:19.13	1.22	43.25	-48.2	-63.1	3.8	1.49e+00	0	37	104	46137344	68	19484
2026-01-19 01:42:20.14	0.91	43.48	-48.2	-63.1	3.8	1.49e+00	0	36	104	46137344	68	19460
2026-01-19 01:42:21.15	0.59	43.71	-48.2	-63.1	3.8	1.49e+00	0	37	104	46137344	68	19445
2026-01-19 01:42:22.16	0.27	43.95	-48.2	-63.1	3.8	1.49e+00	0	37	104	46137344	68	19458
2026-01-19 01:42:23.17	359.94	44.18	-48.2	-63.1	3.8	1.49e+00	0	37	104	46137344	68	19490
2026-01-19 01:42:24.18	359.61	44.41	-48.2	-63.1	3.8	1.49e+00	0	37	104	46137344	68	19490
2026-01-19 01:42:25.19	359.28	44.65	-48.2	-63.1	3.8	1.49e+00	0	37	104	46137344	68	19414
2026-01-19 01:42:26.19	358.94	44.88	-48.2	-63.1	3.8	1.49e+00	0	37	104	46137344	68	19472
2026-01-19 01:42:27.20	358.60	45.11	-48.2	-63.1	3.8	1.49e+00	0	37	104	46137344	68	19497
2026-01-19 01:42:28.21	358.25	45.35	-48.2	-63.1	3.8	1.49e+00	0	37	104	46137344	68	19482
2026-01-19 01:42:29.22	357.89	45.58	-48.2	-63.1	3.8	1.49e+00	0	37	104	46137344	68	19491
2026-01-19 01:42:30.22	357.54	45.82	-48.2	-63.1	3.8	1.49e+00	0	37	104	46137344	68	19496
2026-01-19 01:42:31.23	357.17	46.05	-48.2	-63.1	3.8	1.49e+00	0	37	104	46137344	68	19446
2026-01-19 01:42:32.24	356.80	46.29	-48.2	-63.1	3.8	1.49e+00	0	37	104	46137344	68	19477
2026-01-19 01:42:33.25	356.42	46.52	-48.2	-63.1	3.8	1.49e+00	0	37	104	46137344	68	19470
2026-01-19 01:42:34.25	356.04	46.75	-48.2	-63.1	3.8	1.49e+00	0	37	104	46137344	68	19485
2026-01-19 01:42:35.26	355.65	46.99	-48.2	-63.1	3.8	1.49e+00	0	37	104	46137344	68	19474
2026-01-19 01:42:36.26	355.26	47.22	-48.2	-63.1	3.8	1.49e+00	0	37	104	46137344	68	19447
2026-01-19 01:42:37.27	354.86	47.46	-48.2	-63.1	3.8	1.49e+00	0	37	104	46137344	68	19499
2026-01-19 01:42:38.28	354.45	47.69	-48.2	-63.1	3.8	1.49e+00	0	37	104	46137344	68	19468
2026-01-19 01:42:39.29	354.04	47.93	-48.2	-63.1	3.8	1.49e+00	0	37	104	46137344	68	19467
2026-01-19 01:42:40.29	353.62	48.16	-48.2	-63.1	3.8	1.49e+00	0	37	104	46137344	68	19443
2026-01-19 01:42:41.30	353.20	48.39	-48.2	-63.1	3.8	1.49e+00	0	37	104	46137344	68	19443
2026-01-19 01:42:42.31	352.77	48.62	-48.2	-63.1	3.8	1.49e+00	0	37	104	46137344	68	19465
2026-01-19 01:42:43.32	352.33	48.86	-48.2	-63.1	3.8	1.49e+00	0	37	104	46137344	68	19480
2026-01-19 01:42:44.32	351.89	49.08	-48.2	-63.1	3.8	1.49e+00	0	37	104	46137344	68	19494
2026-01-19 01:42:45.33	351.43	49.32	-48.2	-63.1	3.8	1.49e+00	0	37	104	46137344	68	19474
2026-01-19 01:42:46.34	350.97	49.55	-48.2	-63.1	3.8	1.49e+00	0	37	104	46137344	68	19501
2026-01-19 01:42:47.35	350.51	49.77	-48.2	-63.1	3.8	1.49e+00	0	37	104	46137344	68	19493
2026-01-19 01:42:48.36	350.03	50.00	-48.2	-63.1	3.8	1.49e+00	0	37	104	46137344	68	19506
2026-01-19 01:42:49.36	349.56	50.23	-48.2	-63.1	3.8	1.49e+00	0	37	104	46137344	68	19422
2026-01-19 01:42:50.37	349.07	50.45	-48.2	-63.1	3.8	1.49e+00	0	37	104	46137344	68	19485
2026-01-19 01:42:51.38	348.57	50.68	-48.2	-63.1	3.8	1.49e+00	0	37	104	46137344	68	19503
2026-01-19 01:42:52.39	348.07	50.90	-48.2	-63.1	3.8	1.49e+00	0	37	104	46137344	68	19514
2026-01-19 01:42:53.40	347.56	51.13	-48.2	-63.1	3.8	1.49e+00	0	37	104	46137344	68	19466
2026-01-19 01:42:54.40	347.05	51.35	-48.2	-63.1	3.8	1.49e+00	0	37	104	46137344	68	19484
2026-01-19 01:42:55.41	346.52	51.57	-48.2	-63.1	3.8	1.49e+00	0	37	104	46137344	68	19461
2026-01-19 01:42:56.42	345.99	51.78	-48.2	-63.1	3.8	1.49e+00	0	37	104	46137344	68	19483
2026-01-19 01:42:57.43	345.45	52.00	-48.2	-63.1	3.8	1.49e+00	0	37	104	46137344	68	19503
2026-01-19 01:42:58.44	344.90	52.21	-48.2	-63.1	3.8	1.49e+00	0	37	104	46137344	68	19472
2026-01-19 01:42:59.45	344.34	52.43	-48.2	-63.1	3.8	1.49e+00	0	37	104	46137344	68	19510
2026-01-19 01:43:00.45	343.78	52.64	-48.2	-63.1	3.8	1.49e+00	0	37	104	46137344	68	19458
2026-01-19 01:43:01.46	343.21	52.85	-48.2	-63.1	3.8	1.49e+00	0	37	104	46137344	68	19472
2026-01-19 01:43:02.47	342.62	53.05	-48.2	-63.1	3.8	1.49e+00	0	37	104	46137344	68	19454
2026-01-19 01:43:03.48	342.03	53.26	-48.2	-63.1	3.8	1.49e+00	0	37	104	46137344	68	19441
2026-01-19 01:43:04.49	341.43	53.46	-48.2	-63.1	3.8	1.49e+00	0	37	104	46137344	68	19481
2026-01-19 01:43:05.49	340.83	53.66	-48.2	-63.1	3.8	1.49e+00	0	37	104	46137344	68	19503
2026-01-19 01:43:06.50	340.22	53.85	-48.2	-63.1	3.8	1.49e+00	0	37	104	46137344	68	19443
2026-01-19 01:43:07.51	339.59	54.05	-48.2	-63.1	3.8	1.49e+00	0	37	104	46137344	68	19469
2026-01-19 01:43:08.52	338.96	54.24	-48.2	-63.1	3.8	1.49e+00	0	37	104	46137344	68	19462
2026-01-19 01:43:09.52	338.33	54.43	-48.2	-63.1	3.8	1.49e+00	0	37	104	46137344	68	19486
2026-01-19 01:43:10.53	337.68	54.61	-48.2	-63.1	3.8	1.49e+00	0	37	104	46137344	68	19480
2026-01-19 01:43:11.54	337.02	54.80	-48.2	-63.1	3.8	1.49e+00	0	37	104	46137344	68	19496
2026-01-19 01:43:12.55	336.35	54.98	-48.2	-63.1	3.8	1.49e+00	0	37	104	46137344	68	19513
2026-01-19 01:43:13.56	335.68	55.15	-48.2	-63.1	3.8	1.49e+00	0	37	104	46137344	68	19446
2026-01-19 01:43:14.56	335.00	55.33	-48.2	-63.1	3.8	1.49e+00	0	37	104	46137344	68	19508
2026-01-19 01:43:15.57	334.31	55.50	-48.2	-63.1	3.8	1.49e+00	0	37	104	46137344	68	19494
2026-01-19 01:43:16.58	333.61	55.66	-48.2	-63.1	3.8	1.49e+00	0	37	104	46137344	68	19517
2026-01-19 01:43:17.59	332.90	55.82	-48.2	-63.1	3.8	1.49e+00	0	37	104	46137344	68	19457
2026-01-19 01:43:18.60	332.18	55.98	-48.2	-63.1	3.8	1.49e+00	0	37	104	46137344	68	19499
2026-01-19 01:43:19.60	331.47	56.13	-48.2	-63.1	3.8	1.49e+00	0	37	104	46137344	68	19467
2026-01-19 01:43:20.61	330.74	56.28	-48.2	-63.1	3.8	1.49e+00	0	37	104	46137344	68	19501
2026-01-19 01:43:21.62	329.99	56.43	-48.2	-63.1	3.8	1.49e+00	0	37	104	46137344	68	19445
2026-01-19 01:43:22.63	329.25	56.57	-48.2	-63.1	3.8	1.49e+00	0	37	104	46137344	68	19451
2026-01-19 01:43:23.64	328.49	56.71	-48.2	-63.1	3.8	1.49e+00	0	37	104	46137344	68	19513
2026-01-19 01:43:24.64	327.73	56.84	-48.2	-63.1	3.8	1.49e+00	0	37	104	46137344	68	19468
2026-01-19 01:43:25.65	326.96	56.97	-48.2	-63.1	3.8	1.49e+00	0	37	104	46137344	68	19478
2026-01-19 01:43:26.66	326.19	57.09	-48.2	-63.1	3.8	1.49e+00	0	37	104	46137344	68	19480
2026-01-19 01:43:27.67	325.40	57.21	-48.2	-63.1	3.8	1.49e+00	0	37	104	46137344	68	19436
2026-01-19 01:43:28.67	324.62	57.32	-48.2	-63.1	3.8	1.49e+00	0	37	104	46137344	68	19460
2026-01-19 01:43:29.68	323.82	57.43	-48.2	-63.1	3.8	1.49e+00	0	37	104	46137344	68	19469
2026-01-19 01:43:30.69	323.02	57.54	-48.2	-63.1	3.8	1.49e+00	0	37	104	46137344	68	19505
2026-01-19 01:43:31.70	322.21	57.63	-48.2	-63.1	3.8	1.49e+00	0	37	104	46137344	68	19432
2026-01-19 01:43:32.70	321.40	57.73	-48.2	-63.1	3.8	1.49e+00	0	37	104	46137344	68	19420
2026-01-19 01:43:33.71	320.58	57.81	-48.2	-63.1	3.8	1.49e+00	0	37	104	46137344	68	19502
2026-01-19 01:43:34.72	319.75	57.90	-48.2	-63.1	3.8	1.49e+00	0	37	104	46137344	68	19449
2026-01-19 01:43:35.73	318.92	57.97	-48.2	-63.1	3.8	1.49e+00	0	37	104	46137344	68	19454
2026-01-19 01:43:36.74	318.08	58.04	-48.2	-63.1	3.8	1.49e+00	0	37	104	46137344	68	19509
2026-01-19 01:43:37.74	317.25	58.11	-48.2	-63.1	3.8	1.49e+00	0	37	104	46137344	68	19489
2026-01-19 01:43:38.75	316.41	58.17	-48.2	-63.1	3.8	1.49e+00	0	37	104	46137344	68	19503
2026-01-19 01:43:39.76	315.56	58.22	-48.2	-63.1	3.8	1.49e+00	0	37	104	46137344	68	19489
2026-01-19 01:43:40.77	314.71	58.27	-48.2	-63.1	3.8	1.49e+00	0	37	104	46137344	68	19465
2026-01-19 01:43:41.78	313.85	58.31	-48.2	-63.1	3.8	1.49e+00	0	37	104	46137344	68	19485
2026-01-19 01:43:42.78	313.01	58.35	-48.2	-63.1	3.8	1.49e+00	0	37	104	46137344	68	19504
2026-01-19 01:43:43.79	312.15	58.37	-48.2	-63.1	3.8	1.49e+00	0	37	104	46137344	68	19498
2026-01-19 01:43:44.80	311.29	58.40	-48.2	-63.1	3.8	1.49e+00	0	37	104	46137344	68	19458
2026-01-19 01:43:45.80	310.43	58.42	-48.2	-63.1	3.8	1.49e+00	0	37	104	46137344	68	19449
2026-01-19 01:43:46.81	309.57	58.43	-48.2	-63.1	3.8	1.49e+00	0	37	104	46137344	68	19468
2026-01-19 01:43:47.82	308.71	58.43	-48.2	-63.1	3.8	1.49e+00	0	37	104	46137344	68	19483
2026-01-19 01:43:48.83	307.84	58.43	-48.2	-63.1	3.8	1.49e+00	0	37	104	46137344	68	19485
2026-01-19 01:43:49.84	306.98	58.43	-48.2	-63.1	3.8	1.49e+00	0	37	104	46137344	68	19461
2026-01-19 01:43:50.85	306.12	58.42	-48.2	-63.1	3.8	1.49e+00	0	37	104	46137344	68	19462
2026-01-19 01:43:51.86	305.26	58.40	-48.2	-63.1	3.8	1.49e+00	0	37	104	46137344	68	19482
2026-01-19 01:43:52.87	304.40	58.37	-48.2	-63.1	3.8	1.49e+00	0	37	104	46137344	68	19471
2026-01-19 01:43:53.87	303.54	58.34	-48.2	-63.1	3.8	1.49e+00	0	36	104	46137344	68	19499
2026-01-19 01:43:54.88	302.69	58.31	-48.2	-63.1	3.8	1.49e+00	0	37	104	46137344	68	19458
2026-01-19 01:43:55.89	301.83	58.26	-48.2	-63.1	3.8	1.49e+00	0	37	104	46137344	68	19469
2026-01-19 01:43:56.90	300.98	58.21	-48.2	-63.1	3.8	1.49e+00	0	37	104	46137344	68	19469
2026-01-19 01:43:57.91	300.14	58.16	-48.2	-63.1	3.8	1.49e+00	0	37	104	46137344	68	19426
2026-01-19 01:43:58.92	299.29	58.10	-48.2	-63.1	3.8	1.49e+00	0	37	104	46137344	68	19450
2026-01-19 01:43:59.92	298.46	58.04	-48.2	-63.1	3.8	1.49e+00	0	37	104	46137344	68	19498
2026-01-19 01:44:00.93	297.62	57.96	-48.2	-63.1	3.8	1.49e+00	0	37	104	46137344	68	19468
2026-01-19 01:44:01.94	296.79	57.89	-48.2	-63.1	3.8	1.49e+00	0	37	104	46137344	68	19462
2026-01-19 01:44:02.95	295.97	57.80	-48.2	-63.1	3.8	1.49e+00	0	37	104	46137344	68	19494
2026-01-19 01:44:03.96	295.14	57.72	-48.2	-63.1	3.8	1.49e+00	0	37	104	46137344	68	19465
2026-01-19 01:44:04.97	294.33	57.62	-48.2	-63.1	3.8	1.49e+00	0	37	104	46137344	68	19460
2026-01-19 01:44:05.97	293.53	57.52	-48.2	-63.1	3.8	1.49e+00	0	37	104	46137344	68	19467
2026-01-19 01:44:06.98	292.72	57.42	-48.2	-63.1	3.8	1.49e+00	0	37	104	46137344	68	19491
2026-01-19 01:44:07.99	291.93	57.31	-48.2	-63.1	3.8	1.49e+00	0	37	104	46137344	68	19436
2026-01-19 01:44:09.00	291.13	57.20	-48.2	-63.1	3.8	1.49e+00	0	37	104	46137344	68	19486
2026-01-19 01:44:10.00	290.36	57.08	-48.2	-63.1	3.8	1.49e+00	0	37	104	46137344	68	19409
2026-01-19 01:44:11.01	289.58	56.96	-48.2	-63.1	3.8	1.49e+00	0	37	104	46137344	68	19472
2026-01-19 01:44:12.02	288.81	56.83	-48.2	-63.1	3.8	1.49e+00	0	37	104	46137344	68	19469
2026-01-19 01:44:13.02	288.05	56.69	-48.2	-63.1	3.8	1.49e+00	0	37	104	46137344	68	19465
2026-01-19 01:44:14.03	287.30	56.56	-48.2	-63.1	3.8	1.49e+00	0	37	104	46137344	68	19444
2026-01-19 01:44:15.04	286.55	56.41	-48.2	-63.1	3.8	1.49e+00	0	37	104	46137344	68	19482
2026-01-19 01:44:16.05	285.81	56.27	-48.2	-63.1	3.8	1.49e+00	0	37	104	46137344	68	19471
2026-01-19 01:44:17.06	285.08	56.12	-48.2	-63.1	3.8	1.49e+00	0	37	104	46137344	68	19407
2026-01-19 01:44:18.07	284.35	55.96	-48.2	-63.1	3.8	1.49e+00	0	37	104	46137344	68	19455
2026-01-19 01:44:19.08	283.64	55.80	-48.2	-63.1	3.8	1.49e+00	0	37	104	46137344	68	19435
2026-01-19 01:44:20.08	282.94	55.64	-48.2	-63.1	3.8	1.49e+00	0	37	104	46137344	68	19495
2026-01-19 01:44:21.09	282.24	55.48	-48.2	-63.1	3.8	1.49e+00	0	37	104	46137344	68	19516
2026-01-19 01:44:22.10	281.55	55.30	-48.2	-63.1	3.8	1.49e+00	0	37	104	46137344	68	19473
2026-01-19 01:44:23.11	280.86	55.13	-48.2	-63.1	3.8	1.49e+00	0	37	104	46137344	68	19463
2026-01-19 01:44:24.11	280.20	54.96	-48.2	-63.1	3.8	1.49e+00	0	37	104	46137344	68	19463
2026-01-19 01:44:25.12	279.53	54.78	-48.2	-63.1	3.8	1.49e+00	0	37	104	46137344	68	19410
2026-01-19 01:44:26.13	278.87	54.59	-48.2	-63.1	3.8	1.49e+00	0	37	104	46137344	68	19510
2026-01-19 01:44:27.14	278.22	54.41	-48.2	-63.1	3.8	1.49e+00	0	37	104	46137344	68	19477
2026-01-19 01:44:28.15	277.58	54.22	-48.2	-63.1	3.8	1.49e+00	0	37	104	46137344	68	19517
2026-01-19 01:44:29.16	276.95	54.02	-48.2	-63.1	3.8	1.49e+00	0	37	104	46137344	68	19417
2026-01-19 01:44:30.16	276.33	53.83	-48.2	-63.1	3.8	1.49e+00	0	37	104	46137344	68	19395
2026-01-19 01:44:31.17	275.72	53.63	-48.2	-63.1	3.8	1.49e+00	0	37	104	46137344	68	19500
2026-01-19 01:44:32.18	275.11	53.43	-48.2	-63.1	3.8	1.49e+00	0	37	104	46137344	68	19458
2026-01-19 01:44:33.19	274.51	53.23	-48.2	-63.1	3.8	1.49e+00	0	37	104	46137344	68	19471
2026-01-19 01:44:34.20	273.92	53.02	-48.2	-63.1	3.8	1.49e+00	0	37	104	46137344	68	19458
2026-01-19 01:44:35.21	273.34	52.82	-48.2	-63.1	3.8	1.49e+00	0	37	104	46137344	68	19447
2026-01-19 01:44:36.22	272.77	52.61	-48.2	-63.1	3.8	1.49e+00	0	37	104	46137344	68	19462
2026-01-19 01:44:37.22	272.21	52.40	-48.2	-63.1	3.8	1.49e+00	0	37	104	46137344	68	19419
2026-01-19 01:44:38.23	271.65	52.18	-48.2	-63.1	3.8	1.49e+00	0	37	104	46137344	68	19522
2026-01-19 01:44:39.24	271.10	51.97	-48.2	-63.1	3.8	1.49e+00	0	37	104	46137344	68	19490
2026-01-19 01:44:40.25	270.56	51.75	-48.2	-63.1	3.8	1.49e+00	0	37	104	46137344	68	19470
2026-01-19 01:44:41.25	270.03	51.53	-48.2	-63.1	3.8	1.49e+00	0	37	104	46137344	68	19466
2026-01-19 01:44:42.27	269.50	51.31	-48.2	-63.1	3.8	1.49e+00	0	37	104	46137344	68	19491
2026-01-19 01:44:43.27	268.99	51.09	-48.2	-63.1	3.8	1.49e+00	0	37	104	46137344	68	19463
2026-01-19 01:44:44.28	268.48	50.87	-48.2	-63.1	3.8	1.49e+00	0	37	104	46137344	68	19440
2026-01-19 01:44:45.29	267.97	50.64	-48.2	-63.1	3.8	1.49e+00	0	37	104	46137344	68	19471
2026-01-19 01:44:46.29	267.48	50.42	-48.2	-63.1	3.8	1.49e+00	0	37	104	46137344	68	19511
2026-01-19 01:44:47.30	267.00	50.19	-48.2	-63.1	3.8	1.49e+00	0	37	104	46137344	68	19513
2026-01-19 01:44:48.31	266.51	49.97	-48.2	-63.1	3.8	1.49e+00	0	37	104	46137344	68	19495
2026-01-19 01:44:49.32	266.04	49.74	-48.2	-63.1	3.8	1.49e+00	0	37	104	46137344	68	19457
2026-01-19 01:44:50.33	265.58	49.51	-48.2	-63.1	3.8	1.49e+00	0	37	104	46137344	68	19459
2026-01-19 01:44:51.33	265.12	49.28	-48.2	-63.1	3.8	1.49e+00	0	37	104	46137344	68	19442
2026-01-19 01:44:52.34	264.67	49.05	-48.2	-63.1	3.8	1.49e+00	0	37	104	46137344	68	19481
2026-01-19 01:44:53.35	264.22	48.81	-48.2	-63.1	3.8	1.49e+00	0	37	104	46137344	68	19457
2026-01-19 01:44:54.36	263.78	48.58	-48.2	-63.1	3.8	1.49e+00	0	37	104	46137344	68	19456
2026-01-19 01:44:55.37	263.35	48.35	-48.2	-63.1	3.8	1.49e+00	0	37	104	46137344	68	19412
2026-01-19 01:44:56.38	262.93	48.12	-48.2	-63.1	3.8	1.49e+00	0	37	104	46137344	68	19448
2026-01-19 01:44:57.38	262.51	47.88	-48.2	-63.1	3.8	1.49e+00	0	37	104	46137344	68	19504
2026-01-19 01:44:58.39	262.10	47.65	-48.2	-63.1	3.8	1.49e+00	0	37	104	46137344	68	19458
2026-01-19 01:44:59.40	261.69	47.41	-48.2	-63.1	3.8	1.49e+00	0	37	104	46137344	68	19475
2026-01-19 01:45:00.41	261.29	47.18	-48.2	-63.1	3.8	1.49e+00	0	37	104	46137344	68	19447
2026-01-19 01:45:01.42	260.90	46.94	-48.2	-63.1	3.8	1.49e+00	0	37	104	46137344	68	19482
2026-01-19 01:45:02.43	260.51	46.71	-48.2	-63.1	3.8	1.49e+00	0	37	104	46137344	68	19490
2026-01-19 01:45:03.44	260.12	46.47	-48.2	-63.1	3.8	1.49e+00	0	37	104	46137344	68	19447
2026-01-19 01:45:04.44	259.75	46.24	-48.2	-63.1	3.8	1.49e+00	0	37	104	46137344	68	19454
2026-01-19 01:45:05.45	259.38	46.00	-48.2	-63.1	3.8	1.49e+00	0	37	104	46137344	68	19470
2026-01-19 01:45:06.46	259.01	45.77	-48.2	-63.1	3.8	1.49e+00	0	37	104	46137344	68	19480
2026-01-19 01:45:07.47	258.65	45.53	-48.2	-63.1	3.8	1.49e+00	0	37	104	46137344	68	19452
2026-01-19 01:45:08.48	258.30	45.30	-48.2	-63.1	3.8	1.49e+00	0	37	104	46137344	68	19505
2026-01-19 01:45:09.48	257.95	45.06	-48.2	-63.1	3.8	1.49e+00	0	37	104	46137344	68	19483
2026-01-19 01:45:10.49	257.61	44.83	-48.2	-63.1	3.8	1.49e+00	0	37	104	46137344	68	19465
2026-01-19 01:45:11.50	257.27	44.59	-48.2	-63.1	3.8	1.49e+00	0	37	104	46137344	68	19500
2026-01-19 01:45:12.51	256.93	44.36	-48.2	-63.1	3.8	1.49e+00	0	37	104	46137344	68	19434
2026-01-19 01:45:13.51	256.61	44.13	-48.2	-63.1	3.8	1.49e+00	0	37	104	46137344	68	19465
2026-01-19 01:45:14.52	256.28	43.89	-48.2	-63.1	3.8	1.49e+00	0	37	104	46137344	68	19408
2026-01-19 01:45:15.53	255.96	43.66	-48.2	-63.1	3.8	1.49e+00	0	37	104	46137344	68	19392
2026-01-19 01:45:16.54	255.64	43.43	-48.2	-63.1	3.8	1.49e+00	0	37	104	46137344	68	19504
2026-01-19 01:45:17.55	255.33	43.19	-48.2	-63.1	3.8	1.49e+00	0	37	104	46137344	68	19446
2026-01-19 01:45:18.56	255.03	42.96	-48.2	-63.1	3.8	1.49e+00	0	37	104	46137344	68	19507
2026-01-19 01:45:19.56	254.73	42.73	-48.2	-63.1	3.8	1.49e+00	0	37	104	46137344	68	19440
2026-01-19 01:45:20.57	254.43	42.50	-48.2	-63.1	3.8	1.49e+00	0	37	104	46137344	68	19467
2026-01-19 01:45:21.58	254.14	42.27	-48.2	-63.1	3.8	1.49e+00	0	37	104	46137344	68	19451
2026-01-19 01:45:22.59	253.85	42.04	-48.2	-63.1	3.8	1.49e+00	0	37	104	46137344	68	19490
2026-01-19 01:45:23.60	253.56	41.81	-48.2	-63.1	3.8	1.49e+00	0	37	104	46137344	68	19463
2026-01-19 01:45:24.60	253.29	41.58	-48.2	-63.1	3.8	1.49e+00	0	37	104	46137344	68	19445
2026-01-19 01:45:25.61	253.01	41.36	-48.2	-63.1	3.8	1.49e+00	0	37	104	46137344	68	19451
2026-01-19 01:45:26.62	252.74	41.13	-48.2	-63.1	3.8	1.49e+00	0	37	104	46137344	68	19501
2026-01-19 01:45:27.63	252.47	40.90	-48.2	-63.1	3.8	1.49e+00	0	37	104	46137344	68	19463
2026-01-19 01:45:28.63	252.20	40.68	-48.2	-63.1	3.8	1.49e+00	0	37	104	46137344	68	19492
2026-01-19 01:45:29.64	251.94	40.45	-48.2	-63.1	3.8	1.49e+00	0	37	104	46137344	68	19452
2026-01-19 01:45:30.65	251.68	40.23	-48.2	-63.1	3.8	1.49e+00	0	37	104	46137344	68	19467
2026-01-19 01:45:31.66	251.43	40.00	-48.2	-63.1	3.8	1.49e+00	0	37	104	46137344	68	19426
2026-01-19 01:45:32.66	251.18	39.78	-48.2	-63.1	3.8	1.49e+00	0	37	104	46137344	68	19489
2026-01-19 01:45:33.67	250.93	39.56	-48.2	-63.1	3.8	1.49e+00	0	37	104	46137344	68	19473
2026-01-19 01:45:34.68	250.69	39.34	-48.2	-63.1	3.8	1.49e+00	0	37	104	46137344	68	19437
2026-01-19 01:45:35.69	250.45	39.12	-48.2	-63.1	3.8	1.49e+00	0	37	104	46137344	68	19463
2026-01-19 01:45:36.70	250.21	38.90	-48.2	-63.1	3.8	1.49e+00	0	37	104	46137344	68	19494
2026-01-19 01:45:37.70	249.98	38.68	-48.2	-63.1	3.8	1.49e+00	0	37	104	46137344	68	19447
2026-01-19 01:45:38.71	249.75	38.46	-48.2	-63.1	3.8	1.49e+00	0	37	104	46137344	68	19424
2026-01-19 01:45:39.72	249.52	38.25	-48.2	-63.1	3.8	1.49e+00	0	37	104	46137344	68	19516
2026-01-19 01:45:40.73	249.29	38.03	-48.2	-63.1	3.8	1.49e+00	0	37	104	46137344	68	19474
2026-01-19 01:45:41.74	249.07	37.81	-48.2	-63.1	3.8	1.49e+00	0	37	104	46137344	68	19482
2026-01-19 01:45:42.74	248.85	37.60	-48.2	-63.1	3.8	1.49e+00	0	37	104	46137344	68	19453
2026-01-19 01:45:43.75	248.64	37.39	-48.2	-63.1	3.8	1.49e+00	0	37	104	46137344	68	19476
2026-01-19 01:45:44.76	248.42	37.18	-48.2	-63.1	3.8	1.49e+00	0	37	104	46137344	68	19486
2026-01-19 01:45:45.76	248.22	36.97	-48.2	-63.1	3.8	1.49e+00	0	37	104	46137344	68	19434
2026-01-19 01:45:46.77	248.01	36.75	-48.2	-63.1	3.8	1.49e+00	0	37	104	46137344	68	19481
2026-01-19 01:45:47.78	247.80	36.54	-48.2	-63.1	3.8	1.49e+00	0	37	104	46137344	68	19525
2026-01-19 01:45:48.79	247.60	36.34	-48.2	-63.1	3.8	1.49e+00	0	37	104	46137344	68	19460
2026-01-19 01:45:49.80	247.40	36.13	-48.2	-63.1	3.8	1.49e+00	0	37	104	46137344	68	19497
2026-01-19 01:45:50.81	247.20	35.92	-48.2	-63.1	3.8	1.49e+00	0	36	104	46137344	68	19450
2026-01-19 01:45:51.82	247.01	35.71	-48.2	-63.1	3.8	1.49e+00	0	37	104	46137344	68	19512
2026-01-19 01:45:52.82	246.82	35.51	-48.2	-63.1	3.8	1.49e+00	0	37	104	46137344	68	19473
2026-01-19 01:45:53.83	246.63	35.31	-48.2	-63.1	3.8	1.49e+00	0	37	104	46137344	68	19454
2026-01-19 01:45:54.84	246.44	35.10	-48.2	-63.1	3.8	1.49e+00	0	37	104	46137344	68	19440
2026-01-19 01:45:55.84	246.26	34.90	-48.2	-63.1	3.8	1.49e+00	0	36	104	46137344	68	19487
2026-01-19 01:45:56.85	246.07	34.70	-48.2	-63.1	3.8	1.49e+00	0	37	104	46137344	68	19462
2026-01-19 01:45:57.86	245.89	34.50	-48.2	-63.1	3.8	1.49e+00	0	37	104	46137344	68	19515
2026-01-19 01:45:58.87	245.71	34.30	-48.2	-63.1	3.8	1.49e+00	0	37	104	46137344	68	19460
2026-01-19 01:45:59.88	245.54	34.10	-48.2	-63.1	3.8	1.49e+00	0	37	104	46137344	68	19446
2026-01-19 01:46:00.88	245.37	33.90	-48.2	-63.1	3.8	1.49e+00	0	37	104	46137344	68	19469
2026-01-19 01:46:01.89	245.19	33.71	-48.2	-63.1	3.8	1.49e+00	0	37	104	46137344	68	19493
2026-01-19 01:46:02.90	245.02	33.51	-48.2	-63.1	3.8	1.49e+00	0	37	104	46137344	68	19433
2026-01-19 01:46:03.91	244.86	33.32	-48.2	-63.1	3.8	1.49e+00	0	37	104	46137344	68	19447
2026-01-19 01:46:04.92	244.69	33.12	-48.2	-63.1	3.8	1.49e+00	0	37	104	46137344	68	19454
2026-01-19 01:46:05.93	244.53	32.93	-48.2	-63.1	3.8	1.49e+00	0	37	104	46137344	68	19462
2026-01-19 01:46:06.94	244.37	32.74	-48.2	-63.1	3.8	1.49e+00	0	37	104	46137344	68	19491
2026-01-19 01:46:07.94	244.21	32.55	-48.2	-63.1	3.8	1.49e+00	0	37	104	46137344	68	19518
2026-01-19 01:46:08.95	244.05	32.36	-48.2	-63.1	3.8	1.49e+00	0	37	104	46137344	68	19489
2026-01-19 01:46:09.96	243.89	32.17	-48.2	-63.1	3.8	1.49e+00	0	37	104	46137344	68	19432
2026-01-19 01:46:10.96	243.74	31.98	-48.2	-63.1	3.8	1.49e+00	0	37	104	46137344	68	19476
2026-01-19 01:46:11.97	243.59	31.80	-48.2	-63.1	3.8	1.49e+00	0	37	104	46137344	68	19485
2026-01-19 01:46:12.98	243.44	31.61	-48.2	-63.1	3.8	1.49e+00	0	37	104	46137344	68	19493
2026-01-19 01:46:13.99	243.29	31.42	-48.2	-63.1	3.8	1.49e+00	0	37	104	46137344	68	19441
2026-01-19 01:46:15.00	243.14	31.24	-48.2	-63.1	3.8	1.49e+00	0	37	104	46137344	68	19461
2026-01-19 01:46:16.01	243.00	31.06	-48.2	-63.1	3.8	1.49e+00	0	37	104	46137344	68	19504
2026-01-19 01:46:17.02	242.85	30.87	-48.2	-63.1	3.8	1.49e+00	0	37	104	46137344	68	19450
2026-01-19 01:46:18.02	242.71	30.69	-48.2	-63.1	3.8	1.49e+00	0	37	104	46137344	68	19470
2026-01-19 01:46:19.03	242.57	30.51	-48.2	-63.1	3.8	1.49e+00	0	37	104	46137344	68	19472
2026-01-19 01:46:20.04	242.43	30.33	-48.2	-63.1	3.8	1.49e+00	0	37	104	46137344	68	19458
2026-01-19 01:46:21.05	242.29	30.15	-48.2	-63.1	3.8	1.49e+00	0	37	104	46137344	68	19525
2026-01-19 01:46:22.06	242.16	29.98	-48.2	-63.1	3.8	1.49e+00	0	37	104	46137344	68	19443
2026-01-19 01:46:23.06	242.02	29.80	-48.2	-63.1	3.8	1.49e+00	0	37	104	46137344	68	19465
2026-01-19 01:46:24.07	241.89	29.62	-48.2	-63.1	3.8	1.49e+00	0	37	104	46137344	68	19509
2026-01-19 01:46:25.08	241.76	29.45	-48.2	-63.1	3.8	1.49e+00	0	37	104	46137344	68	19438
2026-01-19 01:46:26.08	241.63	29.28	-48.2	-63.1	3.8	1.49e+00	0	37	104	46137344	68	19468
2026-01-19 01:46:27.10	241.50	29.10	-48.2	-63.1	3.8	1.49e+00	0	37	104	46137344	68	19485
2026-01-19 01:46:28.10	241.38	28.93	-48.2	-63.1	3.8	1.49e+00	0	37	104	46137344	68	19438
2026-01-19 01:46:29.11	241.25	28.76	-48.2	-63.1	3.8	1.49e+00	0	37	104	46137344	68	19452
2026-01-19 01:46:30.12	241.13	28.59	-48.2	-63.1	3.8	1.49e+00	0	37	104	46137344	68	19452
2026-01-19 01:46:31.13	241.00	28.42	-48.2	-63.1	3.8	1.49e+00	0	37	104	46137344	68	19452
2026-01-19 01:46:32.14	240.88	28.25	-48.2	-63.1	3.8	1.49e+00	0	37	104	46137344	68	19460
2026-01-19 01:46:33.15	240.76	28.08	-48.2	-63.1	3.8	1.49e+00	0	37	104	46137344	68	19439
2026-01-19 01:46:34.16	240.64	27.91	-48.2	-63.1	3.8	1.49e+00	0	37	104	46137344	68	19475
2026-01-19 01:46:35.16	240.52	27.75	-48.2	-63.1	3.8	1.49e+00	0	37	104	46137344	68	19482
2026-01-19 01:46:36.17	240.41	27.58	-48.2	-63.1	3.8	1.49e+00	0	37	104	46137344	68	19471
2026-01-19 01:46:37.18	240.29	27.42	-48.2	-63.1	3.8	1.49e+00	0	37	104	46137344	68	19474
2026-01-19 01:46:38.19	240.18	27.25	-48.2	-63.1	3.8	1.49e+00	0	37	104	46137344	68	19480
2026-01-19 01:46:39.20	240.07	27.09	-48.2	-63.1	3.8	1.49e+00	0	37	104	46137344	68	19463
2026-01-19 01:46:40.21	239.95	26.93	-48.2	-63.1	3.8	1.49e+00	0	37	104	46137344	68	19441
2026-01-19 01:46:41.21	239.84	26.77	-48.2	-63.1	3.8	1.49e+00	0	37	104	46137344	68	19425
2026-01-19 01:46:42.22	239.73	26.61	-48.2	-63.1	3.8	1.49e+00	0	37	104	46137344	68	19421
2026-01-19 01:46:43.23	239.63	26.45	-48.2	-63.1	3.8	1.49e+00	0	37	104	46137344	68	19514
2026-01-19 01:46:44.24	239.52	26.29	-48.2	-63.1	3.8	1.49e+00	0	37	104	46137344	68	19456
2026-01-19 01:46:45.25	239.41	26.13	-48.2	-63.1	3.8	1.49e+00	0	37	104	46137344	68	19467
2026-01-19 01:46:46.25	239.31	25.98	-48.2	-63.1	3.8	1.49e+00	0	37	104	46137344	68	19455
2026-01-19 01:46:47.26	239.20	25.82	-48.2	-63.1	3.8	1.49e+00	0	37	104	46137344	68	19475
2026-01-19 01:46:48.27	239.10	25.66	-48.2	-63.1	3.8	1.49e+00	0	37	104	46137344	68	19427
2026-01-19 01:46:49.28	239.00	25.51	-48.2	-63.1	3.8	1.49e+00	0	37	104	46137344	68	19458
2026-01-19 01:46:50.29	238.90	25.36	-48.2	-63.1	3.8	1.49e+00	0	37	104	46137344	68	19465
2026-01-19 01:46:51.30	238.80	25.20	-48.2	-63.1	3.8	1.49e+00	0	37	104	46137344	68	19429
2026-01-19 01:46:52.30	238.70	25.05	-48.2	-63.1	3.8	1.49e+00	0	37	104	46137344	68	19452
2026-01-19 01:46:53.31	238.60	24.90	-48.2	-63.1	3.8	1.49e+00	0	37	104	46137344	68	19464
2026-01-19 01:46:54.32	238.51	24.75	-48.2	-63.1	3.8	1.49e+00	0	37	104	46137344	68	19449
2026-01-19 01:46:55.33	238.41	24.60	-48.2	-63.1	3.8	1.49e+00	0	37	104	46137344	68	19469
2026-01-19 01:46:56.34	238.31	24.45	-48.2	-63.1	3.8	1.49e+00	0	37	104	46137344	68	19477
2026-01-19 01:46:57.35	238.22	24.30	-48.2	-63.1	3.8	1.49e+00	0	37	104	46137344	68	19473
2026-01-19 01:46:58.36	238.13	24.15	-48.2	-63.1	3.8	1.49e+00	0	37	104	46137344	68	19399
2026-01-19 01:46:59.36	238.04	24.01	-48.2	-63.1	3.8	1.49e+00	0	37	104	46137344	68	19423
2026-01-19 01:47:00.37	237.94	23.86	-48.2	-63.1	3.8	1.49e+00	0	37	104	46137344	68	19430
2026-01-19 01:47:01.38	237.85	23.72	-48.2	-63.1	3.8	1.49e+00	0	37	104	46137344	68	19489
2026-01-19 01:47:02.39	237.76	23.57	-48.2	-63.1	3.8	1.49e+00	0	37	104	46137344	68	19460
2026-01-19 01:47:03.39	237.68	23.43	-48.2	-63.1	3.8	1.49e+00	0	37	104	46137344	68	19489
2026-01-19 01:47:04.40	237.59	23.28	-48.2	-63.1	3.8	1.49e+00	0	37	104	46137344	68	19524
2026-01-19 01:47:05.41	237.50	23.14	-48.2	-63.1	3.8	1.49e+00	0	37	104	46137344	68	19455
2026-01-19 01:47:06.42	237.41	23.00	-48.2	-63.1	3.8	1.49e+00	0	37	104	46137344	68	19426
2026-01-19 01:47:07.42	237.33	22.86	-48.2	-63.1	3.8	1.49e+00	0	37	104	46137344	68	19449
2026-01-19 01:47:08.43	237.24	22.72	-48.2	-63.1	3.8	1.49e+00	0	37	104	46137344	68	19497
2026-01-19 01:47:09.44	237.16	22.58	-48.2	-63.1	3.8	1.49e+00	0	37	104	46137344	68	19452
2026-01-19 01:47:10.45	237.08	22.44	-48.2	-63.1	3.8	1.49e+00	0	37	104	46137344	68	19492
2026-01-19 01:47:11.46	236.99	22.30	-48.2	-63.1	3.8	1.49e+00	0	37	104	46137344	68	19476
2026-01-19 01:47:12.46	236.91	22.16	-48.2	-63.1	3.8	1.49e+00	0	37	104	46137344	68	19420
2026-01-19 01:47:13.47	236.83	22.03	-48.2	-63.1	3.8	1.49e+00	0	37	104	46137344	68	19507
2026-01-19 01:47:14.48	236.75	21.89	-48.2	-63.1	3.8	1.49e+00	0	37	104	46137344	68	19452
2026-01-19 01:47:15.49	236.67	21.76	-48.2	-63.1	3.8	1.49e+00	0	37	104	46137344	68	19422
2026-01-19 01:47:16.50	236.59	21.62	-48.2	-63.1	3.8	1.49e+00	0	37	104	46137344	68	19455
2026-01-19 01:47:17.50	236.52	21.49	-48.2	-63.1	3.8	1.49e+00	0	37	104	46137344	68	19429
2026-01-19 01:47:18.51	236.44	21.35	-48.2	-63.1	3.8	1.49e+00	0	37	104	46137344	68	19447
2026-01-19 01:47:19.52	236.36	21.22	-48.2	-63.1	3.8	1.49e+00	0	37	104	46137344	68	19455
2026-01-19 01:47:20.53	236.29	21.09	-48.2	-63.1	3.8	1.49e+00	0	37	104	46137344	68	19441
2026-01-19 01:47:21.54	236.21	20.96	-48.2	-63.1	3.8	1.49e+00	0	37	104	46137344	68	19436
2026-01-19 01:47:22.54	236.14	20.83	-48.2	-63.1	3.8	1.49e+00	0	37	104	46137344	68	19461
2026-01-19 01:47:23.55	236.06	20.69	-48.2	-63.1	3.8	1.49e+00	0	37	104	46137344	68	19429
2026-01-19 01:47:24.56	235.99	20.56	-48.2	-63.1	3.8	1.49e+00	0	37	104	46137344	68	19412
2026-01-19 01:47:25.56	235.92	20.44	-48.2	-63.1	3.8	1.49e+00	0	37	104	46137344	68	19399
2026-01-19 01:47:26.57	235.84	20.31	-48.2	-63.1	3.8	1.49e+00	0	37	104	46137344	68	19449
2026-01-19 01:47:27.58	235.77	20.18	-48.2	-63.1	3.8	1.49e+00	0	37	104	46137344	68	19461
2026-01-19 01:47:28.59	235.70	20.05	-48.2	-63.1	3.8	1.49e+00	0	37	104	46137344	68	19456
2026-01-19 01:47:29.60	235.63	19.92	-48.2	-63.1	3.8	1.49e+00	0	37	104	46137344	68	19479
2026-01-19 01:47:30.60	235.56	19.80	-48.2	-63.1	3.8	1.49e+00	0	37	104	46137344	68	19477
2026-01-19 01:47:31.61	235.49	19.67	-48.2	-63.1	3.8	1.49e+00	0	37	104	46137344	68	19465
2026-01-19 01:47:32.62	235.43	19.55	-48.2	-63.1	3.8	1.49e+00	0	37	104	46137344	68	19423
2026-01-19 01:47:33.63	235.36	19.42	-48.2	-63.1	3.8	1.49e+00	0	37	104	46137344	68	19465
2026-01-19 01:47:34.64	235.29	19.30	-48.2	-63.1	3.8	1.49e+00	0	37	104	46137344	68	19463
2026-01-19 01:47:35.64	235.22	19.18	-48.2	-63.1	3.8	1.49e+00	0	37	104	46137344	68	19465
2026-01-19 01:47:36.65	235.16	19.05	-48.2	-63.1	3.8	1.49e+00	0	37	104	46137344	68	19430
2026-01-19 01:47:37.66	235.09	18.93	-48.2	-63.1	3.8	1.49e+00	0	37	104	46137344	68	19427
2026-01-19 01:47:38.66	235.03	18.81	-48.2	-63.1	3.8	1.49e+00	0	37	104	46137344	68	19496
2026-01-19 01:47:39.67	234.96	18.69	-48.2	-63.1	3.8	1.49e+00	0	37	104	46137344	68	19433
2026-01-19 01:47:40.68	234.90	18.57	-48.2	-63.1	3.8	1.49e+00	0	37	104	46137344	68	19403
2026-01-19 01:47:41.69	234.84	18.45	-48.2	-63.0	3.8	1.49e+00	0	37	104	46137344	68	19366
2026-01-19 01:47:42.70	234.77	18.33	-48.2	-63.1	3.8	1.49e+00	0	37	104	46137344	68	19434
2026-01-19 01:47:43.70	234.71	18.21	-48.2	-63.1	3.8	1.49e+00	0	37	104	46137344	68	19479
2026-01-19 01:47:44.71	234.65	18.09	-48.2	-63.1	3.8	1.49e+00	0	37	104	46137344	68	19463
2026-01-19 01:47:45.72	234.59	17.97	-48.2	-63.1	3.8	1.49e+00	0	37	104	46137344	68	19408
2026-01-19 01:47:46.73	234.53	17.86	-48.2	-63.1	3.8	1.49e+00	0	37	104	46137344	68	19442
2026-01-19 01:47:47.74	234.47	17.74	-48.2	-63.1	3.8	1.49e+00	0	37	104	46137344	68	19453
2026-01-19 01:47:48.74	234.41	17.62	-48.2	-63.1	3.8	1.49e+00	0	37	104	46137344	68	19414
2026-01-19 01:47:49.75	234.35	17.51	-48.2	-63.1	3.8	1.49e+00	0	37	104	46137344	68	19412
2026-01-19 01:47:50.76	234.29	17.39	-48.2	-63.1	3.8	1.49e+00	0	37	104	46137344	68	19457
2026-01-19 01:47:51.77	234.23	17.28	-48.2	-63.1	3.8	1.49e+00	0	37	104	46137344	68	19422
2026-01-19 01:47:52.78	234.17	17.16	-48.2	-63.1	3.8	1.49e+00	0	37	104	46137344	68	19454
2026-01-19 01:47:53.79	234.11	17.05	-48.2	-63.1	3.8	1.49e+00	0	37	104	46137344	68	19451
2026-01-19 01:47:54.79	234.06	16.94	-48.2	-63.1	3.8	1.49e+00	0	37	104	46137344	68	19411
2026-01-19 01:47:55.80	234.00	16.82	-48.2	-63.1	3.8	1.49e+00	0	37	104	46137344	68	19423
2026-01-19 01:47:56.81	233.94	16.71	-48.2	-63.1	3.8	1.49e+00	0	37	104	46137344	68	19427
2026-01-19 01:47:57.82	233.89	16.60	-48.2	-63.1	3.8	1.49e+00	0	37	104	46137344	68	19458
2026-01-19 01:47:58.82	233.83	16.49	-48.2	-63.1	3.8	1.49e+00	0	37	104	46137344	68	19456
2026-01-19 01:47:59.83	233.78	16.38	-48.2	-63.1	3.8	1.49e+00	0	37	104	46137344	68	19481
2026-01-19 01:48:00.84	233.72	16.27	-48.2	-63.1	3.8	1.49e+00	0	37	104	46137344	68	19433
2026-01-19 01:48:01.85	233.67	16.16	-48.2	-63.1	3.8	1.49e+00	0	37	104	46137344	68	19508
2026-01-19 01:48:02.85	233.62	16.05	-48.2	-63.1	3.8	1.49e+00	0	37	104	46137344	68	19436
2026-01-19 01:48:03.86	233.56	15.94	-48.2	-63.1	3.8	1.49e+00	0	37	104	46137344	68	19415
2026-01-19 01:48:04.87	233.51	15.83	-48.2	-63.1	3.8	1.49e+00	0	37	104	46137344	68	19449
2026-01-19 01:48:05.88	233.46	15.72	-48.2	-63.1	3.8	1.49e+00	0	37	104	46137344	68	19428
2026-01-19 01:48:06.89	233.41	15.62	-48.2	-63.1	3.8	1.49e+00	0	37	104	46137344	68	19416
2026-01-19 01:48:07.90	233.35	15.51	-48.2	-63.1	3.8	1.49e+00	0	37	104	46137344	68	19443
2026-01-19 01:48:08.90	233.30	15.40	-48.2	-63.1	3.8	1.49e+00	0	37	104	46137344	68	19456
2026-01-19 01:48:09.91	233.25	15.30	-48.2	-63.1	3.8	1.49e+00	0	37	104	46137344	68	19498
