passes_logs/2026/01/19/R3.2S_Murmansk/R3.2S_Murmansk__20260119_023500_FENGYUN_3D_rec.log

#Pass ID: 20260119_023500_FENGYUN 3D
#Satellite: FENGYUN 3D
#Configuration: FENGYUN 3D
#almurnet v.1.7.20251203
#Start time: 2026-01-19 02:35:01

#Version: 2.2.20231116
#Station: R3.2S_Murmansk
#Location: 33.079688 lon 68.888172 lat
#TLE: 1 43010U 17072A   26018.59788810  .00000129  00000+0  82801-4 0  9992
#TLE: 2 43010  98.9937 350.4692 0002400 102.4643 257.6801 14.19696801423766

#Time	Az	El	Level	Level2	SNR	BER	BlckErr	Temp	State	Recorded	gain1	gain2
2026-01-19 02:35:01.20	24.42	2.07	-48.0	-59.9	3.8	8.45e-01	0	35	0	0	66	15100
2026-01-19 02:35:02.20	24.43	2.13	-48.0	-59.9	3.8	8.47e-01	0	35	104	0	66	15148
2026-01-19 02:35:03.21	24.44	2.19	-48.0	-59.9	3.8	8.46e-01	0	35	104	0	66	15127
2026-01-19 02:35:04.22	24.45	2.26	-48.0	-59.9	3.8	8.47e-01	0	35	104	0	66	15137
2026-01-19 02:35:05.22	24.46	2.32	-48.0	-59.9	3.8	8.46e-01	0	35	104	0	66	15110
2026-01-19 02:35:06.23	24.46	2.39	-48.0	-59.9	3.8	8.47e-01	0	35	104	0	66	15145
2026-01-19 02:35:07.24	24.47	2.45	-48.0	-59.9	3.8	8.46e-01	0	35	104	0	66	15071
2026-01-19 02:35:08.25	24.48	2.52	-48.0	-59.9	3.8	8.46e-01	0	35	104	0	66	15107
2026-01-19 02:35:09.26	24.49	2.58	-48.0	-59.9	3.8	8.46e-01	0	35	104	0	66	15132
2026-01-19 02:35:10.26	24.50	2.65	-48.0	-59.9	3.8	8.46e-01	0	35	104	0	66	15108
2026-01-19 02:35:11.27	24.51	2.72	-48.0	-59.9	3.8	8.47e-01	0	35	104	0	66	15133
2026-01-19 02:35:12.28	24.52	2.78	-48.0	-59.9	3.8	8.46e-01	0	35	104	0	66	15082
2026-01-19 02:35:13.29	24.53	2.85	-48.0	-59.9	3.8	8.47e-01	0	35	104	0	66	15106
2026-01-19 02:35:14.30	24.54	2.91	-48.0	-59.9	3.8	8.46e-01	0	35	104	0	66	15115
2026-01-19 02:35:15.30	24.55	2.98	-48.0	-59.9	3.8	8.45e-01	0	35	104	0	66	15129
2026-01-19 02:35:16.31	24.56	3.05	-48.0	-59.9	3.8	8.45e-01	0	35	104	0	66	15065
2026-01-19 02:35:17.32	24.57	3.11	-48.0	-59.9	3.8	8.47e-01	0	35	104	0	66	15059
2026-01-19 02:35:18.33	24.58	3.18	-48.0	-59.9	3.8	8.45e-01	0	35	104	0	66	15053
2026-01-19 02:35:19.33	24.59	3.25	-48.0	-59.9	3.8	8.46e-01	0	35	104	0	66	15063
2026-01-19 02:35:20.34	24.60	3.31	-48.0	-59.9	3.8	8.46e-01	0	35	104	0	66	15075
2026-01-19 02:35:21.35	24.61	3.38	-48.0	-59.9	3.8	8.46e-01	0	35	104	0	66	15088
2026-01-19 02:35:22.36	24.62	3.45	-48.0	-59.9	3.8	8.46e-01	0	36	104	0	66	15079
2026-01-19 02:35:23.37	24.63	3.52	-48.0	-59.9	3.8	8.46e-01	0	35	104	0	66	15113
2026-01-19 02:35:24.38	24.64	3.58	-48.0	-59.9	3.8	8.46e-01	0	36	104	0	66	15064
2026-01-19 02:35:25.38	24.65	3.65	-48.0	-59.8	3.8	8.46e-01	0	36	104	0	66	15043
2026-01-19 02:35:26.39	24.66	3.72	-48.0	-59.8	3.8	8.47e-01	0	36	104	0	66	15027
2026-01-19 02:35:27.40	24.67	3.79	-48.0	-59.8	3.8	8.46e-01	0	36	104	0	66	15011
2026-01-19 02:35:28.41	24.68	3.86	-48.0	-59.9	3.8	8.46e-01	0	36	104	0	66	15072
2026-01-19 02:35:29.42	24.69	3.93	-48.0	-59.8	3.8	8.47e-01	0	36	104	0	66	15025
2026-01-19 02:35:30.42	24.70	3.99	-48.0	-59.8	3.8	8.46e-01	0	36	104	0	66	15021
2026-01-19 02:35:31.43	24.71	4.06	-48.0	-59.8	3.8	8.46e-01	0	36	104	0	66	15051
2026-01-19 02:35:32.44	24.72	4.13	-48.0	-59.8	3.8	8.46e-01	0	36	104	0	66	15047
2026-01-19 02:35:33.45	24.74	4.20	-48.0	-59.9	3.8	8.45e-01	0	36	104	0	66	15111
2026-01-19 02:35:34.46	24.75	4.27	-48.0	-59.9	3.8	8.46e-01	0	36	104	0	66	15109
2026-01-19 02:35:35.46	24.76	4.34	-48.0	-59.9	3.8	8.45e-01	0	36	104	0	66	15071
2026-01-19 02:35:36.47	24.77	4.41	-48.0	-59.9	3.8	8.47e-01	0	36	104	0	66	15064
2026-01-19 02:35:37.48	24.78	4.48	-48.0	-59.9	3.8	8.45e-01	0	36	104	0	66	15108
2026-01-19 02:35:38.49	24.79	4.55	-48.0	-59.9	3.8	8.45e-01	0	36	104	0	66	15138
2026-01-19 02:35:39.50	24.80	4.62	-48.0	-59.9	3.8	8.47e-01	0	36	104	0	66	15117
2026-01-19 02:35:40.50	24.81	4.69	-48.0	-59.9	3.8	8.45e-01	0	36	104	0	66	15119
2026-01-19 02:35:41.51	24.82	4.76	-48.0	-59.9	3.8	8.47e-01	0	36	104	0	66	15116
2026-01-19 02:35:42.52	24.83	4.84	-48.0	-59.9	3.8	8.46e-01	0	36	104	0	66	15063
2026-01-19 02:35:43.53	24.84	4.91	-48.0	-59.9	3.8	8.46e-01	0	36	104	0	66	15119
2026-01-19 02:35:44.54	24.85	4.98	-48.0	-59.9	3.8	8.47e-01	0	36	104	0	66	15129
2026-01-19 02:35:45.54	24.86	5.05	-48.0	-59.9	3.8	8.47e-01	0	36	104	0	66	15086
2026-01-19 02:35:46.55	24.87	5.12	-48.0	-59.9	3.8	8.46e-01	0	36	104	0	66	15067
2026-01-19 02:35:47.56	24.88	5.19	-48.0	-59.9	3.8	8.47e-01	0	36	104	0	66	15071
2026-01-19 02:35:48.57	24.89	5.27	-48.0	-59.9	3.8	8.45e-01	0	36	104	0	66	15081
2026-01-19 02:35:49.58	24.90	5.34	-48.0	-59.8	3.8	8.46e-01	0	36	104	0	66	15034
2026-01-19 02:35:50.59	24.92	5.41	-48.0	-59.8	3.8	8.46e-01	0	36	104	0	66	15001
2026-01-19 02:35:51.60	24.93	5.48	-48.0	-59.8	3.8	8.47e-01	0	36	104	0	66	14994
2026-01-19 02:35:52.60	24.94	5.56	-48.0	-59.8	3.8	8.46e-01	0	36	104	0	66	14951
2026-01-19 02:35:53.61	24.95	5.63	-48.0	-59.8	3.8	8.48e-01	0	36	104	0	66	14921
2026-01-19 02:35:54.62	24.96	5.70	-48.0	-59.8	3.8	8.46e-01	0	36	104	0	66	14999
2026-01-19 02:35:55.63	24.97	5.78	-48.0	-59.9	3.8	8.47e-01	0	36	104	0	66	15053
2026-01-19 02:35:56.64	24.98	5.85	-48.0	-59.8	3.8	8.46e-01	0	36	104	0	66	14989
2026-01-19 02:35:57.64	24.99	5.92	-48.0	-59.8	3.8	8.46e-01	0	36	104	0	66	15030
2026-01-19 02:35:58.65	25.00	6.00	-48.0	-59.8	3.8	8.46e-01	0	36	104	0	66	15020
2026-01-19 02:35:59.66	25.01	6.07	-48.0	-59.8	3.8	8.47e-01	0	36	104	0	66	15043
2026-01-19 02:36:00.67	25.03	6.15	-48.0	-59.8	3.8	8.45e-01	0	36	104	0	66	15022
2026-01-19 02:36:01.68	25.04	6.22	-48.0	-59.8	3.8	8.46e-01	0	36	104	0	66	15039
2026-01-19 02:36:02.68	25.05	6.30	-48.0	-59.8	3.8	8.46e-01	0	36	104	0	66	15033
2026-01-19 02:36:03.69	25.06	6.37	-48.0	-59.9	3.8	8.46e-01	0	36	104	0	66	15071
2026-01-19 02:36:04.70	25.07	6.45	-48.0	-59.9	3.8	8.46e-01	0	36	104	0	66	15056
2026-01-19 02:36:05.71	25.08	6.52	-48.0	-59.8	3.8	8.46e-01	0	36	104	0	66	15023
2026-01-19 02:36:06.72	25.09	6.60	-48.0	-59.8	3.8	8.46e-01	0	36	104	0	66	15016
2026-01-19 02:36:07.72	25.10	6.68	-48.0	-59.8	3.8	8.45e-01	0	36	104	0	66	14996
2026-01-19 02:36:08.73	25.12	6.75	-48.0	-59.8	3.8	8.47e-01	0	36	104	0	66	14973
2026-01-19 02:36:09.74	25.13	6.83	-48.0	-59.8	3.8	8.46e-01	0	36	104	0	66	15019
2026-01-19 02:36:10.74	25.14	6.91	-48.0	-59.8	3.8	8.45e-01	0	36	104	0	66	14980
2026-01-19 02:36:11.75	25.15	6.98	-48.0	-59.8	3.8	8.47e-01	0	36	104	0	66	15003
2026-01-19 02:36:12.76	25.16	7.06	-48.0	-59.8	3.8	8.47e-01	0	36	104	0	66	14961
2026-01-19 02:36:13.77	25.17	7.14	-48.0	-59.8	3.8	8.47e-01	0	36	104	0	66	14993
2026-01-19 02:36:14.78	25.19	7.22	-48.0	-59.8	3.8	8.46e-01	0	36	104	0	66	14961
2026-01-19 02:36:15.78	25.20	7.29	-48.0	-59.8	3.8	8.47e-01	0	36	104	0	66	15031
2026-01-19 02:36:16.79	25.21	7.37	-48.0	-59.8	3.8	8.46e-01	0	36	104	0	66	15011
2026-01-19 02:36:17.80	25.22	7.45	-48.0	-59.8	3.8	8.46e-01	0	36	104	0	66	14990
2026-01-19 02:36:18.81	25.23	7.53	-48.0	-59.9	3.8	8.46e-01	0	36	104	0	66	15082
2026-01-19 02:36:19.82	25.24	7.61	-48.0	-59.9	3.8	8.46e-01	0	36	104	0	66	15064
2026-01-19 02:36:20.83	25.26	7.69	-48.0	-59.9	3.8	8.46e-01	0	36	104	0	66	15077
2026-01-19 02:36:21.83	25.27	7.77	-48.0	-59.9	3.8	8.46e-01	0	36	104	0	66	15128
2026-01-19 02:36:22.84	25.28	7.85	-48.0	-59.9	3.8	8.46e-01	0	36	104	0	66	15156
2026-01-19 02:36:23.85	25.29	7.93	-48.0	-59.9	3.8	8.46e-01	0	36	104	0	66	15140
2026-01-19 02:36:24.86	25.30	8.01	-48.0	-59.9	3.8	8.47e-01	0	36	104	0	66	15087
2026-01-19 02:36:25.86	25.32	8.09	-48.0	-59.9	3.8	8.45e-01	0	36	104	0	66	15125
2026-01-19 02:36:26.87	25.33	8.17	-48.0	-59.9	3.8	8.47e-01	0	36	104	0	66	15142
2026-01-19 02:36:27.88	25.34	8.25	-48.0	-59.9	3.8	8.45e-01	0	36	104	0	66	15076
2026-01-19 02:36:28.89	25.35	8.33	-48.0	-59.9	3.8	8.45e-01	0	36	104	0	66	15107
2026-01-19 02:36:29.90	25.37	8.41	-48.0	-59.9	3.8	8.46e-01	0	36	104	0	66	15094
2026-01-19 02:36:30.90	25.38	8.49	-48.0	-59.9	3.8	8.46e-01	0	36	104	0	66	15092
2026-01-19 02:36:31.91	25.39	8.58	-48.0	-59.9	3.8	8.45e-01	0	36	104	0	66	15064
2026-01-19 02:36:32.92	25.40	8.66	-48.0	-59.9	3.8	8.47e-01	0	36	104	0	66	15062
2026-01-19 02:36:33.93	25.42	8.74	-48.0	-59.9	3.8	8.46e-01	0	36	104	0	66	15082
2026-01-19 02:36:34.94	25.43	8.83	-48.0	-59.9	3.8	8.47e-01	0	36	104	0	66	15113
2026-01-19 02:36:35.94	25.44	8.91	-48.0	-59.9	3.8	8.46e-01	0	36	104	0	66	15063
2026-01-19 02:36:36.95	25.45	8.99	-48.0	-59.9	3.8	8.47e-01	0	36	104	0	66	15131
2026-01-19 02:36:37.96	25.47	9.08	-48.0	-59.9	3.8	8.46e-01	0	36	104	0	66	15172
2026-01-19 02:36:38.96	25.48	9.16	-48.0	-59.9	3.8	8.46e-01	0	36	104	0	66	15144
2026-01-19 02:36:39.97	25.49	9.24	-48.0	-59.9	3.8	8.47e-01	0	36	104	0	66	15094
2026-01-19 02:36:40.98	25.50	9.33	-48.0	-59.9	3.8	8.46e-01	0	36	104	0	66	15056
2026-01-19 02:36:41.99	25.52	9.41	-48.0	-59.9	3.8	8.46e-01	0	36	104	0	66	15084
2026-01-19 02:36:43.00	25.53	9.50	-48.0	-59.9	3.8	8.45e-01	0	36	104	0	66	15113
2026-01-19 02:36:44.01	25.54	9.58	-48.0	-59.9	3.8	8.45e-01	0	36	104	0	66	15086
2026-01-19 02:36:45.02	25.56	9.67	-48.0	-59.9	3.8	8.45e-01	0	36	104	0	66	15068
2026-01-19 02:36:46.02	25.57	9.76	-48.0	-59.9	3.8	8.46e-01	0	36	104	0	66	15159
2026-01-19 02:36:47.03	25.58	9.84	-48.0	-59.9	3.8	8.46e-01	0	36	104	0	66	15101
2026-01-19 02:36:48.04	25.60	9.93	-48.0	-59.9	3.8	8.46e-01	0	36	104	0	66	15129
2026-01-19 02:36:49.05	25.61	10.02	-48.0	-59.9	3.8	8.46e-01	0	36	104	0	66	15098
2026-01-19 02:36:50.06	25.62	10.10	-48.0	-59.9	3.8	8.46e-01	0	36	104	0	66	15057
2026-01-19 02:36:51.06	25.63	10.19	-48.0	-59.9	3.8	8.47e-01	0	36	104	0	66	15091
2026-01-19 02:36:52.07	25.65	10.28	-48.0	-59.9	3.8	8.46e-01	0	36	104	0	66	15080
2026-01-19 02:36:53.09	25.66	10.37	-48.0	-59.9	3.8	8.47e-01	0	37	104	0	66	15061
2026-01-19 02:36:54.09	25.68	10.46	-48.0	-59.9	3.8	8.46e-01	0	36	104	0	66	15081
2026-01-19 02:36:55.10	25.69	10.54	-48.0	-59.9	3.8	8.46e-01	0	36	104	0	66	15104
2026-01-19 02:36:56.11	25.70	10.63	-48.0	-59.9	3.8	8.47e-01	0	36	104	0	66	15057
2026-01-19 02:36:57.12	25.72	10.72	-48.0	-59.8	3.8	8.46e-01	0	36	104	0	66	15049
2026-01-19 02:36:58.12	25.73	10.81	-48.0	-59.9	3.8	8.47e-01	0	36	104	0	66	15109
2026-01-19 02:36:59.13	25.74	10.90	-48.0	-59.9	3.8	8.47e-01	0	36	104	0	66	15112
2026-01-19 02:37:00.14	25.76	10.99	-48.0	-59.9	3.8	8.45e-01	0	36	104	0	66	15061
2026-01-19 02:37:01.15	25.77	11.09	-48.0	-59.9	3.8	8.47e-01	0	36	104	0	66	15095
2026-01-19 02:37:02.16	25.78	11.18	-48.0	-59.9	3.8	8.46e-01	0	36	104	0	66	15087
2026-01-19 02:37:03.17	25.80	11.27	-48.0	-59.9	3.8	8.45e-01	0	36	104	0	66	15087
2026-01-19 02:37:04.17	25.81	11.36	-48.0	-59.9	3.8	8.45e-01	0	36	104	0	66	15111
2026-01-19 02:37:05.18	25.83	11.45	-48.0	-59.9	3.8	8.46e-01	0	36	104	0	66	15110
2026-01-19 02:37:06.19	25.84	11.54	-48.1	-59.9	3.8	8.47e-01	0	36	104	0	66	15105
2026-01-19 02:37:07.20	25.86	11.64	-48.0	-59.8	3.8	8.47e-01	0	36	104	0	66	15044
2026-01-19 02:37:08.20	25.87	11.73	-48.0	-59.9	3.8	8.46e-01	0	36	104	0	66	15076
2026-01-19 02:37:09.21	25.88	11.82	-48.1	-59.9	3.8	8.47e-01	0	36	104	0	66	15138
2026-01-19 02:37:10.22	25.90	11.92	-48.0	-59.9	3.8	8.45e-01	0	36	104	0	66	15145
2026-01-19 02:37:11.23	25.91	12.01	-48.1	-59.9	3.8	8.45e-01	0	36	104	0	66	15133
2026-01-19 02:37:12.24	25.93	12.11	-48.0	-59.9	3.8	8.45e-01	0	36	104	0	66	15119
2026-01-19 02:37:13.24	25.94	12.20	-48.0	-59.9	3.8	8.47e-01	0	36	104	0	66	15126
2026-01-19 02:37:14.25	25.96	12.30	-48.0	-59.9	3.8	8.47e-01	0	36	104	0	66	15091
2026-01-19 02:37:15.26	25.97	12.39	-48.0	-59.9	3.8	8.46e-01	0	36	104	0	66	15123
2026-01-19 02:37:16.27	25.99	12.49	-48.0	-59.9	3.8	8.45e-01	0	36	104	0	66	15108
2026-01-19 02:37:17.28	26.00	12.59	-48.1	-59.9	3.8	8.46e-01	0	36	104	0	66	15168
2026-01-19 02:37:18.28	26.02	12.68	-48.0	-59.9	3.8	8.46e-01	0	37	104	0	66	15079
2026-01-19 02:37:19.29	26.03	12.78	-48.0	-59.9	3.8	8.46e-01	0	37	104	0	66	15121
2026-01-19 02:37:20.30	26.05	12.88	-48.0	-59.9	3.8	8.46e-01	0	37	104	0	66	15107
2026-01-19 02:37:21.31	26.06	12.98	-48.0	-59.9	3.8	8.46e-01	0	36	104	0	66	15064
2026-01-19 02:37:22.31	26.08	13.07	-48.0	-59.9	3.8	8.47e-01	0	36	104	0	66	15055
2026-01-19 02:37:23.32	26.09	13.17	-48.0	-59.9	3.8	8.47e-01	0	36	104	0	66	15117
2026-01-19 02:37:24.33	26.11	13.27	-48.0	-59.9	3.8	8.45e-01	0	37	104	0	66	15100
2026-01-19 02:37:25.34	26.12	13.37	-48.1	-59.9	3.8	8.47e-01	0	37	104	0	66	15081
2026-01-19 02:37:26.35	26.14	13.47	-48.0	-59.9	3.8	8.47e-01	0	37	104	0	66	15077
2026-01-19 02:37:27.35	26.15	13.57	-48.0	-59.9	3.8	8.47e-01	0	36	104	0	66	15100
2026-01-19 02:37:28.36	26.17	13.67	-48.0	-59.9	3.8	8.46e-01	0	36	104	0	66	15125
2026-01-19 02:37:29.37	26.18	13.78	-48.0	-59.9	3.8	8.46e-01	0	37	104	0	66	15135
2026-01-19 02:37:30.38	26.20	13.88	-48.0	-59.9	3.8	8.45e-01	0	37	104	0	66	15104
2026-01-19 02:37:31.38	26.22	13.98	-48.0	-59.9	3.8	8.48e-01	0	37	104	0	66	15154
2026-01-19 02:37:32.39	26.23	14.08	-48.0	-59.9	3.8	8.47e-01	0	37	104	0	66	15141
2026-01-19 02:37:33.40	26.25	14.19	-48.0	-59.9	3.8	8.45e-01	0	37	104	0	66	15140
2026-01-19 02:37:34.41	26.26	14.29	-48.0	-59.9	3.8	8.45e-01	0	37	104	0	66	15187
2026-01-19 02:37:35.42	26.28	14.39	-48.0	-59.9	3.8	8.47e-01	0	37	104	0	66	15112
2026-01-19 02:37:36.42	26.30	14.50	-48.0	-59.9	3.8	8.47e-01	0	37	104	0	66	15126
2026-01-19 02:37:37.43	26.31	14.60	-48.0	-59.9	3.8	8.47e-01	0	37	104	0	66	15108
2026-01-19 02:37:38.44	26.33	14.71	-48.0	-59.9	3.8	8.46e-01	0	37	104	0	66	15115
2026-01-19 02:37:39.45	26.35	14.81	-48.0	-59.9	3.8	8.46e-01	0	37	104	0	66	15065
2026-01-19 02:37:40.46	26.36	14.92	-48.0	-59.9	3.8	8.47e-01	0	37	104	0	66	15166
2026-01-19 02:37:41.46	26.38	15.03	-48.0	-59.9	3.8	8.47e-01	0	37	104	0	66	15096
2026-01-19 02:37:42.47	26.40	15.13	-48.0	-59.9	3.8	8.47e-01	0	37	104	0	66	15080
2026-01-19 02:37:43.48	26.41	15.24	-48.0	-59.9	3.8	8.46e-01	0	37	104	0	66	15092
2026-01-19 02:37:44.49	26.43	15.35	-48.0	-59.9	3.8	8.46e-01	0	37	104	0	66	15087
2026-01-19 02:37:45.50	26.45	15.46	-48.0	-59.8	3.8	8.46e-01	0	36	104	0	66	15028
2026-01-19 02:37:46.50	26.47	15.57	-48.0	-59.9	3.8	8.45e-01	0	37	104	0	66	15127
2026-01-19 02:37:47.51	26.48	15.68	-48.0	-59.9	3.8	8.45e-01	0	37	104	0	66	15157
2026-01-19 02:37:48.52	26.50	15.79	-48.0	-59.9	3.8	8.46e-01	0	37	104	0	66	15077
2026-01-19 02:37:49.53	26.52	15.90	-48.0	-59.9	3.8	8.45e-01	0	37	104	0	66	15130
2026-01-19 02:37:50.54	26.54	16.01	-48.0	-59.9	3.8	8.46e-01	0	36	104	0	66	15126
2026-01-19 02:37:51.54	26.55	16.12	-48.0	-59.9	3.8	8.46e-01	0	36	104	0	66	15178
2026-01-19 02:37:52.55	26.57	16.23	-48.0	-59.9	3.8	8.46e-01	0	37	104	0	66	15080
2026-01-19 02:37:53.56	26.59	16.35	-48.0	-59.9	3.8	8.45e-01	0	37	104	0	66	15133
2026-01-19 02:37:54.57	26.61	16.46	-48.0	-59.9	3.8	8.45e-01	0	36	104	0	66	15142
2026-01-19 02:37:55.58	26.62	16.57	-48.0	-59.9	3.8	8.46e-01	0	37	104	0	66	15065
2026-01-19 02:37:56.59	26.64	16.69	-48.1	-59.9	3.8	8.45e-01	0	37	104	0	66	15149
2026-01-19 02:37:57.60	26.66	16.80	-48.0	-59.9	3.8	8.47e-01	0	37	104	0	66	15096
2026-01-19 02:37:58.60	26.68	16.92	-48.0	-59.9	3.8	8.46e-01	0	37	104	0	66	15092
2026-01-19 02:37:59.61	26.70	17.03	-48.0	-59.9	3.8	8.46e-01	0	36	104	0	66	15149
2026-01-19 02:38:00.62	26.72	17.15	-48.0	-59.9	3.8	8.46e-01	0	36	104	0	66	15105
2026-01-19 02:38:01.63	26.74	17.27	-48.0	-59.9	3.8	8.45e-01	0	37	104	0	66	15071
2026-01-19 02:38:02.64	26.75	17.38	-48.0	-59.9	3.8	8.47e-01	0	37	104	0	66	15157
2026-01-19 02:38:03.64	26.77	17.50	-48.0	-59.9	3.8	8.46e-01	0	37	104	0	66	15144
2026-01-19 02:38:04.65	26.79	17.62	-48.0	-59.9	3.8	8.47e-01	0	37	104	0	66	15142
2026-01-19 02:38:05.66	26.81	17.74	-48.0	-59.9	3.8	8.45e-01	0	37	104	0	66	15116
2026-01-19 02:38:06.67	26.83	17.86	-48.0	-59.9	3.8	8.46e-01	0	37	104	0	66	15087
2026-01-19 02:38:07.67	26.85	17.98	-48.0	-59.9	3.8	8.46e-01	0	37	104	0	66	15121
2026-01-19 02:38:08.68	26.87	18.10	-48.1	-59.9	3.8	8.46e-01	0	37	104	0	66	15077
2026-01-19 02:38:09.69	26.89	18.22	-48.0	-59.9	3.8	8.45e-01	0	37	104	0	66	15083
2026-01-19 02:38:10.70	26.91	18.34	-48.0	-59.9	3.8	8.46e-01	0	37	104	0	66	15071
2026-01-19 02:38:11.70	26.93	18.47	-48.0	-59.9	3.8	8.46e-01	0	36	104	0	66	15075
2026-01-19 02:38:12.71	26.95	18.59	-48.0	-59.9	3.8	8.46e-01	0	36	104	0	66	15106
2026-01-19 02:38:13.72	26.97	18.71	-48.0	-59.9	3.8	8.46e-01	0	36	104	0	66	15097
2026-01-19 02:38:14.73	26.99	18.84	-48.0	-59.9	3.8	8.45e-01	0	37	104	0	66	15082
2026-01-19 02:38:15.74	27.01	18.97	-48.0	-59.9	3.8	8.46e-01	0	37	104	0	66	15077
2026-01-19 02:38:16.75	27.03	19.09	-48.0	-59.9	3.8	8.48e-01	0	36	104	0	66	15134
2026-01-19 02:38:17.76	27.05	19.22	-48.0	-59.9	3.8	8.47e-01	0	37	104	0	66	15122
2026-01-19 02:38:18.76	27.07	19.34	-48.1	-59.9	3.8	8.46e-01	0	37	104	0	66	15136
2026-01-19 02:38:19.77	27.09	19.47	-48.0	-59.9	3.8	8.45e-01	0	37	104	0	66	15162
2026-01-19 02:38:20.78	27.11	19.60	-48.0	-59.9	3.8	8.46e-01	0	37	104	0	66	15071
2026-01-19 02:38:21.79	27.14	19.73	-48.0	-59.9	3.8	8.46e-01	0	37	104	0	66	15119
2026-01-19 02:38:22.80	27.16	19.86	-48.0	-59.9	3.8	8.46e-01	0	37	104	0	66	15118
2026-01-19 02:38:23.81	27.18	19.99	-48.0	-59.9	3.8	8.46e-01	0	37	104	0	66	15116
2026-01-19 02:38:24.81	27.20	20.12	-48.0	-59.9	3.8	8.47e-01	0	37	104	0	66	15143
2026-01-19 02:38:25.82	27.22	20.25	-48.1	-59.9	3.8	8.47e-01	0	37	104	0	66	15100
2026-01-19 02:38:26.83	27.24	20.39	-48.0	-59.9	3.8	8.46e-01	0	37	104	0	66	15128
2026-01-19 02:38:27.84	27.27	20.52	-48.0	-59.9	3.8	8.46e-01	0	37	104	0	66	15108
2026-01-19 02:38:28.84	27.29	20.65	-48.0	-59.9	3.8	8.46e-01	0	37	104	0	66	15067
2026-01-19 02:38:29.85	27.31	20.79	-48.0	-59.8	3.8	8.46e-01	0	37	104	0	66	15041
2026-01-19 02:38:30.86	27.33	20.93	-48.0	-59.9	3.8	8.46e-01	0	37	104	0	66	15087
2026-01-19 02:38:31.87	27.36	21.06	-48.0	-59.9	3.8	8.46e-01	0	37	104	0	66	15064
2026-01-19 02:38:32.88	27.38	21.20	-48.0	-59.9	3.8	8.46e-01	0	37	104	0	66	15078
2026-01-19 02:38:33.88	27.40	21.34	-48.0	-59.9	3.8	8.46e-01	0	37	104	0	66	15064
2026-01-19 02:38:34.89	27.43	21.47	-48.0	-59.9	3.8	8.45e-01	0	37	104	0	66	15129
2026-01-19 02:38:35.90	27.45	21.61	-48.0	-59.9	3.8	8.47e-01	0	37	104	0	66	15085
2026-01-19 02:38:36.91	27.47	21.75	-48.0	-59.9	3.8	8.46e-01	0	37	104	0	66	15142
2026-01-19 02:38:37.92	27.50	21.90	-48.0	-59.9	3.8	8.47e-01	0	37	104	0	66	15124
2026-01-19 02:38:38.92	27.52	22.04	-48.0	-59.9	3.8	8.47e-01	0	37	104	0	66	15141
2026-01-19 02:38:39.93	27.54	22.18	-48.0	-59.9	3.8	8.47e-01	0	37	104	0	66	15130
2026-01-19 02:38:40.94	27.57	22.32	-48.0	-59.9	3.8	8.46e-01	0	37	104	0	66	15092
2026-01-19 02:38:41.94	27.59	22.47	-48.0	-59.9	3.8	8.47e-01	0	37	104	0	66	15084
2026-01-19 02:38:42.95	27.62	22.61	-48.0	-59.8	3.8	8.47e-01	0	37	104	0	66	15050
2026-01-19 02:38:43.96	27.64	22.76	-48.0	-59.9	3.8	8.46e-01	0	37	104	0	66	15132
2026-01-19 02:38:44.97	27.67	22.90	-48.0	-59.9	3.8	8.45e-01	0	37	104	0	66	15097
2026-01-19 02:38:45.98	27.69	23.05	-48.0	-59.8	3.8	8.47e-01	0	37	104	0	66	14990
2026-01-19 02:38:46.99	27.72	23.20	-48.0	-59.9	3.8	8.46e-01	0	37	104	0	66	15084
2026-01-19 02:38:48.00	27.74	23.35	-48.0	-59.9	3.8	8.46e-01	0	37	104	0	66	15148
2026-01-19 02:38:49.00	27.77	23.50	-48.0	-59.9	3.8	8.46e-01	0	37	104	0	66	15074
2026-01-19 02:38:50.01	27.80	23.65	-48.0	-59.9	3.8	8.46e-01	0	37	104	0	66	15100
2026-01-19 02:38:51.02	27.82	23.80	-48.0	-59.8	3.8	8.45e-01	0	37	104	0	66	15051
2026-01-19 02:38:52.02	27.85	23.95	-48.0	-59.9	3.8	8.45e-01	0	37	104	0	66	15063
2026-01-19 02:38:53.03	27.88	24.11	-48.0	-59.9	3.8	8.46e-01	0	37	104	0	66	15126
2026-01-19 02:38:54.04	27.90	24.26	-48.0	-59.9	3.8	8.46e-01	0	37	104	0	66	15099
2026-01-19 02:38:55.05	27.93	24.42	-48.0	-59.9	3.8	8.46e-01	0	37	104	0	66	15106
2026-01-19 02:38:56.06	27.96	24.57	-48.0	-59.9	3.8	8.46e-01	0	37	104	0	66	15085
2026-01-19 02:38:57.06	27.98	24.73	-48.0	-59.9	3.8	8.46e-01	0	37	104	0	66	15075
2026-01-19 02:38:58.07	28.01	24.89	-48.0	-59.9	3.8	8.47e-01	0	37	104	0	66	15112
2026-01-19 02:38:59.08	28.04	25.05	-48.0	-59.9	3.8	8.45e-01	0	37	104	0	66	15093
2026-01-19 02:39:00.09	28.07	25.21	-48.0	-59.9	3.8	8.45e-01	0	37	104	0	66	15075
2026-01-19 02:39:01.10	28.10	25.37	-48.0	-59.9	3.8	8.46e-01	0	37	104	0	66	15133
2026-01-19 02:39:02.10	28.13	25.53	-48.0	-59.9	3.8	8.45e-01	0	37	104	0	66	15081
2026-01-19 02:39:03.11	28.16	25.69	-48.0	-59.9	3.8	8.45e-01	0	37	104	0	66	15083
2026-01-19 02:39:04.12	28.19	25.86	-48.0	-59.9	3.8	8.47e-01	0	37	104	0	66	15135
2026-01-19 02:39:05.13	28.22	26.02	-48.0	-59.9	3.8	8.47e-01	0	37	104	0	66	15083
2026-01-19 02:39:06.13	28.24	26.18	-48.0	-59.9	3.8	8.45e-01	0	37	104	0	66	15065
2026-01-19 02:39:07.14	28.28	26.35	-48.0	-59.9	3.8	8.47e-01	0	37	104	0	66	15087
2026-01-19 02:39:08.15	28.31	26.52	-48.0	-59.9	3.8	8.46e-01	0	37	104	0	66	15103
2026-01-19 02:39:09.16	28.34	26.69	-48.0	-59.9	3.8	8.46e-01	0	37	104	0	66	15091
2026-01-19 02:39:10.17	28.37	26.86	-48.0	-59.9	3.8	8.47e-01	0	37	104	0	66	15082
2026-01-19 02:39:11.18	28.40	27.03	-48.0	-59.9	3.8	8.46e-01	0	37	104	0	66	15101
2026-01-19 02:39:12.18	28.43	27.20	-48.0	-59.9	3.8	8.46e-01	0	37	104	0	66	15097
2026-01-19 02:39:13.19	28.46	27.38	-48.0	-59.9	3.8	8.46e-01	0	37	104	0	66	15105
2026-01-19 02:39:14.20	28.49	27.55	-48.0	-59.9	3.8	8.45e-01	0	36	104	0	66	15107
2026-01-19 02:39:15.21	28.53	27.73	-48.0	-59.9	3.8	8.45e-01	0	37	104	0	66	15095
2026-01-19 02:39:16.22	28.56	27.90	-48.0	-59.9	3.8	8.46e-01	0	37	104	0	66	15108
2026-01-19 02:39:17.23	28.59	28.08	-48.0	-59.9	3.8	8.46e-01	0	37	104	0	66	15131
2026-01-19 02:39:18.24	28.63	28.26	-48.1	-59.9	3.8	8.46e-01	0	36	104	0	66	15122
2026-01-19 02:39:19.24	28.66	28.44	-48.0	-59.9	3.8	8.46e-01	0	37	104	0	66	15112
2026-01-19 02:39:20.25	28.69	28.62	-48.0	-59.9	3.8	8.46e-01	0	37	104	0	66	15103
2026-01-19 02:39:21.26	28.73	28.80	-48.0	-59.9	3.8	8.47e-01	0	37	104	0	66	15101
2026-01-19 02:39:22.27	28.76	28.99	-48.0	-59.9	3.8	8.46e-01	0	37	104	0	66	15120
2026-01-19 02:39:23.27	28.80	29.17	-48.0	-59.9	3.8	8.47e-01	0	37	104	0	66	15096
2026-01-19 02:39:24.28	28.83	29.36	-48.0	-59.9	3.8	8.46e-01	0	37	104	0	66	15106
2026-01-19 02:39:25.29	28.87	29.55	-48.1	-59.9	3.8	8.47e-01	0	37	104	0	66	15094
2026-01-19 02:39:26.30	28.91	29.74	-48.1	-59.9	3.8	8.46e-01	0	37	104	0	66	15117
2026-01-19 02:39:27.31	28.94	29.93	-48.0	-59.9	3.8	8.46e-01	0	37	104	0	66	15129
2026-01-19 02:39:28.32	28.98	30.12	-48.1	-59.9	3.8	8.46e-01	0	37	104	0	66	15121
2026-01-19 02:39:29.32	29.02	30.31	-48.0	-59.9	3.8	8.46e-01	0	37	104	0	66	15132
2026-01-19 02:39:30.33	29.05	30.50	-48.0	-59.9	3.8	8.47e-01	0	37	104	0	66	15134
2026-01-19 02:39:31.34	29.09	30.70	-48.0	-59.8	3.8	8.44e-01	0	37	104	0	66	15044
2026-01-19 02:39:32.35	29.13	30.89	-48.0	-59.9	3.8	8.47e-01	0	37	104	0	66	15102
2026-01-19 02:39:33.36	29.17	31.09	-48.0	-59.9	3.8	8.47e-01	0	37	104	0	66	15072
2026-01-19 02:39:34.36	29.21	31.29	-48.1	-59.9	3.8	8.45e-01	0	37	104	0	66	15116
2026-01-19 02:39:35.37	29.25	31.49	-48.0	-59.9	3.8	8.46e-01	0	37	104	0	66	15130
2026-01-19 02:39:36.38	29.29	31.69	-48.0	-59.9	3.8	8.46e-01	0	37	104	0	66	15088
2026-01-19 02:39:37.39	29.33	31.90	-48.0	-59.9	3.8	8.45e-01	0	37	104	0	66	15089
2026-01-19 02:39:38.40	29.37	32.10	-48.0	-59.9	3.8	8.46e-01	0	37	104	0	66	15131
2026-01-19 02:39:39.40	29.41	32.30	-48.0	-59.9	3.8	8.46e-01	0	37	104	0	66	15080
2026-01-19 02:39:40.41	29.46	32.51	-48.0	-59.9	3.8	8.47e-01	0	37	104	0	66	15099
2026-01-19 02:39:41.42	29.50	32.72	-48.0	-59.9	3.8	8.46e-01	0	37	104	0	66	15118
2026-01-19 02:39:42.43	29.54	32.93	-48.0	-59.9	3.8	8.46e-01	0	37	104	0	66	15101
2026-01-19 02:39:43.44	29.59	33.14	-48.0	-59.9	3.8	8.46e-01	0	37	104	0	66	15116
2026-01-19 02:39:44.44	29.63	33.35	-48.0	-59.9	3.8	8.46e-01	0	37	104	0	66	15095
2026-01-19 02:39:45.45	29.68	33.57	-48.0	-59.9	3.8	8.46e-01	0	37	104	0	66	15106
2026-01-19 02:39:46.46	29.72	33.79	-48.0	-59.9	3.8	8.45e-01	0	37	104	0	66	15126
2026-01-19 02:39:47.46	29.77	34.00	-48.0	-59.9	3.8	8.46e-01	0	37	104	0	66	15115
2026-01-19 02:39:48.47	29.81	34.22	-48.0	-59.9	3.8	8.46e-01	0	37	104	0	66	15074
2026-01-19 02:39:49.48	29.86	34.44	-48.0	-59.9	3.8	8.47e-01	0	37	104	0	66	15144
2026-01-19 02:39:50.49	29.91	34.67	-48.0	-59.9	3.8	8.47e-01	0	37	104	0	66	15098
2026-01-19 02:39:51.50	29.96	34.89	-48.0	-59.9	3.8	8.45e-01	0	37	104	0	66	15096
2026-01-19 02:39:52.51	30.00	35.12	-48.0	-59.9	3.8	8.46e-01	0	37	104	0	66	15137
2026-01-19 02:39:53.52	30.05	35.34	-48.0	-59.9	3.8	8.46e-01	0	37	104	0	66	15171
2026-01-19 02:39:54.52	30.10	35.57	-48.0	-59.9	3.8	8.47e-01	0	37	104	0	66	15082
2026-01-19 02:39:55.53	30.15	35.80	-48.0	-59.9	3.8	8.46e-01	0	37	104	0	66	15103
2026-01-19 02:39:56.54	30.21	36.03	-48.0	-59.9	3.8	8.47e-01	0	37	104	0	66	15132
2026-01-19 02:39:57.55	30.26	36.27	-48.0	-59.9	3.8	8.46e-01	0	37	104	0	66	15074
2026-01-19 02:39:58.56	30.31	36.50	-48.0	-59.9	3.8	8.47e-01	0	37	104	0	66	15141
2026-01-19 02:39:59.56	30.36	36.74	-48.0	-59.9	3.8	8.46e-01	0	37	104	0	66	15132
2026-01-19 02:40:00.57	30.42	36.98	-48.0	-59.9	3.8	8.46e-01	0	37	104	0	66	15155
2026-01-19 02:40:01.58	30.47	37.22	-48.0	-59.8	3.8	8.47e-01	0	37	104	0	66	15047
2026-01-19 02:40:02.59	30.53	37.46	-48.0	-59.9	3.8	8.46e-01	0	37	104	0	66	15064
2026-01-19 02:40:03.60	30.58	37.70	-48.0	-59.9	3.8	8.47e-01	0	37	104	0	66	15085
2026-01-19 02:40:04.60	30.64	37.95	-48.0	-59.9	3.8	8.46e-01	0	37	104	0	66	15076
2026-01-19 02:40:05.61	30.70	38.20	-48.0	-59.9	3.8	8.46e-01	0	37	104	0	66	15097
2026-01-19 02:40:06.62	30.76	38.45	-48.0	-59.9	3.8	8.46e-01	0	37	104	0	66	15074
2026-01-19 02:40:07.62	30.82	38.69	-48.0	-59.9	3.8	8.45e-01	0	37	104	0	66	15117
2026-01-19 02:40:08.63	30.88	38.95	-48.0	-59.9	3.8	8.46e-01	0	37	104	0	66	15114
2026-01-19 02:40:09.64	30.94	39.20	-48.0	-59.9	3.8	8.47e-01	0	37	104	0	66	15107
2026-01-19 02:40:10.65	31.00	39.46	-48.0	-59.9	3.8	8.46e-01	0	37	104	0	66	15106
2026-01-19 02:40:11.66	31.07	39.72	-48.0	-59.9	3.8	8.47e-01	0	37	104	0	66	15095
2026-01-19 02:40:12.66	31.13	39.98	-48.0	-59.9	3.8	8.46e-01	0	37	104	0	66	15069
2026-01-19 02:40:13.67	31.19	40.24	-48.0	-59.9	3.8	8.46e-01	0	37	104	0	66	15079
2026-01-19 02:40:14.68	31.26	40.51	-48.0	-59.9	3.8	8.47e-01	0	37	104	0	66	15105
2026-01-19 02:40:15.69	31.33	40.77	-48.0	-59.9	3.8	8.45e-01	0	37	104	0	66	15082
2026-01-19 02:40:16.69	31.40	41.04	-48.0	-59.9	3.8	8.46e-01	0	37	104	0	66	15068
2026-01-19 02:40:17.70	31.47	41.31	-48.0	-59.9	3.8	8.46e-01	0	37	104	0	66	15154
2026-01-19 02:40:18.71	31.54	41.58	-48.0	-59.9	3.8	8.46e-01	0	37	104	0	66	15085
2026-01-19 02:40:19.72	31.61	41.86	-48.0	-59.9	3.8	8.45e-01	0	37	104	0	66	15104
2026-01-19 02:40:20.73	31.68	42.13	-48.0	-59.9	3.8	8.45e-01	0	37	104	0	66	15153
2026-01-19 02:40:21.74	31.75	42.41	-48.0	-59.9	3.8	8.46e-01	0	37	104	0	66	15112
2026-01-19 02:40:22.74	31.83	42.69	-48.0	-59.9	3.8	8.46e-01	0	37	104	0	66	15084
2026-01-19 02:40:23.75	31.91	42.97	-48.0	-59.9	3.8	8.46e-01	0	37	104	0	66	15100
2026-01-19 02:40:24.76	31.98	43.26	-48.0	-59.9	3.8	8.46e-01	0	37	104	0	66	15121
2026-01-19 02:40:25.77	32.06	43.54	-48.0	-59.9	3.8	8.47e-01	0	37	104	0	66	15100
2026-01-19 02:40:26.77	32.14	43.83	-48.0	-59.9	3.8	8.45e-01	0	37	104	0	66	15127
2026-01-19 02:40:27.78	32.22	44.12	-48.0	-59.9	3.8	8.46e-01	0	37	104	0	66	15085
2026-01-19 02:40:28.79	32.31	44.42	-48.0	-59.9	3.8	8.45e-01	0	37	104	0	66	15106
2026-01-19 02:40:29.80	32.39	44.71	-48.0	-59.9	3.8	8.46e-01	0	37	104	0	66	15118
2026-01-19 02:40:30.81	32.48	45.01	-48.0	-59.9	3.8	8.45e-01	0	37	104	0	66	15111
2026-01-19 02:40:31.81	32.57	45.31	-48.0	-59.9	3.8	8.45e-01	0	37	104	0	66	15084
2026-01-19 02:40:32.82	32.66	45.61	-48.0	-59.9	3.8	8.46e-01	0	37	104	0	66	15116
2026-01-19 02:40:33.83	32.75	45.91	-48.0	-59.9	3.8	8.46e-01	0	37	104	0	66	15089
2026-01-19 02:40:34.84	32.84	46.22	-48.0	-59.9	3.8	8.45e-01	0	37	104	0	66	15090
2026-01-19 02:40:35.84	32.93	46.52	-48.0	-59.9	3.8	8.46e-01	0	37	104	0	66	15109
2026-01-19 02:40:36.85	33.03	46.83	-48.0	-59.9	3.8	8.45e-01	0	37	104	0	66	15122
2026-01-19 02:40:37.86	33.13	47.15	-48.0	-59.9	3.8	8.46e-01	0	37	104	0	66	15092
2026-01-19 02:40:38.87	33.23	47.46	-48.0	-59.9	3.8	8.47e-01	0	37	104	0	66	15107
2026-01-19 02:40:39.88	33.33	47.78	-48.0	-59.9	3.8	8.46e-01	0	37	104	0	66	15097
2026-01-19 02:40:40.88	33.43	48.10	-48.0	-59.9	3.8	8.46e-01	0	37	104	0	66	15124
2026-01-19 02:40:41.89	33.54	48.42	-48.0	-59.9	3.8	8.46e-01	0	37	104	0	66	15070
2026-01-19 02:40:42.90	33.65	48.75	-48.0	-59.9	3.8	8.47e-01	0	37	104	0	66	15101
2026-01-19 02:40:43.91	33.76	49.07	-48.1	-59.9	3.8	8.46e-01	0	37	104	0	66	15067
2026-01-19 02:40:44.92	33.87	49.40	-48.0	-59.9	3.8	8.46e-01	0	37	104	0	66	15137
2026-01-19 02:40:45.92	33.98	49.73	-48.0	-59.9	3.8	8.46e-01	0	37	104	0	66	15105
2026-01-19 02:40:46.93	34.10	50.06	-48.0	-59.9	3.8	8.47e-01	0	37	104	0	66	15116
2026-01-19 02:40:47.94	34.22	50.40	-48.0	-59.9	3.8	8.46e-01	0	37	104	0	66	15147
2026-01-19 02:40:48.95	34.35	50.74	-48.0	-59.9	3.8	8.46e-01	0	37	104	0	66	15114
2026-01-19 02:40:49.96	34.47	51.08	-48.0	-59.9	3.8	8.46e-01	0	37	104	0	66	15056
2026-01-19 02:40:50.96	34.60	51.42	-48.0	-59.9	3.8	8.46e-01	0	37	104	0	66	15087
2026-01-19 02:40:51.97	34.73	51.77	-48.0	-59.9	3.8	8.47e-01	0	37	104	0	66	15105
2026-01-19 02:40:52.98	34.86	52.11	-48.0	-59.9	3.8	8.47e-01	0	37	104	0	66	15126
2026-01-19 02:40:53.99	35.00	52.46	-48.0	-59.9	3.8	8.46e-01	0	37	104	0	66	15113
2026-01-19 02:40:54.99	35.14	52.81	-48.0	-59.9	3.8	8.46e-01	0	37	104	0	66	15116
2026-01-19 02:40:56.00	35.28	53.17	-48.0	-59.9	3.8	8.45e-01	0	37	104	0	66	15083
2026-01-19 02:40:57.01	35.43	53.53	-48.0	-59.9	3.8	8.45e-01	0	37	104	0	66	15129
2026-01-19 02:40:58.02	35.58	53.89	-48.0	-59.9	3.8	8.46e-01	0	37	104	0	66	15085
2026-01-19 02:40:59.02	35.73	54.25	-48.0	-59.9	3.8	8.46e-01	0	37	104	0	66	15094
2026-01-19 02:41:00.03	35.89	54.61	-48.0	-59.9	3.8	8.47e-01	0	37	104	0	66	15107
2026-01-19 02:41:01.04	36.06	54.98	-48.0	-59.9	3.8	8.47e-01	0	37	104	0	66	15110
2026-01-19 02:41:02.05	36.22	55.35	-48.0	-59.9	3.8	8.46e-01	0	37	104	0	66	15068
2026-01-19 02:41:03.06	36.39	55.72	-48.0	-59.9	3.8	8.45e-01	0	37	104	0	66	15154
2026-01-19 02:41:04.06	36.57	56.09	-48.0	-59.9	3.8	8.45e-01	0	37	104	0	66	15071
2026-01-19 02:41:05.07	36.75	56.46	-48.0	-59.9	3.8	8.46e-01	0	37	104	0	66	15073
2026-01-19 02:41:06.08	36.93	56.84	-48.0	-59.9	3.8	8.46e-01	0	37	104	0	66	15115
2026-01-19 02:41:07.09	37.12	57.22	-48.0	-59.9	3.8	8.45e-01	0	37	104	0	66	15117
2026-01-19 02:41:08.10	37.32	57.61	-48.0	-59.9	3.8	8.47e-01	0	37	104	0	66	15137
2026-01-19 02:41:09.10	37.52	57.99	-48.0	-59.9	3.8	8.46e-01	0	37	104	0	66	15136
2026-01-19 02:41:10.11	37.72	58.38	-48.0	-59.9	3.8	8.46e-01	0	37	104	0	66	15119
2026-01-19 02:41:11.11	37.93	58.76	-48.0	-59.9	3.8	8.46e-01	0	37	104	0	66	15086
2026-01-19 02:41:12.12	38.15	59.15	-48.0	-59.9	3.8	8.46e-01	0	37	104	0	66	15084
2026-01-19 02:41:13.13	38.38	59.55	-48.0	-59.9	3.8	8.46e-01	0	37	104	0	66	15070
2026-01-19 02:41:14.14	38.61	59.95	-48.0	-59.9	3.8	8.46e-01	0	37	104	0	66	15106
2026-01-19 02:41:15.15	38.85	60.34	-48.0	-59.9	3.8	8.46e-01	0	37	104	0	66	15136
2026-01-19 02:41:16.15	39.09	60.74	-48.0	-59.9	3.8	8.46e-01	0	37	104	0	66	15073
2026-01-19 02:41:17.16	39.34	61.14	-48.0	-59.9	3.8	8.45e-01	0	37	104	0	66	15149
2026-01-19 02:41:18.17	39.61	61.55	-48.0	-59.9	3.8	8.46e-01	0	37	104	0	66	15088
2026-01-19 02:41:19.18	39.88	61.95	-48.0	-59.9	3.8	8.46e-01	0	37	104	0	66	15088
2026-01-19 02:41:20.19	40.16	62.36	-48.0	-59.9	3.8	8.46e-01	0	37	104	0	66	15117
2026-01-19 02:41:21.19	40.45	62.77	-48.0	-59.9	3.8	8.45e-01	0	37	104	0	66	15069
2026-01-19 02:41:22.20	40.74	63.18	-48.0	-59.9	3.8	8.46e-01	0	37	104	0	66	15100
2026-01-19 02:41:23.21	41.05	63.59	-48.0	-59.9	3.8	8.45e-01	0	37	104	0	66	15093
2026-01-19 02:41:24.22	41.38	64.01	-48.0	-59.9	3.8	8.47e-01	0	37	104	0	66	15115
2026-01-19 02:41:25.23	41.71	64.43	-48.0	-59.9	3.8	8.46e-01	0	37	104	0	66	15098
2026-01-19 02:41:26.23	42.05	64.84	-48.0	-59.9	3.8	8.45e-01	0	37	104	0	66	15108
2026-01-19 02:41:27.24	42.41	65.26	-48.0	-59.9	3.8	8.46e-01	0	37	104	0	66	15087
2026-01-19 02:41:28.25	42.78	65.68	-48.0	-59.9	3.8	8.47e-01	0	37	104	0	66	15071
2026-01-19 02:41:29.26	43.16	66.11	-48.0	-59.9	3.8	8.45e-01	0	37	104	0	66	15069
2026-01-19 02:41:30.27	43.56	66.53	-48.0	-59.9	3.8	8.46e-01	0	37	104	0	66	15069
2026-01-19 02:41:31.27	43.98	66.95	-48.0	-59.9	3.8	8.46e-01	0	37	104	0	66	15091
2026-01-19 02:41:32.28	44.41	67.38	-48.0	-59.9	3.8	8.47e-01	0	37	104	0	66	15094
2026-01-19 02:41:33.29	44.86	67.81	-48.0	-59.9	3.8	8.45e-01	0	37	104	0	66	15102
2026-01-19 02:41:34.30	45.33	68.24	-48.0	-59.9	3.8	8.47e-01	0	37	104	0	66	15115
2026-01-19 02:41:35.31	45.83	68.66	-48.0	-59.9	3.8	8.47e-01	0	37	104	0	66	15083
2026-01-19 02:41:36.31	46.33	69.09	-48.0	-59.9	3.8	8.47e-01	0	37	104	0	66	15091
2026-01-19 02:41:37.32	46.87	69.52	-48.0	-59.9	3.8	8.47e-01	0	37	104	0	66	15079
2026-01-19 02:41:38.33	47.43	69.95	-48.0	-59.9	3.8	8.47e-01	0	37	104	0	66	15066
2026-01-19 02:41:39.34	48.02	70.38	-48.0	-59.9	3.8	8.47e-01	0	37	104	0	66	15081
2026-01-19 02:41:40.34	48.62	70.81	-48.0	-59.9	3.8	8.46e-01	0	37	104	0	66	15131
2026-01-19 02:41:41.35	49.27	71.24	-48.0	-59.9	3.8	8.45e-01	0	37	104	0	66	15096
2026-01-19 02:41:42.36	49.94	71.67	-48.0	-59.9	3.8	8.47e-01	0	37	104	0	66	15107
2026-01-19 02:41:43.37	50.65	72.09	-48.0	-59.9	3.8	8.46e-01	0	37	104	0	66	15106
2026-01-19 02:41:44.38	51.40	72.52	-48.0	-59.9	3.8	8.46e-01	0	37	104	0	66	15130
2026-01-19 02:41:45.39	52.19	72.95	-48.0	-59.9	3.8	8.45e-01	0	37	104	0	66	15057
2026-01-19 02:41:46.40	53.01	73.37	-48.0	-59.9	3.8	8.45e-01	0	37	104	0	66	15081
2026-01-19 02:41:47.40	53.88	73.79	-48.0	-59.9	3.8	8.46e-01	0	37	104	0	66	15067
2026-01-19 02:41:48.41	54.80	74.21	-48.0	-59.9	3.8	8.46e-01	0	37	104	0	66	15139
2026-01-19 02:41:49.42	55.77	74.63	-48.0	-59.9	3.8	8.47e-01	0	37	104	0	66	15078
2026-01-19 02:41:50.43	56.80	75.05	-48.0	-59.9	3.8	8.46e-01	0	37	104	0	66	15110
2026-01-19 02:41:51.44	57.89	75.46	-48.0	-59.9	3.8	8.46e-01	0	37	104	0	66	15078
2026-01-19 02:41:52.45	59.05	75.86	-48.0	-59.8	3.8	8.46e-01	0	37	104	0	66	15030
2026-01-19 02:41:53.45	60.26	76.26	-48.0	-59.9	3.8	8.45e-01	0	37	104	0	66	15067
2026-01-19 02:41:54.46	61.57	76.66	-48.0	-59.9	3.8	8.46e-01	0	37	104	0	66	15104
2026-01-19 02:41:55.47	62.95	77.05	-48.0	-59.8	3.8	8.47e-01	0	37	104	0	66	15049
2026-01-19 02:41:56.47	64.40	77.43	-48.0	-59.9	3.8	8.46e-01	0	37	104	0	66	15075
2026-01-19 02:41:57.48	65.97	77.81	-48.0	-59.9	3.8	8.46e-01	0	37	104	0	66	15073
2026-01-19 02:41:58.49	67.63	78.18	-48.0	-59.9	3.8	8.45e-01	0	37	104	0	66	15084
2026-01-19 02:41:59.50	69.41	78.54	-48.0	-59.9	3.8	8.46e-01	0	37	104	0	66	15102
2026-01-19 02:42:00.50	71.27	78.88	-48.0	-59.9	3.8	8.46e-01	0	37	104	0	66	15104
2026-01-19 02:42:01.51	73.28	79.22	-48.0	-59.9	3.8	8.46e-01	0	37	104	0	66	15064
2026-01-19 02:42:02.52	75.42	79.54	-48.0	-59.9	3.8	8.46e-01	0	37	104	0	66	15103
2026-01-19 02:42:03.53	77.70	79.85	-48.0	-59.9	3.8	8.46e-01	0	37	104	0	66	15055
2026-01-19 02:42:04.54	80.11	80.14	-48.0	-59.9	3.8	8.46e-01	0	37	104	0	66	15090
2026-01-19 02:42:05.54	82.65	80.42	-48.0	-59.9	3.8	8.47e-01	0	37	104	0	66	15107
2026-01-19 02:42:06.55	85.35	80.67	-48.0	-59.9	3.8	8.45e-01	0	37	104	0	66	15071
2026-01-19 02:42:07.56	88.21	80.91	-48.0	-59.9	3.8	8.47e-01	0	37	104	0	66	15077
2026-01-19 02:42:08.57	91.21	81.12	-48.0	-59.9	3.8	8.46e-01	0	37	104	0	66	15107
2026-01-19 02:42:09.58	94.35	81.30	-48.0	-59.9	3.8	8.46e-01	0	37	104	0	66	15074
2026-01-19 02:42:10.58	97.59	81.46	-48.0	-59.9	3.8	8.46e-01	0	37	104	0	66	15097
2026-01-19 02:42:11.59	100.97	81.59	-48.0	-59.9	3.8	8.47e-01	0	37	104	0	66	15100
2026-01-19 02:42:12.60	104.45	81.70	-48.0	-59.9	3.8	8.46e-01	0	37	104	0	66	15098
2026-01-19 02:42:13.61	108.00	81.77	-48.0	-59.9	3.8	8.45e-01	0	37	104	0	66	15071
2026-01-19 02:42:14.61	111.57	81.81	-48.0	-59.9	3.8	8.47e-01	0	37	104	0	66	15093
2026-01-19 02:42:15.62	115.19	81.81	-48.0	-59.9	3.8	8.47e-01	0	37	104	0	66	15064
2026-01-19 02:42:16.63	118.80	81.79	-48.0	-59.9	3.8	8.46e-01	0	37	104	0	66	15123
2026-01-19 02:42:17.64	122.38	81.73	-48.0	-59.9	3.8	8.46e-01	0	37	104	0	66	15099
2026-01-19 02:42:18.65	125.90	81.64	-48.0	-59.9	3.8	8.46e-01	0	37	104	0	66	15076
2026-01-19 02:42:19.66	129.32	81.53	-48.0	-59.9	3.8	8.45e-01	0	37	104	0	66	15069
2026-01-19 02:42:20.66	132.61	81.38	-48.0	-59.9	3.8	8.47e-01	0	37	104	0	66	15080
2026-01-19 02:42:21.67	135.82	81.21	-48.0	-59.9	3.8	8.45e-01	0	37	104	0	66	15107
2026-01-19 02:42:22.68	138.88	81.01	-48.0	-59.8	3.8	8.46e-01	0	37	104	0	66	15046
2026-01-19 02:42:23.69	141.80	80.78	-48.0	-59.9	3.8	8.47e-01	0	37	104	0	66	15110
2026-01-19 02:42:24.70	144.58	80.54	-48.0	-59.9	3.8	8.45e-01	0	37	104	0	66	15077
2026-01-19 02:42:25.70	147.18	80.27	-48.0	-59.9	3.8	8.45e-01	0	37	104	0	66	15073
2026-01-19 02:42:26.71	149.67	79.99	-48.0	-59.9	3.8	8.47e-01	0	37	104	0	66	15077
2026-01-19 02:42:27.72	152.00	79.68	-48.0	-59.9	3.8	8.47e-01	0	37	104	0	66	15062
2026-01-19 02:42:28.72	154.18	79.37	-48.0	-59.9	3.8	8.46e-01	0	37	104	0	66	15089
2026-01-19 02:42:29.73	156.25	79.04	-48.0	-59.9	3.8	8.46e-01	0	37	104	0	66	15079
2026-01-19 02:42:30.74	158.20	78.70	-48.0	-59.8	3.8	8.45e-01	0	37	104	0	66	15036
2026-01-19 02:42:31.75	160.02	78.34	-48.0	-59.9	3.8	8.45e-01	0	37	104	0	66	15060
2026-01-19 02:42:32.76	161.74	77.98	-48.0	-59.8	3.8	8.47e-01	0	37	104	0	66	15042
2026-01-19 02:42:33.76	163.33	77.61	-48.0	-59.8	3.8	8.47e-01	0	37	104	0	66	15034
2026-01-19 02:42:34.77	164.84	77.22	-48.0	-59.9	3.8	8.47e-01	0	37	104	0	66	15074
2026-01-19 02:42:35.78	166.27	76.84	-48.0	-59.9	3.8	8.45e-01	0	37	104	0	66	15059
2026-01-19 02:42:36.79	167.60	76.44	-48.0	-59.9	3.8	8.47e-01	0	37	104	0	66	15064
2026-01-19 02:42:37.80	168.86	76.04	-48.0	-59.9	3.8	8.46e-01	0	37	104	0	66	15089
2026-01-19 02:42:38.80	170.04	75.64	-48.0	-59.9	3.8	8.46e-01	0	37	104	0	66	15113
2026-01-19 02:42:39.81	171.16	75.23	-48.0	-59.9	3.8	8.46e-01	0	37	104	0	66	15053
2026-01-19 02:42:40.82	172.22	74.81	-48.0	-59.8	3.8	8.46e-01	0	37	104	0	66	15042
2026-01-19 02:42:41.83	173.22	74.40	-48.0	-59.9	3.8	8.46e-01	0	37	104	0	66	15068
2026-01-19 02:42:42.83	174.15	73.98	-48.0	-59.9	3.8	8.46e-01	0	37	104	0	66	15065
2026-01-19 02:42:43.84	175.05	73.56	-48.0	-59.9	3.8	8.45e-01	0	37	104	0	66	15093
2026-01-19 02:42:44.85	175.89	73.13	-48.0	-59.9	3.8	8.46e-01	0	37	104	0	66	15076
2026-01-19 02:42:45.86	176.70	72.71	-48.0	-59.9	3.8	8.47e-01	0	37	104	0	66	15100
2026-01-19 02:42:46.86	177.46	72.28	-48.0	-59.8	3.8	8.45e-01	0	37	104	0	66	15041
2026-01-19 02:42:47.87	178.18	71.86	-48.0	-59.9	3.8	8.46e-01	0	37	104	0	66	15112
2026-01-19 02:42:48.88	178.88	71.43	-48.0	-59.9	3.8	8.47e-01	0	37	104	0	66	15077
2026-01-19 02:42:49.89	179.53	71.00	-48.0	-59.8	3.8	8.47e-01	0	37	104	0	66	15032
2026-01-19 02:42:50.89	180.16	70.57	-48.0	-59.9	3.8	8.46e-01	0	37	104	0	66	15090
2026-01-19 02:42:51.90	180.76	70.14	-48.0	-59.9	3.8	8.45e-01	0	37	104	0	66	15107
2026-01-19 02:42:52.91	181.33	69.71	-48.0	-59.9	3.8	8.46e-01	0	37	104	0	66	15066
2026-01-19 02:42:53.92	181.87	69.28	-48.0	-59.9	3.8	8.47e-01	0	37	104	0	66	15121
2026-01-19 02:42:54.92	182.39	68.85	-48.0	-59.9	3.8	8.47e-01	0	37	104	0	66	15054
2026-01-19 02:42:55.93	182.89	68.42	-48.0	-59.9	3.8	8.46e-01	0	37	104	0	66	15083
2026-01-19 02:42:56.94	183.37	67.99	-48.0	-59.9	3.8	8.47e-01	0	37	104	0	66	15094
2026-01-19 02:42:57.95	183.84	67.56	-48.0	-59.9	3.8	8.46e-01	0	37	104	0	66	15064
2026-01-19 02:42:58.96	184.28	67.13	-48.0	-59.9	3.8	8.45e-01	0	37	104	0	66	15061
2026-01-19 02:42:59.96	184.70	66.71	-48.0	-59.9	3.8	8.46e-01	0	37	104	0	66	15077
2026-01-19 02:43:00.97	185.11	66.29	-48.0	-59.9	3.8	8.47e-01	0	37	104	0	66	15103
2026-01-19 02:43:01.97	185.49	65.87	-48.0	-59.9	3.8	8.45e-01	0	37	104	0	66	15095
2026-01-19 02:43:02.98	185.87	65.44	-48.0	-59.9	3.8	8.46e-01	0	37	104	0	66	15123
2026-01-19 02:43:03.99	186.24	65.02	-48.0	-59.9	3.8	8.46e-01	0	37	104	0	66	15071
2026-01-19 02:43:05.00	186.59	64.60	-48.0	-59.9	3.8	8.47e-01	0	37	104	0	66	15086
2026-01-19 02:43:06.01	186.93	64.18	-48.0	-59.9	3.8	8.46e-01	0	37	104	0	66	15076
2026-01-19 02:43:07.01	187.25	63.77	-48.0	-59.9	3.8	8.46e-01	0	37	104	0	66	15069
2026-01-19 02:43:08.03	187.57	63.35	-48.0	-59.9	3.8	8.46e-01	0	37	104	0	66	15105
2026-01-19 02:43:09.04	187.87	62.93	-48.0	-59.9	3.8	8.47e-01	0	37	104	0	66	15114
2026-01-19 02:43:10.04	188.16	62.53	-48.0	-59.8	3.8	8.47e-01	0	37	104	0	66	15034
2026-01-19 02:43:11.05	188.45	62.12	-48.0	-59.9	3.8	8.46e-01	0	37	104	0	66	15088
2026-01-19 02:43:12.06	188.72	61.71	-48.0	-59.9	3.8	8.46e-01	0	37	104	0	66	15075
2026-01-19 02:43:13.07	188.99	61.30	-48.0	-59.9	3.8	8.46e-01	0	37	104	0	66	15056
2026-01-19 02:43:14.08	189.25	60.90	-48.0	-59.9	3.8	8.47e-01	0	37	104	0	66	15087
2026-01-19 02:43:15.09	189.50	60.50	-48.0	-59.9	3.8	8.47e-01	0	37	104	0	66	15126
2026-01-19 02:43:16.10	189.74	60.10	-48.0	-59.9	3.8	8.46e-01	0	37	104	0	66	15085
2026-01-19 02:43:17.10	189.97	59.70	-48.0	-59.8	3.8	8.46e-01	0	37	104	0	66	15019
2026-01-19 02:43:18.11	190.20	59.30	-48.0	-59.9	3.8	8.45e-01	0	37	104	0	66	15061
2026-01-19 02:43:19.12	190.42	58.91	-48.0	-59.9	3.8	8.45e-01	0	37	104	0	66	15061
2026-01-19 02:43:20.13	190.64	58.52	-48.0	-59.9	3.8	8.46e-01	0	37	104	0	66	15083
2026-01-19 02:43:21.13	190.84	58.13	-48.0	-59.9	3.8	8.46e-01	0	37	104	0	66	15091
2026-01-19 02:43:22.15	191.05	57.74	-48.0	-59.8	3.8	8.46e-01	0	37	104	0	66	15014
2026-01-19 02:43:23.15	191.24	57.36	-48.0	-59.9	3.8	8.47e-01	0	37	104	0	66	15086
2026-01-19 02:43:24.16	191.44	56.98	-48.0	-59.9	3.8	8.46e-01	0	37	104	0	66	15063
2026-01-19 02:43:25.17	191.62	56.60	-48.0	-59.9	3.8	8.45e-01	0	37	104	0	66	15087
2026-01-19 02:43:26.18	191.80	56.22	-48.0	-59.8	3.8	8.46e-01	0	37	104	0	66	15048
2026-01-19 02:43:27.19	191.98	55.84	-48.0	-59.9	3.8	8.46e-01	0	37	104	0	66	15078
2026-01-19 02:43:28.20	192.15	55.47	-48.0	-59.9	3.8	8.46e-01	0	37	104	0	66	15100
2026-01-19 02:43:29.20	192.32	55.10	-48.0	-59.9	3.8	8.47e-01	0	37	104	0	66	15088
2026-01-19 02:43:30.21	192.49	54.73	-48.0	-59.9	3.8	8.46e-01	0	37	104	0	66	15076
2026-01-19 02:43:31.22	192.65	54.37	-48.0	-59.9	3.8	8.46e-01	0	37	104	0	66	15093
2026-01-19 02:43:32.23	192.80	54.00	-48.0	-59.9	3.8	8.46e-01	0	37	104	0	66	15067
2026-01-19 02:43:33.24	192.95	53.64	-48.0	-59.9	3.8	8.46e-01	0	37	104	0	66	15062
2026-01-19 02:43:34.25	193.10	53.28	-48.0	-59.8	3.8	8.46e-01	0	37	104	0	66	15033
2026-01-19 02:43:35.25	193.25	52.93	-48.0	-59.9	3.8	8.46e-01	0	37	104	0	66	15092
2026-01-19 02:43:36.26	193.39	52.57	-48.0	-59.9	3.8	8.46e-01	0	37	104	0	66	15083
2026-01-19 02:43:37.27	193.53	52.22	-48.0	-59.9	3.8	8.47e-01	0	37	104	0	66	15075
2026-01-19 02:43:38.28	193.66	51.87	-48.0	-59.9	3.8	8.46e-01	0	37	104	0	66	15056
2026-01-19 02:43:39.28	193.79	51.53	-48.0	-59.9	3.8	8.46e-01	0	37	104	0	66	15081
2026-01-19 02:43:40.29	193.92	51.18	-48.0	-59.9	3.8	8.46e-01	0	37	104	0	66	15064
2026-01-19 02:43:41.30	194.05	50.84	-48.0	-59.8	3.8	8.47e-01	0	37	104	0	66	15047
2026-01-19 02:43:42.31	194.17	50.50	-48.0	-59.9	3.8	8.47e-01	0	37	104	0	66	15111
2026-01-19 02:43:43.32	194.30	50.16	-48.0	-59.9	3.8	8.46e-01	0	37	104	0	66	15069
2026-01-19 02:43:44.33	194.41	49.82	-48.0	-59.9	3.8	8.46e-01	0	37	104	0	66	15077
2026-01-19 02:43:45.34	194.53	49.49	-48.0	-59.9	3.8	8.47e-01	0	37	104	0	66	15066
2026-01-19 02:43:46.34	194.64	49.16	-48.0	-59.9	3.8	8.46e-01	0	37	104	0	66	15097
2026-01-19 02:43:47.35	194.75	48.83	-48.0	-59.9	3.8	8.46e-01	0	37	104	0	66	15119
2026-01-19 02:43:48.36	194.86	48.51	-48.0	-59.8	3.8	8.45e-01	0	37	104	0	66	15045
2026-01-19 02:43:49.37	194.97	48.18	-48.0	-59.9	3.8	8.46e-01	0	37	104	0	66	15092
2026-01-19 02:43:50.38	195.07	47.86	-48.0	-59.9	3.8	8.46e-01	0	37	104	0	66	15083
2026-01-19 02:43:51.38	195.18	47.54	-48.0	-59.9	3.8	8.46e-01	0	37	104	0	66	15055
2026-01-19 02:43:52.39	195.28	47.23	-48.0	-59.9	3.8	8.45e-01	0	37	104	0	66	15084
2026-01-19 02:43:53.40	195.38	46.91	-48.0	-59.9	3.8	8.46e-01	0	37	104	0	66	15065
2026-01-19 02:43:54.41	195.47	46.60	-48.0	-59.9	3.8	8.46e-01	0	37	104	0	66	15058
2026-01-19 02:43:55.42	195.57	46.29	-48.0	-59.8	3.8	8.46e-01	0	37	104	0	66	15039
2026-01-19 02:43:56.42	195.66	45.98	-48.0	-59.9	3.8	8.45e-01	0	37	104	0	66	15062
2026-01-19 02:43:57.43	195.75	45.68	-48.0	-59.8	3.8	8.46e-01	0	37	104	0	66	15036
2026-01-19 02:43:58.44	195.84	45.37	-48.0	-59.8	3.8	8.46e-01	0	37	104	0	66	15032
2026-01-19 02:43:59.44	195.93	45.07	-48.0	-59.9	3.8	8.46e-01	0	37	104	0	66	15062
2026-01-19 02:44:00.45	196.02	44.77	-48.0	-59.9	3.8	8.46e-01	0	37	104	0	66	15075
2026-01-19 02:44:01.46	196.10	44.48	-48.0	-59.8	3.8	8.45e-01	0	37	104	0	66	15012
2026-01-19 02:44:02.47	196.19	44.18	-48.0	-59.9	3.8	8.47e-01	0	37	104	0	66	15078
2026-01-19 02:44:03.48	196.27	43.89	-48.0	-59.9	3.8	8.46e-01	0	37	104	0	66	15089
2026-01-19 02:44:04.48	196.35	43.60	-48.0	-59.9	3.8	8.47e-01	0	37	104	0	66	15078
2026-01-19 02:44:05.49	196.43	43.31	-48.0	-59.9	3.8	8.47e-01	0	37	104	0	66	15121
2026-01-19 02:44:06.50	196.51	43.03	-48.0	-59.8	3.8	8.47e-01	0	37	104	0	66	15033
2026-01-19 02:44:07.51	196.58	42.74	-48.0	-59.9	3.8	8.46e-01	0	37	104	0	66	15062
2026-01-19 02:44:08.51	196.66	42.46	-48.0	-59.8	3.8	8.45e-01	0	37	104	0	66	15051
2026-01-19 02:44:09.53	196.73	42.18	-48.0	-59.8	3.8	8.47e-01	0	37	104	0	66	15035
2026-01-19 02:44:10.53	196.81	41.90	-48.0	-59.9	3.8	8.46e-01	0	37	104	0	66	15052
2026-01-19 02:44:11.54	196.88	41.63	-48.0	-59.8	3.8	8.46e-01	0	37	104	0	66	15025
2026-01-19 02:44:12.55	196.95	41.35	-48.0	-59.9	3.8	8.46e-01	0	37	104	0	66	15064
2026-01-19 02:44:13.56	197.02	41.08	-48.0	-59.9	3.8	8.45e-01	0	37	104	0	66	15069
2026-01-19 02:44:14.56	197.09	40.81	-48.0	-59.9	3.8	8.46e-01	0	37	104	0	66	15057
2026-01-19 02:44:15.57	197.15	40.54	-48.0	-59.9	3.8	8.46e-01	0	37	104	0	66	15057
2026-01-19 02:44:16.58	197.22	40.28	-48.0	-59.9	3.8	8.46e-01	0	37	104	0	66	15064
2026-01-19 02:44:17.59	197.29	40.01	-48.0	-59.9	3.8	8.46e-01	0	37	104	0	66	15085
2026-01-19 02:44:18.60	197.35	39.75	-48.0	-59.9	3.8	8.44e-01	0	37	104	0	66	15071
2026-01-19 02:44:19.60	197.41	39.49	-48.0	-59.9	3.8	8.45e-01	0	37	104	0	66	15101
2026-01-19 02:44:20.61	197.48	39.23	-48.0	-59.9	3.8	8.47e-01	0	37	104	0	66	15088
2026-01-19 02:44:21.62	197.54	38.98	-48.0	-59.8	3.8	8.46e-01	0	37	104	0	66	15010
2026-01-19 02:44:22.63	197.60	38.72	-48.0	-59.9	3.8	8.46e-01	0	37	104	0	66	15079
2026-01-19 02:44:23.64	197.66	38.47	-48.0	-59.9	3.8	8.47e-01	0	37	104	0	66	15078
2026-01-19 02:44:24.65	197.72	38.22	-48.0	-59.8	3.8	8.45e-01	0	37	104	0	66	15050
2026-01-19 02:44:25.66	197.78	37.97	-48.0	-59.8	3.8	8.46e-01	0	37	104	0	66	15035
2026-01-19 02:44:26.66	197.83	37.72	-48.0	-59.8	3.8	8.46e-01	0	37	104	0	66	15050
2026-01-19 02:44:27.67	197.89	37.48	-48.0	-59.9	3.8	8.46e-01	0	37	104	0	66	15075
2026-01-19 02:44:28.68	197.94	37.23	-48.0	-59.9	3.8	8.48e-01	0	37	104	0	66	15084
2026-01-19 02:44:29.69	198.00	36.99	-48.0	-59.9	3.8	8.46e-01	0	37	104	0	66	15108
2026-01-19 02:44:30.70	198.05	36.75	-48.0	-59.9	3.8	8.46e-01	0	37	104	0	66	15061
2026-01-19 02:44:31.70	198.11	36.52	-48.0	-59.9	3.8	8.47e-01	0	37	104	0	66	15079
2026-01-19 02:44:32.71	198.16	36.28	-48.0	-59.9	3.8	8.46e-01	0	37	104	0	66	15056
2026-01-19 02:44:33.72	198.21	36.04	-48.0	-59.9	3.8	8.45e-01	0	37	104	0	66	15116
2026-01-19 02:44:34.73	198.26	35.81	-48.0	-59.9	3.8	8.46e-01	0	37	104	0	66	15090
2026-01-19 02:44:35.74	198.31	35.58	-48.0	-59.8	3.8	8.46e-01	0	37	104	0	66	15050
2026-01-19 02:44:36.74	198.36	35.35	-48.0	-59.9	3.8	8.46e-01	0	37	104	0	66	15067
2026-01-19 02:44:37.75	198.41	35.12	-48.0	-59.8	3.8	8.46e-01	0	37	104	0	66	15043
2026-01-19 02:44:38.76	198.46	34.89	-48.0	-59.8	3.8	8.47e-01	0	37	104	0	66	15045
2026-01-19 02:44:39.77	198.51	34.67	-48.0	-59.8	3.8	8.45e-01	0	37	104	0	66	15051
2026-01-19 02:44:40.78	198.56	34.44	-48.0	-59.9	3.8	8.45e-01	0	37	104	0	66	15086
2026-01-19 02:44:41.78	198.60	34.22	-48.0	-59.9	3.8	8.46e-01	0	37	104	0	66	15060
2026-01-19 02:44:42.79	198.65	34.00	-48.0	-59.9	3.8	8.45e-01	0	37	104	0	66	15066
2026-01-19 02:44:43.80	198.70	33.78	-48.0	-59.9	3.8	8.47e-01	0	37	104	0	66	15076
2026-01-19 02:44:44.81	198.74	33.57	-48.0	-59.9	3.8	8.45e-01	0	37	104	0	66	15068
2026-01-19 02:44:45.81	198.79	33.35	-48.0	-59.9	3.8	8.46e-01	0	37	104	0	66	15076
2026-01-19 02:44:46.82	198.83	33.14	-48.0	-59.9	3.8	8.47e-01	0	37	104	0	66	15077
2026-01-19 02:44:47.83	198.87	32.92	-48.0	-59.8	3.8	8.45e-01	0	37	104	0	66	15034
2026-01-19 02:44:48.84	198.92	32.71	-48.0	-59.9	3.8	8.46e-01	0	37	104	0	66	15065
2026-01-19 02:44:49.85	198.96	32.50	-48.0	-59.9	3.8	8.47e-01	0	37	104	0	66	15077
2026-01-19 02:44:50.85	199.00	32.30	-48.0	-59.8	3.8	8.46e-01	0	37	104	0	66	15027
2026-01-19 02:44:51.86	199.04	32.09	-48.0	-59.9	3.8	8.47e-01	0	37	104	0	66	15064
2026-01-19 02:44:52.87	199.09	31.88	-48.0	-59.9	3.8	8.46e-01	0	37	104	0	66	15054
2026-01-19 02:44:53.87	199.13	31.68	-48.0	-59.9	3.8	8.46e-01	0	37	104	0	66	15063
2026-01-19 02:44:54.88	199.17	31.48	-48.0	-59.9	3.8	8.45e-01	0	37	104	0	66	15094
2026-01-19 02:44:55.89	199.21	31.28	-48.0	-59.8	3.8	8.47e-01	0	37	104	0	66	15029
2026-01-19 02:44:56.90	199.25	31.07	-48.0	-59.8	3.8	8.46e-01	0	37	104	0	66	15042
2026-01-19 02:44:57.91	199.28	30.88	-48.0	-59.8	3.8	8.46e-01	0	37	104	0	66	15020
2026-01-19 02:44:58.92	199.32	30.68	-48.0	-59.8	3.8	8.46e-01	0	37	104	0	66	15040
2026-01-19 02:44:59.92	199.36	30.48	-48.0	-59.9	3.8	8.46e-01	0	37	104	0	66	15063
2026-01-19 02:45:00.93	199.40	30.29	-48.0	-59.8	3.8	8.47e-01	0	37	104	0	66	15030
2026-01-19 02:45:01.94	199.44	30.09	-48.0	-59.9	3.8	8.46e-01	0	37	104	0	66	15056
2026-01-19 02:45:02.95	199.47	29.90	-48.0	-59.8	3.8	8.46e-01	0	37	104	0	66	15048
2026-01-19 02:45:03.96	199.51	29.71	-48.0	-59.8	3.8	8.46e-01	0	37	104	0	66	15020
2026-01-19 02:45:04.96	199.54	29.52	-48.0	-59.8	3.8	8.46e-01	0	37	104	0	66	15045
2026-01-19 02:45:05.97	199.58	29.33	-48.0	-59.9	3.8	8.46e-01	0	37	104	0	66	15084
2026-01-19 02:45:06.98	199.62	29.15	-48.0	-59.9	3.8	8.46e-01	0	37	104	0	66	15105
2026-01-19 02:45:07.99	199.65	28.96	-48.0	-59.9	3.8	8.47e-01	0	37	104	0	66	15068
2026-01-19 02:45:09.00	199.69	28.78	-48.0	-59.8	3.8	8.46e-01	0	37	104	0	66	15039
2026-01-19 02:45:10.00	199.72	28.59	-48.0	-59.9	3.8	8.46e-01	0	37	104	0	66	15091
2026-01-19 02:45:11.01	199.75	28.41	-48.0	-59.9	3.8	8.46e-01	0	37	104	0	66	15070
2026-01-19 02:45:12.02	199.79	28.23	-48.0	-59.9	3.8	8.48e-01	0	37	104	0	66	15075
2026-01-19 02:45:13.03	199.82	28.05	-48.0	-59.9	3.8	8.47e-01	0	37	104	0	66	15088
2026-01-19 02:45:14.04	199.85	27.87	-48.0	-59.8	3.8	8.47e-01	0	37	104	0	66	15037
2026-01-19 02:45:15.04	199.89	27.69	-48.0	-59.9	3.8	8.45e-01	0	37	104	0	66	15089
2026-01-19 02:45:16.05	199.92	27.52	-48.0	-59.9	3.8	8.47e-01	0	37	104	0	66	15076
2026-01-19 02:45:17.06	199.95	27.34	-48.0	-59.9	3.8	8.44e-01	0	37	104	0	66	15098
2026-01-19 02:45:18.07	199.98	27.17	-48.0	-59.8	3.8	8.47e-01	0	37	104	0	66	15049
2026-01-19 02:45:19.07	200.01	27.00	-48.0	-59.8	3.8	8.46e-01	0	37	104	0	66	15046
2026-01-19 02:45:20.08	200.04	26.82	-48.0	-59.9	3.8	8.47e-01	0	37	104	0	66	15076
2026-01-19 02:45:21.09	200.08	26.65	-48.0	-59.9	3.8	8.46e-01	0	37	104	0	66	15072
2026-01-19 02:45:22.10	200.11	26.48	-48.0	-59.8	3.8	8.46e-01	0	37	104	0	66	15049
2026-01-19 02:45:23.10	200.14	26.31	-48.0	-59.9	3.8	8.46e-01	0	37	104	0	66	15087
2026-01-19 02:45:24.11	200.17	26.15	-48.0	-59.8	3.8	8.45e-01	0	37	104	0	66	15018
2026-01-19 02:45:25.12	200.20	25.98	-48.0	-59.8	3.8	8.48e-01	0	37	104	0	66	15045
2026-01-19 02:45:26.13	200.23	25.81	-48.0	-59.9	3.8	8.46e-01	0	37	104	0	66	15063
2026-01-19 02:45:27.14	200.25	25.65	-48.0	-59.9	3.8	8.46e-01	0	37	104	0	66	15072
2026-01-19 02:45:28.15	200.28	25.48	-48.0	-59.8	3.8	8.46e-01	0	37	104	0	66	15042
2026-01-19 02:45:29.16	200.31	25.32	-48.0	-59.9	3.8	8.45e-01	0	37	104	0	66	15070
2026-01-19 02:45:30.16	200.34	25.16	-48.0	-59.8	3.8	8.46e-01	0	37	104	0	66	15019
2026-01-19 02:45:31.17	200.37	25.00	-48.0	-59.9	3.8	8.47e-01	0	37	104	0	66	15057
2026-01-19 02:45:32.18	200.40	24.84	-48.0	-59.8	3.8	8.46e-01	0	37	104	0	66	15030
2026-01-19 02:45:33.19	200.42	24.68	-48.0	-59.9	3.8	8.47e-01	0	37	104	0	66	15066
2026-01-19 02:45:34.20	200.45	24.52	-48.0	-59.9	3.8	8.46e-01	0	37	104	0	66	15061
2026-01-19 02:45:35.20	200.48	24.37	-48.0	-59.9	3.8	8.47e-01	0	37	104	0	66	15083
2026-01-19 02:45:36.21	200.51	24.21	-48.0	-59.9	3.8	8.45e-01	0	37	104	0	66	15086
2026-01-19 02:45:37.22	200.53	24.05	-48.0	-59.8	3.8	8.46e-01	0	37	104	0	66	15039
2026-01-19 02:45:38.23	200.56	23.90	-48.0	-59.9	3.8	8.47e-01	0	37	104	0	66	15068
2026-01-19 02:45:39.24	200.58	23.75	-48.0	-59.9	3.8	8.46e-01	0	37	104	0	66	15065
2026-01-19 02:45:40.24	200.61	23.60	-48.0	-59.9	3.8	8.47e-01	0	37	104	0	66	15087
2026-01-19 02:45:41.25	200.64	23.44	-48.0	-59.8	3.8	8.45e-01	0	37	104	0	66	15015
2026-01-19 02:45:42.26	200.66	23.29	-48.0	-59.9	3.8	8.46e-01	0	37	104	0	66	15077
2026-01-19 02:45:43.27	200.69	23.14	-48.0	-59.8	3.8	8.45e-01	0	37	104	0	66	15037
2026-01-19 02:45:44.27	200.71	23.00	-48.0	-59.9	3.8	8.46e-01	0	37	104	0	66	15077
2026-01-19 02:45:45.28	200.74	22.85	-48.0	-59.8	3.8	8.46e-01	0	37	104	0	66	15042
2026-01-19 02:45:46.29	200.76	22.70	-48.0	-59.9	3.8	8.44e-01	0	37	104	0	66	15060
2026-01-19 02:45:47.30	200.79	22.55	-48.0	-59.9	3.8	8.46e-01	0	37	104	0	66	15058
2026-01-19 02:45:48.30	200.81	22.41	-48.0	-59.9	3.8	8.45e-01	0	37	104	0	66	15076
2026-01-19 02:45:49.31	200.84	22.26	-48.0	-59.9	3.8	8.47e-01	0	37	104	0	66	15055
2026-01-19 02:45:50.32	200.86	22.12	-48.0	-59.9	3.8	8.45e-01	0	37	104	0	66	15073
2026-01-19 02:45:51.33	200.88	21.98	-48.0	-59.8	3.8	8.47e-01	0	37	104	0	66	15012
2026-01-19 02:45:52.33	200.91	21.83	-48.0	-59.9	3.8	8.46e-01	0	37	104	0	66	15057
2026-01-19 02:45:53.34	200.93	21.69	-48.0	-59.8	3.8	8.46e-01	0	37	104	0	66	15046
2026-01-19 02:45:54.35	200.95	21.55	-48.0	-59.8	3.8	8.46e-01	0	37	104	0	66	15037
2026-01-19 02:45:55.35	200.98	21.41	-48.0	-59.8	3.8	8.46e-01	0	37	104	0	66	15028
2026-01-19 02:45:56.36	201.00	21.27	-48.0	-59.9	3.8	8.46e-01	0	37	104	0	66	15087
2026-01-19 02:45:57.37	201.02	21.13	-48.0	-59.9	3.8	8.47e-01	0	37	104	0	66	15056
2026-01-19 02:45:58.38	201.04	21.00	-48.0	-59.8	3.8	8.46e-01	0	37	104	0	66	15038
2026-01-19 02:45:59.39	201.07	20.86	-48.0	-59.9	3.8	8.47e-01	0	37	104	0	66	15075
2026-01-19 02:46:00.40	201.09	20.72	-48.0	-59.8	3.8	8.47e-01	0	37	104	0	66	15026
2026-01-19 02:46:01.40	201.11	20.59	-48.0	-59.9	3.8	8.46e-01	0	37	104	0	66	15074
2026-01-19 02:46:02.41	201.13	20.45	-48.0	-59.9	3.8	8.45e-01	0	37	104	0	66	15073
2026-01-19 02:46:03.42	201.16	20.32	-48.0	-59.8	3.8	8.45e-01	0	37	104	0	66	15012
2026-01-19 02:46:04.43	201.18	20.19	-48.0	-59.9	3.8	8.47e-01	0	37	104	0	66	15063
2026-01-19 02:46:05.44	201.20	20.05	-48.0	-59.9	3.8	8.46e-01	0	37	104	0	66	15053
2026-01-19 02:46:06.44	201.22	19.92	-48.0	-59.9	3.8	8.47e-01	0	37	104	0	66	15061
2026-01-19 02:46:07.45	201.24	19.79	-48.0	-59.8	3.8	8.46e-01	0	37	104	0	66	15041
2026-01-19 02:46:08.46	201.26	19.66	-48.0	-59.9	3.8	8.46e-01	0	37	104	0	66	15065
2026-01-19 02:46:09.47	201.28	19.53	-48.0	-59.9	3.8	8.46e-01	0	37	104	0	66	15063
2026-01-19 02:46:10.47	201.30	19.40	-48.0	-59.8	3.8	8.45e-01	0	37	104	0	66	15028
2026-01-19 02:46:11.48	201.32	19.27	-48.0	-59.8	3.8	8.46e-01	0	37	104	0	66	15021
2026-01-19 02:46:12.49	201.34	19.15	-48.0	-59.8	3.8	8.46e-01	0	37	104	0	66	15041
2026-01-19 02:46:13.49	201.36	19.02	-48.0	-59.9	3.8	8.45e-01	0	37	104	0	66	15075
2026-01-19 02:46:14.51	201.39	18.89	-48.0	-59.8	3.8	8.47e-01	0	37	104	0	66	15048
2026-01-19 02:46:15.51	201.40	18.77	-48.0	-59.9	3.8	8.45e-01	0	37	104	0	66	15060
2026-01-19 02:46:16.52	201.42	18.64	-48.0	-59.8	3.8	8.46e-01	0	37	104	0	66	15046
2026-01-19 02:46:17.53	201.44	18.52	-48.0	-59.9	3.8	8.46e-01	0	37	104	0	66	15064
2026-01-19 02:46:18.54	201.46	18.39	-48.0	-59.9	3.8	8.46e-01	0	37	104	0	66	15052
2026-01-19 02:46:19.55	201.48	18.27	-48.0	-59.8	3.8	8.46e-01	0	37	104	0	66	15021
2026-01-19 02:46:20.56	201.50	18.15	-48.0	-59.9	3.8	8.46e-01	0	37	104	0	66	15071
2026-01-19 02:46:21.56	201.52	18.02	-48.0	-59.9	3.8	8.46e-01	0	37	104	0	66	15059
2026-01-19 02:46:22.57	201.54	17.90	-48.0	-59.9	3.8	8.45e-01	0	37	104	0	66	15069
2026-01-19 02:46:23.58	201.56	17.78	-48.0	-59.9	3.8	8.46e-01	0	37	104	0	66	15053
2026-01-19 02:46:24.59	201.58	17.66	-48.0	-59.9	3.8	8.45e-01	0	37	104	0	66	15072
2026-01-19 02:46:25.60	201.60	17.54	-48.0	-59.9	3.8	8.46e-01	0	37	104	0	66	15056
2026-01-19 02:46:26.60	201.62	17.42	-48.0	-59.8	3.8	8.46e-01	0	37	104	0	66	15040
2026-01-19 02:46:27.61	201.64	17.30	-48.0	-59.9	3.8	8.46e-01	0	37	104	0	66	15073
2026-01-19 02:46:28.62	201.65	17.19	-48.0	-59.8	3.8	8.47e-01	0	37	104	0	66	15049
2026-01-19 02:46:29.63	201.67	17.07	-48.0	-59.9	3.8	8.46e-01	0	37	104	0	66	15064
2026-01-19 02:46:30.64	201.69	16.95	-48.0	-59.8	3.8	8.46e-01	0	37	104	0	66	15035
2026-01-19 02:46:31.64	201.71	16.84	-48.0	-59.9	3.8	8.45e-01	0	37	104	0	66	15097
2026-01-19 02:46:32.65	201.73	16.72	-48.0	-59.9	3.8	8.46e-01	0	37	104	0	66	15071
2026-01-19 02:46:33.66	201.74	16.60	-48.0	-59.8	3.8	8.46e-01	0	37	104	0	66	15049
2026-01-19 02:46:34.67	201.76	16.49	-48.0	-59.8	3.8	8.48e-01	0	37	104	0	66	15048
2026-01-19 02:46:35.67	201.78	16.38	-48.0	-59.9	3.8	8.45e-01	0	37	104	0	66	15062
2026-01-19 02:46:36.68	201.80	16.26	-48.0	-59.9	3.8	8.47e-01	0	37	104	0	66	15070
2026-01-19 02:46:37.69	201.81	16.15	-48.0	-59.9	3.8	8.47e-01	0	37	104	0	66	15056
2026-01-19 02:46:38.70	201.83	16.04	-48.0	-59.9	3.8	8.47e-01	0	37	104	0	66	15064
2026-01-19 02:46:39.71	201.85	15.92	-48.0	-59.8	3.8	8.46e-01	0	37	104	0	66	15020
2026-01-19 02:46:40.72	201.87	15.81	-48.0	-59.9	3.8	8.46e-01	0	37	104	0	66	15059
2026-01-19 02:46:41.72	201.88	15.70	-48.0	-59.8	3.8	8.47e-01	0	37	104	0	66	15043
2026-01-19 02:46:42.73	201.90	15.59	-48.0	-59.9	3.8	8.46e-01	0	37	104	0	66	15071
2026-01-19 02:46:43.74	201.92	15.48	-48.0	-59.8	3.8	8.47e-01	0	37	104	0	66	15009
2026-01-19 02:46:44.75	201.93	15.37	-48.0	-59.9	3.8	8.46e-01	0	37	104	0	66	15081
2026-01-19 02:46:45.76	201.95	15.26	-48.0	-59.8	3.8	8.47e-01	0	37	104	0	66	15049
2026-01-19 02:46:46.76	201.97	15.15	-48.0	-59.8	3.8	8.45e-01	0	37	104	0	66	15051
2026-01-19 02:46:47.77	201.98	15.04	-48.0	-59.8	3.8	8.45e-01	0	37	104	0	66	15050
2026-01-19 02:46:48.78	202.00	14.94	-48.0	-59.9	3.8	8.47e-01	0	37	104	0	66	15109
2026-01-19 02:46:49.79	202.02	14.83	-48.0	-59.9	3.8	8.46e-01	0	37	104	0	66	15065
2026-01-19 02:46:50.79	202.03	14.72	-48.0	-59.9	3.8	8.46e-01	0	37	104	0	66	15052
2026-01-19 02:46:51.80	202.05	14.62	-48.0	-59.8	3.8	8.47e-01	0	37	104	0	66	15028
2026-01-19 02:46:52.81	202.06	14.51	-48.0	-59.8	3.8	8.46e-01	0	37	104	0	66	15021
2026-01-19 02:46:53.82	202.08	14.41	-48.0	-59.9	3.8	8.48e-01	0	37	104	0	66	15057
2026-01-19 02:46:54.83	202.10	14.30	-48.0	-59.8	3.8	8.47e-01	0	37	104	0	66	15038
2026-01-19 02:46:55.84	202.11	14.20	-48.0	-59.8	3.8	8.45e-01	0	37	104	0	66	15025
2026-01-19 02:46:56.85	202.13	14.09	-48.0	-59.8	3.8	8.47e-01	0	37	104	0	66	15032
2026-01-19 02:46:57.86	202.14	13.99	-48.0	-59.9	3.8	8.45e-01	0	37	104	0	66	15060
2026-01-19 02:46:58.86	202.16	13.89	-48.0	-59.9	3.8	8.46e-01	0	37	104	0	66	15079
2026-01-19 02:46:59.87	202.17	13.78	-48.0	-59.8	3.8	8.47e-01	0	37	104	0	66	15042
2026-01-19 02:47:00.88	202.19	13.68	-48.0	-59.8	3.8	8.46e-01	0	37	104	0	66	15015
2026-01-19 02:47:01.89	202.20	13.58	-48.0	-59.9	3.8	8.45e-01	0	37	104	0	66	15066
2026-01-19 02:47:02.90	202.22	13.48	-48.0	-59.8	3.8	8.45e-01	0	37	104	0	66	15051
2026-01-19 02:47:03.90	202.23	13.38	-48.0	-59.8	3.8	8.47e-01	0	37	104	0	66	15037
2026-01-19 02:47:04.91	202.25	13.28	-48.0	-59.8	3.8	8.46e-01	0	37	104	0	66	15030
2026-01-19 02:47:05.92	202.26	13.18	-48.0	-59.8	3.8	8.47e-01	0	37	104	0	66	15042
2026-01-19 02:47:06.93	202.28	13.08	-48.0	-59.9	3.8	8.46e-01	0	37	104	0	66	15095
2026-01-19 02:47:07.94	202.29	12.98	-48.0	-59.9	3.8	8.46e-01	0	37	104	0	66	15053
2026-01-19 02:47:08.94	202.31	12.88	-48.0	-59.8	3.8	8.46e-01	0	37	104	0	66	14993
2026-01-19 02:47:09.95	202.32	12.78	-48.0	-59.8	3.8	8.45e-01	0	37	104	0	66	15026
2026-01-19 02:47:10.96	202.34	12.68	-48.0	-59.9	3.8	8.45e-01	0	37	104	0	66	15086
2026-01-19 02:47:11.97	202.35	12.58	-48.0	-59.9	3.8	8.46e-01	0	37	104	0	66	15106
2026-01-19 02:47:12.98	202.37	12.49	-48.0	-59.8	3.8	8.45e-01	0	37	104	0	66	14993
2026-01-19 02:47:13.99	202.38	12.39	-48.0	-59.8	3.8	8.45e-01	0	37	104	0	66	15041
2026-01-19 02:47:15.00	202.40	12.29	-48.0	-59.9	3.8	8.47e-01	0	37	104	0	66	15059
2026-01-19 02:47:16.01	202.41	12.20	-48.0	-59.9	3.8	8.46e-01	0	37	104	0	66	15062
2026-01-19 02:47:17.02	202.42	12.10	-48.0	-59.8	3.8	8.46e-01	0	37	104	0	66	15046
2026-01-19 02:47:18.02	202.44	12.01	-48.0	-59.9	3.8	8.47e-01	0	37	104	0	66	15122
2026-01-19 02:47:19.03	202.45	11.91	-48.0	-59.9	3.8	8.45e-01	0	37	104	0	66	15070
2026-01-19 02:47:20.04	202.47	11.82	-48.0	-59.8	3.8	8.46e-01	0	37	104	0	66	15042
2026-01-19 02:47:21.05	202.48	11.72	-48.0	-59.8	3.8	8.47e-01	0	37	104	0	66	15045
2026-01-19 02:47:22.06	202.49	11.63	-48.0	-59.8	3.8	8.46e-01	0	37	104	0	66	15025
2026-01-19 02:47:23.06	202.51	11.53	-48.0	-59.8	3.8	8.46e-01	0	37	104	0	66	15023
2026-01-19 02:47:24.07	202.52	11.44	-48.0	-59.8	3.8	8.47e-01	0	37	104	0	66	15042
2026-01-19 02:47:25.08	202.53	11.35	-48.0	-59.8	3.8	8.46e-01	0	37	104	0	66	15032
2026-01-19 02:47:26.09	202.55	11.26	-48.0	-59.8	3.8	8.46e-01	0	37	104	0	66	15039
2026-01-19 02:47:27.10	202.56	11.16	-48.0	-59.9	3.8	8.46e-01	0	37	104	0	66	15065
