passes_logs/2026/01/19/R3.2S_Murmansk/R3.2S_Murmansk__20260119_031456_AQUA_rec.log

#Pass ID: 20260119_031456_AQUA
#Satellite: AQUA
#Configuration: AQUA
#almurnet v.1.7.20251203
#Start time: 2026-01-19 03:14:58

#Version: 2.2.20231116
#Station: R3.2S_Murmansk
#Location: 33.079688 lon 68.888172 lat
#TLE: 1 27424U 02022A   26018.67315038  .00000896  00000+0  18931-3 0  9992
#TLE: 2 27424  98.4088 345.1622 0002002  73.7601  98.9671 14.61828261261423

#Time	Az	El	Level	Level2	SNR	BER	BlckErr	Temp	State	Recorded	gain1	gain2
2026-01-19 03:14:58.02	26.56	2.08	-49.7	-67.5	3.8	7.42e-01	0	35	0	0	69	30471
2026-01-19 03:14:59.02	26.53	2.14	-49.6	-67.5	3.8	7.46e-01	0	35	104	0	69	30617
2026-01-19 03:15:00.02	26.51	2.21	-49.6	-67.5	3.8	7.45e-01	0	35	104	0	69	30548
2026-01-19 03:15:01.03	26.48	2.28	-49.6	-67.5	3.8	7.47e-01	0	35	104	0	69	30533
2026-01-19 03:15:02.04	26.46	2.34	-49.6	-67.5	3.8	7.44e-01	0	35	104	0	69	30519
2026-01-19 03:15:03.05	26.43	2.41	-49.7	-67.5	3.8	7.48e-01	0	35	104	0	69	30549
2026-01-19 03:15:04.06	26.41	2.48	-49.6	-67.5	3.8	7.42e-01	0	35	104	0	69	30472
2026-01-19 03:15:05.06	26.38	2.54	-49.6	-67.5	3.8	7.44e-01	0	35	104	0	69	30503
2026-01-19 03:15:06.07	26.36	2.61	-49.7	-67.5	3.8	7.45e-01	0	35	104	0	69	30481
2026-01-19 03:15:07.08	26.33	2.68	-49.7	-67.5	3.8	7.48e-01	0	35	104	0	69	30507
2026-01-19 03:15:08.09	26.30	2.75	-49.7	-67.5	3.8	7.43e-01	0	35	104	0	69	30496
2026-01-19 03:15:09.10	26.28	2.81	-49.6	-67.5	3.8	7.46e-01	0	35	104	0	69	30575
2026-01-19 03:15:10.11	26.25	2.88	-49.7	-67.5	3.8	7.47e-01	0	35	104	0	69	30498
2026-01-19 03:15:11.12	26.22	2.95	-49.6	-67.5	3.8	7.45e-01	0	35	104	0	69	30512
2026-01-19 03:15:12.13	26.20	3.02	-49.7	-67.5	3.8	7.46e-01	0	35	104	0	69	30527
2026-01-19 03:15:13.14	26.17	3.09	-49.6	-67.5	3.8	7.44e-01	0	35	104	0	69	30527
2026-01-19 03:15:14.14	26.14	3.16	-49.6	-67.5	3.8	7.45e-01	0	35	104	0	69	30478
2026-01-19 03:15:15.15	26.12	3.22	-49.7	-67.5	3.8	7.44e-01	0	35	104	0	69	30460
2026-01-19 03:15:16.16	26.09	3.29	-49.6	-67.5	3.8	7.43e-01	0	35	104	0	69	30498
2026-01-19 03:15:17.16	26.06	3.36	-49.6	-67.5	3.8	7.46e-01	0	35	104	0	69	30496
2026-01-19 03:15:18.17	26.03	3.43	-49.7	-67.5	3.8	7.42e-01	0	35	104	0	69	30499
2026-01-19 03:15:19.18	26.01	3.50	-49.7	-67.5	3.8	7.45e-01	0	35	104	0	69	30553
2026-01-19 03:15:20.19	25.98	3.57	-49.6	-67.5	3.8	7.46e-01	0	36	104	0	69	30523
2026-01-19 03:15:21.19	25.95	3.64	-49.6	-67.5	3.8	7.44e-01	0	35	104	0	69	30462
2026-01-19 03:15:22.20	25.92	3.71	-49.6	-67.5	3.8	7.46e-01	0	36	104	0	69	30478
2026-01-19 03:15:23.21	25.89	3.78	-49.7	-67.5	3.8	7.44e-01	0	35	104	0	69	30450
2026-01-19 03:15:24.22	25.86	3.85	-49.6	-67.5	3.8	7.44e-01	0	35	104	0	69	30415
2026-01-19 03:15:25.23	25.84	3.92	-49.6	-67.4	3.8	7.45e-01	0	35	104	0	69	30332
2026-01-19 03:15:26.24	25.81	3.99	-49.6	-67.4	3.8	7.49e-01	0	36	104	0	69	30280
2026-01-19 03:15:27.25	25.78	4.07	-49.6	-67.4	3.8	7.47e-01	0	36	104	0	69	30336
2026-01-19 03:15:28.26	25.75	4.14	-49.6	-67.4	3.8	7.42e-01	0	36	104	0	69	30290
2026-01-19 03:15:29.27	25.72	4.21	-49.6	-67.5	3.8	7.43e-01	0	35	104	0	69	30390
2026-01-19 03:15:30.27	25.69	4.28	-49.6	-67.4	3.8	7.46e-01	0	36	104	0	69	30341
2026-01-19 03:15:31.28	25.66	4.35	-49.6	-67.5	3.8	7.46e-01	0	36	104	0	69	30449
2026-01-19 03:15:32.29	25.63	4.42	-49.6	-67.5	3.8	7.43e-01	0	36	104	0	69	30419
2026-01-19 03:15:33.30	25.60	4.50	-49.6	-67.5	3.8	7.44e-01	0	36	104	0	69	30417
2026-01-19 03:15:34.31	25.57	4.57	-49.6	-67.5	3.8	7.46e-01	0	36	104	0	69	30481
2026-01-19 03:15:35.31	25.54	4.64	-49.7	-67.5	3.8	7.45e-01	0	36	104	0	69	30508
2026-01-19 03:15:36.32	25.51	4.72	-49.6	-67.5	3.8	7.50e-01	0	36	104	0	69	30464
2026-01-19 03:15:37.33	25.47	4.79	-49.7	-67.5	3.8	7.46e-01	0	36	104	0	69	30415
2026-01-19 03:15:38.34	25.44	4.86	-49.6	-67.5	3.8	7.45e-01	0	36	104	0	69	30510
2026-01-19 03:15:39.35	25.41	4.94	-49.6	-67.5	3.8	7.45e-01	0	36	104	0	69	30407
2026-01-19 03:15:40.36	25.38	5.01	-49.7	-67.5	3.8	7.46e-01	0	36	104	0	69	30508
2026-01-19 03:15:41.36	25.35	5.08	-49.7	-67.5	3.8	7.48e-01	0	36	104	0	69	30458
2026-01-19 03:15:42.37	25.32	5.16	-49.7	-67.5	3.8	7.43e-01	0	36	104	0	69	30491
2026-01-19 03:15:43.38	25.28	5.23	-49.6	-67.5	3.8	7.46e-01	0	36	104	0	69	30504
2026-01-19 03:15:44.39	25.25	5.31	-49.6	-67.5	3.8	7.45e-01	0	36	104	0	69	30468
2026-01-19 03:15:45.40	25.22	5.38	-49.6	-67.5	3.8	7.47e-01	0	36	104	0	69	30484
2026-01-19 03:15:46.40	25.19	5.46	-49.7	-67.5	3.8	7.44e-01	0	36	104	0	69	30500
2026-01-19 03:15:47.41	25.15	5.53	-49.7	-67.5	3.8	7.45e-01	0	36	104	0	69	30462
2026-01-19 03:15:48.42	25.12	5.61	-49.7	-67.5	3.8	7.45e-01	0	36	104	0	69	30404
2026-01-19 03:15:49.43	25.09	5.68	-49.6	-67.5	3.8	7.46e-01	0	36	104	0	69	30443
2026-01-19 03:15:50.44	25.05	5.76	-49.6	-67.5	3.8	7.47e-01	0	36	104	0	69	30430
2026-01-19 03:15:51.44	25.02	5.84	-49.6	-67.5	3.8	7.49e-01	0	36	104	0	69	30465
2026-01-19 03:15:52.45	24.98	5.91	-49.7	-67.5	3.8	7.46e-01	0	36	104	0	69	30442
2026-01-19 03:15:53.46	24.95	5.99	-49.6	-67.5	3.8	7.43e-01	0	36	104	0	69	30534
2026-01-19 03:15:54.47	24.91	6.07	-49.6	-67.5	3.8	7.47e-01	0	36	104	0	69	30488
2026-01-19 03:15:55.47	24.88	6.14	-49.6	-67.5	3.8	7.46e-01	0	36	104	0	69	30597
2026-01-19 03:15:56.48	24.84	6.22	-49.6	-67.5	3.8	7.45e-01	0	36	104	0	69	30580
2026-01-19 03:15:57.49	24.81	6.30	-49.7	-67.5	3.8	7.49e-01	0	36	104	0	69	30477
2026-01-19 03:15:58.50	24.77	6.38	-49.7	-67.5	3.8	7.43e-01	0	36	104	0	69	30513
2026-01-19 03:15:59.51	24.74	6.46	-49.7	-67.5	3.8	7.46e-01	0	36	104	0	69	30456
2026-01-19 03:16:00.52	24.70	6.54	-49.6	-67.5	3.8	7.45e-01	0	36	104	0	69	30467
2026-01-19 03:16:01.52	24.67	6.61	-49.7	-67.5	3.8	7.47e-01	0	36	104	0	69	30467
2026-01-19 03:16:02.53	24.63	6.69	-49.6	-67.5	3.8	7.42e-01	0	36	104	0	69	30486
2026-01-19 03:16:03.54	24.59	6.77	-49.6	-67.5	3.8	7.48e-01	0	36	104	0	69	30405
2026-01-19 03:16:04.55	24.55	6.85	-49.7	-67.5	3.8	7.48e-01	0	36	104	0	69	30408
2026-01-19 03:16:05.56	24.52	6.93	-49.6	-67.5	3.8	7.48e-01	0	36	104	0	69	30520
2026-01-19 03:16:06.56	24.48	7.01	-49.6	-67.5	3.8	7.46e-01	0	36	104	0	69	30434
2026-01-19 03:16:07.57	24.44	7.09	-49.7	-67.5	3.8	7.46e-01	0	36	104	0	69	30475
2026-01-19 03:16:08.58	24.40	7.17	-49.6	-67.5	3.8	7.48e-01	0	36	104	0	69	30466
2026-01-19 03:16:09.59	24.37	7.25	-49.6	-67.5	3.8	7.45e-01	0	36	104	0	69	30493
2026-01-19 03:16:10.60	24.33	7.34	-49.6	-67.5	3.8	7.41e-01	0	36	104	0	69	30483
2026-01-19 03:16:11.60	24.29	7.42	-49.6	-67.5	3.8	7.43e-01	0	36	104	0	69	30487
2026-01-19 03:16:12.61	24.25	7.50	-49.7	-67.5	3.8	7.45e-01	0	36	104	0	69	30523
2026-01-19 03:16:13.62	24.21	7.58	-49.6	-67.5	3.8	7.46e-01	0	36	104	0	69	30496
2026-01-19 03:16:14.63	24.17	7.66	-49.7	-67.5	3.8	7.46e-01	0	36	104	0	69	30492
2026-01-19 03:16:15.63	24.13	7.75	-49.7	-67.5	3.8	7.46e-01	0	36	104	0	69	30522
2026-01-19 03:16:16.64	24.09	7.83	-49.7	-67.5	3.8	7.47e-01	0	36	104	0	69	30505
2026-01-19 03:16:17.65	24.05	7.91	-49.6	-67.5	3.8	7.44e-01	0	36	104	0	69	30501
2026-01-19 03:16:18.66	24.01	8.00	-49.7	-67.5	3.8	7.48e-01	0	36	104	0	69	30528
2026-01-19 03:16:19.66	23.97	8.08	-49.7	-67.5	3.8	7.46e-01	0	36	104	0	69	30462
2026-01-19 03:16:20.67	23.93	8.16	-49.7	-67.5	3.8	7.43e-01	0	36	104	0	69	30498
2026-01-19 03:16:21.68	23.89	8.25	-49.7	-67.5	3.8	7.48e-01	0	36	104	0	69	30463
2026-01-19 03:16:22.69	23.85	8.33	-49.7	-67.5	3.8	7.45e-01	0	36	104	0	69	30440
2026-01-19 03:16:23.70	23.80	8.42	-49.7	-67.5	3.8	7.48e-01	0	36	104	0	69	30515
2026-01-19 03:16:24.70	23.76	8.50	-49.6	-67.5	3.8	7.46e-01	0	36	104	0	69	30559
2026-01-19 03:16:25.71	23.72	8.59	-49.7	-67.5	3.8	7.46e-01	0	36	104	0	69	30503
2026-01-19 03:16:26.72	23.68	8.67	-49.7	-67.5	3.8	7.46e-01	0	36	104	0	69	30532
2026-01-19 03:16:27.73	23.63	8.76	-49.7	-67.5	3.8	7.44e-01	0	36	104	0	69	30570
2026-01-19 03:16:28.74	23.59	8.85	-49.7	-67.5	3.8	7.44e-01	0	36	104	0	69	30537
2026-01-19 03:16:29.74	23.54	8.93	-49.6	-67.5	3.8	7.46e-01	0	36	104	0	69	30440
2026-01-19 03:16:30.75	23.50	9.02	-49.7	-67.5	3.8	7.46e-01	0	36	104	0	69	30630
2026-01-19 03:16:31.76	23.46	9.11	-49.7	-67.5	3.8	7.48e-01	0	36	104	0	69	30548
2026-01-19 03:16:32.77	23.41	9.20	-49.7	-67.5	3.8	7.44e-01	0	36	104	0	69	30532
2026-01-19 03:16:33.77	23.37	9.28	-49.6	-67.5	3.8	7.44e-01	0	36	104	0	69	30534
2026-01-19 03:16:34.78	23.32	9.37	-49.7	-67.5	3.8	7.47e-01	0	36	104	0	69	30510
2026-01-19 03:16:35.79	23.27	9.46	-49.7	-67.5	3.8	7.47e-01	0	36	104	0	69	30545
2026-01-19 03:16:36.80	23.23	9.55	-49.7	-67.5	3.8	7.46e-01	0	36	104	0	69	30512
2026-01-19 03:16:37.81	23.18	9.64	-49.7	-67.5	3.8	7.48e-01	0	36	104	0	69	30593
2026-01-19 03:16:38.82	23.13	9.73	-49.7	-67.5	3.8	7.42e-01	0	36	104	0	69	30535
2026-01-19 03:16:39.82	23.09	9.82	-49.7	-67.5	3.8	7.46e-01	0	36	104	0	69	30498
2026-01-19 03:16:40.83	23.04	9.91	-49.7	-67.5	3.8	7.42e-01	0	36	104	0	69	30577
2026-01-19 03:16:41.84	22.99	10.00	-49.7	-67.5	3.8	7.46e-01	0	37	104	0	69	30486
2026-01-19 03:16:42.85	22.94	10.09	-49.7	-67.5	3.8	7.46e-01	0	36	104	0	69	30535
2026-01-19 03:16:43.86	22.90	10.18	-49.7	-67.5	3.8	7.43e-01	0	36	104	0	69	30614
2026-01-19 03:16:44.86	22.85	10.28	-49.7	-67.5	3.8	7.44e-01	0	36	104	0	69	30517
2026-01-19 03:16:45.87	22.80	10.37	-49.7	-67.5	3.8	7.49e-01	0	36	104	0	69	30556
2026-01-19 03:16:46.88	22.75	10.46	-49.7	-67.5	3.8	7.44e-01	0	36	104	0	69	30494
2026-01-19 03:16:47.89	22.70	10.55	-49.7	-67.5	3.8	7.46e-01	0	36	104	0	69	30553
2026-01-19 03:16:48.89	22.65	10.65	-49.7	-67.5	3.8	7.47e-01	0	36	104	0	69	30533
2026-01-19 03:16:49.90	22.60	10.74	-49.7	-67.5	3.8	7.48e-01	0	37	104	0	69	30544
2026-01-19 03:16:50.91	22.55	10.84	-49.7	-67.5	3.8	7.45e-01	0	36	104	0	69	30572
2026-01-19 03:16:51.92	22.49	10.93	-49.7	-67.5	3.8	7.47e-01	0	36	104	0	69	30542
2026-01-19 03:16:52.93	22.44	11.03	-49.7	-67.5	3.8	7.49e-01	0	36	104	0	69	30513
2026-01-19 03:16:53.94	22.39	11.12	-49.7	-67.5	3.8	7.47e-01	0	37	104	0	69	30511
2026-01-19 03:16:54.94	22.34	11.22	-49.7	-67.5	3.8	7.46e-01	0	36	104	0	69	30542
2026-01-19 03:16:55.95	22.29	11.31	-49.7	-67.5	3.8	7.45e-01	0	36	104	0	69	30581
2026-01-19 03:16:56.96	22.23	11.41	-49.6	-67.5	3.8	7.44e-01	0	37	104	0	69	30560
2026-01-19 03:16:57.97	22.18	11.51	-49.7	-67.5	3.8	7.45e-01	0	37	104	0	69	30499
2026-01-19 03:16:58.98	22.12	11.60	-49.7	-67.5	3.8	7.48e-01	0	36	104	0	69	30522
2026-01-19 03:16:59.98	22.07	11.70	-49.7	-67.5	3.8	7.49e-01	0	37	104	0	69	30530
2026-01-19 03:17:00.99	22.01	11.80	-49.7	-67.5	3.8	7.44e-01	0	36	104	0	69	30538
2026-01-19 03:17:02.00	21.96	11.90	-49.7	-67.5	3.8	7.46e-01	0	37	104	0	69	30594
2026-01-19 03:17:03.01	21.90	12.00	-49.7	-67.5	3.8	7.43e-01	0	37	104	0	69	30521
2026-01-19 03:17:04.02	21.85	12.10	-49.7	-67.5	3.8	7.45e-01	0	37	104	0	69	30556
2026-01-19 03:17:05.03	21.79	12.20	-49.7	-67.5	3.8	7.43e-01	0	37	104	0	69	30519
2026-01-19 03:17:06.04	21.73	12.30	-49.7	-67.5	3.8	7.44e-01	0	37	104	0	69	30519
2026-01-19 03:17:07.04	21.67	12.40	-49.7	-67.5	3.8	7.44e-01	0	36	104	0	69	30653
2026-01-19 03:17:08.05	21.62	12.50	-49.7	-67.5	3.8	7.46e-01	0	37	104	0	69	30562
2026-01-19 03:17:09.06	21.56	12.60	-49.7	-67.5	3.8	7.44e-01	0	36	104	0	69	30606
2026-01-19 03:17:10.07	21.50	12.70	-49.7	-67.5	3.8	7.43e-01	0	36	104	0	69	30526
2026-01-19 03:17:11.08	21.44	12.80	-49.7	-67.5	3.8	7.45e-01	0	37	104	0	69	30589
2026-01-19 03:17:12.08	21.38	12.91	-49.7	-67.5	3.8	7.46e-01	0	37	104	0	69	30570
2026-01-19 03:17:13.09	21.32	13.01	-49.7	-67.5	3.8	7.42e-01	0	36	104	0	69	30547
2026-01-19 03:17:14.10	21.26	13.11	-49.7	-67.5	3.8	7.43e-01	0	36	104	0	69	30559
2026-01-19 03:17:15.11	21.19	13.22	-49.7	-67.5	3.8	7.49e-01	0	37	104	0	69	30564
2026-01-19 03:17:16.11	21.13	13.32	-49.7	-67.5	3.8	7.43e-01	0	37	104	0	69	30548
2026-01-19 03:17:17.12	21.07	13.43	-49.7	-67.5	3.8	7.48e-01	0	37	104	0	69	30635
2026-01-19 03:17:18.13	21.01	13.53	-49.7	-67.5	3.8	7.45e-01	0	36	104	0	69	30611
2026-01-19 03:17:19.14	20.94	13.64	-49.7	-67.5	3.8	7.49e-01	0	36	104	0	69	30554
2026-01-19 03:17:20.15	20.88	13.75	-49.7	-67.5	3.8	7.45e-01	0	36	104	0	69	30558
2026-01-19 03:17:21.16	20.81	13.85	-49.7	-67.5	3.8	7.44e-01	0	37	104	0	69	30562
2026-01-19 03:17:22.17	20.75	13.96	-49.7	-67.5	3.8	7.45e-01	0	37	104	0	69	30628
2026-01-19 03:17:23.18	20.68	14.07	-49.7	-67.5	3.8	7.45e-01	0	37	104	0	69	30594
2026-01-19 03:17:24.18	20.62	14.18	-49.7	-67.5	3.8	7.42e-01	0	36	104	0	69	30601
2026-01-19 03:17:25.19	20.55	14.29	-49.7	-67.5	3.8	7.44e-01	0	37	104	0	69	30560
2026-01-19 03:17:26.20	20.48	14.39	-49.7	-67.5	3.8	7.47e-01	0	36	104	0	69	30589
2026-01-19 03:17:27.21	20.42	14.51	-49.7	-67.5	3.8	7.42e-01	0	37	104	0	69	30544
2026-01-19 03:17:28.22	20.35	14.62	-49.7	-67.5	3.8	7.46e-01	0	37	104	0	69	30589
2026-01-19 03:17:29.22	20.28	14.73	-49.7	-67.5	3.8	7.48e-01	0	37	104	0	69	30571
2026-01-19 03:17:30.23	20.21	14.84	-49.7	-67.5	3.8	7.47e-01	0	37	104	0	69	30547
2026-01-19 03:17:31.24	20.14	14.95	-49.7	-67.5	3.8	7.44e-01	0	37	104	0	69	30605
2026-01-19 03:17:32.25	20.07	15.06	-49.7	-67.5	3.8	7.45e-01	0	37	104	0	69	30561
2026-01-19 03:17:33.26	20.00	15.18	-49.7	-67.5	3.8	7.44e-01	0	37	104	0	69	30515
2026-01-19 03:17:34.27	19.92	15.29	-49.7	-67.5	3.8	7.46e-01	0	37	104	0	69	30581
2026-01-19 03:17:35.27	19.85	15.40	-49.7	-67.5	3.8	7.47e-01	0	37	104	0	69	30617
2026-01-19 03:17:36.28	19.78	15.52	-49.7	-67.5	3.8	7.44e-01	0	37	104	0	69	30591
2026-01-19 03:17:37.29	19.70	15.63	-49.7	-67.5	3.8	7.44e-01	0	37	104	0	69	30557
2026-01-19 03:17:38.30	19.63	15.75	-49.7	-67.5	3.8	7.47e-01	0	37	104	0	69	30634
2026-01-19 03:17:39.30	19.55	15.87	-49.7	-67.5	3.8	7.46e-01	0	37	104	0	69	30614
2026-01-19 03:17:40.31	19.48	15.98	-49.7	-67.5	3.8	7.48e-01	0	37	104	0	69	30586
2026-01-19 03:17:41.32	19.40	16.10	-49.7	-67.5	3.8	7.45e-01	0	36	104	0	69	30590
2026-01-19 03:17:42.33	19.32	16.22	-49.7	-67.5	3.8	7.46e-01	0	37	104	0	69	30524
2026-01-19 03:17:43.33	19.25	16.34	-49.7	-67.5	3.8	7.43e-01	0	37	104	0	69	30615
2026-01-19 03:17:44.34	19.17	16.46	-49.7	-67.5	3.8	7.46e-01	0	37	104	0	69	30530
2026-01-19 03:17:45.35	19.09	16.58	-49.7	-67.5	3.8	7.46e-01	0	37	104	0	69	30622
2026-01-19 03:17:46.36	19.01	16.70	-49.7	-67.5	3.8	7.47e-01	0	37	104	0	69	30661
2026-01-19 03:17:47.37	18.93	16.82	-49.7	-67.5	3.8	7.43e-01	0	37	104	0	69	30624
2026-01-19 03:17:48.38	18.85	16.94	-49.7	-67.5	3.8	7.45e-01	0	37	104	0	69	30545
2026-01-19 03:17:49.38	18.76	17.06	-49.7	-67.5	3.8	7.46e-01	0	37	104	0	69	30553
2026-01-19 03:17:50.39	18.68	17.19	-49.7	-67.5	3.8	7.41e-01	0	37	104	0	69	30643
2026-01-19 03:17:51.40	18.60	17.31	-49.7	-67.5	3.8	7.46e-01	0	37	104	0	69	30613
2026-01-19 03:17:52.41	18.51	17.43	-49.7	-67.5	3.8	7.44e-01	0	37	104	0	69	30541
2026-01-19 03:17:53.42	18.43	17.56	-49.7	-67.5	3.8	7.44e-01	0	37	104	0	69	30632
2026-01-19 03:17:54.42	18.34	17.68	-49.7	-67.5	3.8	7.45e-01	0	37	104	0	69	30661
2026-01-19 03:17:55.43	18.25	17.81	-49.7	-67.5	3.8	7.47e-01	0	37	104	0	69	30576
2026-01-19 03:17:56.44	18.17	17.94	-49.7	-67.5	3.8	7.47e-01	0	37	104	0	69	30605
2026-01-19 03:17:57.44	18.08	18.06	-49.7	-67.5	3.8	7.47e-01	0	37	104	0	69	30620
2026-01-19 03:17:58.45	17.99	18.19	-49.7	-67.5	3.8	7.41e-01	0	37	104	0	69	30630
2026-01-19 03:17:59.46	17.90	18.32	-49.7	-67.5	3.8	7.45e-01	0	37	104	0	69	30585
2026-01-19 03:18:00.47	17.81	18.45	-49.7	-67.5	3.8	7.42e-01	0	37	104	0	69	30583
2026-01-19 03:18:01.47	17.72	18.58	-49.7	-67.5	3.8	7.49e-01	0	37	104	0	69	30626
2026-01-19 03:18:02.48	17.62	18.71	-49.7	-67.5	3.8	7.45e-01	0	37	104	0	69	30527
2026-01-19 03:18:03.49	17.53	18.84	-49.7	-67.5	3.8	7.43e-01	0	37	104	0	69	30605
2026-01-19 03:18:04.50	17.44	18.97	-49.7	-67.5	3.8	7.48e-01	0	37	104	0	69	30625
2026-01-19 03:18:05.51	17.34	19.11	-49.7	-67.5	3.8	7.47e-01	0	37	104	0	69	30541
2026-01-19 03:18:06.52	17.24	19.24	-49.7	-67.5	3.8	7.46e-01	0	37	104	0	69	30545
2026-01-19 03:18:07.52	17.15	19.37	-49.7	-67.5	3.8	7.44e-01	0	37	104	0	69	30559
2026-01-19 03:18:08.53	17.05	19.51	-49.7	-67.5	3.8	7.42e-01	0	37	104	0	69	30500
2026-01-19 03:18:09.54	16.95	19.65	-49.7	-67.5	3.8	7.43e-01	0	36	104	0	69	30635
2026-01-19 03:18:10.55	16.85	19.78	-49.7	-67.5	3.8	7.44e-01	0	36	104	0	69	30606
2026-01-19 03:18:11.56	16.75	19.92	-49.7	-67.5	3.8	7.43e-01	0	37	104	0	69	30540
2026-01-19 03:18:12.57	16.65	20.06	-49.7	-67.5	3.8	7.44e-01	0	37	104	0	69	30605
2026-01-19 03:18:13.58	16.54	20.20	-49.7	-67.5	3.8	7.46e-01	0	37	104	0	69	30601
2026-01-19 03:18:14.59	16.44	20.34	-49.7	-67.5	3.8	7.48e-01	0	37	104	0	69	30565
2026-01-19 03:18:15.60	16.33	20.48	-49.7	-67.5	3.8	7.47e-01	0	37	104	0	69	30619
2026-01-19 03:18:16.60	16.23	20.62	-49.7	-67.5	3.8	7.45e-01	0	37	104	0	69	30599
2026-01-19 03:18:17.61	16.12	20.76	-49.7	-67.5	3.8	7.42e-01	0	36	104	0	69	30590
2026-01-19 03:18:18.62	16.01	20.90	-49.7	-67.5	3.8	7.46e-01	0	37	104	0	69	30620
2026-01-19 03:18:19.63	15.90	21.04	-49.7	-67.5	3.8	7.44e-01	0	37	104	0	69	30515
2026-01-19 03:18:20.64	15.79	21.19	-49.7	-67.5	3.8	7.45e-01	0	37	104	0	69	30571
2026-01-19 03:18:21.64	15.68	21.33	-49.7	-67.5	3.8	7.47e-01	0	36	104	0	69	30597
2026-01-19 03:18:22.66	15.57	21.48	-49.7	-67.5	3.8	7.47e-01	0	36	104	0	69	30596
2026-01-19 03:18:23.66	15.45	21.62	-49.7	-67.5	3.8	7.47e-01	0	37	104	0	69	30638
2026-01-19 03:18:24.67	15.34	21.77	-49.7	-67.5	3.8	7.45e-01	0	36	104	0	69	30547
2026-01-19 03:18:25.68	15.22	21.92	-49.7	-67.5	3.8	7.46e-01	0	37	104	0	69	30622
2026-01-19 03:18:26.69	15.10	22.07	-49.7	-67.5	3.8	7.44e-01	0	37	104	0	69	30601
2026-01-19 03:18:27.70	14.98	22.22	-49.7	-67.5	3.8	7.43e-01	0	37	104	0	69	30552
2026-01-19 03:18:28.70	14.87	22.37	-49.7	-67.5	3.8	7.43e-01	0	37	104	0	69	30575
2026-01-19 03:18:29.71	14.74	22.52	-49.7	-67.5	3.8	7.45e-01	0	37	104	0	69	30591
2026-01-19 03:18:30.72	14.62	22.67	-49.7	-67.5	3.8	7.44e-01	0	37	104	0	69	30666
2026-01-19 03:18:31.73	14.50	22.83	-49.7	-67.5	3.8	7.42e-01	0	37	104	0	69	30656
2026-01-19 03:18:32.74	14.37	22.98	-49.7	-67.5	3.8	7.47e-01	0	37	104	0	69	30606
2026-01-19 03:18:33.75	14.24	23.14	-49.7	-67.5	3.8	7.44e-01	0	37	104	0	69	30624
2026-01-19 03:18:34.76	14.12	23.29	-49.7	-67.5	3.8	7.45e-01	0	37	104	0	69	30669
2026-01-19 03:18:35.76	13.99	23.45	-49.7	-67.5	3.8	7.46e-01	0	37	104	0	69	30578
2026-01-19 03:18:36.77	13.86	23.60	-49.7	-67.5	3.8	7.43e-01	0	37	104	0	69	30604
2026-01-19 03:18:37.78	13.73	23.76	-49.7	-67.5	3.8	7.42e-01	0	37	104	0	69	30597
2026-01-19 03:18:38.79	13.59	23.92	-49.7	-67.5	3.8	7.45e-01	0	37	104	0	69	30652
2026-01-19 03:18:39.79	13.46	24.08	-49.7	-67.5	3.8	7.44e-01	0	37	104	0	69	30549
2026-01-19 03:18:40.80	13.32	24.24	-49.7	-67.5	3.8	7.45e-01	0	37	104	0	69	30686
2026-01-19 03:18:41.81	13.18	24.40	-49.7	-67.5	3.8	7.46e-01	0	37	104	0	69	30642
2026-01-19 03:18:42.82	13.04	24.57	-49.7	-67.5	3.8	7.46e-01	0	37	104	0	69	30624
2026-01-19 03:18:43.83	12.90	24.73	-49.7	-67.5	3.8	7.47e-01	0	37	104	0	69	30611
2026-01-19 03:18:44.83	12.76	24.89	-49.7	-67.5	3.8	7.45e-01	0	37	104	0	69	30661
2026-01-19 03:18:45.84	12.61	25.06	-49.7	-67.5	3.8	7.45e-01	0	37	104	0	69	30583
2026-01-19 03:18:46.85	12.47	25.23	-49.7	-67.5	3.8	7.49e-01	0	37	104	0	69	30639
2026-01-19 03:18:47.86	12.32	25.39	-49.7	-67.5	3.8	7.41e-01	0	37	104	0	69	30576
2026-01-19 03:18:48.87	12.17	25.56	-49.7	-67.5	3.8	7.43e-01	0	37	104	0	69	30620
2026-01-19 03:18:49.87	12.02	25.73	-49.7	-67.5	3.8	7.44e-01	0	37	104	0	69	30635
2026-01-19 03:18:50.88	11.87	25.90	-49.7	-67.5	3.8	7.44e-01	0	37	104	0	69	30534
2026-01-19 03:18:51.89	11.71	26.07	-49.7	-67.5	3.8	7.43e-01	0	37	104	0	69	30640
2026-01-19 03:18:52.90	11.56	26.24	-49.7	-67.5	3.8	7.44e-01	0	37	104	0	69	30578
2026-01-19 03:18:53.91	11.40	26.42	-49.7	-67.5	3.8	7.47e-01	0	37	104	0	69	30601
2026-01-19 03:18:54.91	11.24	26.59	-49.7	-67.5	3.8	7.43e-01	0	37	104	0	69	30637
2026-01-19 03:18:55.92	11.08	26.77	-49.7	-67.5	3.8	7.46e-01	0	37	104	0	69	30632
2026-01-19 03:18:56.93	10.91	26.94	-49.7	-67.5	3.8	7.42e-01	0	37	104	0	69	30622
2026-01-19 03:18:57.94	10.75	27.12	-49.7	-67.5	3.8	7.46e-01	0	37	104	0	69	30609
2026-01-19 03:18:58.94	10.58	27.30	-49.7	-67.5	3.8	7.45e-01	0	37	104	0	69	30616
2026-01-19 03:18:59.95	10.41	27.48	-49.7	-67.5	3.8	7.43e-01	0	37	104	0	69	30634
2026-01-19 03:19:00.96	10.24	27.66	-49.7	-67.5	3.8	7.47e-01	0	37	104	0	69	30545
2026-01-19 03:19:01.97	10.07	27.84	-49.7	-67.5	3.8	7.46e-01	0	36	104	0	69	30624
2026-01-19 03:19:02.97	9.89	28.02	-49.7	-67.5	3.8	7.45e-01	0	37	104	0	69	30597
2026-01-19 03:19:03.98	9.71	28.20	-49.7	-67.5	3.8	7.47e-01	0	37	104	0	69	30612
2026-01-19 03:19:04.99	9.53	28.38	-49.7	-67.5	3.8	7.46e-01	0	37	104	0	69	30664
2026-01-19 03:19:06.00	9.35	28.57	-49.7	-67.5	3.8	7.49e-01	0	37	104	0	69	30626
2026-01-19 03:19:07.01	9.17	28.76	-49.7	-67.5	3.8	7.46e-01	0	37	104	0	69	30613
2026-01-19 03:19:08.02	8.98	28.94	-49.7	-67.5	3.8	7.44e-01	0	37	104	0	69	30633
2026-01-19 03:19:09.02	8.79	29.13	-49.7	-67.5	3.8	7.47e-01	0	37	104	0	69	30585
2026-01-19 03:19:10.03	8.60	29.32	-49.7	-67.5	3.8	7.45e-01	0	37	104	0	69	30631
2026-01-19 03:19:11.04	8.41	29.51	-49.7	-67.5	3.8	7.44e-01	0	37	104	0	69	30591
2026-01-19 03:19:12.05	8.21	29.70	-49.7	-67.5	3.8	7.42e-01	0	37	104	0	69	30573
2026-01-19 03:19:13.05	8.01	29.89	-49.7	-67.5	3.8	7.45e-01	0	37	104	0	69	30588
2026-01-19 03:19:14.06	7.81	30.08	-49.7	-67.5	3.8	7.44e-01	0	37	104	0	69	30591
2026-01-19 03:19:15.07	7.61	30.28	-49.7	-67.5	3.8	7.43e-01	0	37	104	0	69	30526
2026-01-19 03:19:16.08	7.40	30.47	-49.7	-67.5	3.8	7.47e-01	0	37	104	0	69	30597
2026-01-19 03:19:17.09	7.19	30.67	-49.7	-67.5	3.8	7.47e-01	0	37	104	0	69	30619
2026-01-19 03:19:18.10	6.98	30.87	-49.7	-67.5	3.8	7.46e-01	0	37	104	0	69	30661
2026-01-19 03:19:19.10	6.77	31.06	-49.7	-67.5	3.8	7.45e-01	0	37	104	0	69	30668
2026-01-19 03:19:20.11	6.55	31.26	-49.7	-67.5	3.8	7.48e-01	0	37	104	0	69	30587
2026-01-19 03:19:21.12	6.33	31.46	-49.7	-67.5	3.8	7.47e-01	0	37	104	0	69	30689
2026-01-19 03:19:22.13	6.10	31.66	-49.7	-67.5	3.8	7.47e-01	0	37	104	0	69	30565
2026-01-19 03:19:23.14	5.88	31.86	-49.7	-67.5	3.8	7.45e-01	0	37	104	0	69	30640
2026-01-19 03:19:24.14	5.65	32.07	-49.7	-67.5	3.8	7.46e-01	0	37	104	0	69	30616
2026-01-19 03:19:25.15	5.42	32.27	-49.7	-67.5	3.8	7.46e-01	0	37	104	0	69	30627
2026-01-19 03:19:26.16	5.18	32.48	-49.7	-67.5	3.8	7.46e-01	0	37	104	0	69	30614
2026-01-19 03:19:27.17	4.95	32.68	-49.7	-67.5	3.8	7.45e-01	0	37	104	0	69	30650
2026-01-19 03:19:28.18	4.70	32.89	-49.7	-67.5	3.8	7.45e-01	0	37	104	0	69	30593
2026-01-19 03:19:29.18	4.46	33.09	-49.7	-67.5	3.8	7.45e-01	0	37	104	0	69	30623
2026-01-19 03:19:30.19	4.21	33.30	-49.7	-67.5	3.8	7.42e-01	0	37	104	0	69	30643
2026-01-19 03:19:31.20	3.96	33.51	-49.7	-67.5	3.8	7.46e-01	0	37	104	0	69	30609
2026-01-19 03:19:32.21	3.71	33.72	-49.7	-67.5	3.8	7.45e-01	0	37	104	0	69	30609
2026-01-19 03:19:33.21	3.45	33.93	-49.7	-67.5	3.8	7.46e-01	0	37	104	0	69	30619
2026-01-19 03:19:34.23	3.19	34.15	-49.7	-67.5	3.8	7.43e-01	0	37	104	0	69	30560
2026-01-19 03:19:35.23	2.93	34.36	-49.7	-67.5	3.8	7.45e-01	0	37	104	0	69	30600
2026-01-19 03:19:36.24	2.66	34.57	-49.7	-67.5	3.8	7.45e-01	0	37	104	0	69	30542
2026-01-19 03:19:37.24	2.39	34.79	-49.7	-67.5	3.8	7.44e-01	0	37	104	0	69	30628
2026-01-19 03:19:38.25	2.11	35.00	-49.7	-67.5	3.8	7.45e-01	0	37	104	0	69	30591
2026-01-19 03:19:39.26	1.83	35.22	-49.7	-67.5	3.8	7.47e-01	0	37	104	0	69	30613
2026-01-19 03:19:40.27	1.55	35.44	-49.7	-67.5	3.8	7.41e-01	0	37	104	0	69	30636
2026-01-19 03:19:41.27	1.26	35.65	-49.7	-67.5	3.8	7.45e-01	0	37	104	0	69	30619
2026-01-19 03:19:42.28	0.97	35.87	-49.7	-67.5	3.8	7.44e-01	0	37	104	0	69	30597
2026-01-19 03:19:43.29	0.67	36.09	-49.7	-67.5	3.8	7.46e-01	0	37	104	0	69	30630
2026-01-19 03:19:44.30	0.37	36.31	-49.7	-67.5	3.8	7.43e-01	0	37	104	0	69	30639
2026-01-19 03:19:45.31	0.07	36.53	-49.7	-67.5	3.8	7.44e-01	0	37	104	0	69	30605
2026-01-19 03:19:46.32	359.76	36.75	-49.7	-67.5	3.8	7.46e-01	0	37	104	0	69	30679
2026-01-19 03:19:47.32	359.45	36.97	-49.7	-67.5	3.8	7.45e-01	0	37	104	0	69	30605
2026-01-19 03:19:48.33	359.13	37.20	-49.7	-67.5	3.8	7.44e-01	0	37	104	0	69	30686
2026-01-19 03:19:49.34	358.81	37.42	-49.7	-67.5	3.8	7.46e-01	0	37	104	0	69	30604
2026-01-19 03:19:50.35	358.48	37.65	-49.7	-67.5	3.8	7.47e-01	0	37	104	0	69	30638
2026-01-19 03:19:51.36	358.15	37.87	-49.7	-67.5	3.8	7.45e-01	0	37	104	0	69	30608
2026-01-19 03:19:52.36	357.82	38.09	-49.7	-67.5	3.8	7.44e-01	0	37	104	0	69	30669
2026-01-19 03:19:53.37	357.48	38.32	-49.7	-67.5	3.8	7.46e-01	0	37	104	0	69	30661
2026-01-19 03:19:54.38	357.13	38.55	-49.7	-67.5	3.8	7.46e-01	0	37	104	0	69	30647
2026-01-19 03:19:55.39	356.78	38.77	-49.7	-67.5	3.8	7.44e-01	0	37	104	0	69	30593
2026-01-19 03:19:56.39	356.43	39.00	-49.7	-67.5	3.8	7.44e-01	0	37	104	0	69	30600
2026-01-19 03:19:57.40	356.07	39.23	-49.7	-67.5	3.8	7.46e-01	0	37	104	0	69	30629
2026-01-19 03:19:58.41	355.70	39.45	-49.7	-67.5	3.8	7.46e-01	0	37	104	0	69	30632
2026-01-19 03:19:59.42	355.33	39.68	-49.7	-67.5	3.8	7.45e-01	0	37	104	0	69	30605
2026-01-19 03:20:00.42	354.96	39.91	-49.7	-67.5	3.8	7.42e-01	0	37	104	0	69	30647
2026-01-19 03:20:01.43	354.57	40.13	-49.7	-67.5	3.8	7.46e-01	0	37	104	0	69	30598
2026-01-19 03:20:02.44	354.18	40.36	-49.7	-67.5	3.8	7.49e-01	0	37	104	0	69	30615
2026-01-19 03:20:03.45	353.79	40.59	-49.7	-67.5	3.8	7.43e-01	0	37	104	0	69	30641
2026-01-19 03:20:04.45	353.40	40.82	-49.7	-67.5	3.8	7.45e-01	0	37	104	0	69	30690
2026-01-19 03:20:05.46	352.99	41.05	-49.7	-67.5	3.8	7.44e-01	0	37	104	0	69	30605
2026-01-19 03:20:06.47	352.58	41.27	-49.7	-67.5	3.8	7.44e-01	0	37	104	0	69	30611
2026-01-19 03:20:07.48	352.16	41.50	-49.7	-67.5	3.8	7.46e-01	0	37	104	0	69	30640
2026-01-19 03:20:08.49	351.74	41.73	-49.7	-67.5	3.8	7.44e-01	0	37	104	0	69	30565
2026-01-19 03:20:09.49	351.31	41.96	-49.7	-67.5	3.8	7.44e-01	0	37	104	0	69	30601
2026-01-19 03:20:10.50	350.88	42.18	-49.7	-67.5	3.8	7.45e-01	0	37	104	0	69	30622
2026-01-19 03:20:11.51	350.44	42.41	-49.7	-67.5	3.8	7.45e-01	0	37	104	0	69	30632
2026-01-19 03:20:12.52	349.99	42.64	-49.7	-67.5	3.8	7.46e-01	0	37	104	0	69	30665
2026-01-19 03:20:13.52	349.54	42.86	-49.7	-67.5	3.8	7.47e-01	0	37	104	0	69	30660
2026-01-19 03:20:14.53	349.08	43.09	-49.7	-67.5	3.8	7.46e-01	0	37	104	0	69	30714
2026-01-19 03:20:15.54	348.61	43.31	-49.7	-67.5	3.8	7.46e-01	0	37	104	0	69	30660
2026-01-19 03:20:16.54	348.14	43.53	-49.7	-67.5	3.8	7.45e-01	0	37	104	0	69	30653
2026-01-19 03:20:17.55	347.66	43.75	-49.7	-67.5	3.8	7.47e-01	0	37	104	0	69	30707
2026-01-19 03:20:18.56	347.17	43.98	-49.7	-67.5	3.8	7.47e-01	0	37	104	0	69	30629
2026-01-19 03:20:19.57	346.67	44.20	-49.7	-67.5	3.8	7.43e-01	0	37	104	0	69	30642
2026-01-19 03:20:20.58	346.17	44.42	-49.7	-67.5	3.8	7.45e-01	0	37	104	0	69	30636
2026-01-19 03:20:21.59	345.66	44.64	-49.7	-67.5	3.8	7.44e-01	0	37	104	0	69	30700
2026-01-19 03:20:22.60	345.14	44.85	-49.7	-67.5	3.8	7.46e-01	0	37	104	0	69	30629
2026-01-19 03:20:23.60	344.62	45.07	-49.7	-67.5	3.8	7.47e-01	0	37	104	0	69	30686
2026-01-19 03:20:24.61	344.09	45.28	-49.7	-67.5	3.8	7.44e-01	0	37	104	0	69	30655
2026-01-19 03:20:25.62	343.55	45.49	-49.7	-67.5	3.8	7.46e-01	0	37	104	0	69	30646
2026-01-19 03:20:26.63	343.01	45.71	-49.7	-67.5	3.8	7.44e-01	0	37	104	0	69	30621
2026-01-19 03:20:27.64	342.45	45.92	-49.7	-67.5	3.8	7.45e-01	0	37	104	0	69	30649
2026-01-19 03:20:28.65	341.89	46.12	-49.7	-67.5	3.8	7.46e-01	0	37	104	0	69	30658
2026-01-19 03:20:29.66	341.32	46.33	-49.7	-67.5	3.8	7.48e-01	0	37	104	0	69	30595
2026-01-19 03:20:30.66	340.75	46.53	-49.7	-67.5	3.8	7.46e-01	0	37	104	0	69	30591
2026-01-19 03:20:31.67	340.17	46.73	-49.7	-67.5	3.8	7.42e-01	0	37	104	0	69	30668
2026-01-19 03:20:32.68	339.58	46.93	-49.7	-67.5	3.8	7.44e-01	0	37	104	0	69	30628
2026-01-19 03:20:33.69	338.98	47.13	-49.7	-67.5	3.8	7.46e-01	0	37	104	0	69	30567
2026-01-19 03:20:34.70	338.37	47.32	-49.7	-67.5	3.8	7.44e-01	0	37	104	0	69	30644
2026-01-19 03:20:35.70	337.76	47.51	-49.7	-67.5	3.8	7.45e-01	0	37	104	0	69	30628
2026-01-19 03:20:36.71	337.14	47.70	-49.7	-67.5	3.8	7.45e-01	0	37	104	0	69	30547
2026-01-19 03:20:37.72	336.51	47.89	-49.7	-67.5	3.8	7.48e-01	0	37	104	0	69	30648
2026-01-19 03:20:38.73	335.87	48.07	-49.7	-67.5	3.8	7.45e-01	0	37	104	0	69	30653
2026-01-19 03:20:39.74	335.23	48.25	-49.7	-67.5	3.8	7.46e-01	0	37	104	0	69	30612
2026-01-19 03:20:40.74	334.58	48.43	-49.7	-67.5	3.8	7.43e-01	0	37	104	0	69	30603
2026-01-19 03:20:41.75	333.92	48.60	-49.7	-67.5	3.8	7.47e-01	0	37	104	0	69	30631
2026-01-19 03:20:42.76	333.25	48.77	-49.7	-67.5	3.8	7.47e-01	0	37	104	0	69	30637
2026-01-19 03:20:43.77	332.58	48.94	-49.7	-67.5	3.8	7.43e-01	0	37	104	0	69	30626
2026-01-19 03:20:44.78	331.89	49.11	-49.7	-67.5	3.8	7.46e-01	0	37	104	0	69	30599
2026-01-19 03:20:45.79	331.20	49.26	-49.7	-67.5	3.8	7.46e-01	0	37	104	0	69	30623
2026-01-19 03:20:46.80	330.51	49.42	-49.7	-67.5	3.8	7.44e-01	0	37	104	0	69	30629
2026-01-19 03:20:47.80	329.81	49.57	-49.7	-67.5	3.8	7.48e-01	0	37	104	0	69	30667
2026-01-19 03:20:48.81	329.10	49.72	-49.7	-67.5	3.8	7.46e-01	0	37	104	0	69	30679
2026-01-19 03:20:49.82	328.38	49.86	-49.7	-67.5	3.8	7.47e-01	0	37	104	0	69	30610
2026-01-19 03:20:50.83	327.65	50.00	-49.7	-67.5	3.8	7.44e-01	0	37	104	0	69	30623
2026-01-19 03:20:51.84	326.92	50.14	-49.7	-67.5	3.8	7.46e-01	0	37	104	0	69	30641
2026-01-19 03:20:52.85	326.18	50.27	-49.7	-67.5	3.8	7.45e-01	0	37	104	0	69	30689
2026-01-19 03:20:53.85	325.44	50.39	-49.7	-67.5	3.8	7.46e-01	0	37	104	0	69	30598
2026-01-19 03:20:54.86	324.69	50.51	-49.7	-67.5	3.8	7.47e-01	0	37	104	0	69	30643
2026-01-19 03:20:55.87	323.93	50.63	-49.7	-67.5	3.8	7.44e-01	0	37	104	0	69	30611
2026-01-19 03:20:56.88	323.17	50.74	-49.7	-67.5	3.8	7.48e-01	0	37	104	0	69	30700
2026-01-19 03:20:57.88	322.41	50.84	-49.7	-67.5	3.8	7.43e-01	0	37	104	0	69	30619
2026-01-19 03:20:58.90	321.63	50.94	-49.7	-67.5	3.8	7.46e-01	0	37	104	0	69	30686
2026-01-19 03:20:59.90	320.86	51.04	-49.7	-67.5	3.8	7.48e-01	0	37	104	0	69	30630
2026-01-19 03:21:00.90	320.08	51.13	-49.7	-67.5	3.8	7.46e-01	0	37	104	0	69	30662
2026-01-19 03:21:01.91	319.29	51.21	-49.7	-67.5	3.8	7.44e-01	0	37	104	0	69	30707
2026-01-19 03:21:02.92	318.50	51.29	-49.7	-67.5	3.8	7.44e-01	0	37	104	0	69	30665
2026-01-19 03:21:03.92	317.71	51.36	-49.7	-67.5	3.8	7.50e-01	0	37	104	0	69	30630
2026-01-19 03:21:04.93	316.91	51.43	-49.7	-67.5	3.8	7.45e-01	0	37	104	0	69	30578
2026-01-19 03:21:05.94	316.10	51.49	-49.7	-67.5	3.8	7.44e-01	0	37	104	0	69	30608
2026-01-19 03:21:06.95	315.30	51.55	-49.7	-67.5	3.8	7.42e-01	0	37	104	0	69	30655
2026-01-19 03:21:07.96	314.49	51.60	-49.7	-67.5	3.8	7.45e-01	0	37	104	0	69	30698
2026-01-19 03:21:08.96	313.68	51.64	-49.7	-67.5	3.8	7.45e-01	0	37	104	0	69	30590
2026-01-19 03:21:09.97	312.86	51.68	-49.7	-67.5	3.8	7.46e-01	0	37	104	0	69	30605
2026-01-19 03:21:10.98	312.05	51.71	-49.7	-67.5	3.8	7.48e-01	0	37	104	0	69	30589
2026-01-19 03:21:11.98	311.24	51.74	-49.7	-67.5	3.8	7.48e-01	0	37	104	0	69	30594
2026-01-19 03:21:12.98	310.42	51.76	-49.7	-67.5	3.8	7.43e-01	0	37	104	0	69	30645
2026-01-19 03:21:13.99	309.60	51.77	-49.7	-67.5	3.8	7.50e-01	0	37	104	0	69	30623
2026-01-19 03:21:15.00	308.78	51.78	-49.7	-67.5	3.8	7.46e-01	0	37	104	0	69	30646
2026-01-19 03:21:16.01	307.96	51.78	-49.7	-67.5	3.8	7.45e-01	0	37	104	0	69	30573
2026-01-19 03:21:17.02	307.14	51.78	-49.7	-67.5	3.8	7.48e-01	0	37	104	0	69	30581
2026-01-19 03:21:18.02	306.32	51.77	-49.7	-67.5	3.8	7.45e-01	0	37	104	0	69	30644
2026-01-19 03:21:19.03	305.50	51.75	-49.7	-67.5	3.8	7.44e-01	0	37	104	0	69	30648
2026-01-19 03:21:20.04	304.68	51.73	-49.7	-67.5	3.8	7.43e-01	0	37	104	0	69	30616
2026-01-19 03:21:21.05	303.86	51.70	-49.7	-67.5	3.8	7.45e-01	0	37	104	0	69	30613
2026-01-19 03:21:22.06	303.04	51.67	-49.7	-67.5	3.8	7.45e-01	0	37	104	0	69	30604
2026-01-19 03:21:23.07	302.23	51.63	-49.7	-67.5	3.8	7.48e-01	0	37	104	0	69	30561
2026-01-19 03:21:24.07	301.42	51.58	-49.7	-67.5	3.8	7.48e-01	0	37	104	0	69	30623
2026-01-19 03:21:25.08	300.61	51.53	-49.7	-67.5	3.8	7.45e-01	0	37	104	0	69	30652
2026-01-19 03:21:26.08	299.81	51.47	-49.7	-67.5	3.8	7.45e-01	0	37	104	0	69	30582
2026-01-19 03:21:27.09	299.01	51.41	-49.7	-67.5	3.8	7.46e-01	0	37	104	0	69	30649
2026-01-19 03:21:28.10	298.21	51.34	-49.7	-67.5	3.8	7.45e-01	0	37	104	0	69	30563
2026-01-19 03:21:29.11	297.41	51.27	-49.7	-67.5	3.8	7.48e-01	0	37	104	0	69	30573
2026-01-19 03:21:30.12	296.62	51.19	-49.7	-67.5	3.8	7.44e-01	0	37	104	0	69	30607
2026-01-19 03:21:31.13	295.83	51.10	-49.7	-67.5	3.8	7.48e-01	0	37	104	0	69	30608
2026-01-19 03:21:32.14	295.05	51.01	-49.7	-67.5	3.8	7.45e-01	0	37	104	0	69	30534
2026-01-19 03:21:33.14	294.28	50.91	-49.7	-67.5	3.8	7.43e-01	0	37	104	0	69	30572
2026-01-19 03:21:34.15	293.51	50.81	-49.7	-67.5	3.8	7.45e-01	0	37	104	0	69	30608
2026-01-19 03:21:35.16	292.74	50.70	-49.7	-67.5	3.8	7.41e-01	0	37	104	0	69	30617
2026-01-19 03:21:36.17	291.98	50.59	-49.7	-67.5	3.8	7.45e-01	0	37	104	0	69	30598
2026-01-19 03:21:37.17	291.23	50.47	-49.7	-67.5	3.8	7.45e-01	0	37	104	0	69	30587
2026-01-19 03:21:38.19	290.47	50.35	-49.7	-67.5	3.8	7.42e-01	0	37	104	0	69	30642
2026-01-19 03:21:39.19	289.73	50.23	-49.7	-67.5	3.8	7.48e-01	0	37	104	0	69	30586
2026-01-19 03:21:40.20	289.00	50.09	-49.7	-67.5	3.8	7.45e-01	0	37	104	0	69	30557
2026-01-19 03:21:41.21	288.27	49.96	-49.7	-67.5	3.8	7.42e-01	0	37	104	0	69	30636
2026-01-19 03:21:42.22	287.54	49.82	-49.7	-67.5	3.8	7.45e-01	0	37	104	0	69	30614
2026-01-19 03:21:43.22	286.83	49.67	-49.7	-67.5	3.8	7.46e-01	0	37	104	0	69	30614
2026-01-19 03:21:44.23	286.12	49.52	-49.7	-67.5	3.8	7.45e-01	0	37	104	0	69	30648
2026-01-19 03:21:45.24	285.42	49.37	-49.7	-67.5	3.8	7.48e-01	0	37	104	0	69	30634
2026-01-19 03:21:46.25	284.72	49.21	-49.7	-67.5	3.8	7.45e-01	0	37	104	0	69	30615
2026-01-19 03:21:47.26	284.03	49.05	-49.7	-67.5	3.8	7.47e-01	0	37	104	0	69	30640
2026-01-19 03:21:48.26	283.36	48.89	-49.7	-67.5	3.8	7.45e-01	0	37	104	0	69	30661
2026-01-19 03:21:49.27	282.68	48.72	-49.7	-67.5	3.8	7.46e-01	0	37	104	0	69	30574
2026-01-19 03:21:50.28	282.02	48.55	-49.7	-67.5	3.8	7.42e-01	0	37	104	0	69	30643
2026-01-19 03:21:51.29	281.36	48.37	-49.7	-67.5	3.8	7.49e-01	0	37	104	0	69	30578
2026-01-19 03:21:52.30	280.71	48.19	-49.7	-67.5	3.8	7.47e-01	0	37	104	0	69	30660
2026-01-19 03:21:53.30	280.07	48.01	-49.7	-67.5	3.8	7.41e-01	0	37	104	0	69	30608
2026-01-19 03:21:54.31	279.43	47.83	-49.7	-67.5	3.8	7.46e-01	0	37	104	0	69	30588
2026-01-19 03:21:55.32	278.80	47.64	-49.7	-67.5	3.8	7.48e-01	0	37	104	0	69	30596
2026-01-19 03:21:56.33	278.18	47.45	-49.7	-67.5	3.8	7.44e-01	0	37	104	0	69	30588
2026-01-19 03:21:57.34	277.57	47.26	-49.7	-67.5	3.8	7.42e-01	0	37	104	0	69	30574
2026-01-19 03:21:58.34	276.97	47.06	-49.7	-67.5	3.8	7.45e-01	0	37	104	0	69	30570
2026-01-19 03:21:59.35	276.37	46.87	-49.7	-67.5	3.8	7.46e-01	0	37	104	0	69	30572
2026-01-19 03:22:00.36	275.78	46.67	-49.7	-67.5	3.8	7.45e-01	0	37	104	0	69	30613
2026-01-19 03:22:01.37	275.20	46.46	-49.7	-67.5	3.8	7.48e-01	0	37	104	0	69	30592
2026-01-19 03:22:02.38	274.63	46.26	-49.7	-67.5	3.8	7.47e-01	0	37	104	0	69	30622
2026-01-19 03:22:03.38	274.06	46.05	-49.7	-67.5	3.8	7.45e-01	0	37	104	0	69	30598
2026-01-19 03:22:04.39	273.50	45.84	-49.7	-67.5	3.8	7.47e-01	0	37	104	0	69	30615
2026-01-19 03:22:05.40	272.95	45.63	-49.7	-67.5	3.8	7.43e-01	0	37	104	0	69	30610
2026-01-19 03:22:06.41	272.41	45.42	-49.7	-67.5	3.8	7.47e-01	0	37	104	0	69	30590
2026-01-19 03:22:07.42	271.87	45.21	-49.7	-67.5	3.8	7.46e-01	0	37	104	0	69	30629
2026-01-19 03:22:08.42	271.35	44.99	-49.7	-67.5	3.8	7.46e-01	0	37	104	0	69	30587
2026-01-19 03:22:09.43	270.82	44.78	-49.7	-67.5	3.8	7.47e-01	0	37	104	0	69	30558
2026-01-19 03:22:10.44	270.31	44.56	-49.7	-67.5	3.8	7.44e-01	0	37	104	0	69	30556
2026-01-19 03:22:11.45	269.80	44.34	-49.7	-67.5	3.8	7.43e-01	0	37	104	0	69	30626
2026-01-19 03:22:12.46	269.30	44.12	-49.7	-67.5	3.8	7.47e-01	0	37	104	0	69	30575
2026-01-19 03:22:13.47	268.80	43.90	-49.7	-67.5	3.8	7.47e-01	0	37	104	0	69	30630
2026-01-19 03:22:14.48	268.32	43.67	-49.7	-67.5	3.8	7.42e-01	0	37	104	0	69	30549
2026-01-19 03:22:15.49	267.84	43.45	-49.7	-67.5	3.8	7.40e-01	0	37	104	0	69	30547
2026-01-19 03:22:16.50	267.36	43.23	-49.7	-67.5	3.8	7.43e-01	0	37	104	0	69	30577
2026-01-19 03:22:17.50	266.90	43.00	-49.7	-67.5	3.8	7.46e-01	0	37	104	0	69	30562
2026-01-19 03:22:18.51	266.44	42.78	-49.7	-67.5	3.8	7.48e-01	0	37	104	0	69	30564
2026-01-19 03:22:19.52	265.99	42.55	-49.7	-67.5	3.8	7.46e-01	0	37	104	0	69	30544
2026-01-19 03:22:20.53	265.54	42.32	-49.7	-67.5	3.8	7.43e-01	0	37	104	0	69	30545
2026-01-19 03:22:21.54	265.10	42.10	-49.7	-67.5	3.8	7.46e-01	0	37	104	0	69	30556
2026-01-19 03:22:22.54	264.67	41.87	-49.7	-67.5	3.8	7.45e-01	0	37	104	0	69	30643
2026-01-19 03:22:23.55	264.24	41.64	-49.7	-67.5	3.8	7.46e-01	0	37	104	0	69	30528
2026-01-19 03:22:24.56	263.82	41.41	-49.7	-67.5	3.8	7.46e-01	0	37	104	0	69	30561
2026-01-19 03:22:25.57	263.40	41.18	-49.7	-67.5	3.8	7.43e-01	0	37	104	0	69	30648
2026-01-19 03:22:26.58	262.99	40.96	-49.7	-67.5	3.8	7.47e-01	0	37	104	0	69	30558
2026-01-19 03:22:27.59	262.59	40.73	-49.7	-67.5	3.8	7.45e-01	0	37	104	0	69	30604
2026-01-19 03:22:28.60	262.19	40.50	-49.7	-67.5	3.8	7.48e-01	0	37	104	0	69	30569
2026-01-19 03:22:29.60	261.80	40.27	-49.7	-67.5	3.8	7.45e-01	0	37	104	0	69	30572
2026-01-19 03:22:30.62	261.41	40.04	-49.7	-67.5	3.8	7.43e-01	0	37	104	0	69	30566
2026-01-19 03:22:31.62	261.03	39.81	-49.7	-67.5	3.8	7.45e-01	0	37	104	0	69	30584
2026-01-19 03:22:32.63	260.66	39.58	-49.7	-67.5	3.8	7.42e-01	0	37	104	0	69	30590
2026-01-19 03:22:33.64	260.29	39.36	-49.7	-67.5	3.8	7.47e-01	0	37	104	0	69	30569
2026-01-19 03:22:34.65	259.92	39.13	-49.7	-67.5	3.8	7.46e-01	0	37	104	0	69	30548
2026-01-19 03:22:35.66	259.56	38.90	-49.7	-67.5	3.8	7.46e-01	0	37	104	0	69	30584
2026-01-19 03:22:36.66	259.21	38.67	-49.7	-67.5	3.8	7.46e-01	0	37	104	0	69	30568
2026-01-19 03:22:37.67	258.86	38.45	-49.7	-67.5	3.8	7.48e-01	0	37	104	0	69	30614
2026-01-19 03:22:38.68	258.51	38.22	-49.7	-67.5	3.8	7.47e-01	0	37	104	0	69	30545
2026-01-19 03:22:39.68	258.18	38.00	-49.7	-67.5	3.8	7.44e-01	0	37	104	0	69	30538
2026-01-19 03:22:40.69	257.84	37.77	-49.7	-67.5	3.8	7.43e-01	0	37	104	0	69	30552
2026-01-19 03:22:41.70	257.51	37.54	-49.7	-67.5	3.8	7.44e-01	0	37	104	0	69	30569
2026-01-19 03:22:42.71	257.19	37.32	-49.7	-67.5	3.8	7.47e-01	0	37	104	0	69	30565
2026-01-19 03:22:43.72	256.86	37.10	-49.7	-67.5	3.8	7.41e-01	0	37	104	0	69	30577
2026-01-19 03:22:44.73	256.55	36.87	-49.7	-67.5	3.8	7.49e-01	0	37	104	0	69	30594
2026-01-19 03:22:45.74	256.24	36.65	-49.7	-67.5	3.8	7.43e-01	0	37	104	0	69	30567
2026-01-19 03:22:46.74	255.93	36.43	-49.7	-67.5	3.8	7.46e-01	0	37	104	0	69	30561
2026-01-19 03:22:47.75	255.63	36.21	-49.7	-67.5	3.8	7.42e-01	0	37	104	0	69	30540
2026-01-19 03:22:48.76	255.33	35.99	-49.7	-67.5	3.8	7.48e-01	0	37	104	0	69	30565
2026-01-19 03:22:49.77	255.03	35.77	-49.7	-67.5	3.8	7.46e-01	0	37	104	0	69	30529
2026-01-19 03:22:50.78	254.74	35.55	-49.7	-67.5	3.8	7.46e-01	0	37	104	0	69	30551
2026-01-19 03:22:51.78	254.46	35.33	-49.7	-67.5	3.8	7.43e-01	0	37	104	0	69	30566
2026-01-19 03:22:52.80	254.17	35.11	-49.7	-67.5	3.8	7.43e-01	0	37	104	0	69	30531
2026-01-19 03:22:53.80	253.89	34.90	-49.7	-67.5	3.8	7.43e-01	0	37	104	0	69	30601
2026-01-19 03:22:54.81	253.62	34.68	-49.7	-67.5	3.8	7.44e-01	0	37	104	0	69	30524
2026-01-19 03:22:55.82	253.35	34.46	-49.7	-67.5	3.8	7.43e-01	0	37	104	0	69	30596
2026-01-19 03:22:56.83	253.08	34.25	-49.7	-67.5	3.8	7.46e-01	0	37	104	0	69	30610
2026-01-19 03:22:57.83	252.82	34.04	-49.7	-67.5	3.8	7.47e-01	0	37	104	0	69	30541
2026-01-19 03:22:58.84	252.55	33.83	-49.7	-67.5	3.8	7.47e-01	0	37	104	0	69	30526
2026-01-19 03:22:59.85	252.30	33.61	-49.7	-67.5	3.8	7.48e-01	0	37	104	0	69	30533
2026-01-19 03:23:00.86	252.04	33.40	-49.7	-67.5	3.8	7.48e-01	0	37	104	0	69	30591
2026-01-19 03:23:01.87	251.79	33.19	-49.7	-67.5	3.8	7.47e-01	0	37	104	0	69	30611
2026-01-19 03:23:02.88	251.54	32.98	-49.7	-67.5	3.8	7.46e-01	0	37	104	0	69	30538
2026-01-19 03:23:03.88	251.30	32.78	-49.7	-67.5	3.8	7.45e-01	0	37	104	0	69	30554
2026-01-19 03:23:04.89	251.06	32.57	-49.7	-67.5	3.8	7.46e-01	0	37	104	0	69	30577
2026-01-19 03:23:05.90	250.82	32.36	-49.7	-67.5	3.8	7.48e-01	0	37	104	0	69	30506
2026-01-19 03:23:06.91	250.59	32.16	-49.7	-67.5	3.8	7.49e-01	0	37	104	0	69	30597
2026-01-19 03:23:07.92	250.36	31.95	-49.7	-67.5	3.8	7.46e-01	0	37	104	0	69	30517
2026-01-19 03:23:08.92	250.13	31.75	-49.7	-67.5	3.8	7.44e-01	0	37	104	0	69	30554
2026-01-19 03:23:09.93	249.91	31.55	-49.7	-67.5	3.8	7.45e-01	0	37	104	0	69	30555
2026-01-19 03:23:10.94	249.68	31.35	-49.7	-67.5	3.8	7.46e-01	0	37	104	0	69	30554
2026-01-19 03:23:11.94	249.47	31.15	-49.7	-67.5	3.8	7.44e-01	0	37	104	0	69	30541
2026-01-19 03:23:12.95	249.25	30.95	-49.7	-67.5	3.8	7.46e-01	0	37	104	0	69	30653
2026-01-19 03:23:13.96	249.03	30.75	-49.7	-67.5	3.8	7.48e-01	0	37	104	0	69	30570
2026-01-19 03:23:14.97	248.82	30.56	-49.7	-67.5	3.8	7.47e-01	0	37	104	0	69	30606
2026-01-19 03:23:15.98	248.61	30.36	-49.7	-67.5	3.8	7.47e-01	0	37	104	0	69	30572
2026-01-19 03:23:16.98	248.41	30.17	-49.7	-67.5	3.8	7.44e-01	0	37	104	0	69	30607
2026-01-19 03:23:17.99	248.21	29.97	-49.7	-67.5	3.8	7.47e-01	0	37	104	0	69	30557
2026-01-19 03:23:19.00	248.00	29.78	-49.7	-67.5	3.8	7.44e-01	0	37	104	0	69	30628
2026-01-19 03:23:20.01	247.81	29.59	-49.7	-67.5	3.8	7.46e-01	0	37	104	0	69	30630
2026-01-19 03:23:21.02	247.61	29.39	-49.7	-67.5	3.8	7.45e-01	0	37	104	0	69	30610
2026-01-19 03:23:22.02	247.42	29.21	-49.7	-67.5	3.8	7.44e-01	0	37	104	0	69	30617
2026-01-19 03:23:23.03	247.23	29.02	-49.7	-67.5	3.8	7.46e-01	0	37	104	0	69	30558
2026-01-19 03:23:24.04	247.04	28.83	-49.7	-67.5	3.8	7.45e-01	0	37	104	0	69	30637
2026-01-19 03:23:25.05	246.85	28.64	-49.7	-67.5	3.8	7.45e-01	0	37	104	0	69	30532
2026-01-19 03:23:26.05	246.67	28.46	-49.7	-67.5	3.8	7.47e-01	0	37	104	0	69	30561
2026-01-19 03:23:27.07	246.48	28.27	-49.7	-67.5	3.8	7.45e-01	0	37	104	0	69	30580
2026-01-19 03:23:28.07	246.30	28.09	-49.7	-67.5	3.8	7.47e-01	0	37	104	0	69	30544
2026-01-19 03:23:29.08	246.13	27.90	-49.7	-67.5	3.8	7.46e-01	0	37	104	0	69	30582
2026-01-19 03:23:30.09	245.95	27.72	-49.7	-67.5	3.8	7.43e-01	0	37	104	0	69	30585
2026-01-19 03:23:31.09	245.78	27.54	-49.7	-67.5	3.8	7.41e-01	0	37	104	0	69	30625
2026-01-19 03:23:32.10	245.61	27.36	-49.7	-67.5	3.8	7.45e-01	0	37	104	0	69	30625
2026-01-19 03:23:33.11	245.44	27.18	-49.7	-67.5	3.8	7.48e-01	0	37	104	0	69	30564
2026-01-19 03:23:34.12	245.27	27.00	-49.7	-67.5	3.8	7.50e-01	0	37	104	0	69	30556
2026-01-19 03:23:35.13	245.10	26.83	-49.7	-67.5	3.8	7.45e-01	0	37	104	0	69	30557
2026-01-19 03:23:36.14	244.94	26.65	-49.7	-67.5	3.8	7.48e-01	0	37	104	0	69	30516
2026-01-19 03:23:37.15	244.78	26.47	-49.7	-67.5	3.8	7.41e-01	0	37	104	0	69	30538
2026-01-19 03:23:38.15	244.62	26.30	-49.7	-67.5	3.8	7.43e-01	0	37	104	0	69	30603
2026-01-19 03:23:39.16	244.46	26.13	-49.7	-67.5	3.8	7.43e-01	0	37	104	0	69	30555
2026-01-19 03:23:40.17	244.31	25.96	-49.7	-67.5	3.8	7.45e-01	0	37	104	0	69	30612
2026-01-19 03:23:41.18	244.15	25.78	-49.7	-67.5	3.8	7.44e-01	0	37	104	0	69	30540
2026-01-19 03:23:42.19	244.00	25.61	-49.7	-67.5	3.8	7.46e-01	0	37	104	0	69	30643
2026-01-19 03:23:43.20	243.85	25.44	-49.7	-67.5	3.8	7.45e-01	0	37	104	0	69	30581
2026-01-19 03:23:44.20	243.70	25.28	-49.7	-67.5	3.8	7.43e-01	0	37	104	0	69	30592
2026-01-19 03:23:45.21	243.55	25.11	-49.7	-67.5	3.8	7.48e-01	0	37	104	0	69	30509
2026-01-19 03:23:46.22	243.41	24.94	-49.7	-67.5	3.8	7.45e-01	0	37	104	0	69	30530
2026-01-19 03:23:47.23	243.26	24.78	-49.7	-67.5	3.8	7.45e-01	0	37	104	0	69	30465
2026-01-19 03:23:48.23	243.12	24.61	-49.7	-67.5	3.8	7.45e-01	0	37	104	0	69	30483
2026-01-19 03:23:49.24	242.98	24.45	-49.7	-67.5	3.8	7.44e-01	0	37	104	0	69	30511
2026-01-19 03:23:50.25	242.84	24.29	-49.7	-67.5	3.8	7.47e-01	0	37	104	0	69	30549
2026-01-19 03:23:51.26	242.70	24.12	-49.7	-67.5	3.8	7.45e-01	0	37	104	0	69	30631
2026-01-19 03:23:52.27	242.56	23.96	-49.7	-67.5	3.8	7.47e-01	0	37	104	0	69	30566
2026-01-19 03:23:53.27	242.43	23.80	-49.7	-67.5	3.8	7.47e-01	0	37	104	0	69	30649
2026-01-19 03:23:54.28	242.30	23.64	-49.7	-67.5	3.8	7.47e-01	0	37	104	0	69	30557
2026-01-19 03:23:55.29	242.16	23.49	-49.7	-67.5	3.8	7.47e-01	0	37	104	0	69	30565
2026-01-19 03:23:56.30	242.03	23.33	-49.7	-67.5	3.8	7.47e-01	0	37	104	0	69	30579
2026-01-19 03:23:57.31	241.90	23.17	-49.7	-67.5	3.8	7.48e-01	0	37	104	0	69	30556
2026-01-19 03:23:58.32	241.78	23.01	-49.7	-67.5	3.8	7.45e-01	0	37	104	0	69	30582
2026-01-19 03:23:59.32	241.65	22.86	-49.7	-67.5	3.8	7.43e-01	0	37	104	0	69	30575
2026-01-19 03:24:00.33	241.52	22.71	-49.7	-67.5	3.8	7.48e-01	0	37	104	0	69	30573
2026-01-19 03:24:01.34	241.40	22.55	-49.7	-67.5	3.8	7.45e-01	0	37	104	0	69	30532
2026-01-19 03:24:02.35	241.28	22.40	-49.7	-67.5	3.8	7.48e-01	0	37	104	0	69	30531
2026-01-19 03:24:03.35	241.16	22.25	-49.7	-67.5	3.8	7.46e-01	0	37	104	0	69	30589
2026-01-19 03:24:04.37	241.04	22.10	-49.7	-67.5	3.8	7.46e-01	0	37	104	0	69	30510
2026-01-19 03:24:05.37	240.92	21.95	-49.7	-67.5	3.8	7.43e-01	0	37	104	0	69	30577
2026-01-19 03:24:06.37	240.80	21.80	-49.7	-67.5	3.8	7.46e-01	0	37	104	0	69	30571
2026-01-19 03:24:07.38	240.68	21.65	-49.7	-67.5	3.8	7.46e-01	0	37	104	0	69	30618
2026-01-19 03:24:08.39	240.57	21.51	-49.7	-67.5	3.8	7.45e-01	0	37	104	0	69	30571
2026-01-19 03:24:09.40	240.45	21.36	-49.7	-67.5	3.8	7.46e-01	0	37	104	0	69	30550
2026-01-19 03:24:10.41	240.34	21.21	-49.7	-67.5	3.8	7.46e-01	0	37	104	0	69	30516
2026-01-19 03:24:11.41	240.23	21.07	-49.7	-67.5	3.8	7.43e-01	0	37	104	0	69	30602
2026-01-19 03:24:12.42	240.12	20.93	-49.7	-67.5	3.8	7.46e-01	0	37	104	0	69	30498
2026-01-19 03:24:13.43	240.01	20.78	-49.7	-67.5	3.8	7.43e-01	0	37	104	0	69	30625
2026-01-19 03:24:14.44	239.90	20.64	-49.7	-67.5	3.8	7.49e-01	0	37	104	0	69	30619
2026-01-19 03:24:15.45	239.79	20.50	-49.7	-67.5	3.8	7.47e-01	0	37	104	0	69	30596
2026-01-19 03:24:16.46	239.69	20.36	-49.7	-67.5	3.8	7.47e-01	0	37	104	0	69	30591
2026-01-19 03:24:17.46	239.58	20.22	-49.7	-67.5	3.8	7.47e-01	0	37	104	0	69	30587
2026-01-19 03:24:18.47	239.48	20.08	-49.7	-67.5	3.8	7.42e-01	0	37	104	0	69	30585
2026-01-19 03:24:19.48	239.38	19.94	-49.7	-67.5	3.8	7.43e-01	0	37	104	0	69	30566
2026-01-19 03:24:20.49	239.27	19.80	-49.7	-67.5	3.8	7.44e-01	0	37	104	0	69	30543
2026-01-19 03:24:21.50	239.17	19.66	-49.7	-67.5	3.8	7.49e-01	0	37	104	0	69	30550
2026-01-19 03:24:22.50	239.07	19.53	-49.7	-67.5	3.8	7.45e-01	0	37	104	0	69	30607
2026-01-19 03:24:23.51	238.97	19.39	-49.7	-67.5	3.8	7.44e-01	0	37	104	0	69	30550
2026-01-19 03:24:24.52	238.87	19.26	-49.7	-67.5	3.8	7.47e-01	0	37	104	0	69	30576
2026-01-19 03:24:25.53	238.78	19.12	-49.7	-67.5	3.8	7.43e-01	0	37	104	0	69	30514
2026-01-19 03:24:26.53	238.68	18.99	-49.7	-67.5	3.8	7.45e-01	0	37	104	0	69	30552
2026-01-19 03:24:27.54	238.59	18.86	-49.7	-67.5	3.8	7.48e-01	0	37	104	0	69	30526
2026-01-19 03:24:28.55	238.49	18.72	-49.7	-67.5	3.8	7.43e-01	0	37	104	0	69	30524
2026-01-19 03:24:29.56	238.40	18.59	-49.7	-67.5	3.8	7.46e-01	0	37	104	0	69	30544
2026-01-19 03:24:30.57	238.30	18.46	-49.7	-67.5	3.8	7.43e-01	0	37	104	0	69	30505
2026-01-19 03:24:31.58	238.21	18.33	-49.7	-67.5	3.8	7.45e-01	0	37	104	0	69	30570
2026-01-19 03:24:32.59	238.12	18.20	-49.7	-67.5	3.8	7.46e-01	0	37	104	0	69	30598
2026-01-19 03:24:33.60	238.03	18.07	-49.7	-67.5	3.8	7.50e-01	0	37	104	0	69	30602
2026-01-19 03:24:34.60	237.94	17.94	-49.7	-67.5	3.8	7.47e-01	0	37	104	0	69	30533
2026-01-19 03:24:35.61	237.85	17.82	-49.7	-67.5	3.8	7.46e-01	0	37	104	0	69	30541
2026-01-19 03:24:36.62	237.76	17.69	-49.7	-67.5	3.8	7.44e-01	0	37	104	0	69	30585
2026-01-19 03:24:37.63	237.68	17.56	-49.7	-67.5	3.8	7.41e-01	0	37	104	0	69	30606
2026-01-19 03:24:38.64	237.59	17.44	-49.7	-67.5	3.8	7.45e-01	0	37	104	0	69	30514
2026-01-19 03:24:39.65	237.51	17.31	-49.7	-67.5	3.8	7.43e-01	0	37	104	0	69	30497
2026-01-19 03:24:40.65	237.42	17.19	-49.7	-67.5	3.8	7.44e-01	0	37	104	0	69	30567
2026-01-19 03:24:41.66	237.34	17.06	-49.7	-67.5	3.8	7.46e-01	0	37	104	0	69	30532
2026-01-19 03:24:42.67	237.25	16.94	-49.7	-67.5	3.8	7.47e-01	0	37	104	0	69	30537
2026-01-19 03:24:43.68	237.17	16.82	-49.7	-67.5	3.8	7.46e-01	0	37	104	0	69	30545
2026-01-19 03:24:44.69	237.09	16.70	-49.7	-67.5	3.8	7.46e-01	0	37	104	0	69	30535
2026-01-19 03:24:45.70	237.01	16.58	-49.7	-67.5	3.8	7.46e-01	0	37	104	0	69	30591
2026-01-19 03:24:46.70	236.93	16.46	-49.7	-67.5	3.8	7.40e-01	0	37	104	0	69	30559
2026-01-19 03:24:47.71	236.85	16.34	-49.7	-67.5	3.8	7.45e-01	0	37	104	0	69	30552
2026-01-19 03:24:48.72	236.77	16.22	-49.7	-67.5	3.8	7.46e-01	0	37	104	0	69	30575
2026-01-19 03:24:49.73	236.69	16.10	-49.7	-67.5	3.8	7.42e-01	0	37	104	0	69	30649
2026-01-19 03:24:50.73	236.62	15.98	-49.7	-67.5	3.8	7.47e-01	0	37	104	0	69	30597
2026-01-19 03:24:51.74	236.54	15.86	-49.7	-67.5	3.8	7.46e-01	0	37	104	0	69	30656
2026-01-19 03:24:52.75	236.46	15.74	-49.7	-67.5	3.8	7.46e-01	0	37	104	0	69	30557
2026-01-19 03:24:53.76	236.39	15.63	-49.7	-67.5	3.8	7.47e-01	0	37	104	0	69	30536
2026-01-19 03:24:54.76	236.31	15.51	-49.7	-67.5	3.8	7.44e-01	0	37	104	0	69	30597
2026-01-19 03:24:55.77	236.24	15.40	-49.7	-67.5	3.8	7.45e-01	0	37	104	0	69	30536
2026-01-19 03:24:56.78	236.16	15.28	-49.7	-67.5	3.8	7.46e-01	0	37	104	0	69	30594
2026-01-19 03:24:57.79	236.09	15.17	-49.7	-67.5	3.8	7.44e-01	0	37	104	0	69	30578
2026-01-19 03:24:58.80	236.02	15.05	-49.7	-67.5	3.8	7.42e-01	0	37	104	0	69	30557
2026-01-19 03:24:59.80	235.95	14.94	-49.7	-67.5	3.8	7.38e-01	0	37	104	0	69	30559
2026-01-19 03:25:00.81	235.88	14.83	-49.7	-67.5	3.8	7.44e-01	0	37	104	0	69	30612
2026-01-19 03:25:01.82	235.81	14.72	-49.7	-67.5	3.8	7.49e-01	0	37	104	0	69	30591
2026-01-19 03:25:02.83	235.74	14.60	-49.7	-67.5	3.8	7.45e-01	0	37	104	0	69	30622
2026-01-19 03:25:03.84	235.67	14.49	-49.7	-67.5	3.8	7.46e-01	0	37	104	0	69	30535
2026-01-19 03:25:04.85	235.60	14.38	-49.7	-67.5	3.8	7.45e-01	0	37	104	0	69	30551
2026-01-19 03:25:05.85	235.53	14.27	-49.7	-67.5	3.8	7.48e-01	0	37	104	0	69	30599
2026-01-19 03:25:06.86	235.46	14.16	-49.7	-67.5	3.8	7.47e-01	0	37	104	0	69	30603
2026-01-19 03:25:07.87	235.40	14.05	-49.7	-67.5	3.8	7.48e-01	0	37	104	0	69	30578
2026-01-19 03:25:08.87	235.33	13.95	-49.7	-67.5	3.8	7.44e-01	0	37	104	0	69	30601
2026-01-19 03:25:09.89	235.26	13.84	-49.7	-67.5	3.8	7.45e-01	0	37	104	0	69	30598
2026-01-19 03:25:10.89	235.20	13.73	-49.7	-67.5	3.8	7.48e-01	0	37	104	0	69	30620
2026-01-19 03:25:11.90	235.13	13.62	-49.7	-67.5	3.8	7.45e-01	0	37	104	0	69	30518
2026-01-19 03:25:12.91	235.07	13.52	-49.7	-67.5	3.8	7.45e-01	0	37	104	0	69	30583
2026-01-19 03:25:13.92	235.00	13.41	-49.7	-67.5	3.8	7.48e-01	0	37	104	0	69	30597
2026-01-19 03:25:14.92	234.94	13.31	-49.7	-67.5	3.8	7.38e-01	0	37	104	0	69	30608
2026-01-19 03:25:15.93	234.88	13.20	-49.7	-67.5	3.8	7.45e-01	0	37	104	0	69	30504
2026-01-19 03:25:16.94	234.82	13.09	-49.7	-67.5	3.8	7.45e-01	0	37	104	0	69	30603
2026-01-19 03:25:17.95	234.75	12.99	-49.7	-67.5	3.8	7.49e-01	0	37	104	0	69	30628
2026-01-19 03:25:18.96	234.69	12.89	-49.7	-67.5	3.8	7.47e-01	0	37	104	0	69	30592
2026-01-19 03:25:19.96	234.63	12.78	-49.7	-67.5	3.8	7.46e-01	0	37	104	0	69	30565
2026-01-19 03:25:20.97	234.57	12.68	-49.7	-67.5	3.8	7.49e-01	0	37	104	0	69	30642
2026-01-19 03:25:21.98	234.51	12.58	-49.7	-67.5	3.8	7.46e-01	0	37	104	0	69	30509
2026-01-19 03:25:22.99	234.45	12.48	-49.7	-67.5	3.8	7.47e-01	0	37	104	0	69	30604
2026-01-19 03:25:24.00	234.39	12.37	-49.7	-67.5	3.8	7.45e-01	0	37	104	0	69	30588
2026-01-19 03:25:25.00	234.33	12.27	-49.7	-67.5	3.8	7.43e-01	0	37	104	0	69	30618
2026-01-19 03:25:26.01	234.28	12.17	-49.7	-67.5	3.8	7.46e-01	0	37	104	0	69	30597
2026-01-19 03:25:27.02	234.22	12.07	-49.7	-67.5	3.8	7.46e-01	0	37	104	0	69	30580
2026-01-19 03:25:28.02	234.16	11.97	-49.7	-67.5	3.8	7.42e-01	0	37	104	0	69	30572
2026-01-19 03:25:29.03	234.10	11.87	-49.7	-67.5	3.8	7.44e-01	0	37	104	0	69	30610
2026-01-19 03:25:30.04	234.05	11.78	-49.7	-67.5	3.8	7.49e-01	0	37	104	0	69	30633
2026-01-19 03:25:31.05	233.99	11.68	-49.7	-67.5	3.8	7.45e-01	0	37	104	0	69	30629
2026-01-19 03:25:32.06	233.94	11.58	-49.7	-67.5	3.8	7.44e-01	0	37	104	0	69	30589
2026-01-19 03:25:33.06	233.88	11.48	-49.7	-67.5	3.8	7.44e-01	0	37	104	0	69	30583
2026-01-19 03:25:34.07	233.83	11.38	-49.7	-67.5	3.8	7.46e-01	0	37	104	0	69	30612
2026-01-19 03:25:35.08	233.77	11.29	-49.7	-67.5	3.8	7.45e-01	0	37	104	0	69	30565
2026-01-19 03:25:36.09	233.72	11.19	-49.7	-67.5	3.8	7.41e-01	0	37	104	0	69	30516
2026-01-19 03:25:37.09	233.67	11.09	-49.7	-67.5	3.8	7.46e-01	0	37	104	0	69	30596
2026-01-19 03:25:38.10	233.61	11.00	-49.7	-67.5	3.8	7.42e-01	0	37	104	0	69	30574
2026-01-19 03:25:39.11	233.56	10.90	-49.7	-67.5	3.8	7.47e-01	0	37	104	0	69	30603
2026-01-19 03:25:40.12	233.51	10.81	-49.7	-67.5	3.8	7.46e-01	0	37	104	0	69	30641
2026-01-19 03:25:41.12	233.46	10.71	-49.7	-67.5	3.8	7.47e-01	0	37	104	0	69	30628
2026-01-19 03:25:42.13	233.41	10.62	-49.7	-67.5	3.8	7.46e-01	0	37	104	0	69	30569
2026-01-19 03:25:43.14	233.35	10.53	-49.7	-67.5	3.8	7.46e-01	0	37	104	0	69	30522
2026-01-19 03:25:44.15	233.30	10.43	-49.7	-67.5	3.8	7.46e-01	0	37	104	0	69	30593
2026-01-19 03:25:45.16	233.25	10.34	-49.7	-67.5	3.8	7.48e-01	0	37	104	0	69	30564
2026-01-19 03:25:46.16	233.20	10.25	-49.7	-67.5	3.8	7.44e-01	0	37	104	0	69	30569
2026-01-19 03:25:47.17	233.15	10.15	-49.7	-67.5	3.8	7.44e-01	0	37	104	0	69	30521
2026-01-19 03:25:48.18	233.10	10.06	-49.7	-67.5	3.8	7.45e-01	0	37	104	0	69	30584
2026-01-19 03:25:49.19	233.05	9.97	-49.7	-67.5	3.8	7.46e-01	0	37	104	0	69	30586
2026-01-19 03:25:50.20	233.01	9.88	-49.7	-67.5	3.8	7.48e-01	0	37	104	0	69	30571
2026-01-19 03:25:51.20	232.96	9.79	-49.7	-67.5	3.8	7.45e-01	0	37	104	0	69	30542
2026-01-19 03:25:52.22	232.91	9.70	-49.7	-67.5	3.8	7.44e-01	0	37	104	0	69	30558
2026-01-19 03:25:53.22	232.86	9.61	-49.7	-67.5	3.8	7.45e-01	0	37	104	0	69	30549
2026-01-19 03:25:54.23	232.82	9.52	-49.7	-67.5	3.8	7.47e-01	0	37	104	0	69	30546
2026-01-19 03:25:55.24	232.77	9.43	-49.7	-67.5	3.8	7.46e-01	0	37	104	0	69	30494
2026-01-19 03:25:56.25	232.72	9.34	-49.7	-67.5	3.8	7.43e-01	0	37	104	0	69	30546
2026-01-19 03:25:57.26	232.68	9.25	-49.7	-67.5	3.8	7.45e-01	0	37	104	0	69	30552
2026-01-19 03:25:58.26	232.63	9.16	-49.7	-67.5	3.8	7.45e-01	0	37	104	0	69	30489
2026-01-19 03:25:59.27	232.58	9.07	-49.7	-67.5	3.8	7.42e-01	0	37	104	0	69	30565
2026-01-19 03:26:00.28	232.54	8.99	-49.7	-67.5	3.8	7.48e-01	0	37	104	0	69	30542
2026-01-19 03:26:01.29	232.49	8.90	-49.7	-67.5	3.8	7.42e-01	0	37	104	0	69	30579
2026-01-19 03:26:02.29	232.45	8.81	-49.7	-67.5	3.8	7.47e-01	0	37	104	0	69	30546
2026-01-19 03:26:03.30	232.41	8.72	-49.7	-67.5	3.8	7.48e-01	0	37	104	0	69	30610
2026-01-19 03:26:04.31	232.36	8.64	-49.7	-67.5	3.8	7.46e-01	0	37	104	0	69	30608
2026-01-19 03:26:05.32	232.32	8.55	-49.7	-67.5	3.8	7.46e-01	0	37	104	0	69	30548
2026-01-19 03:26:06.33	232.27	8.46	-49.7	-67.5	3.8	7.45e-01	0	37	104	0	69	30596
2026-01-19 03:26:07.33	232.23	8.38	-49.7	-67.5	3.8	7.47e-01	0	37	104	0	69	30630
2026-01-19 03:26:08.34	232.19	8.29	-49.7	-67.5	3.8	7.48e-01	0	37	104	0	69	30608
2026-01-19 03:26:09.35	232.15	8.21	-49.7	-67.5	3.8	7.45e-01	0	37	104	0	69	30570
2026-01-19 03:26:10.36	232.10	8.12	-49.7	-67.5	3.8	7.45e-01	0	37	104	0	69	30598
2026-01-19 03:26:11.37	232.06	8.04	-49.7	-67.5	3.8	7.46e-01	0	37	104	0	69	30576
2026-01-19 03:26:12.38	232.02	7.96	-49.7	-67.5	3.8	7.45e-01	0	37	104	0	69	30574
2026-01-19 03:26:13.38	231.98	7.87	-49.7	-67.5	3.8	7.46e-01	0	37	104	0	69	30589
2026-01-19 03:26:14.39	231.94	7.79	-49.7	-67.5	3.8	7.44e-01	0	37	104	0	69	30507
2026-01-19 03:26:15.40	231.90	7.71	-49.7	-67.5	3.8	7.44e-01	0	37	104	0	69	30562
2026-01-19 03:26:16.41	231.86	7.62	-49.7	-67.5	3.8	7.48e-01	0	37	104	0	69	30565
2026-01-19 03:26:17.42	231.82	7.54	-49.7	-67.5	3.8	7.46e-01	0	37	104	0	69	30593
2026-01-19 03:26:18.42	231.78	7.46	-49.7	-67.5	3.8	7.46e-01	0	37	104	0	69	30558
2026-01-19 03:26:19.43	231.74	7.38	-49.7	-67.5	3.8	7.45e-01	0	37	104	0	69	30611
2026-01-19 03:26:20.44	231.70	7.29	-49.7	-67.5	3.8	7.47e-01	0	37	104	0	69	30633
2026-01-19 03:26:21.45	231.66	7.21	-49.7	-67.5	3.8	7.46e-01	0	37	104	0	69	30617
2026-01-19 03:26:22.46	231.62	7.13	-49.7	-67.5	3.8	7.44e-01	0	37	104	0	69	30575
2026-01-19 03:26:23.46	231.58	7.05	-49.7	-67.5	3.8	7.46e-01	0	37	104	0	69	30561
2026-01-19 03:26:24.47	231.54	6.97	-49.7	-67.5	3.8	7.45e-01	0	37	104	0	69	30582
2026-01-19 03:26:25.48	231.50	6.89	-49.7	-67.5	3.8	7.44e-01	0	37	104	0	69	30592
2026-01-19 03:26:26.49	231.47	6.81	-49.7	-67.5	3.8	7.44e-01	0	37	104	0	69	30605
2026-01-19 03:26:27.50	231.43	6.73	-49.7	-67.5	3.8	7.45e-01	0	37	104	0	69	30552
2026-01-19 03:26:28.51	231.39	6.65	-49.7	-67.5	3.8	7.43e-01	0	37	104	0	69	30594
2026-01-19 03:26:29.52	231.35	6.57	-49.7	-67.5	3.8	7.44e-01	0	37	104	0	69	30587
2026-01-19 03:26:30.52	231.32	6.49	-49.7	-67.5	3.8	7.45e-01	0	37	104	0	69	30590
2026-01-19 03:26:31.53	231.28	6.41	-49.7	-67.5	3.8	7.44e-01	0	37	104	0	69	30583
2026-01-19 03:26:32.54	231.24	6.33	-49.7	-67.5	3.8	7.46e-01	0	37	104	0	69	30561
2026-01-19 03:26:33.55	231.21	6.25	-49.7	-67.5	3.8	7.47e-01	0	37	104	0	69	30619
2026-01-19 03:26:34.56	231.17	6.18	-49.7	-67.5	3.8	7.45e-01	0	37	104	0	69	30555
2026-01-19 03:26:35.56	231.13	6.10	-49.7	-67.5	3.8	7.42e-01	0	37	104	0	69	30585
2026-01-19 03:26:36.57	231.10	6.02	-49.7	-67.5	3.8	7.46e-01	0	37	104	0	69	30574
2026-01-19 03:26:37.58	231.06	5.94	-49.7	-67.5	3.8	7.48e-01	0	37	104	0	69	30603
2026-01-19 03:26:38.58	231.03	5.87	-49.7	-67.5	3.8	7.48e-01	0	37	104	0	69	30550
2026-01-19 03:26:39.59	230.99	5.79	-49.7	-67.5	3.8	7.46e-01	0	37	104	0	69	30565
2026-01-19 03:26:40.60	230.96	5.71	-49.7	-67.5	3.8	7.44e-01	0	37	104	0	69	30630
2026-01-19 03:26:41.61	230.92	5.64	-49.7	-67.5	3.8	7.47e-01	0	37	104	0	69	30572
2026-01-19 03:26:42.62	230.89	5.56	-49.7	-67.5	3.8	7.45e-01	0	37	104	0	69	30549
2026-01-19 03:26:43.62	230.86	5.48	-49.7	-67.5	3.8	7.43e-01	0	37	104	0	69	30556
2026-01-19 03:26:44.63	230.82	5.41	-49.7	-67.5	3.8	7.44e-01	0	37	104	0	69	30553
2026-01-19 03:26:45.64	230.79	5.33	-49.7	-67.5	3.8	7.47e-01	0	37	104	0	69	30565
2026-01-19 03:26:46.65	230.75	5.26	-49.7	-67.5	3.8	7.47e-01	0	37	104	0	69	30535
2026-01-19 03:26:47.66	230.72	5.18	-49.7	-67.5	3.8	7.46e-01	0	37	104	0	69	30543
2026-01-19 03:26:48.67	230.69	5.11	-49.7	-67.5	3.8	7.45e-01	0	37	104	0	69	30625
2026-01-19 03:26:49.68	230.66	5.03	-49.7	-67.5	3.8	7.45e-01	0	37	104	0	69	30558
2026-01-19 03:26:50.68	230.62	4.96	-49.7	-67.5	3.8	7.46e-01	0	37	104	0	69	30568
2026-01-19 03:26:51.69	230.59	4.88	-49.7	-67.5	3.8	7.47e-01	0	37	104	0	69	30614
2026-01-19 03:26:52.70	230.56	4.81	-49.7	-67.5	3.8	7.49e-01	0	37	104	0	69	30610
2026-01-19 03:26:53.71	230.53	4.74	-49.7	-67.5	3.8	7.45e-01	0	37	104	0	69	30553
2026-01-19 03:26:54.72	230.49	4.66	-49.7	-67.5	3.8	7.46e-01	0	37	104	0	69	30584
2026-01-19 03:26:55.72	230.46	4.59	-49.7	-67.5	3.8	7.43e-01	0	37	104	0	69	30623
2026-01-19 03:26:56.73	230.43	4.52	-49.7	-67.5	3.8	7.45e-01	0	37	104	0	69	30575
2026-01-19 03:26:57.74	230.40	4.44	-49.7	-67.5	3.8	7.44e-01	0	37	104	0	69	30596
2026-01-19 03:26:58.74	230.37	4.37	-49.7	-67.5	3.8	7.45e-01	0	37	104	0	69	30528
2026-01-19 03:26:59.75	230.34	4.30	-49.7	-67.5	3.8	7.45e-01	0	37	104	0	69	30598
2026-01-19 03:27:00.76	230.31	4.23	-49.7	-67.5	3.8	7.47e-01	0	37	104	0	69	30650
2026-01-19 03:27:01.77	230.28	4.16	-49.7	-67.5	3.8	7.45e-01	0	37	104	0	69	30549
2026-01-19 03:27:02.78	230.25	4.08	-49.7	-67.5	3.8	7.42e-01	0	37	104	0	69	30648
2026-01-19 03:27:03.79	230.22	4.01	-49.7	-67.5	3.8	7.45e-01	0	37	104	0	69	30641
2026-01-19 03:27:04.80	230.19	3.94	-49.7	-67.5	3.8	7.46e-01	0	37	104	0	69	30558
2026-01-19 03:27:05.80	230.16	3.87	-49.7	-67.5	3.8	7.43e-01	0	37	104	0	69	30566
2026-01-19 03:27:06.81	230.13	3.80	-49.7	-67.5	3.8	7.44e-01	0	37	104	0	69	30586
2026-01-19 03:27:07.82	230.10	3.73	-49.7	-67.5	3.8	7.43e-01	0	37	104	0	69	30585
2026-01-19 03:27:08.83	230.07	3.66	-49.7	-67.5	3.8	7.50e-01	0	37	104	0	69	30576
2026-01-19 03:27:09.84	230.04	3.59	-49.7	-67.5	3.8	7.43e-01	0	37	104	0	69	30581
2026-01-19 03:27:10.84	230.01	3.52	-49.7	-67.5	3.8	7.48e-01	0	37	104	0	69	30640
2026-01-19 03:27:11.85	229.98	3.45	-49.7	-67.5	3.8	7.45e-01	0	37	104	0	69	30554
2026-01-19 03:27:12.86	229.95	3.38	-49.7	-67.5	3.8	7.45e-01	0	37	104	0	69	30549
2026-01-19 03:27:13.87	229.92	3.31	-49.7	-67.5	3.8	7.47e-01	0	37	104	0	69	30634
2026-01-19 03:27:14.88	229.90	3.24	-49.7	-67.5	3.8	7.46e-01	0	37	104	0	69	30545
2026-01-19 03:27:15.88	229.87	3.17	-49.7	-67.5	3.8	7.48e-01	0	37	104	0	69	30624
2026-01-19 03:27:16.89	229.84	3.10	-49.7	-67.5	3.8	7.47e-01	0	37	104	0	69	30549
2026-01-19 03:27:17.90	229.81	3.03	-49.7	-67.5	3.8	7.47e-01	0	37	104	0	69	30528
2026-01-19 03:27:18.91	229.78	2.96	-49.7	-67.5	3.8	7.43e-01	0	37	104	0	69	30588
2026-01-19 03:27:19.91	229.76	2.89	-49.7	-67.5	3.8	7.45e-01	0	37	104	0	69	30601
2026-01-19 03:27:20.92	229.73	2.83	-49.7	-67.5	3.8	7.46e-01	0	37	104	0	69	30601
2026-01-19 03:27:21.93	229.70	2.76	-49.7	-67.5	3.8	7.45e-01	0	37	104	0	69	30632
2026-01-19 03:27:22.94	229.67	2.69	-49.7	-67.5	3.8	7.46e-01	0	37	104	0	69	30599
2026-01-19 03:27:23.95	229.65	2.62	-49.7	-67.5	3.8	7.46e-01	0	37	104	0	69	30512
