passes_logs/2026/01/19/R3.2S_Murmansk/R3.2S_Murmansk__20260119_215411_JL1KF02B06_rec.log

#Pass ID: 20260119_215411_JL1KF02B06
#Satellite: JL1KF02B06
#Configuration: 01B_900M
#almurnet v.1.7.20251203
#Start time: 2026-01-19 21:54:11

#Version: 2.2.20231116
#Station: R3.2S_Murmansk
#Location: 33.079688 lon 68.888172 lat
#TLE: 1 61192U 24169D   26019.30677107  .00005440  00000+0  34250-3 0  9999
#TLE: 2 61192  97.5638 110.4294 0007126  91.2813 268.9233 15.09574260 73372

#Time	Az	El	Level	Level2	SNR	BER	BlckErr	Temp	State	Recorded	gain1	gain2
2026-01-19 21:54:11.54	215.86	2.01	-53.0	-55.2	6.3	0.00e+00	0	39	0	0	78	17575
2026-01-19 21:54:12.53	215.96	2.07	-53.0	-55.2	6.2	0.00e+00	0	39	104	0	77	18743
2026-01-19 21:54:13.54	216.06	2.12	-53.0	-55.2	6.2	0.00e+00	0	39	104	0	77	18654
2026-01-19 21:54:14.55	216.16	2.18	-53.0	-55.2	6.2	0.00e+00	0	39	104	0	77	18649
2026-01-19 21:54:15.56	216.26	2.24	-53.0	-55.2	6.2	0.00e+00	0	39	104	0	77	18634
2026-01-19 21:54:16.57	216.36	2.30	-53.0	-55.2	6.2	0.00e+00	0	39	104	0	77	18636
2026-01-19 21:54:17.58	216.46	2.36	-53.0	-55.2	6.2	0.00e+00	0	39	104	0	77	18660
2026-01-19 21:54:18.58	216.56	2.42	-53.0	-55.1	6.2	0.00e+00	0	39	104	0	77	18549
2026-01-19 21:54:19.59	216.67	2.48	-53.0	-55.2	6.2	0.00e+00	0	39	104	0	77	18623
2026-01-19 21:54:20.60	216.77	2.54	-53.0	-55.2	6.2	0.00e+00	0	39	104	0	77	18617
2026-01-19 21:54:21.61	216.87	2.60	-53.0	-55.2	6.2	0.00e+00	0	39	104	0	77	18605
2026-01-19 21:54:22.61	216.98	2.66	-53.0	-55.1	6.2	0.00e+00	0	39	104	0	77	18596
2026-01-19 21:54:23.62	217.08	2.72	-53.0	-55.1	6.2	0.00e+00	0	39	104	0	77	18557
2026-01-19 21:54:24.63	217.19	2.78	-53.0	-55.1	6.2	0.00e+00	0	39	104	0	77	18595
2026-01-19 21:54:25.64	217.29	2.84	-53.0	-55.2	6.2	0.00e+00	0	39	104	0	77	18623
2026-01-19 21:54:26.65	217.40	2.90	-53.0	-55.1	6.2	0.00e+00	0	40	104	0	77	18577
2026-01-19 21:54:27.65	217.50	2.96	-53.0	-55.1	6.2	0.00e+00	0	40	104	0	77	18570
2026-01-19 21:54:28.66	217.61	3.02	-53.0	-55.2	6.2	0.00e+00	0	40	104	0	77	18613
2026-01-19 21:54:29.67	217.72	3.08	-53.0	-55.2	6.2	0.00e+00	0	39	104	0	77	18668
2026-01-19 21:54:30.67	217.82	3.14	-53.0	-55.1	6.2	0.00e+00	0	40	104	0	77	18566
2026-01-19 21:54:31.68	217.93	3.20	-53.0	-55.2	6.2	0.00e+00	0	40	104	0	77	18609
2026-01-19 21:54:32.69	218.04	3.26	-53.0	-55.1	6.2	0.00e+00	0	40	104	0	77	18554
2026-01-19 21:54:33.70	218.15	3.32	-53.0	-55.2	6.2	0.00e+00	0	40	104	0	77	18630
2026-01-19 21:54:34.71	218.26	3.38	-53.0	-55.1	6.2	0.00e+00	0	40	104	0	77	18555
2026-01-19 21:54:35.72	218.37	3.44	-53.0	-55.1	6.2	0.00e+00	0	40	104	0	77	18579
2026-01-19 21:54:36.73	218.48	3.50	-53.0	-55.1	6.2	0.00e+00	0	40	104	0	77	18555
2026-01-19 21:54:37.73	218.60	3.56	-53.0	-55.2	6.2	0.00e+00	0	40	104	0	77	18604
2026-01-19 21:54:38.74	218.71	3.62	-53.0	-55.1	6.2	0.00e+00	0	40	104	0	77	18575
2026-01-19 21:54:39.75	218.82	3.68	-53.0	-55.1	6.2	0.00e+00	0	40	104	0	77	18595
2026-01-19 21:54:40.76	218.93	3.74	-53.0	-55.2	6.2	0.00e+00	0	40	104	0	77	18608
2026-01-19 21:54:41.77	219.05	3.81	-53.0	-55.1	6.2	0.00e+00	0	40	104	0	77	18587
2026-01-19 21:54:42.78	219.16	3.87	-53.0	-55.1	6.2	0.00e+00	0	40	104	0	77	18568
2026-01-19 21:54:43.78	219.28	3.93	-53.0	-55.2	6.2	0.00e+00	0	40	104	0	77	18620
2026-01-19 21:54:44.79	219.39	3.99	-53.0	-55.1	6.2	0.00e+00	0	40	104	0	77	18574
2026-01-19 21:54:45.79	219.51	4.05	-53.0	-55.1	6.2	0.00e+00	0	40	104	0	77	18558
2026-01-19 21:54:46.80	219.63	4.11	-53.0	-55.1	6.2	0.00e+00	0	40	104	0	77	18508
2026-01-19 21:54:47.81	219.74	4.18	-53.0	-55.1	6.2	0.00e+00	0	40	104	0	77	18576
2026-01-19 21:54:48.82	219.86	4.24	-53.0	-55.1	6.2	0.00e+00	0	40	104	0	77	18539
2026-01-19 21:54:49.83	219.98	4.30	-53.0	-55.1	6.2	0.00e+00	0	40	104	0	77	18584
2026-01-19 21:54:50.83	220.10	4.36	-53.0	-55.1	6.2	0.00e+00	0	40	104	0	77	18543
2026-01-19 21:54:51.84	220.22	4.42	-53.0	-55.1	6.2	0.00e+00	0	40	104	0	77	18598
2026-01-19 21:54:52.85	220.34	4.49	-53.0	-55.1	6.2	0.00e+00	0	40	104	0	77	18506
2026-01-19 21:54:53.86	220.46	4.55	-53.0	-55.1	6.2	0.00e+00	0	40	104	0	77	18552
2026-01-19 21:54:54.87	220.58	4.61	-53.0	-55.1	6.2	0.00e+00	0	40	104	0	77	18600
2026-01-19 21:54:55.88	220.70	4.68	-53.0	-55.1	6.2	0.00e+00	0	40	104	0	77	18529
2026-01-19 21:54:56.88	220.83	4.74	-53.0	-55.1	6.2	0.00e+00	0	40	104	0	77	18543
2026-01-19 21:54:57.89	220.95	4.80	-53.0	-55.1	6.2	0.00e+00	0	40	104	0	77	18499
2026-01-19 21:54:58.90	221.08	4.86	-53.0	-55.1	6.2	0.00e+00	0	40	104	0	77	18515
2026-01-19 21:54:59.91	221.20	4.93	-52.9	-55.1	6.2	0.00e+00	0	40	104	0	77	18537
2026-01-19 21:55:00.91	221.32	4.99	-52.9	-55.1	6.2	0.00e+00	0	40	104	0	77	18568
2026-01-19 21:55:01.92	221.45	5.05	-52.9	-55.1	6.2	0.00e+00	0	40	104	0	77	18548
2026-01-19 21:55:02.93	221.58	5.12	-53.2	-55.3	6.2	0.00e+00	0	40	104	0	77	18948
2026-01-19 21:55:03.94	221.71	5.18	-52.9	-55.1	6.2	0.00e+00	0	40	104	0	77	18427
2026-01-19 21:55:04.95	221.83	5.24	-53.1	-55.2	6.2	0.00e+00	0	40	104	0	77	18767
2026-01-19 21:55:05.95	221.96	5.31	-53.0	-55.2	6.2	0.00e+00	0	40	104	0	77	18659
2026-01-19 21:55:06.96	222.09	5.37	-53.0	-55.1	6.2	0.00e+00	0	40	104	0	77	18513
2026-01-19 21:55:07.97	222.22	5.43	-52.9	-55.0	6.2	0.00e+00	0	40	104	0	77	18386
2026-01-19 21:55:08.98	222.35	5.50	-53.1	-55.3	6.2	0.00e+00	0	40	104	0	77	18851
2026-01-19 21:55:09.99	222.48	5.56	-53.0	-55.2	6.2	0.00e+00	0	40	104	0	77	18724
2026-01-19 21:55:10.99	222.61	5.63	-53.0	-55.1	6.2	0.00e+00	0	40	104	0	77	18565
2026-01-19 21:55:12.00	222.75	5.69	-52.9	-55.1	6.2	0.00e+00	0	40	104	0	77	18479
2026-01-19 21:55:13.01	222.88	5.76	-53.1	-55.3	6.2	0.00e+00	0	40	104	0	77	18898
2026-01-19 21:55:14.02	223.02	5.82	-53.1	-55.2	6.2	0.00e+00	0	40	104	0	77	18765
2026-01-19 21:55:15.02	223.15	5.88	-53.0	-55.1	6.2	0.00e+00	0	40	104	0	77	18595
2026-01-19 21:55:16.03	223.29	5.95	-53.0	-55.1	6.2	0.00e+00	0	41	104	0	77	18567
2026-01-19 21:55:17.04	223.42	6.01	-53.2	-55.3	6.2	0.00e+00	0	40	104	0	77	18990
2026-01-19 21:55:18.05	223.56	6.08	-53.1	-55.2	6.2	0.00e+00	0	40	104	0	77	18742
2026-01-19 21:55:19.05	223.70	6.14	-53.0	-55.2	6.2	0.00e+00	0	41	104	0	77	18610
2026-01-19 21:55:20.06	223.83	6.21	-53.0	-55.1	6.2	0.00e+00	0	40	104	0	77	18576
2026-01-19 21:55:21.07	223.97	6.27	-53.2	-55.3	6.2	0.00e+00	0	41	104	0	77	19008
2026-01-19 21:55:22.08	224.11	6.34	-53.1	-55.3	6.2	0.00e+00	0	40	104	0	77	18858
2026-01-19 21:55:23.09	224.26	6.40	-53.1	-55.2	6.2	0.00e+00	0	41	104	0	77	18729
2026-01-19 21:55:24.09	224.40	6.47	-53.0	-55.2	6.2	0.00e+00	0	41	104	0	77	18619
2026-01-19 21:55:25.10	224.54	6.53	-53.2	-55.3	6.2	0.00e+00	0	41	104	0	77	19034
2026-01-19 21:55:26.11	224.68	6.60	-53.1	-55.3	6.2	0.00e+00	0	41	104	0	77	18865
2026-01-19 21:55:27.12	224.83	6.67	-53.1	-55.3	6.2	0.00e+00	0	41	104	0	77	18837
2026-01-19 21:55:28.13	224.97	6.73	-53.1	-55.2	6.2	0.00e+00	0	41	104	0	77	18696
2026-01-19 21:55:29.13	225.11	6.80	-53.2	-55.4	6.2	0.00e+00	0	41	104	0	77	19147
2026-01-19 21:55:30.14	225.26	6.86	-53.1	-55.3	6.2	0.00e+00	0	40	104	0	77	18962
2026-01-19 21:55:31.15	225.41	6.93	-53.1	-55.3	6.2	0.00e+00	0	41	104	0	77	18839
2026-01-19 21:55:32.16	225.56	6.99	-53.1	-55.2	6.2	0.00e+00	0	41	104	0	77	18798
2026-01-19 21:55:33.17	225.70	7.06	-53.2	-55.4	6.2	0.00e+00	0	41	104	0	77	19115
2026-01-19 21:55:34.17	225.85	7.13	-53.1	-55.3	6.2	0.00e+00	0	41	104	0	77	18937
2026-01-19 21:55:35.18	226.00	7.19	-53.1	-55.3	6.2	0.00e+00	0	41	104	0	77	18930
2026-01-19 21:55:36.19	226.15	7.26	-53.1	-55.2	6.2	0.00e+00	0	41	104	0	77	18814
2026-01-19 21:55:37.20	226.31	7.33	-53.3	-55.4	6.2	0.00e+00	0	41	104	0	77	19143
2026-01-19 21:55:38.21	226.46	7.39	-53.2	-55.4	6.2	0.00e+00	0	41	104	0	77	19055
2026-01-19 21:55:39.21	226.61	7.46	-53.2	-55.3	6.2	0.00e+00	0	41	104	0	77	18965
2026-01-19 21:55:40.22	226.76	7.53	-53.1	-55.3	6.2	0.00e+00	0	41	104	0	77	18932
2026-01-19 21:55:41.23	226.92	7.59	-53.3	-55.4	6.2	0.00e+00	0	41	104	0	77	19229
2026-01-19 21:55:42.24	227.08	7.66	-53.2	-55.4	6.2	0.00e+00	0	41	104	0	77	19038
2026-01-19 21:55:43.24	227.23	7.73	-53.2	-55.3	6.2	0.00e+00	0	41	104	0	77	19005
2026-01-19 21:55:44.25	227.39	7.79	-53.2	-55.3	6.2	0.00e+00	0	41	104	0	77	18946
2026-01-19 21:55:45.25	227.55	7.86	-53.3	-55.4	6.2	0.00e+00	0	41	104	0	77	19237
2026-01-19 21:55:46.26	227.70	7.93	-53.2	-55.4	6.2	0.00e+00	0	41	104	0	77	19086
2026-01-19 21:55:47.27	227.86	7.99	-53.2	-55.4	6.2	0.00e+00	0	41	104	0	77	19062
2026-01-19 21:55:48.28	228.03	8.06	-53.2	-55.3	6.2	0.00e+00	0	41	104	0	77	18957
2026-01-19 21:55:49.29	228.19	8.13	-53.3	-55.4	6.2	0.00e+00	0	41	104	0	77	19232
2026-01-19 21:55:50.30	228.35	8.19	-53.2	-55.4	6.2	0.00e+00	0	41	104	0	77	19180
2026-01-19 21:55:51.31	228.51	8.26	-53.2	-55.4	6.2	0.00e+00	0	41	104	0	77	19071
2026-01-19 21:55:52.31	228.68	8.33	-53.2	-55.3	6.2	0.00e+00	0	41	104	0	77	19034
2026-01-19 21:55:53.32	228.84	8.40	-53.3	-55.5	6.2	0.00e+00	0	41	104	0	77	19301
2026-01-19 21:55:54.33	229.01	8.46	-53.2	-55.4	6.2	0.00e+00	0	41	104	0	77	19170
2026-01-19 21:55:55.34	229.18	8.53	-53.2	-55.4	6.2	0.00e+00	0	41	104	0	77	19168
2026-01-19 21:55:56.34	229.34	8.60	-53.2	-55.4	6.2	0.00e+00	0	41	104	0	77	19066
2026-01-19 21:55:57.35	229.51	8.67	-53.3	-55.5	6.2	0.00e+00	0	41	104	0	77	19266
2026-01-19 21:55:58.36	229.68	8.73	-53.0	-55.0	6.2	0.00e+00	0	41	104	0	77	18348
2026-01-19 21:55:59.37	229.85	8.80	-52.5	-54.3	6.2	0.00e+00	0	41	104	0	77	16911
2026-01-19 21:56:00.38	230.03	8.87	-52.2	-54.0	6.2	0.00e+00	0	41	104	0	76	17165
2026-01-19 21:56:01.38	230.20	8.94	-52.8	-54.6	6.2	0.00e+00	0	41	104	0	76	18541
2026-01-19 21:56:02.39	230.37	9.01	-52.3	-54.0	6.2	0.00e+00	0	41	104	0	76	17176
2026-01-19 21:56:03.40	230.55	9.07	-52.7	-54.6	6.2	0.00e+00	0	41	104	0	76	18413
2026-01-19 21:56:04.40	230.72	9.14	-52.3	-54.1	6.2	0.00e+00	0	41	104	0	76	17371
2026-01-19 21:56:05.41	230.90	9.21	-52.4	-54.1	6.2	0.00e+00	0	41	104	0	76	17494
2026-01-19 21:56:06.42	231.07	9.28	-52.4	-54.1	6.2	0.00e+00	0	41	104	0	76	17507
2026-01-19 21:56:07.43	231.25	9.35	-52.5	-54.3	6.2	0.00e+00	0	41	104	0	76	17954
2026-01-19 21:56:08.43	231.43	9.41	-52.5	-54.3	6.2	0.00e+00	0	41	104	0	76	17874
2026-01-19 21:56:09.44	231.61	9.48	-52.8	-54.8	6.2	0.00e+00	0	41	104	0	76	18850
2026-01-19 21:56:10.45	231.79	9.55	-52.3	-54.0	6.2	0.00e+00	0	41	104	0	76	17171
2026-01-19 21:56:11.46	231.98	9.62	-52.5	-54.3	6.2	0.00e+00	0	41	104	0	76	17956
2026-01-19 21:56:12.47	232.16	9.69	-52.2	-53.8	6.2	0.00e+00	0	41	104	0	76	16886
2026-01-19 21:56:13.48	232.34	9.75	-52.0	-53.6	6.2	0.00e+00	0	41	104	0	76	16418
2026-01-19 21:56:14.48	232.53	9.82	-33.4	-33.3	11.9	7.74e-03	0	41	104	0	59	4226
2026-01-19 21:56:15.49	232.71	9.89	-34.8	-34.7	15.7	9.15e-05	0	41	0	25165824	40	14914
2026-01-19 21:56:16.50	232.90	9.96	-29.4	-29.3	16.9	1.90e-06	0	41	0	134217728	30	14158
2026-01-19 21:56:17.51	233.09	10.03	-34.1	-34.0	16.2	8.20e-05	0	41	0	251658240	40	13633
2026-01-19 21:56:18.51	233.28	10.09	-29.4	-29.2	17.0	5.70e-06	0	41	0	360710144	30	14085
2026-01-19 21:56:19.52	233.47	10.16	-33.3	-33.1	16.7	2.28e-05	0	41	0	469762048	38	13862
2026-01-19 21:56:20.53	233.66	10.23	-29.3	-29.2	16.9	1.14e-05	0	41	0	587202560	29	14810
2026-01-19 21:56:21.54	233.85	10.30	-29.4	-29.2	16.9	1.52e-05	0	41	0	713031680	29	14852
2026-01-19 21:56:22.55	234.05	10.37	-29.2	-29.1	17.0	9.50e-06	0	41	0	822083584	29	14618
2026-01-19 21:56:23.55	234.24	10.44	-29.2	-29.1	17.0	9.50e-06	0	41	0	931135488	29	14639
2026-01-19 21:56:24.56	234.44	10.50	-29.1	-28.9	17.0	7.60e-06	0	41	0	1048576000	29	14385
2026-01-19 21:56:25.57	234.63	10.57	-29.2	-29.0	17.0	9.50e-06	0	41	0	1157627904	29	14598
2026-01-19 21:56:26.58	234.83	10.64	-29.2	-29.1	16.8	3.80e-06	0	41	0	1275068416	29	14621
2026-01-19 21:56:27.59	235.03	10.71	-29.3	-29.1	16.9	5.70e-06	0	41	0	1384120320	29	14769
2026-01-19 21:56:28.59	235.23	10.78	-28.9	-28.7	17.1	3.80e-06	0	41	0	1493172224	29	14093
2026-01-19 21:56:29.60	235.43	10.84	-29.2	-29.0	17.0	7.60e-06	0	41	0	1610612736	29	14557
2026-01-19 21:56:30.61	235.63	10.91	-29.0	-28.8	17.1	1.90e-06	0	41	0	1719664640	29	14206
2026-01-19 21:56:31.61	235.83	10.98	-28.8	-28.7	17.2	1.90e-06	0	42	0	1837105152	29	13992
2026-01-19 21:56:32.62	236.04	11.05	-28.9	-28.7	17.0	1.90e-06	0	41	0	1946157056	29	14030
2026-01-19 21:56:33.63	236.24	11.12	-28.9	-28.7	17.1	3.80e-06	0	41	0	2055208960	29	14073
2026-01-19 21:56:34.63	236.45	11.18	-28.8	-28.6	17.2	3.80e-06	0	41	0	2172649472	29	13909
2026-01-19 21:56:35.64	236.66	11.25	-28.9	-28.7	17.2	3.80e-06	0	42	0	2298478592	29	14035
2026-01-19 21:56:36.65	236.86	11.32	-28.9	-28.8	17.2	1.90e-06	0	41	0	2407530496	29	14219
2026-01-19 21:56:37.66	237.07	11.39	-28.9	-28.8	17.3	5.70e-06	0	41	0	2516582400	29	14129
2026-01-19 21:56:38.66	237.28	11.45	-28.9	-28.7	17.3	1.90e-06	0	42	0	2634022912	29	14041
2026-01-19 21:56:39.67	237.50	11.52	-28.7	-28.6	17.3	0.00e+00	0	42	0	2743074816	29	13818
2026-01-19 21:56:40.68	237.71	11.59	-28.7	-28.5	17.4	9.50e-06	0	42	0	2860515328	29	13737
2026-01-19 21:56:41.69	237.92	11.66	-28.9	-28.8	17.4	0.00e+00	0	41	0	2969567232	29	14123
2026-01-19 21:56:42.69	238.14	11.72	-28.7	-28.6	17.3	1.90e-06	0	41	0	3087007744	29	13820
2026-01-19 21:56:43.70	238.35	11.79	-28.7	-28.6	17.2	0.00e+00	0	42	0	3196059648	29	13804
2026-01-19 21:56:44.71	238.57	11.86	-28.6	-28.4	17.4	1.90e-06	0	42	0	3305111552	29	13561
2026-01-19 21:56:45.72	238.79	11.92	-28.5	-28.4	17.3	0.00e+00	0	42	0	3422552064	29	13534
2026-01-19 21:56:46.73	239.01	11.99	-28.5	-28.4	17.3	0.00e+00	0	41	0	3531603968	28	14299
2026-01-19 21:56:47.73	239.23	12.06	-28.6	-28.4	17.1	0.00e+00	0	42	0	3649044480	28	14400
2026-01-19 21:56:48.74	239.45	12.12	-28.5	-28.4	17.1	0.00e+00	0	41	0	3766484992	28	14313
2026-01-19 21:56:49.75	239.68	12.19	-28.5	-28.4	17.3	1.90e-06	0	42	0	3883925504	28	14296
2026-01-19 21:56:50.75	239.90	12.26	-28.5	-28.3	17.3	0.00e+00	0	41	0	3992977408	28	14262
2026-01-19 21:56:51.76	240.13	12.32	-28.4	-28.2	17.3	3.80e-06	0	41	0	4110417920	28	14062
2026-01-19 21:56:52.77	240.35	12.39	-28.6	-28.4	17.4	1.90e-06	0	41	0	4219469824	28	14344
2026-01-19 21:56:53.78	240.58	12.46	-28.4	-28.2	17.2	0.00e+00	0	42	0	4328521728	28	14043
2026-01-19 21:56:54.79	240.81	12.52	-28.6	-28.5	17.1	7.60e-06	0	41	0	4445962240	28	14475
2026-01-19 21:56:55.80	241.04	12.59	-28.3	-28.2	17.4	0.00e+00	0	41	0	4555014144	28	14016
2026-01-19 21:56:56.80	241.27	12.65	-28.5	-28.3	17.0	0.00e+00	0	42	0	4672454656	28	14224
2026-01-19 21:56:57.81	241.50	12.72	-28.3	-28.1	17.1	1.90e-06	0	41	0	4781506560	28	13858
2026-01-19 21:56:58.81	241.74	12.78	-28.4	-28.2	17.2	1.90e-06	0	41	0	4890558464	28	14096
2026-01-19 21:56:59.82	241.97	12.85	-28.4	-28.2	17.2	1.90e-06	0	42	0	5007998976	28	14053
2026-01-19 21:57:00.83	242.21	12.91	-28.1	-28.0	17.2	3.80e-06	0	42	0	5117050880	28	13642
2026-01-19 21:57:01.84	242.45	12.98	-28.3	-28.2	17.1	1.90e-06	0	42	0	5242880000	28	13951
2026-01-19 21:57:02.85	242.69	13.04	-28.1	-27.9	17.1	0.00e+00	0	41	0	5351931904	28	13568
2026-01-19 21:57:03.85	242.92	13.11	-28.3	-28.1	16.9	0.00e+00	0	42	0	5469372416	28	13856
2026-01-19 21:57:04.86	243.17	13.17	-28.3	-28.1	16.9	0.00e+00	0	42	0	5578424320	28	13935
2026-01-19 21:57:05.87	243.41	13.24	-28.2	-28.0	17.0	1.90e-06	0	42	0	5695864832	28	13787
2026-01-19 21:57:06.88	243.65	13.30	-28.0	-27.8	17.1	1.90e-06	0	42	0	5804916736	28	13469
2026-01-19 21:57:07.88	243.90	13.36	-28.3	-28.2	17.0	7.60e-06	0	42	0	5913968640	27	14810
2026-01-19 21:57:08.89	244.14	13.43	-28.2	-28.0	16.9	0.00e+00	0	42	0	6031409152	27	14572
2026-01-19 21:57:09.90	244.39	13.49	-28.4	-28.3	16.9	3.80e-06	0	42	0	6140461056	27	14973
2026-01-19 21:57:10.91	244.64	13.55	-28.3	-28.1	16.9	1.90e-06	0	42	0	6257901568	27	14726
2026-01-19 21:57:11.91	244.89	13.62	-28.0	-27.9	17.0	0.00e+00	0	42	0	6366953472	27	14317
2026-01-19 21:57:12.92	245.14	13.68	-28.1	-27.9	16.9	1.90e-06	0	42	0	6484393984	27	14346
2026-01-19 21:57:13.93	245.39	13.74	-28.2	-28.0	16.8	3.80e-06	0	42	0	6593445888	27	14563
2026-01-19 21:57:14.94	245.64	13.80	-28.2	-28.1	16.9	0.00e+00	0	42	0	6719275008	27	14619
2026-01-19 21:57:15.95	245.90	13.86	-28.1	-27.9	17.1	1.90e-06	0	42	0	6828326912	27	14383
2026-01-19 21:57:16.95	246.15	13.92	-28.1	-27.9	17.0	0.00e+00	0	42	0	6945767424	27	14344
2026-01-19 21:57:17.96	246.41	13.99	-28.1	-28.0	16.8	3.80e-06	0	42	0	7054819328	27	14447
2026-01-19 21:57:18.97	246.67	14.05	-28.0	-27.9	16.9	5.70e-06	0	42	0	7163871232	27	14314
2026-01-19 21:57:19.98	246.93	14.11	-28.1	-27.9	17.0	1.90e-06	0	42	0	7281311744	27	14368
2026-01-19 21:57:20.99	247.19	14.17	-28.1	-28.0	17.0	1.90e-06	0	42	0	7390363648	27	14456
2026-01-19 21:57:21.99	247.45	14.23	-28.0	-27.8	16.7	5.70e-06	0	42	0	7507804160	27	14259
2026-01-19 21:57:23.00	247.71	14.29	-28.1	-27.9	16.5	7.60e-06	0	42	0	7616856064	27	14425
2026-01-19 21:57:24.00	247.97	14.35	-28.0	-27.8	16.8	1.90e-06	0	42	0	7725907968	27	14185
2026-01-19 21:57:25.01	248.24	14.41	-27.9	-27.7	16.8	0.00e+00	0	42	0	7843348480	27	14078
2026-01-19 21:57:26.02	248.50	14.46	-28.0	-27.9	16.5	7.60e-06	0	42	0	7952400384	27	14302
2026-01-19 21:57:27.03	248.77	14.52	-28.0	-27.8	16.5	5.70e-06	0	42	0	8069840896	27	14149
2026-01-19 21:57:28.03	249.04	14.58	-27.9	-27.8	16.6	5.70e-06	0	42	0	8178892800	27	14189
2026-01-19 21:57:29.04	249.31	14.64	-28.0	-27.9	16.3	9.50e-06	0	42	0	8304721920	27	14316
2026-01-19 21:57:30.05	249.58	14.70	-27.9	-27.7	16.7	7.60e-06	0	42	0	8413773824	27	14058
2026-01-19 21:57:31.06	249.85	14.75	-27.9	-27.8	16.4	7.60e-06	0	42	0	8531214336	27	14157
2026-01-19 21:57:32.07	250.13	14.81	-27.8	-27.6	16.4	1.90e-06	0	42	0	8640266240	27	13894
2026-01-19 21:57:33.07	250.40	14.87	-27.7	-27.6	16.7	7.60e-06	0	42	0	8749318144	27	13838
2026-01-19 21:57:34.08	250.68	14.92	-27.6	-27.5	16.4	3.80e-06	0	42	0	8866758656	27	13658
2026-01-19 21:57:35.09	250.95	14.98	-27.8	-27.6	16.5	5.70e-06	0	42	0	8975810560	27	13904
2026-01-19 21:57:36.10	251.23	15.03	-27.8	-27.6	16.4	3.80e-06	0	42	0	9093251072	27	13885
2026-01-19 21:57:37.11	251.51	15.09	-27.5	-27.4	16.2	1.90e-06	0	42	0	9202302976	27	13514
2026-01-19 21:57:38.12	251.79	15.14	-27.6	-27.5	16.6	7.60e-06	0	42	0	9311354880	27	13670
2026-01-19 21:57:39.12	252.07	15.19	-27.4	-27.3	16.3	3.80e-06	0	42	0	9428795392	26	14125
2026-01-19 21:57:40.13	252.36	15.25	-27.5	-27.4	16.6	1.90e-06	0	42	0	9537847296	26	14318
2026-01-19 21:57:41.13	252.64	15.30	-27.5	-27.4	16.3	3.80e-06	0	42	0	9655287808	26	14335
2026-01-19 21:57:42.14	252.92	15.35	-27.5	-27.3	16.4	1.90e-06	0	42	0	9772728320	26	14247
2026-01-19 21:57:43.15	253.21	15.40	-27.5	-27.4	16.6	0.00e+00	0	42	0	9890168832	26	14286
2026-01-19 21:57:44.16	253.50	15.46	-27.5	-27.4	16.1	9.50e-06	0	42	0	9999220736	26	14320
2026-01-19 21:57:45.16	253.78	15.51	-27.6	-27.4	16.4	3.80e-06	0	42	0	10116661248	26	14437
2026-01-19 21:57:46.17	254.07	15.56	-27.6	-27.4	16.1	9.50e-06	0	42	0	10225713152	26	14417
2026-01-19 21:57:47.18	254.37	15.61	-27.4	-27.3	16.5	0.00e+00	0	42	0	10343153664	26	14135
2026-01-19 21:57:48.19	254.66	15.66	-27.5	-27.3	15.9	0.00e+00	0	42	0	10452205568	26	14241
2026-01-19 21:57:49.19	254.95	15.71	-27.4	-27.2	16.3	3.80e-06	0	42	0	10561257472	26	14048
2026-01-19 21:57:50.20	255.24	15.75	-27.5	-27.3	16.0	3.80e-06	0	42	0	10678697984	26	14235
2026-01-19 21:57:51.21	255.54	15.80	-27.4	-27.2	16.1	3.80e-06	0	42	0	10787749888	26	14108
2026-01-19 21:57:52.21	255.83	15.85	-27.6	-27.4	16.2	1.90e-06	0	42	0	10905190400	26	14353
2026-01-19 21:57:53.22	256.13	15.90	-27.4	-27.3	15.8	9.50e-06	0	42	0	11014242304	26	14159
2026-01-19 21:57:54.23	256.43	15.94	-27.4	-27.2	16.1	3.80e-06	0	42	0	11123294208	26	14022
2026-01-19 21:57:55.24	256.73	15.99	-27.5	-27.3	16.2	9.50e-06	0	42	0	11249123328	26	14195
2026-01-19 21:57:56.25	257.03	16.03	-27.4	-27.3	15.7	5.70e-06	0	42	0	11366563840	26	14130
2026-01-19 21:57:57.25	257.33	16.08	-27.5	-27.3	15.9	1.14e-05	0	42	0	11475615744	26	14195
2026-01-19 21:57:58.26	257.63	16.12	-27.5	-27.3	16.1	1.90e-06	0	42	0	11584667648	26	14226
2026-01-19 21:57:59.27	257.93	16.17	-27.4	-27.2	15.7	0.00e+00	0	42	0	11702108160	26	14098
2026-01-19 21:58:00.28	258.24	16.21	-27.5	-27.3	16.0	5.70e-06	0	42	0	11811160064	26	14255
2026-01-19 21:58:01.29	258.54	16.25	-27.3	-27.2	15.9	9.50e-06	0	42	0	11928600576	26	14026
2026-01-19 21:58:02.30	258.85	16.29	-27.3	-27.1	15.7	7.60e-06	0	42	0	12037652480	26	13936
2026-01-19 21:58:03.30	259.15	16.33	-27.3	-27.1	16.2	5.70e-06	0	42	0	12146704384	26	13864
2026-01-19 21:58:04.31	259.46	16.37	-27.4	-27.2	16.0	3.80e-06	0	42	0	12264144896	26	14103
2026-01-19 21:58:05.32	259.77	16.41	-27.4	-27.3	15.9	5.70e-06	0	42	0	12373196800	26	14127
2026-01-19 21:58:06.33	260.08	16.45	-27.4	-27.2	16.1	3.80e-06	0	42	0	12490637312	26	14055
2026-01-19 21:58:07.33	260.39	16.49	-27.4	-27.2	16.1	3.80e-06	0	42	0	12599689216	26	14022
2026-01-19 21:58:08.34	260.70	16.53	-27.4	-27.2	16.1	0.00e+00	0	42	0	12725518336	26	14021
2026-01-19 21:58:09.35	261.02	16.57	-27.4	-27.2	15.7	1.90e-06	0	42	0	12834570240	26	14080
2026-01-19 21:58:10.36	261.33	16.60	-27.4	-27.2	15.9	1.90e-06	0	42	0	12952010752	26	14024
2026-01-19 21:58:11.37	261.64	16.64	-27.5	-27.3	16.1	3.80e-06	0	42	0	13061062656	26	14179
2026-01-19 21:58:12.37	261.96	16.67	-27.4	-27.2	15.9	5.70e-06	0	42	0	13170114560	26	14085
2026-01-19 21:58:13.38	262.27	16.71	-27.4	-27.3	16.2	7.60e-06	0	42	0	13287555072	26	14117
2026-01-19 21:58:14.39	262.59	16.74	-27.5	-27.3	16.4	7.60e-06	0	42	0	13396606976	26	14211
2026-01-19 21:58:15.40	262.91	16.78	-27.3	-27.1	16.2	3.80e-06	0	42	0	13514047488	26	13921
2026-01-19 21:58:16.41	263.23	16.81	-27.3	-27.1	15.9	1.90e-06	0	42	0	13623099392	26	13856
2026-01-19 21:58:17.42	263.55	16.84	-27.2	-27.1	16.3	5.70e-06	0	42	0	13740539904	26	13795
2026-01-19 21:58:18.43	263.87	16.87	-27.4	-27.2	16.2	1.90e-06	0	42	0	13849591808	26	14101
2026-01-19 21:58:19.44	264.19	16.90	-27.2	-27.0	16.2	5.70e-06	0	42	0	13958643712	26	13750
2026-01-19 21:58:20.44	264.51	16.93	-27.3	-27.2	16.1	5.70e-06	0	42	0	14084472832	26	13951
2026-01-19 21:58:21.45	264.83	16.96	-27.2	-27.0	16.1	3.80e-06	0	42	0	14201913344	26	13772
2026-01-19 21:58:22.46	265.15	16.99	-27.2	-27.0	16.1	5.70e-06	0	42	0	14310965248	26	13704
2026-01-19 21:58:23.47	265.48	17.02	-27.3	-27.1	16.5	0.00e+00	0	42	0	14420017152	26	13891
2026-01-19 21:58:24.47	265.80	17.04	-27.2	-27.1	16.4	7.60e-06	0	42	0	14537457664	26	13807
2026-01-19 21:58:25.48	266.12	17.07	-27.3	-27.1	16.3	1.90e-06	0	42	0	14646509568	26	13846
2026-01-19 21:58:26.49	266.45	17.09	-27.2	-27.0	16.3	0.00e+00	0	42	0	14763950080	26	13698
2026-01-19 21:58:27.50	266.77	17.12	-27.3	-27.1	16.3	3.80e-06	0	42	0	14873001984	26	13829
2026-01-19 21:58:28.51	267.10	17.14	-27.2	-27.1	16.6	1.90e-06	0	42	0	14982053888	26	13843
2026-01-19 21:58:29.51	267.42	17.16	-27.3	-27.1	16.5	3.80e-06	0	42	0	15099494400	26	13901
2026-01-19 21:58:30.52	267.75	17.19	-27.2	-27.0	16.6	7.60e-06	0	42	0	15208546304	26	13678
2026-01-19 21:58:31.53	268.08	17.21	-27.3	-27.1	16.6	1.90e-06	0	42	0	15325986816	26	13841
2026-01-19 21:58:32.53	268.41	17.23	-27.3	-27.2	16.8	0.00e+00	0	42	0	15435038720	26	13953
2026-01-19 21:58:33.54	268.74	17.25	-27.3	-27.1	16.7	1.90e-06	0	42	0	15560867840	26	13933
2026-01-19 21:58:34.55	269.07	17.27	-27.3	-27.2	16.6	0.00e+00	0	42	0	15669919744	26	13967
2026-01-19 21:58:35.56	269.40	17.28	-27.3	-27.1	17.0	1.90e-06	0	42	0	15787360256	26	13917
2026-01-19 21:58:36.57	269.73	17.30	-27.5	-27.4	17.2	0.00e+00	0	42	0	15896412160	26	14275
2026-01-19 21:58:37.57	270.05	17.32	-27.4	-27.3	17.0	0.00e+00	0	42	0	16005464064	26	14115
2026-01-19 21:58:38.58	270.39	17.33	-27.3	-27.2	17.0	3.80e-06	0	42	0	16122904576	26	13968
2026-01-19 21:58:39.59	270.72	17.35	-27.3	-27.2	17.2	0.00e+00	0	42	0	16231956480	26	13954
2026-01-19 21:58:40.60	271.05	17.36	-27.2	-27.1	17.2	1.90e-06	0	42	0	16349396992	26	13825
2026-01-19 21:58:41.61	271.38	17.37	-27.1	-27.0	17.1	0.00e+00	0	42	0	16458448896	26	13675
2026-01-19 21:58:42.61	271.71	17.39	-27.3	-27.1	17.1	0.00e+00	0	42	0	16575889408	26	13858
2026-01-19 21:58:43.62	272.05	17.40	-27.3	-27.1	17.1	1.90e-06	0	42	0	16684941312	26	13895
2026-01-19 21:58:44.63	272.38	17.41	-27.3	-27.1	17.2	0.00e+00	0	42	0	16793993216	26	13881
2026-01-19 21:58:45.63	272.71	17.42	-27.4	-27.2	17.3	1.90e-06	0	42	0	16911433728	26	13999
2026-01-19 21:58:46.64	273.04	17.43	-27.3	-27.1	17.3	0.00e+00	0	42	0	17028874240	26	13947
2026-01-19 21:58:47.65	273.38	17.43	-27.3	-27.1	17.4	0.00e+00	0	42	0	17146314752	26	13932
2026-01-19 21:58:48.66	273.71	17.44	-27.5	-27.3	17.3	0.00e+00	0	42	0	17255366656	26	14203
2026-01-19 21:58:49.66	274.04	17.45	-27.4	-27.2	17.4	0.00e+00	0	42	0	17372807168	26	14072
2026-01-19 21:58:50.67	274.38	17.45	-27.4	-27.3	17.7	0.00e+00	0	42	0	17481859072	26	14149
2026-01-19 21:58:51.68	274.71	17.46	-27.4	-27.3	17.7	0.00e+00	0	42	0	17599299584	26	14124
2026-01-19 21:58:52.68	275.04	17.46	-27.4	-27.3	17.7	0.00e+00	0	42	0	17708351488	26	14153
2026-01-19 21:58:53.69	275.38	17.47	-27.4	-27.2	17.9	1.90e-06	0	42	0	17817403392	26	14088
2026-01-19 21:58:54.70	275.71	17.47	-27.4	-27.2	18.1	1.90e-06	0	42	0	17934843904	26	14032
2026-01-19 21:58:55.71	276.05	17.47	-27.5	-27.3	18.2	0.00e+00	0	42	0	18043895808	26	14231
2026-01-19 21:58:56.71	276.38	17.47	-27.6	-27.4	18.3	0.00e+00	0	42	0	18161336320	26	14331
2026-01-19 21:58:57.72	276.71	17.47	-27.6	-27.4	18.4	0.00e+00	0	42	0	18270388224	26	14346
2026-01-19 21:58:58.73	277.05	17.47	-27.6	-27.4	18.5	0.00e+00	0	42	0	18379440128	26	14337
2026-01-19 21:58:59.74	277.38	17.47	-27.5	-27.3	18.5	0.00e+00	0	42	0	18505269248	26	14270
2026-01-19 21:59:00.75	277.72	17.46	-27.7	-27.5	18.5	0.00e+00	0	42	0	18622709760	26	14541
2026-01-19 21:59:01.75	278.05	17.46	-27.5	-27.3	18.6	0.00e+00	0	42	0	18731761664	26	14175
2026-01-19 21:59:02.76	278.38	17.45	-27.5	-27.4	18.5	0.00e+00	0	42	0	18840813568	26	14305
2026-01-19 21:59:03.77	278.72	17.45	-27.5	-27.4	18.6	0.00e+00	0	42	0	18958254080	26	14311
2026-01-19 21:59:04.77	279.05	17.44	-27.5	-27.3	18.6	0.00e+00	0	42	0	19067305984	26	14231
2026-01-19 21:59:05.78	279.38	17.43	-27.5	-27.3	18.6	0.00e+00	0	42	0	19184746496	26	14257
2026-01-19 21:59:06.79	279.72	17.43	-27.6	-27.4	18.6	0.00e+00	0	42	0	19293798400	26	14372
2026-01-19 21:59:07.79	280.05	17.42	-27.6	-27.4	18.7	0.00e+00	0	42	0	19402850304	26	14384
2026-01-19 21:59:08.80	280.38	17.41	-27.6	-27.5	18.9	0.00e+00	0	42	0	19520290816	26	14485
2026-01-19 21:59:09.81	280.71	17.40	-27.7	-27.5	18.9	0.00e+00	0	42	0	19629342720	26	14503
2026-01-19 21:59:10.81	281.04	17.39	-27.6	-27.4	19.0	0.00e+00	0	42	0	19746783232	26	14405
2026-01-19 21:59:11.82	281.38	17.37	-27.7	-27.5	19.1	0.00e+00	0	42	0	19855835136	26	14500
2026-01-19 21:59:12.83	281.71	17.36	-27.7	-27.6	19.1	0.00e+00	0	42	0	19973275648	26	14631
2026-01-19 21:59:13.84	282.04	17.35	-27.6	-27.5	19.2	0.00e+00	0	42	0	20090716160	26	14463
2026-01-19 21:59:14.85	282.37	17.33	-27.7	-27.5	19.3	0.00e+00	0	42	0	20208156672	26	14509
2026-01-19 21:59:15.85	282.70	17.32	-27.8	-27.6	19.4	0.00e+00	0	42	0	20317208576	26	14723
2026-01-19 21:59:16.86	283.03	17.30	-27.6	-27.4	19.3	0.00e+00	0	42	0	20434649088	26	14369
2026-01-19 21:59:17.87	283.36	17.28	-27.8	-27.7	19.1	0.00e+00	0	42	0	20543700992	26	14816
2026-01-19 21:59:18.87	283.69	17.26	-27.7	-27.5	19.3	0.00e+00	0	42	0	20652752896	26	14552
2026-01-19 21:59:19.88	284.02	17.25	-27.8	-27.7	19.1	0.00e+00	0	42	0	20770193408	26	14792
2026-01-19 21:59:20.89	284.35	17.23	-27.9	-27.7	19.0	0.00e+00	0	42	0	20879245312	26	14931
2026-01-19 21:59:21.90	284.67	17.21	-27.8	-27.6	19.1	0.00e+00	0	42	0	20996685824	26	14705
2026-01-19 21:59:22.91	285.00	17.18	-27.8	-27.6	19.2	0.00e+00	0	42	0	21105737728	26	14682
2026-01-19 21:59:23.91	285.33	17.16	-27.8	-27.6	19.0	0.00e+00	0	42	0	21214789632	26	14728
2026-01-19 21:59:24.92	285.65	17.14	-27.8	-27.6	19.1	0.00e+00	0	42	0	21332230144	26	14761
2026-01-19 21:59:25.93	285.98	17.12	-27.9	-27.8	19.0	0.00e+00	0	42	0	21441282048	26	14987
2026-01-19 21:59:26.93	286.30	17.09	-28.1	-27.9	19.0	0.00e+00	0	42	0	21558722560	26	15178
2026-01-19 21:59:27.94	286.63	17.07	-27.9	-27.8	19.1	0.00e+00	0	42	0	21676163072	26	14957
2026-01-19 21:59:28.95	286.95	17.04	-28.0	-27.8	19.0	0.00e+00	0	42	0	21793603584	26	15045
2026-01-19 21:59:29.96	287.28	17.02	-27.8	-27.6	19.0	0.00e+00	0	42	0	21902655488	26	14716
2026-01-19 21:59:30.97	287.60	16.99	-27.9	-27.7	18.8	0.00e+00	0	42	0	22020096000	26	14908
2026-01-19 21:59:31.97	287.92	16.96	-28.0	-27.8	18.7	0.00e+00	0	42	0	22129147904	26	15055
2026-01-19 21:59:32.98	288.24	16.93	-28.0	-27.8	18.9	0.00e+00	0	42	0	22238199808	26	15087
2026-01-19 21:59:33.99	288.56	16.90	-27.9	-27.7	18.8	0.00e+00	0	42	0	22355640320	26	14878
2026-01-19 21:59:34.99	288.88	16.87	-27.9	-27.7	18.9	0.00e+00	0	42	0	22464692224	26	14927
2026-01-19 21:59:36.00	289.20	16.84	-28.0	-27.8	18.7	0.00e+00	0	42	0	22582132736	26	15087
2026-01-19 21:59:37.01	289.52	16.81	-27.9	-27.8	18.9	0.00e+00	0	42	0	22691184640	26	15002
2026-01-19 21:59:38.02	289.83	16.78	-28.2	-28.0	18.8	0.00e+00	0	42	0	22800236544	26	15360
2026-01-19 21:59:39.03	290.15	16.74	-28.2	-28.0	18.8	0.00e+00	0	42	0	22917677056	26	15364
2026-01-19 21:59:40.03	290.46	16.71	-28.1	-27.9	18.8	0.00e+00	0	42	0	23026728960	26	15240
2026-01-19 21:59:41.04	290.78	16.68	-28.2	-28.0	18.8	0.00e+00	0	42	0	23152558080	26	15409
2026-01-19 21:59:42.05	291.10	16.64	-28.1	-27.9	18.6	0.00e+00	0	42	0	23261609984	27	14402
2026-01-19 21:59:43.06	291.41	16.60	-28.2	-28.1	18.6	0.00e+00	0	42	0	23379050496	27	14633
2026-01-19 21:59:44.06	291.72	16.57	-28.1	-27.9	18.4	0.00e+00	0	42	0	23488102400	27	14438
2026-01-19 21:59:45.07	292.03	16.53	-28.3	-28.1	18.3	0.00e+00	0	42	0	23605542912	27	14743
2026-01-19 21:59:46.08	292.34	16.49	-28.4	-28.2	18.3	0.00e+00	0	42	0	23714594816	27	14881
2026-01-19 21:59:47.09	292.65	16.45	-28.4	-28.2	18.2	0.00e+00	0	42	0	23832035328	27	14910
2026-01-19 21:59:48.09	292.96	16.42	-28.3	-28.2	18.2	1.90e-06	0	42	0	23941087232	27	14822
2026-01-19 21:59:49.10	293.27	16.38	-28.4	-28.3	18.3	0.00e+00	0	42	0	24050139136	27	14981
2026-01-19 21:59:50.11	293.58	16.34	-28.4	-28.2	18.3	0.00e+00	0	42	0	24167579648	27	14943
2026-01-19 21:59:51.12	293.88	16.29	-28.4	-28.2	18.2	0.00e+00	0	42	0	24276631552	27	14941
2026-01-19 21:59:52.13	294.19	16.25	-28.5	-28.3	18.2	1.90e-06	0	42	0	24394072064	27	15117
2026-01-19 21:59:53.14	294.49	16.21	-28.4	-28.3	18.2	0.00e+00	0	42	0	24511512576	27	15002
2026-01-19 21:59:54.14	294.79	16.17	-28.4	-28.2	18.2	0.00e+00	0	42	0	24628953088	27	14863
2026-01-19 21:59:55.15	295.10	16.12	-28.5	-28.3	18.0	0.00e+00	0	42	0	24738004992	27	15008
2026-01-19 21:59:56.16	295.40	16.08	-28.5	-28.3	18.1	0.00e+00	0	42	0	24855445504	27	15080
2026-01-19 21:59:57.16	295.70	16.04	-28.4	-28.3	17.8	1.90e-06	0	42	0	24964497408	27	14970
2026-01-19 21:59:58.17	296.00	15.99	-28.6	-28.4	18.1	0.00e+00	0	42	0	25073549312	27	15208
2026-01-19 21:59:59.18	296.30	15.95	-28.5	-28.4	17.8	1.90e-06	0	42	0	25190989824	27	15156
2026-01-19 22:00:00.19	296.59	15.90	-28.6	-28.4	17.7	0.00e+00	0	42	0	25300041728	27	15217
2026-01-19 22:00:01.19	296.89	15.85	-28.5	-28.4	17.8	0.00e+00	0	42	0	25417482240	27	15178
2026-01-19 22:00:02.20	297.18	15.81	-28.6	-28.5	17.5	0.00e+00	0	42	0	25526534144	27	15323
2026-01-19 22:00:03.21	297.48	15.76	-28.6	-28.4	17.8	0.00e+00	0	42	0	25635586048	27	15259
2026-01-19 22:00:04.22	297.77	15.71	-28.3	-28.2	17.9	0.00e+00	0	42	0	25753026560	27	14816
2026-01-19 22:00:05.23	298.06	15.66	-28.5	-28.4	17.6	3.80e-06	0	42	0	25862078464	27	15166
2026-01-19 22:00:06.23	298.35	15.61	-28.6	-28.4	17.9	1.90e-06	0	42	0	25979518976	27	15285
2026-01-19 22:00:07.24	298.64	15.56	-28.6	-28.5	17.8	1.90e-06	0	42	0	26096959488	28	14505
2026-01-19 22:00:08.25	298.93	15.51	-28.7	-28.6	17.7	0.00e+00	0	42	0	26214400000	28	14642
2026-01-19 22:00:09.26	299.22	15.46	-28.6	-28.5	17.8	3.80e-06	0	42	0	26323451904	28	14484
2026-01-19 22:00:10.27	299.51	15.41	-28.5	-28.4	17.9	0.00e+00	0	42	0	26440892416	28	14331
2026-01-19 22:00:11.28	299.79	15.36	-28.8	-28.6	17.9	1.90e-06	0	42	0	26549944320	28	14745
2026-01-19 22:00:12.29	300.08	15.30	-28.5	-28.4	17.8	0.00e+00	0	42	0	26658996224	28	14308
2026-01-19 22:00:13.30	300.36	15.25	-28.5	-28.3	18.0	0.00e+00	0	42	0	26776436736	28	14247
2026-01-19 22:00:14.30	300.64	15.20	-28.5	-28.3	18.1	1.90e-06	0	42	0	26885488640	28	14217
2026-01-19 22:00:15.31	300.92	15.15	-28.6	-28.4	18.0	0.00e+00	0	42	0	27002929152	28	14398
2026-01-19 22:00:16.32	301.20	15.09	-28.4	-28.3	18.0	1.90e-06	0	42	0	27111981056	28	14161
2026-01-19 22:00:17.32	301.48	15.04	-28.5	-28.4	17.8	0.00e+00	0	42	0	27229421568	28	14340
2026-01-19 22:00:18.33	301.75	14.98	-28.7	-28.5	17.6	0.00e+00	0	42	0	27338473472	28	14578
2026-01-19 22:00:19.34	302.03	14.93	-28.8	-28.6	17.5	3.80e-06	0	42	0	27464302592	28	14745
2026-01-19 22:00:20.35	302.31	14.87	-29.0	-28.8	17.2	1.90e-06	0	42	0	27573354496	28	15012
2026-01-19 22:00:21.35	302.58	14.82	-28.8	-28.7	17.5	0.00e+00	0	42	0	27690795008	28	14820
2026-01-19 22:00:22.36	302.85	14.76	-28.7	-28.5	17.9	3.80e-06	0	42	0	27799846912	28	14588
2026-01-19 22:00:23.37	303.12	14.70	-28.6	-28.4	18.0	0.00e+00	0	42	0	27908898816	28	14377
2026-01-19 22:00:24.38	303.39	14.65	-28.6	-28.5	17.8	0.00e+00	0	42	0	28026339328	28	14451
2026-01-19 22:00:25.38	303.66	14.59	-28.8	-28.6	17.7	0.00e+00	0	42	0	28135391232	28	14713
2026-01-19 22:00:26.39	303.93	14.53	-28.7	-28.6	19.3	0.00e+00	0	42	0	28252831744	28	14645
2026-01-19 22:00:27.40	304.20	14.47	-51.7	-50.1	4.6	4.14e-04	0	42	0	28353495040	45	65535
2026-01-19 22:00:28.41	304.46	14.42	-53.9	-56.2	6.2	0.00e+00	0	42	104	28353495040	78	19775
2026-01-19 22:00:29.42	304.73	14.36	-53.9	-56.1	6.2	0.00e+00	0	42	104	28353495040	78	19699
2026-01-19 22:00:30.42	304.99	14.30	-53.9	-56.1	6.2	0.00e+00	0	42	104	28353495040	78	19573
2026-01-19 22:00:31.43	305.25	14.24	-54.0	-56.1	6.2	0.00e+00	0	42	104	28353495040	78	19620
2026-01-19 22:00:32.44	305.51	14.18	-54.0	-56.1	6.2	0.00e+00	0	42	104	28353495040	78	19655
2026-01-19 22:00:33.45	305.77	14.12	-54.0	-56.1	6.2	0.00e+00	0	42	104	28353495040	78	19594
2026-01-19 22:00:34.45	306.03	14.06	-54.0	-56.1	6.2	0.00e+00	0	42	104	28353495040	78	19683
2026-01-19 22:00:35.46	306.28	14.00	-54.0	-56.1	6.2	0.00e+00	0	42	104	28353495040	78	19624
2026-01-19 22:00:36.47	306.54	13.94	-53.9	-56.1	6.2	0.00e+00	0	42	104	28353495040	78	19620
2026-01-19 22:00:37.48	306.80	13.88	-53.9	-56.1	6.2	0.00e+00	0	42	104	28353495040	78	19574
2026-01-19 22:00:38.49	307.05	13.81	-53.9	-56.1	6.2	0.00e+00	0	42	104	28353495040	78	19525
2026-01-19 22:00:39.49	307.30	13.75	-53.9	-56.1	6.2	0.00e+00	0	42	104	28353495040	78	19554
2026-01-19 22:00:40.50	307.55	13.69	-53.9	-56.1	6.2	0.00e+00	0	42	104	28353495040	78	19504
2026-01-19 22:00:41.51	307.80	13.63	-53.9	-56.0	6.2	0.00e+00	0	42	104	28353495040	78	19465
2026-01-19 22:00:42.52	308.05	13.57	-53.9	-56.1	6.2	0.00e+00	0	42	104	28353495040	78	19491
2026-01-19 22:00:43.52	308.30	13.50	-53.9	-56.0	6.2	0.00e+00	0	42	104	28353495040	78	19407
2026-01-19 22:00:44.53	308.54	13.44	-53.9	-56.0	6.2	0.00e+00	0	42	104	28353495040	78	19425
2026-01-19 22:00:45.54	308.79	13.38	-53.9	-56.0	6.2	0.00e+00	0	42	104	28353495040	78	19354
2026-01-19 22:00:46.55	309.03	13.32	-53.9	-56.0	6.2	0.00e+00	0	42	104	28353495040	78	19429
2026-01-19 22:00:47.55	309.27	13.25	-53.8	-56.0	6.2	0.00e+00	0	42	104	28353495040	78	19440
2026-01-19 22:00:48.56	309.51	13.19	-53.8	-56.0	6.2	0.00e+00	0	42	104	28353495040	78	19314
2026-01-19 22:00:49.57	309.76	13.12	-53.8	-56.0	6.2	0.00e+00	0	42	104	28353495040	78	19422
2026-01-19 22:00:50.58	309.99	13.06	-53.8	-56.0	6.2	0.00e+00	0	42	104	28353495040	78	19332
2026-01-19 22:00:51.59	310.23	13.00	-53.8	-55.9	6.2	0.00e+00	0	42	104	28353495040	78	19248
2026-01-19 22:00:52.59	310.47	12.93	-53.8	-56.0	6.2	0.00e+00	0	42	104	28353495040	78	19291
2026-01-19 22:00:53.60	310.70	12.87	-53.8	-56.0	6.2	0.00e+00	0	42	104	28353495040	78	19261
2026-01-19 22:00:54.60	310.94	12.80	-53.8	-56.0	6.2	0.00e+00	0	42	104	28353495040	78	19301
2026-01-19 22:00:55.61	311.17	12.74	-53.8	-55.9	6.2	0.00e+00	0	42	104	28353495040	78	19220
2026-01-19 22:00:56.62	311.40	12.67	-53.8	-55.9	6.2	0.00e+00	0	42	104	28353495040	78	19180
2026-01-19 22:00:57.62	311.63	12.61	-53.8	-55.9	6.2	0.00e+00	0	42	104	28353495040	78	19173
2026-01-19 22:00:58.63	311.86	12.54	-53.8	-55.9	6.2	0.00e+00	0	42	104	28353495040	78	19109
2026-01-19 22:00:59.64	312.09	12.48	-53.7	-55.9	6.2	0.00e+00	0	42	104	28353495040	78	19115
2026-01-19 22:01:00.65	312.32	12.41	-53.7	-55.9	6.2	0.00e+00	0	42	104	28353495040	78	19089
2026-01-19 22:01:01.66	312.54	12.35	-53.7	-55.9	6.2	0.00e+00	0	42	104	28353495040	78	19134
2026-01-19 22:01:02.66	312.77	12.28	-53.7	-55.9	6.2	0.00e+00	0	42	104	28353495040	78	19131
2026-01-19 22:01:03.67	312.99	12.21	-53.7	-55.9	6.2	0.00e+00	0	42	104	28353495040	78	19085
2026-01-19 22:01:04.68	313.21	12.15	-53.7	-55.8	6.2	0.00e+00	0	42	104	28353495040	78	19010
2026-01-19 22:01:05.69	313.43	12.08	-53.7	-55.9	6.2	0.00e+00	0	42	104	28353495040	78	19070
2026-01-19 22:01:06.69	313.65	12.02	-53.7	-55.8	6.2	0.00e+00	0	42	104	28353495040	78	18996
2026-01-19 22:01:07.70	313.87	11.95	-53.6	-55.8	6.2	0.00e+00	0	42	104	28353495040	78	18954
2026-01-19 22:01:08.71	314.09	11.88	-53.7	-55.8	6.2	0.00e+00	0	42	104	28353495040	78	18997
2026-01-19 22:01:09.72	314.31	11.82	-53.7	-55.8	6.2	0.00e+00	0	42	104	28353495040	78	19001
2026-01-19 22:01:10.73	314.52	11.75	-53.7	-55.8	6.2	0.00e+00	0	42	104	28353495040	78	18965
2026-01-19 22:01:11.73	314.74	11.68	-53.6	-55.8	6.2	0.00e+00	0	42	104	28353495040	78	18939
2026-01-19 22:01:12.74	314.95	11.62	-53.6	-55.8	6.2	0.00e+00	0	42	104	28353495040	78	18892
2026-01-19 22:01:13.75	315.16	11.55	-53.6	-55.8	6.2	0.00e+00	0	42	104	28353495040	78	18928
2026-01-19 22:01:14.76	315.37	11.48	-53.7	-55.8	6.2	0.00e+00	0	42	104	28353495040	78	18884
2026-01-19 22:01:15.76	315.58	11.41	-53.6	-55.8	6.2	0.00e+00	0	42	104	28353495040	78	18862
2026-01-19 22:01:16.77	315.79	11.35	-53.6	-55.8	6.2	0.00e+00	0	42	104	28353495040	78	18846
2026-01-19 22:01:17.78	316.00	11.28	-53.6	-55.8	6.2	0.00e+00	0	42	104	28353495040	78	18898
2026-01-19 22:01:18.79	316.21	11.21	-53.6	-55.8	6.2	0.00e+00	0	42	104	28353495040	78	18852
2026-01-19 22:01:19.80	316.41	11.14	-53.6	-55.7	6.2	0.00e+00	0	42	104	28353495040	78	18781
2026-01-19 22:01:20.80	316.62	11.08	-53.6	-55.8	6.2	0.00e+00	0	42	104	28353495040	78	18843
2026-01-19 22:01:21.81	316.82	11.01	-53.6	-55.8	6.2	0.00e+00	0	42	104	28353495040	78	18856
2026-01-19 22:01:22.82	317.02	10.94	-53.6	-55.7	6.2	0.00e+00	0	42	104	28353495040	78	18756
2026-01-19 22:01:23.83	317.22	10.87	-53.6	-55.7	6.2	0.00e+00	0	42	104	28353495040	78	18771
2026-01-19 22:01:24.84	317.42	10.81	-53.6	-55.7	6.2	0.00e+00	0	42	104	28353495040	78	18718
2026-01-19 22:01:25.85	317.62	10.74	-53.5	-55.7	6.2	0.00e+00	0	42	104	28353495040	78	18738
2026-01-19 22:01:26.85	317.82	10.67	-53.6	-55.7	6.2	0.00e+00	0	42	104	28353495040	78	18693
2026-01-19 22:01:27.86	318.02	10.60	-53.5	-55.7	6.2	0.00e+00	0	42	104	28353495040	78	18704
2026-01-19 22:01:28.87	318.21	10.54	-53.5	-55.7	6.2	0.00e+00	0	42	104	28353495040	78	18605
2026-01-19 22:01:29.88	318.41	10.47	-53.5	-55.7	6.2	0.00e+00	0	42	104	28353495040	78	18739
2026-01-19 22:01:30.89	318.60	10.40	-53.5	-55.7	6.2	0.00e+00	0	42	104	28353495040	78	18627
2026-01-19 22:01:31.90	318.80	10.33	-53.5	-55.6	6.2	0.00e+00	0	42	104	28353495040	78	18579
2026-01-19 22:01:32.90	318.99	10.27	-53.5	-55.6	6.2	0.00e+00	0	42	104	28353495040	78	18565
2026-01-19 22:01:33.91	319.18	10.20	-53.5	-55.7	6.2	0.00e+00	0	42	104	28353495040	78	18633
2026-01-19 22:01:34.92	319.37	10.13	-53.5	-55.6	6.2	0.00e+00	0	42	104	28353495040	78	18560
2026-01-19 22:01:35.93	319.56	10.06	-53.5	-55.6	6.2	0.00e+00	0	42	104	28353495040	78	18528
2026-01-19 22:01:36.94	319.74	9.99	-53.4	-55.6	6.2	0.00e+00	0	42	104	28353495040	78	18473
2026-01-19 22:01:37.95	319.93	9.93	-53.5	-55.6	6.2	0.00e+00	0	42	104	28353495040	78	18574
2026-01-19 22:01:38.95	320.12	9.86	-53.5	-55.6	6.2	0.00e+00	0	42	104	28353495040	78	18526
2026-01-19 22:01:39.96	320.30	9.79	-53.5	-55.6	6.2	0.00e+00	0	42	104	28353495040	78	18593
2026-01-19 22:01:40.97	320.48	9.72	-53.4	-55.6	6.2	0.00e+00	0	42	104	28353495040	78	18394
2026-01-19 22:01:41.98	320.67	9.66	-53.5	-55.6	6.2	0.00e+00	0	42	104	28353495040	78	18556
2026-01-19 22:01:42.99	320.85	9.59	-53.4	-55.5	6.2	0.00e+00	0	42	104	28353495040	78	18359
2026-01-19 22:01:43.99	321.03	9.52	-53.4	-55.6	6.2	0.00e+00	0	42	104	28353495040	78	18406
2026-01-19 22:01:45.00	321.21	9.45	-53.3	-55.4	6.2	0.00e+00	0	42	104	28353495040	78	18150
2026-01-19 22:01:46.01	321.39	9.39	-53.4	-55.6	6.2	0.00e+00	0	42	104	28353495040	78	18481
2026-01-19 22:01:47.02	321.57	9.32	-53.4	-55.5	6.2	0.00e+00	0	42	104	28353495040	78	18339
2026-01-19 22:01:48.03	321.74	9.25	-53.4	-55.5	6.2	0.00e+00	0	42	104	28353495040	78	18370
2026-01-19 22:01:49.04	321.92	9.18	-53.3	-55.4	6.2	0.00e+00	0	42	104	28353495040	78	18115
2026-01-19 22:01:50.05	322.09	9.11	-53.3	-55.4	6.2	0.00e+00	0	42	104	28353495040	78	18161
2026-01-19 22:01:51.05	322.27	9.05	-53.3	-55.3	6.2	0.00e+00	0	42	104	28353495040	78	17955
2026-01-19 22:01:52.06	322.44	8.98	-53.1	-55.2	6.2	0.00e+00	0	42	104	28353495040	78	17674
2026-01-19 22:01:53.07	322.61	8.91	-53.3	-55.4	6.2	0.00e+00	0	42	104	28353495040	78	18112
2026-01-19 22:01:54.08	322.78	8.85	-53.2	-55.3	6.2	0.00e+00	0	42	104	28353495040	78	17836
2026-01-19 22:01:55.09	322.95	8.78	-53.1	-55.1	6.2	0.00e+00	0	42	104	28353495040	78	17456
2026-01-19 22:01:56.09	323.12	8.71	-53.1	-55.2	6.2	0.00e+00	0	42	104	28353495040	78	17592
2026-01-19 22:01:57.10	323.29	8.64	-52.7	-54.6	6.2	0.00e+00	0	42	104	28353495040	77	17460
2026-01-19 22:01:58.11	323.46	8.58	-51.9	-53.4	6.3	0.00e+00	0	42	104	28353495040	75	17108
2026-01-19 22:01:59.12	323.63	8.51	-51.3	-52.6	6.3	0.00e+00	0	42	104	28353495040	74	16549
2026-01-19 22:02:00.13	323.79	8.44	-52.0	-53.6	6.2	0.00e+00	0	42	104	28353495040	76	16490
2026-01-19 22:02:01.13	323.95	8.38	-44.4	-44.8	6.1	0.00e+00	0	42	104	28353495040	60	15088
2026-01-19 22:02:02.14	324.12	8.31	-40.3	-40.7	6.1	0.00e+00	0	42	104	28353495040	52	14807
2026-01-19 22:02:03.15	324.28	8.24	-38.8	-39.1	6.1	0.00e+00	0	42	104	28353495040	49	14742
2026-01-19 22:02:04.16	324.44	8.18	-47.0	-47.7	6.3	0.00e+00	0	42	104	28353495040	64	16580
2026-01-19 22:02:05.17	324.61	8.11	-52.5	-54.3	6.2	0.00e+00	0	42	104	28353495040	75	19001
2026-01-19 22:02:06.17	324.76	8.04	-45.2	-45.7	6.2	0.00e+00	0	42	104	28353495040	60	16690
2026-01-19 22:02:07.18	324.92	7.98	-51.6	-53.2	6.3	0.00e+00	0	41	104	28353495040	73	18671
2026-01-19 22:02:08.19	325.08	7.91	-52.4	-54.3	6.2	0.00e+00	0	42	104	28353495040	75	18890
2026-01-19 22:02:09.20	325.24	7.84	-52.9	-54.8	6.2	0.00e+00	0	42	104	28353495040	76	19030
2026-01-19 22:02:10.21	325.40	7.78	-53.2	-55.4	6.2	0.00e+00	0	42	104	28353495040	76	20186
2026-01-19 22:02:11.21	325.55	7.71	-53.2	-55.3	6.2	0.00e+00	0	42	104	28353495040	76	20135
2026-01-19 22:02:12.22	325.71	7.64	-53.2	-55.3	6.2	0.00e+00	0	42	104	28353495040	76	20124
2026-01-19 22:02:13.23	325.86	7.58	-53.1	-55.2	6.2	0.00e+00	0	42	104	28353495040	76	19932
2026-01-19 22:02:14.24	326.02	7.51	-53.0	-55.1	6.2	0.00e+00	0	42	104	28353495040	76	19575
2026-01-19 22:02:15.25	326.17	7.44	-53.1	-55.3	6.2	0.00e+00	0	42	104	28353495040	76	19959
2026-01-19 22:02:16.25	326.32	7.38	-53.1	-55.2	6.2	0.00e+00	0	42	104	28353495040	76	19805
2026-01-19 22:02:17.26	326.47	7.31	-53.1	-55.3	6.2	0.00e+00	0	42	104	28353495040	76	19946
2026-01-19 22:02:18.27	326.62	7.25	-53.2	-55.3	6.2	0.00e+00	0	42	104	28353495040	76	20091
2026-01-19 22:02:19.28	326.77	7.18	-53.1	-55.2	6.2	0.00e+00	0	41	104	28353495040	76	19784
2026-01-19 22:02:20.29	326.92	7.11	-53.1	-55.2	6.2	0.00e+00	0	42	104	28353495040	76	19918
2026-01-19 22:02:21.29	327.07	7.05	-53.1	-55.2	6.2	0.00e+00	0	42	104	28353495040	76	19741
2026-01-19 22:02:22.30	327.22	6.98	-53.2	-55.3	6.2	0.00e+00	0	42	104	28353495040	76	20003
2026-01-19 22:02:23.31	327.36	6.92	-53.1	-55.2	6.2	0.00e+00	0	42	104	28353495040	76	19838
2026-01-19 22:02:24.32	327.51	6.85	-53.1	-55.2	6.2	0.00e+00	0	41	104	28353495040	76	19879
2026-01-19 22:02:25.33	327.66	6.79	-53.0	-55.2	6.2	0.00e+00	0	42	104	28353495040	76	19770
2026-01-19 22:02:26.33	327.80	6.72	-53.1	-55.2	6.2	0.00e+00	0	42	104	28353495040	76	19893
2026-01-19 22:02:27.34	327.94	6.66	-53.0	-55.2	6.2	0.00e+00	0	42	104	28353495040	76	19743
2026-01-19 22:02:28.35	328.08	6.59	-53.0	-55.2	6.2	0.00e+00	0	42	104	28353495040	76	19712
2026-01-19 22:02:29.36	328.23	6.53	-53.0	-55.2	6.2	0.00e+00	0	42	104	28353495040	76	19748
2026-01-19 22:02:30.37	328.37	6.46	-53.1	-55.2	6.2	0.00e+00	0	42	104	28353495040	76	19813
2026-01-19 22:02:31.37	328.51	6.40	-53.0	-55.2	6.2	0.00e+00	0	42	104	28353495040	76	19717
2026-01-19 22:02:32.38	328.65	6.33	-53.0	-55.1	6.2	0.00e+00	0	42	104	28353495040	76	19700
2026-01-19 22:02:33.39	328.79	6.27	-53.0	-55.1	6.2	0.00e+00	0	42	104	28353495040	76	19606
2026-01-19 22:02:34.40	328.93	6.20	-53.0	-55.2	6.2	0.00e+00	0	42	104	28353495040	76	19722
2026-01-19 22:02:35.41	329.06	6.14	-53.0	-55.1	6.2	0.00e+00	0	42	104	28353495040	76	19530
2026-01-19 22:02:36.41	329.20	6.08	-52.9	-55.1	6.2	0.00e+00	0	42	104	28353495040	76	19532
2026-01-19 22:02:37.42	329.34	6.01	-52.9	-55.1	6.2	0.00e+00	0	41	104	28353495040	76	19480
2026-01-19 22:02:38.43	329.47	5.95	-53.0	-55.1	6.2	0.00e+00	0	42	104	28353495040	76	19613
2026-01-19 22:02:39.44	329.61	5.88	-52.9	-55.0	6.2	0.00e+00	0	42	104	28353495040	76	19451
2026-01-19 22:02:40.45	329.74	5.82	-52.9	-55.0	6.2	0.00e+00	0	42	104	28353495040	76	19407
2026-01-19 22:02:41.45	329.87	5.75	-52.9	-55.0	6.2	0.00e+00	0	42	104	28353495040	76	19470
2026-01-19 22:02:42.46	330.00	5.69	-52.9	-55.1	6.2	0.00e+00	0	42	104	28353495040	76	19521
2026-01-19 22:02:43.47	330.14	5.63	-52.9	-55.0	6.2	0.00e+00	0	42	104	28353495040	76	19426
2026-01-19 22:02:44.47	330.27	5.56	-52.8	-54.9	6.2	0.00e+00	0	42	104	28353495040	76	19220
2026-01-19 22:02:45.48	330.40	5.50	-52.9	-55.0	6.2	0.00e+00	0	41	104	28353495040	76	19391
2026-01-19 22:02:46.49	330.53	5.44	-52.9	-55.0	6.2	0.00e+00	0	42	104	28353495040	76	19291
2026-01-19 22:02:47.50	330.66	5.37	-52.8	-55.0	6.2	0.00e+00	0	42	104	28353495040	76	19271
2026-01-19 22:02:48.51	330.79	5.31	-52.8	-54.9	6.2	0.00e+00	0	42	104	28353495040	76	19085
2026-01-19 22:02:49.51	330.91	5.25	-52.8	-54.9	6.2	0.00e+00	0	42	104	28353495040	76	19218
2026-01-19 22:02:50.52	331.04	5.18	-52.8	-54.9	6.2	0.00e+00	0	41	104	28353495040	76	19226
2026-01-19 22:02:51.53	331.17	5.12	-52.8	-54.9	6.2	0.00e+00	0	42	104	28353495040	76	19169
2026-01-19 22:02:52.54	331.29	5.06	-52.7	-54.8	6.2	0.00e+00	0	42	104	28353495040	76	18878
2026-01-19 22:02:53.55	331.42	4.99	-52.7	-54.8	6.2	0.00e+00	0	42	104	28353495040	76	19004
2026-01-19 22:02:54.56	331.54	4.93	-53.1	-55.2	6.2	0.00e+00	0	42	104	28353495040	76	19906
2026-01-19 22:02:55.57	331.67	4.87	-53.5	-55.6	6.2	0.00e+00	0	41	104	28353495040	77	19597
2026-01-19 22:02:56.57	331.79	4.81	-53.7	-55.8	6.2	0.00e+00	0	42	104	28353495040	77	20076
2026-01-19 22:02:57.58	331.91	4.74	-53.9	-56.0	6.2	0.00e+00	0	42	104	28353495040	78	19312
2026-01-19 22:02:58.59	332.04	4.68	-54.0	-56.1	6.2	0.00e+00	0	42	104	28353495040	78	19588
2026-01-19 22:02:59.60	332.16	4.62	-54.1	-56.2	6.2	0.00e+00	0	42	104	28353495040	78	19885
2026-01-19 22:03:00.61	332.28	4.56	-54.2	-56.4	6.2	0.00e+00	0	42	104	28353495040	78	20197
2026-01-19 22:03:01.61	332.40	4.50	-54.3	-56.4	6.2	0.00e+00	0	42	104	28353495040	79	19149
2026-01-19 22:03:02.62	332.52	4.43	-54.4	-56.5	6.2	0.00e+00	0	42	104	28353495040	79	19476
2026-01-19 22:03:03.63	332.64	4.37	-54.5	-56.6	6.2	0.00e+00	0	41	104	28353495040	79	19670
2026-01-19 22:03:04.64	332.76	4.31	-54.5	-56.7	6.2	0.00e+00	0	42	104	28353495040	79	19788
2026-01-19 22:03:05.65	332.88	4.25	-54.6	-56.7	6.2	0.00e+00	0	42	104	28353495040	79	19839
2026-01-19 22:03:06.65	332.99	4.19	-54.6	-56.7	6.2	0.00e+00	0	42	104	28353495040	79	19858
2026-01-19 22:03:07.66	333.11	4.13	-54.6	-56.7	6.2	0.00e+00	0	42	104	28353495040	79	19886
2026-01-19 22:03:08.67	333.23	4.06	-54.6	-56.8	6.2	0.00e+00	0	41	104	28353495040	79	19975
2026-01-19 22:03:09.68	333.34	4.00	-54.6	-56.8	6.2	0.00e+00	0	42	104	28353495040	79	19969
2026-01-19 22:03:10.69	333.46	3.94	-54.6	-56.8	6.2	0.00e+00	0	42	104	28353495040	79	19985
2026-01-19 22:03:11.69	333.57	3.88	-54.6	-56.7	6.2	0.00e+00	0	42	104	28353495040	79	19881
2026-01-19 22:03:12.70	333.68	3.82	-54.6	-56.7	6.2	0.00e+00	0	42	104	28353495040	79	19832
2026-01-19 22:03:13.71	333.80	3.76	-54.6	-56.7	6.2	0.00e+00	0	41	104	28353495040	79	19856
2026-01-19 22:03:14.72	333.91	3.70	-54.6	-56.7	6.2	0.00e+00	0	42	104	28353495040	79	19769
2026-01-19 22:03:15.73	334.02	3.64	-54.6	-56.7	6.2	0.00e+00	0	42	104	28353495040	79	19861
2026-01-19 22:03:16.74	334.14	3.58	-54.5	-56.7	6.2	0.00e+00	0	42	104	28353495040	79	19767
2026-01-19 22:03:17.74	334.25	3.52	-54.5	-56.6	6.2	0.00e+00	0	42	104	28353495040	79	19638
2026-01-19 22:03:18.75	334.36	3.46	-54.5	-56.6	6.2	0.00e+00	0	41	104	28353495040	79	19640
2026-01-19 22:03:19.76	334.47	3.40	-54.5	-56.6	6.2	0.00e+00	0	42	104	28353495040	79	19634
2026-01-19 22:03:20.77	334.58	3.34	-54.5	-56.6	6.2	0.00e+00	0	41	104	28353495040	79	19594
2026-01-19 22:03:21.77	334.68	3.28	-54.5	-56.6	6.2	0.00e+00	0	42	104	28353495040	79	19627
2026-01-19 22:03:22.78	334.79	3.22	-54.5	-56.6	6.2	0.00e+00	0	42	104	28353495040	79	19595
2026-01-19 22:03:23.79	334.90	3.16	-54.4	-56.6	6.2	0.00e+00	0	42	104	28353495040	79	19561
2026-01-19 22:03:24.80	335.01	3.10	-54.5	-56.6	6.2	0.00e+00	0	42	104	28353495040	79	19501
2026-01-19 22:03:25.80	335.12	3.04	-54.4	-56.6	6.2	0.00e+00	0	42	104	28353495040	79	19550
2026-01-19 22:03:26.81	335.22	2.98	-54.4	-56.6	6.2	0.00e+00	0	41	104	28353495040	79	19538
2026-01-19 22:03:27.82	335.33	2.92	-54.4	-56.6	6.2	0.00e+00	0	42	104	28353495040	79	19533
2026-01-19 22:03:28.83	335.43	2.86	-54.4	-56.6	6.2	0.00e+00	0	41	104	28353495040	79	19512
2026-01-19 22:03:29.83	335.54	2.80	-54.4	-56.5	6.2	0.00e+00	0	42	104	28353495040	79	19448
2026-01-19 22:03:30.84	335.64	2.74	-54.4	-56.5	6.2	0.00e+00	0	42	104	28353495040	79	19465
2026-01-19 22:03:31.85	335.75	2.68	-54.4	-56.6	6.2	0.00e+00	0	42	104	28353495040	79	19488
2026-01-19 22:03:32.86	335.85	2.62	-54.4	-56.5	6.2	0.00e+00	0	42	104	28353495040	79	19472
2026-01-19 22:03:33.87	335.95	2.56	-54.4	-56.5	6.2	0.00e+00	0	42	104	28353495040	79	19444
2026-01-19 22:03:34.87	336.06	2.50	-54.4	-56.6	6.2	0.00e+00	0	41	104	28353495040	79	19534
2026-01-19 22:03:35.88	336.16	2.44	-54.4	-56.5	6.2	0.00e+00	0	41	104	28353495040	79	19439
2026-01-19 22:03:36.89	336.26	2.39	-54.4	-56.5	6.2	0.00e+00	0	42	104	28353495040	79	19402
2026-01-19 22:03:37.90	336.36	2.33	-54.4	-56.5	6.2	0.00e+00	0	41	104	28353495040	79	19437
2026-01-19 22:03:38.91	336.46	2.27	-54.4	-56.5	6.2	0.00e+00	0	42	104	28353495040	79	19429
2026-01-19 22:03:39.91	336.56	2.21	-54.4	-56.5	6.2	0.00e+00	0	42	104	28353495040	79	19396
2026-01-19 22:03:40.92	336.66	2.15	-54.4	-56.5	6.2	0.00e+00	0	42	104	28353495040	79	19420
2026-01-19 22:03:41.93	336.76	2.09	-54.4	-56.5	6.2	0.00e+00	0	41	104	28353495040	79	19400
2026-01-19 22:03:42.94	336.86	2.04	-54.4	-56.5	6.2	0.00e+00	0	42	104	28353495040	79	19419
2026-01-19 22:03:43.95	336.96	1.98	-54.4	-56.5	6.2	0.00e+00	0	42	104	28353495040	79	19431
2026-01-19 22:03:44.96	337.05	1.92	-54.4	-56.5	6.2	0.00e+00	0	42	104	28353495040	79	19404
2026-01-19 22:03:45.97	337.15	1.86	-54.4	-56.5	6.2	0.00e+00	0	42	104	28353495040	79	19353

#Closed at: 2026-01-19 22:03:46
#Recorded file [28353 MB]: D:/lorett/data/31041_260120_005411.dat