passes_logs/2026/01/19/R3.2S_Murmansk/R3.2S_Murmansk__20260119_012740_KANOPUS-V_5_rec.log

#Pass ID: 20260119_012740_KANOPUS-V 5
#Satellite: KANOPUS-V 5
#Configuration: KANOPUS-V_8320
#almurnet v.1.7.20251203
#Start time: 2026-01-19 01:27:41

#Version: 2.2.20231116
#Station: R3.2S_Murmansk
#Location: 33.079688 lon 68.888172 lat
#TLE: 1 43876U 18111A   26018.65182262  .00003158  00000+0  13545-3 0  9996
#TLE: 2 43876  97.3687 287.0998 0001777  87.4650 272.6790 15.23458333392021

#Time	Az	El	Level	Level2	SNR	BER	BlckErr	Temp	State	Recorded	gain1	gain2
2026-01-19 01:27:41.52	30.36	2.04	-52.5	-61.3	3.8	7.46e-01	0	35	0	0	77	9492
2026-01-19 01:27:42.52	30.25	2.10	-52.5	-61.4	3.8	7.45e-01	0	35	104	0	76	10076
2026-01-19 01:27:43.52	30.14	2.15	-52.5	-61.3	3.8	7.44e-01	0	35	104	0	76	10048
2026-01-19 01:27:44.53	30.02	2.21	-52.5	-61.3	3.8	7.45e-01	0	35	104	0	76	10039
2026-01-19 01:27:45.54	29.91	2.27	-52.5	-61.3	3.8	7.46e-01	0	35	104	0	76	10049
2026-01-19 01:27:46.55	29.80	2.32	-52.5	-61.4	3.8	7.45e-01	0	35	104	0	76	10079
2026-01-19 01:27:47.56	29.68	2.38	-52.5	-61.4	3.8	7.46e-01	0	35	104	0	76	10063
2026-01-19 01:27:48.56	29.57	2.44	-52.5	-61.3	3.8	7.45e-01	0	35	104	0	76	10043
2026-01-19 01:27:49.57	29.45	2.49	-52.5	-61.3	3.8	7.46e-01	0	35	104	0	76	10041
2026-01-19 01:27:50.58	29.34	2.55	-52.5	-61.3	3.8	7.45e-01	0	35	104	0	76	10047
2026-01-19 01:27:51.59	29.22	2.61	-52.5	-61.3	3.8	7.46e-01	0	36	104	0	76	10051
2026-01-19 01:27:52.59	29.10	2.67	-52.5	-61.3	3.8	7.44e-01	0	35	104	0	76	10042
2026-01-19 01:27:53.60	28.99	2.72	-52.5	-61.3	3.8	7.45e-01	0	35	104	0	76	10059
2026-01-19 01:27:54.61	28.87	2.78	-52.5	-61.3	3.8	7.45e-01	0	35	104	0	76	10057
2026-01-19 01:27:55.62	28.75	2.84	-52.5	-61.3	3.8	7.45e-01	0	36	104	0	76	10019
2026-01-19 01:27:56.62	28.63	2.90	-52.5	-61.3	3.8	7.44e-01	0	36	104	0	76	9983
2026-01-19 01:27:57.63	28.51	2.95	-52.5	-61.4	3.8	7.45e-01	0	36	104	0	76	10063
2026-01-19 01:27:58.64	28.39	3.01	-52.5	-61.3	3.8	7.44e-01	0	36	104	0	76	10026
2026-01-19 01:27:59.65	28.27	3.07	-52.5	-61.3	3.8	7.48e-01	0	36	104	0	76	10029
2026-01-19 01:28:00.65	28.15	3.13	-52.5	-61.3	3.8	7.44e-01	0	35	104	0	76	10044
2026-01-19 01:28:01.66	28.02	3.19	-52.5	-61.3	3.8	7.43e-01	0	36	104	0	76	10031
2026-01-19 01:28:02.67	27.90	3.24	-52.5	-61.3	3.8	7.44e-01	0	36	104	0	76	10053
2026-01-19 01:28:03.68	27.78	3.30	-52.5	-61.4	3.8	7.44e-01	0	36	104	0	76	10068
2026-01-19 01:28:04.68	27.65	3.36	-52.5	-61.3	3.8	7.46e-01	0	36	104	0	76	10045
2026-01-19 01:28:05.69	27.53	3.42	-52.5	-61.3	3.8	7.46e-01	0	36	104	0	76	10032
2026-01-19 01:28:06.70	27.40	3.48	-52.5	-61.3	3.8	7.46e-01	0	36	104	0	76	10040
2026-01-19 01:28:07.71	27.27	3.53	-52.5	-61.4	3.8	7.45e-01	0	36	104	0	76	10065
2026-01-19 01:28:08.71	27.15	3.59	-52.5	-61.3	3.8	7.45e-01	0	36	104	0	76	10026
2026-01-19 01:28:09.72	27.02	3.65	-52.5	-61.3	3.8	7.45e-01	0	36	104	0	76	10059
2026-01-19 01:28:10.73	26.89	3.71	-52.5	-61.3	3.8	7.45e-01	0	36	104	0	76	10048
2026-01-19 01:28:11.74	26.76	3.77	-52.5	-61.3	3.8	7.45e-01	0	36	104	0	76	10038
2026-01-19 01:28:12.75	26.63	3.83	-52.5	-61.3	3.8	7.45e-01	0	36	104	0	76	10031
2026-01-19 01:28:13.76	26.50	3.89	-52.5	-61.4	3.8	7.46e-01	0	36	104	0	76	10083
2026-01-19 01:28:14.76	26.37	3.94	-52.5	-61.3	3.8	7.44e-01	0	36	104	0	76	10028
2026-01-19 01:28:15.77	26.24	4.00	-52.5	-61.3	3.8	7.46e-01	0	36	104	0	76	10046
2026-01-19 01:28:16.78	26.10	4.06	-52.5	-61.3	3.8	7.45e-01	0	36	104	0	76	10003
2026-01-19 01:28:17.79	25.97	4.12	-52.5	-61.3	3.8	7.44e-01	0	36	104	0	76	10050
2026-01-19 01:28:18.80	25.84	4.18	-52.5	-61.4	3.8	7.46e-01	0	36	104	0	76	10064
2026-01-19 01:28:19.80	25.70	4.24	-52.5	-61.3	3.8	7.45e-01	0	36	104	0	76	10052
2026-01-19 01:28:20.81	25.57	4.30	-52.5	-61.3	3.8	7.46e-01	0	36	104	0	76	10043
2026-01-19 01:28:21.82	25.43	4.36	-52.5	-61.3	3.8	7.45e-01	0	36	104	0	76	10051
2026-01-19 01:28:22.83	25.29	4.42	-52.5	-61.3	3.8	7.45e-01	0	36	104	0	76	10038
2026-01-19 01:28:23.83	25.16	4.47	-52.5	-61.3	3.8	7.45e-01	0	36	104	0	76	10046
2026-01-19 01:28:24.84	25.02	4.53	-52.5	-61.3	3.8	7.46e-01	0	36	104	0	76	10058
2026-01-19 01:28:25.85	24.88	4.59	-52.5	-61.3	3.8	7.44e-01	0	36	104	0	76	10059
2026-01-19 01:28:26.86	24.74	4.65	-52.5	-61.3	3.8	7.47e-01	0	36	104	0	76	10022
2026-01-19 01:28:27.87	24.60	4.71	-52.5	-61.3	3.8	7.45e-01	0	36	104	0	76	10022
2026-01-19 01:28:28.87	24.46	4.77	-52.5	-61.3	3.8	7.45e-01	0	36	104	0	76	10039
2026-01-19 01:28:29.88	24.32	4.83	-52.5	-61.3	3.8	7.44e-01	0	36	104	0	76	10039
2026-01-19 01:28:30.89	24.17	4.89	-52.5	-61.3	3.8	7.45e-01	0	36	104	0	76	10044
2026-01-19 01:28:31.90	24.03	4.95	-52.5	-61.3	3.8	7.47e-01	0	36	104	0	76	10040
2026-01-19 01:28:32.90	23.89	5.01	-52.5	-61.3	3.8	7.45e-01	0	36	104	0	76	10047
2026-01-19 01:28:33.91	23.74	5.07	-52.7	-61.5	3.8	7.46e-01	0	36	104	0	76	10292
2026-01-19 01:28:34.92	23.59	5.13	-52.9	-61.8	3.8	7.46e-01	0	36	104	0	76	10542
2026-01-19 01:28:35.93	23.45	5.19	-52.4	-61.2	3.8	7.43e-01	0	36	104	0	76	9919
2026-01-19 01:28:36.94	23.30	5.25	-52.8	-61.7	3.8	7.45e-01	0	36	104	0	76	10443
2026-01-19 01:28:37.94	23.15	5.31	-52.7	-61.5	3.8	7.45e-01	0	36	104	0	76	10220
2026-01-19 01:28:38.95	23.00	5.37	-53.0	-61.8	3.8	7.44e-01	0	36	104	0	76	10595
2026-01-19 01:28:39.96	22.85	5.43	-52.6	-61.4	3.8	7.45e-01	0	36	104	0	76	10161
2026-01-19 01:28:40.97	22.70	5.49	-52.9	-61.8	3.8	7.46e-01	0	37	104	0	76	10534
2026-01-19 01:28:41.98	22.55	5.55	-52.8	-61.6	3.8	7.46e-01	0	36	104	0	76	10376
2026-01-19 01:28:42.98	22.40	5.61	-53.1	-61.9	3.8	7.44e-01	0	37	104	0	76	10723
2026-01-19 01:28:43.99	22.25	5.67	-52.7	-61.6	3.8	7.43e-01	0	36	104	0	76	10326
2026-01-19 01:28:45.00	22.09	5.73	-53.0	-61.8	3.8	7.46e-01	0	36	104	0	76	10644
2026-01-19 01:28:46.01	21.94	5.79	-52.9	-61.7	3.8	7.44e-01	0	36	104	0	76	10520
2026-01-19 01:28:47.02	21.78	5.85	-53.1	-62.0	3.8	7.45e-01	0	36	104	0	76	10815
2026-01-19 01:28:48.02	21.63	5.91	-52.8	-61.7	3.8	7.45e-01	0	36	104	0	76	10453
2026-01-19 01:28:49.03	21.47	5.97	-53.1	-61.9	3.8	7.46e-01	0	36	104	0	76	10709
2026-01-19 01:28:50.04	21.31	6.03	-53.0	-61.8	3.8	7.45e-01	0	36	104	0	76	10641
2026-01-19 01:28:51.04	21.15	6.09	-53.2	-62.1	3.8	7.47e-01	0	36	104	0	76	10905
2026-01-19 01:28:52.05	20.99	6.15	-52.9	-61.8	3.8	7.47e-01	0	36	104	0	76	10550
2026-01-19 01:28:53.06	20.83	6.21	-53.1	-61.9	3.8	7.45e-01	0	36	104	0	76	10778
2026-01-19 01:28:54.07	20.67	6.27	-53.1	-61.9	3.8	7.46e-01	0	37	104	0	76	10715
2026-01-19 01:28:55.07	20.51	6.32	-53.3	-62.1	3.8	7.46e-01	0	36	104	0	77	10335
2026-01-19 01:28:56.08	20.34	6.39	-53.0	-61.8	3.8	7.45e-01	0	37	104	0	77	10032
2026-01-19 01:28:57.09	20.18	6.45	-53.2	-62.0	3.8	7.46e-01	0	37	104	0	77	10268
2026-01-19 01:28:58.10	20.02	6.51	-53.1	-62.0	3.8	7.46e-01	0	37	104	0	77	10176
2026-01-19 01:28:59.11	19.85	6.57	-53.3	-62.1	3.8	7.45e-01	0	36	104	0	77	10387
2026-01-19 01:29:00.11	19.68	6.63	-53.1	-61.9	3.8	7.45e-01	0	36	104	0	77	10147
2026-01-19 01:29:01.12	19.52	6.69	-53.3	-62.1	3.8	7.44e-01	0	37	104	0	77	10344
2026-01-19 01:29:02.13	19.35	6.75	-53.2	-62.0	3.8	7.46e-01	0	36	104	0	77	10276
2026-01-19 01:29:03.14	19.18	6.81	-53.4	-62.2	3.8	7.47e-01	0	36	104	0	77	10433
2026-01-19 01:29:04.15	19.01	6.87	-53.2	-62.0	3.8	7.46e-01	0	36	104	0	77	10231
2026-01-19 01:29:05.16	18.84	6.93	-53.3	-62.1	3.8	7.46e-01	0	37	104	0	77	10410
2026-01-19 01:29:06.17	18.66	6.99	-53.3	-62.1	3.8	7.45e-01	0	36	104	0	77	10331
2026-01-19 01:29:07.17	18.49	7.05	-53.4	-62.2	3.8	7.46e-01	0	36	104	0	77	10532
2026-01-19 01:29:08.18	18.32	7.11	-53.2	-62.1	3.8	7.45e-01	0	37	104	0	77	10322
2026-01-19 01:29:09.19	18.14	7.17	-53.4	-62.2	3.8	7.45e-01	0	36	104	0	77	10435
2026-01-19 01:29:10.19	17.97	7.23	-53.3	-62.1	3.8	7.45e-01	0	37	104	0	77	10402
2026-01-19 01:29:11.20	17.79	7.29	-53.5	-62.3	3.8	7.46e-01	0	37	104	0	77	10605
2026-01-19 01:29:12.21	17.61	7.35	-53.3	-62.1	3.8	7.46e-01	0	37	104	0	77	10368
2026-01-19 01:29:13.22	17.43	7.40	-53.4	-62.2	3.8	7.44e-01	0	37	104	0	77	10503
2026-01-19 01:29:14.22	17.26	7.46	-53.4	-62.2	3.8	7.44e-01	0	37	104	0	77	10468
2026-01-19 01:29:15.23	17.08	7.52	-53.5	-62.3	3.8	7.46e-01	0	36	104	0	77	10583
2026-01-19 01:29:16.24	16.89	7.58	-53.3	-62.2	3.8	7.44e-01	0	37	104	0	77	10493
2026-01-19 01:29:17.25	16.71	7.64	-53.4	-62.2	3.8	7.44e-01	0	37	104	0	77	10515
2026-01-19 01:29:18.26	16.53	7.70	-53.4	-62.2	3.8	7.45e-01	0	37	104	0	77	10493
2026-01-19 01:29:19.26	16.34	7.76	-53.5	-62.4	3.8	7.46e-01	0	37	104	0	77	10672
2026-01-19 01:29:20.27	16.16	7.82	-53.4	-62.2	3.8	7.47e-01	0	36	104	0	77	10492
2026-01-19 01:29:21.28	15.97	7.88	-53.5	-62.3	3.8	7.44e-01	0	37	104	0	77	10559
2026-01-19 01:29:22.28	15.79	7.94	-53.4	-62.3	3.8	7.45e-01	0	37	104	0	77	10558
2026-01-19 01:29:23.29	15.60	8.00	-53.5	-62.4	3.8	7.45e-01	0	37	104	0	77	10675
2026-01-19 01:29:24.30	15.41	8.06	-53.4	-62.3	3.8	7.46e-01	0	37	104	0	77	10536
2026-01-19 01:29:25.31	15.22	8.12	-53.5	-62.3	3.8	7.45e-01	0	37	104	0	77	10623
2026-01-19 01:29:26.32	15.03	8.18	-53.5	-62.3	3.8	7.45e-01	0	37	104	0	77	10605
2026-01-19 01:29:27.32	14.84	8.24	-53.5	-62.4	3.8	7.45e-01	0	37	104	0	77	10691
2026-01-19 01:29:28.33	14.64	8.30	-53.4	-62.3	3.8	7.45e-01	0	37	104	0	77	10596
2026-01-19 01:29:29.34	14.45	8.36	-53.5	-62.4	3.8	7.45e-01	0	37	104	0	77	10662
2026-01-19 01:29:30.35	14.25	8.41	-53.5	-62.3	3.8	7.45e-01	0	37	104	0	77	10618
2026-01-19 01:29:31.36	14.06	8.47	-53.6	-62.4	3.8	7.46e-01	0	37	104	0	77	10687
2026-01-19 01:29:32.36	13.86	8.53	-53.5	-62.3	3.8	7.45e-01	0	37	104	0	77	10577
2026-01-19 01:29:33.37	13.66	8.59	-53.5	-62.3	3.8	7.45e-01	0	37	104	0	77	10651
2026-01-19 01:29:34.38	13.46	8.65	-53.5	-62.3	3.8	7.45e-01	0	37	104	0	77	10653
2026-01-19 01:29:35.38	13.27	8.71	-53.6	-62.4	3.8	7.45e-01	0	37	104	0	77	10714
2026-01-19 01:29:36.39	13.06	8.77	-53.5	-62.3	3.8	7.45e-01	0	37	104	0	77	10637
2026-01-19 01:29:37.40	12.86	8.82	-53.5	-62.4	3.8	7.45e-01	0	37	104	0	77	10707
2026-01-19 01:29:38.41	12.66	8.88	-53.5	-62.3	3.8	7.44e-01	0	37	104	0	77	10642
2026-01-19 01:29:39.42	12.45	8.94	-53.6	-62.4	3.8	7.45e-01	0	37	104	0	77	10741
2026-01-19 01:29:40.42	12.25	9.00	-53.5	-62.4	3.8	7.45e-01	0	37	104	0	77	10687
2026-01-19 01:29:41.43	12.04	9.06	-53.6	-62.4	3.8	7.45e-01	0	37	104	0	77	10726
2026-01-19 01:29:42.44	11.84	9.11	-53.6	-62.4	3.8	7.45e-01	0	37	104	0	77	10720
2026-01-19 01:29:43.45	11.63	9.17	-53.6	-62.4	3.8	7.46e-01	0	37	104	0	77	10765
2026-01-19 01:29:44.45	11.42	9.23	-53.6	-62.4	3.8	7.46e-01	0	37	104	0	77	10691
2026-01-19 01:29:45.46	11.21	9.29	-53.6	-62.4	3.8	7.45e-01	0	37	104	0	77	10755
2026-01-19 01:29:46.47	11.00	9.34	-53.6	-62.5	3.8	7.45e-01	0	37	104	0	77	10791
2026-01-19 01:29:47.48	10.78	9.40	-53.6	-62.5	3.8	7.46e-01	0	37	104	0	77	10807
2026-01-19 01:29:48.49	10.57	9.46	-53.6	-62.4	3.8	7.45e-01	0	37	104	0	77	10736
2026-01-19 01:29:49.50	10.36	9.51	-53.6	-62.5	3.8	7.45e-01	0	37	104	0	77	10799
2026-01-19 01:29:50.50	10.14	9.57	-53.6	-62.5	3.8	7.45e-01	0	37	104	0	77	10816
2026-01-19 01:29:51.51	9.93	9.63	-53.7	-62.5	3.8	7.44e-01	0	37	104	0	77	10828
2026-01-19 01:29:52.52	9.71	9.68	-53.6	-62.5	3.8	7.45e-01	0	37	104	0	77	10783
2026-01-19 01:29:53.53	9.49	9.74	-53.6	-62.5	3.8	7.45e-01	0	37	104	0	77	10791
2026-01-19 01:29:54.54	9.27	9.80	-53.7	-62.5	3.8	7.45e-01	0	37	104	0	77	10854
2026-01-19 01:29:55.55	9.05	9.85	-53.6	-62.5	3.8	7.45e-01	0	37	104	0	77	10852
2026-01-19 01:29:56.56	8.82	9.91	-53.6	-62.5	3.8	7.46e-01	0	37	104	0	77	10818
2026-01-19 01:29:57.56	8.60	9.96	-53.7	-62.5	3.8	7.46e-01	0	37	104	0	77	10824
2026-01-19 01:29:58.57	8.38	10.02	-53.7	-62.5	3.8	7.45e-01	0	37	104	0	77	10868
2026-01-19 01:29:59.58	8.15	10.07	-53.7	-62.5	3.8	7.45e-01	0	37	104	0	78	10239
2026-01-19 01:30:00.59	7.93	10.13	-53.7	-62.5	3.8	7.45e-01	0	37	104	0	78	10256
2026-01-19 01:30:01.60	7.70	10.18	-53.7	-62.6	3.8	7.45e-01	0	37	104	0	78	10315
2026-01-19 01:30:02.60	7.47	10.24	-53.7	-62.6	3.8	7.46e-01	0	37	104	0	78	10353
2026-01-19 01:30:03.61	7.24	10.29	-53.7	-62.5	3.8	7.47e-01	0	37	104	0	78	10283
2026-01-19 01:30:04.62	7.01	10.34	-53.7	-62.6	3.8	7.43e-01	0	37	104	0	78	10315
2026-01-19 01:30:05.62	6.78	10.40	-53.7	-62.5	3.8	7.45e-01	0	37	104	0	78	10290
2026-01-19 01:30:06.63	6.55	10.45	-53.8	-62.6	3.8	7.45e-01	0	37	104	0	78	10378
2026-01-19 01:30:07.64	6.32	10.50	-53.7	-62.6	3.8	7.47e-01	0	37	104	0	78	10308
2026-01-19 01:30:08.65	6.08	10.56	-53.7	-62.5	3.8	7.45e-01	0	37	104	0	78	10287
2026-01-19 01:30:09.66	5.84	10.61	-53.7	-62.6	3.8	7.45e-01	0	37	104	0	78	10344
2026-01-19 01:30:10.67	5.61	10.66	-53.8	-62.6	3.8	7.46e-01	0	37	104	0	78	10376
2026-01-19 01:30:11.67	5.37	10.72	-53.7	-62.6	3.8	7.45e-01	0	37	104	0	78	10328
2026-01-19 01:30:12.68	5.13	10.77	-53.8	-62.6	3.8	7.45e-01	0	37	104	0	78	10332
2026-01-19 01:30:13.68	4.89	10.82	-53.8	-62.6	3.8	7.46e-01	0	37	104	0	78	10325
2026-01-19 01:30:14.69	4.65	10.87	-53.8	-62.6	3.8	7.45e-01	0	37	104	0	78	10383
2026-01-19 01:30:15.70	4.41	10.92	-53.7	-62.6	3.8	7.46e-01	0	37	104	0	78	10335
2026-01-19 01:30:16.71	4.17	10.97	-53.8	-62.6	3.8	7.44e-01	0	37	104	0	78	10336
2026-01-19 01:30:17.72	3.92	11.02	-53.8	-62.6	3.8	7.46e-01	0	37	104	0	78	10360
2026-01-19 01:30:18.72	3.68	11.07	-53.8	-62.7	3.8	7.46e-01	0	37	104	0	78	10430
2026-01-19 01:30:19.73	3.43	11.12	-53.8	-62.6	3.8	7.45e-01	0	37	104	0	78	10362
2026-01-19 01:30:20.74	3.19	11.17	-53.8	-62.6	3.8	7.47e-01	0	37	104	0	78	10360
2026-01-19 01:30:21.75	2.94	11.22	-53.8	-62.6	3.8	7.46e-01	0	37	104	0	78	10404
2026-01-19 01:30:22.76	2.69	11.27	-53.8	-62.7	3.8	7.46e-01	0	37	104	0	78	10431
2026-01-19 01:30:23.76	2.44	11.32	-53.8	-62.6	3.8	7.45e-01	0	37	104	0	78	10347
2026-01-19 01:30:24.77	2.19	11.37	-53.8	-62.6	3.8	7.45e-01	0	37	104	0	78	10396
2026-01-19 01:30:25.78	1.93	11.42	-53.8	-62.6	3.8	7.45e-01	0	37	104	0	78	10367
2026-01-19 01:30:26.79	1.68	11.47	-53.8	-62.7	3.8	7.46e-01	0	37	104	0	78	10456
2026-01-19 01:30:27.80	1.43	11.51	-53.8	-62.6	3.8	7.45e-01	0	37	104	0	78	10380
2026-01-19 01:30:28.80	1.17	11.56	-53.8	-62.6	3.8	7.46e-01	0	37	104	0	78	10388
2026-01-19 01:30:29.81	0.92	11.61	-53.8	-62.6	3.8	7.46e-01	0	37	104	0	78	10365
2026-01-19 01:30:30.82	0.66	11.65	-53.9	-62.7	3.8	7.44e-01	0	37	104	0	78	10464
2026-01-19 01:30:31.83	0.40	11.70	-53.8	-62.6	3.8	7.45e-01	0	37	104	0	78	10343
2026-01-19 01:30:32.84	0.14	11.75	-53.8	-62.7	3.8	7.46e-01	0	37	104	0	78	10428
2026-01-19 01:30:33.84	359.88	11.79	-53.8	-62.7	3.8	7.45e-01	0	37	104	0	78	10434
2026-01-19 01:30:34.85	359.62	11.84	-53.9	-62.7	3.8	7.45e-01	0	37	104	0	78	10481
2026-01-19 01:30:35.86	359.36	11.88	-53.8	-62.6	3.8	7.45e-01	0	37	104	0	78	10409
2026-01-19 01:30:36.87	359.09	11.93	-53.8	-62.7	3.8	7.46e-01	0	37	104	0	78	10428
2026-01-19 01:30:37.88	358.83	11.97	-53.8	-62.7	3.8	7.46e-01	0	37	104	0	78	10430
2026-01-19 01:30:38.88	358.56	12.01	-53.9	-62.7	3.8	7.44e-01	0	37	104	0	78	10470
2026-01-19 01:30:39.89	358.30	12.05	-53.8	-62.7	3.8	7.45e-01	0	37	104	0	78	10426
2026-01-19 01:30:40.90	358.03	12.10	-53.8	-62.7	3.8	7.44e-01	0	37	104	0	78	10421
2026-01-19 01:30:41.90	357.76	12.14	-53.8	-62.7	3.8	7.46e-01	0	37	104	0	78	10425
2026-01-19 01:30:42.91	357.49	12.18	-53.9	-62.7	3.8	7.46e-01	0	37	104	0	78	10502
2026-01-19 01:30:43.92	357.22	12.22	-53.8	-62.7	3.8	7.46e-01	0	37	104	0	78	10436
2026-01-19 01:30:44.93	356.95	12.26	-53.9	-62.7	3.8	7.46e-01	0	37	104	0	78	10478
2026-01-19 01:30:45.93	356.68	12.30	-53.8	-62.7	3.8	7.46e-01	0	37	104	0	78	10489
2026-01-19 01:30:46.94	356.41	12.34	-53.9	-62.7	3.8	7.45e-01	0	37	104	0	78	10516
2026-01-19 01:30:47.95	356.13	12.38	-53.8	-62.7	3.8	7.47e-01	0	37	104	0	78	10453
2026-01-19 01:30:48.96	355.86	12.42	-53.9	-62.7	3.8	7.46e-01	0	37	104	0	78	10496
2026-01-19 01:30:49.97	355.58	12.46	-53.9	-62.7	3.8	7.46e-01	0	37	104	0	78	10445
2026-01-19 01:30:50.97	355.31	12.50	-53.9	-62.8	3.8	7.45e-01	0	37	104	0	78	10544
2026-01-19 01:30:51.98	355.03	12.54	-53.8	-62.7	3.8	7.46e-01	0	37	104	0	78	10426
2026-01-19 01:30:52.99	354.75	12.57	-53.9	-62.7	3.8	7.42e-01	0	37	104	0	78	10483
2026-01-19 01:30:54.00	354.47	12.61	-53.9	-62.7	3.8	7.45e-01	0	37	104	0	78	10475
2026-01-19 01:30:55.00	354.20	12.65	-53.9	-62.8	3.8	7.46e-01	0	37	104	0	78	10558
2026-01-19 01:30:56.01	353.91	12.68	-53.8	-62.6	3.8	7.45e-01	0	37	104	0	78	10401
2026-01-19 01:30:57.02	353.63	12.72	-53.9	-62.7	3.8	7.46e-01	0	37	104	0	78	10520
2026-01-19 01:30:58.03	353.35	12.75	-53.9	-62.7	3.8	7.45e-01	0	37	104	0	78	10463
2026-01-19 01:30:59.04	353.07	12.79	-53.9	-62.7	3.8	7.45e-01	0	37	104	0	78	10518
2026-01-19 01:31:00.05	352.78	12.82	-53.8	-62.7	3.8	7.45e-01	0	37	104	0	78	10448
2026-01-19 01:31:01.06	352.50	12.85	-53.9	-62.7	3.8	7.43e-01	0	37	104	0	78	10491
2026-01-19 01:31:02.06	352.21	12.88	-53.9	-62.7	3.8	7.46e-01	0	37	104	0	78	10483
2026-01-19 01:31:03.07	351.93	12.92	-53.9	-62.7	3.8	7.44e-01	0	37	104	0	78	10525
2026-01-19 01:31:04.08	351.64	12.95	-53.8	-62.7	3.8	7.45e-01	0	37	104	0	78	10457
2026-01-19 01:31:05.09	351.35	12.98	-53.9	-62.7	3.8	7.46e-01	0	37	104	0	78	10521
2026-01-19 01:31:06.10	351.06	13.01	-53.9	-62.7	3.8	7.44e-01	0	37	104	0	78	10487
2026-01-19 01:31:07.10	350.77	13.04	-53.9	-62.8	3.8	7.43e-01	0	37	104	0	78	10551
2026-01-19 01:31:08.11	350.48	13.07	-53.9	-62.7	3.8	7.44e-01	0	37	104	0	78	10469
2026-01-19 01:31:09.12	350.19	13.10	-53.9	-62.7	3.8	7.45e-01	0	37	104	0	78	10498
2026-01-19 01:31:10.13	349.90	13.12	-53.9	-62.7	3.8	7.46e-01	0	37	104	0	78	10440
2026-01-19 01:31:11.14	349.61	13.15	-53.9	-62.8	3.8	7.46e-01	0	37	104	0	78	10552
2026-01-19 01:31:12.15	349.32	13.18	-53.9	-62.7	3.8	7.45e-01	0	37	104	0	78	10458
2026-01-19 01:31:13.16	349.02	13.20	-53.9	-62.7	3.8	7.45e-01	0	37	104	0	78	10509
2026-01-19 01:31:14.16	348.73	13.23	-53.9	-62.7	3.8	7.46e-01	0	37	104	0	78	10510
2026-01-19 01:31:15.17	348.44	13.25	-53.9	-62.8	3.8	7.46e-01	0	37	104	0	78	10568
2026-01-19 01:31:16.18	348.14	13.28	-53.9	-62.7	3.8	7.45e-01	0	37	104	0	78	10471
2026-01-19 01:31:17.19	347.84	13.30	-53.9	-62.7	3.8	7.45e-01	0	37	104	0	78	10508
2026-01-19 01:31:18.20	347.55	13.33	-53.9	-62.7	3.8	7.44e-01	0	37	104	0	78	10480
2026-01-19 01:31:19.21	347.25	13.35	-53.9	-62.8	3.8	7.44e-01	0	37	104	0	78	10559
2026-01-19 01:31:20.22	346.95	13.37	-53.9	-62.7	3.8	7.44e-01	0	37	104	0	78	10523
2026-01-19 01:31:21.22	346.66	13.39	-53.9	-62.8	3.8	7.45e-01	0	37	104	0	78	10556
2026-01-19 01:31:22.23	346.36	13.41	-53.9	-62.7	3.8	7.46e-01	0	37	104	0	78	10533
2026-01-19 01:31:23.24	346.06	13.43	-54.0	-62.8	3.8	7.46e-01	0	37	104	0	78	10544
2026-01-19 01:31:24.25	345.76	13.45	-53.9	-62.7	3.8	7.43e-01	0	37	104	0	78	10533
2026-01-19 01:31:25.26	345.46	13.47	-53.9	-62.8	3.8	7.47e-01	0	37	104	0	78	10555
2026-01-19 01:31:26.26	345.16	13.49	-53.9	-62.7	3.8	7.44e-01	0	37	104	0	78	10527
2026-01-19 01:31:27.27	344.86	13.50	-54.0	-62.8	3.8	7.45e-01	0	37	104	0	78	10574
2026-01-19 01:31:28.28	344.56	13.52	-53.9	-62.7	3.8	7.47e-01	0	37	104	0	78	10513
2026-01-19 01:31:29.29	344.26	13.54	-53.9	-62.8	3.8	7.45e-01	0	37	104	0	78	10549
2026-01-19 01:31:30.30	343.95	13.55	-53.9	-62.7	3.8	7.47e-01	0	37	104	0	78	10505
2026-01-19 01:31:31.30	343.65	13.57	-54.0	-62.8	3.8	7.46e-01	0	37	104	0	78	10624
2026-01-19 01:31:32.31	343.35	13.58	-53.9	-62.7	3.8	7.45e-01	0	37	104	0	78	10527
2026-01-19 01:31:33.32	343.05	13.60	-53.9	-62.8	3.8	7.44e-01	0	37	104	0	78	10551
2026-01-19 01:31:34.33	342.74	13.61	-53.9	-62.8	3.8	7.44e-01	0	37	104	0	78	10616
2026-01-19 01:31:35.34	342.44	13.62	-54.0	-62.8	3.8	7.44e-01	0	37	104	0	78	10632
2026-01-19 01:31:36.35	342.14	13.63	-53.9	-62.8	3.8	7.46e-01	0	37	104	0	78	10584
2026-01-19 01:31:37.36	341.83	13.64	-54.0	-62.8	3.8	7.44e-01	0	37	104	0	78	10586
2026-01-19 01:31:38.36	341.53	13.65	-54.0	-62.8	3.8	7.45e-01	0	37	104	0	78	10581
2026-01-19 01:31:39.37	341.22	13.66	-54.0	-62.8	3.8	7.44e-01	0	37	104	0	78	10619
2026-01-19 01:31:40.38	340.92	13.67	-53.9	-62.8	3.8	7.44e-01	0	37	104	0	78	10591
2026-01-19 01:31:41.38	340.62	13.68	-54.0	-62.8	3.8	7.46e-01	0	37	104	0	78	10599
2026-01-19 01:31:42.39	340.31	13.69	-54.0	-62.8	3.8	7.45e-01	0	37	104	0	78	10603
2026-01-19 01:31:43.40	340.00	13.69	-54.0	-62.8	3.8	7.45e-01	0	37	104	0	78	10570
2026-01-19 01:31:44.41	339.70	13.70	-53.9	-62.8	3.8	7.44e-01	0	37	104	0	78	10554
2026-01-19 01:31:45.42	339.39	13.70	-53.9	-62.8	3.8	7.47e-01	0	37	104	0	78	10578
2026-01-19 01:31:46.42	339.09	13.71	-54.0	-62.8	3.8	7.45e-01	0	37	104	0	78	10598
2026-01-19 01:31:47.43	338.78	13.71	-54.0	-62.8	3.8	7.45e-01	0	37	104	0	78	10608
2026-01-19 01:31:48.44	338.47	13.71	-53.9	-62.8	3.8	7.47e-01	0	37	104	0	78	10550
2026-01-19 01:31:49.45	338.17	13.72	-54.0	-62.8	3.8	7.44e-01	0	37	104	0	78	10606
2026-01-19 01:31:50.45	337.86	13.72	-54.0	-62.8	3.8	7.47e-01	0	37	104	0	78	10626
2026-01-19 01:31:51.46	337.56	13.72	-54.0	-62.8	3.8	7.46e-01	0	37	104	0	78	10570
2026-01-19 01:31:52.47	337.25	13.72	-53.9	-62.8	3.8	7.46e-01	0	37	104	0	78	10567
2026-01-19 01:31:53.48	336.94	13.72	-54.0	-62.8	3.8	7.45e-01	0	37	104	0	78	10606
2026-01-19 01:31:54.49	336.64	13.72	-54.0	-62.8	3.8	7.45e-01	0	37	104	0	78	10630
2026-01-19 01:31:55.49	336.33	13.72	-54.0	-62.8	3.8	7.44e-01	0	37	104	0	78	10623
2026-01-19 01:31:56.50	336.03	13.71	-54.0	-62.8	3.8	7.45e-01	0	37	104	0	78	10605
2026-01-19 01:31:57.51	335.72	13.71	-54.0	-62.8	3.8	7.46e-01	0	37	104	0	78	10593
2026-01-19 01:31:58.52	335.41	13.71	-54.0	-62.8	3.8	7.46e-01	0	37	104	0	78	10639
2026-01-19 01:31:59.53	335.11	13.70	-54.0	-62.8	3.8	7.45e-01	0	37	104	0	78	10616
2026-01-19 01:32:00.53	334.80	13.70	-54.0	-62.8	3.8	7.46e-01	0	37	104	0	78	10600
2026-01-19 01:32:01.54	334.50	13.69	-54.0	-62.8	3.8	7.47e-01	0	37	104	0	78	10599
2026-01-19 01:32:02.55	334.19	13.68	-54.0	-62.8	3.8	7.45e-01	0	37	104	0	78	10653
2026-01-19 01:32:03.56	333.88	13.68	-54.0	-62.8	3.8	7.46e-01	0	37	104	0	78	10620
2026-01-19 01:32:04.57	333.58	13.67	-54.0	-62.8	3.8	7.46e-01	0	37	104	0	78	10588
2026-01-19 01:32:05.58	333.27	13.66	-54.0	-62.8	3.8	7.44e-01	0	37	104	0	78	10606
2026-01-19 01:32:06.58	332.97	13.65	-54.0	-62.8	3.8	7.45e-01	0	37	104	0	78	10631
2026-01-19 01:32:07.59	332.67	13.64	-54.0	-62.8	3.8	7.46e-01	0	37	104	0	78	10604
2026-01-19 01:32:08.60	332.36	13.63	-54.0	-62.8	3.8	7.47e-01	0	37	104	0	78	10624
2026-01-19 01:32:09.60	332.06	13.62	-54.0	-62.8	3.8	7.46e-01	0	37	104	0	78	10623
2026-01-19 01:32:10.61	331.75	13.61	-54.0	-62.8	3.8	7.46e-01	0	37	104	0	78	10654
2026-01-19 01:32:11.62	331.45	13.59	-54.0	-62.8	3.8	7.45e-01	0	37	104	0	78	10585
2026-01-19 01:32:12.63	331.15	13.58	-54.0	-62.8	3.8	7.44e-01	0	37	104	0	78	10594
2026-01-19 01:32:13.64	330.84	13.57	-54.0	-62.8	3.8	7.45e-01	0	37	104	0	78	10600
2026-01-19 01:32:14.64	330.54	13.55	-54.0	-62.8	3.8	7.46e-01	0	37	104	0	78	10648
2026-01-19 01:32:15.65	330.24	13.54	-54.0	-62.8	3.8	7.45e-01	0	37	104	0	78	10598
2026-01-19 01:32:16.66	329.94	13.52	-54.0	-62.8	3.8	7.46e-01	0	37	104	0	78	10616
2026-01-19 01:32:17.67	329.64	13.50	-54.0	-62.8	3.8	7.47e-01	0	37	104	0	78	10654
2026-01-19 01:32:18.68	329.34	13.49	-54.0	-62.9	3.8	7.45e-01	0	37	104	0	78	10665
2026-01-19 01:32:19.68	329.04	13.47	-54.0	-62.8	3.8	7.45e-01	0	37	104	0	78	10614
2026-01-19 01:32:20.69	328.74	13.45	-54.0	-62.8	3.8	7.46e-01	0	37	104	0	78	10597
2026-01-19 01:32:21.70	328.44	13.43	-54.0	-62.8	3.8	7.45e-01	0	37	104	0	78	10578
2026-01-19 01:32:22.70	328.14	13.41	-54.0	-62.9	3.8	7.46e-01	0	37	104	0	78	10667
2026-01-19 01:32:23.71	327.84	13.39	-54.0	-62.8	3.8	7.44e-01	0	37	104	0	78	10618
2026-01-19 01:32:24.72	327.54	13.37	-54.0	-62.8	3.8	7.46e-01	0	37	104	0	78	10653
2026-01-19 01:32:25.73	327.25	13.35	-54.0	-62.8	3.8	7.45e-01	0	37	104	0	78	10606
2026-01-19 01:32:26.74	326.95	13.32	-54.0	-62.9	3.8	7.46e-01	0	37	104	0	78	10685
2026-01-19 01:32:27.74	326.65	13.30	-54.0	-62.8	3.8	7.45e-01	0	37	104	0	78	10623
2026-01-19 01:32:28.75	326.36	13.28	-54.0	-62.8	3.8	7.43e-01	0	37	104	0	78	10608
2026-01-19 01:32:29.76	326.06	13.25	-54.0	-62.8	3.8	7.46e-01	0	37	104	0	78	10577
2026-01-19 01:32:30.77	325.77	13.23	-54.0	-62.9	3.8	7.45e-01	0	37	104	0	78	10666
2026-01-19 01:32:31.78	325.47	13.20	-54.0	-62.8	3.8	7.45e-01	0	37	104	0	78	10577
2026-01-19 01:32:32.78	325.18	13.18	-54.0	-62.8	3.8	7.45e-01	0	37	104	0	78	10592
2026-01-19 01:32:33.79	324.89	13.15	-54.0	-62.8	3.8	7.45e-01	0	37	104	0	78	10603
2026-01-19 01:32:34.80	324.60	13.12	-54.0	-62.9	3.8	7.44e-01	0	37	104	0	78	10682
2026-01-19 01:32:35.80	324.31	13.09	-54.0	-62.8	3.8	7.44e-01	0	37	104	0	78	10592
2026-01-19 01:32:36.81	324.02	13.06	-54.0	-62.8	3.8	7.48e-01	0	37	104	0	78	10594
2026-01-19 01:32:37.82	323.72	13.04	-54.0	-62.8	3.8	7.45e-01	0	37	104	0	78	10566
2026-01-19 01:32:38.82	323.44	13.01	-54.0	-62.8	3.8	7.44e-01	0	37	104	0	78	10650
2026-01-19 01:32:39.83	323.15	12.98	-53.9	-62.8	3.8	7.44e-01	0	37	104	0	78	10569
2026-01-19 01:32:40.84	322.86	12.94	-54.0	-62.8	3.8	7.43e-01	0	37	104	0	78	10597
2026-01-19 01:32:41.85	322.57	12.91	-54.0	-62.8	3.8	7.45e-01	0	37	104	0	78	10597
2026-01-19 01:32:42.85	322.29	12.88	-54.0	-62.9	3.8	7.45e-01	0	37	104	0	78	10672
2026-01-19 01:32:43.86	322.00	12.85	-53.9	-62.8	3.8	7.45e-01	0	37	104	0	78	10572
2026-01-19 01:32:44.87	321.72	12.82	-54.0	-62.8	3.8	7.46e-01	0	37	104	0	78	10578
2026-01-19 01:32:45.88	321.43	12.78	-54.0	-62.8	3.8	7.45e-01	0	37	104	0	78	10574
2026-01-19 01:32:46.89	321.15	12.75	-54.0	-62.9	3.8	7.45e-01	0	37	104	0	78	10666
2026-01-19 01:32:47.90	320.86	12.71	-53.9	-62.8	3.8	7.45e-01	0	37	104	0	78	10570
2026-01-19 01:32:48.90	320.59	12.68	-54.0	-62.8	3.8	7.46e-01	0	37	104	0	78	10586
2026-01-19 01:32:49.91	320.30	12.64	-53.9	-62.8	3.8	7.43e-01	0	37	104	0	78	10581
2026-01-19 01:32:50.92	320.02	12.61	-54.0	-62.8	3.8	7.45e-01	0	37	104	0	78	10620
2026-01-19 01:32:51.92	319.75	12.57	-53.9	-62.8	3.8	7.47e-01	0	37	104	0	78	10562
2026-01-19 01:32:52.93	319.47	12.53	-54.0	-62.8	3.8	7.45e-01	0	37	104	0	78	10624
2026-01-19 01:32:53.94	319.19	12.50	-54.0	-62.8	3.8	7.45e-01	0	37	104	0	78	10598
2026-01-19 01:32:54.95	318.91	12.46	-54.0	-62.8	3.8	7.45e-01	0	37	104	0	78	10630
2026-01-19 01:32:55.96	318.64	12.42	-53.9	-62.8	3.8	7.44e-01	0	37	104	0	78	10551
2026-01-19 01:32:56.96	318.36	12.38	-54.0	-62.8	3.8	7.45e-01	0	37	104	0	78	10588
2026-01-19 01:32:57.97	318.09	12.34	-53.9	-62.8	3.8	7.44e-01	0	37	104	0	78	10554
2026-01-19 01:32:58.98	317.81	12.30	-54.0	-62.8	3.8	7.46e-01	0	37	104	0	78	10612
2026-01-19 01:32:59.99	317.54	12.26	-53.9	-62.8	3.8	7.45e-01	0	37	104	0	78	10546
2026-01-19 01:33:00.99	317.27	12.22	-54.0	-62.8	3.8	7.44e-01	0	37	104	0	78	10551
2026-01-19 01:33:02.00	317.00	12.18	-53.9	-62.8	3.8	7.45e-01	0	37	104	0	78	10576
2026-01-19 01:33:03.01	316.73	12.14	-54.0	-62.8	3.8	7.46e-01	0	37	104	0	78	10630
2026-01-19 01:33:04.02	316.46	12.09	-53.9	-62.8	3.8	7.45e-01	0	37	104	0	78	10544
2026-01-19 01:33:05.02	316.20	12.05	-53.9	-62.8	3.8	7.45e-01	0	37	104	0	78	10556
2026-01-19 01:33:06.03	315.93	12.01	-53.9	-62.8	3.8	7.45e-01	0	37	104	0	78	10565
2026-01-19 01:33:07.04	315.66	11.96	-54.0	-62.8	3.8	7.45e-01	0	37	104	0	78	10586
2026-01-19 01:33:08.05	315.40	11.92	-53.9	-62.8	3.8	7.44e-01	0	37	104	0	78	10550
2026-01-19 01:33:09.06	315.13	11.88	-53.9	-62.8	3.8	7.45e-01	0	37	104	0	78	10579
2026-01-19 01:33:10.06	314.87	11.83	-53.9	-62.8	3.8	7.46e-01	0	37	104	0	78	10536
2026-01-19 01:33:11.07	314.61	11.79	-54.0	-62.8	3.8	7.46e-01	0	37	104	0	78	10596
2026-01-19 01:33:12.07	314.35	11.74	-53.9	-62.8	3.8	7.45e-01	0	37	104	0	78	10551
2026-01-19 01:33:13.09	314.09	11.69	-53.9	-62.8	3.8	7.44e-01	0	37	104	0	78	10567
2026-01-19 01:33:14.09	313.83	11.65	-53.9	-62.7	3.8	7.46e-01	0	37	104	0	78	10514
2026-01-19 01:33:15.10	313.57	11.60	-54.0	-62.8	3.8	7.45e-01	0	37	104	0	78	10622
2026-01-19 01:33:16.11	313.32	11.56	-53.9	-62.8	3.8	7.46e-01	0	37	104	0	78	10548
2026-01-19 01:33:17.11	313.06	11.51	-53.9	-62.8	3.8	7.45e-01	0	37	104	0	78	10552
2026-01-19 01:33:18.12	312.81	11.46	-53.9	-62.8	3.8	7.46e-01	0	37	104	0	78	10553
2026-01-19 01:33:19.13	312.55	11.41	-54.0	-62.8	3.8	7.44e-01	0	37	104	0	78	10583
2026-01-19 01:33:20.14	312.30	11.36	-53.9	-62.7	3.8	7.46e-01	0	37	104	0	78	10487
2026-01-19 01:33:21.15	312.05	11.32	-53.9	-62.8	3.8	7.45e-01	0	37	104	0	78	10583
2026-01-19 01:33:22.16	311.80	11.27	-53.9	-62.7	3.8	7.45e-01	0	37	104	0	78	10489
2026-01-19 01:33:23.16	311.55	11.22	-54.0	-62.8	3.8	7.45e-01	0	37	104	0	78	10570
2026-01-19 01:33:24.17	311.30	11.17	-53.9	-62.8	3.8	7.45e-01	0	37	104	0	78	10544
2026-01-19 01:33:25.18	311.05	11.12	-53.9	-62.8	3.8	7.47e-01	0	37	104	0	78	10545
2026-01-19 01:33:26.19	310.81	11.07	-53.9	-62.7	3.8	7.44e-01	0	37	104	0	78	10499
2026-01-19 01:33:27.19	310.56	11.02	-54.0	-62.8	3.8	7.44e-01	0	37	104	0	78	10594
2026-01-19 01:33:28.20	310.32	10.97	-53.9	-62.7	3.8	7.45e-01	0	37	104	0	78	10527
2026-01-19 01:33:29.21	310.07	10.92	-53.9	-62.8	3.8	7.46e-01	0	37	104	0	78	10560
2026-01-19 01:33:30.22	309.83	10.86	-53.9	-62.8	3.8	7.46e-01	0	37	104	0	78	10555
2026-01-19 01:33:31.23	309.59	10.81	-53.9	-62.8	3.8	7.45e-01	0	37	104	0	78	10568
2026-01-19 01:33:32.24	309.35	10.76	-53.9	-62.7	3.8	7.45e-01	0	37	104	0	78	10518
2026-01-19 01:33:33.24	309.11	10.71	-53.9	-62.7	3.8	7.46e-01	0	37	104	0	78	10506
2026-01-19 01:33:34.25	308.87	10.66	-53.9	-62.7	3.8	7.45e-01	0	37	104	0	78	10531
2026-01-19 01:33:35.26	308.63	10.60	-54.0	-62.8	3.8	7.46e-01	0	37	104	0	78	10615
2026-01-19 01:33:36.27	308.40	10.55	-53.9	-62.7	3.8	7.44e-01	0	37	104	0	78	10483
2026-01-19 01:33:37.28	308.16	10.50	-53.9	-62.8	3.8	7.44e-01	0	37	104	0	78	10554
2026-01-19 01:33:38.28	307.93	10.44	-53.9	-62.7	3.8	7.45e-01	0	37	104	0	78	10516
2026-01-19 01:33:39.29	307.70	10.39	-53.9	-62.8	3.8	7.43e-01	0	37	104	0	78	10567
2026-01-19 01:33:40.30	307.46	10.34	-53.9	-62.7	3.8	7.45e-01	0	37	104	0	78	10465
2026-01-19 01:33:41.31	307.23	10.28	-53.9	-62.8	3.8	7.46e-01	0	37	104	0	78	10560
2026-01-19 01:33:42.32	307.00	10.23	-53.9	-62.8	3.8	7.45e-01	0	37	104	0	78	10539
2026-01-19 01:33:43.32	306.78	10.17	-53.9	-62.8	3.8	7.45e-01	0	37	104	0	78	10573
2026-01-19 01:33:44.33	306.55	10.12	-53.9	-62.7	3.8	7.45e-01	0	37	104	0	78	10488
2026-01-19 01:33:45.34	306.32	10.06	-53.9	-62.7	3.8	7.46e-01	0	37	104	0	78	10490
2026-01-19 01:33:46.35	306.10	10.01	-53.9	-62.8	3.8	7.44e-01	0	37	104	0	78	10565
2026-01-19 01:33:47.36	305.87	9.95	-53.9	-62.8	3.8	7.45e-01	0	37	104	0	78	10580
2026-01-19 01:33:48.37	305.65	9.90	-53.9	-62.7	3.8	7.45e-01	0	37	104	0	78	10474
2026-01-19 01:33:49.38	305.42	9.84	-53.9	-62.7	3.8	7.45e-01	0	37	104	0	78	10499
2026-01-19 01:33:50.38	305.21	9.79	-53.9	-62.7	3.8	7.46e-01	0	37	104	0	78	10511
2026-01-19 01:33:51.39	304.98	9.73	-53.9	-62.8	3.8	7.44e-01	0	37	104	0	78	10552
2026-01-19 01:33:52.40	304.77	9.67	-53.9	-62.7	3.8	7.45e-01	0	37	104	0	78	10472
2026-01-19 01:33:53.41	304.55	9.62	-53.9	-62.7	3.8	7.45e-01	0	37	104	0	78	10485
2026-01-19 01:33:54.41	304.33	9.56	-53.9	-62.7	3.8	7.46e-01	0	37	104	0	78	10520
2026-01-19 01:33:55.42	304.11	9.50	-53.9	-62.8	3.8	7.45e-01	0	37	104	0	78	10549
2026-01-19 01:33:56.43	303.90	9.45	-53.9	-62.7	3.8	7.44e-01	0	37	104	0	78	10435
2026-01-19 01:33:57.44	303.69	9.39	-53.9	-62.7	3.8	7.45e-01	0	37	104	0	78	10508
2026-01-19 01:33:58.45	303.47	9.33	-53.9	-62.7	3.8	7.43e-01	0	37	104	0	78	10512
2026-01-19 01:33:59.46	303.26	9.28	-53.9	-62.7	3.8	7.45e-01	0	37	104	0	78	10524
2026-01-19 01:34:00.46	303.05	9.22	-53.9	-62.7	3.8	7.45e-01	0	37	104	0	78	10478
2026-01-19 01:34:01.47	302.84	9.16	-53.9	-62.7	3.8	7.45e-01	0	37	104	0	78	10476
2026-01-19 01:34:02.48	302.63	9.10	-53.9	-62.7	3.8	7.45e-01	0	37	104	0	78	10491
2026-01-19 01:34:03.49	302.42	9.05	-53.9	-62.7	3.8	7.45e-01	0	37	104	0	78	10520
2026-01-19 01:34:04.50	302.22	8.99	-53.9	-62.7	3.8	7.45e-01	0	37	104	0	78	10442
2026-01-19 01:34:05.50	302.01	8.93	-53.9	-62.7	3.8	7.45e-01	0	37	104	0	78	10458
2026-01-19 01:34:06.51	301.81	8.87	-53.9	-62.7	3.8	7.45e-01	0	37	104	0	78	10516
2026-01-19 01:34:07.52	301.60	8.81	-53.9	-62.7	3.8	7.43e-01	0	37	104	0	78	10522
2026-01-19 01:34:08.52	301.40	8.75	-53.8	-62.7	3.8	7.46e-01	0	37	104	0	78	10422
2026-01-19 01:34:09.53	301.20	8.70	-53.8	-62.7	3.8	7.46e-01	0	37	104	0	78	10482
2026-01-19 01:34:10.54	301.00	8.64	-53.9	-62.7	3.8	7.45e-01	0	37	104	0	78	10460
2026-01-19 01:34:11.55	300.80	8.58	-53.8	-62.7	3.8	7.45e-01	0	37	104	0	78	10482
2026-01-19 01:34:12.56	300.60	8.52	-53.8	-62.7	3.8	7.43e-01	0	37	104	0	78	10447
2026-01-19 01:34:13.56	300.41	8.46	-53.8	-62.7	3.8	7.45e-01	0	37	104	0	78	10479
2026-01-19 01:34:14.57	300.21	8.40	-53.8	-62.7	3.8	7.45e-01	0	37	104	0	78	10457
2026-01-19 01:34:15.58	300.01	8.34	-53.8	-62.7	3.8	7.46e-01	0	37	104	0	78	10443
2026-01-19 01:34:16.59	299.82	8.28	-53.8	-62.7	3.8	7.46e-01	0	37	104	0	78	10466
2026-01-19 01:34:17.60	299.62	8.22	-53.8	-62.7	3.8	7.45e-01	0	37	104	0	78	10445
2026-01-19 01:34:18.60	299.43	8.17	-53.9	-62.7	3.8	7.46e-01	0	37	104	0	78	10486
2026-01-19 01:34:19.61	299.24	8.11	-53.8	-62.7	3.8	7.46e-01	0	37	104	0	78	10479
2026-01-19 01:34:20.62	299.05	8.05	-53.8	-62.6	3.8	7.46e-01	0	37	104	0	78	10389
2026-01-19 01:34:21.63	298.86	7.99	-53.8	-62.6	3.8	7.47e-01	0	37	104	0	78	10385
2026-01-19 01:34:22.64	298.67	7.93	-53.8	-62.7	3.8	7.46e-01	0	37	104	0	78	10481
2026-01-19 01:34:23.65	298.48	7.87	-53.8	-62.6	3.8	7.46e-01	0	37	104	0	78	10409
2026-01-19 01:34:24.66	298.30	7.81	-53.8	-62.7	3.8	7.44e-01	0	37	104	0	78	10424
2026-01-19 01:34:25.67	298.11	7.75	-53.8	-62.7	3.8	7.46e-01	0	37	104	0	78	10421
2026-01-19 01:34:26.68	297.93	7.69	-53.8	-62.7	3.8	7.45e-01	0	37	104	0	78	10460
2026-01-19 01:34:27.68	297.74	7.63	-53.8	-62.7	3.8	7.45e-01	0	37	104	0	78	10434
2026-01-19 01:34:28.69	297.56	7.57	-53.8	-62.6	3.8	7.47e-01	0	37	104	0	78	10337
2026-01-19 01:34:29.70	297.38	7.51	-53.8	-62.6	3.8	7.44e-01	0	37	104	0	78	10395
2026-01-19 01:34:30.71	297.20	7.45	-53.8	-62.7	3.8	7.45e-01	0	37	104	0	78	10430
2026-01-19 01:34:31.72	297.02	7.39	-53.8	-62.6	3.8	7.45e-01	0	37	104	0	78	10378
2026-01-19 01:34:32.72	296.84	7.33	-53.8	-62.6	3.8	7.43e-01	0	37	104	0	78	10326
2026-01-19 01:34:33.73	296.66	7.27	-53.8	-62.6	3.8	7.45e-01	0	37	104	0	78	10363
2026-01-19 01:34:34.74	296.48	7.21	-53.8	-62.7	3.8	7.45e-01	0	37	104	0	78	10445
2026-01-19 01:34:35.75	296.31	7.15	-53.7	-62.6	3.8	7.45e-01	0	37	104	0	78	10336
2026-01-19 01:34:36.76	296.13	7.09	-53.7	-62.6	3.8	7.44e-01	0	37	104	0	78	10330
2026-01-19 01:34:37.76	295.96	7.03	-53.8	-62.6	3.8	7.44e-01	0	37	104	0	78	10353
2026-01-19 01:34:38.77	295.79	6.97	-53.8	-62.6	3.8	7.44e-01	0	37	104	0	78	10371
2026-01-19 01:34:39.78	295.61	6.91	-53.7	-62.6	3.8	7.43e-01	0	37	104	0	78	10313
2026-01-19 01:34:40.79	295.44	6.85	-53.7	-62.6	3.8	7.45e-01	0	37	104	0	78	10320
2026-01-19 01:34:41.80	295.27	6.79	-53.8	-62.6	3.8	7.45e-01	0	37	104	0	78	10347
2026-01-19 01:34:42.80	295.10	6.73	-53.8	-62.6	3.8	7.45e-01	0	37	104	0	78	10377
2026-01-19 01:34:43.81	294.93	6.67	-53.7	-62.6	3.8	7.46e-01	0	37	104	0	78	10299
2026-01-19 01:34:44.82	294.76	6.61	-53.7	-62.6	3.8	7.46e-01	0	37	104	0	78	10300
2026-01-19 01:34:45.82	294.60	6.55	-53.7	-62.6	3.8	7.45e-01	0	37	104	0	78	10364
2026-01-19 01:34:46.83	294.43	6.49	-53.8	-62.6	3.8	7.44e-01	0	37	104	0	78	10393
2026-01-19 01:34:47.84	294.27	6.43	-53.7	-62.6	3.8	7.45e-01	0	37	104	0	78	10296
2026-01-19 01:34:48.85	294.10	6.37	-53.7	-62.6	3.8	7.47e-01	0	37	104	0	78	10325
2026-01-19 01:34:49.85	293.94	6.31	-53.8	-62.6	3.8	7.46e-01	0	37	104	0	78	10363
2026-01-19 01:34:50.86	293.78	6.25	-53.8	-62.7	3.8	7.44e-01	0	37	104	0	78	10435
2026-01-19 01:34:51.87	293.61	6.19	-53.7	-62.5	3.8	7.46e-01	0	37	104	0	78	10254
2026-01-19 01:34:52.88	293.45	6.13	-53.7	-62.6	3.8	7.45e-01	0	37	104	0	78	10295
2026-01-19 01:34:53.89	293.29	6.07	-53.8	-62.6	3.8	7.45e-01	0	37	104	0	78	10342
2026-01-19 01:34:54.90	293.13	6.01	-53.8	-62.6	3.8	7.46e-01	0	37	104	0	78	10370
2026-01-19 01:34:55.90	292.98	5.95	-53.7	-62.5	3.8	7.45e-01	0	37	104	0	78	10261
2026-01-19 01:34:56.91	292.82	5.89	-53.7	-62.5	3.8	7.48e-01	0	37	104	0	78	10287
2026-01-19 01:34:57.92	292.66	5.83	-53.8	-62.6	3.8	7.45e-01	0	37	104	0	78	10341
2026-01-19 01:34:58.93	292.50	5.77	-53.8	-62.7	3.8	7.46e-01	0	37	104	0	78	10453
2026-01-19 01:34:59.94	292.35	5.71	-53.6	-62.5	3.8	7.46e-01	0	37	104	0	78	10220
2026-01-19 01:35:00.94	292.20	5.65	-53.7	-62.5	3.8	7.45e-01	0	37	104	0	78	10288
2026-01-19 01:35:01.95	292.04	5.59	-53.8	-62.6	3.8	7.44e-01	0	37	104	0	78	10383
2026-01-19 01:35:02.96	291.89	5.53	-53.8	-62.6	3.8	7.45e-01	0	37	104	0	78	10396
2026-01-19 01:35:03.97	291.74	5.47	-53.6	-62.5	3.8	7.46e-01	0	37	104	0	78	10220
2026-01-19 01:35:04.97	291.59	5.41	-53.7	-62.5	3.8	7.45e-01	0	37	104	0	78	10283
2026-01-19 01:35:05.98	291.44	5.35	-53.8	-62.6	3.8	7.46e-01	0	37	104	0	78	10356
2026-01-19 01:35:06.99	291.29	5.29	-53.8	-62.7	3.8	7.47e-01	0	37	104	0	78	10415
2026-01-19 01:35:08.00	291.14	5.23	-53.6	-62.4	3.8	7.45e-01	0	37	104	0	78	10159
2026-01-19 01:35:09.01	290.99	5.17	-53.7	-62.5	3.8	7.44e-01	0	37	104	0	78	10225
2026-01-19 01:35:10.02	290.84	5.11	-53.8	-62.6	3.8	7.44e-01	0	37	104	0	78	10315
2026-01-19 01:35:11.02	290.70	5.05	-53.8	-62.6	3.8	7.46e-01	0	37	104	0	78	10412
2026-01-19 01:35:12.03	290.55	4.99	-53.9	-62.8	3.8	7.46e-01	0	37	104	0	78	10577
2026-01-19 01:35:13.04	290.41	4.93	-54.2	-63.0	3.8	7.46e-01	0	37	104	0	78	10872
2026-01-19 01:35:14.05	290.26	4.87	-54.4	-63.3	3.8	7.47e-01	0	37	104	0	79	10570
2026-01-19 01:35:15.06	290.12	4.81	-54.5	-63.4	3.8	7.43e-01	0	37	104	0	79	10688
2026-01-19 01:35:16.06	289.98	4.75	-54.6	-63.5	3.8	7.45e-01	0	37	104	0	79	10810
2026-01-19 01:35:17.07	289.84	4.69	-54.7	-63.5	3.8	7.45e-01	0	37	104	0	79	10890
2026-01-19 01:35:18.08	289.69	4.63	-54.7	-63.6	3.8	7.45e-01	0	37	104	0	80	10301
2026-01-19 01:35:19.09	289.55	4.57	-54.7	-63.6	3.8	7.45e-01	0	37	104	0	80	10316
2026-01-19 01:35:20.10	289.41	4.51	-54.8	-63.6	3.8	7.45e-01	0	37	104	0	80	10370
2026-01-19 01:35:21.10	289.28	4.45	-54.8	-63.7	3.8	7.47e-01	0	37	104	0	80	10413
2026-01-19 01:35:22.11	289.14	4.39	-54.8	-63.7	3.8	7.45e-01	0	37	104	0	80	10419
2026-01-19 01:35:23.12	289.00	4.34	-54.8	-63.7	3.8	7.45e-01	0	37	104	0	80	10446
2026-01-19 01:35:24.13	288.86	4.28	-54.9	-63.7	3.8	7.47e-01	0	37	104	0	80	10468
2026-01-19 01:35:25.13	288.73	4.22	-54.9	-63.7	3.8	7.46e-01	0	37	104	0	80	10489
2026-01-19 01:35:26.14	288.59	4.16	-54.9	-63.8	3.8	7.44e-01	0	37	104	0	80	10540
2026-01-19 01:35:27.15	288.46	4.10	-54.9	-63.8	3.8	7.46e-01	0	37	104	0	80	10566
2026-01-19 01:35:28.16	288.32	4.04	-54.9	-63.8	3.8	7.46e-01	0	37	104	0	80	10536
2026-01-19 01:35:29.17	288.19	3.98	-55.0	-63.8	3.8	7.43e-01	0	37	104	0	80	10572
2026-01-19 01:35:30.18	288.06	3.92	-55.0	-63.8	3.8	7.46e-01	0	37	104	0	80	10628
2026-01-19 01:35:31.18	287.93	3.86	-55.0	-63.8	3.8	7.44e-01	0	37	104	0	80	10626
2026-01-19 01:35:32.19	287.80	3.81	-55.0	-63.9	3.8	7.45e-01	0	37	104	0	80	10689
2026-01-19 01:35:33.20	287.67	3.75	-55.0	-63.8	3.8	7.45e-01	0	37	104	0	80	10645
2026-01-19 01:35:34.20	287.54	3.69	-55.0	-63.9	3.8	7.44e-01	0	37	104	0	80	10686
2026-01-19 01:35:35.21	287.41	3.63	-55.0	-63.9	3.8	7.45e-01	0	37	104	0	80	10704
2026-01-19 01:35:36.22	287.28	3.57	-55.1	-63.9	3.8	7.44e-01	0	37	104	0	80	10718
2026-01-19 01:35:37.23	287.15	3.51	-55.0	-63.9	3.8	7.45e-01	0	37	104	0	80	10729
2026-01-19 01:35:38.24	287.02	3.45	-55.0	-63.9	3.8	7.47e-01	0	37	104	0	80	10687
2026-01-19 01:35:39.25	286.90	3.40	-55.0	-63.9	3.8	7.45e-01	0	37	104	0	80	10675
2026-01-19 01:35:40.26	286.77	3.34	-55.0	-63.9	3.8	7.45e-01	0	37	104	0	80	10672
2026-01-19 01:35:41.27	286.65	3.28	-55.0	-63.9	3.8	7.44e-01	0	37	104	0	80	10676
2026-01-19 01:35:42.27	286.52	3.22	-55.0	-63.8	3.8	7.44e-01	0	37	104	0	80	10597
2026-01-19 01:35:43.28	286.40	3.16	-54.9	-63.8	3.8	7.44e-01	0	37	104	0	80	10544
2026-01-19 01:35:44.28	286.28	3.11	-54.9	-63.8	3.8	7.45e-01	0	37	104	0	80	10595
2026-01-19 01:35:45.29	286.16	3.05	-54.9	-63.8	3.8	7.45e-01	0	37	104	0	80	10546
2026-01-19 01:35:46.30	286.03	2.99	-54.9	-63.8	3.8	7.46e-01	0	37	104	0	80	10536
2026-01-19 01:35:47.31	285.91	2.93	-54.9	-63.8	3.8	7.45e-01	0	37	104	0	80	10550
2026-01-19 01:35:48.32	285.79	2.87	-54.9	-63.7	3.8	7.43e-01	0	37	104	0	80	10508
2026-01-19 01:35:49.32	285.67	2.82	-54.9	-63.7	3.8	7.44e-01	0	37	104	0	80	10519
2026-01-19 01:35:50.33	285.55	2.76	-54.9	-63.8	3.8	7.44e-01	0	37	104	0	80	10534
2026-01-19 01:35:51.34	285.43	2.70	-54.9	-63.8	3.8	7.45e-01	0	37	104	0	80	10551
2026-01-19 01:35:52.35	285.32	2.64	-54.9	-63.7	3.8	7.46e-01	0	37	104	0	80	10521
2026-01-19 01:35:53.36	285.20	2.58	-54.9	-63.7	3.8	7.46e-01	0	37	104	0	80	10516
2026-01-19 01:35:54.36	285.08	2.53	-54.9	-63.7	3.8	7.45e-01	0	37	104	0	80	10515
2026-01-19 01:35:55.37	284.97	2.47	-54.9	-63.7	3.8	7.45e-01	0	37	104	0	80	10503
2026-01-19 01:35:56.38	284.85	2.41	-54.9	-63.7	3.8	7.45e-01	0	37	104	0	80	10504
2026-01-19 01:35:57.39	284.73	2.36	-54.9	-63.7	3.8	7.46e-01	0	37	104	0	80	10524
2026-01-19 01:35:58.40	284.62	2.30	-54.9	-63.7	3.8	7.45e-01	0	37	104	0	80	10509
2026-01-19 01:35:59.40	284.51	2.24	-54.9	-63.7	3.8	7.47e-01	0	37	104	0	80	10514
2026-01-19 01:36:00.41	284.39	2.18	-54.9	-63.7	3.8	7.44e-01	0	37	104	0	80	10484
2026-01-19 01:36:01.42	284.28	2.13	-54.9	-63.7	3.8	7.46e-01	0	37	104	0	80	10503
2026-01-19 01:36:02.43	284.17	2.07	-54.8	-63.7	3.8	7.47e-01	0	37	104	0	80	10487
2026-01-19 01:36:03.44	284.06	2.01	-54.9	-63.7	3.8	7.45e-01	0	37	104	0	80	10469

#Closed at: 2026-01-19 01:36:03
#Recorded file [0 MB]: D:/lorett/data/31041_260119_042741.dat