passes_logs/2026/01/19/R3.2S_Murmansk/R3.2S_Murmansk__20260119_221731_NOAA_20_JPSS-1_rec.log

#Pass ID: 20260119_221731_NOAA 20 (JPSS-1)
#Satellite: NOAA 20 (JPSS-1)
#Configuration: NOAA 20
#almurnet v.1.7.20251203
#Start time: 2026-01-19 22:17:32

#Version: 2.2.20231116
#Station: R3.2S_Murmansk
#Location: 33.079688 lon 68.888172 lat
#TLE: 1 43013U 17073A   26019.27717929  .00000087  00000+0  62288-4 0  9995
#TLE: 2 43013  98.7641 320.1715 0001339  33.1986 326.9274 14.19537047423343

#Time	Az	El	Level	Level2	SNR	BER	BlckErr	Temp	State	Recorded	gain1	gain2
2026-01-19 22:17:32.32	18.79	2.03	-52.0	-67.0	3.8	1.49e+00	0	36	0	0	76	19187
2026-01-19 22:17:33.32	18.86	2.08	-52.0	-67.0	3.8	1.49e+00	0	36	104	0	74	21598
2026-01-19 22:17:34.32	18.93	2.14	-52.0	-66.9	3.8	1.49e+00	0	37	104	0	74	21486
2026-01-19 22:17:35.33	19.00	2.19	-52.0	-67.0	3.8	1.49e+00	0	36	104	0	74	21507
2026-01-19 22:17:36.34	19.07	2.25	-52.0	-66.9	3.8	1.49e+00	0	37	104	0	74	21470
2026-01-19 22:17:37.35	19.15	2.30	-52.0	-66.9	3.8	1.49e+00	0	37	104	0	74	21401
2026-01-19 22:17:38.35	19.22	2.36	-52.0	-66.9	3.8	1.49e+00	0	37	104	0	74	21403
2026-01-19 22:17:39.36	19.29	2.41	-52.0	-66.9	3.8	1.49e+00	0	37	104	0	74	21288
2026-01-19 22:17:40.37	19.37	2.47	-52.0	-66.8	3.8	1.49e+00	0	37	104	0	74	21222
2026-01-19 22:17:41.38	19.44	2.52	-52.0	-66.9	3.8	1.49e+00	0	37	104	0	74	21327
2026-01-19 22:17:42.39	19.51	2.58	-52.0	-66.8	3.8	1.49e+00	0	37	104	0	74	21159
2026-01-19 22:17:43.39	19.59	2.64	-52.0	-66.9	3.8	1.49e+00	0	37	104	0	74	21435
2026-01-19 22:17:44.40	19.66	2.69	-52.0	-66.9	3.8	1.49e+00	0	37	104	0	74	21319
2026-01-19 22:17:45.41	19.74	2.75	-52.0	-66.9	3.8	1.49e+00	0	37	104	0	74	21415
2026-01-19 22:17:46.42	19.81	2.80	-52.0	-66.9	3.8	1.49e+00	0	37	104	0	74	21373
2026-01-19 22:17:47.43	19.89	2.86	-52.0	-66.9	3.8	1.49e+00	0	37	104	0	74	21385
2026-01-19 22:17:48.43	19.96	2.91	-52.0	-66.9	3.8	1.49e+00	0	37	104	0	74	21389
2026-01-19 22:17:49.44	20.04	2.97	-52.0	-66.8	3.8	1.49e+00	0	37	104	0	74	21249
2026-01-19 22:17:50.45	20.12	3.03	-52.0	-66.9	3.8	1.49e+00	0	37	104	0	74	21452
2026-01-19 22:17:51.46	20.19	3.08	-52.0	-66.9	3.8	1.49e+00	0	37	104	0	74	21457
2026-01-19 22:17:52.46	20.27	3.14	-52.0	-66.9	3.8	1.49e+00	0	37	104	0	74	21450
2026-01-19 22:17:53.47	20.35	3.20	-52.0	-67.0	3.8	1.49e+00	0	37	104	0	74	21534
2026-01-19 22:17:54.48	20.43	3.25	-52.0	-66.9	3.8	1.49e+00	0	37	104	0	74	21493
2026-01-19 22:17:55.49	20.50	3.31	-52.0	-66.9	3.8	1.49e+00	0	37	104	0	74	21376
2026-01-19 22:17:56.49	20.58	3.37	-52.0	-66.8	3.8	1.49e+00	0	37	104	0	74	21230
2026-01-19 22:17:57.50	20.66	3.42	-52.0	-66.7	3.8	1.49e+00	0	37	104	0	74	20967
2026-01-19 22:17:58.51	20.74	3.48	-52.0	-66.6	3.8	1.49e+00	0	37	104	0	74	20708
2026-01-19 22:17:59.52	20.82	3.54	-52.0	-66.7	3.8	1.49e+00	0	37	104	0	74	20929
2026-01-19 22:18:00.53	20.90	3.59	-52.0	-66.8	3.8	1.49e+00	0	37	104	0	74	21097
2026-01-19 22:18:01.54	20.98	3.65	-52.0	-66.8	3.8	1.49e+00	0	37	104	0	74	21182
2026-01-19 22:18:02.54	21.05	3.71	-52.0	-66.9	3.8	1.49e+00	0	37	104	0	74	21357
2026-01-19 22:18:03.55	21.13	3.76	-52.0	-67.0	3.8	1.49e+00	0	37	104	0	74	21538
2026-01-19 22:18:04.56	21.21	3.82	-52.0	-67.0	3.8	1.49e+00	0	37	104	0	74	21513
2026-01-19 22:18:05.57	21.30	3.88	-52.0	-66.9	3.8	1.49e+00	0	37	104	0	74	21372
2026-01-19 22:18:06.57	21.38	3.94	-52.0	-66.7	3.8	1.49e+00	0	37	104	0	74	20943
2026-01-19 22:18:07.58	21.46	3.99	-52.0	-66.6	3.8	1.49e+00	0	37	104	0	74	20585
2026-01-19 22:18:08.59	21.54	4.05	-52.0	-66.4	3.8	1.49e+00	0	37	104	0	74	20091
2026-01-19 22:18:09.60	21.62	4.11	-52.0	-66.4	3.8	1.49e+00	0	37	104	0	74	20124
2026-01-19 22:18:10.61	21.70	4.17	-52.0	-66.4	3.8	1.49e+00	0	37	104	0	74	20263
2026-01-19 22:18:11.62	21.79	4.22	-52.0	-66.5	3.8	1.49e+00	0	37	104	0	74	20352
2026-01-19 22:18:12.62	21.87	4.28	-52.0	-66.6	3.8	1.49e+00	0	37	104	0	74	20633
2026-01-19 22:18:13.63	21.95	4.34	-52.0	-66.6	3.8	1.49e+00	0	37	104	0	74	20684
2026-01-19 22:18:14.64	22.03	4.40	-52.0	-66.3	3.8	1.49e+00	0	37	104	0	74	19967
2026-01-19 22:18:15.65	22.12	4.46	-51.9	-65.9	3.8	1.49e+00	0	37	104	0	74	18997
2026-01-19 22:18:16.66	22.20	4.51	-51.9	-65.3	3.8	1.49e+00	0	37	104	0	74	17732
2026-01-19 22:18:17.66	22.29	4.57	-51.9	-64.5	4.0	1.48e+00	0	37	104	0	74	16193
2026-01-19 22:18:18.67	22.37	4.63	-51.8	-63.5	4.1	1.46e+00	0	38	104	0	74	14520
2026-01-19 22:18:19.68	22.46	4.69	-51.7	-62.6	4.4	1.36e+00	129	38	0	0	74	13095
2026-01-19 22:18:20.69	22.54	4.75	-51.7	-62.0	4.7	8.94e-01	0	38	0	2097152	74	12175
2026-01-19 22:18:21.69	22.63	4.80	-51.7	-62.0	4.7	8.48e-01	0	38	0	4194304	74	12204
2026-01-19 22:18:22.70	22.71	4.86	-51.7	-61.9	4.7	9.00e-01	0	38	0	5242880	74	12075
2026-01-19 22:18:23.71	22.80	4.92	-51.6	-61.2	5.1	6.56e-01	0	38	0	7340032	74	11070
2026-01-19 22:18:24.72	22.88	4.98	-51.5	-60.8	5.4	5.64e-01	0	37	0	9437184	74	10624
2026-01-19 22:18:25.72	22.97	5.04	-51.6	-61.1	5.2	5.35e-01	0	38	0	11534336	74	10983
2026-01-19 22:18:26.73	23.06	5.10	-49.5	-52.8	13.1	1.95e-01	0	38	0	13631488	71	5030
2026-01-19 22:18:27.74	23.15	5.16	-51.7	-63.5	4.2	1.13e-01	56	37	0	14680064	73	15346
2026-01-19 22:18:28.75	23.23	5.22	-50.9	-56.7	8.8	1.42e+00	0	38	0	14680064	73	7012
2026-01-19 22:18:29.75	23.32	5.28	-49.7	-53.2	13.0	1.23e-04	0	38	0	16777216	71	5278
2026-01-19 22:18:30.76	23.41	5.33	-51.2	-57.7	8.3	1.15e-03	0	38	0	18874368	72	8357
2026-01-19 22:18:31.77	23.50	5.39	-49.9	-53.8	12.3	9.56e-02	0	38	0	19922944	71	5599
2026-01-19 22:18:32.78	23.59	5.45	-49.6	-53.1	13.1	5.26e-05	0	38	0	22020096	71	5210
2026-01-19 22:18:33.79	23.68	5.51	-49.5	-52.9	13.4	1.14e-05	0	38	0	24117248	70	5367
2026-01-19 22:18:34.79	23.77	5.57	-49.6	-53.0	13.3	3.58e-05	0	38	0	26214400	70	5459
2026-01-19 22:18:35.80	23.86	5.63	-49.0	-51.9	14.5	3.80e-06	0	38	0	27262976	69	5067
2026-01-19 22:18:36.81	23.95	5.69	-48.9	-51.8	14.5	0.00e+00	0	38	0	29360128	69	5034
2026-01-19 22:18:37.82	24.04	5.75	-48.4	-50.9	15.5	0.00e+00	0	38	0	31457280	68	4770
2026-01-19 22:18:38.83	24.13	5.81	-48.6	-51.3	15.2	0.00e+00	0	38	0	33554432	68	5038
2026-01-19 22:18:39.83	24.22	5.87	-48.6	-51.2	15.2	0.00e+00	0	38	0	35651584	68	4965
2026-01-19 22:18:40.84	24.31	5.93	-48.4	-51.0	15.4	0.00e+00	0	38	0	37748736	68	4840
2026-01-19 22:18:41.85	24.40	5.99	-48.3	-50.8	15.7	0.00e+00	0	38	0	38797312	68	4732
2026-01-19 22:18:42.86	24.50	6.05	-48.3	-50.8	15.7	0.00e+00	0	38	0	40894464	68	4728
2026-01-19 22:18:43.87	24.59	6.11	-48.2	-50.7	15.9	0.00e+00	0	38	0	42991616	68	4652
2026-01-19 22:18:44.87	24.68	6.17	-48.2	-50.6	15.9	0.00e+00	0	38	0	45088768	68	4611
2026-01-19 22:18:45.88	24.78	6.23	-48.3	-50.8	15.8	0.00e+00	0	38	0	47185920	68	4723
2026-01-19 22:18:46.89	24.87	6.29	-48.2	-50.5	16.1	0.00e+00	0	38	0	48234496	68	4593
2026-01-19 22:18:47.90	24.97	6.35	-48.3	-50.7	15.8	0.00e+00	0	38	0	50331648	68	4704
2026-01-19 22:18:48.91	25.06	6.42	-48.4	-50.9	15.7	0.00e+00	0	38	0	52428800	68	4760
2026-01-19 22:18:49.91	25.16	6.48	-48.3	-50.7	15.8	0.00e+00	0	38	0	54525952	68	4702
2026-01-19 22:18:50.92	25.25	6.54	-48.4	-50.9	15.7	0.00e+00	0	38	0	56623104	68	4760
2026-01-19 22:18:51.93	25.35	6.60	-48.5	-51.1	15.5	0.00e+00	0	38	0	57671680	68	4876
2026-01-19 22:18:52.93	25.44	6.66	-48.4	-50.8	15.8	0.00e+00	0	38	0	59768832	68	4728
2026-01-19 22:18:53.94	25.54	6.72	-48.6	-51.1	15.5	0.00e+00	0	38	0	61865984	68	4916
2026-01-19 22:18:54.95	25.64	6.78	-48.5	-51.0	15.6	0.00e+00	0	38	0	63963136	68	4843
2026-01-19 22:18:55.96	25.74	6.84	-48.5	-51.0	15.6	0.00e+00	0	38	0	66060288	68	4852
2026-01-19 22:18:56.97	25.83	6.90	-48.4	-50.9	15.8	0.00e+00	0	38	0	67108864	68	4763
2026-01-19 22:18:57.97	25.93	6.96	-48.4	-50.9	15.8	0.00e+00	0	38	0	69206016	68	4768
2026-01-19 22:18:58.98	26.03	7.03	-48.4	-50.9	15.6	0.00e+00	0	38	0	71303168	68	4803
2026-01-19 22:18:59.99	26.13	7.09	-48.4	-50.8	15.8	0.00e+00	0	38	0	73400320	68	4725
2026-01-19 22:19:01.00	26.23	7.15	-48.5	-51.1	15.6	0.00e+00	0	38	0	75497472	68	4876
2026-01-19 22:19:02.01	26.33	7.21	-48.5	-51.0	15.7	0.00e+00	0	38	0	76546048	68	4821
2026-01-19 22:19:03.01	26.43	7.27	-48.2	-50.6	16.1	0.00e+00	0	38	0	78643200	68	4625
2026-01-19 22:19:04.02	26.53	7.33	-47.9	-50.4	16.1	0.00e+00	0	38	0	80740352	67	4786
2026-01-19 22:19:05.03	26.63	7.40	-48.0	-50.8	15.8	0.00e+00	0	38	0	82837504	67	4994
2026-01-19 22:19:06.04	26.73	7.46	-48.1	-50.5	16.0	0.00e+00	0	38	0	84934656	67	4869
2026-01-19 22:19:07.05	26.83	7.52	-48.1	-50.4	16.2	0.00e+00	0	38	0	85983232	67	4803
2026-01-19 22:19:08.06	26.94	7.58	-48.3	-50.7	15.9	0.00e+00	0	38	0	88080384	67	4972
2026-01-19 22:19:09.07	27.04	7.65	-48.1	-50.4	16.1	0.00e+00	0	38	0	90177536	67	4814
2026-01-19 22:19:10.08	27.14	7.71	-48.0	-50.3	16.3	0.00e+00	0	38	0	92274688	67	4731
2026-01-19 22:19:11.08	27.25	7.77	-48.3	-50.6	15.9	0.00e+00	0	38	0	94371840	67	4924
2026-01-19 22:19:12.09	27.35	7.83	-48.2	-50.6	16.1	0.00e+00	0	38	0	95420416	67	4874
2026-01-19 22:19:13.10	27.45	7.89	-48.1	-50.4	16.2	0.00e+00	0	38	0	97517568	67	4789
2026-01-19 22:19:14.11	27.56	7.96	-47.9	-50.1	16.5	0.00e+00	0	38	0	99614720	67	4638
2026-01-19 22:19:15.12	27.67	8.02	-48.0	-50.2	16.3	0.00e+00	0	38	0	101711872	67	4701
2026-01-19 22:19:16.12	27.77	8.08	-47.9	-50.0	16.7	0.00e+00	0	38	0	103809024	67	4574
2026-01-19 22:19:17.13	27.88	8.15	-48.1	-50.4	16.4	0.00e+00	0	38	0	104857600	67	4765
2026-01-19 22:19:18.14	27.98	8.21	-48.0	-50.2	16.4	0.00e+00	0	38	0	106954752	67	4694
2026-01-19 22:19:19.15	28.09	8.27	-47.8	-50.0	16.7	0.00e+00	0	38	0	109051904	67	4564
2026-01-19 22:19:20.15	28.20	8.33	-47.7	-49.9	16.8	0.00e+00	0	38	0	111149056	67	4500
2026-01-19 22:19:21.16	28.31	8.40	-47.9	-50.1	16.7	0.00e+00	0	38	0	113246208	67	4601
2026-01-19 22:19:22.17	28.41	8.46	-47.9	-50.1	16.6	0.00e+00	0	38	0	114294784	67	4632
2026-01-19 22:19:23.18	28.52	8.52	-47.8	-49.9	16.8	0.00e+00	0	38	0	116391936	67	4534
2026-01-19 22:19:24.19	28.63	8.59	-47.7	-49.8	16.9	0.00e+00	0	38	0	118489088	67	4468
2026-01-19 22:19:25.20	28.74	8.65	-47.8	-50.0	16.7	0.00e+00	0	38	0	120586240	67	4557
2026-01-19 22:19:26.20	28.85	8.71	-47.8	-49.9	16.8	0.00e+00	0	38	0	122683392	67	4542
2026-01-19 22:19:27.21	28.96	8.78	-47.9	-50.1	16.6	0.00e+00	0	38	0	123731968	67	4642
2026-01-19 22:19:28.22	29.07	8.84	-47.7	-49.8	16.9	0.00e+00	0	38	0	125829120	67	4485
2026-01-19 22:19:29.23	29.19	8.91	-47.6	-49.6	17.1	0.00e+00	0	38	0	127926272	67	4377
2026-01-19 22:19:30.23	29.30	8.97	-47.6	-49.7	17.0	0.00e+00	0	38	0	130023424	67	4418
2026-01-19 22:19:31.24	29.41	9.03	-47.6	-49.7	17.0	0.00e+00	0	38	0	132120576	67	4416
2026-01-19 22:19:32.25	29.52	9.10	-47.7	-49.8	17.0	0.00e+00	0	38	0	133169152	67	4449
2026-01-19 22:19:33.26	29.64	9.16	-47.6	-49.6	17.1	0.00e+00	0	38	0	135266304	67	4369
2026-01-19 22:19:34.27	29.75	9.23	-47.5	-49.5	17.3	0.00e+00	0	38	0	137363456	66	4569
2026-01-19 22:19:35.27	29.86	9.29	-47.3	-49.3	17.4	0.00e+00	0	38	0	139460608	66	4445
2026-01-19 22:19:36.28	29.98	9.35	-47.5	-49.5	17.2	0.00e+00	0	38	0	141557760	66	4570
2026-01-19 22:19:37.29	30.09	9.42	-47.5	-49.4	17.3	0.00e+00	0	38	0	142606336	66	4536
2026-01-19 22:19:38.30	30.21	9.48	-47.4	-49.3	17.5	0.00e+00	0	38	0	144703488	66	4485
2026-01-19 22:19:39.31	30.33	9.55	-47.3	-49.2	17.6	0.00e+00	0	38	0	146800640	66	4413
2026-01-19 22:19:40.31	30.44	9.61	-47.3	-49.2	17.6	0.00e+00	0	38	0	148897792	66	4426
2026-01-19 22:19:41.32	30.56	9.68	-47.4	-49.3	17.6	0.00e+00	0	38	0	150994944	66	4450
2026-01-19 22:19:42.33	30.68	9.74	-47.4	-49.3	17.5	0.00e+00	0	38	0	153092096	66	4453
2026-01-19 22:19:43.34	30.80	9.81	-47.4	-49.3	17.4	0.00e+00	0	38	0	154140672	66	4492
2026-01-19 22:19:44.35	30.92	9.87	-47.5	-49.5	17.3	0.00e+00	0	38	0	156237824	66	4563
2026-01-19 22:19:45.35	31.03	9.93	-47.3	-49.2	17.6	0.00e+00	0	38	0	158334976	66	4401
2026-01-19 22:19:46.36	31.15	10.00	-47.4	-49.3	17.4	0.00e+00	0	38	0	160432128	66	4488
2026-01-19 22:19:47.37	31.27	10.06	-47.5	-49.4	17.4	0.00e+00	0	38	0	161480704	66	4524
2026-01-19 22:19:48.38	31.40	10.13	-47.4	-49.3	17.4	0.00e+00	0	38	0	163577856	66	4487
2026-01-19 22:19:49.38	31.52	10.19	-47.5	-49.5	17.4	0.00e+00	0	38	0	165675008	66	4547
2026-01-19 22:19:50.39	31.64	10.26	-47.6	-49.6	17.2	0.00e+00	0	38	0	167772160	66	4608
2026-01-19 22:19:51.40	31.76	10.33	-47.4	-49.3	17.5	0.00e+00	0	38	0	169869312	66	4475
2026-01-19 22:19:52.41	31.88	10.39	-47.5	-49.5	17.4	0.00e+00	0	38	0	170917888	66	4553
2026-01-19 22:19:53.42	32.01	10.46	-47.8	-49.8	17.1	0.00e+00	0	38	0	173015040	66	4737
2026-01-19 22:19:54.42	32.13	10.52	-47.6	-49.5	17.3	0.00e+00	0	38	0	175112192	66	4589
2026-01-19 22:19:55.43	32.26	10.59	-47.4	-49.3	17.6	0.00e+00	0	38	0	177209344	66	4486
2026-01-19 22:19:56.43	32.38	10.65	-47.4	-49.3	17.6	0.00e+00	0	38	0	179306496	66	4446
2026-01-19 22:19:57.44	32.51	10.72	-47.5	-49.4	17.5	0.00e+00	0	38	0	181403648	66	4505
2026-01-19 22:19:58.45	32.63	10.78	-47.6	-49.6	17.3	0.00e+00	0	38	0	182452224	66	4622
2026-01-19 22:19:59.46	32.76	10.85	-47.4	-49.3	17.6	0.00e+00	0	38	0	184549376	66	4456
2026-01-19 22:20:00.46	32.89	10.91	-47.7	-49.7	17.2	0.00e+00	0	38	0	186646528	66	4657
2026-01-19 22:20:01.47	33.01	10.98	-47.3	-49.2	17.7	0.00e+00	0	38	0	188743680	66	4396
2026-01-19 22:20:02.48	33.14	11.05	-47.3	-49.1	17.7	0.00e+00	0	38	0	189792256	66	4367
2026-01-19 22:20:03.49	33.27	11.11	-47.1	-48.9	18.0	0.00e+00	0	38	0	191889408	66	4269
2026-01-19 22:20:04.49	33.40	11.18	-47.2	-49.0	17.8	0.00e+00	0	38	0	193986560	66	4321
2026-01-19 22:20:05.50	33.53	11.24	-47.2	-49.0	17.9	0.00e+00	0	38	0	196083712	66	4303
2026-01-19 22:20:06.51	33.66	11.31	-47.0	-48.8	18.1	0.00e+00	0	38	0	198180864	66	4216
2026-01-19 22:20:07.51	33.79	11.37	-47.2	-49.0	17.9	0.00e+00	0	38	0	199229440	66	4332
2026-01-19 22:20:08.52	33.92	11.44	-47.1	-48.9	18.0	0.00e+00	0	38	0	201326592	66	4281
2026-01-19 22:20:09.53	34.05	11.51	-47.1	-48.9	18.0	0.00e+00	0	38	0	203423744	66	4274
2026-01-19 22:20:10.54	34.19	11.57	-47.1	-48.9	18.0	0.00e+00	0	38	0	205520896	66	4284
2026-01-19 22:20:11.55	34.32	11.64	-47.0	-48.8	18.1	0.00e+00	0	38	0	207618048	66	4205
2026-01-19 22:20:12.55	34.45	11.71	-47.1	-48.9	18.0	0.00e+00	0	38	0	209715200	66	4263
2026-01-19 22:20:13.56	34.59	11.77	-47.2	-49.1	17.9	0.00e+00	0	38	0	210763776	66	4342
2026-01-19 22:20:14.57	34.72	11.84	-47.1	-48.9	18.0	0.00e+00	0	38	0	212860928	66	4260
2026-01-19 22:20:15.58	34.86	11.91	-47.0	-48.8	18.2	0.00e+00	0	38	0	214958080	66	4203
2026-01-19 22:20:16.58	35.00	11.97	-47.0	-48.7	18.3	0.00e+00	0	38	0	217055232	65	4417
2026-01-19 22:20:17.59	35.13	12.04	-47.0	-48.7	18.2	0.00e+00	0	38	0	218103808	65	4413
2026-01-19 22:20:18.60	35.27	12.11	-47.0	-48.7	18.2	0.00e+00	0	38	0	220200960	65	4421
2026-01-19 22:20:19.61	35.41	12.17	-47.1	-48.8	18.2	0.00e+00	0	38	0	222298112	65	4472
2026-01-19 22:20:20.61	35.55	12.24	-46.9	-48.5	18.4	0.00e+00	0	38	0	224395264	65	4335
2026-01-19 22:20:21.62	35.69	12.30	-47.0	-48.7	18.2	0.00e+00	0	38	0	226492416	65	4423
2026-01-19 22:20:22.63	35.83	12.37	-47.0	-48.7	18.2	0.00e+00	0	38	0	228589568	65	4436
2026-01-19 22:20:23.63	35.97	12.44	-47.1	-48.9	18.1	0.00e+00	0	38	0	229638144	65	4517
2026-01-19 22:20:24.64	36.11	12.50	-47.2	-48.9	18.0	0.00e+00	0	38	0	231735296	65	4538
2026-01-19 22:20:25.65	36.25	12.57	-47.3	-49.1	17.8	0.00e+00	0	38	0	233832448	65	4647
2026-01-19 22:20:26.66	36.39	12.64	-47.2	-49.0	17.9	0.00e+00	0	38	0	235929600	65	4585
2026-01-19 22:20:27.67	36.54	12.71	-47.3	-49.1	17.8	0.00e+00	0	38	0	238026752	65	4650
2026-01-19 22:20:28.67	36.68	12.77	-47.2	-49.0	18.0	0.00e+00	0	38	0	239075328	65	4547
2026-01-19 22:20:29.68	36.82	12.84	-47.1	-48.8	18.2	0.00e+00	0	38	0	241172480	65	4473
2026-01-19 22:20:30.69	36.97	12.91	-46.9	-48.6	18.4	0.00e+00	0	38	0	243269632	65	4371
2026-01-19 22:20:31.69	37.11	12.97	-46.9	-48.6	18.4	0.00e+00	0	38	0	245366784	65	4355
2026-01-19 22:20:32.70	37.26	13.04	-46.8	-48.5	18.5	0.00e+00	0	38	0	246415360	65	4307
2026-01-19 22:20:33.71	37.41	13.11	-46.8	-48.5	18.5	0.00e+00	0	38	0	248512512	65	4318
2026-01-19 22:20:34.72	37.55	13.17	-47.0	-48.7	18.3	0.00e+00	0	38	0	250609664	65	4409
2026-01-19 22:20:35.73	37.70	13.24	-47.1	-48.8	18.2	0.00e+00	0	38	0	252706816	65	4477
2026-01-19 22:20:36.73	37.85	13.31	-46.9	-48.6	18.3	0.00e+00	0	38	0	254803968	65	4387
2026-01-19 22:20:37.74	38.00	13.37	-47.0	-48.7	18.3	0.00e+00	0	38	0	256901120	65	4422
2026-01-19 22:20:38.75	38.15	13.44	-47.1	-48.8	18.2	0.00e+00	0	38	0	257949696	65	4488
2026-01-19 22:20:39.75	38.30	13.51	-47.1	-48.8	18.2	0.00e+00	0	38	0	260046848	65	4492
2026-01-19 22:20:40.76	38.45	13.58	-47.1	-48.8	18.2	0.00e+00	0	38	0	262144000	65	4487
2026-01-19 22:20:41.77	38.60	13.64	-47.1	-48.9	18.1	0.00e+00	0	38	0	264241152	65	4510
2026-01-19 22:20:42.78	38.76	13.71	-47.0	-48.7	18.4	0.00e+00	0	38	0	266338304	65	4413
2026-01-19 22:20:43.79	38.91	13.78	-46.9	-48.6	18.4	0.00e+00	0	38	0	267386880	65	4363
2026-01-19 22:20:44.79	39.06	13.84	-46.9	-48.6	18.4	0.00e+00	0	38	0	269484032	65	4370
2026-01-19 22:20:45.80	39.22	13.91	-46.9	-48.6	18.4	0.00e+00	0	38	0	271581184	65	4370
2026-01-19 22:20:46.81	39.37	13.98	-46.8	-48.4	18.6	0.00e+00	0	38	0	273678336	65	4286
2026-01-19 22:20:47.82	39.53	14.04	-46.8	-48.5	18.6	0.00e+00	0	38	0	275775488	65	4302
2026-01-19 22:20:48.83	39.69	14.11	-46.8	-48.5	18.6	0.00e+00	0	38	0	276824064	65	4321
2026-01-19 22:20:49.83	39.84	14.18	-47.0	-48.8	18.3	0.00e+00	0	38	0	278921216	65	4445
2026-01-19 22:20:50.84	40.00	14.25	-47.0	-48.7	18.4	0.00e+00	0	38	0	281018368	65	4412
2026-01-19 22:20:51.85	40.16	14.31	-47.0	-48.8	18.3	0.00e+00	0	38	0	283115520	65	4449
2026-01-19 22:20:52.86	40.32	14.38	-46.9	-48.6	18.4	0.00e+00	0	38	0	285212672	65	4388
2026-01-19 22:20:53.87	40.48	14.45	-47.0	-48.7	18.4	0.00e+00	0	38	0	286261248	65	4394
2026-01-19 22:20:54.87	40.64	14.51	-46.9	-48.6	18.4	0.00e+00	0	38	0	288358400	65	4385
2026-01-19 22:20:55.88	40.80	14.58	-47.0	-48.7	18.4	0.00e+00	0	38	0	290455552	65	4394
2026-01-19 22:20:56.89	40.97	14.65	-46.9	-48.6	18.4	0.00e+00	0	38	0	292552704	65	4381
2026-01-19 22:20:57.90	41.13	14.71	-47.0	-48.7	18.4	0.00e+00	0	38	0	294649856	65	4422
2026-01-19 22:20:58.91	41.29	14.78	-47.1	-48.8	18.3	0.00e+00	0	38	0	295698432	65	4462
2026-01-19 22:20:59.92	41.46	14.85	-47.0	-48.6	18.4	0.00e+00	0	38	0	297795584	65	4391
2026-01-19 22:21:00.92	41.62	14.91	-47.0	-48.7	18.4	0.00e+00	0	38	0	299892736	65	4412
2026-01-19 22:21:01.93	41.79	14.98	-47.0	-48.7	18.3	0.00e+00	0	39	0	301989888	65	4438
2026-01-19 22:21:02.94	41.96	15.05	-47.0	-48.6	18.4	0.00e+00	0	39	0	304087040	65	4389
2026-01-19 22:21:03.94	42.12	15.11	-46.9	-48.6	18.5	0.00e+00	0	39	0	305135616	65	4348
2026-01-19 22:21:04.95	42.29	15.18	-46.9	-48.6	18.4	0.00e+00	0	39	0	307232768	65	4371
2026-01-19 22:21:05.96	42.46	15.25	-46.8	-48.5	18.6	0.00e+00	0	39	0	309329920	65	4310
2026-01-19 22:21:06.96	42.63	15.31	-46.9	-48.5	18.5	0.00e+00	0	39	0	311427072	65	4340
2026-01-19 22:21:07.97	42.80	15.38	-46.9	-48.6	18.5	0.00e+00	0	38	0	313524224	65	4356
2026-01-19 22:21:08.98	42.97	15.45	-46.9	-48.6	18.5	0.00e+00	0	38	0	314572800	65	4354
2026-01-19 22:21:09.99	43.14	15.51	-46.9	-48.6	18.5	0.00e+00	0	39	0	316669952	65	4357
2026-01-19 22:21:11.00	43.31	15.58	-46.9	-48.6	18.5	0.00e+00	0	39	0	318767104	65	4371
2026-01-19 22:21:12.00	43.49	15.65	-46.8	-48.4	18.7	0.00e+00	0	38	0	320864256	65	4286
2026-01-19 22:21:13.01	43.66	15.71	-46.6	-48.2	18.8	0.00e+00	0	39	0	322961408	65	4187
2026-01-19 22:21:14.02	43.84	15.78	-46.6	-48.2	18.8	0.00e+00	0	39	0	325058560	65	4179
2026-01-19 22:21:15.03	44.01	15.85	-46.6	-48.1	19.0	0.00e+00	0	39	0	326107136	65	4144
2026-01-19 22:21:16.03	44.19	15.91	-46.5	-48.1	19.0	0.00e+00	0	38	0	328204288	65	4109
2026-01-19 22:21:17.04	44.36	15.98	-46.6	-48.2	18.9	0.00e+00	0	39	0	330301440	65	4168
2026-01-19 22:21:18.05	44.54	16.04	-46.4	-48.0	19.1	0.00e+00	0	39	0	332398592	64	4302
2026-01-19 22:21:19.05	44.72	16.11	-46.5	-48.0	19.1	0.00e+00	0	39	0	333447168	64	4318
2026-01-19 22:21:20.06	44.90	16.17	-46.5	-48.0	19.1	0.00e+00	0	39	0	335544320	64	4329
2026-01-19 22:21:21.07	45.08	16.24	-46.4	-47.9	19.2	0.00e+00	0	38	0	337641472	64	4262
2026-01-19 22:21:22.08	45.26	16.30	-46.3	-47.8	19.3	0.00e+00	0	39	0	339738624	64	4230
2026-01-19 22:21:23.09	45.44	16.37	-46.2	-47.7	19.4	0.00e+00	0	39	0	341835776	64	4158
2026-01-19 22:21:24.10	45.62	16.44	-46.1	-47.5	19.6	0.00e+00	0	39	0	342884352	64	4096
2026-01-19 22:21:25.11	45.81	16.50	-46.0	-47.4	19.6	0.00e+00	0	39	0	344981504	64	4049
2026-01-19 22:21:26.11	45.99	16.57	-46.1	-47.5	19.7	0.00e+00	0	39	0	347078656	63	4309
2026-01-19 22:21:27.12	46.18	16.63	-46.0	-47.4	19.8	0.00e+00	0	39	0	349175808	63	4282
2026-01-19 22:21:28.13	46.36	16.70	-46.0	-47.5	19.7	0.00e+00	0	39	0	351272960	63	4298
2026-01-19 22:21:29.14	46.55	16.76	-46.0	-47.4	19.8	0.00e+00	0	39	0	353370112	63	4253
2026-01-19 22:21:30.15	46.74	16.83	-45.9	-47.3	19.9	0.00e+00	0	39	0	354418688	63	4236
2026-01-19 22:21:31.16	46.92	16.89	-46.0	-47.4	19.8	0.00e+00	0	39	0	356515840	63	4251
2026-01-19 22:21:32.17	47.11	16.96	-46.1	-47.5	19.7	0.00e+00	0	39	0	358612992	63	4318
2026-01-19 22:21:33.17	47.30	17.02	-46.0	-47.4	19.8	0.00e+00	0	38	0	360710144	63	4254
2026-01-19 22:21:34.18	47.49	17.08	-46.1	-47.5	19.6	0.00e+00	0	39	0	361758720	63	4336
2026-01-19 22:21:35.19	47.68	17.15	-46.0	-47.4	19.8	0.00e+00	0	39	0	363855872	63	4268
2026-01-19 22:21:36.20	47.87	17.21	-46.0	-47.5	19.7	0.00e+00	0	39	0	365953024	63	4295
2026-01-19 22:21:37.21	48.07	17.28	-46.1	-47.5	19.7	0.00e+00	0	39	0	368050176	63	4310
2026-01-19 22:21:38.22	48.26	17.34	-46.0	-47.5	19.7	0.00e+00	0	39	0	370147328	63	4292
2026-01-19 22:21:39.22	48.45	17.40	-45.9	-47.3	19.9	0.00e+00	0	39	0	372244480	63	4210
2026-01-19 22:21:40.23	48.65	17.47	-45.8	-47.2	20.0	0.00e+00	0	39	0	373293056	63	4164
2026-01-19 22:21:41.23	48.84	17.53	-45.9	-47.3	19.9	0.00e+00	0	39	0	375390208	63	4222
2026-01-19 22:21:42.24	49.04	17.59	-45.9	-47.3	19.9	0.00e+00	0	39	0	377487360	63	4232
2026-01-19 22:21:43.25	49.24	17.65	-45.9	-47.2	20.0	0.00e+00	0	39	0	379584512	63	4190
2026-01-19 22:21:44.26	49.44	17.72	-45.9	-47.3	19.8	0.00e+00	0	39	0	381681664	63	4222
2026-01-19 22:21:45.27	49.64	17.78	-46.0	-47.4	19.8	0.00e+00	0	39	0	382730240	63	4284
2026-01-19 22:21:46.27	49.83	17.84	-46.1	-47.6	19.7	0.00e+00	0	39	0	384827392	63	4346
2026-01-19 22:21:47.28	50.03	17.90	-46.3	-47.7	19.5	0.00e+00	0	39	0	386924544	63	4433
2026-01-19 22:21:48.29	50.24	17.97	-46.4	-47.9	19.3	0.00e+00	0	39	0	389021696	63	4541
2026-01-19 22:21:49.29	50.44	18.03	-46.5	-48.0	19.2	0.00e+00	0	39	0	390070272	63	4556
2026-01-19 22:21:50.30	50.64	18.09	-46.5	-48.1	19.2	0.00e+00	0	39	0	392167424	63	4601
2026-01-19 22:21:51.31	50.84	18.15	-46.6	-48.1	19.1	0.00e+00	0	39	0	394264576	63	4619
2026-01-19 22:21:52.32	51.05	18.21	-46.6	-48.1	19.2	0.00e+00	0	39	0	396361728	63	4627
2026-01-19 22:21:53.33	51.26	18.27	-46.6	-48.2	19.1	0.00e+00	0	39	0	398458880	63	4667
2026-01-19 22:21:54.33	51.46	18.33	-46.5	-48.0	19.2	0.00e+00	0	39	0	400556032	63	4586
2026-01-19 22:21:55.34	51.67	18.40	-46.5	-48.1	19.2	0.00e+00	0	39	0	401604608	63	4604
2026-01-19 22:21:56.35	51.88	18.46	-46.7	-48.2	19.0	0.00e+00	0	39	0	403701760	63	4703
2026-01-19 22:21:57.36	52.08	18.52	-46.7	-48.2	18.9	0.00e+00	0	39	0	405798912	64	4427
2026-01-19 22:21:58.36	52.29	18.58	-46.8	-48.4	18.7	0.00e+00	0	39	0	407896064	64	4533
2026-01-19 22:21:59.37	52.50	18.64	-46.9	-48.5	18.7	0.00e+00	0	39	0	409993216	64	4574
2026-01-19 22:22:00.38	52.71	18.70	-47.0	-48.6	18.5	0.00e+00	0	39	0	411041792	64	4647
2026-01-19 22:22:01.38	52.92	18.75	-47.0	-48.7	18.5	0.00e+00	0	39	0	413138944	64	4668
2026-01-19 22:22:02.39	53.14	18.81	-47.1	-48.8	18.4	0.00e+00	0	39	0	415236096	64	4745
2026-01-19 22:22:03.40	53.35	18.87	-47.1	-48.8	18.4	0.00e+00	0	39	0	417333248	64	4728
2026-01-19 22:22:04.41	53.57	18.93	-47.2	-48.9	18.3	0.00e+00	0	39	0	418381824	64	4788
2026-01-19 22:22:05.42	53.78	18.99	-47.1	-48.8	18.4	0.00e+00	0	39	0	420478976	64	4727
2026-01-19 22:22:06.43	54.00	19.05	-47.2	-48.9	18.3	0.00e+00	0	39	0	422576128	64	4778
2026-01-19 22:22:07.43	54.21	19.11	-47.5	-49.2	18.0	0.00e+00	0	39	0	424673280	65	4704
2026-01-19 22:22:08.44	54.43	19.16	-47.6	-49.4	17.8	0.00e+00	0	39	0	426770432	65	4810
2026-01-19 22:22:09.45	54.65	19.22	-47.8	-49.7	17.6	0.00e+00	0	39	0	428867584	66	4657
2026-01-19 22:22:10.46	54.87	19.28	-47.9	-49.8	17.4	0.00e+00	0	39	0	429916160	66	4739
2026-01-19 22:22:11.47	55.09	19.34	-48.0	-50.0	17.2	0.00e+00	0	39	0	432013312	66	4870
2026-01-19 22:22:12.48	55.31	19.39	-47.9	-49.9	17.3	0.00e+00	0	39	0	434110464	66	4785
2026-01-19 22:22:13.48	55.53	19.45	-47.9	-49.9	17.3	0.00e+00	0	39	0	436207616	66	4795
2026-01-19 22:22:14.49	55.75	19.50	-47.9	-49.9	17.4	0.00e+00	0	39	0	438304768	66	4783
2026-01-19 22:22:15.50	55.98	19.56	-47.8	-49.7	17.6	0.00e+00	0	39	0	439353344	66	4675
2026-01-19 22:22:16.51	56.20	19.61	-47.6	-49.5	17.7	0.00e+00	0	39	0	441450496	66	4569
2026-01-19 22:22:17.51	56.42	19.67	-47.7	-49.6	17.6	0.00e+00	0	39	0	443547648	66	4626
2026-01-19 22:22:18.52	56.65	19.72	-47.7	-49.5	17.8	0.00e+00	0	39	0	445644800	66	4580
2026-01-19 22:22:19.53	56.88	19.78	-47.7	-49.6	17.6	0.00e+00	0	39	0	447741952	66	4632
2026-01-19 22:22:20.54	57.10	19.83	-47.9	-49.8	17.5	0.00e+00	0	39	0	448790528	66	4727
2026-01-19 22:22:21.55	57.33	19.89	-48.0	-50.0	17.3	0.00e+00	0	39	0	450887680	66	4852
2026-01-19 22:22:22.55	57.56	19.94	-48.1	-50.2	17.1	0.00e+00	0	39	0	452984832	66	4949
2026-01-19 22:22:23.56	57.79	19.99	-48.2	-50.3	17.0	0.00e+00	0	39	0	455081984	67	4710
2026-01-19 22:22:24.58	58.02	20.05	-48.0	-50.0	17.3	0.00e+00	0	39	0	457179136	67	4553
2026-01-19 22:22:25.60	58.25	20.10	-47.8	-49.7	17.5	0.00e+00	0	39	0	458227712	67	4426
2026-01-19 22:22:26.61	58.49	20.15	-47.6	-49.5	17.8	0.00e+00	0	39	0	460324864	67	4303
2026-01-19 22:22:27.61	58.72	20.20	-47.3	-49.1	18.2	0.00e+00	0	39	0	462422016	66	4348
2026-01-19 22:22:28.62	58.95	20.25	-47.1	-48.7	18.5	0.00e+00	0	39	0	464519168	66	4188
2026-01-19 22:22:29.63	59.18	20.31	-46.9	-48.5	18.7	0.00e+00	0	39	0	466616320	65	4308
2026-01-19 22:22:30.64	59.42	20.36	-46.9	-48.5	18.6	0.00e+00	0	39	0	467664896	65	4340
2026-01-19 22:22:31.64	59.65	20.41	-47.1	-48.8	18.4	0.00e+00	0	39	0	469762048	65	4489
2026-01-19 22:22:32.65	59.89	20.46	-47.3	-49.1	18.1	0.00e+00	0	39	0	471859200	65	4634
2026-01-19 22:22:33.66	60.13	20.51	-47.6	-49.4	17.8	0.00e+00	0	39	0	473956352	65	4796
2026-01-19 22:22:34.67	60.37	20.55	-47.7	-49.5	17.7	0.00e+00	0	39	0	476053504	65	4867
2026-01-19 22:22:35.67	60.60	20.60	-47.7	-49.5	17.7	0.00e+00	0	39	0	477102080	66	4589
2026-01-19 22:22:36.68	60.84	20.65	-47.5	-49.4	17.9	0.00e+00	0	39	0	479199232	66	4505
2026-01-19 22:22:37.69	61.08	20.70	-47.4	-49.2	18.0	0.00e+00	0	39	0	481296384	66	4407
2026-01-19 22:22:38.70	61.32	20.75	-47.4	-49.1	18.1	0.00e+00	0	39	0	483393536	66	4377
2026-01-19 22:22:39.71	61.57	20.79	-47.2	-48.9	18.3	0.00e+00	0	39	0	485490688	66	4273
2026-01-19 22:22:40.72	61.81	20.84	-47.2	-48.9	18.3	0.00e+00	0	39	0	487587840	66	4272
2026-01-19 22:22:41.72	62.05	20.89	-47.3	-49.1	18.2	0.00e+00	0	39	0	488636416	66	4352
2026-01-19 22:22:42.73	62.29	20.93	-47.3	-49.0	18.2	0.00e+00	0	39	0	490733568	66	4325
2026-01-19 22:22:43.74	62.54	20.98	-47.4	-49.1	18.2	0.00e+00	0	39	0	492830720	66	4376
2026-01-19 22:22:44.75	62.78	21.02	-47.4	-49.2	18.1	0.00e+00	0	39	0	494927872	66	4397
2026-01-19 22:22:45.75	63.03	21.07	-47.4	-49.2	18.0	0.00e+00	0	39	0	495976448	66	4415
2026-01-19 22:22:46.77	63.28	21.11	-47.4	-49.2	18.1	0.00e+00	0	39	0	498073600	66	4406
2026-01-19 22:22:47.77	63.52	21.16	-47.4	-49.2	18.1	0.00e+00	0	39	0	500170752	66	4412
2026-01-19 22:22:48.78	63.77	21.20	-47.4	-49.2	18.0	0.00e+00	0	39	0	502267904	66	4435
2026-01-19 22:22:49.79	64.02	21.24	-47.3	-49.1	18.2	0.00e+00	0	39	0	504365056	66	4344
2026-01-19 22:22:50.80	64.27	21.28	-47.4	-49.2	18.2	0.00e+00	0	39	0	505413632	66	4400
2026-01-19 22:22:51.81	64.52	21.33	-47.4	-49.1	18.1	0.00e+00	0	39	0	507510784	66	4386
2026-01-19 22:22:52.81	64.77	21.37	-47.3	-49.1	18.2	0.00e+00	0	39	0	509607936	66	4367
2026-01-19 22:22:53.82	65.02	21.41	-47.2	-48.9	18.4	0.00e+00	0	39	0	511705088	66	4286
2026-01-19 22:22:54.83	65.27	21.45	-47.2	-48.9	18.4	0.00e+00	0	39	0	513802240	66	4253
2026-01-19 22:22:55.84	65.52	21.49	-47.1	-48.7	18.5	0.00e+00	0	39	0	515899392	66	4179
2026-01-19 22:22:56.85	65.78	21.53	-47.0	-48.7	18.6	0.00e+00	0	39	0	516947968	66	4167
2026-01-19 22:22:57.85	66.03	21.57	-46.8	-48.4	18.9	0.00e+00	0	39	0	519045120	65	4264
2026-01-19 22:22:58.86	66.28	21.60	-46.7	-48.3	19.0	0.00e+00	0	39	0	521142272	65	4194
2026-01-19 22:22:59.87	66.54	21.64	-46.5	-48.0	19.2	0.00e+00	0	39	0	523239424	65	4071
2026-01-19 22:23:00.88	66.79	21.68	-46.5	-48.0	19.2	0.00e+00	0	39	0	524288000	64	4315
2026-01-19 22:23:01.89	67.05	21.72	-46.5	-48.0	19.2	0.00e+00	0	39	0	526385152	64	4314
2026-01-19 22:23:02.89	67.31	21.75	-46.5	-48.0	19.2	0.00e+00	0	39	0	528482304	64	4298
2026-01-19 22:23:03.90	67.56	21.79	-46.5	-48.0	19.2	0.00e+00	0	39	0	530579456	64	4336
2026-01-19 22:23:04.91	67.82	21.82	-46.5	-48.1	19.2	0.00e+00	0	39	0	532676608	64	4351
2026-01-19 22:23:05.92	68.08	21.86	-46.6	-48.2	19.1	0.00e+00	0	39	0	534773760	64	4404
2026-01-19 22:23:06.92	68.34	21.89	-46.7	-48.2	19.0	0.00e+00	0	39	0	535822336	64	4435
2026-01-19 22:23:07.93	68.60	21.93	-46.6	-48.2	19.0	0.00e+00	0	39	0	537919488	64	4411
2026-01-19 22:23:08.94	68.86	21.96	-46.7	-48.2	19.0	0.00e+00	0	39	0	540016640	64	4433
2026-01-19 22:23:09.95	69.12	21.99	-46.7	-48.3	18.9	0.00e+00	0	39	0	542113792	64	4446
2026-01-19 22:23:10.96	69.38	22.02	-46.6	-48.1	19.2	0.00e+00	0	39	0	544210944	64	4361
2026-01-19 22:23:11.97	69.64	22.06	-46.6	-48.2	19.0	0.00e+00	0	39	0	545259520	64	4402
2026-01-19 22:23:12.97	69.90	22.09	-46.7	-48.2	19.0	0.00e+00	0	39	0	547356672	64	4425
2026-01-19 22:23:13.98	70.17	22.12	-46.7	-48.3	19.0	0.00e+00	0	39	0	549453824	64	4455
2026-01-19 22:23:14.99	70.43	22.15	-46.9	-48.5	18.8	0.00e+00	0	39	0	551550976	64	4563
2026-01-19 22:23:16.00	70.69	22.17	-47.2	-48.9	18.4	0.00e+00	0	39	0	552599552	64	4771
2026-01-19 22:23:17.01	70.96	22.20	-47.2	-48.9	18.3	0.00e+00	0	39	0	554696704	65	4516
2026-01-19 22:23:18.02	71.22	22.23	-47.3	-49.0	18.3	0.00e+00	0	39	0	556793856	65	4579
2026-01-19 22:23:19.03	71.49	22.26	-47.3	-49.0	18.3	0.00e+00	0	39	0	558891008	65	4574
2026-01-19 22:23:20.03	71.75	22.29	-47.3	-49.0	18.2	0.00e+00	0	39	0	560988160	65	4587
2026-01-19 22:23:21.05	72.02	22.31	-47.2	-48.9	18.3	0.00e+00	0	39	0	563085312	65	4535
2026-01-19 22:23:22.06	72.29	22.34	-47.3	-49.0	18.3	0.00e+00	0	39	0	564133888	65	4568
2026-01-19 22:23:23.06	72.55	22.36	-47.2	-48.9	18.3	0.00e+00	0	39	0	566231040	65	4514
2026-01-19 22:23:24.07	72.82	22.39	-47.1	-48.8	18.5	0.00e+00	0	39	0	568328192	65	4457
2026-01-19 22:23:25.08	73.09	22.41	-47.3	-49.0	18.3	0.00e+00	0	39	0	570425344	65	4556
2026-01-19 22:23:26.08	73.36	22.43	-47.2	-48.9	18.3	0.00e+00	0	39	0	572522496	65	4534
2026-01-19 22:23:27.09	73.63	22.46	-47.3	-49.1	18.2	0.00e+00	0	39	0	573571072	65	4606
2026-01-19 22:23:28.10	73.90	22.48	-47.5	-49.3	18.0	0.00e+00	0	39	0	575668224	65	4730
2026-01-19 22:23:29.11	74.16	22.50	-47.4	-49.1	18.2	0.00e+00	0	39	0	577765376	65	4635
2026-01-19 22:23:30.12	74.44	22.52	-47.2	-49.0	18.3	0.00e+00	0	39	0	579862528	65	4554
2026-01-19 22:23:31.13	74.71	22.54	-47.0	-48.6	18.7	0.00e+00	0	39	0	581959680	65	4368
2026-01-19 22:23:32.13	74.97	22.56	-46.9	-48.5	18.8	0.00e+00	0	39	0	583008256	65	4298
2026-01-19 22:23:33.14	75.25	22.58	-46.7	-48.3	19.0	0.00e+00	0	39	0	585105408	65	4201
2026-01-19 22:23:34.15	75.52	22.60	-46.6	-48.1	19.2	0.00e+00	0	39	0	587202560	65	4124
2026-01-19 22:23:35.15	75.79	22.61	-46.6	-48.2	19.2	0.00e+00	0	39	0	589299712	65	4146
2026-01-19 22:23:36.16	76.06	22.63	-46.7	-48.3	19.0	0.00e+00	0	39	0	591396864	65	4205
2026-01-19 22:23:37.17	76.33	22.65	-46.8	-48.4	18.9	0.00e+00	0	39	0	592445440	65	4264
2026-01-19 22:23:38.18	76.60	22.66	-46.9	-48.5	18.7	0.00e+00	0	39	0	594542592	65	4326
2026-01-19 22:23:39.19	76.88	22.68	-47.1	-48.7	18.6	0.00e+00	0	39	0	596639744	65	4424
2026-01-19 22:23:40.19	77.15	22.69	-47.2	-48.9	18.4	0.00e+00	0	39	0	598736896	65	4498
2026-01-19 22:23:41.20	77.42	22.71	-47.2	-48.9	18.4	0.00e+00	0	39	0	600834048	65	4517
2026-01-19 22:23:42.21	77.69	22.72	-47.1	-48.8	18.5	0.00e+00	0	39	0	601882624	65	4442
2026-01-19 22:23:43.22	77.97	22.73	-47.0	-48.6	18.7	0.00e+00	0	39	0	603979776	65	4369
2026-01-19 22:23:44.23	78.24	22.74	-46.9	-48.5	18.7	0.00e+00	0	39	0	606076928	65	4339
2026-01-19 22:23:45.23	78.51	22.75	-46.7	-48.3	19.0	0.00e+00	0	39	0	608174080	65	4224
2026-01-19 22:23:46.24	78.79	22.76	-46.4	-47.9	19.3	0.00e+00	0	39	0	610271232	64	4267
2026-01-19 22:23:47.25	79.06	22.77	-46.4	-47.9	19.3	0.00e+00	0	39	0	611319808	64	4275
2026-01-19 22:23:48.26	79.34	22.78	-46.6	-48.2	19.1	0.00e+00	0	39	0	613416960	64	4401
2026-01-19 22:23:49.27	79.61	22.79	-46.7	-48.2	19.0	0.00e+00	0	39	0	615514112	64	4427
2026-01-19 22:23:50.27	79.88	22.80	-46.8	-48.4	18.8	0.00e+00	0	39	0	617611264	64	4527
2026-01-19 22:23:51.28	80.16	22.81	-46.9	-48.5	18.7	0.00e+00	0	39	0	619708416	64	4597
2026-01-19 22:23:52.29	80.44	22.81	-46.9	-48.6	18.7	0.00e+00	0	39	0	620756992	64	4603
2026-01-19 22:23:53.29	80.71	22.82	-46.9	-48.5	18.7	0.00e+00	0	39	0	622854144	64	4584
2026-01-19 22:23:54.30	80.98	22.82	-47.0	-48.7	18.6	0.00e+00	0	39	0	624951296	64	4659
2026-01-19 22:23:55.31	81.26	22.83	-46.8	-48.5	18.8	0.00e+00	0	39	0	627048448	64	4546
2026-01-19 22:23:56.32	81.54	22.83	-46.9	-48.5	18.7	0.00e+00	0	39	0	629145600	64	4595
2026-01-19 22:23:57.33	81.81	22.84	-46.9	-48.5	18.7	0.00e+00	0	39	0	631242752	64	4575
2026-01-19 22:23:58.33	82.08	22.84	-46.8	-48.4	18.9	0.00e+00	0	39	0	632291328	64	4495
2026-01-19 22:23:59.34	82.36	22.84	-46.8	-48.4	18.8	0.00e+00	0	39	0	634388480	64	4519
2026-01-19 22:24:00.35	82.64	22.84	-46.8	-48.4	18.9	0.00e+00	0	39	0	636485632	64	4496
2026-01-19 22:24:01.36	82.91	22.84	-47.1	-48.7	18.6	0.00e+00	0	39	0	638582784	64	4694
2026-01-19 22:24:02.37	83.19	22.84	-47.2	-48.8	18.5	0.00e+00	0	39	0	639631360	64	4749
2026-01-19 22:24:03.37	83.46	22.84	-47.3	-49.0	18.3	0.00e+00	0	39	0	641728512	65	4550
2026-01-19 22:24:04.38	83.74	22.84	-47.3	-49.0	18.2	0.00e+00	0	39	0	643825664	65	4580
2026-01-19 22:24:05.39	84.01	22.84	-47.3	-49.0	18.2	0.00e+00	0	39	0	645922816	65	4597
2026-01-19 22:24:06.40	84.29	22.83	-47.3	-49.0	18.3	0.00e+00	0	39	0	648019968	65	4586
2026-01-19 22:24:07.40	84.56	22.83	-47.3	-49.1	18.2	0.00e+00	0	39	0	649068544	65	4616
2026-01-19 22:24:08.41	84.84	22.83	-47.4	-49.2	18.0	0.00e+00	0	39	0	651165696	65	4691
2026-01-19 22:24:09.42	85.11	22.82	-47.4	-49.1	18.2	0.00e+00	0	39	0	653262848	65	4624
2026-01-19 22:24:10.43	85.39	22.81	-47.3	-49.1	18.2	0.00e+00	0	39	0	655360000	65	4608
2026-01-19 22:24:11.44	85.67	22.81	-47.1	-48.8	18.5	0.00e+00	0	39	0	657457152	65	4451
2026-01-19 22:24:12.45	85.94	22.80	-46.9	-48.6	18.8	0.00e+00	0	39	0	659554304	65	4343
2026-01-19 22:24:13.45	86.21	22.79	-46.8	-48.3	18.9	0.00e+00	0	39	0	660602880	65	4232
2026-01-19 22:24:14.46	86.49	22.79	-46.6	-48.1	19.1	0.00e+00	0	39	0	662700032	65	4142
2026-01-19 22:24:15.47	86.76	22.78	-46.5	-48.1	19.1	0.00e+00	0	39	0	664797184	65	4103
2026-01-19 22:24:16.48	87.04	22.77	-46.6	-48.2	19.1	0.00e+00	0	39	0	666894336	65	4148
2026-01-19 22:24:17.49	87.31	22.76	-46.8	-48.4	18.9	0.00e+00	0	39	0	667942912	65	4250
2026-01-19 22:24:18.49	87.59	22.75	-47.0	-48.6	18.6	0.00e+00	0	39	0	670040064	65	4389
2026-01-19 22:24:19.50	87.86	22.73	-47.1	-48.7	18.6	0.00e+00	0	39	0	672137216	65	4429
2026-01-19 22:24:20.51	88.13	22.72	-47.1	-48.7	18.5	0.00e+00	0	39	0	674234368	65	4433
2026-01-19 22:24:21.51	88.41	22.71	-47.1	-48.7	18.5	0.00e+00	0	39	0	676331520	65	4425
2026-01-19 22:24:22.52	88.68	22.70	-47.0	-48.6	18.6	0.00e+00	0	39	0	678428672	65	4384
2026-01-19 22:24:23.53	88.95	22.68	-46.9	-48.5	18.7	0.00e+00	0	39	0	679477248	65	4333
2026-01-19 22:24:24.54	89.23	22.67	-47.1	-48.8	18.5	0.00e+00	0	39	0	681574400	65	4456
2026-01-19 22:24:25.55	89.50	22.65	-47.1	-48.8	18.5	0.00e+00	0	39	0	683671552	65	4459
2026-01-19 22:24:26.56	89.77	22.63	-47.1	-48.8	18.4	0.00e+00	0	39	0	685768704	65	4481
2026-01-19 22:24:27.56	90.04	22.62	-47.1	-48.8	18.4	0.00e+00	0	39	0	687865856	65	4448
2026-01-19 22:24:28.57	90.31	22.60	-47.0	-48.6	18.6	0.00e+00	0	39	0	688914432	65	4367
2026-01-19 22:24:29.58	90.58	22.58	-46.7	-48.2	18.9	0.00e+00	0	39	0	691011584	65	4189
2026-01-19 22:24:30.59	90.86	22.56	-46.6	-48.2	19.1	0.00e+00	0	39	0	693108736	65	4160
2026-01-19 22:24:31.59	91.13	22.54	-46.7	-48.3	19.0	0.00e+00	0	39	0	695205888	65	4215
2026-01-19 22:24:32.60	91.40	22.52	-46.7	-48.3	18.9	0.00e+00	0	39	0	696254464	65	4226
2026-01-19 22:24:33.61	91.67	22.50	-46.9	-48.5	18.8	0.00e+00	0	39	0	698351616	65	4301
2026-01-19 22:24:34.61	91.93	22.48	-46.9	-48.5	18.7	0.00e+00	0	39	0	700448768	65	4331
2026-01-19 22:24:35.62	92.20	22.46	-46.9	-48.6	18.7	0.00e+00	0	39	0	702545920	65	4360
2026-01-19 22:24:36.63	92.47	22.44	-46.8	-48.4	18.9	0.00e+00	0	39	0	704643072	65	4272
2026-01-19 22:24:37.64	92.74	22.42	-46.8	-48.3	18.9	0.00e+00	0	39	0	706740224	65	4223
2026-01-19 22:24:38.64	93.01	22.39	-46.4	-47.9	19.3	0.00e+00	0	39	0	707788800	64	4261
2026-01-19 22:24:39.65	93.28	22.37	-46.5	-48.0	19.2	0.00e+00	0	39	0	709885952	64	4319
2026-01-19 22:24:40.66	93.54	22.34	-46.6	-48.1	19.1	0.00e+00	0	39	0	711983104	64	4372
2026-01-19 22:24:41.67	93.81	22.32	-46.8	-48.4	18.9	0.00e+00	0	39	0	714080256	64	4545
2026-01-19 22:24:42.67	94.08	22.29	-46.9	-48.6	18.7	0.00e+00	0	39	0	716177408	64	4617
2026-01-19 22:24:43.68	94.34	22.26	-47.0	-48.6	18.6	0.00e+00	0	39	0	717225984	64	4650
2026-01-19 22:24:44.69	94.61	22.24	-47.0	-48.6	18.6	0.00e+00	0	39	0	719323136	64	4621
2026-01-19 22:24:45.70	94.88	22.21	-46.9	-48.5	18.7	0.00e+00	0	39	0	721420288	64	4568
2026-01-19 22:24:46.70	95.14	22.18	-46.7	-48.3	19.0	0.00e+00	0	39	0	723517440	64	4444
2026-01-19 22:24:47.72	95.41	22.15	-46.6	-48.2	19.0	0.00e+00	0	39	0	724566016	64	4399
2026-01-19 22:24:48.72	95.67	22.12	-46.5	-48.1	19.1	0.00e+00	0	39	0	726663168	64	4347
2026-01-19 22:24:49.73	95.93	22.09	-46.2	-47.7	19.6	0.00e+00	0	39	0	728760320	64	4159
2026-01-19 22:24:50.74	96.19	22.06	-46.0	-47.4	19.8	0.00e+00	0	39	0	730857472	64	4035
2026-01-19 22:24:51.75	96.46	22.03	-45.8	-47.2	20.0	0.00e+00	0	39	0	732954624	63	4173
2026-01-19 22:24:52.75	96.72	22.00	-45.7	-47.1	20.2	0.00e+00	0	39	0	735051776	63	4100
2026-01-19 22:24:53.76	96.98	21.96	-45.7	-47.0	20.3	0.00e+00	0	39	0	736100352	63	4057
2026-01-19 22:24:54.77	97.24	21.93	-45.6	-46.9	20.4	0.00e+00	0	39	0	738197504	63	4014
2026-01-19 22:24:55.78	97.50	21.90	-45.6	-46.9	20.4	0.00e+00	0	39	0	740294656	62	4256
2026-01-19 22:24:56.79	97.76	21.86	-45.6	-46.9	20.3	0.00e+00	0	39	0	742391808	62	4285
2026-01-19 22:24:57.80	98.02	21.83	-45.7	-47.0	20.2	0.00e+00	0	39	0	744488960	62	4318
2026-01-19 22:24:58.81	98.28	21.79	-45.8	-47.1	20.1	0.00e+00	0	39	0	745537536	62	4383
2026-01-19 22:24:59.82	98.54	21.76	-45.9	-47.3	19.9	0.00e+00	0	39	0	747634688	62	4458
2026-01-19 22:25:00.82	98.79	21.72	-45.8	-47.1	20.1	0.00e+00	0	39	0	749731840	62	4381
2026-01-19 22:25:01.83	99.05	21.69	-45.7	-47.1	20.2	0.00e+00	0	39	0	751828992	62	4351
2026-01-19 22:25:02.84	99.31	21.65	-45.5	-46.8	20.4	0.00e+00	0	39	0	753926144	62	4226
2026-01-19 22:25:03.85	99.56	21.61	-45.6	-46.9	20.3	0.00e+00	0	39	0	754974720	62	4284
2026-01-19 22:25:04.85	99.81	21.57	-45.6	-46.9	20.4	0.00e+00	0	39	0	757071872	62	4252
2026-01-19 22:25:05.86	100.07	21.53	-45.5	-46.7	20.5	0.00e+00	0	39	0	759169024	62	4192
2026-01-19 22:25:06.87	100.32	21.49	-45.1	-46.4	20.8	0.00e+00	0	39	0	761266176	62	4005
2026-01-19 22:25:07.87	100.57	21.45	-45.1	-46.3	20.9	0.00e+00	0	39	0	763363328	62	3989
2026-01-19 22:25:08.88	100.83	21.41	-44.9	-46.1	21.1	0.00e+00	0	39	0	764411904	61	4112
2026-01-19 22:25:09.89	101.08	21.37	-44.9	-46.0	21.1	0.00e+00	0	39	0	766509056	61	4097
2026-01-19 22:25:10.90	101.33	21.33	-45.0	-46.2	21.0	0.00e+00	0	39	0	768606208	61	4177
2026-01-19 22:25:11.91	101.58	21.29	-45.0	-46.2	20.9	0.00e+00	0	39	0	770703360	61	4191
2026-01-19 22:25:12.92	101.83	21.25	-45.1	-46.3	20.9	0.00e+00	0	39	0	772800512	61	4219
2026-01-19 22:25:13.93	102.08	21.20	-45.1	-46.4	20.9	0.00e+00	0	39	0	774897664	61	4243
2026-01-19 22:25:14.93	102.33	21.16	-45.3	-46.5	20.7	0.00e+00	0	39	0	775946240	61	4334
2026-01-19 22:25:15.94	102.58	21.12	-45.3	-46.6	20.6	0.00e+00	0	39	0	778043392	61	4378
2026-01-19 22:25:16.95	102.82	21.07	-45.5	-46.8	20.4	0.00e+00	0	39	0	780140544	61	4478
2026-01-19 22:25:17.96	103.07	21.03	-45.6	-47.0	20.3	0.00e+00	0	39	0	782237696	61	4559
2026-01-19 22:25:18.96	103.32	20.98	-45.8	-47.2	20.0	0.00e+00	0	39	0	783286272	62	4419
2026-01-19 22:25:19.97	103.56	20.94	-46.0	-47.3	19.9	0.00e+00	0	39	0	785383424	62	4492
2026-01-19 22:25:20.98	103.81	20.89	-46.1	-47.5	19.7	0.00e+00	0	39	0	787480576	62	4593
2026-01-19 22:25:21.99	104.05	20.85	-46.2	-47.6	19.7	0.00e+00	0	39	0	789577728	63	4381
2026-01-19 22:25:23.00	104.29	20.80	-46.2	-47.6	19.6	0.00e+00	0	39	0	791674880	63	4379
2026-01-19 22:25:24.01	104.54	20.75	-46.3	-47.7	19.6	0.00e+00	0	39	0	792723456	63	4434
2026-01-19 22:25:25.01	104.78	20.70	-46.0	-47.4	19.6	0.00e+00	0	39	0	794820608	63	4288
2026-01-19 22:25:26.02	105.02	20.66	-45.8	-47.1	20.1	0.00e+00	0	39	0	796917760	63	4143
2026-01-19 22:25:27.03	105.26	20.61	-45.6	-46.9	20.4	0.00e+00	0	39	0	799014912	63	4031
2026-01-19 22:25:28.03	105.49	20.56	-45.4	-46.7	20.5	0.00e+00	0	39	0	801112064	62	4173
2026-01-19 22:25:29.04	105.73	20.51	-45.4	-46.7	20.5	0.00e+00	0	39	0	803209216	62	4172
2026-01-19 22:25:30.05	105.97	20.46	-45.4	-46.6	20.6	0.00e+00	0	39	0	804257792	62	4142
2026-01-19 22:25:31.06	106.21	20.41	-45.3	-46.5	20.7	0.00e+00	0	39	0	806354944	62	4076
2026-01-19 22:25:32.07	106.45	20.36	-45.3	-46.6	20.6	0.00e+00	0	39	0	808452096	62	4099
2026-01-19 22:25:33.07	106.68	20.31	-45.5	-46.8	20.5	0.00e+00	0	39	0	810549248	62	4204
2026-01-19 22:25:34.08	106.91	20.26	-45.8	-47.1	20.1	0.00e+00	0	39	0	811597824	62	4360
2026-01-19 22:25:35.09	107.15	20.21	-46.1	-47.6	19.7	0.00e+00	0	39	0	813694976	62	4603
2026-01-19 22:25:36.10	107.38	20.15	-46.4	-47.9	19.4	0.00e+00	0	39	0	815792128	63	4523
2026-01-19 22:25:37.11	107.62	20.10	-46.7	-48.2	19.0	0.00e+00	0	39	0	817889280	63	4673
2026-01-19 22:25:38.12	107.85	20.05	-46.7	-48.3	18.9	0.00e+00	0	39	0	819986432	64	4445
2026-01-19 22:25:39.12	108.08	20.00	-46.8	-48.4	18.9	0.00e+00	0	39	0	822083584	64	4503
2026-01-19 22:25:40.13	108.31	19.94	-46.8	-48.3	18.8	0.00e+00	0	39	0	823132160	64	4489
2026-01-19 22:25:41.14	108.54	19.89	-46.8	-48.4	18.7	0.00e+00	0	39	0	825229312	64	4526
2026-01-19 22:25:42.15	108.77	19.84	-47.0	-48.6	18.6	0.00e+00	0	39	0	827326464	64	4637
2026-01-19 22:25:43.16	108.99	19.78	-46.9	-48.5	18.7	0.00e+00	0	39	0	829423616	64	4573
2026-01-19 22:25:44.17	109.22	19.73	-46.9	-48.5	18.7	0.00e+00	0	39	0	831520768	64	4563
2026-01-19 22:25:45.18	109.45	19.67	-46.8	-48.5	18.7	0.00e+00	0	39	0	832569344	64	4547
2026-01-19 22:25:46.19	109.67	19.62	-46.6	-48.1	19.1	0.00e+00	0	39	0	834666496	64	4364
2026-01-19 22:25:47.20	109.90	19.56	-46.6	-48.1	19.1	0.00e+00	0	39	0	836763648	64	4382
2026-01-19 22:25:48.20	110.12	19.50	-46.4	-48.0	19.2	0.00e+00	0	39	0	838860800	64	4296
2026-01-19 22:25:49.21	110.35	19.45	-46.1	-47.5	19.6	0.00e+00	0	39	0	839909376	64	4092
2026-01-19 22:25:50.22	110.57	19.39	-46.2	-47.6	19.5	0.00e+00	0	39	0	842006528	64	4136
2026-01-19 22:25:51.23	110.79	19.33	-46.3	-47.8	19.4	0.00e+00	0	39	0	844103680	64	4213
2026-01-19 22:25:52.23	111.01	19.28	-46.3	-47.7	19.4	0.00e+00	0	39	0	846200832	64	4186
2026-01-19 22:25:53.24	111.23	19.22	-46.5	-48.0	19.2	0.00e+00	0	39	0	848297984	64	4306
2026-01-19 22:25:54.25	111.45	19.16	-46.7	-48.3	18.9	0.00e+00	0	39	0	850395136	64	4442
2026-01-19 22:25:55.26	111.67	19.11	-46.8	-48.4	18.7	0.00e+00	0	39	0	851443712	64	4533
2026-01-19 22:25:56.26	111.88	19.05	-46.9	-48.6	18.6	0.00e+00	0	39	0	853540864	64	4604
2026-01-19 22:25:57.28	112.10	18.99	-47.0	-48.7	18.5	0.00e+00	0	39	0	855638016	64	4695
2026-01-19 22:25:58.28	112.32	18.93	-47.0	-48.7	18.4	0.00e+00	0	39	0	857735168	64	4698
2026-01-19 22:25:59.29	112.53	18.87	-47.1	-48.8	18.3	0.00e+00	0	39	0	859832320	64	4747
2026-01-19 22:26:00.30	112.75	18.81	-47.0	-48.7	18.4	0.00e+00	0	39	0	860880896	64	4693
2026-01-19 22:26:01.31	112.96	18.75	-47.0	-48.7	18.5	0.00e+00	0	39	0	862978048	64	4667
2026-01-19 22:26:02.31	113.17	18.69	-46.9	-48.5	18.7	0.00e+00	0	39	0	865075200	64	4569
2026-01-19 22:26:03.32	113.38	18.63	-46.5	-48.1	19.1	0.00e+00	0	39	0	867172352	64	4349
2026-01-19 22:26:04.33	113.59	18.57	-46.3	-47.8	19.4	0.00e+00	0	39	0	869269504	64	4210
2026-01-19 22:26:05.34	113.81	18.51	-46.3	-47.8	19.4	0.00e+00	0	39	0	870318080	64	4204
2026-01-19 22:26:06.35	114.02	18.45	-46.3	-47.8	19.4	0.00e+00	0	39	0	872415232	64	4203
2026-01-19 22:26:07.35	114.22	18.39	-46.4	-47.9	19.3	0.00e+00	0	39	0	874512384	64	4261
2026-01-19 22:26:08.36	114.43	18.33	-46.6	-48.2	19.0	0.00e+00	0	39	0	876609536	64	4426
2026-01-19 22:26:09.37	114.64	18.27	-46.7	-48.2	18.9	0.00e+00	0	39	0	878706688	64	4433
2026-01-19 22:26:10.38	114.84	18.21	-46.8	-48.4	18.8	0.00e+00	0	39	0	879755264	64	4500
2026-01-19 22:26:11.39	115.05	18.15	-46.7	-48.3	18.9	0.00e+00	0	39	0	881852416	64	4448
2026-01-19 22:26:12.39	115.25	18.08	-46.5	-48.1	19.1	0.00e+00	0	39	0	883949568	64	4357
2026-01-19 22:26:13.40	115.46	18.02	-46.5	-48.0	19.1	0.00e+00	0	39	0	886046720	64	4314
2026-01-19 22:26:14.41	115.66	17.96	-46.5	-48.1	19.0	0.00e+00	0	39	0	888143872	64	4348
2026-01-19 22:26:15.42	115.86	17.90	-46.6	-48.1	19.0	0.00e+00	0	39	0	889192448	64	4390
2026-01-19 22:26:16.43	116.06	17.83	-46.6	-48.1	19.0	0.00e+00	0	39	0	891289600	64	4379
2026-01-19 22:26:17.44	116.27	17.77	-46.7	-48.4	18.8	0.00e+00	0	39	0	893386752	64	4499
2026-01-19 22:26:18.44	116.46	17.71	-46.8	-48.4	18.7	0.00e+00	0	39	0	895483904	64	4536
2026-01-19 22:26:19.45	116.66	17.65	-46.9	-48.6	18.5	0.00e+00	0	39	0	897581056	64	4629
2026-01-19 22:26:20.45	116.86	17.58	-47.0	-48.7	18.4	0.00e+00	0	39	0	898629632	64	4684
2026-01-19 22:26:21.46	117.06	17.52	-46.8	-48.5	18.6	0.00e+00	0	39	0	900726784	64	4566
2026-01-19 22:26:22.47	117.25	17.46	-47.0	-48.6	18.4	0.00e+00	0	39	0	902823936	64	4643
2026-01-19 22:26:23.47	117.45	17.39	-47.0	-48.7	18.4	0.00e+00	0	39	0	904921088	64	4691
2026-01-19 22:26:24.48	117.64	17.33	-47.1	-48.8	18.3	0.00e+00	0	39	0	907018240	64	4737
2026-01-19 22:26:25.49	117.84	17.26	-47.2	-49.0	18.1	0.00e+00	0	39	0	908066816	65	4561
2026-01-19 22:26:26.50	118.03	17.20	-47.2	-48.9	18.2	0.00e+00	0	39	0	910163968	65	4544
2026-01-19 22:26:27.51	118.22	17.14	-47.0	-48.7	18.4	0.00e+00	0	39	0	912261120	65	4440
2026-01-19 22:26:28.52	118.42	17.07	-46.8	-48.4	18.7	0.00e+00	0	39	0	914358272	65	4260
2026-01-19 22:26:29.52	118.61	17.01	-46.6	-48.2	18.9	0.00e+00	0	39	0	916455424	65	4182
2026-01-19 22:26:30.53	118.80	16.94	-46.5	-48.0	19.0	0.00e+00	0	39	0	917504000	65	4091
2026-01-19 22:26:31.53	118.98	16.88	-46.4	-47.9	19.2	0.00e+00	0	39	0	919601152	64	4275
2026-01-19 22:26:32.54	119.17	16.81	-46.4	-47.9	19.3	0.00e+00	0	39	0	921698304	64	4248
2026-01-19 22:26:33.55	119.36	16.75	-46.6	-48.1	19.0	0.00e+00	0	39	0	923795456	64	4373
2026-01-19 22:26:34.56	119.55	16.68	-46.9	-48.6	18.5	0.00e+00	0	39	0	925892608	64	4633
2026-01-19 22:26:35.57	119.73	16.62	-47.1	-48.9	18.2	0.00e+00	0	39	0	926941184	64	4765
2026-01-19 22:26:36.57	119.92	16.55	-47.4	-49.2	18.0	0.00e+00	0	39	0	929038336	65	4670
2026-01-19 22:26:37.58	120.10	16.49	-47.4	-49.3	17.8	0.00e+00	0	39	0	931135488	65	4708
2026-01-19 22:26:38.59	120.29	16.42	-47.3	-49.1	18.0	0.00e+00	0	39	0	933232640	65	4621
2026-01-19 22:26:39.60	120.47	16.36	-47.1	-48.8	18.3	0.00e+00	0	39	0	935329792	65	4462
2026-01-19 22:26:40.61	120.65	16.29	-46.7	-48.4	18.7	0.00e+00	0	39	0	936378368	65	4248
2026-01-19 22:26:41.62	120.84	16.22	-46.6	-48.2	18.9	0.00e+00	0	39	0	938475520	65	4157
2026-01-19 22:26:42.63	121.02	16.16	-46.7	-48.3	18.8	0.00e+00	0	39	0	940572672	65	4201
2026-01-19 22:26:43.63	121.19	16.09	-46.7	-48.3	18.8	0.00e+00	0	39	0	942669824	65	4200
2026-01-19 22:26:44.64	121.37	16.03	-46.8	-48.4	18.6	0.00e+00	0	39	0	944766976	65	4283
2026-01-19 22:26:45.65	121.55	15.96	-46.9	-48.6	18.5	0.00e+00	0	39	0	945815552	65	4373
2026-01-19 22:26:46.66	121.73	15.89	-47.0	-48.7	18.3	0.00e+00	0	39	0	947912704	65	4424
2026-01-19 22:26:47.67	121.91	15.83	-46.9	-48.6	18.4	0.00e+00	0	39	0	950009856	65	4348
2026-01-19 22:26:48.68	122.08	15.76	-46.6	-48.2	18.7	0.00e+00	0	39	0	952107008	65	4185
2026-01-19 22:26:49.69	122.26	15.69	-46.4	-48.0	19.0	0.00e+00	0	39	0	954204160	64	4314
2026-01-19 22:26:50.70	122.44	15.63	-46.4	-47.9	19.0	0.00e+00	0	39	0	955252736	64	4276
2026-01-19 22:26:51.71	122.61	15.56	-46.3	-47.9	19.1	0.00e+00	0	39	0	957349888	64	4256
2026-01-19 22:26:52.71	122.78	15.49	-46.3	-47.9	19.1	0.00e+00	0	39	0	959447040	64	4243
2026-01-19 22:26:53.72	122.95	15.43	-46.4	-48.0	18.9	0.00e+00	0	39	0	961544192	64	4322
2026-01-19 22:26:54.73	123.13	15.36	-46.7	-48.3	18.6	0.00e+00	0	39	0	963641344	64	4473
2026-01-19 22:26:55.74	123.30	15.29	-46.9	-48.6	18.4	0.00e+00	0	39	0	965738496	64	4626
2026-01-19 22:26:56.75	123.47	15.22	-47.1	-48.9	18.1	0.00e+00	0	39	0	966787072	64	4769
2026-01-19 22:26:57.76	123.64	15.16	-47.2	-49.0	18.0	0.00e+00	0	39	0	968884224	64	4843
2026-01-19 22:26:58.76	123.80	15.09	-46.9	-48.6	18.4	0.00e+00	0	39	0	970981376	64	4619
2026-01-19 22:26:59.77	123.97	15.02	-46.7	-48.3	18.6	0.00e+00	0	39	0	973078528	64	4493
2026-01-19 22:27:00.78	124.14	14.96	-46.7	-48.3	18.7	0.00e+00	0	39	0	974127104	64	4466
2026-01-19 22:27:01.79	124.31	14.89	-46.5	-48.1	18.8	0.00e+00	0	39	0	976224256	64	4365
2026-01-19 22:27:02.79	124.47	14.82	-46.5	-48.1	18.8	0.00e+00	0	39	0	978321408	64	4351
2026-01-19 22:27:03.80	124.64	14.75	-46.7	-48.3	18.6	0.00e+00	0	39	0	980418560	64	4468
2026-01-19 22:27:04.81	124.80	14.69	-46.8	-48.5	18.5	0.00e+00	0	39	0	982515712	64	4548
2026-01-19 22:27:05.82	124.97	14.62	-47.0	-48.7	18.2	0.00e+00	0	39	0	984612864	64	4695
2026-01-19 22:27:06.83	125.13	14.55	-47.1	-48.9	18.0	0.00e+00	0	39	0	985661440	64	4779
2026-01-19 22:27:07.83	125.29	14.49	-47.3	-49.1	17.8	0.00e+00	0	39	0	987758592	65	4623
2026-01-19 22:27:08.84	125.45	14.42	-47.1	-48.8	18.1	0.00e+00	0	39	0	989855744	65	4487
2026-01-19 22:27:09.85	125.61	14.35	-47.0	-48.8	18.1	0.00e+00	0	39	0	991952896	65	4475
2026-01-19 22:27:10.86	125.77	14.28	-46.8	-48.5	18.3	0.00e+00	0	39	0	994050048	65	4330
2026-01-19 22:27:11.87	125.93	14.22	-46.7	-48.4	18.5	0.00e+00	0	39	0	995098624	65	4263
2026-01-19 22:27:12.87	126.09	14.15	-46.7	-48.3	18.5	0.00e+00	0	39	0	997195776	65	4238
2026-01-19 22:27:13.88	126.25	14.08	-46.6	-48.3	18.6	0.00e+00	0	39	0	999292928	65	4202
2026-01-19 22:27:14.89	126.41	14.01	-46.7	-48.3	18.6	0.00e+00	0	39	0	1001390080	65	4234
2026-01-19 22:27:15.90	126.56	13.95	-46.8	-48.5	18.4	0.00e+00	0	39	0	1002438656	65	4303
2026-01-19 22:27:16.91	126.72	13.88	-47.0	-48.8	18.1	0.00e+00	0	39	0	1004535808	65	4468
2026-01-19 22:27:17.92	126.87	13.81	-47.2	-49.1	17.8	0.00e+00	0	39	0	1006632960	65	4612
2026-01-19 22:27:18.92	127.03	13.74	-47.3	-49.1	17.7	0.00e+00	0	39	0	1008730112	65	4648
2026-01-19 22:27:19.93	127.18	13.68	-47.2	-49.1	17.8	0.00e+00	0	39	0	1010827264	65	4620
2026-01-19 22:27:20.94	127.34	13.61	-47.2	-49.0	17.9	0.00e+00	0	39	0	1012924416	65	4574
2026-01-19 22:27:21.95	127.49	13.54	-47.0	-48.8	18.1	0.00e+00	0	39	0	1013972992	65	4460
2026-01-19 22:27:22.95	127.64	13.47	-46.9	-48.6	18.3	0.00e+00	0	39	0	1016070144	65	4367
2026-01-19 22:27:23.96	127.79	13.41	-46.7	-48.4	18.5	0.00e+00	0	39	0	1018167296	65	4249
2026-01-19 22:27:24.97	127.94	13.34	-46.8	-48.5	18.3	0.00e+00	0	39	0	1020264448	65	4325
2026-01-19 22:27:25.98	128.09	13.27	-46.8	-48.5	18.3	0.00e+00	0	39	0	1022361600	65	4315
2026-01-19 22:27:26.99	128.24	13.20	-46.9	-48.6	18.2	0.00e+00	0	39	0	1023410176	65	4386
2026-01-19 22:27:28.00	128.39	13.14	-47.1	-48.9	17.9	0.00e+00	0	39	0	1025507328	65	4527
2026-01-19 22:27:29.00	128.54	13.07	-47.3	-49.1	17.7	0.00e+00	0	39	0	1027604480	65	4642
2026-01-19 22:27:30.01	128.68	13.00	-47.4	-49.3	17.5	0.00e+00	0	39	0	1029701632	65	4716
2026-01-19 22:27:31.02	128.83	12.93	-47.3	-49.2	17.5	0.00e+00	0	39	0	1031798784	65	4669
2026-01-19 22:27:32.03	128.98	12.87	-47.4	-49.3	17.5	0.00e+00	0	39	0	1032847360	65	4737
2026-01-19 22:27:33.04	129.12	12.80	-47.3	-49.2	17.6	0.00e+00	0	39	0	1034944512	65	4682
2026-01-19 22:27:34.05	129.27	12.73	-47.1	-49.0	17.8	0.00e+00	0	39	0	1037041664	65	4550
2026-01-19 22:27:35.05	129.41	12.66	-47.0	-48.8	17.9	0.00e+00	0	39	0	1039138816	65	4491
2026-01-19 22:27:36.06	129.55	12.60	-47.0	-48.7	18.1	0.00e+00	0	39	0	1041235968	65	4433
2026-01-19 22:27:37.07	129.70	12.53	-46.9	-48.7	18.1	0.00e+00	0	39	0	1042284544	65	4407
2026-01-19 22:27:38.08	129.84	12.46	-47.1	-49.0	17.8	0.00e+00	0	39	0	1044381696	65	4553
2026-01-19 22:27:39.09	129.98	12.39	-47.3	-49.1	17.7	0.00e+00	0	39	0	1046478848	65	4651
2026-01-19 22:27:40.09	130.12	12.33	-47.2	-49.1	17.6	0.00e+00	0	39	0	1048576000	65	4636
2026-01-19 22:27:41.10	130.26	12.26	-47.4	-49.4	17.4	0.00e+00	0	39	0	1050673152	65	4768
2026-01-19 22:27:42.11	130.40	12.19	-47.6	-49.6	17.1	0.00e+00	0	39	0	1051721728	65	4918
2026-01-19 22:27:43.12	130.54	12.13	-47.7	-49.7	17.0	0.00e+00	0	39	0	1053818880	65	4974
2026-01-19 22:27:44.13	130.68	12.06	-47.7	-49.8	17.0	0.00e+00	0	39	0	1055916032	66	4744
2026-01-19 22:27:45.13	130.82	11.99	-47.7	-49.7	17.1	0.00e+00	0	39	0	1058013184	66	4697
2026-01-19 22:27:46.14	130.95	11.92	-47.7	-49.7	17.0	0.00e+00	0	39	0	1060110336	66	4691
2026-01-19 22:27:47.15	131.09	11.86	-47.4	-49.4	17.4	0.00e+00	0	39	0	1061158912	66	4497
2026-01-19 22:27:48.16	131.23	11.79	-47.3	-49.2	17.6	0.00e+00	0	39	0	1063256064	66	4411
2026-01-19 22:27:49.16	131.36	11.72	-47.2	-49.1	17.6	0.00e+00	0	39	0	1065353216	66	4374
2026-01-19 22:27:50.17	131.50	11.66	-47.2	-49.1	17.7	0.00e+00	0	39	0	1067450368	66	4348
2026-01-19 22:27:51.18	131.63	11.59	-47.1	-48.9	17.8	0.00e+00	0	39	0	1069547520	66	4275
2026-01-19 22:27:52.19	131.76	11.52	-47.0	-48.8	17.9	0.00e+00	0	39	0	1070596096	66	4231
2026-01-19 22:27:53.19	131.90	11.46	-47.0	-48.8	18.0	0.00e+00	0	39	0	1072693248	65	4445
2026-01-19 22:27:54.20	132.03	11.39	-47.1	-48.9	17.8	0.00e+00	0	39	0	1074790400	65	4529
2026-01-19 22:27:55.20	132.16	11.32	-47.1	-49.0	17.7	0.00e+00	0	39	0	1076887552	65	4555
2026-01-19 22:27:56.21	132.29	11.26	-47.0	-48.9	17.8	0.00e+00	0	39	0	1078984704	65	4497
2026-01-19 22:27:57.22	132.42	11.19	-47.1	-49.0	17.7	0.00e+00	0	39	0	1081081856	65	4576
2026-01-19 22:27:58.23	132.55	11.12	-47.3	-49.2	17.5	0.00e+00	0	39	0	1082130432	65	4659
2026-01-19 22:27:59.23	132.68	11.06	-47.2	-49.2	17.5	0.00e+00	0	39	0	1084227584	65	4653
2026-01-19 22:28:00.24	132.81	10.99	-47.3	-49.2	17.5	0.00e+00	0	39	0	1086324736	65	4682
2026-01-19 22:28:01.25	132.94	10.93	-47.3	-49.2	17.4	0.00e+00	0	39	0	1088421888	65	4683
2026-01-19 22:28:02.26	133.07	10.86	-47.3	-49.3	17.4	0.00e+00	0	39	0	1089470464	65	4724
2026-01-19 22:28:03.27	133.20	10.79	-47.6	-49.6	17.1	0.00e+00	0	39	0	1091567616	65	4910
2026-01-19 22:28:04.27	133.32	10.73	-47.6	-49.7	16.9	0.00e+00	0	39	0	1093664768	65	4951
2026-01-19 22:28:05.28	133.45	10.66	-47.6	-49.7	17.0	0.00e+00	0	39	0	1095761920	65	4931
2026-01-19 22:28:06.29	133.57	10.60	-47.8	-49.9	16.7	0.00e+00	0	39	0	1097859072	66	4804
2026-01-19 22:28:07.30	133.70	10.53	-47.9	-50.1	16.6	0.00e+00	0	39	0	1098907648	66	4894
2026-01-19 22:28:08.30	133.82	10.46	-47.8	-50.0	16.6	0.00e+00	0	39	0	1101004800	66	4850
2026-01-19 22:28:09.31	133.95	10.40	-47.9	-50.1	16.6	0.00e+00	0	39	0	1103101952	66	4876
2026-01-19 22:28:10.32	134.07	10.33	-47.9	-50.1	16.6	0.00e+00	0	39	0	1105199104	66	4887
2026-01-19 22:28:11.33	134.20	10.27	-47.9	-50.1	16.6	0.00e+00	0	39	0	1107296256	66	4887
2026-01-19 22:28:12.33	134.32	10.20	-47.8	-50.0	16.6	0.00e+00	0	39	0	1109393408	66	4832
2026-01-19 22:28:13.34	134.44	10.13	-47.8	-49.9	16.7	0.00e+00	0	39	0	1110441984	66	4808
2026-01-19 22:28:14.35	134.56	10.07	-47.8	-49.9	16.7	0.00e+00	0	39	0	1112539136	66	4783
2026-01-19 22:28:15.35	134.68	10.00	-47.7	-49.8	16.8	0.00e+00	0	39	0	1114636288	66	4728
2026-01-19 22:28:16.36	134.80	9.94	-47.7	-49.9	16.8	0.00e+00	0	39	0	1116733440	66	4771
2026-01-19 22:28:17.37	134.92	9.87	-47.6	-49.7	16.9	0.00e+00	0	39	0	1117782016	66	4675
2026-01-19 22:28:18.38	135.04	9.81	-47.5	-49.5	17.1	0.00e+00	0	39	0	1119879168	66	4561
2026-01-19 22:28:19.39	135.16	9.74	-47.6	-49.7	16.9	0.00e+00	0	38	0	1121976320	66	4669
2026-01-19 22:28:20.40	135.28	9.68	-47.8	-49.9	16.7	0.00e+00	0	39	0	1124073472	66	4812
2026-01-19 22:28:21.40	135.40	9.61	-47.8	-50.0	16.6	0.00e+00	0	39	0	1126170624	66	4861
2026-01-19 22:28:22.41	135.51	9.55	-47.8	-50.0	16.5	0.00e+00	0	39	0	1127219200	66	4855
2026-01-19 22:28:23.41	135.63	9.48	-47.7	-49.8	16.7	0.00e+00	0	39	0	1129316352	66	4747
2026-01-19 22:28:24.42	135.75	9.42	-47.9	-50.1	16.5	0.00e+00	0	39	0	1131413504	66	4907
2026-01-19 22:28:25.43	135.86	9.35	-48.0	-50.2	16.3	0.00e+00	0	39	0	1133510656	66	4978
2026-01-19 22:28:26.44	135.98	9.29	-48.0	-50.3	16.2	0.00e+00	0	39	0	1135607808	66	5012
2026-01-19 22:28:27.45	136.09	9.22	-48.2	-50.5	16.0	0.00e+00	0	39	0	1137704960	66	5125
2026-01-19 22:28:28.45	136.21	9.16	-48.2	-50.6	15.9	0.00e+00	0	39	0	1138753536	67	4887
2026-01-19 22:28:29.46	136.32	9.09	-48.3	-50.7	15.9	0.00e+00	0	39	0	1140850688	67	4942
2026-01-19 22:28:30.47	136.43	9.03	-48.4	-50.9	15.7	0.00e+00	0	39	0	1142947840	67	5066
2026-01-19 22:28:31.48	136.55	8.97	-48.4	-50.9	15.6	0.00e+00	0	39	0	1145044992	67	5055
2026-01-19 22:28:32.49	136.66	8.90	-48.5	-51.1	15.4	0.00e+00	0	39	0	1146093568	67	5171
2026-01-19 22:28:33.50	136.77	8.84	-48.5	-51.1	15.3	0.00e+00	0	39	0	1148190720	67	5208
2026-01-19 22:28:34.51	136.88	8.77	-48.4	-50.9	15.6	0.00e+00	0	39	0	1150287872	67	5070
2026-01-19 22:28:35.51	136.99	8.71	-48.7	-51.4	15.1	0.00e+00	0	39	0	1152385024	67	5363
2026-01-19 22:28:36.52	137.11	8.64	-48.9	-51.7	14.9	0.00e+00	0	39	0	1154482176	68	5222
2026-01-19 22:28:37.53	137.22	8.58	-48.8	-51.5	15.1	0.00e+00	0	39	0	1156579328	68	5103
2026-01-19 22:28:38.54	137.33	8.52	-48.7	-51.4	15.2	0.00e+00	0	39	0	1157627904	68	5069
2026-01-19 22:28:39.55	137.44	8.45	-48.6	-51.3	15.3	0.00e+00	0	39	0	1159725056	68	4992
2026-01-19 22:28:40.55	137.54	8.39	-48.6	-51.3	15.3	0.00e+00	0	39	0	1161822208	68	4987
2026-01-19 22:28:41.56	137.65	8.33	-48.8	-51.6	15.0	0.00e+00	0	39	0	1163919360	68	5171
2026-01-19 22:28:42.57	137.76	8.26	-48.7	-51.3	15.2	0.00e+00	0	39	0	1166016512	68	5040
2026-01-19 22:28:43.58	137.87	8.20	-48.8	-51.5	15.0	0.00e+00	0	39	0	1167065088	68	5122
2026-01-19 22:28:44.59	137.97	8.13	-48.8	-51.6	14.9	0.00e+00	0	39	0	1169162240	68	5168
2026-01-19 22:28:45.59	138.08	8.07	-48.6	-51.2	15.3	0.00e+00	0	39	0	1171259392	68	4963
2026-01-19 22:28:46.60	138.19	8.01	-48.7	-51.4	15.1	0.00e+00	0	39	0	1173356544	68	5099
2026-01-19 22:28:47.61	138.29	7.94	-48.7	-51.4	15.1	0.00e+00	0	39	0	1174405120	68	5047
2026-01-19 22:28:48.62	138.40	7.88	-48.8	-51.6	14.9	0.00e+00	0	39	0	1176502272	68	5181
2026-01-19 22:28:49.63	138.50	7.82	-48.8	-51.5	14.9	0.00e+00	0	39	0	1178599424	68	5138
2026-01-19 22:28:50.63	138.61	7.76	-48.5	-51.1	15.3	0.00e+00	0	39	0	1180696576	68	4923
2026-01-19 22:28:51.64	138.71	7.69	-48.6	-51.3	15.1	0.00e+00	0	39	0	1182793728	68	5018
2026-01-19 22:28:52.65	138.81	7.63	-48.4	-51.0	15.4	0.00e+00	0	39	0	1184890880	68	4862
2026-01-19 22:28:53.66	138.92	7.57	-48.3	-50.8	15.7	0.00e+00	0	39	0	1185939456	68	4707
2026-01-19 22:28:54.67	139.02	7.50	-48.3	-50.8	15.6	0.00e+00	0	39	0	1188036608	68	4715
2026-01-19 22:28:55.67	139.12	7.44	-48.2	-50.7	15.7	0.00e+00	0	39	0	1190133760	68	4688
2026-01-19 22:28:56.68	139.22	7.38	-48.2	-50.7	15.7	0.00e+00	0	39	0	1192230912	68	4673
2026-01-19 22:28:57.69	139.33	7.32	-48.1	-50.6	15.9	0.00e+00	0	39	0	1194328064	68	4604
2026-01-19 22:28:58.69	139.43	7.25	-48.2	-50.7	15.7	0.00e+00	0	39	0	1195376640	68	4697
2026-01-19 22:28:59.70	139.53	7.19	-48.2	-50.6	15.7	0.00e+00	0	39	0	1197473792	68	4649
2026-01-19 22:29:00.71	139.63	7.13	-48.5	-51.2	15.2	0.00e+00	0	39	0	1199570944	68	4937
2026-01-19 22:29:01.72	139.73	7.07	-48.2	-50.7	15.6	0.00e+00	0	39	0	1201668096	68	4688
2026-01-19 22:29:02.73	139.83	7.01	-48.2	-50.7	15.7	0.00e+00	0	39	0	1203765248	68	4687
2026-01-19 22:29:03.74	139.93	6.94	-48.6	-51.3	15.0	0.00e+00	0	39	0	1204813824	68	5010
2026-01-19 22:29:04.75	140.02	6.88	-48.6	-51.4	15.0	0.00e+00	0	39	0	1206910976	68	5065
2026-01-19 22:29:05.75	140.12	6.82	-48.4	-50.9	15.4	0.00e+00	0	39	0	1209008128	68	4811
2026-01-19 22:29:06.76	140.22	6.76	-48.6	-51.4	14.8	0.00e+00	0	39	0	1211105280	68	5099
2026-01-19 22:29:07.77	140.32	6.70	-48.6	-51.4	14.9	0.00e+00	0	39	0	1213202432	68	5078
2026-01-19 22:29:08.77	140.41	6.64	-48.6	-51.3	15.0	0.00e+00	0	39	0	1214251008	68	5030
2026-01-19 22:29:09.78	140.51	6.57	-48.5	-51.2	15.1	0.00e+00	0	39	0	1216348160	68	4946
2026-01-19 22:29:10.79	140.61	6.51	-48.7	-51.5	14.7	0.00e+00	0	39	0	1218445312	68	5159
