passes_logs/2026/01/19/R3.2S_Murmansk/R3.2S_Murmansk__20260119_115627_NOAA_20_JPSS-1_rec.log

#Pass ID: 20260119_115627_NOAA 20 (JPSS-1)
#Satellite: NOAA 20 (JPSS-1)
#Configuration: NOAA 20
#almurnet v.1.7.20251203
#Start time: 2026-01-19 11:56:28

#Version: 2.2.20231116
#Station: R3.2S_Murmansk
#Location: 33.079688 lon 68.888172 lat
#TLE: 1 43013U 17073A   26018.92475364  .00000071  00000+0  54435-4 0  9998
#TLE: 2 43013  98.7641 319.8227 0001354  33.6678 326.4584 14.19536868423299

#Time	Az	El	Level	Level2	SNR	BER	BlckErr	Temp	State	Recorded	gain1	gain2
2026-01-19 11:56:28.30	212.89	2.07	-52.5	-67.5	3.8	1.49e+00	0	36	0	0	77	19278
2026-01-19 11:56:29.31	212.97	2.12	-52.5	-67.5	3.8	1.49e+00	0	36	104	0	75	21539
2026-01-19 11:56:30.31	213.04	2.18	-52.5	-67.5	3.8	1.49e+00	0	36	104	0	75	21523
2026-01-19 11:56:31.32	213.11	2.23	-52.5	-67.5	3.8	1.49e+00	0	36	104	0	75	21615
2026-01-19 11:56:32.32	213.18	2.29	-52.5	-67.5	3.8	1.49e+00	0	36	104	0	75	21530
2026-01-19 11:56:33.33	213.26	2.34	-52.5	-67.5	3.8	1.49e+00	0	36	104	0	75	21555
2026-01-19 11:56:34.34	213.33	2.40	-52.5	-67.5	3.8	1.49e+00	0	36	104	0	75	21515
2026-01-19 11:56:35.35	213.40	2.46	-52.5	-67.4	3.8	1.49e+00	0	36	104	0	75	21465
2026-01-19 11:56:36.36	213.48	2.51	-52.5	-67.4	3.8	1.49e+00	0	36	104	0	75	21370
2026-01-19 11:56:37.37	213.55	2.57	-52.5	-67.3	3.8	1.49e+00	0	36	104	0	75	21183
2026-01-19 11:56:38.37	213.63	2.62	-52.5	-67.3	3.8	1.49e+00	0	36	104	0	75	21177
2026-01-19 11:56:39.38	213.70	2.68	-52.5	-67.3	3.8	1.49e+00	0	36	104	0	75	21095
2026-01-19 11:56:40.39	213.78	2.74	-52.5	-67.3	3.8	1.49e+00	0	36	104	0	75	21119
2026-01-19 11:56:41.40	213.85	2.79	-52.5	-67.3	3.8	1.49e+00	0	36	104	0	75	21191
2026-01-19 11:56:42.41	213.93	2.85	-52.5	-67.3	3.8	1.49e+00	0	36	104	0	75	21229
2026-01-19 11:56:43.42	214.00	2.91	-52.5	-67.3	3.8	1.49e+00	0	36	104	0	75	21169
2026-01-19 11:56:44.43	214.08	2.96	-52.5	-67.4	3.8	1.49e+00	0	36	104	0	75	21290
2026-01-19 11:56:45.43	214.15	3.02	-52.5	-67.4	3.8	1.49e+00	0	36	104	0	75	21340
2026-01-19 11:56:46.44	214.23	3.08	-52.5	-67.4	3.8	1.49e+00	0	36	104	0	75	21301
2026-01-19 11:56:47.45	214.31	3.13	-52.5	-67.4	3.8	1.49e+00	0	36	104	0	75	21351
2026-01-19 11:56:48.46	214.38	3.19	-52.5	-67.4	3.8	1.49e+00	0	36	104	0	75	21280
2026-01-19 11:56:49.46	214.46	3.25	-52.5	-67.4	3.8	1.49e+00	0	36	104	0	75	21393
2026-01-19 11:56:50.47	214.54	3.30	-52.5	-67.4	3.8	1.49e+00	0	36	104	0	75	21267
2026-01-19 11:56:51.48	214.62	3.36	-52.5	-67.3	3.8	1.49e+00	0	36	104	0	75	21215
2026-01-19 11:56:52.49	214.70	3.42	-52.5	-67.3	3.8	1.49e+00	0	36	104	0	75	21041
2026-01-19 11:56:53.50	214.77	3.48	-52.5	-67.3	3.8	1.49e+00	0	36	104	0	75	21022
2026-01-19 11:56:54.50	214.85	3.53	-52.5	-67.3	3.8	1.49e+00	0	36	104	0	75	21032
2026-01-19 11:56:55.51	214.93	3.59	-52.5	-67.3	3.8	1.49e+00	0	37	104	0	75	21186
2026-01-19 11:56:56.52	215.01	3.65	-52.5	-67.4	3.8	1.49e+00	0	36	104	0	75	21424
2026-01-19 11:56:57.53	215.09	3.71	-52.5	-67.4	3.8	1.49e+00	0	36	104	0	75	21469
2026-01-19 11:56:58.54	215.17	3.76	-52.5	-67.4	3.8	1.49e+00	0	36	104	0	75	21435
2026-01-19 11:56:59.55	215.25	3.82	-52.5	-67.3	3.8	1.49e+00	0	36	104	0	75	21228
2026-01-19 11:57:00.56	215.33	3.88	-52.5	-67.2	3.8	1.49e+00	0	36	104	0	75	20973
2026-01-19 11:57:01.56	215.41	3.94	-52.5	-67.2	3.8	1.49e+00	0	37	104	0	75	20931
2026-01-19 11:57:02.57	215.49	4.00	-52.5	-67.3	3.8	1.49e+00	0	37	104	0	75	21112
2026-01-19 11:57:03.58	215.58	4.05	-52.5	-67.3	3.8	1.49e+00	0	36	104	0	75	21237
2026-01-19 11:57:04.59	215.66	4.11	-52.5	-67.3	3.8	1.49e+00	0	36	104	0	75	21169
2026-01-19 11:57:05.60	215.74	4.17	-52.5	-66.8	3.8	1.49e+00	0	37	104	0	75	20028
2026-01-19 11:57:06.61	215.82	4.23	-52.4	-66.1	3.8	1.49e+00	0	37	104	0	75	18449
2026-01-19 11:57:07.62	215.91	4.29	-52.3	-64.5	3.9	1.49e+00	0	37	104	0	75	15358
2026-01-19 11:57:08.63	215.99	4.35	-52.2	-63.3	4.4	1.39e+00	137	37	0	0	75	13319
2026-01-19 11:57:09.63	216.07	4.41	-52.1	-62.2	4.8	9.00e-01	0	37	0	1048576	75	11767
2026-01-19 11:57:10.64	216.16	4.46	-52.0	-61.0	5.5	5.93e-01	0	37	0	3145728	75	10282
2026-01-19 11:57:11.65	216.24	4.52	-51.9	-60.2	6.1	4.12e-01	0	37	0	5242880	75	9374
2026-01-19 11:57:12.66	216.33	4.58	-51.6	-58.9	7.3	1.65e-01	0	37	0	7340032	75	8027
2026-01-19 11:57:13.66	216.41	4.64	-51.3	-57.3	8.8	5.41e-02	0	37	0	9437184	74	7105
2026-01-19 11:57:14.67	216.49	4.70	-51.1	-56.9	9.3	2.09e-02	0	37	0	10485760	74	6735
2026-01-19 11:57:15.68	216.58	4.76	-50.5	-55.1	11.2	7.84e-03	0	37	0	12582912	73	5828
2026-01-19 11:57:16.69	216.67	4.82	-50.0	-53.9	12.4	2.30e-04	0	37	0	14680064	72	5356
2026-01-19 11:57:17.69	216.75	4.88	-49.6	-53.0	13.4	4.27e-05	0	37	0	16777216	71	5144
2026-01-19 11:57:18.70	216.84	4.94	-48.9	-51.7	14.8	0.00e+00	0	37	0	18874368	69	4929
2026-01-19 11:57:19.71	216.92	5.00	-48.6	-51.2	15.3	7.00e-07	0	37	0	20971520	69	4677
2026-01-19 11:57:20.72	217.01	5.06	-48.9	-51.7	14.8	0.00e+00	0	37	0	22020096	69	4981
2026-01-19 11:57:21.72	217.10	5.11	-50.3	-54.3	12.2	0.00e+00	0	37	0	24117248	71	5960
2026-01-19 11:57:22.73	217.19	5.17	-48.7	-51.3	15.2	9.90e-06	0	37	0	26214400	68	5041
2026-01-19 11:57:23.74	217.27	5.23	-49.9	-53.7	12.8	3.80e-06	0	37	0	28311552	70	5894
2026-01-19 11:57:24.75	217.36	5.29	-50.2	-54.1	12.8	4.03e-04	0	37	0	29360128	70	6174
2026-01-19 11:57:25.75	217.45	5.35	-49.2	-52.2	14.3	1.11e-03	0	37	0	31457280	70	4956
2026-01-19 11:57:26.76	217.54	5.41	-48.5	-51.1	15.4	0.00e+00	0	37	0	33554432	69	4628
2026-01-19 11:57:27.77	217.63	5.47	-48.7	-51.4	15.2	0.00e+00	0	37	0	35651584	69	4774
2026-01-19 11:57:28.78	217.72	5.53	-48.7	-51.3	15.2	0.00e+00	0	37	0	37748736	69	4739
2026-01-19 11:57:29.78	217.81	5.59	-48.6	-51.3	15.3	0.00e+00	0	37	0	38797312	69	4726
2026-01-19 11:57:30.79	217.90	5.65	-48.8	-51.5	15.1	0.00e+00	0	37	0	40894464	69	4834
2026-01-19 11:57:31.80	217.99	5.72	-48.9	-51.6	15.0	0.00e+00	0	37	0	42991616	69	4903
2026-01-19 11:57:32.81	218.08	5.78	-48.4	-50.8	15.8	0.00e+00	0	37	0	45088768	68	4737
2026-01-19 11:57:33.82	218.17	5.84	-48.4	-50.8	15.8	0.00e+00	0	37	0	47185920	68	4739
2026-01-19 11:57:34.82	218.27	5.90	-48.1	-50.4	16.2	0.00e+00	0	37	0	49283072	68	4510
2026-01-19 11:57:35.83	218.36	5.96	-48.1	-50.4	16.3	0.00e+00	0	37	0	50331648	68	4502
2026-01-19 11:57:36.84	218.45	6.02	-48.1	-50.4	16.2	0.00e+00	0	37	0	52428800	68	4535
2026-01-19 11:57:37.85	218.54	6.08	-48.2	-50.5	16.1	0.00e+00	0	37	0	54525952	68	4556
2026-01-19 11:57:38.86	218.64	6.14	-47.9	-50.2	16.4	0.00e+00	0	37	0	56623104	67	4663
2026-01-19 11:57:39.86	218.73	6.20	-48.0	-50.3	16.3	0.00e+00	0	37	0	57671680	67	4722
2026-01-19 11:57:40.87	218.82	6.26	-48.1	-50.4	16.2	0.00e+00	0	37	0	59768832	67	4766
2026-01-19 11:57:41.88	218.92	6.32	-47.9	-50.1	16.4	0.00e+00	0	37	0	61865984	67	4647
2026-01-19 11:57:42.89	219.01	6.39	-48.0	-50.3	16.3	0.00e+00	0	37	0	63963136	67	4748
2026-01-19 11:57:43.90	219.11	6.45	-48.0	-50.3	16.3	0.00e+00	0	37	0	66060288	67	4737
2026-01-19 11:57:44.90	219.20	6.51	-47.9	-50.1	16.5	0.00e+00	0	37	0	68157440	67	4615
2026-01-19 11:57:45.91	219.30	6.57	-48.0	-50.2	16.4	0.00e+00	0	37	0	69206016	67	4704
2026-01-19 11:57:46.92	219.40	6.63	-48.1	-50.3	16.3	0.00e+00	0	37	0	71303168	67	4753
2026-01-19 11:57:47.93	219.49	6.69	-47.7	-49.8	16.8	0.00e+00	0	37	0	73400320	67	4468
2026-01-19 11:57:48.94	219.59	6.75	-48.0	-50.2	16.4	0.00e+00	0	37	0	75497472	67	4676
2026-01-19 11:57:49.95	219.69	6.82	-47.8	-49.9	16.7	0.00e+00	0	37	0	77594624	67	4531
2026-01-19 11:57:50.96	219.79	6.88	-48.1	-50.3	16.3	0.00e+00	0	37	0	78643200	67	4741
2026-01-19 11:57:51.96	219.89	6.94	-47.9	-50.1	16.6	0.00e+00	0	37	0	80740352	67	4601
2026-01-19 11:57:52.97	219.98	7.00	-47.9	-50.1	16.6	0.00e+00	0	37	0	82837504	67	4614
2026-01-19 11:57:53.98	220.08	7.06	-48.0	-50.3	16.4	0.00e+00	0	37	0	84934656	67	4712
2026-01-19 11:57:54.99	220.18	7.13	-47.9	-50.1	16.5	0.00e+00	0	37	0	85983232	67	4634
2026-01-19 11:57:56.00	220.28	7.19	-48.1	-50.4	16.3	0.00e+00	0	37	0	88080384	67	4784
2026-01-19 11:57:57.01	220.38	7.25	-48.1	-50.3	16.4	0.00e+00	0	37	0	90177536	67	4738
2026-01-19 11:57:58.01	220.48	7.31	-48.0	-50.3	16.4	0.00e+00	0	37	0	92274688	67	4716
2026-01-19 11:57:59.02	220.59	7.38	-48.0	-50.2	16.5	0.00e+00	0	37	0	94371840	67	4692
2026-01-19 11:58:00.03	220.69	7.44	-48.0	-50.1	16.6	0.00e+00	0	37	0	96468992	67	4641
2026-01-19 11:58:01.04	220.79	7.50	-47.9	-50.1	16.7	0.00e+00	0	37	0	97517568	67	4599
2026-01-19 11:58:02.04	220.89	7.56	-47.9	-50.0	16.8	0.00e+00	0	37	0	99614720	67	4569
2026-01-19 11:58:03.05	221.00	7.63	-47.7	-49.7	17.0	0.00e+00	0	37	0	101711872	67	4429
2026-01-19 11:58:04.06	221.10	7.69	-47.9	-50.0	16.7	0.00e+00	0	37	0	103809024	67	4587
2026-01-19 11:58:05.07	221.20	7.75	-47.7	-49.7	17.1	0.00e+00	0	37	0	105906176	67	4412
2026-01-19 11:58:06.07	221.31	7.82	-47.7	-49.7	17.1	0.00e+00	0	37	0	106954752	67	4419
2026-01-19 11:58:07.08	221.41	7.88	-47.7	-49.7	17.1	0.00e+00	0	37	0	109051904	67	4409
2026-01-19 11:58:08.09	221.52	7.94	-47.5	-49.5	17.3	0.00e+00	0	37	0	111149056	67	4323
2026-01-19 11:58:09.10	221.62	8.01	-47.4	-49.3	17.5	0.00e+00	0	37	0	113246208	66	4475
2026-01-19 11:58:10.11	221.73	8.07	-47.5	-49.5	17.3	0.00e+00	0	37	0	115343360	66	4581
2026-01-19 11:58:11.11	221.83	8.13	-47.5	-49.5	17.3	0.00e+00	0	37	0	116391936	66	4549
2026-01-19 11:58:12.12	221.94	8.20	-47.4	-49.4	17.4	0.00e+00	0	37	0	118489088	66	4494
2026-01-19 11:58:13.13	222.05	8.26	-47.5	-49.5	17.3	0.00e+00	0	37	0	120586240	66	4566
2026-01-19 11:58:14.13	222.16	8.32	-47.7	-49.7	17.1	0.00e+00	0	37	0	122683392	66	4705
2026-01-19 11:58:15.14	222.26	8.39	-47.6	-49.7	17.1	0.00e+00	0	37	0	124780544	66	4657
2026-01-19 11:58:16.15	222.37	8.45	-47.7	-49.7	17.1	0.00e+00	0	37	0	125829120	66	4677
2026-01-19 11:58:17.16	222.48	8.52	-47.6	-49.6	17.2	0.00e+00	0	37	0	127926272	66	4603
2026-01-19 11:58:18.16	222.59	8.58	-47.7	-49.7	17.2	0.00e+00	0	37	0	130023424	66	4659
2026-01-19 11:58:19.17	222.70	8.64	-47.7	-49.7	17.1	0.00e+00	0	37	0	132120576	66	4691
2026-01-19 11:58:20.18	222.81	8.71	-47.8	-49.9	17.0	0.00e+00	0	37	0	134217728	66	4764
2026-01-19 11:58:21.19	222.92	8.77	-47.6	-49.6	17.2	0.00e+00	0	37	0	135266304	66	4628
2026-01-19 11:58:22.20	223.03	8.84	-47.7	-49.7	17.1	0.00e+00	0	37	0	137363456	66	4684
2026-01-19 11:58:23.21	223.15	8.90	-47.9	-50.0	16.9	0.00e+00	0	37	0	139460608	66	4822
2026-01-19 11:58:24.21	223.26	8.97	-47.7	-49.7	17.1	0.00e+00	0	37	0	141557760	66	4685
2026-01-19 11:58:25.22	223.37	9.03	-47.7	-49.7	17.2	0.00e+00	0	37	0	143654912	66	4675
2026-01-19 11:58:26.23	223.48	9.10	-47.7	-49.8	17.1	0.00e+00	0	37	0	144703488	66	4714
2026-01-19 11:58:27.23	223.60	9.16	-47.7	-49.7	17.2	0.00e+00	0	37	0	146800640	66	4657
2026-01-19 11:58:28.24	223.71	9.22	-47.6	-49.6	17.3	0.00e+00	0	37	0	148897792	66	4630
2026-01-19 11:58:29.25	223.83	9.29	-47.6	-49.6	17.3	0.00e+00	0	37	0	150994944	66	4628
2026-01-19 11:58:30.26	223.94	9.35	-47.4	-49.4	17.5	0.00e+00	0	37	0	153092096	66	4497
2026-01-19 11:58:31.27	224.06	9.42	-47.6	-49.6	17.3	0.00e+00	0	37	0	154140672	66	4633
2026-01-19 11:58:32.27	224.17	9.48	-47.6	-49.6	17.3	0.00e+00	0	37	0	156237824	66	4631
2026-01-19 11:58:33.28	224.29	9.55	-47.6	-49.6	17.3	0.00e+00	0	37	0	158334976	66	4612
2026-01-19 11:58:34.29	224.41	9.61	-47.6	-49.6	17.3	0.00e+00	0	37	0	160432128	66	4609
2026-01-19 11:58:35.29	224.53	9.68	-47.6	-49.5	17.4	0.00e+00	0	37	0	162529280	66	4576
2026-01-19 11:58:36.30	224.64	9.75	-47.6	-49.5	17.4	0.00e+00	0	37	0	164626432	66	4569
2026-01-19 11:58:37.31	224.76	9.81	-47.5	-49.4	17.5	0.00e+00	0	37	0	165675008	66	4519
2026-01-19 11:58:38.32	224.88	9.88	-47.5	-49.5	17.5	0.00e+00	0	37	0	167772160	66	4560
2026-01-19 11:58:39.32	225.00	9.94	-47.5	-49.5	17.5	0.00e+00	0	37	0	169869312	66	4549
2026-01-19 11:58:40.33	225.12	10.01	-47.4	-49.2	17.7	0.00e+00	0	37	0	171966464	66	4438
2026-01-19 11:58:41.34	225.24	10.07	-47.4	-49.3	17.6	0.00e+00	0	37	0	173015040	66	4482
2026-01-19 11:58:42.35	225.36	10.14	-47.4	-49.2	17.7	0.00e+00	0	37	0	175112192	66	4439
2026-01-19 11:58:43.36	225.49	10.20	-47.4	-49.2	17.7	0.00e+00	0	37	0	177209344	66	4440
2026-01-19 11:58:44.37	225.61	10.27	-47.2	-49.0	18.0	0.00e+00	0	37	0	179306496	66	4297
2026-01-19 11:58:45.37	225.73	10.34	-47.3	-49.1	17.8	0.00e+00	0	37	0	181403648	66	4357
2026-01-19 11:58:46.38	225.86	10.40	-47.3	-49.2	17.8	0.00e+00	0	37	0	182452224	66	4398
2026-01-19 11:58:47.39	225.98	10.47	-47.3	-49.2	17.8	0.00e+00	0	37	0	184549376	66	4403
2026-01-19 11:58:48.40	226.10	10.53	-47.2	-49.0	17.9	0.00e+00	0	37	0	186646528	66	4338
2026-01-19 11:58:49.41	226.23	10.60	-47.2	-49.1	17.9	0.00e+00	0	37	0	188743680	66	4343
2026-01-19 11:58:50.41	226.35	10.67	-47.2	-49.0	18.0	0.00e+00	0	37	0	190840832	66	4302
2026-01-19 11:58:51.42	226.48	10.73	-47.2	-48.9	18.1	0.00e+00	0	37	0	192937984	66	4281
2026-01-19 11:58:52.43	226.61	10.80	-47.1	-48.9	18.1	0.00e+00	0	37	0	193986560	66	4256
2026-01-19 11:58:53.44	226.74	10.87	-46.9	-48.6	18.3	0.00e+00	0	37	0	196083712	65	4387
2026-01-19 11:58:54.45	226.86	10.93	-47.0	-48.7	18.3	0.00e+00	0	37	0	198180864	65	4412
2026-01-19 11:58:55.45	226.99	11.00	-47.0	-48.7	18.3	0.00e+00	0	37	0	200278016	65	4429
2026-01-19 11:58:56.46	227.12	11.07	-47.0	-48.8	18.2	0.00e+00	0	37	0	201326592	65	4448
2026-01-19 11:58:57.46	227.25	11.13	-46.9	-48.6	18.4	0.00e+00	0	37	0	203423744	65	4365
2026-01-19 11:58:58.47	227.38	11.20	-47.0	-48.7	18.2	0.00e+00	0	37	0	205520896	65	4412
2026-01-19 11:58:59.48	227.51	11.26	-46.9	-48.6	18.4	0.00e+00	0	37	0	207618048	65	4378
2026-01-19 11:59:00.49	227.64	11.33	-46.9	-48.6	18.4	0.00e+00	0	37	0	209715200	65	4368
2026-01-19 11:59:01.50	227.77	11.40	-46.9	-48.6	18.4	0.00e+00	0	37	0	211812352	65	4379
2026-01-19 11:59:02.50	227.91	11.46	-47.0	-48.7	18.3	0.00e+00	0	37	0	212860928	65	4438
2026-01-19 11:59:03.51	228.04	11.53	-46.9	-48.6	18.4	0.00e+00	0	37	0	214958080	65	4368
2026-01-19 11:59:04.52	228.17	11.60	-47.0	-48.7	18.3	0.00e+00	0	37	0	217055232	65	4433
2026-01-19 11:59:05.53	228.31	11.67	-47.0	-48.7	18.3	0.00e+00	0	37	0	219152384	65	4421
2026-01-19 11:59:06.54	228.44	11.73	-47.0	-48.7	18.3	0.00e+00	0	37	0	221249536	65	4398
2026-01-19 11:59:07.55	228.58	11.80	-46.9	-48.6	18.4	0.00e+00	0	37	0	222298112	65	4358
2026-01-19 11:59:08.55	228.71	11.87	-47.0	-48.7	18.3	0.00e+00	0	38	0	224395264	65	4423
2026-01-19 11:59:09.56	228.85	11.93	-46.9	-48.7	18.3	0.00e+00	0	37	0	226492416	65	4393
2026-01-19 11:59:10.57	228.99	12.00	-46.9	-48.6	18.5	0.00e+00	0	37	0	228589568	65	4348
2026-01-19 11:59:11.58	229.12	12.07	-46.8	-48.5	18.5	0.00e+00	0	37	0	229638144	65	4320
2026-01-19 11:59:12.59	229.26	12.14	-46.9	-48.6	18.4	0.00e+00	0	37	0	231735296	65	4368
2026-01-19 11:59:13.59	229.40	12.20	-46.8	-48.5	18.5	0.00e+00	0	37	0	233832448	65	4320
2026-01-19 11:59:14.60	229.54	12.27	-46.9	-48.5	18.5	0.00e+00	0	37	0	235929600	65	4331
2026-01-19 11:59:15.61	229.68	12.34	-46.9	-48.5	18.5	0.00e+00	0	37	0	238026752	65	4335
2026-01-19 11:59:16.62	229.82	12.41	-46.8	-48.5	18.6	0.00e+00	0	37	0	240123904	65	4304
2026-01-19 11:59:17.62	229.96	12.47	-46.8	-48.5	18.5	0.00e+00	0	37	0	241172480	65	4323
2026-01-19 11:59:18.63	230.11	12.54	-46.9	-48.6	18.4	0.00e+00	0	37	0	243269632	65	4379
2026-01-19 11:59:19.64	230.25	12.61	-47.0	-48.7	18.3	0.00e+00	0	37	0	245366784	65	4410
2026-01-19 11:59:20.65	230.39	12.68	-46.8	-48.4	18.6	0.00e+00	0	37	0	247463936	65	4267
2026-01-19 11:59:21.65	230.53	12.74	-46.7	-48.3	18.7	0.00e+00	0	37	0	249561088	65	4230
2026-01-19 11:59:22.66	230.68	12.81	-46.7	-48.4	18.7	0.00e+00	0	37	0	250609664	65	4251
2026-01-19 11:59:23.66	230.82	12.88	-46.7	-48.3	18.7	0.00e+00	0	37	0	252706816	65	4228
2026-01-19 11:59:24.68	230.97	12.95	-46.6	-48.2	18.8	0.00e+00	0	37	0	254803968	65	4183
2026-01-19 11:59:25.68	231.12	13.01	-46.7	-48.3	18.8	0.00e+00	0	37	0	256901120	65	4219
2026-01-19 11:59:26.69	231.26	13.08	-46.7	-48.4	18.7	0.00e+00	0	37	0	257949696	65	4253
2026-01-19 11:59:27.70	231.41	13.15	-46.8	-48.5	18.6	0.00e+00	0	37	0	260046848	65	4295
2026-01-19 11:59:28.71	231.56	13.22	-46.7	-48.4	18.7	0.00e+00	0	37	0	262144000	65	4252
2026-01-19 11:59:29.72	231.71	13.28	-46.7	-48.3	18.7	0.00e+00	0	37	0	264241152	65	4235
2026-01-19 11:59:30.72	231.86	13.35	-46.8	-48.4	18.7	0.00e+00	0	38	0	266338304	65	4274
2026-01-19 11:59:31.73	232.01	13.42	-46.7	-48.3	18.8	0.00e+00	0	37	0	268435456	65	4212
2026-01-19 11:59:32.74	232.16	13.49	-46.8	-48.4	18.7	0.00e+00	0	37	0	269484032	65	4271
2026-01-19 11:59:33.75	232.31	13.56	-46.7	-48.3	18.8	0.00e+00	0	37	0	271581184	65	4229
2026-01-19 11:59:34.76	232.47	13.62	-46.8	-48.4	18.7	0.00e+00	0	37	0	273678336	65	4264
2026-01-19 11:59:35.77	232.62	13.69	-46.8	-48.5	18.6	0.00e+00	0	37	0	275775488	65	4313
2026-01-19 11:59:36.77	232.77	13.76	-46.7	-48.4	18.7	0.00e+00	0	37	0	277872640	65	4255
2026-01-19 11:59:37.78	232.93	13.83	-46.7	-48.3	18.8	0.00e+00	0	37	0	278921216	65	4230
2026-01-19 11:59:38.79	233.08	13.89	-46.6	-48.2	18.9	0.00e+00	0	37	0	281018368	65	4176
2026-01-19 11:59:39.80	233.24	13.96	-46.6	-48.2	18.9	0.00e+00	0	37	0	283115520	65	4167
2026-01-19 11:59:40.80	233.39	14.03	-46.6	-48.2	18.9	0.00e+00	0	38	0	285212672	65	4182
2026-01-19 11:59:41.81	233.55	14.10	-46.7	-48.3	18.8	0.00e+00	0	37	0	287309824	65	4220
2026-01-19 11:59:42.82	233.71	14.17	-46.6	-48.1	19.0	0.00e+00	0	37	0	288358400	65	4136
2026-01-19 11:59:43.82	233.87	14.23	-46.6	-48.2	18.9	0.00e+00	0	37	0	290455552	65	4185
2026-01-19 11:59:44.83	234.03	14.30	-46.6	-48.1	19.0	0.00e+00	0	38	0	292552704	65	4138
2026-01-19 11:59:45.84	234.19	14.37	-46.6	-48.1	19.0	0.00e+00	0	37	0	294649856	65	4139
2026-01-19 11:59:46.85	234.35	14.44	-46.6	-48.2	19.0	0.00e+00	0	37	0	296747008	65	4151
2026-01-19 11:59:47.86	234.51	14.50	-46.7	-48.2	18.9	0.00e+00	0	37	0	297795584	65	4193
2026-01-19 11:59:48.87	234.67	14.57	-46.6	-48.2	18.9	0.00e+00	0	37	0	299892736	65	4175
2026-01-19 11:59:49.87	234.83	14.64	-46.7	-48.3	18.8	0.00e+00	0	37	0	301989888	65	4223
2026-01-19 11:59:50.88	235.00	14.71	-46.8	-48.4	18.8	0.00e+00	0	37	0	304087040	65	4254
2026-01-19 11:59:51.89	235.16	14.77	-46.8	-48.4	18.7	0.00e+00	0	37	0	306184192	65	4265
2026-01-19 11:59:52.90	235.33	14.84	-46.7	-48.3	18.8	0.00e+00	0	37	0	308281344	65	4215
2026-01-19 11:59:53.91	235.49	14.91	-46.7	-48.3	18.8	0.00e+00	0	38	0	309329920	65	4235
2026-01-19 11:59:54.91	235.66	14.98	-46.7	-48.3	18.8	0.00e+00	0	38	0	311427072	65	4231
2026-01-19 11:59:55.92	235.83	15.04	-46.7	-48.3	18.8	0.00e+00	0	37	0	313524224	65	4214
2026-01-19 11:59:56.93	236.00	15.11	-46.7	-48.3	18.9	0.00e+00	0	38	0	315621376	65	4202
2026-01-19 11:59:57.93	236.16	15.18	-46.8	-48.4	18.8	0.00e+00	0	37	0	316669952	65	4258
2026-01-19 11:59:58.94	236.33	15.25	-46.8	-48.4	18.8	0.00e+00	0	37	0	318767104	65	4247
2026-01-19 11:59:59.95	236.50	15.31	-46.6	-48.2	18.9	0.00e+00	0	38	0	320864256	65	4179
2026-01-19 12:00:00.96	236.67	15.38	-46.7	-48.3	18.9	0.00e+00	0	37	0	322961408	65	4214
2026-01-19 12:00:01.96	236.84	15.45	-46.7	-48.3	18.8	0.00e+00	0	37	0	325058560	65	4229
2026-01-19 12:00:02.97	237.02	15.51	-46.7	-48.3	18.9	0.00e+00	0	37	0	326107136	65	4226
2026-01-19 12:00:03.98	237.19	15.58	-46.7	-48.3	18.9	0.00e+00	0	38	0	328204288	65	4225
2026-01-19 12:00:04.99	237.36	15.65	-46.7	-48.3	18.9	0.00e+00	0	37	0	330301440	65	4234
2026-01-19 12:00:05.99	237.54	15.72	-46.8	-48.4	18.8	0.00e+00	0	38	0	332398592	65	4263
2026-01-19 12:00:07.00	237.71	15.78	-46.8	-48.4	18.8	0.00e+00	0	38	0	334495744	65	4265
2026-01-19 12:00:08.01	237.89	15.85	-46.7	-48.3	18.9	0.00e+00	0	37	0	336592896	65	4201
2026-01-19 12:00:09.02	238.07	15.92	-46.7	-48.3	18.9	0.00e+00	0	38	0	337641472	65	4194
2026-01-19 12:00:10.02	238.24	15.98	-46.6	-48.2	19.0	0.00e+00	0	37	0	339738624	65	4162
2026-01-19 12:00:11.02	238.42	16.05	-46.6	-48.1	19.0	0.00e+00	0	37	0	341835776	65	4137
2026-01-19 12:00:12.03	238.60	16.11	-46.6	-48.2	19.0	0.00e+00	0	37	0	343932928	65	4159
2026-01-19 12:00:13.04	238.78	16.18	-46.6	-48.2	19.0	0.00e+00	0	37	0	344981504	65	4166
2026-01-19 12:00:14.05	238.96	16.25	-46.7	-48.3	18.9	0.00e+00	0	38	0	347078656	65	4219
2026-01-19 12:00:15.06	239.14	16.31	-46.6	-48.2	19.0	0.00e+00	0	37	0	349175808	65	4167
2026-01-19 12:00:16.07	239.33	16.38	-46.7	-48.2	19.0	0.00e+00	0	37	0	351272960	65	4187
2026-01-19 12:00:17.07	239.51	16.45	-46.5	-48.0	19.1	0.00e+00	0	38	0	353370112	65	4090
2026-01-19 12:00:18.08	239.69	16.51	-46.4	-47.9	19.3	0.00e+00	0	37	0	354418688	64	4252
2026-01-19 12:00:19.09	239.88	16.58	-46.4	-47.9	19.3	0.00e+00	0	37	0	356515840	64	4243
2026-01-19 12:00:20.10	240.06	16.64	-46.3	-47.8	19.3	0.00e+00	0	38	0	358612992	64	4221
2026-01-19 12:00:21.10	240.25	16.71	-46.4	-47.9	19.3	0.00e+00	0	37	0	360710144	64	4268
2026-01-19 12:00:22.11	240.44	16.77	-46.4	-47.9	19.3	0.00e+00	0	38	0	362807296	64	4253
2026-01-19 12:00:23.12	240.62	16.84	-46.4	-48.0	19.2	0.00e+00	0	37	0	364904448	64	4296
2026-01-19 12:00:24.13	240.81	16.91	-46.4	-48.0	19.2	0.00e+00	0	38	0	365953024	64	4296
2026-01-19 12:00:25.13	241.00	16.97	-46.4	-48.0	19.2	0.00e+00	0	38	0	368050176	64	4297
2026-01-19 12:00:26.14	241.19	17.04	-46.4	-48.0	19.2	0.00e+00	0	37	0	370147328	64	4297
2026-01-19 12:00:27.15	241.38	17.10	-46.4	-47.9	19.3	0.00e+00	0	37	0	372244480	64	4244
2026-01-19 12:00:28.16	241.58	17.17	-46.2	-47.7	19.4	0.00e+00	0	38	0	373293056	64	4176
2026-01-19 12:00:29.17	241.77	17.23	-46.3	-47.8	19.4	0.00e+00	0	37	0	375390208	64	4197
2026-01-19 12:00:30.17	241.96	17.29	-46.1	-47.5	19.5	0.00e+00	0	38	0	377487360	64	4094
2026-01-19 12:00:31.18	242.15	17.36	-46.1	-47.5	19.7	0.00e+00	0	37	0	379584512	64	4087
2026-01-19 12:00:32.19	242.35	17.42	-46.1	-47.5	19.8	0.00e+00	0	38	0	381681664	63	4305
2026-01-19 12:00:33.20	242.55	17.49	-46.1	-47.5	19.9	0.00e+00	0	38	0	383778816	63	4293
2026-01-19 12:00:34.21	242.74	17.55	-46.1	-47.5	19.8	0.00e+00	0	37	0	384827392	63	4294
2026-01-19 12:00:35.21	242.94	17.61	-46.1	-47.5	19.9	0.00e+00	0	37	0	386924544	63	4298
2026-01-19 12:00:36.22	243.14	17.68	-46.0	-47.4	19.9	0.00e+00	0	38	0	389021696	63	4269
2026-01-19 12:00:37.23	243.34	17.74	-46.0	-47.4	19.9	0.00e+00	0	38	0	391118848	63	4280
2026-01-19 12:00:38.24	243.54	17.81	-45.9	-47.3	20.0	0.00e+00	0	37	0	393216000	63	4225
2026-01-19 12:00:39.25	243.74	17.87	-45.9	-47.3	20.0	0.00e+00	0	38	0	394264576	63	4214
2026-01-19 12:00:40.25	243.94	17.93	-45.9	-47.3	20.0	0.00e+00	0	37	0	396361728	63	4206
2026-01-19 12:00:41.26	244.14	17.99	-45.9	-47.2	20.1	0.00e+00	0	38	0	398458880	63	4172
2026-01-19 12:00:42.27	244.34	18.06	-45.8	-47.1	20.2	0.00e+00	0	38	0	400556032	63	4139
2026-01-19 12:00:43.28	244.55	18.12	-45.9	-47.2	20.1	0.00e+00	0	38	0	401604608	63	4180
2026-01-19 12:00:44.29	244.75	18.18	-45.9	-47.3	20.0	0.00e+00	0	37	0	403701760	63	4222
2026-01-19 12:00:45.29	244.96	18.24	-45.9	-47.3	20.0	0.00e+00	0	38	0	405798912	63	4226
2026-01-19 12:00:46.30	245.16	18.30	-46.0	-47.4	20.0	0.00e+00	0	37	0	407896064	63	4266
2026-01-19 12:00:47.31	245.37	18.37	-46.0	-47.3	20.0	0.00e+00	0	38	0	409993216	63	4242
2026-01-19 12:00:48.31	245.58	18.43	-46.1	-47.4	19.9	0.00e+00	0	38	0	412090368	63	4289
2026-01-19 12:00:49.32	245.79	18.49	-46.1	-47.5	19.8	0.00e+00	0	37	0	413138944	63	4325
2026-01-19 12:00:50.33	246.00	18.55	-46.1	-47.5	19.8	0.00e+00	0	37	0	415236096	63	4311
2026-01-19 12:00:51.34	246.21	18.61	-46.1	-47.4	19.9	0.00e+00	0	37	0	417333248	63	4291
2026-01-19 12:00:52.34	246.42	18.67	-46.1	-47.5	19.8	0.00e+00	0	37	0	419430400	63	4336
2026-01-19 12:00:53.35	246.63	18.73	-46.1	-47.6	19.8	0.00e+00	0	37	0	421527552	63	4341
2026-01-19 12:00:54.36	246.84	18.79	-46.2	-47.6	19.7	0.00e+00	0	37	0	422576128	63	4364
2026-01-19 12:00:55.37	247.06	18.85	-46.2	-47.6	19.7	0.00e+00	0	38	0	424673280	63	4369
2026-01-19 12:00:56.38	247.27	18.91	-46.4	-47.9	19.5	0.00e+00	0	37	0	426770432	63	4520
2026-01-19 12:00:57.38	247.49	18.97	-46.6	-48.1	19.3	0.00e+00	0	38	0	428867584	63	4628
2026-01-19 12:00:58.39	247.70	19.03	-46.7	-48.2	19.1	0.00e+00	0	38	0	429916160	64	4426
2026-01-19 12:00:59.40	247.92	19.09	-46.8	-48.4	18.9	0.00e+00	0	38	0	432013312	64	4504
2026-01-19 12:01:00.40	248.14	19.14	-46.9	-48.5	18.8	0.00e+00	0	37	0	434110464	64	4558
2026-01-19 12:01:01.41	248.36	19.20	-46.9	-48.5	18.8	0.00e+00	0	38	0	436207616	64	4594
2026-01-19 12:01:02.42	248.57	19.26	-47.1	-48.7	18.6	0.00e+00	0	38	0	438304768	64	4699
2026-01-19 12:01:03.43	248.80	19.32	-46.9	-48.5	18.8	0.00e+00	0	37	0	440401920	64	4570
2026-01-19 12:01:04.43	249.01	19.38	-46.9	-48.5	18.8	0.00e+00	0	38	0	441450496	64	4584
2026-01-19 12:01:05.44	249.24	19.43	-46.9	-48.5	18.8	0.00e+00	0	37	0	443547648	64	4575
2026-01-19 12:01:06.45	249.46	19.49	-46.9	-48.6	18.7	0.00e+00	0	38	0	445644800	64	4599
2026-01-19 12:01:07.46	249.68	19.55	-47.1	-48.8	18.5	0.00e+00	0	38	0	447741952	64	4706
2026-01-19 12:01:08.46	249.91	19.60	-47.2	-48.9	18.4	0.00e+00	0	38	0	449839104	64	4792
2026-01-19 12:01:09.47	250.13	19.66	-47.3	-49.1	18.3	0.00e+00	0	38	0	450887680	65	4618
2026-01-19 12:01:10.48	250.36	19.71	-47.6	-49.4	18.0	0.00e+00	0	37	0	452984832	65	4774
2026-01-19 12:01:11.49	250.58	19.77	-47.7	-49.6	17.7	0.00e+00	0	38	0	455081984	66	4637
2026-01-19 12:01:12.49	250.81	19.82	-47.9	-49.9	17.5	0.00e+00	0	38	0	457179136	66	4761
2026-01-19 12:01:13.50	251.04	19.88	-48.0	-50.0	17.3	0.00e+00	0	37	0	459276288	66	4845
2026-01-19 12:01:14.51	251.27	19.93	-48.1	-50.1	17.3	0.00e+00	0	37	0	460324864	66	4906
2026-01-19 12:01:15.51	251.50	19.99	-48.1	-50.2	17.2	0.00e+00	0	38	0	462422016	66	4932
2026-01-19 12:01:16.52	251.73	20.04	-48.1	-50.1	17.2	0.00e+00	0	37	0	464519168	66	4899
2026-01-19 12:01:17.53	251.96	20.09	-48.0	-50.0	17.3	0.00e+00	0	38	0	466616320	66	4853
2026-01-19 12:01:18.54	252.19	20.15	-47.9	-49.8	17.6	0.00e+00	0	38	0	468713472	66	4716
2026-01-19 12:01:19.54	252.42	20.20	-47.8	-49.7	17.7	0.00e+00	0	38	0	469762048	66	4667
2026-01-19 12:01:20.56	252.66	20.25	-47.8	-49.7	17.6	0.00e+00	0	37	0	471859200	66	4703
2026-01-19 12:01:21.56	252.89	20.30	-47.7	-49.6	17.8	0.00e+00	0	38	0	473956352	66	4605
2026-01-19 12:01:22.57	253.13	20.36	-47.7	-49.6	17.8	0.00e+00	0	38	0	476053504	66	4615
2026-01-19 12:01:23.58	253.36	20.41	-47.7	-49.5	17.8	0.00e+00	0	37	0	478150656	66	4573
2026-01-19 12:01:24.59	253.60	20.46	-47.7	-49.5	17.8	0.00e+00	0	38	0	479199232	66	4594
2026-01-19 12:01:25.59	253.84	20.51	-47.7	-49.5	17.8	0.00e+00	0	38	0	481296384	66	4580
2026-01-19 12:01:26.60	254.07	20.56	-47.7	-49.5	17.8	0.00e+00	0	38	0	483393536	66	4596
2026-01-19 12:01:27.61	254.31	20.61	-47.6	-49.5	17.9	0.00e+00	0	38	0	485490688	66	4553
2026-01-19 12:01:28.62	254.55	20.66	-47.6	-49.5	17.9	0.00e+00	0	38	0	487587840	66	4559
2026-01-19 12:01:29.63	254.80	20.71	-47.6	-49.4	17.9	0.00e+00	0	38	0	488636416	66	4534
2026-01-19 12:01:30.63	255.03	20.75	-47.5	-49.3	18.0	0.00e+00	0	38	0	490733568	66	4459
2026-01-19 12:01:31.64	255.28	20.80	-47.3	-49.1	18.2	0.00e+00	0	38	0	492830720	66	4354
2026-01-19 12:01:32.65	255.52	20.85	-47.0	-48.7	18.7	0.00e+00	0	37	0	494927872	66	4151
2026-01-19 12:01:33.66	255.76	20.90	-46.8	-48.3	19.0	0.00e+00	0	38	0	497025024	65	4230
2026-01-19 12:01:34.66	256.01	20.94	-46.8	-48.3	19.0	0.00e+00	0	38	0	498073600	65	4241
2026-01-19 12:01:35.67	256.25	20.99	-46.7	-48.2	19.1	0.00e+00	0	38	0	500170752	65	4184
2026-01-19 12:01:36.67	256.49	21.04	-46.8	-48.4	19.0	0.00e+00	0	38	0	502267904	65	4254
2026-01-19 12:01:37.67	256.74	21.08	-47.0	-48.6	18.7	0.00e+00	0	38	0	504365056	65	4351
2026-01-19 12:01:38.68	256.99	21.13	-47.1	-48.8	18.5	0.00e+00	0	38	0	506462208	65	4484
2026-01-19 12:01:39.69	257.23	21.17	-47.4	-49.1	18.2	0.00e+00	0	38	0	507510784	65	4626
2026-01-19 12:01:40.70	257.48	21.21	-47.4	-49.2	18.1	0.00e+00	0	38	0	509607936	65	4685
2026-01-19 12:01:41.70	257.73	21.26	-47.4	-49.2	18.2	0.00e+00	0	37	0	511705088	65	4672
2026-01-19 12:01:42.71	257.98	21.30	-47.4	-49.1	18.2	0.00e+00	0	38	0	513802240	65	4636
2026-01-19 12:01:43.72	258.23	21.34	-47.4	-49.2	18.1	0.00e+00	0	37	0	515899392	65	4686
2026-01-19 12:01:44.72	258.48	21.39	-47.2	-48.9	18.4	0.00e+00	0	38	0	516947968	65	4529
2026-01-19 12:01:45.73	258.73	21.43	-47.3	-49.0	18.3	0.00e+00	0	38	0	519045120	65	4596
2026-01-19 12:01:46.74	258.98	21.47	-47.3	-49.0	18.4	0.00e+00	0	38	0	521142272	65	4565
2026-01-19 12:01:47.75	259.24	21.51	-47.1	-48.8	18.5	0.00e+00	0	37	0	523239424	65	4476
2026-01-19 12:01:48.76	259.49	21.55	-47.2	-48.9	18.5	0.00e+00	0	38	0	525336576	65	4497
2026-01-19 12:01:49.76	259.74	21.59	-47.1	-48.8	18.5	0.00e+00	0	37	0	526385152	65	4460
2026-01-19 12:01:50.77	260.00	21.63	-47.2	-48.9	18.5	0.00e+00	0	38	0	528482304	65	4511
2026-01-19 12:01:51.78	260.26	21.67	-47.2	-48.9	18.4	0.00e+00	0	38	0	530579456	65	4534
2026-01-19 12:01:52.79	260.51	21.71	-47.2	-48.9	18.4	0.00e+00	0	37	0	532676608	65	4543
2026-01-19 12:01:53.79	260.77	21.74	-47.4	-49.1	18.3	0.00e+00	0	38	0	534773760	65	4629
2026-01-19 12:01:54.80	261.02	21.78	-47.2	-48.9	18.4	0.00e+00	0	38	0	535822336	65	4541
2026-01-19 12:01:55.81	261.28	21.82	-47.2	-48.9	18.4	0.00e+00	0	38	0	537919488	65	4534
2026-01-19 12:01:56.82	261.54	21.85	-47.1	-48.7	18.6	0.00e+00	0	37	0	540016640	65	4435
2026-01-19 12:01:57.83	261.80	21.89	-47.0	-48.6	18.7	0.00e+00	0	38	0	542113792	65	4383
2026-01-19 12:01:58.83	262.06	21.92	-46.9	-48.5	18.9	0.00e+00	0	38	0	544210944	65	4310
2026-01-19 12:01:59.84	262.32	21.96	-46.7	-48.3	19.0	0.00e+00	0	38	0	545259520	65	4220
2026-01-19 12:02:00.85	262.58	21.99	-46.8	-48.4	19.0	0.00e+00	0	37	0	547356672	65	4244
2026-01-19 12:02:01.86	262.84	22.02	-46.7	-48.3	19.1	0.00e+00	0	38	0	549453824	65	4217
2026-01-19 12:02:02.86	263.10	22.06	-46.7	-48.2	19.1	0.00e+00	0	38	0	551550976	65	4183
2026-01-19 12:02:03.87	263.37	22.09	-46.6	-48.1	19.3	0.00e+00	0	38	0	553648128	65	4105
2026-01-19 12:02:04.88	263.63	22.12	-46.5	-48.0	19.3	0.00e+00	0	38	0	554696704	65	4069
2026-01-19 12:02:05.89	263.89	22.15	-46.6	-48.1	19.3	0.00e+00	0	38	0	556793856	65	4131
2026-01-19 12:02:06.89	264.15	22.18	-46.6	-48.1	19.2	0.00e+00	0	38	0	558891008	65	4138
2026-01-19 12:02:07.90	264.42	22.21	-46.6	-48.2	19.2	0.00e+00	0	38	0	560988160	65	4153
2026-01-19 12:02:08.91	264.69	22.24	-46.5	-48.0	19.3	0.00e+00	0	38	0	563085312	65	4080
2026-01-19 12:02:09.92	264.95	22.27	-46.6	-48.1	19.3	0.00e+00	0	38	0	564133888	65	4109
2026-01-19 12:02:10.93	265.22	22.30	-46.6	-48.1	19.2	0.00e+00	0	38	0	566231040	65	4126
2026-01-19 12:02:11.93	265.48	22.33	-46.7	-48.2	19.1	0.00e+00	0	37	0	568328192	65	4187
2026-01-19 12:02:12.94	265.75	22.35	-46.8	-48.3	19.0	0.00e+00	0	37	0	570425344	65	4226
2026-01-19 12:02:13.95	266.02	22.38	-46.9	-48.5	18.9	0.00e+00	0	38	0	572522496	65	4298
2026-01-19 12:02:14.96	266.29	22.41	-46.9	-48.5	18.9	0.00e+00	0	38	0	573571072	65	4305
2026-01-19 12:02:15.97	266.55	22.43	-46.9	-48.5	18.9	0.00e+00	0	38	0	575668224	65	4308
2026-01-19 12:02:16.98	266.82	22.46	-47.0	-48.6	18.8	0.00e+00	0	38	0	577765376	65	4365
2026-01-19 12:02:17.99	267.09	22.48	-47.0	-48.7	18.7	0.00e+00	0	38	0	579862528	65	4392
2026-01-19 12:02:18.99	267.36	22.50	-47.2	-48.8	18.5	0.00e+00	0	37	0	581959680	65	4490
2026-01-19 12:02:20.00	267.63	22.53	-47.2	-48.9	18.5	0.00e+00	0	38	0	584056832	65	4515
2026-01-19 12:02:21.01	267.90	22.55	-47.3	-49.0	18.4	0.00e+00	0	38	0	585105408	65	4563
2026-01-19 12:02:22.02	268.17	22.57	-47.2	-48.9	18.5	0.00e+00	0	38	0	587202560	65	4513
2026-01-19 12:02:23.02	268.44	22.59	-47.2	-48.9	18.5	0.00e+00	0	37	0	589299712	65	4518
2026-01-19 12:02:24.03	268.71	22.61	-47.3	-49.0	18.4	0.00e+00	0	38	0	591396864	65	4591
2026-01-19 12:02:25.04	268.98	22.63	-47.3	-49.0	18.4	0.00e+00	0	38	0	592445440	65	4554
2026-01-19 12:02:26.05	269.26	22.65	-47.2	-48.9	18.4	0.00e+00	0	38	0	594542592	65	4525
2026-01-19 12:02:27.06	269.53	22.67	-47.3	-49.0	18.4	0.00e+00	0	38	0	596639744	65	4578
2026-01-19 12:02:28.07	269.80	22.69	-47.2	-48.9	18.5	0.00e+00	0	38	0	598736896	65	4528
2026-01-19 12:02:29.07	270.07	22.70	-47.1	-48.8	18.6	0.00e+00	0	38	0	600834048	65	4461
2026-01-19 12:02:30.08	270.34	22.72	-47.1	-48.7	18.7	0.00e+00	0	38	0	601882624	65	4429
2026-01-19 12:02:31.09	270.62	22.74	-47.1	-48.7	18.6	0.00e+00	0	38	0	603979776	65	4435
2026-01-19 12:02:32.10	270.89	22.75	-47.1	-48.8	18.6	0.00e+00	0	38	0	606076928	65	4450
2026-01-19 12:02:33.11	271.17	22.76	-47.0	-48.6	18.8	0.00e+00	0	38	0	608174080	65	4372
2026-01-19 12:02:34.11	271.44	22.78	-46.9	-48.4	19.0	0.00e+00	0	38	0	610271232	65	4276
2026-01-19 12:02:35.12	271.71	22.79	-46.8	-48.3	19.0	0.00e+00	0	38	0	612368384	65	4242
2026-01-19 12:02:36.13	271.99	22.80	-46.8	-48.3	19.1	0.00e+00	0	38	0	613416960	65	4214
2026-01-19 12:02:37.14	272.26	22.82	-46.7	-48.2	19.2	0.00e+00	0	38	0	615514112	65	4155
2026-01-19 12:02:38.15	272.54	22.83	-46.9	-48.5	19.0	0.00e+00	0	38	0	617611264	65	4303
2026-01-19 12:02:39.15	272.81	22.84	-46.9	-48.5	18.9	0.00e+00	0	38	0	619708416	65	4329
2026-01-19 12:02:40.16	273.09	22.85	-47.0	-48.6	18.8	0.00e+00	0	38	0	620756992	65	4381
2026-01-19 12:02:41.17	273.36	22.86	-47.2	-48.8	18.7	0.00e+00	0	38	0	622854144	65	4465
2026-01-19 12:02:42.17	273.64	22.86	-47.2	-48.8	18.7	0.00e+00	0	38	0	624951296	65	4469
2026-01-19 12:02:43.18	273.91	22.87	-47.1	-48.7	18.8	0.00e+00	0	38	0	627048448	65	4402
2026-01-19 12:02:44.19	274.19	22.88	-47.0	-48.6	18.8	0.00e+00	0	37	0	629145600	65	4382
2026-01-19 12:02:45.20	274.47	22.89	-46.9	-48.4	19.0	0.00e+00	0	38	0	631242752	65	4283
2026-01-19 12:02:46.21	274.74	22.89	-46.7	-48.2	19.2	0.00e+00	0	38	0	632291328	65	4188
2026-01-19 12:02:47.21	275.02	22.90	-46.6	-48.1	19.3	0.00e+00	0	38	0	634388480	65	4106
2026-01-19 12:02:48.22	275.29	22.90	-46.6	-48.1	19.3	0.00e+00	0	38	0	636485632	65	4132
2026-01-19 12:02:49.23	275.57	22.91	-46.6	-48.1	19.3	0.00e+00	0	38	0	638582784	65	4106
2026-01-19 12:02:50.24	275.85	22.91	-46.5	-48.0	19.4	0.00e+00	0	38	0	640679936	65	4084
2026-01-19 12:02:51.24	276.12	22.91	-46.8	-48.3	19.1	0.00e+00	0	38	0	641728512	65	4206
2026-01-19 12:02:52.25	276.40	22.91	-46.9	-48.5	18.9	0.00e+00	0	38	0	643825664	65	4326
2026-01-19 12:02:53.26	276.67	22.91	-47.0	-48.6	18.9	0.00e+00	0	38	0	645922816	65	4376
2026-01-19 12:02:54.27	276.95	22.91	-47.1	-48.7	18.7	0.00e+00	0	38	0	648019968	65	4413
2026-01-19 12:02:55.28	277.23	22.91	-47.0	-48.6	18.8	0.00e+00	0	37	0	649068544	65	4381
2026-01-19 12:02:56.29	277.50	22.91	-47.0	-48.6	18.8	0.00e+00	0	37	0	651165696	65	4352
2026-01-19 12:02:57.29	277.78	22.91	-47.0	-48.6	18.9	0.00e+00	0	38	0	653262848	65	4343
2026-01-19 12:02:58.30	278.05	22.91	-47.0	-48.5	18.9	0.00e+00	0	38	0	655360000	65	4334
2026-01-19 12:02:59.31	278.33	22.91	-46.8	-48.4	19.1	0.00e+00	0	38	0	657457152	65	4243
2026-01-19 12:03:00.32	278.61	22.90	-46.8	-48.3	19.2	0.00e+00	0	38	0	659554304	65	4195
2026-01-19 12:03:01.33	278.88	22.90	-46.5	-48.0	19.5	0.00e+00	0	38	0	660602880	65	4056
2026-01-19 12:03:02.33	279.16	22.89	-46.6	-48.1	19.4	0.00e+00	0	38	0	662700032	65	4124
2026-01-19 12:03:03.34	279.43	22.89	-46.8	-48.3	19.2	0.00e+00	0	38	0	664797184	65	4209
2026-01-19 12:03:04.35	279.71	22.88	-47.1	-48.6	18.9	0.00e+00	0	38	0	666894336	65	4389
2026-01-19 12:03:05.36	279.99	22.87	-47.2	-48.9	18.5	0.00e+00	0	38	0	668991488	65	4520
2026-01-19 12:03:06.37	280.26	22.87	-47.4	-49.1	18.4	0.00e+00	0	38	0	670040064	65	4615
2026-01-19 12:03:07.38	280.54	22.86	-47.4	-49.1	18.4	0.00e+00	0	37	0	672137216	65	4646
2026-01-19 12:03:08.38	280.81	22.85	-47.4	-49.0	18.4	0.00e+00	0	38	0	674234368	65	4590
2026-01-19 12:03:09.39	281.09	22.84	-47.4	-49.1	18.4	0.00e+00	0	38	0	676331520	65	4604
2026-01-19 12:03:10.40	281.36	22.83	-47.3	-49.0	18.5	0.00e+00	0	38	0	678428672	65	4567
2026-01-19 12:03:11.41	281.64	22.82	-47.4	-49.1	18.4	0.00e+00	0	37	0	679477248	65	4601
2026-01-19 12:03:12.41	281.91	22.81	-47.3	-49.0	18.5	0.00e+00	0	38	0	681574400	65	4551
2026-01-19 12:03:13.42	282.19	22.79	-47.2	-48.9	18.6	0.00e+00	0	37	0	683671552	65	4516
2026-01-19 12:03:14.43	282.46	22.78	-47.2	-48.8	18.7	0.00e+00	0	38	0	685768704	65	4470
2026-01-19 12:03:15.44	282.73	22.77	-47.1	-48.7	18.8	0.00e+00	0	38	0	687865856	65	4404
2026-01-19 12:03:16.45	283.01	22.75	-46.9	-48.4	19.1	0.00e+00	0	37	0	688914432	65	4277
2026-01-19 12:03:17.45	283.28	22.74	-46.8	-48.3	19.1	0.00e+00	0	38	0	691011584	65	4234
2026-01-19 12:03:18.46	283.55	22.72	-46.8	-48.3	19.2	0.00e+00	0	38	0	693108736	65	4233
2026-01-19 12:03:19.47	283.83	22.71	-46.9	-48.4	19.0	0.00e+00	0	38	0	695205888	65	4277
2026-01-19 12:03:20.48	284.10	22.69	-47.0	-48.6	18.9	0.00e+00	0	38	0	697303040	65	4373
2026-01-19 12:03:21.49	284.37	22.67	-47.3	-48.9	18.6	0.00e+00	0	38	0	698351616	65	4537
2026-01-19 12:03:22.49	284.64	22.65	-47.4	-49.1	18.4	0.00e+00	0	38	0	700448768	65	4639
2026-01-19 12:03:23.50	284.91	22.64	-47.4	-49.1	18.5	0.00e+00	0	38	0	702545920	65	4605
2026-01-19 12:03:24.51	285.19	22.62	-47.4	-49.1	18.4	0.00e+00	0	38	0	704643072	65	4624
2026-01-19 12:03:25.52	285.46	22.60	-47.3	-49.0	18.5	0.00e+00	0	37	0	706740224	65	4573
2026-01-19 12:03:26.53	285.73	22.57	-47.3	-48.9	18.6	0.00e+00	0	38	0	707788800	65	4539
2026-01-19 12:03:27.54	286.00	22.55	-47.2	-48.8	18.8	0.00e+00	0	38	0	709885952	65	4454
2026-01-19 12:03:28.54	286.27	22.53	-47.1	-48.7	18.8	0.00e+00	0	38	0	711983104	65	4418
2026-01-19 12:03:29.55	286.54	22.51	-47.1	-48.7	18.8	0.00e+00	0	38	0	714080256	65	4417
2026-01-19 12:03:30.56	286.81	22.49	-47.1	-48.7	18.8	0.00e+00	0	38	0	716177408	65	4429
2026-01-19 12:03:31.57	287.07	22.46	-46.9	-48.5	19.0	0.00e+00	0	37	0	717225984	65	4310
2026-01-19 12:03:32.57	287.34	22.44	-46.9	-48.5	19.1	0.00e+00	0	38	0	719323136	65	4302
2026-01-19 12:03:33.58	287.61	22.41	-46.8	-48.3	19.2	0.00e+00	0	38	0	721420288	65	4210
2026-01-19 12:03:34.59	287.88	22.39	-46.7	-48.2	19.3	0.00e+00	0	38	0	723517440	65	4166
2026-01-19 12:03:35.60	288.14	22.36	-46.8	-48.3	19.2	0.00e+00	0	37	0	725614592	65	4234
2026-01-19 12:03:36.61	288.41	22.33	-47.0	-48.5	19.0	0.00e+00	0	38	0	727711744	65	4334
2026-01-19 12:03:37.61	288.67	22.31	-47.1	-48.7	18.9	0.00e+00	0	38	0	728760320	65	4421
2026-01-19 12:03:38.62	288.94	22.28	-47.1	-48.7	18.8	0.00e+00	0	38	0	730857472	65	4429
2026-01-19 12:03:39.63	289.21	22.25	-47.0	-48.6	19.0	0.00e+00	0	38	0	732954624	65	4360
2026-01-19 12:03:40.64	289.47	22.22	-46.9	-48.5	19.0	0.00e+00	0	38	0	735051776	65	4310
2026-01-19 12:03:41.64	289.73	22.19	-46.8	-48.3	19.2	0.00e+00	0	38	0	736100352	65	4228
2026-01-19 12:03:42.65	290.00	22.16	-46.9	-48.4	19.1	0.00e+00	0	38	0	738197504	65	4256
2026-01-19 12:03:43.66	290.26	22.13	-46.9	-48.4	19.1	0.00e+00	0	38	0	740294656	65	4289
2026-01-19 12:03:44.66	290.52	22.10	-46.9	-48.5	19.1	0.00e+00	0	38	0	742391808	65	4294
2026-01-19 12:03:45.67	290.78	22.07	-47.0	-48.5	19.0	0.00e+00	0	37	0	744488960	65	4334
2026-01-19 12:03:46.68	291.05	22.03	-47.0	-48.6	18.9	0.00e+00	0	37	0	745537536	65	4377
2026-01-19 12:03:47.69	291.31	22.00	-46.9	-48.4	19.1	0.00e+00	0	38	0	747634688	65	4274
2026-01-19 12:03:48.70	291.57	21.97	-46.7	-48.2	19.3	0.00e+00	0	38	0	749731840	65	4192
2026-01-19 12:03:49.71	291.83	21.93	-46.7	-48.2	19.4	0.00e+00	0	38	0	751828992	65	4167
2026-01-19 12:03:50.71	292.09	21.90	-46.6	-48.0	19.5	0.00e+00	0	38	0	753926144	65	4078
2026-01-19 12:03:51.72	292.34	21.86	-46.6	-48.1	19.5	0.00e+00	0	38	0	756023296	65	4109
2026-01-19 12:03:52.73	292.60	21.83	-46.4	-47.8	19.7	0.00e+00	0	38	0	757071872	64	4242
2026-01-19 12:03:53.74	292.86	21.79	-46.4	-47.9	19.6	0.00e+00	0	38	0	759169024	64	4258
2026-01-19 12:03:54.75	293.12	21.75	-46.1	-47.4	20.1	0.00e+00	0	38	0	761266176	63	4276
2026-01-19 12:03:55.75	293.37	21.72	-45.9	-47.2	20.4	0.00e+00	0	38	0	763363328	63	4148
2026-01-19 12:03:56.76	293.63	21.68	-45.6	-46.9	20.7	0.00e+00	0	37	0	764411904	63	4021
2026-01-19 12:03:57.77	293.88	21.64	-45.5	-46.8	20.8	0.00e+00	0	38	0	766509056	63	3973
2026-01-19 12:03:58.78	294.14	21.60	-45.5	-46.8	20.8	0.00e+00	0	38	0	768606208	63	3959
2026-01-19 12:03:59.79	294.39	21.56	-45.7	-46.9	20.7	0.00e+00	0	38	0	770703360	63	4050
2026-01-19 12:04:00.79	294.64	21.52	-45.8	-47.1	20.5	0.00e+00	0	38	0	772800512	63	4124
2026-01-19 12:04:01.80	294.90	21.48	-45.9	-47.2	20.4	0.00e+00	0	38	0	774897664	63	4178
2026-01-19 12:04:02.81	295.15	21.44	-46.1	-47.4	20.2	0.00e+00	0	38	0	775946240	63	4273
2026-01-19 12:04:03.81	295.40	21.40	-46.1	-47.5	20.1	0.00e+00	0	38	0	778043392	63	4297
2026-01-19 12:04:04.82	295.65	21.36	-46.1	-47.4	20.2	0.00e+00	0	38	0	780140544	63	4283
2026-01-19 12:04:05.83	295.90	21.31	-46.1	-47.4	20.2	0.00e+00	0	38	0	782237696	63	4259
2026-01-19 12:04:06.84	296.15	21.27	-46.1	-47.4	20.2	0.00e+00	0	37	0	784334848	63	4282
2026-01-19 12:04:07.85	296.40	21.23	-45.9	-47.3	20.4	0.00e+00	0	37	0	785383424	63	4196
2026-01-19 12:04:08.85	296.64	21.18	-45.9	-47.2	20.4	0.00e+00	0	37	0	787480576	63	4182
2026-01-19 12:04:09.86	296.89	21.14	-45.9	-47.2	20.4	0.00e+00	0	38	0	789577728	63	4146
2026-01-19 12:04:10.87	297.14	21.10	-45.6	-46.8	20.8	0.00e+00	0	37	0	791674880	63	3982
2026-01-19 12:04:11.88	297.38	21.05	-45.5	-46.8	20.8	0.00e+00	0	38	0	792723456	62	4201
2026-01-19 12:04:12.89	297.63	21.00	-45.5	-46.7	20.8	0.00e+00	0	37	0	794820608	62	4188
2026-01-19 12:04:13.89	297.87	20.96	-45.2	-46.4	21.1	0.00e+00	0	38	0	796917760	62	4045
2026-01-19 12:04:14.90	298.12	20.91	-45.1	-46.3	21.3	0.00e+00	0	38	0	799014912	62	3984
2026-01-19 12:04:15.91	298.36	20.87	-45.1	-46.3	21.3	0.00e+00	0	38	0	801112064	62	3989
2026-01-19 12:04:16.91	298.60	20.82	-45.1	-46.3	21.2	0.00e+00	0	38	0	803209216	62	3984
2026-01-19 12:04:17.92	298.84	20.77	-45.1	-46.3	21.2	0.00e+00	0	38	0	804257792	62	3985
2026-01-19 12:04:18.93	299.08	20.72	-45.3	-46.5	21.0	0.00e+00	0	38	0	806354944	62	4096
2026-01-19 12:04:19.94	299.32	20.67	-45.3	-46.5	21.1	0.00e+00	0	38	0	808452096	62	4052
2026-01-19 12:04:20.95	299.56	20.63	-45.4	-46.7	20.9	0.00e+00	0	38	0	810549248	62	4154
2026-01-19 12:04:21.95	299.80	20.58	-45.6	-46.9	20.7	0.00e+00	0	38	0	812646400	62	4245
2026-01-19 12:04:22.96	300.04	20.53	-45.7	-47.0	20.6	0.00e+00	0	37	0	813694976	62	4299
2026-01-19 12:04:23.97	300.27	20.48	-45.8	-47.1	20.5	0.00e+00	0	38	0	815792128	62	4363
2026-01-19 12:04:24.98	300.51	20.43	-45.9	-47.2	20.4	0.00e+00	0	38	0	817889280	62	4406
2026-01-19 12:04:25.98	300.74	20.38	-46.0	-47.4	20.3	0.00e+00	0	38	0	819986432	62	4501
2026-01-19 12:04:26.99	300.98	20.32	-46.2	-47.5	20.1	0.00e+00	0	38	0	821035008	62	4573
2026-01-19 12:04:28.00	301.21	20.27	-46.2	-47.6	20.1	0.00e+00	0	38	0	823132160	63	4358
2026-01-19 12:04:29.01	301.45	20.22	-46.2	-47.6	20.0	0.00e+00	0	38	0	825229312	63	4354
2026-01-19 12:04:30.02	301.68	20.17	-46.1	-47.4	20.2	0.00e+00	0	38	0	827326464	63	4269
2026-01-19 12:04:31.02	301.91	20.12	-46.0	-47.3	20.3	0.00e+00	0	38	0	829423616	63	4227
2026-01-19 12:04:32.03	302.14	20.06	-45.9	-47.2	20.4	0.00e+00	0	37	0	831520768	63	4160
2026-01-19 12:04:33.04	302.37	20.01	-45.8	-47.0	20.6	0.00e+00	0	38	0	832569344	63	4091
2026-01-19 12:04:34.05	302.60	19.96	-45.7	-47.0	20.6	0.00e+00	0	38	0	834666496	63	4074
2026-01-19 12:04:35.06	302.83	19.90	-45.6	-46.9	20.7	0.00e+00	0	37	0	836763648	63	4020
2026-01-19 12:04:36.06	303.05	19.85	-45.6	-46.8	20.8	0.00e+00	0	38	0	838860800	63	3988
2026-01-19 12:04:37.07	303.28	19.79	-45.6	-46.8	20.8	0.00e+00	0	37	0	840957952	63	3973
2026-01-19 12:04:38.08	303.51	19.74	-45.7	-46.9	20.6	0.00e+00	0	38	0	842006528	63	4050
2026-01-19 12:04:39.09	303.73	19.68	-45.9	-47.2	20.4	0.00e+00	0	37	0	844103680	63	4164
2026-01-19 12:04:40.09	303.96	19.63	-46.2	-47.5	20.1	0.00e+00	0	38	0	846200832	63	4334
2026-01-19 12:04:41.10	304.18	19.57	-46.5	-48.0	19.6	0.00e+00	0	38	0	848297984	63	4562
2026-01-19 12:04:42.11	304.40	19.52	-46.7	-48.2	19.3	0.00e+00	0	37	0	850395136	64	4420
2026-01-19 12:04:43.12	304.63	19.46	-46.9	-48.4	19.1	0.00e+00	0	38	0	851443712	64	4520
2026-01-19 12:04:44.13	304.85	19.40	-46.9	-48.5	19.0	0.00e+00	0	38	0	853540864	64	4566
2026-01-19 12:04:45.13	305.07	19.35	-47.0	-48.6	19.0	0.00e+00	0	38	0	855638016	64	4612
2026-01-19 12:04:46.14	305.29	19.29	-47.1	-48.7	18.9	0.00e+00	0	37	0	857735168	64	4675
2026-01-19 12:04:47.15	305.51	19.23	-47.2	-48.8	18.8	0.00e+00	0	38	0	859832320	64	4720
2026-01-19 12:04:48.16	305.72	19.17	-47.2	-48.8	18.7	0.00e+00	0	38	0	860880896	65	4488
2026-01-19 12:04:49.17	305.94	19.11	-47.2	-48.8	18.8	0.00e+00	0	38	0	862978048	65	4462
2026-01-19 12:04:50.17	306.16	19.06	-47.2	-48.8	18.7	0.00e+00	0	38	0	865075200	65	4488
2026-01-19 12:04:51.18	306.37	19.00	-47.1	-48.6	18.9	0.00e+00	0	38	0	867172352	65	4385
2026-01-19 12:04:52.19	306.59	18.94	-47.1	-48.7	18.9	0.00e+00	0	38	0	869269504	65	4392
2026-01-19 12:04:53.20	306.80	18.88	-46.7	-48.2	19.3	0.00e+00	0	38	0	870318080	65	4152
2026-01-19 12:04:54.20	307.01	18.82	-46.6	-48.0	19.5	0.00e+00	0	38	0	872415232	65	4086
2026-01-19 12:04:55.21	307.23	18.76	-46.6	-48.0	19.5	0.00e+00	0	37	0	874512384	65	4084
2026-01-19 12:04:56.22	307.44	18.70	-46.5	-47.9	19.6	0.00e+00	0	38	0	876609536	64	4289
2026-01-19 12:04:57.23	307.65	18.64	-46.5	-47.9	19.6	0.00e+00	0	38	0	878706688	64	4289
2026-01-19 12:04:58.23	307.86	18.58	-46.5	-48.0	19.5	0.00e+00	0	38	0	879755264	64	4322
2026-01-19 12:04:59.24	308.07	18.52	-46.7	-48.2	19.3	0.00e+00	0	38	0	881852416	64	4411
2026-01-19 12:05:00.25	308.27	18.46	-46.8	-48.4	19.1	0.00e+00	0	38	0	883949568	64	4498
2026-01-19 12:05:01.26	308.48	18.40	-46.9	-48.5	19.0	0.00e+00	0	38	0	886046720	64	4562
2026-01-19 12:05:02.26	308.69	18.34	-47.0	-48.6	18.9	0.00e+00	0	38	0	888143872	64	4625
2026-01-19 12:05:03.27	308.89	18.28	-47.1	-48.7	18.8	0.00e+00	0	37	0	889192448	64	4675
2026-01-19 12:05:04.28	309.10	18.21	-47.1	-48.8	18.7	0.00e+00	0	38	0	891289600	64	4709
2026-01-19 12:05:05.29	309.30	18.15	-47.1	-48.8	18.8	0.00e+00	0	38	0	893386752	64	4711
2026-01-19 12:05:06.30	309.51	18.09	-47.2	-48.9	18.6	0.00e+00	0	37	0	895483904	65	4502
2026-01-19 12:05:07.30	309.71	18.03	-47.1	-48.7	18.8	0.00e+00	0	38	0	897581056	65	4436
2026-01-19 12:05:08.31	309.91	17.97	-47.0	-48.6	18.9	0.00e+00	0	38	0	898629632	65	4376
2026-01-19 12:05:09.32	310.11	17.90	-46.8	-48.3	19.1	0.00e+00	0	38	0	900726784	65	4223
2026-01-19 12:05:10.33	310.31	17.84	-46.5	-48.0	19.5	0.00e+00	0	37	0	902823936	65	4064
2026-01-19 12:05:11.34	310.51	17.78	-46.5	-48.0	19.5	0.00e+00	0	37	0	904921088	65	4061
2026-01-19 12:05:12.35	310.71	17.72	-46.4	-47.9	19.6	0.00e+00	0	38	0	907018240	64	4266
2026-01-19 12:05:13.35	310.91	17.65	-46.3	-47.8	19.6	0.00e+00	0	38	0	908066816	64	4212
2026-01-19 12:05:14.36	311.10	17.59	-46.4	-47.8	19.7	0.00e+00	0	38	0	910163968	64	4229
2026-01-19 12:05:15.37	311.30	17.53	-46.4	-47.8	19.6	0.00e+00	0	38	0	912261120	64	4233
2026-01-19 12:05:16.38	311.50	17.46	-46.5	-48.0	19.5	0.00e+00	0	38	0	914358272	64	4315
2026-01-19 12:05:17.39	311.69	17.40	-46.6	-48.1	19.3	0.00e+00	0	38	0	916455424	64	4361
2026-01-19 12:05:18.39	311.88	17.34	-46.6	-48.0	19.4	0.00e+00	0	38	0	917504000	64	4330
2026-01-19 12:05:19.40	312.08	17.27	-46.5	-47.9	19.5	0.00e+00	0	38	0	919601152	64	4275
2026-01-19 12:05:20.41	312.27	17.21	-46.5	-47.9	19.5	0.00e+00	0	38	0	921698304	64	4277
2026-01-19 12:05:21.42	312.46	17.14	-46.5	-47.9	19.5	0.00e+00	0	37	0	923795456	64	4271
2026-01-19 12:05:22.43	312.65	17.08	-46.5	-48.0	19.4	0.00e+00	0	38	0	925892608	64	4312
2026-01-19 12:05:23.43	312.84	17.01	-46.7	-48.2	19.3	0.00e+00	0	38	0	926941184	64	4403
2026-01-19 12:05:24.44	313.03	16.95	-46.8	-48.4	19.1	0.00e+00	0	38	0	929038336	64	4501
2026-01-19 12:05:25.45	313.22	16.88	-46.9	-48.5	19.0	0.00e+00	0	37	0	931135488	64	4553
2026-01-19 12:05:26.46	313.41	16.82	-47.0	-48.6	18.8	0.00e+00	0	38	0	933232640	64	4642
2026-01-19 12:05:27.46	313.59	16.75	-47.1	-48.7	18.7	0.00e+00	0	38	0	935329792	64	4669
2026-01-19 12:05:28.47	313.78	16.69	-47.1	-48.7	18.7	0.00e+00	0	38	0	936378368	64	4696
2026-01-19 12:05:29.48	313.96	16.62	-47.0	-48.6	18.8	0.00e+00	0	38	0	938475520	64	4620
2026-01-19 12:05:30.49	314.15	16.56	-46.9	-48.4	19.0	0.00e+00	0	38	0	940572672	64	4530
2026-01-19 12:05:31.50	314.33	16.49	-46.8	-48.3	19.1	0.00e+00	0	38	0	942669824	64	4484
2026-01-19 12:05:32.51	314.51	16.43	-46.8	-48.3	19.1	0.00e+00	0	38	0	944766976	64	4481
2026-01-19 12:05:33.51	314.69	16.36	-46.9	-48.5	18.8	0.00e+00	0	38	0	946864128	64	4594
2026-01-19 12:05:34.52	314.87	16.30	-46.9	-48.5	18.9	0.00e+00	0	38	0	947912704	64	4560
2026-01-19 12:05:35.53	315.06	16.23	-47.0	-48.6	18.8	0.00e+00	0	37	0	950009856	64	4618
2026-01-19 12:05:36.54	315.24	16.16	-46.9	-48.5	18.9	0.00e+00	0	38	0	952107008	64	4553
2026-01-19 12:05:37.55	315.41	16.10	-46.8	-48.4	19.0	0.00e+00	0	38	0	954204160	64	4514
2026-01-19 12:05:38.55	315.59	16.03	-46.9	-48.4	18.9	0.00e+00	0	38	0	955252736	64	4545
2026-01-19 12:05:39.56	315.77	15.97	-46.5	-48.0	19.3	0.00e+00	0	38	0	957349888	64	4331
2026-01-19 12:05:40.57	315.95	15.90	-46.4	-47.9	19.5	0.00e+00	0	38	0	959447040	64	4245
2026-01-19 12:05:41.57	316.12	15.83	-46.5	-47.9	19.4	0.00e+00	0	37	0	961544192	64	4289
2026-01-19 12:05:42.58	316.30	15.77	-46.5	-48.0	19.3	0.00e+00	0	38	0	963641344	64	4323
2026-01-19 12:05:43.59	316.47	15.70	-46.7	-48.3	19.0	0.00e+00	0	38	0	964689920	64	4457
2026-01-19 12:05:44.60	316.64	15.63	-46.9	-48.6	18.8	0.00e+00	0	38	0	966787072	64	4599
2026-01-19 12:05:45.61	316.82	15.57	-47.1	-48.7	18.6	0.00e+00	0	38	0	968884224	64	4690
2026-01-19 12:05:46.61	316.99	15.50	-47.1	-48.8	18.5	0.00e+00	0	38	0	970981376	64	4731
2026-01-19 12:05:47.62	317.16	15.43	-47.0	-48.7	18.7	0.00e+00	0	37	0	973078528	64	4656
2026-01-19 12:05:48.63	317.33	15.37	-46.9	-48.5	18.8	0.00e+00	0	38	0	975175680	64	4580
2026-01-19 12:05:49.64	317.50	15.30	-46.9	-48.5	18.8	0.00e+00	0	38	0	976224256	64	4582
2026-01-19 12:05:50.65	317.67	15.23	-46.9	-48.5	18.8	0.00e+00	0	38	0	978321408	64	4566
2026-01-19 12:05:51.65	317.84	15.17	-46.7	-48.3	19.0	0.00e+00	0	37	0	980418560	64	4457
2026-01-19 12:05:52.66	318.00	15.10	-46.6	-48.1	19.2	0.00e+00	0	38	0	982515712	64	4373
2026-01-19 12:05:53.67	318.17	15.03	-46.7	-48.2	19.1	0.00e+00	0	38	0	983564288	64	4429
2026-01-19 12:05:54.68	318.34	14.97	-46.9	-48.5	18.8	0.00e+00	0	37	0	985661440	64	4548
2026-01-19 12:05:55.68	318.50	14.90	-47.0	-48.6	18.7	0.00e+00	0	38	0	987758592	64	4636
2026-01-19 12:05:56.69	318.67	14.83	-47.0	-48.7	18.6	0.00e+00	0	37	0	989855744	64	4678
2026-01-19 12:05:57.70	318.83	14.77	-47.1	-48.7	18.6	0.00e+00	0	37	0	991952896	64	4697
2026-01-19 12:05:58.71	318.99	14.70	-46.9	-48.5	18.8	0.00e+00	0	38	0	994050048	64	4555
2026-01-19 12:05:59.72	319.16	14.63	-46.6	-48.2	19.1	0.00e+00	0	37	0	995098624	64	4411
2026-01-19 12:06:00.73	319.32	14.56	-46.5	-48.0	19.2	0.00e+00	0	37	0	997195776	64	4326
2026-01-19 12:06:01.73	319.48	14.50	-46.5	-48.0	19.3	0.00e+00	0	38	0	999292928	64	4315
2026-01-19 12:06:02.74	319.64	14.43	-46.5	-48.0	19.3	0.00e+00	0	38	0	1001390080	64	4292
2026-01-19 12:06:03.75	319.80	14.36	-46.4	-47.9	19.3	0.00e+00	0	37	0	1003487232	64	4285
2026-01-19 12:06:04.76	319.96	14.30	-46.6	-48.1	19.2	0.00e+00	0	38	0	1004535808	64	4351
2026-01-19 12:06:05.76	320.12	14.23	-46.7	-48.2	19.0	0.00e+00	0	37	0	1006632960	64	4420
2026-01-19 12:06:06.77	320.27	14.16	-46.9	-48.5	18.7	0.00e+00	0	38	0	1008730112	64	4583
2026-01-19 12:06:07.78	320.43	14.09	-47.0	-48.7	18.6	0.00e+00	0	38	0	1010827264	64	4660
2026-01-19 12:06:08.79	320.59	14.03	-47.1	-48.8	18.4	0.00e+00	0	38	0	1011875840	64	4740
2026-01-19 12:06:09.80	320.74	13.96	-47.2	-48.9	18.4	0.00e+00	0	38	0	1013972992	64	4760
2026-01-19 12:06:10.80	320.90	13.89	-46.9	-48.5	18.7	0.00e+00	0	38	0	1016070144	64	4585
2026-01-19 12:06:11.81	321.05	13.82	-46.9	-48.5	18.7	0.00e+00	0	38	0	1018167296	64	4564
2026-01-19 12:06:12.82	321.21	13.76	-47.0	-48.6	18.6	0.00e+00	0	38	0	1020264448	64	4621
2026-01-19 12:06:13.83	321.36	13.69	-46.9	-48.5	18.7	0.00e+00	0	38	0	1022361600	64	4565
2026-01-19 12:06:14.84	321.51	13.62	-46.7	-48.3	18.9	0.00e+00	0	38	0	1023410176	64	4464
2026-01-19 12:06:15.85	321.66	13.56	-46.8	-48.4	18.8	0.00e+00	0	38	0	1025507328	64	4494
2026-01-19 12:06:16.86	321.82	13.49	-47.0	-48.6	18.6	0.00e+00	0	37	0	1027604480	64	4637
2026-01-19 12:06:17.86	321.96	13.42	-47.1	-48.8	18.4	0.00e+00	0	38	0	1029701632	64	4716
2026-01-19 12:06:18.87	322.11	13.35	-47.2	-48.9	18.3	0.00e+00	0	38	0	1031798784	64	4803
2026-01-19 12:06:19.88	322.26	13.29	-47.3	-49.0	18.2	0.00e+00	0	37	0	1032847360	65	4576
2026-01-19 12:06:20.89	322.41	13.22	-47.3	-49.0	18.2	0.00e+00	0	37	0	1034944512	65	4574
2026-01-19 12:06:21.90	322.56	13.15	-47.3	-49.1	18.1	0.00e+00	0	37	0	1037041664	65	4607
2026-01-19 12:06:22.90	322.71	13.09	-47.1	-48.8	18.4	0.00e+00	0	38	0	1039138816	65	4451
2026-01-19 12:06:23.91	322.85	13.02	-46.8	-48.4	18.7	0.00e+00	0	38	0	1041235968	65	4278
2026-01-19 12:06:24.92	323.00	12.95	-46.7	-48.3	18.8	0.00e+00	0	38	0	1042284544	65	4227
2026-01-19 12:06:25.93	323.14	12.88	-46.8	-48.3	18.8	0.00e+00	0	38	0	1044381696	65	4241
2026-01-19 12:06:26.94	323.29	12.82	-46.7	-48.3	18.8	0.00e+00	0	38	0	1046478848	65	4236
2026-01-19 12:06:27.94	323.43	12.75	-46.8	-48.5	18.7	0.00e+00	0	37	0	1048576000	65	4295
2026-01-19 12:06:28.95	323.57	12.68	-47.0	-48.6	18.5	0.00e+00	0	38	0	1050673152	65	4381
2026-01-19 12:06:29.96	323.72	12.62	-47.1	-48.8	18.4	0.00e+00	0	37	0	1051721728	65	4468
2026-01-19 12:06:30.97	323.86	12.55	-47.3	-49.1	18.1	0.00e+00	0	38	0	1053818880	65	4599
2026-01-19 12:06:31.98	324.00	12.48	-47.4	-49.2	17.9	0.00e+00	0	38	0	1055916032	65	4691
2026-01-19 12:06:32.98	324.14	12.42	-47.5	-49.4	17.8	0.00e+00	0	38	0	1058013184	65	4765
2026-01-19 12:06:33.99	324.28	12.35	-47.5	-49.4	17.8	0.00e+00	0	38	0	1060110336	65	4766
2026-01-19 12:06:35.00	324.42	12.28	-47.4	-49.3	17.9	0.00e+00	0	37	0	1062207488	65	4720
2026-01-19 12:06:36.01	324.56	12.21	-47.5	-49.3	17.8	0.00e+00	0	37	0	1063256064	65	4745
2026-01-19 12:06:37.02	324.70	12.15	-47.3	-49.1	18.0	0.00e+00	0	38	0	1065353216	65	4626
2026-01-19 12:06:38.02	324.83	12.08	-47.3	-49.1	18.1	0.00e+00	0	37	0	1067450368	65	4605
2026-01-19 12:06:39.03	324.97	12.01	-47.0	-48.7	18.4	0.00e+00	0	38	0	1069547520	65	4432
2026-01-19 12:06:40.04	325.11	11.95	-47.0	-48.7	18.4	0.00e+00	0	37	0	1070596096	65	4410
2026-01-19 12:06:41.05	325.24	11.88	-47.1	-48.8	18.3	0.00e+00	0	38	0	1072693248	65	4482
2026-01-19 12:06:42.06	325.38	11.81	-47.1	-48.8	18.2	0.00e+00	0	38	0	1074790400	65	4488
2026-01-19 12:06:43.06	325.51	11.75	-47.3	-49.1	18.0	0.00e+00	0	38	0	1076887552	65	4601
2026-01-19 12:06:44.07	325.65	11.68	-47.3	-49.0	18.0	0.00e+00	0	38	0	1078984704	65	4590
2026-01-19 12:06:45.08	325.78	11.61	-47.4	-49.2	17.9	0.00e+00	0	38	0	1080033280	65	4704
2026-01-19 12:06:46.09	325.91	11.55	-47.3	-49.1	17.9	0.00e+00	0	37	0	1082130432	65	4650
2026-01-19 12:06:47.10	326.05	11.48	-47.3	-49.1	18.0	0.00e+00	0	38	0	1084227584	65	4633
2026-01-19 12:06:48.10	326.18	11.42	-47.3	-49.2	17.9	0.00e+00	0	37	0	1086324736	65	4652
2026-01-19 12:06:49.11	326.31	11.35	-47.3	-49.0	18.0	0.00e+00	0	38	0	1088421888	65	4595
2026-01-19 12:06:50.12	326.44	11.28	-47.3	-49.1	18.0	0.00e+00	0	38	0	1090519040	65	4616
2026-01-19 12:06:51.13	326.57	11.22	-47.2	-49.0	18.0	0.00e+00	0	38	0	1091567616	65	4572
2026-01-19 12:06:52.13	326.70	11.15	-47.3	-49.1	17.9	0.00e+00	0	38	0	1093664768	65	4608
2026-01-19 12:06:53.14	326.83	11.09	-47.3	-49.1	17.9	0.00e+00	0	38	0	1095761920	65	4641
2026-01-19 12:06:54.15	326.96	11.02	-47.4	-49.3	17.8	0.00e+00	0	38	0	1097859072	65	4709
2026-01-19 12:06:55.16	327.08	10.95	-47.5	-49.4	17.6	0.00e+00	0	38	0	1098907648	65	4810
2026-01-19 12:06:56.17	327.21	10.89	-47.7	-49.7	17.4	0.00e+00	0	38	0	1101004800	65	4937
2026-01-19 12:06:57.17	327.34	10.82	-47.9	-49.9	17.1	0.00e+00	0	38	0	1103101952	66	4800
2026-01-19 12:06:58.18	327.46	10.76	-48.0	-50.1	16.9	0.00e+00	0	38	0	1105199104	66	4915
2026-01-19 12:06:59.19	327.59	10.69	-48.1	-50.2	16.9	0.00e+00	0	37	0	1107296256	66	4944
2026-01-19 12:07:00.20	327.71	10.62	-48.1	-50.2	16.8	0.00e+00	0	37	0	1109393408	66	4980
2026-01-19 12:07:01.21	327.84	10.56	-48.0	-50.1	16.9	0.00e+00	0	37	0	1110441984	66	4884
2026-01-19 12:07:02.21	327.96	10.49	-48.0	-50.0	17.0	0.00e+00	0	37	0	1112539136	66	4861
2026-01-19 12:07:03.22	328.09	10.43	-47.9	-50.0	17.1	0.00e+00	0	37	0	1114636288	66	4816
2026-01-19 12:07:04.23	328.21	10.36	-47.8	-49.8	17.2	0.00e+00	0	38	0	1116733440	66	4725
2026-01-19 12:07:05.24	328.33	10.30	-47.5	-49.4	17.6	0.00e+00	0	38	0	1118830592	66	4536
2026-01-19 12:07:06.25	328.45	10.23	-47.5	-49.4	17.6	0.00e+00	0	38	0	1119879168	66	4513
2026-01-19 12:07:07.25	328.57	10.17	-47.5	-49.4	17.6	0.00e+00	0	38	0	1121976320	66	4501
2026-01-19 12:07:08.26	328.70	10.10	-47.3	-49.2	17.8	0.00e+00	0	38	0	1124073472	66	4403
2026-01-19 12:07:09.27	328.82	10.04	-47.2	-49.0	17.9	0.00e+00	0	37	0	1126170624	66	4336
2026-01-19 12:07:10.28	328.94	9.97	-47.3	-49.1	17.8	0.00e+00	0	38	0	1127219200	66	4388
2026-01-19 12:07:11.28	329.05	9.91	-47.4	-49.2	17.7	0.00e+00	0	38	0	1129316352	66	4429
2026-01-19 12:07:12.29	329.17	9.84	-47.4	-49.3	17.7	0.00e+00	0	38	0	1131413504	66	4467
2026-01-19 12:07:13.30	329.29	9.78	-47.5	-49.4	17.6	0.00e+00	0	38	0	1133510656	66	4520
2026-01-19 12:07:14.31	329.41	9.71	-47.5	-49.5	17.5	0.00e+00	0	38	0	1135607808	66	4549
2026-01-19 12:07:15.31	329.53	9.65	-47.7	-49.6	17.3	0.00e+00	0	38	0	1137704960	66	4642
2026-01-19 12:07:16.32	329.64	9.58	-47.6	-49.6	17.3	0.00e+00	0	38	0	1138753536	66	4622
2026-01-19 12:07:17.33	329.76	9.52	-47.6	-49.6	17.4	0.00e+00	0	38	0	1140850688	66	4602
2026-01-19 12:07:18.34	329.88	9.45	-47.7	-49.7	17.3	0.00e+00	0	38	0	1142947840	66	4663
2026-01-19 12:07:19.35	329.99	9.39	-47.6	-49.6	17.3	0.00e+00	0	38	0	1145044992	66	4621
2026-01-19 12:07:20.35	330.11	9.32	-47.7	-49.6	17.3	0.00e+00	0	38	0	1147142144	66	4644
2026-01-19 12:07:21.36	330.22	9.26	-47.8	-49.8	17.1	0.00e+00	0	38	0	1148190720	66	4724
2026-01-19 12:07:22.37	330.33	9.20	-47.8	-49.8	17.1	0.00e+00	0	38	0	1150287872	66	4759
2026-01-19 12:07:23.38	330.45	9.13	-47.9	-50.0	17.0	0.00e+00	0	38	0	1152385024	66	4815
2026-01-19 12:07:24.38	330.56	9.07	-48.0	-50.1	16.8	0.00e+00	0	38	0	1154482176	66	4893
2026-01-19 12:07:25.39	330.67	9.00	-48.0	-50.2	16.7	0.00e+00	0	37	0	1156579328	66	4950
2026-01-19 12:07:26.40	330.78	8.94	-48.1	-50.3	16.6	0.00e+00	0	38	0	1157627904	66	5011
2026-01-19 12:07:27.41	330.90	8.88	-48.2	-50.4	16.5	0.00e+00	0	38	0	1159725056	66	5059
2026-01-19 12:07:28.42	331.01	8.81	-48.3	-50.5	16.3	0.00e+00	0	38	0	1161822208	67	4853
2026-01-19 12:07:29.43	331.12	8.75	-48.4	-50.7	16.2	0.00e+00	0	38	0	1163919360	67	4963
2026-01-19 12:07:30.43	331.23	8.68	-48.3	-50.6	16.3	0.00e+00	0	37	0	1166016512	67	4886
2026-01-19 12:07:31.44	331.34	8.62	-48.2	-50.4	16.4	0.00e+00	0	38	0	1167065088	67	4802
2026-01-19 12:07:32.45	331.45	8.56	-48.2	-50.4	16.5	0.00e+00	0	37	0	1169162240	67	4769
2026-01-19 12:07:33.46	331.56	8.49	-48.2	-50.4	16.4	0.00e+00	0	38	0	1171259392	67	4800
2026-01-19 12:07:34.47	331.66	8.43	-48.1	-50.4	16.5	0.00e+00	0	37	0	1173356544	67	4763
2026-01-19 12:07:35.47	331.77	8.37	-48.0	-50.2	16.6	0.00e+00	0	38	0	1175453696	67	4683
2026-01-19 12:07:36.48	331.88	8.30	-48.1	-50.3	16.5	0.00e+00	0	38	0	1176502272	67	4745
2026-01-19 12:07:37.48	331.99	8.24	-48.0	-50.1	16.7	0.00e+00	0	38	0	1178599424	67	4636
2026-01-19 12:07:38.49	332.09	8.18	-48.0	-50.1	16.8	0.00e+00	0	38	0	1180696576	67	4620
2026-01-19 12:07:39.50	332.20	8.12	-48.1	-50.3	16.6	0.00e+00	0	38	0	1182793728	67	4711
2026-01-19 12:07:40.51	332.30	8.05	-48.1	-50.4	16.4	0.00e+00	0	37	0	1184890880	67	4767
2026-01-19 12:07:41.52	332.41	7.99	-48.1	-50.3	16.5	0.00e+00	0	38	0	1185939456	67	4728
2026-01-19 12:07:42.52	332.51	7.93	-48.2	-50.5	16.3	0.00e+00	0	38	0	1188036608	67	4835
2026-01-19 12:07:43.53	332.62	7.86	-48.3	-50.5	16.3	0.00e+00	0	38	0	1190133760	67	4861
2026-01-19 12:07:44.54	332.72	7.80	-48.4	-50.8	16.0	0.00e+00	0	38	0	1192230912	67	5000
2026-01-19 12:07:45.55	332.83	7.74	-48.7	-51.2	15.6	0.00e+00	0	37	0	1194328064	67	5234
2026-01-19 12:07:46.55	332.93	7.68	-48.6	-51.1	15.7	0.00e+00	0	38	0	1195376640	67	5191
2026-01-19 12:07:47.56	333.03	7.61	-48.7	-51.2	15.7	0.00e+00	0	38	0	1197473792	68	4935
2026-01-19 12:07:48.57	333.13	7.55	-48.9	-51.4	15.4	0.00e+00	0	38	0	1199570944	68	5093
2026-01-19 12:07:49.58	333.24	7.49	-48.8	-51.4	15.5	0.00e+00	0	38	0	1201668096	68	5065
2026-01-19 12:07:50.59	333.34	7.43	-48.7	-51.3	15.5	0.00e+00	0	38	0	1203765248	68	4991
2026-01-19 12:07:51.59	333.44	7.37	-48.7	-51.2	15.6	0.00e+00	0	38	0	1204813824	68	4966
2026-01-19 12:07:52.60	333.54	7.30	-48.9	-51.5	15.4	0.00e+00	0	38	0	1206910976	68	5104
2026-01-19 12:07:53.61	333.64	7.24	-48.9	-51.6	15.2	0.00e+00	0	38	0	1209008128	68	5194
2026-01-19 12:07:54.62	333.74	7.18	-48.9	-51.5	15.3	0.00e+00	0	38	0	1211105280	68	5141
2026-01-19 12:07:55.62	333.84	7.12	-48.9	-51.6	15.2	0.00e+00	0	38	0	1213202432	68	5192
2026-01-19 12:07:56.64	333.94	7.06	-49.0	-51.7	15.1	0.00e+00	0	38	0	1214251008	68	5265
2026-01-19 12:07:57.64	334.04	7.00	-49.1	-51.8	15.0	0.00e+00	0	38	0	1216348160	68	5325
2026-01-19 12:07:58.65	334.13	6.93	-49.0	-51.8	15.0	0.00e+00	0	38	0	1218445312	68	5287
2026-01-19 12:07:59.66	334.23	6.87	-49.0	-51.8	15.0	7.00e-07	0	38	0	1220542464	68	5283
2026-01-19 12:08:00.67	334.33	6.81	-49.1	-51.8	14.9	7.00e-07	0	38	0	1222639616	68	5334
