passes_logs/2026/01/19/R3.2S_Murmansk/R3.2S_Murmansk__20260119_051625_NOAA_20_JPSS-1_rec.log

#Pass ID: 20260119_051625_NOAA 20 (JPSS-1)
#Satellite: NOAA 20 (JPSS-1)
#Configuration: NOAA 20
#almurnet v.1.7.20251203
#Start time: 2026-01-19 05:16:26

#Version: 2.2.20231116
#Station: R3.2S_Murmansk
#Location: 33.079688 lon 68.888172 lat
#TLE: 1 43013U 17073A   26018.57232797  .00000065  00000+0  51758-4 0  9998
#TLE: 2 43013  98.7640 319.4740 0001368  34.2083 325.9181 14.19536753423241

#Time	Az	El	Level	Level2	SNR	BER	BlckErr	Temp	State	Recorded	gain1	gain2
2026-01-19 05:16:26.39	63.71	2.08	-52.0	-67.0	3.8	1.49e+00	0	35	0	0	76	19187
2026-01-19 05:16:27.40	63.64	2.14	-52.0	-66.9	3.8	1.49e+00	0	35	104	0	74	21436
2026-01-19 05:16:28.40	63.58	2.19	-52.0	-66.9	3.8	1.49e+00	0	35	104	0	74	21437
2026-01-19 05:16:29.41	63.51	2.25	-52.0	-66.9	3.8	1.49e+00	0	35	104	0	74	21388
2026-01-19 05:16:30.42	63.45	2.31	-52.0	-66.9	3.8	1.49e+00	0	35	104	0	74	21438
2026-01-19 05:16:31.43	63.38	2.37	-52.0	-66.9	3.8	1.49e+00	0	35	104	0	74	21445
2026-01-19 05:16:32.43	63.32	2.42	-52.0	-66.9	3.8	1.49e+00	0	35	104	0	74	21369
2026-01-19 05:16:33.44	63.25	2.48	-52.0	-66.9	3.8	1.49e+00	0	35	104	0	74	21414
2026-01-19 05:16:34.45	63.18	2.54	-52.0	-66.9	3.8	1.49e+00	0	35	104	0	74	21478
2026-01-19 05:16:35.46	63.12	2.60	-52.0	-66.9	3.8	1.49e+00	0	35	104	0	74	21434
2026-01-19 05:16:36.46	63.05	2.65	-52.0	-66.9	3.8	1.49e+00	0	35	104	0	74	21449
2026-01-19 05:16:37.47	62.98	2.71	-52.0	-66.9	3.8	1.49e+00	0	35	104	0	74	21416
2026-01-19 05:16:38.48	62.91	2.77	-52.0	-66.9	3.8	1.49e+00	0	35	104	0	74	21478
2026-01-19 05:16:39.49	62.85	2.83	-52.0	-66.9	3.8	1.49e+00	0	35	104	0	74	21403
2026-01-19 05:16:40.49	62.78	2.89	-52.0	-66.9	3.8	1.49e+00	0	35	104	0	74	21442
2026-01-19 05:16:41.50	62.71	2.95	-52.0	-66.9	3.8	1.49e+00	0	35	104	0	74	21405
2026-01-19 05:16:42.51	62.64	3.00	-52.0	-66.9	3.8	1.49e+00	0	35	104	0	74	21474
2026-01-19 05:16:43.52	62.57	3.06	-52.0	-66.9	3.8	1.49e+00	0	35	104	0	74	21346
2026-01-19 05:16:44.52	62.50	3.12	-52.0	-66.9	3.8	1.49e+00	0	35	104	0	74	21418
2026-01-19 05:16:45.53	62.43	3.18	-52.0	-66.9	3.8	1.49e+00	0	35	104	0	74	21432
2026-01-19 05:16:46.54	62.36	3.24	-52.0	-66.9	3.8	1.49e+00	0	35	104	0	74	21368
2026-01-19 05:16:47.55	62.29	3.30	-52.0	-66.9	3.8	1.49e+00	0	35	104	0	74	21401
2026-01-19 05:16:48.56	62.22	3.36	-52.0	-66.9	3.8	1.49e+00	0	35	104	0	74	21398
2026-01-19 05:16:49.57	62.15	3.42	-52.0	-66.9	3.8	1.49e+00	0	35	104	0	74	21293
2026-01-19 05:16:50.57	62.08	3.47	-52.0	-66.8	3.8	1.49e+00	0	36	104	0	74	21180
2026-01-19 05:16:51.59	62.01	3.53	-52.0	-66.8	3.8	1.49e+00	0	36	104	0	74	21122
2026-01-19 05:16:52.60	61.94	3.59	-52.0	-66.8	3.8	1.49e+00	0	35	104	0	74	21074
2026-01-19 05:16:53.60	61.86	3.65	-52.0	-66.8	3.8	1.49e+00	0	35	104	0	74	21069
2026-01-19 05:16:54.61	61.79	3.71	-52.0	-66.8	3.8	1.49e+00	0	35	104	0	74	21125
2026-01-19 05:16:55.62	61.72	3.77	-52.0	-66.9	3.8	1.49e+00	0	36	104	0	74	21277
2026-01-19 05:16:56.63	61.65	3.83	-52.0	-66.9	3.8	1.49e+00	0	36	104	0	74	21420
2026-01-19 05:16:57.64	61.57	3.89	-52.0	-66.9	3.8	1.49e+00	0	36	104	0	74	21389
2026-01-19 05:16:58.64	61.50	3.95	-52.0	-66.8	3.8	1.49e+00	0	36	104	0	74	21177
2026-01-19 05:16:59.65	61.43	4.01	-51.9	-66.6	3.8	1.49e+00	0	36	104	0	74	20595
2026-01-19 05:17:00.66	61.35	4.07	-51.9	-66.1	3.8	1.49e+00	0	36	104	0	74	19599
2026-01-19 05:17:01.67	61.28	4.13	-51.9	-65.7	3.8	1.49e+00	0	36	104	0	74	18570
2026-01-19 05:17:02.67	61.20	4.19	-51.8	-64.7	3.8	1.49e+00	0	36	104	0	74	16531
2026-01-19 05:17:03.68	61.13	4.25	-51.8	-64.5	3.8	1.47e+00	0	36	104	0	74	16156
2026-01-19 05:17:04.69	61.05	4.31	-51.8	-63.3	4.2	1.42e+00	0	36	0	0	74	14143
2026-01-19 05:17:05.69	60.98	4.37	-51.7	-62.6	4.4	1.33e+00	93	36	0	0	74	12997
2026-01-19 05:17:06.70	60.90	4.43	-51.6	-61.7	4.9	1.00e+00	0	36	0	2097152	74	11709
2026-01-19 05:17:07.71	60.82	4.49	-51.6	-61.5	4.9	7.52e-01	0	36	0	4194304	74	11483
2026-01-19 05:17:08.72	60.75	4.55	-51.5	-60.7	5.4	6.00e-01	0	36	0	6291456	74	10520
2026-01-19 05:17:09.72	60.67	4.61	-51.5	-60.6	5.5	4.90e-01	0	36	0	7340032	74	10296
2026-01-19 05:17:10.73	60.59	4.67	-51.4	-60.1	5.8	3.88e-01	0	36	0	9437184	74	9827
2026-01-19 05:17:11.74	60.51	4.73	-51.5	-60.6	5.5	4.48e-01	0	36	0	11534336	74	10365
2026-01-19 05:17:12.75	60.43	4.80	-51.5	-60.6	5.5	5.00e-01	0	36	0	13631488	74	10347
2026-01-19 05:17:13.76	60.36	4.86	-51.5	-60.6	5.5	4.85e-01	0	36	0	14680064	74	10395
2026-01-19 05:17:14.76	60.28	4.92	-51.6	-61.3	5.1	6.27e-01	0	36	0	16777216	74	11173
2026-01-19 05:17:15.77	60.20	4.98	-51.7	-61.8	4.8	7.58e-01	0	36	0	18874368	74	11826
2026-01-19 05:17:16.78	60.12	5.04	-51.7	-62.3	4.6	8.86e-01	0	36	0	20971520	74	12642
2026-01-19 05:17:17.79	60.04	5.10	-52.5	-66.0	3.8	1.29e-01	30	36	0	23068672	75	18236
2026-01-19 05:17:18.80	59.96	5.16	-50.3	-54.8	11.4	1.45e+00	0	36	104	23068672	71	6312
2026-01-19 05:17:19.80	59.88	5.22	-51.9	-66.4	3.8	2.10e-01	0	36	104	24117248	74	20093
2026-01-19 05:17:20.81	59.80	5.29	-50.9	-56.5	9.2	7.87e-01	0	36	104	24117248	73	6817
2026-01-19 05:17:21.82	59.72	5.35	-51.9	-63.4	4.4	3.59e-02	74	36	0	25165824	74	14229
2026-01-19 05:17:22.83	59.63	5.41	-50.7	-55.9	10.0	1.18e+00	0	36	0	26214400	73	6370
2026-01-19 05:17:23.83	59.55	5.47	-50.5	-55.3	10.7	3.32e-03	0	36	0	28311552	73	5989
2026-01-19 05:17:24.84	59.47	5.53	-50.4	-54.9	11.1	1.85e-03	0	36	0	30408704	72	6061
2026-01-19 05:17:25.85	59.39	5.60	-50.1	-54.3	11.8	7.48e-04	0	36	0	32505856	72	5650
2026-01-19 05:17:26.86	59.30	5.66	-49.8	-53.5	12.8	2.17e-04	0	36	0	33554432	71	5423
2026-01-19 05:17:27.86	59.22	5.72	-49.7	-53.4	13.0	4.11e-05	0	36	0	35651584	71	5352
2026-01-19 05:17:28.87	59.14	5.78	-49.7	-53.3	13.0	2.13e-05	0	36	0	37748736	71	5297
2026-01-19 05:17:29.88	59.05	5.85	-49.5	-53.0	13.4	9.10e-06	0	36	0	39845888	70	5421
2026-01-19 05:17:30.89	58.97	5.91	-49.6	-53.0	13.3	2.21e-05	0	36	0	41943040	70	5436
2026-01-19 05:17:31.90	58.88	5.97	-49.4	-52.7	13.7	1.22e-05	0	36	0	44040192	70	5252
2026-01-19 05:17:32.91	58.80	6.03	-49.0	-52.0	14.5	3.80e-06	0	36	0	45088768	70	4836
2026-01-19 05:17:33.91	58.71	6.10	-49.1	-52.2	14.3	1.50e-06	0	36	0	47185920	70	4952
2026-01-19 05:17:34.92	58.62	6.16	-49.0	-51.9	14.6	7.00e-07	0	36	0	49283072	69	5063
2026-01-19 05:17:35.93	58.54	6.22	-49.0	-51.9	14.6	7.00e-07	0	36	0	51380224	69	5079
2026-01-19 05:17:36.94	58.45	6.29	-49.0	-52.0	14.5	0.00e+00	0	36	0	52428800	69	5111
2026-01-19 05:17:37.95	58.36	6.35	-49.2	-52.2	14.3	1.50e-06	0	36	0	54525952	69	5257
2026-01-19 05:17:38.96	58.27	6.41	-48.9	-51.7	14.8	0.00e+00	0	36	0	56623104	69	4965
2026-01-19 05:17:39.96	58.19	6.48	-48.9	-51.7	14.8	0.00e+00	0	36	0	58720256	69	4964
2026-01-19 05:17:40.98	58.10	6.54	-49.0	-51.9	14.6	0.00e+00	0	36	0	60817408	69	5071
2026-01-19 05:17:41.98	58.01	6.60	-49.0	-51.9	14.7	0.00e+00	0	36	0	61865984	69	5070
2026-01-19 05:17:42.99	57.92	6.67	-49.1	-52.0	14.6	0.00e+00	0	36	0	63963136	69	5120
2026-01-19 05:17:44.00	57.83	6.73	-48.8	-51.6	15.0	0.00e+00	0	36	0	66060288	69	4890
2026-01-19 05:17:45.01	57.74	6.79	-48.9	-51.7	14.8	7.00e-07	0	36	0	68157440	69	4982
2026-01-19 05:17:46.02	57.65	6.86	-49.0	-51.8	14.8	7.00e-07	0	36	0	70254592	69	5019
2026-01-19 05:17:47.02	57.56	6.92	-49.0	-51.8	14.8	0.00e+00	0	36	0	72351744	69	5015
2026-01-19 05:17:48.03	57.47	6.99	-48.9	-51.7	14.9	0.00e+00	0	36	0	73400320	69	4939
2026-01-19 05:17:49.04	57.38	7.05	-48.8	-51.6	15.1	0.00e+00	0	36	0	75497472	69	4874
2026-01-19 05:17:50.05	57.28	7.11	-49.0	-51.8	14.9	0.00e+00	0	36	0	77594624	69	4988
2026-01-19 05:17:51.06	57.19	7.18	-49.0	-51.8	14.8	0.00e+00	0	36	0	79691776	69	5000
2026-01-19 05:17:52.06	57.10	7.24	-48.9	-51.6	15.1	0.00e+00	0	36	0	80740352	69	4908
2026-01-19 05:17:53.07	57.00	7.31	-49.1	-51.9	14.7	0.00e+00	0	36	0	82837504	69	5091
2026-01-19 05:17:54.08	56.91	7.37	-49.0	-51.8	14.9	0.00e+00	0	36	0	84934656	69	5004
2026-01-19 05:17:55.08	56.82	7.44	-48.9	-51.7	15.0	7.00e-07	0	36	0	87031808	69	4933
2026-01-19 05:17:56.09	56.72	7.50	-48.8	-51.5	15.2	0.00e+00	0	36	0	89128960	69	4821
2026-01-19 05:17:57.10	56.63	7.57	-48.9	-51.6	15.1	0.00e+00	0	36	0	91226112	69	4894
2026-01-19 05:17:58.11	56.53	7.63	-48.9	-51.7	15.0	0.00e+00	0	36	0	92274688	69	4931
2026-01-19 05:17:59.12	56.43	7.70	-48.8	-51.4	15.3	0.00e+00	0	36	0	94371840	69	4796
2026-01-19 05:18:00.12	56.34	7.76	-48.7	-51.3	15.4	0.00e+00	0	36	0	96468992	69	4733
2026-01-19 05:18:01.13	56.24	7.83	-48.7	-51.3	15.4	0.00e+00	0	36	0	98566144	69	4718
2026-01-19 05:18:02.14	56.14	7.89	-48.7	-51.3	15.4	0.00e+00	0	36	0	100663296	69	4759
2026-01-19 05:18:03.15	56.04	7.96	-48.8	-51.5	15.3	0.00e+00	0	36	0	101711872	69	4817
2026-01-19 05:18:04.16	55.95	8.02	-48.7	-51.2	15.5	0.00e+00	0	36	0	103809024	69	4683
2026-01-19 05:18:05.16	55.85	8.09	-48.8	-51.4	15.4	0.00e+00	0	36	0	105906176	69	4765
2026-01-19 05:18:06.17	55.75	8.15	-48.6	-51.1	15.7	0.00e+00	0	36	0	108003328	69	4614
2026-01-19 05:18:07.18	55.65	8.22	-48.4	-50.8	16.0	0.00e+00	0	36	0	109051904	68	4715
2026-01-19 05:18:08.19	55.55	8.29	-48.4	-50.7	16.0	0.00e+00	0	36	0	111149056	68	4701
2026-01-19 05:18:09.19	55.45	8.35	-48.4	-50.8	16.0	0.00e+00	0	36	0	113246208	68	4720
2026-01-19 05:18:10.20	55.35	8.42	-48.4	-50.7	16.0	0.00e+00	0	36	0	115343360	68	4705
2026-01-19 05:18:11.21	55.24	8.48	-48.4	-50.8	16.0	0.00e+00	0	36	0	117440512	68	4709
2026-01-19 05:18:12.22	55.14	8.55	-48.5	-50.9	15.9	0.00e+00	0	36	0	119537664	68	4784
2026-01-19 05:18:13.22	55.04	8.62	-48.4	-50.8	16.1	0.00e+00	0	36	0	120586240	68	4714
2026-01-19 05:18:14.23	54.94	8.68	-48.4	-50.7	16.1	0.00e+00	0	36	0	122683392	68	4698
2026-01-19 05:18:15.24	54.83	8.75	-48.3	-50.6	16.2	0.00e+00	0	36	0	124780544	68	4639
2026-01-19 05:18:16.25	54.73	8.82	-48.4	-50.8	16.0	0.00e+00	0	36	0	126877696	68	4740
2026-01-19 05:18:17.26	54.62	8.88	-48.4	-50.7	16.1	0.00e+00	0	36	0	128974848	68	4681
2026-01-19 05:18:18.26	54.52	8.95	-48.4	-50.8	16.0	0.00e+00	0	36	0	130023424	68	4736
2026-01-19 05:18:19.27	54.41	9.02	-48.5	-50.9	16.0	0.00e+00	0	36	0	132120576	68	4767
2026-01-19 05:18:20.28	54.31	9.08	-48.5	-50.9	15.9	0.00e+00	0	36	0	134217728	68	4787
2026-01-19 05:18:21.29	54.20	9.15	-48.4	-50.8	16.0	0.00e+00	0	36	0	136314880	68	4726
2026-01-19 05:18:22.30	54.09	9.22	-48.5	-50.9	15.9	0.00e+00	0	36	0	138412032	68	4805
2026-01-19 05:18:23.30	53.99	9.28	-48.5	-50.9	16.0	0.00e+00	0	36	0	139460608	68	4771
2026-01-19 05:18:24.31	53.88	9.35	-48.5	-50.9	16.0	0.00e+00	0	36	0	141557760	68	4778
2026-01-19 05:18:25.32	53.77	9.42	-48.5	-50.9	15.9	0.00e+00	0	36	0	143654912	68	4811
2026-01-19 05:18:26.32	53.66	9.49	-48.6	-51.0	15.9	0.00e+00	0	37	0	145752064	68	4825
2026-01-19 05:18:27.33	53.55	9.55	-48.5	-50.9	16.0	0.00e+00	0	36	0	147849216	68	4789
2026-01-19 05:18:28.34	53.44	9.62	-48.6	-51.1	15.8	0.00e+00	0	36	0	148897792	68	4901
2026-01-19 05:18:29.35	53.33	9.69	-48.5	-50.9	16.0	0.00e+00	0	36	0	150994944	68	4795
2026-01-19 05:18:30.36	53.22	9.76	-48.6	-51.0	15.8	0.00e+00	0	36	0	153092096	68	4863
2026-01-19 05:18:31.36	53.11	9.82	-48.6	-51.1	15.8	0.00e+00	0	37	0	155189248	68	4883
2026-01-19 05:18:32.37	53.00	9.89	-48.7	-51.1	15.8	0.00e+00	0	37	0	157286400	68	4902
2026-01-19 05:18:33.38	52.88	9.96	-48.6	-51.0	15.9	0.00e+00	0	36	0	158334976	68	4850
2026-01-19 05:18:34.39	52.77	10.03	-48.6	-51.0	15.9	0.00e+00	0	36	0	160432128	68	4849
2026-01-19 05:18:35.40	52.66	10.10	-48.6	-51.1	15.8	0.00e+00	0	36	0	162529280	68	4881
2026-01-19 05:18:36.40	52.54	10.16	-48.5	-50.9	16.0	0.00e+00	0	36	0	164626432	68	4804
2026-01-19 05:18:37.41	52.43	10.23	-48.6	-50.9	16.0	0.00e+00	0	36	0	166723584	68	4805
2026-01-19 05:18:38.42	52.31	10.30	-48.6	-51.0	15.9	0.00e+00	0	36	0	167772160	68	4846
2026-01-19 05:18:39.43	52.19	10.37	-48.5	-50.8	16.1	0.00e+00	0	37	0	169869312	68	4755
2026-01-19 05:18:40.43	52.08	10.44	-48.6	-51.0	16.0	0.00e+00	0	36	0	171966464	68	4842
2026-01-19 05:18:41.44	51.96	10.51	-48.5	-50.8	16.2	0.00e+00	0	36	0	174063616	68	4731
2026-01-19 05:18:42.45	51.84	10.57	-48.4	-50.7	16.2	0.00e+00	0	36	0	176160768	68	4701
2026-01-19 05:18:43.46	51.72	10.64	-48.4	-50.8	16.2	0.00e+00	0	36	0	177209344	68	4706
2026-01-19 05:18:44.46	51.61	10.71	-48.5	-50.8	16.2	0.00e+00	0	36	0	179306496	68	4711
2026-01-19 05:18:45.47	51.49	10.78	-48.3	-50.6	16.4	0.00e+00	0	36	0	181403648	68	4605
2026-01-19 05:18:46.48	51.37	10.85	-48.3	-50.6	16.4	0.00e+00	0	36	0	183500800	68	4620
2026-01-19 05:18:47.49	51.25	10.92	-48.2	-50.4	16.5	0.00e+00	0	36	0	185597952	68	4541
2026-01-19 05:18:48.50	51.12	10.99	-48.4	-50.6	16.4	0.00e+00	0	36	0	187695104	68	4645
2026-01-19 05:18:49.50	51.00	11.06	-48.1	-50.3	16.7	0.00e+00	0	37	0	188743680	68	4442
2026-01-19 05:18:50.51	50.88	11.12	-48.2	-50.4	16.6	0.00e+00	0	36	0	190840832	68	4499
2026-01-19 05:18:51.52	50.76	11.19	-48.2	-50.4	16.6	0.00e+00	0	37	0	192937984	68	4506
2026-01-19 05:18:52.53	50.63	11.26	-48.3	-50.5	16.5	0.00e+00	0	36	0	195035136	68	4581
2026-01-19 05:18:53.53	50.51	11.33	-48.2	-50.4	16.7	0.00e+00	0	36	0	196083712	68	4504
2026-01-19 05:18:54.54	50.39	11.40	-48.2	-50.4	16.7	0.00e+00	0	36	0	198180864	68	4522
2026-01-19 05:18:55.55	50.26	11.47	-48.3	-50.5	16.6	0.00e+00	0	36	0	200278016	68	4551
2026-01-19 05:18:56.56	50.13	11.54	-48.1	-50.3	16.7	0.00e+00	0	36	0	202375168	68	4458
2026-01-19 05:18:57.57	50.01	11.61	-48.1	-50.2	16.8	0.00e+00	0	36	0	204472320	68	4414
2026-01-19 05:18:58.58	49.88	11.68	-48.0	-50.1	17.0	0.00e+00	0	36	0	205520896	68	4343
2026-01-19 05:18:59.58	49.75	11.75	-47.9	-49.9	17.0	0.00e+00	0	36	0	207618048	67	4528
2026-01-19 05:19:00.59	49.62	11.82	-47.9	-50.0	17.0	0.00e+00	0	36	0	209715200	67	4569
2026-01-19 05:19:01.60	49.49	11.89	-48.0	-50.1	16.9	0.00e+00	0	36	0	211812352	67	4612
2026-01-19 05:19:02.61	49.36	11.96	-47.8	-49.8	17.1	0.00e+00	0	37	0	213909504	67	4490
2026-01-19 05:19:03.62	49.23	12.03	-47.8	-49.9	17.1	0.00e+00	0	36	0	216006656	67	4495
2026-01-19 05:19:04.62	49.10	12.10	-47.9	-49.9	17.0	0.00e+00	0	36	0	217055232	67	4535
2026-01-19 05:19:05.63	48.97	12.17	-47.9	-49.9	17.1	0.00e+00	0	36	0	219152384	67	4516
2026-01-19 05:19:06.64	48.84	12.24	-47.9	-49.9	17.1	0.00e+00	0	37	0	221249536	67	4523
2026-01-19 05:19:07.65	48.71	12.31	-47.8	-49.8	17.2	0.00e+00	0	36	0	223346688	67	4480
2026-01-19 05:19:08.66	48.57	12.38	-47.9	-49.9	17.1	0.00e+00	0	37	0	224395264	67	4535
2026-01-19 05:19:09.66	48.44	12.45	-47.9	-49.9	17.1	0.00e+00	0	36	0	226492416	67	4511
2026-01-19 05:19:10.67	48.30	12.52	-47.8	-49.8	17.2	0.00e+00	0	36	0	228589568	67	4478
2026-01-19 05:19:11.68	48.17	12.59	-47.7	-49.7	17.3	0.00e+00	0	37	0	230686720	67	4392
2026-01-19 05:19:12.69	48.03	12.66	-47.6	-49.5	17.5	0.00e+00	0	37	0	232783872	67	4336
2026-01-19 05:19:13.70	47.89	12.73	-47.6	-49.5	17.5	0.00e+00	0	36	0	234881024	67	4319
2026-01-19 05:19:14.70	47.76	12.80	-47.6	-49.5	17.5	0.00e+00	0	36	0	235929600	67	4323
2026-01-19 05:19:15.71	47.62	12.87	-47.6	-49.4	17.6	0.00e+00	0	36	0	238026752	67	4290
2026-01-19 05:19:16.72	47.48	12.94	-47.5	-49.3	17.7	0.00e+00	0	37	0	240123904	66	4482
2026-01-19 05:19:17.73	47.34	13.01	-47.4	-49.3	17.7	0.00e+00	0	36	0	242221056	66	4469
2026-01-19 05:19:18.73	47.20	13.08	-47.4	-49.2	17.8	0.00e+00	0	37	0	244318208	66	4441
2026-01-19 05:19:19.74	47.06	13.15	-47.3	-49.1	17.9	0.00e+00	0	37	0	245366784	66	4369
2026-01-19 05:19:20.75	46.92	13.22	-47.3	-49.0	18.0	0.00e+00	0	37	0	247463936	66	4333
2026-01-19 05:19:21.76	46.78	13.29	-47.3	-49.1	17.9	0.00e+00	0	36	0	249561088	66	4364
2026-01-19 05:19:22.76	46.63	13.36	-47.4	-49.2	17.8	0.00e+00	0	37	0	251658240	66	4421
2026-01-19 05:19:23.77	46.49	13.44	-47.3	-49.2	17.9	0.00e+00	0	36	0	252706816	66	4401
2026-01-19 05:19:24.78	46.35	13.51	-47.4	-49.2	17.8	0.00e+00	0	36	0	254803968	66	4419
2026-01-19 05:19:25.79	46.20	13.58	-47.4	-49.2	17.8	0.00e+00	0	36	0	256901120	66	4431
2026-01-19 05:19:26.80	46.05	13.65	-47.4	-49.2	17.8	0.00e+00	0	36	0	258998272	66	4420
2026-01-19 05:19:27.80	45.91	13.72	-47.3	-49.1	17.9	0.00e+00	0	36	0	261095424	66	4371
2026-01-19 05:19:28.81	45.76	13.79	-47.3	-49.2	17.9	0.00e+00	0	37	0	263192576	66	4400
2026-01-19 05:19:29.82	45.61	13.86	-47.4	-49.2	17.9	0.00e+00	0	37	0	264241152	66	4395
2026-01-19 05:19:30.83	45.46	13.93	-47.5	-49.3	17.8	0.00e+00	0	37	0	266338304	66	4475
2026-01-19 05:19:31.83	45.32	14.00	-47.5	-49.4	17.7	0.00e+00	0	37	0	268435456	66	4514
2026-01-19 05:19:32.84	45.17	14.07	-47.5	-49.4	17.7	0.00e+00	0	36	0	270532608	66	4526
2026-01-19 05:19:33.85	45.01	14.14	-47.6	-49.5	17.6	0.00e+00	0	36	0	272629760	66	4594
2026-01-19 05:19:34.86	44.86	14.21	-47.6	-49.5	17.6	0.00e+00	0	36	0	273678336	66	4557
2026-01-19 05:19:35.86	44.71	14.28	-47.7	-49.6	17.5	0.00e+00	0	36	0	275775488	66	4628
2026-01-19 05:19:36.87	44.56	14.36	-47.6	-49.5	17.5	0.00e+00	0	37	0	277872640	66	4598
2026-01-19 05:19:37.88	44.40	14.43	-47.6	-49.5	17.6	0.00e+00	0	37	0	279969792	66	4577
2026-01-19 05:19:38.89	44.25	14.50	-47.6	-49.5	17.5	0.00e+00	0	36	0	282066944	66	4588
2026-01-19 05:19:39.90	44.09	14.57	-47.6	-49.5	17.6	0.00e+00	0	37	0	283115520	66	4592
2026-01-19 05:19:40.90	43.94	14.64	-47.7	-49.6	17.5	0.00e+00	0	36	0	285212672	66	4608
2026-01-19 05:19:41.91	43.78	14.71	-47.8	-49.7	17.4	0.00e+00	0	36	0	287309824	66	4687
2026-01-19 05:19:42.92	43.62	14.78	-47.7	-49.7	17.4	0.00e+00	0	36	0	289406976	66	4658
2026-01-19 05:19:43.93	43.46	14.85	-47.7	-49.7	17.4	0.00e+00	0	36	0	291504128	66	4678
2026-01-19 05:19:44.94	43.31	14.92	-47.8	-49.8	17.3	0.00e+00	0	36	0	292552704	66	4708
2026-01-19 05:19:45.94	43.15	14.99	-47.8	-49.8	17.3	0.00e+00	0	37	0	294649856	66	4748
2026-01-19 05:19:46.95	42.99	15.06	-47.9	-49.9	17.2	0.00e+00	0	37	0	296747008	66	4807
2026-01-19 05:19:47.96	42.82	15.13	-48.0	-50.0	17.1	0.00e+00	0	36	0	298844160	66	4860
2026-01-19 05:19:48.97	42.66	15.20	-48.0	-50.0	17.1	0.00e+00	0	37	0	300941312	66	4845
2026-01-19 05:19:49.98	42.50	15.28	-48.0	-50.1	17.1	0.00e+00	0	37	0	301989888	66	4881
2026-01-19 05:19:50.99	42.33	15.35	-48.1	-50.1	17.0	0.00e+00	0	36	0	304087040	66	4916
2026-01-19 05:19:51.99	42.17	15.42	-48.0	-50.1	17.0	0.00e+00	0	36	0	306184192	66	4887
2026-01-19 05:19:53.00	42.01	15.49	-48.0	-50.0	17.2	0.00e+00	0	37	0	308281344	66	4844
2026-01-19 05:19:54.01	41.84	15.56	-48.0	-50.0	17.1	0.00e+00	0	37	0	310378496	66	4863
2026-01-19 05:19:55.01	41.67	15.63	-48.0	-50.1	17.0	0.00e+00	0	37	0	311427072	66	4888
2026-01-19 05:19:56.02	41.51	15.70	-48.0	-50.1	17.0	0.00e+00	0	36	0	313524224	66	4885
2026-01-19 05:19:57.03	41.34	15.77	-48.0	-50.0	17.1	0.00e+00	0	37	0	315621376	66	4843
2026-01-19 05:19:58.04	41.17	15.84	-47.9	-49.9	17.3	0.00e+00	0	37	0	317718528	66	4769
2026-01-19 05:19:59.05	41.00	15.91	-47.9	-49.9	17.3	0.00e+00	0	37	0	319815680	66	4761
2026-01-19 05:20:00.06	40.82	15.98	-47.9	-49.8	17.3	0.00e+00	0	37	0	320864256	66	4752
2026-01-19 05:20:01.06	40.65	16.05	-48.0	-50.0	17.2	0.00e+00	0	36	0	322961408	66	4834
2026-01-19 05:20:02.07	40.48	16.12	-48.0	-50.1	17.1	0.00e+00	0	36	0	325058560	66	4874
2026-01-19 05:20:03.08	40.31	16.19	-48.0	-50.1	17.0	0.00e+00	0	36	0	327155712	66	4884
2026-01-19 05:20:04.09	40.13	16.26	-48.1	-50.2	17.0	0.00e+00	0	36	0	329252864	66	4935
2026-01-19 05:20:05.10	39.96	16.33	-48.1	-50.2	17.0	0.00e+00	0	36	0	330301440	66	4934
2026-01-19 05:20:06.10	39.78	16.40	-48.1	-50.1	17.1	0.00e+00	0	36	0	332398592	66	4903
2026-01-19 05:20:07.11	39.61	16.47	-48.1	-50.1	17.1	0.00e+00	0	37	0	334495744	66	4891
2026-01-19 05:20:08.12	39.43	16.54	-48.1	-50.1	17.0	0.00e+00	0	37	0	336592896	66	4922
2026-01-19 05:20:09.13	39.25	16.61	-48.1	-50.1	17.1	0.00e+00	0	37	0	338690048	66	4900
2026-01-19 05:20:10.14	39.07	16.68	-48.1	-50.2	17.0	0.00e+00	0	37	0	339738624	66	4971
2026-01-19 05:20:11.14	38.89	16.75	-48.0	-50.0	17.2	0.00e+00	0	37	0	341835776	66	4824
2026-01-19 05:20:12.15	38.71	16.81	-48.1	-50.1	17.0	0.00e+00	0	36	0	343932928	66	4926
2026-01-19 05:20:13.16	38.53	16.88	-48.0	-50.1	17.1	0.00e+00	0	36	0	346030080	66	4884
2026-01-19 05:20:14.17	38.34	16.95	-47.9	-49.9	17.3	0.00e+00	0	36	0	348127232	66	4805
2026-01-19 05:20:15.18	38.16	17.02	-48.0	-49.9	17.2	0.00e+00	0	37	0	349175808	66	4811
2026-01-19 05:20:16.18	37.98	17.09	-48.1	-50.2	17.0	0.00e+00	0	36	0	351272960	66	4950
2026-01-19 05:20:17.19	37.79	17.16	-47.9	-49.9	17.3	0.00e+00	0	36	0	353370112	66	4771
2026-01-19 05:20:18.20	37.61	17.23	-47.9	-49.9	17.3	0.00e+00	0	37	0	355467264	66	4805
2026-01-19 05:20:19.21	37.42	17.30	-47.8	-49.8	17.4	0.00e+00	0	37	0	357564416	66	4732
2026-01-19 05:20:20.22	37.23	17.37	-47.9	-49.8	17.4	0.00e+00	0	36	0	358612992	66	4742
2026-01-19 05:20:21.22	37.04	17.43	-47.8	-49.7	17.5	0.00e+00	0	37	0	360710144	66	4699
2026-01-19 05:20:22.23	36.85	17.50	-47.7	-49.5	17.6	0.00e+00	0	37	0	362807296	66	4598
2026-01-19 05:20:23.24	36.66	17.57	-47.6	-49.4	17.8	0.00e+00	0	36	0	364904448	66	4536
2026-01-19 05:20:24.24	36.47	17.64	-47.6	-49.4	17.8	0.00e+00	0	37	0	367001600	66	4511
2026-01-19 05:20:25.25	36.28	17.70	-47.5	-49.3	17.9	0.00e+00	0	36	0	368050176	66	4448
2026-01-19 05:20:26.26	36.09	17.77	-47.5	-49.3	17.9	0.00e+00	0	37	0	370147328	66	4475
2026-01-19 05:20:27.27	35.89	17.84	-47.2	-49.0	18.2	0.00e+00	0	37	0	372244480	66	4297
2026-01-19 05:20:28.28	35.70	17.91	-47.1	-48.8	18.4	0.00e+00	0	37	0	374341632	66	4229
2026-01-19 05:20:29.28	35.50	17.97	-47.0	-48.6	18.5	0.00e+00	0	37	0	376438784	66	4144
2026-01-19 05:20:30.29	35.31	18.04	-46.9	-48.5	18.7	0.00e+00	0	37	0	378535936	65	4335
2026-01-19 05:20:31.30	35.11	18.11	-46.8	-48.4	18.8	0.00e+00	0	36	0	379584512	65	4276
2026-01-19 05:20:32.31	34.91	18.17	-46.7	-48.2	19.0	0.00e+00	0	36	0	381681664	65	4182
2026-01-19 05:20:33.32	34.71	18.24	-46.6	-48.1	19.1	0.00e+00	0	36	0	383778816	65	4115
2026-01-19 05:20:34.32	34.51	18.31	-46.3	-47.8	19.4	0.00e+00	0	37	0	385875968	64	4215
2026-01-19 05:20:35.33	34.31	18.37	-46.3	-47.8	19.4	0.00e+00	0	37	0	386924544	64	4204
2026-01-19 05:20:36.34	34.11	18.44	-46.3	-47.8	19.4	0.00e+00	0	37	0	389021696	64	4200
2026-01-19 05:20:37.35	33.91	18.50	-46.2	-47.6	19.5	0.00e+00	0	37	0	391118848	64	4142
2026-01-19 05:20:38.35	33.70	18.57	-46.1	-47.6	19.6	0.00e+00	0	37	0	393216000	64	4115
2026-01-19 05:20:39.36	33.50	18.63	-46.2	-47.7	19.5	0.00e+00	0	36	0	395313152	64	4148
2026-01-19 05:20:40.37	33.29	18.70	-46.2	-47.6	19.5	0.00e+00	0	37	0	396361728	64	4143
2026-01-19 05:20:41.38	33.09	18.76	-46.0	-47.4	19.8	0.00e+00	0	37	0	398458880	64	4039
2026-01-19 05:20:42.38	32.88	18.83	-46.1	-47.5	19.7	0.00e+00	0	36	0	400556032	64	4061
2026-01-19 05:20:43.39	32.67	18.89	-46.0	-47.5	19.8	0.00e+00	0	36	0	402653184	63	4298
2026-01-19 05:20:44.40	32.46	18.96	-46.1	-47.5	19.8	0.00e+00	0	37	0	404750336	63	4313
2026-01-19 05:20:45.40	32.26	19.02	-46.0	-47.3	19.9	0.00e+00	0	37	0	406847488	63	4242
2026-01-19 05:20:46.41	32.05	19.08	-45.9	-47.3	20.0	0.00e+00	0	37	0	407896064	63	4223
2026-01-19 05:20:47.42	31.83	19.15	-46.0	-47.4	19.8	0.00e+00	0	37	0	409993216	63	4284
2026-01-19 05:20:48.42	31.62	19.21	-46.0	-47.4	19.9	0.00e+00	0	36	0	412090368	63	4263
2026-01-19 05:20:49.43	31.41	19.27	-46.0	-47.3	19.9	0.00e+00	0	37	0	414187520	63	4234
2026-01-19 05:20:50.44	31.19	19.33	-45.9	-47.2	20.1	0.00e+00	0	37	0	416284672	63	4192
2026-01-19 05:20:51.44	30.98	19.40	-45.8	-47.2	20.1	0.00e+00	0	36	0	417333248	63	4169
2026-01-19 05:20:52.45	30.77	19.46	-45.9	-47.2	20.0	0.00e+00	0	37	0	419430400	63	4191
2026-01-19 05:20:53.45	30.55	19.52	-45.8	-47.2	20.1	0.00e+00	0	37	0	421527552	63	4154
2026-01-19 05:20:54.46	30.33	19.58	-45.7	-47.0	20.2	0.00e+00	0	37	0	423624704	63	4091
2026-01-19 05:20:55.47	30.11	19.64	-45.7	-47.1	20.2	0.00e+00	0	37	0	424673280	63	4104
2026-01-19 05:20:56.48	29.89	19.70	-45.8	-47.1	20.2	0.00e+00	0	37	0	426770432	63	4119
2026-01-19 05:20:57.49	29.67	19.76	-45.7	-47.1	20.2	0.00e+00	0	36	0	428867584	63	4113
2026-01-19 05:20:58.50	29.45	19.82	-45.8	-47.1	20.2	0.00e+00	0	37	0	430964736	63	4132
2026-01-19 05:20:59.50	29.23	19.88	-45.8	-47.1	20.2	0.00e+00	0	36	0	433061888	63	4113
2026-01-19 05:21:00.51	29.01	19.94	-45.8	-47.1	20.2	0.00e+00	0	37	0	435159040	63	4128
2026-01-19 05:21:01.52	28.78	20.00	-45.7	-47.1	20.2	0.00e+00	0	37	0	436207616	63	4102
2026-01-19 05:21:02.53	28.56	20.06	-45.8	-47.1	20.2	0.00e+00	0	37	0	438304768	63	4141
2026-01-19 05:21:03.54	28.33	20.12	-45.8	-47.2	20.1	0.00e+00	0	36	0	440401920	63	4158
2026-01-19 05:21:04.54	28.11	20.18	-45.7	-47.1	20.2	0.00e+00	0	37	0	442499072	63	4105
2026-01-19 05:21:05.55	27.88	20.24	-45.8	-47.2	20.1	0.00e+00	0	36	0	444596224	63	4171
2026-01-19 05:21:06.56	27.65	20.29	-45.9	-47.3	20.0	0.00e+00	0	37	0	445644800	63	4196
2026-01-19 05:21:07.57	27.42	20.35	-45.9	-47.3	20.0	0.00e+00	0	37	0	447741952	63	4194
2026-01-19 05:21:08.57	27.19	20.41	-46.0	-47.3	20.0	0.00e+00	0	37	0	449839104	63	4232
2026-01-19 05:21:09.59	26.96	20.47	-45.9	-47.3	20.0	0.00e+00	0	36	0	451936256	63	4202
2026-01-19 05:21:10.59	26.73	20.52	-45.9	-47.3	20.0	0.00e+00	0	37	0	454033408	63	4205
2026-01-19 05:21:11.60	26.50	20.58	-45.9	-47.3	20.0	0.00e+00	0	37	0	455081984	63	4210
2026-01-19 05:21:12.61	26.26	20.63	-45.9	-47.3	20.0	0.00e+00	0	37	0	457179136	63	4196
2026-01-19 05:21:13.61	26.03	20.69	-46.1	-47.5	19.9	0.00e+00	0	36	0	459276288	63	4297
2026-01-19 05:21:14.62	25.79	20.74	-45.9	-47.3	20.0	0.00e+00	0	37	0	461373440	63	4214
2026-01-19 05:21:15.63	25.56	20.80	-45.8	-47.2	20.1	0.00e+00	0	37	0	463470592	63	4164
2026-01-19 05:21:16.63	25.32	20.85	-45.9	-47.2	20.1	0.00e+00	0	36	0	464519168	63	4164
2026-01-19 05:21:17.64	25.09	20.90	-45.9	-47.2	20.1	0.00e+00	0	37	0	466616320	63	4185
2026-01-19 05:21:18.65	24.85	20.96	-45.7	-47.0	20.3	0.00e+00	0	37	0	468713472	63	4094
2026-01-19 05:21:19.66	24.61	21.01	-45.7	-47.0	20.3	0.00e+00	0	36	0	470810624	63	4091
2026-01-19 05:21:20.66	24.37	21.06	-45.6	-46.9	20.4	0.00e+00	0	36	0	472907776	63	4049
2026-01-19 05:21:21.67	24.13	21.11	-45.6	-46.9	20.4	0.00e+00	0	37	0	473956352	63	4010
2026-01-19 05:21:22.68	23.89	21.17	-45.5	-46.8	20.5	0.00e+00	0	36	0	476053504	63	3989
2026-01-19 05:21:23.69	23.64	21.22	-45.3	-46.5	20.8	0.00e+00	0	37	0	478150656	62	4067
2026-01-19 05:21:24.70	23.40	21.27	-45.2	-46.4	20.8	0.00e+00	0	36	0	480247808	62	4042
2026-01-19 05:21:25.70	23.16	21.32	-45.2	-46.4	20.9	0.00e+00	0	36	0	482344960	62	4021
2026-01-19 05:21:26.71	22.91	21.37	-45.3	-46.5	20.8	0.00e+00	0	37	0	483393536	62	4070
2026-01-19 05:21:27.72	22.67	21.42	-45.3	-46.5	20.8	0.00e+00	0	37	0	485490688	62	4072
2026-01-19 05:21:28.73	22.42	21.46	-45.2	-46.5	20.8	0.00e+00	0	37	0	487587840	62	4053
2026-01-19 05:21:29.74	22.17	21.51	-45.3	-46.6	20.7	0.00e+00	0	37	0	489684992	62	4112
2026-01-19 05:21:30.75	21.92	21.56	-45.3	-46.6	20.7	0.00e+00	0	36	0	491782144	62	4105
2026-01-19 05:21:31.75	21.68	21.61	-45.3	-46.6	20.7	0.00e+00	0	36	0	492830720	62	4124
2026-01-19 05:21:32.76	21.43	21.65	-45.3	-46.6	20.7	0.00e+00	0	37	0	494927872	62	4123
2026-01-19 05:21:33.77	21.17	21.70	-45.2	-46.4	20.8	0.00e+00	0	37	0	497025024	62	4048
2026-01-19 05:21:34.78	20.92	21.75	-45.1	-46.3	21.0	0.00e+00	0	37	0	499122176	62	3994
2026-01-19 05:21:35.79	20.67	21.79	-45.0	-46.2	21.1	0.00e+00	0	37	0	501219328	62	3939
2026-01-19 05:21:36.79	20.42	21.84	-45.3	-46.5	20.8	0.00e+00	0	36	0	502267904	62	4077
2026-01-19 05:21:37.80	20.17	21.88	-45.4	-46.7	20.6	0.00e+00	0	37	0	504365056	62	4160
2026-01-19 05:21:38.81	19.91	21.92	-45.4	-46.6	20.7	0.00e+00	0	37	0	506462208	62	4140
2026-01-19 05:21:39.81	19.66	21.97	-45.2	-46.5	20.9	0.00e+00	0	37	0	508559360	62	4057
2026-01-19 05:21:40.82	19.40	22.01	-45.1	-46.3	21.0	0.00e+00	0	36	0	510656512	62	3992
2026-01-19 05:21:41.83	19.15	22.05	-45.1	-46.3	21.0	0.00e+00	0	37	0	511705088	62	3971
2026-01-19 05:21:42.84	18.89	22.09	-45.2	-46.4	20.9	0.00e+00	0	37	0	513802240	62	4043
2026-01-19 05:21:43.84	18.63	22.13	-45.4	-46.6	20.7	0.00e+00	0	36	0	515899392	62	4126
2026-01-19 05:21:44.85	18.38	22.17	-45.5	-46.8	20.5	0.00e+00	0	36	0	517996544	62	4213
2026-01-19 05:21:45.86	18.12	22.21	-45.6	-46.9	20.4	0.00e+00	0	37	0	520093696	62	4269
2026-01-19 05:21:46.87	17.86	22.25	-45.6	-46.9	20.4	0.00e+00	0	37	0	521142272	62	4264
2026-01-19 05:21:47.88	17.60	22.29	-45.5	-46.8	20.5	0.00e+00	0	37	0	523239424	62	4230
2026-01-19 05:21:48.88	17.34	22.33	-45.5	-46.8	20.5	0.00e+00	0	37	0	525336576	62	4228
2026-01-19 05:21:49.89	17.08	22.37	-45.6	-46.8	20.5	0.00e+00	0	36	0	527433728	62	4229
2026-01-19 05:21:50.90	16.81	22.41	-45.6	-46.9	20.3	0.00e+00	0	36	0	529530880	62	4261
2026-01-19 05:21:51.91	16.55	22.44	-45.7	-47.0	20.4	0.00e+00	0	37	0	530579456	62	4307
2026-01-19 05:21:52.92	16.29	22.48	-45.7	-47.0	20.4	0.00e+00	0	36	0	532676608	62	4306
2026-01-19 05:21:53.92	16.02	22.51	-45.7	-47.0	20.3	0.00e+00	0	37	0	534773760	62	4317
2026-01-19 05:21:54.93	15.76	22.55	-45.8	-47.1	20.3	0.00e+00	0	36	0	536870912	62	4355
2026-01-19 05:21:55.94	15.49	22.58	-46.1	-47.5	19.9	0.00e+00	0	37	0	538968064	62	4550
2026-01-19 05:21:56.95	15.23	22.61	-46.3	-47.7	19.7	0.00e+00	0	37	0	540016640	63	4415
2026-01-19 05:21:57.96	14.96	22.65	-46.5	-48.0	19.5	0.00e+00	0	37	0	542113792	63	4556
2026-01-19 05:21:58.96	14.70	22.68	-46.4	-47.8	19.5	0.00e+00	0	37	0	544210944	63	4487
2026-01-19 05:21:59.97	14.43	22.71	-46.4	-47.9	19.5	0.00e+00	0	37	0	546308096	63	4510
2026-01-19 05:22:00.98	14.16	22.74	-46.4	-47.8	19.5	0.00e+00	0	37	0	548405248	63	4483
2026-01-19 05:22:01.98	13.89	22.77	-46.4	-47.8	19.6	0.00e+00	0	37	0	549453824	63	4480
2026-01-19 05:22:02.99	13.62	22.80	-46.4	-47.9	19.5	0.00e+00	0	36	0	551550976	63	4525
2026-01-19 05:22:04.00	13.35	22.83	-46.6	-48.0	19.4	0.00e+00	0	37	0	553648128	63	4591
2026-01-19 05:22:05.01	13.08	22.86	-46.6	-48.2	19.2	0.00e+00	0	37	0	555745280	64	4399
2026-01-19 05:22:06.02	12.81	22.89	-46.6	-48.2	19.1	0.00e+00	0	37	0	557842432	64	4408
2026-01-19 05:22:07.02	12.54	22.91	-46.8	-48.4	19.0	0.00e+00	0	36	0	558891008	64	4510
2026-01-19 05:22:08.03	12.27	22.94	-46.8	-48.3	19.0	0.00e+00	0	37	0	560988160	64	4464
2026-01-19 05:22:09.04	12.00	22.96	-46.7	-48.2	19.0	0.00e+00	0	37	0	563085312	64	4441
2026-01-19 05:22:10.05	11.73	22.99	-46.8	-48.3	19.0	0.00e+00	0	37	0	565182464	64	4471
2026-01-19 05:22:11.05	11.46	23.01	-46.8	-48.4	18.9	0.00e+00	0	37	0	567279616	64	4523
2026-01-19 05:22:12.07	11.18	23.04	-46.9	-48.6	18.8	0.00e+00	0	37	0	568328192	64	4606
2026-01-19 05:22:13.07	10.91	23.06	-47.1	-48.7	18.6	0.00e+00	0	37	0	570425344	64	4700
2026-01-19 05:22:14.08	10.63	23.08	-47.2	-48.9	18.4	0.00e+00	0	36	0	572522496	64	4803
2026-01-19 05:22:15.09	10.36	23.10	-47.3	-49.0	18.3	0.00e+00	0	37	0	574619648	65	4592
2026-01-19 05:22:16.09	10.09	23.13	-47.5	-49.3	18.1	0.00e+00	0	36	0	576716800	65	4737
2026-01-19 05:22:17.10	9.81	23.15	-47.4	-49.1	18.2	0.00e+00	0	36	0	578813952	65	4646
2026-01-19 05:22:18.11	9.53	23.16	-47.3	-49.1	18.3	0.00e+00	0	37	0	579862528	65	4611
2026-01-19 05:22:19.12	9.26	23.18	-47.2	-48.9	18.4	0.00e+00	0	36	0	581959680	65	4540
2026-01-19 05:22:20.12	8.98	23.20	-47.1	-48.8	18.6	0.00e+00	0	37	0	584056832	65	4446
2026-01-19 05:22:21.13	8.71	23.22	-47.2	-48.8	18.5	0.00e+00	0	37	0	586153984	65	4482
2026-01-19 05:22:22.14	8.43	23.24	-47.3	-49.0	18.4	0.00e+00	0	37	0	587202560	65	4556
2026-01-19 05:22:23.15	8.15	23.25	-47.2	-48.9	18.4	0.00e+00	0	37	0	589299712	65	4517
2026-01-19 05:22:24.16	7.88	23.27	-47.2	-48.8	18.5	0.00e+00	0	37	0	591396864	65	4479
2026-01-19 05:22:25.16	7.60	23.28	-46.9	-48.5	18.9	0.00e+00	0	36	0	593494016	65	4326
2026-01-19 05:22:26.17	7.32	23.29	-47.0	-48.6	18.8	0.00e+00	0	37	0	595591168	65	4348
2026-01-19 05:22:27.17	7.05	23.31	-46.9	-48.5	18.8	0.00e+00	0	36	0	596639744	65	4325
2026-01-19 05:22:28.18	6.77	23.32	-47.0	-48.6	18.8	0.00e+00	0	37	0	598736896	65	4353
2026-01-19 05:22:29.19	6.49	23.33	-47.2	-48.9	18.5	0.00e+00	0	37	0	600834048	65	4511
2026-01-19 05:22:30.20	6.21	23.34	-47.3	-49.1	18.3	0.00e+00	0	37	0	602931200	65	4602
2026-01-19 05:22:31.21	5.93	23.35	-47.3	-49.0	18.3	0.00e+00	0	37	0	605028352	65	4572
2026-01-19 05:22:32.22	5.65	23.36	-47.1	-48.7	18.6	0.00e+00	0	36	0	607125504	65	4410
2026-01-19 05:22:33.22	5.37	23.37	-47.1	-48.7	18.6	0.00e+00	0	37	0	608174080	65	4438
2026-01-19 05:22:34.23	5.09	23.38	-47.0	-48.6	18.7	0.00e+00	0	37	0	610271232	65	4378
2026-01-19 05:22:35.24	4.81	23.39	-47.0	-48.7	18.6	0.00e+00	0	37	0	612368384	65	4405
2026-01-19 05:22:36.24	4.54	23.39	-47.1	-48.8	18.5	0.00e+00	0	36	0	614465536	65	4461
2026-01-19 05:22:37.25	4.26	23.40	-47.2	-48.9	18.5	0.00e+00	0	37	0	615514112	65	4506
2026-01-19 05:22:38.26	3.98	23.40	-47.1	-48.8	18.5	0.00e+00	0	37	0	617611264	65	4470
2026-01-19 05:22:39.27	3.69	23.41	-46.9	-48.4	18.9	0.00e+00	0	36	0	619708416	65	4288
2026-01-19 05:22:40.28	3.41	23.41	-46.7	-48.3	19.1	0.00e+00	0	37	0	621805568	65	4197
2026-01-19 05:22:41.29	3.13	23.41	-46.8	-48.4	18.9	0.00e+00	0	36	0	623902720	65	4287
2026-01-19 05:22:42.30	2.85	23.42	-46.8	-48.3	19.0	0.00e+00	0	37	0	625999872	65	4232
2026-01-19 05:22:43.30	2.58	23.42	-46.8	-48.4	19.0	0.00e+00	0	37	0	627048448	65	4256
2026-01-19 05:22:44.31	2.29	23.42	-46.8	-48.4	18.9	0.00e+00	0	36	0	629145600	65	4269
2026-01-19 05:22:45.32	2.01	23.42	-46.8	-48.4	18.9	0.00e+00	0	37	0	631242752	65	4266
2026-01-19 05:22:46.33	1.73	23.42	-46.7	-48.3	19.1	0.00e+00	0	37	0	633339904	65	4206
2026-01-19 05:22:47.34	1.45	23.41	-46.7	-48.2	19.1	0.00e+00	0	37	0	635437056	65	4165
2026-01-19 05:22:48.35	1.17	23.41	-46.5	-48.0	19.4	0.00e+00	0	36	0	636485632	64	4308
2026-01-19 05:22:49.35	0.89	23.41	-46.2	-47.7	19.7	0.00e+00	0	37	0	638582784	64	4157
2026-01-19 05:22:50.36	0.61	23.40	-46.3	-47.7	19.6	0.00e+00	0	37	0	640679936	64	4180
2026-01-19 05:22:51.37	0.33	23.40	-46.3	-47.7	19.5	0.00e+00	0	36	0	642777088	64	4175
2026-01-19 05:22:52.38	0.05	23.39	-46.3	-47.8	19.6	0.00e+00	0	37	0	643825664	64	4201
2026-01-19 05:22:53.38	359.78	23.39	-46.2	-47.6	19.7	0.00e+00	0	37	0	645922816	64	4128
2026-01-19 05:22:54.39	359.50	23.38	-46.1	-47.5	19.7	0.00e+00	0	37	0	648019968	64	4085
2026-01-19 05:22:55.40	359.22	23.37	-46.2	-47.6	19.8	0.00e+00	0	36	0	650117120	64	4111
2026-01-19 05:22:56.41	358.94	23.37	-46.0	-47.3	20.0	0.00e+00	0	37	0	652214272	63	4241
2026-01-19 05:22:57.41	358.66	23.36	-45.9	-47.3	20.1	0.00e+00	0	37	0	654311424	63	4219
2026-01-19 05:22:58.42	358.38	23.35	-46.0	-47.3	20.0	0.00e+00	0	37	0	655360000	63	4240
2026-01-19 05:22:59.43	358.10	23.34	-45.9	-47.2	20.2	0.00e+00	0	37	0	657457152	63	4168
2026-01-19 05:23:00.43	357.82	23.33	-45.8	-47.1	20.3	0.00e+00	0	37	0	659554304	63	4140
2026-01-19 05:23:01.43	357.55	23.31	-45.7	-47.0	20.3	0.00e+00	0	37	0	661651456	63	4095
2026-01-19 05:23:02.44	357.27	23.30	-45.6	-46.9	20.5	0.00e+00	0	37	0	663748608	63	4010
2026-01-19 05:23:03.45	356.99	23.29	-45.6	-46.8	20.5	0.00e+00	0	37	0	664797184	63	4001
2026-01-19 05:23:04.46	356.71	23.27	-45.4	-46.6	20.7	0.00e+00	0	37	0	666894336	62	4125
2026-01-19 05:23:05.46	356.44	23.26	-45.2	-46.4	21.0	0.00e+00	0	37	0	668991488	62	4025
2026-01-19 05:23:06.47	356.16	23.24	-45.0	-46.2	21.1	0.00e+00	0	37	0	671088640	62	3950
2026-01-19 05:23:07.48	355.88	23.23	-45.0	-46.2	21.1	0.00e+00	0	37	0	672137216	62	3939
2026-01-19 05:23:08.49	355.61	23.21	-45.0	-46.2	21.1	0.00e+00	0	37	0	674234368	61	4185
2026-01-19 05:23:09.50	355.33	23.19	-45.1	-46.3	21.0	0.00e+00	0	37	0	676331520	61	4200
2026-01-19 05:23:10.50	355.06	23.17	-44.9	-46.1	21.2	0.00e+00	0	37	0	678428672	61	4121
2026-01-19 05:23:11.51	354.78	23.16	-45.0	-46.2	21.2	0.00e+00	0	36	0	680525824	61	4146
2026-01-19 05:23:12.52	354.50	23.14	-45.0	-46.2	21.1	0.00e+00	0	37	0	682622976	61	4159
2026-01-19 05:23:13.53	354.23	23.11	-44.9	-46.1	21.2	0.00e+00	0	37	0	683671552	61	4131
2026-01-19 05:23:14.54	353.95	23.09	-44.9	-46.1	21.2	0.00e+00	0	37	0	685768704	61	4109
2026-01-19 05:23:15.54	353.68	23.07	-44.9	-46.0	21.3	0.00e+00	0	36	0	687865856	61	4090
2026-01-19 05:23:16.55	353.41	23.05	-44.9	-46.0	21.3	0.00e+00	0	36	0	689963008	61	4090
2026-01-19 05:23:17.56	353.13	23.03	-44.7	-45.9	21.4	0.00e+00	0	37	0	692060160	61	4020
2026-01-19 05:23:18.57	352.86	23.00	-44.6	-45.8	21.5	0.00e+00	0	36	0	693108736	61	3960
2026-01-19 05:23:19.58	352.59	22.98	-44.7	-45.9	21.4	0.00e+00	0	37	0	695205888	61	4006
2026-01-19 05:23:20.58	352.32	22.95	-44.8	-45.9	21.4	0.00e+00	0	37	0	697303040	61	4040
2026-01-19 05:23:21.59	352.05	22.93	-44.9	-46.1	21.2	0.00e+00	0	37	0	699400192	61	4130
2026-01-19 05:23:22.60	351.77	22.90	-45.0	-46.1	21.2	0.00e+00	0	37	0	701497344	61	4144
2026-01-19 05:23:23.60	351.51	22.87	-45.0	-46.1	21.1	0.00e+00	0	37	0	702545920	61	4140
2026-01-19 05:23:24.61	351.23	22.84	-45.0	-46.2	21.1	0.00e+00	0	36	0	704643072	61	4184
2026-01-19 05:23:25.62	350.96	22.82	-45.0	-46.2	21.1	0.00e+00	0	37	0	706740224	61	4160
2026-01-19 05:23:26.63	350.69	22.79	-44.9	-46.1	21.1	0.00e+00	0	37	0	708837376	61	4138
2026-01-19 05:23:27.64	350.43	22.76	-44.8	-46.0	21.3	0.00e+00	0	37	0	710934528	61	4074
2026-01-19 05:23:28.64	350.16	22.73	-45.0	-46.2	21.1	0.00e+00	0	36	0	711983104	61	4165
2026-01-19 05:23:29.65	349.89	22.70	-45.1	-46.3	20.9	0.00e+00	0	36	0	714080256	61	4241
2026-01-19 05:23:30.66	349.62	22.66	-45.3	-46.6	20.7	0.00e+00	0	37	0	716177408	61	4353
2026-01-19 05:23:31.67	349.36	22.63	-45.3	-46.6	20.7	0.00e+00	0	37	0	718274560	61	4363
2026-01-19 05:23:32.68	349.09	22.60	-45.4	-46.6	20.7	0.00e+00	0	37	0	720371712	61	4373
2026-01-19 05:23:33.68	348.83	22.56	-45.4	-46.7	20.6	0.00e+00	0	37	0	721420288	61	4397
2026-01-19 05:23:34.69	348.56	22.53	-45.5	-46.8	20.5	0.00e+00	0	37	0	723517440	61	4468
2026-01-19 05:23:35.70	348.30	22.50	-45.6	-46.9	20.5	0.00e+00	0	36	0	725614592	61	4498
2026-01-19 05:23:36.70	348.04	22.46	-45.7	-47.0	20.3	0.00e+00	0	36	0	727711744	61	4570
2026-01-19 05:23:37.71	347.77	22.42	-45.8	-47.1	20.2	0.00e+00	0	37	0	729808896	62	4356
2026-01-19 05:23:38.72	347.51	22.39	-45.9	-47.3	20.1	0.00e+00	0	37	0	730857472	62	4446
2026-01-19 05:23:39.73	347.25	22.35	-45.9	-47.3	20.0	0.00e+00	0	36	0	732954624	62	4464
2026-01-19 05:23:40.74	346.99	22.31	-46.0	-47.3	20.0	0.00e+00	0	37	0	735051776	62	4486
2026-01-19 05:23:41.75	346.73	22.27	-46.0	-47.4	20.0	0.00e+00	0	37	0	737148928	62	4527
2026-01-19 05:23:42.75	346.47	22.24	-46.1	-47.4	19.9	0.00e+00	0	37	0	739246080	62	4543
2026-01-19 05:23:43.76	346.21	22.20	-46.1	-47.6	19.8	0.00e+00	0	36	0	740294656	62	4605
2026-01-19 05:23:44.77	345.95	22.16	-46.1	-47.5	19.8	0.00e+00	0	37	0	742391808	62	4597
2026-01-19 05:23:45.78	345.69	22.11	-46.2	-47.6	19.7	0.00e+00	0	37	0	744488960	63	4382
2026-01-19 05:23:46.78	345.44	22.07	-46.3	-47.8	19.6	0.00e+00	0	37	0	746586112	63	4451
2026-01-19 05:23:47.79	345.18	22.03	-46.4	-47.9	19.5	0.00e+00	0	37	0	748683264	63	4495
2026-01-19 05:23:48.80	344.92	21.99	-46.5	-48.0	19.3	0.00e+00	0	37	0	750780416	63	4596
2026-01-19 05:23:49.81	344.67	21.95	-46.6	-48.1	19.3	0.00e+00	0	36	0	751828992	63	4616
2026-01-19 05:23:50.82	344.41	21.90	-46.6	-48.1	19.3	0.00e+00	0	37	0	753926144	63	4616
2026-01-19 05:23:51.82	344.16	21.86	-46.6	-48.1	19.3	0.00e+00	0	37	0	756023296	63	4606
2026-01-19 05:23:52.83	343.91	21.81	-46.5	-48.0	19.3	0.00e+00	0	37	0	758120448	63	4590
2026-01-19 05:23:53.84	343.66	21.77	-46.5	-48.0	19.4	0.00e+00	0	37	0	759169024	63	4559
2026-01-19 05:23:54.85	343.40	21.72	-46.5	-48.0	19.3	0.00e+00	0	37	0	761266176	63	4584
2026-01-19 05:23:55.86	343.15	21.68	-46.6	-48.1	19.3	0.00e+00	0	37	0	763363328	63	4612
2026-01-19 05:23:56.86	342.90	21.63	-46.7	-48.2	19.1	0.00e+00	0	37	0	765460480	63	4705
2026-01-19 05:23:57.87	342.65	21.59	-46.7	-48.2	19.1	0.00e+00	0	37	0	767557632	64	4416
2026-01-19 05:23:58.88	342.41	21.54	-46.6	-48.2	19.1	0.00e+00	0	37	0	768606208	64	4401
2026-01-19 05:23:59.89	342.16	21.49	-46.8	-48.3	19.0	0.00e+00	0	37	0	770703360	64	4482
2026-01-19 05:24:00.89	341.91	21.44	-46.7	-48.3	19.0	0.00e+00	0	37	0	772800512	64	4461
2026-01-19 05:24:01.91	341.66	21.39	-46.7	-48.2	19.0	0.00e+00	0	37	0	774897664	64	4440
2026-01-19 05:24:02.91	341.42	21.34	-46.8	-48.4	18.9	0.00e+00	0	36	0	776994816	64	4509
2026-01-19 05:24:03.92	341.18	21.29	-46.9	-48.5	18.8	0.00e+00	0	37	0	779091968	64	4559
2026-01-19 05:24:04.92	340.93	21.24	-46.9	-48.5	18.7	0.00e+00	0	37	0	780140544	64	4598
2026-01-19 05:24:05.93	340.69	21.19	-47.0	-48.6	18.7	0.00e+00	0	36	0	782237696	64	4616
2026-01-19 05:24:06.94	340.45	21.14	-46.8	-48.3	18.9	0.00e+00	0	36	0	784334848	64	4489
2026-01-19 05:24:07.95	340.21	21.09	-46.7	-48.2	19.1	0.00e+00	0	37	0	786432000	64	4427
2026-01-19 05:24:08.96	339.97	21.04	-46.6	-48.2	19.1	0.00e+00	0	37	0	787480576	64	4408
2026-01-19 05:24:09.97	339.73	20.98	-46.6	-48.1	19.2	0.00e+00	0	37	0	789577728	64	4363
2026-01-19 05:24:10.97	339.49	20.93	-46.7	-48.2	19.0	0.00e+00	0	37	0	791674880	64	4428
2026-01-19 05:24:11.98	339.25	20.88	-46.9	-48.5	18.7	0.00e+00	0	37	0	793772032	64	4578
2026-01-19 05:24:12.99	339.01	20.83	-47.0	-48.7	18.6	0.00e+00	0	37	0	795869184	64	4671
2026-01-19 05:24:14.00	338.78	20.77	-46.9	-48.5	18.7	0.00e+00	0	37	0	797966336	64	4596
2026-01-19 05:24:15.01	338.54	20.72	-46.9	-48.5	18.7	0.00e+00	0	37	0	799014912	64	4597
2026-01-19 05:24:16.02	338.31	20.66	-46.9	-48.6	18.7	0.00e+00	0	36	0	801112064	64	4599
2026-01-19 05:24:17.02	338.07	20.61	-46.8	-48.4	18.9	0.00e+00	0	37	0	803209216	64	4504
2026-01-19 05:24:18.03	337.84	20.55	-46.8	-48.3	18.9	0.00e+00	0	37	0	805306368	64	4493
2026-01-19 05:24:19.04	337.61	20.49	-46.7	-48.3	19.0	0.00e+00	0	37	0	807403520	64	4465
2026-01-19 05:24:20.05	337.38	20.44	-46.7	-48.2	19.0	0.00e+00	0	37	0	808452096	64	4429
2026-01-19 05:24:21.06	337.15	20.38	-46.6	-48.2	19.1	0.00e+00	0	37	0	810549248	64	4411
2026-01-19 05:24:22.06	336.92	20.32	-46.7	-48.3	19.0	0.00e+00	0	36	0	812646400	64	4448
2026-01-19 05:24:23.07	336.69	20.27	-46.7	-48.2	19.0	0.00e+00	0	37	0	814743552	64	4429
2026-01-19 05:24:24.09	336.46	20.21	-46.8	-48.4	18.9	0.00e+00	0	37	0	816840704	64	4496
2026-01-19 05:24:25.09	336.23	20.15	-46.7	-48.3	18.9	0.00e+00	0	37	0	817889280	64	4473
2026-01-19 05:24:26.10	336.01	20.09	-46.7	-48.3	19.0	0.00e+00	0	37	0	819986432	64	4442
2026-01-19 05:24:27.11	335.78	20.03	-46.6	-48.2	19.0	0.00e+00	0	37	0	822083584	64	4414
2026-01-19 05:24:28.11	335.56	19.97	-46.5	-48.0	19.2	0.00e+00	0	37	0	824180736	64	4339
2026-01-19 05:24:29.12	335.34	19.91	-46.6	-48.1	19.1	0.00e+00	0	37	0	826277888	64	4361
2026-01-19 05:24:30.13	335.11	19.86	-46.5	-48.0	19.2	0.00e+00	0	37	0	827326464	64	4317
2026-01-19 05:24:31.14	334.89	19.79	-46.5	-48.0	19.3	0.00e+00	0	37	0	829423616	64	4297
2026-01-19 05:24:32.14	334.67	19.73	-46.4	-47.9	19.3	0.00e+00	0	37	0	831520768	64	4271
2026-01-19 05:24:33.15	334.45	19.67	-46.3	-47.8	19.4	0.00e+00	0	37	0	833617920	64	4222
2026-01-19 05:24:34.16	334.23	19.61	-46.4	-47.9	19.4	0.00e+00	0	37	0	835715072	64	4250
2026-01-19 05:24:35.17	334.02	19.55	-46.3	-47.7	19.5	0.00e+00	0	37	0	836763648	64	4178
2026-01-19 05:24:36.18	333.80	19.49	-46.3	-47.8	19.4	0.00e+00	0	37	0	838860800	64	4220
2026-01-19 05:24:37.18	333.58	19.43	-46.3	-47.8	19.4	0.00e+00	0	37	0	840957952	64	4226
2026-01-19 05:24:38.19	333.37	19.37	-46.4	-47.9	19.4	0.00e+00	0	37	0	843055104	64	4248
2026-01-19 05:24:39.20	333.15	19.30	-46.4	-47.9	19.3	0.00e+00	0	37	0	845152256	64	4276
2026-01-19 05:24:40.21	332.94	19.24	-46.5	-48.0	19.2	0.00e+00	0	37	0	846200832	64	4322
2026-01-19 05:24:41.22	332.73	19.18	-46.4	-47.9	19.3	0.00e+00	0	37	0	848297984	64	4286
2026-01-19 05:24:42.22	332.52	19.12	-46.4	-47.9	19.3	0.00e+00	0	37	0	850395136	64	4255
2026-01-19 05:24:43.23	332.30	19.05	-46.4	-47.9	19.3	0.00e+00	0	37	0	852492288	64	4288
2026-01-19 05:24:44.24	332.09	18.99	-46.5	-48.1	19.1	0.00e+00	0	37	0	854589440	64	4345
2026-01-19 05:24:45.25	331.88	18.92	-46.5	-48.0	19.2	0.00e+00	0	37	0	855638016	64	4318
2026-01-19 05:24:46.25	331.68	18.86	-46.5	-48.0	19.3	0.00e+00	0	37	0	857735168	64	4302
2026-01-19 05:24:47.26	331.47	18.80	-46.5	-48.0	19.2	0.00e+00	0	37	0	859832320	64	4317
2026-01-19 05:24:48.27	331.26	18.73	-46.4	-48.0	19.2	0.00e+00	0	37	0	861929472	64	4295
2026-01-19 05:24:49.28	331.06	18.67	-46.5	-48.0	19.2	0.00e+00	0	37	0	864026624	64	4326
2026-01-19 05:24:50.29	330.85	18.60	-46.4	-47.9	19.2	0.00e+00	0	37	0	865075200	64	4287
2026-01-19 05:24:51.29	330.65	18.54	-46.5	-48.1	19.1	0.00e+00	0	37	0	867172352	64	4360
2026-01-19 05:24:52.30	330.45	18.47	-46.5	-48.0	19.2	0.00e+00	0	37	0	869269504	64	4332
2026-01-19 05:24:53.31	330.24	18.41	-46.6	-48.2	19.0	0.00e+00	0	37	0	871366656	64	4417
2026-01-19 05:24:54.32	330.04	18.34	-46.5	-48.0	19.2	0.00e+00	0	36	0	873463808	64	4328
2026-01-19 05:24:55.32	329.84	18.27	-46.6	-48.1	19.1	0.00e+00	0	37	0	874512384	64	4380
2026-01-19 05:24:56.33	329.64	18.21	-46.6	-48.1	19.1	0.00e+00	0	37	0	876609536	64	4371
2026-01-19 05:24:57.34	329.44	18.14	-46.6	-48.1	19.1	0.00e+00	0	36	0	878706688	64	4385
2026-01-19 05:24:58.34	329.25	18.07	-46.7	-48.3	18.9	0.00e+00	0	37	0	880803840	64	4450
2026-01-19 05:24:59.35	329.05	18.01	-46.5	-48.1	19.1	0.00e+00	0	37	0	882900992	64	4355
2026-01-19 05:25:00.35	328.86	17.94	-46.6	-48.2	19.0	0.00e+00	0	37	0	883949568	64	4425
2026-01-19 05:25:01.36	328.66	17.87	-46.7	-48.3	18.9	0.00e+00	0	37	0	886046720	64	4475
2026-01-19 05:25:02.37	328.47	17.81	-46.6	-48.2	19.0	0.00e+00	0	37	0	888143872	64	4407
2026-01-19 05:25:03.38	328.27	17.74	-46.6	-48.1	19.1	0.00e+00	0	37	0	890241024	64	4383
2026-01-19 05:25:04.38	328.08	17.67	-46.7	-48.2	18.9	0.00e+00	0	37	0	892338176	64	4440
2026-01-19 05:25:05.39	327.89	17.60	-46.5	-48.1	19.1	0.00e+00	0	37	0	893386752	64	4360
2026-01-19 05:25:06.40	327.70	17.54	-46.6	-48.1	19.0	0.00e+00	0	37	0	895483904	64	4382
2026-01-19 05:25:07.40	327.51	17.47	-46.6	-48.2	19.0	0.00e+00	0	37	0	897581056	64	4415
2026-01-19 05:25:08.41	327.32	17.40	-46.5	-48.1	19.1	0.00e+00	0	37	0	899678208	64	4363
2026-01-19 05:25:09.42	327.13	17.33	-46.6	-48.2	19.0	0.00e+00	0	37	0	901775360	64	4408
2026-01-19 05:25:10.43	326.95	17.26	-46.5	-48.1	19.0	0.00e+00	0	37	0	902823936	64	4358
2026-01-19 05:25:11.44	326.76	17.20	-46.6	-48.1	19.0	0.00e+00	0	37	0	904921088	64	4376
2026-01-19 05:25:12.44	326.57	17.13	-46.5	-48.1	19.1	0.00e+00	0	37	0	907018240	64	4358
2026-01-19 05:25:13.46	326.39	17.06	-46.5	-48.0	19.2	0.00e+00	0	37	0	909115392	64	4322
2026-01-19 05:25:14.46	326.21	16.99	-46.5	-48.0	19.1	0.00e+00	0	37	0	911212544	64	4332
2026-01-19 05:25:15.47	326.02	16.92	-46.5	-48.0	19.1	0.00e+00	0	37	0	912261120	64	4316
2026-01-19 05:25:16.48	325.84	16.85	-46.4	-47.9	19.2	0.00e+00	0	37	0	914358272	64	4261
2026-01-19 05:25:17.49	325.66	16.78	-46.4	-48.0	19.2	0.00e+00	0	37	0	916455424	64	4304
2026-01-19 05:25:18.49	325.48	16.71	-46.3	-47.8	19.3	0.00e+00	0	37	0	918552576	64	4230
2026-01-19 05:25:19.50	325.30	16.64	-46.2	-47.7	19.4	0.00e+00	0	37	0	920649728	64	4183
2026-01-19 05:25:20.51	325.12	16.57	-46.3	-47.8	19.4	0.00e+00	0	37	0	921698304	64	4209
2026-01-19 05:25:21.52	324.94	16.51	-46.1	-47.5	19.6	0.00e+00	0	37	0	923795456	64	4098
2026-01-19 05:25:22.53	324.76	16.44	-46.0	-47.4	19.8	0.00e+00	0	37	0	925892608	63	4286
2026-01-19 05:25:23.54	324.59	16.37	-46.1	-47.5	19.7	0.00e+00	0	37	0	927989760	63	4329
2026-01-19 05:25:24.54	324.41	16.30	-46.0	-47.4	19.7	0.00e+00	0	37	0	930086912	63	4289
2026-01-19 05:25:25.55	324.24	16.23	-46.0	-47.4	19.8	0.00e+00	0	37	0	931135488	63	4254
2026-01-19 05:25:26.56	324.07	16.16	-46.2	-47.7	19.5	0.00e+00	0	37	0	933232640	63	4397
2026-01-19 05:25:27.57	323.89	16.09	-46.3	-47.8	19.4	0.00e+00	0	37	0	935329792	63	4477
2026-01-19 05:25:28.58	323.72	16.02	-46.3	-47.8	19.4	0.00e+00	0	37	0	937426944	63	4479
2026-01-19 05:25:29.58	323.55	15.95	-46.4	-47.9	19.3	0.00e+00	0	37	0	939524096	63	4498
2026-01-19 05:25:30.59	323.38	15.88	-46.3	-47.8	19.4	0.00e+00	0	37	0	941621248	63	4464
2026-01-19 05:25:31.60	323.21	15.81	-46.1	-47.5	19.7	0.00e+00	0	37	0	942669824	63	4311
2026-01-19 05:25:32.60	323.04	15.74	-46.1	-47.6	19.6	0.00e+00	0	37	0	944766976	63	4365
2026-01-19 05:25:33.61	322.87	15.67	-46.1	-47.5	19.7	0.00e+00	0	37	0	946864128	63	4323
2026-01-19 05:25:34.62	322.71	15.60	-46.0	-47.4	19.7	0.00e+00	0	36	0	948961280	63	4282
2026-01-19 05:25:35.63	322.54	15.52	-46.0	-47.4	19.8	0.00e+00	0	37	0	950009856	63	4264
2026-01-19 05:25:36.64	322.37	15.45	-45.8	-47.2	19.9	0.00e+00	0	36	0	952107008	63	4183
2026-01-19 05:25:37.64	322.21	15.38	-45.6	-46.9	20.2	0.00e+00	0	36	0	954204160	63	4044
2026-01-19 05:25:38.65	322.04	15.31	-45.7	-47.0	20.1	0.00e+00	0	37	0	956301312	63	4080
2026-01-19 05:25:39.66	321.88	15.24	-45.7	-47.1	20.1	0.00e+00	0	37	0	958398464	63	4107
2026-01-19 05:25:40.67	321.72	15.17	-45.8	-47.2	19.9	0.00e+00	0	37	0	959447040	63	4172
2026-01-19 05:25:41.68	321.56	15.10	-45.8	-47.2	20.0	0.00e+00	0	37	0	961544192	63	4152
2026-01-19 05:25:42.68	321.40	15.03	-45.9	-47.3	19.9	0.00e+00	0	36	0	963641344	63	4213
2026-01-19 05:25:43.69	321.24	14.96	-46.0	-47.4	19.8	0.00e+00	0	37	0	965738496	63	4274
2026-01-19 05:25:44.70	321.08	14.89	-45.8	-47.2	19.9	0.00e+00	0	37	0	967835648	63	4162
2026-01-19 05:25:45.70	320.92	14.82	-45.8	-47.2	19.9	0.00e+00	0	36	0	969932800	63	4181
2026-01-19 05:25:46.71	320.76	14.75	-45.8	-47.2	19.9	0.00e+00	0	36	0	970981376	63	4177
2026-01-19 05:25:47.72	320.60	14.68	-45.9	-47.3	19.8	0.00e+00	0	37	0	973078528	63	4228
2026-01-19 05:25:48.73	320.45	14.61	-45.7	-47.1	20.0	0.00e+00	0	37	0	975175680	63	4125
2026-01-19 05:25:49.74	320.29	14.54	-45.7	-47.1	20.1	0.00e+00	0	37	0	977272832	63	4100
2026-01-19 05:25:50.74	320.14	14.47	-45.8	-47.2	19.9	0.00e+00	0	37	0	978321408	63	4175
2026-01-19 05:25:51.75	319.98	14.39	-45.7	-47.1	20.0	0.00e+00	0	37	0	980418560	63	4132
2026-01-19 05:25:52.76	319.83	14.32	-45.9	-47.3	19.8	0.00e+00	0	36	0	982515712	63	4231
2026-01-19 05:25:53.77	319.68	14.25	-45.9	-47.3	19.8	0.00e+00	0	37	0	984612864	63	4237
2026-01-19 05:25:54.78	319.52	14.18	-45.9	-47.3	19.8	0.00e+00	0	37	0	986710016	63	4241
2026-01-19 05:25:55.78	319.37	14.11	-45.8	-47.2	19.9	0.00e+00	0	37	0	987758592	63	4186
2026-01-19 05:25:56.79	319.22	14.04	-45.8	-47.2	19.9	0.00e+00	0	37	0	989855744	63	4182
2026-01-19 05:25:57.80	319.07	13.97	-45.8	-47.2	19.9	0.00e+00	0	37	0	991952896	63	4165
2026-01-19 05:25:58.81	318.92	13.90	-45.9	-47.3	19.8	0.00e+00	0	37	0	994050048	63	4205
2026-01-19 05:25:59.82	318.78	13.83	-46.0	-47.4	19.7	0.00e+00	0	36	0	996147200	63	4269
2026-01-19 05:26:00.82	318.63	13.76	-46.0	-47.4	19.7	0.00e+00	0	37	0	998244352	63	4279
2026-01-19 05:26:01.83	318.48	13.69	-46.0	-47.5	19.6	0.00e+00	0	37	0	999292928	63	4305
2026-01-19 05:26:02.84	318.34	13.62	-46.2	-47.6	19.5	0.00e+00	0	37	0	1001390080	63	4384
2026-01-19 05:26:03.85	318.19	13.55	-46.2	-47.6	19.5	0.00e+00	0	37	0	1003487232	63	4379
2026-01-19 05:26:04.85	318.05	13.48	-46.3	-47.8	19.3	0.00e+00	0	37	0	1005584384	63	4450
2026-01-19 05:26:05.86	317.90	13.40	-46.3	-47.8	19.3	0.00e+00	0	37	0	1006632960	63	4476
2026-01-19 05:26:06.87	317.76	13.33	-46.4	-47.9	19.1	0.00e+00	0	37	0	1008730112	63	4535
2026-01-19 05:26:07.88	317.62	13.26	-46.5	-48.1	19.0	0.00e+00	0	37	0	1010827264	63	4636
2026-01-19 05:26:08.89	317.47	13.19	-46.6	-48.2	18.9	0.00e+00	0	37	0	1012924416	63	4670
2026-01-19 05:26:09.90	317.33	13.12	-46.5	-48.1	19.0	0.00e+00	0	37	0	1015021568	63	4624
2026-01-19 05:26:10.90	317.19	13.05	-46.6	-48.2	18.9	0.00e+00	0	37	0	1017118720	63	4658
2026-01-19 05:26:11.91	317.05	12.98	-46.4	-48.0	19.1	0.00e+00	0	37	0	1018167296	63	4568
2026-01-19 05:26:12.92	316.91	12.91	-46.4	-47.9	19.1	0.00e+00	0	37	0	1020264448	63	4544
2026-01-19 05:26:13.93	316.77	12.84	-46.4	-48.0	19.1	0.00e+00	0	37	0	1022361600	63	4561
2026-01-19 05:26:14.94	316.64	12.77	-46.4	-48.0	19.1	0.00e+00	0	36	0	1024458752	63	4570
2026-01-19 05:26:15.94	316.50	12.70	-46.3	-47.9	19.2	0.00e+00	0	37	0	1026555904	63	4499
2026-01-19 05:26:16.95	316.36	12.63	-46.2	-47.7	19.3	0.00e+00	0	36	0	1027604480	63	4424
2026-01-19 05:26:17.96	316.23	12.56	-46.5	-48.0	19.0	0.00e+00	0	37	0	1029701632	63	4575
2026-01-19 05:26:18.97	316.09	12.49	-46.5	-48.0	19.0	0.00e+00	0	37	0	1031798784	63	4583
2026-01-19 05:26:19.97	315.96	12.42	-46.5	-48.1	19.0	0.00e+00	0	37	0	1033895936	63	4599
2026-01-19 05:26:20.98	315.83	12.35	-46.5	-48.1	18.9	0.00e+00	0	36	0	1034944512	63	4631
2026-01-19 05:26:21.99	315.69	12.28	-46.6	-48.2	18.8	0.00e+00	0	37	0	1037041664	63	4697
2026-01-19 05:26:23.00	315.56	12.21	-46.6	-48.2	18.8	0.00e+00	0	37	0	1039138816	63	4696
2026-01-19 05:26:24.00	315.43	12.14	-46.7	-48.3	18.7	0.00e+00	0	37	0	1041235968	63	4754
2026-01-19 05:26:25.01	315.30	12.07	-46.7	-48.3	18.6	0.00e+00	0	37	0	1043333120	64	4482
2026-01-19 05:26:26.02	315.17	12.00	-46.8	-48.4	18.5	0.00e+00	0	37	0	1045430272	64	4540
2026-01-19 05:26:27.03	315.04	11.93	-46.8	-48.4	18.5	0.00e+00	0	37	0	1046478848	64	4531
2026-01-19 05:26:28.04	314.91	11.86	-46.7	-48.4	18.5	0.00e+00	0	37	0	1048576000	64	4518
2026-01-19 05:26:29.04	314.78	11.79	-46.7	-48.4	18.5	0.00e+00	0	37	0	1050673152	64	4521
2026-01-19 05:26:30.05	314.65	11.72	-46.8	-48.5	18.4	0.00e+00	0	37	0	1052770304	64	4596
2026-01-19 05:26:31.06	314.52	11.65	-46.8	-48.5	18.4	0.00e+00	0	37	0	1054867456	64	4556
2026-01-19 05:26:32.07	314.40	11.58	-47.0	-48.8	18.2	0.00e+00	0	37	0	1055916032	64	4706
2026-01-19 05:26:33.08	314.27	11.51	-46.9	-48.6	18.3	0.00e+00	0	37	0	1058013184	64	4630
2026-01-19 05:26:34.08	314.14	11.44	-46.9	-48.6	18.3	0.00e+00	0	37	0	1060110336	64	4640
2026-01-19 05:26:35.09	314.02	11.37	-46.9	-48.7	18.2	0.00e+00	0	37	0	1062207488	64	4667
2026-01-19 05:26:36.10	313.89	11.30	-47.0	-48.8	18.1	0.00e+00	0	36	0	1064304640	64	4735
2026-01-19 05:26:37.10	313.77	11.23	-47.1	-48.8	18.1	0.00e+00	0	37	0	1065353216	64	4755
2026-01-19 05:26:38.11	313.65	11.17	-47.0	-48.8	18.1	0.00e+00	0	37	0	1067450368	64	4717
2026-01-19 05:26:39.12	313.53	11.10	-46.7	-48.4	18.4	0.00e+00	0	37	0	1069547520	64	4508
2026-01-19 05:26:40.13	313.40	11.03	-46.8	-48.5	18.4	0.00e+00	0	37	0	1071644672	64	4546
2026-01-19 05:26:41.14	313.28	10.96	-46.7	-48.4	18.4	0.00e+00	0	37	0	1073741824	64	4528
2026-01-19 05:26:42.14	313.16	10.89	-47.0	-48.8	18.1	0.00e+00	0	37	0	1074790400	64	4708
2026-01-19 05:26:43.15	313.04	10.82	-47.0	-48.7	18.1	0.00e+00	0	37	0	1076887552	64	4697
2026-01-19 05:26:44.16	312.92	10.75	-47.0	-48.7	18.1	0.00e+00	0	37	0	1078984704	64	4699
2026-01-19 05:26:45.17	312.80	10.68	-47.1	-48.8	18.0	0.00e+00	0	37	0	1081081856	64	4759
2026-01-19 05:26:46.18	312.68	10.61	-47.2	-49.0	17.8	0.00e+00	0	37	0	1083179008	64	4851
2026-01-19 05:26:47.18	312.57	10.55	-47.3	-49.2	17.7	0.00e+00	0	36	0	1084227584	65	4678
2026-01-19 05:26:48.19	312.45	10.48	-47.3	-49.2	17.6	0.00e+00	0	37	0	1086324736	65	4688
2026-01-19 05:26:49.20	312.33	10.41	-47.2	-49.1	17.7	0.00e+00	0	37	0	1088421888	65	4623
2026-01-19 05:26:50.20	312.22	10.34	-47.4	-49.3	17.6	0.00e+00	0	37	0	1090519040	65	4719
2026-01-19 05:26:51.21	312.10	10.27	-47.4	-49.3	17.6	0.00e+00	0	37	0	1092616192	65	4722
2026-01-19 05:26:52.22	311.98	10.20	-47.5	-49.4	17.4	0.00e+00	0	36	0	1093664768	65	4778
2026-01-19 05:26:53.23	311.87	10.14	-47.6	-49.5	17.3	0.00e+00	0	37	0	1095761920	65	4849
2026-01-19 05:26:54.24	311.76	10.07	-47.6	-49.6	17.3	0.00e+00	0	37	0	1097859072	65	4872
2026-01-19 05:26:55.25	311.64	10.00	-47.8	-49.9	16.9	0.00e+00	0	37	0	1099956224	66	4799
2026-01-19 05:26:56.25	311.53	9.93	-47.5	-49.4	17.4	0.00e+00	0	37	0	1102053376	66	4507
2026-01-19 05:26:57.26	311.42	9.86	-47.6	-49.6	17.2	0.00e+00	0	37	0	1103101952	66	4619
2026-01-19 05:26:58.27	311.30	9.80	-47.4	-49.3	17.5	0.00e+00	0	36	0	1105199104	66	4474
2026-01-19 05:26:59.28	311.19	9.73	-47.5	-49.4	17.4	0.00e+00	0	37	0	1107296256	66	4542
2026-01-19 05:27:00.29	311.08	9.66	-47.3	-49.1	17.7	0.00e+00	0	37	0	1109393408	66	4391
2026-01-19 05:27:01.29	310.97	9.59	-47.1	-48.9	17.9	0.00e+00	0	37	0	1111490560	66	4271
2026-01-19 05:27:02.30	310.86	9.53	-47.3	-49.2	17.7	0.00e+00	0	37	0	1113587712	66	4401
2026-01-19 05:27:03.31	310.75	9.46	-47.3	-49.2	17.6	0.00e+00	0	37	0	1114636288	66	4410
2026-01-19 05:27:04.32	310.64	9.39	-47.6	-49.5	17.3	0.00e+00	0	37	0	1116733440	66	4594
2026-01-19 05:27:05.32	310.54	9.32	-47.4	-49.3	17.5	0.00e+00	0	37	0	1118830592	66	4475
2026-01-19 05:27:06.33	310.43	9.26	-47.6	-49.6	17.2	0.00e+00	0	37	0	1120927744	66	4643
2026-01-19 05:27:07.34	310.32	9.19	-47.9	-50.0	16.8	0.00e+00	0	37	0	1121976320	66	4847
2026-01-19 05:27:08.35	310.21	9.12	-47.8	-49.9	16.8	0.00e+00	0	36	0	1124073472	66	4808
2026-01-19 05:27:09.36	310.11	9.06	-47.8	-49.9	16.8	0.00e+00	0	37	0	1126170624	66	4803
2026-01-19 05:27:10.36	310.00	8.99	-48.2	-50.5	16.3	0.00e+00	0	37	0	1128267776	66	5110
2026-01-19 05:27:11.37	309.90	8.92	-48.0	-50.2	16.5	0.00e+00	0	37	0	1130364928	67	4700
2026-01-19 05:27:12.38	309.79	8.86	-47.8	-49.9	16.8	0.00e+00	0	37	0	1131413504	67	4534
2026-01-19 05:27:13.39	309.69	8.79	-47.9	-50.1	16.7	0.00e+00	0	37	0	1133510656	67	4610
2026-01-19 05:27:14.40	309.58	8.72	-47.7	-49.8	17.0	0.00e+00	0	37	0	1135607808	67	4458
2026-01-19 05:27:15.40	309.48	8.66	-48.0	-50.1	16.6	0.00e+00	0	37	0	1137704960	67	4643
2026-01-19 05:27:16.41	309.38	8.59	-47.9	-50.0	16.7	0.00e+00	0	37	0	1139802112	67	4582
2026-01-19 05:27:17.42	309.28	8.52	-47.8	-49.9	16.8	0.00e+00	0	37	0	1141899264	67	4533
2026-01-19 05:27:18.43	309.17	8.46	-47.8	-49.9	16.8	0.00e+00	0	37	0	1142947840	67	4520
2026-01-19 05:27:19.43	309.07	8.39	-48.0	-50.2	16.5	0.00e+00	0	37	0	1145044992	67	4664
2026-01-19 05:27:20.44	308.97	8.33	-48.1	-50.3	16.4	0.00e+00	0	37	0	1147142144	67	4741
2026-01-19 05:27:21.45	308.87	8.26	-48.1	-50.3	16.4	0.00e+00	0	36	0	1149239296	67	4742
2026-01-19 05:27:22.46	308.77	8.19	-48.2	-50.5	16.2	0.00e+00	0	37	0	1150287872	67	4823
2026-01-19 05:27:23.46	308.67	8.13	-48.2	-50.6	16.1	0.00e+00	0	37	0	1152385024	67	4893
2026-01-19 05:27:24.47	308.57	8.06	-48.1	-50.4	16.3	0.00e+00	0	37	0	1154482176	67	4789
2026-01-19 05:27:25.48	308.48	8.00	-48.4	-50.8	15.9	0.00e+00	0	37	0	1156579328	67	5011
2026-01-19 05:27:26.49	308.38	7.93	-48.2	-50.5	16.1	0.00e+00	0	37	0	1158676480	67	4866
2026-01-19 05:27:27.50	308.28	7.87	-48.1	-50.4	16.3	0.00e+00	0	37	0	1160773632	67	4780
2026-01-19 05:27:28.50	308.18	7.80	-48.2	-50.6	16.1	0.00e+00	0	37	0	1161822208	67	4875
2026-01-19 05:27:29.51	308.09	7.74	-48.1	-50.4	16.2	0.00e+00	0	37	0	1163919360	67	4801
2026-01-19 05:27:30.52	307.99	7.67	-48.2	-50.5	16.2	0.00e+00	0	37	0	1166016512	67	4848
2026-01-19 05:27:31.53	307.89	7.61	-48.4	-50.8	15.8	0.00e+00	0	37	0	1168113664	67	5003
2026-01-19 05:27:32.54	307.80	7.54	-47.9	-50.0	16.6	0.00e+00	0	37	0	1170210816	67	4591
2026-01-19 05:27:33.54	307.70	7.48	-48.1	-50.4	16.2	0.00e+00	0	37	0	1171259392	67	4789
2026-01-19 05:27:34.55	307.61	7.41	-47.9	-50.0	16.6	0.00e+00	0	37	0	1173356544	67	4589
2026-01-19 05:27:35.56	307.51	7.35	-48.2	-50.5	16.2	0.00e+00	0	37	0	1175453696	67	4844
2026-01-19 05:27:36.57	307.42	7.28	-48.2	-50.5	16.1	0.00e+00	0	37	0	1177550848	67	4851
2026-01-19 05:27:37.58	307.33	7.22	-47.9	-50.1	16.5	0.00e+00	0	37	0	1178599424	67	4647
2026-01-19 05:27:38.58	307.23	7.15	-48.9	-51.7	15.0	7.00e-07	0	37	0	1180696576	68	5231
2026-01-19 05:27:39.59	307.14	7.09	-48.7	-51.4	15.3	0.00e+00	0	37	0	1182793728	68	5045
2026-01-19 05:27:40.60	307.05	7.03	-48.4	-50.8	15.8	0.00e+00	0	37	0	1184890880	68	4754
2026-01-19 05:27:41.61	306.96	6.96	-48.4	-50.8	15.9	0.00e+00	0	37	0	1186988032	68	4758
2026-01-19 05:27:42.62	306.87	6.90	-48.3	-50.7	16.0	0.00e+00	0	37	0	1189085184	68	4655
2026-01-19 05:27:43.62	306.78	6.83	-48.6	-51.1	15.5	0.00e+00	0	37	0	1190133760	68	4909
2026-01-19 05:27:44.63	306.69	6.77	-48.5	-51.0	15.6	0.00e+00	0	37	0	1192230912	68	4862
2026-01-19 05:27:45.64	306.60	6.71	-48.8	-51.6	15.1	0.00e+00	0	37	0	1194328064	68	5175
2026-01-19 05:27:46.64	306.51	6.64	-48.9	-51.6	15.0	0.00e+00	0	37	0	1196425216	68	5209
2026-01-19 05:27:47.65	306.42	6.58	-49.0	-51.8	14.8	0.00e+00	0	37	0	1198522368	68	5305
2026-01-19 05:27:48.66	306.33	6.52	-49.1	-51.9	14.6	0.00e+00	0	37	0	1199570944	68	5401
2026-01-19 05:27:49.67	306.24	6.45	-49.1	-52.0	14.6	0.00e+00	0	37	0	1201668096	68	5430
2026-01-19 05:27:50.68	306.15	6.39	-48.9	-51.6	15.0	0.00e+00	0	37	0	1203765248	68	5199
2026-01-19 05:27:51.68	306.07	6.33	-49.0	-51.8	14.8	0.00e+00	0	37	0	1205862400	68	5307
2026-01-19 05:27:52.69	305.98	6.26	-49.0	-51.9	14.7	0.00e+00	0	37	0	1207959552	68	5372
2026-01-19 05:27:53.70	305.89	6.20	-48.8	-51.5	15.1	0.00e+00	0	37	0	1209008128	68	5130
2026-01-19 05:27:54.71	305.81	6.14	-48.8	-51.5	15.0	0.00e+00	0	37	0	1211105280	68	5125
2026-01-19 05:27:55.71	305.72	6.07	-48.5	-51.1	15.4	0.00e+00	0	37	0	1213202432	68	4905
2026-01-19 05:27:56.72	305.63	6.01	-49.2	-52.2	14.4	7.00e-07	0	37	0	1215299584	68	5530
2026-01-19 05:27:57.73	305.55	5.95	-49.2	-52.1	14.4	7.00e-07	0	37	0	1217396736	69	5212
2026-01-19 05:27:58.74	305.46	5.89	-48.7	-51.4	15.1	7.00e-07	0	37	0	1218445312	69	4791
2026-01-19 05:27:59.74	305.38	5.82	-48.9	-51.8	14.7	0.00e+00	0	37	0	1220542464	69	5002
2026-01-19 05:28:00.75	305.30	5.76	-48.8	-51.6	14.9	0.00e+00	0	37	0	1222639616	69	4907
2026-01-19 05:28:01.76	305.21	5.70	-48.9	-51.8	14.7	0.00e+00	0	37	0	1224736768	69	5012
2026-01-19 05:28:02.77	305.13	5.64	-49.0	-51.9	14.6	0.00e+00	0	37	0	1226833920	69	5086
2026-01-19 05:28:03.77	305.05	5.58	-49.0	-51.9	14.6	0.00e+00	0	37	0	1227882496	69	5052
