passes_logs/2026/01/19/R3.2S_Murmansk/R3.2S_Murmansk__20260119_225509_FENGYUN_3D_rec.log

#Pass ID: 20260119_225509_FENGYUN 3D
#Satellite: FENGYUN 3D
#Configuration: FENGYUN 3D
#almurnet v.1.7.20251203
#Start time: 2026-01-19 22:55:10

#Version: 2.2.20231116
#Station: R3.2S_Murmansk
#Location: 33.079688 lon 68.888172 lat
#TLE: 1 43010U 17072A   26019.30265705  .00000224  00000+0  12791-3 0  9991
#TLE: 2 43010  98.9940 351.1850 0002428 100.8496 259.2953 14.19697535423864

#Time	Az	El	Level	Level2	SNR	BER	BlckErr	Temp	State	Recorded	gain1	gain2
2026-01-19 22:55:10.58	20.00	2.04	-51.6	-63.5	3.8	8.47e-01	0	37	0	0	75	13693
2026-01-19 22:55:11.58	20.11	2.08	-51.6	-63.6	3.8	8.46e-01	0	37	104	0	73	15421
2026-01-19 22:55:12.59	20.22	2.11	-51.6	-63.5	3.8	8.46e-01	0	37	104	0	73	15361
2026-01-19 22:55:13.60	20.33	2.15	-51.6	-63.5	3.8	8.46e-01	0	37	104	0	73	15335
2026-01-19 22:55:14.61	20.44	2.19	-51.6	-63.5	3.8	8.47e-01	0	37	104	0	73	15385
2026-01-19 22:55:15.61	20.55	2.23	-51.6	-63.5	3.8	8.46e-01	0	37	104	0	73	15371
2026-01-19 22:55:16.62	20.67	2.27	-51.6	-63.5	3.8	8.46e-01	0	37	104	0	73	15347
2026-01-19 22:55:17.63	20.78	2.30	-51.6	-63.5	3.8	8.47e-01	0	37	104	0	73	15369
2026-01-19 22:55:18.64	20.89	2.34	-51.6	-63.5	3.8	8.45e-01	0	37	104	0	73	15348
2026-01-19 22:55:19.65	21.01	2.38	-51.6	-63.5	3.8	8.46e-01	0	37	104	0	73	15314
2026-01-19 22:55:20.65	21.12	2.42	-51.6	-63.5	3.8	8.45e-01	0	37	104	0	73	15342
2026-01-19 22:55:21.66	21.23	2.45	-51.6	-63.5	3.8	8.46e-01	0	37	104	0	73	15269
2026-01-19 22:55:22.67	21.35	2.49	-51.6	-63.5	3.8	8.47e-01	0	37	104	0	73	15335
2026-01-19 22:55:23.68	21.46	2.53	-51.6	-63.5	3.8	8.47e-01	0	37	104	0	73	15362
2026-01-19 22:55:24.68	21.57	2.57	-51.6	-63.5	3.8	8.46e-01	0	37	104	0	73	15334
2026-01-19 22:55:25.69	21.69	2.61	-51.6	-63.5	3.8	8.45e-01	0	37	104	0	73	15320
2026-01-19 22:55:26.70	21.81	2.64	-51.6	-63.5	3.8	8.46e-01	0	37	104	0	73	15321
2026-01-19 22:55:27.71	21.92	2.68	-51.6	-63.5	3.8	8.46e-01	0	37	104	0	73	15312
2026-01-19 22:55:28.72	22.04	2.72	-51.6	-63.5	3.8	8.45e-01	0	37	104	0	73	15254
2026-01-19 22:55:29.72	22.15	2.75	-51.6	-63.4	3.8	8.46e-01	0	37	104	0	73	15205
2026-01-19 22:55:30.73	22.27	2.79	-51.6	-63.4	3.8	8.47e-01	0	37	104	0	73	15205
2026-01-19 22:55:31.74	22.39	2.83	-51.6	-63.5	3.8	8.45e-01	0	37	104	0	73	15234
2026-01-19 22:55:32.75	22.50	2.87	-51.6	-63.4	3.8	8.47e-01	0	37	104	0	73	15167
2026-01-19 22:55:33.75	22.62	2.90	-51.6	-63.5	3.8	8.46e-01	0	37	104	0	73	15294
2026-01-19 22:55:34.76	22.74	2.94	-51.6	-63.5	3.8	8.47e-01	0	37	104	0	73	15281
2026-01-19 22:55:35.77	22.85	2.98	-51.6	-63.5	3.8	8.46e-01	0	37	104	0	73	15299
2026-01-19 22:55:36.78	22.97	3.02	-51.6	-63.5	3.8	8.46e-01	0	38	104	0	73	15290
2026-01-19 22:55:37.78	23.09	3.05	-51.6	-63.4	3.8	8.46e-01	0	37	104	0	73	15156
2026-01-19 22:55:38.79	23.21	3.09	-51.6	-63.4	3.8	8.47e-01	0	37	104	0	73	15168
2026-01-19 22:55:39.80	23.33	3.13	-51.6	-63.5	3.8	8.45e-01	0	38	104	0	73	15269
2026-01-19 22:55:40.81	23.45	3.16	-51.6	-63.4	3.8	8.46e-01	0	38	104	0	73	15225
2026-01-19 22:55:41.82	23.57	3.20	-51.6	-63.5	3.8	8.46e-01	0	38	104	0	73	15237
2026-01-19 22:55:42.83	23.69	3.24	-51.6	-63.4	3.8	8.46e-01	0	38	104	0	73	15223
2026-01-19 22:55:43.83	23.81	3.27	-51.6	-63.5	3.8	8.45e-01	0	38	104	0	73	15286
2026-01-19 22:55:44.84	23.93	3.31	-51.6	-63.5	3.8	8.46e-01	0	38	104	0	73	15243
2026-01-19 22:55:45.85	24.05	3.35	-51.6	-63.5	3.8	8.47e-01	0	38	104	0	73	15304
2026-01-19 22:55:46.86	24.17	3.38	-51.6	-63.5	3.8	8.46e-01	0	38	104	0	73	15288
2026-01-19 22:55:47.87	24.29	3.42	-51.6	-63.5	3.8	8.45e-01	0	38	104	0	73	15363
2026-01-19 22:55:48.87	24.41	3.46	-51.6	-63.5	3.8	8.46e-01	0	38	104	0	73	15272
2026-01-19 22:55:49.88	24.53	3.49	-51.6	-63.5	3.8	8.46e-01	0	38	104	0	73	15311
2026-01-19 22:55:50.89	24.65	3.53	-51.6	-63.5	3.8	8.46e-01	0	38	104	0	73	15262
2026-01-19 22:55:51.90	24.78	3.57	-51.6	-63.4	3.8	8.46e-01	0	38	104	0	73	15199
2026-01-19 22:55:52.91	24.90	3.60	-51.6	-63.4	3.8	8.47e-01	0	38	104	0	73	15174
2026-01-19 22:55:53.91	25.02	3.64	-51.6	-63.5	3.8	8.47e-01	0	38	104	0	73	15303
2026-01-19 22:55:54.92	25.14	3.68	-51.6	-63.5	3.8	8.46e-01	0	38	104	0	73	15338
2026-01-19 22:55:55.93	25.27	3.71	-51.6	-63.5	3.8	8.46e-01	0	38	104	0	73	15326
2026-01-19 22:55:56.93	25.39	3.75	-51.6	-63.5	3.8	8.46e-01	0	38	104	0	73	15350
2026-01-19 22:55:57.94	25.51	3.78	-51.6	-63.5	3.8	8.47e-01	0	38	104	0	73	15395
2026-01-19 22:55:58.95	25.64	3.82	-51.6	-63.5	3.8	8.47e-01	0	38	104	0	73	15334
2026-01-19 22:55:59.96	25.76	3.86	-51.6	-63.5	3.8	8.46e-01	0	38	104	0	73	15284
2026-01-19 22:56:00.97	25.89	3.89	-51.6	-63.4	3.8	8.46e-01	0	38	104	0	73	15206
2026-01-19 22:56:01.98	26.01	3.93	-51.6	-63.5	3.8	8.46e-01	0	38	104	0	73	15260
2026-01-19 22:56:02.98	26.14	3.96	-51.6	-63.4	3.8	8.46e-01	0	38	104	0	73	15189
2026-01-19 22:56:03.99	26.27	4.00	-51.6	-63.3	3.8	8.46e-01	0	38	104	0	73	15029
2026-01-19 22:56:05.00	26.39	4.03	-51.6	-63.4	3.8	8.47e-01	0	38	104	0	73	15148
2026-01-19 22:56:06.00	26.52	4.07	-51.6	-63.5	3.8	8.46e-01	0	38	104	0	73	15360
2026-01-19 22:56:07.01	26.64	4.11	-51.6	-63.5	3.8	8.46e-01	0	38	104	0	73	15381
2026-01-19 22:56:08.02	26.77	4.14	-51.6	-63.5	3.8	8.45e-01	0	38	104	0	73	15343
2026-01-19 22:56:09.03	26.90	4.18	-51.6	-63.4	3.8	8.46e-01	0	38	104	0	73	15098
2026-01-19 22:56:10.04	27.03	4.21	-51.6	-63.3	3.8	8.47e-01	0	38	104	0	73	14885
2026-01-19 22:56:11.05	27.15	4.25	-51.6	-63.3	3.8	8.46e-01	0	38	104	0	73	15011
2026-01-19 22:56:12.05	27.28	4.28	-51.6	-63.3	3.8	8.46e-01	0	38	104	0	73	15026
2026-01-19 22:56:13.06	27.41	4.32	-51.6	-63.4	3.8	8.45e-01	0	38	104	0	73	15197
2026-01-19 22:56:14.07	27.54	4.35	-51.6	-63.4	3.8	8.47e-01	0	38	104	0	73	15213
2026-01-19 22:56:15.07	27.67	4.39	-51.6	-63.5	3.8	8.47e-01	0	38	104	0	73	15265
2026-01-19 22:56:16.08	27.80	4.42	-51.6	-63.5	3.8	8.46e-01	0	38	104	0	73	15281
2026-01-19 22:56:17.09	27.93	4.46	-51.6	-63.5	3.8	8.45e-01	0	38	104	0	73	15289
2026-01-19 22:56:18.10	28.06	4.49	-51.6	-63.5	3.8	8.45e-01	0	38	104	0	73	15313
2026-01-19 22:56:19.10	28.19	4.53	-51.6	-63.5	3.8	8.46e-01	0	38	104	0	73	15309
2026-01-19 22:56:20.11	28.32	4.56	-51.6	-63.4	3.8	8.46e-01	0	38	104	0	73	15164
2026-01-19 22:56:21.12	28.45	4.59	-51.6	-63.3	3.8	8.47e-01	0	38	104	0	73	14904
2026-01-19 22:56:22.13	28.58	4.63	-51.6	-63.1	3.8	8.45e-01	0	38	104	0	73	14675
2026-01-19 22:56:23.13	28.71	4.66	-51.6	-62.8	3.8	8.47e-01	0	38	104	0	73	14047
2026-01-19 22:56:24.14	28.84	4.70	-51.5	-62.4	3.8	8.45e-01	0	38	104	0	73	13555
2026-01-19 22:56:25.15	28.97	4.73	-51.6	-62.7	3.8	8.47e-01	0	38	104	0	73	14024
2026-01-19 22:56:26.16	29.11	4.77	-51.6	-63.0	3.8	8.46e-01	0	38	104	0	73	14393
2026-01-19 22:56:27.17	29.24	4.80	-51.5	-62.5	3.8	8.45e-01	0	38	104	0	73	13598
2026-01-19 22:56:28.17	29.37	4.83	-51.4	-60.7	4.0	8.46e-01	0	38	104	0	73	11147
2026-01-19 22:56:29.18	29.50	4.87	-51.1	-59.1	4.5	8.30e-01	0	38	0	0	73	9222
2026-01-19 22:56:30.19	29.64	4.90	-50.7	-57.1	5.5	7.43e-01	0	38	0	0	73	7368
2026-01-19 22:56:31.20	29.77	4.93	-50.0	-54.7	7.5	2.05e-01	0	38	0	5242880	72	5909
2026-01-19 22:56:32.21	29.91	4.97	-49.3	-53.1	9.2	4.37e-02	0	38	0	10485760	70	5520
2026-01-19 22:56:33.21	30.04	5.00	-48.9	-52.3	10.1	1.27e-02	0	38	0	15728640	69	5300
2026-01-19 22:56:34.22	30.17	5.04	-48.4	-51.4	11.1	3.72e-03	0	38	0	22020096	68	5043
2026-01-19 22:56:35.23	30.31	5.07	-48.6	-51.5	11.2	1.21e-03	0	38	0	27262976	68	5133
2026-01-19 22:56:36.24	30.45	5.10	-50.5	-57.3	5.1	7.85e-01	0	38	0	30408704	72	7982
2026-01-19 22:56:37.25	30.58	5.13	-44.3	-45.5	17.4	0.00e+00	0	38	0	35651584	60	4081
2026-01-19 22:56:38.25	30.72	5.17	-45.4	-46.8	16.2	0.00e+00	0	38	0	40894464	62	4240
2026-01-19 22:56:39.26	30.85	5.20	-46.8	-48.8	14.0	1.10e-06	0	38	0	47185920	64	4735
2026-01-19 22:56:40.27	30.99	5.23	-44.3	-45.5	17.5	0.00e+00	0	38	0	52428800	60	4097
2026-01-19 22:56:41.28	31.13	5.27	-44.4	-45.7	17.3	0.00e+00	0	38	0	57671680	60	4182
2026-01-19 22:56:42.29	31.26	5.30	-44.3	-45.6	17.5	0.00e+00	0	38	0	63963136	60	4117
2026-01-19 22:56:43.29	31.40	5.33	-44.6	-45.9	17.2	0.00e+00	0	38	0	70254592	60	4283
2026-01-19 22:56:44.30	31.54	5.36	-44.3	-45.5	17.6	0.00e+00	0	38	0	75497472	60	4096
2026-01-19 22:56:45.31	31.68	5.40	-44.3	-45.6	17.6	0.00e+00	0	38	0	80740352	60	4126
2026-01-19 22:56:46.32	31.81	5.43	-44.3	-45.5	17.7	0.00e+00	0	38	0	87031808	60	4083
2026-01-19 22:56:47.33	31.95	5.46	-44.1	-45.4	17.8	0.00e+00	0	38	0	92274688	60	4017
2026-01-19 22:56:48.33	32.09	5.49	-44.3	-45.5	17.7	0.00e+00	0	38	0	97517568	60	4087
2026-01-19 22:56:49.34	32.23	5.53	-44.4	-45.6	17.6	0.00e+00	0	39	0	103809024	60	4140
2026-01-19 22:56:50.35	32.37	5.56	-44.3	-45.5	17.8	0.00e+00	0	38	0	109051904	60	4081
2026-01-19 22:56:51.36	32.51	5.59	-44.2	-45.4	17.8	0.00e+00	0	38	0	115343360	60	4049
2026-01-19 22:56:52.37	32.65	5.62	-44.2	-45.4	17.8	0.00e+00	0	38	0	120586240	60	4043
2026-01-19 22:56:53.37	32.79	5.65	-44.2	-45.4	18.2	0.00e+00	0	38	0	125829120	59	4257
2026-01-19 22:56:54.38	32.93	5.68	-44.4	-45.6	17.9	0.00e+00	0	38	0	132120576	59	4384
2026-01-19 22:56:55.39	33.07	5.72	-44.3	-45.5	18.1	0.00e+00	0	38	0	138412032	59	4332
2026-01-19 22:56:56.40	33.21	5.75	-44.2	-45.4	18.2	0.00e+00	0	38	0	143654912	59	4268
2026-01-19 22:56:57.41	33.35	5.78	-44.2	-45.4	18.2	0.00e+00	0	38	0	148897792	59	4286
2026-01-19 22:56:58.41	33.49	5.81	-44.6	-45.8	17.8	0.00e+00	0	38	0	155189248	59	4483
2026-01-19 22:56:59.42	33.64	5.84	-44.6	-45.9	17.7	0.00e+00	0	38	0	160432128	59	4506
2026-01-19 22:57:00.43	33.78	5.87	-44.2	-45.4	18.2	0.00e+00	0	38	0	165675008	59	4265
2026-01-19 22:57:01.43	33.92	5.90	-44.2	-45.4	18.3	0.00e+00	0	38	0	171966464	59	4245
2026-01-19 22:57:02.44	34.06	5.93	-44.4	-45.7	18.0	0.00e+00	0	38	0	177209344	59	4395
2026-01-19 22:57:03.45	34.21	5.96	-44.5	-45.7	17.9	0.00e+00	0	39	0	182452224	59	4413
2026-01-19 22:57:04.46	34.35	5.99	-44.1	-45.3	18.4	0.00e+00	0	39	0	188743680	59	4198
2026-01-19 22:57:05.47	34.50	6.02	-44.1	-45.2	18.4	0.00e+00	0	38	0	193986560	59	4189
2026-01-19 22:57:06.47	34.64	6.05	-44.1	-45.3	18.4	0.00e+00	0	38	0	200278016	59	4219
2026-01-19 22:57:07.48	34.78	6.08	-44.2	-45.4	18.3	0.00e+00	0	38	0	205520896	59	4270
2026-01-19 22:57:08.49	34.93	6.11	-43.9	-45.1	18.6	0.00e+00	0	38	0	211812352	59	4101
2026-01-19 22:57:09.50	35.07	6.14	-43.8	-44.9	18.8	0.00e+00	0	38	0	217055232	59	4019
2026-01-19 22:57:10.51	35.22	6.17	-43.7	-44.8	18.9	0.00e+00	0	38	0	223346688	59	3987
2026-01-19 22:57:11.51	35.36	6.20	-43.9	-45.0	18.7	0.00e+00	0	38	0	228589568	59	4078
2026-01-19 22:57:12.52	35.51	6.23	-43.8	-44.9	18.8	0.00e+00	0	38	0	233832448	59	4050
2026-01-19 22:57:13.53	35.65	6.26	-43.9	-45.0	18.7	0.00e+00	0	38	0	240123904	59	4096
2026-01-19 22:57:14.53	35.80	6.29	-43.5	-44.5	19.2	0.00e+00	0	38	0	245366784	58	4097
2026-01-19 22:57:15.54	35.95	6.32	-43.6	-44.7	19.0	0.00e+00	0	39	0	250609664	58	4193
2026-01-19 22:57:16.55	36.09	6.35	-43.8	-44.9	18.8	0.00e+00	0	38	0	256901120	58	4268
2026-01-19 22:57:17.55	36.24	6.38	-44.0	-45.1	18.6	0.00e+00	0	39	0	262144000	58	4380
2026-01-19 22:57:18.56	36.39	6.41	-44.1	-45.2	18.5	0.00e+00	0	38	0	267386880	58	4439
2026-01-19 22:57:19.58	36.54	6.44	-44.0	-45.1	18.6	0.00e+00	0	38	0	273678336	58	4386
2026-01-19 22:57:20.58	36.68	6.46	-43.8	-44.9	18.9	0.00e+00	0	38	0	278921216	58	4261
2026-01-19 22:57:21.59	36.83	6.49	-43.9	-45.0	18.7	0.00e+00	0	38	0	285212672	58	4340
2026-01-19 22:57:22.59	36.98	6.52	-44.2	-45.3	18.4	0.00e+00	0	38	0	290455552	58	4476
2026-01-19 22:57:23.60	37.13	6.55	-44.1	-45.2	18.5	0.00e+00	0	39	0	296747008	59	4191
2026-01-19 22:57:24.61	37.28	6.58	-43.8	-44.9	18.9	0.00e+00	0	39	0	301989888	59	4007
2026-01-19 22:57:25.61	37.43	6.61	-44.0	-45.2	18.6	0.00e+00	0	39	0	308281344	59	4167
2026-01-19 22:57:26.62	37.58	6.63	-44.2	-45.4	18.4	0.00e+00	0	38	0	313524224	59	4262
2026-01-19 22:57:27.63	37.73	6.66	-44.1	-45.3	18.5	0.00e+00	0	38	0	318767104	59	4197
2026-01-19 22:57:28.64	37.88	6.69	-44.1	-45.2	18.6	0.00e+00	0	38	0	325058560	59	4175
2026-01-19 22:57:29.65	38.03	6.72	-44.0	-45.2	18.6	0.00e+00	0	38	0	330301440	59	4170
2026-01-19 22:57:30.65	38.18	6.74	-43.9	-45.0	18.8	0.00e+00	0	38	0	335544320	59	4089
2026-01-19 22:57:31.66	38.33	6.77	-43.8	-44.9	18.9	0.00e+00	0	39	0	341835776	59	4042
2026-01-19 22:57:32.67	38.48	6.80	-43.8	-44.9	19.0	0.00e+00	0	39	0	347078656	59	4011
2026-01-19 22:57:33.68	38.63	6.82	-43.8	-45.0	18.9	0.00e+00	0	38	0	352321536	59	4063
2026-01-19 22:57:34.69	38.79	6.85	-43.9	-45.1	18.8	0.00e+00	0	38	0	358612992	59	4103
2026-01-19 22:57:35.69	38.94	6.88	-44.1	-45.3	18.6	0.00e+00	0	39	0	364904448	59	4195
2026-01-19 22:57:36.70	39.09	6.90	-43.9	-45.0	18.8	0.00e+00	0	39	0	370147328	59	4091
2026-01-19 22:57:37.71	39.24	6.93	-43.5	-44.6	19.2	0.00e+00	0	38	0	375390208	59	3891
2026-01-19 22:57:38.72	39.40	6.96	-43.7	-44.8	19.1	0.00e+00	0	38	0	381681664	59	3960
2026-01-19 22:57:39.73	39.55	6.98	-43.8	-44.9	18.9	0.00e+00	0	38	0	386924544	59	4039
2026-01-19 22:57:40.73	39.70	7.01	-43.9	-45.0	18.9	0.00e+00	0	38	0	393216000	59	4078
2026-01-19 22:57:41.74	39.86	7.03	-43.9	-45.0	18.8	0.00e+00	0	38	0	398458880	59	4069
2026-01-19 22:57:42.75	40.01	7.06	-43.7	-44.9	19.0	0.00e+00	0	38	0	403701760	59	4009
2026-01-19 22:57:43.76	40.16	7.08	-43.8	-44.9	18.9	0.00e+00	0	38	0	409993216	59	4022
2026-01-19 22:57:44.77	40.32	7.11	-43.9	-45.1	18.8	0.00e+00	0	38	0	415236096	59	4105
2026-01-19 22:57:45.77	40.47	7.13	-43.9	-45.1	18.8	0.00e+00	0	38	0	420478976	59	4113
2026-01-19 22:57:46.78	40.63	7.16	-43.9	-45.1	18.8	0.00e+00	0	39	0	426770432	59	4109
2026-01-19 22:57:47.79	40.78	7.18	-43.6	-44.7	19.1	0.00e+00	0	39	0	433061888	59	3953
2026-01-19 22:57:48.80	40.94	7.21	-43.8	-44.9	19.0	0.00e+00	0	39	0	438304768	59	4031
2026-01-19 22:57:49.81	41.10	7.23	-43.8	-44.9	19.0	0.00e+00	0	38	0	443547648	59	4008
2026-01-19 22:57:50.81	41.25	7.26	-43.9	-45.0	18.9	0.00e+00	0	39	0	449839104	59	4073
2026-01-19 22:57:51.82	41.41	7.28	-43.9	-45.0	18.9	0.00e+00	0	39	0	455081984	59	4076
2026-01-19 22:57:52.83	41.56	7.31	-43.8	-44.8	19.0	0.00e+00	0	38	0	460324864	59	4003
2026-01-19 22:57:53.83	41.72	7.33	-43.7	-44.8	19.1	0.00e+00	0	39	0	466616320	59	3977
2026-01-19 22:57:54.84	41.88	7.35	-43.5	-44.6	19.3	0.00e+00	0	39	0	471859200	59	3879
2026-01-19 22:57:55.85	42.03	7.38	-43.6	-44.7	19.2	0.00e+00	0	39	0	478150656	59	3933
2026-01-19 22:57:56.86	42.19	7.40	-43.6	-44.7	19.2	0.00e+00	0	39	0	483393536	59	3933
2026-01-19 22:57:57.86	42.35	7.42	-43.9	-45.0	18.9	0.00e+00	0	39	0	488636416	59	4064
2026-01-19 22:57:58.87	42.51	7.45	-43.9	-45.0	18.9	0.00e+00	0	39	0	494927872	59	4082
2026-01-19 22:57:59.88	42.67	7.47	-43.9	-45.0	18.9	0.00e+00	0	39	0	500170752	59	4063
2026-01-19 22:58:00.89	42.82	7.49	-43.8	-44.9	19.0	0.00e+00	0	39	0	506462208	59	4034
2026-01-19 22:58:01.89	42.98	7.51	-43.8	-44.9	19.0	0.00e+00	0	39	0	511705088	59	4048
2026-01-19 22:58:02.90	43.14	7.54	-43.8	-44.9	19.0	0.00e+00	0	38	0	517996544	59	4050
2026-01-19 22:58:03.91	43.30	7.56	-43.9	-45.0	18.9	0.00e+00	0	39	0	523239424	59	4093
2026-01-19 22:58:04.92	43.46	7.58	-43.6	-44.7	19.2	0.00e+00	0	39	0	528482304	59	3924
2026-01-19 22:58:05.92	43.62	7.60	-43.6	-44.7	19.3	0.00e+00	0	38	0	534773760	59	3918
2026-01-19 22:58:06.93	43.78	7.62	-43.6	-44.7	19.3	0.00e+00	0	39	0	540016640	59	3928
2026-01-19 22:58:07.94	43.94	7.65	-43.6	-44.6	19.3	0.00e+00	0	39	0	545259520	59	3904
2026-01-19 22:58:08.95	44.10	7.67	-43.6	-44.7	19.2	0.00e+00	0	39	0	551550976	59	3944
2026-01-19 22:58:09.96	44.26	7.69	-43.4	-44.5	19.4	0.00e+00	0	39	0	556793856	58	4064
2026-01-19 22:58:10.97	44.42	7.71	-43.5	-44.5	19.4	0.00e+00	0	39	0	563085312	58	4082
2026-01-19 22:58:11.97	44.58	7.73	-43.5	-44.6	19.3	0.00e+00	0	39	0	568328192	58	4126
2026-01-19 22:58:12.99	44.75	7.75	-43.5	-44.6	19.4	0.00e+00	0	38	0	574619648	58	4106
2026-01-19 22:58:13.99	44.91	7.77	-43.6	-44.6	19.3	0.00e+00	0	39	0	579862528	58	4131
2026-01-19 22:58:15.00	45.07	7.79	-43.5	-44.5	19.4	0.00e+00	0	39	0	586153984	58	4092
2026-01-19 22:58:16.01	45.23	7.81	-43.6	-44.7	19.3	0.00e+00	0	39	0	591396864	58	4148
2026-01-19 22:58:17.01	45.39	7.83	-43.5	-44.5	19.4	0.00e+00	0	39	0	596639744	58	4097
2026-01-19 22:58:18.02	45.55	7.85	-43.5	-44.6	19.4	0.00e+00	0	38	0	602931200	58	4100
2026-01-19 22:58:19.03	45.72	7.87	-43.5	-44.6	19.4	0.00e+00	0	38	0	608174080	58	4109
2026-01-19 22:58:20.03	45.88	7.89	-43.5	-44.6	19.4	0.00e+00	0	39	0	613416960	58	4105
2026-01-19 22:58:21.04	46.04	7.91	-43.5	-44.5	19.4	0.00e+00	0	39	0	619708416	58	4087
2026-01-19 22:58:22.05	46.21	7.93	-43.5	-44.5	19.4	0.00e+00	0	39	0	624951296	58	4087
2026-01-19 22:58:23.06	46.37	7.95	-43.5	-44.5	19.4	0.00e+00	0	38	0	630194176	58	4095
2026-01-19 22:58:24.06	46.53	7.97	-43.5	-44.6	19.4	0.00e+00	0	39	0	636485632	58	4115
2026-01-19 22:58:25.07	46.70	7.99	-43.6	-44.7	19.3	0.00e+00	0	39	0	641728512	58	4150
2026-01-19 22:58:26.08	46.86	8.00	-43.5	-44.6	19.4	0.00e+00	0	38	0	648019968	58	4111
2026-01-19 22:58:27.09	47.02	8.02	-43.3	-44.3	19.7	0.00e+00	0	39	0	653262848	58	3988
2026-01-19 22:58:28.09	47.19	8.04	-43.3	-44.3	19.7	0.00e+00	0	39	0	659554304	58	3972
2026-01-19 22:58:29.10	47.35	8.06	-43.2	-44.2	19.8	0.00e+00	0	39	0	664797184	58	3933
2026-01-19 22:58:30.10	47.52	8.07	-43.3	-44.3	19.7	0.00e+00	0	39	0	671088640	58	3984
2026-01-19 22:58:31.11	47.68	8.09	-43.2	-44.2	19.8	0.00e+00	0	38	0	676331520	58	3928
2026-01-19 22:58:32.12	47.85	8.11	-43.3	-44.3	19.6	0.00e+00	0	39	0	681574400	58	4003
2026-01-19 22:58:33.13	48.01	8.13	-43.4	-44.5	19.5	0.00e+00	0	39	0	687865856	58	4052
2026-01-19 22:58:34.13	48.18	8.14	-43.5	-44.6	19.4	0.00e+00	0	38	0	693108736	58	4110
2026-01-19 22:58:35.14	48.34	8.16	-43.5	-44.5	19.4	0.00e+00	0	39	0	698351616	58	4098
2026-01-19 22:58:36.15	48.51	8.18	-43.6	-44.7	19.3	0.00e+00	0	39	0	704643072	58	4168
2026-01-19 22:58:37.15	48.67	8.19	-43.7	-44.8	19.2	0.00e+00	0	39	0	709885952	58	4203
2026-01-19 22:58:38.16	48.84	8.21	-43.7	-44.8	19.2	0.00e+00	0	38	0	715128832	58	4227
2026-01-19 22:58:39.17	49.01	8.22	-43.8	-44.9	19.1	0.00e+00	0	39	0	721420288	58	4245
2026-01-19 22:58:40.18	49.18	8.24	-43.7	-44.7	19.2	0.00e+00	0	39	0	726663168	58	4187
2026-01-19 22:58:41.19	49.34	8.26	-43.3	-44.4	19.6	0.00e+00	0	39	0	732954624	58	4008
2026-01-19 22:58:42.20	49.51	8.27	-43.4	-44.4	19.6	0.00e+00	0	38	0	738197504	58	4025
2026-01-19 22:58:43.20	49.68	8.29	-43.5	-44.5	19.4	0.00e+00	0	39	0	744488960	58	4098
2026-01-19 22:58:44.21	49.84	8.30	-43.4	-44.5	19.5	0.00e+00	0	38	0	749731840	58	4054
2026-01-19 22:58:45.22	50.01	8.32	-43.4	-44.4	19.6	0.00e+00	0	39	0	756023296	58	4047
2026-01-19 22:58:46.22	50.18	8.33	-43.5	-44.5	19.4	0.00e+00	0	39	0	761266176	58	4098
2026-01-19 22:58:47.23	50.35	8.34	-43.3	-44.4	19.6	0.00e+00	0	39	0	766509056	58	4016
2026-01-19 22:58:48.24	50.51	8.36	-43.5	-44.5	19.4	0.00e+00	0	39	0	772800512	58	4098
2026-01-19 22:58:49.25	50.68	8.37	-43.2	-44.2	19.7	0.00e+00	0	39	0	778043392	58	3956
2026-01-19 22:58:50.25	50.85	8.39	-43.4	-44.4	19.5	0.00e+00	0	39	0	783286272	58	4039
2026-01-19 22:58:51.26	51.02	8.40	-43.5	-44.5	19.4	0.00e+00	0	39	0	789577728	58	4088
2026-01-19 22:58:52.27	51.19	8.41	-43.3	-44.4	19.6	0.00e+00	0	39	0	794820608	58	4006
2026-01-19 22:58:53.28	51.36	8.43	-43.3	-44.4	19.6	0.00e+00	0	39	0	800063488	58	4007
2026-01-19 22:58:54.29	51.53	8.44	-43.4	-44.4	19.6	0.00e+00	0	39	0	806354944	58	4018
2026-01-19 22:58:55.29	51.69	8.45	-43.4	-44.4	19.6	0.00e+00	0	39	0	812646400	58	4050
2026-01-19 22:58:56.30	51.86	8.46	-43.3	-44.3	19.7	0.00e+00	0	38	0	817889280	58	3983
2026-01-19 22:58:57.31	52.03	8.48	-43.3	-44.3	19.6	0.00e+00	0	39	0	823132160	58	3996
2026-01-19 22:58:58.32	52.20	8.49	-43.2	-44.2	19.7	0.00e+00	0	39	0	829423616	58	3954
2026-01-19 22:58:59.33	52.37	8.50	-43.2	-44.2	19.8	0.00e+00	0	38	0	834666496	58	3941
2026-01-19 22:59:00.34	52.54	8.51	-43.2	-44.2	19.8	0.00e+00	0	39	0	840957952	58	3930
2026-01-19 22:59:01.34	52.71	8.52	-43.2	-44.3	19.7	0.00e+00	0	38	0	846200832	58	3965
2026-01-19 22:59:02.35	52.88	8.53	-43.2	-44.2	19.8	0.00e+00	0	39	0	851443712	58	3946
2026-01-19 22:59:03.36	53.05	8.54	-43.3	-44.3	19.7	0.00e+00	0	38	0	857735168	58	3979
2026-01-19 22:59:04.36	53.22	8.56	-43.2	-44.3	19.7	0.00e+00	0	39	0	862978048	58	3967
2026-01-19 22:59:05.37	53.39	8.57	-43.3	-44.3	19.7	0.00e+00	0	39	0	868220928	58	3978
2026-01-19 22:59:06.38	53.56	8.58	-43.2	-44.3	19.7	0.00e+00	0	39	0	874512384	58	3959
2026-01-19 22:59:07.39	53.73	8.59	-43.3	-44.4	19.6	0.00e+00	0	39	0	880803840	58	4010
2026-01-19 22:59:08.39	53.90	8.60	-43.3	-44.3	19.7	0.00e+00	0	38	0	886046720	58	3977
2026-01-19 22:59:09.40	54.08	8.61	-43.4	-44.5	19.5	0.00e+00	0	39	0	891289600	58	4061
2026-01-19 22:59:10.41	54.25	8.62	-43.6	-44.7	19.3	0.00e+00	0	39	0	897581056	58	4153
2026-01-19 22:59:11.41	54.42	8.62	-43.4	-44.5	19.5	0.00e+00	0	38	0	902823936	58	4053
2026-01-19 22:59:12.42	54.59	8.63	-43.4	-44.4	19.5	0.00e+00	0	39	0	908066816	58	4049
2026-01-19 22:59:13.42	54.76	8.64	-43.3	-44.3	19.6	0.00e+00	0	39	0	914358272	58	3998
2026-01-19 22:59:14.43	54.93	8.65	-43.3	-44.3	19.7	0.00e+00	0	39	0	919601152	58	3973
2026-01-19 22:59:15.44	55.10	8.66	-43.2	-44.2	19.8	0.00e+00	0	38	0	925892608	58	3923
2026-01-19 22:59:16.44	55.27	8.67	-43.3	-44.3	19.7	0.00e+00	0	39	0	931135488	58	3985
2026-01-19 22:59:17.45	55.44	8.68	-43.3	-44.3	19.7	0.00e+00	0	39	0	936378368	58	3983
2026-01-19 22:59:18.46	55.62	8.68	-43.6	-44.6	19.4	0.00e+00	0	39	0	942669824	58	4138
2026-01-19 22:59:19.46	55.79	8.69	-43.5	-44.6	19.5	0.00e+00	0	39	0	947912704	58	4102
2026-01-19 22:59:20.47	55.96	8.70	-43.5	-44.6	19.4	0.00e+00	0	39	0	953155584	58	4122
2026-01-19 22:59:21.47	56.13	8.70	-43.5	-44.6	19.4	0.00e+00	0	39	0	959447040	58	4107
2026-01-19 22:59:22.48	56.30	8.71	-43.6	-44.7	19.3	0.00e+00	0	39	0	964689920	58	4153
2026-01-19 22:59:23.49	56.47	8.72	-43.6	-44.7	19.3	0.00e+00	0	39	0	970981376	58	4148
2026-01-19 22:59:24.50	56.65	8.72	-43.4	-44.4	19.6	0.00e+00	0	39	0	976224256	58	4025
2026-01-19 22:59:25.51	56.82	8.73	-43.5	-44.6	19.4	0.00e+00	0	39	0	982515712	58	4120
2026-01-19 22:59:26.52	56.99	8.74	-43.4	-44.5	19.4	0.00e+00	0	39	0	987758592	58	4079
2026-01-19 22:59:27.53	57.17	8.74	-43.3	-44.4	19.6	0.00e+00	0	39	0	993001472	58	4007
2026-01-19 22:59:28.53	57.34	8.75	-43.1	-44.2	19.8	0.00e+00	0	38	0	999292928	58	3918
2026-01-19 22:59:29.54	57.51	8.75	-43.1	-44.1	19.9	0.00e+00	0	39	0	1004535808	58	3889
2026-01-19 22:59:30.55	57.68	8.76	-43.1	-44.1	19.9	0.00e+00	0	39	0	1010827264	58	3890
2026-01-19 22:59:31.56	57.86	8.76	-43.2	-44.2	19.8	0.00e+00	0	39	0	1016070144	58	3923
2026-01-19 22:59:32.57	58.03	8.77	-42.8	-43.8	20.1	0.00e+00	0	39	0	1021313024	57	3984
2026-01-19 22:59:33.58	58.20	8.77	-42.9	-43.9	20.1	0.00e+00	0	39	0	1027604480	57	4025
2026-01-19 22:59:34.59	58.38	8.78	-43.0	-44.0	20.0	0.00e+00	0	39	0	1033895936	57	4072
2026-01-19 22:59:35.59	58.55	8.78	-43.0	-44.0	19.9	0.00e+00	0	39	0	1039138816	57	4085
2026-01-19 22:59:36.60	58.72	8.78	-43.1	-44.1	19.9	0.00e+00	0	39	0	1044381696	57	4106
2026-01-19 22:59:37.61	58.89	8.79	-43.1	-44.1	19.9	0.00e+00	0	39	0	1050673152	57	4115
2026-01-19 22:59:38.62	59.07	8.79	-43.1	-44.1	19.8	0.00e+00	0	39	0	1055916032	57	4124
2026-01-19 22:59:39.63	59.24	8.79	-43.1	-44.1	19.8	0.00e+00	0	39	0	1061158912	57	4139
2026-01-19 22:59:40.64	59.41	8.80	-43.2	-44.2	19.7	0.00e+00	0	39	0	1067450368	57	4180
2026-01-19 22:59:41.64	59.59	8.80	-43.3	-44.3	19.6	0.00e+00	0	39	0	1072693248	57	4214
2026-01-19 22:59:42.65	59.76	8.80	-43.2	-44.2	19.7	0.00e+00	0	39	0	1077936128	57	4181
2026-01-19 22:59:43.65	59.93	8.80	-43.2	-44.3	19.7	0.00e+00	0	39	0	1084227584	57	4196
2026-01-19 22:59:44.66	60.11	8.81	-43.2	-44.2	19.7	0.00e+00	0	39	0	1089470464	57	4186
2026-01-19 22:59:45.67	60.28	8.81	-43.3	-44.3	19.6	0.00e+00	0	39	0	1095761920	57	4207
2026-01-19 22:59:46.68	60.45	8.81	-43.3	-44.4	19.6	0.00e+00	0	39	0	1101004800	57	4251
2026-01-19 22:59:47.69	60.63	8.81	-43.3	-44.3	19.6	0.00e+00	0	39	0	1107296256	57	4231
2026-01-19 22:59:48.69	60.80	8.81	-43.3	-44.3	19.6	0.00e+00	0	39	0	1112539136	57	4220
2026-01-19 22:59:49.70	60.97	8.81	-43.2	-44.2	19.7	0.00e+00	0	39	0	1118830592	57	4193
2026-01-19 22:59:50.71	61.15	8.81	-43.3	-44.4	19.6	0.00e+00	0	39	0	1124073472	57	4245
2026-01-19 22:59:51.72	61.32	8.81	-43.3	-44.4	19.6	0.00e+00	0	39	0	1129316352	57	4260
2026-01-19 22:59:52.73	61.49	8.81	-43.4	-44.5	19.4	0.00e+00	0	39	0	1135607808	57	4326
2026-01-19 22:59:53.73	61.67	8.81	-43.4	-44.4	19.5	0.00e+00	0	39	0	1140850688	57	4291
2026-01-19 22:59:54.74	61.84	8.81	-43.3	-44.4	19.6	0.00e+00	0	39	0	1146093568	57	4265
2026-01-19 22:59:55.75	62.01	8.81	-43.4	-44.5	19.4	0.00e+00	0	39	0	1152385024	57	4317
2026-01-19 22:59:56.76	62.19	8.81	-43.4	-44.5	19.5	0.00e+00	0	39	0	1157627904	57	4292
2026-01-19 22:59:57.77	62.36	8.81	-43.4	-44.5	19.5	0.00e+00	0	39	0	1162870784	57	4298
2026-01-19 22:59:58.77	62.53	8.81	-43.3	-44.4	19.6	0.00e+00	0	39	0	1169162240	57	4248
2026-01-19 22:59:59.78	62.71	8.81	-43.6	-44.7	19.3	0.00e+00	0	39	0	1174405120	57	4414
2026-01-19 23:00:00.79	62.88	8.81	-43.5	-44.5	19.4	0.00e+00	0	39	0	1180696576	57	4325
2026-01-19 23:00:01.80	63.05	8.81	-43.4	-44.4	19.5	0.00e+00	0	39	0	1185939456	57	4265
2026-01-19 23:00:02.81	63.23	8.80	-43.5	-44.5	19.4	0.00e+00	0	39	0	1192230912	57	4336
2026-01-19 23:00:03.82	63.40	8.80	-43.4	-44.5	19.4	0.00e+00	0	39	0	1197473792	57	4309
2026-01-19 23:00:04.82	63.57	8.80	-43.6	-44.6	19.4	0.00e+00	0	39	0	1203765248	57	4371
2026-01-19 23:00:05.83	63.75	8.80	-43.5	-44.6	19.3	0.00e+00	0	39	0	1209008128	57	4358
2026-01-19 23:00:06.84	63.92	8.79	-43.3	-44.4	19.6	0.00e+00	0	39	0	1214251008	57	4249
2026-01-19 23:00:07.85	64.09	8.79	-43.1	-44.1	19.8	0.00e+00	0	39	0	1220542464	57	4127
2026-01-19 23:00:08.85	64.27	8.79	-43.1	-44.1	19.8	0.00e+00	0	39	0	1225785344	57	4116
2026-01-19 23:00:09.86	64.44	8.78	-43.4	-44.4	19.5	0.00e+00	0	39	0	1231028224	57	4286
2026-01-19 23:00:10.87	64.61	8.78	-43.5	-44.5	19.4	0.00e+00	0	39	0	1237319680	57	4325
2026-01-19 23:00:11.88	64.79	8.77	-43.6	-44.6	19.3	0.00e+00	0	39	0	1242562560	57	4376
2026-01-19 23:00:12.88	64.96	8.77	-43.4	-44.5	19.4	0.00e+00	0	39	0	1248854016	57	4320
2026-01-19 23:00:13.89	65.13	8.77	-43.4	-44.5	19.5	0.00e+00	0	39	0	1254096896	57	4297
2026-01-19 23:00:14.90	65.30	8.76	-43.7	-44.8	19.2	0.00e+00	0	39	0	1260388352	57	4442
2026-01-19 23:00:15.91	65.48	8.76	-43.7	-44.8	19.1	0.00e+00	0	39	0	1265631232	57	4458
2026-01-19 23:00:16.92	65.65	8.75	-43.7	-44.8	19.1	0.00e+00	0	39	0	1270874112	58	4237
2026-01-19 23:00:17.93	65.82	8.74	-43.7	-44.8	19.2	0.00e+00	0	39	0	1277165568	58	4198
2026-01-19 23:00:18.93	66.00	8.74	-43.7	-44.8	19.1	0.00e+00	0	39	0	1282408448	58	4217
2026-01-19 23:00:19.94	66.17	8.73	-43.6	-44.7	19.3	0.00e+00	0	39	0	1288699904	58	4163
2026-01-19 23:00:20.95	66.34	8.73	-43.6	-44.6	19.3	0.00e+00	0	39	0	1293942784	58	4142
2026-01-19 23:00:21.96	66.51	8.72	-43.4	-44.4	19.5	0.00e+00	0	39	0	1299185664	58	4051
2026-01-19 23:00:22.97	66.69	8.71	-43.4	-44.5	19.4	0.00e+00	0	39	0	1305477120	58	4077
2026-01-19 23:00:23.97	66.86	8.71	-43.4	-44.5	19.4	0.00e+00	0	39	0	1310720000	58	4056
2026-01-19 23:00:24.98	67.03	8.70	-43.3	-44.3	19.6	0.00e+00	0	39	0	1315962880	58	3974
2026-01-19 23:00:25.99	67.20	8.69	-43.3	-44.4	19.5	0.00e+00	0	39	0	1322254336	58	4010
2026-01-19 23:00:27.00	67.38	8.69	-43.3	-44.3	19.6	0.00e+00	0	39	0	1328545792	58	3985
2026-01-19 23:00:28.00	67.55	8.68	-43.3	-44.4	19.6	0.00e+00	0	39	0	1333788672	58	4015
2026-01-19 23:00:29.01	67.72	8.67	-43.3	-44.3	19.6	0.00e+00	0	39	0	1339031552	58	3994
2026-01-19 23:00:30.02	67.89	8.66	-43.3	-44.4	19.5	0.00e+00	0	39	0	1345323008	58	4009
2026-01-19 23:00:31.03	68.06	8.65	-43.4	-44.4	19.5	0.00e+00	0	39	0	1350565888	58	4034
2026-01-19 23:00:32.03	68.23	8.64	-43.4	-44.4	19.5	0.00e+00	0	39	0	1355808768	58	4038
2026-01-19 23:00:33.04	68.40	8.64	-43.2	-44.2	19.6	0.00e+00	0	39	0	1362100224	58	3957
2026-01-19 23:00:34.05	68.58	8.63	-43.2	-44.3	19.6	0.00e+00	0	39	0	1367343104	58	3969
2026-01-19 23:00:35.06	68.75	8.62	-43.1	-44.1	19.8	0.00e+00	0	39	0	1373634560	58	3871
2026-01-19 23:00:36.07	68.92	8.61	-43.1	-44.1	19.8	0.00e+00	0	39	0	1378877440	58	3881
2026-01-19 23:00:37.08	69.09	8.60	-43.2	-44.2	19.7	0.00e+00	0	39	0	1384120320	58	3934
2026-01-19 23:00:38.08	69.26	8.59	-43.1	-44.1	19.8	0.00e+00	0	39	0	1390411776	57	4124
2026-01-19 23:00:39.09	69.43	8.58	-43.2	-44.2	19.7	0.00e+00	0	39	0	1396703232	57	4169
2026-01-19 23:00:40.10	69.60	8.57	-43.3	-44.4	19.5	0.00e+00	0	39	0	1401946112	57	4260
2026-01-19 23:00:41.11	69.77	8.56	-43.3	-44.4	19.5	0.00e+00	0	39	0	1407188992	57	4245
2026-01-19 23:00:42.11	69.94	8.55	-43.5	-44.6	19.3	0.00e+00	0	39	0	1413480448	57	4371
2026-01-19 23:00:43.12	70.11	8.54	-43.4	-44.5	19.4	0.00e+00	0	39	0	1418723328	57	4324
2026-01-19 23:00:44.13	70.29	8.53	-43.4	-44.5	19.4	0.00e+00	0	39	0	1423966208	57	4297
2026-01-19 23:00:45.14	70.46	8.51	-43.4	-44.5	19.4	0.00e+00	0	39	0	1430257664	57	4305
2026-01-19 23:00:46.15	70.63	8.50	-43.2	-44.3	19.6	0.00e+00	0	39	0	1435500544	57	4209
2026-01-19 23:00:47.15	70.79	8.49	-43.2	-44.2	19.7	0.00e+00	0	39	0	1440743424	57	4177
2026-01-19 23:00:48.16	70.96	8.48	-43.4	-44.4	19.5	0.00e+00	0	39	0	1447034880	57	4272
2026-01-19 23:00:49.17	71.13	8.47	-43.3	-44.3	19.5	0.00e+00	0	39	0	1452277760	57	4234
2026-01-19 23:00:50.18	71.30	8.45	-43.4	-44.5	19.4	0.00e+00	0	39	0	1458569216	57	4300
2026-01-19 23:00:51.19	71.47	8.44	-43.5	-44.5	19.4	0.00e+00	0	39	0	1463812096	57	4320
2026-01-19 23:00:52.19	71.64	8.43	-43.4	-44.5	19.4	0.00e+00	0	39	0	1470103552	57	4319
2026-01-19 23:00:53.20	71.81	8.42	-43.3	-44.4	19.5	0.00e+00	0	39	0	1475346432	57	4256
2026-01-19 23:00:54.21	71.98	8.40	-43.2	-44.3	19.6	0.00e+00	0	39	0	1481637888	57	4209
2026-01-19 23:00:55.22	72.15	8.39	-43.3	-44.3	19.6	0.00e+00	0	39	0	1486880768	57	4226
2026-01-19 23:00:56.23	72.32	8.38	-43.4	-44.5	19.4	0.00e+00	0	39	0	1492123648	57	4318
2026-01-19 23:00:57.23	72.49	8.36	-43.4	-44.5	19.4	0.00e+00	0	39	0	1498415104	57	4308
2026-01-19 23:00:58.24	72.66	8.35	-43.5	-44.5	19.3	0.00e+00	0	39	0	1503657984	57	4316
2026-01-19 23:00:59.25	72.82	8.33	-43.6	-44.7	19.2	0.00e+00	0	39	0	1508900864	57	4413
2026-01-19 23:01:00.26	72.99	8.32	-43.7	-44.8	19.1	0.00e+00	0	39	0	1515192320	57	4462
2026-01-19 23:01:01.26	73.16	8.30	-43.6	-44.7	19.2	0.00e+00	0	39	0	1520435200	57	4416
2026-01-19 23:01:02.27	73.33	8.29	-43.4	-44.4	19.4	0.00e+00	0	39	0	1525678080	57	4274
2026-01-19 23:01:03.25	73.49	8.27	-43.5	-44.6	19.2	0.00e+00	0	39	0	1531969536	57	4351
2026-01-19 23:01:04.23	73.65	8.26	-43.3	-44.4	19.3	0.00e+00	0	39	0	1537212416	57	4283
2026-01-19 23:01:05.22	73.82	8.24	-43.3	-44.4	19.3	0.00e+00	0	39	0	1543503872	57	4274
2026-01-19 23:01:06.19	73.98	8.23	-43.3	-44.4	19.3	0.00e+00	0	39	0	1548746752	57	4276
2026-01-19 23:01:07.15	74.14	8.21	-43.4	-44.5	19.3	0.00e+00	0	39	0	1553989632	57	4293
2026-01-19 23:01:08.13	74.30	8.20	-43.4	-44.5	19.2	0.00e+00	0	39	0	1559232512	57	4335
2026-01-19 23:01:09.10	74.46	8.18	-43.6	-44.7	19.0	0.00e+00	0	39	0	1564475392	57	4431
2026-01-19 23:01:10.07	74.62	8.17	-43.8	-44.9	18.8	0.00e+00	0	39	0	1569718272	58	4285
2026-01-19 23:01:11.04	74.78	8.15	-43.8	-44.9	18.8	0.00e+00	0	39	0	1576009728	58	4284
2026-01-19 23:01:12.01	74.94	8.14	-43.4	-44.6	19.1	0.00e+00	0	39	0	1581252608	58	4107
2026-01-19 23:01:12.98	75.10	8.12	-43.4	-44.5	19.2	0.00e+00	0	39	0	1586495488	58	4077
2026-01-19 23:01:13.95	75.26	8.10	-43.5	-44.6	19.1	0.00e+00	0	39	0	1591738368	58	4113
2026-01-19 23:01:14.92	75.42	8.09	-43.6	-44.8	19.0	0.00e+00	0	39	0	1598029824	58	4203
2026-01-19 23:01:15.89	75.58	8.07	-43.5	-44.7	19.1	0.00e+00	0	39	0	1603272704	58	4153
2026-01-19 23:01:16.85	75.73	8.05	-43.4	-44.5	19.2	0.00e+00	0	39	0	1608515584	58	4065
2026-01-19 23:01:17.82	75.89	8.04	-43.7	-44.8	19.0	0.00e+00	0	39	0	1613758464	58	4211
2026-01-19 23:01:18.80	76.05	8.02	-43.8	-44.9	18.9	0.00e+00	0	39	0	1620049920	58	4279
2026-01-19 23:01:19.77	76.21	8.00	-43.6	-44.7	19.0	0.00e+00	0	39	0	1624244224	58	4173
2026-01-19 23:01:20.74	76.37	7.98	-43.6	-44.8	19.0	0.00e+00	0	39	0	1630535680	58	4206
2026-01-19 23:01:21.71	76.53	7.96	-43.5	-44.6	19.1	0.00e+00	0	39	0	1635778560	58	4124
2026-01-19 23:01:22.68	76.69	7.95	-43.6	-44.7	19.0	0.00e+00	0	39	0	1641021440	58	4167
2026-01-19 23:01:23.65	76.84	7.93	-43.4	-44.5	19.2	0.00e+00	0	39	0	1646264320	58	4076
2026-01-19 23:01:24.62	77.00	7.91	-43.5	-44.6	19.1	0.00e+00	0	39	0	1652555776	58	4141
2026-01-19 23:01:25.59	77.16	7.89	-43.8	-45.0	18.7	0.00e+00	0	39	0	1657798656	58	4300
2026-01-19 23:01:26.56	77.31	7.87	-43.6	-44.8	19.0	0.00e+00	0	39	0	1663041536	58	4199
2026-01-19 23:01:27.53	77.47	7.85	-43.8	-44.9	18.8	0.00e+00	0	39	0	1668284416	58	4274
2026-01-19 23:01:28.50	77.63	7.83	-43.7	-44.9	18.8	0.00e+00	0	39	0	1674575872	58	4273
2026-01-19 23:01:29.46	77.78	7.82	-43.7	-44.8	18.9	0.00e+00	0	39	0	1678770176	58	4235
2026-01-19 23:01:30.43	77.94	7.80	-43.9	-45.1	18.7	0.00e+00	0	39	0	1685061632	58	4353
2026-01-19 23:01:31.40	78.10	7.78	-43.8	-45.0	18.8	0.00e+00	0	39	0	1690304512	58	4292
2026-01-19 23:01:32.37	78.25	7.76	-43.9	-45.1	18.6	0.00e+00	0	39	0	1695547392	58	4345
2026-01-19 23:01:33.34	78.41	7.74	-43.8	-45.0	18.7	0.00e+00	0	39	0	1700790272	58	4327
2026-01-19 23:01:34.31	78.56	7.72	-44.0	-45.2	18.5	0.00e+00	0	39	0	1707081728	58	4423
2026-01-19 23:01:35.28	78.72	7.70	-43.8	-45.0	18.7	0.00e+00	0	39	0	1711276032	58	4308
2026-01-19 23:01:36.25	78.87	7.68	-43.8	-45.0	18.7	0.00e+00	0	39	0	1717567488	58	4301
2026-01-19 23:01:37.22	79.03	7.66	-43.8	-45.0	18.7	0.00e+00	0	39	0	1722810368	58	4328
2026-01-19 23:01:38.19	79.18	7.63	-43.9	-45.1	18.6	0.00e+00	0	39	0	1729101824	58	4385
2026-01-19 23:01:39.16	79.34	7.61	-44.0	-45.2	18.5	0.00e+00	0	39	0	1733296128	58	4408
2026-01-19 23:01:40.13	79.49	7.59	-43.9	-45.1	18.6	0.00e+00	0	39	0	1739587584	58	4375
2026-01-19 23:01:41.09	79.64	7.57	-44.1	-45.3	18.4	0.00e+00	0	39	0	1744830464	58	4458
2026-01-19 23:01:42.06	79.80	7.55	-44.0	-45.2	18.5	0.00e+00	0	39	0	1750073344	58	4440
2026-01-19 23:01:43.03	79.95	7.53	-44.0	-45.2	18.5	0.00e+00	0	39	0	1755316224	58	4425
2026-01-19 23:01:44.00	80.10	7.51	-44.0	-45.2	18.5	0.00e+00	0	39	0	1761607680	58	4430
2026-01-19 23:01:44.97	80.26	7.49	-44.2	-45.4	18.3	0.00e+00	0	39	0	1766850560	58	4513
2026-01-19 23:01:45.94	80.41	7.46	-44.2	-45.4	18.3	0.00e+00	0	39	0	1772093440	59	4277
2026-01-19 23:01:46.91	80.56	7.44	-44.1	-45.3	18.4	0.00e+00	0	39	0	1777336320	59	4216
2026-01-19 23:01:47.88	80.72	7.42	-44.1	-45.4	18.3	0.00e+00	0	39	0	1782579200	59	4249
2026-01-19 23:01:48.85	80.87	7.40	-44.2	-45.4	18.3	0.00e+00	0	39	0	1787822080	59	4263
2026-01-19 23:01:49.81	81.02	7.37	-44.2	-45.4	18.2	0.00e+00	0	39	0	1794113536	59	4282
2026-01-19 23:01:50.78	81.17	7.35	-44.1	-45.3	18.4	0.00e+00	0	39	0	1799356416	59	4233
2026-01-19 23:01:51.75	81.32	7.33	-44.2	-45.4	18.2	0.00e+00	0	39	0	1804599296	59	4283
2026-01-19 23:01:52.73	81.48	7.31	-44.1	-45.3	18.3	0.00e+00	0	39	0	1809842176	59	4241
2026-01-19 23:01:53.70	81.63	7.28	-44.2	-45.4	18.3	0.00e+00	0	39	0	1816133632	59	4273
2026-01-19 23:01:54.67	81.78	7.26	-44.0	-45.1	18.5	0.00e+00	0	39	0	1821376512	59	4144
2026-01-19 23:01:55.64	81.93	7.24	-43.8	-45.0	18.6	0.00e+00	0	39	0	1826619392	59	4091
2026-01-19 23:01:56.61	82.08	7.21	-43.9	-45.0	18.6	0.00e+00	0	39	0	1831862272	59	4089
2026-01-19 23:01:57.58	82.23	7.19	-43.6	-44.8	18.8	0.00e+00	0	39	0	1837105152	59	3970
2026-01-19 23:01:58.54	82.38	7.16	-43.9	-45.1	18.6	0.00e+00	0	39	0	1842348032	59	4106
2026-01-19 23:01:59.51	82.53	7.14	-44.4	-45.7	18.0	0.00e+00	0	39	0	1848639488	59	4395
2026-01-19 23:02:00.48	82.68	7.12	-44.2	-45.4	18.3	0.00e+00	0	39	0	1853882368	59	4254
2026-01-19 23:02:01.45	82.83	7.09	-44.1	-45.3	18.3	0.00e+00	0	39	0	1859125248	59	4214
2026-01-19 23:02:02.42	82.97	7.07	-43.9	-45.2	18.5	0.00e+00	0	39	0	1864368128	59	4149
2026-01-19 23:02:03.39	83.12	7.04	-44.1	-45.3	18.3	0.00e+00	0	39	0	1870659584	59	4214
2026-01-19 23:02:04.36	83.27	7.02	-44.0	-45.2	18.4	0.00e+00	0	39	0	1875902464	59	4160
2026-01-19 23:02:05.33	83.42	6.99	-44.1	-45.3	18.3	0.00e+00	0	39	0	1881145344	59	4195
2026-01-19 23:02:06.30	83.57	6.97	-44.1	-45.3	18.3	0.00e+00	0	39	0	1886388224	59	4210
2026-01-19 23:02:07.27	83.72	6.94	-43.9	-45.1	18.5	0.00e+00	0	39	0	1891631104	59	4118
2026-01-19 23:02:08.24	83.86	6.92	-44.1	-45.4	18.2	0.00e+00	0	39	0	1897922560	59	4254
2026-01-19 23:02:09.21	84.01	6.89	-44.1	-45.4	18.2	0.00e+00	0	39	0	1903165440	59	4259
2026-01-19 23:02:10.17	84.16	6.87	-44.3	-45.6	18.0	0.00e+00	0	39	0	1908408320	59	4342
2026-01-19 23:02:11.15	84.30	6.84	-44.3	-45.6	18.0	0.00e+00	0	39	0	1913651200	59	4363
2026-01-19 23:02:12.12	84.45	6.81	-44.4	-45.7	17.9	0.00e+00	0	39	0	1918894080	59	4419
2026-01-19 23:02:13.09	84.60	6.79	-44.1	-45.3	18.2	0.00e+00	0	39	0	1925185536	59	4242
2026-01-19 23:02:14.06	84.74	6.76	-44.3	-45.5	18.0	0.00e+00	0	39	0	1930428416	59	4338
2026-01-19 23:02:15.03	84.89	6.74	-44.1	-45.4	18.2	0.00e+00	0	39	0	1935671296	59	4260
2026-01-19 23:02:16.00	85.04	6.71	-44.5	-45.8	17.7	0.00e+00	0	39	0	1940914176	59	4462
2026-01-19 23:02:16.97	85.18	6.68	-44.3	-45.6	17.9	0.00e+00	0	39	0	1946157056	59	4370
2026-01-19 23:02:17.94	85.33	6.66	-44.2	-45.4	18.1	0.00e+00	0	39	0	1952448512	59	4283
2026-01-19 23:02:18.91	85.47	6.63	-44.0	-45.2	18.3	0.00e+00	0	39	0	1957691392	59	4191
2026-01-19 23:02:19.89	85.62	6.60	-44.2	-45.4	18.1	0.00e+00	0	39	0	1962934272	59	4258
2026-01-19 23:02:20.85	85.76	6.58	-44.0	-45.1	18.3	0.00e+00	0	39	0	1968177152	59	4142
2026-01-19 23:02:21.83	85.90	6.55	-44.0	-45.2	18.3	0.00e+00	0	39	0	1973420032	59	4152
2026-01-19 23:02:22.79	86.05	6.52	-44.3	-45.6	17.9	0.00e+00	0	39	0	1979711488	59	4360
2026-01-19 23:02:23.76	86.19	6.49	-44.3	-45.5	18.0	0.00e+00	0	39	0	1984954368	59	4321
2026-01-19 23:02:24.73	86.33	6.47	-43.9	-45.1	18.4	0.00e+00	0	39	0	1990197248	59	4131
2026-01-19 23:02:25.70	86.48	6.44	-43.7	-44.9	18.6	0.00e+00	0	39	0	1995440128	59	4035
2026-01-19 23:02:26.67	86.62	6.41	-43.9	-45.1	18.4	0.00e+00	0	39	0	2000683008	59	4110
2026-01-19 23:02:27.64	86.76	6.38	-44.0	-45.2	18.3	0.00e+00	0	39	0	2006974464	59	4177
2026-01-19 23:02:28.61	86.90	6.36	-44.2	-45.5	18.0	0.00e+00	0	39	0	2012217344	59	4307
2026-01-19 23:02:29.58	87.05	6.33	-44.3	-45.6	17.9	0.00e+00	0	39	0	2017460224	59	4354
2026-01-19 23:02:30.55	87.19	6.30	-44.5	-45.8	17.7	0.00e+00	0	39	0	2022703104	59	4472
2026-01-19 23:02:31.52	87.33	6.27	-44.2	-45.5	18.0	0.00e+00	0	39	0	2027945984	59	4301
2026-01-19 23:02:32.48	87.47	6.24	-44.3	-45.5	18.0	0.00e+00	0	39	0	2034237440	59	4322
2026-01-19 23:02:33.45	87.61	6.22	-44.5	-45.8	17.7	0.00e+00	0	39	0	2039480320	59	4452
2026-01-19 23:02:34.43	87.75	6.19	-44.6	-45.9	17.7	0.00e+00	0	39	0	2044723200	59	4509
2026-01-19 23:02:35.40	87.89	6.16	-44.5	-45.9	17.7	0.00e+00	0	39	0	2049966080	59	4495
2026-01-19 23:02:36.37	88.03	6.13	-44.5	-45.9	17.7	0.00e+00	0	39	0	2055208960	59	4495
2026-01-19 23:02:37.34	88.17	6.10	-44.4	-45.7	17.8	0.00e+00	0	39	0	2061500416	59	4408
2026-01-19 23:02:38.31	88.31	6.07	-44.4	-45.7	17.7	0.00e+00	0	39	0	2066743296	59	4436
2026-01-19 23:02:39.28	88.45	6.04	-44.4	-45.7	17.7	0.00e+00	0	39	0	2071986176	59	4432
2026-01-19 23:02:40.25	88.59	6.01	-44.6	-46.0	17.5	0.00e+00	0	39	0	2077229056	59	4546
2026-01-19 23:02:41.21	88.73	5.98	-44.3	-45.6	17.5	0.00e+00	0	39	0	2083520512	60	4111
2026-01-19 23:02:42.18	88.87	5.95	-44.4	-45.7	17.4	0.00e+00	0	39	0	2087714816	60	4192
2026-01-19 23:02:43.15	89.00	5.92	-44.1	-45.4	17.7	0.00e+00	0	39	0	2094006272	60	4038
2026-01-19 23:02:44.12	89.14	5.89	-44.1	-45.3	17.8	0.00e+00	0	39	0	2099249152	60	4000
2026-01-19 23:02:45.09	89.28	5.86	-44.1	-45.4	17.7	0.00e+00	0	39	0	2104492032	60	4031
2026-01-19 23:02:46.06	89.42	5.83	-44.2	-45.5	17.9	0.00e+00	0	39	0	2109734912	59	4309
2026-01-19 23:02:47.03	89.55	5.80	-44.3	-45.6	17.8	0.00e+00	0	39	0	2116026368	59	4382
2026-01-19 23:02:48.00	89.69	5.77	-44.5	-45.9	17.5	0.00e+00	0	39	0	2121269248	59	4503
2026-01-19 23:02:48.97	89.83	5.74	-44.6	-46.0	17.4	0.00e+00	0	39	0	2126512128	59	4552
2026-01-19 23:02:49.94	89.96	5.71	-44.2	-45.5	17.6	0.00e+00	0	39	0	2131755008	60	4057
2026-01-19 23:02:50.91	90.10	5.68	-44.3	-45.6	17.8	0.00e+00	0	39	0	2138046464	59	4358
2026-01-19 23:02:51.87	90.23	5.65	-44.4	-45.7	17.7	0.00e+00	0	39	0	2142240768	59	4394
2026-01-19 23:02:52.84	90.37	5.62	-44.2	-45.4	17.9	0.00e+00	0	39	0	2148532224	59	4282
2026-01-19 23:02:53.81	90.51	5.59	-44.4	-45.7	17.6	0.00e+00	0	39	0	2153775104	59	4415
2026-01-19 23:02:54.78	90.64	5.56	-44.4	-45.6	17.7	0.00e+00	0	39	0	2159017984	59	4385
2026-01-19 23:02:55.75	90.78	5.53	-44.2	-45.5	17.8	0.00e+00	0	39	0	2164260864	59	4315
2026-01-19 23:02:56.72	90.91	5.50	-44.5	-45.8	17.5	0.00e+00	0	39	0	2170552320	59	4470
2026-01-19 23:02:57.69	91.04	5.47	-44.5	-45.9	17.5	0.00e+00	0	39	0	2175795200	59	4496
2026-01-19 23:02:58.66	91.18	5.44	-44.5	-45.8	17.4	0.00e+00	0	39	0	2181038080	59	4489
2026-01-19 23:02:59.62	91.31	5.41	-44.5	-45.9	17.4	0.00e+00	0	39	0	2186280960	59	4517
2026-01-19 23:03:00.59	91.44	5.37	-44.3	-45.7	17.2	0.00e+00	0	39	0	2192572416	60	4154
2026-01-19 23:03:01.56	91.58	5.34	-44.3	-45.7	17.3	0.00e+00	0	39	0	2196766720	60	4158
2026-01-19 23:03:02.53	91.71	5.31	-44.3	-45.7	17.2	0.00e+00	0	39	0	2203058176	60	4150
2026-01-19 23:03:03.50	91.84	5.28	-44.6	-46.0	16.9	0.00e+00	0	39	0	2208301056	60	4324
2026-01-19 23:03:04.47	91.97	5.25	-44.3	-45.7	17.1	0.00e+00	0	39	0	2213543936	60	4177
2026-01-19 23:03:05.44	92.11	5.22	-44.4	-45.7	17.1	0.00e+00	0	39	0	2218786816	60	4190
2026-01-19 23:03:06.41	92.24	5.18	-44.5	-45.9	16.9	0.00e+00	0	39	0	2225078272	60	4267
2026-01-19 23:03:07.37	92.37	5.15	-44.4	-45.8	17.0	0.00e+00	0	39	0	2230321152	60	4207
2026-01-19 23:03:08.34	92.50	5.12	-44.5	-45.9	16.9	0.00e+00	0	39	0	2235564032	60	4276
2026-01-19 23:03:09.31	92.63	5.09	-44.3	-45.6	17.2	0.00e+00	0	39	0	2240806912	60	4135
2026-01-19 23:03:10.28	92.76	5.06	-44.6	-46.0	16.8	0.00e+00	0	39	0	2246049792	60	4319
2026-01-19 23:03:11.25	92.89	5.02	-44.7	-46.1	16.7	0.00e+00	0	39	0	2251292672	60	4378
2026-01-19 23:03:12.22	93.02	4.99	-52.3	-64.3	3.8	8.45e-01	0	39	104	2254438400	75	14920
2026-01-19 23:03:13.19	93.15	4.96	-52.7	-64.6	3.8	8.46e-01	0	39	104	2254438400	75	15570
2026-01-19 23:03:14.16	93.28	4.93	-52.9	-64.9	3.8	8.46e-01	0	39	104	2254438400	76	15082
2026-01-19 23:03:15.13	93.41	4.89	-53.1	-65.1	3.8	8.47e-01	0	39	104	2254438400	76	15416
2026-01-19 23:03:16.10	93.54	4.86	-53.3	-65.3	3.8	8.46e-01	0	39	104	2254438400	77	14917
2026-01-19 23:03:17.07	93.67	4.83	-53.4	-65.4	3.8	8.46e-01	0	39	104	2254438400	77	15079
2026-01-19 23:03:18.04	93.80	4.80	-53.5	-65.4	3.8	8.46e-01	0	39	104	2254438400	77	15142
2026-01-19 23:03:19.01	93.92	4.76	-53.6	-65.5	3.8	8.45e-01	0	39	104	2254438400	77	15349
2026-01-19 23:03:19.98	94.05	4.73	-53.7	-65.6	3.8	8.46e-01	0	39	104	2254438400	77	15573
2026-01-19 23:03:20.96	94.18	4.70	-53.8	-65.7	3.8	8.45e-01	0	39	104	2254438400	78	14831
2026-01-19 23:03:21.93	94.31	4.66	-53.8	-65.8	3.8	8.46e-01	0	39	104	2254438400	78	14903
2026-01-19 23:03:22.90	94.43	4.63	-53.9	-65.8	3.8	8.46e-01	0	39	104	2254438400	78	14978
2026-01-19 23:03:23.86	94.56	4.60	-53.9	-65.9	3.8	8.47e-01	0	39	104	2254438400	78	15067
2026-01-19 23:03:24.83	94.69	4.56	-54.0	-65.9	3.8	8.47e-01	0	39	104	2254438400	78	15189
2026-01-19 23:03:25.79	94.81	4.53	-54.0	-66.0	3.8	8.46e-01	0	39	104	2254438400	78	15239
2026-01-19 23:03:26.77	94.94	4.50	-54.0	-66.0	3.8	8.45e-01	0	39	104	2254438400	78	15259
2026-01-19 23:03:27.74	95.06	4.46	-54.1	-66.0	3.8	8.45e-01	0	39	104	2254438400	78	15329
2026-01-19 23:03:28.71	95.19	4.43	-54.1	-66.1	3.8	8.46e-01	0	39	104	2254438400	78	15410
2026-01-19 23:03:29.68	95.31	4.40	-54.1	-66.1	3.8	8.46e-01	0	39	104	2254438400	78	15501
2026-01-19 23:03:30.65	95.44	4.36	-54.1	-66.1	3.8	8.46e-01	0	39	104	2254438400	78	15479
2026-01-19 23:03:31.62	95.56	4.33	-54.2	-66.2	3.8	8.45e-01	0	39	104	2254438400	78	15584
2026-01-19 23:03:32.60	95.69	4.29	-54.2	-66.1	3.8	8.46e-01	0	39	104	2254438400	78	15553
2026-01-19 23:03:33.57	95.81	4.26	-54.2	-66.2	3.8	8.47e-01	0	39	104	2254438400	78	15599
2026-01-19 23:03:34.54	95.94	4.23	-54.2	-66.2	3.8	8.47e-01	0	39	104	2254438400	78	15622
2026-01-19 23:03:35.51	96.06	4.19	-54.2	-66.2	3.8	8.47e-01	0	39	104	2254438400	78	15585
2026-01-19 23:03:36.47	96.18	4.16	-54.2	-66.1	3.8	8.46e-01	0	39	104	2254438400	78	15550
2026-01-19 23:03:37.44	96.31	4.12	-54.2	-66.1	3.8	8.46e-01	0	39	104	2254438400	78	15562
2026-01-19 23:03:38.41	96.43	4.09	-54.1	-66.1	3.8	8.46e-01	0	39	104	2254438400	78	15512
2026-01-19 23:03:39.38	96.55	4.05	-54.1	-66.1	3.8	8.45e-01	0	39	104	2254438400	78	15499
2026-01-19 23:03:40.35	96.67	4.02	-54.1	-66.1	3.8	8.46e-01	0	39	104	2254438400	78	15476
2026-01-19 23:03:41.32	96.79	3.99	-54.1	-66.1	3.8	8.46e-01	0	39	104	2254438400	78	15505
2026-01-19 23:03:42.28	96.91	3.95	-54.1	-66.1	3.8	8.46e-01	0	39	104	2254438400	78	15540
2026-01-19 23:03:43.25	97.04	3.92	-54.1	-66.1	3.8	8.46e-01	0	39	104	2254438400	78	15509
2026-01-19 23:03:44.22	97.16	3.88	-54.1	-66.1	3.8	8.46e-01	0	39	104	2254438400	78	15488
2026-01-19 23:03:45.19	97.28	3.85	-54.1	-66.1	3.8	8.45e-01	0	39	104	2254438400	78	15403
2026-01-19 23:03:46.17	97.40	3.81	-54.1	-66.0	3.8	8.46e-01	0	39	104	2254438400	78	15380
2026-01-19 23:03:47.13	97.52	3.78	-54.1	-66.0	3.8	8.47e-01	0	39	104	2254438400	78	15375
2026-01-19 23:03:48.10	97.64	3.74	-54.1	-66.0	3.8	8.46e-01	0	39	104	2254438400	78	15347
2026-01-19 23:03:49.07	97.76	3.71	-54.0	-66.0	3.8	8.45e-01	0	39	104	2254438400	78	15336
2026-01-19 23:03:50.05	97.88	3.67	-54.0	-66.0	3.8	8.47e-01	0	39	104	2254438400	78	15319
2026-01-19 23:03:51.02	98.00	3.64	-54.1	-66.0	3.8	8.45e-01	0	39	104	2254438400	78	15348
2026-01-19 23:03:51.99	98.12	3.60	-54.0	-66.0	3.8	8.46e-01	0	39	104	2254438400	78	15323
2026-01-19 23:03:52.96	98.23	3.57	-54.0	-66.0	3.8	8.45e-01	0	39	104	2254438400	78	15318
2026-01-19 23:03:53.93	98.35	3.53	-54.0	-66.0	3.8	8.46e-01	0	39	104	2254438400	78	15258
2026-01-19 23:03:54.89	98.47	3.50	-54.0	-65.9	3.8	8.46e-01	0	39	104	2254438400	78	15217
2026-01-19 23:03:55.86	98.59	3.46	-54.0	-66.0	3.8	8.47e-01	0	39	104	2254438400	78	15259
2026-01-19 23:03:56.83	98.70	3.43	-54.0	-66.0	3.8	8.45e-01	0	39	104	2254438400	78	15261
2026-01-19 23:03:57.79	98.82	3.39	-54.0	-66.0	3.8	8.46e-01	0	39	104	2254438400	78	15257
2026-01-19 23:03:58.77	98.94	3.36	-54.0	-66.0	3.8	8.46e-01	0	39	104	2254438400	78	15304
2026-01-19 23:03:59.74	99.05	3.32	-54.0	-66.0	3.8	8.46e-01	0	39	104	2254438400	78	15255
2026-01-19 23:04:00.71	99.17	3.28	-54.0	-66.0	3.8	8.46e-01	0	39	104	2254438400	78	15265
2026-01-19 23:04:01.68	99.29	3.25	-54.0	-66.0	3.8	8.47e-01	0	39	104	2254438400	78	15238
2026-01-19 23:04:02.65	99.40	3.21	-54.0	-65.9	3.8	8.47e-01	0	39	104	2254438400	78	15211
2026-01-19 23:04:03.63	99.52	3.18	-54.0	-66.0	3.8	8.45e-01	0	39	104	2254438400	78	15239
2026-01-19 23:04:04.60	99.63	3.14	-54.0	-65.9	3.8	8.47e-01	0	39	104	2254438400	78	15180
2026-01-19 23:04:05.57	99.75	3.11	-54.0	-65.9	3.8	8.46e-01	0	39	104	2254438400	78	15206
2026-01-19 23:04:06.53	99.86	3.07	-54.0	-65.9	3.8	8.46e-01	0	39	104	2254438400	78	15208
2026-01-19 23:04:07.50	99.98	3.03	-54.0	-66.0	3.8	8.47e-01	0	39	104	2254438400	78	15232
2026-01-19 23:04:08.47	100.09	3.00	-54.0	-65.9	3.8	8.46e-01	0	39	104	2254438400	78	15196
2026-01-19 23:04:09.44	100.21	2.96	-54.0	-65.9	3.8	8.46e-01	0	39	104	2254438400	78	15157
2026-01-19 23:04:10.41	100.32	2.93	-54.0	-65.9	3.8	8.46e-01	0	39	104	2254438400	78	15209
2026-01-19 23:04:11.38	100.43	2.89	-54.0	-66.0	3.8	8.46e-01	0	39	104	2254438400	78	15267
2026-01-19 23:04:12.36	100.55	2.85	-54.0	-65.9	3.8	8.46e-01	0	39	104	2254438400	78	15187
2026-01-19 23:04:13.33	100.66	2.82	-54.0	-65.9	3.8	8.46e-01	0	39	104	2254438400	78	15211
2026-01-19 23:04:14.29	100.77	2.78	-54.0	-65.9	3.8	8.46e-01	0	39	104	2254438400	78	15199
2026-01-19 23:04:15.27	100.88	2.74	-54.0	-65.9	3.8	8.46e-01	0	39	104	2254438400	78	15137
2026-01-19 23:04:16.24	101.00	2.71	-54.0	-65.9	3.8	8.46e-01	0	39	104	2254438400	78	15214
2026-01-19 23:04:17.21	101.11	2.67	-54.0	-65.9	3.8	8.47e-01	0	39	104	2254438400	78	15205
2026-01-19 23:04:18.18	101.22	2.64	-54.0	-66.0	3.8	8.47e-01	0	39	104	2254438400	78	15228
2026-01-19 23:04:19.14	101.33	2.60	-54.0	-65.9	3.8	8.45e-01	0	39	104	2254438400	78	15207
2026-01-19 23:04:20.11	101.44	2.56	-54.0	-65.9	3.8	8.46e-01	0	39	104	2254438400	78	15183
2026-01-19 23:04:21.08	101.55	2.53	-54.0	-65.9	3.8	8.46e-01	0	39	104	2254438400	78	15137
2026-01-19 23:04:22.06	101.66	2.49	-54.0	-65.9	3.8	8.46e-01	0	39	104	2254438400	78	15178
2026-01-19 23:04:23.02	101.77	2.45	-54.0	-65.9	3.8	8.47e-01	0	39	104	2254438400	78	15186
2026-01-19 23:04:23.99	101.88	2.42	-54.0	-65.9	3.8	8.45e-01	0	39	104	2254438400	78	15201
2026-01-19 23:04:24.96	101.99	2.38	-54.0	-65.9	3.8	8.47e-01	0	39	104	2254438400	78	15147
2026-01-19 23:04:25.93	102.10	2.34	-54.0	-65.9	3.8	8.47e-01	0	39	104	2254438400	78	15171
2026-01-19 23:04:26.90	102.21	2.31	-53.9	-65.9	3.8	8.45e-01	0	39	104	2254438400	78	15168
2026-01-19 23:04:27.87	102.32	2.27	-54.0	-65.9	3.8	8.45e-01	0	39	104	2254438400	78	15143
2026-01-19 23:04:28.84	102.43	2.23	-54.0	-65.9	3.8	8.46e-01	0	39	104	2254438400	78	15190
2026-01-19 23:04:29.81	102.54	2.20	-53.9	-65.9	3.8	8.47e-01	0	39	104	2254438400	78	15165
2026-01-19 23:04:30.78	102.65	2.16	-53.9	-65.9	3.8	8.47e-01	0	39	104	2254438400	78	15177
2026-01-19 23:04:31.75	102.75	2.12	-53.9	-65.9	3.8	8.47e-01	0	39	104	2254438400	78	15146
2026-01-19 23:04:32.72	102.86	2.09	-53.9	-65.9	3.8	8.47e-01	0	39	104	2254438400	78	15144
2026-01-19 23:04:33.69	102.97	2.05	-53.9	-65.9	3.8	8.46e-01	0	39	104	2254438400	78	15120
2026-01-19 23:04:34.66	103.08	2.01	-53.9	-65.9	3.8	8.46e-01	0	39	104	2254438400	78	15103
2026-01-19 23:04:35.63	103.18	1.97	-53.9	-65.9	3.8	8.46e-01	0	39	104	2254438400	78	15131

#Closed at: 2026-01-19 23:04:36
#Recorded file [2254 MB]: D:/lorett/data/31041_260120_015510.dat