passes_logs/2026/01/19/R3.2S_Murmansk/R3.2S_Murmansk__20260119_091206_KANOPUS-V_5_rec.log

#Pass ID: 20260119_091206_KANOPUS-V 5
#Satellite: KANOPUS-V 5
#Configuration: KANOPUS-V_8320
#almurnet v.1.7.20251203
#Start time: 2026-01-19 09:12:07

#Version: 2.2.20231116
#Station: R3.2S_Murmansk
#Location: 33.079688 lon 68.888172 lat
#TLE: 1 43876U 18111A   26018.98023380  .00003393  00000+0  14531-3 0  9994
#TLE: 2 43876  97.3687 287.4223 0001779  87.4977 272.6464 15.23461071392076

#Time	Az	El	Level	Level2	SNR	BER	BlckErr	Temp	State	Recorded	gain1	gain2
2026-01-19 09:12:07.93	200.70	2.08	-53.5	-62.3	3.8	7.47e-01	0	36	0	0	78	10012
2026-01-19 09:12:08.92	200.78	2.14	-53.4	-62.3	3.8	7.47e-01	0	36	104	0	77	10622
2026-01-19 09:12:09.93	200.86	2.21	-53.4	-62.3	3.8	7.46e-01	0	36	104	0	77	10595
2026-01-19 09:12:10.94	200.94	2.27	-53.4	-62.3	3.8	7.46e-01	0	36	104	0	77	10589
2026-01-19 09:12:11.95	201.03	2.34	-53.4	-62.3	3.8	7.45e-01	0	36	104	0	77	10564
2026-01-19 09:12:12.96	201.11	2.40	-53.4	-62.3	3.8	7.46e-01	0	36	104	0	77	10566
2026-01-19 09:12:13.96	201.19	2.47	-53.4	-62.3	3.8	7.44e-01	0	36	104	0	77	10579
2026-01-19 09:12:14.97	201.27	2.53	-53.4	-62.3	3.8	7.44e-01	0	36	104	0	77	10564
2026-01-19 09:12:15.98	201.35	2.60	-53.4	-62.3	3.8	7.43e-01	0	36	104	0	77	10597
2026-01-19 09:12:16.99	201.44	2.66	-53.4	-62.3	3.8	7.45e-01	0	37	104	0	77	10573
2026-01-19 09:12:18.00	201.52	2.73	-53.4	-62.3	3.8	7.47e-01	0	36	104	0	77	10578
2026-01-19 09:12:19.01	201.61	2.80	-53.4	-62.3	3.8	7.45e-01	0	37	104	0	77	10565
2026-01-19 09:12:20.01	201.69	2.86	-53.4	-62.3	3.8	7.45e-01	0	37	104	0	77	10582
2026-01-19 09:12:21.02	201.78	2.93	-53.4	-62.3	3.8	7.44e-01	0	37	104	0	77	10583
2026-01-19 09:12:22.03	201.86	3.00	-53.4	-62.3	3.8	7.47e-01	0	37	104	0	77	10591
2026-01-19 09:12:23.04	201.95	3.06	-53.4	-62.3	3.8	7.46e-01	0	37	104	0	77	10568
2026-01-19 09:12:24.05	202.04	3.13	-53.4	-62.3	3.8	7.46e-01	0	37	104	0	77	10588
2026-01-19 09:12:25.05	202.12	3.20	-53.4	-62.3	3.8	7.46e-01	0	37	104	0	77	10579
2026-01-19 09:12:26.06	202.21	3.26	-53.4	-62.3	3.8	7.46e-01	0	37	104	0	77	10539
2026-01-19 09:12:27.07	202.30	3.33	-53.4	-62.3	3.8	7.44e-01	0	37	104	0	77	10548
2026-01-19 09:12:28.07	202.39	3.40	-53.4	-62.3	3.8	7.46e-01	0	37	104	0	77	10569
2026-01-19 09:12:29.08	202.48	3.47	-53.4	-62.3	3.8	7.45e-01	0	37	104	0	77	10564
2026-01-19 09:12:30.09	202.57	3.54	-53.4	-62.3	3.8	7.44e-01	0	37	104	0	77	10577
2026-01-19 09:12:31.09	202.66	3.60	-53.4	-62.3	3.8	7.45e-01	0	37	104	0	77	10558
2026-01-19 09:12:32.10	202.75	3.67	-53.4	-62.3	3.8	7.45e-01	0	37	104	0	77	10534
2026-01-19 09:12:33.11	202.84	3.74	-53.4	-62.3	3.8	7.45e-01	0	37	104	0	77	10546
2026-01-19 09:12:34.12	202.93	3.81	-53.4	-62.3	3.8	7.44e-01	0	37	104	0	77	10571
2026-01-19 09:12:35.12	203.02	3.88	-53.4	-62.3	3.8	7.45e-01	0	37	104	0	77	10558
2026-01-19 09:12:36.13	203.12	3.95	-53.4	-62.3	3.8	7.46e-01	0	37	104	0	77	10589
2026-01-19 09:12:37.14	203.21	4.02	-53.4	-62.3	3.8	7.46e-01	0	37	104	0	77	10573
2026-01-19 09:12:38.15	203.30	4.09	-53.4	-62.3	3.8	7.45e-01	0	37	104	0	77	10570
2026-01-19 09:12:39.16	203.40	4.16	-53.4	-62.3	3.8	7.44e-01	0	37	104	0	77	10539
2026-01-19 09:12:40.17	203.49	4.23	-53.3	-62.3	3.8	7.46e-01	0	37	104	0	77	10573
2026-01-19 09:12:41.17	203.59	4.30	-52.9	-60.2	3.9	7.40e-01	0	37	104	0	77	8338
2026-01-19 09:12:42.18	203.68	4.37	-52.4	-58.5	4.2	7.31e-01	0	37	104	0	76	7279
2026-01-19 09:12:43.18	203.78	4.44	-51.9	-57.0	4.8	7.16e-01	0	37	0	0	75	6493
2026-01-19 09:12:44.19	203.88	4.51	-51.4	-56.0	5.5	6.93e-01	0	37	0	0	74	6071
2026-01-19 09:12:45.20	203.98	4.58	-50.2	-53.7	7.5	6.53e-01	0	37	0	0	72	5264
2026-01-19 09:12:46.21	204.08	4.65	-49.8	-53.1	8.1	6.44e-01	0	37	0	0	71	5191
2026-01-19 09:12:47.22	204.17	4.72	-49.1	-52.0	9.0	6.34e-01	0	37	0	6291456	70	4864
2026-01-19 09:12:48.22	204.27	4.79	-48.2	-51.0	10.0	6.24e-01	0	37	0	20971520	68	4816
2026-01-19 09:12:49.23	204.37	4.86	-47.2	-49.7	11.3	6.17e-01	0	37	0	37748736	66	4699
2026-01-19 09:12:50.24	204.47	4.94	-46.1	-48.4	12.5	6.12e-01	0	37	0	52428800	64	4534
2026-01-19 09:12:51.25	204.58	5.01	-46.2	-48.5	12.4	6.13e-01	0	37	0	69206016	64	4588
2026-01-19 09:12:52.26	204.68	5.08	-46.0	-48.3	12.7	6.12e-01	0	37	0	83886080	63	4750
2026-01-19 09:12:53.27	204.78	5.15	-51.0	-55.1	6.2	6.78e-01	0	37	0	98566144	74	5511
2026-01-19 09:12:54.27	204.88	5.22	-48.0	-50.8	10.3	6.22e-01	0	37	0	115343360	67	4997
2026-01-19 09:12:55.28	204.99	5.30	-49.6	-52.8	8.4	6.41e-01	0	37	0	130023424	71	5010
2026-01-19 09:12:56.29	205.09	5.37	-46.7	-49.1	12.0	6.14e-01	0	37	0	144703488	65	4620
2026-01-19 09:12:57.30	205.20	5.44	-48.0	-50.8	10.4	6.22e-01	0	37	0	161480704	67	4990
2026-01-19 09:12:58.31	205.31	5.52	-45.5	-47.7	13.3	6.10e-01	0	37	0	176160768	62	4676
2026-01-19 09:12:59.31	205.41	5.59	-46.1	-48.3	12.7	6.11e-01	0	37	0	190840832	62	5033
2026-01-19 09:13:00.32	205.52	5.67	-45.8	-48.1	12.9	6.11e-01	0	37	0	207618048	62	4877
2026-01-19 09:13:01.33	205.63	5.74	-45.9	-48.3	12.8	5.76e-01	0	37	0	224395264	62	5038
2026-01-19 09:13:02.34	205.74	5.81	-46.0	-48.5	12.7	5.76e-01	0	37	0	239075328	62	5112
2026-01-19 09:13:03.35	205.84	5.89	-45.8	-48.3	12.9	5.76e-01	0	37	0	253755392	62	4984
2026-01-19 09:13:04.36	205.96	5.96	-45.9	-48.3	12.9	5.76e-01	0	37	0	270532608	62	5023
2026-01-19 09:13:05.37	206.07	6.04	-45.8	-48.2	13.0	5.76e-01	0	37	0	285212672	62	4942
2026-01-19 09:13:06.38	206.18	6.11	-45.8	-48.2	13.0	5.75e-01	0	37	0	299892736	62	4967
2026-01-19 09:13:07.39	206.29	6.19	-45.9	-48.3	12.9	5.77e-01	0	37	0	316669952	62	5021
2026-01-19 09:13:08.39	206.40	6.26	-45.6	-48.0	13.2	5.76e-01	0	37	0	331350016	62	4831
2026-01-19 09:13:09.40	206.52	6.34	-45.7	-48.1	13.1	5.77e-01	0	38	0	346030080	62	4918
2026-01-19 09:13:10.41	206.63	6.42	-46.0	-48.4	12.9	5.76e-01	0	38	0	362807296	62	5078
2026-01-19 09:13:11.42	206.74	6.49	-45.8	-48.2	13.1	5.77e-01	0	37	0	377487360	62	4933
2026-01-19 09:13:12.43	206.86	6.57	-45.7	-48.1	13.1	5.76e-01	0	38	0	394264576	62	4902
2026-01-19 09:13:13.44	206.98	6.65	-45.8	-48.2	13.1	5.75e-01	0	38	0	408944640	62	4959
2026-01-19 09:13:14.45	207.09	6.72	-45.6	-48.0	13.3	5.76e-01	0	37	0	425721856	62	4836
2026-01-19 09:13:15.45	207.21	6.80	-45.6	-47.9	13.4	5.75e-01	0	38	0	440401920	62	4797
2026-01-19 09:13:16.46	207.33	6.88	-45.6	-48.0	13.3	5.76e-01	0	38	0	455081984	62	4836
2026-01-19 09:13:17.47	207.45	6.96	-45.4	-47.7	13.5	5.75e-01	0	37	0	471859200	62	4691
2026-01-19 09:13:18.48	207.57	7.03	-45.7	-48.1	13.2	5.77e-01	0	38	0	486539264	62	4895
2026-01-19 09:13:19.48	207.69	7.11	-45.5	-47.9	13.4	5.76e-01	0	38	0	501219328	62	4782
2026-01-19 09:13:20.49	207.81	7.19	-45.6	-48.0	13.3	5.76e-01	0	38	0	517996544	62	4839
2026-01-19 09:13:21.50	207.94	7.27	-45.5	-47.8	13.5	5.74e-01	0	38	0	532676608	62	4731
2026-01-19 09:13:22.51	208.06	7.35	-45.5	-47.8	13.5	5.75e-01	0	38	0	547356672	62	4735
2026-01-19 09:13:23.51	208.18	7.43	-45.6	-48.0	13.3	5.76e-01	0	38	0	564133888	62	4849
2026-01-19 09:13:24.52	208.31	7.51	-45.9	-48.3	13.0	5.76e-01	0	38	0	578813952	62	5034
2026-01-19 09:13:25.53	208.43	7.59	-45.7	-48.0	13.3	5.76e-01	0	38	0	595591168	62	4854
2026-01-19 09:13:26.54	208.56	7.67	-45.6	-48.0	13.4	5.75e-01	0	38	0	610271232	62	4840
2026-01-19 09:13:27.55	208.69	7.75	-45.7	-48.0	13.4	5.75e-01	0	38	0	627048448	62	4865
2026-01-19 09:13:28.56	208.82	7.83	-45.4	-47.8	13.6	5.75e-01	0	38	0	641728512	62	4716
2026-01-19 09:13:29.57	208.95	7.91	-45.5	-47.8	13.6	5.76e-01	0	38	0	656408576	62	4752
2026-01-19 09:13:30.58	209.08	7.99	-45.4	-47.7	13.7	5.76e-01	0	38	0	673185792	62	4681
2026-01-19 09:13:31.58	209.21	8.07	-45.5	-47.9	13.5	5.77e-01	0	38	0	687865856	62	4760
2026-01-19 09:13:32.59	209.34	8.15	-45.5	-47.8	13.6	5.75e-01	0	38	0	702545920	62	4757
2026-01-19 09:13:33.60	209.47	8.23	-45.2	-47.5	13.9	5.74e-01	0	38	0	719323136	62	4555
2026-01-19 09:13:34.61	209.61	8.31	-45.4	-47.7	13.7	5.76e-01	0	38	0	734003200	62	4683
2026-01-19 09:13:35.61	209.74	8.39	-45.3	-47.6	13.6	6.07e-01	0	38	0	748683264	62	4631
2026-01-19 09:13:36.62	209.88	8.48	-45.4	-47.7	13.6	6.04e-01	0	38	0	765460480	62	4652
2026-01-19 09:13:37.63	210.01	8.56	-45.3	-47.5	13.8	6.06e-01	0	38	0	780140544	62	4594
2026-01-19 09:13:38.64	210.15	8.64	-45.3	-47.6	13.7	6.03e-01	0	38	0	796917760	62	4614
2026-01-19 09:13:39.65	210.29	8.73	-45.2	-47.4	13.9	6.03e-01	0	38	0	811597824	62	4541
2026-01-19 09:13:40.65	210.43	8.81	-45.3	-47.6	13.8	5.93e-01	0	38	0	828375040	62	4607
2026-01-19 09:13:41.66	210.57	8.89	-45.3	-47.5	13.8	5.97e-01	0	38	0	843055104	62	4576
2026-01-19 09:13:42.67	210.71	8.98	-45.2	-47.4	13.9	6.05e-01	0	38	0	857735168	62	4534
2026-01-19 09:13:43.68	210.85	9.06	-45.1	-47.3	14.0	6.00e-01	0	38	0	874512384	62	4489
2026-01-19 09:13:44.68	210.99	9.14	-45.1	-47.2	14.1	6.06e-01	0	38	0	889192448	62	4432
2026-01-19 09:13:45.69	211.14	9.23	-45.3	-47.5	13.9	6.02e-01	0	38	0	903872512	62	4558
2026-01-19 09:13:46.70	211.28	9.31	-45.2	-47.4	13.9	6.02e-01	0	38	0	918552576	62	4527
2026-01-19 09:13:47.71	211.43	9.40	-45.4	-47.5	13.8	6.00e-01	0	38	0	935329792	62	4588
2026-01-19 09:13:48.72	211.58	9.48	-45.3	-47.4	13.9	6.06e-01	0	38	0	950009856	62	4523
2026-01-19 09:13:49.73	211.72	9.57	-45.3	-47.4	14.0	6.00e-01	0	38	0	964689920	62	4518
2026-01-19 09:13:50.73	211.87	9.65	-45.3	-47.4	14.0	6.06e-01	0	38	0	981467136	62	4523
2026-01-19 09:13:51.74	212.02	9.74	-45.4	-47.5	13.9	6.08e-01	0	38	0	998244352	62	4571
2026-01-19 09:13:52.75	212.17	9.83	-45.4	-47.5	13.9	6.06e-01	0	38	0	1012924416	62	4555
2026-01-19 09:13:53.76	212.33	9.91	-45.4	-47.5	13.9	6.06e-01	0	38	0	1027604480	62	4580
2026-01-19 09:13:54.77	212.48	10.00	-45.4	-47.5	13.9	6.06e-01	0	38	0	1044381696	62	4551
2026-01-19 09:13:55.78	212.64	10.09	-45.3	-47.4	14.0	6.06e-01	0	38	0	1059061760	62	4531
2026-01-19 09:13:56.79	212.79	10.17	-45.3	-47.4	14.1	6.04e-01	0	38	0	1073741824	62	4498
2026-01-19 09:13:57.79	212.95	10.26	-45.4	-47.4	14.0	6.06e-01	0	38	0	1090519040	62	4539
2026-01-19 09:13:58.80	213.11	10.35	-45.3	-47.4	14.0	6.05e-01	0	38	0	1105199104	62	4501
2026-01-19 09:13:59.81	213.27	10.44	-45.4	-47.4	14.0	6.04e-01	0	38	0	1119879168	62	4514
2026-01-19 09:14:00.82	213.43	10.53	-45.5	-47.5	13.9	6.05e-01	0	38	0	1136656384	62	4590
2026-01-19 09:14:01.82	213.59	10.61	-45.5	-47.5	13.9	6.05e-01	0	38	0	1151336448	62	4567
2026-01-19 09:14:02.83	213.75	10.70	-45.4	-47.4	14.0	6.04e-01	0	38	0	1168113664	62	4537
2026-01-19 09:14:03.84	213.91	10.79	-45.5	-47.5	13.9	6.05e-01	0	38	0	1182793728	62	4569
2026-01-19 09:14:04.85	214.08	10.88	-45.5	-47.5	13.9	6.06e-01	0	38	0	1199570944	62	4593
2026-01-19 09:14:05.85	214.24	10.97	-45.5	-47.5	14.0	6.05e-01	0	38	0	1214251008	62	4565
2026-01-19 09:14:06.86	214.41	11.06	-45.4	-47.4	14.1	6.07e-01	0	38	0	1228931072	62	4495
2026-01-19 09:14:07.87	214.58	11.15	-45.4	-47.4	14.1	6.04e-01	0	38	0	1245708288	62	4508
2026-01-19 09:14:08.88	214.75	11.24	-45.3	-47.4	14.2	5.89e-01	0	38	0	1260388352	62	4498
2026-01-19 09:14:09.89	214.92	11.33	-45.5	-47.5	14.0	6.05e-01	0	38	0	1275068416	62	4560
2026-01-19 09:14:10.90	215.09	11.42	-45.3	-47.3	14.2	6.01e-01	0	38	0	1291845632	62	4463
2026-01-19 09:14:11.90	215.27	11.51	-45.4	-47.5	14.0	6.04e-01	0	38	0	1306525696	62	4563
2026-01-19 09:14:12.91	215.44	11.60	-45.6	-47.6	13.9	6.03e-01	0	38	0	1321205760	62	4612
2026-01-19 09:14:13.92	215.62	11.70	-45.4	-47.5	14.1	5.97e-01	0	38	0	1337982976	62	4550
2026-01-19 09:14:14.93	215.80	11.79	-45.4	-47.4	14.1	5.98e-01	0	38	0	1352663040	62	4518
2026-01-19 09:14:15.93	215.97	11.88	-45.4	-47.4	14.1	5.96e-01	0	38	0	1369440256	62	4511
2026-01-19 09:14:16.94	216.15	11.97	-45.4	-47.4	14.1	6.04e-01	0	38	0	1384120320	62	4512
2026-01-19 09:14:17.95	216.33	12.06	-45.4	-47.3	14.2	6.03e-01	0	38	0	1400897536	62	4486
2026-01-19 09:14:18.96	216.52	12.16	-45.4	-47.3	14.2	5.97e-01	0	38	0	1415577600	62	4458
2026-01-19 09:14:19.97	216.70	12.25	-45.3	-47.2	14.3	6.01e-01	0	38	0	1430257664	62	4437
2026-01-19 09:14:20.97	216.89	12.34	-45.3	-47.2	14.3	6.05e-01	0	38	0	1447034880	62	4410
2026-01-19 09:14:21.98	217.07	12.44	-45.4	-47.4	14.2	6.06e-01	0	38	0	1461714944	62	4501
2026-01-19 09:14:22.99	217.26	12.53	-45.3	-47.3	14.3	5.98e-01	0	38	0	1476395008	62	4467
2026-01-19 09:14:24.00	217.45	12.62	-45.5	-47.5	14.0	6.04e-01	0	38	0	1493172224	62	4570
2026-01-19 09:14:25.01	217.64	12.72	-45.5	-47.5	14.0	6.03e-01	0	38	0	1507852288	62	4569
2026-01-19 09:14:26.01	217.84	12.81	-45.5	-47.5	14.1	5.88e-01	0	38	0	1522532352	62	4563
2026-01-19 09:14:27.02	218.03	12.91	-45.5	-47.5	14.1	5.96e-01	0	38	0	1539309568	62	4552
2026-01-19 09:14:28.03	218.23	13.00	-45.5	-47.5	14.1	5.88e-01	0	38	0	1556086784	62	4597
2026-01-19 09:14:29.04	218.42	13.10	-45.5	-47.5	14.1	5.92e-01	0	38	0	1570766848	62	4572
2026-01-19 09:14:30.05	218.62	13.19	-45.5	-47.5	14.1	6.03e-01	0	38	0	1585446912	62	4558
2026-01-19 09:14:31.05	218.82	13.29	-45.4	-47.4	14.2	5.95e-01	0	38	0	1602224128	62	4509
2026-01-19 09:14:32.06	219.02	13.38	-45.5	-47.4	14.2	5.95e-01	0	38	0	1616904192	62	4532
2026-01-19 09:14:33.07	219.23	13.48	-45.5	-47.5	14.1	5.97e-01	0	38	0	1631584256	62	4557
2026-01-19 09:14:34.08	219.43	13.58	-45.5	-47.4	14.2	6.02e-01	0	38	0	1648361472	62	4545
2026-01-19 09:14:35.09	219.64	13.67	-45.5	-47.4	14.2	5.98e-01	0	38	0	1663041536	62	4509
2026-01-19 09:14:36.09	219.84	13.77	-45.6	-47.5	14.1	5.99e-01	0	38	0	1677721600	62	4587
2026-01-19 09:14:37.10	220.05	13.86	-45.6	-47.5	14.1	6.05e-01	0	38	0	1694498816	62	4549
2026-01-19 09:14:38.11	220.26	13.96	-45.5	-47.5	14.1	6.03e-01	0	38	0	1709178880	62	4560
2026-01-19 09:14:39.12	220.48	14.06	-45.5	-47.4	14.2	5.94e-01	0	38	0	1723858944	62	4539
2026-01-19 09:14:40.13	220.69	14.16	-45.4	-47.3	14.3	5.96e-01	0	38	0	1740636160	62	4466
2026-01-19 09:14:41.13	220.91	14.25	-45.4	-47.3	14.3	6.05e-01	0	38	0	1757413376	62	4456
2026-01-19 09:14:42.14	221.12	14.35	-45.3	-47.2	14.3	6.04e-01	0	38	0	1772093440	62	4428
2026-01-19 09:14:43.14	221.34	14.45	-45.3	-47.2	14.4	5.99e-01	0	38	0	1786773504	62	4393
2026-01-19 09:14:44.15	221.56	14.55	-45.2	-47.1	14.5	5.93e-01	0	38	0	1803550720	62	4381
2026-01-19 09:14:45.16	221.79	14.64	-45.3	-47.2	14.4	5.95e-01	0	38	0	1818230784	62	4412
2026-01-19 09:14:46.17	222.01	14.74	-45.3	-47.3	14.3	5.90e-01	0	38	0	1832910848	62	4449
2026-01-19 09:14:47.18	222.24	14.84	-45.3	-47.3	14.3	5.89e-01	0	38	0	1849688064	62	4462
2026-01-19 09:14:48.19	222.47	14.94	-45.3	-47.3	14.3	5.95e-01	0	38	0	1864368128	62	4482
2026-01-19 09:14:49.19	222.69	15.04	-45.4	-47.4	14.2	6.03e-01	0	38	0	1879048192	62	4509
2026-01-19 09:14:50.20	222.93	15.14	-45.5	-47.6	14.1	6.05e-01	0	38	0	1895825408	62	4605
2026-01-19 09:14:51.21	223.16	15.24	-45.5	-47.6	14.0	6.06e-01	0	38	0	1910505472	62	4610
2026-01-19 09:14:52.22	223.39	15.34	-45.6	-47.7	14.0	5.98e-01	0	38	0	1925185536	62	4653
2026-01-19 09:14:53.23	223.63	15.44	-45.6	-47.8	13.9	5.88e-01	0	38	0	1941962752	62	4707
2026-01-19 09:14:54.23	223.87	15.54	-45.4	-47.5	14.1	5.92e-01	0	38	0	1958739968	62	4586
2026-01-19 09:14:55.24	224.11	15.64	-45.5	-47.5	14.1	5.99e-01	0	38	0	1973420032	62	4592
2026-01-19 09:14:56.25	224.35	15.74	-45.4	-47.5	14.2	5.97e-01	0	38	0	1988100096	62	4548
2026-01-19 09:14:57.26	224.60	15.84	-45.3	-47.3	14.3	5.95e-01	0	38	0	2004877312	62	4482
2026-01-19 09:14:58.26	224.84	15.93	-45.2	-47.2	14.5	5.86e-01	0	38	0	2019557376	62	4397
2026-01-19 09:14:59.27	225.09	16.03	-45.2	-47.2	14.4	6.00e-01	0	38	0	2034237440	62	4434
2026-01-19 09:15:00.28	225.34	16.14	-45.1	-47.1	14.5	5.95e-01	0	38	0	2051014656	62	4369
2026-01-19 09:15:01.29	225.59	16.24	-45.1	-47.2	14.5	6.00e-01	0	38	0	2065694720	62	4402
2026-01-19 09:15:02.30	225.84	16.34	-45.0	-47.1	14.5	5.94e-01	0	38	0	2080374784	62	4365
2026-01-19 09:15:03.30	226.10	16.44	-45.1	-47.1	14.6	5.92e-01	0	38	0	2097152000	62	4382
2026-01-19 09:15:04.31	226.36	16.54	-45.0	-47.1	14.6	5.97e-01	0	38	0	2111832064	62	4346
2026-01-19 09:15:05.32	226.62	16.64	-44.9	-47.0	14.6	6.01e-01	0	38	0	2126512128	61	4556
2026-01-19 09:15:06.33	226.88	16.74	-44.9	-47.0	14.6	5.95e-01	0	39	0	2141192192	61	4558
2026-01-19 09:15:07.34	227.14	16.84	-45.0	-47.1	14.5	5.92e-01	0	38	0	2160066560	61	4618
2026-01-19 09:15:08.35	227.41	16.94	-45.0	-47.1	14.5	6.03e-01	0	38	0	2174746624	61	4637
2026-01-19 09:15:09.35	227.67	17.04	-45.0	-47.2	14.4	6.02e-01	0	38	0	2189426688	61	4675
2026-01-19 09:15:10.36	227.94	17.14	-45.1	-47.2	14.4	6.02e-01	0	38	0	2206203904	61	4693
2026-01-19 09:15:11.37	228.22	17.24	-45.0	-47.1	14.5	6.03e-01	0	38	0	2220883968	61	4640
2026-01-19 09:15:12.38	228.49	17.34	-44.9	-47.0	14.5	6.06e-01	0	38	0	2235564032	61	4593
2026-01-19 09:15:13.39	228.77	17.44	-44.9	-47.0	14.6	6.02e-01	0	38	0	2250244096	61	4598
2026-01-19 09:15:14.39	229.04	17.54	-44.9	-47.1	14.5	6.04e-01	0	38	0	2267021312	61	4621
2026-01-19 09:15:15.40	229.32	17.64	-44.9	-47.1	14.5	6.05e-01	0	38	0	2281701376	61	4639
2026-01-19 09:15:16.41	229.61	17.74	-44.9	-47.1	14.5	6.03e-01	0	38	0	2296381440	61	4635
2026-01-19 09:15:17.41	229.89	17.84	-44.8	-47.1	14.5	6.05e-01	0	38	0	2313158656	61	4613
2026-01-19 09:15:18.42	230.18	17.94	-45.0	-47.2	14.4	6.05e-01	0	38	0	2327838720	61	4672
2026-01-19 09:15:19.43	230.47	18.04	-44.9	-47.1	14.5	6.04e-01	0	38	0	2344615936	61	4619
2026-01-19 09:15:20.44	230.76	18.14	-44.6	-46.9	14.7	6.03e-01	0	38	0	2361393152	61	4503
2026-01-19 09:15:21.44	231.05	18.24	-44.6	-46.8	14.8	6.06e-01	0	38	0	2376073216	61	4463
2026-01-19 09:15:22.45	231.34	18.34	-44.5	-46.7	14.8	6.00e-01	0	39	0	2390753280	60	4702
2026-01-19 09:15:23.46	231.64	18.44	-44.4	-46.7	14.8	6.06e-01	0	38	0	2405433344	60	4701
2026-01-19 09:15:24.47	231.94	18.54	-44.4	-46.7	14.8	6.00e-01	0	39	0	2422210560	60	4692
2026-01-19 09:15:25.48	232.24	18.64	-44.3	-46.6	14.9	6.00e-01	0	38	0	2436890624	60	4634
2026-01-19 09:15:26.49	232.55	18.74	-44.1	-46.4	15.1	6.05e-01	0	38	0	2451570688	60	4518
2026-01-19 09:15:27.49	232.85	18.84	-44.1	-46.3	15.2	6.06e-01	0	38	0	2468347904	60	4460
2026-01-19 09:15:28.50	233.16	18.94	-44.1	-46.3	15.2	6.05e-01	0	39	0	2483027968	60	4447
2026-01-19 09:15:29.51	233.47	19.03	-44.1	-46.2	15.2	6.02e-01	0	38	0	2497708032	60	4438
2026-01-19 09:15:30.52	233.79	19.13	-44.0	-46.2	15.3	6.01e-01	0	38	0	2514485248	60	4417
2026-01-19 09:15:31.52	234.10	19.23	-44.1	-46.3	15.2	6.00e-01	0	38	0	2529165312	60	4463
2026-01-19 09:15:32.53	234.42	19.33	-44.1	-46.3	15.2	5.98e-01	0	38	0	2545942528	60	4455
2026-01-19 09:15:33.54	234.74	19.42	-44.1	-46.4	15.2	5.97e-01	0	38	0	2560622592	60	4505
2026-01-19 09:15:34.54	235.06	19.52	-44.1	-46.4	15.1	6.03e-01	0	38	0	2577399808	60	4520
2026-01-19 09:15:35.55	235.39	19.62	-44.1	-46.4	15.1	6.07e-01	0	38	0	2592079872	60	4524
2026-01-19 09:15:36.56	235.71	19.71	-44.0	-46.3	15.2	5.98e-01	0	38	0	2606759936	60	4487
2026-01-19 09:15:37.57	236.04	19.81	-44.1	-46.4	15.0	6.06e-01	0	38	0	2623537152	59	4810
2026-01-19 09:15:38.58	236.38	19.90	-44.0	-46.4	15.1	5.92e-01	0	38	0	2638217216	59	4796
2026-01-19 09:15:39.59	236.71	20.00	-44.0	-46.4	15.1	5.91e-01	0	38	0	2652897280	59	4797
2026-01-19 09:15:40.59	237.04	20.09	-43.9	-46.3	15.2	5.91e-01	0	38	0	2669674496	59	4741
2026-01-19 09:15:41.60	237.38	20.19	-43.7	-46.2	15.3	5.97e-01	0	38	0	2684354560	59	4652
2026-01-19 09:15:42.61	237.72	20.28	-43.7	-46.1	15.4	5.98e-01	0	38	0	2699034624	59	4627
2026-01-19 09:15:43.62	238.07	20.38	-43.7	-46.2	15.4	5.95e-01	0	38	0	2715811840	59	4652
2026-01-19 09:15:44.63	238.41	20.47	-43.6	-45.9	15.6	5.95e-01	0	38	0	2730491904	59	4514
2026-01-19 09:15:45.63	238.76	20.56	-43.7	-46.0	15.5	6.00e-01	0	38	0	2747269120	59	4562
2026-01-19 09:15:46.64	239.11	20.65	-43.6	-45.8	15.6	6.05e-01	0	38	0	2761949184	59	4478
2026-01-19 09:15:47.65	239.46	20.74	-43.6	-45.9	15.6	6.05e-01	0	38	0	2778726400	59	4507
2026-01-19 09:15:48.66	239.82	20.83	-43.5	-45.8	15.6	6.04e-01	0	38	0	2793406464	59	4459
2026-01-19 09:15:49.66	240.17	20.92	-43.5	-45.8	15.6	6.03e-01	0	38	0	2808086528	59	4449
2026-01-19 09:15:50.67	240.53	21.01	-43.5	-45.8	15.7	6.04e-01	0	38	0	2824863744	58	4712
2026-01-19 09:15:51.68	240.90	21.10	-43.3	-45.6	15.7	6.01e-01	0	38	0	2839543808	58	4647
2026-01-19 09:15:52.69	241.26	21.19	-43.3	-45.6	15.7	6.06e-01	0	38	0	2854223872	58	4647
2026-01-19 09:15:53.70	241.63	21.28	-43.3	-45.7	15.7	5.95e-01	0	38	0	2871001088	58	4701
2026-01-19 09:15:54.71	242.00	21.36	-43.4	-45.9	15.5	6.04e-01	0	38	0	2885681152	58	4795
2026-01-19 09:15:55.71	242.37	21.45	-43.3	-45.8	15.6	6.01e-01	0	38	0	2900361216	58	4734
2026-01-19 09:15:56.72	242.74	21.54	-43.2	-45.5	15.8	6.05e-01	0	38	0	2917138432	58	4581
2026-01-19 09:15:57.73	243.12	21.62	-43.1	-45.3	16.1	5.95e-01	0	38	0	2933915648	58	4462
2026-01-19 09:15:58.74	243.50	21.70	-42.9	-45.1	16.2	6.00e-01	0	38	0	2948595712	57	4617
2026-01-19 09:15:59.75	243.88	21.79	-42.9	-45.1	16.1	6.03e-01	0	38	0	2963275776	57	4623
2026-01-19 09:16:00.75	244.26	21.87	-42.9	-45.1	16.2	6.04e-01	0	38	0	2980052992	57	4633
2026-01-19 09:16:01.76	244.64	21.95	-43.0	-45.3	16.0	6.03e-01	0	39	0	2994733056	57	4732
2026-01-19 09:16:02.77	245.03	22.03	-42.9	-45.3	16.0	6.06e-01	0	39	0	3009413120	57	4730
2026-01-19 09:16:03.78	245.42	22.11	-42.9	-45.4	15.9	6.03e-01	0	38	0	3026190336	57	4783
2026-01-19 09:16:04.78	245.81	22.19	-43.0	-45.5	15.8	6.03e-01	0	38	0	3040870400	57	4865
2026-01-19 09:16:05.79	246.20	22.27	-43.0	-45.5	15.8	6.05e-01	0	38	0	3055550464	57	4852
2026-01-19 09:16:06.80	246.60	22.34	-43.0	-45.5	15.8	6.00e-01	0	38	0	3072327680	57	4854
2026-01-19 09:16:07.81	247.00	22.42	-42.9	-45.4	15.8	6.05e-01	0	38	0	3087007744	57	4813
2026-01-19 09:16:08.82	247.40	22.49	-42.9	-45.4	15.9	5.97e-01	0	38	0	3101687808	57	4798
2026-01-19 09:16:09.83	247.80	22.57	-42.9	-45.4	15.9	5.98e-01	0	39	0	3118465024	57	4814
2026-01-19 09:16:10.83	248.20	22.64	-42.9	-45.4	16.0	6.04e-01	0	39	0	3135242240	57	4778
2026-01-19 09:16:11.84	248.61	22.71	-42.9	-45.3	16.1	5.75e-01	0	38	0	3149922304	57	4712
2026-01-19 09:16:12.85	249.02	22.78	-42.6	-44.9	16.4	5.75e-01	0	38	0	3164602368	57	4499
2026-01-19 09:16:13.86	249.43	22.85	-42.6	-45.0	16.4	5.75e-01	0	38	0	3181379584	57	4565
2026-01-19 09:16:14.86	249.84	22.92	-42.6	-45.1	16.3	5.77e-01	0	39	0	3196059648	57	4607
2026-01-19 09:16:15.87	250.26	22.98	-42.5	-45.1	16.3	5.75e-01	0	38	0	3210739712	57	4599
2026-01-19 09:16:16.88	250.67	23.05	-42.5	-44.9	16.4	5.75e-01	0	39	0	3227516928	57	4532
2026-01-19 09:16:17.89	251.09	23.11	-42.5	-44.9	16.4	5.75e-01	0	38	0	3242196992	56	4794
2026-01-19 09:16:18.90	251.51	23.18	-42.6	-45.2	16.2	5.75e-01	0	38	0	3256877056	56	4927
2026-01-19 09:16:19.91	251.94	23.24	-42.8	-45.4	16.0	5.74e-01	0	39	0	3273654272	56	5043
2026-01-19 09:16:20.91	252.36	23.30	-42.7	-45.3	16.1	5.76e-01	0	38	0	3288334336	56	5000
2026-01-19 09:16:21.92	252.78	23.36	-42.9	-45.3	16.0	5.75e-01	0	38	0	3303014400	56	5034
2026-01-19 09:16:22.93	253.21	23.42	-42.8	-45.4	16.0	5.74e-01	0	38	0	3319791616	56	5048
2026-01-19 09:16:23.94	253.64	23.47	-42.8	-45.3	16.0	5.73e-01	0	38	0	3336568832	56	5029
2026-01-19 09:16:24.95	254.07	23.53	-42.7	-45.4	16.0	5.75e-01	0	39	0	3351248896	56	5057
2026-01-19 09:16:25.96	254.51	23.58	-42.7	-45.4	15.9	5.75e-01	0	38	0	3365928960	56	5099
2026-01-19 09:16:26.96	254.94	23.64	-42.7	-45.4	16.0	5.74e-01	0	38	0	3382706176	56	5079
2026-01-19 09:16:27.97	255.37	23.69	-42.8	-45.4	15.9	5.74e-01	0	39	0	3397386240	56	5090
2026-01-19 09:16:28.98	255.81	23.74	-42.8	-45.3	16.1	5.74e-01	0	39	0	3412066304	56	5033
2026-01-19 09:16:29.99	256.25	23.79	-42.6	-45.0	16.3	5.74e-01	0	39	0	3428843520	56	4869
2026-01-19 09:16:31.00	256.69	23.83	-42.5	-44.8	16.5	5.74e-01	0	38	0	3443523584	56	4745
2026-01-19 09:16:32.00	257.13	23.88	-42.6	-45.0	16.3	5.74e-01	0	39	0	3458203648	56	4833
2026-01-19 09:16:33.01	257.57	23.92	-42.5	-44.9	16.4	5.74e-01	0	39	0	3474980864	56	4773
2026-01-19 09:16:34.02	258.02	23.96	-42.4	-44.8	16.5	5.74e-01	0	38	0	3489660928	56	4738
2026-01-19 09:16:35.03	258.46	24.00	-42.3	-44.8	16.5	5.74e-01	0	38	0	3506438144	56	4732
2026-01-19 09:16:36.04	258.91	24.04	-42.3	-44.7	16.5	5.93e-01	0	39	0	3521118208	56	4702
2026-01-19 09:16:37.04	259.36	24.08	-42.3	-44.7	16.5	5.99e-01	0	38	0	3537895424	56	4692
2026-01-19 09:16:38.05	259.81	24.12	-42.3	-44.7	16.5	5.97e-01	0	38	0	3552575488	56	4687
2026-01-19 09:16:39.06	260.26	24.15	-42.4	-44.8	16.5	5.97e-01	0	38	0	3567255552	56	4735
2026-01-19 09:16:40.07	260.71	24.18	-42.5	-44.9	16.3	5.98e-01	0	38	0	3584032768	56	4814
2026-01-19 09:16:41.08	261.16	24.21	-42.5	-44.9	16.4	5.98e-01	0	39	0	3598712832	56	4799
2026-01-19 09:16:42.08	261.61	24.24	-42.4	-44.9	16.3	5.98e-01	0	38	0	3613392896	56	4811
2026-01-19 09:16:43.09	262.07	24.27	-42.5	-45.0	16.2	5.98e-01	0	38	0	3628072960	56	4870
2026-01-19 09:16:44.10	262.52	24.30	-42.5	-45.1	16.3	5.98e-01	0	39	0	3644850176	56	4878
2026-01-19 09:16:45.11	262.98	24.32	-42.5	-45.0	16.3	5.96e-01	0	39	0	3659530240	56	4866
2026-01-19 09:16:46.12	263.44	24.34	-42.6	-45.2	16.1	5.97e-01	0	39	0	3674210304	56	4950
2026-01-19 09:16:47.13	263.90	24.36	-42.6	-45.1	16.2	5.98e-01	0	38	0	3690987520	56	4900
2026-01-19 09:16:48.13	264.35	24.38	-42.6	-45.1	16.3	5.96e-01	0	39	0	3707764736	56	4871
2026-01-19 09:16:49.14	264.81	24.40	-42.7	-45.1	16.2	5.97e-01	0	38	0	3722444800	56	4902
2026-01-19 09:16:50.15	265.27	24.42	-42.6	-45.1	16.3	5.96e-01	0	39	0	3737124864	56	4879
2026-01-19 09:16:51.15	265.72	24.43	-42.5	-44.9	16.4	5.96e-01	0	38	0	3753902080	56	4771
2026-01-19 09:16:52.16	266.18	24.44	-42.5	-44.9	16.4	5.99e-01	0	39	0	3768582144	56	4776
2026-01-19 09:16:53.17	266.65	24.45	-42.4	-44.7	16.6	5.98e-01	0	38	0	3783262208	56	4695
2026-01-19 09:16:54.18	267.11	24.46	-42.5	-44.9	16.4	6.00e-01	0	39	0	3800039424	56	4765
2026-01-19 09:16:55.18	267.56	24.47	-42.5	-44.8	16.4	5.97e-01	0	39	0	3814719488	56	4751
2026-01-19 09:16:56.19	268.03	24.47	-42.5	-44.9	16.4	5.99e-01	0	38	0	3829399552	56	4768
2026-01-19 09:16:57.20	268.49	24.48	-42.6	-45.0	16.3	5.98e-01	0	39	0	3846176768	56	4861
2026-01-19 09:16:58.21	268.95	24.48	-42.5	-45.1	16.2	5.98e-01	0	38	0	3860856832	56	4899
2026-01-19 09:16:59.22	269.41	24.48	-42.5	-45.1	16.3	5.97e-01	0	38	0	3875536896	56	4890
2026-01-19 09:17:00.22	269.87	24.48	-42.5	-45.0	16.3	5.96e-01	0	38	0	3892314112	56	4854
2026-01-19 09:17:01.23	270.33	24.47	-42.7	-45.1	16.3	5.99e-01	0	38	0	3909091328	56	4892
2026-01-19 09:17:02.24	270.79	24.47	-42.7	-45.0	16.3	5.99e-01	0	38	0	3923771392	56	4862
2026-01-19 09:17:03.25	271.25	24.46	-42.5	-44.9	16.4	5.99e-01	0	39	0	3938451456	56	4780
2026-01-19 09:17:04.26	271.71	24.45	-42.6	-44.9	16.4	6.00e-01	0	39	0	3955228672	56	4813
2026-01-19 09:17:05.26	272.17	24.44	-42.5	-45.0	16.4	6.00e-01	0	38	0	3969908736	56	4819
2026-01-19 09:17:06.27	272.63	24.43	-42.5	-45.0	16.3	5.99e-01	0	38	0	3984588800	56	4867
2026-01-19 09:17:07.27	273.08	24.41	-42.4	-44.9	16.4	5.99e-01	0	39	0	4001366016	56	4798
2026-01-19 09:17:08.28	273.54	24.40	-42.4	-44.9	16.4	5.97e-01	0	39	0	4016046080	56	4782
2026-01-19 09:17:09.29	274.00	24.38	-42.5	-44.9	16.4	6.00e-01	0	38	0	4030726144	56	4790
2026-01-19 09:17:10.30	274.46	24.36	-42.3	-44.6	16.6	6.00e-01	0	38	0	4047503360	56	4640
2026-01-19 09:17:11.31	274.92	24.34	-42.3	-44.6	16.6	6.00e-01	0	38	0	4062183424	56	4629
2026-01-19 09:17:12.31	275.37	24.32	-42.4	-44.7	16.5	5.97e-01	0	39	0	4076863488	56	4698
2026-01-19 09:17:13.32	275.83	24.29	-42.4	-44.8	16.5	5.98e-01	0	38	0	4093640704	56	4725
2026-01-19 09:17:14.33	276.28	24.27	-42.4	-44.9	16.4	5.99e-01	0	39	0	4110417920	56	4810
2026-01-19 09:17:15.34	276.74	24.24	-42.4	-44.9	16.4	5.99e-01	0	39	0	4125097984	56	4772
2026-01-19 09:17:16.35	277.19	24.21	-42.5	-44.9	16.4	6.01e-01	0	38	0	4139778048	56	4809
2026-01-19 09:17:17.36	277.64	24.18	-42.4	-44.6	16.6	6.03e-01	0	39	0	4156555264	56	4644
2026-01-19 09:17:18.36	278.09	24.15	-42.4	-44.5	16.7	6.02e-01	0	39	0	4171235328	56	4597
2026-01-19 09:17:19.37	278.54	24.11	-42.5	-44.7	16.6	5.98e-01	0	38	0	4185915392	56	4659
2026-01-19 09:17:20.38	278.99	24.08	-42.5	-44.7	16.6	5.99e-01	0	39	0	4202692608	56	4702
2026-01-19 09:17:21.39	279.44	24.04	-42.5	-44.7	16.6	5.99e-01	0	39	0	4217372672	56	4690
2026-01-19 09:17:22.40	279.88	24.00	-42.4	-44.7	16.6	5.97e-01	0	39	0	4232052736	56	4690
2026-01-19 09:17:23.41	280.33	23.96	-42.4	-44.8	16.6	5.99e-01	0	39	0	4248829952	56	4726
2026-01-19 09:17:24.42	280.77	23.92	-42.4	-44.8	16.5	6.01e-01	0	39	0	4263510016	56	4739
2026-01-19 09:17:25.42	281.21	23.87	-42.4	-44.7	16.6	5.98e-01	0	39	0	4278190080	56	4691
2026-01-19 09:17:26.43	281.65	23.83	-42.4	-44.7	16.6	5.98e-01	0	39	0	4294967296	56	4652
2026-01-19 09:17:27.44	282.09	23.78	-42.4	-44.7	16.7	6.00e-01	0	39	0	4311744512	56	4658
2026-01-19 09:17:28.45	282.53	23.73	-42.6	-45.0	16.4	6.01e-01	0	39	0	4326424576	56	4819
2026-01-19 09:17:29.45	282.96	23.68	-42.5	-45.0	16.4	6.01e-01	0	38	0	4341104640	56	4819
2026-01-19 09:17:30.46	283.40	23.63	-42.6	-45.1	16.4	5.98e-01	0	38	0	4357881856	56	4888
2026-01-19 09:17:31.47	283.83	23.58	-42.7	-45.1	16.3	5.97e-01	0	39	0	4372561920	56	4896
2026-01-19 09:17:32.48	284.26	23.52	-42.6	-45.0	16.4	5.97e-01	0	39	0	4387241984	56	4837
2026-01-19 09:17:33.48	284.69	23.47	-42.7	-45.0	16.4	5.98e-01	0	39	0	4404019200	56	4868
2026-01-19 09:17:34.49	285.12	23.41	-42.5	-44.8	16.5	5.98e-01	0	39	0	4418699264	56	4721
2026-01-19 09:17:35.50	285.55	23.35	-42.4	-44.7	16.6	6.00e-01	0	39	0	4433379328	56	4701
2026-01-19 09:17:36.51	285.97	23.29	-42.5	-44.8	16.6	5.98e-01	0	38	0	4450156544	56	4723
2026-01-19 09:17:37.52	286.39	23.23	-42.6	-44.9	16.5	6.01e-01	0	39	0	4464836608	56	4773
2026-01-19 09:17:38.52	286.81	23.17	-42.6	-44.9	16.5	6.02e-01	0	38	0	4479516672	56	4788
2026-01-19 09:17:39.53	287.23	23.11	-42.5	-44.9	16.5	5.97e-01	0	38	0	4496293888	56	4806
2026-01-19 09:17:40.54	287.65	23.04	-42.6	-45.0	16.4	5.99e-01	0	39	0	4513071104	56	4844
2026-01-19 09:17:41.55	288.07	22.98	-42.7	-45.1	16.4	5.98e-01	0	39	0	4527751168	56	4879
2026-01-19 09:17:42.55	288.47	22.91	-42.8	-45.1	16.3	6.01e-01	0	39	0	4542431232	56	4925
2026-01-19 09:17:43.56	288.89	22.84	-42.8	-45.2	16.3	6.01e-01	0	39	0	4559208448	56	4949
2026-01-19 09:17:44.57	289.30	22.78	-42.9	-45.2	16.2	5.99e-01	0	38	0	4573888512	56	4975
2026-01-19 09:17:45.58	289.70	22.70	-42.9	-45.2	16.3	5.98e-01	0	39	0	4588568576	56	4961
2026-01-19 09:17:46.58	290.11	22.63	-42.9	-45.2	16.3	6.00e-01	0	39	0	4605345792	56	4931
2026-01-19 09:17:47.59	290.51	22.56	-42.9	-45.2	16.3	6.01e-01	0	38	0	4620025856	56	4966
2026-01-19 09:17:48.60	290.91	22.49	-42.8	-45.1	16.3	6.00e-01	0	39	0	4634705920	56	4921
2026-01-19 09:17:49.61	291.31	22.41	-42.9	-45.2	16.3	6.01e-01	0	39	0	4651483136	56	4955
2026-01-19 09:17:50.62	291.71	22.34	-42.9	-45.2	16.3	6.00e-01	0	39	0	4666163200	56	4976
2026-01-19 09:17:51.62	292.10	22.26	-42.9	-45.2	16.3	6.01e-01	0	39	0	4680843264	56	4970
2026-01-19 09:17:52.63	292.49	22.18	-42.9	-45.2	16.3	6.00e-01	0	39	0	4697620480	56	4975
2026-01-19 09:17:53.64	292.88	22.11	-43.1	-45.4	16.1	5.99e-01	0	38	0	4714397696	56	5067
2026-01-19 09:17:54.64	293.27	22.03	-43.2	-45.5	16.1	6.01e-01	0	39	0	4729077760	56	5120
2026-01-19 09:17:55.65	293.65	21.95	-43.2	-45.5	16.1	6.01e-01	0	39	0	4743757824	56	5112
2026-01-19 09:17:56.66	294.04	21.87	-43.0	-45.3	16.2	6.00e-01	0	39	0	4760535040	56	5003
2026-01-19 09:17:57.67	294.42	21.78	-43.0	-45.3	16.2	6.01e-01	0	39	0	4775215104	56	4985
2026-01-19 09:17:58.68	294.80	21.70	-42.8	-45.0	16.4	6.02e-01	0	38	0	4789895168	56	4851
2026-01-19 09:17:59.69	295.18	21.62	-43.0	-45.2	16.3	5.95e-01	0	38	0	4806672384	56	4962
2026-01-19 09:18:00.69	295.55	21.53	-43.1	-45.4	16.2	6.01e-01	0	39	0	4821352448	56	5049
2026-01-19 09:18:01.71	295.92	21.45	-43.2	-45.5	16.1	6.00e-01	0	39	0	4836032512	56	5118
2026-01-19 09:18:02.71	296.29	21.36	-43.3	-45.5	16.1	6.01e-01	0	38	0	4850712576	57	4862
2026-01-19 09:18:03.72	296.66	21.28	-43.5	-45.7	15.9	6.01e-01	0	39	0	4867489792	57	4956
2026-01-19 09:18:04.73	297.02	21.19	-43.6	-45.8	15.8	5.96e-01	0	39	0	4884267008	57	5006
2026-01-19 09:18:05.74	297.39	21.10	-43.6	-45.8	15.9	5.98e-01	0	38	0	4898947072	57	5011
2026-01-19 09:18:06.74	297.74	21.01	-43.6	-45.8	15.8	5.99e-01	0	39	0	4915724288	57	5022
2026-01-19 09:18:07.75	298.10	20.93	-43.6	-45.9	15.8	6.00e-01	0	39	0	4930404352	57	5044
2026-01-19 09:18:08.76	298.46	20.84	-43.5	-45.8	15.9	5.98e-01	0	39	0	4945084416	57	4991
2026-01-19 09:18:09.77	298.81	20.75	-43.5	-45.7	15.9	6.01e-01	0	39	0	4959764480	57	4966
2026-01-19 09:18:10.78	299.16	20.65	-43.5	-45.7	15.9	5.99e-01	0	38	0	4976541696	57	4978
2026-01-19 09:18:11.78	299.51	20.56	-43.5	-45.7	15.9	5.99e-01	0	39	0	4991221760	57	4959
2026-01-19 09:18:12.79	299.86	20.47	-43.6	-45.8	15.8	6.01e-01	0	39	0	5005901824	57	5001
2026-01-19 09:18:13.80	300.20	20.38	-43.8	-46.0	15.7	6.01e-01	0	39	0	5022679040	58	4861
2026-01-19 09:18:14.81	300.54	20.29	-43.8	-46.0	15.7	6.01e-01	0	39	0	5037359104	58	4853
2026-01-19 09:18:15.81	300.88	20.19	-43.9	-46.0	15.7	5.99e-01	0	39	0	5052039168	58	4867
2026-01-19 09:18:16.82	301.22	20.10	-43.9	-46.0	15.7	6.01e-01	0	39	0	5068816384	58	4850
2026-01-19 09:18:17.83	301.55	20.01	-44.0	-46.1	15.6	5.98e-01	0	39	0	5085593600	58	4894
2026-01-19 09:18:18.84	301.89	19.91	-43.8	-45.9	15.7	5.99e-01	0	39	0	5100273664	58	4806
2026-01-19 09:18:19.85	302.22	19.82	-43.9	-46.0	15.7	5.98e-01	0	39	0	5114953728	58	4856
2026-01-19 09:18:20.86	302.55	19.72	-43.8	-46.0	15.7	5.99e-01	0	39	0	5131730944	58	4828
2026-01-19 09:18:21.86	302.87	19.63	-43.9	-46.1	15.6	5.98e-01	0	38	0	5146411008	58	4906
2026-01-19 09:18:22.87	303.19	19.53	-43.9	-46.1	15.6	5.98e-01	0	39	0	5161091072	58	4899
2026-01-19 09:18:23.88	303.51	19.43	-44.1	-46.3	15.5	5.98e-01	0	38	0	5177868288	58	5022
2026-01-19 09:18:24.89	303.83	19.34	-44.3	-46.4	15.3	5.98e-01	0	39	0	5192548352	59	4814
2026-01-19 09:18:25.90	304.15	19.24	-44.3	-46.5	15.3	6.00e-01	0	39	0	5207228416	59	4815
2026-01-19 09:18:26.90	304.46	19.14	-44.3	-46.5	15.3	6.00e-01	0	39	0	5224005632	59	4822
2026-01-19 09:18:27.91	304.77	19.05	-44.5	-46.6	15.2	6.00e-01	0	38	0	5238685696	59	4909
2026-01-19 09:18:28.92	305.08	18.95	-44.5	-46.7	15.1	6.00e-01	0	38	0	5253365760	59	4962
2026-01-19 09:18:29.93	305.39	18.85	-44.7	-46.8	15.0	6.00e-01	0	39	0	5270142976	59	5039
2026-01-19 09:18:30.94	305.70	18.75	-44.7	-46.8	15.0	6.01e-01	0	39	0	5286920192	59	5025
2026-01-19 09:18:31.94	306.00	18.65	-44.7	-46.8	15.0	5.99e-01	0	39	0	5301600256	59	5004
2026-01-19 09:18:32.95	306.30	18.55	-44.7	-46.8	15.1	5.97e-01	0	39	0	5316280320	60	4710
2026-01-19 09:18:33.96	306.60	18.46	-44.7	-46.8	15.1	5.97e-01	0	39	0	5333057536	60	4752
2026-01-19 09:18:34.97	306.89	18.36	-44.7	-46.8	15.1	5.97e-01	0	39	0	5347737600	60	4752
2026-01-19 09:18:35.98	307.19	18.26	-44.9	-47.0	14.9	5.96e-01	0	39	0	5362417664	60	4864
2026-01-19 09:18:36.98	307.48	18.16	-44.8	-47.0	14.9	5.97e-01	0	39	0	5379194880	60	4863
2026-01-19 09:18:37.99	307.77	18.06	-44.9	-47.1	14.8	5.99e-01	0	38	0	5393874944	60	4903
2026-01-19 09:18:39.00	308.05	17.96	-44.9	-47.1	14.8	6.00e-01	0	39	0	5408555008	60	4890
2026-01-19 09:18:40.01	308.34	17.86	-45.0	-47.2	14.7	6.01e-01	0	39	0	5425332224	60	4957
2026-01-19 09:18:41.02	308.62	17.76	-44.8	-47.0	14.8	6.01e-01	0	39	0	5440012288	60	4855
2026-01-19 09:18:42.02	308.90	17.66	-44.9	-47.1	14.8	5.99e-01	0	39	0	5454692352	60	4909
2026-01-19 09:18:43.03	309.18	17.56	-44.8	-47.0	14.8	6.02e-01	0	39	0	5471469568	60	4855
2026-01-19 09:18:44.04	309.46	17.46	-44.9	-47.1	14.8	6.01e-01	0	39	0	5488246784	60	4877
2026-01-19 09:18:45.05	309.73	17.36	-44.9	-47.2	14.7	5.99e-01	0	39	0	5502926848	60	4931
2026-01-19 09:18:46.05	310.00	17.26	-45.0	-47.3	14.6	6.03e-01	0	39	0	5517606912	60	4989
2026-01-19 09:18:47.06	310.27	17.16	-45.0	-47.3	14.6	6.01e-01	0	39	0	5534384128	60	5000
2026-01-19 09:18:48.07	310.54	17.06	-45.3	-47.5	14.4	5.99e-01	0	39	0	5549064192	61	4870
2026-01-19 09:18:49.08	310.81	16.96	-45.3	-47.6	14.3	5.99e-01	0	39	0	5563744256	61	4889
2026-01-19 09:18:50.08	311.07	16.86	-45.6	-47.9	14.1	6.00e-01	0	39	0	5580521472	61	5058
2026-01-19 09:18:51.09	311.34	16.76	-45.6	-47.9	14.1	5.98e-01	0	39	0	5595201536	62	4783
2026-01-19 09:18:52.10	311.60	16.66	-45.6	-47.9	14.1	6.00e-01	0	39	0	5609881600	62	4771
2026-01-19 09:18:53.10	311.85	16.56	-45.8	-48.0	13.9	5.99e-01	0	39	0	5626658816	62	4868
2026-01-19 09:18:54.11	312.11	16.46	-45.7	-47.9	14.0	6.03e-01	0	39	0	5641338880	62	4814
2026-01-19 09:18:55.12	312.36	16.36	-45.7	-47.9	14.0	6.02e-01	0	39	0	5656018944	62	4803
2026-01-19 09:18:56.12	312.61	16.27	-45.5	-47.7	14.2	6.01e-01	0	38	0	5672796160	62	4655
2026-01-19 09:18:57.13	312.87	16.17	-45.4	-47.6	14.3	6.01e-01	0	39	0	5689573376	62	4627
2026-01-19 09:18:58.13	313.11	16.07	-45.5	-47.7	14.2	6.04e-01	0	39	0	5704253440	62	4682
2026-01-19 09:18:59.15	313.36	15.97	-45.6	-47.8	14.1	6.04e-01	0	39	0	5718933504	62	4733
2026-01-19 09:19:00.15	313.60	15.87	-45.4	-47.6	14.3	6.07e-01	0	39	0	5735710720	62	4634
2026-01-19 09:19:01.16	313.85	15.77	-45.4	-47.7	14.2	6.04e-01	0	39	0	5750390784	62	4656
2026-01-19 09:19:02.17	314.09	15.67	-45.3	-47.6	14.4	5.75e-01	0	38	0	5765070848	62	4605
2026-01-19 09:19:03.17	314.33	15.57	-45.4	-47.6	14.3	5.75e-01	0	39	0	5781848064	62	4645
2026-01-19 09:19:04.18	314.56	15.47	-45.5	-47.7	14.3	5.76e-01	0	39	0	5796528128	62	4684
2026-01-19 09:19:05.18	314.80	15.37	-45.4	-47.5	14.4	5.75e-01	0	39	0	5811208192	62	4570
2026-01-19 09:19:06.19	315.03	15.28	-45.4	-47.5	14.4	5.76e-01	0	39	0	5827985408	62	4558
2026-01-19 09:19:07.20	315.27	15.18	-45.6	-47.7	14.3	5.75e-01	0	39	0	5842665472	62	4674
2026-01-19 09:19:08.21	315.50	15.08	-45.5	-47.6	14.4	5.75e-01	0	39	0	5857345536	62	4602
2026-01-19 09:19:09.21	315.72	14.98	-45.5	-47.5	14.3	5.75e-01	0	39	0	5874122752	62	4588
2026-01-19 09:19:10.22	315.95	14.88	-45.4	-47.5	14.4	5.76e-01	0	38	0	5888802816	62	4555
2026-01-19 09:19:11.23	316.18	14.79	-45.5	-47.6	14.3	5.75e-01	0	39	0	5903482880	62	4606
2026-01-19 09:19:12.23	316.40	14.69	-45.6	-47.7	14.2	5.75e-01	0	39	0	5920260096	62	4691
2026-01-19 09:19:13.24	316.62	14.59	-46.5	-47.6	14.3	5.75e-01	0	39	0	5937037312	63	4348
2026-01-19 09:19:14.24	316.84	14.49	-54.4	-63.4	3.8	7.45e-01	0	39	104	5945425920	79	10672
2026-01-19 09:19:15.25	317.06	14.40	-54.4	-63.3	3.8	7.47e-01	0	39	104	5945425920	79	10631
2026-01-19 09:19:16.26	317.27	14.30	-54.4	-63.3	3.8	7.46e-01	0	39	104	5945425920	79	10598
2026-01-19 09:19:17.26	317.49	14.20	-54.4	-63.3	3.8	7.46e-01	0	38	104	5945425920	79	10563
2026-01-19 09:19:18.27	317.70	14.11	-54.4	-63.2	3.8	7.46e-01	0	39	104	5945425920	79	10506
2026-01-19 09:19:19.28	317.91	14.01	-54.4	-63.2	3.8	7.45e-01	0	39	104	5945425920	79	10519
2026-01-19 09:19:20.29	318.12	13.91	-54.4	-63.2	3.8	7.45e-01	0	38	104	5945425920	79	10499
2026-01-19 09:19:21.30	318.33	13.82	-54.4	-63.2	3.8	7.44e-01	0	39	104	5945425920	79	10464
2026-01-19 09:19:22.31	318.54	13.72	-54.4	-63.3	3.8	7.45e-01	0	38	104	5945425920	79	10542
2026-01-19 09:19:23.32	318.74	13.63	-54.3	-63.2	3.8	7.45e-01	0	39	104	5945425920	79	10458
2026-01-19 09:19:24.32	318.95	13.53	-54.3	-63.2	3.8	7.45e-01	0	39	104	5945425920	79	10450
2026-01-19 09:19:25.33	319.15	13.44	-54.3	-63.2	3.8	7.45e-01	0	39	104	5945425920	79	10427
2026-01-19 09:19:26.34	319.35	13.34	-54.3	-63.2	3.8	7.46e-01	0	39	104	5945425920	79	10455
2026-01-19 09:19:27.35	319.55	13.24	-54.3	-63.1	3.8	7.47e-01	0	38	104	5945425920	79	10387
2026-01-19 09:19:28.35	319.75	13.15	-54.3	-63.1	3.8	7.46e-01	0	38	104	5945425920	79	10390
2026-01-19 09:19:29.36	319.94	13.06	-54.3	-63.1	3.8	7.45e-01	0	39	104	5945425920	79	10383
2026-01-19 09:19:30.37	320.14	12.96	-54.3	-63.1	3.8	7.45e-01	0	39	104	5945425920	79	10388
2026-01-19 09:19:31.38	320.33	12.87	-54.3	-63.1	3.8	7.46e-01	0	38	104	5945425920	79	10383
2026-01-19 09:19:32.38	320.52	12.77	-54.2	-63.1	3.8	7.46e-01	0	39	104	5945425920	79	10366
2026-01-19 09:19:33.39	320.71	12.68	-54.3	-63.1	3.8	7.44e-01	0	38	104	5945425920	79	10337
2026-01-19 09:19:34.40	320.90	12.59	-54.3	-63.1	3.8	7.45e-01	0	39	104	5945425920	79	10365
2026-01-19 09:19:35.41	321.09	12.49	-54.2	-63.1	3.8	7.46e-01	0	39	104	5945425920	79	10339
2026-01-19 09:19:36.41	321.27	12.40	-54.2	-63.1	3.8	7.46e-01	0	38	104	5945425920	79	10302
2026-01-19 09:19:37.42	321.46	12.31	-54.2	-63.0	3.8	7.46e-01	0	39	104	5945425920	79	10276
2026-01-19 09:19:38.43	321.64	12.22	-54.2	-63.1	3.8	7.46e-01	0	38	104	5945425920	79	10295
2026-01-19 09:19:39.43	321.82	12.13	-54.2	-63.1	3.8	7.46e-01	0	38	104	5945425920	79	10302
2026-01-19 09:19:40.44	322.01	12.03	-54.2	-63.0	3.8	7.45e-01	0	39	104	5945425920	79	10236
2026-01-19 09:19:41.44	322.18	11.94	-54.2	-63.0	3.8	7.46e-01	0	39	104	5945425920	79	10285
2026-01-19 09:19:42.45	322.36	11.85	-54.2	-63.0	3.8	7.45e-01	0	38	104	5945425920	79	10292
2026-01-19 09:19:43.45	322.54	11.76	-54.2	-63.0	3.8	7.45e-01	0	38	104	5945425920	79	10230
2026-01-19 09:19:44.46	322.71	11.67	-54.1	-63.0	3.8	7.46e-01	0	39	104	5945425920	79	10196
2026-01-19 09:19:45.47	322.89	11.58	-54.2	-63.0	3.8	7.45e-01	0	39	104	5945425920	79	10220
2026-01-19 09:19:46.48	323.06	11.49	-54.2	-63.0	3.8	7.47e-01	0	38	104	5945425920	79	10236
2026-01-19 09:19:47.49	323.23	11.40	-54.1	-63.0	3.8	7.44e-01	0	38	104	5945425920	79	10212
2026-01-19 09:19:48.49	323.40	11.31	-54.1	-63.0	3.8	7.44e-01	0	38	104	5945425920	79	10178
2026-01-19 09:19:49.50	323.57	11.22	-54.1	-62.9	3.8	7.45e-01	0	38	104	5945425920	79	10145
2026-01-19 09:19:50.51	323.74	11.13	-54.1	-63.0	3.8	7.46e-01	0	39	104	5945425920	79	10192
2026-01-19 09:19:51.51	323.91	11.04	-54.1	-62.9	3.8	7.47e-01	0	38	104	5945425920	79	10131
2026-01-19 09:19:52.52	324.07	10.95	-54.1	-62.9	3.8	7.47e-01	0	38	104	5945425920	79	10171
2026-01-19 09:19:53.53	324.24	10.86	-54.1	-62.9	3.8	7.45e-01	0	38	104	5945425920	79	10140
2026-01-19 09:19:54.54	324.40	10.77	-54.1	-62.9	3.8	7.45e-01	0	38	104	5945425920	79	10114
2026-01-19 09:19:55.54	324.56	10.69	-54.1	-62.9	3.8	7.46e-01	0	38	104	5945425920	79	10126
2026-01-19 09:19:56.55	324.72	10.60	-54.0	-62.9	3.8	7.46e-01	0	38	104	5945425920	79	10078
2026-01-19 09:19:57.56	324.88	10.51	-54.1	-62.9	3.8	7.44e-01	0	39	104	5945425920	79	10126
2026-01-19 09:19:58.57	325.04	10.42	-54.0	-62.9	3.8	7.44e-01	0	39	104	5945425920	79	10108
2026-01-19 09:19:59.58	325.20	10.34	-54.0	-62.9	3.8	7.45e-01	0	38	104	5945425920	79	10126
2026-01-19 09:20:00.59	325.36	10.25	-54.0	-62.8	3.8	7.45e-01	0	39	104	5945425920	79	10057
2026-01-19 09:20:01.59	325.51	10.16	-54.0	-62.9	3.8	7.45e-01	0	39	104	5945425920	79	10089
2026-01-19 09:20:02.60	325.66	10.08	-54.0	-62.8	3.8	7.45e-01	0	39	104	5945425920	79	10050
2026-01-19 09:20:03.61	325.82	9.99	-54.0	-62.8	3.8	7.44e-01	0	38	104	5945425920	79	10049
2026-01-19 09:20:04.62	325.97	9.90	-54.0	-62.8	3.8	7.45e-01	0	38	104	5945425920	79	9995
2026-01-19 09:20:05.62	326.12	9.82	-54.0	-62.8	3.8	7.46e-01	0	39	104	5945425920	79	10050
2026-01-19 09:20:06.63	326.27	9.73	-54.0	-62.8	3.8	7.45e-01	0	39	104	5945425920	79	9974
2026-01-19 09:20:07.64	326.42	9.65	-53.9	-62.8	3.8	7.46e-01	0	39	104	5945425920	79	10009
2026-01-19 09:20:08.64	326.57	9.56	-53.9	-62.7	3.8	7.47e-01	0	38	104	5945425920	79	9894
2026-01-19 09:20:09.65	326.71	9.48	-54.0	-62.8	3.8	7.44e-01	0	39	104	5945425920	79	9967
2026-01-19 09:20:10.66	326.86	9.40	-53.9	-62.8	3.8	7.45e-01	0	38	104	5945425920	79	9975
2026-01-19 09:20:11.66	327.00	9.31	-53.9	-62.7	3.8	7.42e-01	0	38	104	5945425920	79	9936
2026-01-19 09:20:12.67	327.15	9.23	-53.9	-62.7	3.8	7.45e-01	0	39	104	5945425920	79	9927
2026-01-19 09:20:13.68	327.29	9.14	-53.9	-62.8	3.8	7.45e-01	0	38	104	5945425920	79	9984
2026-01-19 09:20:14.69	327.43	9.06	-53.9	-62.7	3.8	7.45e-01	0	38	104	5945425920	79	9880
2026-01-19 09:20:15.70	327.57	8.98	-53.9	-62.7	3.8	7.46e-01	0	39	104	5945425920	79	9921
2026-01-19 09:20:16.70	327.71	8.89	-53.8	-62.7	3.8	7.46e-01	0	38	104	5945425920	79	9839
2026-01-19 09:20:17.71	327.85	8.81	-53.9	-62.7	3.8	7.46e-01	0	38	104	5945425920	79	9936
2026-01-19 09:20:18.72	327.99	8.73	-53.9	-62.7	3.8	7.46e-01	0	38	104	5945425920	79	9884
2026-01-19 09:20:19.73	328.13	8.65	-53.9	-62.7	3.8	7.45e-01	0	39	104	5945425920	79	9860
2026-01-19 09:20:20.74	328.26	8.56	-53.8	-62.7	3.8	7.44e-01	0	39	104	5945425920	79	9840
2026-01-19 09:20:21.75	328.40	8.48	-53.9	-62.7	3.8	7.44e-01	0	39	104	5945425920	79	9915
2026-01-19 09:20:22.75	328.53	8.40	-53.8	-62.6	3.8	7.46e-01	0	39	104	5945425920	79	9812
2026-01-19 09:20:23.76	328.67	8.32	-53.8	-62.7	3.8	7.44e-01	0	39	104	5945425920	79	9863
2026-01-19 09:20:24.77	328.80	8.24	-53.8	-62.6	3.8	7.47e-01	0	38	104	5945425920	79	9720
2026-01-19 09:20:25.77	328.93	8.16	-53.8	-62.7	3.8	7.46e-01	0	39	104	5945425920	79	9844
2026-01-19 09:20:26.78	329.06	8.08	-53.8	-62.6	3.8	7.46e-01	0	39	104	5945425920	79	9781
2026-01-19 09:20:27.79	329.19	8.00	-53.8	-62.6	3.8	7.47e-01	0	39	104	5945425920	79	9782
2026-01-19 09:20:28.80	329.32	7.92	-53.7	-62.6	3.8	7.45e-01	0	39	104	5945425920	79	9737
2026-01-19 09:20:29.80	329.45	7.84	-53.8	-62.7	3.8	7.46e-01	0	39	104	5945425920	79	9837
2026-01-19 09:20:30.81	329.58	7.76	-53.7	-62.6	3.8	7.44e-01	0	39	104	5945425920	79	9729
2026-01-19 09:20:31.82	329.70	7.68	-53.7	-62.6	3.8	7.45e-01	0	39	104	5945425920	79	9725
2026-01-19 09:20:32.83	329.83	7.60	-53.7	-62.5	3.8	7.44e-01	0	38	104	5945425920	79	9655
2026-01-19 09:20:33.84	329.95	7.52	-53.8	-62.6	3.8	7.45e-01	0	39	104	5945425920	79	9803
2026-01-19 09:20:34.85	330.08	7.44	-53.7	-62.5	3.8	7.47e-01	0	39	104	5945425920	79	9639
2026-01-19 09:20:35.85	330.20	7.37	-53.7	-62.6	3.8	7.43e-01	0	38	104	5945425920	79	9735
2026-01-19 09:20:36.86	330.32	7.29	-53.6	-62.5	3.8	7.45e-01	0	39	104	5945425920	79	9626
2026-01-19 09:20:37.87	330.45	7.21	-53.7	-62.5	3.8	7.44e-01	0	38	104	5945425920	79	9710
2026-01-19 09:20:38.88	330.57	7.13	-53.6	-62.4	3.8	7.46e-01	0	39	104	5945425920	79	9586
2026-01-19 09:20:39.88	330.69	7.05	-53.7	-62.5	3.8	7.46e-01	0	39	104	5945425920	79	9666
2026-01-19 09:20:40.89	330.81	6.98	-53.6	-62.4	3.8	7.45e-01	0	39	104	5945425920	79	9538
2026-01-19 09:20:41.90	330.92	6.90	-53.7	-62.5	3.8	7.44e-01	0	38	104	5945425920	79	9667
2026-01-19 09:20:42.91	331.04	6.82	-53.6	-62.4	3.8	7.44e-01	0	39	104	5945425920	79	9564
2026-01-19 09:20:43.92	331.16	6.75	-53.6	-62.5	3.8	7.45e-01	0	38	104	5945425920	79	9634
2026-01-19 09:20:44.93	331.28	6.67	-53.5	-62.4	3.8	7.47e-01	0	38	104	5945425920	79	9504
2026-01-19 09:20:45.94	331.39	6.59	-53.6	-62.5	3.8	7.45e-01	0	38	104	5945425920	79	9655
2026-01-19 09:20:46.94	331.51	6.52	-53.5	-62.3	3.8	7.45e-01	0	39	104	5945425920	79	9477
2026-01-19 09:20:47.95	331.62	6.44	-53.6	-62.4	3.8	7.44e-01	0	38	104	5945425920	79	9573
2026-01-19 09:20:48.96	331.73	6.37	-53.4	-62.3	3.8	7.45e-01	0	39	104	5945425920	78	10025
2026-01-19 09:20:49.97	331.85	6.29	-53.6	-62.4	3.8	7.46e-01	0	38	104	5945425920	78	10146
2026-01-19 09:20:50.97	331.96	6.22	-53.5	-62.3	3.8	7.45e-01	0	39	104	5945425920	78	10003
2026-01-19 09:20:51.98	332.07	6.14	-53.5	-62.3	3.8	7.45e-01	0	38	104	5945425920	78	10039
2026-01-19 09:20:52.99	332.18	6.07	-53.4	-62.2	3.8	7.47e-01	0	38	104	5945425920	78	9880
2026-01-19 09:20:53.99	332.29	5.99	-53.5	-62.3	3.8	7.45e-01	0	38	104	5945425920	78	10031
2026-01-19 09:20:55.00	332.40	5.92	-53.4	-62.2	3.8	7.43e-01	0	39	104	5945425920	78	9934
2026-01-19 09:20:56.01	332.51	5.85	-53.5	-62.3	3.8	7.45e-01	0	38	104	5945425920	78	9987
2026-01-19 09:20:57.02	332.62	5.77	-53.3	-62.2	3.8	7.46e-01	0	38	104	5945425920	78	9855
2026-01-19 09:20:58.02	332.72	5.70	-53.5	-62.3	3.8	7.44e-01	0	39	104	5945425920	78	10048
2026-01-19 09:20:59.03	332.83	5.62	-53.3	-62.2	3.8	7.46e-01	0	38	104	5945425920	78	9856
2026-01-19 09:21:00.04	332.94	5.55	-53.4	-62.3	3.8	7.44e-01	0	39	104	5945425920	78	9948
2026-01-19 09:21:01.05	333.04	5.48	-53.3	-62.1	3.8	7.45e-01	0	39	104	5945425920	78	9791
2026-01-19 09:21:02.06	333.15	5.41	-53.4	-62.3	3.8	7.46e-01	0	38	104	5945425920	78	9972
2026-01-19 09:21:03.07	333.25	5.33	-53.2	-62.0	3.8	7.46e-01	0	38	104	5945425920	78	9695
2026-01-19 09:21:04.07	333.35	5.26	-53.3	-62.2	3.8	7.45e-01	0	38	104	5945425920	78	9851
2026-01-19 09:21:05.08	333.46	5.19	-53.2	-62.0	3.8	7.45e-01	0	38	104	5945425920	78	9676
2026-01-19 09:21:06.09	333.56	5.12	-53.3	-62.2	3.8	7.46e-01	0	39	104	5945425920	78	9873
2026-01-19 09:21:07.10	333.66	5.05	-52.7	-61.6	3.8	7.46e-01	0	39	104	5945425920	77	9762
2026-01-19 09:21:08.11	333.76	4.97	-53.2	-62.0	3.8	7.44e-01	0	38	104	5945425920	76	10898
2026-01-19 09:21:09.11	333.86	4.90	-53.9	-62.7	3.8	7.45e-01	0	38	104	5945425920	78	10490
2026-01-19 09:21:10.12	333.96	4.83	-54.2	-63.0	3.8	7.46e-01	0	38	104	5945425920	78	10837
2026-01-19 09:21:11.13	334.06	4.76	-54.3	-63.2	3.8	7.47e-01	0	39	104	5945425920	79	10431
2026-01-19 09:21:12.14	334.16	4.69	-54.5	-63.3	3.8	7.46e-01	0	38	104	5945425920	79	10579
2026-01-19 09:21:13.14	334.26	4.62	-54.6	-63.4	3.8	7.45e-01	0	38	104	5945425920	79	10747
2026-01-19 09:21:14.16	334.36	4.55	-54.6	-63.4	3.8	7.45e-01	0	39	104	5945425920	79	10776
2026-01-19 09:21:15.16	334.45	4.48	-54.7	-63.5	3.8	7.44e-01	0	39	104	5945425920	80	10267
2026-01-19 09:21:16.17	334.55	4.41	-54.8	-63.6	3.8	7.46e-01	0	38	104	5945425920	80	10397
2026-01-19 09:21:17.17	334.64	4.34	-54.9	-63.7	3.8	7.44e-01	0	39	104	5945425920	80	10428
2026-01-19 09:21:18.18	334.74	4.27	-54.9	-63.8	3.8	7.48e-01	0	39	104	5945425920	80	10539
2026-01-19 09:21:19.19	334.83	4.20	-54.9	-63.7	3.8	7.45e-01	0	38	104	5945425920	80	10476
2026-01-19 09:21:20.20	334.93	4.13	-54.9	-63.8	3.8	7.45e-01	0	38	104	5945425920	80	10557
2026-01-19 09:21:21.21	335.02	4.06	-55.0	-63.8	3.8	7.45e-01	0	39	104	5945425920	80	10644
2026-01-19 09:21:22.21	335.12	3.99	-55.0	-63.8	3.8	7.45e-01	0	38	104	5945425920	80	10604
2026-01-19 09:21:23.22	335.21	3.93	-55.0	-63.9	3.8	7.45e-01	0	39	104	5945425920	80	10685
2026-01-19 09:21:24.23	335.30	3.86	-55.0	-63.9	3.8	7.45e-01	0	38	104	5945425920	80	10766
2026-01-19 09:21:25.24	335.39	3.79	-55.0	-63.9	3.8	7.47e-01	0	39	104	5945425920	80	10738
2026-01-19 09:21:26.24	335.48	3.72	-55.0	-63.9	3.8	7.44e-01	0	39	104	5945425920	80	10671
2026-01-19 09:21:27.25	335.57	3.65	-55.1	-63.9	3.8	7.44e-01	0	39	104	5945425920	80	10737
2026-01-19 09:21:28.26	335.66	3.59	-55.1	-63.9	3.8	7.46e-01	0	38	104	5945425920	80	10736
2026-01-19 09:21:29.27	335.75	3.52	-55.1	-63.9	3.8	7.44e-01	0	39	104	5945425920	80	10750
2026-01-19 09:21:30.28	335.84	3.45	-55.0	-63.9	3.8	7.47e-01	0	39	104	5945425920	80	10711
2026-01-19 09:21:31.28	335.93	3.38	-55.0	-63.9	3.8	7.46e-01	0	39	104	5945425920	80	10690
2026-01-19 09:21:32.29	336.02	3.32	-55.0	-63.9	3.8	7.45e-01	0	39	104	5945425920	80	10697
2026-01-19 09:21:33.30	336.11	3.25	-55.0	-63.9	3.8	7.45e-01	0	39	104	5945425920	80	10659
2026-01-19 09:21:34.31	336.19	3.18	-55.0	-63.9	3.8	7.45e-01	0	39	104	5945425920	80	10678
2026-01-19 09:21:35.32	336.28	3.12	-55.0	-63.9	3.8	7.46e-01	0	39	104	5945425920	80	10657
2026-01-19 09:21:36.33	336.37	3.05	-55.0	-63.8	3.8	7.46e-01	0	39	104	5945425920	80	10653
2026-01-19 09:21:37.33	336.45	2.98	-55.0	-63.8	3.8	7.45e-01	0	39	104	5945425920	80	10601
2026-01-19 09:21:38.34	336.54	2.92	-55.0	-63.8	3.8	7.45e-01	0	39	104	5945425920	80	10642
2026-01-19 09:21:39.34	336.62	2.85	-55.0	-63.8	3.8	7.45e-01	0	39	104	5945425920	80	10607
2026-01-19 09:21:40.35	336.71	2.79	-55.0	-63.8	3.8	7.46e-01	0	39	104	5945425920	80	10608
2026-01-19 09:21:41.36	336.79	2.72	-54.9	-63.8	3.8	7.47e-01	0	38	104	5945425920	80	10595
2026-01-19 09:21:42.37	336.87	2.66	-54.9	-63.7	3.8	7.45e-01	0	39	104	5945425920	80	10468
2026-01-19 09:21:43.38	336.96	2.59	-54.9	-63.8	3.8	7.45e-01	0	39	104	5945425920	80	10543
2026-01-19 09:21:44.39	337.04	2.53	-54.9	-63.8	3.8	7.45e-01	0	38	104	5945425920	80	10593
2026-01-19 09:21:45.39	337.12	2.46	-54.9	-63.7	3.8	7.44e-01	0	38	104	5945425920	80	10507
2026-01-19 09:21:46.40	337.20	2.40	-54.9	-63.7	3.8	7.45e-01	0	39	104	5945425920	80	10527
2026-01-19 09:21:47.41	337.28	2.33	-54.9	-63.8	3.8	7.45e-01	0	38	104	5945425920	80	10570
2026-01-19 09:21:48.42	337.36	2.27	-54.9	-63.8	3.8	7.46e-01	0	39	104	5945425920	80	10624
2026-01-19 09:21:49.43	337.44	2.20	-54.9	-63.8	3.8	7.45e-01	0	39	104	5945425920	80	10582
2026-01-19 09:21:50.44	337.52	2.14	-54.9	-63.8	3.8	7.45e-01	0	39	104	5945425920	80	10574
2026-01-19 09:21:51.45	337.60	2.07	-54.9	-63.8	3.8	7.45e-01	0	39	104	5945425920	80	10621
2026-01-19 09:21:52.45	337.68	2.01	-54.9	-63.8	3.8	7.47e-01	0	38	104	5945425920	80	10564
2026-01-19 09:21:53.46	337.76	1.95	-54.9	-63.8	3.8	7.46e-01	0	38	104	5945425920	80	10562
2026-01-19 09:21:54.47	337.84	1.88	-54.8	-63.7	3.8	7.45e-01	0	39	104	5945425920	80	10472

#Closed at: 2026-01-19 09:21:54
#Recorded file [5945 MB]: D:/lorett/data/31041_260119_121207.dat