passes_logs/2026/01/19/R3.2S_Murmansk/R3.2S_Murmansk__20260119_113512_SUOMI_NPP_rec.log

#Pass ID: 20260119_113512_SUOMI NPP
#Satellite: SUOMI NPP
#Configuration: NPP
#almurnet v.1.7.20251203
#Start time: 2026-01-19 11:35:13

#Version: 2.2.20231116
#Station: R3.2S_Murmansk
#Location: 33.079688 lon 68.888172 lat
#TLE: 1 37849U 11061A   26018.91022273  .00000066  00000+0  52264-4 0  9997
#TLE: 2 37849  98.7816 320.9252 0002364  56.8129 303.3273 14.19526186737260

#Time	Az	El	Level	Level2	SNR	BER	BlckErr	Temp	State	Recorded	gain1	gain2
2026-01-19 11:35:13.58	201.50	2.06	-52.5	-67.5	3.8	1.49e+00	0	36	0	0	77	19291
2026-01-19 11:35:14.59	201.56	2.12	-52.5	-67.5	3.8	1.49e+00	0	36	104	0	75	21548
2026-01-19 11:35:15.60	201.62	2.18	-52.5	-67.4	3.8	1.49e+00	0	36	104	0	75	21413
2026-01-19 11:35:16.61	201.68	2.24	-52.5	-67.4	3.8	1.49e+00	0	36	104	0	75	21380
2026-01-19 11:35:17.62	201.75	2.30	-52.5	-67.4	3.8	1.49e+00	0	36	104	0	75	21267
2026-01-19 11:35:18.62	201.81	2.36	-52.5	-67.3	3.8	1.49e+00	0	36	104	0	75	21182
2026-01-19 11:35:19.63	201.87	2.42	-52.5	-67.4	3.8	1.49e+00	0	36	104	0	75	21318
2026-01-19 11:35:20.64	201.93	2.48	-52.5	-67.4	3.8	1.49e+00	0	36	104	0	75	21387
2026-01-19 11:35:21.65	201.99	2.54	-52.5	-67.4	3.8	1.49e+00	0	36	104	0	75	21428
2026-01-19 11:35:22.66	202.05	2.60	-52.5	-67.4	3.8	1.49e+00	0	36	104	0	75	21350
2026-01-19 11:35:23.67	202.11	2.66	-52.5	-67.4	3.8	1.49e+00	0	36	104	0	75	21353
2026-01-19 11:35:24.67	202.18	2.71	-52.5	-67.4	3.8	1.49e+00	0	36	104	0	75	21397
2026-01-19 11:35:25.68	202.24	2.77	-52.5	-67.4	3.8	1.49e+00	0	36	104	0	75	21354
2026-01-19 11:35:26.69	202.30	2.83	-52.5	-67.4	3.8	1.49e+00	0	36	104	0	75	21423
2026-01-19 11:35:27.70	202.36	2.89	-52.5	-67.4	3.8	1.49e+00	0	36	104	0	75	21267
2026-01-19 11:35:28.71	202.43	2.95	-52.5	-67.4	3.8	1.49e+00	0	36	104	0	75	21439
2026-01-19 11:35:29.71	202.49	3.01	-52.5	-67.4	3.8	1.49e+00	0	36	104	0	75	21349
2026-01-19 11:35:30.72	202.56	3.07	-52.5	-67.3	3.8	1.49e+00	0	36	104	0	75	21229
2026-01-19 11:35:31.73	202.62	3.14	-52.5	-67.3	3.8	1.49e+00	0	36	104	0	75	21198
2026-01-19 11:35:32.74	202.68	3.20	-52.5	-67.3	3.8	1.49e+00	0	36	104	0	75	21226
2026-01-19 11:35:33.75	202.75	3.26	-52.5	-67.3	3.8	1.49e+00	0	36	104	0	75	21199
2026-01-19 11:35:34.76	202.81	3.32	-52.5	-67.3	3.8	1.49e+00	0	36	104	0	75	21174
2026-01-19 11:35:35.77	202.88	3.38	-52.5	-67.4	3.8	1.49e+00	0	36	104	0	75	21322
2026-01-19 11:35:36.77	202.94	3.44	-52.5	-67.4	3.8	1.49e+00	0	36	104	0	75	21304
2026-01-19 11:35:37.78	203.01	3.50	-52.5	-67.5	3.8	1.49e+00	0	36	104	0	75	21526
2026-01-19 11:35:38.79	203.07	3.56	-52.5	-67.5	3.8	1.49e+00	0	36	104	0	75	21519
2026-01-19 11:35:39.80	203.14	3.62	-52.5	-67.4	3.8	1.49e+00	0	37	104	0	75	21366
2026-01-19 11:35:40.80	203.21	3.68	-52.5	-67.3	3.8	1.49e+00	0	36	104	0	75	21255
2026-01-19 11:35:41.81	203.27	3.74	-52.5	-67.3	3.8	1.49e+00	0	36	104	0	75	21189
2026-01-19 11:35:42.82	203.34	3.81	-52.5	-67.3	3.8	1.49e+00	0	37	104	0	75	21033
2026-01-19 11:35:43.83	203.41	3.87	-52.5	-67.3	3.8	1.49e+00	0	37	104	0	75	21221
2026-01-19 11:35:44.84	203.47	3.93	-52.5	-67.4	3.8	1.49e+00	0	36	104	0	75	21269
2026-01-19 11:35:45.84	203.54	3.99	-52.5	-67.4	3.8	1.49e+00	0	37	104	0	75	21278
2026-01-19 11:35:46.86	203.61	4.05	-52.5	-67.1	3.8	1.49e+00	0	36	104	0	75	20683
2026-01-19 11:35:47.86	203.68	4.12	-52.5	-66.6	3.8	1.49e+00	0	37	104	0	75	19438
2026-01-19 11:35:48.87	203.75	4.18	-52.4	-65.7	3.8	1.49e+00	0	37	104	0	75	17569
2026-01-19 11:35:49.88	203.81	4.24	-52.3	-64.1	4.2	1.49e+00	0	37	104	0	75	14585
2026-01-19 11:35:50.89	203.88	4.30	-52.3	-63.4	4.4	1.30e+00	145	37	0	0	75	13508
2026-01-19 11:35:51.90	203.95	4.37	-52.1	-62.0	4.9	1.07e+00	0	37	0	1048576	75	11460
2026-01-19 11:35:52.90	204.02	4.43	-52.0	-61.1	5.5	5.08e-01	0	37	0	3145728	75	10389
2026-01-19 11:35:53.91	204.09	4.49	-51.9	-60.2	6.1	4.43e-01	0	37	0	5242880	75	9335
2026-01-19 11:35:54.92	204.16	4.55	-51.7	-59.1	7.1	2.27e-01	0	37	0	7340032	75	8183
2026-01-19 11:35:55.93	204.23	4.62	-51.5	-58.1	8.0	1.05e-01	0	37	0	8388608	74	7724
2026-01-19 11:35:56.94	204.30	4.68	-51.2	-57.3	8.9	3.69e-02	0	37	0	10485760	74	7050
2026-01-19 11:35:57.94	204.37	4.74	-50.8	-55.8	10.4	8.27e-03	0	37	0	12582912	73	6290
2026-01-19 11:35:58.95	204.45	4.81	-50.3	-54.6	11.6	1.65e-03	0	37	0	14680064	72	5854
2026-01-19 11:35:59.96	204.52	4.87	-49.9	-53.6	12.7	3.49e-04	0	37	0	15728640	71	5517
2026-01-19 11:36:00.97	204.59	4.93	-49.6	-53.0	13.4	2.89e-05	0	37	0	17825792	71	5141
2026-01-19 11:36:01.97	204.66	5.00	-49.2	-52.2	14.2	1.50e-06	0	37	0	19922944	70	4970
2026-01-19 11:36:02.98	204.73	5.06	-48.8	-51.6	14.7	0.00e+00	0	37	0	22020096	69	4918
2026-01-19 11:36:03.99	204.81	5.12	-50.9	-56.1	10.2	2.97e-03	0	37	0	24117248	72	6938
2026-01-19 11:36:05.00	204.88	5.19	-50.4	-54.9	11.5	3.43e-05	0	37	0	26214400	71	6389
2026-01-19 11:36:06.01	204.95	5.25	-51.5	-57.8	8.6	9.23e-05	0	37	0	27262976	73	7932
2026-01-19 11:36:07.02	205.03	5.32	-51.0	-56.3	10.1	1.21e-02	0	37	0	29360128	73	6656
2026-01-19 11:36:08.03	205.10	5.38	-50.1	-53.9	12.5	1.44e-05	0	37	0	31457280	70	6046
2026-01-19 11:36:09.03	205.17	5.45	-49.4	-52.6	13.9	1.98e-05	0	37	0	33554432	70	5188
2026-01-19 11:36:10.04	205.25	5.51	-49.5	-52.9	13.6	9.10e-06	0	37	0	35651584	70	5349
2026-01-19 11:36:11.05	205.32	5.57	-49.5	-52.8	13.7	1.22e-05	0	37	0	36700160	70	5309
2026-01-19 11:36:12.06	205.40	5.64	-49.2	-52.3	14.1	3.00e-06	0	37	0	38797312	70	5021
2026-01-19 11:36:13.07	205.47	5.70	-49.4	-52.5	13.9	2.20e-06	0	37	0	40894464	70	5151
2026-01-19 11:36:14.08	205.55	5.77	-49.4	-52.5	14.0	3.00e-06	0	37	0	42991616	70	5134
2026-01-19 11:36:15.08	205.63	5.83	-49.3	-52.5	14.0	3.00e-06	0	37	0	45088768	70	5104
2026-01-19 11:36:16.09	205.70	5.90	-49.2	-52.3	14.2	0.00e+00	0	37	0	46137344	70	5007
2026-01-19 11:36:17.10	205.78	5.97	-49.4	-52.6	13.9	4.50e-06	0	37	0	48234496	70	5201
2026-01-19 11:36:18.11	205.86	6.03	-49.3	-52.4	14.1	3.00e-06	0	37	0	50331648	70	5075
2026-01-19 11:36:19.11	205.93	6.10	-49.2	-52.2	14.4	0.00e+00	0	37	0	52428800	70	4938
2026-01-19 11:36:20.12	206.01	6.16	-49.2	-52.1	14.4	7.00e-07	0	37	0	54525952	70	4922
2026-01-19 11:36:21.13	206.09	6.23	-49.3	-52.4	14.2	1.50e-06	0	37	0	55574528	70	5069
2026-01-19 11:36:22.13	206.17	6.29	-49.0	-51.8	14.8	1.50e-06	0	37	0	57671680	70	4722
2026-01-19 11:36:23.14	206.25	6.36	-48.7	-51.3	15.2	0.00e+00	0	37	0	59768832	69	4747
2026-01-19 11:36:24.15	206.33	6.43	-48.5	-51.0	15.5	0.00e+00	0	37	0	61865984	69	4598
2026-01-19 11:36:25.16	206.41	6.49	-48.7	-51.3	15.3	0.00e+00	0	37	0	63963136	69	4729
2026-01-19 11:36:26.16	206.48	6.56	-48.4	-50.9	15.8	0.00e+00	0	37	0	65011712	68	4773
2026-01-19 11:36:27.17	206.56	6.63	-48.5	-50.9	15.7	0.00e+00	0	37	0	67108864	68	4812
2026-01-19 11:36:28.18	206.65	6.69	-48.5	-51.0	15.7	0.00e+00	0	37	0	69206016	68	4824
2026-01-19 11:36:29.19	206.73	6.76	-48.4	-50.8	15.9	0.00e+00	0	37	0	71303168	68	4710
2026-01-19 11:36:30.20	206.81	6.83	-48.5	-50.9	15.7	0.00e+00	0	37	0	73400320	68	4810
2026-01-19 11:36:31.20	206.89	6.89	-48.3	-50.6	16.0	0.00e+00	0	37	0	74448896	68	4633
2026-01-19 11:36:32.21	206.97	6.96	-48.1	-50.3	16.3	0.00e+00	0	37	0	76546048	68	4493
2026-01-19 11:36:33.22	207.05	7.03	-48.0	-50.2	16.3	0.00e+00	0	37	0	78643200	67	4692
2026-01-19 11:36:34.23	207.14	7.10	-47.9	-50.1	16.4	0.00e+00	0	37	0	80740352	67	4645
2026-01-19 11:36:35.24	207.22	7.17	-47.8	-49.9	16.7	0.00e+00	0	37	0	82837504	67	4526
2026-01-19 11:36:36.25	207.30	7.23	-47.6	-49.7	16.8	0.00e+00	0	37	0	83886080	67	4424
2026-01-19 11:36:37.25	207.39	7.30	-47.6	-49.6	16.9	0.00e+00	0	37	0	85983232	67	4379
2026-01-19 11:36:38.26	207.47	7.37	-47.6	-49.6	17.0	0.00e+00	0	37	0	88080384	67	4377
2026-01-19 11:36:39.27	207.55	7.44	-47.7	-49.8	16.9	0.00e+00	0	37	0	90177536	67	4450
2026-01-19 11:36:40.28	207.64	7.51	-47.6	-49.7	16.9	0.00e+00	0	37	0	92274688	67	4393
2026-01-19 11:36:41.29	207.73	7.57	-47.6	-49.7	17.0	0.00e+00	0	37	0	93323264	67	4393
2026-01-19 11:36:42.29	207.81	7.64	-47.4	-49.4	17.2	0.00e+00	0	37	0	95420416	66	4536
2026-01-19 11:36:43.30	207.90	7.71	-47.5	-49.5	17.2	0.00e+00	0	37	0	97517568	66	4586
2026-01-19 11:36:44.31	207.98	7.78	-47.7	-49.8	16.9	0.00e+00	0	37	0	99614720	66	4719
2026-01-19 11:36:45.32	208.07	7.85	-47.4	-49.3	17.3	0.00e+00	0	37	0	101711872	66	4486
2026-01-19 11:36:46.33	208.16	7.92	-47.4	-49.4	17.2	0.00e+00	0	37	0	102760448	66	4517
2026-01-19 11:36:47.33	208.24	7.99	-47.3	-49.3	17.4	0.00e+00	0	37	0	104857600	66	4443
2026-01-19 11:36:48.34	208.33	8.06	-47.2	-49.1	17.6	0.00e+00	0	37	0	106954752	66	4365
2026-01-19 11:36:49.35	208.42	8.13	-47.3	-49.2	17.5	0.00e+00	0	37	0	109051904	66	4416
2026-01-19 11:36:50.36	208.51	8.20	-47.1	-48.9	17.7	0.00e+00	0	37	0	111149056	66	4275
2026-01-19 11:36:51.36	208.60	8.27	-47.2	-49.1	17.5	0.00e+00	0	37	0	112197632	66	4375
2026-01-19 11:36:52.37	208.69	8.34	-47.2	-49.1	17.6	0.00e+00	0	37	0	114294784	66	4364
2026-01-19 11:36:53.38	208.78	8.41	-47.2	-49.0	17.7	0.00e+00	0	37	0	116391936	66	4326
2026-01-19 11:36:54.39	208.87	8.48	-47.1	-48.9	17.8	0.00e+00	0	37	0	118489088	66	4266
2026-01-19 11:36:55.40	208.96	8.55	-47.1	-48.9	17.8	0.00e+00	0	37	0	120586240	66	4272
2026-01-19 11:36:56.41	209.05	8.62	-47.1	-48.9	17.8	0.00e+00	0	37	0	121634816	66	4279
2026-01-19 11:36:57.42	209.14	8.69	-47.0	-48.8	17.8	0.00e+00	0	37	0	123731968	65	4486
2026-01-19 11:36:58.43	209.24	8.76	-47.1	-48.9	17.8	0.00e+00	0	37	0	125829120	65	4499
2026-01-19 11:36:59.43	209.33	8.83	-46.9	-48.6	18.1	0.00e+00	0	37	0	127926272	65	4375
2026-01-19 11:37:00.44	209.42	8.90	-46.8	-48.5	18.1	0.00e+00	0	38	0	130023424	65	4335
2026-01-19 11:37:01.45	209.51	8.97	-46.8	-48.5	18.2	0.00e+00	0	37	0	131072000	65	4338
2026-01-19 11:37:02.46	209.61	9.05	-46.8	-48.5	18.2	0.00e+00	0	37	0	133169152	65	4303
2026-01-19 11:37:03.46	209.70	9.12	-46.9	-48.6	18.0	0.00e+00	0	37	0	135266304	65	4383
2026-01-19 11:37:04.47	209.80	9.19	-46.9	-48.6	18.1	0.00e+00	0	37	0	137363456	65	4377
2026-01-19 11:37:05.48	209.89	9.26	-47.0	-48.7	18.0	0.00e+00	0	37	0	139460608	65	4429
2026-01-19 11:37:06.49	209.99	9.33	-46.9	-48.7	18.0	0.00e+00	0	37	0	141557760	65	4425
2026-01-19 11:37:07.50	210.08	9.40	-46.9	-48.7	18.0	0.00e+00	0	37	0	142606336	65	4404
2026-01-19 11:37:08.51	210.18	9.48	-46.9	-48.7	18.0	0.00e+00	0	37	0	144703488	65	4402
2026-01-19 11:37:09.51	210.28	9.55	-47.2	-49.0	17.7	0.00e+00	0	37	0	146800640	65	4585
2026-01-19 11:37:10.52	210.37	9.62	-47.1	-48.9	17.8	0.00e+00	0	37	0	148897792	65	4527
2026-01-19 11:37:11.53	210.47	9.69	-46.9	-48.7	18.1	0.00e+00	0	37	0	149946368	65	4397
2026-01-19 11:37:12.54	210.57	9.77	-47.2	-49.0	17.7	0.00e+00	0	37	0	152043520	65	4579
2026-01-19 11:37:13.55	210.67	9.84	-47.1	-48.9	17.8	0.00e+00	0	38	0	154140672	65	4540
2026-01-19 11:37:14.55	210.77	9.91	-47.1	-48.9	17.9	0.00e+00	0	37	0	156237824	65	4535
2026-01-19 11:37:15.56	210.87	9.99	-47.0	-48.8	17.9	0.00e+00	0	37	0	158334976	65	4488
2026-01-19 11:37:16.57	210.97	10.06	-46.9	-48.7	18.1	0.00e+00	0	37	0	159383552	65	4396
2026-01-19 11:37:17.58	211.07	10.13	-46.9	-48.7	18.1	0.00e+00	0	37	0	161480704	65	4416
2026-01-19 11:37:18.58	211.17	10.21	-46.6	-48.3	18.5	0.00e+00	0	37	0	163577856	65	4206
2026-01-19 11:37:19.59	211.27	10.28	-46.7	-48.3	18.4	0.00e+00	0	37	0	165675008	65	4235
2026-01-19 11:37:20.60	211.37	10.36	-46.7	-48.3	18.5	0.00e+00	0	38	0	167772160	65	4236
2026-01-19 11:37:21.61	211.48	10.43	-46.6	-48.2	18.6	0.00e+00	0	37	0	169869312	64	4410
2026-01-19 11:37:22.61	211.58	10.50	-46.4	-48.0	18.8	0.00e+00	0	37	0	170917888	64	4306
2026-01-19 11:37:23.62	211.68	10.58	-46.4	-47.9	18.8	0.00e+00	0	37	0	173015040	64	4273
2026-01-19 11:37:24.63	211.79	10.65	-46.5	-48.1	18.7	0.00e+00	0	37	0	175112192	64	4360
2026-01-19 11:37:25.64	211.89	10.73	-46.3	-47.8	18.9	0.00e+00	0	37	0	177209344	64	4222
2026-01-19 11:37:26.65	212.00	10.80	-46.4	-48.0	18.8	0.00e+00	0	38	0	178257920	64	4324
2026-01-19 11:37:27.66	212.10	10.88	-46.5	-48.1	18.7	0.00e+00	0	37	0	180355072	64	4358
2026-01-19 11:37:28.67	212.21	10.95	-46.3	-47.8	19.0	0.00e+00	0	37	0	182452224	64	4215
2026-01-19 11:37:29.67	212.32	11.03	-46.5	-48.1	18.7	0.00e+00	0	37	0	184549376	64	4379
2026-01-19 11:37:30.68	212.42	11.10	-46.3	-47.9	18.9	0.00e+00	0	38	0	186646528	64	4262
2026-01-19 11:37:31.69	212.53	11.18	-46.6	-48.2	18.6	0.00e+00	0	37	0	188743680	64	4425
2026-01-19 11:37:32.70	212.64	11.25	-46.7	-48.3	18.5	0.00e+00	0	37	0	189792256	64	4483
2026-01-19 11:37:33.71	212.75	11.33	-46.6	-48.3	18.6	0.00e+00	0	37	0	191889408	64	4471
2026-01-19 11:37:34.71	212.86	11.41	-46.7	-48.4	18.4	0.00e+00	0	37	0	193986560	64	4533
2026-01-19 11:37:35.72	212.97	11.48	-46.6	-48.3	18.5	0.00e+00	0	37	0	196083712	64	4464
2026-01-19 11:37:36.73	213.08	11.56	-46.9	-48.6	18.3	0.00e+00	0	37	0	198180864	64	4617
2026-01-19 11:37:37.74	213.19	11.64	-46.9	-48.6	18.3	0.00e+00	0	37	0	199229440	64	4604
2026-01-19 11:37:38.74	213.30	11.71	-46.8	-48.5	18.4	0.00e+00	0	37	0	201326592	64	4565
2026-01-19 11:37:39.75	213.41	11.79	-46.9	-48.6	18.3	0.00e+00	0	37	0	203423744	64	4612
2026-01-19 11:37:40.76	213.53	11.86	-47.0	-48.8	18.1	0.00e+00	0	37	0	205520896	64	4741
2026-01-19 11:37:41.77	213.64	11.94	-46.8	-48.6	18.3	0.00e+00	0	37	0	206569472	64	4605
2026-01-19 11:37:42.78	213.76	12.02	-46.8	-48.4	18.4	0.00e+00	0	37	0	208666624	64	4538
2026-01-19 11:37:43.78	213.87	12.10	-46.6	-48.2	18.7	0.00e+00	0	37	0	210763776	64	4421
2026-01-19 11:37:44.79	213.98	12.17	-46.6	-48.2	18.7	0.00e+00	0	37	0	212860928	64	4418
2026-01-19 11:37:45.80	214.10	12.25	-46.6	-48.2	18.7	0.00e+00	0	37	0	214958080	64	4393
2026-01-19 11:37:46.81	214.22	12.33	-46.5	-48.0	18.8	0.00e+00	0	37	0	217055232	64	4332
2026-01-19 11:37:47.82	214.33	12.41	-46.6	-48.2	18.7	0.00e+00	0	38	0	218103808	64	4402
2026-01-19 11:37:48.83	214.45	12.49	-46.5	-48.1	18.8	0.00e+00	0	37	0	220200960	64	4371
2026-01-19 11:37:49.83	214.57	12.56	-46.4	-48.0	18.9	0.00e+00	0	37	0	222298112	64	4295
2026-01-19 11:37:50.84	214.69	12.64	-46.4	-47.9	19.0	0.00e+00	0	37	0	224395264	64	4266
2026-01-19 11:37:51.85	214.81	12.72	-46.4	-47.9	18.9	0.00e+00	0	37	0	226492416	64	4273
2026-01-19 11:37:52.85	214.93	12.80	-46.4	-47.9	18.9	0.00e+00	0	37	0	227540992	64	4286
2026-01-19 11:37:53.86	215.05	12.88	-46.4	-47.9	19.0	0.00e+00	0	37	0	229638144	64	4272
2026-01-19 11:37:54.87	215.17	12.96	-46.4	-47.9	19.0	0.00e+00	0	37	0	231735296	64	4268
2026-01-19 11:37:55.88	215.29	13.04	-46.5	-48.1	18.8	0.00e+00	0	37	0	233832448	64	4378
2026-01-19 11:37:56.89	215.41	13.11	-46.6	-48.2	18.7	0.00e+00	0	37	0	235929600	64	4410
2026-01-19 11:37:57.89	215.53	13.19	-46.8	-48.5	18.5	0.00e+00	0	37	0	236978176	64	4555
2026-01-19 11:37:58.90	215.66	13.27	-46.8	-48.5	18.5	0.00e+00	0	37	0	239075328	64	4576
2026-01-19 11:37:59.91	215.78	13.35	-46.9	-48.5	18.4	0.00e+00	0	37	0	241172480	64	4590
2026-01-19 11:38:00.92	215.91	13.43	-47.0	-48.7	18.2	0.00e+00	0	37	0	243269632	64	4683
2026-01-19 11:38:01.93	216.03	13.51	-47.0	-48.7	18.3	0.00e+00	0	37	0	245366784	64	4693
2026-01-19 11:38:02.93	216.16	13.59	-47.0	-48.7	18.2	0.00e+00	0	37	0	246415360	64	4699
2026-01-19 11:38:03.94	216.29	13.67	-47.0	-48.7	18.3	0.00e+00	0	37	0	248512512	64	4668
2026-01-19 11:38:04.95	216.41	13.75	-46.9	-48.6	18.4	0.00e+00	0	37	0	250609664	64	4630
2026-01-19 11:38:05.96	216.54	13.83	-46.9	-48.6	18.4	0.00e+00	0	37	0	252706816	64	4631
2026-01-19 11:38:06.97	216.67	13.91	-47.1	-48.8	18.2	0.00e+00	0	37	0	254803968	64	4734
2026-01-19 11:38:07.97	216.80	13.99	-47.0	-48.7	18.3	0.00e+00	0	37	0	255852544	64	4692
2026-01-19 11:38:08.98	216.93	14.07	-47.0	-48.7	18.3	0.00e+00	0	37	0	257949696	64	4677
2026-01-19 11:38:09.99	217.06	14.16	-46.8	-48.4	18.5	0.00e+00	0	37	0	260046848	64	4533
2026-01-19 11:38:11.00	217.19	14.24	-46.9	-48.6	18.4	0.00e+00	0	37	0	262144000	64	4610
2026-01-19 11:38:12.01	217.33	14.32	-47.0	-48.7	18.3	0.00e+00	0	37	0	264241152	64	4677
2026-01-19 11:38:13.01	217.46	14.40	-47.1	-48.8	18.2	0.00e+00	0	37	0	265289728	64	4746
2026-01-19 11:38:14.02	217.59	14.48	-47.2	-49.0	18.0	0.00e+00	0	37	0	267386880	65	4576
2026-01-19 11:38:15.03	217.73	14.56	-47.4	-49.2	17.9	0.00e+00	0	37	0	269484032	65	4680
2026-01-19 11:38:16.03	217.86	14.64	-47.4	-49.2	17.9	0.00e+00	0	37	0	271581184	65	4683
2026-01-19 11:38:17.04	218.00	14.73	-47.3	-49.1	18.0	0.00e+00	0	37	0	273678336	65	4613
2026-01-19 11:38:18.05	218.13	14.81	-47.4	-49.2	17.9	0.00e+00	0	37	0	274726912	65	4673
2026-01-19 11:38:19.06	218.27	14.89	-47.2	-49.0	18.0	0.00e+00	0	37	0	276824064	65	4578
2026-01-19 11:38:20.06	218.41	14.97	-47.3	-49.0	18.0	0.00e+00	0	37	0	278921216	65	4584
2026-01-19 11:38:21.07	218.55	15.05	-47.3	-49.0	18.0	0.00e+00	0	37	0	281018368	65	4594
2026-01-19 11:38:22.08	218.69	15.14	-47.2	-48.9	18.1	0.00e+00	0	37	0	283115520	65	4511
2026-01-19 11:38:23.09	218.83	15.22	-47.1	-48.8	18.2	0.00e+00	0	37	0	285212672	65	4468
2026-01-19 11:38:24.10	218.97	15.30	-46.8	-48.4	18.6	0.00e+00	0	37	0	286261248	65	4284
2026-01-19 11:38:25.11	219.11	15.39	-46.7	-48.3	18.7	0.00e+00	0	37	0	288358400	65	4227
2026-01-19 11:38:26.12	219.25	15.47	-46.8	-48.4	18.7	0.00e+00	0	37	0	290455552	65	4253
2026-01-19 11:38:27.12	219.40	15.55	-46.3	-47.7	19.2	0.00e+00	0	37	0	292552704	64	4191
2026-01-19 11:38:28.13	219.54	15.63	-46.3	-47.8	19.2	0.00e+00	0	37	0	293601280	64	4238
2026-01-19 11:38:29.14	219.69	15.72	-46.4	-48.0	19.0	0.00e+00	0	37	0	295698432	64	4312
2026-01-19 11:38:30.15	219.83	15.80	-46.3	-47.8	19.2	0.00e+00	0	37	0	297795584	64	4205
2026-01-19 11:38:31.16	219.98	15.89	-46.2	-47.6	19.3	0.00e+00	0	37	0	299892736	64	4145
2026-01-19 11:38:32.16	220.12	15.97	-46.3	-47.8	19.2	0.00e+00	0	37	0	301989888	64	4224
2026-01-19 11:38:33.17	220.27	16.05	-46.5	-48.0	19.0	0.00e+00	0	37	0	303038464	64	4328
2026-01-19 11:38:34.18	220.42	16.14	-46.3	-47.9	19.1	0.00e+00	0	37	0	305135616	64	4255
2026-01-19 11:38:35.19	220.57	16.22	-46.5	-48.0	19.0	0.00e+00	0	37	0	307232768	64	4325
2026-01-19 11:38:36.20	220.72	16.31	-46.4	-47.9	19.1	0.00e+00	0	37	0	309329920	64	4260
2026-01-19 11:38:37.21	220.87	16.39	-46.2	-47.7	19.3	0.00e+00	0	37	0	311427072	64	4150
2026-01-19 11:38:38.21	221.02	16.47	-46.4	-47.9	19.1	0.00e+00	0	37	0	313524224	64	4286
2026-01-19 11:38:39.22	221.18	16.56	-46.5	-48.1	18.9	0.00e+00	0	37	0	314572800	64	4349
2026-01-19 11:38:40.23	221.33	16.64	-46.6	-48.2	18.8	0.00e+00	0	37	0	316669952	64	4432
2026-01-19 11:38:41.23	221.49	16.73	-46.7	-48.3	18.8	0.00e+00	0	37	0	318767104	64	4463
2026-01-19 11:38:42.24	221.64	16.81	-46.6	-48.2	18.9	0.00e+00	0	37	0	320864256	64	4420
2026-01-19 11:38:43.25	221.80	16.90	-46.5	-48.0	19.1	0.00e+00	0	37	0	321912832	64	4313
2026-01-19 11:38:44.26	221.95	16.98	-46.5	-48.0	19.1	0.00e+00	0	37	0	324009984	64	4327
2026-01-19 11:38:45.27	222.11	17.07	-46.4	-48.0	19.0	0.00e+00	0	37	0	326107136	64	4308
2026-01-19 11:38:46.27	222.27	17.15	-46.4	-48.0	19.1	0.00e+00	0	37	0	328204288	64	4307
2026-01-19 11:38:47.28	222.43	17.24	-46.7	-48.3	18.8	0.00e+00	0	37	0	330301440	64	4447
2026-01-19 11:38:48.29	222.59	17.32	-46.5	-48.1	19.0	0.00e+00	0	37	0	332398592	64	4341
2026-01-19 11:38:49.30	222.75	17.41	-46.5	-48.0	19.1	0.00e+00	0	37	0	333447168	64	4313
2026-01-19 11:38:50.30	222.91	17.49	-46.5	-48.1	18.9	0.00e+00	0	38	0	335544320	64	4342
2026-01-19 11:38:51.31	223.08	17.58	-46.3	-47.8	19.2	0.00e+00	0	37	0	337641472	64	4195
2026-01-19 11:38:52.32	223.24	17.66	-46.4	-47.9	19.2	0.00e+00	0	37	0	339738624	64	4253
2026-01-19 11:38:53.33	223.41	17.75	-46.3	-47.7	19.3	0.00e+00	0	37	0	341835776	64	4191
2026-01-19 11:38:54.34	223.57	17.84	-46.3	-47.8	19.3	0.00e+00	0	37	0	342884352	64	4206
2026-01-19 11:38:55.35	223.74	17.92	-46.1	-47.5	19.5	0.00e+00	0	37	0	344981504	64	4078
2026-01-19 11:38:56.35	223.91	18.01	-46.1	-47.5	19.5	0.00e+00	0	37	0	347078656	64	4072
2026-01-19 11:38:57.36	224.08	18.09	-46.1	-47.5	19.6	0.00e+00	0	37	0	349175808	63	4308
2026-01-19 11:38:58.37	224.25	18.18	-46.0	-47.4	19.8	0.00e+00	0	37	0	350224384	63	4254
2026-01-19 11:38:59.38	224.42	18.27	-45.7	-47.1	20.0	0.00e+00	0	37	0	352321536	63	4114
2026-01-19 11:39:00.38	224.59	18.35	-45.8	-47.1	19.9	0.00e+00	0	37	0	354418688	63	4142
2026-01-19 11:39:01.39	224.76	18.44	-45.7	-47.1	20.0	0.00e+00	0	37	0	356515840	63	4124
2026-01-19 11:39:02.40	224.93	18.52	-45.7	-47.1	20.0	0.00e+00	0	37	0	358612992	63	4117
2026-01-19 11:39:03.40	225.11	18.61	-45.5	-46.8	20.2	0.00e+00	0	37	0	360710144	63	4001
2026-01-19 11:39:04.41	225.28	18.70	-45.4	-46.7	20.3	0.00e+00	0	37	0	361758720	62	4186
2026-01-19 11:39:05.42	225.46	18.78	-45.5	-46.8	20.3	0.00e+00	0	37	0	363855872	62	4197
2026-01-19 11:39:06.43	225.64	18.87	-45.1	-46.4	20.6	0.00e+00	0	37	0	365953024	62	4021
2026-01-19 11:39:07.44	225.82	18.96	-45.4	-46.7	20.3	0.00e+00	0	37	0	368050176	62	4192
2026-01-19 11:39:08.45	226.00	19.04	-45.4	-46.7	20.3	0.00e+00	0	37	0	370147328	62	4174
2026-01-19 11:39:09.45	226.17	19.13	-45.5	-46.8	20.2	0.00e+00	0	37	0	371195904	62	4233
2026-01-19 11:39:10.46	226.36	19.21	-45.7	-47.0	20.0	0.00e+00	0	38	0	373293056	62	4334
2026-01-19 11:39:11.47	226.54	19.30	-45.7	-47.0	20.0	0.00e+00	0	38	0	375390208	62	4340
2026-01-19 11:39:12.48	226.72	19.39	-45.7	-47.1	20.0	0.00e+00	0	37	0	377487360	62	4369
2026-01-19 11:39:13.48	226.90	19.47	-46.0	-47.4	19.7	0.00e+00	0	38	0	379584512	62	4513
2026-01-19 11:39:14.49	227.09	19.56	-46.1	-47.5	19.6	0.00e+00	0	37	0	380633088	62	4587
2026-01-19 11:39:15.50	227.28	19.65	-46.0	-47.4	19.7	0.00e+00	0	37	0	382730240	62	4521
2026-01-19 11:39:16.51	227.46	19.73	-46.1	-47.5	19.6	0.00e+00	0	37	0	384827392	62	4577
2026-01-19 11:39:17.51	227.65	19.82	-45.9	-47.3	19.8	0.00e+00	0	37	0	386924544	62	4462
2026-01-19 11:39:18.52	227.84	19.91	-45.8	-47.2	19.9	0.00e+00	0	37	0	389021696	62	4417
2026-01-19 11:39:19.53	228.03	19.99	-45.6	-47.0	20.1	0.00e+00	0	37	0	390070272	62	4297
2026-01-19 11:39:20.54	228.22	20.08	-46.0	-47.3	19.8	0.00e+00	0	37	0	392167424	62	4492
2026-01-19 11:39:21.55	228.42	20.17	-45.6	-46.9	20.2	0.00e+00	0	37	0	394264576	62	4279
2026-01-19 11:39:22.55	228.61	20.25	-45.7	-47.1	20.1	0.00e+00	0	37	0	396361728	62	4352
2026-01-19 11:39:23.56	228.80	20.34	-45.7	-47.0	20.1	0.00e+00	0	37	0	398458880	62	4318
2026-01-19 11:39:24.57	229.00	20.43	-45.7	-47.0	20.0	0.00e+00	0	37	0	399507456	62	4334
2026-01-19 11:39:25.58	229.20	20.51	-45.6	-46.9	20.2	0.00e+00	0	37	0	401604608	62	4256
2026-01-19 11:39:26.58	229.39	20.60	-45.5	-46.8	20.3	0.00e+00	0	37	0	403701760	62	4222
2026-01-19 11:39:27.59	229.59	20.69	-45.6	-47.0	20.1	0.00e+00	0	37	0	405798912	62	4303
2026-01-19 11:39:28.60	229.79	20.77	-45.7	-47.0	20.1	0.00e+00	0	37	0	407896064	62	4335
2026-01-19 11:39:29.61	229.99	20.86	-45.6	-47.0	20.1	0.00e+00	0	37	0	408944640	62	4310
2026-01-19 11:39:30.62	230.20	20.95	-45.6	-46.9	20.2	0.00e+00	0	37	0	411041792	62	4257
2026-01-19 11:39:31.62	230.40	21.03	-45.6	-46.9	20.2	0.00e+00	0	38	0	413138944	62	4269
2026-01-19 11:39:32.63	230.60	21.12	-45.4	-46.7	20.4	0.00e+00	0	37	0	415236096	62	4171
2026-01-19 11:39:33.64	230.81	21.20	-45.4	-46.6	20.4	0.00e+00	0	38	0	417333248	62	4138
2026-01-19 11:39:34.65	231.02	21.29	-45.0	-46.2	20.8	0.00e+00	0	37	0	418381824	62	3947
2026-01-19 11:39:35.66	231.22	21.38	-45.0	-46.2	20.8	0.00e+00	0	37	0	420478976	61	4170
2026-01-19 11:39:36.66	231.43	21.46	-44.8	-45.9	21.1	0.00e+00	0	38	0	422576128	61	4037
2026-01-19 11:39:37.67	231.64	21.55	-44.6	-45.8	21.2	0.00e+00	0	38	0	424673280	61	3980
2026-01-19 11:39:38.68	231.85	21.63	-44.6	-45.7	21.2	0.00e+00	0	37	0	426770432	61	3946
2026-01-19 11:39:39.69	232.07	21.72	-44.4	-45.6	21.4	0.00e+00	0	38	0	427819008	60	4107
2026-01-19 11:39:40.70	232.28	21.80	-44.4	-45.5	21.4	0.00e+00	0	37	0	429916160	60	4084
2026-01-19 11:39:41.70	232.49	21.89	-44.5	-45.7	21.3	0.00e+00	0	37	0	432013312	60	4159
2026-01-19 11:39:42.71	232.71	21.97	-44.4	-45.5	21.4	0.00e+00	0	38	0	434110464	60	4085
2026-01-19 11:39:43.72	232.93	22.06	-44.7	-45.8	21.2	0.00e+00	0	37	0	436207616	60	4241
2026-01-19 11:39:44.73	233.14	22.14	-44.8	-46.0	21.0	0.00e+00	0	38	0	437256192	60	4313
2026-01-19 11:39:45.74	233.36	22.23	-45.1	-46.3	20.8	0.00e+00	0	37	0	439353344	60	4468
2026-01-19 11:39:46.74	233.58	22.31	-45.2	-46.5	20.6	0.00e+00	0	37	0	441450496	61	4308
2026-01-19 11:39:47.75	233.80	22.40	-45.3	-46.6	20.4	0.00e+00	0	37	0	443547648	61	4366
2026-01-19 11:39:48.76	234.03	22.48	-45.3	-46.6	20.5	0.00e+00	0	37	0	445644800	61	4374
2026-01-19 11:39:49.76	234.25	22.57	-45.3	-46.6	20.5	0.00e+00	0	38	0	446693376	61	4351
2026-01-19 11:39:50.77	234.48	22.65	-45.4	-46.7	20.4	0.00e+00	0	38	0	448790528	61	4393
2026-01-19 11:39:51.78	234.70	22.73	-45.3	-46.5	20.6	0.00e+00	0	38	0	450887680	61	4328
2026-01-19 11:39:52.79	234.93	22.82	-45.3	-46.6	20.5	0.00e+00	0	38	0	452984832	61	4361
2026-01-19 11:39:53.80	235.16	22.90	-45.5	-46.8	20.3	0.00e+00	0	37	0	455081984	61	4469
2026-01-19 11:39:54.80	235.39	22.98	-45.4	-46.7	20.4	0.00e+00	0	37	0	456130560	61	4421
2026-01-19 11:39:55.81	235.62	23.07	-45.6	-46.9	20.2	0.00e+00	0	37	0	458227712	61	4502
2026-01-19 11:39:56.82	235.85	23.15	-45.6	-46.9	20.3	0.00e+00	0	38	0	460324864	61	4513
2026-01-19 11:39:57.83	236.08	23.23	-45.7	-47.0	20.2	0.00e+00	0	37	0	462422016	62	4311
2026-01-19 11:39:58.84	236.32	23.32	-45.6	-46.9	20.3	0.00e+00	0	38	0	464519168	62	4252
2026-01-19 11:39:59.85	236.56	23.40	-45.6	-46.9	20.3	0.00e+00	0	38	0	465567744	62	4263
2026-01-19 11:40:00.86	236.79	23.48	-45.8	-47.1	20.1	0.00e+00	0	37	0	467664896	62	4355
2026-01-19 11:40:01.87	237.03	23.56	-45.7	-47.0	20.2	0.00e+00	0	37	0	469762048	62	4317
2026-01-19 11:40:02.87	237.27	23.64	-45.9	-47.3	19.9	0.00e+00	0	38	0	471859200	62	4456
2026-01-19 11:40:03.88	237.51	23.72	-45.9	-47.2	20.0	0.00e+00	0	37	0	473956352	62	4421
2026-01-19 11:40:04.89	237.75	23.81	-46.0	-47.4	19.8	0.00e+00	0	38	0	476053504	62	4510
2026-01-19 11:40:05.90	238.00	23.89	-45.9	-47.2	20.0	0.00e+00	0	37	0	477102080	62	4440
2026-01-19 11:40:06.90	238.24	23.97	-46.1	-47.4	19.8	0.00e+00	0	37	0	479199232	62	4541
2026-01-19 11:40:07.91	238.49	24.05	-46.1	-47.5	19.7	0.00e+00	0	37	0	481296384	63	4299
2026-01-19 11:40:08.92	238.73	24.13	-46.0	-47.4	19.8	0.00e+00	0	37	0	483393536	63	4248
2026-01-19 11:40:09.93	238.98	24.21	-46.1	-47.5	19.8	0.00e+00	0	38	0	484442112	63	4299
2026-01-19 11:40:10.94	239.23	24.29	-46.2	-47.6	19.6	0.00e+00	0	37	0	486539264	63	4375
2026-01-19 11:40:11.94	239.48	24.36	-46.1	-47.5	19.7	0.00e+00	0	38	0	488636416	63	4317
2026-01-19 11:40:12.95	239.73	24.44	-46.2	-47.6	19.6	0.00e+00	0	38	0	490733568	63	4348
2026-01-19 11:40:13.96	239.98	24.52	-46.0	-47.3	19.9	0.00e+00	0	38	0	492830720	63	4228
2026-01-19 11:40:14.97	240.24	24.60	-46.0	-47.3	19.8	0.00e+00	0	37	0	493879296	63	4235
2026-01-19 11:40:15.97	240.49	24.68	-46.0	-47.3	19.9	0.00e+00	0	38	0	495976448	63	4242
2026-01-19 11:40:16.98	240.75	24.75	-46.0	-47.4	19.9	0.00e+00	0	37	0	498073600	63	4250
2026-01-19 11:40:17.99	241.01	24.83	-46.1	-47.5	19.7	0.00e+00	0	38	0	500170752	63	4332
2026-01-19 11:40:19.00	241.27	24.91	-46.0	-47.4	19.8	0.00e+00	0	38	0	502267904	63	4258
2026-01-19 11:40:20.00	241.53	24.98	-46.0	-47.4	19.8	0.00e+00	0	38	0	504365056	63	4271
2026-01-19 11:40:21.01	241.79	25.06	-46.1	-47.5	19.8	0.00e+00	0	37	0	505413632	63	4299
2026-01-19 11:40:22.02	242.05	25.13	-46.1	-47.5	19.7	0.00e+00	0	37	0	507510784	63	4333
2026-01-19 11:40:23.03	242.32	25.21	-46.0	-47.3	19.9	0.00e+00	0	38	0	509607936	63	4237
2026-01-19 11:40:24.03	242.58	25.28	-46.0	-47.4	19.8	0.00e+00	0	38	0	511705088	63	4266
2026-01-19 11:40:25.04	242.85	25.36	-46.1	-47.5	19.8	0.00e+00	0	37	0	512753664	63	4302
2026-01-19 11:40:26.05	243.11	25.43	-46.1	-47.4	19.8	0.00e+00	0	37	0	514850816	63	4290
2026-01-19 11:40:27.06	243.38	25.50	-46.0	-47.4	19.9	0.00e+00	0	38	0	516947968	63	4249
2026-01-19 11:40:28.06	243.65	25.58	-45.9	-47.2	20.0	0.00e+00	0	38	0	519045120	63	4170
2026-01-19 11:40:29.07	243.92	25.65	-46.1	-47.5	19.8	0.00e+00	0	37	0	521142272	63	4295
2026-01-19 11:40:30.08	244.20	25.72	-46.2	-47.6	19.7	0.00e+00	0	38	0	523239424	63	4353
2026-01-19 11:40:31.09	244.47	25.79	-46.0	-47.4	19.8	0.00e+00	0	38	0	524288000	63	4252
2026-01-19 11:40:32.09	244.74	25.86	-46.3	-47.7	19.6	0.00e+00	0	38	0	526385152	63	4413
2026-01-19 11:40:33.10	245.02	25.93	-46.4	-47.8	19.4	0.00e+00	0	38	0	528482304	63	4476
2026-01-19 11:40:34.11	245.30	26.00	-46.3	-47.8	19.5	0.00e+00	0	37	0	530579456	63	4449
2026-01-19 11:40:35.11	245.57	26.07	-46.3	-47.7	19.6	0.00e+00	0	38	0	532676608	63	4437
2026-01-19 11:40:36.12	245.85	26.14	-46.1	-47.5	19.8	0.00e+00	0	37	0	533725184	63	4305
2026-01-19 11:40:37.13	246.13	26.21	-46.1	-47.5	19.8	0.00e+00	0	38	0	535822336	63	4302
2026-01-19 11:40:38.13	246.41	26.28	-46.3	-47.7	19.6	0.00e+00	0	37	0	537919488	63	4414
2026-01-19 11:40:39.14	246.70	26.34	-46.6	-48.1	19.2	0.00e+00	0	37	0	540016640	63	4641
2026-01-19 11:40:40.15	246.98	26.41	-46.9	-48.6	18.7	0.00e+00	0	38	0	541065216	64	4623
2026-01-19 11:40:41.16	247.27	26.48	-47.0	-48.7	18.6	0.00e+00	0	38	0	543162368	64	4690
2026-01-19 11:40:42.16	247.55	26.54	-46.9	-48.5	18.7	0.00e+00	0	38	0	545259520	64	4592
2026-01-19 11:40:43.17	247.84	26.60	-46.6	-48.2	19.1	0.00e+00	0	38	0	547356672	64	4404
2026-01-19 11:40:44.18	248.13	26.67	-46.0	-47.4	19.8	0.00e+00	0	37	0	549453824	64	4031
2026-01-19 11:40:45.19	248.42	26.73	-46.0	-47.4	19.8	0.00e+00	0	37	0	551550976	63	4273
2026-01-19 11:40:46.19	248.71	26.79	-46.1	-47.5	19.8	0.00e+00	0	37	0	552599552	63	4295
2026-01-19 11:40:47.20	249.00	26.86	-46.3	-47.7	19.6	0.00e+00	0	38	0	554696704	63	4434
2026-01-19 11:40:48.21	249.30	26.92	-46.6	-48.2	19.2	0.00e+00	0	38	0	556793856	63	4660
2026-01-19 11:40:49.22	249.59	26.98	-46.7	-48.3	18.9	0.00e+00	0	37	0	558891008	64	4480
2026-01-19 11:40:50.22	249.88	27.04	-46.9	-48.5	18.7	0.00e+00	0	38	0	560988160	64	4578
2026-01-19 11:40:51.23	250.18	27.10	-47.2	-48.9	18.4	0.00e+00	0	38	0	562036736	64	4770
2026-01-19 11:40:52.24	250.48	27.16	-47.1	-48.7	18.6	0.00e+00	0	37	0	564133888	64	4697
2026-01-19 11:40:53.25	250.78	27.22	-46.9	-48.5	18.7	0.00e+00	0	37	0	566231040	64	4588
2026-01-19 11:40:54.26	251.08	27.27	-46.6	-48.1	19.1	0.00e+00	0	37	0	568328192	64	4372
2026-01-19 11:40:55.26	251.38	27.33	-46.5	-48.0	19.2	0.00e+00	0	37	0	569376768	64	4323
2026-01-19 11:40:56.27	251.68	27.39	-46.3	-47.7	19.5	0.00e+00	0	37	0	571473920	64	4187
2026-01-19 11:40:57.28	251.98	27.44	-46.2	-47.6	19.6	0.00e+00	0	37	0	573571072	64	4124
2026-01-19 11:40:58.29	252.29	27.50	-46.1	-47.5	19.8	0.00e+00	0	38	0	575668224	63	4304
2026-01-19 11:40:59.30	252.59	27.55	-46.1	-47.5	19.7	0.00e+00	0	38	0	577765376	63	4319
2026-01-19 11:41:00.31	252.90	27.60	-46.2	-47.6	19.7	0.00e+00	0	37	0	579862528	63	4342
2026-01-19 11:41:01.31	253.20	27.66	-46.4	-47.9	19.4	0.00e+00	0	38	0	580911104	63	4497
2026-01-19 11:41:02.32	253.51	27.71	-46.6	-48.1	19.1	0.00e+00	0	37	0	583008256	64	4390
2026-01-19 11:41:03.33	253.82	27.76	-46.8	-48.4	18.9	0.00e+00	0	38	0	585105408	64	4519
2026-01-19 11:41:04.34	254.13	27.81	-47.0	-48.6	18.6	0.00e+00	0	37	0	587202560	64	4647
2026-01-19 11:41:05.35	254.44	27.86	-46.8	-48.3	18.9	0.00e+00	0	38	0	589299712	64	4474
2026-01-19 11:41:06.35	254.75	27.91	-46.5	-47.9	19.3	0.00e+00	0	38	0	590348288	64	4287
2026-01-19 11:41:07.36	255.07	27.95	-46.4	-47.9	19.3	0.00e+00	0	38	0	592445440	64	4273
2026-01-19 11:41:08.37	255.38	28.00	-46.6	-48.1	19.1	0.00e+00	0	38	0	594542592	64	4383
2026-01-19 11:41:09.37	255.69	28.05	-47.4	-49.1	18.2	0.00e+00	0	38	0	596639744	65	4646
2026-01-19 11:41:10.39	256.01	28.09	-48.0	-50.0	17.3	0.00e+00	0	37	0	598736896	66	4855
2026-01-19 11:41:11.39	256.32	28.14	-48.3	-50.4	16.9	0.00e+00	0	38	0	599785472	67	4795
2026-01-19 11:41:12.40	256.64	28.18	-48.5	-50.6	16.7	0.00e+00	0	38	0	601882624	67	4913
2026-01-19 11:41:13.41	256.96	28.22	-48.4	-50.5	16.9	0.00e+00	0	38	0	603979776	67	4831
2026-01-19 11:41:14.41	257.28	28.26	-48.2	-50.1	17.2	0.00e+00	0	38	0	606076928	67	4645
2026-01-19 11:41:15.42	257.60	28.30	-48.1	-50.0	17.4	0.00e+00	0	38	0	608174080	67	4581
2026-01-19 11:41:16.43	257.92	28.34	-48.5	-50.6	16.8	0.00e+00	0	38	0	609222656	67	4884
2026-01-19 11:41:17.43	258.24	28.38	-49.2	-51.6	15.9	0.00e+00	0	38	0	611319808	68	5192
2026-01-19 11:41:18.44	258.56	28.42	-49.2	-51.6	15.9	0.00e+00	0	37	0	613416960	69	4920
2026-01-19 11:41:19.45	258.88	28.46	-49.0	-51.3	16.2	0.00e+00	0	38	0	615514112	69	4754
2026-01-19 11:41:20.46	259.20	28.50	-48.8	-51.0	16.5	0.00e+00	0	38	0	617611264	69	4592
2026-01-19 11:41:21.46	259.53	28.53	-48.7	-50.9	16.6	0.00e+00	0	38	0	618659840	69	4504
2026-01-19 11:41:22.47	259.85	28.56	-49.1	-51.5	16.0	0.00e+00	0	38	0	620756992	69	4858
2026-01-19 11:41:23.48	260.18	28.60	-49.2	-51.6	15.9	0.00e+00	0	38	0	622854144	69	4912
2026-01-19 11:41:24.49	260.50	28.63	-49.1	-51.5	16.0	0.00e+00	0	37	0	624951296	69	4823
2026-01-19 11:41:25.49	260.83	28.66	-48.8	-51.0	16.5	0.00e+00	0	37	0	627048448	69	4585
2026-01-19 11:41:26.50	261.16	28.69	-48.2	-50.1	17.4	0.00e+00	0	38	0	628097024	68	4347
2026-01-19 11:41:27.51	261.48	28.72	-47.8	-49.6	17.9	0.00e+00	0	37	0	630194176	67	4351
2026-01-19 11:41:28.51	261.81	28.75	-47.9	-49.8	17.6	0.00e+00	0	38	0	632291328	67	4460
2026-01-19 11:41:29.52	262.14	28.78	-48.3	-50.3	17.1	0.00e+00	0	37	0	634388480	67	4744
2026-01-19 11:41:30.53	262.47	28.81	-48.6	-50.7	16.7	0.00e+00	0	38	0	636485632	67	4953
2026-01-19 11:41:31.54	262.80	28.83	-48.4	-50.4	17.0	0.00e+00	0	38	0	637534208	67	4799
2026-01-19 11:41:32.55	263.13	28.86	-47.9	-49.8	17.5	0.00e+00	0	38	0	639631360	67	4460
2026-01-19 11:41:33.55	263.46	28.88	-47.6	-49.4	18.0	0.00e+00	0	37	0	641728512	67	4246
2026-01-19 11:41:34.56	263.79	28.90	-47.5	-49.3	18.1	0.00e+00	0	38	0	643825664	66	4454
2026-01-19 11:41:35.57	264.12	28.92	-47.9	-49.8	17.7	0.00e+00	0	38	0	645922816	66	4735
2026-01-19 11:41:36.58	264.46	28.95	-48.0	-49.9	17.4	0.00e+00	0	38	0	646971392	66	4812
2026-01-19 11:41:37.58	264.79	28.96	-47.8	-49.7	17.6	0.00e+00	0	38	0	649068544	66	4672
2026-01-19 11:41:38.59	265.12	28.98	-47.4	-49.1	18.2	0.00e+00	0	38	0	651165696	66	4372
2026-01-19 11:41:39.59	265.45	29.00	-47.1	-48.7	18.6	0.00e+00	0	38	0	653262848	66	4179
2026-01-19 11:41:40.60	265.78	29.02	-46.8	-48.3	18.9	0.00e+00	0	38	0	655360000	65	4233
2026-01-19 11:41:41.61	266.12	29.03	-47.0	-48.7	18.7	0.00e+00	0	38	0	656408576	65	4396
2026-01-19 11:41:42.62	266.45	29.05	-47.1	-48.7	18.7	0.00e+00	0	38	0	658505728	65	4409
2026-01-19 11:41:43.63	266.79	29.06	-47.1	-48.7	18.6	0.00e+00	0	38	0	660602880	65	4440
2026-01-19 11:41:44.63	267.12	29.07	-46.9	-48.5	18.8	0.00e+00	0	38	0	662700032	65	4313
2026-01-19 11:41:45.64	267.46	29.09	-46.7	-48.2	19.1	0.00e+00	0	38	0	664797184	65	4185
2026-01-19 11:41:46.65	267.79	29.10	-46.7	-48.3	19.1	0.00e+00	0	38	0	665845760	65	4201
2026-01-19 11:41:47.66	268.13	29.11	-46.9	-48.6	18.8	0.00e+00	0	38	0	667942912	65	4341
2026-01-19 11:41:48.66	268.46	29.11	-47.0	-48.6	18.7	0.00e+00	0	38	0	670040064	65	4382
2026-01-19 11:41:49.67	268.80	29.12	-47.1	-48.7	18.6	0.00e+00	0	38	0	672137216	65	4423
2026-01-19 11:41:50.68	269.14	29.13	-47.3	-49.0	18.3	0.00e+00	0	38	0	674234368	65	4594
2026-01-19 11:41:51.69	269.47	29.13	-47.2	-48.9	18.5	0.00e+00	0	38	0	676331520	65	4502
2026-01-19 11:41:52.69	269.81	29.14	-47.3	-49.0	18.4	0.00e+00	0	38	0	677380096	65	4583
2026-01-19 11:41:53.70	270.14	29.14	-47.1	-48.7	18.6	0.00e+00	0	38	0	679477248	65	4436
2026-01-19 11:41:54.71	270.48	29.14	-47.1	-48.8	18.6	0.00e+00	0	38	0	681574400	65	4449
2026-01-19 11:41:55.71	270.81	29.14	-47.3	-49.0	18.3	0.00e+00	0	38	0	683671552	65	4551
2026-01-19 11:41:56.72	271.15	29.14	-47.4	-49.1	18.3	0.00e+00	0	38	0	684720128	65	4644
2026-01-19 11:41:57.72	271.48	29.14	-47.4	-49.1	18.3	0.00e+00	0	38	0	686817280	65	4605
2026-01-19 11:41:58.73	271.82	29.14	-47.2	-48.9	18.5	0.00e+00	0	38	0	688914432	65	4497
2026-01-19 11:41:59.74	272.16	29.14	-47.0	-48.6	18.8	0.00e+00	0	38	0	691011584	65	4346
2026-01-19 11:42:00.74	272.49	29.13	-46.8	-48.3	19.0	0.00e+00	0	37	0	693108736	65	4240
2026-01-19 11:42:01.75	272.83	29.13	-47.0	-48.6	18.8	0.00e+00	0	38	0	694157312	65	4349
2026-01-19 11:42:02.76	273.16	29.12	-47.6	-49.4	18.0	0.00e+00	0	38	0	696254464	65	4774
2026-01-19 11:42:03.77	273.50	29.11	-48.2	-50.2	17.3	0.00e+00	0	38	0	698351616	66	4954
2026-01-19 11:42:04.78	273.84	29.11	-48.3	-50.3	17.1	0.00e+00	0	38	0	700448768	67	4737
2026-01-19 11:42:05.79	274.17	29.10	-48.4	-50.4	17.0	0.00e+00	0	37	0	702545920	67	4792
2026-01-19 11:42:06.79	274.51	29.09	-48.4	-50.4	17.0	0.00e+00	0	38	0	704643072	67	4807
2026-01-19 11:42:07.80	274.84	29.07	-48.7	-50.8	16.6	0.00e+00	0	38	0	705691648	67	5034
2026-01-19 11:42:08.81	275.18	29.06	-48.6	-50.8	16.7	0.00e+00	0	38	0	707788800	67	4990
2026-01-19 11:42:09.82	275.51	29.05	-48.4	-50.5	17.0	0.00e+00	0	37	0	709885952	67	4835
2026-01-19 11:42:10.83	275.85	29.03	-48.2	-50.1	17.3	0.00e+00	0	38	0	711983104	67	4642
2026-01-19 11:42:11.84	276.18	29.02	-47.5	-49.2	18.2	0.00e+00	0	38	0	713031680	67	4193
2026-01-19 11:42:12.84	276.51	29.00	-47.2	-48.8	18.7	0.00e+00	0	38	0	715128832	66	4196
2026-01-19 11:42:13.86	276.85	28.98	-47.1	-48.7	18.6	0.00e+00	0	38	0	717225984	65	4428
2026-01-19 11:42:14.87	277.18	28.96	-47.6	-49.3	18.1	0.00e+00	0	38	0	719323136	65	4733
2026-01-19 11:42:15.87	277.51	28.94	-48.1	-50.0	17.5	0.00e+00	0	38	0	721420288	66	4835
2026-01-19 11:42:16.88	277.84	28.92	-48.4	-50.4	17.1	0.00e+00	0	38	0	723517440	67	4782
2026-01-19 11:42:17.89	278.18	28.90	-48.6	-50.7	16.8	0.00e+00	0	38	0	724566016	67	4953
2026-01-19 11:42:18.90	278.51	28.88	-48.6	-50.8	16.8	0.00e+00	0	38	0	726663168	67	4996
2026-01-19 11:42:19.90	278.84	28.86	-48.8	-51.0	16.6	0.00e+00	0	38	0	728760320	68	4862
2026-01-19 11:42:20.91	279.17	28.83	-48.9	-51.2	16.5	0.00e+00	0	38	0	730857472	68	4937
2026-01-19 11:42:21.92	279.50	28.80	-48.9	-51.2	16.4	0.00e+00	0	38	0	732954624	68	4953
2026-01-19 11:42:22.93	279.83	28.78	-48.7	-50.9	16.5	0.00e+00	0	38	0	734003200	68	4791
2026-01-19 11:42:23.94	280.15	28.75	-48.6	-50.6	16.9	0.00e+00	0	38	0	736100352	68	4651
2026-01-19 11:42:24.95	280.48	28.72	-48.4	-50.5	17.1	0.00e+00	0	38	0	738197504	68	4546
2026-01-19 11:42:25.95	280.81	28.69	-48.7	-50.8	16.9	0.00e+00	0	37	0	740294656	68	4726
2026-01-19 11:42:26.96	281.14	28.66	-49.0	-51.3	16.3	0.00e+00	0	37	0	741343232	68	5038
2026-01-19 11:42:27.97	281.46	28.63	-49.8	-52.6	15.1	0.00e+00	0	38	0	743440384	70	5178
2026-01-19 11:42:28.97	281.78	28.60	-50.6	-54.0	13.7	0.00e+00	0	38	0	745537536	71	5724
2026-01-19 11:42:29.98	282.11	28.56	-50.6	-54.0	13.7	5.30e-06	0	38	0	747634688	71	5727
2026-01-19 11:42:30.99	282.43	28.53	-50.7	-54.2	13.2	6.80e-06	0	38	0	749731840	72	5570
2026-01-19 11:42:32.00	282.76	28.49	-50.0	-52.8	14.8	0.00e+00	0	38	0	751828992	71	5003
2026-01-19 11:42:33.01	283.08	28.46	-49.6	-52.2	15.4	0.00e+00	0	38	0	752877568	71	4689
2026-01-19 11:42:34.01	283.40	28.42	-49.5	-52.0	15.7	0.00e+00	0	38	0	754974720	70	4838
2026-01-19 11:42:35.02	283.72	28.38	-49.4	-51.8	15.9	0.00e+00	0	38	0	757071872	70	4713
2026-01-19 11:42:36.03	284.04	28.34	-49.2	-51.5	16.1	0.00e+00	0	38	0	759169024	70	4559
2026-01-19 11:42:37.04	284.36	28.30	-48.6	-50.6	16.9	0.00e+00	0	38	0	761266176	69	4371
2026-01-19 11:42:38.05	284.68	28.26	-48.0	-49.8	17.8	0.00e+00	0	38	0	762314752	68	4211
2026-01-19 11:42:39.05	285.00	28.22	-47.7	-49.4	18.0	0.00e+00	0	37	0	764411904	67	4288
2026-01-19 11:42:40.06	285.32	28.18	-48.0	-49.9	17.6	0.00e+00	0	37	0	766509056	67	4520
2026-01-19 11:42:41.07	285.63	28.14	-48.4	-50.4	17.1	0.00e+00	0	38	0	768606208	67	4782
2026-01-19 11:42:42.08	285.95	28.09	-48.7	-50.9	16.8	0.00e+00	0	38	0	769654784	68	4773
2026-01-19 11:42:43.09	286.27	28.05	-48.3	-50.2	17.4	0.00e+00	0	38	0	771751936	68	4419
2026-01-19 11:42:44.09	286.58	28.00	-47.8	-49.6	17.8	0.00e+00	0	38	0	773849088	67	4388
2026-01-19 11:42:45.10	286.89	27.95	-47.8	-49.5	17.9	0.00e+00	0	38	0	775946240	67	4339
2026-01-19 11:42:46.11	287.20	27.91	-47.8	-49.6	17.8	0.00e+00	0	37	0	778043392	67	4387
2026-01-19 11:42:47.11	287.51	27.86	-48.1	-50.0	17.6	0.00e+00	0	38	0	780140544	67	4563
2026-01-19 11:42:48.12	287.82	27.81	-48.0	-49.9	17.6	0.00e+00	0	38	0	781189120	67	4521
2026-01-19 11:42:49.13	288.13	27.76	-47.9	-49.7	17.8	0.00e+00	0	38	0	783286272	67	4410
2026-01-19 11:42:50.14	288.44	27.71	-47.4	-49.1	18.4	0.00e+00	0	38	0	785383424	66	4360
2026-01-19 11:42:51.15	288.75	27.66	-47.4	-49.1	18.4	0.00e+00	0	38	0	787480576	66	4343
2026-01-19 11:42:52.15	289.05	27.61	-47.2	-48.8	18.6	0.00e+00	0	38	0	789577728	66	4240
2026-01-19 11:42:53.16	289.36	27.55	-47.4	-49.0	18.5	0.00e+00	0	38	0	790626304	66	4318
2026-01-19 11:42:54.17	289.66	27.50	-47.8	-49.6	17.9	0.00e+00	0	37	0	792723456	66	4616
2026-01-19 11:42:55.17	289.96	27.44	-48.2	-50.2	17.3	0.00e+00	0	38	0	794820608	67	4653
2026-01-19 11:42:56.18	290.27	27.39	-48.3	-50.3	17.2	0.00e+00	0	37	0	796917760	67	4744
2026-01-19 11:42:57.19	290.57	27.33	-48.2	-50.1	17.3	0.00e+00	0	38	0	799014912	67	4636
2026-01-19 11:42:58.20	290.87	27.28	-47.5	-49.2	18.2	0.00e+00	0	37	0	800063488	67	4191
2026-01-19 11:42:59.21	291.17	27.22	-46.9	-48.5	18.9	0.00e+00	0	38	0	802160640	65	4312
2026-01-19 11:43:00.21	291.46	27.16	-46.8	-48.3	19.1	0.00e+00	0	38	0	804257792	65	4223
2026-01-19 11:43:01.22	291.76	27.10	-46.8	-48.4	19.1	0.00e+00	0	38	0	806354944	65	4244
2026-01-19 11:43:02.23	292.06	27.04	-47.1	-48.6	18.8	0.00e+00	0	37	0	808452096	65	4383
2026-01-19 11:43:03.24	292.35	26.98	-47.2	-48.9	18.6	0.00e+00	0	38	0	809500672	65	4502
2026-01-19 11:43:04.24	292.64	26.92	-47.0	-48.6	18.9	0.00e+00	0	38	0	811597824	65	4362
2026-01-19 11:43:05.25	292.94	26.86	-46.9	-48.5	19.0	0.00e+00	0	38	0	813694976	65	4299
2026-01-19 11:43:06.26	293.23	26.80	-46.8	-48.3	19.2	0.00e+00	0	38	0	815792128	65	4201
2026-01-19 11:43:07.27	293.52	26.74	-46.9	-48.4	19.1	0.00e+00	0	38	0	817889280	65	4263
2026-01-19 11:43:08.27	293.81	26.67	-47.0	-48.5	19.0	0.00e+00	0	38	0	818937856	65	4318
2026-01-19 11:43:09.28	294.09	26.61	-46.7	-48.2	19.3	0.00e+00	0	37	0	821035008	65	4157
2026-01-19 11:43:10.29	294.38	26.55	-46.7	-48.2	19.3	0.00e+00	0	38	0	823132160	65	4163
2026-01-19 11:43:11.30	294.67	26.48	-46.6	-48.0	19.4	0.00e+00	0	38	0	825229312	64	4318
2026-01-19 11:43:12.31	294.95	26.41	-46.4	-47.9	19.5	0.00e+00	0	38	0	827326464	64	4257
2026-01-19 11:43:13.31	295.23	26.35	-46.3	-47.8	19.6	0.00e+00	0	37	0	828375040	64	4197
2026-01-19 11:43:14.32	295.52	26.28	-46.3	-47.7	19.7	0.00e+00	0	37	0	830472192	64	4180
2026-01-19 11:43:15.33	295.80	26.21	-46.4	-47.8	19.6	0.00e+00	0	37	0	832569344	64	4220
2026-01-19 11:43:16.34	296.08	26.15	-46.7	-48.2	19.2	0.00e+00	0	37	0	834666496	64	4428
2026-01-19 11:43:17.35	296.36	26.08	-46.7	-48.2	19.3	0.00e+00	0	37	0	836763648	64	4399
2026-01-19 11:43:18.35	296.63	26.01	-46.9	-48.4	19.0	0.00e+00	0	38	0	837812224	64	4518
2026-01-19 11:43:19.36	296.91	25.94	-46.9	-48.4	19.1	0.00e+00	0	38	0	839909376	64	4514
2026-01-19 11:43:20.37	297.19	25.87	-46.6	-48.1	19.3	0.00e+00	0	38	0	842006528	64	4363
2026-01-19 11:43:21.37	297.46	25.80	-46.7	-48.2	19.2	0.00e+00	0	38	0	844103680	64	4431
2026-01-19 11:43:22.38	297.73	25.73	-46.9	-48.5	19.0	0.00e+00	0	38	0	846200832	64	4566
2026-01-19 11:43:23.39	298.00	25.66	-46.7	-48.2	19.2	0.00e+00	0	38	0	847249408	64	4430
2026-01-19 11:43:24.40	298.27	25.59	-46.5	-48.0	19.4	0.00e+00	0	38	0	849346560	64	4315
2026-01-19 11:43:25.41	298.54	25.51	-46.4	-47.8	19.6	0.00e+00	0	38	0	851443712	64	4200
2026-01-19 11:43:26.41	298.81	25.44	-46.2	-47.6	19.8	0.00e+00	0	38	0	853540864	64	4101
2026-01-19 11:43:27.42	299.08	25.37	-45.7	-47.0	20.4	0.00e+00	0	38	0	855638016	63	4055
2026-01-19 11:43:28.43	299.34	25.29	-45.7	-46.9	20.4	0.00e+00	0	37	0	856686592	63	4049
2026-01-19 11:43:29.44	299.61	25.22	-46.2	-47.5	20.0	0.00e+00	0	38	0	858783744	63	4322
2026-01-19 11:43:30.45	299.87	25.15	-46.4	-47.8	19.7	0.00e+00	0	38	0	860880896	63	4486
2026-01-19 11:43:31.45	300.13	25.07	-46.9	-48.5	19.0	0.00e+00	0	38	0	862978048	64	4554
2026-01-19 11:43:32.46	300.39	25.00	-47.0	-48.6	18.9	0.00e+00	0	38	0	865075200	64	4624
2026-01-19 11:43:33.47	300.65	24.92	-47.1	-48.7	18.8	0.00e+00	0	37	0	866123776	64	4676
2026-01-19 11:43:34.48	300.91	24.84	-46.9	-48.4	19.1	0.00e+00	0	37	0	868220928	64	4523
2026-01-19 11:43:35.49	301.17	24.77	-46.6	-48.0	19.3	0.00e+00	0	38	0	870318080	64	4332
2026-01-19 11:43:36.50	301.42	24.69	-46.5	-47.9	19.4	0.00e+00	0	37	0	872415232	64	4287
2026-01-19 11:43:37.51	301.68	24.61	-46.0	-47.3	20.1	0.00e+00	0	38	0	874512384	63	4238
2026-01-19 11:43:38.51	301.93	24.54	-46.1	-47.5	20.0	0.00e+00	0	37	0	875560960	63	4308
2026-01-19 11:43:39.52	302.18	24.46	-46.0	-47.4	20.0	0.00e+00	0	38	0	877658112	63	4261
2026-01-19 11:43:40.53	302.43	24.38	-45.9	-47.2	20.2	0.00e+00	0	38	0	879755264	63	4173
2026-01-19 11:43:41.54	302.68	24.30	-45.8	-47.1	20.3	0.00e+00	0	38	0	881852416	63	4124
2026-01-19 11:43:42.55	302.93	24.22	-45.7	-46.9	20.5	0.00e+00	0	38	0	883949568	63	4044
2026-01-19 11:43:43.56	303.18	24.14	-45.5	-46.8	20.6	0.00e+00	0	38	0	884998144	63	3967
2026-01-19 11:43:44.56	303.43	24.06	-45.4	-46.7	20.7	0.00e+00	0	38	0	887095296	62	4146
2026-01-19 11:43:45.57	303.67	23.98	-45.6	-46.8	20.5	0.00e+00	0	37	0	889192448	62	4240
2026-01-19 11:43:46.58	303.91	23.90	-45.7	-47.0	20.4	0.00e+00	0	38	0	891289600	62	4311
2026-01-19 11:43:47.58	304.15	23.82	-46.0	-47.4	20.1	0.00e+00	0	37	0	893386752	62	4515
2026-01-19 11:43:48.59	304.40	23.74	-46.2	-47.6	19.9	0.00e+00	0	37	0	895483904	63	4366
2026-01-19 11:43:49.60	304.64	23.66	-46.3	-47.6	19.8	0.00e+00	0	38	0	896532480	63	4386
2026-01-19 11:43:50.61	304.88	23.58	-46.3	-47.7	19.8	0.00e+00	0	38	0	898629632	63	4406
2026-01-19 11:43:51.62	305.11	23.50	-46.0	-47.3	20.1	0.00e+00	0	38	0	900726784	63	4204
2026-01-19 11:43:52.63	305.35	23.42	-45.5	-46.8	20.6	0.00e+00	0	38	0	902823936	63	3961
2026-01-19 11:43:53.63	305.58	23.34	-45.5	-46.8	20.6	0.00e+00	0	38	0	903872512	62	4200
2026-01-19 11:43:54.64	305.82	23.25	-45.4	-46.6	20.7	0.00e+00	0	37	0	905969664	62	4139
2026-01-19 11:43:55.65	306.05	23.17	-45.7	-47.0	20.4	0.00e+00	0	37	0	908066816	62	4304
2026-01-19 11:43:56.66	306.28	23.09	-46.0	-47.3	20.1	0.00e+00	0	38	0	910163968	62	4486
2026-01-19 11:43:57.67	306.51	23.01	-46.3	-47.7	19.7	0.00e+00	0	38	0	912261120	63	4439
2026-01-19 11:43:58.68	306.74	22.92	-46.4	-47.8	19.7	0.00e+00	0	38	0	913309696	63	4453
2026-01-19 11:43:59.68	306.97	22.84	-46.2	-47.6	19.9	0.00e+00	0	38	0	915406848	63	4347
2026-01-19 11:44:00.69	307.20	22.76	-46.1	-47.4	20.0	0.00e+00	0	38	0	917504000	63	4277
2026-01-19 11:44:01.70	307.42	22.68	-45.9	-47.2	20.2	0.00e+00	0	38	0	919601152	63	4177
2026-01-19 11:44:02.71	307.65	22.59	-46.0	-47.4	20.1	0.00e+00	0	38	0	921698304	63	4255
2026-01-19 11:44:03.71	307.87	22.51	-46.1	-47.4	20.0	0.00e+00	0	38	0	923795456	63	4284
2026-01-19 11:44:04.72	308.09	22.42	-46.6	-48.1	19.4	0.00e+00	0	38	0	924844032	63	4599
2026-01-19 11:44:05.73	308.31	22.34	-46.8	-48.4	19.1	0.00e+00	0	38	0	926941184	64	4494
2026-01-19 11:44:06.74	308.53	22.26	-46.9	-48.5	18.9	0.00e+00	0	38	0	929038336	64	4546
2026-01-19 11:44:07.74	308.75	22.17	-46.7	-48.2	19.2	0.00e+00	0	38	0	931135488	64	4404
2026-01-19 11:44:08.75	308.97	22.09	-46.3	-47.7	19.6	0.00e+00	0	38	0	932184064	64	4169
2026-01-19 11:44:09.76	309.18	22.00	-46.0	-47.3	20.1	0.00e+00	0	37	0	934281216	63	4233
2026-01-19 11:44:10.77	309.40	21.92	-45.8	-47.1	20.3	0.00e+00	0	38	0	936378368	63	4103
2026-01-19 11:44:11.77	309.61	21.83	-45.6	-46.8	20.5	0.00e+00	0	38	0	938475520	63	3998
2026-01-19 11:44:12.78	309.82	21.75	-46.0	-47.3	20.1	0.00e+00	0	37	0	940572672	63	4231
2026-01-19 11:44:13.79	310.04	21.66	-46.1	-47.4	20.0	0.00e+00	0	38	0	942669824	63	4291
2026-01-19 11:44:14.80	310.25	21.58	-46.5	-47.9	19.5	0.00e+00	0	38	0	943718400	63	4521
2026-01-19 11:44:15.81	310.46	21.49	-46.6	-48.1	19.3	0.00e+00	0	37	0	945815552	63	4625
2026-01-19 11:44:16.82	310.66	21.41	-46.6	-48.1	19.4	0.00e+00	0	37	0	947912704	63	4612
2026-01-19 11:44:17.83	310.87	21.32	-46.5	-47.9	19.6	0.00e+00	0	37	0	950009856	63	4515
2026-01-19 11:44:18.83	311.08	21.24	-46.2	-47.6	19.8	0.00e+00	0	38	0	952107008	63	4349
2026-01-19 11:44:19.84	311.28	21.15	-46.1	-47.5	20.0	0.00e+00	0	38	0	953155584	63	4299
2026-01-19 11:44:20.85	311.49	21.07	-46.6	-48.1	19.4	0.00e+00	0	37	0	955252736	63	4618
2026-01-19 11:44:21.86	311.69	20.98	-46.8	-48.3	19.1	0.00e+00	0	38	0	957349888	64	4472
2026-01-19 11:44:22.86	311.89	20.90	-47.1	-48.8	18.6	0.00e+00	0	38	0	959447040	64	4725
2026-01-19 11:44:23.87	312.09	20.81	-47.0	-48.6	18.8	0.00e+00	0	38	0	960495616	65	4366
2026-01-19 11:44:24.87	312.29	20.72	-46.8	-48.3	19.0	0.00e+00	0	37	0	962592768	65	4233
2026-01-19 11:44:25.88	312.49	20.64	-46.6	-48.1	19.2	0.00e+00	0	38	0	964689920	65	4121
2026-01-19 11:44:26.89	312.68	20.55	-46.1	-47.5	19.8	0.00e+00	0	38	0	966787072	64	4079
2026-01-19 11:44:27.90	312.88	20.47	-45.9	-47.2	20.2	0.00e+00	0	38	0	968884224	63	4151
2026-01-19 11:44:28.91	313.08	20.38	-45.5	-46.8	20.6	0.00e+00	0	37	0	970981376	63	3961
2026-01-19 11:44:29.91	313.27	20.29	-45.6	-46.9	20.4	0.00e+00	0	38	0	972029952	62	4268
2026-01-19 11:44:30.92	313.46	20.21	-46.0	-47.3	20.0	0.00e+00	0	38	0	974127104	62	4484
2026-01-19 11:44:31.93	313.65	20.12	-46.4	-47.9	19.6	0.00e+00	0	38	0	976224256	63	4494
2026-01-19 11:44:32.93	313.84	20.04	-46.9	-48.5	18.9	0.00e+00	0	38	0	978321408	64	4566
2026-01-19 11:44:33.94	314.03	19.95	-47.2	-48.8	18.6	0.00e+00	0	37	0	980418560	64	4732
2026-01-19 11:44:34.95	314.22	19.86	-47.2	-48.9	18.4	0.00e+00	0	38	0	981467136	65	4519
2026-01-19 11:44:35.96	314.41	19.78	-46.9	-48.5	18.8	0.00e+00	0	38	0	983564288	65	4338
2026-01-19 11:44:36.96	314.60	19.69	-46.9	-48.5	18.8	0.00e+00	0	38	0	985661440	65	4293
2026-01-19 11:44:37.97	314.78	19.61	-46.6	-48.1	19.2	0.00e+00	0	38	0	987758592	65	4105
2026-01-19 11:44:38.98	314.97	19.52	-46.4	-47.9	19.4	0.00e+00	0	38	0	989855744	64	4245
2026-01-19 11:44:39.99	315.15	19.43	-46.4	-47.9	19.4	0.00e+00	0	38	0	990904320	64	4253
2026-01-19 11:44:41.00	315.33	19.35	-46.5	-48.0	19.3	0.00e+00	0	38	0	993001472	64	4327
2026-01-19 11:44:42.01	315.52	19.26	-46.7	-48.2	19.1	0.00e+00	0	38	0	995098624	64	4418
2026-01-19 11:44:43.01	315.70	19.18	-46.6	-48.1	19.1	0.00e+00	0	38	0	997195776	64	4388
2026-01-19 11:44:44.02	315.88	19.09	-46.4	-47.8	19.5	0.00e+00	0	37	0	999292928	64	4221
2026-01-19 11:44:45.03	316.05	19.00	-46.0	-47.4	19.8	0.00e+00	0	38	0	1000341504	64	4049
2026-01-19 11:44:46.04	316.23	18.92	-45.8	-47.1	20.2	0.00e+00	0	38	0	1002438656	63	4137
2026-01-19 11:44:47.05	316.41	18.83	-45.6	-46.9	20.4	0.00e+00	0	38	0	1004535808	63	4006
2026-01-19 11:44:48.05	316.58	18.75	-45.5	-46.8	20.4	0.00e+00	0	38	0	1006632960	63	3990
2026-01-19 11:44:49.06	316.76	18.66	-45.6	-46.8	20.4	0.00e+00	0	38	0	1008730112	63	4004
2026-01-19 11:44:50.07	316.93	18.58	-45.6	-46.8	20.4	0.00e+00	0	38	0	1009778688	63	4002
2026-01-19 11:44:51.08	317.11	18.49	-45.8	-47.1	20.1	0.00e+00	0	38	0	1011875840	63	4120
2026-01-19 11:44:52.08	317.28	18.40	-45.9	-47.3	20.0	0.00e+00	0	38	0	1013972992	63	4218
2026-01-19 11:44:53.09	317.45	18.32	-46.0	-47.4	19.8	0.00e+00	0	37	0	1016070144	63	4268
2026-01-19 11:44:54.10	317.62	18.23	-46.1	-47.5	19.8	0.00e+00	0	38	0	1018167296	63	4304
2026-01-19 11:44:55.11	317.79	18.15	-46.1	-47.5	19.7	0.00e+00	0	38	0	1019215872	63	4327
2026-01-19 11:44:56.12	317.96	18.06	-46.2	-47.6	19.7	0.00e+00	0	38	0	1021313024	63	4354
2026-01-19 11:44:57.12	318.12	17.98	-46.1	-47.5	19.7	0.00e+00	0	38	0	1023410176	63	4308
2026-01-19 11:44:58.13	318.29	17.89	-46.3	-47.7	19.6	0.00e+00	0	37	0	1025507328	63	4403
2026-01-19 11:44:59.14	318.46	17.81	-46.4	-47.9	19.4	0.00e+00	0	38	0	1027604480	63	4497
2026-01-19 11:45:00.15	318.62	17.72	-46.6	-48.1	19.2	0.00e+00	0	38	0	1028653056	63	4631
2026-01-19 11:45:01.15	318.78	17.64	-46.8	-48.4	18.8	0.00e+00	0	38	0	1030750208	64	4519
2026-01-19 11:45:02.16	318.95	17.55	-47.0	-48.7	18.5	0.00e+00	0	38	0	1032847360	64	4681
2026-01-19 11:45:03.17	319.11	17.47	-47.3	-49.0	18.3	0.00e+00	0	37	0	1034944512	65	4560
2026-01-19 11:45:04.17	319.27	17.38	-47.3	-49.0	18.2	0.00e+00	0	38	0	1037041664	65	4587
2026-01-19 11:45:05.18	319.43	17.30	-47.0	-48.7	18.5	0.00e+00	0	38	0	1039138816	65	4421
2026-01-19 11:45:06.19	319.59	17.21	-46.8	-48.4	18.8	0.00e+00	0	38	0	1040187392	65	4269
2026-01-19 11:45:07.20	319.75	17.13	-46.7	-48.3	19.0	0.00e+00	0	38	0	1042284544	65	4198
2026-01-19 11:45:08.21	319.91	17.04	-46.4	-47.9	19.3	0.00e+00	0	38	0	1044381696	64	4246
2026-01-19 11:45:09.21	320.06	16.96	-46.2	-47.6	19.5	0.00e+00	0	38	0	1046478848	64	4118
2026-01-19 11:45:10.22	320.22	16.88	-46.0	-47.4	19.8	0.00e+00	0	38	0	1047527424	63	4243
2026-01-19 11:45:11.23	320.37	16.79	-46.0	-47.4	19.7	0.00e+00	0	38	0	1049624576	63	4284
2026-01-19 11:45:12.24	320.53	16.71	-46.0	-47.4	19.8	0.00e+00	0	37	0	1051721728	63	4276
2026-01-19 11:45:13.25	320.68	16.62	-45.9	-47.3	19.9	0.00e+00	0	37	0	1053818880	63	4214
2026-01-19 11:45:14.26	320.83	16.54	-45.9	-47.2	19.9	0.00e+00	0	38	0	1055916032	63	4178
2026-01-19 11:45:15.27	320.99	16.46	-46.0	-47.4	19.8	0.00e+00	0	38	0	1056964608	63	4246
2026-01-19 11:45:16.27	321.14	16.37	-45.7	-47.1	20.1	0.00e+00	0	38	0	1059061760	63	4113
2026-01-19 11:45:17.28	321.29	16.29	-45.5	-46.8	20.3	0.00e+00	0	38	0	1061158912	63	3991
2026-01-19 11:45:18.29	321.44	16.21	-45.6	-46.8	20.3	0.00e+00	0	37	0	1063256064	62	4242
2026-01-19 11:45:19.30	321.58	16.12	-45.4	-46.6	20.5	0.00e+00	0	38	0	1065353216	62	4134
2026-01-19 11:45:20.30	321.73	16.04	-45.4	-46.7	20.4	0.00e+00	0	38	0	1067450368	62	4155
2026-01-19 11:45:21.31	321.88	15.96	-45.5	-46.8	20.3	0.00e+00	0	38	0	1068498944	62	4231
2026-01-19 11:45:22.32	322.03	15.87	-45.6	-46.9	20.2	0.00e+00	0	38	0	1070596096	62	4276
2026-01-19 11:45:23.33	322.17	15.79	-45.8	-47.2	19.9	0.00e+00	0	38	0	1072693248	62	4403
2026-01-19 11:45:24.34	322.32	15.71	-46.0	-47.4	19.7	0.00e+00	0	38	0	1074790400	62	4530
2026-01-19 11:45:25.35	322.46	15.62	-46.2	-47.6	19.6	0.00e+00	0	38	0	1075838976	62	4614
2026-01-19 11:45:26.35	322.60	15.54	-46.5	-47.9	19.3	0.00e+00	0	38	0	1077936128	63	4543
2026-01-19 11:45:27.36	322.74	15.46	-46.5	-48.0	19.1	0.00e+00	0	37	0	1080033280	63	4593
2026-01-19 11:45:28.37	322.89	15.38	-46.6	-48.1	19.1	0.00e+00	0	37	0	1082130432	63	4619
2026-01-19 11:45:29.37	323.03	15.30	-46.7	-48.3	18.8	0.00e+00	0	38	0	1084227584	64	4456
2026-01-19 11:45:30.38	323.17	15.21	-46.6	-48.2	18.9	0.00e+00	0	37	0	1086324736	64	4411
2026-01-19 11:45:31.39	323.31	15.13	-46.7	-48.3	18.8	0.00e+00	0	38	0	1087373312	64	4468
2026-01-19 11:45:32.40	323.44	15.05	-46.7	-48.2	18.8	0.00e+00	0	38	0	1089470464	64	4436
2026-01-19 11:45:33.40	323.58	14.97	-46.6	-48.1	19.0	0.00e+00	0	38	0	1091567616	64	4378
2026-01-19 11:45:34.41	323.72	14.89	-46.5	-48.0	19.0	0.00e+00	0	37	0	1093664768	64	4307
2026-01-19 11:45:35.42	323.86	14.80	-46.4	-47.9	19.2	0.00e+00	0	37	0	1095761920	64	4255
2026-01-19 11:45:36.43	323.99	14.72	-46.2	-47.7	19.3	0.00e+00	0	38	0	1096810496	64	4161
2026-01-19 11:45:37.44	324.13	14.64	-46.1	-47.6	19.4	0.00e+00	0	38	0	1098907648	64	4117
2026-01-19 11:45:38.45	324.26	14.56	-46.2	-47.6	19.4	0.00e+00	0	37	0	1101004800	64	4132
2026-01-19 11:45:39.45	324.39	14.48	-46.1	-47.6	19.4	0.00e+00	0	38	0	1103101952	64	4111
2026-01-19 11:45:40.46	324.53	14.40	-46.0	-47.4	19.6	0.00e+00	0	38	0	1104150528	64	4025
2026-01-19 11:45:41.47	324.66	14.32	-46.2	-47.7	19.4	0.00e+00	0	38	0	1106247680	63	4413
2026-01-19 11:45:42.48	324.79	14.24	-46.3	-47.8	19.3	0.00e+00	0	38	0	1108344832	63	4460
2026-01-19 11:45:43.49	324.92	14.16	-46.3	-47.8	19.3	0.00e+00	0	37	0	1110441984	63	4478
2026-01-19 11:45:44.49	325.05	14.08	-46.4	-47.9	19.1	0.00e+00	0	37	0	1112539136	63	4516
2026-01-19 11:45:45.50	325.18	14.00	-46.3	-47.8	19.3	0.00e+00	0	38	0	1114636288	63	4478
2026-01-19 11:45:46.51	325.31	13.92	-46.1	-47.6	19.5	0.00e+00	0	38	0	1115684864	63	4355
2026-01-19 11:45:47.52	325.44	13.84	-46.0	-47.4	19.6	0.00e+00	0	37	0	1117782016	63	4268
2026-01-19 11:45:48.53	325.57	13.76	-45.9	-47.3	19.7	0.00e+00	0	38	0	1119879168	63	4231
2026-01-19 11:45:49.53	325.69	13.68	-45.9	-47.3	19.7	0.00e+00	0	37	0	1121976320	63	4230
2026-01-19 11:45:50.54	325.82	13.60	-46.0	-47.4	19.7	0.00e+00	0	37	0	1124073472	63	4257
2026-01-19 11:45:51.55	325.94	13.52	-46.0	-47.4	19.7	0.00e+00	0	37	0	1125122048	63	4245
2026-01-19 11:45:52.56	326.07	13.44	-45.9	-47.3	19.7	0.00e+00	0	38	0	1127219200	63	4196
2026-01-19 11:45:53.56	326.19	13.36	-46.0	-47.4	19.6	0.00e+00	0	37	0	1129316352	63	4268
2026-01-19 11:45:54.57	326.32	13.28	-46.1	-47.5	19.5	0.00e+00	0	38	0	1131413504	63	4312
2026-01-19 11:45:55.58	326.44	13.20	-46.2	-47.6	19.4	0.00e+00	0	38	0	1133510656	63	4380
2026-01-19 11:45:56.59	326.56	13.12	-46.3	-47.7	19.3	0.00e+00	0	38	0	1134559232	63	4441
2026-01-19 11:45:57.60	326.68	13.05	-46.3	-47.8	19.2	0.00e+00	0	37	0	1136656384	63	4486
2026-01-19 11:45:58.61	326.81	12.97	-46.5	-48.1	18.9	0.00e+00	0	37	0	1138753536	63	4612
2026-01-19 11:45:59.62	326.93	12.89	-46.7	-48.3	18.6	0.00e+00	0	38	0	1140850688	64	4471
2026-01-19 11:46:00.62	327.05	12.81	-46.5	-48.1	18.8	0.00e+00	0	37	0	1142947840	64	4364
2026-01-19 11:46:01.63	327.16	12.73	-46.8	-48.4	18.6	0.00e+00	0	37	0	1143996416	64	4510
2026-01-19 11:46:02.64	327.28	12.66	-46.6	-48.2	18.7	0.00e+00	0	37	0	1146093568	64	4437
2026-01-19 11:46:03.65	327.40	12.58	-46.7	-48.3	18.6	0.00e+00	0	37	0	1148190720	64	4482
2026-01-19 11:46:04.66	327.52	12.50	-46.7	-48.4	18.6	0.00e+00	0	38	0	1150287872	64	4507
2026-01-19 11:46:05.66	327.64	12.42	-46.7	-48.3	18.6	0.00e+00	0	37	0	1152385024	64	4448
2026-01-19 11:46:06.67	327.75	12.35	-46.8	-48.4	18.5	0.00e+00	0	37	0	1153433600	64	4532
2026-01-19 11:46:07.68	327.87	12.27	-46.8	-48.4	18.6	0.00e+00	0	38	0	1155530752	64	4505
2026-01-19 11:46:08.69	327.98	12.19	-46.8	-48.4	18.5	0.00e+00	0	38	0	1157627904	64	4505
2026-01-19 11:46:09.70	328.10	12.11	-47.0	-48.6	18.2	0.00e+00	0	38	0	1159725056	64	4646
2026-01-19 11:46:10.71	328.21	12.04	-46.9	-48.6	18.3	0.00e+00	0	38	0	1161822208	64	4627
2026-01-19 11:46:11.71	328.32	11.96	-47.1	-48.8	18.1	0.00e+00	0	37	0	1162870784	64	4729
2026-01-19 11:46:12.72	328.44	11.89	-47.3	-49.1	17.9	0.00e+00	0	37	0	1164967936	65	4624
2026-01-19 11:46:13.73	328.55	11.81	-47.3	-49.1	17.8	0.00e+00	0	38	0	1167065088	65	4638
2026-01-19 11:46:14.73	328.66	11.73	-47.2	-49.0	17.9	0.00e+00	0	38	0	1169162240	65	4557
2026-01-19 11:46:15.74	328.77	11.66	-47.2	-49.0	17.9	0.00e+00	0	37	0	1171259392	65	4585
2026-01-19 11:46:16.75	328.88	11.58	-47.2	-49.0	17.9	0.00e+00	0	38	0	1172307968	65	4566
2026-01-19 11:46:17.76	328.99	11.51	-47.3	-49.1	17.8	0.00e+00	0	37	0	1174405120	65	4631
2026-01-19 11:46:18.76	329.10	11.43	-47.0	-48.8	18.1	0.00e+00	0	38	0	1176502272	65	4459
2026-01-19 11:46:19.77	329.21	11.36	-47.1	-48.8	18.1	0.00e+00	0	38	0	1178599424	65	4479
2026-01-19 11:46:20.78	329.32	11.28	-47.0	-48.7	18.2	0.00e+00	0	37	0	1180696576	65	4404
2026-01-19 11:46:21.79	329.43	11.21	-47.0	-48.7	18.2	0.00e+00	0	38	0	1181745152	65	4395
2026-01-19 11:46:22.80	329.54	11.13	-46.8	-48.4	18.4	0.00e+00	0	37	0	1183842304	65	4282
2026-01-19 11:46:23.80	329.64	11.06	-46.8	-48.5	18.4	0.00e+00	0	37	0	1185939456	65	4295
2026-01-19 11:46:24.81	329.75	10.98	-46.5	-48.1	18.7	0.00e+00	0	38	0	1188036608	65	4139
2026-01-19 11:46:25.82	329.86	10.91	-46.6	-48.2	18.6	0.00e+00	0	37	0	1190133760	65	4153
2026-01-19 11:46:26.83	329.96	10.83	-46.5	-48.1	18.7	0.00e+00	0	38	0	1191182336	64	4363
2026-01-19 11:46:27.84	330.07	10.76	-46.8	-48.4	18.4	0.00e+00	0	37	0	1193279488	64	4526
2026-01-19 11:46:28.85	330.17	10.68	-46.9	-48.6	18.1	0.00e+00	0	37	0	1195376640	64	4640
2026-01-19 11:46:29.85	330.27	10.61	-46.9	-48.7	18.2	0.00e+00	0	38	0	1197473792	64	4652
2026-01-19 11:46:30.86	330.38	10.54	-47.2	-49.1	17.8	0.00e+00	0	37	0	1199570944	65	4619
2026-01-19 11:46:31.87	330.48	10.46	-47.3	-49.2	17.6	0.00e+00	0	37	0	1200619520	65	4675
2026-01-19 11:46:32.88	330.58	10.39	-47.3	-49.1	17.7	0.00e+00	0	38	0	1202716672	65	4645
2026-01-19 11:46:33.89	330.68	10.32	-47.7	-49.7	17.2	0.00e+00	0	37	0	1204813824	65	4932
2026-01-19 11:46:34.90	330.79	10.24	-47.7	-49.7	17.2	0.00e+00	0	38	0	1206910976	66	4663
2026-01-19 11:46:35.91	330.89	10.17	-47.8	-49.9	17.0	0.00e+00	0	38	0	1209008128	66	4762
2026-01-19 11:46:36.91	330.99	10.10	-47.9	-50.0	16.9	0.00e+00	0	37	0	1210056704	66	4865
2026-01-19 11:46:37.92	331.09	10.02	-47.6	-49.6	17.2	0.00e+00	0	38	0	1212153856	66	4624
2026-01-19 11:46:38.93	331.19	9.95	-47.9	-50.0	16.8	0.00e+00	0	38	0	1214251008	66	4870
2026-01-19 11:46:39.94	331.29	9.88	-47.7	-49.8	17.0	0.00e+00	0	37	0	1216348160	66	4712
2026-01-19 11:46:40.95	331.38	9.81	-47.6	-49.6	17.2	0.00e+00	0	38	0	1218445312	66	4624
2026-01-19 11:46:41.95	331.48	9.73	-47.5	-49.4	17.4	0.00e+00	0	38	0	1219493888	66	4510
2026-01-19 11:46:42.96	331.58	9.66	-47.3	-49.2	17.6	0.00e+00	0	38	0	1221591040	66	4403
2026-01-19 11:46:43.97	331.68	9.59	-47.2	-49.0	17.7	0.00e+00	0	38	0	1223688192	66	4329
2026-01-19 11:46:44.98	331.77	9.52	-47.1	-48.9	17.9	0.00e+00	0	38	0	1225785344	66	4289
