passes_logs/2026/01/19/R3.2S_Murmansk/R3.2S_Murmansk__20260119_143627_AQUA_rec.log

#Pass ID: 20260119_143627_AQUA
#Satellite: AQUA
#Configuration: AQUA
#almurnet v.1.7.20251203
#Start time: 2026-01-19 14:36:27

#Version: 2.2.20231116
#Station: R3.2S_Murmansk
#Location: 33.079688 lon 68.888172 lat
#TLE: 1 27424U 02022A   26019.27629806  .00001032  00000+0  21655-3 0  9990
#TLE: 2 27424  98.4090 345.7756 0001997  73.0764  31.8912 14.61830109261513

#Time	Az	El	Level	Level2	SNR	BER	BlckErr	Temp	State	Recorded	gain1	gain2
2026-01-19 14:36:27.25	243.85	2.00	-53.8	-65.7	3.8	8.46e-01	0	33	0	0	78	14852
2026-01-19 14:36:28.26	243.96	2.04	-54.2	-72.0	3.8	7.48e-01	0	34	104	0	78	30629
2026-01-19 14:36:29.27	244.08	2.09	-54.2	-72.0	3.8	7.47e-01	0	35	104	0	78	30508
2026-01-19 14:36:30.28	244.19	2.13	-54.2	-71.9	3.8	7.44e-01	0	34	104	0	78	30376
2026-01-19 14:36:31.29	244.31	2.18	-54.2	-72.0	3.8	7.43e-01	0	35	104	0	78	30443
2026-01-19 14:36:32.29	244.42	2.22	-54.2	-72.0	3.8	7.46e-01	0	35	104	0	78	30392
2026-01-19 14:36:33.30	244.54	2.27	-54.2	-72.0	3.8	7.44e-01	0	35	104	0	78	30501
2026-01-19 14:36:34.31	244.66	2.31	-54.2	-72.0	3.8	7.47e-01	0	35	104	0	78	30622
2026-01-19 14:36:35.32	244.78	2.36	-54.2	-72.0	3.8	7.43e-01	0	35	104	0	78	30557
2026-01-19 14:36:36.33	244.89	2.40	-54.2	-72.0	3.8	7.44e-01	0	35	104	0	78	30584
2026-01-19 14:36:37.33	245.01	2.45	-54.2	-72.0	3.8	7.44e-01	0	35	104	0	78	30446
2026-01-19 14:36:38.34	245.13	2.49	-54.2	-72.0	3.8	7.43e-01	0	35	104	0	78	30520
2026-01-19 14:36:39.35	245.25	2.54	-54.2	-72.0	3.8	7.43e-01	0	35	104	0	78	30471
2026-01-19 14:36:40.36	245.37	2.58	-54.2	-72.0	3.8	7.46e-01	0	35	104	0	78	30550
2026-01-19 14:36:41.37	245.49	2.63	-54.2	-72.0	3.8	7.45e-01	0	35	104	0	78	30452
2026-01-19 14:36:42.38	245.61	2.67	-54.2	-72.0	3.8	7.42e-01	0	35	104	0	78	30473
2026-01-19 14:36:43.38	245.73	2.72	-54.2	-72.0	3.8	7.45e-01	0	35	104	0	78	30399
2026-01-19 14:36:44.39	245.85	2.76	-54.2	-71.9	3.8	7.45e-01	0	35	104	0	78	30294
2026-01-19 14:36:45.40	245.97	2.81	-54.2	-71.9	3.8	7.49e-01	0	35	104	0	78	30177
2026-01-19 14:36:46.41	246.09	2.85	-54.2	-71.9	3.8	7.45e-01	0	35	104	0	78	30176
2026-01-19 14:36:47.41	246.21	2.89	-54.2	-71.9	3.8	7.45e-01	0	35	104	0	78	30320
2026-01-19 14:36:48.42	246.34	2.94	-54.2	-71.9	3.8	7.46e-01	0	35	104	0	78	30328
2026-01-19 14:36:49.43	246.46	2.98	-54.2	-71.9	3.8	7.46e-01	0	35	104	0	78	30368
2026-01-19 14:36:50.44	246.58	3.03	-54.2	-71.9	3.8	7.51e-01	0	35	104	0	78	30167
2026-01-19 14:36:51.45	246.71	3.07	-54.2	-71.8	3.8	7.43e-01	0	35	104	0	78	29870
2026-01-19 14:36:52.45	246.83	3.12	-54.2	-71.8	3.8	7.46e-01	0	35	104	0	78	29757
2026-01-19 14:36:53.46	246.96	3.16	-54.2	-71.8	3.8	7.42e-01	0	35	104	0	78	29908
2026-01-19 14:36:54.47	247.08	3.21	-54.2	-71.9	3.8	7.50e-01	0	35	104	0	78	30092
2026-01-19 14:36:55.48	247.21	3.25	-54.2	-71.9	3.8	7.42e-01	0	36	104	0	78	30251
2026-01-19 14:36:56.49	247.33	3.30	-54.2	-71.8	3.8	7.46e-01	0	35	104	0	78	29991
2026-01-19 14:36:57.49	247.46	3.34	-54.2	-71.8	3.8	7.48e-01	0	36	104	0	78	29708
2026-01-19 14:36:58.50	247.58	3.39	-54.2	-71.5	3.8	7.46e-01	0	36	104	0	78	28940
2026-01-19 14:36:59.51	247.71	3.43	-54.2	-71.7	3.8	7.45e-01	0	36	104	0	78	29461
2026-01-19 14:37:00.52	247.84	3.47	-54.2	-71.6	3.8	7.48e-01	0	36	104	0	78	29102
2026-01-19 14:37:01.53	247.97	3.52	-54.1	-71.8	3.8	7.45e-01	0	36	104	0	78	29874
2026-01-19 14:37:02.54	248.09	3.56	-54.2	-71.7	3.8	7.45e-01	0	36	104	0	78	29630
2026-01-19 14:37:03.55	248.22	3.61	-54.2	-71.4	3.8	7.49e-01	0	36	104	0	78	28490
2026-01-19 14:37:04.56	248.35	3.65	-54.2	-71.7	3.8	7.47e-01	0	36	104	0	78	29683
2026-01-19 14:37:05.57	248.48	3.70	-54.2	-71.9	3.8	7.48e-01	0	36	104	0	78	30145
2026-01-19 14:37:06.58	248.61	3.74	-54.2	-71.9	3.8	7.46e-01	0	36	104	0	78	30098
2026-01-19 14:37:07.58	248.74	3.78	-54.2	-71.8	3.8	7.43e-01	0	36	104	0	78	29834
2026-01-19 14:37:08.59	248.87	3.83	-54.1	-71.6	3.8	7.43e-01	0	36	104	0	78	29116
2026-01-19 14:37:09.60	249.00	3.87	-54.2	-71.6	3.8	7.45e-01	0	36	104	0	78	29035
2026-01-19 14:37:10.61	249.13	3.92	-54.2	-71.7	3.8	7.44e-01	0	36	104	0	78	29432
2026-01-19 14:37:11.61	249.26	3.96	-54.2	-71.9	3.8	7.48e-01	0	36	104	0	78	30172
2026-01-19 14:37:12.62	249.40	4.01	-54.2	-71.9	3.8	7.46e-01	0	36	104	0	78	30195
2026-01-19 14:37:13.63	249.53	4.05	-54.2	-71.8	3.8	7.46e-01	0	36	104	0	78	30008
2026-01-19 14:37:14.64	249.66	4.09	-54.2	-71.9	3.8	7.45e-01	0	36	104	0	78	30097
2026-01-19 14:37:15.65	249.80	4.14	-54.2	-72.0	3.8	7.47e-01	0	36	104	0	78	30393
2026-01-19 14:37:16.65	249.93	4.18	-54.2	-71.7	3.8	7.46e-01	0	36	104	0	78	29398
2026-01-19 14:37:17.66	250.06	4.22	-54.2	-71.5	3.8	7.45e-01	0	36	104	0	78	28854
2026-01-19 14:37:18.67	250.20	4.27	-54.2	-71.5	3.8	7.44e-01	0	36	104	0	78	28986
2026-01-19 14:37:19.68	250.33	4.31	-54.2	-71.4	3.8	7.42e-01	0	36	104	0	78	28677
2026-01-19 14:37:20.69	250.47	4.36	-54.2	-71.4	3.8	7.46e-01	0	36	104	0	78	28610
2026-01-19 14:37:21.69	250.60	4.40	-54.1	-71.2	3.8	7.45e-01	0	36	104	0	78	28026
2026-01-19 14:37:22.70	250.74	4.44	-54.1	-71.0	3.8	7.44e-01	0	36	104	0	78	27209
2026-01-19 14:37:23.71	250.88	4.49	-54.1	-71.3	3.8	7.42e-01	0	36	104	0	78	28098
2026-01-19 14:37:24.72	251.02	4.53	-54.2	-71.8	3.8	7.48e-01	0	36	104	0	78	29873
2026-01-19 14:37:25.73	251.15	4.57	-54.1	-70.7	3.8	7.44e-01	0	36	104	0	78	26306
2026-01-19 14:37:26.73	251.29	4.62	-54.0	-67.4	4.0	7.36e-01	0	36	104	0	78	18005
2026-01-19 14:37:27.74	251.43	4.66	-53.6	-62.8	7.8	6.47e-01	184	36	0	0	78	10546
2026-01-19 14:37:28.75	251.57	4.70	-53.3	-60.9	9.9	6.24e-01	0	36	0	2097152	78	8468
2026-01-19 14:37:29.76	251.71	4.75	-52.9	-59.4	11.4	6.14e-01	0	37	0	4194304	77	7592
2026-01-19 14:37:30.77	251.85	4.79	-52.5	-57.9	12.9	6.12e-01	0	36	0	5767168	77	6411
2026-01-19 14:37:31.77	251.99	4.83	-51.7	-55.9	15.0	6.08e-01	0	37	0	7864320	75	5697
2026-01-19 14:37:32.78	252.13	4.88	-50.8	-54.1	16.8	6.06e-01	0	37	0	9437184	73	5182
2026-01-19 14:37:33.79	252.27	4.92	-49.8	-52.5	18.6	6.04e-01	0	37	0	11534336	71	4830
2026-01-19 14:37:34.80	252.41	4.96	-49.3	-51.7	19.3	6.04e-01	0	36	0	13107200	70	4701
2026-01-19 14:37:35.81	252.55	5.01	-49.1	-51.5	19.6	6.07e-01	0	36	0	15204352	70	4554
2026-01-19 14:37:36.81	252.69	5.05	-50.3	-53.2	17.9	6.08e-01	0	37	0	17301504	71	5271
2026-01-19 14:37:37.82	252.84	5.09	-48.1	-50.0	21.1	6.06e-01	0	37	0	18874368	67	4593
2026-01-19 14:37:38.83	252.98	5.13	-52.9	-59.0	13.0	6.10e-01	0	37	0	20971520	76	7681
2026-01-19 14:37:39.84	253.13	5.18	-49.3	-51.7	19.4	6.07e-01	0	37	0	22544384	70	4684
2026-01-19 14:37:40.85	253.27	5.22	-48.8	-51.0	20.1	6.05e-01	0	36	0	24641536	68	4854
2026-01-19 14:37:41.85	253.41	5.26	-47.8	-49.6	21.3	6.07e-01	0	37	0	26738688	67	4372
2026-01-19 14:37:42.86	253.56	5.30	-47.8	-49.7	21.4	6.07e-01	0	36	0	28311552	67	4409
2026-01-19 14:37:43.87	253.70	5.35	-47.8	-49.7	21.3	6.08e-01	0	37	0	30408704	67	4430
2026-01-19 14:37:44.88	253.85	5.39	-47.7	-49.5	21.5	6.05e-01	0	37	0	32505856	67	4338
2026-01-19 14:37:45.89	254.00	5.43	-47.6	-49.3	21.8	6.09e-01	0	37	0	34078720	66	4492
2026-01-19 14:37:46.89	254.14	5.47	-47.7	-49.6	21.5	6.05e-01	0	37	0	36175872	66	4599
2026-01-19 14:37:47.90	254.29	5.52	-47.7	-49.5	21.6	6.05e-01	0	37	0	37748736	66	4587
2026-01-19 14:37:48.91	254.44	5.56	-47.5	-49.3	21.8	6.06e-01	0	37	0	39845888	66	4442
2026-01-19 14:37:49.92	254.59	5.60	-47.4	-49.2	21.9	6.04e-01	0	37	0	41418752	66	4415
2026-01-19 14:37:50.93	254.74	5.64	-47.4	-49.2	21.9	6.08e-01	0	37	0	43515904	66	4417
2026-01-19 14:37:51.93	254.88	5.68	-47.5	-49.3	21.8	6.05e-01	0	37	0	45613056	66	4476
2026-01-19 14:37:52.94	255.03	5.73	-47.5	-49.3	21.8	6.04e-01	0	37	0	47185920	66	4484
2026-01-19 14:37:53.95	255.18	5.77	-47.5	-49.3	21.8	6.05e-01	0	37	0	49283072	66	4477
2026-01-19 14:37:54.96	255.34	5.81	-47.6	-49.4	21.7	6.06e-01	0	37	0	51380224	66	4519
2026-01-19 14:37:55.97	255.49	5.85	-47.8	-49.6	21.5	6.06e-01	0	37	0	52953088	66	4627
2026-01-19 14:37:56.97	255.64	5.89	-47.8	-49.6	21.5	6.06e-01	0	37	0	55050240	66	4639
2026-01-19 14:37:57.98	255.79	5.93	-47.6	-49.4	21.7	6.06e-01	0	37	0	56623104	66	4524
2026-01-19 14:37:58.99	255.94	5.98	-47.5	-49.3	21.9	6.07e-01	0	37	0	58720256	66	4463
2026-01-19 14:38:00.00	256.09	6.02	-47.4	-49.1	22.0	6.06e-01	0	37	0	60817408	66	4384
2026-01-19 14:38:01.01	256.25	6.06	-47.5	-49.2	21.9	6.09e-01	0	37	0	62390272	66	4425
2026-01-19 14:38:02.01	256.40	6.10	-47.6	-49.4	21.7	6.05e-01	0	37	0	64487424	66	4536
2026-01-19 14:38:03.02	256.55	6.14	-47.4	-49.2	22.0	6.06e-01	0	37	0	66060288	66	4409
2026-01-19 14:38:04.03	256.71	6.18	-47.5	-49.3	21.9	6.05e-01	0	37	0	68157440	66	4452
2026-01-19 14:38:05.04	256.86	6.22	-47.4	-49.1	22.1	6.07e-01	0	37	0	69730304	66	4361
2026-01-19 14:38:06.05	257.02	6.26	-47.4	-49.2	22.0	6.07e-01	0	37	0	71827456	66	4395
2026-01-19 14:38:07.05	257.17	6.30	-47.3	-49.0	22.2	6.07e-01	0	37	0	73924608	66	4315
2026-01-19 14:38:08.06	257.33	6.34	-47.3	-49.0	22.2	6.07e-01	0	37	0	75497472	66	4322
2026-01-19 14:38:09.07	257.49	6.38	-47.3	-49.0	22.2	6.05e-01	0	37	0	77594624	66	4330
2026-01-19 14:38:10.08	257.65	6.42	-47.3	-49.0	22.2	6.08e-01	0	37	0	79691776	66	4340
2026-01-19 14:38:11.08	257.80	6.46	-47.6	-49.4	21.8	6.06e-01	0	37	0	81264640	66	4497
2026-01-19 14:38:12.09	257.96	6.50	-47.3	-49.0	22.2	6.06e-01	0	37	0	83361792	66	4329
2026-01-19 14:38:13.10	258.12	6.54	-47.2	-48.9	22.3	6.08e-01	0	37	0	84934656	66	4283
2026-01-19 14:38:14.11	258.28	6.58	-47.2	-48.9	22.3	6.06e-01	0	37	0	87031808	66	4243
2026-01-19 14:38:15.11	258.44	6.62	-47.4	-49.1	22.1	6.06e-01	0	37	0	89128960	66	4383
2026-01-19 14:38:16.12	258.60	6.66	-47.5	-49.3	21.9	6.06e-01	0	37	0	90701824	66	4462
2026-01-19 14:38:17.13	258.76	6.70	-47.5	-49.3	21.9	6.06e-01	0	37	0	92798976	66	4455
2026-01-19 14:38:18.14	258.92	6.74	-47.4	-49.1	22.1	6.05e-01	0	37	0	94371840	66	4374
2026-01-19 14:38:19.14	259.08	6.78	-47.2	-48.9	22.3	6.04e-01	0	37	0	96468992	66	4281
2026-01-19 14:38:20.15	259.24	6.82	-47.2	-48.9	22.4	6.06e-01	0	37	0	98566144	66	4256
2026-01-19 14:38:21.16	259.40	6.86	-47.1	-48.8	22.4	6.09e-01	0	37	0	100139008	66	4206
2026-01-19 14:38:22.17	259.57	6.90	-47.1	-48.8	22.4	6.07e-01	0	37	0	102236160	66	4213
2026-01-19 14:38:23.17	259.73	6.94	-47.2	-48.9	22.3	6.08e-01	0	37	0	103809024	66	4252
2026-01-19 14:38:24.18	259.89	6.97	-47.4	-49.1	22.1	6.07e-01	0	37	0	105906176	66	4356
2026-01-19 14:38:25.19	260.06	7.01	-47.4	-49.1	22.2	6.07e-01	0	37	0	108003328	66	4378
2026-01-19 14:38:26.20	260.22	7.05	-47.2	-48.8	22.4	6.06e-01	0	37	0	109576192	66	4236
2026-01-19 14:38:27.21	260.39	7.09	-47.2	-48.8	22.5	6.05e-01	0	37	0	111673344	66	4235
2026-01-19 14:38:28.21	260.55	7.13	-47.0	-48.7	22.6	6.05e-01	0	37	0	113246208	66	4147
2026-01-19 14:38:29.22	260.72	7.17	-46.9	-48.6	22.7	6.06e-01	0	37	0	115343360	65	4345
2026-01-19 14:38:30.23	260.89	7.20	-47.1	-48.8	22.5	6.07e-01	0	37	0	117440512	65	4471
2026-01-19 14:38:31.24	261.05	7.24	-47.2	-48.9	22.4	6.08e-01	0	37	0	119013376	65	4516
2026-01-19 14:38:32.24	261.22	7.28	-47.2	-48.9	22.3	6.06e-01	0	37	0	121110528	65	4531
2026-01-19 14:38:33.25	261.39	7.32	-47.0	-48.7	22.6	6.05e-01	0	37	0	123207680	65	4407
2026-01-19 14:38:34.26	261.55	7.35	-47.0	-48.6	22.7	6.04e-01	0	37	0	124780544	65	4370
2026-01-19 14:38:35.27	261.72	7.39	-47.0	-48.6	22.6	6.07e-01	0	37	0	126877696	65	4382
2026-01-19 14:38:36.28	261.89	7.43	-47.1	-48.8	22.5	6.05e-01	0	37	0	128450560	65	4445
2026-01-19 14:38:37.28	262.06	7.47	-46.9	-48.5	22.7	6.05e-01	0	37	0	130547712	65	4298
2026-01-19 14:38:38.29	262.23	7.50	-46.9	-48.5	22.8	6.04e-01	0	37	0	132120576	65	4302
2026-01-19 14:38:39.29	262.40	7.54	-46.8	-48.4	22.9	6.06e-01	0	37	0	134217728	65	4270
2026-01-19 14:38:40.30	262.57	7.58	-47.1	-48.8	22.5	6.06e-01	0	37	0	136314880	65	4458
2026-01-19 14:38:41.31	262.74	7.61	-46.8	-48.4	22.9	6.05e-01	0	37	0	137887744	65	4269
2026-01-19 14:38:42.31	262.91	7.65	-47.1	-48.7	22.6	6.05e-01	0	37	0	139984896	65	4413
2026-01-19 14:38:43.32	263.09	7.68	-47.1	-48.7	22.6	6.06e-01	0	37	0	141557760	65	4419
2026-01-19 14:38:44.33	263.26	7.72	-46.9	-48.5	22.8	6.07e-01	0	37	0	143654912	65	4309
2026-01-19 14:38:45.34	263.43	7.76	-46.8	-48.3	22.9	6.04e-01	0	37	0	145752064	65	4235
2026-01-19 14:38:46.35	263.61	7.79	-47.0	-48.6	22.7	6.04e-01	0	37	0	147324928	65	4391
2026-01-19 14:38:47.35	263.78	7.83	-47.1	-48.7	22.7	6.05e-01	0	37	0	149422080	65	4418
2026-01-19 14:38:48.36	263.95	7.86	-47.0	-48.6	22.7	6.05e-01	0	37	0	151519232	65	4380
2026-01-19 14:38:49.37	264.13	7.90	-47.1	-48.7	22.7	6.05e-01	0	37	0	153092096	65	4407
2026-01-19 14:38:50.38	264.31	7.93	-47.0	-48.6	22.7	6.08e-01	0	37	0	155189248	65	4365
2026-01-19 14:38:51.39	264.48	7.97	-47.1	-48.8	22.6	6.08e-01	0	37	0	156762112	65	4454
2026-01-19 14:38:52.39	264.66	8.00	-47.0	-48.6	22.7	6.08e-01	0	37	0	158859264	65	4388
2026-01-19 14:38:53.40	264.83	8.04	-46.9	-48.5	22.8	6.10e-01	0	37	0	160432128	65	4321
2026-01-19 14:38:54.41	265.01	8.07	-46.9	-48.5	22.8	6.07e-01	0	37	0	162529280	65	4293
2026-01-19 14:38:55.42	265.19	8.11	-46.8	-48.4	22.9	6.06e-01	0	37	0	164626432	65	4261
2026-01-19 14:38:56.42	265.37	8.14	-46.7	-48.3	23.0	6.08e-01	0	37	0	166199296	65	4210
2026-01-19 14:38:57.43	265.54	8.17	-46.8	-48.3	23.0	6.06e-01	0	37	0	168296448	65	4235
2026-01-19 14:38:58.44	265.72	8.21	-46.7	-48.2	23.1	6.07e-01	0	37	0	169869312	65	4166
2026-01-19 14:38:59.45	265.90	8.24	-46.8	-48.4	22.8	6.08e-01	0	37	0	171966464	65	4282
2026-01-19 14:39:00.46	266.08	8.27	-46.7	-48.2	23.0	6.07e-01	0	37	0	174063616	65	4180
2026-01-19 14:39:01.47	266.26	8.31	-46.7	-48.3	22.9	6.05e-01	0	37	0	175636480	65	4202
2026-01-19 14:39:02.47	266.44	8.34	-46.7	-48.2	22.9	6.08e-01	0	37	0	177733632	65	4181
2026-01-19 14:39:03.48	266.62	8.37	-46.7	-48.2	22.9	6.07e-01	0	37	0	179830784	65	4185
2026-01-19 14:39:04.49	266.81	8.41	-46.9	-48.5	22.5	6.05e-01	0	37	0	181403648	65	4322
2026-01-19 14:39:05.50	266.99	8.44	-47.2	-48.9	22.0	6.04e-01	0	37	0	183500800	65	4537
2026-01-19 14:39:06.51	267.17	8.47	-48.0	-50.0	20.9	6.06e-01	0	37	0	185073664	66	4864
2026-01-19 14:39:07.51	267.35	8.50	-48.5	-50.8	20.1	6.07e-01	0	37	0	187170816	67	5002
2026-01-19 14:39:08.52	267.53	8.53	-49.0	-51.5	19.2	6.07e-01	0	37	0	188743680	68	5114
2026-01-19 14:39:09.53	267.72	8.57	-49.4	-52.2	18.4	6.08e-01	0	37	0	190840832	69	5224
2026-01-19 14:39:10.54	267.90	8.60	-49.7	-52.7	17.7	6.06e-01	0	37	0	192937984	69	5554
2026-01-19 14:39:11.55	268.09	8.63	-49.7	-52.9	17.4	6.08e-01	0	37	0	194510848	69	5676
2026-01-19 14:39:12.55	268.27	8.66	-50.1	-53.6	16.5	6.04e-01	0	37	0	196608000	70	5843
2026-01-19 14:39:13.56	268.46	8.69	-50.7	-55.1	15.0	6.06e-01	0	37	0	198705152	71	6532
2026-01-19 14:39:14.57	268.64	8.72	-51.2	-56.5	13.4	6.09e-01	0	37	0	200278016	72	7206
2026-01-19 14:39:15.58	268.83	8.75	-51.7	-58.3	11.5	6.15e-01	0	37	0	202375168	73	8381
2026-01-19 14:39:16.59	269.02	8.78	-51.7	-58.1	11.5	6.14e-01	0	37	0	203948032	74	7742
2026-01-19 14:39:17.59	269.20	8.81	-51.2	-56.3	13.4	6.10e-01	0	37	0	206045184	74	6334
2026-01-19 14:39:18.60	269.39	8.84	-50.4	-54.5	15.3	6.07e-01	0	37	0	208142336	72	5741
2026-01-19 14:39:19.61	269.58	8.87	-49.8	-53.2	16.8	6.06e-01	0	37	0	209715200	71	5238
2026-01-19 14:39:20.62	269.76	8.90	-49.8	-53.1	17.1	6.04e-01	0	37	0	211812352	71	5164
2026-01-19 14:39:21.62	269.95	8.93	-49.6	-52.6	17.6	6.07e-01	0	37	0	213385216	71	4883
2026-01-19 14:39:22.63	270.14	8.96	-49.3	-52.0	18.4	6.05e-01	0	37	0	215482368	70	4851
2026-01-19 14:39:23.64	270.33	8.99	-48.8	-51.3	19.3	6.05e-01	0	37	0	217055232	69	4710
2026-01-19 14:39:24.65	270.52	9.01	-48.4	-50.5	20.2	6.05e-01	0	37	0	219152384	68	4585
2026-01-19 14:39:25.65	270.71	9.04	-47.9	-49.8	21.3	6.08e-01	0	37	0	221249536	67	4449
2026-01-19 14:39:26.66	270.90	9.07	-47.4	-49.1	22.0	6.08e-01	0	37	0	223346688	66	4385
2026-01-19 14:39:27.67	271.09	9.10	-47.2	-48.8	22.4	6.07e-01	0	37	0	224919552	66	4214
2026-01-19 14:39:28.68	271.28	9.13	-46.9	-48.5	22.8	6.07e-01	0	37	0	227016704	65	4320
2026-01-19 14:39:29.68	271.47	9.15	-46.5	-48.1	23.3	6.06e-01	0	37	0	228589568	65	4102
2026-01-19 14:39:30.69	271.66	9.18	-46.6	-48.1	23.3	6.06e-01	0	37	0	230686720	65	4103
2026-01-19 14:39:31.70	271.86	9.21	-46.9	-48.4	22.9	6.06e-01	0	37	0	232259584	65	4287
2026-01-19 14:39:32.71	272.05	9.23	-46.7	-48.2	23.2	6.06e-01	0	37	0	234356736	65	4161
2026-01-19 14:39:33.72	272.24	9.26	-46.6	-48.1	23.3	6.06e-01	0	37	0	236453888	65	4127
2026-01-19 14:39:34.72	272.43	9.29	-46.5	-48.0	23.4	6.05e-01	0	37	0	238026752	64	4307
2026-01-19 14:39:35.73	272.63	9.31	-46.4	-47.9	23.5	6.04e-01	0	37	0	240123904	64	4287
2026-01-19 14:39:36.74	272.82	9.34	-46.4	-47.9	23.4	6.07e-01	0	37	0	241696768	64	4273
2026-01-19 14:39:37.75	273.02	9.36	-46.5	-48.0	23.4	6.07e-01	0	37	0	243793920	64	4320
2026-01-19 14:39:38.76	273.21	9.39	-46.4	-47.9	23.4	6.05e-01	0	37	0	245891072	64	4275
2026-01-19 14:39:39.77	273.41	9.41	-46.5	-48.0	23.4	6.06e-01	0	37	0	247463936	64	4306
2026-01-19 14:39:40.77	273.60	9.44	-46.4	-47.9	23.5	6.06e-01	0	37	0	249561088	64	4258
2026-01-19 14:39:41.78	273.80	9.46	-46.5	-48.0	23.3	6.07e-01	0	37	0	251658240	64	4331
2026-01-19 14:39:42.79	273.99	9.49	-46.6	-48.1	23.3	6.06e-01	0	37	0	253231104	64	4353
2026-01-19 14:39:43.80	274.19	9.51	-46.7	-48.2	23.2	6.06e-01	0	37	0	255328256	64	4409
2026-01-19 14:39:44.81	274.39	9.54	-46.5	-48.0	23.3	6.06e-01	0	37	0	256901120	64	4326
2026-01-19 14:39:45.81	274.58	9.56	-46.3	-47.8	23.6	6.04e-01	0	37	0	258998272	64	4203
2026-01-19 14:39:46.82	274.78	9.58	-46.4	-47.9	23.5	6.05e-01	0	37	0	260571136	64	4258
2026-01-19 14:39:47.83	274.98	9.61	-46.5	-48.0	23.4	6.06e-01	0	37	0	262668288	64	4326
2026-01-19 14:39:48.84	275.18	9.63	-46.5	-48.0	23.5	6.05e-01	0	37	0	264765440	64	4296
2026-01-19 14:39:49.84	275.37	9.65	-46.6	-48.1	23.3	6.04e-01	0	37	0	266338304	64	4347
2026-01-19 14:39:50.85	275.57	9.67	-46.6	-48.1	23.3	6.06e-01	0	37	0	268435456	64	4378
2026-01-19 14:39:51.86	275.77	9.69	-46.4	-47.9	23.5	6.03e-01	0	37	0	270532608	64	4278
2026-01-19 14:39:52.87	275.97	9.72	-46.4	-47.9	23.5	6.05e-01	0	37	0	272105472	64	4280
2026-01-19 14:39:53.87	276.17	9.74	-46.4	-47.9	23.5	6.05e-01	0	37	0	274202624	64	4262
2026-01-19 14:39:54.88	276.37	9.76	-46.4	-47.9	23.5	6.05e-01	0	37	0	275775488	64	4250
2026-01-19 14:39:55.89	276.57	9.78	-46.3	-47.8	23.6	6.05e-01	0	37	0	277872640	64	4217
2026-01-19 14:39:56.90	276.77	9.80	-46.4	-47.8	23.5	6.06e-01	0	37	0	279969792	64	4235
2026-01-19 14:39:57.91	276.97	9.82	-46.4	-47.9	23.5	6.07e-01	0	37	0	281542656	64	4281
2026-01-19 14:39:58.91	277.17	9.84	-46.4	-47.9	23.5	6.06e-01	0	37	0	283639808	64	4253
2026-01-19 14:39:59.92	277.37	9.86	-46.5	-47.9	23.5	6.06e-01	0	37	0	285212672	64	4290
2026-01-19 14:40:00.93	277.58	9.88	-46.3	-47.8	23.7	6.05e-01	0	37	0	287309824	64	4195
2026-01-19 14:40:01.94	277.78	9.90	-46.4	-47.9	23.6	6.07e-01	0	37	0	288882688	64	4251
2026-01-19 14:40:02.95	277.98	9.92	-46.4	-47.9	23.5	6.06e-01	0	37	0	290979840	64	4279
2026-01-19 14:40:03.95	278.18	9.94	-46.4	-47.9	23.5	6.06e-01	0	37	0	293076992	64	4270
2026-01-19 14:40:04.96	278.39	9.95	-46.4	-47.9	23.5	6.04e-01	0	37	0	295174144	64	4270
2026-01-19 14:40:05.97	278.59	9.97	-46.4	-47.9	23.6	6.06e-01	0	37	0	296747008	64	4254
2026-01-19 14:40:06.98	278.79	9.99	-46.3	-47.8	23.7	6.06e-01	0	37	0	298844160	64	4203
2026-01-19 14:40:07.98	278.99	10.01	-46.3	-47.7	23.7	6.05e-01	0	37	0	300417024	64	4193
2026-01-19 14:40:08.99	279.20	10.03	-46.5	-48.0	23.5	6.03e-01	0	37	0	302514176	64	4294
2026-01-19 14:40:10.00	279.40	10.04	-46.5	-48.0	23.5	6.08e-01	0	37	0	304087040	64	4299
2026-01-19 14:40:11.01	279.61	10.06	-46.5	-47.9	23.5	6.05e-01	0	37	0	306184192	64	4281
2026-01-19 14:40:12.02	279.81	10.08	-46.3	-47.8	23.7	6.04e-01	0	37	0	308281344	64	4194
2026-01-19 14:40:13.03	280.02	10.09	-46.4	-47.9	23.6	6.08e-01	0	37	0	309854208	64	4254
2026-01-19 14:40:14.03	280.22	10.11	-46.4	-47.9	23.6	6.09e-01	0	37	0	311951360	64	4269
2026-01-19 14:40:15.04	280.43	10.12	-46.3	-47.7	23.7	6.07e-01	0	37	0	313524224	64	4189
2026-01-19 14:40:16.05	280.63	10.14	-46.4	-47.8	23.6	6.07e-01	0	37	0	315621376	64	4234
2026-01-19 14:40:17.06	280.84	10.15	-46.5	-48.0	23.5	6.05e-01	0	37	0	317718528	64	4308
2026-01-19 14:40:18.07	281.04	10.17	-46.4	-47.9	23.6	6.07e-01	0	37	0	319291392	64	4271
2026-01-19 14:40:19.07	281.25	10.18	-46.5	-48.0	23.5	6.06e-01	0	37	0	321388544	64	4305
2026-01-19 14:40:20.08	281.46	10.20	-46.4	-47.9	23.6	6.05e-01	0	37	0	323485696	64	4252
2026-01-19 14:40:21.09	281.66	10.21	-46.5	-48.0	23.5	6.04e-01	0	37	0	325058560	64	4309
2026-01-19 14:40:22.10	281.87	10.22	-46.6	-48.0	23.5	6.05e-01	0	37	0	327155712	64	4337
2026-01-19 14:40:23.11	282.08	10.24	-46.6	-48.1	23.5	6.06e-01	0	37	0	328728576	64	4348
2026-01-19 14:40:24.11	282.28	10.25	-46.5	-47.9	23.5	6.06e-01	0	37	0	330825728	64	4289
2026-01-19 14:40:25.12	282.49	10.26	-46.4	-47.9	23.6	6.06e-01	0	37	0	332398592	64	4270
2026-01-19 14:40:26.13	282.70	10.27	-46.5	-48.0	23.6	6.05e-01	0	37	0	334495744	64	4305
2026-01-19 14:40:27.13	282.90	10.28	-46.6	-48.1	23.4	6.07e-01	0	37	0	336592896	64	4368
2026-01-19 14:40:28.14	283.11	10.30	-46.6	-48.1	23.5	6.03e-01	0	37	0	338165760	64	4373
2026-01-19 14:40:29.15	283.32	10.31	-46.6	-48.1	23.4	6.09e-01	0	37	0	340262912	64	4365
2026-01-19 14:40:30.16	283.53	10.32	-46.6	-48.1	23.4	6.07e-01	0	37	0	342360064	64	4358
2026-01-19 14:40:31.17	283.74	10.33	-46.6	-48.0	23.5	6.05e-01	0	37	0	343932928	64	4328
2026-01-19 14:40:32.18	283.95	10.34	-46.5	-47.9	23.6	6.08e-01	0	37	0	346030080	64	4273
2026-01-19 14:40:33.19	284.15	10.35	-46.6	-48.1	23.5	6.05e-01	0	37	0	347602944	64	4356
2026-01-19 14:40:34.19	284.36	10.36	-46.8	-48.3	23.4	6.07e-01	0	37	0	349700096	64	4456
2026-01-19 14:40:35.20	284.57	10.37	-46.7	-48.2	23.4	6.05e-01	0	37	0	351797248	64	4414
2026-01-19 14:40:36.21	284.78	10.38	-46.7	-48.2	23.4	6.05e-01	0	37	0	353370112	64	4429
2026-01-19 14:40:37.22	284.99	10.39	-46.6	-48.1	23.5	6.05e-01	0	37	0	355467264	64	4361
2026-01-19 14:40:38.23	285.20	10.39	-46.6	-48.1	23.6	6.04e-01	0	37	0	357040128	64	4346
2026-01-19 14:40:39.23	285.41	10.40	-46.6	-48.0	23.6	6.07e-01	0	37	0	359137280	64	4335
2026-01-19 14:40:40.24	285.62	10.41	-46.6	-48.1	23.5	6.05e-01	0	37	0	360710144	64	4372
2026-01-19 14:40:41.25	285.83	10.42	-46.6	-48.1	23.5	6.05e-01	0	37	0	362807296	64	4372
2026-01-19 14:40:42.26	286.04	10.42	-46.8	-48.3	23.4	6.06e-01	0	37	0	364904448	64	4472
2026-01-19 14:40:43.27	286.25	10.43	-46.8	-48.2	23.4	6.07e-01	0	37	0	367001600	64	4440
2026-01-19 14:40:44.27	286.45	10.44	-46.8	-48.3	23.4	6.06e-01	0	37	0	368574464	64	4467
2026-01-19 14:40:45.28	286.66	10.44	-46.7	-48.2	23.4	6.06e-01	0	37	0	370671616	64	4433
2026-01-19 14:40:46.29	286.88	10.45	-46.7	-48.2	23.5	6.04e-01	0	37	0	372244480	64	4394
2026-01-19 14:40:47.30	287.09	10.46	-46.5	-48.0	23.6	6.06e-01	0	37	0	374341632	64	4306
2026-01-19 14:40:48.31	287.30	10.46	-46.4	-47.8	23.8	6.06e-01	0	37	0	375914496	64	4238
2026-01-19 14:40:49.31	287.50	10.47	-46.5	-47.9	23.7	6.09e-01	0	37	0	378011648	64	4272
2026-01-19 14:40:50.32	287.72	10.47	-46.6	-48.1	23.6	6.08e-01	0	37	0	380108800	64	4345
2026-01-19 14:40:51.33	287.93	10.47	-46.7	-48.2	23.5	6.05e-01	0	37	0	381681664	64	4399
2026-01-19 14:40:52.33	288.14	10.48	-46.8	-48.3	23.4	6.05e-01	0	37	0	383778816	64	4463
2026-01-19 14:40:53.34	288.35	10.48	-46.6	-48.1	23.6	6.05e-01	0	37	0	385351680	64	4358
2026-01-19 14:40:54.35	288.56	10.48	-46.7	-48.2	23.5	6.08e-01	0	37	0	387448832	64	4392
2026-01-19 14:40:55.36	288.77	10.49	-46.6	-48.1	23.6	6.04e-01	0	37	0	389545984	64	4355
2026-01-19 14:40:56.37	288.98	10.49	-46.6	-48.0	23.7	6.09e-01	0	37	0	391118848	64	4336
2026-01-19 14:40:57.38	289.19	10.49	-46.4	-47.9	23.8	6.03e-01	0	37	0	393216000	64	4259
2026-01-19 14:40:58.39	289.40	10.49	-46.5	-47.9	23.8	6.07e-01	0	37	0	395313152	64	4287
2026-01-19 14:40:59.40	289.61	10.50	-46.6	-48.0	23.7	6.05e-01	0	37	0	396886016	64	4322
2026-01-19 14:41:00.41	289.82	10.50	-46.6	-48.1	23.7	6.06e-01	0	37	0	398983168	64	4348
2026-01-19 14:41:01.42	290.03	10.50	-46.6	-48.0	23.7	6.07e-01	0	37	0	400556032	64	4316
2026-01-19 14:41:02.43	290.25	10.50	-46.6	-48.0	23.7	6.06e-01	0	37	0	402653184	64	4321
2026-01-19 14:41:03.43	290.45	10.50	-46.7	-48.2	23.6	6.06e-01	0	37	0	404226048	64	4399
2026-01-19 14:41:04.44	290.67	10.50	-46.8	-48.3	23.4	6.05e-01	0	37	0	406323200	64	4485
2026-01-19 14:41:05.45	290.88	10.50	-46.7	-48.1	23.6	6.05e-01	0	37	0	408420352	64	4385
2026-01-19 14:41:06.46	291.09	10.50	-46.6	-48.0	23.7	6.07e-01	0	37	0	409993216	64	4332
2026-01-19 14:41:07.46	291.30	10.50	-46.7	-48.1	23.6	6.05e-01	0	37	0	412090368	64	4375
2026-01-19 14:41:08.47	291.51	10.50	-46.8	-48.3	23.4	6.08e-01	0	37	0	414187520	64	4467
2026-01-19 14:41:09.48	291.72	10.50	-46.8	-48.3	23.5	6.00e-01	0	37	0	415760384	64	4453
2026-01-19 14:41:10.49	291.93	10.49	-46.9	-48.4	23.4	6.02e-01	0	37	0	417857536	64	4515
2026-01-19 14:41:11.49	292.14	10.49	-46.8	-48.3	23.4	6.03e-01	0	37	0	419430400	64	4457
2026-01-19 14:41:12.50	292.35	10.49	-46.9	-48.4	23.4	6.04e-01	0	37	0	421527552	64	4499
2026-01-19 14:41:13.51	292.56	10.49	-46.8	-48.3	23.5	6.04e-01	0	37	0	423624704	64	4463
2026-01-19 14:41:14.52	292.77	10.48	-46.8	-48.3	23.5	6.02e-01	0	37	0	425197568	64	4447
2026-01-19 14:41:15.53	292.98	10.48	-46.7	-48.2	23.5	6.04e-01	0	37	0	427294720	64	4411
2026-01-19 14:41:16.53	293.19	10.47	-46.8	-48.2	23.5	6.00e-01	0	37	0	428867584	64	4436
2026-01-19 14:41:17.54	293.40	10.47	-46.7	-48.1	23.6	6.03e-01	0	37	0	430964736	64	4391
2026-01-19 14:41:18.55	293.61	10.47	-46.6	-48.0	23.8	6.04e-01	0	37	0	433061888	64	4319
2026-01-19 14:41:19.56	293.82	10.46	-46.6	-48.1	23.6	6.02e-01	0	37	0	434634752	64	4366
2026-01-19 14:41:20.56	294.03	10.46	-46.8	-48.2	23.5	6.02e-01	0	37	0	436731904	64	4438
2026-01-19 14:41:21.57	294.24	10.45	-46.9	-48.3	23.4	6.03e-01	0	37	0	438829056	64	4493
2026-01-19 14:41:22.58	294.45	10.45	-46.8	-48.3	23.4	6.00e-01	0	37	0	440401920	64	4483
2026-01-19 14:41:23.59	294.66	10.44	-46.8	-48.3	23.5	6.02e-01	0	37	0	442499072	64	4472
2026-01-19 14:41:24.60	294.87	10.43	-46.9	-48.3	23.4	6.00e-01	0	37	0	444071936	64	4491
2026-01-19 14:41:25.61	295.08	10.43	-46.6	-48.1	23.7	6.02e-01	0	37	0	446169088	64	4365
2026-01-19 14:41:26.61	295.29	10.42	-46.7	-48.1	23.6	5.99e-01	0	37	0	447741952	64	4386
2026-01-19 14:41:27.62	295.50	10.41	-46.6	-48.1	23.7	6.00e-01	0	37	0	449839104	64	4365
2026-01-19 14:41:28.62	295.71	10.40	-46.7	-48.1	23.6	6.00e-01	0	37	0	451936256	64	4385
2026-01-19 14:41:29.63	295.92	10.40	-46.6	-48.1	23.7	6.04e-01	0	37	0	453509120	64	4348
2026-01-19 14:41:30.64	296.13	10.39	-46.6	-48.0	23.7	6.01e-01	0	37	0	455606272	64	4335
2026-01-19 14:41:31.65	296.34	10.38	-46.7	-48.1	23.6	6.03e-01	0	37	0	457703424	64	4379
2026-01-19 14:41:32.66	296.54	10.37	-46.7	-48.2	23.6	6.02e-01	0	37	0	459276288	64	4400
2026-01-19 14:41:33.67	296.75	10.36	-46.7	-48.2	23.5	6.04e-01	0	37	0	461373440	64	4429
2026-01-19 14:41:34.67	296.96	10.35	-46.7	-48.2	23.6	6.02e-01	0	37	0	462946304	64	4400
2026-01-19 14:41:35.68	297.17	10.34	-46.6	-48.1	23.7	6.03e-01	0	37	0	465043456	64	4343
2026-01-19 14:41:36.69	297.38	10.33	-46.6	-48.0	23.7	6.01e-01	0	37	0	467140608	64	4329
2026-01-19 14:41:37.70	297.59	10.32	-46.6	-48.1	23.7	6.02e-01	0	37	0	468713472	64	4348
2026-01-19 14:41:38.71	297.79	10.31	-46.8	-48.2	23.6	6.02e-01	0	37	0	470810624	64	4427
2026-01-19 14:41:39.71	298.00	10.30	-46.7	-48.2	23.6	6.03e-01	0	37	0	472383488	64	4394
2026-01-19 14:41:40.72	298.21	10.29	-46.7	-48.2	23.6	6.02e-01	0	37	0	474480640	64	4396
2026-01-19 14:41:41.73	298.42	10.28	-46.6	-48.0	23.7	6.01e-01	0	37	0	476053504	64	4336
2026-01-19 14:41:42.73	298.62	10.26	-46.5	-48.0	23.8	6.01e-01	0	37	0	478150656	64	4303
2026-01-19 14:41:43.74	298.83	10.25	-46.6	-48.1	23.6	6.01e-01	0	37	0	480247808	64	4345
2026-01-19 14:41:44.75	299.04	10.24	-46.6	-48.1	23.7	6.03e-01	0	37	0	481820672	64	4344
2026-01-19 14:41:45.75	299.24	10.23	-46.6	-48.1	23.7	6.01e-01	0	37	0	483917824	64	4341
2026-01-19 14:41:46.76	299.45	10.21	-46.6	-48.1	23.7	6.01e-01	0	37	0	486014976	64	4352
2026-01-19 14:41:47.76	299.65	10.20	-46.6	-48.1	23.6	6.01e-01	0	37	0	487587840	64	4359
2026-01-19 14:41:48.77	299.86	10.18	-46.7	-48.2	23.5	6.01e-01	0	37	0	489684992	64	4422
2026-01-19 14:41:49.78	300.06	10.17	-46.7	-48.2	23.5	6.05e-01	0	37	0	491257856	64	4423
2026-01-19 14:41:50.78	300.27	10.16	-46.7	-48.1	23.6	5.99e-01	0	37	0	493355008	64	4370
2026-01-19 14:41:51.79	300.47	10.14	-46.6	-48.1	23.6	6.02e-01	0	37	0	495452160	64	4368
2026-01-19 14:41:52.80	300.68	10.13	-46.6	-48.1	23.6	6.03e-01	0	37	0	497025024	64	4353
2026-01-19 14:41:53.81	300.88	10.11	-46.6	-48.1	23.7	6.00e-01	0	37	0	499122176	64	4349
2026-01-19 14:41:54.82	301.09	10.09	-46.6	-48.1	23.6	6.03e-01	0	37	0	500695040	64	4367
2026-01-19 14:41:55.83	301.29	10.08	-46.6	-48.1	23.6	6.00e-01	0	37	0	502792192	64	4375
2026-01-19 14:41:56.83	301.50	10.06	-46.5	-48.0	23.7	6.01e-01	0	37	0	504365056	64	4306
2026-01-19 14:41:57.84	301.70	10.05	-46.6	-48.0	23.6	6.05e-01	0	37	0	506462208	64	4329
2026-01-19 14:41:58.85	301.90	10.03	-46.7	-48.1	23.5	6.04e-01	0	37	0	508559360	64	4385
2026-01-19 14:41:59.86	302.11	10.01	-46.7	-48.2	23.5	6.03e-01	0	37	0	510132224	64	4405
2026-01-19 14:42:00.86	302.31	10.00	-46.7	-48.2	23.5	6.01e-01	0	37	0	512229376	64	4393
2026-01-19 14:42:01.87	302.51	9.98	-46.6	-48.1	23.6	6.01e-01	0	37	0	514326528	64	4351
2026-01-19 14:42:02.88	302.72	9.96	-46.6	-48.0	23.6	6.03e-01	0	37	0	515899392	64	4338
2026-01-19 14:42:03.89	302.92	9.94	-46.6	-48.0	23.6	6.02e-01	0	37	0	517996544	64	4330
2026-01-19 14:42:04.90	303.12	9.92	-46.5	-48.0	23.7	6.01e-01	0	37	0	519569408	64	4312
2026-01-19 14:42:05.91	303.32	9.90	-46.6	-48.1	23.6	6.02e-01	0	37	0	521666560	64	4359
2026-01-19 14:42:06.91	303.52	9.88	-46.7	-48.1	23.5	6.01e-01	0	37	0	523763712	64	4382
2026-01-19 14:42:07.92	303.73	9.87	-46.6	-48.1	23.5	6.02e-01	0	37	0	525336576	64	4376
2026-01-19 14:42:08.93	303.93	9.85	-46.6	-48.1	23.5	6.00e-01	0	37	0	527433728	64	4357
2026-01-19 14:42:09.94	304.13	9.83	-46.5	-48.0	23.6	6.03e-01	0	37	0	529006592	64	4321
2026-01-19 14:42:10.94	304.33	9.81	-46.6	-48.0	23.6	5.99e-01	0	37	0	531103744	64	4327
2026-01-19 14:42:11.95	304.53	9.79	-46.6	-48.0	23.6	5.99e-01	0	37	0	533200896	64	4328
2026-01-19 14:42:12.96	304.73	9.76	-46.5	-48.0	23.6	6.03e-01	0	37	0	534773760	64	4308
2026-01-19 14:42:13.96	304.92	9.74	-46.5	-48.0	23.6	6.02e-01	0	37	0	536870912	64	4315
2026-01-19 14:42:14.97	305.12	9.72	-46.5	-48.0	23.6	6.01e-01	0	37	0	538443776	64	4312
2026-01-19 14:42:15.98	305.32	9.70	-46.6	-48.1	23.5	6.05e-01	0	37	0	540540928	64	4351
2026-01-19 14:42:16.99	305.52	9.68	-46.7	-48.1	23.5	6.03e-01	0	37	0	542638080	64	4390
2026-01-19 14:42:18.00	305.72	9.66	-46.6	-48.1	23.5	6.03e-01	0	37	0	544210944	64	4386
2026-01-19 14:42:19.01	305.92	9.63	-46.6	-48.1	23.5	6.00e-01	0	37	0	546308096	64	4371
2026-01-19 14:42:20.02	306.12	9.61	-46.6	-48.0	23.5	6.02e-01	0	37	0	547880960	64	4339
2026-01-19 14:42:21.02	306.31	9.59	-46.5	-48.0	23.6	6.03e-01	0	37	0	549978112	64	4308
2026-01-19 14:42:22.03	306.51	9.57	-46.6	-48.0	23.6	6.02e-01	0	37	0	552075264	64	4329
2026-01-19 14:42:23.04	306.71	9.54	-46.6	-48.1	23.5	6.02e-01	0	37	0	553648128	64	4380
2026-01-19 14:42:24.05	306.90	9.52	-46.6	-48.1	23.5	6.03e-01	0	37	0	555745280	64	4347
2026-01-19 14:42:25.05	307.10	9.50	-46.5	-48.0	23.6	6.01e-01	0	37	0	557842432	64	4300
2026-01-19 14:42:26.06	307.29	9.47	-46.6	-48.1	23.5	6.01e-01	0	37	0	559415296	64	4352
2026-01-19 14:42:27.07	307.49	9.45	-46.5	-48.0	23.6	6.02e-01	0	37	0	561512448	64	4316
2026-01-19 14:42:28.08	307.69	9.42	-46.6	-48.1	23.5	6.02e-01	0	37	0	563085312	64	4342
2026-01-19 14:42:29.09	307.88	9.40	-46.7	-48.2	23.4	6.04e-01	0	37	0	565182464	64	4420
2026-01-19 14:42:30.09	308.07	9.37	-46.7	-48.2	23.4	6.03e-01	0	37	0	566755328	64	4419
2026-01-19 14:42:31.10	308.27	9.35	-46.7	-48.2	23.3	6.03e-01	0	37	0	568852480	64	4441
2026-01-19 14:42:32.11	308.46	9.32	-46.7	-48.2	23.3	6.02e-01	0	37	0	570949632	64	4420
2026-01-19 14:42:33.12	308.65	9.30	-46.5	-48.0	23.6	6.01e-01	0	37	0	572522496	64	4300
2026-01-19 14:42:34.12	308.85	9.27	-46.5	-47.9	23.6	6.02e-01	0	37	0	574619648	64	4288
2026-01-19 14:42:35.13	309.04	9.24	-46.5	-47.9	23.6	5.99e-01	0	37	0	576192512	64	4267
2026-01-19 14:42:36.14	309.23	9.22	-46.5	-48.0	23.5	5.98e-01	0	37	0	578289664	64	4323
2026-01-19 14:42:37.15	309.42	9.19	-46.5	-48.0	23.5	6.00e-01	0	37	0	580386816	64	4322
2026-01-19 14:42:38.16	309.61	9.16	-46.6	-48.1	23.4	6.02e-01	0	37	0	581959680	64	4342
2026-01-19 14:42:39.17	309.81	9.14	-46.7	-48.2	23.3	6.04e-01	0	37	0	584056832	64	4430
2026-01-19 14:42:40.17	309.99	9.11	-46.6	-48.1	23.4	6.01e-01	0	37	0	586153984	64	4368
2026-01-19 14:42:41.18	310.19	9.08	-46.6	-48.1	23.4	6.00e-01	0	37	0	587726848	64	4381
2026-01-19 14:42:42.19	310.38	9.05	-46.6	-48.1	23.4	6.00e-01	0	37	0	589824000	64	4360
2026-01-19 14:42:43.20	310.56	9.03	-46.6	-48.0	23.4	6.03e-01	0	37	0	591396864	64	4339
2026-01-19 14:42:44.20	310.75	9.00	-46.6	-48.1	23.4	6.03e-01	0	37	0	593494016	64	4344
2026-01-19 14:42:45.21	310.94	8.97	-46.5	-48.0	23.4	6.04e-01	0	37	0	595066880	64	4323
2026-01-19 14:42:46.22	311.13	8.94	-46.6	-48.1	23.4	6.02e-01	0	37	0	597164032	64	4363
2026-01-19 14:42:47.23	311.32	8.91	-46.6	-48.1	23.3	6.02e-01	0	37	0	599261184	64	4371
2026-01-19 14:42:48.24	311.51	8.88	-46.5	-48.0	23.5	6.04e-01	0	37	0	600834048	64	4330
2026-01-19 14:42:49.24	311.69	8.85	-46.5	-48.0	23.4	6.00e-01	0	37	0	602931200	64	4324
2026-01-19 14:42:50.25	311.88	8.82	-46.6	-48.1	23.4	6.00e-01	0	37	0	605028352	64	4349
2026-01-19 14:42:51.26	312.06	8.79	-46.7	-48.2	23.2	6.07e-01	0	37	0	606601216	64	4436
2026-01-19 14:42:52.27	312.25	8.76	-46.8	-48.4	23.1	6.02e-01	0	37	0	608698368	64	4516
2026-01-19 14:42:53.27	312.43	8.73	-46.8	-48.3	23.2	6.01e-01	0	37	0	610271232	64	4482
2026-01-19 14:42:54.28	312.62	8.70	-46.7	-48.3	23.2	6.02e-01	0	37	0	612368384	64	4445
2026-01-19 14:42:55.29	312.81	8.67	-46.8	-48.3	23.2	5.99e-01	0	37	0	614465536	64	4467
2026-01-19 14:42:56.30	312.99	8.64	-46.7	-48.2	23.2	6.01e-01	0	37	0	616038400	64	4437
2026-01-19 14:42:57.31	313.17	8.61	-46.7	-48.2	23.2	6.00e-01	0	37	0	618135552	64	4416
2026-01-19 14:42:58.31	313.36	8.58	-46.7	-48.2	23.2	5.99e-01	0	37	0	619708416	64	4430
2026-01-19 14:42:59.32	313.54	8.55	-46.6	-48.1	23.3	5.99e-01	0	37	0	621805568	64	4363
2026-01-19 14:43:00.33	313.72	8.52	-46.6	-48.1	23.4	6.02e-01	0	37	0	623378432	64	4350
2026-01-19 14:43:01.34	313.90	8.48	-46.7	-48.3	23.1	6.00e-01	0	37	0	625475584	64	4453
2026-01-19 14:43:02.34	314.08	8.45	-46.7	-48.2	23.2	6.02e-01	0	37	0	627572736	64	4431
2026-01-19 14:43:03.35	314.27	8.42	-46.7	-48.2	23.2	6.00e-01	0	37	0	629669888	64	4440
2026-01-19 14:43:04.35	314.45	8.39	-46.7	-48.2	23.1	6.03e-01	0	37	0	631242752	64	4417
2026-01-19 14:43:05.36	314.63	8.36	-46.6	-48.2	23.2	6.00e-01	0	37	0	633339904	64	4399
2026-01-19 14:43:06.37	314.81	8.32	-46.7	-48.2	23.2	6.00e-01	0	37	0	634912768	64	4437
2026-01-19 14:43:07.38	314.99	8.29	-46.7	-48.3	23.2	6.04e-01	0	37	0	637009920	64	4444
2026-01-19 14:43:08.39	315.17	8.26	-46.8	-48.3	23.1	6.01e-01	0	37	0	638582784	64	4467
2026-01-19 14:43:09.39	315.34	8.22	-46.8	-48.3	23.0	6.00e-01	0	37	0	640679936	64	4491
2026-01-19 14:43:10.40	315.52	8.19	-46.8	-48.3	23.1	5.99e-01	0	37	0	642777088	64	4491
2026-01-19 14:43:11.41	315.70	8.16	-46.7	-48.3	23.1	6.02e-01	0	37	0	644349952	64	4454
2026-01-19 14:43:12.41	315.88	8.12	-46.7	-48.3	23.1	6.02e-01	0	37	0	646447104	64	4453
2026-01-19 14:43:13.42	316.05	8.09	-46.6	-48.1	23.2	6.00e-01	0	37	0	648019968	64	4386
2026-01-19 14:43:14.43	316.23	8.06	-46.8	-48.3	23.0	6.01e-01	0	37	0	650117120	64	4483
2026-01-19 14:43:15.44	316.41	8.02	-46.5	-48.0	23.3	6.01e-01	0	37	0	651689984	64	4313
2026-01-19 14:43:16.45	316.58	7.99	-46.7	-48.3	23.1	6.01e-01	0	37	0	653787136	64	4451
2026-01-19 14:43:17.46	316.76	7.95	-46.7	-48.3	23.1	6.02e-01	0	37	0	655884288	64	4445
2026-01-19 14:43:18.46	316.93	7.92	-46.8	-48.3	23.0	6.03e-01	0	37	0	657981440	64	4492
2026-01-19 14:43:19.47	317.11	7.88	-46.8	-48.3	23.0	6.01e-01	0	37	0	659554304	64	4490
2026-01-19 14:43:20.48	317.28	7.85	-46.8	-48.3	23.0	5.98e-01	0	37	0	661651456	64	4491
2026-01-19 14:43:21.49	317.45	7.81	-46.8	-48.4	22.9	6.00e-01	0	37	0	663224320	64	4505
2026-01-19 14:43:22.49	317.63	7.78	-46.9	-48.5	22.9	6.04e-01	0	37	0	665321472	64	4558
2026-01-19 14:43:23.50	317.80	7.74	-46.9	-48.5	22.9	6.05e-01	0	37	0	666894336	64	4560
2026-01-19 14:43:24.51	317.97	7.71	-47.0	-48.6	22.7	6.01e-01	0	37	0	668991488	64	4628
2026-01-19 14:43:25.52	318.14	7.67	-46.9	-48.5	22.8	6.02e-01	0	37	0	671088640	64	4569
2026-01-19 14:43:26.53	318.31	7.63	-46.8	-48.4	22.9	6.01e-01	0	37	0	672661504	64	4531
2026-01-19 14:43:27.53	318.48	7.60	-46.8	-48.3	22.9	6.03e-01	0	37	0	674758656	64	4493
2026-01-19 14:43:28.54	318.65	7.56	-46.8	-48.3	23.0	5.99e-01	0	37	0	676331520	64	4473
2026-01-19 14:43:29.54	318.82	7.53	-46.7	-48.2	23.1	6.02e-01	0	37	0	678428672	64	4424
2026-01-19 14:43:30.55	318.99	7.49	-46.8	-48.4	22.9	6.03e-01	0	37	0	680525824	64	4515
2026-01-19 14:43:31.56	319.16	7.45	-46.9	-48.5	22.8	6.02e-01	0	37	0	682098688	64	4585
2026-01-19 14:43:32.57	319.33	7.42	-46.8	-48.4	22.9	6.03e-01	0	37	0	684195840	64	4503
2026-01-19 14:43:33.58	319.50	7.38	-46.9	-48.5	22.8	6.01e-01	0	37	0	686292992	64	4578
2026-01-19 14:43:34.58	319.67	7.34	-47.0	-48.6	22.6	6.00e-01	0	37	0	687865856	64	4651
2026-01-19 14:43:35.59	319.83	7.30	-47.0	-48.7	22.6	6.02e-01	0	37	0	689963008	64	4660
2026-01-19 14:43:36.60	320.00	7.27	-47.0	-48.6	22.6	6.02e-01	0	37	0	691535872	64	4638
2026-01-19 14:43:37.61	320.17	7.23	-47.0	-48.6	22.6	6.00e-01	0	37	0	693633024	64	4636
2026-01-19 14:43:38.61	320.33	7.19	-47.0	-48.6	22.6	6.02e-01	0	37	0	695205888	64	4634
2026-01-19 14:43:39.62	320.50	7.15	-46.9	-48.6	22.7	6.02e-01	0	37	0	697303040	64	4605
2026-01-19 14:43:40.63	320.66	7.12	-46.9	-48.6	22.7	6.04e-01	0	37	0	699400192	64	4602
2026-01-19 14:43:41.64	320.83	7.08	-46.8	-48.4	22.9	5.99e-01	0	37	0	700973056	64	4497
2026-01-19 14:43:42.65	320.99	7.04	-46.9	-48.5	22.7	6.00e-01	0	37	0	703070208	64	4558
2026-01-19 14:43:43.65	321.15	7.00	-46.8	-48.4	22.8	5.99e-01	0	37	0	705167360	64	4522
2026-01-19 14:43:44.66	321.32	6.96	-46.8	-48.4	22.8	6.01e-01	0	37	0	706740224	64	4533
2026-01-19 14:43:45.67	321.48	6.92	-46.8	-48.4	22.8	6.01e-01	0	37	0	708837376	64	4532
2026-01-19 14:43:46.67	321.64	6.89	-46.9	-48.5	22.8	6.03e-01	0	37	0	710410240	64	4560
2026-01-19 14:43:47.68	321.80	6.85	-47.1	-48.7	22.5	6.04e-01	0	37	0	712507392	64	4690
2026-01-19 14:43:48.69	321.96	6.81	-47.1	-48.7	22.5	6.01e-01	0	37	0	714604544	64	4678
2026-01-19 14:43:49.70	322.13	6.77	-47.1	-48.7	22.5	6.00e-01	0	37	0	716177408	64	4693
2026-01-19 14:43:50.70	322.28	6.73	-47.1	-48.8	22.4	6.03e-01	0	37	0	718274560	64	4728
2026-01-19 14:43:51.71	322.45	6.69	-47.1	-48.7	22.5	6.01e-01	0	37	0	719847424	64	4698
2026-01-19 14:43:52.72	322.60	6.65	-47.1	-48.7	22.5	6.02e-01	0	37	0	721944576	64	4690
2026-01-19 14:43:53.72	322.76	6.61	-47.2	-48.8	22.4	6.00e-01	0	37	0	723517440	64	4753
2026-01-19 14:43:54.73	322.92	6.57	-47.1	-48.7	22.5	6.03e-01	0	37	0	725614592	65	4415
2026-01-19 14:43:55.74	323.08	6.53	-47.0	-48.7	22.5	5.99e-01	0	37	0	727711744	65	4406
2026-01-19 14:43:56.75	323.24	6.49	-47.1	-48.8	22.4	6.02e-01	0	38	0	729808896	65	4469
2026-01-19 14:43:57.76	323.40	6.45	-46.8	-48.4	22.8	6.03e-01	0	37	0	731381760	65	4252
2026-01-19 14:43:58.77	323.55	6.41	-46.8	-48.4	22.8	6.01e-01	0	37	0	733478912	65	4254
2026-01-19 14:43:59.77	323.71	6.37	-47.2	-48.9	22.4	6.00e-01	0	37	0	735051776	65	4497
2026-01-19 14:44:00.78	323.86	6.33	-47.1	-48.7	22.5	6.02e-01	0	37	0	737148928	65	4417
2026-01-19 14:44:01.79	324.02	6.29	-47.2	-48.9	22.2	6.01e-01	0	37	0	738721792	65	4543
2026-01-19 14:44:02.80	324.17	6.25	-47.2	-48.9	22.3	6.01e-01	0	37	0	740818944	65	4524
2026-01-19 14:44:03.81	324.33	6.21	-47.2	-48.9	22.3	6.03e-01	0	37	0	742916096	65	4506
2026-01-19 14:44:04.81	324.48	6.17	-47.2	-48.9	22.3	5.99e-01	0	37	0	744488960	65	4517
2026-01-19 14:44:05.82	324.64	6.13	-47.4	-49.2	22.0	6.01e-01	0	37	0	746586112	65	4672
2026-01-19 14:44:06.83	324.79	6.09	-47.4	-49.2	22.0	6.00e-01	0	37	0	748158976	65	4660
2026-01-19 14:44:07.83	324.94	6.05	-47.5	-49.3	21.9	6.02e-01	0	37	0	750256128	65	4740
2026-01-19 14:44:08.84	325.09	6.01	-47.3	-49.0	22.1	6.03e-01	0	37	0	751828992	65	4586
2026-01-19 14:44:09.85	325.25	5.97	-47.3	-49.0	22.2	6.04e-01	0	37	0	753926144	65	4571
2026-01-19 14:44:10.86	325.40	5.93	-47.3	-49.0	22.1	6.01e-01	0	37	0	756023296	65	4588
2026-01-19 14:44:11.87	325.55	5.89	-47.2	-48.9	22.2	6.00e-01	0	37	0	758120448	65	4530
2026-01-19 14:44:12.87	325.70	5.85	-47.2	-48.9	22.2	5.99e-01	0	37	0	759693312	65	4511
2026-01-19 14:44:13.88	325.85	5.80	-47.2	-48.9	22.2	6.00e-01	0	37	0	761790464	65	4506
2026-01-19 14:44:14.89	326.00	5.76	-47.2	-49.0	22.1	5.99e-01	0	37	0	763363328	65	4548
2026-01-19 14:44:15.90	326.15	5.72	-47.3	-49.1	22.0	6.00e-01	0	37	0	765460480	65	4620
2026-01-19 14:44:16.91	326.30	5.68	-47.4	-49.1	22.0	6.00e-01	0	37	0	767033344	65	4651
2026-01-19 14:44:17.92	326.44	5.64	-47.2	-49.0	22.1	6.02e-01	0	37	0	769130496	65	4549
2026-01-19 14:44:18.93	326.59	5.60	-47.4	-49.2	21.9	6.03e-01	0	37	0	771227648	65	4669
2026-01-19 14:44:19.93	326.74	5.56	-47.4	-49.2	21.9	5.99e-01	0	37	0	772800512	65	4654
2026-01-19 14:44:20.94	326.89	5.51	-47.5	-49.2	21.8	5.99e-01	0	37	0	774897664	65	4696
2026-01-19 14:44:21.95	327.03	5.47	-47.3	-49.1	22.0	6.02e-01	0	38	0	776994816	65	4606
2026-01-19 14:44:22.96	327.18	5.43	-47.3	-49.0	22.0	6.00e-01	0	37	0	778567680	65	4592
2026-01-19 14:44:23.96	327.32	5.39	-47.3	-49.0	22.1	6.04e-01	0	37	0	780664832	65	4581
2026-01-19 14:44:24.97	327.47	5.35	-47.6	-49.4	21.7	5.98e-01	0	37	0	782237696	65	4780
2026-01-19 14:44:25.98	327.61	5.30	-47.4	-49.2	21.9	6.01e-01	0	37	0	784334848	65	4658
2026-01-19 14:44:26.99	327.76	5.26	-47.5	-49.2	21.8	6.06e-01	0	37	0	786432000	65	4704
2026-01-19 14:44:28.00	327.90	5.22	-47.5	-49.3	21.7	6.00e-01	0	37	0	788004864	65	4715
2026-01-19 14:44:29.01	328.05	5.18	-47.6	-49.4	21.6	5.99e-01	0	37	0	790102016	65	4802
2026-01-19 14:44:30.01	328.19	5.13	-47.4	-49.2	21.8	6.00e-01	0	37	0	791674880	65	4664
2026-01-19 14:44:31.02	328.33	5.09	-47.4	-49.2	21.8	6.05e-01	0	37	0	793772032	65	4696
2026-01-19 14:44:32.03	328.47	5.05	-47.7	-49.6	21.5	5.97e-01	0	37	0	795344896	65	4872
2026-01-19 14:44:33.03	328.61	5.01	-47.5	-49.3	21.7	6.04e-01	0	37	0	797442048	65	4715
2026-01-19 14:44:34.04	328.75	4.96	-53.3	-60.8	11.2	6.16e-01	0	37	0	799539200	77	8905
2026-01-19 14:44:35.05	328.89	4.92	-54.7	-72.5	3.8	7.47e-01	0	38	104	799539200	79	30502
2026-01-19 14:44:36.06	329.04	4.88	-54.8	-72.6	3.8	7.45e-01	0	37	104	799539200	80	29237
2026-01-19 14:44:37.07	329.18	4.84	-55.0	-72.8	3.8	7.46e-01	0	37	104	799539200	80	29828
2026-01-19 14:44:38.07	329.31	4.79	-55.1	-72.9	3.8	7.48e-01	0	37	104	799539200	80	30187
2026-01-19 14:44:39.08	329.45	4.75	-55.2	-73.0	3.8	7.43e-01	0	37	104	799539200	80	30602
2026-01-19 14:44:40.09	329.59	4.71	-55.3	-73.1	3.8	7.47e-01	0	37	104	799539200	81	29266
2026-01-19 14:44:41.10	329.73	4.66	-55.4	-73.2	3.8	7.45e-01	0	37	104	799539200	81	29525
2026-01-19 14:44:42.10	329.87	4.62	-55.5	-73.3	3.8	7.46e-01	0	37	104	799539200	81	29868
2026-01-19 14:44:43.11	330.00	4.58	-55.5	-73.4	3.8	7.45e-01	0	37	104	799539200	81	30072
2026-01-19 14:44:44.12	330.14	4.53	-55.6	-73.4	3.8	7.45e-01	0	37	104	799539200	81	30245
2026-01-19 14:44:45.13	330.28	4.49	-55.6	-73.4	3.8	7.47e-01	0	38	104	799539200	81	30352
2026-01-19 14:44:46.14	330.41	4.45	-55.7	-73.5	3.8	7.47e-01	0	37	104	799539200	81	30513
2026-01-19 14:44:47.14	330.55	4.41	-55.7	-73.5	3.8	7.48e-01	0	37	104	799539200	81	30659
2026-01-19 14:44:48.15	330.68	4.36	-55.7	-73.5	3.8	7.47e-01	0	37	104	799539200	81	30664
2026-01-19 14:44:49.16	330.82	4.32	-55.7	-73.5	3.8	7.45e-01	0	38	104	799539200	81	30690
2026-01-19 14:44:50.17	330.95	4.27	-55.7	-73.6	3.8	7.46e-01	0	37	104	799539200	82	29049
2026-01-19 14:44:51.18	331.09	4.23	-55.7	-73.6	3.8	7.46e-01	0	37	104	799539200	82	29077
2026-01-19 14:44:52.19	331.22	4.19	-55.7	-73.6	3.8	7.42e-01	0	37	104	799539200	82	29034
2026-01-19 14:44:53.20	331.36	4.14	-55.7	-73.6	3.8	7.40e-01	0	37	104	799539200	82	29031
2026-01-19 14:44:54.20	331.49	4.10	-55.7	-73.6	3.8	7.45e-01	0	37	104	799539200	82	29024
2026-01-19 14:44:55.21	331.62	4.06	-55.7	-73.5	3.8	7.42e-01	0	38	104	799539200	82	28942
2026-01-19 14:44:56.21	331.75	4.01	-55.7	-73.5	3.8	7.47e-01	0	38	104	799539200	82	28851
2026-01-19 14:44:57.22	331.88	3.97	-55.7	-73.5	3.8	7.45e-01	0	38	104	799539200	82	28798
2026-01-19 14:44:58.23	332.01	3.93	-55.6	-73.5	3.8	7.47e-01	0	38	104	799539200	82	28754
2026-01-19 14:44:59.24	332.14	3.88	-55.6	-73.5	3.8	7.47e-01	0	37	104	799539200	82	28709
2026-01-19 14:45:00.25	332.27	3.84	-55.6	-73.5	3.8	7.46e-01	0	38	104	799539200	82	28719
2026-01-19 14:45:01.25	332.40	3.79	-55.6	-73.4	3.8	7.45e-01	0	37	104	799539200	82	28667
2026-01-19 14:45:02.26	332.53	3.75	-55.6	-73.4	3.8	7.46e-01	0	37	104	799539200	82	28667
2026-01-19 14:45:03.27	332.66	3.71	-55.6	-73.4	3.8	7.44e-01	0	38	104	799539200	82	28608
2026-01-19 14:45:04.28	332.79	3.66	-55.6	-73.4	3.8	7.43e-01	0	37	104	799539200	82	28593
2026-01-19 14:45:05.28	332.92	3.62	-55.6	-73.4	3.8	7.43e-01	0	38	104	799539200	82	28625
2026-01-19 14:45:06.29	333.05	3.58	-55.6	-73.4	3.8	7.47e-01	0	37	104	799539200	82	28559
2026-01-19 14:45:07.30	333.17	3.53	-55.6	-73.4	3.8	7.43e-01	0	38	104	799539200	82	28497
2026-01-19 14:45:08.31	333.30	3.49	-55.6	-73.4	3.8	7.48e-01	0	38	104	799539200	82	28546
2026-01-19 14:45:09.32	333.43	3.44	-55.6	-73.4	3.8	7.40e-01	0	38	104	799539200	82	28527
2026-01-19 14:45:10.33	333.55	3.40	-55.6	-73.4	3.8	7.42e-01	0	37	104	799539200	82	28572
2026-01-19 14:45:11.33	333.68	3.35	-55.6	-73.4	3.8	7.46e-01	0	38	104	799539200	82	28553
2026-01-19 14:45:12.34	333.80	3.31	-55.6	-73.4	3.8	7.41e-01	0	37	104	799539200	82	28496
2026-01-19 14:45:13.35	333.93	3.27	-55.6	-73.4	3.8	7.44e-01	0	37	104	799539200	82	28504
2026-01-19 14:45:14.36	334.05	3.22	-55.6	-73.4	3.8	7.46e-01	0	37	104	799539200	82	28474
2026-01-19 14:45:15.37	334.18	3.18	-55.6	-73.4	3.8	7.47e-01	0	38	104	799539200	82	28546
2026-01-19 14:45:16.37	334.30	3.13	-55.6	-73.4	3.8	7.45e-01	0	38	104	799539200	82	28515
2026-01-19 14:45:17.38	334.42	3.09	-55.6	-73.4	3.8	7.47e-01	0	38	104	799539200	82	28471
2026-01-19 14:45:18.39	334.55	3.05	-55.6	-73.4	3.8	7.44e-01	0	37	104	799539200	82	28492
2026-01-19 14:45:19.40	334.67	3.00	-55.6	-73.4	3.8	7.44e-01	0	38	104	799539200	82	28420
2026-01-19 14:45:20.41	334.79	2.96	-55.5	-73.4	3.8	7.49e-01	0	37	104	799539200	82	28400
2026-01-19 14:45:21.41	334.91	2.91	-55.5	-73.4	3.8	7.44e-01	0	38	104	799539200	82	28512
2026-01-19 14:45:22.43	335.04	2.87	-55.5	-73.4	3.8	7.45e-01	0	38	104	799539200	82	28497
2026-01-19 14:45:23.43	335.16	2.82	-55.5	-73.4	3.8	7.46e-01	0	38	104	799539200	82	28540
2026-01-19 14:45:24.44	335.28	2.78	-55.5	-73.4	3.8	7.47e-01	0	38	104	799539200	82	28467
2026-01-19 14:45:25.45	335.40	2.73	-55.5	-73.4	3.8	7.41e-01	0	37	104	799539200	82	28364
2026-01-19 14:45:26.45	335.52	2.69	-55.5	-73.4	3.8	7.45e-01	0	38	104	799539200	82	28461
2026-01-19 14:45:27.46	335.64	2.65	-55.5	-73.4	3.8	7.45e-01	0	38	104	799539200	82	28368
2026-01-19 14:45:28.47	335.76	2.60	-55.5	-73.4	3.8	7.44e-01	0	38	104	799539200	82	28414
2026-01-19 14:45:29.48	335.88	2.56	-55.5	-73.4	3.8	7.44e-01	0	38	104	799539200	82	28445
2026-01-19 14:45:30.49	335.99	2.51	-55.5	-73.4	3.8	7.42e-01	0	38	104	799539200	82	28368
2026-01-19 14:45:31.49	336.11	2.47	-55.5	-73.4	3.8	7.47e-01	0	38	104	799539200	82	28384
2026-01-19 14:45:32.50	336.23	2.42	-55.5	-73.4	3.8	7.45e-01	0	38	104	799539200	82	28416
2026-01-19 14:45:33.51	336.35	2.38	-55.5	-73.4	3.8	7.45e-01	0	38	104	799539200	82	28379
2026-01-19 14:45:34.52	336.46	2.33	-55.5	-73.4	3.8	7.44e-01	0	38	104	799539200	82	28407
2026-01-19 14:45:35.53	336.58	2.29	-55.5	-73.4	3.8	7.46e-01	0	37	104	799539200	82	28420
2026-01-19 14:45:36.54	336.70	2.25	-55.5	-73.3	3.8	7.46e-01	0	37	104	799539200	82	28326
2026-01-19 14:45:37.55	336.81	2.20	-55.5	-73.4	3.8	7.45e-01	0	38	104	799539200	82	28383
2026-01-19 14:45:38.55	336.93	2.16	-55.5	-73.3	3.8	7.44e-01	0	37	104	799539200	82	28290
2026-01-19 14:45:39.56	337.04	2.11	-55.5	-73.3	3.8	7.45e-01	0	38	104	799539200	82	28308
2026-01-19 14:45:40.57	337.16	2.07	-55.5	-73.3	3.8	7.44e-01	0	37	104	799539200	82	28296
2026-01-19 14:45:41.58	337.27	2.02	-55.5	-73.3	3.8	7.47e-01	0	38	104	799539200	82	28288
2026-01-19 14:45:42.59	337.39	1.98	-55.5	-73.3	3.8	7.47e-01	0	38	104	799539200	82	28325
2026-01-19 14:45:43.59	337.50	1.93	-55.5	-73.3	3.8	7.48e-01	0	38	104	799539200	82	28291

#Closed at: 2026-01-19 14:45:43
#Recorded file [799 MB]: D:/lorett/data/31041_260119_173627.dat