passes_logs/2026/01/19/R3.2S_Murmansk/R3.2S_Murmansk__20260119_010658_NOAA_21_JPSS-2_rec.log

#Pass ID: 20260119_010658_NOAA 21 (JPSS-2)
#Satellite: NOAA 21 (JPSS-2)
#Configuration: NOAA-21
#almurnet v.1.7.20251203
#Start time: 2026-01-19 01:07:00

#Version: 2.2.20231116
#Station: R3.2S_Murmansk
#Location: 33.079688 lon 68.888172 lat
#TLE: 1 54234U 22150A   26018.60745868  .00000048  00000+0  43754-4 0  9997
#TLE: 2 54234  98.7503 319.4636 0000607 264.0480  96.0627 14.19535445165329

#Time	Az	El	Level	Level2	SNR	BER	BlckErr	Temp	State	Recorded	gain1	gain2
2026-01-19 01:07:00.31	26.22	2.11	-51.6	-64.4	3.8	1.49e+00	0	35	0	0	75	15086
2026-01-19 01:07:01.31	26.22	2.18	-51.6	-64.4	3.8	1.49e+00	0	35	104	0	73	16980
2026-01-19 01:07:02.32	26.21	2.24	-51.6	-64.3	3.8	1.49e+00	0	35	104	0	73	16858
2026-01-19 01:07:03.33	26.20	2.31	-51.6	-64.3	3.8	1.49e+00	0	35	104	0	73	16850
2026-01-19 01:07:04.34	26.19	2.37	-51.6	-64.3	3.8	1.49e+00	0	35	104	0	73	16862
2026-01-19 01:07:05.34	26.19	2.44	-51.6	-64.3	3.8	1.49e+00	0	35	104	0	73	16827
2026-01-19 01:07:06.35	26.18	2.50	-51.6	-64.3	3.8	1.49e+00	0	35	104	0	73	16820
2026-01-19 01:07:07.35	26.17	2.57	-51.6	-64.3	3.8	1.49e+00	0	35	104	0	73	16800
2026-01-19 01:07:08.37	26.16	2.63	-51.6	-64.3	3.8	1.49e+00	0	35	104	0	73	16735
2026-01-19 01:07:09.37	26.15	2.70	-51.6	-64.3	3.8	1.49e+00	0	35	104	0	73	16816
2026-01-19 01:07:10.38	26.15	2.76	-51.6	-64.3	3.8	1.49e+00	0	35	104	0	73	16825
2026-01-19 01:07:11.39	26.14	2.83	-51.6	-64.3	3.8	1.49e+00	0	35	104	0	73	16797
2026-01-19 01:07:12.40	26.13	2.90	-51.6	-64.3	3.8	1.49e+00	0	35	104	0	73	16884
2026-01-19 01:07:13.40	26.12	2.96	-51.6	-64.3	3.8	1.49e+00	0	35	104	0	73	16841
2026-01-19 01:07:14.41	26.11	3.03	-51.6	-64.3	3.8	1.49e+00	0	35	104	0	73	16838
2026-01-19 01:07:15.42	26.10	3.10	-51.6	-64.2	3.8	1.49e+00	0	35	104	0	73	16619
2026-01-19 01:07:16.43	26.10	3.16	-51.6	-64.0	3.8	1.49e+00	0	35	104	0	73	16275
2026-01-19 01:07:17.44	26.09	3.23	-51.5	-63.5	3.8	1.49e+00	0	35	104	0	73	15390
2026-01-19 01:07:18.44	26.08	3.30	-51.5	-62.9	3.8	1.49e+00	0	35	104	0	73	14261
2026-01-19 01:07:19.45	26.07	3.36	-51.4	-61.5	4.0	1.49e+00	0	35	104	0	73	12161
2026-01-19 01:07:20.46	26.06	3.43	-51.2	-60.3	4.3	1.46e+00	0	35	104	0	73	10601
2026-01-19 01:07:21.47	26.05	3.50	-51.0	-58.7	5.1	1.11e+00	0	35	104	0	73	8791
2026-01-19 01:07:22.47	26.04	3.57	-50.7	-57.2	6.1	4.64e-01	0	35	0	2097152	73	7388
2026-01-19 01:07:23.48	26.04	3.63	-50.2	-55.4	7.6	1.53e-01	0	35	0	5242880	72	6398
2026-01-19 01:07:24.49	26.03	3.70	-49.6	-53.8	9.3	4.39e-02	0	35	0	8388608	71	5638
2026-01-19 01:07:25.50	26.02	3.77	-49.1	-52.7	10.5	8.77e-03	0	35	0	11534336	70	5245
2026-01-19 01:07:26.50	26.01	3.84	-48.5	-51.6	11.6	9.92e-04	0	35	0	14680064	69	4909
2026-01-19 01:07:27.51	26.00	3.91	-48.0	-50.7	12.5	2.23e-04	0	35	0	17825792	68	4705
2026-01-19 01:07:28.52	25.99	3.98	-47.3	-49.6	13.6	5.30e-06	0	35	0	20971520	66	4600
2026-01-19 01:07:29.53	25.98	4.05	-47.0	-49.1	14.1	1.50e-06	0	36	0	24117248	65	4648
2026-01-19 01:07:30.54	25.97	4.11	-46.7	-48.8	14.4	1.50e-06	0	36	0	27262976	65	4447
2026-01-19 01:07:31.54	25.96	4.18	-46.7	-48.7	14.5	7.00e-07	0	35	0	30408704	65	4415
2026-01-19 01:07:32.55	25.95	4.25	-47.2	-49.5	13.7	5.30e-06	0	35	0	33554432	65	4823
2026-01-19 01:07:33.56	25.94	4.32	-47.2	-49.4	13.8	2.20e-06	0	35	0	36700160	65	4812
2026-01-19 01:07:34.57	25.93	4.39	-47.4	-49.8	13.4	1.22e-05	0	35	0	39845888	65	5004
2026-01-19 01:07:35.58	25.92	4.46	-47.5	-50.0	13.2	3.05e-05	0	35	0	42991616	65	5124
2026-01-19 01:07:36.58	25.91	4.53	-47.4	-49.8	13.4	1.90e-05	0	35	0	46137344	65	4989
2026-01-19 01:07:37.59	25.90	4.60	-47.7	-50.3	12.9	2.89e-05	0	35	0	49283072	65	5304
2026-01-19 01:07:38.60	25.89	4.67	-48.3	-51.3	11.9	2.45e-04	0	36	0	52428800	67	5288
2026-01-19 01:07:39.61	25.88	4.74	-48.9	-52.4	10.8	1.70e-03	0	36	0	55574528	68	5701
2026-01-19 01:07:40.61	25.87	4.81	-49.3	-53.2	9.9	9.82e-03	0	36	0	58720256	69	5918
2026-01-19 01:07:41.62	25.86	4.89	-49.5	-53.6	9.5	1.26e-02	0	36	0	61865984	69	6197
2026-01-19 01:07:42.63	25.85	4.96	-49.7	-54.1	9.1	2.08e-02	0	36	0	65011712	69	6508
2026-01-19 01:07:43.64	25.84	5.03	-50.3	-55.7	7.4	7.34e-02	0	36	0	68157440	71	6996
2026-01-19 01:07:44.65	25.83	5.10	-50.5	-56.3	6.9	2.00e-01	0	35	0	71303168	71	7476
2026-01-19 01:07:45.66	25.82	5.17	-48.6	-51.4	12.0	3.58e-02	0	36	0	74448896	69	4810
2026-01-19 01:07:46.67	25.81	5.25	-50.7	-57.4	6.1	2.39e-02	0	36	0	77594624	71	8480
2026-01-19 01:07:47.67	25.80	5.32	-49.1	-53.2	4.9	1.45e+00	0	36	104	78643200	70	5530
2026-01-19 01:07:48.68	25.79	5.39	-48.1	-50.5	13.3	0.00e+00	0	36	0	79691776	66	5142
2026-01-19 01:07:49.69	25.78	5.46	-47.7	-49.9	13.7	4.35e-03	0	36	0	82837504	67	4523
2026-01-19 01:07:50.70	25.77	5.54	-46.8	-48.6	15.1	0.00e+00	0	36	0	85983232	65	4367
2026-01-19 01:07:51.70	25.76	5.61	-46.3	-48.0	15.9	0.00e+00	0	36	0	90177536	64	4305
2026-01-19 01:07:52.71	25.75	5.68	-46.1	-47.7	16.2	0.00e+00	0	36	0	93323264	64	4160
2026-01-19 01:07:53.72	25.74	5.76	-46.0	-47.6	16.4	0.00e+00	0	36	0	96468992	63	4364
2026-01-19 01:07:54.73	25.73	5.83	-46.1	-47.7	16.3	0.00e+00	0	36	0	99614720	63	4417
2026-01-19 01:07:55.74	25.71	5.90	-45.9	-47.4	16.7	0.00e+00	0	36	0	102760448	63	4263
2026-01-19 01:07:56.74	25.70	5.98	-46.0	-47.5	16.6	0.00e+00	0	36	0	105906176	63	4306
2026-01-19 01:07:57.75	25.69	6.05	-45.9	-47.4	16.7	0.00e+00	0	36	0	109051904	63	4261
2026-01-19 01:07:58.76	25.68	6.13	-45.8	-47.2	16.9	0.00e+00	0	36	0	112197632	63	4174
2026-01-19 01:07:59.76	25.67	6.20	-45.8	-47.3	16.8	0.00e+00	0	36	0	114294784	63	4233
2026-01-19 01:08:00.77	25.66	6.27	-45.8	-47.2	16.9	0.00e+00	0	36	0	117440512	63	4178
2026-01-19 01:08:01.78	25.65	6.35	-45.9	-47.4	16.7	0.00e+00	0	36	0	120586240	63	4277
2026-01-19 01:08:02.79	25.63	6.43	-45.8	-47.3	16.8	0.00e+00	0	36	0	123731968	63	4223
2026-01-19 01:08:03.80	25.62	6.50	-45.8	-47.2	17.0	0.00e+00	0	36	0	126877696	63	4172
2026-01-19 01:08:04.80	25.61	6.58	-45.9	-47.3	16.8	0.00e+00	0	36	0	131072000	63	4234
2026-01-19 01:08:05.81	25.60	6.65	-45.9	-47.4	16.8	0.00e+00	0	36	0	134217728	63	4248
2026-01-19 01:08:06.82	25.59	6.73	-45.9	-47.4	16.8	0.00e+00	0	36	0	137363456	63	4261
2026-01-19 01:08:07.83	25.58	6.81	-45.6	-47.0	17.1	0.00e+00	0	36	0	140509184	63	4089
2026-01-19 01:08:08.83	25.56	6.88	-45.8	-47.3	16.9	0.00e+00	0	36	0	143654912	63	4214
2026-01-19 01:08:09.84	25.55	6.96	-45.6	-47.0	17.2	0.00e+00	0	36	0	146800640	63	4085
2026-01-19 01:08:10.85	25.54	7.04	-45.5	-46.9	17.3	0.00e+00	0	36	0	149946368	62	4281
2026-01-19 01:08:11.86	25.53	7.11	-45.6	-46.9	17.3	0.00e+00	0	36	0	153092096	62	4288
2026-01-19 01:08:12.86	25.51	7.19	-45.5	-46.9	17.3	0.00e+00	0	36	0	156237824	62	4252
2026-01-19 01:08:13.87	25.50	7.27	-45.4	-46.8	17.4	0.00e+00	0	36	0	159383552	62	4209
2026-01-19 01:08:14.88	25.49	7.35	-45.6	-47.0	17.2	0.00e+00	0	36	0	161480704	62	4306
2026-01-19 01:08:15.89	25.48	7.43	-45.5	-46.9	17.3	0.00e+00	0	36	0	164626432	62	4272
2026-01-19 01:08:16.90	25.46	7.50	-45.6	-47.0	17.3	0.00e+00	0	36	0	167772160	62	4304
2026-01-19 01:08:17.90	25.45	7.58	-45.4	-46.7	17.5	0.00e+00	0	36	0	171966464	62	4171
2026-01-19 01:08:18.91	25.44	7.66	-45.3	-46.7	17.6	0.00e+00	0	36	0	175112192	62	4162
2026-01-19 01:08:19.92	25.42	7.74	-45.4	-46.7	17.6	0.00e+00	0	36	0	178257920	62	4179
2026-01-19 01:08:20.93	25.41	7.82	-45.2	-46.5	17.8	0.00e+00	0	36	0	181403648	62	4078
2026-01-19 01:08:21.94	25.40	7.90	-45.3	-46.6	17.7	0.00e+00	0	36	0	184549376	62	4109
2026-01-19 01:08:22.95	25.38	7.98	-45.3	-46.6	17.7	0.00e+00	0	36	0	187695104	62	4104
2026-01-19 01:08:23.95	25.37	8.06	-45.3	-46.6	17.7	0.00e+00	0	36	0	190840832	62	4102
2026-01-19 01:08:24.96	25.36	8.14	-45.2	-46.4	17.9	0.00e+00	0	36	0	193986560	62	4045
2026-01-19 01:08:25.97	25.34	8.22	-45.2	-46.5	17.8	0.00e+00	0	36	0	197132288	62	4092
2026-01-19 01:08:26.98	25.33	8.30	-45.1	-46.4	17.9	0.00e+00	0	36	0	200278016	62	4037
2026-01-19 01:08:27.98	25.31	8.38	-45.1	-46.4	18.0	0.00e+00	0	36	0	203423744	62	4006
2026-01-19 01:08:28.99	25.30	8.47	-45.0	-46.2	18.1	0.00e+00	0	36	0	206569472	61	4171
2026-01-19 01:08:29.99	25.29	8.55	-45.1	-46.3	18.0	0.00e+00	0	36	0	208666624	61	4221
2026-01-19 01:08:31.00	25.27	8.63	-45.0	-46.3	18.0	0.00e+00	0	36	0	212860928	61	4208
2026-01-19 01:08:32.01	25.26	8.71	-45.0	-46.3	18.1	0.00e+00	0	36	0	216006656	61	4203
2026-01-19 01:08:33.02	25.24	8.79	-45.0	-46.2	18.1	0.00e+00	0	36	0	219152384	61	4166
2026-01-19 01:08:34.03	25.23	8.88	-44.9	-46.2	18.2	0.00e+00	0	36	0	222298112	61	4153
2026-01-19 01:08:35.03	25.21	8.96	-44.9	-46.1	18.3	0.00e+00	0	36	0	225443840	61	4121
2026-01-19 01:08:36.04	25.20	9.04	-44.9	-46.1	18.3	0.00e+00	0	36	0	228589568	61	4112
2026-01-19 01:08:37.05	25.18	9.13	-44.9	-46.1	18.2	0.00e+00	0	36	0	231735296	61	4134
2026-01-19 01:08:38.06	25.17	9.21	-44.8	-46.0	18.4	0.00e+00	0	36	0	234881024	61	4069
2026-01-19 01:08:39.07	25.15	9.30	-44.9	-46.1	18.3	0.00e+00	0	36	0	238026752	61	4126
2026-01-19 01:08:40.07	25.14	9.38	-44.8	-46.0	18.4	0.00e+00	0	36	0	241172480	61	4057
2026-01-19 01:08:41.08	25.12	9.47	-44.7	-45.8	18.6	0.00e+00	0	36	0	244318208	61	3997
2026-01-19 01:08:42.09	25.11	9.55	-44.8	-46.0	18.4	0.00e+00	0	36	0	247463936	61	4059
2026-01-19 01:08:43.10	25.09	9.64	-44.6	-45.8	18.6	0.00e+00	0	36	0	250609664	61	3987
2026-01-19 01:08:44.11	25.08	9.72	-44.6	-45.8	18.6	0.00e+00	0	36	0	253755392	61	3982
2026-01-19 01:08:45.12	25.06	9.81	-44.6	-45.8	18.6	0.00e+00	0	36	0	256901120	61	3981
2026-01-19 01:08:46.12	25.04	9.89	-44.5	-45.6	18.8	0.00e+00	0	36	0	260046848	61	3905
2026-01-19 01:08:47.13	25.03	9.98	-44.5	-45.7	18.8	0.00e+00	0	36	0	263192576	61	3929
2026-01-19 01:08:48.14	25.01	10.07	-44.5	-45.6	18.8	0.00e+00	0	36	0	266338304	60	4145
2026-01-19 01:08:49.15	24.99	10.16	-44.5	-45.6	18.8	0.00e+00	0	36	0	269484032	60	4133
2026-01-19 01:08:50.16	24.98	10.24	-44.4	-45.6	18.9	0.00e+00	0	36	0	272629760	60	4104
2026-01-19 01:08:51.17	24.96	10.33	-44.5	-45.6	18.9	0.00e+00	0	36	0	275775488	60	4113
2026-01-19 01:08:52.18	24.95	10.42	-44.5	-45.6	18.9	0.00e+00	0	36	0	278921216	60	4118
2026-01-19 01:08:53.18	24.93	10.51	-44.3	-45.4	19.1	0.00e+00	0	36	0	282066944	60	4006
2026-01-19 01:08:54.19	24.91	10.60	-44.2	-45.3	19.1	0.00e+00	0	36	0	285212672	60	3987
2026-01-19 01:08:55.20	24.89	10.69	-44.3	-45.3	19.1	0.00e+00	0	36	0	288358400	60	3998
2026-01-19 01:08:56.21	24.88	10.77	-44.3	-45.4	19.0	0.00e+00	0	36	0	291504128	60	4051
2026-01-19 01:08:57.22	24.86	10.86	-44.2	-45.2	19.2	0.00e+00	0	36	0	294649856	60	3957
2026-01-19 01:08:58.23	24.84	10.95	-44.1	-45.2	19.2	0.00e+00	0	36	0	297795584	60	3941
2026-01-19 01:08:59.24	24.82	11.05	-44.1	-45.2	19.3	0.00e+00	0	36	0	300941312	60	3938
2026-01-19 01:09:00.25	24.81	11.14	-44.2	-45.3	19.2	0.00e+00	0	36	0	304087040	60	3961
2026-01-19 01:09:01.25	24.79	11.23	-44.2	-45.3	19.2	0.00e+00	0	36	0	307232768	60	3975
2026-01-19 01:09:02.26	24.77	11.32	-44.1	-45.2	19.3	0.00e+00	0	36	0	310378496	60	3934
2026-01-19 01:09:03.27	24.75	11.41	-44.2	-45.3	19.2	0.00e+00	0	36	0	313524224	60	3977
2026-01-19 01:09:04.28	24.73	11.50	-44.0	-45.1	19.4	0.00e+00	0	36	0	316669952	60	3871
2026-01-19 01:09:05.29	24.72	11.59	-44.3	-45.4	19.4	0.00e+00	0	36	0	319815680	59	4247
2026-01-19 01:09:06.30	24.70	11.69	-44.3	-45.4	19.4	0.00e+00	0	36	0	322961408	59	4255
2026-01-19 01:09:07.30	24.68	11.78	-44.4	-45.5	19.3	0.00e+00	0	36	0	326107136	59	4311
2026-01-19 01:09:08.31	24.66	11.87	-44.3	-45.4	19.4	0.00e+00	0	36	0	329252864	59	4257
2026-01-19 01:09:09.32	24.64	11.97	-44.4	-45.5	19.4	0.00e+00	0	36	0	332398592	59	4292
2026-01-19 01:09:10.33	24.62	12.06	-44.4	-45.4	19.4	0.00e+00	0	36	0	335544320	59	4282
2026-01-19 01:09:11.34	24.60	12.16	-44.4	-45.5	19.3	0.00e+00	0	36	0	338690048	59	4312
2026-01-19 01:09:12.34	24.58	12.25	-44.4	-45.5	19.3	0.00e+00	0	36	0	341835776	59	4329
2026-01-19 01:09:13.35	24.56	12.35	-44.2	-45.2	19.6	0.00e+00	0	36	0	344981504	59	4168
2026-01-19 01:09:14.36	24.54	12.44	-44.3	-45.4	19.4	0.00e+00	0	36	0	348127232	59	4258
2026-01-19 01:09:15.37	24.52	12.54	-44.2	-45.3	19.5	0.00e+00	0	36	0	351272960	59	4220
2026-01-19 01:09:16.38	24.50	12.63	-44.2	-45.2	19.6	0.00e+00	0	36	0	354418688	59	4183
2026-01-19 01:09:17.38	24.48	12.73	-44.2	-45.2	19.6	0.00e+00	0	36	0	357564416	59	4184
2026-01-19 01:09:18.39	24.46	12.83	-44.2	-45.2	19.6	0.00e+00	0	36	0	360710144	59	4189
2026-01-19 01:09:19.40	24.44	12.93	-44.1	-45.2	19.7	0.00e+00	0	36	0	363855872	59	4161
2026-01-19 01:09:20.41	24.42	13.02	-44.3	-45.3	19.5	0.00e+00	0	36	0	367001600	59	4227
2026-01-19 01:09:21.42	24.40	13.12	-44.2	-45.2	19.6	0.00e+00	0	36	0	370147328	59	4183
2026-01-19 01:09:22.43	24.38	13.22	-44.1	-45.2	19.7	0.00e+00	0	36	0	373293056	59	4162
2026-01-19 01:09:23.44	24.36	13.32	-44.2	-45.2	19.6	0.00e+00	0	36	0	376438784	59	4182
2026-01-19 01:09:24.44	24.34	13.42	-44.0	-45.0	19.8	0.00e+00	0	36	0	379584512	59	4085
2026-01-19 01:09:25.45	24.31	13.52	-44.1	-45.1	19.8	0.00e+00	0	36	0	382730240	59	4118
2026-01-19 01:09:26.46	24.29	13.62	-44.1	-45.1	19.8	0.00e+00	0	36	0	385875968	59	4132
2026-01-19 01:09:27.46	24.27	13.72	-44.0	-45.0	19.8	0.00e+00	0	36	0	389021696	59	4098
2026-01-19 01:09:28.47	24.25	13.82	-44.0	-45.0	19.8	0.00e+00	0	36	0	392167424	59	4092
2026-01-19 01:09:29.48	24.23	13.92	-44.0	-45.0	19.8	0.00e+00	0	36	0	395313152	59	4096
2026-01-19 01:09:30.49	24.20	14.03	-44.1	-45.1	19.8	0.00e+00	0	36	0	398458880	59	4125
2026-01-19 01:09:31.50	24.18	14.13	-44.2	-45.2	19.7	0.00e+00	0	36	0	401604608	59	4171
2026-01-19 01:09:32.50	24.16	14.23	-44.0	-45.0	19.9	0.00e+00	0	36	0	404750336	59	4065
2026-01-19 01:09:33.51	24.14	14.33	-44.0	-45.0	19.9	0.00e+00	0	36	0	407896064	59	4090
2026-01-19 01:09:34.52	24.11	14.44	-44.0	-45.0	19.9	0.00e+00	0	36	0	411041792	59	4072
2026-01-19 01:09:35.53	24.09	14.54	-44.0	-45.0	19.9	0.00e+00	0	36	0	414187520	59	4057
2026-01-19 01:09:36.54	24.06	14.65	-44.1	-45.1	19.8	0.00e+00	0	36	0	417333248	59	4132
2026-01-19 01:09:37.54	24.04	14.75	-44.0	-45.1	19.9	0.00e+00	0	36	0	420478976	59	4099
2026-01-19 01:09:38.55	24.02	14.86	-44.0	-45.1	19.9	0.00e+00	0	36	0	423624704	59	4100
2026-01-19 01:09:39.56	23.99	14.96	-44.1	-45.1	19.8	0.00e+00	0	36	0	426770432	59	4143
2026-01-19 01:09:40.56	23.97	15.07	-44.1	-45.1	19.8	0.00e+00	0	36	0	429916160	59	4135
2026-01-19 01:09:41.57	23.94	15.17	-44.0	-45.1	19.9	0.00e+00	0	36	0	433061888	59	4108
2026-01-19 01:09:42.58	23.92	15.28	-44.1	-45.1	19.8	0.00e+00	0	36	0	436207616	59	4122
2026-01-19 01:09:43.59	23.89	15.39	-44.1	-45.2	19.8	0.00e+00	0	36	0	439353344	59	4150
2026-01-19 01:09:44.60	23.87	15.50	-44.1	-45.1	19.8	0.00e+00	0	36	0	442499072	59	4143
2026-01-19 01:09:45.60	23.84	15.61	-44.1	-45.1	19.8	0.00e+00	0	36	0	445644800	59	4142
2026-01-19 01:09:46.61	23.82	15.72	-44.2	-45.2	19.7	0.00e+00	0	36	0	448790528	59	4176
2026-01-19 01:09:47.62	23.79	15.83	-44.2	-45.2	19.7	0.00e+00	0	36	0	451936256	59	4172
2026-01-19 01:09:48.63	23.77	15.94	-44.2	-45.2	19.7	0.00e+00	0	36	0	455081984	59	4182
2026-01-19 01:09:49.64	23.74	16.05	-44.1	-45.2	19.8	0.00e+00	0	36	0	458227712	59	4153
2026-01-19 01:09:50.64	23.71	16.16	-44.2	-45.2	19.7	0.00e+00	0	36	0	461373440	59	4191
2026-01-19 01:09:51.65	23.69	16.27	-44.3	-45.3	19.6	0.00e+00	0	36	0	464519168	59	4223
2026-01-19 01:09:52.66	23.66	16.38	-44.3	-45.3	19.6	0.00e+00	0	36	0	467664896	59	4234
2026-01-19 01:09:53.67	23.63	16.49	-44.3	-45.4	19.6	0.00e+00	0	36	0	470810624	59	4257
2026-01-19 01:09:54.68	23.60	16.61	-44.3	-45.4	19.6	0.00e+00	0	36	0	473956352	59	4245
2026-01-19 01:09:55.68	23.58	16.72	-44.4	-45.5	19.5	0.00e+00	0	36	0	477102080	59	4305
2026-01-19 01:09:56.69	23.55	16.83	-44.5	-45.5	19.4	0.00e+00	0	36	0	480247808	59	4331
2026-01-19 01:09:57.70	23.52	16.95	-44.4	-45.5	19.5	0.00e+00	0	36	0	483393536	59	4293
2026-01-19 01:09:58.70	23.49	17.06	-44.5	-45.6	19.4	0.00e+00	0	36	0	486539264	59	4343
2026-01-19 01:09:59.71	23.46	17.18	-44.4	-45.5	19.4	0.00e+00	0	36	0	489684992	59	4324
2026-01-19 01:10:00.72	23.43	17.30	-44.5	-45.6	19.4	0.00e+00	0	36	0	492830720	59	4370
2026-01-19 01:10:01.73	23.40	17.41	-44.6	-45.7	19.3	0.00e+00	0	36	0	495976448	59	4400
2026-01-19 01:10:02.73	23.38	17.53	-44.5	-45.6	19.3	0.00e+00	0	36	0	499122176	59	4382
2026-01-19 01:10:03.74	23.35	17.65	-44.5	-45.6	19.4	0.00e+00	0	36	0	502267904	59	4353
2026-01-19 01:10:04.75	23.32	17.77	-44.5	-45.6	19.3	0.00e+00	0	36	0	505413632	59	4368
2026-01-19 01:10:05.76	23.29	17.89	-44.5	-45.6	19.3	0.00e+00	0	36	0	508559360	59	4385
2026-01-19 01:10:06.77	23.25	18.01	-44.6	-45.7	19.3	0.00e+00	0	36	0	511705088	59	4392
2026-01-19 01:10:07.78	23.22	18.13	-44.6	-45.6	19.3	0.00e+00	0	36	0	514850816	59	4384
2026-01-19 01:10:08.78	23.19	18.25	-44.5	-45.6	19.4	0.00e+00	0	36	0	517996544	59	4357
2026-01-19 01:10:09.79	23.16	18.37	-44.5	-45.6	19.3	0.00e+00	0	36	0	521142272	59	4352
2026-01-19 01:10:10.80	23.13	18.49	-44.5	-45.6	19.3	0.00e+00	0	36	0	524288000	59	4384
2026-01-19 01:10:11.80	23.10	18.61	-44.6	-45.7	19.3	0.00e+00	0	36	0	527433728	59	4401
2026-01-19 01:10:12.81	23.07	18.74	-44.5	-45.6	19.4	0.00e+00	0	36	0	530579456	59	4365
2026-01-19 01:10:13.82	23.03	18.86	-44.4	-45.5	19.5	0.00e+00	0	36	0	533725184	59	4310
2026-01-19 01:10:14.82	23.00	18.98	-44.3	-45.4	19.6	0.00e+00	0	36	0	536870912	59	4266
2026-01-19 01:10:15.83	22.97	19.11	-44.4	-45.4	19.5	0.00e+00	0	36	0	540016640	59	4273
2026-01-19 01:10:16.84	22.93	19.23	-44.4	-45.5	19.5	0.00e+00	0	36	0	543162368	59	4305
2026-01-19 01:10:17.85	22.90	19.36	-44.4	-45.5	19.5	0.00e+00	0	36	0	546308096	59	4306
2026-01-19 01:10:18.85	22.87	19.49	-44.4	-45.4	19.6	0.00e+00	0	36	0	549453824	59	4276
2026-01-19 01:10:19.86	22.83	19.61	-44.5	-45.5	19.5	0.00e+00	0	36	0	552599552	59	4331
2026-01-19 01:10:20.87	22.80	19.74	-44.5	-45.5	19.5	0.00e+00	0	36	0	555745280	59	4333
2026-01-19 01:10:21.88	22.76	19.87	-44.5	-45.6	19.4	0.00e+00	0	36	0	558891008	59	4360
2026-01-19 01:10:22.88	22.73	20.00	-44.2	-45.3	19.7	0.00e+00	0	36	0	562036736	59	4208
2026-01-19 01:10:23.89	22.69	20.13	-44.3	-45.3	19.7	0.00e+00	0	36	0	565182464	59	4223
2026-01-19 01:10:24.90	22.65	20.26	-44.3	-45.4	19.7	0.00e+00	0	36	0	568328192	59	4255
2026-01-19 01:10:25.91	22.62	20.39	-44.1	-45.1	20.0	0.00e+00	0	36	0	571473920	59	4109
2026-01-19 01:10:26.91	22.58	20.52	-43.9	-44.9	20.1	0.00e+00	0	36	0	574619648	59	4019
2026-01-19 01:10:27.92	22.54	20.66	-44.0	-45.0	20.1	0.00e+00	0	36	0	577765376	59	4063
2026-01-19 01:10:28.93	22.51	20.79	-43.9	-44.9	20.2	0.00e+00	0	36	0	580911104	59	4030
2026-01-19 01:10:29.94	22.47	20.93	-43.8	-44.8	20.3	0.00e+00	0	36	0	584056832	59	3988
2026-01-19 01:10:30.94	22.43	21.06	-43.8	-44.7	20.3	0.00e+00	0	36	0	587202560	59	3958
2026-01-19 01:10:31.95	22.39	21.20	-43.6	-44.5	20.5	0.00e+00	0	36	0	590348288	59	3848
2026-01-19 01:10:32.96	22.35	21.33	-43.5	-44.4	20.6	0.00e+00	0	36	0	593494016	58	4029
2026-01-19 01:10:33.97	22.31	21.47	-43.4	-44.3	20.7	0.00e+00	0	36	0	596639744	58	3985
2026-01-19 01:10:34.98	22.27	21.61	-43.4	-44.3	20.7	0.00e+00	0	36	0	599785472	58	3981
2026-01-19 01:10:35.98	22.23	21.75	-43.3	-44.3	20.8	0.00e+00	0	36	0	602931200	58	3962
2026-01-19 01:10:36.99	22.19	21.89	-43.2	-44.1	20.9	0.00e+00	0	37	0	606076928	58	3906
2026-01-19 01:10:38.00	22.15	22.03	-43.1	-44.0	21.0	0.00e+00	0	36	0	609222656	58	3844
2026-01-19 01:10:39.01	22.11	22.17	-43.1	-44.0	21.1	0.00e+00	0	36	0	612368384	58	3832
2026-01-19 01:10:40.02	22.07	22.31	-43.0	-43.9	21.1	0.00e+00	0	36	0	615514112	58	3820
2026-01-19 01:10:41.02	22.03	22.45	-42.9	-43.8	21.2	0.00e+00	0	36	0	618659840	57	3989
2026-01-19 01:10:42.03	21.98	22.59	-42.9	-43.8	21.2	0.00e+00	0	36	0	621805568	57	3993
2026-01-19 01:10:43.03	21.94	22.74	-42.9	-43.8	21.2	0.00e+00	0	36	0	624951296	57	3963
2026-01-19 01:10:44.04	21.90	22.88	-43.0	-43.8	21.2	0.00e+00	0	36	0	628097024	57	3992
2026-01-19 01:10:45.05	21.85	23.03	-43.1	-44.0	21.0	0.00e+00	0	36	0	631242752	57	4074
2026-01-19 01:10:46.06	21.81	23.17	-42.8	-43.7	21.3	0.00e+00	0	36	0	634388480	57	3929
2026-01-19 01:10:47.07	21.77	23.32	-42.7	-43.6	21.4	0.00e+00	0	36	0	637534208	57	3877
2026-01-19 01:10:48.08	21.72	23.47	-42.8	-43.7	21.3	0.00e+00	0	36	0	640679936	57	3925
2026-01-19 01:10:49.08	21.67	23.62	-42.7	-43.6	21.4	0.00e+00	0	36	0	643825664	57	3883
2026-01-19 01:10:50.09	21.63	23.77	-42.8	-43.7	21.3	0.00e+00	0	36	0	646971392	57	3940
2026-01-19 01:10:51.10	21.58	23.92	-42.8	-43.6	21.3	0.00e+00	0	36	0	650117120	57	3901
2026-01-19 01:10:52.11	21.53	24.07	-42.7	-43.5	21.4	0.00e+00	0	36	0	653262848	57	3862
2026-01-19 01:10:53.12	21.49	24.22	-42.8	-43.6	21.3	0.00e+00	0	36	0	656408576	57	3904
2026-01-19 01:10:54.12	21.44	24.37	-42.8	-43.6	21.3	0.00e+00	0	36	0	659554304	57	3908
2026-01-19 01:10:55.13	21.39	24.53	-42.8	-43.7	21.3	0.00e+00	0	36	0	662700032	57	3931
2026-01-19 01:10:56.14	21.34	24.68	-42.9	-43.8	21.3	0.00e+00	0	36	0	665845760	57	3964
2026-01-19 01:10:57.15	21.29	24.84	-42.9	-43.8	21.3	0.00e+00	0	36	0	668991488	57	3974
2026-01-19 01:10:58.16	21.24	25.00	-43.0	-43.9	21.2	0.00e+00	0	36	0	672137216	57	4010
2026-01-19 01:10:59.16	21.19	25.15	-43.1	-44.0	21.1	0.00e+00	0	36	0	675282944	57	4087
2026-01-19 01:11:00.17	21.14	25.31	-43.2	-44.1	21.0	0.00e+00	0	36	0	678428672	57	4125
2026-01-19 01:11:01.18	21.09	25.47	-43.3	-44.2	20.9	0.00e+00	0	36	0	681574400	57	4157
2026-01-19 01:11:02.18	21.03	25.63	-43.5	-44.4	20.7	0.00e+00	0	36	0	684720128	57	4265
2026-01-19 01:11:03.19	20.98	25.79	-43.7	-44.6	20.6	0.00e+00	0	36	0	687865856	57	4378
2026-01-19 01:11:04.20	20.93	25.96	-43.6	-44.5	20.6	0.00e+00	0	36	0	691011584	57	4333
2026-01-19 01:11:05.21	20.87	26.12	-43.8	-44.7	20.5	0.00e+00	0	36	0	694157312	58	4175
2026-01-19 01:11:06.21	20.82	26.28	-43.8	-44.8	20.4	0.00e+00	0	36	0	697303040	58	4207
2026-01-19 01:11:07.22	20.76	26.45	-44.0	-45.0	20.3	0.00e+00	0	36	0	700448768	58	4311
2026-01-19 01:11:08.23	20.71	26.61	-44.1	-45.1	20.1	0.00e+00	0	36	0	703594496	58	4367
2026-01-19 01:11:09.24	20.65	26.78	-44.1	-45.1	20.2	0.00e+00	0	36	0	706740224	58	4344
2026-01-19 01:11:10.24	20.59	26.95	-44.2	-45.2	20.1	0.00e+00	0	36	0	709885952	58	4393
2026-01-19 01:11:11.25	20.53	27.12	-44.2	-45.2	20.1	0.00e+00	0	36	0	713031680	58	4405
2026-01-19 01:11:12.26	20.48	27.29	-44.3	-45.3	20.0	0.00e+00	0	36	0	716177408	59	4203
2026-01-19 01:11:13.27	20.42	27.46	-44.3	-45.3	20.0	0.00e+00	0	37	0	719323136	59	4227
2026-01-19 01:11:14.28	20.36	27.63	-44.4	-45.4	19.9	0.00e+00	0	37	0	722468864	59	4275
2026-01-19 01:11:15.29	20.30	27.81	-44.5	-45.5	19.8	0.00e+00	0	36	0	725614592	59	4323
2026-01-19 01:11:16.29	20.23	27.98	-44.5	-45.5	19.8	0.00e+00	0	36	0	728760320	59	4333
2026-01-19 01:11:17.30	20.17	28.15	-44.6	-45.6	19.7	0.00e+00	0	36	0	731906048	59	4390
2026-01-19 01:11:18.31	20.11	28.33	-44.6	-45.7	19.6	0.00e+00	0	36	0	735051776	59	4399
2026-01-19 01:11:19.32	20.05	28.51	-44.3	-45.4	19.7	0.00e+00	0	36	0	738197504	60	4007
2026-01-19 01:11:20.33	19.98	28.69	-44.4	-45.4	19.6	0.00e+00	0	36	0	741343232	60	4035
2026-01-19 01:11:21.34	19.92	28.87	-44.2	-45.2	19.8	0.00e+00	0	36	0	744488960	60	3945
2026-01-19 01:11:22.34	19.85	29.05	-44.1	-45.1	19.9	0.00e+00	0	36	0	747634688	60	3885
2026-01-19 01:11:23.35	19.78	29.23	-44.0	-45.0	19.9	0.00e+00	0	36	0	750780416	60	3856
2026-01-19 01:11:24.36	19.72	29.41	-44.2	-45.3	20.0	0.00e+00	0	36	0	753926144	59	4195
2026-01-19 01:11:25.37	19.65	29.60	-44.1	-45.1	20.1	0.00e+00	0	36	0	757071872	59	4116
2026-01-19 01:11:26.38	19.58	29.78	-44.1	-45.1	20.1	0.00e+00	0	36	0	760217600	59	4124
2026-01-19 01:11:27.38	19.51	29.97	-44.1	-45.1	20.1	0.00e+00	0	36	0	763363328	59	4133
2026-01-19 01:11:28.39	19.44	30.16	-44.0	-44.9	20.3	0.00e+00	0	36	0	766509056	59	4051
2026-01-19 01:11:29.40	19.37	30.35	-44.1	-45.1	20.2	0.00e+00	0	36	0	769654784	59	4100
2026-01-19 01:11:30.41	19.29	30.54	-43.8	-44.8	20.4	0.00e+00	0	36	0	772800512	59	3976
2026-01-19 01:11:31.41	19.22	30.73	-43.8	-44.8	20.5	0.00e+00	0	36	0	775946240	59	3986
2026-01-19 01:11:32.42	19.15	30.92	-43.9	-44.8	20.5	0.00e+00	0	36	0	779091968	59	4000
2026-01-19 01:11:33.43	19.07	31.11	-43.9	-44.8	20.5	0.00e+00	0	36	0	782237696	59	3987
2026-01-19 01:11:34.44	18.99	31.31	-43.8	-44.7	20.6	0.00e+00	0	36	0	785383424	59	3938
2026-01-19 01:11:35.45	18.92	31.51	-44.0	-44.9	20.4	0.00e+00	0	36	0	788529152	59	4042
2026-01-19 01:11:36.45	18.84	31.70	-43.9	-44.8	20.5	0.00e+00	0	36	0	791674880	59	3993
2026-01-19 01:11:37.46	18.76	31.90	-43.8	-44.8	20.6	0.00e+00	0	36	0	794820608	59	3972
2026-01-19 01:11:38.47	18.68	32.10	-43.8	-44.8	20.6	0.00e+00	0	36	0	797966336	59	3982
2026-01-19 01:11:39.48	18.60	32.30	-44.0	-44.9	20.4	0.00e+00	0	36	0	801112064	59	4046
2026-01-19 01:11:40.48	18.52	32.50	-44.1	-45.1	20.3	0.00e+00	0	36	0	804257792	59	4100
2026-01-19 01:11:41.49	18.43	32.71	-44.2	-45.2	20.2	0.00e+00	0	36	0	807403520	59	4152
2026-01-19 01:11:42.50	18.35	32.91	-44.2	-45.2	20.2	0.00e+00	0	36	0	810549248	59	4192
2026-01-19 01:11:43.50	18.26	33.12	-44.4	-45.4	20.0	0.00e+00	0	36	0	813694976	59	4269
2026-01-19 01:11:44.51	18.17	33.33	-44.5	-45.5	19.9	0.00e+00	0	36	0	816840704	59	4309
2026-01-19 01:11:45.52	18.09	33.54	-44.5	-45.6	19.9	0.00e+00	0	37	0	819986432	59	4342
2026-01-19 01:11:46.53	18.00	33.75	-44.5	-45.5	19.9	0.00e+00	0	36	0	823132160	59	4330
2026-01-19 01:11:47.53	17.91	33.96	-44.6	-45.7	19.7	0.00e+00	0	36	0	826277888	59	4414
2026-01-19 01:11:48.54	17.82	34.17	-44.6	-45.7	19.8	0.00e+00	0	36	0	829423616	59	4400
2026-01-19 01:11:49.55	17.72	34.39	-44.4	-45.4	19.6	0.00e+00	0	36	0	832569344	60	4028
2026-01-19 01:11:50.56	17.63	34.60	-44.4	-45.4	19.8	0.00e+00	0	36	0	835715072	60	4017
2026-01-19 01:11:51.57	17.53	34.82	-44.4	-45.5	19.7	0.00e+00	0	36	0	838860800	60	4055
2026-01-19 01:11:52.57	17.44	35.04	-44.4	-45.4	19.8	0.00e+00	0	36	0	842006528	60	4040
2026-01-19 01:11:53.58	17.34	35.26	-44.4	-45.4	19.7	0.00e+00	0	36	0	845152256	60	4047
2026-01-19 01:11:54.59	17.24	35.48	-44.5	-45.5	19.7	0.00e+00	0	36	0	848297984	60	4066
2026-01-19 01:11:55.60	17.14	35.71	-44.5	-45.5	19.6	0.00e+00	0	36	0	852492288	60	4096
2026-01-19 01:11:56.61	17.03	35.93	-44.7	-45.7	19.4	0.00e+00	0	36	0	855638016	60	4175
2026-01-19 01:11:57.62	16.93	36.16	-44.6	-45.7	19.5	0.00e+00	0	36	0	858783744	60	4149
2026-01-19 01:11:58.62	16.82	36.39	-44.7	-45.8	19.4	0.00e+00	0	36	0	860880896	60	4215
2026-01-19 01:11:59.63	16.72	36.62	-44.9	-46.0	19.2	0.00e+00	0	36	0	864026624	60	4318
2026-01-19 01:12:00.64	16.61	36.85	-45.0	-46.1	19.0	0.00e+00	0	36	0	867172352	60	4352
2026-01-19 01:12:01.65	16.50	37.08	-45.1	-46.2	19.0	0.00e+00	0	36	0	870318080	60	4399
2026-01-19 01:12:02.65	16.39	37.31	-45.2	-46.3	18.9	0.00e+00	0	36	0	873463808	60	4451
2026-01-19 01:12:03.66	16.27	37.55	-45.1	-46.2	19.0	0.00e+00	0	36	0	876609536	60	4394
2026-01-19 01:12:04.67	16.16	37.78	-45.0	-46.0	19.1	0.00e+00	0	36	0	879755264	60	4334
2026-01-19 01:12:05.67	16.04	38.02	-44.9	-45.9	19.2	0.00e+00	0	36	0	882900992	60	4288
2026-01-19 01:12:06.69	15.92	38.26	-44.8	-45.8	19.4	0.00e+00	0	36	0	886046720	60	4230
2026-01-19 01:12:07.69	15.80	38.50	-44.8	-45.8	19.4	0.00e+00	0	36	0	889192448	60	4226
2026-01-19 01:12:08.70	15.68	38.75	-44.7	-45.8	19.4	0.00e+00	0	36	0	892338176	60	4213
2026-01-19 01:12:09.70	15.55	38.99	-44.9	-46.0	19.3	0.00e+00	0	36	0	896532480	60	4300
2026-01-19 01:12:10.71	15.43	39.24	-45.0	-46.1	19.2	0.00e+00	0	36	0	899678208	60	4342
2026-01-19 01:12:11.72	15.30	39.49	-45.2	-46.3	19.0	0.00e+00	0	36	0	902823936	60	4463
2026-01-19 01:12:12.73	15.17	39.74	-45.2	-46.3	19.0	0.00e+00	0	36	0	905969664	60	4458
2026-01-19 01:12:13.74	15.03	39.99	-45.3	-46.4	18.9	0.00e+00	0	36	0	908066816	61	4290
2026-01-19 01:12:14.74	14.90	40.24	-45.4	-46.5	18.8	0.00e+00	0	36	0	911212544	61	4326
2026-01-19 01:12:15.75	14.76	40.49	-45.4	-46.6	18.7	0.00e+00	0	36	0	914358272	61	4361
2026-01-19 01:12:16.76	14.62	40.75	-45.6	-46.8	18.6	0.00e+00	0	36	0	917504000	61	4442
2026-01-19 01:12:17.77	14.48	41.01	-45.7	-46.9	18.4	0.00e+00	0	36	0	920649728	61	4523
2026-01-19 01:12:18.78	14.34	41.27	-46.0	-47.2	18.2	0.00e+00	0	36	0	923795456	62	4426
2026-01-19 01:12:19.79	14.19	41.53	-46.2	-47.4	18.0	0.00e+00	0	36	0	926941184	62	4545
2026-01-19 01:12:20.80	14.04	41.79	-46.4	-47.7	17.7	0.00e+00	0	36	0	930086912	63	4438
2026-01-19 01:12:21.80	13.89	42.05	-46.5	-47.8	17.6	0.00e+00	0	37	0	934281216	63	4493
2026-01-19 01:12:22.81	13.74	42.32	-46.5	-47.9	17.6	0.00e+00	0	37	0	937426944	63	4494
2026-01-19 01:12:23.82	13.58	42.59	-46.5	-47.8	17.6	0.00e+00	0	36	0	940572672	63	4467
2026-01-19 01:12:24.83	13.42	42.86	-46.3	-47.6	17.8	0.00e+00	0	36	0	943718400	63	4357
2026-01-19 01:12:25.84	13.26	43.13	-46.1	-47.4	18.1	0.00e+00	0	36	0	946864128	63	4246
2026-01-19 01:12:26.84	13.10	43.40	-46.1	-47.4	18.0	0.00e+00	0	36	0	950009856	63	4254
2026-01-19 01:12:27.85	12.93	43.68	-46.1	-47.3	18.2	0.00e+00	0	36	0	953155584	63	4216
2026-01-19 01:12:28.86	12.76	43.95	-46.2	-47.4	18.0	0.00e+00	0	36	0	955252736	63	4284
2026-01-19 01:12:29.87	12.59	44.23	-46.3	-47.6	17.8	0.00e+00	0	36	0	958398464	63	4363
2026-01-19 01:12:30.88	12.41	44.51	-46.2	-47.5	18.0	0.00e+00	0	37	0	961544192	63	4305
2026-01-19 01:12:31.88	12.23	44.79	-46.1	-47.3	18.1	0.00e+00	0	36	0	964689920	63	4215
2026-01-19 01:12:32.89	12.05	45.07	-46.0	-47.2	18.2	0.00e+00	0	37	0	967835648	63	4151
2026-01-19 01:12:33.90	11.86	45.36	-45.9	-47.0	18.3	0.00e+00	0	36	0	970981376	63	4090
2026-01-19 01:12:34.90	11.67	45.64	-46.0	-47.3	18.1	0.00e+00	0	36	0	975175680	63	4194
2026-01-19 01:12:35.91	11.48	45.93	-45.8	-46.9	18.5	0.00e+00	0	36	0	978321408	63	4039
2026-01-19 01:12:36.92	11.28	46.22	-45.8	-47.0	18.5	0.00e+00	0	36	0	981467136	63	4052
2026-01-19 01:12:37.93	11.08	46.51	-45.6	-46.7	18.7	0.00e+00	0	36	0	984612864	63	3940
2026-01-19 01:12:38.94	10.87	46.81	-45.2	-46.3	19.1	0.00e+00	0	36	0	987758592	62	3993
2026-01-19 01:12:39.94	10.67	47.10	-44.9	-46.0	19.3	0.00e+00	0	36	0	990904320	61	4073
2026-01-19 01:12:40.95	10.45	47.40	-44.9	-45.9	19.4	0.00e+00	0	37	0	994050048	61	4024
2026-01-19 01:12:41.96	10.24	47.69	-44.7	-45.7	19.6	0.00e+00	0	36	0	997195776	61	3924
2026-01-19 01:12:42.97	10.01	47.99	-44.8	-45.8	19.5	0.00e+00	0	36	0	1000341504	61	3997
2026-01-19 01:12:43.98	9.79	48.30	-44.7	-45.7	19.6	0.00e+00	0	36	0	1002438656	61	3936
2026-01-19 01:12:44.99	9.56	48.60	-44.8	-45.9	19.5	0.00e+00	0	36	0	1005584384	61	4007
2026-01-19 01:12:45.99	9.32	48.90	-44.9	-45.9	19.4	0.00e+00	0	36	0	1008730112	61	4050
2026-01-19 01:12:47.00	9.08	49.21	-44.8	-45.9	19.5	0.00e+00	0	36	0	1012924416	61	4008
2026-01-19 01:12:48.01	8.84	49.52	-44.9	-45.9	19.5	0.00e+00	0	37	0	1016070144	61	4026
2026-01-19 01:12:49.02	8.59	49.83	-44.9	-45.9	19.4	0.00e+00	0	37	0	1019215872	61	4048
2026-01-19 01:12:50.03	8.33	50.14	-45.0	-46.0	19.3	0.00e+00	0	36	0	1022361600	61	4095
2026-01-19 01:12:51.04	8.07	50.45	-45.2	-46.3	19.1	0.00e+00	0	36	0	1025507328	61	4234
2026-01-19 01:12:52.04	7.81	50.76	-45.3	-46.5	19.0	0.00e+00	0	36	0	1028653056	61	4295
2026-01-19 01:12:53.05	7.54	51.08	-45.4	-46.5	18.8	0.00e+00	0	36	0	1031798784	61	4327
2026-01-19 01:12:54.06	7.26	51.39	-45.3	-46.5	18.9	0.00e+00	0	36	0	1034944512	61	4301
2026-01-19 01:12:55.07	6.98	51.71	-45.3	-46.4	19.0	0.00e+00	0	36	0	1038090240	61	4269
2026-01-19 01:12:56.08	6.69	52.03	-45.5	-46.6	18.8	0.00e+00	0	36	0	1041235968	61	4381
2026-01-19 01:12:57.08	6.39	52.35	-45.6	-46.8	18.6	0.00e+00	0	36	0	1044381696	61	4443
2026-01-19 01:12:58.09	6.09	52.67	-45.3	-46.5	18.8	0.00e+00	0	36	0	1047527424	61	4297
2026-01-19 01:12:59.10	5.78	52.99	-45.1	-46.2	19.1	0.00e+00	0	36	0	1050673152	61	4171
2026-01-19 01:13:00.10	5.47	53.32	-44.7	-45.8	19.5	0.00e+00	0	36	0	1053818880	61	3971
2026-01-19 01:13:01.11	5.14	53.64	-44.3	-45.2	20.1	0.00e+00	0	37	0	1056964608	60	3953
2026-01-19 01:13:02.12	4.81	53.97	-44.0	-44.9	20.3	0.00e+00	0	36	0	1060110336	60	3813
2026-01-19 01:13:03.13	4.47	54.30	-44.3	-45.2	20.2	0.00e+00	0	36	0	1063256064	59	4187
2026-01-19 01:13:04.14	4.13	54.63	-44.3	-45.3	20.2	0.00e+00	0	36	0	1066401792	59	4231
2026-01-19 01:13:05.15	3.77	54.96	-44.2	-45.2	20.3	0.00e+00	0	36	0	1069547520	59	4165
2026-01-19 01:13:06.16	3.41	55.29	-44.1	-45.1	20.5	0.00e+00	0	36	0	1072693248	59	4104
2026-01-19 01:13:07.16	3.04	55.62	-43.9	-44.9	20.6	0.00e+00	0	36	0	1075838976	59	4018
2026-01-19 01:13:08.17	2.66	55.95	-43.7	-44.6	20.9	0.00e+00	0	37	0	1078984704	59	3900
2026-01-19 01:13:09.18	2.27	56.28	-43.6	-44.5	21.0	0.00e+00	0	36	0	1082130432	59	3837
2026-01-19 01:13:10.19	1.87	56.62	-43.4	-44.3	21.1	0.00e+00	0	36	0	1085276160	58	3972
2026-01-19 01:13:11.19	1.46	56.95	-43.5	-44.4	20.9	0.00e+00	0	36	0	1088421888	58	4040
2026-01-19 01:13:12.20	1.04	57.28	-43.6	-44.5	21.0	0.00e+00	0	36	0	1091567616	58	4070
2026-01-19 01:13:13.21	0.61	57.62	-43.6	-44.5	20.9	0.00e+00	0	36	0	1094713344	58	4072
2026-01-19 01:13:14.22	0.17	57.96	-43.7	-44.6	21.0	0.00e+00	0	36	0	1097859072	58	4123
2026-01-19 01:13:15.23	359.71	58.29	-43.7	-44.6	20.9	0.00e+00	0	36	0	1101004800	58	4106
2026-01-19 01:13:16.24	359.25	58.63	-43.5	-44.4	21.1	0.00e+00	0	36	0	1104150528	58	4023
2026-01-19 01:13:17.24	358.78	58.96	-43.4	-44.3	21.2	0.00e+00	0	37	0	1107296256	58	3983
2026-01-19 01:13:18.25	358.29	59.30	-43.4	-44.3	21.0	0.00e+00	0	37	0	1110441984	58	3991
2026-01-19 01:13:19.26	357.78	59.64	-43.5	-44.4	21.1	0.00e+00	0	37	0	1113587712	58	4008
2026-01-19 01:13:20.27	357.27	59.97	-43.6	-44.5	21.1	0.00e+00	0	36	0	1116733440	58	4073
2026-01-19 01:13:21.28	356.74	60.31	-43.7	-44.6	21.0	0.00e+00	0	36	0	1119879168	58	4122
2026-01-19 01:13:22.28	356.20	60.64	-43.6	-44.5	21.1	0.00e+00	0	36	0	1123024896	58	4084
2026-01-19 01:13:23.29	355.64	60.98	-43.5	-44.4	21.2	0.00e+00	0	36	0	1126170624	58	4027
2026-01-19 01:13:24.30	355.07	61.31	-43.2	-44.0	21.5	0.00e+00	0	37	0	1129316352	58	3849
2026-01-19 01:13:25.31	354.48	61.64	-43.1	-44.0	21.5	0.00e+00	0	36	0	1132462080	58	3835
2026-01-19 01:13:26.32	353.88	61.98	-42.9	-43.7	21.7	0.00e+00	0	36	0	1135607808	57	3950
2026-01-19 01:13:27.32	353.26	62.30	-42.9	-43.8	21.7	0.00e+00	0	36	0	1138753536	57	3966
2026-01-19 01:13:28.33	352.62	62.63	-42.8	-43.7	21.8	0.00e+00	0	36	0	1141899264	57	3926
2026-01-19 01:13:29.34	351.97	62.96	-42.9	-43.7	21.7	0.00e+00	0	37	0	1145044992	57	3952
2026-01-19 01:13:30.35	351.29	63.29	-42.6	-43.5	22.0	0.00e+00	0	36	0	1148190720	57	3825
2026-01-19 01:13:31.36	350.60	63.61	-42.4	-43.2	22.1	0.00e+00	0	36	0	1151336448	56	3929
2026-01-19 01:13:32.36	349.89	63.93	-42.6	-43.4	21.9	0.00e+00	0	36	0	1154482176	56	4034
2026-01-19 01:13:33.37	349.16	64.25	-42.5	-43.3	22.1	0.00e+00	0	36	0	1157627904	56	3980
2026-01-19 01:13:34.38	348.41	64.57	-42.3	-43.1	22.2	0.00e+00	0	37	0	1160773632	56	3873
2026-01-19 01:13:35.39	347.63	64.89	-42.3	-43.2	22.2	0.00e+00	0	36	0	1163919360	56	3914
2026-01-19 01:13:36.40	346.83	65.20	-42.3	-43.1	22.3	0.00e+00	0	36	0	1167065088	56	3893
2026-01-19 01:13:37.40	346.02	65.50	-42.4	-43.2	22.2	0.00e+00	0	37	0	1170210816	56	3943
2026-01-19 01:13:38.41	345.18	65.81	-42.5	-43.3	22.0	0.00e+00	0	36	0	1173356544	56	3989
2026-01-19 01:13:39.42	344.31	66.11	-42.7	-43.5	21.9	0.00e+00	0	36	0	1176502272	56	4077
2026-01-19 01:13:40.43	343.42	66.41	-42.8	-43.6	21.8	0.00e+00	0	36	0	1179648000	56	4118
2026-01-19 01:13:41.44	342.51	66.70	-43.0	-43.8	21.7	0.00e+00	0	37	0	1182793728	56	4217
2026-01-19 01:13:42.44	341.57	66.99	-43.2	-44.0	21.5	0.00e+00	0	37	0	1185939456	57	4095
2026-01-19 01:13:43.45	340.61	67.27	-43.0	-43.8	21.7	0.00e+00	0	36	0	1189085184	57	3982
2026-01-19 01:13:44.46	339.61	67.55	-42.8	-43.7	21.8	0.00e+00	0	36	0	1192230912	57	3928
2026-01-19 01:13:45.47	338.59	67.82	-42.5	-43.3	22.1	0.00e+00	0	36	0	1195376640	57	3759
2026-01-19 01:13:46.48	337.54	68.09	-42.4	-43.2	22.2	0.00e+00	0	36	0	1198522368	56	3927
2026-01-19 01:13:47.48	336.48	68.35	-42.3	-43.1	22.3	0.00e+00	0	36	0	1201668096	56	3897
2026-01-19 01:13:48.49	335.37	68.60	-42.3	-43.1	22.1	0.00e+00	0	36	0	1204813824	56	3910
2026-01-19 01:13:49.50	334.24	68.85	-42.5	-43.3	22.0	0.00e+00	0	36	0	1207959552	56	3991
2026-01-19 01:13:50.51	333.08	69.09	-42.3	-43.1	22.2	0.00e+00	0	36	0	1211105280	56	3906
2026-01-19 01:13:51.51	331.90	69.32	-42.4	-43.2	22.2	0.00e+00	0	36	0	1214251008	56	3943
2026-01-19 01:13:52.52	330.68	69.55	-42.5	-43.3	22.1	0.00e+00	0	36	0	1217396736	56	3979
2026-01-19 01:13:53.53	329.43	69.76	-42.6	-43.4	22.0	0.00e+00	0	36	0	1220542464	56	4046
2026-01-19 01:13:54.54	328.16	69.97	-42.6	-43.4	21.9	0.00e+00	0	36	0	1223688192	56	4046
2026-01-19 01:13:55.54	326.87	70.17	-42.5	-43.3	21.9	0.00e+00	0	37	0	1226833920	56	3993
2026-01-19 01:13:56.56	325.52	70.36	-42.5	-43.4	22.1	0.00e+00	0	36	0	1229979648	56	4010
2026-01-19 01:13:57.56	324.18	70.54	-42.4	-43.2	22.2	0.00e+00	0	36	0	1233125376	56	3948
2026-01-19 01:13:58.57	322.79	70.71	-42.3	-43.1	22.3	0.00e+00	0	37	0	1236271104	56	3899
2026-01-19 01:13:59.58	321.38	70.86	-42.5	-43.3	22.1	0.00e+00	0	36	0	1239416832	56	3975
2026-01-19 01:14:00.59	319.95	71.01	-43.0	-43.9	21.6	0.00e+00	0	36	0	1242562560	56	4255
2026-01-19 01:14:01.60	318.49	71.15	-43.2	-44.0	21.4	0.00e+00	0	36	0	1245708288	57	4088
2026-01-19 01:14:02.60	317.02	71.27	-43.0	-43.8	21.3	0.00e+00	0	36	0	1248854016	57	3998
2026-01-19 01:14:03.61	315.52	71.39	-42.9	-43.7	21.5	0.00e+00	0	36	0	1251999744	57	3957
2026-01-19 01:14:04.62	314.01	71.49	-42.8	-43.7	21.6	0.00e+00	0	36	0	1255145472	57	3924
2026-01-19 01:14:05.63	312.47	71.58	-42.5	-43.3	22.0	0.00e+00	0	36	0	1258291200	57	3761
2026-01-19 01:14:06.64	310.92	71.65	-42.5	-43.3	22.1	0.00e+00	0	36	0	1261436928	56	3997
2026-01-19 01:14:07.64	309.37	71.72	-43.1	-44.0	21.4	0.00e+00	0	37	0	1264582656	56	4329
2026-01-19 01:14:08.65	307.80	71.77	-42.7	-43.5	21.8	0.00e+00	0	36	0	1267728384	56	4077
2026-01-19 01:14:09.66	306.22	71.80	-42.3	-43.1	22.2	0.00e+00	0	36	0	1270874112	56	3878
2026-01-19 01:14:10.67	304.63	71.83	-42.1	-42.9	22.4	0.00e+00	0	36	0	1274019840	56	3791
2026-01-19 01:14:11.68	303.05	71.84	-42.9	-43.7	21.7	0.00e+00	0	36	0	1277165568	56	4170
2026-01-19 01:14:12.68	301.47	71.84	-43.1	-44.0	21.5	0.00e+00	0	36	0	1280311296	56	4307
2026-01-19 01:14:13.69	299.88	71.82	-42.9	-43.7	21.6	0.00e+00	0	36	0	1283457024	56	4188
2026-01-19 01:14:14.70	298.30	71.79	-42.9	-43.8	21.6	0.00e+00	0	36	0	1286602752	56	4205
2026-01-19 01:14:15.71	296.72	71.75	-42.7	-43.5	21.8	0.00e+00	0	36	0	1289748480	56	4077
2026-01-19 01:14:16.72	295.15	71.70	-42.6	-43.4	22.0	0.00e+00	0	36	0	1292894208	56	4018
2026-01-19 01:14:17.72	293.60	71.63	-42.6	-43.5	21.9	0.00e+00	0	36	0	1296039936	56	4061
2026-01-19 01:14:18.73	292.06	71.55	-42.6	-43.4	22.0	0.00e+00	0	36	0	1299185664	56	4009
2026-01-19 01:14:19.74	290.53	71.46	-42.5	-43.3	21.9	0.00e+00	0	36	0	1302331392	56	3990
2026-01-19 01:14:20.75	289.02	71.35	-42.2	-43.0	22.0	0.00e+00	0	36	0	1305477120	56	3868
2026-01-19 01:14:21.76	287.52	71.24	-42.5	-43.3	22.0	0.00e+00	0	36	0	1308622848	56	3986
2026-01-19 01:14:22.77	286.05	71.11	-42.8	-43.7	21.7	0.00e+00	0	36	0	1311768576	56	4172
2026-01-19 01:14:23.78	284.60	70.97	-43.2	-44.0	21.5	0.00e+00	0	36	0	1314914304	56	4340
2026-01-19 01:14:24.78	283.18	70.82	-43.3	-44.2	21.4	0.00e+00	0	36	0	1318060032	57	4151
2026-01-19 01:14:25.79	281.78	70.66	-43.4	-44.3	21.3	0.00e+00	0	37	0	1321205760	57	4235
2026-01-19 01:14:26.80	280.40	70.48	-43.3	-44.2	21.5	0.00e+00	0	36	0	1324351488	57	4146
2026-01-19 01:14:27.81	279.05	70.30	-42.9	-43.7	21.8	0.00e+00	0	36	0	1327497216	57	3929
2026-01-19 01:14:28.82	277.73	70.11	-42.9	-43.7	21.8	0.00e+00	0	36	0	1330642944	57	3946
2026-01-19 01:14:29.82	276.44	69.91	-42.8	-43.6	21.9	0.00e+00	0	36	0	1333788672	57	3894
2026-01-19 01:14:30.83	275.17	69.70	-43.1	-43.9	21.6	0.00e+00	0	36	0	1336934400	57	4038
2026-01-19 01:14:31.84	273.93	69.48	-42.3	-43.1	22.0	0.00e+00	0	36	0	1340080128	56	3904
2026-01-19 01:14:32.85	272.72	69.25	-42.1	-42.8	22.2	0.00e+00	0	36	0	1343225856	56	3772
2026-01-19 01:14:33.86	271.54	69.01	-42.1	-42.8	22.4	0.00e+00	0	36	0	1346371584	56	3769
2026-01-19 01:14:34.87	270.39	68.77	-42.2	-42.9	22.4	0.00e+00	0	36	0	1349517312	56	3823
2026-01-19 01:14:35.88	269.26	68.52	-42.3	-43.1	22.3	0.00e+00	0	37	0	1352663040	56	3884
2026-01-19 01:14:36.88	268.18	68.27	-42.9	-43.8	21.8	0.00e+00	0	36	0	1355808768	56	4213
2026-01-19 01:14:37.89	267.11	68.00	-43.7	-44.6	21.0	0.00e+00	0	36	0	1358954496	57	4378
2026-01-19 01:14:38.90	266.07	67.73	-43.5	-44.4	20.9	0.00e+00	0	36	0	1362100224	58	4051
2026-01-19 01:14:39.91	265.05	67.46	-43.0	-43.8	21.3	0.00e+00	0	36	0	1365245952	58	3769
2026-01-19 01:14:40.92	264.07	67.18	-42.8	-43.6	21.7	0.00e+00	0	36	0	1368391680	57	3899
2026-01-19 01:14:41.92	263.12	66.90	-43.4	-44.3	21.3	0.00e+00	0	36	0	1371537408	57	4203
2026-01-19 01:14:42.94	262.17	66.60	-44.1	-45.1	20.6	0.00e+00	0	36	0	1374683136	58	4367
2026-01-19 01:14:43.94	261.27	66.31	-43.5	-44.5	21.1	0.00e+00	0	36	0	1377828864	58	4056
2026-01-19 01:14:44.95	260.39	66.01	-42.6	-43.4	21.9	0.00e+00	0	36	0	1380974592	57	3807
2026-01-19 01:14:45.96	259.53	65.71	-42.5	-43.3	21.9	0.00e+00	0	37	0	1384120320	56	3977
2026-01-19 01:14:46.97	258.69	65.40	-42.5	-43.3	22.0	0.00e+00	0	36	0	1387266048	56	3995
2026-01-19 01:14:47.98	257.88	65.09	-42.2	-43.0	22.2	0.00e+00	0	36	0	1390411776	56	3828
2026-01-19 01:14:48.99	257.09	64.78	-42.7	-43.5	21.7	0.00e+00	0	36	0	1393557504	56	4097
2026-01-19 01:14:50.00	256.32	64.46	-43.8	-44.7	20.9	0.00e+00	0	36	0	1396703232	58	4171
2026-01-19 01:14:51.00	255.58	64.14	-44.0	-45.0	20.4	0.00e+00	0	37	0	1399848960	58	4297
2026-01-19 01:14:52.01	254.85	63.82	-43.1	-43.9	21.3	0.00e+00	0	36	0	1402994688	58	3802
2026-01-19 01:14:53.02	254.14	63.50	-42.4	-43.2	22.0	0.00e+00	0	36	0	1406140416	56	3943
2026-01-19 01:14:54.03	253.46	63.17	-42.7	-43.5	21.9	0.00e+00	0	36	0	1409286144	56	4065
2026-01-19 01:14:55.04	252.79	62.85	-43.4	-44.3	21.2	0.00e+00	0	37	0	1412431872	57	4229
2026-01-19 01:14:56.04	252.14	62.52	-44.3	-45.3	20.3	0.00e+00	0	36	0	1415577600	59	4230
2026-01-19 01:14:57.05	251.51	62.19	-44.1	-45.1	20.6	0.00e+00	0	36	0	1418723328	59	4129
2026-01-19 01:14:58.06	250.89	61.86	-43.6	-44.5	20.9	0.00e+00	0	36	0	1421869056	59	3849
2026-01-19 01:14:59.07	250.29	61.52	-43.2	-44.1	21.3	0.00e+00	0	37	0	1425014784	58	3878
2026-01-19 01:15:00.08	249.71	61.19	-43.0	-43.8	21.6	0.00e+00	0	36	0	1428160512	57	3988
2026-01-19 01:15:01.08	249.14	60.86	-42.7	-43.5	21.8	0.00e+00	0	36	0	1431306240	57	3867
2026-01-19 01:15:02.09	248.59	60.52	-43.1	-44.0	21.5	0.00e+00	0	36	0	1434451968	57	4058
2026-01-19 01:15:03.10	248.05	60.18	-44.1	-45.0	20.7	0.00e+00	0	36	0	1437597696	58	4330
2026-01-19 01:15:04.11	247.53	59.85	-44.3	-45.2	20.2	0.00e+00	0	36	0	1440743424	60	3954
2026-01-19 01:15:05.11	247.02	59.51	-44.4	-45.3	20.0	0.00e+00	0	36	0	1443889152	60	3998
2026-01-19 01:15:06.12	246.52	59.18	-44.2	-45.1	20.2	0.00e+00	0	36	0	1447034880	60	3909
2026-01-19 01:15:07.13	246.04	58.84	-43.4	-44.3	21.2	0.00e+00	0	36	0	1450180608	58	3979
2026-01-19 01:15:08.14	245.56	58.50	-42.7	-43.5	21.9	0.00e+00	0	36	0	1453326336	57	3833
2026-01-19 01:15:09.15	245.10	58.16	-42.6	-43.4	22.0	0.00e+00	0	37	0	1456472064	57	3782
2026-01-19 01:15:10.16	244.65	57.83	-42.8	-43.6	21.9	0.00e+00	0	36	0	1459617792	57	3869
2026-01-19 01:15:11.16	244.22	57.49	-43.6	-44.5	21.0	0.00e+00	0	36	0	1462763520	57	4328
2026-01-19 01:15:12.17	243.79	57.16	-44.4	-45.3	20.0	0.00e+00	0	36	0	1465909248	59	4240
2026-01-19 01:15:13.18	243.37	56.82	-44.1	-45.1	20.0	0.00e+00	0	36	0	1469054976	59	4100
2026-01-19 01:15:14.19	242.96	56.48	-43.8	-44.7	20.5	0.00e+00	0	36	0	1472200704	59	3938
2026-01-19 01:15:15.20	242.57	56.15	-43.7	-44.6	20.7	0.00e+00	0	37	0	1475346432	59	3907
2026-01-19 01:15:16.20	242.18	55.82	-43.7	-44.6	20.9	0.00e+00	0	36	0	1478492160	59	3888
2026-01-19 01:15:17.21	241.80	55.49	-43.8	-44.7	20.8	0.00e+00	0	36	0	1481637888	59	3947
2026-01-19 01:15:18.22	241.43	55.15	-44.3	-45.3	20.3	0.00e+00	0	36	0	1484783616	59	4219
2026-01-19 01:15:19.23	241.07	54.82	-44.5	-45.5	19.8	0.00e+00	0	37	0	1487929344	60	4093
2026-01-19 01:15:20.24	240.72	54.49	-45.1	-46.2	19.2	0.00e+00	0	37	0	1491075072	60	4414
2026-01-19 01:15:21.24	240.38	54.16	-45.8	-47.0	18.6	0.00e+00	0	36	0	1494220800	62	4292
2026-01-19 01:15:22.25	240.04	53.84	-45.9	-47.1	18.1	0.00e+00	0	37	0	1497366528	62	4374
2026-01-19 01:15:23.26	239.71	53.51	-45.5	-46.7	18.2	0.00e+00	0	36	0	1500512256	62	4177
2026-01-19 01:15:24.26	239.39	53.18	-44.8	-45.9	19.2	0.00e+00	0	37	0	1503657984	61	4014
2026-01-19 01:15:25.27	239.08	52.86	-44.2	-45.2	20.0	0.00e+00	0	37	0	1506803712	60	3921
2026-01-19 01:15:26.28	238.77	52.54	-44.3	-45.3	19.9	0.00e+00	0	37	0	1509949440	60	3963
2026-01-19 01:15:27.29	238.47	52.21	-44.3	-45.3	20.2	0.00e+00	0	36	0	1513095168	59	4199
2026-01-19 01:15:28.30	238.17	51.89	-44.6	-45.6	20.0	0.00e+00	0	37	0	1516240896	59	4356
2026-01-19 01:15:29.30	237.89	51.57	-44.8	-45.8	19.6	0.00e+00	0	37	0	1519386624	60	4236
2026-01-19 01:15:30.31	237.61	51.26	-45.3	-46.4	19.0	0.00e+00	0	37	0	1522532352	61	4276
2026-01-19 01:15:31.32	237.33	50.94	-45.8	-47.0	18.5	0.00e+00	0	36	0	1525678080	62	4323
2026-01-19 01:15:32.32	237.06	50.63	-46.5	-47.9	17.7	0.00e+00	0	37	0	1528823808	63	4514
2026-01-19 01:15:33.33	236.80	50.31	-46.6	-47.9	17.5	0.00e+00	0	37	0	1531969536	63	4537
2026-01-19 01:15:34.34	236.54	50.00	-46.4	-47.7	17.6	0.00e+00	0	37	0	1535115264	63	4403
2026-01-19 01:15:35.35	236.28	49.69	-45.5	-46.6	18.7	0.00e+00	0	36	0	1538260992	63	3896
2026-01-19 01:15:36.36	236.03	49.38	-44.5	-45.5	19.6	0.00e+00	0	37	0	1541406720	61	3838
2026-01-19 01:15:37.36	235.79	49.07	-44.2	-45.1	20.0	0.00e+00	0	37	0	1544552448	60	3913
2026-01-19 01:15:38.37	235.55	48.77	-44.7	-45.7	19.5	0.00e+00	0	37	0	1547698176	60	4190
2026-01-19 01:15:39.38	235.32	48.46	-45.4	-46.6	18.8	0.00e+00	0	37	0	1550843904	61	4341
2026-01-19 01:15:40.38	235.09	48.16	-46.0	-47.2	18.3	0.00e+00	0	37	0	1553989632	62	4403
2026-01-19 01:15:41.39	234.87	47.86	-46.2	-47.4	18.0	0.00e+00	0	36	0	1557135360	62	4534
2026-01-19 01:15:42.40	234.65	47.56	-46.4	-47.7	17.8	0.00e+00	0	37	0	1560281088	63	4392
2026-01-19 01:15:43.41	234.43	47.26	-46.4	-47.7	17.7	0.00e+00	0	36	0	1563426816	63	4402
2026-01-19 01:15:44.42	234.22	46.96	-46.5	-47.8	17.5	0.00e+00	0	36	0	1566572544	63	4479
2026-01-19 01:15:45.42	234.01	46.67	-46.5	-47.8	17.6	0.00e+00	0	36	0	1569718272	63	4461
2026-01-19 01:15:46.43	233.81	46.38	-46.5	-47.8	17.7	0.00e+00	0	36	0	1572864000	63	4448
2026-01-19 01:15:47.44	233.61	46.08	-46.1	-47.3	18.0	0.00e+00	0	37	0	1576009728	63	4206
2026-01-19 01:15:48.45	233.41	45.79	-45.2	-46.3	18.8	0.00e+00	0	36	0	1579155456	62	3967
2026-01-19 01:15:49.46	233.22	45.50	-44.8	-45.8	19.3	0.00e+00	0	37	0	1582301184	61	3973
2026-01-19 01:15:50.47	233.03	45.22	-44.5	-45.5	19.6	0.00e+00	0	37	0	1585446912	61	3850
2026-01-19 01:15:51.48	232.84	44.93	-45.0	-46.0	19.3	0.00e+00	0	37	0	1588592640	61	4092
2026-01-19 01:15:52.48	232.66	44.65	-45.7	-46.9	18.5	0.00e+00	0	37	0	1591738368	61	4495
2026-01-19 01:15:53.49	232.48	44.37	-46.7	-48.0	17.4	0.00e+00	0	36	0	1594884096	63	4592
2026-01-19 01:15:54.50	232.31	44.09	-47.2	-48.7	16.7	0.00e+00	0	36	0	1599078400	64	4686
2026-01-19 01:15:55.51	232.13	43.81	-47.5	-49.2	16.2	0.00e+00	0	36	0	1602224128	65	4669
2026-01-19 01:15:56.52	231.96	43.53	-47.0	-48.4	17.0	0.00e+00	0	37	0	1604321280	65	4270
2026-01-19 01:15:57.52	231.80	43.26	-46.3	-47.6	17.7	0.00e+00	0	37	0	1607467008	64	4137
2026-01-19 01:15:58.53	231.63	42.99	-45.9	-47.1	18.3	0.00e+00	0	36	0	1610612736	63	4119
2026-01-19 01:15:59.54	231.47	42.72	-45.6	-46.7	18.7	0.00e+00	0	36	0	1613758464	63	3948
2026-01-19 01:16:00.55	231.31	42.45	-45.7	-46.8	18.6	0.00e+00	0	37	0	1616904192	63	4002
2026-01-19 01:16:01.56	231.16	42.18	-45.6	-46.8	18.6	0.00e+00	0	37	0	1620049920	63	3964
2026-01-19 01:16:02.57	231.00	41.91	-45.7	-46.8	18.6	0.00e+00	0	37	0	1623195648	63	3992
2026-01-19 01:16:03.58	230.85	41.65	-45.4	-46.5	18.8	0.00e+00	0	36	0	1626341376	62	4084
2026-01-19 01:16:04.58	230.71	41.38	-45.0	-46.1	19.2	0.00e+00	0	36	0	1629487104	62	3874
2026-01-19 01:16:05.59	230.56	41.12	-44.9	-45.9	19.3	0.00e+00	0	37	0	1632632832	61	4030
2026-01-19 01:16:06.60	230.42	40.86	-44.7	-45.7	19.6	0.00e+00	0	37	0	1636827136	61	3923
2026-01-19 01:16:07.61	230.28	40.60	-44.3	-45.3	20.0	0.00e+00	0	37	0	1639972864	60	3968
2026-01-19 01:16:08.62	230.14	40.35	-44.6	-45.6	19.6	0.00e+00	0	36	0	1643118592	60	4127
2026-01-19 01:16:09.62	230.00	40.09	-45.1	-46.2	19.1	0.00e+00	0	36	0	1646264320	60	4410
2026-01-19 01:16:10.63	229.87	39.84	-45.7	-46.9	18.4	0.00e+00	0	37	0	1649410048	61	4517
2026-01-19 01:16:11.64	229.73	39.59	-46.1	-47.4	17.8	0.00e+00	0	37	0	1651507200	62	4531
2026-01-19 01:16:12.65	229.60	39.34	-46.3	-47.7	17.6	0.00e+00	0	37	0	1654652928	63	4406
2026-01-19 01:16:13.66	229.48	39.09	-46.1	-47.4	18.0	0.00e+00	0	37	0	1657798656	63	4247
2026-01-19 01:16:14.66	229.35	38.85	-45.6	-46.8	18.5	0.00e+00	0	37	0	1660944384	63	3980
2026-01-19 01:16:15.67	229.23	38.60	-45.4	-46.6	18.7	0.00e+00	0	37	0	1664090112	62	4118
2026-01-19 01:16:16.68	229.10	38.36	-45.5	-46.6	18.7	0.00e+00	0	36	0	1667235840	62	4126
2026-01-19 01:16:17.69	228.98	38.11	-45.0	-46.1	19.1	0.00e+00	0	36	0	1670381568	62	3903
2026-01-19 01:16:18.69	228.86	37.88	-45.0	-46.1	19.2	0.00e+00	0	37	0	1673527296	62	3890
2026-01-19 01:16:19.70	228.75	37.64	-45.0	-46.1	19.2	0.00e+00	0	37	0	1676673024	62	3886
2026-01-19 01:16:20.71	228.63	37.40	-44.8	-45.9	19.4	0.00e+00	0	37	0	1680867328	61	4019
2026-01-19 01:16:21.72	228.52	37.16	-44.6	-45.6	19.6	0.00e+00	0	36	0	1684013056	61	3913
2026-01-19 01:16:22.72	228.41	36.93	-44.5	-45.5	19.8	0.00e+00	0	36	0	1687158784	60	4060
2026-01-19 01:16:23.73	228.30	36.70	-44.2	-45.2	20.0	0.00e+00	0	36	0	1690304512	60	3937
2026-01-19 01:16:24.74	228.19	36.47	-44.1	-45.1	20.1	0.00e+00	0	37	0	1693450240	60	3896
2026-01-19 01:16:25.75	228.08	36.24	-44.1	-45.0	20.2	0.00e+00	0	36	0	1696595968	60	3861
2026-01-19 01:16:26.75	227.98	36.01	-44.2	-45.1	20.1	0.00e+00	0	36	0	1698693120	60	3905
2026-01-19 01:16:27.76	227.87	35.78	-44.2	-45.2	20.0	0.00e+00	0	36	0	1701838848	60	3917
2026-01-19 01:16:28.78	227.77	35.56	-44.2	-45.2	20.0	0.00e+00	0	36	0	1704984576	60	3939
2026-01-19 01:16:29.78	227.67	35.33	-44.2	-45.2	20.0	0.00e+00	0	37	0	1708130304	60	3948
2026-01-19 01:16:30.79	227.57	35.11	-44.3	-45.3	19.9	0.00e+00	0	36	0	1711276032	60	3974
2026-01-19 01:16:31.80	227.47	34.89	-44.3	-45.3	19.9	0.00e+00	0	37	0	1715470336	60	3970
2026-01-19 01:16:32.81	227.37	34.67	-44.3	-45.3	20.2	0.00e+00	0	37	0	1718616064	59	4200
2026-01-19 01:16:33.82	227.28	34.45	-44.2	-45.2	20.3	0.00e+00	0	36	0	1721761792	59	4162
2026-01-19 01:16:34.82	227.18	34.24	-44.2	-45.2	20.3	0.00e+00	0	36	0	1724907520	59	4152
2026-01-19 01:16:35.83	227.09	34.02	-44.1	-45.0	20.3	0.00e+00	0	37	0	1728053248	59	4096
2026-01-19 01:16:36.84	227.00	33.81	-44.2	-45.1	20.2	0.00e+00	0	37	0	1731198976	59	4141
2026-01-19 01:16:37.85	226.91	33.60	-44.3	-45.3	20.0	0.00e+00	0	37	0	1734344704	59	4223
2026-01-19 01:16:38.86	226.82	33.39	-44.5	-45.6	19.9	0.00e+00	0	37	0	1737490432	59	4351
2026-01-19 01:16:39.86	226.73	33.18	-44.6	-45.6	19.9	0.00e+00	0	36	0	1740636160	59	4356
2026-01-19 01:16:40.87	226.65	32.97	-44.6	-45.6	19.8	0.00e+00	0	37	0	1743781888	59	4371
2026-01-19 01:16:41.88	226.56	32.76	-44.4	-45.4	20.0	0.00e+00	0	36	0	1745879040	59	4282
2026-01-19 01:16:42.89	226.47	32.56	-44.1	-45.1	20.3	0.00e+00	0	36	0	1749024768	59	4128
2026-01-19 01:16:43.90	226.39	32.35	-43.8	-44.7	20.6	0.00e+00	0	36	0	1752170496	59	3953
2026-01-19 01:16:44.91	226.31	32.15	-43.7	-44.7	20.7	0.00e+00	0	36	0	1756364800	59	3922
2026-01-19 01:16:45.92	226.23	31.95	-43.8	-44.7	20.7	0.00e+00	0	37	0	1759510528	59	3931
2026-01-19 01:16:46.92	226.15	31.75	-43.8	-44.8	20.6	0.00e+00	0	36	0	1762656256	59	3965
2026-01-19 01:16:47.93	226.07	31.55	-43.8	-44.7	20.7	0.00e+00	0	37	0	1765801984	59	3928
2026-01-19 01:16:48.94	225.99	31.35	-43.9	-44.9	20.6	0.00e+00	0	37	0	1768947712	59	4006
2026-01-19 01:16:49.95	225.91	31.15	-44.1	-45.1	20.3	0.00e+00	0	37	0	1772093440	59	4108
2026-01-19 01:16:50.96	225.84	30.96	-44.2	-45.2	20.2	0.00e+00	0	37	0	1775239168	59	4173
2026-01-19 01:16:51.96	225.76	30.77	-44.3	-45.3	20.1	0.00e+00	0	37	0	1778384896	59	4227
2026-01-19 01:16:52.97	225.69	30.57	-44.5	-45.5	19.9	0.00e+00	0	36	0	1781530624	59	4321
2026-01-19 01:16:53.98	225.61	30.38	-44.6	-45.6	19.8	0.00e+00	0	36	0	1784676352	59	4378
2026-01-19 01:16:54.99	225.54	30.19	-44.5	-45.6	19.9	0.00e+00	0	37	0	1787822080	59	4346
2026-01-19 01:16:56.00	225.47	30.00	-44.6	-45.6	19.8	0.00e+00	0	37	0	1790967808	59	4376
2026-01-19 01:16:57.00	225.40	29.82	-44.4	-45.4	20.0	0.00e+00	0	37	0	1794113536	59	4272
2026-01-19 01:16:58.01	225.33	29.63	-44.4	-45.4	20.0	0.00e+00	0	37	0	1797259264	59	4247
2026-01-19 01:16:59.02	225.26	29.44	-44.4	-45.5	19.9	0.00e+00	0	37	0	1800404992	59	4303
2026-01-19 01:17:00.02	225.19	29.26	-44.1	-45.1	20.3	0.00e+00	0	37	0	1803550720	59	4104
2026-01-19 01:17:01.03	225.12	29.08	-44.1	-45.1	20.3	0.00e+00	0	37	0	1806696448	59	4100
2026-01-19 01:17:02.04	225.06	28.89	-43.9	-44.9	20.4	0.00e+00	0	37	0	1809842176	59	4023
2026-01-19 01:17:03.05	224.99	28.71	-43.8	-44.7	20.6	0.00e+00	0	37	0	1812987904	59	3938
2026-01-19 01:17:04.06	224.92	28.53	-43.7	-44.7	20.6	0.00e+00	0	37	0	1816133632	59	3916
2026-01-19 01:17:05.06	224.86	28.36	-43.1	-44.0	21.1	0.00e+00	0	36	0	1819279360	58	3847
2026-01-19 01:17:06.07	224.80	28.18	-43.0	-43.8	21.3	0.00e+00	0	36	0	1822425088	58	3771
2026-01-19 01:17:07.08	224.73	28.00	-43.0	-43.8	21.3	0.00e+00	0	37	0	1825570816	57	4003
2026-01-19 01:17:08.09	224.67	27.82	-42.9	-43.7	21.4	0.00e+00	0	37	0	1828716544	57	3935
2026-01-19 01:17:09.10	224.61	27.65	-42.8	-43.6	21.5	0.00e+00	0	37	0	1831862272	57	3880
2026-01-19 01:17:10.11	224.55	27.48	-42.6	-43.4	21.7	0.00e+00	0	37	0	1835008000	57	3787
2026-01-19 01:17:11.12	224.49	27.30	-42.4	-43.2	21.9	0.00e+00	0	36	0	1838153728	56	3932
2026-01-19 01:17:12.12	224.43	27.13	-42.3	-43.1	21.9	0.00e+00	0	36	0	1841299456	56	3901
2026-01-19 01:17:13.13	224.37	26.96	-42.4	-43.1	21.9	0.00e+00	0	37	0	1844445184	56	3913
2026-01-19 01:17:14.14	224.31	26.79	-42.3	-43.1	21.9	0.00e+00	0	37	0	1847590912	56	3891
2026-01-19 01:17:15.15	224.25	26.63	-42.4	-43.2	21.9	0.00e+00	0	37	0	1850736640	56	3936
2026-01-19 01:17:16.16	224.20	26.46	-42.5	-43.3	21.7	0.00e+00	0	36	0	1853882368	56	4003
2026-01-19 01:17:17.16	224.14	26.29	-42.8	-43.6	21.5	0.00e+00	0	37	0	1857028096	56	4113
2026-01-19 01:17:18.17	224.09	26.13	-42.9	-43.7	21.4	0.00e+00	0	37	0	1860173824	56	4180
2026-01-19 01:17:19.18	224.03	25.96	-43.1	-44.0	21.2	0.00e+00	0	37	0	1863319552	56	4292
2026-01-19 01:17:20.18	223.98	25.80	-43.2	-44.1	21.1	0.00e+00	0	37	0	1866465280	57	4128
2026-01-19 01:17:21.19	223.92	25.64	-43.4	-44.3	20.9	0.00e+00	0	37	0	1869611008	57	4209
2026-01-19 01:17:22.20	223.87	25.48	-43.5	-44.4	20.8	0.00e+00	0	37	0	1872756736	57	4277
2026-01-19 01:17:23.21	223.82	25.32	-43.5	-44.5	20.8	0.00e+00	0	37	0	1875902464	57	4299
2026-01-19 01:17:24.21	223.77	25.16	-43.8	-44.7	20.5	0.00e+00	0	37	0	1879048192	58	4177
2026-01-19 01:17:25.22	223.71	25.00	-43.7	-44.6	20.6	0.00e+00	0	37	0	1882193920	58	4144
2026-01-19 01:17:26.23	223.66	24.84	-43.8	-44.8	20.5	0.00e+00	0	37	0	1885339648	58	4194
2026-01-19 01:17:27.24	223.61	24.68	-43.9	-44.8	20.4	0.00e+00	0	37	0	1888485376	58	4233
2026-01-19 01:17:28.25	223.56	24.53	-43.9	-44.9	20.3	0.00e+00	0	36	0	1891631104	58	4281
2026-01-19 01:17:29.26	223.51	24.37	-44.0	-45.0	20.3	0.00e+00	0	37	0	1894776832	58	4328
2026-01-19 01:17:30.26	223.46	24.22	-44.0	-45.0	20.3	0.00e+00	0	37	0	1897922560	58	4307
2026-01-19 01:17:31.27	223.42	24.07	-43.9	-44.9	20.4	0.00e+00	0	37	0	1901068288	58	4270
2026-01-19 01:17:32.28	223.37	23.91	-43.8	-44.8	20.5	0.00e+00	0	37	0	1904214016	58	4201
2026-01-19 01:17:33.29	223.32	23.76	-43.9	-44.8	20.4	0.00e+00	0	36	0	1907359744	58	4232
2026-01-19 01:17:34.30	223.27	23.61	-43.9	-44.8	20.4	0.00e+00	0	37	0	1910505472	58	4239
2026-01-19 01:17:35.30	223.23	23.46	-43.8	-44.8	20.5	0.00e+00	0	37	0	1913651200	58	4199
2026-01-19 01:17:36.31	223.18	23.31	-43.7	-44.7	20.5	0.00e+00	0	37	0	1916796928	58	4159
2026-01-19 01:17:37.32	223.14	23.17	-43.8	-44.8	20.5	0.00e+00	0	36	0	1919942656	58	4203
2026-01-19 01:17:38.33	223.09	23.02	-43.7	-44.6	20.6	0.00e+00	0	36	0	1923088384	58	4139
2026-01-19 01:17:39.34	223.05	22.87	-43.7	-44.7	20.5	0.00e+00	0	37	0	1926234112	58	4166
2026-01-19 01:17:40.34	223.00	22.73	-43.7	-44.6	20.6	0.00e+00	0	37	0	1929379840	58	4121
2026-01-19 01:17:41.35	222.96	22.58	-43.7	-44.7	20.6	0.00e+00	0	36	0	1932525568	58	4153
2026-01-19 01:17:42.36	222.91	22.44	-43.6	-44.5	20.7	0.00e+00	0	37	0	1935671296	58	4083
2026-01-19 01:17:43.36	222.87	22.30	-43.5	-44.4	20.8	0.00e+00	0	37	0	1938817024	58	4033
2026-01-19 01:17:44.37	222.83	22.15	-43.5	-44.5	20.7	0.00e+00	0	37	0	1941962752	58	4056
2026-01-19 01:17:45.38	222.79	22.01	-43.4	-44.4	20.8	0.00e+00	0	37	0	1945108480	58	4016
2026-01-19 01:17:46.39	222.75	21.87	-43.4	-44.3	20.9	0.00e+00	0	37	0	1948254208	58	3968
2026-01-19 01:17:47.40	222.70	21.73	-43.4	-44.3	20.9	0.00e+00	0	37	0	1951399936	58	3983
2026-01-19 01:17:48.41	222.66	21.59	-43.4	-44.3	20.8	0.00e+00	0	36	0	1954545664	58	3999
2026-01-19 01:17:49.41	222.62	21.45	-43.6	-44.6	20.6	0.00e+00	0	36	0	1957691392	58	4112
2026-01-19 01:17:50.43	222.58	21.31	-43.6	-44.5	20.6	0.00e+00	0	37	0	1960837120	58	4077
2026-01-19 01:17:51.44	222.54	21.17	-43.4	-44.3	20.8	0.00e+00	0	37	0	1963982848	58	3977
2026-01-19 01:17:52.44	222.50	21.04	-43.4	-44.4	20.8	0.00e+00	0	37	0	1967128576	58	4006
2026-01-19 01:17:53.45	222.47	20.90	-43.5	-44.5	20.6	0.00e+00	0	37	0	1970274304	58	4063
2026-01-19 01:17:54.46	222.43	20.77	-43.4	-44.4	20.7	0.00e+00	0	36	0	1973420032	58	4019
2026-01-19 01:17:55.47	222.39	20.63	-43.4	-44.4	20.7	0.00e+00	0	37	0	1976565760	58	4018
2026-01-19 01:17:56.48	222.35	20.50	-43.5	-44.4	20.7	0.00e+00	0	37	0	1979711488	58	4027
2026-01-19 01:17:57.48	222.31	20.37	-43.4	-44.4	20.7	0.00e+00	0	37	0	1982857216	58	4019
2026-01-19 01:17:58.49	222.28	20.24	-43.4	-44.3	20.8	0.00e+00	0	37	0	1986002944	58	3992
2026-01-19 01:17:59.50	222.24	20.10	-43.4	-44.3	20.8	0.00e+00	0	37	0	1989148672	58	3993
2026-01-19 01:18:00.50	222.20	19.97	-43.3	-44.2	20.8	0.00e+00	0	37	0	1992294400	58	3954
2026-01-19 01:18:01.51	222.17	19.84	-43.3	-44.2	20.8	0.00e+00	0	37	0	1995440128	58	3946
2026-01-19 01:18:02.52	222.13	19.71	-43.3	-44.2	20.8	0.00e+00	0	36	0	1998585856	58	3946
2026-01-19 01:18:03.53	222.10	19.58	-43.3	-44.2	20.9	0.00e+00	0	37	0	2001731584	58	3923
2026-01-19 01:18:04.53	222.06	19.46	-43.3	-44.2	20.9	0.00e+00	0	37	0	2004877312	58	3923
2026-01-19 01:18:05.54	222.03	19.33	-43.3	-44.2	20.8	0.00e+00	0	37	0	2008023040	58	3929
2026-01-19 01:18:06.55	221.99	19.20	-43.3	-44.2	20.8	0.00e+00	0	37	0	2011168768	58	3923
2026-01-19 01:18:07.56	221.96	19.08	-43.3	-44.2	20.8	0.00e+00	0	36	0	2014314496	58	3952
2026-01-19 01:18:08.57	221.92	18.95	-43.4	-44.3	20.7	0.00e+00	0	37	0	2017460224	58	3993
2026-01-19 01:18:09.58	221.89	18.82	-43.4	-44.3	20.7	0.00e+00	0	37	0	2020605952	58	3992
2026-01-19 01:18:10.58	221.86	18.70	-43.4	-44.4	20.7	0.00e+00	0	37	0	2023751680	58	4005
2026-01-19 01:18:11.59	221.83	18.58	-43.4	-44.3	20.7	0.00e+00	0	36	0	2026897408	58	3988
2026-01-19 01:18:12.60	221.79	18.45	-43.5	-44.4	20.6	0.00e+00	0	37	0	2030043136	58	4042
2026-01-19 01:18:13.60	221.76	18.33	-43.5	-44.5	20.5	0.00e+00	0	37	0	2033188864	58	4065
2026-01-19 01:18:14.61	221.73	18.21	-43.6	-44.6	20.5	0.00e+00	0	37	0	2036334592	58	4109
2026-01-19 01:18:15.62	221.70	18.09	-43.7	-44.6	20.4	0.00e+00	0	36	0	2039480320	58	4132
2026-01-19 01:18:16.63	221.66	17.97	-43.6	-44.5	20.5	0.00e+00	0	37	0	2042626048	58	4084
2026-01-19 01:18:17.64	221.63	17.85	-43.7	-44.7	20.4	0.00e+00	0	37	0	2045771776	58	4153
2026-01-19 01:18:18.64	221.60	17.73	-43.7	-44.6	20.4	0.00e+00	0	37	0	2048917504	58	4144
2026-01-19 01:18:19.65	221.57	17.61	-43.7	-44.6	20.4	0.00e+00	0	37	0	2052063232	58	4140
2026-01-19 01:18:20.66	221.54	17.49	-43.8	-44.8	20.3	0.00e+00	0	37	0	2055208960	58	4221
2026-01-19 01:18:21.67	221.51	17.37	-43.8	-44.8	20.2	0.00e+00	0	37	0	2058354688	58	4229
2026-01-19 01:18:22.68	221.48	17.25	-43.9	-44.9	20.1	0.00e+00	0	36	0	2061500416	58	4284
2026-01-19 01:18:23.68	221.45	17.14	-43.9	-44.9	20.2	0.00e+00	0	37	0	2064646144	58	4275
2026-01-19 01:18:24.69	221.42	17.02	-44.0	-45.0	20.1	0.00e+00	0	37	0	2067791872	58	4325
2026-01-19 01:18:25.70	221.39	16.90	-44.0	-45.0	20.1	0.00e+00	0	37	0	2070937600	58	4311
2026-01-19 01:18:26.71	221.36	16.79	-44.0	-45.0	20.0	0.00e+00	0	37	0	2074083328	58	4335
2026-01-19 01:18:27.72	221.34	16.67	-44.1	-45.1	20.0	0.00e+00	0	37	0	2077229056	58	4385
2026-01-19 01:18:28.72	221.31	16.56	-44.1	-45.2	19.9	0.00e+00	0	37	0	2080374784	58	4399
2026-01-19 01:18:29.73	221.28	16.45	-44.3	-45.3	19.8	0.00e+00	0	37	0	2083520512	59	4211
2026-01-19 01:18:30.74	221.25	16.33	-44.2	-45.2	19.9	0.00e+00	0	37	0	2086666240	59	4180
2026-01-19 01:18:31.74	221.22	16.22	-44.2	-45.2	19.8	0.00e+00	0	37	0	2089811968	59	4190
2026-01-19 01:18:32.75	221.20	16.11	-44.3	-45.3	19.8	0.00e+00	0	37	0	2092957696	59	4217
