passes_logs/2026/01/19/R3.2S_Murmansk/R3.2S_Murmansk__20260119_121052_JILIN-01_KUANFU_02B_5_rec.log

#Pass ID: 20260119_121052_JILIN-01 KUANFU 02B 5
#Satellite: JILIN-01 KUANFU 02B 5
#Configuration: 01B_900M
#almurnet v.1.7.20251203
#Start time: 2026-01-19 12:10:53

#Version: 2.2.20231116
#Station: R3.2S_Murmansk
#Location: 33.079688 lon 68.888172 lat
#TLE: 1 61193U 24169E   26018.96157998  .00004469  00000+0  28079-3 0  9994
#TLE: 2 61193  97.5744 110.7813 0013795 121.3515 238.9066 15.09689719 73326

#Time	Az	El	Level	Level2	SNR	BER	BlckErr	Temp	State	Recorded	gain1	gain2
2026-01-19 12:10:53.46	24.42	2.10	-52.6	-54.8	6.2	0.00e+00	0	40	0	0	75	19963
2026-01-19 12:10:54.47	24.36	2.16	-52.7	-54.9	6.2	0.00e+00	0	39	104	0	76	19053
2026-01-19 12:10:55.48	24.30	2.23	-52.7	-54.8	6.2	0.00e+00	0	39	104	0	76	18976
2026-01-19 12:10:56.49	24.23	2.29	-52.7	-54.8	6.2	0.00e+00	0	39	104	0	76	18929
2026-01-19 12:10:57.49	24.17	2.36	-52.7	-54.8	6.2	0.00e+00	0	39	104	0	76	18897
2026-01-19 12:10:58.50	24.11	2.43	-52.7	-54.8	6.2	0.00e+00	0	40	104	0	76	18887
2026-01-19 12:10:59.51	24.05	2.49	-52.7	-54.8	6.2	0.00e+00	0	39	104	0	76	18958
2026-01-19 12:11:00.52	23.98	2.56	-52.7	-54.8	6.2	0.00e+00	0	40	104	0	76	18910
2026-01-19 12:11:01.53	23.92	2.63	-52.7	-54.8	6.2	0.00e+00	0	40	104	0	76	18912
2026-01-19 12:11:02.53	23.85	2.69	-52.7	-54.8	6.2	0.00e+00	0	40	104	0	76	18900
2026-01-19 12:11:03.54	23.79	2.76	-52.7	-54.8	6.2	0.00e+00	0	39	104	0	76	18945
2026-01-19 12:11:04.55	23.72	2.83	-52.7	-54.8	6.2	0.00e+00	0	39	104	0	76	18970
2026-01-19 12:11:05.56	23.66	2.90	-52.7	-54.8	6.2	0.00e+00	0	39	104	0	76	18960
2026-01-19 12:11:06.57	23.59	2.96	-52.7	-54.8	6.2	0.00e+00	0	39	104	0	76	18979
2026-01-19 12:11:07.57	23.53	3.03	-52.7	-54.8	6.2	0.00e+00	0	40	104	0	76	18964
2026-01-19 12:11:08.58	23.46	3.10	-52.7	-54.8	6.2	0.00e+00	0	40	104	0	76	18916
2026-01-19 12:11:09.59	23.39	3.17	-52.7	-54.8	6.2	0.00e+00	0	40	104	0	76	18931
2026-01-19 12:11:10.60	23.32	3.24	-52.7	-54.8	6.2	0.00e+00	0	40	104	0	76	18917
2026-01-19 12:11:11.61	23.25	3.30	-52.7	-54.8	6.2	0.00e+00	0	40	104	0	76	18921
2026-01-19 12:11:12.62	23.19	3.37	-52.7	-54.8	6.2	0.00e+00	0	40	104	0	76	18924
2026-01-19 12:11:13.63	23.12	3.44	-52.7	-54.8	6.2	0.00e+00	0	39	104	0	76	18958
2026-01-19 12:11:14.63	23.05	3.51	-52.7	-54.8	6.2	0.00e+00	0	40	104	0	76	18931
2026-01-19 12:11:15.64	22.98	3.58	-52.7	-54.8	6.2	0.00e+00	0	40	104	0	76	18956
2026-01-19 12:11:16.65	22.91	3.65	-52.7	-54.8	6.2	0.00e+00	0	40	104	0	76	18928
2026-01-19 12:11:17.66	22.84	3.72	-52.7	-54.8	6.2	0.00e+00	0	40	104	0	76	18997
2026-01-19 12:11:18.67	22.76	3.79	-52.7	-54.8	6.2	0.00e+00	0	40	104	0	76	18958
2026-01-19 12:11:19.67	22.69	3.86	-52.7	-54.8	6.2	0.00e+00	0	40	104	0	76	18975
2026-01-19 12:11:20.68	22.62	3.93	-52.7	-54.8	6.2	0.00e+00	0	40	104	0	76	18920
2026-01-19 12:11:21.69	22.55	4.00	-52.7	-54.8	6.2	0.00e+00	0	40	104	0	76	18908
2026-01-19 12:11:22.70	22.48	4.07	-52.7	-54.8	6.2	0.00e+00	0	40	104	0	76	18946
2026-01-19 12:11:23.71	22.40	4.14	-52.7	-54.8	6.2	0.00e+00	0	40	104	0	76	18890
2026-01-19 12:11:24.71	22.33	4.21	-52.7	-54.8	6.2	0.00e+00	0	40	104	0	76	18960
2026-01-19 12:11:25.72	22.25	4.29	-52.7	-54.8	6.2	0.00e+00	0	40	104	0	76	18895
2026-01-19 12:11:26.73	22.18	4.36	-52.7	-54.8	6.2	0.00e+00	0	40	104	0	76	18958
2026-01-19 12:11:27.74	22.10	4.43	-52.7	-54.8	6.2	0.00e+00	0	40	104	0	76	18956
2026-01-19 12:11:28.75	22.03	4.50	-52.7	-54.8	6.2	0.00e+00	0	40	104	0	76	18912
2026-01-19 12:11:29.75	21.95	4.57	-52.7	-54.8	6.2	0.00e+00	0	40	104	0	76	18972
2026-01-19 12:11:30.76	21.87	4.65	-52.7	-54.8	6.2	0.00e+00	0	40	104	0	76	18895
2026-01-19 12:11:31.76	21.80	4.72	-52.7	-54.8	6.2	0.00e+00	0	40	104	0	76	18932
2026-01-19 12:11:32.77	21.72	4.79	-52.7	-54.8	6.2	0.00e+00	0	40	104	0	76	18940
2026-01-19 12:11:33.78	21.64	4.86	-52.7	-54.8	6.2	0.00e+00	0	40	104	0	76	18923
2026-01-19 12:11:34.79	21.56	4.94	-52.7	-54.8	6.2	0.00e+00	0	40	104	0	76	18915
2026-01-19 12:11:35.80	21.48	5.01	-52.7	-54.8	6.2	0.00e+00	0	40	104	0	76	18944
2026-01-19 12:11:36.80	21.40	5.08	-52.7	-54.9	6.2	0.00e+00	0	40	104	0	76	19098
2026-01-19 12:11:37.81	21.32	5.16	-52.8	-54.9	6.2	0.00e+00	0	40	104	0	76	19229
2026-01-19 12:11:38.82	21.24	5.23	-52.7	-54.8	6.2	0.00e+00	0	40	104	0	76	18924
2026-01-19 12:11:39.82	21.16	5.31	-52.8	-54.9	6.2	0.00e+00	0	40	104	0	76	19196
2026-01-19 12:11:40.83	21.08	5.38	-52.7	-54.8	6.2	0.00e+00	0	40	104	0	76	18946
2026-01-19 12:11:41.84	21.00	5.46	-52.9	-55.0	6.2	0.00e+00	0	40	104	0	76	19360
2026-01-19 12:11:42.85	20.91	5.53	-52.7	-54.8	6.2	0.00e+00	0	40	104	0	76	18990
2026-01-19 12:11:43.85	20.83	5.61	-52.8	-55.0	6.2	0.00e+00	0	40	104	0	76	19382
2026-01-19 12:11:44.86	20.74	5.68	-52.8	-54.9	6.2	0.00e+00	0	40	104	0	76	19138
2026-01-19 12:11:45.87	20.66	5.76	-52.9	-55.1	6.2	0.00e+00	0	40	104	0	76	19510
2026-01-19 12:11:46.88	20.57	5.83	-52.7	-54.9	6.2	0.00e+00	0	40	104	0	76	19106
2026-01-19 12:11:47.88	20.49	5.91	-52.9	-55.0	6.2	0.00e+00	0	40	104	0	76	19412
2026-01-19 12:11:48.89	20.40	5.99	-52.8	-54.9	6.2	0.00e+00	0	40	104	0	76	19236
2026-01-19 12:11:49.90	20.31	6.06	-53.0	-55.1	6.2	0.00e+00	0	40	104	0	76	19622
2026-01-19 12:11:50.91	20.23	6.14	-52.8	-54.9	6.2	0.00e+00	0	40	104	0	76	19226
2026-01-19 12:11:51.92	20.14	6.22	-52.9	-55.1	6.2	0.00e+00	0	40	104	0	76	19528
2026-01-19 12:11:52.93	20.05	6.29	-52.8	-55.0	6.2	0.00e+00	0	40	104	0	76	19305
2026-01-19 12:11:53.93	19.96	6.37	-53.0	-55.1	6.2	0.00e+00	0	40	104	0	76	19614
2026-01-19 12:11:54.94	19.87	6.45	-52.9	-55.0	6.2	0.00e+00	0	40	104	0	76	19313
2026-01-19 12:11:55.95	19.78	6.53	-53.0	-55.1	6.2	0.00e+00	0	40	104	0	76	19598
2026-01-19 12:11:56.96	19.69	6.61	-52.9	-55.0	6.2	0.00e+00	0	40	104	0	76	19440
2026-01-19 12:11:57.97	19.60	6.69	-53.0	-55.2	6.2	0.00e+00	0	40	104	0	76	19740
2026-01-19 12:11:58.98	19.50	6.76	-52.9	-55.0	6.2	0.00e+00	0	40	104	0	76	19455
2026-01-19 12:11:59.99	19.41	6.84	-53.0	-55.1	6.2	0.00e+00	0	40	104	0	76	19675
2026-01-19 12:12:00.99	19.32	6.92	-52.9	-55.1	6.2	0.00e+00	0	40	104	0	76	19552
2026-01-19 12:12:02.00	19.22	7.00	-53.1	-55.2	6.2	0.00e+00	0	40	104	0	76	19832
2026-01-19 12:12:03.01	19.13	7.08	-52.9	-55.1	6.2	0.00e+00	0	40	104	0	76	19497
2026-01-19 12:12:04.02	19.03	7.16	-53.0	-55.2	6.2	0.00e+00	0	40	104	0	76	19777
2026-01-19 12:12:05.02	18.93	7.24	-53.0	-55.1	6.2	0.00e+00	0	40	104	0	76	19557
2026-01-19 12:12:06.03	18.84	7.32	-53.1	-55.2	6.2	0.00e+00	0	40	104	0	76	19862
2026-01-19 12:12:07.04	18.74	7.40	-53.0	-55.1	6.2	0.00e+00	0	40	104	0	76	19589
2026-01-19 12:12:08.05	18.64	7.49	-53.1	-55.2	6.2	0.00e+00	0	40	104	0	76	19821
2026-01-19 12:12:09.06	18.54	7.57	-53.0	-55.2	6.2	0.00e+00	0	40	104	0	76	19714
2026-01-19 12:12:10.06	18.44	7.65	-53.1	-55.3	6.2	0.00e+00	0	40	104	0	76	19994
2026-01-19 12:12:11.07	18.34	7.73	-53.0	-55.2	6.2	0.00e+00	0	40	104	0	76	19705
2026-01-19 12:12:12.08	18.24	7.81	-53.1	-55.2	6.2	0.00e+00	0	40	104	0	76	19900
2026-01-19 12:12:13.09	18.13	7.90	-53.1	-55.2	6.2	0.00e+00	0	40	104	0	76	19796
2026-01-19 12:12:14.10	18.03	7.98	-53.2	-55.3	6.2	0.00e+00	0	40	104	0	76	20003
2026-01-19 12:12:15.10	17.93	8.06	-53.1	-55.2	6.2	0.00e+00	0	40	104	0	76	19830
2026-01-19 12:12:16.11	17.82	8.14	-53.1	-55.3	6.2	0.00e+00	0	40	104	0	76	19974
2026-01-19 12:12:17.12	17.72	8.23	-53.1	-55.2	6.2	0.00e+00	0	40	104	0	76	19868
2026-01-19 12:12:18.13	17.61	8.31	-53.2	-55.3	6.2	0.00e+00	0	40	104	0	76	20110
2026-01-19 12:12:19.14	17.51	8.40	-53.1	-55.2	6.2	0.00e+00	0	40	104	0	76	19881
2026-01-19 12:12:20.14	17.40	8.48	-53.2	-55.3	6.2	0.00e+00	0	40	104	0	76	20072
2026-01-19 12:12:21.15	17.29	8.56	-53.1	-55.2	6.2	0.00e+00	0	40	104	0	76	19924
2026-01-19 12:12:22.16	17.18	8.65	-53.2	-55.3	6.2	0.00e+00	0	40	104	0	76	20133
2026-01-19 12:12:23.16	17.07	8.73	-53.1	-55.3	6.2	0.00e+00	0	40	104	0	76	20000
2026-01-19 12:12:24.17	16.96	8.82	-53.2	-55.3	6.2	0.00e+00	0	40	104	0	76	20094
2026-01-19 12:12:25.18	16.85	8.91	-53.2	-55.3	6.2	0.00e+00	0	40	104	0	76	20050
2026-01-19 12:12:26.19	16.74	8.99	-53.2	-55.4	6.2	0.00e+00	0	40	104	0	77	19105
2026-01-19 12:12:27.20	16.62	9.08	-53.2	-55.3	6.2	0.00e+00	0	40	104	0	77	18981
2026-01-19 12:12:28.21	16.51	9.17	-53.2	-55.4	6.2	0.00e+00	0	40	104	0	77	19105
2026-01-19 12:12:29.21	16.39	9.25	-53.2	-55.3	6.2	0.00e+00	0	40	104	0	77	18997
2026-01-19 12:12:30.22	16.28	9.34	-53.3	-55.4	6.2	0.00e+00	0	40	104	0	77	19201
2026-01-19 12:12:31.23	16.16	9.43	-53.2	-55.3	6.2	0.00e+00	0	40	104	0	77	19026
2026-01-19 12:12:32.24	16.04	9.52	-53.3	-55.4	6.2	0.00e+00	0	40	104	0	77	19111
2026-01-19 12:12:33.24	15.93	9.60	-53.2	-55.4	6.2	0.00e+00	0	40	104	0	77	19075
2026-01-19 12:12:34.25	15.81	9.69	-53.3	-55.5	6.2	0.00e+00	0	40	104	0	77	19258
2026-01-19 12:12:35.26	15.69	9.78	-53.2	-55.4	6.2	0.00e+00	0	40	104	0	77	19053
2026-01-19 12:12:36.27	15.57	9.87	-53.3	-55.4	6.2	0.00e+00	0	40	104	0	77	19239
2026-01-19 12:12:37.28	15.44	9.96	-53.3	-55.4	6.2	0.00e+00	0	40	104	0	77	19147
2026-01-19 12:12:38.29	15.32	10.05	-53.3	-55.5	6.2	0.00e+00	0	40	104	0	77	19306
2026-01-19 12:12:39.29	15.20	10.14	-53.3	-55.4	6.2	0.00e+00	0	40	104	0	77	19140
2026-01-19 12:12:40.30	15.07	10.23	-53.3	-55.4	6.2	0.00e+00	0	40	104	0	77	19252
2026-01-19 12:12:41.31	14.95	10.32	-53.3	-55.4	6.2	0.00e+00	0	40	104	0	77	19231
2026-01-19 12:12:42.32	14.82	10.41	-53.3	-55.5	6.2	0.00e+00	0	40	104	0	77	19344
2026-01-19 12:12:43.33	14.69	10.50	-53.3	-55.4	6.2	0.00e+00	0	40	104	0	77	19204
2026-01-19 12:12:44.33	14.56	10.59	-53.3	-55.5	6.2	0.00e+00	0	40	104	0	77	19319
2026-01-19 12:12:45.34	14.43	10.69	-53.3	-55.5	6.2	0.00e+00	0	40	104	0	77	19280
2026-01-19 12:12:46.35	14.30	10.78	-53.4	-55.5	6.2	0.00e+00	0	40	104	0	77	19459
2026-01-19 12:12:47.36	14.17	10.87	-53.3	-55.5	6.2	0.00e+00	0	41	104	0	77	19296
2026-01-19 12:12:48.36	14.04	10.96	-53.4	-55.5	6.2	0.00e+00	0	40	104	0	77	19348
2026-01-19 12:12:49.37	13.90	11.06	-53.3	-55.5	6.2	0.00e+00	0	40	104	0	77	19388
2026-01-19 12:12:50.38	13.77	11.15	-53.4	-55.5	6.2	0.00e+00	0	40	104	0	77	19405
2026-01-19 12:12:51.38	13.63	11.24	-53.4	-55.5	6.2	0.00e+00	0	40	104	0	77	19367
2026-01-19 12:12:52.39	13.50	11.34	-53.4	-55.5	6.2	0.00e+00	0	40	104	0	77	19429
2026-01-19 12:12:53.40	13.36	11.43	-53.4	-55.5	6.2	0.00e+00	0	40	104	0	77	19326
2026-01-19 12:12:54.41	13.22	11.53	-53.4	-55.6	6.2	0.00e+00	0	40	104	0	77	19487
2026-01-19 12:12:55.41	13.08	11.62	-53.4	-55.5	6.2	0.00e+00	0	41	104	0	77	19388
2026-01-19 12:12:56.42	12.94	11.72	-53.4	-55.6	6.2	0.00e+00	0	40	104	0	77	19499
2026-01-19 12:12:57.43	12.79	11.81	-53.4	-55.5	6.2	0.00e+00	0	41	104	0	77	19455
2026-01-19 12:12:58.44	12.65	11.91	-53.4	-55.5	6.2	0.00e+00	0	40	104	0	77	19468
2026-01-19 12:12:59.45	12.51	12.01	-53.4	-55.5	6.2	0.00e+00	0	40	104	0	77	19478
2026-01-19 12:13:00.46	12.36	12.11	-53.4	-55.6	6.2	0.00e+00	0	40	104	0	77	19531
2026-01-19 12:13:01.46	12.21	12.20	-53.4	-55.6	6.2	0.00e+00	0	40	104	0	77	19531
2026-01-19 12:13:02.47	12.06	12.30	-53.4	-55.6	6.2	0.00e+00	0	40	104	0	77	19541
2026-01-19 12:13:03.48	11.91	12.40	-53.4	-55.6	6.2	0.00e+00	0	40	104	0	77	19612
2026-01-19 12:13:04.49	11.76	12.50	-53.4	-55.6	6.2	0.00e+00	0	40	104	0	77	19513
2026-01-19 12:13:05.50	11.61	12.59	-53.4	-55.6	6.2	0.00e+00	0	40	104	0	77	19605
2026-01-19 12:13:06.51	11.46	12.69	-53.5	-55.6	6.2	0.00e+00	0	40	104	0	77	19598
2026-01-19 12:13:07.51	11.30	12.79	-53.5	-55.6	6.2	0.00e+00	0	40	104	0	77	19588
2026-01-19 12:13:08.52	11.15	12.89	-53.5	-55.6	6.2	0.00e+00	0	40	104	0	77	19586
2026-01-19 12:13:09.53	10.99	12.99	-53.5	-55.6	6.2	0.00e+00	0	40	104	0	77	19622
2026-01-19 12:13:10.54	10.83	13.09	-53.5	-55.6	6.2	0.00e+00	0	40	104	0	77	19621
2026-01-19 12:13:11.55	10.67	13.19	-53.5	-55.6	6.2	0.00e+00	0	40	104	0	77	19633
2026-01-19 12:13:12.56	10.51	13.29	-53.5	-55.6	6.2	0.00e+00	0	40	104	0	77	19608
2026-01-19 12:13:13.57	10.35	13.39	-53.5	-55.6	6.2	0.00e+00	0	40	104	0	77	19618
2026-01-19 12:13:14.58	10.18	13.50	-53.5	-55.6	6.2	0.00e+00	0	40	104	0	77	19683
2026-01-19 12:13:15.59	10.02	13.60	-53.5	-55.6	6.2	0.00e+00	0	40	104	0	77	19697
2026-01-19 12:13:16.59	9.85	13.70	-53.5	-55.6	6.2	0.00e+00	0	40	104	0	77	19694
2026-01-19 12:13:17.60	9.69	13.80	-53.5	-55.7	6.2	0.00e+00	0	40	104	0	77	19753
2026-01-19 12:13:18.61	9.52	13.91	-53.5	-55.6	6.2	0.00e+00	0	41	104	0	77	19702
2026-01-19 12:13:19.62	9.34	14.01	-53.5	-55.7	6.2	0.00e+00	0	40	104	0	77	19740
2026-01-19 12:13:20.62	9.17	14.11	-53.5	-55.7	6.2	0.00e+00	0	41	104	0	77	19713
2026-01-19 12:13:21.63	9.00	14.22	-53.5	-55.7	6.2	0.00e+00	0	40	104	0	77	19773
2026-01-19 12:13:22.63	8.83	14.32	-53.5	-55.7	6.2	0.00e+00	0	40	104	0	77	19838
2026-01-19 12:13:23.64	8.65	14.42	-53.5	-55.7	6.2	0.00e+00	0	40	104	0	77	19806
2026-01-19 12:13:24.65	8.47	14.53	-53.5	-55.7	6.2	0.00e+00	0	40	104	0	77	19735
2026-01-19 12:13:25.66	8.29	14.63	-53.5	-55.7	6.2	0.00e+00	0	40	104	0	77	19860
2026-01-19 12:13:26.66	8.11	14.74	-53.6	-55.7	6.2	0.00e+00	0	40	104	0	77	19755
2026-01-19 12:13:27.68	7.93	14.85	-53.6	-55.7	6.2	0.00e+00	0	41	104	0	77	19824
2026-01-19 12:13:28.69	7.74	14.95	-53.6	-55.7	6.2	0.00e+00	0	40	104	0	77	19868
2026-01-19 12:13:29.69	7.56	15.06	-53.5	-55.7	6.2	0.00e+00	0	40	104	0	77	19867
2026-01-19 12:13:30.70	7.37	15.16	-53.6	-55.7	6.2	0.00e+00	0	40	104	0	77	19847
2026-01-19 12:13:31.71	7.18	15.27	-53.6	-55.7	6.2	0.00e+00	0	40	104	0	77	19899
2026-01-19 12:13:32.71	6.99	15.38	-53.6	-55.7	6.2	0.00e+00	0	40	104	0	77	19909
2026-01-19 12:13:33.72	6.80	15.49	-53.6	-55.7	6.2	0.00e+00	0	40	104	0	77	19873
2026-01-19 12:13:34.73	6.61	15.59	-53.6	-55.7	6.2	0.00e+00	0	40	104	0	77	19888
2026-01-19 12:13:35.73	6.41	15.70	-53.6	-55.7	6.2	0.00e+00	0	40	104	0	77	19908
2026-01-19 12:13:36.74	6.22	15.81	-53.6	-55.8	6.2	0.00e+00	0	40	104	0	77	19942
2026-01-19 12:13:37.75	6.02	15.92	-53.6	-55.7	6.2	0.00e+00	0	40	104	0	77	19919
2026-01-19 12:13:38.76	5.82	16.03	-53.6	-55.8	6.2	0.00e+00	0	40	104	0	77	20014
2026-01-19 12:13:39.77	5.61	16.14	-53.6	-55.8	6.2	0.00e+00	0	40	104	0	77	19952
2026-01-19 12:13:40.77	5.41	16.25	-53.6	-55.7	6.2	0.00e+00	0	40	104	0	77	19915
2026-01-19 12:13:41.78	5.21	16.36	-53.6	-55.8	6.2	0.00e+00	0	40	104	0	77	19997
2026-01-19 12:13:42.79	5.00	16.47	-53.6	-55.8	6.2	0.00e+00	0	41	104	0	77	20009
2026-01-19 12:13:43.80	4.79	16.58	-53.6	-55.8	6.2	0.00e+00	0	40	104	0	77	20020
2026-01-19 12:13:44.81	4.58	16.69	-53.6	-55.8	6.2	0.00e+00	0	41	104	0	77	19977
2026-01-19 12:13:45.82	4.36	16.80	-53.6	-55.8	6.2	0.00e+00	0	40	104	0	77	20068
2026-01-19 12:13:46.83	4.15	16.91	-53.6	-55.8	6.2	0.00e+00	0	40	104	0	77	19971
2026-01-19 12:13:47.83	3.93	17.03	-53.6	-55.8	6.2	0.00e+00	0	40	104	0	77	20055
2026-01-19 12:13:48.84	3.72	17.14	-53.6	-55.8	6.2	0.00e+00	0	40	104	0	77	20049
2026-01-19 12:13:49.85	3.49	17.25	-53.6	-55.8	6.2	0.00e+00	0	40	104	0	77	20033
2026-01-19 12:13:50.86	3.27	17.36	-53.7	-55.8	6.2	0.00e+00	0	40	104	0	77	20029
2026-01-19 12:13:51.86	3.05	17.47	-53.7	-55.8	6.2	0.00e+00	0	40	104	0	77	20074
2026-01-19 12:13:52.87	2.82	17.59	-53.7	-55.8	6.2	0.00e+00	0	41	104	0	77	20066
2026-01-19 12:13:53.88	2.59	17.70	-53.6	-55.8	6.2	0.00e+00	0	41	104	0	77	20027
2026-01-19 12:13:54.89	2.36	17.82	-53.7	-55.8	6.2	0.00e+00	0	41	104	0	77	20046
2026-01-19 12:13:55.90	2.13	17.93	-53.7	-55.8	6.2	0.00e+00	0	40	104	0	77	20102
2026-01-19 12:13:56.90	1.90	18.04	-53.7	-55.8	6.2	0.00e+00	0	40	104	0	77	20052
2026-01-19 12:13:57.91	1.66	18.16	-53.6	-55.8	6.2	0.00e+00	0	40	104	0	77	20107
2026-01-19 12:13:58.92	1.42	18.27	-53.7	-55.8	6.2	0.00e+00	0	41	104	0	77	20083
2026-01-19 12:13:59.93	1.18	18.39	-53.7	-55.8	6.2	0.00e+00	0	40	104	0	77	20076
2026-01-19 12:14:00.94	0.94	18.50	-53.7	-55.8	6.2	0.00e+00	0	40	104	0	77	20137
2026-01-19 12:14:01.95	0.69	18.62	-53.6	-55.8	6.2	0.00e+00	0	40	104	0	77	20133
2026-01-19 12:14:02.95	0.45	18.73	-53.7	-55.8	6.2	0.00e+00	0	40	104	0	77	20137
2026-01-19 12:14:03.96	0.20	18.85	-53.7	-55.9	6.2	0.00e+00	0	40	104	0	77	20197
2026-01-19 12:14:04.97	359.95	18.96	-53.7	-55.8	6.2	0.00e+00	0	40	104	0	77	20067
2026-01-19 12:14:05.97	359.70	19.08	-53.6	-55.9	6.2	0.00e+00	0	41	104	0	77	20174
2026-01-19 12:14:06.98	359.44	19.19	-53.7	-55.9	6.2	0.00e+00	0	41	104	0	78	19142
2026-01-19 12:14:07.99	359.18	19.31	-53.7	-55.9	6.2	0.00e+00	0	40	104	0	78	19106
2026-01-19 12:14:08.99	358.92	19.42	-53.7	-55.9	6.2	0.00e+00	0	40	104	0	78	19056
2026-01-19 12:14:10.00	358.66	19.54	-53.7	-55.9	6.2	0.00e+00	0	41	104	0	78	19098
2026-01-19 12:14:11.01	358.40	19.66	-53.8	-55.9	6.2	0.00e+00	0	40	104	0	78	19094
2026-01-19 12:14:12.01	358.13	19.77	-53.8	-55.9	6.2	0.00e+00	0	41	104	0	78	19109
2026-01-19 12:14:13.02	357.86	19.89	-53.7	-55.9	6.2	0.00e+00	0	41	104	0	78	19213
2026-01-19 12:14:14.03	357.59	20.00	-53.7	-55.9	6.2	0.00e+00	0	40	104	0	78	19107
2026-01-19 12:14:15.04	357.32	20.12	-53.8	-55.9	6.2	0.00e+00	0	40	104	0	78	19086
2026-01-19 12:14:16.05	357.04	20.24	-53.8	-55.9	6.2	0.00e+00	0	41	104	0	78	19204
2026-01-19 12:14:17.05	356.76	20.35	-53.8	-55.9	6.2	0.00e+00	0	40	104	0	78	19133
2026-01-19 12:14:18.06	356.48	20.47	-53.7	-55.9	6.2	0.00e+00	0	40	104	0	78	19076
2026-01-19 12:14:19.07	356.20	20.59	-53.8	-55.9	6.2	0.00e+00	0	40	104	0	78	19192
2026-01-19 12:14:20.08	355.91	20.70	-53.8	-55.9	6.2	0.00e+00	0	40	104	0	78	19177
2026-01-19 12:14:21.08	355.62	20.82	-53.8	-55.9	6.2	0.00e+00	0	40	104	0	78	19163
2026-01-19 12:14:22.09	355.33	20.94	-53.6	-55.9	6.2	0.00e+00	0	40	104	0	78	19141
2026-01-19 12:14:23.10	355.04	21.05	-53.8	-55.9	6.2	0.00e+00	0	40	104	0	78	19255
2026-01-19 12:14:24.11	354.74	21.17	-53.8	-55.9	6.2	0.00e+00	0	40	104	0	78	19243
2026-01-19 12:14:25.12	354.44	21.29	-53.8	-55.9	6.2	0.00e+00	0	40	104	0	78	19253
2026-01-19 12:14:26.12	354.14	21.40	-53.7	-55.9	6.2	0.00e+00	0	40	104	0	78	19114
2026-01-19 12:14:27.13	353.84	21.52	-53.8	-56.0	6.2	0.00e+00	0	40	104	0	78	19311
2026-01-19 12:14:28.14	353.53	21.63	-53.8	-56.0	6.2	0.00e+00	0	41	104	0	78	19268
2026-01-19 12:14:29.15	353.22	21.75	-53.8	-56.0	6.2	0.00e+00	0	40	104	0	78	19306
2026-01-19 12:14:30.15	352.91	21.86	-53.7	-55.9	6.2	0.00e+00	0	40	104	0	78	19226
2026-01-19 12:14:31.17	352.60	21.98	-53.8	-56.0	6.2	0.00e+00	0	40	104	0	78	19280
2026-01-19 12:14:32.17	352.28	22.09	-53.8	-55.9	6.2	0.00e+00	0	40	104	0	78	19223
2026-01-19 12:14:33.18	351.96	22.21	-53.8	-56.0	6.2	0.00e+00	0	41	104	0	78	19281
2026-01-19 12:14:34.19	351.64	22.32	-53.7	-56.0	6.2	0.00e+00	0	41	104	0	78	19260
2026-01-19 12:14:35.20	351.31	22.44	-53.9	-56.0	6.2	0.00e+00	0	40	104	0	78	19332
2026-01-19 12:14:36.21	350.98	22.55	-53.8	-56.0	6.2	0.00e+00	0	40	104	0	78	19351
2026-01-19 12:14:37.21	350.66	22.67	-53.8	-56.0	6.2	0.00e+00	0	40	104	0	78	19404
2026-01-19 12:14:38.22	350.32	22.78	-53.7	-56.0	6.2	0.00e+00	0	40	104	0	78	19301
2026-01-19 12:14:39.23	349.99	22.89	-53.9	-56.0	6.2	0.00e+00	0	41	104	0	78	19380
2026-01-19 12:14:40.24	349.65	23.01	-53.8	-56.0	6.2	0.00e+00	0	41	104	0	78	19382
2026-01-19 12:14:41.24	349.31	23.12	-53.8	-56.0	6.2	0.00e+00	0	40	104	0	78	19378
2026-01-19 12:14:42.25	348.96	23.23	-53.7	-55.9	6.2	0.00e+00	0	40	104	0	78	19251
2026-01-19 12:14:43.26	348.62	23.34	-53.9	-56.0	6.2	0.00e+00	0	40	104	0	78	19380
2026-01-19 12:14:44.27	348.27	23.45	-53.8	-56.0	6.2	0.00e+00	0	41	104	0	78	19368
2026-01-19 12:14:45.28	347.91	23.56	-53.9	-56.0	6.2	0.00e+00	0	40	104	0	78	19420
2026-01-19 12:14:46.29	347.56	23.67	-53.7	-56.0	6.2	0.00e+00	0	41	104	0	78	19314
2026-01-19 12:14:47.29	347.20	23.78	-53.9	-56.0	6.2	0.00e+00	0	40	104	0	78	19426
2026-01-19 12:14:48.30	346.84	23.89	-53.8	-56.0	6.2	0.00e+00	0	40	104	0	78	19443
2026-01-19 12:14:49.31	346.48	24.00	-53.9	-56.0	6.2	0.00e+00	0	41	104	0	78	19460
2026-01-19 12:14:50.32	346.11	24.11	-53.8	-56.0	6.2	0.00e+00	0	40	104	0	78	19385
2026-01-19 12:14:51.32	345.74	24.21	-53.9	-56.0	6.2	0.00e+00	0	41	104	0	78	19429
2026-01-19 12:14:52.33	345.37	24.32	-53.9	-56.1	6.2	0.00e+00	0	40	104	0	78	19503
2026-01-19 12:14:53.34	345.00	24.43	-53.9	-56.0	6.2	0.00e+00	0	40	104	0	78	19474
2026-01-19 12:14:54.35	344.62	24.53	-53.8	-56.0	6.2	0.00e+00	0	41	104	0	78	19431
2026-01-19 12:14:55.36	344.24	24.64	-53.9	-56.1	6.2	0.00e+00	0	40	104	0	78	19514
2026-01-19 12:14:56.36	343.86	24.74	-53.9	-56.0	6.2	0.00e+00	0	40	104	0	78	19464
2026-01-19 12:14:57.37	343.47	24.84	-53.9	-56.1	6.2	0.00e+00	0	40	104	0	78	19483
2026-01-19 12:14:58.38	343.08	24.94	-53.9	-56.0	6.2	0.00e+00	0	40	104	0	78	19469
2026-01-19 12:14:59.39	342.69	25.05	-53.9	-56.0	6.2	0.00e+00	0	40	104	0	78	19475
2026-01-19 12:15:00.39	342.30	25.14	-53.9	-56.1	6.2	0.00e+00	0	40	104	0	78	19569
2026-01-19 12:15:01.40	341.90	25.24	-53.9	-56.1	6.2	0.00e+00	0	41	104	0	78	19491
2026-01-19 12:15:02.41	341.50	25.34	-53.9	-56.1	6.2	0.00e+00	0	40	104	0	78	19512
2026-01-19 12:15:03.42	341.09	25.44	-53.9	-56.1	6.2	0.00e+00	0	40	104	0	78	19527
2026-01-19 12:15:04.43	340.69	25.54	-53.9	-56.1	6.2	0.00e+00	0	41	104	0	78	19575
2026-01-19 12:15:05.43	340.28	25.63	-53.9	-56.1	6.2	0.00e+00	0	41	104	0	78	19544
2026-01-19 12:15:06.44	339.87	25.72	-53.9	-56.1	6.2	0.00e+00	0	40	104	0	78	19580
2026-01-19 12:15:07.45	339.46	25.82	-54.0	-56.1	6.2	0.00e+00	0	40	104	0	78	19574
2026-01-19 12:15:08.46	339.04	25.91	-53.9	-56.1	6.2	0.00e+00	0	40	104	0	78	19627
2026-01-19 12:15:09.46	338.63	26.00	-53.9	-56.1	6.2	0.00e+00	0	40	104	0	78	19638
2026-01-19 12:15:10.47	338.20	26.09	-54.0	-56.1	6.2	0.00e+00	0	41	104	0	78	19623
2026-01-19 12:15:11.48	337.78	26.18	-54.0	-56.1	6.2	0.00e+00	0	40	104	0	78	19652
2026-01-19 12:15:12.49	337.35	26.26	-54.0	-56.1	6.2	0.00e+00	0	40	104	0	78	19649
2026-01-19 12:15:13.50	336.92	26.35	-54.0	-56.1	6.2	0.00e+00	0	40	104	0	78	19616
2026-01-19 12:15:14.50	336.49	26.43	-54.0	-56.1	6.2	0.00e+00	0	41	104	0	78	19622
2026-01-19 12:15:15.51	336.06	26.52	-54.0	-56.1	6.2	0.00e+00	0	40	104	0	78	19631
2026-01-19 12:15:16.52	335.62	26.60	-54.0	-56.1	6.2	0.00e+00	0	40	104	0	78	19686
2026-01-19 12:15:17.53	335.18	26.68	-54.0	-56.1	6.2	0.00e+00	0	40	104	0	78	19697
2026-01-19 12:15:18.53	334.74	26.76	-54.0	-56.2	6.2	0.00e+00	0	40	104	0	78	19740
2026-01-19 12:15:19.54	334.30	26.83	-54.0	-56.2	6.2	0.00e+00	0	41	104	0	78	19721
2026-01-19 12:15:20.55	333.85	26.91	-54.0	-56.2	6.2	0.00e+00	0	40	104	0	78	19770
2026-01-19 12:15:21.56	333.40	26.98	-54.0	-56.2	6.2	0.00e+00	0	40	104	0	78	19759
2026-01-19 12:15:22.57	332.95	27.06	-54.0	-56.2	6.2	0.00e+00	0	40	104	0	78	19758
2026-01-19 12:15:23.57	332.50	27.13	-54.1	-56.2	6.2	0.00e+00	0	40	104	0	78	19799
2026-01-19 12:15:24.58	332.04	27.20	-54.0	-56.2	6.2	0.00e+00	0	40	104	0	78	19742
2026-01-19 12:15:25.59	331.58	27.27	-54.0	-56.2	6.2	0.00e+00	0	41	104	0	78	19845
2026-01-19 12:15:26.60	331.12	27.33	-54.1	-56.2	6.2	0.00e+00	0	40	104	0	78	19813
2026-01-19 12:15:27.60	330.67	27.40	-54.1	-56.2	6.2	0.00e+00	0	40	104	0	78	19832
2026-01-19 12:15:28.61	330.20	27.46	-54.0	-56.2	6.2	0.00e+00	0	40	104	0	78	19820
2026-01-19 12:15:29.62	329.73	27.52	-54.0	-56.2	6.2	0.00e+00	0	40	104	0	78	19840
2026-01-19 12:15:30.63	329.27	27.58	-54.1	-56.2	6.2	0.00e+00	0	40	104	0	78	19907
2026-01-19 12:15:31.64	328.79	27.63	-54.1	-56.2	6.2	0.00e+00	0	40	104	0	78	19887
2026-01-19 12:15:32.65	328.32	27.69	-54.1	-56.2	6.2	0.00e+00	0	40	104	0	78	19840
2026-01-19 12:15:33.66	327.85	27.74	-54.0	-56.2	6.2	0.00e+00	0	40	104	0	78	19831
2026-01-19 12:15:34.67	327.37	27.80	-54.1	-56.2	6.2	0.00e+00	0	40	104	0	78	19906
2026-01-19 12:15:35.67	326.90	27.84	-54.1	-56.3	6.2	0.00e+00	0	40	104	0	78	19972
2026-01-19 12:15:36.68	326.42	27.89	-54.1	-56.2	6.2	0.00e+00	0	40	104	0	78	19916
2026-01-19 12:15:37.69	325.94	27.94	-54.0	-56.2	6.2	0.00e+00	0	41	104	0	78	19822
2026-01-19 12:15:38.70	325.46	27.98	-54.1	-56.3	6.2	0.00e+00	0	40	104	0	78	19938
2026-01-19 12:15:39.70	324.98	28.02	-54.1	-56.2	6.2	0.00e+00	0	40	104	0	78	19925
2026-01-19 12:15:40.71	324.49	28.06	-54.1	-56.3	6.2	0.00e+00	0	40	104	0	78	19944
2026-01-19 12:15:41.72	324.01	28.10	-54.0	-56.2	6.2	0.00e+00	0	40	104	0	78	19836
2026-01-19 12:15:42.72	323.53	28.14	-54.1	-56.3	6.2	0.00e+00	0	40	104	0	78	19936
2026-01-19 12:15:43.73	323.04	28.17	-54.1	-56.3	6.2	0.00e+00	0	40	104	0	78	19955
2026-01-19 12:15:44.74	322.55	28.20	-54.1	-56.2	6.2	0.00e+00	0	40	104	0	78	19904
2026-01-19 12:15:45.75	322.06	28.23	-54.0	-56.2	6.2	0.00e+00	0	40	104	0	78	19918
2026-01-19 12:15:46.75	321.57	28.26	-54.1	-56.3	6.2	0.00e+00	0	40	104	0	78	19981
2026-01-19 12:15:47.76	321.08	28.28	-54.1	-56.3	6.2	0.00e+00	0	40	104	0	78	20006
2026-01-19 12:15:48.77	320.59	28.30	-54.1	-56.3	6.2	0.00e+00	0	40	104	0	78	19971
2026-01-19 12:15:49.78	320.09	28.32	-54.1	-56.3	6.2	0.00e+00	0	40	104	0	78	19968
2026-01-19 12:15:50.79	319.60	28.34	-54.1	-56.3	6.2	0.00e+00	0	40	104	0	78	20029
2026-01-19 12:15:51.79	319.11	28.36	-54.1	-56.3	6.2	0.00e+00	0	40	104	0	78	20085
2026-01-19 12:15:52.80	318.61	28.37	-54.1	-56.3	6.2	0.00e+00	0	40	104	0	78	19994
2026-01-19 12:15:53.81	318.11	28.38	-54.1	-56.3	6.2	0.00e+00	0	40	104	0	78	19975
2026-01-19 12:15:54.82	317.62	28.39	-54.2	-56.3	6.2	0.00e+00	0	40	104	0	78	20109
2026-01-19 12:15:55.83	317.12	28.40	-54.2	-56.3	6.2	0.00e+00	0	40	104	0	78	20092
2026-01-19 12:15:56.83	316.63	28.41	-54.2	-56.3	6.2	0.00e+00	0	40	104	0	78	20035
2026-01-19 12:15:57.84	316.13	28.41	-54.1	-56.3	6.2	0.00e+00	0	41	104	0	78	20020
2026-01-19 12:15:58.85	315.63	28.41	-54.2	-56.3	6.2	0.00e+00	0	40	104	0	78	20007
2026-01-19 12:15:59.86	315.14	28.41	-54.2	-56.3	6.2	0.00e+00	0	40	104	0	78	20120
2026-01-19 12:16:00.87	314.64	28.40	-54.2	-56.3	6.2	0.00e+00	0	40	104	0	78	20094
2026-01-19 12:16:01.87	314.15	28.40	-54.1	-56.3	6.2	0.00e+00	0	40	104	0	78	20019
2026-01-19 12:16:02.88	313.65	28.39	-54.2	-56.3	6.2	0.00e+00	0	41	104	0	78	20039
2026-01-19 12:16:03.89	313.15	28.38	-54.2	-56.3	6.2	0.00e+00	0	40	104	0	78	20082
2026-01-19 12:16:04.90	312.66	28.37	-54.2	-56.3	6.2	0.00e+00	0	40	104	0	78	20018
2026-01-19 12:16:05.91	312.16	28.35	-54.1	-56.3	6.2	0.00e+00	0	41	104	0	78	20004
2026-01-19 12:16:06.91	311.67	28.33	-54.2	-56.3	6.2	0.00e+00	0	40	104	0	78	20126
2026-01-19 12:16:07.92	311.18	28.31	-54.2	-56.3	6.2	0.00e+00	0	40	104	0	78	20085
2026-01-19 12:16:08.93	310.68	28.29	-54.2	-56.3	6.2	0.00e+00	0	40	104	0	78	20025
2026-01-19 12:16:09.94	310.19	28.27	-54.2	-56.3	6.2	0.00e+00	0	40	104	0	78	20124
2026-01-19 12:16:10.95	309.70	28.24	-54.2	-56.3	6.2	0.00e+00	0	40	104	0	78	20044
2026-01-19 12:16:11.95	309.21	28.21	-54.2	-56.3	6.2	0.00e+00	0	41	104	0	78	20123
2026-01-19 12:16:12.96	308.72	28.18	-54.2	-56.3	6.2	0.00e+00	0	40	104	0	78	20117
2026-01-19 12:16:13.97	308.23	28.15	-54.2	-56.3	6.2	0.00e+00	0	40	104	0	78	20138
2026-01-19 12:16:14.98	307.74	28.12	-54.2	-56.3	6.2	0.00e+00	0	40	104	0	78	20098
2026-01-19 12:16:15.99	307.26	28.08	-54.2	-56.4	6.2	0.00e+00	0	40	104	0	78	20190
2026-01-19 12:16:16.99	306.77	28.04	-54.2	-56.3	6.2	0.00e+00	0	40	104	0	78	20128
2026-01-19 12:16:18.00	306.29	28.00	-54.2	-56.3	6.2	0.00e+00	0	40	104	0	78	20147
2026-01-19 12:16:19.01	305.81	27.96	-54.2	-56.4	6.2	0.00e+00	0	40	104	0	78	20170
2026-01-19 12:16:20.01	305.33	27.92	-54.2	-56.4	6.2	0.00e+00	0	40	104	0	79	19068
2026-01-19 12:16:21.02	304.85	27.87	-54.2	-56.4	6.2	0.00e+00	0	40	104	0	79	19051
2026-01-19 12:16:22.03	304.37	27.82	-54.2	-56.4	6.2	0.00e+00	0	40	104	0	79	19091
2026-01-19 12:16:23.04	303.89	27.77	-54.2	-56.4	6.2	0.00e+00	0	40	104	0	79	19111
2026-01-19 12:16:24.05	303.42	27.72	-54.2	-56.4	6.2	0.00e+00	0	41	104	0	79	19090
2026-01-19 12:16:25.05	302.95	27.66	-54.2	-56.4	6.2	0.00e+00	0	40	104	0	79	19095
2026-01-19 12:16:26.06	302.47	27.61	-54.2	-56.3	6.2	0.00e+00	0	40	104	0	79	19032
2026-01-19 12:16:27.07	302.00	27.55	-54.2	-56.3	6.2	0.00e+00	0	41	104	0	79	19027
2026-01-19 12:16:28.08	301.54	27.49	-54.3	-56.4	6.2	0.00e+00	0	40	104	0	79	19116
2026-01-19 12:16:29.09	301.07	27.43	-54.2	-56.4	6.2	0.00e+00	0	41	104	0	79	19107
2026-01-19 12:16:30.10	300.60	27.36	-54.2	-56.4	6.2	0.00e+00	0	40	104	0	79	19144
2026-01-19 12:16:31.10	300.15	27.30	-54.2	-56.4	6.2	0.00e+00	0	40	104	0	79	19069
2026-01-19 12:16:32.11	299.69	27.23	-54.2	-56.4	6.2	0.00e+00	0	41	104	0	79	19059
2026-01-19 12:16:33.12	299.23	27.16	-54.2	-56.4	6.2	0.00e+00	0	40	104	0	79	19105
2026-01-19 12:16:34.13	298.77	27.09	-54.2	-56.4	6.2	0.00e+00	0	40	104	0	79	19122
2026-01-19 12:16:35.14	298.32	27.02	-54.2	-56.4	6.2	0.00e+00	0	40	104	0	79	19132
2026-01-19 12:16:36.15	297.87	26.95	-54.2	-56.4	6.2	0.00e+00	0	40	104	0	79	19129
2026-01-19 12:16:37.16	297.42	26.87	-54.2	-56.4	6.2	0.00e+00	0	41	104	0	79	19057
2026-01-19 12:16:38.16	296.97	26.79	-54.2	-56.4	6.2	0.00e+00	0	40	104	0	79	19066
2026-01-19 12:16:39.17	296.53	26.72	-54.2	-56.4	6.2	0.00e+00	0	40	104	0	79	19107
2026-01-19 12:16:40.18	296.09	26.64	-54.2	-56.4	6.2	0.00e+00	0	40	104	0	79	19054
2026-01-19 12:16:41.18	295.65	26.56	-54.2	-56.4	6.2	0.00e+00	0	40	104	0	79	19086
2026-01-19 12:16:42.19	295.21	26.47	-54.2	-56.4	6.2	0.00e+00	0	40	104	0	79	19078
2026-01-19 12:16:43.20	294.78	26.39	-54.2	-56.4	6.2	0.00e+00	0	40	104	0	79	19089
2026-01-19 12:16:44.21	294.35	26.30	-54.2	-56.4	6.2	0.00e+00	0	40	104	0	79	19064
2026-01-19 12:16:45.22	293.92	26.22	-54.2	-56.4	6.2	0.00e+00	0	40	104	0	79	19092
2026-01-19 12:16:46.23	293.49	26.13	-54.2	-56.4	6.2	0.00e+00	0	41	104	0	79	19102
2026-01-19 12:16:47.23	293.07	26.04	-54.2	-56.4	6.2	0.00e+00	0	40	104	0	79	19046
2026-01-19 12:16:48.24	292.65	25.95	-54.2	-56.3	6.2	0.00e+00	0	41	104	0	79	18944
2026-01-19 12:16:49.25	292.23	25.86	-54.2	-56.4	6.2	0.00e+00	0	41	104	0	79	19036
2026-01-19 12:16:50.26	291.81	25.76	-54.2	-56.4	6.2	0.00e+00	0	40	104	0	79	19074
2026-01-19 12:16:51.26	291.40	25.67	-54.2	-56.4	6.2	0.00e+00	0	40	104	0	79	19048
2026-01-19 12:16:52.27	290.99	25.58	-54.2	-56.3	6.2	0.00e+00	0	40	104	0	79	19029
2026-01-19 12:16:53.28	290.58	25.48	-54.2	-56.4	6.2	0.00e+00	0	40	104	0	79	19104
2026-01-19 12:16:54.29	290.17	25.38	-54.2	-56.3	6.2	0.00e+00	0	41	104	0	79	18999
2026-01-19 12:16:55.30	289.77	25.28	-54.2	-56.3	6.2	0.00e+00	0	40	104	0	79	18945
2026-01-19 12:16:56.31	289.37	25.19	-54.1	-56.3	6.2	0.00e+00	0	40	104	0	79	18966
2026-01-19 12:16:57.32	288.97	25.09	-54.2	-56.4	6.2	0.00e+00	0	40	104	0	79	19053
2026-01-19 12:16:58.33	288.58	24.98	-54.2	-56.3	6.2	0.00e+00	0	40	104	0	79	19014
2026-01-19 12:16:59.33	288.19	24.88	-54.2	-56.3	6.2	0.00e+00	0	41	104	0	79	18982
2026-01-19 12:17:00.34	287.80	24.78	-54.1	-56.3	6.2	0.00e+00	0	41	104	0	79	18969
2026-01-19 12:17:01.35	287.41	24.68	-54.2	-56.3	6.2	0.00e+00	0	40	104	0	79	19017
2026-01-19 12:17:02.36	287.03	24.57	-54.1	-56.3	6.2	0.00e+00	0	40	104	0	79	18945
2026-01-19 12:17:03.37	286.65	24.47	-54.2	-56.3	6.2	0.00e+00	0	40	104	0	79	18933
2026-01-19 12:17:04.37	286.27	24.36	-54.1	-56.3	6.2	0.00e+00	0	41	104	0	79	18937
2026-01-19 12:17:05.38	285.90	24.26	-54.2	-56.3	6.2	0.00e+00	0	41	104	0	79	18950
2026-01-19 12:17:06.39	285.52	24.15	-54.1	-56.3	6.2	0.00e+00	0	40	104	0	79	18932
2026-01-19 12:17:07.39	285.16	24.04	-54.1	-56.3	6.2	0.00e+00	0	40	104	0	79	18892
2026-01-19 12:17:08.40	284.79	23.93	-54.1	-56.3	6.2	0.00e+00	0	40	104	0	79	18893
2026-01-19 12:17:09.41	284.43	23.82	-54.1	-56.3	6.2	0.00e+00	0	41	104	0	79	18913
2026-01-19 12:17:10.42	284.07	23.71	-54.1	-56.3	6.2	0.00e+00	0	40	104	0	79	18942
2026-01-19 12:17:11.43	283.71	23.60	-54.1	-56.3	6.2	0.00e+00	0	40	104	0	79	18860
2026-01-19 12:17:12.43	283.36	23.49	-54.1	-56.3	6.2	0.00e+00	0	40	104	0	79	18882
2026-01-19 12:17:13.44	283.00	23.38	-54.1	-56.3	6.2	0.00e+00	0	40	104	0	79	18895
2026-01-19 12:17:14.45	282.65	23.27	-54.1	-56.3	6.2	0.00e+00	0	41	104	0	79	18856
2026-01-19 12:17:15.46	282.30	23.16	-54.1	-56.2	6.2	0.00e+00	0	40	104	0	79	18773
2026-01-19 12:17:16.47	281.96	23.04	-54.1	-56.2	6.2	0.00e+00	0	40	104	0	79	18805
2026-01-19 12:17:17.47	281.62	22.93	-54.1	-56.3	6.2	0.00e+00	0	40	104	0	79	18854
2026-01-19 12:17:18.48	281.28	22.82	-54.1	-56.2	6.2	0.00e+00	0	40	104	0	79	18765
2026-01-19 12:17:19.49	280.95	22.70	-54.1	-56.2	6.2	0.00e+00	0	40	104	0	79	18787
2026-01-19 12:17:20.50	280.61	22.59	-54.1	-56.2	6.2	0.00e+00	0	41	104	0	79	18741
2026-01-19 12:17:21.51	280.28	22.47	-54.1	-56.3	6.2	0.00e+00	0	40	104	0	79	18843
2026-01-19 12:17:22.51	279.96	22.36	-54.1	-56.2	6.2	0.00e+00	0	41	104	0	79	18774
2026-01-19 12:17:23.52	279.63	22.24	-54.1	-56.2	6.2	0.00e+00	0	40	104	0	79	18757
2026-01-19 12:17:24.53	279.31	22.13	-54.1	-56.2	6.2	0.00e+00	0	40	104	0	79	18722
2026-01-19 12:17:25.54	278.99	22.01	-54.1	-56.2	6.2	0.00e+00	0	40	104	0	79	18751
2026-01-19 12:17:26.55	278.67	21.90	-54.0	-56.2	6.2	0.00e+00	0	40	104	0	79	18794
2026-01-19 12:17:27.55	278.36	21.78	-54.0	-56.2	6.2	0.00e+00	0	40	104	0	79	18604
2026-01-19 12:17:28.56	278.05	21.67	-54.1	-56.2	6.2	0.00e+00	0	40	104	0	79	18753
2026-01-19 12:17:29.57	277.74	21.55	-54.1	-56.2	6.2	0.00e+00	0	40	104	0	79	18716
2026-01-19 12:17:30.58	277.43	21.43	-54.0	-56.2	6.2	0.00e+00	0	41	104	0	79	18655
2026-01-19 12:17:31.58	277.13	21.32	-54.0	-56.2	6.2	0.00e+00	0	41	104	0	79	18640
2026-01-19 12:17:32.59	276.83	21.20	-54.0	-56.2	6.2	0.00e+00	0	40	104	0	79	18643
2026-01-19 12:17:33.60	276.53	21.08	-54.0	-56.2	6.2	0.00e+00	0	40	104	0	79	18661
2026-01-19 12:17:34.61	276.23	20.97	-54.0	-56.1	6.2	0.00e+00	0	40	104	0	79	18577
2026-01-19 12:17:35.62	275.94	20.85	-54.0	-56.2	6.2	0.00e+00	0	40	104	0	79	18633
2026-01-19 12:17:36.62	275.65	20.73	-54.0	-56.2	6.2	0.00e+00	0	41	104	0	79	18648
2026-01-19 12:17:37.63	275.36	20.61	-54.0	-56.2	6.2	0.00e+00	0	40	104	0	79	18628
2026-01-19 12:17:38.64	275.07	20.50	-54.0	-56.2	6.2	0.00e+00	0	40	104	0	79	18603
2026-01-19 12:17:39.65	274.79	20.38	-53.9	-56.1	6.2	0.00e+00	0	40	104	0	79	18542
2026-01-19 12:17:40.65	274.51	20.26	-54.0	-56.2	6.2	0.00e+00	0	40	104	0	79	18650
2026-01-19 12:17:41.66	274.23	20.15	-54.0	-56.1	6.2	0.00e+00	0	40	104	0	79	18599
2026-01-19 12:17:42.67	273.95	20.03	-54.0	-56.1	6.2	0.00e+00	0	41	104	0	79	18593
2026-01-19 12:17:43.67	273.68	19.91	-53.9	-56.1	6.2	0.00e+00	0	40	104	0	79	18469
2026-01-19 12:17:44.68	273.41	19.80	-54.0	-56.1	6.2	0.00e+00	0	40	104	0	79	18561
2026-01-19 12:17:45.69	273.14	19.68	-54.0	-56.1	6.2	0.00e+00	0	40	104	0	79	18571
2026-01-19 12:17:46.70	272.87	19.56	-53.9	-56.1	6.2	0.00e+00	0	40	104	0	79	18496
2026-01-19 12:17:47.71	272.61	19.44	-53.9	-56.1	6.2	0.00e+00	0	41	104	0	79	18470
2026-01-19 12:17:48.72	272.34	19.33	-54.0	-56.1	6.2	0.00e+00	0	40	104	0	79	18509
2026-01-19 12:17:49.73	272.08	19.21	-54.0	-56.1	6.2	0.00e+00	0	41	104	0	79	18539
2026-01-19 12:17:50.73	271.83	19.10	-54.0	-56.1	6.2	0.00e+00	0	40	104	0	79	18461
2026-01-19 12:17:51.74	271.57	18.98	-53.9	-56.0	6.2	0.00e+00	0	40	104	0	79	18359
2026-01-19 12:17:52.74	271.32	18.86	-54.0	-56.1	6.2	0.00e+00	0	41	104	0	79	18482
2026-01-19 12:17:53.76	271.07	18.75	-54.0	-56.1	6.2	0.00e+00	0	40	104	0	79	18544
2026-01-19 12:17:54.77	270.82	18.63	-53.9	-56.1	6.2	0.00e+00	0	40	104	0	79	18479
2026-01-19 12:17:55.77	270.57	18.52	-53.9	-56.1	6.2	0.00e+00	0	40	104	0	79	18467
2026-01-19 12:17:56.78	270.33	18.40	-53.9	-56.1	6.2	0.00e+00	0	40	104	0	79	18439
2026-01-19 12:17:57.79	270.08	18.28	-54.0	-56.1	6.2	0.00e+00	0	41	104	0	79	18499
2026-01-19 12:17:58.79	269.85	18.17	-53.9	-56.1	6.2	0.00e+00	0	40	104	0	79	18470
2026-01-19 12:17:59.80	269.61	18.06	-53.9	-56.1	6.2	0.00e+00	0	41	104	0	79	18407
2026-01-19 12:18:00.81	269.37	17.94	-53.9	-56.1	6.2	0.00e+00	0	40	104	0	79	18393
2026-01-19 12:18:01.82	269.13	17.83	-53.9	-56.1	6.2	0.00e+00	0	40	104	0	79	18501
2026-01-19 12:18:02.83	268.90	17.71	-53.9	-56.1	6.2	0.00e+00	0	41	104	0	79	18405
2026-01-19 12:18:03.83	268.67	17.60	-53.9	-56.0	6.2	0.00e+00	0	40	104	0	79	18353
2026-01-19 12:18:04.84	268.45	17.48	-53.9	-56.1	6.2	0.00e+00	0	41	104	0	79	18411
2026-01-19 12:18:05.85	268.22	17.37	-53.9	-56.1	6.2	0.00e+00	0	41	104	0	79	18408
2026-01-19 12:18:06.86	267.99	17.26	-53.9	-56.0	6.2	0.00e+00	0	40	104	0	79	18389
2026-01-19 12:18:07.87	267.77	17.14	-53.8	-56.0	6.2	0.00e+00	0	40	104	0	79	18300
2026-01-19 12:18:08.88	267.55	17.03	-53.9	-56.0	6.2	0.00e+00	0	40	104	0	79	18337
2026-01-19 12:18:09.89	267.33	16.92	-53.9	-56.0	6.2	0.00e+00	0	40	104	0	79	18382
2026-01-19 12:18:10.89	267.12	16.81	-53.9	-56.0	6.2	0.00e+00	0	40	104	0	79	18336
2026-01-19 12:18:11.90	266.90	16.69	-53.8	-56.0	6.2	0.00e+00	0	40	104	0	79	18234
2026-01-19 12:18:12.91	266.69	16.58	-53.9	-56.0	6.2	0.00e+00	0	41	104	0	79	18311
2026-01-19 12:18:13.91	266.48	16.47	-53.9	-56.0	6.2	0.00e+00	0	41	104	0	79	18345
2026-01-19 12:18:14.92	266.27	16.36	-53.9	-56.0	6.2	0.00e+00	0	40	104	0	79	18314
2026-01-19 12:18:15.93	266.06	16.25	-53.8	-56.0	6.2	0.00e+00	0	41	104	0	79	18219
2026-01-19 12:18:16.94	265.85	16.14	-53.9	-56.0	6.2	0.00e+00	0	40	104	0	79	18262
2026-01-19 12:18:17.95	265.65	16.03	-53.9	-56.0	6.2	0.00e+00	0	41	104	0	79	18338
2026-01-19 12:18:18.95	265.45	15.92	-53.8	-56.0	6.2	0.00e+00	0	41	104	0	79	18252
2026-01-19 12:18:19.96	265.25	15.81	-53.8	-55.9	6.2	0.00e+00	0	40	104	0	79	18165
2026-01-19 12:18:20.97	265.05	15.70	-53.8	-56.0	6.2	0.00e+00	0	40	104	0	79	18252
2026-01-19 12:18:21.98	264.85	15.59	-53.8	-56.0	6.2	0.00e+00	0	40	104	0	79	18248
2026-01-19 12:18:22.99	264.66	15.48	-53.8	-55.9	6.2	0.00e+00	0	41	104	0	79	18150
2026-01-19 12:18:23.99	264.46	15.37	-53.7	-55.9	6.2	0.00e+00	0	41	104	0	79	18113
2026-01-19 12:18:25.00	264.27	15.27	-53.8	-55.9	6.2	0.00e+00	0	40	104	0	79	18163
2026-01-19 12:18:26.01	264.08	15.16	-53.8	-55.9	6.2	0.00e+00	0	40	104	0	79	18178
2026-01-19 12:18:27.02	263.89	15.05	-53.8	-55.9	6.2	0.00e+00	0	41	104	0	79	18139
2026-01-19 12:18:28.02	263.71	14.94	-53.7	-55.9	6.2	0.00e+00	0	40	104	0	79	18116
2026-01-19 12:18:29.03	263.52	14.84	-53.8	-55.9	6.2	0.00e+00	0	40	104	0	79	18159
2026-01-19 12:18:30.04	263.34	14.73	-53.8	-55.9	6.2	0.00e+00	0	40	104	0	79	18120
2026-01-19 12:18:31.05	263.15	14.62	-53.8	-55.8	6.2	0.00e+00	0	41	104	0	79	17967
2026-01-19 12:18:32.06	262.97	14.52	-53.7	-55.9	6.2	0.00e+00	0	40	104	0	79	17999
2026-01-19 12:18:33.06	262.79	14.41	-53.8	-55.9	6.2	0.00e+00	0	40	104	0	79	18051
2026-01-19 12:18:34.07	262.61	14.31	-53.8	-55.9	6.2	0.00e+00	0	40	104	0	79	18125
2026-01-19 12:18:35.08	262.44	14.20	-53.7	-55.9	6.2	0.00e+00	0	40	104	0	79	18031
2026-01-19 12:18:36.09	262.26	14.10	-53.7	-55.9	6.2	0.00e+00	0	40	104	0	79	17976
2026-01-19 12:18:37.10	262.09	13.99	-53.7	-55.9	6.2	0.00e+00	0	40	104	0	79	18092
2026-01-19 12:18:38.10	261.92	13.89	-53.7	-55.9	6.2	0.00e+00	0	41	104	0	79	18013
2026-01-19 12:18:39.11	261.75	13.79	-53.7	-55.8	6.2	0.00e+00	0	40	104	0	79	17968
2026-01-19 12:18:40.12	261.58	13.68	-53.6	-55.8	6.2	0.00e+00	0	40	104	0	79	17971
2026-01-19 12:18:41.13	261.41	13.58	-53.7	-55.9	6.2	0.00e+00	0	40	104	0	79	17986
2026-01-19 12:18:42.14	261.24	13.48	-53.7	-55.9	6.2	0.00e+00	0	40	104	0	79	18050
2026-01-19 12:18:43.14	261.08	13.38	-53.7	-55.9	6.2	0.00e+00	0	40	104	0	79	17972
2026-01-19 12:18:44.15	260.91	13.27	-53.6	-55.8	6.2	0.00e+00	0	40	104	0	79	17890
2026-01-19 12:18:45.16	260.75	13.17	-53.7	-55.9	6.2	0.00e+00	0	40	104	0	79	17993
2026-01-19 12:18:46.17	260.59	13.07	-53.7	-55.9	6.2	0.00e+00	0	40	104	0	79	18007
2026-01-19 12:18:47.18	260.43	12.97	-53.6	-55.8	6.2	0.00e+00	0	41	104	0	79	17835
2026-01-19 12:18:48.19	260.27	12.87	-53.6	-55.8	6.2	0.00e+00	0	40	104	0	79	17867
2026-01-19 12:18:49.19	260.11	12.77	-53.7	-55.8	6.2	0.00e+00	0	40	104	0	79	17937
2026-01-19 12:18:50.20	259.96	12.67	-53.7	-55.8	6.2	0.00e+00	0	40	104	0	79	17939
2026-01-19 12:18:51.21	259.80	12.57	-53.6	-55.8	6.2	0.00e+00	0	40	104	0	79	17802
2026-01-19 12:18:52.21	259.65	12.47	-53.6	-55.8	6.2	0.00e+00	0	40	104	0	79	17796
2026-01-19 12:18:53.22	259.50	12.37	-53.7	-55.8	6.2	0.00e+00	0	40	104	0	79	17881
2026-01-19 12:18:54.23	259.35	12.27	-53.6	-55.8	6.2	0.00e+00	0	40	104	0	79	17866
2026-01-19 12:18:55.24	259.20	12.18	-53.6	-55.8	6.2	0.00e+00	0	40	104	0	79	17807
2026-01-19 12:18:56.25	259.05	12.08	-53.6	-55.7	6.2	0.00e+00	0	40	104	0	79	17716
2026-01-19 12:18:57.25	258.90	11.98	-53.6	-55.8	6.2	0.00e+00	0	40	104	0	79	17833
2026-01-19 12:18:58.26	258.76	11.88	-53.6	-55.8	6.2	0.00e+00	0	40	104	0	79	17768
2026-01-19 12:18:59.27	258.61	11.79	-53.6	-55.8	6.2	0.00e+00	0	40	104	0	79	17799
2026-01-19 12:19:00.28	258.47	11.69	-53.5	-55.7	6.2	0.00e+00	0	40	104	0	79	17760
2026-01-19 12:19:01.28	258.32	11.60	-53.6	-55.8	6.2	0.00e+00	0	40	104	0	79	17800
2026-01-19 12:19:02.29	258.18	11.50	-53.6	-55.7	6.2	0.00e+00	0	40	104	0	79	17755
2026-01-19 12:19:03.30	258.04	11.40	-53.6	-55.7	6.2	0.00e+00	0	40	104	0	79	17727
2026-01-19 12:19:04.31	257.90	11.31	-53.5	-55.7	6.2	0.00e+00	0	40	104	0	79	17678
2026-01-19 12:19:05.32	257.76	11.21	-53.6	-55.7	6.2	0.00e+00	0	40	104	0	79	17756
2026-01-19 12:19:06.33	257.63	11.12	-53.6	-55.7	6.2	0.00e+00	0	40	104	0	79	17671
2026-01-19 12:19:07.33	257.49	11.03	-53.5	-55.7	6.2	0.00e+00	0	40	104	0	79	17590
2026-01-19 12:19:08.34	257.35	10.93	-53.5	-55.7	6.2	0.00e+00	0	40	104	0	79	17604
2026-01-19 12:19:09.35	257.22	10.84	-53.6	-55.7	6.2	0.00e+00	0	40	104	0	79	17682
2026-01-19 12:19:10.36	257.09	10.74	-53.5	-55.7	6.2	0.00e+00	0	40	104	0	79	17622
2026-01-19 12:19:11.37	256.95	10.65	-53.5	-55.7	6.2	0.00e+00	0	40	104	0	79	17575
2026-01-19 12:19:12.37	256.82	10.56	-53.5	-55.7	6.2	0.00e+00	0	40	104	0	78	18611
2026-01-19 12:19:13.38	256.69	10.47	-53.5	-55.7	6.2	0.00e+00	0	40	104	0	78	18669
2026-01-19 12:19:14.38	256.57	10.38	-53.5	-55.6	6.2	0.00e+00	0	40	104	0	78	18588
2026-01-19 12:19:15.39	256.44	10.28	-53.5	-55.6	6.2	0.00e+00	0	40	104	0	78	18502
2026-01-19 12:19:16.40	256.31	10.19	-53.4	-55.6	6.2	0.00e+00	0	40	104	0	78	18510
2026-01-19 12:19:17.41	256.18	10.10	-53.5	-55.7	6.2	0.00e+00	0	40	104	0	78	18612
2026-01-19 12:19:18.42	256.06	10.01	-53.5	-55.6	6.2	0.00e+00	0	40	104	0	78	18533
2026-01-19 12:19:19.43	255.93	9.92	-53.4	-55.6	6.2	0.00e+00	0	40	104	0	78	18514
2026-01-19 12:19:20.43	255.81	9.83	-53.4	-55.6	6.2	0.00e+00	0	40	104	0	78	18506
2026-01-19 12:19:21.44	255.69	9.74	-53.5	-55.6	6.2	0.00e+00	0	40	104	0	78	18601
2026-01-19 12:19:22.45	255.57	9.65	-53.4	-55.6	6.2	0.00e+00	0	40	104	0	78	18539
2026-01-19 12:19:23.46	255.45	9.56	-53.4	-55.6	6.2	0.00e+00	0	40	104	0	78	18408
2026-01-19 12:19:24.47	255.33	9.47	-53.4	-55.6	6.2	0.00e+00	0	40	104	0	78	18481
2026-01-19 12:19:25.48	255.21	9.39	-53.5	-55.6	6.2	0.00e+00	0	40	104	0	78	18524
2026-01-19 12:19:26.48	255.09	9.30	-53.4	-55.6	6.2	0.00e+00	0	40	104	0	78	18394
2026-01-19 12:19:27.49	254.98	9.21	-53.3	-55.5	6.2	0.00e+00	0	40	104	0	78	18356
2026-01-19 12:19:28.50	254.86	9.12	-53.4	-55.5	6.2	0.00e+00	0	40	104	0	78	18332
2026-01-19 12:19:29.51	254.74	9.03	-53.4	-55.6	6.2	0.00e+00	0	40	104	0	78	18470
2026-01-19 12:19:30.52	254.63	8.95	-53.3	-55.5	6.2	0.00e+00	0	40	104	0	78	18346
2026-01-19 12:19:31.53	254.51	8.86	-53.3	-55.5	6.2	0.00e+00	0	40	104	0	78	18219
2026-01-19 12:19:32.53	254.40	8.77	-53.3	-55.5	6.2	0.00e+00	0	40	104	0	78	18278
2026-01-19 12:19:33.54	254.29	8.69	-53.4	-55.5	6.2	0.00e+00	0	40	104	0	78	18358
2026-01-19 12:19:34.55	254.18	8.60	-53.3	-55.5	6.2	0.00e+00	0	40	104	0	78	18258
2026-01-19 12:19:35.56	254.07	8.52	-53.3	-55.4	6.2	0.00e+00	0	40	104	0	78	18147
2026-01-19 12:19:36.56	253.96	8.43	-53.3	-55.5	6.2	0.00e+00	0	40	104	0	78	18255
2026-01-19 12:19:37.57	253.85	8.35	-53.4	-55.5	6.2	0.00e+00	0	40	104	0	78	18343
2026-01-19 12:19:38.58	253.74	8.26	-53.2	-55.4	6.2	0.00e+00	0	40	104	0	78	18102
2026-01-19 12:19:39.59	253.64	8.18	-53.2	-55.4	6.2	0.00e+00	0	40	104	0	78	18100
2026-01-19 12:19:40.60	253.53	8.09	-53.3	-55.4	6.2	0.00e+00	0	40	104	0	78	18173
2026-01-19 12:19:41.61	253.42	8.01	-53.3	-55.5	6.2	0.00e+00	0	40	104	0	78	18296
2026-01-19 12:19:42.61	253.32	7.93	-53.2	-55.4	6.2	0.00e+00	0	40	104	0	78	18056
2026-01-19 12:19:43.62	253.22	7.84	-53.2	-55.4	6.2	0.00e+00	0	40	104	0	78	18010
2026-01-19 12:19:44.63	253.11	7.76	-53.3	-55.4	6.2	0.00e+00	0	40	104	0	78	18120
2026-01-19 12:19:45.64	253.01	7.68	-53.3	-55.4	6.2	0.00e+00	0	40	104	0	78	18164
2026-01-19 12:19:46.65	252.91	7.59	-53.2	-55.3	6.2	0.00e+00	0	40	104	0	78	17962
2026-01-19 12:19:47.65	252.81	7.51	-53.1	-55.3	6.2	0.00e+00	0	40	104	0	78	17912
2026-01-19 12:19:48.66	252.71	7.43	-53.2	-55.4	6.2	0.00e+00	0	40	104	0	78	18040
2026-01-19 12:19:49.67	252.61	7.35	-53.3	-55.4	6.2	0.00e+00	0	40	104	0	78	18139
2026-01-19 12:19:50.68	252.51	7.27	-53.1	-55.3	6.2	0.00e+00	0	40	104	0	78	17925
2026-01-19 12:19:51.68	252.41	7.19	-53.1	-55.3	6.2	0.00e+00	0	40	104	0	78	17840
2026-01-19 12:19:52.69	252.31	7.11	-53.2	-55.4	6.2	0.00e+00	0	40	104	0	78	18062
2026-01-19 12:19:53.70	252.22	7.03	-53.2	-55.4	6.2	0.00e+00	0	40	104	0	78	18107
2026-01-19 12:19:54.71	252.12	6.95	-53.1	-55.3	6.2	0.00e+00	0	40	104	0	78	17786
2026-01-19 12:19:55.72	252.02	6.87	-53.1	-55.2	6.2	0.00e+00	0	40	104	0	78	17757
2026-01-19 12:19:56.72	251.93	6.79	-53.2	-55.3	6.2	0.00e+00	0	40	104	0	78	17931
2026-01-19 12:19:57.73	251.83	6.71	-53.2	-55.3	6.2	0.00e+00	0	40	104	0	78	17956
2026-01-19 12:19:58.74	251.74	6.63	-53.1	-55.2	6.2	0.00e+00	0	40	104	0	78	17673
2026-01-19 12:19:59.75	251.65	6.55	-53.0	-55.2	6.2	0.00e+00	0	40	104	0	78	17595
2026-01-19 12:20:00.75	251.56	6.47	-53.1	-55.3	6.2	0.00e+00	0	40	104	0	78	17789
2026-01-19 12:20:01.76	251.46	6.39	-53.2	-55.3	6.2	0.00e+00	0	40	104	0	78	17868
2026-01-19 12:20:02.77	251.37	6.31	-53.0	-55.1	6.2	0.00e+00	0	40	104	0	78	17558
2026-01-19 12:20:03.78	251.28	6.23	-53.0	-55.2	6.2	0.00e+00	0	40	104	0	78	17641
2026-01-19 12:20:04.78	251.19	6.16	-53.1	-55.2	6.2	0.00e+00	0	40	104	0	78	17726
2026-01-19 12:20:05.79	251.10	6.08	-53.1	-55.2	6.2	0.00e+00	0	40	104	0	78	17730
2026-01-19 12:20:06.80	251.01	6.00	-52.9	-55.1	6.2	0.00e+00	0	40	104	0	77	18483
2026-01-19 12:20:07.81	250.93	5.92	-52.9	-55.1	6.2	0.00e+00	0	40	104	0	77	18444
2026-01-19 12:20:08.82	250.84	5.85	-53.0	-55.1	6.2	0.00e+00	0	40	104	0	77	18557
2026-01-19 12:20:09.82	250.75	5.77	-53.0	-55.2	6.2	0.00e+00	0	40	104	0	77	18675
2026-01-19 12:20:10.83	250.67	5.70	-52.9	-55.0	6.2	0.00e+00	0	40	104	0	77	18351
2026-01-19 12:20:11.84	250.58	5.62	-52.9	-55.0	6.2	0.00e+00	0	40	104	0	77	18354
2026-01-19 12:20:12.85	250.49	5.54	-53.0	-55.1	6.2	0.00e+00	0	40	104	0	77	18484
2026-01-19 12:20:13.86	250.41	5.47	-53.0	-55.1	6.2	0.00e+00	0	40	104	0	77	18550
2026-01-19 12:20:14.86	250.33	5.39	-52.8	-55.0	6.2	0.00e+00	0	40	104	0	77	18294
2026-01-19 12:20:15.87	250.24	5.32	-52.8	-55.0	6.2	0.00e+00	0	40	104	0	77	18213
2026-01-19 12:20:16.88	250.16	5.24	-52.9	-55.1	6.2	0.00e+00	0	40	104	0	77	18478
2026-01-19 12:20:17.89	250.08	5.17	-52.9	-55.1	6.2	0.00e+00	0	40	104	0	77	18443
2026-01-19 12:20:18.90	249.99	5.09	-52.7	-54.9	6.2	0.00e+00	0	40	104	0	77	18039
2026-01-19 12:20:19.91	249.91	5.02	-52.7	-54.8	6.2	0.00e+00	0	40	104	0	77	17944
2026-01-19 12:20:20.91	249.83	4.94	-52.9	-55.1	6.2	0.00e+00	0	40	104	0	77	18473
2026-01-19 12:20:21.92	249.75	4.87	-53.4	-55.5	6.2	0.00e+00	0	40	104	0	77	19388
2026-01-19 12:20:22.93	249.67	4.80	-53.6	-55.8	6.2	0.00e+00	0	40	104	0	77	19959
2026-01-19 12:20:23.94	249.59	4.72	-53.9	-56.0	6.2	0.00e+00	0	40	104	0	78	19354
2026-01-19 12:20:24.95	249.51	4.65	-54.0	-56.1	6.2	0.00e+00	0	40	104	0	78	19582
2026-01-19 12:20:25.95	249.44	4.58	-54.1	-56.2	6.2	0.00e+00	0	40	104	0	78	19805
2026-01-19 12:20:26.96	249.36	4.50	-54.2	-56.3	6.2	0.00e+00	0	40	104	0	78	20010
2026-01-19 12:20:27.96	249.28	4.43	-54.3	-56.4	6.2	0.00e+00	0	40	104	0	79	19158
2026-01-19 12:20:28.97	249.21	4.36	-54.3	-56.4	6.2	0.00e+00	0	40	104	0	79	19069
2026-01-19 12:20:29.98	249.13	4.29	-54.3	-56.5	6.2	0.00e+00	0	40	104	0	79	19374
2026-01-19 12:20:30.99	249.05	4.22	-54.4	-56.5	6.2	0.00e+00	0	40	104	0	79	19401
2026-01-19 12:20:32.00	248.98	4.14	-54.4	-56.6	6.2	0.00e+00	0	40	104	0	79	19541
2026-01-19 12:20:33.01	248.90	4.07	-54.5	-56.6	6.2	0.00e+00	0	40	104	0	79	19662
2026-01-19 12:20:34.01	248.83	4.00	-54.5	-56.6	6.2	0.00e+00	0	40	104	0	79	19648
2026-01-19 12:20:35.02	248.75	3.93	-54.5	-56.7	6.2	0.00e+00	0	40	104	0	79	19717
2026-01-19 12:20:36.03	248.68	3.86	-54.5	-56.7	6.2	0.00e+00	0	40	104	0	79	19776
2026-01-19 12:20:37.04	248.61	3.79	-54.5	-56.7	6.2	0.00e+00	0	40	104	0	79	19784
2026-01-19 12:20:38.05	248.54	3.72	-54.6	-56.7	6.2	0.00e+00	0	40	104	0	79	19798
2026-01-19 12:20:39.05	248.46	3.65	-54.6	-56.7	6.2	0.00e+00	0	40	104	0	79	19837
2026-01-19 12:20:40.06	248.39	3.58	-54.6	-56.7	6.2	0.00e+00	0	40	104	0	79	19817
2026-01-19 12:20:41.07	248.32	3.51	-54.6	-56.7	6.2	0.00e+00	0	40	104	0	79	19858
2026-01-19 12:20:42.07	248.25	3.44	-54.6	-56.8	6.2	0.00e+00	0	40	104	0	79	19955
2026-01-19 12:20:43.08	248.18	3.37	-54.6	-56.7	6.2	0.00e+00	0	40	104	0	79	19895
2026-01-19 12:20:44.09	248.11	3.30	-54.6	-56.7	6.2	0.00e+00	0	40	104	0	79	19817
2026-01-19 12:20:45.10	248.04	3.23	-54.6	-56.7	6.2	0.00e+00	0	40	104	0	79	19775
2026-01-19 12:20:46.11	247.97	3.16	-54.5	-56.7	6.2	0.00e+00	0	40	104	0	79	19801
2026-01-19 12:20:47.11	247.90	3.09	-54.5	-56.7	6.2	0.00e+00	0	40	104	0	79	19818
2026-01-19 12:20:48.12	247.83	3.02	-54.5	-56.7	6.2	0.00e+00	0	40	104	0	79	19786
2026-01-19 12:20:49.13	247.77	2.96	-54.5	-56.6	6.2	0.00e+00	0	40	104	0	79	19704
2026-01-19 12:20:50.14	247.70	2.89	-54.5	-56.7	6.2	0.00e+00	0	40	104	0	79	19711
2026-01-19 12:20:51.15	247.63	2.82	-54.5	-56.6	6.2	0.00e+00	0	40	104	0	79	19680
2026-01-19 12:20:52.15	247.57	2.75	-54.5	-56.6	6.2	0.00e+00	0	40	104	0	79	19671
2026-01-19 12:20:53.16	247.50	2.68	-54.5	-56.7	6.2	0.00e+00	0	40	104	0	79	19731
2026-01-19 12:20:54.17	247.43	2.62	-54.5	-56.6	6.2	0.00e+00	0	40	104	0	79	19702
2026-01-19 12:20:55.18	247.37	2.55	-54.5	-56.7	6.2	0.00e+00	0	40	104	0	79	19742
2026-01-19 12:20:56.18	247.30	2.48	-54.5	-56.7	6.2	0.00e+00	0	40	104	0	79	19715
2026-01-19 12:20:57.19	247.24	2.42	-54.5	-56.6	6.2	0.00e+00	0	40	104	0	79	19689
2026-01-19 12:20:58.20	247.17	2.35	-54.5	-56.6	6.2	0.00e+00	0	40	104	0	79	19674
2026-01-19 12:20:59.21	247.11	2.28	-54.5	-56.6	6.2	0.00e+00	0	40	104	0	79	19667
2026-01-19 12:21:00.22	247.05	2.22	-54.5	-56.6	6.2	0.00e+00	0	40	104	0	79	19624
2026-01-19 12:21:01.23	246.98	2.15	-54.5	-56.6	6.2	0.00e+00	0	40	104	0	79	19623
2026-01-19 12:21:02.24	246.92	2.08	-54.5	-56.6	6.2	0.00e+00	0	40	104	0	79	19663
2026-01-19 12:21:03.25	246.86	2.02	-54.5	-56.6	6.2	0.00e+00	0	40	104	0	79	19677

#Closed at: 2026-01-19 12:21:04
#Recorded file [0 MB]: D:/lorett/data/31041_260119_151053.dat