passes_logs/2026/01/19/R3.2S_Murmansk/R3.2S_Murmansk__20260119_081351_SUOMI_NPP_rec.log

#Pass ID: 20260119_081351_SUOMI NPP
#Satellite: SUOMI NPP
#Configuration: NPP
#almurnet v.1.7.20251203
#Start time: 2026-01-19 08:13:51

#Version: 2.2.20231116
#Station: R3.2S_Murmansk
#Location: 33.079688 lon 68.888172 lat
#TLE: 1 37849U 11061A   26018.91022273  .00000066  00000+0  52264-4 0  9997
#TLE: 2 37849  98.7816 320.9252 0002364  56.8129 303.3273 14.19526186737260

#Time	Az	El	Level	Level2	SNR	BER	BlckErr	Temp	State	Recorded	gain1	gain2
2026-01-19 08:13:51.52	119.82	2.03	-52.1	-67.1	3.8	1.49e+00	0	35	0	0	76	19445
2026-01-19 08:13:52.53	119.79	2.09	-52.1	-67.1	3.8	1.49e+00	0	35	104	0	74	21896
2026-01-19 08:13:53.54	119.75	2.16	-52.1	-67.1	3.8	1.49e+00	0	35	104	0	74	21758
2026-01-19 08:13:54.55	119.72	2.22	-52.1	-67.1	3.8	1.49e+00	0	35	104	0	74	21776
2026-01-19 08:13:55.56	119.69	2.29	-52.1	-67.1	3.8	1.49e+00	0	35	104	0	74	21781
2026-01-19 08:13:56.57	119.66	2.35	-52.1	-67.1	3.8	1.49e+00	0	35	104	0	74	21788
2026-01-19 08:13:57.57	119.63	2.41	-52.1	-67.0	3.8	1.49e+00	0	35	104	0	74	21749
2026-01-19 08:13:58.58	119.60	2.48	-52.1	-67.0	3.8	1.49e+00	0	35	104	0	74	21711
2026-01-19 08:13:59.59	119.57	2.54	-52.1	-67.0	3.8	1.49e+00	0	35	104	0	74	21747
2026-01-19 08:14:00.60	119.54	2.61	-52.1	-67.0	3.8	1.49e+00	0	35	104	0	74	21731
2026-01-19 08:14:01.61	119.50	2.67	-52.1	-67.1	3.8	1.49e+00	0	35	104	0	74	21757
2026-01-19 08:14:02.61	119.47	2.73	-52.1	-67.0	3.8	1.49e+00	0	35	104	0	74	21674
2026-01-19 08:14:03.62	119.44	2.80	-52.1	-67.0	3.8	1.49e+00	0	36	104	0	74	21714
2026-01-19 08:14:04.63	119.41	2.86	-52.1	-67.0	3.8	1.49e+00	0	35	104	0	74	21676
2026-01-19 08:14:05.64	119.37	2.93	-52.1	-67.0	3.8	1.49e+00	0	35	104	0	74	21647
2026-01-19 08:14:06.64	119.34	2.99	-52.1	-67.0	3.8	1.49e+00	0	36	104	0	74	21616
2026-01-19 08:14:07.65	119.31	3.06	-52.1	-67.0	3.8	1.49e+00	0	36	104	0	74	21527
2026-01-19 08:14:08.66	119.28	3.12	-52.1	-67.0	3.8	1.49e+00	0	36	104	0	74	21579
2026-01-19 08:14:09.67	119.24	3.19	-52.1	-67.0	3.8	1.49e+00	0	36	104	0	74	21572
2026-01-19 08:14:10.67	119.21	3.26	-52.1	-67.0	3.8	1.49e+00	0	36	104	0	74	21626
2026-01-19 08:14:11.68	119.18	3.32	-52.1	-67.0	3.8	1.49e+00	0	36	104	0	74	21580
2026-01-19 08:14:12.69	119.14	3.39	-52.1	-67.0	3.8	1.49e+00	0	36	104	0	74	21519
2026-01-19 08:14:13.70	119.11	3.45	-52.1	-66.9	3.8	1.49e+00	0	36	104	0	74	21404
2026-01-19 08:14:14.71	119.07	3.52	-52.1	-66.8	3.8	1.49e+00	0	36	104	0	74	21145
2026-01-19 08:14:15.71	119.04	3.59	-52.1	-66.8	3.8	1.49e+00	0	36	104	0	74	21082
2026-01-19 08:14:16.72	119.01	3.65	-52.0	-66.6	3.8	1.49e+00	0	36	104	0	74	20644
2026-01-19 08:14:17.73	118.97	3.72	-52.0	-66.5	3.8	1.49e+00	0	36	104	0	74	20321
2026-01-19 08:14:18.74	118.94	3.79	-52.0	-65.8	3.8	1.49e+00	0	36	104	0	74	18907
2026-01-19 08:14:19.74	118.90	3.85	-52.0	-65.3	3.8	1.49e+00	0	36	104	0	74	17684
2026-01-19 08:14:20.75	118.87	3.92	-51.9	-64.6	3.9	1.48e+00	0	36	104	0	74	16495
2026-01-19 08:14:21.76	118.83	3.99	-51.9	-63.6	4.2	1.45e+00	0	36	0	0	74	14629
2026-01-19 08:14:22.77	118.80	4.06	-51.8	-63.0	4.3	1.37e+00	61	36	0	0	74	13723
2026-01-19 08:14:23.78	118.76	4.12	-51.8	-62.7	4.4	1.25e+00	123	36	0	1048576	74	13207
2026-01-19 08:14:24.79	118.73	4.19	-51.8	-62.4	4.6	1.03e+00	0	36	0	3145728	74	12690
2026-01-19 08:14:25.79	118.69	4.26	-51.8	-62.5	4.5	9.34e-01	8	36	0	5242880	74	12950
2026-01-19 08:14:26.80	118.65	4.33	-51.8	-62.5	4.5	1.15e+00	18	36	0	6291456	74	12902
2026-01-19 08:14:27.81	118.62	4.40	-51.7	-61.8	4.8	9.18e-01	0	36	0	8388608	74	11914
2026-01-19 08:14:28.82	118.58	4.47	-51.7	-61.3	5.1	8.05e-01	0	36	0	10485760	74	11196
2026-01-19 08:14:29.83	118.54	4.53	-51.5	-60.1	5.9	4.67e-01	0	36	0	12582912	74	9790
2026-01-19 08:14:30.83	118.51	4.60	-51.2	-58.6	7.1	2.20e-01	0	36	0	14680064	74	8214
2026-01-19 08:14:31.84	118.47	4.67	-50.9	-57.2	8.5	9.75e-02	0	36	0	16777216	73	7410
2026-01-19 08:14:32.85	118.43	4.74	-50.7	-56.4	9.3	2.26e-02	0	36	0	17825792	73	6762
2026-01-19 08:14:33.85	118.40	4.81	-50.2	-55.0	10.8	5.47e-03	0	36	0	19922944	72	6085
2026-01-19 08:14:34.86	118.36	4.88	-50.0	-54.3	11.5	1.16e-03	0	36	0	22020096	71	5990
2026-01-19 08:14:35.87	118.32	4.95	-49.6	-53.6	12.3	2.53e-04	0	36	0	24117248	71	5483
2026-01-19 08:14:36.88	118.28	5.02	-49.3	-52.8	13.2	5.64e-05	0	36	0	26214400	70	5300
2026-01-19 08:14:37.89	118.24	5.09	-48.0	-50.6	15.4	3.00e-06	0	36	0	27262976	67	4900
2026-01-19 08:14:38.89	118.21	5.16	-48.5	-51.4	14.7	0.00e+00	0	36	0	29360128	67	5370
2026-01-19 08:14:39.90	118.17	5.23	-51.6	-60.6	6.0	1.56e-02	0	36	0	31457280	73	10940
2026-01-19 08:14:40.91	118.13	5.30	-51.1	-57.0	9.0	6.88e-02	0	36	0	33554432	73	7251
2026-01-19 08:14:41.92	118.09	5.37	-47.8	-50.2	15.9	7.11e-03	0	36	0	34603008	67	4664
2026-01-19 08:14:42.93	118.05	5.44	-47.6	-49.9	16.1	0.00e+00	0	36	0	36700160	67	4532
2026-01-19 08:14:43.93	118.01	5.51	-47.7	-50.0	16.0	0.00e+00	0	36	0	38797312	67	4560
2026-01-19 08:14:44.94	117.97	5.58	-48.0	-50.6	15.6	0.00e+00	0	36	0	40894464	67	4885
2026-01-19 08:14:45.95	117.93	5.66	-47.8	-50.2	15.9	0.00e+00	0	36	0	42991616	67	4696
2026-01-19 08:14:46.95	117.89	5.73	-48.0	-50.6	15.5	0.00e+00	0	36	0	45088768	67	4879
2026-01-19 08:14:47.96	117.85	5.80	-48.2	-50.8	15.3	0.00e+00	0	36	0	46137344	67	5018
2026-01-19 08:14:48.97	117.81	5.87	-48.3	-50.9	15.2	0.00e+00	0	36	0	48234496	67	5080
2026-01-19 08:14:49.98	117.77	5.94	-47.8	-50.2	15.9	0.00e+00	0	36	0	50331648	67	4699
2026-01-19 08:14:50.99	117.73	6.02	-47.6	-49.9	16.3	0.00e+00	0	36	0	52428800	67	4495
2026-01-19 08:14:51.99	117.69	6.09	-48.0	-50.4	15.7	0.00e+00	0	36	0	54525952	67	4809
2026-01-19 08:14:53.00	117.65	6.16	-47.4	-49.6	16.6	0.00e+00	0	36	0	55574528	66	4606
2026-01-19 08:14:54.01	117.60	6.23	-47.6	-49.9	16.3	0.00e+00	0	36	0	57671680	66	4764
2026-01-19 08:14:55.02	117.56	6.31	-47.5	-49.6	16.6	0.00e+00	0	36	0	59768832	66	4636
2026-01-19 08:14:56.03	117.52	6.38	-47.8	-50.0	16.2	0.00e+00	0	36	0	61865984	66	4867
2026-01-19 08:14:57.03	117.48	6.45	-47.5	-49.6	16.6	0.00e+00	0	36	0	63963136	66	4647
2026-01-19 08:14:58.04	117.44	6.53	-47.5	-49.7	16.5	0.00e+00	0	36	0	65011712	66	4684
2026-01-19 08:14:59.05	117.39	6.60	-47.8	-50.1	16.1	0.00e+00	0	36	0	67108864	66	4925
2026-01-19 08:15:00.06	117.35	6.68	-47.7	-50.0	16.3	0.00e+00	0	36	0	69206016	66	4844
2026-01-19 08:15:01.06	117.31	6.75	-47.9	-50.2	16.1	0.00e+00	0	36	0	71303168	66	4980
2026-01-19 08:15:02.07	117.26	6.82	-47.9	-50.2	16.1	0.00e+00	0	36	0	73400320	66	4957
2026-01-19 08:15:03.08	117.22	6.90	-47.9	-50.1	16.2	0.00e+00	0	36	0	74448896	66	4921
2026-01-19 08:15:04.08	117.18	6.97	-47.9	-50.2	16.2	0.00e+00	0	36	0	76546048	66	4950
2026-01-19 08:15:05.09	117.13	7.05	-47.9	-50.2	16.1	0.00e+00	0	36	0	78643200	66	4951
2026-01-19 08:15:06.10	117.09	7.12	-47.7	-49.9	16.5	0.00e+00	0	36	0	80740352	66	4796
2026-01-19 08:15:07.10	117.04	7.20	-47.5	-49.6	16.7	0.00e+00	0	37	0	82837504	66	4631
2026-01-19 08:15:08.11	117.00	7.27	-47.5	-49.5	16.8	0.00e+00	0	36	0	83886080	66	4595
2026-01-19 08:15:09.12	116.95	7.35	-47.5	-49.6	16.8	0.00e+00	0	36	0	85983232	66	4600
2026-01-19 08:15:10.13	116.91	7.43	-47.4	-49.4	17.0	0.00e+00	0	36	0	88080384	66	4501
2026-01-19 08:15:11.14	116.86	7.50	-47.4	-49.4	17.1	0.00e+00	0	37	0	90177536	66	4499
2026-01-19 08:15:12.15	116.82	7.58	-47.3	-49.3	17.1	0.00e+00	0	36	0	92274688	66	4480
2026-01-19 08:15:13.15	116.77	7.66	-47.4	-49.4	17.1	0.00e+00	0	36	0	93323264	66	4506
2026-01-19 08:15:14.16	116.72	7.73	-47.5	-49.5	16.9	0.00e+00	0	36	0	95420416	66	4590
2026-01-19 08:15:15.17	116.68	7.81	-47.6	-49.7	16.8	0.00e+00	0	36	0	97517568	66	4663
2026-01-19 08:15:16.18	116.63	7.89	-47.7	-49.8	16.7	0.00e+00	0	36	0	99614720	66	4737
2026-01-19 08:15:17.19	116.58	7.97	-47.6	-49.7	16.7	0.00e+00	0	37	0	101711872	66	4698
2026-01-19 08:15:18.20	116.54	8.04	-47.8	-50.0	16.6	0.00e+00	0	37	0	102760448	66	4817
2026-01-19 08:15:19.21	116.49	8.12	-47.6	-49.7	16.8	0.00e+00	0	36	0	104857600	66	4688
2026-01-19 08:15:20.21	116.44	8.20	-47.5	-49.6	16.9	0.00e+00	0	37	0	106954752	66	4642
2026-01-19 08:15:21.22	116.39	8.28	-47.6	-49.7	16.8	0.00e+00	0	37	0	109051904	66	4690
2026-01-19 08:15:22.23	116.34	8.36	-47.6	-49.7	16.9	0.00e+00	0	37	0	111149056	66	4674
2026-01-19 08:15:23.24	116.29	8.44	-47.3	-49.3	17.3	0.00e+00	0	37	0	113246208	66	4456
2026-01-19 08:15:24.24	116.25	8.52	-47.3	-49.3	17.3	0.00e+00	0	36	0	114294784	66	4457
2026-01-19 08:15:25.25	116.20	8.59	-47.2	-49.1	17.4	0.00e+00	0	37	0	116391936	66	4381
2026-01-19 08:15:26.26	116.15	8.67	-47.3	-49.2	17.3	0.00e+00	0	37	0	118489088	66	4424
2026-01-19 08:15:27.27	116.10	8.75	-47.3	-49.2	17.3	0.00e+00	0	37	0	120586240	66	4424
2026-01-19 08:15:28.28	116.05	8.83	-47.3	-49.3	17.3	0.00e+00	0	36	0	121634816	66	4457
2026-01-19 08:15:29.29	115.99	8.92	-47.3	-49.3	17.3	0.00e+00	0	37	0	123731968	66	4450
2026-01-19 08:15:30.29	115.94	9.00	-47.5	-49.6	17.0	0.00e+00	0	37	0	125829120	66	4614
2026-01-19 08:15:31.30	115.89	9.08	-47.4	-49.4	17.2	0.00e+00	0	37	0	127926272	66	4538
2026-01-19 08:15:32.31	115.84	9.16	-47.3	-49.3	17.4	0.00e+00	0	37	0	130023424	66	4447
2026-01-19 08:15:33.32	115.79	9.24	-47.1	-49.0	17.6	0.00e+00	0	37	0	131072000	66	4306
2026-01-19 08:15:34.33	115.74	9.32	-47.4	-49.4	17.2	0.00e+00	0	37	0	133169152	66	4519
2026-01-19 08:15:35.33	115.68	9.40	-47.3	-49.2	17.4	0.00e+00	0	37	0	135266304	66	4418
2026-01-19 08:15:36.34	115.63	9.48	-47.4	-49.4	17.3	0.00e+00	0	37	0	137363456	66	4508
2026-01-19 08:15:37.35	115.58	9.57	-47.1	-49.0	17.7	0.00e+00	0	37	0	139460608	66	4293
2026-01-19 08:15:38.36	115.53	9.65	-47.0	-48.8	17.8	0.00e+00	0	37	0	141557760	66	4231
2026-01-19 08:15:39.37	115.47	9.73	-47.1	-49.0	17.6	0.00e+00	0	37	0	142606336	65	4578
2026-01-19 08:15:40.37	115.42	9.81	-47.2	-49.0	17.6	0.00e+00	0	37	0	144703488	65	4595
2026-01-19 08:15:41.38	115.36	9.90	-47.1	-49.0	17.7	0.00e+00	0	37	0	146800640	65	4560
2026-01-19 08:15:42.39	115.31	9.98	-47.0	-48.8	17.8	0.00e+00	0	37	0	148897792	65	4467
2026-01-19 08:15:43.39	115.25	10.06	-47.3	-49.1	17.6	0.00e+00	0	37	0	149946368	65	4637
2026-01-19 08:15:44.40	115.20	10.15	-47.3	-49.2	17.6	0.00e+00	0	37	0	152043520	65	4654
2026-01-19 08:15:45.41	115.14	10.23	-47.2	-49.1	17.7	0.00e+00	0	37	0	154140672	65	4601
2026-01-19 08:15:46.42	115.09	10.32	-47.2	-49.0	17.7	0.00e+00	0	37	0	156237824	65	4563
2026-01-19 08:15:47.43	115.03	10.40	-47.1	-48.9	17.8	0.00e+00	0	37	0	158334976	65	4502
2026-01-19 08:15:48.43	114.97	10.49	-47.0	-48.7	18.0	0.00e+00	0	37	0	160432128	65	4438
2026-01-19 08:15:49.44	114.92	10.57	-46.9	-48.6	18.1	0.00e+00	0	37	0	161480704	65	4384
2026-01-19 08:15:50.45	114.86	10.66	-47.0	-48.7	18.0	0.00e+00	0	37	0	163577856	65	4438
2026-01-19 08:15:51.46	114.80	10.74	-47.0	-48.7	18.0	0.00e+00	0	37	0	165675008	65	4430
2026-01-19 08:15:52.46	114.74	10.83	-46.8	-48.6	18.1	0.00e+00	0	37	0	167772160	65	4341
2026-01-19 08:15:53.47	114.69	10.92	-47.0	-48.8	17.9	0.00e+00	0	37	0	169869312	65	4466
2026-01-19 08:15:54.48	114.63	11.00	-46.6	-48.3	18.4	0.00e+00	0	37	0	170917888	65	4210
2026-01-19 08:15:55.49	114.57	11.09	-46.7	-48.5	18.2	0.00e+00	0	37	0	173015040	65	4321
2026-01-19 08:15:56.50	114.51	11.18	-46.7	-48.5	18.1	0.00e+00	0	37	0	175112192	65	4340
2026-01-19 08:15:57.50	114.45	11.26	-46.8	-48.6	18.1	0.00e+00	0	37	0	177209344	65	4382
2026-01-19 08:15:58.51	114.39	11.35	-46.7	-48.5	18.2	0.00e+00	0	37	0	178257920	65	4296
2026-01-19 08:15:59.52	114.33	11.44	-47.0	-48.9	17.8	0.00e+00	0	37	0	180355072	65	4536
2026-01-19 08:16:00.53	114.27	11.53	-46.8	-48.6	18.1	0.00e+00	0	37	0	182452224	65	4376
2026-01-19 08:16:01.54	114.20	11.62	-46.8	-48.6	18.1	0.00e+00	0	37	0	184549376	65	4351
2026-01-19 08:16:02.55	114.14	11.71	-46.6	-48.4	18.3	0.00e+00	0	37	0	186646528	65	4269
2026-01-19 08:16:03.55	114.08	11.80	-46.9	-48.7	18.0	0.00e+00	0	37	0	188743680	65	4435
2026-01-19 08:16:04.56	114.02	11.89	-46.7	-48.5	18.2	0.00e+00	0	37	0	189792256	65	4336
2026-01-19 08:16:05.57	113.95	11.98	-46.8	-48.6	18.1	0.00e+00	0	37	0	191889408	65	4350
2026-01-19 08:16:06.58	113.89	12.07	-46.9	-48.7	18.1	0.00e+00	0	37	0	193986560	65	4415
2026-01-19 08:16:07.59	113.83	12.16	-46.9	-48.7	18.0	0.00e+00	0	37	0	196083712	65	4426
2026-01-19 08:16:08.59	113.76	12.25	-46.6	-48.4	18.3	0.00e+00	0	37	0	198180864	65	4264
2026-01-19 08:16:09.60	113.70	12.34	-46.8	-48.6	18.1	0.00e+00	0	37	0	199229440	65	4379
2026-01-19 08:16:10.61	113.63	12.43	-46.8	-48.6	18.1	0.00e+00	0	37	0	201326592	65	4362
2026-01-19 08:16:11.62	113.57	12.52	-46.8	-48.6	18.1	0.00e+00	0	37	0	203423744	65	4382
2026-01-19 08:16:12.62	113.50	12.61	-46.9	-48.8	18.0	0.00e+00	0	37	0	205520896	65	4443
2026-01-19 08:16:13.63	113.43	12.70	-46.8	-48.6	18.1	0.00e+00	0	37	0	207618048	65	4383
2026-01-19 08:16:14.64	113.37	12.80	-46.7	-48.5	18.2	0.00e+00	0	37	0	208666624	65	4335
2026-01-19 08:16:15.65	113.30	12.89	-46.7	-48.5	18.3	0.00e+00	0	37	0	210763776	65	4296
2026-01-19 08:16:16.66	113.23	12.98	-46.8	-48.6	18.2	0.00e+00	0	37	0	212860928	65	4345
2026-01-19 08:16:17.67	113.16	13.08	-46.7	-48.5	18.3	0.00e+00	0	37	0	214958080	65	4294
2026-01-19 08:16:18.67	113.10	13.17	-46.8	-48.6	18.1	0.00e+00	0	37	0	217055232	65	4361
2026-01-19 08:16:19.68	113.03	13.26	-46.7	-48.5	18.3	0.00e+00	0	37	0	218103808	65	4294
2026-01-19 08:16:20.69	112.96	13.36	-46.6	-48.4	18.4	0.00e+00	0	37	0	220200960	65	4246
2026-01-19 08:16:21.70	112.89	13.45	-46.5	-48.2	18.5	0.00e+00	0	37	0	222298112	65	4190
2026-01-19 08:16:22.71	112.82	13.55	-46.6	-48.3	18.4	0.00e+00	0	37	0	224395264	64	4487
2026-01-19 08:16:23.71	112.75	13.64	-46.7	-48.5	18.3	0.00e+00	0	37	0	226492416	64	4583
2026-01-19 08:16:24.72	112.67	13.74	-46.8	-48.6	18.2	0.00e+00	0	37	0	227540992	64	4606
2026-01-19 08:16:25.73	112.60	13.84	-46.4	-48.1	18.6	0.00e+00	0	37	0	229638144	64	4384
2026-01-19 08:16:26.74	112.53	13.93	-46.5	-48.2	18.6	0.00e+00	0	37	0	231735296	64	4432
2026-01-19 08:16:27.75	112.46	14.03	-46.3	-48.0	18.8	0.00e+00	0	37	0	233832448	64	4305
2026-01-19 08:16:28.75	112.38	14.13	-46.2	-47.9	18.9	0.00e+00	0	37	0	235929600	64	4258
2026-01-19 08:16:29.76	112.31	14.22	-46.3	-47.9	18.9	0.00e+00	0	37	0	236978176	64	4256
2026-01-19 08:16:30.77	112.23	14.32	-46.2	-47.9	18.9	0.00e+00	0	37	0	239075328	64	4247
2026-01-19 08:16:31.78	112.16	14.42	-46.6	-48.3	18.5	0.00e+00	0	37	0	241172480	64	4460
2026-01-19 08:16:32.78	112.09	14.52	-46.3	-48.0	18.8	0.00e+00	0	37	0	243269632	64	4310
2026-01-19 08:16:33.79	112.01	14.62	-46.3	-47.9	18.9	0.00e+00	0	37	0	245366784	64	4283
2026-01-19 08:16:34.80	111.93	14.72	-46.4	-48.0	18.8	0.00e+00	0	37	0	246415360	64	4338
2026-01-19 08:16:35.81	111.85	14.81	-46.4	-48.1	18.7	0.00e+00	0	37	0	248512512	64	4353
2026-01-19 08:16:36.82	111.78	14.91	-46.3	-48.0	18.8	0.00e+00	0	37	0	250609664	64	4294
2026-01-19 08:16:37.83	111.70	15.02	-46.5	-48.2	18.6	0.00e+00	0	37	0	252706816	64	4411
2026-01-19 08:16:38.83	111.62	15.11	-46.4	-48.1	18.8	0.00e+00	0	37	0	254803968	64	4348
2026-01-19 08:16:39.84	111.54	15.22	-46.7	-48.4	18.4	0.00e+00	0	37	0	255852544	64	4525
2026-01-19 08:16:40.85	111.46	15.32	-46.6	-48.3	18.6	0.00e+00	0	37	0	257949696	64	4465
2026-01-19 08:16:41.86	111.38	15.42	-46.6	-48.3	18.5	0.00e+00	0	37	0	260046848	64	4491
2026-01-19 08:16:42.86	111.30	15.52	-46.8	-48.5	18.3	0.00e+00	0	37	0	262144000	64	4579
2026-01-19 08:16:43.87	111.22	15.62	-46.7	-48.4	18.5	0.00e+00	0	37	0	264241152	64	4518
2026-01-19 08:16:44.88	111.14	15.73	-46.9	-48.7	18.2	0.00e+00	0	37	0	265289728	64	4661
2026-01-19 08:16:45.89	111.05	15.83	-46.7	-48.4	18.5	0.00e+00	0	37	0	267386880	64	4543
2026-01-19 08:16:46.90	110.97	15.93	-46.7	-48.4	18.5	0.00e+00	0	37	0	269484032	64	4520
2026-01-19 08:16:47.91	110.89	16.04	-46.9	-48.7	18.1	0.00e+00	0	37	0	271581184	64	4700
2026-01-19 08:16:48.91	110.80	16.14	-46.5	-48.2	18.6	0.00e+00	0	37	0	273678336	64	4436
2026-01-19 08:16:49.92	110.72	16.25	-46.3	-47.9	18.9	0.00e+00	0	37	0	274726912	64	4279
2026-01-19 08:16:50.93	110.63	16.35	-46.2	-47.8	19.1	0.00e+00	0	37	0	276824064	64	4207
2026-01-19 08:16:51.94	110.55	16.46	-46.3	-48.0	18.9	0.00e+00	0	37	0	278921216	64	4295
2026-01-19 08:16:52.94	110.46	16.56	-46.3	-48.0	18.9	0.00e+00	0	37	0	281018368	64	4312
2026-01-19 08:16:53.95	110.37	16.67	-46.3	-48.0	18.9	0.00e+00	0	37	0	283115520	64	4318
2026-01-19 08:16:54.96	110.28	16.77	-46.4	-48.1	18.7	0.00e+00	0	37	0	284164096	64	4371
2026-01-19 08:16:55.96	110.19	16.88	-46.5	-48.3	18.6	0.00e+00	0	37	0	286261248	64	4453
2026-01-19 08:16:56.97	110.10	16.99	-46.3	-48.0	18.9	0.00e+00	0	37	0	288358400	64	4308
2026-01-19 08:16:57.98	110.01	17.10	-46.6	-48.3	18.5	0.00e+00	0	37	0	290455552	64	4465
2026-01-19 08:16:58.99	109.92	17.20	-46.4	-48.1	18.8	0.00e+00	0	37	0	292552704	64	4358
2026-01-19 08:17:00.00	109.83	17.31	-46.7	-48.5	18.4	0.00e+00	0	37	0	293601280	64	4549
2026-01-19 08:17:01.00	109.74	17.42	-46.9	-48.8	18.2	0.00e+00	0	37	0	295698432	64	4707
2026-01-19 08:17:02.01	109.65	17.53	-46.8	-48.6	18.3	0.00e+00	0	37	0	297795584	64	4604
2026-01-19 08:17:03.02	109.55	17.64	-46.8	-48.6	18.3	0.00e+00	0	37	0	299892736	64	4613
2026-01-19 08:17:04.03	109.46	17.75	-47.0	-48.8	18.1	0.00e+00	0	37	0	301989888	65	4473
2026-01-19 08:17:05.03	109.36	17.86	-47.0	-48.9	17.9	0.00e+00	0	37	0	304087040	65	4495
2026-01-19 08:17:06.04	109.27	17.97	-46.9	-48.7	18.1	0.00e+00	0	37	0	305135616	65	4438
2026-01-19 08:17:07.05	109.17	18.08	-46.9	-48.7	18.2	0.00e+00	0	37	0	307232768	65	4408
2026-01-19 08:17:08.06	109.07	18.20	-46.9	-48.6	18.2	0.00e+00	0	37	0	309329920	65	4386
2026-01-19 08:17:09.07	108.98	18.31	-47.1	-49.0	17.9	0.00e+00	0	37	0	311427072	65	4561
2026-01-19 08:17:10.07	108.88	18.42	-46.7	-48.4	18.5	0.00e+00	0	37	0	312475648	65	4275
2026-01-19 08:17:11.08	108.78	18.53	-46.8	-48.5	18.3	0.00e+00	0	37	0	314572800	65	4333
2026-01-19 08:17:12.09	108.68	18.65	-47.0	-48.8	18.1	0.00e+00	0	37	0	316669952	65	4475
2026-01-19 08:17:13.10	108.58	18.76	-46.9	-48.6	18.3	0.00e+00	0	37	0	318767104	65	4382
2026-01-19 08:17:14.11	108.48	18.88	-46.9	-48.7	18.2	0.00e+00	0	37	0	320864256	65	4421
2026-01-19 08:17:15.11	108.37	18.99	-46.9	-48.6	18.3	0.00e+00	0	37	0	321912832	65	4389
2026-01-19 08:17:16.12	108.27	19.10	-47.0	-48.8	18.2	0.00e+00	0	37	0	324009984	65	4457
2026-01-19 08:17:17.13	108.17	19.22	-47.2	-49.1	17.9	0.00e+00	0	37	0	326107136	65	4612
2026-01-19 08:17:18.14	108.06	19.34	-47.0	-48.8	18.2	0.00e+00	0	37	0	328204288	65	4442
2026-01-19 08:17:19.15	107.95	19.45	-47.1	-48.9	18.0	0.00e+00	0	37	0	330301440	65	4539
2026-01-19 08:17:20.15	107.85	19.57	-47.0	-48.7	18.2	0.00e+00	0	37	0	332398592	65	4428
2026-01-19 08:17:21.16	107.74	19.69	-46.8	-48.5	18.4	0.00e+00	0	37	0	333447168	65	4336
2026-01-19 08:17:22.17	107.63	19.81	-47.0	-48.8	18.2	0.00e+00	0	37	0	335544320	65	4474
2026-01-19 08:17:23.17	107.52	19.92	-46.9	-48.6	18.3	0.00e+00	0	37	0	337641472	65	4381
2026-01-19 08:17:24.18	107.41	20.04	-47.0	-48.8	18.2	0.00e+00	0	37	0	339738624	65	4465
2026-01-19 08:17:25.19	107.30	20.16	-47.2	-49.0	17.9	0.00e+00	0	37	0	340787200	65	4594
2026-01-19 08:17:26.20	107.19	20.28	-47.1	-48.8	18.1	0.00e+00	0	37	0	342884352	65	4491
2026-01-19 08:17:27.21	107.08	20.40	-46.9	-48.6	18.4	0.00e+00	0	37	0	344981504	65	4366
2026-01-19 08:17:28.21	106.96	20.52	-46.7	-48.3	18.6	0.00e+00	0	37	0	347078656	65	4235
2026-01-19 08:17:29.22	106.85	20.64	-46.8	-48.6	18.4	0.00e+00	0	37	0	349175808	65	4344
2026-01-19 08:17:30.23	106.73	20.76	-46.8	-48.4	18.5	0.00e+00	0	37	0	351272960	65	4287
2026-01-19 08:17:31.24	106.62	20.89	-46.7	-48.4	18.5	0.00e+00	0	37	0	352321536	65	4280
2026-01-19 08:17:32.24	106.50	21.01	-46.7	-48.4	18.6	0.00e+00	0	37	0	354418688	65	4258
2026-01-19 08:17:33.25	106.38	21.13	-46.8	-48.5	18.5	0.00e+00	0	37	0	356515840	65	4292
2026-01-19 08:17:34.26	106.26	21.26	-46.9	-48.6	18.3	0.00e+00	0	37	0	358612992	65	4389
2026-01-19 08:17:35.27	106.14	21.38	-46.8	-48.5	18.2	0.00e+00	0	37	0	360710144	65	4317
2026-01-19 08:17:36.28	106.02	21.50	-46.7	-48.4	18.6	0.00e+00	0	37	0	361758720	65	4250
2026-01-19 08:17:37.28	105.90	21.63	-47.0	-48.8	18.2	0.00e+00	0	37	0	363855872	65	4460
2026-01-19 08:17:38.29	105.78	21.75	-46.9	-48.7	18.3	0.00e+00	0	37	0	365953024	65	4408
2026-01-19 08:17:39.30	105.65	21.88	-47.0	-48.7	18.3	0.00e+00	0	37	0	368050176	65	4428
2026-01-19 08:17:40.30	105.53	22.00	-47.0	-48.8	18.2	0.00e+00	0	37	0	369098752	65	4470
2026-01-19 08:17:41.31	105.40	22.13	-47.2	-49.1	17.9	0.00e+00	0	37	0	371195904	65	4617
2026-01-19 08:17:42.32	105.27	22.26	-47.1	-48.9	18.0	0.00e+00	0	37	0	373293056	65	4542
2026-01-19 08:17:43.33	105.14	22.39	-47.0	-48.8	18.2	0.00e+00	0	37	0	375390208	65	4487
2026-01-19 08:17:44.34	105.01	22.52	-47.2	-49.0	17.9	0.00e+00	0	37	0	377487360	65	4583
2026-01-19 08:17:45.35	104.88	22.64	-47.3	-49.2	17.8	0.00e+00	0	37	0	379584512	65	4658
2026-01-19 08:17:46.36	104.75	22.77	-47.2	-49.1	17.9	0.00e+00	0	37	0	380633088	65	4626
2026-01-19 08:17:47.37	104.62	22.90	-47.0	-48.8	18.1	0.00e+00	0	37	0	382730240	65	4491
2026-01-19 08:17:48.37	104.48	23.03	-46.7	-48.4	18.6	0.00e+00	0	37	0	384827392	65	4262
2026-01-19 08:17:49.38	104.35	23.16	-46.6	-48.3	18.6	0.00e+00	0	37	0	386924544	65	4224
2026-01-19 08:17:50.39	104.21	23.29	-46.7	-48.4	18.5	0.00e+00	0	37	0	389021696	65	4278
2026-01-19 08:17:51.40	104.07	23.43	-46.8	-48.6	18.4	0.00e+00	0	37	0	390070272	65	4353
2026-01-19 08:17:52.41	103.94	23.56	-47.1	-48.9	18.1	0.00e+00	0	37	0	392167424	65	4526
2026-01-19 08:17:53.41	103.80	23.69	-47.2	-49.1	18.0	0.00e+00	0	37	0	394264576	65	4600
2026-01-19 08:17:54.42	103.66	23.82	-47.3	-49.3	17.7	0.00e+00	0	37	0	396361728	65	4732
2026-01-19 08:17:55.43	103.51	23.96	-47.2	-49.1	17.9	0.00e+00	0	37	0	398458880	65	4636
2026-01-19 08:17:56.44	103.37	24.09	-47.3	-49.2	17.8	0.00e+00	0	37	0	399507456	65	4663
2026-01-19 08:17:57.45	103.22	24.23	-47.1	-49.0	18.1	0.00e+00	0	37	0	401604608	65	4551
2026-01-19 08:17:58.45	103.08	24.36	-47.3	-49.3	17.7	0.00e+00	0	37	0	403701760	65	4720
2026-01-19 08:17:59.46	102.93	24.50	-47.3	-49.2	17.8	0.00e+00	0	37	0	405798912	65	4660
2026-01-19 08:18:00.47	102.78	24.63	-47.3	-49.3	17.7	0.00e+00	0	37	0	407896064	65	4732
2026-01-19 08:18:01.48	102.63	24.77	-47.3	-49.2	17.8	0.00e+00	0	37	0	408944640	65	4686
2026-01-19 08:18:02.48	102.48	24.90	-47.4	-49.4	17.6	0.00e+00	0	37	0	411041792	65	4792
2026-01-19 08:18:03.49	102.33	25.04	-46.9	-48.7	18.3	0.00e+00	0	37	0	413138944	65	4405
2026-01-19 08:18:04.50	102.17	25.18	-46.6	-48.3	18.6	0.00e+00	0	37	0	415236096	65	4211
2026-01-19 08:18:05.51	102.02	25.32	-46.6	-48.3	18.7	0.00e+00	0	37	0	417333248	64	4446
2026-01-19 08:18:06.52	101.86	25.46	-46.6	-48.4	18.6	0.00e+00	0	37	0	418381824	64	4510
2026-01-19 08:18:07.52	101.70	25.60	-46.8	-48.5	18.5	0.00e+00	0	37	0	420478976	64	4598
2026-01-19 08:18:08.53	101.54	25.74	-47.0	-48.8	18.1	0.00e+00	0	37	0	422576128	65	4487
2026-01-19 08:18:09.54	101.38	25.88	-47.1	-49.0	18.0	0.00e+00	0	37	0	424673280	65	4574
2026-01-19 08:18:10.55	101.22	26.02	-47.7	-49.8	17.1	0.00e+00	0	37	0	426770432	66	4756
2026-01-19 08:18:11.56	101.06	26.16	-47.0	-48.9	18.1	0.00e+00	0	37	0	427819008	66	4262
2026-01-19 08:18:12.57	100.89	26.30	-47.0	-48.9	18.0	0.00e+00	0	37	0	429916160	66	4288
2026-01-19 08:18:13.57	100.72	26.44	-47.1	-49.0	18.0	0.00e+00	0	37	0	432013312	65	4549
2026-01-19 08:18:14.58	100.55	26.59	-47.2	-49.1	17.9	0.00e+00	0	37	0	434110464	65	4618
2026-01-19 08:18:15.59	100.38	26.73	-47.0	-48.9	18.1	0.00e+00	0	37	0	436207616	65	4520
2026-01-19 08:18:16.60	100.21	26.87	-47.0	-48.8	18.2	0.00e+00	0	37	0	437256192	65	4488
2026-01-19 08:18:17.61	100.04	27.02	-47.2	-49.1	17.9	0.00e+00	0	37	0	439353344	65	4644
2026-01-19 08:18:18.61	99.86	27.16	-47.4	-49.3	17.7	0.00e+00	0	37	0	441450496	65	4756
2026-01-19 08:18:19.62	99.69	27.31	-47.0	-48.8	18.2	0.00e+00	0	37	0	443547648	65	4492
2026-01-19 08:18:20.63	99.51	27.45	-47.1	-48.9	18.1	0.00e+00	0	37	0	445644800	65	4530
2026-01-19 08:18:21.64	99.33	27.60	-47.0	-48.8	18.2	0.00e+00	0	37	0	447741952	65	4491
2026-01-19 08:18:22.65	99.15	27.74	-47.3	-49.2	17.9	0.00e+00	0	37	0	448790528	65	4656
2026-01-19 08:18:23.65	98.97	27.89	-47.7	-49.7	17.3	0.00e+00	0	37	0	450887680	65	4951
2026-01-19 08:18:24.66	98.78	28.04	-47.6	-49.6	17.5	0.00e+00	0	37	0	452984832	66	4638
2026-01-19 08:18:25.67	98.59	28.19	-47.6	-49.6	17.5	0.00e+00	0	37	0	455081984	66	4637
2026-01-19 08:18:26.68	98.40	28.33	-47.6	-49.5	17.5	0.00e+00	0	37	0	456130560	66	4594
2026-01-19 08:18:27.69	98.21	28.48	-47.6	-49.6	17.4	0.00e+00	0	37	0	458227712	66	4645
2026-01-19 08:18:28.69	98.02	28.63	-47.7	-49.9	17.2	0.00e+00	0	37	0	460324864	66	4763
2026-01-19 08:18:29.70	97.83	28.78	-47.9	-50.2	17.0	0.00e+00	0	37	0	462422016	66	4933
2026-01-19 08:18:30.71	97.63	28.93	-47.9	-50.1	17.0	0.00e+00	0	37	0	464519168	66	4905
2026-01-19 08:18:31.71	97.44	29.08	-48.2	-50.6	16.5	0.00e+00	0	37	0	465567744	66	5195
2026-01-19 08:18:32.72	97.24	29.23	-47.8	-50.0	17.1	0.00e+00	0	37	0	467664896	67	4583
2026-01-19 08:18:33.73	97.04	29.38	-47.8	-49.9	17.2	0.00e+00	0	37	0	469762048	67	4539
2026-01-19 08:18:34.74	96.83	29.53	-47.8	-50.0	17.1	0.00e+00	0	37	0	471859200	67	4552
2026-01-19 08:18:35.75	96.63	29.69	-48.1	-50.4	16.7	0.00e+00	0	37	0	473956352	67	4789
2026-01-19 08:18:36.75	96.42	29.84	-48.2	-50.5	16.6	0.00e+00	0	37	0	476053504	67	4840
2026-01-19 08:18:37.76	96.21	29.99	-48.3	-50.6	16.6	0.00e+00	0	37	0	477102080	67	4892
2026-01-19 08:18:38.77	96.00	30.14	-48.4	-50.7	16.5	0.00e+00	0	37	0	479199232	67	4955
2026-01-19 08:18:39.78	95.79	30.30	-48.7	-51.2	16.0	0.00e+00	0	37	0	481296384	67	5269
2026-01-19 08:18:40.79	95.57	30.45	-48.5	-50.9	16.3	0.00e+00	0	37	0	483393536	67	5044
2026-01-19 08:18:41.80	95.35	30.61	-48.5	-50.9	16.3	0.00e+00	0	37	0	484442112	67	5056
2026-01-19 08:18:42.80	95.14	30.76	-48.5	-50.8	16.5	0.00e+00	0	37	0	486539264	68	4733
2026-01-19 08:18:43.81	94.91	30.92	-48.6	-51.0	16.3	0.00e+00	0	37	0	488636416	68	4832
2026-01-19 08:18:44.82	94.69	31.07	-48.5	-50.8	16.4	0.00e+00	0	37	0	490733568	68	4725
2026-01-19 08:18:45.83	94.46	31.23	-48.2	-50.4	16.8	0.00e+00	0	37	0	492830720	68	4508
2026-01-19 08:18:46.84	94.24	31.38	-48.2	-50.4	16.8	0.00e+00	0	37	0	494927872	68	4542
2026-01-19 08:18:47.84	94.01	31.54	-48.4	-50.7	16.5	0.00e+00	0	37	0	495976448	68	4671
2026-01-19 08:18:48.85	93.77	31.70	-48.4	-50.6	16.7	0.00e+00	0	37	0	498073600	68	4645
2026-01-19 08:18:49.86	93.54	31.85	-48.5	-50.9	16.5	0.00e+00	0	37	0	500170752	68	4787
2026-01-19 08:18:50.87	93.30	32.01	-48.7	-51.2	16.1	0.00e+00	0	37	0	502267904	68	4934
2026-01-19 08:18:51.88	93.06	32.17	-49.0	-51.6	15.6	0.00e+00	0	37	0	504365056	68	5211
2026-01-19 08:18:52.88	92.82	32.32	-49.1	-51.8	15.3	0.00e+00	0	37	0	505413632	68	5312
2026-01-19 08:18:53.89	92.58	32.48	-49.1	-51.8	15.5	0.00e+00	0	37	0	507510784	69	4992
2026-01-19 08:18:54.90	92.33	32.64	-49.1	-51.8	15.4	0.00e+00	0	37	0	509607936	69	5034
2026-01-19 08:18:55.91	92.08	32.80	-48.8	-51.3	16.0	0.00e+00	0	37	0	511705088	69	4736
2026-01-19 08:18:56.91	91.83	32.96	-48.5	-50.9	16.4	0.00e+00	0	37	0	512753664	69	4498
2026-01-19 08:18:57.92	91.58	33.12	-48.6	-51.0	16.3	0.00e+00	0	37	0	514850816	68	4818
2026-01-19 08:18:58.93	91.32	33.27	-48.6	-51.0	16.2	0.00e+00	0	37	0	516947968	68	4865
2026-01-19 08:18:59.94	91.06	33.43	-49.0	-51.7	15.6	0.00e+00	0	37	0	519045120	68	5221
2026-01-19 08:19:00.94	90.80	33.59	-49.3	-52.1	15.0	0.00e+00	0	37	0	521142272	69	5170
2026-01-19 08:19:01.95	90.53	33.75	-49.2	-52.0	15.3	0.00e+00	0	37	0	523239424	69	5119
2026-01-19 08:19:02.96	90.27	33.91	-49.4	-52.2	15.1	0.00e+00	0	37	0	524288000	69	5268
2026-01-19 08:19:03.97	90.00	34.07	-49.4	-52.2	15.2	0.00e+00	0	37	0	526385152	69	5255
2026-01-19 08:19:04.98	89.72	34.23	-49.3	-52.1	15.3	0.00e+00	0	37	0	528482304	69	5169
2026-01-19 08:19:05.99	89.45	34.39	-49.5	-52.3	15.1	0.00e+00	0	37	0	530579456	69	5316
2026-01-19 08:19:06.99	89.17	34.55	-49.2	-51.8	15.5	0.00e+00	0	37	0	532676608	69	5018
2026-01-19 08:19:08.00	88.89	34.71	-48.5	-50.7	16.6	0.00e+00	0	37	0	533725184	68	4700
2026-01-19 08:19:09.01	88.61	34.87	-48.3	-50.4	16.9	0.00e+00	0	37	0	535822336	68	4544
2026-01-19 08:19:10.02	88.32	35.03	-47.9	-49.9	17.3	0.00e+00	0	37	0	537919488	67	4506
2026-01-19 08:19:11.03	88.03	35.19	-47.6	-49.4	17.7	0.00e+00	0	37	0	540016640	67	4278
2026-01-19 08:19:12.03	87.74	35.35	-47.5	-49.4	17.8	0.00e+00	0	37	0	542113792	66	4495
2026-01-19 08:19:13.04	87.45	35.51	-47.3	-49.0	18.1	0.00e+00	0	37	0	543162368	66	4338
2026-01-19 08:19:14.05	87.15	35.67	-47.0	-48.7	18.4	0.00e+00	0	37	0	545259520	65	4441
2026-01-19 08:19:15.06	86.85	35.83	-47.0	-48.7	18.5	0.00e+00	0	37	0	547356672	65	4431
2026-01-19 08:19:16.07	86.55	35.99	-47.2	-49.0	18.2	0.00e+00	0	37	0	549453824	65	4573
2026-01-19 08:19:17.07	86.24	36.15	-47.6	-49.6	17.6	0.00e+00	0	37	0	551550976	65	4893
2026-01-19 08:19:18.08	85.93	36.30	-47.8	-49.8	17.4	0.00e+00	0	37	0	552599552	66	4756
2026-01-19 08:19:19.09	85.62	36.46	-48.4	-50.7	16.6	0.00e+00	0	37	0	554696704	67	4960
2026-01-19 08:19:20.09	85.31	36.62	-48.2	-50.5	16.7	0.00e+00	0	37	0	556793856	67	4861
2026-01-19 08:19:21.10	84.99	36.78	-48.7	-51.2	16.1	0.00e+00	0	37	0	558891008	68	4969
2026-01-19 08:19:22.11	84.66	36.94	-48.6	-51.1	16.2	0.00e+00	0	37	0	560988160	68	4920
2026-01-19 08:19:23.12	84.34	37.10	-48.7	-51.3	16.0	0.00e+00	0	37	0	562036736	68	4993
2026-01-19 08:19:24.12	84.01	37.25	-48.9	-51.6	15.8	0.00e+00	0	37	0	564133888	68	5186
2026-01-19 08:19:25.13	83.68	37.41	-49.1	-51.9	15.6	0.00e+00	0	37	0	566231040	68	5354
2026-01-19 08:19:26.14	83.35	37.57	-49.0	-51.7	15.6	0.00e+00	0	37	0	568328192	68	5256
2026-01-19 08:19:27.15	83.01	37.72	-48.3	-50.4	16.8	0.00e+00	0	37	0	570425344	68	4544
2026-01-19 08:19:28.16	82.67	37.88	-47.8	-49.8	17.4	0.00e+00	0	37	0	571473920	67	4463
2026-01-19 08:19:29.17	82.32	38.04	-47.8	-49.8	17.3	0.00e+00	0	37	0	573571072	67	4460
2026-01-19 08:19:30.17	81.98	38.19	-48.0	-50.1	17.1	0.00e+00	0	37	0	575668224	67	4628
2026-01-19 08:19:31.18	81.62	38.35	-48.5	-50.8	16.4	0.00e+00	0	37	0	577765376	67	5006
2026-01-19 08:19:32.19	81.27	38.50	-49.1	-51.8	15.7	0.00e+00	0	37	0	579862528	68	5281
2026-01-19 08:19:33.20	80.91	38.65	-49.2	-51.9	15.4	0.00e+00	0	37	0	580911104	69	5091
2026-01-19 08:19:34.21	80.55	38.81	-49.5	-52.6	14.7	0.00e+00	0	37	0	583008256	69	5484
2026-01-19 08:19:35.21	80.19	38.96	-49.3	-52.1	15.3	0.00e+00	0	37	0	585105408	69	5215
2026-01-19 08:19:36.22	79.82	39.11	-49.0	-51.7	15.6	0.00e+00	0	37	0	587202560	69	4937
2026-01-19 08:19:37.23	79.45	39.26	-48.3	-50.6	16.7	0.00e+00	0	37	0	589299712	68	4609
2026-01-19 08:19:38.24	79.07	39.41	-47.5	-49.4	17.8	0.00e+00	0	37	0	590348288	67	4273
2026-01-19 08:19:39.25	78.69	39.56	-47.4	-49.2	17.9	0.00e+00	0	37	0	592445440	66	4440
2026-01-19 08:19:40.25	78.31	39.71	-47.8	-49.9	17.4	0.00e+00	0	37	0	594542592	66	4783
2026-01-19 08:19:41.26	77.93	39.86	-48.1	-50.3	16.8	0.00e+00	0	37	0	596639744	66	5032
2026-01-19 08:19:42.27	77.54	40.00	-48.3	-50.6	16.7	0.00e+00	0	37	0	598736896	67	4894
2026-01-19 08:19:43.28	77.14	40.15	-48.1	-50.3	16.9	0.00e+00	0	37	0	599785472	67	4747
2026-01-19 08:19:44.29	76.75	40.29	-47.6	-49.5	17.6	0.00e+00	0	37	0	601882624	67	4334
2026-01-19 08:19:45.30	76.35	40.44	-47.0	-48.8	18.3	0.00e+00	0	37	0	603979776	66	4208
2026-01-19 08:19:46.30	75.95	40.58	-46.7	-48.3	18.8	0.00e+00	0	37	0	606076928	65	4220
2026-01-19 08:19:47.31	75.54	40.72	-46.9	-48.6	18.6	0.00e+00	0	37	0	608174080	65	4370
2026-01-19 08:19:48.32	75.13	40.86	-47.1	-48.9	18.3	0.00e+00	0	37	0	610271232	65	4540
2026-01-19 08:19:49.33	74.71	41.00	-47.4	-49.3	17.9	0.00e+00	0	37	0	611319808	65	4729
2026-01-19 08:19:50.33	74.30	41.14	-47.7	-49.7	17.6	0.00e+00	0	37	0	613416960	65	4967
2026-01-19 08:19:51.34	73.88	41.28	-47.4	-49.3	17.9	0.00e+00	0	37	0	615514112	65	4741
2026-01-19 08:19:52.35	73.45	41.41	-47.5	-49.4	17.7	0.00e+00	0	37	0	617611264	65	4806
2026-01-19 08:19:53.36	73.02	41.55	-46.9	-48.7	18.4	0.00e+00	0	37	0	619708416	65	4426
2026-01-19 08:19:54.37	72.59	41.68	-46.7	-48.4	18.8	0.00e+00	0	37	0	620756992	65	4265
2026-01-19 08:19:55.37	72.16	41.81	-46.4	-48.0	19.1	0.00e+00	0	37	0	622854144	64	4318
2026-01-19 08:19:56.38	71.72	41.95	-47.0	-48.8	18.4	0.00e+00	0	37	0	624951296	65	4473
2026-01-19 08:19:57.39	71.27	42.07	-47.1	-48.9	18.2	0.00e+00	0	37	0	627048448	65	4544
2026-01-19 08:19:58.40	70.83	42.20	-46.9	-48.7	18.5	0.00e+00	0	37	0	628097024	65	4417
2026-01-19 08:19:59.41	70.38	42.33	-46.1	-47.7	19.4	0.00e+00	0	37	0	630194176	64	4167
2026-01-19 08:20:00.41	69.93	42.45	-46.0	-47.5	19.7	0.00e+00	0	37	0	632291328	63	4296
2026-01-19 08:20:01.42	69.47	42.58	-46.2	-47.8	19.3	0.00e+00	0	37	0	634388480	63	4484
2026-01-19 08:20:02.43	69.01	42.70	-46.0	-47.6	19.6	0.00e+00	0	37	0	636485632	63	4374
2026-01-19 08:20:03.43	68.55	42.81	-46.1	-47.7	19.4	0.00e+00	0	37	0	638582784	63	4431
2026-01-19 08:20:04.44	68.08	42.93	-46.1	-47.6	19.5	0.00e+00	0	37	0	639631360	63	4373
2026-01-19 08:20:05.45	67.61	43.05	-46.3	-48.0	19.2	0.00e+00	0	37	0	641728512	63	4552
2026-01-19 08:20:06.46	67.13	43.16	-46.3	-47.9	19.3	0.00e+00	0	37	0	643825664	63	4513
2026-01-19 08:20:07.46	66.66	43.27	-46.6	-48.4	18.9	0.00e+00	0	37	0	645922816	63	4770
2026-01-19 08:20:08.47	66.18	43.38	-46.8	-48.6	18.5	0.00e+00	0	37	0	648019968	64	4637
2026-01-19 08:20:09.48	65.69	43.49	-47.3	-49.3	17.9	0.00e+00	0	37	0	649068544	65	4707
2026-01-19 08:20:10.49	65.21	43.60	-47.2	-49.2	17.9	0.00e+00	0	37	0	651165696	65	4659
2026-01-19 08:20:11.50	64.71	43.70	-46.9	-48.8	18.3	0.00e+00	0	37	0	653262848	65	4453
2026-01-19 08:20:12.50	64.23	43.81	-47.3	-49.2	17.9	0.00e+00	0	37	0	655360000	65	4683
2026-01-19 08:20:13.51	63.73	43.91	-47.6	-49.7	17.4	0.00e+00	0	37	0	656408576	66	4701
2026-01-19 08:20:14.52	63.23	44.00	-48.1	-50.5	16.8	0.00e+00	0	37	0	658505728	67	4826
2026-01-19 08:20:15.53	62.72	44.10	-47.8	-49.9	17.5	0.00e+00	0	37	0	660602880	67	4536
2026-01-19 08:20:16.54	62.22	44.19	-47.4	-49.4	17.8	0.00e+00	0	37	0	662700032	66	4495
2026-01-19 08:20:17.55	61.71	44.28	-47.3	-49.1	18.1	0.00e+00	0	37	0	664797184	66	4387
2026-01-19 08:20:18.55	61.20	44.37	-46.4	-48.0	19.1	0.00e+00	0	37	0	666894336	64	4313
2026-01-19 08:20:19.56	60.68	44.46	-46.6	-48.2	18.9	0.00e+00	0	37	0	667942912	64	4441
2026-01-19 08:20:20.56	60.17	44.54	-46.8	-48.5	18.8	0.00e+00	0	37	0	670040064	64	4556
2026-01-19 08:20:21.57	59.65	44.62	-47.1	-48.9	18.3	0.00e+00	0	37	0	672137216	65	4535
2026-01-19 08:20:22.58	59.13	44.70	-46.9	-48.6	18.6	0.00e+00	0	37	0	674234368	65	4388
2026-01-19 08:20:23.59	58.60	44.78	-46.6	-48.2	19.2	0.00e+00	0	37	0	676331520	64	4403
2026-01-19 08:20:24.59	58.08	44.85	-47.1	-48.9	18.3	0.00e+00	0	37	0	677380096	64	4783
2026-01-19 08:20:25.60	57.55	44.92	-47.8	-49.8	17.4	0.00e+00	0	37	0	679477248	66	4738
2026-01-19 08:20:26.61	57.01	44.99	-48.3	-50.7	16.6	0.00e+00	0	37	0	681574400	67	4939
2026-01-19 08:20:27.62	56.48	45.06	-48.8	-51.4	16.0	0.00e+00	0	37	0	683671552	68	5042
2026-01-19 08:20:28.63	55.94	45.12	-48.4	-50.7	16.7	0.00e+00	0	37	0	685768704	68	4663
2026-01-19 08:20:29.63	55.40	45.18	-47.8	-49.9	17.3	0.00e+00	0	37	0	686817280	67	4520
2026-01-19 08:20:30.64	54.86	45.24	-47.5	-49.5	17.7	0.00e+00	0	37	0	688914432	67	4324
2026-01-19 08:20:31.65	54.32	45.29	-47.2	-49.1	18.2	0.00e+00	0	37	0	691011584	66	4356
2026-01-19 08:20:32.65	53.78	45.35	-46.9	-48.7	18.5	0.00e+00	0	37	0	693108736	65	4416
2026-01-19 08:20:33.66	53.23	45.40	-46.9	-48.6	18.6	0.00e+00	0	37	0	695205888	65	4368
2026-01-19 08:20:34.67	52.68	45.44	-46.6	-48.3	18.9	0.00e+00	0	37	0	696254464	65	4217
2026-01-19 08:20:35.68	52.13	45.49	-47.0	-48.8	18.4	0.00e+00	0	37	0	698351616	65	4471
2026-01-19 08:20:36.68	51.58	45.53	-47.8	-49.9	17.4	0.00e+00	0	37	0	700448768	66	4786
2026-01-19 08:20:37.69	51.03	45.57	-48.3	-50.7	16.6	0.00e+00	0	37	0	702545920	67	4930
2026-01-19 08:20:38.70	50.48	45.60	-48.6	-51.3	16.1	0.00e+00	0	37	0	704643072	68	4984
2026-01-19 08:20:39.71	49.92	45.63	-48.5	-51.1	16.3	0.00e+00	0	37	0	705691648	68	4897
2026-01-19 08:20:40.72	49.36	45.66	-48.3	-50.7	16.7	0.00e+00	0	37	0	707788800	68	4667
2026-01-19 08:20:41.73	48.80	45.69	-48.4	-50.9	16.5	0.00e+00	0	37	0	709885952	68	4760
2026-01-19 08:20:42.74	48.25	45.71	-47.9	-50.2	17.1	0.00e+00	0	37	0	711983104	67	4667
2026-01-19 08:20:43.75	47.69	45.73	-47.7	-49.8	17.4	0.00e+00	0	37	0	714080256	67	4478
2026-01-19 08:20:44.75	47.13	45.75	-48.0	-50.3	16.9	0.00e+00	0	37	0	715128832	67	4747
2026-01-19 08:20:45.76	46.57	45.76	-47.7	-49.9	17.3	0.00e+00	0	37	0	717225984	67	4511
2026-01-19 08:20:46.77	46.01	45.77	-47.7	-49.9	17.4	0.00e+00	0	37	0	719323136	67	4512
2026-01-19 08:20:47.78	45.45	45.78	-47.7	-49.8	17.3	0.00e+00	0	37	0	721420288	67	4492
2026-01-19 08:20:48.79	44.89	45.79	-48.3	-50.7	16.6	0.00e+00	0	37	0	723517440	67	4949
2026-01-19 08:20:49.79	44.33	45.79	-47.5	-49.6	17.5	0.00e+00	0	37	0	724566016	67	4342
2026-01-19 08:20:50.80	43.77	45.79	-46.5	-48.2	18.9	0.00e+00	0	37	0	726663168	65	4151
2026-01-19 08:20:51.81	43.21	45.78	-46.1	-47.7	19.4	0.00e+00	0	37	0	728760320	64	4161
2026-01-19 08:20:52.82	42.64	45.78	-46.4	-48.0	19.1	0.00e+00	0	37	0	730857472	64	4326
2026-01-19 08:20:53.83	42.08	45.77	-47.0	-48.8	18.4	0.00e+00	0	37	0	732954624	64	4746
2026-01-19 08:20:54.83	41.53	45.75	-47.3	-49.3	17.8	0.00e+00	0	37	0	734003200	65	4752
2026-01-19 08:20:55.84	40.97	45.74	-47.6	-49.7	17.4	0.00e+00	0	37	0	736100352	66	4699
2026-01-19 08:20:56.85	40.41	45.72	-47.6	-49.7	17.5	0.00e+00	0	37	0	738197504	66	4705
2026-01-19 08:20:57.86	39.85	45.69	-47.5	-49.5	17.5	0.00e+00	0	37	0	740294656	66	4598
2026-01-19 08:20:58.87	39.29	45.67	-47.4	-49.4	17.7	0.00e+00	0	37	0	742391808	66	4542
2026-01-19 08:20:59.87	38.74	45.64	-47.4	-49.5	17.7	0.00e+00	0	37	0	743440384	66	4546
2026-01-19 08:21:00.88	38.18	45.61	-47.3	-49.3	18.1	0.00e+00	0	37	0	745537536	66	4483
2026-01-19 08:21:01.89	37.63	45.58	-47.1	-48.9	18.2	0.00e+00	0	37	0	747634688	66	4289
2026-01-19 08:21:02.90	37.07	45.54	-47.5	-49.6	17.5	0.00e+00	0	37	0	749731840	65	4893
2026-01-19 08:21:03.90	36.53	45.50	-48.2	-50.6	16.6	0.00e+00	0	37	0	751828992	67	4915
2026-01-19 08:21:04.91	35.98	45.46	-48.4	-50.9	16.4	0.00e+00	0	37	0	752877568	67	5061
2026-01-19 08:21:05.92	35.43	45.41	-48.1	-50.5	16.8	0.00e+00	0	37	0	754974720	67	4829
2026-01-19 08:21:06.93	34.88	45.36	-48.1	-50.5	16.7	0.00e+00	0	37	0	757071872	67	4844
2026-01-19 08:21:07.94	34.33	45.31	-47.5	-49.5	17.6	0.00e+00	0	37	0	759169024	67	4332
2026-01-19 08:21:08.95	33.79	45.26	-46.7	-48.5	18.8	0.00e+00	0	37	0	761266176	65	4293
2026-01-19 08:21:09.95	33.25	45.20	-46.4	-48.1	19.0	0.00e+00	0	37	0	762314752	64	4358
2026-01-19 08:21:10.96	32.71	45.14	-47.2	-49.1	18.1	0.00e+00	0	37	0	764411904	65	4640
2026-01-19 08:21:11.97	32.17	45.08	-47.6	-49.6	17.7	0.00e+00	0	37	0	766509056	66	4610
2026-01-19 08:21:12.98	31.64	45.01	-47.6	-49.7	17.5	0.00e+00	0	37	0	768606208	66	4662
2026-01-19 08:21:13.98	31.11	44.94	-47.0	-48.9	18.2	0.00e+00	0	37	0	770703360	65	4500
2026-01-19 08:21:14.99	30.58	44.87	-46.7	-48.5	18.7	0.00e+00	0	37	0	771751936	65	4292
2026-01-19 08:21:16.00	30.05	44.80	-47.1	-49.1	18.1	0.00e+00	0	37	0	773849088	65	4599
2026-01-19 08:21:17.01	29.52	44.72	-47.4	-49.5	17.7	0.00e+00	0	37	0	775946240	65	4835
2026-01-19 08:21:18.02	29.00	44.65	-47.4	-49.5	17.6	0.00e+00	0	37	0	778043392	65	4815
2026-01-19 08:21:19.02	28.48	44.57	-47.6	-49.8	17.3	0.00e+00	0	37	0	780140544	65	5018
2026-01-19 08:21:20.03	27.97	44.48	-47.4	-49.4	17.7	0.00e+00	0	37	0	782237696	65	4806
2026-01-19 08:21:21.04	27.45	44.40	-47.9	-50.3	17.0	0.00e+00	0	37	0	783286272	66	4986
2026-01-19 08:21:22.05	26.94	44.31	-47.8	-50.0	17.2	0.00e+00	0	37	0	785383424	66	4860
2026-01-19 08:21:23.05	26.43	44.22	-47.8	-50.0	17.1	0.00e+00	0	37	0	787480576	66	4823
2026-01-19 08:21:24.06	25.92	44.13	-47.4	-49.4	17.8	0.00e+00	0	37	0	789577728	66	4512
2026-01-19 08:21:25.07	25.42	44.03	-47.5	-49.6	17.6	0.00e+00	0	37	0	790626304	66	4631
2026-01-19 08:21:26.08	24.92	43.94	-47.8	-50.0	17.1	0.00e+00	0	37	0	792723456	66	4843
2026-01-19 08:21:27.09	24.42	43.84	-47.1	-48.9	18.3	0.00e+00	0	37	0	794820608	66	4249
2026-01-19 08:21:28.09	23.93	43.74	-46.4	-48.0	19.1	0.00e+00	0	37	0	796917760	64	4308
2026-01-19 08:21:29.10	23.44	43.63	-46.2	-47.8	19.3	0.00e+00	0	37	0	799014912	64	4210
2026-01-19 08:21:30.11	22.95	43.53	-46.2	-47.8	19.4	0.00e+00	0	37	0	800063488	63	4451
2026-01-19 08:21:31.12	22.47	43.42	-46.6	-48.4	18.8	0.00e+00	0	37	0	802160640	64	4495
2026-01-19 08:21:32.13	21.98	43.31	-47.2	-49.2	18.0	0.00e+00	0	37	0	804257792	64	4944
2026-01-19 08:21:33.13	21.51	43.20	-47.7	-49.9	17.4	0.00e+00	0	37	0	806354944	66	4778
2026-01-19 08:21:34.14	21.04	43.09	-47.1	-49.0	18.2	0.00e+00	0	37	0	808452096	66	4293
2026-01-19 08:21:35.15	20.56	42.97	-46.4	-48.0	19.2	0.00e+00	0	37	0	810549248	64	4317
2026-01-19 08:21:36.16	20.10	42.85	-46.0	-47.5	19.6	0.00e+00	0	37	0	811597824	64	4094
2026-01-19 08:21:37.16	19.64	42.73	-46.6	-48.3	18.9	0.00e+00	0	37	0	813694976	64	4479
2026-01-19 08:21:38.17	19.17	42.61	-46.7	-48.5	18.6	0.00e+00	0	37	0	815792128	64	4564
2026-01-19 08:21:39.18	18.72	42.49	-46.1	-47.7	19.4	0.00e+00	0	37	0	817889280	64	4176
2026-01-19 08:21:40.19	18.26	42.37	-45.6	-47.1	20.2	0.00e+00	0	37	0	818937856	63	4109
2026-01-19 08:21:41.19	17.82	42.24	-45.5	-46.9	20.3	0.00e+00	0	37	0	821035008	62	4271
2026-01-19 08:21:42.20	17.37	42.12	-45.3	-46.6	20.5	0.00e+00	0	37	0	823132160	62	4145
2026-01-19 08:21:43.21	16.92	41.99	-45.0	-46.3	20.8	0.00e+00	0	37	0	825229312	62	3962
2026-01-19 08:21:44.22	16.48	41.86	-44.5	-45.7	21.3	0.00e+00	0	37	0	827326464	60	4155
2026-01-19 08:21:45.22	16.05	41.73	-44.5	-45.7	21.4	0.00e+00	0	37	0	829423616	60	4156
2026-01-19 08:21:46.23	15.62	41.59	-44.2	-45.4	21.9	0.00e+00	0	37	0	830472192	59	4243
2026-01-19 08:21:47.24	15.19	41.46	-44.1	-45.3	22.0	0.00e+00	0	37	0	832569344	59	4201
2026-01-19 08:21:48.25	14.76	41.32	-44.3	-45.5	21.8	0.00e+00	0	37	0	834666496	59	4299
2026-01-19 08:21:49.26	14.34	41.19	-44.3	-45.5	21.5	0.00e+00	0	37	0	836763648	60	4072
2026-01-19 08:21:50.27	13.92	41.05	-44.6	-45.9	21.2	0.00e+00	0	37	0	838860800	60	4246
2026-01-19 08:21:51.27	13.51	40.91	-44.4	-45.5	21.4	0.00e+00	0	37	0	839909376	60	4098
2026-01-19 08:21:52.28	13.10	40.77	-44.0	-45.2	21.8	0.00e+00	0	37	0	842006528	60	3925
2026-01-19 08:21:53.29	12.69	40.63	-44.5	-45.7	21.3	0.00e+00	0	37	0	844103680	60	4190
2026-01-19 08:21:54.30	12.29	40.49	-44.9	-46.1	21.0	0.00e+00	0	37	0	846200832	60	4386
2026-01-19 08:21:55.31	11.89	40.34	-44.9	-46.2	20.9	0.00e+00	0	37	0	847249408	60	4410
2026-01-19 08:21:56.31	11.49	40.20	-45.2	-46.5	20.6	0.00e+00	0	37	0	849346560	61	4338
2026-01-19 08:21:57.32	11.10	40.05	-46.3	-47.9	19.5	0.00e+00	0	37	0	851443712	63	4517
2026-01-19 08:21:58.33	10.71	39.91	-47.0	-48.8	18.5	0.00e+00	0	37	0	853540864	64	4734
2026-01-19 08:21:59.34	10.32	39.76	-46.5	-48.1	19.1	0.00e+00	0	37	0	855638016	64	4388
2026-01-19 08:22:00.35	9.94	39.61	-46.0	-47.5	19.8	0.00e+00	0	37	0	857735168	63	4292
2026-01-19 08:22:01.35	9.57	39.47	-45.9	-47.3	19.9	0.00e+00	0	37	0	858783744	63	4223
2026-01-19 08:22:02.36	9.19	39.32	-45.7	-47.1	20.2	0.00e+00	0	37	0	860880896	63	4111
2026-01-19 08:22:03.37	8.82	39.16	-46.2	-47.7	19.7	0.00e+00	0	37	0	862978048	63	4395
2026-01-19 08:22:04.38	8.45	39.01	-46.2	-47.7	19.6	0.00e+00	0	37	0	865075200	63	4427
2026-01-19 08:22:05.38	8.09	38.86	-46.4	-47.9	19.4	0.00e+00	0	37	0	867172352	63	4516
2026-01-19 08:22:06.39	7.72	38.71	-46.7	-48.4	18.9	0.00e+00	0	37	0	868220928	64	4515
2026-01-19 08:22:07.40	7.37	38.56	-46.7	-48.4	18.9	0.00e+00	0	37	0	870318080	64	4533
2026-01-19 08:22:08.41	7.01	38.40	-46.0	-47.5	19.6	0.00e+00	0	37	0	872415232	64	4085
2026-01-19 08:22:09.42	6.66	38.25	-45.7	-47.1	20.2	0.00e+00	0	37	0	874512384	63	4104
2026-01-19 08:22:10.43	6.31	38.09	-46.6	-48.2	19.2	0.00e+00	0	37	0	876609536	63	4661
2026-01-19 08:22:11.43	5.97	37.94	-46.8	-48.5	18.5	0.00e+00	0	37	0	877658112	64	4548
2026-01-19 08:22:12.44	5.63	37.78	-47.2	-48.9	18.3	0.00e+00	0	37	0	879755264	65	4531
2026-01-19 08:22:13.45	5.29	37.63	-46.5	-48.0	19.3	0.00e+00	0	37	0	881852416	65	4086
2026-01-19 08:22:14.46	4.95	37.47	-46.3	-47.8	19.5	0.00e+00	0	37	0	883949568	64	4211
2026-01-19 08:22:15.47	4.62	37.32	-46.1	-47.5	19.7	0.00e+00	0	37	0	886046720	64	4079
2026-01-19 08:22:16.47	4.29	37.16	-46.3	-47.8	19.6	0.00e+00	0	37	0	887095296	63	4455
2026-01-19 08:22:17.48	3.97	37.00	-46.5	-48.0	19.4	0.00e+00	0	37	0	889192448	63	4568
2026-01-19 08:22:18.49	3.65	36.84	-46.9	-48.5	18.7	0.00e+00	0	37	0	891289600	64	4591
2026-01-19 08:22:19.50	3.33	36.69	-47.5	-49.4	17.9	0.00e+00	0	37	0	893386752	65	4784
2026-01-19 08:22:20.51	3.01	36.53	-48.7	-51.0	16.4	0.00e+00	0	37	0	895483904	67	5139
2026-01-19 08:22:21.51	2.70	36.37	-48.8	-51.2	16.3	0.00e+00	0	37	0	896532480	68	4936
2026-01-19 08:22:22.52	2.39	36.21	-48.4	-50.6	16.9	0.00e+00	0	37	0	898629632	68	4613
2026-01-19 08:22:23.53	2.08	36.05	-47.8	-49.8	17.5	0.00e+00	0	37	0	900726784	67	4444
2026-01-19 08:22:24.54	1.78	35.89	-47.8	-49.7	17.6	0.00e+00	0	37	0	902823936	66	4669
2026-01-19 08:22:25.54	1.48	35.74	-48.6	-50.9	16.4	0.00e+00	0	37	0	904921088	67	5099
2026-01-19 08:22:26.55	1.18	35.58	-48.8	-51.3	16.2	0.00e+00	0	37	0	905969664	68	4994
2026-01-19 08:22:27.56	0.89	35.42	-49.1	-51.6	15.9	0.00e+00	0	37	0	908066816	68	5195
2026-01-19 08:22:28.56	0.60	35.26	-49.0	-51.5	15.9	0.00e+00	0	37	0	910163968	68	5148
2026-01-19 08:22:29.57	0.31	35.10	-49.8	-52.9	14.6	0.00e+00	0	37	0	912261120	70	5364
2026-01-19 08:22:30.58	0.02	34.94	-49.8	-52.9	14.6	0.00e+00	0	37	0	914358272	70	5354
2026-01-19 08:22:31.59	359.74	34.78	-49.9	-53.0	14.2	7.00e-07	0	37	0	915406848	70	5454
2026-01-19 08:22:32.59	359.46	34.62	-48.8	-51.1	16.4	0.00e+00	0	37	0	917504000	69	4608
2026-01-19 08:22:33.60	359.18	34.46	-48.1	-50.1	17.3	0.00e+00	0	37	0	919601152	68	4358
2026-01-19 08:22:34.61	358.90	34.30	-48.1	-50.1	17.3	0.00e+00	0	37	0	921698304	67	4610
2026-01-19 08:22:35.62	358.63	34.14	-49.4	-52.1	15.4	0.00e+00	0	37	0	923795456	69	5197
2026-01-19 08:22:36.63	358.36	33.98	-50.4	-54.0	13.5	7.00e-07	0	37	0	925892608	71	5735
2026-01-19 08:22:37.63	358.10	33.83	-50.6	-54.2	13.1	2.44e-05	0	37	0	926941184	72	5580
2026-01-19 08:22:38.64	357.83	33.67	-50.4	-53.8	13.5	9.90e-06	0	37	0	929038336	72	5331
2026-01-19 08:22:39.65	357.57	33.51	-50.5	-54.1	13.4	0.00e+00	0	37	0	931135488	71	5801
2026-01-19 08:22:40.66	357.31	33.35	-49.9	-52.9	14.5	7.00e-07	0	37	0	933232640	71	5074
2026-01-19 08:22:41.67	357.05	33.19	-49.7	-52.6	14.8	0.00e+00	0	37	0	934281216	71	4897
2026-01-19 08:22:42.67	356.80	33.03	-49.5	-52.2	15.3	0.00e+00	0	37	0	936378368	70	4970
2026-01-19 08:22:43.68	356.55	32.87	-49.4	-52.1	15.4	0.00e+00	0	37	0	938475520	70	4881
2026-01-19 08:22:44.69	356.30	32.72	-49.4	-52.1	15.3	0.00e+00	0	37	0	940572672	70	4922
2026-01-19 08:22:45.70	356.05	32.56	-49.1	-51.6	15.8	0.00e+00	0	37	0	942669824	69	4921
2026-01-19 08:22:46.70	355.81	32.40	-48.7	-51.0	16.4	0.00e+00	0	37	0	943718400	69	4582
2026-01-19 08:22:47.71	355.57	32.24	-48.8	-51.1	16.3	0.00e+00	0	37	0	945815552	69	4641
2026-01-19 08:22:48.72	355.33	32.09	-48.4	-50.5	16.9	0.00e+00	0	37	0	947912704	68	4581
2026-01-19 08:22:49.73	355.09	31.93	-47.8	-49.7	17.6	0.00e+00	0	37	0	950009856	67	4404
2026-01-19 08:22:50.73	354.86	31.78	-47.8	-49.8	17.5	0.00e+00	0	37	0	952107008	67	4463
2026-01-19 08:22:51.74	354.62	31.62	-48.4	-50.7	16.6	0.00e+00	0	37	0	953155584	67	4947
2026-01-19 08:22:52.75	354.39	31.46	-49.1	-51.7	15.7	0.00e+00	0	37	0	955252736	68	5229
2026-01-19 08:22:53.76	354.16	31.31	-49.8	-52.9	14.6	0.00e+00	0	37	0	957349888	70	5388
2026-01-19 08:22:54.77	353.94	31.15	-50.0	-53.1	14.3	0.00e+00	0	37	0	959447040	70	5520
2026-01-19 08:22:55.77	353.71	31.00	-49.2	-51.8	15.7	0.00e+00	0	37	0	961544192	70	4745
2026-01-19 08:22:56.78	353.49	30.84	-48.9	-51.3	16.0	0.00e+00	0	37	0	962592768	69	4750
2026-01-19 08:22:57.79	353.27	30.69	-48.7	-51.1	16.3	0.00e+00	0	37	0	964689920	69	4610
2026-01-19 08:22:58.80	353.05	30.53	-48.8	-51.2	16.3	0.00e+00	0	37	0	966787072	69	4658
2026-01-19 08:22:59.81	352.84	30.38	-48.9	-51.3	16.1	0.00e+00	0	37	0	968884224	69	4716
2026-01-19 08:23:00.81	352.63	30.23	-49.1	-51.6	15.8	0.00e+00	0	37	0	970981376	69	4889
2026-01-19 08:23:01.82	352.42	30.08	-48.7	-51.0	16.4	0.00e+00	0	37	0	972029952	69	4546
2026-01-19 08:23:02.83	352.21	29.92	-48.4	-50.6	16.9	0.00e+00	0	37	0	974127104	68	4610
2026-01-19 08:23:03.84	352.00	29.77	-47.7	-49.5	17.7	0.00e+00	0	37	0	976224256	67	4337
2026-01-19 08:23:04.85	351.79	29.62	-47.6	-49.4	17.8	0.00e+00	0	37	0	978321408	67	4281
2026-01-19 08:23:05.85	351.59	29.47	-47.7	-49.6	17.6	0.00e+00	0	37	0	980418560	67	4387
2026-01-19 08:23:06.86	351.39	29.32	-48.2	-50.3	17.0	0.00e+00	0	37	0	982515712	67	4726
2026-01-19 08:23:07.87	351.19	29.17	-48.1	-50.2	17.0	0.00e+00	0	37	0	983564288	67	4667
2026-01-19 08:23:08.88	350.99	29.02	-48.2	-50.3	17.0	0.00e+00	0	37	0	985661440	67	4739
2026-01-19 08:23:09.88	350.80	28.87	-48.0	-50.0	17.2	0.00e+00	0	37	0	987758592	67	4579
2026-01-19 08:23:10.89	350.60	28.72	-47.8	-49.8	17.5	0.00e+00	0	37	0	989855744	67	4452
2026-01-19 08:23:11.90	350.41	28.57	-47.6	-49.5	17.6	0.00e+00	0	37	0	990904320	67	4325
2026-01-19 08:23:12.91	350.22	28.42	-47.4	-49.3	17.9	0.00e+00	0	37	0	993001472	66	4456
2026-01-19 08:23:13.92	350.03	28.27	-47.1	-48.7	18.4	0.00e+00	0	37	0	995098624	66	4191
2026-01-19 08:23:14.93	349.85	28.12	-46.6	-48.1	19.0	0.00e+00	0	37	0	997195776	64	4385
2026-01-19 08:23:15.94	349.66	27.98	-46.8	-48.4	18.7	0.00e+00	0	37	0	999292928	64	4516
2026-01-19 08:23:16.95	349.48	27.83	-47.3	-49.0	18.1	0.00e+00	0	37	0	1001390080	65	4596
2026-01-19 08:23:17.95	349.30	27.69	-47.8	-49.8	17.4	0.00e+00	0	37	0	1002438656	66	4706
2026-01-19 08:23:18.96	349.12	27.54	-48.1	-50.2	17.1	0.00e+00	0	37	0	1004535808	66	4927
2026-01-19 08:23:19.97	348.94	27.39	-49.1	-51.8	15.5	0.00e+00	0	37	0	1006632960	68	5303
2026-01-19 08:23:20.98	348.76	27.25	-49.1	-51.7	15.6	0.00e+00	0	37	0	1008730112	68	5274
2026-01-19 08:23:21.98	348.59	27.11	-49.0	-51.5	15.9	0.00e+00	0	37	0	1010827264	68	5138
2026-01-19 08:23:22.99	348.41	26.96	-48.6	-51.0	16.3	0.00e+00	0	37	0	1011875840	68	4839
2026-01-19 08:23:24.00	348.24	26.82	-48.3	-50.5	16.7	0.00e+00	0	37	0	1013972992	68	4594
2026-01-19 08:23:25.01	348.07	26.68	-47.6	-49.6	17.6	0.00e+00	0	37	0	1016070144	67	4344
2026-01-19 08:23:26.02	347.90	26.53	-47.5	-49.4	17.8	0.00e+00	0	37	0	1018167296	66	4508
2026-01-19 08:23:27.02	347.74	26.39	-47.1	-48.8	18.3	0.00e+00	0	37	0	1020264448	66	4234
2026-01-19 08:23:28.03	347.57	26.25	-47.2	-49.0	18.1	0.00e+00	0	37	0	1021313024	65	4568
2026-01-19 08:23:29.04	347.41	26.11	-47.2	-49.0	18.1	0.00e+00	0	37	0	1023410176	65	4588
2026-01-19 08:23:30.05	347.24	25.97	-47.4	-49.2	17.9	0.00e+00	0	37	0	1025507328	65	4697
2026-01-19 08:23:31.06	347.08	25.83	-47.7	-49.7	17.5	0.00e+00	0	37	0	1027604480	66	4691
2026-01-19 08:23:32.07	346.92	25.69	-48.0	-50.1	17.1	0.00e+00	0	37	0	1029701632	66	4906
2026-01-19 08:23:33.08	346.76	25.55	-48.1	-50.3	16.9	0.00e+00	0	37	0	1030750208	66	5014
2026-01-19 08:23:34.09	346.61	25.41	-48.0	-50.1	17.0	0.00e+00	0	37	0	1032847360	66	4905
2026-01-19 08:23:35.09	346.45	25.27	-47.9	-49.9	17.3	0.00e+00	0	37	0	1034944512	66	4791
2026-01-19 08:23:36.10	346.30	25.13	-47.7	-49.7	17.4	0.00e+00	0	37	0	1037041664	66	4672
2026-01-19 08:23:37.10	346.15	25.00	-47.8	-49.9	17.2	0.00e+00	0	37	0	1039138816	66	4775
2026-01-19 08:23:38.11	346.00	24.86	-47.9	-50.0	17.1	0.00e+00	0	37	0	1040187392	66	4860
2026-01-19 08:23:39.12	345.85	24.73	-48.3	-50.5	16.6	0.00e+00	0	37	0	1042284544	67	4852
2026-01-19 08:23:40.13	345.70	24.59	-48.5	-50.9	16.3	0.00e+00	0	37	0	1044381696	67	5084
2026-01-19 08:23:41.14	345.55	24.45	-49.0	-51.7	15.7	0.00e+00	0	37	0	1046478848	68	5228
2026-01-19 08:23:42.15	345.40	24.32	-49.4	-52.2	15.1	0.00e+00	0	37	0	1048576000	69	5250
2026-01-19 08:23:43.15	345.26	24.19	-49.0	-51.5	15.7	0.00e+00	0	37	0	1049624576	69	4864
2026-01-19 08:23:44.16	345.12	24.05	-48.7	-51.1	16.2	0.00e+00	0	37	0	1051721728	69	4613
2026-01-19 08:23:45.17	344.97	23.92	-48.2	-50.4	16.8	0.00e+00	0	37	0	1053818880	68	4514
2026-01-19 08:23:46.18	344.83	23.79	-47.8	-49.8	17.4	0.00e+00	0	37	0	1055916032	67	4472
2026-01-19 08:23:47.19	344.69	23.65	-47.6	-49.5	17.6	0.00e+00	0	37	0	1058013184	66	4591
2026-01-19 08:23:48.20	344.55	23.52	-47.4	-49.3	17.9	0.00e+00	0	37	0	1059061760	66	4452
2026-01-19 08:23:49.21	344.41	23.39	-47.3	-49.1	18.0	0.00e+00	0	37	0	1061158912	66	4376
2026-01-19 08:23:50.22	344.28	23.26	-47.4	-49.3	17.8	0.00e+00	0	37	0	1063256064	66	4453
2026-01-19 08:23:51.23	344.14	23.13	-47.4	-49.3	17.9	0.00e+00	0	37	0	1065353216	66	4460
2026-01-19 08:23:52.23	344.01	23.00	-47.4	-49.3	17.9	0.00e+00	0	37	0	1067450368	66	4444
2026-01-19 08:23:53.24	343.88	22.87	-47.4	-49.3	17.8	0.00e+00	0	37	0	1068498944	66	4464
2026-01-19 08:23:54.25	343.75	22.74	-47.3	-49.2	18.0	0.00e+00	0	37	0	1070596096	66	4397
2026-01-19 08:23:55.26	343.61	22.61	-47.4	-49.3	17.8	0.00e+00	0	37	0	1072693248	66	4484
2026-01-19 08:23:56.27	343.48	22.48	-47.4	-49.4	17.8	0.00e+00	0	37	0	1074790400	66	4498
2026-01-19 08:23:57.28	343.36	22.36	-47.3	-49.2	17.9	0.00e+00	0	37	0	1076887552	66	4416
2026-01-19 08:23:58.29	343.23	22.23	-47.4	-49.3	17.8	0.00e+00	0	37	0	1077936128	66	4465
2026-01-19 08:23:59.29	343.10	22.10	-47.4	-49.4	17.7	0.00e+00	0	37	0	1080033280	66	4511
2026-01-19 08:24:00.30	342.98	21.98	-47.2	-49.0	18.1	0.00e+00	0	37	0	1082130432	66	4335
2026-01-19 08:24:01.31	342.85	21.85	-47.3	-49.1	18.0	0.00e+00	0	37	0	1084227584	66	4383
2026-01-19 08:24:02.32	342.73	21.73	-47.0	-48.7	18.4	0.00e+00	0	37	0	1086324736	65	4423
2026-01-19 08:24:03.33	342.61	21.60	-46.6	-48.3	18.7	0.00e+00	0	37	0	1088421888	65	4217
2026-01-19 08:24:04.33	342.49	21.48	-46.7	-48.3	18.7	0.00e+00	0	37	0	1089470464	65	4236
2026-01-19 08:24:05.34	342.37	21.35	-46.9	-48.6	18.5	0.00e+00	0	37	0	1091567616	65	4359
2026-01-19 08:24:06.35	342.25	21.23	-46.8	-48.4	18.6	0.00e+00	0	37	0	1093664768	65	4281
2026-01-19 08:24:07.36	342.13	21.11	-46.9	-48.6	18.4	0.00e+00	0	37	0	1095761920	65	4357
2026-01-19 08:24:08.37	342.01	20.98	-47.3	-49.2	17.9	0.00e+00	0	37	0	1096810496	65	4662
2026-01-19 08:24:09.37	341.90	20.86	-47.8	-49.8	17.3	0.00e+00	0	37	0	1098907648	66	4743
2026-01-19 08:24:10.38	341.78	20.74	-48.2	-50.5	16.7	0.00e+00	0	37	0	1101004800	67	4821
2026-01-19 08:24:11.39	341.67	20.62	-48.6	-51.1	16.1	0.00e+00	0	37	0	1103101952	67	5181
2026-01-19 08:24:12.40	341.55	20.50	-48.9	-51.4	15.8	0.00e+00	0	37	0	1105199104	68	5077
2026-01-19 08:24:13.40	341.44	20.38	-48.9	-51.5	15.8	0.00e+00	0	37	0	1106247680	68	5112
2026-01-19 08:24:14.41	341.33	20.26	-48.9	-51.4	15.8	0.00e+00	0	37	0	1108344832	68	5087
2026-01-19 08:24:15.42	341.22	20.14	-48.6	-51.0	16.2	0.00e+00	0	37	0	1110441984	68	4836
2026-01-19 08:24:16.43	341.11	20.02	-48.5	-50.8	16.3	0.00e+00	0	37	0	1112539136	68	4757
2026-01-19 08:24:17.44	341.00	19.91	-48.3	-50.6	16.5	0.00e+00	0	37	0	1114636288	68	4633
2026-01-19 08:24:18.45	340.89	19.79	-48.2	-50.4	16.7	0.00e+00	0	37	0	1116733440	68	4518
2026-01-19 08:24:19.45	340.78	19.67	-47.9	-50.0	17.1	0.00e+00	0	37	0	1117782016	67	4561
2026-01-19 08:24:20.46	340.68	19.55	-47.9	-50.0	17.1	0.00e+00	0	37	0	1119879168	67	4558
2026-01-19 08:24:21.47	340.57	19.44	-47.8	-49.8	17.2	0.00e+00	0	37	0	1121976320	67	4486
2026-01-19 08:24:22.48	340.47	19.32	-47.7	-49.7	17.3	0.00e+00	0	37	0	1124073472	67	4439
2026-01-19 08:24:23.48	340.36	19.21	-47.6	-49.6	17.4	0.00e+00	0	37	0	1125122048	67	4373
2026-01-19 08:24:24.49	340.26	19.09	-47.7	-49.7	17.3	0.00e+00	0	37	0	1127219200	67	4406
2026-01-19 08:24:25.50	340.16	18.98	-47.6	-49.6	17.4	0.00e+00	0	37	0	1129316352	67	4372
2026-01-19 08:24:26.51	340.06	18.86	-47.5	-49.4	17.6	0.00e+00	0	37	0	1131413504	66	4543
2026-01-19 08:24:27.52	339.96	18.75	-47.7	-49.7	17.3	0.00e+00	0	37	0	1133510656	66	4692
2026-01-19 08:24:28.53	339.86	18.63	-47.7	-49.7	17.4	0.00e+00	0	37	0	1135607808	66	4678
2026-01-19 08:24:29.54	339.76	18.52	-47.8	-49.8	17.3	0.00e+00	0	37	0	1136656384	66	4722
2026-01-19 08:24:30.55	339.66	18.41	-47.7	-49.7	17.4	0.00e+00	0	37	0	1138753536	66	4652
2026-01-19 08:24:31.55	339.56	18.30	-47.6	-49.6	17.4	0.00e+00	0	37	0	1140850688	66	4621
2026-01-19 08:24:32.56	339.46	18.19	-47.6	-49.5	17.5	0.00e+00	0	37	0	1142947840	66	4587
2026-01-19 08:24:33.57	339.37	18.07	-47.3	-49.2	17.8	0.00e+00	0	37	0	1145044992	66	4408
2026-01-19 08:24:34.58	339.27	17.96	-47.4	-49.3	17.7	0.00e+00	0	37	0	1146093568	66	4472
2026-01-19 08:24:35.59	339.18	17.85	-47.3	-49.2	17.8	0.00e+00	0	37	0	1148190720	66	4422
2026-01-19 08:24:36.59	339.08	17.74	-47.3	-49.1	17.8	0.00e+00	0	37	0	1150287872	66	4391
2026-01-19 08:24:37.60	338.99	17.63	-47.2	-49.0	17.8	0.00e+00	0	37	0	1152385024	66	4330
2026-01-19 08:24:38.61	338.90	17.52	-47.2	-49.0	18.0	0.00e+00	0	37	0	1153433600	66	4298
2026-01-19 08:24:39.61	338.81	17.42	-47.1	-49.0	18.0	0.00e+00	0	37	0	1155530752	66	4305
2026-01-19 08:24:40.62	338.71	17.31	-47.2	-49.0	17.9	0.00e+00	0	37	0	1157627904	66	4336
2026-01-19 08:24:41.63	338.62	17.20	-47.3	-49.1	17.8	0.00e+00	0	37	0	1159725056	66	4381
2026-01-19 08:24:42.64	338.53	17.09	-47.5	-49.5	17.5	0.00e+00	0	37	0	1161822208	66	4550
2026-01-19 08:24:43.65	338.44	16.98	-47.4	-49.4	17.6	0.00e+00	0	37	0	1163919360	66	4509
2026-01-19 08:24:44.66	338.35	16.88	-47.5	-49.4	17.5	0.00e+00	0	37	0	1164967936	66	4543
2026-01-19 08:24:45.67	338.27	16.77	-47.6	-49.6	17.3	0.00e+00	0	37	0	1167065088	66	4651
2026-01-19 08:24:46.67	338.18	16.67	-47.5	-49.5	17.5	0.00e+00	0	37	0	1169162240	66	4546
2026-01-19 08:24:47.68	338.09	16.56	-47.6	-49.6	17.3	0.00e+00	0	37	0	1171259392	66	4637
2026-01-19 08:24:48.69	338.01	16.45	-47.8	-49.8	17.1	0.00e+00	0	37	0	1173356544	66	4737
2026-01-19 08:24:49.70	337.92	16.35	-47.7	-49.8	17.2	0.00e+00	0	37	0	1174405120	66	4721
2026-01-19 08:24:50.71	337.84	16.24	-47.5	-49.5	17.5	0.00e+00	0	37	0	1176502272	66	4550
2026-01-19 08:24:51.71	337.75	16.14	-47.7	-49.8	17.2	7.00e-07	0	37	0	1178599424	66	4723
2026-01-19 08:24:52.72	337.67	16.04	-47.7	-49.7	17.3	0.00e+00	0	37	0	1180696576	66	4658
2026-01-19 08:24:53.73	337.59	15.93	-47.3	-49.2	17.7	0.00e+00	0	37	0	1182793728	66	4402
2026-01-19 08:24:54.74	337.50	15.83	-47.5	-49.4	17.5	0.00e+00	0	37	0	1183842304	66	4532
2026-01-19 08:24:55.75	337.42	15.73	-47.3	-49.2	17.7	0.00e+00	0	37	0	1185939456	66	4406
2026-01-19 08:24:56.75	337.34	15.63	-47.3	-49.2	17.7	0.00e+00	0	37	0	1188036608	66	4402
2026-01-19 08:24:57.76	337.26	15.52	-47.4	-49.3	17.6	0.00e+00	0	37	0	1190133760	66	4472
2026-01-19 08:24:58.77	337.18	15.42	-47.3	-49.1	17.8	0.00e+00	0	37	0	1192230912	66	4383
2026-01-19 08:24:59.78	337.10	15.32	-47.3	-49.1	17.8	0.00e+00	0	37	0	1193279488	66	4379
2026-01-19 08:25:00.77	337.02	15.22	-47.3	-49.1	17.7	0.00e+00	0	37	0	1195376640	66	4387
2026-01-19 08:25:01.77	336.95	15.12	-47.5	-49.4	17.5	0.00e+00	0	37	0	1197473792	66	4512
2026-01-19 08:25:02.78	336.87	15.02	-47.3	-49.1	17.8	0.00e+00	0	37	0	1199570944	66	4381
2026-01-19 08:25:03.79	336.79	14.92	-47.3	-49.2	17.7	0.00e+00	0	37	0	1201668096	66	4428
2026-01-19 08:25:04.80	336.71	14.82	-47.3	-49.2	17.7	0.00e+00	0	37	0	1202716672	66	4405
2026-01-19 08:25:05.81	336.64	14.72	-47.4	-49.3	17.6	0.00e+00	0	37	0	1204813824	66	4465
2026-01-19 08:25:06.82	336.56	14.62	-47.7	-49.7	17.2	0.00e+00	0	37	0	1206910976	66	4680
2026-01-19 08:25:07.83	336.49	14.53	-47.5	-49.5	17.4	0.00e+00	0	37	0	1209008128	66	4579
2026-01-19 08:25:08.83	336.41	14.43	-47.8	-49.8	17.1	0.00e+00	0	37	0	1211105280	66	4758
2026-01-19 08:25:09.84	336.34	14.33	-47.9	-50.1	16.8	0.00e+00	0	37	0	1212153856	66	4875
2026-01-19 08:25:10.85	336.26	14.23	-47.8	-49.9	17.0	0.00e+00	0	37	0	1214251008	66	4812
2026-01-19 08:25:11.86	336.19	14.14	-48.1	-50.3	16.6	0.00e+00	0	37	0	1216348160	66	4993
2026-01-19 08:25:12.87	336.12	14.04	-48.1	-50.4	16.5	0.00e+00	0	37	0	1218445312	66	5058
2026-01-19 08:25:13.87	336.05	13.94	-48.0	-50.2	16.7	0.00e+00	0	37	0	1220542464	66	4933
2026-01-19 08:25:14.88	335.97	13.85	-48.0	-50.2	16.7	0.00e+00	0	37	0	1221591040	66	4962
2026-01-19 08:25:15.89	335.90	13.75	-48.1	-50.3	16.6	0.00e+00	0	37	0	1223688192	66	5020
2026-01-19 08:25:16.89	335.83	13.66	-48.2	-50.4	16.5	0.00e+00	0	37	0	1225785344	66	5076
2026-01-19 08:25:17.90	335.76	13.56	-48.0	-50.2	16.7	0.00e+00	0	37	0	1227882496	66	4937
2026-01-19 08:25:18.91	335.69	13.47	-48.2	-50.4	16.5	0.00e+00	0	37	0	1229979648	66	5067
2026-01-19 08:25:19.92	335.62	13.37	-48.0	-50.2	16.7	0.00e+00	0	37	0	1231028224	67	4652
2026-01-19 08:25:20.93	335.55	13.28	-48.1	-50.3	16.5	0.00e+00	0	37	0	1233125376	67	4752
2026-01-19 08:25:21.94	335.49	13.19	-48.3	-50.6	16.3	0.00e+00	0	37	0	1235222528	67	4872
2026-01-19 08:25:22.95	335.42	13.09	-48.1	-50.3	16.6	0.00e+00	0	37	0	1237319680	67	4723
2026-01-19 08:25:23.95	335.35	13.00	-48.2	-50.5	16.4	0.00e+00	0	37	0	1239416832	67	4833
2026-01-19 08:25:24.96	335.28	12.91	-48.5	-50.8	16.1	0.00e+00	0	37	0	1240465408	67	5029
2026-01-19 08:25:25.97	335.22	12.81	-48.2	-50.4	16.4	0.00e+00	0	37	0	1242562560	67	4802
