passes_logs/2026/01/19/R3.2S_Murmansk/R3.2S_Murmansk__20260119_123233_FENGYUN_3D_rec.log

#Pass ID: 20260119_123233_FENGYUN 3D
#Satellite: FENGYUN 3D
#Configuration: FENGYUN 3D
#almurnet v.1.7.20251203
#Start time: 2026-01-19 12:32:35

#Version: 2.2.20231116
#Station: R3.2S_Murmansk
#Location: 33.079688 lon 68.888172 lat
#TLE: 1 43010U 17072A   26018.95027258  .00000058  00000+0  49274-4 0  9992
#TLE: 2 43010  98.9939 350.8271 0002416 102.0826 258.0620 14.19696908423819

#Time	Az	El	Level	Level2	SNR	BER	BlckErr	Temp	State	Recorded	gain1	gain2
2026-01-19 12:32:35.19	175.34	2.12	-52.4	-64.2	3.8	8.46e-01	0	36	0	0	76	13935
2026-01-19 12:32:36.19	175.37	2.18	-52.4	-64.2	3.8	8.45e-01	0	36	104	0	75	14715
2026-01-19 12:32:37.20	175.40	2.24	-52.4	-64.1	3.8	8.46e-01	0	36	104	0	75	14654
2026-01-19 12:32:38.21	175.43	2.31	-52.4	-64.2	3.8	8.46e-01	0	36	104	0	75	14780
2026-01-19 12:32:39.21	175.47	2.37	-52.4	-64.3	3.8	8.46e-01	0	36	104	0	75	14885
2026-01-19 12:32:40.22	175.50	2.44	-52.4	-64.2	3.8	8.46e-01	0	36	104	0	75	14768
2026-01-19 12:32:41.23	175.53	2.50	-52.4	-64.0	3.8	8.46e-01	0	36	104	0	75	14498
2026-01-19 12:32:42.24	175.56	2.56	-52.4	-64.0	3.8	8.46e-01	0	36	104	0	75	14460
2026-01-19 12:32:43.25	175.59	2.63	-52.3	-63.9	3.8	8.46e-01	0	36	104	0	75	14238
2026-01-19 12:32:44.26	175.63	2.69	-52.3	-64.0	3.8	8.47e-01	0	36	104	0	75	14514
2026-01-19 12:32:45.26	175.66	2.76	-52.3	-63.9	3.8	8.47e-01	0	36	104	0	75	14243
2026-01-19 12:32:46.27	175.69	2.82	-52.3	-63.9	3.8	8.46e-01	0	36	104	0	75	14285
2026-01-19 12:32:47.27	175.72	2.89	-52.3	-63.9	3.8	8.46e-01	0	36	104	0	75	14315
2026-01-19 12:32:48.28	175.75	2.95	-52.3	-63.8	3.8	8.46e-01	0	36	104	0	75	14181
2026-01-19 12:32:49.29	175.79	3.02	-52.3	-63.7	3.8	8.46e-01	0	36	104	0	75	14021
2026-01-19 12:32:50.30	175.82	3.08	-52.3	-63.5	3.8	8.47e-01	0	36	104	0	75	13649
2026-01-19 12:32:51.31	175.85	3.15	-52.3	-63.6	3.8	8.45e-01	0	36	104	0	75	13788
2026-01-19 12:32:52.31	175.89	3.21	-52.3	-63.4	3.8	8.46e-01	0	36	104	0	75	13472
2026-01-19 12:32:53.32	175.92	3.28	-52.3	-63.5	3.8	8.45e-01	0	36	104	0	75	13643
2026-01-19 12:32:54.33	175.95	3.35	-52.3	-63.5	3.8	8.46e-01	0	36	104	0	75	13670
2026-01-19 12:32:55.34	175.99	3.41	-52.3	-63.9	3.8	8.46e-01	0	36	104	0	75	14366
2026-01-19 12:32:56.35	176.02	3.48	-52.3	-64.1	3.8	8.45e-01	0	36	104	0	75	14602
2026-01-19 12:32:57.35	176.05	3.55	-52.4	-64.1	3.8	8.46e-01	0	36	104	0	75	14607
2026-01-19 12:32:58.36	176.09	3.61	-52.3	-63.5	3.8	8.46e-01	0	36	104	0	75	13671
2026-01-19 12:32:59.37	176.12	3.68	-52.2	-62.7	3.8	8.45e-01	0	36	104	0	75	12518
2026-01-19 12:33:00.38	176.15	3.75	-52.1	-61.6	4.0	8.44e-01	0	36	104	0	75	10913
2026-01-19 12:33:01.39	176.19	3.81	-51.8	-59.8	4.5	8.30e-01	0	36	0	0	75	8928
2026-01-19 12:33:02.40	176.22	3.88	-51.5	-58.1	5.3	7.59e-01	0	36	0	0	75	7363
2026-01-19 12:33:03.41	176.26	3.95	-51.4	-57.6	5.8	6.69e-01	0	37	0	1048576	74	7303
2026-01-19 12:33:04.41	176.29	4.02	-50.9	-55.9	7.1	2.02e-01	0	36	0	6291456	73	6408
2026-01-19 12:33:05.42	176.33	4.08	-50.6	-55.3	7.7	1.26e-01	0	36	0	11534336	73	5943
2026-01-19 12:33:06.43	176.36	4.15	-50.1	-54.1	8.9	6.97e-02	0	37	0	17825792	72	5509
2026-01-19 12:33:07.43	176.40	4.22	-49.9	-53.6	9.5	2.82e-02	0	36	0	23068672	71	5497
2026-01-19 12:33:08.44	176.43	4.29	-49.6	-52.9	10.2	9.85e-03	0	36	0	28311552	71	5081
2026-01-19 12:33:09.45	176.47	4.36	-49.0	-51.9	11.2	2.91e-03	0	36	0	34603008	70	4802
2026-01-19 12:33:10.46	176.50	4.43	-48.6	-51.2	12.0	8.96e-04	0	36	0	39845888	69	4672
2026-01-19 12:33:11.47	176.54	4.49	-47.4	-49.5	13.7	5.49e-05	0	36	0	45088768	66	4588
2026-01-19 12:33:12.47	176.58	4.56	-47.3	-49.3	13.8	1.48e-05	0	36	0	51380224	66	4491
2026-01-19 12:33:13.48	176.61	4.63	-46.4	-48.1	15.1	0.00e+00	0	37	0	56623104	64	4373
2026-01-19 12:33:14.49	176.65	4.70	-45.9	-47.4	15.8	0.00e+00	0	36	0	62914560	63	4283
2026-01-19 12:33:15.50	176.68	4.77	-45.5	-47.0	16.3	0.00e+00	0	36	0	68157440	63	4054
2026-01-19 12:33:16.50	176.72	4.84	-45.0	-46.3	16.9	0.00e+00	0	36	0	74448896	61	4242
2026-01-19 12:33:17.51	176.76	4.91	-44.5	-45.8	17.5	0.00e+00	0	37	0	79691776	61	3993
2026-01-19 12:33:18.52	176.79	4.98	-44.3	-45.6	17.7	0.00e+00	0	37	0	85983232	60	4111
2026-01-19 12:33:19.53	176.83	5.05	-44.7	-46.1	17.3	0.00e+00	0	37	0	91226112	60	4347
2026-01-19 12:33:20.54	176.87	5.12	-46.1	-47.7	15.7	0.00e+00	0	37	0	96468992	62	4693
2026-01-19 12:33:21.55	176.91	5.19	-44.1	-45.3	18.0	0.00e+00	0	37	0	102760448	60	3977
2026-01-19 12:33:22.56	176.94	5.26	-46.0	-47.6	15.7	0.00e+00	0	37	0	108003328	63	4381
2026-01-19 12:33:23.57	176.98	5.33	-44.4	-45.6	17.7	0.00e+00	0	37	0	113246208	60	4134
2026-01-19 12:33:24.57	177.02	5.40	-45.6	-47.1	16.3	0.00e+00	0	37	0	119537664	63	4119
2026-01-19 12:33:25.58	177.06	5.48	-44.5	-45.8	17.5	0.00e+00	0	37	0	124780544	60	4229
2026-01-19 12:33:26.59	177.09	5.55	-44.1	-45.3	18.0	0.00e+00	0	37	0	130023424	60	3993
2026-01-19 12:33:27.60	177.13	5.62	-44.4	-45.7	17.7	0.00e+00	0	37	0	136314880	60	4152
2026-01-19 12:33:28.61	177.17	5.69	-44.2	-45.4	18.3	0.00e+00	0	37	0	142606336	59	4274
2026-01-19 12:33:29.61	177.21	5.76	-44.1	-45.3	18.4	0.00e+00	0	37	0	147849216	59	4221
2026-01-19 12:33:30.62	177.25	5.83	-44.3	-45.5	18.1	0.00e+00	0	36	0	153092096	59	4340
2026-01-19 12:33:31.63	177.29	5.91	-44.5	-45.7	18.0	0.00e+00	0	37	0	159383552	59	4426
2026-01-19 12:33:32.64	177.33	5.98	-44.1	-45.2	18.5	0.00e+00	0	37	0	164626432	59	4190
2026-01-19 12:33:33.65	177.37	6.05	-44.3	-45.5	18.2	0.00e+00	0	37	0	170917888	59	4322
2026-01-19 12:33:34.65	177.41	6.13	-43.9	-45.1	18.6	0.00e+00	0	37	0	176160768	59	4129
2026-01-19 12:33:35.66	177.45	6.20	-43.9	-45.0	18.7	0.00e+00	0	37	0	181403648	59	4080
2026-01-19 12:33:36.67	177.49	6.27	-44.1	-45.3	18.5	0.00e+00	0	37	0	187695104	59	4229
2026-01-19 12:33:37.68	177.53	6.35	-43.9	-45.1	18.7	0.00e+00	0	37	0	192937984	59	4118
2026-01-19 12:33:38.68	177.57	6.42	-44.0	-45.1	18.7	0.00e+00	0	37	0	198180864	59	4134
2026-01-19 12:33:39.69	177.61	6.49	-43.9	-45.0	18.7	0.00e+00	0	37	0	204472320	59	4088
2026-01-19 12:33:40.70	177.65	6.57	-43.7	-44.8	19.0	0.00e+00	0	37	0	210763776	59	4000
2026-01-19 12:33:41.71	177.69	6.64	-43.9	-45.0	18.8	0.00e+00	0	37	0	216006656	59	4091
2026-01-19 12:33:42.72	177.73	6.72	-43.7	-44.8	19.0	0.00e+00	0	37	0	221249536	59	4000
2026-01-19 12:33:43.73	177.77	6.79	-43.7	-44.8	19.0	0.00e+00	0	37	0	227540992	59	4000
2026-01-19 12:33:44.73	177.81	6.87	-43.9	-45.0	18.9	0.00e+00	0	37	0	232783872	59	4074
2026-01-19 12:33:45.74	177.85	6.94	-43.7	-44.8	19.1	0.00e+00	0	37	0	238026752	59	3975
2026-01-19 12:33:46.75	177.90	7.02	-43.6	-44.7	19.1	0.00e+00	0	37	0	244318208	59	3943
2026-01-19 12:33:47.76	177.94	7.09	-43.5	-44.6	19.2	0.00e+00	0	37	0	249561088	58	4139
2026-01-19 12:33:48.77	177.98	7.17	-43.6	-44.7	19.2	0.00e+00	0	37	0	255852544	58	4164
2026-01-19 12:33:49.77	178.02	7.24	-43.5	-44.6	19.2	0.00e+00	0	37	0	261095424	58	4138
2026-01-19 12:33:50.78	178.06	7.32	-43.4	-44.5	19.4	0.00e+00	0	37	0	266338304	58	4087
2026-01-19 12:33:51.79	178.11	7.40	-43.4	-44.5	19.4	0.00e+00	0	37	0	272629760	58	4084
2026-01-19 12:33:52.80	178.15	7.47	-43.5	-44.5	19.3	0.00e+00	0	37	0	278921216	58	4095
2026-01-19 12:33:53.81	178.19	7.55	-43.5	-44.6	19.3	0.00e+00	0	37	0	284164096	58	4115
2026-01-19 12:33:54.81	178.24	7.63	-43.4	-44.5	19.4	0.00e+00	0	37	0	289406976	58	4078
2026-01-19 12:33:55.82	178.28	7.71	-43.5	-44.6	19.4	0.00e+00	0	37	0	295698432	58	4103
2026-01-19 12:33:56.83	178.32	7.78	-43.5	-44.6	19.4	0.00e+00	0	37	0	300941312	58	4106
2026-01-19 12:33:57.84	178.37	7.86	-43.4	-44.5	19.4	0.00e+00	0	37	0	306184192	58	4087
2026-01-19 12:33:58.85	178.41	7.94	-43.4	-44.5	19.5	0.00e+00	0	37	0	312475648	58	4052
2026-01-19 12:33:59.85	178.46	8.02	-43.6	-44.7	19.3	0.00e+00	0	37	0	317718528	58	4153
2026-01-19 12:34:00.86	178.50	8.10	-43.3	-44.4	19.5	0.00e+00	0	37	0	322961408	58	4037
2026-01-19 12:34:01.87	178.55	8.17	-43.5	-44.6	19.3	0.00e+00	0	37	0	329252864	58	4126
2026-01-19 12:34:02.87	178.59	8.25	-43.6	-44.7	19.3	0.00e+00	0	37	0	334495744	58	4148
2026-01-19 12:34:03.88	178.64	8.33	-43.5	-44.6	19.4	0.00e+00	0	37	0	340787200	58	4101
2026-01-19 12:34:04.89	178.68	8.41	-43.6	-44.7	19.3	0.00e+00	0	37	0	346030080	58	4165
2026-01-19 12:34:05.90	178.73	8.49	-43.5	-44.6	19.4	0.00e+00	0	37	0	352321536	58	4129
2026-01-19 12:34:06.91	178.77	8.57	-43.6	-44.7	19.3	0.00e+00	0	37	0	357564416	58	4167
2026-01-19 12:34:07.91	178.82	8.65	-43.6	-44.7	19.3	0.00e+00	0	37	0	363855872	58	4188
2026-01-19 12:34:08.92	178.87	8.73	-43.7	-44.8	19.2	0.00e+00	0	37	0	369098752	58	4229
2026-01-19 12:34:09.93	178.91	8.81	-43.6	-44.7	19.3	0.00e+00	0	37	0	374341632	58	4173
2026-01-19 12:34:10.94	178.96	8.89	-43.4	-44.5	19.5	0.00e+00	0	37	0	380633088	58	4075
2026-01-19 12:34:11.95	179.01	8.97	-43.4	-44.5	19.5	0.00e+00	0	37	0	385875968	58	4080
2026-01-19 12:34:12.96	179.06	9.06	-43.4	-44.5	19.5	0.00e+00	0	37	0	391118848	58	4082
2026-01-19 12:34:13.96	179.10	9.14	-43.3	-44.4	19.6	0.00e+00	0	37	0	397410304	58	4024
2026-01-19 12:34:14.97	179.15	9.22	-43.4	-44.5	19.5	0.00e+00	0	37	0	402653184	58	4086
2026-01-19 12:34:15.98	179.20	9.30	-43.5	-44.5	19.5	0.00e+00	0	37	0	407896064	58	4095
2026-01-19 12:34:16.99	179.25	9.38	-43.5	-44.6	19.5	0.00e+00	0	37	0	414187520	58	4118
2026-01-19 12:34:18.00	179.30	9.47	-43.4	-44.5	19.6	0.00e+00	0	37	0	420478976	58	4063
2026-01-19 12:34:19.01	179.35	9.55	-43.3	-44.4	19.7	0.00e+00	0	37	0	425721856	58	4029
2026-01-19 12:34:20.02	179.40	9.63	-43.2	-44.2	19.8	0.00e+00	0	37	0	430964736	58	3956
2026-01-19 12:34:21.02	179.45	9.72	-43.1	-44.1	19.9	0.00e+00	0	37	0	437256192	58	3910
2026-01-19 12:34:22.03	179.50	9.80	-43.1	-44.2	19.9	0.00e+00	0	37	0	442499072	58	3923
2026-01-19 12:34:23.04	179.55	9.88	-43.1	-44.1	19.9	0.00e+00	0	37	0	447741952	58	3898
2026-01-19 12:34:24.05	179.60	9.97	-43.0	-44.0	20.0	0.00e+00	0	37	0	454033408	58	3864
2026-01-19 12:34:25.05	179.65	10.05	-43.0	-44.0	20.1	0.00e+00	0	37	0	459276288	58	3843
2026-01-19 12:34:26.06	179.70	10.14	-42.9	-43.9	20.2	0.00e+00	0	37	0	465567744	57	4031
2026-01-19 12:34:27.07	179.75	10.22	-42.9	-43.9	20.2	0.00e+00	0	37	0	470810624	57	4018
2026-01-19 12:34:28.08	179.80	10.31	-42.8	-43.8	20.3	0.00e+00	0	37	0	476053504	57	3982
2026-01-19 12:34:29.09	179.85	10.39	-42.7	-43.7	20.4	0.00e+00	0	37	0	482344960	57	3922
2026-01-19 12:34:30.10	179.90	10.48	-42.7	-43.7	20.4	0.00e+00	0	37	0	488636416	57	3935
2026-01-19 12:34:31.11	179.96	10.57	-42.8	-43.8	20.3	0.00e+00	0	37	0	493879296	57	3967
2026-01-19 12:34:32.11	180.01	10.65	-42.7	-43.7	20.4	0.00e+00	0	37	0	499122176	57	3920
2026-01-19 12:34:33.12	180.06	10.74	-42.7	-43.6	20.5	0.00e+00	0	37	0	505413632	57	3908
2026-01-19 12:34:34.13	180.11	10.83	-42.6	-43.6	20.5	0.00e+00	0	37	0	510656512	57	3899
2026-01-19 12:34:35.14	180.17	10.91	-42.7	-43.7	20.4	0.00e+00	0	37	0	515899392	57	3922
2026-01-19 12:34:36.14	180.22	11.00	-42.6	-43.6	20.5	0.00e+00	0	37	0	522190848	57	3887
2026-01-19 12:34:37.15	180.28	11.09	-42.8	-43.8	20.3	0.00e+00	0	37	0	527433728	57	4003
2026-01-19 12:34:38.16	180.33	11.18	-42.7	-43.7	20.4	0.00e+00	0	37	0	533725184	57	3941
2026-01-19 12:34:39.17	180.38	11.27	-42.7	-43.7	20.5	0.00e+00	0	37	0	538968064	57	3917
2026-01-19 12:34:40.18	180.44	11.35	-42.7	-43.6	20.5	0.00e+00	0	37	0	544210944	57	3905
2026-01-19 12:34:41.19	180.49	11.44	-42.6	-43.6	20.5	0.00e+00	0	37	0	550502400	57	3888
2026-01-19 12:34:42.19	180.55	11.53	-42.7	-43.7	20.5	0.00e+00	0	37	0	556793856	57	3930
2026-01-19 12:34:43.20	180.61	11.62	-42.5	-43.5	20.7	0.00e+00	0	37	0	562036736	57	3828
2026-01-19 12:34:44.21	180.66	11.71	-42.7	-43.7	20.4	0.00e+00	0	37	0	567279616	57	3935
2026-01-19 12:34:45.22	180.72	11.80	-42.6	-43.6	20.6	0.00e+00	0	37	0	573571072	57	3892
2026-01-19 12:34:46.23	180.78	11.89	-42.7	-43.7	20.5	0.00e+00	0	37	0	578813952	57	3930
2026-01-19 12:34:47.23	180.83	11.98	-42.7	-43.7	20.5	0.00e+00	0	37	0	584056832	57	3920
2026-01-19 12:34:48.24	180.89	12.08	-42.8	-43.8	20.4	0.00e+00	0	37	0	590348288	57	3981
2026-01-19 12:34:49.25	180.95	12.17	-42.7	-43.7	20.5	0.00e+00	0	37	0	595591168	57	3935
2026-01-19 12:34:50.26	181.01	12.26	-42.5	-43.5	20.7	0.00e+00	0	37	0	600834048	57	3831
2026-01-19 12:34:51.27	181.06	12.35	-42.5	-43.5	20.7	0.00e+00	0	37	0	607125504	57	3847
2026-01-19 12:34:52.27	181.12	12.44	-42.6	-43.5	20.6	0.00e+00	0	37	0	612368384	57	3862
2026-01-19 12:34:53.28	181.18	12.54	-42.5	-43.5	20.7	0.00e+00	0	37	0	618659840	57	3853
2026-01-19 12:34:54.29	181.24	12.63	-42.5	-43.4	20.7	0.00e+00	0	37	0	623902720	57	3815
2026-01-19 12:34:55.30	181.30	12.72	-42.4	-43.4	20.8	0.00e+00	0	37	0	630194176	56	4021
2026-01-19 12:34:56.31	181.36	12.82	-42.5	-43.5	20.7	0.00e+00	0	37	0	635437056	56	4071
2026-01-19 12:34:57.31	181.42	12.91	-42.5	-43.5	20.7	0.00e+00	0	37	0	641728512	56	4077
2026-01-19 12:34:58.32	181.48	13.01	-42.4	-43.4	20.8	0.00e+00	0	37	0	646971392	56	4018
2026-01-19 12:34:59.33	181.55	13.10	-42.3	-43.2	20.9	0.00e+00	0	37	0	652214272	56	3957
2026-01-19 12:35:00.34	181.61	13.20	-42.3	-43.3	20.9	0.00e+00	0	37	0	658505728	56	3960
2026-01-19 12:35:01.34	181.67	13.29	-42.3	-43.2	21.0	0.00e+00	0	37	0	663748608	56	3929
2026-01-19 12:35:02.35	181.73	13.39	-42.1	-43.0	21.2	0.00e+00	0	37	0	668991488	56	3858
2026-01-19 12:35:03.36	181.79	13.48	-42.0	-43.0	21.2	0.00e+00	0	37	0	675282944	56	3828
2026-01-19 12:35:04.37	181.86	13.58	-42.0	-43.0	21.2	0.00e+00	0	37	0	680525824	56	3829
2026-01-19 12:35:05.37	181.92	13.68	-42.0	-43.0	21.2	0.00e+00	0	37	0	685768704	56	3832
2026-01-19 12:35:06.38	181.98	13.77	-42.0	-43.0	21.3	0.00e+00	0	37	0	692060160	56	3829
2026-01-19 12:35:07.39	182.05	13.87	-42.1	-43.0	21.1	0.00e+00	0	37	0	698351616	56	3868
2026-01-19 12:35:08.40	182.11	13.97	-42.0	-42.9	21.3	0.00e+00	0	37	0	703594496	56	3799
2026-01-19 12:35:09.41	182.18	14.07	-41.9	-42.8	21.3	0.00e+00	0	37	0	708837376	55	3991
2026-01-19 12:35:10.42	182.25	14.17	-41.9	-42.8	21.3	0.00e+00	0	37	0	715128832	55	3982
2026-01-19 12:35:11.43	182.31	14.27	-42.0	-42.9	21.2	0.00e+00	0	37	0	720371712	55	4031
2026-01-19 12:35:12.43	182.38	14.37	-42.0	-42.9	21.2	0.00e+00	0	37	0	726663168	55	4050
2026-01-19 12:35:13.44	182.44	14.47	-42.0	-43.0	21.2	0.00e+00	0	37	0	731906048	55	4060
2026-01-19 12:35:14.45	182.51	14.57	-41.9	-42.8	21.3	0.00e+00	0	37	0	737148928	55	3987
2026-01-19 12:35:15.46	182.58	14.67	-41.9	-42.8	21.3	0.00e+00	0	37	0	743440384	55	3994
2026-01-19 12:35:16.47	182.65	14.77	-41.7	-42.7	21.5	0.00e+00	0	37	0	748683264	55	3915
2026-01-19 12:35:17.47	182.72	14.87	-41.7	-42.6	21.5	0.00e+00	0	37	0	753926144	55	3906
2026-01-19 12:35:18.48	182.79	14.97	-41.7	-42.6	21.5	0.00e+00	0	37	0	760217600	55	3889
2026-01-19 12:35:19.49	182.86	15.08	-41.7	-42.6	21.5	0.00e+00	0	37	0	766509056	55	3877
2026-01-19 12:35:20.50	182.93	15.18	-41.5	-42.4	21.6	0.00e+00	0	37	0	771751936	55	3810
2026-01-19 12:35:21.51	183.00	15.28	-41.6	-42.4	21.7	0.00e+00	0	37	0	776994816	55	3819
2026-01-19 12:35:22.52	183.07	15.38	-41.5	-42.4	21.7	0.00e+00	0	37	0	783286272	54	4011
2026-01-19 12:35:23.53	183.14	15.49	-41.5	-42.4	21.7	0.00e+00	0	37	0	788529152	54	4018
2026-01-19 12:35:24.54	183.21	15.59	-41.4	-42.3	21.8	0.00e+00	0	37	0	793772032	54	3974
2026-01-19 12:35:25.55	183.28	15.70	-41.3	-42.2	21.9	0.00e+00	0	37	0	800063488	54	3928
2026-01-19 12:35:26.55	183.35	15.80	-41.2	-42.1	22.0	0.00e+00	0	37	0	805306368	54	3893
2026-01-19 12:35:27.56	183.43	15.91	-41.2	-42.1	22.0	0.00e+00	0	37	0	811597824	54	3890
2026-01-19 12:35:28.57	183.50	16.01	-41.3	-42.2	21.9	0.00e+00	0	37	0	816840704	54	3915
2026-01-19 12:35:29.58	183.58	16.12	-41.3	-42.2	21.9	0.00e+00	0	37	0	822083584	54	3914
2026-01-19 12:35:30.59	183.65	16.23	-41.3	-42.2	22.0	0.00e+00	0	37	0	828375040	54	3914
2026-01-19 12:35:31.59	183.73	16.33	-41.2	-42.1	22.0	0.00e+00	0	37	0	834666496	54	3876
2026-01-19 12:35:32.60	183.80	16.44	-41.3	-42.2	21.9	0.00e+00	0	37	0	839909376	54	3931
2026-01-19 12:35:33.61	183.88	16.55	-41.1	-42.0	22.1	0.00e+00	0	37	0	845152256	54	3828
2026-01-19 12:35:34.62	183.96	16.66	-41.2	-42.0	22.1	0.00e+00	0	37	0	851443712	54	3860
2026-01-19 12:35:35.62	184.03	16.77	-41.3	-42.2	21.9	0.00e+00	0	37	0	856686592	54	3927
2026-01-19 12:35:36.63	184.11	16.88	-41.2	-42.1	22.1	0.00e+00	0	37	0	861929472	54	3870
2026-01-19 12:35:37.64	184.19	16.99	-41.0	-41.9	22.2	0.00e+00	0	37	0	868220928	54	3787
2026-01-19 12:35:38.65	184.27	17.10	-41.1	-41.9	22.2	0.00e+00	0	37	0	873463808	54	3815
2026-01-19 12:35:39.66	184.35	17.21	-41.0	-41.9	22.2	0.00e+00	0	37	0	878706688	54	3798
2026-01-19 12:35:40.66	184.43	17.32	-41.0	-41.8	22.3	0.00e+00	0	37	0	884998144	53	3993
2026-01-19 12:35:41.67	184.51	17.43	-41.0	-41.9	22.3	0.00e+00	0	37	0	890241024	53	4010
2026-01-19 12:35:42.68	184.59	17.54	-41.0	-41.8	22.3	0.00e+00	0	37	0	896532480	53	3997
2026-01-19 12:35:43.69	184.67	17.66	-41.0	-41.9	22.3	0.00e+00	0	37	0	901775360	53	4014
2026-01-19 12:35:44.70	184.75	17.77	-41.0	-41.9	22.3	0.00e+00	0	37	0	908066816	53	4018
2026-01-19 12:35:45.71	184.84	17.88	-41.0	-41.8	22.3	0.00e+00	0	37	0	913309696	53	3996
2026-01-19 12:35:46.72	184.92	18.00	-41.0	-41.8	22.3	0.00e+00	0	37	0	919601152	53	4002
2026-01-19 12:35:47.73	185.00	18.11	-40.9	-41.7	22.4	0.00e+00	0	37	0	924844032	53	3950
2026-01-19 12:35:48.73	185.09	18.23	-40.9	-41.7	22.4	0.00e+00	0	37	0	930086912	53	3958
2026-01-19 12:35:49.74	185.17	18.34	-40.9	-41.8	22.4	0.00e+00	0	37	0	936378368	53	3960
2026-01-19 12:35:50.75	185.26	18.46	-40.8	-41.7	22.5	0.00e+00	0	37	0	941621248	53	3924
2026-01-19 12:35:51.76	185.35	18.57	-40.9	-41.7	22.4	0.00e+00	0	37	0	946864128	53	3952
2026-01-19 12:35:52.77	185.43	18.69	-40.8	-41.6	22.5	0.00e+00	0	37	0	953155584	53	3897
2026-01-19 12:35:53.77	185.52	18.81	-40.7	-41.6	22.6	0.00e+00	0	37	0	958398464	53	3875
2026-01-19 12:35:54.78	185.61	18.93	-40.8	-41.6	22.6	0.00e+00	0	37	0	963641344	53	3888
2026-01-19 12:35:55.79	185.70	19.04	-40.5	-41.3	22.8	0.00e+00	0	37	0	969932800	53	3768
2026-01-19 12:35:56.79	185.79	19.16	-40.6	-41.4	22.7	0.00e+00	0	37	0	976224256	53	3823
2026-01-19 12:35:57.80	185.88	19.28	-40.6	-41.4	22.7	0.00e+00	0	37	0	981467136	53	3812
2026-01-19 12:35:58.81	185.97	19.40	-40.5	-41.3	22.8	0.00e+00	0	37	0	986710016	53	3771
2026-01-19 12:35:59.82	186.06	19.52	-40.5	-41.3	22.8	0.00e+00	0	37	0	993001472	53	3766
2026-01-19 12:36:00.83	186.15	19.64	-40.5	-41.3	22.8	0.00e+00	0	37	0	998244352	52	3984
2026-01-19 12:36:01.83	186.25	19.76	-40.6	-41.4	22.7	0.00e+00	0	37	0	1004535808	52	4033
2026-01-19 12:36:02.84	186.34	19.89	-40.5	-41.3	22.8	0.00e+00	0	37	0	1009778688	52	3996
2026-01-19 12:36:03.85	186.44	20.01	-40.5	-41.3	22.8	0.00e+00	0	37	0	1015021568	52	3991
2026-01-19 12:36:04.86	186.53	20.13	-40.6	-41.4	22.8	0.00e+00	0	37	0	1021313024	52	4018
2026-01-19 12:36:05.87	186.63	20.26	-40.6	-41.5	22.7	0.00e+00	0	37	0	1026555904	52	4060
2026-01-19 12:36:06.87	186.72	20.38	-40.4	-41.3	22.9	0.00e+00	0	37	0	1031798784	52	3966
2026-01-19 12:36:07.88	186.82	20.50	-40.3	-41.1	23.0	0.00e+00	0	37	0	1038090240	52	3905
2026-01-19 12:36:08.89	186.92	20.63	-40.2	-41.0	23.1	0.00e+00	0	37	0	1043333120	52	3850
2026-01-19 12:36:09.89	187.02	20.75	-40.2	-41.1	23.1	0.00e+00	0	37	0	1049624576	52	3873
2026-01-19 12:36:10.90	187.12	20.88	-40.3	-41.1	23.0	0.00e+00	0	37	0	1054867456	52	3899
2026-01-19 12:36:11.91	187.22	21.01	-40.1	-40.9	23.2	0.00e+00	0	37	0	1061158912	52	3800
2026-01-19 12:36:12.92	187.32	21.13	-40.0	-40.8	23.3	0.00e+00	0	37	0	1066401792	52	3749
2026-01-19 12:36:13.92	187.42	21.26	-40.0	-40.8	23.4	0.00e+00	0	37	0	1071644672	51	3979
2026-01-19 12:36:14.93	187.53	21.39	-40.0	-40.8	23.4	0.00e+00	0	37	0	1077936128	51	3978
2026-01-19 12:36:15.94	187.63	21.52	-40.0	-40.7	23.4	0.00e+00	0	37	0	1083179008	51	3952
2026-01-19 12:36:16.95	187.74	21.65	-39.9	-40.6	23.5	0.00e+00	0	37	0	1089470464	51	3913
2026-01-19 12:36:17.96	187.84	21.78	-39.8	-40.6	23.6	0.00e+00	0	37	0	1094713344	51	3885
2026-01-19 12:36:18.97	187.95	21.91	-39.9	-40.7	23.5	0.00e+00	0	37	0	1099956224	51	3919
2026-01-19 12:36:19.97	188.05	22.04	-39.9	-40.7	23.5	0.00e+00	0	37	0	1106247680	51	3936
2026-01-19 12:36:20.98	188.16	22.17	-40.0	-40.8	23.4	0.00e+00	0	37	0	1111490560	51	3976
2026-01-19 12:36:21.99	188.27	22.31	-40.0	-40.8	23.4	0.00e+00	0	37	0	1116733440	51	3992
2026-01-19 12:36:23.00	188.38	22.44	-40.1	-40.9	23.3	0.00e+00	0	37	0	1123024896	51	4011
2026-01-19 12:36:24.01	188.49	22.57	-40.2	-41.0	23.2	0.00e+00	0	37	0	1129316352	51	4075
2026-01-19 12:36:25.02	188.61	22.71	-40.1	-40.9	23.3	0.00e+00	0	37	0	1134559232	51	4044
2026-01-19 12:36:26.03	188.72	22.84	-40.2	-41.0	23.2	0.00e+00	0	37	0	1139802112	51	4071
2026-01-19 12:36:27.03	188.83	22.98	-40.1	-40.9	23.3	0.00e+00	0	37	0	1146093568	51	4034
2026-01-19 12:36:28.04	188.95	23.11	-40.1	-40.9	23.4	0.00e+00	0	37	0	1151336448	51	4012
2026-01-19 12:36:29.05	189.06	23.25	-40.0	-40.8	23.4	0.00e+00	0	37	0	1156579328	51	3986
2026-01-19 12:36:30.06	189.18	23.39	-40.2	-41.0	23.2	0.00e+00	0	37	0	1162870784	51	4075
2026-01-19 12:36:31.06	189.30	23.53	-40.2	-41.0	23.2	0.00e+00	0	37	0	1168113664	51	4082
2026-01-19 12:36:32.07	189.42	23.66	-40.1	-40.9	23.4	0.00e+00	0	37	0	1174405120	51	4018
2026-01-19 12:36:33.08	189.54	23.80	-40.0	-40.9	23.4	0.00e+00	0	37	0	1179648000	51	4007
2026-01-19 12:36:34.09	189.66	23.94	-39.9	-40.7	23.5	0.00e+00	0	37	0	1184890880	51	3948
2026-01-19 12:36:35.09	189.78	24.08	-39.9	-40.6	23.6	0.00e+00	0	37	0	1191182336	51	3906
2026-01-19 12:36:36.10	189.90	24.22	-39.7	-40.5	23.7	0.00e+00	0	37	0	1197473792	51	3853
2026-01-19 12:36:37.11	190.02	24.37	-39.7	-40.5	23.7	0.00e+00	0	37	0	1202716672	51	3838
2026-01-19 12:36:38.12	190.15	24.51	-39.8	-40.5	23.7	0.00e+00	0	37	0	1207959552	51	3866
2026-01-19 12:36:39.13	190.28	24.65	-39.7	-40.5	23.7	0.00e+00	0	37	0	1214251008	51	3837
2026-01-19 12:36:40.14	190.40	24.80	-39.7	-40.5	23.7	0.00e+00	0	37	0	1219493888	51	3835
2026-01-19 12:36:41.15	190.53	24.94	-39.6	-40.4	23.8	0.00e+00	0	37	0	1224736768	51	3796
2026-01-19 12:36:42.15	190.66	25.08	-39.6	-40.4	23.8	0.00e+00	0	37	0	1231028224	51	3796
2026-01-19 12:36:43.16	190.79	25.23	-39.5	-40.3	23.9	0.00e+00	0	37	0	1236271104	51	3741
2026-01-19 12:36:44.17	190.92	25.38	-39.5	-40.3	23.9	0.00e+00	0	37	0	1241513984	50	3965
2026-01-19 12:36:45.18	191.06	25.52	-39.5	-40.3	23.9	0.00e+00	0	37	0	1247805440	50	3975
2026-01-19 12:36:46.19	191.19	25.67	-39.6	-40.3	23.8	0.00e+00	0	37	0	1253048320	50	3996
2026-01-19 12:36:47.19	191.32	25.82	-39.5	-40.3	23.9	0.00e+00	0	37	0	1259339776	50	3979
2026-01-19 12:36:48.20	191.46	25.97	-39.6	-40.3	23.8	0.00e+00	0	37	0	1264582656	50	4002
2026-01-19 12:36:49.21	191.60	26.12	-39.5	-40.2	23.9	0.00e+00	0	37	0	1270874112	50	3955
2026-01-19 12:36:50.22	191.74	26.27	-39.5	-40.3	23.9	0.00e+00	0	37	0	1276116992	50	3979
2026-01-19 12:36:51.23	191.88	26.42	-39.5	-40.3	24.2	0.00e+00	0	37	0	1282408448	50	3970
2026-01-19 12:36:52.24	192.02	26.57	-39.6	-40.3	24.1	0.00e+00	0	37	0	1287651328	50	4003
2026-01-19 12:36:53.25	192.16	26.72	-39.6	-40.4	24.1	0.00e+00	0	37	0	1292894208	50	4014
2026-01-19 12:36:54.25	192.31	26.88	-39.6	-40.4	24.1	0.00e+00	0	37	0	1299185664	50	4017
2026-01-19 12:36:55.26	192.45	27.03	-39.5	-40.3	24.2	0.00e+00	0	37	0	1304428544	50	3973
2026-01-19 12:36:56.27	192.60	27.18	-39.5	-40.3	24.2	0.00e+00	0	37	0	1309671424	50	3967
2026-01-19 12:36:57.28	192.75	27.34	-39.5	-40.2	24.3	0.00e+00	0	37	0	1315962880	50	3931
2026-01-19 12:36:58.29	192.90	27.50	-39.5	-40.2	24.2	0.00e+00	0	37	0	1321205760	50	3947
2026-01-19 12:36:59.29	193.05	27.65	-39.4	-40.1	24.3	0.00e+00	0	38	0	1327497216	50	3910
2026-01-19 12:37:00.30	193.20	27.81	-39.4	-40.2	24.3	0.00e+00	0	37	0	1332740096	50	3917
2026-01-19 12:37:01.31	193.36	27.97	-39.3	-40.0	24.4	0.00e+00	0	37	0	1339031552	50	3864
2026-01-19 12:37:02.32	193.51	28.12	-39.3	-40.0	24.4	0.00e+00	0	37	0	1344274432	50	3864
2026-01-19 12:37:03.32	193.67	28.28	-39.4	-40.2	24.3	0.00e+00	0	37	0	1349517312	50	3919
2026-01-19 12:37:04.33	193.83	28.44	-39.4	-40.1	24.3	0.00e+00	0	37	0	1355808768	50	3913
2026-01-19 12:37:05.34	193.99	28.60	-39.3	-40.1	24.4	0.00e+00	0	37	0	1361051648	50	3871
2026-01-19 12:37:06.35	194.15	28.76	-39.3	-40.0	24.4	0.00e+00	0	37	0	1367343104	50	3860
2026-01-19 12:37:07.36	194.31	28.93	-39.3	-40.0	24.4	0.00e+00	0	37	0	1372585984	50	3865
2026-01-19 12:37:08.36	194.48	29.09	-39.3	-40.0	24.4	0.00e+00	0	37	0	1377828864	50	3861
2026-01-19 12:37:09.37	194.64	29.25	-39.4	-40.1	24.4	0.00e+00	0	37	0	1384120320	50	3883
2026-01-19 12:37:10.38	194.81	29.42	-39.3	-40.1	24.4	0.00e+00	0	37	0	1389363200	50	3874
2026-01-19 12:37:11.39	194.98	29.58	-39.2	-39.9	24.6	0.00e+00	0	37	0	1394606080	50	3787
2026-01-19 12:37:12.40	195.15	29.75	-39.1	-39.8	24.6	0.00e+00	0	37	0	1400897536	50	3766
2026-01-19 12:37:13.41	195.33	29.91	-39.1	-39.8	24.6	0.00e+00	0	38	0	1407188992	50	3764
2026-01-19 12:37:14.41	195.50	30.08	-39.2	-39.9	24.6	0.00e+00	0	37	0	1412431872	50	3787
2026-01-19 12:37:15.42	195.68	30.24	-39.3	-40.0	24.5	0.00e+00	0	37	0	1417674752	50	3835
2026-01-19 12:37:16.43	195.86	30.41	-39.4	-40.1	24.3	0.00e+00	0	37	0	1423966208	50	3903
2026-01-19 12:37:17.44	196.04	30.58	-39.5	-40.2	24.3	0.00e+00	0	37	0	1429209088	50	3932
2026-01-19 12:37:18.45	196.22	30.75	-39.5	-40.3	24.2	0.00e+00	0	37	0	1434451968	50	3968
2026-01-19 12:37:19.45	196.40	30.92	-39.6	-40.3	24.2	0.00e+00	0	37	0	1440743424	50	4004
2026-01-19 12:37:20.46	196.59	31.09	-39.4	-40.2	24.3	0.00e+00	0	37	0	1445986304	50	3928
2026-01-19 12:37:21.47	196.78	31.26	-39.6	-40.3	24.2	0.00e+00	0	37	0	1452277760	50	3975
2026-01-19 12:37:22.47	196.97	31.43	-39.4	-40.1	24.4	0.00e+00	0	37	0	1457520640	50	3897
2026-01-19 12:37:23.48	197.16	31.61	-39.3	-40.0	24.4	0.00e+00	0	37	0	1462763520	50	3865
2026-01-19 12:37:24.49	197.35	31.78	-39.4	-40.1	24.4	0.00e+00	0	37	0	1469054976	50	3911
2026-01-19 12:37:25.50	197.55	31.96	-39.4	-40.1	24.4	0.00e+00	0	37	0	1475346432	50	3884
2026-01-19 12:37:26.51	197.75	32.13	-39.4	-40.1	24.4	0.00e+00	0	37	0	1480589312	50	3893
2026-01-19 12:37:27.51	197.95	32.30	-39.4	-40.1	24.4	0.00e+00	0	37	0	1485832192	50	3884
2026-01-19 12:37:28.52	198.15	32.48	-39.4	-40.1	24.4	0.00e+00	0	37	0	1492123648	50	3904
2026-01-19 12:37:29.53	198.36	32.66	-39.3	-40.0	24.5	0.00e+00	0	37	0	1497366528	50	3859
2026-01-19 12:37:30.54	198.56	32.84	-39.2	-39.9	24.6	0.00e+00	0	37	0	1502609408	50	3816
2026-01-19 12:37:31.55	198.77	33.01	-39.0	-39.7	24.7	0.00e+00	0	37	0	1508900864	50	3731
2026-01-19 12:37:32.55	198.98	33.19	-39.0	-39.7	24.8	0.00e+00	0	37	0	1514143744	50	3711
2026-01-19 12:37:33.56	199.19	33.37	-38.9	-39.6	24.8	0.00e+00	0	37	0	1519386624	49	3895
2026-01-19 12:37:34.57	199.41	33.55	-38.8	-39.5	24.9	0.00e+00	0	37	0	1525678080	49	3863
2026-01-19 12:37:35.58	199.63	33.73	-38.8	-39.5	24.9	0.00e+00	0	37	0	1530920960	49	3860
2026-01-19 12:37:36.59	199.85	33.91	-38.9	-39.6	24.9	0.00e+00	0	37	0	1537212416	49	3873
2026-01-19 12:37:37.59	200.07	34.09	-39.1	-39.8	24.7	0.00e+00	0	37	0	1542455296	49	3968
2026-01-19 12:37:38.60	200.30	34.28	-39.1	-39.8	24.6	0.00e+00	0	37	0	1548746752	49	3998
2026-01-19 12:37:39.61	200.52	34.46	-39.0	-39.7	24.7	0.00e+00	0	37	0	1553989632	49	3957
2026-01-19 12:37:40.62	200.76	34.64	-38.8	-39.5	24.9	0.00e+00	0	37	0	1560281088	49	3860
2026-01-19 12:37:41.63	200.99	34.83	-38.6	-39.3	25.1	0.00e+00	0	37	0	1565523968	49	3761
2026-01-19 12:37:42.63	201.22	35.01	-38.6	-39.3	25.1	0.00e+00	0	37	0	1570766848	49	3752
2026-01-19 12:37:43.64	201.46	35.20	-38.7	-39.4	25.0	0.00e+00	0	37	0	1577058304	49	3788
2026-01-19 12:37:44.65	201.70	35.38	-38.6	-39.2	25.2	0.00e+00	0	37	0	1582301184	49	3733
2026-01-19 12:37:45.65	201.94	35.57	-38.6	-39.3	25.1	0.00e+00	0	37	0	1587544064	49	3753
2026-01-19 12:37:46.66	202.19	35.76	-38.8	-39.5	25.0	0.00e+00	0	37	0	1593835520	49	3826
2026-01-19 12:37:47.67	202.44	35.94	-39.0	-39.7	24.8	0.00e+00	0	37	0	1599078400	49	3928
2026-01-19 12:37:48.68	202.69	36.13	-39.0	-39.7	24.7	0.00e+00	0	37	0	1604321280	49	3957
2026-01-19 12:37:49.69	202.95	36.32	-39.0	-39.7	24.7	0.00e+00	0	37	0	1610612736	49	3949
2026-01-19 12:37:50.69	203.20	36.51	-39.0	-39.7	24.8	0.00e+00	0	37	0	1616904192	49	3945
2026-01-19 12:37:51.70	203.46	36.70	-38.9	-39.7	24.8	0.00e+00	0	37	0	1622147072	49	3914
2026-01-19 12:37:52.71	203.73	36.89	-38.8	-39.5	25.0	0.00e+00	0	37	0	1627389952	49	3840
2026-01-19 12:37:53.72	203.99	37.08	-38.8	-39.5	24.9	0.00e+00	0	37	0	1633681408	49	3852
2026-01-19 12:37:54.73	204.26	37.27	-38.6	-39.2	25.2	0.00e+00	0	37	0	1638924288	49	3737
2026-01-19 12:37:55.73	204.53	37.46	-38.4	-39.1	25.3	0.00e+00	0	37	0	1645215744	48	3875
2026-01-19 12:37:56.74	204.81	37.65	-38.5	-39.2	25.2	0.00e+00	0	38	0	1650458624	48	3942
2026-01-19 12:37:57.75	205.09	37.84	-38.7	-39.4	25.1	0.00e+00	0	37	0	1655701504	48	4025
2026-01-19 12:37:58.75	205.37	38.03	-38.8	-39.6	24.9	0.00e+00	0	37	0	1661992960	48	4104
2026-01-19 12:37:59.76	205.66	38.23	-39.0	-39.7	24.8	0.00e+00	0	37	0	1667235840	48	4178
2026-01-19 12:38:00.77	205.95	38.42	-39.1	-39.8	24.7	0.00e+00	0	37	0	1672478720	48	4240
2026-01-19 12:38:01.78	206.24	38.61	-39.1	-39.8	24.7	0.00e+00	0	37	0	1678770176	48	4217
2026-01-19 12:38:02.79	206.53	38.81	-39.1	-39.8	24.7	0.00e+00	0	37	0	1684013056	48	4217
2026-01-19 12:38:03.79	206.83	39.00	-39.1	-39.8	24.7	0.00e+00	0	37	0	1690304512	48	4224
2026-01-19 12:38:04.80	207.13	39.19	-39.0	-39.7	24.8	0.00e+00	0	37	0	1695547392	48	4156
2026-01-19 12:38:05.81	207.44	39.39	-38.9	-39.7	24.8	0.00e+00	0	37	0	1701838848	48	4149
2026-01-19 12:38:06.82	207.75	39.58	-38.9	-39.6	24.9	0.00e+00	0	37	0	1707081728	48	4115
2026-01-19 12:38:07.82	208.06	39.77	-39.0	-39.7	24.8	0.00e+00	0	37	0	1712324608	48	4167
2026-01-19 12:38:08.83	208.38	39.97	-39.0	-39.7	24.8	0.00e+00	0	37	0	1718616064	48	4167
2026-01-19 12:38:09.84	208.70	40.16	-38.9	-39.6	24.9	0.00e+00	0	37	0	1723858944	48	4126
2026-01-19 12:38:10.85	209.03	40.36	-39.0	-39.6	24.9	0.00e+00	0	37	0	1730150400	48	4144
2026-01-19 12:38:11.86	209.36	40.55	-38.8	-39.5	25.0	0.00e+00	0	37	0	1735393280	48	4063
2026-01-19 12:38:12.87	209.69	40.75	-38.7	-39.4	25.1	0.00e+00	0	37	0	1740636160	48	4015
2026-01-19 12:38:13.87	210.02	40.94	-39.0	-39.7	24.9	0.00e+00	0	37	0	1746927616	48	4147
2026-01-19 12:38:14.88	210.36	41.14	-39.0	-39.7	24.8	0.00e+00	0	37	0	1752170496	48	4184
2026-01-19 12:38:15.89	210.71	41.33	-38.9	-39.6	24.9	0.00e+00	0	37	0	1757413376	48	4135
2026-01-19 12:38:16.90	211.06	41.53	-38.9	-39.5	25.0	0.00e+00	0	37	0	1763704832	48	4096
2026-01-19 12:38:17.90	211.41	41.72	-38.8	-39.5	25.0	0.00e+00	0	37	0	1769996288	48	4097
2026-01-19 12:38:18.91	211.77	41.91	-39.0	-39.8	24.8	0.00e+00	0	37	0	1775239168	48	4198
2026-01-19 12:38:19.92	212.13	42.11	-39.2	-39.9	24.7	0.00e+00	0	38	0	1780482048	48	4260
2026-01-19 12:38:20.93	212.50	42.30	-39.0	-39.7	24.8	0.00e+00	0	37	0	1786773504	48	4169
2026-01-19 12:38:21.94	212.87	42.49	-39.0	-39.7	24.9	0.00e+00	0	37	0	1792016384	48	4151
2026-01-19 12:38:22.95	213.24	42.69	-39.1	-39.8	24.8	0.00e+00	0	37	0	1797259264	48	4212
2026-01-19 12:38:23.95	213.62	42.88	-39.1	-39.8	24.8	0.00e+00	0	37	0	1803550720	48	4194
2026-01-19 12:38:24.96	214.00	43.07	-39.2	-39.9	24.7	0.00e+00	0	37	0	1808793600	49	4035
2026-01-19 12:38:25.97	214.39	43.26	-39.3	-40.0	24.6	0.00e+00	0	37	0	1815085056	49	4073
2026-01-19 12:38:26.98	214.78	43.46	-39.4	-40.1	24.5	0.00e+00	0	38	0	1820327936	49	4131
2026-01-19 12:38:27.99	215.18	43.65	-39.3	-40.0	24.6	0.00e+00	0	37	0	1825570816	49	4080
2026-01-19 12:38:28.99	215.58	43.84	-39.1	-39.8	24.8	0.00e+00	0	37	0	1831862272	49	3965
2026-01-19 12:38:30.00	215.99	44.03	-39.1	-39.8	24.8	0.00e+00	0	37	0	1838153728	49	3991
2026-01-19 12:38:31.01	216.40	44.22	-39.1	-39.8	24.8	0.00e+00	0	37	0	1843396608	49	3992
2026-01-19 12:38:32.02	216.82	44.40	-39.1	-39.9	24.7	0.00e+00	0	37	0	1848639488	49	4010
2026-01-19 12:38:33.02	217.23	44.59	-39.3	-40.0	24.6	0.00e+00	0	37	0	1854930944	49	4060
2026-01-19 12:38:34.03	217.66	44.78	-39.4	-40.1	24.6	0.00e+00	0	37	0	1860173824	49	4113
2026-01-19 12:38:35.04	218.09	44.96	-39.3	-40.0	24.6	0.00e+00	0	37	0	1865416704	49	4070
2026-01-19 12:38:36.05	218.53	45.15	-39.2	-39.9	24.6	0.00e+00	0	37	0	1871708160	49	4050
2026-01-19 12:38:37.05	218.97	45.33	-39.2	-39.9	24.7	0.00e+00	0	37	0	1876951040	49	4040
2026-01-19 12:38:38.06	219.41	45.52	-39.3	-40.0	24.6	0.00e+00	0	37	0	1882193920	49	4065
2026-01-19 12:38:39.07	219.86	45.70	-39.1	-39.9	24.7	0.00e+00	0	37	0	1888485376	49	4009
2026-01-19 12:38:40.08	220.32	45.88	-39.1	-39.8	24.8	0.00e+00	0	37	0	1893728256	49	3989
2026-01-19 12:38:41.09	220.78	46.06	-39.1	-39.8	24.8	0.00e+00	0	37	0	1900019712	49	3996
2026-01-19 12:38:42.10	221.25	46.24	-39.4	-40.1	24.5	0.00e+00	0	37	0	1905262592	49	4135
2026-01-19 12:38:43.10	221.72	46.41	-39.6	-40.4	24.3	0.00e+00	0	37	0	1911554048	49	4254
2026-01-19 12:38:44.11	222.20	46.59	-39.7	-40.5	24.2	0.00e+00	0	37	0	1916796928	50	4064
2026-01-19 12:38:45.12	222.68	46.77	-39.5	-40.2	24.4	0.00e+00	0	37	0	1923088384	50	3942
2026-01-19 12:38:46.13	223.17	46.94	-39.3	-40.0	24.6	0.00e+00	0	37	0	1928331264	50	3865
2026-01-19 12:38:47.14	223.66	47.11	-39.4	-40.1	24.5	0.00e+00	0	37	0	1933574144	50	3898
2026-01-19 12:38:48.14	224.16	47.28	-39.4	-40.1	24.6	0.00e+00	0	38	0	1939865600	50	3882
2026-01-19 12:38:49.15	224.66	47.45	-39.6	-40.3	24.3	0.00e+00	0	37	0	1945108480	50	3990
2026-01-19 12:38:50.16	225.17	47.61	-39.6	-40.3	24.4	0.00e+00	0	37	0	1950351360	50	3977
2026-01-19 12:38:51.16	225.68	47.78	-39.4	-40.2	24.5	0.00e+00	0	37	0	1956642816	50	3922
2026-01-19 12:38:52.17	226.20	47.94	-39.1	-39.8	24.8	0.00e+00	0	37	0	1961885696	50	3778
2026-01-19 12:38:53.18	226.73	48.10	-39.0	-39.7	24.9	0.00e+00	0	37	0	1967128576	50	3722
2026-01-19 12:38:54.19	227.26	48.26	-39.3	-40.0	24.7	0.00e+00	0	37	0	1973420032	50	3829
2026-01-19 12:38:55.20	227.80	48.42	-39.4	-40.2	24.5	0.00e+00	0	37	0	1979711488	50	3914
2026-01-19 12:38:56.21	228.34	48.57	-39.2	-40.0	24.7	0.00e+00	0	37	0	1984954368	50	3831
2026-01-19 12:38:57.22	228.89	48.73	-39.3	-40.0	24.6	0.00e+00	0	37	0	1990197248	50	3850
2026-01-19 12:38:58.23	229.44	48.88	-39.1	-39.8	24.8	0.00e+00	0	37	0	1996488704	50	3753
2026-01-19 12:38:59.24	230.00	49.03	-39.3	-40.0	24.7	0.00e+00	0	37	0	2001731584	50	3854
2026-01-19 12:39:00.25	230.57	49.17	-39.6	-40.3	24.4	0.00e+00	0	37	0	2008023040	50	3969
2026-01-19 12:39:01.25	231.13	49.31	-39.5	-40.2	24.5	0.00e+00	0	38	0	2013265920	50	3926
2026-01-19 12:39:02.26	231.70	49.45	-39.5	-40.2	24.5	0.00e+00	0	37	0	2018508800	50	3929
2026-01-19 12:39:03.27	232.28	49.59	-39.5	-40.2	24.5	0.00e+00	0	37	0	2024800256	50	3923
2026-01-19 12:39:04.28	232.87	49.73	-39.4	-40.2	24.5	0.00e+00	0	37	0	2030043136	50	3916
2026-01-19 12:39:05.29	233.46	49.86	-39.5	-40.2	24.4	0.00e+00	0	37	0	2035286016	50	3951
2026-01-19 12:39:06.30	234.05	49.99	-39.4	-40.1	24.6	0.00e+00	0	38	0	2041577472	50	3881
2026-01-19 12:39:07.30	234.65	50.12	-39.6	-40.3	24.4	0.00e+00	0	37	0	2047868928	50	4000
2026-01-19 12:39:08.31	235.25	50.24	-39.8	-40.6	24.1	0.00e+00	0	37	0	2053111808	50	4108
2026-01-19 12:39:09.32	235.86	50.36	-39.7	-40.4	24.3	0.00e+00	0	38	0	2058354688	50	4050
2026-01-19 12:39:10.33	236.48	50.48	-39.6	-40.3	24.4	0.00e+00	0	37	0	2064646144	50	3966
2026-01-19 12:39:11.34	237.10	50.60	-39.7	-40.4	24.3	0.00e+00	0	37	0	2069889024	50	4034
2026-01-19 12:39:12.35	237.72	50.71	-39.9	-40.6	24.1	0.00e+00	0	37	0	2075131904	50	4129
2026-01-19 12:39:13.35	238.34	50.82	-39.7	-40.4	24.3	0.00e+00	0	37	0	2081423360	50	4021
2026-01-19 12:39:14.36	238.97	50.92	-39.6	-40.3	24.4	0.00e+00	0	37	0	2086666240	50	3983
2026-01-19 12:39:15.37	239.61	51.02	-39.6	-40.3	24.4	0.00e+00	0	37	0	2092957696	50	3995
2026-01-19 12:39:16.38	240.25	51.12	-39.5	-40.2	24.4	0.00e+00	0	37	0	2098200576	50	3952
2026-01-19 12:39:17.38	240.89	51.21	-39.5	-40.2	24.4	0.00e+00	0	37	0	2103443456	50	3956
2026-01-19 12:39:18.39	241.54	51.31	-39.5	-40.3	24.5	0.00e+00	0	37	0	2109734912	50	3961
2026-01-19 12:39:19.40	242.20	51.39	-39.8	-40.6	24.2	0.00e+00	0	37	0	2116026368	50	4107
2026-01-19 12:39:20.41	242.85	51.48	-40.0	-40.8	24.0	0.00e+00	0	37	0	2121269248	50	4202
2026-01-19 12:39:21.42	243.51	51.56	-39.8	-40.5	24.3	0.00e+00	0	38	0	2126512128	50	4065
2026-01-19 12:39:22.42	244.17	51.63	-39.7	-40.4	24.4	0.00e+00	0	37	0	2132803584	50	4022
2026-01-19 12:39:23.43	244.84	51.71	-39.7	-40.5	24.3	0.00e+00	0	37	0	2138046464	50	4067
2026-01-19 12:39:24.44	245.51	51.78	-39.8	-40.5	24.2	0.00e+00	0	38	0	2143289344	50	4087
2026-01-19 12:39:25.45	246.18	51.84	-39.9	-40.7	24.1	0.00e+00	0	37	0	2149580800	50	4155
2026-01-19 12:39:26.46	246.86	51.90	-39.9	-40.6	24.2	0.00e+00	0	37	0	2154823680	50	4135
2026-01-19 12:39:27.46	247.53	51.96	-39.9	-40.6	24.1	0.00e+00	0	37	0	2160066560	50	4130
2026-01-19 12:39:28.47	248.21	52.01	-39.9	-40.6	24.1	0.00e+00	0	37	0	2166358016	50	4133
2026-01-19 12:39:29.48	248.89	52.06	-39.8	-40.5	24.3	0.00e+00	0	37	0	2171600896	50	4066
2026-01-19 12:39:30.49	249.58	52.10	-39.6	-40.3	24.4	0.00e+00	0	37	0	2177892352	50	3988
2026-01-19 12:39:31.50	250.27	52.14	-39.7	-40.4	24.3	0.00e+00	0	37	0	2183135232	50	4048
2026-01-19 12:39:32.50	250.95	52.18	-39.9	-40.6	24.1	0.00e+00	0	37	0	2189426688	50	4140
2026-01-19 12:39:33.51	251.64	52.21	-40.1	-40.8	23.9	0.00e+00	0	37	0	2194669568	50	4242
2026-01-19 12:39:34.52	252.33	52.24	-39.9	-40.6	24.1	0.00e+00	0	37	0	2200961024	50	4144
2026-01-19 12:39:35.53	253.03	52.26	-39.8	-40.5	24.2	0.00e+00	0	37	0	2206203904	50	4093
2026-01-19 12:39:36.53	253.72	52.28	-40.1	-40.9	23.9	0.00e+00	0	37	0	2211446784	50	4263
2026-01-19 12:39:37.55	254.42	52.30	-40.0	-40.8	24.0	0.00e+00	0	37	0	2217738240	50	4197
2026-01-19 12:39:38.55	255.11	52.31	-39.7	-40.4	24.4	0.00e+00	0	37	0	2222981120	50	4025
2026-01-19 12:39:39.56	255.80	52.32	-39.7	-40.4	24.4	0.00e+00	0	37	0	2228224000	50	4010
2026-01-19 12:39:40.57	256.50	52.32	-39.7	-40.5	24.3	0.00e+00	0	37	0	2234515456	50	4061
2026-01-19 12:39:41.58	257.20	52.32	-40.0	-40.7	24.1	0.00e+00	0	37	0	2239758336	50	4170
2026-01-19 12:39:42.58	257.89	52.31	-40.1	-40.9	23.9	0.00e+00	0	37	0	2245001216	50	4254
2026-01-19 12:39:43.59	258.58	52.30	-40.1	-40.9	23.9	0.00e+00	0	37	0	2251292672	50	4244
2026-01-19 12:39:44.60	259.28	52.29	-40.0	-40.7	24.1	0.00e+00	0	38	0	2257584128	50	4162
2026-01-19 12:39:45.61	259.97	52.27	-40.1	-40.8	23.9	0.00e+00	0	37	0	2262827008	50	4239
2026-01-19 12:39:46.62	260.67	52.24	-40.1	-40.9	23.9	0.00e+00	0	38	0	2268069888	50	4260
2026-01-19 12:39:47.63	261.36	52.22	-39.9	-40.7	24.1	0.00e+00	0	37	0	2274361344	50	4149
2026-01-19 12:39:48.64	262.05	52.19	-39.8	-40.5	24.3	0.00e+00	0	37	0	2279604224	50	4061
2026-01-19 12:39:49.65	262.74	52.15	-39.6	-40.3	24.5	0.00e+00	0	37	0	2285895680	50	3985
2026-01-19 12:39:50.65	263.42	52.11	-39.9	-40.6	24.1	0.00e+00	0	37	0	2291138560	50	4136
2026-01-19 12:39:51.66	264.11	52.07	-39.9	-40.7	24.1	0.00e+00	0	37	0	2296381440	50	4149
2026-01-19 12:39:52.67	264.79	52.02	-39.8	-40.6	24.2	0.00e+00	0	37	0	2302672896	50	4099
2026-01-19 12:39:53.68	265.47	51.97	-39.8	-40.5	24.3	0.00e+00	0	37	0	2307915776	50	4071
2026-01-19 12:39:54.68	266.14	51.91	-40.0	-40.7	24.0	0.00e+00	0	37	0	2313158656	50	4179
2026-01-19 12:39:55.69	266.82	51.85	-40.2	-40.9	23.9	0.00e+00	0	37	0	2319450112	50	4283
2026-01-19 12:39:56.70	267.49	51.79	-40.1	-40.8	24.0	0.00e+00	0	37	0	2325741568	50	4226
2026-01-19 12:39:57.71	268.16	51.72	-40.1	-40.8	24.0	0.00e+00	0	37	0	2330984448	50	4231
2026-01-19 12:39:58.72	268.83	51.65	-40.0	-40.7	24.1	0.00e+00	0	37	0	2336227328	50	4161
2026-01-19 12:39:59.73	269.50	51.57	-39.8	-40.5	24.3	0.00e+00	0	37	0	2342518784	50	4085
2026-01-19 12:40:00.73	270.15	51.49	-39.9	-40.7	24.1	0.00e+00	0	37	0	2347761664	50	4147
2026-01-19 12:40:01.74	270.81	51.41	-40.2	-40.9	23.9	0.00e+00	0	37	0	2353004544	50	4276
2026-01-19 12:40:02.75	271.46	51.32	-40.2	-40.9	23.9	0.00e+00	0	37	0	2359296000	51	4043
2026-01-19 12:40:03.76	272.11	51.23	-39.8	-40.5	24.3	0.00e+00	0	37	0	2364538880	51	3842
2026-01-19 12:40:04.77	272.75	51.13	-39.7	-40.4	24.4	0.00e+00	0	37	0	2370830336	51	3787
2026-01-19 12:40:05.78	273.40	51.04	-39.7	-40.5	24.4	0.00e+00	0	37	0	2376073216	51	3830
2026-01-19 12:40:06.79	274.03	50.94	-39.9	-40.7	24.1	0.00e+00	0	37	0	2381316096	51	3918
2026-01-19 12:40:07.79	274.66	50.83	-40.0	-40.7	24.1	0.00e+00	0	37	0	2387607552	51	3956
2026-01-19 12:40:08.80	275.29	50.72	-39.9	-40.6	24.2	0.00e+00	0	37	0	2393899008	51	3896
2026-01-19 12:40:09.81	275.91	50.61	-39.6	-40.3	24.4	0.00e+00	0	37	0	2399141888	51	3775
2026-01-19 12:40:10.82	276.53	50.50	-39.7	-40.4	24.4	0.00e+00	0	37	0	2404384768	51	3785
2026-01-19 12:40:11.83	277.15	50.38	-39.7	-40.4	24.4	0.00e+00	0	37	0	2410676224	51	3808
2026-01-19 12:40:12.84	277.76	50.26	-39.8	-40.5	24.3	0.00e+00	0	37	0	2415919104	51	3867
2026-01-19 12:40:13.85	278.36	50.14	-39.9	-40.6	24.2	0.00e+00	0	37	0	2421161984	51	3900
2026-01-19 12:40:14.86	278.96	50.01	-39.8	-40.5	24.3	0.00e+00	0	37	0	2427453440	51	3849
2026-01-19 12:40:15.86	279.55	49.88	-39.7	-40.5	24.3	0.00e+00	0	37	0	2432696320	51	3837
2026-01-19 12:40:16.87	280.14	49.75	-39.8	-40.5	24.3	0.00e+00	0	37	0	2437939200	51	3867
2026-01-19 12:40:17.88	280.72	49.61	-39.8	-40.5	24.3	0.00e+00	0	37	0	2444230656	51	3855
2026-01-19 12:40:18.89	281.30	49.48	-39.8	-40.5	24.3	0.00e+00	0	37	0	2450522112	51	3834
2026-01-19 12:40:19.90	281.88	49.34	-39.7	-40.4	24.4	0.00e+00	0	37	0	2455764992	51	3807
2026-01-19 12:40:20.91	282.45	49.19	-39.7	-40.4	24.4	0.00e+00	0	37	0	2461007872	51	3799
2026-01-19 12:40:21.92	283.01	49.05	-39.7	-40.4	24.4	0.00e+00	0	37	0	2467299328	51	3810
2026-01-19 12:40:22.93	283.57	48.90	-39.5	-40.2	24.5	0.00e+00	0	37	0	2472542208	51	3734
2026-01-19 12:40:23.94	284.12	48.75	-39.5	-40.2	24.6	0.00e+00	0	37	0	2478833664	51	3723
2026-01-19 12:40:24.94	284.67	48.60	-39.5	-40.3	24.5	0.00e+00	0	38	0	2484076544	51	3739
2026-01-19 12:40:25.95	285.21	48.45	-39.7	-40.4	24.4	0.00e+00	0	37	0	2489319424	51	3811
2026-01-19 12:40:26.96	285.74	48.29	-39.6	-40.4	24.4	0.00e+00	0	37	0	2495610880	51	3793
2026-01-19 12:40:27.97	286.28	48.13	-39.6	-40.4	24.4	0.00e+00	0	37	0	2500853760	51	3789
2026-01-19 12:40:28.97	286.80	47.97	-39.4	-40.1	24.6	0.00e+00	0	37	0	2506096640	50	3901
2026-01-19 12:40:29.98	287.32	47.81	-39.4	-40.1	24.6	0.00e+00	0	37	0	2512388096	50	3899
2026-01-19 12:40:30.99	287.83	47.65	-39.5	-40.2	24.6	0.00e+00	0	37	0	2517630976	50	3945
2026-01-19 12:40:32.00	288.34	47.48	-39.6	-40.4	24.4	0.00e+00	0	37	0	2523922432	50	4015
2026-01-19 12:40:33.01	288.85	47.31	-39.7	-40.4	24.4	0.00e+00	0	37	0	2529165312	50	4044
2026-01-19 12:40:34.01	289.34	47.14	-39.6	-40.3	24.5	0.00e+00	0	37	0	2535456768	50	3997
2026-01-19 12:40:35.02	289.84	46.97	-39.5	-40.2	24.6	0.00e+00	0	37	0	2540699648	50	3935
2026-01-19 12:40:36.03	290.33	46.80	-39.5	-40.2	24.6	0.00e+00	0	37	0	2545942528	50	3930
2026-01-19 12:40:37.04	290.81	46.63	-39.5	-40.2	24.5	0.00e+00	0	37	0	2552233984	50	3952
2026-01-19 12:40:38.05	291.29	46.45	-39.5	-40.2	24.6	0.00e+00	0	37	0	2557476864	50	3936
2026-01-19 12:40:39.05	291.76	46.28	-39.5	-40.3	24.5	0.00e+00	0	37	0	2563768320	50	3963
2026-01-19 12:40:40.06	292.22	46.10	-39.6	-40.3	24.4	0.00e+00	0	37	0	2569011200	50	4002
2026-01-19 12:40:41.07	292.69	45.92	-39.7	-40.4	24.4	0.00e+00	0	37	0	2574254080	50	4044
2026-01-19 12:40:42.08	293.14	45.74	-39.8	-40.5	24.3	0.00e+00	0	37	0	2580545536	50	4072
2026-01-19 12:40:43.08	293.59	45.56	-39.8	-40.5	24.3	0.00e+00	0	37	0	2585788416	50	4084
2026-01-19 12:40:44.09	294.04	45.37	-39.8	-40.5	24.3	0.00e+00	0	37	0	2592079872	50	4074
2026-01-19 12:40:45.10	294.48	45.19	-39.9	-40.7	24.1	0.00e+00	0	37	0	2597322752	50	4166
2026-01-19 12:40:46.11	294.92	45.01	-40.1	-40.8	24.0	0.00e+00	0	38	0	2603614208	50	4241
2026-01-19 12:40:47.12	295.35	44.82	-40.0	-40.7	24.1	0.00e+00	0	37	0	2608857088	50	4185
2026-01-19 12:40:48.13	295.77	44.63	-40.0	-40.7	24.1	0.00e+00	0	37	0	2614099968	50	4171
2026-01-19 12:40:49.14	296.20	44.45	-40.0	-40.7	24.1	0.00e+00	0	37	0	2620391424	50	4187
2026-01-19 12:40:50.15	296.61	44.26	-39.8	-40.5	24.3	0.00e+00	0	37	0	2625634304	50	4071
2026-01-19 12:40:51.16	297.02	44.07	-39.6	-40.3	24.5	0.00e+00	0	37	0	2630877184	50	3985
2026-01-19 12:40:52.16	297.43	43.88	-39.6	-40.3	24.5	0.00e+00	0	37	0	2637168640	50	3980
2026-01-19 12:40:53.18	297.83	43.69	-39.5	-40.2	24.6	0.00e+00	0	37	0	2642411520	50	3933
2026-01-19 12:40:54.19	298.23	43.50	-39.5	-40.2	24.6	0.00e+00	0	37	0	2648702976	50	3938
2026-01-19 12:40:55.19	298.62	43.31	-39.8	-40.5	24.3	0.00e+00	0	37	0	2653945856	50	4072
2026-01-19 12:40:56.20	299.01	43.12	-39.9	-40.6	24.2	0.00e+00	0	37	0	2660237312	50	4127
2026-01-19 12:40:57.21	299.39	42.93	-39.8	-40.6	24.3	0.00e+00	0	37	0	2665480192	50	4111
2026-01-19 12:40:58.22	299.77	42.74	-39.7	-40.4	24.4	0.00e+00	0	37	0	2671771648	50	4043
2026-01-19 12:40:59.23	300.15	42.54	-39.4	-40.1	24.6	0.00e+00	0	37	0	2677014528	50	3895
2026-01-19 12:41:00.24	300.52	42.35	-39.3	-40.0	24.7	0.00e+00	0	37	0	2682257408	50	3860
2026-01-19 12:41:01.25	300.89	42.16	-39.5	-40.2	24.6	0.00e+00	0	37	0	2688548864	50	3920
2026-01-19 12:41:02.25	301.24	41.96	-39.7	-40.4	24.4	0.00e+00	0	37	0	2693791744	50	4019
2026-01-19 12:41:03.26	301.60	41.77	-39.7	-40.5	24.3	0.00e+00	0	37	0	2699034624	50	4067
2026-01-19 12:41:04.27	301.96	41.58	-39.7	-40.4	24.4	0.00e+00	0	37	0	2705326080	50	4030
2026-01-19 12:41:05.27	302.30	41.38	-39.7	-40.4	24.3	0.00e+00	0	37	0	2710568960	50	4048
2026-01-19 12:41:06.28	302.65	41.19	-39.4	-40.1	24.7	0.00e+00	0	37	0	2715811840	50	3883
2026-01-19 12:41:07.29	302.99	41.00	-39.2	-39.9	24.8	0.00e+00	0	37	0	2722103296	50	3809
2026-01-19 12:41:08.30	303.32	40.80	-39.4	-40.1	24.6	0.00e+00	0	37	0	2728394752	50	3905
2026-01-19 12:41:09.31	303.66	40.61	-39.3	-40.0	24.7	0.00e+00	0	37	0	2733637632	50	3864
2026-01-19 12:41:10.32	303.99	40.41	-39.3	-40.0	24.8	0.00e+00	0	37	0	2738880512	50	3860
2026-01-19 12:41:11.33	304.31	40.22	-39.2	-39.9	24.8	0.00e+00	0	37	0	2745171968	50	3813
2026-01-19 12:41:12.34	304.63	40.02	-39.2	-39.9	24.8	0.00e+00	0	37	0	2750414848	50	3806
2026-01-19 12:41:13.35	304.95	39.83	-39.2	-39.9	24.9	0.00e+00	0	37	0	2756706304	50	3787
2026-01-19 12:41:14.35	305.26	39.64	-39.1	-39.8	24.9	0.00e+00	0	37	0	2761949184	50	3762
2026-01-19 12:41:15.36	305.57	39.44	-39.2	-39.9	24.9	0.00e+00	0	37	0	2767192064	50	3781
2026-01-19 12:41:16.37	305.88	39.25	-39.2	-39.9	24.9	0.00e+00	0	37	0	2773483520	50	3794
2026-01-19 12:41:17.38	306.18	39.06	-39.3	-40.0	24.8	0.00e+00	0	37	0	2778726400	50	3829
2026-01-19 12:41:18.39	306.48	38.86	-39.3	-40.0	24.8	0.00e+00	0	37	0	2783969280	50	3839
2026-01-19 12:41:19.39	306.78	38.67	-39.1	-39.8	24.9	0.00e+00	0	37	0	2790260736	50	3773
2026-01-19 12:41:20.40	307.07	38.48	-39.1	-39.9	24.9	0.00e+00	0	37	0	2796552192	50	3791
2026-01-19 12:41:21.41	307.36	38.29	-39.1	-39.8	25.0	0.00e+00	0	37	0	2801795072	50	3749
2026-01-19 12:41:22.41	307.64	38.10	-39.1	-39.9	24.9	0.00e+00	0	37	0	2807037952	50	3787
2026-01-19 12:41:23.42	307.93	37.91	-39.1	-39.8	24.9	0.00e+00	0	37	0	2813329408	50	3774
2026-01-19 12:41:24.43	308.20	37.72	-39.0	-39.7	25.0	0.00e+00	0	37	0	2818572288	50	3704
2026-01-19 12:41:25.44	308.48	37.52	-38.9	-39.6	25.1	0.00e+00	0	37	0	2823815168	49	3886
2026-01-19 12:41:26.45	308.75	37.33	-39.0	-39.7	25.0	0.00e+00	0	37	0	2830106624	49	3929
2026-01-19 12:41:27.46	309.02	37.14	-39.1	-39.8	24.9	0.00e+00	0	37	0	2835349504	49	3974
2026-01-19 12:41:28.46	309.29	36.96	-39.1	-39.8	24.9	0.00e+00	0	37	0	2841640960	49	3999
2026-01-19 12:41:29.47	309.55	36.77	-39.2	-39.9	24.9	0.00e+00	0	37	0	2846883840	49	4013
2026-01-19 12:41:30.48	309.81	36.58	-39.3	-40.0	24.8	0.00e+00	0	37	0	2852126720	49	4069
2026-01-19 12:41:31.49	310.07	36.39	-39.2	-39.9	24.8	0.00e+00	0	37	0	2858418176	49	4032
2026-01-19 12:41:32.51	310.33	36.20	-39.1	-39.8	24.9	0.00e+00	0	37	0	2864709632	49	3995
2026-01-19 12:41:33.51	310.58	36.01	-39.0	-39.7	25.0	0.00e+00	0	37	0	2869952512	49	3927
2026-01-19 12:41:34.52	310.83	35.83	-38.9	-39.5	25.1	0.00e+00	0	37	0	2875195392	49	3868
2026-01-19 12:41:35.53	311.08	35.64	-38.8	-39.5	25.2	0.00e+00	0	37	0	2881486848	49	3847
2026-01-19 12:41:36.54	311.32	35.45	-38.9	-39.6	25.1	0.00e+00	0	37	0	2886729728	49	3905
2026-01-19 12:41:37.54	311.56	35.27	-39.0	-39.8	25.0	0.00e+00	0	37	0	2891972608	49	3959
2026-01-19 12:41:38.55	311.80	35.08	-39.2	-39.9	24.9	0.00e+00	0	37	0	2898264064	49	4018
2026-01-19 12:41:39.56	312.03	34.90	-39.2	-39.9	24.8	0.00e+00	0	37	0	2903506944	49	4025
2026-01-19 12:41:40.57	312.27	34.72	-39.2	-39.9	24.8	0.00e+00	0	37	0	2908749824	49	4027
2026-01-19 12:41:41.57	312.49	34.54	-39.3	-40.0	24.7	0.00e+00	0	37	0	2915041280	49	4056
2026-01-19 12:41:42.58	312.72	34.35	-39.1	-39.8	24.9	0.00e+00	0	37	0	2920284160	49	3993
2026-01-19 12:41:43.59	312.95	34.17	-39.2	-39.9	24.8	0.00e+00	0	37	0	2926575616	49	4019
2026-01-19 12:41:44.60	313.17	33.99	-39.2	-39.9	24.8	0.00e+00	0	37	0	2931818496	49	4035
2026-01-19 12:41:45.61	313.39	33.81	-39.2	-39.9	24.8	0.00e+00	0	37	0	2938109952	49	4031
2026-01-19 12:41:46.61	313.61	33.63	-39.2	-39.9	24.8	0.00e+00	0	37	0	2943352832	49	4038
2026-01-19 12:41:47.62	313.83	33.45	-39.3	-40.0	24.7	0.00e+00	0	37	0	2949644288	49	4073
2026-01-19 12:41:48.63	314.04	33.27	-39.3	-40.0	24.7	0.00e+00	0	37	0	2954887168	49	4071
2026-01-19 12:41:49.64	314.25	33.09	-39.3	-40.0	24.7	0.00e+00	0	37	0	2960130048	49	4067
2026-01-19 12:41:50.65	314.46	32.91	-39.4	-40.1	24.7	0.00e+00	0	37	0	2966421504	49	4110
2026-01-19 12:41:51.65	314.67	32.74	-39.4	-40.1	24.6	0.00e+00	0	37	0	2971664384	49	4110
2026-01-19 12:41:52.66	314.87	32.56	-39.3	-40.0	24.6	0.00e+00	0	37	0	2976907264	49	4098
2026-01-19 12:41:53.67	315.07	32.39	-39.2	-39.9	24.8	0.00e+00	0	37	0	2983198720	49	4036
2026-01-19 12:41:54.68	315.27	32.21	-39.2	-39.9	24.7	0.00e+00	0	37	0	2988441600	49	4047
2026-01-19 12:41:55.68	315.47	32.04	-39.3	-40.0	24.7	0.00e+00	0	37	0	2993684480	49	4060
2026-01-19 12:41:56.69	315.67	31.87	-39.3	-40.0	24.7	0.00e+00	0	37	0	2999975936	49	4074
2026-01-19 12:41:57.70	315.86	31.69	-39.4	-40.1	24.6	0.00e+00	0	37	0	3006267392	49	4109
2026-01-19 12:41:58.70	316.05	31.52	-39.4	-40.1	24.6	0.00e+00	0	37	0	3011510272	49	4122
2026-01-19 12:41:59.71	316.24	31.35	-39.6	-40.3	24.4	0.00e+00	0	37	0	3016753152	49	4207
2026-01-19 12:42:00.72	316.43	31.18	-39.6	-40.4	24.3	0.00e+00	0	37	0	3023044608	49	4259
2026-01-19 12:42:01.73	316.62	31.01	-39.7	-40.5	24.3	0.00e+00	0	37	0	3028287488	49	4293
2026-01-19 12:42:02.74	316.80	30.84	-39.8	-40.5	24.2	0.00e+00	0	37	0	3034578944	50	4092
2026-01-19 12:42:03.74	316.98	30.67	-39.9	-40.6	24.1	0.00e+00	0	37	0	3039821824	50	4139
2026-01-19 12:42:04.75	317.16	30.50	-39.8	-40.5	24.2	0.00e+00	0	37	0	3045064704	50	4098
2026-01-19 12:42:05.76	317.34	30.33	-39.7	-40.4	24.3	0.00e+00	0	37	0	3051356160	50	4047
2026-01-19 12:42:06.77	317.52	30.17	-39.7	-40.4	24.3	0.00e+00	0	37	0	3056599040	50	4035
2026-01-19 12:42:07.77	317.70	30.00	-39.7	-40.5	24.3	0.00e+00	0	37	0	3061841920	50	4053
2026-01-19 12:42:08.78	317.87	29.84	-39.7	-40.4	24.3	0.00e+00	0	37	0	3068133376	50	4039
2026-01-19 12:42:09.79	318.04	29.67	-39.7	-40.4	24.3	0.00e+00	0	37	0	3073376256	50	4035
2026-01-19 12:42:10.80	318.21	29.51	-39.4	-40.1	24.5	0.00e+00	0	37	0	3079667712	50	3912
2026-01-19 12:42:11.81	318.38	29.34	-39.4	-40.1	24.5	0.00e+00	0	37	0	3084910592	50	3911
2026-01-19 12:42:12.81	318.55	29.18	-39.5	-40.3	24.5	0.00e+00	0	37	0	3091202048	50	3963
2026-01-19 12:42:13.82	318.71	29.02	-39.5	-40.2	24.5	0.00e+00	0	37	0	3096444928	50	3935
2026-01-19 12:42:14.83	318.88	28.86	-39.6	-40.3	24.4	0.00e+00	0	38	0	3101687808	50	3977
2026-01-19 12:42:15.84	319.04	28.70	-39.4	-40.1	24.6	0.00e+00	0	37	0	3107979264	50	3898
2026-01-19 12:42:16.85	319.20	28.54	-39.5	-40.2	24.4	0.00e+00	0	37	0	3113222144	50	3949
2026-01-19 12:42:17.86	319.36	28.38	-39.6	-40.3	24.4	0.00e+00	0	37	0	3119513600	50	3988
2026-01-19 12:42:18.87	319.52	28.22	-39.6	-40.3	24.4	0.00e+00	0	37	0	3124756480	50	3982
2026-01-19 12:42:19.88	319.67	28.06	-39.6	-40.3	24.4	0.00e+00	0	37	0	3129999360	50	3977
2026-01-19 12:42:20.89	319.83	27.90	-39.7	-40.4	24.2	0.00e+00	0	37	0	3136290816	50	4040
2026-01-19 12:42:21.89	319.98	27.75	-39.7	-40.4	24.3	0.00e+00	0	37	0	3142582272	50	4031
2026-01-19 12:42:22.90	320.13	27.59	-39.7	-40.4	24.3	0.00e+00	0	37	0	3147825152	50	4036
2026-01-19 12:42:23.91	320.28	27.44	-39.5	-40.2	24.4	0.00e+00	0	37	0	3153068032	50	3949
2026-01-19 12:42:24.92	320.43	27.28	-39.5	-40.2	24.5	0.00e+00	0	37	0	3159359488	50	3931
2026-01-19 12:42:25.93	320.58	27.13	-39.6	-40.3	24.4	0.00e+00	0	37	0	3164602368	50	3975
2026-01-19 12:42:26.93	320.72	26.98	-39.5	-40.3	24.4	0.00e+00	0	37	0	3169845248	50	3970
2026-01-19 12:42:27.94	320.87	26.82	-39.5	-40.2	24.5	0.00e+00	0	37	0	3176136704	50	3935
2026-01-19 12:42:28.95	321.01	26.67	-39.6	-40.3	24.4	0.00e+00	0	37	0	3181379584	50	3980
2026-01-19 12:42:29.96	321.15	26.52	-39.4	-40.1	24.5	0.00e+00	0	37	0	3186622464	50	3909
2026-01-19 12:42:30.97	321.29	26.37	-39.4	-40.1	24.5	0.00e+00	0	37	0	3192913920	50	3886
2026-01-19 12:42:31.98	321.43	26.22	-39.5	-40.2	24.4	0.00e+00	0	37	0	3198156800	50	3938
2026-01-19 12:42:32.99	321.57	26.07	-39.5	-40.2	24.4	0.00e+00	0	37	0	3204448256	50	3953
2026-01-19 12:42:33.99	321.71	25.92	-39.6	-40.3	24.3	0.00e+00	0	37	0	3209691136	50	3993
2026-01-19 12:42:35.01	321.84	25.77	-39.6	-40.4	24.3	0.00e+00	0	37	0	3215982592	50	4015
2026-01-19 12:42:36.01	321.98	25.63	-39.6	-40.3	24.3	0.00e+00	0	37	0	3221225472	50	3990
2026-01-19 12:42:37.02	322.11	25.48	-39.5	-40.2	24.4	0.00e+00	0	37	0	3227516928	50	3949
2026-01-19 12:42:38.03	322.24	25.34	-39.5	-40.2	24.3	0.00e+00	0	37	0	3232759808	50	3952
2026-01-19 12:42:39.04	322.37	25.19	-39.5	-40.2	24.4	0.00e+00	0	38	0	3238002688	50	3940
2026-01-19 12:42:40.05	322.50	25.05	-39.5	-40.2	24.4	0.00e+00	0	37	0	3244294144	50	3928
2026-01-19 12:42:41.06	322.63	24.90	-39.6	-40.3	24.2	0.00e+00	0	37	0	3249537024	50	3995
2026-01-19 12:42:42.07	322.76	24.76	-39.6	-40.3	24.3	0.00e+00	0	37	0	3254779904	50	3975
2026-01-19 12:42:43.07	322.89	24.62	-39.6	-40.3	24.2	0.00e+00	0	37	0	3261071360	50	3995
2026-01-19 12:42:44.08	323.01	24.47	-39.7	-40.4	24.2	0.00e+00	0	37	0	3266314240	50	4027
2026-01-19 12:42:45.09	323.14	24.33	-39.8	-40.5	24.1	0.00e+00	0	37	0	3271557120	50	4093
2026-01-19 12:42:46.10	323.26	24.19	-39.9	-40.7	24.0	0.00e+00	0	37	0	3277848576	50	4149
2026-01-19 12:42:47.11	323.38	24.05	-40.0	-40.8	23.8	0.00e+00	0	37	0	3284140032	50	4209
2026-01-19 12:42:48.11	323.50	23.91	-40.1	-40.9	23.7	0.00e+00	0	37	0	3289382912	50	4264
2026-01-19 12:42:49.12	323.62	23.77	-40.1	-40.9	23.7	0.00e+00	0	37	0	3294625792	50	4263
2026-01-19 12:42:50.13	323.74	23.64	-40.2	-41.0	23.6	0.00e+00	0	37	0	3300917248	51	4081
2026-01-19 12:42:51.14	323.86	23.50	-40.3	-41.1	23.5	0.00e+00	0	37	0	3306160128	51	4126
2026-01-19 12:42:52.15	323.98	23.36	-40.3	-41.1	23.6	0.00e+00	0	37	0	3312451584	51	4107
2026-01-19 12:42:53.15	324.09	23.23	-40.2	-41.0	23.6	0.00e+00	0	37	0	3317694464	51	4081
2026-01-19 12:42:54.16	324.21	23.09	-40.2	-41.0	23.6	0.00e+00	0	37	0	3322937344	51	4085
2026-01-19 12:42:55.17	324.32	22.95	-40.3	-41.0	23.6	0.00e+00	0	37	0	3329228800	51	4087
2026-01-19 12:42:56.18	324.43	22.82	-40.1	-40.9	23.7	0.00e+00	0	37	0	3334471680	51	4005
2026-01-19 12:42:57.18	324.54	22.69	-40.1	-40.8	23.8	0.00e+00	0	37	0	3339714560	51	3994
2026-01-19 12:42:58.19	324.66	22.55	-40.2	-40.9	23.7	0.00e+00	0	37	0	3346006016	51	4035
2026-01-19 12:42:59.20	324.77	22.42	-40.2	-41.0	23.6	0.00e+00	0	37	0	3352297472	51	4066
2026-01-19 12:43:00.21	324.88	22.29	-40.2	-40.9	23.6	0.00e+00	0	37	0	3357540352	51	4047
2026-01-19 12:43:01.22	324.99	22.16	-40.1	-40.8	23.7	0.00e+00	0	37	0	3362783232	51	4003
2026-01-19 12:43:02.22	325.09	22.03	-40.2	-41.0	23.6	0.00e+00	0	37	0	3369074688	51	4075
2026-01-19 12:43:03.23	325.20	21.90	-40.3	-41.1	23.5	0.00e+00	0	37	0	3374317568	51	4102
2026-01-19 12:43:04.24	325.31	21.77	-40.3	-41.1	23.5	0.00e+00	0	37	0	3379560448	51	4099
2026-01-19 12:43:05.25	325.41	21.64	-40.4	-41.2	23.4	0.00e+00	0	37	0	3385851904	51	4170
2026-01-19 12:43:06.26	325.52	21.51	-40.5	-41.3	23.3	0.00e+00	0	37	0	3391094784	51	4201
2026-01-19 12:43:07.27	325.62	21.38	-40.6	-41.4	23.3	0.00e+00	0	37	0	3397386240	51	4247
2026-01-19 12:43:08.27	325.72	21.25	-40.6	-41.4	23.2	0.00e+00	0	37	0	3402629120	51	4278
2026-01-19 12:43:09.28	325.82	21.13	-40.7	-41.5	23.1	0.00e+00	0	37	0	3407872000	51	4294
2026-01-19 12:43:10.29	325.92	21.00	-40.7	-41.5	23.1	0.00e+00	0	37	0	3414163456	51	4295
2026-01-19 12:43:11.30	326.03	20.87	-40.7	-41.5	23.0	0.00e+00	0	37	0	3420454912	52	4053
2026-01-19 12:43:12.30	326.12	20.75	-40.6	-41.3	23.1	0.00e+00	0	37	0	3425697792	52	4004
2026-01-19 12:43:13.31	326.22	20.62	-40.5	-41.3	23.1	0.00e+00	0	37	0	3430940672	52	3991
2026-01-19 12:43:14.32	326.32	20.50	-40.5	-41.3	23.2	0.00e+00	0	37	0	3437232128	52	3984
2026-01-19 12:43:15.32	326.42	20.38	-40.5	-41.3	23.2	0.00e+00	0	37	0	3442475008	52	3969
2026-01-19 12:43:16.33	326.51	20.25	-40.6	-41.4	23.1	0.00e+00	0	37	0	3447717888	52	4019
2026-01-19 12:43:17.34	326.61	20.13	-40.5	-41.2	23.2	0.00e+00	0	37	0	3454009344	52	3952
2026-01-19 12:43:18.35	326.71	20.01	-40.5	-41.2	23.2	0.00e+00	0	37	0	3459252224	52	3958
2026-01-19 12:43:19.36	326.80	19.89	-40.5	-41.3	23.2	0.00e+00	0	37	0	3464495104	52	3972
2026-01-19 12:43:20.37	326.89	19.76	-40.6	-41.3	23.1	0.00e+00	0	37	0	3470786560	52	3997
2026-01-19 12:43:21.37	326.99	19.64	-40.6	-41.3	23.1	0.00e+00	0	37	0	3476029440	52	3990
2026-01-19 12:43:22.38	327.08	19.52	-40.6	-41.3	23.1	0.00e+00	0	37	0	3482320896	52	3996
2026-01-19 12:43:23.39	327.17	19.40	-40.6	-41.4	23.1	0.00e+00	0	37	0	3487563776	52	4008
2026-01-19 12:43:24.40	327.26	19.29	-40.7	-41.5	23.0	0.00e+00	0	37	0	3493855232	52	4054
2026-01-19 12:43:25.41	327.35	19.17	-40.7	-41.5	22.9	0.00e+00	0	37	0	3499098112	52	4077
2026-01-19 12:43:26.41	327.44	19.05	-40.7	-41.5	22.9	0.00e+00	0	37	0	3505389568	52	4084
2026-01-19 12:43:27.42	327.53	18.93	-40.8	-41.6	22.9	0.00e+00	0	37	0	3510632448	52	4105
2026-01-19 12:43:28.43	327.62	18.81	-40.9	-41.7	22.7	0.00e+00	0	37	0	3515875328	52	4177
2026-01-19 12:43:29.44	327.71	18.70	-40.9	-41.7	22.7	0.00e+00	0	37	0	3522166784	52	4176
2026-01-19 12:43:30.45	327.79	18.58	-41.0	-41.8	22.7	0.00e+00	0	37	0	3527409664	52	4215
2026-01-19 12:43:31.45	327.88	18.47	-41.1	-41.9	22.5	0.00e+00	0	37	0	3532652544	52	4272
2026-01-19 12:43:32.46	327.96	18.35	-41.0	-41.8	22.6	0.00e+00	0	37	0	3538944000	52	4227
2026-01-19 12:43:33.47	328.05	18.24	-41.1	-41.9	22.6	0.00e+00	0	37	0	3544186880	52	4255
2026-01-19 12:43:34.48	328.13	18.12	-41.1	-41.9	22.6	0.00e+00	0	37	0	3549429760	52	4247
2026-01-19 12:43:35.48	328.22	18.01	-41.2	-42.0	22.5	0.00e+00	0	37	0	3555721216	52	4303
2026-01-19 12:43:36.49	328.30	17.90	-41.2	-42.0	22.5	0.00e+00	0	37	0	3562012672	53	4060
2026-01-19 12:43:37.50	328.38	17.78	-41.2	-42.0	22.4	0.00e+00	0	38	0	3567255552	53	4096
2026-01-19 12:43:38.51	328.47	17.67	-41.2	-42.0	22.5	0.00e+00	0	38	0	3572498432	53	4065
2026-01-19 12:43:39.52	328.55	17.56	-41.2	-42.0	22.4	0.00e+00	0	37	0	3578789888	53	4086
2026-01-19 12:43:40.53	328.63	17.45	-41.2	-42.1	22.4	0.00e+00	0	37	0	3584032768	53	4102
2026-01-19 12:43:41.53	328.71	17.34	-41.2	-42.0	22.4	0.00e+00	0	37	0	3590324224	53	4084
2026-01-19 12:43:42.54	328.79	17.23	-41.2	-42.0	22.4	0.00e+00	0	37	0	3595567104	53	4094
2026-01-19 12:43:43.55	328.87	17.12	-41.4	-42.2	22.2	0.00e+00	0	37	0	3600809984	53	4169
2026-01-19 12:43:44.56	328.95	17.01	-41.3	-42.1	22.3	0.00e+00	0	37	0	3607101440	53	4127
2026-01-19 12:43:45.57	329.03	16.90	-41.4	-42.2	22.2	0.00e+00	0	37	0	3612344320	53	4155
2026-01-19 12:43:46.57	329.10	16.79	-41.4	-42.3	22.1	0.00e+00	0	37	0	3617587200	53	4196
2026-01-19 12:43:47.58	329.18	16.68	-41.5	-42.3	22.1	0.00e+00	0	38	0	3623878656	53	4222
2026-01-19 12:43:48.59	329.26	16.57	-41.6	-42.5	22.0	0.00e+00	0	37	0	3629121536	53	4294
2026-01-19 12:43:49.60	329.33	16.47	-41.6	-42.4	22.0	0.00e+00	0	37	0	3635412992	53	4288
2026-01-19 12:43:50.61	329.41	16.36	-41.6	-42.4	22.0	0.00e+00	0	37	0	3640655872	53	4288
2026-01-19 12:43:51.61	329.48	16.25	-41.6	-42.4	22.0	0.00e+00	0	37	0	3646947328	53	4283
2026-01-19 12:43:52.62	329.56	16.15	-41.6	-42.5	21.9	0.00e+00	0	37	0	3652190208	53	4307
2026-01-19 12:43:53.63	329.63	16.04	-41.7	-42.6	21.8	0.00e+00	0	37	0	3657433088	53	4346
2026-01-19 12:43:54.64	329.71	15.94	-41.8	-42.6	21.8	0.00e+00	0	37	0	3663724544	54	4141
2026-01-19 12:43:55.65	329.78	15.83	-41.8	-42.7	21.7	0.00e+00	0	37	0	3668967424	54	4151
2026-01-19 12:43:56.65	329.85	15.73	-41.9	-42.7	21.7	0.00e+00	0	37	0	3675258880	54	4179
2026-01-19 12:43:57.66	329.93	15.62	-41.8	-42.6	21.8	0.00e+00	0	37	0	3680501760	54	4142
2026-01-19 12:43:58.67	330.00	15.52	-41.8	-42.7	21.7	0.00e+00	0	37	0	3685744640	54	4162
2026-01-19 12:43:59.68	330.07	15.42	-41.8	-42.7	21.7	0.00e+00	0	37	0	3692036096	54	4151
2026-01-19 12:44:00.69	330.14	15.31	-41.9	-42.8	21.6	0.00e+00	0	37	0	3697278976	54	4206
2026-01-19 12:44:01.69	330.21	15.21	-42.0	-42.8	21.5	0.00e+00	0	37	0	3703570432	54	4237
