passes_logs/2026/01/19/R3.2S_Murmansk/R3.2S_Murmansk__20260119_105207_FENGYUN_3D_rec.log

#Pass ID: 20260119_105207_FENGYUN 3D
#Satellite: FENGYUN 3D
#Configuration: FENGYUN 3D
#almurnet v.1.7.20251203
#Start time: 2026-01-19 10:52:07

#Version: 2.2.20231116
#Station: R3.2S_Murmansk
#Location: 33.079688 lon 68.888172 lat
#TLE: 1 43010U 17072A   26018.95027258  .00000058  00000+0  49274-4 0  9992
#TLE: 2 43010  98.9939 350.8271 0002416 102.0826 258.0620 14.19696908423819

#Time	Az	El	Level	Level2	SNR	BER	BlckErr	Temp	State	Recorded	gain1	gain2
2026-01-19 10:52:07.66	134.98	1.99	-51.9	-63.8	3.8	8.48e-01	0	36	0	0	75	14188
2026-01-19 10:52:08.67	134.96	2.06	-51.9	-63.8	3.8	8.48e-01	0	36	104	0	74	15021
2026-01-19 10:52:09.67	134.95	2.12	-51.9	-63.8	3.8	8.47e-01	0	36	104	0	74	14997
2026-01-19 10:52:10.68	134.93	2.19	-51.9	-63.8	3.8	8.45e-01	0	36	104	0	74	15013
2026-01-19 10:52:11.69	134.92	2.25	-51.9	-63.8	3.8	8.46e-01	0	36	104	0	74	14967
2026-01-19 10:52:12.70	134.90	2.32	-51.9	-63.8	3.8	8.46e-01	0	37	104	0	74	15018
2026-01-19 10:52:13.71	134.89	2.38	-51.9	-63.8	3.8	8.46e-01	0	37	104	0	74	14943
2026-01-19 10:52:14.72	134.87	2.45	-51.9	-63.8	3.8	8.46e-01	0	36	104	0	74	14924
2026-01-19 10:52:15.72	134.86	2.51	-51.9	-63.8	3.8	8.45e-01	0	36	104	0	74	14960
2026-01-19 10:52:16.73	134.84	2.58	-51.9	-63.8	3.8	8.45e-01	0	37	104	0	74	14980
2026-01-19 10:52:17.74	134.83	2.64	-51.9	-63.8	3.8	8.48e-01	0	36	104	0	74	14941
2026-01-19 10:52:18.75	134.81	2.71	-51.9	-63.8	3.8	8.45e-01	0	37	104	0	74	14949
2026-01-19 10:52:19.76	134.80	2.78	-51.9	-63.8	3.8	8.45e-01	0	37	104	0	74	14976
2026-01-19 10:52:20.76	134.78	2.84	-51.9	-63.8	3.8	8.46e-01	0	37	104	0	74	14923
2026-01-19 10:52:21.77	134.77	2.91	-51.9	-63.8	3.8	8.47e-01	0	37	104	0	74	14967
2026-01-19 10:52:22.78	134.75	2.97	-51.9	-63.8	3.8	8.46e-01	0	37	104	0	74	14985
2026-01-19 10:52:23.79	134.74	3.04	-51.9	-63.8	3.8	8.46e-01	0	37	104	0	74	14932
2026-01-19 10:52:24.80	134.72	3.11	-51.9	-63.8	3.8	8.46e-01	0	37	104	0	74	14983
2026-01-19 10:52:25.81	134.70	3.18	-51.9	-63.7	3.8	8.46e-01	0	37	104	0	74	14852
2026-01-19 10:52:26.81	134.69	3.24	-51.9	-63.8	3.8	8.46e-01	0	37	104	0	74	14927
2026-01-19 10:52:27.82	134.67	3.31	-51.9	-63.8	3.8	8.47e-01	0	37	104	0	74	14894
2026-01-19 10:52:28.83	134.66	3.38	-51.9	-63.7	3.8	8.46e-01	0	37	104	0	74	14819
2026-01-19 10:52:29.84	134.64	3.44	-51.9	-63.7	3.8	8.47e-01	0	37	104	0	74	14822
2026-01-19 10:52:30.85	134.62	3.51	-51.9	-63.8	3.8	8.45e-01	0	37	104	0	74	14902
2026-01-19 10:52:31.85	134.61	3.58	-51.9	-63.8	3.8	8.47e-01	0	37	104	0	74	14888
2026-01-19 10:52:32.86	134.59	3.65	-51.9	-63.7	3.8	8.46e-01	0	37	104	0	74	14778
2026-01-19 10:52:33.87	134.57	3.72	-51.8	-63.6	3.8	8.46e-01	0	37	104	0	74	14677
2026-01-19 10:52:34.88	134.56	3.79	-51.9	-63.6	3.8	8.45e-01	0	37	104	0	74	14663
2026-01-19 10:52:35.89	134.54	3.85	-51.8	-63.5	3.8	8.46e-01	0	37	104	0	74	14418
2026-01-19 10:52:36.89	134.52	3.92	-51.8	-63.5	3.8	8.46e-01	0	37	104	0	74	14412
2026-01-19 10:52:37.90	134.51	3.99	-51.8	-63.4	3.8	8.46e-01	0	37	104	0	74	14306
2026-01-19 10:52:38.91	134.49	4.06	-51.8	-63.1	3.8	8.47e-01	0	37	104	0	74	13838
2026-01-19 10:52:39.91	134.47	4.13	-51.7	-62.5	3.8	8.46e-01	0	37	104	0	74	12902
2026-01-19 10:52:40.92	134.45	4.20	-51.6	-61.6	3.8	8.46e-01	0	37	104	0	74	11556
2026-01-19 10:52:41.93	134.44	4.27	-51.5	-60.4	4.1	8.36e-01	0	37	0	0	74	10088
2026-01-19 10:52:42.94	134.42	4.34	-51.1	-57.9	5.2	8.17e-01	0	37	0	0	74	7583
2026-01-19 10:52:43.95	134.40	4.41	-50.6	-56.1	6.5	2.36e-01	0	37	0	4194304	73	6504
2026-01-19 10:52:44.95	134.38	4.48	-49.9	-54.1	8.4	1.27e-01	0	37	0	9437184	71	5852
2026-01-19 10:52:45.96	134.37	4.55	-48.6	-51.6	11.1	3.72e-03	0	37	0	15728640	69	4890
2026-01-19 10:52:46.97	134.35	4.62	-47.3	-49.6	13.1	3.76e-04	0	37	0	22020096	66	4617
2026-01-19 10:52:47.98	134.33	4.69	-46.1	-47.8	15.0	0.00e+00	0	37	0	27262976	63	4465
2026-01-19 10:52:48.99	134.31	4.76	-45.3	-46.8	16.0	0.00e+00	0	37	0	32505856	62	4216
2026-01-19 10:52:50.00	134.29	4.83	-45.0	-46.5	16.3	0.00e+00	0	37	0	38797312	62	4065
2026-01-19 10:52:51.01	134.28	4.91	-44.7	-46.1	16.7	0.00e+00	0	37	0	44040192	61	4126
2026-01-19 10:52:52.01	134.26	4.98	-44.0	-45.3	17.5	0.00e+00	0	37	0	49283072	60	3979
2026-01-19 10:52:53.02	134.24	5.05	-44.5	-45.9	16.9	0.00e+00	0	37	0	55574528	60	4281
2026-01-19 10:52:54.03	134.22	5.12	-47.4	-49.7	13.2	0.00e+00	0	37	0	60817408	65	4971
2026-01-19 10:52:55.04	134.20	5.19	-44.9	-46.3	16.7	0.00e+00	0	37	0	67108864	61	4228
2026-01-19 10:52:56.04	134.18	5.26	-47.7	-50.1	12.7	0.00e+00	0	37	0	72351744	65	5186
2026-01-19 10:52:57.05	134.16	5.34	-48.7	-51.5	11.5	3.52e-04	0	37	0	77594624	67	5461
2026-01-19 10:52:58.06	134.14	5.41	-46.6	-48.6	14.1	0.00e+00	0	37	0	83886080	63	4886
2026-01-19 10:52:59.07	134.12	5.48	-44.3	-45.6	17.4	0.00e+00	0	37	0	90177536	60	4114
2026-01-19 10:53:00.07	134.11	5.55	-44.0	-45.2	18.1	0.00e+00	0	38	0	95420416	59	4187
2026-01-19 10:53:01.08	134.09	5.63	-44.4	-45.7	17.7	0.00e+00	0	37	0	100663296	59	4411
2026-01-19 10:53:02.09	134.07	5.70	-44.1	-45.3	18.1	0.00e+00	0	37	0	106954752	59	4242
2026-01-19 10:53:03.10	134.05	5.78	-44.5	-45.8	17.6	0.00e+00	0	37	0	112197632	59	4464
2026-01-19 10:53:04.11	134.03	5.85	-44.3	-45.6	17.9	0.00e+00	0	37	0	117440512	59	4354
2026-01-19 10:53:05.11	134.01	5.92	-43.9	-45.2	18.3	0.00e+00	0	38	0	123731968	59	4146
2026-01-19 10:53:06.12	133.99	6.00	-44.3	-45.5	17.9	0.00e+00	0	37	0	128974848	59	4339
2026-01-19 10:53:07.13	133.97	6.07	-44.5	-45.8	17.7	0.00e+00	0	37	0	134217728	59	4456
2026-01-19 10:53:08.14	133.95	6.15	-44.1	-45.3	18.2	0.00e+00	0	37	0	140509184	59	4215
2026-01-19 10:53:09.15	133.93	6.22	-44.2	-45.5	18.1	0.00e+00	0	37	0	145752064	59	4293
2026-01-19 10:53:10.15	133.91	6.30	-44.1	-45.3	18.3	0.00e+00	0	37	0	152043520	59	4213
2026-01-19 10:53:11.16	133.89	6.37	-43.9	-45.1	18.5	0.00e+00	0	38	0	157286400	59	4133
2026-01-19 10:53:12.17	133.86	6.45	-44.2	-45.5	18.1	0.00e+00	0	37	0	163577856	59	4302
2026-01-19 10:53:13.18	133.84	6.52	-44.1	-45.3	18.3	0.00e+00	0	38	0	168820736	59	4214
2026-01-19 10:53:14.18	133.82	6.60	-44.0	-45.2	18.3	0.00e+00	0	38	0	175112192	59	4191
2026-01-19 10:53:15.19	133.80	6.68	-44.2	-45.4	18.2	0.00e+00	0	38	0	180355072	59	4281
2026-01-19 10:53:16.20	133.78	6.75	-43.9	-45.1	18.6	0.00e+00	0	37	0	185597952	59	4108
2026-01-19 10:53:17.21	133.76	6.83	-44.0	-45.2	18.4	0.00e+00	0	38	0	191889408	59	4188
2026-01-19 10:53:18.22	133.74	6.91	-44.3	-45.5	18.1	0.00e+00	0	38	0	197132288	59	4333
2026-01-19 10:53:19.22	133.72	6.98	-44.0	-45.2	18.5	0.00e+00	0	38	0	202375168	59	4149
2026-01-19 10:53:20.23	133.69	7.06	-44.0	-45.1	18.5	0.00e+00	0	38	0	208666624	59	4141
2026-01-19 10:53:21.24	133.67	7.14	-43.8	-45.0	18.7	0.00e+00	0	38	0	213909504	59	4061
2026-01-19 10:53:22.25	133.65	7.22	-44.0	-45.2	18.5	0.00e+00	0	38	0	219152384	59	4187
2026-01-19 10:53:23.26	133.63	7.29	-44.0	-45.2	18.5	0.00e+00	0	37	0	225443840	59	4153
2026-01-19 10:53:24.27	133.61	7.37	-43.9	-45.1	18.6	0.00e+00	0	38	0	231735296	59	4125
2026-01-19 10:53:25.27	133.58	7.45	-43.9	-45.1	18.7	0.00e+00	0	37	0	236978176	59	4107
2026-01-19 10:53:26.28	133.56	7.53	-43.8	-44.9	18.8	0.00e+00	0	37	0	242221056	59	4039
2026-01-19 10:53:27.29	133.54	7.61	-44.0	-45.2	18.6	0.00e+00	0	38	0	248512512	59	4146
2026-01-19 10:53:28.30	133.51	7.69	-43.8	-45.0	18.8	0.00e+00	0	38	0	253755392	59	4060
2026-01-19 10:53:29.31	133.49	7.77	-43.7	-44.8	18.9	0.00e+00	0	38	0	260046848	59	3985
2026-01-19 10:53:30.31	133.47	7.85	-44.1	-45.3	18.4	0.00e+00	0	38	0	265289728	59	4231
2026-01-19 10:53:31.32	133.45	7.93	-43.9	-45.1	18.7	0.00e+00	0	38	0	270532608	59	4101
2026-01-19 10:53:32.33	133.42	8.01	-43.7	-44.8	19.0	0.00e+00	0	38	0	276824064	59	3983
2026-01-19 10:53:33.33	133.40	8.09	-43.6	-44.7	19.1	0.00e+00	0	38	0	282066944	59	3945
2026-01-19 10:53:34.34	133.37	8.17	-43.7	-44.9	19.0	0.00e+00	0	38	0	287309824	59	4009
2026-01-19 10:53:35.35	133.35	8.25	-43.7	-44.8	19.0	0.00e+00	0	38	0	293601280	59	3983
2026-01-19 10:53:36.36	133.33	8.33	-43.9	-45.1	18.7	0.00e+00	0	38	0	299892736	59	4114
2026-01-19 10:53:37.37	133.30	8.41	-43.8	-44.9	18.9	0.00e+00	0	38	0	305135616	59	4035
2026-01-19 10:53:38.37	133.28	8.49	-43.9	-45.0	18.8	0.00e+00	0	38	0	310378496	59	4076
2026-01-19 10:53:39.38	133.25	8.58	-43.7	-44.8	19.1	0.00e+00	0	38	0	316669952	59	3993
2026-01-19 10:53:40.39	133.23	8.66	-43.7	-44.9	19.0	0.00e+00	0	38	0	321912832	59	4008
2026-01-19 10:53:41.39	133.20	8.74	-43.6	-44.7	19.1	0.00e+00	0	38	0	327155712	59	3956
2026-01-19 10:53:42.40	133.18	8.82	-43.5	-44.6	19.3	0.00e+00	0	38	0	333447168	58	4101
2026-01-19 10:53:43.41	133.15	8.91	-43.2	-44.3	19.6	0.00e+00	0	38	0	338690048	58	3986
2026-01-19 10:53:44.42	133.13	8.99	-43.3	-44.3	19.5	0.00e+00	0	38	0	344981504	58	4001
2026-01-19 10:53:45.43	133.10	9.07	-43.5	-44.6	19.3	0.00e+00	0	38	0	350224384	58	4121
2026-01-19 10:53:46.43	133.08	9.16	-43.2	-44.3	19.6	0.00e+00	0	38	0	355467264	58	3964
2026-01-19 10:53:47.44	133.05	9.24	-43.3	-44.3	19.6	0.00e+00	0	38	0	361758720	58	4003
2026-01-19 10:53:48.45	133.03	9.33	-43.5	-44.6	19.3	0.00e+00	0	38	0	367001600	58	4139
2026-01-19 10:53:49.46	133.00	9.41	-43.4	-44.4	19.5	0.00e+00	0	38	0	373293056	58	4048
2026-01-19 10:53:50.46	132.97	9.49	-43.1	-44.1	19.8	0.00e+00	0	38	0	378535936	58	3887
2026-01-19 10:53:51.47	132.95	9.58	-43.0	-44.1	19.9	0.00e+00	0	38	0	384827392	58	3887
2026-01-19 10:53:52.48	132.92	9.67	-43.0	-44.1	19.9	0.00e+00	0	38	0	390070272	58	3873
2026-01-19 10:53:53.49	132.89	9.75	-43.2	-44.2	19.7	0.00e+00	0	38	0	395313152	58	3948
2026-01-19 10:53:54.50	132.87	9.84	-43.0	-44.0	19.9	0.00e+00	0	38	0	401604608	57	4072
2026-01-19 10:53:55.51	132.84	9.92	-43.0	-44.0	19.9	0.00e+00	0	38	0	406847488	57	4096
2026-01-19 10:53:56.51	132.81	10.01	-43.0	-44.1	19.9	0.00e+00	0	38	0	412090368	57	4100
2026-01-19 10:53:57.52	132.78	10.10	-43.0	-44.1	19.9	0.00e+00	0	38	0	418381824	57	4099
2026-01-19 10:53:58.53	132.76	10.19	-42.9	-43.9	20.0	0.00e+00	0	38	0	423624704	57	4051
2026-01-19 10:53:59.54	132.73	10.27	-43.0	-44.0	20.0	0.00e+00	0	38	0	429916160	57	4081
2026-01-19 10:54:00.55	132.70	10.36	-43.1	-44.1	19.9	0.00e+00	0	38	0	435159040	57	4127
2026-01-19 10:54:01.55	132.67	10.45	-42.9	-43.9	20.0	0.00e+00	0	38	0	440401920	57	4047
2026-01-19 10:54:02.56	132.64	10.54	-43.0	-44.1	19.9	0.00e+00	0	38	0	446693376	57	4102
2026-01-19 10:54:03.57	132.61	10.63	-42.9	-44.0	20.0	0.00e+00	0	38	0	452984832	57	4062
2026-01-19 10:54:04.58	132.59	10.72	-42.9	-43.9	20.0	0.00e+00	0	38	0	458227712	57	4047
2026-01-19 10:54:05.58	132.56	10.80	-43.1	-44.2	19.8	0.00e+00	0	38	0	463470592	57	4165
2026-01-19 10:54:06.59	132.53	10.90	-42.9	-43.9	20.1	0.00e+00	0	38	0	469762048	57	4023
2026-01-19 10:54:07.60	132.50	10.99	-43.0	-44.0	20.0	0.00e+00	0	38	0	475004928	57	4082
2026-01-19 10:54:08.61	132.47	11.08	-43.0	-44.0	20.0	0.00e+00	0	38	0	480247808	57	4067
2026-01-19 10:54:09.62	132.44	11.17	-42.8	-43.8	20.2	0.00e+00	0	38	0	486539264	57	3963
2026-01-19 10:54:10.63	132.41	11.26	-42.9	-44.0	20.0	0.00e+00	0	38	0	491782144	57	4060
2026-01-19 10:54:11.64	132.38	11.35	-42.9	-43.9	20.1	0.00e+00	0	38	0	497025024	57	4037
2026-01-19 10:54:12.65	132.35	11.44	-42.9	-43.9	20.1	0.00e+00	0	38	0	503316480	57	4029
2026-01-19 10:54:13.66	132.32	11.53	-42.9	-43.9	20.1	0.00e+00	0	38	0	509607936	57	4016
2026-01-19 10:54:14.67	132.28	11.63	-42.7	-43.7	20.4	0.00e+00	0	38	0	514850816	57	3921
2026-01-19 10:54:15.67	132.25	11.72	-42.9	-43.9	20.2	0.00e+00	0	38	0	520093696	57	4013
2026-01-19 10:54:16.68	132.22	11.81	-42.8	-43.8	20.2	0.00e+00	0	38	0	526385152	57	3975
2026-01-19 10:54:17.69	132.19	11.91	-42.8	-43.8	20.2	0.00e+00	0	38	0	531628032	57	3974
2026-01-19 10:54:18.69	132.16	12.00	-42.8	-43.8	20.2	0.00e+00	0	38	0	537919488	57	3975
2026-01-19 10:54:19.70	132.13	12.09	-42.7	-43.7	20.3	0.00e+00	0	38	0	543162368	57	3948
2026-01-19 10:54:20.71	132.09	12.19	-42.7	-43.7	20.4	0.00e+00	0	38	0	548405248	57	3926
2026-01-19 10:54:21.72	132.06	12.28	-42.8	-43.8	20.3	0.00e+00	0	38	0	554696704	57	3964
2026-01-19 10:54:22.73	132.03	12.38	-42.7	-43.7	20.3	0.00e+00	0	38	0	559939584	57	3943
2026-01-19 10:54:23.73	132.00	12.47	-42.6	-43.6	20.4	0.00e+00	0	38	0	565182464	57	3903
2026-01-19 10:54:24.74	131.96	12.57	-42.8	-43.8	20.3	0.00e+00	0	38	0	571473920	57	3984
2026-01-19 10:54:25.75	131.93	12.67	-42.5	-43.5	20.5	0.00e+00	0	38	0	576716800	56	4072
2026-01-19 10:54:26.76	131.90	12.76	-42.5	-43.4	20.6	0.00e+00	0	38	0	583008256	56	4050
2026-01-19 10:54:27.76	131.86	12.86	-42.4	-43.4	20.7	0.00e+00	0	38	0	588251136	56	4012
2026-01-19 10:54:28.77	131.83	12.96	-42.4	-43.4	20.6	0.00e+00	0	38	0	594542592	56	4039
2026-01-19 10:54:29.78	131.79	13.06	-42.4	-43.3	20.7	0.00e+00	0	38	0	599785472	56	3998
2026-01-19 10:54:30.79	131.76	13.15	-42.3	-43.3	20.7	0.00e+00	0	38	0	605028352	56	3987
2026-01-19 10:54:31.80	131.72	13.25	-42.3	-43.3	20.8	0.00e+00	0	38	0	611319808	56	3984
2026-01-19 10:54:32.80	131.69	13.35	-42.5	-43.4	20.6	0.00e+00	0	38	0	616562688	56	4040
2026-01-19 10:54:33.81	131.65	13.45	-42.4	-43.4	20.7	0.00e+00	0	38	0	622854144	56	4011
2026-01-19 10:54:34.82	131.62	13.55	-42.2	-43.2	20.9	0.00e+00	0	38	0	628097024	56	3933
2026-01-19 10:54:35.83	131.58	13.65	-42.2	-43.1	21.0	0.00e+00	0	38	0	633339904	56	3896
2026-01-19 10:54:36.83	131.55	13.75	-42.2	-43.2	20.9	0.00e+00	0	38	0	639631360	56	3922
2026-01-19 10:54:37.84	131.51	13.85	-42.2	-43.2	20.9	0.00e+00	0	38	0	644874240	56	3918
2026-01-19 10:54:38.85	131.47	13.95	-42.1	-43.1	21.0	0.00e+00	0	38	0	650117120	56	3876
2026-01-19 10:54:39.86	131.43	14.06	-42.2	-43.1	20.9	0.00e+00	0	38	0	656408576	56	3905
2026-01-19 10:54:40.87	131.40	14.16	-42.0	-43.0	21.1	0.00e+00	0	38	0	662700032	56	3835
2026-01-19 10:54:41.87	131.36	14.26	-42.2	-43.2	20.9	0.00e+00	0	38	0	667942912	56	3933
2026-01-19 10:54:42.88	131.32	14.36	-42.1	-43.0	21.1	0.00e+00	0	38	0	673185792	56	3838
2026-01-19 10:54:43.89	131.28	14.47	-42.1	-43.0	21.1	0.00e+00	0	38	0	679477248	56	3843
2026-01-19 10:54:44.90	131.24	14.57	-41.8	-42.7	21.3	0.00e+00	0	38	0	684720128	55	3928
2026-01-19 10:54:45.91	131.21	14.68	-41.7	-42.6	21.4	0.00e+00	0	38	0	689963008	55	3906
2026-01-19 10:54:46.91	131.17	14.78	-41.6	-42.5	21.5	0.00e+00	0	38	0	696254464	55	3852
2026-01-19 10:54:47.92	131.13	14.89	-41.7	-42.6	21.4	0.00e+00	0	38	0	701497344	55	3889
2026-01-19 10:54:48.93	131.09	14.99	-41.7	-42.6	21.4	0.00e+00	0	38	0	707788800	55	3893
2026-01-19 10:54:49.94	131.05	15.10	-41.5	-42.4	21.6	0.00e+00	0	38	0	713031680	55	3801
2026-01-19 10:54:50.94	131.01	15.20	-41.5	-42.4	21.6	0.00e+00	0	38	0	718274560	54	4031
2026-01-19 10:54:51.95	130.97	15.31	-41.6	-42.5	21.5	0.00e+00	0	38	0	724566016	54	4064
2026-01-19 10:54:52.96	130.93	15.42	-41.6	-42.5	21.5	0.00e+00	0	38	0	730857472	54	4091
2026-01-19 10:54:53.97	130.88	15.53	-41.6	-42.5	21.5	0.00e+00	0	38	0	736100352	54	4085
2026-01-19 10:54:54.98	130.84	15.64	-41.4	-42.2	21.7	0.00e+00	0	38	0	741343232	54	3954
2026-01-19 10:54:55.99	130.80	15.75	-41.3	-42.2	21.8	0.00e+00	0	38	0	747634688	54	3924
2026-01-19 10:54:56.99	130.76	15.85	-41.1	-41.9	22.0	0.00e+00	0	38	0	752877568	54	3816
2026-01-19 10:54:58.00	130.72	15.96	-41.3	-42.2	21.8	0.00e+00	0	38	0	758120448	54	3920
2026-01-19 10:54:59.01	130.67	16.07	-41.2	-42.1	21.9	0.00e+00	0	38	0	764411904	54	3870
2026-01-19 10:55:00.02	130.63	16.19	-41.1	-41.9	22.0	0.00e+00	0	38	0	769654784	54	3804
2026-01-19 10:55:01.02	130.59	16.30	-41.1	-42.0	22.0	0.00e+00	0	38	0	774897664	54	3839
2026-01-19 10:55:02.03	130.54	16.41	-41.0	-41.9	22.1	0.00e+00	0	38	0	781189120	54	3784
2026-01-19 10:55:03.04	130.50	16.52	-41.3	-42.2	21.8	0.00e+00	0	38	0	786432000	54	3916
2026-01-19 10:55:04.05	130.45	16.63	-41.3	-42.2	21.8	0.00e+00	0	38	0	792723456	54	3919
2026-01-19 10:55:05.06	130.41	16.75	-41.1	-41.9	22.1	0.00e+00	0	38	0	797966336	54	3812
2026-01-19 10:55:06.07	130.36	16.86	-41.0	-41.8	22.1	0.00e+00	0	38	0	804257792	54	3779
2026-01-19 10:55:07.07	130.32	16.97	-41.1	-41.9	22.1	0.00e+00	0	38	0	809500672	53	4038
2026-01-19 10:55:08.08	130.27	17.09	-40.9	-41.7	22.2	0.00e+00	0	38	0	815792128	53	3944
2026-01-19 10:55:09.09	130.22	17.21	-41.0	-41.8	22.2	0.00e+00	0	38	0	821035008	53	3994
2026-01-19 10:55:10.10	130.18	17.32	-40.9	-41.7	22.3	0.00e+00	0	38	0	826277888	53	3943
2026-01-19 10:55:11.11	130.13	17.44	-41.0	-41.8	22.2	0.00e+00	0	38	0	832569344	53	3996
2026-01-19 10:55:12.12	130.08	17.56	-40.9	-41.8	22.2	0.00e+00	0	38	0	837812224	53	3965
2026-01-19 10:55:13.12	130.03	17.67	-41.1	-41.9	22.1	0.00e+00	0	38	0	843055104	53	4035
2026-01-19 10:55:14.13	129.99	17.79	-41.0	-41.9	22.2	0.00e+00	0	38	0	849346560	53	4017
2026-01-19 10:55:15.14	129.94	17.91	-41.2	-42.1	21.9	0.00e+00	0	38	0	854589440	53	4125
2026-01-19 10:55:16.15	129.89	18.03	-41.1	-42.0	22.1	0.00e+00	0	38	0	859832320	53	4055
2026-01-19 10:55:17.16	129.84	18.15	-40.9	-41.8	22.2	0.00e+00	0	38	0	866123776	53	3980
2026-01-19 10:55:18.17	129.79	18.27	-40.7	-41.6	22.4	0.00e+00	0	38	0	872415232	53	3870
2026-01-19 10:55:19.17	129.74	18.39	-40.8	-41.7	22.3	0.00e+00	0	38	0	877658112	53	3924
2026-01-19 10:55:20.18	129.69	18.51	-40.8	-41.6	22.4	0.00e+00	0	38	0	882900992	53	3910
2026-01-19 10:55:21.19	129.63	18.63	-40.8	-41.6	22.4	0.00e+00	0	38	0	889192448	53	3907
2026-01-19 10:55:22.20	129.58	18.76	-40.8	-41.7	22.3	0.00e+00	0	38	0	894435328	53	3927
2026-01-19 10:55:23.21	129.53	18.88	-40.8	-41.7	22.3	0.00e+00	0	38	0	900726784	53	3920
2026-01-19 10:55:24.21	129.48	19.00	-40.8	-41.7	22.3	0.00e+00	0	38	0	905969664	53	3930
2026-01-19 10:55:25.22	129.42	19.13	-40.9	-41.7	22.3	0.00e+00	0	38	0	911212544	53	3950
2026-01-19 10:55:26.23	129.37	19.25	-40.8	-41.6	22.4	0.00e+00	0	38	0	917504000	53	3905
2026-01-19 10:55:27.24	129.32	19.38	-40.8	-41.6	22.4	0.00e+00	0	38	0	922746880	53	3906
2026-01-19 10:55:28.24	129.26	19.50	-40.9	-41.7	22.3	0.00e+00	0	38	0	927989760	53	3941
2026-01-19 10:55:29.25	129.21	19.63	-40.9	-41.7	22.3	0.00e+00	0	38	0	934281216	53	3948
2026-01-19 10:55:30.26	129.15	19.76	-40.8	-41.6	22.4	0.00e+00	0	38	0	940572672	53	3910
2026-01-19 10:55:31.27	129.10	19.88	-40.8	-41.6	22.4	0.00e+00	0	38	0	945815552	53	3912
2026-01-19 10:55:32.28	129.04	20.01	-40.8	-41.6	22.4	0.00e+00	0	38	0	951058432	53	3890
2026-01-19 10:55:33.28	128.98	20.14	-40.8	-41.7	22.4	0.00e+00	0	38	0	957349888	53	3921
2026-01-19 10:55:34.29	128.92	20.27	-40.8	-41.6	22.4	0.00e+00	0	38	0	962592768	53	3907
2026-01-19 10:55:35.30	128.87	20.40	-40.7	-41.6	22.4	0.00e+00	0	38	0	967835648	53	3886
2026-01-19 10:55:36.31	128.81	20.53	-40.8	-41.6	22.4	0.00e+00	0	38	0	974127104	53	3904
2026-01-19 10:55:37.31	128.75	20.66	-40.7	-41.6	22.5	0.00e+00	0	38	0	979369984	53	3869
2026-01-19 10:55:38.32	128.69	20.80	-40.7	-41.5	22.5	0.00e+00	0	38	0	985661440	53	3858
2026-01-19 10:55:39.33	128.63	20.93	-40.7	-41.5	22.5	0.00e+00	0	38	0	990904320	53	3859
2026-01-19 10:55:40.34	128.57	21.07	-40.5	-41.3	22.7	0.00e+00	0	38	0	996147200	53	3762
2026-01-19 10:55:41.34	128.51	21.20	-40.4	-41.2	22.7	0.00e+00	0	38	0	1002438656	52	3955
2026-01-19 10:55:42.36	128.44	21.34	-40.4	-41.2	22.8	0.00e+00	0	38	0	1008730112	52	3925
2026-01-19 10:55:43.36	128.38	21.47	-40.3	-41.2	22.8	0.00e+00	0	38	0	1013972992	52	3915
2026-01-19 10:55:44.37	128.32	21.61	-40.1	-41.0	23.0	0.00e+00	0	38	0	1019215872	52	3831
2026-01-19 10:55:45.38	128.25	21.74	-40.1	-40.9	23.1	0.00e+00	0	38	0	1025507328	52	3810
2026-01-19 10:55:46.38	128.19	21.88	-40.1	-41.0	23.0	0.00e+00	0	38	0	1030750208	52	3828
2026-01-19 10:55:47.39	128.13	22.02	-40.0	-40.8	23.1	0.00e+00	0	38	0	1035993088	52	3773
2026-01-19 10:55:48.40	128.06	22.16	-40.0	-40.8	23.2	0.00e+00	0	38	0	1042284544	52	3772
2026-01-19 10:55:49.41	127.99	22.30	-40.1	-40.9	23.1	0.00e+00	0	38	0	1047527424	52	3791
2026-01-19 10:55:50.42	127.93	22.44	-40.0	-40.8	23.3	0.00e+00	0	38	0	1052770304	51	3989
2026-01-19 10:55:51.43	127.86	22.58	-40.1	-40.9	23.2	0.00e+00	0	38	0	1059061760	51	4028
2026-01-19 10:55:52.44	127.79	22.73	-40.0	-40.8	23.3	0.00e+00	0	38	0	1064304640	51	3965
2026-01-19 10:55:53.44	127.72	22.87	-39.9	-40.7	23.4	0.00e+00	0	38	0	1070596096	51	3920
2026-01-19 10:55:54.45	127.65	23.01	-39.9	-40.7	23.4	0.00e+00	0	38	0	1075838976	51	3934
2026-01-19 10:55:55.46	127.58	23.16	-39.8	-40.6	23.5	0.00e+00	0	38	0	1082130432	51	3910
2026-01-19 10:55:56.47	127.51	23.30	-39.8	-40.6	23.5	0.00e+00	0	38	0	1087373312	51	3884
2026-01-19 10:55:57.48	127.44	23.45	-39.8	-40.6	23.5	0.00e+00	0	38	0	1093664768	51	3903
2026-01-19 10:55:58.49	127.37	23.60	-39.7	-40.5	23.6	0.00e+00	0	38	0	1098907648	51	3845
2026-01-19 10:55:59.50	127.30	23.74	-39.8	-40.6	23.5	0.00e+00	0	38	0	1104150528	51	3880
2026-01-19 10:56:00.51	127.22	23.89	-39.7	-40.5	23.6	0.00e+00	0	38	0	1110441984	51	3852
2026-01-19 10:56:01.51	127.15	24.04	-39.8	-40.6	23.5	0.00e+00	0	38	0	1115684864	51	3869
2026-01-19 10:56:02.52	127.07	24.19	-39.8	-40.6	23.6	0.00e+00	0	38	0	1120927744	51	3869
2026-01-19 10:56:03.53	127.00	24.34	-39.8	-40.6	23.5	0.00e+00	0	38	0	1127219200	51	3884
2026-01-19 10:56:04.54	126.92	24.50	-39.8	-40.6	23.5	0.00e+00	0	38	0	1132462080	51	3909
2026-01-19 10:56:05.55	126.84	24.65	-39.8	-40.6	23.5	0.00e+00	0	38	0	1137704960	51	3875
2026-01-19 10:56:06.55	126.77	24.80	-39.7	-40.5	23.6	0.00e+00	0	38	0	1143996416	51	3840
2026-01-19 10:56:07.56	126.69	24.95	-39.6	-40.4	23.7	0.00e+00	0	38	0	1150287872	51	3806
2026-01-19 10:56:08.57	126.61	25.11	-39.6	-40.4	23.7	0.00e+00	0	38	0	1155530752	51	3783
2026-01-19 10:56:09.58	126.53	25.27	-39.5	-40.3	23.8	0.00e+00	0	38	0	1160773632	51	3754
2026-01-19 10:56:10.59	126.45	25.42	-39.5	-40.3	23.8	0.00e+00	0	38	0	1167065088	50	3978
2026-01-19 10:56:11.59	126.36	25.58	-39.4	-40.2	23.9	0.00e+00	0	38	0	1172307968	50	3928
2026-01-19 10:56:12.60	126.28	25.74	-39.5	-40.2	23.8	0.00e+00	0	38	0	1178599424	50	3954
2026-01-19 10:56:13.61	126.20	25.90	-39.4	-40.2	23.9	0.00e+00	0	38	0	1183842304	50	3923
2026-01-19 10:56:14.62	126.11	26.06	-39.4	-40.2	23.9	0.00e+00	0	38	0	1189085184	50	3936
2026-01-19 10:56:15.63	126.03	26.22	-39.5	-40.3	23.8	0.00e+00	0	38	0	1195376640	50	3988
2026-01-19 10:56:16.63	125.94	26.38	-39.5	-40.3	23.8	0.00e+00	0	38	0	1200619520	50	3971
2026-01-19 10:56:17.64	125.85	26.54	-39.6	-40.4	23.7	0.00e+00	0	38	0	1205862400	50	4010
2026-01-19 10:56:18.65	125.76	26.71	-39.6	-40.3	23.8	0.00e+00	0	38	0	1212153856	50	4002
2026-01-19 10:56:19.66	125.67	26.87	-39.6	-40.3	23.8	0.00e+00	0	38	0	1218445312	50	3994
2026-01-19 10:56:20.66	125.58	27.04	-39.7	-40.4	23.7	0.00e+00	0	38	0	1223688192	50	4045
2026-01-19 10:56:21.67	125.49	27.21	-39.7	-40.4	23.7	0.00e+00	0	38	0	1228931072	50	4046
2026-01-19 10:56:22.68	125.40	27.37	-39.5	-40.3	23.8	0.00e+00	0	38	0	1235222528	50	3976
2026-01-19 10:56:23.69	125.31	27.54	-39.5	-40.3	23.8	0.00e+00	0	38	0	1240465408	50	3994
2026-01-19 10:56:24.69	125.21	27.71	-39.5	-40.3	23.8	0.00e+00	0	38	0	1245708288	50	3970
2026-01-19 10:56:25.70	125.12	27.88	-39.3	-40.1	24.0	0.00e+00	0	38	0	1251999744	50	3892
2026-01-19 10:56:26.71	125.02	28.05	-39.4	-40.1	24.0	0.00e+00	0	38	0	1257242624	50	3912
2026-01-19 10:56:27.72	124.92	28.23	-39.3	-40.0	24.1	0.00e+00	0	38	0	1263534080	50	3857
2026-01-19 10:56:28.73	124.82	28.40	-39.4	-40.1	24.0	0.00e+00	0	38	0	1268776960	50	3905
2026-01-19 10:56:29.73	124.72	28.57	-39.3	-40.1	24.0	0.00e+00	0	38	0	1274019840	50	3897
2026-01-19 10:56:30.74	124.62	28.75	-39.4	-40.2	23.9	0.00e+00	0	38	0	1280311296	50	3930
2026-01-19 10:56:31.75	124.52	28.92	-39.5	-40.3	23.8	0.00e+00	0	38	0	1285554176	50	3995
2026-01-19 10:56:32.76	124.42	29.10	-39.5	-40.3	23.8	0.00e+00	0	38	0	1291845632	50	3986
2026-01-19 10:56:33.76	124.31	29.28	-39.5	-40.3	23.8	0.00e+00	0	38	0	1297088512	50	3993
2026-01-19 10:56:34.77	124.21	29.46	-39.5	-40.3	23.8	0.00e+00	0	38	0	1303379968	50	3997
2026-01-19 10:56:35.78	124.10	29.64	-39.5	-40.3	23.8	0.00e+00	0	38	0	1308622848	50	3993
2026-01-19 10:56:36.79	123.99	29.82	-39.6	-40.4	23.8	0.00e+00	0	38	0	1313865728	50	4024
2026-01-19 10:56:37.79	123.89	30.00	-39.6	-40.3	23.8	0.00e+00	0	38	0	1320157184	50	3999
2026-01-19 10:56:38.80	123.77	30.19	-39.5	-40.2	23.9	0.00e+00	0	38	0	1325400064	50	3957
2026-01-19 10:56:39.81	123.66	30.37	-39.4	-40.1	24.0	0.00e+00	0	38	0	1330642944	50	3904
2026-01-19 10:56:40.82	123.55	30.56	-39.4	-40.2	24.0	0.00e+00	0	38	0	1336934400	50	3917
2026-01-19 10:56:41.83	123.43	30.74	-39.2	-39.9	24.5	0.00e+00	0	38	0	1342177280	50	3790
2026-01-19 10:56:42.84	123.32	30.93	-39.1	-39.8	24.6	0.00e+00	0	38	0	1348468736	50	3769
2026-01-19 10:56:43.85	123.20	31.12	-39.2	-39.9	24.5	0.00e+00	0	38	0	1353711616	50	3786
2026-01-19 10:56:44.85	123.08	31.31	-39.1	-39.8	24.6	0.00e+00	0	38	0	1360003072	50	3776
2026-01-19 10:56:45.86	122.96	31.50	-39.2	-40.0	24.5	0.00e+00	0	38	0	1365245952	50	3830
2026-01-19 10:56:46.87	122.84	31.69	-39.4	-40.1	24.3	0.00e+00	0	38	0	1371537408	50	3912
2026-01-19 10:56:47.88	122.72	31.89	-39.4	-40.2	24.3	0.00e+00	0	38	0	1376780288	50	3918
2026-01-19 10:56:48.89	122.59	32.08	-39.3	-40.1	24.4	0.00e+00	0	38	0	1382023168	50	3873
2026-01-19 10:56:49.90	122.47	32.28	-39.3	-40.0	24.4	0.00e+00	0	38	0	1388314624	50	3854
2026-01-19 10:56:50.90	122.34	32.47	-39.2	-39.9	24.5	0.00e+00	0	38	0	1393557504	50	3812
2026-01-19 10:56:51.91	122.21	32.67	-39.0	-39.7	24.7	0.00e+00	0	38	0	1398800384	50	3725
2026-01-19 10:56:52.92	122.08	32.87	-39.0	-39.7	24.7	0.00e+00	0	38	0	1405091840	50	3712
2026-01-19 10:56:53.93	121.95	33.07	-38.9	-39.6	24.8	0.00e+00	0	38	0	1410334720	49	3902
2026-01-19 10:56:54.94	121.81	33.27	-39.0	-39.7	24.7	0.00e+00	0	38	0	1415577600	49	3921
2026-01-19 10:56:55.95	121.67	33.47	-38.9	-39.6	24.8	0.00e+00	0	38	0	1421869056	49	3900
2026-01-19 10:56:56.96	121.54	33.68	-38.9	-39.7	24.7	0.00e+00	0	38	0	1428160512	49	3917
2026-01-19 10:56:57.97	121.40	33.88	-39.0	-39.8	24.6	0.00e+00	0	38	0	1433403392	49	3966
2026-01-19 10:56:58.97	121.26	34.09	-39.2	-39.9	24.5	0.00e+00	0	38	0	1438646272	49	4031
2026-01-19 10:56:59.98	121.11	34.30	-39.2	-39.9	24.5	0.00e+00	0	38	0	1444937728	49	4027
2026-01-19 10:57:00.99	120.97	34.50	-39.3	-40.1	24.3	0.00e+00	0	38	0	1450180608	49	4119
2026-01-19 10:57:02.00	120.82	34.71	-39.3	-40.0	24.4	0.00e+00	0	38	0	1456472064	49	4079
2026-01-19 10:57:03.01	120.67	34.92	-39.2	-39.9	24.5	0.00e+00	0	38	0	1461714944	49	4038
2026-01-19 10:57:04.01	120.52	35.13	-39.2	-39.9	24.5	0.00e+00	0	38	0	1466957824	49	4049
2026-01-19 10:57:05.02	120.37	35.35	-39.1	-39.9	24.6	0.00e+00	0	38	0	1473249280	49	4006
2026-01-19 10:57:06.03	120.21	35.56	-39.1	-39.8	24.6	0.00e+00	0	38	0	1478492160	49	3974
2026-01-19 10:57:07.03	120.06	35.78	-39.1	-39.9	24.6	0.00e+00	0	38	0	1483735040	49	4009
2026-01-19 10:57:08.04	119.90	35.99	-38.9	-39.6	24.8	0.00e+00	0	38	0	1490026496	49	3902
2026-01-19 10:57:09.05	119.74	36.21	-39.0	-39.7	24.7	0.00e+00	0	38	0	1495269376	49	3947
2026-01-19 10:57:10.06	119.57	36.43	-38.9	-39.7	24.8	0.00e+00	0	38	0	1501560832	49	3917
2026-01-19 10:57:11.07	119.41	36.65	-38.8	-39.5	24.9	0.00e+00	0	38	0	1506803712	49	3858
2026-01-19 10:57:12.08	119.24	36.87	-38.8	-39.5	24.8	0.00e+00	0	38	0	1513095168	49	3864
2026-01-19 10:57:13.08	119.07	37.09	-38.9	-39.7	24.7	0.00e+00	0	38	0	1518338048	49	3921
2026-01-19 10:57:14.09	118.89	37.32	-38.9	-39.6	24.8	0.00e+00	0	38	0	1523580928	49	3893
2026-01-19 10:57:15.10	118.72	37.54	-39.0	-39.7	24.8	0.00e+00	0	38	0	1529872384	49	3918
2026-01-19 10:57:16.11	118.54	37.77	-39.0	-39.7	24.7	0.00e+00	0	38	0	1535115264	49	3943
2026-01-19 10:57:17.11	118.36	37.99	-39.1	-39.8	24.7	0.00e+00	0	38	0	1541406720	49	3969
2026-01-19 10:57:18.12	118.18	38.22	-39.2	-39.9	24.5	0.00e+00	0	38	0	1546649600	49	4034
2026-01-19 10:57:19.13	117.99	38.45	-39.2	-39.9	24.6	0.00e+00	0	38	0	1551892480	49	4041
2026-01-19 10:57:20.14	117.80	38.68	-39.1	-39.8	24.7	0.00e+00	0	38	0	1558183936	49	3962
2026-01-19 10:57:21.14	117.61	38.91	-39.0	-39.7	24.7	0.00e+00	0	38	0	1563426816	49	3958
2026-01-19 10:57:22.15	117.42	39.15	-39.1	-39.8	24.7	0.00e+00	0	38	0	1568669696	49	3973
2026-01-19 10:57:23.16	117.22	39.38	-39.2	-39.9	24.6	0.00e+00	0	38	0	1574961152	49	4021
2026-01-19 10:57:24.17	117.02	39.62	-39.3	-40.0	24.4	0.00e+00	0	38	0	1581252608	49	4090
2026-01-19 10:57:25.17	116.82	39.85	-39.3	-40.0	24.5	0.00e+00	0	38	0	1586495488	49	4067
2026-01-19 10:57:26.18	116.62	40.09	-39.1	-39.9	24.6	0.00e+00	0	38	0	1591738368	49	4014
2026-01-19 10:57:27.19	116.41	40.33	-39.1	-39.8	24.6	0.00e+00	0	38	0	1598029824	49	3993
2026-01-19 10:57:28.20	116.20	40.57	-39.2	-39.9	24.5	0.00e+00	0	38	0	1603272704	49	4040
2026-01-19 10:57:29.21	115.98	40.82	-39.3	-40.1	24.4	0.00e+00	0	38	0	1608515584	49	4101
2026-01-19 10:57:30.22	115.76	41.06	-39.5	-40.2	24.3	0.00e+00	0	38	0	1614807040	49	4166
2026-01-19 10:57:31.23	115.54	41.30	-39.5	-40.2	24.3	0.00e+00	0	38	0	1620049920	49	4186
2026-01-19 10:57:32.24	115.31	41.55	-39.5	-40.2	24.3	0.00e+00	0	38	0	1626341376	49	4160
2026-01-19 10:57:33.25	115.08	41.80	-39.4	-40.1	24.4	0.00e+00	0	38	0	1631584256	49	4143
2026-01-19 10:57:34.26	114.85	42.04	-39.6	-40.3	24.2	0.00e+00	0	38	0	1637875712	49	4221
2026-01-19 10:57:35.27	114.62	42.29	-39.5	-40.3	24.3	0.00e+00	0	38	0	1643118592	49	4198
2026-01-19 10:57:36.28	114.38	42.54	-39.5	-40.2	24.3	0.00e+00	0	38	0	1649410048	49	4171
2026-01-19 10:57:37.29	114.13	42.79	-39.5	-40.2	24.3	0.00e+00	0	38	0	1654652928	49	4169
2026-01-19 10:57:38.29	113.89	43.04	-39.3	-40.0	24.5	0.00e+00	0	38	0	1659895808	49	4096
2026-01-19 10:57:39.30	113.64	43.30	-39.4	-40.2	24.4	0.00e+00	0	38	0	1666187264	49	4147
2026-01-19 10:57:40.31	113.38	43.55	-39.4	-40.1	24.4	0.00e+00	0	38	0	1671430144	49	4121
2026-01-19 10:57:41.32	113.12	43.81	-39.5	-40.2	24.3	0.00e+00	0	38	0	1676673024	49	4163
2026-01-19 10:57:42.33	112.86	44.06	-39.6	-40.4	24.1	0.00e+00	0	38	0	1682964480	49	4259
2026-01-19 10:57:43.34	112.59	44.32	-39.7	-40.5	24.1	0.00e+00	0	38	0	1688207360	49	4298
2026-01-19 10:57:44.35	112.31	44.58	-39.9	-40.6	24.0	0.00e+00	0	38	0	1693450240	50	4134
2026-01-19 10:57:45.35	112.04	44.84	-39.9	-40.6	24.0	0.00e+00	0	38	0	1699741696	50	4134
2026-01-19 10:57:46.36	111.76	45.10	-39.8	-40.6	24.0	0.00e+00	0	38	0	1706033152	50	4115
2026-01-19 10:57:47.37	111.47	45.36	-39.8	-40.6	24.0	0.00e+00	0	38	0	1711276032	50	4101
2026-01-19 10:57:48.38	111.18	45.62	-39.5	-40.2	24.4	0.00e+00	0	38	0	1716518912	50	3926
2026-01-19 10:57:49.38	110.89	45.88	-39.5	-40.2	24.3	0.00e+00	0	38	0	1722810368	50	3944
2026-01-19 10:57:50.39	110.59	46.14	-39.5	-40.3	24.3	0.00e+00	0	38	0	1728053248	50	3960
2026-01-19 10:57:51.40	110.28	46.41	-39.6	-40.3	24.2	0.00e+00	0	38	0	1734344704	50	4003
2026-01-19 10:57:52.41	109.97	46.67	-39.8	-40.5	24.0	0.00e+00	0	38	0	1739587584	50	4098
2026-01-19 10:57:53.42	109.65	46.94	-40.0	-40.8	23.8	0.00e+00	0	38	0	1744830464	50	4207
2026-01-19 10:57:54.43	109.33	47.20	-40.1	-40.8	23.8	0.00e+00	0	38	0	1751121920	50	4232
2026-01-19 10:57:55.43	109.00	47.47	-40.0	-40.8	23.9	0.00e+00	0	38	0	1756364800	50	4207
2026-01-19 10:57:56.44	108.67	47.74	-40.1	-40.9	23.7	0.00e+00	0	38	0	1761607680	50	4256
2026-01-19 10:57:57.45	108.33	48.01	-40.2	-40.9	23.7	0.00e+00	0	38	0	1767899136	50	4274
2026-01-19 10:57:58.46	107.98	48.28	-40.1	-40.9	23.8	0.00e+00	0	38	0	1774190592	51	4009
2026-01-19 10:57:59.47	107.63	48.54	-40.0	-40.7	23.9	0.00e+00	0	38	0	1779433472	51	3945
2026-01-19 10:58:00.47	107.28	48.81	-40.0	-40.7	23.9	0.00e+00	0	38	0	1784676352	51	3940
2026-01-19 10:58:01.48	106.91	49.08	-40.0	-40.8	23.9	0.00e+00	0	38	0	1790967808	51	3974
2026-01-19 10:58:02.49	106.54	49.35	-40.2	-40.9	23.7	0.00e+00	0	38	0	1796210688	51	4050
2026-01-19 10:58:03.50	106.16	49.62	-40.1	-40.8	23.8	0.00e+00	0	38	0	1801453568	51	3995
2026-01-19 10:58:04.51	105.78	49.90	-40.2	-40.9	23.7	0.00e+00	0	38	0	1807745024	51	4049
2026-01-19 10:58:05.51	105.39	50.16	-40.4	-41.2	23.5	0.00e+00	0	38	0	1812987904	51	4180
2026-01-19 10:58:06.52	104.99	50.44	-40.6	-41.3	23.3	0.00e+00	0	38	0	1819279360	51	4240
2026-01-19 10:58:07.53	104.59	50.71	-40.5	-41.2	23.5	0.00e+00	0	38	0	1824522240	51	4184
2026-01-19 10:58:08.54	104.17	50.98	-40.4	-41.1	23.6	0.00e+00	0	38	0	1829765120	51	4123
2026-01-19 10:58:09.55	103.75	51.25	-40.4	-41.1	23.6	0.00e+00	0	38	0	1836056576	51	4133
2026-01-19 10:58:10.55	103.33	51.52	-40.4	-41.2	23.5	0.00e+00	0	38	0	1841299456	51	4156
2026-01-19 10:58:11.56	102.89	51.79	-40.6	-41.3	23.4	0.00e+00	0	38	0	1847590912	51	4228
2026-01-19 10:58:12.57	102.45	52.06	-40.5	-41.3	23.4	0.00e+00	0	38	0	1852833792	51	4204
2026-01-19 10:58:13.58	101.99	52.34	-40.6	-41.3	23.4	0.00e+00	0	38	0	1859125248	51	4231
2026-01-19 10:58:14.59	101.53	52.61	-40.7	-41.5	23.2	0.00e+00	0	38	0	1864368128	52	4055
2026-01-19 10:58:15.59	101.07	52.87	-40.7	-41.5	23.1	0.00e+00	0	38	0	1869611008	52	4094
2026-01-19 10:58:16.60	100.59	53.14	-40.6	-41.4	23.2	0.00e+00	0	38	0	1875902464	52	4038
2026-01-19 10:58:17.61	100.10	53.41	-40.6	-41.4	23.3	0.00e+00	0	38	0	1881145344	52	4016
2026-01-19 10:58:18.62	99.60	53.68	-40.1	-40.9	23.7	0.00e+00	0	38	0	1886388224	52	3789
2026-01-19 10:58:19.63	99.10	53.95	-40.0	-40.7	24.0	0.00e+00	0	38	0	1892679680	51	3949
2026-01-19 10:58:20.64	98.58	54.21	-40.0	-40.7	24.0	0.00e+00	0	38	0	1897922560	51	3938
2026-01-19 10:58:21.65	98.06	54.48	-40.0	-40.7	23.9	0.00e+00	0	38	0	1904214016	51	3944
2026-01-19 10:58:22.65	97.53	54.74	-40.1	-40.9	23.8	0.00e+00	0	38	0	1909456896	51	4014
2026-01-19 10:58:23.66	96.98	55.00	-39.9	-40.6	24.1	0.00e+00	0	38	0	1915748352	51	3897
2026-01-19 10:58:24.67	96.43	55.27	-39.8	-40.5	24.2	0.00e+00	0	38	0	1920991232	51	3836
2026-01-19 10:58:25.68	95.86	55.53	-39.8	-40.5	24.1	0.00e+00	0	38	0	1927282688	51	3852
2026-01-19 10:58:26.69	95.28	55.78	-40.0	-40.8	23.9	0.00e+00	0	38	0	1932525568	51	3964
2026-01-19 10:58:27.69	94.70	56.04	-40.3	-41.0	23.7	0.00e+00	0	38	0	1937768448	51	4087
2026-01-19 10:58:28.70	94.11	56.29	-40.3	-41.1	23.6	0.00e+00	0	38	0	1944059904	51	4104
2026-01-19 10:58:29.71	93.50	56.55	-40.1	-40.9	23.8	0.00e+00	0	38	0	1949302784	51	4030
2026-01-19 10:58:30.72	92.88	56.80	-40.2	-41.0	23.7	0.00e+00	0	38	0	1954545664	51	4066
2026-01-19 10:58:31.72	92.25	57.04	-40.3	-41.0	23.7	0.00e+00	0	38	0	1960837120	51	4090
2026-01-19 10:58:32.73	91.61	57.29	-40.2	-40.9	23.8	0.00e+00	0	38	0	1966080000	51	4041
2026-01-19 10:58:33.74	90.95	57.54	-40.0	-40.7	24.0	0.00e+00	0	38	0	1971322880	51	3938
2026-01-19 10:58:34.75	90.29	57.78	-39.9	-40.6	24.1	0.00e+00	0	38	0	1977614336	51	3891
2026-01-19 10:58:35.76	89.61	58.02	-40.4	-41.2	23.5	0.00e+00	0	38	0	1983905792	51	4170
2026-01-19 10:58:36.77	88.92	58.25	-40.4	-41.2	23.6	0.00e+00	0	38	0	1989148672	51	4149
2026-01-19 10:58:37.77	88.22	58.48	-40.2	-40.9	23.8	0.00e+00	0	38	0	1994391552	51	4033
2026-01-19 10:58:38.78	87.51	58.71	-39.9	-40.6	24.1	0.00e+00	0	38	0	2000683008	51	3887
2026-01-19 10:58:39.78	86.78	58.94	-40.0	-40.7	24.0	0.00e+00	0	38	0	2005925888	51	3956
2026-01-19 10:58:40.79	86.04	59.16	-40.0	-40.7	24.0	0.00e+00	0	38	0	2012217344	51	3938
2026-01-19 10:58:41.80	85.29	59.38	-39.7	-40.4	24.3	0.00e+00	0	38	0	2017460224	51	3793
2026-01-19 10:58:42.81	84.53	59.59	-39.6	-40.3	24.4	0.00e+00	0	38	0	2022703104	51	3763
2026-01-19 10:58:43.82	83.75	59.80	-39.8	-40.6	24.1	0.00e+00	0	38	0	2028994560	51	3883
2026-01-19 10:58:44.82	82.96	60.01	-39.9	-40.7	24.0	0.00e+00	0	38	0	2034237440	51	3938
2026-01-19 10:58:45.83	82.16	60.21	-39.8	-40.6	24.2	0.00e+00	0	38	0	2039480320	51	3876
2026-01-19 10:58:46.84	81.34	60.41	-40.1	-40.8	23.9	0.00e+00	0	38	0	2045771776	51	3995
2026-01-19 10:58:47.85	80.51	60.60	-40.1	-40.8	23.9	0.00e+00	0	38	0	2051014656	51	3999
2026-01-19 10:58:48.86	79.67	60.79	-40.0	-40.7	24.0	0.00e+00	0	38	0	2057306112	51	3948
2026-01-19 10:58:49.87	78.82	60.98	-39.9	-40.7	24.0	0.00e+00	0	38	0	2062548992	51	3928
2026-01-19 10:58:50.87	77.96	61.15	-39.8	-40.5	24.2	0.00e+00	0	38	0	2068840448	51	3841
2026-01-19 10:58:51.88	77.08	61.33	-39.6	-40.4	24.3	0.00e+00	0	38	0	2074083328	51	3785
2026-01-19 10:58:52.89	76.19	61.49	-39.4	-40.1	24.6	0.00e+00	0	38	0	2079326208	50	3892
2026-01-19 10:58:53.90	75.29	61.66	-39.2	-39.9	24.7	0.00e+00	0	38	0	2085617664	50	3822
2026-01-19 10:58:54.91	74.37	61.81	-39.2	-39.9	24.8	0.00e+00	0	38	0	2090860544	50	3808
2026-01-19 10:58:55.91	73.46	61.96	-39.2	-39.9	24.7	0.00e+00	0	38	0	2097152000	50	3802
2026-01-19 10:58:56.92	72.52	62.10	-39.2	-39.9	24.7	0.00e+00	0	38	0	2102394880	50	3813
2026-01-19 10:58:57.93	71.57	62.24	-39.3	-40.0	24.6	0.00e+00	0	38	0	2107637760	50	3867
2026-01-19 10:58:58.94	70.61	62.37	-39.4	-40.2	24.5	0.00e+00	0	38	0	2113929216	50	3917
2026-01-19 10:58:59.95	69.64	62.50	-39.5	-40.2	24.5	0.00e+00	0	38	0	2119172096	50	3949
2026-01-19 10:59:00.95	68.67	62.61	-39.2	-40.0	24.7	0.00e+00	0	38	0	2124414976	50	3826
2026-01-19 10:59:01.96	67.69	62.72	-39.1	-39.9	24.8	0.00e+00	0	38	0	2130706432	50	3782
2026-01-19 10:59:02.97	66.69	62.83	-39.2	-39.9	24.8	0.00e+00	0	38	0	2136997888	50	3805
2026-01-19 10:59:03.98	65.69	62.92	-39.2	-39.9	24.8	0.00e+00	0	38	0	2142240768	50	3789
2026-01-19 10:59:04.99	64.67	63.01	-38.9	-39.7	25.0	0.00e+00	0	38	0	2147483648	49	3918
2026-01-19 10:59:05.99	63.66	63.09	-38.8	-39.5	25.1	0.00e+00	0	38	0	2153775104	49	3847
2026-01-19 10:59:07.00	62.64	63.17	-38.9	-39.7	25.0	0.00e+00	0	38	0	2159017984	49	3914
2026-01-19 10:59:08.01	61.60	63.23	-38.7	-39.4	25.2	0.00e+00	0	38	0	2164260864	49	3788
2026-01-19 10:59:09.02	60.57	63.29	-38.5	-39.2	25.4	0.00e+00	0	38	0	2170552320	49	3715
2026-01-19 10:59:10.02	59.53	63.34	-38.5	-39.2	25.4	0.00e+00	0	38	0	2175795200	49	3710
2026-01-19 10:59:11.03	58.49	63.39	-38.7	-39.4	25.2	0.00e+00	0	38	0	2182086656	49	3820
2026-01-19 10:59:12.04	57.43	63.42	-38.9	-39.7	25.0	0.00e+00	0	38	0	2187329536	49	3915
2026-01-19 10:59:13.05	56.38	63.45	-38.8	-39.5	25.1	0.00e+00	0	38	0	2192572416	49	3831
2026-01-19 10:59:14.06	55.33	63.47	-38.8	-39.5	25.1	0.00e+00	0	38	0	2198863872	49	3828
2026-01-19 10:59:15.06	54.28	63.48	-38.9	-39.6	25.0	0.00e+00	0	38	0	2205155328	49	3903
2026-01-19 10:59:16.07	53.22	63.48	-38.6	-39.3	25.3	0.00e+00	0	38	0	2210398208	49	3761
2026-01-19 10:59:17.08	52.16	63.48	-38.5	-39.2	25.4	0.00e+00	0	38	0	2215641088	48	3927
2026-01-19 10:59:18.09	51.11	63.47	-38.6	-39.3	25.3	0.00e+00	0	38	0	2221932544	48	3968
2026-01-19 10:59:19.10	50.05	63.44	-38.8	-39.5	25.2	0.00e+00	0	38	0	2227175424	48	4061
2026-01-19 10:59:20.10	49.01	63.42	-38.4	-39.1	25.5	0.00e+00	0	38	0	2232418304	48	3896
2026-01-19 10:59:21.11	47.96	63.38	-38.6	-39.3	25.3	0.00e+00	0	38	0	2238709760	48	3975
2026-01-19 10:59:22.12	46.91	63.33	-38.7	-39.4	25.2	0.00e+00	0	38	0	2243952640	48	4019
2026-01-19 10:59:23.13	45.87	63.28	-38.6	-39.3	25.3	0.00e+00	0	38	0	2249195520	48	3969
2026-01-19 10:59:24.14	44.84	63.22	-38.7	-39.4	25.2	0.00e+00	0	38	0	2255486976	48	4041
2026-01-19 10:59:25.15	43.80	63.15	-38.9	-39.6	25.1	0.00e+00	0	38	0	2260729856	48	4111
2026-01-19 10:59:26.16	42.78	63.08	-39.1	-39.8	24.9	0.00e+00	0	38	0	2267021312	48	4212
2026-01-19 10:59:27.17	41.76	62.99	-38.8	-39.6	25.1	0.00e+00	0	38	0	2272264192	48	4100
2026-01-19 10:59:28.17	40.76	62.90	-38.6	-39.3	25.3	0.00e+00	0	38	0	2278555648	48	3965
2026-01-19 10:59:29.18	39.76	62.81	-38.8	-39.4	25.2	0.00e+00	0	38	0	2283798528	48	4046
2026-01-19 10:59:30.19	38.76	62.70	-39.0	-39.7	25.0	0.00e+00	0	38	0	2290089984	48	4182
2026-01-19 10:59:31.20	37.78	62.59	-39.2	-39.9	24.8	0.00e+00	0	38	0	2295332864	48	4269
2026-01-19 10:59:32.21	36.80	62.47	-39.2	-39.9	24.8	0.00e+00	0	38	0	2300575744	49	4013
2026-01-19 10:59:33.21	35.85	62.35	-39.3	-40.0	24.7	0.00e+00	0	38	0	2306867200	49	4073
2026-01-19 10:59:34.22	34.89	62.21	-39.6	-40.4	24.4	0.00e+00	0	38	0	2312110080	49	4260
2026-01-19 10:59:35.23	33.94	62.08	-39.3	-40.0	24.7	0.00e+00	0	38	0	2317352960	49	4088
2026-01-19 10:59:36.24	33.01	61.93	-39.4	-40.1	24.6	0.00e+00	0	38	0	2323644416	49	4117
2026-01-19 10:59:37.24	32.10	61.78	-39.4	-40.1	24.6	0.00e+00	0	38	0	2328887296	49	4127
2026-01-19 10:59:38.25	31.18	61.62	-39.2	-39.9	24.8	0.00e+00	0	38	0	2334130176	49	4045
2026-01-19 10:59:39.26	30.28	61.46	-39.1	-39.8	24.9	0.00e+00	0	38	0	2340421632	49	3976
2026-01-19 10:59:40.27	29.40	61.29	-39.4	-40.1	24.6	0.00e+00	0	38	0	2346713088	49	4126
2026-01-19 10:59:41.27	28.53	61.12	-39.6	-40.4	24.4	0.00e+00	0	38	0	2351955968	49	4258
2026-01-19 10:59:42.28	27.67	60.94	-39.4	-40.1	24.6	0.00e+00	0	38	0	2357198848	49	4130
2026-01-19 10:59:43.29	26.82	60.76	-39.1	-39.8	24.9	0.00e+00	0	38	0	2363490304	49	3959
2026-01-19 10:59:44.30	25.98	60.57	-39.2	-39.9	24.8	0.00e+00	0	38	0	2368733184	49	4026
2026-01-19 10:59:45.31	25.15	60.37	-39.3	-40.0	24.8	0.00e+00	0	38	0	2375024640	49	4064
2026-01-19 10:59:46.32	24.34	60.17	-39.5	-40.2	24.6	0.00e+00	0	38	0	2380267520	49	4160
2026-01-19 10:59:47.33	23.54	59.97	-39.5	-40.2	24.5	0.00e+00	0	38	0	2385510400	49	4160
2026-01-19 10:59:48.34	22.75	59.76	-39.5	-40.2	24.6	0.00e+00	0	38	0	2391801856	49	4169
2026-01-19 10:59:49.35	21.98	59.55	-39.3	-40.1	24.7	0.00e+00	0	38	0	2397044736	49	4100
2026-01-19 10:59:50.35	21.22	59.34	-39.5	-40.3	24.5	0.00e+00	0	38	0	2402287616	49	4207
2026-01-19 10:59:51.36	20.47	59.12	-39.4	-40.1	24.6	0.00e+00	0	38	0	2408579072	49	4137
2026-01-19 10:59:52.37	19.73	58.89	-39.4	-40.0	24.6	0.00e+00	0	38	0	2414870528	49	4094
2026-01-19 10:59:53.38	19.01	58.67	-39.6	-40.3	24.4	0.00e+00	0	38	0	2420113408	49	4216
2026-01-19 10:59:54.39	18.30	58.44	-40.0	-40.8	24.0	0.00e+00	0	38	0	2425356288	50	4198
2026-01-19 10:59:55.39	17.60	58.21	-39.6	-40.3	24.4	0.00e+00	0	38	0	2431647744	50	4002
2026-01-19 10:59:56.40	16.92	57.97	-39.5	-40.2	24.5	0.00e+00	0	38	0	2436890624	50	3945
2026-01-19 10:59:57.41	16.24	57.73	-39.5	-40.2	24.5	0.00e+00	0	38	0	2442133504	50	3956
2026-01-19 10:59:58.42	15.58	57.49	-39.8	-40.6	24.2	0.00e+00	0	38	0	2448424960	50	4099
2026-01-19 10:59:59.43	14.93	57.24	-39.7	-40.5	24.3	0.00e+00	0	38	0	2453667840	50	4059
2026-01-19 11:00:00.43	14.29	57.00	-39.5	-40.2	24.5	0.00e+00	0	38	0	2459959296	50	3955
2026-01-19 11:00:01.44	13.66	56.75	-39.6	-40.3	24.5	0.00e+00	0	38	0	2465202176	50	3973
2026-01-19 11:00:02.45	13.05	56.50	-39.7	-40.4	24.3	0.00e+00	0	38	0	2470445056	50	4039
2026-01-19 11:00:03.45	12.45	56.25	-39.7	-40.4	24.3	0.00e+00	0	38	0	2476736512	50	4048
2026-01-19 11:00:04.46	11.85	55.99	-39.7	-40.4	24.4	0.00e+00	0	38	0	2483027968	50	4028
2026-01-19 11:00:05.47	11.27	55.74	-39.8	-40.6	24.2	0.00e+00	0	38	0	2488270848	50	4118
2026-01-19 11:00:06.48	10.70	55.48	-39.7	-40.5	24.3	0.00e+00	0	38	0	2493513728	50	4066
2026-01-19 11:00:07.49	10.13	55.22	-39.8	-40.5	24.3	0.00e+00	0	38	0	2499805184	50	4061
2026-01-19 11:00:08.49	9.59	54.96	-39.8	-40.5	24.3	0.00e+00	0	38	0	2505048064	50	4079
2026-01-19 11:00:09.50	9.04	54.70	-39.7	-40.4	24.3	0.00e+00	0	38	0	2510290944	50	4044
2026-01-19 11:00:10.51	8.51	54.43	-39.7	-40.4	24.4	0.00e+00	0	38	0	2516582400	50	4029
2026-01-19 11:00:11.52	7.99	54.17	-39.8	-40.5	24.3	0.00e+00	0	38	0	2521825280	50	4086
2026-01-19 11:00:12.52	7.48	53.90	-39.7	-40.4	24.4	0.00e+00	0	38	0	2527068160	50	4021
2026-01-19 11:00:13.53	6.98	53.64	-39.8	-40.5	24.3	0.00e+00	0	38	0	2533359616	50	4073
2026-01-19 11:00:14.54	6.48	53.37	-39.7	-40.5	24.3	0.00e+00	0	38	0	2538602496	50	4058
2026-01-19 11:00:15.55	6.00	53.10	-39.9	-40.7	24.2	0.00e+00	0	38	0	2544893952	50	4149
2026-01-19 11:00:16.56	5.52	52.83	-39.9	-40.7	24.1	0.00e+00	0	38	0	2550136832	50	4146
2026-01-19 11:00:17.57	5.05	52.56	-39.9	-40.7	24.1	0.00e+00	0	38	0	2556428288	50	4147
2026-01-19 11:00:18.57	4.60	52.30	-40.0	-40.7	24.1	0.00e+00	0	38	0	2561671168	50	4166
2026-01-19 11:00:19.58	4.15	52.02	-40.0	-40.8	24.1	0.00e+00	0	38	0	2567962624	50	4196
2026-01-19 11:00:20.59	3.71	51.75	-39.8	-40.5	24.3	0.00e+00	0	38	0	2573205504	50	4080
2026-01-19 11:00:21.60	3.27	51.48	-39.6	-40.4	24.4	0.00e+00	0	38	0	2578448384	50	4013
2026-01-19 11:00:22.61	2.85	51.21	-39.8	-40.5	24.3	0.00e+00	0	38	0	2584739840	50	4062
2026-01-19 11:00:23.61	2.43	50.94	-39.7	-40.4	24.4	0.00e+00	0	38	0	2589982720	50	4044
2026-01-19 11:00:24.62	2.02	50.67	-39.9	-40.6	24.2	0.00e+00	0	38	0	2595225600	50	4125
2026-01-19 11:00:25.63	1.62	50.40	-39.9	-40.6	24.2	0.00e+00	0	38	0	2601517056	50	4131
2026-01-19 11:00:26.64	1.22	50.13	-39.9	-40.6	24.2	0.00e+00	0	38	0	2606759936	50	4118
2026-01-19 11:00:27.64	0.83	49.86	-39.8	-40.5	24.3	0.00e+00	0	38	0	2612002816	50	4070
2026-01-19 11:00:28.65	0.45	49.59	-39.8	-40.5	24.3	0.00e+00	0	38	0	2618294272	50	4069
2026-01-19 11:00:29.66	0.07	49.32	-39.6	-40.3	24.5	0.00e+00	0	38	0	2624585728	50	3989
2026-01-19 11:00:30.67	359.71	49.05	-39.6	-40.3	24.4	0.00e+00	0	38	0	2629828608	50	4002
2026-01-19 11:00:31.68	359.34	48.78	-39.6	-40.4	24.4	0.00e+00	0	38	0	2635071488	50	4017
2026-01-19 11:00:32.69	358.99	48.51	-39.6	-40.3	24.5	0.00e+00	0	38	0	2641362944	50	3972
2026-01-19 11:00:33.69	358.64	48.24	-39.6	-40.4	24.4	0.00e+00	0	38	0	2646605824	50	4011
2026-01-19 11:00:34.70	358.30	47.98	-39.5	-40.2	24.5	0.00e+00	0	38	0	2652897280	50	3946
2026-01-19 11:00:35.71	357.96	47.71	-39.3	-40.0	24.8	0.00e+00	0	38	0	2658140160	50	3833
2026-01-19 11:00:36.72	357.63	47.44	-39.2	-39.9	24.8	0.00e+00	0	38	0	2663383040	50	3814
2026-01-19 11:00:37.73	357.30	47.17	-39.1	-39.8	24.9	0.00e+00	0	38	0	2669674496	50	3753
2026-01-19 11:00:38.73	356.98	46.91	-38.9	-39.6	25.1	0.00e+00	0	38	0	2674917376	49	3877
2026-01-19 11:00:39.74	356.67	46.65	-38.8	-39.4	25.2	0.00e+00	0	38	0	2680160256	49	3820
2026-01-19 11:00:40.75	356.36	46.38	-38.8	-39.5	25.1	0.00e+00	0	38	0	2686451712	49	3844
2026-01-19 11:00:41.76	356.05	46.12	-38.9	-39.5	25.1	0.00e+00	0	38	0	2692743168	49	3868
2026-01-19 11:00:42.77	355.75	45.85	-39.0	-39.7	25.0	0.00e+00	0	38	0	2697986048	49	3930
2026-01-19 11:00:43.77	355.46	45.60	-39.1	-39.8	24.9	0.00e+00	0	38	0	2703228928	49	3969
2026-01-19 11:00:44.78	355.17	45.33	-39.2	-39.9	24.8	0.00e+00	0	38	0	2709520384	49	4016
2026-01-19 11:00:45.79	354.88	45.07	-39.1	-39.8	24.9	0.00e+00	0	38	0	2714763264	49	3972
2026-01-19 11:00:46.80	354.60	44.81	-39.1	-39.8	24.8	0.00e+00	0	38	0	2720006144	49	3998
2026-01-19 11:00:47.81	354.33	44.56	-39.1	-39.8	24.8	0.00e+00	0	38	0	2726297600	49	4002
2026-01-19 11:00:48.81	354.06	44.30	-38.8	-39.5	25.1	0.00e+00	0	38	0	2731540480	49	3868
2026-01-19 11:00:49.82	353.79	44.04	-38.8	-39.5	25.1	0.00e+00	0	38	0	2737831936	49	3837
2026-01-19 11:00:50.83	353.53	43.79	-38.8	-39.5	25.1	0.00e+00	0	38	0	2743074816	49	3846
2026-01-19 11:00:51.83	353.27	43.54	-38.9	-39.6	25.0	0.00e+00	0	38	0	2748317696	49	3898
2026-01-19 11:00:52.84	353.02	43.28	-39.0	-39.7	25.0	0.00e+00	0	38	0	2754609152	49	3944
2026-01-19 11:00:53.85	352.77	43.03	-39.1	-39.8	24.9	0.00e+00	0	38	0	2759852032	49	3976
2026-01-19 11:00:54.86	352.52	42.78	-39.1	-39.8	24.9	0.00e+00	0	38	0	2766143488	49	3986
2026-01-19 11:00:55.87	352.28	42.53	-39.1	-39.7	24.9	0.00e+00	0	38	0	2771386368	49	3955
2026-01-19 11:00:56.87	352.04	42.28	-38.8	-39.4	25.2	0.00e+00	0	38	0	2777677824	49	3818
2026-01-19 11:00:57.88	351.81	42.03	-38.8	-39.5	25.2	0.00e+00	0	38	0	2782920704	49	3826
2026-01-19 11:00:58.89	351.57	41.79	-38.8	-39.5	25.1	0.00e+00	0	38	0	2788163584	49	3853
2026-01-19 11:00:59.89	351.35	41.54	-38.9	-39.7	25.0	0.00e+00	0	38	0	2794455040	49	3915
2026-01-19 11:01:00.90	351.12	41.30	-39.0	-39.7	24.9	0.00e+00	0	38	0	2799697920	49	3957
2026-01-19 11:01:01.91	350.90	41.06	-39.0	-39.7	24.9	0.00e+00	0	38	0	2804940800	49	3932
2026-01-19 11:01:02.92	350.69	40.81	-39.0	-39.7	25.0	0.00e+00	0	38	0	2811232256	49	3925
2026-01-19 11:01:03.92	350.47	40.57	-38.8	-39.6	25.1	0.00e+00	0	38	0	2816475136	49	3869
2026-01-19 11:01:04.93	350.26	40.33	-38.8	-39.4	25.1	0.00e+00	0	38	0	2822766592	49	3821
2026-01-19 11:01:05.94	350.05	40.09	-38.7	-39.4	25.2	0.00e+00	0	38	0	2828009472	49	3783
2026-01-19 11:01:06.95	349.85	39.86	-38.5	-39.2	25.3	0.00e+00	0	38	0	2833252352	49	3720
2026-01-19 11:01:07.96	349.65	39.62	-38.5	-39.2	25.3	0.00e+00	0	38	0	2839543808	49	3726
2026-01-19 11:01:08.97	349.45	39.39	-38.6	-39.3	25.3	0.00e+00	0	38	0	2845835264	49	3759
2026-01-19 11:01:09.97	349.25	39.15	-38.8	-39.5	25.1	0.00e+00	0	38	0	2851078144	49	3831
2026-01-19 11:01:10.98	349.06	38.92	-38.9	-39.6	25.0	0.00e+00	0	38	0	2856321024	49	3883
2026-01-19 11:01:11.99	348.87	38.69	-38.7	-39.4	25.2	0.00e+00	0	38	0	2862612480	49	3796
2026-01-19 11:01:13.00	348.68	38.46	-38.6	-39.3	25.3	0.00e+00	0	38	0	2867855360	49	3751
2026-01-19 11:01:14.00	348.50	38.23	-38.6	-39.3	25.2	0.00e+00	0	38	0	2873098240	49	3761
2026-01-19 11:01:15.01	348.32	38.00	-38.6	-39.2	25.3	0.00e+00	0	38	0	2879389696	49	3737
2026-01-19 11:01:16.02	348.14	37.78	-38.4	-39.1	25.4	0.00e+00	0	38	0	2884632576	48	3899
2026-01-19 11:01:17.03	347.96	37.55	-38.5	-39.2	25.3	0.00e+00	0	38	0	2889875456	48	3937
2026-01-19 11:01:18.04	347.78	37.33	-38.7	-39.4	25.2	0.00e+00	0	38	0	2896166912	48	4020
2026-01-19 11:01:19.04	347.61	37.10	-38.7	-39.4	25.1	0.00e+00	0	38	0	2901409792	48	4043
2026-01-19 11:01:20.05	347.44	36.88	-38.6	-39.3	25.3	0.00e+00	0	38	0	2907701248	48	3976
2026-01-19 11:01:21.06	347.28	36.66	-38.5	-39.1	25.4	0.00e+00	0	38	0	2912944128	48	3912
2026-01-19 11:01:22.07	347.11	36.44	-38.4	-39.1	25.4	0.00e+00	0	38	0	2919235584	48	3899
2026-01-19 11:01:23.08	346.95	36.22	-38.5	-39.1	25.4	0.00e+00	0	38	0	2924478464	48	3906
2026-01-19 11:01:24.09	346.79	36.01	-38.5	-39.2	25.3	0.00e+00	0	38	0	2930769920	48	3942
2026-01-19 11:01:25.10	346.63	35.79	-38.6	-39.3	25.2	0.00e+00	0	38	0	2936012800	48	3974
2026-01-19 11:01:26.11	346.47	35.57	-38.7	-39.4	25.1	0.00e+00	0	38	0	2941255680	48	4038
2026-01-19 11:01:27.11	346.32	35.36	-38.7	-39.4	25.1	0.00e+00	0	38	0	2947547136	48	4044
2026-01-19 11:01:28.12	346.17	35.15	-38.7	-39.4	25.1	0.00e+00	0	38	0	2952790016	48	4049
2026-01-19 11:01:29.13	346.01	34.94	-38.7	-39.4	25.1	0.00e+00	0	38	0	2958032896	48	4038
2026-01-19 11:01:30.13	345.87	34.73	-38.7	-39.4	25.1	0.00e+00	0	38	0	2964324352	48	4041
2026-01-19 11:01:31.14	345.72	34.52	-38.7	-39.4	25.2	0.00e+00	0	38	0	2969567232	48	4007
2026-01-19 11:01:32.15	345.58	34.31	-38.6	-39.3	25.2	0.00e+00	0	38	0	2974810112	48	3978
2026-01-19 11:01:33.16	345.43	34.11	-38.7	-39.4	25.1	0.00e+00	0	38	0	2981101568	48	4024
2026-01-19 11:01:34.17	345.29	33.90	-38.7	-39.4	25.1	0.00e+00	0	38	0	2987393024	48	4046
2026-01-19 11:01:35.17	345.15	33.70	-38.7	-39.4	25.1	0.00e+00	0	38	0	2992635904	48	4048
2026-01-19 11:01:36.18	345.02	33.50	-38.7	-39.4	25.1	0.00e+00	0	38	0	2997878784	48	4006
2026-01-19 11:01:37.19	344.88	33.29	-38.6	-39.3	25.2	0.00e+00	0	38	0	3004170240	48	3972
2026-01-19 11:01:38.20	344.75	33.09	-38.7	-39.4	25.1	0.00e+00	0	38	0	3009413120	48	4010
2026-01-19 11:01:39.20	344.62	32.90	-38.7	-39.4	25.1	0.00e+00	0	38	0	3015704576	48	4014
2026-01-19 11:01:40.21	344.49	32.70	-38.8	-39.5	25.0	0.00e+00	0	38	0	3020947456	48	4068
2026-01-19 11:01:41.22	344.36	32.50	-38.8	-39.6	25.0	0.00e+00	0	38	0	3026190336	48	4102
2026-01-19 11:01:42.23	344.23	32.30	-38.9	-39.7	24.8	0.00e+00	0	38	0	3032481792	48	4150
2026-01-19 11:01:43.24	344.10	32.11	-39.0	-39.7	24.8	0.00e+00	0	38	0	3037724672	48	4179
2026-01-19 11:01:44.25	343.98	31.91	-39.1	-39.8	24.7	0.00e+00	0	38	0	3042967552	48	4214
2026-01-19 11:01:45.26	343.86	31.72	-38.9	-39.7	24.8	0.00e+00	0	37	0	3049259008	48	4147
2026-01-19 11:01:46.27	343.74	31.53	-39.0	-39.7	24.8	0.00e+00	0	38	0	3055550464	48	4180
2026-01-19 11:01:47.27	343.62	31.34	-39.0	-39.7	24.8	0.00e+00	0	38	0	3060793344	48	4158
2026-01-19 11:01:48.28	343.50	31.15	-39.1	-39.8	24.7	0.00e+00	0	38	0	3066036224	48	4205
2026-01-19 11:01:49.29	343.38	30.96	-39.0	-39.7	24.8	0.00e+00	0	38	0	3072327680	48	4180
2026-01-19 11:01:50.30	343.27	30.77	-39.0	-39.7	24.8	0.00e+00	0	38	0	3077570560	48	4154
2026-01-19 11:01:51.31	343.15	30.59	-39.0	-39.7	24.8	0.00e+00	0	38	0	3082813440	48	4153
2026-01-19 11:01:52.32	343.04	30.40	-39.1	-39.8	24.7	0.00e+00	0	38	0	3089104896	48	4204
2026-01-19 11:01:53.33	342.93	30.22	-39.0	-39.7	24.8	0.00e+00	0	38	0	3094347776	48	4183
2026-01-19 11:01:54.33	342.82	30.04	-39.1	-39.8	24.7	0.00e+00	0	38	0	3100639232	48	4214
2026-01-19 11:01:55.34	342.71	29.85	-39.1	-39.8	24.7	0.00e+00	0	38	0	3105882112	48	4232
2026-01-19 11:01:56.35	342.60	29.67	-39.1	-39.8	24.7	0.00e+00	0	38	0	3111124992	48	4234
2026-01-19 11:01:57.36	342.50	29.49	-39.1	-39.8	24.7	0.00e+00	0	38	0	3117416448	48	4223
2026-01-19 11:01:58.36	342.39	29.32	-39.2	-39.9	24.6	0.00e+00	0	38	0	3123707904	48	4259
2026-01-19 11:01:59.37	342.29	29.14	-39.2	-40.0	24.6	0.00e+00	0	38	0	3128950784	49	4060
2026-01-19 11:02:00.38	342.18	28.96	-39.2	-39.9	24.6	0.00e+00	0	38	0	3134193664	49	4027
2026-01-19 11:02:01.39	342.08	28.78	-39.3	-40.0	24.5	0.00e+00	0	38	0	3140485120	49	4085
2026-01-19 11:02:02.40	341.98	28.61	-39.2	-40.0	24.5	0.00e+00	0	38	0	3145728000	49	4061
2026-01-19 11:02:03.41	341.88	28.44	-39.3	-40.0	24.5	0.00e+00	0	38	0	3150970880	49	4086
2026-01-19 11:02:04.42	341.78	28.26	-39.4	-40.2	24.3	0.00e+00	0	38	0	3157262336	49	4160
2026-01-19 11:02:05.43	341.69	28.09	-39.4	-40.1	24.4	0.00e+00	0	38	0	3162505216	49	4127
2026-01-19 11:02:06.43	341.59	27.92	-39.3	-40.0	24.5	0.00e+00	0	38	0	3167748096	49	4095
2026-01-19 11:02:07.44	341.50	27.75	-39.4	-40.2	24.3	0.00e+00	0	38	0	3174039552	49	4166
2026-01-19 11:02:08.45	341.40	27.58	-39.3	-40.0	24.4	0.00e+00	0	38	0	3179282432	49	4095
2026-01-19 11:02:09.46	341.31	27.41	-39.2	-39.9	24.6	0.00e+00	0	38	0	3185573888	49	4019
2026-01-19 11:02:10.47	341.22	27.25	-39.2	-39.9	24.6	0.00e+00	0	38	0	3190816768	49	4030
2026-01-19 11:02:11.47	341.13	27.08	-39.2	-39.9	24.5	0.00e+00	0	38	0	3197108224	49	4026
2026-01-19 11:02:12.48	341.04	26.92	-39.2	-39.9	24.6	0.00e+00	0	38	0	3202351104	49	4007
2026-01-19 11:02:13.49	340.95	26.75	-39.1	-39.8	24.6	0.00e+00	0	38	0	3208642560	49	3989
2026-01-19 11:02:14.50	340.86	26.59	-39.2	-39.9	24.5	0.00e+00	0	38	0	3213885440	49	4049
2026-01-19 11:02:15.51	340.77	26.42	-39.2	-39.9	24.6	0.00e+00	0	38	0	3219128320	49	4014
2026-01-19 11:02:16.51	340.69	26.26	-39.2	-39.9	24.5	0.00e+00	0	38	0	3225419776	49	4032
2026-01-19 11:02:17.52	340.60	26.10	-39.2	-39.9	24.5	0.00e+00	0	38	0	3230662656	49	4049
2026-01-19 11:02:18.53	340.52	25.94	-39.2	-39.9	24.5	0.00e+00	0	38	0	3235905536	49	4050
2026-01-19 11:02:19.54	340.43	25.78	-39.3	-40.0	24.4	0.00e+00	0	38	0	3242196992	49	4069
2026-01-19 11:02:20.55	340.35	25.63	-39.3	-40.1	24.4	0.00e+00	0	38	0	3247439872	49	4114
2026-01-19 11:02:21.55	340.27	25.47	-39.3	-40.1	24.4	0.00e+00	0	38	0	3252682752	49	4109
2026-01-19 11:02:22.56	340.19	25.31	-39.4	-40.2	24.3	0.00e+00	0	38	0	3258974208	49	4146
2026-01-19 11:02:23.57	340.11	25.16	-39.4	-40.2	24.3	0.00e+00	0	38	0	3265265664	49	4153
2026-01-19 11:02:24.58	340.03	25.00	-39.5	-40.2	24.2	0.00e+00	0	38	0	3270508544	49	4190
2026-01-19 11:02:25.59	339.95	24.85	-39.4	-40.2	24.3	0.00e+00	0	38	0	3275751424	49	4155
2026-01-19 11:02:26.60	339.87	24.70	-39.5	-40.2	24.2	0.00e+00	0	38	0	3282042880	49	4185
2026-01-19 11:02:27.61	339.80	24.54	-39.4	-40.2	24.2	0.00e+00	0	38	0	3287285760	49	4159
2026-01-19 11:02:28.62	339.72	24.39	-39.5	-40.3	24.2	0.00e+00	0	38	0	3293577216	49	4205
2026-01-19 11:02:29.63	339.65	24.24	-39.5	-40.2	24.2	0.00e+00	0	38	0	3298820096	49	4166
2026-01-19 11:02:30.64	339.57	24.09	-39.5	-40.2	24.2	0.00e+00	0	38	0	3304062976	49	4193
2026-01-19 11:02:31.65	339.50	23.94	-39.6	-40.3	24.1	0.00e+00	0	38	0	3310354432	49	4205
2026-01-19 11:02:32.65	339.43	23.79	-39.6	-40.3	24.1	0.00e+00	0	38	0	3315597312	49	4217
2026-01-19 11:02:33.66	339.35	23.65	-39.6	-40.3	24.1	0.00e+00	0	38	0	3321888768	49	4231
2026-01-19 11:02:34.67	339.28	23.50	-39.5	-40.3	24.1	0.00e+00	0	38	0	3327131648	49	4195
2026-01-19 11:02:35.68	339.21	23.35	-39.6	-40.3	24.1	0.00e+00	0	38	0	3333423104	49	4236
2026-01-19 11:02:36.69	339.14	23.21	-39.7	-40.4	24.0	0.00e+00	0	38	0	3338665984	49	4262
2026-01-19 11:02:37.69	339.07	23.07	-39.7	-40.4	24.0	0.00e+00	0	38	0	3343908864	50	4037
2026-01-19 11:02:38.70	339.00	22.92	-39.7	-40.4	24.0	0.00e+00	0	38	0	3350200320	50	4045
2026-01-19 11:02:39.71	338.93	22.78	-39.8	-40.5	24.0	0.00e+00	0	38	0	3355443200	50	4070
2026-01-19 11:02:40.72	338.87	22.64	-39.9	-40.6	23.8	0.00e+00	0	38	0	3360686080	50	4130
2026-01-19 11:02:41.73	338.80	22.50	-39.9	-40.7	23.8	0.00e+00	0	38	0	3366977536	50	4153
2026-01-19 11:02:42.74	338.73	22.36	-40.1	-40.9	23.6	0.00e+00	0	38	0	3372220416	50	4244
2026-01-19 11:02:43.75	338.67	22.22	-40.0	-40.8	23.7	0.00e+00	0	38	0	3378511872	50	4211
2026-01-19 11:02:44.76	338.60	22.08	-40.0	-40.8	23.6	0.00e+00	0	38	0	3383754752	50	4222
2026-01-19 11:02:45.77	338.54	21.94	-40.0	-40.8	23.6	0.00e+00	0	38	0	3390046208	50	4212
2026-01-19 11:02:46.78	338.47	21.80	-39.9	-40.7	23.7	0.00e+00	0	38	0	3395289088	50	4172
2026-01-19 11:02:47.78	338.41	21.66	-40.0	-40.7	23.7	0.00e+00	0	38	0	3401580544	50	4188
2026-01-19 11:02:48.79	338.35	21.53	-39.9	-40.6	23.8	0.00e+00	0	38	0	3406823424	50	4143
2026-01-19 11:02:49.80	338.29	21.39	-39.9	-40.7	23.8	0.00e+00	0	38	0	3412066304	50	4151
2026-01-19 11:02:50.81	338.22	21.26	-39.8	-40.6	23.8	0.00e+00	0	38	0	3418357760	50	4123
2026-01-19 11:02:51.82	338.16	21.12	-39.9	-40.6	23.8	0.00e+00	0	38	0	3423600640	50	4129
2026-01-19 11:02:52.83	338.10	20.99	-39.9	-40.6	23.8	0.00e+00	0	38	0	3428843520	50	4130
2026-01-19 11:02:53.84	338.04	20.86	-39.9	-40.6	23.7	0.00e+00	0	38	0	3435134976	50	4120
2026-01-19 11:02:54.85	337.98	20.72	-39.9	-40.7	23.7	1.10e-06	0	38	0	3440377856	50	4161
2026-01-19 11:02:55.85	337.93	20.59	-39.8	-40.6	23.8	0.00e+00	0	38	0	3445620736	50	4114
2026-01-19 11:02:56.86	337.87	20.46	-39.9	-40.6	23.8	0.00e+00	0	38	0	3451912192	50	4128
2026-01-19 11:02:57.87	337.81	20.33	-39.8	-40.6	23.8	0.00e+00	0	38	0	3458203648	50	4111
2026-01-19 11:02:58.88	337.75	20.20	-39.9	-40.6	23.8	0.00e+00	0	38	0	3463446528	50	4132
2026-01-19 11:02:59.89	337.70	20.07	-39.9	-40.7	23.7	0.00e+00	0	38	0	3468689408	50	4150
2026-01-19 11:03:00.89	337.64	19.94	-40.0	-40.8	23.6	0.00e+00	0	38	0	3474980864	50	4198
2026-01-19 11:03:01.90	337.58	19.82	-40.1	-40.8	23.6	0.00e+00	0	38	0	3480223744	50	4233
2026-01-19 11:03:02.91	337.53	19.69	-40.1	-40.9	23.5	0.00e+00	0	38	0	3486515200	50	4268
2026-01-19 11:03:03.92	337.47	19.56	-40.3	-41.1	23.3	0.00e+00	0	38	0	3491758080	51	4110
2026-01-19 11:03:04.93	337.42	19.44	-40.3	-41.1	23.3	0.00e+00	0	38	0	3497000960	51	4113
2026-01-19 11:03:05.93	337.37	19.31	-40.3	-41.1	23.3	0.00e+00	0	38	0	3503292416	51	4115
2026-01-19 11:03:06.94	337.31	19.19	-40.5	-41.3	23.1	0.00e+00	0	38	0	3508535296	51	4198
2026-01-19 11:03:07.95	337.26	19.06	-40.5	-41.3	23.1	0.00e+00	0	38	0	3513778176	51	4211
2026-01-19 11:03:08.96	337.21	18.94	-40.5	-41.3	23.1	0.00e+00	0	37	0	3520069632	51	4231
2026-01-19 11:03:09.96	337.16	18.82	-40.6	-41.4	23.0	0.00e+00	0	38	0	3526361088	51	4286
2026-01-19 11:03:10.97	337.11	18.70	-40.7	-41.4	23.0	0.00e+00	0	38	0	3531603968	51	4290
2026-01-19 11:03:11.98	337.05	18.57	-40.7	-41.5	22.9	0.00e+00	0	38	0	3536846848	51	4298
2026-01-19 11:03:12.99	337.00	18.45	-40.6	-41.5	22.9	0.00e+00	0	38	0	3543138304	52	4052
2026-01-19 11:03:13.99	336.95	18.33	-40.6	-41.4	22.9	0.00e+00	0	38	0	3548381184	52	4051
2026-01-19 11:03:15.00	336.90	18.21	-40.7	-41.5	22.8	0.00e+00	0	38	0	3553624064	52	4084
2026-01-19 11:03:16.01	336.86	18.09	-40.7	-41.5	22.8	0.00e+00	0	38	0	3559915520	52	4085
2026-01-19 11:03:17.02	336.81	17.97	-40.7	-41.5	22.8	0.00e+00	0	38	0	3565158400	52	4082
2026-01-19 11:03:18.03	336.76	17.86	-40.8	-41.6	22.7	0.00e+00	0	38	0	3571449856	52	4131
2026-01-19 11:03:19.04	336.71	17.74	-40.8	-41.6	22.7	0.00e+00	0	38	0	3576692736	52	4113
2026-01-19 11:03:20.05	336.66	17.62	-40.7	-41.5	22.8	0.00e+00	0	38	0	3581935616	52	4086
2026-01-19 11:03:21.05	336.62	17.50	-40.9	-41.7	22.6	0.00e+00	0	38	0	3588227072	52	4149
2026-01-19 11:03:22.06	336.57	17.39	-40.8	-41.6	22.7	0.00e+00	0	38	0	3594518528	52	4122
2026-01-19 11:03:23.06	336.52	17.27	-40.8	-41.6	22.7	0.00e+00	0	38	0	3599761408	52	4105
2026-01-19 11:03:24.07	336.48	17.16	-40.8	-41.6	22.6	0.00e+00	0	38	0	3605004288	52	4139
2026-01-19 11:03:25.08	336.43	17.04	-40.8	-41.6	22.7	0.00e+00	0	38	0	3611295744	52	4122
2026-01-19 11:03:26.09	336.39	16.93	-40.8	-41.7	22.6	0.00e+00	0	38	0	3616538624	52	4147
2026-01-19 11:03:27.10	336.34	16.82	-40.8	-41.6	22.7	0.00e+00	0	38	0	3621781504	52	4144
2026-01-19 11:03:28.11	336.30	16.70	-41.0	-41.8	22.5	0.00e+00	0	38	0	3628072960	52	4201
2026-01-19 11:03:29.12	336.25	16.59	-40.9	-41.7	22.5	0.00e+00	0	38	0	3633315840	52	4193
2026-01-19 11:03:30.12	336.21	16.48	-41.0	-41.8	22.4	0.00e+00	0	38	0	3638558720	52	4237
2026-01-19 11:03:31.13	336.16	16.37	-41.1	-41.9	22.4	0.00e+00	0	38	0	3644850176	52	4260
2026-01-19 11:03:32.14	336.12	16.26	-41.0	-41.9	22.4	0.00e+00	0	38	0	3650093056	52	4248
2026-01-19 11:03:33.15	336.08	16.14	-41.1	-41.9	22.3	0.00e+00	0	38	0	3656384512	52	4274
2026-01-19 11:03:34.15	336.04	16.04	-41.2	-42.0	22.3	0.00e+00	0	38	0	3661627392	53	4076
2026-01-19 11:03:35.16	335.99	15.93	-41.2	-42.0	22.3	0.00e+00	0	38	0	3667918848	53	4098
2026-01-19 11:03:36.17	335.95	15.82	-41.1	-42.0	22.3	0.00e+00	0	38	0	3673161728	53	4057
