passes_logs/2026/01/19/R3.2S_Murmansk/R3.2S_Murmansk__20260119_111744_AQUA_rec.log

#Pass ID: 20260119_111744_AQUA
#Satellite: AQUA
#Configuration: AQUA
#almurnet v.1.7.20251203
#Start time: 2026-01-19 11:17:44

#Version: 2.2.20231116
#Station: R3.2S_Murmansk
#Location: 33.079688 lon 68.888172 lat
#TLE: 1 27424U 02022A   26018.92652823  .00000914  00000+0  19290-3 0  9996
#TLE: 2 27424  98.4089 345.4199 0001997  73.4625 351.8991 14.61828815261466

#Time	Az	El	Level	Level2	SNR	BER	BlckErr	Temp	State	Recorded	gain1	gain2
2026-01-19 11:17:44.54	152.44	2.03	-53.8	-71.6	3.8	7.47e-01	0	35	0	0	79	27577
2026-01-19 11:17:45.55	152.44	2.10	-53.8	-71.5	3.8	7.45e-01	0	36	104	0	78	28697
2026-01-19 11:17:46.55	152.44	2.16	-53.8	-71.4	3.8	7.45e-01	0	35	104	0	78	28460
2026-01-19 11:17:47.56	152.45	2.23	-53.8	-71.3	3.8	7.47e-01	0	36	104	0	78	28271
2026-01-19 11:17:48.57	152.45	2.30	-53.8	-71.3	3.8	7.46e-01	0	35	104	0	78	28170
2026-01-19 11:17:49.58	152.45	2.37	-53.8	-71.3	3.8	7.47e-01	0	36	104	0	78	28239
2026-01-19 11:17:50.59	152.45	2.43	-53.8	-70.9	3.8	7.42e-01	0	36	104	0	78	27055
2026-01-19 11:17:51.59	152.45	2.50	-53.8	-71.1	3.8	7.45e-01	0	36	104	0	78	27413
2026-01-19 11:17:52.61	152.46	2.57	-53.8	-70.5	3.8	7.46e-01	0	36	104	0	78	25660
2026-01-19 11:17:53.61	152.46	2.64	-53.8	-70.5	3.8	7.45e-01	0	36	104	0	78	25574
2026-01-19 11:17:54.62	152.46	2.71	-53.8	-70.5	3.8	7.41e-01	0	36	104	0	78	25826
2026-01-19 11:17:55.63	152.46	2.78	-53.7	-70.4	3.8	7.43e-01	0	36	104	0	78	25351
2026-01-19 11:17:56.64	152.46	2.85	-53.7	-70.0	3.8	7.45e-01	0	36	104	0	78	24329
2026-01-19 11:17:57.65	152.47	2.92	-53.8	-70.3	3.8	7.47e-01	0	36	104	0	78	25032
2026-01-19 11:17:58.65	152.47	2.99	-53.7	-70.1	3.8	7.46e-01	0	36	104	0	78	24545
2026-01-19 11:17:59.66	152.47	3.06	-53.8	-70.5	3.8	7.42e-01	0	36	104	0	78	25704
2026-01-19 11:18:00.67	152.47	3.13	-53.7	-70.3	3.8	7.45e-01	0	36	104	0	78	25055
2026-01-19 11:18:01.68	152.47	3.20	-53.8	-71.1	3.8	7.44e-01	0	36	104	0	78	27465
2026-01-19 11:18:02.69	152.48	3.27	-53.8	-71.4	3.8	7.46e-01	0	36	104	0	78	28569
2026-01-19 11:18:03.69	152.48	3.34	-53.8	-71.3	3.8	7.46e-01	0	36	104	0	78	28339
2026-01-19 11:18:04.70	152.48	3.41	-53.8	-70.8	3.8	7.45e-01	0	36	104	0	78	26558
2026-01-19 11:18:05.71	152.48	3.48	-53.7	-68.7	3.9	7.46e-01	0	36	104	0	78	20836
2026-01-19 11:18:06.72	152.49	3.55	-53.7	-69.5	3.9	7.40e-01	0	36	104	0	78	22996
2026-01-19 11:18:07.73	152.49	3.62	-53.4	-64.1	6.2	6.78e-01	133	36	0	0	78	12331
2026-01-19 11:18:08.74	152.49	3.70	-53.4	-63.8	6.5	6.72e-01	184	36	0	2097152	78	11920
2026-01-19 11:18:09.75	152.49	3.77	-53.2	-62.3	8.0	6.45e-01	169	36	0	4194304	78	10024
2026-01-19 11:18:10.76	152.49	3.84	-53.2	-62.0	8.2	6.42e-01	98	36	0	5767168	78	9635
2026-01-19 11:18:11.76	152.50	3.91	-53.0	-60.9	9.5	6.29e-01	0	36	0	7864320	77	8994
2026-01-19 11:18:12.77	152.50	3.98	-52.9	-60.4	10.0	6.25e-01	0	36	0	9437184	77	8537
2026-01-19 11:18:13.78	152.50	4.06	-52.8	-59.9	10.4	6.20e-01	0	36	0	11534336	77	8083
2026-01-19 11:18:14.79	152.50	4.13	-52.8	-60.0	10.2	6.22e-01	0	36	0	13107200	77	8108
2026-01-19 11:18:15.79	152.50	4.20	-52.3	-58.0	12.3	6.10e-01	0	36	0	15204352	76	6848
2026-01-19 11:18:16.80	152.51	4.28	-52.0	-57.2	13.4	6.10e-01	0	36	0	17301504	75	6645
2026-01-19 11:18:17.81	152.51	4.35	-51.6	-56.1	14.3	6.08e-01	0	36	0	18874368	75	5837
2026-01-19 11:18:18.82	152.51	4.42	-50.9	-54.8	15.9	6.06e-01	0	36	0	20971520	73	5618
2026-01-19 11:18:19.83	152.51	4.50	-50.4	-53.8	16.6	6.05e-01	0	37	0	22544384	72	5288
2026-01-19 11:18:20.84	152.51	4.57	-50.2	-53.4	17.3	6.05e-01	0	36	0	24641536	71	5346
2026-01-19 11:18:21.84	152.52	4.65	-49.2	-51.8	18.9	6.05e-01	0	36	0	26738688	70	4721
2026-01-19 11:18:22.86	152.52	4.72	-48.6	-50.8	19.8	6.06e-01	0	36	0	28311552	69	4484
2026-01-19 11:18:23.86	152.52	4.80	-48.5	-50.7	19.9	6.07e-01	0	36	0	30408704	69	4431
2026-01-19 11:18:24.87	152.52	4.87	-47.9	-49.9	21.0	6.06e-01	0	36	0	32505856	67	4503
2026-01-19 11:18:25.88	152.52	4.95	-47.9	-50.0	20.7	6.07e-01	0	37	0	34078720	67	4555
2026-01-19 11:18:26.89	152.53	5.02	-47.8	-49.8	20.9	6.05e-01	0	37	0	36175872	67	4471
2026-01-19 11:18:27.89	152.53	5.10	-50.0	-53.0	18.0	6.06e-01	0	36	0	37748736	70	5430
2026-01-19 11:18:28.90	152.53	5.18	-48.0	-50.0	20.9	6.06e-01	0	37	0	39845888	67	4566
2026-01-19 11:18:29.91	152.53	5.25	-50.5	-53.8	17.4	6.08e-01	0	36	0	41418752	71	5606
2026-01-19 11:18:30.92	152.53	5.33	-50.4	-53.5	17.5	6.06e-01	0	37	0	43515904	71	5440
2026-01-19 11:18:31.93	152.53	5.41	-49.6	-52.4	18.5	6.05e-01	0	37	0	45613056	69	5360
2026-01-19 11:18:32.93	152.54	5.48	-47.5	-49.4	21.4	6.05e-01	0	37	0	47710208	67	4255
2026-01-19 11:18:33.94	152.54	5.56	-47.4	-49.2	21.6	6.05e-01	0	37	0	49283072	66	4408
2026-01-19 11:18:34.95	152.54	5.64	-47.3	-49.1	21.6	6.04e-01	0	36	0	51380224	66	4385
2026-01-19 11:18:35.96	152.54	5.72	-47.4	-49.2	21.6	6.05e-01	0	37	0	52953088	66	4426
2026-01-19 11:18:36.96	152.54	5.79	-47.3	-49.1	21.7	6.06e-01	0	37	0	55050240	66	4376
2026-01-19 11:18:37.97	152.55	5.87	-47.1	-48.9	21.9	6.06e-01	0	37	0	56623104	66	4244
2026-01-19 11:18:38.98	152.55	5.95	-47.3	-49.1	21.7	6.06e-01	0	37	0	58720256	66	4388
2026-01-19 11:18:39.99	152.55	6.03	-47.1	-48.9	22.0	6.07e-01	0	37	0	60817408	65	4508
2026-01-19 11:18:41.00	152.55	6.11	-47.1	-48.8	22.0	6.05e-01	0	37	0	62390272	65	4469
2026-01-19 11:18:42.01	152.55	6.19	-47.2	-49.0	21.9	6.06e-01	0	37	0	64487424	65	4547
2026-01-19 11:18:43.01	152.55	6.27	-47.3	-49.0	21.9	6.07e-01	0	37	0	66060288	65	4591
2026-01-19 11:18:44.02	152.56	6.35	-46.8	-48.5	22.4	6.06e-01	0	37	0	68157440	65	4320
2026-01-19 11:18:45.02	152.56	6.43	-46.9	-48.6	22.3	6.05e-01	0	37	0	69730304	65	4369
2026-01-19 11:18:46.03	152.56	6.51	-47.0	-48.7	22.3	6.07e-01	0	37	0	71827456	65	4394
2026-01-19 11:18:47.04	152.56	6.59	-46.9	-48.6	22.3	6.07e-01	0	37	0	73924608	65	4363
2026-01-19 11:18:48.05	152.56	6.67	-46.8	-48.5	22.5	6.06e-01	0	37	0	76021760	65	4307
2026-01-19 11:18:49.05	152.56	6.75	-46.7	-48.4	22.6	6.07e-01	0	37	0	77594624	65	4243
2026-01-19 11:18:50.07	152.57	6.84	-46.9	-48.5	22.4	6.08e-01	0	37	0	79691776	65	4329
2026-01-19 11:18:51.07	152.57	6.92	-46.7	-48.3	22.7	6.07e-01	0	37	0	81264640	65	4194
2026-01-19 11:18:52.08	152.57	7.00	-46.6	-48.2	22.8	6.04e-01	0	37	0	83361792	65	4172
2026-01-19 11:18:53.09	152.57	7.08	-46.8	-48.5	22.5	6.05e-01	0	37	0	84934656	65	4298
2026-01-19 11:18:54.10	152.57	7.17	-46.7	-48.4	22.6	6.07e-01	0	37	0	87031808	65	4250
2026-01-19 11:18:55.10	152.57	7.25	-46.9	-48.5	22.5	6.05e-01	0	37	0	89128960	65	4321
2026-01-19 11:18:56.11	152.58	7.33	-46.7	-48.4	22.7	6.05e-01	0	37	0	90701824	65	4245
2026-01-19 11:18:57.12	152.58	7.42	-46.9	-48.6	22.4	6.06e-01	0	37	0	92798976	65	4345
2026-01-19 11:18:58.13	152.58	7.50	-46.8	-48.4	22.7	6.05e-01	0	37	0	94371840	65	4255
2026-01-19 11:18:59.14	152.58	7.59	-46.9	-48.5	22.6	6.08e-01	0	37	0	96468992	65	4306
2026-01-19 11:19:00.14	152.58	7.67	-46.7	-48.3	22.8	6.05e-01	0	37	0	98566144	65	4199
2026-01-19 11:19:01.15	152.58	7.76	-46.8	-48.4	22.6	6.08e-01	0	37	0	100139008	65	4286
2026-01-19 11:19:02.16	152.59	7.84	-46.7	-48.3	22.9	6.06e-01	0	37	0	102236160	65	4207
2026-01-19 11:19:03.17	152.59	7.93	-46.7	-48.2	22.9	6.07e-01	0	37	0	104333312	65	4191
2026-01-19 11:19:04.18	152.59	8.01	-46.4	-47.9	23.2	6.06e-01	0	37	0	105906176	64	4256
2026-01-19 11:19:05.19	152.59	8.10	-46.4	-48.0	23.2	6.05e-01	0	37	0	108003328	64	4300
2026-01-19 11:19:06.19	152.59	8.19	-46.5	-48.1	23.0	6.05e-01	0	37	0	109576192	64	4358
2026-01-19 11:19:07.20	152.59	8.27	-46.4	-48.0	23.1	6.06e-01	0	37	0	111673344	64	4305
2026-01-19 11:19:08.21	152.60	8.36	-46.5	-48.0	23.2	6.05e-01	0	37	0	113246208	64	4315
2026-01-19 11:19:09.22	152.60	8.45	-46.4	-48.0	23.1	6.05e-01	0	37	0	115343360	64	4304
2026-01-19 11:19:10.23	152.60	8.54	-46.5	-48.1	23.1	6.07e-01	0	37	0	117440512	64	4349
2026-01-19 11:19:11.23	152.60	8.63	-46.1	-47.5	23.6	6.06e-01	0	37	0	119537664	64	4080
2026-01-19 11:19:12.24	152.60	8.71	-46.3	-47.8	23.4	6.05e-01	0	37	0	121110528	64	4203
2026-01-19 11:19:13.25	152.60	8.80	-46.1	-47.6	23.6	6.04e-01	0	37	0	123207680	64	4107
2026-01-19 11:19:14.26	152.60	8.89	-46.3	-47.8	23.4	6.08e-01	0	37	0	124780544	64	4238
2026-01-19 11:19:15.26	152.61	8.98	-46.4	-47.9	23.2	6.07e-01	0	37	0	126877696	64	4280
2026-01-19 11:19:16.27	152.61	9.07	-46.3	-47.8	23.4	6.07e-01	0	37	0	128450560	64	4207
2026-01-19 11:19:17.28	152.61	9.16	-46.0	-47.5	23.7	6.07e-01	0	37	0	130547712	64	4068
2026-01-19 11:19:18.29	152.61	9.26	-46.4	-47.9	23.3	6.07e-01	0	37	0	132644864	64	4248
2026-01-19 11:19:19.29	152.61	9.35	-46.3	-47.8	23.4	6.05e-01	0	37	0	134217728	64	4199
2026-01-19 11:19:20.30	152.61	9.44	-46.2	-47.7	23.5	6.08e-01	0	37	0	136314880	64	4184
2026-01-19 11:19:21.31	152.61	9.53	-46.3	-47.8	23.5	6.06e-01	0	37	0	137887744	64	4203
2026-01-19 11:19:22.32	152.61	9.62	-46.5	-48.1	23.2	6.09e-01	0	37	0	139984896	64	4347
2026-01-19 11:19:23.33	152.62	9.72	-46.5	-48.0	23.3	6.08e-01	0	37	0	141557760	64	4296
2026-01-19 11:19:24.33	152.62	9.81	-46.6	-48.1	23.2	6.07e-01	0	37	0	143654912	64	4373
2026-01-19 11:19:25.34	152.62	9.90	-46.3	-47.7	23.6	6.06e-01	0	37	0	145752064	64	4180
2026-01-19 11:19:26.35	152.62	10.00	-46.1	-47.6	23.7	6.08e-01	0	37	0	147849216	64	4099
2026-01-19 11:19:27.36	152.62	10.09	-46.3	-47.7	23.7	6.07e-01	0	37	0	149422080	63	4420
2026-01-19 11:19:28.36	152.62	10.19	-46.1	-47.5	23.8	6.07e-01	0	37	0	151519232	63	4327
2026-01-19 11:19:29.37	152.62	10.28	-46.2	-47.7	23.7	6.05e-01	0	37	0	153092096	63	4400
2026-01-19 11:19:30.38	152.62	10.38	-46.3	-47.7	23.7	6.06e-01	0	37	0	155189248	63	4424
2026-01-19 11:19:31.39	152.63	10.47	-46.0	-47.4	23.9	6.06e-01	0	37	0	156762112	63	4289
2026-01-19 11:19:32.40	152.63	10.57	-46.1	-47.6	23.8	6.06e-01	0	37	0	158859264	63	4347
2026-01-19 11:19:33.41	152.63	10.67	-46.0	-47.4	24.0	6.06e-01	0	37	0	160956416	63	4286
2026-01-19 11:19:34.41	152.63	10.76	-46.1	-47.5	23.9	6.06e-01	0	37	0	162529280	63	4301
2026-01-19 11:19:35.42	152.63	10.86	-46.0	-47.5	23.9	6.05e-01	0	37	0	164626432	63	4294
2026-01-19 11:19:36.43	152.63	10.96	-46.1	-47.5	23.9	6.07e-01	0	37	0	166199296	63	4304
2026-01-19 11:19:37.44	152.63	11.06	-46.1	-47.5	23.8	6.06e-01	0	37	0	168296448	63	4340
2026-01-19 11:19:38.45	152.63	11.16	-46.1	-47.5	23.8	6.06e-01	0	37	0	170393600	63	4338
2026-01-19 11:19:39.45	152.63	11.26	-46.0	-47.4	24.0	6.05e-01	0	37	0	171966464	63	4264
2026-01-19 11:19:40.46	152.63	11.36	-46.0	-47.4	24.0	6.07e-01	0	37	0	174063616	63	4251
2026-01-19 11:19:41.47	152.64	11.46	-45.8	-47.1	24.3	6.06e-01	0	37	0	176160768	63	4128
2026-01-19 11:19:42.47	152.64	11.56	-45.8	-47.2	24.2	6.05e-01	0	37	0	177733632	63	4183
2026-01-19 11:19:43.48	152.64	11.66	-46.0	-47.4	24.1	6.05e-01	0	37	0	179830784	63	4250
2026-01-19 11:19:44.49	152.64	11.76	-45.9	-47.3	24.2	6.07e-01	0	37	0	181403648	63	4194
2026-01-19 11:19:45.50	152.64	11.87	-45.8	-47.2	24.2	6.05e-01	0	37	0	183500800	63	4180
2026-01-19 11:19:46.51	152.64	11.97	-45.9	-47.3	24.1	6.06e-01	0	37	0	185073664	63	4219
2026-01-19 11:19:47.51	152.64	12.07	-45.9	-47.3	24.2	6.06e-01	0	37	0	187170816	63	4201
2026-01-19 11:19:48.52	152.64	12.17	-45.9	-47.3	24.2	6.05e-01	0	37	0	189267968	63	4195
2026-01-19 11:19:49.53	152.64	12.28	-45.6	-46.9	24.5	6.05e-01	0	37	0	190840832	63	4047
2026-01-19 11:19:50.54	152.64	12.38	-45.7	-47.1	24.4	6.05e-01	0	37	0	192937984	63	4109
2026-01-19 11:19:51.54	152.64	12.49	-45.8	-47.1	24.3	6.05e-01	0	37	0	195035136	63	4143
2026-01-19 11:19:52.55	152.65	12.60	-45.7	-47.0	24.4	6.07e-01	0	37	0	196608000	63	4074
2026-01-19 11:19:53.56	152.65	12.70	-45.7	-47.0	24.4	6.06e-01	0	37	0	198705152	63	4075
2026-01-19 11:19:54.57	152.65	12.81	-45.9	-47.3	24.2	6.05e-01	0	37	0	200278016	63	4200
2026-01-19 11:19:55.57	152.65	12.92	-45.7	-47.0	24.5	6.04e-01	0	37	0	202375168	63	4095
2026-01-19 11:19:56.58	152.65	13.02	-45.9	-47.3	24.2	6.06e-01	0	37	0	204472320	63	4223
2026-01-19 11:19:57.59	152.65	13.13	-45.6	-47.0	24.5	6.06e-01	0	37	0	206045184	63	4052
2026-01-19 11:19:58.60	152.65	13.24	-45.6	-46.9	24.6	6.08e-01	0	37	0	208142336	63	4029
2026-01-19 11:19:59.61	152.65	13.35	-45.6	-46.9	24.6	6.06e-01	0	37	0	209715200	63	4025
2026-01-19 11:20:00.61	152.65	13.46	-45.6	-46.9	24.5	6.05e-01	0	37	0	211812352	63	4045
2026-01-19 11:20:01.62	152.65	13.57	-45.5	-46.9	24.6	6.09e-01	0	37	0	213385216	62	4250
2026-01-19 11:20:02.63	152.65	13.68	-45.6	-46.9	24.6	6.04e-01	0	37	0	215482368	62	4256
2026-01-19 11:20:03.64	152.65	13.79	-45.5	-46.9	24.6	6.04e-01	0	37	0	217579520	62	4255
2026-01-19 11:20:04.65	152.65	13.91	-45.4	-46.7	24.8	6.07e-01	0	37	0	219676672	62	4178
2026-01-19 11:20:05.65	152.65	14.02	-45.5	-46.8	24.7	6.08e-01	0	37	0	221249536	62	4214
2026-01-19 11:20:06.66	152.65	14.13	-45.6	-46.9	24.6	6.06e-01	0	37	0	223346688	62	4276
2026-01-19 11:20:07.67	152.65	14.25	-45.6	-46.9	24.6	6.06e-01	0	37	0	224919552	62	4287
2026-01-19 11:20:08.68	152.65	14.36	-45.4	-46.8	24.7	6.07e-01	0	37	0	227016704	62	4196
2026-01-19 11:20:09.68	152.65	14.48	-45.5	-46.8	24.7	6.05e-01	0	37	0	228589568	62	4199
2026-01-19 11:20:10.69	152.65	14.59	-45.5	-46.9	24.7	6.08e-01	0	37	0	230686720	62	4247
2026-01-19 11:20:11.70	152.65	14.71	-45.5	-46.8	24.8	6.05e-01	0	37	0	232783872	62	4200
2026-01-19 11:20:12.71	152.66	14.83	-45.4	-46.7	24.8	6.08e-01	0	37	0	234356736	62	4170
2026-01-19 11:20:13.72	152.66	14.95	-45.5	-46.8	24.7	6.07e-01	0	37	0	236453888	62	4221
2026-01-19 11:20:14.73	152.66	15.06	-45.6	-46.9	24.6	6.06e-01	0	37	0	238026752	62	4276
2026-01-19 11:20:15.73	152.66	15.18	-45.5	-46.8	24.7	6.07e-01	0	37	0	240123904	62	4208
2026-01-19 11:20:16.74	152.66	15.30	-45.5	-46.8	24.7	6.06e-01	0	37	0	242221056	62	4208
2026-01-19 11:20:17.75	152.66	15.42	-45.4	-46.6	24.9	6.06e-01	0	37	0	243793920	62	4145
2026-01-19 11:20:18.76	152.66	15.54	-45.4	-46.7	24.9	6.06e-01	0	37	0	245891072	62	4157
2026-01-19 11:20:19.76	152.66	15.66	-45.2	-46.5	25.0	6.07e-01	0	37	0	247988224	62	4067
2026-01-19 11:20:20.77	152.66	15.79	-45.3	-46.5	25.0	6.06e-01	0	37	0	249561088	62	4086
2026-01-19 11:20:21.78	152.66	15.91	-45.4	-46.7	24.9	6.06e-01	0	37	0	251658240	62	4156
2026-01-19 11:20:22.79	152.66	16.03	-45.2	-46.4	25.1	6.05e-01	0	37	0	253231104	62	4037
2026-01-19 11:20:23.80	152.66	16.16	-45.1	-46.4	25.1	6.07e-01	0	37	0	255328256	62	4025
2026-01-19 11:20:24.80	152.66	16.28	-45.2	-46.4	25.1	6.06e-01	0	37	0	256901120	62	4041
2026-01-19 11:20:25.81	152.66	16.41	-45.1	-46.4	25.2	6.06e-01	0	37	0	258998272	62	4011
2026-01-19 11:20:26.82	152.66	16.54	-45.1	-46.4	25.1	6.06e-01	0	37	0	261095424	62	4027
2026-01-19 11:20:27.83	152.66	16.66	-45.1	-46.3	25.2	6.09e-01	0	37	0	262668288	62	3999
2026-01-19 11:20:28.84	152.66	16.79	-45.0	-46.3	25.3	6.05e-01	0	37	0	264765440	62	3973
2026-01-19 11:20:29.84	152.66	16.92	-45.1	-46.3	25.2	6.06e-01	0	37	0	266862592	62	3999
2026-01-19 11:20:30.85	152.65	17.05	-45.2	-46.5	25.1	6.07e-01	0	37	0	268435456	62	4056
2026-01-19 11:20:31.86	152.65	17.18	-45.2	-46.5	25.1	6.07e-01	0	37	0	270532608	62	4067
2026-01-19 11:20:32.87	152.65	17.31	-45.3	-46.6	25.0	6.07e-01	0	37	0	272105472	62	4099
2026-01-19 11:20:33.88	152.65	17.44	-45.3	-46.6	25.0	6.05e-01	0	37	0	274202624	62	4113
2026-01-19 11:20:34.89	152.65	17.58	-45.3	-46.6	25.0	6.05e-01	0	37	0	276299776	62	4115
2026-01-19 11:20:35.89	152.65	17.71	-45.4	-46.6	25.0	6.05e-01	0	37	0	277872640	62	4138
2026-01-19 11:20:36.90	152.65	17.84	-45.4	-46.6	25.0	6.07e-01	0	37	0	279969792	62	4145
2026-01-19 11:20:37.91	152.65	17.98	-45.4	-46.7	24.9	6.06e-01	0	37	0	281542656	62	4189
2026-01-19 11:20:38.92	152.65	18.11	-45.4	-46.7	24.9	6.05e-01	0	37	0	283639808	62	4174
2026-01-19 11:20:39.92	152.65	18.25	-45.4	-46.7	24.9	6.04e-01	0	37	0	285212672	62	4178
2026-01-19 11:20:40.93	152.65	18.39	-45.4	-46.7	24.9	6.06e-01	0	37	0	287309824	62	4190
2026-01-19 11:20:41.94	152.65	18.53	-45.4	-46.7	24.9	6.03e-01	0	37	0	289406976	62	4181
2026-01-19 11:20:42.94	152.65	18.66	-45.5	-46.8	24.9	6.05e-01	0	37	0	290979840	62	4208
2026-01-19 11:20:43.95	152.65	18.81	-45.4	-46.7	24.9	6.05e-01	0	37	0	293076992	62	4165
2026-01-19 11:20:44.96	152.65	18.95	-45.4	-46.7	24.9	6.04e-01	0	37	0	295174144	62	4177
2026-01-19 11:20:45.97	152.65	19.09	-45.4	-46.7	24.9	6.07e-01	0	37	0	296747008	62	4174
2026-01-19 11:20:46.98	152.64	19.23	-45.4	-46.7	24.9	6.07e-01	0	37	0	298844160	62	4162
2026-01-19 11:20:47.99	152.64	19.38	-45.4	-46.7	24.9	6.07e-01	0	37	0	300417024	62	4183
2026-01-19 11:20:48.99	152.64	19.52	-45.5	-46.8	24.9	6.07e-01	0	37	0	302514176	62	4203
2026-01-19 11:20:50.00	152.64	19.66	-45.4	-46.6	25.0	6.05e-01	0	37	0	304611328	62	4135
2026-01-19 11:20:51.01	152.64	19.81	-45.4	-46.7	25.0	6.08e-01	0	37	0	306184192	62	4156
2026-01-19 11:20:52.02	152.64	19.96	-45.5	-46.8	24.8	6.06e-01	0	37	0	308281344	62	4226
2026-01-19 11:20:53.02	152.64	20.11	-45.5	-46.8	24.9	6.06e-01	0	37	0	309854208	62	4215
2026-01-19 11:20:54.03	152.64	20.26	-45.6	-46.9	24.8	6.08e-01	0	37	0	311951360	62	4260
2026-01-19 11:20:55.04	152.64	20.41	-45.6	-46.9	24.8	6.06e-01	0	37	0	314048512	62	4270
2026-01-19 11:20:56.05	152.63	20.56	-45.6	-46.9	24.8	6.03e-01	0	37	0	315621376	62	4280
2026-01-19 11:20:57.05	152.63	20.71	-45.6	-46.9	24.8	6.05e-01	0	37	0	317718528	62	4267
2026-01-19 11:20:58.06	152.63	20.86	-45.7	-47.0	24.7	6.04e-01	0	37	0	319291392	62	4313
2026-01-19 11:20:59.07	152.63	21.02	-45.7	-47.0	24.7	6.06e-01	0	37	0	321388544	62	4324
2026-01-19 11:21:00.08	152.63	21.17	-45.7	-47.0	24.7	6.05e-01	0	37	0	323485696	62	4329
2026-01-19 11:21:01.09	152.63	21.33	-45.7	-47.0	24.7	6.05e-01	0	37	0	325058560	62	4333
2026-01-19 11:21:02.09	152.62	21.49	-45.8	-47.1	24.6	6.06e-01	0	37	0	327155712	62	4373
2026-01-19 11:21:03.10	152.62	21.65	-45.8	-47.1	24.6	6.06e-01	0	37	0	328728576	62	4377
2026-01-19 11:21:04.11	152.62	21.81	-45.8	-47.1	24.6	6.07e-01	0	37	0	330825728	62	4389
2026-01-19 11:21:05.12	152.62	21.97	-45.8	-47.1	24.6	6.04e-01	0	37	0	332922880	62	4389
2026-01-19 11:21:06.13	152.62	22.13	-45.7	-47.0	24.7	6.05e-01	0	37	0	334495744	62	4328
2026-01-19 11:21:07.14	152.62	22.29	-45.7	-47.0	24.7	6.06e-01	0	37	0	336592896	62	4339
2026-01-19 11:21:08.15	152.61	22.46	-45.7	-47.0	24.7	6.06e-01	0	37	0	338690048	62	4317
2026-01-19 11:21:09.15	152.61	22.62	-45.8	-47.1	24.7	6.06e-01	0	37	0	340262912	62	4352
2026-01-19 11:21:10.16	152.61	22.79	-45.7	-47.0	24.8	6.05e-01	0	37	0	342360064	62	4304
2026-01-19 11:21:11.17	152.61	22.96	-45.7	-47.1	24.7	6.06e-01	0	37	0	343932928	62	4343
2026-01-19 11:21:12.18	152.60	23.12	-45.6	-46.9	24.8	6.05e-01	0	37	0	346030080	62	4270
2026-01-19 11:21:13.19	152.60	23.29	-45.7	-47.0	24.8	6.05e-01	0	37	0	347602944	62	4294
2026-01-19 11:21:14.19	152.60	23.46	-45.7	-47.0	24.7	6.07e-01	0	37	0	349700096	62	4324
2026-01-19 11:21:15.20	152.60	23.64	-45.7	-47.0	24.7	6.05e-01	0	37	0	351797248	62	4328
2026-01-19 11:21:16.21	152.59	23.81	-45.6	-46.9	24.9	6.07e-01	0	37	0	353370112	62	4276
2026-01-19 11:21:17.22	152.59	23.99	-45.6	-46.9	24.8	6.08e-01	0	37	0	355467264	62	4277
2026-01-19 11:21:18.22	152.59	24.16	-45.7	-47.0	24.8	6.08e-01	0	37	0	357040128	62	4301
2026-01-19 11:21:19.23	152.59	24.34	-45.7	-47.0	24.8	6.07e-01	0	37	0	359137280	62	4330
2026-01-19 11:21:20.24	152.58	24.52	-45.8	-47.1	24.7	6.07e-01	0	37	0	361234432	62	4357
2026-01-19 11:21:21.25	152.58	24.70	-45.8	-47.1	24.7	6.06e-01	0	37	0	362807296	62	4351
2026-01-19 11:21:22.26	152.58	24.88	-45.7	-47.0	24.8	6.06e-01	0	37	0	364904448	62	4325
2026-01-19 11:21:23.27	152.57	25.07	-45.6	-46.9	24.9	6.07e-01	0	37	0	367001600	62	4269
2026-01-19 11:21:24.27	152.57	25.25	-45.6	-46.8	24.9	6.06e-01	0	37	0	368574464	62	4241
2026-01-19 11:21:25.28	152.57	25.43	-45.4	-46.7	25.1	6.08e-01	0	37	0	370671616	62	4156
2026-01-19 11:21:26.29	152.56	25.62	-45.4	-46.7	25.1	6.06e-01	0	37	0	372244480	62	4168
2026-01-19 11:21:27.30	152.56	25.81	-45.5	-46.8	25.0	6.06e-01	0	37	0	374341632	62	4207
2026-01-19 11:21:28.30	152.56	26.00	-45.5	-46.7	25.1	6.06e-01	0	37	0	375914496	62	4181
2026-01-19 11:21:29.31	152.55	26.19	-45.5	-46.7	25.0	6.04e-01	0	37	0	378011648	62	4185
2026-01-19 11:21:30.32	152.55	26.39	-45.5	-46.8	25.0	6.05e-01	0	37	0	380108800	62	4198
2026-01-19 11:21:31.33	152.55	26.58	-45.5	-46.8	25.1	6.05e-01	0	37	0	381681664	62	4195
2026-01-19 11:21:32.34	152.54	26.78	-45.5	-46.8	25.0	6.05e-01	0	37	0	383778816	62	4197
2026-01-19 11:21:33.35	152.54	26.97	-45.4	-46.6	25.2	6.07e-01	0	37	0	385875968	62	4122
2026-01-19 11:21:34.35	152.53	27.17	-45.3	-46.6	25.2	6.05e-01	0	37	0	387448832	62	4128
2026-01-19 11:21:35.36	152.53	27.37	-45.3	-46.6	25.2	6.07e-01	0	37	0	389545984	62	4112
2026-01-19 11:21:36.37	152.53	27.58	-45.3	-46.5	25.3	6.06e-01	0	37	0	391118848	62	4096
2026-01-19 11:21:37.37	152.52	27.78	-45.2	-46.4	25.4	6.04e-01	0	37	0	393216000	62	4028
2026-01-19 11:21:38.38	152.52	27.98	-45.2	-46.5	25.4	6.09e-01	0	37	0	395313152	62	4052
2026-01-19 11:21:39.39	152.51	28.19	-45.1	-46.3	25.5	6.07e-01	0	37	0	396886016	62	4000
2026-01-19 11:21:40.40	152.51	28.40	-44.9	-46.1	25.7	6.05e-01	0	37	0	398983168	61	4109
2026-01-19 11:21:41.41	152.50	28.61	-44.9	-46.1	25.4	6.07e-01	0	37	0	400556032	61	4115
2026-01-19 11:21:42.41	152.50	28.82	-45.0	-46.2	25.6	6.06e-01	0	37	0	402653184	61	4158
2026-01-19 11:21:43.42	152.49	29.04	-45.0	-46.3	25.5	6.06e-01	0	37	0	404226048	61	4204
2026-01-19 11:21:44.43	152.49	29.25	-45.2	-46.4	25.4	6.06e-01	0	37	0	406323200	61	4272
2026-01-19 11:21:45.44	152.48	29.47	-45.3	-46.5	25.3	6.06e-01	0	37	0	408420352	61	4338
2026-01-19 11:21:46.45	152.48	29.69	-45.4	-46.7	25.2	6.07e-01	0	37	0	410517504	61	4411
2026-01-19 11:21:47.45	152.47	29.91	-45.1	-46.3	25.5	6.04e-01	0	37	0	412090368	61	4235
2026-01-19 11:21:48.46	152.46	30.13	-45.0	-46.2	25.6	6.05e-01	0	37	0	414187520	61	4176
2026-01-19 11:21:49.47	152.46	30.36	-45.1	-46.3	25.5	6.06e-01	0	37	0	415760384	61	4223
2026-01-19 11:21:50.48	152.45	30.59	-45.1	-46.3	25.5	6.05e-01	0	37	0	417857536	61	4225
2026-01-19 11:21:51.49	152.45	30.82	-45.0	-46.2	25.6	6.06e-01	0	37	0	419430400	61	4191
2026-01-19 11:21:52.49	152.44	31.05	-45.0	-46.2	25.6	6.04e-01	0	38	0	421527552	61	4188
2026-01-19 11:21:53.50	152.43	31.28	-45.2	-46.4	25.5	6.06e-01	0	37	0	423624704	61	4259
2026-01-19 11:21:54.51	152.43	31.51	-45.2	-46.4	25.5	6.05e-01	0	37	0	425197568	61	4258
2026-01-19 11:21:55.51	152.42	31.75	-45.2	-46.5	25.3	6.05e-01	0	37	0	427294720	61	4306
2026-01-19 11:21:56.52	152.41	31.99	-45.1	-46.4	25.5	6.07e-01	0	37	0	428867584	61	4245
2026-01-19 11:21:57.53	152.41	32.23	-45.0	-46.2	25.7	6.07e-01	0	37	0	430964736	61	4160
2026-01-19 11:21:58.54	152.40	32.47	-45.0	-46.2	25.6	6.05e-01	0	37	0	433061888	61	4187
2026-01-19 11:21:59.55	152.39	32.72	-45.0	-46.2	25.6	6.04e-01	0	37	0	434634752	61	4174
2026-01-19 11:22:00.55	152.38	32.96	-45.1	-46.3	25.5	6.07e-01	0	37	0	436731904	61	4242
2026-01-19 11:22:01.56	152.38	33.21	-45.3	-46.5	25.4	6.07e-01	0	37	0	438829056	61	4313
2026-01-19 11:22:02.57	152.37	33.47	-45.5	-46.7	25.2	6.06e-01	0	37	0	440401920	61	4434
2026-01-19 11:22:03.58	152.36	33.72	-45.5	-46.8	25.1	6.07e-01	0	37	0	442499072	61	4448
2026-01-19 11:22:04.58	152.35	33.97	-45.6	-46.9	25.0	6.07e-01	0	37	0	444071936	61	4518
2026-01-19 11:22:05.59	152.34	34.23	-45.7	-47.0	25.0	6.07e-01	0	37	0	446169088	62	4292
2026-01-19 11:22:06.60	152.33	34.49	-45.7	-47.0	25.0	6.06e-01	0	37	0	447741952	62	4308
2026-01-19 11:22:07.61	152.33	34.76	-45.8	-47.1	24.9	6.05e-01	0	37	0	449839104	62	4360
2026-01-19 11:22:08.61	152.32	35.02	-46.0	-47.4	24.6	6.05e-01	0	38	0	451936256	62	4505
2026-01-19 11:22:09.62	152.31	35.29	-46.2	-47.5	24.4	6.04e-01	0	37	0	453509120	62	4587
2026-01-19 11:22:10.63	152.30	35.56	-46.3	-47.7	24.3	6.07e-01	0	37	0	455606272	63	4405
2026-01-19 11:22:11.64	152.29	35.83	-46.5	-47.8	24.2	6.09e-01	0	37	0	457703424	63	4484
2026-01-19 11:22:12.64	152.28	36.10	-46.5	-47.9	24.1	6.07e-01	0	37	0	459276288	63	4533
2026-01-19 11:22:13.65	152.27	36.38	-46.6	-48.1	24.0	6.07e-01	0	38	0	461373440	63	4601
2026-01-19 11:22:14.66	152.26	36.66	-46.6	-48.0	24.0	6.07e-01	0	37	0	462946304	63	4592
2026-01-19 11:22:15.67	152.25	36.95	-46.7	-48.1	23.8	6.05e-01	0	37	0	465043456	64	4379
2026-01-19 11:22:16.68	152.23	37.23	-46.9	-48.3	23.7	6.07e-01	0	37	0	467140608	64	4480
2026-01-19 11:22:17.69	152.22	37.52	-47.1	-48.6	23.4	6.06e-01	0	37	0	468713472	64	4607
2026-01-19 11:22:18.69	152.21	37.81	-47.2	-48.7	23.3	6.06e-01	0	37	0	470810624	64	4686
2026-01-19 11:22:19.70	152.20	38.10	-47.1	-48.6	23.4	6.04e-01	0	38	0	472383488	65	4378
2026-01-19 11:22:20.71	152.19	38.40	-47.1	-48.6	23.4	6.06e-01	0	37	0	474480640	65	4353
2026-01-19 11:22:21.72	152.17	38.70	-47.0	-48.5	23.5	6.05e-01	0	37	0	476053504	65	4317
2026-01-19 11:22:22.73	152.16	39.00	-47.1	-48.6	23.4	6.08e-01	0	37	0	478150656	65	4387
2026-01-19 11:22:23.73	152.15	39.30	-47.1	-48.6	23.4	6.06e-01	0	38	0	480247808	65	4372
2026-01-19 11:22:24.74	152.14	39.61	-47.1	-48.6	23.4	6.06e-01	0	37	0	482344960	65	4382
2026-01-19 11:22:25.75	152.12	39.92	-47.0	-48.5	23.6	6.06e-01	0	37	0	483917824	65	4294
2026-01-19 11:22:26.76	152.11	40.23	-46.7	-48.1	23.8	6.06e-01	0	37	0	486014976	65	4142
2026-01-19 11:22:27.76	152.09	40.55	-46.6	-47.9	24.1	6.06e-01	0	37	0	487587840	65	4049
2026-01-19 11:22:28.77	152.08	40.87	-46.6	-48.0	24.0	6.07e-01	0	37	0	489684992	65	4059
2026-01-19 11:22:29.78	152.06	41.19	-46.7	-48.1	23.9	6.05e-01	0	37	0	491257856	65	4145
2026-01-19 11:22:30.79	152.05	41.51	-46.7	-48.1	23.9	6.05e-01	0	38	0	493355008	65	4140
2026-01-19 11:22:31.80	152.03	41.84	-46.6	-48.0	24.0	6.06e-01	0	37	0	495452160	65	4066
2026-01-19 11:22:32.81	152.02	42.17	-46.7	-48.1	23.9	6.05e-01	0	38	0	497025024	65	4133
2026-01-19 11:22:33.81	152.00	42.51	-46.6	-48.0	24.0	6.05e-01	0	38	0	499122176	65	4087
2026-01-19 11:22:34.82	151.98	42.84	-46.6	-48.0	24.0	6.07e-01	0	37	0	500695040	65	4061
2026-01-19 11:22:35.83	151.96	43.18	-46.4	-47.7	24.2	6.06e-01	0	37	0	502792192	64	4193
2026-01-19 11:22:36.84	151.95	43.53	-46.4	-47.8	24.2	6.05e-01	0	37	0	504889344	64	4218
2026-01-19 11:22:37.84	151.93	43.87	-46.2	-47.6	24.4	6.06e-01	0	37	0	506462208	64	4117
2026-01-19 11:22:38.85	151.91	44.22	-46.0	-47.3	24.8	6.04e-01	0	38	0	508559360	63	4226
2026-01-19 11:22:39.86	151.89	44.58	-45.8	-47.1	25.0	6.07e-01	0	37	0	510656512	63	4103
2026-01-19 11:22:40.87	151.87	44.94	-46.0	-47.3	24.7	6.04e-01	0	37	0	512229376	63	4238
2026-01-19 11:22:41.88	151.85	45.30	-45.9	-47.2	24.8	6.06e-01	0	38	0	514326528	63	4169
2026-01-19 11:22:42.89	151.82	45.66	-46.0	-47.3	24.8	6.04e-01	0	37	0	515899392	63	4210
2026-01-19 11:22:43.89	151.80	46.03	-45.6	-46.9	25.2	6.06e-01	0	37	0	517996544	63	4005
2026-01-19 11:22:44.90	151.78	46.40	-45.6	-46.8	25.2	6.06e-01	0	37	0	519569408	63	3981
2026-01-19 11:22:45.91	151.76	46.77	-45.7	-47.0	25.1	6.06e-01	0	37	0	521666560	63	4071
2026-01-19 11:22:46.92	151.73	47.15	-46.1	-47.4	24.6	6.06e-01	0	37	0	523763712	63	4256
2026-01-19 11:22:47.92	151.71	47.53	-46.0	-47.4	24.8	6.08e-01	0	38	0	525336576	63	4250
2026-01-19 11:22:48.93	151.68	47.91	-45.6	-46.8	25.2	6.06e-01	0	37	0	527433728	63	3996
2026-01-19 11:22:49.94	151.66	48.30	-45.3	-46.5	25.5	6.05e-01	0	37	0	529530880	62	4098
2026-01-19 11:22:50.95	151.63	48.70	-45.4	-46.6	25.4	6.04e-01	0	37	0	531103744	62	4143
2026-01-19 11:22:51.96	151.60	49.09	-45.6	-46.9	25.1	6.05e-01	0	37	0	533200896	62	4267
2026-01-19 11:22:52.97	151.57	49.49	-45.7	-47.0	25.0	6.05e-01	0	37	0	534773760	62	4313
2026-01-19 11:22:53.97	151.55	49.89	-45.4	-46.6	25.4	6.06e-01	0	38	0	536870912	62	4117
2026-01-19 11:22:54.98	151.51	50.30	-45.4	-46.7	25.4	6.05e-01	0	37	0	538968064	62	4150
2026-01-19 11:22:55.99	151.48	50.71	-45.3	-46.5	25.5	6.06e-01	0	37	0	540540928	62	4070
2026-01-19 11:22:57.00	151.45	51.13	-44.9	-46.0	25.9	6.05e-01	0	37	0	542638080	61	4092
2026-01-19 11:22:58.01	151.42	51.55	-44.9	-46.1	25.9	6.07e-01	0	37	0	544210944	61	4141
2026-01-19 11:22:59.02	151.38	51.97	-44.6	-45.8	26.2	6.05e-01	0	37	0	546308096	61	3977
2026-01-19 11:23:00.02	151.35	52.39	-44.7	-45.9	26.1	6.06e-01	0	37	0	547880960	61	4019
2026-01-19 11:23:01.03	151.31	52.82	-44.8	-45.9	26.1	6.05e-01	0	38	0	549978112	61	4048
2026-01-19 11:23:02.04	151.27	53.26	-44.5	-45.6	26.3	6.02e-01	0	38	0	552075264	61	3895
2026-01-19 11:23:03.05	151.24	53.70	-44.5	-45.6	26.3	6.05e-01	0	38	0	554172416	60	4138
2026-01-19 11:23:04.06	151.20	54.14	-44.7	-45.9	26.1	6.04e-01	0	37	0	555745280	60	4264
2026-01-19 11:23:05.07	151.15	54.58	-45.0	-46.3	25.8	6.06e-01	0	37	0	557842432	60	4442
2026-01-19 11:23:06.08	151.11	55.03	-44.8	-46.0	25.9	6.05e-01	0	37	0	559415296	60	4317
2026-01-19 11:23:07.09	151.07	55.49	-44.9	-46.1	25.9	6.05e-01	0	38	0	561512448	60	4348
2026-01-19 11:23:08.09	151.02	55.94	-45.6	-46.8	25.3	6.05e-01	0	37	0	563085312	61	4486
2026-01-19 11:23:09.10	150.97	56.41	-45.2	-46.4	25.6	6.04e-01	0	37	0	565182464	61	4282
2026-01-19 11:23:10.11	150.92	56.87	-45.5	-46.8	25.3	6.08e-01	0	37	0	567279616	61	4453
2026-01-19 11:23:11.12	150.87	57.34	-45.5	-46.7	25.4	6.05e-01	0	37	0	568852480	61	4415
2026-01-19 11:23:12.12	150.82	57.81	-45.9	-47.1	25.0	6.06e-01	0	37	0	570949632	62	4379
2026-01-19 11:23:13.13	150.76	58.29	-46.2	-47.5	24.7	6.06e-01	0	37	0	573046784	63	4308
2026-01-19 11:23:14.14	150.70	58.77	-46.3	-47.6	24.6	6.04e-01	0	37	0	574619648	63	4364
2026-01-19 11:23:15.15	150.64	59.26	-45.9	-47.2	24.9	6.05e-01	0	38	0	576716800	63	4157
2026-01-19 11:23:16.16	150.58	59.75	-46.4	-47.7	24.5	6.06e-01	0	37	0	578289664	63	4426
2026-01-19 11:23:17.16	150.52	60.24	-46.4	-47.8	24.4	6.05e-01	0	38	0	580386816	63	4465
2026-01-19 11:23:18.17	150.45	60.74	-46.6	-48.0	24.2	6.07e-01	0	38	0	582483968	63	4579
2026-01-19 11:23:19.18	150.38	61.24	-46.7	-48.1	24.1	6.06e-01	0	38	0	584056832	63	4605
2026-01-19 11:23:20.19	150.30	61.75	-47.0	-48.4	23.7	6.08e-01	0	38	0	586153984	64	4530
2026-01-19 11:23:21.20	150.22	62.26	-47.1	-48.5	23.6	6.06e-01	0	37	0	587726848	64	4587
2026-01-19 11:23:22.21	150.14	62.77	-47.3	-48.8	23.4	6.07e-01	0	37	0	589824000	65	4476
2026-01-19 11:23:23.21	150.06	63.28	-47.6	-49.2	23.0	6.07e-01	0	37	0	591396864	65	4675
2026-01-19 11:23:24.22	149.97	63.81	-47.8	-49.4	22.8	6.06e-01	0	38	0	593494016	66	4532
2026-01-19 11:23:25.23	149.88	64.33	-48.1	-49.8	22.4	6.05e-01	0	38	0	595591168	66	4727
2026-01-19 11:23:26.24	149.78	64.86	-48.4	-50.2	22.1	6.06e-01	0	37	0	597688320	67	4659
2026-01-19 11:23:27.25	149.68	65.39	-48.7	-50.5	21.7	6.07e-01	0	37	0	599261184	68	4552
2026-01-19 11:23:28.25	149.57	65.93	-48.6	-50.4	21.8	6.05e-01	0	37	0	601358336	68	4505
2026-01-19 11:23:29.26	149.46	66.47	-49.0	-50.9	21.3	6.07e-01	0	37	0	602931200	68	4764
2026-01-19 11:23:30.27	149.34	67.01	-49.5	-51.5	20.7	6.03e-01	0	37	0	605028352	69	4841
2026-01-19 11:23:31.28	149.22	67.56	-49.1	-50.9	21.3	6.08e-01	0	37	0	606601216	69	4541
2026-01-19 11:23:32.29	149.08	68.11	-49.2	-51.2	21.1	6.06e-01	0	37	0	608698368	69	4662
2026-01-19 11:23:33.29	148.94	68.66	-49.7	-51.9	20.4	6.07e-01	0	37	0	610795520	70	4772
2026-01-19 11:23:34.30	148.79	69.22	-49.8	-52.0	20.2	6.07e-01	0	38	0	612368384	70	4839
2026-01-19 11:23:35.31	148.64	69.78	-49.3	-51.3	21.0	6.06e-01	0	38	0	614465536	70	4448
2026-01-19 11:23:36.32	148.47	70.34	-49.9	-52.0	20.2	6.08e-01	0	37	0	616038400	70	4869
2026-01-19 11:23:37.33	148.29	70.91	-49.7	-51.8	20.4	6.05e-01	0	37	0	618135552	70	4719
2026-01-19 11:23:38.33	148.10	71.48	-49.0	-50.9	21.3	6.07e-01	0	38	0	620232704	70	4271
2026-01-19 11:23:39.34	147.90	72.05	-49.2	-51.1	21.1	6.08e-01	0	37	0	621805568	70	4370
2026-01-19 11:23:40.35	147.68	72.63	-49.2	-51.1	21.1	6.08e-01	0	37	0	623902720	70	4377
2026-01-19 11:23:41.36	147.44	73.21	-48.9	-50.7	21.5	6.06e-01	0	38	0	625999872	69	4417
2026-01-19 11:23:42.37	147.19	73.79	-48.5	-50.2	22.0	6.06e-01	0	37	0	627572736	68	4422
2026-01-19 11:23:43.37	146.92	74.37	-49.0	-50.8	21.3	6.04e-01	0	37	0	629669888	69	4493
2026-01-19 11:23:44.38	146.63	74.95	-48.4	-50.1	22.1	6.08e-01	0	37	0	631242752	68	4347
2026-01-19 11:23:45.39	146.30	75.54	-48.5	-50.2	22.0	6.06e-01	0	38	0	633339904	68	4440
2026-01-19 11:23:46.40	145.96	76.14	-48.5	-50.2	21.9	6.04e-01	0	37	0	634912768	68	4430
2026-01-19 11:23:47.41	145.57	76.73	-48.6	-50.4	21.8	6.05e-01	0	37	0	637009920	68	4512
2026-01-19 11:23:48.41	145.16	77.32	-48.3	-50.0	22.3	6.05e-01	0	38	0	639107072	68	4296
2026-01-19 11:23:49.42	144.70	77.92	-48.0	-49.6	22.6	6.07e-01	0	37	0	640679936	67	4383
2026-01-19 11:23:50.43	144.19	78.52	-47.5	-49.1	23.1	6.06e-01	0	37	0	642777088	67	4102
2026-01-19 11:23:51.44	143.62	79.12	-47.2	-48.7	23.6	6.08e-01	0	38	0	644874240	66	4152
2026-01-19 11:23:52.45	142.98	79.72	-47.0	-48.4	23.8	6.07e-01	0	38	0	646447104	66	4026
2026-01-19 11:23:53.45	142.27	80.31	-46.5	-47.9	24.3	6.06e-01	0	37	0	648544256	65	4024
2026-01-19 11:23:54.46	141.45	80.91	-46.7	-48.0	24.2	6.07e-01	0	37	0	650117120	64	4338
2026-01-19 11:23:55.47	140.52	81.51	-46.1	-47.4	24.7	6.06e-01	0	37	0	652214272	64	4027
2026-01-19 11:23:56.48	139.44	82.11	-46.4	-47.7	24.5	6.05e-01	0	37	0	653787136	64	4185
2026-01-19 11:23:57.49	138.18	82.71	-46.2	-47.5	24.7	6.05e-01	0	38	0	655884288	64	4088
2026-01-19 11:23:58.50	136.70	83.31	-46.2	-47.5	24.7	6.05e-01	0	38	0	657981440	64	4078
2026-01-19 11:23:59.50	134.94	83.89	-46.6	-48.0	24.2	6.06e-01	0	37	0	659554304	64	4320
2026-01-19 11:24:00.51	132.78	84.48	-46.5	-47.8	24.4	6.06e-01	0	37	0	661651456	64	4232
2026-01-19 11:24:01.52	130.12	85.05	-46.3	-47.6	24.6	6.03e-01	0	37	0	663224320	64	4122
2026-01-19 11:24:02.53	126.75	85.62	-46.1	-47.4	24.8	6.03e-01	0	37	0	665321472	64	4038
2026-01-19 11:24:03.53	122.46	86.16	-45.9	-47.2	25.0	6.04e-01	0	37	0	667418624	63	4158
2026-01-19 11:24:04.54	116.73	86.67	-45.9	-47.2	25.0	6.04e-01	0	37	0	668991488	63	4175
2026-01-19 11:24:05.55	109.01	87.15	-45.9	-47.2	25.0	6.04e-01	0	38	0	671088640	63	4157
2026-01-19 11:24:06.56	98.50	87.55	-45.2	-46.4	25.7	6.03e-01	0	38	0	673185792	62	4023
2026-01-19 11:24:07.56	84.73	87.84	-45.2	-46.5	25.8	6.02e-01	0	37	0	674758656	62	4054
2026-01-19 11:24:08.57	67.86	87.97	-44.8	-45.9	26.2	6.04e-01	0	37	0	676855808	61	4039
2026-01-19 11:24:09.58	50.38	87.91	-44.9	-46.0	26.1	6.04e-01	0	37	0	678428672	61	4091
2026-01-19 11:24:10.59	35.14	87.68	-45.1	-46.2	25.9	6.03e-01	0	38	0	680525824	62	3956
2026-01-19 11:24:11.60	23.34	87.31	-45.5	-46.7	25.5	6.02e-01	0	37	0	682622976	62	4188
2026-01-19 11:24:12.60	14.71	86.87	-45.6	-46.9	25.4	6.04e-01	0	37	0	684195840	62	4259
2026-01-19 11:24:13.61	8.27	86.37	-46.5	-47.8	24.6	6.04e-01	0	38	0	686292992	63	4491
2026-01-19 11:24:14.62	3.44	85.83	-46.1	-47.4	24.8	6.05e-01	0	38	0	687865856	64	4034
2026-01-19 11:24:15.63	359.74	85.28	-46.5	-47.8	24.5	6.04e-01	0	37	0	689963008	64	4220
2026-01-19 11:24:16.63	356.85	84.71	-47.0	-48.4	23.8	6.04e-01	0	37	0	692060160	65	4273
2026-01-19 11:24:17.64	354.51	84.13	-46.1	-47.4	24.8	6.02e-01	0	37	0	693633024	64	4017
2026-01-19 11:24:18.65	352.60	83.54	-46.6	-48.0	24.3	6.05e-01	0	37	0	695730176	64	4335
2026-01-19 11:24:19.66	351.01	82.95	-46.2	-47.5	24.7	6.04e-01	0	37	0	697303040	64	4081
2026-01-19 11:24:20.67	349.67	82.35	-46.0	-47.3	24.9	6.02e-01	0	38	0	699400192	63	4202
2026-01-19 11:24:21.67	348.53	81.76	-46.1	-47.4	25.0	6.04e-01	0	37	0	701497344	63	4259
2026-01-19 11:24:22.68	347.55	81.16	-46.5	-47.9	24.0	6.03e-01	0	38	0	703070208	64	4265
2026-01-19 11:24:23.69	346.69	80.56	-46.1	-47.3	24.9	6.02e-01	0	37	0	705167360	64	3996
2026-01-19 11:24:24.70	345.93	79.95	-47.0	-48.5	23.9	6.03e-01	0	38	0	706740224	64	4551
2026-01-19 11:24:25.71	345.26	79.35	-47.5	-49.0	23.4	6.02e-01	0	37	0	708837376	65	4559
2026-01-19 11:24:26.71	344.67	78.76	-47.4	-48.8	23.4	6.03e-01	0	37	0	710934528	65	4483
2026-01-19 11:24:27.72	344.14	78.16	-47.6	-49.0	23.4	6.04e-01	0	37	0	712507392	65	4592
2026-01-19 11:24:28.73	343.66	77.56	-48.6	-50.3	22.0	6.02e-01	0	38	0	714604544	67	4752
2026-01-19 11:24:29.74	343.23	76.97	-49.0	-50.9	21.6	6.05e-01	0	37	0	716701696	68	4786
2026-01-19 11:24:30.74	342.83	76.38	-48.8	-50.6	21.8	6.03e-01	0	38	0	718274560	68	4625
2026-01-19 11:24:31.75	342.47	75.79	-49.2	-51.1	21.5	6.03e-01	0	37	0	720371712	69	4601
2026-01-19 11:24:32.76	342.14	75.20	-49.6	-51.6	20.7	6.04e-01	0	37	0	721944576	69	4918
2026-01-19 11:24:33.77	341.84	74.61	-48.8	-50.5	21.9	6.04e-01	0	37	0	724041728	69	4340
2026-01-19 11:24:34.78	341.55	74.03	-48.5	-50.2	22.2	6.05e-01	0	38	0	725614592	69	4172
2026-01-19 11:24:35.79	341.29	73.44	-49.1	-50.9	21.5	6.03e-01	0	37	0	727711744	69	4537
2026-01-19 11:24:36.79	341.05	72.87	-48.3	-50.0	22.4	6.05e-01	0	37	0	729808896	68	4298
2026-01-19 11:24:37.80	340.83	72.29	-48.7	-50.5	22.0	6.05e-01	0	37	0	731381760	68	4571
2026-01-19 11:24:38.81	340.62	71.72	-48.9	-50.7	21.7	6.02e-01	0	37	0	733478912	68	4692
2026-01-19 11:24:39.81	340.43	71.15	-49.1	-50.9	21.5	6.05e-01	0	38	0	735051776	68	4801
2026-01-19 11:24:40.82	340.24	70.58	-49.8	-51.9	20.6	6.05e-01	0	37	0	737148928	70	4789
2026-01-19 11:24:41.83	340.07	70.02	-49.5	-51.4	21.1	6.05e-01	0	37	0	739246080	70	4513
2026-01-19 11:24:42.84	339.91	69.46	-50.0	-52.2	20.3	6.06e-01	0	37	0	740818944	70	4942
2026-01-19 11:24:43.84	339.76	68.90	-50.2	-52.4	20.1	6.03e-01	0	38	0	742916096	70	5059
2026-01-19 11:24:44.85	339.61	68.35	-49.9	-51.9	20.5	6.04e-01	0	38	0	745013248	71	4539
2026-01-19 11:24:45.86	339.48	67.80	-49.5	-51.4	21.0	6.02e-01	0	37	0	746586112	71	4272
2026-01-19 11:24:46.87	339.35	67.25	-49.4	-51.3	21.1	6.05e-01	0	38	0	748683264	70	4468
2026-01-19 11:24:47.88	339.23	66.70	-49.4	-51.3	21.1	6.01e-01	0	38	0	750256128	70	4481
2026-01-19 11:24:48.88	339.11	66.17	-49.5	-51.5	20.9	6.04e-01	0	38	0	752353280	70	4550
2026-01-19 11:24:49.89	339.00	65.63	-48.8	-50.5	21.8	6.03e-01	0	37	0	753926144	69	4336
2026-01-19 11:24:50.90	338.90	65.10	-48.2	-49.8	22.6	6.05e-01	0	37	0	756023296	68	4226
2026-01-19 11:24:51.91	338.80	64.57	-48.3	-50.0	22.4	6.05e-01	0	37	0	758120448	68	4312
2026-01-19 11:24:52.92	338.71	64.04	-48.5	-50.2	22.2	6.03e-01	0	37	0	759693312	68	4422
2026-01-19 11:24:53.93	338.62	63.52	-47.8	-49.4	23.0	6.03e-01	0	38	0	761790464	67	4256
2026-01-19 11:24:54.93	338.53	63.01	-47.8	-49.3	23.1	6.03e-01	0	38	0	763887616	67	4209
2026-01-19 11:24:55.94	338.45	62.49	-47.0	-48.3	24.0	6.03e-01	0	37	0	765460480	66	4002
2026-01-19 11:24:56.95	338.37	61.98	-47.1	-48.5	23.9	6.02e-01	0	38	0	767557632	65	4318
2026-01-19 11:24:57.96	338.30	61.47	-47.4	-48.9	23.5	6.04e-01	0	38	0	769130496	65	4534
2026-01-19 11:24:58.97	338.22	60.97	-46.6	-47.9	24.3	6.03e-01	0	37	0	771227648	65	4030
2026-01-19 11:24:59.97	338.16	60.48	-46.2	-47.5	24.8	6.02e-01	0	37	0	773324800	64	4056
2026-01-19 11:25:00.98	338.09	59.98	-46.7	-48.1	24.3	6.04e-01	0	37	0	774897664	64	4373
2026-01-19 11:25:01.99	338.03	59.49	-46.9	-48.3	24.0	6.04e-01	0	37	0	776994816	64	4453
2026-01-19 11:25:02.99	337.96	59.01	-46.9	-48.3	24.0	6.03e-01	0	38	0	778567680	64	4474
2026-01-19 11:25:04.00	337.91	58.53	-46.9	-48.3	24.1	6.03e-01	0	37	0	780664832	64	4471
2026-01-19 11:25:05.01	337.85	58.05	-47.0	-48.4	24.0	6.02e-01	0	37	0	782237696	64	4502
2026-01-19 11:25:06.01	337.80	57.58	-46.4	-47.7	24.5	6.04e-01	0	37	0	784334848	64	4184
2026-01-19 11:25:07.02	337.74	57.11	-46.5	-47.9	24.4	6.04e-01	0	37	0	786432000	64	4256
2026-01-19 11:25:08.03	337.69	56.64	-46.2	-47.5	24.7	6.03e-01	0	37	0	788004864	64	4096
2026-01-19 11:25:09.04	337.64	56.18	-45.6	-46.8	25.5	6.04e-01	0	37	0	790102016	63	3993
2026-01-19 11:25:10.05	337.60	55.72	-45.4	-46.6	25.7	6.05e-01	0	38	0	792199168	62	4121
2026-01-19 11:25:11.06	337.55	55.26	-45.3	-46.5	25.7	6.04e-01	0	37	0	793772032	62	4073
2026-01-19 11:25:12.06	337.51	54.82	-44.6	-45.7	26.5	6.02e-01	0	37	0	795869184	61	3926
2026-01-19 11:25:13.07	337.47	54.37	-44.5	-45.6	26.6	6.02e-01	0	38	0	797442048	60	4120
2026-01-19 11:25:14.08	337.43	53.93	-44.9	-46.0	26.2	6.04e-01	0	38	0	799539200	60	4329
2026-01-19 11:25:15.09	337.39	53.49	-44.8	-46.0	26.2	6.03e-01	0	37	0	801636352	60	4305
2026-01-19 11:25:16.10	337.35	53.05	-44.8	-45.9	26.2	6.04e-01	0	37	0	803209216	60	4282
2026-01-19 11:25:17.11	337.31	52.62	-44.7	-45.8	26.3	6.05e-01	0	37	0	805306368	60	4240
2026-01-19 11:25:18.11	337.28	52.20	-44.6	-45.7	26.4	6.05e-01	0	37	0	806879232	60	4192
2026-01-19 11:25:19.12	337.24	51.77	-45.0	-46.2	26.1	6.03e-01	0	38	0	808976384	60	4402
2026-01-19 11:25:20.12	337.21	51.36	-45.4	-46.6	25.7	6.04e-01	0	38	0	810549248	61	4367
2026-01-19 11:25:21.13	337.18	50.94	-45.3	-46.5	25.7	6.03e-01	0	37	0	812646400	61	4318
2026-01-19 11:25:22.14	337.14	50.53	-45.5	-46.7	25.6	6.03e-01	0	37	0	814743552	61	4422
2026-01-19 11:25:23.15	337.11	50.12	-46.0	-47.3	25.1	6.05e-01	0	37	0	816840704	62	4452
2026-01-19 11:25:24.16	337.08	49.72	-46.4	-47.7	24.6	6.04e-01	0	37	0	818413568	63	4436
2026-01-19 11:25:25.17	337.05	49.32	-46.0	-47.3	24.9	6.02e-01	0	37	0	820510720	63	4222
2026-01-19 11:25:26.18	337.03	48.92	-45.8	-47.1	25.2	6.02e-01	0	38	0	822083584	63	4107
2026-01-19 11:25:27.18	337.00	48.53	-45.7	-47.0	25.4	6.05e-01	0	37	0	824180736	63	4052
2026-01-19 11:25:28.19	336.97	48.14	-45.8	-47.1	25.2	6.03e-01	0	38	0	825753600	63	4124
2026-01-19 11:25:29.20	336.95	47.75	-45.8	-47.1	25.2	6.05e-01	0	37	0	827850752	63	4111
2026-01-19 11:25:30.20	336.92	47.37	-45.8	-47.0	25.3	6.03e-01	0	37	0	829947904	63	4077
2026-01-19 11:25:31.21	336.90	47.00	-45.8	-47.1	25.2	6.05e-01	0	37	0	831520768	63	4106
2026-01-19 11:25:32.22	336.88	46.62	-45.9	-47.1	25.2	6.01e-01	0	38	0	833617920	63	4140
2026-01-19 11:25:33.23	336.85	46.25	-45.8	-47.0	25.2	6.04e-01	0	37	0	835190784	63	4092
2026-01-19 11:25:34.23	336.83	45.88	-45.7	-46.9	25.4	6.04e-01	0	37	0	837287936	63	4016
2026-01-19 11:25:35.24	336.81	45.52	-45.7	-46.9	25.4	6.04e-01	0	38	0	839385088	63	4034
2026-01-19 11:25:36.25	336.79	45.16	-45.8	-47.1	25.2	6.04e-01	0	37	0	840957952	63	4125
2026-01-19 11:25:37.26	336.77	44.80	-45.9	-47.1	25.2	6.05e-01	0	38	0	843055104	63	4141
2026-01-19 11:25:38.26	336.75	44.45	-45.9	-47.2	25.1	6.01e-01	0	37	0	845152256	63	4189
2026-01-19 11:25:39.27	336.73	44.10	-45.8	-47.1	25.2	6.04e-01	0	37	0	846725120	63	4124
2026-01-19 11:25:40.28	336.71	43.75	-45.8	-47.1	25.2	6.03e-01	0	37	0	848822272	63	4109
2026-01-19 11:25:41.29	336.69	43.40	-45.8	-47.0	25.2	6.04e-01	0	37	0	850395136	63	4079
2026-01-19 11:25:42.30	336.68	43.06	-45.8	-47.0	25.2	6.02e-01	0	37	0	852492288	63	4084
2026-01-19 11:25:43.30	336.66	42.73	-45.9	-47.2	25.1	6.02e-01	0	37	0	854065152	63	4174
2026-01-19 11:25:44.31	336.64	42.39	-46.0	-47.2	25.0	6.02e-01	0	38	0	856162304	63	4191
2026-01-19 11:25:45.32	336.62	42.06	-46.3	-47.6	24.6	6.03e-01	0	38	0	858259456	63	4379
2026-01-19 11:25:46.33	336.61	41.73	-46.6	-48.0	24.3	6.05e-01	0	37	0	859832320	63	4576
2026-01-19 11:25:47.33	336.59	41.41	-46.8	-48.2	24.0	6.02e-01	0	37	0	861929472	64	4422
2026-01-19 11:25:48.34	336.58	41.09	-46.8	-48.2	24.0	6.03e-01	0	37	0	864026624	64	4428
2026-01-19 11:25:49.34	336.56	40.77	-46.8	-48.3	24.0	6.04e-01	0	38	0	865599488	64	4449
2026-01-19 11:25:50.35	336.55	40.45	-46.9	-48.4	23.9	6.00e-01	0	37	0	867696640	64	4495
2026-01-19 11:25:51.36	336.53	40.14	-46.9	-48.4	23.9	6.04e-01	0	37	0	869269504	64	4499
2026-01-19 11:25:52.37	336.52	39.83	-47.0	-48.4	23.8	6.05e-01	0	37	0	871366656	64	4535
2026-01-19 11:25:53.37	336.51	39.52	-46.9	-48.3	23.9	6.04e-01	0	37	0	873463808	64	4473
2026-01-19 11:25:54.38	336.49	39.22	-46.8	-48.2	23.9	6.03e-01	0	37	0	875036672	64	4435
2026-01-19 11:25:55.39	336.48	38.91	-46.6	-48.0	24.2	6.03e-01	0	37	0	877133824	64	4301
2026-01-19 11:25:56.40	336.47	38.61	-46.7	-48.1	24.1	6.03e-01	0	37	0	878706688	64	4347
2026-01-19 11:25:57.41	336.46	38.32	-46.8	-48.2	24.0	6.04e-01	0	37	0	880803840	64	4418
2026-01-19 11:25:58.41	336.45	38.03	-46.8	-48.2	23.9	6.02e-01	0	37	0	882376704	64	4438
2026-01-19 11:25:59.42	336.43	37.73	-46.9	-48.3	23.9	6.03e-01	0	37	0	884473856	64	4472
2026-01-19 11:26:00.43	336.42	37.45	-46.9	-48.3	23.9	6.03e-01	0	38	0	886571008	64	4463
2026-01-19 11:26:01.44	336.41	37.16	-46.9	-48.3	23.9	6.07e-01	0	37	0	888668160	64	4466
2026-01-19 11:26:02.44	336.40	36.88	-46.8	-48.3	23.9	6.01e-01	0	38	0	890241024	64	4444
2026-01-19 11:26:03.45	336.39	36.60	-46.6	-48.0	24.1	6.03e-01	0	38	0	892338176	64	4326
2026-01-19 11:26:04.46	336.38	36.32	-46.1	-47.4	24.7	6.02e-01	0	37	0	893911040	64	4020
2026-01-19 11:26:05.47	336.37	36.04	-45.9	-47.1	25.0	6.03e-01	0	38	0	896008192	63	4144
2026-01-19 11:26:06.48	336.36	35.77	-45.8	-47.1	25.1	6.04e-01	0	38	0	897581056	63	4105
2026-01-19 11:26:07.49	336.35	35.50	-45.9	-47.2	25.0	6.01e-01	0	38	0	899678208	63	4165
2026-01-19 11:26:08.49	336.34	35.23	-45.9	-47.2	25.0	6.06e-01	0	37	0	901775360	63	4159
2026-01-19 11:26:09.50	336.33	34.97	-45.8	-47.1	25.2	6.02e-01	0	37	0	903348224	63	4103
2026-01-19 11:26:10.51	336.32	34.70	-45.9	-47.2	25.0	6.04e-01	0	37	0	905445376	63	4161
2026-01-19 11:26:11.52	336.32	34.44	-46.0	-47.3	24.9	6.04e-01	0	37	0	907018240	63	4208
2026-01-19 11:26:12.53	336.31	34.18	-45.7	-46.9	25.2	6.03e-01	0	37	0	909115392	63	4048
2026-01-19 11:26:13.54	336.30	33.93	-45.6	-46.8	25.3	6.04e-01	0	37	0	911212544	63	4002
2026-01-19 11:26:14.55	336.29	33.67	-45.4	-46.6	25.5	6.03e-01	0	37	0	912785408	62	4113
2026-01-19 11:26:15.55	336.28	33.42	-45.2	-46.4	25.7	6.04e-01	0	38	0	914882560	62	4031
2026-01-19 11:26:16.56	336.28	33.17	-45.0	-46.2	25.8	6.05e-01	0	37	0	916979712	62	3940
2026-01-19 11:26:17.57	336.27	32.92	-44.8	-45.9	26.1	6.03e-01	0	37	0	918552576	61	4041
2026-01-19 11:26:18.58	336.26	32.68	-44.6	-45.7	26.3	6.01e-01	0	37	0	920649728	61	3931
2026-01-19 11:26:19.58	336.25	32.44	-44.6	-45.7	26.2	6.03e-01	0	38	0	922222592	61	3936
2026-01-19 11:26:20.59	336.25	32.19	-44.7	-45.8	26.2	6.04e-01	0	37	0	924319744	61	3987
2026-01-19 11:26:21.60	336.24	31.95	-44.7	-45.8	26.2	6.03e-01	0	37	0	925892608	61	3999
2026-01-19 11:26:22.61	336.23	31.72	-44.7	-45.9	26.1	6.02e-01	0	38	0	927989760	61	4018
2026-01-19 11:26:23.62	336.23	31.48	-44.9	-46.1	25.9	6.02e-01	0	37	0	930086912	61	4109
2026-01-19 11:26:24.62	336.22	31.25	-44.9	-46.0	26.0	6.02e-01	0	37	0	931659776	61	4096
2026-01-19 11:26:25.63	336.21	31.02	-44.9	-46.1	26.0	6.04e-01	0	38	0	933756928	61	4112
2026-01-19 11:26:26.64	336.21	30.79	-45.0	-46.2	25.8	6.03e-01	0	37	0	935854080	61	4189
2026-01-19 11:26:27.65	336.20	30.56	-45.0	-46.2	25.8	6.02e-01	0	37	0	937426944	61	4184
2026-01-19 11:26:28.66	336.20	30.34	-44.9	-46.2	25.8	6.05e-01	0	37	0	939524096	61	4149
2026-01-19 11:26:29.66	336.19	30.11	-45.0	-46.2	25.7	6.03e-01	0	37	0	941096960	61	4174
2026-01-19 11:26:30.67	336.19	29.89	-44.9	-46.1	25.8	6.03e-01	0	38	0	943194112	61	4133
2026-01-19 11:26:31.68	336.18	29.67	-45.0	-46.2	25.8	6.03e-01	0	38	0	945291264	61	4161
2026-01-19 11:26:32.69	336.18	29.45	-45.0	-46.2	25.8	6.03e-01	0	38	0	946864128	61	4176
2026-01-19 11:26:33.69	336.17	29.24	-45.0	-46.2	25.8	6.01e-01	0	37	0	948961280	61	4151
2026-01-19 11:26:34.70	336.17	29.02	-45.1	-46.3	25.6	6.03e-01	0	37	0	950534144	61	4217
2026-01-19 11:26:35.71	336.16	28.81	-44.9	-46.1	25.8	6.03e-01	0	37	0	952631296	61	4119
2026-01-19 11:26:36.72	336.16	28.60	-44.9	-46.0	25.9	6.01e-01	0	37	0	954204160	61	4085
2026-01-19 11:26:37.73	336.15	28.39	-44.7	-45.9	26.0	6.04e-01	0	37	0	956301312	61	4019
2026-01-19 11:26:38.73	336.15	28.18	-44.8	-45.9	26.0	6.04e-01	0	37	0	958398464	61	4028
2026-01-19 11:26:39.74	336.14	27.98	-44.8	-46.0	25.9	6.05e-01	0	37	0	960495616	61	4064
2026-01-19 11:26:40.75	336.14	27.77	-44.9	-46.1	25.8	6.03e-01	0	37	0	962068480	61	4099
2026-01-19 11:26:41.75	336.14	27.57	-45.1	-46.3	25.7	6.03e-01	0	37	0	964165632	61	4202
2026-01-19 11:26:42.76	336.13	27.37	-45.1	-46.3	25.7	6.03e-01	0	37	0	965738496	61	4199
2026-01-19 11:26:43.77	336.13	27.17	-45.2	-46.4	25.6	6.04e-01	0	37	0	967835648	61	4265
2026-01-19 11:26:44.78	336.12	26.97	-45.3	-46.5	25.4	6.03e-01	0	37	0	969408512	61	4327
2026-01-19 11:26:45.79	336.12	26.78	-45.3	-46.6	25.4	6.02e-01	0	37	0	971505664	61	4362
2026-01-19 11:26:46.79	336.12	26.58	-45.4	-46.7	25.3	6.02e-01	0	37	0	973602816	61	4421
2026-01-19 11:26:47.80	336.11	26.39	-45.5	-46.8	25.2	6.03e-01	0	37	0	975175680	61	4444
2026-01-19 11:26:48.80	336.11	26.20	-45.5	-46.8	25.2	6.02e-01	0	38	0	977272832	61	4466
2026-01-19 11:26:49.81	336.11	26.01	-45.6	-46.8	25.1	6.01e-01	0	38	0	978845696	61	4480
2026-01-19 11:26:50.82	336.10	25.82	-45.5	-46.8	25.2	6.04e-01	0	38	0	980942848	61	4463
2026-01-19 11:26:51.83	336.10	25.63	-45.6	-46.9	25.1	6.03e-01	0	38	0	982515712	61	4502
2026-01-19 11:26:52.84	336.10	25.45	-45.7	-47.0	25.0	6.03e-01	0	38	0	984612864	61	4579
2026-01-19 11:26:53.85	336.09	25.26	-45.8	-47.1	24.9	6.03e-01	0	38	0	986710016	62	4374
2026-01-19 11:26:54.85	336.09	25.08	-45.9	-47.2	24.8	6.04e-01	0	37	0	988807168	62	4399
2026-01-19 11:26:55.86	336.09	24.90	-46.0	-47.3	24.7	6.04e-01	0	37	0	990380032	62	4462
2026-01-19 11:26:56.86	336.09	24.72	-45.9	-47.2	24.8	6.02e-01	0	38	0	992477184	62	4417
2026-01-19 11:26:57.87	336.08	24.54	-45.9	-47.2	24.8	6.00e-01	0	37	0	994050048	62	4427
2026-01-19 11:26:58.88	336.08	24.36	-45.9	-47.3	24.7	6.03e-01	0	38	0	996147200	62	4452
2026-01-19 11:26:59.88	336.08	24.18	-46.0	-47.3	24.6	6.04e-01	0	38	0	997720064	62	4483
2026-01-19 11:27:00.87	336.08	24.01	-46.0	-47.3	24.6	6.02e-01	0	38	0	999817216	62	4486
2026-01-19 11:27:01.87	336.07	23.84	-46.0	-47.3	24.6	6.03e-01	0	37	0	1001914368	62	4461
2026-01-19 11:27:02.88	336.07	23.67	-45.9	-47.2	24.7	6.04e-01	0	38	0	1003487232	62	4416
2026-01-19 11:27:03.89	336.07	23.50	-45.8	-47.1	24.8	6.06e-01	0	37	0	1005584384	62	4391
2026-01-19 11:27:04.90	336.07	23.32	-45.8	-47.2	24.7	6.03e-01	0	37	0	1007157248	62	4392
2026-01-19 11:27:05.91	336.07	23.16	-45.8	-47.1	24.8	6.03e-01	0	37	0	1009254400	62	4383
2026-01-19 11:27:06.91	336.06	22.99	-45.8	-47.1	24.8	6.03e-01	0	37	0	1010827264	62	4366
2026-01-19 11:27:07.92	336.06	22.82	-45.9	-47.2	24.7	6.05e-01	0	37	0	1012924416	62	4415
2026-01-19 11:27:08.93	336.06	22.66	-45.8	-47.2	24.7	6.04e-01	0	37	0	1015021568	62	4395
2026-01-19 11:27:09.94	336.06	22.49	-45.7	-47.0	24.9	6.04e-01	0	37	0	1017118720	62	4309
2026-01-19 11:27:10.95	336.06	22.33	-45.7	-47.0	24.8	6.03e-01	0	37	0	1018691584	62	4311
2026-01-19 11:27:11.95	336.05	22.17	-45.8	-47.1	24.8	6.04e-01	0	38	0	1020788736	62	4350
2026-01-19 11:27:12.96	336.05	22.01	-45.6	-46.9	25.0	6.03e-01	0	37	0	1022361600	62	4271
2026-01-19 11:27:13.97	336.05	21.85	-45.6	-46.9	24.9	6.02e-01	0	37	0	1024458752	62	4275
2026-01-19 11:27:14.97	336.05	21.69	-45.7	-47.0	24.8	6.04e-01	0	37	0	1026031616	62	4332
2026-01-19 11:27:15.98	336.05	21.53	-45.7	-47.0	24.9	6.00e-01	0	37	0	1028128768	62	4316
2026-01-19 11:27:16.99	336.05	21.37	-45.7	-46.9	24.9	6.04e-01	0	37	0	1030225920	62	4288
2026-01-19 11:27:18.00	336.05	21.22	-45.6	-46.9	25.0	6.02e-01	0	37	0	1031798784	62	4277
2026-01-19 11:27:19.01	336.05	21.06	-45.6	-46.9	24.9	6.03e-01	0	37	0	1033895936	62	4272
2026-01-19 11:27:20.01	336.04	20.91	-45.6	-46.9	25.0	6.04e-01	0	38	0	1035468800	62	4254
2026-01-19 11:27:21.02	336.04	20.76	-45.7	-46.9	24.9	6.02e-01	0	37	0	1037565952	62	4290
2026-01-19 11:27:22.03	336.04	20.61	-45.6	-46.9	25.0	6.05e-01	0	37	0	1039138816	62	4245
2026-01-19 11:27:23.04	336.04	20.45	-45.6	-46.9	24.9	6.00e-01	0	37	0	1041235968	62	4280
2026-01-19 11:27:24.04	336.04	20.31	-45.7	-47.0	24.8	6.03e-01	0	37	0	1043333120	62	4334
2026-01-19 11:27:25.05	336.04	20.16	-45.6	-46.9	25.0	6.02e-01	0	38	0	1045430272	62	4262
2026-01-19 11:27:26.06	336.04	20.01	-45.7	-47.0	24.9	6.06e-01	0	37	0	1047003136	62	4316
2026-01-19 11:27:27.07	336.04	19.86	-45.6	-46.9	25.0	6.04e-01	0	37	0	1049100288	62	4267
2026-01-19 11:27:28.07	336.04	19.72	-45.6	-46.9	24.9	6.03e-01	0	37	0	1050673152	62	4251
2026-01-19 11:27:29.08	336.04	19.57	-45.6	-46.9	24.9	6.02e-01	0	37	0	1052770304	62	4274
2026-01-19 11:27:30.09	336.04	19.43	-45.6	-46.9	25.0	6.04e-01	0	37	0	1054343168	62	4254
2026-01-19 11:27:31.10	336.03	19.29	-45.6	-46.9	25.0	6.01e-01	0	38	0	1056440320	62	4245
2026-01-19 11:27:32.11	336.03	19.14	-45.6	-46.9	24.9	6.03e-01	0	38	0	1058537472	62	4268
2026-01-19 11:27:33.11	336.03	19.00	-45.5	-46.8	25.0	6.04e-01	0	37	0	1060110336	62	4229
2026-01-19 11:27:34.12	336.03	18.86	-45.6	-46.8	24.9	6.04e-01	0	37	0	1062207488	62	4242
2026-01-19 11:27:35.13	336.03	18.72	-45.6	-46.9	24.9	6.03e-01	0	37	0	1063780352	62	4285
2026-01-19 11:27:36.14	336.03	18.58	-45.6	-46.9	24.9	6.05e-01	0	37	0	1065877504	62	4259
2026-01-19 11:27:37.14	336.03	18.45	-45.6	-46.9	24.9	6.04e-01	0	37	0	1067974656	62	4259
2026-01-19 11:27:38.15	336.03	18.31	-45.7	-47.0	24.8	6.02e-01	0	37	0	1069547520	62	4302
2026-01-19 11:27:39.16	336.03	18.17	-45.7	-47.0	24.8	6.02e-01	0	37	0	1071644672	62	4292
2026-01-19 11:27:40.17	336.03	18.04	-45.6	-46.9	24.9	6.03e-01	0	37	0	1073741824	62	4254
2026-01-19 11:27:41.18	336.03	17.90	-45.7	-47.1	24.7	6.05e-01	0	38	0	1075314688	62	4341
2026-01-19 11:27:42.18	336.03	17.77	-45.7	-47.0	24.8	6.05e-01	0	37	0	1077411840	62	4324
2026-01-19 11:27:43.19	336.03	17.64	-45.7	-47.0	24.8	6.03e-01	0	38	0	1078984704	62	4316
2026-01-19 11:27:44.20	336.03	17.51	-45.7	-47.1	24.7	6.04e-01	0	38	0	1081081856	62	4342
2026-01-19 11:27:45.21	336.03	17.37	-45.6	-46.9	24.8	6.04e-01	0	37	0	1082654720	62	4283
2026-01-19 11:27:46.22	336.03	17.24	-45.6	-46.9	24.8	6.04e-01	0	38	0	1084751872	62	4280
2026-01-19 11:27:47.23	336.03	17.11	-45.6	-46.9	24.9	6.03e-01	0	37	0	1086849024	62	4260
2026-01-19 11:27:48.23	336.03	16.99	-45.7	-47.0	24.8	6.05e-01	0	37	0	1088421888	62	4301
2026-01-19 11:27:49.24	336.03	16.86	-45.7	-47.0	24.7	6.03e-01	0	37	0	1090519040	62	4312
2026-01-19 11:27:50.25	336.03	16.73	-45.7	-47.0	24.2	6.01e-01	0	37	0	1092616192	62	4305
2026-01-19 11:27:51.26	336.03	16.60	-45.8	-47.1	24.6	6.04e-01	0	37	0	1094189056	62	4353
2026-01-19 11:27:52.27	336.03	16.48	-45.6	-46.9	24.8	6.03e-01	0	37	0	1096286208	62	4272
2026-01-19 11:27:53.27	336.03	16.35	-45.7	-47.0	24.7	6.06e-01	0	37	0	1097859072	62	4327
2026-01-19 11:27:54.28	336.03	16.23	-45.6	-46.9	24.8	6.04e-01	0	38	0	1099956224	62	4273
2026-01-19 11:27:55.29	336.03	16.10	-45.6	-46.9	24.8	6.05e-01	0	37	0	1102053376	62	4273
2026-01-19 11:27:56.30	336.03	15.98	-45.5	-46.8	24.9	6.04e-01	0	37	0	1103626240	62	4205
2026-01-19 11:27:57.31	336.03	15.86	-45.6	-46.9	24.7	6.03e-01	0	37	0	1105723392	62	4264
2026-01-19 11:27:58.32	336.04	15.74	-45.6	-46.9	24.8	6.04e-01	0	37	0	1107296256	62	4258
2026-01-19 11:27:59.32	336.04	15.62	-45.5	-46.8	24.8	6.03e-01	0	37	0	1109393408	62	4221
2026-01-19 11:28:00.33	336.04	15.49	-45.5	-46.8	24.8	6.01e-01	0	37	0	1110966272	62	4236
2026-01-19 11:28:01.34	336.04	15.37	-45.6	-46.9	24.7	6.03e-01	0	37	0	1113063424	62	4275
2026-01-19 11:28:02.34	336.04	15.26	-45.7	-47.0	24.7	6.03e-01	0	37	0	1115160576	62	4305
2026-01-19 11:28:03.36	336.04	15.14	-45.5	-46.8	24.8	6.05e-01	0	37	0	1116733440	62	4224
2026-01-19 11:28:04.36	336.04	15.02	-45.5	-46.8	24.8	6.02e-01	0	37	0	1118830592	62	4210
2026-01-19 11:28:05.36	336.04	14.90	-45.4	-46.7	24.7	6.04e-01	0	37	0	1120927744	62	4183
2026-01-19 11:28:06.37	336.04	14.79	-45.5	-46.8	23.0	6.05e-01	0	38	0	1122500608	62	4220
2026-01-19 11:28:07.38	336.04	14.67	-45.6	-46.9	24.7	6.02e-01	0	38	0	1124597760	62	4255
2026-01-19 11:28:08.39	336.04	14.55	-45.4	-46.7	24.9	6.03e-01	0	37	0	1126170624	62	4184
2026-01-19 11:28:09.40	336.04	14.44	-45.4	-46.7	24.9	6.03e-01	0	37	0	1128267776	62	4165
2026-01-19 11:28:10.41	336.04	14.33	-45.5	-46.8	24.7	6.04e-01	0	37	0	1130364928	62	4234
2026-01-19 11:28:11.41	336.04	14.21	-45.5	-46.8	24.8	6.02e-01	0	37	0	1131937792	62	4199
2026-01-19 11:28:12.42	336.05	14.10	-45.5	-46.8	24.8	6.05e-01	0	37	0	1134034944	62	4209
2026-01-19 11:28:13.43	336.05	13.99	-45.5	-46.8	24.9	6.04e-01	0	37	0	1135607808	62	4201
2026-01-19 11:28:14.44	336.05	13.87	-45.4	-46.7	24.9	6.05e-01	0	37	0	1137704960	62	4170
2026-01-19 11:28:15.45	336.05	13.76	-45.5	-46.8	24.8	6.03e-01	0	37	0	1139802112	62	4210
2026-01-19 11:28:16.46	336.05	13.65	-45.4	-46.7	24.9	6.04e-01	0	37	0	1141374976	62	4169
2026-01-19 11:28:17.46	336.05	13.54	-45.5	-46.8	24.8	6.04e-01	0	37	0	1143472128	62	4218
2026-01-19 11:28:18.47	336.05	13.43	-45.6	-46.9	24.7	6.03e-01	0	37	0	1145044992	62	4282
2026-01-19 11:28:19.48	336.05	13.32	-45.5	-46.8	24.8	6.04e-01	0	37	0	1147142144	62	4237
2026-01-19 11:28:20.49	336.05	13.21	-45.4	-46.7	24.9	6.04e-01	0	37	0	1149239296	62	4180
2026-01-19 11:28:21.49	336.05	13.11	-45.5	-46.8	24.7	6.02e-01	0	37	0	1150812160	62	4242
2026-01-19 11:28:22.50	336.06	13.00	-45.5	-46.8	24.7	6.04e-01	0	37	0	1152909312	62	4209
2026-01-19 11:28:23.51	336.06	12.89	-45.5	-46.8	24.7	6.04e-01	0	37	0	1154482176	62	4241
2026-01-19 11:28:24.52	336.06	12.79	-45.4	-46.7	24.8	6.03e-01	0	37	0	1156579328	62	4172
2026-01-19 11:28:25.53	336.06	12.68	-45.5	-46.8	24.8	6.03e-01	0	37	0	1158676480	62	4195
2026-01-19 11:28:26.53	336.06	12.58	-45.5	-46.9	24.7	6.04e-01	0	37	0	1160249344	62	4247
2026-01-19 11:28:27.54	336.06	12.47	-45.5	-46.8	24.7	6.03e-01	0	37	0	1162346496	62	4225
2026-01-19 11:28:28.55	336.06	12.37	-45.5	-46.9	24.7	6.03e-01	0	37	0	1164443648	62	4248
2026-01-19 11:28:29.55	336.06	12.26	-45.6	-47.0	24.6	6.03e-01	0	37	0	1166016512	62	4300
2026-01-19 11:28:30.56	336.07	12.16	-45.6	-46.9	24.5	6.04e-01	0	37	0	1168113664	62	4273
2026-01-19 11:28:31.57	336.07	12.06	-45.5	-46.8	24.7	6.04e-01	0	37	0	1169686528	62	4216
2026-01-19 11:28:32.58	336.07	11.95	-45.5	-46.8	24.7	6.03e-01	0	37	0	1171783680	62	4205
2026-01-19 11:28:33.58	336.07	11.85	-45.6	-46.9	24.6	6.04e-01	0	37	0	1173356544	62	4262
2026-01-19 11:28:34.59	336.07	11.75	-45.7	-47.0	24.5	6.05e-01	0	37	0	1175453696	62	4307
2026-01-19 11:28:35.60	336.07	11.65	-45.8	-47.1	24.4	6.04e-01	0	37	0	1177550848	62	4377
2026-01-19 11:28:36.61	336.07	11.55	-45.7	-47.0	24.4	6.04e-01	0	37	0	1179123712	62	4337
2026-01-19 11:28:37.61	336.08	11.45	-45.7	-47.1	24.4	6.05e-01	0	37	0	1181220864	62	4358
2026-01-19 11:28:38.62	336.08	11.35	-45.7	-47.0	24.4	6.03e-01	0	38	0	1182793728	62	4328
2026-01-19 11:28:39.63	336.08	11.25	-45.6	-46.9	24.6	6.03e-01	0	37	0	1184890880	62	4256
2026-01-19 11:28:40.64	336.08	11.15	-45.7	-47.0	24.5	6.03e-01	0	37	0	1186988032	62	4312
2026-01-19 11:28:41.65	336.08	11.05	-45.6	-46.9	24.5	6.05e-01	0	37	0	1188560896	62	4282
2026-01-19 11:28:42.65	336.08	10.95	-45.7	-47.1	24.4	6.01e-01	0	38	0	1190658048	62	4350
2026-01-19 11:28:43.66	336.09	10.86	-45.7	-47.0	24.4	6.02e-01	0	37	0	1192755200	62	4325
2026-01-19 11:28:44.67	336.09	10.76	-45.8	-47.1	24.3	6.03e-01	0	38	0	1194328064	62	4386
2026-01-19 11:28:45.68	336.09	10.66	-45.8	-47.1	24.3	6.05e-01	0	37	0	1196425216	62	4378
2026-01-19 11:28:46.69	336.09	10.57	-45.8	-47.2	24.3	6.03e-01	0	37	0	1197998080	62	4401
2026-01-19 11:28:47.69	336.09	10.47	-45.9	-47.3	24.2	6.03e-01	0	37	0	1200095232	62	4464
2026-01-19 11:28:48.70	336.09	10.38	-45.8	-47.2	24.2	6.05e-01	0	37	0	1201668096	62	4408
2026-01-19 11:28:49.71	336.10	10.28	-45.7	-47.1	24.3	6.02e-01	0	38	0	1203765248	62	4363
2026-01-19 11:28:50.72	336.10	10.19	-45.8	-47.2	24.2	6.03e-01	0	37	0	1205862400	62	4409
2026-01-19 11:28:51.73	336.10	10.09	-45.9	-47.3	24.1	6.03e-01	0	37	0	1207435264	62	4459
2026-01-19 11:28:52.74	336.10	10.00	-45.8	-47.2	24.2	6.06e-01	0	37	0	1209532416	62	4416
2026-01-19 11:28:53.75	336.10	9.90	-45.9	-47.3	24.1	6.03e-01	0	37	0	1211629568	62	4442
2026-01-19 11:28:54.75	336.10	9.81	-45.9	-47.3	24.1	6.04e-01	0	38	0	1213202432	62	4471
2026-01-19 11:28:55.76	336.11	9.72	-45.9	-47.3	24.1	6.03e-01	0	37	0	1215299584	62	4467
2026-01-19 11:28:56.77	336.11	9.63	-45.9	-47.3	24.2	6.04e-01	0	38	0	1216872448	62	4442
2026-01-19 11:28:57.78	336.11	9.54	-45.9	-47.3	24.1	6.06e-01	0	37	0	1218969600	62	4483
2026-01-19 11:28:58.79	336.11	9.44	-46.0	-47.4	24.0	6.02e-01	0	37	0	1221066752	62	4534
2026-01-19 11:28:59.79	336.11	9.35	-46.0	-47.4	23.9	6.03e-01	0	37	0	1222639616	62	4543
2026-01-19 11:29:00.79	336.12	9.26	-46.1	-47.5	23.9	6.02e-01	0	38	0	1224736768	62	4569
2026-01-19 11:29:01.80	336.12	9.17	-46.1	-47.5	23.9	6.04e-01	0	37	0	1226309632	62	4555
2026-01-19 11:29:02.81	336.12	9.08	-46.1	-47.5	23.9	6.02e-01	0	37	0	1228406784	62	4555
2026-01-19 11:29:03.82	336.12	8.99	-46.0	-47.4	23.9	6.04e-01	0	38	0	1229979648	62	4544
2026-01-19 11:29:04.83	336.12	8.90	-46.0	-47.4	23.9	6.04e-01	0	38	0	1232076800	62	4520
2026-01-19 11:29:05.84	336.13	8.81	-46.1	-47.5	23.8	6.02e-01	0	37	0	1234173952	62	4592
2026-01-19 11:29:06.85	336.13	8.73	-46.1	-47.5	23.8	6.04e-01	0	37	0	1236271104	62	4593
2026-01-19 11:29:07.85	336.13	8.64	-46.2	-47.6	23.7	6.04e-01	0	37	0	1237843968	62	4618
2026-01-19 11:29:08.86	336.13	8.55	-46.2	-47.6	23.7	6.04e-01	0	37	0	1239941120	63	4366
2026-01-19 11:29:09.87	336.13	8.46	-46.3	-47.7	23.6	6.04e-01	0	37	0	1241513984	63	4424
2026-01-19 11:29:10.88	336.14	8.37	-46.2	-47.7	23.7	6.04e-01	0	37	0	1243611136	63	4410
2026-01-19 11:29:11.89	336.14	8.29	-46.3	-47.8	23.5	6.03e-01	0	37	0	1245184000	63	4472
2026-01-19 11:29:12.89	336.14	8.20	-46.2	-47.6	23.7	6.04e-01	0	37	0	1247281152	63	4379
2026-01-19 11:29:13.90	336.14	8.12	-46.3	-47.7	23.6	6.05e-01	0	38	0	1249378304	63	4425
2026-01-19 11:29:14.91	336.14	8.03	-46.3	-47.8	23.5	6.01e-01	0	38	0	1250951168	63	4464
