passes_logs/2026/01/19/R3.2S_Murmansk/R3.2S_Murmansk__20260119_001654_NOAA_20_JPSS-1_rec.log

#Pass ID: 20260119_001654_NOAA 20 (JPSS-1)
#Satellite: NOAA 20 (JPSS-1)
#Configuration: NOAA 20
#almurnet v.1.7.20251203
#Start time: 2026-01-19 00:16:55

#Version: 2.2.20231116
#Station: R3.2S_Murmansk
#Location: 33.079688 lon 68.888172 lat
#TLE: 1 43013U 17073A   26018.57232797  .00000065  00000+0  51758-4 0  9998
#TLE: 2 43013  98.7640 319.4740 0001368  34.2083 325.9181 14.19536753423241

#Time	Az	El	Level	Level2	SNR	BER	BlckErr	Temp	State	Recorded	gain1	gain2
2026-01-19 00:16:55.64	23.09	2.04	-51.8	-66.7	3.8	1.49e+00	0	35	0	0	74	21005
2026-01-19 00:16:56.64	23.10	2.11	-51.8	-66.5	3.8	1.49e+00	0	35	104	0	74	20504
2026-01-19 00:16:57.65	23.12	2.17	-51.8	-66.3	3.8	1.49e+00	0	35	104	0	74	19928
2026-01-19 00:16:58.66	23.13	2.24	-51.8	-66.0	3.8	1.49e+00	0	35	104	0	74	19273
2026-01-19 00:16:59.67	23.15	2.30	-51.8	-65.9	3.8	1.49e+00	0	35	104	0	74	18984
2026-01-19 00:17:00.67	23.16	2.36	-51.8	-65.5	3.8	1.49e+00	0	35	104	0	74	18101
2026-01-19 00:17:01.68	23.18	2.43	-51.8	-65.6	3.8	1.49e+00	0	35	104	0	74	18483
2026-01-19 00:17:02.69	23.19	2.49	-51.7	-65.3	3.8	1.49e+00	0	35	104	0	74	17802
2026-01-19 00:17:03.70	23.21	2.56	-51.8	-65.3	3.8	1.49e+00	0	35	104	0	74	17887
2026-01-19 00:17:04.71	23.22	2.62	-51.7	-65.1	3.9	1.49e+00	0	35	104	0	74	17399
2026-01-19 00:17:05.72	23.24	2.69	-51.7	-64.7	3.8	1.49e+00	0	35	104	0	74	16669
2026-01-19 00:17:06.73	23.25	2.76	-51.7	-64.7	3.8	1.49e+00	0	35	104	0	73	17602
2026-01-19 00:17:07.73	23.27	2.82	-51.7	-63.9	4.0	1.47e+00	0	35	104	0	73	16080
2026-01-19 00:17:08.74	23.28	2.89	-51.6	-63.5	4.1	1.47e+00	0	35	104	0	73	15251
2026-01-19 00:17:09.75	23.30	2.95	-51.6	-62.8	4.3	1.37e+00	79	35	0	0	73	14058
2026-01-19 00:17:10.76	23.31	3.02	-51.5	-61.9	4.7	1.03e+00	0	35	0	1048576	73	12679
2026-01-19 00:17:11.77	23.33	3.09	-51.4	-60.8	5.2	6.53e-01	0	35	0	3145728	73	11284
2026-01-19 00:17:12.77	23.35	3.15	-51.2	-59.6	6.1	4.21e-01	0	35	0	5242880	73	9787
2026-01-19 00:17:13.78	23.36	3.22	-51.0	-58.5	7.0	2.07e-01	0	35	0	7340032	73	8621
2026-01-19 00:17:14.79	23.38	3.29	-50.7	-57.1	8.4	4.56e-02	0	35	0	8388608	72	7753
2026-01-19 00:17:15.80	23.39	3.35	-50.4	-56.1	9.3	5.65e-02	0	35	0	10485760	72	6946
2026-01-19 00:17:16.81	23.41	3.42	-50.4	-56.0	9.6	8.10e-03	0	35	0	12582912	72	6812
2026-01-19 00:17:17.82	23.42	3.49	-50.0	-54.8	10.8	3.80e-03	0	35	0	14680064	70	6679
2026-01-19 00:17:18.83	23.44	3.56	-49.9	-54.3	11.4	1.28e-03	0	35	0	16777216	70	6325
2026-01-19 00:17:19.83	23.46	3.62	-49.6	-53.7	12.0	6.07e-04	0	35	0	18874368	70	5873
2026-01-19 00:17:20.84	23.47	3.69	-49.4	-53.4	12.3	1.23e-04	0	35	0	19922944	70	5692
2026-01-19 00:17:21.85	23.49	3.76	-49.2	-52.8	13.0	1.03e-04	0	35	0	22020096	70	5294
2026-01-19 00:17:22.86	23.50	3.83	-48.7	-51.8	13.9	1.37e-05	0	35	0	24117248	69	5027
2026-01-19 00:17:23.87	23.52	3.90	-48.5	-51.5	14.3	2.20e-06	0	36	0	26214400	68	5119
2026-01-19 00:17:24.87	23.54	3.96	-48.5	-51.6	14.3	7.00e-07	0	36	0	28311552	68	5161
2026-01-19 00:17:25.88	23.55	4.03	-48.1	-51.6	14.2	4.50e-06	0	36	0	29360128	68	5204
2026-01-19 00:17:26.89	23.57	4.10	-48.6	-51.6	14.2	3.00e-06	0	35	0	31457280	68	5210
2026-01-19 00:17:27.90	23.59	4.17	-48.8	-52.1	13.7	1.50e-06	0	35	0	33554432	68	5478
2026-01-19 00:17:28.91	23.60	4.24	-48.8	-52.1	13.6	5.30e-06	0	36	0	35651584	68	5525
2026-01-19 00:17:29.92	23.62	4.31	-49.0	-52.5	13.3	8.30e-06	0	36	0	36700160	68	5753
2026-01-19 00:17:30.92	23.64	4.38	-49.3	-53.1	12.6	9.91e-05	0	35	0	38797312	69	5850
2026-01-19 00:17:31.93	23.65	4.45	-49.8	-54.3	11.4	2.72e-04	0	36	0	40894464	70	6308
2026-01-19 00:17:32.94	23.67	4.52	-49.9	-54.5	11.1	1.19e-03	0	36	0	42991616	70	6483
2026-01-19 00:17:33.95	23.69	4.59	-50.2	-55.3	10.3	3.31e-03	0	36	0	45088768	70	7099
2026-01-19 00:17:34.95	23.70	4.66	-50.6	-56.5	9.1	1.09e-02	0	36	0	47185920	71	7682
2026-01-19 00:17:35.96	23.72	4.73	-50.8	-57.3	8.2	3.56e-02	0	36	0	48234496	72	7957
2026-01-19 00:17:36.97	23.74	4.80	-50.8	-57.7	7.8	7.46e-02	0	35	0	50331648	72	8272
2026-01-19 00:17:37.98	23.75	4.87	-51.0	-58.5	7.0	1.28e-01	0	36	0	52428800	72	9098
2026-01-19 00:17:38.99	23.77	4.94	-51.2	-59.4	6.2	2.20e-01	0	36	0	54525952	72	10165
2026-01-19 00:17:39.99	23.79	5.01	-51.3	-59.9	5.8	3.86e-01	0	36	0	56623104	73	10142
2026-01-19 00:17:41.00	23.81	5.08	-51.3	-60.1	5.7	3.81e-01	0	36	0	57671680	73	10357
2026-01-19 00:17:42.01	23.82	5.15	-49.7	-53.6	12.3	1.21e-01	0	36	0	59768832	71	5499
2026-01-19 00:17:43.01	23.84	5.23	-51.5	-65.1	3.8	9.30e-02	0	36	104	60817408	73	18410
2026-01-19 00:17:44.02	23.86	5.30	-51.6	-60.8	5.4	1.13e+00	0	36	104	60817408	73	11216
2026-01-19 00:17:45.03	23.87	5.37	-49.5	-53.1	13.0	5.94e-03	0	36	0	61865984	70	5493
2026-01-19 00:17:46.04	23.89	5.44	-49.2	-52.5	13.6	5.30e-06	0	36	0	63963136	70	5146
2026-01-19 00:17:47.05	23.91	5.52	-48.9	-51.9	14.3	1.50e-06	0	36	0	66060288	69	5050
2026-01-19 00:17:48.05	23.93	5.59	-48.5	-51.2	15.1	1.50e-06	0	36	0	68157440	69	4683
2026-01-19 00:17:49.06	23.95	5.66	-48.2	-50.8	15.5	0.00e+00	0	36	0	70254592	68	4718
2026-01-19 00:17:50.07	23.96	5.73	-48.3	-50.9	15.4	0.00e+00	0	36	0	71303168	68	4785
2026-01-19 00:17:51.08	23.98	5.81	-48.0	-50.5	15.8	0.00e+00	0	36	0	73400320	68	4560
2026-01-19 00:17:52.09	24.00	5.88	-48.1	-50.5	15.7	0.00e+00	0	36	0	75497472	67	4855
2026-01-19 00:17:53.10	24.02	5.96	-47.8	-50.2	16.1	0.00e+00	0	36	0	77594624	67	4655
2026-01-19 00:17:54.10	24.03	6.03	-47.8	-50.1	16.2	0.00e+00	0	36	0	78643200	67	4617
2026-01-19 00:17:55.11	24.05	6.10	-47.8	-50.2	16.1	0.00e+00	0	36	0	80740352	67	4664
2026-01-19 00:17:56.12	24.07	6.18	-47.8	-50.1	16.1	0.00e+00	0	36	0	82837504	67	4641
2026-01-19 00:17:57.13	24.09	6.25	-47.8	-50.1	16.2	0.00e+00	0	36	0	84934656	67	4644
2026-01-19 00:17:58.13	24.11	6.33	-47.9	-50.2	16.1	0.00e+00	0	36	0	87031808	67	4705
2026-01-19 00:17:59.14	24.13	6.40	-47.8	-50.0	16.3	0.00e+00	0	36	0	89128960	67	4591
2026-01-19 00:18:00.15	24.14	6.48	-47.8	-50.1	16.3	0.00e+00	0	36	0	90177536	67	4605
2026-01-19 00:18:01.16	24.16	6.55	-47.8	-50.0	16.3	0.00e+00	0	36	0	92274688	67	4596
2026-01-19 00:18:02.16	24.18	6.63	-47.7	-49.9	16.5	0.00e+00	0	36	0	94371840	67	4539
2026-01-19 00:18:03.17	24.20	6.70	-47.6	-49.7	16.6	0.00e+00	0	36	0	96468992	67	4436
2026-01-19 00:18:04.18	24.22	6.78	-47.7	-50.0	16.4	0.00e+00	0	36	0	98566144	67	4547
2026-01-19 00:18:05.19	24.24	6.86	-47.7	-49.9	16.6	0.00e+00	0	36	0	99614720	67	4509
2026-01-19 00:18:06.20	24.26	6.93	-47.6	-49.8	16.6	0.00e+00	0	36	0	101711872	67	4472
2026-01-19 00:18:07.21	24.28	7.01	-47.5	-49.6	16.8	0.00e+00	0	36	0	103809024	67	4358
2026-01-19 00:18:08.21	24.29	7.09	-47.6	-49.7	16.7	0.00e+00	0	36	0	105906176	66	4673
2026-01-19 00:18:09.22	24.31	7.16	-47.5	-49.7	16.8	0.00e+00	0	36	0	106954752	66	4661
2026-01-19 00:18:10.23	24.33	7.24	-47.5	-49.6	16.8	0.00e+00	0	36	0	109051904	66	4647
2026-01-19 00:18:11.23	24.35	7.32	-47.5	-49.6	16.9	0.00e+00	0	36	0	111149056	66	4609
2026-01-19 00:18:12.24	24.37	7.40	-47.4	-49.5	17.0	0.00e+00	0	36	0	113246208	66	4576
2026-01-19 00:18:13.24	24.39	7.47	-47.5	-49.6	16.9	0.00e+00	0	36	0	115343360	66	4626
2026-01-19 00:18:14.24	24.41	7.55	-47.4	-49.5	17.0	0.00e+00	0	36	0	117440512	66	4573
2026-01-19 00:18:15.25	24.43	7.63	-47.4	-49.5	17.0	0.00e+00	0	36	0	118489088	66	4558
2026-01-19 00:18:16.26	24.45	7.71	-47.2	-49.2	17.3	0.00e+00	0	36	0	120586240	66	4421
2026-01-19 00:18:17.27	24.47	7.79	-47.4	-49.4	17.2	0.00e+00	0	36	0	122683392	66	4509
2026-01-19 00:18:18.28	24.49	7.87	-47.3	-49.3	17.2	0.00e+00	0	36	0	124780544	66	4485
2026-01-19 00:18:19.29	24.51	7.95	-47.4	-49.4	17.1	0.00e+00	0	36	0	126877696	66	4545
2026-01-19 00:18:20.29	24.53	8.03	-47.3	-49.3	17.3	0.00e+00	0	36	0	127926272	66	4469
2026-01-19 00:18:21.30	24.55	8.11	-47.3	-49.3	17.3	0.00e+00	0	36	0	130023424	66	4466
2026-01-19 00:18:22.31	24.57	8.19	-47.3	-49.3	17.3	0.00e+00	0	36	0	132120576	66	4467
2026-01-19 00:18:23.32	24.59	8.27	-47.3	-49.4	17.1	0.00e+00	0	36	0	134217728	66	4532
2026-01-19 00:18:24.33	24.61	8.35	-47.2	-49.1	17.4	0.00e+00	0	36	0	135266304	66	4381
2026-01-19 00:18:25.33	24.63	8.43	-47.1	-48.9	17.7	0.00e+00	0	36	0	137363456	66	4285
2026-01-19 00:18:26.34	24.65	8.51	-47.1	-49.0	17.6	0.00e+00	0	36	0	139460608	66	4316
2026-01-19 00:18:27.35	24.67	8.60	-47.2	-49.1	17.6	0.00e+00	0	36	0	141557760	66	4347
2026-01-19 00:18:28.36	24.69	8.68	-47.2	-49.1	17.5	0.00e+00	0	36	0	143654912	66	4380
2026-01-19 00:18:29.37	24.71	8.76	-47.0	-48.9	17.8	0.00e+00	0	36	0	145752064	66	4258
2026-01-19 00:18:30.37	24.73	8.84	-46.9	-48.8	17.8	0.00e+00	0	36	0	146800640	65	4456
2026-01-19 00:18:31.38	24.76	8.92	-47.0	-48.9	17.8	0.00e+00	0	36	0	148897792	65	4501
2026-01-19 00:18:32.39	24.78	9.01	-47.0	-48.9	17.8	0.00e+00	0	36	0	150994944	65	4512
2026-01-19 00:18:33.40	24.80	9.09	-47.1	-49.0	17.6	0.00e+00	0	36	0	153092096	65	4580
2026-01-19 00:18:34.41	24.82	9.17	-46.9	-48.8	17.9	0.00e+00	0	36	0	155189248	65	4449
2026-01-19 00:18:35.41	24.84	9.26	-46.9	-48.7	17.9	0.00e+00	0	36	0	156237824	65	4436
2026-01-19 00:18:36.42	24.86	9.34	-46.9	-48.7	18.0	0.00e+00	0	36	0	158334976	65	4412
2026-01-19 00:18:37.43	24.88	9.43	-46.9	-48.7	18.0	0.00e+00	0	36	0	160432128	65	4393
2026-01-19 00:18:38.44	24.91	9.51	-46.8	-48.6	18.1	0.00e+00	0	36	0	162529280	64	4616
2026-01-19 00:18:39.45	24.93	9.60	-46.7	-48.5	18.2	0.00e+00	0	36	0	164626432	64	4552
2026-01-19 00:18:40.45	24.95	9.68	-46.8	-48.5	18.2	0.00e+00	0	36	0	165675008	64	4573
2026-01-19 00:18:41.46	24.97	9.77	-46.7	-48.5	18.2	0.00e+00	0	36	0	167772160	64	4552
2026-01-19 00:18:42.47	24.99	9.85	-46.7	-48.4	18.2	0.00e+00	0	36	0	169869312	64	4544
2026-01-19 00:18:43.48	25.02	9.94	-46.7	-48.5	18.2	0.00e+00	0	36	0	171966464	64	4556
2026-01-19 00:18:44.49	25.04	10.03	-46.8	-48.5	18.2	0.00e+00	0	36	0	174063616	64	4594
2026-01-19 00:18:45.50	25.06	10.11	-46.7	-48.4	18.4	0.00e+00	0	36	0	175112192	64	4500
2026-01-19 00:18:46.50	25.08	10.20	-46.6	-48.3	18.5	0.00e+00	0	36	0	177209344	64	4457
2026-01-19 00:18:47.51	25.10	10.29	-46.6	-48.3	18.4	0.00e+00	0	36	0	179306496	64	4468
2026-01-19 00:18:48.52	25.13	10.38	-46.6	-48.2	18.5	0.00e+00	0	36	0	181403648	64	4438
2026-01-19 00:18:49.53	25.15	10.46	-46.6	-48.3	18.5	0.00e+00	0	36	0	183500800	64	4453
2026-01-19 00:18:50.53	25.17	10.55	-46.5	-48.2	18.6	0.00e+00	0	36	0	184549376	64	4406
2026-01-19 00:18:51.54	25.20	10.64	-46.5	-48.2	18.6	0.00e+00	0	36	0	186646528	64	4394
2026-01-19 00:18:52.55	25.22	10.73	-46.4	-48.0	18.8	0.00e+00	0	36	0	188743680	64	4315
2026-01-19 00:18:53.55	25.24	10.82	-46.6	-48.2	18.6	0.00e+00	0	36	0	190840832	64	4425
2026-01-19 00:18:54.56	25.27	10.91	-46.4	-48.0	18.8	0.00e+00	0	36	0	192937984	64	4303
2026-01-19 00:18:55.57	25.29	11.00	-46.5	-48.1	18.7	0.00e+00	0	36	0	193986560	64	4381
2026-01-19 00:18:56.58	25.31	11.09	-46.5	-48.1	18.7	0.00e+00	0	36	0	196083712	64	4376
2026-01-19 00:18:57.58	25.34	11.18	-46.4	-48.0	18.8	0.00e+00	0	36	0	198180864	64	4316
2026-01-19 00:18:58.59	25.36	11.27	-46.6	-48.3	18.6	0.00e+00	0	36	0	200278016	63	4710
2026-01-19 00:18:59.60	25.38	11.36	-46.5	-48.1	18.7	0.00e+00	0	36	0	202375168	63	4638
2026-01-19 00:19:00.58	25.41	11.45	-46.4	-47.9	19.0	0.00e+00	0	36	0	203423744	63	4543
2026-01-19 00:19:01.59	25.43	11.54	-46.4	-48.0	18.9	0.00e+00	0	36	0	205520896	63	4589
2026-01-19 00:19:02.59	25.46	11.63	-46.4	-48.0	18.9	0.00e+00	0	36	0	207618048	63	4588
2026-01-19 00:19:03.60	25.48	11.73	-46.4	-47.9	19.0	0.00e+00	0	36	0	209715200	63	4539
2026-01-19 00:19:04.61	25.51	11.82	-46.5	-48.1	18.8	0.00e+00	0	36	0	211812352	63	4640
2026-01-19 00:19:05.62	25.53	11.91	-46.4	-48.0	18.9	0.00e+00	0	36	0	212860928	63	4559
2026-01-19 00:19:06.63	25.56	12.01	-46.5	-48.1	18.8	0.00e+00	0	36	0	214958080	63	4624
2026-01-19 00:19:07.63	25.58	12.10	-46.4	-47.9	19.0	0.00e+00	0	36	0	217055232	63	4531
2026-01-19 00:19:08.64	25.61	12.19	-46.4	-48.0	18.9	0.00e+00	0	36	0	219152384	63	4574
2026-01-19 00:19:09.65	25.63	12.29	-46.4	-47.9	19.0	0.00e+00	0	36	0	221249536	63	4540
2026-01-19 00:19:10.66	25.66	12.39	-46.3	-47.8	19.1	0.00e+00	0	36	0	222298112	63	4492
2026-01-19 00:19:11.67	25.68	12.48	-46.3	-47.9	19.0	0.00e+00	0	36	0	224395264	63	4506
2026-01-19 00:19:12.68	25.71	12.58	-46.3	-47.9	19.1	0.00e+00	0	36	0	226492416	63	4502
2026-01-19 00:19:13.68	25.73	12.67	-46.4	-47.9	19.1	0.00e+00	0	36	0	228589568	63	4520
2026-01-19 00:19:14.69	25.76	12.77	-46.4	-47.9	19.0	0.00e+00	0	36	0	230686720	63	4522
2026-01-19 00:19:15.70	25.79	12.87	-46.3	-47.8	19.1	0.00e+00	0	36	0	231735296	63	4477
2026-01-19 00:19:16.71	25.81	12.96	-46.3	-47.8	19.1	0.00e+00	0	36	0	233832448	63	4468
2026-01-19 00:19:17.71	25.84	13.06	-46.3	-47.8	19.1	0.00e+00	0	36	0	235929600	63	4469
2026-01-19 00:19:18.72	25.86	13.16	-46.2	-47.7	19.2	0.00e+00	0	36	0	238026752	63	4432
2026-01-19 00:19:19.73	25.89	13.26	-46.3	-47.8	19.2	0.00e+00	0	36	0	240123904	63	4456
2026-01-19 00:19:20.74	25.92	13.36	-46.3	-47.8	19.2	0.00e+00	0	36	0	241172480	63	4463
2026-01-19 00:19:21.75	25.94	13.46	-46.2	-47.7	19.2	0.00e+00	0	36	0	243269632	63	4440
2026-01-19 00:19:22.75	25.97	13.56	-46.3	-47.8	19.2	0.00e+00	0	36	0	245366784	63	4456
2026-01-19 00:19:23.76	26.00	13.66	-46.2	-47.7	19.3	0.00e+00	0	36	0	247463936	63	4408
2026-01-19 00:19:24.77	26.03	13.76	-46.2	-47.7	19.3	0.00e+00	0	36	0	249561088	63	4427
2026-01-19 00:19:25.78	26.05	13.86	-46.3	-47.9	19.1	0.00e+00	0	36	0	250609664	63	4503
2026-01-19 00:19:26.79	26.08	13.96	-46.3	-47.8	19.2	0.00e+00	0	36	0	252706816	63	4466
2026-01-19 00:19:27.79	26.11	14.06	-46.3	-47.8	19.2	0.00e+00	0	36	0	254803968	63	4476
2026-01-19 00:19:28.80	26.14	14.16	-46.3	-47.8	19.1	0.00e+00	0	36	0	256901120	63	4482
2026-01-19 00:19:29.81	26.17	14.27	-46.3	-47.8	19.2	0.00e+00	0	36	0	258998272	63	4455
2026-01-19 00:19:30.82	26.19	14.37	-46.3	-47.8	19.2	0.00e+00	0	36	0	260046848	63	4473
2026-01-19 00:19:31.82	26.22	14.47	-46.3	-47.9	19.2	0.00e+00	0	36	0	262144000	63	4496
2026-01-19 00:19:32.82	26.25	14.58	-46.3	-47.8	19.2	0.00e+00	0	36	0	264241152	63	4466
2026-01-19 00:19:33.83	26.28	14.68	-46.4	-47.9	19.1	0.00e+00	0	36	0	266338304	63	4537
2026-01-19 00:19:34.84	26.31	14.79	-46.4	-47.9	19.1	0.00e+00	0	36	0	268435456	63	4536
2026-01-19 00:19:35.85	26.34	14.89	-46.4	-47.9	19.1	0.00e+00	0	36	0	269484032	63	4531
2026-01-19 00:19:36.85	26.37	15.00	-46.5	-48.1	19.0	0.00e+00	0	36	0	271581184	63	4611
2026-01-19 00:19:37.86	26.40	15.10	-46.5	-48.1	19.0	0.00e+00	0	36	0	273678336	63	4607
2026-01-19 00:19:38.87	26.43	15.21	-46.4	-48.0	19.1	0.00e+00	0	36	0	275775488	63	4549
2026-01-19 00:19:39.88	26.46	15.32	-46.5	-48.0	19.0	0.00e+00	0	36	0	277872640	63	4580
2026-01-19 00:19:40.88	26.49	15.42	-46.5	-48.1	19.0	0.00e+00	0	36	0	278921216	63	4609
2026-01-19 00:19:41.89	26.52	15.53	-46.6	-48.1	18.9	0.00e+00	0	36	0	281018368	63	4639
2026-01-19 00:19:42.90	26.55	15.64	-46.6	-48.1	18.9	0.00e+00	0	36	0	283115520	63	4650
2026-01-19 00:19:43.91	26.58	15.75	-46.6	-48.2	18.9	0.00e+00	0	36	0	285212672	63	4667
2026-01-19 00:19:44.92	26.61	15.86	-46.7	-48.3	18.8	0.00e+00	0	36	0	287309824	63	4706
2026-01-19 00:19:45.92	26.64	15.97	-46.6	-48.2	18.9	0.00e+00	0	36	0	288358400	63	4689
2026-01-19 00:19:46.93	26.67	16.08	-46.7	-48.3	18.7	0.00e+00	0	36	0	290455552	64	4457
2026-01-19 00:19:47.94	26.70	16.19	-46.6	-48.2	18.8	0.00e+00	0	36	0	292552704	64	4441
2026-01-19 00:19:48.94	26.73	16.30	-46.7	-48.3	18.7	0.00e+00	0	36	0	294649856	64	4492
2026-01-19 00:19:49.95	26.77	16.41	-46.7	-48.3	18.7	0.00e+00	0	36	0	296747008	64	4473
2026-01-19 00:19:50.96	26.80	16.53	-46.7	-48.4	18.7	0.00e+00	0	36	0	297795584	64	4505
2026-01-19 00:19:51.97	26.83	16.64	-46.8	-48.5	18.6	0.00e+00	0	36	0	299892736	64	4547
2026-01-19 00:19:52.97	26.86	16.75	-46.7	-48.4	18.6	0.00e+00	0	36	0	301989888	64	4508
2026-01-19 00:19:53.98	26.90	16.87	-46.8	-48.4	18.6	0.00e+00	0	36	0	304087040	64	4541
2026-01-19 00:19:54.99	26.93	16.98	-46.8	-48.4	18.6	0.00e+00	0	36	0	306184192	64	4523
2026-01-19 00:19:56.00	26.96	17.10	-47.0	-48.7	18.4	0.00e+00	0	36	0	307232768	64	4658
2026-01-19 00:19:57.01	27.00	17.21	-47.0	-48.7	18.4	0.00e+00	0	36	0	309329920	64	4652
2026-01-19 00:19:58.01	27.03	17.33	-47.0	-48.7	18.4	0.00e+00	0	36	0	311427072	64	4685
2026-01-19 00:19:59.02	27.06	17.44	-47.1	-48.8	18.3	0.00e+00	0	36	0	313524224	64	4731
2026-01-19 00:20:00.03	27.10	17.56	-47.1	-48.8	18.3	0.00e+00	0	36	0	315621376	64	4752
2026-01-19 00:20:01.04	27.13	17.68	-47.0	-48.7	18.3	0.00e+00	0	36	0	317718528	64	4702
2026-01-19 00:20:02.04	27.17	17.80	-47.1	-48.9	18.2	0.00e+00	0	36	0	318767104	64	4769
2026-01-19 00:20:03.05	27.20	17.92	-47.1	-48.8	18.3	0.00e+00	0	36	0	320864256	64	4750
2026-01-19 00:20:04.06	27.24	18.04	-47.1	-48.9	18.2	0.00e+00	0	36	0	322961408	64	4789
2026-01-19 00:20:05.07	27.27	18.16	-47.1	-48.9	18.2	0.00e+00	0	36	0	325058560	64	4761
2026-01-19 00:20:06.08	27.31	18.28	-47.2	-49.0	18.1	0.00e+00	0	36	0	326107136	64	4818
2026-01-19 00:20:07.09	27.34	18.40	-47.2	-49.0	18.1	0.00e+00	0	36	0	328204288	65	4565
2026-01-19 00:20:08.10	27.38	18.52	-47.3	-49.0	18.1	0.00e+00	0	36	0	330301440	65	4589
2026-01-19 00:20:09.11	27.41	18.65	-47.2	-49.0	18.1	0.00e+00	0	36	0	332398592	65	4556
2026-01-19 00:20:10.11	27.45	18.77	-47.3	-49.0	18.1	0.00e+00	0	36	0	334495744	65	4586
2026-01-19 00:20:11.12	27.49	18.89	-47.3	-49.1	18.1	0.00e+00	0	36	0	335544320	65	4606
2026-01-19 00:20:12.13	27.52	19.02	-47.3	-49.1	18.1	0.00e+00	0	36	0	337641472	65	4614
2026-01-19 00:20:13.13	27.56	19.14	-47.3	-49.0	18.0	0.00e+00	0	36	0	339738624	65	4593
2026-01-19 00:20:14.14	27.60	19.27	-47.3	-49.1	18.0	0.00e+00	0	37	0	341835776	65	4625
2026-01-19 00:20:15.15	27.64	19.39	-47.3	-49.1	18.1	0.00e+00	0	36	0	343932928	65	4604
2026-01-19 00:20:16.16	27.68	19.52	-47.3	-49.1	18.1	0.00e+00	0	36	0	346030080	65	4610
2026-01-19 00:20:17.17	27.71	19.65	-47.3	-49.0	18.1	0.00e+00	0	36	0	347078656	65	4581
2026-01-19 00:20:18.17	27.75	19.77	-47.3	-49.1	18.0	0.00e+00	0	36	0	349175808	65	4630
2026-01-19 00:20:19.18	27.79	19.90	-47.3	-49.1	18.0	0.00e+00	0	37	0	351272960	65	4637
2026-01-19 00:20:20.19	27.83	20.03	-47.3	-49.0	18.1	0.00e+00	0	36	0	353370112	65	4591
2026-01-19 00:20:21.20	27.87	20.16	-47.3	-49.1	18.1	0.00e+00	0	36	0	355467264	65	4620
2026-01-19 00:20:22.21	27.91	20.30	-47.3	-49.1	18.1	0.00e+00	0	36	0	356515840	65	4623
2026-01-19 00:20:23.21	27.95	20.43	-47.3	-49.1	18.0	0.00e+00	0	36	0	358612992	65	4638
2026-01-19 00:20:24.22	27.99	20.56	-47.2	-48.9	18.2	0.00e+00	0	36	0	360710144	65	4539
2026-01-19 00:20:25.23	28.03	20.69	-47.2	-48.9	18.3	0.00e+00	0	36	0	362807296	65	4515
2026-01-19 00:20:26.24	28.07	20.82	-47.2	-48.9	18.3	0.00e+00	0	36	0	364904448	65	4500
2026-01-19 00:20:27.24	28.11	20.96	-47.2	-48.9	18.2	0.00e+00	0	36	0	365953024	65	4533
2026-01-19 00:20:28.25	28.16	21.09	-47.2	-48.9	18.3	0.00e+00	0	36	0	368050176	65	4515
2026-01-19 00:20:29.26	28.20	21.23	-47.1	-48.8	18.3	0.00e+00	0	36	0	370147328	65	4482
2026-01-19 00:20:30.27	28.24	21.37	-47.1	-48.8	18.3	0.00e+00	0	36	0	372244480	65	4474
2026-01-19 00:20:31.27	28.28	21.50	-47.2	-48.9	18.3	0.00e+00	0	37	0	374341632	65	4525
2026-01-19 00:20:32.28	28.33	21.64	-47.2	-48.9	18.3	0.00e+00	0	36	0	375390208	65	4511
2026-01-19 00:20:33.29	28.37	21.78	-47.0	-48.6	18.6	0.00e+00	0	36	0	377487360	65	4374
2026-01-19 00:20:34.29	28.41	21.92	-47.0	-48.6	18.6	0.00e+00	0	36	0	379584512	65	4384
2026-01-19 00:20:35.30	28.46	22.06	-46.9	-48.6	18.6	0.00e+00	0	36	0	381681664	65	4361
2026-01-19 00:20:36.31	28.50	22.20	-47.0	-48.7	18.6	0.00e+00	0	36	0	383778816	65	4392
2026-01-19 00:20:37.32	28.55	22.34	-47.0	-48.7	18.5	0.00e+00	0	37	0	384827392	65	4404
2026-01-19 00:20:38.32	28.59	22.48	-46.9	-48.6	18.7	0.00e+00	0	37	0	386924544	65	4358
2026-01-19 00:20:39.33	28.64	22.63	-46.9	-48.5	18.7	0.00e+00	0	36	0	389021696	65	4318
2026-01-19 00:20:40.34	28.68	22.77	-46.9	-48.5	18.8	0.00e+00	0	36	0	391118848	65	4303
2026-01-19 00:20:41.35	28.73	22.92	-46.9	-48.5	18.7	0.00e+00	0	36	0	393216000	65	4306
2026-01-19 00:20:42.35	28.78	23.06	-46.8	-48.4	18.9	0.00e+00	0	36	0	394264576	65	4245
2026-01-19 00:20:43.36	28.82	23.21	-46.8	-48.4	18.8	0.00e+00	0	36	0	396361728	65	4256
2026-01-19 00:20:44.37	28.87	23.35	-46.7	-48.3	18.9	0.00e+00	0	36	0	398458880	65	4233
2026-01-19 00:20:45.37	28.92	23.50	-46.7	-48.3	19.0	0.00e+00	0	36	0	400556032	65	4198
2026-01-19 00:20:46.38	28.97	23.65	-46.7	-48.3	19.0	0.00e+00	0	37	0	402653184	65	4199
2026-01-19 00:20:47.39	29.01	23.80	-46.6	-48.2	19.0	0.00e+00	0	37	0	403701760	65	4167
2026-01-19 00:20:48.40	29.06	23.95	-46.6	-48.2	19.0	0.00e+00	0	36	0	405798912	65	4165
2026-01-19 00:20:49.41	29.11	24.10	-46.6	-48.2	19.1	0.00e+00	0	36	0	407896064	65	4149
2026-01-19 00:20:50.41	29.16	24.25	-46.6	-48.1	19.1	0.00e+00	0	36	0	409993216	65	4135
2026-01-19 00:20:51.42	29.21	24.41	-46.6	-48.2	19.1	0.00e+00	0	36	0	412090368	65	4177
2026-01-19 00:20:52.43	29.27	24.56	-46.5	-48.0	19.2	0.00e+00	0	36	0	413138944	65	4090
2026-01-19 00:20:53.44	29.32	24.72	-46.6	-48.1	19.1	0.00e+00	0	36	0	415236096	64	4379
2026-01-19 00:20:54.44	29.37	24.87	-46.6	-48.1	19.1	0.00e+00	0	36	0	417333248	64	4386
2026-01-19 00:20:55.45	29.42	25.03	-46.6	-48.1	19.2	0.00e+00	0	36	0	419430400	64	4355
2026-01-19 00:20:56.46	29.47	25.19	-46.6	-48.2	19.1	0.00e+00	0	36	0	421527552	64	4408
2026-01-19 00:20:57.47	29.53	25.35	-46.5	-48.1	19.2	0.00e+00	0	37	0	422576128	64	4344
2026-01-19 00:20:58.47	29.58	25.50	-46.7	-48.2	19.1	0.00e+00	0	36	0	424673280	64	4429
2026-01-19 00:20:59.48	29.63	25.67	-46.9	-48.5	18.8	0.00e+00	0	36	0	426770432	64	4558
2026-01-19 00:21:00.49	29.69	25.83	-46.9	-48.6	18.7	0.00e+00	0	36	0	428867584	64	4607
2026-01-19 00:21:01.49	29.74	25.99	-46.9	-48.5	18.8	0.00e+00	0	36	0	430964736	64	4586
2026-01-19 00:21:02.49	29.80	26.15	-47.0	-48.7	18.6	0.00e+00	0	36	0	432013312	64	4673
2026-01-19 00:21:03.50	29.86	26.31	-47.1	-48.8	18.5	0.00e+00	0	36	0	434110464	64	4743
2026-01-19 00:21:04.51	29.91	26.48	-47.2	-48.9	18.3	0.00e+00	0	37	0	436207616	65	4542
2026-01-19 00:21:05.52	29.97	26.65	-47.3	-49.1	18.3	0.00e+00	0	36	0	438304768	65	4602
2026-01-19 00:21:06.53	30.03	26.81	-47.4	-49.1	18.2	0.00e+00	0	36	0	440401920	65	4637
2026-01-19 00:21:07.53	30.09	26.98	-47.5	-49.2	18.1	0.00e+00	0	37	0	441450496	65	4692
2026-01-19 00:21:08.54	30.15	27.15	-47.5	-49.3	18.0	0.00e+00	0	37	0	443547648	65	4741
2026-01-19 00:21:09.55	30.21	27.32	-47.6	-49.4	18.0	0.00e+00	0	36	0	445644800	65	4791
2026-01-19 00:21:10.56	30.27	27.49	-47.6	-49.4	18.0	0.00e+00	0	36	0	447741952	65	4783
2026-01-19 00:21:11.57	30.33	27.67	-47.5	-49.3	18.0	0.00e+00	0	36	0	449839104	65	4749
2026-01-19 00:21:12.57	30.39	27.84	-47.4	-49.2	18.1	0.00e+00	0	36	0	450887680	65	4685
2026-01-19 00:21:13.58	30.45	28.01	-47.4	-49.2	18.1	0.00e+00	0	36	0	452984832	65	4671
2026-01-19 00:21:14.59	30.52	28.19	-47.5	-49.3	18.1	0.00e+00	0	36	0	455081984	65	4713
2026-01-19 00:21:15.59	30.58	28.37	-47.4	-49.1	18.2	0.00e+00	0	37	0	457179136	65	4627
2026-01-19 00:21:16.60	30.64	28.54	-47.3	-49.0	18.3	0.00e+00	0	36	0	459276288	65	4583
2026-01-19 00:21:17.61	30.71	28.72	-47.4	-49.1	18.2	0.00e+00	0	37	0	460324864	65	4631
2026-01-19 00:21:18.62	30.77	28.90	-47.4	-49.1	18.2	0.00e+00	0	36	0	462422016	65	4651
2026-01-19 00:21:19.63	30.84	29.09	-47.4	-49.2	18.2	0.00e+00	0	37	0	464519168	65	4671
2026-01-19 00:21:20.63	30.91	29.27	-47.6	-49.3	18.0	0.00e+00	0	36	0	466616320	65	4753
2026-01-19 00:21:21.64	30.97	29.45	-47.6	-49.4	17.9	0.00e+00	0	36	0	468713472	65	4810
2026-01-19 00:21:22.65	31.04	29.64	-47.7	-49.6	17.8	0.00e+00	0	36	0	469762048	66	4617
2026-01-19 00:21:23.66	31.11	29.82	-47.9	-49.7	17.6	0.00e+00	0	37	0	471859200	66	4695
2026-01-19 00:21:24.67	31.18	30.01	-47.9	-49.8	17.6	0.00e+00	0	36	0	473956352	66	4718
2026-01-19 00:21:25.67	31.25	30.20	-47.9	-49.9	17.5	0.00e+00	0	36	0	476053504	66	4767
2026-01-19 00:21:26.68	31.32	30.39	-48.0	-50.0	17.4	0.00e+00	0	36	0	478150656	66	4832
2026-01-19 00:21:27.69	31.40	30.58	-48.1	-50.1	17.3	0.00e+00	0	36	0	479199232	66	4891
2026-01-19 00:21:28.69	31.47	30.77	-48.3	-50.3	17.1	0.00e+00	0	36	0	481296384	67	4735
2026-01-19 00:21:29.70	31.54	30.96	-48.3	-50.3	17.1	0.00e+00	0	36	0	483393536	67	4750
2026-01-19 00:21:30.71	31.62	31.16	-48.5	-50.5	16.9	0.00e+00	0	36	0	485490688	67	4860
2026-01-19 00:21:31.72	31.69	31.35	-48.5	-50.7	16.8	0.00e+00	0	36	0	487587840	67	4935
2026-01-19 00:21:32.73	31.77	31.55	-48.4	-50.5	16.9	0.00e+00	0	36	0	488636416	67	4860
2026-01-19 00:21:33.74	31.85	31.75	-48.4	-50.5	16.9	0.00e+00	0	36	0	490733568	67	4843
2026-01-19 00:21:34.74	31.92	31.95	-48.6	-50.7	16.7	0.00e+00	0	36	0	492830720	67	4975
2026-01-19 00:21:35.75	32.00	32.15	-48.4	-50.5	16.9	0.00e+00	0	36	0	494927872	67	4850
2026-01-19 00:21:36.76	32.08	32.35	-48.3	-50.3	17.1	0.00e+00	0	36	0	497025024	67	4746
2026-01-19 00:21:37.77	32.16	32.55	-48.1	-50.0	17.3	0.00e+00	0	36	0	498073600	67	4598
2026-01-19 00:21:38.78	32.25	32.76	-48.0	-49.8	17.5	0.00e+00	0	36	0	500170752	67	4491
2026-01-19 00:21:39.79	32.33	32.96	-47.9	-49.7	17.7	0.00e+00	0	36	0	502267904	67	4431
2026-01-19 00:21:40.79	32.41	33.17	-47.7	-49.5	18.0	0.00e+00	0	36	0	504365056	67	4297
2026-01-19 00:21:41.80	32.50	33.38	-47.7	-49.4	18.0	0.00e+00	0	36	0	506462208	67	4288
2026-01-19 00:21:42.81	32.58	33.59	-47.8	-49.6	17.9	0.00e+00	0	36	0	507510784	67	4366
2026-01-19 00:21:43.82	32.67	33.80	-47.7	-49.5	18.0	0.00e+00	0	36	0	509607936	67	4297
2026-01-19 00:21:44.83	32.76	34.02	-47.6	-49.4	18.1	0.00e+00	0	36	0	511705088	67	4247
2026-01-19 00:21:45.83	32.85	34.23	-47.8	-49.7	17.8	0.00e+00	0	36	0	513802240	67	4398
2026-01-19 00:21:46.84	32.94	34.44	-48.0	-49.8	17.5	0.00e+00	0	36	0	515899392	67	4492
2026-01-19 00:21:47.85	33.03	34.66	-48.1	-50.1	17.4	0.00e+00	0	37	0	517996544	67	4629
2026-01-19 00:21:48.86	33.12	34.88	-48.1	-50.0	17.4	0.00e+00	0	36	0	519045120	67	4573
2026-01-19 00:21:49.86	33.22	35.10	-48.1	-50.0	17.5	0.00e+00	0	37	0	521142272	67	4567
2026-01-19 00:21:50.87	33.31	35.32	-48.0	-49.9	17.5	0.00e+00	0	36	0	523239424	67	4519
2026-01-19 00:21:51.88	33.41	35.55	-47.9	-49.7	17.7	0.00e+00	0	37	0	525336576	67	4431
2026-01-19 00:21:52.89	33.51	35.77	-47.7	-49.6	17.9	0.00e+00	0	36	0	526385152	67	4378
2026-01-19 00:21:53.90	33.60	36.00	-47.7	-49.5	18.0	0.00e+00	0	36	0	528482304	66	4588
2026-01-19 00:21:54.91	33.71	36.23	-47.8	-49.6	18.0	0.00e+00	0	36	0	530579456	66	4621
2026-01-19 00:21:55.91	33.81	36.45	-47.7	-49.5	18.0	0.00e+00	0	36	0	532676608	66	4567
2026-01-19 00:21:56.92	33.91	36.68	-47.7	-49.4	18.1	0.00e+00	0	36	0	534773760	66	4542
2026-01-19 00:21:57.93	34.01	36.92	-47.6	-49.3	18.1	0.00e+00	0	36	0	535822336	66	4491
2026-01-19 00:21:58.94	34.12	37.15	-47.6	-49.4	18.1	0.00e+00	0	36	0	537919488	66	4507
2026-01-19 00:21:59.95	34.23	37.39	-47.7	-49.5	18.1	0.00e+00	0	36	0	540016640	66	4566
2026-01-19 00:22:00.95	34.34	37.62	-47.7	-49.5	18.1	0.00e+00	0	37	0	542113792	66	4547
2026-01-19 00:22:01.96	34.45	37.86	-47.8	-49.6	18.0	0.00e+00	0	36	0	544210944	66	4607
2026-01-19 00:22:02.97	34.56	38.10	-47.9	-49.7	17.8	0.00e+00	0	36	0	546308096	66	4691
2026-01-19 00:22:03.98	34.67	38.34	-48.1	-50.1	17.5	0.00e+00	0	36	0	547356672	66	4882
2026-01-19 00:22:04.99	34.79	38.59	-48.3	-50.3	17.3	0.00e+00	0	36	0	549453824	67	4716
2026-01-19 00:22:06.00	34.90	38.83	-48.4	-50.4	17.1	0.00e+00	0	36	0	551550976	67	4797
2026-01-19 00:22:07.00	35.02	39.08	-48.9	-51.1	16.6	0.00e+00	0	36	0	553648128	68	4889
2026-01-19 00:22:08.01	35.14	39.33	-49.0	-51.2	16.5	0.00e+00	0	36	0	554696704	68	4962
2026-01-19 00:22:09.02	35.26	39.58	-49.2	-51.6	16.1	0.00e+00	0	36	0	556793856	68	5164
2026-01-19 00:22:10.03	35.39	39.83	-49.4	-51.9	15.8	0.00e+00	0	37	0	558891008	69	5045
2026-01-19 00:22:11.03	35.51	40.08	-49.6	-52.3	15.4	0.00e+00	0	36	0	560988160	69	5282
2026-01-19 00:22:12.04	35.64	40.34	-49.6	-52.2	15.5	0.00e+00	0	36	0	563085312	69	5267
2026-01-19 00:22:13.05	35.77	40.59	-49.5	-52.0	15.7	0.00e+00	0	36	0	565182464	69	5128
2026-01-19 00:22:14.06	35.90	40.85	-49.2	-51.6	16.1	0.00e+00	0	36	0	566231040	69	4883
2026-01-19 00:22:15.07	36.04	41.11	-49.2	-51.5	16.2	0.00e+00	0	36	0	568328192	69	4862
2026-01-19 00:22:16.07	36.17	41.37	-49.1	-51.4	16.3	0.00e+00	0	36	0	570425344	69	4792
2026-01-19 00:22:17.08	36.31	41.64	-48.9	-51.1	16.5	0.00e+00	0	36	0	572522496	69	4647
2026-01-19 00:22:18.09	36.45	41.90	-49.1	-51.4	16.3	0.00e+00	0	37	0	574619648	69	4792
2026-01-19 00:22:19.09	36.59	42.17	-49.0	-51.2	16.4	0.00e+00	0	36	0	575668224	69	4699
2026-01-19 00:22:20.10	36.74	42.44	-49.2	-51.6	16.1	0.00e+00	0	36	0	577765376	69	4896
2026-01-19 00:22:21.11	36.88	42.71	-49.4	-51.9	15.7	0.00e+00	0	36	0	579862528	69	5083
2026-01-19 00:22:22.12	37.03	42.98	-49.4	-51.9	15.8	0.00e+00	0	36	0	581959680	69	5043
2026-01-19 00:22:23.13	37.19	43.26	-49.5	-52.0	15.8	0.00e+00	0	37	0	583008256	69	5114
2026-01-19 00:22:24.13	37.34	43.53	-49.2	-51.5	16.2	0.00e+00	0	36	0	585105408	69	4858
2026-01-19 00:22:25.14	37.50	43.81	-49.0	-51.2	16.5	0.00e+00	0	36	0	587202560	69	4680
2026-01-19 00:22:26.15	37.66	44.09	-48.8	-50.9	16.8	0.00e+00	0	36	0	589299712	69	4532
2026-01-19 00:22:27.16	37.82	44.37	-48.7	-50.8	16.9	0.00e+00	0	36	0	591396864	69	4486
2026-01-19 00:22:28.17	37.99	44.65	-48.7	-50.7	17.0	0.00e+00	0	36	0	593494016	69	4431
2026-01-19 00:22:29.17	38.15	44.94	-48.9	-51.1	16.6	0.00e+00	0	36	0	594542592	69	4622
2026-01-19 00:22:30.18	38.33	45.22	-49.0	-51.3	16.4	0.00e+00	0	36	0	596639744	69	4722
2026-01-19 00:22:31.19	38.50	45.51	-49.3	-51.7	16.1	0.00e+00	0	36	0	598736896	69	4932
2026-01-19 00:22:32.20	38.68	45.80	-49.8	-52.4	15.3	0.00e+00	0	36	0	600834048	70	5091
2026-01-19 00:22:33.21	38.86	46.10	-50.0	-52.7	15.0	0.00e+00	0	36	0	602931200	70	5258
2026-01-19 00:22:34.22	39.04	46.39	-49.8	-52.5	15.3	0.00e+00	0	36	0	603979776	70	5103
2026-01-19 00:22:35.22	39.23	46.68	-49.4	-51.8	15.9	0.00e+00	0	36	0	606076928	70	4717
2026-01-19 00:22:36.22	39.42	46.98	-48.9	-51.1	16.6	0.00e+00	0	36	0	608174080	69	4636
2026-01-19 00:22:37.23	39.61	47.28	-48.7	-50.7	17.0	0.00e+00	0	36	0	610271232	69	4417
2026-01-19 00:22:38.24	39.81	47.58	-48.4	-50.4	17.4	0.00e+00	0	36	0	612368384	68	4498
2026-01-19 00:22:39.25	40.02	47.88	-48.3	-50.3	17.5	0.00e+00	0	37	0	613416960	68	4454
2026-01-19 00:22:40.26	40.22	48.19	-48.3	-50.3	17.4	0.00e+00	0	36	0	615514112	68	4460
2026-01-19 00:22:41.27	40.43	48.50	-48.3	-50.3	17.5	0.00e+00	0	37	0	617611264	68	4457
2026-01-19 00:22:42.28	40.65	48.81	-48.4	-50.4	17.3	0.00e+00	0	36	0	619708416	68	4518
2026-01-19 00:22:43.28	40.86	49.11	-48.4	-50.3	17.4	0.00e+00	0	37	0	621805568	68	4479
2026-01-19 00:22:44.29	41.09	49.43	-48.2	-50.0	17.7	0.00e+00	0	37	0	622854144	68	4337
2026-01-19 00:22:45.30	41.31	49.74	-48.1	-49.9	17.8	0.00e+00	0	37	0	624951296	68	4288
2026-01-19 00:22:46.31	41.55	50.06	-48.1	-50.0	17.8	0.00e+00	0	37	0	627048448	68	4302
2026-01-19 00:22:47.31	41.78	50.37	-47.8	-49.5	18.1	0.00e+00	0	36	0	629145600	67	4340
2026-01-19 00:22:48.32	42.02	50.69	-47.1	-48.7	18.9	0.00e+00	0	36	0	631242752	66	4176
2026-01-19 00:22:49.33	42.27	51.01	-46.6	-48.1	19.5	0.00e+00	0	36	0	633339904	65	4101
2026-01-19 00:22:50.34	42.52	51.33	-46.1	-47.4	20.1	0.00e+00	0	37	0	634388480	64	4050
2026-01-19 00:22:51.35	42.78	51.66	-45.9	-47.2	20.5	0.00e+00	0	37	0	636485632	63	4151
2026-01-19 00:22:52.35	43.04	51.98	-45.8	-47.1	20.6	0.00e+00	0	36	0	638582784	63	4118
2026-01-19 00:22:53.36	43.31	52.31	-45.7	-46.9	20.7	0.00e+00	0	36	0	640679936	63	4039
2026-01-19 00:22:54.37	43.59	52.64	-45.7	-46.9	20.7	0.00e+00	0	36	0	641728512	63	4042
2026-01-19 00:22:55.38	43.87	52.97	-45.5	-46.7	20.9	0.00e+00	0	36	0	643825664	63	3955
2026-01-19 00:22:56.39	44.16	53.30	-45.1	-46.3	21.3	0.00e+00	0	37	0	645922816	62	3987
2026-01-19 00:22:57.39	44.45	53.63	-44.8	-46.0	21.6	0.00e+00	0	37	0	648019968	61	4054
2026-01-19 00:22:58.40	44.75	53.96	-44.5	-45.6	21.9	0.00e+00	0	36	0	650117120	61	3892
2026-01-19 00:22:59.41	45.06	54.30	-44.5	-45.6	22.0	0.00e+00	0	36	0	651165696	60	4107
2026-01-19 00:23:00.42	45.37	54.64	-44.7	-45.8	21.8	0.00e+00	0	36	0	653262848	60	4212
2026-01-19 00:23:01.43	45.69	54.98	-44.8	-45.9	21.6	0.00e+00	0	37	0	655360000	60	4274
2026-01-19 00:23:02.44	46.02	55.32	-45.1	-46.2	21.4	0.00e+00	0	37	0	657457152	60	4427
2026-01-19 00:23:03.45	46.36	55.66	-45.4	-46.6	21.0	0.00e+00	0	36	0	659554304	61	4359
2026-01-19 00:23:04.46	46.71	56.00	-45.5	-46.7	20.9	0.00e+00	0	36	0	661651456	61	4412
2026-01-19 00:23:05.46	47.06	56.34	-45.6	-46.8	20.8	0.00e+00	0	36	0	662700032	61	4482
2026-01-19 00:23:06.47	47.42	56.69	-45.7	-47.0	20.7	0.00e+00	0	36	0	664797184	62	4318
2026-01-19 00:23:07.48	47.80	57.03	-45.9	-47.2	20.5	0.00e+00	0	37	0	666894336	62	4435
2026-01-19 00:23:08.49	48.18	57.38	-46.1	-47.4	20.3	0.00e+00	0	37	0	668991488	62	4519
2026-01-19 00:23:09.49	48.57	57.72	-46.2	-47.5	20.2	0.00e+00	0	37	0	670040064	62	4580
2026-01-19 00:23:10.50	48.97	58.07	-45.7	-46.9	20.8	0.00e+00	0	36	0	672137216	62	4282
2026-01-19 00:23:11.51	49.38	58.42	-45.7	-46.9	20.8	0.00e+00	0	36	0	674234368	62	4270
2026-01-19 00:23:12.52	49.81	58.77	-45.8	-47.1	20.6	0.00e+00	0	36	0	676331520	62	4344
2026-01-19 00:23:13.53	50.24	59.12	-45.7	-47.0	20.7	0.00e+00	0	36	0	678428672	62	4294
2026-01-19 00:23:14.54	50.69	59.47	-45.4	-46.7	21.0	0.00e+00	0	36	0	680525824	62	4146
2026-01-19 00:23:15.54	51.14	59.82	-44.8	-45.9	21.6	0.00e+00	0	36	0	681574400	61	4027
2026-01-19 00:23:16.55	51.61	60.17	-44.1	-45.1	22.4	0.00e+00	0	36	0	683671552	60	3885
2026-01-19 00:23:17.56	52.10	60.53	-44.2	-45.2	22.6	0.00e+00	0	36	0	685768704	59	4174
2026-01-19 00:23:18.57	52.60	60.88	-44.2	-45.3	22.6	0.00e+00	0	36	0	687865856	59	4197
2026-01-19 00:23:19.57	53.10	61.23	-43.8	-44.7	23.0	0.00e+00	0	36	0	689963008	59	3954
2026-01-19 00:23:20.58	53.63	61.58	-43.9	-44.9	22.9	0.00e+00	0	36	0	691011584	59	4019
2026-01-19 00:23:21.59	54.17	61.93	-44.0	-45.0	22.7	0.00e+00	0	36	0	693108736	59	4093
2026-01-19 00:23:22.59	54.72	62.28	-44.3	-45.3	22.5	0.00e+00	0	36	0	695205888	59	4238
2026-01-19 00:23:23.60	55.29	62.63	-44.4	-45.5	22.4	0.00e+00	0	36	0	697303040	59	4293
2026-01-19 00:23:24.61	55.88	62.98	-44.4	-45.5	22.3	0.00e+00	0	36	0	698351616	59	4315
2026-01-19 00:23:25.62	56.49	63.33	-44.3	-45.3	22.5	0.00e+00	0	36	0	700448768	59	4231
2026-01-19 00:23:26.63	57.11	63.68	-44.4	-45.5	22.4	0.00e+00	0	36	0	702545920	59	4309
2026-01-19 00:23:27.63	57.75	64.02	-44.7	-45.8	21.8	0.00e+00	0	36	0	704643072	60	4225
2026-01-19 00:23:28.64	58.41	64.37	-45.6	-46.8	20.8	0.00e+00	0	36	0	706740224	61	4486
2026-01-19 00:23:29.65	59.10	64.71	-46.3	-47.7	20.0	0.00e+00	0	37	0	708837376	63	4427
2026-01-19 00:23:30.66	59.80	65.06	-46.7	-48.2	19.4	0.00e+00	0	36	0	709885952	64	4420
2026-01-19 00:23:31.67	60.53	65.40	-47.1	-48.7	18.9	0.00e+00	0	36	0	711983104	64	4697
2026-01-19 00:23:32.68	61.28	65.74	-47.2	-48.7	18.9	0.00e+00	0	36	0	714080256	65	4441
2026-01-19 00:23:33.68	62.04	66.07	-47.0	-48.6	19.1	0.00e+00	0	36	0	716177408	65	4356
2026-01-19 00:23:34.69	62.83	66.40	-46.9	-48.4	19.2	0.00e+00	0	36	0	718274560	65	4271
2026-01-19 00:23:35.70	63.65	66.74	-47.1	-48.6	19.0	0.00e+00	0	37	0	719323136	65	4390
2026-01-19 00:23:36.71	64.50	67.06	-47.1	-48.7	19.0	0.00e+00	0	36	0	721420288	65	4402
2026-01-19 00:23:37.71	65.36	67.39	-47.4	-49.0	18.6	0.00e+00	0	36	0	723517440	65	4589
2026-01-19 00:23:38.72	66.26	67.71	-47.5	-49.2	18.6	0.00e+00	0	36	0	725614592	65	4656
2026-01-19 00:23:39.73	67.19	68.02	-47.3	-48.9	18.7	0.00e+00	0	36	0	726663168	65	4543
2026-01-19 00:23:40.74	68.15	68.34	-47.3	-48.9	18.8	0.00e+00	0	36	0	728760320	65	4512
2026-01-19 00:23:41.75	69.14	68.64	-47.3	-48.9	18.7	0.00e+00	0	36	0	730857472	65	4544
2026-01-19 00:23:42.75	70.15	68.94	-47.4	-49.1	18.6	0.00e+00	0	36	0	732954624	65	4621
2026-01-19 00:23:43.76	71.20	69.24	-47.0	-48.6	19.1	0.00e+00	0	36	0	735051776	65	4352
2026-01-19 00:23:44.77	72.28	69.54	-47.2	-48.7	19.0	0.00e+00	0	36	0	737148928	65	4426
2026-01-19 00:23:45.78	73.39	69.82	-47.6	-49.4	18.4	0.00e+00	0	36	0	738197504	65	4763
2026-01-19 00:23:46.78	74.53	70.10	-47.7	-49.4	18.3	0.00e+00	0	36	0	740294656	65	4794
2026-01-19 00:23:47.79	75.71	70.37	-47.9	-49.7	18.0	0.00e+00	0	36	0	742391808	66	4696
2026-01-19 00:23:48.80	76.93	70.64	-48.4	-50.4	17.3	0.00e+00	0	36	0	744488960	67	4812
2026-01-19 00:23:49.81	78.19	70.90	-48.4	-50.4	17.3	0.00e+00	0	36	0	746586112	67	4790
2026-01-19 00:23:50.82	79.48	71.15	-48.0	-49.8	17.8	0.00e+00	0	36	0	747634688	67	4477
2026-01-19 00:23:51.82	80.79	71.38	-47.9	-49.7	17.9	0.00e+00	0	36	0	749731840	67	4423
2026-01-19 00:23:52.83	82.15	71.62	-47.8	-49.5	18.2	0.00e+00	0	36	0	751828992	67	4311
2026-01-19 00:23:53.84	83.55	71.84	-47.2	-48.8	18.9	0.00e+00	0	36	0	753926144	66	4217
2026-01-19 00:23:54.85	84.99	72.05	-46.8	-48.3	19.3	0.00e+00	0	36	0	756023296	65	4215
2026-01-19 00:23:55.85	86.44	72.25	-47.4	-49.0	18.7	0.00e+00	0	37	0	757071872	65	4590
2026-01-19 00:23:56.86	87.94	72.44	-47.9	-49.7	18.0	0.00e+00	0	37	0	759169024	66	4695
2026-01-19 00:23:57.87	89.48	72.62	-48.2	-50.2	17.5	0.00e+00	0	36	0	761266176	67	4653
2026-01-19 00:23:58.87	91.04	72.79	-48.1	-50.0	17.7	0.00e+00	0	36	0	763363328	67	4575
2026-01-19 00:23:59.88	92.64	72.95	-47.3	-48.9	18.6	0.00e+00	0	36	0	765460480	66	4291
2026-01-19 00:24:00.89	94.27	73.09	-47.0	-48.6	19.1	0.00e+00	0	36	0	766509056	65	4345
2026-01-19 00:24:01.90	95.93	73.22	-46.9	-48.4	19.2	0.00e+00	0	36	0	768606208	65	4288
2026-01-19 00:24:02.91	97.61	73.34	-46.5	-48.0	19.7	0.00e+00	0	36	0	770703360	64	4310
2026-01-19 00:24:03.91	99.31	73.44	-45.9	-47.2	20.5	0.00e+00	0	36	0	772800512	63	4155
2026-01-19 00:24:04.92	101.03	73.53	-46.2	-47.5	20.2	0.00e+00	0	36	0	774897664	63	4309
2026-01-19 00:24:05.93	102.78	73.61	-46.8	-48.3	19.3	0.00e+00	0	37	0	775946240	64	4487
2026-01-19 00:24:06.94	104.55	73.67	-46.7	-48.2	19.4	0.00e+00	0	36	0	778043392	64	4429
2026-01-19 00:24:07.95	106.32	73.71	-46.2	-47.5	20.1	0.00e+00	0	37	0	780140544	64	4094
2026-01-19 00:24:08.95	108.09	73.74	-46.0	-47.2	20.3	0.00e+00	0	36	0	782237696	63	4174
2026-01-19 00:24:09.96	109.88	73.76	-45.9	-47.2	20.6	0.00e+00	0	37	0	784334848	63	4148
2026-01-19 00:24:10.97	111.67	73.76	-46.3	-47.7	20.0	0.00e+00	0	36	0	785383424	63	4414
2026-01-19 00:24:11.97	113.44	73.75	-46.8	-48.3	19.4	0.00e+00	0	37	0	787480576	64	4482
2026-01-19 00:24:12.98	115.22	73.72	-47.0	-48.5	19.1	0.00e+00	0	37	0	789577728	64	4593
2026-01-19 00:24:13.99	117.00	73.67	-47.4	-49.1	18.7	0.00e+00	0	36	0	791674880	65	4617
2026-01-19 00:24:15.00	118.77	73.61	-47.6	-49.3	18.3	0.00e+00	0	36	0	793772032	65	4753
2026-01-19 00:24:16.01	120.52	73.54	-47.6	-49.3	18.4	0.00e+00	0	36	0	794820608	65	4727
2026-01-19 00:24:17.01	122.23	73.45	-47.9	-49.7	18.0	0.00e+00	0	36	0	796917760	66	4674
2026-01-19 00:24:18.02	123.94	73.35	-48.5	-50.5	17.2	0.00e+00	0	36	0	799014912	67	4846
2026-01-19 00:24:19.03	125.63	73.24	-48.8	-50.9	17.0	0.00e+00	0	36	0	801112064	68	4769
2026-01-19 00:24:20.04	127.29	73.11	-48.2	-50.1	17.7	0.00e+00	0	37	0	803209216	68	4342
2026-01-19 00:24:21.05	128.93	72.97	-47.7	-49.5	18.3	0.00e+00	0	36	0	804257792	67	4298
2026-01-19 00:24:22.05	130.52	72.81	-47.8	-49.6	18.1	0.00e+00	0	36	0	806354944	67	4367
2026-01-19 00:24:23.06	132.10	72.65	-48.2	-50.1	17.5	0.00e+00	0	36	0	808452096	67	4648
2026-01-19 00:24:24.07	133.64	72.47	-48.9	-51.2	16.6	0.00e+00	0	37	0	810549248	68	4936
2026-01-19 00:24:25.08	135.15	72.28	-48.7	-50.8	17.0	0.00e+00	0	36	0	812646400	68	4717
2026-01-19 00:24:26.09	136.62	72.07	-48.1	-50.0	17.8	0.00e+00	0	36	0	813694976	68	4302
2026-01-19 00:24:27.09	138.05	71.86	-47.7	-49.5	18.2	0.00e+00	0	36	0	815792128	67	4308
2026-01-19 00:24:28.10	139.45	71.64	-47.3	-48.9	18.8	0.00e+00	0	36	0	817889280	66	4249
2026-01-19 00:24:29.11	140.82	71.41	-46.9	-48.4	19.3	0.00e+00	0	36	0	819986432	65	4270
2026-01-19 00:24:30.12	142.15	71.17	-46.9	-48.5	19.3	0.00e+00	0	36	0	822083584	65	4305
2026-01-19 00:24:31.13	143.44	70.92	-47.9	-49.7	18.0	0.00e+00	0	36	0	823132160	66	4694
2026-01-19 00:24:32.13	144.69	70.67	-48.9	-51.0	16.7	0.00e+00	0	36	0	825229312	68	4849
2026-01-19 00:24:33.14	145.91	70.40	-48.7	-50.8	17.0	0.00e+00	0	37	0	827326464	68	4738
2026-01-19 00:24:34.15	147.10	70.13	-48.5	-50.5	17.4	0.00e+00	0	36	0	829423616	68	4560
2026-01-19 00:24:35.16	148.25	69.85	-48.2	-50.1	17.7	0.00e+00	0	36	0	831520768	68	4360
2026-01-19 00:24:36.17	149.37	69.56	-48.6	-50.6	17.3	0.00e+00	0	36	0	832569344	68	4611
2026-01-19 00:24:37.17	150.45	69.27	-48.7	-50.8	17.0	0.00e+00	0	36	0	834666496	68	4711
2026-01-19 00:24:38.18	151.51	68.98	-48.5	-50.5	17.3	0.00e+00	0	36	0	836763648	68	4585
2026-01-19 00:24:39.19	152.53	68.67	-47.7	-49.4	18.3	0.00e+00	0	36	0	838860800	67	4258
2026-01-19 00:24:40.20	153.52	68.37	-47.8	-49.6	18.1	0.00e+00	0	37	0	840957952	67	4370
2026-01-19 00:24:41.21	154.48	68.05	-48.9	-51.1	16.8	0.00e+00	0	36	0	842006528	68	4900
2026-01-19 00:24:42.21	155.40	67.74	-48.9	-51.0	16.7	0.00e+00	0	36	0	844103680	68	4858
2026-01-19 00:24:43.22	156.31	67.42	-48.6	-50.6	17.3	0.00e+00	0	37	0	846200832	68	4609
2026-01-19 00:24:44.23	157.18	67.09	-48.4	-50.4	17.5	0.00e+00	0	36	0	848297984	68	4496
2026-01-19 00:24:45.23	158.02	66.77	-48.9	-51.0	16.7	0.00e+00	0	36	0	850395136	68	4863
2026-01-19 00:24:46.25	158.86	66.43	-48.4	-50.3	17.5	0.00e+00	0	36	0	852492288	68	4459
2026-01-19 00:24:47.25	159.65	66.10	-46.9	-48.4	19.1	0.00e+00	0	36	0	853540864	65	4286
2026-01-19 00:24:48.26	160.42	65.76	-46.5	-47.9	19.7	0.00e+00	0	36	0	855638016	65	4042
2026-01-19 00:24:49.27	161.17	65.43	-45.9	-47.2	20.5	0.00e+00	0	36	0	857735168	63	4146
2026-01-19 00:24:50.28	161.90	65.08	-45.7	-47.0	20.6	0.00e+00	0	36	0	859832320	63	4080
2026-01-19 00:24:51.29	162.61	64.74	-45.4	-46.6	21.0	0.00e+00	0	36	0	860880896	62	4112
2026-01-19 00:24:52.29	163.29	64.40	-44.0	-45.0	22.5	0.00e+00	0	37	0	862978048	60	3859
2026-01-19 00:24:53.30	163.95	64.05	-43.5	-44.4	23.3	0.00e+00	0	36	0	865075200	59	3821
2026-01-19 00:24:54.31	164.60	63.70	-43.4	-44.3	23.3	0.00e+00	0	36	0	867172352	58	4003
2026-01-19 00:24:55.32	165.23	63.35	-43.6	-44.6	23.1	0.00e+00	0	36	0	869269504	58	4142
2026-01-19 00:24:56.33	165.84	63.00	-43.5	-44.4	23.3	0.00e+00	0	36	0	870318080	58	4046
2026-01-19 00:24:57.33	166.42	62.66	-42.7	-43.6	24.0	0.00e+00	0	37	0	872415232	57	3888
2026-01-19 00:24:58.34	167.00	62.31	-42.4	-43.3	24.2	0.00e+00	0	36	0	874512384	56	3989
2026-01-19 00:24:59.35	167.56	61.95	-42.9	-43.8	23.8	0.00e+00	0	37	0	876609536	56	4205
2026-01-19 00:25:00.36	168.10	61.60	-43.9	-44.9	22.8	0.00e+00	0	36	0	878706688	58	4288
2026-01-19 00:25:01.37	168.63	61.25	-44.4	-45.5	22.0	0.00e+00	0	37	0	880803840	60	4072
2026-01-19 00:25:02.37	169.13	60.90	-44.0	-45.1	22.3	0.00e+00	0	36	0	881852416	60	3890
2026-01-19 00:25:03.38	169.63	60.54	-43.9	-44.9	22.8	0.00e+00	0	36	0	883949568	59	4043
2026-01-19 00:25:04.39	170.12	60.19	-44.1	-45.2	22.5	0.00e+00	0	37	0	886046720	59	4155
2026-01-19 00:25:05.40	170.59	59.84	-45.0	-46.1	21.4	0.00e+00	0	36	0	888143872	60	4377
2026-01-19 00:25:06.40	171.05	59.49	-46.8	-48.3	19.3	0.00e+00	0	37	0	889192448	64	4492
2026-01-19 00:25:07.41	171.50	59.14	-48.4	-50.5	17.2	0.00e+00	0	36	0	891289600	67	4828
2026-01-19 00:25:08.42	171.93	58.79	-47.8	-49.6	17.8	0.00e+00	0	36	0	893386752	67	4390
2026-01-19 00:25:09.43	172.36	58.44	-46.3	-47.6	19.9	0.00e+00	0	36	0	895483904	64	4143
2026-01-19 00:25:10.44	172.77	58.08	-45.7	-46.9	20.6	0.00e+00	0	37	0	897581056	63	4031
2026-01-19 00:25:11.45	173.17	57.74	-46.2	-47.5	20.2	0.00e+00	0	36	0	899678208	63	4314
2026-01-19 00:25:12.45	173.56	57.39	-47.1	-48.7	18.9	0.00e+00	0	36	0	900726784	64	4666
2026-01-19 00:25:13.46	173.95	57.04	-47.7	-49.5	18.1	0.00e+00	0	36	0	902823936	65	4836
2026-01-19 00:25:14.47	174.32	56.70	-47.2	-48.8	18.8	0.00e+00	0	37	0	904921088	66	4208
2026-01-19 00:25:15.48	174.69	56.35	-46.1	-47.4	20.1	0.00e+00	0	37	0	907018240	64	4031
2026-01-19 00:25:16.49	175.04	56.00	-45.9	-47.2	20.4	0.00e+00	0	36	0	909115392	63	4158
2026-01-19 00:25:17.50	175.39	55.66	-45.2	-46.4	21.2	0.00e+00	0	37	0	910163968	62	4020
2026-01-19 00:25:18.50	175.73	55.32	-45.6	-46.8	20.8	0.00e+00	0	36	0	912261120	62	4230
2026-01-19 00:25:19.51	176.06	54.98	-45.7	-47.0	20.6	0.00e+00	0	36	0	914358272	62	4340
2026-01-19 00:25:20.52	176.38	54.64	-44.5	-45.6	21.8	0.00e+00	0	36	0	916455424	61	3890
2026-01-19 00:25:21.53	176.70	54.30	-43.7	-44.6	23.0	0.00e+00	0	36	0	917504000	59	3912
2026-01-19 00:25:22.53	177.00	53.97	-43.3	-44.2	23.4	0.00e+00	0	36	0	919601152	58	3934
2026-01-19 00:25:23.54	177.30	53.63	-43.1	-44.0	23.5	0.00e+00	0	36	0	921698304	58	3861
2026-01-19 00:25:24.55	177.60	53.30	-43.9	-45.0	22.8	0.00e+00	0	36	0	923795456	58	4297
2026-01-19 00:25:25.56	177.89	52.96	-44.4	-45.6	22.0	0.00e+00	0	36	0	925892608	60	4099
2026-01-19 00:25:26.57	178.17	52.63	-44.8	-46.0	21.5	0.00e+00	0	36	0	927989760	60	4310
2026-01-19 00:25:27.58	178.45	52.30	-44.8	-45.9	21.7	0.00e+00	0	36	0	929038336	60	4269
2026-01-19 00:25:28.58	178.71	51.98	-44.5	-45.6	21.9	0.00e+00	0	36	0	931135488	60	4105
2026-01-19 00:25:29.59	178.98	51.65	-44.5	-45.6	21.9	0.00e+00	0	36	0	933232640	60	4125
2026-01-19 00:25:30.60	179.24	51.33	-44.8	-45.9	21.6	0.00e+00	0	37	0	935329792	60	4248
2026-01-19 00:25:31.61	179.49	51.00	-45.4	-46.6	20.9	0.00e+00	0	36	0	937426944	61	4390
2026-01-19 00:25:32.61	179.73	50.68	-46.9	-48.4	19.1	0.00e+00	0	36	0	938475520	64	4539
2026-01-19 00:25:33.62	179.98	50.36	-49.2	-51.3	16.7	0.00e+00	0	37	0	940572672	68	5038
2026-01-19 00:25:34.63	180.21	50.05	-49.9	-52.7	15.0	0.00e+00	0	36	0	942669824	70	5224
2026-01-19 00:25:35.63	180.44	49.73	-49.3	-51.7	15.9	0.00e+00	0	36	0	944766976	70	4697
2026-01-19 00:25:36.64	180.67	49.42	-48.8	-51.0	16.7	0.00e+00	0	37	0	946864128	69	4584
2026-01-19 00:25:37.65	180.90	49.10	-48.4	-50.4	17.3	0.00e+00	0	36	0	947912704	68	4509
2026-01-19 00:25:38.66	181.12	48.79	-48.4	-50.3	17.4	0.00e+00	0	36	0	950009856	68	4471
2026-01-19 00:25:39.67	181.33	48.48	-48.3	-50.2	17.5	0.00e+00	0	36	0	952107008	68	4421
2026-01-19 00:25:40.67	181.54	48.18	-48.1	-50.0	17.7	0.00e+00	0	36	0	954204160	68	4326
2026-01-19 00:25:41.68	181.75	47.87	-48.1	-49.9	17.6	0.00e+00	0	36	0	956301312	68	4269
2026-01-19 00:25:42.69	181.95	47.57	-48.6	-50.7	17.0	0.00e+00	0	36	0	957349888	68	4680
2026-01-19 00:25:43.70	182.15	47.26	-49.2	-51.6	16.1	0.00e+00	0	37	0	959447040	69	4900
2026-01-19 00:25:44.71	182.34	46.96	-49.0	-51.4	16.3	0.00e+00	0	36	0	961544192	69	4766
2026-01-19 00:25:45.72	182.54	46.66	-48.1	-50.0	17.6	0.00e+00	0	36	0	963641344	68	4338
2026-01-19 00:25:46.72	182.72	46.37	-47.3	-48.9	18.6	0.00e+00	0	37	0	965738496	66	4268
2026-01-19 00:25:47.73	182.91	46.07	-47.0	-48.5	19.0	0.00e+00	0	37	0	967835648	66	4066
2026-01-19 00:25:48.74	183.09	45.78	-46.5	-47.9	19.6	0.00e+00	0	36	0	968884224	64	4257
2026-01-19 00:25:49.75	183.27	45.49	-47.0	-48.6	18.8	0.00e+00	0	37	0	970981376	64	4642
2026-01-19 00:25:50.75	183.44	45.20	-47.8	-49.6	17.9	0.00e+00	0	36	0	973078528	66	4650
2026-01-19 00:25:51.76	183.61	44.91	-47.9	-49.8	17.6	0.00e+00	0	36	0	975175680	66	4758
2026-01-19 00:25:52.77	183.78	44.63	-47.5	-49.3	18.2	0.00e+00	0	36	0	976224256	66	4457
2026-01-19 00:25:53.78	183.95	44.34	-47.0	-48.7	18.9	0.00e+00	0	37	0	978321408	66	4156
2026-01-19 00:25:54.79	184.11	44.06	-46.6	-48.1	19.4	0.00e+00	0	36	0	980418560	65	4132
2026-01-19 00:25:55.79	184.27	43.78	-46.3	-47.7	19.7	0.00e+00	0	36	0	982515712	64	4185
2026-01-19 00:25:56.80	184.43	43.50	-45.7	-47.0	20.5	0.00e+00	0	36	0	984612864	63	4082
2026-01-19 00:25:57.81	184.58	43.22	-45.1	-46.3	21.2	0.00e+00	0	37	0	985661440	62	3965
2026-01-19 00:25:58.82	184.73	42.95	-44.6	-45.7	21.7	0.00e+00	0	36	0	987758592	61	3948
2026-01-19 00:25:59.82	184.88	42.68	-44.7	-45.8	21.6	0.00e+00	0	36	0	989855744	61	3992
2026-01-19 00:26:00.83	185.03	42.41	-45.6	-46.9	20.6	0.00e+00	0	36	0	991952896	61	4516
2026-01-19 00:26:01.84	185.17	42.13	-46.8	-48.3	19.1	0.00e+00	0	36	0	994050048	64	4478
2026-01-19 00:26:02.85	185.32	41.87	-48.1	-50.1	17.4	0.00e+00	0	37	0	996147200	66	4887
2026-01-19 00:26:03.85	185.46	41.60	-48.6	-50.9	16.6	0.00e+00	0	36	0	997195776	67	5051
2026-01-19 00:26:04.86	185.59	41.34	-48.2	-50.2	17.2	0.00e+00	0	37	0	999292928	67	4705
2026-01-19 00:26:05.87	185.73	41.07	-46.8	-48.3	19.1	0.00e+00	0	36	0	1001390080	65	4238
2026-01-19 00:26:06.88	185.87	40.81	-46.1	-47.4	20.1	0.00e+00	0	36	0	1003487232	63	4260
2026-01-19 00:26:07.89	186.00	40.55	-45.6	-46.8	20.6	0.00e+00	0	36	0	1004535808	63	3970
2026-01-19 00:26:08.89	186.13	40.30	-45.0	-46.2	21.2	0.00e+00	0	36	0	1006632960	62	3928
2026-01-19 00:26:09.90	186.25	40.04	-44.9	-46.0	21.3	0.00e+00	0	36	0	1008730112	61	4084
2026-01-19 00:26:10.91	186.38	39.79	-45.4	-46.6	20.9	0.00e+00	0	36	0	1010827264	61	4356
2026-01-19 00:26:11.91	186.50	39.53	-46.2	-47.6	19.8	0.00e+00	0	36	0	1012924416	63	4384
2026-01-19 00:26:12.92	186.62	39.28	-46.9	-48.5	18.9	0.00e+00	0	36	0	1013972992	64	4592
2026-01-19 00:26:13.93	186.75	39.03	-47.9	-49.8	17.8	0.00e+00	0	37	0	1016070144	66	4711
2026-01-19 00:26:14.94	186.86	38.79	-48.2	-50.2	17.3	0.00e+00	0	36	0	1018167296	66	4937
2026-01-19 00:26:15.95	186.98	38.54	-48.0	-50.0	17.5	0.00e+00	0	36	0	1020264448	66	4816
2026-01-19 00:26:16.96	187.10	38.29	-47.8	-49.7	17.8	0.00e+00	0	37	0	1022361600	66	4668
2026-01-19 00:26:17.96	187.21	38.05	-46.9	-48.5	18.8	0.00e+00	0	36	0	1024458752	65	4325
2026-01-19 00:26:18.97	187.32	37.81	-46.6	-48.1	19.2	0.00e+00	0	37	0	1025507328	65	4127
2026-01-19 00:26:19.98	187.43	37.57	-46.4	-47.9	19.5	0.00e+00	0	36	0	1027604480	64	4245
2026-01-19 00:26:20.99	187.54	37.33	-46.1	-47.5	19.9	0.00e+00	0	37	0	1029701632	64	4074
2026-01-19 00:26:21.99	187.65	37.10	-46.1	-47.4	19.9	0.00e+00	0	36	0	1031798784	64	4050
2026-01-19 00:26:23.00	187.75	36.87	-46.4	-47.8	19.7	0.00e+00	0	37	0	1032847360	63	4469
2026-01-19 00:26:24.01	187.86	36.63	-46.6	-48.1	19.4	0.00e+00	0	36	0	1034944512	63	4607
2026-01-19 00:26:25.02	187.96	36.40	-46.6	-48.1	19.3	0.00e+00	0	36	0	1037041664	64	4374
2026-01-19 00:26:26.03	188.06	36.17	-46.9	-48.5	18.9	0.00e+00	0	36	0	1039138816	64	4561
2026-01-19 00:26:27.03	188.16	35.94	-47.2	-48.9	18.5	0.00e+00	0	36	0	1041235968	65	4515
2026-01-19 00:26:28.04	188.26	35.72	-47.4	-49.2	18.2	0.00e+00	0	36	0	1043333120	65	4669
2026-01-19 00:26:29.05	188.36	35.49	-47.7	-49.5	17.9	0.00e+00	0	36	0	1044381696	65	4856
2026-01-19 00:26:30.06	188.46	35.26	-47.9	-49.9	17.6	0.00e+00	0	36	0	1046478848	66	4769
2026-01-19 00:26:31.07	188.55	35.04	-47.9	-49.8	17.6	0.00e+00	0	36	0	1048576000	66	4741
2026-01-19 00:26:32.07	188.64	34.82	-47.7	-49.6	17.8	0.00e+00	0	36	0	1050673152	66	4632
2026-01-19 00:26:33.08	188.74	34.60	-47.6	-49.4	18.0	0.00e+00	0	36	0	1052770304	66	4495
2026-01-19 00:26:34.09	188.83	34.38	-47.3	-49.0	18.3	0.00e+00	0	36	0	1053818880	66	4331
2026-01-19 00:26:35.09	188.92	34.17	-47.3	-48.9	18.5	0.00e+00	0	36	0	1055916032	66	4291
2026-01-19 00:26:36.10	189.01	33.95	-47.2	-48.9	18.5	0.00e+00	0	36	0	1058013184	66	4263
2026-01-19 00:26:37.11	189.09	33.74	-47.3	-49.0	18.4	0.00e+00	0	36	0	1060110336	66	4293
2026-01-19 00:26:38.12	189.18	33.53	-47.4	-49.1	18.2	0.00e+00	0	37	0	1061158912	66	4385
2026-01-19 00:26:39.13	189.27	33.32	-47.4	-49.1	18.3	0.00e+00	0	36	0	1063256064	66	4361
2026-01-19 00:26:40.13	189.35	33.11	-47.4	-49.1	18.2	0.00e+00	0	37	0	1065353216	66	4376
2026-01-19 00:26:41.14	189.44	32.90	-47.5	-49.2	18.1	0.00e+00	0	37	0	1067450368	66	4413
2026-01-19 00:26:42.15	189.52	32.69	-47.5	-49.3	18.0	0.00e+00	0	36	0	1069547520	66	4463
2026-01-19 00:26:43.16	189.60	32.49	-47.7	-49.5	17.9	0.00e+00	0	36	0	1071644672	66	4562
2026-01-19 00:26:44.17	189.68	32.28	-47.8	-49.7	17.6	0.00e+00	0	36	0	1072693248	66	4659
2026-01-19 00:26:45.17	189.76	32.08	-48.0	-49.9	17.5	0.00e+00	0	36	0	1074790400	66	4788
2026-01-19 00:26:46.18	189.84	31.88	-48.1	-50.0	17.3	0.00e+00	0	37	0	1076887552	66	4853
2026-01-19 00:26:47.19	189.92	31.68	-48.2	-50.2	17.2	0.00e+00	0	36	0	1078984704	66	4970
2026-01-19 00:26:48.20	190.00	31.48	-48.2	-50.3	17.0	0.00e+00	0	36	0	1081081856	67	4724
2026-01-19 00:26:49.21	190.07	31.28	-48.2	-50.3	17.0	0.00e+00	0	36	0	1082130432	67	4718
2026-01-19 00:26:50.21	190.15	31.09	-48.3	-50.4	17.0	0.00e+00	0	36	0	1084227584	67	4765
2026-01-19 00:26:51.22	190.22	30.89	-48.3	-50.4	17.0	0.00e+00	0	37	0	1086324736	67	4771
2026-01-19 00:26:52.23	190.29	30.70	-48.2	-50.3	17.1	0.00e+00	0	36	0	1088421888	67	4725
2026-01-19 00:26:53.24	190.37	30.50	-48.0	-50.0	17.3	0.00e+00	0	37	0	1090519040	67	4584
2026-01-19 00:26:54.25	190.44	30.31	-47.9	-49.8	17.5	0.00e+00	0	36	0	1091567616	67	4444
2026-01-19 00:26:55.26	190.51	30.12	-47.6	-49.4	17.9	0.00e+00	0	36	0	1093664768	67	4254
2026-01-19 00:26:56.27	190.58	29.93	-47.4	-49.1	18.2	0.00e+00	0	36	0	1095761920	66	4374
2026-01-19 00:26:57.27	190.65	29.75	-47.2	-48.8	18.4	0.00e+00	0	36	0	1097859072	66	4242
2026-01-19 00:26:58.28	190.72	29.56	-46.9	-48.6	18.7	0.00e+00	0	36	0	1099956224	65	4346
2026-01-19 00:26:59.29	190.79	29.37	-46.9	-48.4	18.8	0.00e+00	0	36	0	1101004800	65	4290
2026-01-19 00:27:00.30	190.86	29.19	-46.5	-47.9	19.3	0.00e+00	0	37	0	1103101952	64	4286
2026-01-19 00:27:01.31	190.92	29.01	-46.4	-47.9	19.4	0.00e+00	0	36	0	1105199104	64	4249
2026-01-19 00:27:02.32	190.99	28.82	-46.3	-47.7	19.5	0.00e+00	0	36	0	1107296256	64	4180
2026-01-19 00:27:03.32	191.05	28.64	-46.3	-47.8	19.4	0.00e+00	0	37	0	1109393408	64	4225
2026-01-19 00:27:04.33	191.12	28.46	-46.1	-47.6	19.7	0.00e+00	0	36	0	1110441984	64	4101
2026-01-19 00:27:05.34	191.18	28.29	-46.1	-47.5	19.7	0.00e+00	0	37	0	1112539136	64	4087
2026-01-19 00:27:06.35	191.25	28.11	-46.0	-47.4	19.7	0.00e+00	0	36	0	1114636288	64	4043
2026-01-19 00:27:07.35	191.31	27.93	-46.0	-47.4	19.7	0.00e+00	0	36	0	1116733440	64	4037
2026-01-19 00:27:08.36	191.37	27.76	-46.0	-47.4	19.8	0.00e+00	0	36	0	1118830592	64	4023
2026-01-19 00:27:09.37	191.43	27.58	-46.2	-47.6	19.7	0.00e+00	0	37	0	1119879168	63	4379
2026-01-19 00:27:10.38	191.49	27.41	-46.1	-47.5	19.8	0.00e+00	0	36	0	1121976320	63	4330
2026-01-19 00:27:11.39	191.55	27.24	-46.2	-47.6	19.6	0.00e+00	0	36	0	1124073472	63	4388
2026-01-19 00:27:12.39	191.61	27.07	-46.2	-47.7	19.6	0.00e+00	0	37	0	1126170624	63	4397
2026-01-19 00:27:13.40	191.67	26.90	-46.3	-47.7	19.6	0.00e+00	0	36	0	1128267776	63	4426
2026-01-19 00:27:14.41	191.73	26.73	-46.2	-47.7	19.6	0.00e+00	0	36	0	1129316352	63	4414
2026-01-19 00:27:15.42	191.79	26.56	-46.2	-47.7	19.6	0.00e+00	0	37	0	1131413504	63	4422
2026-01-19 00:27:16.43	191.84	26.39	-46.3	-47.7	19.6	0.00e+00	0	37	0	1133510656	63	4419
2026-01-19 00:27:17.43	191.90	26.23	-46.2	-47.6	19.6	0.00e+00	0	36	0	1135607808	63	4391
2026-01-19 00:27:18.44	191.96	26.06	-46.3	-47.7	19.6	0.00e+00	0	37	0	1137704960	63	4438
2026-01-19 00:27:19.45	192.01	25.90	-46.2	-47.6	19.7	0.00e+00	0	37	0	1138753536	63	4375
2026-01-19 00:27:20.46	192.07	25.74	-46.2	-47.7	19.6	0.00e+00	0	36	0	1140850688	63	4405
2026-01-19 00:27:21.47	192.12	25.57	-46.2	-47.6	19.7	0.00e+00	0	37	0	1142947840	63	4370
2026-01-19 00:27:22.47	192.18	25.41	-46.0	-47.4	19.9	0.00e+00	0	36	0	1145044992	63	4244
2026-01-19 00:27:23.48	192.23	25.25	-45.8	-47.2	20.1	0.00e+00	0	36	0	1147142144	63	4165
2026-01-19 00:27:24.49	192.28	25.09	-45.8	-47.1	20.1	0.00e+00	0	36	0	1148190720	63	4139
2026-01-19 00:27:25.49	192.33	24.94	-45.7	-47.1	20.2	0.00e+00	0	36	0	1150287872	63	4118
2026-01-19 00:27:26.50	192.39	24.78	-45.7	-47.0	20.2	0.00e+00	0	37	0	1152385024	63	4097
2026-01-19 00:27:27.51	192.44	24.62	-45.7	-47.1	20.2	0.00e+00	0	37	0	1154482176	63	4102
2026-01-19 00:27:28.52	192.49	24.47	-45.5	-46.9	20.4	0.00e+00	0	37	0	1156579328	63	4010
2026-01-19 00:27:29.52	192.54	24.31	-45.6	-46.9	20.3	0.00e+00	0	37	0	1157627904	62	4252
2026-01-19 00:27:30.53	192.59	24.16	-45.6	-47.0	20.2	0.00e+00	0	37	0	1159725056	62	4310
2026-01-19 00:27:31.54	192.64	24.01	-45.6	-47.0	20.2	0.00e+00	0	37	0	1161822208	62	4313
2026-01-19 00:27:32.55	192.69	23.85	-45.7	-47.0	20.2	0.00e+00	0	37	0	1163919360	62	4330
2026-01-19 00:27:33.55	192.74	23.70	-45.6	-46.9	20.3	0.00e+00	0	36	0	1166016512	62	4271
2026-01-19 00:27:34.56	192.79	23.55	-45.5	-46.8	20.4	0.00e+00	0	37	0	1167065088	62	4242
2026-01-19 00:27:35.57	192.83	23.40	-45.6	-46.9	20.3	0.00e+00	0	36	0	1169162240	62	4291
2026-01-19 00:27:36.58	192.88	23.26	-45.4	-46.7	20.5	0.00e+00	0	36	0	1171259392	62	4179
2026-01-19 00:27:37.59	192.93	23.11	-45.4	-46.7	20.5	0.00e+00	0	37	0	1173356544	62	4181
2026-01-19 00:27:38.59	192.98	22.96	-45.3	-46.6	20.6	0.00e+00	0	36	0	1175453696	62	4108
2026-01-19 00:27:39.60	193.02	22.82	-45.2	-46.4	20.8	0.00e+00	0	36	0	1176502272	62	4049
2026-01-19 00:27:40.61	193.07	22.67	-45.2	-46.5	20.7	0.00e+00	0	37	0	1178599424	61	4297
2026-01-19 00:27:41.62	193.11	22.53	-45.2	-46.5	20.6	0.00e+00	0	36	0	1180696576	61	4323
2026-01-19 00:27:42.62	193.16	22.38	-45.1	-46.4	20.8	0.00e+00	0	36	0	1182793728	61	4250
2026-01-19 00:27:43.63	193.20	22.24	-45.1	-46.4	20.7	0.00e+00	0	36	0	1184890880	61	4243
2026-01-19 00:27:44.64	193.25	22.10	-45.1	-46.3	20.8	0.00e+00	0	36	0	1186988032	61	4213
2026-01-19 00:27:45.65	193.29	21.96	-45.1	-46.3	20.8	0.00e+00	0	37	0	1188036608	61	4217
2026-01-19 00:27:46.66	193.34	21.82	-45.1	-46.4	20.7	0.00e+00	0	36	0	1190133760	61	4257
2026-01-19 00:27:47.67	193.38	21.68	-45.2	-46.4	20.7	0.00e+00	0	37	0	1192230912	61	4279
2026-01-19 00:27:48.68	193.42	21.54	-45.1	-46.4	20.7	0.00e+00	0	36	0	1194328064	61	4253
2026-01-19 00:27:49.68	193.46	21.40	-45.1	-46.3	20.8	0.00e+00	0	37	0	1195376640	61	4228
2026-01-19 00:27:50.69	193.51	21.26	-45.2	-46.5	20.3	0.00e+00	0	36	0	1197473792	61	4306
2026-01-19 00:27:51.70	193.55	21.12	-45.2	-46.5	20.6	0.00e+00	0	36	0	1199570944	61	4312
2026-01-19 00:27:52.71	193.59	20.99	-45.3	-46.6	20.5	0.00e+00	0	36	0	1201668096	61	4346
2026-01-19 00:27:53.72	193.63	20.85	-45.3	-46.6	20.5	0.00e+00	0	37	0	1203765248	61	4352
2026-01-19 00:27:54.73	193.67	20.72	-45.4	-46.7	20.4	0.00e+00	0	36	0	1204813824	61	4392
2026-01-19 00:27:55.73	193.71	20.58	-45.4	-46.7	20.4	0.00e+00	0	36	0	1206910976	61	4414
2026-01-19 00:27:56.74	193.75	20.45	-45.5	-46.8	20.3	0.00e+00	0	36	0	1209008128	61	4457
2026-01-19 00:27:57.75	193.79	20.32	-45.5	-46.9	20.2	0.00e+00	0	36	0	1211105280	61	4501
2026-01-19 00:27:58.76	193.83	20.19	-45.6	-47.0	20.1	0.00e+00	0	36	0	1213202432	61	4551
2026-01-19 00:27:59.77	193.87	20.05	-45.6	-46.9	20.2	0.00e+00	0	36	0	1215299584	61	4531
2026-01-19 00:28:00.77	193.91	19.92	-45.6	-46.9	20.2	0.00e+00	0	36	0	1216348160	61	4533
2026-01-19 00:28:01.78	193.95	19.79	-45.6	-47.0	20.1	0.00e+00	0	36	0	1218445312	61	4573
2026-01-19 00:28:02.79	193.99	19.67	-45.7	-47.1	20.0	0.00e+00	0	36	0	1220542464	62	4358
2026-01-19 00:28:03.79	194.03	19.54	-45.8	-47.2	19.9	0.00e+00	0	36	0	1222639616	62	4406
2026-01-19 00:28:04.80	194.07	19.41	-45.8	-47.2	20.0	0.00e+00	0	36	0	1223688192	62	4394
2026-01-19 00:28:05.81	194.10	19.28	-45.8	-47.2	19.9	0.00e+00	0	37	0	1225785344	62	4424
2026-01-19 00:28:06.82	194.14	19.16	-45.8	-47.3	19.9	0.00e+00	0	36	0	1227882496	62	4444
2026-01-19 00:28:07.83	194.18	19.03	-45.9	-47.3	19.8	0.00e+00	0	36	0	1229979648	62	4445
2026-01-19 00:28:08.84	194.22	18.90	-45.8	-47.1	19.9	0.00e+00	0	37	0	1232076800	62	4378
2026-01-19 00:28:09.85	194.25	18.78	-45.8	-47.1	20.0	0.00e+00	0	37	0	1234173952	62	4384
2026-01-19 00:28:10.85	194.29	18.66	-45.8	-47.2	19.9	0.00e+00	0	37	0	1235222528	62	4396
2026-01-19 00:28:11.86	194.32	18.53	-45.8	-47.2	19.8	0.00e+00	0	37	0	1237319680	62	4434
2026-01-19 00:28:12.87	194.36	18.41	-45.8	-47.2	19.9	0.00e+00	0	36	0	1239416832	62	4403
2026-01-19 00:28:13.88	194.40	18.29	-45.8	-47.2	19.9	0.00e+00	0	36	0	1241513984	62	4416
2026-01-19 00:28:14.89	194.43	18.16	-45.9	-47.3	19.8	0.00e+00	0	36	0	1243611136	62	4445
2026-01-19 00:28:15.89	194.47	18.04	-45.8	-47.2	19.9	0.00e+00	0	37	0	1244659712	62	4399
2026-01-19 00:28:16.90	194.50	17.92	-45.9	-47.3	19.8	0.00e+00	0	36	0	1246756864	62	4456
2026-01-19 00:28:17.91	194.53	17.80	-45.9	-47.3	19.8	0.00e+00	0	36	0	1248854016	62	4456
2026-01-19 00:28:18.92	194.57	17.68	-45.8	-47.2	19.8	0.00e+00	0	36	0	1250951168	62	4437
2026-01-19 00:28:19.93	194.60	17.56	-46.1	-47.5	19.5	0.00e+00	0	36	0	1251999744	62	4571
2026-01-19 00:28:20.93	194.64	17.45	-45.9	-47.3	19.8	0.00e+00	0	37	0	1254096896	62	4465
2026-01-19 00:28:21.94	194.67	17.33	-46.0	-47.4	19.7	0.00e+00	0	36	0	1256194048	62	4522
2026-01-19 00:28:22.95	194.70	17.21	-46.1	-47.5	19.5	0.00e+00	0	36	0	1258291200	62	4570
2026-01-19 00:28:23.96	194.74	17.10	-46.1	-47.5	19.5	0.00e+00	0	37	0	1260388352	62	4578
2026-01-19 00:28:24.96	194.77	16.98	-46.1	-47.6	19.5	0.00e+00	0	37	0	1262485504	62	4609
2026-01-19 00:28:25.97	194.80	16.86	-46.1	-47.6	19.4	0.00e+00	0	37	0	1263534080	63	4370
2026-01-19 00:28:26.98	194.83	16.75	-46.2	-47.7	19.4	0.00e+00	0	36	0	1265631232	63	4417
2026-01-19 00:28:27.99	194.87	16.64	-46.2	-47.7	19.3	0.00e+00	0	37	0	1267728384	63	4429
2026-01-19 00:28:29.00	194.90	16.52	-46.2	-47.7	19.4	0.00e+00	0	37	0	1269825536	63	4394
2026-01-19 00:28:30.01	194.93	16.41	-46.2	-47.7	19.3	0.00e+00	0	36	0	1271922688	63	4439
