passes_logs/2026/01/19/R3.2S_Murmansk/R3.2S_Murmansk__20260119_235804_NOAA_20_JPSS-1_rec.log

#Pass ID: 20260119_235804_NOAA 20 (JPSS-1)
#Satellite: NOAA 20 (JPSS-1)
#Configuration: NOAA 20
#almurnet v.1.7.20251203
#Start time: 2026-01-19 23:58:06

#Version: 2.2.20231116
#Station: R3.2S_Murmansk
#Location: 33.079688 lon 68.888172 lat
#TLE: 1 43013U 17073A   26019.27717929  .00000087  00000+0  62288-4 0  9995
#TLE: 2 43013  98.7641 320.1715 0001339  33.1986 326.9274 14.19537047423343

#Time	Az	El	Level	Level2	SNR	BER	BlckErr	Temp	State	Recorded	gain1	gain2
2026-01-19 23:58:06.85	22.15	2.12	-51.9	-64.6	3.8	1.48e+00	0	37	0	0	75	15503
2026-01-19 23:58:07.85	22.17	2.18	-51.9	-64.6	3.8	1.49e+00	0	37	104	0	74	16367
2026-01-19 23:58:08.85	22.20	2.25	-51.9	-64.8	3.9	1.46e+00	0	37	104	0	74	16695
2026-01-19 23:58:09.86	22.22	2.31	-51.9	-64.9	3.8	1.49e+00	0	37	104	0	74	16908
2026-01-19 23:58:10.87	22.24	2.38	-51.8	-64.0	4.0	1.48e+00	0	37	0	0	74	15401
2026-01-19 23:58:11.88	22.27	2.44	-51.9	-64.8	3.8	1.49e+00	0	37	104	0	74	16715
2026-01-19 23:58:12.89	22.29	2.50	-51.8	-64.4	3.8	1.49e+00	0	37	104	0	74	16043
2026-01-19 23:58:13.90	22.32	2.57	-51.8	-63.9	4.1	1.48e+00	0	37	104	0	74	15123
2026-01-19 23:58:14.91	22.34	2.63	-51.8	-63.4	4.2	1.40e+00	0	37	0	0	74	14247
2026-01-19 23:58:15.92	22.37	2.70	-51.7	-62.9	4.3	1.41e+00	13	37	0	0	74	13437
2026-01-19 23:58:16.92	22.39	2.76	-51.7	-62.6	4.4	1.26e+00	127	37	0	1048576	74	13031
2026-01-19 23:58:17.93	22.41	2.83	-51.7	-62.4	4.5	1.03e+00	5	37	0	3145728	74	12674
2026-01-19 23:58:18.94	22.44	2.89	-51.6	-61.3	5.0	8.58e-01	0	37	0	5242880	74	11182
2026-01-19 23:58:19.95	22.46	2.96	-51.6	-61.5	4.9	6.53e-01	0	37	0	7340032	74	11432
2026-01-19 23:58:20.95	22.49	3.02	-51.6	-61.4	5.0	7.61e-01	0	37	0	9437184	74	11327
2026-01-19 23:58:21.96	22.51	3.09	-51.6	-61.1	5.1	6.06e-01	0	37	0	10485760	74	11005
2026-01-19 23:58:22.97	22.54	3.16	-51.6	-61.2	5.1	6.73e-01	0	37	0	12582912	74	11124
2026-01-19 23:58:23.98	22.57	3.22	-51.4	-60.2	5.7	5.26e-01	0	37	0	14680064	74	9916
2026-01-19 23:58:24.99	22.59	3.29	-51.5	-60.4	5.6	4.64e-01	0	38	0	16777216	74	10084
2026-01-19 23:58:25.99	22.62	3.35	-51.4	-59.9	5.9	3.47e-01	0	37	0	17825792	74	9584
2026-01-19 23:58:27.00	22.64	3.42	-51.3	-59.1	6.6	3.07e-01	0	37	0	19922944	74	8732
2026-01-19 23:58:28.01	22.67	3.49	-51.2	-58.6	7.0	2.50e-01	0	37	0	22020096	74	8269
2026-01-19 23:58:29.02	22.69	3.56	-51.0	-57.9	7.7	1.08e-01	0	38	0	24117248	74	7623
2026-01-19 23:58:30.03	22.72	3.62	-50.9	-57.3	8.3	7.44e-02	0	37	0	26214400	73	7514
2026-01-19 23:58:31.03	22.74	3.69	-50.7	-56.5	9.1	4.74e-02	0	38	0	27262976	73	6877
2026-01-19 23:58:32.04	22.77	3.76	-50.3	-55.5	10.2	8.46e-03	0	37	0	29360128	72	6439
2026-01-19 23:58:33.05	22.80	3.82	-50.2	-55.1	10.6	2.71e-03	0	38	0	31457280	72	6149
2026-01-19 23:58:34.06	22.82	3.89	-49.6	-53.5	12.4	2.24e-03	0	37	0	33554432	71	5412
2026-01-19 23:58:35.07	22.85	3.96	-49.7	-53.8	12.0	4.03e-04	0	38	0	35651584	71	5653
2026-01-19 23:58:36.08	22.88	4.03	-49.9	-54.2	11.7	1.20e-04	0	37	0	37748736	70	6203
2026-01-19 23:58:37.09	22.90	4.10	-49.9	-54.2	11.6	1.03e-03	0	37	0	38797312	70	6227
2026-01-19 23:58:38.09	22.93	4.16	-49.3	-53.0	12.9	9.15e-05	0	37	0	40894464	70	5427
2026-01-19 23:58:39.10	22.96	4.23	-49.7	-53.9	12.0	2.55e-04	0	38	0	42991616	70	6008
2026-01-19 23:58:40.11	22.98	4.30	-49.6	-53.6	12.3	2.06e-04	0	37	0	45088768	70	5795
2026-01-19 23:58:41.12	23.01	4.37	-49.8	-54.1	11.7	4.04e-04	0	37	0	46137344	70	6184
2026-01-19 23:58:42.13	23.04	4.44	-50.1	-54.6	11.2	9.60e-04	0	38	0	48234496	70	6570
2026-01-19 23:58:43.14	23.06	4.51	-50.3	-55.2	10.6	2.29e-03	0	38	0	50331648	71	6602
2026-01-19 23:58:44.14	23.09	4.58	-50.5	-55.8	9.9	6.94e-03	0	38	0	52428800	71	7092
2026-01-19 23:58:45.15	23.12	4.65	-50.7	-56.7	8.9	1.80e-02	0	38	0	54525952	72	7440
2026-01-19 23:58:46.16	23.15	4.72	-50.9	-57.3	8.3	4.71e-02	0	38	0	56623104	72	7945
2026-01-19 23:58:47.17	23.17	4.79	-51.1	-58.1	7.5	5.91e-02	0	38	0	57671680	72	8746
2026-01-19 23:58:48.18	23.20	4.86	-51.3	-59.3	6.5	1.65e-01	0	38	0	59768832	73	9396
2026-01-19 23:58:49.19	23.23	4.93	-51.3	-59.5	6.2	2.57e-01	0	38	0	61865984	73	9700
2026-01-19 23:58:50.19	23.26	5.00	-51.3	-59.7	6.1	3.54e-01	0	38	0	63963136	73	9868
2026-01-19 23:58:51.20	23.28	5.07	-51.4	-60.3	5.7	3.98e-01	0	38	0	66060288	73	10596
2026-01-19 23:58:52.21	23.31	5.14	-51.5	-61.0	5.2	5.31e-01	0	38	0	67108864	73	11466
2026-01-19 23:58:53.22	23.34	5.21	-51.6	-63.3	4.2	1.29e+00	0	38	0	68157440	73	14961
2026-01-19 23:58:54.23	23.37	5.28	-51.0	-57.0	8.8	4.75e-01	0	38	0	70254592	73	7242
2026-01-19 23:58:55.23	23.40	5.35	-49.4	-52.6	13.7	1.50e-06	0	38	0	72351744	70	5203
2026-01-19 23:58:56.24	23.43	5.42	-51.8	-62.4	4.5	5.97e-01	66	38	0	73400320	74	12669
2026-01-19 23:58:57.25	23.45	5.49	-48.9	-51.7	14.5	7.00e-07	0	38	0	75497472	69	4977
2026-01-19 23:58:58.26	23.48	5.57	-48.7	-51.4	15.0	0.00e+00	0	38	0	77594624	69	4778
2026-01-19 23:58:59.27	23.51	5.64	-48.6	-51.4	15.0	0.00e+00	0	38	0	79691776	69	4768
2026-01-19 23:59:00.27	23.54	5.71	-48.4	-51.0	15.4	0.00e+00	0	38	0	80740352	68	4845
2026-01-19 23:59:01.28	23.57	5.78	-48.1	-50.5	15.9	0.00e+00	0	38	0	82837504	68	4563
2026-01-19 23:59:02.29	23.60	5.86	-48.0	-50.3	16.1	0.00e+00	0	38	0	84934656	68	4476
2026-01-19 23:59:03.30	23.63	5.93	-48.1	-50.5	16.0	0.00e+00	0	38	0	87031808	67	4823
2026-01-19 23:59:04.31	23.66	6.00	-48.3	-50.7	15.7	0.00e+00	0	38	0	89128960	67	4978
2026-01-19 23:59:05.31	23.69	6.07	-48.2	-50.6	15.8	0.00e+00	0	38	0	90177536	67	4924
2026-01-19 23:59:06.32	23.72	6.15	-48.2	-50.6	15.7	0.00e+00	0	38	0	92274688	67	4926
2026-01-19 23:59:07.33	23.75	6.22	-48.0	-50.3	16.1	0.00e+00	0	38	0	94371840	67	4717
2026-01-19 23:59:08.34	23.78	6.30	-47.9	-50.1	16.3	0.00e+00	0	38	0	96468992	67	4630
2026-01-19 23:59:09.35	23.81	6.37	-47.8	-50.0	16.4	0.00e+00	0	38	0	98566144	67	4567
2026-01-19 23:59:10.35	23.84	6.44	-48.1	-50.5	16.0	0.00e+00	0	38	0	99614720	67	4827
2026-01-19 23:59:11.36	23.87	6.52	-47.7	-49.9	16.5	0.00e+00	0	38	0	101711872	67	4536
2026-01-19 23:59:12.37	23.90	6.59	-48.0	-50.3	16.2	0.00e+00	0	38	0	103809024	67	4740
2026-01-19 23:59:13.38	23.93	6.67	-47.9	-50.1	16.3	0.00e+00	0	38	0	105906176	67	4650
2026-01-19 23:59:14.38	23.96	6.74	-47.9	-50.1	16.4	0.00e+00	0	38	0	108003328	67	4623
2026-01-19 23:59:15.39	23.99	6.82	-47.9	-50.2	16.3	0.00e+00	0	38	0	109051904	67	4684
2026-01-19 23:59:16.40	24.02	6.89	-47.7	-49.8	16.6	0.00e+00	0	38	0	111149056	67	4490
2026-01-19 23:59:17.41	24.05	6.97	-47.9	-50.2	16.3	0.00e+00	0	38	0	113246208	67	4691
2026-01-19 23:59:18.42	24.09	7.05	-47.9	-50.2	16.3	0.00e+00	0	38	0	115343360	67	4693
2026-01-19 23:59:19.42	24.12	7.12	-47.8	-50.0	16.5	0.00e+00	0	38	0	117440512	67	4558
2026-01-19 23:59:20.43	24.15	7.20	-47.8	-50.0	16.6	0.00e+00	0	38	0	118489088	67	4555
2026-01-19 23:59:21.44	24.18	7.28	-47.8	-50.0	16.5	0.00e+00	0	38	0	120586240	67	4580
2026-01-19 23:59:22.44	24.21	7.35	-47.6	-49.7	16.8	0.00e+00	0	38	0	122683392	67	4438
2026-01-19 23:59:23.45	24.25	7.43	-47.6	-49.7	16.8	0.00e+00	0	38	0	124780544	67	4428
2026-01-19 23:59:24.46	24.28	7.51	-47.7	-49.8	16.7	0.00e+00	0	38	0	126877696	67	4489
2026-01-19 23:59:25.47	24.31	7.58	-47.7	-49.9	16.7	0.00e+00	0	38	0	127926272	67	4506
2026-01-19 23:59:26.48	24.34	7.66	-47.5	-49.6	17.0	0.00e+00	0	38	0	130023424	67	4366
2026-01-19 23:59:27.49	24.38	7.74	-47.7	-49.8	16.8	0.00e+00	0	38	0	132120576	67	4460
2026-01-19 23:59:28.49	24.41	7.82	-47.6	-49.7	16.9	0.00e+00	0	38	0	134217728	67	4409
2026-01-19 23:59:29.50	24.44	7.90	-47.7	-49.8	16.8	0.00e+00	0	38	0	136314880	67	4467
2026-01-19 23:59:30.51	24.47	7.98	-47.5	-49.6	17.0	0.00e+00	0	38	0	137363456	67	4357
2026-01-19 23:59:31.52	24.51	8.05	-47.4	-49.5	17.2	0.00e+00	0	38	0	139460608	66	4547
2026-01-19 23:59:32.53	24.54	8.13	-47.5	-49.6	17.0	0.00e+00	0	38	0	141557760	66	4608
2026-01-19 23:59:33.53	24.57	8.21	-47.6	-49.7	17.0	0.00e+00	0	38	0	143654912	66	4665
2026-01-19 23:59:34.54	24.61	8.29	-47.7	-49.9	16.8	0.00e+00	0	38	0	145752064	66	4764
2026-01-19 23:59:35.55	24.64	8.37	-47.7	-49.8	16.9	0.00e+00	0	38	0	147849216	66	4721
2026-01-19 23:59:36.56	24.68	8.45	-47.8	-49.9	16.7	0.00e+00	0	38	0	148897792	66	4814
2026-01-19 23:59:37.56	24.71	8.53	-47.8	-50.0	16.7	0.00e+00	0	38	0	150994944	66	4820
2026-01-19 23:59:38.57	24.74	8.61	-47.7	-49.8	16.9	0.00e+00	0	38	0	153092096	66	4737
2026-01-19 23:59:39.58	24.78	8.69	-47.4	-49.4	17.2	0.00e+00	0	38	0	155189248	66	4537
2026-01-19 23:59:40.59	24.81	8.78	-47.4	-49.4	17.3	0.00e+00	0	38	0	156237824	66	4528
2026-01-19 23:59:41.59	24.85	8.86	-47.5	-49.5	17.2	0.00e+00	0	38	0	158334976	66	4553
2026-01-19 23:59:42.60	24.88	8.94	-47.4	-49.3	17.4	0.00e+00	0	38	0	160432128	66	4481
2026-01-19 23:59:43.61	24.92	9.02	-47.5	-49.5	17.2	0.00e+00	0	38	0	162529280	66	4548
2026-01-19 23:59:44.62	24.95	9.10	-47.3	-49.2	17.5	0.00e+00	0	38	0	164626432	66	4434
2026-01-19 23:59:45.63	24.99	9.19	-47.3	-49.2	17.5	0.00e+00	0	38	0	165675008	66	4407
2026-01-19 23:59:46.63	25.03	9.27	-47.3	-49.2	17.5	0.00e+00	0	38	0	167772160	66	4397
2026-01-19 23:59:47.64	25.06	9.35	-47.4	-49.3	17.5	0.00e+00	0	38	0	169869312	66	4455
2026-01-19 23:59:48.65	25.10	9.43	-47.4	-49.4	17.3	0.00e+00	0	38	0	171966464	66	4525
2026-01-19 23:59:49.66	25.13	9.52	-47.3	-49.3	17.5	0.00e+00	0	38	0	174063616	66	4448
2026-01-19 23:59:50.67	25.17	9.60	-47.2	-49.1	17.6	0.00e+00	0	38	0	176160768	66	4378
2026-01-19 23:59:51.68	25.21	9.69	-47.3	-49.2	17.6	0.00e+00	0	38	0	177209344	66	4408
2026-01-19 23:59:52.69	25.24	9.77	-47.3	-49.1	17.6	0.00e+00	0	38	0	179306496	66	4379
2026-01-19 23:59:53.69	25.28	9.86	-47.1	-49.0	17.8	0.00e+00	0	38	0	181403648	66	4302
2026-01-19 23:59:54.70	25.32	9.94	-47.2	-49.1	17.7	0.00e+00	0	38	0	183500800	66	4364
2026-01-19 23:59:55.71	25.36	10.03	-47.3	-49.2	17.6	0.00e+00	0	38	0	184549376	66	4422
2026-01-19 23:59:56.72	25.39	10.11	-47.3	-49.2	17.6	0.00e+00	0	38	0	186646528	66	4414
2026-01-19 23:59:57.73	25.43	10.20	-47.0	-48.8	18.0	0.00e+00	0	38	0	188743680	66	4196
2026-01-19 23:59:58.73	25.47	10.28	-47.4	-49.3	17.5	0.00e+00	0	38	0	190840832	66	4484
2026-01-19 23:59:59.74	25.51	10.37	-47.1	-48.9	17.9	0.00e+00	0	38	0	192937984	66	4283
2026-01-20 00:00:00.75	25.55	10.46	-47.3	-49.1	17.7	0.00e+00	0	38	0	195035136	66	4382
2026-01-20 00:00:01.76	25.59	10.54	-47.1	-48.9	17.9	0.00e+00	0	38	0	196083712	66	4270
2026-01-20 00:00:02.77	25.62	10.63	-47.2	-49.0	17.9	0.00e+00	0	38	0	198180864	66	4305
2026-01-20 00:00:03.78	25.66	10.72	-47.0	-48.8	18.1	0.00e+00	0	38	0	200278016	66	4195
2026-01-20 00:00:04.78	25.70	10.81	-47.1	-48.9	18.0	0.00e+00	0	38	0	202375168	66	4265
2026-01-20 00:00:05.79	25.74	10.89	-47.1	-48.9	18.0	0.00e+00	0	38	0	204472320	66	4251
2026-01-20 00:00:06.80	25.78	10.98	-47.0	-48.8	18.1	0.00e+00	0	38	0	205520896	66	4208
2026-01-20 00:00:07.80	25.82	11.07	-47.0	-48.7	18.1	0.00e+00	0	38	0	207618048	65	4421
2026-01-20 00:00:08.81	25.86	11.16	-47.0	-48.8	18.1	0.00e+00	0	38	0	209715200	65	4466
2026-01-20 00:00:09.82	25.90	11.25	-47.1	-48.8	18.0	0.00e+00	0	38	0	211812352	65	4478
2026-01-20 00:00:10.83	25.94	11.34	-47.0	-48.8	18.0	0.00e+00	0	38	0	212860928	65	4478
2026-01-20 00:00:11.84	25.98	11.43	-47.1	-48.9	17.9	0.00e+00	0	38	0	214958080	65	4535
2026-01-20 00:00:12.85	26.02	11.52	-47.1	-48.9	18.0	0.00e+00	0	38	0	217055232	65	4501
2026-01-20 00:00:13.85	26.06	11.61	-47.1	-48.8	18.0	0.00e+00	0	38	0	219152384	65	4483
2026-01-20 00:00:14.86	26.11	11.70	-47.0	-48.8	18.1	0.00e+00	0	38	0	221249536	65	4464
2026-01-20 00:00:15.87	26.15	11.79	-47.1	-48.9	18.0	0.00e+00	0	38	0	223346688	65	4511
2026-01-20 00:00:16.87	26.19	11.88	-47.0	-48.7	18.2	0.00e+00	0	38	0	224395264	65	4427
2026-01-20 00:00:17.88	26.23	11.98	-47.0	-48.8	18.1	0.00e+00	0	38	0	226492416	65	4445
2026-01-20 00:00:18.89	26.27	12.07	-47.0	-48.7	18.2	0.00e+00	0	38	0	228589568	65	4419
2026-01-20 00:00:19.90	26.32	12.16	-46.9	-48.7	18.3	0.00e+00	0	38	0	230686720	65	4393
2026-01-20 00:00:20.91	26.36	12.26	-47.0	-48.7	18.2	0.00e+00	0	38	0	232783872	65	4416
2026-01-20 00:00:21.91	26.40	12.35	-47.0	-48.8	18.1	0.00e+00	0	38	0	233832448	65	4450
2026-01-20 00:00:22.92	26.45	12.44	-47.1	-48.8	18.1	0.00e+00	0	38	0	235929600	65	4482
2026-01-20 00:00:23.93	26.49	12.54	-47.0	-48.7	18.2	0.00e+00	0	38	0	238026752	65	4424
2026-01-20 00:00:24.94	26.53	12.63	-47.0	-48.7	18.2	0.00e+00	0	38	0	240123904	65	4403
2026-01-20 00:00:25.95	26.58	12.73	-46.9	-48.7	18.2	0.00e+00	0	38	0	241172480	65	4404
2026-01-20 00:00:26.95	26.62	12.82	-46.9	-48.6	18.3	0.00e+00	0	38	0	243269632	65	4386
2026-01-20 00:00:27.96	26.67	12.92	-47.0	-48.7	18.3	0.00e+00	0	38	0	245366784	65	4415
2026-01-20 00:00:28.97	26.71	13.01	-47.0	-48.7	18.2	0.00e+00	0	38	0	247463936	65	4435
2026-01-20 00:00:29.97	26.76	13.11	-46.9	-48.7	18.3	0.00e+00	0	38	0	249561088	65	4392
2026-01-20 00:00:30.98	26.80	13.21	-47.0	-48.8	18.1	0.00e+00	0	38	0	251658240	65	4465
2026-01-20 00:00:31.99	26.85	13.30	-46.9	-48.6	18.3	0.00e+00	0	38	0	252706816	65	4382
2026-01-20 00:00:33.00	26.89	13.40	-46.9	-48.7	18.3	0.00e+00	0	38	0	254803968	65	4392
2026-01-20 00:00:34.01	26.94	13.50	-47.0	-48.7	18.2	0.00e+00	0	38	0	256901120	65	4425
2026-01-20 00:00:35.01	26.99	13.60	-47.0	-48.7	18.3	0.00e+00	0	38	0	258998272	65	4411
2026-01-20 00:00:36.02	27.03	13.69	-47.0	-48.7	18.3	0.00e+00	0	38	0	261095424	65	4405
2026-01-20 00:00:37.03	27.08	13.79	-46.9	-48.6	18.3	0.00e+00	0	38	0	262144000	65	4385
2026-01-20 00:00:38.04	27.13	13.89	-47.1	-48.8	18.2	0.00e+00	0	38	0	264241152	65	4471
2026-01-20 00:00:39.05	27.17	13.99	-47.0	-48.7	18.3	0.00e+00	0	38	0	266338304	65	4420
2026-01-20 00:00:40.06	27.22	14.09	-46.9	-48.6	18.4	0.00e+00	0	38	0	268435456	65	4378
2026-01-20 00:00:41.06	27.27	14.19	-46.7	-48.4	18.6	0.00e+00	0	38	0	270532608	65	4249
2026-01-20 00:00:42.07	27.32	14.29	-46.9	-48.6	18.4	0.00e+00	0	38	0	271581184	65	4368
2026-01-20 00:00:43.08	27.37	14.40	-46.8	-48.5	18.5	0.00e+00	0	38	0	273678336	65	4327
2026-01-20 00:00:44.09	27.42	14.50	-46.8	-48.4	18.5	0.00e+00	0	38	0	275775488	65	4288
2026-01-20 00:00:45.09	27.47	14.60	-46.8	-48.5	18.5	0.00e+00	0	38	0	277872640	65	4295
2026-01-20 00:00:46.10	27.52	14.70	-46.8	-48.5	18.5	0.00e+00	0	38	0	279969792	65	4311
2026-01-20 00:00:47.11	27.57	14.80	-46.9	-48.6	18.4	0.00e+00	0	38	0	281018368	65	4341
2026-01-20 00:00:48.12	27.62	14.91	-46.7	-48.4	18.6	0.00e+00	0	38	0	283115520	65	4257
2026-01-20 00:00:49.12	27.67	15.01	-46.9	-48.6	18.5	0.00e+00	0	38	0	285212672	65	4352
2026-01-20 00:00:50.13	27.72	15.12	-46.7	-48.4	18.6	0.00e+00	0	38	0	287309824	65	4260
2026-01-20 00:00:51.14	27.77	15.22	-46.8	-48.4	18.6	0.00e+00	0	38	0	289406976	65	4288
2026-01-20 00:00:52.15	27.82	15.33	-46.9	-48.5	18.5	0.00e+00	0	38	0	290455552	65	4331
2026-01-20 00:00:53.15	27.87	15.43	-46.7	-48.4	18.7	0.00e+00	0	38	0	292552704	65	4256
2026-01-20 00:00:54.16	27.92	15.54	-46.8	-48.5	18.6	0.00e+00	0	38	0	294649856	65	4301
2026-01-20 00:00:55.17	27.98	15.64	-46.9	-48.5	18.5	0.00e+00	0	38	0	296747008	65	4324
2026-01-20 00:00:56.18	28.03	15.75	-46.8	-48.4	18.6	0.00e+00	0	38	0	298844160	65	4283
2026-01-20 00:00:57.19	28.08	15.86	-46.8	-48.5	18.6	0.00e+00	0	38	0	299892736	65	4317
2026-01-20 00:00:58.19	28.14	15.96	-46.7	-48.3	18.7	0.00e+00	0	38	0	301989888	65	4241
2026-01-20 00:00:59.20	28.19	16.07	-46.7	-48.3	18.8	0.00e+00	0	38	0	304087040	65	4220
2026-01-20 00:01:00.21	28.24	16.18	-46.8	-48.4	18.7	0.00e+00	0	38	0	306184192	65	4263
2026-01-20 00:01:01.22	28.30	16.29	-46.8	-48.5	18.6	0.00e+00	0	38	0	308281344	65	4295
2026-01-20 00:01:02.23	28.35	16.40	-46.8	-48.4	18.7	0.00e+00	0	38	0	309329920	65	4255
2026-01-20 00:01:03.24	28.41	16.51	-46.9	-48.5	18.6	0.00e+00	0	38	0	311427072	65	4319
2026-01-20 00:01:04.24	28.47	16.62	-46.7	-48.3	18.8	0.00e+00	0	38	0	313524224	65	4231
2026-01-20 00:01:05.25	28.52	16.73	-46.7	-48.3	18.8	0.00e+00	0	38	0	315621376	65	4240
2026-01-20 00:01:06.26	28.58	16.84	-46.8	-48.4	18.7	0.00e+00	0	38	0	317718528	65	4290
2026-01-20 00:01:07.27	28.64	16.96	-46.8	-48.5	18.6	0.00e+00	0	38	0	319815680	65	4311
2026-01-20 00:01:08.27	28.69	17.07	-46.7	-48.4	18.7	0.00e+00	0	38	0	320864256	65	4246
2026-01-20 00:01:09.28	28.75	17.18	-46.7	-48.3	18.8	0.00e+00	0	38	0	322961408	65	4197
2026-01-20 00:01:10.29	28.81	17.30	-46.6	-48.2	18.9	0.00e+00	0	38	0	325058560	65	4172
2026-01-20 00:01:11.30	28.87	17.41	-46.6	-48.2	18.9	0.00e+00	0	38	0	327155712	65	4179
2026-01-20 00:01:12.31	28.93	17.52	-46.6	-48.2	18.9	0.00e+00	0	38	0	328204288	65	4185
2026-01-20 00:01:13.32	28.99	17.64	-46.7	-48.2	18.9	0.00e+00	0	39	0	330301440	65	4189
2026-01-20 00:01:14.33	29.05	17.76	-46.8	-48.4	18.8	0.00e+00	0	38	0	332398592	65	4249
2026-01-20 00:01:15.33	29.11	17.87	-46.7	-48.4	18.8	0.00e+00	0	39	0	334495744	65	4244
2026-01-20 00:01:16.34	29.17	17.99	-46.7	-48.2	18.9	0.00e+00	0	39	0	336592896	65	4193
2026-01-20 00:01:17.35	29.23	18.10	-46.7	-48.2	18.9	0.00e+00	0	38	0	337641472	65	4188
2026-01-20 00:01:18.35	29.29	18.22	-46.7	-48.3	18.9	0.00e+00	0	39	0	339738624	65	4203
2026-01-20 00:01:19.36	29.35	18.34	-46.7	-48.3	18.9	0.00e+00	0	38	0	341835776	65	4216
2026-01-20 00:01:20.37	29.41	18.46	-46.7	-48.2	18.9	0.00e+00	0	38	0	343932928	65	4187
2026-01-20 00:01:21.38	29.48	18.58	-46.6	-48.2	19.0	0.00e+00	0	38	0	346030080	65	4155
2026-01-20 00:01:22.39	29.54	18.70	-46.7	-48.3	18.9	0.00e+00	0	38	0	348127232	65	4200
2026-01-20 00:01:23.39	29.60	18.82	-46.6	-48.2	19.0	0.00e+00	0	39	0	349175808	65	4174
2026-01-20 00:01:24.40	29.67	18.94	-46.5	-48.1	19.1	0.00e+00	0	38	0	351272960	65	4108
2026-01-20 00:01:25.41	29.73	19.06	-46.5	-48.1	19.1	0.00e+00	0	38	0	353370112	65	4105
2026-01-20 00:01:26.42	29.80	19.18	-46.6	-48.1	19.0	0.00e+00	0	38	0	355467264	65	4130
2026-01-20 00:01:27.43	29.86	19.31	-46.6	-48.1	19.1	0.00e+00	0	38	0	356515840	65	4122
2026-01-20 00:01:28.43	29.93	19.43	-46.5	-48.0	19.2	0.00e+00	0	38	0	358612992	65	4068
2026-01-20 00:01:29.44	30.00	19.55	-46.5	-48.0	19.2	0.00e+00	0	38	0	360710144	64	4304
2026-01-20 00:01:30.45	30.06	19.68	-46.4	-47.9	19.3	0.00e+00	0	38	0	362807296	64	4270
2026-01-20 00:01:31.45	30.13	19.80	-46.4	-47.9	19.2	0.00e+00	0	38	0	364904448	64	4271
2026-01-20 00:01:32.46	30.20	19.93	-46.4	-47.9	19.3	0.00e+00	0	38	0	367001600	64	4276
2026-01-20 00:01:33.47	30.27	20.05	-46.5	-48.0	19.2	0.00e+00	0	38	0	368050176	64	4323
2026-01-20 00:01:34.48	30.34	20.18	-46.3	-47.7	19.4	0.00e+00	0	38	0	370147328	64	4184
2026-01-20 00:01:35.49	30.41	20.31	-46.2	-47.6	19.6	0.00e+00	0	39	0	372244480	64	4135
2026-01-20 00:01:36.50	30.48	20.44	-46.3	-47.7	19.5	0.00e+00	0	38	0	374341632	64	4193
2026-01-20 00:01:37.50	30.55	20.56	-46.1	-47.5	19.6	0.00e+00	0	38	0	376438784	64	4090
2026-01-20 00:01:38.51	30.62	20.69	-46.0	-47.4	19.8	0.00e+00	0	38	0	377487360	63	4289
2026-01-20 00:01:39.52	30.69	20.82	-46.1	-47.5	19.8	0.00e+00	0	39	0	379584512	63	4310
2026-01-20 00:01:40.53	30.76	20.95	-46.0	-47.4	19.9	0.00e+00	0	38	0	381681664	63	4277
2026-01-20 00:01:41.53	30.84	21.08	-46.1	-47.4	19.8	0.00e+00	0	39	0	383778816	63	4290
2026-01-20 00:01:42.54	30.91	21.22	-46.1	-47.5	19.8	0.00e+00	0	38	0	384827392	63	4294
2026-01-20 00:01:43.55	30.99	21.35	-46.1	-47.5	19.8	0.00e+00	0	38	0	386924544	63	4310
2026-01-20 00:01:44.55	31.06	21.48	-45.9	-47.2	20.1	0.00e+00	0	38	0	389021696	63	4184
2026-01-20 00:01:45.56	31.14	21.62	-45.8	-47.1	20.2	0.00e+00	0	38	0	391118848	63	4122
2026-01-20 00:01:46.57	31.21	21.75	-45.7	-47.0	20.2	0.00e+00	0	38	0	393216000	63	4077
2026-01-20 00:01:47.58	31.29	21.89	-45.7	-47.0	20.3	0.00e+00	0	38	0	395313152	63	4067
2026-01-20 00:01:48.59	31.37	22.02	-45.6	-46.9	20.4	0.00e+00	0	38	0	396361728	63	4026
2026-01-20 00:01:49.59	31.44	22.16	-45.6	-47.0	20.3	0.00e+00	0	38	0	398458880	63	4059
2026-01-20 00:01:50.60	31.52	22.29	-45.8	-47.1	20.2	0.00e+00	0	38	0	400556032	63	4116
2026-01-20 00:01:51.61	31.60	22.43	-45.6	-47.0	20.3	0.00e+00	0	38	0	402653184	63	4053
2026-01-20 00:01:52.62	31.68	22.57	-45.6	-47.0	20.3	0.00e+00	0	38	0	404750336	63	4055
2026-01-20 00:01:53.63	31.76	22.71	-45.5	-46.8	20.5	0.00e+00	0	38	0	405798912	63	3983
2026-01-20 00:01:54.63	31.84	22.85	-45.4	-46.7	20.6	0.00e+00	0	38	0	407896064	62	4173
2026-01-20 00:01:55.64	31.93	22.99	-45.4	-46.7	20.6	0.00e+00	0	39	0	409993216	62	4162
2026-01-20 00:01:56.66	32.01	23.13	-45.4	-46.6	20.7	0.00e+00	0	39	0	412090368	62	4139
2026-01-20 00:01:57.66	32.09	23.27	-45.4	-46.7	20.6	0.00e+00	0	39	0	414187520	62	4157
2026-01-20 00:01:58.67	32.18	23.42	-45.3	-46.6	20.7	0.00e+00	0	38	0	415236096	62	4108
2026-01-20 00:01:59.68	32.26	23.56	-45.4	-46.7	20.6	0.00e+00	0	38	0	417333248	62	4152
2026-01-20 00:02:00.69	32.35	23.71	-45.2	-46.4	20.8	0.00e+00	0	38	0	419430400	62	4050
2026-01-20 00:02:01.69	32.44	23.85	-45.3	-46.5	20.8	0.00e+00	0	38	0	421527552	62	4084
2026-01-20 00:02:02.70	32.52	24.00	-45.3	-46.5	20.8	0.00e+00	0	38	0	423624704	62	4097
2026-01-20 00:02:03.71	32.61	24.14	-45.3	-46.5	20.7	0.00e+00	0	39	0	424673280	62	4079
2026-01-20 00:02:04.72	32.70	24.29	-45.3	-46.5	20.7	0.00e+00	0	38	0	426770432	62	4094
2026-01-20 00:02:05.73	32.79	24.44	-45.2	-46.4	20.9	0.00e+00	0	38	0	428867584	62	4039
2026-01-20 00:02:06.73	32.88	24.59	-45.3	-46.6	20.7	0.00e+00	0	39	0	430964736	62	4101
2026-01-20 00:02:07.74	32.97	24.74	-45.3	-46.5	20.8	0.00e+00	0	38	0	433061888	62	4092
2026-01-20 00:02:08.75	33.06	24.89	-45.5	-46.8	20.6	0.00e+00	0	39	0	435159040	62	4199
2026-01-20 00:02:09.76	33.16	25.04	-45.6	-46.9	20.5	0.00e+00	0	38	0	436207616	62	4244
2026-01-20 00:02:10.77	33.25	25.19	-45.4	-46.7	20.7	0.00e+00	0	38	0	438304768	62	4147
2026-01-20 00:02:11.77	33.34	25.34	-45.4	-46.7	20.6	0.00e+00	0	38	0	440401920	62	4158
2026-01-20 00:02:12.78	33.44	25.50	-45.4	-46.7	20.7	0.00e+00	0	38	0	442499072	62	4155
2026-01-20 00:02:13.79	33.54	25.65	-45.4	-46.6	20.7	0.00e+00	0	38	0	443547648	62	4121
2026-01-20 00:02:14.80	33.63	25.81	-45.4	-46.7	20.7	0.00e+00	0	39	0	445644800	62	4167
2026-01-20 00:02:15.81	33.73	25.96	-45.5	-46.8	20.6	0.00e+00	0	38	0	447741952	62	4198
2026-01-20 00:02:16.81	33.83	26.12	-45.5	-46.8	20.6	0.00e+00	0	38	0	449839104	62	4202
2026-01-20 00:02:17.82	33.93	26.28	-45.7	-47.0	20.4	0.00e+00	0	38	0	451936256	62	4302
2026-01-20 00:02:18.83	34.03	26.44	-45.6	-46.9	20.5	0.00e+00	0	39	0	452984832	62	4269
2026-01-20 00:02:19.84	34.13	26.60	-45.6	-46.9	20.5	0.00e+00	0	39	0	455081984	62	4246
2026-01-20 00:02:20.84	34.24	26.76	-45.6	-46.9	20.4	0.00e+00	0	38	0	457179136	62	4280
2026-01-20 00:02:21.85	34.34	26.92	-45.6	-46.9	20.4	0.00e+00	0	39	0	459276288	62	4267
2026-01-20 00:02:22.86	34.45	27.08	-45.8	-47.1	20.3	0.00e+00	0	38	0	461373440	62	4362
2026-01-20 00:02:23.87	34.55	27.24	-45.7	-47.0	20.3	0.00e+00	0	38	0	463470592	62	4340
2026-01-20 00:02:24.88	34.66	27.41	-45.8	-47.2	20.2	0.00e+00	0	39	0	464519168	62	4406
2026-01-20 00:02:25.88	34.77	27.57	-45.9	-47.2	20.2	0.00e+00	0	38	0	466616320	62	4413
2026-01-20 00:02:26.89	34.88	27.74	-45.9	-47.2	20.2	0.00e+00	0	39	0	468713472	62	4438
2026-01-20 00:02:27.90	34.99	27.90	-46.0	-47.4	20.0	0.00e+00	0	38	0	470810624	62	4506
2026-01-20 00:02:28.91	35.10	28.07	-46.1	-47.5	20.0	0.00e+00	0	38	0	471859200	62	4549
2026-01-20 00:02:29.92	35.21	28.24	-46.2	-47.6	19.8	0.00e+00	0	39	0	473956352	62	4601
2026-01-20 00:02:30.92	35.32	28.41	-46.4	-47.8	19.6	0.00e+00	0	38	0	476053504	63	4489
2026-01-20 00:02:31.93	35.44	28.58	-46.6	-48.1	19.3	0.00e+00	0	38	0	478150656	63	4645
2026-01-20 00:02:32.94	35.56	28.75	-46.9	-48.4	19.0	0.00e+00	0	38	0	480247808	64	4541
2026-01-20 00:02:33.95	35.67	28.92	-47.1	-48.7	18.7	0.00e+00	0	39	0	481296384	64	4680
2026-01-20 00:02:34.95	35.79	29.09	-47.2	-48.9	18.5	0.00e+00	0	38	0	483393536	65	4518
2026-01-20 00:02:35.96	35.91	29.27	-47.4	-49.2	18.1	0.00e+00	0	38	0	485490688	65	4678
2026-01-20 00:02:36.97	36.03	29.44	-47.6	-49.4	18.1	0.00e+00	0	38	0	487587840	65	4764
2026-01-20 00:02:37.98	36.15	29.62	-47.6	-49.4	18.0	0.00e+00	0	39	0	489684992	65	4789
2026-01-20 00:02:38.99	36.28	29.80	-47.8	-49.6	17.8	0.00e+00	0	38	0	491782144	66	4616
2026-01-20 00:02:39.99	36.40	29.97	-48.0	-49.9	17.6	0.00e+00	0	38	0	492830720	66	4793
2026-01-20 00:02:41.00	36.53	30.15	-48.0	-49.9	17.5	0.00e+00	0	38	0	494927872	66	4802
2026-01-20 00:02:42.01	36.66	30.33	-48.2	-50.2	17.3	0.00e+00	0	38	0	497025024	66	4933
2026-01-20 00:02:43.02	36.78	30.51	-48.4	-50.4	17.1	0.00e+00	0	38	0	499122176	67	4792
2026-01-20 00:02:44.03	36.92	30.69	-48.7	-50.8	16.7	0.00e+00	0	38	0	500170752	67	5030
2026-01-20 00:02:45.03	37.05	30.88	-48.9	-51.2	16.4	0.00e+00	0	38	0	502267904	68	4945
2026-01-20 00:02:46.04	37.18	31.06	-49.0	-51.4	16.2	0.00e+00	0	38	0	504365056	68	5053
2026-01-20 00:02:47.05	37.31	31.25	-49.2	-51.6	15.9	0.00e+00	0	38	0	506462208	69	4919
2026-01-20 00:02:48.06	37.45	31.43	-49.4	-51.9	15.7	0.00e+00	0	39	0	508559360	69	5042
2026-01-20 00:02:49.07	37.59	31.62	-49.3	-51.8	15.7	0.00e+00	0	38	0	510656512	69	5025
2026-01-20 00:02:50.07	37.73	31.80	-49.5	-52.1	15.5	0.00e+00	0	38	0	511705088	69	5180
2026-01-20 00:02:51.08	37.87	31.99	-49.4	-51.9	15.7	0.00e+00	0	38	0	513802240	69	5053
2026-01-20 00:02:52.09	38.01	32.18	-49.3	-51.8	15.8	0.00e+00	0	38	0	515899392	69	5001
2026-01-20 00:02:53.10	38.15	32.38	-49.3	-51.7	15.9	0.00e+00	0	39	0	517996544	69	4955
2026-01-20 00:02:54.11	38.30	32.57	-49.1	-51.5	16.1	0.00e+00	0	38	0	520093696	69	4823
2026-01-20 00:02:55.12	38.45	32.76	-48.9	-51.2	16.4	0.00e+00	0	38	0	521142272	69	4675
2026-01-20 00:02:56.12	38.60	32.95	-48.9	-51.1	16.5	0.00e+00	0	39	0	523239424	69	4611
2026-01-20 00:02:57.13	38.75	33.15	-48.8	-51.0	16.6	0.00e+00	0	38	0	525336576	69	4559
2026-01-20 00:02:58.14	38.90	33.34	-48.7	-50.8	16.8	0.00e+00	0	38	0	527433728	69	4466
2026-01-20 00:02:59.14	39.05	33.54	-48.6	-50.6	17.0	0.00e+00	0	38	0	528482304	69	4381
2026-01-20 00:03:00.15	39.21	33.74	-48.5	-50.6	17.1	0.00e+00	0	38	0	530579456	69	4352
2026-01-20 00:03:01.16	39.37	33.94	-48.5	-50.6	17.0	0.00e+00	0	39	0	532676608	68	4609
2026-01-20 00:03:02.17	39.53	34.14	-48.6	-50.8	16.9	0.00e+00	0	38	0	534773760	68	4708
2026-01-20 00:03:03.17	39.69	34.34	-48.6	-50.7	16.9	0.00e+00	0	39	0	536870912	68	4670
2026-01-20 00:03:04.18	39.85	34.54	-48.6	-50.7	16.9	0.00e+00	0	38	0	538968064	68	4680
2026-01-20 00:03:05.19	40.02	34.75	-48.7	-50.8	16.8	0.00e+00	0	39	0	540016640	68	4749
2026-01-20 00:03:06.20	40.19	34.95	-48.7	-50.8	16.8	0.00e+00	0	39	0	542113792	68	4731
2026-01-20 00:03:07.20	40.36	35.15	-48.7	-50.9	16.7	0.00e+00	0	38	0	544210944	68	4777
2026-01-20 00:03:08.21	40.53	35.36	-48.6	-50.7	16.8	0.00e+00	0	38	0	546308096	68	4697
2026-01-20 00:03:09.22	40.70	35.57	-48.6	-50.7	16.9	0.00e+00	0	39	0	548405248	68	4700
2026-01-20 00:03:10.23	40.88	35.78	-48.6	-50.7	17.0	0.00e+00	0	38	0	549453824	68	4692
2026-01-20 00:03:11.23	41.06	35.99	-48.5	-50.6	17.0	0.00e+00	0	39	0	551550976	68	4614
2026-01-20 00:03:12.24	41.24	36.20	-48.4	-50.4	17.3	0.00e+00	0	39	0	553648128	68	4532
2026-01-20 00:03:13.25	41.42	36.41	-48.2	-50.1	17.5	0.00e+00	0	38	0	555745280	68	4385
2026-01-20 00:03:14.26	41.61	36.63	-48.1	-49.9	17.7	0.00e+00	0	38	0	557842432	68	4274
2026-01-20 00:03:15.27	41.79	36.84	-47.9	-49.8	17.9	0.00e+00	0	39	0	558891008	67	4444
2026-01-20 00:03:16.27	41.98	37.05	-47.7	-49.5	18.0	0.00e+00	0	38	0	560988160	67	4320
2026-01-20 00:03:17.28	42.18	37.27	-47.7	-49.5	18.1	0.00e+00	0	39	0	563085312	67	4296
2026-01-20 00:03:18.29	42.37	37.49	-47.6	-49.3	18.3	0.00e+00	0	39	0	565182464	67	4196
2026-01-20 00:03:19.30	42.57	37.71	-47.5	-49.2	18.3	0.00e+00	0	39	0	567279616	67	4191
2026-01-20 00:03:20.31	42.77	37.93	-47.4	-49.1	18.5	0.00e+00	0	39	0	568328192	66	4362
2026-01-20 00:03:21.32	42.97	38.15	-47.4	-49.1	18.5	0.00e+00	0	38	0	570425344	66	4348
2026-01-20 00:03:22.32	43.18	38.37	-47.4	-49.1	18.5	0.00e+00	0	39	0	572522496	66	4376
2026-01-20 00:03:23.33	43.39	38.59	-47.5	-49.2	18.3	0.00e+00	0	39	0	574619648	66	4437
2026-01-20 00:03:24.34	43.60	38.82	-47.4	-49.0	18.5	0.00e+00	0	38	0	576716800	66	4321
2026-01-20 00:03:25.35	43.81	39.04	-47.5	-49.2	18.4	0.00e+00	0	39	0	577765376	66	4398
2026-01-20 00:03:26.36	44.03	39.27	-47.8	-49.6	18.0	0.00e+00	0	38	0	579862528	66	4643
2026-01-20 00:03:27.37	44.25	39.50	-47.8	-49.6	17.9	0.00e+00	0	38	0	581959680	66	4642
2026-01-20 00:03:28.37	44.47	39.72	-47.7	-49.5	18.1	0.00e+00	0	38	0	584056832	66	4552
2026-01-20 00:03:29.38	44.70	39.95	-47.4	-49.0	18.5	0.00e+00	0	38	0	586153984	66	4337
2026-01-20 00:03:30.39	44.93	40.18	-47.2	-48.8	18.8	0.00e+00	0	39	0	587202560	66	4205
2026-01-20 00:03:31.40	45.16	40.41	-46.8	-48.3	19.2	0.00e+00	0	38	0	589299712	65	4222
2026-01-20 00:03:32.41	45.40	40.65	-46.4	-47.9	19.6	0.00e+00	0	39	0	591396864	64	4250
2026-01-20 00:03:33.41	45.64	40.88	-46.2	-47.5	20.0	0.00e+00	0	38	0	593494016	64	4078
2026-01-20 00:03:34.42	45.88	41.11	-46.3	-47.7	19.8	0.00e+00	0	38	0	595591168	64	4183
2026-01-20 00:03:35.43	46.13	41.35	-46.6	-48.1	19.5	0.00e+00	0	38	0	596639744	64	4342
2026-01-20 00:03:36.44	46.38	41.58	-47.0	-48.6	19.0	0.00e+00	0	38	0	598736896	64	4636
2026-01-20 00:03:37.45	46.63	41.82	-47.4	-49.0	18.6	0.00e+00	0	38	0	600834048	65	4584
2026-01-20 00:03:38.45	46.89	42.06	-47.3	-49.0	18.6	0.00e+00	0	38	0	602931200	65	4551
2026-01-20 00:03:39.46	47.15	42.30	-47.4	-49.0	18.5	0.00e+00	0	38	0	605028352	65	4595
2026-01-20 00:03:40.47	47.41	42.54	-47.3	-48.9	18.7	0.00e+00	0	38	0	606076928	65	4508
2026-01-20 00:03:41.48	47.68	42.78	-47.2	-48.8	18.8	0.00e+00	0	39	0	608174080	65	4459
2026-01-20 00:03:42.49	47.96	43.02	-47.1	-48.7	18.8	0.00e+00	0	38	0	610271232	65	4430
2026-01-20 00:03:43.49	48.23	43.26	-47.0	-48.5	19.0	0.00e+00	0	39	0	612368384	65	4336
2026-01-20 00:03:44.50	48.51	43.50	-47.2	-48.9	18.7	0.00e+00	0	39	0	614465536	65	4503
2026-01-20 00:03:45.51	48.80	43.75	-47.5	-49.2	18.4	0.00e+00	0	38	0	615514112	65	4696
2026-01-20 00:03:46.52	49.09	43.99	-47.9	-49.7	18.0	0.00e+00	0	39	0	617611264	66	4659
2026-01-20 00:03:47.53	49.38	44.24	-47.8	-49.6	18.0	0.00e+00	0	39	0	619708416	66	4606
2026-01-20 00:03:48.53	49.68	44.48	-47.9	-49.7	18.0	0.00e+00	0	38	0	621805568	66	4663
2026-01-20 00:03:49.54	49.98	44.73	-47.9	-49.8	17.9	0.00e+00	0	39	0	623902720	66	4710
2026-01-20 00:03:50.55	50.29	44.98	-48.1	-50.0	17.6	0.00e+00	0	38	0	625999872	66	4856
2026-01-20 00:03:51.56	50.60	45.23	-48.0	-49.9	17.7	0.00e+00	0	38	0	627048448	66	4788
2026-01-20 00:03:52.56	50.92	45.47	-48.1	-50.0	17.7	0.00e+00	0	38	0	629145600	66	4818
2026-01-20 00:03:53.57	51.24	45.72	-48.1	-50.0	17.6	0.00e+00	0	39	0	631242752	66	4856
2026-01-20 00:03:54.58	51.57	45.97	-48.3	-50.3	17.4	0.00e+00	0	38	0	633339904	67	4729
2026-01-20 00:03:55.59	51.90	46.23	-48.5	-50.5	17.2	0.00e+00	0	38	0	634388480	67	4844
2026-01-20 00:03:56.60	52.24	46.48	-49.2	-51.4	16.3	0.00e+00	0	38	0	636485632	68	5094
2026-01-20 00:03:57.61	52.58	46.73	-49.2	-51.5	16.3	0.00e+00	0	39	0	638582784	69	4824
2026-01-20 00:03:58.61	52.93	46.98	-49.2	-51.5	16.3	0.00e+00	0	38	0	640679936	69	4831
2026-01-20 00:03:59.62	53.28	47.23	-48.9	-51.0	16.7	0.00e+00	0	38	0	642777088	69	4555
2026-01-20 00:04:00.63	53.64	47.48	-48.6	-50.7	17.1	0.00e+00	0	39	0	643825664	69	4396
2026-01-20 00:04:01.64	54.01	47.74	-48.4	-50.3	17.5	0.00e+00	0	38	0	645922816	68	4448
2026-01-20 00:04:02.65	54.38	47.99	-48.5	-50.5	17.3	0.00e+00	0	38	0	648019968	68	4547
2026-01-20 00:04:03.65	54.75	48.24	-49.0	-51.2	16.5	0.00e+00	0	39	0	650117120	68	4952
2026-01-20 00:04:04.66	55.14	48.50	-49.6	-52.1	15.8	0.00e+00	0	39	0	652214272	69	5160
2026-01-20 00:04:05.67	55.53	48.75	-49.7	-52.2	15.6	0.00e+00	0	38	0	654311424	69	5258
2026-01-20 00:04:06.68	55.93	49.00	-49.8	-52.4	15.3	0.00e+00	0	39	0	655360000	70	5069
2026-01-20 00:04:07.68	56.33	49.26	-49.4	-51.7	16.0	0.00e+00	0	39	0	657457152	70	4692
2026-01-20 00:04:08.69	56.74	49.51	-49.0	-51.2	16.6	0.00e+00	0	39	0	659554304	70	4411
2026-01-20 00:04:09.70	57.15	49.76	-48.8	-50.9	16.9	0.00e+00	0	38	0	661651456	69	4513
2026-01-20 00:04:10.71	57.58	50.02	-48.5	-50.5	17.3	0.00e+00	0	39	0	662700032	69	4337
2026-01-20 00:04:11.71	58.01	50.27	-48.7	-50.8	17.0	0.00e+00	0	38	0	664797184	68	4718
2026-01-20 00:04:12.72	58.44	50.52	-48.6	-50.7	17.1	0.00e+00	0	38	0	666894336	68	4659
2026-01-20 00:04:13.73	58.89	50.78	-48.7	-50.7	17.1	0.00e+00	0	38	0	668991488	68	4681
2026-01-20 00:04:14.74	59.34	51.03	-48.5	-50.5	17.3	0.00e+00	0	38	0	671088640	68	4562
2026-01-20 00:04:15.75	59.80	51.28	-48.2	-50.1	17.6	0.00e+00	0	38	0	672137216	68	4381
2026-01-20 00:04:16.75	60.27	51.53	-47.7	-49.5	18.2	0.00e+00	0	38	0	674234368	67	4294
2026-01-20 00:04:17.76	60.74	51.78	-47.6	-49.4	18.3	0.00e+00	0	38	0	676331520	67	4248
2026-01-20 00:04:18.77	61.23	52.03	-47.5	-49.2	18.4	0.00e+00	0	39	0	678428672	66	4436
2026-01-20 00:04:19.78	61.72	52.28	-47.4	-49.1	18.6	0.00e+00	0	38	0	680525824	66	4370
2026-01-20 00:04:20.79	62.22	52.53	-47.2	-48.8	18.8	0.00e+00	0	38	0	682622976	66	4221
2026-01-20 00:04:21.79	62.72	52.77	-47.2	-48.8	18.9	0.00e+00	0	39	0	683671552	66	4198
2026-01-20 00:04:22.80	63.24	53.02	-46.7	-48.1	19.5	0.00e+00	0	38	0	685768704	65	4130
2026-01-20 00:04:23.81	63.77	53.26	-46.2	-47.5	20.1	0.00e+00	0	38	0	687865856	64	4071
2026-01-20 00:04:24.82	64.30	53.51	-46.1	-47.5	20.2	0.00e+00	0	38	0	689963008	63	4300
2026-01-20 00:04:25.83	64.85	53.75	-46.0	-47.3	20.4	0.00e+00	0	38	0	691011584	63	4215
2026-01-20 00:04:26.83	65.40	53.99	-46.4	-47.8	19.9	0.00e+00	0	38	0	693108736	63	4482
2026-01-20 00:04:27.84	65.96	54.23	-46.7	-48.1	19.5	0.00e+00	0	38	0	695205888	64	4391
2026-01-20 00:04:28.85	66.53	54.47	-46.7	-48.2	19.5	0.00e+00	0	38	0	697303040	64	4427
2026-01-20 00:04:29.86	67.11	54.70	-46.5	-47.9	19.7	0.00e+00	0	38	0	699400192	64	4251
2026-01-20 00:04:30.87	67.70	54.94	-46.2	-47.5	20.1	0.00e+00	0	38	0	701497344	64	4080
2026-01-20 00:04:31.87	68.30	55.17	-46.1	-47.4	20.2	0.00e+00	0	38	0	702545920	64	4023
2026-01-20 00:04:32.88	68.91	55.40	-46.3	-47.6	20.0	0.00e+00	0	39	0	704643072	64	4137
2026-01-20 00:04:33.89	69.53	55.63	-46.5	-48.0	19.6	0.00e+00	0	38	0	706740224	64	4299
2026-01-20 00:04:34.90	70.16	55.85	-46.9	-48.4	19.2	0.00e+00	0	38	0	708837376	64	4535
2026-01-20 00:04:35.91	70.80	56.08	-47.2	-48.8	18.8	0.00e+00	0	39	0	710934528	64	4746
2026-01-20 00:04:36.91	71.44	56.29	-47.3	-49.0	18.7	0.00e+00	0	39	0	711983104	65	4562
2026-01-20 00:04:37.92	72.10	56.51	-47.5	-49.2	18.6	0.00e+00	0	38	0	714080256	65	4673
2026-01-20 00:04:38.93	72.77	56.73	-47.6	-49.3	18.4	0.00e+00	0	38	0	716177408	65	4713
2026-01-20 00:04:39.93	73.45	56.94	-47.1	-48.7	18.9	0.00e+00	0	39	0	718274560	65	4421
2026-01-20 00:04:40.94	74.14	57.15	-46.9	-48.4	19.2	0.00e+00	0	39	0	719323136	65	4272
2026-01-20 00:04:41.95	74.84	57.35	-46.9	-48.5	19.2	0.00e+00	0	39	0	721420288	65	4292
2026-01-20 00:04:42.96	75.56	57.56	-47.1	-48.6	19.1	0.00e+00	0	39	0	723517440	65	4374
2026-01-20 00:04:43.96	76.27	57.75	-47.2	-48.8	18.9	0.00e+00	0	38	0	725614592	65	4488
2026-01-20 00:04:44.97	77.01	57.95	-47.4	-49.1	18.6	0.00e+00	0	38	0	727711744	65	4623
2026-01-20 00:04:45.98	77.75	58.14	-47.4	-49.1	18.6	0.00e+00	0	38	0	729808896	65	4619
2026-01-20 00:04:46.99	78.51	58.33	-47.3	-48.9	18.8	0.00e+00	0	39	0	730857472	65	4512
2026-01-20 00:04:47.99	79.26	58.51	-46.9	-48.4	19.3	0.00e+00	0	39	0	732954624	65	4272
2026-01-20 00:04:49.00	80.04	58.69	-46.6	-48.1	19.6	0.00e+00	0	39	0	735051776	65	4107
2026-01-20 00:04:50.01	80.83	58.86	-46.8	-48.3	19.3	0.00e+00	0	39	0	737148928	65	4218
2026-01-20 00:04:51.02	81.62	59.04	-47.4	-49.0	18.6	0.00e+00	0	39	0	739246080	65	4595
2026-01-20 00:04:52.03	82.43	59.20	-47.7	-49.4	18.3	0.00e+00	0	39	0	740294656	65	4788
2026-01-20 00:04:53.03	83.24	59.36	-47.6	-49.3	18.4	0.00e+00	0	38	0	742391808	66	4478
2026-01-20 00:04:54.04	84.07	59.52	-47.4	-49.0	18.7	0.00e+00	0	39	0	744488960	66	4328
2026-01-20 00:04:55.05	84.91	59.67	-47.1	-48.6	19.1	0.00e+00	0	38	0	746586112	66	4121
2026-01-20 00:04:56.05	85.74	59.81	-46.8	-48.2	19.4	0.00e+00	0	39	0	748683264	65	4184
2026-01-20 00:04:57.06	86.60	59.96	-46.4	-47.7	19.9	0.00e+00	0	38	0	749731840	64	4192
2026-01-20 00:04:58.07	87.47	60.09	-46.2	-47.5	20.0	0.00e+00	0	38	0	751828992	64	4097
2026-01-20 00:04:59.08	88.34	60.22	-46.3	-47.7	19.9	0.00e+00	0	38	0	753926144	64	4147
2026-01-20 00:05:00.09	89.22	60.35	-46.7	-48.1	19.5	0.00e+00	0	38	0	756023296	64	4379
2026-01-20 00:05:01.09	90.11	60.46	-47.2	-48.8	18.9	0.00e+00	0	39	0	758120448	64	4743
2026-01-20 00:05:02.10	91.00	60.58	-47.4	-49.0	18.6	0.00e+00	0	39	0	759169024	65	4573
2026-01-20 00:05:03.11	91.91	60.68	-46.8	-48.3	19.3	0.00e+00	0	39	0	761266176	65	4231
2026-01-20 00:05:04.12	92.83	60.78	-46.1	-47.4	20.1	0.00e+00	0	39	0	763363328	64	4045
2026-01-20 00:05:05.13	93.75	60.88	-46.3	-47.7	19.9	0.00e+00	0	39	0	765460480	64	4181
2026-01-20 00:05:06.14	94.68	60.97	-46.9	-48.4	19.3	0.00e+00	0	38	0	767557632	64	4537
2026-01-20 00:05:07.15	95.61	61.05	-47.2	-48.8	18.9	0.00e+00	0	38	0	768606208	64	4712
2026-01-20 00:05:08.15	96.54	61.12	-47.5	-49.2	18.5	0.00e+00	0	39	0	770703360	65	4652
2026-01-20 00:05:09.16	97.49	61.19	-47.3	-48.9	18.8	0.00e+00	0	38	0	772800512	65	4506
2026-01-20 00:05:10.17	98.44	61.25	-46.8	-48.3	19.4	0.00e+00	0	39	0	774897664	65	4197
2026-01-20 00:05:11.18	99.40	61.31	-46.8	-48.3	19.4	0.00e+00	0	38	0	776994816	65	4235
2026-01-20 00:05:12.19	100.35	61.36	-47.1	-48.7	18.9	0.00e+00	0	39	0	778043392	65	4422
2026-01-20 00:05:13.20	101.32	61.40	-47.1	-48.6	19.1	0.00e+00	0	38	0	780140544	65	4368
2026-01-20 00:05:14.20	102.27	61.43	-47.0	-48.5	19.1	0.00e+00	0	38	0	782237696	65	4329
2026-01-20 00:05:15.21	103.24	61.46	-46.8	-48.3	19.4	0.00e+00	0	38	0	784334848	65	4197
2026-01-20 00:05:16.22	104.21	61.48	-46.3	-47.7	19.9	0.00e+00	0	39	0	786432000	64	4165
2026-01-20 00:05:17.22	105.17	61.49	-46.0	-47.3	20.3	0.00e+00	0	38	0	787480576	64	3991
2026-01-20 00:05:18.23	106.15	61.50	-46.2	-47.6	20.0	0.00e+00	0	39	0	789577728	64	4125
2026-01-20 00:05:19.24	107.12	61.50	-46.1	-47.4	20.2	0.00e+00	0	39	0	791674880	64	4051
2026-01-20 00:05:20.25	108.09	61.49	-45.7	-46.9	20.8	0.00e+00	0	38	0	793772032	63	4031
2026-01-20 00:05:21.25	109.05	61.47	-45.5	-46.7	21.0	0.00e+00	0	38	0	795869184	62	4154
2026-01-20 00:05:22.26	110.02	61.45	-45.4	-46.7	21.0	0.00e+00	0	38	0	797966336	62	4146
2026-01-20 00:05:23.27	110.99	61.42	-44.9	-46.0	21.6	0.00e+00	0	38	0	799014912	61	4053
2026-01-20 00:05:24.28	111.95	61.39	-44.6	-45.7	21.9	0.00e+00	0	39	0	801112064	61	3914
2026-01-20 00:05:25.29	112.92	61.35	-44.8	-45.9	21.7	0.00e+00	0	39	0	803209216	61	4027
2026-01-20 00:05:26.29	113.86	61.30	-45.4	-46.6	21.1	0.00e+00	0	39	0	805306368	61	4386
2026-01-20 00:05:27.30	114.82	61.24	-46.0	-47.4	20.3	0.00e+00	0	39	0	806354944	62	4498
2026-01-20 00:05:28.31	115.77	61.18	-46.4	-47.8	19.9	0.00e+00	0	39	0	808452096	63	4463
2026-01-20 00:05:29.32	116.71	61.11	-46.5	-47.9	19.8	0.00e+00	0	39	0	810549248	63	4527
2026-01-20 00:05:30.33	117.65	61.03	-46.8	-48.4	19.3	0.00e+00	0	39	0	812646400	64	4494
2026-01-20 00:05:31.33	118.58	60.95	-47.4	-49.1	18.6	0.00e+00	0	39	0	814743552	65	4618
2026-01-20 00:05:32.34	119.51	60.86	-46.8	-48.3	19.4	0.00e+00	0	39	0	815792128	65	4229
2026-01-20 00:05:33.35	120.43	60.76	-46.7	-48.2	19.5	0.00e+00	0	38	0	817889280	65	4154
2026-01-20 00:05:34.35	121.33	60.66	-46.8	-48.2	19.3	0.00e+00	0	38	0	819986432	65	4187
2026-01-20 00:05:35.36	122.24	60.55	-47.5	-49.2	18.5	0.00e+00	0	39	0	822083584	65	4678
2026-01-20 00:05:36.37	123.14	60.44	-47.6	-49.4	18.3	0.00e+00	0	38	0	824180736	66	4494
2026-01-20 00:05:37.38	124.03	60.32	-47.5	-49.2	18.5	0.00e+00	0	39	0	826277888	66	4411
2026-01-20 00:05:38.39	124.91	60.19	-47.3	-48.9	18.8	0.00e+00	0	39	0	827326464	66	4278
2026-01-20 00:05:39.39	125.77	60.06	-47.2	-48.7	18.9	0.00e+00	0	39	0	829423616	66	4188
2026-01-20 00:05:40.40	126.64	59.93	-47.7	-49.4	18.3	0.00e+00	0	39	0	831520768	66	4530
2026-01-20 00:05:41.41	127.49	59.78	-47.9	-49.7	18.0	0.00e+00	0	38	0	833617920	66	4679
2026-01-20 00:05:42.42	128.34	59.63	-47.7	-49.4	18.3	0.00e+00	0	39	0	834666496	66	4506
2026-01-20 00:05:43.43	129.17	59.48	-47.3	-48.9	18.8	0.00e+00	0	39	0	836763648	66	4264
2026-01-20 00:05:44.43	129.99	59.33	-47.7	-49.5	18.2	0.00e+00	0	39	0	838860800	66	4559
2026-01-20 00:05:45.44	130.81	59.16	-48.0	-49.8	17.9	0.00e+00	0	39	0	840957952	66	4734
2026-01-20 00:05:46.45	131.61	59.00	-47.9	-49.6	18.0	0.00e+00	0	39	0	843055104	66	4636
2026-01-20 00:05:47.46	132.41	58.82	-47.4	-49.0	18.7	0.00e+00	0	39	0	845152256	66	4334
2026-01-20 00:05:48.47	133.19	58.65	-47.7	-49.4	18.2	0.00e+00	0	39	0	846200832	66	4543
2026-01-20 00:05:49.47	133.96	58.47	-48.4	-50.5	17.4	0.00e+00	0	39	0	848297984	67	4824
2026-01-20 00:05:50.48	134.72	58.28	-48.5	-50.5	17.2	0.00e+00	0	39	0	850395136	67	4857
2026-01-20 00:05:51.49	135.48	58.09	-47.7	-49.5	18.2	0.00e+00	0	39	0	852492288	67	4306
2026-01-20 00:05:52.50	136.22	57.90	-47.6	-49.3	18.4	0.00e+00	0	39	0	854589440	67	4216
2026-01-20 00:05:53.51	136.95	57.70	-47.4	-49.0	18.6	0.00e+00	0	38	0	855638016	66	4315
2026-01-20 00:05:54.51	137.67	57.51	-47.1	-48.6	18.9	0.00e+00	0	39	0	857735168	66	4141
2026-01-20 00:05:55.52	138.38	57.30	-46.8	-48.3	19.3	0.00e+00	0	39	0	859832320	65	4222
2026-01-20 00:05:56.53	139.08	57.09	-47.2	-48.8	18.8	0.00e+00	0	39	0	861929472	65	4491
2026-01-20 00:05:57.54	139.77	56.88	-47.3	-48.9	18.7	0.00e+00	0	39	0	862978048	65	4543
2026-01-20 00:05:58.54	140.45	56.67	-46.5	-47.9	19.7	0.00e+00	0	39	0	865075200	64	4248
2026-01-20 00:05:59.55	141.12	56.46	-45.9	-47.2	20.5	0.00e+00	0	39	0	867172352	63	4178
2026-01-20 00:06:00.56	141.77	56.24	-46.2	-47.5	20.1	0.00e+00	0	38	0	869269504	63	4336
2026-01-20 00:06:01.57	142.42	56.02	-46.1	-47.4	20.3	0.00e+00	0	39	0	871366656	63	4291
2026-01-20 00:06:02.57	143.06	55.79	-45.8	-47.0	20.6	0.00e+00	0	39	0	873463808	63	4078
2026-01-20 00:06:03.58	143.68	55.57	-45.7	-46.9	20.8	0.00e+00	0	38	0	874512384	63	4032
2026-01-20 00:06:04.59	144.30	55.34	-45.6	-46.8	20.8	0.00e+00	0	39	0	876609536	63	4004
2026-01-20 00:06:05.60	144.91	55.11	-45.1	-46.2	21.4	0.00e+00	0	39	0	878706688	62	3944
2026-01-20 00:06:06.61	145.51	54.87	-44.7	-45.8	21.8	0.00e+00	0	39	0	880803840	61	3982
2026-01-20 00:06:07.61	146.09	54.64	-44.6	-45.7	21.9	0.00e+00	0	39	0	882900992	61	3942
2026-01-20 00:06:08.62	146.67	54.40	-44.2	-45.2	22.2	0.00e+00	0	39	0	883949568	60	3951
2026-01-20 00:06:09.63	147.24	54.16	-43.9	-44.9	22.9	0.00e+00	0	38	0	886046720	59	4006
2026-01-20 00:06:10.64	147.81	53.92	-43.6	-44.6	23.1	0.00e+00	0	39	0	888143872	59	3903
2026-01-20 00:06:11.65	148.36	53.68	-44.0	-45.0	22.7	0.00e+00	0	38	0	890241024	59	4095
2026-01-20 00:06:12.65	148.89	53.44	-44.1	-45.2	22.6	0.00e+00	0	39	0	892338176	59	4166
2026-01-20 00:06:13.66	149.43	53.19	-43.9	-44.9	22.8	0.00e+00	0	39	0	893386752	59	4049
2026-01-20 00:06:14.67	149.95	52.95	-43.9	-44.9	22.8	0.00e+00	0	39	0	895483904	59	4016
2026-01-20 00:06:15.68	150.47	52.70	-44.2	-45.2	22.6	0.00e+00	0	39	0	897581056	59	4176
2026-01-20 00:06:16.69	150.98	52.45	-44.5	-45.5	22.2	0.00e+00	0	39	0	899678208	59	4338
2026-01-20 00:06:17.69	151.47	52.21	-44.4	-45.4	22.4	0.00e+00	0	39	0	901775360	59	4275
2026-01-20 00:06:18.70	151.96	51.96	-44.5	-45.5	22.3	0.00e+00	0	39	0	902823936	59	4340
2026-01-20 00:06:19.71	152.45	51.71	-44.4	-45.4	22.1	0.00e+00	0	39	0	904921088	60	4041
2026-01-20 00:06:20.72	152.92	51.45	-44.8	-45.9	21.7	0.00e+00	0	39	0	907018240	60	4272
2026-01-20 00:06:21.73	153.39	51.20	-45.3	-46.5	21.1	0.00e+00	0	38	0	909115392	61	4311
2026-01-20 00:06:22.73	153.84	50.95	-46.2	-47.6	20.1	0.00e+00	0	39	0	911212544	62	4601
2026-01-20 00:06:23.74	154.29	50.70	-46.6	-48.0	19.7	0.00e+00	0	39	0	912261120	63	4567
2026-01-20 00:06:24.75	154.74	50.44	-46.4	-47.7	19.9	0.00e+00	0	39	0	914358272	63	4441
2026-01-20 00:06:25.76	155.18	50.19	-46.2	-47.5	20.1	0.00e+00	0	39	0	916455424	63	4333
2026-01-20 00:06:26.77	155.61	49.94	-47.1	-48.6	19.0	0.00e+00	0	39	0	918552576	64	4634
2026-01-20 00:06:27.77	156.02	49.68	-48.4	-50.3	17.4	0.00e+00	0	39	0	920649728	67	4757
2026-01-20 00:06:28.78	156.44	49.43	-49.0	-51.2	16.6	0.00e+00	0	39	0	921698304	68	4961
2026-01-20 00:06:29.79	156.85	49.17	-48.4	-50.3	17.4	0.00e+00	0	39	0	923795456	68	4476
2026-01-20 00:06:30.80	157.25	48.92	-48.3	-50.3	17.5	0.00e+00	0	38	0	925892608	68	4443
2026-01-20 00:06:31.81	157.65	48.66	-48.6	-50.6	17.2	0.00e+00	0	38	0	927989760	68	4617
2026-01-20 00:06:32.82	158.04	48.41	-48.8	-51.0	16.8	0.00e+00	0	39	0	930086912	68	4830
2026-01-20 00:06:33.82	158.42	48.16	-48.8	-51.0	16.8	0.00e+00	0	39	0	931135488	68	4823
2026-01-20 00:06:34.83	158.79	47.90	-49.1	-51.4	16.4	0.00e+00	0	39	0	933232640	68	5050
2026-01-20 00:06:35.84	159.17	47.65	-50.0	-52.8	15.0	0.00e+00	0	39	0	935329792	70	5296
2026-01-20 00:06:36.85	159.53	47.39	-50.5	-53.6	14.0	7.00e-07	0	39	0	937426944	71	5528
2026-01-20 00:06:37.85	159.89	47.14	-50.2	-53.1	14.6	7.00e-07	0	39	0	939524096	71	5185
2026-01-20 00:06:38.86	160.24	46.89	-50.0	-52.8	15.0	0.00e+00	0	39	0	940572672	71	4985
2026-01-20 00:06:39.87	160.59	46.64	-50.5	-53.6	14.1	7.00e-07	0	39	0	942669824	71	5499
2026-01-20 00:06:40.88	160.93	46.38	-51.1	-55.0	12.6	3.28e-05	0	39	0	944766976	72	6105
2026-01-20 00:06:41.89	161.27	46.13	-51.0	-54.7	12.9	1.21e-04	0	39	0	946864128	73	5562
2026-01-20 00:06:42.89	161.60	45.88	-50.1	-53.0	14.6	3.80e-06	0	39	0	948961280	72	4829
2026-01-20 00:06:43.90	161.92	45.63	-49.8	-52.4	15.3	0.00e+00	0	39	0	950009856	71	4768
2026-01-20 00:06:44.91	162.25	45.38	-49.7	-52.4	15.4	0.00e+00	0	39	0	952107008	71	4771
2026-01-20 00:06:45.92	162.56	45.13	-50.7	-54.1	13.5	0.00e+00	0	39	0	954204160	71	5834
2026-01-20 00:06:46.93	162.87	44.88	-50.5	-53.8	13.7	9.10e-06	0	39	0	956301312	72	5310
2026-01-20 00:06:47.94	163.18	44.63	-49.3	-51.7	15.9	0.00e+00	0	39	0	958398464	70	4694
2026-01-20 00:06:48.94	163.48	44.39	-48.4	-50.4	17.1	0.00e+00	0	39	0	959447040	68	4523
2026-01-20 00:06:49.95	163.78	44.14	-48.3	-50.2	17.5	0.00e+00	0	39	0	961544192	68	4393
2026-01-20 00:06:50.95	164.07	43.89	-47.6	-49.4	18.2	0.00e+00	0	39	0	963641344	67	4244
2026-01-20 00:06:51.96	164.36	43.65	-47.2	-48.8	18.8	0.00e+00	0	39	0	965738496	66	4210
2026-01-20 00:06:52.97	164.64	43.40	-47.3	-48.9	18.6	0.00e+00	0	39	0	967835648	66	4290
2026-01-20 00:06:53.98	164.92	43.16	-47.4	-49.0	18.5	0.00e+00	0	38	0	968884224	66	4336
2026-01-20 00:06:54.99	165.20	42.92	-47.2	-48.8	18.8	0.00e+00	0	39	0	970981376	66	4225
2026-01-20 00:06:55.99	165.47	42.68	-46.5	-47.9	19.5	0.00e+00	0	39	0	973078528	65	4044
2026-01-20 00:06:57.00	165.74	42.44	-46.0	-47.3	20.2	0.00e+00	0	38	0	975175680	63	4236
2026-01-20 00:06:58.01	166.00	42.19	-45.8	-47.0	20.5	0.00e+00	0	39	0	977272832	63	4095
2026-01-20 00:06:59.02	166.26	41.95	-45.4	-46.7	20.9	0.00e+00	0	39	0	978321408	62	4147
2026-01-20 00:07:00.03	166.52	41.72	-45.8	-47.1	20.5	0.00e+00	0	38	0	980418560	62	4363
2026-01-20 00:07:01.03	166.77	41.48	-46.9	-48.4	19.1	0.00e+00	0	39	0	982515712	64	4528
2026-01-20 00:07:02.04	167.02	41.24	-48.0	-49.9	17.7	0.00e+00	0	39	0	984612864	66	4790
2026-01-20 00:07:03.05	167.27	41.01	-47.3	-49.0	18.5	0.00e+00	0	39	0	986710016	66	4322
2026-01-20 00:07:04.06	167.51	40.77	-46.1	-47.5	20.0	0.00e+00	0	39	0	988807168	64	4060
2026-01-20 00:07:05.07	167.75	40.54	-45.3	-46.5	21.0	0.00e+00	0	39	0	989855744	62	4054
2026-01-20 00:07:06.07	167.98	40.31	-45.2	-46.4	21.1	0.00e+00	0	38	0	991952896	62	4013
2026-01-20 00:07:07.08	168.21	40.07	-45.3	-46.5	21.0	0.00e+00	0	39	0	994050048	62	4075
2026-01-20 00:07:08.09	168.44	39.84	-45.7	-47.0	20.5	0.00e+00	0	38	0	996147200	62	4335
2026-01-20 00:07:09.10	168.67	39.61	-46.7	-48.1	19.5	0.00e+00	0	38	0	997195776	63	4649
2026-01-20 00:07:10.11	168.89	39.38	-47.2	-49.0	18.6	0.00e+00	0	39	0	999292928	65	4562
2026-01-20 00:07:11.11	169.11	39.16	-47.6	-49.4	18.2	0.00e+00	0	38	0	1001390080	65	4778
2026-01-20 00:07:12.12	169.33	38.93	-47.3	-49.1	18.5	0.00e+00	0	39	0	1003487232	65	4600
2026-01-20 00:07:13.13	169.54	38.71	-47.1	-48.7	18.8	0.00e+00	0	39	0	1005584384	65	4407
2026-01-20 00:07:14.14	169.75	38.48	-46.3	-47.8	19.7	0.00e+00	0	39	0	1006632960	64	4194
2026-01-20 00:07:15.15	169.96	38.26	-46.1	-47.4	20.1	0.00e+00	0	39	0	1008730112	63	4278
2026-01-20 00:07:16.16	170.17	38.03	-45.7	-46.9	20.6	0.00e+00	0	39	0	1010827264	63	4040
2026-01-20 00:07:17.16	170.37	37.82	-45.6	-46.9	20.6	0.00e+00	0	39	0	1012924416	63	4018
2026-01-20 00:07:18.17	170.57	37.59	-45.7	-47.0	20.5	0.00e+00	0	39	0	1015021568	63	4079
2026-01-20 00:07:19.18	170.77	37.38	-46.1	-47.5	20.0	0.00e+00	0	39	0	1017118720	63	4302
2026-01-20 00:07:20.19	170.96	37.16	-46.7	-48.3	19.2	0.00e+00	0	39	0	1018167296	64	4454
2026-01-20 00:07:21.19	171.15	36.94	-47.2	-48.8	18.7	0.00e+00	0	39	0	1020264448	64	4734
2026-01-20 00:07:22.20	171.34	36.73	-47.5	-49.2	18.3	0.00e+00	0	39	0	1022361600	65	4697
2026-01-20 00:07:23.21	171.53	36.51	-47.2	-48.9	18.6	0.00e+00	0	39	0	1024458752	65	4529
2026-01-20 00:07:24.22	171.71	36.30	-47.0	-48.6	18.8	0.00e+00	0	39	0	1025507328	65	4372
2026-01-20 00:07:25.23	171.90	36.08	-46.6	-48.1	19.4	0.00e+00	0	39	0	1027604480	65	4110
2026-01-20 00:07:26.24	172.08	35.87	-46.0	-47.4	20.0	0.00e+00	0	39	0	1029701632	64	4018
2026-01-20 00:07:27.24	172.25	35.66	-46.2	-47.5	19.9	0.00e+00	0	38	0	1031798784	63	4340
2026-01-20 00:07:28.25	172.43	35.45	-46.2	-47.5	20.0	0.00e+00	0	39	0	1033895936	63	4323
2026-01-20 00:07:29.26	172.60	35.24	-46.3	-47.7	19.8	0.00e+00	0	39	0	1035993088	63	4410
2026-01-20 00:07:30.27	172.78	35.04	-46.7	-48.1	19.4	0.00e+00	0	39	0	1037041664	63	4644
2026-01-20 00:07:31.28	172.94	34.83	-47.0	-48.5	18.9	0.00e+00	0	39	0	1039138816	64	4592
2026-01-20 00:07:32.28	173.11	34.63	-47.2	-48.9	18.6	0.00e+00	0	38	0	1041235968	65	4530
2026-01-20 00:07:33.29	173.28	34.42	-47.4	-49.1	18.3	0.00e+00	0	39	0	1043333120	65	4600
2026-01-20 00:07:34.30	173.44	34.22	-47.4	-49.1	18.4	0.00e+00	0	39	0	1045430272	65	4621
2026-01-20 00:07:35.31	173.60	34.02	-47.2	-48.8	18.6	0.00e+00	0	39	0	1046478848	65	4490
2026-01-20 00:07:36.31	173.76	33.82	-46.9	-48.4	19.0	0.00e+00	0	39	0	1048576000	65	4290
2026-01-20 00:07:37.32	173.92	33.62	-46.8	-48.4	19.0	0.00e+00	0	39	0	1050673152	65	4256
2026-01-20 00:07:38.33	174.07	33.42	-46.8	-48.3	19.2	0.00e+00	0	38	0	1052770304	65	4207
2026-01-20 00:07:39.34	174.23	33.22	-46.7	-48.2	19.2	0.00e+00	0	39	0	1053818880	65	4171
2026-01-20 00:07:40.35	174.38	33.02	-46.7	-48.2	19.2	0.00e+00	0	39	0	1055916032	65	4174
2026-01-20 00:07:41.35	174.53	32.83	-46.9	-48.5	18.9	0.00e+00	0	38	0	1058013184	65	4298
2026-01-20 00:07:42.36	174.68	32.64	-47.1	-48.7	18.7	0.00e+00	0	39	0	1060110336	65	4412
2026-01-20 00:07:43.37	174.82	32.44	-47.4	-49.1	18.4	0.00e+00	0	39	0	1062207488	65	4602
2026-01-20 00:07:44.38	174.97	32.25	-47.5	-49.2	18.2	0.00e+00	0	39	0	1064304640	65	4692
2026-01-20 00:07:45.39	175.11	32.06	-47.7	-49.5	17.9	0.00e+00	0	39	0	1065353216	65	4844
2026-01-20 00:07:46.39	175.25	31.87	-48.0	-49.9	17.5	0.00e+00	0	39	0	1067450368	66	4808
2026-01-20 00:07:47.40	175.39	31.68	-47.9	-49.8	17.6	0.00e+00	0	39	0	1069547520	66	4750
2026-01-20 00:07:48.41	175.53	31.49	-48.1	-50.1	17.3	0.00e+00	0	39	0	1071644672	66	4905
2026-01-20 00:07:49.42	175.67	31.30	-48.3	-50.4	17.1	0.00e+00	0	39	0	1073741824	67	4761
2026-01-20 00:07:50.43	175.81	31.12	-48.4	-50.4	16.9	0.00e+00	0	39	0	1074790400	67	4813
2026-01-20 00:07:51.43	175.94	30.93	-48.4	-50.5	16.9	0.00e+00	0	39	0	1076887552	67	4851
2026-01-20 00:07:52.44	176.07	30.75	-48.5	-50.7	16.8	0.00e+00	0	39	0	1078984704	67	4929
2026-01-20 00:07:53.45	176.20	30.57	-48.4	-50.4	17.0	0.00e+00	0	39	0	1081081856	67	4806
2026-01-20 00:07:54.46	176.33	30.38	-48.2	-50.2	17.2	0.00e+00	0	39	0	1083179008	67	4689
2026-01-20 00:07:55.46	176.46	30.20	-48.2	-50.2	17.3	0.00e+00	0	39	0	1084227584	67	4658
2026-01-20 00:07:56.47	176.59	30.02	-48.0	-49.9	17.5	0.00e+00	0	39	0	1086324736	67	4529
2026-01-20 00:07:57.48	176.71	29.84	-47.9	-49.8	17.6	0.00e+00	0	39	0	1088421888	67	4460
2026-01-20 00:07:58.49	176.84	29.67	-47.8	-49.6	17.7	0.00e+00	0	39	0	1090519040	67	4368
2026-01-20 00:07:59.50	176.96	29.49	-47.7	-49.5	17.9	0.00e+00	0	39	0	1092616192	67	4297
2026-01-20 00:08:00.51	177.08	29.31	-47.8	-49.7	17.7	0.00e+00	0	39	0	1093664768	67	4399
2026-01-20 00:08:01.52	177.21	29.14	-47.6	-49.4	18.0	0.00e+00	0	39	0	1095761920	67	4243
2026-01-20 00:08:02.52	177.32	28.96	-47.6	-49.5	17.9	0.00e+00	0	39	0	1097859072	67	4298
2026-01-20 00:08:03.53	177.44	28.79	-47.5	-49.3	18.0	0.00e+00	0	39	0	1099956224	67	4217
2026-01-20 00:08:04.53	177.56	28.62	-47.5	-49.3	18.1	0.00e+00	0	39	0	1102053376	66	4454
2026-01-20 00:08:05.54	177.67	28.45	-47.5	-49.3	18.1	0.00e+00	0	39	0	1103101952	66	4458
2026-01-20 00:08:06.55	177.79	28.28	-47.6	-49.4	17.9	0.00e+00	0	38	0	1105199104	66	4533
2026-01-20 00:08:07.56	177.90	28.11	-47.6	-49.5	17.9	0.00e+00	0	39	0	1107296256	66	4557
2026-01-20 00:08:08.57	178.01	27.94	-47.7	-49.6	17.8	0.00e+00	0	39	0	1109393408	66	4617
2026-01-20 00:08:09.57	178.12	27.77	-47.8	-49.7	17.7	0.00e+00	0	39	0	1111490560	66	4658
2026-01-20 00:08:10.58	178.23	27.60	-47.7	-49.6	17.7	0.00e+00	0	39	0	1112539136	66	4633
2026-01-20 00:08:11.59	178.34	27.44	-47.7	-49.6	17.6	0.00e+00	0	39	0	1114636288	66	4629
2026-01-20 00:08:12.60	178.45	27.27	-47.6	-49.4	18.0	0.00e+00	0	39	0	1116733440	66	4517
2026-01-20 00:08:13.61	178.56	27.11	-47.5	-49.3	18.0	0.00e+00	0	38	0	1118830592	66	4474
2026-01-20 00:08:14.62	178.66	26.94	-47.3	-49.1	18.2	0.00e+00	0	39	0	1120927744	66	4352
2026-01-20 00:08:15.62	178.77	26.78	-47.0	-48.6	18.7	0.00e+00	0	39	0	1121976320	66	4141
2026-01-20 00:08:16.63	178.87	26.62	-46.6	-48.1	19.2	0.00e+00	0	39	0	1124073472	65	4119
2026-01-20 00:08:17.64	178.97	26.46	-46.5	-48.0	19.2	0.00e+00	0	39	0	1126170624	65	4078
2026-01-20 00:08:18.65	179.07	26.30	-46.4	-47.8	19.4	0.00e+00	0	39	0	1128267776	64	4234
2026-01-20 00:08:19.66	179.18	26.14	-46.2	-47.6	19.6	0.00e+00	0	39	0	1130364928	64	4131
2026-01-20 00:08:20.67	179.28	25.98	-46.2	-47.6	19.7	0.00e+00	0	39	0	1132462080	64	4107
2026-01-20 00:08:21.67	179.37	25.83	-46.3	-47.7	19.5	0.00e+00	0	39	0	1133510656	64	4170
2026-01-20 00:08:22.68	179.47	25.67	-46.3	-47.8	19.5	0.00e+00	0	38	0	1135607808	64	4220
2026-01-20 00:08:23.69	179.57	25.51	-46.4	-47.9	19.3	0.00e+00	0	39	0	1137704960	64	4280
2026-01-20 00:08:24.70	179.66	25.36	-46.6	-48.1	19.1	0.00e+00	0	39	0	1139802112	64	4375
2026-01-20 00:08:25.71	179.76	25.20	-46.8	-48.4	18.8	0.00e+00	0	39	0	1140850688	64	4523
2026-01-20 00:08:26.72	179.85	25.05	-46.9	-48.5	18.7	0.00e+00	0	39	0	1142947840	64	4586
2026-01-20 00:08:27.72	179.95	24.90	-46.9	-48.6	18.6	0.00e+00	0	39	0	1145044992	64	4627
2026-01-20 00:08:28.73	180.04	24.75	-46.9	-48.5	18.7	0.00e+00	0	39	0	1147142144	64	4582
2026-01-20 00:08:29.74	180.13	24.60	-46.9	-48.5	18.7	0.00e+00	0	39	0	1149239296	64	4586
2026-01-20 00:08:30.75	180.22	24.45	-46.8	-48.4	18.8	0.00e+00	0	39	0	1150287872	64	4521
2026-01-20 00:08:31.75	180.31	24.30	-46.5	-48.1	19.1	0.00e+00	0	39	0	1152385024	64	4361
2026-01-20 00:08:32.76	180.40	24.15	-46.3	-47.8	19.4	0.00e+00	0	39	0	1154482176	64	4240
2026-01-20 00:08:33.77	180.49	24.00	-46.2	-47.7	19.5	0.00e+00	0	39	0	1156579328	64	4170
2026-01-20 00:08:34.78	180.58	23.86	-46.1	-47.5	19.7	0.00e+00	0	39	0	1158676480	64	4075
2026-01-20 00:08:35.79	180.66	23.71	-45.9	-47.3	20.0	0.00e+00	0	39	0	1160773632	63	4218
2026-01-20 00:08:36.79	180.75	23.56	-45.8	-47.2	20.1	0.00e+00	0	39	0	1161822208	63	4167
2026-01-20 00:08:37.80	180.83	23.42	-45.6	-47.0	20.3	0.00e+00	0	38	0	1163919360	63	4052
2026-01-20 00:08:38.81	180.92	23.28	-45.5	-46.7	20.5	0.00e+00	0	39	0	1166016512	63	3958
2026-01-20 00:08:39.82	181.00	23.13	-45.3	-46.5	20.7	0.00e+00	0	39	0	1168113664	62	4090
2026-01-20 00:08:40.83	181.09	22.99	-45.2	-46.5	20.8	0.00e+00	0	39	0	1169162240	62	4065
2026-01-20 00:08:41.83	181.17	22.85	-45.3	-46.5	20.8	0.00e+00	0	39	0	1171259392	62	4072
2026-01-20 00:08:42.84	181.25	22.71	-45.2	-46.4	20.8	0.00e+00	0	39	0	1173356544	62	4024
2026-01-20 00:08:43.85	181.33	22.57	-45.3	-46.5	20.7	0.00e+00	0	39	0	1175453696	62	4088
2026-01-20 00:08:44.86	181.41	22.43	-45.3	-46.6	20.7	0.00e+00	0	39	0	1177550848	62	4117
2026-01-20 00:08:45.86	181.49	22.29	-45.4	-46.7	20.6	0.00e+00	0	38	0	1179648000	62	4157
2026-01-20 00:08:46.87	181.57	22.15	-45.5	-46.7	20.5	0.00e+00	0	39	0	1180696576	62	4184
2026-01-20 00:08:47.88	181.65	22.01	-45.5	-46.8	20.4	0.00e+00	0	38	0	1182793728	62	4224
2026-01-20 00:08:48.89	181.72	21.88	-45.7	-47.1	20.2	0.00e+00	0	39	0	1184890880	62	4354
2026-01-20 00:08:49.89	181.80	21.74	-45.9	-47.3	20.0	0.00e+00	0	39	0	1186988032	62	4450
2026-01-20 00:08:50.90	181.88	21.61	-46.0	-47.4	19.9	0.00e+00	0	39	0	1189085184	62	4496
2026-01-20 00:08:51.91	181.95	21.47	-45.9	-47.3	19.9	0.00e+00	0	39	0	1190133760	62	4467
2026-01-20 00:08:52.92	182.03	21.34	-46.0	-47.4	19.8	0.00e+00	0	39	0	1192230912	62	4523
2026-01-20 00:08:53.93	182.10	21.20	-46.0	-47.3	19.9	0.00e+00	0	39	0	1194328064	62	4492
2026-01-20 00:08:54.93	182.18	21.07	-46.0	-47.4	19.8	0.00e+00	0	39	0	1196425216	62	4528
2026-01-20 00:08:55.94	182.25	20.94	-45.9	-47.3	19.9	0.00e+00	0	39	0	1197473792	62	4488
2026-01-20 00:08:56.95	182.32	20.81	-45.9	-47.3	19.9	0.00e+00	0	39	0	1199570944	62	4475
2026-01-20 00:08:57.96	182.39	20.68	-45.8	-47.2	20.0	0.00e+00	0	38	0	1201668096	62	4417
2026-01-20 00:08:58.97	182.47	20.55	-45.7	-47.0	20.1	0.00e+00	0	39	0	1203765248	62	4331
2026-01-20 00:08:59.97	182.54	20.42	-45.6	-47.0	20.2	0.00e+00	0	39	0	1205862400	62	4297
2026-01-20 00:09:00.98	182.61	20.29	-45.6	-46.9	20.2	0.00e+00	0	39	0	1207959552	62	4290
2026-01-20 00:09:01.99	182.68	20.16	-45.4	-46.7	20.5	0.00e+00	0	39	0	1209008128	62	4165
2026-01-20 00:09:03.00	182.75	20.03	-45.4	-46.6	20.5	0.00e+00	0	39	0	1211105280	62	4145
2026-01-20 00:09:04.01	182.82	19.91	-45.4	-46.6	20.5	0.00e+00	0	39	0	1213202432	62	4139
2026-01-20 00:09:05.01	182.88	19.78	-45.3	-46.6	20.6	0.00e+00	0	39	0	1215299584	62	4108
2026-01-20 00:09:06.02	182.95	19.65	-45.3	-46.6	20.6	0.00e+00	0	39	0	1217396736	62	4105
2026-01-20 00:09:07.03	183.02	19.53	-45.3	-46.6	20.6	0.00e+00	0	39	0	1218445312	62	4104
2026-01-20 00:09:08.04	183.09	19.40	-45.2	-46.5	20.6	0.00e+00	0	38	0	1220542464	62	4072
2026-01-20 00:09:09.04	183.15	19.28	-45.3	-46.6	20.5	0.00e+00	0	39	0	1222639616	62	4127
2026-01-20 00:09:10.05	183.22	19.16	-45.3	-46.5	20.6	0.00e+00	0	39	0	1224736768	62	4094
2026-01-20 00:09:11.06	183.28	19.03	-45.4	-46.7	20.4	0.00e+00	0	39	0	1226833920	62	4174
2026-01-20 00:09:12.07	183.35	18.91	-45.4	-46.7	20.4	0.00e+00	0	39	0	1227882496	62	4184
2026-01-20 00:09:13.08	183.41	18.79	-45.5	-46.8	20.3	0.00e+00	0	38	0	1229979648	62	4216
2026-01-20 00:09:14.08	183.47	18.67	-45.6	-46.9	20.3	0.00e+00	0	38	0	1232076800	62	4257
2026-01-20 00:09:15.09	183.54	18.55	-45.6	-47.0	20.2	0.00e+00	0	39	0	1234173952	62	4293
2026-01-20 00:09:16.10	183.60	18.43	-45.6	-46.9	20.2	0.00e+00	0	39	0	1236271104	62	4274
2026-01-20 00:09:17.11	183.66	18.31	-45.8	-47.2	20.0	0.00e+00	0	39	0	1237319680	62	4393
2026-01-20 00:09:18.11	183.72	18.19	-45.8	-47.2	19.9	0.00e+00	0	38	0	1239416832	62	4423
2026-01-20 00:09:19.12	183.79	18.07	-45.9	-47.3	19.8	0.00e+00	0	39	0	1241513984	62	4468
2026-01-20 00:09:20.13	183.85	17.95	-45.9	-47.3	19.7	0.00e+00	0	39	0	1243611136	62	4486
2026-01-20 00:09:21.14	183.91	17.84	-45.9	-47.4	19.8	0.00e+00	0	39	0	1245708288	62	4503
2026-01-20 00:09:22.15	183.97	17.72	-46.0	-47.4	19.7	0.00e+00	0	39	0	1246756864	62	4542
2026-01-20 00:09:23.15	184.03	17.60	-46.0	-47.4	19.8	0.00e+00	0	39	0	1248854016	62	4523
2026-01-20 00:09:24.16	184.09	17.49	-46.1	-47.5	19.6	0.00e+00	0	39	0	1250951168	62	4577
2026-01-20 00:09:25.17	184.15	17.37	-46.1	-47.5	19.6	0.00e+00	0	39	0	1253048320	62	4570
2026-01-20 00:09:26.18	184.20	17.26	-46.0	-47.5	19.6	0.00e+00	0	39	0	1255145472	62	4547
2026-01-20 00:09:27.18	184.26	17.14	-46.1	-47.5	19.6	0.00e+00	0	39	0	1256194048	62	4578
2026-01-20 00:09:28.19	184.32	17.03	-46.1	-47.6	19.5	0.00e+00	0	39	0	1258291200	62	4620
2026-01-20 00:09:29.20	184.38	16.92	-46.1	-47.6	19.5	0.00e+00	0	39	0	1260388352	63	4372
2026-01-20 00:09:30.21	184.43	16.80	-46.2	-47.7	19.5	0.00e+00	0	39	0	1262485504	63	4399
2026-01-20 00:09:31.22	184.49	16.69	-46.2	-47.7	19.4	0.00e+00	0	39	0	1264582656	63	4432
2026-01-20 00:09:32.23	184.55	16.58	-46.2	-47.6	19.4	0.00e+00	0	39	0	1265631232	63	4389
2026-01-20 00:09:33.24	184.60	16.47	-46.3	-47.8	19.3	0.00e+00	0	39	0	1267728384	63	4461
2026-01-20 00:09:34.25	184.66	16.36	-46.3	-47.8	19.3	0.00e+00	0	39	0	1269825536	63	4469
2026-01-20 00:09:35.26	184.71	16.25	-46.3	-47.8	19.3	0.00e+00	0	39	0	1271922688	63	4474
2026-01-20 00:09:36.26	184.77	16.14	-46.4	-47.9	19.2	0.00e+00	0	39	0	1274019840	63	4530
2026-01-20 00:09:37.27	184.82	16.03	-46.4	-47.9	19.2	0.00e+00	0	39	0	1275068416	63	4509
2026-01-20 00:09:38.28	184.87	15.92	-46.5	-48.0	19.1	0.00e+00	0	39	0	1277165568	63	4583
2026-01-20 00:09:39.29	184.93	15.81	-46.6	-48.1	19.0	0.00e+00	0	39	0	1279262720	63	4651
2026-01-20 00:09:40.29	184.98	15.70	-46.6	-48.2	18.9	0.00e+00	0	39	0	1281359872	63	4695
2026-01-20 00:09:41.30	185.03	15.60	-46.6	-48.2	18.9	0.00e+00	0	39	0	1283457024	63	4685
