passes_logs/2026/01/19/R3.2S_Murmansk/R3.2S_Murmansk__20260119_083414_NOAA_20_JPSS-1_rec.log

#Pass ID: 20260119_083414_NOAA 20 (JPSS-1)
#Satellite: NOAA 20 (JPSS-1)
#Configuration: NOAA 20
#almurnet v.1.7.20251203
#Start time: 2026-01-19 08:34:14

#Version: 2.2.20231116
#Station: R3.2S_Murmansk
#Location: 33.079688 lon 68.888172 lat
#TLE: 1 43013U 17073A   26018.92475364  .00000071  00000+0  54435-4 0  9998
#TLE: 2 43013  98.7641 319.8227 0001354  33.6678 326.4584 14.19536868423299

#Time	Az	El	Level	Level2	SNR	BER	BlckErr	Temp	State	Recorded	gain1	gain2
2026-01-19 08:34:14.65	129.22	2.03	-52.2	-67.1	3.8	1.49e+00	0	36	0	0	75	20766
2026-01-19 08:34:15.65	129.19	2.09	-52.1	-67.1	3.8	1.49e+00	0	36	104	0	74	21970
2026-01-19 08:34:16.66	129.17	2.15	-52.1	-67.1	3.8	1.49e+00	0	36	104	0	74	21901
2026-01-19 08:34:17.67	129.15	2.22	-52.1	-67.1	3.8	1.49e+00	0	35	104	0	74	21836
2026-01-19 08:34:18.68	129.13	2.28	-52.1	-67.1	3.8	1.49e+00	0	36	104	0	74	21937
2026-01-19 08:34:19.69	129.11	2.35	-52.1	-67.1	3.8	1.49e+00	0	36	104	0	74	21827
2026-01-19 08:34:20.70	129.09	2.41	-52.1	-67.1	3.8	1.49e+00	0	36	104	0	74	21854
2026-01-19 08:34:21.71	129.06	2.48	-52.1	-67.1	3.8	1.49e+00	0	36	104	0	74	21887
2026-01-19 08:34:22.71	129.04	2.54	-52.1	-67.1	3.8	1.49e+00	0	36	104	0	74	21814
2026-01-19 08:34:23.72	129.02	2.61	-52.1	-67.1	3.8	1.49e+00	0	36	104	0	74	21801
2026-01-19 08:34:24.73	129.00	2.67	-52.1	-67.1	3.8	1.49e+00	0	36	104	0	74	21802
2026-01-19 08:34:25.74	128.97	2.74	-52.1	-67.1	3.8	1.49e+00	0	36	104	0	74	21795
2026-01-19 08:34:26.74	128.95	2.80	-52.1	-67.1	3.8	1.49e+00	0	36	104	0	74	21793
2026-01-19 08:34:27.75	128.93	2.87	-52.1	-67.0	3.8	1.49e+00	0	36	104	0	74	21726
2026-01-19 08:34:28.76	128.91	2.94	-52.1	-67.1	3.8	1.49e+00	0	36	104	0	74	21759
2026-01-19 08:34:29.77	128.88	3.00	-52.1	-67.0	3.8	1.49e+00	0	36	104	0	74	21695
2026-01-19 08:34:30.77	128.86	3.07	-52.1	-67.0	3.8	1.49e+00	0	36	104	0	74	21588
2026-01-19 08:34:31.78	128.84	3.13	-52.1	-67.0	3.8	1.49e+00	0	36	104	0	74	21573
2026-01-19 08:34:32.79	128.81	3.20	-52.1	-67.0	3.8	1.49e+00	0	36	104	0	74	21508
2026-01-19 08:34:33.80	128.79	3.27	-52.1	-66.9	3.8	1.49e+00	0	36	104	0	74	21476
2026-01-19 08:34:34.81	128.77	3.34	-52.1	-67.0	3.8	1.49e+00	0	36	104	0	74	21588
2026-01-19 08:34:35.81	128.74	3.40	-52.1	-66.9	3.8	1.49e+00	0	36	104	0	74	21285
2026-01-19 08:34:36.82	128.72	3.47	-52.1	-66.8	3.8	1.49e+00	0	36	104	0	74	21171
2026-01-19 08:34:37.83	128.70	3.54	-52.1	-66.4	3.8	1.49e+00	0	36	104	0	74	20121
2026-01-19 08:34:38.84	128.67	3.60	-52.1	-65.9	3.8	1.49e+00	0	36	104	0	74	19152
2026-01-19 08:34:39.84	128.65	3.67	-52.0	-65.4	3.8	1.49e+00	0	36	104	0	74	17975
2026-01-19 08:34:40.85	128.62	3.74	-52.0	-65.0	3.8	1.48e+00	0	36	104	0	74	17115
2026-01-19 08:34:41.86	128.60	3.81	-52.0	-64.2	4.0	1.47e+00	0	36	104	0	74	15675
2026-01-19 08:34:42.87	128.57	3.88	-52.0	-64.2	4.0	1.45e+00	0	36	0	0	74	15641
2026-01-19 08:34:43.88	128.55	3.94	-51.9	-63.1	4.3	1.42e+00	52	36	0	0	74	13878
2026-01-19 08:34:44.89	128.53	4.01	-51.9	-62.9	4.4	1.33e+00	120	36	0	0	74	13564
2026-01-19 08:34:45.89	128.50	4.08	-51.9	-63.0	4.3	1.27e+00	90	36	0	2097152	74	13686
2026-01-19 08:34:46.90	128.48	4.15	-51.9	-62.9	4.4	1.32e+00	153	37	0	3145728	74	13440
2026-01-19 08:34:47.91	128.45	4.22	-51.8	-62.4	4.6	9.70e-01	0	37	0	5242880	74	12676
2026-01-19 08:34:48.92	128.43	4.29	-51.7	-60.9	5.4	8.65e-01	0	37	0	7340032	74	10673
2026-01-19 08:34:49.93	128.40	4.36	-51.6	-60.4	5.7	5.05e-01	0	36	0	8388608	74	10125
2026-01-19 08:34:50.94	128.37	4.43	-51.4	-59.2	6.6	2.68e-01	0	37	0	10485760	74	8776
2026-01-19 08:34:51.95	128.35	4.50	-50.8	-56.8	9.0	4.04e-02	0	36	0	12582912	73	7060
2026-01-19 08:34:52.95	128.32	4.57	-50.7	-56.3	9.5	1.86e-02	0	37	0	14680064	73	6722
2026-01-19 08:34:53.96	128.30	4.64	-50.1	-54.6	11.3	6.40e-03	0	37	0	16777216	72	5847
2026-01-19 08:34:54.97	128.27	4.71	-50.0	-54.1	11.9	7.40e-04	0	37	0	17825792	71	5851
2026-01-19 08:34:55.98	128.24	4.78	-49.4	-52.9	13.2	4.65e-05	0	37	0	19922944	70	5362
2026-01-19 08:34:56.99	128.22	4.85	-49.0	-52.2	13.9	9.10e-06	0	36	0	22020096	70	4967
2026-01-19 08:34:57.99	128.19	4.92	-48.5	-51.3	14.8	7.00e-07	0	37	0	24117248	69	4745
2026-01-19 08:34:59.00	128.16	4.99	-48.3	-51.0	15.1	0.00e+00	0	37	0	26214400	68	4838
2026-01-19 08:35:00.01	128.14	5.06	-48.2	-50.9	15.2	0.00e+00	0	37	0	27262976	68	4775
2026-01-19 08:35:01.02	128.11	5.13	-49.7	-53.5	12.7	0.00e+00	0	37	0	29360128	69	6095
2026-01-19 08:35:02.03	128.08	5.20	-48.0	-50.4	15.8	3.00e-06	0	37	0	31457280	68	4543
2026-01-19 08:35:03.04	128.06	5.28	-50.7	-56.4	9.6	8.44e-04	0	37	0	33554432	72	7198
2026-01-19 08:35:04.04	128.03	5.35	-50.8	-56.1	10.0	4.49e-04	0	37	0	35651584	72	6909
2026-01-19 08:35:05.05	128.00	5.42	-48.8	-51.9	14.3	7.00e-07	0	37	0	37748736	68	5341
2026-01-19 08:35:06.06	127.97	5.49	-47.4	-49.6	16.6	0.00e+00	0	37	0	38797312	66	4615
2026-01-19 08:35:07.07	127.95	5.57	-47.4	-49.6	16.5	0.00e+00	0	37	0	40894464	66	4622
2026-01-19 08:35:08.08	127.92	5.64	-47.1	-49.1	17.0	0.00e+00	0	37	0	42991616	66	4375
2026-01-19 08:35:09.09	127.89	5.71	-47.4	-49.6	16.6	0.00e+00	0	37	0	45088768	66	4606
2026-01-19 08:35:10.09	127.86	5.78	-47.3	-49.4	16.9	0.00e+00	0	37	0	46137344	66	4498
2026-01-19 08:35:11.10	127.83	5.86	-47.2	-49.3	17.0	0.00e+00	0	37	0	48234496	66	4458
2026-01-19 08:35:12.11	127.80	5.93	-47.1	-49.1	17.1	0.00e+00	0	37	0	50331648	66	4390
2026-01-19 08:35:13.12	127.78	6.00	-47.2	-49.2	17.1	0.00e+00	0	37	0	52428800	66	4417
2026-01-19 08:35:14.12	127.75	6.08	-47.4	-49.5	16.8	0.00e+00	0	37	0	54525952	66	4581
2026-01-19 08:35:15.13	127.72	6.15	-47.2	-49.3	17.0	0.00e+00	0	37	0	55574528	66	4459
2026-01-19 08:35:16.14	127.69	6.23	-47.2	-49.2	17.1	0.00e+00	0	37	0	57671680	66	4432
2026-01-19 08:35:17.15	127.66	6.30	-47.2	-49.3	17.0	0.00e+00	0	37	0	59768832	66	4464
2026-01-19 08:35:18.16	127.63	6.38	-47.2	-49.2	17.1	0.00e+00	0	37	0	61865984	66	4437
2026-01-19 08:35:19.16	127.60	6.45	-47.2	-49.2	17.1	0.00e+00	0	37	0	63963136	66	4423
2026-01-19 08:35:20.17	127.57	6.52	-47.1	-49.1	17.3	0.00e+00	0	37	0	66060288	66	4385
2026-01-19 08:35:21.18	127.54	6.60	-47.1	-49.1	17.3	0.00e+00	0	37	0	67108864	66	4348
2026-01-19 08:35:22.19	127.51	6.68	-47.1	-49.1	17.3	0.00e+00	0	37	0	69206016	66	4359
2026-01-19 08:35:23.20	127.48	6.75	-47.1	-49.1	17.4	0.00e+00	0	37	0	71303168	66	4351
2026-01-19 08:35:24.20	127.45	6.83	-47.1	-49.1	17.3	0.00e+00	0	37	0	73400320	66	4358
2026-01-19 08:35:25.21	127.42	6.90	-47.0	-48.9	17.6	0.00e+00	0	37	0	74448896	65	4495
2026-01-19 08:35:26.22	127.39	6.98	-47.0	-48.9	17.5	0.00e+00	0	37	0	76546048	65	4496
2026-01-19 08:35:27.22	127.35	7.06	-47.0	-48.9	17.5	0.00e+00	0	37	0	78643200	65	4535
2026-01-19 08:35:28.23	127.32	7.13	-46.8	-48.6	17.8	0.00e+00	0	37	0	80740352	65	4372
2026-01-19 08:35:29.24	127.29	7.21	-46.9	-48.8	17.6	0.00e+00	0	37	0	82837504	65	4460
2026-01-19 08:35:30.25	127.26	7.29	-46.9	-48.8	17.7	0.00e+00	0	37	0	84934656	65	4464
2026-01-19 08:35:31.26	127.23	7.36	-46.9	-48.8	17.7	0.00e+00	0	37	0	85983232	65	4472
2026-01-19 08:35:32.27	127.19	7.44	-46.9	-48.7	17.8	0.00e+00	0	37	0	88080384	65	4418
2026-01-19 08:35:33.27	127.16	7.52	-46.9	-48.8	17.7	0.00e+00	0	37	0	90177536	65	4463
2026-01-19 08:35:34.28	127.13	7.60	-47.0	-48.9	17.6	0.00e+00	0	37	0	92274688	65	4517
2026-01-19 08:35:35.29	127.10	7.68	-47.1	-49.0	17.6	0.00e+00	0	37	0	94371840	65	4553
2026-01-19 08:35:36.30	127.06	7.76	-47.0	-48.8	17.7	0.00e+00	0	37	0	95420416	65	4471
2026-01-19 08:35:37.31	127.03	7.83	-46.9	-48.8	17.8	0.00e+00	0	37	0	97517568	65	4449
2026-01-19 08:35:38.31	127.00	7.91	-46.7	-48.4	18.2	0.00e+00	0	37	0	99614720	65	4278
2026-01-19 08:35:39.32	126.96	7.99	-46.9	-48.7	17.9	0.00e+00	0	37	0	101711872	65	4404
2026-01-19 08:35:40.32	126.93	8.07	-47.0	-48.9	17.7	0.00e+00	0	37	0	102760448	65	4507
2026-01-19 08:35:41.33	126.90	8.15	-46.9	-48.6	18.0	0.00e+00	0	37	0	104857600	65	4390
2026-01-19 08:35:42.34	126.86	8.23	-46.8	-48.6	18.0	0.00e+00	0	37	0	106954752	65	4351
2026-01-19 08:35:43.35	126.83	8.31	-46.9	-48.7	18.0	0.00e+00	0	37	0	109051904	65	4395
2026-01-19 08:35:44.36	126.79	8.39	-46.8	-48.6	18.0	0.00e+00	0	37	0	111149056	65	4385
2026-01-19 08:35:45.36	126.76	8.47	-46.9	-48.7	17.9	0.00e+00	0	37	0	113246208	65	4414
2026-01-19 08:35:46.37	126.72	8.55	-46.9	-48.7	17.9	0.00e+00	0	37	0	114294784	65	4420
2026-01-19 08:35:47.38	126.69	8.64	-46.8	-48.6	18.0	0.00e+00	0	37	0	116391936	65	4381
2026-01-19 08:35:48.39	126.65	8.72	-46.8	-48.6	18.0	0.00e+00	0	37	0	118489088	65	4387
2026-01-19 08:35:49.40	126.62	8.80	-46.8	-48.5	18.1	0.00e+00	0	37	0	120586240	65	4340
2026-01-19 08:35:50.41	126.58	8.88	-46.8	-48.6	18.1	0.00e+00	0	37	0	122683392	65	4349
2026-01-19 08:35:51.41	126.55	8.96	-46.7	-48.5	18.2	0.00e+00	0	37	0	123731968	65	4299
2026-01-19 08:35:52.42	126.51	9.05	-46.7	-48.4	18.3	0.00e+00	0	37	0	125829120	65	4260
2026-01-19 08:35:53.43	126.47	9.13	-46.7	-48.4	18.3	0.00e+00	0	37	0	127926272	65	4258
2026-01-19 08:35:54.44	126.44	9.21	-46.7	-48.4	18.3	0.00e+00	0	37	0	130023424	65	4251
2026-01-19 08:35:55.44	126.40	9.29	-46.6	-48.3	18.4	0.00e+00	0	37	0	132120576	65	4196
2026-01-19 08:35:56.45	126.36	9.38	-46.6	-48.3	18.4	0.00e+00	0	37	0	133169152	65	4202
2026-01-19 08:35:57.46	126.33	9.46	-46.5	-48.2	18.5	0.00e+00	0	37	0	135266304	65	4155
2026-01-19 08:35:58.47	126.29	9.55	-46.5	-48.2	18.5	0.00e+00	0	37	0	137363456	64	4410
2026-01-19 08:35:59.48	126.25	9.63	-46.6	-48.3	18.5	0.00e+00	0	37	0	139460608	64	4454
2026-01-19 08:36:00.49	126.21	9.72	-46.5	-48.2	18.6	0.00e+00	0	37	0	141557760	64	4400
2026-01-19 08:36:01.49	126.17	9.80	-46.6	-48.3	18.4	0.00e+00	0	37	0	142606336	64	4472
2026-01-19 08:36:02.50	126.13	9.89	-46.6	-48.3	18.4	0.00e+00	0	37	0	144703488	64	4474
2026-01-19 08:36:03.51	126.10	9.97	-46.4	-48.0	18.7	0.00e+00	0	37	0	146800640	64	4326
2026-01-19 08:36:04.52	126.06	10.06	-46.5	-48.1	18.6	0.00e+00	0	37	0	148897792	64	4363
2026-01-19 08:36:05.53	126.02	10.14	-46.4	-48.0	18.7	0.00e+00	0	37	0	150994944	64	4340
2026-01-19 08:36:06.53	125.98	10.23	-46.5	-48.1	18.6	0.00e+00	0	37	0	152043520	64	4368
2026-01-19 08:36:07.54	125.94	10.32	-46.5	-48.1	18.6	0.00e+00	0	37	0	154140672	64	4359
2026-01-19 08:36:08.55	125.90	10.40	-46.3	-47.9	18.9	0.00e+00	0	37	0	156237824	64	4255
2026-01-19 08:36:09.55	125.86	10.49	-46.4	-48.0	18.8	0.00e+00	0	37	0	158334976	64	4295
2026-01-19 08:36:10.56	125.82	10.58	-46.4	-48.0	18.8	0.00e+00	0	37	0	160432128	64	4305
2026-01-19 08:36:11.57	125.78	10.67	-46.4	-48.0	18.8	0.00e+00	0	37	0	161480704	64	4311
2026-01-19 08:36:12.57	125.74	10.75	-46.3	-47.8	18.9	0.00e+00	0	37	0	163577856	64	4240
2026-01-19 08:36:13.58	125.69	10.84	-46.3	-47.9	18.9	0.00e+00	0	37	0	165675008	64	4273
2026-01-19 08:36:14.58	125.65	10.93	-46.3	-47.9	18.9	0.00e+00	0	37	0	167772160	64	4257
2026-01-19 08:36:15.59	125.61	11.02	-46.3	-47.9	18.9	0.00e+00	0	37	0	169869312	64	4251
2026-01-19 08:36:16.60	125.57	11.11	-46.3	-47.9	18.9	0.00e+00	0	37	0	170917888	64	4278
2026-01-19 08:36:17.61	125.53	11.20	-46.3	-47.8	18.9	0.00e+00	0	37	0	173015040	64	4238
2026-01-19 08:36:18.62	125.48	11.29	-46.4	-48.0	18.8	0.00e+00	0	37	0	175112192	64	4294
2026-01-19 08:36:19.63	125.44	11.38	-46.2	-47.8	19.0	0.00e+00	0	37	0	177209344	64	4223
2026-01-19 08:36:20.63	125.40	11.47	-46.2	-47.8	19.1	0.00e+00	0	37	0	179306496	64	4195
2026-01-19 08:36:21.64	125.35	11.56	-46.2	-47.8	19.0	0.00e+00	0	37	0	181403648	64	4212
2026-01-19 08:36:22.65	125.31	11.65	-46.2	-47.8	19.0	0.00e+00	0	37	0	182452224	64	4207
2026-01-19 08:36:23.66	125.26	11.74	-46.3	-47.8	19.0	0.00e+00	0	37	0	184549376	64	4218
2026-01-19 08:36:24.66	125.22	11.83	-46.2	-47.7	19.1	0.00e+00	0	37	0	186646528	64	4174
2026-01-19 08:36:25.67	125.18	11.93	-46.2	-47.8	19.0	0.00e+00	0	37	0	188743680	64	4212
2026-01-19 08:36:26.68	125.13	12.02	-46.2	-47.8	19.1	0.00e+00	0	37	0	189792256	64	4198
2026-01-19 08:36:27.69	125.08	12.11	-46.3	-47.8	19.0	0.00e+00	0	37	0	191889408	64	4231
2026-01-19 08:36:28.70	125.04	12.21	-46.3	-47.9	19.0	0.00e+00	0	37	0	193986560	64	4260
2026-01-19 08:36:29.71	124.99	12.30	-46.2	-47.7	19.1	0.00e+00	0	37	0	196083712	64	4187
2026-01-19 08:36:30.71	124.95	12.39	-46.3	-47.8	19.0	0.00e+00	0	37	0	198180864	64	4241
2026-01-19 08:36:31.72	124.90	12.49	-46.3	-47.8	19.0	0.00e+00	0	37	0	199229440	64	4242
2026-01-19 08:36:32.73	124.85	12.58	-46.2	-47.7	19.2	0.00e+00	0	37	0	201326592	64	4167
2026-01-19 08:36:33.74	124.81	12.68	-46.2	-47.8	19.1	0.00e+00	0	37	0	203423744	64	4207
2026-01-19 08:36:34.75	124.76	12.77	-46.2	-47.7	19.2	0.00e+00	0	37	0	205520896	64	4185
2026-01-19 08:36:35.75	124.71	12.87	-46.2	-47.8	19.1	0.00e+00	0	37	0	207618048	64	4194
2026-01-19 08:36:36.76	124.66	12.96	-46.3	-47.8	19.1	0.00e+00	0	37	0	209715200	64	4218
2026-01-19 08:36:37.77	124.61	13.06	-46.2	-47.7	19.2	0.00e+00	0	37	0	210763776	64	4181
2026-01-19 08:36:38.78	124.56	13.16	-46.1	-47.6	19.3	0.00e+00	0	37	0	212860928	64	4132
2026-01-19 08:36:39.78	124.51	13.25	-46.2	-47.7	19.2	0.00e+00	0	37	0	214958080	64	4193
2026-01-19 08:36:40.79	124.46	13.35	-46.2	-47.7	19.2	0.00e+00	0	37	0	217055232	64	4164
2026-01-19 08:36:41.80	124.41	13.45	-46.1	-47.6	19.3	0.00e+00	0	37	0	218103808	64	4133
2026-01-19 08:36:42.80	124.36	13.55	-46.2	-47.7	19.3	0.00e+00	0	37	0	220200960	64	4163
2026-01-19 08:36:43.81	124.31	13.65	-46.1	-47.6	19.4	0.00e+00	0	37	0	222298112	64	4101
2026-01-19 08:36:44.82	124.26	13.74	-46.1	-47.6	19.4	0.00e+00	0	37	0	224395264	64	4105
2026-01-19 08:36:45.82	124.21	13.84	-46.1	-47.6	19.4	0.00e+00	0	37	0	226492416	64	4112
2026-01-19 08:36:46.83	124.16	13.94	-46.1	-47.5	19.4	0.00e+00	0	37	0	227540992	64	4089
2026-01-19 08:36:47.84	124.11	14.04	-46.2	-47.7	19.3	0.00e+00	0	37	0	229638144	64	4162
2026-01-19 08:36:48.85	124.05	14.14	-46.1	-47.6	19.3	0.00e+00	0	38	0	231735296	64	4131
2026-01-19 08:36:49.86	124.00	14.24	-46.1	-47.6	19.3	0.00e+00	0	37	0	233832448	64	4137
2026-01-19 08:36:50.86	123.95	14.35	-46.2	-47.7	19.2	0.00e+00	0	37	0	235929600	64	4171
2026-01-19 08:36:51.87	123.89	14.45	-46.0	-47.5	19.5	0.00e+00	0	37	0	238026752	64	4062
2026-01-19 08:36:52.88	123.84	14.55	-46.0	-47.5	19.5	0.00e+00	0	37	0	239075328	64	4056
2026-01-19 08:36:53.89	123.79	14.65	-46.1	-47.5	19.4	0.00e+00	0	37	0	241172480	64	4094
2026-01-19 08:36:54.90	123.73	14.75	-46.1	-47.6	19.4	0.00e+00	0	37	0	243269632	64	4102
2026-01-19 08:36:55.90	123.68	14.86	-46.0	-47.5	19.5	0.00e+00	0	37	0	245366784	64	4074
2026-01-19 08:36:56.91	123.62	14.96	-46.1	-47.5	19.4	0.00e+00	0	37	0	246415360	64	4093
2026-01-19 08:36:57.92	123.56	15.07	-46.2	-47.7	19.4	0.00e+00	0	37	0	248512512	64	4151
2026-01-19 08:36:58.92	123.51	15.17	-46.0	-47.5	19.6	0.00e+00	0	37	0	250609664	63	4296
2026-01-19 08:36:59.93	123.45	15.27	-46.1	-47.5	19.6	0.00e+00	0	38	0	252706816	63	4317
2026-01-19 08:37:00.94	123.39	15.38	-46.1	-47.6	19.5	0.00e+00	0	37	0	254803968	63	4353
2026-01-19 08:37:01.94	123.34	15.48	-46.0	-47.4	19.7	0.00e+00	0	38	0	256901120	63	4250
2026-01-19 08:37:02.95	123.28	15.59	-46.0	-47.5	19.6	0.00e+00	0	37	0	257949696	63	4312
2026-01-19 08:37:03.96	123.22	15.70	-46.0	-47.4	19.7	0.00e+00	0	38	0	260046848	63	4278
2026-01-19 08:37:04.97	123.16	15.81	-46.1	-47.5	19.6	0.00e+00	0	37	0	262144000	63	4322
2026-01-19 08:37:05.98	123.10	15.91	-46.0	-47.4	19.7	0.00e+00	0	37	0	264241152	63	4258
2026-01-19 08:37:06.99	123.04	16.02	-46.0	-47.4	19.7	0.00e+00	0	37	0	266338304	63	4277
2026-01-19 08:37:07.99	122.98	16.13	-46.0	-47.5	19.7	0.00e+00	0	38	0	267386880	63	4303
2026-01-19 08:37:09.00	122.92	16.24	-46.2	-47.6	19.6	0.00e+00	0	37	0	269484032	63	4366
2026-01-19 08:37:10.01	122.86	16.35	-46.0	-47.4	19.8	0.00e+00	0	37	0	271581184	63	4263
2026-01-19 08:37:11.01	122.80	16.46	-46.0	-47.5	19.7	0.00e+00	0	37	0	273678336	63	4295
2026-01-19 08:37:12.02	122.73	16.57	-46.0	-47.4	19.7	0.00e+00	0	38	0	274726912	63	4274
2026-01-19 08:37:13.03	122.67	16.68	-46.0	-47.4	19.7	0.00e+00	0	37	0	276824064	63	4279
2026-01-19 08:37:14.04	122.61	16.79	-46.0	-47.4	19.8	0.00e+00	0	38	0	278921216	63	4282
2026-01-19 08:37:15.05	122.54	16.90	-46.1	-47.5	19.7	0.00e+00	0	37	0	281018368	63	4307
2026-01-19 08:37:16.05	122.48	17.01	-46.1	-47.5	19.7	0.00e+00	0	37	0	283115520	63	4310
2026-01-19 08:37:17.06	122.41	17.12	-46.1	-47.5	19.7	0.00e+00	0	37	0	285212672	63	4322
2026-01-19 08:37:18.07	122.35	17.24	-46.1	-47.6	19.6	0.00e+00	0	37	0	286261248	63	4355
2026-01-19 08:37:19.08	122.28	17.35	-46.0	-47.4	19.8	0.00e+00	0	38	0	288358400	63	4271
2026-01-19 08:37:20.08	122.22	17.46	-46.1	-47.5	19.7	0.00e+00	0	37	0	290455552	63	4337
2026-01-19 08:37:21.09	122.15	17.58	-46.1	-47.6	19.7	0.00e+00	0	37	0	292552704	63	4350
2026-01-19 08:37:22.10	122.08	17.69	-46.1	-47.5	19.7	0.00e+00	0	37	0	294649856	63	4314
2026-01-19 08:37:23.11	122.01	17.81	-46.1	-47.5	19.7	0.00e+00	0	37	0	295698432	63	4330
2026-01-19 08:37:24.12	121.94	17.93	-46.1	-47.6	19.6	0.00e+00	0	37	0	297795584	63	4359
2026-01-19 08:37:25.12	121.88	18.04	-45.9	-47.3	19.9	0.00e+00	0	38	0	299892736	63	4221
2026-01-19 08:37:26.13	121.81	18.16	-46.0	-47.3	19.9	0.00e+00	0	37	0	301989888	63	4242
2026-01-19 08:37:27.14	121.74	18.28	-46.0	-47.4	19.8	0.00e+00	0	37	0	304087040	63	4254
2026-01-19 08:37:28.15	121.67	18.39	-46.0	-47.4	19.8	0.00e+00	0	37	0	305135616	63	4274
2026-01-19 08:37:29.16	121.59	18.51	-45.9	-47.3	19.9	0.00e+00	0	37	0	307232768	63	4241
2026-01-19 08:37:30.16	121.52	18.63	-46.0	-47.4	19.8	0.00e+00	0	38	0	309329920	63	4258
2026-01-19 08:37:31.17	121.45	18.75	-46.0	-47.3	19.9	0.00e+00	0	38	0	311427072	63	4242
2026-01-19 08:37:32.18	121.38	18.87	-46.0	-47.4	19.8	0.00e+00	0	37	0	313524224	63	4263
2026-01-19 08:37:33.19	121.30	18.99	-46.0	-47.3	19.9	0.00e+00	0	37	0	314572800	63	4241
2026-01-19 08:37:34.19	121.23	19.11	-45.9	-47.3	19.9	0.00e+00	0	38	0	316669952	63	4227
2026-01-19 08:37:35.20	121.15	19.23	-46.1	-47.5	19.8	0.00e+00	0	37	0	318767104	63	4300
2026-01-19 08:37:36.21	121.08	19.36	-46.0	-47.4	19.8	0.00e+00	0	37	0	320864256	63	4276
2026-01-19 08:37:37.22	121.00	19.48	-46.0	-47.4	19.8	0.00e+00	0	38	0	322961408	63	4286
2026-01-19 08:37:38.22	120.93	19.60	-46.0	-47.4	19.9	0.00e+00	0	38	0	324009984	63	4277
2026-01-19 08:37:39.23	120.85	19.73	-46.1	-47.5	19.8	0.00e+00	0	37	0	326107136	63	4322
2026-01-19 08:37:40.24	120.77	19.85	-46.1	-47.5	19.7	0.00e+00	0	38	0	328204288	63	4338
2026-01-19 08:37:41.25	120.69	19.98	-46.1	-47.6	19.7	0.00e+00	0	37	0	330301440	63	4349
2026-01-19 08:37:42.26	120.61	20.10	-46.1	-47.5	19.7	0.00e+00	0	38	0	332398592	63	4340
2026-01-19 08:37:43.27	120.53	20.23	-46.1	-47.6	19.7	0.00e+00	0	37	0	333447168	63	4356
2026-01-19 08:37:44.27	120.45	20.35	-46.2	-47.6	19.7	0.00e+00	0	37	0	335544320	63	4374
2026-01-19 08:37:45.28	120.37	20.48	-46.2	-47.6	19.7	0.00e+00	0	38	0	337641472	63	4384
2026-01-19 08:37:46.29	120.29	20.61	-46.2	-47.7	19.7	0.00e+00	0	37	0	339738624	63	4392
2026-01-19 08:37:47.30	120.20	20.74	-46.3	-47.8	19.5	0.00e+00	0	37	0	341835776	63	4466
2026-01-19 08:37:48.30	120.12	20.87	-46.2	-47.6	19.7	0.00e+00	0	38	0	342884352	63	4379
2026-01-19 08:37:49.31	120.03	21.00	-46.3	-47.7	19.6	0.00e+00	0	37	0	344981504	63	4436
2026-01-19 08:37:50.32	119.95	21.13	-46.2	-47.7	19.7	0.00e+00	0	37	0	347078656	63	4394
2026-01-19 08:37:51.33	119.86	21.26	-46.3	-47.7	19.6	0.00e+00	0	37	0	349175808	63	4422
2026-01-19 08:37:52.34	119.78	21.39	-46.3	-47.8	19.6	0.00e+00	0	37	0	351272960	63	4457
2026-01-19 08:37:53.35	119.69	21.52	-46.5	-47.9	19.4	0.00e+00	0	38	0	352321536	63	4544
2026-01-19 08:37:54.35	119.60	21.65	-46.5	-48.0	19.4	0.00e+00	0	37	0	354418688	63	4553
2026-01-19 08:37:55.36	119.51	21.79	-46.6	-48.1	19.3	0.00e+00	0	37	0	356515840	63	4628
2026-01-19 08:37:56.37	119.42	21.92	-46.6	-48.1	19.2	0.00e+00	0	38	0	358612992	63	4649
2026-01-19 08:37:57.38	119.33	22.06	-46.6	-48.2	19.2	0.00e+00	0	37	0	360710144	63	4655
2026-01-19 08:37:58.38	119.24	22.19	-46.6	-48.1	19.3	0.00e+00	0	38	0	361758720	63	4612
2026-01-19 08:37:59.39	119.15	22.33	-46.6	-48.2	19.1	0.00e+00	0	38	0	363855872	64	4400
2026-01-19 08:38:00.40	119.06	22.46	-46.8	-48.3	19.1	0.00e+00	0	37	0	365953024	64	4476
2026-01-19 08:38:01.41	118.96	22.60	-46.8	-48.4	18.9	0.00e+00	0	37	0	368050176	64	4522
2026-01-19 08:38:02.41	118.87	22.74	-46.8	-48.4	18.9	0.00e+00	0	37	0	370147328	64	4521
2026-01-19 08:38:03.42	118.77	22.88	-46.9	-48.5	18.9	0.00e+00	0	37	0	371195904	64	4552
2026-01-19 08:38:04.43	118.67	23.02	-46.9	-48.5	18.8	0.00e+00	0	37	0	373293056	64	4567
2026-01-19 08:38:05.44	118.58	23.16	-46.9	-48.5	18.9	0.00e+00	0	38	0	375390208	64	4552
2026-01-19 08:38:06.45	118.48	23.30	-47.1	-48.7	18.7	0.00e+00	0	38	0	377487360	64	4681
2026-01-19 08:38:07.45	118.38	23.44	-47.0	-48.6	18.8	0.00e+00	0	38	0	379584512	64	4607
2026-01-19 08:38:08.46	118.28	23.58	-47.1	-48.8	18.6	0.00e+00	0	38	0	380633088	64	4715
2026-01-19 08:38:09.47	118.18	23.72	-47.1	-48.8	18.6	0.00e+00	0	38	0	382730240	65	4468
2026-01-19 08:38:10.48	118.08	23.87	-47.3	-49.0	18.4	0.00e+00	0	38	0	384827392	65	4569
2026-01-19 08:38:11.49	117.97	24.01	-47.4	-49.1	18.3	0.00e+00	0	37	0	386924544	65	4623
2026-01-19 08:38:12.50	117.87	24.16	-47.4	-49.2	18.2	0.00e+00	0	38	0	389021696	65	4658
2026-01-19 08:38:13.50	117.76	24.30	-47.5	-49.3	18.1	0.00e+00	0	37	0	390070272	65	4741
2026-01-19 08:38:14.51	117.66	24.45	-47.5	-49.2	18.2	0.00e+00	0	38	0	392167424	65	4705
2026-01-19 08:38:15.52	117.55	24.59	-47.5	-49.2	18.2	0.00e+00	0	37	0	394264576	65	4685
2026-01-19 08:38:16.53	117.44	24.74	-47.5	-49.3	18.1	0.00e+00	0	38	0	396361728	65	4727
2026-01-19 08:38:17.54	117.33	24.89	-47.5	-49.2	18.2	0.00e+00	0	37	0	398458880	65	4674
2026-01-19 08:38:18.55	117.22	25.04	-47.4	-49.1	18.3	0.00e+00	0	38	0	400556032	65	4622
2026-01-19 08:38:19.56	117.11	25.19	-47.4	-49.1	18.3	0.00e+00	0	38	0	401604608	65	4620
2026-01-19 08:38:20.56	117.00	25.34	-47.4	-49.2	18.2	0.00e+00	0	37	0	403701760	65	4670
2026-01-19 08:38:21.57	116.89	25.49	-47.6	-49.4	18.0	0.00e+00	0	37	0	405798912	65	4784
2026-01-19 08:38:22.58	116.77	25.64	-47.5	-49.3	18.1	0.00e+00	0	37	0	407896064	65	4740
2026-01-19 08:38:23.59	116.65	25.79	-47.6	-49.4	18.0	0.00e+00	0	38	0	408944640	65	4775
2026-01-19 08:38:24.59	116.54	25.94	-47.8	-49.6	17.7	0.00e+00	0	37	0	411041792	66	4626
2026-01-19 08:38:25.60	116.42	26.10	-47.8	-49.7	17.8	0.00e+00	0	38	0	413138944	66	4659
2026-01-19 08:38:26.61	116.30	26.25	-47.9	-49.7	17.7	0.00e+00	0	37	0	415236096	66	4693
2026-01-19 08:38:27.62	116.18	26.41	-47.9	-49.8	17.7	0.00e+00	0	38	0	417333248	66	4718
2026-01-19 08:38:28.63	116.06	26.57	-48.0	-49.9	17.5	0.00e+00	0	38	0	418381824	66	4787
2026-01-19 08:38:29.63	115.94	26.72	-48.0	-49.9	17.5	0.00e+00	0	37	0	420478976	66	4795
2026-01-19 08:38:30.64	115.81	26.88	-48.0	-49.9	17.5	0.00e+00	0	38	0	422576128	66	4775
2026-01-19 08:38:31.65	115.69	27.04	-48.1	-50.0	17.4	0.00e+00	0	38	0	424673280	66	4852
2026-01-19 08:38:32.66	115.56	27.20	-48.2	-50.1	17.3	0.00e+00	0	38	0	426770432	66	4917
2026-01-19 08:38:33.67	115.43	27.36	-48.1	-50.0	17.4	0.00e+00	0	38	0	428867584	66	4848
2026-01-19 08:38:34.67	115.30	27.52	-48.1	-50.1	17.4	0.00e+00	0	38	0	429916160	66	4884
2026-01-19 08:38:35.68	115.17	27.68	-48.3	-50.3	17.2	0.00e+00	0	38	0	432013312	67	4715
2026-01-19 08:38:36.69	115.04	27.84	-48.3	-50.3	17.2	0.00e+00	0	38	0	434110464	67	4712
2026-01-19 08:38:37.70	114.91	28.01	-48.4	-50.4	17.0	0.00e+00	0	38	0	436207616	67	4783
2026-01-19 08:38:38.70	114.77	28.17	-48.4	-50.4	17.0	0.00e+00	0	38	0	437256192	67	4795
2026-01-19 08:38:39.71	114.64	28.33	-48.4	-50.4	17.0	0.00e+00	0	38	0	439353344	67	4811
2026-01-19 08:38:40.72	114.50	28.50	-48.5	-50.6	16.8	0.00e+00	0	38	0	441450496	67	4907
2026-01-19 08:38:41.73	114.36	28.67	-48.4	-50.5	16.9	0.00e+00	0	37	0	443547648	67	4852
2026-01-19 08:38:42.74	114.22	28.83	-48.4	-50.4	17.0	0.00e+00	0	37	0	445644800	67	4804
2026-01-19 08:38:43.75	114.08	29.00	-48.3	-50.2	17.2	0.00e+00	0	38	0	447741952	67	4703
2026-01-19 08:38:44.75	113.93	29.17	-48.3	-50.3	17.2	0.00e+00	0	38	0	448790528	67	4718
2026-01-19 08:38:45.76	113.79	29.34	-48.2	-50.2	17.2	0.00e+00	0	37	0	450887680	67	4676
2026-01-19 08:38:46.77	113.64	29.51	-48.0	-50.0	17.5	0.00e+00	0	38	0	452984832	67	4547
2026-01-19 08:38:47.78	113.49	29.68	-47.9	-49.8	17.7	0.00e+00	0	37	0	455081984	67	4450
2026-01-19 08:38:48.78	113.34	29.85	-47.9	-49.7	17.7	0.00e+00	0	37	0	457179136	67	4434
2026-01-19 08:38:49.79	113.19	30.02	-47.9	-49.8	17.6	0.00e+00	0	37	0	458227712	67	4471
2026-01-19 08:38:50.80	113.04	30.20	-47.7	-49.5	17.9	0.00e+00	0	37	0	460324864	67	4335
2026-01-19 08:38:51.81	112.88	30.37	-47.8	-49.6	17.8	0.00e+00	0	37	0	462422016	67	4374
2026-01-19 08:38:52.82	112.73	30.55	-47.8	-49.7	17.8	0.00e+00	0	37	0	464519168	67	4418
2026-01-19 08:38:53.83	112.57	30.72	-47.9	-49.8	17.7	0.00e+00	0	38	0	465567744	67	4449
2026-01-19 08:38:54.83	112.41	30.90	-47.8	-49.6	17.9	0.00e+00	0	37	0	467664896	67	4369
2026-01-19 08:38:55.84	112.25	31.08	-47.9	-49.7	17.7	0.00e+00	0	37	0	469762048	67	4433
2026-01-19 08:38:56.85	112.08	31.26	-48.1	-50.0	17.4	0.00e+00	0	37	0	471859200	67	4595
2026-01-19 08:38:57.85	111.92	31.43	-48.3	-50.3	17.2	0.00e+00	0	38	0	473956352	67	4708
2026-01-19 08:38:58.86	111.75	31.61	-48.3	-50.3	17.1	0.00e+00	0	38	0	476053504	67	4754
2026-01-19 08:38:59.87	111.58	31.80	-48.2	-50.2	17.3	0.00e+00	0	38	0	477102080	67	4686
2026-01-19 08:39:00.88	111.41	31.98	-48.2	-50.2	17.3	0.00e+00	0	37	0	479199232	67	4692
2026-01-19 08:39:01.88	111.24	32.16	-48.3	-50.3	17.1	0.00e+00	0	38	0	481296384	67	4747
2026-01-19 08:39:02.89	111.06	32.34	-48.4	-50.4	17.1	0.00e+00	0	38	0	483393536	67	4783
2026-01-19 08:39:03.90	110.88	32.53	-48.5	-50.6	16.9	0.00e+00	0	38	0	485490688	67	4902
2026-01-19 08:39:04.91	110.71	32.71	-48.5	-50.6	16.9	0.00e+00	0	37	0	486539264	67	4916
2026-01-19 08:39:05.92	110.52	32.90	-48.7	-50.9	16.6	0.00e+00	0	37	0	488636416	67	5071
2026-01-19 08:39:06.93	110.34	33.09	-48.8	-50.9	16.7	0.00e+00	0	38	0	490733568	68	4792
2026-01-19 08:39:07.93	110.16	33.27	-48.8	-51.0	16.7	0.00e+00	0	38	0	492830720	68	4822
2026-01-19 08:39:08.94	109.97	33.46	-48.7	-50.8	16.8	0.00e+00	0	38	0	493879296	68	4740
2026-01-19 08:39:09.95	109.78	33.65	-48.9	-51.0	16.6	0.00e+00	0	38	0	495976448	68	4868
2026-01-19 08:39:10.95	109.59	33.84	-48.9	-51.1	16.5	0.00e+00	0	38	0	498073600	68	4894
2026-01-19 08:39:11.96	109.39	34.03	-49.1	-51.4	16.2	0.00e+00	0	38	0	500170752	68	5095
2026-01-19 08:39:12.97	109.19	34.22	-49.4	-51.9	15.7	0.00e+00	0	37	0	502267904	69	5054
2026-01-19 08:39:13.98	108.99	34.41	-49.4	-51.9	15.7	0.00e+00	0	38	0	504365056	69	5087
2026-01-19 08:39:14.98	108.79	34.60	-49.5	-52.0	15.6	0.00e+00	0	38	0	505413632	69	5130
2026-01-19 08:39:15.99	108.59	34.80	-49.5	-52.0	15.7	0.00e+00	0	38	0	507510784	69	5106
2026-01-19 08:39:17.00	108.38	34.99	-49.4	-51.9	15.7	0.00e+00	0	38	0	509607936	69	5056
2026-01-19 08:39:18.01	108.17	35.19	-49.5	-52.0	15.6	0.00e+00	0	38	0	511705088	69	5112
2026-01-19 08:39:19.02	107.96	35.38	-49.4	-51.9	15.7	0.00e+00	0	38	0	513802240	69	5084
2026-01-19 08:39:20.02	107.75	35.58	-49.4	-51.9	15.7	0.00e+00	0	38	0	514850816	69	5052
2026-01-19 08:39:21.03	107.53	35.78	-49.4	-51.9	15.8	0.00e+00	0	37	0	516947968	69	5042
2026-01-19 08:39:22.04	107.31	35.98	-49.4	-51.9	15.8	0.00e+00	0	37	0	519045120	69	5047
2026-01-19 08:39:23.04	107.09	36.17	-49.1	-51.5	16.2	0.00e+00	0	38	0	521142272	69	4831
2026-01-19 08:39:24.05	106.86	36.37	-49.2	-51.6	16.0	0.00e+00	0	38	0	523239424	69	4887
2026-01-19 08:39:25.06	106.64	36.58	-49.1	-51.4	16.2	0.00e+00	0	38	0	524288000	69	4793
2026-01-19 08:39:26.07	106.41	36.78	-49.0	-51.3	16.3	0.00e+00	0	38	0	526385152	69	4734
2026-01-19 08:39:27.08	106.17	36.98	-49.1	-51.4	16.3	0.00e+00	0	38	0	528482304	69	4760
2026-01-19 08:39:28.09	105.93	37.18	-49.0	-51.2	16.4	0.00e+00	0	38	0	530579456	69	4688
2026-01-19 08:39:29.10	105.69	37.39	-48.8	-51.0	16.6	0.00e+00	0	38	0	532676608	69	4572
2026-01-19 08:39:30.11	105.45	37.59	-48.7	-50.8	16.8	0.00e+00	0	38	0	533725184	69	4488
2026-01-19 08:39:31.11	105.21	37.79	-48.5	-50.6	17.1	0.00e+00	0	38	0	535822336	69	4349
2026-01-19 08:39:32.13	104.96	38.00	-48.5	-50.5	17.1	0.00e+00	0	38	0	537919488	68	4565
2026-01-19 08:39:33.13	104.71	38.20	-48.6	-50.6	17.0	0.00e+00	0	38	0	540016640	68	4624
2026-01-19 08:39:34.14	104.45	38.41	-48.8	-51.0	16.7	0.00e+00	0	38	0	542113792	68	4817
2026-01-19 08:39:35.15	104.19	38.62	-48.7	-50.8	16.8	0.00e+00	0	38	0	544210944	68	4759
2026-01-19 08:39:36.16	103.93	38.83	-48.9	-51.1	16.6	0.00e+00	0	38	0	545259520	68	4879
2026-01-19 08:39:37.17	103.66	39.03	-49.0	-51.2	16.4	0.00e+00	0	38	0	547356672	68	4972
2026-01-19 08:39:38.17	103.40	39.24	-48.9	-51.1	16.6	0.00e+00	0	38	0	549453824	68	4871
2026-01-19 08:39:39.18	103.12	39.45	-49.1	-51.4	16.3	0.00e+00	0	38	0	551550976	68	5082
2026-01-19 08:39:40.19	102.85	39.66	-49.1	-51.5	16.2	0.00e+00	0	38	0	552599552	68	5103
2026-01-19 08:39:41.20	102.57	39.87	-49.4	-51.9	15.8	0.00e+00	0	38	0	554696704	69	5050
2026-01-19 08:39:42.21	102.28	40.08	-49.5	-52.1	15.5	0.00e+00	0	38	0	556793856	69	5191
2026-01-19 08:39:43.21	102.00	40.29	-49.5	-52.1	15.5	0.00e+00	0	38	0	558891008	69	5193
2026-01-19 08:39:44.22	101.71	40.50	-49.4	-51.9	15.7	0.00e+00	0	38	0	560988160	69	5074
2026-01-19 08:39:45.23	101.41	40.72	-49.2	-51.6	16.0	0.00e+00	0	38	0	562036736	69	4887
2026-01-19 08:39:46.24	101.11	40.93	-49.1	-51.3	16.4	0.00e+00	0	38	0	564133888	69	4749
2026-01-19 08:39:47.25	100.81	41.14	-49.0	-51.2	16.4	0.00e+00	0	38	0	566231040	69	4680
2026-01-19 08:39:48.25	100.50	41.35	-48.8	-50.9	16.7	0.00e+00	0	38	0	568328192	69	4529
2026-01-19 08:39:49.26	100.19	41.57	-48.8	-51.0	16.7	0.00e+00	0	38	0	570425344	69	4575
2026-01-19 08:39:50.26	99.88	41.78	-48.7	-50.8	16.8	0.00e+00	0	38	0	572522496	69	4490
2026-01-19 08:39:51.27	99.56	41.99	-48.6	-50.6	17.1	0.00e+00	0	38	0	573571072	69	4364
2026-01-19 08:39:52.28	99.24	42.21	-48.6	-50.6	17.0	0.00e+00	0	38	0	575668224	69	4391
2026-01-19 08:39:53.29	98.91	42.42	-48.6	-50.6	17.1	0.00e+00	0	38	0	577765376	69	4383
2026-01-19 08:39:54.30	98.58	42.64	-48.3	-50.2	17.5	0.00e+00	0	38	0	579862528	68	4412
2026-01-19 08:39:55.30	98.24	42.85	-48.1	-50.0	17.7	0.00e+00	0	38	0	580911104	68	4316
2026-01-19 08:39:56.31	97.90	43.06	-48.3	-50.2	17.5	0.00e+00	0	38	0	583008256	68	4412
2026-01-19 08:39:57.32	97.56	43.28	-48.6	-50.7	17.0	0.00e+00	0	38	0	585105408	68	4689
2026-01-19 08:39:58.33	97.20	43.49	-49.0	-51.3	16.4	0.00e+00	0	38	0	587202560	68	5013
2026-01-19 08:39:59.34	96.85	43.71	-49.4	-51.8	15.9	0.00e+00	0	38	0	589299712	69	5007
2026-01-19 08:40:00.35	96.49	43.92	-49.3	-51.7	16.0	0.00e+00	0	38	0	591396864	69	4941
2026-01-19 08:40:01.35	96.13	44.14	-49.1	-51.3	16.4	0.00e+00	0	38	0	592445440	69	4751
2026-01-19 08:40:02.36	95.76	44.35	-49.1	-51.3	16.4	0.00e+00	0	38	0	594542592	69	4739
2026-01-19 08:40:03.36	95.38	44.56	-49.2	-51.5	16.2	0.00e+00	0	37	0	596639744	69	4842
2026-01-19 08:40:04.37	95.00	44.78	-48.9	-51.1	16.5	0.00e+00	0	38	0	598736896	69	4645
2026-01-19 08:40:05.38	94.62	44.99	-48.9	-51.1	16.6	0.00e+00	0	38	0	600834048	69	4630
2026-01-19 08:40:06.39	94.23	45.20	-49.0	-51.2	16.5	0.00e+00	0	38	0	601882624	69	4663
2026-01-19 08:40:07.39	93.83	45.42	-49.0	-51.2	16.5	0.00e+00	0	38	0	603979776	69	4656
2026-01-19 08:40:08.40	93.43	45.63	-48.9	-51.2	16.6	0.00e+00	0	38	0	606076928	69	4652
2026-01-19 08:40:09.41	93.02	45.84	-49.0	-51.2	16.5	0.00e+00	0	38	0	608174080	69	4658
2026-01-19 08:40:10.42	92.61	46.05	-48.9	-51.2	16.6	0.00e+00	0	38	0	609222656	69	4653
2026-01-19 08:40:11.42	92.20	46.26	-49.2	-51.5	16.2	0.00e+00	0	38	0	611319808	69	4826
2026-01-19 08:40:12.43	91.77	46.47	-49.5	-52.0	15.8	0.00e+00	0	38	0	613416960	69	5106
2026-01-19 08:40:13.44	91.34	46.68	-49.4	-51.9	15.8	0.00e+00	0	38	0	615514112	69	5065
2026-01-19 08:40:14.45	90.91	46.89	-49.2	-51.5	16.2	0.00e+00	0	38	0	617611264	69	4846
2026-01-19 08:40:15.45	90.47	47.10	-49.0	-51.3	16.4	0.00e+00	0	38	0	619708416	69	4720
2026-01-19 08:40:16.46	90.02	47.30	-48.9	-51.0	16.7	0.00e+00	0	38	0	620756992	69	4586
2026-01-19 08:40:17.47	89.57	47.51	-48.7	-50.8	16.9	0.00e+00	0	38	0	622854144	69	4452
2026-01-19 08:40:18.47	89.12	47.71	-48.4	-50.4	17.2	0.00e+00	0	38	0	624951296	68	4531
2026-01-19 08:40:19.48	88.65	47.92	-48.4	-50.4	17.4	0.00e+00	0	38	0	627048448	68	4504
2026-01-19 08:40:20.49	88.18	48.12	-48.4	-50.4	17.4	0.00e+00	0	38	0	629145600	68	4523
2026-01-19 08:40:21.50	87.70	48.32	-48.5	-50.6	17.2	0.00e+00	0	38	0	630194176	68	4599
2026-01-19 08:40:22.50	87.22	48.52	-48.4	-50.4	17.3	0.00e+00	0	38	0	632291328	68	4525
2026-01-19 08:40:23.51	86.73	48.72	-48.0	-49.8	17.9	0.00e+00	0	38	0	634388480	68	4225
2026-01-19 08:40:24.52	86.23	48.92	-48.1	-50.0	17.8	0.00e+00	0	37	0	636485632	68	4309
2026-01-19 08:40:25.53	85.73	49.12	-47.8	-49.5	18.1	0.00e+00	0	38	0	637534208	67	4333
2026-01-19 08:40:26.54	85.22	49.31	-47.5	-49.2	18.4	0.00e+00	0	38	0	639631360	67	4175
2026-01-19 08:40:27.54	84.71	49.50	-47.2	-48.8	18.8	0.00e+00	0	38	0	641728512	66	4204
2026-01-19 08:40:28.55	84.19	49.70	-47.0	-48.6	19.1	0.00e+00	0	38	0	643825664	66	4099
2026-01-19 08:40:29.56	83.66	49.89	-46.9	-48.5	19.0	0.00e+00	0	38	0	645922816	65	4310
2026-01-19 08:40:30.57	83.12	50.07	-46.8	-48.2	19.4	0.00e+00	0	38	0	648019968	65	4188
2026-01-19 08:40:31.57	82.58	50.26	-46.7	-48.2	19.4	0.00e+00	0	38	0	649068544	65	4166
2026-01-19 08:40:32.58	82.03	50.44	-46.6	-48.0	19.6	0.00e+00	0	38	0	651165696	64	4336
2026-01-19 08:40:33.59	81.48	50.62	-46.4	-47.8	19.8	0.00e+00	0	38	0	653262848	64	4223
2026-01-19 08:40:34.60	80.91	50.80	-46.6	-48.1	19.6	0.00e+00	0	38	0	655360000	64	4353
2026-01-19 08:40:35.61	80.35	50.98	-46.7	-48.2	19.4	0.00e+00	0	37	0	657457152	64	4428
2026-01-19 08:40:36.61	79.77	51.15	-46.8	-48.3	19.2	0.00e+00	0	38	0	658505728	64	4493
2026-01-19 08:40:37.62	79.19	51.33	-46.9	-48.5	19.1	0.00e+00	0	37	0	660602880	64	4549
2026-01-19 08:40:38.63	78.60	51.50	-46.9	-48.4	19.1	0.00e+00	0	38	0	662700032	64	4531
2026-01-19 08:40:39.64	78.00	51.66	-47.0	-48.5	19.2	0.00e+00	0	38	0	664797184	64	4560
2026-01-19 08:40:40.65	77.40	51.83	-46.8	-48.3	19.3	0.00e+00	0	37	0	666894336	64	4482
2026-01-19 08:40:41.66	76.79	51.99	-46.8	-48.3	19.4	0.00e+00	0	38	0	667942912	64	4443
2026-01-19 08:40:42.66	76.18	52.15	-46.8	-48.2	19.4	0.00e+00	0	38	0	670040064	64	4431
2026-01-19 08:40:43.67	75.56	52.31	-47.0	-48.6	19.1	0.00e+00	0	38	0	672137216	64	4602
2026-01-19 08:40:44.67	74.93	52.46	-47.3	-49.0	18.7	0.00e+00	0	38	0	674234368	65	4548
2026-01-19 08:40:45.68	74.30	52.61	-47.3	-48.9	18.7	0.00e+00	0	38	0	676331520	65	4521
2026-01-19 08:40:46.69	73.66	52.75	-47.1	-48.6	19.0	0.00e+00	0	38	0	677380096	65	4376
2026-01-19 08:40:47.70	73.01	52.90	-47.0	-48.5	19.1	0.00e+00	0	38	0	679477248	65	4320
2026-01-19 08:40:48.71	72.35	53.04	-47.0	-48.5	19.1	0.00e+00	0	38	0	681574400	65	4339
2026-01-19 08:40:49.71	71.70	53.17	-46.6	-48.1	19.6	0.00e+00	0	38	0	683671552	65	4109
2026-01-19 08:40:50.72	71.03	53.31	-46.4	-47.8	19.9	0.00e+00	0	38	0	685768704	64	4214
2026-01-19 08:40:51.73	70.35	53.43	-46.2	-47.5	20.2	0.00e+00	0	38	0	686817280	64	4077
2026-01-19 08:40:52.74	69.68	53.56	-46.1	-47.4	20.2	0.00e+00	0	38	0	688914432	64	4049
2026-01-19 08:40:53.75	68.99	53.68	-46.0	-47.3	20.5	0.00e+00	0	38	0	691011584	63	4196
2026-01-19 08:40:54.75	68.31	53.80	-45.6	-46.9	20.8	0.00e+00	0	37	0	693108736	63	4007
2026-01-19 08:40:55.76	67.61	53.91	-45.4	-46.6	21.0	0.00e+00	0	37	0	695205888	62	4134
2026-01-19 08:40:56.77	66.91	54.02	-45.7	-46.9	20.8	0.00e+00	0	38	0	696254464	62	4265
2026-01-19 08:40:57.78	66.20	54.13	-45.5	-46.7	21.0	0.00e+00	0	38	0	698351616	62	4191
2026-01-19 08:40:58.79	65.49	54.23	-45.3	-46.5	21.2	0.00e+00	0	37	0	700448768	62	4071
2026-01-19 08:40:59.79	64.78	54.32	-45.0	-46.1	21.5	0.00e+00	0	38	0	702545920	62	3898
2026-01-19 08:41:00.80	64.05	54.42	-44.9	-46.0	21.7	0.00e+00	0	38	0	704643072	61	4062
2026-01-19 08:41:01.81	63.33	54.51	-44.7	-45.8	21.8	0.00e+00	0	37	0	705691648	61	3995
2026-01-19 08:41:02.81	62.60	54.59	-44.6	-45.7	21.9	0.00e+00	0	37	0	707788800	61	3956
2026-01-19 08:41:03.82	61.87	54.67	-44.6	-45.7	22.0	0.00e+00	0	38	0	709885952	61	3922
2026-01-19 08:41:04.83	61.13	54.74	-44.4	-45.4	22.2	0.00e+00	0	38	0	711983104	60	4039
2026-01-19 08:41:05.84	60.39	54.81	-44.1	-45.2	22.4	0.00e+00	0	38	0	714080256	60	3920
2026-01-19 08:41:06.84	59.65	54.88	-44.2	-45.2	22.3	0.00e+00	0	37	0	715128832	60	3939
2026-01-19 08:41:07.85	58.90	54.94	-44.1	-45.1	22.4	0.00e+00	0	38	0	717225984	60	3913
2026-01-19 08:41:08.86	58.14	54.99	-44.3	-45.4	22.6	0.00e+00	0	38	0	719323136	59	4244
2026-01-19 08:41:09.87	57.39	55.04	-44.2	-45.2	22.7	0.00e+00	0	38	0	721420288	59	4191
2026-01-19 08:41:10.88	56.63	55.09	-44.4	-45.5	22.4	0.00e+00	0	38	0	723517440	59	4308
2026-01-19 08:41:11.89	55.87	55.13	-44.4	-45.5	22.4	0.00e+00	0	38	0	724566016	59	4298
2026-01-19 08:41:12.89	55.11	55.16	-44.2	-45.2	22.7	0.00e+00	0	38	0	726663168	59	4167
2026-01-19 08:41:13.90	54.35	55.19	-44.4	-45.4	22.5	0.00e+00	0	38	0	728760320	59	4274
2026-01-19 08:41:14.91	53.58	55.22	-44.7	-45.8	22.2	0.00e+00	0	38	0	730857472	59	4457
2026-01-19 08:41:15.91	52.82	55.24	-44.7	-45.8	22.2	0.00e+00	0	38	0	732954624	59	4466
2026-01-19 08:41:16.92	52.06	55.26	-44.4	-45.5	22.2	0.00e+00	0	38	0	734003200	60	4055
2026-01-19 08:41:17.93	51.29	55.27	-44.6	-45.7	21.9	0.00e+00	0	38	0	736100352	60	4176
2026-01-19 08:41:18.94	50.52	55.27	-44.8	-45.9	21.8	0.00e+00	0	38	0	738197504	60	4259
2026-01-19 08:41:19.95	49.75	55.27	-44.7	-45.8	21.9	0.00e+00	0	38	0	740294656	60	4212
2026-01-19 08:41:20.95	48.99	55.27	-44.9	-46.1	21.6	0.00e+00	0	38	0	742391808	60	4348
2026-01-19 08:41:21.96	48.22	55.26	-45.0	-46.1	21.6	0.00e+00	0	38	0	743440384	60	4372
2026-01-19 08:41:22.97	47.45	55.24	-44.7	-45.8	21.9	0.00e+00	0	37	0	745537536	60	4229
2026-01-19 08:41:23.98	46.68	55.22	-44.7	-45.8	21.8	0.00e+00	0	38	0	747634688	60	4219
2026-01-19 08:41:24.99	45.92	55.19	-44.5	-45.6	22.1	0.00e+00	0	38	0	749731840	60	4104
2026-01-19 08:41:25.99	45.16	55.16	-44.5	-45.6	22.1	0.00e+00	0	38	0	751828992	60	4114
2026-01-19 08:41:27.00	44.40	55.13	-44.6	-45.7	22.0	0.00e+00	0	38	0	752877568	60	4173
2026-01-19 08:41:28.01	43.64	55.09	-44.5	-45.6	22.0	0.00e+00	0	38	0	754974720	60	4132
2026-01-19 08:41:29.01	42.89	55.04	-44.3	-45.3	22.3	0.00e+00	0	38	0	757071872	60	3989
2026-01-19 08:41:30.02	42.13	54.99	-44.3	-45.3	22.6	0.00e+00	0	38	0	759169024	59	4227
2026-01-19 08:41:31.03	41.38	54.94	-43.8	-44.8	23.0	0.00e+00	0	38	0	761266176	59	3988
2026-01-19 08:41:32.04	40.63	54.88	-43.6	-44.6	23.2	0.00e+00	0	37	0	762314752	59	3887
2026-01-19 08:41:33.04	39.89	54.81	-43.8	-44.8	23.0	0.00e+00	0	38	0	764411904	59	3982
2026-01-19 08:41:34.05	39.15	54.74	-43.8	-44.8	23.1	0.00e+00	0	38	0	766509056	59	3964
2026-01-19 08:41:35.06	38.41	54.67	-43.8	-44.7	23.1	0.00e+00	0	38	0	768606208	59	3955
2026-01-19 08:41:36.07	37.68	54.59	-43.7	-44.6	23.2	0.00e+00	0	38	0	770703360	59	3905
2026-01-19 08:41:37.08	36.94	54.51	-43.6	-44.6	23.2	0.00e+00	0	38	0	771751936	59	3885
2026-01-19 08:41:38.08	36.23	54.42	-43.6	-44.6	23.2	0.00e+00	0	38	0	773849088	59	3882
2026-01-19 08:41:39.09	35.50	54.33	-43.9	-44.9	23.0	0.00e+00	0	38	0	775946240	59	4005
2026-01-19 08:41:40.10	34.79	54.23	-44.0	-45.0	22.9	0.00e+00	0	38	0	778043392	59	4088
2026-01-19 08:41:41.11	34.07	54.13	-44.2	-45.2	22.7	0.00e+00	0	38	0	780140544	59	4165
2026-01-19 08:41:42.11	33.37	54.03	-44.4	-45.4	22.5	0.00e+00	0	38	0	781189120	59	4272
2026-01-19 08:41:43.12	32.67	53.92	-44.5	-45.6	22.4	0.00e+00	0	38	0	783286272	59	4350
2026-01-19 08:41:44.13	31.98	53.80	-44.5	-45.6	22.1	0.00e+00	0	38	0	785383424	60	4117
2026-01-19 08:41:45.13	31.29	53.69	-45.0	-46.1	21.6	0.00e+00	0	38	0	787480576	60	4368
2026-01-19 08:41:46.14	30.61	53.57	-45.2	-46.4	21.3	0.00e+00	0	38	0	789577728	61	4250
2026-01-19 08:41:47.15	29.93	53.44	-45.2	-46.4	21.3	0.00e+00	0	38	0	791674880	61	4270
2026-01-19 08:41:48.16	29.25	53.31	-45.4	-46.6	21.2	0.00e+00	0	38	0	792723456	61	4345
2026-01-19 08:41:49.17	28.59	53.18	-45.6	-46.9	20.8	0.00e+00	0	38	0	794820608	61	4516
2026-01-19 08:41:50.17	27.93	53.05	-45.8	-47.1	20.7	0.00e+00	0	38	0	796917760	62	4347
2026-01-19 08:41:51.18	27.28	52.91	-45.8	-47.1	20.7	0.00e+00	0	38	0	799014912	62	4347
2026-01-19 08:41:52.19	26.63	52.76	-45.9	-47.2	20.6	0.00e+00	0	37	0	800063488	62	4430
2026-01-19 08:41:53.19	25.99	52.62	-45.8	-47.1	20.7	0.00e+00	0	38	0	802160640	62	4345
2026-01-19 08:41:54.20	25.36	52.47	-45.8	-47.0	20.7	0.00e+00	0	38	0	804257792	62	4329
2026-01-19 08:41:55.21	24.73	52.32	-45.7	-46.9	20.8	0.00e+00	0	38	0	806354944	62	4261
2026-01-19 08:41:56.22	24.10	52.16	-45.7	-46.9	20.8	0.00e+00	0	38	0	808452096	62	4276
2026-01-19 08:41:57.23	23.49	52.00	-45.8	-47.1	20.7	0.00e+00	0	38	0	809500672	62	4344
2026-01-19 08:41:58.23	22.89	51.84	-45.8	-47.1	20.7	0.00e+00	0	38	0	811597824	62	4346
2026-01-19 08:41:59.24	22.28	51.68	-45.9	-47.2	20.6	0.00e+00	0	38	0	813694976	62	4394
2026-01-19 08:42:00.25	21.69	51.51	-46.0	-47.3	20.5	0.00e+00	0	38	0	815792128	62	4473
2026-01-19 08:42:01.26	21.10	51.34	-46.1	-47.5	20.3	0.00e+00	0	38	0	817889280	63	4297
2026-01-19 08:42:02.26	20.52	51.17	-46.2	-47.5	20.3	0.00e+00	0	38	0	819986432	63	4331
2026-01-19 08:42:03.27	19.94	50.99	-46.1	-47.4	20.4	0.00e+00	0	38	0	821035008	63	4252
2026-01-19 08:42:04.28	19.38	50.82	-46.2	-47.5	20.3	0.00e+00	0	37	0	823132160	63	4312
2026-01-19 08:42:05.29	18.81	50.64	-46.5	-47.9	19.8	0.00e+00	0	38	0	825229312	63	4543
2026-01-19 08:42:06.29	18.26	50.46	-46.9	-48.4	19.4	0.00e+00	0	38	0	827326464	64	4521
2026-01-19 08:42:07.30	17.71	50.28	-47.2	-48.7	19.0	0.00e+00	0	38	0	828375040	64	4701
2026-01-19 08:42:08.31	17.17	50.09	-47.4	-49.1	18.7	0.00e+00	0	38	0	830472192	65	4610
2026-01-19 08:42:09.31	16.64	49.90	-47.4	-49.0	18.7	0.00e+00	0	38	0	832569344	65	4581
2026-01-19 08:42:10.32	16.11	49.71	-47.5	-49.1	18.7	0.00e+00	0	38	0	834666496	65	4619
2026-01-19 08:42:11.33	15.59	49.52	-47.7	-49.4	18.3	0.00e+00	0	38	0	836763648	65	4792
2026-01-19 08:42:12.34	15.07	49.33	-48.3	-50.2	17.5	0.00e+00	0	38	0	837812224	67	4686
2026-01-19 08:42:13.34	14.57	49.14	-49.0	-51.2	16.7	0.00e+00	0	38	0	839909376	68	4938
2026-01-19 08:42:14.35	14.07	48.94	-49.3	-51.6	16.3	0.00e+00	0	38	0	842006528	69	4899
2026-01-19 08:42:15.36	13.57	48.74	-49.5	-52.0	15.9	0.00e+00	0	38	0	844103680	69	5114
2026-01-19 08:42:16.37	13.08	48.55	-49.6	-52.1	15.8	0.00e+00	0	38	0	846200832	69	5169
2026-01-19 08:42:17.37	12.60	48.35	-49.8	-52.3	15.6	0.00e+00	0	38	0	848297984	70	5029
2026-01-19 08:42:18.38	12.12	48.15	-49.9	-52.6	15.3	0.00e+00	0	38	0	849346560	70	5200
2026-01-19 08:42:19.39	11.65	47.94	-50.1	-52.9	14.9	0.00e+00	0	38	0	851443712	70	5383
2026-01-19 08:42:20.40	11.19	47.74	-49.7	-52.2	15.7	0.00e+00	0	38	0	853540864	70	4977
2026-01-19 08:42:21.40	10.73	47.54	-50.2	-53.1	14.8	0.00e+00	0	38	0	855638016	70	5479
2026-01-19 08:42:22.41	10.28	47.33	-50.7	-54.0	13.9	0.00e+00	0	38	0	856686592	71	5728
2026-01-19 08:42:23.42	9.83	47.12	-50.6	-53.8	13.9	6.80e-06	0	38	0	858783744	72	5334
2026-01-19 08:42:24.43	9.39	46.92	-50.1	-52.8	15.2	7.00e-07	0	38	0	860880896	71	5014
2026-01-19 08:42:25.43	8.96	46.71	-49.1	-51.3	16.5	0.00e+00	0	38	0	862978048	70	4485
2026-01-19 08:42:26.44	8.53	46.50	-48.9	-51.0	16.8	0.00e+00	0	38	0	865075200	69	4591
2026-01-19 08:42:27.45	8.11	46.29	-49.1	-51.3	16.6	0.00e+00	0	38	0	867172352	69	4728
2026-01-19 08:42:28.45	7.69	46.08	-49.3	-51.5	16.3	0.00e+00	0	38	0	868220928	69	4863
2026-01-19 08:42:29.46	7.28	45.87	-49.6	-52.0	15.8	0.00e+00	0	38	0	870318080	69	5139
2026-01-19 08:42:30.47	6.87	45.66	-49.5	-51.9	16.0	0.00e+00	0	38	0	872415232	69	5058
2026-01-19 08:42:31.48	6.47	45.45	-49.0	-51.2	16.7	0.00e+00	0	38	0	874512384	69	4676
2026-01-19 08:42:32.49	6.08	45.23	-48.5	-50.5	17.4	0.00e+00	0	38	0	876609536	69	4297
2026-01-19 08:42:33.49	5.69	45.02	-48.4	-50.4	17.5	0.00e+00	0	38	0	877658112	68	4494
2026-01-19 08:42:34.50	5.30	44.81	-48.5	-50.5	17.4	0.00e+00	0	38	0	879755264	68	4578
2026-01-19 08:42:35.51	4.92	44.60	-48.4	-50.3	17.6	0.00e+00	0	38	0	881852416	68	4453
2026-01-19 08:42:36.52	4.55	44.38	-48.5	-50.4	17.5	0.00e+00	0	38	0	883949568	68	4526
2026-01-19 08:42:37.53	4.18	44.17	-48.6	-50.6	17.2	0.00e+00	0	38	0	884998144	68	4648
2026-01-19 08:42:38.53	3.82	43.96	-48.8	-50.9	17.0	0.00e+00	0	38	0	887095296	68	4790
2026-01-19 08:42:39.54	3.46	43.74	-48.8	-50.8	17.1	0.00e+00	0	38	0	889192448	68	4736
2026-01-19 08:42:40.55	3.10	43.53	-48.5	-50.5	17.4	0.00e+00	0	38	0	891289600	68	4548
2026-01-19 08:42:41.56	2.75	43.31	-48.6	-50.6	17.4	0.00e+00	0	38	0	893386752	68	4602
2026-01-19 08:42:42.56	2.41	43.10	-48.4	-50.3	17.5	0.00e+00	0	38	0	895483904	68	4489
2026-01-19 08:42:43.57	2.07	42.89	-48.5	-50.5	17.4	0.00e+00	0	38	0	896532480	68	4552
2026-01-19 08:42:44.58	1.73	42.67	-48.6	-50.5	17.3	0.00e+00	0	38	0	898629632	68	4594
2026-01-19 08:42:45.59	1.40	42.46	-48.8	-50.9	17.1	0.00e+00	0	38	0	900726784	68	4760
2026-01-19 08:42:46.59	1.07	42.25	-49.1	-51.3	16.6	0.00e+00	0	38	0	902823936	68	4999
2026-01-19 08:42:47.60	0.75	42.03	-49.3	-51.7	16.2	0.00e+00	0	38	0	904921088	69	4929
2026-01-19 08:42:48.61	0.43	41.82	-49.2	-51.6	16.3	0.00e+00	0	38	0	905969664	69	4875
2026-01-19 08:42:49.62	0.12	41.61	-49.5	-51.9	15.9	0.00e+00	0	38	0	908066816	69	5098
2026-01-19 08:42:50.63	359.81	41.39	-49.4	-51.8	16.0	0.00e+00	0	38	0	910163968	69	5020
2026-01-19 08:42:51.63	359.50	41.18	-49.4	-51.7	16.1	0.00e+00	0	38	0	912261120	69	4978
2026-01-19 08:42:52.64	359.20	40.97	-49.2	-51.5	16.3	0.00e+00	0	38	0	914358272	69	4832
2026-01-19 08:42:53.65	358.90	40.76	-49.2	-51.4	16.4	0.00e+00	0	38	0	915406848	69	4793
2026-01-19 08:42:54.66	358.61	40.55	-49.3	-51.7	16.2	0.00e+00	0	38	0	917504000	69	4931
2026-01-19 08:42:55.66	358.32	40.34	-49.3	-51.6	16.3	0.00e+00	0	38	0	919601152	69	4884
2026-01-19 08:42:56.67	358.03	40.13	-49.1	-51.4	16.5	0.00e+00	0	38	0	921698304	69	4770
2026-01-19 08:42:57.68	357.75	39.92	-49.2	-51.5	16.4	0.00e+00	0	38	0	923795456	69	4845
2026-01-19 08:42:58.69	357.47	39.71	-49.1	-51.3	16.4	0.00e+00	0	38	0	924844032	69	4754
2026-01-19 08:42:59.69	357.19	39.50	-49.1	-51.4	16.5	0.00e+00	0	38	0	926941184	69	4766
2026-01-19 08:43:00.70	356.92	39.29	-48.9	-51.0	16.8	0.00e+00	0	38	0	929038336	69	4593
2026-01-19 08:43:01.71	356.65	39.08	-49.0	-51.1	16.8	0.00e+00	0	38	0	931135488	69	4630
2026-01-19 08:43:02.72	356.39	38.87	-48.9	-51.1	16.8	0.00e+00	0	38	0	933232640	69	4604
2026-01-19 08:43:03.73	356.13	38.67	-49.0	-51.2	16.6	0.00e+00	0	38	0	934281216	69	4698
2026-01-19 08:43:04.73	355.87	38.46	-49.0	-51.2	16.6	0.00e+00	0	38	0	936378368	69	4664
2026-01-19 08:43:05.74	355.61	38.26	-49.0	-51.2	16.6	0.00e+00	0	38	0	938475520	69	4658
2026-01-19 08:43:06.75	355.36	38.05	-48.9	-51.1	16.7	0.00e+00	0	38	0	940572672	69	4599
2026-01-19 08:43:07.76	355.11	37.85	-49.0	-51.2	16.7	0.00e+00	0	38	0	942669824	69	4654
2026-01-19 08:43:08.77	354.87	37.64	-49.0	-51.2	16.7	0.00e+00	0	38	0	943718400	69	4657
2026-01-19 08:43:09.77	354.63	37.44	-49.2	-51.4	16.4	0.00e+00	0	38	0	945815552	69	4793
2026-01-19 08:43:10.78	354.39	37.24	-49.0	-51.2	16.6	0.00e+00	0	38	0	947912704	69	4671
2026-01-19 08:43:11.79	354.15	37.03	-48.9	-51.1	16.7	0.00e+00	0	38	0	950009856	69	4622
2026-01-19 08:43:12.80	353.92	36.83	-48.7	-50.8	17.0	0.00e+00	0	38	0	952107008	69	4474
2026-01-19 08:43:13.80	353.69	36.63	-48.8	-51.0	16.8	0.00e+00	0	38	0	953155584	69	4558
2026-01-19 08:43:14.81	353.46	36.43	-48.7	-50.8	16.9	0.00e+00	0	38	0	955252736	69	4464
2026-01-19 08:43:15.81	353.24	36.24	-48.6	-50.6	17.2	0.00e+00	0	38	0	957349888	69	4366
2026-01-19 08:43:16.82	353.01	36.04	-48.4	-50.4	17.4	0.00e+00	0	38	0	959447040	68	4494
2026-01-19 08:43:17.83	352.79	35.84	-48.4	-50.3	17.4	0.00e+00	0	38	0	961544192	68	4484
2026-01-19 08:43:18.84	352.58	35.64	-48.4	-50.3	17.5	0.00e+00	0	38	0	962592768	68	4458
2026-01-19 08:43:19.84	352.36	35.45	-48.3	-50.2	17.5	0.00e+00	0	38	0	964689920	68	4438
2026-01-19 08:43:20.85	352.15	35.25	-48.4	-50.3	17.5	0.00e+00	0	38	0	966787072	68	4486
2026-01-19 08:43:21.86	351.94	35.06	-48.6	-50.6	17.2	0.00e+00	0	38	0	968884224	68	4624
2026-01-19 08:43:22.87	351.74	34.86	-48.7	-50.7	16.9	0.00e+00	0	38	0	970981376	68	4690
2026-01-19 08:43:23.88	351.53	34.67	-49.0	-51.2	16.6	0.00e+00	0	38	0	972029952	68	4970
2026-01-19 08:43:24.88	351.33	34.48	-49.2	-51.5	16.2	0.00e+00	0	38	0	974127104	68	5146
2026-01-19 08:43:25.89	351.13	34.29	-49.3	-51.7	16.0	0.00e+00	0	38	0	976224256	69	4966
2026-01-19 08:43:26.90	350.94	34.09	-49.2	-51.5	16.2	0.00e+00	0	38	0	978321408	69	4838
2026-01-19 08:43:27.91	350.74	33.90	-49.1	-51.4	16.4	0.00e+00	0	38	0	980418560	69	4773
2026-01-19 08:43:28.91	350.55	33.72	-49.2	-51.5	16.3	0.00e+00	0	38	0	981467136	69	4826
2026-01-19 08:43:29.92	350.36	33.53	-48.8	-50.9	16.9	0.00e+00	0	38	0	983564288	69	4518
2026-01-19 08:43:30.93	350.17	33.34	-48.8	-50.9	16.8	0.00e+00	0	38	0	985661440	69	4505
2026-01-19 08:43:31.94	349.99	33.15	-48.7	-50.8	16.9	0.00e+00	0	38	0	987758592	69	4488
2026-01-19 08:43:32.94	349.81	32.97	-48.9	-51.0	16.8	0.00e+00	0	38	0	989855744	69	4567
2026-01-19 08:43:33.95	349.62	32.78	-48.9	-51.0	16.7	0.00e+00	0	38	0	991952896	69	4587
2026-01-19 08:43:34.96	349.44	32.60	-49.0	-51.2	16.6	0.00e+00	0	38	0	993001472	69	4700
2026-01-19 08:43:35.97	349.27	32.41	-49.2	-51.5	16.3	0.00e+00	0	38	0	995098624	69	4818
2026-01-19 08:43:36.98	349.09	32.23	-49.2	-51.5	16.3	0.00e+00	0	38	0	997195776	69	4818
2026-01-19 08:43:37.98	348.92	32.05	-49.1	-51.4	16.3	0.00e+00	0	38	0	999292928	69	4803
2026-01-19 08:43:38.99	348.75	31.87	-49.2	-51.5	16.2	0.00e+00	0	38	0	1000341504	69	4855
2026-01-19 08:43:40.00	348.58	31.69	-49.2	-51.6	16.2	0.00e+00	0	38	0	1002438656	69	4881
2026-01-19 08:43:41.01	348.41	31.51	-49.2	-51.6	16.1	0.00e+00	0	38	0	1004535808	69	4905
2026-01-19 08:43:42.01	348.25	31.33	-49.5	-52.0	15.8	0.00e+00	0	38	0	1006632960	69	5120
2026-01-19 08:43:43.02	348.08	31.15	-49.7	-52.4	15.4	0.00e+00	0	38	0	1008730112	69	5341
2026-01-19 08:43:44.03	347.92	30.97	-49.8	-52.5	15.3	0.00e+00	0	38	0	1009778688	70	5107
2026-01-19 08:43:45.04	347.76	30.80	-49.5	-52.1	15.6	0.00e+00	0	38	0	1011875840	70	4891
2026-01-19 08:43:46.04	347.61	30.62	-49.3	-51.7	16.0	0.00e+00	0	38	0	1013972992	70	4703
2026-01-19 08:43:47.05	347.45	30.45	-49.2	-51.5	16.2	0.00e+00	0	38	0	1016070144	70	4572
2026-01-19 08:43:48.06	347.29	30.27	-49.0	-51.2	16.5	0.00e+00	0	38	0	1018167296	70	4433
2026-01-19 08:43:49.07	347.14	30.10	-48.8	-51.0	16.7	0.00e+00	0	38	0	1020264448	69	4569
2026-01-19 08:43:50.08	346.99	29.93	-48.9	-51.0	16.6	0.00e+00	0	38	0	1021313024	69	4598
2026-01-19 08:43:51.09	346.84	29.76	-48.9	-51.1	16.6	0.00e+00	0	38	0	1023410176	69	4638
2026-01-19 08:43:52.09	346.69	29.59	-49.0	-51.2	16.4	0.00e+00	0	38	0	1025507328	69	4705
2026-01-19 08:43:53.10	346.55	29.42	-48.9	-51.1	16.6	0.00e+00	0	38	0	1027604480	69	4613
2026-01-19 08:43:54.11	346.40	29.25	-48.8	-51.0	16.7	0.00e+00	0	38	0	1028653056	69	4559
2026-01-19 08:43:55.12	346.26	29.08	-48.8	-51.0	16.7	0.00e+00	0	38	0	1030750208	69	4562
2026-01-19 08:43:56.12	346.12	28.91	-48.7	-50.8	16.8	0.00e+00	0	38	0	1032847360	69	4493
2026-01-19 08:43:57.13	345.98	28.75	-48.6	-50.7	17.0	0.00e+00	0	38	0	1034944512	69	4398
2026-01-19 08:43:58.14	345.84	28.58	-48.6	-50.6	17.1	0.00e+00	0	38	0	1037041664	69	4379
2026-01-19 08:43:59.14	345.70	28.42	-48.5	-50.6	17.1	0.00e+00	0	38	0	1039138816	69	4357
2026-01-19 08:44:00.15	345.57	28.25	-48.5	-50.5	17.2	0.00e+00	0	38	0	1040187392	68	4570
2026-01-19 08:44:01.16	345.43	28.09	-48.4	-50.4	17.3	0.00e+00	0	38	0	1042284544	68	4517
2026-01-19 08:44:02.17	345.30	27.92	-48.4	-50.4	17.2	0.00e+00	0	38	0	1044381696	68	4536
2026-01-19 08:44:03.18	345.17	27.76	-48.4	-50.4	17.3	0.00e+00	0	38	0	1046478848	68	4509
2026-01-19 08:44:04.18	345.04	27.60	-48.4	-50.4	17.3	0.00e+00	0	38	0	1048576000	68	4507
2026-01-19 08:44:05.19	344.91	27.44	-48.3	-50.3	17.4	0.00e+00	0	38	0	1049624576	68	4471
2026-01-19 08:44:06.20	344.78	27.28	-48.3	-50.3	17.3	0.00e+00	0	38	0	1051721728	68	4471
2026-01-19 08:44:07.21	344.65	27.12	-48.2	-50.1	17.5	0.00e+00	0	38	0	1053818880	68	4374
2026-01-19 08:44:08.21	344.53	26.97	-48.0	-49.8	17.8	0.00e+00	0	38	0	1055916032	68	4223
2026-01-19 08:44:09.22	344.40	26.81	-47.8	-49.6	17.9	0.00e+00	0	38	0	1056964608	67	4373
2026-01-19 08:44:10.23	344.28	26.65	-47.8	-49.6	17.9	0.00e+00	0	38	0	1059061760	67	4388
2026-01-19 08:44:11.24	344.16	26.49	-47.7	-49.5	18.0	0.00e+00	0	38	0	1061158912	67	4319
2026-01-19 08:44:12.24	344.04	26.34	-47.6	-49.4	18.1	0.00e+00	0	38	0	1063256064	67	4260
2026-01-19 08:44:13.25	343.92	26.19	-47.6	-49.4	18.1	0.00e+00	0	38	0	1065353216	67	4248
2026-01-19 08:44:14.26	343.80	26.03	-47.6	-49.4	18.1	0.00e+00	0	38	0	1067450368	67	4279
2026-01-19 08:44:15.27	343.69	25.88	-47.6	-49.3	18.2	0.00e+00	0	38	0	1068498944	67	4232
2026-01-19 08:44:16.28	343.57	25.73	-47.5	-49.2	18.3	0.00e+00	0	38	0	1070596096	66	4426
2026-01-19 08:44:17.29	343.46	25.58	-47.5	-49.3	18.1	0.00e+00	0	38	0	1072693248	66	4461
2026-01-19 08:44:18.29	343.35	25.43	-47.5	-49.3	18.2	0.00e+00	0	38	0	1074790400	66	4455
2026-01-19 08:44:19.30	343.23	25.28	-47.4	-49.2	18.3	0.00e+00	0	38	0	1076887552	66	4394
2026-01-19 08:44:20.31	343.12	25.13	-47.3	-49.0	18.4	0.00e+00	0	38	0	1077936128	66	4326
2026-01-19 08:44:21.32	343.01	24.98	-47.3	-49.0	18.4	0.00e+00	0	38	0	1080033280	66	4329
2026-01-19 08:44:22.32	342.90	24.83	-47.3	-49.0	18.5	0.00e+00	0	38	0	1082130432	66	4314
2026-01-19 08:44:23.33	342.80	24.68	-47.3	-48.9	18.5	0.00e+00	0	38	0	1084227584	66	4283
2026-01-19 08:44:24.34	342.69	24.54	-47.2	-48.8	18.6	0.00e+00	0	38	0	1085276160	66	4220
2026-01-19 08:44:25.35	342.58	24.39	-47.0	-48.6	18.8	0.00e+00	0	38	0	1087373312	66	4133
2026-01-19 08:44:26.36	342.48	24.25	-47.1	-48.7	18.8	0.00e+00	0	38	0	1089470464	66	4167
2026-01-19 08:44:27.37	342.37	24.10	-47.1	-48.8	18.7	0.00e+00	0	38	0	1091567616	66	4210
2026-01-19 08:44:28.37	342.27	23.96	-47.2	-48.9	18.5	0.00e+00	0	38	0	1093664768	66	4265
2026-01-19 08:44:29.38	342.17	23.82	-47.4	-49.1	18.4	0.00e+00	0	38	0	1095761920	66	4345
2026-01-19 08:44:30.39	342.07	23.67	-47.5	-49.3	18.1	0.00e+00	0	38	0	1096810496	66	4469
2026-01-19 08:44:31.40	341.97	23.53	-47.6	-49.4	18.0	0.00e+00	0	38	0	1098907648	66	4521
2026-01-19 08:44:32.40	341.87	23.39	-47.6	-49.4	18.0	0.00e+00	0	38	0	1101004800	66	4525
2026-01-19 08:44:33.41	341.77	23.25	-47.7	-49.5	17.9	0.00e+00	0	38	0	1103101952	66	4581
2026-01-19 08:44:34.42	341.68	23.11	-47.8	-49.7	17.8	0.00e+00	0	38	0	1105199104	66	4661
2026-01-19 08:44:35.43	341.58	22.97	-47.6	-49.5	18.0	0.00e+00	0	38	0	1106247680	66	4546
2026-01-19 08:44:36.44	341.48	22.83	-47.7	-49.5	17.9	0.00e+00	0	38	0	1108344832	66	4584
2026-01-19 08:44:37.44	341.39	22.70	-47.6	-49.4	18.0	0.00e+00	0	38	0	1110441984	66	4521
2026-01-19 08:44:38.45	341.30	22.56	-47.5	-49.3	18.1	0.00e+00	0	38	0	1112539136	66	4478
2026-01-19 08:44:39.46	341.20	22.42	-47.5	-49.3	18.1	0.00e+00	0	38	0	1114636288	66	4485
2026-01-19 08:44:40.47	341.11	22.29	-47.5	-49.2	18.2	0.00e+00	0	38	0	1115684864	66	4436
2026-01-19 08:44:41.48	341.02	22.15	-47.4	-49.2	18.2	0.00e+00	0	38	0	1117782016	66	4413
2026-01-19 08:44:42.49	340.93	22.02	-47.3	-49.0	18.3	0.00e+00	0	38	0	1119879168	66	4332
2026-01-19 08:44:43.49	340.84	21.89	-47.3	-48.9	18.4	0.00e+00	0	38	0	1121976320	66	4291
2026-01-19 08:44:44.50	340.75	21.75	-47.3	-49.0	18.4	0.00e+00	0	38	0	1124073472	66	4300
2026-01-19 08:44:45.51	340.66	21.62	-47.3	-49.0	18.3	0.00e+00	0	38	0	1125122048	66	4338
2026-01-19 08:44:46.52	340.58	21.49	-47.2	-48.9	18.5	0.00e+00	0	38	0	1127219200	66	4271
2026-01-19 08:44:47.53	340.49	21.36	-47.3	-49.0	18.3	0.00e+00	0	38	0	1129316352	66	4327
2026-01-19 08:44:48.53	340.41	21.23	-47.3	-49.0	18.4	0.00e+00	0	38	0	1131413504	66	4293
2026-01-19 08:44:49.54	340.32	21.10	-47.1	-48.8	18.6	0.00e+00	0	38	0	1133510656	66	4202
2026-01-19 08:44:50.55	340.24	20.97	-47.1	-48.7	18.6	0.00e+00	0	38	0	1134559232	66	4181
2026-01-19 08:44:51.56	340.15	20.84	-47.0	-48.6	18.7	0.00e+00	0	38	0	1136656384	65	4385
2026-01-19 08:44:52.57	340.07	20.71	-47.0	-48.6	18.7	0.00e+00	0	38	0	1138753536	65	4370
2026-01-19 08:44:53.57	339.99	20.58	-46.9	-48.5	18.8	0.00e+00	0	38	0	1140850688	65	4300
2026-01-19 08:44:54.58	339.91	20.46	-46.9	-48.6	18.7	0.00e+00	0	38	0	1142947840	65	4351
2026-01-19 08:44:55.59	339.83	20.33	-46.9	-48.5	18.8	0.00e+00	0	38	0	1143996416	65	4308
2026-01-19 08:44:56.60	339.75	20.20	-47.0	-48.6	18.7	0.00e+00	0	38	0	1146093568	65	4372
2026-01-19 08:44:57.61	339.67	20.08	-47.0	-48.6	18.7	0.00e+00	0	38	0	1148190720	65	4364
2026-01-19 08:44:58.61	339.59	19.95	-46.9	-48.5	18.8	0.00e+00	0	38	0	1150287872	65	4314
2026-01-19 08:44:59.62	339.51	19.83	-46.8	-48.4	18.9	0.00e+00	0	38	0	1152385024	65	4284
2026-01-19 08:45:00.63	339.43	19.70	-46.9	-48.5	18.8	0.00e+00	0	38	0	1153433600	65	4310
2026-01-19 08:45:01.64	339.36	19.58	-47.0	-48.7	18.6	0.00e+00	0	38	0	1155530752	65	4395
2026-01-19 08:45:02.65	339.28	19.46	-46.9	-48.5	18.8	0.00e+00	0	38	0	1157627904	65	4309
2026-01-19 08:45:03.65	339.21	19.34	-46.9	-48.5	18.8	0.00e+00	0	38	0	1159725056	65	4324
2026-01-19 08:45:04.66	339.13	19.22	-47.0	-48.6	18.7	0.00e+00	0	38	0	1161822208	65	4369
2026-01-19 08:45:05.67	339.06	19.09	-46.9	-48.6	18.7	0.00e+00	0	38	0	1162870784	65	4351
2026-01-19 08:45:06.68	338.98	18.97	-46.9	-48.5	18.8	0.00e+00	0	38	0	1164967936	65	4312
2026-01-19 08:45:07.68	338.91	18.86	-47.0	-48.6	18.7	0.00e+00	0	38	0	1167065088	65	4376
2026-01-19 08:45:08.69	338.84	18.74	-46.9	-48.6	18.7	0.00e+00	0	38	0	1169162240	65	4351
2026-01-19 08:45:09.70	338.77	18.62	-47.0	-48.6	18.6	0.00e+00	0	38	0	1171259392	65	4383
2026-01-19 08:45:10.71	338.70	18.50	-47.0	-48.6	18.7	0.00e+00	0	38	0	1172307968	65	4374
2026-01-19 08:45:11.72	338.63	18.38	-47.1	-48.7	18.6	0.00e+00	0	38	0	1174405120	65	4426
2026-01-19 08:45:12.72	338.56	18.26	-47.1	-48.8	18.5	0.00e+00	0	38	0	1176502272	65	4454
2026-01-19 08:45:13.73	338.49	18.15	-47.1	-48.8	18.4	0.00e+00	0	38	0	1178599424	65	4490
2026-01-19 08:45:14.74	338.42	18.03	-47.2	-48.9	18.4	0.00e+00	0	38	0	1180696576	65	4506
2026-01-19 08:45:15.75	338.35	17.91	-47.0	-48.7	18.5	0.00e+00	0	38	0	1182793728	65	4417
2026-01-19 08:45:16.76	338.28	17.80	-47.1	-48.7	18.5	0.00e+00	0	38	0	1183842304	65	4441
2026-01-19 08:45:17.76	338.22	17.69	-47.1	-48.7	18.5	0.00e+00	0	38	0	1185939456	65	4427
2026-01-19 08:45:18.77	338.15	17.57	-47.1	-48.7	18.5	0.00e+00	0	38	0	1188036608	65	4434
2026-01-19 08:45:19.78	338.08	17.46	-47.1	-48.8	18.4	0.00e+00	0	38	0	1190133760	65	4487
2026-01-19 08:45:20.79	338.02	17.34	-47.1	-48.8	18.4	0.00e+00	0	38	0	1192230912	65	4480
2026-01-19 08:45:21.80	337.95	17.23	-47.1	-48.8	18.4	0.00e+00	0	38	0	1193279488	65	4492
2026-01-19 08:45:22.80	337.89	17.12	-47.1	-48.8	18.4	0.00e+00	0	38	0	1195376640	65	4471
2026-01-19 08:45:23.81	337.83	17.01	-47.2	-48.9	18.3	0.00e+00	0	38	0	1197473792	65	4510
2026-01-19 08:45:24.82	337.76	16.90	-47.1	-48.8	18.4	0.00e+00	0	38	0	1199570944	65	4488
2026-01-19 08:45:25.83	337.70	16.78	-47.2	-49.0	18.2	0.00e+00	0	38	0	1200619520	65	4559
2026-01-19 08:45:26.84	337.64	16.67	-47.2	-48.9	18.3	0.00e+00	0	38	0	1202716672	65	4503
2026-01-19 08:45:27.84	337.57	16.56	-47.2	-48.9	18.3	0.00e+00	0	38	0	1204813824	65	4510
2026-01-19 08:45:28.85	337.51	16.45	-47.3	-49.0	18.2	0.00e+00	0	38	0	1206910976	65	4591
2026-01-19 08:45:29.86	337.45	16.35	-47.2	-49.0	18.2	0.00e+00	0	38	0	1209008128	65	4568
2026-01-19 08:45:30.87	337.39	16.24	-47.4	-49.2	18.1	0.00e+00	0	38	0	1211105280	65	4666
2026-01-19 08:45:31.88	337.33	16.13	-47.2	-49.0	18.2	0.00e+00	0	38	0	1212153856	65	4557
2026-01-19 08:45:32.89	337.27	16.02	-47.2	-49.0	18.2	0.00e+00	0	38	0	1214251008	65	4568
2026-01-19 08:45:33.90	337.21	15.91	-47.4	-49.1	18.0	0.00e+00	0	38	0	1216348160	65	4651
2026-01-19 08:45:34.91	337.15	15.81	-47.3	-49.1	18.1	0.00e+00	0	38	0	1218445312	65	4622
2026-01-19 08:45:35.92	337.09	15.70	-47.3	-49.1	18.1	0.00e+00	0	38	0	1220542464	65	4639
2026-01-19 08:45:36.93	337.04	15.59	-47.4	-49.2	18.0	0.00e+00	0	38	0	1221591040	65	4687
2026-01-19 08:45:37.93	336.98	15.49	-47.4	-49.2	18.0	0.00e+00	0	38	0	1223688192	65	4662
2026-01-19 08:45:38.94	336.92	15.38	-47.3	-49.0	18.1	0.00e+00	0	38	0	1225785344	65	4591
2026-01-19 08:45:39.95	336.87	15.28	-47.3	-49.1	18.1	0.00e+00	0	38	0	1227882496	65	4624
2026-01-19 08:45:40.96	336.81	15.17	-47.4	-49.2	18.0	0.00e+00	0	38	0	1229979648	65	4669
2026-01-19 08:45:41.96	336.75	15.07	-47.3	-49.1	18.0	0.00e+00	0	38	0	1231028224	65	4645
2026-01-19 08:45:42.97	336.70	14.97	-47.4	-49.3	17.9	0.00e+00	0	38	0	1233125376	65	4715
2026-01-19 08:45:43.98	336.64	14.86	-47.4	-49.2	18.0	0.00e+00	0	38	0	1235222528	65	4675
2026-01-19 08:45:44.99	336.59	14.76	-47.3	-49.1	18.0	0.00e+00	0	38	0	1237319680	65	4629
2026-01-19 08:45:46.00	336.54	14.66	-47.4	-49.3	17.9	0.00e+00	0	38	0	1239416832	65	4710
2026-01-19 08:45:47.00	336.48	14.56	-47.4	-49.2	17.9	0.00e+00	0	38	0	1240465408	65	4694
2026-01-19 08:45:48.01	336.43	14.46	-47.4	-49.2	17.9	0.00e+00	0	38	0	1242562560	65	4696
