passes_logs/2026/01/19/R3.2S_Murmansk/R3.2S_Murmansk__20260119_212549_JL1KF02B04_rec.log

#Pass ID: 20260119_212549_JL1KF02B04
#Satellite: JL1KF02B04
#Configuration: 01B_900M
#almurnet v.1.7.20251203
#Start time: 2026-01-19 21:25:49

#Version: 2.2.20231116
#Station: R3.2S_Murmansk
#Location: 33.079688 lon 68.888172 lat
#TLE: 1 61189U 24169A   26019.28730990  .00004617  00000+0  29209-3 0  9995
#TLE: 2 61189  97.5741 110.9565 0007220 153.7673 206.3922 15.09476574 73361

#Time	Az	El	Level	Level2	SNR	BER	BlckErr	Temp	State	Recorded	gain1	gain2
2026-01-19 21:25:49.69	200.42	1.99	-53.0	-55.1	6.2	0.00e+00	0	39	0	0	77	18447
2026-01-19 21:25:50.70	200.50	2.06	-53.0	-55.1	6.2	0.00e+00	0	39	104	0	77	18601
2026-01-19 21:25:51.71	200.58	2.12	-53.0	-55.1	6.2	0.00e+00	0	39	104	0	77	18539
2026-01-19 21:25:52.72	200.65	2.19	-53.0	-55.1	6.2	0.00e+00	0	39	104	0	77	18465
2026-01-19 21:25:53.73	200.73	2.25	-53.0	-55.1	6.2	0.00e+00	0	39	104	0	77	18455
2026-01-19 21:25:54.74	200.81	2.31	-52.9	-55.1	6.2	0.00e+00	0	39	104	0	77	18485
2026-01-19 21:25:55.75	200.88	2.38	-52.9	-55.1	6.2	0.00e+00	0	39	104	0	77	18460
2026-01-19 21:25:56.76	200.96	2.44	-53.0	-55.1	6.2	0.00e+00	0	39	104	0	77	18490
2026-01-19 21:25:57.76	201.04	2.51	-53.0	-55.1	6.2	0.00e+00	0	39	104	0	77	18480
2026-01-19 21:25:58.77	201.12	2.57	-53.0	-55.1	6.2	0.00e+00	0	39	104	0	77	18526
2026-01-19 21:25:59.78	201.19	2.64	-52.9	-55.1	6.2	0.00e+00	0	39	104	0	77	18451
2026-01-19 21:26:00.79	201.27	2.70	-53.0	-55.1	6.2	0.00e+00	0	39	104	0	77	18460
2026-01-19 21:26:01.79	201.35	2.77	-53.0	-55.1	6.2	0.00e+00	0	39	104	0	77	18442
2026-01-19 21:26:02.80	201.43	2.83	-53.0	-55.1	6.2	0.00e+00	0	39	104	0	77	18467
2026-01-19 21:26:03.81	201.51	2.90	-53.0	-55.1	6.2	0.00e+00	0	39	104	0	77	18519
2026-01-19 21:26:04.82	201.59	2.96	-53.0	-55.1	6.2	0.00e+00	0	39	104	0	77	18458
2026-01-19 21:26:05.83	201.68	3.03	-52.9	-55.1	6.2	0.00e+00	0	39	104	0	77	18472
2026-01-19 21:26:06.84	201.76	3.09	-52.9	-55.1	6.2	0.00e+00	0	39	104	0	77	18482
2026-01-19 21:26:07.84	201.84	3.16	-53.0	-55.1	6.2	0.00e+00	0	39	104	0	77	18416
2026-01-19 21:26:08.85	201.92	3.23	-52.9	-55.1	6.2	0.00e+00	0	40	104	0	77	18465
2026-01-19 21:26:09.86	202.00	3.29	-52.9	-55.1	6.2	0.00e+00	0	39	104	0	77	18495
2026-01-19 21:26:10.87	202.09	3.36	-52.9	-55.1	6.2	0.00e+00	0	40	104	0	77	18408
2026-01-19 21:26:11.88	202.17	3.43	-52.9	-55.1	6.2	0.00e+00	0	39	104	0	77	18483
2026-01-19 21:26:12.88	202.26	3.49	-52.9	-55.1	6.2	0.00e+00	0	39	104	0	77	18417
2026-01-19 21:26:13.89	202.34	3.56	-52.9	-55.1	6.2	0.00e+00	0	39	104	0	77	18453
2026-01-19 21:26:14.90	202.43	3.63	-52.9	-55.1	6.2	0.00e+00	0	39	104	0	77	18434
2026-01-19 21:26:15.91	202.51	3.69	-52.9	-55.1	6.2	0.00e+00	0	40	104	0	77	18455
2026-01-19 21:26:16.91	202.60	3.76	-52.9	-55.1	6.2	0.00e+00	0	40	104	0	77	18427
2026-01-19 21:26:17.92	202.68	3.83	-52.9	-55.1	6.2	0.00e+00	0	40	104	0	77	18465
2026-01-19 21:26:18.93	202.77	3.90	-52.9	-55.1	6.2	0.00e+00	0	39	104	0	77	18437
2026-01-19 21:26:19.94	202.86	3.96	-52.9	-55.1	6.2	0.00e+00	0	39	104	0	77	18415
2026-01-19 21:26:20.95	202.95	4.03	-52.9	-55.1	6.2	0.00e+00	0	39	104	0	77	18438
2026-01-19 21:26:21.95	203.03	4.10	-52.9	-55.1	6.2	0.00e+00	0	40	104	0	77	18485
2026-01-19 21:26:22.96	203.12	4.17	-52.9	-55.1	6.2	0.00e+00	0	40	104	0	77	18445
2026-01-19 21:26:23.97	203.21	4.24	-52.9	-55.1	6.2	0.00e+00	0	40	104	0	77	18432
2026-01-19 21:26:24.98	203.30	4.31	-52.9	-55.1	6.2	0.00e+00	0	40	104	0	77	18525
2026-01-19 21:26:25.99	203.39	4.38	-52.9	-55.1	6.2	0.00e+00	0	40	104	0	77	18450
2026-01-19 21:26:27.00	203.49	4.45	-52.9	-55.1	6.2	0.00e+00	0	40	104	0	77	18487
2026-01-19 21:26:28.00	203.58	4.52	-52.9	-55.1	6.2	0.00e+00	0	40	104	0	77	18474
2026-01-19 21:26:29.01	203.67	4.58	-52.9	-55.1	6.2	0.00e+00	0	40	104	0	77	18393
2026-01-19 21:26:30.02	203.76	4.65	-52.9	-55.1	6.2	0.00e+00	0	40	104	0	77	18461
2026-01-19 21:26:31.03	203.85	4.72	-52.9	-55.1	6.2	0.00e+00	0	40	104	0	77	18438
2026-01-19 21:26:32.03	203.95	4.79	-52.9	-55.0	6.2	0.00e+00	0	40	104	0	77	18367
2026-01-19 21:26:33.04	204.04	4.86	-52.9	-55.1	6.2	0.00e+00	0	40	104	0	77	18440
2026-01-19 21:26:34.05	204.14	4.94	-52.9	-55.1	6.2	0.00e+00	0	40	104	0	77	18416
2026-01-19 21:26:35.06	204.23	5.01	-52.9	-55.1	6.2	0.00e+00	0	40	104	0	77	18450
2026-01-19 21:26:36.07	204.33	5.08	-53.1	-55.2	6.2	0.00e+00	0	40	104	0	77	18760
2026-01-19 21:26:37.07	204.42	5.15	-53.0	-55.2	6.2	0.00e+00	0	40	104	0	77	18662
2026-01-19 21:26:38.08	204.52	5.22	-52.9	-55.1	6.2	0.00e+00	0	40	104	0	77	18455
2026-01-19 21:26:39.09	204.62	5.29	-52.9	-55.0	6.2	0.00e+00	0	40	104	0	77	18359
2026-01-19 21:26:40.10	204.72	5.36	-53.1	-55.2	6.2	0.00e+00	0	40	104	0	77	18801
2026-01-19 21:26:41.10	204.81	5.43	-53.0	-55.2	6.2	0.00e+00	0	40	104	0	77	18657
2026-01-19 21:26:42.11	204.91	5.51	-53.0	-55.1	6.2	0.00e+00	0	40	104	0	77	18528
2026-01-19 21:26:43.12	205.01	5.58	-52.9	-55.1	6.2	0.00e+00	0	40	104	0	77	18433
2026-01-19 21:26:44.13	205.11	5.65	-53.1	-55.2	6.2	0.00e+00	0	40	104	0	77	18783
2026-01-19 21:26:45.13	205.21	5.72	-53.1	-55.2	6.2	0.00e+00	0	40	104	0	77	18746
2026-01-19 21:26:46.14	205.31	5.80	-53.0	-55.1	6.2	0.00e+00	0	40	104	0	77	18577
2026-01-19 21:26:47.15	205.42	5.87	-53.0	-55.1	6.2	0.00e+00	0	40	104	0	77	18447
2026-01-19 21:26:48.16	205.52	5.94	-53.1	-55.3	6.2	0.00e+00	0	40	104	0	77	18842
2026-01-19 21:26:49.17	205.62	6.02	-53.1	-55.2	6.2	0.00e+00	0	40	104	0	77	18768
2026-01-19 21:26:50.17	205.73	6.09	-53.0	-55.1	6.2	0.00e+00	0	40	104	0	77	18537
2026-01-19 21:26:51.18	205.83	6.16	-53.0	-55.1	6.2	0.00e+00	0	40	104	0	77	18547
2026-01-19 21:26:52.19	205.93	6.24	-53.1	-55.3	6.2	0.00e+00	0	40	104	0	77	18899
2026-01-19 21:26:53.20	206.04	6.31	-53.1	-55.3	6.2	0.00e+00	0	40	104	0	77	18845
2026-01-19 21:26:54.20	206.15	6.39	-53.0	-55.2	6.2	0.00e+00	0	40	104	0	77	18702
2026-01-19 21:26:55.21	206.25	6.46	-53.0	-55.2	6.2	0.00e+00	0	40	104	0	77	18658
2026-01-19 21:26:56.22	206.36	6.54	-53.2	-55.3	6.2	0.00e+00	0	40	104	0	77	18948
2026-01-19 21:26:57.23	206.47	6.61	-53.1	-55.3	6.2	0.00e+00	0	40	104	0	77	18839
2026-01-19 21:26:58.23	206.58	6.69	-53.1	-55.2	6.2	0.00e+00	0	40	104	0	77	18668
2026-01-19 21:26:59.24	206.69	6.76	-53.0	-55.2	6.2	0.00e+00	0	41	104	0	77	18696
2026-01-19 21:27:00.25	206.80	6.84	-53.2	-55.3	6.2	0.00e+00	0	41	104	0	77	19015
2026-01-19 21:27:01.26	206.91	6.91	-53.1	-55.3	6.2	0.00e+00	0	40	104	0	77	18859
2026-01-19 21:27:02.27	207.02	6.99	-53.1	-55.2	6.2	0.00e+00	0	41	104	0	77	18810
2026-01-19 21:27:03.28	207.13	7.07	-53.1	-55.2	6.2	0.00e+00	0	40	104	0	77	18811
2026-01-19 21:27:04.28	207.24	7.14	-53.2	-55.4	6.2	0.00e+00	0	41	104	0	77	19065
2026-01-19 21:27:05.29	207.36	7.22	-53.1	-55.3	6.2	0.00e+00	0	41	104	0	77	18941
2026-01-19 21:27:06.30	207.47	7.29	-53.1	-55.3	6.2	0.00e+00	0	40	104	0	77	18862
2026-01-19 21:27:07.31	207.59	7.37	-53.1	-55.3	6.2	0.00e+00	0	40	104	0	77	18867
2026-01-19 21:27:08.32	207.70	7.45	-53.2	-55.4	6.2	0.00e+00	0	40	104	0	77	19097
2026-01-19 21:27:09.32	207.82	7.53	-53.2	-55.3	6.2	0.00e+00	0	41	104	0	77	18940
2026-01-19 21:27:10.33	207.94	7.60	-53.1	-55.3	6.2	0.00e+00	0	40	104	0	77	18927
2026-01-19 21:27:11.34	208.05	7.68	-53.1	-55.3	6.2	0.00e+00	0	40	104	0	77	18910
2026-01-19 21:27:12.35	208.17	7.76	-53.3	-55.4	6.2	0.00e+00	0	40	104	0	77	19143
2026-01-19 21:27:13.35	208.29	7.84	-53.2	-55.3	6.2	0.00e+00	0	41	104	0	77	19031
2026-01-19 21:27:14.36	208.41	7.92	-53.2	-55.3	6.2	0.00e+00	0	41	104	0	77	18972
2026-01-19 21:27:15.37	208.53	8.00	-53.2	-55.3	6.2	0.00e+00	0	41	104	0	77	18976
2026-01-19 21:27:16.38	208.66	8.08	-53.3	-55.5	6.2	0.00e+00	0	40	104	0	77	19258
2026-01-19 21:27:17.39	208.78	8.16	-53.2	-55.4	6.2	0.00e+00	0	41	104	0	77	19114
2026-01-19 21:27:18.39	208.90	8.23	-53.2	-55.4	6.2	0.00e+00	0	40	104	0	77	19113
2026-01-19 21:27:19.40	209.02	8.31	-53.2	-55.3	6.2	0.00e+00	0	41	104	0	77	19032
2026-01-19 21:27:20.41	209.15	8.39	-53.3	-55.5	6.2	0.00e+00	0	41	104	0	77	19294
2026-01-19 21:27:21.42	209.28	8.48	-50.3	-51.2	6.6	0.00e+00	0	40	104	0	72	15746
2026-01-19 21:27:22.42	209.40	8.55	-49.6	-50.4	6.4	0.00e+00	0	41	104	0	71	15229
2026-01-19 21:27:23.43	209.53	8.64	-47.3	-47.7	6.6	0.00e+00	0	40	104	0	66	14830
2026-01-19 21:27:24.44	209.66	8.72	-48.4	-49.3	6.5	0.00e+00	0	40	104	0	69	14971
2026-01-19 21:27:25.45	209.79	8.80	-47.0	-47.4	6.6	0.00e+00	0	40	104	0	65	15164
2026-01-19 21:27:26.46	209.92	8.88	-47.1	-47.6	6.7	0.00e+00	0	40	104	0	65	15560
2026-01-19 21:27:27.46	210.04	8.96	-46.8	-47.3	6.7	0.00e+00	0	41	104	0	65	15023
2026-01-19 21:27:28.47	210.18	9.04	-47.8	-48.3	6.6	0.00e+00	0	41	104	0	66	15941
2026-01-19 21:27:29.48	210.31	9.12	-47.2	-47.7	6.7	0.00e+00	0	41	104	0	66	14833
2026-01-19 21:27:30.49	210.44	9.21	-47.9	-48.8	6.6	0.00e+00	0	41	104	0	68	14968
2026-01-19 21:27:31.50	210.58	9.29	-47.1	-47.6	6.7	0.00e+00	0	41	104	0	65	15565
2026-01-19 21:27:32.50	210.71	9.37	-48.3	-48.9	6.5	0.00e+00	0	41	104	0	68	15184
2026-01-19 21:27:33.51	210.85	9.46	-46.9	-47.4	6.6	0.00e+00	0	40	104	0	65	15126
2026-01-19 21:27:34.52	210.98	9.54	-46.2	-46.6	7.1	0.00e+00	0	40	104	0	64	14659
2026-01-19 21:27:35.53	211.12	9.62	-46.3	-46.6	7.2	0.00e+00	0	40	104	0	64	14749
2026-01-19 21:27:36.53	211.26	9.71	-48.0	-48.5	7.0	0.00e+00	0	41	104	0	66	16305
2026-01-19 21:27:37.54	211.40	9.79	-46.2	-46.5	7.2	0.00e+00	0	41	104	0	64	14471
2026-01-19 21:27:38.55	211.54	9.87	-34.3	-34.1	15.8	1.11e-04	0	41	104	0	40	13900
2026-01-19 21:27:39.56	211.68	9.96	-33.0	-32.8	17.7	1.90e-06	0	41	0	100663296	37	14151
2026-01-19 21:27:40.57	211.82	10.04	-34.2	-34.0	16.9	2.86e-05	0	41	0	218103808	40	13714
2026-01-19 21:27:41.58	211.97	10.13	-32.6	-32.4	18.0	0.00e+00	0	41	0	327155712	37	13507
2026-01-19 21:27:42.58	212.11	10.21	-32.3	-32.1	18.1	0.00e+00	0	41	0	436207616	36	13810
2026-01-19 21:27:43.59	212.25	10.30	-32.3	-32.1	18.1	0.00e+00	0	41	0	562036736	36	13944
2026-01-19 21:27:44.60	212.40	10.38	-32.1	-31.9	18.2	0.00e+00	0	41	0	679477248	36	13555
2026-01-19 21:27:45.61	212.55	10.47	-32.1	-31.9	18.2	0.00e+00	0	41	0	788529152	36	13525
2026-01-19 21:27:46.61	212.69	10.56	-29.4	-29.3	17.7	1.90e-06	0	41	0	897581056	30	14136
2026-01-19 21:27:47.62	212.84	10.64	-29.3	-29.1	17.8	0.00e+00	0	41	0	1015021568	30	13897
2026-01-19 21:27:48.63	212.99	10.73	-29.3	-29.1	17.8	0.00e+00	0	41	0	1124073472	30	13908
2026-01-19 21:27:49.64	213.15	10.82	-29.2	-29.0	17.8	0.00e+00	0	41	0	1241513984	30	13777
2026-01-19 21:27:50.65	213.30	10.90	-29.1	-28.9	17.8	1.90e-06	0	41	0	1350565888	30	13610
2026-01-19 21:27:51.66	213.45	10.99	-29.1	-29.0	17.8	0.00e+00	0	41	0	1459617792	30	13661
2026-01-19 21:27:52.67	213.61	11.08	-29.1	-28.9	17.9	0.00e+00	0	41	0	1577058304	30	13538
2026-01-19 21:27:53.68	213.76	11.17	-29.1	-28.9	17.9	0.00e+00	0	41	0	1686110208	29	14336
2026-01-19 21:27:54.68	213.92	11.25	-29.2	-29.0	17.8	0.00e+00	0	41	0	1803550720	29	14499
2026-01-19 21:27:55.69	214.07	11.34	-28.9	-28.8	17.9	0.00e+00	0	41	0	1920991232	29	14140
2026-01-19 21:27:56.70	214.23	11.43	-28.9	-28.8	17.9	1.90e-06	0	41	0	2038431744	29	14155
2026-01-19 21:27:57.71	214.39	11.52	-28.9	-28.7	17.9	0.00e+00	0	41	0	2147483648	29	14032
2026-01-19 21:27:58.71	214.55	11.61	-29.0	-28.8	17.8	0.00e+00	0	41	0	2264924160	29	14206
2026-01-19 21:27:59.72	214.72	11.70	-28.8	-28.6	17.9	0.00e+00	0	41	0	2373976064	29	13933
2026-01-19 21:28:00.73	214.88	11.79	-28.8	-28.6	17.8	0.00e+00	0	41	0	2483027968	29	13943
2026-01-19 21:28:01.74	215.04	11.88	-28.9	-28.7	17.8	0.00e+00	0	41	0	2600468480	29	14075
2026-01-19 21:28:02.75	215.21	11.97	-28.8	-28.6	17.9	0.00e+00	0	41	0	2709520384	29	13897
2026-01-19 21:28:03.75	215.37	12.06	-28.7	-28.6	17.9	0.00e+00	0	41	0	2826960896	29	13819
2026-01-19 21:28:04.76	215.54	12.15	-28.6	-28.5	18.0	0.00e+00	0	41	0	2936012800	29	13672
2026-01-19 21:28:05.77	215.71	12.24	-28.5	-28.3	18.1	0.00e+00	0	41	0	3045064704	29	13458
2026-01-19 21:28:06.78	215.88	12.33	-28.5	-28.4	18.1	0.00e+00	0	41	0	3162505216	29	13499
2026-01-19 21:28:07.79	216.05	12.42	-28.5	-28.3	18.1	0.00e+00	0	41	0	3271557120	28	14244
2026-01-19 21:28:08.79	216.22	12.51	-28.5	-28.3	18.1	0.00e+00	0	41	0	3397386240	28	14264
2026-01-19 21:28:09.80	216.40	12.60	-28.3	-28.2	18.2	0.00e+00	0	42	0	3506438144	28	13951
2026-01-19 21:28:10.81	216.57	12.69	-28.3	-28.1	18.1	0.00e+00	0	41	0	3623878656	28	13949
2026-01-19 21:28:11.82	216.75	12.78	-28.3	-28.2	18.2	0.00e+00	0	41	0	3732930560	28	13979
2026-01-19 21:28:12.83	216.93	12.88	-28.3	-28.2	18.2	0.00e+00	0	41	0	3850371072	28	13974
2026-01-19 21:28:13.84	217.11	12.97	-28.4	-28.2	18.2	0.00e+00	0	41	0	3959422976	28	14029
2026-01-19 21:28:14.85	217.29	13.06	-28.3	-28.2	18.2	0.00e+00	0	41	0	4076863488	28	13955
2026-01-19 21:28:15.85	217.47	13.15	-28.2	-28.0	18.3	0.00e+00	0	41	0	4185915392	28	13694
2026-01-19 21:28:16.86	217.65	13.25	-28.1	-27.9	18.3	0.00e+00	0	42	0	4294967296	28	13567
2026-01-19 21:28:17.87	217.83	13.34	-28.1	-28.0	18.3	0.00e+00	0	41	0	4412407808	28	13660
2026-01-19 21:28:18.88	218.02	13.43	-28.0	-27.8	18.4	0.00e+00	0	42	0	4521459712	28	13429
2026-01-19 21:28:19.89	218.21	13.53	-28.1	-27.9	18.3	0.00e+00	0	41	0	4638900224	27	14333
2026-01-19 21:28:20.89	218.39	13.62	-28.1	-27.9	18.3	0.00e+00	0	41	0	4756340736	27	14378
2026-01-19 21:28:21.90	218.58	13.71	-28.0	-27.8	18.3	0.00e+00	0	41	0	4873781248	27	14250
2026-01-19 21:28:22.91	218.77	13.81	-27.9	-27.7	18.3	0.00e+00	0	41	0	4982833152	27	14059
2026-01-19 21:28:23.92	218.97	13.90	-28.0	-27.8	18.3	0.00e+00	0	41	0	5100273664	27	14263
2026-01-19 21:28:24.93	219.16	14.00	-28.0	-27.8	18.3	1.90e-06	0	41	0	5209325568	27	14244
2026-01-19 21:28:25.94	219.35	14.09	-28.1	-27.9	18.2	0.00e+00	0	41	0	5318377472	27	14403
2026-01-19 21:28:26.95	219.55	14.19	-27.9	-27.7	18.3	0.00e+00	0	42	0	5435817984	27	14043
2026-01-19 21:28:27.95	219.75	14.28	-27.9	-27.8	18.3	0.00e+00	0	42	0	5544869888	27	14113
2026-01-19 21:28:28.96	219.95	14.38	-27.9	-27.7	18.3	0.00e+00	0	41	0	5662310400	27	14020
2026-01-19 21:28:29.97	220.15	14.47	-27.8	-27.7	18.4	0.00e+00	0	41	0	5771362304	27	13960
2026-01-19 21:28:30.98	220.35	14.57	-27.6	-27.4	18.4	0.00e+00	0	41	0	5880414208	27	13625
2026-01-19 21:28:31.99	220.55	14.67	-27.6	-27.5	18.4	0.00e+00	0	42	0	5997854720	27	13675
2026-01-19 21:28:32.99	220.76	14.76	-27.6	-27.4	18.5	0.00e+00	0	42	0	6123683840	27	13601
2026-01-19 21:28:34.00	220.96	14.86	-27.7	-27.5	18.4	0.00e+00	0	42	0	6232735744	27	13725
2026-01-19 21:28:35.01	221.17	14.96	-27.6	-27.5	18.3	0.00e+00	0	42	0	6341787648	27	13671
2026-01-19 21:28:36.02	221.38	15.05	-27.6	-27.4	18.4	0.00e+00	0	42	0	6459228160	27	13572
2026-01-19 21:28:37.03	221.59	15.15	-27.5	-27.3	18.4	0.00e+00	0	42	0	6568280064	27	13407
2026-01-19 21:28:38.04	221.81	15.25	-27.4	-27.2	18.4	0.00e+00	0	41	0	6685720576	26	14066
2026-01-19 21:28:39.05	222.02	15.34	-27.4	-27.2	18.5	0.00e+00	0	42	0	6794772480	26	14044
2026-01-19 21:28:40.06	222.24	15.44	-27.4	-27.2	18.4	0.00e+00	0	42	0	6912212992	26	14005
2026-01-19 21:28:41.07	222.46	15.54	-27.3	-27.1	18.3	0.00e+00	0	42	0	7021264896	26	13850
2026-01-19 21:28:42.07	222.67	15.64	-27.3	-27.2	18.3	0.00e+00	0	42	0	7130316800	26	13961
2026-01-19 21:28:43.08	222.89	15.73	-27.3	-27.2	18.2	0.00e+00	0	42	0	7247757312	26	13969
2026-01-19 21:28:44.09	223.12	15.83	-27.3	-27.1	18.2	0.00e+00	0	42	0	7356809216	26	13932
2026-01-19 21:28:45.09	223.34	15.93	-27.2	-27.1	18.3	0.00e+00	0	42	0	7482638336	26	13792
2026-01-19 21:28:46.10	223.56	16.03	-27.2	-27.0	18.4	0.00e+00	0	41	0	7591690240	26	13707
2026-01-19 21:28:47.11	223.79	16.12	-27.1	-27.0	18.3	0.00e+00	0	42	0	7709130752	26	13661
2026-01-19 21:28:48.12	224.02	16.22	-27.1	-26.9	18.3	0.00e+00	0	42	0	7818182656	26	13623
2026-01-19 21:28:49.12	224.25	16.32	-27.1	-26.9	18.3	0.00e+00	0	42	0	7935623168	26	13632
2026-01-19 21:28:50.13	224.48	16.42	-27.1	-26.9	18.2	0.00e+00	0	42	0	8044675072	26	13533
2026-01-19 21:28:51.14	224.72	16.52	-27.1	-26.9	18.2	0.00e+00	0	42	0	8153726976	26	13519
2026-01-19 21:28:52.15	224.95	16.62	-27.0	-26.8	18.1	0.00e+00	0	42	0	8271167488	26	13475
2026-01-19 21:28:53.16	225.19	16.72	-27.0	-26.8	18.1	0.00e+00	0	42	0	8380219392	25	14198
2026-01-19 21:28:54.16	225.43	16.81	-26.9	-26.7	18.2	0.00e+00	0	42	0	8497659904	25	13995
2026-01-19 21:28:55.17	225.67	16.91	-26.9	-26.7	18.2	0.00e+00	0	42	0	8606711808	25	14028
2026-01-19 21:28:56.18	225.91	17.01	-27.0	-26.8	18.2	0.00e+00	0	42	0	8715763712	25	14158
2026-01-19 21:28:57.19	226.16	17.11	-26.8	-26.6	18.2	0.00e+00	0	42	0	8833204224	25	13845
2026-01-19 21:28:58.19	226.40	17.21	-26.8	-26.6	18.2	0.00e+00	0	42	0	8959033344	25	13938
2026-01-19 21:28:59.20	226.65	17.31	-26.7	-26.5	18.2	0.00e+00	0	42	0	9068085248	25	13744
2026-01-19 21:29:00.21	226.90	17.41	-26.6	-26.5	18.2	0.00e+00	0	42	0	9177137152	25	13647
2026-01-19 21:29:01.22	227.15	17.51	-26.7	-26.6	18.3	0.00e+00	0	42	0	9294577664	25	13827
2026-01-19 21:29:02.23	227.41	17.61	-26.5	-26.4	18.2	0.00e+00	0	42	0	9403629568	25	13496
2026-01-19 21:29:03.23	227.66	17.70	-26.6	-26.4	18.2	0.00e+00	0	42	0	9521070080	25	13615
2026-01-19 21:29:04.24	227.92	17.80	-26.6	-26.5	18.3	0.00e+00	0	42	0	9630121984	25	13663
2026-01-19 21:29:05.25	228.18	17.90	-26.4	-26.2	18.2	0.00e+00	0	42	0	9739173888	24	13999
2026-01-19 21:29:06.26	228.44	18.00	-26.3	-26.2	18.1	0.00e+00	0	42	0	9856614400	24	13969
2026-01-19 21:29:07.27	228.70	18.10	-26.4	-26.2	18.1	0.00e+00	0	42	0	9965666304	24	14035
2026-01-19 21:29:08.28	228.97	18.20	-26.5	-26.3	18.0	0.00e+00	0	42	0	10083106816	24	14225
2026-01-19 21:29:09.28	229.23	18.30	-26.3	-26.1	18.1	0.00e+00	0	42	0	10192158720	24	13902
2026-01-19 21:29:10.29	229.50	18.40	-26.3	-26.2	18.1	0.00e+00	0	42	0	10317987840	24	13957
2026-01-19 21:29:11.30	229.77	18.50	-26.2	-26.0	18.1	0.00e+00	0	42	0	10427039744	24	13694
2026-01-19 21:29:12.31	230.05	18.59	-26.2	-26.0	18.1	0.00e+00	0	42	0	10544480256	24	13736
2026-01-19 21:29:13.31	230.32	18.69	-26.2	-26.0	18.1	0.00e+00	0	42	0	10653532160	24	13690
2026-01-19 21:29:14.32	230.60	18.79	-26.1	-26.0	18.1	0.00e+00	0	42	0	10762584064	24	13663
2026-01-19 21:29:15.33	230.88	18.89	-26.1	-25.9	18.2	0.00e+00	0	42	0	10880024576	24	13545
2026-01-19 21:29:16.34	231.16	18.99	-26.1	-25.9	18.0	0.00e+00	0	42	0	10989076480	24	13600
2026-01-19 21:29:17.35	231.44	19.09	-26.2	-26.0	18.0	0.00e+00	0	42	0	11106516992	24	13715
2026-01-19 21:29:18.35	231.72	19.18	-26.2	-26.1	18.1	0.00e+00	0	42	0	11215568896	24	13815
2026-01-19 21:29:19.36	232.01	19.28	-26.1	-25.9	18.1	0.00e+00	0	42	0	11333009408	24	13545
2026-01-19 21:29:20.37	232.30	19.38	-25.9	-25.8	18.1	0.00e+00	0	42	0	11442061312	23	14146
2026-01-19 21:29:21.37	232.59	19.48	-26.1	-25.9	17.9	0.00e+00	0	42	0	11551113216	23	14401
2026-01-19 21:29:22.38	232.88	19.57	-26.0	-25.8	17.9	0.00e+00	0	42	0	11668553728	23	14243
2026-01-19 21:29:23.39	233.18	19.67	-25.9	-25.8	17.9	0.00e+00	0	42	0	11794382848	23	14121
2026-01-19 21:29:24.40	233.47	19.77	-25.9	-25.7	17.8	0.00e+00	0	42	0	11903434752	23	14059
2026-01-19 21:29:25.41	233.77	19.86	-25.9	-25.8	17.8	0.00e+00	0	42	0	12012486656	23	14127
2026-01-19 21:29:26.42	234.07	19.96	-25.8	-25.6	18.0	0.00e+00	0	42	0	12129927168	23	13855
2026-01-19 21:29:27.42	234.38	20.06	-25.9	-25.7	18.1	0.00e+00	0	42	0	12238979072	23	14038
2026-01-19 21:29:28.43	234.68	20.15	-25.8	-25.7	17.9	0.00e+00	0	42	0	12356419584	23	13971
2026-01-19 21:29:29.44	234.99	20.25	-25.8	-25.6	17.9	0.00e+00	0	42	0	12465471488	23	13894
2026-01-19 21:29:30.45	235.30	20.34	-25.8	-25.6	18.0	0.00e+00	0	42	0	12574523392	23	13933
2026-01-19 21:29:31.45	235.61	20.44	-25.8	-25.6	18.1	0.00e+00	0	42	0	12691963904	23	13927
2026-01-19 21:29:32.46	235.92	20.53	-25.8	-25.6	17.9	0.00e+00	0	42	0	12801015808	23	13932
2026-01-19 21:29:33.47	236.24	20.63	-25.9	-25.7	17.9	0.00e+00	0	42	0	12918456320	23	14008
2026-01-19 21:29:34.48	236.56	20.72	-25.8	-25.6	17.9	0.00e+00	0	42	0	13027508224	23	13896
2026-01-19 21:29:35.49	236.88	20.81	-25.7	-25.6	17.8	0.00e+00	0	42	0	13136560128	23	13814
2026-01-19 21:29:36.49	237.20	20.91	-25.7	-25.6	17.8	0.00e+00	0	42	0	13262389248	23	13800
2026-01-19 21:29:37.50	237.52	21.00	-25.6	-25.5	17.8	0.00e+00	0	42	0	13379829760	23	13670
2026-01-19 21:29:38.51	237.85	21.09	-25.7	-25.5	17.9	0.00e+00	0	42	0	13488881664	23	13675
2026-01-19 21:29:39.52	238.18	21.18	-25.8	-25.6	17.9	0.00e+00	0	42	0	13597933568	23	13922
2026-01-19 21:29:40.53	238.51	21.27	-25.7	-25.5	17.7	0.00e+00	0	42	0	13715374080	23	13773
2026-01-19 21:29:41.53	238.84	21.36	-25.6	-25.4	17.6	0.00e+00	0	42	0	13824425984	23	13586
2026-01-19 21:29:42.54	239.18	21.45	-25.6	-25.4	17.8	0.00e+00	0	42	0	13941866496	23	13591
2026-01-19 21:29:43.55	239.51	21.54	-25.6	-25.4	17.6	0.00e+00	0	42	0	14050918400	23	13577
2026-01-19 21:29:44.56	239.85	21.63	-25.4	-25.3	17.5	0.00e+00	0	42	0	14168358912	22	14138
2026-01-19 21:29:45.57	240.20	21.72	-25.5	-25.3	17.7	0.00e+00	0	42	0	14277410816	22	14174
2026-01-19 21:29:46.57	240.54	21.81	-25.6	-25.4	17.6	0.00e+00	0	42	0	14386462720	22	14341
2026-01-19 21:29:47.58	240.88	21.90	-25.4	-25.2	17.4	0.00e+00	0	42	0	14503903232	22	14088
2026-01-19 21:29:48.59	241.23	21.98	-25.4	-25.2	17.3	0.00e+00	0	42	0	14629732352	22	14045
2026-01-19 21:29:49.60	241.58	22.07	-25.4	-25.2	17.3	0.00e+00	0	42	0	14738784256	22	14012
2026-01-19 21:29:50.61	241.94	22.16	-25.3	-25.1	17.2	0.00e+00	0	42	0	14847836160	22	13923
2026-01-19 21:29:51.61	242.29	22.24	-25.3	-25.1	17.1	1.90e-06	0	42	0	14965276672	22	13944
2026-01-19 21:29:52.62	242.64	22.32	-25.3	-25.2	17.1	0.00e+00	0	42	0	15074328576	22	13974
2026-01-19 21:29:53.63	243.00	22.41	-25.3	-25.1	17.0	0.00e+00	0	42	0	15191769088	22	13892
2026-01-19 21:29:54.64	243.36	22.49	-25.2	-25.0	17.1	0.00e+00	0	42	0	15300820992	22	13784
2026-01-19 21:29:55.65	243.73	22.57	-25.1	-25.0	17.2	0.00e+00	0	42	0	15409872896	22	13653
2026-01-19 21:29:56.65	244.09	22.65	-25.1	-24.9	17.0	0.00e+00	0	42	0	15527313408	22	13593
2026-01-19 21:29:57.66	244.46	22.73	-25.2	-25.0	16.8	0.00e+00	0	42	0	15636365312	22	13720
2026-01-19 21:29:58.67	244.83	22.81	-25.1	-25.0	16.9	0.00e+00	0	42	0	15753805824	22	13672
2026-01-19 21:29:59.68	245.20	22.89	-25.1	-24.9	16.8	0.00e+00	0	42	0	15862857728	22	13525
2026-01-19 21:30:00.68	245.57	22.97	-25.0	-24.8	16.6	1.90e-06	0	42	0	15971909632	22	13476
2026-01-19 21:30:01.69	245.94	23.05	-24.9	-24.7	16.8	0.00e+00	0	42	0	16097738752	21	13991
2026-01-19 21:30:02.70	246.32	23.12	-24.9	-24.7	16.8	1.90e-06	0	42	0	16215179264	21	14028
2026-01-19 21:30:03.71	246.70	23.20	-25.0	-24.8	16.5	0.00e+00	0	42	0	16324231168	21	14155
2026-01-19 21:30:04.72	247.08	23.27	-24.9	-24.8	16.7	0.00e+00	0	42	0	16433283072	21	14126
2026-01-19 21:30:05.73	247.46	23.34	-24.8	-24.6	16.6	0.00e+00	0	42	0	16550723584	21	13885
2026-01-19 21:30:06.74	247.85	23.42	-24.8	-24.7	16.5	1.90e-06	0	42	0	16659775488	21	13977
2026-01-19 21:30:07.74	248.23	23.49	-25.0	-24.8	16.5	0.00e+00	0	42	0	16777216000	21	14190
2026-01-19 21:30:08.75	248.62	23.56	-25.0	-24.8	16.7	0.00e+00	0	42	0	16886267904	21	14215
2026-01-19 21:30:09.76	249.01	23.63	-24.8	-24.6	16.6	0.00e+00	0	42	0	16995319808	21	13887
2026-01-19 21:30:10.77	249.41	23.70	-24.8	-24.6	16.4	0.00e+00	0	42	0	17112760320	21	13933
2026-01-19 21:30:11.77	249.80	23.76	-24.8	-24.6	16.5	0.00e+00	0	42	0	17221812224	21	13844
2026-01-19 21:30:12.78	250.19	23.83	-24.8	-24.6	16.5	1.90e-06	0	42	0	17339252736	21	13843
2026-01-19 21:30:13.79	250.59	23.89	-24.6	-24.4	16.5	0.00e+00	0	42	0	17456693248	21	13572
2026-01-19 21:30:14.80	250.99	23.96	-24.6	-24.4	16.5	0.00e+00	0	42	0	17574133760	21	13536
2026-01-19 21:30:15.81	251.39	24.02	-24.6	-24.4	16.5	0.00e+00	0	42	0	17683185664	21	13527
2026-01-19 21:30:16.81	251.79	24.08	-24.7	-24.5	16.4	0.00e+00	0	42	0	17800626176	21	13732
2026-01-19 21:30:17.82	252.20	24.14	-24.6	-24.4	16.5	0.00e+00	0	42	0	17909678080	21	13555
2026-01-19 21:30:18.82	252.60	24.20	-24.6	-24.5	16.4	0.00e+00	0	42	0	18027118592	21	13662
2026-01-19 21:30:19.84	253.01	24.26	-24.8	-24.6	16.4	0.00e+00	0	42	0	18136170496	21	13857
2026-01-19 21:30:20.84	253.42	24.31	-24.6	-24.4	16.6	1.90e-06	0	42	0	18245222400	21	13627
2026-01-19 21:30:21.85	253.83	24.37	-24.6	-24.4	16.7	0.00e+00	0	42	0	18362662912	21	13606
2026-01-19 21:30:22.86	254.25	24.42	-24.7	-24.5	16.6	0.00e+00	0	42	0	18471714816	21	13659
2026-01-19 21:30:23.87	254.66	24.48	-24.6	-24.4	16.7	0.00e+00	0	42	0	18589155328	21	13570
2026-01-19 21:30:24.87	255.07	24.53	-24.6	-24.4	16.7	0.00e+00	0	42	0	18698207232	21	13565
2026-01-19 21:30:25.88	255.49	24.58	-24.8	-24.6	16.6	0.00e+00	0	42	0	18807259136	21	13825
2026-01-19 21:30:26.89	255.91	24.63	-24.7	-24.5	16.7	0.00e+00	0	42	0	18933088256	21	13784
2026-01-19 21:30:27.90	256.33	24.67	-24.6	-24.4	17.0	0.00e+00	0	41	0	19050528768	21	13562
2026-01-19 21:30:28.91	256.75	24.72	-24.6	-24.4	16.9	0.00e+00	0	42	0	19159580672	21	13519
2026-01-19 21:30:29.92	257.17	24.76	-24.6	-24.4	16.8	1.90e-06	0	42	0	19268632576	21	13630
2026-01-19 21:30:30.93	257.60	24.81	-24.6	-24.4	17.0	0.00e+00	0	42	0	19386073088	21	13582
2026-01-19 21:30:31.93	258.02	24.85	-24.6	-24.5	16.8	0.00e+00	0	42	0	19495124992	21	13661
2026-01-19 21:30:32.94	258.45	24.89	-24.6	-24.4	16.9	0.00e+00	0	42	0	19612565504	21	13631
2026-01-19 21:30:33.95	258.88	24.93	-24.6	-24.4	17.1	0.00e+00	0	42	0	19721617408	21	13601
2026-01-19 21:30:34.96	259.30	24.96	-24.6	-24.4	17.0	1.90e-06	0	42	0	19830669312	21	13567
2026-01-19 21:30:35.97	259.73	25.00	-24.7	-24.5	17.1	0.00e+00	0	42	0	19948109824	21	13774
2026-01-19 21:30:36.98	260.17	25.03	-24.7	-24.6	17.2	0.00e+00	0	42	0	20057161728	21	13807
2026-01-19 21:30:37.99	260.60	25.07	-24.6	-24.4	17.3	0.00e+00	0	42	0	20174602240	21	13600
2026-01-19 21:30:38.99	261.03	25.10	-24.6	-24.4	17.1	0.00e+00	0	42	0	20292042752	21	13577
2026-01-19 21:30:40.00	261.46	25.13	-24.7	-24.5	17.1	0.00e+00	0	42	0	20409483264	21	13722
2026-01-19 21:30:41.01	261.90	25.16	-24.7	-24.5	17.2	0.00e+00	0	42	0	20518535168	21	13672
2026-01-19 21:30:42.02	262.33	25.18	-24.7	-24.5	17.1	0.00e+00	0	42	0	20635975680	21	13680
2026-01-19 21:30:43.03	262.77	25.21	-24.6	-24.4	17.4	0.00e+00	0	42	0	20745027584	21	13628
2026-01-19 21:30:44.03	263.20	25.23	-24.6	-24.4	17.5	0.00e+00	0	42	0	20854079488	21	13629
2026-01-19 21:30:45.04	263.64	25.25	-24.7	-24.5	17.7	0.00e+00	0	42	0	20971520000	21	13637
2026-01-19 21:30:46.05	264.08	25.27	-24.7	-24.5	17.8	0.00e+00	0	42	0	21080571904	21	13693
2026-01-19 21:30:47.06	264.52	25.29	-24.8	-24.6	17.7	0.00e+00	0	42	0	21198012416	21	13813
2026-01-19 21:30:48.07	264.96	25.31	-24.6	-24.5	18.0	0.00e+00	0	42	0	21307064320	21	13638
2026-01-19 21:30:49.07	265.39	25.32	-24.6	-24.5	17.9	0.00e+00	0	42	0	21424504832	21	13647
2026-01-19 21:30:50.08	265.83	25.34	-24.7	-24.6	18.0	0.00e+00	0	42	0	21533556736	21	13794
2026-01-19 21:30:51.09	266.27	25.35	-24.7	-24.5	18.2	0.00e+00	0	42	0	21659385856	21	13712
2026-01-19 21:30:52.10	266.71	25.36	-24.7	-24.6	18.2	0.00e+00	0	42	0	21768437760	21	13816
2026-01-19 21:30:53.11	267.16	25.37	-24.8	-24.6	18.3	0.00e+00	0	42	0	21885878272	21	13921
2026-01-19 21:30:54.11	267.59	25.37	-24.8	-24.6	18.4	0.00e+00	0	42	0	21994930176	21	13868
2026-01-19 21:30:55.12	268.03	25.38	-24.8	-24.7	18.5	0.00e+00	0	42	0	22103982080	21	13955
2026-01-19 21:30:56.13	268.48	25.38	-24.9	-24.7	18.5	0.00e+00	0	42	0	22221422592	21	13991
2026-01-19 21:30:57.14	268.92	25.38	-24.9	-24.7	18.7	0.00e+00	0	42	0	22330474496	21	14047
2026-01-19 21:30:58.14	269.36	25.38	-24.8	-24.6	18.6	0.00e+00	0	42	0	22447915008	21	13938
2026-01-19 21:30:59.15	269.80	25.38	-24.9	-24.7	18.6	0.00e+00	0	42	0	22556966912	21	14036
2026-01-19 21:31:00.16	270.24	25.38	-24.9	-24.7	18.8	0.00e+00	0	42	0	22666018816	21	14084
2026-01-19 21:31:01.17	270.68	25.38	-24.9	-24.7	18.9	0.00e+00	0	42	0	22783459328	21	13985
2026-01-19 21:31:02.17	271.12	25.37	-24.9	-24.7	19.1	0.00e+00	0	42	0	22892511232	21	14096
2026-01-19 21:31:03.18	271.56	25.36	-24.9	-24.7	19.0	0.00e+00	0	42	0	23001563136	21	14084
2026-01-19 21:31:04.19	272.00	25.35	-24.8	-24.6	19.0	0.00e+00	0	42	0	23127392256	21	13940
2026-01-19 21:31:05.20	272.44	25.34	-24.9	-24.7	19.0	0.00e+00	0	42	0	23244832768	21	14049
2026-01-19 21:31:06.21	272.88	25.33	-24.9	-24.7	19.1	0.00e+00	0	42	0	23353884672	21	14090
2026-01-19 21:31:07.21	273.32	25.31	-24.9	-24.7	19.1	0.00e+00	0	42	0	23471325184	21	14077
2026-01-19 21:31:08.22	273.76	25.30	-25.0	-24.8	19.1	0.00e+00	0	42	0	23580377088	21	14191
2026-01-19 21:31:09.23	274.20	25.28	-24.9	-24.8	19.2	0.00e+00	0	42	0	23689428992	21	14129
2026-01-19 21:31:10.24	274.64	25.26	-25.0	-24.8	19.3	0.00e+00	0	42	0	23806869504	21	14208
2026-01-19 21:31:11.25	275.07	25.24	-25.0	-24.9	19.4	0.00e+00	0	42	0	23915921408	21	14286
2026-01-19 21:31:12.26	275.51	25.22	-25.0	-24.9	19.4	0.00e+00	0	42	0	24033361920	21	14284
2026-01-19 21:31:13.27	275.95	25.19	-25.1	-24.9	19.4	0.00e+00	0	42	0	24142413824	21	14426
2026-01-19 21:31:14.27	276.38	25.17	-25.0	-24.8	19.6	0.00e+00	0	42	0	24251465728	21	14233
2026-01-19 21:31:15.28	276.81	25.14	-25.1	-24.9	19.6	0.00e+00	0	42	0	24368906240	21	14378
2026-01-19 21:31:16.29	277.25	25.11	-25.2	-25.0	19.5	0.00e+00	0	42	0	24494735360	21	14515
2026-01-19 21:31:17.30	277.68	25.08	-25.1	-25.0	19.6	0.00e+00	0	42	0	24603787264	21	14444
2026-01-19 21:31:18.31	278.11	25.05	-25.1	-25.0	19.6	0.00e+00	0	42	0	24712839168	21	14452
2026-01-19 21:31:19.31	278.54	25.02	-25.3	-25.1	19.6	0.00e+00	0	42	0	24830279680	21	14629
2026-01-19 21:31:20.32	278.97	24.98	-25.3	-25.1	19.6	0.00e+00	0	42	0	24939331584	21	14736
2026-01-19 21:31:21.33	279.40	24.94	-25.2	-25.0	19.6	0.00e+00	0	42	0	25056772096	21	14583
2026-01-19 21:31:22.34	279.83	24.91	-25.2	-25.0	19.5	0.00e+00	0	42	0	25165824000	21	14607
2026-01-19 21:31:23.35	280.26	24.87	-25.2	-25.0	19.6	0.00e+00	0	42	0	25283264512	21	14566
2026-01-19 21:31:24.36	280.68	24.83	-25.2	-25.1	19.5	0.00e+00	0	42	0	25392316416	21	14634
2026-01-19 21:31:25.36	281.10	24.78	-25.3	-25.1	19.5	0.00e+00	0	42	0	25501368320	21	14660
2026-01-19 21:31:26.37	281.53	24.74	-25.3	-25.1	19.5	0.00e+00	0	42	0	25618808832	21	14681
2026-01-19 21:31:27.38	281.95	24.69	-25.3	-25.2	19.5	0.00e+00	0	42	0	25727860736	21	14791
2026-01-19 21:31:28.39	282.37	24.65	-25.3	-25.1	19.6	0.00e+00	0	42	0	25836912640	21	14643
2026-01-19 21:31:29.39	282.78	24.60	-25.3	-25.2	19.7	0.00e+00	0	42	0	25962741760	21	14797
2026-01-19 21:31:30.40	283.20	24.55	-25.3	-25.1	19.7	0.00e+00	0	42	0	26080182272	21	14775
2026-01-19 21:31:31.41	283.62	24.50	-25.4	-25.2	19.7	0.00e+00	0	42	0	26189234176	21	14835
2026-01-19 21:31:32.42	284.03	24.45	-25.4	-25.3	19.7	0.00e+00	0	42	0	26306674688	21	14952
2026-01-19 21:31:33.42	284.44	24.40	-25.3	-25.2	19.8	0.00e+00	0	42	0	26415726592	21	14794
2026-01-19 21:31:34.43	284.85	24.34	-25.4	-25.2	19.7	0.00e+00	0	42	0	26524778496	21	14859
2026-01-19 21:31:35.44	285.26	24.28	-25.4	-25.2	19.8	0.00e+00	0	42	0	26642219008	21	14888
2026-01-19 21:31:36.45	285.67	24.23	-25.4	-25.3	19.7	0.00e+00	0	42	0	26751270912	21	14954
2026-01-19 21:31:37.45	286.08	24.17	-25.3	-25.1	19.7	0.00e+00	0	42	0	26868711424	21	14731
2026-01-19 21:31:38.46	286.48	24.11	-25.3	-25.2	19.5	0.00e+00	0	42	0	26977763328	21	14792
2026-01-19 21:31:39.47	286.89	24.05	-25.4	-25.3	19.5	0.00e+00	0	42	0	27086815232	21	14968
2026-01-19 21:31:40.47	287.28	23.99	-25.4	-25.2	19.6	0.00e+00	0	42	0	27204255744	21	14901
2026-01-19 21:31:41.48	287.68	23.92	-25.4	-25.2	19.5	0.00e+00	0	42	0	27313307648	21	14936
2026-01-19 21:31:42.49	288.08	23.86	-25.4	-25.3	19.5	0.00e+00	0	42	0	27439136768	21	14972
2026-01-19 21:31:43.50	288.48	23.79	-25.5	-25.3	19.6	0.00e+00	0	42	0	27548188672	21	15015
2026-01-19 21:31:44.50	288.87	23.73	-25.5	-25.3	19.4	0.00e+00	0	42	0	27665629184	21	15049
2026-01-19 21:31:45.51	289.26	23.66	-25.4	-25.2	19.4	0.00e+00	0	42	0	27774681088	21	14931
2026-01-19 21:31:46.52	289.66	23.59	-25.5	-25.3	19.5	0.00e+00	0	42	0	27892121600	21	15025
2026-01-19 21:31:47.53	290.05	23.52	-25.4	-25.2	19.5	0.00e+00	0	42	0	28001173504	21	14916
2026-01-19 21:31:48.54	290.43	23.45	-25.5	-25.4	19.4	0.00e+00	0	42	0	28110225408	21	15146
2026-01-19 21:31:49.55	290.82	23.38	-25.5	-25.3	19.3	0.00e+00	0	42	0	28227665920	21	15096
2026-01-19 21:31:50.55	291.20	23.31	-25.6	-25.4	19.3	0.00e+00	0	42	0	28336717824	21	15172
2026-01-19 21:31:51.56	291.58	23.23	-25.6	-25.5	19.3	0.00e+00	0	42	0	28454158336	21	15297
2026-01-19 21:31:52.57	291.96	23.16	-25.6	-25.4	19.3	0.00e+00	0	42	0	28563210240	21	15187
2026-01-19 21:31:53.58	292.34	23.08	-25.7	-25.5	19.3	0.00e+00	0	42	0	28680650752	21	15399
2026-01-19 21:31:54.59	292.71	23.01	-25.7	-25.5	19.3	0.00e+00	0	42	0	28789702656	22	14535
2026-01-19 21:31:55.60	293.09	22.93	-25.7	-25.5	19.3	0.00e+00	0	42	0	28915531776	22	14501
2026-01-19 21:31:56.60	293.46	22.85	-25.7	-25.6	19.3	0.00e+00	0	42	0	29024583680	22	14616
2026-01-19 21:31:57.61	293.83	22.77	-25.8	-25.6	19.3	0.00e+00	0	42	0	29142024192	22	14662
2026-01-19 21:31:58.62	294.19	22.69	-25.9	-25.7	19.3	0.00e+00	0	42	0	29251076096	22	14826
2026-01-19 21:31:59.63	294.56	22.61	-25.8	-25.6	19.3	0.00e+00	0	42	0	29360128000	22	14702
2026-01-19 21:32:00.63	294.92	22.53	-25.8	-25.6	19.3	0.00e+00	0	42	0	29477568512	22	14775
2026-01-19 21:32:01.64	295.28	22.45	-25.9	-25.7	19.3	0.00e+00	0	42	0	29586620416	22	14896
2026-01-19 21:32:02.65	295.64	22.37	-25.9	-25.7	19.3	0.00e+00	0	42	0	29704060928	22	14883
2026-01-19 21:32:03.66	296.00	22.28	-25.9	-25.7	19.4	0.00e+00	0	42	0	29813112832	22	14900
2026-01-19 21:32:04.67	296.35	22.20	-25.9	-25.7	19.4	0.00e+00	0	42	0	29922164736	22	14895
2026-01-19 21:32:05.68	296.71	22.11	-26.0	-25.8	19.4	0.00e+00	0	42	0	30039605248	22	15027
2026-01-19 21:32:06.69	297.06	22.03	-25.9	-25.8	19.6	0.00e+00	0	42	0	30148657152	22	14966
2026-01-19 21:32:07.69	297.40	21.94	-25.9	-25.7	19.6	0.00e+00	0	42	0	30274486272	22	14940
2026-01-19 21:32:08.70	297.75	21.86	-26.0	-25.8	19.6	0.00e+00	0	42	0	30383538176	22	15027
2026-01-19 21:32:09.71	298.09	21.77	-26.0	-25.8	19.6	0.00e+00	0	42	0	30500978688	22	15060
2026-01-19 21:32:10.72	298.44	21.68	-26.1	-25.9	19.6	0.00e+00	0	42	0	30610030592	22	15188
2026-01-19 21:32:11.73	298.78	21.59	-26.0	-25.9	19.6	0.00e+00	0	42	0	30727471104	22	15130
2026-01-19 21:32:12.74	299.11	21.50	-26.1	-25.9	19.5	0.00e+00	0	42	0	30836523008	22	15268
2026-01-19 21:32:13.75	299.45	21.41	-26.1	-25.9	19.6	0.00e+00	0	42	0	30945574912	22	15195
2026-01-19 21:32:14.75	299.78	21.32	-26.1	-25.9	19.6	0.00e+00	0	42	0	31063015424	22	15276
2026-01-19 21:32:15.76	300.11	21.23	-26.1	-26.0	19.6	0.00e+00	0	42	0	31172067328	22	15310
2026-01-19 21:32:16.77	300.44	21.14	-26.2	-26.0	19.6	0.00e+00	0	42	0	31289507840	22	15447
2026-01-19 21:32:17.78	300.77	21.05	-26.2	-26.1	19.7	0.00e+00	0	42	0	31398559744	23	14631
2026-01-19 21:32:18.79	301.09	20.96	-26.4	-26.2	19.6	0.00e+00	0	42	0	31507611648	23	14864
2026-01-19 21:32:19.79	301.41	20.87	-26.3	-26.1	19.6	0.00e+00	0	42	0	31633440768	23	14762
2026-01-19 21:32:20.80	301.74	20.77	-26.4	-26.2	19.5	0.00e+00	0	42	0	31750881280	23	14933
2026-01-19 21:32:21.81	302.05	20.68	-26.4	-26.2	19.5	0.00e+00	0	42	0	31859933184	23	14942
2026-01-19 21:32:22.82	302.37	20.59	-26.4	-26.2	19.5	0.00e+00	0	42	0	31968985088	23	14926
2026-01-19 21:32:23.82	302.68	20.49	-26.4	-26.2	19.5	0.00e+00	0	42	0	32086425600	23	14934
2026-01-19 21:32:24.83	303.00	20.40	-26.4	-26.3	19.5	0.00e+00	0	42	0	32195477504	23	14985
2026-01-19 21:32:25.84	303.31	20.30	-26.6	-26.4	19.4	0.00e+00	0	42	0	32312918016	23	15186
2026-01-19 21:32:26.85	303.61	20.21	-26.5	-26.3	19.3	0.00e+00	0	42	0	32421969920	23	15089
2026-01-19 21:32:27.86	303.92	20.11	-26.6	-26.4	19.2	0.00e+00	0	42	0	32539410432	23	15236
2026-01-19 21:32:28.87	304.22	20.02	-26.6	-26.4	19.1	0.00e+00	0	42	0	32648462336	23	15261
2026-01-19 21:32:29.88	304.53	19.92	-26.6	-26.5	19.1	0.00e+00	0	42	0	32757514240	23	15314
2026-01-19 21:32:30.88	304.82	19.83	-26.8	-26.6	19.0	0.00e+00	0	42	0	32874954752	24	14715
2026-01-19 21:32:31.89	305.12	19.73	-26.8	-26.6	19.0	0.00e+00	0	42	0	33000783872	24	14647
2026-01-19 21:32:32.90	305.42	19.63	-26.8	-26.7	19.0	0.00e+00	0	42	0	33109835776	24	14783
2026-01-19 21:32:33.91	305.71	19.53	-26.8	-26.7	19.0	0.00e+00	0	42	0	33218887680	24	14790
2026-01-19 21:32:34.91	306.00	19.44	-27.0	-26.8	19.0	0.00e+00	0	42	0	33336328192	24	15022
2026-01-19 21:32:35.92	306.29	19.34	-26.9	-26.7	19.0	0.00e+00	0	42	0	33445380096	24	14921
2026-01-19 21:32:36.93	306.58	19.24	-26.8	-26.7	19.0	0.00e+00	0	42	0	33562820608	24	14814
2026-01-19 21:32:37.94	306.86	19.15	-27.1	-26.9	19.0	0.00e+00	0	42	0	33671872512	24	15227
2026-01-19 21:32:38.95	307.15	19.05	-27.0	-26.8	19.0	0.00e+00	0	42	0	33780924416	24	15042
2026-01-19 21:32:39.95	307.43	18.95	-27.0	-26.8	18.9	0.00e+00	0	42	0	33898364928	24	15039
2026-01-19 21:32:40.96	307.71	18.85	-27.1	-26.9	18.7	0.00e+00	0	42	0	34007416832	24	15217
2026-01-19 21:32:41.97	307.98	18.75	-27.1	-26.9	18.7	0.00e+00	0	42	0	34124857344	24	15280
2026-01-19 21:32:42.98	308.26	18.66	-27.3	-27.1	18.6	0.00e+00	0	42	0	34233909248	25	14655
2026-01-19 21:32:43.99	308.53	18.56	-27.3	-27.1	18.7	0.00e+00	0	42	0	34342961152	25	14745
2026-01-19 21:32:45.00	308.80	18.46	-27.2	-27.0	18.6	0.00e+00	0	42	0	34468790272	25	14541
2026-01-19 21:32:46.00	309.07	18.36	-27.3	-27.1	18.5	0.00e+00	0	42	0	34586230784	25	14670
2026-01-19 21:32:47.01	309.34	18.26	-27.3	-27.1	18.6	0.00e+00	0	42	0	34695282688	25	14769
2026-01-19 21:32:48.01	309.60	18.17	-27.3	-27.1	18.5	0.00e+00	0	42	0	34804334592	25	14746
2026-01-19 21:32:49.02	309.87	18.07	-27.4	-27.2	18.6	0.00e+00	0	42	0	34921775104	25	14849
2026-01-19 21:32:50.03	310.13	17.97	-27.4	-27.3	18.4	0.00e+00	0	42	0	35030827008	25	14952
2026-01-19 21:32:51.04	310.39	17.87	-27.5	-27.3	18.4	0.00e+00	0	42	0	35148267520	25	15104
2026-01-19 21:32:52.05	310.65	17.77	-27.4	-27.2	18.5	0.00e+00	0	42	0	35257319424	25	14889
2026-01-19 21:32:53.05	310.90	17.67	-27.5	-27.3	18.5	0.00e+00	0	42	0	35366371328	25	15099
2026-01-19 21:32:54.06	311.15	17.57	-27.4	-27.3	18.5	0.00e+00	0	42	0	35483811840	25	14975
2026-01-19 21:32:55.07	311.41	17.47	-27.5	-27.4	18.4	0.00e+00	0	42	0	35592863744	25	15181
2026-01-19 21:32:56.08	311.66	17.38	-27.6	-27.5	18.3	0.00e+00	0	42	0	35710304256	25	15318
2026-01-19 21:32:57.09	311.91	17.28	-27.6	-27.4	18.4	0.00e+00	0	42	0	35827744768	25	15241
2026-01-19 21:32:58.10	312.15	17.18	-27.6	-27.4	18.3	0.00e+00	0	42	0	35945185280	25	15275
2026-01-19 21:32:59.11	312.40	17.08	-27.7	-27.5	18.2	0.00e+00	0	42	0	36054237184	25	15345
2026-01-19 21:33:00.11	312.64	16.98	-27.6	-27.4	18.2	0.00e+00	0	42	0	36171677696	25	15281
2026-01-19 21:33:01.12	312.88	16.88	-27.7	-27.5	18.2	0.00e+00	0	42	0	36280729600	25	15386
2026-01-19 21:33:02.13	313.12	16.78	-27.7	-27.5	18.0	0.00e+00	0	42	0	36398170112	25	15411
2026-01-19 21:33:03.14	313.36	16.69	-27.8	-27.6	18.0	0.00e+00	0	42	0	36507222016	26	14726
2026-01-19 21:33:04.15	313.60	16.59	-27.8	-27.7	17.9	0.00e+00	0	42	0	36616273920	26	14813
2026-01-19 21:33:05.15	313.83	16.49	-27.8	-27.7	17.8	0.00e+00	0	42	0	36733714432	26	14811
2026-01-19 21:33:06.16	314.06	16.39	-27.9	-27.8	17.8	0.00e+00	0	42	0	36842766336	26	14960
2026-01-19 21:33:07.17	314.29	16.29	-27.9	-27.8	17.8	0.00e+00	0	42	0	36951818240	26	14948
2026-01-19 21:33:08.18	314.52	16.19	-28.0	-27.9	17.6	0.00e+00	0	42	0	37069258752	26	15156
2026-01-19 21:33:09.19	314.75	16.10	-27.8	-27.7	17.7	0.00e+00	0	42	0	37178310656	26	14787
2026-01-19 21:33:10.19	314.98	16.00	-28.0	-27.8	17.7	0.00e+00	0	42	0	37304139776	26	15064
2026-01-19 21:33:11.20	315.20	15.90	-28.0	-27.9	17.7	0.00e+00	0	42	0	37421580288	26	15166
2026-01-19 21:33:12.21	315.42	15.80	-28.1	-27.9	17.7	1.90e-06	0	42	0	37530632192	26	15239
2026-01-19 21:33:13.22	315.65	15.71	-28.1	-28.0	17.8	0.00e+00	0	42	0	37639684096	27	14456
2026-01-19 21:33:14.23	315.87	15.61	-28.1	-28.0	17.8	0.00e+00	0	42	0	37757124608	27	14458
2026-01-19 21:33:15.23	316.08	15.51	-28.2	-28.0	17.9	0.00e+00	0	42	0	37866176512	27	14569
2026-01-19 21:33:16.24	316.30	15.42	-28.2	-28.1	17.8	1.90e-06	0	42	0	37983617024	27	14620
2026-01-19 21:33:17.25	316.51	15.32	-28.4	-28.2	17.7	0.00e+00	0	42	0	38092668928	27	14816
2026-01-19 21:33:18.26	316.73	15.22	-28.4	-28.2	17.6	0.00e+00	0	42	0	38201720832	27	14900
2026-01-19 21:33:19.27	316.94	15.13	-28.5	-28.3	17.5	1.90e-06	0	42	0	38319161344	27	15018
2026-01-19 21:33:20.28	317.15	15.03	-28.5	-28.3	17.5	0.00e+00	0	42	0	38428213248	27	15033
2026-01-19 21:33:21.29	317.36	14.93	-28.4	-28.2	17.6	0.00e+00	0	42	0	38545653760	27	14921
2026-01-19 21:33:22.29	317.56	14.84	-28.4	-28.2	17.6	0.00e+00	0	42	0	38663094272	27	14858
2026-01-19 21:33:23.30	317.77	14.74	-28.5	-28.4	17.5	0.00e+00	0	42	0	38780534784	27	15145
2026-01-19 21:33:24.31	317.97	14.65	-28.5	-28.3	17.4	0.00e+00	0	42	0	38889586688	27	15117
2026-01-19 21:33:25.32	318.18	14.55	-28.6	-28.4	17.3	1.90e-06	0	42	0	39007027200	27	15188
2026-01-19 21:33:26.33	318.38	14.45	-28.6	-28.4	17.4	0.00e+00	0	42	0	39116079104	27	15281
2026-01-19 21:33:27.33	318.58	14.36	-28.6	-28.4	17.4	0.00e+00	0	42	0	39225131008	27	15284
2026-01-19 21:33:28.34	318.77	14.27	-28.6	-28.4	17.5	0.00e+00	0	42	0	39342571520	28	14371
2026-01-19 21:33:29.35	318.97	14.17	-28.7	-28.5	17.5	0.00e+00	0	42	0	39451623424	28	14535
2026-01-19 21:33:30.36	319.17	14.08	-28.6	-28.4	17.6	1.90e-06	0	42	0	39569063936	28	14336
2026-01-19 21:33:31.37	319.36	13.98	-28.7	-28.5	17.5	1.90e-06	0	42	0	39678115840	28	14571
2026-01-19 21:33:32.38	319.55	13.89	-28.7	-28.5	17.5	3.80e-06	0	42	0	39795556352	28	14550
2026-01-19 21:33:33.38	319.74	13.79	-28.8	-28.7	17.6	0.00e+00	0	42	0	39904608256	28	14817
2026-01-19 21:33:34.39	319.93	13.70	-28.8	-28.6	17.7	0.00e+00	0	42	0	40030437376	28	14672
2026-01-19 21:33:35.40	320.12	13.61	-28.9	-28.7	17.6	0.00e+00	0	42	0	40139489280	28	14887
2026-01-19 21:33:36.41	320.31	13.51	-28.8	-28.6	17.5	0.00e+00	0	42	0	40256929792	28	14722
2026-01-19 21:33:37.42	320.50	13.42	-28.8	-28.7	17.5	0.00e+00	0	42	0	40365981696	28	14805
2026-01-19 21:33:38.43	320.68	13.33	-29.0	-28.8	17.4	0.00e+00	0	42	0	40475033600	28	15043
2026-01-19 21:33:39.43	320.86	13.23	-29.0	-28.9	17.4	3.80e-06	0	42	0	40592474112	28	15133
2026-01-19 21:33:40.44	321.04	13.14	-29.2	-29.0	17.3	5.70e-06	0	42	0	40701526016	28	15388
2026-01-19 21:33:41.45	321.22	13.05	-29.2	-29.0	17.4	3.80e-06	0	42	0	40818966528	29	14542
2026-01-19 21:33:42.46	321.40	12.96	-29.3	-29.1	17.3	5.70e-06	0	42	0	40928018432	29	14715
2026-01-19 21:33:43.47	321.58	12.86	-29.1	-29.0	17.3	1.90e-06	0	42	0	41037070336	29	14446
2026-01-19 21:33:44.48	321.76	12.77	-29.3	-29.1	17.3	1.90e-06	0	42	0	41154510848	29	14691
2026-01-19 21:33:45.48	321.93	12.68	-29.3	-29.1	17.3	1.90e-06	0	42	0	41263562752	29	14764
2026-01-19 21:33:46.49	322.11	12.59	-29.3	-29.1	17.2	1.90e-06	0	42	0	41381003264	29	14762
2026-01-19 21:33:47.49	322.28	12.50	-29.4	-29.2	17.0	9.50e-06	0	42	0	41498443776	29	14909
2026-01-19 21:33:48.50	322.45	12.41	-29.5	-29.3	16.9	1.90e-06	0	42	0	41615884288	29	15056
2026-01-19 21:33:49.51	322.62	12.32	-29.4	-29.2	16.9	3.80e-06	0	42	0	41724936192	29	14853
2026-01-19 21:33:50.52	322.79	12.23	-29.6	-29.4	16.8	9.50e-06	0	42	0	41842376704	29	15192
2026-01-19 21:33:51.53	322.96	12.14	-29.7	-29.5	16.7	5.70e-06	0	42	0	41951428608	30	14558
2026-01-19 21:33:52.54	323.13	12.05	-29.9	-29.7	16.6	1.33e-05	0	42	0	42060480512	30	14860
2026-01-19 21:33:53.54	323.29	11.96	-29.7	-29.5	16.7	1.71e-05	0	42	0	42177921024	30	14582
2026-01-19 21:33:54.55	323.46	11.87	-29.9	-29.7	16.6	9.50e-06	0	42	0	42286972928	30	14854
2026-01-19 21:33:55.56	323.62	11.78	-29.6	-29.4	16.8	1.90e-06	0	42	0	42404413440	30	14371
2026-01-19 21:33:56.57	323.78	11.69	-29.8	-29.6	16.7	7.60e-06	0	42	0	42513465344	30	14690
2026-01-19 21:33:57.58	323.95	11.60	-29.7	-29.6	16.8	9.50e-06	0	42	0	42622517248	30	14658
2026-01-19 21:33:58.58	324.10	11.51	-29.7	-29.5	16.8	1.90e-06	0	42	0	42739957760	30	14521
2026-01-19 21:33:59.59	324.26	11.43	-29.8	-29.6	16.7	7.60e-06	0	42	0	42865786880	30	14715
2026-01-19 21:34:00.58	324.42	11.34	-29.9	-29.8	16.7	1.33e-05	0	42	0	42966450176	30	14966
2026-01-19 21:34:01.59	324.58	11.25	-30.1	-29.9	16.6	1.90e-05	0	42	0	43075502080	30	15238
2026-01-19 21:34:02.60	324.73	11.16	-30.1	-29.9	16.7	1.14e-05	0	42	0	43201331200	31	14345
2026-01-19 21:34:03.60	324.89	11.08	-30.0	-29.8	16.8	7.60e-06	0	42	0	43310383104	31	14185
2026-01-19 21:34:04.61	325.04	10.99	-30.0	-29.9	16.8	7.60e-06	0	42	0	43427823616	31	14278
2026-01-19 21:34:05.62	325.19	10.90	-30.0	-29.9	18.1	0.00e+00	0	42	0	43536875520	31	14318
2026-01-19 21:34:06.63	325.34	10.82	-53.5	-55.9	6.2	0.00e+00	0	42	104	43612372992	77	20246
2026-01-19 21:34:07.64	325.50	10.73	-53.5	-55.8	6.2	0.00e+00	0	42	104	43612372992	77	20006
2026-01-19 21:34:08.64	325.64	10.64	-53.5	-55.8	6.2	0.00e+00	0	42	104	43612372992	77	19953
2026-01-19 21:34:09.65	325.79	10.56	-53.5	-55.7	6.2	0.00e+00	0	42	104	43612372992	77	19750
2026-01-19 21:34:10.65	325.94	10.47	-53.6	-55.7	6.2	0.00e+00	0	42	104	43612372992	77	19835
2026-01-19 21:34:11.66	326.09	10.39	-53.5	-55.7	6.2	0.00e+00	0	41	104	43612372992	77	19744
2026-01-19 21:34:12.67	326.23	10.30	-53.5	-55.7	6.2	0.00e+00	0	42	104	43612372992	77	19815
2026-01-19 21:34:13.68	326.38	10.22	-53.5	-55.7	6.2	0.00e+00	0	41	104	43612372992	77	19840
2026-01-19 21:34:14.69	326.52	10.13	-53.5	-55.7	6.2	0.00e+00	0	42	104	43612372992	77	19781
2026-01-19 21:34:15.69	326.66	10.05	-53.5	-55.6	6.2	0.00e+00	0	42	104	43612372992	77	19673
2026-01-19 21:34:16.71	326.81	9.96	-53.5	-55.7	6.2	0.00e+00	0	42	104	43612372992	77	19794
2026-01-19 21:34:17.71	326.95	9.88	-53.5	-55.6	6.2	0.00e+00	0	41	104	43612372992	77	19650
2026-01-19 21:34:18.72	327.09	9.80	-53.5	-55.6	6.2	0.00e+00	0	42	104	43612372992	77	19624
2026-01-19 21:34:19.73	327.23	9.71	-53.4	-55.6	6.2	0.00e+00	0	42	104	43612372992	77	19544
2026-01-19 21:34:20.74	327.36	9.63	-53.5	-55.6	6.2	0.00e+00	0	42	104	43612372992	77	19605
2026-01-19 21:34:21.74	327.50	9.55	-53.5	-55.6	6.2	0.00e+00	0	42	104	43612372992	77	19565
2026-01-19 21:34:22.75	327.64	9.46	-53.4	-55.6	6.2	0.00e+00	0	41	104	43612372992	77	19583
2026-01-19 21:34:23.75	327.77	9.38	-53.4	-55.6	6.2	0.00e+00	0	42	104	43612372992	77	19480
2026-01-19 21:34:24.76	327.91	9.30	-53.4	-55.6	6.2	0.00e+00	0	42	104	43612372992	77	19593
2026-01-19 21:34:25.77	328.04	9.22	-53.4	-55.6	6.2	0.00e+00	0	42	104	43612372992	77	19496
2026-01-19 21:34:26.78	328.17	9.14	-53.4	-55.5	6.2	0.00e+00	0	42	104	43612372992	77	19469
2026-01-19 21:34:27.79	328.30	9.05	-53.4	-55.5	6.2	0.00e+00	0	42	104	43612372992	77	19347
2026-01-19 21:34:28.79	328.43	8.97	-53.4	-55.5	6.2	0.00e+00	0	42	104	43612372992	77	19476
2026-01-19 21:34:29.80	328.57	8.89	-53.4	-55.5	6.2	0.00e+00	0	42	104	43612372992	77	19385
2026-01-19 21:34:30.81	328.69	8.81	-53.4	-55.5	6.2	0.00e+00	0	41	104	43612372992	77	19419
2026-01-19 21:34:31.82	328.82	8.73	-53.3	-55.5	6.2	0.00e+00	0	42	104	43612372992	77	19291
2026-01-19 21:34:32.83	328.95	8.65	-53.3	-55.5	6.2	0.00e+00	0	41	104	43612372992	77	19423
2026-01-19 21:34:33.83	329.08	8.57	-53.3	-55.4	6.2	0.00e+00	0	42	104	43612372992	77	19246
2026-01-19 21:34:34.84	329.20	8.49	-53.3	-55.5	6.2	0.00e+00	0	42	104	43612372992	77	19309
2026-01-19 21:34:35.85	329.33	8.41	-53.3	-55.4	6.2	0.00e+00	0	42	104	43612372992	77	19238
2026-01-19 21:34:36.86	329.45	8.33	-53.3	-55.5	6.2	0.00e+00	0	42	104	43612372992	77	19371
2026-01-19 21:34:37.87	329.58	8.25	-53.3	-55.4	6.2	0.00e+00	0	42	104	43612372992	77	19176
2026-01-19 21:34:38.87	329.70	8.17	-53.3	-55.4	6.2	0.00e+00	0	42	104	43612372992	77	19245
2026-01-19 21:34:39.88	329.82	8.09	-53.3	-55.4	6.2	0.00e+00	0	42	104	43612372992	77	19137
2026-01-19 21:34:40.89	329.94	8.01	-53.3	-55.5	6.2	0.00e+00	0	41	104	43612372992	77	19270
2026-01-19 21:34:41.90	330.07	7.93	-53.3	-55.4	6.2	0.00e+00	0	42	104	43612372992	77	19122
2026-01-19 21:34:42.91	330.19	7.86	-53.3	-55.4	6.2	0.00e+00	0	42	104	43612372992	77	19143
2026-01-19 21:34:43.92	330.31	7.78	-53.2	-55.3	6.2	0.00e+00	0	42	104	43612372992	77	19029
2026-01-19 21:34:44.93	330.42	7.70	-53.3	-55.4	6.2	0.00e+00	0	41	104	43612372992	77	19165
2026-01-19 21:34:45.94	330.54	7.62	-53.2	-55.4	6.2	0.00e+00	0	42	104	43612372992	77	19042
2026-01-19 21:34:46.94	330.66	7.54	-53.2	-55.4	6.2	0.00e+00	0	42	104	43612372992	77	19075
2026-01-19 21:34:47.95	330.77	7.47	-53.2	-55.3	6.2	0.00e+00	0	42	104	43612372992	77	18969
2026-01-19 21:34:48.96	330.89	7.39	-53.2	-55.4	6.2	0.00e+00	0	41	104	43612372992	77	19124
2026-01-19 21:34:49.97	331.01	7.31	-53.2	-55.3	6.2	0.00e+00	0	42	104	43612372992	77	18925
2026-01-19 21:34:50.97	331.12	7.24	-53.2	-55.3	6.2	0.00e+00	0	42	104	43612372992	77	19000
2026-01-19 21:34:51.98	331.23	7.16	-53.1	-55.2	6.2	0.00e+00	0	42	104	43612372992	77	18777
2026-01-19 21:34:52.99	331.35	7.08	-53.2	-55.4	6.2	0.00e+00	0	41	104	43612372992	77	19079
2026-01-19 21:34:54.00	331.46	7.01	-53.1	-55.2	6.2	0.00e+00	0	42	104	43612372992	77	18770
2026-01-19 21:34:55.01	331.57	6.93	-53.1	-55.3	6.2	0.00e+00	0	41	104	43612372992	77	18908
2026-01-19 21:34:56.01	331.68	6.86	-53.1	-55.2	6.2	0.00e+00	0	41	104	43612372992	77	18680
2026-01-19 21:34:57.02	331.79	6.78	-53.2	-55.3	6.2	0.00e+00	0	41	104	43612372992	77	19002
2026-01-19 21:34:58.03	331.90	6.71	-53.1	-55.2	6.2	0.00e+00	0	41	104	43612372992	77	18709
2026-01-19 21:34:59.03	332.01	6.63	-53.1	-55.3	6.2	0.00e+00	0	41	104	43612372992	77	18841
2026-01-19 21:35:00.04	332.12	6.56	-53.0	-55.2	6.2	0.00e+00	0	42	104	43612372992	77	18636
2026-01-19 21:35:01.05	332.22	6.48	-53.1	-55.3	6.2	0.00e+00	0	42	104	43612372992	77	18866
2026-01-19 21:35:02.06	332.33	6.41	-53.0	-55.2	6.2	0.00e+00	0	41	104	43612372992	77	18619
2026-01-19 21:35:03.07	332.44	6.34	-53.1	-55.2	6.2	0.00e+00	0	41	104	43612372992	77	18681
2026-01-19 21:35:04.07	332.54	6.26	-52.9	-55.1	6.2	0.00e+00	0	41	104	43612372992	77	18452
2026-01-19 21:35:05.08	332.65	6.19	-53.1	-55.2	6.2	0.00e+00	0	41	104	43612372992	77	18729
2026-01-19 21:35:06.09	332.75	6.11	-52.9	-55.1	6.2	0.00e+00	0	41	104	43612372992	77	18417
2026-01-19 21:35:07.10	332.86	6.04	-53.0	-55.1	6.2	0.00e+00	0	42	104	43612372992	77	18568
2026-01-19 21:35:08.11	332.96	5.97	-52.9	-55.0	6.2	0.00e+00	0	41	104	43612372992	77	18332
2026-01-19 21:35:09.11	333.06	5.90	-53.0	-55.2	6.2	0.00e+00	0	42	104	43612372992	77	18620
2026-01-19 21:35:10.12	333.16	5.82	-52.8	-55.0	6.2	0.00e+00	0	41	104	43612372992	77	18212
2026-01-19 21:35:11.13	333.26	5.75	-53.0	-55.1	6.2	0.00e+00	0	41	104	43612372992	77	18444
2026-01-19 21:35:12.14	333.37	5.68	-52.8	-54.9	6.2	0.00e+00	0	42	104	43612372992	77	18097
2026-01-19 21:35:13.15	333.47	5.61	-52.9	-55.1	6.2	0.00e+00	0	41	104	43612372992	77	18402
2026-01-19 21:35:14.15	333.56	5.53	-52.6	-54.7	6.2	0.00e+00	0	41	104	43612372992	77	17688
2026-01-19 21:35:15.16	333.66	5.46	-52.8	-55.0	6.2	0.00e+00	0	41	104	43612372992	77	18217
2026-01-19 21:35:16.17	333.76	5.39	-52.6	-54.7	6.2	0.00e+00	0	42	104	43612372992	77	17661
2026-01-19 21:35:17.18	333.86	5.32	-52.7	-54.9	6.2	0.00e+00	0	42	104	43612372992	77	18012
2026-01-19 21:35:18.19	333.96	5.25	-51.6	-53.8	6.2	0.00e+00	0	42	104	43612372992	75	17773
2026-01-19 21:35:19.19	334.05	5.18	-52.6	-54.7	6.2	0.00e+00	0	41	104	43612372992	75	19898
2026-01-19 21:35:20.20	334.15	5.11	-51.2	-53.3	6.2	0.00e+00	0	41	104	43612372992	74	17909
2026-01-19 21:35:21.21	334.25	5.04	-51.9	-54.0	6.2	0.00e+00	0	41	104	43612372992	74	19473
2026-01-19 21:35:22.22	334.34	4.97	-53.2	-55.3	6.2	0.00e+00	0	41	104	43612372992	76	20016
2026-01-19 21:35:23.23	334.44	4.90	-53.5	-55.7	6.2	0.00e+00	0	41	104	43612372992	77	19746
2026-01-19 21:35:24.23	334.53	4.83	-53.8	-55.9	6.2	0.00e+00	0	41	104	43612372992	78	19151
2026-01-19 21:35:25.24	334.63	4.76	-53.9	-56.0	6.2	0.00e+00	0	41	104	43612372992	78	19460
2026-01-19 21:35:26.25	334.72	4.69	-54.0	-56.2	6.2	0.00e+00	0	41	104	43612372992	78	19724
2026-01-19 21:35:27.26	334.81	4.62	-54.2	-56.3	6.2	0.00e+00	0	41	104	43612372992	78	19981
2026-01-19 21:35:28.26	334.90	4.55	-54.3	-56.4	6.2	0.00e+00	0	42	104	43612372992	79	19089
2026-01-19 21:35:29.27	334.99	4.48	-54.3	-56.5	6.2	0.00e+00	0	41	104	43612372992	79	19335
2026-01-19 21:35:30.28	335.09	4.41	-54.4	-56.6	6.2	0.00e+00	0	41	104	43612372992	79	19487
2026-01-19 21:35:31.29	335.18	4.34	-54.5	-56.6	6.2	0.00e+00	0	41	104	43612372992	79	19634
2026-01-19 21:35:32.30	335.27	4.27	-54.5	-56.7	6.2	0.00e+00	0	41	104	43612372992	79	19762
2026-01-19 21:35:33.30	335.36	4.20	-54.6	-56.7	6.2	0.00e+00	0	41	104	43612372992	79	19843
2026-01-19 21:35:34.31	335.45	4.14	-54.6	-56.7	6.2	0.00e+00	0	41	104	43612372992	79	19899
2026-01-19 21:35:35.32	335.53	4.07	-54.6	-56.7	6.2	0.00e+00	0	41	104	43612372992	79	19912
2026-01-19 21:35:36.33	335.62	4.00	-54.6	-56.8	6.2	0.00e+00	0	41	104	43612372992	79	20035
2026-01-19 21:35:37.33	335.71	3.93	-54.7	-56.8	6.2	0.00e+00	0	41	104	43612372992	79	20025
2026-01-19 21:35:38.34	335.80	3.86	-54.6	-56.8	6.2	0.00e+00	0	41	104	43612372992	79	20071
2026-01-19 21:35:39.35	335.88	3.80	-54.6	-56.8	6.2	0.00e+00	0	42	104	43612372992	79	20003
2026-01-19 21:35:40.36	335.97	3.73	-54.6	-56.7	6.2	0.00e+00	0	42	104	43612372992	79	19901
2026-01-19 21:35:41.37	336.06	3.66	-54.6	-56.7	6.2	0.00e+00	0	41	104	43612372992	79	19920
2026-01-19 21:35:42.38	336.14	3.60	-54.6	-56.7	6.2	0.00e+00	0	41	104	43612372992	79	19864
2026-01-19 21:35:43.39	336.23	3.53	-54.6	-56.7	6.2	0.00e+00	0	41	104	43612372992	79	19822
2026-01-19 21:35:44.39	336.31	3.46	-54.5	-56.7	6.2	0.00e+00	0	41	104	43612372992	79	19764
2026-01-19 21:35:45.40	336.40	3.40	-54.5	-56.6	6.2	0.00e+00	0	41	104	43612372992	79	19672
2026-01-19 21:35:46.41	336.48	3.33	-54.5	-56.6	6.2	0.00e+00	0	41	104	43612372992	79	19686
2026-01-19 21:35:47.42	336.56	3.26	-54.5	-56.6	6.2	0.00e+00	0	41	104	43612372992	79	19686
2026-01-19 21:35:48.43	336.65	3.20	-54.5	-56.6	6.2	0.00e+00	0	41	104	43612372992	79	19656
2026-01-19 21:35:49.43	336.73	3.13	-54.5	-56.6	6.2	0.00e+00	0	41	104	43612372992	79	19573
2026-01-19 21:35:50.44	336.81	3.07	-54.5	-56.6	6.2	0.00e+00	0	41	104	43612372992	79	19604
2026-01-19 21:35:51.45	336.89	3.00	-54.5	-56.6	6.2	0.00e+00	0	41	104	43612372992	79	19599
2026-01-19 21:35:52.46	336.97	2.94	-54.5	-56.6	6.2	0.00e+00	0	41	104	43612372992	79	19584
2026-01-19 21:35:53.47	337.05	2.87	-54.4	-56.6	6.2	0.00e+00	0	41	104	43612372992	79	19564
2026-01-19 21:35:54.48	337.13	2.81	-54.4	-56.6	6.2	0.00e+00	0	41	104	43612372992	79	19581
2026-01-19 21:35:55.49	337.21	2.74	-54.4	-56.6	6.2	0.00e+00	0	42	104	43612372992	79	19530
2026-01-19 21:35:56.49	337.29	2.68	-54.4	-56.6	6.2	0.00e+00	0	41	104	43612372992	79	19517
2026-01-19 21:35:57.50	337.37	2.61	-54.4	-56.6	6.2	0.00e+00	0	41	104	43612372992	79	19615
2026-01-19 21:35:58.51	337.45	2.55	-54.4	-56.6	6.2	0.00e+00	0	41	104	43612372992	79	19552
2026-01-19 21:35:59.52	337.53	2.48	-54.4	-56.6	6.2	0.00e+00	0	41	104	43612372992	79	19520
2026-01-19 21:36:00.52	337.61	2.42	-54.4	-56.6	6.2	0.00e+00	0	41	104	43612372992	79	19569
2026-01-19 21:36:01.53	337.68	2.36	-54.4	-56.5	6.2	0.00e+00	0	41	104	43612372992	79	19443
2026-01-19 21:36:02.53	337.76	2.29	-54.4	-56.5	6.2	0.00e+00	0	42	104	43612372992	79	19426
2026-01-19 21:36:03.54	337.84	2.23	-54.4	-56.5	6.2	0.00e+00	0	41	104	43612372992	79	19466
2026-01-19 21:36:04.55	337.91	2.16	-54.4	-56.6	6.2	0.00e+00	0	41	104	43612372992	79	19501
2026-01-19 21:36:05.56	337.99	2.10	-54.4	-56.5	6.2	0.00e+00	0	41	104	43612372992	79	19381
2026-01-19 21:36:06.57	338.06	2.04	-54.4	-56.5	6.2	0.00e+00	0	41	104	43612372992	79	19436
2026-01-19 21:36:07.58	338.14	1.98	-54.4	-56.5	6.2	0.00e+00	0	41	104	43612372992	79	19459
2026-01-19 21:36:08.58	338.21	1.91	-54.4	-56.5	6.2	0.00e+00	0	41	104	43612372992	79	19350

#Closed at: 2026-01-19 21:36:09
#Recorded file [43612 MB]: D:/lorett/data/31041_260120_002549.dat