passes_logs/2026/01/19/R3.2S_Murmansk/R3.2S_Murmansk__20260119_095342_SUOMI_NPP_rec.log

#Pass ID: 20260119_095342_SUOMI NPP
#Satellite: SUOMI NPP
#Configuration: NPP
#almurnet v.1.7.20251203
#Start time: 2026-01-19 09:53:42

#Version: 2.2.20231116
#Station: R3.2S_Murmansk
#Location: 33.079688 lon 68.888172 lat
#TLE: 1 37849U 11061A   26018.91022273  .00000066  00000+0  52264-4 0  9997
#TLE: 2 37849  98.7816 320.9252 0002364  56.8129 303.3273 14.19526186737260

#Time	Az	El	Level	Level2	SNR	BER	BlckErr	Temp	State	Recorded	gain1	gain2
2026-01-19 09:53:42.32	158.81	2.01	-52.4	-67.4	3.8	1.49e+00	0	36	0	0	76	20134
2026-01-19 09:53:43.30	158.82	2.07	-52.4	-67.4	3.8	1.49e+00	0	36	104	0	75	21389
2026-01-19 09:53:44.27	158.84	2.13	-52.4	-67.4	3.8	1.49e+00	0	36	104	0	75	21363
2026-01-19 09:53:45.24	158.85	2.20	-52.4	-67.4	3.8	1.49e+00	0	36	104	0	75	21272
2026-01-19 09:53:46.21	158.86	2.26	-52.4	-67.4	3.8	1.49e+00	0	36	104	0	75	21279
2026-01-19 09:53:47.19	158.87	2.32	-52.4	-67.3	3.8	1.49e+00	0	36	104	0	75	21251
2026-01-19 09:53:48.16	158.88	2.39	-52.4	-67.3	3.8	1.49e+00	0	36	104	0	75	21219
2026-01-19 09:53:49.13	158.89	2.45	-52.4	-67.3	3.8	1.49e+00	0	36	104	0	75	21190
2026-01-19 09:53:50.10	158.90	2.51	-52.4	-67.3	3.8	1.49e+00	0	36	104	0	75	21122
2026-01-19 09:53:51.07	158.91	2.58	-52.4	-67.2	3.8	1.49e+00	0	36	104	0	75	20929
2026-01-19 09:53:52.05	158.92	2.64	-52.4	-67.2	3.8	1.49e+00	0	36	104	0	75	20973
2026-01-19 09:53:53.02	158.93	2.70	-52.4	-67.3	3.8	1.49e+00	0	36	104	0	75	21053
2026-01-19 09:53:53.99	158.94	2.77	-52.4	-67.2	3.8	1.49e+00	0	36	104	0	75	20961
2026-01-19 09:53:54.96	158.96	2.83	-52.4	-67.2	3.8	1.49e+00	0	36	104	0	75	20839
2026-01-19 09:53:55.93	158.97	2.90	-52.4	-67.2	3.8	1.49e+00	0	36	104	0	75	20980
2026-01-19 09:53:56.90	158.98	2.96	-52.4	-67.3	3.8	1.49e+00	0	37	104	0	75	21087
2026-01-19 09:53:57.88	158.99	3.02	-52.4	-67.3	3.8	1.49e+00	0	37	104	0	75	21094
2026-01-19 09:53:58.85	159.00	3.09	-52.4	-67.3	3.8	1.49e+00	0	37	104	0	75	21160
2026-01-19 09:53:59.82	159.01	3.15	-52.4	-67.3	3.8	1.49e+00	0	37	104	0	75	21095
2026-01-19 09:54:00.79	159.02	3.22	-52.4	-67.3	3.8	1.49e+00	0	36	104	0	75	21031
2026-01-19 09:54:01.76	159.03	3.28	-52.4	-67.2	3.8	1.49e+00	0	37	104	0	75	20958
2026-01-19 09:54:02.73	159.05	3.35	-52.4	-67.0	3.8	1.49e+00	0	37	104	0	75	20521
2026-01-19 09:54:03.71	159.06	3.41	-52.4	-66.9	3.8	1.49e+00	0	37	104	0	75	20113
2026-01-19 09:54:04.68	159.07	3.48	-52.4	-66.5	3.8	1.49e+00	0	36	104	0	75	19358
2026-01-19 09:54:05.65	159.08	3.55	-52.3	-65.6	3.8	1.49e+00	0	37	104	0	75	17301
2026-01-19 09:54:06.61	159.09	3.61	-52.3	-65.3	3.8	1.49e+00	0	37	104	0	75	16846
2026-01-19 09:54:07.58	159.10	3.68	-52.2	-64.3	4.1	1.46e+00	0	37	104	0	75	14949
2026-01-19 09:54:08.55	159.11	3.74	-52.2	-64.3	4.1	1.45e+00	0	37	0	0	75	14989
2026-01-19 09:54:09.52	159.13	3.81	-52.1	-63.1	4.4	1.37e+00	161	37	0	0	75	13087
2026-01-19 09:54:10.49	159.14	3.88	-52.1	-62.8	4.5	1.25e+00	3	37	0	1048576	75	12604
2026-01-19 09:54:11.46	159.15	3.94	-52.1	-62.4	4.7	9.96e-01	0	37	0	3145728	75	12030
2026-01-19 09:54:12.43	159.16	4.01	-52.0	-61.6	5.1	7.43e-01	0	37	0	5242880	75	11003
2026-01-19 09:54:13.40	159.17	4.08	-51.9	-61.2	5.3	6.21e-01	0	37	0	7340032	75	10481
2026-01-19 09:54:14.37	159.19	4.14	-51.9	-60.6	5.7	5.13e-01	0	37	0	8388608	75	9775
2026-01-19 09:54:15.35	159.20	4.21	-51.8	-60.2	6.0	3.12e-01	0	37	0	10485760	75	9340
2026-01-19 09:54:16.32	159.21	4.28	-51.6	-58.9	7.2	1.78e-01	0	37	0	12582912	74	8476
2026-01-19 09:54:17.29	159.22	4.35	-51.5	-58.5	7.5	1.24e-01	0	37	0	14680064	74	8146
2026-01-19 09:54:18.26	159.23	4.41	-51.3	-57.9	8.1	7.34e-02	0	37	0	15728640	74	7591
2026-01-19 09:54:19.24	159.25	4.48	-51.1	-57.2	8.8	3.80e-02	0	37	0	17825792	74	6985
2026-01-19 09:54:20.21	159.26	4.55	-50.9	-56.4	9.6	1.14e-02	0	37	0	19922944	73	6793
2026-01-19 09:54:21.17	159.27	4.62	-50.5	-55.3	10.8	3.04e-03	0	37	0	20971520	72	6306
2026-01-19 09:54:22.14	159.28	4.69	-50.3	-54.7	11.4	3.07e-03	0	37	0	23068672	72	5916
2026-01-19 09:54:23.11	159.29	4.75	-50.2	-54.4	11.9	3.33e-04	0	37	0	25165824	71	5996
2026-01-19 09:54:24.09	159.31	4.82	-49.9	-53.7	12.5	3.11e-04	0	37	0	27262976	71	5583
2026-01-19 09:54:25.06	159.32	4.89	-50.0	-53.9	12.3	1.98e-04	0	37	0	28311552	71	5712
2026-01-19 09:54:26.03	159.33	4.96	-49.7	-53.5	12.9	1.90e-05	0	37	0	30408704	71	5403
2026-01-19 09:54:27.00	159.34	5.03	-49.8	-53.5	12.7	6.94e-05	0	37	0	32505856	71	5464
2026-01-19 09:54:27.96	159.36	5.10	-50.3	-54.4	11.9	3.05e-05	0	37	0	34603008	71	6057
2026-01-19 09:54:28.94	159.37	5.17	-51.1	-56.7	9.6	4.09e-03	0	37	0	35651584	72	7452
2026-01-19 09:54:29.91	159.38	5.24	-50.9	-56.3	9.9	2.78e-04	0	37	0	37748736	72	7109
2026-01-19 09:54:30.88	159.39	5.31	-50.7	-55.9	10.2	1.49e-02	0	37	0	39845888	72	6752
2026-01-19 09:54:31.85	159.41	5.38	-50.9	-56.3	10.0	1.61e-03	0	37	0	41943040	72	7109
2026-01-19 09:54:32.82	159.42	5.45	-49.8	-53.5	12.8	1.49e-03	0	37	0	42991616	71	5403
2026-01-19 09:54:33.79	159.43	5.52	-49.7	-53.3	13.0	4.57e-05	0	37	0	45088768	71	5302
2026-01-19 09:54:34.76	159.44	5.59	-49.9	-53.7	12.7	3.05e-05	0	37	0	47185920	71	5560
2026-01-19 09:54:35.73	159.46	5.66	-49.7	-53.3	13.0	2.21e-05	0	37	0	49283072	71	5329
2026-01-19 09:54:36.71	159.47	5.73	-49.7	-53.2	13.1	6.71e-05	0	37	0	50331648	71	5274
2026-01-19 09:54:37.68	159.48	5.81	-49.8	-53.3	13.1	1.60e-05	0	37	0	52428800	70	5654
2026-01-19 09:54:38.65	159.49	5.88	-49.7	-53.3	13.2	1.52e-05	0	37	0	54525952	70	5614
2026-01-19 09:54:39.62	159.51	5.95	-49.6	-53.0	13.5	1.90e-05	0	37	0	56623104	70	5423
2026-01-19 09:54:40.59	159.52	6.02	-49.4	-52.5	14.0	9.10e-06	0	37	0	57671680	70	5136
2026-01-19 09:54:41.56	159.53	6.09	-49.4	-52.5	14.0	4.50e-06	0	37	0	59768832	70	5144
2026-01-19 09:54:42.53	159.55	6.17	-49.5	-52.7	13.8	7.00e-07	0	37	0	61865984	70	5268
2026-01-19 09:54:43.50	159.56	6.24	-49.6	-53.0	13.5	6.80e-06	0	37	0	62914560	70	5440
2026-01-19 09:54:44.48	159.57	6.31	-49.5	-52.7	13.8	3.80e-06	0	37	0	65011712	70	5277
2026-01-19 09:54:45.45	159.59	6.38	-49.5	-52.7	13.9	3.80e-06	0	37	0	67108864	70	5236
2026-01-19 09:54:46.43	159.60	6.46	-49.6	-52.9	13.7	5.30e-06	0	37	0	69206016	70	5358
2026-01-19 09:54:47.40	159.61	6.53	-49.4	-52.6	13.9	1.50e-06	0	37	0	70254592	70	5203
2026-01-19 09:54:48.37	159.63	6.61	-49.5	-52.7	13.9	3.00e-06	0	37	0	72351744	70	5262
2026-01-19 09:54:49.34	159.64	6.68	-49.6	-52.9	13.7	4.50e-06	0	37	0	74448896	70	5341
2026-01-19 09:54:50.31	159.65	6.75	-49.4	-52.6	14.0	7.00e-07	0	37	0	76546048	70	5166
2026-01-19 09:54:51.28	159.67	6.83	-49.3	-52.3	14.4	0.00e+00	0	37	0	77594624	70	4991
2026-01-19 09:54:52.25	159.68	6.90	-49.4	-52.5	14.2	2.20e-06	0	37	0	79691776	70	5107
2026-01-19 09:54:53.23	159.69	6.98	-49.2	-52.2	14.4	7.00e-07	0	38	0	81788928	70	4947
2026-01-19 09:54:54.20	159.71	7.05	-49.1	-51.9	14.7	0.00e+00	0	37	0	82837504	70	4812
2026-01-19 09:54:55.17	159.72	7.13	-49.2	-52.1	14.6	0.00e+00	0	37	0	84934656	70	4912
2026-01-19 09:54:56.14	159.74	7.20	-49.1	-51.9	14.8	0.00e+00	0	37	0	87031808	70	4778
2026-01-19 09:54:57.11	159.75	7.28	-49.2	-52.1	14.6	7.00e-07	0	37	0	89128960	70	4920
2026-01-19 09:54:58.08	159.76	7.35	-49.2	-52.0	14.7	0.00e+00	0	37	0	90177536	70	4855
2026-01-19 09:54:59.06	159.78	7.43	-49.2	-52.0	14.7	0.00e+00	0	37	0	92274688	70	4865
2026-01-19 09:55:00.03	159.79	7.51	-49.0	-51.8	14.9	0.00e+00	0	38	0	94371840	70	4731
2026-01-19 09:55:01.01	159.81	7.58	-49.0	-51.8	14.9	0.00e+00	0	37	0	96468992	70	4734
2026-01-19 09:55:01.98	159.82	7.66	-49.1	-51.9	14.9	0.00e+00	0	37	0	97517568	69	5054
2026-01-19 09:55:02.95	159.83	7.74	-49.1	-51.9	14.8	7.00e-07	0	38	0	99614720	69	5043
2026-01-19 09:55:03.92	159.85	7.81	-48.9	-51.5	15.2	0.00e+00	0	37	0	101711872	69	4842
2026-01-19 09:55:04.89	159.86	7.89	-48.9	-51.6	15.1	0.00e+00	0	38	0	103809024	69	4906
2026-01-19 09:55:05.87	159.88	7.97	-48.9	-51.6	15.2	0.00e+00	0	37	0	104857600	69	4884
2026-01-19 09:55:06.84	159.89	8.05	-48.8	-51.4	15.4	7.00e-07	0	37	0	106954752	69	4778
2026-01-19 09:55:07.80	159.91	8.13	-48.9	-51.6	15.2	0.00e+00	0	37	0	109051904	69	4883
2026-01-19 09:55:08.77	159.92	8.20	-48.9	-51.5	15.3	0.00e+00	0	37	0	111149056	69	4825
2026-01-19 09:55:09.74	159.94	8.28	-48.8	-51.4	15.4	0.00e+00	0	38	0	112197632	69	4806
2026-01-19 09:55:10.71	159.95	8.36	-48.7	-51.2	15.6	0.00e+00	0	38	0	114294784	69	4684
2026-01-19 09:55:11.68	159.96	8.44	-48.7	-51.2	15.6	0.00e+00	0	38	0	116391936	69	4680
2026-01-19 09:55:12.65	159.98	8.52	-48.6	-51.1	15.7	0.00e+00	0	38	0	118489088	69	4643
2026-01-19 09:55:13.62	159.99	8.60	-48.7	-51.1	15.7	0.00e+00	0	37	0	119537664	69	4649
2026-01-19 09:55:14.59	160.01	8.68	-48.6	-51.1	15.7	0.00e+00	0	38	0	121634816	69	4633
2026-01-19 09:55:15.55	160.02	8.76	-48.7	-51.2	15.6	0.00e+00	0	38	0	123731968	69	4673
2026-01-19 09:55:16.52	160.04	8.84	-48.7	-51.1	15.7	0.00e+00	0	38	0	125829120	69	4643
2026-01-19 09:55:17.49	160.05	8.92	-48.6	-51.0	15.8	0.00e+00	0	38	0	126877696	69	4580
2026-01-19 09:55:18.45	160.07	9.00	-48.5	-50.9	16.0	0.00e+00	0	38	0	128974848	69	4518
2026-01-19 09:55:19.43	160.08	9.08	-48.5	-50.9	15.9	0.00e+00	0	38	0	131072000	69	4524
2026-01-19 09:55:20.40	160.10	9.16	-48.6	-51.0	15.8	0.00e+00	0	38	0	132120576	69	4589
2026-01-19 09:55:21.37	160.12	9.24	-48.5	-50.9	16.0	0.00e+00	0	38	0	134217728	68	4775
2026-01-19 09:55:22.35	160.13	9.33	-48.4	-50.8	16.1	0.00e+00	0	38	0	136314880	68	4714
2026-01-19 09:55:23.32	160.15	9.41	-48.4	-50.7	16.1	0.00e+00	0	38	0	138412032	68	4696
2026-01-19 09:55:24.29	160.16	9.49	-48.6	-51.0	16.0	0.00e+00	0	38	0	139460608	68	4822
2026-01-19 09:55:25.26	160.18	9.57	-48.4	-50.7	16.2	0.00e+00	0	37	0	141557760	68	4669
2026-01-19 09:55:26.23	160.19	9.66	-48.4	-50.7	16.2	0.00e+00	0	38	0	143654912	68	4701
2026-01-19 09:55:27.20	160.21	9.74	-48.3	-50.6	16.3	0.00e+00	0	38	0	145752064	68	4600
2026-01-19 09:55:28.17	160.22	9.82	-48.3	-50.6	16.3	0.00e+00	0	38	0	146800640	68	4650
2026-01-19 09:55:29.14	160.24	9.91	-48.2	-50.4	16.5	0.00e+00	0	38	0	148897792	68	4543
2026-01-19 09:55:30.11	160.26	9.99	-48.2	-50.4	16.6	0.00e+00	0	38	0	150994944	68	4519
2026-01-19 09:55:31.08	160.27	10.08	-48.2	-50.4	16.6	0.00e+00	0	38	0	152043520	68	4504
2026-01-19 09:55:32.05	160.29	10.16	-48.0	-50.2	16.7	0.00e+00	0	38	0	154140672	68	4399
2026-01-19 09:55:33.03	160.31	10.25	-48.0	-50.1	16.7	0.00e+00	0	38	0	156237824	67	4629
2026-01-19 09:55:34.00	160.32	10.33	-47.8	-49.9	17.0	0.00e+00	0	38	0	158334976	67	4501
2026-01-19 09:55:34.97	160.34	10.42	-48.0	-50.1	16.7	0.00e+00	0	38	0	159383552	67	4631
2026-01-19 09:55:35.95	160.35	10.50	-47.9	-50.0	16.9	0.00e+00	0	38	0	161480704	67	4553
2026-01-19 09:55:36.92	160.37	10.59	-47.6	-49.6	17.2	0.00e+00	0	38	0	163577856	67	4369
2026-01-19 09:55:37.89	160.39	10.68	-47.7	-49.7	17.1	0.00e+00	0	38	0	165675008	67	4430
2026-01-19 09:55:38.86	160.40	10.76	-47.7	-49.8	17.1	0.00e+00	0	38	0	166723584	67	4444
2026-01-19 09:55:39.83	160.42	10.85	-47.8	-49.8	17.1	0.00e+00	0	38	0	168820736	67	4468
2026-01-19 09:55:40.79	160.44	10.94	-47.7	-49.7	17.2	0.00e+00	0	38	0	170917888	67	4413
2026-01-19 09:55:41.76	160.45	11.02	-47.7	-49.7	17.2	0.00e+00	0	38	0	173015040	67	4420
2026-01-19 09:55:42.73	160.47	11.11	-47.8	-49.8	17.1	0.00e+00	0	38	0	174063616	67	4473
2026-01-19 09:55:43.71	160.49	11.20	-47.6	-49.5	17.3	0.00e+00	0	38	0	176160768	67	4340
2026-01-19 09:55:44.68	160.51	11.29	-47.6	-49.6	17.3	0.00e+00	0	38	0	178257920	67	4352
2026-01-19 09:55:45.66	160.52	11.38	-47.7	-49.7	17.2	0.00e+00	0	38	0	180355072	66	4653
2026-01-19 09:55:46.63	160.54	11.47	-47.8	-49.9	17.0	0.00e+00	0	38	0	181403648	66	4777
2026-01-19 09:55:47.60	160.56	11.56	-47.6	-49.6	17.3	0.00e+00	0	38	0	183500800	66	4629
2026-01-19 09:55:48.57	160.58	11.65	-47.6	-49.6	17.3	0.00e+00	0	38	0	185597952	66	4623
2026-01-19 09:55:49.55	160.59	11.74	-47.5	-49.4	17.4	0.00e+00	0	38	0	187695104	66	4538
2026-01-19 09:55:50.52	160.61	11.83	-47.4	-49.3	17.6	0.00e+00	0	38	0	188743680	66	4479
2026-01-19 09:55:51.49	160.63	11.92	-47.4	-49.3	17.6	0.00e+00	0	38	0	190840832	66	4458
2026-01-19 09:55:52.46	160.65	12.01	-47.4	-49.4	17.6	0.00e+00	0	38	0	192937984	66	4499
2026-01-19 09:55:53.44	160.67	12.11	-47.4	-49.2	17.7	0.00e+00	0	38	0	195035136	66	4434
2026-01-19 09:55:54.41	160.68	12.20	-47.3	-49.2	17.7	0.00e+00	0	38	0	196083712	66	4422
2026-01-19 09:55:55.39	160.70	12.29	-47.2	-49.0	17.9	0.00e+00	0	38	0	198180864	66	4330
2026-01-19 09:55:56.36	160.72	12.38	-47.1	-48.9	18.0	0.00e+00	0	38	0	200278016	65	4502
2026-01-19 09:55:57.33	160.74	12.48	-47.1	-48.9	18.0	0.00e+00	0	38	0	202375168	65	4527
2026-01-19 09:55:58.30	160.76	12.57	-47.0	-48.8	18.1	0.00e+00	0	38	0	203423744	65	4454
2026-01-19 09:55:59.28	160.78	12.66	-46.9	-48.6	18.3	0.00e+00	0	38	0	205520896	65	4354
2026-01-19 09:56:00.25	160.79	12.76	-47.0	-48.7	18.2	0.00e+00	0	38	0	207618048	65	4424
2026-01-19 09:56:01.22	160.81	12.85	-46.9	-48.6	18.3	0.00e+00	0	38	0	208666624	65	4383
2026-01-19 09:56:02.19	160.83	12.95	-46.9	-48.6	18.4	0.00e+00	0	38	0	210763776	65	4343
2026-01-19 09:56:03.16	160.85	13.04	-46.6	-48.2	18.6	0.00e+00	0	38	0	212860928	65	4192
2026-01-19 09:56:04.14	160.87	13.14	-46.6	-48.2	18.7	0.00e+00	0	38	0	214958080	65	4182
2026-01-19 09:56:05.11	160.89	13.24	-46.6	-48.2	18.7	0.00e+00	0	38	0	216006656	65	4170
2026-01-19 09:56:06.08	160.91	13.33	-46.6	-48.3	18.6	0.00e+00	0	38	0	218103808	65	4199
2026-01-19 09:56:07.05	160.93	13.43	-46.6	-48.2	18.7	0.00e+00	0	38	0	220200960	64	4414
2026-01-19 09:56:08.02	160.95	13.53	-46.5	-48.1	18.8	0.00e+00	0	38	0	222298112	64	4365
2026-01-19 09:56:08.99	160.97	13.62	-46.6	-48.2	18.7	0.00e+00	0	38	0	223346688	64	4416
2026-01-19 09:56:09.96	160.99	13.72	-46.4	-48.0	18.9	0.00e+00	0	38	0	225443840	64	4294
2026-01-19 09:56:10.93	161.01	13.82	-46.4	-48.0	18.8	0.00e+00	0	38	0	227540992	64	4326
2026-01-19 09:56:11.90	161.03	13.92	-46.3	-47.9	19.0	0.00e+00	0	38	0	228589568	64	4249
2026-01-19 09:56:12.87	161.05	14.02	-46.4	-47.9	19.0	0.00e+00	0	38	0	230686720	64	4270
2026-01-19 09:56:13.84	161.07	14.12	-46.3	-47.9	19.0	0.00e+00	0	38	0	232783872	64	4253
2026-01-19 09:56:14.81	161.09	14.22	-46.3	-47.9	19.0	0.00e+00	0	38	0	234881024	64	4248
2026-01-19 09:56:15.79	161.11	14.32	-46.4	-47.9	19.0	0.00e+00	0	38	0	235929600	64	4271
2026-01-19 09:56:16.76	161.13	14.42	-46.3	-47.9	19.1	0.00e+00	0	38	0	238026752	64	4249
2026-01-19 09:56:17.73	161.15	14.52	-46.2	-47.7	19.2	0.00e+00	0	38	0	240123904	64	4175
2026-01-19 09:56:18.70	161.17	14.62	-46.4	-47.9	19.0	0.00e+00	0	38	0	242221056	64	4290
2026-01-19 09:56:19.68	161.19	14.72	-46.3	-47.8	19.1	0.00e+00	0	38	0	243269632	64	4214
2026-01-19 09:56:20.65	161.21	14.83	-46.3	-47.8	19.2	0.00e+00	0	38	0	245366784	64	4197
2026-01-19 09:56:21.62	161.23	14.93	-46.3	-47.8	19.1	0.00e+00	0	38	0	247463936	64	4228
2026-01-19 09:56:22.59	161.25	15.03	-46.3	-47.8	19.2	0.00e+00	0	38	0	249561088	64	4199
2026-01-19 09:56:23.56	161.27	15.14	-46.5	-48.0	19.0	0.00e+00	0	38	0	250609664	64	4332
2026-01-19 09:56:24.53	161.29	15.24	-46.4	-47.9	19.0	0.00e+00	0	38	0	252706816	64	4287
2026-01-19 09:56:25.50	161.32	15.34	-46.2	-47.7	19.3	0.00e+00	0	38	0	254803968	64	4154
2026-01-19 09:56:26.47	161.34	15.45	-46.3	-47.8	19.1	0.00e+00	0	38	0	256901120	64	4227
2026-01-19 09:56:27.45	161.36	15.56	-46.3	-47.8	19.2	0.00e+00	0	38	0	257949696	64	4200
2026-01-19 09:56:28.42	161.38	15.66	-46.2	-47.7	19.2	0.00e+00	0	38	0	260046848	64	4185
2026-01-19 09:56:29.39	161.40	15.77	-46.1	-47.6	19.3	0.00e+00	0	38	0	262144000	64	4116
2026-01-19 09:56:30.36	161.42	15.88	-46.3	-47.8	19.2	0.00e+00	0	38	0	264241152	63	4484
2026-01-19 09:56:31.33	161.45	15.98	-46.3	-47.7	19.3	0.00e+00	0	38	0	265289728	63	4437
2026-01-19 09:56:32.30	161.47	16.09	-46.2	-47.6	19.4	0.00e+00	0	38	0	267386880	63	4388
2026-01-19 09:56:33.27	161.49	16.20	-46.2	-47.6	19.4	0.00e+00	0	38	0	269484032	63	4375
2026-01-19 09:56:34.24	161.51	16.31	-46.2	-47.7	19.4	0.00e+00	0	38	0	270532608	63	4420
2026-01-19 09:56:35.22	161.54	16.42	-46.2	-47.6	19.4	0.00e+00	0	38	0	272629760	63	4377
2026-01-19 09:56:36.18	161.56	16.53	-46.0	-47.5	19.6	0.00e+00	0	38	0	274726912	63	4298
2026-01-19 09:56:37.15	161.58	16.64	-46.2	-47.7	19.4	0.00e+00	0	38	0	276824064	63	4419
2026-01-19 09:56:38.13	161.61	16.75	-46.2	-47.6	19.5	0.00e+00	0	38	0	277872640	63	4370
2026-01-19 09:56:39.10	161.63	16.86	-46.1	-47.5	19.6	0.00e+00	0	38	0	279969792	63	4309
2026-01-19 09:56:40.07	161.65	16.97	-45.9	-47.3	19.8	0.00e+00	0	38	0	282066944	63	4206
2026-01-19 09:56:41.04	161.68	17.08	-46.1	-47.5	19.6	0.00e+00	0	38	0	284164096	63	4315
2026-01-19 09:56:42.02	161.70	17.20	-46.1	-47.5	19.6	0.00e+00	0	38	0	285212672	63	4322
2026-01-19 09:56:42.99	161.73	17.31	-46.0	-47.4	19.6	0.00e+00	0	38	0	287309824	63	4286
2026-01-19 09:56:43.97	161.75	17.43	-46.2	-47.7	19.4	0.00e+00	0	38	0	289406976	63	4406
2026-01-19 09:56:44.94	161.77	17.54	-46.2	-47.7	19.4	0.00e+00	0	38	0	291504128	63	4422
2026-01-19 09:56:45.91	161.80	17.66	-46.3	-47.8	19.3	0.00e+00	0	38	0	292552704	63	4471
2026-01-19 09:56:46.88	161.82	17.77	-46.3	-47.8	19.3	0.00e+00	0	38	0	294649856	63	4485
2026-01-19 09:56:47.85	161.85	17.89	-46.4	-47.9	19.2	0.00e+00	0	38	0	296747008	63	4539
2026-01-19 09:56:48.82	161.87	18.00	-46.4	-47.9	19.2	0.00e+00	0	38	0	298844160	63	4511
2026-01-19 09:56:49.79	161.90	18.12	-46.6	-48.1	19.0	0.00e+00	0	38	0	299892736	63	4643
2026-01-19 09:56:50.77	161.92	18.24	-46.7	-48.2	18.9	0.00e+00	0	38	0	301989888	63	4705
2026-01-19 09:56:51.74	161.95	18.36	-46.6	-48.2	18.9	0.00e+00	0	38	0	304087040	64	4393
2026-01-19 09:56:52.71	161.97	18.48	-46.4	-48.0	19.1	0.00e+00	0	38	0	305135616	64	4301
2026-01-19 09:56:53.68	162.00	18.60	-46.6	-48.2	18.9	0.00e+00	0	38	0	307232768	64	4403
2026-01-19 09:56:54.65	162.03	18.72	-46.7	-48.3	18.7	0.00e+00	0	38	0	309329920	64	4493
2026-01-19 09:56:55.62	162.05	18.84	-46.8	-48.4	18.7	0.00e+00	0	38	0	311427072	64	4515
2026-01-19 09:56:56.59	162.08	18.96	-46.8	-48.5	18.7	0.00e+00	0	38	0	312475648	64	4549
2026-01-19 09:56:57.56	162.11	19.08	-46.7	-48.3	18.7	0.00e+00	0	38	0	314572800	64	4472
2026-01-19 09:56:58.53	162.13	19.20	-46.9	-48.6	18.6	0.00e+00	0	38	0	316669952	64	4607
2026-01-19 09:56:59.51	162.16	19.32	-46.9	-48.6	18.5	0.00e+00	0	38	0	318767104	64	4631
2026-01-19 09:57:00.48	162.19	19.45	-46.9	-48.5	18.6	0.00e+00	0	38	0	319815680	64	4575
2026-01-19 09:57:01.45	162.21	19.57	-46.8	-48.5	18.6	0.00e+00	0	38	0	321912832	64	4550
2026-01-19 09:57:02.42	162.24	19.70	-46.8	-48.5	18.7	0.00e+00	0	38	0	324009984	64	4558
2026-01-19 09:57:03.39	162.27	19.82	-47.1	-48.8	18.3	0.00e+00	0	38	0	326107136	64	4747
2026-01-19 09:57:04.36	162.30	19.95	-47.1	-48.9	18.3	0.00e+00	0	38	0	327155712	64	4761
2026-01-19 09:57:05.33	162.32	20.07	-47.1	-48.9	18.2	0.00e+00	0	38	0	329252864	65	4501
2026-01-19 09:57:06.30	162.35	20.20	-47.2	-48.9	18.2	0.00e+00	0	38	0	331350016	65	4517
2026-01-19 09:57:07.27	162.38	20.33	-47.3	-49.1	18.1	0.00e+00	0	38	0	332398592	65	4616
2026-01-19 09:57:08.24	162.41	20.46	-47.4	-49.2	18.0	0.00e+00	0	38	0	334495744	65	4679
2026-01-19 09:57:09.21	162.44	20.59	-47.5	-49.3	17.9	0.00e+00	0	38	0	336592896	65	4739
2026-01-19 09:57:10.18	162.47	20.72	-47.7	-49.7	17.6	0.00e+00	0	38	0	338690048	66	4663
2026-01-19 09:57:11.15	162.50	20.85	-47.9	-49.8	17.4	0.00e+00	0	38	0	339738624	66	4749
2026-01-19 09:57:12.13	162.53	20.98	-47.9	-49.9	17.4	0.00e+00	0	38	0	341835776	66	4773
2026-01-19 09:57:13.10	162.56	21.11	-47.9	-49.8	17.4	0.00e+00	0	38	0	343932928	66	4756
2026-01-19 09:57:14.08	162.59	21.25	-47.9	-49.9	17.3	0.00e+00	0	38	0	346030080	66	4790
2026-01-19 09:57:15.04	162.62	21.38	-47.8	-49.7	17.5	0.00e+00	0	38	0	347078656	66	4697
2026-01-19 09:57:16.01	162.65	21.51	-48.0	-50.0	17.2	0.00e+00	0	38	0	349175808	66	4837
2026-01-19 09:57:16.99	162.68	21.65	-47.9	-49.8	17.5	0.00e+00	0	38	0	351272960	66	4744
2026-01-19 09:57:17.96	162.71	21.78	-47.8	-49.8	17.5	0.00e+00	0	38	0	353370112	66	4718
2026-01-19 09:57:18.93	162.74	21.92	-47.9	-49.8	17.4	0.00e+00	0	38	0	354418688	66	4751
2026-01-19 09:57:19.90	162.77	22.06	-47.8	-49.7	17.5	0.00e+00	0	38	0	356515840	66	4669
2026-01-19 09:57:20.87	162.80	22.19	-47.8	-49.7	17.5	0.00e+00	0	38	0	358612992	66	4684
2026-01-19 09:57:21.84	162.84	22.33	-48.0	-49.9	17.3	0.00e+00	0	38	0	360710144	66	4793
2026-01-19 09:57:22.80	162.87	22.47	-48.0	-49.9	17.4	0.00e+00	0	38	0	361758720	66	4795
2026-01-19 09:57:23.77	162.90	22.61	-47.8	-49.8	17.5	0.00e+00	0	38	0	363855872	66	4712
2026-01-19 09:57:24.75	162.93	22.75	-47.9	-49.9	17.4	0.00e+00	0	38	0	365953024	66	4770
2026-01-19 09:57:25.72	162.96	22.89	-48.1	-50.0	17.2	0.00e+00	0	38	0	368050176	67	4595
2026-01-19 09:57:26.69	163.00	23.04	-48.1	-50.1	17.1	0.00e+00	0	38	0	369098752	67	4646
2026-01-19 09:57:27.66	163.03	23.18	-48.2	-50.2	17.0	0.00e+00	0	38	0	371195904	67	4702
2026-01-19 09:57:28.63	163.07	23.32	-48.1	-50.1	17.1	0.00e+00	0	38	0	373293056	67	4634
2026-01-19 09:57:29.61	163.10	23.47	-48.3	-50.3	17.0	0.00e+00	0	38	0	374341632	67	4754
2026-01-19 09:57:30.58	163.13	23.61	-48.3	-50.5	16.8	0.00e+00	0	38	0	376438784	67	4817
2026-01-19 09:57:31.55	163.17	23.76	-48.2	-50.2	17.1	0.00e+00	0	38	0	378535936	67	4663
2026-01-19 09:57:32.53	163.20	23.91	-48.0	-50.0	17.3	0.00e+00	0	38	0	380633088	67	4574
2026-01-19 09:57:33.49	163.24	24.05	-48.2	-50.2	17.1	0.00e+00	0	38	0	381681664	67	4675
2026-01-19 09:57:34.46	163.27	24.20	-48.1	-50.1	17.2	0.00e+00	0	38	0	383778816	67	4604
2026-01-19 09:57:35.43	163.31	24.35	-47.9	-49.8	17.5	0.00e+00	0	38	0	385875968	67	4474
2026-01-19 09:57:36.41	163.35	24.50	-47.7	-49.6	17.7	0.00e+00	0	38	0	387973120	67	4362
2026-01-19 09:57:37.38	163.38	24.65	-47.6	-49.4	17.9	0.00e+00	0	38	0	389021696	67	4245
2026-01-19 09:57:38.35	163.42	24.81	-48.0	-49.9	17.4	0.00e+00	0	38	0	391118848	67	4530
2026-01-19 09:57:39.32	163.46	24.96	-47.7	-49.5	17.7	0.00e+00	0	38	0	393216000	67	4320
2026-01-19 09:57:40.30	163.49	25.11	-47.8	-49.6	17.7	0.00e+00	0	38	0	395313152	67	4365
2026-01-19 09:57:41.26	163.53	25.27	-47.8	-49.7	17.6	0.00e+00	0	38	0	396361728	67	4414
2026-01-19 09:57:42.24	163.57	25.42	-47.6	-49.4	17.9	0.00e+00	0	38	0	398458880	67	4246
2026-01-19 09:57:43.21	163.61	25.58	-47.4	-49.1	18.1	0.00e+00	0	38	0	400556032	66	4351
2026-01-19 09:57:44.17	163.65	25.74	-47.4	-49.1	18.1	0.00e+00	0	38	0	401604608	66	4389
2026-01-19 09:57:45.14	163.68	25.89	-47.3	-49.0	18.2	0.00e+00	0	38	0	403701760	66	4302
2026-01-19 09:57:46.12	163.72	26.06	-47.2	-48.8	18.3	0.00e+00	0	38	0	405798912	66	4238
2026-01-19 09:57:47.10	163.76	26.22	-47.2	-48.8	18.4	0.00e+00	0	38	0	407896064	66	4233
2026-01-19 09:57:48.07	163.80	26.38	-47.3	-49.0	18.3	0.00e+00	0	38	0	408944640	66	4305
2026-01-19 09:57:49.04	163.85	26.54	-46.9	-48.5	18.7	0.00e+00	0	38	0	411041792	65	4337
2026-01-19 09:57:50.01	163.89	26.70	-47.2	-48.9	18.3	0.00e+00	0	38	0	413138944	65	4541
2026-01-19 09:57:50.99	163.93	26.87	-47.3	-49.1	18.2	0.00e+00	0	38	0	415236096	65	4602
2026-01-19 09:57:51.97	163.97	27.04	-47.1	-48.7	18.5	0.00e+00	0	38	0	416284672	65	4414
2026-01-19 09:57:52.94	164.01	27.20	-47.6	-49.4	17.9	0.00e+00	0	38	0	418381824	65	4779
2026-01-19 09:57:53.91	164.05	27.37	-47.5	-49.3	17.9	0.00e+00	0	38	0	420478976	65	4744
2026-01-19 09:57:54.88	164.10	27.54	-47.2	-48.9	18.3	0.00e+00	0	38	0	422576128	65	4526
2026-01-19 09:57:55.85	164.14	27.71	-47.6	-49.4	17.9	0.00e+00	0	38	0	423624704	65	4810
2026-01-19 09:57:56.81	164.18	27.87	-47.6	-49.4	17.9	0.00e+00	0	38	0	425721856	65	4775
2026-01-19 09:57:57.79	164.23	28.05	-47.3	-49.0	18.3	0.00e+00	0	38	0	427819008	65	4598
2026-01-19 09:57:58.76	164.27	28.22	-47.3	-49.1	18.2	0.00e+00	0	38	0	429916160	65	4606
2026-01-19 09:57:59.74	164.32	28.39	-47.2	-48.8	18.4	0.00e+00	0	38	0	430964736	65	4489
2026-01-19 09:58:00.71	164.36	28.57	-47.3	-49.0	18.2	0.00e+00	0	38	0	433061888	65	4589
2026-01-19 09:58:01.68	164.41	28.74	-47.2	-48.9	18.4	0.00e+00	0	38	0	435159040	65	4504
2026-01-19 09:58:02.66	164.46	28.92	-47.2	-48.9	18.4	0.00e+00	0	38	0	437256192	65	4526
2026-01-19 09:58:03.63	164.50	29.10	-47.2	-48.8	18.5	0.00e+00	0	38	0	438304768	65	4481
2026-01-19 09:58:04.60	164.55	29.28	-47.3	-49.0	18.3	0.00e+00	0	38	0	440401920	65	4581
2026-01-19 09:58:05.57	164.60	29.46	-47.5	-49.3	18.0	0.00e+00	0	38	0	442499072	65	4754
2026-01-19 09:58:06.54	164.65	29.64	-47.5	-49.2	18.1	0.00e+00	0	38	0	444596224	65	4695
2026-01-19 09:58:07.51	164.69	29.82	-47.4	-49.2	18.1	0.00e+00	0	38	0	445644800	65	4666
2026-01-19 09:58:08.48	164.74	30.00	-47.6	-49.4	17.9	0.00e+00	0	38	0	447741952	66	4511
2026-01-19 09:58:09.45	164.79	30.19	-47.7	-49.5	17.8	0.00e+00	0	38	0	449839104	66	4566
2026-01-19 09:58:10.42	164.84	30.37	-48.0	-49.9	17.5	0.00e+00	0	38	0	451936256	66	4765
2026-01-19 09:58:11.40	164.90	30.56	-47.8	-49.7	17.6	0.00e+00	0	38	0	452984832	66	4682
2026-01-19 09:58:12.37	164.95	30.75	-47.9	-49.8	17.6	0.00e+00	0	38	0	455081984	66	4734
2026-01-19 09:58:13.34	165.00	30.94	-48.2	-50.2	17.2	0.00e+00	0	38	0	457179136	66	4969
2026-01-19 09:58:14.32	165.05	31.13	-48.3	-50.3	17.0	0.00e+00	0	38	0	458227712	67	4737
2026-01-19 09:58:15.28	165.10	31.32	-48.7	-50.9	16.6	0.00e+00	0	38	0	460324864	67	5060
2026-01-19 09:58:16.26	165.16	31.52	-49.0	-51.4	16.1	0.00e+00	0	38	0	462422016	68	5079
2026-01-19 09:58:17.22	165.21	31.71	-49.3	-51.8	15.8	0.00e+00	0	38	0	464519168	69	4996
2026-01-19 09:58:18.19	165.27	31.90	-49.6	-52.3	15.2	0.00e+00	0	38	0	465567744	70	4996
2026-01-19 09:58:19.17	165.32	32.10	-50.0	-53.0	14.6	0.00e+00	0	38	0	467664896	70	5414
2026-01-19 09:58:20.14	165.38	32.30	-50.0	-53.0	14.5	0.00e+00	0	38	0	469762048	70	5445
2026-01-19 09:58:21.11	165.44	32.50	-50.0	-52.9	14.7	0.00e+00	0	38	0	470810624	71	5054
2026-01-19 09:58:22.08	165.49	32.70	-49.9	-52.8	14.8	0.00e+00	0	38	0	472907776	71	4989
2026-01-19 09:58:23.05	165.55	32.90	-50.1	-53.1	14.5	7.00e-07	0	38	0	475004928	71	5194
2026-01-19 09:58:24.03	165.61	33.11	-49.9	-52.7	14.8	0.00e+00	0	38	0	477102080	71	4981
2026-01-19 09:58:25.00	165.67	33.31	-50.2	-53.3	14.4	0.00e+00	0	38	0	478150656	71	5298
2026-01-19 09:58:25.97	165.73	33.52	-49.9	-52.8	14.8	1.50e-06	0	38	0	480247808	71	5035
2026-01-19 09:58:26.95	165.79	33.73	-49.4	-52.0	15.6	0.00e+00	0	38	0	482344960	70	4817
2026-01-19 09:58:27.92	165.86	33.93	-49.5	-52.1	15.4	0.00e+00	0	38	0	484442112	70	4899
2026-01-19 09:58:28.89	165.92	34.14	-49.1	-51.5	16.0	0.00e+00	0	38	0	485490688	70	4598
2026-01-19 09:58:29.87	165.98	34.36	-48.5	-50.6	17.0	0.00e+00	0	38	0	487587840	68	4600
2026-01-19 09:58:30.84	166.05	34.57	-47.8	-49.6	17.7	0.00e+00	0	38	0	489684992	67	4391
2026-01-19 09:58:31.82	166.11	34.79	-47.5	-49.2	18.1	0.00e+00	0	38	0	491782144	66	4414
2026-01-19 09:58:32.79	166.18	35.00	-47.1	-48.7	18.6	0.00e+00	0	38	0	492830720	66	4157
2026-01-19 09:58:33.76	166.24	35.22	-46.9	-48.4	18.9	0.00e+00	0	38	0	494927872	65	4285
2026-01-19 09:58:34.73	166.31	35.44	-46.7	-48.1	19.1	0.00e+00	0	38	0	497025024	64	4386
2026-01-19 09:58:35.70	166.38	35.66	-46.4	-47.8	19.5	0.00e+00	0	38	0	499122176	64	4213
2026-01-19 09:58:36.68	166.45	35.88	-46.3	-47.7	19.6	0.00e+00	0	38	0	500170752	64	4175
2026-01-19 09:58:37.65	166.52	36.10	-46.1	-47.4	19.8	0.00e+00	0	38	0	502267904	64	4036
2026-01-19 09:58:38.62	166.59	36.33	-46.2	-47.6	19.8	0.00e+00	0	38	0	504365056	63	4350
2026-01-19 09:58:39.59	166.66	36.56	-46.2	-47.6	19.9	0.00e+00	0	38	0	506462208	63	4374
2026-01-19 09:58:40.56	166.73	36.78	-45.9	-47.2	20.1	0.00e+00	0	38	0	507510784	63	4174
2026-01-19 09:58:41.53	166.81	37.01	-46.0	-47.3	20.1	0.00e+00	0	38	0	509607936	63	4214
2026-01-19 09:58:42.51	166.88	37.25	-46.3	-47.7	19.7	0.00e+00	0	38	0	511705088	63	4419
2026-01-19 09:58:43.48	166.96	37.48	-46.4	-47.8	19.6	0.00e+00	0	38	0	513802240	63	4461
2026-01-19 09:58:44.45	167.03	37.71	-46.4	-47.8	19.6	0.00e+00	0	38	0	514850816	63	4489
2026-01-19 09:58:45.43	167.11	37.95	-46.6	-48.0	19.3	0.00e+00	0	38	0	516947968	64	4338
2026-01-19 09:58:46.40	167.19	38.19	-46.7	-48.2	19.1	0.00e+00	0	38	0	519045120	64	4431
2026-01-19 09:58:47.38	167.27	38.43	-46.6	-48.1	19.2	0.00e+00	0	38	0	520093696	64	4373
2026-01-19 09:58:48.35	167.35	38.67	-46.5	-48.0	19.3	0.00e+00	0	38	0	522190848	64	4309
2026-01-19 09:58:49.33	167.44	38.91	-46.3	-47.7	19.7	0.00e+00	0	38	0	524288000	64	4147
2026-01-19 09:58:50.30	167.52	39.16	-46.4	-47.9	19.5	0.00e+00	0	38	0	526385152	64	4256
2026-01-19 09:58:51.27	167.61	39.40	-46.7	-48.2	19.2	0.00e+00	0	38	0	527433728	64	4407
2026-01-19 09:58:52.24	167.69	39.65	-46.9	-48.4	18.9	0.00e+00	0	38	0	529530880	64	4537
2026-01-19 09:58:53.22	167.78	39.90	-47.2	-48.8	18.6	0.00e+00	0	38	0	531628032	65	4467
2026-01-19 09:58:54.19	167.87	40.15	-47.7	-49.5	18.0	0.00e+00	0	38	0	533725184	65	4855
2026-01-19 09:58:55.15	167.96	40.40	-47.7	-49.5	17.9	0.00e+00	0	38	0	534773760	66	4576
2026-01-19 09:58:56.13	168.05	40.66	-47.6	-49.4	18.0	0.00e+00	0	38	0	536870912	66	4527
2026-01-19 09:58:57.10	168.14	40.91	-48.0	-49.9	17.6	0.00e+00	0	38	0	538968064	66	4775
2026-01-19 09:58:58.08	168.24	41.17	-47.8	-49.7	17.8	0.00e+00	0	38	0	541065216	66	4653
2026-01-19 09:58:59.05	168.33	41.43	-47.7	-49.4	18.0	0.00e+00	0	38	0	542113792	66	4526
2026-01-19 09:59:00.03	168.43	41.69	-47.5	-49.2	18.3	0.00e+00	0	38	0	544210944	66	4420
2026-01-19 09:59:01.01	168.53	41.96	-46.7	-48.1	19.2	0.00e+00	0	38	0	546308096	65	4118
2026-01-19 09:59:01.98	168.63	42.22	-46.8	-48.3	19.0	0.00e+00	0	38	0	548405248	65	4227
2026-01-19 09:59:02.95	168.73	42.49	-46.6	-48.1	19.3	0.00e+00	0	38	0	549453824	64	4352
2026-01-19 09:59:03.92	168.83	42.76	-46.4	-47.8	19.5	0.00e+00	0	38	0	551550976	64	4214
2026-01-19 09:59:04.89	168.94	43.03	-46.3	-47.7	19.7	0.00e+00	0	38	0	553648128	63	4425
2026-01-19 09:59:05.86	169.04	43.30	-46.3	-47.7	19.7	0.00e+00	0	38	0	555745280	63	4405
2026-01-19 09:59:06.83	169.15	43.57	-46.0	-47.4	20.0	0.00e+00	0	38	0	556793856	63	4244
2026-01-19 09:59:07.81	169.26	43.85	-46.4	-47.8	19.6	0.00e+00	0	38	0	558891008	63	4486
2026-01-19 09:59:08.77	169.37	44.13	-46.7	-48.2	19.3	0.00e+00	0	38	0	560988160	63	4677
2026-01-19 09:59:09.74	169.49	44.40	-46.6	-48.1	19.3	0.00e+00	0	38	0	563085312	64	4371
2026-01-19 09:59:10.71	169.60	44.69	-47.3	-48.9	18.5	0.00e+00	0	38	0	564133888	65	4522
2026-01-19 09:59:11.69	169.72	44.97	-47.9	-49.7	17.9	0.00e+00	0	38	0	566231040	66	4692
2026-01-19 09:59:12.67	169.84	45.26	-48.3	-50.4	17.3	0.00e+00	0	38	0	568328192	67	4764
2026-01-19 09:59:13.64	169.97	45.55	-48.7	-50.8	16.7	0.00e+00	0	38	0	570425344	68	4758
2026-01-19 09:59:14.61	170.09	45.83	-48.8	-51.0	16.6	0.00e+00	0	38	0	571473920	68	4849
2026-01-19 09:59:15.59	170.22	46.13	-49.3	-51.8	15.9	0.00e+00	0	38	0	573571072	69	4997
2026-01-19 09:59:16.56	170.35	46.42	-49.3	-51.8	15.8	0.00e+00	0	38	0	575668224	69	5002
2026-01-19 09:59:17.53	170.48	46.72	-49.5	-52.1	15.6	0.00e+00	0	38	0	576716800	70	4901
2026-01-19 09:59:18.50	170.61	47.01	-49.3	-51.7	15.9	0.00e+00	0	38	0	578813952	70	4689
2026-01-19 09:59:19.47	170.75	47.31	-48.8	-51.0	16.7	0.00e+00	0	38	0	580911104	69	4579
2026-01-19 09:59:20.44	170.89	47.61	-48.7	-50.8	16.8	0.00e+00	0	38	0	583008256	69	4476
2026-01-19 09:59:21.42	171.03	47.92	-48.0	-49.9	17.6	0.00e+00	0	38	0	584056832	67	4531
2026-01-19 09:59:22.38	171.17	48.22	-47.8	-49.6	17.7	0.00e+00	0	38	0	586153984	67	4387
2026-01-19 09:59:23.36	171.32	48.53	-47.1	-48.7	18.7	0.00e+00	0	38	0	588251136	66	4172
2026-01-19 09:59:24.33	171.47	48.83	-46.9	-48.4	19.0	0.00e+00	0	38	0	590348288	65	4254
2026-01-19 09:59:25.30	171.62	49.14	-46.6	-48.1	19.3	0.00e+00	0	38	0	591396864	65	4129
2026-01-19 09:59:26.28	171.78	49.46	-46.3	-47.7	19.7	0.00e+00	0	38	0	593494016	64	4152
2026-01-19 09:59:27.25	171.94	49.77	-46.2	-47.6	19.9	0.00e+00	0	38	0	595591168	63	4360
2026-01-19 09:59:28.22	172.10	50.09	-45.4	-46.6	20.7	0.00e+00	0	38	0	597688320	62	4121
2026-01-19 09:59:29.19	172.26	50.41	-45.3	-46.4	20.9	0.00e+00	0	38	0	598736896	62	4051
2026-01-19 09:59:30.16	172.43	50.73	-45.2	-46.4	21.0	0.00e+00	0	38	0	600834048	62	4016
2026-01-19 09:59:31.13	172.61	51.05	-45.2	-46.4	20.9	0.00e+00	0	38	0	602931200	61	4252
2026-01-19 09:59:32.11	172.78	51.38	-45.1	-46.2	21.1	0.00e+00	0	38	0	603979776	61	4186
2026-01-19 09:59:33.08	172.96	51.70	-45.1	-46.2	21.1	0.00e+00	0	38	0	606076928	61	4187
2026-01-19 09:59:34.06	173.15	52.03	-45.0	-46.2	21.2	0.00e+00	0	38	0	608174080	61	4161
2026-01-19 09:59:35.03	173.34	52.36	-45.2	-46.4	20.9	0.00e+00	0	38	0	610271232	61	4277
2026-01-19 09:59:36.00	173.53	52.70	-45.1	-46.3	21.1	0.00e+00	0	38	0	611319808	61	4240
2026-01-19 09:59:36.97	173.72	53.03	-44.8	-46.0	21.3	0.00e+00	0	38	0	613416960	61	4078
2026-01-19 09:59:37.94	173.93	53.36	-44.8	-46.0	21.4	0.00e+00	0	38	0	615514112	61	4054
2026-01-19 09:59:38.91	174.13	53.70	-44.3	-45.4	21.8	0.00e+00	0	38	0	617611264	60	4046
2026-01-19 09:59:39.88	174.34	54.04	-44.2	-45.3	22.0	0.00e+00	0	38	0	618659840	60	3962
2026-01-19 09:59:40.84	174.55	54.38	-44.1	-45.2	22.0	0.00e+00	0	38	0	620756992	60	3922
2026-01-19 09:59:41.82	174.78	54.73	-44.3	-45.5	21.8	0.00e+00	0	38	0	622854144	60	4055
2026-01-19 09:59:42.79	175.00	55.07	-44.3	-45.5	21.8	0.00e+00	0	38	0	624951296	60	4067
2026-01-19 09:59:43.76	175.23	55.42	-44.4	-45.6	21.6	0.00e+00	0	38	0	625999872	60	4125
2026-01-19 09:59:44.73	175.47	55.77	-44.3	-45.4	22.0	0.00e+00	0	38	0	628097024	59	4284
2026-01-19 09:59:45.70	175.71	56.12	-44.0	-45.0	22.4	0.00e+00	0	38	0	630194176	59	4079
2026-01-19 09:59:46.67	175.96	56.47	-43.5	-44.5	22.8	0.00e+00	0	38	0	632291328	59	3848
2026-01-19 09:59:47.64	176.21	56.82	-43.3	-44.3	23.0	0.00e+00	0	38	0	633339904	58	3975
2026-01-19 09:59:48.61	176.47	57.18	-43.7	-44.7	22.6	0.00e+00	0	38	0	635437056	58	4181
2026-01-19 09:59:49.59	176.74	57.54	-43.8	-44.8	22.6	0.00e+00	0	38	0	637534208	58	4233
2026-01-19 09:59:50.56	177.02	57.90	-43.8	-44.8	22.6	0.00e+00	0	38	0	639631360	58	4234
2026-01-19 09:59:51.53	177.30	58.26	-44.1	-45.1	22.4	0.00e+00	0	38	0	640679936	58	4371
2026-01-19 09:59:52.50	177.59	58.62	-44.2	-45.2	22.3	0.00e+00	0	38	0	642777088	59	4177
2026-01-19 09:59:53.47	177.89	58.98	-44.5	-45.6	22.0	0.00e+00	0	38	0	644874240	59	4356
2026-01-19 09:59:54.44	178.20	59.35	-44.3	-45.4	21.9	0.00e+00	0	38	0	645922816	60	4016
2026-01-19 09:59:55.42	178.51	59.72	-44.7	-45.8	21.4	0.00e+00	0	38	0	648019968	60	4226
2026-01-19 09:59:56.40	178.84	60.09	-44.7	-45.8	21.6	0.00e+00	0	38	0	650117120	60	4230
2026-01-19 09:59:57.37	179.17	60.46	-44.2	-45.2	22.0	0.00e+00	0	38	0	652214272	60	3945
2026-01-19 09:59:58.33	179.51	60.82	-44.1	-45.1	22.1	0.00e+00	0	38	0	653262848	60	3906
2026-01-19 09:59:59.30	179.87	61.19	-44.0	-45.1	22.2	0.00e+00	0	38	0	655360000	60	3880
2026-01-19 10:00:00.27	180.23	61.57	-44.5	-45.6	21.7	0.00e+00	0	38	0	657457152	60	4127
2026-01-19 10:00:01.24	180.60	61.94	-44.6	-45.7	21.6	0.00e+00	0	38	0	659554304	60	4167
2026-01-19 10:00:02.21	180.99	62.31	-44.3	-45.4	21.9	0.00e+00	0	38	0	660602880	60	4017
2026-01-19 10:00:03.18	181.39	62.69	-44.4	-45.5	21.8	0.00e+00	0	38	0	662700032	60	4070
2026-01-19 10:00:04.16	181.80	63.07	-44.4	-45.4	21.9	0.00e+00	0	38	0	664797184	60	4032
2026-01-19 10:00:05.13	182.23	63.45	-44.2	-45.3	22.0	0.00e+00	0	38	0	666894336	60	3965
2026-01-19 10:00:06.10	182.66	63.83	-44.4	-45.4	21.9	0.00e+00	0	38	0	667942912	60	4037
2026-01-19 10:00:07.07	183.11	64.20	-44.7	-45.8	21.8	0.00e+00	0	38	0	670040064	59	4472
2026-01-19 10:00:08.04	183.58	64.58	-44.6	-45.7	21.6	0.00e+00	0	38	0	672137216	60	4189
2026-01-19 10:00:09.01	184.06	64.96	-44.9	-46.1	21.3	0.00e+00	0	38	0	673185792	60	4361
2026-01-19 10:00:09.98	184.56	65.34	-45.1	-46.2	21.1	0.00e+00	0	38	0	675282944	61	4193
2026-01-19 10:00:10.95	185.08	65.72	-45.3	-46.5	20.9	0.00e+00	0	38	0	677380096	61	4338
2026-01-19 10:00:11.92	185.61	66.10	-45.3	-46.5	20.9	0.00e+00	0	38	0	679477248	61	4314
2026-01-19 10:00:12.89	186.16	66.48	-45.5	-46.7	20.7	0.00e+00	0	38	0	680525824	61	4428
2026-01-19 10:00:13.86	186.73	66.86	-45.5	-46.7	20.8	0.00e+00	0	38	0	682622976	61	4396
2026-01-19 10:00:14.83	187.33	67.24	-45.7	-47.0	20.5	0.00e+00	0	38	0	684720128	62	4305
2026-01-19 10:00:15.81	187.95	67.62	-46.4	-47.8	19.9	0.00e+00	0	38	0	686817280	63	4443
2026-01-19 10:00:16.78	188.59	68.00	-46.5	-47.8	19.8	0.00e+00	0	38	0	687865856	63	4483
2026-01-19 10:00:17.76	189.25	68.38	-46.7	-48.2	19.5	0.00e+00	0	38	0	689963008	64	4393
2026-01-19 10:00:18.73	189.94	68.75	-47.8	-49.5	18.1	0.00e+00	0	38	0	692060160	66	4598
2026-01-19 10:00:19.70	190.66	69.13	-48.9	-51.1	16.8	0.00e+00	0	38	0	694157312	68	4914
2026-01-19 10:00:20.67	191.40	69.50	-49.6	-52.1	15.7	0.00e+00	0	38	0	695205888	70	4898
2026-01-19 10:00:21.64	192.17	69.87	-49.7	-52.3	15.6	0.00e+00	0	38	0	697303040	70	5012
2026-01-19 10:00:22.61	192.97	70.24	-49.6	-52.0	15.8	0.00e+00	0	38	0	699400192	70	4858
2026-01-19 10:00:23.58	193.80	70.61	-49.3	-51.6	16.1	0.00e+00	0	38	0	701497344	70	4612
2026-01-19 10:00:24.55	194.67	70.97	-48.6	-50.6	17.2	0.00e+00	0	38	0	702545920	69	4375
2026-01-19 10:00:25.52	195.58	71.33	-48.5	-50.4	17.3	0.00e+00	0	38	0	704643072	68	4517
2026-01-19 10:00:26.49	196.52	71.69	-47.9	-49.7	18.1	0.00e+00	0	38	0	706740224	67	4407
2026-01-19 10:00:27.47	197.51	72.05	-48.1	-49.9	17.7	0.00e+00	0	38	0	707788800	67	4535
2026-01-19 10:00:28.44	198.53	72.39	-47.4	-48.9	18.7	0.00e+00	0	38	0	709885952	66	4268
2026-01-19 10:00:29.41	199.59	72.74	-47.4	-49.0	18.7	0.00e+00	0	38	0	711983104	66	4323
2026-01-19 10:00:30.38	200.70	73.08	-47.3	-48.8	18.8	0.00e+00	0	38	0	714080256	66	4238
2026-01-19 10:00:31.35	201.86	73.42	-48.0	-49.7	18.0	0.00e+00	0	38	0	715128832	66	4691
2026-01-19 10:00:32.32	203.07	73.74	-48.3	-50.2	17.5	0.00e+00	0	38	0	717225984	67	4675
2026-01-19 10:00:33.29	204.33	74.07	-49.2	-51.5	16.4	0.00e+00	0	38	0	719323136	69	4860
2026-01-19 10:00:34.26	205.64	74.38	-48.4	-50.4	17.3	0.00e+00	0	38	0	721420288	69	4256
2026-01-19 10:00:35.23	207.01	74.69	-46.7	-48.1	19.4	0.00e+00	0	38	0	722468864	65	4116
2026-01-19 10:00:36.20	208.44	74.99	-46.1	-47.4	20.1	0.00e+00	0	38	0	724566016	64	4015
2026-01-19 10:00:37.17	209.92	75.29	-46.4	-47.8	19.9	0.00e+00	0	38	0	726663168	63	4461
2026-01-19 10:00:38.14	211.47	75.57	-46.8	-48.2	19.4	0.00e+00	0	38	0	728760320	64	4434
2026-01-19 10:00:39.11	213.08	75.84	-47.5	-49.2	18.6	0.00e+00	0	38	0	729808896	65	4673
2026-01-19 10:00:40.08	214.75	76.11	-48.7	-50.8	17.0	0.00e+00	0	38	0	731906048	68	4722
2026-01-19 10:00:41.05	216.49	76.36	-49.8	-52.5	15.3	0.00e+00	0	38	0	734003200	70	5130
2026-01-19 10:00:42.02	218.29	76.60	-49.4	-51.8	15.9	0.00e+00	0	38	0	735051776	70	4758
2026-01-19 10:00:42.99	220.16	76.82	-48.3	-50.2	17.6	0.00e+00	0	38	0	737148928	68	4413
2026-01-19 10:00:43.96	222.10	77.03	-47.8	-49.5	18.4	0.00e+00	0	38	0	739246080	67	4299
2026-01-19 10:00:44.93	224.10	77.23	-47.5	-49.1	18.6	0.00e+00	0	38	0	741343232	66	4342
2026-01-19 10:00:45.91	226.18	77.42	-47.1	-48.6	19.1	0.00e+00	0	38	0	742391808	66	4108
2026-01-19 10:00:46.88	228.30	77.58	-46.7	-48.1	19.4	0.00e+00	0	38	0	744488960	65	4145
2026-01-19 10:00:47.85	230.47	77.73	-48.7	-50.7	17.2	0.00e+00	0	38	0	746586112	67	4973
2026-01-19 10:00:48.82	232.70	77.86	-50.5	-53.5	14.6	0.00e+00	0	38	0	748683264	71	5403
2026-01-19 10:00:49.79	234.98	77.98	-50.6	-53.6	14.4	1.50e-06	0	38	0	749731840	71	5526
2026-01-19 10:00:50.76	237.29	78.07	-50.1	-52.9	15.1	0.00e+00	0	38	0	751828992	71	5044
2026-01-19 10:00:51.73	239.64	78.15	-50.2	-52.9	15.1	0.00e+00	0	38	0	753926144	71	5097
2026-01-19 10:00:52.70	242.02	78.21	-50.1	-52.8	15.0	0.00e+00	0	38	0	756023296	71	5008
2026-01-19 10:00:53.67	244.41	78.24	-50.5	-53.5	14.5	0.00e+00	0	38	0	757071872	71	5459
2026-01-19 10:00:54.64	246.82	78.26	-50.8	-54.1	13.9	2.20e-06	0	38	0	759169024	72	5508
2026-01-19 10:00:55.61	249.23	78.25	-50.5	-53.6	14.3	7.00e-07	0	38	0	761266176	72	5166
2026-01-19 10:00:56.59	251.65	78.23	-50.3	-53.1	14.9	0.00e+00	0	38	0	763363328	71	5194
2026-01-19 10:00:57.57	254.07	78.19	-49.2	-51.3	16.5	0.00e+00	0	38	0	764411904	70	4491
2026-01-19 10:00:58.54	256.43	78.12	-48.6	-50.5	17.4	0.00e+00	0	38	0	766509056	69	4328
2026-01-19 10:00:59.51	258.77	78.04	-48.7	-50.6	17.4	0.00e+00	0	38	0	768606208	69	4374
2026-01-19 10:01:00.48	261.07	77.93	-49.1	-51.2	16.7	0.00e+00	0	38	0	769654784	68	4949
2026-01-19 10:01:01.45	263.33	77.81	-50.9	-54.3	13.5	0.00e+00	0	38	0	771751936	72	5641
2026-01-19 10:01:02.42	265.53	77.67	-51.2	-54.8	13.0	2.74e-05	0	38	0	773849088	73	5652
2026-01-19 10:01:03.39	267.69	77.52	-50.0	-52.7	15.2	6.80e-06	0	38	0	775946240	72	4663
2026-01-19 10:01:04.36	269.78	77.35	-49.2	-51.3	16.7	0.00e+00	0	38	0	776994816	70	4473
2026-01-19 10:01:05.33	271.82	77.16	-49.4	-51.7	16.3	0.00e+00	0	38	0	779091968	70	4659
2026-01-19 10:01:06.30	273.79	76.95	-49.7	-52.1	16.0	0.00e+00	0	38	0	781189120	70	4924
2026-01-19 10:01:07.27	275.70	76.74	-49.8	-52.4	15.7	0.00e+00	0	38	0	783286272	70	5055
2026-01-19 10:01:08.25	277.56	76.50	-50.8	-54.2	13.9	7.00e-07	0	38	0	784334848	72	5536
2026-01-19 10:01:09.22	279.34	76.26	-50.0	-52.7	15.2	1.50e-06	0	38	0	786432000	72	4686
2026-01-19 10:01:10.19	281.05	76.00	-49.0	-51.0	16.8	0.00e+00	0	38	0	788529152	70	4330
2026-01-19 10:01:11.16	282.70	75.74	-48.1	-49.8	17.9	0.00e+00	0	38	0	790626304	67	4488
2026-01-19 10:01:12.13	284.28	75.46	-49.1	-51.3	16.6	0.00e+00	0	38	0	791674880	68	4995
2026-01-19 10:01:13.11	285.82	75.17	-49.3	-51.5	16.5	0.00e+00	0	38	0	793772032	69	4863
2026-01-19 10:01:14.09	287.29	74.87	-49.0	-51.1	16.8	0.00e+00	0	38	0	795869184	69	4609
2026-01-19 10:01:15.06	288.69	74.57	-48.3	-50.2	17.7	0.00e+00	0	38	0	797966336	67	4684
2026-01-19 10:01:16.03	290.04	74.26	-46.9	-48.3	19.4	0.00e+00	0	38	0	799014912	65	4230
2026-01-19 10:01:17.00	291.33	73.94	-47.0	-48.5	19.1	0.00e+00	0	38	0	801112064	65	4317
2026-01-19 10:01:17.97	292.56	73.61	-46.4	-47.8	19.8	0.00e+00	0	38	0	803209216	64	4214
2026-01-19 10:01:18.94	293.75	73.28	-46.1	-47.3	20.3	0.00e+00	0	38	0	805306368	64	3967
2026-01-19 10:01:19.91	294.89	72.94	-47.0	-48.4	19.3	0.00e+00	0	38	0	806354944	64	4514
2026-01-19 10:01:20.88	295.98	72.60	-47.9	-49.6	18.2	0.00e+00	0	38	0	808452096	66	4640
2026-01-19 10:01:21.85	297.02	72.26	-47.9	-49.6	18.2	0.00e+00	0	38	0	810549248	66	4625
2026-01-19 10:01:22.83	298.04	71.90	-49.2	-51.5	16.4	0.00e+00	0	38	0	812646400	68	5139
2026-01-19 10:01:23.80	299.00	71.55	-50.2	-53.2	14.8	0.00e+00	0	38	0	813694976	71	5229
2026-01-19 10:01:24.77	299.92	71.19	-49.9	-52.5	15.5	0.00e+00	0	38	0	815792128	71	4844
2026-01-19 10:01:25.74	300.81	70.83	-49.9	-52.4	15.6	0.00e+00	0	38	0	817889280	71	4791
2026-01-19 10:01:26.71	301.67	70.46	-49.7	-52.2	15.6	0.00e+00	0	38	0	818937856	71	4688
2026-01-19 10:01:27.68	302.49	70.10	-48.5	-50.3	17.5	0.00e+00	0	38	0	821035008	69	4225
2026-01-19 10:01:28.65	303.27	69.73	-47.6	-49.1	18.6	0.00e+00	0	38	0	823132160	67	4128
2026-01-19 10:01:29.63	304.04	69.35	-47.7	-49.4	18.4	0.00e+00	0	38	0	825229312	66	4503
2026-01-19 10:01:30.60	304.77	68.98	-48.0	-49.8	18.1	0.00e+00	0	38	0	826277888	67	4465
2026-01-19 10:01:31.57	305.47	68.61	-47.4	-49.0	18.8	0.00e+00	0	38	0	828375040	66	4314
2026-01-19 10:01:32.54	306.15	68.23	-47.2	-48.8	19.0	0.00e+00	0	38	0	830472192	65	4457
2026-01-19 10:01:33.51	306.80	67.85	-47.3	-48.9	18.8	0.00e+00	0	38	0	832569344	66	4283
2026-01-19 10:01:34.48	307.43	67.48	-46.7	-48.2	19.6	0.00e+00	0	38	0	833617920	65	4163
2026-01-19 10:01:35.45	308.03	67.10	-46.2	-47.5	20.2	0.00e+00	0	38	0	835715072	64	4060
2026-01-19 10:01:36.42	308.62	66.72	-47.5	-49.1	18.7	0.00e+00	0	38	0	837812224	65	4649
2026-01-19 10:01:37.39	309.18	66.34	-46.9	-48.3	19.4	0.00e+00	0	38	0	838860800	65	4233
2026-01-19 10:01:38.36	309.72	65.96	-44.8	-45.9	21.5	0.00e+00	0	38	0	840957952	61	4037
2026-01-19 10:01:39.33	310.25	65.58	-44.4	-45.4	22.0	0.00e+00	0	38	0	843055104	60	4044
2026-01-19 10:01:40.30	310.76	65.21	-44.5	-45.6	21.9	0.00e+00	0	38	0	845152256	60	4125
2026-01-19 10:01:41.27	311.25	64.83	-44.2	-45.2	22.5	0.00e+00	0	38	0	846200832	59	4172
2026-01-19 10:01:42.25	311.73	64.44	-43.4	-44.3	23.2	0.00e+00	0	38	0	848297984	58	3988
2026-01-19 10:01:43.22	312.19	64.07	-43.7	-44.6	23.0	0.00e+00	0	38	0	850395136	58	4134
2026-01-19 10:01:44.19	312.64	63.69	-44.0	-45.0	22.7	0.00e+00	0	38	0	852492288	58	4305
2026-01-19 10:01:45.16	313.07	63.31	-44.0	-45.0	22.8	0.00e+00	0	38	0	853540864	58	4293
2026-01-19 10:01:46.13	313.48	62.94	-44.1	-45.1	22.6	0.00e+00	0	38	0	855638016	58	4341
2026-01-19 10:01:47.10	313.89	62.56	-44.5	-45.6	22.2	0.00e+00	0	38	0	857735168	59	4343
2026-01-19 10:01:48.07	314.28	62.19	-44.5	-45.6	21.9	0.00e+00	0	38	0	859832320	60	4120
2026-01-19 10:01:49.04	314.66	61.81	-44.8	-45.9	21.7	0.00e+00	0	38	0	860880896	60	4249
2026-01-19 10:01:50.01	315.03	61.44	-45.0	-46.1	21.4	0.00e+00	0	38	0	862978048	61	4112
2026-01-19 10:01:50.98	315.39	61.07	-45.9	-47.2	20.5	0.00e+00	0	38	0	865075200	62	4402
2026-01-19 10:01:51.94	315.74	60.70	-46.4	-47.8	19.9	0.00e+00	0	38	0	867172352	64	4210
2026-01-19 10:01:52.91	316.08	60.34	-46.4	-47.8	19.9	0.00e+00	0	38	0	868220928	64	4204
2026-01-19 10:01:53.89	316.41	59.96	-46.2	-47.5	20.2	0.00e+00	0	38	0	870318080	64	4083
2026-01-19 10:01:54.85	316.73	59.60	-46.7	-48.1	19.7	0.00e+00	0	38	0	872415232	64	4352
2026-01-19 10:01:55.82	317.04	59.24	-47.2	-48.8	18.9	0.00e+00	0	38	0	874512384	65	4462
2026-01-19 10:01:56.79	317.34	58.87	-46.3	-47.7	19.9	0.00e+00	0	38	0	875560960	64	4166
2026-01-19 10:01:57.76	317.63	58.51	-45.5	-46.7	20.9	0.00e+00	0	38	0	877658112	62	4174
2026-01-19 10:01:58.74	317.92	58.15	-45.6	-46.8	20.8	0.00e+00	0	38	0	879755264	62	4219
2026-01-19 10:01:59.71	318.20	57.79	-46.0	-47.2	20.5	0.00e+00	0	38	0	880803840	62	4435
2026-01-19 10:02:00.68	318.48	57.43	-45.9	-47.2	20.5	0.00e+00	0	38	0	882900992	62	4394
2026-01-19 10:02:01.65	318.74	57.08	-44.8	-45.9	21.6	0.00e+00	0	38	0	884998144	61	4040
2026-01-19 10:02:02.63	319.00	56.72	-44.5	-45.5	22.0	0.00e+00	0	38	0	887095296	60	4097
2026-01-19 10:02:03.60	319.25	56.37	-44.2	-45.3	22.2	0.00e+00	0	38	0	888143872	60	3964
2026-01-19 10:02:04.57	319.50	56.02	-44.1	-45.1	22.3	0.00e+00	0	38	0	890241024	60	3901
2026-01-19 10:02:05.54	319.74	55.67	-44.2	-45.2	22.3	0.00e+00	0	38	0	892338176	60	3949
2026-01-19 10:02:06.51	319.97	55.32	-44.7	-45.8	21.8	0.00e+00	0	38	0	894435328	60	4199
2026-01-19 10:02:07.48	320.20	54.98	-45.6	-46.8	20.8	0.00e+00	0	38	0	895483904	61	4491
2026-01-19 10:02:08.46	320.43	54.63	-45.5	-46.7	21.0	0.00e+00	0	38	0	897581056	62	4170
2026-01-19 10:02:09.43	320.65	54.29	-45.5	-46.8	20.9	0.00e+00	0	38	0	899678208	62	4213
2026-01-19 10:02:10.40	320.86	53.95	-45.2	-46.3	21.2	0.00e+00	0	38	0	900726784	62	4000
2026-01-19 10:02:11.37	321.07	53.61	-45.2	-46.3	21.3	0.00e+00	0	38	0	902823936	62	3987
2026-01-19 10:02:12.35	321.27	53.27	-44.8	-45.9	21.7	0.00e+00	0	38	0	904921088	61	4029
2026-01-19 10:02:13.32	321.47	52.94	-44.9	-46.0	21.6	0.00e+00	0	38	0	907018240	61	4086
2026-01-19 10:02:14.29	321.67	52.61	-45.6	-46.8	20.9	0.00e+00	0	38	0	908066816	61	4448
2026-01-19 10:02:15.25	321.85	52.28	-47.7	-49.5	18.4	0.00e+00	0	38	0	910163968	66	4583
2026-01-19 10:02:16.22	322.04	51.95	-49.3	-51.7	16.1	0.00e+00	0	38	0	912261120	69	4981
2026-01-19 10:02:17.20	322.23	51.62	-49.1	-51.3	16.5	0.00e+00	0	38	0	914358272	69	4758
2026-01-19 10:02:18.17	322.40	51.30	-47.7	-49.3	18.3	0.00e+00	0	38	0	915406848	67	4240
2026-01-19 10:02:19.14	322.58	50.98	-46.7	-48.1	19.5	0.00e+00	0	38	0	917504000	65	4125
2026-01-19 10:02:20.11	322.75	50.66	-46.2	-47.5	20.2	0.00e+00	0	38	0	919601152	63	4300
2026-01-19 10:02:21.08	322.92	50.34	-46.4	-47.7	19.9	0.00e+00	0	38	0	921698304	64	4179
2026-01-19 10:02:22.06	323.08	50.02	-48.2	-50.0	17.9	0.00e+00	0	38	0	922746880	66	4839
2026-01-19 10:02:23.03	323.24	49.70	-49.8	-52.3	15.6	0.00e+00	0	38	0	924844032	70	5038
2026-01-19 10:02:24.00	323.40	49.39	-50.4	-53.5	14.4	0.00e+00	0	38	0	926941184	71	5437
2026-01-19 10:02:24.97	323.55	49.08	-51.1	-54.7	13.1	3.00e-06	0	38	0	929038336	72	5923
2026-01-19 10:02:25.94	323.71	48.77	-51.4	-55.1	12.7	6.25e-05	0	38	0	930086912	73	5844
2026-01-19 10:02:26.91	323.85	48.47	-50.5	-53.5	14.3	1.50e-06	0	38	0	932184064	72	5147
2026-01-19 10:02:27.88	324.00	48.16	-49.2	-51.4	16.4	0.00e+00	0	38	0	934281216	70	4527
2026-01-19 10:02:28.85	324.14	47.86	-48.1	-49.9	17.9	0.00e+00	0	38	0	936378368	67	4503
2026-01-19 10:02:29.83	324.29	47.56	-47.8	-49.5	18.2	0.00e+00	0	38	0	937426944	67	4322
2026-01-19 10:02:30.80	324.42	47.26	-47.9	-49.7	18.1	0.00e+00	0	38	0	939524096	67	4399
2026-01-19 10:02:31.77	324.56	46.96	-48.5	-50.4	17.4	0.00e+00	0	38	0	941621248	67	4785
2026-01-19 10:02:32.73	324.69	46.67	-49.3	-51.6	16.3	0.00e+00	0	38	0	943718400	69	4892
2026-01-19 10:02:33.70	324.82	46.38	-49.6	-52.0	15.9	0.00e+00	0	38	0	944766976	70	4840
2026-01-19 10:02:34.67	324.95	46.08	-49.5	-51.8	16.1	0.00e+00	0	38	0	946864128	70	4737
2026-01-19 10:02:35.65	325.07	45.79	-49.4	-51.6	16.4	0.00e+00	0	38	0	948961280	70	4634
2026-01-19 10:02:36.62	325.20	45.51	-48.9	-51.0	16.9	0.00e+00	0	38	0	951058432	69	4565
2026-01-19 10:02:37.59	325.32	45.22	-47.9	-50.0	17.5	0.00e+00	0	38	0	952107008	68	4338
2026-01-19 10:02:38.56	325.44	44.94	-47.4	-49.0	18.7	0.00e+00	0	38	0	954204160	66	4307
2026-01-19 10:02:39.54	325.56	44.65	-46.6	-48.0	19.7	0.00e+00	0	38	0	956301312	65	4087
2026-01-19 10:02:40.51	325.67	44.37	-46.1	-47.4	20.2	0.00e+00	0	38	0	957349888	64	4008
2026-01-19 10:02:41.48	325.79	44.10	-46.1	-47.3	20.3	0.00e+00	0	38	0	959447040	63	4238
2026-01-19 10:02:42.45	325.90	43.82	-46.8	-48.2	19.5	0.00e+00	0	38	0	961544192	64	4429
2026-01-19 10:02:43.42	326.01	43.55	-47.3	-48.9	18.8	0.00e+00	0	38	0	962592768	65	4514
2026-01-19 10:02:44.39	326.11	43.27	-48.7	-50.7	17.1	0.00e+00	0	38	0	964689920	67	4943
2026-01-19 10:02:45.36	326.22	43.00	-49.2	-51.3	16.6	0.00e+00	0	38	0	966787072	68	5040
2026-01-19 10:02:46.33	326.33	42.74	-49.5	-52.0	16.0	0.00e+00	0	38	0	968884224	69	5106
2026-01-19 10:02:47.30	326.43	42.47	-49.6	-52.0	15.9	0.00e+00	0	38	0	969932800	69	5158
2026-01-19 10:02:48.27	326.53	42.20	-49.0	-51.2	16.6	0.00e+00	0	38	0	972029952	69	4695
2026-01-19 10:02:49.24	326.63	41.94	-47.5	-49.2	18.5	0.00e+00	0	38	0	974127104	67	4149
2026-01-19 10:02:50.21	326.73	41.68	-46.2	-47.6	20.0	0.00e+00	0	38	0	976224256	64	4110
2026-01-19 10:02:51.18	326.82	41.42	-45.7	-46.9	20.7	0.00e+00	0	38	0	977272832	63	4028
2026-01-19 10:02:52.15	326.92	41.16	-44.7	-45.8	21.7	0.00e+00	0	38	0	979369984	61	3962
2026-01-19 10:02:53.12	327.01	40.91	-45.0	-46.0	21.4	0.00e+00	0	38	0	981467136	61	4095
2026-01-19 10:02:54.09	327.10	40.65	-45.1	-46.2	21.3	0.00e+00	0	38	0	983564288	61	4149
2026-01-19 10:02:55.07	327.20	40.40	-44.9	-46.0	21.5	0.00e+00	0	38	0	984612864	61	4075
2026-01-19 10:02:56.04	327.29	40.15	-45.5	-46.7	20.8	0.00e+00	0	38	0	986710016	61	4434
2026-01-19 10:02:57.02	327.37	39.89	-46.1	-47.5	20.2	0.00e+00	0	38	0	988807168	62	4560
2026-01-19 10:02:57.98	327.46	39.65	-47.2	-48.9	18.8	0.00e+00	0	38	0	990904320	65	4505
2026-01-19 10:02:58.95	327.55	39.40	-47.5	-49.2	18.5	0.00e+00	0	38	0	991952896	66	4425
2026-01-19 10:02:59.92	327.63	39.16	-48.7	-50.8	16.9	0.00e+00	0	38	0	994050048	67	5022
2026-01-19 10:03:00.89	327.71	38.92	-49.0	-51.2	16.7	0.00e+00	0	38	0	996147200	68	4929
2026-01-19 10:03:01.86	327.80	38.68	-48.0	-49.8	18.0	0.00e+00	0	38	0	998244352	67	4463
2026-01-19 10:03:02.84	327.88	38.44	-47.6	-49.3	18.4	0.00e+00	0	38	0	999292928	67	4221
2026-01-19 10:03:03.81	327.96	38.20	-46.7	-48.1	19.4	0.00e+00	0	38	0	1001390080	65	4138
2026-01-19 10:03:04.78	328.04	37.96	-46.0	-47.2	20.3	0.00e+00	0	38	0	1003487232	63	4185
2026-01-19 10:03:05.75	328.11	37.73	-45.5	-46.6	20.8	0.00e+00	0	38	0	1005584384	63	3910
2026-01-19 10:03:06.72	328.19	37.50	-45.2	-46.3	21.1	0.00e+00	0	38	0	1006632960	62	3993
2026-01-19 10:03:07.70	328.27	37.26	-45.0	-46.1	21.3	0.00e+00	0	38	0	1008730112	62	3910
2026-01-19 10:03:08.67	328.34	37.03	-45.3	-46.4	21.1	0.00e+00	0	38	0	1010827264	61	4275
2026-01-19 10:03:09.65	328.42	36.80	-46.5	-47.9	19.7	0.00e+00	0	38	0	1012924416	63	4522
2026-01-19 10:03:10.62	328.49	36.58	-47.1	-48.6	19.0	0.00e+00	0	38	0	1013972992	64	4615
2026-01-19 10:03:11.59	328.56	36.35	-47.8	-49.6	18.2	0.00e+00	0	38	0	1016070144	66	4615
2026-01-19 10:03:12.56	328.63	36.13	-48.2	-50.2	17.5	0.00e+00	0	38	0	1018167296	67	4657
2026-01-19 10:03:13.52	328.70	35.91	-48.1	-50.0	17.7	0.00e+00	0	38	0	1019215872	67	4590
2026-01-19 10:03:14.49	328.77	35.69	-47.9	-49.7	18.0	0.00e+00	0	38	0	1021313024	67	4393
2026-01-19 10:03:15.46	328.84	35.47	-47.6	-49.3	18.3	0.00e+00	0	38	0	1023410176	67	4235
2026-01-19 10:03:16.43	328.90	35.25	-47.1	-48.7	18.9	0.00e+00	0	38	0	1025507328	66	4169
2026-01-19 10:03:17.40	328.97	35.04	-46.6	-48.0	19.5	0.00e+00	0	38	0	1026555904	65	4096
2026-01-19 10:03:18.38	329.04	34.82	-46.4	-47.8	19.7	0.00e+00	0	38	0	1028653056	64	4203
2026-01-19 10:03:19.35	329.10	34.61	-46.3	-47.7	19.8	0.00e+00	0	38	0	1030750208	64	4160
2026-01-19 10:03:20.32	329.17	34.39	-46.1	-47.4	20.2	0.00e+00	0	38	0	1031798784	63	4264
2026-01-19 10:03:21.29	329.23	34.18	-46.5	-47.9	19.6	0.00e+00	0	38	0	1033895936	64	4284
2026-01-19 10:03:22.25	329.29	33.98	-47.2	-48.8	18.9	0.00e+00	0	38	0	1035993088	65	4444
2026-01-19 10:03:23.22	329.35	33.77	-47.6	-49.3	18.3	0.00e+00	0	38	0	1038090240	65	4732
2026-01-19 10:03:24.19	329.41	33.56	-48.0	-49.8	17.8	0.00e+00	0	38	0	1039138816	66	4758
2026-01-19 10:03:25.16	329.47	33.36	-48.5	-50.5	17.2	0.00e+00	0	38	0	1041235968	67	4834
2026-01-19 10:03:26.13	329.53	33.15	-48.6	-50.5	17.0	0.00e+00	0	38	0	1043333120	67	4869
2026-01-19 10:03:27.10	329.59	32.95	-48.5	-50.5	17.2	0.00e+00	0	38	0	1045430272	67	4844
2026-01-19 10:03:28.07	329.65	32.75	-48.7	-50.8	17.0	0.00e+00	0	38	0	1046478848	68	4734
2026-01-19 10:03:29.04	329.71	32.55	-48.4	-50.4	17.3	0.00e+00	0	38	0	1048576000	68	4520
2026-01-19 10:03:30.01	329.76	32.35	-48.3	-50.3	17.5	0.00e+00	0	38	0	1050673152	68	4454
2026-01-19 10:03:30.98	329.82	32.16	-48.6	-50.7	17.1	0.00e+00	0	38	0	1052770304	68	4689
2026-01-19 10:03:31.95	329.88	31.96	-48.5	-50.6	17.1	0.00e+00	0	38	0	1053818880	68	4618
2026-01-19 10:03:32.93	329.93	31.77	-48.7	-50.9	17.0	0.00e+00	0	38	0	1055916032	68	4768
2026-01-19 10:03:33.89	329.99	31.57	-48.8	-51.0	16.8	0.00e+00	0	38	0	1058013184	68	4825
2026-01-19 10:03:34.86	330.04	31.38	-49.1	-51.4	16.3	0.00e+00	0	38	0	1060110336	68	5087
2026-01-19 10:03:35.83	330.09	31.19	-49.2	-51.6	16.2	0.00e+00	0	38	0	1061158912	69	4882
2026-01-19 10:03:36.81	330.15	31.00	-49.5	-52.0	15.7	0.00e+00	0	38	0	1063256064	69	5140
2026-01-19 10:03:37.77	330.20	30.81	-49.9	-52.6	15.2	0.00e+00	0	38	0	1065353216	70	5210
2026-01-19 10:03:38.74	330.25	30.63	-49.8	-52.5	15.3	0.00e+00	0	38	0	1067450368	70	5110
2026-01-19 10:03:39.72	330.30	30.44	-49.4	-51.8	16.0	0.00e+00	0	38	0	1068498944	70	4749
2026-01-19 10:03:40.69	330.35	30.25	-49.2	-51.5	16.2	0.00e+00	0	38	0	1070596096	70	4596
2026-01-19 10:03:41.66	330.40	30.07	-48.6	-50.7	17.0	0.00e+00	0	38	0	1072693248	69	4397
2026-01-19 10:03:42.63	330.45	29.89	-48.0	-49.9	17.8	0.00e+00	0	38	0	1074790400	68	4245
2026-01-19 10:03:43.60	330.50	29.71	-47.6	-49.3	18.1	0.00e+00	0	38	0	1075838976	67	4221
2026-01-19 10:03:44.58	330.55	29.52	-47.6	-49.3	18.2	0.00e+00	0	38	0	1077936128	66	4472
2026-01-19 10:03:45.55	330.60	29.35	-47.5	-49.1	18.4	0.00e+00	0	38	0	1080033280	66	4390
2026-01-19 10:03:46.52	330.64	29.17	-47.4	-49.1	18.4	0.00e+00	0	38	0	1082130432	66	4347
2026-01-19 10:03:47.50	330.69	28.99	-47.4	-49.1	18.4	0.00e+00	0	38	0	1083179008	66	4347
2026-01-19 10:03:48.47	330.74	28.81	-47.4	-49.0	18.5	0.00e+00	0	38	0	1085276160	66	4322
2026-01-19 10:03:49.44	330.78	28.64	-47.7	-49.4	18.1	0.00e+00	0	38	0	1087373312	66	4529
2026-01-19 10:03:50.41	330.83	28.47	-47.7	-49.4	18.1	0.00e+00	0	38	0	1088421888	66	4515
2026-01-19 10:03:51.38	330.88	28.29	-47.8	-49.6	17.9	0.00e+00	0	38	0	1090519040	66	4649
2026-01-19 10:03:52.36	330.92	28.12	-48.1	-50.0	17.5	0.00e+00	0	38	0	1092616192	67	4593
2026-01-19 10:03:53.33	330.96	27.95	-48.2	-50.2	17.4	0.00e+00	0	38	0	1094713344	67	4672
2026-01-19 10:03:54.30	331.01	27.78	-47.8	-49.6	17.8	0.00e+00	0	38	0	1095761920	67	4344
2026-01-19 10:03:55.28	331.05	27.61	-47.8	-49.6	17.9	0.00e+00	0	38	0	1097859072	67	4354
2026-01-19 10:03:56.24	331.10	27.44	-47.7	-49.5	18.0	0.00e+00	0	38	0	1099956224	67	4308
2026-01-19 10:03:57.21	331.14	27.28	-47.6	-49.3	18.2	0.00e+00	0	38	0	1101004800	67	4233
2026-01-19 10:03:58.18	331.18	27.11	-47.0	-48.6	18.9	0.00e+00	0	38	0	1103101952	66	4113
2026-01-19 10:03:59.15	331.22	26.95	-47.0	-48.6	18.9	0.00e+00	0	38	0	1105199104	65	4365
2026-01-19 10:04:00.12	331.26	26.79	-46.8	-48.3	19.1	0.00e+00	0	38	0	1107296256	65	4222
2026-01-19 10:04:01.11	331.31	26.62	-46.3	-47.8	19.6	0.00e+00	0	38	0	1108344832	64	4194
2026-01-19 10:04:02.11	331.35	26.45	-46.4	-47.8	19.6	0.00e+00	0	38	0	1110441984	64	4228
2026-01-19 10:04:03.11	331.39	26.29	-45.9	-47.3	20.1	0.00e+00	0	38	0	1112539136	63	4197
2026-01-19 10:04:04.10	331.43	26.13	-45.7	-47.0	20.4	0.00e+00	0	38	0	1114636288	63	4057
2026-01-19 10:04:05.09	331.47	25.96	-45.0	-46.1	21.1	0.00e+00	0	38	0	1116733440	62	3908
2026-01-19 10:04:06.07	331.51	25.80	-44.8	-45.9	21.3	0.00e+00	0	38	0	1117782016	61	4044
2026-01-19 10:04:07.05	331.55	25.65	-44.5	-45.6	21.6	0.00e+00	0	38	0	1119879168	61	3887
2026-01-19 10:04:08.03	331.59	25.49	-44.3	-45.4	21.7	0.00e+00	0	38	0	1121976320	60	4028
2026-01-19 10:04:09.00	331.63	25.33	-44.4	-45.5	21.7	0.00e+00	0	38	0	1124073472	60	4069
2026-01-19 10:04:09.97	331.66	25.18	-44.4	-45.4	21.7	0.00e+00	0	38	0	1125122048	60	4048
2026-01-19 10:04:10.94	331.70	25.03	-44.4	-45.5	21.6	0.00e+00	0	38	0	1127219200	60	4073
2026-01-19 10:04:11.92	331.74	24.87	-44.3	-45.3	21.8	0.00e+00	0	38	0	1129316352	60	3994
2026-01-19 10:04:12.88	331.78	24.72	-44.2	-45.2	21.9	0.00e+00	0	38	0	1131413504	60	3950
2026-01-19 10:04:13.86	331.81	24.57	-44.5	-45.6	21.6	0.00e+00	0	38	0	1132462080	60	4111
2026-01-19 10:04:14.84	331.85	24.42	-44.4	-45.5	21.6	0.00e+00	0	38	0	1134559232	60	4069
2026-01-19 10:04:15.81	331.89	24.27	-44.5	-45.6	21.6	0.00e+00	0	38	0	1136656384	60	4099
2026-01-19 10:04:16.78	331.92	24.12	-44.4	-45.5	21.6	0.00e+00	0	38	0	1137704960	60	4072
2026-01-19 10:04:17.75	331.96	23.98	-44.6	-45.7	21.5	0.00e+00	0	38	0	1139802112	60	4155
2026-01-19 10:04:18.73	331.99	23.83	-44.7	-45.8	21.3	0.00e+00	0	38	0	1141899264	60	4232
2026-01-19 10:04:19.70	332.03	23.68	-44.8	-45.9	21.3	0.00e+00	0	38	0	1143996416	60	4259
2026-01-19 10:04:20.68	332.06	23.54	-44.8	-46.0	21.2	0.00e+00	0	38	0	1145044992	60	4297
2026-01-19 10:04:21.65	332.10	23.39	-44.9	-46.1	21.1	0.00e+00	0	38	0	1147142144	60	4369
2026-01-19 10:04:22.61	332.13	23.25	-45.1	-46.3	20.9	0.00e+00	0	38	0	1149239296	60	4477
2026-01-19 10:04:23.58	332.16	23.11	-45.3	-46.5	20.7	0.00e+00	0	38	0	1151336448	61	4311
2026-01-19 10:04:24.55	332.20	22.97	-45.5	-46.8	20.4	0.00e+00	0	38	0	1152385024	61	4468
2026-01-19 10:04:25.52	332.23	22.83	-45.7	-47.1	20.2	0.00e+00	0	38	0	1154482176	62	4346
2026-01-19 10:04:26.49	332.26	22.69	-46.0	-47.3	20.0	0.00e+00	0	38	0	1156579328	62	4492
2026-01-19 10:04:27.46	332.30	22.55	-46.0	-47.4	20.0	0.00e+00	0	38	0	1158676480	62	4502
2026-01-19 10:04:28.43	332.33	22.41	-46.2	-47.6	19.8	0.00e+00	0	38	0	1159725056	62	4610
2026-01-19 10:04:29.40	332.36	22.27	-46.5	-47.9	19.4	0.00e+00	0	38	0	1161822208	63	4529
2026-01-19 10:04:30.38	332.39	22.14	-46.4	-47.9	19.5	0.00e+00	0	38	0	1163919360	63	4523
2026-01-19 10:04:31.35	332.42	22.00	-46.5	-47.9	19.4	0.00e+00	0	38	0	1166016512	63	4526
2026-01-19 10:04:32.32	332.46	21.86	-46.5	-47.9	19.4	0.00e+00	0	38	0	1167065088	63	4544
2026-01-19 10:04:33.29	332.49	21.73	-46.5	-48.0	19.3	0.00e+00	0	38	0	1169162240	63	4559
2026-01-19 10:04:34.26	332.52	21.59	-46.1	-47.5	19.7	0.00e+00	0	38	0	1171259392	63	4330
2026-01-19 10:04:35.24	332.55	21.46	-46.2	-47.6	19.7	0.00e+00	0	38	0	1173356544	63	4363
2026-01-19 10:04:36.21	332.58	21.33	-46.2	-47.6	19.7	0.00e+00	0	38	0	1174405120	63	4368
2026-01-19 10:04:37.18	332.61	21.20	-46.0	-47.3	19.9	0.00e+00	0	38	0	1176502272	63	4240
2026-01-19 10:04:38.15	332.64	21.06	-46.0	-47.3	20.0	0.00e+00	0	38	0	1178599424	63	4234
2026-01-19 10:04:39.12	332.67	20.93	-46.1	-47.5	19.8	0.00e+00	0	38	0	1180696576	63	4294
2026-01-19 10:04:40.09	332.70	20.80	-45.8	-47.2	20.1	0.00e+00	0	38	0	1181745152	63	4159
2026-01-19 10:04:41.05	332.73	20.68	-45.8	-47.1	20.1	0.00e+00	0	38	0	1183842304	63	4127
2026-01-19 10:04:42.02	332.76	20.55	-46.0	-47.4	19.9	0.00e+00	0	38	0	1185939456	63	4261
2026-01-19 10:04:43.00	332.79	20.42	-45.9	-47.3	19.9	0.00e+00	0	38	0	1186988032	63	4238
2026-01-19 10:04:43.97	332.82	20.29	-46.0	-47.4	19.8	0.00e+00	0	38	0	1189085184	63	4287
2026-01-19 10:04:44.94	332.84	20.16	-46.1	-47.5	19.7	0.00e+00	0	38	0	1191182336	63	4321
2026-01-19 10:04:45.92	332.87	20.04	-46.2	-47.6	19.7	0.00e+00	0	38	0	1193279488	63	4366
2026-01-19 10:04:46.89	332.90	19.91	-46.1	-47.5	19.8	0.00e+00	0	38	0	1194328064	63	4317
2026-01-19 10:04:47.86	332.93	19.79	-46.1	-47.6	19.7	0.00e+00	0	38	0	1196425216	63	4346
2026-01-19 10:04:48.84	332.96	19.66	-46.3	-47.8	19.5	0.00e+00	0	38	0	1198522368	63	4452
