passes_logs/2026/01/19/R3.2S_Murmansk/R3.2S_Murmansk__20260119_131859_SUOMI_NPP_rec.log

#Pass ID: 20260119_131859_SUOMI NPP
#Satellite: SUOMI NPP
#Configuration: NPP
#almurnet v.1.7.20251203
#Start time: 2026-01-19 13:19:01

#Version: 2.2.20231116
#Station: R3.2S_Murmansk
#Location: 33.079688 lon 68.888172 lat
#TLE: 1 37849U 11061A   26018.91022273  .00000066  00000+0  52264-4 0  9997
#TLE: 2 37849  98.7816 320.9252 0002364  56.8129 303.3273 14.19526186737260

#Time	Az	El	Level	Level2	SNR	BER	BlckErr	Temp	State	Recorded	gain1	gain2
2026-01-19 13:19:01.41	250.19	2.10	-52.6	-67.5	3.8	1.49e+00	0	35	0	0	77	19385
2026-01-19 13:19:02.42	250.30	2.14	-52.5	-67.5	3.8	1.49e+00	0	35	104	0	75	21690
2026-01-19 13:19:03.42	250.40	2.18	-52.5	-67.5	3.8	1.49e+00	0	35	104	0	75	21739
2026-01-19 13:19:04.43	250.51	2.22	-52.5	-67.5	3.8	1.49e+00	0	35	104	0	75	21599
2026-01-19 13:19:05.44	250.62	2.26	-52.5	-67.5	3.8	1.49e+00	0	36	104	0	75	21620
2026-01-19 13:19:06.44	250.73	2.30	-52.5	-67.5	3.8	1.49e+00	0	35	104	0	75	21679
2026-01-19 13:19:07.45	250.83	2.35	-52.5	-67.5	3.8	1.49e+00	0	36	104	0	75	21603
2026-01-19 13:19:08.46	250.94	2.39	-52.5	-67.5	3.8	1.49e+00	0	35	104	0	75	21604
2026-01-19 13:19:09.47	251.05	2.43	-52.5	-67.5	3.8	1.49e+00	0	36	104	0	75	21628
2026-01-19 13:19:10.48	251.16	2.47	-52.5	-67.5	3.8	1.49e+00	0	36	104	0	75	21661
2026-01-19 13:19:11.49	251.27	2.51	-52.5	-67.5	3.8	1.49e+00	0	36	104	0	75	21573
2026-01-19 13:19:12.49	251.38	2.55	-52.5	-67.5	3.8	1.49e+00	0	36	104	0	75	21656
2026-01-19 13:19:13.50	251.49	2.60	-52.5	-67.5	3.8	1.49e+00	0	36	104	0	75	21624
2026-01-19 13:19:14.51	251.60	2.64	-52.5	-67.5	3.8	1.49e+00	0	36	104	0	75	21526
2026-01-19 13:19:15.52	251.71	2.68	-52.5	-67.5	3.8	1.49e+00	0	36	104	0	75	21562
2026-01-19 13:19:16.52	251.81	2.72	-52.5	-67.5	3.8	1.49e+00	0	36	104	0	75	21545
2026-01-19 13:19:17.53	251.93	2.76	-52.5	-67.5	3.8	1.49e+00	0	36	104	0	75	21523
2026-01-19 13:19:18.54	252.04	2.80	-52.5	-67.5	3.8	1.49e+00	0	36	104	0	75	21520
2026-01-19 13:19:19.55	252.15	2.85	-52.5	-67.5	3.8	1.49e+00	0	36	104	0	75	21547
2026-01-19 13:19:20.56	252.26	2.89	-52.5	-67.5	3.8	1.49e+00	0	36	104	0	75	21584
2026-01-19 13:19:21.57	252.37	2.93	-52.5	-67.5	3.8	1.49e+00	0	36	104	0	75	21624
2026-01-19 13:19:22.58	252.48	2.97	-52.5	-67.5	3.8	1.49e+00	0	36	104	0	75	21607
2026-01-19 13:19:23.59	252.60	3.01	-52.5	-67.5	3.8	1.49e+00	0	36	104	0	75	21606
2026-01-19 13:19:24.60	252.71	3.05	-52.5	-67.5	3.8	1.49e+00	0	36	104	0	75	21577
2026-01-19 13:19:25.61	252.82	3.09	-52.5	-67.5	3.8	1.49e+00	0	36	104	0	75	21555
2026-01-19 13:19:26.61	252.93	3.13	-52.5	-67.5	3.8	1.49e+00	0	36	104	0	75	21508
2026-01-19 13:19:27.62	253.05	3.18	-52.5	-67.4	3.8	1.49e+00	0	36	104	0	75	21413
2026-01-19 13:19:28.63	253.16	3.22	-52.5	-67.3	3.8	1.49e+00	0	36	104	0	75	21226
2026-01-19 13:19:29.64	253.28	3.26	-52.5	-67.4	3.8	1.49e+00	0	36	104	0	75	21283
2026-01-19 13:19:30.65	253.39	3.30	-52.5	-67.4	3.8	1.49e+00	0	36	104	0	75	21415
2026-01-19 13:19:31.65	253.51	3.34	-52.5	-67.4	3.8	1.49e+00	0	36	104	0	75	21474
2026-01-19 13:19:32.66	253.62	3.38	-52.5	-67.4	3.8	1.49e+00	0	36	104	0	75	21420
2026-01-19 13:19:33.67	253.74	3.42	-52.5	-67.4	3.8	1.49e+00	0	36	104	0	75	21435
2026-01-19 13:19:34.68	253.85	3.46	-52.5	-67.4	3.8	1.49e+00	0	36	104	0	75	21490
2026-01-19 13:19:35.69	253.97	3.51	-52.5	-67.5	3.8	1.49e+00	0	36	104	0	75	21512
2026-01-19 13:19:36.69	254.08	3.55	-52.5	-67.4	3.8	1.49e+00	0	36	104	0	75	21417
2026-01-19 13:19:37.70	254.20	3.59	-52.5	-67.5	3.8	1.49e+00	0	36	104	0	75	21532
2026-01-19 13:19:38.71	254.32	3.63	-52.5	-67.5	3.8	1.49e+00	0	36	104	0	75	21574
2026-01-19 13:19:39.72	254.44	3.67	-52.5	-67.4	3.8	1.49e+00	0	36	104	0	75	21500
2026-01-19 13:19:40.72	254.55	3.71	-52.5	-67.4	3.8	1.49e+00	0	36	104	0	75	21411
2026-01-19 13:19:41.73	254.67	3.75	-52.5	-67.3	3.8	1.49e+00	0	36	104	0	75	21251
2026-01-19 13:19:42.74	254.79	3.79	-52.5	-67.3	3.8	1.49e+00	0	36	104	0	75	21095
2026-01-19 13:19:43.75	254.91	3.83	-52.5	-67.4	3.8	1.49e+00	0	36	104	0	75	21263
2026-01-19 13:19:44.76	255.03	3.87	-52.5	-67.4	3.8	1.49e+00	0	36	104	0	75	21387
2026-01-19 13:19:45.77	255.15	3.91	-52.5	-67.4	3.8	1.49e+00	0	36	104	0	75	21382
2026-01-19 13:19:46.77	255.26	3.95	-52.5	-67.5	3.8	1.49e+00	0	36	104	0	75	21563
2026-01-19 13:19:47.78	255.38	3.99	-52.5	-67.5	3.8	1.49e+00	0	36	104	0	75	21606
2026-01-19 13:19:48.79	255.50	4.04	-52.5	-67.5	3.8	1.49e+00	0	37	104	0	75	21553
2026-01-19 13:19:49.80	255.63	4.08	-52.5	-67.4	3.8	1.49e+00	0	36	104	0	75	21437
2026-01-19 13:19:50.81	255.75	4.12	-52.5	-67.3	3.8	1.49e+00	0	36	104	0	75	21179
2026-01-19 13:19:51.81	255.87	4.16	-52.5	-67.2	3.8	1.49e+00	0	36	104	0	75	20992
2026-01-19 13:19:52.82	255.99	4.20	-52.5	-67.2	3.8	1.49e+00	0	36	104	0	75	20871
2026-01-19 13:19:53.83	256.11	4.24	-52.5	-67.3	3.8	1.49e+00	0	37	104	0	75	21032
2026-01-19 13:19:54.84	256.23	4.28	-52.5	-67.3	3.8	1.49e+00	0	36	104	0	75	21183
2026-01-19 13:19:55.84	256.35	4.32	-52.5	-67.4	3.8	1.49e+00	0	36	104	0	75	21272
2026-01-19 13:19:56.85	256.48	4.36	-52.5	-67.3	3.8	1.49e+00	0	36	104	0	75	21195
2026-01-19 13:19:57.86	256.60	4.40	-52.5	-67.2	3.8	1.49e+00	0	36	104	0	75	20859
2026-01-19 13:19:58.87	256.72	4.44	-52.5	-67.2	3.8	1.49e+00	0	36	104	0	75	20828
2026-01-19 13:19:59.88	256.85	4.48	-52.5	-67.4	3.8	1.49e+00	0	37	104	0	75	21272
2026-01-19 13:20:00.89	256.97	4.52	-52.5	-67.3	3.8	1.49e+00	0	36	104	0	75	21203
2026-01-19 13:20:01.89	257.09	4.56	-52.5	-66.6	3.8	1.49e+00	0	36	104	0	75	19477
2026-01-19 13:20:02.90	257.22	4.60	-52.4	-65.1	3.8	1.49e+00	0	37	104	0	75	16440
2026-01-19 13:20:03.91	257.34	4.64	-52.3	-63.3	4.4	1.40e+00	97	37	0	0	75	13374
2026-01-19 13:20:04.92	257.47	4.68	-52.1	-61.4	5.2	6.41e-01	0	36	0	2097152	75	10778
2026-01-19 13:20:05.93	257.60	4.72	-51.9	-60.1	6.2	3.59e-01	0	37	0	3145728	75	9260
2026-01-19 13:20:06.93	257.72	4.76	-51.7	-58.9	7.3	1.98e-01	0	37	0	5242880	75	8035
2026-01-19 13:20:07.94	257.85	4.80	-51.4	-57.6	8.6	8.17e-02	0	37	0	7340032	74	7292
2026-01-19 13:20:08.95	257.97	4.84	-50.8	-55.9	10.3	1.20e-02	0	36	0	9437184	73	6391
2026-01-19 13:20:09.96	258.10	4.88	-50.2	-54.3	12.0	1.38e-03	0	36	0	10485760	72	5618
2026-01-19 13:20:10.96	258.23	4.92	-49.6	-53.0	13.4	9.15e-05	0	36	0	12582912	71	5137
2026-01-19 13:20:11.97	258.36	4.95	-48.9	-51.7	14.8	1.50e-06	0	37	0	14680064	69	4928
2026-01-19 13:20:12.98	258.48	4.99	-48.8	-51.6	14.9	0.00e+00	0	37	0	16777216	69	4890
2026-01-19 13:20:13.99	258.61	5.03	-48.6	-51.3	15.2	0.00e+00	0	37	0	18874368	69	4730
2026-01-19 13:20:14.99	258.74	5.07	-49.9	-53.5	13.0	0.00e+00	0	36	0	19922944	70	5763
2026-01-19 13:20:16.00	258.87	5.11	-49.7	-53.3	13.1	1.50e-06	0	37	0	22020096	69	5967
2026-01-19 13:20:17.01	259.00	5.15	-51.8	-59.0	7.5	8.16e-05	0	37	0	24117248	74	8609
2026-01-19 13:20:18.02	259.13	5.19	-49.3	-52.4	14.0	1.59e-02	0	37	0	26214400	70	5090
2026-01-19 13:20:19.03	259.26	5.23	-50.1	-54.0	12.5	3.00e-06	0	37	0	28311552	70	6073
2026-01-19 13:20:20.03	259.39	5.27	-48.6	-51.3	15.2	5.30e-06	0	37	0	30408704	69	4717
2026-01-19 13:20:21.04	259.52	5.31	-48.5	-51.1	15.3	0.00e+00	0	37	0	31457280	69	4615
2026-01-19 13:20:22.05	259.65	5.35	-48.5	-51.1	15.4	0.00e+00	0	37	0	33554432	68	4886
2026-01-19 13:20:23.06	259.78	5.38	-48.4	-50.9	15.5	0.00e+00	0	37	0	35651584	68	4790
2026-01-19 13:20:24.07	259.91	5.42	-48.2	-50.6	15.8	0.00e+00	0	37	0	37748736	68	4638
2026-01-19 13:20:25.07	260.04	5.46	-48.2	-50.7	15.8	0.00e+00	0	37	0	38797312	68	4663
2026-01-19 13:20:26.08	260.18	5.50	-48.3	-50.7	15.7	0.00e+00	0	37	0	40894464	68	4685
2026-01-19 13:20:27.09	260.31	5.54	-48.4	-51.0	15.6	0.00e+00	0	37	0	42991616	68	4825
2026-01-19 13:20:28.10	260.44	5.58	-48.2	-50.6	15.8	0.00e+00	0	36	0	45088768	68	4640
2026-01-19 13:20:29.10	260.57	5.61	-48.2	-50.7	15.8	0.00e+00	0	37	0	47185920	68	4661
2026-01-19 13:20:30.11	260.71	5.65	-48.2	-50.6	15.8	0.00e+00	0	37	0	49283072	68	4642
2026-01-19 13:20:31.12	260.84	5.69	-48.1	-50.4	15.9	0.00e+00	0	37	0	50331648	68	4530
2026-01-19 13:20:32.13	260.98	5.73	-47.8	-50.0	16.4	0.00e+00	0	37	0	52428800	67	4569
2026-01-19 13:20:33.14	261.11	5.77	-47.9	-50.2	16.1	0.00e+00	0	37	0	54525952	67	4704
2026-01-19 13:20:34.15	261.25	5.81	-47.9	-50.2	16.2	0.00e+00	0	37	0	56623104	67	4673
2026-01-19 13:20:35.15	261.38	5.84	-47.7	-49.9	16.4	0.00e+00	0	37	0	58720256	67	4539
2026-01-19 13:20:36.16	261.52	5.88	-47.9	-50.1	16.3	0.00e+00	0	37	0	59768832	67	4641
2026-01-19 13:20:37.17	261.65	5.92	-47.7	-49.9	16.5	0.00e+00	0	37	0	61865984	67	4500
2026-01-19 13:20:38.18	261.79	5.96	-47.6	-49.8	16.6	0.00e+00	0	37	0	63963136	67	4461
2026-01-19 13:20:39.19	261.93	5.99	-47.7	-49.9	16.5	0.00e+00	0	37	0	66060288	67	4531
2026-01-19 13:20:40.20	262.06	6.03	-48.0	-50.3	16.1	0.00e+00	0	37	0	68157440	67	4752
2026-01-19 13:20:41.20	262.20	6.07	-48.1	-50.5	16.0	0.00e+00	0	37	0	69206016	67	4827
2026-01-19 13:20:42.21	262.34	6.11	-48.0	-50.4	16.0	0.00e+00	0	37	0	71303168	67	4773
2026-01-19 13:20:43.22	262.47	6.14	-48.0	-50.3	16.1	0.00e+00	0	37	0	73400320	67	4722
2026-01-19 13:20:44.23	262.61	6.18	-48.0	-50.3	16.1	0.00e+00	0	37	0	75497472	67	4757
2026-01-19 13:20:45.23	262.75	6.22	-48.2	-50.6	15.8	0.00e+00	0	37	0	77594624	67	4877
2026-01-19 13:20:46.24	262.89	6.25	-48.3	-50.7	15.7	0.00e+00	0	37	0	78643200	67	4967
2026-01-19 13:20:47.25	263.03	6.29	-48.3	-50.8	15.6	0.00e+00	0	37	0	80740352	67	5007
2026-01-19 13:20:48.26	263.17	6.33	-48.3	-50.8	15.6	0.00e+00	0	37	0	82837504	67	5002
2026-01-19 13:20:49.27	263.31	6.36	-48.2	-50.6	15.8	0.00e+00	0	37	0	84934656	67	4876
2026-01-19 13:20:50.28	263.45	6.40	-48.1	-50.4	16.0	0.00e+00	0	37	0	87031808	67	4805
2026-01-19 13:20:51.28	263.59	6.44	-48.1	-50.4	16.0	0.00e+00	0	37	0	88080384	67	4811
2026-01-19 13:20:52.30	263.73	6.47	-48.1	-50.4	16.0	0.00e+00	0	37	0	90177536	67	4800
2026-01-19 13:20:53.30	263.87	6.51	-48.2	-50.6	15.9	0.00e+00	0	37	0	92274688	67	4880
2026-01-19 13:20:54.31	264.01	6.55	-48.3	-50.7	15.7	0.00e+00	0	37	0	94371840	67	4971
2026-01-19 13:20:55.32	264.16	6.58	-48.3	-50.8	15.7	0.00e+00	0	37	0	96468992	67	5003
2026-01-19 13:20:56.32	264.30	6.62	-48.2	-50.6	15.8	0.00e+00	0	37	0	97517568	67	4886
2026-01-19 13:20:57.33	264.44	6.65	-48.0	-50.3	16.1	0.00e+00	0	37	0	99614720	67	4749
2026-01-19 13:20:58.34	264.58	6.69	-48.1	-50.4	16.1	0.00e+00	0	37	0	101711872	67	4773
2026-01-19 13:20:59.35	264.73	6.73	-48.0	-50.3	16.2	0.00e+00	0	37	0	103809024	67	4724
2026-01-19 13:21:00.36	264.87	6.76	-48.2	-50.6	15.9	0.00e+00	0	37	0	105906176	67	4886
2026-01-19 13:21:01.37	265.02	6.80	-48.1	-50.4	16.1	0.00e+00	0	37	0	106954752	67	4781
2026-01-19 13:21:02.37	265.16	6.83	-47.8	-50.0	16.4	0.00e+00	0	37	0	109051904	67	4595
2026-01-19 13:21:03.38	265.30	6.87	-48.0	-50.3	16.2	0.00e+00	0	37	0	111149056	67	4734
2026-01-19 13:21:04.39	265.45	6.90	-48.2	-50.6	15.9	0.00e+00	0	37	0	113246208	67	4872
2026-01-19 13:21:05.40	265.59	6.94	-48.2	-50.6	15.8	0.00e+00	0	37	0	115343360	67	4921
2026-01-19 13:21:06.41	265.74	6.97	-48.3	-50.8	15.7	0.00e+00	0	37	0	116391936	67	5025
2026-01-19 13:21:07.41	265.88	7.01	-48.5	-51.1	15.3	0.00e+00	0	37	0	118489088	67	5201
2026-01-19 13:21:08.42	266.03	7.04	-48.6	-51.2	15.3	0.00e+00	0	37	0	120586240	67	5236
2026-01-19 13:21:09.43	266.18	7.08	-48.4	-50.9	15.5	0.00e+00	0	37	0	122683392	67	5075
2026-01-19 13:21:10.44	266.33	7.11	-48.4	-51.0	15.4	0.00e+00	0	37	0	124780544	67	5118
2026-01-19 13:21:11.45	266.47	7.15	-48.4	-50.9	15.5	0.00e+00	0	37	0	125829120	67	5054
2026-01-19 13:21:12.45	266.62	7.18	-48.1	-50.5	15.8	0.00e+00	0	37	0	127926272	67	4868
2026-01-19 13:21:13.46	266.77	7.22	-47.9	-50.2	16.2	0.00e+00	0	37	0	130023424	67	4666
2026-01-19 13:21:14.47	266.92	7.25	-47.9	-50.2	16.0	0.00e+00	0	37	0	132120576	67	4700
2026-01-19 13:21:15.48	267.07	7.28	-47.8	-50.1	16.2	0.00e+00	0	37	0	134217728	67	4603
2026-01-19 13:21:16.48	267.21	7.32	-48.0	-50.4	15.8	0.00e+00	0	37	0	135266304	67	4808
2026-01-19 13:21:17.49	267.36	7.35	-48.0	-50.5	15.6	0.00e+00	0	37	0	137363456	67	4857
2026-01-19 13:21:18.50	267.51	7.39	-48.4	-51.1	15.0	0.00e+00	0	37	0	139460608	67	5189
2026-01-19 13:21:19.51	267.66	7.42	-48.7	-51.7	14.4	0.00e+00	0	37	0	141557760	67	5547
2026-01-19 13:21:20.51	267.81	7.45	-49.3	-52.9	13.1	8.30e-06	0	37	0	143654912	69	5677
2026-01-19 13:21:21.52	267.96	7.49	-49.6	-53.6	12.4	9.53e-05	0	37	0	145752064	69	6151
2026-01-19 13:21:22.53	268.11	7.52	-49.9	-54.2	11.6	3.23e-04	0	37	0	146800640	70	6248
2026-01-19 13:21:23.54	268.27	7.55	-50.2	-55.2	10.6	1.54e-03	0	37	0	148897792	70	6964
2026-01-19 13:21:24.55	268.42	7.58	-50.4	-55.8	9.9	6.41e-03	0	37	0	150994944	71	7061
2026-01-19 13:21:25.55	268.57	7.62	-50.5	-56.3	9.3	1.33e-02	0	37	0	153092096	71	7468
2026-01-19 13:21:26.56	268.72	7.65	-50.6	-56.8	8.6	3.05e-02	0	37	0	154140672	71	7933
2026-01-19 13:21:27.57	268.87	7.68	-50.7	-57.2	8.2	4.85e-02	0	37	0	156237824	71	8284
2026-01-19 13:21:28.58	269.03	7.71	-50.7	-57.7	7.6	8.37e-02	0	37	0	158334976	72	8278
2026-01-19 13:21:29.59	269.18	7.75	-50.7	-57.6	7.6	1.03e-01	0	37	0	160432128	72	8232
2026-01-19 13:21:30.59	269.33	7.78	-50.7	-57.3	8.1	7.95e-02	0	37	0	162529280	72	7927
2026-01-19 13:21:31.60	269.49	7.81	-50.7	-57.1	8.4	4.80e-02	0	37	0	163577856	72	7768
2026-01-19 13:21:32.61	269.64	7.84	-50.7	-56.7	9.0	3.65e-02	0	37	0	165675008	72	7378
2026-01-19 13:21:33.62	269.80	7.87	-50.7	-56.3	9.5	1.68e-02	0	37	0	167772160	72	7093
2026-01-19 13:21:34.62	269.95	7.91	-50.5	-55.7	10.1	1.01e-02	0	37	0	169869312	72	6608
2026-01-19 13:21:35.63	270.11	7.94	-50.0	-54.2	11.7	2.16e-03	0	37	0	171966464	72	5583
2026-01-19 13:21:36.64	270.26	7.97	-49.7	-53.4	12.7	2.36e-04	0	37	0	174063616	71	5372
2026-01-19 13:21:37.65	270.42	8.00	-49.5	-52.9	13.3	2.28e-05	0	37	0	175112192	71	5081
2026-01-19 13:21:38.65	270.57	8.03	-49.4	-52.6	13.7	1.06e-05	0	37	0	177209344	70	5185
2026-01-19 13:21:39.66	270.73	8.06	-49.0	-52.0	14.4	7.00e-07	0	37	0	179306496	70	4826
2026-01-19 13:21:40.67	270.89	8.09	-49.0	-51.8	14.7	7.00e-07	0	37	0	181403648	69	5020
2026-01-19 13:21:41.68	271.05	8.12	-48.7	-51.4	15.2	0.00e+00	0	37	0	182452224	69	4781
2026-01-19 13:21:42.69	271.20	8.15	-48.6	-51.1	15.5	0.00e+00	0	37	0	184549376	69	4636
2026-01-19 13:21:43.69	271.36	8.18	-48.5	-51.0	15.7	0.00e+00	0	37	0	186646528	68	4825
2026-01-19 13:21:44.70	271.52	8.21	-48.2	-50.6	16.1	0.00e+00	0	37	0	188743680	68	4601
2026-01-19 13:21:45.71	271.68	8.24	-48.2	-50.4	16.3	0.00e+00	0	37	0	190840832	68	4544
2026-01-19 13:21:46.72	271.84	8.27	-48.2	-50.5	16.2	0.00e+00	0	37	0	192937984	68	4595
2026-01-19 13:21:47.72	271.99	8.30	-48.3	-50.6	16.1	0.00e+00	0	37	0	193986560	68	4634
2026-01-19 13:21:48.73	272.15	8.33	-48.2	-50.5	16.3	0.00e+00	0	37	0	196083712	68	4564
2026-01-19 13:21:49.74	272.31	8.36	-48.4	-50.7	16.0	0.00e+00	0	37	0	198180864	68	4703
2026-01-19 13:21:50.75	272.47	8.39	-48.3	-50.6	16.2	0.00e+00	0	37	0	200278016	68	4624
2026-01-19 13:21:51.76	272.63	8.42	-48.5	-50.9	15.9	0.00e+00	0	37	0	202375168	68	4776
2026-01-19 13:21:52.77	272.79	8.45	-48.5	-50.9	15.9	0.00e+00	0	37	0	203423744	68	4769
2026-01-19 13:21:53.78	272.96	8.48	-48.6	-51.1	15.7	0.00e+00	0	37	0	205520896	68	4886
2026-01-19 13:21:54.78	273.12	8.51	-48.7	-51.2	15.6	0.00e+00	0	37	0	207618048	68	4942
2026-01-19 13:21:55.79	273.28	8.54	-48.6	-51.1	15.8	0.00e+00	0	37	0	209715200	68	4874
2026-01-19 13:21:56.80	273.44	8.56	-48.5	-50.9	15.8	0.00e+00	0	37	0	210763776	68	4802
2026-01-19 13:21:57.81	273.60	8.59	-48.3	-50.7	16.1	0.00e+00	0	37	0	212860928	68	4653
2026-01-19 13:21:58.81	273.76	8.62	-48.1	-50.2	16.6	0.00e+00	0	37	0	214958080	68	4428
2026-01-19 13:21:59.82	273.93	8.65	-47.9	-50.0	16.7	0.00e+00	0	37	0	217055232	67	4559
2026-01-19 13:22:00.83	274.09	8.67	-47.9	-50.0	16.7	0.00e+00	0	37	0	219152384	67	4574
2026-01-19 13:22:01.83	274.25	8.70	-47.9	-50.0	16.7	0.00e+00	0	37	0	221249536	67	4551
2026-01-19 13:22:02.84	274.42	8.73	-47.9	-50.0	16.7	0.00e+00	0	37	0	222298112	67	4586
2026-01-19 13:22:03.85	274.58	8.76	-48.0	-50.2	16.5	0.00e+00	0	37	0	224395264	67	4693
2026-01-19 13:22:04.86	274.74	8.78	-48.1	-50.3	16.4	0.00e+00	0	37	0	226492416	67	4748
2026-01-19 13:22:05.86	274.91	8.81	-48.3	-50.6	16.1	0.00e+00	0	37	0	228589568	67	4890
2026-01-19 13:22:06.87	275.07	8.84	-48.4	-50.8	15.9	0.00e+00	0	37	0	230686720	67	5009
2026-01-19 13:22:07.88	275.24	8.86	-48.5	-50.9	15.9	0.00e+00	0	37	0	231735296	67	5054
2026-01-19 13:22:08.89	275.40	8.89	-48.7	-51.2	15.6	0.00e+00	0	37	0	233832448	67	5250
2026-01-19 13:22:09.89	275.57	8.92	-48.7	-51.2	15.6	0.00e+00	0	37	0	235929600	67	5235
2026-01-19 13:22:10.90	275.73	8.94	-48.7	-51.2	15.8	0.00e+00	0	37	0	238026752	68	4930
2026-01-19 13:22:11.91	275.90	8.97	-48.8	-51.2	15.7	0.00e+00	0	37	0	239075328	68	4966
2026-01-19 13:22:12.92	276.07	8.99	-48.7	-51.1	15.7	0.00e+00	0	37	0	241172480	68	4908
2026-01-19 13:22:13.93	276.23	9.02	-48.7	-51.2	15.7	0.00e+00	0	37	0	243269632	68	4934
2026-01-19 13:22:14.93	276.40	9.04	-48.6	-51.1	15.8	0.00e+00	0	37	0	245366784	68	4887
2026-01-19 13:22:15.94	276.57	9.07	-48.7	-51.2	15.7	0.00e+00	0	37	0	247463936	68	4929
2026-01-19 13:22:16.95	276.73	9.09	-48.4	-50.8	16.0	0.00e+00	0	37	0	249561088	68	4730
2026-01-19 13:22:17.96	276.90	9.12	-48.5	-50.8	16.0	0.00e+00	0	37	0	250609664	68	4726
2026-01-19 13:22:18.97	277.07	9.14	-48.4	-50.7	16.1	0.00e+00	0	37	0	252706816	68	4692
2026-01-19 13:22:19.97	277.24	9.17	-48.3	-50.5	16.3	0.00e+00	0	37	0	254803968	68	4579
2026-01-19 13:22:20.98	277.41	9.19	-48.3	-50.6	16.3	0.00e+00	0	37	0	256901120	68	4599
2026-01-19 13:22:21.99	277.58	9.21	-48.1	-50.2	16.6	0.00e+00	0	37	0	258998272	68	4404
2026-01-19 13:22:23.00	277.75	9.24	-48.2	-50.4	16.5	0.00e+00	0	37	0	260046848	68	4500
2026-01-19 13:22:24.01	277.92	9.26	-48.2	-50.4	16.5	0.00e+00	0	37	0	262144000	68	4530
2026-01-19 13:22:25.01	278.08	9.28	-48.2	-50.3	16.5	0.00e+00	0	37	0	264241152	68	4491
2026-01-19 13:22:26.02	278.25	9.31	-48.3	-50.6	16.3	0.00e+00	0	37	0	266338304	68	4620
2026-01-19 13:22:27.03	278.42	9.33	-48.7	-51.1	15.8	0.00e+00	0	37	0	268435456	68	4907
2026-01-19 13:22:28.04	278.60	9.35	-48.8	-51.4	15.5	0.00e+00	0	37	0	269484032	68	5043
2026-01-19 13:22:29.05	278.77	9.37	-48.9	-51.5	15.4	0.00e+00	0	37	0	271581184	68	5137
2026-01-19 13:22:30.05	278.94	9.40	-49.3	-52.2	14.7	0.00e+00	0	37	0	273678336	69	5231
2026-01-19 13:22:31.06	279.11	9.42	-49.3	-52.1	14.8	0.00e+00	0	37	0	275775488	69	5194
2026-01-19 13:22:32.07	279.28	9.44	-49.4	-52.2	14.8	0.00e+00	0	37	0	277872640	69	5241
2026-01-19 13:22:33.08	279.45	9.46	-49.4	-52.3	14.6	7.00e-07	0	37	0	278921216	69	5326
2026-01-19 13:22:34.09	279.62	9.48	-49.2	-51.9	15.0	7.00e-07	0	37	0	281018368	69	5075
2026-01-19 13:22:35.09	279.79	9.50	-48.9	-51.4	15.5	0.00e+00	0	37	0	283115520	69	4790
2026-01-19 13:22:36.10	279.97	9.53	-48.7	-51.2	15.7	0.00e+00	0	37	0	285212672	69	4654
2026-01-19 13:22:37.11	280.14	9.55	-48.5	-50.9	16.0	0.00e+00	0	37	0	287309824	69	4506
2026-01-19 13:22:38.12	280.31	9.57	-48.3	-50.4	16.4	0.00e+00	0	37	0	289406976	68	4545
2026-01-19 13:22:39.13	280.49	9.59	-48.4	-50.6	16.3	0.00e+00	0	37	0	290455552	68	4628
2026-01-19 13:22:40.13	280.66	9.61	-48.3	-50.5	16.4	0.00e+00	0	37	0	292552704	68	4575
2026-01-19 13:22:41.14	280.83	9.63	-48.3	-50.6	16.3	0.00e+00	0	37	0	294649856	68	4608
2026-01-19 13:22:42.15	281.01	9.65	-48.5	-50.8	16.1	0.00e+00	0	37	0	296747008	68	4743
2026-01-19 13:22:43.15	281.18	9.67	-48.4	-50.7	16.2	0.00e+00	0	37	0	297795584	68	4674
2026-01-19 13:22:44.16	281.35	9.69	-48.4	-50.7	16.2	0.00e+00	0	37	0	299892736	68	4696
2026-01-19 13:22:45.17	281.53	9.70	-48.2	-50.4	16.6	0.00e+00	0	37	0	301989888	68	4508
2026-01-19 13:22:46.18	281.70	9.72	-48.2	-50.3	16.6	0.00e+00	0	37	0	304087040	68	4472
2026-01-19 13:22:47.19	281.88	9.74	-47.9	-49.9	16.9	0.00e+00	0	37	0	306184192	67	4531
2026-01-19 13:22:48.19	282.05	9.76	-48.0	-50.0	16.8	0.00e+00	0	37	0	307232768	67	4596
2026-01-19 13:22:49.20	282.23	9.78	-47.9	-50.0	16.8	0.00e+00	0	37	0	309329920	67	4576
2026-01-19 13:22:50.21	282.40	9.80	-48.1	-50.2	16.6	0.00e+00	0	37	0	311427072	67	4698
2026-01-19 13:22:51.22	282.58	9.81	-48.2	-50.4	16.5	0.00e+00	0	37	0	313524224	67	4788
2026-01-19 13:22:52.22	282.75	9.83	-48.5	-50.8	16.0	0.00e+00	0	37	0	315621376	67	5033
2026-01-19 13:22:53.23	282.93	9.85	-48.6	-51.1	15.8	0.00e+00	0	37	0	317718528	67	5168
2026-01-19 13:22:54.24	283.11	9.87	-48.9	-51.3	15.7	0.00e+00	0	37	0	318767104	68	5030
2026-01-19 13:22:55.25	283.28	9.88	-48.6	-50.9	16.0	0.00e+00	0	37	0	320864256	68	4800
2026-01-19 13:22:56.26	283.46	9.90	-48.4	-50.7	16.3	0.00e+00	0	37	0	322961408	68	4678
2026-01-19 13:22:57.26	283.64	9.92	-48.2	-50.3	16.7	0.00e+00	0	37	0	325058560	68	4475
2026-01-19 13:22:58.27	283.81	9.93	-48.1	-50.2	16.8	0.00e+00	0	37	0	326107136	68	4429
2026-01-19 13:22:59.28	283.99	9.95	-48.2	-50.3	16.7	0.00e+00	0	37	0	328204288	68	4459
2026-01-19 13:23:00.29	284.17	9.96	-48.3	-50.5	16.5	0.00e+00	0	37	0	330301440	68	4574
2026-01-19 13:23:01.29	284.35	9.98	-48.5	-50.8	16.3	0.00e+00	0	37	0	332398592	68	4712
2026-01-19 13:23:02.30	284.52	10.00	-48.9	-51.4	15.6	0.00e+00	0	37	0	334495744	68	5085
2026-01-19 13:23:03.31	284.70	10.01	-48.9	-51.5	15.6	0.00e+00	0	37	0	335544320	68	5110
2026-01-19 13:23:04.32	284.88	10.02	-48.9	-51.4	15.7	0.00e+00	0	37	0	337641472	68	5058
2026-01-19 13:23:05.33	285.06	10.04	-48.8	-51.2	15.9	0.00e+00	0	37	0	339738624	68	4951
2026-01-19 13:23:06.33	285.24	10.05	-48.5	-50.8	16.3	0.00e+00	0	37	0	341835776	68	4706
2026-01-19 13:23:07.34	285.42	10.07	-48.3	-50.4	16.7	0.00e+00	0	37	0	343932928	68	4511
2026-01-19 13:23:08.35	285.59	10.08	-48.1	-50.2	16.8	0.00e+00	0	37	0	346030080	68	4417
2026-01-19 13:23:09.36	285.77	10.10	-48.2	-50.2	16.8	0.00e+00	0	37	0	347078656	68	4440
2026-01-19 13:23:10.37	285.95	10.11	-48.1	-50.1	17.0	0.00e+00	0	37	0	349175808	68	4366
2026-01-19 13:23:11.37	286.13	10.12	-48.3	-50.5	16.6	0.00e+00	0	37	0	351272960	68	4587
2026-01-19 13:23:12.38	286.31	10.13	-48.5	-50.7	16.4	0.00e+00	0	37	0	353370112	68	4664
2026-01-19 13:23:13.39	286.49	10.15	-48.5	-50.8	16.3	0.00e+00	0	37	0	354418688	68	4712
2026-01-19 13:23:14.40	286.67	10.16	-48.7	-51.0	16.1	0.00e+00	0	37	0	356515840	68	4844
2026-01-19 13:23:15.41	286.85	10.17	-48.7	-51.1	16.1	0.00e+00	0	37	0	358612992	68	4880
2026-01-19 13:23:16.41	287.03	10.18	-48.7	-51.0	16.1	0.00e+00	0	37	0	360710144	68	4850
2026-01-19 13:23:17.42	287.21	10.20	-48.6	-50.9	16.1	0.00e+00	0	37	0	362807296	68	4812
2026-01-19 13:23:18.43	287.39	10.21	-48.7	-51.0	16.2	0.00e+00	0	37	0	364904448	68	4815
2026-01-19 13:23:19.44	287.57	10.22	-48.9	-51.3	15.8	0.00e+00	0	37	0	365953024	68	5018
2026-01-19 13:23:20.45	287.75	10.23	-49.2	-51.9	15.3	0.00e+00	0	37	0	368050176	69	5061
2026-01-19 13:23:21.45	287.93	10.24	-49.6	-52.4	14.8	0.00e+00	0	37	0	370147328	69	5372
2026-01-19 13:23:22.46	288.11	10.25	-50.0	-53.1	14.1	1.50e-06	0	37	0	372244480	70	5506
2026-01-19 13:23:23.47	288.29	10.26	-50.0	-53.2	14.0	6.10e-06	0	37	0	374341632	70	5564
2026-01-19 13:23:24.48	288.48	10.27	-50.1	-53.4	13.8	6.10e-06	0	37	0	375390208	71	5362
2026-01-19 13:23:25.48	288.66	10.28	-50.2	-53.5	13.6	7.60e-06	0	37	0	377487360	71	5438
2026-01-19 13:23:26.49	288.84	10.29	-50.0	-53.1	14.0	1.50e-06	0	37	0	379584512	71	5199
2026-01-19 13:23:27.50	289.02	10.30	-49.8	-52.7	14.5	1.50e-06	0	37	0	381681664	71	4959
2026-01-19 13:23:28.51	289.20	10.31	-49.6	-52.4	14.8	0.00e+00	0	37	0	382730240	71	4805
2026-01-19 13:23:29.51	289.38	10.32	-49.5	-52.2	15.0	0.00e+00	0	37	0	384827392	70	4960
2026-01-19 13:23:30.52	289.56	10.33	-49.5	-52.2	14.9	0.00e+00	0	37	0	386924544	70	4983
2026-01-19 13:23:31.53	289.74	10.33	-49.6	-52.4	14.8	0.00e+00	0	37	0	389021696	70	5087
2026-01-19 13:23:32.54	289.93	10.34	-49.5	-52.3	14.9	0.00e+00	0	37	0	391118848	70	5008
2026-01-19 13:23:33.55	290.11	10.35	-49.6	-52.4	14.8	0.00e+00	0	37	0	393216000	70	5056
2026-01-19 13:23:34.55	290.29	10.36	-49.6	-52.4	14.8	0.00e+00	0	37	0	394264576	70	5043
2026-01-19 13:23:35.56	290.47	10.36	-49.5	-52.2	15.0	0.00e+00	0	37	0	396361728	70	4975
2026-01-19 13:23:36.57	290.65	10.37	-49.4	-52.0	15.2	0.00e+00	0	37	0	398458880	70	4860
2026-01-19 13:23:37.58	290.84	10.38	-49.3	-51.9	15.3	0.00e+00	0	37	0	400556032	70	4790
2026-01-19 13:23:38.59	291.02	10.39	-49.4	-52.0	15.2	0.00e+00	0	37	0	401604608	70	4848
2026-01-19 13:23:39.59	291.20	10.39	-49.2	-51.7	15.6	0.00e+00	0	37	0	403701760	70	4686
2026-01-19 13:23:40.60	291.38	10.40	-49.1	-51.6	15.5	0.00e+00	0	37	0	405798912	70	4638
2026-01-19 13:23:41.61	291.57	10.40	-49.1	-51.6	15.7	0.00e+00	0	37	0	407896064	70	4627
2026-01-19 13:23:42.62	291.75	10.41	-49.2	-51.8	15.5	0.00e+00	0	37	0	409993216	70	4728
2026-01-19 13:23:43.63	291.93	10.41	-49.2	-51.7	15.5	0.00e+00	0	37	0	412090368	70	4676
2026-01-19 13:23:44.63	292.11	10.42	-49.1	-51.6	15.6	0.00e+00	0	37	0	413138944	70	4646
2026-01-19 13:23:45.64	292.30	10.42	-49.0	-51.5	15.7	0.00e+00	0	37	0	415236096	70	4582
2026-01-19 13:23:46.65	292.48	10.43	-49.0	-51.4	15.8	0.00e+00	0	37	0	417333248	70	4536
2026-01-19 13:23:47.66	292.66	10.43	-48.8	-51.1	16.1	0.00e+00	0	37	0	419430400	69	4623
2026-01-19 13:23:48.67	292.85	10.44	-48.7	-51.0	16.2	0.00e+00	0	37	0	421527552	69	4580
2026-01-19 13:23:49.67	293.03	10.44	-48.7	-51.0	16.2	0.00e+00	0	37	0	422576128	69	4575
2026-01-19 13:23:50.68	293.21	10.44	-48.8	-51.1	16.1	0.00e+00	0	37	0	424673280	69	4619
2026-01-19 13:23:51.69	293.40	10.45	-48.8	-51.2	16.1	0.00e+00	0	37	0	426770432	69	4660
2026-01-19 13:23:52.69	293.58	10.45	-48.8	-51.2	16.0	0.00e+00	0	37	0	428867584	69	4661
2026-01-19 13:23:53.70	293.76	10.45	-48.7	-51.0	16.2	0.00e+00	0	37	0	430964736	69	4564
2026-01-19 13:23:54.71	293.95	10.45	-48.7	-51.0	16.2	0.00e+00	0	37	0	432013312	69	4581
2026-01-19 13:23:55.72	294.13	10.46	-48.8	-51.2	16.0	0.00e+00	0	37	0	434110464	69	4681
2026-01-19 13:23:56.73	294.31	10.46	-48.7	-51.0	16.2	0.00e+00	0	37	0	436207616	69	4562
2026-01-19 13:23:57.73	294.49	10.46	-48.5	-50.7	16.5	0.00e+00	0	37	0	438304768	69	4433
2026-01-19 13:23:58.74	294.68	10.46	-48.5	-50.6	16.6	0.00e+00	0	37	0	440401920	68	4648
2026-01-19 13:23:59.75	294.86	10.46	-48.5	-50.8	16.4	0.00e+00	0	37	0	441450496	68	4721
2026-01-19 13:24:00.76	295.05	10.46	-48.6	-50.8	16.4	0.00e+00	0	37	0	443547648	68	4722
2026-01-19 13:24:01.77	295.23	10.46	-48.7	-50.9	16.3	0.00e+00	0	37	0	445644800	68	4795
2026-01-19 13:24:02.77	295.41	10.46	-48.6	-50.9	16.3	0.00e+00	0	37	0	447741952	68	4776
2026-01-19 13:24:03.78	295.59	10.46	-48.6	-50.8	16.4	0.00e+00	0	37	0	449839104	68	4734
2026-01-19 13:24:04.79	295.78	10.46	-48.7	-51.0	16.3	0.00e+00	0	37	0	450887680	68	4833
2026-01-19 13:24:05.80	295.96	10.46	-48.5	-50.7	16.5	0.00e+00	0	37	0	452984832	68	4695
2026-01-19 13:24:06.81	296.15	10.46	-48.4	-50.6	16.6	0.00e+00	0	37	0	455081984	68	4604
2026-01-19 13:24:07.81	296.33	10.46	-48.2	-50.3	16.9	0.00e+00	0	37	0	457179136	68	4471
2026-01-19 13:24:08.82	296.51	10.46	-48.1	-50.2	17.0	0.00e+00	0	37	0	459276288	68	4396
2026-01-19 13:24:09.83	296.69	10.46	-47.8	-49.8	17.3	0.00e+00	0	37	0	460324864	67	4444
2026-01-19 13:24:10.83	296.88	10.46	-47.9	-49.9	17.2	0.00e+00	0	37	0	462422016	67	4512
2026-01-19 13:24:11.84	297.06	10.46	-48.0	-50.0	17.0	0.00e+00	0	37	0	464519168	67	4591
2026-01-19 13:24:12.85	297.24	10.45	-47.9	-49.9	17.2	0.00e+00	0	37	0	466616320	67	4516
2026-01-19 13:24:13.86	297.43	10.45	-47.8	-49.8	17.3	0.00e+00	0	37	0	468713472	67	4457
2026-01-19 13:24:14.87	297.61	10.45	-47.9	-49.8	17.3	0.00e+00	0	37	0	469762048	67	4487
2026-01-19 13:24:15.87	297.79	10.45	-47.8	-49.8	17.3	0.00e+00	0	37	0	471859200	67	4470
2026-01-19 13:24:16.88	297.98	10.44	-47.6	-49.5	17.6	0.00e+00	0	37	0	473956352	67	4312
2026-01-19 13:24:17.89	298.16	10.44	-47.6	-49.4	17.6	0.00e+00	0	37	0	476053504	67	4286
2026-01-19 13:24:18.89	298.34	10.44	-47.4	-49.2	17.8	0.00e+00	0	37	0	478150656	66	4425
2026-01-19 13:24:19.90	298.52	10.43	-47.5	-49.4	17.7	0.00e+00	0	37	0	479199232	66	4494
2026-01-19 13:24:20.91	298.71	10.43	-47.6	-49.4	17.6	0.00e+00	0	37	0	481296384	66	4541
2026-01-19 13:24:21.92	298.89	10.42	-47.9	-49.8	17.3	0.00e+00	0	37	0	483393536	66	4750
2026-01-19 13:24:22.93	299.07	10.42	-48.0	-50.1	17.0	0.00e+00	0	37	0	485490688	66	4876
2026-01-19 13:24:23.94	299.26	10.41	-47.9	-50.0	17.1	0.00e+00	0	37	0	487587840	66	4820
2026-01-19 13:24:24.95	299.44	10.41	-48.0	-50.1	17.0	0.00e+00	0	37	0	488636416	66	4893
2026-01-19 13:24:25.95	299.62	10.40	-48.0	-50.1	17.0	0.00e+00	0	37	0	490733568	66	4871
2026-01-19 13:24:26.96	299.80	10.40	-48.0	-50.0	17.1	0.00e+00	0	37	0	492830720	66	4833
2026-01-19 13:24:27.97	299.99	10.39	-47.9	-49.9	17.2	0.00e+00	0	37	0	494927872	66	4793
2026-01-19 13:24:28.98	300.17	10.38	-47.8	-49.7	17.3	0.00e+00	0	37	0	497025024	66	4689
2026-01-19 13:24:29.99	300.35	10.38	-47.7	-49.6	17.4	0.00e+00	0	37	0	498073600	66	4646
2026-01-19 13:24:30.99	300.53	10.37	-47.8	-49.8	17.3	0.00e+00	0	37	0	500170752	66	4739
2026-01-19 13:24:32.00	300.71	10.36	-47.9	-49.9	17.1	0.00e+00	0	37	0	502267904	66	4795
2026-01-19 13:24:33.01	300.90	10.36	-48.0	-50.0	17.0	0.00e+00	0	37	0	504365056	66	4868
2026-01-19 13:24:34.01	301.08	10.35	-48.1	-50.2	16.9	0.00e+00	0	37	0	506462208	66	4931
2026-01-19 13:24:35.02	301.26	10.34	-48.1	-50.2	16.9	0.00e+00	0	37	0	508559360	66	4940
2026-01-19 13:24:36.03	301.44	10.33	-47.9	-49.9	17.1	0.00e+00	0	37	0	509607936	66	4812
2026-01-19 13:24:37.04	301.62	10.32	-47.8	-49.8	17.2	0.00e+00	0	37	0	511705088	66	4729
2026-01-19 13:24:38.04	301.80	10.32	-47.7	-49.6	17.4	0.00e+00	0	37	0	513802240	66	4638
2026-01-19 13:24:39.05	301.98	10.31	-47.7	-49.6	17.4	0.00e+00	0	37	0	515899392	66	4650
2026-01-19 13:24:40.06	302.17	10.30	-47.5	-49.3	17.6	0.00e+00	0	37	0	516947968	66	4487
2026-01-19 13:24:41.07	302.35	10.29	-47.4	-49.3	17.8	0.00e+00	0	37	0	519045120	66	4442
2026-01-19 13:24:42.07	302.53	10.28	-47.5	-49.4	17.6	0.00e+00	0	37	0	521142272	66	4506
2026-01-19 13:24:43.08	302.71	10.27	-47.5	-49.4	17.6	0.00e+00	0	37	0	523239424	66	4524
2026-01-19 13:24:44.09	302.89	10.26	-47.6	-49.5	17.5	0.00e+00	0	37	0	525336576	66	4552
2026-01-19 13:24:45.10	303.07	10.25	-47.5	-49.4	17.6	0.00e+00	0	37	0	526385152	66	4524
2026-01-19 13:24:46.10	303.25	10.24	-47.5	-49.4	17.5	0.00e+00	0	37	0	528482304	66	4544
2026-01-19 13:24:47.11	303.43	10.23	-47.6	-49.5	17.5	0.00e+00	0	37	0	530579456	66	4591
2026-01-19 13:24:48.12	303.61	10.22	-47.5	-49.3	17.6	0.00e+00	0	37	0	532676608	66	4491
2026-01-19 13:24:49.13	303.79	10.21	-47.3	-49.0	17.9	0.00e+00	0	37	0	534773760	66	4337
2026-01-19 13:24:50.14	303.97	10.19	-47.1	-48.8	18.1	0.00e+00	0	37	0	536870912	66	4227
2026-01-19 13:24:51.15	304.15	10.18	-46.9	-48.5	18.4	0.00e+00	0	37	0	537919488	65	4340
2026-01-19 13:24:52.15	304.33	10.17	-46.8	-48.4	18.5	0.00e+00	0	37	0	540016640	65	4287
2026-01-19 13:24:53.16	304.51	10.16	-46.8	-48.5	18.4	0.00e+00	0	37	0	542113792	65	4310
2026-01-19 13:24:54.17	304.69	10.15	-46.9	-48.5	18.4	0.00e+00	0	37	0	544210944	65	4326
2026-01-19 13:24:55.18	304.87	10.13	-46.8	-48.4	18.5	0.00e+00	0	37	0	545259520	65	4278
2026-01-19 13:24:56.19	305.05	10.12	-47.1	-48.8	18.1	0.00e+00	0	37	0	547356672	65	4465
2026-01-19 13:24:57.19	305.23	10.11	-47.2	-49.0	18.0	0.00e+00	0	37	0	549453824	65	4555
2026-01-19 13:24:58.20	305.41	10.09	-47.1	-48.8	18.1	0.00e+00	0	37	0	551550976	65	4478
2026-01-19 13:24:59.21	305.58	10.08	-47.2	-48.9	18.0	0.00e+00	0	37	0	553648128	65	4537
2026-01-19 13:25:00.22	305.76	10.07	-47.0	-48.8	18.1	0.00e+00	0	37	0	555745280	65	4460
2026-01-19 13:25:01.22	305.94	10.05	-47.1	-48.8	18.1	0.00e+00	0	37	0	556793856	65	4472
2026-01-19 13:25:02.23	306.12	10.04	-46.9	-48.6	18.3	0.00e+00	0	37	0	558891008	65	4381
2026-01-19 13:25:03.24	306.30	10.02	-47.0	-48.7	18.2	0.00e+00	0	37	0	560988160	65	4405
2026-01-19 13:25:04.25	306.48	10.01	-46.9	-48.5	18.3	0.00e+00	0	37	0	563085312	65	4332
2026-01-19 13:25:05.26	306.65	9.99	-46.9	-48.6	18.3	0.00e+00	0	37	0	565182464	65	4384
2026-01-19 13:25:06.27	306.83	9.98	-47.1	-48.9	18.1	0.00e+00	0	37	0	566231040	65	4494
2026-01-19 13:25:07.27	307.01	9.96	-47.1	-48.9	18.1	0.00e+00	0	37	0	568328192	65	4494
2026-01-19 13:25:08.28	307.18	9.95	-47.1	-48.9	18.0	0.00e+00	0	37	0	570425344	65	4511
2026-01-19 13:25:09.29	307.36	9.93	-47.2	-48.9	17.9	0.00e+00	0	37	0	572522496	65	4540
2026-01-19 13:25:10.30	307.54	9.92	-47.1	-48.9	17.9	0.00e+00	0	37	0	573571072	65	4523
2026-01-19 13:25:11.30	307.71	9.90	-47.1	-48.9	18.0	0.00e+00	0	37	0	575668224	65	4496
2026-01-19 13:25:12.31	307.89	9.88	-47.0	-48.8	18.1	0.00e+00	0	37	0	577765376	65	4451
2026-01-19 13:25:13.32	308.07	9.87	-47.1	-48.8	18.1	0.00e+00	0	37	0	579862528	65	4465
2026-01-19 13:25:14.33	308.24	9.85	-47.1	-48.8	18.0	0.00e+00	0	37	0	581959680	65	4489
2026-01-19 13:25:15.34	308.42	9.83	-47.1	-48.8	18.1	0.00e+00	0	37	0	584056832	65	4488
2026-01-19 13:25:16.35	308.59	9.81	-47.2	-48.9	17.9	0.00e+00	0	37	0	585105408	65	4538
2026-01-19 13:25:17.35	308.77	9.80	-47.3	-49.1	17.8	0.00e+00	0	37	0	587202560	65	4617
2026-01-19 13:25:18.36	308.94	9.78	-47.4	-49.3	17.6	0.00e+00	0	37	0	589299712	65	4735
2026-01-19 13:25:19.37	309.12	9.76	-47.5	-49.4	17.5	0.00e+00	0	37	0	591396864	65	4796
2026-01-19 13:25:20.38	309.29	9.74	-47.6	-49.5	17.4	0.00e+00	0	37	0	593494016	65	4861
2026-01-19 13:25:21.39	309.47	9.72	-47.7	-49.7	17.2	0.00e+00	0	37	0	594542592	66	4690
2026-01-19 13:25:22.39	309.64	9.70	-47.8	-49.8	17.1	0.00e+00	0	37	0	596639744	66	4718
2026-01-19 13:25:23.40	309.82	9.68	-47.8	-49.9	17.1	0.00e+00	0	37	0	598736896	66	4776
2026-01-19 13:25:24.41	309.99	9.67	-47.9	-49.9	17.0	0.00e+00	0	37	0	600834048	66	4804
2026-01-19 13:25:25.42	310.16	9.65	-47.7	-49.7	17.2	0.00e+00	0	37	0	602931200	66	4657
2026-01-19 13:25:26.42	310.34	9.63	-47.6	-49.6	17.3	0.00e+00	0	37	0	603979776	66	4630
2026-01-19 13:25:27.43	310.51	9.61	-47.4	-49.3	17.5	0.00e+00	0	37	0	606076928	66	4467
2026-01-19 13:25:28.44	310.68	9.59	-47.4	-49.2	17.6	0.00e+00	0	37	0	608174080	66	4426
2026-01-19 13:25:29.45	310.86	9.57	-47.2	-48.9	17.9	0.00e+00	0	37	0	610271232	66	4284
2026-01-19 13:25:30.45	311.03	9.55	-47.0	-48.8	18.1	0.00e+00	0	37	0	612368384	66	4201
2026-01-19 13:25:31.46	311.20	9.52	-46.9	-48.7	18.2	0.00e+00	0	37	0	613416960	65	4394
2026-01-19 13:25:32.47	311.37	9.50	-46.8	-48.5	18.3	0.00e+00	0	37	0	615514112	65	4315
2026-01-19 13:25:33.48	311.54	9.48	-46.8	-48.4	18.4	0.00e+00	0	37	0	617611264	65	4278
2026-01-19 13:25:34.49	311.72	9.46	-46.4	-48.0	18.8	0.00e+00	0	37	0	619708416	64	4313
2026-01-19 13:25:35.49	311.89	9.44	-46.3	-47.8	18.9	0.00e+00	0	37	0	621805568	64	4236
2026-01-19 13:25:36.50	312.06	9.42	-46.1	-47.6	19.2	0.00e+00	0	37	0	622854144	64	4113
2026-01-19 13:25:37.51	312.23	9.40	-46.1	-47.6	19.3	0.00e+00	0	37	0	624951296	63	4345
2026-01-19 13:25:38.52	312.40	9.37	-46.0	-47.5	19.3	0.00e+00	0	37	0	627048448	63	4304
2026-01-19 13:25:39.53	312.57	9.35	-46.1	-47.6	19.2	0.00e+00	0	37	0	629145600	63	4360
2026-01-19 13:25:40.54	312.74	9.33	-46.3	-47.8	19.1	0.00e+00	0	37	0	631242752	63	4452
2026-01-19 13:25:41.54	312.91	9.31	-46.4	-47.9	18.9	0.00e+00	0	37	0	632291328	63	4533
2026-01-19 13:25:42.55	313.08	9.28	-46.6	-48.3	18.6	0.00e+00	0	37	0	634388480	63	4710
2026-01-19 13:25:43.56	313.25	9.26	-46.6	-48.3	18.5	0.00e+00	0	37	0	636485632	64	4448
2026-01-19 13:25:44.57	313.42	9.24	-46.8	-48.4	18.3	0.00e+00	0	37	0	638582784	64	4542
2026-01-19 13:25:45.57	313.58	9.21	-46.7	-48.4	18.4	0.00e+00	0	37	0	640679936	64	4528
2026-01-19 13:25:46.58	313.75	9.19	-46.7	-48.4	18.3	0.00e+00	0	37	0	641728512	64	4540
2026-01-19 13:25:47.59	313.92	9.17	-46.8	-48.5	18.3	0.00e+00	0	37	0	643825664	64	4554
2026-01-19 13:25:48.59	314.09	9.14	-46.7	-48.3	18.4	0.00e+00	0	37	0	645922816	64	4472
2026-01-19 13:25:49.60	314.25	9.12	-46.8	-48.5	18.3	0.00e+00	0	37	0	648019968	64	4554
2026-01-19 13:25:50.61	314.42	9.09	-46.8	-48.5	18.2	0.00e+00	0	37	0	650117120	64	4587
2026-01-19 13:25:51.62	314.59	9.07	-46.7	-48.3	18.4	0.00e+00	0	37	0	652214272	64	4472
2026-01-19 13:25:52.63	314.76	9.04	-46.5	-48.2	18.5	0.00e+00	0	37	0	653262848	64	4398
2026-01-19 13:25:53.63	314.92	9.02	-46.6	-48.2	18.5	0.00e+00	0	37	0	655360000	64	4428
2026-01-19 13:25:54.64	315.09	8.99	-46.7	-48.4	18.4	0.00e+00	0	37	0	657457152	64	4496
2026-01-19 13:25:55.65	315.25	8.97	-46.7	-48.4	18.3	0.00e+00	0	37	0	659554304	64	4518
2026-01-19 13:25:56.66	315.42	8.94	-46.7	-48.4	18.3	0.00e+00	0	37	0	660602880	64	4534
2026-01-19 13:25:57.66	315.58	8.92	-46.8	-48.5	18.2	0.00e+00	0	37	0	662700032	64	4569
2026-01-19 13:25:58.67	315.75	8.89	-46.9	-48.6	18.2	0.00e+00	0	37	0	664797184	64	4615
2026-01-19 13:25:59.68	315.91	8.87	-46.9	-48.7	18.1	0.00e+00	0	37	0	666894336	64	4663
2026-01-19 13:26:00.69	316.08	8.84	-46.9	-48.6	18.1	0.00e+00	0	37	0	668991488	64	4640
2026-01-19 13:26:01.70	316.24	8.81	-46.7	-48.3	18.4	0.00e+00	0	37	0	670040064	64	4489
2026-01-19 13:26:02.70	316.41	8.79	-46.3	-47.9	18.8	0.00e+00	0	37	0	672137216	64	4247
2026-01-19 13:26:03.71	316.57	8.76	-46.2	-47.7	19.0	0.00e+00	0	37	0	674234368	64	4165
2026-01-19 13:26:04.72	316.73	8.73	-46.1	-47.6	19.0	0.00e+00	0	37	0	676331520	64	4124
2026-01-19 13:26:05.73	316.90	8.71	-46.0	-47.5	19.2	0.00e+00	0	37	0	678428672	64	4071
2026-01-19 13:26:06.74	317.06	8.68	-46.2	-47.7	18.9	0.00e+00	0	37	0	680525824	64	4174
2026-01-19 13:26:07.75	317.22	8.65	-46.3	-47.9	18.7	0.00e+00	0	37	0	681574400	64	4268
2026-01-19 13:26:08.75	317.38	8.62	-46.4	-48.1	18.6	0.00e+00	0	37	0	683671552	64	4355
2026-01-19 13:26:09.76	317.55	8.60	-46.7	-48.5	18.2	0.00e+00	0	37	0	685768704	64	4546
2026-01-19 13:26:10.77	317.71	8.57	-46.8	-48.5	18.2	0.00e+00	0	37	0	687865856	64	4565
2026-01-19 13:26:11.78	317.87	8.54	-46.9	-48.6	18.0	0.00e+00	0	37	0	688914432	64	4633
2026-01-19 13:26:12.78	318.03	8.51	-47.0	-48.8	17.9	0.00e+00	0	37	0	691011584	64	4744
2026-01-19 13:26:13.79	318.19	8.48	-46.9	-48.7	18.0	0.00e+00	0	37	0	693108736	64	4671
2026-01-19 13:26:14.80	318.35	8.45	-47.1	-48.9	17.8	0.00e+00	0	37	0	695205888	64	4780
2026-01-19 13:26:15.81	318.51	8.42	-47.2	-49.0	17.7	0.00e+00	0	37	0	697303040	64	4867
2026-01-19 13:26:16.82	318.67	8.40	-47.3	-49.2	17.5	0.00e+00	0	37	0	699400192	65	4675
2026-01-19 13:26:17.82	318.83	8.37	-47.2	-49.1	17.6	0.00e+00	0	37	0	700448768	65	4617
2026-01-19 13:26:18.83	318.99	8.34	-47.0	-48.8	17.8	0.00e+00	0	37	0	702545920	65	4484
2026-01-19 13:26:19.84	319.15	8.31	-47.0	-48.8	17.9	0.00e+00	0	37	0	704643072	65	4473
2026-01-19 13:26:20.85	319.31	8.28	-46.9	-48.7	18.0	0.00e+00	0	37	0	706740224	65	4398
2026-01-19 13:26:21.86	319.46	8.25	-47.1	-49.0	17.7	0.00e+00	0	37	0	708837376	65	4559
2026-01-19 13:26:22.86	319.62	8.22	-47.2	-49.1	17.5	0.00e+00	0	37	0	709885952	65	4618
2026-01-19 13:26:23.87	319.78	8.19	-47.4	-49.4	17.3	0.00e+00	0	37	0	711983104	65	4769
2026-01-19 13:26:24.88	319.94	8.16	-47.8	-49.9	16.8	0.00e+00	0	37	0	714080256	66	4795
2026-01-19 13:26:25.89	320.09	8.13	-47.9	-50.1	16.6	0.00e+00	0	37	0	716177408	66	4879
2026-01-19 13:26:26.90	320.25	8.10	-48.1	-50.3	16.4	0.00e+00	0	37	0	717225984	66	5005
2026-01-19 13:26:27.90	320.41	8.07	-48.0	-50.2	16.5	0.00e+00	0	37	0	719323136	66	4934
2026-01-19 13:26:28.91	320.56	8.04	-48.2	-50.5	16.2	0.00e+00	0	37	0	721420288	67	4843
2026-01-19 13:26:29.92	320.72	8.01	-48.0	-50.1	16.6	0.00e+00	0	37	0	723517440	67	4640
2026-01-19 13:26:30.93	320.87	7.98	-48.1	-50.3	16.4	0.00e+00	0	37	0	725614592	67	4711
2026-01-19 13:26:31.93	321.03	7.94	-48.1	-50.3	16.4	0.00e+00	0	37	0	727711744	67	4710
2026-01-19 13:26:32.94	321.18	7.91	-47.9	-50.1	16.6	0.00e+00	0	37	0	728760320	67	4612
2026-01-19 13:26:33.95	321.34	7.88	-48.1	-50.3	16.4	0.00e+00	0	37	0	730857472	67	4714
2026-01-19 13:26:34.95	321.49	7.85	-48.1	-50.3	16.3	0.00e+00	0	37	0	732954624	67	4749
2026-01-19 13:26:35.96	321.64	7.82	-48.2	-50.5	16.1	0.00e+00	0	37	0	735051776	67	4860
2026-01-19 13:26:36.97	321.80	7.79	-48.3	-50.6	16.0	0.00e+00	0	37	0	737148928	67	4922
2026-01-19 13:26:37.97	321.95	7.76	-48.5	-50.9	15.8	0.00e+00	0	37	0	738197504	67	5075
2026-01-19 13:26:38.98	322.10	7.72	-48.4	-50.9	15.8	0.00e+00	0	37	0	740294656	67	5057
2026-01-19 13:26:39.98	322.25	7.69	-48.3	-50.7	16.0	0.00e+00	0	37	0	742391808	67	4948
2026-01-19 13:26:40.99	322.41	7.66	-48.2	-50.5	16.1	0.00e+00	0	37	0	744488960	67	4826
2026-01-19 13:26:42.00	322.56	7.63	-48.2	-50.5	16.1	0.00e+00	0	37	0	745537536	67	4852
2026-01-19 13:26:43.00	322.71	7.59	-48.2	-50.4	16.2	0.00e+00	0	37	0	747634688	67	4807
2026-01-19 13:26:44.01	322.86	7.56	-48.2	-50.4	16.2	0.00e+00	0	37	0	749731840	67	4812
2026-01-19 13:26:45.02	323.01	7.53	-48.1	-50.4	16.2	0.00e+00	0	37	0	751828992	67	4794
2026-01-19 13:26:46.02	323.16	7.50	-48.3	-50.6	15.9	0.00e+00	0	37	0	753926144	67	4921
2026-01-19 13:26:47.03	323.31	7.46	-48.4	-50.8	15.8	0.00e+00	0	37	0	756023296	67	5013
2026-01-19 13:26:48.04	323.46	7.43	-48.3	-50.6	16.0	0.00e+00	0	37	0	757071872	67	4918
2026-01-19 13:26:49.05	323.61	7.40	-48.7	-51.2	15.4	0.00e+00	0	37	0	759169024	67	5257
2026-01-19 13:26:50.06	323.76	7.36	-48.6	-51.1	15.5	0.00e+00	0	37	0	761266176	67	5176
2026-01-19 13:26:51.07	323.91	7.33	-48.4	-50.9	15.8	0.00e+00	0	37	0	763363328	67	5045
2026-01-19 13:26:52.07	324.05	7.30	-48.3	-50.7	15.9	0.00e+00	0	37	0	765460480	67	4970
2026-01-19 13:26:53.08	324.20	7.26	-48.4	-50.9	15.7	0.00e+00	0	37	0	766509056	67	5056
2026-01-19 13:26:54.09	324.35	7.23	-48.7	-51.2	15.4	0.00e+00	0	37	0	768606208	67	5257
2026-01-19 13:26:55.09	324.50	7.19	-48.9	-51.6	15.1	0.00e+00	0	37	0	770703360	68	5199
2026-01-19 13:26:56.10	324.65	7.16	-49.2	-52.0	14.7	0.00e+00	0	37	0	772800512	69	5131
2026-01-19 13:26:57.11	324.79	7.13	-49.3	-52.3	14.4	0.00e+00	0	37	0	773849088	69	5306
2026-01-19 13:26:58.12	324.94	7.09	-49.5	-52.6	14.1	0.00e+00	0	37	0	775946240	69	5469
2026-01-19 13:26:59.12	325.08	7.06	-49.6	-52.9	13.8	4.50e-06	0	37	0	778043392	69	5672
2026-01-19 13:27:00.13	325.23	7.02	-49.7	-53.0	13.7	8.30e-06	0	37	0	780140544	70	5441
2026-01-19 13:27:01.11	325.37	6.99	-49.8	-53.2	13.5	7.60e-06	0	37	0	782237696	70	5560
2026-01-19 13:27:02.12	325.52	6.95	-49.7	-53.1	13.6	1.52e-05	0	37	0	784334848	70	5487
2026-01-19 13:27:03.13	325.66	6.92	-49.8	-53.1	13.5	6.80e-06	0	37	0	785383424	70	5527
2026-01-19 13:27:04.14	325.81	6.88	-49.7	-52.9	13.7	2.20e-06	0	37	0	787480576	70	5391
2026-01-19 13:27:05.14	325.95	6.85	-49.6	-52.7	13.9	3.80e-06	0	37	0	789577728	70	5269
2026-01-19 13:27:06.15	326.09	6.81	-49.4	-52.4	14.2	2.20e-06	0	37	0	791674880	70	5092
2026-01-19 13:27:07.16	326.24	6.78	-49.2	-52.1	14.6	0.00e+00	0	37	0	793772032	70	4879
2026-01-19 13:27:08.17	326.38	6.74	-49.2	-52.0	14.6	7.00e-07	0	37	0	794820608	70	4864
2026-01-19 13:27:09.18	326.52	6.71	-49.3	-52.2	14.4	1.50e-06	0	37	0	796917760	70	4970
2026-01-19 13:27:10.18	326.66	6.67	-49.1	-52.0	14.7	0.00e+00	0	37	0	799014912	70	4816
2026-01-19 13:27:11.19	326.81	6.64	-49.2	-52.0	14.7	0.00e+00	0	37	0	801112064	70	4857
2026-01-19 13:27:12.20	326.95	6.60	-49.1	-52.0	14.6	0.00e+00	0	37	0	802160640	69	5140
2026-01-19 13:27:13.21	327.09	6.57	-49.2	-52.0	14.6	0.00e+00	0	37	0	804257792	69	5151
2026-01-19 13:27:14.22	327.23	6.53	-49.3	-52.3	14.3	1.50e-06	0	37	0	806354944	69	5331
2026-01-19 13:27:15.22	327.37	6.49	-49.1	-52.0	14.6	7.00e-07	0	37	0	808452096	69	5140
2026-01-19 13:27:16.23	327.51	6.46	-49.4	-52.5	14.1	2.20e-06	0	37	0	810549248	69	5442
2026-01-19 13:27:17.24	327.65	6.42	-49.3	-52.4	14.2	3.80e-06	0	37	0	812646400	69	5345
2026-01-19 13:27:18.25	327.79	6.38	-49.4	-52.5	14.1	7.00e-07	0	37	0	813694976	69	5464
2026-01-19 13:27:19.25	327.93	6.35	-49.5	-52.7	13.9	7.00e-07	0	37	0	815792128	69	5561
2026-01-19 13:27:20.26	328.07	6.31	-49.5	-52.7	13.9	6.10e-06	0	37	0	817889280	69	5572
2026-01-19 13:27:21.27	328.21	6.28	-49.6	-52.8	13.7	3.80e-06	0	37	0	819986432	69	5653
2026-01-19 13:27:22.28	328.35	6.24	-49.7	-53.0	13.6	5.30e-06	0	37	0	822083584	69	5761
2026-01-19 13:27:23.28	328.49	6.20	-49.6	-52.9	13.7	3.00e-06	0	37	0	823132160	69	5672
2026-01-19 13:27:24.29	328.62	6.17	-49.5	-52.7	13.9	6.80e-06	0	37	0	825229312	69	5561
2026-01-19 13:27:25.30	328.76	6.13	-49.3	-52.3	14.2	3.80e-06	0	37	0	827326464	69	5326
2026-01-19 13:27:26.30	328.90	6.09	-49.4	-52.6	13.9	2.20e-06	0	37	0	829423616	69	5480
2026-01-19 13:27:27.31	329.03	6.05	-49.2	-52.1	14.5	0.00e+00	0	37	0	831520768	69	5184
2026-01-19 13:27:28.32	329.17	6.02	-49.1	-51.9	14.6	7.00e-07	0	37	0	832569344	69	5093
2026-01-19 13:27:29.33	329.31	5.98	-49.0	-51.7	14.8	0.00e+00	0	37	0	834666496	69	4982
2026-01-19 13:27:30.34	329.44	5.94	-48.8	-51.6	15.0	0.00e+00	0	37	0	836763648	69	4878
2026-01-19 13:27:31.35	329.58	5.90	-49.1	-52.1	14.5	0.00e+00	0	37	0	838860800	69	5181
2026-01-19 13:27:32.35	329.71	5.87	-48.9	-51.7	14.8	0.00e+00	0	37	0	840957952	69	4959
2026-01-19 13:27:33.36	329.85	5.83	-49.0	-51.9	14.6	0.00e+00	0	37	0	842006528	69	5070
2026-01-19 13:27:34.37	329.98	5.79	-49.2	-52.1	14.4	7.00e-07	0	37	0	844103680	69	5211
2026-01-19 13:27:35.37	330.12	5.75	-49.1	-52.1	14.4	0.00e+00	0	37	0	846200832	69	5171
2026-01-19 13:27:36.38	330.25	5.72	-49.2	-52.3	14.2	1.50e-06	0	37	0	848297984	69	5301
2026-01-19 13:27:37.39	330.38	5.68	-49.2	-52.1	14.3	0.00e+00	0	37	0	850395136	69	5210
2026-01-19 13:27:38.40	330.52	5.64	-48.9	-51.7	14.8	0.00e+00	0	37	0	851443712	69	4976
2026-01-19 13:27:39.41	330.65	5.60	-49.2	-52.2	14.3	7.00e-07	0	37	0	853540864	69	5225
2026-01-19 13:27:40.41	330.78	5.57	-48.8	-51.6	14.8	3.00e-06	0	37	0	855638016	69	4909
2026-01-19 13:27:41.42	330.91	5.53	-48.8	-51.6	14.9	0.00e+00	0	37	0	857735168	69	4901
2026-01-19 13:27:42.43	331.05	5.49	-48.8	-51.5	15.0	0.00e+00	0	37	0	859832320	69	4837
2026-01-19 13:27:43.44	331.18	5.45	-48.5	-51.1	15.3	0.00e+00	0	37	0	860880896	69	4613
2026-01-19 13:27:44.44	331.31	5.41	-48.6	-51.2	15.3	0.00e+00	0	37	0	862978048	68	4933
2026-01-19 13:27:45.45	331.44	5.37	-48.7	-51.3	15.1	0.00e+00	0	37	0	865075200	68	5024
2026-01-19 13:27:46.46	331.57	5.34	-48.7	-51.5	15.0	0.00e+00	0	37	0	867172352	68	5101
2026-01-19 13:27:47.46	331.70	5.30	-48.5	-51.0	15.3	0.00e+00	0	37	0	869269504	68	4860
2026-01-19 13:27:48.47	331.83	5.26	-48.4	-50.9	15.5	0.00e+00	0	37	0	870318080	68	4783
2026-01-19 13:27:49.48	331.96	5.22	-48.6	-51.2	15.2	0.00e+00	0	37	0	872415232	68	4952
2026-01-19 13:27:50.49	332.09	5.18	-48.3	-50.7	15.6	0.00e+00	0	37	0	874512384	68	4701
2026-01-19 13:27:51.50	332.22	5.14	-48.4	-50.9	15.5	0.00e+00	0	37	0	876609536	68	4786
2026-01-19 13:27:52.51	332.34	5.10	-48.6	-51.3	15.1	0.00e+00	0	37	0	878706688	68	4986
2026-01-19 13:27:53.51	332.47	5.06	-48.7	-51.4	14.9	0.00e+00	0	37	0	879755264	68	5090
2026-01-19 13:27:54.52	332.60	5.03	-48.8	-51.6	14.8	0.00e+00	0	37	0	881852416	68	5192
2026-01-19 13:27:55.53	332.73	4.99	-49.8	-53.5	13.1	0.00e+00	0	37	0	883949568	70	5773
2026-01-19 13:27:56.54	332.85	4.95	-52.8	-67.8	3.8	1.39e+00	0	37	104	884998144	76	21236
2026-01-19 13:27:57.55	332.98	4.91	-53.1	-68.1	3.8	1.49e+00	0	37	104	884998144	76	21916
2026-01-19 13:27:58.56	333.11	4.87	-53.3	-68.3	3.8	1.49e+00	0	37	104	884998144	77	21232
2026-01-19 13:27:59.57	333.23	4.83	-53.5	-68.5	3.8	1.49e+00	0	37	104	884998144	77	21583
2026-01-19 13:28:00.58	333.36	4.79	-53.6	-68.6	3.8	1.49e+00	0	37	104	884998144	77	21872
2026-01-19 13:28:01.59	333.49	4.75	-53.7	-68.7	3.8	1.49e+00	0	37	104	884998144	78	20981
2026-01-19 13:28:02.59	333.61	4.71	-53.8	-68.8	3.8	1.49e+00	0	37	104	884998144	78	21179
2026-01-19 13:28:03.60	333.74	4.67	-53.9	-68.9	3.8	1.49e+00	0	37	104	884998144	78	21389
2026-01-19 13:28:04.61	333.86	4.63	-54.0	-69.0	3.8	1.49e+00	0	37	104	884998144	78	21602
2026-01-19 13:28:05.62	333.99	4.59	-54.1	-69.0	3.8	1.49e+00	0	37	104	884998144	78	21728
2026-01-19 13:28:06.63	334.11	4.55	-54.1	-69.1	3.8	1.49e+00	0	37	104	884998144	78	21853
2026-01-19 13:28:07.64	334.23	4.51	-54.1	-69.1	3.8	1.49e+00	0	37	104	884998144	78	21985
2026-01-19 13:28:08.65	334.36	4.47	-54.2	-69.2	3.8	1.49e+00	0	37	104	884998144	78	22059
2026-01-19 13:28:09.65	334.48	4.43	-54.2	-69.2	3.8	1.49e+00	0	37	104	884998144	78	22104
2026-01-19 13:28:10.66	334.60	4.39	-54.2	-69.2	3.8	1.49e+00	0	37	104	884998144	78	22203
2026-01-19 13:28:11.67	334.72	4.35	-54.2	-69.2	3.8	1.49e+00	0	37	104	884998144	79	20998
2026-01-19 13:28:12.68	334.85	4.31	-54.2	-69.2	3.8	1.49e+00	0	37	104	884998144	79	20966
2026-01-19 13:28:13.69	334.97	4.27	-54.2	-69.2	3.8	1.49e+00	0	37	104	884998144	79	20965
2026-01-19 13:28:14.70	335.09	4.23	-54.3	-69.3	3.8	1.49e+00	0	37	104	884998144	79	21035
2026-01-19 13:28:15.70	335.21	4.19	-54.2	-69.2	3.8	1.49e+00	0	37	104	884998144	79	20998
2026-01-19 13:28:16.71	335.33	4.15	-54.3	-69.3	3.8	1.49e+00	0	37	104	884998144	79	21094
2026-01-19 13:28:17.72	335.45	4.11	-54.2	-69.3	3.8	1.49e+00	0	37	104	884998144	79	21021
2026-01-19 13:28:18.73	335.57	4.07	-54.2	-69.2	3.8	1.49e+00	0	37	104	884998144	79	20905
2026-01-19 13:28:19.74	335.69	4.03	-54.2	-69.2	3.8	1.49e+00	0	37	104	884998144	79	20931
2026-01-19 13:28:20.75	335.81	3.99	-54.2	-69.2	3.8	1.49e+00	0	37	104	884998144	79	20877
2026-01-19 13:28:21.75	335.93	3.95	-54.2	-69.2	3.8	1.49e+00	0	37	104	884998144	79	20908
2026-01-19 13:28:22.76	336.05	3.91	-54.2	-69.2	3.8	1.49e+00	0	37	104	884998144	79	20891
2026-01-19 13:28:23.77	336.17	3.87	-54.2	-69.2	3.8	1.49e+00	0	37	104	884998144	79	20881
2026-01-19 13:28:24.78	336.29	3.83	-54.2	-69.2	3.8	1.49e+00	0	37	104	884998144	79	20816
2026-01-19 13:28:25.79	336.40	3.79	-54.2	-69.2	3.8	1.49e+00	0	37	104	884998144	79	20797
2026-01-19 13:28:26.79	336.52	3.75	-54.2	-69.1	3.8	1.49e+00	0	37	104	884998144	79	20744
2026-01-19 13:28:27.80	336.64	3.71	-54.1	-69.2	3.8	1.49e+00	0	37	104	884998144	79	20779
2026-01-19 13:28:28.81	336.75	3.67	-54.1	-69.1	3.8	1.49e+00	0	37	104	884998144	79	20769
2026-01-19 13:28:29.82	336.87	3.63	-54.1	-69.2	3.8	1.49e+00	0	37	104	884998144	79	20783
2026-01-19 13:28:30.82	336.99	3.59	-54.1	-69.2	3.8	1.49e+00	0	37	104	884998144	79	20794
2026-01-19 13:28:31.83	337.10	3.55	-54.1	-69.1	3.8	1.49e+00	0	37	104	884998144	79	20754
2026-01-19 13:28:32.84	337.22	3.51	-54.1	-69.1	3.8	1.49e+00	0	37	104	884998144	79	20775
2026-01-19 13:28:33.85	337.33	3.47	-54.1	-69.1	3.8	1.49e+00	0	37	104	884998144	79	20726
2026-01-19 13:28:34.85	337.45	3.43	-54.1	-69.1	3.8	1.49e+00	0	37	104	884998144	79	20697
2026-01-19 13:28:35.86	337.56	3.39	-54.1	-69.1	3.8	1.49e+00	0	37	104	884998144	79	20678
2026-01-19 13:28:36.87	337.68	3.35	-54.1	-69.1	3.8	1.49e+00	0	37	104	884998144	79	20733
2026-01-19 13:28:37.88	337.79	3.31	-54.1	-69.1	3.8	1.49e+00	0	37	104	884998144	79	20620
2026-01-19 13:28:38.89	337.91	3.26	-54.1	-69.1	3.8	1.49e+00	0	37	104	884998144	79	20631
2026-01-19 13:28:39.89	338.02	3.22	-54.1	-69.1	3.8	1.49e+00	0	37	104	884998144	79	20630
2026-01-19 13:28:40.90	338.13	3.18	-54.1	-69.1	3.8	1.49e+00	0	37	104	884998144	79	20629
2026-01-19 13:28:41.91	338.25	3.14	-54.1	-69.1	3.8	1.49e+00	0	37	104	884998144	79	20641
2026-01-19 13:28:42.92	338.36	3.10	-54.1	-69.1	3.8	1.49e+00	0	37	104	884998144	79	20606
2026-01-19 13:28:43.92	338.47	3.06	-54.1	-69.1	3.8	1.49e+00	0	37	104	884998144	79	20629
2026-01-19 13:28:44.93	338.58	3.02	-54.1	-69.1	3.8	1.49e+00	0	37	104	884998144	79	20589
2026-01-19 13:28:45.94	338.70	2.98	-54.1	-69.1	3.8	1.49e+00	0	37	104	884998144	79	20619
2026-01-19 13:28:46.95	338.81	2.94	-54.1	-69.1	3.8	1.49e+00	0	37	104	884998144	79	20647
2026-01-19 13:28:47.96	338.92	2.90	-54.1	-69.1	3.8	1.49e+00	0	37	104	884998144	79	20605
2026-01-19 13:28:48.96	339.03	2.85	-54.1	-69.1	3.8	1.49e+00	0	37	104	884998144	79	20592
2026-01-19 13:28:49.97	339.14	2.81	-54.1	-69.1	3.8	1.49e+00	0	37	104	884998144	79	20619
2026-01-19 13:28:50.98	339.25	2.77	-54.1	-69.1	3.8	1.49e+00	0	37	104	884998144	79	20574
2026-01-19 13:28:51.99	339.36	2.73	-54.1	-69.1	3.8	1.49e+00	0	37	104	884998144	79	20601
2026-01-19 13:28:53.00	339.47	2.69	-54.1	-69.1	3.8	1.49e+00	0	37	104	884998144	79	20595
2026-01-19 13:28:54.01	339.58	2.65	-54.1	-69.1	3.8	1.49e+00	0	37	104	884998144	79	20552
2026-01-19 13:28:55.01	339.69	2.61	-54.1	-69.1	3.8	1.49e+00	0	37	104	884998144	79	20550
2026-01-19 13:28:56.02	339.80	2.57	-54.1	-69.0	3.8	1.49e+00	0	37	104	884998144	79	20499
2026-01-19 13:28:57.03	339.91	2.53	-54.1	-69.1	3.8	1.49e+00	0	37	104	884998144	79	20590
2026-01-19 13:28:58.03	340.01	2.48	-54.0	-69.1	3.8	1.49e+00	0	37	104	884998144	79	20558
2026-01-19 13:28:59.04	340.12	2.44	-54.1	-69.0	3.8	1.49e+00	0	37	104	884998144	79	20528
2026-01-19 13:29:00.05	340.23	2.40	-54.0	-69.1	3.8	1.49e+00	0	37	104	884998144	79	20566
2026-01-19 13:29:01.05	340.34	2.36	-54.0	-69.0	3.8	1.49e+00	0	37	104	884998144	79	20529
2026-01-19 13:29:02.06	340.44	2.32	-54.0	-69.0	3.8	1.49e+00	0	37	104	884998144	79	20518
2026-01-19 13:29:03.06	340.55	2.28	-54.0	-69.1	3.8	1.49e+00	0	37	104	884998144	79	20569
2026-01-19 13:29:04.07	340.66	2.24	-54.0	-69.1	3.8	1.49e+00	0	37	104	884998144	79	20552
2026-01-19 13:29:05.08	340.76	2.20	-54.1	-69.1	3.8	1.49e+00	0	37	104	884998144	79	20590
2026-01-19 13:29:06.09	340.87	2.15	-54.1	-69.1	3.8	1.49e+00	0	37	104	884998144	79	20555
2026-01-19 13:29:07.10	340.98	2.11	-54.0	-69.0	3.8	1.49e+00	0	37	104	884998144	79	20532
2026-01-19 13:29:08.11	341.08	2.07	-54.0	-69.1	3.8	1.49e+00	0	37	104	884998144	79	20558
2026-01-19 13:29:09.11	341.19	2.03	-54.0	-69.0	3.8	1.49e+00	0	37	104	884998144	79	20517
2026-01-19 13:29:10.12	341.29	1.99	-54.0	-69.1	3.8	1.49e+00	0	37	104	884998144	79	20580
2026-01-19 13:29:11.13	341.40	1.95	-54.0	-69.0	3.8	1.49e+00	0	37	104	884998144	79	20533

#Closed at: 2026-01-19 13:29:12
#Recorded file [884 MB]: D:/lorett/data/31041_260119_161901.dat