passes_logs/2026/01/19/R3.2S_Murmansk/R3.2S_Murmansk__20260119_125602_AQUA_rec.log

#Pass ID: 20260119_125602_AQUA
#Satellite: AQUA
#Configuration: AQUA
#almurnet v.1.7.20251203
#Start time: 2026-01-19 12:56:04

#Version: 2.2.20231116
#Station: R3.2S_Murmansk
#Location: 33.079688 lon 68.888172 lat
#TLE: 1 27424U 02022A   26018.92652823  .00000914  00000+0  19290-3 0  9996
#TLE: 2 27424  98.4089 345.4199 0001997  73.4625 351.8991 14.61828815261466

#Time	Az	El	Level	Level2	SNR	BER	BlckErr	Temp	State	Recorded	gain1	gain2
2026-01-19 12:56:04.53	195.31	2.14	-54.0	-71.6	3.8	7.43e-01	0	36	0	0	79	27509
2026-01-19 12:56:05.53	195.37	2.20	-54.0	-71.6	3.8	7.46e-01	0	36	104	0	78	29170
2026-01-19 12:56:06.54	195.43	2.26	-54.0	-71.6	3.8	7.43e-01	0	36	104	0	78	29122
2026-01-19 12:56:07.55	195.49	2.33	-54.0	-71.4	3.8	7.43e-01	0	36	104	0	78	28586
2026-01-19 12:56:08.56	195.55	2.39	-54.0	-71.3	3.8	7.45e-01	0	36	104	0	78	28096
2026-01-19 12:56:09.57	195.61	2.45	-53.9	-71.2	3.8	7.43e-01	0	36	104	0	78	27789
2026-01-19 12:56:10.58	195.67	2.51	-54.0	-71.1	3.8	7.47e-01	0	36	104	0	78	27601
2026-01-19 12:56:11.59	195.73	2.58	-54.0	-71.0	3.8	7.43e-01	0	36	104	0	78	27241
2026-01-19 12:56:12.60	195.79	2.64	-53.9	-71.2	3.8	7.45e-01	0	36	104	0	78	27898
2026-01-19 12:56:13.60	195.85	2.70	-53.9	-71.4	3.8	7.48e-01	0	36	104	0	78	28512
2026-01-19 12:56:14.61	195.92	2.77	-54.0	-71.4	3.8	7.44e-01	0	36	104	0	78	28401
2026-01-19 12:56:15.62	195.98	2.83	-54.0	-71.5	3.8	7.42e-01	0	36	104	0	78	28819
2026-01-19 12:56:16.63	196.04	2.90	-54.0	-71.2	3.8	7.45e-01	0	36	104	0	78	27847
2026-01-19 12:56:17.64	196.11	2.96	-53.9	-71.0	3.8	7.44e-01	0	36	104	0	78	27254
2026-01-19 12:56:18.65	196.17	3.02	-53.9	-70.9	3.8	7.44e-01	0	36	104	0	78	27034
2026-01-19 12:56:19.65	196.23	3.09	-53.9	-71.0	3.8	7.46e-01	0	36	104	0	78	27195
2026-01-19 12:56:20.66	196.30	3.15	-53.9	-70.9	3.8	7.47e-01	0	36	104	0	78	26924
2026-01-19 12:56:21.67	196.36	3.22	-54.0	-71.4	3.8	7.45e-01	0	36	104	0	78	28402
2026-01-19 12:56:22.68	196.42	3.28	-54.0	-71.4	3.8	7.43e-01	0	36	104	0	78	28514
2026-01-19 12:56:23.69	196.49	3.35	-53.9	-71.4	3.8	7.42e-01	0	36	104	0	78	28659
2026-01-19 12:56:24.69	196.55	3.41	-53.9	-71.3	3.8	7.45e-01	0	37	104	0	78	28127
2026-01-19 12:56:25.70	196.62	3.48	-53.9	-71.4	3.8	7.47e-01	0	36	104	0	78	28370
2026-01-19 12:56:26.71	196.69	3.54	-54.0	-71.3	3.8	7.46e-01	0	37	104	0	78	28249
2026-01-19 12:56:27.72	196.75	3.61	-54.0	-71.5	3.8	7.43e-01	0	36	104	0	78	28981
2026-01-19 12:56:28.73	196.82	3.67	-53.9	-71.5	3.8	7.42e-01	0	36	104	0	78	28848
2026-01-19 12:56:29.73	196.88	3.74	-53.9	-70.2	3.8	7.41e-01	0	37	104	0	78	24875
2026-01-19 12:56:30.74	196.95	3.81	-53.8	-67.6	4.4	7.31e-01	0	36	104	0	78	18502
2026-01-19 12:56:31.75	197.02	3.87	-53.7	-65.0	5.7	6.93e-01	160	37	0	0	78	13621
2026-01-19 12:56:32.76	197.09	3.94	-53.4	-62.9	7.5	6.52e-01	182	37	0	1572864	78	10718
2026-01-19 12:56:33.77	197.15	4.00	-53.2	-61.3	9.1	6.31e-01	1	37	0	3670016	78	8916
2026-01-19 12:56:34.77	197.22	4.07	-52.8	-59.5	11.0	6.16e-01	0	36	0	5242880	77	7669
2026-01-19 12:56:35.78	197.29	4.14	-52.7	-59.0	11.6	6.15e-01	0	37	0	7340032	77	7278
2026-01-19 12:56:36.79	197.36	4.20	-52.5	-58.3	12.3	6.10e-01	0	36	0	8912896	77	6720
2026-01-19 12:56:37.79	197.43	4.27	-51.9	-56.8	14.0	6.07e-01	0	37	0	11010048	75	6279
2026-01-19 12:56:38.80	197.50	4.34	-51.7	-56.1	14.6	6.08e-01	0	37	0	12582912	75	5839
2026-01-19 12:56:39.81	197.57	4.41	-51.2	-55.0	15.7	6.08e-01	0	37	0	14680064	74	5443
2026-01-19 12:56:40.82	197.64	4.47	-50.4	-53.6	17.1	6.07e-01	0	36	0	16777216	72	5210
2026-01-19 12:56:41.82	197.71	4.54	-49.8	-52.5	18.2	6.08e-01	0	36	0	18350080	71	4855
2026-01-19 12:56:42.83	197.78	4.61	-49.1	-51.5	19.3	6.07e-01	0	36	0	20447232	70	4572
2026-01-19 12:56:43.84	197.85	4.68	-48.4	-50.5	20.2	6.07e-01	0	37	0	22544384	68	4595
2026-01-19 12:56:44.85	197.92	4.74	-48.2	-50.2	20.6	6.06e-01	0	36	0	24117248	68	4434
2026-01-19 12:56:45.86	197.99	4.81	-47.7	-49.5	21.4	6.08e-01	0	37	0	26214400	67	4337
2026-01-19 12:56:46.87	198.06	4.88	-48.0	-50.0	20.8	6.07e-01	0	37	0	27787264	67	4591
2026-01-19 12:56:47.87	198.14	4.95	-48.1	-50.1	20.8	6.04e-01	0	36	0	29884416	67	4616
2026-01-19 12:56:48.88	198.21	5.02	-48.4	-50.6	20.4	6.06e-01	0	37	0	31981568	67	4875
2026-01-19 12:56:49.89	198.28	5.09	-48.2	-50.2	20.8	6.05e-01	0	37	0	33554432	67	4687
2026-01-19 12:56:50.90	198.36	5.16	-48.6	-50.7	20.3	6.05e-01	0	37	0	35651584	67	4964
2026-01-19 12:56:51.91	198.43	5.23	-51.5	-55.9	15.2	6.06e-01	0	37	0	37224448	73	6407
2026-01-19 12:56:52.92	198.51	5.29	-50.4	-53.7	17.2	6.06e-01	0	37	0	39321600	72	5226
2026-01-19 12:56:53.92	198.58	5.36	-50.8	-54.2	17.2	6.08e-01	0	37	0	40894464	72	5562
2026-01-19 12:56:54.93	198.65	5.43	-47.9	-49.8	21.1	6.05e-01	0	37	0	42991616	67	4447
2026-01-19 12:56:55.94	198.73	5.50	-47.8	-49.6	21.4	6.07e-01	0	37	0	45088768	67	4376
2026-01-19 12:56:56.95	198.81	5.57	-47.8	-49.7	21.3	6.06e-01	0	37	0	47185920	67	4410
2026-01-19 12:56:57.95	198.88	5.64	-47.9	-49.8	21.2	6.05e-01	0	37	0	48758784	67	4469
2026-01-19 12:56:58.96	198.96	5.71	-47.8	-49.6	21.4	6.08e-01	0	37	0	50855936	67	4378
2026-01-19 12:56:59.97	199.04	5.78	-47.7	-49.6	21.5	6.05e-01	0	37	0	52428800	67	4349
2026-01-19 12:57:00.97	199.11	5.85	-47.7	-49.6	21.5	6.07e-01	0	37	0	54525952	67	4343
2026-01-19 12:57:01.98	199.19	5.93	-47.6	-49.4	21.6	6.08e-01	0	37	0	56098816	67	4283
2026-01-19 12:57:02.99	199.27	6.00	-47.6	-49.4	21.7	6.06e-01	0	37	0	58195968	67	4259
2026-01-19 12:57:04.00	199.35	6.07	-47.4	-49.1	21.9	6.07e-01	0	37	0	60293120	66	4388
2026-01-19 12:57:05.01	199.43	6.14	-47.5	-49.3	21.8	6.07e-01	0	37	0	61865984	66	4479
2026-01-19 12:57:06.01	199.50	6.21	-47.5	-49.3	21.8	6.07e-01	0	37	0	63963136	66	4453
2026-01-19 12:57:07.02	199.58	6.28	-47.7	-49.5	21.6	6.05e-01	0	37	0	65536000	66	4556
2026-01-19 12:57:08.03	199.66	6.36	-47.8	-49.6	21.6	6.07e-01	0	37	0	67633152	66	4616
2026-01-19 12:57:09.04	199.74	6.43	-47.4	-49.1	22.0	6.05e-01	0	37	0	69730304	66	4376
2026-01-19 12:57:10.05	199.83	6.50	-47.6	-49.3	21.9	6.06e-01	0	37	0	71303168	66	4481
2026-01-19 12:57:11.05	199.91	6.57	-53.8	-69.4	3.7	7.45e-01	0	37	104	73400320	78	22707
2026-01-19 12:57:12.06	199.99	6.64	-53.8	-68.8	4.1	7.36e-01	0	37	104	73400320	78	21177
2026-01-19 12:57:13.07	200.07	6.72	-53.8	-68.7	4.1	7.37e-01	0	37	104	73400320	78	20846
2026-01-19 12:57:14.08	200.15	6.79	-53.9	-69.8	3.8	7.46e-01	0	37	104	73400320	78	23740
2026-01-19 12:57:15.09	200.24	6.86	-53.7	-68.7	3.9	7.41e-01	0	37	104	73400320	78	20839
2026-01-19 12:57:16.09	200.32	6.94	-53.7	-70.2	3.8	7.43e-01	0	37	104	73400320	78	24922
2026-01-19 12:57:17.10	200.40	7.01	-53.7	-65.7	5.4	7.03e-01	8	37	0	73400320	78	14751
2026-01-19 12:57:18.11	200.49	7.09	-53.7	-65.7	5.4	7.00e-01	13	37	0	73400320	78	14711
2026-01-19 12:57:19.12	200.57	7.16	-53.7	-65.0	5.8	6.86e-01	74	37	0	74448896	78	13653
2026-01-19 12:57:20.13	200.66	7.23	-53.7	-64.7	6.0	6.87e-01	183	37	0	76021760	78	13179
2026-01-19 12:57:21.14	200.74	7.31	-53.7	-64.5	6.2	6.77e-01	184	37	0	77594624	78	12953
2026-01-19 12:57:22.15	200.83	7.38	-53.7	-64.7	6.1	6.84e-01	184	37	0	79167488	78	13185
2026-01-19 12:57:23.15	200.92	7.46	-53.7	-63.7	7.0	6.65e-01	182	37	0	81264640	78	11740
2026-01-19 12:57:24.16	201.00	7.53	-53.4	-61.9	8.8	6.38e-01	3	37	0	82837504	78	9590
2026-01-19 12:57:25.17	201.09	7.61	-53.8	-65.6	5.6	6.96e-01	49	37	0	84410368	78	14555
2026-01-19 12:57:26.18	201.18	7.68	-53.9	-70.3	3.8	7.46e-01	0	37	104	84410368	78	25040
2026-01-19 12:57:27.19	201.27	7.76	-53.7	-63.1	7.7	6.53e-01	182	37	104	84410368	78	10970
2026-01-19 12:57:28.19	201.36	7.83	-53.7	-64.8	6.0	6.88e-01	184	37	0	85458944	78	13283
2026-01-19 12:57:29.20	201.45	7.91	-53.6	-62.7	8.0	6.48e-01	149	37	0	87556096	78	10498
2026-01-19 12:57:30.21	201.54	7.99	-53.5	-61.8	8.9	6.37e-01	0	37	0	89128960	78	9490
2026-01-19 12:57:31.22	201.63	8.06	-53.4	-61.1	9.7	6.26e-01	0	37	0	91226112	78	8671
2026-01-19 12:57:32.22	201.72	8.14	-53.3	-60.6	10.3	6.21e-01	0	37	0	92798976	78	8242
2026-01-19 12:57:33.23	201.81	8.22	-53.4	-60.8	10.1	6.22e-01	0	37	0	94896128	78	8407
2026-01-19 12:57:34.24	201.90	8.29	-53.4	-60.7	10.3	6.21e-01	0	37	0	96993280	78	8318
2026-01-19 12:57:35.25	201.99	8.37	-53.3	-60.2	10.7	6.19e-01	0	37	0	98566144	78	7871
2026-01-19 12:57:36.26	202.09	8.45	-53.1	-59.4	11.6	6.14e-01	0	37	0	100663296	78	7153
2026-01-19 12:57:37.27	202.18	8.53	-52.8	-58.5	12.6	6.10e-01	0	37	0	102760448	77	6846
2026-01-19 12:57:38.27	202.27	8.60	-52.4	-57.4	13.7	6.08e-01	0	37	0	104333312	76	6353
2026-01-19 12:57:39.28	202.37	8.68	-51.9	-56.2	15.0	6.08e-01	0	37	0	106430464	75	5864
2026-01-19 12:57:40.29	202.46	8.76	-51.5	-55.2	16.0	6.04e-01	0	37	0	108003328	75	5243
2026-01-19 12:57:41.30	202.56	8.84	-51.2	-54.6	16.6	6.06e-01	0	37	0	110100480	74	5208
2026-01-19 12:57:42.30	202.65	8.92	-51.3	-54.9	16.4	6.06e-01	0	37	0	111673344	74	5352
2026-01-19 12:57:43.31	202.75	9.00	-51.2	-54.7	16.5	6.07e-01	0	37	0	113770496	74	5235
2026-01-19 12:57:44.32	202.85	9.07	-50.5	-53.4	17.8	6.07e-01	0	37	0	115867648	73	4808
2026-01-19 12:57:45.33	202.95	9.15	-49.7	-52.2	19.1	6.06e-01	0	37	0	117440512	71	4681
2026-01-19 12:57:46.33	203.04	9.23	-48.9	-51.1	20.3	6.08e-01	0	37	0	119537664	69	4602
2026-01-19 12:57:47.34	203.14	9.31	-48.2	-50.1	21.2	6.06e-01	0	37	0	121634816	68	4386
2026-01-19 12:57:48.35	203.24	9.39	-47.9	-49.7	21.7	6.06e-01	0	37	0	123207680	67	4440
2026-01-19 12:57:49.36	203.34	9.47	-47.4	-49.1	22.3	6.04e-01	0	37	0	125304832	66	4365
2026-01-19 12:57:50.37	203.44	9.55	-47.3	-48.9	22.5	6.08e-01	0	37	0	126877696	66	4272
2026-01-19 12:57:51.37	203.54	9.63	-47.3	-49.0	22.5	6.05e-01	0	37	0	128974848	66	4303
2026-01-19 12:57:52.38	203.64	9.71	-47.0	-48.6	22.8	6.04e-01	0	37	0	131072000	66	4129
2026-01-19 12:57:53.39	203.75	9.80	-46.9	-48.4	23.0	6.06e-01	0	37	0	132644864	65	4283
2026-01-19 12:57:54.40	203.85	9.88	-47.0	-48.6	22.9	6.06e-01	0	37	0	134742016	65	4360
2026-01-19 12:57:55.40	203.95	9.96	-47.1	-48.7	22.7	6.07e-01	0	37	0	136314880	65	4431
2026-01-19 12:57:56.41	204.06	10.04	-47.2	-48.8	22.7	6.08e-01	0	37	0	138412032	65	4449
2026-01-19 12:57:57.42	204.16	10.12	-46.9	-48.5	22.9	6.04e-01	0	37	0	139984896	65	4321
2026-01-19 12:57:58.43	204.27	10.20	-46.9	-48.5	23.0	6.05e-01	0	37	0	142082048	65	4306
2026-01-19 12:57:59.44	204.37	10.29	-47.0	-48.6	22.9	6.05e-01	0	37	0	144179200	65	4362
2026-01-19 12:58:00.44	204.48	10.37	-47.1	-48.7	22.7	6.05e-01	0	37	0	146276352	65	4436
2026-01-19 12:58:01.45	204.58	10.45	-47.0	-48.5	23.0	6.06e-01	0	37	0	147849216	65	4338
2026-01-19 12:58:02.46	204.69	10.54	-47.1	-48.7	22.8	6.06e-01	0	37	0	149946368	65	4407
2026-01-19 12:58:03.47	204.80	10.62	-47.0	-48.6	22.9	6.04e-01	0	37	0	151519232	65	4349
2026-01-19 12:58:04.48	204.91	10.70	-46.9	-48.4	23.1	6.04e-01	0	37	0	153616384	65	4265
2026-01-19 12:58:05.49	205.02	10.79	-46.9	-48.5	23.0	6.06e-01	0	37	0	155189248	65	4313
2026-01-19 12:58:06.49	205.13	10.87	-46.9	-48.5	23.0	6.07e-01	0	37	0	157286400	65	4296
2026-01-19 12:58:07.50	205.24	10.95	-46.8	-48.3	23.2	6.07e-01	0	37	0	159383552	65	4210
2026-01-19 12:58:08.51	205.35	11.04	-46.8	-48.4	23.2	6.08e-01	0	37	0	160956416	65	4254
2026-01-19 12:58:09.52	205.46	11.12	-46.8	-48.3	23.2	6.05e-01	0	37	0	163053568	65	4214
2026-01-19 12:58:10.52	205.58	11.21	-46.7	-48.2	23.3	6.05e-01	0	37	0	164626432	65	4169
2026-01-19 12:58:11.53	205.69	11.29	-46.7	-48.2	23.3	6.08e-01	0	37	0	166723584	65	4176
2026-01-19 12:58:12.54	205.81	11.38	-46.7	-48.2	23.3	6.06e-01	0	37	0	168820736	65	4164
2026-01-19 12:58:13.55	205.92	11.46	-46.7	-48.2	23.3	6.06e-01	0	37	0	170393600	65	4185
2026-01-19 12:58:14.55	206.04	11.55	-46.7	-48.1	23.4	6.06e-01	0	37	0	172490752	65	4144
2026-01-19 12:58:15.56	206.15	11.64	-46.6	-48.0	23.5	6.06e-01	0	37	0	174587904	65	4093
2026-01-19 12:58:16.57	206.27	11.72	-46.6	-48.1	23.4	6.05e-01	0	37	0	176160768	65	4131
2026-01-19 12:58:17.58	206.39	11.81	-46.8	-48.3	23.3	6.04e-01	0	37	0	178257920	65	4212
2026-01-19 12:58:18.59	206.51	11.90	-46.7	-48.2	23.4	6.05e-01	0	37	0	179830784	65	4162
2026-01-19 12:58:19.59	206.62	11.98	-46.7	-48.2	23.4	6.06e-01	0	37	0	181927936	65	4159
2026-01-19 12:58:20.60	206.74	12.07	-46.6	-48.1	23.4	6.03e-01	0	37	0	183500800	65	4140
2026-01-19 12:58:21.61	206.87	12.16	-46.6	-48.1	23.4	6.07e-01	0	37	0	185597952	65	4135
2026-01-19 12:58:22.62	206.99	12.25	-46.5	-48.0	23.6	6.07e-01	0	37	0	187695104	65	4067
2026-01-19 12:58:23.62	207.11	12.33	-46.5	-48.0	23.6	6.06e-01	0	37	0	189267968	65	4083
2026-01-19 12:58:24.63	207.23	12.42	-46.4	-47.8	23.6	6.04e-01	0	37	0	191365120	64	4219
2026-01-19 12:58:25.64	207.36	12.51	-46.4	-47.9	23.7	6.07e-01	0	37	0	193462272	64	4257
2026-01-19 12:58:26.65	207.48	12.60	-46.4	-47.9	23.7	6.05e-01	0	37	0	195035136	64	4255
2026-01-19 12:58:27.65	207.60	12.69	-46.4	-47.9	23.7	6.07e-01	0	37	0	197132288	64	4267
2026-01-19 12:58:28.66	207.73	12.78	-46.4	-47.9	23.7	6.06e-01	0	37	0	198705152	64	4252
2026-01-19 12:58:29.67	207.86	12.87	-46.4	-47.8	23.8	6.07e-01	0	37	0	200802304	64	4228
2026-01-19 12:58:30.68	207.99	12.96	-46.4	-47.8	22.2	6.07e-01	0	37	0	202899456	64	4223
2026-01-19 12:58:31.69	208.11	13.05	-46.4	-47.8	23.8	6.05e-01	0	37	0	204472320	64	4214
2026-01-19 12:58:32.69	208.24	13.14	-46.4	-47.8	23.7	6.05e-01	0	37	0	206569472	64	4240
2026-01-19 12:58:33.70	208.37	13.23	-46.4	-47.8	23.8	6.06e-01	0	37	0	208142336	64	4228
2026-01-19 12:58:34.71	208.50	13.32	-46.3	-47.7	23.9	6.07e-01	0	37	0	210239488	64	4176
2026-01-19 12:58:35.72	208.64	13.41	-46.2	-47.6	24.0	6.05e-01	0	37	0	211812352	64	4111
2026-01-19 12:58:36.72	208.77	13.50	-46.2	-47.6	24.0	6.05e-01	0	37	0	213909504	64	4124
2026-01-19 12:58:37.73	208.90	13.59	-46.5	-47.9	23.7	6.06e-01	0	37	0	216006656	64	4275
2026-01-19 12:58:38.74	209.04	13.68	-46.2	-47.6	24.0	6.06e-01	0	37	0	218103808	64	4117
2026-01-19 12:58:39.75	209.17	13.78	-46.2	-47.7	23.9	6.05e-01	0	37	0	219676672	64	4152
2026-01-19 12:58:40.75	209.31	13.87	-46.3	-47.7	23.9	6.08e-01	0	37	0	221773824	64	4178
2026-01-19 12:58:41.76	209.44	13.96	-46.2	-47.6	24.0	6.06e-01	0	37	0	223346688	64	4117
2026-01-19 12:58:42.77	209.58	14.05	-46.2	-47.6	24.0	6.05e-01	0	37	0	225443840	64	4116
2026-01-19 12:58:43.78	209.72	14.15	-46.2	-47.6	24.0	6.06e-01	0	37	0	227016704	64	4129
2026-01-19 12:58:44.79	209.86	14.24	-46.4	-47.8	23.8	6.04e-01	0	37	0	229113856	64	4221
2026-01-19 12:58:45.80	210.00	14.33	-46.4	-47.9	23.8	6.07e-01	0	37	0	231211008	64	4258
2026-01-19 12:58:46.80	210.14	14.43	-46.6	-48.0	23.6	6.05e-01	0	37	0	232783872	64	4322
2026-01-19 12:58:47.81	210.28	14.52	-46.1	-47.5	24.1	6.05e-01	0	37	0	234881024	64	4081
2026-01-19 12:58:48.82	210.43	14.62	-46.1	-47.5	24.1	6.06e-01	0	37	0	236453888	64	4085
2026-01-19 12:58:49.83	210.57	14.71	-46.1	-47.4	24.3	6.06e-01	0	37	0	238551040	63	4280
2026-01-19 12:58:50.84	210.72	14.80	-46.2	-47.6	24.2	6.06e-01	0	37	0	240648192	63	4351
2026-01-19 12:58:51.85	210.86	14.90	-46.0	-47.3	24.4	6.06e-01	0	37	0	242221056	63	4232
2026-01-19 12:58:52.85	211.01	14.99	-46.0	-47.4	24.4	6.07e-01	0	37	0	244318208	63	4255
2026-01-19 12:58:53.86	211.16	15.09	-46.0	-47.3	24.3	6.07e-01	0	37	0	246415360	63	4242
2026-01-19 12:58:54.87	211.31	15.19	-46.0	-47.4	24.4	6.06e-01	0	37	0	247988224	63	4268
2026-01-19 12:58:55.88	211.46	15.28	-46.1	-47.5	24.3	6.07e-01	0	37	0	250085376	63	4308
2026-01-19 12:58:56.89	211.61	15.38	-46.1	-47.5	24.3	6.04e-01	0	37	0	251658240	63	4311
2026-01-19 12:58:57.89	211.76	15.47	-46.2	-47.6	24.1	6.06e-01	0	37	0	253755392	63	4372
2026-01-19 12:58:58.90	211.91	15.57	-46.2	-47.6	24.2	6.07e-01	0	37	0	255328256	63	4360
2026-01-19 12:58:59.91	212.07	15.67	-46.1	-47.5	24.3	6.04e-01	0	37	0	257425408	63	4294
2026-01-19 12:59:00.92	212.22	15.77	-46.1	-47.5	24.3	6.05e-01	0	37	0	259522560	63	4303
2026-01-19 12:59:01.92	212.38	15.86	-46.1	-47.4	24.3	6.07e-01	0	37	0	261095424	63	4280
2026-01-19 12:59:02.93	212.54	15.96	-46.1	-47.5	24.3	6.08e-01	0	37	0	263192576	63	4298
2026-01-19 12:59:03.94	212.70	16.06	-46.0	-47.3	24.4	6.07e-01	0	37	0	265289728	63	4225
2026-01-19 12:59:04.95	212.85	16.16	-46.0	-47.4	24.4	6.06e-01	0	37	0	266862592	63	4267
2026-01-19 12:59:05.95	213.01	16.25	-45.9	-47.3	24.5	6.06e-01	0	37	0	268959744	63	4196
2026-01-19 12:59:06.96	213.18	16.35	-46.0	-47.3	24.4	6.05e-01	0	37	0	270532608	63	4232
2026-01-19 12:59:07.97	213.34	16.45	-45.9	-47.3	24.5	6.04e-01	0	37	0	272629760	63	4205
2026-01-19 12:59:08.98	213.50	16.55	-46.1	-47.4	24.3	6.04e-01	0	37	0	274726912	63	4287
2026-01-19 12:59:09.99	213.67	16.65	-45.9	-47.2	24.5	6.07e-01	0	37	0	276299776	63	4193
2026-01-19 12:59:10.99	213.83	16.75	-45.9	-47.2	24.5	6.07e-01	0	37	0	278396928	63	4193
2026-01-19 12:59:12.00	214.00	16.85	-45.8	-47.1	24.7	6.08e-01	0	37	0	279969792	63	4117
2026-01-19 12:59:13.01	214.17	16.95	-45.8	-47.2	24.6	6.06e-01	0	37	0	282066944	63	4159
2026-01-19 12:59:14.02	214.34	17.05	-46.0	-47.4	24.4	6.05e-01	0	37	0	283639808	63	4257
2026-01-19 12:59:15.03	214.51	17.15	-46.0	-47.4	24.4	6.06e-01	0	37	0	285736960	63	4259
2026-01-19 12:59:16.03	214.68	17.25	-45.9	-47.3	24.5	6.05e-01	0	37	0	287834112	63	4201
2026-01-19 12:59:17.04	214.85	17.35	-45.9	-47.3	24.5	6.08e-01	0	37	0	289931264	63	4201
2026-01-19 12:59:18.05	215.03	17.45	-45.9	-47.3	24.5	6.04e-01	0	37	0	291504128	63	4201
2026-01-19 12:59:19.05	215.20	17.55	-45.8	-47.1	24.7	6.05e-01	0	37	0	293601280	63	4120
2026-01-19 12:59:20.06	215.38	17.66	-45.9	-47.2	24.6	6.06e-01	0	37	0	295174144	63	4166
2026-01-19 12:59:21.07	215.56	17.76	-45.9	-47.2	24.6	6.06e-01	0	37	0	297271296	63	4187
2026-01-19 12:59:22.08	215.74	17.86	-45.9	-47.2	24.6	6.09e-01	0	37	0	298844160	63	4170
2026-01-19 12:59:23.08	215.92	17.96	-45.6	-46.9	24.9	6.05e-01	0	37	0	300941312	63	4045
2026-01-19 12:59:24.09	216.10	18.06	-45.7	-47.0	24.8	6.06e-01	0	37	0	303038464	63	4079
2026-01-19 12:59:25.10	216.28	18.17	-45.7	-47.0	24.8	6.08e-01	0	37	0	304611328	63	4087
2026-01-19 12:59:26.11	216.46	18.27	-45.8	-47.2	24.7	6.07e-01	0	37	0	306708480	63	4154
2026-01-19 12:59:27.12	216.65	18.37	-45.7	-47.0	24.8	6.03e-01	0	37	0	308281344	63	4071
2026-01-19 12:59:28.13	216.84	18.48	-45.7	-47.0	24.8	6.05e-01	0	37	0	310378496	63	4097
2026-01-19 12:59:29.13	217.02	18.58	-45.7	-47.0	24.8	6.05e-01	0	37	0	312475648	63	4083
2026-01-19 12:59:30.14	217.21	18.68	-45.7	-47.0	24.8	6.07e-01	0	37	0	314048512	63	4091
2026-01-19 12:59:31.15	217.40	18.79	-45.7	-47.0	24.9	6.07e-01	0	37	0	316145664	63	4058
2026-01-19 12:59:32.16	217.60	18.89	-45.8	-47.1	24.8	6.05e-01	0	37	0	318242816	63	4101
2026-01-19 12:59:33.17	217.79	19.00	-45.6	-46.9	24.9	6.07e-01	0	37	0	319815680	63	4027
2026-01-19 12:59:34.17	217.98	19.10	-45.6	-46.9	24.9	6.05e-01	0	37	0	321912832	63	4029
2026-01-19 12:59:35.18	218.18	19.20	-45.6	-46.8	25.0	6.04e-01	0	37	0	323485696	63	4002
2026-01-19 12:59:36.19	218.38	19.31	-45.7	-47.0	24.8	6.04e-01	0	37	0	325582848	63	4082
2026-01-19 12:59:37.20	218.58	19.41	-45.7	-47.1	24.8	6.04e-01	0	37	0	327155712	63	4103
2026-01-19 12:59:38.21	218.78	19.52	-45.7	-47.1	24.8	6.07e-01	0	37	0	329252864	63	4102
2026-01-19 12:59:39.21	218.98	19.62	-45.7	-46.9	24.9	6.06e-01	0	37	0	331350016	63	4044
2026-01-19 12:59:40.22	219.18	19.73	-45.6	-46.9	25.0	6.05e-01	0	37	0	332922880	63	4021
2026-01-19 12:59:41.23	219.39	19.83	-45.5	-46.8	25.0	6.04e-01	0	37	0	335020032	63	3986
2026-01-19 12:59:42.24	219.59	19.94	-45.7	-47.0	24.9	6.06e-01	0	37	0	337117184	63	4063
2026-01-19 12:59:43.25	219.80	20.05	-45.6	-46.9	24.9	6.05e-01	0	37	0	338690048	63	4026
2026-01-19 12:59:44.25	220.01	20.15	-45.6	-46.9	25.0	6.06e-01	0	37	0	340787200	63	4035
2026-01-19 12:59:45.26	220.22	20.26	-45.6	-46.8	25.0	6.05e-01	0	37	0	342360064	63	3993
2026-01-19 12:59:46.27	220.43	20.36	-45.7	-46.9	24.9	6.06e-01	0	37	0	344457216	63	4048
2026-01-19 12:59:47.28	220.64	20.47	-45.7	-47.0	24.8	6.06e-01	0	37	0	346554368	63	4088
2026-01-19 12:59:48.29	220.86	20.58	-45.9	-47.2	24.7	6.04e-01	0	37	0	348127232	63	4163
2026-01-19 12:59:49.29	221.07	20.68	-45.7	-47.0	24.9	6.04e-01	0	37	0	350224384	63	4063
2026-01-19 12:59:50.30	221.29	20.79	-45.7	-47.0	24.9	6.03e-01	0	37	0	351797248	63	4061
2026-01-19 12:59:51.31	221.51	20.90	-45.7	-47.0	24.9	6.05e-01	0	37	0	353894400	63	4057
2026-01-19 12:59:52.32	221.73	21.00	-45.6	-46.9	25.0	6.06e-01	0	37	0	355467264	63	4012
2026-01-19 12:59:53.33	221.96	21.11	-45.7	-47.0	24.9	6.05e-01	0	37	0	357564416	63	4055
2026-01-19 12:59:54.33	222.18	21.22	-45.7	-47.0	24.9	6.05e-01	0	37	0	359661568	63	4076
2026-01-19 12:59:55.34	222.41	21.32	-45.7	-47.0	24.9	6.08e-01	0	37	0	361234432	63	4081
2026-01-19 12:59:56.35	222.63	21.43	-45.8	-47.1	24.8	6.07e-01	0	37	0	363331584	63	4143
2026-01-19 12:59:57.36	222.86	21.54	-45.8	-47.2	24.7	6.06e-01	0	37	0	365428736	63	4151
2026-01-19 12:59:58.36	223.09	21.64	-45.9	-47.2	24.7	6.06e-01	0	37	0	367001600	63	4177
2026-01-19 12:59:59.37	223.33	21.75	-45.8	-47.1	24.8	6.05e-01	0	37	0	369098752	63	4101
2026-01-19 13:00:00.38	223.56	21.86	-45.8	-47.1	24.8	6.07e-01	0	37	0	370671616	63	4108
2026-01-19 13:00:01.39	223.80	21.97	-45.8	-47.2	24.7	6.04e-01	0	37	0	372768768	63	4148
2026-01-19 13:00:02.39	224.03	22.07	-45.8	-47.1	24.8	6.05e-01	0	37	0	374865920	63	4143
2026-01-19 13:00:03.40	224.27	22.18	-45.7	-47.0	24.9	6.07e-01	0	37	0	376438784	63	4092
2026-01-19 13:00:04.41	224.51	22.29	-45.8	-47.1	24.9	6.06e-01	0	37	0	378535936	63	4106
2026-01-19 13:00:05.42	224.76	22.40	-45.9	-47.3	24.7	6.06e-01	0	37	0	380108800	63	4199
2026-01-19 13:00:06.43	225.00	22.50	-45.9	-47.2	24.8	6.06e-01	0	37	0	382205952	63	4155
2026-01-19 13:00:07.43	225.24	22.61	-45.9	-47.2	24.7	6.06e-01	0	37	0	384303104	63	4190
2026-01-19 13:00:08.44	225.49	22.72	-45.9	-47.2	24.7	6.04e-01	0	37	0	385875968	63	4191
2026-01-19 13:00:09.45	225.74	22.82	-45.8	-47.1	24.8	6.07e-01	0	37	0	387973120	63	4128
2026-01-19 13:00:10.46	225.99	22.93	-45.8	-47.1	24.8	6.06e-01	0	37	0	389545984	63	4137
2026-01-19 13:00:11.47	226.25	23.04	-45.9	-47.1	24.8	6.08e-01	0	37	0	391643136	63	4142
2026-01-19 13:00:12.47	226.50	23.15	-45.8	-47.2	24.8	6.05e-01	0	37	0	393740288	63	4149
2026-01-19 13:00:13.48	226.76	23.25	-45.9	-47.2	24.7	6.05e-01	0	37	0	395313152	63	4189
2026-01-19 13:00:14.49	227.02	23.36	-45.8	-47.2	24.8	6.04e-01	0	37	0	397410304	63	4146
2026-01-19 13:00:15.49	227.27	23.47	-46.0	-47.3	24.7	6.06e-01	0	37	0	398983168	63	4218
2026-01-19 13:00:16.50	227.54	23.57	-46.0	-47.3	24.6	6.06e-01	0	37	0	401080320	63	4234
2026-01-19 13:00:17.51	227.80	23.68	-46.0	-47.3	24.6	6.07e-01	0	37	0	403177472	63	4233
2026-01-19 13:00:18.52	228.07	23.79	-45.9	-47.2	24.7	6.07e-01	0	37	0	404750336	63	4193
2026-01-19 13:00:19.52	228.33	23.89	-45.8	-47.1	24.9	6.05e-01	0	37	0	406847488	63	4107
2026-01-19 13:00:20.53	228.60	24.00	-45.9	-47.2	24.7	6.06e-01	0	37	0	408944640	63	4173
2026-01-19 13:00:21.54	228.87	24.10	-46.0	-47.4	24.6	6.07e-01	0	37	0	410517504	63	4250
2026-01-19 13:00:22.55	229.15	24.21	-46.0	-47.3	24.6	6.03e-01	0	37	0	412614656	63	4221
2026-01-19 13:00:23.55	229.42	24.31	-46.0	-47.4	24.6	6.06e-01	0	37	0	414187520	63	4246
2026-01-19 13:00:24.56	229.70	24.42	-46.2	-47.6	24.4	6.05e-01	0	37	0	416284672	63	4355
2026-01-19 13:00:25.57	229.98	24.52	-46.0	-47.3	24.7	6.06e-01	0	37	0	417857536	63	4210
2026-01-19 13:00:26.58	230.26	24.63	-45.9	-47.2	24.8	6.04e-01	0	37	0	419954688	63	4149
2026-01-19 13:00:27.59	230.54	24.73	-46.1	-47.4	24.6	6.07e-01	0	37	0	422051840	63	4270
2026-01-19 13:00:28.59	230.82	24.84	-46.2	-47.5	24.5	6.06e-01	0	37	0	423624704	63	4331
2026-01-19 13:00:29.60	231.11	24.94	-46.1	-47.4	24.6	6.05e-01	0	37	0	425721856	63	4291
2026-01-19 13:00:30.61	231.40	25.05	-46.0	-47.4	24.6	6.06e-01	0	37	0	427294720	63	4245
2026-01-19 13:00:31.62	231.69	25.15	-46.1	-47.5	24.5	6.05e-01	0	37	0	429391872	63	4298
2026-01-19 13:00:32.63	231.98	25.25	-46.2	-47.5	24.4	6.06e-01	0	37	0	431489024	63	4324
2026-01-19 13:00:33.63	232.27	25.36	-46.0	-47.3	24.7	6.06e-01	0	37	0	433061888	63	4198
2026-01-19 13:00:34.64	232.57	25.46	-46.1	-47.4	24.6	6.04e-01	0	37	0	435159040	63	4279
2026-01-19 13:00:35.65	232.87	25.56	-46.2	-47.5	24.5	6.05e-01	0	37	0	437256192	63	4338
2026-01-19 13:00:36.66	233.17	25.66	-46.1	-47.4	24.6	6.05e-01	0	37	0	438829056	63	4263
2026-01-19 13:00:37.67	233.47	25.77	-46.1	-47.4	24.6	6.06e-01	0	37	0	440926208	63	4276
2026-01-19 13:00:38.67	233.77	25.87	-46.2	-47.6	24.4	6.07e-01	0	37	0	442499072	63	4345
2026-01-19 13:00:39.68	234.08	25.97	-46.3	-47.6	24.4	6.04e-01	0	37	0	444596224	63	4368
2026-01-19 13:00:40.69	234.39	26.07	-46.2	-47.5	24.5	6.05e-01	0	37	0	446693376	63	4334
2026-01-19 13:00:41.70	234.70	26.17	-46.2	-47.5	24.5	6.07e-01	0	37	0	448266240	63	4314
2026-01-19 13:00:42.71	235.01	26.27	-46.2	-47.5	24.5	6.05e-01	0	37	0	450363392	63	4328
2026-01-19 13:00:43.71	235.32	26.37	-46.1	-47.4	24.6	6.06e-01	0	37	0	451936256	63	4287
2026-01-19 13:00:44.72	235.64	26.46	-46.2	-47.6	24.5	6.04e-01	0	37	0	454033408	63	4347
2026-01-19 13:00:45.73	235.96	26.56	-46.2	-47.5	24.5	6.04e-01	0	37	0	455606272	63	4310
2026-01-19 13:00:46.74	236.28	26.66	-45.9	-47.2	24.7	6.05e-01	0	37	0	457703424	63	4171
2026-01-19 13:00:47.75	236.60	26.76	-46.0	-47.4	24.7	6.06e-01	0	37	0	459800576	63	4247
2026-01-19 13:00:48.75	236.92	26.85	-46.2	-47.5	24.5	6.07e-01	0	37	0	461373440	63	4309
2026-01-19 13:00:49.76	237.25	26.95	-46.1	-47.4	24.6	6.05e-01	0	37	0	463470592	63	4251
2026-01-19 13:00:50.77	237.57	27.04	-46.0	-47.3	24.7	6.06e-01	0	37	0	465567744	63	4217
2026-01-19 13:00:51.78	237.90	27.14	-46.1	-47.4	24.5	6.08e-01	0	37	0	467140608	63	4279
2026-01-19 13:00:52.78	238.23	27.23	-45.9	-47.2	24.8	6.05e-01	0	37	0	469237760	63	4158
2026-01-19 13:00:53.79	238.57	27.32	-45.9	-47.2	24.8	6.06e-01	0	37	0	470810624	63	4153
2026-01-19 13:00:54.80	238.90	27.42	-46.0	-47.3	24.6	6.06e-01	0	37	0	472907776	63	4240
2026-01-19 13:00:55.81	239.24	27.51	-46.1	-47.4	24.6	6.04e-01	0	37	0	475004928	63	4255
2026-01-19 13:00:56.82	239.58	27.60	-45.8	-47.1	24.9	6.05e-01	0	37	0	476577792	63	4111
2026-01-19 13:00:57.82	239.92	27.69	-46.0	-47.3	24.8	6.06e-01	0	37	0	478674944	63	4199
2026-01-19 13:00:58.83	240.27	27.78	-45.9	-47.2	24.8	6.04e-01	0	37	0	480247808	63	4168
2026-01-19 13:00:59.84	240.61	27.87	-46.0	-47.3	24.7	6.04e-01	0	37	0	482344960	63	4222
2026-01-19 13:01:00.85	240.96	27.96	-46.1	-47.4	24.6	6.06e-01	0	37	0	484442112	63	4285
2026-01-19 13:01:01.86	241.31	28.05	-45.9	-47.3	24.7	6.04e-01	0	37	0	486014976	63	4198
2026-01-19 13:01:02.86	241.66	28.13	-45.9	-47.2	24.8	6.05e-01	0	37	0	488112128	63	4189
2026-01-19 13:01:03.87	242.01	28.22	-45.9	-47.2	24.8	6.07e-01	0	37	0	489684992	63	4172
2026-01-19 13:01:04.88	242.37	28.30	-46.0	-47.3	24.7	6.07e-01	0	37	0	491782144	63	4206
2026-01-19 13:01:05.89	242.73	28.39	-45.8	-47.1	24.9	6.05e-01	0	37	0	493879296	63	4140
2026-01-19 13:01:06.90	243.09	28.47	-45.9	-47.1	24.8	6.07e-01	0	37	0	495452160	63	4142
2026-01-19 13:01:07.91	243.45	28.55	-45.9	-47.2	24.8	6.04e-01	0	37	0	497549312	63	4179
2026-01-19 13:01:08.92	243.81	28.63	-45.9	-47.2	24.8	6.04e-01	0	37	0	499122176	63	4154
2026-01-19 13:01:09.92	244.17	28.71	-45.9	-47.2	24.8	6.07e-01	0	37	0	501219328	63	4146
2026-01-19 13:01:10.93	244.54	28.79	-45.7	-47.0	25.0	6.05e-01	0	37	0	503316480	63	4079
2026-01-19 13:01:11.94	244.91	28.87	-45.9	-47.2	24.9	6.04e-01	0	37	0	504889344	63	4147
2026-01-19 13:01:12.95	245.28	28.95	-45.9	-47.2	24.8	6.05e-01	0	37	0	506986496	63	4188
2026-01-19 13:01:13.95	245.65	29.03	-45.9	-47.2	24.8	6.05e-01	0	37	0	509083648	63	4160
2026-01-19 13:01:14.96	246.02	29.10	-46.0	-47.4	24.7	6.05e-01	0	37	0	510656512	63	4248
2026-01-19 13:01:15.97	246.40	29.18	-46.1	-47.4	24.6	6.03e-01	0	37	0	512753664	63	4269
2026-01-19 13:01:16.98	246.78	29.25	-46.1	-47.4	24.6	6.06e-01	0	37	0	514326528	63	4278
2026-01-19 13:01:17.99	247.16	29.32	-46.2	-47.5	24.5	6.06e-01	0	37	0	516423680	63	4321
2026-01-19 13:01:18.99	247.54	29.39	-46.4	-47.7	24.3	6.05e-01	0	37	0	517996544	63	4440
2026-01-19 13:01:20.00	247.92	29.46	-46.2	-47.6	24.4	6.07e-01	0	37	0	520093696	63	4355
2026-01-19 13:01:21.01	248.30	29.53	-46.2	-47.6	24.5	6.06e-01	0	37	0	522190848	63	4351
2026-01-19 13:01:22.02	248.69	29.60	-46.3	-47.6	24.4	6.05e-01	0	37	0	523763712	63	4382
2026-01-19 13:01:23.03	249.08	29.67	-46.3	-47.6	24.4	6.06e-01	0	37	0	525860864	63	4390
2026-01-19 13:01:24.03	249.46	29.73	-46.3	-47.7	24.4	6.04e-01	0	37	0	527958016	63	4409
2026-01-19 13:01:25.04	249.85	29.79	-46.4	-47.8	24.3	6.04e-01	0	37	0	529530880	63	4478
2026-01-19 13:01:26.05	250.25	29.86	-46.0	-47.4	24.6	6.05e-01	0	37	0	531628032	63	4246
2026-01-19 13:01:27.06	250.64	29.92	-45.7	-47.0	25.0	6.06e-01	0	37	0	533200896	63	4071
2026-01-19 13:01:28.07	251.04	29.98	-45.7	-47.0	25.0	6.03e-01	0	37	0	535298048	63	4072
2026-01-19 13:01:29.08	251.43	30.04	-45.8	-47.1	25.0	6.07e-01	0	37	0	537395200	63	4102
2026-01-19 13:01:30.09	251.83	30.09	-45.6	-46.9	25.2	6.06e-01	0	37	0	538968064	63	4008
2026-01-19 13:01:31.09	252.23	30.15	-45.7	-47.0	25.0	6.05e-01	0	37	0	541065216	63	4077
2026-01-19 13:01:32.10	252.63	30.21	-45.7	-47.0	25.0	6.07e-01	0	37	0	542638080	63	4063
2026-01-19 13:01:33.11	253.03	30.26	-45.6	-46.8	25.2	6.05e-01	0	37	0	544735232	63	3996
2026-01-19 13:01:34.12	253.44	30.31	-45.7	-47.0	25.1	6.08e-01	0	37	0	546308096	63	4082
2026-01-19 13:01:35.13	253.84	30.36	-45.7	-47.0	25.0	6.06e-01	0	37	0	548405248	63	4072
2026-01-19 13:01:36.13	254.25	30.41	-45.6	-46.9	25.1	6.05e-01	0	37	0	550502400	63	4033
2026-01-19 13:01:37.14	254.65	30.46	-45.5	-46.8	25.2	6.08e-01	0	37	0	552599552	63	3966
2026-01-19 13:01:38.15	255.06	30.50	-45.7	-47.0	25.1	6.05e-01	0	37	0	554172416	63	4053
2026-01-19 13:01:39.16	255.47	30.55	-45.6	-46.9	25.2	6.07e-01	0	37	0	556269568	63	4031
2026-01-19 13:01:40.17	255.89	30.59	-45.5	-46.8	25.2	6.06e-01	0	37	0	557842432	63	3976
2026-01-19 13:01:41.17	256.29	30.63	-45.4	-46.6	25.4	6.06e-01	0	37	0	559939584	62	4121
2026-01-19 13:01:42.18	256.71	30.67	-45.4	-46.6	25.4	6.04e-01	0	37	0	561512448	62	4133
2026-01-19 13:01:43.19	257.12	30.71	-45.3	-46.5	25.4	6.04e-01	0	37	0	563609600	62	4097
2026-01-19 13:01:44.20	257.54	30.75	-45.4	-46.6	25.4	6.02e-01	0	37	0	565706752	62	4132
2026-01-19 13:01:45.21	257.96	30.79	-45.3	-46.5	25.5	6.05e-01	0	37	0	567279616	62	4077
2026-01-19 13:01:46.21	258.37	30.82	-45.2	-46.4	25.5	6.06e-01	0	37	0	569376768	62	4049
2026-01-19 13:01:47.22	258.79	30.85	-45.4	-46.6	25.4	6.06e-01	0	37	0	570949632	62	4123
2026-01-19 13:01:48.23	259.21	30.88	-45.3	-46.6	25.4	6.06e-01	0	37	0	573046784	62	4108
2026-01-19 13:01:49.24	259.63	30.91	-45.3	-46.5	25.5	6.05e-01	0	37	0	575143936	62	4085
2026-01-19 13:01:50.25	260.05	30.94	-45.4	-46.6	25.4	6.04e-01	0	37	0	576716800	62	4115
2026-01-19 13:01:51.25	260.46	30.97	-45.2	-46.4	25.6	6.07e-01	0	37	0	578813952	62	4045
2026-01-19 13:01:52.26	260.89	30.99	-45.2	-46.4	25.6	6.06e-01	0	37	0	580911104	62	4040
2026-01-19 13:01:53.27	261.31	31.02	-45.3	-46.5	25.5	6.04e-01	0	37	0	582483968	62	4075
2026-01-19 13:01:54.28	261.73	31.04	-45.1	-46.3	25.7	6.05e-01	0	37	0	584581120	62	4004
2026-01-19 13:01:55.29	262.16	31.06	-45.2	-46.4	25.6	6.05e-01	0	37	0	586153984	62	4015
2026-01-19 13:01:56.29	262.58	31.08	-45.3	-46.6	25.5	6.04e-01	0	37	0	588251136	62	4100
2026-01-19 13:01:57.30	263.00	31.09	-45.2	-46.4	25.6	6.05e-01	0	37	0	589824000	62	4035
2026-01-19 13:01:58.31	263.43	31.11	-45.2	-46.4	25.6	6.04e-01	0	37	0	591921152	62	4029
2026-01-19 13:01:59.32	263.85	31.12	-45.2	-46.5	25.6	6.02e-01	0	37	0	594018304	62	4053
2026-01-19 13:02:00.33	264.28	31.13	-45.3	-46.5	25.5	6.06e-01	0	37	0	595591168	62	4086
2026-01-19 13:02:01.33	264.70	31.14	-45.2	-46.4	25.6	6.03e-01	0	37	0	597688320	62	4032
2026-01-19 13:02:02.34	265.13	31.15	-45.1	-46.3	25.7	6.07e-01	0	37	0	599785472	62	3994
2026-01-19 13:02:03.35	265.55	31.16	-45.0	-46.2	25.8	6.06e-01	0	37	0	601358336	62	3957
2026-01-19 13:02:04.36	265.98	31.16	-45.2	-46.4	25.6	6.07e-01	0	37	0	603455488	62	4049
2026-01-19 13:02:05.37	266.41	31.16	-45.1	-46.3	25.7	6.06e-01	0	37	0	605028352	62	4000
2026-01-19 13:02:06.37	266.83	31.17	-45.1	-46.3	25.8	6.06e-01	0	37	0	607125504	62	3967
2026-01-19 13:02:07.38	267.26	31.17	-45.0	-46.1	25.9	6.07e-01	0	37	0	609222656	61	4142
2026-01-19 13:02:08.39	267.68	31.16	-45.0	-46.2	25.8	6.06e-01	0	37	0	610795520	61	4184
2026-01-19 13:02:09.40	268.11	31.16	-45.1	-46.3	25.7	6.04e-01	0	37	0	612892672	61	4242
2026-01-19 13:02:10.41	268.54	31.16	-45.0	-46.2	25.8	6.05e-01	0	37	0	614465536	61	4167
2026-01-19 13:02:11.41	268.96	31.15	-45.0	-46.2	25.8	6.05e-01	0	37	0	616562688	61	4193
2026-01-19 13:02:12.42	269.39	31.14	-44.9	-46.1	25.9	6.05e-01	0	37	0	618135552	61	4129
2026-01-19 13:02:13.43	269.81	31.13	-44.9	-46.0	26.0	6.05e-01	0	37	0	620232704	61	4087
2026-01-19 13:02:14.44	270.24	31.12	-45.2	-46.4	25.6	6.06e-01	0	37	0	622329856	61	4287
2026-01-19 13:02:15.45	270.66	31.10	-44.9	-46.1	25.9	6.07e-01	0	37	0	624427008	61	4116
2026-01-19 13:02:16.45	271.08	31.09	-44.9	-46.1	25.9	6.03e-01	0	37	0	625999872	61	4111
2026-01-19 13:02:17.46	271.51	31.07	-44.9	-46.1	25.9	6.04e-01	0	37	0	628097024	61	4140
2026-01-19 13:02:18.47	271.93	31.05	-44.9	-46.1	25.9	6.06e-01	0	37	0	629669888	61	4133
2026-01-19 13:02:19.47	272.35	31.03	-45.0	-46.2	25.9	6.04e-01	0	37	0	631767040	61	4157
2026-01-19 13:02:20.48	272.77	31.01	-45.1	-46.3	25.8	6.05e-01	0	37	0	633339904	61	4200
2026-01-19 13:02:21.49	273.20	30.99	-44.9	-46.0	26.0	6.07e-01	0	37	0	635437056	61	4089
2026-01-19 13:02:22.50	273.62	30.96	-45.0	-46.1	25.9	6.08e-01	0	37	0	637534208	61	4144
2026-01-19 13:02:23.51	274.04	30.94	-44.9	-46.1	25.9	6.04e-01	0	37	0	639107072	61	4132
2026-01-19 13:02:24.51	274.46	30.91	-44.9	-46.1	25.9	6.03e-01	0	37	0	641204224	61	4122
2026-01-19 13:02:25.52	274.88	30.88	-44.9	-46.1	25.9	6.05e-01	0	37	0	642777088	61	4111
2026-01-19 13:02:26.53	275.29	30.85	-45.1	-46.3	25.7	6.05e-01	0	37	0	644874240	61	4237
2026-01-19 13:02:27.54	275.71	30.82	-45.1	-46.2	25.8	6.03e-01	0	37	0	646971392	61	4192
2026-01-19 13:02:28.54	276.12	30.78	-45.2	-46.5	25.6	6.06e-01	0	37	0	648544256	61	4293
2026-01-19 13:02:29.55	276.54	30.75	-44.9	-46.1	25.9	6.05e-01	0	37	0	650641408	61	4119
2026-01-19 13:02:30.56	276.96	30.71	-44.7	-45.8	26.2	6.06e-01	0	37	0	652738560	61	3985
2026-01-19 13:02:31.57	277.37	30.67	-44.9	-46.1	25.9	6.07e-01	0	37	0	654311424	61	4130
2026-01-19 13:02:32.57	277.78	30.63	-45.0	-46.2	25.9	6.03e-01	0	37	0	656408576	61	4158
2026-01-19 13:02:33.58	278.19	30.59	-45.0	-46.2	25.9	6.05e-01	0	37	0	657981440	61	4159
2026-01-19 13:02:34.59	278.60	30.54	-44.9	-46.1	26.0	6.05e-01	0	37	0	660078592	61	4105
2026-01-19 13:02:35.60	279.01	30.50	-44.8	-45.9	26.1	6.07e-01	0	37	0	661651456	61	4036
2026-01-19 13:02:36.61	279.42	30.45	-44.8	-46.0	26.0	6.04e-01	0	37	0	663748608	61	4081
2026-01-19 13:02:37.61	279.82	30.40	-44.9	-46.1	25.9	6.03e-01	0	37	0	665845760	61	4138
2026-01-19 13:02:38.62	280.23	30.36	-44.8	-46.0	26.1	6.00e-01	0	37	0	667418624	61	4067
2026-01-19 13:02:39.63	280.63	30.30	-44.9	-46.1	26.0	6.01e-01	0	37	0	669515776	61	4120
2026-01-19 13:02:40.64	281.04	30.25	-45.0	-46.2	25.9	6.04e-01	0	37	0	671612928	61	4169
2026-01-19 13:02:41.65	281.44	30.20	-44.8	-46.0	26.0	6.01e-01	0	37	0	673185792	61	4062
2026-01-19 13:02:42.65	281.84	30.14	-44.8	-45.9	26.1	6.02e-01	0	37	0	675282944	61	4029
2026-01-19 13:02:43.66	282.23	30.09	-45.0	-46.2	25.9	6.02e-01	0	37	0	676855808	61	4148
2026-01-19 13:02:44.67	282.63	30.03	-44.9	-46.1	26.0	6.01e-01	0	37	0	678952960	61	4130
2026-01-19 13:02:45.67	283.03	29.97	-44.9	-46.0	26.0	6.01e-01	0	37	0	681050112	61	4093
2026-01-19 13:02:46.68	283.42	29.91	-44.9	-46.0	26.1	6.04e-01	0	37	0	682622976	61	4095
2026-01-19 13:02:47.69	283.81	29.85	-44.9	-46.0	26.0	6.02e-01	0	37	0	684720128	61	4096
2026-01-19 13:02:48.70	284.21	29.79	-44.8	-45.9	26.1	6.01e-01	0	37	0	686292992	61	4047
2026-01-19 13:02:49.71	284.60	29.72	-44.9	-46.1	25.9	6.02e-01	0	37	0	688390144	61	4106
2026-01-19 13:02:50.71	284.98	29.66	-45.0	-46.2	25.9	6.04e-01	0	37	0	689963008	61	4149
2026-01-19 13:02:51.72	285.37	29.59	-45.0	-46.2	25.9	6.04e-01	0	37	0	692060160	61	4158
2026-01-19 13:02:52.73	285.75	29.53	-45.1	-46.3	25.8	6.01e-01	0	37	0	694157312	61	4207
2026-01-19 13:02:53.74	286.14	29.46	-45.1	-46.3	25.8	6.03e-01	0	37	0	696254464	61	4209
2026-01-19 13:02:54.75	286.52	29.39	-44.8	-46.0	26.1	6.01e-01	0	37	0	697827328	61	4063
2026-01-19 13:02:55.76	286.90	29.32	-44.9	-46.1	25.9	6.03e-01	0	37	0	699924480	61	4116
2026-01-19 13:02:56.77	287.28	29.24	-45.0	-46.2	25.9	6.03e-01	0	37	0	701497344	61	4160
2026-01-19 13:02:57.77	287.65	29.17	-45.1	-46.3	25.8	6.04e-01	0	37	0	703594496	61	4195
2026-01-19 13:02:58.78	288.02	29.10	-45.1	-46.3	25.8	6.03e-01	0	37	0	705167360	61	4195
2026-01-19 13:02:59.79	288.40	29.02	-44.9	-46.1	26.0	6.02e-01	0	37	0	707264512	61	4112
2026-01-19 13:03:00.80	288.77	28.94	-44.9	-46.0	26.0	6.05e-01	0	37	0	709361664	61	4090
2026-01-19 13:03:01.81	289.14	28.87	-44.9	-46.1	26.0	6.02e-01	0	37	0	710934528	61	4139
2026-01-19 13:03:02.81	289.50	28.79	-44.9	-46.1	25.9	6.02e-01	0	37	0	713031680	61	4130
2026-01-19 13:03:03.82	289.87	28.71	-44.9	-46.1	26.0	6.02e-01	0	37	0	714604544	61	4126
2026-01-19 13:03:04.83	290.23	28.63	-45.0	-46.2	25.9	6.03e-01	0	37	0	716701696	61	4180
2026-01-19 13:03:05.84	290.60	28.55	-45.0	-46.2	25.9	5.99e-01	0	37	0	718798848	61	4159
2026-01-19 13:03:06.85	290.96	28.47	-45.0	-46.2	25.9	6.03e-01	0	37	0	720371712	61	4152
2026-01-19 13:03:07.85	291.31	28.38	-45.0	-46.1	26.0	6.02e-01	0	37	0	722468864	61	4134
2026-01-19 13:03:08.86	291.67	28.30	-45.0	-46.1	26.0	6.06e-01	0	37	0	724566016	61	4143
2026-01-19 13:03:09.87	292.02	28.21	-45.1	-46.3	25.8	6.02e-01	0	37	0	726138880	61	4194
2026-01-19 13:03:10.88	292.38	28.13	-45.1	-46.3	25.6	6.04e-01	0	37	0	728236032	61	4235
2026-01-19 13:03:11.89	292.73	28.04	-45.1	-46.3	25.8	6.02e-01	0	37	0	729808896	61	4212
2026-01-19 13:03:12.89	293.07	27.96	-45.2	-46.4	25.8	6.02e-01	0	37	0	731906048	61	4263
2026-01-19 13:03:13.90	293.42	27.87	-45.2	-46.4	25.7	6.00e-01	0	37	0	733478912	61	4287
2026-01-19 13:03:14.91	293.76	27.78	-45.3	-46.5	25.6	6.01e-01	0	37	0	735576064	61	4318
2026-01-19 13:03:15.92	294.11	27.69	-45.4	-46.6	25.6	6.00e-01	0	37	0	737673216	61	4358
2026-01-19 13:03:16.93	294.45	27.60	-45.3	-46.5	25.6	6.03e-01	0	37	0	739246080	61	4315
2026-01-19 13:03:17.93	294.78	27.51	-45.2	-46.4	25.8	6.02e-01	0	37	0	741343232	61	4243
2026-01-19 13:03:18.94	295.12	27.42	-45.3	-46.5	25.6	6.02e-01	0	37	0	743440384	61	4316
2026-01-19 13:03:19.95	295.46	27.32	-45.3	-46.5	25.6	6.00e-01	0	37	0	745013248	61	4297
2026-01-19 13:03:20.95	295.78	27.23	-45.4	-46.6	25.6	6.03e-01	0	37	0	747110400	61	4352
2026-01-19 13:03:21.96	296.12	27.14	-45.2	-46.5	25.7	6.01e-01	0	37	0	748683264	61	4299
2026-01-19 13:03:22.97	296.45	27.04	-45.2	-46.4	25.7	6.03e-01	0	37	0	750780416	61	4268
2026-01-19 13:03:23.98	296.77	26.95	-45.2	-46.4	25.7	6.02e-01	0	37	0	752877568	61	4268
2026-01-19 13:03:24.98	297.09	26.86	-45.3	-46.5	25.6	6.02e-01	0	37	0	754450432	61	4339
2026-01-19 13:03:25.99	297.42	26.76	-45.5	-46.7	25.4	6.03e-01	0	37	0	756547584	61	4440
2026-01-19 13:03:27.00	297.74	26.66	-45.4	-46.6	25.5	6.03e-01	0	37	0	758120448	61	4362
2026-01-19 13:03:28.01	298.06	26.57	-45.2	-46.4	25.7	6.02e-01	0	37	0	760217600	61	4249
2026-01-19 13:03:29.01	298.37	26.47	-45.2	-46.4	25.7	6.05e-01	0	37	0	761790464	61	4251
2026-01-19 13:03:30.02	298.69	26.37	-45.3	-46.5	25.7	6.04e-01	0	37	0	763887616	61	4314
2026-01-19 13:03:31.03	299.00	26.27	-45.4	-46.6	25.5	6.02e-01	0	37	0	765984768	61	4374
2026-01-19 13:03:32.04	299.31	26.17	-45.5	-46.7	25.4	6.05e-01	0	37	0	767557632	61	4427
2026-01-19 13:03:33.04	299.62	26.07	-45.4	-46.7	25.5	6.03e-01	0	37	0	769654784	61	4401
2026-01-19 13:03:34.05	299.92	25.97	-45.3	-46.6	25.6	6.00e-01	0	37	0	771751936	61	4343
2026-01-19 13:03:35.06	300.23	25.87	-45.5	-46.7	25.5	6.03e-01	0	37	0	773324800	61	4411
2026-01-19 13:03:36.07	300.53	25.77	-45.5	-46.8	25.4	6.06e-01	0	37	0	775421952	61	4456
2026-01-19 13:03:37.08	300.83	25.67	-45.5	-46.7	25.4	6.03e-01	0	37	0	776994816	61	4430
2026-01-19 13:03:38.08	301.13	25.57	-45.4	-46.6	25.5	6.01e-01	0	37	0	779091968	61	4362
2026-01-19 13:03:39.09	301.43	25.47	-45.5	-46.7	25.5	6.01e-01	0	37	0	781189120	61	4404
2026-01-19 13:03:40.10	301.72	25.37	-45.5	-46.8	25.4	6.00e-01	0	37	0	782761984	61	4449
2026-01-19 13:03:41.11	302.02	25.26	-45.6	-46.9	25.3	6.01e-01	0	37	0	784859136	61	4510
2026-01-19 13:03:42.12	302.31	25.16	-45.7	-47.0	25.3	6.02e-01	0	37	0	786432000	62	4296
2026-01-19 13:03:43.13	302.60	25.06	-45.6	-46.8	25.4	6.03e-01	0	37	0	788529152	62	4229
2026-01-19 13:03:44.13	302.88	24.96	-45.7	-47.0	25.3	6.05e-01	0	37	0	790626304	62	4293
2026-01-19 13:03:45.14	303.17	24.85	-45.6	-46.9	25.4	6.03e-01	0	37	0	792199168	62	4254
2026-01-19 13:03:46.15	303.45	24.75	-45.7	-47.0	25.2	6.01e-01	0	37	0	794296320	62	4314
2026-01-19 13:03:47.16	303.73	24.64	-45.5	-46.8	25.3	6.02e-01	0	37	0	795869184	62	4213
2026-01-19 13:03:48.17	304.01	24.54	-45.6	-46.8	25.3	6.03e-01	0	37	0	797966336	62	4216
2026-01-19 13:03:49.17	304.29	24.43	-45.6	-46.8	25.3	6.03e-01	0	37	0	800063488	62	4228
2026-01-19 13:03:50.18	304.57	24.33	-45.5	-46.8	25.4	6.03e-01	0	37	0	801636352	62	4198
2026-01-19 13:03:51.19	304.84	24.22	-45.6	-46.9	25.3	6.01e-01	0	37	0	803733504	62	4253
2026-01-19 13:03:52.20	305.11	24.12	-45.7	-47.0	25.2	6.02e-01	0	37	0	805306368	62	4309
2026-01-19 13:03:53.21	305.38	24.01	-45.6	-46.9	25.3	6.03e-01	0	37	0	807403520	62	4268
2026-01-19 13:03:54.21	305.65	23.91	-45.6	-46.8	25.3	6.00e-01	0	37	0	809500672	62	4225
2026-01-19 13:03:55.22	305.92	23.80	-45.5	-46.7	25.5	6.05e-01	0	37	0	811073536	62	4178
2026-01-19 13:03:56.23	306.18	23.70	-45.5	-46.7	25.5	6.04e-01	0	37	0	813170688	62	4160
2026-01-19 13:03:57.24	306.44	23.59	-45.6	-46.8	25.3	6.02e-01	0	37	0	815267840	62	4223
2026-01-19 13:03:58.25	306.71	23.48	-45.6	-46.8	25.3	6.02e-01	0	37	0	816840704	62	4231
2026-01-19 13:03:59.25	306.96	23.38	-45.6	-46.9	25.2	6.02e-01	0	37	0	818937856	62	4264
2026-01-19 13:04:00.26	307.22	23.27	-45.7	-46.9	25.2	6.02e-01	0	37	0	820510720	62	4269
2026-01-19 13:04:01.27	307.48	23.17	-45.7	-46.9	25.2	6.02e-01	0	37	0	822607872	62	4275
2026-01-19 13:04:02.27	307.73	23.06	-45.6	-46.8	25.3	6.02e-01	0	37	0	824180736	62	4228
2026-01-19 13:04:03.28	307.98	22.95	-45.6	-46.8	25.3	6.03e-01	0	37	0	826277888	62	4229
2026-01-19 13:04:04.29	308.23	22.85	-45.5	-46.7	25.4	6.03e-01	0	37	0	828375040	62	4192
2026-01-19 13:04:05.30	308.48	22.74	-45.5	-46.7	25.4	6.03e-01	0	37	0	829947904	62	4186
2026-01-19 13:04:06.31	308.73	22.63	-45.5	-46.7	25.4	6.01e-01	0	37	0	832045056	62	4176
2026-01-19 13:04:07.31	308.97	22.53	-45.5	-46.7	25.4	6.04e-01	0	37	0	833617920	62	4163
2026-01-19 13:04:08.32	309.21	22.42	-45.4	-46.6	25.5	6.04e-01	0	37	0	835715072	62	4103
2026-01-19 13:04:09.33	309.46	22.31	-45.4	-46.6	25.5	6.02e-01	0	37	0	837812224	62	4105
2026-01-19 13:04:10.34	309.70	22.21	-45.5	-46.8	25.3	6.03e-01	0	37	0	839385088	62	4202
2026-01-19 13:04:11.35	309.93	22.10	-45.5	-46.8	25.3	6.02e-01	0	37	0	841482240	62	4205
2026-01-19 13:04:12.36	310.17	21.99	-45.6	-46.8	25.3	6.03e-01	0	37	0	843579392	62	4231
2026-01-19 13:04:13.37	310.41	21.89	-45.6	-46.9	25.3	6.00e-01	0	37	0	845152256	62	4261
2026-01-19 13:04:14.37	310.64	21.78	-45.5	-46.7	25.3	6.01e-01	0	37	0	847249408	62	4193
2026-01-19 13:04:15.38	310.87	21.67	-45.5	-46.8	25.3	6.05e-01	0	37	0	848822272	62	4196
2026-01-19 13:04:16.39	311.10	21.57	-45.5	-46.7	25.4	6.01e-01	0	37	0	850919424	62	4181
2026-01-19 13:04:17.40	311.33	21.46	-45.4	-46.6	25.4	6.02e-01	0	37	0	852492288	62	4144
2026-01-19 13:04:18.41	311.56	21.35	-45.4	-46.7	25.5	6.02e-01	0	37	0	854589440	62	4146
2026-01-19 13:04:19.41	311.78	21.25	-45.3	-46.5	25.6	6.01e-01	0	37	0	856686592	62	4084
2026-01-19 13:04:20.42	312.00	21.14	-45.4	-46.6	25.4	6.01e-01	0	37	0	858259456	62	4128
2026-01-19 13:04:21.43	312.22	21.04	-45.5	-46.7	25.3	6.02e-01	0	37	0	860356608	62	4185
2026-01-19 13:04:22.44	312.45	20.93	-45.5	-46.7	25.3	6.05e-01	0	37	0	862453760	62	4164
2026-01-19 13:04:23.45	312.66	20.82	-45.5	-46.8	25.3	6.04e-01	0	37	0	864026624	62	4194
2026-01-19 13:04:24.45	312.88	20.72	-45.5	-46.8	25.2	6.02e-01	0	37	0	866123776	62	4215
2026-01-19 13:04:25.46	313.10	20.61	-45.4	-46.6	25.4	6.02e-01	0	37	0	867696640	62	4123
2026-01-19 13:04:26.47	313.31	20.51	-45.4	-46.7	25.4	6.02e-01	0	37	0	869793792	62	4150
2026-01-19 13:04:27.48	313.52	20.40	-45.4	-46.6	25.4	6.04e-01	0	37	0	871890944	62	4126
2026-01-19 13:04:28.49	313.74	20.30	-45.4	-46.6	25.4	6.01e-01	0	37	0	873463808	62	4124
2026-01-19 13:04:29.49	313.94	20.19	-45.4	-46.6	25.4	6.01e-01	0	37	0	875560960	62	4125
2026-01-19 13:04:30.50	314.15	20.09	-45.4	-46.7	25.4	6.04e-01	0	37	0	877133824	62	4153
2026-01-19 13:04:31.51	314.36	19.98	-45.3	-46.5	25.5	6.03e-01	0	37	0	879230976	62	4083
2026-01-19 13:04:32.52	314.56	19.88	-45.3	-46.5	25.5	6.02e-01	0	37	0	880803840	62	4080
2026-01-19 13:04:33.53	314.77	19.77	-45.3	-46.5	25.5	6.02e-01	0	37	0	882900992	62	4061
2026-01-19 13:04:34.53	314.97	19.67	-45.3	-46.5	25.4	6.05e-01	0	37	0	884998144	62	4093
2026-01-19 13:04:35.54	315.17	19.56	-45.3	-46.5	25.5	6.01e-01	0	37	0	887095296	62	4068
2026-01-19 13:04:36.55	315.37	19.46	-45.3	-46.5	25.5	6.03e-01	0	37	0	888668160	62	4085
2026-01-19 13:04:37.56	315.57	19.35	-45.4	-46.6	25.3	6.02e-01	0	37	0	890765312	62	4139
2026-01-19 13:04:38.57	315.77	19.25	-45.3	-46.5	25.4	6.01e-01	0	37	0	892338176	62	4096
2026-01-19 13:04:39.57	315.96	19.15	-45.2	-46.4	25.5	6.04e-01	0	37	0	894435328	62	4045
2026-01-19 13:04:40.58	316.15	19.04	-45.2	-46.5	25.5	6.02e-01	0	37	0	896008192	62	4056
2026-01-19 13:04:41.59	316.35	18.94	-45.3	-46.5	25.4	6.03e-01	0	37	0	898105344	62	4091
2026-01-19 13:04:42.60	316.54	18.83	-45.3	-46.5	25.5	6.04e-01	0	37	0	900202496	62	4071
2026-01-19 13:04:43.61	316.73	18.73	-45.3	-46.5	25.5	5.98e-01	0	37	0	901775360	62	4085
2026-01-19 13:04:44.61	316.92	18.63	-45.3	-46.6	25.4	5.99e-01	0	37	0	903872512	62	4107
2026-01-19 13:04:45.62	317.11	18.53	-45.3	-46.5	25.4	6.02e-01	0	37	0	905445376	62	4097
2026-01-19 13:04:46.63	317.29	18.42	-45.3	-46.5	25.4	6.03e-01	0	37	0	907542528	62	4078
2026-01-19 13:04:47.64	317.48	18.32	-45.2	-46.5	25.5	6.05e-01	0	37	0	909639680	62	4061
2026-01-19 13:04:48.65	317.66	18.22	-45.2	-46.4	25.5	6.02e-01	0	37	0	911212544	62	4032
2026-01-19 13:04:49.65	317.84	18.12	-45.3	-46.5	25.4	6.03e-01	0	37	0	913309696	62	4083
2026-01-19 13:04:50.66	318.02	18.02	-45.2	-46.4	25.5	6.03e-01	0	37	0	915406848	62	4042
2026-01-19 13:04:51.67	318.20	17.91	-45.2	-46.4	25.5	6.03e-01	0	37	0	916979712	62	4017
2026-01-19 13:04:52.68	318.38	17.81	-45.3	-46.5	25.4	6.04e-01	0	37	0	919076864	62	4074
2026-01-19 13:04:53.69	318.56	17.71	-45.3	-46.6	25.4	6.00e-01	0	37	0	920649728	62	4105
2026-01-19 13:04:54.69	318.73	17.61	-45.3	-46.6	25.3	6.05e-01	0	37	0	922746880	62	4113
2026-01-19 13:04:55.70	318.91	17.51	-45.4	-46.6	25.3	6.02e-01	0	37	0	924319744	62	4135
2026-01-19 13:04:56.71	319.08	17.41	-45.3	-46.5	25.3	6.04e-01	0	37	0	926416896	62	4097
2026-01-19 13:04:57.71	319.25	17.31	-45.3	-46.5	25.4	6.04e-01	0	37	0	928514048	62	4071
2026-01-19 13:04:58.72	319.43	17.21	-45.4	-46.6	25.3	6.04e-01	0	37	0	930086912	62	4131
2026-01-19 13:04:59.73	319.60	17.11	-45.3	-46.5	25.3	6.02e-01	0	37	0	932184064	62	4097
2026-01-19 13:05:00.74	319.77	17.01	-45.3	-46.5	25.3	6.02e-01	0	37	0	934281216	62	4089
2026-01-19 13:05:01.75	319.93	16.91	-45.1	-46.4	25.5	6.04e-01	0	37	0	935854080	62	4011
2026-01-19 13:05:02.75	320.10	16.81	-45.1	-46.3	25.5	6.02e-01	0	37	0	937951232	62	3995
2026-01-19 13:05:03.76	320.27	16.71	-45.1	-46.3	25.5	6.03e-01	0	37	0	939524096	62	3994
2026-01-19 13:05:04.77	320.43	16.61	-45.1	-46.3	25.5	6.04e-01	0	37	0	941621248	62	4001
2026-01-19 13:05:05.78	320.59	16.51	-45.1	-46.4	25.5	6.02e-01	0	37	0	943718400	62	4014
2026-01-19 13:05:06.79	320.76	16.42	-45.1	-46.4	25.4	6.02e-01	0	37	0	945291264	62	4016
2026-01-19 13:05:07.79	320.92	16.32	-45.3	-46.5	25.3	6.03e-01	0	37	0	947388416	62	4081
2026-01-19 13:05:08.80	321.08	16.22	-45.3	-46.5	25.3	6.00e-01	0	37	0	948961280	62	4092
2026-01-19 13:05:09.81	321.24	16.12	-45.4	-46.7	25.1	6.03e-01	0	37	0	951058432	62	4147
2026-01-19 13:05:10.82	321.39	16.03	-45.2	-46.5	25.3	6.02e-01	0	37	0	952631296	62	4077
2026-01-19 13:05:11.83	321.55	15.93	-45.3	-46.6	25.2	6.00e-01	0	37	0	954728448	62	4112
2026-01-19 13:05:12.83	321.71	15.83	-45.2	-46.5	25.3	6.03e-01	0	37	0	956825600	62	4073
2026-01-19 13:05:13.84	321.86	15.74	-45.3	-46.6	25.2	6.01e-01	0	37	0	958922752	62	4100
2026-01-19 13:05:14.85	322.01	15.64	-45.2	-46.5	25.2	6.02e-01	0	37	0	960495616	62	4067
2026-01-19 13:05:15.86	322.17	15.54	-45.3	-46.5	25.2	6.02e-01	0	37	0	962592768	62	4084
2026-01-19 13:05:16.86	322.32	15.45	-45.2	-46.4	25.3	6.03e-01	0	37	0	964165632	62	4035
2026-01-19 13:05:17.87	322.47	15.35	-45.1	-46.4	25.4	6.02e-01	0	37	0	966262784	62	4020
2026-01-19 13:05:18.88	322.62	15.26	-45.2	-46.5	25.3	6.01e-01	0	37	0	967835648	62	4061
2026-01-19 13:05:19.88	322.77	15.16	-45.3	-46.6	25.2	5.98e-01	0	37	0	969932800	62	4112
2026-01-19 13:05:20.89	322.92	15.07	-45.3	-46.6	25.2	6.04e-01	0	37	0	972029952	62	4107
2026-01-19 13:05:21.90	323.06	14.97	-45.3	-46.6	25.2	6.05e-01	0	37	0	973602816	62	4114
2026-01-19 13:05:22.91	323.21	14.88	-45.3	-46.5	25.2	6.01e-01	0	37	0	975699968	62	4094
2026-01-19 13:05:23.92	323.35	14.78	-45.4	-46.7	25.1	6.03e-01	0	37	0	977272832	62	4169
2026-01-19 13:05:24.92	323.50	14.69	-45.5	-46.7	25.0	6.03e-01	0	37	0	979369984	62	4191
2026-01-19 13:05:25.93	323.64	14.60	-45.4	-46.7	25.1	6.03e-01	0	37	0	981467136	62	4146
2026-01-19 13:05:26.94	323.78	14.50	-45.5	-46.7	25.0	6.01e-01	0	37	0	983040000	62	4189
2026-01-19 13:05:27.95	323.92	14.41	-45.4	-46.7	25.0	6.04e-01	0	37	0	985137152	62	4161
2026-01-19 13:05:28.96	324.06	14.32	-45.5	-46.8	25.0	6.03e-01	0	37	0	987234304	62	4197
2026-01-19 13:05:29.97	324.20	14.22	-45.4	-46.6	25.1	6.02e-01	0	37	0	988807168	62	4134
2026-01-19 13:05:30.97	324.34	14.13	-45.3	-46.6	25.1	6.00e-01	0	37	0	990904320	62	4122
2026-01-19 13:05:31.98	324.48	14.04	-45.4	-46.6	25.1	6.02e-01	0	37	0	992477184	62	4137
2026-01-19 13:05:32.99	324.62	13.95	-45.4	-46.7	25.0	6.03e-01	0	37	0	994574336	62	4152
2026-01-19 13:05:34.00	324.75	13.86	-45.3	-46.6	25.1	6.03e-01	0	37	0	996147200	62	4105
2026-01-19 13:05:35.01	324.89	13.76	-45.3	-46.5	25.1	6.03e-01	0	37	0	998244352	62	4096
2026-01-19 13:05:36.01	325.02	13.67	-45.3	-46.6	25.0	6.02e-01	0	37	0	1000341504	62	4125
2026-01-19 13:05:37.02	325.15	13.58	-45.3	-46.6	25.1	6.04e-01	0	37	0	1001914368	62	4108
2026-01-19 13:05:38.03	325.29	13.49	-45.3	-46.6	25.1	6.02e-01	0	37	0	1004011520	62	4100
2026-01-19 13:05:39.03	325.42	13.40	-45.4	-46.6	24.9	6.03e-01	0	37	0	1006108672	62	4132
2026-01-19 13:05:40.04	325.55	13.31	-45.4	-46.7	24.9	6.04e-01	0	37	0	1007681536	62	4154
2026-01-19 13:05:41.05	325.68	13.22	-45.5	-46.8	24.9	6.02e-01	0	37	0	1009778688	62	4213
2026-01-19 13:05:42.06	325.81	13.13	-45.6	-46.9	24.8	6.04e-01	0	37	0	1011351552	62	4243
2026-01-19 13:05:43.07	325.94	13.04	-45.6	-46.9	24.8	6.02e-01	0	37	0	1013448704	62	4257
2026-01-19 13:05:44.07	326.06	12.95	-45.6	-46.9	24.7	6.03e-01	0	37	0	1015545856	62	4290
2026-01-19 13:05:45.08	326.19	12.86	-45.6	-46.9	24.7	6.02e-01	0	37	0	1017118720	62	4290
2026-01-19 13:05:46.09	326.32	12.77	-45.6	-46.9	24.8	6.03e-01	0	37	0	1019215872	62	4255
2026-01-19 13:05:47.10	326.44	12.69	-45.7	-47.0	24.7	6.05e-01	0	37	0	1020788736	62	4309
2026-01-19 13:05:48.11	326.57	12.60	-45.7	-47.0	24.6	6.02e-01	0	37	0	1022885888	62	4330
2026-01-19 13:05:49.11	326.69	12.51	-45.7	-47.0	24.6	6.04e-01	0	37	0	1024458752	62	4317
2026-01-19 13:05:50.12	326.81	12.42	-45.6	-46.9	24.7	6.03e-01	0	37	0	1026555904	62	4285
2026-01-19 13:05:51.13	326.94	12.33	-45.6	-46.9	24.7	6.03e-01	0	37	0	1028653056	62	4287
2026-01-19 13:05:52.14	327.06	12.25	-45.6	-46.9	24.7	6.03e-01	0	37	0	1030750208	62	4265
2026-01-19 13:05:53.15	327.18	12.16	-45.6	-46.9	24.7	6.04e-01	0	37	0	1032323072	62	4262
2026-01-19 13:05:54.15	327.30	12.07	-45.5	-46.8	24.7	6.02e-01	0	37	0	1034420224	62	4235
2026-01-19 13:05:55.16	327.42	11.99	-45.5	-46.8	24.8	6.02e-01	0	37	0	1035993088	62	4240
2026-01-19 13:05:56.17	327.54	11.90	-45.6	-46.9	24.7	6.02e-01	0	37	0	1038090240	62	4259
2026-01-19 13:05:57.18	327.65	11.81	-45.7	-47.0	24.6	6.03e-01	0	37	0	1039663104	62	4304
2026-01-19 13:05:58.18	327.77	11.73	-45.6	-46.9	24.7	6.04e-01	0	37	0	1041760256	62	4269
2026-01-19 13:05:59.19	327.89	11.64	-45.6	-46.9	24.7	6.04e-01	0	37	0	1043857408	62	4282
2026-01-19 13:06:00.20	328.00	11.56	-45.6	-46.9	24.6	6.02e-01	0	37	0	1045430272	62	4280
2026-01-19 13:06:01.20	328.12	11.47	-45.6	-46.9	24.7	6.01e-01	0	37	0	1047527424	62	4266
2026-01-19 13:06:02.22	328.23	11.39	-45.6	-46.9	24.7	6.02e-01	0	37	0	1049100288	62	4275
2026-01-19 13:06:03.22	328.34	11.30	-45.7	-47.0	24.6	6.04e-01	0	37	0	1051197440	62	4325
2026-01-19 13:06:04.23	328.46	11.22	-45.8	-47.1	24.4	6.01e-01	0	37	0	1052770304	62	4378
2026-01-19 13:06:05.24	328.57	11.13	-45.7	-47.1	24.5	6.02e-01	0	37	0	1054867456	62	4361
2026-01-19 13:06:06.25	328.68	11.05	-45.7	-47.1	24.5	6.01e-01	0	37	0	1056964608	62	4345
2026-01-19 13:06:07.25	328.79	10.97	-45.9	-47.3	24.2	6.01e-01	0	37	0	1059061760	62	4470
2026-01-19 13:06:08.26	328.90	10.88	-45.8	-47.2	24.3	6.03e-01	0	37	0	1060634624	62	4412
2026-01-19 13:06:09.27	329.01	10.80	-45.9	-47.3	24.3	6.02e-01	0	37	0	1062731776	62	4444
2026-01-19 13:06:10.28	329.12	10.72	-45.8	-47.2	24.3	6.02e-01	0	37	0	1064304640	62	4423
2026-01-19 13:06:11.29	329.23	10.63	-45.9	-47.3	24.2	6.05e-01	0	37	0	1066401792	62	4470
2026-01-19 13:06:12.30	329.34	10.55	-45.9	-47.2	24.3	6.03e-01	0	37	0	1067974656	62	4438
2026-01-19 13:06:13.30	329.44	10.47	-46.0	-47.4	24.1	6.03e-01	0	37	0	1070071808	62	4510
2026-01-19 13:06:14.31	329.55	10.39	-46.0	-47.4	24.1	6.01e-01	0	37	0	1072168960	62	4504
2026-01-19 13:06:15.32	329.66	10.31	-45.9	-47.3	24.2	6.01e-01	0	37	0	1073741824	62	4458
2026-01-19 13:06:16.33	329.76	10.22	-46.0	-47.4	24.1	6.02e-01	0	37	0	1075838976	62	4526
2026-01-19 13:06:17.33	329.87	10.14	-45.9	-47.3	24.2	6.01e-01	0	37	0	1077936128	62	4462
2026-01-19 13:06:18.34	329.97	10.06	-46.0	-47.4	24.1	6.03e-01	0	37	0	1079508992	62	4524
2026-01-19 13:06:19.35	330.07	9.98	-46.2	-47.6	23.9	6.04e-01	0	37	0	1081606144	62	4618
2026-01-19 13:06:20.36	330.18	9.90	-46.2	-47.6	23.9	6.01e-01	0	37	0	1083179008	62	4617
2026-01-19 13:06:21.37	330.28	9.82	-46.1	-47.5	24.0	6.04e-01	0	37	0	1085276160	63	4340
2026-01-19 13:06:22.37	330.38	9.74	-46.2	-47.6	23.9	6.03e-01	0	37	0	1087373312	63	4382
2026-01-19 13:06:23.38	330.48	9.66	-46.3	-47.7	23.8	6.03e-01	0	37	0	1088946176	63	4412
2026-01-19 13:06:24.38	330.58	9.58	-46.3	-47.8	23.7	6.03e-01	0	37	0	1091043328	63	4450
2026-01-19 13:06:25.39	330.68	9.50	-46.2	-47.6	23.9	5.99e-01	0	37	0	1092616192	63	4366
2026-01-19 13:06:26.40	330.78	9.42	-46.2	-47.6	23.8	6.03e-01	0	37	0	1094713344	63	4385
2026-01-19 13:06:27.41	330.88	9.34	-46.3	-47.7	23.8	6.00e-01	0	37	0	1096286208	63	4426
2026-01-19 13:06:28.42	330.98	9.26	-46.3	-47.8	23.7	6.01e-01	0	37	0	1098383360	63	4444
2026-01-19 13:06:29.43	331.08	9.18	-46.2	-47.6	23.9	6.01e-01	0	37	0	1100480512	63	4366
2026-01-19 13:06:30.44	331.18	9.10	-46.3	-47.7	23.7	6.01e-01	0	37	0	1102053376	63	4440
2026-01-19 13:06:31.44	331.27	9.03	-46.3	-47.7	23.7	6.02e-01	0	37	0	1104150528	63	4424
2026-01-19 13:06:32.45	331.37	8.95	-46.4	-47.8	23.6	6.03e-01	0	37	0	1106247680	63	4486
2026-01-19 13:06:33.46	331.46	8.87	-46.2	-47.7	23.8	6.02e-01	0	37	0	1107820544	63	4403
2026-01-19 13:06:34.47	331.56	8.79	-46.4	-47.9	23.5	6.05e-01	0	37	0	1109917696	63	4511
2026-01-19 13:06:35.48	331.65	8.71	-46.3	-47.7	23.7	6.03e-01	0	37	0	1111490560	63	4440
2026-01-19 13:06:36.49	331.75	8.64	-46.3	-47.7	23.7	6.03e-01	0	37	0	1113587712	63	4440
2026-01-19 13:06:37.49	331.84	8.56	-46.3	-47.8	23.7	6.02e-01	0	37	0	1115684864	63	4446
2026-01-19 13:06:38.50	331.93	8.48	-46.3	-47.8	23.7	6.06e-01	0	37	0	1117257728	63	4445
2026-01-19 13:06:39.51	332.03	8.40	-46.3	-47.7	23.6	6.01e-01	0	37	0	1119354880	63	4441
2026-01-19 13:06:40.52	332.12	8.33	-46.4	-47.8	23.6	6.05e-01	0	37	0	1120927744	63	4479
2026-01-19 13:06:41.52	332.21	8.25	-46.4	-47.9	23.5	6.03e-01	0	37	0	1123024896	63	4518
2026-01-19 13:06:42.53	332.30	8.18	-46.4	-47.9	23.5	6.02e-01	0	37	0	1125122048	63	4522
2026-01-19 13:06:43.54	332.39	8.10	-46.5	-48.0	23.4	6.04e-01	0	37	0	1126694912	63	4565
2026-01-19 13:06:44.55	332.48	8.02	-46.5	-48.0	23.4	6.01e-01	0	37	0	1128792064	63	4589
2026-01-19 13:06:45.56	332.57	7.95	-46.7	-48.2	23.1	6.01e-01	0	37	0	1130364928	64	4425
2026-01-19 13:06:46.57	332.66	7.87	-46.8	-48.4	22.9	6.02e-01	0	37	0	1132462080	64	4515
2026-01-19 13:06:47.57	332.75	7.80	-46.7	-48.3	23.0	6.03e-01	0	37	0	1134559232	64	4462
2026-01-19 13:06:48.58	332.84	7.72	-46.5	-48.1	23.2	6.03e-01	0	37	0	1136132096	64	4350
2026-01-19 13:06:49.59	332.93	7.65	-46.5	-48.0	23.2	6.03e-01	0	37	0	1138229248	64	4330
2026-01-19 13:06:50.60	333.01	7.57	-46.6	-48.2	23.1	6.01e-01	0	37	0	1139802112	64	4405
2026-01-19 13:06:51.61	333.10	7.50	-46.5	-48.0	23.2	6.00e-01	0	37	0	1141899264	64	4324
2026-01-19 13:06:52.61	333.19	7.43	-46.7	-48.2	23.0	6.03e-01	0	37	0	1143996416	64	4426
2026-01-19 13:06:53.62	333.27	7.35	-46.6	-48.1	23.1	6.00e-01	0	37	0	1145569280	64	4365
2026-01-19 13:06:54.63	333.36	7.28	-46.5	-48.0	23.1	6.03e-01	0	37	0	1147666432	64	4326
2026-01-19 13:06:55.64	333.44	7.20	-46.6	-48.1	23.0	6.02e-01	0	37	0	1149763584	64	4385
2026-01-19 13:06:56.65	333.53	7.13	-46.5	-48.0	23.1	6.04e-01	0	37	0	1151336448	64	4334
2026-01-19 13:06:57.65	333.61	7.06	-46.7	-48.3	22.9	6.02e-01	0	37	0	1153433600	64	4479
2026-01-19 13:06:58.66	333.70	6.98	-46.8	-48.4	22.8	6.02e-01	0	37	0	1155006464	64	4520
2026-01-19 13:06:59.67	333.78	6.91	-46.9	-48.5	22.7	6.05e-01	0	37	0	1157103616	64	4590
2026-01-19 13:07:00.67	333.86	6.84	-46.8	-48.4	22.7	6.02e-01	0	37	0	1158676480	64	4538
2026-01-19 13:07:01.68	333.94	6.77	-46.8	-48.3	22.9	6.04e-01	0	37	0	1160773632	64	4491
2026-01-19 13:07:02.69	334.03	6.69	-46.9	-48.5	22.6	6.02e-01	0	37	0	1162870784	64	4569
2026-01-19 13:07:03.70	334.11	6.62	-47.1	-48.7	22.4	6.03e-01	0	37	0	1164443648	64	4699
2026-01-19 13:07:04.71	334.19	6.55	-47.2	-48.9	22.2	6.01e-01	0	37	0	1166540800	65	4536
2026-01-19 13:07:05.72	334.27	6.48	-47.2	-48.9	22.2	6.02e-01	0	37	0	1168113664	65	4535
2026-01-19 13:07:06.72	334.35	6.41	-47.3	-49.0	22.1	6.02e-01	0	37	0	1170210816	65	4589
2026-01-19 13:07:07.73	334.43	6.34	-47.0	-48.6	22.5	6.03e-01	0	37	0	1172307968	65	4389
2026-01-19 13:07:08.74	334.51	6.26	-47.0	-48.7	22.3	6.04e-01	0	37	0	1173880832	65	4430
2026-01-19 13:07:09.74	334.59	6.19	-47.0	-48.6	22.5	6.02e-01	0	37	0	1175977984	65	4379
2026-01-19 13:07:10.75	334.67	6.12	-47.0	-48.6	22.4	6.01e-01	0	37	0	1178075136	65	4385
2026-01-19 13:07:11.76	334.75	6.05	-46.9	-48.6	22.4	6.04e-01	0	37	0	1179648000	65	4351
2026-01-19 13:07:12.77	334.83	5.98	-47.1	-48.8	22.2	6.03e-01	0	37	0	1181745152	65	4490
2026-01-19 13:07:13.78	334.90	5.91	-47.2	-48.9	22.1	6.05e-01	0	37	0	1183318016	65	4538
2026-01-19 13:07:14.78	334.98	5.84	-46.9	-48.5	22.4	6.02e-01	0	37	0	1185415168	65	4321
2026-01-19 13:07:15.79	335.06	5.77	-47.1	-48.9	22.1	6.02e-01	0	37	0	1186988032	65	4508
2026-01-19 13:07:16.80	335.13	5.70	-46.8	-48.5	22.4	6.02e-01	0	37	0	1189085184	65	4315
2026-01-19 13:07:17.81	335.21	5.63	-47.3	-49.1	21.9	6.03e-01	0	37	0	1191182336	65	4631
2026-01-19 13:07:18.82	335.29	5.56	-47.4	-49.2	21.8	6.00e-01	0	37	0	1192755200	65	4654
2026-01-19 13:07:19.83	335.36	5.49	-46.7	-48.3	22.6	6.01e-01	0	37	0	1194852352	65	4241
2026-01-19 13:07:20.83	335.44	5.42	-47.2	-49.0	22.0	6.02e-01	0	37	0	1196949504	65	4555
2026-01-19 13:07:21.84	335.51	5.35	-47.3	-49.1	21.9	6.01e-01	0	37	0	1198522368	65	4604
2026-01-19 13:07:22.85	335.59	5.28	-47.1	-48.9	22.0	6.01e-01	0	37	0	1200619520	65	4494
2026-01-19 13:07:23.85	335.66	5.22	-47.1	-48.8	22.1	6.01e-01	0	37	0	1202192384	65	4466
2026-01-19 13:07:24.86	335.73	5.15	-47.4	-49.2	21.7	6.03e-01	0	37	0	1204289536	65	4658
2026-01-19 13:07:25.87	335.81	5.08	-47.1	-48.8	22.1	6.02e-01	0	37	0	1206386688	65	4473
2026-01-19 13:07:26.87	335.88	5.01	-47.3	-49.1	21.8	6.01e-01	0	37	0	1207959552	65	4626
2026-01-19 13:07:27.88	335.95	4.94	-53.3	-59.2	12.7	6.06e-01	0	37	0	1210056704	76	7842
2026-01-19 13:07:28.89	336.02	4.88	-54.6	-72.4	3.8	7.45e-01	0	37	104	1210580992	79	30069
2026-01-19 13:07:29.90	336.10	4.81	-54.8	-72.6	3.8	7.42e-01	0	37	104	1210580992	80	29198
2026-01-19 13:07:30.91	336.17	4.74	-54.9	-72.8	3.8	7.45e-01	0	37	104	1210580992	80	29704
2026-01-19 13:07:31.91	336.24	4.67	-55.1	-72.9	3.8	7.45e-01	0	37	104	1210580992	80	30250
2026-01-19 13:07:32.92	336.31	4.61	-55.2	-73.0	3.8	7.46e-01	0	37	104	1210580992	80	30553
2026-01-19 13:07:33.93	336.38	4.54	-55.3	-73.1	3.8	7.43e-01	0	37	104	1210580992	81	29139
2026-01-19 13:07:34.94	336.45	4.47	-55.4	-73.2	3.8	7.44e-01	0	37	104	1210580992	81	29567
2026-01-19 13:07:35.95	336.52	4.40	-55.5	-73.3	3.8	7.43e-01	0	37	104	1210580992	81	29882
