passes_logs/2026/01/16/R2.0S_Moscow/R2.0S_Moscow__20260116_012352_AQUA_rec.log

#Pass ID: 20260116_012352_AQUA
#Satellite: AQUA
#Configuration: AQUA
#almurnet v.1.7.20251203
#Start time: 2026-01-16 01:23:52

#Version: 2.2.20231116
#Station: R2.0S_Moscow
#Location: 37.707566 lon 55.798166 lat
#TLE: 1 27424U 02022A   26015.51279194  .00000651  00000+0  14022-3 0  9990
#TLE: 2 27424  98.4082 341.9487 0002034  77.6776  33.2672 14.61821775260965

#Time	Az	El	Level	Level2	SNR	BER	BlckErr	Temp	State	Recorded	gain1	gain2
2026-01-16 01:23:52.32	15.35	2.02	-43.7	-62.9	3.8	7.44e-01	0	51	0	0	59	32026
2026-01-16 01:23:53.32	15.35	2.09	-43.7	-62.9	3.8	7.47e-01	0	51	104	0	58	34004
2026-01-16 01:23:54.34	15.36	2.15	-43.7	-62.9	3.8	7.43e-01	0	51	104	0	58	33971
2026-01-16 01:23:55.34	15.36	2.22	-43.7	-62.9	3.8	7.44e-01	0	51	104	0	58	33976
2026-01-16 01:23:56.36	15.36	2.29	-43.7	-62.9	3.8	7.47e-01	0	51	104	0	58	33897
2026-01-16 01:23:57.37	15.36	2.36	-43.7	-62.9	3.8	7.48e-01	0	51	104	0	58	33868
2026-01-16 01:23:58.38	15.36	2.42	-43.7	-62.9	3.8	7.44e-01	0	51	104	0	58	33872
2026-01-16 01:23:59.39	15.36	2.49	-43.7	-62.9	3.8	7.48e-01	0	51	104	0	58	33924
2026-01-16 01:24:00.40	15.36	2.56	-43.7	-62.9	3.8	7.46e-01	0	51	104	0	58	33960
2026-01-16 01:24:01.41	15.36	2.63	-43.7	-62.9	3.8	7.45e-01	0	51	104	0	58	33900
2026-01-16 01:24:02.42	15.36	2.70	-43.7	-62.9	3.8	7.47e-01	0	52	104	0	58	33894
2026-01-16 01:24:03.43	15.37	2.76	-43.7	-62.9	3.8	7.44e-01	0	52	104	0	58	33913
2026-01-16 01:24:04.44	15.37	2.83	-43.7	-62.9	3.8	7.43e-01	0	52	104	0	58	33794
2026-01-16 01:24:05.46	15.37	2.90	-43.7	-62.9	3.8	7.46e-01	0	52	104	0	58	33876
2026-01-16 01:24:06.47	15.37	2.97	-43.7	-62.9	3.8	7.46e-01	0	52	104	0	58	33845
2026-01-16 01:24:07.48	15.37	3.04	-43.7	-62.9	3.8	7.42e-01	0	52	104	0	58	33918
2026-01-16 01:24:08.49	15.37	3.11	-43.7	-62.9	3.8	7.47e-01	0	52	104	0	58	33911
2026-01-16 01:24:09.50	15.37	3.18	-43.7	-62.9	3.8	7.48e-01	0	52	104	0	58	33844
2026-01-16 01:24:10.51	15.37	3.25	-43.7	-62.9	3.8	7.44e-01	0	52	104	0	58	33821
2026-01-16 01:24:11.52	15.37	3.32	-43.7	-62.9	3.8	7.43e-01	0	52	104	0	58	33866
2026-01-16 01:24:12.53	15.37	3.39	-43.7	-62.9	3.8	7.45e-01	0	52	104	0	58	33902
2026-01-16 01:24:13.54	15.38	3.46	-43.7	-62.9	3.8	7.45e-01	0	52	104	0	58	33784
2026-01-16 01:24:14.55	15.38	3.53	-43.7	-62.9	3.8	7.47e-01	0	52	104	0	58	33858
2026-01-16 01:24:15.56	15.38	3.60	-43.7	-62.9	3.8	7.44e-01	0	52	104	0	58	33864
2026-01-16 01:24:16.57	15.38	3.68	-43.7	-62.9	3.8	7.44e-01	0	53	104	0	58	33813
2026-01-16 01:24:17.58	15.38	3.75	-43.7	-62.9	3.8	7.45e-01	0	52	104	0	58	33855
2026-01-16 01:24:18.59	15.38	3.82	-43.7	-62.9	3.8	7.44e-01	0	53	104	0	58	33835
2026-01-16 01:24:19.60	15.38	3.89	-43.7	-62.9	3.8	7.44e-01	0	52	104	0	58	33871
2026-01-16 01:24:20.61	15.38	3.96	-43.7	-62.9	3.8	7.46e-01	0	53	104	0	58	33810
2026-01-16 01:24:21.62	15.38	4.03	-43.7	-62.9	3.8	7.46e-01	0	53	104	0	58	33751
2026-01-16 01:24:22.63	15.38	4.11	-43.7	-62.8	3.8	7.51e-01	0	53	104	0	58	33598
2026-01-16 01:24:23.64	15.38	4.18	-43.7	-62.9	3.8	7.44e-01	0	53	104	0	58	33800
2026-01-16 01:24:24.65	15.38	4.25	-43.7	-62.8	3.8	7.46e-01	0	53	104	0	58	33454
2026-01-16 01:24:25.66	15.38	4.33	-43.7	-62.9	3.8	7.45e-01	0	53	104	0	58	33865
2026-01-16 01:24:26.67	15.39	4.40	-43.7	-62.7	3.8	7.47e-01	0	53	104	0	58	33266
2026-01-16 01:24:27.68	15.39	4.47	-43.7	-62.9	3.8	7.46e-01	0	53	104	0	58	33771
2026-01-16 01:24:28.69	15.39	4.55	-43.7	-62.7	3.8	7.45e-01	0	53	104	0	58	32996
2026-01-16 01:24:29.70	15.39	4.62	-43.7	-62.8	3.8	7.43e-01	0	53	104	0	58	33670
2026-01-16 01:24:30.71	15.39	4.69	-43.7	-62.7	3.8	7.46e-01	0	53	104	0	58	33155
2026-01-16 01:24:31.72	15.39	4.77	-43.7	-62.8	3.8	7.44e-01	0	53	104	0	58	33655
2026-01-16 01:24:32.74	15.39	4.84	-43.7	-62.7	3.8	7.46e-01	0	54	104	0	58	33083
2026-01-16 01:24:33.75	15.39	4.92	-43.7	-62.8	3.8	7.44e-01	0	53	104	0	58	33427
2026-01-16 01:24:34.76	15.39	4.99	-43.7	-62.8	3.8	7.46e-01	0	54	104	0	58	33451
2026-01-16 01:24:35.77	15.39	5.07	-43.7	-62.8	3.8	7.46e-01	0	54	104	0	58	33326
2026-01-16 01:24:36.78	15.39	5.15	-43.7	-62.8	3.8	7.47e-01	0	54	104	0	58	33558
2026-01-16 01:24:37.79	15.39	5.22	-43.7	-62.8	3.8	7.45e-01	0	54	104	0	58	33454
2026-01-16 01:24:38.80	15.39	5.30	-43.7	-62.8	3.8	7.46e-01	0	54	104	0	58	33607
2026-01-16 01:24:39.81	15.39	5.37	-43.7	-62.9	3.8	7.45e-01	0	54	104	0	58	33701
2026-01-16 01:24:40.82	15.39	5.45	-43.7	-62.8	3.8	7.49e-01	0	54	104	0	58	33523
2026-01-16 01:24:41.83	15.39	5.53	-43.7	-62.8	3.8	7.46e-01	0	54	104	0	58	33666
2026-01-16 01:24:42.84	15.39	5.60	-43.7	-62.9	3.8	7.44e-01	0	54	104	0	58	33798
2026-01-16 01:24:43.85	15.39	5.68	-43.7	-62.7	3.8	7.48e-01	0	54	104	0	58	33294
2026-01-16 01:24:44.86	15.39	5.76	-43.7	-62.7	3.8	7.46e-01	0	54	104	0	58	33156
2026-01-16 01:24:45.87	15.39	5.84	-43.7	-62.8	3.8	7.46e-01	0	54	104	0	58	33678
2026-01-16 01:24:46.89	15.39	5.92	-43.7	-62.8	3.8	7.45e-01	0	54	104	0	58	33575
2026-01-16 01:24:47.90	15.39	6.00	-43.7	-62.4	3.8	7.45e-01	0	54	104	0	58	32122
2026-01-16 01:24:48.91	15.39	6.07	-43.7	-62.1	3.8	7.42e-01	0	54	104	0	58	31038
2026-01-16 01:24:49.92	15.39	6.15	-43.7	-62.3	3.8	7.47e-01	0	54	104	0	58	31576
2026-01-16 01:24:50.93	15.39	6.23	-43.7	-62.5	3.8	7.42e-01	0	54	104	0	58	32370
2026-01-16 01:24:51.94	15.39	6.31	-43.7	-62.5	3.8	7.42e-01	0	55	104	0	58	32444
2026-01-16 01:24:52.95	15.39	6.39	-43.7	-62.0	3.8	7.45e-01	0	55	104	0	58	30653
2026-01-16 01:24:53.96	15.39	6.47	-43.7	-61.4	3.8	7.45e-01	0	55	104	0	58	28381
2026-01-16 01:24:54.97	15.39	6.55	-43.6	-60.8	3.8	7.42e-01	0	55	104	0	58	26722
2026-01-16 01:24:55.98	15.39	6.63	-43.6	-60.3	3.9	7.41e-01	0	55	104	0	58	25222
2026-01-16 01:24:56.99	15.39	6.71	-43.6	-59.4	4.2	7.32e-01	0	55	104	0	58	22596
2026-01-16 01:24:58.00	15.39	6.79	-43.6	-58.3	4.4	7.22e-01	0	55	104	0	58	20041
2026-01-16 01:24:59.01	15.39	6.88	-43.5	-56.8	5.3	6.99e-01	0	55	0	0	58	16746
2026-01-16 01:25:00.02	15.39	6.96	-43.4	-55.1	6.5	6.70e-01	92	55	0	1048576	58	13738
2026-01-16 01:25:01.03	15.39	7.04	-43.3	-53.6	7.9	6.46e-01	91	55	0	2621440	58	11666
2026-01-16 01:25:02.04	15.39	7.12	-43.1	-52.2	9.3	6.29e-01	0	55	0	4718592	58	9916
2026-01-16 01:25:03.05	15.39	7.20	-42.8	-50.6	11.0	6.13e-01	0	55	0	6815744	57	8741
2026-01-16 01:25:04.07	15.39	7.29	-42.4	-49.1	12.6	6.10e-01	0	55	0	8388608	56	7802
2026-01-16 01:25:05.08	15.39	7.37	-42.0	-47.7	14.1	6.04e-01	0	55	0	10485760	56	6617
2026-01-16 01:25:06.09	15.39	7.46	-41.5	-46.5	15.2	6.03e-01	0	55	0	12582912	55	6113
2026-01-16 01:25:07.10	15.39	7.54	-41.3	-46.0	15.8	6.02e-01	0	55	0	14155776	54	6083
2026-01-16 01:25:08.11	15.39	7.62	-41.2	-46.0	15.8	6.02e-01	0	55	0	16252928	54	6088
2026-01-16 01:25:09.12	15.39	7.71	-41.5	-46.6	15.1	6.03e-01	0	55	0	17825792	54	6567
2026-01-16 01:25:10.13	15.39	7.79	-41.8	-47.5	14.2	6.03e-01	0	55	0	19922944	54	7255
2026-01-16 01:25:11.14	15.39	7.88	-42.1	-48.3	13.4	6.04e-01	0	55	0	22020096	54	7958
2026-01-16 01:25:12.15	15.39	7.96	-42.1	-48.3	13.4	6.04e-01	0	55	0	23592960	54	7923
2026-01-16 01:25:13.16	15.39	8.05	-42.0	-48.1	13.6	6.04e-01	0	55	0	25690112	54	7790
2026-01-16 01:25:14.17	15.39	8.14	-43.9	-57.0	4.1	7.28e-01	0	55	104	26738688	58	17250
2026-01-16 01:25:15.18	15.39	8.22	-42.5	-47.8	14.4	6.02e-01	0	56	0	27787264	57	6307
2026-01-16 01:25:16.19	15.39	8.31	-42.9	-61.8	3.8	7.45e-01	0	55	104	28835840	57	31715
2026-01-16 01:25:17.20	15.39	8.40	-43.6	-53.2	8.6	6.36e-01	10	56	0	29360128	58	11062
2026-01-16 01:25:18.21	15.39	8.48	-42.9	-49.4	12.7	6.06e-01	0	56	0	31457280	56	8069
2026-01-16 01:25:19.21	15.39	8.57	-41.8	-46.4	15.8	6.04e-01	0	56	0	33030144	55	6016
2026-01-16 01:25:20.23	15.39	8.66	-41.9	-46.6	15.6	6.03e-01	0	55	0	35127296	55	6185
2026-01-16 01:25:21.23	15.38	8.75	-41.7	-46.1	16.1	6.02e-01	0	56	0	37224448	55	5841
2026-01-16 01:25:22.25	15.38	8.84	-41.8	-46.4	15.9	6.03e-01	0	56	0	38797312	55	6044
2026-01-16 01:25:23.26	15.38	8.93	-41.8	-46.3	16.0	6.05e-01	0	56	0	40894464	55	5961
2026-01-16 01:25:24.27	15.38	9.01	-41.8	-46.2	16.2	6.05e-01	0	56	0	42467328	55	5885
2026-01-16 01:25:25.28	15.38	9.10	-41.9	-46.4	16.0	6.04e-01	0	56	0	44564480	55	6015
2026-01-16 01:25:26.28	15.38	9.19	-41.8	-46.2	16.3	6.02e-01	0	56	0	46661632	55	5896
2026-01-16 01:25:27.30	15.38	9.29	-41.9	-46.3	16.2	6.03e-01	0	56	0	48234496	55	5959
2026-01-16 01:25:28.31	15.38	9.38	-41.8	-46.1	16.5	6.04e-01	0	56	0	50331648	55	5805
2026-01-16 01:25:29.31	15.38	9.47	-41.8	-45.9	16.6	6.03e-01	0	56	0	51904512	55	5715
2026-01-16 01:25:30.32	15.38	9.56	-41.8	-46.1	16.5	6.02e-01	0	56	0	54001664	55	5816
2026-01-16 01:25:31.33	15.38	9.65	-41.9	-46.1	16.5	6.06e-01	0	56	0	56098816	55	5830
2026-01-16 01:25:32.34	15.37	9.74	-41.9	-46.1	16.5	6.01e-01	0	56	0	57671680	55	5818
2026-01-16 01:25:33.35	15.37	9.84	-41.8	-45.9	16.7	6.02e-01	0	56	0	59768832	55	5682
2026-01-16 01:25:34.36	15.37	9.93	-41.8	-45.9	16.7	6.01e-01	0	56	0	61341696	55	5702
2026-01-16 01:25:35.37	15.37	10.02	-41.8	-45.9	16.7	6.04e-01	0	56	0	63438848	55	5709
2026-01-16 01:25:36.38	15.37	10.12	-41.8	-45.8	16.8	6.01e-01	0	56	0	65536000	55	5654
2026-01-16 01:25:37.39	15.37	10.21	-41.8	-45.8	16.8	6.03e-01	0	56	0	67108864	55	5617
2026-01-16 01:25:38.40	15.37	10.31	-41.8	-45.9	16.8	6.03e-01	0	56	0	69206016	55	5689
2026-01-16 01:25:39.41	15.37	10.40	-41.8	-45.8	16.8	6.02e-01	0	56	0	70778880	55	5656
2026-01-16 01:25:40.42	15.36	10.50	-41.8	-45.8	16.9	6.03e-01	0	56	0	72876032	55	5645
2026-01-16 01:25:41.43	15.36	10.59	-41.8	-45.8	17.0	6.03e-01	0	56	0	74973184	55	5599
2026-01-16 01:25:42.44	15.36	10.69	-41.8	-45.7	17.0	6.05e-01	0	56	0	76546048	55	5590
2026-01-16 01:25:43.45	15.36	10.79	-41.8	-45.8	17.0	6.03e-01	0	56	0	78643200	55	5597
2026-01-16 01:25:44.46	15.36	10.88	-41.8	-45.7	17.1	6.03e-01	0	56	0	80740352	55	5576
2026-01-16 01:25:45.47	15.36	10.98	-41.8	-45.7	17.1	6.02e-01	0	57	0	82313216	55	5573
2026-01-16 01:25:46.48	15.35	11.08	-41.8	-45.7	17.1	6.02e-01	0	56	0	84410368	55	5559
2026-01-16 01:25:47.48	15.35	11.18	-41.8	-45.7	17.2	6.02e-01	0	57	0	85983232	55	5550
2026-01-16 01:25:48.49	15.35	11.28	-41.8	-45.7	17.2	6.04e-01	0	56	0	88080384	55	5547
2026-01-16 01:25:49.50	15.35	11.38	-41.8	-45.7	17.2	6.04e-01	0	56	0	90177536	55	5532
2026-01-16 01:25:50.51	15.35	11.48	-41.8	-45.6	17.2	6.01e-01	0	56	0	91750400	55	5510
2026-01-16 01:25:51.52	15.35	11.58	-41.8	-45.6	17.3	6.04e-01	0	57	0	93847552	55	5512
2026-01-16 01:25:52.53	15.34	11.68	-41.8	-45.6	17.2	6.04e-01	0	57	0	95944704	55	5510
2026-01-16 01:25:53.54	15.34	11.78	-41.8	-45.6	17.3	6.04e-01	0	57	0	97517568	55	5503
2026-01-16 01:25:54.55	15.34	11.88	-41.8	-45.6	17.3	6.02e-01	0	57	0	99614720	55	5516
2026-01-16 01:25:55.56	15.34	11.98	-41.8	-45.6	17.3	6.01e-01	0	57	0	101187584	55	5525
2026-01-16 01:25:56.57	15.34	12.09	-41.8	-45.6	17.3	6.03e-01	0	57	0	103284736	55	5511
2026-01-16 01:25:57.58	15.33	12.19	-41.9	-45.7	17.3	6.04e-01	0	57	0	105381888	55	5541
2026-01-16 01:25:58.59	15.33	12.29	-41.9	-45.6	17.4	6.02e-01	0	57	0	106954752	55	5510
2026-01-16 01:25:59.60	15.33	12.40	-41.9	-45.7	17.3	6.03e-01	0	57	0	109051904	55	5558
2026-01-16 01:26:00.61	15.33	12.50	-41.8	-45.6	17.4	6.02e-01	0	57	0	110624768	55	5471
2026-01-16 01:26:01.62	15.32	12.61	-41.8	-45.6	17.5	6.02e-01	0	57	0	112721920	55	5465
2026-01-16 01:26:02.63	15.32	12.71	-41.8	-45.5	17.4	6.02e-01	0	57	0	114819072	55	5458
2026-01-16 01:26:03.64	15.32	12.82	-41.8	-45.5	17.5	6.01e-01	0	57	0	116391936	55	5440
2026-01-16 01:26:04.65	15.32	12.93	-41.8	-45.5	17.5	6.01e-01	0	57	0	118489088	55	5425
2026-01-16 01:26:05.66	15.31	13.03	-41.8	-45.4	17.6	6.04e-01	0	57	0	120061952	55	5385
2026-01-16 01:26:06.67	15.31	13.14	-41.8	-45.4	17.6	6.03e-01	0	57	0	122159104	55	5368
2026-01-16 01:26:07.68	15.31	13.25	-41.8	-45.4	17.6	6.02e-01	0	57	0	124256256	55	5369
2026-01-16 01:26:08.68	15.31	13.36	-41.8	-45.3	17.8	6.02e-01	0	57	0	125829120	55	5329
2026-01-16 01:26:09.69	15.30	13.47	-41.8	-45.3	17.8	6.03e-01	0	57	0	127926272	55	5316
2026-01-16 01:26:10.70	15.30	13.58	-41.7	-45.2	18.0	6.03e-01	0	57	0	129499136	55	5229
2026-01-16 01:26:11.71	15.30	13.69	-41.7	-45.2	17.9	6.04e-01	0	57	0	131596288	55	5237
2026-01-16 01:26:12.72	15.29	13.80	-41.7	-45.1	18.0	6.04e-01	0	57	0	133693440	55	5216
2026-01-16 01:26:13.73	15.29	13.91	-41.7	-45.0	18.2	6.01e-01	0	57	0	135266304	55	5144
2026-01-16 01:26:14.74	15.29	14.02	-41.6	-45.0	18.2	6.03e-01	0	57	0	137363456	55	5125
2026-01-16 01:26:15.75	15.29	14.14	-41.6	-44.9	18.3	6.04e-01	0	57	0	138936320	55	5058
2026-01-16 01:26:16.76	15.28	14.25	-41.6	-44.8	18.4	6.04e-01	0	57	0	141033472	55	5029
2026-01-16 01:26:17.77	15.28	14.36	-41.5	-44.8	18.4	6.03e-01	0	57	0	143130624	55	5019
2026-01-16 01:26:18.78	15.28	14.48	-41.5	-44.8	18.4	6.03e-01	0	57	0	144703488	55	5026
2026-01-16 01:26:19.79	15.27	14.59	-41.5	-44.8	18.4	6.04e-01	0	57	0	146800640	55	5025
2026-01-16 01:26:20.80	15.27	14.71	-41.5	-44.8	18.5	6.03e-01	0	57	0	148897792	55	5003
2026-01-16 01:26:21.81	15.27	14.83	-41.5	-44.8	18.5	6.05e-01	0	57	0	150470656	55	5004
2026-01-16 01:26:22.82	15.26	14.94	-41.5	-44.8	18.5	6.05e-01	0	57	0	152567808	55	4991
2026-01-16 01:26:23.82	15.26	15.06	-41.5	-44.8	18.5	6.02e-01	0	57	0	154140672	55	4997
2026-01-16 01:26:24.84	15.26	15.18	-41.5	-44.8	18.5	6.03e-01	0	58	0	156237824	55	4988
2026-01-16 01:26:25.85	15.25	15.30	-41.6	-44.9	18.4	6.03e-01	0	57	0	158334976	55	5057
2026-01-16 01:26:26.86	15.25	15.42	-41.5	-44.8	18.5	6.03e-01	0	57	0	159907840	55	5005
2026-01-16 01:26:27.87	15.24	15.54	-41.6	-44.9	18.4	6.03e-01	0	58	0	162004992	55	5071
2026-01-16 01:26:28.88	15.24	15.66	-41.6	-44.9	18.4	6.04e-01	0	58	0	164102144	55	5090
2026-01-16 01:26:29.89	15.24	15.78	-41.7	-45.0	18.4	6.03e-01	0	58	0	165675008	55	5115
2026-01-16 01:26:30.90	15.23	15.90	-41.7	-45.0	18.3	6.03e-01	0	57	0	167772160	55	5138
2026-01-16 01:26:31.91	15.23	16.03	-41.7	-45.0	18.4	6.04e-01	0	58	0	169345024	55	5119
2026-01-16 01:26:32.92	15.22	16.15	-41.7	-45.0	18.4	6.02e-01	0	58	0	171442176	55	5138
2026-01-16 01:26:33.93	15.22	16.28	-41.7	-45.0	18.4	6.04e-01	0	58	0	173539328	55	5139
2026-01-16 01:26:34.94	15.21	16.40	-41.7	-45.0	18.4	6.02e-01	0	58	0	175112192	55	5148
2026-01-16 01:26:35.95	15.21	16.53	-41.7	-45.0	18.4	6.01e-01	0	58	0	177209344	55	5140
2026-01-16 01:26:36.96	15.21	16.65	-41.7	-45.0	18.5	6.04e-01	0	58	0	178782208	55	5117
2026-01-16 01:26:37.97	15.20	16.78	-41.7	-45.0	18.5	6.02e-01	0	58	0	180879360	55	5104
2026-01-16 01:26:38.98	15.20	16.91	-41.7	-44.9	18.5	6.05e-01	0	58	0	182976512	55	5082
2026-01-16 01:26:39.99	15.19	17.04	-41.7	-44.9	18.5	6.03e-01	0	58	0	184549376	55	5087
2026-01-16 01:26:41.00	15.19	17.17	-41.7	-44.8	18.6	6.02e-01	0	58	0	186646528	55	5036
2026-01-16 01:26:42.00	15.18	17.30	-41.6	-44.8	18.7	6.03e-01	0	58	0	188219392	55	4993
2026-01-16 01:26:43.01	15.18	17.43	-41.6	-44.7	18.8	6.05e-01	0	58	0	190316544	55	4964
2026-01-16 01:26:44.02	15.17	17.56	-41.6	-44.6	18.9	6.02e-01	0	58	0	192413696	55	4922
2026-01-16 01:26:45.03	15.17	17.69	-41.5	-44.5	19.0	6.05e-01	0	58	0	193986560	55	4852
2026-01-16 01:26:46.04	15.16	17.83	-41.5	-44.5	19.0	6.03e-01	0	58	0	196083712	54	5132
2026-01-16 01:26:47.05	15.16	17.96	-41.4	-44.5	19.1	6.03e-01	0	58	0	197656576	54	5103
2026-01-16 01:26:48.06	15.15	18.09	-41.5	-44.4	19.1	6.03e-01	0	58	0	199753728	54	5091
2026-01-16 01:26:49.07	15.15	18.23	-41.5	-44.5	19.1	6.02e-01	0	58	0	201850880	54	5127
2026-01-16 01:26:50.08	15.14	18.37	-41.6	-44.6	19.0	6.02e-01	0	58	0	203423744	54	5185
2026-01-16 01:26:51.09	15.13	18.50	-41.6	-44.6	18.9	6.03e-01	0	58	0	205520896	54	5207
2026-01-16 01:26:52.10	15.13	18.64	-41.6	-44.7	18.9	6.03e-01	0	58	0	207093760	54	5241
2026-01-16 01:26:53.11	15.12	18.78	-41.7	-44.7	18.8	6.02e-01	0	58	0	209190912	54	5276
2026-01-16 01:26:54.12	15.12	18.92	-41.7	-44.8	18.8	6.02e-01	0	58	0	211288064	54	5315
2026-01-16 01:26:55.13	15.11	19.06	-41.7	-44.8	18.9	6.03e-01	0	58	0	212860928	54	5295
2026-01-16 01:26:56.14	15.10	19.21	-41.7	-44.8	18.8	6.03e-01	0	58	0	214958080	54	5332
2026-01-16 01:26:57.15	15.10	19.35	-41.7	-44.8	18.8	6.02e-01	0	58	0	217055232	54	5335
2026-01-16 01:26:58.16	15.09	19.49	-41.7	-44.8	18.8	6.04e-01	0	58	0	218628096	54	5335
2026-01-16 01:26:59.16	15.09	19.64	-41.8	-44.9	18.8	6.04e-01	0	58	0	220725248	54	5353
2026-01-16 01:27:00.18	15.08	19.78	-41.8	-44.8	18.8	6.04e-01	0	58	0	222298112	54	5336
2026-01-16 01:27:01.18	15.07	19.93	-41.7	-44.8	18.8	6.03e-01	0	58	0	224395264	54	5335
2026-01-16 01:27:02.19	15.07	20.07	-41.7	-44.8	18.9	6.04e-01	0	58	0	226492416	54	5326
2026-01-16 01:27:03.20	15.06	20.22	-41.7	-44.8	18.8	6.02e-01	0	58	0	228065280	54	5317
2026-01-16 01:27:04.21	15.05	20.37	-41.8	-44.9	18.8	6.06e-01	0	58	0	230162432	54	5354
2026-01-16 01:27:05.22	15.04	20.52	-41.8	-44.9	18.8	6.04e-01	0	58	0	231735296	54	5346
2026-01-16 01:27:06.23	15.04	20.67	-41.8	-44.9	18.8	6.02e-01	0	58	0	233832448	54	5352
2026-01-16 01:27:07.24	15.03	20.83	-41.8	-45.0	18.7	6.04e-01	0	58	0	235929600	54	5409
2026-01-16 01:27:08.25	15.02	20.98	-41.9	-45.0	18.7	6.04e-01	0	58	0	237502464	54	5433
2026-01-16 01:27:09.26	15.01	21.13	-41.9	-45.0	18.7	6.03e-01	0	58	0	239599616	54	5448
2026-01-16 01:27:10.26	15.01	21.29	-41.9	-45.0	18.7	6.03e-01	0	58	0	241172480	54	5430
2026-01-16 01:27:11.27	15.00	21.44	-41.9	-45.1	18.7	6.03e-01	0	58	0	243269632	54	5469
2026-01-16 01:27:12.29	14.99	21.60	-41.9	-45.1	18.6	6.05e-01	0	58	0	245366784	54	5495
2026-01-16 01:27:13.30	14.98	21.76	-41.9	-45.1	18.7	6.03e-01	0	58	0	246939648	54	5466
2026-01-16 01:27:14.31	14.97	21.92	-42.0	-45.1	18.6	6.03e-01	0	58	0	249036800	54	5513
2026-01-16 01:27:15.32	14.97	22.08	-42.0	-45.2	18.6	6.03e-01	0	58	0	250609664	54	5564
2026-01-16 01:27:16.33	14.96	22.25	-42.1	-45.3	18.5	6.02e-01	0	58	0	252706816	54	5619
2026-01-16 01:27:17.33	14.95	22.41	-42.1	-45.3	18.4	6.03e-01	0	58	0	254803968	54	5635
2026-01-16 01:27:18.34	14.94	22.57	-42.1	-45.3	18.5	6.03e-01	0	58	0	256376832	54	5632
2026-01-16 01:27:19.35	14.93	22.74	-42.1	-45.4	18.4	6.03e-01	0	58	0	258473984	54	5671
2026-01-16 01:27:20.36	14.92	22.90	-42.1	-45.3	18.5	6.04e-01	0	58	0	260571136	54	5599
2026-01-16 01:27:21.37	14.91	23.07	-42.0	-45.2	18.6	6.05e-01	0	58	0	262144000	54	5536
2026-01-16 01:27:22.38	14.90	23.24	-42.0	-45.2	18.6	6.04e-01	0	58	0	264241152	54	5534
2026-01-16 01:27:23.39	14.89	23.41	-42.1	-45.3	18.6	6.02e-01	0	58	0	265814016	54	5594
2026-01-16 01:27:24.40	14.89	23.58	-42.0	-45.2	18.6	6.03e-01	0	58	0	267911168	54	5566
2026-01-16 01:27:25.41	14.88	23.75	-42.0	-45.2	18.6	6.04e-01	0	58	0	270008320	54	5552
2026-01-16 01:27:26.41	14.87	23.93	-42.1	-45.3	18.5	6.02e-01	0	58	0	271581184	54	5616
2026-01-16 01:27:27.43	14.86	24.10	-42.1	-45.3	18.6	6.05e-01	0	58	0	273678336	54	5593
2026-01-16 01:27:28.43	14.85	24.28	-42.1	-45.3	18.6	6.01e-01	0	58	0	275251200	54	5603
2026-01-16 01:27:29.44	14.83	24.46	-42.0	-45.1	18.7	6.03e-01	0	59	0	277348352	54	5524
2026-01-16 01:27:30.45	14.82	24.63	-42.0	-45.1	18.7	6.04e-01	0	58	0	279445504	54	5524
2026-01-16 01:27:31.46	14.81	24.81	-42.0	-45.1	18.8	6.03e-01	0	59	0	281018368	54	5479
2026-01-16 01:27:32.47	14.80	25.00	-41.9	-44.9	18.9	6.04e-01	0	59	0	283115520	54	5401
2026-01-16 01:27:33.48	14.79	25.18	-41.9	-45.0	18.9	6.06e-01	0	58	0	285212672	54	5420
2026-01-16 01:27:34.49	14.78	25.36	-41.9	-45.0	18.9	6.01e-01	0	58	0	286785536	54	5422
2026-01-16 01:27:35.50	14.77	25.55	-41.9	-45.0	18.9	6.02e-01	0	58	0	288882688	54	5409
2026-01-16 01:27:36.51	14.76	25.74	-41.9	-44.9	19.0	6.04e-01	0	58	0	290455552	54	5355
2026-01-16 01:27:37.52	14.74	25.93	-41.9	-44.9	19.0	6.06e-01	0	58	0	292552704	54	5371
2026-01-16 01:27:38.53	14.73	26.12	-41.9	-44.9	18.9	6.03e-01	0	59	0	294649856	54	5395
2026-01-16 01:27:39.54	14.72	26.31	-41.9	-45.0	18.9	6.03e-01	0	58	0	296222720	54	5407
2026-01-16 01:27:40.55	14.71	26.50	-41.9	-44.9	19.0	6.04e-01	0	58	0	298319872	54	5386
2026-01-16 01:27:41.56	14.69	26.70	-41.9	-44.9	19.0	6.04e-01	0	59	0	299892736	54	5356
2026-01-16 01:27:42.57	14.68	26.89	-41.9	-44.9	19.0	6.00e-01	0	59	0	301989888	54	5370
2026-01-16 01:27:43.58	14.67	27.09	-41.8	-44.8	19.1	6.02e-01	0	59	0	304087040	54	5291
2026-01-16 01:27:44.59	14.66	27.29	-41.8	-44.8	19.1	6.02e-01	0	58	0	305659904	54	5303
2026-01-16 01:27:45.60	14.64	27.49	-41.7	-44.7	19.2	6.04e-01	0	58	0	307757056	54	5247
2026-01-16 01:27:46.61	14.63	27.69	-41.7	-44.6	19.3	6.02e-01	0	59	0	309329920	54	5172
2026-01-16 01:27:47.62	14.61	27.90	-41.6	-44.5	19.4	6.06e-01	0	58	0	311427072	54	5113
2026-01-16 01:27:48.63	14.60	28.10	-41.6	-44.5	19.4	6.03e-01	0	59	0	313524224	54	5130
2026-01-16 01:27:49.64	14.59	28.31	-41.7	-44.6	19.4	6.03e-01	0	59	0	315097088	54	5161
2026-01-16 01:27:50.65	14.57	28.52	-41.7	-44.6	19.3	6.02e-01	0	59	0	317194240	54	5188
2026-01-16 01:27:51.66	14.56	28.73	-41.8	-44.7	19.2	6.03e-01	0	59	0	318767104	54	5248
2026-01-16 01:27:52.67	14.54	28.94	-41.8	-44.7	19.2	6.02e-01	0	59	0	320864256	54	5262
2026-01-16 01:27:53.67	14.52	29.15	-41.8	-44.7	19.2	6.03e-01	0	59	0	322961408	54	5263
2026-01-16 01:27:54.68	14.51	29.37	-41.7	-44.6	19.3	6.03e-01	0	58	0	324534272	54	5212
2026-01-16 01:27:55.69	14.49	29.59	-41.7	-44.5	19.4	6.04e-01	0	59	0	326631424	54	5140
2026-01-16 01:27:56.70	14.48	29.81	-41.6	-44.4	19.5	6.04e-01	0	59	0	328728576	54	5070
2026-01-16 01:27:57.71	14.46	30.03	-41.4	-44.1	19.8	6.04e-01	0	59	0	330301440	54	4925
2026-01-16 01:27:58.72	14.44	30.25	-41.5	-44.2	19.7	6.03e-01	0	59	0	332398592	54	4978
2026-01-16 01:27:59.73	14.43	30.48	-41.5	-44.4	19.6	6.03e-01	0	59	0	333971456	54	5043
2026-01-16 01:28:00.74	14.41	30.71	-41.6	-44.5	19.5	6.04e-01	0	59	0	336068608	54	5118
2026-01-16 01:28:01.75	14.39	30.93	-41.7	-44.6	19.4	6.03e-01	0	59	0	338165760	54	5165
2026-01-16 01:28:02.76	14.37	31.17	-41.7	-44.6	19.4	6.04e-01	0	59	0	339738624	54	5174
2026-01-16 01:28:03.77	14.35	31.40	-41.6	-44.4	19.5	6.01e-01	0	59	0	341835776	54	5093
2026-01-16 01:28:04.78	14.33	31.63	-41.6	-44.4	19.6	6.04e-01	0	59	0	343408640	54	5063
2026-01-16 01:28:05.79	14.32	31.87	-41.6	-44.4	19.6	6.03e-01	0	59	0	345505792	54	5066
2026-01-16 01:28:06.80	14.30	32.11	-41.7	-44.6	19.4	6.01e-01	0	59	0	347602944	54	5184
2026-01-16 01:28:07.81	14.28	32.35	-41.9	-44.8	19.2	6.01e-01	0	59	0	349175808	54	5305
2026-01-16 01:28:08.82	14.26	32.59	-41.9	-44.9	19.1	6.04e-01	0	59	0	351272960	54	5376
2026-01-16 01:28:09.83	14.23	32.84	-41.9	-44.9	19.2	6.04e-01	0	59	0	353370112	54	5360
2026-01-16 01:28:10.84	14.21	33.09	-41.9	-44.9	19.1	6.02e-01	0	59	0	354942976	54	5362
2026-01-16 01:28:11.84	14.19	33.33	-42.0	-44.9	19.1	6.02e-01	0	59	0	357040128	54	5392
2026-01-16 01:28:12.85	14.17	33.59	-42.0	-45.0	19.1	6.02e-01	0	59	0	358612992	54	5407
2026-01-16 01:28:13.86	14.15	33.84	-42.0	-45.0	19.1	6.04e-01	0	59	0	360710144	54	5406
2026-01-16 01:28:14.87	14.13	34.10	-41.9	-44.9	19.1	6.03e-01	0	59	0	362283008	54	5386
2026-01-16 01:28:15.88	14.10	34.36	-42.1	-45.1	18.9	6.02e-01	0	59	0	364380160	54	5510
2026-01-16 01:28:16.89	14.08	34.62	-42.2	-45.3	18.7	6.02e-01	0	59	0	366477312	54	5625
2026-01-16 01:28:17.90	14.06	34.88	-42.3	-45.4	18.6	6.02e-01	0	59	0	368050176	55	5389
2026-01-16 01:28:18.91	14.03	35.15	-42.3	-45.5	18.5	6.03e-01	0	59	0	370147328	55	5449
2026-01-16 01:28:19.92	14.01	35.41	-42.4	-45.6	18.4	6.03e-01	0	59	0	371720192	55	5506
2026-01-16 01:28:20.93	13.98	35.68	-42.5	-45.9	18.2	6.04e-01	0	59	0	373817344	55	5668
2026-01-16 01:28:21.94	13.95	35.96	-42.9	-46.3	17.9	6.02e-01	0	59	0	375914496	56	5645
2026-01-16 01:28:22.95	13.93	36.23	-43.1	-46.7	17.4	6.04e-01	0	59	0	377487360	56	5919
2026-01-16 01:28:23.96	13.90	36.51	-43.1	-46.9	17.3	6.04e-01	0	59	0	379584512	56	5998
2026-01-16 01:28:24.97	13.87	36.79	-43.2	-46.9	17.3	6.02e-01	0	59	0	381681664	56	6014
2026-01-16 01:28:25.98	13.85	37.07	-43.2	-47.0	17.2	6.03e-01	0	59	0	383254528	57	5750
2026-01-16 01:28:26.99	13.82	37.36	-43.2	-46.9	17.2	6.02e-01	0	59	0	385351680	57	5718
2026-01-16 01:28:27.99	13.79	37.64	-43.2	-47.0	17.2	6.01e-01	0	59	0	386924544	57	5733
2026-01-16 01:28:29.00	13.76	37.94	-43.3	-47.1	17.1	6.03e-01	0	59	0	389021696	57	5811
2026-01-16 01:28:30.01	13.73	38.23	-43.3	-47.2	17.0	6.01e-01	0	59	0	391118848	57	5881
2026-01-16 01:28:31.02	13.70	38.53	-43.5	-47.5	16.7	6.03e-01	0	59	0	392691712	57	6069
2026-01-16 01:28:32.03	13.67	38.82	-43.6	-47.7	16.5	6.04e-01	0	59	0	394788864	57	6236
2026-01-16 01:28:33.04	13.63	39.13	-43.7	-47.9	16.3	6.03e-01	0	59	0	396886016	57	6353
2026-01-16 01:28:34.05	13.60	39.43	-43.5	-47.6	16.6	6.03e-01	0	59	0	398458880	57	6153
2026-01-16 01:28:35.06	13.57	39.74	-43.4	-47.3	16.9	6.02e-01	0	59	0	400556032	57	5945
2026-01-16 01:28:36.07	13.53	40.05	-43.2	-47.0	17.2	6.02e-01	0	59	0	402128896	57	5730
2026-01-16 01:28:37.08	13.50	40.36	-43.2	-46.9	17.4	6.02e-01	0	59	0	404226048	57	5662
2026-01-16 01:28:38.09	13.46	40.68	-43.1	-46.7	17.5	6.02e-01	0	59	0	406323200	57	5556
2026-01-16 01:28:39.10	13.42	41.00	-43.1	-46.7	17.5	6.02e-01	0	59	0	407896064	57	5589
2026-01-16 01:28:40.11	13.39	41.32	-43.1	-46.7	17.5	6.03e-01	0	59	0	409993216	57	5560
2026-01-16 01:28:41.12	13.35	41.65	-42.9	-46.3	17.9	6.01e-01	0	59	0	411566080	57	5305
2026-01-16 01:28:42.13	13.31	41.97	-42.7	-46.1	18.1	6.03e-01	0	59	0	413663232	57	5188
2026-01-16 01:28:43.14	13.27	42.30	-42.7	-46.0	18.3	6.03e-01	0	59	0	415760384	57	5107
2026-01-16 01:28:44.15	13.23	42.64	-42.7	-46.0	18.2	6.03e-01	0	59	0	417333248	57	5148
2026-01-16 01:28:45.16	13.18	42.98	-42.7	-46.0	18.3	6.04e-01	0	59	0	419430400	57	5110
2026-01-16 01:28:46.17	13.14	43.32	-42.6	-45.8	18.4	6.04e-01	0	59	0	421003264	57	5003
2026-01-16 01:28:47.18	13.10	43.66	-42.5	-45.6	18.6	6.04e-01	0	59	0	423100416	56	5204
2026-01-16 01:28:48.19	13.05	44.01	-42.4	-45.5	18.7	6.04e-01	0	59	0	425197568	56	5132
2026-01-16 01:28:49.20	13.00	44.36	-42.3	-45.4	18.8	6.03e-01	0	59	0	426770432	56	5053
2026-01-16 01:28:50.21	12.96	44.71	-42.3	-45.4	18.8	6.02e-01	0	59	0	428867584	56	5080
2026-01-16 01:28:51.22	12.91	45.07	-42.4	-45.5	18.8	6.02e-01	0	59	0	430440448	56	5119
2026-01-16 01:28:52.23	12.86	45.43	-42.3	-45.3	19.0	6.05e-01	0	59	0	432537600	56	5002
2026-01-16 01:28:53.24	12.81	45.80	-42.3	-45.4	18.9	6.02e-01	0	59	0	434634752	56	5051
2026-01-16 01:28:54.25	12.75	46.16	-42.3	-45.4	18.8	6.02e-01	0	59	0	436207616	56	5084
2026-01-16 01:28:55.26	12.70	46.54	-42.2	-45.2	19.1	6.03e-01	0	59	0	438304768	56	4941
2026-01-16 01:28:56.28	12.64	46.91	-42.0	-44.9	19.4	6.03e-01	0	59	0	440401920	56	4780
2026-01-16 01:28:57.29	12.59	47.29	-42.3	-45.3	19.0	6.03e-01	0	59	0	441974784	56	5018
2026-01-16 01:28:58.30	12.53	47.67	-42.2	-45.2	19.0	6.02e-01	0	59	0	444071936	56	4981
2026-01-16 01:28:59.31	12.47	48.06	-42.2	-45.1	19.2	6.04e-01	0	59	0	445644800	56	4903
2026-01-16 01:29:00.32	12.41	48.45	-42.2	-45.2	19.0	6.02e-01	0	59	0	447741952	56	4965
2026-01-16 01:29:01.33	12.34	48.84	-42.3	-45.3	19.0	6.05e-01	0	59	0	449839104	56	5000
2026-01-16 01:29:02.34	12.28	49.24	-42.4	-45.4	18.8	6.04e-01	0	59	0	451411968	56	5092
2026-01-16 01:29:03.34	12.21	49.63	-42.3	-45.3	19.1	6.02e-01	0	59	0	453509120	56	4988
2026-01-16 01:29:04.35	12.15	50.04	-42.1	-45.0	19.3	6.03e-01	0	59	0	455081984	56	4815
2026-01-16 01:29:05.36	12.07	50.44	-42.1	-45.0	19.3	6.03e-01	0	59	0	457179136	56	4845
2026-01-16 01:29:06.37	12.00	50.85	-42.3	-45.3	18.9	6.03e-01	0	59	0	459276288	56	5041
2026-01-16 01:29:07.38	11.93	51.27	-41.8	-44.6	19.6	6.03e-01	0	59	0	460849152	55	4879
2026-01-16 01:29:08.39	11.85	51.69	-41.8	-44.6	19.7	6.04e-01	0	59	0	462946304	55	4873
2026-01-16 01:29:09.40	11.77	52.11	-41.6	-44.4	19.8	6.04e-01	0	59	0	465043456	55	4760
2026-01-16 01:29:10.41	11.69	52.54	-41.7	-44.5	19.8	6.02e-01	0	59	0	466616320	55	4817
2026-01-16 01:29:11.42	11.60	52.97	-41.9	-44.7	19.5	6.03e-01	0	59	0	468713472	55	4952
2026-01-16 01:29:12.43	11.52	53.40	-41.6	-44.3	19.9	6.02e-01	0	59	0	470286336	55	4737
2026-01-16 01:29:13.44	11.43	53.84	-41.5	-44.1	20.1	6.03e-01	0	59	0	472383488	54	4898
2026-01-16 01:29:14.45	11.34	54.28	-41.6	-44.3	19.9	6.02e-01	0	59	0	474480640	54	5011
2026-01-16 01:29:15.46	11.24	54.72	-41.8	-44.6	19.6	6.02e-01	0	59	0	476053504	54	5183
2026-01-16 01:29:16.47	11.14	55.17	-41.7	-44.5	19.7	6.02e-01	0	59	0	478150656	54	5125
2026-01-16 01:29:17.47	11.04	55.62	-41.6	-44.2	20.0	6.06e-01	0	59	0	479723520	54	4972
2026-01-16 01:29:18.48	10.93	56.08	-42.1	-45.0	19.2	6.03e-01	0	59	0	481820672	54	5450
2026-01-16 01:29:19.49	10.82	56.54	-41.9	-44.8	19.4	6.03e-01	0	59	0	483917824	54	5312
2026-01-16 01:29:20.51	10.71	57.01	-42.2	-45.3	19.0	6.05e-01	0	59	0	485490688	54	5594
2026-01-16 01:29:21.52	10.59	57.48	-42.2	-45.2	19.0	6.04e-01	0	59	0	487587840	55	5230
2026-01-16 01:29:22.53	10.47	57.95	-42.4	-45.6	18.7	6.04e-01	0	59	0	489684992	55	5479
2026-01-16 01:29:23.54	10.34	58.43	-42.6	-45.8	18.4	6.01e-01	0	59	0	491257856	55	5649
2026-01-16 01:29:24.55	10.21	58.91	-42.6	-45.8	18.4	6.02e-01	0	59	0	493355008	55	5631
2026-01-16 01:29:25.55	10.08	59.39	-42.6	-45.9	18.3	6.04e-01	0	59	0	494927872	55	5695
2026-01-16 01:29:26.57	9.94	59.88	-42.7	-46.1	18.1	6.03e-01	0	59	0	497025024	55	5804
2026-01-16 01:29:27.57	9.79	60.37	-43.0	-46.4	17.9	6.02e-01	0	59	0	499122176	56	5715
2026-01-16 01:29:28.58	9.64	60.87	-43.0	-46.5	17.8	6.05e-01	0	59	0	500695040	56	5754
2026-01-16 01:29:29.59	9.48	61.36	-43.0	-46.5	17.8	6.05e-01	0	59	0	502792192	56	5785
2026-01-16 01:29:30.60	9.31	61.87	-43.3	-47.1	17.2	6.03e-01	0	59	0	504365056	57	5807
2026-01-16 01:29:31.61	9.14	62.38	-43.3	-47.0	17.3	6.03e-01	0	59	0	506462208	57	5772
2026-01-16 01:29:32.62	8.96	62.89	-43.5	-47.4	17.0	6.04e-01	0	59	0	508559360	57	6037
2026-01-16 01:29:33.63	8.77	63.40	-43.7	-47.7	16.6	6.02e-01	0	59	0	510132224	57	6274
2026-01-16 01:29:34.64	8.57	63.92	-43.8	-48.0	16.3	6.04e-01	0	59	0	512229376	58	6103
2026-01-16 01:29:35.65	8.36	64.44	-44.0	-48.4	15.9	6.02e-01	0	59	0	513802240	58	6402
2026-01-16 01:29:36.66	8.15	64.97	-44.1	-48.5	15.8	6.02e-01	0	59	0	515899392	58	6487
2026-01-16 01:29:37.67	7.92	65.49	-44.3	-49.1	15.2	6.02e-01	0	59	0	517996544	59	6555
2026-01-16 01:29:38.68	7.68	66.03	-44.4	-49.2	15.0	6.06e-01	0	59	0	519569408	59	6622
2026-01-16 01:29:39.69	7.43	66.56	-44.3	-49.2	15.1	6.03e-01	0	59	0	521666560	59	6608
2026-01-16 01:29:40.70	7.17	67.10	-44.7	-50.0	14.2	6.04e-01	0	59	0	523239424	59	7281
2026-01-16 01:29:41.71	6.89	67.64	-44.4	-49.7	14.1	6.04e-01	0	59	0	525336576	60	6625
2026-01-16 01:29:42.71	6.60	68.18	-44.4	-49.6	14.3	6.03e-01	0	59	0	527433728	60	6537
2026-01-16 01:29:43.72	6.29	68.73	-44.5	-50.2	13.7	6.05e-01	0	59	0	529006592	60	6977
2026-01-16 01:29:44.73	5.96	69.28	-44.7	-50.6	13.3	6.06e-01	0	59	0	531103744	60	7303
2026-01-16 01:29:45.74	5.61	69.83	-44.4	-49.7	14.1	6.04e-01	0	59	0	533200896	60	6637
2026-01-16 01:29:46.75	5.24	70.39	-44.5	-50.0	13.9	6.04e-01	0	59	0	534773760	60	6868
2026-01-16 01:29:47.76	4.85	70.95	-44.5	-50.1	13.8	6.04e-01	0	59	0	536870912	60	6887
2026-01-16 01:29:48.77	4.43	71.51	-44.3	-49.5	14.4	6.05e-01	0	59	0	538443776	60	6426
2026-01-16 01:29:49.78	3.98	72.07	-44.2	-49.1	14.8	6.06e-01	0	59	0	540540928	60	6192
2026-01-16 01:29:50.79	3.50	72.63	-44.2	-49.2	14.6	6.04e-01	0	59	0	542638080	60	6265
2026-01-16 01:29:51.80	2.99	73.20	-44.1	-48.9	15.0	6.06e-01	0	59	0	544210944	60	6024
2026-01-16 01:29:52.81	2.44	73.77	-44.2	-48.9	15.4	6.03e-01	0	59	0	546308096	59	6388
2026-01-16 01:29:53.82	1.85	74.34	-44.5	-49.6	14.6	6.05e-01	0	59	0	547880960	59	6928
2026-01-16 01:29:54.83	1.21	74.91	-44.0	-48.6	15.7	6.05e-01	0	59	0	549978112	59	6143
2026-01-16 01:29:55.84	0.52	75.48	-44.0	-48.6	15.7	6.01e-01	0	59	0	552075264	59	6132
2026-01-16 01:29:56.85	359.77	76.05	-44.3	-49.1	15.2	6.04e-01	0	59	0	553648128	59	6518
2026-01-16 01:29:57.86	358.95	76.62	-43.9	-48.3	15.9	6.04e-01	0	59	0	555745280	59	5981
2026-01-16 01:29:58.87	358.06	77.19	-44.0	-48.4	15.8	6.04e-01	0	59	0	557318144	59	6059
2026-01-16 01:29:59.88	357.08	77.76	-44.0	-48.5	15.7	6.03e-01	0	59	0	559415296	59	6092
2026-01-16 01:30:00.89	356.01	78.33	-43.8	-48.0	16.2	6.02e-01	0	59	0	561512448	59	5772
2026-01-16 01:30:01.90	354.82	78.89	-43.6	-47.7	16.5	6.03e-01	0	60	0	563085312	59	5583
2026-01-16 01:30:02.91	353.50	79.45	-43.5	-47.5	16.7	6.05e-01	0	60	0	565182464	58	5779
2026-01-16 01:30:03.92	352.03	80.01	-43.0	-46.5	17.7	6.02e-01	0	60	0	566755328	58	5153
2026-01-16 01:30:04.93	350.38	80.56	-42.9	-46.3	17.9	6.03e-01	0	59	0	568852480	57	5292
2026-01-16 01:30:05.94	348.52	81.10	-43.1	-46.7	17.7	6.01e-01	0	60	0	570949632	57	5538
2026-01-16 01:30:06.94	346.45	81.63	-42.7	-46.1	18.1	6.03e-01	0	60	0	572522496	57	5166
2026-01-16 01:30:07.95	344.07	82.16	-42.7	-46.0	18.2	6.02e-01	0	59	0	574619648	57	5141
2026-01-16 01:30:08.96	341.34	82.67	-42.9	-46.4	17.9	6.02e-01	0	59	0	576192512	57	5362
2026-01-16 01:30:09.97	338.21	83.16	-43.0	-46.5	17.7	6.02e-01	0	60	0	578289664	57	5424
2026-01-16 01:30:10.98	334.61	83.63	-42.7	-46.0	18.2	6.01e-01	0	59	0	580386816	57	5129
2026-01-16 01:30:11.99	330.45	84.07	-43.0	-46.5	17.7	6.03e-01	0	59	0	581959680	57	5447
2026-01-16 01:30:13.00	325.64	84.48	-42.7	-46.1	18.1	6.03e-01	0	60	0	584056832	57	5175
2026-01-16 01:30:14.01	320.11	84.84	-42.6	-45.9	18.3	6.02e-01	0	59	0	586153984	57	5044
2026-01-16 01:30:15.02	313.82	85.14	-42.6	-45.9	18.2	6.03e-01	0	59	0	587726848	57	5081
2026-01-16 01:30:16.03	306.77	85.38	-42.6	-45.9	18.3	6.03e-01	0	60	0	589824000	57	5064
2026-01-16 01:30:17.04	299.07	85.55	-42.2	-45.1	19.1	6.02e-01	0	59	0	591396864	56	4924
2026-01-16 01:30:18.05	290.93	85.63	-42.3	-45.4	18.9	6.04e-01	0	59	0	593494016	56	5054
2026-01-16 01:30:19.06	282.67	85.62	-42.4	-45.5	18.7	6.04e-01	0	59	0	595591168	56	5135
2026-01-16 01:30:20.07	274.62	85.52	-41.9	-44.7	19.4	6.03e-01	0	60	0	597164032	55	4954
2026-01-16 01:30:21.08	267.06	85.33	-42.5	-45.8	18.4	6.04e-01	0	59	0	599261184	55	5604
2026-01-16 01:30:22.09	260.18	85.07	-42.6	-45.9	18.1	6.03e-01	0	59	0	601358336	55	5717
2026-01-16 01:30:23.10	254.07	84.75	-42.3	-45.5	18.6	6.02e-01	0	59	0	602931200	55	5437
2026-01-16 01:30:24.11	248.72	84.38	-43.0	-46.5	17.7	6.04e-01	0	60	0	605028352	56	5771
2026-01-16 01:30:25.12	244.07	83.97	-42.9	-46.3	17.8	6.03e-01	0	59	0	606601216	57	5327
2026-01-16 01:30:26.13	240.05	83.52	-42.6	-45.9	18.3	6.03e-01	0	60	0	608698368	57	5078
2026-01-16 01:30:27.14	236.57	83.04	-43.1	-46.7	17.5	6.03e-01	0	59	0	610795520	57	5580
2026-01-16 01:30:28.15	233.54	82.55	-42.6	-45.9	18.3	6.02e-01	0	59	0	612368384	57	5089
2026-01-16 01:30:29.16	230.90	82.03	-42.6	-45.9	18.3	6.02e-01	0	60	0	614465536	56	5352
2026-01-16 01:30:30.17	228.59	81.50	-42.6	-45.8	18.4	6.03e-01	0	59	0	616038400	56	5325
2026-01-16 01:30:31.18	226.56	80.97	-42.5	-45.7	18.5	6.02e-01	0	59	0	618135552	56	5251
2026-01-16 01:30:32.19	224.76	80.42	-42.7	-46.1	18.1	6.02e-01	0	59	0	620232704	56	5507
2026-01-16 01:30:33.20	223.16	79.87	-42.8	-46.1	18.1	6.01e-01	0	59	0	621805568	56	5515
2026-01-16 01:30:34.21	221.73	79.31	-43.2	-46.9	17.4	6.03e-01	0	59	0	623902720	56	6002
2026-01-16 01:30:35.22	220.44	78.74	-43.4	-47.4	16.7	6.04e-01	0	59	0	625475584	57	6009
2026-01-16 01:30:36.23	219.28	78.18	-43.6	-47.7	16.6	6.02e-01	0	59	0	627572736	57	6208
2026-01-16 01:30:37.23	218.24	77.62	-43.9	-48.2	15.9	6.04e-01	0	60	0	629669888	58	6258
2026-01-16 01:30:38.24	217.28	77.04	-44.3	-49.4	14.8	6.03e-01	0	60	0	631242752	59	6727
2026-01-16 01:30:39.25	216.41	76.47	-44.1	-48.7	15.4	6.01e-01	0	60	0	633339904	59	6255
2026-01-16 01:30:40.26	215.61	75.90	-44.2	-48.9	15.3	6.04e-01	0	59	0	634912768	59	6380
2026-01-16 01:30:41.27	214.87	75.33	-44.5	-49.8	14.4	6.03e-01	0	60	0	637009920	59	7116
2026-01-16 01:30:42.28	214.19	74.76	-44.5	-49.8	14.3	6.05e-01	0	59	0	639107072	59	7100
2026-01-16 01:30:43.30	213.56	74.18	-44.1	-48.6	15.6	6.04e-01	0	59	0	640679936	59	6191
2026-01-16 01:30:44.31	212.98	73.61	-44.3	-49.2	15.0	6.04e-01	0	59	0	642777088	59	6629
2026-01-16 01:30:45.32	212.44	73.04	-44.6	-50.1	14.1	6.05e-01	0	60	0	644349952	59	7331
2026-01-16 01:30:46.33	211.94	72.48	-43.9	-48.3	15.8	6.04e-01	0	59	0	646447104	59	5976
2026-01-16 01:30:47.34	211.47	71.91	-44.2	-49.1	15.2	6.03e-01	0	59	0	648544256	59	6507
2026-01-16 01:30:48.35	211.03	71.35	-44.4	-49.4	14.9	6.02e-01	0	60	0	650117120	59	6759
2026-01-16 01:30:49.36	210.62	70.79	-44.7	-50.2	14.0	6.05e-01	0	60	0	652214272	59	7443
2026-01-16 01:30:50.37	210.23	70.23	-44.5	-49.7	14.5	6.02e-01	0	60	0	654311424	59	6966
2026-01-16 01:30:51.38	209.87	69.67	-44.7	-50.3	13.9	6.03e-01	0	60	0	655884288	59	7491
2026-01-16 01:30:52.39	209.52	69.12	-44.8	-51.0	12.8	6.07e-01	0	60	0	657981440	60	7671
2026-01-16 01:30:53.40	209.20	68.57	-44.5	-50.1	13.7	6.04e-01	0	60	0	659554304	60	6912
2026-01-16 01:30:54.41	208.89	68.02	-44.4	-50.0	13.8	6.06e-01	0	60	0	661651456	60	6821
2026-01-16 01:30:55.42	208.60	67.48	-44.5	-50.2	13.6	6.05e-01	0	60	0	663748608	60	7012
2026-01-16 01:30:56.42	208.33	66.94	-44.5	-50.2	13.6	6.06e-01	0	60	0	665321472	60	7030
2026-01-16 01:30:57.43	208.07	66.40	-44.3	-49.5	14.3	6.04e-01	0	60	0	667418624	60	6422
2026-01-16 01:30:58.44	207.82	65.86	-44.2	-49.2	14.7	6.02e-01	0	59	0	668991488	60	6257
2026-01-16 01:30:59.45	207.59	65.33	-44.3	-49.7	14.0	6.06e-01	0	60	0	671088640	60	6634
2026-01-16 01:31:00.46	207.36	64.80	-44.1	-49.0	14.8	6.03e-01	0	60	0	673185792	60	6106
2026-01-16 01:31:01.47	207.15	64.28	-44.0	-48.5	15.6	6.05e-01	0	60	0	674758656	59	6113
2026-01-16 01:31:02.48	206.94	63.76	-43.9	-48.2	16.0	6.03e-01	0	60	0	676855808	59	5893
2026-01-16 01:31:03.49	206.75	63.24	-44.1	-48.6	15.5	6.03e-01	0	59	0	678952960	59	6160
2026-01-16 01:31:04.50	206.56	62.72	-44.0	-48.6	15.7	6.03e-01	0	59	0	680525824	59	6134
2026-01-16 01:31:05.51	206.38	62.21	-43.7	-47.9	16.3	6.04e-01	0	60	0	682622976	59	5690
2026-01-16 01:31:06.52	206.21	61.70	-43.3	-47.0	17.2	6.03e-01	0	60	0	684195840	58	5449
2026-01-16 01:31:07.53	206.04	61.20	-43.1	-46.8	17.5	6.02e-01	0	60	0	686292992	58	5284
2026-01-16 01:31:08.54	205.89	60.70	-43.3	-47.0	17.3	6.02e-01	0	60	0	688390144	58	5409
2026-01-16 01:31:09.55	205.73	60.20	-43.1	-46.6	17.7	6.04e-01	0	60	0	689963008	58	5185
2026-01-16 01:31:10.56	205.59	59.71	-42.9	-46.4	17.8	6.03e-01	0	60	0	692060160	57	5372
2026-01-16 01:31:11.57	205.45	59.22	-42.8	-46.2	18.0	6.03e-01	0	60	0	693633024	57	5259
2026-01-16 01:31:12.58	205.31	58.74	-42.7	-46.0	18.2	6.04e-01	0	60	0	695730176	57	5124
2026-01-16 01:31:13.59	205.18	58.26	-42.7	-45.9	18.4	6.04e-01	0	60	0	697827328	57	5075
2026-01-16 01:31:14.60	205.06	57.78	-42.6	-45.8	18.4	6.01e-01	0	60	0	699400192	57	5027
2026-01-16 01:31:15.60	204.94	57.31	-42.4	-45.5	18.7	6.03e-01	0	60	0	701497344	56	5153
2026-01-16 01:31:16.61	204.82	56.84	-42.1	-45.0	19.2	6.02e-01	0	60	0	703070208	56	4827
2026-01-16 01:31:17.62	204.71	56.38	-42.1	-45.0	19.3	6.04e-01	0	60	0	705167360	56	4822
2026-01-16 01:31:18.63	204.60	55.91	-41.7	-44.4	19.7	6.04e-01	0	60	0	707264512	55	4801
2026-01-16 01:31:19.64	204.49	55.46	-41.5	-44.2	19.9	6.03e-01	0	60	0	708837376	55	4693
2026-01-16 01:31:20.65	204.39	55.00	-41.5	-44.1	20.0	6.04e-01	0	59	0	710934528	54	4916
2026-01-16 01:31:21.66	204.29	54.55	-41.5	-44.2	19.9	6.04e-01	0	60	0	712507392	54	4963
2026-01-16 01:31:22.67	204.20	54.11	-41.4	-44.0	20.1	6.03e-01	0	60	0	714604544	54	4849
2026-01-16 01:31:23.68	204.11	53.66	-41.3	-43.9	20.2	6.04e-01	0	60	0	716701696	54	4797
2026-01-16 01:31:24.69	204.02	53.23	-41.3	-43.9	20.3	6.03e-01	0	59	0	718274560	54	4780
2026-01-16 01:31:25.70	203.93	52.79	-41.5	-44.1	20.0	6.04e-01	0	60	0	720371712	54	4917
2026-01-16 01:31:26.71	203.85	52.36	-41.7	-44.5	19.7	6.02e-01	0	60	0	722468864	54	5110
2026-01-16 01:31:27.72	203.77	51.94	-41.8	-44.6	19.5	6.03e-01	0	60	0	724041728	54	5217
2026-01-16 01:31:28.73	203.69	51.51	-41.9	-44.7	19.4	6.04e-01	0	60	0	726138880	54	5248
2026-01-16 01:31:29.74	203.61	51.09	-41.7	-44.5	19.6	6.02e-01	0	60	0	727711744	54	5143
2026-01-16 01:31:30.75	203.54	50.68	-41.8	-44.6	19.5	6.03e-01	0	59	0	729808896	54	5192
2026-01-16 01:31:31.76	203.46	50.27	-42.1	-45.0	19.1	6.01e-01	0	60	0	731906048	54	5462
2026-01-16 01:31:32.76	203.39	49.86	-42.3	-45.4	18.8	6.03e-01	0	60	0	733478912	55	5370
2026-01-16 01:31:33.77	203.33	49.46	-42.3	-45.4	18.7	6.02e-01	0	60	0	735576064	55	5392
2026-01-16 01:31:34.78	203.26	49.06	-42.2	-45.3	18.8	6.03e-01	0	60	0	737148928	55	5310
2026-01-16 01:31:35.79	203.19	48.66	-42.2	-45.2	18.9	6.02e-01	0	60	0	739246080	55	5241
2026-01-16 01:31:36.81	203.13	48.27	-42.1	-45.1	19.0	6.06e-01	0	60	0	741343232	55	5171
2026-01-16 01:31:37.82	203.07	47.88	-42.2	-45.2	18.9	6.01e-01	0	60	0	742916096	55	5254
2026-01-16 01:31:38.82	203.01	47.50	-42.1	-45.1	19.0	6.03e-01	0	60	0	745013248	55	5196
2026-01-16 01:31:39.83	202.95	47.11	-42.2	-45.2	18.9	6.02e-01	0	60	0	747110400	55	5272
2026-01-16 01:31:40.84	202.90	46.73	-42.2	-45.3	18.8	6.03e-01	0	59	0	748683264	55	5330
2026-01-16 01:31:41.85	202.84	46.36	-42.3	-45.4	18.7	6.02e-01	0	60	0	750780416	55	5350
2026-01-16 01:31:42.86	202.79	45.99	-42.3	-45.4	18.8	6.03e-01	0	60	0	752353280	55	5348
2026-01-16 01:31:43.87	202.73	45.62	-42.1	-45.1	19.0	6.04e-01	0	60	0	754450432	55	5167
2026-01-16 01:31:44.88	202.68	45.26	-42.0	-44.9	19.2	6.03e-01	0	59	0	756547584	55	5089
2026-01-16 01:31:45.89	202.63	44.89	-41.9	-44.8	19.2	6.03e-01	0	59	0	758120448	55	5026
2026-01-16 01:31:46.90	202.58	44.54	-42.0	-45.0	19.1	6.01e-01	0	60	0	760217600	55	5101
2026-01-16 01:31:47.91	202.54	44.18	-41.9	-44.8	19.2	6.04e-01	0	60	0	761790464	55	5039
2026-01-16 01:31:48.92	202.49	43.83	-42.0	-45.0	19.1	6.06e-01	0	59	0	763887616	55	5118
2026-01-16 01:31:49.93	202.45	43.48	-42.4	-45.6	18.6	6.06e-01	0	60	0	765984768	55	5477
2026-01-16 01:31:50.94	202.40	43.14	-42.6	-45.9	18.2	6.04e-01	0	60	0	767557632	55	5679
2026-01-16 01:31:51.95	202.36	42.80	-42.5	-45.8	18.2	6.03e-01	0	60	0	769654784	55	5647
2026-01-16 01:31:52.96	202.32	42.46	-42.4	-45.6	18.5	6.04e-01	0	60	0	771227648	55	5507
2026-01-16 01:31:53.97	202.27	42.13	-42.4	-45.6	18.5	6.03e-01	0	60	0	773324800	55	5470
2026-01-16 01:31:54.98	202.23	41.79	-42.4	-45.6	18.5	6.03e-01	0	60	0	775421952	55	5480
2026-01-16 01:31:55.99	202.19	41.46	-42.5	-45.7	18.3	6.03e-01	0	59	0	776994816	55	5587
2026-01-16 01:31:57.00	202.16	41.14	-42.7	-46.0	18.0	6.03e-01	0	60	0	779091968	55	5788
2026-01-16 01:31:58.01	202.12	40.82	-43.0	-46.5	17.7	6.02e-01	0	60	0	780664832	56	5765
2026-01-16 01:31:59.02	202.08	40.50	-43.1	-46.8	17.4	6.02e-01	0	60	0	782761984	56	5958
2026-01-16 01:32:00.03	202.04	40.18	-43.1	-46.9	17.3	6.02e-01	0	60	0	784859136	56	5998
2026-01-16 01:32:01.03	202.01	39.87	-43.2	-46.9	17.3	6.02e-01	0	60	0	786432000	56	6026
2026-01-16 01:32:02.04	201.97	39.56	-43.1	-46.8	17.3	6.04e-01	0	59	0	788529152	56	5968
2026-01-16 01:32:03.06	201.94	39.25	-43.1	-46.7	17.4	6.04e-01	0	60	0	790626304	56	5891
2026-01-16 01:32:04.07	201.91	38.94	-43.1	-46.7	17.5	6.01e-01	0	60	0	792199168	56	5883
2026-01-16 01:32:05.08	201.87	38.64	-43.1	-46.8	17.3	6.04e-01	0	59	0	794296320	56	5965
2026-01-16 01:32:06.08	201.84	38.34	-43.1	-46.7	17.4	6.02e-01	0	59	0	795869184	56	5923
2026-01-16 01:32:07.10	201.81	38.05	-43.3	-47.2	17.0	6.03e-01	0	60	0	797966336	57	5862
2026-01-16 01:32:08.11	201.78	37.75	-43.4	-47.4	16.6	6.04e-01	0	60	0	800063488	57	6022
2026-01-16 01:32:09.12	201.75	37.46	-43.4	-47.4	16.6	6.05e-01	0	60	0	801636352	57	6039
2026-01-16 01:32:10.13	201.72	37.17	-43.3	-47.2	16.9	6.05e-01	0	60	0	803733504	57	5923
2026-01-16 01:32:11.14	201.69	36.89	-43.1	-46.7	17.4	6.06e-01	0	60	0	805306368	57	5567
2026-01-16 01:32:12.15	201.66	36.60	-42.9	-46.5	17.6	6.04e-01	0	60	0	807403520	57	5422
2026-01-16 01:32:13.15	201.64	36.32	-42.8	-46.3	17.8	6.04e-01	0	60	0	809500672	57	5308
2026-01-16 01:32:14.16	201.61	36.05	-42.7	-46.1	18.0	6.05e-01	0	60	0	811073536	57	5192
2026-01-16 01:32:15.17	201.58	35.77	-42.5	-45.8	18.3	6.02e-01	0	60	0	813170688	57	5005
2026-01-16 01:32:16.18	201.56	35.50	-42.4	-45.6	18.5	6.04e-01	0	60	0	815267840	56	5205
2026-01-16 01:32:17.19	201.53	35.23	-42.3	-45.3	18.8	6.03e-01	0	60	0	816840704	56	5022
2026-01-16 01:32:18.20	201.51	34.96	-42.2	-45.2	18.9	6.02e-01	0	60	0	818937856	56	4978
2026-01-16 01:32:19.21	201.48	34.69	-42.2	-45.2	18.9	6.04e-01	0	60	0	820510720	56	4944
2026-01-16 01:32:20.22	201.46	34.43	-42.2	-45.2	18.9	6.03e-01	0	59	0	822607872	56	4961
2026-01-16 01:32:21.23	201.43	34.17	-42.1	-45.2	18.9	6.04e-01	0	59	0	824705024	56	4935
2026-01-16 01:32:22.24	201.41	33.91	-42.1	-45.0	19.1	6.03e-01	0	59	0	826277888	56	4869
2026-01-16 01:32:23.25	201.39	33.65	-42.0	-44.9	19.2	6.04e-01	0	60	0	828375040	56	4786
2026-01-16 01:32:24.26	201.36	33.40	-41.8	-44.7	19.3	6.03e-01	0	60	0	829947904	55	4969
2026-01-16 01:32:25.27	201.34	33.15	-41.7	-44.6	19.4	6.02e-01	0	60	0	832045056	55	4901
2026-01-16 01:32:26.28	201.32	32.90	-41.7	-44.5	19.4	6.02e-01	0	60	0	834142208	55	4856
2026-01-16 01:32:27.29	201.30	32.65	-41.6	-44.4	19.6	6.03e-01	0	60	0	835715072	55	4781
2026-01-16 01:32:28.30	201.28	32.40	-41.5	-44.3	19.7	6.04e-01	0	60	0	837812224	55	4711
2026-01-16 01:32:29.31	201.26	32.16	-41.5	-44.2	19.7	6.03e-01	0	60	0	839385088	55	4699
2026-01-16 01:32:30.32	201.24	31.92	-41.4	-44.1	19.9	6.03e-01	0	60	0	841482240	54	4888
2026-01-16 01:32:31.33	201.22	31.68	-41.3	-44.0	20.0	6.03e-01	0	60	0	843579392	54	4817
2026-01-16 01:32:32.34	201.20	31.44	-41.3	-43.9	20.0	6.04e-01	0	60	0	845152256	54	4797
2026-01-16 01:32:33.35	201.18	31.21	-41.3	-43.9	20.1	6.03e-01	0	60	0	847249408	54	4777
2026-01-16 01:32:34.36	201.16	30.97	-41.3	-43.9	20.0	6.04e-01	0	60	0	848822272	54	4806
2026-01-16 01:32:35.37	201.14	30.74	-41.3	-44.0	20.0	6.04e-01	0	60	0	850919424	54	4827
2026-01-16 01:32:36.39	201.12	30.51	-41.3	-43.9	20.0	6.02e-01	0	60	0	853016576	54	4814
2026-01-16 01:32:37.39	201.10	30.28	-41.2	-43.9	20.0	6.02e-01	0	60	0	854589440	54	4776
2026-01-16 01:32:38.40	201.09	30.06	-41.2	-43.8	20.1	6.03e-01	0	60	0	856686592	54	4749
2026-01-16 01:32:39.41	201.07	29.84	-41.2	-43.8	20.1	6.03e-01	0	60	0	858783744	54	4755
2026-01-16 01:32:40.42	201.05	29.61	-41.2	-43.9	20.1	6.05e-01	0	60	0	860356608	54	4763
2026-01-16 01:32:41.43	201.04	29.39	-41.3	-43.9	20.0	6.03e-01	0	60	0	862453760	54	4809
2026-01-16 01:32:42.44	201.02	29.18	-41.4	-44.1	19.9	6.03e-01	0	60	0	864026624	54	4876
2026-01-16 01:32:43.46	201.00	28.96	-41.4	-44.1	19.8	6.03e-01	0	60	0	866123776	54	4921
2026-01-16 01:32:44.46	200.99	28.75	-41.4	-44.2	19.7	6.04e-01	0	60	0	868220928	54	4949
2026-01-16 01:32:45.47	200.97	28.53	-41.5	-44.3	19.6	6.03e-01	0	60	0	869793792	54	5005
2026-01-16 01:32:46.48	200.96	28.32	-41.5	-44.3	19.7	6.02e-01	0	60	0	871890944	54	5010
2026-01-16 01:32:47.49	200.94	28.11	-41.6	-44.4	19.5	6.02e-01	0	60	0	873463808	54	5056
2026-01-16 01:32:48.50	200.93	27.91	-41.6	-44.5	19.4	6.03e-01	0	60	0	875560960	54	5106
2026-01-16 01:32:49.51	200.91	27.70	-41.7	-44.6	19.4	6.03e-01	0	60	0	877658112	54	5181
2026-01-16 01:32:50.52	200.90	27.49	-41.7	-44.7	19.3	6.04e-01	0	60	0	879230976	54	5230
2026-01-16 01:32:51.53	200.88	27.29	-41.8	-44.7	19.2	6.02e-01	0	60	0	881328128	54	5257
2026-01-16 01:32:52.54	200.87	27.09	-41.8	-44.8	19.1	6.03e-01	0	59	0	883425280	54	5291
2026-01-16 01:32:53.55	200.85	26.89	-41.8	-44.8	19.1	6.04e-01	0	60	0	884998144	54	5312
2026-01-16 01:32:54.56	200.84	26.69	-41.8	-44.7	19.1	6.04e-01	0	60	0	887095296	54	5273
2026-01-16 01:32:55.57	200.83	26.50	-41.7	-44.6	19.3	6.03e-01	0	60	0	888668160	54	5184
2026-01-16 01:32:56.57	200.81	26.30	-41.7	-44.5	19.3	6.04e-01	0	60	0	890765312	54	5154
2026-01-16 01:32:57.59	200.80	26.11	-41.7	-44.5	19.4	6.05e-01	0	60	0	892862464	54	5142
2026-01-16 01:32:58.60	200.79	25.92	-41.7	-44.6	19.3	6.03e-01	0	60	0	894435328	54	5178
2026-01-16 01:32:59.61	200.78	25.73	-41.7	-44.7	19.2	6.03e-01	0	60	0	896532480	54	5219
2026-01-16 01:33:00.62	200.76	25.54	-41.8	-44.7	19.2	6.02e-01	0	60	0	898105344	54	5239
2026-01-16 01:33:01.63	200.75	25.35	-41.9	-44.8	19.0	6.03e-01	0	60	0	900202496	54	5340
2026-01-16 01:33:02.63	200.74	25.17	-42.0	-45.0	18.9	6.02e-01	0	60	0	902299648	54	5463
2026-01-16 01:33:03.64	200.73	24.98	-42.0	-45.0	18.8	6.02e-01	0	60	0	903872512	54	5455
2026-01-16 01:33:04.65	200.72	24.80	-42.0	-45.1	18.8	6.03e-01	0	60	0	905969664	54	5468
2026-01-16 01:33:05.66	200.70	24.62	-42.0	-45.2	18.7	6.04e-01	0	60	0	907542528	54	5532
2026-01-16 01:33:06.67	200.69	24.44	-42.1	-45.2	18.6	6.04e-01	0	60	0	909639680	54	5581
2026-01-16 01:33:07.68	200.68	24.26	-42.0	-45.1	18.7	6.04e-01	0	60	0	911736832	54	5502
2026-01-16 01:33:08.69	200.67	24.08	-42.0	-45.1	18.8	6.03e-01	0	60	0	913309696	54	5496
2026-01-16 01:33:09.70	200.66	23.90	-42.0	-45.1	18.7	6.03e-01	0	60	0	915406848	54	5500
2026-01-16 01:33:10.71	200.65	23.73	-42.0	-45.1	18.7	6.05e-01	0	60	0	916979712	54	5517
2026-01-16 01:33:11.72	200.64	23.55	-42.0	-45.1	18.7	6.03e-01	0	60	0	919076864	54	5499
2026-01-16 01:33:12.73	200.63	23.38	-42.0	-45.2	18.7	6.03e-01	0	60	0	921174016	54	5534
2026-01-16 01:33:13.74	200.62	23.21	-42.1	-45.2	18.6	6.05e-01	0	60	0	922746880	54	5562
2026-01-16 01:33:14.75	200.61	23.04	-42.0	-45.2	18.7	6.06e-01	0	60	0	924844032	54	5540
2026-01-16 01:33:15.76	200.60	22.87	-42.1	-45.3	18.6	6.03e-01	0	60	0	926941184	54	5598
2026-01-16 01:33:16.77	200.59	22.70	-42.2	-45.4	18.4	6.03e-01	0	60	0	928514048	54	5674
2026-01-16 01:33:17.78	200.58	22.53	-42.2	-45.4	18.4	6.04e-01	0	60	0	930611200	54	5693
2026-01-16 01:33:18.79	200.57	22.37	-42.2	-45.4	18.4	6.02e-01	0	60	0	932184064	54	5714
2026-01-16 01:33:19.80	200.56	22.20	-42.2	-45.4	18.4	6.04e-01	0	60	0	934281216	54	5716
2026-01-16 01:33:20.81	200.55	22.04	-42.1	-45.4	18.4	6.03e-01	0	60	0	936378368	54	5679
2026-01-16 01:33:21.82	200.54	21.88	-42.1	-45.3	18.4	6.06e-01	0	60	0	937951232	54	5655
2026-01-16 01:33:22.83	200.53	21.72	-42.1	-45.3	18.5	6.03e-01	0	60	0	940048384	54	5654
2026-01-16 01:33:23.84	200.52	21.56	-42.1	-45.3	18.5	6.02e-01	0	60	0	941621248	54	5623
2026-01-16 01:33:24.85	200.52	21.40	-42.1	-45.3	18.5	6.04e-01	0	60	0	943718400	54	5636
2026-01-16 01:33:25.86	200.51	21.24	-42.1	-45.3	18.5	6.04e-01	0	60	0	945815552	54	5599
2026-01-16 01:33:26.87	200.50	21.09	-42.1	-45.3	18.5	6.01e-01	0	60	0	947388416	54	5636
2026-01-16 01:33:27.87	200.49	20.93	-42.0	-45.2	18.6	6.03e-01	0	60	0	949485568	54	5536
2026-01-16 01:33:28.88	200.48	20.78	-42.0	-45.1	18.6	6.04e-01	0	60	0	951582720	54	5514
2026-01-16 01:33:29.90	200.47	20.62	-42.0	-45.1	18.7	6.01e-01	0	60	0	953155584	54	5496
2026-01-16 01:33:30.90	200.47	20.47	-41.9	-45.0	18.7	6.02e-01	0	60	0	955252736	54	5447
2026-01-16 01:33:31.91	200.46	20.32	-41.9	-44.9	18.9	6.03e-01	0	60	0	956825600	54	5383
2026-01-16 01:33:32.92	200.45	20.17	-41.8	-44.9	18.9	6.05e-01	0	60	0	958922752	54	5372
2026-01-16 01:33:33.93	200.44	20.02	-41.8	-44.9	18.9	6.02e-01	0	60	0	961019904	54	5365
2026-01-16 01:33:34.94	200.44	19.87	-41.9	-44.9	18.9	6.02e-01	0	60	0	962592768	54	5376
2026-01-16 01:33:35.95	200.43	19.72	-41.8	-44.9	18.9	6.04e-01	0	60	0	964689920	54	5360
2026-01-16 01:33:36.96	200.42	19.58	-41.9	-44.9	18.8	6.01e-01	0	60	0	966262784	54	5384
2026-01-16 01:33:37.97	200.41	19.43	-41.8	-44.9	18.9	6.02e-01	0	60	0	968359936	54	5361
2026-01-16 01:33:38.98	200.41	19.29	-41.8	-44.8	18.9	6.03e-01	0	60	0	970457088	54	5324
2026-01-16 01:33:39.99	200.40	19.14	-41.8	-44.9	18.9	6.03e-01	0	60	0	972029952	54	5367
2026-01-16 01:33:41.00	200.39	19.00	-41.8	-44.9	18.8	6.05e-01	0	60	0	974127104	54	5379
2026-01-16 01:33:42.02	200.39	18.86	-41.9	-45.0	18.7	6.03e-01	0	60	0	975699968	54	5424
2026-01-16 01:33:43.02	200.38	18.72	-41.9	-45.1	18.7	6.03e-01	0	60	0	977797120	54	5466
2026-01-16 01:33:44.03	200.37	18.58	-42.0	-45.1	18.6	6.02e-01	0	60	0	979894272	54	5508
2026-01-16 01:33:45.04	200.37	18.44	-42.0	-45.2	18.5	6.01e-01	0	60	0	981467136	54	5542
2026-01-16 01:33:46.05	200.36	18.30	-42.0	-45.2	18.5	6.03e-01	0	60	0	983564288	54	5572
2026-01-16 01:33:47.06	200.35	18.16	-42.0	-45.2	18.5	6.04e-01	0	60	0	985137152	54	5549
2026-01-16 01:33:48.07	200.35	18.02	-42.0	-45.2	18.5	6.01e-01	0	60	0	987234304	54	5565
2026-01-16 01:33:49.08	200.34	17.89	-42.0	-45.2	18.5	6.02e-01	0	60	0	989331456	54	5584
2026-01-16 01:33:50.09	200.34	17.75	-42.0	-45.2	18.4	6.04e-01	0	60	0	990904320	54	5582
2026-01-16 01:33:51.10	200.33	17.62	-42.0	-45.3	18.4	6.03e-01	0	60	0	993001472	54	5625
2026-01-16 01:33:52.11	200.32	17.49	-42.0	-45.3	18.4	6.04e-01	0	60	0	995098624	54	5613
2026-01-16 01:33:53.12	200.32	17.35	-42.1	-45.3	18.3	6.03e-01	0	60	0	996671488	54	5653
2026-01-16 01:33:54.13	200.31	17.22	-42.1	-45.3	18.3	6.04e-01	0	60	0	998768640	54	5655
2026-01-16 01:33:55.14	200.31	17.09	-42.1	-45.3	18.3	6.03e-01	0	60	0	1000341504	54	5643
2026-01-16 01:33:56.15	200.30	16.96	-42.0	-45.3	18.3	6.02e-01	0	60	0	1002438656	54	5646
2026-01-16 01:33:57.16	200.30	16.83	-42.0	-45.3	18.4	6.01e-01	0	60	0	1004535808	54	5609
2026-01-16 01:33:58.17	200.29	16.70	-42.0	-45.3	18.4	6.03e-01	0	60	0	1006108672	54	5628
2026-01-16 01:33:59.18	200.28	16.57	-42.0	-45.3	18.3	6.05e-01	0	60	0	1008205824	54	5634
2026-01-16 01:34:00.18	200.28	16.45	-42.0	-45.2	18.4	6.04e-01	0	60	0	1009778688	54	5584
2026-01-16 01:34:01.19	200.27	16.32	-42.0	-45.3	18.3	6.04e-01	0	60	0	1011875840	54	5652
2026-01-16 01:34:02.20	200.27	16.19	-42.0	-45.3	18.3	6.04e-01	0	60	0	1013972992	54	5637
2026-01-16 01:34:03.21	200.26	16.07	-42.1	-45.4	18.2	6.03e-01	0	60	0	1015545856	54	5682
2026-01-16 01:34:04.22	200.26	15.94	-42.1	-45.4	18.2	6.05e-01	0	60	0	1017643008	54	5678
2026-01-16 01:34:05.23	200.25	15.82	-42.1	-45.4	18.2	6.03e-01	0	60	0	1019740160	54	5676
2026-01-16 01:34:06.24	200.25	15.70	-42.1	-45.5	18.1	6.03e-01	0	60	0	1021313024	54	5746
2026-01-16 01:34:07.25	200.24	15.57	-42.1	-45.4	18.1	6.04e-01	0	60	0	1023410176	54	5698
2026-01-16 01:34:08.26	200.24	15.45	-42.0	-45.4	18.2	6.01e-01	0	60	0	1024983040	54	5680
2026-01-16 01:34:09.27	200.24	15.33	-42.1	-45.5	18.1	6.01e-01	0	60	0	1027080192	54	5723
2026-01-16 01:34:10.28	200.23	15.21	-42.0	-45.4	18.2	6.04e-01	0	60	0	1029177344	54	5660
2026-01-16 01:34:11.29	200.23	15.09	-42.0	-45.3	18.2	6.02e-01	0	60	0	1030750208	54	5645
2026-01-16 01:34:12.30	200.22	14.97	-42.0	-45.4	18.1	6.03e-01	0	60	0	1032847360	54	5680
2026-01-16 01:34:13.31	200.22	14.85	-42.0	-45.3	18.2	6.03e-01	0	60	0	1034420224	54	5634
2026-01-16 01:34:14.32	200.21	14.74	-42.0	-45.4	18.1	6.02e-01	0	60	0	1036517376	54	5661
2026-01-16 01:34:15.33	200.21	14.62	-41.9	-45.3	18.3	6.04e-01	0	60	0	1038614528	54	5594
2026-01-16 01:34:16.34	200.20	14.50	-42.0	-45.3	18.2	6.06e-01	0	60	0	1040187392	54	5640
2026-01-16 01:34:17.35	200.20	14.39	-42.0	-45.3	18.2	6.02e-01	0	60	0	1042284544	54	5601
2026-01-16 01:34:18.36	200.20	14.27	-42.0	-45.3	18.2	6.03e-01	0	60	0	1043857408	54	5626
2026-01-16 01:34:19.37	200.19	14.16	-41.9	-45.2	18.3	6.04e-01	0	60	0	1045954560	54	5591
2026-01-16 01:34:20.38	200.19	14.04	-41.9	-45.1	18.3	6.04e-01	0	60	0	1048051712	54	5527
2026-01-16 01:34:21.39	200.18	13.93	-41.9	-45.1	18.3	6.04e-01	0	60	0	1049624576	54	5528
2026-01-16 01:34:22.40	200.18	13.81	-41.9	-45.2	18.3	6.02e-01	0	60	0	1051721728	54	5561
2026-01-16 01:34:23.41	200.18	13.70	-41.9	-45.1	18.3	6.04e-01	0	60	0	1053294592	54	5526
2026-01-16 01:34:24.42	200.17	13.59	-41.9	-45.1	18.4	6.04e-01	0	60	0	1055391744	54	5505
2026-01-16 01:34:25.42	200.17	13.48	-41.8	-45.0	18.5	6.00e-01	0	60	0	1057488896	54	5452
2026-01-16 01:34:26.43	200.17	13.37	-41.8	-45.1	18.4	6.04e-01	0	60	0	1059061760	54	5502
2026-01-16 01:34:27.44	200.16	13.26	-41.8	-45.1	18.3	6.03e-01	0	60	0	1061158912	54	5498
2026-01-16 01:34:28.45	200.16	13.15	-41.8	-45.0	18.5	6.03e-01	0	60	0	1062731776	54	5417
2026-01-16 01:34:29.46	200.15	13.04	-41.8	-45.1	18.4	6.02e-01	0	60	0	1064828928	54	5468
2026-01-16 01:34:30.47	200.15	12.93	-41.8	-45.0	18.4	6.05e-01	0	60	0	1066926080	54	5447
2026-01-16 01:34:31.48	200.15	12.82	-41.8	-45.0	18.4	6.04e-01	0	60	0	1068498944	54	5450
2026-01-16 01:34:32.49	200.14	12.72	-41.8	-45.1	18.3	6.04e-01	0	60	0	1070596096	54	5489
2026-01-16 01:34:33.50	200.14	12.61	-41.8	-45.1	18.3	6.02e-01	0	60	0	1072693248	54	5508
2026-01-16 01:34:34.51	200.14	12.50	-41.8	-45.1	18.3	6.05e-01	0	60	0	1074266112	54	5505
2026-01-16 01:34:35.52	200.13	12.40	-41.8	-45.1	18.3	6.02e-01	0	60	0	1076363264	54	5512
2026-01-16 01:34:36.53	200.13	12.29	-41.8	-45.1	18.3	6.02e-01	0	60	0	1077936128	54	5523
2026-01-16 01:34:37.54	200.13	12.19	-41.8	-45.1	18.3	6.03e-01	0	60	0	1080033280	54	5500
2026-01-16 01:34:38.55	200.13	12.08	-41.8	-45.1	18.2	6.04e-01	0	60	0	1082130432	54	5515
2026-01-16 01:34:39.56	200.12	11.98	-41.8	-45.1	18.3	6.02e-01	0	60	0	1083703296	54	5515
2026-01-16 01:34:40.57	200.12	11.88	-41.8	-45.2	18.2	6.05e-01	0	60	0	1085800448	54	5530
2026-01-16 01:34:41.58	200.12	11.77	-41.8	-45.1	18.2	6.03e-01	0	60	0	1087897600	54	5520
2026-01-16 01:34:42.59	200.11	11.67	-41.8	-45.1	18.2	6.04e-01	0	60	0	1089470464	54	5523
2026-01-16 01:34:43.59	200.11	11.57	-41.8	-45.2	18.2	6.03e-01	0	60	0	1091567616	54	5547
2026-01-16 01:34:44.61	200.11	11.47	-41.9	-45.2	18.1	6.03e-01	0	60	0	1093140480	54	5582
2026-01-16 01:34:45.61	200.10	11.37	-41.9	-45.2	18.1	6.04e-01	0	60	0	1095237632	54	5571
2026-01-16 01:34:46.62	200.10	11.27	-41.9	-45.3	18.0	6.04e-01	0	60	0	1097334784	54	5611
2026-01-16 01:34:47.63	200.10	11.17	-41.9	-45.3	18.0	6.02e-01	0	60	0	1098907648	54	5649
2026-01-16 01:34:48.64	200.10	11.07	-41.8	-45.2	18.1	6.04e-01	0	60	0	1101004800	54	5582
2026-01-16 01:34:49.66	200.09	10.97	-41.9	-45.3	18.0	6.01e-01	0	60	0	1102577664	54	5614
2026-01-16 01:34:50.66	200.09	10.87	-41.9	-45.3	18.0	6.02e-01	0	60	0	1104674816	54	5628
2026-01-16 01:34:51.67	200.09	10.77	-41.9	-45.4	17.9	6.03e-01	0	60	0	1106771968	54	5685
2026-01-16 01:34:52.68	200.09	10.67	-41.9	-45.4	17.9	6.01e-01	0	60	0	1108344832	54	5672
2026-01-16 01:34:53.69	200.08	10.57	-41.9	-45.4	17.8	6.04e-01	0	60	0	1110441984	54	5716
2026-01-16 01:34:54.70	200.08	10.48	-42.0	-45.5	17.8	6.02e-01	0	60	0	1112014848	54	5740
2026-01-16 01:34:55.71	200.08	10.38	-42.0	-45.5	17.7	6.02e-01	0	60	0	1114112000	54	5755
2026-01-16 01:34:56.73	200.08	10.28	-42.0	-45.5	17.7	6.03e-01	0	60	0	1116209152	54	5750
2026-01-16 01:34:57.73	200.07	10.19	-42.0	-45.5	17.7	6.03e-01	0	60	0	1117782016	54	5747
2026-01-16 01:34:58.75	200.07	10.09	-42.0	-45.6	17.6	6.02e-01	0	60	0	1119879168	54	5812
2026-01-16 01:34:59.75	200.07	10.00	-42.0	-45.6	17.6	6.03e-01	0	60	0	1121452032	54	5822
2026-01-16 01:35:00.76	200.07	9.90	-42.0	-45.6	17.5	6.05e-01	0	60	0	1123549184	54	5854
2026-01-16 01:35:01.77	200.07	9.81	-42.1	-45.7	17.4	6.05e-01	0	60	0	1125646336	54	5905
2026-01-16 01:35:02.78	200.06	9.72	-42.1	-45.7	17.4	6.02e-01	0	60	0	1127219200	54	5894
2026-01-16 01:35:03.79	200.06	9.62	-42.1	-45.7	17.4	6.04e-01	0	60	0	1129316352	54	5915
2026-01-16 01:35:04.80	200.06	9.53	-42.1	-45.7	17.4	6.04e-01	0	60	0	1130889216	54	5923
2026-01-16 01:35:05.81	200.06	9.44	-42.1	-45.8	17.4	6.05e-01	0	60	0	1132986368	54	5935
2026-01-16 01:35:06.82	200.06	9.35	-42.1	-45.8	17.3	6.04e-01	0	60	0	1135083520	54	5977
2026-01-16 01:35:07.83	200.05	9.25	-42.1	-45.8	17.3	6.04e-01	0	60	0	1136656384	54	5934
2026-01-16 01:35:08.84	200.05	9.16	-42.1	-45.9	17.2	6.03e-01	0	60	0	1138753536	54	6000
2026-01-16 01:35:09.85	200.05	9.07	-42.1	-45.9	17.1	6.01e-01	0	60	0	1140850688	54	6040
2026-01-16 01:35:10.86	200.05	8.98	-42.1	-45.8	17.2	6.03e-01	0	60	0	1142423552	54	5977
2026-01-16 01:35:11.87	200.05	8.89	-42.1	-45.9	17.1	6.03e-01	0	60	0	1144520704	54	6055
2026-01-16 01:35:12.88	200.04	8.80	-42.0	-45.8	17.1	6.02e-01	0	60	0	1146093568	54	5974
2026-01-16 01:35:13.89	200.04	8.71	-42.1	-45.9	17.0	6.04e-01	0	60	0	1148190720	54	6041
2026-01-16 01:35:14.90	200.04	8.62	-42.1	-46.0	16.9	6.04e-01	0	60	0	1150287872	54	6081
2026-01-16 01:35:15.91	200.04	8.53	-42.1	-46.0	16.9	6.02e-01	0	60	0	1151860736	54	6066
2026-01-16 01:35:16.91	200.04	8.45	-42.1	-46.0	16.9	6.05e-01	0	60	0	1153957888	54	6073
2026-01-16 01:35:17.92	200.03	8.36	-42.1	-46.0	16.8	6.04e-01	0	60	0	1156055040	54	6130
2026-01-16 01:35:18.94	200.03	8.27	-42.1	-46.1	16.7	6.05e-01	0	60	0	1157627904	54	6142
2026-01-16 01:35:19.95	200.03	8.18	-42.1	-46.1	16.6	6.01e-01	0	60	0	1159725056	54	6191
2026-01-16 01:35:20.95	200.03	8.09	-42.1	-46.1	16.7	6.04e-01	0	60	0	1161297920	54	6165
2026-01-16 01:35:21.96	200.03	8.01	-42.1	-46.2	16.6	6.04e-01	0	60	0	1163395072	54	6210
2026-01-16 01:35:22.97	200.03	7.92	-45.1	-57.4	7.0	6.91e-01	92	60	0	1164967936	60	16009
2026-01-16 01:35:23.98	200.03	7.83	-45.8	-64.3	3.8	7.44e-01	0	60	104	1164967936	62	31577
2026-01-16 01:35:24.99	200.02	7.75	-46.0	-64.6	3.8	7.42e-01	0	60	104	1164967936	62	32600
2026-01-16 01:35:26.00	200.02	7.66	-46.2	-64.8	3.8	7.45e-01	0	60	104	1164967936	62	33335
2026-01-16 01:35:27.01	200.02	7.58	-46.3	-64.9	3.8	7.44e-01	0	60	104	1164967936	63	32050
2026-01-16 01:35:28.02	200.02	7.49	-46.4	-65.0	3.8	7.46e-01	0	60	104	1164967936	63	32316
2026-01-16 01:35:29.03	200.02	7.41	-46.4	-65.0	3.8	7.46e-01	0	60	104	1164967936	63	32432
2026-01-16 01:35:30.04	200.02	7.32	-46.4	-65.0	3.8	7.45e-01	0	60	104	1164967936	63	32537
2026-01-16 01:35:31.05	200.02	7.24	-46.5	-65.0	3.8	7.46e-01	0	60	104	1164967936	63	32536
2026-01-16 01:35:32.05	200.01	7.16	-46.4	-65.0	3.8	7.42e-01	0	60	104	1164967936	63	32541
