passes_logs/2026/01/16/R2.0S_Moscow/R2.0S_Moscow__20260116_092657_NOAA_20_JPSS-1_rec.log

#Pass ID: 20260116_092657_NOAA 20 (JPSS-1)
#Satellite: NOAA 20 (JPSS-1)
#Configuration: NOAA 20
#almurnet v.1.7.20251203
#Start time: 2026-01-16 09:26:57

#Version: 2.2.20231116
#Station: R2.0S_Moscow
#Location: 37.707566 lon 55.798166 lat
#TLE: 1 43013U 17073A   26015.47098083  .00000029  00000+0  34851-4 0  9997
#TLE: 2 43013  98.7636 316.4053 0001479  38.6686 321.4595 14.19536048422808

#Time	Az	El	Level	Level2	SNR	BER	BlckErr	Temp	State	Recorded	gain1	gain2
2026-01-16 09:26:57.80	146.85	2.03	-43.9	-58.5	3.8	1.49e+00	0	53	0	0	58	20375
2026-01-16 09:26:58.80	146.83	2.09	-43.9	-58.5	3.8	1.49e+00	0	53	104	0	59	19254
2026-01-16 09:26:59.81	146.82	2.15	-43.9	-58.5	3.8	1.49e+00	0	53	104	0	58	20379
2026-01-16 09:27:00.82	146.80	2.22	-43.8	-58.5	3.8	1.49e+00	0	53	104	0	58	20321
2026-01-16 09:27:01.83	146.78	2.28	-43.9	-58.5	3.8	1.49e+00	0	53	104	0	58	20417
2026-01-16 09:27:02.84	146.76	2.35	-43.8	-58.5	3.8	1.49e+00	0	53	104	0	58	20342
2026-01-16 09:27:03.85	146.74	2.41	-43.9	-58.5	3.8	1.49e+00	0	53	104	0	58	20365
2026-01-16 09:27:04.87	146.72	2.48	-43.9	-58.5	3.8	1.49e+00	0	53	104	0	58	20342
2026-01-16 09:27:05.88	146.70	2.55	-43.9	-58.5	3.8	1.49e+00	0	53	104	0	58	20331
2026-01-16 09:27:06.88	146.68	2.61	-43.9	-58.5	3.8	1.49e+00	0	53	104	0	58	20356
2026-01-16 09:27:07.90	146.66	2.68	-43.9	-58.5	3.8	1.49e+00	0	54	104	0	58	20342
2026-01-16 09:27:08.91	146.64	2.74	-43.7	-58.4	3.8	1.49e+00	0	53	104	0	58	20225
2026-01-16 09:27:09.92	146.62	2.81	-43.7	-58.4	3.8	1.49e+00	0	54	104	0	58	20233
2026-01-16 09:27:10.93	146.60	2.88	-43.9	-58.5	3.8	1.49e+00	0	54	104	0	58	20330
2026-01-16 09:27:11.94	146.58	2.94	-43.9	-58.4	3.8	1.49e+00	0	54	104	0	58	20278
2026-01-16 09:27:12.95	146.56	3.01	-43.8	-58.4	3.8	1.49e+00	0	54	104	0	58	20146
2026-01-16 09:27:13.96	146.54	3.08	-43.8	-58.5	3.8	1.49e+00	0	54	104	0	58	20331
2026-01-16 09:27:14.97	146.52	3.14	-43.7	-58.4	3.8	1.49e+00	0	54	104	0	58	20224
2026-01-16 09:27:15.98	146.50	3.21	-43.8	-58.5	3.8	1.49e+00	0	54	104	0	58	20340
2026-01-16 09:27:16.99	146.48	3.28	-43.9	-58.4	3.8	1.49e+00	0	54	104	0	58	20299
2026-01-16 09:27:18.00	146.46	3.35	-43.8	-58.5	3.8	1.49e+00	0	54	104	0	58	20388
2026-01-16 09:27:19.01	146.44	3.41	-43.7	-58.4	3.8	1.49e+00	0	55	104	0	58	20253
2026-01-16 09:27:20.02	146.42	3.48	-43.9	-58.5	3.8	1.49e+00	0	54	104	0	58	20378
2026-01-16 09:27:21.03	146.40	3.55	-43.8	-58.4	3.8	1.49e+00	0	55	104	0	58	20295
2026-01-16 09:27:22.04	146.38	3.62	-43.9	-58.5	3.8	1.49e+00	0	54	104	0	58	20328
2026-01-16 09:27:23.05	146.36	3.69	-43.8	-58.4	3.8	1.49e+00	0	54	104	0	58	20250
2026-01-16 09:27:24.06	146.33	3.75	-43.9	-58.5	3.8	1.49e+00	0	55	104	0	58	20344
2026-01-16 09:27:25.08	146.31	3.82	-43.7	-58.4	3.8	1.49e+00	0	55	104	0	58	20208
2026-01-16 09:27:26.09	146.29	3.89	-43.9	-58.5	3.8	1.49e+00	0	55	104	0	58	20304
2026-01-16 09:27:27.10	146.27	3.96	-43.8	-58.4	3.8	1.49e+00	0	55	104	0	58	20281
2026-01-16 09:27:28.11	146.25	4.03	-43.9	-58.4	3.8	1.49e+00	0	55	104	0	58	20180
2026-01-16 09:27:29.12	146.23	4.10	-43.7	-58.4	3.8	1.49e+00	0	55	104	0	58	20206
2026-01-16 09:27:30.13	146.21	4.17	-43.8	-58.4	3.8	1.49e+00	0	55	104	0	58	20149
2026-01-16 09:27:31.14	146.18	4.24	-43.8	-58.3	3.8	1.49e+00	0	55	104	0	58	20045
2026-01-16 09:27:32.15	146.16	4.31	-43.2	-58.2	3.8	1.49e+00	0	55	104	0	58	19708
2026-01-16 09:27:33.16	146.14	4.38	-43.9	-58.2	3.8	1.49e+00	0	55	104	0	58	19659
2026-01-16 09:27:34.16	146.12	4.45	-43.5	-58.0	3.8	1.49e+00	0	55	104	0	58	19291
2026-01-16 09:27:35.17	146.09	4.52	-43.8	-57.8	3.8	1.49e+00	0	55	104	0	58	18846
2026-01-16 09:27:36.19	146.07	4.59	-43.8	-57.8	3.8	1.49e+00	0	55	104	0	58	18774
2026-01-16 09:27:37.20	146.05	4.66	-43.7	-57.5	3.8	1.49e+00	0	55	104	0	58	18193
2026-01-16 09:27:38.20	146.03	4.73	-43.6	-57.3	3.8	1.49e+00	0	55	104	0	58	17776
2026-01-16 09:27:39.22	146.00	4.80	-43.8	-57.1	3.8	1.49e+00	0	55	104	0	58	17451
2026-01-16 09:27:40.22	145.98	4.87	-43.7	-56.7	3.8	1.49e+00	0	55	104	0	58	16650
2026-01-16 09:27:41.24	145.96	4.94	-43.7	-57.0	3.8	1.49e+00	0	56	104	0	58	17141
2026-01-16 09:27:42.25	145.93	5.02	-43.5	-57.2	3.8	1.49e+00	0	56	104	0	58	17621
2026-01-16 09:27:43.26	145.91	5.09	-43.8	-57.8	3.8	1.49e+00	0	56	104	0	58	18841
2026-01-16 09:27:44.27	145.89	5.16	-43.8	-58.3	3.8	1.49e+00	0	56	104	0	58	19896
2026-01-16 09:27:45.28	145.86	5.23	-43.8	-58.4	3.8	1.49e+00	0	56	104	0	58	20228
2026-01-16 09:27:46.28	145.84	5.30	-43.9	-58.3	3.8	1.49e+00	0	56	104	0	58	20003
2026-01-16 09:27:47.29	145.81	5.38	-43.8	-58.2	3.8	1.49e+00	0	56	104	0	58	19838
2026-01-16 09:27:48.30	145.79	5.45	-43.8	-58.4	3.8	1.49e+00	0	56	104	0	58	20137
2026-01-16 09:27:49.32	145.77	5.52	-43.8	-58.2	3.8	1.49e+00	0	56	104	0	58	19621
2026-01-16 09:27:50.33	145.74	5.60	-43.8	-57.9	3.8	1.49e+00	0	56	104	0	58	18995
2026-01-16 09:27:51.34	145.72	5.67	-43.8	-57.8	3.8	1.49e+00	0	56	104	0	58	18862
2026-01-16 09:27:52.35	145.69	5.74	-43.8	-57.8	3.8	1.49e+00	0	56	104	0	58	18812
2026-01-16 09:27:53.35	145.67	5.82	-43.8	-57.1	3.8	1.49e+00	0	56	104	0	58	17361
2026-01-16 09:27:54.37	145.64	5.89	-43.7	-56.6	3.8	1.49e+00	0	56	104	0	58	16373
2026-01-16 09:27:55.38	145.62	5.96	-43.5	-56.5	3.8	1.48e+00	0	56	104	0	58	16156
2026-01-16 09:27:56.39	145.59	6.04	-43.7	-55.9	4.0	1.48e+00	0	56	104	0	58	15151
2026-01-16 09:27:57.40	145.57	6.11	-43.5	-55.7	4.0	1.47e+00	0	56	104	0	58	14804
2026-01-16 09:27:58.41	145.54	6.19	-43.5	-55.3	4.1	1.47e+00	0	56	0	0	57	14966
2026-01-16 09:27:59.42	145.52	6.26	-43.6	-55.0	4.2	1.36e+00	0	56	0	0	57	14515
2026-01-16 09:28:00.43	145.49	6.34	-43.6	-54.9	4.2	1.39e+00	0	57	0	0	57	14255
2026-01-16 09:28:01.44	145.46	6.41	-43.4	-54.5	4.3	1.34e+00	0	57	0	0	57	13698
2026-01-16 09:28:02.45	145.44	6.49	-43.5	-54.6	4.3	1.34e+00	0	56	0	0	57	13847
2026-01-16 09:28:03.46	145.41	6.57	-43.4	-54.7	4.2	1.38e+00	0	56	0	0	57	13992
2026-01-16 09:28:04.47	145.39	6.64	-43.4	-55.3	4.1	1.41e+00	0	57	0	0	57	14930
2026-01-16 09:28:05.48	145.36	6.72	-43.5	-55.4	4.1	1.45e+00	0	57	0	0	57	15159
2026-01-16 09:28:06.49	145.33	6.80	-43.6	-56.0	4.0	1.48e+00	0	57	104	0	57	16181
2026-01-16 09:28:07.51	145.31	6.87	-43.7	-56.9	3.8	1.49e+00	0	57	104	0	58	16925
2026-01-16 09:28:08.52	145.28	6.95	-43.8	-57.5	3.8	1.49e+00	0	57	104	0	58	18280
2026-01-16 09:28:09.53	145.25	7.03	-43.8	-58.1	3.8	1.49e+00	0	57	104	0	58	19574
2026-01-16 09:28:10.54	145.22	7.10	-43.7	-58.3	3.8	1.49e+00	0	57	104	0	58	19966
2026-01-16 09:28:11.55	145.20	7.18	-43.8	-58.2	3.8	1.49e+00	0	57	104	0	58	19804
2026-01-16 09:28:12.56	145.17	7.26	-43.8	-57.5	3.8	1.49e+00	0	57	104	0	58	18223
2026-01-16 09:28:13.57	145.14	7.34	-43.7	-56.2	3.8	1.49e+00	0	57	104	0	58	15747
2026-01-16 09:28:14.58	145.11	7.42	-43.4	-54.9	4.2	1.44e+00	0	57	0	0	58	13456
2026-01-16 09:28:15.59	145.09	7.50	-43.3	-53.4	4.7	1.10e+00	0	57	0	1048576	57	12066
2026-01-16 09:28:16.60	145.06	7.57	-43.1	-51.8	5.7	4.79e-01	0	57	0	3145728	57	10008
2026-01-16 09:28:17.61	145.03	7.65	-43.1	-51.1	6.1	3.85e-01	0	57	0	5242880	57	9185
2026-01-16 09:28:18.62	145.00	7.73	-42.8	-50.0	7.1	1.91e-01	0	57	0	6291456	57	8160
2026-01-16 09:28:19.63	144.97	7.81	-42.6	-49.2	7.9	1.08e-01	0	57	0	8388608	56	7848
2026-01-16 09:28:20.64	144.94	7.89	-42.2	-48.4	8.5	5.05e-02	0	57	0	10485760	55	7603
2026-01-16 09:28:21.65	144.91	7.97	-41.9	-47.7	9.3	2.50e-02	0	57	0	12582912	55	6994
2026-01-16 09:28:22.66	144.88	8.05	-42.1	-47.7	9.2	1.98e-02	0	57	0	14680064	55	6997
2026-01-16 09:28:23.67	144.85	8.13	-44.0	-57.6	3.9	3.59e-01	0	57	104	15728640	58	18328
2026-01-16 09:28:24.68	144.83	8.21	-44.0	-57.3	3.8	1.35e+00	0	58	104	15728640	58	17754
2026-01-16 09:28:25.69	144.80	8.29	-42.0	-47.1	10.1	1.25e+00	0	57	0	15728640	56	6146
2026-01-16 09:28:26.70	144.77	8.38	-43.0	-52.2	5.5	5.71e-02	0	57	0	17825792	57	10491
2026-01-16 09:28:27.71	144.74	8.46	-42.7	-49.3	8.1	9.68e-01	0	58	0	17825792	56	7976
2026-01-16 09:28:28.72	144.70	8.54	-42.3	-48.9	7.9	1.47e+00	0	57	0	17825792	56	7588
2026-01-16 09:28:29.73	144.67	8.62	-42.0	-47.3	9.6	1.34e-02	0	57	0	18874368	55	6698
2026-01-16 09:28:30.74	144.64	8.70	-41.9	-47.0	9.9	9.54e-03	0	58	0	20971520	54	6860
2026-01-16 09:28:31.75	144.61	8.79	-41.7	-47.3	9.7	9.30e-03	0	58	0	23068672	54	7056
2026-01-16 09:28:32.76	144.58	8.87	-41.5	-46.8	10.1	7.89e-03	0	58	0	25165824	54	6666
2026-01-16 09:28:33.77	144.55	8.95	-41.7	-46.7	10.4	5.83e-03	0	58	0	27262976	54	6631
2026-01-16 09:28:34.78	144.52	9.04	-41.7	-46.5	10.6	4.40e-03	0	58	0	28311552	54	6457
2026-01-16 09:28:35.79	144.49	9.12	-41.7	-46.5	10.5	3.93e-03	0	58	0	30408704	54	6486
2026-01-16 09:28:36.80	144.46	9.20	-41.7	-46.4	10.8	3.09e-03	0	58	0	32505856	54	6355
2026-01-16 09:28:37.81	144.42	9.29	-41.8	-46.6	10.5	3.63e-03	0	58	0	34603008	54	6556
2026-01-16 09:28:38.82	144.39	9.37	-41.7	-46.6	10.5	3.68e-03	0	58	0	36700160	54	6557
2026-01-16 09:28:39.83	144.36	9.46	-41.8	-46.6	10.6	4.09e-03	0	58	0	37748736	54	6532
2026-01-16 09:28:40.84	144.33	9.54	-41.9	-46.9	10.2	4.92e-03	0	58	0	39845888	54	6782
2026-01-16 09:28:41.85	144.29	9.63	-41.9	-46.7	10.5	4.16e-03	0	58	0	41943040	54	6636
2026-01-16 09:28:42.86	144.26	9.71	-41.8	-46.5	10.8	3.84e-03	0	58	0	44040192	54	6478
2026-01-16 09:28:43.87	144.23	9.80	-41.7	-46.3	10.9	1.94e-03	0	58	0	46137344	54	6306
2026-01-16 09:28:44.88	144.19	9.89	-41.6	-46.3	11.1	1.47e-03	0	58	0	47185920	54	6277
2026-01-16 09:28:45.89	144.16	9.97	-41.8	-46.2	11.2	2.42e-03	0	58	0	49283072	54	6262
2026-01-16 09:28:46.90	144.12	10.06	-41.8	-46.3	11.0	1.86e-03	0	58	0	51380224	54	6340
2026-01-16 09:28:47.91	144.09	10.15	-41.7	-46.2	11.2	1.47e-03	0	58	0	53477376	54	6228
2026-01-16 09:28:48.92	144.06	10.23	-41.4	-46.3	11.1	2.26e-03	0	58	0	55574528	54	6316
2026-01-16 09:28:49.93	144.02	10.32	-41.8	-46.4	11.0	1.79e-03	0	58	0	56623104	54	6380
2026-01-16 09:28:50.94	143.99	10.41	-41.9	-46.6	10.9	2.62e-03	0	58	0	58720256	54	6515
2026-01-16 09:28:51.95	143.95	10.50	-41.9	-46.6	10.8	2.66e-03	0	58	0	60817408	54	6505
2026-01-16 09:28:52.96	143.92	10.59	-41.6	-46.6	10.8	3.12e-03	0	58	0	62914560	54	6536
2026-01-16 09:28:53.97	143.88	10.67	-41.9	-46.5	11.0	2.31e-03	0	58	0	65011712	54	6456
2026-01-16 09:28:54.98	143.85	10.76	-41.9	-46.3	11.1	1.46e-03	0	58	0	67108864	54	6315
2026-01-16 09:28:55.99	143.81	10.85	-42.0	-46.5	10.9	1.66e-03	0	58	0	68157440	54	6470
2026-01-16 09:28:57.00	143.77	10.94	-41.9	-46.4	11.2	1.67e-03	0	58	0	70254592	54	6374
2026-01-16 09:28:58.01	143.74	11.03	-41.9	-46.3	11.2	1.32e-03	0	59	0	72351744	54	6341
2026-01-16 09:28:59.01	143.70	11.12	-41.8	-46.1	11.4	1.10e-03	0	59	0	74448896	54	6135
2026-01-16 09:29:00.02	143.66	11.21	-41.8	-46.2	11.4	9.98e-04	0	59	0	76546048	54	6224
2026-01-16 09:29:01.03	143.63	11.30	-41.8	-46.1	11.4	1.14e-03	0	58	0	77594624	54	6175
2026-01-16 09:29:02.04	143.59	11.40	-41.8	-46.1	11.4	9.71e-04	0	59	0	79691776	54	6200
2026-01-16 09:29:03.05	143.55	11.49	-41.8	-46.2	11.4	1.08e-03	0	59	0	81788928	54	6235
2026-01-16 09:29:04.06	143.51	11.58	-41.8	-46.0	11.5	1.41e-03	0	59	0	83886080	54	6130
2026-01-16 09:29:05.07	143.47	11.67	-41.7	-45.9	11.7	8.12e-04	0	58	0	85983232	54	6052
2026-01-16 09:29:06.08	143.44	11.77	-41.7	-45.8	11.6	7.07e-04	0	59	0	87031808	53	6305
2026-01-16 09:29:07.09	143.40	11.86	-41.7	-45.8	11.8	1.10e-03	0	59	0	89128960	54	5964
2026-01-16 09:29:08.10	143.36	11.95	-41.7	-45.9	11.7	8.60e-04	0	59	0	91226112	54	6051
2026-01-16 09:29:09.11	143.32	12.05	-41.6	-45.8	11.9	1.39e-03	0	58	0	93323264	53	6280
2026-01-16 09:29:10.12	143.28	12.14	-41.4	-45.8	11.0	1.20e-03	0	59	0	95420416	53	6311
2026-01-16 09:29:11.13	143.24	12.23	-41.6	-45.8	11.8	2.34e-03	0	59	0	96468992	53	6294
2026-01-16 09:29:12.14	143.20	12.33	-41.5	-45.8	11.6	6.79e-04	0	59	0	98566144	54	5955
2026-01-16 09:29:13.15	143.16	12.43	-41.7	-45.8	11.9	6.68e-04	0	59	0	100663296	54	5977
2026-01-16 09:29:14.16	143.12	12.52	-41.7	-45.8	11.8	5.72e-04	0	59	0	102760448	54	5954
2026-01-16 09:29:15.17	143.08	12.62	-41.7	-45.9	11.6	1.08e-03	0	59	0	104857600	54	6011
2026-01-16 09:29:16.18	143.04	12.71	-41.7	-45.8	11.9	7.69e-04	0	59	0	105906176	54	5974
2026-01-16 09:29:17.19	143.00	12.81	-41.8	-45.9	11.8	4.71e-04	0	59	0	108003328	54	6044
2026-01-16 09:29:18.20	142.95	12.91	-41.8	-46.0	11.8	4.52e-04	0	59	0	110100480	54	6063
2026-01-16 09:29:19.21	142.91	13.00	-41.8	-45.9	11.9	4.36e-04	0	59	0	112197632	54	6024
2026-01-16 09:29:20.22	142.87	13.10	-41.8	-45.9	11.8	4.36e-04	0	59	0	114294784	54	6060
2026-01-16 09:29:21.23	142.83	13.20	-41.8	-45.9	11.8	4.17e-04	0	59	0	115343360	54	6043
2026-01-16 09:29:22.24	142.78	13.30	-41.8	-45.9	11.9	5.34e-04	0	59	0	117440512	54	6048
2026-01-16 09:29:23.25	142.74	13.40	-41.8	-45.8	12.0	3.97e-04	0	59	0	119537664	54	5979
2026-01-16 09:29:24.26	142.70	13.50	-41.8	-45.9	12.0	5.33e-04	0	59	0	121634816	54	6004
2026-01-16 09:29:25.27	142.65	13.60	-41.8	-45.8	11.9	8.64e-04	0	59	0	123731968	54	5990
2026-01-16 09:29:26.28	142.61	13.70	-41.8	-45.8	12.1	2.98e-04	0	59	0	124780544	54	5953
2026-01-16 09:29:27.29	142.56	13.80	-41.7	-45.7	12.2	2.81e-04	0	59	0	126877696	54	5880
2026-01-16 09:29:28.30	142.52	13.90	-41.8	-45.8	12.1	3.07e-04	0	59	0	128974848	54	5947
2026-01-16 09:29:29.31	142.47	14.00	-41.8	-45.8	12.1	2.94e-04	0	59	0	131072000	54	5946
2026-01-16 09:29:30.32	142.43	14.10	-41.8	-45.8	12.1	3.59e-04	0	59	0	133169152	54	5952
2026-01-16 09:29:31.33	142.38	14.20	-41.7	-45.6	12.3	1.92e-04	0	59	0	135266304	54	5843
2026-01-16 09:29:32.34	142.34	14.31	-41.8	-45.6	12.3	1.77e-04	0	59	0	136314880	54	5844
2026-01-16 09:29:33.35	142.29	14.41	-41.8	-45.6	12.3	4.39e-04	0	59	0	138412032	54	5845
2026-01-16 09:29:34.36	142.24	14.51	-41.8	-45.7	12.2	2.38e-04	0	59	0	140509184	54	5915
2026-01-16 09:29:35.37	142.20	14.62	-41.8	-45.6	12.3	5.22e-04	0	59	0	142606336	54	5855
2026-01-16 09:29:36.38	142.15	14.72	-41.8	-45.7	12.3	2.41e-04	0	59	0	144703488	54	5867
2026-01-16 09:29:37.39	142.10	14.83	-41.7	-45.6	12.4	1.57e-04	0	59	0	145752064	54	5838
2026-01-16 09:29:38.39	142.05	14.93	-41.7	-45.5	12.5	1.75e-04	0	59	0	147849216	54	5757
2026-01-16 09:29:39.41	142.00	15.04	-41.7	-45.4	12.6	1.53e-04	0	59	0	149946368	54	5711
2026-01-16 09:29:40.41	141.96	15.14	-41.7	-45.4	12.7	2.05e-04	0	59	0	152043520	54	5671
2026-01-16 09:29:41.42	141.91	15.25	-41.6	-45.4	12.7	5.58e-04	0	60	0	154140672	54	5664
2026-01-16 09:29:42.43	141.86	15.35	-41.7	-45.4	12.5	6.78e-04	0	59	0	155189248	54	5688
2026-01-16 09:29:43.44	141.81	15.46	-41.7	-45.4	12.7	7.73e-04	0	59	0	157286400	54	5685
2026-01-16 09:29:44.45	141.76	15.57	-41.7	-45.5	12.5	1.18e-03	0	59	0	159383552	53	6101
2026-01-16 09:29:45.46	141.71	15.68	-41.8	-45.7	12.3	5.83e-03	0	59	0	161480704	54	5890
2026-01-16 09:29:46.47	141.65	15.79	-41.8	-45.7	12.3	2.98e-04	0	59	0	163577856	54	5909
2026-01-16 09:29:47.48	141.60	15.90	-41.9	-45.8	12.3	1.75e-04	0	60	0	164626432	54	5960
2026-01-16 09:29:48.49	141.55	16.00	-41.9	-45.9	12.2	3.48e-04	0	59	0	166723584	54	5994
2026-01-16 09:29:49.50	141.50	16.12	-41.9	-45.9	12.2	2.08e-04	0	60	0	168820736	54	6006
2026-01-16 09:29:50.51	141.45	16.23	-41.8	-45.7	12.4	2.10e-02	0	60	0	170917888	54	5898
2026-01-16 09:29:51.52	141.39	16.34	-41.8	-45.6	12.4	1.43e-04	0	59	0	173015040	54	5848
2026-01-16 09:29:52.53	141.34	16.45	-41.7	-45.4	12.7	1.01e-04	0	59	0	174063616	54	5677
2026-01-16 09:29:53.54	141.28	16.56	-41.7	-45.4	12.7	9.76e-05	0	59	0	176160768	54	5697
2026-01-16 09:29:54.55	141.23	16.67	-41.7	-45.3	12.8	1.98e-04	0	60	0	178257920	54	5648
2026-01-16 09:29:55.56	141.18	16.79	-41.6	-45.3	12.8	5.29e-04	0	59	0	180355072	53	5980
2026-01-16 09:29:56.57	141.12	16.90	-41.7	-45.4	12.7	2.84e-04	0	60	0	182452224	54	5699
2026-01-16 09:29:57.58	141.06	17.01	-41.8	-45.5	12.6	7.01e-05	0	60	0	183500800	54	5755
2026-01-16 09:29:58.59	141.01	17.13	-41.8	-45.6	12.6	1.64e-04	0	60	0	185597952	54	5795
2026-01-16 09:29:59.60	140.95	17.24	-41.9	-45.7	12.4	1.75e-04	0	60	0	187695104	54	5914
2026-01-16 09:30:00.61	140.89	17.36	-41.9	-45.8	12.3	4.45e-04	0	60	0	189792256	54	5940
2026-01-16 09:30:01.62	140.84	17.47	-41.9	-45.9	12.2	2.67e-04	0	60	0	191889408	54	6057
2026-01-16 09:30:02.63	140.78	17.59	-42.0	-45.9	12.2	2.53e-04	0	60	0	192937984	54	6050
2026-01-16 09:30:03.64	140.72	17.71	-42.0	-45.9	12.2	2.30e-04	0	60	0	195035136	54	6017
2026-01-16 09:30:04.65	140.66	17.83	-41.9	-45.7	12.5	1.65e-04	0	60	0	197132288	54	5911
2026-01-16 09:30:05.65	140.60	17.94	-41.9	-45.7	12.5	3.06e-04	0	60	0	199229440	54	5860
2026-01-16 09:30:06.66	140.54	18.06	-41.8	-45.6	12.6	1.43e-04	0	60	0	201326592	54	5827
2026-01-16 09:30:07.67	140.48	18.18	-41.8	-45.4	12.8	7.93e-05	0	59	0	203423744	54	5709
2026-01-16 09:30:08.69	140.42	18.30	-41.7	-45.3	12.9	2.20e-04	0	60	0	204472320	54	5620
2026-01-16 09:30:09.69	140.36	18.42	-41.7	-45.4	12.9	5.95e-05	0	60	0	206569472	54	5673
2026-01-16 09:30:10.70	140.30	18.54	-41.8	-45.4	12.8	9.53e-05	0	60	0	208666624	54	5717
2026-01-16 09:30:11.71	140.24	18.66	-41.8	-45.5	12.7	5.03e-05	0	60	0	210763776	54	5769
2026-01-16 09:30:12.72	140.17	18.78	-41.8	-45.5	12.7	9.68e-05	0	60	0	212860928	54	5782
2026-01-16 09:30:13.73	140.11	18.91	-41.8	-45.6	12.7	6.56e-05	0	59	0	213909504	54	5801
2026-01-16 09:30:14.74	140.04	19.03	-41.8	-45.6	12.7	8.23e-05	0	60	0	216006656	54	5790
2026-01-16 09:30:15.75	139.98	19.15	-41.8	-45.5	12.7	1.20e-04	0	60	0	218103808	54	5760
2026-01-16 09:30:16.76	139.92	19.28	-41.8	-45.4	12.9	4.80e-05	0	60	0	220200960	54	5697
2026-01-16 09:30:17.77	139.85	19.40	-41.8	-45.4	12.9	4.88e-05	0	60	0	222298112	54	5672
2026-01-16 09:30:18.78	139.78	19.53	-41.7	-45.3	13.0	3.96e-05	0	60	0	223346688	54	5616
2026-01-16 09:30:19.79	139.72	19.65	-41.7	-45.2	13.1	4.27e-05	0	60	0	225443840	54	5574
2026-01-16 09:30:20.80	139.65	19.78	-41.7	-45.2	13.1	4.04e-05	0	60	0	227540992	54	5567
2026-01-16 09:30:21.81	139.58	19.91	-41.7	-45.2	13.1	4.04e-05	0	60	0	229638144	54	5574
2026-01-16 09:30:22.81	139.51	20.03	-41.8	-45.4	12.9	4.04e-05	0	60	0	231735296	54	5664
2026-01-16 09:30:23.82	139.44	20.16	-41.8	-45.5	12.8	4.19e-05	0	60	0	232783872	54	5761
2026-01-16 09:30:24.83	139.37	20.29	-41.9	-45.6	12.7	6.40e-05	0	60	0	234881024	54	5835
2026-01-16 09:30:25.84	139.30	20.42	-41.9	-45.6	12.7	7.40e-05	0	60	0	236978176	54	5833
2026-01-16 09:30:26.85	139.23	20.55	-41.9	-45.5	12.8	5.56e-05	0	60	0	239075328	54	5766
2026-01-16 09:30:27.86	139.16	20.68	-41.8	-45.4	12.9	5.26e-05	0	60	0	241172480	54	5722
2026-01-16 09:30:28.87	139.09	20.81	-41.8	-45.4	13.0	4.88e-05	0	60	0	242221056	54	5675
2026-01-16 09:30:29.88	139.02	20.95	-41.7	-45.2	13.1	3.73e-05	0	60	0	244318208	54	5553
2026-01-16 09:30:30.89	138.94	21.08	-41.7	-45.2	13.1	2.67e-05	0	60	0	246415360	54	5559
2026-01-16 09:30:31.90	138.87	21.21	-41.7	-45.2	13.1	2.74e-05	0	60	0	248512512	54	5569
2026-01-16 09:30:32.91	138.79	21.35	-41.8	-45.3	13.1	3.05e-05	0	60	0	250609664	54	5612
2026-01-16 09:30:33.92	138.72	21.48	-41.8	-45.4	13.0	3.05e-05	0	60	0	251658240	54	5673
2026-01-16 09:30:34.93	138.64	21.62	-41.8	-45.5	12.9	4.04e-05	0	60	0	253755392	54	5732
2026-01-16 09:30:35.94	138.57	21.75	-41.9	-45.5	12.8	3.43e-05	0	60	0	255852544	54	5759
2026-01-16 09:30:36.95	138.49	21.89	-41.9	-45.5	12.8	5.18e-05	0	60	0	257949696	54	5773
2026-01-16 09:30:37.96	138.41	22.03	-41.8	-45.4	13.0	6.63e-05	0	60	0	260046848	54	5694
2026-01-16 09:30:38.97	138.33	22.17	-41.8	-45.4	13.0	3.58e-05	0	60	0	261095424	54	5660
2026-01-16 09:30:39.98	138.25	22.31	-41.8	-45.3	13.1	3.81e-05	0	60	0	263192576	54	5627
2026-01-16 09:30:40.99	138.17	22.45	-41.7	-45.2	13.2	2.13e-05	0	60	0	265289728	54	5565
2026-01-16 09:30:42.00	138.09	22.59	-41.7	-45.2	13.2	2.67e-05	0	60	0	267386880	54	5570
2026-01-16 09:30:43.01	138.01	22.73	-41.9	-45.4	12.9	3.50e-05	0	60	0	269484032	54	5718
2026-01-16 09:30:44.02	137.92	22.87	-42.0	-45.8	12.6	7.01e-05	0	60	0	271581184	54	5924
2026-01-16 09:30:45.03	137.84	23.01	-42.1	-45.9	12.5	9.30e-05	0	60	0	272629760	54	6038
2026-01-16 09:30:46.04	137.76	23.15	-42.1	-46.0	12.4	1.44e-04	0	60	0	274726912	54	6108
2026-01-16 09:30:47.04	137.67	23.30	-42.2	-46.1	12.3	1.75e-04	0	60	0	276824064	54	6153
2026-01-16 09:30:48.06	137.58	23.44	-42.1	-46.0	12.4	1.38e-04	0	60	0	278921216	54	6073
2026-01-16 09:30:49.06	137.50	23.59	-42.1	-45.9	12.5	1.14e-04	0	60	0	281018368	54	5995
2026-01-16 09:30:50.08	137.41	23.73	-42.1	-45.8	12.5	1.19e-04	0	60	0	282066944	54	5966
2026-01-16 09:30:51.08	137.32	23.88	-42.1	-45.9	12.5	1.04e-04	0	60	0	284164096	54	6007
2026-01-16 09:30:52.09	137.23	24.03	-42.2	-46.0	12.4	1.51e-04	0	60	0	286261248	54	6098
2026-01-16 09:30:53.10	137.14	24.18	-42.4	-46.4	12.0	2.02e-04	0	60	0	288358400	55	6015
2026-01-16 09:30:54.11	137.05	24.32	-42.5	-46.6	11.7	4.14e-04	0	60	0	290455552	55	6172
2026-01-16 09:30:55.12	136.96	24.47	-42.5	-46.8	11.6	6.10e-04	0	60	0	291504128	55	6296
2026-01-16 09:30:56.13	136.87	24.63	-42.5	-46.8	11.6	7.18e-04	0	60	0	293601280	55	6298
2026-01-16 09:30:57.14	136.77	24.78	-42.6	-46.9	11.5	7.59e-04	0	60	0	295698432	55	6349
2026-01-16 09:30:58.15	136.68	24.93	-42.5	-46.7	11.7	6.68e-04	0	60	0	297795584	55	6246
2026-01-16 09:30:59.16	136.58	25.08	-42.5	-46.6	11.8	6.35e-04	0	60	0	299892736	55	6195
2026-01-16 09:31:00.17	136.49	25.24	-42.6	-46.8	11.6	6.54e-04	0	60	0	300941312	55	6306
2026-01-16 09:31:01.18	136.39	25.39	-42.6	-46.9	11.4	8.12e-04	0	60	0	303038464	55	6420
2026-01-16 09:31:02.19	136.29	25.55	-42.9	-47.4	11.2	1.25e-03	0	60	0	305135616	56	6357
2026-01-16 09:31:03.20	136.19	25.70	-43.0	-47.6	10.9	1.85e-03	0	60	0	307232768	56	6566
2026-01-16 09:31:04.21	136.09	25.86	-43.1	-47.9	10.6	2.55e-03	0	60	0	309329920	56	6794
2026-01-16 09:31:05.22	135.99	26.02	-43.1	-47.8	10.8	3.22e-03	0	60	0	310378496	56	6670
2026-01-16 09:31:06.22	135.89	26.18	-43.0	-47.7	10.8	2.63e-03	0	60	0	312475648	56	6601
2026-01-16 09:31:07.23	135.78	26.33	-43.1	-47.7	10.8	2.66e-03	0	60	0	314572800	56	6603
2026-01-16 09:31:08.24	135.68	26.50	-43.1	-47.9	10.6	2.97e-03	0	60	0	316669952	56	6762
2026-01-16 09:31:09.25	135.57	26.66	-43.2	-48.0	10.5	3.58e-03	0	61	0	318767104	56	6873
2026-01-16 09:31:10.26	135.47	26.82	-43.2	-48.2	10.3	4.86e-03	0	60	0	319815680	57	6619
2026-01-16 09:31:11.27	135.36	26.98	-43.4	-48.5	10.0	6.58e-03	0	60	0	321912832	57	6877
2026-01-16 09:31:12.28	135.25	27.15	-43.4	-48.7	9.8	9.63e-03	0	60	0	324009984	57	7008
2026-01-16 09:31:13.29	135.14	27.31	-43.5	-48.8	9.7	9.77e-03	0	60	0	326107136	57	7069
2026-01-16 09:31:14.30	135.03	27.48	-43.4	-48.7	9.9	9.92e-03	0	60	0	328204288	57	6974
2026-01-16 09:31:15.31	134.91	27.64	-43.4	-48.6	9.9	8.44e-03	0	60	0	329252864	57	6894
2026-01-16 09:31:16.32	134.80	27.81	-43.4	-48.6	10.0	8.21e-03	0	60	0	331350016	57	6883
2026-01-16 09:31:17.32	134.69	27.98	-43.5	-48.7	9.8	8.79e-03	0	60	0	333447168	57	7022
2026-01-16 09:31:18.34	134.57	28.15	-43.6	-49.0	9.5	9.35e-03	0	60	0	335544320	57	7218
2026-01-16 09:31:19.34	134.45	28.32	-43.6	-49.1	9.4	1.56e-02	0	61	0	337641472	57	7343
2026-01-16 09:31:20.35	134.33	28.49	-43.6	-49.1	9.4	1.77e-02	0	60	0	339738624	57	7361
2026-01-16 09:31:21.36	134.21	28.66	-43.6	-49.3	9.2	1.62e-02	0	60	0	340787200	57	7460
2026-01-16 09:31:22.37	134.09	28.83	-43.6	-49.0	9.6	1.49e-02	0	60	0	342884352	57	7217
2026-01-16 09:31:23.39	133.97	29.01	-43.5	-48.8	9.7	1.15e-02	0	60	0	344981504	57	7096
2026-01-16 09:31:24.39	133.84	29.18	-43.5	-48.7	9.8	1.04e-02	0	60	0	347078656	57	7031
2026-01-16 09:31:25.40	133.72	29.36	-43.5	-48.8	9.7	1.13e-02	0	60	0	349175808	57	7046
2026-01-16 09:31:26.41	133.59	29.53	-43.5	-48.8	9.7	1.11e-02	0	60	0	350224384	57	7078
2026-01-16 09:31:27.42	133.46	29.71	-43.6	-48.9	9.6	1.32e-02	0	60	0	352321536	57	7197
2026-01-16 09:31:28.43	133.33	29.89	-43.5	-48.8	9.7	1.22e-02	0	60	0	354418688	57	7085
2026-01-16 09:31:29.44	133.20	30.07	-43.5	-48.8	9.7	1.16e-02	0	60	0	356515840	57	7060
2026-01-16 09:31:30.45	133.07	30.25	-43.5	-48.6	10.0	8.73e-03	0	61	0	357564416	57	6939
2026-01-16 09:31:31.46	132.93	30.43	-43.5	-48.6	10.0	6.40e-03	0	60	0	359661568	57	6922
2026-01-16 09:31:32.47	132.80	30.61	-43.4	-48.4	10.1	6.77e-03	0	60	0	361758720	57	6787
2026-01-16 09:31:33.48	132.66	30.80	-43.3	-48.3	10.3	5.48e-03	0	60	0	363855872	57	6692
2026-01-16 09:31:34.49	132.52	30.98	-43.3	-48.3	10.3	4.63e-03	0	60	0	365953024	57	6661
2026-01-16 09:31:35.50	132.38	31.16	-43.4	-48.5	10.1	6.22e-03	0	60	0	368050176	57	6841
2026-01-16 09:31:36.51	132.24	31.35	-43.3	-48.3	10.3	6.75e-03	0	60	0	369098752	57	6697
2026-01-16 09:31:37.51	132.09	31.54	-43.4	-48.4	10.2	6.26e-03	0	60	0	371195904	57	6762
2026-01-16 09:31:38.52	131.95	31.72	-43.4	-48.3	10.3	5.41e-03	0	60	0	373293056	57	6716
2026-01-16 09:31:39.53	131.80	31.91	-43.3	-48.2	10.4	3.90e-03	0	60	0	375390208	57	6612
2026-01-16 09:31:40.54	131.65	32.10	-43.3	-48.3	10.3	4.52e-03	0	60	0	377487360	57	6679
2026-01-16 09:31:41.55	131.50	32.29	-43.4	-48.3	10.3	4.76e-03	0	60	0	378535936	57	6713
2026-01-16 09:31:42.56	131.35	32.49	-43.4	-48.4	10.2	4.85e-03	0	60	0	380633088	57	6736
2026-01-16 09:31:43.57	131.19	32.68	-43.3	-48.3	10.4	5.07e-03	0	60	0	382730240	57	6647
2026-01-16 09:31:44.58	131.04	32.87	-43.3	-48.1	10.5	5.19e-03	0	61	0	384827392	57	6557
2026-01-16 09:31:45.59	130.88	33.07	-43.3	-48.1	10.5	4.56e-03	0	61	0	386924544	57	6556
2026-01-16 09:31:46.60	130.72	33.26	-43.3	-48.1	10.6	4.14e-03	0	60	0	387973120	57	6516
2026-01-16 09:31:47.61	130.55	33.46	-43.3	-48.1	10.5	3.45e-03	0	60	0	390070272	57	6558
2026-01-16 09:31:48.62	130.39	33.66	-43.3	-48.2	10.4	3.79e-03	0	60	0	392167424	57	6646
2026-01-16 09:31:49.63	130.22	33.86	-43.4	-48.3	10.3	4.40e-03	0	60	0	394264576	57	6721
2026-01-16 09:31:50.64	130.05	34.06	-43.3	-48.2	10.5	4.56e-03	0	60	0	396361728	57	6607
2026-01-16 09:31:51.64	129.89	34.26	-43.3	-48.2	10.5	4.20e-03	0	61	0	397410304	57	6613
2026-01-16 09:31:52.65	129.71	34.46	-43.4	-48.2	10.5	4.63e-03	0	60	0	399507456	57	6627
2026-01-16 09:31:53.66	129.54	34.66	-43.4	-48.3	10.3	5.14e-03	0	60	0	401604608	57	6723
2026-01-16 09:31:54.67	129.36	34.87	-43.5	-48.7	10.0	7.75e-03	0	61	0	403701760	57	6984
2026-01-16 09:31:55.68	129.18	35.07	-43.7	-49.1	9.6	1.05e-02	0	61	0	405798912	57	7314
2026-01-16 09:31:56.69	129.00	35.28	-43.7	-49.3	9.3	1.58e-02	0	61	0	406847488	58	7090
2026-01-16 09:31:57.70	128.81	35.49	-43.8	-49.3	9.3	1.82e-02	0	60	0	408944640	58	7120
2026-01-16 09:31:58.71	128.63	35.69	-43.8	-49.5	9.1	2.03e-02	0	61	0	411041792	58	7215
2026-01-16 09:31:59.72	128.44	35.90	-43.8	-49.5	9.1	2.17e-02	0	60	0	413138944	58	7226
2026-01-16 09:32:00.73	128.25	36.11	-43.8	-49.6	9.1	2.26e-02	0	61	0	415236096	58	7327
2026-01-16 09:32:01.74	128.05	36.33	-43.9	-49.8	8.8	2.88e-02	0	61	0	416284672	58	7536
2026-01-16 09:32:02.75	127.86	36.54	-43.9	-49.9	8.8	3.45e-02	0	61	0	418381824	58	7551
2026-01-16 09:32:03.76	127.66	36.75	-43.9	-49.7	8.9	2.89e-02	0	61	0	420478976	58	7452
2026-01-16 09:32:04.77	127.45	36.96	-43.9	-49.6	9.0	2.53e-02	0	61	0	422576128	58	7369
2026-01-16 09:32:05.78	127.25	37.18	-43.9	-49.9	8.8	2.72e-02	0	61	0	424673280	58	7554
2026-01-16 09:32:06.79	127.04	37.40	-43.9	-49.9	8.8	3.48e-02	0	61	0	425721856	58	7568
2026-01-16 09:32:07.79	126.83	37.61	-44.0	-50.0	8.6	3.31e-02	0	61	0	427819008	58	7639
2026-01-16 09:32:08.80	126.62	37.83	-43.9	-49.9	8.8	3.53e-02	0	61	0	429916160	58	7554
2026-01-16 09:32:09.82	126.40	38.05	-43.8	-49.5	9.2	2.57e-02	0	61	0	432013312	58	7214
2026-01-16 09:32:10.83	126.18	38.27	-43.8	-49.3	9.3	1.68e-02	0	61	0	434110464	58	7103
2026-01-16 09:32:11.84	125.96	38.49	-43.9	-49.5	9.1	2.19e-02	0	60	0	436207616	58	7286
2026-01-16 09:32:12.85	125.74	38.71	-43.9	-49.6	9.0	2.11e-02	0	61	0	437256192	58	7321
2026-01-16 09:32:13.86	125.51	38.94	-44.0	-50.1	8.5	3.15e-02	0	61	0	439353344	58	7790
2026-01-16 09:32:14.87	125.28	39.16	-44.0	-50.1	8.6	3.98e-02	0	60	0	441450496	58	7734
2026-01-16 09:32:15.88	125.04	39.38	-44.0	-50.0	8.7	3.60e-02	0	61	0	443547648	58	7632
2026-01-16 09:32:16.88	124.81	39.61	-44.0	-50.1	8.5	3.73e-02	0	61	0	445644800	58	7775
2026-01-16 09:32:17.89	124.57	39.83	-44.1	-50.4	8.2	5.30e-02	0	61	0	446693376	58	8076
2026-01-16 09:32:18.90	124.32	40.06	-44.1	-50.3	8.3	5.69e-02	0	61	0	448790528	58	7934
2026-01-16 09:32:19.91	124.08	40.29	-44.1	-50.4	8.2	4.60e-02	0	61	0	450887680	58	8059
2026-01-16 09:32:20.92	123.82	40.52	-44.2	-50.6	8.0	6.38e-02	0	61	0	452984832	58	8205
2026-01-16 09:32:21.93	123.57	40.75	-44.2	-50.6	8.0	7.22e-02	0	61	0	455081984	59	7798
2026-01-16 09:32:22.94	123.31	40.98	-44.2	-50.6	8.0	7.49e-02	0	61	0	456130560	59	7772
2026-01-16 09:32:23.95	123.05	41.21	-44.2	-50.7	7.9	7.22e-02	0	61	0	458227712	59	7867
2026-01-16 09:32:24.96	122.78	41.44	-44.1	-50.5	8.1	6.43e-02	0	61	0	460324864	59	7717
2026-01-16 09:32:25.97	122.51	41.68	-44.1	-50.3	8.3	5.84e-02	0	61	0	462422016	59	7478
2026-01-16 09:32:26.98	122.24	41.91	-44.0	-50.1	8.6	4.07e-02	0	61	0	464519168	59	7315
2026-01-16 09:32:27.99	121.96	42.14	-43.8	-49.3	9.3	2.56e-02	0	61	0	465567744	59	6719
2026-01-16 09:32:29.00	121.67	42.38	-43.6	-48.8	9.9	1.02e-02	0	61	0	467664896	59	6296
2026-01-16 09:32:30.01	121.39	42.61	-43.5	-48.4	10.3	5.55e-03	0	61	0	469762048	58	6406
2026-01-16 09:32:31.01	121.10	42.85	-43.4	-48.2	10.5	4.17e-03	0	61	0	471859200	58	6244
2026-01-16 09:32:32.02	120.80	43.09	-43.4	-48.2	10.5	3.88e-03	0	61	0	473956352	58	6269
2026-01-16 09:32:33.04	120.50	43.33	-43.4	-48.3	10.4	4.55e-03	0	61	0	475004928	58	6276
2026-01-16 09:32:34.04	120.20	43.56	-43.3	-48.1	10.7	3.55e-03	0	61	0	477102080	58	6145
2026-01-16 09:32:35.05	119.89	43.80	-43.3	-47.9	10.8	2.89e-03	0	61	0	479199232	58	6008
2026-01-16 09:32:36.06	119.58	44.04	-43.3	-48.0	10.8	2.11e-03	0	61	0	481296384	58	6062
2026-01-16 09:32:37.07	119.26	44.28	-43.2	-47.7	11.0	2.09e-03	0	61	0	483393536	58	5907
2026-01-16 09:32:38.08	118.94	44.52	-43.2	-47.8	11.0	1.85e-03	0	61	0	484442112	58	5950
2026-01-16 09:32:39.09	118.61	44.76	-43.4	-48.1	10.7	2.70e-03	0	61	0	486539264	58	6177
2026-01-16 09:32:40.10	118.28	45.00	-43.4	-48.3	10.4	3.84e-03	0	61	0	488636416	58	6337
2026-01-16 09:32:41.11	117.94	45.24	-43.5	-48.6	10.1	5.14e-03	0	61	0	490733568	58	6523
2026-01-16 09:32:42.12	117.59	45.49	-43.5	-48.6	10.1	6.49e-03	0	61	0	492830720	58	6542
2026-01-16 09:32:43.13	117.25	45.73	-43.6	-48.8	9.9	7.76e-03	0	61	0	493879296	58	6701
2026-01-16 09:32:44.14	116.89	45.97	-43.6	-48.8	10.0	8.05e-03	0	61	0	495976448	58	6683
2026-01-16 09:32:45.15	116.53	46.21	-43.7	-49.1	9.6	8.89e-03	0	61	0	498073600	58	6957
2026-01-16 09:32:46.16	116.17	46.46	-43.6	-48.8	10.0	9.48e-03	0	61	0	500170752	58	6652
2026-01-16 09:32:47.17	115.80	46.70	-43.5	-48.5	10.2	5.75e-03	0	61	0	502267904	58	6424
2026-01-16 09:32:48.18	115.42	46.94	-43.4	-48.3	10.5	4.17e-03	0	61	0	504365056	58	6309
2026-01-16 09:32:49.19	115.04	47.19	-43.5	-48.6	10.2	4.55e-03	0	61	0	505413632	58	6509
2026-01-16 09:32:50.20	114.65	47.43	-42.8	-48.7	9.9	1.65e-02	0	61	0	507510784	57	7023
2026-01-16 09:32:51.21	114.25	47.67	-41.2	-48.3	10.1	1.69e-02	0	61	0	509607936	54	7914
2026-01-16 09:32:52.21	113.85	47.91	-42.0	-48.4	10.1	1.56e-02	0	61	0	511705088	55	7607
2026-01-16 09:32:53.22	113.45	48.15	-41.6	-48.3	10.1	1.46e-02	0	61	0	513802240	55	7508
2026-01-16 09:32:54.23	113.03	48.40	-41.1	-48.9	9.5	2.16e-02	0	61	0	514850816	54	8467
2026-01-16 09:32:55.24	112.61	48.64	-40.6	-49.0	9.3	2.48e-02	0	61	0	516947968	53	9136
2026-01-16 09:32:56.25	112.19	48.88	-41.0	-48.9	9.4	2.53e-02	0	61	0	519045120	53	9069
2026-01-16 09:32:57.26	111.75	49.12	-40.9	-48.8	9.5	2.09e-02	0	61	0	521142272	53	8932
2026-01-16 09:32:58.27	111.31	49.36	-41.2	-49.1	9.2	2.36e-02	0	61	0	523239424	53	9257
2026-01-16 09:32:59.28	110.86	49.60	-42.0	-49.3	9.1	2.85e-02	0	61	0	524288000	55	8448
2026-01-16 09:33:00.29	110.41	49.84	-42.6	-48.8	9.6	2.21e-02	0	61	0	526385152	55	7921
2026-01-16 09:33:01.30	109.94	50.08	-43.6	-48.8	9.9	1.03e-02	0	61	0	528482304	57	7106
2026-01-16 09:33:02.31	109.48	50.32	-43.4	-48.3	10.5	4.59e-03	0	61	0	530579456	57	6682
2026-01-16 09:33:03.32	109.00	50.55	-43.3	-47.8	11.0	2.45e-03	0	61	0	532676608	57	6330
2026-01-16 09:33:04.33	108.51	50.79	-43.2	-47.6	11.2	1.70e-03	0	61	0	533725184	57	6193
2026-01-16 09:33:05.34	108.02	51.03	-43.2	-47.6	11.2	1.45e-03	0	61	0	535822336	57	6189
2026-01-16 09:33:06.35	107.52	51.26	-43.0	-47.3	11.6	1.12e-03	0	61	0	537919488	57	5938
2026-01-16 09:33:07.36	107.01	51.49	-42.9	-46.9	12.0	4.73e-04	0	61	0	540016640	57	5697
2026-01-16 09:33:08.37	106.50	51.72	-42.7	-46.6	12.3	2.39e-04	0	61	0	542113792	57	5513
2026-01-16 09:33:09.37	105.98	51.95	-42.8	-46.9	12.0	3.30e-04	0	61	0	543162368	57	5672
2026-01-16 09:33:10.39	105.44	52.18	-42.8	-46.9	12.0	3.64e-04	0	61	0	545259520	57	5663
2026-01-16 09:33:11.40	104.90	52.41	-42.7	-46.7	12.2	3.71e-04	0	61	0	547356672	57	5547
2026-01-16 09:33:12.41	104.35	52.64	-42.4	-45.9	12.9	6.94e-05	0	61	0	549453824	56	5395
2026-01-16 09:33:13.42	103.79	52.86	-42.1	-45.4	13.5	1.14e-05	0	61	0	551550976	56	5093
2026-01-16 09:33:14.43	103.23	53.08	-41.6	-44.8	14.1	1.06e-05	0	61	0	552599552	55	4988
2026-01-16 09:33:15.44	102.65	53.30	-41.5	-44.5	14.3	7.00e-07	0	61	0	554696704	54	5134
2026-01-16 09:33:16.44	102.08	53.52	-41.4	-44.4	14.4	1.50e-06	0	61	0	556793856	54	5074
2026-01-16 09:33:17.45	101.48	53.73	-41.5	-44.5	14.3	7.00e-07	0	61	0	558891008	54	5150
2026-01-16 09:33:18.46	100.88	53.95	-41.8	-45.1	13.7	2.20e-06	0	61	0	560988160	54	5497
2026-01-16 09:33:19.47	100.27	54.16	-41.8	-45.1	13.7	1.50e-06	0	61	0	562036736	54	5487
2026-01-16 09:33:20.48	99.65	54.37	-41.9	-45.2	13.6	2.20e-06	0	61	0	564133888	54	5586
2026-01-16 09:33:21.49	99.03	54.57	-41.9	-45.2	13.6	1.14e-05	0	61	0	566231040	54	5567
2026-01-16 09:33:22.50	98.39	54.78	-41.9	-45.2	13.7	7.60e-06	0	61	0	568328192	54	5542
2026-01-16 09:33:23.51	97.74	54.98	-42.1	-45.5	13.4	1.06e-05	0	61	0	570425344	54	5744
2026-01-16 09:33:24.52	97.09	55.18	-42.1	-45.6	13.2	1.67e-05	0	61	0	572522496	54	5850
2026-01-16 09:33:25.53	96.42	55.37	-42.2	-45.7	13.1	2.21e-05	0	61	0	573571072	55	5591
2026-01-16 09:33:26.54	95.75	55.56	-42.5	-46.2	12.6	4.65e-05	0	61	0	575668224	55	5895
2026-01-16 09:33:27.55	95.07	55.75	-42.9	-47.1	12.0	2.13e-04	0	61	0	577765376	56	6135
2026-01-16 09:33:28.56	94.37	55.94	-42.9	-47.0	12.0	3.33e-04	0	61	0	579862528	56	6111
2026-01-16 09:33:29.57	93.67	56.12	-42.8	-46.8	12.1	2.45e-04	0	61	0	581959680	56	5970
2026-01-16 09:33:30.58	92.96	56.29	-42.9	-46.9	12.1	2.30e-04	0	61	0	583008256	56	6024
2026-01-16 09:33:31.59	92.24	56.47	-43.0	-47.1	11.9	4.23e-04	0	61	0	585105408	56	6164
2026-01-16 09:33:32.59	91.52	56.64	-43.0	-47.0	12.0	3.83e-04	0	61	0	587202560	56	6120
2026-01-16 09:33:33.60	90.78	56.80	-43.1	-47.3	11.6	4.53e-04	0	61	0	589299712	56	6305
2026-01-16 09:33:34.61	90.04	56.96	-43.1	-47.3	11.6	7.56e-04	0	61	0	591396864	56	6320
2026-01-16 09:33:35.62	89.28	57.12	-43.3	-47.8	11.1	1.15e-03	0	61	0	592445440	57	6330
2026-01-16 09:33:36.63	88.52	57.27	-43.5	-48.2	10.7	2.50e-03	0	61	0	594542592	57	6612
2026-01-16 09:33:37.64	87.75	57.42	-43.5	-48.2	10.7	3.13e-03	0	61	0	596639744	57	6623
2026-01-16 09:33:38.65	86.97	57.57	-43.6	-48.5	10.5	3.72e-03	0	61	0	598736896	57	6802
2026-01-16 09:33:39.66	86.18	57.71	-43.6	-48.4	10.5	3.97e-03	0	61	0	600834048	57	6799
2026-01-16 09:33:40.67	85.38	57.84	-43.6	-48.4	10.5	4.67e-03	0	61	0	601882624	57	6781
2026-01-16 09:33:41.68	84.58	57.97	-43.5	-48.4	10.5	3.92e-03	0	61	0	603979776	57	6729
2026-01-16 09:33:42.69	83.77	58.09	-43.3	-47.8	11.1	2.64e-03	0	61	0	606076928	57	6301
2026-01-16 09:33:43.70	82.95	58.21	-43.0	-47.2	11.8	1.02e-03	0	61	0	608174080	57	5890
2026-01-16 09:33:44.71	82.12	58.33	-43.1	-47.2	11.8	5.07e-04	0	61	0	610271232	57	5909
2026-01-16 09:33:45.72	81.29	58.43	-43.3	-47.7	11.3	8.72e-04	0	61	0	611319808	57	6229
2026-01-16 09:33:46.73	80.45	58.54	-43.3	-47.7	11.3	1.24e-03	0	61	0	613416960	57	6251
2026-01-16 09:33:47.74	79.60	58.63	-43.3	-47.7	11.3	1.58e-03	0	61	0	615514112	57	6224
2026-01-16 09:33:48.75	78.75	58.73	-43.1	-47.3	11.7	7.44e-04	0	61	0	617611264	57	5984
2026-01-16 09:33:49.76	77.89	58.81	-43.1	-47.2	11.7	4.81e-04	0	61	0	619708416	57	5896
2026-01-16 09:33:50.77	77.03	58.89	-43.0	-47.1	11.9	3.80e-04	0	61	0	620756992	57	5793
2026-01-16 09:33:51.78	76.16	58.97	-43.0	-47.2	11.8	4.52e-04	0	61	0	622854144	57	5869
2026-01-16 09:33:52.79	75.29	59.03	-42.9	-46.8	12.1	3.66e-04	0	61	0	624951296	57	5652
2026-01-16 09:33:53.80	74.41	59.09	-42.7	-46.5	12.5	1.91e-04	0	61	0	627048448	57	5461
2026-01-16 09:33:54.81	73.53	59.15	-42.7	-46.5	12.5	1.01e-04	0	61	0	629145600	57	5411
2026-01-16 09:33:55.82	72.64	59.20	-42.5	-46.1	12.9	4.65e-05	0	61	0	630194176	57	5176
2026-01-16 09:33:56.83	71.75	59.24	-42.4	-45.9	13.2	3.58e-05	0	61	0	632291328	56	5373
2026-01-16 09:33:57.84	70.86	59.28	-42.2	-45.6	13.4	1.06e-05	0	61	0	634388480	56	5169
2026-01-16 09:33:58.85	69.97	59.31	-42.1	-45.3	13.7	6.80e-06	0	61	0	636485632	56	5016
2026-01-16 09:33:59.86	69.08	59.33	-42.1	-45.4	13.6	8.30e-06	0	61	0	638582784	56	5061
2026-01-16 09:34:00.87	68.18	59.35	-42.1	-45.3	13.6	6.10e-06	0	61	0	640679936	56	5041
2026-01-16 09:34:01.88	67.28	59.36	-42.0	-45.2	13.8	6.10e-06	0	61	0	641728512	56	4963
2026-01-16 09:34:02.89	66.38	59.37	-41.7	-44.7	14.1	4.50e-06	0	61	0	643825664	55	4980
2026-01-16 09:34:03.90	65.49	59.37	-41.6	-44.6	14.2	2.20e-06	0	61	0	645922816	55	4886
2026-01-16 09:34:04.91	64.59	59.36	-41.6	-44.6	14.2	7.00e-07	0	61	0	648019968	55	4926
2026-01-16 09:34:05.92	63.69	59.34	-41.7	-44.7	14.0	7.00e-07	0	61	0	650117120	55	4977
2026-01-16 09:34:06.93	62.80	59.32	-41.5	-44.5	14.2	3.00e-06	0	61	0	651165696	55	4855
2026-01-16 09:34:07.94	61.90	59.29	-41.5	-44.5	14.3	1.50e-06	0	61	0	653262848	55	4816
2026-01-16 09:34:08.95	61.01	59.26	-41.5	-44.5	14.4	0.00e+00	0	61	0	655360000	54	5104
2026-01-16 09:34:09.96	60.12	59.22	-41.4	-44.2	14.6	0.00e+00	0	61	0	657457152	54	4972
2026-01-16 09:34:10.97	59.24	59.17	-41.3	-44.2	14.7	0.00e+00	0	61	0	659554304	54	4934
2026-01-16 09:34:11.98	58.35	59.12	-41.4	-44.2	14.6	0.00e+00	0	61	0	660602880	54	4967
2026-01-16 09:34:12.99	57.48	59.06	-41.4	-44.3	14.4	0.00e+00	0	61	0	662700032	54	5041
2026-01-16 09:34:14.00	56.60	59.00	-41.4	-44.3	14.4	0.00e+00	0	61	0	664797184	54	5041
2026-01-16 09:34:15.00	55.74	58.93	-41.5	-44.4	14.4	7.00e-07	0	61	0	666894336	54	5070
2026-01-16 09:34:16.01	54.87	58.85	-41.6	-44.6	14.1	1.50e-06	0	61	0	668991488	54	5201
2026-01-16 09:34:17.02	54.01	58.77	-41.6	-44.6	14.1	1.50e-06	0	61	0	670040064	54	5198
2026-01-16 09:34:18.03	53.16	58.68	-41.8	-45.0	13.8	5.30e-06	0	61	0	672137216	54	5410
2026-01-16 09:34:19.04	52.31	58.59	-42.0	-45.3	13.5	9.10e-06	0	61	0	674234368	54	5593
2026-01-16 09:34:20.05	51.47	58.49	-42.0	-45.4	13.3	1.67e-05	0	61	0	676331520	54	5678
2026-01-16 09:34:21.06	50.63	58.38	-42.1	-45.5	13.2	1.29e-05	0	61	0	678428672	54	5771
2026-01-16 09:34:22.07	49.80	58.27	-42.1	-45.4	13.3	2.13e-05	0	61	0	679477248	54	5715
2026-01-16 09:34:23.08	48.98	58.15	-42.1	-45.6	13.2	2.28e-05	0	61	0	681574400	54	5814
2026-01-16 09:34:24.09	48.17	58.03	-42.3	-45.8	12.8	3.96e-05	0	61	0	683671552	55	5642
2026-01-16 09:34:25.10	47.36	57.91	-42.4	-46.1	12.6	6.40e-05	0	61	0	685768704	55	5793
2026-01-16 09:34:26.10	46.57	57.77	-42.4	-46.0	12.7	7.09e-05	0	61	0	687865856	55	5773
2026-01-16 09:34:27.11	45.78	57.64	-42.6	-46.5	12.2	1.92e-04	0	61	0	688914432	55	6113
2026-01-16 09:34:28.12	44.99	57.50	-42.6	-46.5	12.1	2.72e-04	0	61	0	691011584	55	6090
2026-01-16 09:34:29.13	44.22	57.35	-42.9	-47.0	11.7	3.91e-04	0	61	0	693108736	56	6123
2026-01-16 09:34:30.14	43.45	57.20	-42.8	-46.9	11.9	5.03e-04	0	61	0	695205888	56	6039
2026-01-16 09:34:31.15	42.69	57.05	-42.7	-46.6	12.3	2.30e-04	0	61	0	697303040	56	5798
2026-01-16 09:34:32.16	41.95	56.89	-42.7	-46.6	12.3	2.04e-04	0	61	0	698351616	56	5807
2026-01-16 09:34:33.17	41.20	56.72	-42.8	-46.7	12.1	2.59e-04	0	61	0	700448768	56	5906
2026-01-16 09:34:34.18	40.47	56.55	-42.6	-46.4	12.3	1.89e-04	0	61	0	702545920	56	5695
2026-01-16 09:34:35.19	39.75	56.38	-42.6	-46.3	12.5	1.72e-04	0	61	0	704643072	56	5646
2026-01-16 09:34:36.20	39.04	56.21	-42.5	-46.3	12.5	1.18e-04	0	61	0	706740224	56	5596
2026-01-16 09:34:37.21	38.33	56.03	-42.4	-46.0	12.8	9.00e-05	0	61	0	708837376	56	5431
2026-01-16 09:34:38.22	37.64	55.85	-42.2	-45.6	13.2	4.73e-05	0	61	0	709885952	56	5193
2026-01-16 09:34:39.23	36.95	55.66	-42.1	-45.5	13.3	1.75e-05	0	61	0	711983104	56	5151
2026-01-16 09:34:40.24	36.27	55.47	-41.7	-44.8	13.8	6.10e-06	0	61	0	714080256	55	5031
2026-01-16 09:34:41.25	35.61	55.28	-41.7	-44.9	13.8	3.00e-06	0	61	0	716177408	55	5078
2026-01-16 09:34:42.26	34.95	55.08	-41.9	-45.2	13.5	5.30e-06	0	61	0	718274560	55	5227
2026-01-16 09:34:43.27	34.30	54.88	-41.8	-45.1	13.5	8.30e-06	0	61	0	719323136	55	5175
2026-01-16 09:34:44.27	33.67	54.68	-41.7	-44.9	13.8	5.30e-06	0	61	0	721420288	55	5051
2026-01-16 09:34:45.28	33.03	54.48	-41.8	-45.1	13.6	6.80e-06	0	61	0	723517440	55	5180
2026-01-16 09:34:46.29	32.41	54.27	-41.9	-45.1	13.4	1.14e-05	0	61	0	725614592	55	5209
2026-01-16 09:34:47.30	31.80	54.06	-41.8	-45.1	13.6	8.30e-06	0	61	0	727711744	55	5177
2026-01-16 09:34:48.31	31.19	53.85	-41.9	-45.2	13.5	7.60e-06	0	61	0	728760320	55	5266
2026-01-16 09:34:49.32	30.60	53.64	-42.1	-45.5	13.2	1.83e-05	0	61	0	730857472	55	5444
2026-01-16 09:34:50.33	30.01	53.42	-42.1	-45.6	13.0	2.51e-05	0	61	0	732954624	55	5496
2026-01-16 09:34:51.34	29.44	53.20	-42.2	-45.8	12.9	6.17e-05	0	61	0	735051776	55	5604
2026-01-16 09:34:52.35	28.87	52.98	-42.4	-46.2	12.4	1.12e-04	0	61	0	737148928	55	5872
2026-01-16 09:34:53.36	28.31	52.76	-42.7	-46.7	11.8	3.78e-04	0	61	0	738197504	55	6261
2026-01-16 09:34:54.37	27.75	52.54	-42.8	-46.7	12.0	5.35e-04	0	61	0	740294656	56	5899
2026-01-16 09:34:55.38	27.21	52.31	-42.7	-46.6	12.2	2.29e-04	0	61	0	742391808	56	5800
2026-01-16 09:34:56.39	26.68	52.08	-42.8	-46.8	11.9	3.34e-04	0	61	0	744488960	56	5959
2026-01-16 09:34:57.40	26.15	51.85	-43.0	-47.3	11.5	5.76e-04	0	61	0	746586112	56	6281
2026-01-16 09:34:58.41	25.63	51.62	-43.2	-47.7	11.0	1.65e-03	0	61	0	747634688	57	6247
2026-01-16 09:34:59.42	25.12	51.39	-43.2	-47.8	10.9	2.17e-03	0	61	0	749731840	57	6275
2026-01-16 09:35:00.42	24.62	51.16	-43.1	-47.3	11.4	1.20e-03	0	61	0	751828992	57	5990
2026-01-16 09:35:01.43	24.13	50.93	-43.2	-47.7	11.0	1.37e-03	0	61	0	753926144	57	6266
2026-01-16 09:35:02.44	23.64	50.69	-43.3	-48.0	10.6	2.82e-03	0	61	0	756023296	57	6475
2026-01-16 09:35:03.45	23.16	50.46	-43.6	-48.7	9.9	6.97e-03	0	61	0	757071872	57	7007
2026-01-16 09:35:04.46	22.69	50.22	-43.8	-49.2	9.5	1.16e-02	0	61	0	759169024	58	7016
2026-01-16 09:35:05.47	22.22	49.98	-43.8	-49.3	9.3	1.69e-02	0	61	0	761266176	58	7044
2026-01-16 09:35:06.48	21.76	49.75	-43.8	-49.1	9.5	1.55e-02	0	61	0	763363328	58	6899
2026-01-16 09:35:07.49	21.31	49.51	-43.8	-49.2	9.4	1.57e-02	0	61	0	765460480	58	7006
2026-01-16 09:35:08.50	20.87	49.27	-43.7	-49.0	9.6	1.48e-02	0	61	0	766509056	58	6835
2026-01-16 09:35:09.51	20.43	49.03	-43.5	-49.3	9.2	1.83e-02	0	61	0	768606208	58	7101
2026-01-16 09:35:10.52	20.00	48.79	-43.9	-49.6	8.9	2.53e-02	0	61	0	770703360	58	7362
2026-01-16 09:35:11.53	19.58	48.55	-44.1	-50.2	8.4	3.69e-02	0	61	0	772800512	58	7840
2026-01-16 09:35:12.54	19.17	48.30	-44.1	-50.4	8.2	5.13e-02	0	62	0	774897664	58	8022
2026-01-16 09:35:13.55	18.76	48.06	-44.1	-50.4	8.1	5.97e-02	0	61	0	776994816	58	8063
2026-01-16 09:35:14.56	18.35	47.82	-44.2	-50.6	8.0	6.53e-02	0	61	0	778043392	58	8221
2026-01-16 09:35:15.57	17.96	47.58	-44.2	-50.6	8.0	6.83e-02	0	61	0	780140544	58	8218
2026-01-16 09:35:16.58	17.56	47.34	-43.8	-49.6	8.9	4.08e-02	0	61	0	782237696	58	7322
2026-01-16 09:35:17.59	17.18	47.10	-43.7	-49.0	9.5	1.93e-02	0	61	0	784334848	58	6850
2026-01-16 09:35:18.60	16.80	46.85	-43.8	-49.4	9.2	1.72e-02	0	61	0	786432000	58	7141
2026-01-16 09:35:19.61	16.43	46.61	-43.8	-49.4	9.1	2.10e-02	0	61	0	787480576	58	7150
2026-01-16 09:35:20.62	16.06	46.37	-43.6	-49.0	9.5	1.74e-02	0	61	0	789577728	58	6873
2026-01-16 09:35:21.63	15.70	46.13	-43.6	-48.7	9.8	1.20e-02	0	61	0	791674880	58	6644
2026-01-16 09:35:22.64	15.34	45.89	-43.6	-48.7	10.0	8.22e-03	0	61	0	793772032	58	6577
2026-01-16 09:35:23.65	14.99	45.65	-43.6	-48.7	9.9	8.43e-03	0	61	0	795869184	58	6574
2026-01-16 09:35:24.66	14.65	45.40	-43.5	-48.4	10.2	7.63e-03	0	61	0	796917760	58	6380
2026-01-16 09:35:25.67	14.31	45.16	-43.4	-48.2	10.4	4.43e-03	0	61	0	799014912	58	6253
2026-01-16 09:35:26.68	13.97	44.92	-43.5	-48.5	10.1	5.92e-03	0	61	0	801112064	58	6483
2026-01-16 09:35:27.70	13.64	44.68	-43.6	-48.7	9.8	7.86e-03	0	61	0	803209216	58	6645
2026-01-16 09:35:28.70	13.32	44.44	-43.4	-48.3	10.3	5.76e-03	0	61	0	805306368	58	6307
2026-01-16 09:35:29.71	13.00	44.20	-43.2	-47.8	10.8	3.26e-03	0	61	0	806354944	57	6332
2026-01-16 09:35:30.72	12.68	43.97	-43.1	-47.6	11.0	2.24e-03	0	61	0	808452096	57	6171
2026-01-16 09:35:31.73	12.37	43.73	-43.1	-47.7	10.9	1.71e-03	0	61	0	810549248	57	6269
2026-01-16 09:35:32.74	12.07	43.49	-43.2	-47.9	10.7	2.59e-03	0	61	0	812646400	57	6364
2026-01-16 09:35:33.75	11.77	43.25	-43.4	-48.3	10.3	4.04e-03	0	61	0	814743552	57	6689
2026-01-16 09:35:34.76	11.47	43.02	-43.5	-48.7	9.8	5.98e-03	0	61	0	815792128	57	7001
2026-01-16 09:35:35.76	11.18	42.78	-43.6	-48.9	9.7	1.02e-02	0	61	0	817889280	57	7126
2026-01-16 09:35:36.77	10.89	42.55	-43.4	-48.3	10.2	8.33e-03	0	61	0	819986432	57	6723
2026-01-16 09:35:37.78	10.61	42.31	-43.4	-48.3	10.2	5.97e-03	0	61	0	822083584	57	6710
2026-01-16 09:35:38.79	10.33	42.08	-43.5	-48.5	10.0	6.39e-03	0	61	0	824180736	57	6824
2026-01-16 09:35:39.81	10.05	41.84	-43.7	-49.2	9.3	1.28e-02	0	61	0	825229312	57	7417
2026-01-16 09:35:40.81	9.78	41.61	-43.9	-49.7	8.8	2.18e-02	0	61	0	827326464	58	7393
2026-01-16 09:35:41.82	9.52	41.38	-43.9	-49.9	8.5	3.77e-02	0	61	0	829423616	58	7614
2026-01-16 09:35:42.83	9.25	41.15	-44.0	-50.1	8.4	3.62e-02	0	61	0	831520768	58	7731
2026-01-16 09:35:43.84	8.99	40.92	-44.1	-50.3	8.2	4.89e-02	0	61	0	833617920	58	7963
2026-01-16 09:35:44.85	8.74	40.69	-44.1	-50.3	8.1	6.16e-02	0	61	0	834666496	58	7981
2026-01-16 09:35:45.86	8.48	40.46	-44.1	-50.5	7.9	7.10e-02	0	61	0	836763648	58	8146
2026-01-16 09:35:46.87	8.23	40.24	-44.1	-50.3	8.2	5.92e-02	0	61	0	838860800	58	7947
2026-01-16 09:35:47.88	7.99	40.01	-43.9	-49.8	8.6	4.71e-02	0	61	0	840957952	58	7523
2026-01-16 09:35:48.89	7.75	39.78	-43.7	-49.6	8.9	2.81e-02	0	61	0	843055104	58	7293
2026-01-16 09:35:49.90	7.51	39.56	-43.9	-49.9	8.6	3.53e-02	0	61	0	845152256	58	7548
2026-01-16 09:35:50.91	7.27	39.33	-44.1	-50.4	8.1	4.13e-02	0	61	0	846200832	58	8004
2026-01-16 09:35:51.92	7.04	39.11	-44.2	-51.2	7.5	8.96e-02	0	61	0	848297984	59	8330
2026-01-16 09:35:52.93	6.81	38.89	-44.2	-51.0	7.4	1.13e-01	0	61	0	850395136	59	8136
2026-01-16 09:35:53.94	6.59	38.67	-44.3	-51.4	7.1	1.34e-01	0	61	0	852492288	59	8481
2026-01-16 09:35:54.95	6.36	38.45	-44.2	-51.1	7.3	1.35e-01	0	61	0	854589440	59	8259
2026-01-16 09:35:55.96	6.14	38.23	-44.2	-51.1	7.3	1.28e-01	0	61	0	855638016	59	8177
2026-01-16 09:35:56.97	5.93	38.01	-44.2	-50.8	7.6	1.04e-01	0	62	0	857735168	59	7988
2026-01-16 09:35:57.98	5.71	37.79	-44.2	-51.1	7.3	1.19e-01	0	61	0	859832320	59	8216
2026-01-16 09:35:58.99	5.50	37.58	-44.2	-50.9	7.4	1.07e-01	0	61	0	861929472	59	8082
2026-01-16 09:36:00.00	5.29	37.36	-44.2	-51.0	7.4	1.11e-01	0	61	0	864026624	59	8172
2026-01-16 09:36:01.01	5.09	37.15	-44.2	-51.1	7.3	1.20e-01	0	61	0	865075200	59	8200
2026-01-16 09:36:02.02	4.89	36.93	-44.2	-51.2	7.2	1.31e-01	0	61	0	867172352	59	8277
2026-01-16 09:36:03.03	4.69	36.72	-44.2	-51.1	7.3	1.30e-01	0	61	0	869269504	59	8235
2026-01-16 09:36:04.04	4.49	36.51	-44.2	-50.9	7.5	1.14e-01	0	62	0	871366656	59	8060
2026-01-16 09:36:05.05	4.30	36.30	-44.1	-50.5	7.8	8.68e-02	0	61	0	873463808	59	7719
2026-01-16 09:36:06.06	4.10	36.09	-44.0	-50.3	8.1	7.04e-02	0	61	0	874512384	59	7506
2026-01-16 09:36:07.07	3.91	35.88	-43.9	-49.9	8.5	5.43e-02	0	61	0	876609536	59	7170
2026-01-16 09:36:08.07	3.73	35.67	-43.9	-49.8	8.6	4.03e-02	0	61	0	878706688	59	7098
2026-01-16 09:36:09.08	3.54	35.47	-43.9	-50.0	8.3	4.88e-02	0	61	0	880803840	59	7253
2026-01-16 09:36:10.09	3.36	35.26	-43.9	-50.0	8.4	4.55e-02	0	61	0	882900992	59	7263
2026-01-16 09:36:11.10	3.18	35.05	-43.9	-49.9	8.5	4.91e-02	0	61	0	883949568	59	7157
2026-01-16 09:36:12.11	3.00	34.85	-43.9	-49.8	8.5	4.27e-02	0	61	0	886046720	59	7111
2026-01-16 09:36:13.12	2.83	34.65	-43.7	-49.5	8.9	3.78e-02	0	61	0	888143872	59	6818
2026-01-16 09:36:14.13	2.65	34.45	-43.7	-49.4	9.0	2.82e-02	0	61	0	890241024	59	6738
2026-01-16 09:36:15.14	2.48	34.25	-43.7	-49.3	9.1	2.46e-02	0	61	0	892338176	59	6678
2026-01-16 09:36:16.15	2.31	34.05	-43.7	-49.2	9.1	2.58e-02	0	61	0	893386752	59	6640
2026-01-16 09:36:17.16	2.15	33.85	-43.6	-49.1	9.2	2.08e-02	0	62	0	895483904	59	6529
2026-01-16 09:36:18.18	1.98	33.65	-43.6	-49.1	9.3	1.84e-02	0	62	0	897581056	59	6515
2026-01-16 09:36:19.19	1.82	33.45	-43.6	-49.2	9.2	2.00e-02	0	61	0	899678208	59	6590
2026-01-16 09:36:20.20	1.66	33.25	-43.6	-49.1	9.2	2.33e-02	0	61	0	901775360	59	6558
2026-01-16 09:36:21.21	1.50	33.06	-43.6	-49.1	9.3	2.03e-02	0	61	0	902823936	59	6505
2026-01-16 09:36:22.21	1.34	32.87	-43.5	-48.9	9.4	1.67e-02	0	61	0	904921088	59	6402
2026-01-16 09:36:23.22	1.19	32.68	-43.5	-48.8	9.6	1.62e-02	0	62	0	907018240	59	6314
2026-01-16 09:36:24.23	1.03	32.48	-43.4	-48.5	9.9	9.06e-03	0	61	0	909115392	58	6434
2026-01-16 09:36:25.24	0.88	32.29	-43.3	-48.4	10.0	7.24e-03	0	61	0	911212544	58	6386
2026-01-16 09:36:26.25	0.73	32.10	-43.4	-48.4	9.9	7.81e-03	0	61	0	913309696	58	6403
2026-01-16 09:36:27.26	0.59	31.91	-43.4	-48.6	9.7	1.07e-02	0	61	0	914358272	58	6569
2026-01-16 09:36:28.27	0.44	31.73	-43.5	-48.9	9.4	1.37e-02	0	61	0	916455424	58	6783
2026-01-16 09:36:29.28	0.30	31.54	-43.6	-49.2	9.1	1.83e-02	0	61	0	918552576	58	6977
2026-01-16 09:36:30.29	0.15	31.35	-43.7	-49.5	8.8	2.50e-02	0	61	0	920649728	58	7219
2026-01-16 09:36:31.30	0.01	31.17	-43.7	-49.7	8.6	3.41e-02	0	61	0	922746880	58	7397
2026-01-16 09:36:32.31	359.87	30.99	-43.7	-49.7	8.7	3.72e-02	0	61	0	923795456	58	7381
2026-01-16 09:36:33.32	359.74	30.80	-43.7	-49.6	8.7	3.67e-02	0	61	0	925892608	58	7335
2026-01-16 09:36:34.33	359.60	30.62	-43.7	-49.4	9.0	2.87e-02	0	61	0	927989760	58	7128
2026-01-16 09:36:35.34	359.46	30.44	-43.6	-49.1	9.2	2.25e-02	0	61	0	930086912	58	6921
2026-01-16 09:36:36.35	359.33	30.26	-43.4	-48.8	9.5	1.84e-02	0	62	0	932184064	58	6673
2026-01-16 09:36:37.36	359.20	30.08	-43.4	-48.7	9.7	1.20e-02	0	61	0	933232640	58	6589
2026-01-16 09:36:38.37	359.07	29.90	-43.4	-48.7	9.6	1.18e-02	0	61	0	935329792	58	6575
2026-01-16 09:36:39.38	358.94	29.72	-43.4	-48.8	9.5	1.26e-02	0	61	0	937426944	58	6667
2026-01-16 09:36:40.39	358.81	29.55	-43.5	-48.9	9.4	1.53e-02	0	61	0	939524096	58	6725
2026-01-16 09:36:41.40	358.69	29.37	-43.5	-49.0	9.3	1.68e-02	0	61	0	941621248	58	6816
2026-01-16 09:36:42.41	358.56	29.20	-43.6	-49.3	9.0	2.20e-02	0	61	0	942669824	58	7049
2026-01-16 09:36:43.42	358.44	29.03	-43.6	-49.4	8.8	3.07e-02	0	61	0	944766976	58	7158
2026-01-16 09:36:44.43	358.32	28.85	-43.7	-49.5	8.7	3.05e-02	0	61	0	946864128	58	7265
2026-01-16 09:36:45.44	358.20	28.68	-43.6	-49.5	8.8	3.39e-02	0	61	0	948961280	58	7212
2026-01-16 09:36:46.45	358.08	28.51	-43.7	-49.7	8.6	3.47e-02	0	61	0	951058432	58	7375
2026-01-16 09:36:47.46	357.96	28.34	-43.7	-49.7	8.5	3.96e-02	0	61	0	952107008	58	7387
2026-01-16 09:36:48.47	357.85	28.17	-43.7	-49.6	8.6	4.22e-02	0	62	0	954204160	58	7345
2026-01-16 09:36:49.48	357.73	28.00	-43.7	-49.6	8.6	4.02e-02	0	61	0	956301312	58	7325
2026-01-16 09:36:50.49	357.62	27.84	-43.6	-49.5	8.7	3.48e-02	0	62	0	958398464	58	7213
2026-01-16 09:36:51.50	357.50	27.67	-43.6	-49.6	8.6	3.73e-02	0	61	0	960495616	58	7307
2026-01-16 09:36:52.50	357.39	27.51	-43.6	-49.6	8.6	3.92e-02	0	61	0	961544192	58	7330
2026-01-16 09:36:53.51	357.28	27.34	-43.6	-49.5	8.6	3.76e-02	0	61	0	963641344	58	7205
2026-01-16 09:36:54.52	357.18	27.18	-43.6	-49.3	8.8	3.13e-02	0	61	0	965738496	58	7096
2026-01-16 09:36:55.53	357.07	27.02	-43.5	-49.2	8.9	3.05e-02	0	61	0	967835648	58	7029
2026-01-16 09:36:56.54	356.96	26.85	-43.5	-49.1	9.0	2.52e-02	0	61	0	969932800	58	6946
2026-01-16 09:36:57.55	356.85	26.69	-43.5	-49.2	9.0	2.44e-02	0	61	0	970981376	58	6978
2026-01-16 09:36:58.56	356.75	26.53	-43.4	-49.1	9.0	2.59e-02	0	61	0	973078528	58	6926
2026-01-16 09:36:59.57	356.65	26.37	-43.4	-48.9	9.2	2.10e-02	0	61	0	975175680	58	6758
2026-01-16 09:37:00.58	356.54	26.21	-43.3	-48.8	9.3	1.85e-02	0	61	0	977272832	58	6683
2026-01-16 09:37:01.59	356.44	26.06	-43.3	-48.8	9.3	1.78e-02	0	61	0	979369984	58	6685
2026-01-16 09:37:02.60	356.34	25.90	-43.3	-48.7	9.4	1.79e-02	0	61	0	981467136	58	6573
2026-01-16 09:37:03.61	356.24	25.74	-43.2	-48.5	9.5	1.39e-02	0	61	0	982515712	58	6488
2026-01-16 09:37:04.62	356.14	25.59	-43.2	-48.7	9.4	1.49e-02	0	62	0	984612864	58	6591
2026-01-16 09:37:05.63	356.05	25.43	-43.2	-48.6	9.4	1.68e-02	0	61	0	986710016	58	6567
2026-01-16 09:37:06.64	355.95	25.28	-43.2	-48.7	9.3	1.89e-02	0	62	0	988807168	58	6619
2026-01-16 09:37:07.65	355.86	25.13	-43.3	-48.9	9.1	2.02e-02	0	62	0	990904320	58	6762
2026-01-16 09:37:08.66	355.76	24.97	-43.2	-48.9	9.1	2.23e-02	0	61	0	991952896	58	6730
2026-01-16 09:37:09.67	355.67	24.82	-43.2	-48.8	9.1	2.47e-02	0	62	0	994050048	58	6700
2026-01-16 09:37:10.68	355.57	24.67	-43.3	-49.1	8.8	2.41e-02	0	61	0	996147200	58	6891
2026-01-16 09:37:11.69	355.48	24.52	-43.3	-49.1	8.8	3.13e-02	0	61	0	998244352	58	6932
2026-01-16 09:37:12.70	355.39	24.37	-43.3	-49.1	8.7	3.31e-02	0	61	0	1000341504	58	6953
2026-01-16 09:37:13.71	355.30	24.23	-43.2	-48.9	9.0	2.85e-02	0	61	0	1001390080	58	6752
2026-01-16 09:37:14.72	355.21	24.08	-43.2	-49.0	8.8	2.92e-02	0	61	0	1003487232	58	6838
2026-01-16 09:37:15.73	355.13	23.93	-43.1	-48.8	9.0	2.64e-02	0	61	0	1005584384	58	6681
2026-01-16 09:37:16.74	355.04	23.79	-43.1	-48.9	8.9	2.60e-02	0	61	0	1007681536	58	6730
2026-01-16 09:37:17.75	354.95	23.64	-43.1	-48.8	8.9	2.54e-02	0	61	0	1009778688	58	6706
2026-01-16 09:37:18.76	354.87	23.50	-43.0	-48.5	9.1	2.70e-02	0	61	0	1010827264	58	6491
2026-01-16 09:37:19.77	354.78	23.35	-42.8	-48.2	9.4	1.74e-02	0	62	0	1012924416	57	6621
2026-01-16 09:37:20.78	354.70	23.21	-42.9	-48.4	9.2	1.72e-02	0	61	0	1015021568	57	6729
2026-01-16 09:37:21.78	354.61	23.07	-42.8	-48.3	9.3	1.92e-02	0	61	0	1017118720	57	6653
2026-01-16 09:37:22.79	354.53	22.93	-42.6	-48.0	9.5	1.62e-02	0	61	0	1019215872	57	6454
2026-01-16 09:37:23.80	354.45	22.79	-42.6	-48.2	9.2	1.90e-02	0	61	0	1020264448	57	6590
2026-01-16 09:37:24.81	354.37	22.65	-42.6	-48.6	8.6	2.82e-02	0	62	0	1022361600	57	6891
2026-01-16 09:37:25.82	354.29	22.51	-42.5	-48.3	8.8	3.30e-02	0	61	0	1024458752	57	6722
2026-01-16 09:37:26.83	354.21	22.37	-42.4	-48.1	9.0	2.56e-02	0	61	0	1026555904	56	6905
2026-01-16 09:37:27.84	354.13	22.23	-42.4	-48.1	8.9	2.69e-02	0	62	0	1028653056	56	6951
2026-01-16 09:37:28.85	354.05	22.09	-42.3	-48.2	8.7	3.13e-02	0	62	0	1029701632	56	7009
2026-01-16 09:37:29.86	353.98	21.96	-42.3	-48.4	8.3	4.51e-02	0	62	0	1031798784	56	7200
2026-01-16 09:37:30.87	353.90	21.82	-42.1	-48.1	8.5	5.45e-02	0	61	0	1033895936	56	6925
2026-01-16 09:37:31.88	353.82	21.68	-41.7	-47.6	8.7	3.89e-02	0	61	0	1035993088	55	6929
2026-01-16 09:37:32.89	353.75	21.55	-41.6	-47.6	8.6	3.64e-02	0	61	0	1038090240	55	6932
2026-01-16 09:37:33.90	353.67	21.42	-41.6	-47.8	8.3	4.45e-02	0	62	0	1039138816	55	7070
2026-01-16 09:37:34.90	353.60	21.28	-41.7	-48.3	7.6	6.49e-02	0	61	0	1041235968	55	7523
2026-01-16 09:37:35.91	353.53	21.15	-41.7	-49.1	6.8	1.48e-01	0	61	0	1043333120	55	8238
2026-01-16 09:37:36.93	353.45	21.02	-41.8	-50.0	6.0	2.75e-01	0	61	0	1045430272	55	9166
2026-01-16 09:37:37.93	353.38	20.89	-41.8	-51.0	5.2	4.67e-01	0	61	0	1047527424	55	10277
2026-01-16 09:37:38.95	353.31	20.76	-41.8	-52.2	4.5	9.00e-01	1	61	0	1048576000	55	11702
2026-01-16 09:37:39.95	353.24	20.63	-41.7	-53.3	4.1	1.36e+00	0	61	0	1049624576	55	13363
2026-01-16 09:37:40.96	353.17	20.50	-41.7	-54.2	3.9	1.47e+00	0	61	104	1049624576	55	14850
2026-01-16 09:37:41.97	353.10	20.37	-41.6	-55.1	3.8	1.49e+00	0	62	104	1049624576	55	16328
2026-01-16 09:37:42.98	353.03	20.24	-41.5	-55.5	3.8	1.49e+00	0	62	104	1049624576	55	17174
2026-01-16 09:37:43.99	352.97	20.11	-41.5	-55.8	3.8	1.49e+00	0	62	104	1049624576	55	17851
2026-01-16 09:37:45.00	352.90	19.99	-41.5	-56.0	3.8	1.49e+00	0	62	104	1049624576	54	19311
2026-01-16 09:37:46.01	352.83	19.86	-41.4	-56.1	3.8	1.49e+00	0	61	104	1049624576	54	19481
2026-01-16 09:37:47.02	352.77	19.73	-41.8	-56.0	3.8	1.49e+00	0	62	104	1049624576	54	19208
2026-01-16 09:37:48.03	352.70	19.61	-40.9	-55.7	3.8	1.49e+00	0	62	104	1049624576	53	19694
2026-01-16 09:37:49.04	352.63	19.48	-41.2	-56.0	3.8	1.49e+00	0	62	104	1049624576	53	20445
2026-01-16 09:37:50.05	352.57	19.36	-40.6	-55.6	3.8	1.49e+00	0	61	104	1049624576	53	19488
2026-01-16 09:37:51.06	352.51	19.24	-40.8	-55.7	3.8	1.49e+00	0	61	104	1049624576	53	19665
2026-01-16 09:37:52.07	352.44	19.11	-40.7	-55.6	3.8	1.49e+00	0	62	104	1049624576	53	19492
2026-01-16 09:37:53.07	352.38	18.99	-40.7	-55.6	3.8	1.49e+00	0	61	104	1049624576	53	19405
2026-01-16 09:37:54.08	352.32	18.87	-40.8	-55.5	3.8	1.49e+00	0	61	104	1049624576	53	19373
2026-01-16 09:37:55.10	352.25	18.75	-41.2	-56.0	3.8	1.49e+00	0	61	104	1049624576	53	20502
2026-01-16 09:37:56.11	352.19	18.63	-40.7	-55.6	3.8	1.49e+00	0	62	104	1049624576	53	19580
2026-01-16 09:37:57.12	352.13	18.51	-40.9	-55.5	3.8	1.49e+00	0	61	104	1049624576	53	19321
2026-01-16 09:37:58.13	352.07	18.39	-41.1	-56.0	3.8	1.49e+00	0	61	104	1049624576	53	20315
2026-01-16 09:37:59.14	352.01	18.27	-40.8	-55.5	3.8	1.49e+00	0	62	104	1049624576	53	19302
2026-01-16 09:38:00.15	351.95	18.15	-41.0	-55.9	3.8	1.49e+00	0	61	104	1049624576	53	20135
2026-01-16 09:38:01.16	351.89	18.03	-40.8	-55.6	3.8	1.49e+00	0	61	104	1049624576	53	19500
2026-01-16 09:38:02.17	351.84	17.91	-40.8	-55.6	3.8	1.49e+00	0	61	104	1049624576	53	19539
2026-01-16 09:38:03.18	351.78	17.80	-40.8	-55.5	3.8	1.49e+00	0	61	104	1049624576	53	19350
2026-01-16 09:38:04.19	351.72	17.68	-40.9	-55.6	3.8	1.49e+00	0	62	104	1049624576	53	19499
2026-01-16 09:38:05.20	351.66	17.56	-40.1	-55.6	3.8	1.49e+00	0	62	104	1049624576	51	21945
2026-01-16 09:38:06.21	351.61	17.45	-40.7	-55.5	3.8	1.49e+00	0	61	104	1049624576	52	20529
2026-01-16 09:38:07.22	351.55	17.33	-39.9	-55.6	3.8	1.49e+00	0	61	104	1049624576	51	21939
2026-01-16 09:38:08.23	351.50	17.22	-40.8	-55.5	3.8	1.49e+00	0	62	104	1049624576	52	20489
2026-01-16 09:38:09.24	351.44	17.11	-40.6	-55.7	3.8	1.49e+00	0	61	104	1049624576	52	20816
2026-01-16 09:38:10.25	351.39	16.99	-40.7	-55.5	3.8	1.49e+00	0	61	104	1049624576	52	20324
2026-01-16 09:38:11.26	351.33	16.88	-40.1	-55.7	3.8	1.49e+00	0	62	104	1049624576	52	20927
2026-01-16 09:38:12.27	351.28	16.77	-40.5	-55.5	3.8	1.49e+00	0	62	104	1049624576	52	20359
2026-01-16 09:38:13.28	351.22	16.66	-39.9	-55.7	3.8	1.49e+00	0	61	104	1049624576	51	22025
2026-01-16 09:38:14.29	351.17	16.54	-40.5	-55.5	3.8	1.49e+00	0	61	104	1049624576	52	20442
2026-01-16 09:38:15.30	351.12	16.43	-40.2	-55.7	3.8	1.49e+00	0	62	104	1049624576	51	22189
2026-01-16 09:38:16.30	351.07	16.32	-40.4	-55.6	3.8	1.49e+00	0	62	104	1049624576	51	21962
2026-01-16 09:38:17.32	351.01	16.21	-39.4	-55.7	3.8	1.49e+00	0	62	104	1049624576	50	23419
2026-01-16 09:38:18.33	350.96	16.10	-40.2	-55.6	3.8	1.49e+00	0	62	104	1049624576	51	21831
2026-01-16 09:38:19.34	350.91	15.99	-39.7	-55.7	3.8	1.49e+00	0	61	104	1049624576	51	22052
2026-01-16 09:38:20.34	350.86	15.89	-40.3	-55.7	3.8	1.49e+00	0	62	104	1049624576	51	22010
2026-01-16 09:38:21.35	350.81	15.78	-40.6	-55.8	3.8	1.49e+00	0	62	104	1049624576	52	21108
2026-01-16 09:38:22.36	350.76	15.67	-39.8	-55.6	3.8	1.49e+00	0	62	104	1049624576	51	21995
2026-01-16 09:38:23.37	350.71	15.56	-40.7	-55.7	3.8	1.49e+00	0	61	104	1049624576	52	20971
2026-01-16 09:38:24.38	350.66	15.46	-39.6	-55.6	3.8	1.49e+00	0	61	104	1049624576	51	21960
2026-01-16 09:38:25.39	350.61	15.35	-40.8	-55.7	3.8	1.49e+00	0	62	104	1049624576	52	20970
2026-01-16 09:38:26.40	350.57	15.24	-40.4	-55.7	3.8	1.49e+00	0	61	104	1049624576	52	20841
2026-01-16 09:38:27.41	350.52	15.14	-40.9	-55.8	3.8	1.49e+00	0	62	104	1049624576	52	21153
2026-01-16 09:38:28.42	350.47	15.03	-40.5	-55.5	3.8	1.49e+00	0	62	104	1049624576	52	20485
2026-01-16 09:38:29.42	350.42	14.93	-40.6	-55.6	3.8	1.49e+00	0	62	104	1049624576	52	20617
2026-01-16 09:38:30.43	350.38	14.83	-40.7	-55.8	3.8	1.49e+00	0	62	104	1049624576	52	21041
2026-01-16 09:38:31.44	350.33	14.72	-40.6	-55.5	3.8	1.49e+00	0	62	104	1049624576	52	20461
2026-01-16 09:38:32.45	350.28	14.62	-40.9	-55.8	3.8	1.49e+00	0	61	104	1049624576	52	21051
2026-01-16 09:38:33.46	350.24	14.52	-40.6	-55.6	3.8	1.49e+00	0	61	104	1049624576	52	20749
2026-01-16 09:38:34.47	350.19	14.41	-40.6	-55.6	3.8	1.49e+00	0	62	104	1049624576	52	20548
2026-01-16 09:38:35.48	350.15	14.31	-40.6	-55.6	3.8	1.49e+00	0	61	104	1049624576	52	20615
2026-01-16 09:38:36.49	350.10	14.21	-41.0	-55.7	3.8	1.49e+00	0	62	104	1049624576	52	20817
2026-01-16 09:38:37.50	350.06	14.11	-40.8	-55.6	3.8	1.49e+00	0	62	104	1049624576	52	20555
