passes_logs/2026/01/16/R2.0S_Moscow/R2.0S_Moscow__20260116_005601_SUOMI_NPP_rec.log

#Pass ID: 20260116_005601_SUOMI NPP
#Satellite: SUOMI NPP
#Configuration: NPP
#almurnet v.1.7.20251203
#Start time: 2026-01-16 00:56:03

#Version: 2.2.20231116
#Station: R2.0S_Moscow
#Location: 37.707566 lon 55.798166 lat
#TLE: 1 37849U 11061A   26015.52691075  .00000052  00000+0  45753-4 0  9993
#TLE: 2 37849  98.7811 317.5709 0002448  62.7632 297.3794 14.19525354736784

#Time	Az	El	Level	Level2	SNR	BER	BlckErr	Temp	State	Recorded	gain1	gain2
2026-01-16 00:56:03.31	11.65	2.12	-40.0	-54.7	3.8	1.49e+00	0	52	0	0	52	18569
2026-01-16 00:56:04.33	11.60	2.18	-40.0	-54.7	3.8	1.49e+00	0	52	104	0	52	18596
2026-01-16 00:56:05.34	11.55	2.24	-40.0	-54.7	3.8	1.49e+00	0	52	104	0	52	18531
2026-01-16 00:56:06.35	11.50	2.30	-40.0	-54.7	3.8	1.49e+00	0	53	104	0	52	18566
2026-01-16 00:56:07.36	11.46	2.36	-40.0	-54.7	3.8	1.49e+00	0	53	104	0	52	18564
2026-01-16 00:56:08.37	11.41	2.43	-40.0	-54.7	3.8	1.49e+00	0	53	104	0	52	18519
2026-01-16 00:56:09.38	11.36	2.49	-40.0	-54.7	3.8	1.49e+00	0	53	104	0	52	18578
2026-01-16 00:56:10.39	11.31	2.55	-40.0	-54.7	3.8	1.49e+00	0	53	104	0	52	18565
2026-01-16 00:56:11.40	11.26	2.61	-40.0	-54.7	3.8	1.49e+00	0	53	104	0	52	18563
2026-01-16 00:56:12.42	11.22	2.67	-40.0	-54.7	3.8	1.49e+00	0	53	104	0	52	18606
2026-01-16 00:56:13.43	11.17	2.74	-40.0	-54.7	3.8	1.49e+00	0	53	104	0	52	18579
2026-01-16 00:56:14.44	11.12	2.80	-40.0	-54.7	3.8	1.49e+00	0	53	104	0	52	18617
2026-01-16 00:56:15.45	11.07	2.86	-40.0	-54.7	3.8	1.49e+00	0	53	104	0	52	18532
2026-01-16 00:56:16.46	11.02	2.92	-40.0	-54.7	3.8	1.49e+00	0	53	104	0	52	18522
2026-01-16 00:56:17.47	10.97	2.98	-40.0	-54.6	3.8	1.49e+00	0	53	104	0	52	18495
2026-01-16 00:56:18.48	10.92	3.05	-40.0	-54.7	3.8	1.49e+00	0	53	104	0	52	18572
2026-01-16 00:56:19.49	10.87	3.11	-40.0	-54.7	3.8	1.49e+00	0	53	104	0	52	18580
2026-01-16 00:56:20.49	10.82	3.17	-40.0	-54.7	3.8	1.49e+00	0	53	104	0	52	18535
2026-01-16 00:56:21.50	10.77	3.23	-40.0	-54.7	3.8	1.49e+00	0	54	104	0	52	18551
2026-01-16 00:56:22.51	10.72	3.30	-40.0	-54.7	3.8	1.49e+00	0	54	104	0	52	18576
2026-01-16 00:56:23.52	10.67	3.36	-40.0	-54.6	3.8	1.49e+00	0	54	104	0	52	18488
2026-01-16 00:56:24.53	10.62	3.42	-40.0	-54.7	3.8	1.49e+00	0	54	104	0	52	18521
2026-01-16 00:56:25.54	10.56	3.49	-40.0	-54.7	3.8	1.49e+00	0	54	104	0	52	18557
2026-01-16 00:56:26.55	10.51	3.55	-40.0	-54.6	3.8	1.49e+00	0	54	104	0	52	18505
2026-01-16 00:56:27.56	10.46	3.61	-40.0	-54.7	3.8	1.49e+00	0	54	104	0	52	18537
2026-01-16 00:56:28.57	10.41	3.68	-40.0	-54.7	3.8	1.49e+00	0	54	104	0	52	18567
2026-01-16 00:56:29.57	10.36	3.74	-40.0	-54.7	3.8	1.49e+00	0	54	104	0	52	18579
2026-01-16 00:56:30.59	10.30	3.81	-40.0	-54.6	3.8	1.49e+00	0	54	104	0	52	18482
2026-01-16 00:56:31.60	10.25	3.87	-40.0	-54.6	3.8	1.49e+00	0	54	104	0	52	18508
2026-01-16 00:56:32.60	10.20	3.93	-40.0	-54.7	3.8	1.49e+00	0	54	104	0	52	18543
2026-01-16 00:56:33.61	10.14	4.00	-40.0	-54.7	3.8	1.49e+00	0	54	104	0	52	18534
2026-01-16 00:56:34.62	10.09	4.06	-40.0	-54.7	3.8	1.49e+00	0	54	104	0	52	18571
2026-01-16 00:56:35.63	10.03	4.13	-40.0	-54.7	3.8	1.49e+00	0	54	104	0	52	18571
2026-01-16 00:56:36.64	9.98	4.19	-40.0	-54.7	3.8	1.49e+00	0	54	104	0	52	18553
2026-01-16 00:56:37.65	9.93	4.26	-40.0	-54.7	3.8	1.49e+00	0	54	104	0	52	18534
2026-01-16 00:56:38.66	9.87	4.32	-40.0	-54.7	3.8	1.49e+00	0	55	104	0	52	18521
2026-01-16 00:56:39.67	9.82	4.39	-40.0	-54.6	3.8	1.49e+00	0	55	104	0	52	18511
2026-01-16 00:56:40.68	9.76	4.45	-40.0	-54.6	3.8	1.49e+00	0	55	104	0	52	18475
2026-01-16 00:56:41.69	9.70	4.52	-40.0	-54.6	3.8	1.49e+00	0	55	104	0	52	18478
2026-01-16 00:56:42.70	9.65	4.58	-40.0	-54.7	3.8	1.49e+00	0	55	104	0	52	18579
2026-01-16 00:56:43.71	9.59	4.65	-40.0	-54.7	3.8	1.49e+00	0	55	104	0	52	18525
2026-01-16 00:56:44.72	9.54	4.72	-40.0	-54.7	3.8	1.49e+00	0	55	104	0	52	18529
2026-01-16 00:56:45.73	9.48	4.78	-40.0	-54.6	3.8	1.49e+00	0	55	104	0	52	18499
2026-01-16 00:56:46.74	9.42	4.85	-40.0	-54.7	3.8	1.49e+00	0	55	104	0	52	18545
2026-01-16 00:56:47.75	9.37	4.91	-40.0	-54.7	3.8	1.49e+00	0	55	104	0	52	18541
2026-01-16 00:56:48.76	9.31	4.98	-40.0	-54.7	3.8	1.49e+00	0	55	104	0	52	18586
2026-01-16 00:56:49.77	9.25	5.05	-40.0	-54.6	3.8	1.49e+00	0	55	104	0	52	18507
2026-01-16 00:56:50.78	9.19	5.11	-40.0	-54.6	3.8	1.49e+00	0	55	104	0	52	18504
2026-01-16 00:56:51.79	9.13	5.18	-40.0	-54.6	3.8	1.49e+00	0	55	104	0	52	18454
2026-01-16 00:56:52.80	9.07	5.25	-40.0	-54.7	3.8	1.49e+00	0	55	104	0	52	18555
2026-01-16 00:56:53.81	9.02	5.31	-40.0	-54.7	3.8	1.49e+00	0	55	104	0	52	18535
2026-01-16 00:56:54.82	8.96	5.38	-40.0	-54.7	3.8	1.49e+00	0	55	104	0	52	18518
2026-01-16 00:56:55.83	8.90	5.45	-40.0	-54.6	3.8	1.49e+00	0	55	104	0	52	18477
2026-01-16 00:56:56.84	8.84	5.52	-40.0	-54.6	3.8	1.49e+00	0	55	104	0	52	18477
2026-01-16 00:56:57.85	8.78	5.58	-40.0	-54.6	3.8	1.49e+00	0	55	104	0	52	18486
2026-01-16 00:56:58.86	8.72	5.65	-40.0	-54.7	3.8	1.49e+00	0	55	104	0	52	18522
2026-01-16 00:56:59.87	8.66	5.72	-40.0	-54.7	3.8	1.49e+00	0	56	104	0	52	18558
2026-01-16 00:57:00.88	8.59	5.79	-40.0	-54.6	3.8	1.49e+00	0	55	104	0	52	18516
2026-01-16 00:57:01.89	8.53	5.86	-40.0	-54.7	3.8	1.49e+00	0	56	104	0	52	18554
2026-01-16 00:57:02.90	8.47	5.92	-40.0	-54.6	3.8	1.49e+00	0	56	104	0	52	18468
2026-01-16 00:57:03.91	8.41	5.99	-40.0	-54.6	3.8	1.49e+00	0	56	104	0	52	18495
2026-01-16 00:57:04.92	8.35	6.06	-40.0	-54.6	3.8	1.49e+00	0	56	104	0	52	18482
2026-01-16 00:57:05.92	8.29	6.13	-40.0	-54.7	3.8	1.49e+00	0	56	104	0	52	18534
2026-01-16 00:57:06.93	8.22	6.20	-40.0	-54.7	3.8	1.49e+00	0	56	104	0	52	18521
2026-01-16 00:57:07.94	8.16	6.27	-40.0	-54.6	3.8	1.49e+00	0	56	104	0	52	18517
2026-01-16 00:57:08.95	8.10	6.34	-40.1	-54.7	3.8	1.49e+00	0	56	104	0	51	19786
2026-01-16 00:57:09.96	8.03	6.41	-40.1	-54.7	3.8	1.49e+00	0	56	104	0	51	19779
2026-01-16 00:57:10.97	7.97	6.48	-40.1	-54.7	3.8	1.49e+00	0	56	104	0	51	19769
2026-01-16 00:57:11.98	7.90	6.54	-40.1	-54.7	3.8	1.49e+00	0	56	104	0	51	19815
2026-01-16 00:57:12.99	7.84	6.61	-40.1	-54.7	3.8	1.49e+00	0	56	104	0	51	19796
2026-01-16 00:57:14.00	7.77	6.68	-40.1	-54.7	3.8	1.49e+00	0	56	104	0	51	19755
2026-01-16 00:57:15.01	7.71	6.75	-40.1	-54.7	3.8	1.49e+00	0	56	104	0	51	19712
2026-01-16 00:57:16.02	7.64	6.83	-40.1	-54.7	3.8	1.49e+00	0	56	104	0	51	19768
2026-01-16 00:57:17.03	7.58	6.90	-40.1	-54.7	3.8	1.49e+00	0	56	104	0	51	19707
2026-01-16 00:57:18.04	7.51	6.97	-40.1	-54.7	3.8	1.49e+00	0	56	104	0	51	19763
2026-01-16 00:57:19.04	7.44	7.04	-40.1	-54.7	3.8	1.49e+00	0	56	104	0	51	19810
2026-01-16 00:57:20.05	7.38	7.11	-40.1	-54.7	3.8	1.49e+00	0	56	104	0	51	19782
2026-01-16 00:57:21.06	7.31	7.18	-40.1	-54.7	3.8	1.49e+00	0	56	104	0	51	19804
2026-01-16 00:57:22.07	7.24	7.25	-40.1	-54.7	3.8	1.49e+00	0	56	104	0	51	19798
2026-01-16 00:57:23.08	7.17	7.32	-40.1	-54.7	3.8	1.49e+00	0	56	104	0	51	19819
2026-01-16 00:57:24.09	7.10	7.39	-40.1	-54.7	3.8	1.49e+00	0	56	104	0	51	19739
2026-01-16 00:57:25.10	7.03	7.46	-40.1	-54.7	3.8	1.49e+00	0	56	104	0	51	19710
2026-01-16 00:57:26.11	6.96	7.54	-40.1	-54.7	3.8	1.49e+00	0	56	104	0	51	19805
2026-01-16 00:57:27.12	6.89	7.61	-40.1	-54.7	3.8	1.49e+00	0	56	104	0	51	19779
2026-01-16 00:57:28.13	6.82	7.68	-40.1	-54.7	3.8	1.49e+00	0	56	104	0	51	19811
2026-01-16 00:57:29.14	6.75	7.75	-40.1	-54.7	3.8	1.49e+00	0	57	104	0	51	19789
2026-01-16 00:57:30.15	6.68	7.83	-40.1	-54.7	3.8	1.49e+00	0	57	104	0	51	19754
2026-01-16 00:57:31.16	6.61	7.90	-40.1	-54.7	3.8	1.49e+00	0	57	104	0	51	19778
2026-01-16 00:57:32.17	6.54	7.97	-40.1	-54.7	3.8	1.49e+00	0	57	104	0	51	19803
2026-01-16 00:57:33.18	6.47	8.04	-40.1	-54.7	3.8	1.49e+00	0	57	104	0	51	19810
2026-01-16 00:57:34.19	6.40	8.12	-40.1	-54.8	3.8	1.49e+00	0	57	104	0	51	19851
2026-01-16 00:57:35.19	6.32	8.19	-40.2	-54.9	3.8	1.49e+00	0	56	104	0	51	20121
2026-01-16 00:57:36.21	6.25	8.26	-40.1	-54.8	3.8	1.49e+00	0	57	104	0	51	19859
2026-01-16 00:57:37.21	6.18	8.34	-40.2	-54.9	3.8	1.49e+00	0	57	104	0	51	20112
2026-01-16 00:57:38.22	6.10	8.41	-40.2	-54.8	3.8	1.49e+00	0	57	104	0	51	20006
2026-01-16 00:57:39.23	6.03	8.48	-40.2	-54.9	3.8	1.49e+00	0	57	104	0	51	20160
2026-01-16 00:57:40.24	5.96	8.56	-40.2	-54.8	3.8	1.49e+00	0	57	104	0	51	19970
2026-01-16 00:57:41.25	5.88	8.63	-40.2	-54.9	3.8	1.49e+00	0	57	104	0	51	20190
2026-01-16 00:57:42.26	5.80	8.71	-40.1	-54.8	3.8	1.49e+00	0	57	104	0	51	19850
2026-01-16 00:57:43.26	5.73	8.78	-40.2	-54.9	3.8	1.49e+00	0	57	104	0	51	20215
2026-01-16 00:57:44.27	5.65	8.86	-40.1	-54.7	3.8	1.49e+00	0	57	104	0	51	19826
2026-01-16 00:57:45.28	5.58	8.93	-40.2	-54.9	3.8	1.49e+00	0	57	104	0	51	20176
2026-01-16 00:57:46.29	5.50	9.01	-40.1	-54.8	3.8	1.49e+00	0	57	104	0	51	19903
2026-01-16 00:57:47.30	5.42	9.08	-40.2	-54.9	3.8	1.49e+00	0	57	104	0	51	20202
2026-01-16 00:57:48.31	5.34	9.16	-40.1	-54.8	3.8	1.49e+00	0	57	104	0	51	19934
2026-01-16 00:57:49.32	5.27	9.23	-40.3	-55.0	3.8	1.49e+00	0	57	104	0	51	20448
2026-01-16 00:57:50.32	5.19	9.31	-40.1	-54.7	3.8	1.49e+00	0	57	104	0	51	19791
2026-01-16 00:57:51.33	5.11	9.38	-40.3	-55.0	3.8	1.49e+00	0	57	104	0	51	20499
2026-01-16 00:57:52.34	5.03	9.46	-40.1	-54.8	3.8	1.49e+00	0	57	104	0	51	19847
2026-01-16 00:57:53.35	4.95	9.54	-40.3	-55.0	3.8	1.49e+00	0	57	104	0	51	20363
2026-01-16 00:57:54.36	4.87	9.61	-40.1	-54.8	3.8	1.49e+00	0	57	104	0	51	20041
2026-01-16 00:57:55.37	4.79	9.69	-40.3	-55.0	3.8	1.49e+00	0	57	104	0	51	20437
2026-01-16 00:57:56.38	4.71	9.77	-40.2	-54.9	3.8	1.49e+00	0	57	104	0	51	20143
2026-01-16 00:57:57.39	4.62	9.85	-40.4	-55.1	3.8	1.49e+00	0	57	104	0	51	20689
2026-01-16 00:57:58.40	4.54	9.92	-40.1	-54.8	3.8	1.49e+00	0	57	104	0	51	20068
2026-01-16 00:57:59.41	4.46	10.00	-40.4	-55.1	3.8	1.49e+00	0	57	104	0	51	20763
2026-01-16 00:58:00.41	4.38	10.08	-40.2	-54.9	3.8	1.49e+00	0	57	104	0	51	20196
2026-01-16 00:58:01.42	4.29	10.16	-40.4	-55.1	3.8	1.49e+00	0	57	104	0	51	20721
2026-01-16 00:58:02.43	4.21	10.23	-40.3	-55.0	3.8	1.49e+00	0	57	104	0	51	20382
2026-01-16 00:58:03.44	4.12	10.31	-40.4	-55.1	3.8	1.49e+00	0	57	104	0	51	20688
2026-01-16 00:58:04.45	4.04	10.39	-40.4	-55.1	3.8	1.49e+00	0	57	104	0	51	20631
2026-01-16 00:58:05.46	3.95	10.47	-40.5	-55.1	3.8	1.49e+00	0	58	104	0	52	19577
2026-01-16 00:58:06.47	3.87	10.55	-40.0	-54.8	3.8	1.49e+00	0	57	104	0	52	18839
2026-01-16 00:58:07.48	3.78	10.63	-40.0	-54.8	3.8	1.49e+00	0	57	104	0	52	18814
2026-01-16 00:58:08.49	3.69	10.71	-40.0	-54.8	3.7	1.49e+00	0	58	104	0	51	19991
2026-01-16 00:58:09.50	3.61	10.79	-40.1	-54.8	3.8	1.49e+00	0	58	104	0	51	19958
2026-01-16 00:58:10.50	3.52	10.86	-40.2	-54.9	3.8	1.49e+00	0	57	104	0	51	20158
2026-01-16 00:58:11.51	3.43	10.94	-40.6	-55.3	3.8	1.49e+00	0	58	104	0	51	21071
2026-01-16 00:58:12.53	3.34	11.02	-40.6	-55.6	3.8	1.49e+00	0	57	104	0	52	20647
2026-01-16 00:58:13.54	3.25	11.10	-40.5	-55.2	3.8	1.49e+00	0	58	104	0	52	19786
2026-01-16 00:58:14.55	3.16	11.19	-40.1	-54.9	3.8	1.49e+00	0	57	104	0	52	18997
2026-01-16 00:58:15.55	3.07	11.27	-40.2	-54.9	3.8	1.49e+00	0	58	104	0	52	19012
2026-01-16 00:58:16.56	2.98	11.35	-40.2	-54.9	3.8	1.49e+00	0	57	104	0	52	18997
2026-01-16 00:58:17.57	2.89	11.43	-40.2	-54.9	3.8	1.49e+00	0	58	104	0	52	18977
2026-01-16 00:58:18.58	2.80	11.51	-40.5	-55.3	3.8	1.49e+00	0	58	104	0	52	19918
2026-01-16 00:58:19.59	2.70	11.59	-40.5	-55.4	3.8	1.49e+00	0	58	104	0	52	20232
2026-01-16 00:58:20.60	2.61	11.67	-40.7	-55.7	3.8	1.49e+00	0	58	104	0	52	20782
2026-01-16 00:58:21.61	2.52	11.75	-40.5	-55.4	3.8	1.49e+00	0	58	104	0	52	20164
2026-01-16 00:58:22.62	2.42	11.83	-40.2	-55.0	3.8	1.49e+00	0	58	104	0	52	19228
2026-01-16 00:58:23.63	2.33	11.92	-40.3	-55.0	3.8	1.49e+00	0	58	104	0	52	19254
2026-01-16 00:58:24.63	2.23	12.00	-40.3	-55.0	3.8	1.49e+00	0	58	104	0	52	19348
2026-01-16 00:58:25.64	2.14	12.08	-40.3	-55.1	3.8	1.49e+00	0	58	104	0	52	19533
2026-01-16 00:58:26.65	2.04	12.16	-40.5	-55.2	3.8	1.49e+00	0	58	104	0	52	19809
2026-01-16 00:58:27.66	1.94	12.25	-41.0	-55.7	3.8	1.49e+00	0	58	104	0	52	20945
2026-01-16 00:58:28.67	1.84	12.33	-41.3	-55.8	3.8	1.49e+00	0	58	104	0	53	19867
2026-01-16 00:58:29.68	1.75	12.41	-40.7	-55.5	3.8	1.49e+00	0	58	104	0	53	19169
2026-01-16 00:58:30.69	1.65	12.50	-40.4	-55.2	3.8	1.49e+00	0	58	104	0	52	19667
2026-01-16 00:58:31.70	1.55	12.58	-40.4	-55.2	3.8	1.49e+00	0	58	104	0	52	19657
2026-01-16 00:58:32.70	1.45	12.66	-40.4	-55.2	3.8	1.49e+00	0	58	104	0	52	19724
2026-01-16 00:58:33.71	1.35	12.75	-40.5	-55.2	3.8	1.49e+00	0	58	104	0	52	19728
2026-01-16 00:58:34.72	1.25	12.83	-41.2	-55.4	3.8	1.49e+00	0	58	104	0	52	20163
2026-01-16 00:58:35.73	1.15	12.92	-41.0	-55.7	3.8	1.49e+00	0	58	104	0	53	19829
2026-01-16 00:58:36.74	1.04	13.00	-41.9	-55.2	3.9	1.49e+00	0	58	104	0	54	17664
2026-01-16 00:58:37.75	0.94	13.09	-41.0	-55.2	3.8	1.47e+00	0	58	104	0	54	17484
2026-01-16 00:58:38.76	0.84	13.17	-41.1	-53.6	3.8	1.49e+00	0	58	104	0	53	15493
2026-01-16 00:58:39.77	0.73	13.26	-41.3	-51.4	4.8	1.18e+00	0	58	0	1048576	53	12005
2026-01-16 00:58:40.78	0.63	13.34	-41.3	-50.2	5.5	5.39e-01	0	58	0	2097152	53	10505
2026-01-16 00:58:41.79	0.52	13.43	-41.3	-49.5	6.1	3.56e-01	0	58	0	4194304	53	9704
2026-01-16 00:58:42.80	0.42	13.51	-41.3	-48.9	6.8	2.38e-01	0	58	0	6291456	53	8988
2026-01-16 00:58:43.80	0.31	13.60	-41.4	-48.6	7.1	1.63e-01	0	58	0	8388608	53	8732
2026-01-16 00:58:44.81	0.20	13.68	-41.2	-47.7	8.0	9.02e-02	0	58	0	10485760	53	7853
2026-01-16 00:58:45.83	0.09	13.77	-41.0	-47.0	8.7	4.29e-02	0	58	0	11534336	53	7239
2026-01-16 00:58:46.84	359.98	13.86	-40.9	-46.7	9.1	2.69e-02	0	58	0	13631488	53	6983
2026-01-16 00:58:47.84	359.88	13.95	-40.9	-46.4	9.4	1.68e-02	0	58	0	15728640	53	6725
2026-01-16 00:58:48.85	359.77	14.03	-40.8	-46.2	9.7	1.19e-02	0	58	0	17825792	53	6585
2026-01-16 00:58:49.86	359.66	14.12	-40.9	-46.3	9.5	1.34e-02	0	58	0	19922944	53	6709
2026-01-16 00:58:50.87	359.54	14.21	-41.0	-46.4	9.6	1.50e-02	0	58	0	20971520	53	6789
2026-01-16 00:58:51.88	359.43	14.29	-41.1	-46.4	9.6	1.22e-02	0	58	0	23068672	53	6739
2026-01-16 00:58:52.89	359.32	14.38	-41.2	-46.6	9.5	1.37e-02	0	58	0	25165824	53	6894
2026-01-16 00:58:53.90	359.21	14.47	-41.3	-46.8	9.3	1.84e-02	0	58	0	27262976	53	7116
2026-01-16 00:58:54.91	359.09	14.56	-41.4	-46.9	9.3	1.81e-02	0	58	0	29360128	53	7139
2026-01-16 00:58:55.92	358.98	14.65	-41.4	-46.8	9.4	1.69e-02	0	59	0	30408704	53	7062
2026-01-16 00:58:56.93	358.86	14.74	-41.4	-46.6	9.6	1.36e-02	0	58	0	32505856	53	6945
2026-01-16 00:58:57.94	358.74	14.83	-41.3	-46.2	10.1	9.82e-03	0	58	0	34603008	53	6625
2026-01-16 00:58:58.95	358.63	14.92	-41.3	-46.1	10.3	5.80e-03	0	59	0	36700160	53	6526
2026-01-16 00:58:59.96	358.51	15.00	-41.5	-46.7	9.7	7.59e-03	0	58	0	38797312	53	6975
2026-01-16 00:59:00.97	358.39	15.09	-41.5	-46.6	9.7	1.16e-02	0	59	0	39845888	53	6952
2026-01-16 00:59:01.98	358.27	15.18	-41.2	-46.1	10.3	5.83e-03	0	59	0	41943040	53	6522
2026-01-16 00:59:02.99	358.15	15.27	-41.2	-46.0	10.4	4.55e-03	0	59	0	44040192	53	6457
2026-01-16 00:59:04.00	358.03	15.36	-41.2	-46.2	10.1	6.77e-03	0	58	0	46137344	53	6588
2026-01-16 00:59:05.01	357.91	15.45	-41.3	-46.5	9.8	8.00e-03	0	59	0	48234496	53	6848
2026-01-16 00:59:06.02	357.79	15.55	-41.3	-46.5	9.7	1.14e-02	0	59	0	49283072	53	6844
2026-01-16 00:59:07.03	357.66	15.64	-41.2	-46.3	9.9	9.66e-03	0	58	0	51380224	53	6670
2026-01-16 00:59:08.04	357.54	15.73	-41.1	-46.1	10.0	7.83e-03	0	58	0	53477376	53	6539
2026-01-16 00:59:09.04	357.42	15.82	-41.1	-46.4	9.7	9.78e-03	0	59	0	55574528	53	6733
2026-01-16 00:59:10.05	357.29	15.91	-41.0	-46.2	9.7	1.07e-02	0	58	0	57671680	53	6617
2026-01-16 00:59:11.06	357.17	16.00	-41.1	-46.5	9.5	1.30e-02	0	58	0	59768832	53	6849
2026-01-16 00:59:12.07	357.04	16.09	-41.0	-46.2	9.7	1.44e-02	0	58	0	60817408	53	6640
2026-01-16 00:59:13.08	356.91	16.18	-41.1	-46.6	9.3	1.62e-02	0	59	0	62914560	53	6888
2026-01-16 00:59:14.09	356.78	16.28	-41.0	-46.4	9.4	1.78e-02	0	59	0	65011712	53	6761
2026-01-16 00:59:15.10	356.65	16.37	-41.1	-47.0	8.7	2.05e-02	0	59	0	67108864	53	7273
2026-01-16 00:59:16.11	356.52	16.46	-41.2	-47.5	8.2	3.61e-02	0	59	0	69206016	53	7647
2026-01-16 00:59:17.12	356.39	16.55	-41.3	-48.2	7.4	9.15e-02	0	59	0	70254592	53	8327
2026-01-16 00:59:18.13	356.26	16.65	-41.3	-49.1	6.4	1.64e-01	0	59	0	72351744	53	9224
2026-01-16 00:59:19.14	356.13	16.74	-41.3	-50.0	5.7	3.25e-01	0	59	0	74448896	53	10246
2026-01-16 00:59:20.15	356.00	16.83	-41.3	-50.9	5.0	6.50e-01	0	59	0	76546048	53	11415
2026-01-16 00:59:21.16	355.86	16.93	-41.3	-52.4	4.3	1.00e+00	0	59	0	77594624	53	13437
2026-01-16 00:59:22.17	355.73	17.02	-41.3	-53.4	3.9	1.40e+00	0	59	104	78643200	53	15149
2026-01-16 00:59:23.18	355.59	17.12	-41.2	-54.3	3.8	1.48e+00	0	59	104	78643200	53	16733
2026-01-16 00:59:24.19	355.45	17.21	-41.1	-55.1	3.8	1.49e+00	0	59	104	78643200	53	18422
2026-01-16 00:59:25.20	355.31	17.30	-41.1	-55.7	3.8	1.49e+00	0	59	104	78643200	53	19622
2026-01-16 00:59:26.20	355.18	17.40	-41.0	-55.6	3.8	1.49e+00	0	59	104	78643200	53	19515
2026-01-16 00:59:27.21	355.04	17.49	-41.0	-55.6	3.8	1.49e+00	0	59	104	78643200	53	19568
2026-01-16 00:59:28.22	354.90	17.59	-41.1	-55.8	3.8	1.49e+00	0	59	104	78643200	53	20056
2026-01-16 00:59:29.23	354.76	17.68	-41.0	-55.8	3.8	1.49e+00	0	59	104	78643200	53	19986
2026-01-16 00:59:30.24	354.61	17.78	-41.4	-55.9	3.8	1.49e+00	0	59	104	78643200	53	20182
2026-01-16 00:59:31.25	354.47	17.87	-41.3	-56.0	3.8	1.49e+00	0	59	104	78643200	53	20523
2026-01-16 00:59:32.26	354.33	17.97	-40.7	-55.5	3.8	1.49e+00	0	59	104	78643200	53	19265
2026-01-16 00:59:33.26	354.18	18.06	-40.8	-55.5	3.8	1.49e+00	0	59	104	78643200	53	19284
2026-01-16 00:59:34.27	354.04	18.16	-40.8	-55.4	3.8	1.49e+00	0	59	104	78643200	53	19149
2026-01-16 00:59:35.28	353.89	18.26	-40.8	-55.4	3.8	1.49e+00	0	59	104	78643200	53	19112
2026-01-16 00:59:36.29	353.74	18.35	-40.8	-55.5	3.8	1.49e+00	0	59	104	78643200	53	19363
2026-01-16 00:59:37.30	353.59	18.45	-41.0	-55.8	3.8	1.49e+00	0	59	104	78643200	53	20023
2026-01-16 00:59:38.31	353.44	18.55	-41.2	-55.9	3.8	1.49e+00	0	59	104	78643200	53	20135
2026-01-16 00:59:39.32	353.29	18.64	-41.3	-56.0	3.8	1.49e+00	0	59	104	78643200	53	20345
2026-01-16 00:59:40.33	353.14	18.74	-40.5	-55.5	3.8	1.49e+00	0	59	104	78643200	53	19307
2026-01-16 00:59:41.34	352.99	18.84	-40.6	-55.6	3.8	1.49e+00	0	59	104	78643200	53	19443
2026-01-16 00:59:42.35	352.83	18.94	-40.6	-55.5	3.8	1.49e+00	0	59	104	78643200	53	19295
2026-01-16 00:59:43.36	352.68	19.03	-40.6	-55.5	3.8	1.49e+00	0	59	104	78643200	53	19292
2026-01-16 00:59:44.36	352.52	19.13	-40.7	-55.6	3.8	1.49e+00	0	59	104	78643200	53	19397
2026-01-16 00:59:45.37	352.37	19.23	-40.7	-55.6	3.8	1.49e+00	0	59	104	78643200	53	19607
2026-01-16 00:59:46.38	352.21	19.33	-41.4	-56.1	3.8	1.49e+00	0	59	104	78643200	53	20687
2026-01-16 00:59:47.39	352.05	19.43	-41.0	-55.8	3.8	1.49e+00	0	59	104	78643200	53	20023
2026-01-16 00:59:48.40	351.89	19.52	-40.7	-55.6	3.8	1.49e+00	0	59	104	78643200	53	19443
2026-01-16 00:59:49.41	351.73	19.62	-40.9	-55.7	3.8	1.49e+00	0	59	104	78643200	53	19815
2026-01-16 00:59:50.42	351.57	19.72	-41.0	-55.8	3.8	1.49e+00	0	59	104	78643200	53	19902
2026-01-16 00:59:51.43	351.40	19.82	-41.2	-55.9	3.8	1.49e+00	0	59	104	78643200	53	20188
2026-01-16 00:59:52.44	351.24	19.92	-41.3	-55.9	3.8	1.49e+00	0	59	104	78643200	53	20290
2026-01-16 00:59:53.45	351.07	20.02	-41.3	-56.0	3.8	1.49e+00	0	59	104	78643200	53	20395
2026-01-16 00:59:54.46	350.91	20.12	-41.7	-55.6	3.8	1.49e+00	0	59	104	78643200	54	18419
2026-01-16 00:59:55.47	350.74	20.22	-41.3	-55.8	3.8	1.49e+00	0	59	104	78643200	54	18902
2026-01-16 00:59:56.48	350.57	20.32	-41.4	-55.9	3.8	1.49e+00	0	59	104	78643200	54	19108
2026-01-16 00:59:57.49	350.40	20.42	-41.3	-55.5	3.8	1.49e+00	0	59	104	78643200	54	18287
2026-01-16 00:59:58.50	350.23	20.52	-41.5	-55.8	3.8	1.49e+00	0	59	104	78643200	54	18779
2026-01-16 00:59:59.50	350.06	20.62	-41.5	-54.8	3.8	1.49e+00	0	59	104	78643200	55	15908
2026-01-16 01:00:00.51	349.89	20.72	-41.1	-55.8	3.8	1.49e+00	0	59	104	78643200	54	18791
2026-01-16 01:00:01.52	349.71	20.82	-42.0	-53.8	4.0	1.49e+00	0	59	104	78643200	54	15007
2026-01-16 01:00:02.53	349.54	20.92	-42.1	-53.5	4.1	1.43e+00	0	59	0	78643200	54	14407
2026-01-16 01:00:03.55	349.36	21.02	-42.1	-52.5	4.5	1.27e+00	0	59	0	78643200	54	12890
2026-01-16 01:00:04.56	349.18	21.12	-42.1	-51.8	4.8	9.24e-01	0	59	0	80740352	54	11865
2026-01-16 01:00:05.57	349.00	21.22	-42.1	-51.1	5.2	6.29e-01	0	59	0	82837504	54	11023
2026-01-16 01:00:06.58	348.82	21.32	-42.0	-50.9	5.4	5.33e-01	0	60	0	84934656	54	10747
2026-01-16 01:00:07.59	348.64	21.42	-42.1	-50.8	5.6	4.77e-01	0	59	0	87031808	54	10620
2026-01-16 01:00:08.59	348.46	21.52	-42.0	-50.1	6.1	3.38e-01	0	59	0	88080384	54	9795
2026-01-16 01:00:09.61	348.27	21.62	-42.0	-49.9	6.3	2.77e-01	0	59	0	90177536	54	9506
2026-01-16 01:00:10.62	348.09	21.72	-41.9	-49.2	6.8	2.71e-01	0	59	0	92274688	54	8806
2026-01-16 01:00:11.63	347.90	21.82	-41.8	-48.6	7.4	1.24e-01	0	59	0	94371840	54	8183
2026-01-16 01:00:12.63	347.72	21.93	-41.9	-48.7	7.4	1.10e-01	0	59	0	96468992	54	8315
2026-01-16 01:00:13.64	347.53	22.03	-41.9	-48.8	7.3	1.35e-01	0	59	0	98566144	54	8407
2026-01-16 01:00:14.65	347.34	22.13	-41.9	-48.6	7.6	1.08e-01	0	59	0	99614720	54	8204
2026-01-16 01:00:15.66	347.15	22.23	-41.9	-48.4	7.8	7.49e-02	0	59	0	101711872	54	8031
2026-01-16 01:00:16.67	346.95	22.33	-41.9	-48.3	7.9	6.72e-02	0	60	0	103809024	54	7924
2026-01-16 01:00:17.68	346.76	22.43	-41.9	-48.0	8.2	7.19e-02	0	59	0	105906176	54	7689
2026-01-16 01:00:18.69	346.57	22.53	-41.8	-47.6	8.7	5.22e-02	0	59	0	108003328	54	7366
2026-01-16 01:00:19.70	346.37	22.64	-41.7	-47.3	9.1	3.04e-02	0	59	0	109051904	54	7050
2026-01-16 01:00:20.71	346.17	22.74	-41.7	-47.2	9.2	1.83e-02	0	59	0	111149056	54	7010
2026-01-16 01:00:21.72	345.97	22.84	-42.0	-47.9	8.7	2.99e-02	0	59	0	113246208	54	7560
2026-01-16 01:00:22.73	345.77	22.94	-42.2	-48.3	8.3	5.10e-02	0	59	0	115343360	54	7989
2026-01-16 01:00:23.74	345.57	23.04	-42.4	-48.8	7.8	4.72e-02	0	59	0	117440512	55	7984
2026-01-16 01:00:24.75	345.37	23.15	-42.4	-48.4	8.4	4.36e-02	0	59	0	118489088	55	7578
2026-01-16 01:00:25.76	345.16	23.25	-42.2	-47.8	9.2	2.69e-02	0	59	0	120586240	55	7107
2026-01-16 01:00:26.77	344.96	23.35	-42.3	-47.8	9.2	2.35e-02	0	59	0	122683392	55	7103
2026-01-16 01:00:27.78	344.75	23.45	-42.3	-47.6	9.4	2.34e-02	0	59	0	124780544	55	6943
2026-01-16 01:00:28.79	344.54	23.55	-42.2	-47.3	9.8	1.27e-02	0	60	0	126877696	55	6691
2026-01-16 01:00:29.79	344.33	23.65	-42.0	-46.7	10.6	6.60e-03	0	60	0	127926272	55	6220
2026-01-16 01:00:30.80	344.12	23.76	-41.9	-46.4	10.8	2.95e-03	0	60	0	130023424	55	6059
2026-01-16 01:00:31.81	343.91	23.86	-42.1	-46.9	10.4	3.43e-03	0	59	0	132120576	55	6391
2026-01-16 01:00:32.82	343.69	23.96	-42.2	-47.0	10.3	4.93e-03	0	60	0	134217728	55	6428
2026-01-16 01:00:33.83	343.48	24.06	-42.1	-46.6	10.7	3.52e-03	0	59	0	136314880	55	6167
2026-01-16 01:00:34.84	343.26	24.16	-42.1	-46.6	10.8	2.39e-03	0	60	0	137363456	55	6187
2026-01-16 01:00:35.85	343.04	24.26	-42.3	-46.9	10.5	2.94e-03	0	59	0	139460608	55	6415
2026-01-16 01:00:36.86	342.82	24.37	-42.4	-47.2	10.3	4.66e-03	0	60	0	141557760	55	6588
2026-01-16 01:00:37.87	342.60	24.47	-42.4	-47.3	10.2	6.61e-03	0	59	0	143654912	55	6712
2026-01-16 01:00:38.88	342.38	24.57	-42.6	-47.6	9.9	6.92e-03	0	59	0	145752064	55	6940
2026-01-16 01:00:39.89	342.16	24.67	-42.5	-47.4	10.1	7.59e-03	0	59	0	146800640	55	6750
2026-01-16 01:00:40.90	341.93	24.77	-42.5	-47.3	10.2	5.26e-03	0	59	0	148897792	55	6702
2026-01-16 01:00:41.91	341.70	24.87	-42.4	-47.1	10.5	3.89e-03	0	60	0	150994944	55	6557
2026-01-16 01:00:42.92	341.47	24.97	-42.2	-46.7	10.9	3.71e-03	0	59	0	153092096	55	6268
2026-01-16 01:00:43.93	341.24	25.07	-42.3	-46.8	10.8	2.23e-03	0	59	0	155189248	55	6333
2026-01-16 01:00:44.94	341.01	25.17	-42.3	-46.9	10.8	2.27e-03	0	59	0	156237824	55	6387
2026-01-16 01:00:45.95	340.78	25.28	-42.2	-46.6	11.2	1.56e-03	0	59	0	158334976	55	6151
2026-01-16 01:00:46.96	340.54	25.38	-42.3	-46.8	11.0	2.01e-03	0	60	0	160432128	55	6276
2026-01-16 01:00:47.96	340.31	25.48	-42.4	-47.0	10.7	2.90e-03	0	60	0	162529280	55	6461
2026-01-16 01:00:48.97	340.07	25.58	-42.6	-47.4	10.4	3.69e-03	0	59	0	164626432	55	6733
2026-01-16 01:00:49.98	339.83	25.68	-42.7	-47.5	10.2	4.56e-03	0	59	0	166723584	55	6854
2026-01-16 01:00:50.99	339.59	25.78	-42.5	-47.2	10.6	4.51e-03	0	59	0	167772160	55	6595
2026-01-16 01:00:52.00	339.35	25.88	-42.6	-47.4	10.4	4.11e-03	0	60	0	169869312	55	6737
2026-01-16 01:00:53.01	339.11	25.97	-42.4	-46.8	11.0	3.22e-03	0	60	0	171966464	55	6310
2026-01-16 01:00:54.02	338.86	26.07	-42.4	-46.7	11.2	1.70e-03	0	60	0	174063616	55	6270
2026-01-16 01:00:55.03	338.61	26.17	-42.4	-46.8	11.0	1.50e-03	0	60	0	176160768	55	6338
2026-01-16 01:00:56.04	338.37	26.27	-42.7	-47.3	10.6	1.72e-03	0	60	0	177209344	55	6712
2026-01-16 01:00:57.05	338.12	26.37	-42.7	-47.3	10.6	3.66e-03	0	60	0	179306496	55	6678
2026-01-16 01:00:58.06	337.86	26.47	-43.1	-48.1	10.0	5.58e-03	0	60	0	181403648	56	6931
2026-01-16 01:00:59.07	337.61	26.57	-43.2	-48.5	9.6	9.78e-03	0	60	0	183500800	57	6813
2026-01-16 01:01:00.08	337.36	26.67	-43.1	-48.1	10.0	1.03e-02	0	60	0	185597952	57	6507
2026-01-16 01:01:01.09	337.10	26.76	-42.9	-47.6	10.6	5.20e-03	0	60	0	186646528	57	6154
2026-01-16 01:01:02.10	336.84	26.86	-42.7	-47.1	11.1	2.78e-03	0	60	0	188743680	57	5808
2026-01-16 01:01:03.11	336.58	26.96	-42.5	-46.6	11.5	1.13e-03	0	60	0	190840832	57	5514
2026-01-16 01:01:04.12	336.32	27.05	-42.4	-46.4	11.8	6.74e-04	0	60	0	192937984	56	5709
2026-01-16 01:01:05.13	336.06	27.15	-42.2	-46.0	12.2	3.10e-04	0	60	0	195035136	56	5454
2026-01-16 01:01:06.14	335.79	27.25	-42.1	-45.8	12.5	1.51e-04	0	60	0	196083712	56	5281
2026-01-16 01:01:07.15	335.53	27.34	-42.2	-45.9	12.3	1.56e-04	0	60	0	198180864	56	5392
2026-01-16 01:01:08.16	335.26	27.44	-42.3	-46.2	12.0	2.49e-04	0	60	0	200278016	56	5569
2026-01-16 01:01:09.17	334.99	27.53	-42.5	-46.5	11.7	3.29e-04	0	60	0	202375168	56	5750
2026-01-16 01:01:10.18	334.72	27.63	-42.7	-46.9	11.3	1.08e-03	0	60	0	204472320	56	6057
2026-01-16 01:01:11.19	334.45	27.72	-43.0	-47.7	10.6	2.61e-03	0	60	0	205520896	56	6576
2026-01-16 01:01:12.20	334.17	27.81	-42.8	-47.2	11.0	2.40e-03	0	60	0	207618048	56	6215
2026-01-16 01:01:13.21	333.90	27.91	-42.7	-47.0	11.2	2.08e-03	0	60	0	209715200	56	6125
2026-01-16 01:01:14.22	333.62	28.00	-42.4	-46.4	12.0	8.60e-04	0	60	0	211812352	56	5696
2026-01-16 01:01:15.23	333.34	28.09	-42.6	-46.7	11.7	3.57e-04	0	60	0	213909504	56	5865
2026-01-16 01:01:16.24	333.06	28.19	-42.7	-47.1	11.2	7.54e-04	0	60	0	214958080	56	6141
2026-01-16 01:01:17.24	332.78	28.28	-42.9	-47.4	10.8	2.16e-03	0	60	0	217055232	56	6362
2026-01-16 01:01:18.25	332.50	28.37	-43.2	-48.2	10.0	6.84e-03	0	60	0	219152384	56	7032
2026-01-16 01:01:19.26	332.21	28.46	-43.5	-49.0	9.2	1.50e-02	0	60	0	221249536	57	7227
2026-01-16 01:01:20.27	331.93	28.55	-43.5	-49.1	9.1	2.32e-02	0	60	0	223346688	57	7320
2026-01-16 01:01:21.28	331.64	28.64	-43.4	-48.7	9.4	2.01e-02	0	60	0	224395264	57	7039
2026-01-16 01:01:22.29	331.35	28.73	-43.4	-48.6	9.8	1.65e-02	0	60	0	226492416	57	6950
2026-01-16 01:01:23.30	331.05	28.81	-43.1	-48.0	10.3	6.27e-03	0	60	0	228589568	57	6428
2026-01-16 01:01:24.31	330.76	28.90	-43.0	-47.7	10.6	4.11e-03	0	60	0	230686720	57	6222
2026-01-16 01:01:25.32	330.47	28.99	-42.8	-47.2	11.1	3.00e-03	0	60	0	232783872	57	5861
2026-01-16 01:01:26.33	330.17	29.08	-42.8	-47.2	11.1	1.51e-03	0	60	0	233832448	57	5879
2026-01-16 01:01:27.33	329.87	29.16	-43.0	-47.6	10.7	2.47e-03	0	60	0	235929600	57	6137
2026-01-16 01:01:28.35	329.57	29.25	-43.3	-48.3	10.0	4.23e-03	0	60	0	238026752	57	6678
2026-01-16 01:01:29.36	329.27	29.33	-43.6	-49.3	8.9	1.65e-02	0	60	0	240123904	57	7473
2026-01-16 01:01:30.36	328.97	29.42	-43.5	-49.0	9.3	2.53e-02	0	60	0	242221056	57	7224
2026-01-16 01:01:31.37	328.66	29.50	-43.6	-49.3	8.9	3.39e-02	0	60	0	244318208	58	7102
2026-01-16 01:01:32.38	328.36	29.58	-43.7	-49.4	8.9	3.10e-02	0	60	0	245366784	58	7163
2026-01-16 01:01:33.39	328.05	29.67	-43.6	-49.3	8.9	3.06e-02	0	60	0	247463936	58	7080
2026-01-16 01:01:34.40	327.74	29.75	-43.7	-49.4	8.9	3.22e-02	0	60	0	249561088	58	7141
2026-01-16 01:01:35.41	327.43	29.83	-43.8	-49.8	8.5	4.53e-02	0	60	0	251658240	58	7472
2026-01-16 01:01:36.42	327.11	29.91	-43.9	-50.2	8.1	6.72e-02	0	60	0	253755392	58	7829
2026-01-16 01:01:37.43	326.80	29.99	-44.0	-50.8	7.5	9.26e-02	0	60	0	254803968	58	8426
2026-01-16 01:01:38.44	326.48	30.07	-44.2	-51.5	6.7	1.31e-01	0	60	0	256901120	59	8630
2026-01-16 01:01:39.44	326.17	30.14	-44.1	-51.1	7.1	1.52e-01	0	60	0	258998272	59	8189
2026-01-16 01:01:40.45	325.85	30.22	-44.1	-51.1	7.2	1.51e-01	0	60	0	261095424	59	8228
2026-01-16 01:01:41.46	325.53	30.30	-43.9	-50.1	8.1	1.20e-01	0	60	0	263192576	59	7341
2026-01-16 01:01:42.47	325.21	30.37	-43.7	-49.6	8.7	5.85e-02	0	60	0	264241152	59	6886
2026-01-16 01:01:43.48	324.88	30.45	-43.5	-48.9	9.2	2.06e-02	0	60	0	266338304	59	6364
2026-01-16 01:01:44.49	324.56	30.52	-43.4	-48.6	9.6	1.57e-02	0	60	0	268435456	58	6559
2026-01-16 01:01:45.50	324.23	30.59	-43.5	-48.8	9.5	1.23e-02	0	60	0	270532608	58	6652
2026-01-16 01:01:46.52	323.90	30.67	-43.6	-49.0	9.2	1.87e-02	0	60	0	272629760	58	6848
2026-01-16 01:01:47.52	323.57	30.74	-43.7	-49.3	8.9	3.23e-02	0	60	0	273678336	58	7079
2026-01-16 01:01:48.53	323.24	30.81	-43.8	-49.6	8.6	3.52e-02	0	60	0	275775488	58	7341
2026-01-16 01:01:49.54	322.91	30.88	-43.8	-49.7	8.5	4.19e-02	0	59	0	277872640	58	7434
2026-01-16 01:01:50.55	322.58	30.95	-43.6	-49.3	8.9	4.03e-02	0	60	0	279969792	58	7052
2026-01-16 01:01:51.56	322.24	31.01	-43.6	-49.1	9.0	2.34e-02	0	60	0	282066944	58	6899
2026-01-16 01:01:52.57	321.90	31.08	-43.5	-48.7	9.5	1.20e-02	0	60	0	283115520	58	6623
2026-01-16 01:01:53.58	321.56	31.15	-43.5	-48.8	9.5	1.60e-02	0	60	0	285212672	58	6648
2026-01-16 01:01:54.59	321.23	31.21	-43.4	-48.6	9.6	1.52e-02	0	60	0	287309824	58	6512
2026-01-16 01:01:55.60	320.88	31.27	-43.5	-48.8	9.4	1.13e-02	0	60	0	289406976	58	6672
2026-01-16 01:01:56.61	320.54	31.34	-43.6	-49.0	9.2	1.75e-02	0	60	0	291504128	58	6868
2026-01-16 01:01:57.61	320.20	31.40	-43.7	-49.5	8.6	2.96e-02	0	60	0	292552704	58	7265
2026-01-16 01:01:58.62	319.86	31.46	-43.7	-49.4	8.8	2.73e-02	0	60	0	294649856	58	7192
2026-01-16 01:01:59.63	319.51	31.52	-43.6	-49.3	9.0	2.89e-02	0	60	0	296747008	58	7047
2026-01-16 01:02:00.65	319.16	31.58	-43.3	-48.4	9.8	1.79e-02	0	60	0	298844160	58	6383
2026-01-16 01:02:01.66	318.81	31.64	-43.3	-48.2	10.1	9.89e-03	0	60	0	300941312	58	6227
2026-01-16 01:02:02.66	318.46	31.69	-43.1	-47.8	10.5	3.98e-03	0	60	0	301989888	58	5966
2026-01-16 01:02:03.68	318.11	31.75	-43.1	-47.7	10.5	5.36e-03	0	60	0	304087040	58	5920
2026-01-16 01:02:04.69	317.76	31.80	-43.2	-48.1	10.1	5.32e-03	0	60	0	306184192	58	6194
2026-01-16 01:02:05.70	317.40	31.85	-43.4	-48.5	9.7	7.91e-03	0	60	0	308281344	58	6483
2026-01-16 01:02:06.71	317.05	31.91	-43.6	-49.2	9.1	1.71e-02	0	60	0	310378496	58	6975
2026-01-16 01:02:07.72	316.69	31.96	-43.7	-49.4	8.7	2.87e-02	0	60	0	312475648	58	7186
2026-01-16 01:02:08.72	316.34	32.01	-43.7	-49.4	8.8	3.41e-02	0	60	0	313524224	58	7173
2026-01-16 01:02:09.73	315.98	32.05	-43.4	-48.6	9.5	2.09e-02	0	60	0	315621376	58	6557
2026-01-16 01:02:10.74	315.62	32.10	-43.0	-47.6	10.7	8.79e-03	0	60	0	317718528	58	5814
2026-01-16 01:02:11.75	315.26	32.15	-42.8	-47.0	11.2	1.67e-03	0	60	0	319815680	57	5784
2026-01-16 01:02:12.77	314.90	32.19	-42.7	-47.0	11.4	1.03e-03	0	60	0	321912832	57	5749
2026-01-16 01:02:13.77	314.54	32.23	-42.8	-47.1	11.2	1.37e-03	0	60	0	322961408	57	5816
2026-01-16 01:02:14.78	314.17	32.28	-43.0	-47.7	10.6	2.67e-03	0	60	0	325058560	57	6212
2026-01-16 01:02:15.79	313.81	32.32	-43.2	-47.9	10.3	5.39e-03	0	60	0	327155712	57	6406
2026-01-16 01:02:16.80	313.44	32.36	-43.2	-48.0	10.2	8.21e-03	0	60	0	329252864	57	6493
2026-01-16 01:02:17.81	313.08	32.40	-43.2	-48.0	10.2	5.94e-03	0	60	0	331350016	57	6485
2026-01-16 01:02:18.82	312.71	32.43	-43.1	-47.7	10.6	3.52e-03	0	60	0	332398592	57	6209
2026-01-16 01:02:19.83	312.34	32.47	-42.9	-47.2	11.1	2.31e-03	0	60	0	334495744	57	5906
2026-01-16 01:02:20.84	311.97	32.50	-42.6	-46.6	11.8	1.25e-03	0	60	0	336592896	57	5493
2026-01-16 01:02:21.85	311.61	32.54	-42.4	-46.3	12.0	3.57e-04	0	60	0	338690048	56	5620
2026-01-16 01:02:22.86	311.24	32.57	-42.6	-46.5	11.8	6.74e-04	0	60	0	340787200	56	5783
2026-01-16 01:02:23.87	310.86	32.60	-42.6	-46.6	11.7	6.57e-04	0	60	0	341835776	56	5812
2026-01-16 01:02:24.88	310.49	32.63	-42.7	-46.8	11.5	7.00e-04	0	60	0	343932928	56	5935
2026-01-16 01:02:25.90	310.12	32.66	-42.5	-46.5	11.9	5.15e-04	0	60	0	346030080	56	5724
2026-01-16 01:02:26.91	309.74	32.68	-42.6	-46.6	11.7	6.13e-04	0	60	0	348127232	56	5833
2026-01-16 01:02:27.92	309.37	32.71	-42.9	-47.3	11.0	9.45e-04	0	60	0	350224384	56	6307
2026-01-16 01:02:28.93	309.00	32.73	-43.1	-47.9	10.3	5.39e-03	0	60	0	351272960	57	6362
2026-01-16 01:02:29.94	308.62	32.76	-43.4	-48.5	9.8	1.21e-02	0	60	0	353370112	57	6844
2026-01-16 01:02:30.95	308.25	32.78	-43.2	-48.1	10.1	9.72e-03	0	60	0	355467264	57	6549
2026-01-16 01:02:31.96	307.87	32.80	-42.9	-47.4	10.9	2.85e-03	0	60	0	357564416	57	6005
2026-01-16 01:02:32.97	307.50	32.81	-42.8	-47.1	11.2	1.92e-03	0	60	0	359661568	57	5844
2026-01-16 01:02:33.98	307.12	32.83	-43.0	-47.5	10.8	1.94e-03	0	60	0	360710144	57	6073
2026-01-16 01:02:34.99	306.74	32.85	-43.1	-47.8	10.4	4.98e-03	0	60	0	362807296	57	6317
2026-01-16 01:02:36.00	306.37	32.86	-43.3	-48.4	9.8	9.49e-03	0	60	0	364904448	57	6761
2026-01-16 01:02:37.01	305.99	32.87	-43.2	-48.1	10.1	8.67e-03	0	60	0	367001600	57	6537
2026-01-16 01:02:38.02	305.61	32.89	-43.0	-47.5	10.7	3.03e-03	0	60	0	369098752	57	6126
2026-01-16 01:02:39.03	305.23	32.90	-42.8	-46.9	11.3	1.52e-03	0	60	0	370147328	57	5719
2026-01-16 01:02:40.04	304.85	32.90	-42.6	-46.6	11.7	7.82e-04	0	60	0	372244480	57	5482
2026-01-16 01:02:41.05	304.48	32.91	-42.3	-46.1	12.2	5.13e-04	0	60	0	374341632	56	5490
2026-01-16 01:02:42.06	304.10	32.92	-42.5	-46.3	12.0	4.12e-04	0	60	0	376438784	56	5655
2026-01-16 01:02:43.07	303.72	32.92	-42.8	-47.1	11.2	7.48e-04	0	60	0	378535936	56	6198
2026-01-16 01:02:44.08	303.34	32.92	-43.2	-48.0	10.2	2.09e-03	0	60	0	380633088	56	6855
2026-01-16 01:02:45.08	302.96	32.93	-43.4	-48.6	9.6	1.06e-02	0	60	0	381681664	57	6894
2026-01-16 01:02:46.09	302.58	32.93	-43.7	-49.3	8.8	1.86e-02	0	60	0	383778816	57	7531
2026-01-16 01:02:47.10	302.21	32.93	-43.8	-49.6	8.6	3.23e-02	0	60	0	385875968	58	7343
2026-01-16 01:02:48.11	301.83	32.92	-43.8	-49.9	8.1	6.13e-02	0	60	0	387973120	58	7579
2026-01-16 01:02:49.12	301.45	32.92	-43.7	-49.5	8.7	5.45e-02	0	60	0	390070272	58	7256
2026-01-16 01:02:50.13	301.07	32.91	-43.7	-49.3	8.8	3.62e-02	0	60	0	391118848	58	7102
2026-01-16 01:02:51.14	300.69	32.91	-43.5	-48.9	9.3	1.91e-02	0	60	0	393216000	58	6788
2026-01-16 01:02:52.15	300.31	32.90	-43.4	-48.5	9.7	1.34e-02	0	60	0	395313152	58	6473
2026-01-16 01:02:53.16	299.93	32.89	-43.3	-48.3	10.0	1.04e-02	0	60	0	397410304	58	6318
2026-01-16 01:02:54.17	299.56	32.88	-43.2	-48.1	10.1	8.65e-03	0	60	0	399507456	58	6194
2026-01-16 01:02:55.18	299.18	32.86	-43.2	-47.9	10.3	7.25e-03	0	60	0	400556032	58	6051
2026-01-16 01:02:56.19	298.80	32.85	-43.1	-47.9	10.5	5.02e-03	0	60	0	402653184	58	6003
2026-01-16 01:02:57.20	298.42	32.83	-43.0	-47.5	10.7	3.18e-03	0	60	0	404750336	58	5758
2026-01-16 01:02:58.21	298.05	32.82	-42.8	-47.1	11.4	1.59e-03	0	60	0	406847488	57	5803
2026-01-16 01:02:59.21	297.67	32.80	-43.0	-47.4	10.8	1.24e-03	0	60	0	408944640	57	6045
2026-01-16 01:03:00.23	297.30	32.78	-43.1	-47.7	10.6	2.86e-03	0	60	0	409993216	57	6247
2026-01-16 01:03:01.24	296.92	32.76	-43.3	-48.2	10.1	7.24e-03	0	60	0	412090368	57	6581
2026-01-16 01:03:02.24	296.55	32.74	-43.4	-48.7	9.6	1.25e-02	0	60	0	414187520	57	6961
2026-01-16 01:03:03.25	296.17	32.71	-43.4	-48.5	9.6	1.31e-02	0	60	0	416284672	57	6855
2026-01-16 01:03:04.26	295.80	32.69	-43.4	-48.7	9.5	1.37e-02	0	60	0	418381824	57	6980
2026-01-16 01:03:05.27	295.43	32.66	-43.3	-48.4	9.9	7.94e-03	0	60	0	419430400	57	6737
2026-01-16 01:03:06.28	295.05	32.63	-43.5	-48.7	9.5	8.88e-03	0	60	0	421527552	57	7032
2026-01-16 01:03:07.29	294.68	32.60	-43.4	-48.6	9.6	1.09e-02	0	60	0	423624704	57	6930
2026-01-16 01:03:08.30	294.31	32.57	-43.5	-48.8	9.4	1.59e-02	0	60	0	425721856	57	7097
2026-01-16 01:03:09.31	293.94	32.54	-43.5	-48.8	9.5	1.69e-02	0	60	0	427819008	57	7100
2026-01-16 01:03:10.32	293.57	32.51	-43.6	-49.3	8.9	2.70e-02	0	60	0	428867584	57	7487
2026-01-16 01:03:11.33	293.20	32.47	-43.6	-49.2	8.9	2.56e-02	0	60	0	430964736	57	7451
2026-01-16 01:03:12.34	292.83	32.44	-43.6	-49.2	9.0	2.47e-02	0	60	0	433061888	57	7425
2026-01-16 01:03:13.35	292.47	32.40	-43.4	-48.5	9.6	1.79e-02	0	60	0	435159040	57	6862
2026-01-16 01:03:14.36	292.10	32.36	-43.4	-48.6	9.6	8.66e-03	0	60	0	437256192	57	6951
2026-01-16 01:03:15.37	291.73	32.32	-43.2	-48.0	10.3	5.62e-03	0	60	0	438304768	57	6473
2026-01-16 01:03:16.38	291.37	32.28	-43.1	-47.8	10.4	6.74e-03	0	60	0	440401920	57	6347
2026-01-16 01:03:17.39	291.00	32.24	-43.2	-48.1	10.2	3.69e-03	0	60	0	442499072	57	6517
2026-01-16 01:03:18.39	290.65	32.20	-43.2	-48.0	10.2	6.19e-03	0	60	0	444596224	57	6476
2026-01-16 01:03:19.41	290.28	32.15	-43.1	-47.9	10.5	4.88e-03	0	60	0	446693376	57	6357
2026-01-16 01:03:20.41	289.92	32.11	-43.0	-47.6	10.7	3.19e-03	0	60	0	448790528	57	6196
2026-01-16 01:03:21.42	289.56	32.06	-43.0	-47.6	10.7	3.28e-03	0	60	0	449839104	57	6137
2026-01-16 01:03:22.43	289.20	32.01	-43.0	-47.6	10.7	2.71e-03	0	60	0	451936256	57	6174
2026-01-16 01:03:23.44	288.85	31.96	-42.9	-47.3	11.0	2.26e-03	0	60	0	454033408	57	5943
2026-01-16 01:03:24.46	288.49	31.91	-42.9	-47.4	10.9	2.08e-03	0	60	0	456130560	57	6028
2026-01-16 01:03:25.46	288.13	31.86	-43.2	-48.0	10.3	3.81e-03	0	60	0	458227712	57	6441
2026-01-16 01:03:26.47	287.78	31.81	-43.2	-48.1	10.2	5.76e-03	0	60	0	459276288	57	6533
2026-01-16 01:03:27.48	287.43	31.75	-43.2	-48.0	10.2	7.39e-03	0	60	0	461373440	57	6450
2026-01-16 01:03:28.49	287.07	31.70	-43.0	-47.5	10.8	4.18e-03	0	60	0	463470592	57	6111
2026-01-16 01:03:29.50	286.72	31.64	-42.9	-47.4	10.9	4.21e-03	0	60	0	465567744	57	6000
2026-01-16 01:03:30.51	286.37	31.59	-43.0	-47.7	10.5	2.99e-03	0	60	0	467664896	57	6231
2026-01-16 01:03:31.52	286.02	31.53	-43.0	-47.7	10.5	3.70e-03	0	60	0	468713472	57	6270
2026-01-16 01:03:32.53	285.68	31.47	-43.0	-47.7	10.5	3.75e-03	0	60	0	470810624	57	6252
2026-01-16 01:03:33.54	285.33	31.41	-43.0	-47.7	10.6	3.51e-03	0	60	0	472907776	57	6263
2026-01-16 01:03:34.55	284.99	31.35	-42.8	-47.1	11.1	3.04e-03	0	60	0	475004928	57	5824
2026-01-16 01:03:35.56	284.64	31.28	-42.6	-46.7	11.6	1.80e-03	0	60	0	477102080	57	5553
2026-01-16 01:03:36.57	284.30	31.22	-42.6	-46.7	11.6	7.32e-04	0	60	0	478150656	57	5557
2026-01-16 01:03:37.58	283.96	31.16	-42.7	-46.8	11.5	8.06e-04	0	60	0	480247808	57	5603
2026-01-16 01:03:38.59	283.62	31.09	-42.7	-46.8	11.5	7.54e-04	0	60	0	482344960	56	5938
2026-01-16 01:03:39.60	283.28	31.02	-42.8	-47.0	11.3	1.01e-03	0	60	0	484442112	56	6130
2026-01-16 01:03:40.61	282.95	30.96	-42.9	-47.4	10.9	2.33e-03	0	60	0	486539264	56	6364
2026-01-16 01:03:41.62	282.61	30.89	-43.1	-47.8	10.4	5.35e-03	0	60	0	487587840	56	6678
2026-01-16 01:03:42.63	282.28	30.82	-43.2	-47.9	10.3	4.43e-03	0	60	0	489684992	56	6778
2026-01-16 01:03:43.64	281.95	30.75	-43.2	-47.9	10.3	4.34e-03	0	60	0	491782144	57	6416
2026-01-16 01:03:44.65	281.62	30.68	-43.2	-48.0	10.2	4.78e-03	0	60	0	493879296	57	6430
2026-01-16 01:03:45.66	281.29	30.60	-43.4	-48.7	9.5	9.02e-03	0	60	0	495976448	57	6969
2026-01-16 01:03:46.67	280.96	30.53	-43.5	-48.9	9.3	1.74e-02	0	60	0	497025024	57	7157
2026-01-16 01:03:47.68	280.63	30.46	-43.6	-49.1	9.0	3.25e-02	0	60	0	499122176	57	7348
2026-01-16 01:03:48.69	280.31	30.38	-43.6	-49.3	8.9	3.04e-02	0	60	0	501219328	57	7478
2026-01-16 01:03:49.69	279.99	30.31	-43.6	-49.1	9.0	2.23e-02	0	60	0	503316480	57	7353
2026-01-16 01:03:50.71	279.66	30.23	-43.5	-49.0	9.2	2.15e-02	0	60	0	505413632	57	7217
2026-01-16 01:03:51.72	279.34	30.15	-43.6	-49.1	9.1	1.82e-02	0	60	0	506462208	57	7311
2026-01-16 01:03:52.73	279.02	30.07	-43.5	-48.9	9.2	1.98e-02	0	60	0	508559360	57	7159
2026-01-16 01:03:53.74	278.71	30.00	-43.5	-49.0	9.2	2.19e-02	0	60	0	510656512	57	7271
2026-01-16 01:03:54.74	278.39	29.92	-43.5	-49.1	9.1	3.01e-02	0	60	0	512753664	57	7290
2026-01-16 01:03:55.75	278.08	29.84	-43.4	-48.7	9.5	1.94e-02	0	60	0	514850816	57	6984
2026-01-16 01:03:56.76	277.77	29.76	-43.4	-48.7	9.5	1.38e-02	0	60	0	515899392	57	6980
2026-01-16 01:03:57.77	277.46	29.67	-43.3	-48.5	9.7	9.93e-03	0	60	0	517996544	57	6807
2026-01-16 01:03:58.78	277.15	29.59	-43.3	-48.5	9.7	1.17e-02	0	60	0	520093696	57	6831
2026-01-16 01:03:59.79	276.84	29.51	-43.4	-48.6	9.6	1.44e-02	0	60	0	522190848	57	6932
2026-01-16 01:04:00.79	276.54	29.43	-43.4	-48.7	9.4	2.21e-02	0	60	0	524288000	57	7031
2026-01-16 01:04:01.81	276.23	29.34	-43.5	-48.9	9.3	1.64e-02	0	60	0	525336576	57	7145
2026-01-16 01:04:02.81	275.93	29.26	-43.3	-48.4	9.8	1.57e-02	0	60	0	527433728	57	6767
2026-01-16 01:04:03.82	275.63	29.17	-43.1	-47.9	10.2	6.07e-03	0	60	0	529530880	57	6403
2026-01-16 01:04:04.83	275.33	29.08	-43.0	-47.6	10.6	4.77e-03	0	60	0	531628032	57	6173
2026-01-16 01:04:05.84	275.03	29.00	-42.8	-47.3	11.0	2.40e-03	0	60	0	533725184	57	5925
2026-01-16 01:04:06.85	274.73	28.91	-42.4	-46.3	11.9	6.93e-04	0	60	0	534773760	56	5645
2026-01-16 01:04:07.86	274.44	28.82	-41.8	-45.3	12.9	1.40e-04	0	60	0	536870912	55	5296
2026-01-16 01:04:08.87	274.14	28.73	-41.8	-45.2	13.0	4.19e-05	0	60	0	538968064	55	5242
2026-01-16 01:04:09.88	273.85	28.64	-42.1	-45.9	12.2	1.06e-04	0	60	0	541065216	55	5676
2026-01-16 01:04:10.89	273.56	28.55	-42.4	-46.4	11.7	4.11e-04	0	60	0	543162368	55	6001
2026-01-16 01:04:11.90	273.27	28.46	-42.3	-46.3	11.8	5.03e-04	0	60	0	545259520	55	5937
2026-01-16 01:04:12.91	272.99	28.37	-42.3	-46.3	11.5	4.58e-04	0	60	0	546308096	55	5966
2026-01-16 01:04:13.92	272.70	28.28	-42.5	-46.6	11.4	7.86e-04	0	61	0	548405248	55	6170
2026-01-16 01:04:14.93	272.42	28.19	-43.0	-47.5	10.7	1.56e-03	0	60	0	550502400	56	6481
2026-01-16 01:04:15.94	272.14	28.10	-43.1	-47.9	10.2	5.50e-03	0	60	0	552599552	57	6420
2026-01-16 01:04:16.95	271.86	28.00	-43.1	-47.8	10.3	5.46e-03	0	60	0	554696704	57	6341
2026-01-16 01:04:17.96	271.58	27.91	-42.6	-46.7	11.4	2.38e-03	0	60	0	555745280	57	5574
2026-01-16 01:04:18.97	271.30	27.82	-42.3	-46.0	12.2	2.93e-04	0	60	0	557842432	56	5461
2026-01-16 01:04:19.98	271.03	27.72	-42.1	-45.8	12.5	1.36e-04	0	60	0	559939584	56	5295
2026-01-16 01:04:20.98	270.76	27.63	-42.6	-46.7	11.6	1.93e-04	0	60	0	562036736	56	5883
2026-01-16 01:04:21.99	270.48	27.53	-43.0	-47.7	10.5	3.09e-03	0	60	0	564133888	56	6573
2026-01-16 01:04:23.00	270.21	27.44	-43.5	-49.0	9.2	1.37e-02	0	60	0	565182464	57	7241
2026-01-16 01:04:24.01	269.94	27.34	-43.8	-49.9	8.2	4.33e-02	0	60	0	567279616	58	7562
2026-01-16 01:04:25.02	269.68	27.25	-43.7	-49.8	8.3	6.00e-02	0	60	0	569376768	58	7515
2026-01-16 01:04:26.03	269.41	27.15	-43.7	-49.6	8.5	4.29e-02	0	60	0	571473920	58	7329
2026-01-16 01:04:27.04	269.15	27.05	-43.5	-49.0	9.1	2.29e-02	0	60	0	573571072	58	6815
2026-01-16 01:04:28.05	268.88	26.96	-43.3	-48.3	9.8	1.70e-02	0	60	0	574619648	58	6333
2026-01-16 01:04:29.06	268.62	26.86	-43.0	-47.8	10.4	4.90e-03	0	60	0	576716800	57	6285
2026-01-16 01:04:30.07	268.36	26.76	-42.7	-47.0	11.2	2.43e-03	0	60	0	578813952	57	5749
2026-01-16 01:04:31.08	268.11	26.67	-42.5	-46.7	11.5	1.16e-03	0	60	0	580911104	57	5529
2026-01-16 01:04:32.09	267.85	26.57	-42.7	-47.0	11.2	1.37e-03	0	60	0	583008256	57	5736
2026-01-16 01:04:33.10	267.60	26.47	-42.6	-46.7	11.5	1.38e-03	0	60	0	584056832	57	5587
2026-01-16 01:04:34.11	267.34	26.37	-42.6	-46.7	11.6	9.13e-04	0	60	0	586153984	57	5583
2026-01-16 01:04:35.12	267.09	26.27	-42.3	-46.1	12.1	3.11e-04	0	61	0	588251136	56	5485
2026-01-16 01:04:36.13	266.84	26.17	-42.0	-45.6	12.6	1.30e-04	0	60	0	590348288	56	5182
2026-01-16 01:04:37.14	266.59	26.07	-41.8	-45.3	12.7	7.70e-05	0	60	0	592445440	55	5332
2026-01-16 01:04:38.14	266.35	25.97	-41.8	-45.3	12.8	4.50e-05	0	60	0	593494016	55	5299
2026-01-16 01:04:39.15	266.11	25.87	-41.8	-45.3	12.8	8.23e-05	0	60	0	595591168	55	5294
2026-01-16 01:04:40.16	265.86	25.77	-41.9	-45.6	12.5	1.01e-04	0	60	0	597688320	55	5467
2026-01-16 01:04:41.17	265.62	25.67	-41.9	-45.5	12.6	9.07e-05	0	60	0	599785472	55	5425
2026-01-16 01:04:42.18	265.38	25.57	-41.8	-45.4	12.7	9.53e-05	0	60	0	601882624	55	5376
2026-01-16 01:04:43.19	265.14	25.47	-41.8	-45.4	12.7	1.30e-04	0	60	0	602931200	55	5371
2026-01-16 01:04:44.20	264.90	25.37	-41.9	-45.6	12.5	9.00e-05	0	60	0	605028352	55	5473
2026-01-16 01:04:45.21	264.67	25.27	-42.0	-45.8	12.2	1.69e-04	0	60	0	607125504	55	5651
2026-01-16 01:04:46.22	264.43	25.17	-42.1	-45.9	12.1	2.62e-04	0	60	0	609222656	55	5714
2026-01-16 01:04:47.23	264.20	25.07	-42.2	-46.1	11.9	3.22e-04	0	60	0	611319808	55	5810
2026-01-16 01:04:48.24	263.97	24.97	-42.2	-46.2	11.8	3.87e-04	0	60	0	613416960	55	5899
2026-01-16 01:04:49.25	263.74	24.87	-42.2	-46.1	11.9	4.41e-04	0	61	0	614465536	55	5845
2026-01-16 01:04:50.26	263.51	24.76	-42.2	-46.1	11.9	3.87e-04	0	60	0	616562688	55	5821
2026-01-16 01:04:51.27	263.28	24.66	-42.2	-46.2	11.8	4.92e-04	0	60	0	618659840	55	5898
2026-01-16 01:04:52.28	263.06	24.56	-42.2	-46.1	11.9	4.42e-04	0	60	0	620756992	55	5810
2026-01-16 01:04:53.29	262.83	24.46	-42.2	-46.1	12.0	3.39e-04	0	60	0	622854144	55	5804
2026-01-16 01:04:54.30	262.61	24.36	-42.1	-46.1	11.9	4.53e-04	0	60	0	623902720	55	5814
2026-01-16 01:04:55.30	262.39	24.26	-42.1	-46.0	12.1	2.99e-04	0	60	0	625999872	55	5729
2026-01-16 01:04:56.31	262.17	24.15	-42.1	-46.0	12.0	2.71e-04	0	60	0	628097024	55	5758
2026-01-16 01:04:57.32	261.95	24.05	-41.9	-45.6	12.4	2.03e-04	0	60	0	630194176	55	5518
2026-01-16 01:04:58.34	261.74	23.95	-41.8	-45.4	12.6	1.12e-04	0	60	0	632291328	55	5364
2026-01-16 01:04:59.34	261.52	23.85	-41.6	-45.0	13.0	4.27e-05	0	60	0	633339904	55	5139
2026-01-16 01:05:00.36	261.31	23.75	-41.3	-44.4	13.6	1.60e-05	0	60	0	635437056	54	5087
2026-01-16 01:05:01.36	261.10	23.64	-41.0	-44.0	14.0	3.00e-06	0	60	0	637534208	54	4831
2026-01-16 01:05:02.38	260.88	23.54	-40.8	-43.7	14.4	1.50e-06	0	60	0	639631360	53	4944
2026-01-16 01:05:03.38	260.68	23.44	-40.8	-43.6	14.4	7.00e-07	0	60	0	641728512	53	4894
2026-01-16 01:05:04.39	260.47	23.34	-40.9	-43.7	14.3	0.00e+00	0	60	0	642777088	53	4982
2026-01-16 01:05:05.40	260.26	23.23	-41.1	-44.2	13.9	1.50e-06	0	60	0	644874240	53	5232
2026-01-16 01:05:06.41	260.05	23.13	-41.4	-44.8	13.3	8.30e-06	0	60	0	646971392	53	5601
2026-01-16 01:05:07.42	259.85	23.03	-41.6	-45.1	12.9	4.34e-05	0	60	0	649068544	53	5808
2026-01-16 01:05:08.43	259.65	22.93	-41.8	-45.4	12.6	6.63e-05	0	60	0	651165696	54	5678
2026-01-16 01:05:09.44	259.45	22.83	-41.7	-45.2	12.8	6.86e-05	0	60	0	652214272	54	5560
2026-01-16 01:05:10.45	259.25	22.72	-41.7	-45.2	12.9	7.32e-05	0	60	0	654311424	54	5539
2026-01-16 01:05:11.46	259.05	22.62	-41.6	-45.1	13.0	2.36e-05	0	60	0	656408576	54	5483
2026-01-16 01:05:12.47	258.85	22.52	-41.4	-44.6	13.4	2.21e-05	0	61	0	658505728	54	5192
2026-01-16 01:05:13.48	258.65	22.42	-41.5	-44.9	13.1	2.44e-05	0	60	0	660602880	54	5366
2026-01-16 01:05:14.49	258.46	22.32	-41.5	-44.9	13.1	3.66e-05	0	60	0	661651456	54	5344
2026-01-16 01:05:15.50	258.26	22.21	-41.7	-45.2	12.8	3.35e-05	0	60	0	663748608	54	5581
2026-01-16 01:05:16.51	258.07	22.11	-41.7	-45.3	12.7	5.41e-05	0	60	0	665845760	54	5631
2026-01-16 01:05:17.52	257.88	22.01	-41.7	-45.2	12.8	7.47e-05	0	60	0	667942912	54	5540
2026-01-16 01:05:18.53	257.69	21.91	-41.5	-44.9	13.0	4.73e-05	0	61	0	670040064	54	5388
2026-01-16 01:05:19.54	257.50	21.81	-41.6	-45.1	12.8	3.43e-05	0	60	0	671088640	54	5506
2026-01-16 01:05:20.55	257.31	21.70	-41.7	-45.2	12.8	6.02e-05	0	60	0	673185792	54	5562
2026-01-16 01:05:21.56	257.13	21.60	-41.7	-45.2	12.7	6.02e-05	0	60	0	675282944	54	5579
2026-01-16 01:05:22.57	256.94	21.50	-41.7	-45.2	12.7	7.55e-05	0	60	0	677380096	54	5588
2026-01-16 01:05:23.57	256.76	21.40	-41.7	-45.2	12.8	6.25e-05	0	60	0	679477248	54	5530
2026-01-16 01:05:24.58	256.58	21.30	-41.6	-45.1	12.9	7.01e-05	0	60	0	681574400	54	5481
2026-01-16 01:05:25.59	256.40	21.20	-41.5	-44.8	13.2	2.28e-05	0	60	0	682622976	54	5328
2026-01-16 01:05:26.61	256.21	21.10	-41.4	-44.6	13.4	1.83e-05	0	60	0	684720128	54	5205
2026-01-16 01:05:27.61	256.04	21.00	-41.3	-44.5	13.5	8.30e-06	0	60	0	686817280	54	5132
2026-01-16 01:05:28.63	255.86	20.89	-41.2	-44.4	13.6	1.06e-05	0	60	0	688914432	54	5093
2026-01-16 01:05:29.63	255.68	20.79	-41.3	-44.6	13.4	6.80e-06	0	60	0	691011584	54	5165
2026-01-16 01:05:30.64	255.51	20.69	-41.6	-45.1	12.9	2.67e-05	0	60	0	692060160	54	5481
2026-01-16 01:05:31.65	255.33	20.59	-41.6	-45.0	12.9	3.73e-05	0	60	0	694157312	54	5454
2026-01-16 01:05:32.66	255.16	20.49	-41.7	-45.2	12.7	5.72e-05	0	60	0	696254464	54	5581
2026-01-16 01:05:33.67	254.99	20.39	-41.8	-45.5	12.4	1.91e-04	0	60	0	698351616	54	5765
2026-01-16 01:05:34.68	254.82	20.29	-41.8	-45.5	12.4	1.41e-04	0	60	0	700448768	54	5766
2026-01-16 01:05:35.69	254.65	20.19	-41.8	-45.5	12.5	1.31e-04	0	60	0	701497344	54	5749
2026-01-16 01:05:36.70	254.48	20.09	-41.8	-45.4	12.5	1.42e-04	0	60	0	703594496	54	5700
2026-01-16 01:05:37.71	254.31	19.99	-41.6	-45.2	12.8	6.17e-05	0	60	0	705691648	54	5536
2026-01-16 01:05:38.72	254.14	19.89	-41.2	-44.4	13.5	3.50e-05	0	60	0	707788800	54	5093
2026-01-16 01:05:39.73	253.98	19.79	-41.3	-44.6	13.5	1.37e-05	0	60	0	709885952	54	5173
2026-01-16 01:05:40.74	253.81	19.69	-41.2	-44.3	13.7	6.80e-06	0	60	0	710934528	54	5020
2026-01-16 01:05:41.75	253.65	19.60	-41.2	-44.3	13.7	2.20e-06	0	60	0	713031680	54	5001
2026-01-16 01:05:42.76	253.49	19.50	-41.1	-44.2	13.8	3.80e-06	0	60	0	715128832	54	4949
2026-01-16 01:05:43.77	253.33	19.40	-41.1	-44.2	13.7	8.30e-06	0	60	0	717225984	54	4976
2026-01-16 01:05:44.78	253.17	19.30	-41.3	-44.5	13.5	9.90e-06	0	60	0	719323136	54	5130
2026-01-16 01:05:45.79	253.01	19.20	-41.4	-44.7	13.2	1.14e-05	0	60	0	720371712	54	5270
2026-01-16 01:05:46.79	252.85	19.10	-41.8	-45.4	12.6	6.02e-05	0	60	0	722468864	54	5666
2026-01-16 01:05:47.80	252.69	19.00	-41.8	-45.4	12.5	9.15e-05	0	60	0	724566016	54	5709
2026-01-16 01:05:48.81	252.54	18.91	-42.0	-45.9	12.0	2.16e-04	0	60	0	726663168	54	6051
2026-01-16 01:05:49.82	252.38	18.81	-42.0	-45.9	12.0	2.98e-04	0	60	0	728760320	54	6053
2026-01-16 01:05:50.83	252.23	18.71	-42.2	-46.3	11.5	6.20e-04	0	60	0	729808896	54	6343
2026-01-16 01:05:51.84	252.08	18.61	-42.1	-46.1	11.8	8.69e-04	0	60	0	731906048	55	5830
2026-01-16 01:05:52.85	251.92	18.52	-42.2	-46.3	11.6	5.08e-04	0	61	0	734003200	55	5946
2026-01-16 01:05:53.86	251.77	18.42	-42.1	-46.0	11.8	5.07e-04	0	60	0	736100352	55	5787
2026-01-16 01:05:54.87	251.62	18.32	-41.9	-45.8	12.1	2.86e-04	0	61	0	738197504	55	5621
2026-01-16 01:05:55.88	251.47	18.22	-41.9	-45.7	12.2	2.30e-04	0	61	0	739246080	55	5552
2026-01-16 01:05:56.89	251.33	18.13	-41.8	-45.5	12.5	1.33e-04	0	60	0	741343232	55	5420
2026-01-16 01:05:57.90	251.18	18.03	-41.6	-45.2	12.7	9.07e-05	0	60	0	743440384	55	5223
2026-01-16 01:05:58.91	251.03	17.94	-41.6	-45.2	12.7	7.78e-05	0	60	0	745537536	55	5236
2026-01-16 01:05:59.92	250.89	17.84	-41.9	-45.6	12.2	1.48e-04	0	60	0	747634688	55	5527
2026-01-16 01:06:00.93	250.74	17.74	-42.0	-45.9	12.0	2.30e-04	0	60	0	749731840	55	5688
2026-01-16 01:06:01.94	250.60	17.65	-42.1	-46.1	11.7	3.58e-04	0	60	0	750780416	55	5844
2026-01-16 01:06:02.95	250.46	17.55	-42.3	-46.5	11.3	1.18e-03	0	60	0	752877568	55	6080
2026-01-16 01:06:03.96	250.32	17.46	-42.2	-46.4	11.4	1.16e-03	0	61	0	754974720	55	6033
2026-01-16 01:06:04.97	250.18	17.36	-42.2	-46.4	11.5	8.32e-04	0	60	0	757071872	55	6003
2026-01-16 01:06:05.98	250.04	17.27	-42.1	-46.3	11.6	5.72e-04	0	60	0	759169024	55	5925
2026-01-16 01:06:06.99	249.90	17.17	-42.1	-46.1	11.7	5.97e-04	0	60	0	760217600	55	5844
2026-01-16 01:06:08.00	249.76	17.08	-41.9	-45.7	12.1	3.83e-04	0	60	0	762314752	55	5569
2026-01-16 01:06:09.01	249.62	16.98	-41.8	-45.6	12.2	2.81e-04	0	60	0	764411904	55	5492
2026-01-16 01:06:10.02	249.49	16.89	-41.6	-45.2	12.6	1.32e-04	0	60	0	766509056	55	5274
2026-01-16 01:06:11.03	249.35	16.79	-41.6	-45.2	12.6	6.25e-05	0	60	0	768606208	55	5277
2026-01-16 01:06:12.03	249.22	16.70	-41.6	-45.1	12.7	7.24e-05	0	61	0	769654784	55	5199
2026-01-16 01:06:13.04	249.08	16.61	-41.6	-45.1	12.7	6.02e-05	0	61	0	771751936	55	5211
2026-01-16 01:06:14.05	248.95	16.51	-41.6	-45.2	12.7	1.08e-04	0	60	0	773849088	55	5219
2026-01-16 01:06:15.06	248.82	16.42	-41.6	-45.2	12.6	9.76e-05	0	61	0	775946240	55	5245
2026-01-16 01:06:16.07	248.69	16.33	-41.8	-45.5	12.3	1.32e-04	0	60	0	778043392	55	5462
2026-01-16 01:06:17.08	248.56	16.24	-41.8	-45.6	12.3	1.12e-04	0	60	0	779091968	55	5474
2026-01-16 01:06:18.09	248.43	16.14	-41.9	-45.7	12.1	2.26e-04	0	61	0	781189120	55	5570
2026-01-16 01:06:19.10	248.30	16.05	-41.9	-45.8	12.0	3.32e-04	0	60	0	783286272	55	5622
2026-01-16 01:06:20.11	248.17	15.96	-42.0	-46.0	11.8	4.39e-04	0	60	0	785383424	55	5756
2026-01-16 01:06:21.12	248.04	15.87	-42.0	-46.0	11.8	4.97e-04	0	60	0	787480576	55	5759
2026-01-16 01:06:22.13	247.92	15.77	-42.0	-46.1	11.7	4.90e-04	0	61	0	788529152	55	5801
2026-01-16 01:06:23.14	247.79	15.68	-42.0	-46.0	11.7	5.74e-04	0	61	0	790626304	55	5779
2026-01-16 01:06:24.15	247.67	15.59	-41.8	-45.6	12.2	3.07e-04	0	60	0	792723456	55	5478
2026-01-16 01:06:25.16	247.54	15.50	-41.8	-45.6	12.1	2.88e-04	0	61	0	794820608	55	5515
2026-01-16 01:06:26.17	247.42	15.41	-41.8	-45.6	12.2	2.46e-04	0	61	0	796917760	55	5484
2026-01-16 01:06:27.18	247.30	15.32	-41.8	-45.6	12.2	2.02e-04	0	60	0	797966336	55	5484
2026-01-16 01:06:28.19	247.18	15.23	-41.8	-45.5	12.3	1.90e-04	0	61	0	800063488	55	5427
2026-01-16 01:06:29.19	247.06	15.14	-41.8	-45.5	12.3	1.58e-04	0	60	0	802160640	55	5438
2026-01-16 01:06:30.20	246.94	15.05	-41.8	-45.5	12.3	2.12e-04	0	60	0	804257792	55	5432
2026-01-16 01:06:31.21	246.82	14.96	-41.8	-45.6	12.1	2.07e-04	0	61	0	806354944	55	5521
2026-01-16 01:06:32.22	246.70	14.87	-42.0	-46.1	11.6	5.80e-04	0	61	0	807403520	55	5830
2026-01-16 01:06:33.23	246.58	14.78	-42.2	-46.4	11.3	9.46e-04	0	61	0	809500672	55	6039
2026-01-16 01:06:34.24	246.46	14.69	-42.5	-47.1	10.6	1.73e-03	0	60	0	811597824	55	6558
2026-01-16 01:06:35.25	246.35	14.60	-42.6	-47.4	10.3	4.51e-03	0	60	0	813694976	55	6772
2026-01-16 01:06:36.26	246.23	14.51	-42.9	-48.0	9.8	8.89e-03	0	61	0	815792128	56	6815
2026-01-16 01:06:37.27	246.11	14.42	-42.9	-48.0	9.7	9.51e-03	0	61	0	817889280	56	6857
2026-01-16 01:06:38.28	246.00	14.33	-42.8	-47.8	10.0	6.94e-03	0	60	0	818937856	56	6681
2026-01-16 01:06:39.28	245.89	14.25	-42.8	-47.6	10.2	5.68e-03	0	60	0	821035008	56	6509
2026-01-16 01:06:40.30	245.77	14.16	-42.5	-46.9	10.9	2.74e-03	0	60	0	823132160	56	6042
2026-01-16 01:06:41.31	245.66	14.07	-42.3	-46.5	11.4	1.52e-03	0	60	0	825229312	56	5748
2026-01-16 01:06:42.32	245.55	13.98	-42.1	-46.1	11.8	6.94e-04	0	60	0	827326464	56	5485
2026-01-16 01:06:43.33	245.44	13.89	-41.8	-45.6	12.2	3.66e-04	0	60	0	828375040	55	5467
2026-01-16 01:06:44.34	245.33	13.81	-41.6	-45.2	12.5	1.58e-04	0	60	0	830472192	55	5247
2026-01-16 01:06:45.35	245.22	13.72	-41.5	-45.0	12.7	1.01e-04	0	60	0	832569344	55	5143
2026-01-16 01:06:46.36	245.11	13.63	-41.5	-45.0	12.7	8.23e-05	0	61	0	834666496	54	5464
2026-01-16 01:06:47.36	245.00	13.55	-41.5	-45.1	12.7	7.70e-05	0	60	0	836763648	54	5481
2026-01-16 01:06:48.37	244.89	13.46	-41.6	-45.4	12.3	1.56e-04	0	60	0	837812224	54	5672
2026-01-16 01:06:49.38	244.79	13.37	-41.7	-45.5	12.2	2.16e-04	0	60	0	839909376	54	5780
2026-01-16 01:06:50.39	244.68	13.29	-41.9	-46.0	11.7	3.81e-04	0	61	0	842006528	54	6071
2026-01-16 01:06:51.40	244.57	13.20	-42.1	-46.4	11.3	8.22e-04	0	61	0	844103680	54	6358
2026-01-16 01:06:52.41	244.47	13.12	-42.3	-46.7	10.9	1.84e-03	0	60	0	846200832	55	6263
2026-01-16 01:06:53.42	244.36	13.03	-42.5	-47.3	10.3	3.67e-03	0	61	0	847249408	55	6670
2026-01-16 01:06:54.43	244.26	12.95	-42.6	-47.7	9.9	5.61e-03	0	61	0	849346560	55	6982
2026-01-16 01:06:55.44	244.16	12.86	-42.7	-47.9	9.7	1.02e-02	0	60	0	851443712	55	7129
2026-01-16 01:06:56.44	244.05	12.78	-43.0	-48.3	9.5	1.35e-02	0	60	0	853540864	56	7070
2026-01-16 01:06:57.45	243.95	12.69	-43.0	-48.5	9.2	1.86e-02	0	61	0	855638016	56	7228
2026-01-16 01:06:58.47	243.85	12.61	-43.0	-48.5	9.2	2.13e-02	0	60	0	856686592	56	7274
2026-01-16 01:06:59.48	243.75	12.52	-43.0	-48.5	9.2	1.69e-02	0	61	0	858783744	56	7270
2026-01-16 01:07:00.49	243.65	12.44	-43.0	-48.5	9.3	1.99e-02	0	60	0	860880896	56	7215
2026-01-16 01:07:01.49	243.55	12.36	-42.9	-48.3	9.4	1.82e-02	0	60	0	862978048	56	7091
2026-01-16 01:07:02.50	243.45	12.27	-42.9	-48.3	9.4	1.65e-02	0	60	0	865075200	56	7083
2026-01-16 01:07:03.51	243.35	12.19	-43.0	-48.4	9.2	1.67e-02	0	61	0	866123776	56	7176
2026-01-16 01:07:04.52	243.25	12.11	-42.9	-48.4	9.4	1.72e-02	0	61	0	868220928	56	7127
2026-01-16 01:07:05.54	243.15	12.02	-42.9	-48.1	9.5	1.49e-02	0	60	0	870318080	56	6936
2026-01-16 01:07:06.55	243.06	11.94	-42.9	-48.3	9.4	1.56e-02	0	61	0	872415232	56	7106
2026-01-16 01:07:07.56	242.96	11.86	-42.9	-48.2	9.5	1.59e-02	0	60	0	874512384	56	7040
2026-01-16 01:07:08.57	242.86	11.77	-42.8	-48.1	9.6	1.32e-02	0	60	0	875560960	56	6923
2026-01-16 01:07:09.58	242.77	11.69	-42.9	-48.1	9.5	1.22e-02	0	60	0	877658112	56	6954
2026-01-16 01:07:10.59	242.67	11.61	-42.8	-47.9	9.7	1.16e-02	0	60	0	879755264	56	6779
2026-01-16 01:07:11.60	242.58	11.53	-42.7	-47.8	9.9	1.13e-02	0	60	0	881852416	56	6670
2026-01-16 01:07:12.60	242.49	11.45	-42.8	-47.9	9.7	1.09e-02	0	61	0	883949568	56	6783
2026-01-16 01:07:13.61	242.39	11.37	-42.8	-47.8	9.8	1.04e-02	0	60	0	886046720	56	6717
2026-01-16 01:07:14.62	242.30	11.28	-42.8	-47.9	9.7	9.12e-03	0	61	0	887095296	56	6778
2026-01-16 01:07:15.63	242.21	11.20	-42.8	-48.0	9.6	1.19e-02	0	61	0	889192448	56	6866
2026-01-16 01:07:16.64	242.12	11.12	-42.8	-47.9	9.7	1.27e-02	0	61	0	891289600	56	6770
2026-01-16 01:07:17.65	242.03	11.04	-42.8	-47.9	9.7	1.08e-02	0	60	0	893386752	56	6730
2026-01-16 01:07:18.66	241.94	10.96	-42.8	-48.0	9.7	1.13e-02	0	60	0	895483904	56	6848
2026-01-16 01:07:19.67	241.84	10.88	-42.8	-47.9	9.7	1.27e-02	0	60	0	896532480	56	6791
2026-01-16 01:07:20.68	241.76	10.80	-42.8	-47.9	9.7	1.25e-02	0	60	0	898629632	56	6784
2026-01-16 01:07:21.69	241.67	10.72	-42.8	-48.1	9.5	1.27e-02	0	60	0	900726784	56	6934
2026-01-16 01:07:22.70	241.58	10.64	-42.8	-48.0	9.6	1.44e-02	0	60	0	902823936	56	6861
2026-01-16 01:07:23.71	241.49	10.56	-42.7	-47.8	9.9	1.01e-02	0	61	0	904921088	56	6663
2026-01-16 01:07:24.72	241.40	10.48	-42.6	-47.5	10.1	8.50e-03	0	61	0	905969664	56	6478
2026-01-16 01:07:25.73	241.31	10.40	-42.5	-47.3	10.3	6.29e-03	0	61	0	908066816	56	6292
2026-01-16 01:07:26.74	241.23	10.33	-42.4	-47.0	10.7	4.10e-03	0	60	0	910163968	56	6066
2026-01-16 01:07:27.75	241.14	10.25	-42.3	-46.8	10.8	2.48e-03	0	61	0	912261120	56	5985
2026-01-16 01:07:28.76	241.06	10.17	-42.3	-46.8	10.8	2.76e-03	0	61	0	914358272	56	5935
2026-01-16 01:07:29.77	240.97	10.09	-42.2	-46.7	11.0	1.97e-03	0	61	0	915406848	56	5867
2026-01-16 01:07:30.78	240.89	10.01	-42.3	-46.7	10.9	1.90e-03	0	61	0	917504000	56	5907
2026-01-16 01:07:31.79	240.80	9.93	-42.2	-46.5	11.1	1.49e-03	0	61	0	919601152	56	5744
2026-01-16 01:07:32.80	240.72	9.86	-42.1	-46.5	11.2	1.51e-03	0	61	0	921698304	56	5727
2026-01-16 01:07:33.81	240.63	9.78	-42.1	-46.5	11.1	1.48e-03	0	61	0	923795456	56	5744
2026-01-16 01:07:34.82	240.55	9.70	-42.1	-46.5	11.1	1.63e-03	0	61	0	924844032	56	5754
2026-01-16 01:07:35.83	240.47	9.62	-42.2	-46.5	11.1	1.70e-03	0	61	0	926941184	56	5784
2026-01-16 01:07:36.84	240.39	9.55	-42.3	-46.8	10.8	1.98e-03	0	61	0	929038336	56	5983
2026-01-16 01:07:37.84	240.31	9.47	-42.3	-47.0	10.6	3.25e-03	0	60	0	931135488	56	6081
2026-01-16 01:07:38.85	240.22	9.39	-42.5	-47.3	10.3	5.07e-03	0	61	0	933232640	56	6301
2026-01-16 01:07:39.86	240.14	9.32	-42.6	-47.6	9.9	7.04e-03	0	61	0	934281216	56	6540
2026-01-16 01:07:40.87	240.06	9.24	-42.7	-47.9	9.7	1.13e-02	0	61	0	936378368	56	6760
2026-01-16 01:07:41.88	239.98	9.16	-42.7	-48.1	9.4	1.26e-02	0	60	0	938475520	56	6908
2026-01-16 01:07:42.89	239.90	9.09	-42.9	-48.5	9.0	1.74e-02	0	60	0	940572672	56	7240
2026-01-16 01:07:43.90	239.83	9.01	-43.0	-48.8	8.6	3.15e-02	0	61	0	942669824	56	7529
2026-01-16 01:07:44.91	239.75	8.94	-43.0	-48.9	8.6	3.53e-02	0	60	0	943718400	56	7586
2026-01-16 01:07:45.92	239.67	8.86	-43.0	-49.1	8.4	4.24e-02	0	60	0	945815552	56	7756
2026-01-16 01:07:46.93	239.59	8.79	-43.1	-49.2	8.2	5.19e-02	0	60	0	947912704	56	7860
2026-01-16 01:07:47.94	239.51	8.71	-43.1	-49.3	8.1	5.44e-02	0	60	0	950009856	56	7924
2026-01-16 01:07:48.95	239.44	8.64	-43.0	-49.2	8.2	4.95e-02	0	61	0	952107008	56	7840
2026-01-16 01:07:49.96	239.36	8.56	-43.1	-49.5	7.9	6.21e-02	0	60	0	953155584	56	8124
2026-01-16 01:07:50.97	239.28	8.49	-43.1	-49.4	8.0	6.60e-02	0	60	0	955252736	56	8028
