passes_logs/2026/01/16/R2.0S_Moscow/R2.0S_Moscow__20260116_090638_SUOMI_NPP_rec.log

#Pass ID: 20260116_090638_SUOMI NPP
#Satellite: SUOMI NPP
#Configuration: NPP
#almurnet v.1.7.20251203
#Start time: 2026-01-16 09:06:40

#Version: 2.2.20231116
#Station: R2.0S_Moscow
#Location: 37.707566 lon 55.798166 lat
#TLE: 1 37849U 11061A   26015.52691075  .00000052  00000+0  45753-4 0  9993
#TLE: 2 37849  98.7811 317.5709 0002448  62.7632 297.3794 14.19525354736784

#Time	Az	El	Level	Level2	SNR	BER	BlckErr	Temp	State	Recorded	gain1	gain2
2026-01-16 09:06:40.79	134.77	2.13	-19.6	-33.6	3.8	1.50e+00	0	52	0	0	7	21786
2026-01-16 09:06:41.79	134.74	2.20	-13.9	-26.5	3.8	1.50e+00	0	52	104	0	1	13583
2026-01-16 09:06:42.80	134.70	2.26	-12.9	-25.7	3.9	1.50e+00	0	52	104	0	0	13197
2026-01-16 09:06:43.81	134.66	2.32	-17.3	-28.7	4.1	1.50e+00	0	52	104	0	1	17625
2026-01-16 09:06:44.82	134.62	2.39	-16.9	-29.8	3.8	1.50e+00	0	52	104	0	4	16712
2026-01-16 09:06:45.83	134.59	2.45	-16.8	-29.2	3.8	1.50e+00	0	52	104	0	4	15749
2026-01-16 09:06:46.85	134.55	2.52	-16.9	-29.7	3.9	1.50e+00	0	52	104	0	7	13893
2026-01-16 09:06:47.86	134.51	2.58	-16.0	-29.0	3.9	1.50e+00	0	52	104	0	2	17244
2026-01-16 09:06:48.86	134.47	2.64	-16.1	-29.5	3.9	1.50e+00	0	52	104	0	5	15268
2026-01-16 09:06:49.87	134.44	2.71	-19.9	-32.7	3.8	1.50e+00	0	52	104	0	7	19672
2026-01-16 09:06:50.88	134.40	2.77	-18.6	-32.5	3.9	1.50e+00	0	53	104	0	7	19269
2026-01-16 09:06:51.90	134.36	2.84	-17.7	-29.2	4.0	1.50e+00	0	52	104	0	3	16659
2026-01-16 09:06:52.91	134.32	2.90	-19.7	-32.0	3.8	1.51e+00	0	53	104	0	9	16213
2026-01-16 09:06:53.92	134.28	2.96	-19.2	-32.6	3.7	1.50e+00	0	53	104	0	5	21924
2026-01-16 09:06:54.93	134.24	3.03	-18.3	-32.4	3.7	1.51e+00	0	53	104	0	7	18961
2026-01-16 09:06:55.94	134.20	3.09	-15.8	-27.6	3.9	1.50e+00	0	53	104	0	4	13100
2026-01-16 09:06:56.95	134.16	3.16	-15.7	-27.9	3.6	1.50e+00	0	53	104	0	0	16931
2026-01-16 09:06:57.96	134.12	3.23	-12.9	-25.8	3.6	1.50e+00	0	53	104	0	2	11910
2026-01-16 09:06:58.97	134.08	3.29	-15.1	-28.2	3.7	1.50e+00	0	53	104	0	1	16507
2026-01-16 09:06:59.98	134.04	3.36	-18.9	-31.8	3.7	1.51e+00	0	53	104	0	8	16808
2026-01-16 09:07:00.99	134.00	3.42	-17.2	-32.4	3.8	1.50e+00	0	53	104	0	5	21375
2026-01-16 09:07:02.00	133.96	3.49	-15.8	-27.9	3.7	1.50e+00	0	53	104	0	2	15071
2026-01-16 09:07:03.02	133.92	3.55	-15.1	-28.5	3.7	1.50e+00	0	54	104	0	2	16172
2026-01-16 09:07:04.03	133.88	3.62	-15.3	-29.3	3.9	1.50e+00	0	54	104	0	2	17884
2026-01-16 09:07:05.04	133.84	3.69	-17.3	-31.5	3.6	1.51e+00	0	53	104	0	5	19370
2026-01-16 09:07:06.05	133.80	3.75	-18.5	-33.8	3.9	1.50e+00	0	54	104	0	7	22427
2026-01-16 09:07:07.06	133.76	3.82	-19.2	-35.1	3.4	1.50e+00	0	54	104	0	11	20722
2026-01-16 09:07:08.07	133.72	3.89	-15.5	-30.9	3.8	1.50e+00	0	54	104	0	2	21376
2026-01-16 09:07:09.08	133.68	3.95	-17.2	-28.7	4.1	1.50e+00	0	54	104	0	0	18568
2026-01-16 09:07:10.09	133.63	4.02	-12.5	-24.4	3.9	1.50e+00	0	54	104	0	0	11369
2026-01-16 09:07:11.10	133.59	4.09	-12.6	-24.6	4.2	1.50e+00	0	54	104	0	0	11632
2026-01-16 09:07:12.11	133.55	4.15	-16.4	-30.7	3.5	1.50e+00	0	54	104	0	7	15737
2026-01-16 09:07:13.12	133.51	4.22	-15.2	-26.7	4.0	1.50e+00	0	54	104	0	2	13158
2026-01-16 09:07:14.13	133.46	4.29	-16.9	-31.7	3.6	1.51e+00	0	54	104	0	7	17603
2026-01-16 09:07:15.14	133.42	4.36	-15.0	-27.6	4.0	1.51e+00	0	54	104	0	2	14569
2026-01-16 09:07:16.15	133.38	4.42	-20.6	-33.6	3.8	1.50e+00	0	54	104	0	12	16398
2026-01-16 09:07:17.16	133.34	4.49	-17.2	-31.6	3.6	1.50e+00	0	54	104	0	11	13783
2026-01-16 09:07:18.17	133.29	4.56	-14.6	-28.0	3.7	1.50e+00	0	54	104	0	4	13702
2026-01-16 09:07:19.18	133.25	4.63	-18.6	-33.8	3.5	1.49e+00	0	54	104	0	12	16732
2026-01-16 09:07:20.19	133.20	4.70	-16.3	-29.8	3.7	1.50e+00	0	54	104	0	3	17755
2026-01-16 09:07:21.20	133.16	4.77	-19.1	-31.7	3.7	1.50e+00	0	54	104	0	6	18559
2026-01-16 09:07:22.21	133.12	4.84	-17.5	-29.2	3.8	1.51e+00	0	54	104	0	5	14745
2026-01-16 09:07:23.22	133.07	4.90	-16.3	-29.6	3.8	1.51e+00	0	55	104	0	8	12980
2026-01-16 09:07:24.23	133.03	4.97	-20.1	-36.7	3.3	1.50e+00	0	54	104	0	12	23536
2026-01-16 09:07:25.24	132.98	5.04	-20.3	-34.9	3.6	1.49e+00	0	54	104	0	9	22761
2026-01-16 09:07:26.26	132.94	5.11	-21.9	-35.3	3.8	1.50e+00	0	55	104	0	9	23591
2026-01-16 09:07:27.27	132.89	5.18	-20.0	-34.8	3.7	1.50e+00	0	55	104	0	11	20025
2026-01-16 09:07:28.28	132.84	5.25	-21.5	-33.5	3.5	1.50e+00	0	55	104	0	10	18118
2026-01-16 09:07:29.29	132.80	5.32	-18.9	-34.1	3.3	1.50e+00	0	55	104	0	12	17467
2026-01-16 09:07:30.30	132.75	5.39	-20.6	-33.1	3.8	1.50e+00	0	55	104	0	10	17377
2026-01-16 09:07:31.31	132.71	5.46	-20.7	-35.2	3.4	1.49e+00	0	55	104	0	12	19713
2026-01-16 09:07:32.32	132.66	5.53	-20.4	-32.5	3.8	1.50e+00	0	55	104	0	9	17276
2026-01-16 09:07:33.33	132.61	5.60	-15.0	-28.6	3.9	1.50e+00	0	55	104	0	2	16399
2026-01-16 09:07:34.34	132.56	5.68	-21.1	-37.1	3.3	1.49e+00	0	55	104	0	17	18488
2026-01-16 09:07:35.35	132.52	5.75	-20.1	-31.6	3.9	1.50e+00	0	55	104	0	6	18310
2026-01-16 09:07:36.36	132.47	5.82	-21.5	-34.8	3.3	1.50e+00	0	55	104	0	12	18925
2026-01-16 09:07:37.37	132.42	5.89	-20.4	-32.1	3.5	1.49e+00	0	55	104	0	8	17469
2026-01-16 09:07:38.38	132.37	5.96	-17.2	-31.7	3.8	1.50e+00	0	55	104	0	5	19766
2026-01-16 09:07:39.39	132.32	6.03	-20.6	-33.5	3.4	1.50e+00	0	56	0	0	9	19263
2026-01-16 09:07:40.40	132.28	6.10	-19.6	-34.8	3.6	1.50e+00	0	55	104	0	11	19975
2026-01-16 09:07:41.41	132.23	6.18	-20.5	-36.3	3.4	1.49e+00	0	56	0	0	15	18752
2026-01-16 09:07:42.41	132.18	6.25	-20.0	-36.5	3.3	1.49e+00	0	56	104	0	14	20385
2026-01-16 09:07:43.43	132.13	6.32	-18.4	-31.7	3.5	1.49e+00	0	55	104	0	10	14836
2026-01-16 09:07:44.44	132.08	6.39	-15.3	-30.6	3.6	1.50e+00	0	56	104	0	6	16501
2026-01-16 09:07:45.45	132.03	6.47	-12.8	-25.6	3.7	1.50e+00	0	56	104	0	0	13082
2026-01-16 09:07:46.46	131.98	6.54	-21.9	-35.9	3.5	1.50e+00	0	56	0	0	11	22695
2026-01-16 09:07:47.47	131.93	6.61	-22.1	-37.0	3.4	1.50e+00	0	56	104	0	13	22794
2026-01-16 09:07:48.48	131.88	6.69	-16.6	-30.7	3.5	1.50e+00	0	56	104	0	8	14777
2026-01-16 09:07:49.49	131.83	6.76	-19.9	-32.2	3.8	1.50e+00	0	56	104	0	5	20917
2026-01-16 09:07:50.50	131.78	6.83	-14.4	-25.8	4.0	1.50e+00	0	56	104	0	3	11250
2026-01-16 09:07:51.51	131.72	6.91	-20.3	-32.7	3.6	1.50e+00	0	56	104	0	7	19768
2026-01-16 09:07:52.52	131.67	6.98	-16.0	-34.9	3.4	1.50e+00	0	56	104	0	5	28384
2026-01-16 09:07:53.53	131.62	7.06	-16.6	-30.6	3.6	1.50e+00	0	56	104	0	5	17394
2026-01-16 09:07:54.54	131.57	7.13	-18.9	-30.4	3.7	1.50e+00	0	56	104	0	5	17008
2026-01-16 09:07:55.55	131.51	7.21	-13.7	-26.9	3.8	1.50e+00	0	56	104	0	6	10705
2026-01-16 09:07:56.56	131.46	7.28	-19.6	-33.2	3.5	1.50e+00	0	56	104	0	10	17557
2026-01-16 09:07:57.57	131.41	7.36	-16.8	-31.7	3.8	1.50e+00	0	56	104	0	1	24978
2026-01-16 09:07:58.58	131.36	7.43	-16.8	-32.7	3.7	1.50e+00	0	56	104	0	4	23478
2026-01-16 09:07:59.59	131.30	7.51	-16.9	-34.7	3.6	1.50e+00	0	56	104	0	6	26459
2026-01-16 09:08:00.60	131.25	7.58	-19.4	-35.6	3.4	1.49e+00	0	56	104	0	12	20660
2026-01-16 09:08:01.61	131.19	7.66	-20.5	-33.1	3.5	1.50e+00	0	56	104	0	9	18370
2026-01-16 09:08:02.62	131.14	7.73	-16.3	-29.3	3.5	1.50e+00	0	56	104	0	5	14971
2026-01-16 09:08:03.63	131.08	7.81	-20.5	-33.4	3.6	1.50e+00	0	56	104	0	9	19071
2026-01-16 09:08:04.64	131.03	7.89	-22.0	-36.0	3.6	1.49e+00	0	56	104	0	11	22853
2026-01-16 09:08:05.65	130.97	7.96	-19.9	-32.8	3.3	1.50e+00	0	57	104	0	5	22391
2026-01-16 09:08:06.66	130.92	8.04	-20.3	-36.8	3.4	1.50e+00	0	56	104	0	14	21056
2026-01-16 09:08:07.67	130.86	8.12	-21.2	-37.4	3.4	1.50e+00	0	56	104	0	12	25363
2026-01-16 09:08:08.68	130.80	8.20	-14.6	-25.7	4.0	1.50e+00	0	57	104	0	1	12443
2026-01-16 09:08:09.69	130.75	8.27	-12.8	-26.5	3.9	1.51e+00	0	57	104	0	1	13705
2026-01-16 09:08:10.71	130.69	8.35	-18.6	-32.8	3.7	1.51e+00	0	57	104	0	6	21256
2026-01-16 09:08:11.72	130.63	8.43	-16.9	-29.4	3.9	1.50e+00	0	57	104	0	5	15087
2026-01-16 09:08:12.72	130.57	8.51	-14.5	-26.7	3.8	1.50e+00	0	57	104	0	3	12408
2026-01-16 09:08:13.73	130.52	8.59	-15.1	-26.5	4.1	1.51e+00	0	57	104	0	3	12148
2026-01-16 09:08:14.75	130.46	8.66	-17.5	-31.3	3.6	1.51e+00	0	57	104	0	6	17796
2026-01-16 09:08:15.76	130.40	8.74	-19.3	-31.6	3.7	1.50e+00	0	57	104	0	7	17293
2026-01-16 09:08:16.77	130.34	8.82	-18.7	-32.7	3.6	1.50e+00	0	57	104	0	4	23484
2026-01-16 09:08:17.78	130.28	8.90	-21.6	-33.0	3.9	1.50e+00	0	57	104	0	7	20396
2026-01-16 09:08:18.79	130.22	8.98	-20.7	-33.7	3.6	1.50e+00	0	57	104	0	11	17572
2026-01-16 09:08:19.80	130.16	9.06	-16.8	-30.9	3.8	1.51e+00	0	57	104	0	3	20260
2026-01-16 09:08:20.81	130.10	9.14	-14.3	-26.9	3.6	1.50e+00	0	57	104	0	6	10705
2026-01-16 09:08:21.81	130.04	9.22	-17.0	-31.9	3.8	1.50e+00	0	57	104	0	5	20285
2026-01-16 09:08:22.82	129.98	9.30	-20.6	-33.5	3.6	1.50e+00	0	57	104	0	10	18206
2026-01-16 09:08:23.83	129.92	9.38	-15.9	-26.8	3.9	1.50e+00	0	57	104	0	6	10575
2026-01-16 09:08:24.84	129.86	9.46	-21.0	-33.7	3.7	1.50e+00	0	57	104	0	6	23375
2026-01-16 09:08:25.85	129.79	9.54	-19.7	-32.3	3.8	1.51e+00	0	57	104	0	6	19958
2026-01-16 09:08:26.86	129.73	9.63	-18.3	-32.3	3.7	1.50e+00	0	57	104	0	7	18757
2026-01-16 09:08:27.87	129.67	9.71	-19.2	-31.4	3.8	1.50e+00	0	57	104	0	4	20215
2026-01-16 09:08:28.88	129.60	9.79	-18.9	-32.5	3.6	1.50e+00	0	57	104	0	8	18229
2026-01-16 09:08:29.89	129.54	9.87	-19.8	-30.4	3.7	1.51e+00	0	57	104	0	9	13513
2026-01-16 09:08:30.90	129.48	9.95	-18.2	-29.2	3.9	1.51e+00	0	57	104	0	6	14042
2026-01-16 09:08:31.91	129.41	10.04	-11.8	-24.1	3.7	1.51e+00	0	57	104	0	7	7362
2026-01-16 09:08:32.92	129.35	10.12	-15.3	-29.2	3.7	1.50e+00	0	57	104	0	5	14769
2026-01-16 09:08:33.93	129.28	10.20	-19.4	-30.3	3.6	1.50e+00	0	57	104	0	6	15834
2026-01-16 09:08:34.94	129.22	10.28	-12.2	-24.7	3.7	1.50e+00	0	57	104	0	10	6636
2026-01-16 09:08:35.95	129.15	10.37	-17.7	-32.5	3.5	1.50e+00	0	57	104	0	8	18126
2026-01-16 09:08:36.96	129.08	10.45	-21.3	-34.1	3.4	1.50e+00	0	57	104	0	10	19613
2026-01-16 09:08:37.97	129.02	10.54	-16.8	-32.4	3.3	1.50e+00	0	57	104	0	10	16115
2026-01-16 09:08:38.98	128.95	10.62	-19.2	-32.4	3.5	1.50e+00	0	57	104	0	6	20150
2026-01-16 09:08:39.99	128.88	10.70	-14.7	-28.6	3.8	1.51e+00	0	58	104	0	4	14606
2026-01-16 09:08:41.00	128.81	10.79	-17.5	-34.2	3.6	1.50e+00	0	57	104	0	13	16655
2026-01-16 09:08:42.01	128.75	10.87	-17.3	-31.6	3.8	1.50e+00	0	58	104	0	5	19614
2026-01-16 09:08:43.02	128.68	10.96	-18.9	-32.8	3.8	1.50e+00	0	58	104	0	5	22481
2026-01-16 09:08:44.03	128.61	11.05	-18.2	-31.2	3.9	1.51e+00	0	58	104	0	5	18701
2026-01-16 09:08:45.04	128.54	11.13	-14.9	-28.4	3.9	1.51e+00	0	57	104	0	1	16903
2026-01-16 09:08:46.04	128.47	11.22	-16.1	-30.3	3.9	1.51e+00	0	58	104	0	4	17811
2026-01-16 09:08:47.05	128.40	11.30	-19.3	-32.5	3.6	1.51e+00	0	58	0	0	10	16307
2026-01-16 09:08:48.06	128.33	11.39	-18.5	-30.6	3.7	1.51e+00	0	58	104	0	4	18491
2026-01-16 09:08:49.07	128.26	11.48	-24.1	-37.9	3.8	1.50e+00	0	58	0	0	14	23931
2026-01-16 09:08:50.08	128.18	11.56	-25.8	-43.0	3.7	1.50e+00	0	58	104	0	22	27173
2026-01-16 09:08:51.09	128.11	11.65	-24.3	-42.1	3.8	1.50e+00	0	58	104	0	25	20729
2026-01-16 09:08:52.10	128.04	11.74	-23.3	-35.8	3.5	1.49e+00	0	58	104	0	12	21181
2026-01-16 09:08:53.11	127.97	11.83	-26.6	-40.4	3.8	1.49e+00	0	58	104	0	15	30354
2026-01-16 09:08:54.12	127.89	11.91	-24.3	-38.2	3.8	1.50e+00	0	58	104	0	15	23499
2026-01-16 09:08:55.13	127.82	12.00	-20.7	-34.0	3.9	1.50e+00	0	58	104	0	6	24251
2026-01-16 09:08:56.14	127.75	12.09	-22.2	-39.0	3.2	1.50e+00	0	58	104	0	14	27248
2026-01-16 09:08:57.15	127.67	12.18	-33.3	-46.8	3.8	1.51e+00	0	58	104	0	28	29793
2026-01-16 09:08:58.16	127.59	12.27	-27.2	-42.1	4.4	1.48e+00	0	58	104	0	22	24463
2026-01-16 09:08:59.17	127.52	12.36	-26.2	-45.3	4.7	1.47e+00	0	58	104	0	32	20043
2026-01-16 09:09:00.18	127.44	12.45	-16.4	-34.6	3.6	1.50e+00	0	58	104	0	14	16388
2026-01-16 09:09:01.20	127.36	12.54	-21.1	-40.6	4.1	1.49e+00	0	58	104	0	13	34642
2026-01-16 09:09:02.20	127.29	12.63	-25.8	-42.5	4.4	1.48e+00	0	58	104	0	25	21721
2026-01-16 09:09:03.21	127.21	12.72	-28.5	-44.0	4.5	1.48e+00	0	58	104	0	26	24310
2026-01-16 09:09:04.22	127.13	12.81	-28.0	-43.9	4.8	1.48e+00	0	59	104	0	28	21424
2026-01-16 09:09:05.23	127.05	12.90	-21.0	-36.4	5.0	1.49e+00	0	58	104	0	25	10747
2026-01-16 09:09:06.25	126.97	12.99	-21.3	-40.5	3.6	1.50e+00	0	58	104	0	16	28867
2026-01-16 09:09:07.25	126.89	13.09	-27.2	-44.2	4.4	1.49e+00	0	58	104	0	26	24761
2026-01-16 09:09:08.26	126.81	13.18	-35.6	-48.2	4.9	1.47e+00	0	58	104	0	38	19627
2026-01-16 09:09:09.27	126.73	13.27	-36.2	-47.3	4.8	1.46e+00	0	58	104	0	34	22469
2026-01-16 09:09:10.28	126.65	13.36	-24.2	-41.8	4.2	1.47e+00	0	58	104	0	28	16850
2026-01-16 09:09:11.30	126.57	13.46	-32.5	-47.6	4.6	1.45e+00	0	58	104	0	38	18375
2026-01-16 09:09:12.31	126.49	13.55	-38.6	-47.6	4.7	1.43e+00	0	58	104	0	37	19508
2026-01-16 09:09:13.32	126.40	13.64	-37.3	-49.4	4.9	1.44e+00	0	58	104	0	43	16933
2026-01-16 09:09:14.33	126.32	13.74	-36.8	-49.5	5.1	1.46e+00	0	58	104	0	43	17143
2026-01-16 09:09:15.34	126.24	13.83	-35.3	-48.5	4.9	1.46e+00	0	58	104	0	44	14496
2026-01-16 09:09:16.35	126.15	13.93	-39.3	-49.3	4.7	1.46e+00	0	58	104	0	43	16732
2026-01-16 09:09:17.36	126.07	14.02	-35.7	-50.5	4.8	1.42e+00	0	58	104	0	48	14467
2026-01-16 09:09:18.37	125.98	14.12	-35.7	-50.1	5.2	1.11e+00	0	58	0	0	46	15537
2026-01-16 09:09:19.38	125.89	14.21	-35.2	-49.9	4.6	1.33e+00	0	58	104	0	44	16962
2026-01-16 09:09:20.39	125.81	14.31	-37.7	-50.1	4.2	1.47e+00	0	58	104	0	48	13842
2026-01-16 09:09:21.40	125.72	14.40	-37.4	-50.8	5.5	1.45e+00	0	59	104	0	48	14891
2026-01-16 09:09:22.41	125.63	14.50	-39.2	-50.2	4.2	1.42e+00	0	58	104	0	49	13235
2026-01-16 09:09:23.42	125.54	14.60	-32.4	-47.9	4.1	1.46e+00	0	58	104	0	42	15076
2026-01-16 09:09:24.43	125.45	14.69	-33.6	-48.0	4.5	1.47e+00	0	59	104	0	39	18262
2026-01-16 09:09:25.43	125.37	14.79	-38.5	-48.9	4.7	1.46e+00	0	59	104	0	37	22563
2026-01-16 09:09:26.44	125.27	14.89	-37.9	-50.1	4.7	1.47e+00	0	59	104	0	45	16434
2026-01-16 09:09:27.45	125.18	14.98	-32.3	-46.4	4.2	1.45e+00	0	59	104	0	38	16074
2026-01-16 09:09:28.46	125.09	15.08	-31.4	-50.3	4.5	1.44e+00	0	58	104	0	39	23682
2026-01-16 09:09:29.47	125.00	15.18	-31.2	-51.4	5.0	1.45e+00	0	59	0	0	47	16902
2026-01-16 09:09:30.48	124.91	15.28	-39.5	-50.8	3.9	8.57e-01	0	59	104	1048576	42	21232
2026-01-16 09:09:31.49	124.81	15.38	-40.5	-52.0	5.4	8.38e-01	0	59	0	1048576	53	12861
2026-01-16 09:09:32.50	124.72	15.48	-42.5	-51.5	5.6	7.17e-01	0	59	0	3145728	52	12947
2026-01-16 09:09:33.51	124.62	15.58	-37.5	-50.2	5.9	6.80e-01	0	58	0	5242880	53	10442
2026-01-16 09:09:34.52	124.53	15.68	-38.6	-50.2	5.7	4.31e-01	0	59	0	6291456	53	10419
2026-01-16 09:09:35.53	124.43	15.78	-43.2	-50.6	6.5	4.78e-01	0	59	0	8388608	54	10411
2026-01-16 09:09:36.54	124.34	15.88	-37.8	-49.5	5.8	3.46e-01	0	59	0	10485760	53	9710
2026-01-16 09:09:37.55	124.24	15.98	-43.2	-50.6	7.1	4.54e-01	0	59	0	12582912	56	9232
2026-01-16 09:09:38.56	124.14	16.08	-40.1	-49.7	6.4	6.70e-01	0	59	0	13631488	48	13200
2026-01-16 09:09:39.57	124.04	16.19	-42.8	-50.1	6.7	5.81e-01	0	59	0	15728640	55	9279
2026-01-16 09:09:40.57	123.94	16.29	-37.8	-48.4	6.4	5.30e-01	0	59	0	16777216	50	10140
2026-01-16 09:09:41.58	123.84	16.39	-40.7	-50.6	6.3	4.20e-01	0	59	0	18874368	56	9279
2026-01-16 09:09:42.59	123.74	16.49	-42.2	-51.1	6.6	2.89e-01	0	59	0	20971520	57	9263
2026-01-16 09:09:43.60	123.64	16.60	-42.8	-51.1	6.1	6.38e-01	0	59	0	23068672	56	9829
2026-01-16 09:09:44.61	123.54	16.70	-40.5	-50.6	5.2	6.01e-01	0	59	0	24117248	51	12305
2026-01-16 09:09:45.62	123.44	16.80	-43.0	-51.4	6.2	3.03e-01	0	59	0	26214400	56	10078
2026-01-16 09:09:46.63	123.33	16.91	-42.7	-50.6	6.3	2.65e-01	0	59	0	28311552	55	9754
2026-01-16 09:09:47.64	123.23	17.01	-42.9	-50.1	7.5	1.63e-01	0	59	0	30408704	55	9244
2026-01-16 09:09:48.65	123.12	17.12	-43.1	-49.0	8.8	7.68e-02	0	59	0	32505856	56	7700
2026-01-16 09:09:49.66	123.02	17.22	-43.0	-48.7	8.6	1.99e-02	0	59	0	33554432	56	7426
2026-01-16 09:09:50.67	122.91	17.33	-43.0	-48.6	9.0	5.84e-02	0	59	0	35651584	56	7327
2026-01-16 09:09:51.68	122.80	17.43	-43.0	-48.6	9.3	4.53e-02	0	59	0	37748736	56	7334
2026-01-16 09:09:52.69	122.69	17.54	-43.0	-49.4	7.0	3.42e-02	0	59	0	39845888	55	8477
2026-01-16 09:09:53.69	122.59	17.65	-41.8	-49.0	7.3	1.23e-01	0	59	0	41943040	54	8636
2026-01-16 09:09:54.70	122.48	17.75	-43.1	-48.9	9.1	1.24e-01	0	59	0	42991616	56	7617
2026-01-16 09:09:55.72	122.36	17.86	-42.9	-48.2	9.6	2.50e-02	0	59	0	45088768	56	6977
2026-01-16 09:09:56.72	122.25	17.97	-40.0	-46.5	9.7	2.10e-02	0	59	0	47185920	53	6838
2026-01-16 09:09:57.73	122.14	18.08	-42.3	-46.8	10.1	6.17e-02	0	59	0	49283072	54	6673
2026-01-16 09:09:58.75	122.03	18.19	-42.3	-47.0	10.3	9.62e-03	0	59	0	51380224	55	6431
2026-01-16 09:09:59.76	121.91	18.29	-42.3	-47.4	10.4	9.22e-02	0	59	0	52428800	55	6776
2026-01-16 09:10:00.77	121.80	18.40	-42.1	-47.5	8.5	8.69e-02	0	59	0	54525952	52	8096
2026-01-16 09:10:01.78	121.68	18.51	-39.7	-47.5	6.7	1.45e-01	0	59	0	56623104	49	9629
2026-01-16 09:10:02.79	121.57	18.62	-42.6	-47.6	8.3	1.11e-01	0	59	0	58720256	54	7325
2026-01-16 09:10:03.80	121.45	18.73	-41.2	-46.8	8.7	1.92e-01	0	59	0	60817408	54	6705
2026-01-16 09:10:04.81	121.33	18.84	-42.0	-46.7	10.6	9.91e-02	0	59	0	61865984	54	6637
2026-01-16 09:10:05.82	121.21	18.96	-40.8	-46.4	10.5	8.65e-02	0	59	0	63963136	54	6398
2026-01-16 09:10:06.83	121.09	19.07	-41.6	-46.4	10.6	4.36e-02	0	59	0	66060288	54	6357
2026-01-16 09:10:07.84	120.97	19.18	-40.8	-46.5	10.4	2.09e-02	0	59	0	68157440	53	6839
2026-01-16 09:10:08.84	120.85	19.29	-42.3	-47.0	11.0	1.09e-02	0	59	0	70254592	55	6472
2026-01-16 09:10:09.85	120.73	19.40	-42.6	-47.3	10.7	2.73e-03	0	59	0	71303168	55	6689
2026-01-16 09:10:10.86	120.60	19.52	-42.3	-47.3	10.6	3.07e-03	0	59	0	73400320	55	6723
2026-01-16 09:10:11.87	120.48	19.63	-42.5	-47.2	10.8	3.47e-03	0	59	0	75497472	55	6627
2026-01-16 09:10:12.88	120.35	19.74	-42.4	-46.9	11.1	1.97e-03	0	59	0	77594624	55	6415
2026-01-16 09:10:13.89	120.23	19.86	-42.3	-46.8	11.2	1.51e-03	0	59	0	79691776	55	6316
2026-01-16 09:10:14.90	120.10	19.97	-42.5	-47.0	11.1	1.38e-03	0	59	0	80740352	55	6449
2026-01-16 09:10:15.91	119.97	20.09	-42.6	-47.2	10.8	2.20e-03	0	59	0	82837504	55	6616
2026-01-16 09:10:16.92	119.84	20.20	-42.6	-47.3	10.7	2.67e-03	0	59	0	84934656	55	6719
2026-01-16 09:10:17.93	119.71	20.32	-42.6	-47.4	10.6	3.06e-03	0	59	0	87031808	55	6786
2026-01-16 09:10:18.94	119.58	20.43	-42.6	-47.2	10.9	3.02e-03	0	59	0	89128960	55	6606
2026-01-16 09:10:19.96	119.45	20.55	-42.5	-47.1	11.0	1.94e-03	0	59	0	90177536	55	6529
2026-01-16 09:10:20.97	119.31	20.67	-42.4	-46.9	11.2	1.42e-03	0	59	0	92274688	55	6371
2026-01-16 09:10:21.98	119.18	20.78	-42.3	-46.7	11.4	1.47e-03	0	60	0	94371840	55	6219
2026-01-16 09:10:22.99	119.04	20.90	-42.4	-46.7	11.4	9.97e-04	0	59	0	96468992	55	6264
2026-01-16 09:10:24.00	118.91	21.02	-42.5	-47.1	11.0	1.71e-03	0	59	0	98566144	55	6539
2026-01-16 09:10:25.00	118.77	21.14	-42.6	-47.2	10.9	2.00e-03	0	59	0	100663296	55	6606
2026-01-16 09:10:26.01	118.63	21.26	-42.5	-47.0	11.1	1.63e-03	0	60	0	101711872	55	6487
2026-01-16 09:10:27.02	118.49	21.37	-42.5	-46.9	11.2	1.88e-03	0	60	0	103809024	55	6418
2026-01-16 09:10:28.03	118.35	21.49	-42.4	-46.8	11.4	1.29e-03	0	60	0	105906176	55	6291
2026-01-16 09:10:29.04	118.21	21.61	-42.3	-46.7	11.4	1.08e-03	0	60	0	108003328	55	6244
2026-01-16 09:10:30.05	118.07	21.73	-42.5	-46.9	11.2	1.14e-03	0	59	0	110100480	55	6409
2026-01-16 09:10:31.06	117.92	21.85	-42.6	-47.2	10.9	1.35e-03	0	60	0	111149056	55	6609
2026-01-16 09:10:32.07	117.78	21.97	-42.6	-47.4	10.7	2.42e-03	0	60	0	113246208	55	6766
2026-01-16 09:10:33.08	117.63	22.10	-42.9	-47.7	10.6	3.23e-03	0	60	0	115343360	56	6583
2026-01-16 09:10:34.09	117.48	22.22	-43.0	-47.9	10.4	4.49e-03	0	60	0	117440512	56	6773
2026-01-16 09:10:35.10	117.33	22.34	-43.0	-48.0	10.2	4.38e-03	0	60	0	119537664	56	6867
2026-01-16 09:10:36.11	117.18	22.46	-43.0	-48.0	10.3	5.83e-03	0	60	0	120586240	56	6873
2026-01-16 09:10:37.12	117.03	22.58	-42.9	-47.8	10.5	6.08e-03	0	60	0	122683392	56	6699
2026-01-16 09:10:38.13	116.88	22.71	-42.9	-47.8	10.6	4.29e-03	0	59	0	124780544	56	6649
2026-01-16 09:10:39.14	116.73	22.83	-43.0	-47.9	10.4	4.14e-03	0	60	0	126877696	56	6734
2026-01-16 09:10:40.15	116.57	22.95	-42.8	-47.5	10.8	2.03e-03	0	60	0	128974848	56	6457
2026-01-16 09:10:41.15	116.42	23.08	-42.8	-47.6	10.8	2.17e-03	0	60	0	130023424	56	6504
2026-01-16 09:10:42.16	116.26	23.20	-42.9	-47.8	10.5	3.57e-03	0	60	0	132120576	56	6673
2026-01-16 09:10:43.17	116.10	23.33	-42.9	-47.8	10.6	3.35e-03	0	60	0	134217728	56	6650
2026-01-16 09:10:44.18	115.94	23.45	-42.9	-47.7	10.7	3.63e-03	0	60	0	136314880	56	6606
2026-01-16 09:10:45.19	115.78	23.58	-42.8	-47.4	11.0	2.12e-03	0	60	0	138412032	56	6414
2026-01-16 09:10:46.20	115.62	23.70	-42.8	-47.5	10.8	2.57e-03	0	60	0	139460608	56	6464
2026-01-16 09:10:47.21	115.45	23.83	-42.8	-47.3	11.0	1.79e-03	0	60	0	141557760	56	6336
2026-01-16 09:10:48.21	115.29	23.96	-42.6	-47.0	11.4	1.03e-03	0	60	0	143654912	56	6090
2026-01-16 09:10:49.22	115.12	24.08	-42.6	-46.9	11.5	8.44e-04	0	60	0	145752064	56	5993
2026-01-16 09:10:50.23	114.95	24.21	-42.5	-46.8	11.7	6.90e-04	0	60	0	147849216	56	5935
2026-01-16 09:10:51.24	114.79	24.34	-42.6	-46.8	11.5	5.61e-04	0	60	0	148897792	56	5984
2026-01-16 09:10:52.25	114.61	24.47	-42.5	-46.7	11.7	5.20e-04	0	60	0	150994944	56	5868
2026-01-16 09:10:53.26	114.44	24.60	-42.5	-46.7	11.7	5.73e-04	0	60	0	153092096	56	5913
2026-01-16 09:10:54.27	114.27	24.72	-42.5	-46.5	11.9	5.59e-04	0	60	0	155189248	56	5783
2026-01-16 09:10:55.28	114.09	24.85	-42.4	-46.4	12.0	3.25e-04	0	60	0	157286400	56	5686
2026-01-16 09:10:56.29	113.92	24.98	-42.4	-46.4	12.1	2.23e-04	0	60	0	158334976	56	5682
2026-01-16 09:10:57.30	113.74	25.11	-42.5	-46.5	11.9	3.82e-04	0	60	0	160432128	56	5776
2026-01-16 09:10:58.31	113.56	25.24	-42.4	-46.3	12.1	4.85e-04	0	60	0	162529280	56	5636
2026-01-16 09:10:59.32	113.38	25.37	-42.5	-46.7	11.7	5.16e-04	0	60	0	164626432	56	5898
2026-01-16 09:11:00.32	113.20	25.50	-42.6	-46.8	11.7	6.09e-04	0	60	0	166723584	56	5925
2026-01-16 09:11:01.34	113.01	25.64	-42.7	-47.1	11.3	5.83e-04	0	60	0	167772160	56	6187
2026-01-16 09:11:02.35	112.83	25.77	-42.6	-47.0	11.4	8.58e-04	0	60	0	169869312	56	6101
2026-01-16 09:11:03.35	112.64	25.90	-42.7	-47.1	11.3	1.15e-03	0	60	0	171966464	56	6202
2026-01-16 09:11:04.36	112.45	26.03	-42.9	-47.6	10.8	1.10e-03	0	60	0	174063616	56	6536
2026-01-16 09:11:05.37	112.26	26.16	-43.0	-47.9	10.5	3.25e-03	0	60	0	176160768	56	6725
2026-01-16 09:11:06.38	112.07	26.29	-42.9	-47.5	10.9	4.23e-03	0	60	0	178257920	56	6479
2026-01-16 09:11:07.39	111.88	26.43	-43.2	-48.3	10.1	7.06e-03	0	60	0	179306496	57	6665
2026-01-16 09:11:08.40	111.68	26.56	-43.3	-48.5	9.9	9.25e-03	0	60	0	181403648	57	6834
2026-01-16 09:11:09.41	111.48	26.69	-43.4	-48.8	9.6	6.16e-03	0	60	0	183500800	57	7115
2026-01-16 09:11:10.42	111.29	26.83	-43.3	-48.5	9.9	8.51e-03	0	60	0	185597952	57	6845
2026-01-16 09:11:11.43	111.09	26.96	-43.3	-48.7	9.8	1.01e-02	0	60	0	187695104	57	7010
2026-01-16 09:11:12.44	110.88	27.10	-43.4	-48.9	9.5	1.75e-02	0	60	0	188743680	57	7140
2026-01-16 09:11:13.45	110.68	27.23	-43.4	-49.0	9.5	1.35e-02	0	60	0	190840832	57	7211
2026-01-16 09:11:14.46	110.47	27.37	-43.3	-48.5	9.9	1.50e-02	0	60	0	192937984	57	6829
2026-01-16 09:11:15.47	110.27	27.50	-43.5	-49.0	9.3	1.85e-02	0	60	0	195035136	57	7255
2026-01-16 09:11:16.48	110.06	27.64	-43.5	-49.2	9.2	2.25e-02	0	60	0	197132288	57	7420
2026-01-16 09:11:17.49	109.85	27.77	-43.6	-49.5	8.8	2.58e-02	0	60	0	198180864	57	7703
2026-01-16 09:11:18.50	109.64	27.91	-43.7	-49.7	8.8	3.14e-02	0	60	0	200278016	57	7833
2026-01-16 09:11:19.51	109.42	28.04	-43.9	-50.2	8.2	3.94e-02	0	60	0	202375168	58	7879
2026-01-16 09:11:20.51	109.21	28.18	-43.8	-50.2	8.2	4.44e-02	0	60	0	204472320	58	7851
2026-01-16 09:11:21.52	108.99	28.32	-43.9	-50.3	8.0	6.19e-02	0	60	0	206569472	58	7970
2026-01-16 09:11:22.53	108.77	28.45	-43.9	-50.3	8.1	6.64e-02	0	60	0	207618048	58	7968
2026-01-16 09:11:23.54	108.55	28.59	-43.9	-50.4	8.0	7.42e-02	0	60	0	209715200	58	8027
2026-01-16 09:11:24.55	108.32	28.73	-43.9	-50.3	8.1	6.45e-02	0	60	0	211812352	58	7976
2026-01-16 09:11:25.56	108.10	28.86	-43.8	-49.9	8.5	3.98e-02	0	60	0	213909504	58	7593
2026-01-16 09:11:26.57	107.87	29.00	-43.8	-50.0	8.4	4.05e-02	0	60	0	216006656	58	7657
2026-01-16 09:11:27.58	107.64	29.14	-43.7	-49.5	8.9	3.81e-02	0	60	0	217055232	58	7284
2026-01-16 09:11:28.59	107.41	29.28	-43.8	-50.0	8.4	4.65e-02	0	60	0	219152384	58	7693
2026-01-16 09:11:29.60	107.18	29.42	-43.7	-49.7	8.7	3.84e-02	0	60	0	221249536	58	7409
2026-01-16 09:11:30.61	106.94	29.55	-43.6	-49.2	9.2	1.84e-02	0	60	0	223346688	58	7019
2026-01-16 09:11:31.62	106.70	29.69	-43.5	-48.9	9.4	2.01e-02	0	60	0	225443840	58	6761
2026-01-16 09:11:32.63	106.46	29.83	-43.3	-48.4	10.0	1.28e-02	0	60	0	226492416	58	6411
2026-01-16 09:11:33.63	106.22	29.97	-43.4	-48.6	9.9	6.05e-03	0	60	0	228589568	58	6495
2026-01-16 09:11:34.64	105.98	30.11	-43.3	-48.4	10.0	6.69e-03	0	60	0	230686720	58	6382
2026-01-16 09:11:35.65	105.73	30.24	-43.2	-48.1	10.4	6.88e-03	0	60	0	232783872	58	6191
2026-01-16 09:11:36.66	105.49	30.38	-43.2	-48.0	10.4	4.56e-03	0	60	0	234881024	58	6108
2026-01-16 09:11:37.67	105.23	30.52	-43.1	-47.8	10.7	2.64e-03	0	60	0	235929600	58	5927
2026-01-16 09:11:38.68	104.98	30.66	-43.0	-47.6	10.8	2.84e-03	0	60	0	238026752	57	6193
2026-01-16 09:11:39.69	104.73	30.80	-43.3	-48.5	10.0	5.72e-03	0	60	0	240123904	57	6839
2026-01-16 09:11:40.70	104.47	30.94	-43.5	-48.9	9.5	1.42e-02	0	60	0	242221056	57	7191
2026-01-16 09:11:41.71	104.21	31.08	-43.5	-48.9	9.5	1.63e-02	0	60	0	244318208	57	7163
2026-01-16 09:11:42.72	103.95	31.22	-43.5	-49.1	9.3	1.76e-02	0	60	0	245366784	57	7319
2026-01-16 09:11:43.73	103.69	31.35	-43.7	-49.5	8.9	1.78e-02	0	60	0	247463936	57	7673
2026-01-16 09:11:44.75	103.42	31.49	-43.6	-49.1	9.3	1.31e-02	0	60	0	249561088	57	7365
2026-01-16 09:11:45.76	103.15	31.63	-43.6	-49.2	9.3	1.81e-02	0	60	0	251658240	57	7437
2026-01-16 09:11:46.77	102.88	31.77	-43.5	-48.9	9.6	2.15e-02	0	60	0	253755392	57	7146
2026-01-16 09:11:47.78	102.61	31.91	-43.5	-48.9	9.6	1.80e-02	0	60	0	254803968	57	7138
2026-01-16 09:11:48.79	102.33	32.05	-43.6	-49.2	9.2	1.54e-02	0	60	0	256901120	57	7449
2026-01-16 09:11:49.80	102.05	32.19	-43.5	-49.0	9.4	1.74e-02	0	60	0	258998272	57	7283
2026-01-16 09:11:50.80	101.78	32.32	-43.5	-49.0	9.6	1.32e-02	0	60	0	261095424	57	7209
2026-01-16 09:11:51.81	101.49	32.46	-43.4	-48.7	9.7	1.37e-02	0	60	0	263192576	57	7022
2026-01-16 09:11:52.82	101.21	32.60	-43.4	-48.7	9.8	1.31e-02	0	60	0	265289728	57	6988
2026-01-16 09:11:53.83	100.92	32.74	-43.3	-48.4	10.1	8.43e-03	0	60	0	266338304	57	6779
2026-01-16 09:11:54.84	100.63	32.87	-43.3	-48.4	10.1	6.73e-03	0	61	0	268435456	57	6739
2026-01-16 09:11:55.85	100.34	33.01	-43.2	-48.0	10.6	4.60e-03	0	61	0	270532608	57	6438
2026-01-16 09:11:56.86	100.05	33.15	-43.3	-48.3	10.3	4.63e-03	0	60	0	272629760	57	6699
2026-01-16 09:11:57.87	99.75	33.29	-43.3	-48.4	10.1	9.30e-03	0	60	0	274726912	57	6725
2026-01-16 09:11:58.88	99.45	33.42	-43.3	-48.4	10.1	7.24e-03	0	61	0	275775488	57	6774
2026-01-16 09:11:59.89	99.15	33.56	-43.3	-48.4	10.2	6.28e-03	0	60	0	277872640	57	6727
2026-01-16 09:12:00.90	98.84	33.69	-43.3	-48.3	10.3	4.80e-03	0	60	0	279969792	57	6672
2026-01-16 09:12:01.91	98.54	33.83	-43.3	-48.2	10.3	5.04e-03	0	60	0	282066944	57	6629
2026-01-16 09:12:02.92	98.23	33.97	-43.2	-47.9	10.6	5.95e-03	0	60	0	284164096	57	6420
2026-01-16 09:12:03.93	97.91	34.10	-43.2	-48.1	10.4	4.20e-03	0	60	0	285212672	57	6502
2026-01-16 09:12:04.93	97.60	34.23	-43.5	-48.7	9.7	7.59e-03	0	61	0	287309824	57	7032
2026-01-16 09:12:05.94	97.28	34.37	-43.6	-49.2	9.2	1.15e-02	0	60	0	289406976	57	7424
2026-01-16 09:12:06.95	96.96	34.50	-43.7	-49.5	9.0	2.53e-02	0	60	0	291504128	58	7257
2026-01-16 09:12:07.96	96.64	34.63	-43.6	-49.1	9.4	2.02e-02	0	61	0	293601280	58	6883
2026-01-16 09:12:08.97	96.31	34.77	-43.7	-49.2	9.3	1.84e-02	0	60	0	294649856	58	7032
2026-01-16 09:12:09.98	95.99	34.90	-43.9	-50.0	8.5	3.75e-02	0	60	0	296747008	58	7669
2026-01-16 09:12:10.99	95.66	35.03	-44.1	-50.9	7.6	8.08e-02	0	60	0	298844160	58	8544
2026-01-16 09:12:12.00	95.32	35.16	-44.1	-50.8	7.7	1.03e-01	0	60	0	300941312	58	8457
2026-01-16 09:12:13.01	94.99	35.29	-44.2	-51.1	7.4	8.92e-02	0	60	0	303038464	58	8732
2026-01-16 09:12:14.02	94.65	35.42	-44.0	-50.4	8.1	7.63e-02	0	61	0	304087040	58	8046
2026-01-16 09:12:15.03	94.31	35.55	-44.1	-50.8	7.8	8.12e-02	0	61	0	306184192	58	8401
2026-01-16 09:12:16.04	93.96	35.68	-44.2	-51.1	7.4	1.43e-01	0	61	0	308281344	59	8217
2026-01-16 09:12:17.05	93.61	35.81	-44.1	-50.9	7.6	1.10e-01	0	60	0	310378496	59	8037
2026-01-16 09:12:18.06	93.26	35.94	-44.1	-50.7	7.8	7.68e-02	0	61	0	312475648	59	7834
2026-01-16 09:12:19.07	92.91	36.06	-43.8	-50.7	7.8	8.01e-02	0	60	0	313524224	59	7841
2026-01-16 09:12:20.08	92.56	36.19	-43.8	-50.7	7.7	1.05e-01	0	60	0	315621376	59	7856
2026-01-16 09:12:21.08	92.20	36.31	-43.6	-49.9	8.5	9.02e-02	0	60	0	317718528	59	7131
2026-01-16 09:12:22.09	91.84	36.44	-43.7	-50.2	8.1	5.63e-02	0	60	0	319815680	59	7406
2026-01-16 09:12:23.10	91.48	36.56	-43.5	-49.6	8.8	3.07e-02	0	60	0	321912832	58	7332
2026-01-16 09:12:24.11	91.11	36.68	-43.3	-48.9	9.5	2.20e-02	0	60	0	322961408	58	6727
2026-01-16 09:12:25.12	90.74	36.80	-43.2	-48.7	9.8	1.37e-02	0	60	0	325058560	58	6573
2026-01-16 09:12:26.13	90.37	36.92	-43.2	-48.8	9.8	1.10e-02	0	60	0	327155712	58	6658
2026-01-16 09:12:27.14	89.99	37.04	-42.9	-47.8	10.7	7.49e-03	0	60	0	329252864	57	6277
2026-01-16 09:12:28.15	89.62	37.16	-42.9	-48.0	10.5	4.07e-03	0	61	0	331350016	57	6431
2026-01-16 09:12:29.16	89.24	37.28	-43.1	-48.6	9.9	7.99e-03	0	61	0	333447168	57	6882
2026-01-16 09:12:30.17	88.85	37.40	-43.2	-48.7	9.7	9.86e-03	0	61	0	334495744	57	6998
2026-01-16 09:12:31.19	88.47	37.51	-43.1	-48.6	9.9	9.84e-03	0	60	0	336592896	57	6881
2026-01-16 09:12:32.20	88.08	37.63	-42.9	-48.0	10.5	5.13e-03	0	60	0	338690048	57	6451
2026-01-16 09:12:33.20	87.69	37.74	-42.9	-47.8	10.6	3.84e-03	0	60	0	340787200	57	6334
2026-01-16 09:12:34.21	87.30	37.85	-42.7	-47.4	10.9	3.15e-03	0	61	0	342884352	57	6042
2026-01-16 09:12:35.22	86.90	37.96	-42.6	-47.2	11.3	1.70e-03	0	61	0	343932928	57	5911
2026-01-16 09:12:36.23	86.50	38.07	-42.5	-46.9	11.6	6.85e-04	0	61	0	346030080	56	6042
2026-01-16 09:12:37.24	86.10	38.18	-42.6	-47.3	11.2	5.71e-04	0	61	0	348127232	56	6295
2026-01-16 09:12:38.25	85.69	38.29	-42.6	-47.4	11.1	9.52e-04	0	60	0	350224384	56	6385
2026-01-16 09:12:39.26	85.29	38.40	-42.7	-47.5	11.0	2.29e-03	0	61	0	352321536	56	6440
2026-01-16 09:12:40.27	84.88	38.50	-42.4	-46.8	11.7	1.04e-03	0	60	0	353370112	56	5947
2026-01-16 09:12:41.28	84.46	38.60	-42.2	-46.4	12.2	3.43e-04	0	61	0	355467264	56	5678
2026-01-16 09:12:42.29	84.05	38.71	-42.3	-46.6	11.9	3.33e-04	0	61	0	357564416	56	5842
2026-01-16 09:12:43.30	83.63	38.81	-42.3	-46.5	12.1	4.34e-04	0	61	0	359661568	56	5773
2026-01-16 09:12:44.31	83.21	38.91	-42.4	-46.9	11.8	3.94e-04	0	60	0	361758720	56	6001
2026-01-16 09:12:45.32	82.79	39.00	-42.6	-47.2	11.3	9.10e-04	0	61	0	362807296	56	6273
2026-01-16 09:12:46.33	82.36	39.10	-42.8	-47.9	10.7	2.59e-03	0	61	0	364904448	56	6736
2026-01-16 09:12:47.34	81.93	39.19	-42.7	-47.5	11.0	2.18e-03	0	60	0	367001600	56	6468
2026-01-16 09:12:48.35	81.50	39.29	-42.4	-46.7	11.9	8.92e-04	0	61	0	369098752	56	5898
2026-01-16 09:12:49.36	81.07	39.38	-42.1	-46.0	12.6	1.65e-04	0	61	0	371195904	56	5424
2026-01-16 09:12:50.36	80.64	39.47	-41.7	-45.3	13.1	1.11e-04	0	61	0	372244480	55	5331
2026-01-16 09:12:51.37	80.20	39.56	-42.0	-45.9	12.6	5.03e-05	0	61	0	374341632	55	5687
2026-01-16 09:12:52.38	79.76	39.64	-42.3	-46.5	11.9	3.48e-04	0	60	0	376438784	55	6131
2026-01-16 09:12:53.39	79.32	39.73	-42.5	-47.0	11.4	7.86e-04	0	60	0	378535936	55	6463
2026-01-16 09:12:54.40	78.88	39.81	-42.1	-46.1	12.3	3.58e-04	0	61	0	380633088	55	5822
2026-01-16 09:12:55.41	78.43	39.89	-41.7	-45.2	13.2	3.28e-05	0	61	0	381681664	55	5272
2026-01-16 09:12:56.42	77.98	39.97	-41.6	-45.1	13.3	2.67e-05	0	60	0	383778816	55	5204
2026-01-16 09:12:57.43	77.53	40.05	-42.0	-46.0	12.5	8.31e-05	0	61	0	385875968	55	5728
2026-01-16 09:12:58.44	77.07	40.12	-42.5	-47.1	11.3	8.03e-04	0	61	0	387973120	55	6570
2026-01-16 09:12:59.45	76.62	40.20	-42.4	-46.9	11.5	1.42e-03	0	61	0	390070272	55	6356
2026-01-16 09:13:00.45	76.17	40.27	-42.3	-46.5	11.9	6.93e-04	0	60	0	391118848	55	6113
2026-01-16 09:13:01.46	75.71	40.34	-42.1	-46.1	12.3	2.55e-04	0	61	0	393216000	55	5852
2026-01-16 09:13:02.47	75.25	40.41	-42.1	-46.2	12.3	2.43e-04	0	61	0	395313152	55	5892
2026-01-16 09:13:03.49	74.78	40.47	-42.3	-46.6	12.0	4.52e-04	0	61	0	397410304	55	6163
2026-01-16 09:13:04.50	74.31	40.54	-42.5	-47.0	11.3	6.08e-04	0	61	0	399507456	55	6467
2026-01-16 09:13:05.51	73.85	40.60	-42.5	-47.1	11.4	1.05e-03	0	61	0	400556032	55	6521
2026-01-16 09:13:06.52	73.38	40.66	-42.5	-47.0	11.4	1.03e-03	0	61	0	402653184	55	6480
2026-01-16 09:13:07.52	72.91	40.72	-42.4	-46.6	11.9	6.23e-04	0	61	0	404750336	55	6191
2026-01-16 09:13:08.53	72.44	40.77	-42.3	-46.5	12.0	2.68e-04	0	61	0	406847488	55	6100
2026-01-16 09:13:09.54	71.96	40.83	-42.2	-46.3	12.3	1.91e-04	0	61	0	408944640	55	5938
2026-01-16 09:13:10.55	71.49	40.88	-42.3	-46.4	12.2	1.54e-04	0	61	0	411041792	55	5993
2026-01-16 09:13:11.56	71.01	40.93	-42.4	-46.5	12.0	3.74e-04	0	61	0	412090368	55	6116
2026-01-16 09:13:12.57	70.53	40.97	-42.4	-46.7	11.7	3.52e-04	0	61	0	414187520	55	6235
2026-01-16 09:13:13.58	70.06	41.02	-42.3	-46.3	12.1	3.34e-04	0	61	0	416284672	55	5978
2026-01-16 09:13:14.59	69.57	41.06	-42.0	-45.7	12.8	1.56e-04	0	61	0	418381824	55	5582
2026-01-16 09:13:15.60	69.09	41.10	-41.8	-45.3	13.2	2.44e-05	0	61	0	420478976	55	5327
2026-01-16 09:13:16.61	68.61	41.14	-41.8	-45.4	13.2	5.30e-06	0	61	0	421527552	55	5361
2026-01-16 09:13:17.62	68.12	41.17	-42.3	-46.4	12.0	3.50e-05	0	61	0	423624704	55	6031
2026-01-16 09:13:18.63	67.64	41.21	-42.6	-47.0	11.5	7.45e-04	0	61	0	425721856	55	6466
2026-01-16 09:13:19.64	67.15	41.24	-42.8	-47.4	11.2	1.16e-03	0	61	0	427819008	56	6398
2026-01-16 09:13:20.65	66.67	41.27	-42.7	-47.1	11.6	9.00e-04	0	61	0	429916160	56	6149
2026-01-16 09:13:21.66	66.18	41.30	-42.8	-47.4	11.3	8.80e-04	0	61	0	430964736	56	6378
2026-01-16 09:13:22.67	65.69	41.32	-42.7	-47.2	11.5	1.62e-03	0	61	0	433061888	56	6242
2026-01-16 09:13:23.68	65.20	41.34	-42.6	-47.0	11.6	7.06e-04	0	61	0	435159040	56	6111
2026-01-16 09:13:24.69	64.71	41.36	-42.6	-46.8	11.8	4.35e-04	0	61	0	437256192	56	5988
2026-01-16 09:13:25.70	64.22	41.38	-42.9	-47.6	11.0	1.09e-03	0	61	0	439353344	56	6551
2026-01-16 09:13:26.71	63.73	41.39	-43.1	-48.1	10.4	3.22e-03	0	61	0	440401920	56	6937
2026-01-16 09:13:27.72	63.24	41.41	-43.0	-48.0	10.6	3.54e-03	0	61	0	442499072	56	6806
2026-01-16 09:13:28.73	62.75	41.42	-42.9	-47.6	11.1	1.85e-03	0	61	0	444596224	56	6529
2026-01-16 09:13:29.74	62.25	41.42	-43.0	-47.9	10.6	2.41e-03	0	61	0	446693376	56	6798
2026-01-16 09:13:30.74	61.77	41.43	-43.1	-48.2	10.4	5.35e-03	0	61	0	448790528	57	6634
2026-01-16 09:13:31.75	61.27	41.43	-43.1	-48.1	10.5	4.03e-03	0	61	0	449839104	57	6551
2026-01-16 09:13:32.76	60.78	41.43	-42.8	-47.6	11.0	2.82e-03	0	61	0	451936256	57	6166
2026-01-16 09:13:33.77	60.29	41.43	-43.0	-47.9	10.7	2.30e-03	0	61	0	454033408	57	6376
2026-01-16 09:13:34.78	59.80	41.43	-43.3	-48.7	9.8	8.14e-03	0	61	0	456130560	57	7019
2026-01-16 09:13:35.79	59.30	41.42	-43.4	-49.2	9.3	1.32e-02	0	61	0	458227712	57	7455
2026-01-16 09:13:36.80	58.81	41.41	-43.7	-50.2	8.3	2.80e-02	0	61	0	459276288	57	8272
2026-01-16 09:13:37.82	58.32	41.40	-44.1	-51.9	6.7	1.55e-01	0	61	0	461373440	58	9593
2026-01-16 09:13:38.82	57.83	41.38	-44.0	-51.3	7.2	1.70e-01	0	61	0	463470592	58	8958
2026-01-16 09:13:39.83	57.34	41.37	-43.5	-49.2	9.4	4.48e-02	0	61	0	465567744	58	6963
2026-01-16 09:13:40.84	56.85	41.35	-43.2	-48.5	10.0	7.60e-03	0	61	0	467664896	58	6489
2026-01-16 09:13:41.86	56.36	41.33	-43.6	-49.7	8.9	1.47e-02	0	61	0	468713472	58	7437
2026-01-16 09:13:42.86	55.87	41.31	-43.9	-50.8	7.7	5.47e-02	0	61	0	470810624	58	8424
2026-01-16 09:13:43.87	55.38	41.28	-43.8	-50.6	7.9	8.46e-02	0	61	0	472907776	58	8236
2026-01-16 09:13:44.88	54.90	41.25	-43.9	-50.9	7.6	7.54e-02	0	61	0	475004928	58	8504
2026-01-16 09:13:45.89	54.41	41.22	-43.7	-50.2	8.3	5.91e-02	0	61	0	477102080	58	7829
2026-01-16 09:13:46.90	53.92	41.19	-43.7	-50.1	8.4	5.32e-02	0	61	0	479199232	58	7737
2026-01-16 09:13:47.91	53.44	41.16	-43.9	-50.9	7.7	6.12e-02	0	61	0	480247808	58	8486
2026-01-16 09:13:48.92	52.96	41.12	-44.0	-51.7	6.5	1.18e-01	0	61	0	482344960	58	9353
2026-01-16 09:13:49.93	52.47	41.08	-44.1	-52.1	6.5	1.27e-01	0	61	0	484442112	58	9830
2026-01-16 09:13:50.94	51.99	41.04	-44.0	-51.7	6.8	1.38e-01	0	61	0	486539264	58	9303
2026-01-16 09:13:51.95	51.51	40.99	-43.9	-51.2	7.3	1.42e-01	0	61	0	488636416	58	8835
2026-01-16 09:13:52.96	51.04	40.95	-43.9	-51.0	7.4	1.53e-01	0	61	0	489684992	58	8631
2026-01-16 09:13:53.97	50.56	40.90	-43.6	-49.9	8.6	5.33e-02	0	61	0	491782144	58	7592
2026-01-16 09:13:54.98	50.08	40.85	-43.5	-49.7	8.8	5.16e-02	0	61	0	493879296	58	7451
2026-01-16 09:13:55.99	49.61	40.80	-43.7	-50.3	8.1	3.76e-02	0	61	0	495976448	58	7986
2026-01-16 09:13:57.00	49.14	40.74	-44.0	-51.7	6.9	1.04e-01	0	61	0	498073600	58	9343
2026-01-16 09:13:58.01	48.67	40.68	-43.9	-51.5	7.0	1.47e-01	0	61	0	499122176	58	9123
2026-01-16 09:13:59.01	48.20	40.63	-44.1	-52.3	6.3	1.96e-01	0	61	0	501219328	58	9986
2026-01-16 09:14:00.02	47.74	40.57	-44.0	-51.9	6.7	2.39e-01	0	61	0	503316480	58	9547
2026-01-16 09:14:01.03	47.27	40.50	-43.5	-49.6	8.9	7.70e-02	0	61	0	505413632	58	7307
2026-01-16 09:14:02.04	46.81	40.44	-42.8	-47.7	10.8	8.89e-03	0	61	0	507510784	57	6204
2026-01-16 09:14:03.05	46.35	40.37	-42.7	-47.4	11.2	5.84e-03	0	61	0	508559360	57	6058
2026-01-16 09:14:04.06	45.89	40.30	-42.7	-47.4	11.2	1.77e-03	0	61	0	510656512	57	6016
2026-01-16 09:14:05.07	45.43	40.23	-42.6	-47.1	11.5	1.86e-03	0	61	0	512753664	57	5813
2026-01-16 09:14:06.08	44.97	40.16	-42.6	-47.1	11.6	5.46e-04	0	61	0	514850816	56	6144
2026-01-16 09:14:07.09	44.52	40.08	-42.4	-46.6	12.1	2.59e-04	0	61	0	516947968	56	5809
2026-01-16 09:14:08.10	44.07	40.01	-42.2	-46.4	12.3	2.84e-04	0	61	0	517996544	56	5672
2026-01-16 09:14:09.11	43.62	39.93	-42.1	-46.1	12.5	2.30e-04	0	61	0	520093696	56	5498
2026-01-16 09:14:10.12	43.17	39.85	-41.7	-45.4	13.1	8.69e-05	0	61	0	522190848	55	5363
2026-01-16 09:14:11.13	42.73	39.77	-41.6	-45.1	13.3	3.66e-05	0	61	0	524288000	55	5217
2026-01-16 09:14:12.14	42.28	39.68	-41.5	-45.0	13.6	9.90e-06	0	61	0	526385152	54	5408
2026-01-16 09:14:13.15	41.84	39.60	-41.3	-44.7	13.8	9.90e-06	0	61	0	527433728	54	5225
2026-01-16 09:14:14.16	41.41	39.51	-41.3	-44.7	13.8	3.80e-06	0	61	0	529530880	54	5248
2026-01-16 09:14:15.16	40.98	39.42	-41.6	-45.1	13.4	9.90e-06	0	61	0	531628032	54	5502
2026-01-16 09:14:16.17	40.54	39.33	-41.6	-45.1	13.4	1.44e-05	0	61	0	533725184	54	5500
2026-01-16 09:14:17.18	40.11	39.24	-41.5	-44.9	13.6	1.67e-05	0	61	0	535822336	54	5371
2026-01-16 09:14:18.19	39.68	39.15	-41.2	-44.4	14.1	4.50e-06	0	61	0	536870912	54	5077
2026-01-16 09:14:19.20	39.26	39.05	-41.2	-44.5	14.0	4.50e-06	0	61	0	538968064	54	5111
2026-01-16 09:14:20.21	38.84	38.95	-41.2	-44.4	14.0	1.50e-06	0	61	0	541065216	54	5077
2026-01-16 09:14:21.22	38.41	38.86	-41.2	-44.4	14.1	0.00e+00	0	61	0	543162368	54	5064
2026-01-16 09:14:22.23	38.00	38.76	-40.9	-43.9	14.6	7.00e-07	0	61	0	545259520	53	5057
2026-01-16 09:14:23.24	37.58	38.66	-41.1	-44.3	14.2	7.00e-07	0	61	0	547356672	53	5295
2026-01-16 09:14:24.25	37.17	38.55	-41.5	-45.0	13.5	4.50e-06	0	61	0	548405248	53	5731
2026-01-16 09:14:25.26	36.76	38.45	-41.9	-45.8	12.6	4.42e-05	0	61	0	550502400	54	5968
2026-01-16 09:14:26.27	36.35	38.34	-41.9	-45.9	12.6	9.76e-05	0	61	0	552599552	54	6000
2026-01-16 09:14:27.28	35.95	38.24	-41.9	-45.9	12.6	1.08e-04	0	61	0	554696704	54	5998
2026-01-16 09:14:28.29	35.54	38.13	-41.8	-45.7	12.8	7.62e-05	0	61	0	556793856	54	5856
2026-01-16 09:14:29.30	35.15	38.02	-41.6	-45.2	13.3	3.89e-05	0	61	0	557842432	54	5548
2026-01-16 09:14:30.31	34.75	37.91	-41.4	-44.8	13.7	9.10e-06	0	61	0	559939584	54	5332
2026-01-16 09:14:31.31	34.36	37.80	-41.4	-44.7	13.8	4.50e-06	0	61	0	562036736	54	5277
2026-01-16 09:14:32.32	33.97	37.69	-41.7	-45.3	13.2	5.30e-06	0	61	0	564133888	54	5630
2026-01-16 09:14:33.34	33.57	37.57	-42.0	-45.9	12.5	9.23e-05	0	61	0	566231040	54	6037
2026-01-16 09:14:34.34	33.19	37.46	-41.8	-45.6	12.8	7.17e-05	0	61	0	567279616	54	5790
2026-01-16 09:14:35.35	32.81	37.34	-41.5	-44.9	13.6	5.49e-05	0	61	0	569376768	54	5370
2026-01-16 09:14:36.36	32.43	37.23	-41.1	-44.1	14.3	1.50e-06	0	61	0	571473920	54	4926
2026-01-16 09:14:37.37	32.05	37.11	-41.1	-44.1	14.4	7.00e-07	0	61	0	573571072	54	4896
2026-01-16 09:14:38.38	31.68	36.99	-41.1	-44.1	14.4	7.00e-07	0	61	0	575668224	54	4874
2026-01-16 09:14:39.39	31.31	36.87	-41.1	-44.1	14.3	1.50e-06	0	61	0	576716800	54	4926
2026-01-16 09:14:40.40	30.94	36.75	-41.4	-44.6	13.9	7.00e-07	0	61	0	578813952	54	5213
2026-01-16 09:14:41.41	30.57	36.63	-42.1	-45.9	12.5	2.51e-05	0	61	0	580911104	54	6041
2026-01-16 09:14:42.42	30.21	36.50	-42.5	-46.7	11.7	2.28e-04	0	61	0	583008256	55	6265
2026-01-16 09:14:43.43	29.84	36.38	-42.4	-46.6	11.9	8.64e-04	0	61	0	585105408	55	6139
2026-01-16 09:14:44.44	29.49	36.26	-42.0	-45.6	12.7	1.50e-04	0	61	0	586153984	55	5517
2026-01-16 09:14:45.45	29.13	36.13	-41.8	-45.3	13.1	6.86e-05	0	61	0	588251136	55	5286
2026-01-16 09:14:46.46	28.78	36.01	-42.0	-45.6	12.8	4.57e-05	0	61	0	590348288	55	5528
2026-01-16 09:14:47.47	28.43	35.88	-42.2	-46.2	12.2	1.32e-04	0	61	0	592445440	55	5893
2026-01-16 09:14:48.48	28.08	35.75	-42.2	-46.1	12.2	1.61e-04	0	61	0	594542592	55	5854
2026-01-16 09:14:49.49	27.74	35.62	-42.1	-46.0	12.4	1.46e-04	0	61	0	595591168	55	5749
2026-01-16 09:14:50.50	27.40	35.50	-42.3	-46.3	12.1	1.38e-04	0	61	0	597688320	55	5939
2026-01-16 09:14:51.51	27.06	35.37	-42.6	-46.9	11.5	4.90e-04	0	61	0	599785472	55	6378
2026-01-16 09:14:52.52	26.72	35.24	-42.9	-47.5	11.0	1.42e-03	0	61	0	601882624	56	6435
2026-01-16 09:14:53.53	26.39	35.11	-42.9	-47.5	11.1	2.01e-03	0	61	0	603979776	56	6440
2026-01-16 09:14:54.54	26.06	34.98	-43.0	-47.8	10.7	1.95e-03	0	61	0	605028352	56	6652
2026-01-16 09:14:55.55	25.73	34.84	-43.1	-48.1	10.2	6.49e-03	0	61	0	607125504	57	6517
2026-01-16 09:14:56.56	25.40	34.71	-43.3	-48.7	9.7	7.14e-03	0	61	0	609222656	57	7021
2026-01-16 09:14:57.57	25.08	34.58	-43.3	-48.4	10.0	8.67e-03	0	61	0	611319808	57	6785
2026-01-16 09:14:58.58	24.76	34.45	-43.1	-47.9	10.6	4.03e-03	0	61	0	613416960	57	6397
2026-01-16 09:14:59.59	24.44	34.31	-43.0	-47.7	10.8	2.72e-03	0	61	0	615514112	57	6226
2026-01-16 09:15:00.60	24.13	34.18	-42.7	-47.0	11.5	1.58e-03	0	61	0	616562688	57	5740
2026-01-16 09:15:01.61	23.81	34.05	-42.4	-46.3	12.2	7.12e-04	0	61	0	618659840	56	5614
2026-01-16 09:15:02.62	23.50	33.91	-42.1	-45.6	12.9	6.10e-05	0	61	0	620756992	56	5199
2026-01-16 09:15:03.63	23.20	33.78	-41.8	-45.4	13.0	3.89e-05	0	61	0	622854144	55	5374
2026-01-16 09:15:04.64	22.89	33.64	-42.3	-46.3	12.1	5.64e-05	0	61	0	624951296	55	5945
2026-01-16 09:15:05.65	22.59	33.51	-43.2	-48.1	10.4	2.07e-03	0	61	0	625999872	56	6894
2026-01-16 09:15:06.66	22.29	33.37	-43.5	-48.9	9.5	1.04e-02	0	61	0	628097024	57	7203
2026-01-16 09:15:07.66	22.00	33.24	-43.4	-48.7	9.7	1.63e-02	0	61	0	630194176	57	7015
2026-01-16 09:15:08.67	21.70	33.10	-43.3	-48.4	10.1	6.80e-03	0	61	0	632291328	57	6729
2026-01-16 09:15:09.68	21.41	32.96	-43.0	-47.9	10.6	4.07e-03	0	61	0	634388480	57	6354
2026-01-16 09:15:10.69	21.12	32.83	-43.2	-48.3	10.2	3.35e-03	0	61	0	635437056	57	6659
2026-01-16 09:15:11.70	20.83	32.69	-43.3	-48.6	9.8	9.28e-03	0	61	0	637534208	57	6890
2026-01-16 09:15:12.71	20.55	32.55	-43.4	-49.1	9.2	1.39e-02	0	61	0	639631360	57	7350
2026-01-16 09:15:13.72	20.27	32.41	-43.7	-49.8	8.5	3.09e-02	0	61	0	641728512	57	7981
2026-01-16 09:15:14.73	19.99	32.28	-44.0	-51.1	7.2	1.24e-01	0	61	0	643825664	58	8679
2026-01-16 09:15:15.74	19.71	32.14	-44.3	-52.8	5.9	2.95e-01	0	61	0	644874240	59	10006
2026-01-16 09:15:16.75	19.43	32.00	-44.4	-53.1	5.6	4.72e-01	0	61	0	646971392	59	10309
2026-01-16 09:15:17.76	19.16	31.86	-44.1	-51.3	7.0	3.63e-01	0	61	0	649068544	59	8459
2026-01-16 09:15:18.77	18.89	31.73	-43.8	-49.9	8.3	7.31e-02	0	61	0	651165696	59	7179
2026-01-16 09:15:19.78	18.62	31.59	-43.4	-48.9	9.4	2.15e-02	0	61	0	653262848	58	6792
2026-01-16 09:15:20.79	18.36	31.45	-43.4	-48.9	9.5	1.57e-02	0	61	0	654311424	58	6757
2026-01-16 09:15:21.80	18.09	31.31	-43.7	-49.8	8.7	2.38e-02	0	61	0	656408576	58	7482
2026-01-16 09:15:22.81	17.83	31.17	-43.7	-49.9	8.5	4.90e-02	0	61	0	658505728	58	7549
2026-01-16 09:15:23.81	17.57	31.04	-43.8	-50.0	8.4	5.63e-02	0	61	0	660602880	58	7689
2026-01-16 09:15:24.82	17.32	30.90	-43.7	-49.7	8.8	3.86e-02	0	61	0	662700032	58	7421
2026-01-16 09:15:25.83	17.06	30.76	-43.5	-49.1	9.3	2.11e-02	0	61	0	663748608	58	6906
2026-01-16 09:15:26.84	16.81	30.62	-43.3	-48.5	9.9	1.43e-02	0	61	0	665845760	58	6451
2026-01-16 09:15:27.85	16.56	30.48	-43.3	-48.4	10.0	7.71e-03	0	61	0	667942912	58	6407
2026-01-16 09:15:28.86	16.31	30.35	-43.2	-48.2	10.3	6.22e-03	0	61	0	670040064	58	6222
2026-01-16 09:15:29.87	16.07	30.21	-43.3	-48.5	9.9	8.65e-03	0	61	0	672137216	58	6470
2026-01-16 09:15:30.88	15.82	30.07	-43.4	-48.9	9.4	1.52e-02	0	61	0	673185792	58	6785
2026-01-16 09:15:31.89	15.58	29.93	-43.6	-49.4	8.9	2.27e-02	0	61	0	675282944	58	7191
2026-01-16 09:15:32.90	15.34	29.79	-43.7	-49.6	8.9	4.04e-02	0	61	0	677380096	58	7353
2026-01-16 09:15:33.91	15.10	29.66	-43.7	-49.8	8.4	3.82e-02	0	61	0	679477248	58	7532
2026-01-16 09:15:34.92	14.87	29.52	-43.6	-49.4	8.9	3.40e-02	0	61	0	681574400	58	7184
2026-01-16 09:15:35.93	14.63	29.38	-43.3	-48.6	9.8	1.88e-02	0	61	0	682622976	58	6511
2026-01-16 09:15:36.94	14.40	29.24	-43.2	-48.3	10.1	9.97e-03	0	61	0	684720128	58	6324
2026-01-16 09:15:37.95	14.17	29.11	-43.0	-47.8	10.5	4.11e-03	0	61	0	686817280	58	5979
2026-01-16 09:15:38.96	13.95	28.97	-42.9	-47.7	10.6	4.72e-03	0	61	0	688914432	57	6263
2026-01-16 09:15:39.97	13.72	28.83	-42.9	-47.7	10.7	2.63e-03	0	61	0	691011584	57	6205
2026-01-16 09:15:40.98	13.50	28.70	-43.1	-48.1	10.2	4.44e-03	0	61	0	692060160	57	6557
2026-01-16 09:15:41.99	13.28	28.56	-43.1	-48.0	10.3	4.82e-03	0	61	0	694157312	57	6481
2026-01-16 09:15:42.99	13.06	28.43	-43.0	-47.9	10.4	5.20e-03	0	61	0	696254464	57	6402
2026-01-16 09:15:44.00	12.84	28.29	-42.7	-47.1	11.2	2.89e-03	0	61	0	698351616	57	5851
2026-01-16 09:15:45.01	12.62	28.15	-42.7	-47.2	11.1	1.95e-03	0	61	0	700448768	57	5898
2026-01-16 09:15:46.02	12.41	28.02	-42.8	-47.4	10.9	2.47e-03	0	61	0	701497344	57	6058
2026-01-16 09:15:47.03	12.20	27.88	-42.8	-47.3	11.1	1.53e-03	0	61	0	703594496	57	5931
2026-01-16 09:15:48.04	11.99	27.75	-42.7	-47.1	11.2	1.49e-03	0	61	0	705691648	57	5822
2026-01-16 09:15:49.05	11.78	27.61	-42.9	-47.5	10.9	1.60e-03	0	61	0	707788800	57	6097
2026-01-16 09:15:50.06	11.57	27.48	-42.9	-47.6	10.8	3.55e-03	0	61	0	709885952	57	6151
2026-01-16 09:15:51.07	11.37	27.34	-42.9	-47.5	10.7	2.59e-03	0	61	0	711983104	57	6126
2026-01-16 09:15:52.08	11.16	27.21	-42.9	-47.8	10.5	4.90e-03	0	61	0	713031680	57	6315
2026-01-16 09:15:53.09	10.96	27.08	-43.0	-47.9	10.4	3.77e-03	0	61	0	715128832	57	6362
2026-01-16 09:15:54.10	10.76	26.94	-43.1	-48.1	10.1	6.22e-03	0	61	0	717225984	57	6540
2026-01-16 09:15:55.11	10.56	26.81	-43.0	-48.0	10.3	3.11e-03	0	61	0	719323136	57	6485
2026-01-16 09:15:56.12	10.37	26.68	-43.1	-48.1	10.1	5.93e-03	0	61	0	721420288	57	6563
2026-01-16 09:15:57.13	10.17	26.54	-42.9	-47.7	10.6	4.91e-03	0	61	0	722468864	57	6204
2026-01-16 09:15:58.14	9.98	26.41	-42.9	-47.7	10.6	4.59e-03	0	61	0	724566016	57	6270
2026-01-16 09:15:59.15	9.79	26.28	-42.8	-47.4	10.9	2.49e-03	0	61	0	726663168	57	6020
2026-01-16 09:16:00.15	9.60	26.15	-42.9	-47.7	10.5	2.54e-03	0	61	0	728760320	57	6268
2026-01-16 09:16:01.14	9.41	26.02	-42.7	-47.1	11.2	1.47e-03	0	61	0	730857472	57	5835
2026-01-16 09:16:02.15	9.23	25.89	-42.6	-47.1	11.3	1.09e-03	0	61	0	731906048	57	5806
2026-01-16 09:16:03.16	9.04	25.76	-42.5	-46.7	11.6	1.20e-03	0	61	0	734003200	57	5578
2026-01-16 09:16:04.17	8.86	25.63	-42.6	-46.9	11.4	1.04e-03	0	61	0	736100352	57	5704
2026-01-16 09:16:05.18	8.68	25.50	-42.6	-46.9	11.5	8.06e-04	0	61	0	738197504	56	6009
2026-01-16 09:16:06.19	8.49	25.37	-42.8	-47.4	10.9	1.10e-03	0	61	0	740294656	56	6389
2026-01-16 09:16:07.20	8.32	25.24	-42.7	-47.2	11.1	1.83e-03	0	61	0	741343232	56	6239
2026-01-16 09:16:08.21	8.14	25.11	-42.7	-47.2	11.0	1.54e-03	0	61	0	743440384	56	6262
2026-01-16 09:16:09.22	7.96	24.98	-42.9	-47.6	10.7	2.24e-03	0	61	0	745537536	56	6557
2026-01-16 09:16:10.22	7.79	24.85	-42.9	-47.7	10.7	2.71e-03	0	61	0	747634688	56	6625
2026-01-16 09:16:11.23	7.61	24.72	-42.8	-47.5	10.7	3.87e-03	0	61	0	749731840	56	6481
2026-01-16 09:16:12.24	7.44	24.59	-42.6	-47.0	11.3	1.79e-03	0	61	0	750780416	56	6117
2026-01-16 09:16:13.25	7.27	24.47	-42.6	-47.1	11.2	1.08e-03	0	61	0	752877568	56	6144
2026-01-16 09:16:14.26	7.10	24.34	-42.4	-46.6	11.7	5.51e-04	0	61	0	754974720	56	5804
2026-01-16 09:16:15.27	6.94	24.21	-42.2	-46.2	12.1	3.45e-04	0	61	0	757071872	56	5557
2026-01-16 09:16:16.28	6.77	24.08	-42.2	-46.1	12.2	2.21e-04	0	61	0	759169024	56	5508
2026-01-16 09:16:17.29	6.60	23.96	-42.4	-46.5	11.8	4.01e-04	0	61	0	760217600	56	5745
2026-01-16 09:16:18.30	6.44	23.83	-42.3	-46.4	11.8	7.06e-04	0	61	0	762314752	56	5715
2026-01-16 09:16:19.31	6.28	23.71	-42.7	-47.2	11.0	6.99e-04	0	61	0	764411904	56	6268
2026-01-16 09:16:20.32	6.12	23.58	-43.0	-48.1	10.1	5.48e-03	0	61	0	766509056	56	6956
2026-01-16 09:16:21.33	5.96	23.46	-43.1	-48.3	9.8	1.03e-02	0	61	0	768606208	56	7120
2026-01-16 09:16:22.34	5.80	23.33	-43.2	-48.6	9.5	1.80e-02	0	61	0	769654784	57	6884
2026-01-16 09:16:23.35	5.64	23.21	-43.1	-48.5	9.7	1.24e-02	0	61	0	771751936	57	6808
2026-01-16 09:16:24.36	5.49	23.08	-43.1	-48.4	9.6	1.52e-02	0	61	0	773849088	57	6795
2026-01-16 09:16:25.37	5.33	22.96	-43.1	-48.3	9.8	9.26e-03	0	61	0	775946240	57	6672
2026-01-16 09:16:26.38	5.18	22.84	-43.1	-48.4	9.6	1.02e-02	0	61	0	778043392	57	6760
2026-01-16 09:16:27.39	5.03	22.72	-43.0	-48.3	9.8	1.15e-02	0	61	0	780140544	57	6676
2026-01-16 09:16:28.40	4.88	22.59	-43.1	-48.5	9.5	1.29e-02	0	61	0	781189120	57	6877
2026-01-16 09:16:29.41	4.73	22.47	-43.2	-48.6	9.4	1.70e-02	0	61	0	783286272	57	6942
2026-01-16 09:16:30.42	4.58	22.35	-43.2	-48.9	9.2	1.98e-02	0	61	0	785383424	57	7122
2026-01-16 09:16:31.43	4.43	22.23	-43.2	-48.8	9.2	2.07e-02	0	61	0	787480576	57	7109
2026-01-16 09:16:32.43	4.29	22.11	-43.2	-48.7	9.3	2.06e-02	0	61	0	789577728	57	7025
2026-01-16 09:16:33.44	4.14	21.99	-43.0	-48.2	9.8	1.14e-02	0	61	0	790626304	57	6614
2026-01-16 09:16:34.45	4.00	21.87	-42.9	-48.0	10.1	8.52e-03	0	61	0	792723456	57	6427
2026-01-16 09:16:35.46	3.85	21.75	-42.8	-47.9	10.1	6.07e-03	0	61	0	794820608	57	6355
2026-01-16 09:16:36.47	3.71	21.63	-42.7	-47.5	10.5	3.76e-03	0	61	0	796917760	57	6101
2026-01-16 09:16:37.48	3.57	21.51	-42.7	-47.5	10.6	2.87e-03	0	61	0	799014912	57	6077
2026-01-16 09:16:38.49	3.43	21.39	-42.5	-47.0	11.1	2.47e-03	0	61	0	800063488	57	5748
2026-01-16 09:16:39.50	3.29	21.27	-42.4	-46.8	11.3	1.33e-03	0	61	0	802160640	56	5955
2026-01-16 09:16:40.51	3.16	21.15	-42.3	-46.6	11.5	1.12e-03	0	61	0	804257792	56	5828
2026-01-16 09:16:41.52	3.02	21.04	-42.3	-46.5	11.5	7.84e-04	0	61	0	806354944	56	5775
2026-01-16 09:16:42.53	2.89	20.92	-42.2	-46.5	11.6	7.49e-04	0	61	0	808452096	56	5735
2026-01-16 09:16:43.54	2.75	20.80	-42.2	-46.5	11.6	6.99e-04	0	61	0	809500672	56	5729
2026-01-16 09:16:44.55	2.62	20.69	-42.3	-46.6	11.5	8.66e-04	0	61	0	811597824	56	5801
2026-01-16 09:16:45.56	2.49	20.57	-42.2	-46.5	11.5	8.30e-04	0	61	0	813694976	56	5778
2026-01-16 09:16:46.57	2.36	20.46	-42.5	-47.0	11.0	1.67e-03	0	61	0	815792128	56	6109
2026-01-16 09:16:47.58	2.23	20.34	-42.6	-47.3	10.6	2.32e-03	0	61	0	817889280	56	6323
2026-01-16 09:16:48.59	2.10	20.23	-42.6	-47.4	10.5	3.71e-03	0	61	0	818937856	56	6403
2026-01-16 09:16:49.60	1.97	20.11	-42.6	-47.5	10.4	5.18e-03	0	61	0	821035008	56	6489
2026-01-16 09:16:50.60	1.84	20.00	-42.7	-47.7	10.2	5.40e-03	0	61	0	823132160	56	6627
2026-01-16 09:16:51.61	1.72	19.88	-42.7	-47.8	10.1	6.24e-03	0	61	0	825229312	56	6655
2026-01-16 09:16:52.62	1.59	19.77	-42.7	-47.7	10.1	6.12e-03	0	61	0	827326464	56	6634
2026-01-16 09:16:53.63	1.47	19.66	-42.6	-47.6	10.3	5.55e-03	0	61	0	828375040	56	6500
2026-01-16 09:16:54.64	1.35	19.55	-42.5	-47.3	10.6	3.85e-03	0	61	0	830472192	56	6293
2026-01-16 09:16:55.65	1.22	19.43	-42.5	-47.3	10.6	3.51e-03	0	61	0	832569344	56	6306
2026-01-16 09:16:56.66	1.10	19.32	-42.4	-47.1	10.8	3.50e-03	0	61	0	834666496	56	6138
2026-01-16 09:16:57.67	0.98	19.21	-42.5	-47.3	10.5	3.49e-03	0	61	0	836763648	56	6293
2026-01-16 09:16:58.68	0.86	19.10	-42.5	-47.5	10.3	4.12e-03	0	61	0	837812224	56	6446
2026-01-16 09:16:59.69	0.74	18.99	-42.6	-47.7	10.1	5.85e-03	0	61	0	839909376	56	6604
2026-01-16 09:17:00.70	0.63	18.88	-42.6	-47.8	9.9	9.33e-03	0	61	0	842006528	56	6709
2026-01-16 09:17:01.71	0.51	18.77	-42.7	-48.1	9.6	1.08e-02	0	61	0	844103680	56	6925
2026-01-16 09:17:02.72	0.39	18.66	-42.8	-48.4	9.2	1.67e-02	0	61	0	846200832	56	7196
2026-01-16 09:17:03.73	0.28	18.55	-42.8	-48.4	9.2	2.35e-02	0	61	0	847249408	56	7184
2026-01-16 09:17:04.74	0.16	18.44	-42.9	-48.9	8.7	2.60e-02	0	61	0	849346560	56	7576
2026-01-16 09:17:05.75	0.05	18.33	-42.8	-48.8	8.7	3.52e-02	0	61	0	851443712	56	7522
2026-01-16 09:17:06.76	359.94	18.22	-42.8	-48.8	8.7	3.25e-02	0	61	0	853540864	56	7509
2026-01-16 09:17:07.77	359.83	18.11	-42.8	-48.8	8.7	3.45e-02	0	61	0	855638016	56	7494
2026-01-16 09:17:08.78	359.71	18.01	-42.8	-49.0	8.5	3.97e-02	0	61	0	856686592	56	7669
2026-01-16 09:17:09.79	359.60	17.90	-42.8	-49.0	8.5	3.98e-02	0	61	0	858783744	56	7706
2026-01-16 09:17:10.80	359.50	17.79	-42.8	-49.0	8.5	4.11e-02	0	61	0	860880896	56	7632
2026-01-16 09:17:11.81	359.39	17.69	-42.8	-49.0	8.4	4.81e-02	0	61	0	862978048	56	7717
2026-01-16 09:17:12.82	359.28	17.58	-42.7	-48.8	8.5	4.14e-02	0	61	0	865075200	56	7533
2026-01-16 09:17:13.82	359.17	17.48	-42.6	-48.6	8.8	3.54e-02	0	61	0	866123776	56	7323
2026-01-16 09:17:14.83	359.07	17.37	-42.5	-48.2	9.1	3.20e-02	0	61	0	868220928	56	7031
2026-01-16 09:17:15.84	358.96	17.26	-42.4	-48.1	9.1	2.40e-02	0	61	0	870318080	56	6912
2026-01-16 09:17:16.85	358.86	17.16	-42.3	-47.7	9.6	1.79e-02	0	61	0	872415232	56	6612
2026-01-16 09:17:17.86	358.75	17.06	-42.1	-47.4	9.8	1.29e-02	0	61	0	874512384	56	6369
2026-01-16 09:17:18.87	358.65	16.95	-42.1	-47.4	9.7	1.13e-02	0	61	0	876609536	56	6364
2026-01-16 09:17:19.88	358.55	16.85	-42.1	-47.6	9.4	1.36e-02	0	61	0	877658112	56	6501
2026-01-16 09:17:20.89	358.45	16.74	-42.1	-47.7	9.2	1.69e-02	0	61	0	879755264	56	6572
2026-01-16 09:17:21.90	358.34	16.64	-42.0	-47.6	9.2	1.81e-02	0	62	0	881852416	56	6535
2026-01-16 09:17:22.91	358.24	16.54	-41.8	-47.4	9.2	2.02e-02	0	61	0	883949568	55	6757
2026-01-16 09:17:23.92	358.14	16.44	-41.8	-47.4	9.1	2.18e-02	0	61	0	886046720	55	6760
2026-01-16 09:17:24.93	358.05	16.33	-41.8	-47.7	8.7	2.65e-02	0	61	0	887095296	55	7001
2026-01-16 09:17:25.94	357.95	16.23	-41.9	-48.1	8.3	4.74e-02	0	61	0	889192448	55	7326
2026-01-16 09:17:26.95	357.85	16.13	-42.0	-48.5	7.8	7.23e-02	0	61	0	891289600	55	7674
2026-01-16 09:17:27.96	357.75	16.03	-41.9	-48.3	7.9	8.95e-02	0	61	0	893386752	55	7505
2026-01-16 09:17:28.97	357.66	15.93	-41.8	-48.3	7.8	7.53e-02	0	61	0	895483904	55	7519
2026-01-16 09:17:29.98	357.56	15.83	-41.7	-48.1	7.9	7.40e-02	0	61	0	896532480	55	7350
2026-01-16 09:17:30.99	357.47	15.73	-41.6	-47.8	8.2	6.25e-02	0	61	0	898629632	55	7070
2026-01-16 09:17:32.00	357.37	15.63	-41.5	-47.8	8.1	6.14e-02	0	61	0	900726784	55	7098
2026-01-16 09:17:33.00	357.28	15.53	-41.4	-47.3	8.7	4.54e-02	0	61	0	902823936	54	7052
2026-01-16 09:17:34.01	357.19	15.43	-41.4	-47.4	8.6	3.44e-02	0	61	0	904921088	54	7153
2026-01-16 09:17:35.02	357.09	15.33	-41.3	-47.1	8.8	3.24e-02	0	62	0	905969664	54	6925
2026-01-16 09:17:36.03	357.00	15.24	-41.2	-47.1	8.8	3.03e-02	0	61	0	908066816	54	6880
2026-01-16 09:17:37.04	356.91	15.14	-41.2	-47.1	8.7	3.45e-02	0	62	0	910163968	54	6898
2026-01-16 09:17:38.05	356.82	15.04	-41.2	-47.3	8.5	4.17e-02	0	61	0	912261120	54	7055
2026-01-16 09:17:39.06	356.73	14.94	-41.2	-47.6	8.1	5.54e-02	0	61	0	914358272	54	7342
2026-01-16 09:17:40.07	356.64	14.85	-41.3	-48.0	7.6	6.68e-02	0	61	0	915406848	54	7697
2026-01-16 09:17:41.08	356.55	14.75	-41.3	-48.5	7.1	1.09e-01	0	61	0	917504000	54	8159
2026-01-16 09:17:42.09	356.47	14.65	-41.3	-49.0	6.6	1.96e-01	0	61	0	919601152	54	8577
2026-01-16 09:17:43.10	356.38	14.56	-41.4	-49.8	5.9	2.75e-01	0	61	0	921698304	54	9417
2026-01-16 09:17:44.11	356.29	14.46	-41.4	-50.6	5.3	4.57e-01	0	61	0	923795456	54	10295
2026-01-16 09:17:45.11	356.21	14.37	-41.4	-51.3	4.8	7.36e-01	0	61	0	924844032	54	11166
2026-01-16 09:17:46.12	356.12	14.27	-41.4	-52.1	4.4	9.55e-01	0	62	0	926941184	54	12303
2026-01-16 09:17:47.13	356.04	14.18	-41.3	-52.5	4.3	1.33e+00	0	61	0	927989760	54	12822
2026-01-16 09:17:48.14	355.95	14.08	-41.3	-52.8	4.2	1.39e+00	0	61	0	927989760	54	13279
2026-01-16 09:17:49.15	355.87	13.99	-41.3	-53.6	3.9	1.44e+00	0	61	104	927989760	54	14669
2026-01-16 09:17:50.16	355.78	13.89	-41.3	-54.2	3.8	1.48e+00	0	61	104	927989760	54	15721
2026-01-16 09:17:51.17	355.70	13.80	-41.2	-54.6	3.8	1.49e+00	0	61	104	927989760	54	16317
2026-01-16 09:17:52.18	355.62	13.71	-41.1	-54.5	3.8	1.49e+00	0	62	104	927989760	54	16235
2026-01-16 09:17:53.19	355.54	13.61	-41.1	-54.7	3.8	1.49e+00	0	61	104	927989760	54	16611
2026-01-16 09:17:54.20	355.46	13.52	-41.0	-55.0	3.8	1.49e+00	0	61	104	927989760	54	17255
2026-01-16 09:17:55.21	355.37	13.43	-40.9	-55.2	3.8	1.49e+00	0	61	104	927989760	53	18576
2026-01-16 09:17:56.22	355.29	13.34	-40.8	-55.3	3.8	1.49e+00	0	61	104	927989760	53	18811
2026-01-16 09:17:57.23	355.22	13.24	-40.8	-55.3	3.8	1.49e+00	0	61	104	927989760	53	18880
2026-01-16 09:17:58.24	355.14	13.15	-40.6	-55.3	3.8	1.49e+00	0	61	104	927989760	53	18859
2026-01-16 09:17:59.25	355.06	13.06	-40.7	-55.5	3.8	1.49e+00	0	61	104	927989760	53	19379
2026-01-16 09:18:00.26	354.98	12.97	-40.7	-55.4	3.8	1.49e+00	0	62	104	927989760	53	19062
2026-01-16 09:18:01.26	354.90	12.88	-40.6	-55.4	3.8	1.49e+00	0	61	104	927989760	53	18996
2026-01-16 09:18:02.27	354.83	12.79	-40.9	-55.4	3.8	1.49e+00	0	61	104	927989760	53	19007
2026-01-16 09:18:03.28	354.75	12.70	-40.6	-55.4	3.8	1.49e+00	0	62	104	927989760	53	18993
2026-01-16 09:18:04.29	354.67	12.61	-40.7	-55.5	3.8	1.49e+00	0	61	104	927989760	53	19272
2026-01-16 09:18:05.30	354.60	12.52	-40.5	-55.4	3.8	1.49e+00	0	61	104	927989760	53	18969
2026-01-16 09:18:06.32	354.52	12.43	-40.6	-55.4	3.8	1.49e+00	0	61	104	927989760	53	19017
2026-01-16 09:18:07.33	354.45	12.34	-40.5	-55.3	3.8	1.49e+00	0	62	104	927989760	53	18941
2026-01-16 09:18:08.34	354.37	12.25	-40.6	-55.3	3.8	1.49e+00	0	61	104	927989760	53	18741
2026-01-16 09:18:09.35	354.30	12.16	-40.5	-55.2	3.8	1.49e+00	0	61	104	927989760	52	19722
2026-01-16 09:18:10.36	354.23	12.07	-40.5	-55.4	3.8	1.49e+00	0	61	104	927989760	52	20106
2026-01-16 09:18:11.37	354.15	11.99	-40.4	-55.1	3.8	1.49e+00	0	61	104	927989760	52	19510
2026-01-16 09:18:12.38	354.08	11.90	-40.5	-55.4	3.8	1.49e+00	0	61	104	927989760	52	20102
2026-01-16 09:18:13.39	354.01	11.81	-40.6	-55.2	3.8	1.49e+00	0	61	104	927989760	52	19819
2026-01-16 09:18:14.40	353.94	11.72	-40.5	-55.2	3.8	1.49e+00	0	61	104	927989760	52	19688
2026-01-16 09:18:15.40	353.87	11.64	-40.5	-55.2	3.8	1.49e+00	0	61	104	927989760	52	19769
2026-01-16 09:18:16.41	353.80	11.55	-40.3	-55.1	3.8	1.49e+00	0	61	104	927989760	52	19413
2026-01-16 09:18:17.42	353.73	11.46	-40.1	-55.0	3.8	1.49e+00	0	61	104	927989760	52	19369
2026-01-16 09:18:18.43	353.66	11.38	-40.3	-55.1	3.8	1.49e+00	0	62	104	927989760	52	19508
2026-01-16 09:18:19.44	353.59	11.29	-40.1	-55.0	3.8	1.49e+00	0	61	104	927989760	52	19254
2026-01-16 09:18:20.45	353.52	11.21	-40.4	-55.1	3.8	1.49e+00	0	61	104	927989760	52	19592
2026-01-16 09:18:21.46	353.45	11.12	-40.1	-55.1	3.8	1.49e+00	0	61	104	927989760	52	19458
2026-01-16 09:18:22.47	353.38	11.04	-40.2	-55.0	3.8	1.49e+00	0	61	104	927989760	52	19322
2026-01-16 09:18:23.48	353.31	10.95	-40.2	-55.1	3.8	1.49e+00	0	61	104	927989760	52	19398
2026-01-16 09:18:24.49	353.25	10.87	-40.3	-55.0	3.8	1.49e+00	0	61	104	927989760	52	19332
2026-01-16 09:18:25.50	353.18	10.78	-40.2	-55.0	3.8	1.49e+00	0	61	104	927989760	52	19388
2026-01-16 09:18:26.51	353.11	10.70	-40.2	-55.0	3.8	1.49e+00	0	61	104	927989760	52	19316
2026-01-16 09:18:27.52	353.05	10.61	-40.3	-55.1	3.8	1.49e+00	0	61	104	927989760	52	19427
2026-01-16 09:18:28.52	352.98	10.53	-40.1	-55.1	3.8	1.49e+00	0	62	104	927989760	52	19525
2026-01-16 09:18:29.53	352.92	10.45	-40.3	-55.1	3.8	1.49e+00	0	62	104	927989760	52	19444
2026-01-16 09:18:30.54	352.85	10.37	-40.3	-55.1	3.8	1.49e+00	0	61	104	927989760	52	19528
