passes_logs/2026/01/16/R2.0S_Moscow/R2.0S_Moscow__20260116_051957_FENGYUN_3E_rec.log

#Pass ID: 20260116_051957_FENGYUN 3E
#Satellite: FENGYUN 3E
#Configuration: FENGYUN 3E
#almurnet v.1.7.20251203
#Start time: 2026-01-16 05:19:58

#Version: 2.2.20231116
#Station: R2.0S_Moscow
#Location: 37.707566 lon 55.798166 lat
#TLE: 1 49008U 21062A   26015.49897766  .00000206  00000+0  11779-3 0  9997
#TLE: 2 49008  98.7486  20.6219 0002049 135.8566 224.2775 14.19885576234916

#Time	Az	El	Level	Level2	SNR	BER	BlckErr	Temp	State	Recorded	gain1	gain2
2026-01-16 05:19:58.25	10.98	2.06	-40.2	-51.1	3.8	8.46e-01	0	51	0	0	51	12287
2026-01-16 05:19:59.27	10.93	2.12	-40.2	-51.1	3.8	8.45e-01	0	51	104	0	51	12313
2026-01-16 05:20:00.28	10.87	2.18	-40.2	-51.1	3.8	8.46e-01	0	51	104	0	51	12307
2026-01-16 05:20:01.29	10.82	2.24	-40.2	-51.1	3.8	8.46e-01	0	52	104	0	51	12278
2026-01-16 05:20:02.30	10.76	2.30	-40.2	-51.1	3.8	8.47e-01	0	52	104	0	51	12253
2026-01-16 05:20:03.31	10.71	2.36	-40.2	-51.1	3.8	8.46e-01	0	52	104	0	51	12284
2026-01-16 05:20:04.32	10.65	2.42	-40.2	-51.1	3.8	8.46e-01	0	52	104	0	51	12300
2026-01-16 05:20:05.33	10.60	2.48	-40.2	-51.1	3.8	8.47e-01	0	52	104	0	51	12280
2026-01-16 05:20:06.34	10.54	2.54	-40.2	-51.1	3.8	8.44e-01	0	52	104	0	51	12253
2026-01-16 05:20:07.35	10.49	2.60	-40.2	-51.1	3.8	8.46e-01	0	52	104	0	51	12281
2026-01-16 05:20:08.36	10.43	2.66	-40.2	-51.1	3.8	8.47e-01	0	52	104	0	51	12302
2026-01-16 05:20:09.37	10.37	2.72	-40.2	-51.1	3.8	8.46e-01	0	52	104	0	51	12314
2026-01-16 05:20:10.38	10.31	2.78	-40.2	-51.1	3.8	8.46e-01	0	52	104	0	51	12282
2026-01-16 05:20:11.39	10.26	2.84	-40.2	-51.1	3.8	8.46e-01	0	53	104	0	51	12325
2026-01-16 05:20:12.40	10.20	2.90	-40.2	-51.1	3.8	8.45e-01	0	52	104	0	51	12267
2026-01-16 05:20:13.41	10.14	2.96	-40.2	-51.1	3.8	8.45e-01	0	53	104	0	51	12302
2026-01-16 05:20:14.42	10.08	3.02	-40.2	-51.1	3.8	8.45e-01	0	53	104	0	51	12285
2026-01-16 05:20:15.43	10.02	3.08	-40.2	-51.1	3.8	8.46e-01	0	53	104	0	51	12292
2026-01-16 05:20:16.44	9.97	3.14	-40.2	-51.1	3.8	8.46e-01	0	53	104	0	51	12270
2026-01-16 05:20:17.45	9.91	3.21	-40.2	-51.1	3.8	8.47e-01	0	53	104	0	51	12275
2026-01-16 05:20:18.46	9.85	3.27	-40.2	-51.1	3.8	8.47e-01	0	53	104	0	51	12286
2026-01-16 05:20:19.47	9.79	3.33	-40.2	-51.1	3.8	8.46e-01	0	53	104	0	51	12255
2026-01-16 05:20:20.48	9.73	3.39	-40.2	-51.1	3.8	8.46e-01	0	53	104	0	51	12270
2026-01-16 05:20:21.49	9.67	3.45	-40.2	-51.1	3.8	8.46e-01	0	53	104	0	51	12268
2026-01-16 05:20:22.50	9.61	3.51	-40.2	-51.1	3.8	8.46e-01	0	53	104	0	51	12273
2026-01-16 05:20:23.51	9.55	3.58	-40.2	-51.0	3.8	8.45e-01	0	53	104	0	51	12231
2026-01-16 05:20:24.52	9.49	3.64	-40.2	-51.0	3.8	8.46e-01	0	53	104	0	51	12223
2026-01-16 05:20:25.53	9.43	3.70	-40.2	-51.1	3.8	8.45e-01	0	54	104	0	51	12274
2026-01-16 05:20:26.54	9.36	3.76	-40.2	-51.1	3.8	8.47e-01	0	53	104	0	51	12258
2026-01-16 05:20:27.55	9.30	3.82	-40.2	-51.1	3.8	8.46e-01	0	53	104	0	51	12285
2026-01-16 05:20:28.56	9.24	3.89	-40.2	-51.0	3.8	8.47e-01	0	54	104	0	51	12232
2026-01-16 05:20:29.57	9.18	3.95	-40.2	-51.1	3.8	8.46e-01	0	54	104	0	51	12264
2026-01-16 05:20:30.59	9.12	4.01	-40.2	-51.1	3.8	8.46e-01	0	54	104	0	51	12297
2026-01-16 05:20:31.60	9.05	4.07	-40.2	-51.1	3.8	8.46e-01	0	54	104	0	51	12240
2026-01-16 05:20:32.60	8.99	4.14	-40.2	-51.1	3.8	8.47e-01	0	54	104	0	51	12271
2026-01-16 05:20:33.61	8.93	4.20	-40.2	-51.1	3.8	8.47e-01	0	54	104	0	51	12268
2026-01-16 05:20:34.62	8.86	4.26	-40.2	-51.1	3.8	8.46e-01	0	54	104	0	51	12247
2026-01-16 05:20:35.63	8.80	4.33	-40.2	-51.1	3.8	8.46e-01	0	54	104	0	51	12280
2026-01-16 05:20:36.64	8.73	4.39	-40.2	-51.1	3.8	8.45e-01	0	54	104	0	51	12275
2026-01-16 05:20:37.65	8.67	4.45	-40.2	-51.1	3.8	8.45e-01	0	54	104	0	51	12283
2026-01-16 05:20:38.66	8.61	4.52	-40.2	-51.1	3.8	8.46e-01	0	54	104	0	51	12289
2026-01-16 05:20:39.68	8.54	4.58	-40.2	-51.1	3.8	8.46e-01	0	54	104	0	51	12276
2026-01-16 05:20:40.69	8.47	4.64	-40.2	-51.1	3.8	8.46e-01	0	54	104	0	51	12295
2026-01-16 05:20:41.70	8.41	4.71	-40.2	-51.1	3.8	8.46e-01	0	54	104	0	51	12273
2026-01-16 05:20:42.71	8.34	4.77	-40.2	-51.1	3.8	8.46e-01	0	54	104	0	51	12282
2026-01-16 05:20:43.72	8.28	4.84	-40.2	-51.1	3.8	8.46e-01	0	54	104	0	51	12280
2026-01-16 05:20:44.73	8.21	4.90	-40.2	-51.1	3.8	8.45e-01	0	55	104	0	51	12280
2026-01-16 05:20:45.74	8.14	4.96	-40.2	-51.1	3.8	8.47e-01	0	54	104	0	51	12257
2026-01-16 05:20:46.74	8.08	5.03	-40.2	-51.1	3.8	8.46e-01	0	54	104	0	51	12259
2026-01-16 05:20:47.76	8.01	5.09	-40.2	-51.1	3.8	8.46e-01	0	55	104	0	51	12280
2026-01-16 05:20:48.76	7.94	5.16	-40.2	-51.0	3.8	8.45e-01	0	55	104	0	51	12209
2026-01-16 05:20:49.78	7.87	5.22	-40.2	-51.0	3.8	8.46e-01	0	55	104	0	51	12207
2026-01-16 05:20:50.79	7.80	5.29	-40.2	-51.1	3.8	8.46e-01	0	55	104	0	51	12253
2026-01-16 05:20:51.80	7.73	5.35	-40.2	-51.1	3.8	8.46e-01	0	55	104	0	51	12252
2026-01-16 05:20:52.80	7.66	5.42	-40.2	-51.1	3.8	8.46e-01	0	55	104	0	51	12253
2026-01-16 05:20:53.81	7.60	5.48	-40.2	-51.0	3.8	8.45e-01	0	55	104	0	51	12231
2026-01-16 05:20:54.82	7.53	5.55	-40.2	-51.1	3.8	8.47e-01	0	55	104	0	51	12265
2026-01-16 05:20:55.83	7.46	5.61	-40.2	-51.0	3.8	8.46e-01	0	55	104	0	51	12232
2026-01-16 05:20:56.84	7.38	5.68	-40.2	-51.1	3.8	8.45e-01	0	55	104	0	51	12251
2026-01-16 05:20:57.85	7.31	5.75	-40.2	-51.1	3.8	8.45e-01	0	55	104	0	51	12279
2026-01-16 05:20:58.86	7.24	5.81	-40.2	-51.1	3.8	8.46e-01	0	55	104	0	51	12268
2026-01-16 05:20:59.87	7.17	5.88	-40.2	-51.1	3.8	8.46e-01	0	55	104	0	51	12278
2026-01-16 05:21:00.88	7.10	5.94	-40.2	-51.1	3.8	8.47e-01	0	55	104	0	51	12252
2026-01-16 05:21:01.89	7.03	6.01	-40.2	-51.1	3.8	8.46e-01	0	55	104	0	51	12264
2026-01-16 05:21:02.90	6.95	6.08	-40.2	-51.0	3.8	8.47e-01	0	55	104	0	51	12220
2026-01-16 05:21:03.91	6.88	6.14	-40.2	-51.0	3.8	8.46e-01	0	55	104	0	51	12233
2026-01-16 05:21:04.92	6.81	6.21	-40.2	-51.1	3.8	8.47e-01	0	55	104	0	51	12264
2026-01-16 05:21:05.93	6.73	6.28	-40.2	-51.1	3.8	8.45e-01	0	56	104	0	51	12259
2026-01-16 05:21:06.94	6.66	6.34	-40.2	-51.1	3.8	8.47e-01	0	56	104	0	51	12269
2026-01-16 05:21:07.95	6.59	6.41	-40.2	-51.1	3.8	8.47e-01	0	56	104	0	51	12273
2026-01-16 05:21:08.96	6.51	6.48	-40.2	-51.1	3.8	8.45e-01	0	56	104	0	51	12250
2026-01-16 05:21:09.97	6.44	6.54	-40.2	-51.1	3.8	8.46e-01	0	56	104	0	51	12261
2026-01-16 05:21:10.98	6.36	6.61	-40.2	-51.0	3.8	8.46e-01	0	56	104	0	51	12227
2026-01-16 05:21:11.99	6.28	6.68	-40.2	-51.0	3.8	8.46e-01	0	56	104	0	51	12233
2026-01-16 05:21:13.00	6.21	6.75	-40.2	-51.1	3.8	8.46e-01	0	56	104	0	51	12274
2026-01-16 05:21:14.01	6.13	6.81	-40.2	-51.1	3.8	8.46e-01	0	56	104	0	51	12258
2026-01-16 05:21:15.02	6.05	6.88	-40.2	-51.0	3.8	8.46e-01	0	56	104	0	51	12222
2026-01-16 05:21:16.03	5.98	6.95	-40.2	-51.1	3.8	8.46e-01	0	56	104	0	51	12254
2026-01-16 05:21:17.04	5.90	7.02	-40.2	-51.1	3.8	8.47e-01	0	56	104	0	51	12260
2026-01-16 05:21:18.05	5.82	7.09	-40.2	-51.1	3.8	8.46e-01	0	56	104	0	51	12271
2026-01-16 05:21:19.06	5.74	7.15	-40.2	-51.1	3.8	8.46e-01	0	56	104	0	51	12252
2026-01-16 05:21:20.07	5.66	7.22	-40.2	-51.1	3.8	8.46e-01	0	56	104	0	51	12250
2026-01-16 05:21:21.08	5.58	7.29	-40.2	-51.0	3.8	8.46e-01	0	56	104	0	51	12216
2026-01-16 05:21:22.09	5.51	7.36	-40.2	-51.1	3.8	8.46e-01	0	56	104	0	51	12235
2026-01-16 05:21:23.10	5.42	7.43	-40.2	-51.1	3.8	8.47e-01	0	56	104	0	51	12274
2026-01-16 05:21:24.11	5.34	7.50	-40.2	-51.1	3.8	8.45e-01	0	57	104	0	51	12250
2026-01-16 05:21:25.12	5.26	7.57	-40.2	-51.0	3.8	8.45e-01	0	56	104	0	51	12221
2026-01-16 05:21:26.13	5.18	7.64	-40.2	-51.1	3.8	8.47e-01	0	56	104	0	51	12264
2026-01-16 05:21:27.14	5.10	7.71	-40.2	-51.1	3.8	8.46e-01	0	56	104	0	51	12261
2026-01-16 05:21:28.15	5.02	7.78	-40.2	-51.1	3.8	8.46e-01	0	56	104	0	51	12258
2026-01-16 05:21:29.16	4.94	7.85	-40.2	-51.1	3.8	8.46e-01	0	56	104	0	51	12242
2026-01-16 05:21:30.17	4.85	7.92	-40.2	-51.0	3.8	8.46e-01	0	56	104	0	51	12205
2026-01-16 05:21:31.19	4.77	7.99	-40.2	-51.0	3.8	8.46e-01	0	56	104	0	51	12219
2026-01-16 05:21:32.19	4.69	8.06	-40.2	-51.1	3.8	8.46e-01	0	57	104	0	51	12243
2026-01-16 05:21:33.20	4.60	8.13	-40.2	-51.2	3.8	8.47e-01	0	57	104	0	51	12383
2026-01-16 05:21:34.21	4.52	8.20	-40.3	-51.1	3.8	8.46e-01	0	57	104	0	51	12353
2026-01-16 05:21:35.22	4.43	8.27	-40.3	-51.2	3.8	8.45e-01	0	57	104	0	51	12441
2026-01-16 05:21:36.23	4.35	8.34	-40.3	-51.3	3.8	8.46e-01	0	57	104	0	51	12563
2026-01-16 05:21:37.24	4.26	8.41	-40.3	-51.2	3.8	8.46e-01	0	57	104	0	51	12413
2026-01-16 05:21:38.25	4.17	8.48	-40.3	-51.3	3.8	8.46e-01	0	57	104	0	51	12564
2026-01-16 05:21:39.26	4.09	8.55	-40.3	-51.2	3.8	8.46e-01	0	57	104	0	51	12433
2026-01-16 05:21:40.27	4.00	8.62	-40.4	-51.3	3.8	8.46e-01	0	57	104	0	51	12607
2026-01-16 05:21:41.28	3.91	8.69	-40.3	-51.2	3.8	8.46e-01	0	57	104	0	51	12468
2026-01-16 05:21:42.29	3.82	8.77	-40.4	-51.3	3.8	8.46e-01	0	57	104	0	51	12592
2026-01-16 05:21:43.30	3.74	8.84	-40.2	-51.1	3.8	8.47e-01	0	57	104	0	51	12373
2026-01-16 05:21:44.31	3.65	8.91	-40.3	-51.3	3.8	8.45e-01	0	57	104	0	51	12543
2026-01-16 05:21:45.32	3.56	8.98	-40.3	-51.2	3.8	8.46e-01	0	57	104	0	51	12435
2026-01-16 05:21:46.33	3.47	9.05	-40.3	-51.2	3.8	8.45e-01	0	57	104	0	51	12513
2026-01-16 05:21:47.34	3.38	9.12	-40.3	-51.2	3.8	8.47e-01	0	57	104	0	51	12441
2026-01-16 05:21:48.35	3.29	9.20	-40.4	-51.3	3.8	8.46e-01	0	57	104	0	51	12619
2026-01-16 05:21:49.36	3.19	9.27	-40.1	-51.1	3.8	8.46e-01	0	57	104	0	51	12302
2026-01-16 05:21:50.37	3.10	9.34	-40.4	-51.3	3.8	8.46e-01	0	57	104	0	51	12591
2026-01-16 05:21:51.38	3.01	9.41	-40.1	-51.1	3.8	8.45e-01	0	57	104	0	51	12333
2026-01-16 05:21:52.39	2.92	9.49	-40.3	-51.2	3.8	8.46e-01	0	57	104	0	51	12475
2026-01-16 05:21:53.39	2.83	9.56	-40.2	-51.2	3.8	8.47e-01	0	58	104	0	51	12418
2026-01-16 05:21:54.40	2.73	9.63	-40.3	-51.3	3.8	8.45e-01	0	57	104	0	51	12550
2026-01-16 05:21:55.41	2.64	9.71	-40.3	-51.2	3.8	8.46e-01	0	57	104	0	51	12496
2026-01-16 05:21:56.42	2.54	9.78	-40.4	-51.3	3.8	8.46e-01	0	58	104	0	51	12640
2026-01-16 05:21:57.43	2.45	9.85	-40.2	-51.2	3.8	8.44e-01	0	58	104	0	51	12431
2026-01-16 05:21:58.44	2.35	9.93	-40.4	-51.3	3.8	8.47e-01	0	58	104	0	51	12585
2026-01-16 05:21:59.45	2.26	10.00	-40.2	-51.2	3.8	8.46e-01	0	58	104	0	51	12484
2026-01-16 05:22:00.46	2.16	10.08	-40.3	-51.3	3.8	8.47e-01	0	58	104	0	51	12565
2026-01-16 05:22:01.47	2.06	10.15	-40.3	-51.2	3.8	8.47e-01	0	58	104	0	51	12515
2026-01-16 05:22:02.48	1.96	10.22	-40.3	-51.3	3.8	8.47e-01	0	57	104	0	51	12538
2026-01-16 05:22:03.49	1.87	10.30	-40.4	-51.3	3.8	8.46e-01	0	58	104	0	51	12609
2026-01-16 05:22:04.50	1.77	10.37	-40.3	-51.3	3.8	8.46e-01	0	58	104	0	51	12570
2026-01-16 05:22:05.51	1.67	10.45	-40.2	-51.3	3.8	8.46e-01	0	58	104	0	51	12531
2026-01-16 05:22:06.52	1.57	10.52	-40.3	-51.3	3.8	8.47e-01	0	58	104	0	51	12544
2026-01-16 05:22:07.53	1.47	10.60	-40.3	-51.3	3.8	8.47e-01	0	58	104	0	51	12532
2026-01-16 05:22:08.54	1.37	10.67	-40.3	-51.3	3.8	8.46e-01	0	58	104	0	51	12608
2026-01-16 05:22:09.55	1.26	10.75	-40.3	-51.3	3.8	8.45e-01	0	58	104	0	51	12603
2026-01-16 05:22:10.56	1.16	10.82	-40.3	-51.3	3.8	8.46e-01	0	58	104	0	51	12609
2026-01-16 05:22:11.57	1.06	10.90	-40.5	-51.5	3.8	8.46e-01	0	58	104	0	51	12813
2026-01-16 05:22:12.58	0.96	10.97	-40.3	-51.3	3.8	8.47e-01	0	58	104	0	51	12624
2026-01-16 05:22:13.59	0.85	11.05	-40.4	-51.4	3.8	8.47e-01	0	58	104	0	51	12706
2026-01-16 05:22:14.60	0.75	11.13	-40.4	-51.4	3.8	8.46e-01	0	58	104	0	51	12688
2026-01-16 05:22:15.61	0.64	11.20	-40.2	-51.3	3.8	8.46e-01	0	58	104	0	51	12558
2026-01-16 05:22:16.62	0.54	11.28	-40.2	-51.2	3.8	8.46e-01	0	58	104	0	51	12504
2026-01-16 05:22:17.63	0.43	11.35	-40.2	-51.2	3.8	8.46e-01	0	58	104	0	51	12465
2026-01-16 05:22:18.64	0.33	11.43	-40.1	-51.3	3.8	8.46e-01	0	58	104	0	51	12531
2026-01-16 05:22:19.65	0.22	11.51	-40.1	-51.2	3.8	8.46e-01	0	58	104	0	51	12464
2026-01-16 05:22:20.66	0.11	11.58	-40.1	-51.3	3.8	8.46e-01	0	58	104	0	51	12644
2026-01-16 05:22:21.67	0.00	11.66	-40.6	-51.6	3.8	8.47e-01	0	58	104	0	51	13108
2026-01-16 05:22:22.68	359.89	11.74	-40.6	-51.6	3.8	8.47e-01	0	58	104	0	51	13017
2026-01-16 05:22:23.69	359.78	11.82	-41.0	-51.9	3.8	8.47e-01	0	58	104	0	51	13493
2026-01-16 05:22:24.70	359.67	11.89	-40.4	-51.5	3.8	8.46e-01	0	58	104	0	51	12908
2026-01-16 05:22:25.71	359.56	11.97	-41.0	-51.9	3.8	8.48e-01	0	58	104	0	51	13521
2026-01-16 05:22:26.72	359.45	12.05	-40.3	-51.5	3.8	8.45e-01	0	58	104	0	51	12895
2026-01-16 05:22:27.73	359.34	12.13	-40.4	-51.4	3.8	8.46e-01	0	58	104	0	51	12780
2026-01-16 05:22:28.74	359.23	12.20	-40.2	-51.3	3.8	8.46e-01	0	58	104	0	51	12654
2026-01-16 05:22:29.75	359.12	12.28	-40.2	-51.4	3.8	8.46e-01	0	58	104	0	51	12678
2026-01-16 05:22:30.76	359.00	12.36	-40.2	-51.2	3.8	8.46e-01	0	58	104	0	51	12490
2026-01-16 05:22:31.77	358.89	12.44	-40.3	-51.1	3.8	8.46e-01	0	58	104	0	51	12342
2026-01-16 05:22:32.78	358.77	12.52	-40.7	-51.6	3.8	8.45e-01	0	58	104	0	51	13086
2026-01-16 05:22:33.79	358.66	12.60	-40.8	-51.8	3.8	8.46e-01	0	58	104	0	51	13276
2026-01-16 05:22:34.80	358.54	12.68	-41.2	-49.6	3.9	8.46e-01	0	58	104	0	52	9766
2026-01-16 05:22:35.81	358.42	12.75	-42.1	-50.2	4.2	8.27e-01	0	58	0	0	53	9910
2026-01-16 05:22:36.82	358.31	12.83	-41.0	-50.2	3.8	7.69e-01	0	58	104	0	52	10529
2026-01-16 05:22:37.83	358.19	12.91	-40.3	-45.0	6.6	4.51e-01	0	58	0	0	51	6107
2026-01-16 05:22:38.84	358.07	12.99	-39.8	-43.6	8.3	7.59e-02	0	58	0	7340032	50	5523
2026-01-16 05:22:39.85	357.95	13.07	-39.7	-43.3	8.7	4.23e-02	0	58	0	14680064	50	5322
2026-01-16 05:22:40.85	357.83	13.15	-39.2	-42.3	9.7	1.77e-02	0	58	0	22020096	49	5028
2026-01-16 05:22:41.87	357.71	13.23	-38.8	-41.7	10.4	6.39e-03	0	58	0	29360128	48	4935
2026-01-16 05:22:42.87	357.59	13.31	-38.2	-40.8	11.1	2.00e-03	0	59	0	36700160	47	4733
2026-01-16 05:22:43.89	357.46	13.39	-38.2	-40.8	11.1	1.36e-03	0	58	0	42991616	47	4758
2026-01-16 05:22:44.90	357.34	13.47	-37.6	-39.9	12.1	3.40e-04	0	59	0	50331648	46	4544
2026-01-16 05:22:45.91	357.22	13.55	-37.3	-39.5	12.5	1.81e-04	0	59	0	58720256	45	4591
2026-01-16 05:22:46.92	357.09	13.63	-37.2	-39.5	12.6	9.26e-05	0	59	0	65011712	45	4547
2026-01-16 05:22:47.93	356.97	13.71	-37.1	-39.2	12.8	9.04e-05	0	59	0	72351744	45	4441
2026-01-16 05:22:48.94	356.84	13.79	-37.0	-39.0	13.1	4.57e-05	0	58	0	79691776	44	4592
2026-01-16 05:22:49.95	356.72	13.87	-36.9	-38.9	13.2	2.17e-05	0	59	0	87031808	44	4512
2026-01-16 05:22:50.96	356.59	13.95	-37.1	-39.3	12.8	3.77e-05	0	59	0	94371840	44	4712
2026-01-16 05:22:51.97	356.46	14.04	-37.6	-39.9	12.0	2.69e-04	0	59	0	101711872	44	5097
2026-01-16 05:22:52.98	356.33	14.12	-38.0	-40.7	11.1	1.18e-03	0	59	0	109051904	45	5244
2026-01-16 05:22:53.99	356.20	14.20	-38.8	-42.1	9.4	1.28e-02	0	58	0	116391936	47	5512
2026-01-16 05:22:55.00	356.07	14.28	-39.5	-43.5	8.0	6.28e-02	0	59	0	123731968	48	6079
2026-01-16 05:22:56.01	355.94	14.36	-40.1	-44.9	6.5	2.09e-01	0	59	0	131072000	49	6780
2026-01-16 05:22:57.02	355.81	14.44	-40.5	-46.5	5.3	5.98e-01	0	59	0	137363456	50	7636
2026-01-16 05:22:58.02	355.68	14.52	-40.9	-48.4	4.3	8.30e-01	0	59	0	137363456	51	9007
2026-01-16 05:22:59.03	355.55	14.60	-41.0	-49.7	3.8	8.40e-01	0	59	104	137363456	51	10480
2026-01-16 05:23:00.04	355.41	14.69	-41.1	-50.6	3.8	8.46e-01	0	59	104	137363456	51	11678
2026-01-16 05:23:01.05	355.28	14.77	-41.2	-51.4	3.8	8.45e-01	0	59	104	137363456	51	12759
2026-01-16 05:23:02.06	355.15	14.85	-41.1	-51.7	3.8	8.47e-01	0	59	104	137363456	51	13183
2026-01-16 05:23:03.07	355.01	14.93	-41.1	-51.9	3.8	8.46e-01	0	59	104	137363456	51	13454
2026-01-16 05:23:04.08	354.87	15.02	-41.1	-51.9	3.8	8.45e-01	0	59	104	137363456	51	13483
2026-01-16 05:23:05.09	354.73	15.10	-41.0	-51.9	3.8	8.46e-01	0	59	104	137363456	51	13488
2026-01-16 05:23:06.10	354.60	15.18	-41.1	-52.0	3.8	8.46e-01	0	59	104	137363456	51	13681
2026-01-16 05:23:07.11	354.46	15.26	-41.2	-52.1	3.8	8.46e-01	0	59	104	137363456	52	13029
2026-01-16 05:23:08.12	354.32	15.35	-40.6	-51.8	3.8	8.46e-01	0	59	104	137363456	52	12575
2026-01-16 05:23:09.13	354.18	15.43	-41.2	-52.1	3.8	8.46e-01	0	59	104	137363456	52	12980
2026-01-16 05:23:10.13	354.04	15.51	-40.6	-51.9	3.8	8.46e-01	0	59	104	137363456	51	13555
2026-01-16 05:23:11.14	353.89	15.60	-41.1	-52.1	3.8	8.46e-01	0	59	104	137363456	52	12970
2026-01-16 05:23:12.15	353.75	15.68	-40.9	-51.9	3.8	8.46e-01	0	59	104	137363456	52	12774
2026-01-16 05:23:13.16	353.61	15.76	-40.7	-51.7	3.8	8.47e-01	0	59	104	137363456	52	12462
2026-01-16 05:23:14.17	353.46	15.85	-40.9	-51.8	3.8	8.45e-01	0	59	104	137363456	52	12591
2026-01-16 05:23:15.18	353.32	15.93	-40.8	-51.9	3.8	8.46e-01	0	59	104	137363456	51	13476
2026-01-16 05:23:16.19	353.17	16.01	-40.8	-52.0	3.8	8.46e-01	0	59	104	137363456	51	13722
2026-01-16 05:23:17.20	353.02	16.10	-40.7	-52.0	3.8	8.46e-01	0	59	104	137363456	51	13585
2026-01-16 05:23:18.20	352.88	16.18	-41.0	-52.1	3.8	8.45e-01	0	59	104	137363456	51	13804
2026-01-16 05:23:19.21	352.73	16.26	-40.6	-51.9	3.8	8.46e-01	0	59	104	137363456	51	13521
2026-01-16 05:23:20.22	352.58	16.35	-40.9	-52.0	3.8	8.46e-01	0	59	104	137363456	51	13720
2026-01-16 05:23:21.23	352.43	16.43	-40.9	-52.1	3.8	8.46e-01	0	59	104	137363456	51	13818
2026-01-16 05:23:22.24	352.28	16.52	-41.0	-52.1	3.8	8.47e-01	0	59	104	137363456	51	13766
2026-01-16 05:23:23.25	352.12	16.60	-40.7	-52.0	3.8	8.47e-01	0	59	104	137363456	51	13681
2026-01-16 05:23:24.26	351.97	16.69	-40.6	-52.0	3.8	8.46e-01	0	59	104	137363456	51	13670
2026-01-16 05:23:25.27	351.82	16.77	-41.0	-52.0	3.8	8.47e-01	0	60	104	137363456	51	13665
2026-01-16 05:23:26.28	351.66	16.85	-40.3	-52.1	3.8	8.46e-01	0	60	104	137363456	51	13847
2026-01-16 05:23:27.28	351.51	16.94	-41.1	-52.0	3.8	8.46e-01	0	59	104	137363456	51	13702
2026-01-16 05:23:28.30	351.35	17.02	-41.0	-52.0	3.8	8.46e-01	0	59	104	137363456	51	13670
2026-01-16 05:23:29.30	351.19	17.11	-39.7	-52.1	3.8	8.45e-01	0	59	104	137363456	50	14552
2026-01-16 05:23:30.31	351.03	17.19	-40.9	-52.0	3.8	8.46e-01	0	59	104	137363456	51	13699
2026-01-16 05:23:31.32	350.87	17.28	-39.6	-52.1	3.8	8.46e-01	0	59	104	137363456	49	15541
2026-01-16 05:23:32.33	350.71	17.36	-40.9	-52.3	3.8	8.47e-01	0	59	104	137363456	51	14116
2026-01-16 05:23:33.34	350.55	17.45	-40.3	-52.2	3.8	8.46e-01	0	59	104	137363456	51	14003
2026-01-16 05:23:34.35	350.39	17.53	-41.1	-52.2	3.8	8.45e-01	0	59	104	137363456	52	13110
2026-01-16 05:23:35.36	350.23	17.62	-40.7	-52.2	3.8	8.46e-01	0	59	104	137363456	51	13997
2026-01-16 05:23:36.37	350.06	17.70	-41.2	-52.0	3.8	8.46e-01	0	60	104	137363456	52	12928
2026-01-16 05:23:37.38	349.90	17.79	-40.8	-52.1	3.8	8.45e-01	0	59	104	137363456	52	13087
2026-01-16 05:23:38.39	349.73	17.87	-41.2	-52.1	3.8	8.47e-01	0	59	104	137363456	52	12967
2026-01-16 05:23:39.40	349.56	17.96	-41.4	-52.3	3.8	8.46e-01	0	59	104	137363456	52	13339
2026-01-16 05:23:40.41	349.39	18.05	-41.1	-52.1	3.8	8.45e-01	0	59	104	137363456	52	13074
2026-01-16 05:23:41.42	349.23	18.13	-41.2	-52.1	3.8	8.48e-01	0	59	104	137363456	52	12965
2026-01-16 05:23:42.43	349.06	18.22	-41.0	-52.2	3.8	8.46e-01	0	60	104	137363456	52	13145
2026-01-16 05:23:43.44	348.88	18.30	-41.1	-52.0	3.8	8.46e-01	0	60	104	137363456	52	12944
2026-01-16 05:23:44.44	348.71	18.39	-41.2	-52.2	3.8	8.47e-01	0	59	104	137363456	52	13194
2026-01-16 05:23:45.45	348.54	18.47	-41.0	-52.1	3.8	8.47e-01	0	60	104	137363456	52	13096
2026-01-16 05:23:46.47	348.37	18.56	-41.3	-52.3	3.8	8.45e-01	0	60	104	137363456	52	13263
2026-01-16 05:23:47.47	348.19	18.64	-41.2	-52.2	3.8	8.46e-01	0	60	104	137363456	52	13135
2026-01-16 05:23:48.48	348.02	18.73	-41.3	-52.2	3.8	8.47e-01	0	59	104	137363456	52	13141
2026-01-16 05:23:49.49	347.84	18.82	-41.2	-52.1	3.8	8.47e-01	0	60	104	137363456	52	13072
2026-01-16 05:23:50.50	347.66	18.90	-41.4	-52.4	3.8	8.46e-01	0	59	104	137363456	52	13464
2026-01-16 05:23:51.51	347.48	18.99	-41.6	-52.5	3.8	8.46e-01	0	60	104	137363456	52	13677
2026-01-16 05:23:52.52	347.30	19.07	-41.4	-52.4	3.8	8.46e-01	0	60	104	137363456	52	13542
2026-01-16 05:23:53.53	347.12	19.16	-41.4	-52.4	3.8	8.47e-01	0	60	104	137363456	52	13454
2026-01-16 05:23:54.54	346.94	19.24	-41.5	-52.4	3.8	8.46e-01	0	60	104	137363456	52	13471
2026-01-16 05:23:55.55	346.76	19.33	-41.3	-52.1	3.8	8.46e-01	0	60	104	137363456	52	13048
2026-01-16 05:23:56.56	346.57	19.42	-41.6	-52.4	3.8	8.46e-01	0	60	104	137363456	52	13439
2026-01-16 05:23:57.57	346.39	19.50	-41.6	-52.4	3.8	8.47e-01	0	60	104	137363456	52	13498
2026-01-16 05:23:58.58	346.20	19.59	-41.6	-52.5	3.8	8.47e-01	0	60	104	137363456	52	13593
2026-01-16 05:23:59.59	346.01	19.67	-41.6	-52.4	3.8	8.47e-01	0	60	104	137363456	52	13497
2026-01-16 05:24:00.60	345.82	19.76	-41.6	-52.3	3.8	8.46e-01	0	60	104	137363456	52	13388
2026-01-16 05:24:01.61	345.63	19.84	-41.2	-51.6	3.8	8.46e-01	0	60	104	137363456	52	12361
2026-01-16 05:24:02.61	345.45	19.93	-41.2	-51.6	3.8	8.47e-01	0	60	104	137363456	52	12312
2026-01-16 05:24:03.62	345.25	20.01	-41.2	-51.6	3.8	8.46e-01	0	60	104	137363456	52	12271
2026-01-16 05:24:04.63	345.06	20.10	-41.3	-51.9	3.8	8.46e-01	0	60	104	137363456	52	12732
2026-01-16 05:24:05.64	344.87	20.18	-41.3	-52.1	3.8	8.47e-01	0	60	104	137363456	52	12987
2026-01-16 05:24:06.65	344.67	20.27	-41.4	-52.1	3.8	8.46e-01	0	60	104	137363456	52	13107
2026-01-16 05:24:07.66	344.48	20.35	-41.4	-52.1	3.8	8.45e-01	0	59	104	137363456	52	12988
2026-01-16 05:24:08.67	344.28	20.44	-41.3	-48.9	4.0	8.46e-01	0	60	104	137363456	52	9058
2026-01-16 05:24:09.68	344.08	20.53	-42.2	-48.9	4.7	7.76e-01	0	60	0	137363456	53	8524
2026-01-16 05:24:10.69	343.88	20.61	-41.9	-48.7	4.6	7.44e-01	0	60	0	137363456	54	7899
2026-01-16 05:24:11.70	343.68	20.70	-41.8	-48.1	5.0	8.30e-01	0	60	0	137363456	54	7290
2026-01-16 05:24:12.71	343.48	20.78	-41.4	-46.4	6.3	2.75e-01	0	60	0	142606336	53	6357
2026-01-16 05:24:13.72	343.28	20.86	-41.1	-45.7	6.9	1.89e-01	0	60	0	149946368	53	5915
2026-01-16 05:24:14.73	343.07	20.95	-40.7	-44.6	8.0	9.83e-02	0	60	0	157286400	52	5507
2026-01-16 05:24:15.74	342.87	21.03	-40.1	-43.4	9.3	2.48e-02	0	60	0	163577856	51	5065
2026-01-16 05:24:16.75	342.66	21.12	-39.3	-42.1	10.7	5.49e-03	0	60	0	170917888	49	4915
2026-01-16 05:24:17.76	342.45	21.20	-38.8	-41.2	11.7	8.46e-04	0	60	0	179306496	48	4683
2026-01-16 05:24:18.77	342.24	21.29	-37.9	-40.0	12.8	1.05e-04	0	60	0	185597952	46	4593
2026-01-16 05:24:19.78	342.03	21.37	-37.2	-39.1	13.7	1.83e-05	0	60	0	192937984	45	4368
2026-01-16 05:24:20.79	341.82	21.46	-36.8	-38.6	14.3	2.20e-06	0	60	0	200278016	44	4342
2026-01-16 05:24:21.80	341.61	21.54	-36.2	-37.9	14.9	0.00e+00	0	60	0	207618048	43	4248
2026-01-16 05:24:22.81	341.40	21.62	-36.0	-37.6	15.3	0.00e+00	0	60	0	214958080	42	4347
2026-01-16 05:24:23.82	341.18	21.71	-36.0	-37.6	15.2	0.00e+00	0	60	0	222298112	42	4382
2026-01-16 05:24:24.83	340.97	21.79	-35.9	-37.4	15.5	0.00e+00	0	60	0	229638144	42	4280
2026-01-16 05:24:25.84	340.75	21.87	-36.1	-37.7	15.3	0.00e+00	0	60	0	236978176	42	4418
2026-01-16 05:24:26.85	340.53	21.96	-36.5	-38.1	15.0	0.00e+00	0	60	0	244318208	42	4629
2026-01-16 05:24:27.86	340.31	22.04	-36.8	-38.5	14.7	0.00e+00	0	60	0	251658240	43	4558
2026-01-16 05:24:28.87	340.09	22.12	-36.5	-38.1	15.3	0.00e+00	0	60	0	258998272	43	4374
2026-01-16 05:24:29.88	339.87	22.20	-36.3	-37.7	16.0	0.00e+00	0	60	0	266338304	43	4172
2026-01-16 05:24:30.89	339.65	22.29	-36.1	-37.5	16.4	0.00e+00	0	60	0	273678336	43	4090
2026-01-16 05:24:31.90	339.42	22.37	-36.0	-37.4	16.6	0.00e+00	0	60	0	281018368	43	4015
2026-01-16 05:24:32.91	339.20	22.45	-35.9	-37.2	16.9	0.00e+00	0	60	0	288358400	42	4187
2026-01-16 05:24:33.92	338.97	22.53	-36.0	-37.3	16.9	0.00e+00	0	60	0	295698432	42	4232
2026-01-16 05:24:34.93	338.75	22.61	-35.8	-37.1	17.1	0.00e+00	0	60	0	303038464	42	4125
2026-01-16 05:24:35.94	338.52	22.70	-35.7	-37.0	17.3	0.00e+00	0	60	0	309329920	42	4074
2026-01-16 05:24:36.95	338.29	22.78	-35.8	-37.1	17.3	0.00e+00	0	60	0	316669952	42	4103
2026-01-16 05:24:37.96	338.06	22.86	-35.8	-37.1	17.3	0.00e+00	0	60	0	325058560	42	4110
2026-01-16 05:24:38.97	337.82	22.94	-35.8	-37.1	17.4	0.00e+00	0	60	0	331350016	42	4103
2026-01-16 05:24:39.98	337.59	23.02	-35.8	-37.1	17.4	0.00e+00	0	60	0	338690048	42	4107
2026-01-16 05:24:40.99	337.35	23.10	-35.8	-37.1	17.4	0.00e+00	0	60	0	346030080	42	4133
2026-01-16 05:24:42.00	337.12	23.18	-35.9	-37.2	17.4	0.00e+00	0	60	0	353370112	42	4149
2026-01-16 05:24:43.01	336.88	23.26	-35.8	-37.1	17.4	0.00e+00	0	60	0	360710144	42	4125
2026-01-16 05:24:44.02	336.64	23.34	-36.0	-37.3	17.3	0.00e+00	0	60	0	368050176	42	4215
2026-01-16 05:24:45.03	336.40	23.42	-36.0	-37.2	17.4	0.00e+00	0	60	0	375390208	42	4184
2026-01-16 05:24:46.04	336.16	23.49	-36.0	-37.3	17.4	0.00e+00	0	60	0	382730240	42	4215
2026-01-16 05:24:47.04	335.92	23.57	-36.0	-37.2	17.5	0.00e+00	0	60	0	390070272	42	4177
2026-01-16 05:24:48.05	335.68	23.65	-35.9	-37.1	17.6	0.00e+00	0	60	0	397410304	42	4135
2026-01-16 05:24:49.06	335.43	23.73	-35.7	-36.9	17.8	0.00e+00	0	60	0	404750336	42	4051
2026-01-16 05:24:50.07	335.19	23.80	-35.6	-36.8	17.9	0.00e+00	0	60	0	412090368	42	3978
2026-01-16 05:24:51.09	334.94	23.88	-35.5	-36.7	18.1	0.00e+00	0	60	0	419430400	42	3926
2026-01-16 05:24:52.10	334.69	23.96	-35.6	-36.8	18.0	0.00e+00	0	60	0	426770432	42	3968
2026-01-16 05:24:53.11	334.44	24.03	-35.5	-36.7	18.0	0.00e+00	0	60	0	434110464	42	3945
2026-01-16 05:24:54.12	334.19	24.11	-35.5	-36.7	18.0	0.00e+00	0	60	0	441450496	41	4169
2026-01-16 05:24:55.13	333.94	24.19	-35.5	-36.6	18.1	0.00e+00	0	60	0	448790528	41	4143
2026-01-16 05:24:56.14	333.68	24.26	-35.5	-36.6	18.1	0.00e+00	0	60	0	456130560	41	4140
2026-01-16 05:24:57.15	333.43	24.34	-35.6	-36.8	18.0	0.00e+00	0	60	0	462422016	41	4199
2026-01-16 05:24:58.16	333.17	24.41	-35.6	-36.8	17.9	0.00e+00	0	60	0	470810624	41	4238
2026-01-16 05:24:59.16	332.92	24.48	-35.6	-36.8	18.0	0.00e+00	0	60	0	478150656	41	4216
2026-01-16 05:25:00.17	332.66	24.56	-35.6	-36.8	18.0	0.00e+00	0	60	0	484442112	41	4215
2026-01-16 05:25:01.18	332.40	24.63	-35.6	-36.8	18.0	0.00e+00	0	60	0	491782144	41	4206
2026-01-16 05:25:02.19	332.14	24.70	-35.7	-36.9	17.9	0.00e+00	0	60	0	499122176	41	4258
2026-01-16 05:25:03.20	331.88	24.77	-35.7	-36.9	17.9	0.00e+00	0	60	0	506462208	41	4284
2026-01-16 05:25:04.21	331.62	24.85	-35.8	-37.1	17.8	0.00e+00	0	60	0	513802240	41	4345
2026-01-16 05:25:05.22	331.35	24.92	-35.9	-37.1	17.7	0.00e+00	0	60	0	521142272	41	4382
2026-01-16 05:25:06.23	331.09	24.99	-35.9	-37.1	17.7	0.00e+00	0	60	0	528482304	41	4369
2026-01-16 05:25:07.24	330.82	25.06	-35.9	-37.1	17.8	0.00e+00	0	60	0	535822336	41	4358
2026-01-16 05:25:08.25	330.55	25.13	-35.8	-37.0	17.9	0.00e+00	0	60	0	543162368	41	4320
2026-01-16 05:25:09.25	330.29	25.20	-35.7	-36.9	17.9	0.00e+00	0	60	0	550502400	41	4286
2026-01-16 05:25:10.26	330.01	25.27	-35.7	-36.9	18.0	0.00e+00	0	60	0	557842432	41	4243
2026-01-16 05:25:11.27	329.74	25.33	-35.6	-36.8	18.0	0.00e+00	0	60	0	565182464	41	4231
2026-01-16 05:25:12.28	329.47	25.40	-35.5	-36.7	18.1	0.00e+00	0	60	0	572522496	41	4178
2026-01-16 05:25:13.29	329.20	25.47	-35.6	-36.8	18.1	0.00e+00	0	60	0	579862528	41	4215
2026-01-16 05:25:14.31	328.92	25.54	-35.6	-36.8	18.1	0.00e+00	0	60	0	587202560	41	4212
2026-01-16 05:25:15.32	328.64	25.60	-35.6	-36.8	18.1	0.00e+00	0	60	0	594542592	41	4210
2026-01-16 05:25:16.33	328.37	25.67	-35.6	-36.8	18.1	0.00e+00	0	60	0	601882624	41	4195
2026-01-16 05:25:17.34	328.09	25.73	-35.6	-36.8	18.1	0.00e+00	0	60	0	608174080	41	4197
2026-01-16 05:25:18.35	327.81	25.80	-35.6	-36.8	18.1	0.00e+00	0	60	0	615514112	41	4227
2026-01-16 05:25:19.36	327.53	25.86	-35.6	-36.8	18.1	0.00e+00	0	60	0	623902720	41	4206
2026-01-16 05:25:20.37	327.24	25.92	-35.6	-36.8	18.1	0.00e+00	0	60	0	630194176	41	4214
2026-01-16 05:25:21.38	326.96	25.99	-35.7	-36.9	18.0	0.00e+00	0	60	0	637534208	41	4247
2026-01-16 05:25:22.39	326.68	26.05	-35.5	-36.7	18.2	0.00e+00	0	60	0	644874240	41	4163
2026-01-16 05:25:23.40	326.39	26.11	-35.6	-36.7	18.1	0.00e+00	0	60	0	652214272	41	4191
2026-01-16 05:25:24.40	326.11	26.17	-35.5	-36.7	18.2	0.00e+00	0	60	0	659554304	41	4174
2026-01-16 05:25:25.41	325.82	26.23	-35.6	-36.7	18.1	0.00e+00	0	60	0	666894336	41	4193
2026-01-16 05:25:26.42	325.53	26.29	-35.5	-36.7	18.2	0.00e+00	0	60	0	674234368	41	4147
2026-01-16 05:25:27.43	325.24	26.35	-35.4	-36.5	18.4	0.00e+00	0	60	0	681574400	41	4087
2026-01-16 05:25:28.44	324.95	26.40	-35.3	-36.5	18.4	0.00e+00	0	60	0	688914432	41	4071
2026-01-16 05:25:29.45	324.66	26.46	-35.4	-36.6	18.3	0.00e+00	0	60	0	696254464	41	4122
2026-01-16 05:25:30.46	324.37	26.52	-35.5	-36.7	18.2	0.00e+00	0	60	0	703594496	41	4175
2026-01-16 05:25:31.47	324.07	26.57	-35.4	-36.6	18.3	0.00e+00	0	60	0	710934528	41	4113
2026-01-16 05:25:32.48	323.78	26.63	-35.5	-36.7	18.2	0.00e+00	0	60	0	718274560	41	4146
2026-01-16 05:25:33.49	323.48	26.68	-35.6	-36.8	18.1	0.00e+00	0	60	0	725614592	41	4204
2026-01-16 05:25:34.50	323.18	26.74	-35.5	-36.7	18.2	0.00e+00	0	60	0	732954624	41	4175
2026-01-16 05:25:35.51	322.89	26.79	-35.6	-36.8	18.1	0.00e+00	0	60	0	740294656	41	4199
2026-01-16 05:25:36.52	322.59	26.84	-35.6	-36.8	18.1	0.00e+00	0	60	0	747634688	41	4228
2026-01-16 05:25:37.53	322.29	26.89	-35.6	-36.8	18.1	0.00e+00	0	60	0	754974720	41	4201
2026-01-16 05:25:38.54	321.99	26.94	-35.6	-36.8	18.1	0.00e+00	0	60	0	761266176	41	4221
2026-01-16 05:25:39.55	321.68	26.99	-35.7	-36.8	18.1	0.00e+00	0	60	0	768606208	41	4239
2026-01-16 05:25:40.56	321.38	27.04	-35.7	-36.9	18.0	0.00e+00	0	60	0	776994816	41	4258
2026-01-16 05:25:41.56	321.08	27.09	-35.7	-36.9	18.1	0.00e+00	0	61	0	783286272	41	4251
2026-01-16 05:25:42.57	320.77	27.14	-35.6	-36.8	18.1	0.00e+00	0	60	0	790626304	41	4227
2026-01-16 05:25:43.58	320.47	27.18	-35.7	-36.9	18.0	0.00e+00	0	60	0	797966336	41	4276
2026-01-16 05:25:44.59	320.16	27.23	-35.7	-36.9	18.0	0.00e+00	0	60	0	805306368	41	4285
2026-01-16 05:25:45.60	319.85	27.27	-35.8	-37.0	17.9	0.00e+00	0	60	0	812646400	41	4305
2026-01-16 05:25:46.61	319.55	27.32	-35.6	-36.8	18.0	0.00e+00	0	60	0	819986432	41	4242
2026-01-16 05:25:47.62	319.24	27.36	-35.6	-36.8	18.1	0.00e+00	0	60	0	827326464	41	4230
2026-01-16 05:25:48.63	318.93	27.40	-35.7	-36.9	18.0	0.00e+00	0	60	0	834666496	41	4244
2026-01-16 05:25:49.65	318.61	27.45	-35.5	-36.7	18.2	0.00e+00	0	60	0	842006528	41	4181
2026-01-16 05:25:50.65	318.30	27.49	-35.5	-36.7	18.2	0.00e+00	0	60	0	849346560	41	4174
2026-01-16 05:25:51.66	317.99	27.53	-35.6	-36.7	18.2	0.00e+00	0	60	0	856686592	41	4186
2026-01-16 05:25:52.67	317.68	27.56	-35.7	-36.9	18.1	0.00e+00	0	60	0	864026624	41	4244
2026-01-16 05:25:53.68	317.36	27.60	-35.7	-36.9	18.0	0.00e+00	0	60	0	871366656	41	4269
2026-01-16 05:25:54.69	317.05	27.64	-35.7	-36.9	18.0	0.00e+00	0	60	0	878706688	41	4271
2026-01-16 05:25:55.70	316.73	27.68	-35.7	-36.9	18.0	0.00e+00	0	60	0	884998144	41	4275
2026-01-16 05:25:56.71	316.42	27.71	-35.7	-36.9	18.0	0.00e+00	0	61	0	893386752	41	4279
2026-01-16 05:25:57.72	316.10	27.75	-35.8	-37.0	17.9	0.00e+00	0	60	0	900726784	41	4306
2026-01-16 05:25:58.73	315.78	27.78	-35.8	-37.0	17.9	0.00e+00	0	60	0	907018240	41	4332
2026-01-16 05:25:59.74	315.46	27.81	-35.8	-37.0	17.9	0.00e+00	0	60	0	914358272	41	4318
2026-01-16 05:26:00.75	315.15	27.84	-35.8	-37.0	17.9	0.00e+00	0	60	0	921698304	41	4319
2026-01-16 05:26:01.76	314.83	27.87	-35.8	-37.0	17.9	0.00e+00	0	60	0	929038336	41	4296
2026-01-16 05:26:02.77	314.51	27.90	-35.8	-37.0	17.9	0.00e+00	0	60	0	936378368	41	4317
2026-01-16 05:26:03.78	314.18	27.93	-35.9	-37.1	17.8	0.00e+00	0	60	0	943718400	41	4374
2026-01-16 05:26:04.79	313.86	27.96	-35.6	-36.8	18.1	0.00e+00	0	60	0	951058432	41	4195
2026-01-16 05:26:05.80	313.54	27.99	-35.6	-36.7	18.2	0.00e+00	0	60	0	958398464	41	4185
2026-01-16 05:26:06.81	313.22	28.01	-35.6	-36.8	18.2	0.00e+00	0	60	0	965738496	41	4199
2026-01-16 05:26:07.82	312.90	28.04	-35.4	-36.6	18.3	0.00e+00	0	60	0	973078528	41	4131
2026-01-16 05:26:08.83	312.57	28.06	-35.4	-36.5	18.3	0.00e+00	0	60	0	980418560	41	4090
2026-01-16 05:26:09.84	312.25	28.08	-35.4	-36.5	18.4	0.00e+00	0	60	0	987758592	41	4095
2026-01-16 05:26:10.85	311.92	28.10	-35.4	-36.6	18.3	0.00e+00	0	60	0	995098624	41	4127
2026-01-16 05:26:11.86	311.60	28.12	-35.5	-36.6	18.3	0.00e+00	0	60	0	1002438656	41	4134
2026-01-16 05:26:12.87	311.27	28.14	-35.3	-36.5	18.4	0.00e+00	0	60	0	1009778688	41	4070
2026-01-16 05:26:13.88	310.95	28.16	-35.3	-36.4	18.5	0.00e+00	0	61	0	1017118720	41	4026
2026-01-16 05:26:14.89	310.62	28.18	-35.2	-36.4	18.5	0.00e+00	0	60	0	1024458752	41	4013
2026-01-16 05:26:15.90	310.29	28.20	-35.3	-36.5	18.4	0.00e+00	0	60	0	1031798784	41	4068
2026-01-16 05:26:16.91	309.97	28.21	-35.4	-36.6	18.3	0.00e+00	0	60	0	1039138816	41	4118
2026-01-16 05:26:17.92	309.64	28.23	-35.4	-36.6	18.3	0.00e+00	0	60	0	1046478848	41	4122
2026-01-16 05:26:18.93	309.31	28.24	-35.6	-36.7	18.2	0.00e+00	0	60	0	1053818880	41	4191
2026-01-16 05:26:19.94	308.99	28.25	-35.7	-36.9	18.1	0.00e+00	0	60	0	1060110336	41	4250
2026-01-16 05:26:20.95	308.66	28.26	-35.7	-36.9	18.0	0.00e+00	0	60	0	1067450368	41	4289
2026-01-16 05:26:21.96	308.33	28.28	-35.6	-36.8	18.2	0.00e+00	0	61	0	1075838976	41	4196
2026-01-16 05:26:22.97	308.00	28.28	-35.6	-36.8	18.1	0.00e+00	0	60	0	1082130432	41	4219
2026-01-16 05:26:23.98	307.67	28.29	-35.6	-36.7	18.2	0.00e+00	0	60	0	1089470464	41	4186
2026-01-16 05:26:24.99	307.34	28.30	-35.5	-36.6	18.3	0.00e+00	0	60	0	1096810496	41	4145
2026-01-16 05:26:26.00	307.01	28.31	-35.5	-36.6	18.3	0.00e+00	0	60	0	1104150528	41	4140
2026-01-16 05:26:27.01	306.69	28.31	-35.5	-36.7	18.2	0.00e+00	0	61	0	1111490560	41	4157
2026-01-16 05:26:28.02	306.36	28.32	-35.5	-36.7	18.2	0.00e+00	0	60	0	1118830592	41	4151
2026-01-16 05:26:29.03	306.03	28.32	-35.6	-36.8	18.1	0.00e+00	0	60	0	1126170624	41	4202
2026-01-16 05:26:30.04	305.70	28.32	-35.5	-36.7	18.2	0.00e+00	0	60	0	1133510656	41	4182
2026-01-16 05:26:31.04	305.37	28.32	-35.5	-36.6	18.3	0.00e+00	0	60	0	1140850688	41	4137
2026-01-16 05:26:32.05	305.04	28.32	-35.5	-36.6	18.3	0.00e+00	0	60	0	1148190720	41	4127
2026-01-16 05:26:33.06	304.71	28.32	-35.4	-36.6	18.3	0.00e+00	0	60	0	1155530752	41	4118
2026-01-16 05:26:34.07	304.38	28.32	-35.4	-36.5	18.4	0.00e+00	0	60	0	1162870784	41	4082
2026-01-16 05:26:35.08	304.05	28.32	-35.3	-36.4	18.5	0.00e+00	0	61	0	1170210816	41	4045
2026-01-16 05:26:36.10	303.72	28.31	-35.2	-36.4	18.5	0.00e+00	0	60	0	1177550848	41	4018
2026-01-16 05:26:37.11	303.39	28.31	-35.2	-36.4	18.5	0.00e+00	0	60	0	1184890880	41	4009
2026-01-16 05:26:38.12	303.06	28.30	-35.3	-36.4	18.5	0.00e+00	0	61	0	1192230912	41	4030
2026-01-16 05:26:39.13	302.73	28.29	-35.3	-36.4	18.5	0.00e+00	0	60	0	1199570944	41	4026
2026-01-16 05:26:40.14	302.41	28.28	-35.3	-36.5	18.4	0.00e+00	0	61	0	1206910976	41	4067
2026-01-16 05:26:41.15	302.08	28.27	-35.4	-36.5	18.4	0.00e+00	0	61	0	1213202432	41	4086
2026-01-16 05:26:42.16	301.75	28.26	-35.4	-36.6	18.3	0.00e+00	0	60	0	1221591040	41	4115
2026-01-16 05:26:43.16	301.42	28.25	-35.4	-36.6	18.3	0.00e+00	0	60	0	1228931072	41	4119
2026-01-16 05:26:44.18	301.09	28.24	-35.4	-36.6	18.3	0.00e+00	0	60	0	1235222528	41	4122
2026-01-16 05:26:45.19	300.77	28.23	-35.4	-36.5	18.4	0.00e+00	0	61	0	1242562560	41	4085
2026-01-16 05:26:46.20	300.44	28.21	-35.4	-36.6	18.4	0.00e+00	0	60	0	1249902592	41	4099
2026-01-16 05:26:47.20	300.11	28.20	-35.4	-36.6	18.3	0.00e+00	0	61	0	1257242624	41	4119
2026-01-16 05:26:48.22	299.78	28.18	-35.4	-36.6	18.3	0.00e+00	0	60	0	1264582656	41	4124
2026-01-16 05:26:49.23	299.46	28.16	-35.5	-36.7	18.3	0.00e+00	0	60	0	1271922688	41	4156
2026-01-16 05:26:50.24	299.13	28.14	-35.5	-36.7	18.2	0.00e+00	0	61	0	1279262720	41	4176
2026-01-16 05:26:51.25	298.81	28.12	-35.5	-36.7	18.2	0.00e+00	0	60	0	1286602752	41	4156
2026-01-16 05:26:52.26	298.48	28.10	-35.4	-36.6	18.3	0.00e+00	0	61	0	1293942784	41	4117
2026-01-16 05:26:53.27	298.16	28.08	-35.3	-36.4	18.5	0.00e+00	0	60	0	1301282816	41	4041
2026-01-16 05:26:54.28	297.83	28.06	-35.3	-36.4	18.5	0.00e+00	0	61	0	1308622848	41	4039
2026-01-16 05:26:55.29	297.51	28.03	-35.2	-36.3	18.6	0.00e+00	0	60	0	1315962880	41	3993
2026-01-16 05:26:56.30	297.18	28.01	-35.3	-36.5	18.4	0.00e+00	0	60	0	1323302912	41	4075
2026-01-16 05:26:57.31	296.86	27.98	-35.4	-36.6	18.3	0.00e+00	0	61	0	1330642944	41	4127
2026-01-16 05:26:58.32	296.54	27.96	-35.3	-36.5	18.4	0.00e+00	0	60	0	1337982976	41	4076
2026-01-16 05:26:59.32	296.22	27.93	-35.4	-36.6	18.3	0.00e+00	0	60	0	1345323008	41	4121
2026-01-16 05:27:00.33	295.90	27.90	-35.3	-36.5	18.5	0.00e+00	0	61	0	1352663040	41	4058
2026-01-16 05:27:01.34	295.58	27.87	-35.4	-36.6	18.4	0.00e+00	0	60	0	1358954496	41	4101
2026-01-16 05:27:02.35	295.26	27.84	-35.3	-36.5	18.4	0.00e+00	0	61	0	1366294528	41	4075
2026-01-16 05:27:03.36	294.94	27.81	-35.4	-36.5	18.4	0.00e+00	0	60	0	1374683136	41	4089
2026-01-16 05:27:04.37	294.62	27.78	-35.3	-36.5	18.5	0.00e+00	0	61	0	1380974592	41	4054
2026-01-16 05:27:05.38	294.30	27.74	-35.3	-36.4	18.5	0.00e+00	0	61	0	1388314624	41	4035
2026-01-16 05:27:06.39	293.98	27.71	-35.3	-36.5	18.4	0.00e+00	0	61	0	1395654656	41	4062
2026-01-16 05:27:07.40	293.67	27.67	-35.4	-36.6	18.4	0.00e+00	0	61	0	1402994688	41	4102
2026-01-16 05:27:08.41	293.35	27.64	-35.5	-36.6	18.3	0.00e+00	0	61	0	1410334720	41	4140
2026-01-16 05:27:09.42	293.04	27.60	-35.4	-36.6	18.3	0.00e+00	0	61	0	1417674752	41	4118
2026-01-16 05:27:10.43	292.72	27.56	-35.4	-36.6	18.3	0.00e+00	0	60	0	1425014784	41	4123
2026-01-16 05:27:11.43	292.41	27.52	-35.3	-36.5	18.4	0.00e+00	0	61	0	1432354816	41	4055
2026-01-16 05:27:12.44	292.10	27.48	-35.2	-36.4	18.6	0.00e+00	0	61	0	1439694848	41	4016
2026-01-16 05:27:13.45	291.79	27.44	-35.2	-36.4	18.6	0.00e+00	0	60	0	1447034880	41	4015
2026-01-16 05:27:14.46	291.47	27.40	-35.3	-36.4	18.5	0.00e+00	0	60	0	1454374912	41	4030
2026-01-16 05:27:15.47	291.16	27.36	-35.3	-36.5	18.4	0.00e+00	0	61	0	1461714944	41	4064
2026-01-16 05:27:16.48	290.85	27.31	-35.3	-36.4	18.5	0.00e+00	0	60	0	1469054976	41	4043
2026-01-16 05:27:17.49	290.54	27.27	-35.3	-36.5	18.4	0.00e+00	0	61	0	1476395008	41	4063
2026-01-16 05:27:18.50	290.24	27.22	-35.3	-36.4	18.5	0.00e+00	0	61	0	1483735040	41	4041
2026-01-16 05:27:19.51	289.93	27.18	-35.3	-36.4	18.5	0.00e+00	0	61	0	1491075072	41	4028
2026-01-16 05:27:20.52	289.62	27.13	-35.3	-36.5	18.4	0.00e+00	0	60	0	1498415104	41	4069
2026-01-16 05:27:21.53	289.32	27.08	-35.4	-36.6	18.3	0.00e+00	0	61	0	1505755136	41	4125
2026-01-16 05:27:22.54	289.01	27.04	-35.4	-36.6	18.4	0.00e+00	0	61	0	1512046592	41	4111
2026-01-16 05:27:23.55	288.71	26.99	-35.4	-36.6	18.3	0.00e+00	0	61	0	1519386624	41	4131
2026-01-16 05:27:24.56	288.41	26.94	-35.5	-36.6	18.3	0.00e+00	0	61	0	1527775232	41	4144
2026-01-16 05:27:25.57	288.10	26.89	-35.4	-36.5	18.4	0.00e+00	0	60	0	1534066688	41	4092
2026-01-16 05:27:26.58	287.80	26.83	-35.4	-36.5	18.4	0.00e+00	0	60	0	1541406720	41	4088
2026-01-16 05:27:27.59	287.50	26.78	-35.3	-36.4	18.5	0.00e+00	0	60	0	1548746752	41	4040
2026-01-16 05:27:28.60	287.20	26.73	-35.4	-36.6	18.3	0.00e+00	0	60	0	1556086784	41	4101
2026-01-16 05:27:29.60	286.91	26.68	-35.4	-36.5	18.4	0.00e+00	0	61	0	1563426816	41	4098
2026-01-16 05:27:30.61	286.61	26.62	-35.5	-36.6	18.3	0.00e+00	0	61	0	1570766848	41	4137
2026-01-16 05:27:31.62	286.32	26.57	-35.6	-36.8	18.1	0.00e+00	0	61	0	1578106880	41	4214
2026-01-16 05:27:32.63	286.02	26.51	-35.6	-36.7	18.2	0.00e+00	0	61	0	1585446912	41	4187
2026-01-16 05:27:33.64	285.73	26.45	-35.6	-36.8	18.1	0.00e+00	0	61	0	1592786944	41	4210
2026-01-16 05:27:34.65	285.44	26.40	-35.5	-36.7	18.2	0.00e+00	0	60	0	1600126976	41	4181
2026-01-16 05:27:35.66	285.14	26.34	-35.5	-36.6	18.2	0.00e+00	0	61	0	1607467008	41	4140
2026-01-16 05:27:36.67	284.85	26.28	-35.4	-36.6	18.3	0.00e+00	0	61	0	1614807040	41	4126
2026-01-16 05:27:37.68	284.56	26.22	-35.5	-36.7	18.2	0.00e+00	0	61	0	1622147072	41	4151
2026-01-16 05:27:38.69	284.28	26.16	-35.5	-36.7	18.2	0.00e+00	0	61	0	1629487104	41	4147
2026-01-16 05:27:39.70	283.99	26.10	-35.4	-36.6	18.3	0.00e+00	0	61	0	1635778560	41	4121
2026-01-16 05:27:40.71	283.70	26.04	-35.5	-36.7	18.2	0.00e+00	0	61	0	1644167168	41	4168
2026-01-16 05:27:41.72	283.42	25.97	-35.7	-36.9	18.0	0.00e+00	0	61	0	1651507200	41	4263
2026-01-16 05:27:42.73	283.13	25.91	-35.7	-36.9	18.0	0.00e+00	0	61	0	1657798656	41	4284
2026-01-16 05:27:43.74	282.85	25.85	-35.8	-37.0	17.9	0.00e+00	0	61	0	1665138688	41	4302
2026-01-16 05:27:44.75	282.57	25.78	-35.8	-37.0	17.9	0.00e+00	0	61	0	1672478720	41	4332
2026-01-16 05:27:45.76	282.29	25.72	-35.7	-36.9	18.0	0.00e+00	0	61	0	1679818752	41	4280
2026-01-16 05:27:46.77	282.01	25.65	-35.6	-36.8	18.1	0.00e+00	0	61	0	1687158784	41	4206
2026-01-16 05:27:47.78	281.73	25.59	-35.6	-36.8	18.1	0.00e+00	0	61	0	1694498816	41	4203
2026-01-16 05:27:48.79	281.45	25.52	-35.6	-36.8	18.0	0.00e+00	0	60	0	1701838848	41	4222
2026-01-16 05:27:49.80	281.18	25.46	-35.7	-36.9	18.0	0.00e+00	0	61	0	1709178880	41	4244
2026-01-16 05:27:50.81	280.90	25.39	-35.6	-36.8	18.1	0.00e+00	0	61	0	1716518912	41	4196
2026-01-16 05:27:51.82	280.63	25.32	-35.5	-36.7	18.2	0.00e+00	0	60	0	1723858944	41	4146
2026-01-16 05:27:52.83	280.36	25.25	-35.5	-36.6	18.2	0.00e+00	0	61	0	1731198976	41	4142
2026-01-16 05:27:53.84	280.09	25.18	-35.3	-36.5	18.4	0.00e+00	0	61	0	1738539008	41	4059
2026-01-16 05:27:54.85	279.82	25.11	-35.3	-36.5	18.4	0.00e+00	0	61	0	1745879040	41	4066
2026-01-16 05:27:55.85	279.55	25.04	-35.4	-36.6	18.2	0.00e+00	0	61	0	1753219072	41	4125
2026-01-16 05:27:56.86	279.28	24.97	-35.2	-36.4	18.5	0.00e+00	0	61	0	1760559104	41	4025
2026-01-16 05:27:57.87	279.02	24.90	-35.3	-36.4	18.4	0.00e+00	0	61	0	1767899136	41	4045
2026-01-16 05:27:58.89	278.75	24.83	-35.3	-36.5	18.4	0.00e+00	0	61	0	1775239168	41	4071
2026-01-16 05:27:59.89	278.49	24.76	-35.4	-36.6	18.3	0.00e+00	0	61	0	1782579200	41	4114
2026-01-16 05:28:00.90	278.22	24.69	-35.5	-36.7	18.2	0.00e+00	0	61	0	1788870656	41	4159
2026-01-16 05:28:01.91	277.96	24.61	-35.6	-36.8	18.1	0.00e+00	0	61	0	1797259264	41	4225
2026-01-16 05:28:02.92	277.70	24.54	-35.6	-36.8	18.1	0.00e+00	0	61	0	1804599296	41	4208
2026-01-16 05:28:03.93	277.44	24.47	-35.6	-36.8	18.1	0.00e+00	0	61	0	1810890752	41	4208
2026-01-16 05:28:04.94	277.19	24.39	-35.6	-36.8	18.0	0.00e+00	0	61	0	1818230784	41	4221
2026-01-16 05:28:05.95	276.93	24.32	-35.6	-36.8	18.1	0.00e+00	0	61	0	1825570816	41	4206
2026-01-16 05:28:06.96	276.67	24.24	-35.6	-36.8	18.0	0.00e+00	0	61	0	1832910848	41	4212
2026-01-16 05:28:07.97	276.42	24.17	-35.6	-36.8	18.0	0.00e+00	0	61	0	1840250880	41	4242
2026-01-16 05:28:08.98	276.17	24.09	-35.7	-36.9	17.9	0.00e+00	0	61	0	1847590912	41	4263
2026-01-16 05:28:09.99	275.91	24.02	-35.6	-36.8	18.1	0.00e+00	0	61	0	1854930944	41	4196
2026-01-16 05:28:11.00	275.66	23.94	-35.5	-36.7	18.1	0.00e+00	0	61	0	1862270976	41	4187
2026-01-16 05:28:12.01	275.41	23.86	-35.6	-36.8	18.1	0.00e+00	0	61	0	1869611008	41	4202
2026-01-16 05:28:13.02	275.17	23.78	-35.4	-36.6	18.2	0.00e+00	0	61	0	1876951040	41	4134
2026-01-16 05:28:14.03	274.92	23.71	-35.4	-36.5	18.3	0.00e+00	0	61	0	1884291072	41	4083
2026-01-16 05:28:15.04	274.67	23.63	-35.5	-36.7	18.2	0.00e+00	0	61	0	1891631104	41	4159
2026-01-16 05:28:16.05	274.43	23.55	-35.6	-36.8	18.1	0.00e+00	0	61	0	1898971136	41	4204
2026-01-16 05:28:17.06	274.19	23.47	-35.6	-36.8	18.0	0.00e+00	0	61	0	1906311168	41	4238
2026-01-16 05:28:18.07	273.94	23.39	-35.7	-37.0	17.9	0.00e+00	0	61	0	1913651200	41	4294
2026-01-16 05:28:19.08	273.70	23.31	-35.7	-37.0	17.9	0.00e+00	0	61	0	1920991232	41	4302
2026-01-16 05:28:20.09	273.46	23.23	-35.6	-36.8	18.0	0.00e+00	0	61	0	1928331264	41	4231
2026-01-16 05:28:21.10	273.23	23.15	-35.6	-36.8	18.1	0.00e+00	0	61	0	1934622720	41	4204
2026-01-16 05:28:22.11	272.99	23.07	-35.6	-36.8	18.0	0.00e+00	0	61	0	1943011328	41	4223
2026-01-16 05:28:23.12	272.75	22.99	-35.7	-36.9	17.9	0.00e+00	0	61	0	1950351360	41	4282
2026-01-16 05:28:24.13	272.52	22.91	-35.8	-37.1	17.8	0.00e+00	0	61	0	1956642816	41	4346
2026-01-16 05:28:25.14	272.28	22.83	-35.8	-37.0	17.8	0.00e+00	0	61	0	1963982848	41	4325
2026-01-16 05:28:26.15	272.05	22.75	-35.7	-36.9	17.9	0.00e+00	0	61	0	1971322880	41	4291
2026-01-16 05:28:27.16	271.82	22.67	-35.6	-36.8	18.0	0.00e+00	0	61	0	1978662912	41	4213
2026-01-16 05:28:28.17	271.59	22.59	-35.6	-36.8	18.0	0.00e+00	0	61	0	1986002944	41	4236
2026-01-16 05:28:29.18	271.36	22.51	-35.6	-36.8	18.0	0.00e+00	0	61	0	1993342976	41	4224
2026-01-16 05:28:30.19	271.14	22.42	-35.7	-36.9	17.9	0.00e+00	0	61	0	2000683008	41	4251
2026-01-16 05:28:31.20	270.91	22.34	-35.7	-36.9	17.9	0.00e+00	0	61	0	2008023040	41	4264
2026-01-16 05:28:32.21	270.68	22.26	-35.7	-36.9	17.9	0.00e+00	0	61	0	2015363072	41	4251
2026-01-16 05:28:33.22	270.46	22.18	-35.7	-36.9	17.9	0.00e+00	0	61	0	2022703104	41	4288
2026-01-16 05:28:34.23	270.24	22.09	-35.8	-37.1	17.7	0.00e+00	0	61	0	2030043136	41	4356
2026-01-16 05:28:35.24	270.02	22.01	-36.0	-37.2	17.6	0.00e+00	0	61	0	2037383168	41	4420
2026-01-16 05:28:36.24	269.80	21.93	-36.0	-37.2	17.6	0.00e+00	0	61	0	2044723200	41	4437
2026-01-16 05:28:37.25	269.58	21.84	-36.0	-37.2	17.6	0.00e+00	0	61	0	2052063232	41	4441
2026-01-16 05:28:38.26	269.36	21.76	-36.0	-37.3	17.5	0.00e+00	0	61	0	2059403264	41	4449
2026-01-16 05:28:39.27	269.15	21.68	-35.9	-37.1	17.7	0.00e+00	0	61	0	2066743296	41	4360
2026-01-16 05:28:40.28	268.93	21.59	-35.8	-37.0	17.8	0.00e+00	0	61	0	2074083328	41	4323
2026-01-16 05:28:41.29	268.72	21.51	-35.7	-36.9	17.8	0.00e+00	0	61	0	2081423360	41	4291
2026-01-16 05:28:42.30	268.50	21.42	-35.7	-36.9	17.9	0.00e+00	0	61	0	2087714816	41	4281
2026-01-16 05:28:43.31	268.29	21.34	-35.7	-36.9	17.9	0.00e+00	0	61	0	2096103424	41	4275
2026-01-16 05:28:44.32	268.08	21.26	-35.8	-37.1	17.7	0.00e+00	0	61	0	2103443456	41	4346
2026-01-16 05:28:45.33	267.87	21.17	-35.8	-37.1	17.7	0.00e+00	0	61	0	2109734912	41	4346
2026-01-16 05:28:46.34	267.66	21.09	-35.8	-37.1	17.7	0.00e+00	0	61	0	2117074944	41	4344
2026-01-16 05:28:47.35	267.45	21.00	-35.9	-37.1	17.7	0.00e+00	0	61	0	2124414976	41	4365
2026-01-16 05:28:48.36	267.25	20.92	-35.9	-37.1	17.7	0.00e+00	0	61	0	2131755008	41	4378
2026-01-16 05:28:49.37	267.04	20.83	-35.9	-37.2	17.6	0.00e+00	0	61	0	2139095040	41	4404
2026-01-16 05:28:50.38	266.84	20.75	-35.9	-37.2	17.6	0.00e+00	0	61	0	2146435072	41	4400
2026-01-16 05:28:51.39	266.64	20.66	-36.0	-37.2	17.5	0.00e+00	0	61	0	2153775104	41	4441
2026-01-16 05:28:52.40	266.44	20.58	-36.0	-37.3	17.5	0.00e+00	0	61	0	2161115136	41	4456
2026-01-16 05:28:53.40	266.24	20.49	-36.0	-37.3	17.5	0.00e+00	0	61	0	2168455168	41	4460
2026-01-16 05:28:54.41	266.04	20.41	-36.2	-37.4	17.3	0.00e+00	0	61	0	2175795200	41	4543
2026-01-16 05:28:55.42	265.84	20.32	-36.2	-37.5	17.2	0.00e+00	0	61	0	2183135232	42	4330
2026-01-16 05:28:56.43	265.64	20.23	-36.3	-37.5	17.2	0.00e+00	0	61	0	2190475264	42	4337
2026-01-16 05:28:57.44	265.45	20.15	-36.3	-37.6	17.2	0.00e+00	0	61	0	2197815296	42	4369
2026-01-16 05:28:58.45	265.25	20.06	-36.1	-37.4	17.4	0.00e+00	0	61	0	2205155328	42	4265
2026-01-16 05:28:59.46	265.06	19.98	-36.0	-37.3	17.5	0.00e+00	0	61	0	2212495360	42	4197
2026-01-16 05:29:00.47	264.86	19.89	-36.0	-37.2	17.5	0.00e+00	0	61	0	2219835392	42	4166
2026-01-16 05:29:01.48	264.67	19.80	-35.9	-37.2	17.6	0.00e+00	0	61	0	2227175424	42	4161
2026-01-16 05:29:02.49	264.48	19.72	-35.9	-37.2	17.6	0.00e+00	0	61	0	2233466880	42	4157
2026-01-16 05:29:03.50	264.29	19.63	-36.0	-37.3	17.5	0.00e+00	0	61	0	2240806912	42	4207
2026-01-16 05:29:04.51	264.10	19.55	-36.2	-37.5	17.3	0.00e+00	0	61	0	2249195520	42	4296
2026-01-16 05:29:05.52	263.92	19.46	-36.2	-37.5	17.2	0.00e+00	0	61	0	2255486976	42	4336
2026-01-16 05:29:06.53	263.73	19.37	-36.3	-37.6	17.0	0.00e+00	0	61	0	2262827008	42	4389
2026-01-16 05:29:07.54	263.55	19.29	-36.4	-37.8	17.0	0.00e+00	0	61	0	2270167040	42	4447
2026-01-16 05:29:08.55	263.36	19.20	-36.5	-37.9	16.9	0.00e+00	0	61	0	2277507072	42	4504
2026-01-16 05:29:09.56	263.18	19.12	-36.5	-37.8	16.9	0.00e+00	0	61	0	2284847104	42	4488
2026-01-16 05:29:10.57	263.00	19.03	-36.5	-37.8	16.9	0.00e+00	0	61	0	2292187136	42	4490
2026-01-16 05:29:11.58	262.81	18.94	-36.6	-37.9	16.9	0.00e+00	0	61	0	2299527168	42	4525
2026-01-16 05:29:12.58	262.64	18.86	-36.6	-38.0	16.8	0.00e+00	0	61	0	2306867200	42	4579
2026-01-16 05:29:13.59	262.46	18.77	-36.7	-38.0	16.7	0.00e+00	0	61	0	2314207232	42	4580
2026-01-16 05:29:14.60	262.28	18.69	-36.5	-37.9	16.9	0.00e+00	0	61	0	2321547264	42	4511
2026-01-16 05:29:15.61	262.10	18.60	-36.5	-37.9	16.8	0.00e+00	0	61	0	2328887296	42	4518
2026-01-16 05:29:16.62	261.93	18.51	-36.5	-37.8	16.9	0.00e+00	0	61	0	2336227328	42	4470
2026-01-16 05:29:17.63	261.75	18.43	-36.5	-37.8	16.9	0.00e+00	0	61	0	2343567360	42	4459
2026-01-16 05:29:18.64	261.58	18.34	-36.5	-37.8	16.9	0.00e+00	0	61	0	2350907392	42	4490
2026-01-16 05:29:19.65	261.40	18.26	-36.4	-37.8	16.9	0.00e+00	0	61	0	2358247424	42	4454
2026-01-16 05:29:20.66	261.23	18.17	-36.4	-37.7	17.0	0.00e+00	0	61	0	2365587456	42	4419
2026-01-16 05:29:21.67	261.06	18.08	-36.4	-37.7	17.0	0.00e+00	0	61	0	2372927488	42	4437
2026-01-16 05:29:22.68	260.89	18.00	-36.4	-37.8	17.0	0.00e+00	0	61	0	2380267520	42	4443
2026-01-16 05:29:23.69	260.72	17.91	-36.5	-37.9	16.9	0.00e+00	0	61	0	2386558976	42	4495
2026-01-16 05:29:24.70	260.55	17.83	-36.6	-37.9	16.8	0.00e+00	0	61	0	2393899008	42	4538
2026-01-16 05:29:25.71	260.39	17.74	-36.5	-37.9	16.8	0.00e+00	0	61	0	2402287616	42	4502
2026-01-16 05:29:26.72	260.22	17.66	-36.5	-37.9	16.8	0.00e+00	0	61	0	2408579072	42	4502
2026-01-16 05:29:27.73	260.06	17.57	-36.6	-38.0	16.7	0.00e+00	0	61	0	2415919104	42	4549
2026-01-16 05:29:28.74	259.89	17.48	-36.7	-38.1	16.6	0.00e+00	0	61	0	2423259136	42	4605
2026-01-16 05:29:29.75	259.73	17.40	-36.7	-38.1	16.6	0.00e+00	0	61	0	2430599168	43	4364
2026-01-16 05:29:30.76	259.57	17.31	-36.8	-38.1	16.5	0.00e+00	0	61	0	2437939200	43	4390
2026-01-16 05:29:31.77	259.40	17.23	-36.7	-38.1	16.6	0.00e+00	0	61	0	2445279232	43	4346
2026-01-16 05:29:32.78	259.24	17.14	-36.8	-38.2	16.5	0.00e+00	0	61	0	2452619264	43	4399
2026-01-16 05:29:33.79	259.08	17.06	-36.9	-38.3	16.4	0.00e+00	0	61	0	2459959296	43	4452
2026-01-16 05:29:34.80	258.92	16.97	-36.9	-38.3	16.4	0.00e+00	0	61	0	2467299328	43	4467
2026-01-16 05:29:35.81	258.77	16.89	-36.9	-38.3	16.3	0.00e+00	0	61	0	2474639360	43	4493
2026-01-16 05:29:36.82	258.61	16.80	-37.0	-38.4	16.3	0.00e+00	0	61	0	2481979392	43	4511
2026-01-16 05:29:37.83	258.45	16.72	-37.0	-38.4	16.2	0.00e+00	0	61	0	2489319424	43	4539
2026-01-16 05:29:38.84	258.30	16.63	-37.0	-38.5	16.2	0.00e+00	0	61	0	2496659456	43	4554
2026-01-16 05:29:39.85	258.14	16.55	-37.1	-38.5	16.1	0.00e+00	0	61	0	2503999488	43	4596
2026-01-16 05:29:40.86	257.99	16.46	-37.1	-38.6	16.1	0.00e+00	0	61	0	2511339520	43	4599
2026-01-16 05:29:41.87	257.84	16.38	-37.1	-38.5	16.1	0.00e+00	0	61	0	2518679552	43	4592
2026-01-16 05:29:42.88	257.69	16.29	-37.4	-38.9	15.9	0.00e+00	0	61	0	2526019584	44	4511
2026-01-16 05:29:43.89	257.54	16.21	-37.4	-38.9	15.9	0.00e+00	0	61	0	2532311040	44	4541
2026-01-16 05:29:44.90	257.39	16.12	-37.4	-38.9	15.9	0.00e+00	0	61	0	2539651072	44	4502
2026-01-16 05:29:45.91	257.24	16.04	-37.4	-38.9	15.9	0.00e+00	0	61	0	2548039680	44	4522
2026-01-16 05:29:46.92	257.09	15.96	-37.5	-38.9	15.8	0.00e+00	0	61	0	2554331136	44	4544
2026-01-16 05:29:47.93	256.94	15.87	-37.5	-39.0	15.7	0.00e+00	0	61	0	2561671168	44	4593
2026-01-16 05:29:48.94	256.79	15.79	-37.6	-39.1	15.7	0.00e+00	0	61	0	2569011200	44	4608
2026-01-16 05:29:49.94	256.65	15.70	-37.6	-39.1	15.6	0.00e+00	0	61	0	2576351232	44	4649
2026-01-16 05:29:50.95	256.51	15.62	-37.6	-39.2	15.6	0.00e+00	0	61	0	2583691264	44	4657
2026-01-16 05:29:51.96	256.36	15.54	-37.6	-39.2	15.6	0.00e+00	0	61	0	2591031296	44	4660
2026-01-16 05:29:52.97	256.22	15.45	-37.7	-39.3	15.5	0.00e+00	0	61	0	2598371328	45	4455
2026-01-16 05:29:53.98	256.08	15.37	-37.7	-39.2	15.5	0.00e+00	0	61	0	2605711360	45	4436
2026-01-16 05:29:54.99	255.93	15.29	-37.7	-39.2	15.5	0.00e+00	0	61	0	2613051392	45	4430
2026-01-16 05:29:56.00	255.79	15.20	-37.6	-39.2	15.6	0.00e+00	0	61	0	2620391424	45	4403
2026-01-16 05:29:57.01	255.65	15.12	-37.7	-39.3	15.5	0.00e+00	0	61	0	2627731456	45	4450
2026-01-16 05:29:58.02	255.51	15.04	-37.7	-39.2	15.5	0.00e+00	0	61	0	2635071488	45	4407
2026-01-16 05:29:59.03	255.37	14.95	-37.5	-39.0	15.7	0.00e+00	0	61	0	2642411520	45	4313
2026-01-16 05:30:00.04	255.24	14.87	-37.4	-38.9	15.8	0.00e+00	0	61	0	2649751552	45	4280
2026-01-16 05:30:01.05	255.10	14.79	-37.4	-38.9	15.8	0.00e+00	0	61	0	2657091584	45	4279
2026-01-16 05:30:02.05	254.97	14.71	-37.6	-39.1	15.6	0.00e+00	0	61	0	2664431616	45	4359
2026-01-16 05:30:03.06	254.83	14.62	-37.6	-39.2	15.6	0.00e+00	0	61	0	2671771648	45	4395
2026-01-16 05:30:04.08	254.69	14.54	-37.8	-39.4	15.4	0.00e+00	0	61	0	2679111680	45	4496
2026-01-16 05:30:05.09	254.56	14.46	-37.7	-39.2	15.5	0.00e+00	0	61	0	2685403136	45	4414
2026-01-16 05:30:06.10	254.43	14.38	-37.7	-39.3	15.4	0.00e+00	0	61	0	2692743168	45	4455
2026-01-16 05:30:07.11	254.29	14.29	-37.8	-39.3	15.3	0.00e+00	0	61	0	2701131776	45	4492
2026-01-16 05:30:08.12	254.16	14.21	-37.8	-39.4	15.3	0.00e+00	0	61	0	2707423232	45	4530
2026-01-16 05:30:09.13	254.03	14.13	-37.8	-39.4	15.3	0.00e+00	0	61	0	2714763264	45	4530
2026-01-16 05:30:10.13	253.90	14.05	-37.8	-39.4	15.2	0.00e+00	0	61	0	2722103296	45	4538
2026-01-16 05:30:11.14	253.77	13.97	-37.7	-39.2	15.4	0.00e+00	0	61	0	2729443328	45	4437
2026-01-16 05:30:12.15	253.64	13.89	-37.6	-39.2	15.5	0.00e+00	0	61	0	2736783360	45	4416
2026-01-16 05:30:13.16	253.52	13.81	-37.6	-39.2	15.5	0.00e+00	0	61	0	2744123392	45	4395
2026-01-16 05:30:14.17	253.39	13.72	-37.5	-39.0	15.6	0.00e+00	0	61	0	2751463424	45	4337
2026-01-16 05:30:15.18	253.26	13.64	-37.6	-39.1	15.6	0.00e+00	0	61	0	2758803456	45	4364
2026-01-16 05:30:16.19	253.14	13.56	-37.6	-39.2	15.5	0.00e+00	0	61	0	2766143488	45	4407
2026-01-16 05:30:17.20	253.01	13.48	-37.6	-39.1	15.5	0.00e+00	0	61	0	2773483520	45	4370
2026-01-16 05:30:18.21	252.89	13.40	-37.6	-39.2	15.5	0.00e+00	0	61	0	2780823552	45	4392
2026-01-16 05:30:19.22	252.76	13.32	-37.7	-39.3	15.4	0.00e+00	0	61	0	2788163584	45	4468
2026-01-16 05:30:20.22	252.64	13.24	-37.8	-39.4	15.3	0.00e+00	0	61	0	2795503616	45	4502
2026-01-16 05:30:21.23	252.52	13.16	-37.9	-39.5	15.2	0.00e+00	0	61	0	2802843648	45	4549
2026-01-16 05:30:22.24	252.40	13.08	-37.9	-39.5	15.1	0.00e+00	0	61	0	2809135104	45	4594
2026-01-16 05:30:23.25	252.28	13.00	-38.0	-39.6	15.0	0.00e+00	0	61	0	2816475136	45	4630
2026-01-16 05:30:24.26	252.15	12.92	-38.0	-39.6	15.0	0.00e+00	0	61	0	2824863744	45	4641
2026-01-16 05:30:25.27	252.04	12.84	-38.1	-39.7	14.9	0.00e+00	0	61	0	2831155200	45	4690
2026-01-16 05:30:26.28	251.92	12.76	-38.1	-39.8	14.8	0.00e+00	0	61	0	2838495232	45	4724
2026-01-16 05:30:27.29	251.80	12.68	-38.2	-39.9	14.7	1.10e-06	0	61	0	2845835264	45	4795
2026-01-16 05:30:28.30	251.68	12.60	-38.2	-39.9	14.7	0.00e+00	0	61	0	2853175296	46	4538
2026-01-16 05:30:29.31	251.56	12.52	-38.3	-40.0	14.6	0.00e+00	0	61	0	2860515328	46	4546
2026-01-16 05:30:30.32	251.45	12.45	-38.3	-40.0	14.6	0.00e+00	0	61	0	2867855360	46	4564
2026-01-16 05:30:31.33	251.33	12.37	-38.3	-40.0	14.6	0.00e+00	0	61	0	2875195392	46	4570
2026-01-16 05:30:32.34	251.21	12.29	-38.3	-40.1	14.5	0.00e+00	0	61	0	2882535424	46	4608
2026-01-16 05:30:33.35	251.10	12.21	-38.3	-40.1	14.5	2.20e-06	0	61	0	2889875456	46	4605
2026-01-16 05:30:34.36	250.99	12.13	-38.3	-40.1	14.5	0.00e+00	0	61	0	2897215488	46	4617
2026-01-16 05:30:35.37	250.87	12.05	-38.3	-40.1	14.5	0.00e+00	0	61	0	2904555520	46	4627
2026-01-16 05:30:36.38	250.76	11.97	-38.3	-40.1	14.5	0.00e+00	0	61	0	2911895552	46	4617
2026-01-16 05:30:37.39	250.65	11.90	-38.3	-40.0	14.5	0.00e+00	0	61	0	2919235584	46	4589
2026-01-16 05:30:38.40	250.54	11.82	-38.3	-40.1	14.5	0.00e+00	0	61	0	2926575616	46	4610
2026-01-16 05:30:39.41	250.42	11.74	-38.3	-40.0	14.6	1.10e-06	0	61	0	2933915648	46	4590
2026-01-16 05:30:40.42	250.31	11.66	-38.3	-40.0	14.6	0.00e+00	0	61	0	2941255680	46	4591
2026-01-16 05:30:41.43	250.20	11.59	-38.2	-39.9	14.6	1.10e-06	0	61	0	2948595712	46	4539
2026-01-16 05:30:42.44	250.09	11.51	-38.2	-39.9	14.6	0.00e+00	0	61	0	2955935744	46	4538
2026-01-16 05:30:43.45	249.99	11.43	-38.2	-39.9	14.7	0.00e+00	0	61	0	2962227200	46	4521
2026-01-16 05:30:44.46	249.88	11.35	-38.2	-40.0	14.6	0.00e+00	0	61	0	2970615808	46	4546
2026-01-16 05:30:45.47	249.77	11.28	-38.3	-40.0	14.6	0.00e+00	0	61	0	2977955840	46	4562
2026-01-16 05:30:46.48	249.66	11.20	-38.2	-39.9	14.7	0.00e+00	0	61	0	2984247296	46	4503
2026-01-16 05:30:47.49	249.56	11.12	-38.1	-39.8	14.7	0.00e+00	0	61	0	2991587328	46	4472
2026-01-16 05:30:48.50	249.45	11.05	-38.1	-39.8	14.7	0.00e+00	0	61	0	2998927360	46	4474
2026-01-16 05:30:49.51	249.35	10.97	-38.2	-39.9	14.6	0.00e+00	0	61	0	3006267392	46	4522
2026-01-16 05:30:50.52	249.24	10.90	-38.2	-39.9	14.6	0.00e+00	0	61	0	3013607424	46	4512
2026-01-16 05:30:51.53	249.14	10.82	-38.1	-39.8	14.8	0.00e+00	0	61	0	3020947456	46	4453
2026-01-16 05:30:52.54	249.03	10.74	-38.1	-39.8	14.8	0.00e+00	0	61	0	3028287488	46	4444
2026-01-16 05:30:53.55	248.93	10.67	-38.0	-39.6	14.9	0.00e+00	0	61	0	3035627520	46	4385
2026-01-16 05:30:54.56	248.83	10.59	-38.1	-39.7	14.8	0.00e+00	0	61	0	3042967552	46	4441
2026-01-16 05:30:55.57	248.73	10.52	-38.1	-39.8	14.7	1.10e-06	0	61	0	3050307584	46	4459
2026-01-16 05:30:56.58	248.62	10.44	-38.1	-39.8	14.7	1.10e-06	0	61	0	3057647616	46	4454
2026-01-16 05:30:57.59	248.52	10.37	-38.2	-39.9	14.6	0.00e+00	0	61	0	3064987648	46	4508
2026-01-16 05:30:58.60	248.42	10.29	-38.1	-39.8	14.7	0.00e+00	0	61	0	3072327680	46	4487
2026-01-16 05:30:59.61	248.32	10.22	-38.2	-39.9	14.5	0.00e+00	0	61	0	3079667712	46	4534
2026-01-16 05:31:00.61	248.23	10.14	-38.3	-40.1	14.4	0.00e+00	0	61	0	3087007744	46	4623
2026-01-16 05:31:01.62	248.13	10.07	-38.4	-40.2	14.3	1.10e-06	0	61	0	3094347776	46	4690
2026-01-16 05:31:02.63	248.03	9.99	-38.6	-40.4	14.1	1.10e-06	0	61	0	3101687808	46	4791
2026-01-16 05:31:03.64	247.93	9.92	-38.6	-40.4	14.1	3.40e-06	0	61	0	3107979264	46	4782
2026-01-16 05:31:04.65	247.83	9.85	-38.7	-40.6	13.9	3.40e-06	0	61	0	3115319296	47	4615
2026-01-16 05:31:05.66	247.74	9.77	-38.7	-40.5	13.9	6.80e-06	0	61	0	3123707904	47	4590
2026-01-16 05:31:06.67	247.64	9.70	-38.8	-40.7	13.8	4.50e-06	0	61	0	3129999360	47	4654
2026-01-16 05:31:07.68	247.54	9.62	-38.9	-40.8	13.6	9.10e-06	0	61	0	3137339392	47	4730
2026-01-16 05:31:08.69	247.45	9.55	-38.9	-40.9	13.5	1.37e-05	0	61	0	3144679424	47	4783
2026-01-16 05:31:09.70	247.35	9.48	-39.1	-41.1	13.3	1.83e-05	0	61	0	3152019456	47	4871
2026-01-16 05:31:10.71	247.26	9.40	-39.1	-41.1	13.2	3.66e-05	0	61	0	3159359488	47	4906
2026-01-16 05:31:11.72	247.17	9.33	-39.0	-41.0	13.4	2.28e-05	0	61	0	3166699520	47	4842
2026-01-16 05:31:12.73	247.07	9.26	-39.0	-41.0	13.3	1.60e-05	0	61	0	3174039552	47	4867
2026-01-16 05:31:13.74	246.98	9.18	-39.1	-41.1	13.2	2.28e-05	0	61	0	3181379584	47	4917
2026-01-16 05:31:14.76	246.89	9.11	-39.1	-41.2	13.1	1.94e-05	0	61	0	3188719616	47	4947
2026-01-16 05:31:15.77	246.79	9.04	-39.0	-41.0	13.3	2.05e-05	0	61	0	3196059648	47	4861
2026-01-16 05:31:16.77	246.70	8.97	-39.0	-41.0	13.3	1.60e-05	0	61	0	3203399680	47	4866
2026-01-16 05:31:17.78	246.61	8.89	-39.0	-41.0	13.3	2.17e-05	0	61	0	3210739712	47	4844
2026-01-16 05:31:18.79	246.52	8.82	-39.0	-41.1	13.2	1.71e-05	0	61	0	3218079744	47	4883
2026-01-16 05:31:19.80	246.43	8.75	-39.0	-41.0	13.3	1.60e-05	0	61	0	3225419776	47	4830
2026-01-16 05:31:20.81	246.34	8.68	-39.0	-41.0	13.3	2.17e-05	0	61	0	3232759808	47	4819
2026-01-16 05:31:21.82	246.25	8.61	-39.0	-41.0	13.3	1.94e-05	0	61	0	3240099840	47	4861
2026-01-16 05:31:22.83	246.16	8.54	-39.1	-41.2	13.1	3.20e-05	0	61	0	3247439872	47	4944
2026-01-16 05:31:23.84	246.08	8.46	-39.0	-41.0	13.3	1.60e-05	0	61	0	3254779904	47	4818
2026-01-16 05:31:24.85	245.99	8.39	-38.9	-40.9	13.4	1.71e-05	0	61	0	3261071360	47	4762
2026-01-16 05:31:25.86	245.90	8.32	-38.9	-40.9	13.3	1.94e-05	0	61	0	3269459968	47	4804
2026-01-16 05:31:26.87	245.81	8.25	-38.9	-40.9	13.4	1.25e-05	0	61	0	3276800000	47	4777
2026-01-16 05:31:27.88	245.73	8.18	-38.8	-40.8	13.4	1.60e-05	0	61	0	3283091456	47	4743
2026-01-16 05:31:28.89	245.64	8.11	-38.9	-40.9	13.3	1.94e-05	0	61	0	3290431488	47	4813
2026-01-16 05:31:29.90	245.56	8.04	-38.9	-40.9	13.3	2.17e-05	0	61	0	3297771520	47	4783
2026-01-16 05:31:30.91	245.47	7.97	-44.8	-55.7	3.8	5.10e-01	0	61	104	3304062976	59	13247
2026-01-16 05:31:31.91	245.39	7.90	-45.1	-56.1	3.8	8.46e-01	0	61	104	3304062976	59	13814
2026-01-16 05:31:32.93	245.30	7.83	-45.2	-56.6	3.8	8.47e-01	0	61	104	3304062976	60	13795
2026-01-16 05:31:33.94	245.22	7.76	-45.4	-56.7	3.8	8.47e-01	0	61	104	3304062976	60	14004
2026-01-16 05:31:34.94	245.14	7.69	-45.4	-56.8	3.8	8.47e-01	0	61	104	3304062976	60	14074
2026-01-16 05:31:35.96	245.05	7.62	-45.5	-56.9	3.8	8.46e-01	0	61	104	3304062976	60	14255
2026-01-16 05:31:36.96	244.97	7.55	-45.6	-56.9	3.8	8.45e-01	0	61	104	3304062976	60	14324
2026-01-16 05:31:37.97	244.89	7.48	-45.6	-57.0	3.8	8.45e-01	0	61	104	3304062976	60	14434
2026-01-16 05:31:38.99	244.80	7.41	-45.6	-57.0	3.8	8.46e-01	0	61	104	3304062976	60	14478
