passes_logs/2026/01/16/R2.0S_Moscow/R2.0S_Moscow__20260116_225648_SUOMI_NPP_rec.log

#Pass ID: 20260116_225648_SUOMI NPP
#Satellite: SUOMI NPP
#Configuration: NPP
#almurnet v.1.7.20251203
#Start time: 2026-01-16 22:56:50

#Version: 2.2.20231116
#Station: R2.0S_Moscow
#Location: 37.707566 lon 55.798166 lat
#TLE: 1 37849U 11061A   26016.23176763  .00000061  00000+0  49926-4 0  9990
#TLE: 2 37849  98.7812 318.2698 0002434  61.5135 298.6286 14.19525545736883

#Time	Az	El	Level	Level2	SNR	BER	BlckErr	Temp	State	Recorded	gain1	gain2
2026-01-16 22:56:50.14	20.39	2.10	-42.1	-57.0	3.8	1.49e+00	0	51	0	0	56	19309
2026-01-16 22:56:51.15	20.43	2.16	-41.9	-56.8	3.8	1.49e+00	0	51	104	0	55	19986
2026-01-16 22:56:52.16	20.47	2.22	-41.9	-56.8	3.8	1.49e+00	0	52	104	0	55	20020
2026-01-16 22:56:53.17	20.51	2.29	-42.0	-56.8	3.8	1.49e+00	0	52	104	0	55	20008
2026-01-16 22:56:54.19	20.55	2.35	-41.9	-56.8	3.8	1.49e+00	0	52	104	0	55	19986
2026-01-16 22:56:55.20	20.59	2.41	-41.9	-56.8	3.8	1.49e+00	0	52	104	0	55	19979
2026-01-16 22:56:56.21	20.63	2.47	-41.9	-56.8	3.8	1.49e+00	0	52	104	0	55	20031
2026-01-16 22:56:57.22	20.68	2.54	-41.9	-56.8	3.8	1.49e+00	0	52	104	0	55	19947
2026-01-16 22:56:58.23	20.72	2.60	-41.9	-56.8	3.8	1.49e+00	0	52	104	0	55	20021
2026-01-16 22:56:59.24	20.76	2.66	-41.9	-56.8	3.8	1.49e+00	0	52	104	0	55	19948
2026-01-16 22:57:00.25	20.80	2.73	-42.0	-56.8	3.8	1.49e+00	0	52	104	0	55	20056
2026-01-16 22:57:01.27	20.84	2.79	-41.9	-56.8	3.8	1.49e+00	0	52	104	0	55	20025
2026-01-16 22:57:02.28	20.89	2.85	-41.9	-56.8	3.8	1.49e+00	0	52	104	0	55	20035
2026-01-16 22:57:03.29	20.93	2.92	-41.9	-56.8	3.8	1.49e+00	0	52	104	0	55	19974
2026-01-16 22:57:04.30	20.97	2.98	-41.9	-56.8	3.8	1.49e+00	0	52	104	0	55	19941
2026-01-16 22:57:05.31	21.01	3.04	-41.9	-56.8	3.8	1.49e+00	0	52	104	0	55	19977
2026-01-16 22:57:06.32	21.06	3.11	-41.9	-56.8	3.8	1.49e+00	0	53	104	0	55	19978
2026-01-16 22:57:07.33	21.10	3.17	-41.9	-56.8	3.8	1.49e+00	0	53	104	0	55	20009
2026-01-16 22:57:08.34	21.14	3.24	-41.9	-56.8	3.8	1.49e+00	0	53	104	0	55	19936
2026-01-16 22:57:09.36	21.19	3.30	-41.9	-56.8	3.8	1.49e+00	0	53	104	0	55	20011
2026-01-16 22:57:10.37	21.23	3.36	-41.9	-56.8	3.8	1.49e+00	0	53	104	0	55	19977
2026-01-16 22:57:11.38	21.27	3.43	-41.9	-56.8	3.8	1.49e+00	0	53	104	0	55	19922
2026-01-16 22:57:12.39	21.32	3.49	-41.9	-56.8	3.8	1.49e+00	0	53	104	0	55	19924
2026-01-16 22:57:13.40	21.36	3.56	-41.9	-56.8	3.8	1.49e+00	0	53	104	0	55	19981
2026-01-16 22:57:14.41	21.41	3.62	-41.9	-56.8	3.8	1.49e+00	0	53	104	0	55	19971
2026-01-16 22:57:15.42	21.45	3.69	-41.9	-56.8	3.8	1.49e+00	0	53	104	0	55	19932
2026-01-16 22:57:16.43	21.49	3.75	-41.9	-56.8	3.8	1.49e+00	0	53	104	0	55	19980
2026-01-16 22:57:17.44	21.54	3.82	-41.9	-56.8	3.8	1.49e+00	0	53	104	0	55	19944
2026-01-16 22:57:18.45	21.58	3.89	-41.9	-56.8	3.8	1.49e+00	0	53	104	0	55	19976
2026-01-16 22:57:19.47	21.63	3.95	-41.9	-56.8	3.8	1.49e+00	0	54	104	0	55	19976
2026-01-16 22:57:20.48	21.67	4.02	-41.9	-56.8	3.8	1.49e+00	0	53	104	0	55	19992
2026-01-16 22:57:21.49	21.72	4.08	-41.9	-56.8	3.8	1.49e+00	0	54	104	0	55	19928
2026-01-16 22:57:22.50	21.77	4.15	-41.9	-56.8	3.8	1.49e+00	0	54	104	0	55	19882
2026-01-16 22:57:23.51	21.81	4.22	-41.9	-56.8	3.8	1.49e+00	0	54	104	0	55	19952
2026-01-16 22:57:24.52	21.86	4.28	-41.9	-56.8	3.8	1.49e+00	0	54	104	0	55	19933
2026-01-16 22:57:25.53	21.90	4.35	-41.9	-56.8	3.8	1.49e+00	0	54	104	0	55	19942
2026-01-16 22:57:26.54	21.95	4.42	-41.9	-56.8	3.8	1.49e+00	0	54	104	0	55	19928
2026-01-16 22:57:27.55	22.00	4.48	-41.9	-56.8	3.8	1.49e+00	0	54	104	0	55	19995
2026-01-16 22:57:28.56	22.04	4.55	-41.9	-56.8	3.8	1.49e+00	0	54	104	0	55	19934
2026-01-16 22:57:29.57	22.09	4.62	-41.9	-56.8	3.8	1.49e+00	0	54	104	0	55	19908
2026-01-16 22:57:30.58	22.14	4.68	-41.9	-56.8	3.8	1.49e+00	0	54	104	0	55	19929
2026-01-16 22:57:31.60	22.19	4.75	-41.9	-56.8	3.8	1.49e+00	0	54	104	0	55	19981
2026-01-16 22:57:32.61	22.23	4.82	-41.9	-56.8	3.8	1.49e+00	0	54	104	0	55	20010
2026-01-16 22:57:33.62	22.28	4.89	-41.9	-56.8	3.8	1.49e+00	0	54	104	0	55	19924
2026-01-16 22:57:34.63	22.33	4.96	-41.9	-56.8	3.8	1.49e+00	0	54	104	0	55	19983
2026-01-16 22:57:35.64	22.38	5.02	-41.9	-56.8	3.8	1.49e+00	0	54	104	0	55	19905
2026-01-16 22:57:36.65	22.43	5.09	-41.9	-56.8	3.8	1.49e+00	0	54	104	0	55	19924
2026-01-16 22:57:37.66	22.47	5.16	-41.9	-56.8	3.8	1.49e+00	0	54	104	0	55	19912
2026-01-16 22:57:38.67	22.52	5.23	-41.9	-56.8	3.8	1.49e+00	0	54	104	0	55	19906
2026-01-16 22:57:39.68	22.57	5.30	-41.9	-56.8	3.8	1.49e+00	0	54	104	0	55	19910
2026-01-16 22:57:40.70	22.62	5.37	-41.9	-56.8	3.8	1.49e+00	0	54	104	0	55	19897
2026-01-16 22:57:41.71	22.67	5.44	-41.9	-56.8	3.8	1.49e+00	0	55	104	0	55	19936
2026-01-16 22:57:42.72	22.72	5.51	-41.9	-56.8	3.8	1.49e+00	0	55	104	0	55	19889
2026-01-16 22:57:43.73	22.77	5.57	-41.9	-56.8	3.8	1.49e+00	0	55	104	0	55	19928
2026-01-16 22:57:44.74	22.82	5.64	-41.9	-56.8	3.8	1.49e+00	0	55	104	0	55	19890
2026-01-16 22:57:45.75	22.87	5.71	-41.9	-56.8	3.8	1.49e+00	0	55	104	0	55	19892
2026-01-16 22:57:46.76	22.92	5.78	-41.9	-56.8	3.8	1.49e+00	0	55	104	0	55	19919
2026-01-16 22:57:47.77	22.97	5.85	-41.9	-56.8	3.8	1.49e+00	0	55	104	0	55	19883
2026-01-16 22:57:48.78	23.02	5.92	-41.9	-56.8	3.8	1.49e+00	0	55	104	0	55	19935
2026-01-16 22:57:49.79	23.07	5.99	-41.9	-56.8	3.8	1.49e+00	0	55	104	0	55	19858
2026-01-16 22:57:50.80	23.12	6.07	-41.9	-56.8	3.8	1.49e+00	0	55	104	0	55	19877
2026-01-16 22:57:51.81	23.18	6.14	-41.9	-56.8	3.8	1.49e+00	0	55	104	0	55	19855
2026-01-16 22:57:52.83	23.23	6.21	-41.9	-56.8	3.8	1.49e+00	0	55	104	0	55	19875
2026-01-16 22:57:53.84	23.28	6.28	-41.9	-56.8	3.8	1.49e+00	0	55	104	0	55	19980
2026-01-16 22:57:54.85	23.33	6.35	-41.9	-56.8	3.8	1.49e+00	0	55	104	0	55	19877
2026-01-16 22:57:55.86	23.39	6.42	-41.9	-56.8	3.8	1.49e+00	0	55	104	0	55	19897
2026-01-16 22:57:56.87	23.44	6.49	-41.9	-56.8	3.8	1.49e+00	0	55	104	0	55	19898
2026-01-16 22:57:57.88	23.49	6.57	-41.9	-56.8	3.8	1.49e+00	0	55	104	0	55	19869
2026-01-16 22:57:58.89	23.54	6.64	-41.9	-56.8	3.8	1.49e+00	0	55	104	0	55	19903
2026-01-16 22:57:59.91	23.60	6.71	-41.9	-56.7	3.8	1.49e+00	0	55	104	0	55	19840
2026-01-16 22:58:00.91	23.65	6.78	-41.9	-56.8	3.8	1.49e+00	0	55	104	0	55	19886
2026-01-16 22:58:01.93	23.71	6.86	-41.9	-56.8	3.8	1.49e+00	0	55	104	0	55	19880
2026-01-16 22:58:02.94	23.76	6.93	-41.9	-56.8	3.8	1.49e+00	0	56	104	0	55	19879
2026-01-16 22:58:03.95	23.81	7.00	-41.9	-56.8	3.8	1.49e+00	0	55	104	0	55	19867
2026-01-16 22:58:04.96	23.87	7.07	-41.9	-56.8	3.8	1.49e+00	0	56	104	0	55	19886
2026-01-16 22:58:05.97	23.92	7.15	-41.9	-56.7	3.8	1.49e+00	0	56	104	0	55	19695
2026-01-16 22:58:06.98	23.98	7.22	-41.9	-56.7	3.8	1.49e+00	0	56	104	0	55	19672
2026-01-16 22:58:07.99	24.04	7.30	-41.9	-56.6	3.8	1.49e+00	0	55	104	0	55	19487
2026-01-16 22:58:09.00	24.09	7.37	-41.9	-56.4	3.8	1.49e+00	0	56	104	0	55	19122
2026-01-16 22:58:10.01	24.15	7.44	-41.9	-56.1	3.8	1.49e+00	0	56	104	0	55	18470
2026-01-16 22:58:11.02	24.20	7.52	-41.8	-55.8	3.8	1.49e+00	0	56	104	0	55	17802
2026-01-16 22:58:12.03	24.26	7.59	-41.8	-55.4	3.8	1.49e+00	0	56	104	0	55	17050
2026-01-16 22:58:13.05	24.32	7.67	-41.8	-54.6	3.9	1.49e+00	0	56	104	0	55	15562
2026-01-16 22:58:14.06	24.37	7.74	-41.7	-53.9	3.9	1.48e+00	0	56	104	0	55	14298
2026-01-16 22:58:15.07	24.43	7.82	-41.6	-52.8	4.3	1.36e+00	0	56	0	0	55	12571
2026-01-16 22:58:16.08	24.49	7.89	-41.5	-51.4	4.9	9.17e-01	0	56	0	1048576	55	10722
2026-01-16 22:58:17.09	24.55	7.97	-41.4	-50.4	5.5	5.86e-01	0	56	0	3145728	54	10144
2026-01-16 22:58:18.10	24.60	8.04	-41.3	-49.8	5.9	3.61e-01	0	56	0	5242880	54	9430
2026-01-16 22:58:19.11	24.66	8.12	-41.4	-48.4	7.5	1.19e-01	0	56	0	7340032	54	8039
2026-01-16 22:58:20.12	24.72	8.20	-42.4	-50.9	5.6	2.15e-01	0	56	0	8388608	55	10077
2026-01-16 22:58:21.13	24.78	8.27	-41.2	-52.9	4.2	1.87e-01	0	56	0	10485760	54	13488
2026-01-16 22:58:22.14	24.84	8.35	-41.7	-56.0	3.8	1.49e+00	0	56	104	10485760	54	19179
2026-01-16 22:58:23.15	24.90	8.43	-42.3	-50.1	6.4	6.75e-01	0	56	0	10485760	55	9246
2026-01-16 22:58:24.16	24.96	8.50	-41.8	-48.2	8.1	1.09e-01	0	56	0	12582912	55	7389
2026-01-16 22:58:25.17	25.02	8.58	-41.8	-48.4	7.8	7.38e-02	0	56	0	13631488	55	7620
2026-01-16 22:58:26.18	25.08	8.66	-41.8	-48.3	7.9	7.09e-02	0	56	0	15728640	55	7470
2026-01-16 22:58:27.19	25.14	8.74	-41.7	-47.9	8.3	6.53e-02	0	56	0	17825792	55	7195
2026-01-16 22:58:28.20	25.20	8.81	-41.7	-47.8	8.5	3.86e-02	0	56	0	19922944	55	7074
2026-01-16 22:58:29.21	25.26	8.89	-41.8	-47.8	8.5	4.01e-02	0	57	0	22020096	55	7118
2026-01-16 22:58:30.22	25.33	8.97	-41.8	-47.8	8.6	4.23e-02	0	56	0	23068672	55	7116
2026-01-16 22:58:31.23	25.39	9.05	-41.8	-47.7	8.6	3.79e-02	0	57	0	25165824	55	7029
2026-01-16 22:58:32.24	25.45	9.13	-41.8	-47.6	8.9	3.12e-02	0	57	0	27262976	55	6948
2026-01-16 22:58:33.24	25.51	9.21	-41.8	-47.5	9.0	2.68e-02	0	57	0	29360128	55	6873
2026-01-16 22:58:34.25	25.57	9.29	-41.8	-47.6	8.9	2.32e-02	0	57	0	31457280	55	6949
2026-01-16 22:58:35.26	25.64	9.36	-41.8	-47.6	9.0	2.72e-02	0	57	0	32505856	55	6944
2026-01-16 22:58:36.27	25.70	9.44	-41.8	-47.4	9.2	2.01e-02	0	57	0	34603008	55	6783
2026-01-16 22:58:37.28	25.76	9.52	-41.9	-47.6	9.1	2.14e-02	0	57	0	36700160	55	6901
2026-01-16 22:58:38.29	25.83	9.60	-41.8	-47.3	9.5	1.55e-02	0	57	0	38797312	55	6678
2026-01-16 22:58:39.30	25.89	9.68	-41.8	-47.2	9.6	1.21e-02	0	57	0	40894464	55	6624
2026-01-16 22:58:40.31	25.96	9.77	-41.9	-47.3	9.5	1.74e-02	0	57	0	42991616	55	6701
2026-01-16 22:58:41.32	26.02	9.85	-41.9	-47.2	9.7	8.20e-03	0	57	0	44040192	55	6626
2026-01-16 22:58:42.33	26.09	9.93	-42.0	-47.3	9.7	1.36e-02	0	57	0	46137344	55	6657
2026-01-16 22:58:43.34	26.15	10.01	-41.9	-46.9	10.1	1.03e-02	0	57	0	48234496	55	6388
2026-01-16 22:58:44.35	26.22	10.09	-41.9	-47.0	10.0	9.58e-03	0	57	0	50331648	55	6450
2026-01-16 22:58:45.36	26.29	10.17	-41.9	-46.8	10.2	6.80e-03	0	57	0	52428800	55	6334
2026-01-16 22:58:46.36	26.35	10.25	-41.9	-46.8	10.3	5.99e-03	0	57	0	53477376	55	6299
2026-01-16 22:58:47.37	26.42	10.34	-41.9	-46.9	10.2	5.27e-03	0	57	0	55574528	55	6349
2026-01-16 22:58:48.39	26.49	10.42	-41.9	-46.8	10.3	4.70e-03	0	57	0	57671680	55	6337
2026-01-16 22:58:49.40	26.56	10.50	-41.9	-46.7	10.4	5.55e-03	0	57	0	59768832	55	6267
2026-01-16 22:58:50.40	26.63	10.58	-41.9	-46.6	10.5	4.02e-03	0	57	0	61865984	55	6193
2026-01-16 22:58:51.41	26.69	10.67	-41.8	-46.5	10.6	3.07e-03	0	57	0	62914560	55	6129
2026-01-16 22:58:52.42	26.76	10.75	-41.8	-46.5	10.7	3.16e-03	0	57	0	65011712	55	6125
2026-01-16 22:58:53.43	26.83	10.83	-41.9	-46.6	10.6	2.48e-03	0	58	0	67108864	55	6178
2026-01-16 22:58:54.44	26.90	10.92	-41.8	-46.5	10.7	2.86e-03	0	57	0	69206016	55	6116
2026-01-16 22:58:55.45	26.97	11.00	-41.8	-46.3	11.0	2.30e-03	0	57	0	71303168	55	5956
2026-01-16 22:58:56.46	27.04	11.09	-41.8	-46.3	10.9	2.08e-03	0	57	0	72351744	55	5952
2026-01-16 22:58:57.47	27.11	11.17	-41.8	-46.4	11.0	2.51e-03	0	57	0	74448896	55	6003
2026-01-16 22:58:58.48	27.18	11.26	-41.8	-46.3	11.0	1.88e-03	0	58	0	76546048	55	5952
2026-01-16 22:58:59.49	27.26	11.34	-41.8	-46.2	11.1	2.05e-03	0	57	0	78643200	55	5923
2026-01-16 22:59:00.50	27.33	11.43	-41.8	-46.4	11.0	1.84e-03	0	57	0	80740352	55	6015
2026-01-16 22:59:01.51	27.40	11.51	-41.9	-46.4	11.0	1.97e-03	0	57	0	81788928	55	6044
2026-01-16 22:59:02.52	27.47	11.60	-41.8	-46.4	11.0	1.57e-03	0	57	0	83886080	55	6001
2026-01-16 22:59:03.53	27.55	11.69	-41.9	-46.4	11.0	1.92e-03	0	57	0	85983232	55	6019
2026-01-16 22:59:04.54	27.62	11.77	-41.8	-46.3	11.1	1.64e-03	0	58	0	88080384	55	5929
2026-01-16 22:59:05.55	27.70	11.86	-41.9	-46.4	11.0	1.39e-03	0	57	0	90177536	55	6032
2026-01-16 22:59:06.56	27.77	11.95	-41.9	-46.4	11.0	1.62e-03	0	57	0	91226112	55	6059
2026-01-16 22:59:07.57	27.84	12.03	-41.9	-46.4	11.0	1.71e-03	0	57	0	93323264	55	6027
2026-01-16 22:59:08.58	27.92	12.12	-41.9	-46.4	11.2	1.68e-03	0	58	0	95420416	55	5997
2026-01-16 22:59:09.59	28.00	12.21	-42.0	-46.5	10.9	1.96e-03	0	58	0	97517568	55	6127
2026-01-16 22:59:10.60	28.07	12.30	-41.9	-46.4	11.1	1.67e-03	0	58	0	99614720	55	6025
2026-01-16 22:59:11.61	28.15	12.39	-42.0	-46.6	10.9	1.57e-03	0	58	0	100663296	55	6150
2026-01-16 22:59:12.62	28.23	12.47	-41.9	-46.4	11.2	1.66e-03	0	58	0	102760448	55	6000
2026-01-16 22:59:13.63	28.30	12.56	-41.9	-46.4	11.2	1.39e-03	0	58	0	104857600	55	5996
2026-01-16 22:59:14.64	28.38	12.65	-42.0	-46.5	11.0	1.76e-03	0	58	0	106954752	55	6121
2026-01-16 22:59:15.65	28.46	12.74	-41.9	-46.3	11.2	1.23e-03	0	58	0	109051904	55	5975
2026-01-16 22:59:16.66	28.54	12.83	-42.0	-46.5	11.1	1.61e-03	0	58	0	111149056	55	6083
2026-01-16 22:59:17.67	28.62	12.92	-41.9	-46.3	11.3	1.44e-03	0	58	0	112197632	55	5937
2026-01-16 22:59:18.68	28.70	13.01	-42.0	-46.5	11.1	1.58e-03	0	58	0	114294784	55	6076
2026-01-16 22:59:19.69	28.78	13.10	-41.9	-46.4	11.1	1.46e-03	0	58	0	116391936	55	6041
2026-01-16 22:59:20.70	28.86	13.19	-42.0	-46.5	11.1	1.51e-03	0	58	0	118489088	55	6099
2026-01-16 22:59:21.71	28.94	13.29	-42.0	-46.5	11.1	1.55e-03	0	58	0	120586240	55	6123
2026-01-16 22:59:22.72	29.02	13.38	-42.0	-46.5	11.1	1.70e-03	0	58	0	121634816	55	6067
2026-01-16 22:59:23.73	29.10	13.47	-41.9	-46.4	11.2	1.33e-03	0	58	0	123731968	55	6031
2026-01-16 22:59:24.73	29.18	13.56	-42.0	-46.6	11.1	1.79e-03	0	58	0	125829120	55	6144
2026-01-16 22:59:25.74	29.27	13.65	-42.0	-46.5	11.1	1.90e-03	0	58	0	127926272	55	6098
2026-01-16 22:59:26.75	29.35	13.75	-42.0	-46.5	11.2	1.52e-03	0	58	0	130023424	55	6065
2026-01-16 22:59:27.77	29.44	13.84	-42.0	-46.5	11.1	1.38e-03	0	58	0	131072000	55	6094
2026-01-16 22:59:28.78	29.52	13.93	-42.0	-46.5	11.1	1.32e-03	0	58	0	133169152	55	6101
2026-01-16 22:59:29.79	29.61	14.03	-42.0	-46.5	11.2	1.33e-03	0	58	0	135266304	55	6107
2026-01-16 22:59:30.80	29.69	14.12	-42.0	-46.3	11.4	9.15e-04	0	58	0	137363456	55	5936
2026-01-16 22:59:31.80	29.78	14.22	-42.0	-46.3	11.4	1.16e-03	0	58	0	139460608	55	5986
2026-01-16 22:59:32.81	29.86	14.31	-42.0	-46.3	11.4	1.02e-03	0	58	0	140509184	55	5934
2026-01-16 22:59:33.82	29.95	14.41	-42.1	-46.5	11.2	1.16e-03	0	58	0	142606336	55	6074
2026-01-16 22:59:34.83	30.04	14.50	-42.0	-46.5	11.2	1.06e-03	0	58	0	144703488	55	6089
2026-01-16 22:59:35.84	30.13	14.60	-41.8	-46.0	11.8	8.88e-04	0	58	0	146800640	55	5730
2026-01-16 22:59:36.85	30.22	14.69	-41.9	-46.0	11.7	6.70e-04	0	58	0	148897792	55	5764
2026-01-16 22:59:37.86	30.31	14.79	-42.0	-46.2	11.5	7.22e-04	0	58	0	149946368	55	5890
2026-01-16 22:59:38.87	30.39	14.89	-41.9	-46.1	11.6	9.16e-04	0	59	0	152043520	55	5846
2026-01-16 22:59:39.88	30.49	14.98	-41.9	-46.1	11.7	5.65e-04	0	58	0	154140672	55	5798
2026-01-16 22:59:40.89	30.58	15.08	-42.0	-46.3	11.4	5.57e-04	0	58	0	156237824	55	5937
2026-01-16 22:59:41.90	30.67	15.18	-42.0	-46.2	11.5	9.58e-04	0	58	0	158334976	55	5918
2026-01-16 22:59:42.91	30.76	15.28	-42.0	-46.2	11.6	5.71e-04	0	58	0	159383552	55	5889
2026-01-16 22:59:43.92	30.85	15.37	-41.9	-46.2	11.6	6.02e-04	0	58	0	161480704	55	5866
2026-01-16 22:59:44.93	30.95	15.47	-42.0	-46.4	11.4	8.76e-04	0	59	0	163577856	55	6002
2026-01-16 22:59:45.94	31.04	15.57	-42.0	-46.2	11.6	6.01e-04	0	58	0	165675008	55	5898
2026-01-16 22:59:46.95	31.13	15.67	-41.9	-46.1	11.7	9.25e-04	0	58	0	167772160	55	5815
2026-01-16 22:59:47.96	31.23	15.77	-42.0	-46.3	11.4	9.09e-04	0	58	0	168820736	55	5990
2026-01-16 22:59:48.96	31.32	15.87	-42.0	-46.2	11.6	7.39e-04	0	58	0	170917888	55	5893
2026-01-16 22:59:49.97	31.42	15.97	-42.0	-46.2	11.6	6.13e-04	0	59	0	173015040	55	5865
2026-01-16 22:59:50.98	31.52	16.07	-42.0	-46.2	11.7	6.08e-04	0	58	0	175112192	55	5866
2026-01-16 22:59:51.99	31.62	16.17	-41.9	-46.0	11.9	6.69e-04	0	58	0	177209344	55	5732
2026-01-16 22:59:53.00	31.71	16.27	-41.9	-46.1	11.8	4.50e-04	0	58	0	179306496	55	5807
2026-01-16 22:59:54.01	31.81	16.37	-41.9	-46.0	11.8	3.26e-04	0	59	0	180355072	55	5739
2026-01-16 22:59:55.02	31.91	16.48	-41.8	-45.8	12.0	4.10e-04	0	59	0	182452224	55	5636
2026-01-16 22:59:56.03	32.01	16.58	-41.8	-45.8	12.0	4.29e-04	0	58	0	184549376	55	5630
2026-01-16 22:59:57.04	32.11	16.68	-41.8	-45.8	12.1	4.31e-04	0	58	0	186646528	55	5627
2026-01-16 22:59:58.05	32.21	16.78	-41.9	-45.9	12.0	3.23e-04	0	58	0	188743680	55	5675
2026-01-16 22:59:59.05	32.31	16.89	-41.9	-46.0	11.9	3.88e-04	0	59	0	189792256	55	5750
2026-01-16 23:00:00.06	32.42	16.99	-41.9	-46.0	11.9	3.94e-04	0	59	0	191889408	55	5742
2026-01-16 23:00:01.07	32.52	17.10	-41.9	-46.0	11.9	4.52e-04	0	58	0	193986560	55	5743
2026-01-16 23:00:02.08	32.63	17.20	-42.1	-46.3	11.5	4.84e-04	0	59	0	196083712	55	5974
2026-01-16 23:00:03.09	32.73	17.30	-42.2	-46.6	11.3	6.81e-04	0	58	0	198180864	55	6145
2026-01-16 23:00:04.10	32.84	17.41	-42.0	-46.1	11.8	6.77e-04	0	59	0	199229440	55	5836
2026-01-16 23:00:05.11	32.94	17.52	-42.1	-46.3	11.6	6.96e-04	0	59	0	201326592	55	5967
2026-01-16 23:00:06.12	33.05	17.62	-42.1	-46.4	11.4	1.17e-03	0	58	0	203423744	55	6060
2026-01-16 23:00:07.13	33.16	17.73	-42.1	-46.4	11.5	9.98e-04	0	59	0	205520896	55	6011
2026-01-16 23:00:08.14	33.26	17.83	-42.3	-46.7	11.2	8.76e-04	0	59	0	207618048	55	6228
2026-01-16 23:00:09.15	33.37	17.94	-42.2	-46.5	11.4	1.36e-03	0	59	0	208666624	55	6097
2026-01-16 23:00:10.16	33.48	18.05	-42.2	-46.5	11.4	1.26e-03	0	59	0	210763776	55	6118
2026-01-16 23:00:11.17	33.59	18.16	-42.3	-46.6	11.3	9.64e-04	0	59	0	212860928	55	6167
2026-01-16 23:00:12.18	33.71	18.27	-42.2	-46.6	11.3	1.14e-03	0	59	0	214958080	55	6169
2026-01-16 23:00:13.19	33.82	18.37	-42.3	-46.6	11.3	1.09e-03	0	59	0	217055232	55	6187
2026-01-16 23:00:14.19	33.93	18.48	-42.2	-46.5	11.5	8.60e-04	0	59	0	218103808	55	6079
2026-01-16 23:00:15.20	34.04	18.59	-42.3	-46.6	11.3	1.10e-03	0	59	0	220200960	55	6179
2026-01-16 23:00:16.21	34.16	18.70	-42.3	-46.6	11.4	1.37e-03	0	59	0	222298112	55	6138
2026-01-16 23:00:17.23	34.27	18.81	-42.3	-46.8	11.1	1.27e-03	0	59	0	224395264	55	6316
2026-01-16 23:00:18.24	34.39	18.92	-42.4	-46.9	11.0	1.51e-03	0	59	0	226492416	55	6390
2026-01-16 23:00:19.25	34.51	19.03	-42.3	-46.7	11.2	1.19e-03	0	59	0	227540992	55	6266
2026-01-16 23:00:20.26	34.63	19.14	-42.4	-46.8	11.2	1.75e-03	0	59	0	229638144	55	6279
2026-01-16 23:00:21.27	34.74	19.26	-42.3	-46.6	11.4	1.62e-03	0	59	0	231735296	55	6173
2026-01-16 23:00:22.28	34.86	19.37	-42.4	-46.9	11.2	1.08e-03	0	59	0	233832448	55	6355
2026-01-16 23:00:23.29	34.98	19.48	-42.4	-46.9	11.2	1.03e-03	0	59	0	235929600	55	6362
2026-01-16 23:00:24.30	35.10	19.59	-42.5	-47.1	10.9	1.45e-03	0	59	0	236978176	55	6513
2026-01-16 23:00:25.31	35.23	19.71	-42.4	-46.7	11.3	1.31e-03	0	59	0	239075328	55	6255
2026-01-16 23:00:26.32	35.35	19.82	-42.4	-46.7	11.3	1.13e-03	0	59	0	241172480	55	6261
2026-01-16 23:00:27.33	35.47	19.94	-42.5	-47.0	11.0	1.64e-03	0	59	0	243269632	55	6441
2026-01-16 23:00:28.33	35.60	20.05	-42.4	-46.9	11.0	1.75e-03	0	59	0	245366784	55	6399
2026-01-16 23:00:29.34	35.72	20.16	-42.5	-46.9	11.1	1.67e-03	0	59	0	247463936	55	6410
2026-01-16 23:00:30.35	35.85	20.28	-42.5	-47.1	10.9	2.34e-03	0	59	0	248512512	55	6542
2026-01-16 23:00:31.37	35.98	20.40	-42.5	-46.9	11.1	2.10e-03	0	59	0	250609664	55	6420
2026-01-16 23:00:32.37	36.10	20.51	-42.5	-47.0	11.0	2.27e-03	0	59	0	252706816	55	6448
2026-01-16 23:00:33.39	36.23	20.63	-42.4	-46.9	11.2	1.60e-03	0	59	0	254803968	55	6352
2026-01-16 23:00:34.40	36.36	20.74	-42.5	-47.1	10.9	1.73e-03	0	59	0	256901120	55	6498
2026-01-16 23:00:35.41	36.50	20.86	-42.4	-46.8	11.2	1.25e-03	0	59	0	257949696	55	6326
2026-01-16 23:00:36.41	36.63	20.98	-42.5	-47.0	10.9	1.52e-03	0	59	0	260046848	55	6471
2026-01-16 23:00:37.43	36.76	21.10	-42.5	-46.9	11.1	1.56e-03	0	59	0	262144000	55	6370
2026-01-16 23:00:38.44	36.90	21.22	-42.5	-47.0	11.1	1.31e-03	0	59	0	264241152	55	6425
2026-01-16 23:00:39.45	37.03	21.34	-42.5	-47.1	10.9	1.64e-03	0	59	0	266338304	55	6510
2026-01-16 23:00:40.45	37.16	21.45	-42.5	-47.0	11.0	1.94e-03	0	59	0	267386880	55	6483
2026-01-16 23:00:41.46	37.30	21.57	-42.6	-47.1	10.9	2.09e-03	0	59	0	269484032	55	6547
2026-01-16 23:00:42.47	37.44	21.69	-42.6	-47.3	10.8	2.13e-03	0	59	0	271581184	55	6652
2026-01-16 23:00:43.48	37.58	21.81	-42.6	-47.3	10.7	2.76e-03	0	59	0	273678336	55	6705
2026-01-16 23:00:44.49	37.72	21.93	-42.6	-47.3	10.7	2.19e-03	0	59	0	275775488	55	6705
2026-01-16 23:00:45.50	37.86	22.06	-42.6	-47.2	10.8	2.23e-03	0	59	0	276824064	55	6625
2026-01-16 23:00:46.51	38.00	22.18	-42.6	-47.3	10.8	2.65e-03	0	59	0	278921216	55	6658
2026-01-16 23:00:47.53	38.15	22.30	-42.5	-46.9	11.1	1.57e-03	0	59	0	281018368	55	6411
2026-01-16 23:00:48.53	38.29	22.42	-42.5	-47.0	11.1	1.57e-03	0	59	0	283115520	55	6443
2026-01-16 23:00:49.54	38.44	22.55	-42.4	-46.8	11.3	1.45e-03	0	59	0	285212672	55	6304
2026-01-16 23:00:50.55	38.58	22.67	-42.3	-46.5	11.6	1.20e-03	0	59	0	286261248	55	6119
2026-01-16 23:00:51.56	38.73	22.79	-42.3	-46.5	11.6	8.32e-04	0	59	0	288358400	55	6083
2026-01-16 23:00:52.58	38.88	22.92	-42.3	-46.4	11.7	6.01e-04	0	59	0	290455552	55	6002
2026-01-16 23:00:53.59	39.03	23.04	-42.2	-46.2	12.0	5.74e-04	0	59	0	292552704	55	5858
2026-01-16 23:00:54.60	39.18	23.17	-42.0	-45.9	12.2	1.98e-04	0	59	0	294649856	55	5687
2026-01-16 23:00:55.60	39.34	23.29	-42.0	-45.7	12.3	1.34e-04	0	59	0	295698432	55	5585
2026-01-16 23:00:56.61	39.49	23.42	-41.7	-45.3	12.9	7.32e-05	0	59	0	297795584	55	5303
2026-01-16 23:00:57.62	39.64	23.54	-41.7	-45.2	12.9	3.89e-05	0	59	0	299892736	55	5243
2026-01-16 23:00:58.63	39.80	23.67	-41.7	-45.2	13.0	4.57e-05	0	60	0	301989888	55	5231
2026-01-16 23:00:59.64	39.96	23.80	-41.7	-45.1	13.0	3.20e-05	0	59	0	304087040	55	5216
2026-01-16 23:01:00.65	40.12	23.93	-41.8	-45.4	12.8	5.56e-05	0	59	0	305135616	55	5370
2026-01-16 23:01:01.66	40.28	24.05	-41.9	-45.5	12.7	4.50e-05	0	59	0	307232768	55	5432
2026-01-16 23:01:02.67	40.44	24.18	-41.9	-45.7	12.5	9.99e-05	0	59	0	309329920	55	5551
2026-01-16 23:01:03.68	40.60	24.31	-42.1	-45.9	12.2	1.40e-04	0	59	0	311427072	55	5711
2026-01-16 23:01:04.68	40.76	24.44	-42.2	-46.1	12.0	2.90e-04	0	59	0	313524224	55	5848
2026-01-16 23:01:05.69	40.93	24.57	-42.3	-46.5	11.7	4.94e-04	0	59	0	315621376	55	6086
2026-01-16 23:01:06.70	41.09	24.70	-42.4	-46.6	11.6	5.08e-04	0	59	0	316669952	55	6156
2026-01-16 23:01:07.71	41.26	24.83	-42.3	-46.4	11.8	6.59e-04	0	59	0	318767104	55	6044
2026-01-16 23:01:08.72	41.43	24.96	-42.3	-46.4	11.8	6.78e-04	0	59	0	320864256	55	6044
2026-01-16 23:01:09.73	41.60	25.09	-42.3	-46.4	11.8	7.93e-04	0	59	0	322961408	55	6037
2026-01-16 23:01:10.74	41.77	25.22	-42.2	-46.1	12.1	3.97e-04	0	59	0	324009984	55	5834
2026-01-16 23:01:11.75	41.95	25.35	-42.3	-46.3	11.9	3.64e-04	0	59	0	326107136	55	5954
2026-01-16 23:01:12.76	42.12	25.49	-42.2	-46.1	12.1	2.38e-04	0	59	0	328204288	55	5810
2026-01-16 23:01:13.77	42.30	25.62	-42.1	-45.9	12.3	2.29e-04	0	60	0	330301440	55	5706
2026-01-16 23:01:14.77	42.47	25.75	-42.2	-46.0	12.2	2.57e-04	0	59	0	332398592	55	5770
2026-01-16 23:01:15.78	42.65	25.88	-42.3	-46.3	11.9	2.71e-04	0	59	0	333447168	55	5976
2026-01-16 23:01:16.79	42.83	26.02	-42.4	-46.5	11.7	5.35e-04	0	59	0	335544320	55	6079
2026-01-16 23:01:17.80	43.02	26.15	-42.6	-47.0	11.2	8.62e-04	0	59	0	337641472	55	6450
2026-01-16 23:01:18.81	43.20	26.29	-42.7	-47.2	11.0	1.43e-03	0	59	0	339738624	55	6590
2026-01-16 23:01:19.82	43.38	26.42	-42.9	-47.5	11.0	2.04e-03	0	59	0	341835776	56	6423
2026-01-16 23:01:20.83	43.57	26.56	-43.0	-47.8	10.6	2.87e-03	0	59	0	343932928	56	6698
2026-01-16 23:01:21.84	43.76	26.69	-43.0	-47.6	10.7	2.39e-03	0	59	0	344981504	56	6564
2026-01-16 23:01:22.85	43.95	26.83	-43.1	-47.8	10.5	2.46e-03	0	59	0	347078656	56	6712
2026-01-16 23:01:23.86	44.14	26.97	-43.0	-47.6	10.8	2.31e-03	0	59	0	349175808	56	6538
2026-01-16 23:01:24.87	44.33	27.10	-42.9	-47.4	11.0	1.87e-03	0	59	0	351272960	56	6350
2026-01-16 23:01:25.88	44.53	27.24	-42.8	-47.3	11.1	1.84e-03	0	59	0	353370112	56	6286
2026-01-16 23:01:26.89	44.72	27.38	-43.0	-47.7	10.8	2.35e-03	0	59	0	354418688	56	6582
2026-01-16 23:01:27.90	44.92	27.52	-43.0	-47.6	10.8	2.58e-03	0	60	0	356515840	56	6503
2026-01-16 23:01:28.90	45.12	27.65	-43.0	-47.8	10.6	2.38e-03	0	59	0	358612992	56	6656
2026-01-16 23:01:29.91	45.32	27.79	-43.2	-48.1	10.2	5.42e-03	0	59	0	360710144	57	6537
2026-01-16 23:01:30.93	45.53	27.93	-43.0	-47.8	10.7	4.58e-03	0	59	0	362807296	57	6278
2026-01-16 23:01:31.94	45.73	28.07	-43.2	-48.3	10.1	6.11e-03	0	59	0	363855872	57	6655
2026-01-16 23:01:32.94	45.94	28.21	-43.3	-48.4	9.9	8.08e-03	0	60	0	365953024	57	6784
2026-01-16 23:01:33.95	46.14	28.35	-43.4	-48.8	9.4	1.40e-02	0	60	0	368050176	57	7111
2026-01-16 23:01:34.96	46.35	28.49	-43.3	-48.4	9.9	1.11e-02	0	59	0	370147328	57	6782
2026-01-16 23:01:35.97	46.57	28.63	-43.3	-48.3	10.1	8.43e-03	0	59	0	372244480	57	6707
2026-01-16 23:01:36.98	46.78	28.77	-43.2	-48.1	10.2	7.00e-03	0	59	0	373293056	57	6554
2026-01-16 23:01:37.99	46.99	28.91	-43.2	-48.0	10.3	5.35e-03	0	60	0	375390208	57	6477
2026-01-16 23:01:39.00	47.21	29.05	-43.1	-47.8	10.6	4.25e-03	0	59	0	377487360	57	6280
2026-01-16 23:01:40.01	47.43	29.19	-43.0	-47.6	10.7	3.14e-03	0	60	0	379584512	57	6187
2026-01-16 23:01:41.02	47.65	29.34	-43.1	-48.0	10.4	4.42e-03	0	60	0	381681664	57	6439
2026-01-16 23:01:42.02	47.87	29.48	-43.1	-47.8	10.5	3.96e-03	0	59	0	382730240	57	6347
2026-01-16 23:01:43.03	48.10	29.62	-43.2	-48.0	10.4	4.28e-03	0	60	0	384827392	57	6472
2026-01-16 23:01:44.04	48.33	29.76	-43.1	-47.9	10.4	4.55e-03	0	60	0	386924544	57	6420
2026-01-16 23:01:45.05	48.55	29.90	-43.1	-47.8	10.6	3.48e-03	0	60	0	389021696	57	6328
2026-01-16 23:01:46.06	48.79	30.05	-43.0	-47.7	10.8	3.61e-03	0	59	0	391118848	57	6255
2026-01-16 23:01:47.07	49.02	30.19	-43.0	-47.6	10.8	3.21e-03	0	60	0	392167424	57	6163
2026-01-16 23:01:48.08	49.25	30.33	-42.9	-47.4	11.0	1.86e-03	0	60	0	394264576	57	6056
2026-01-16 23:01:49.09	49.49	30.48	-42.8	-47.0	11.4	1.15e-03	0	60	0	396361728	57	5771
2026-01-16 23:01:50.10	49.73	30.62	-42.7	-47.0	11.5	8.74e-04	0	60	0	398458880	57	5726
2026-01-16 23:01:51.11	49.97	30.77	-42.7	-46.8	11.7	6.14e-04	0	60	0	400556032	57	5639
2026-01-16 23:01:52.12	50.21	30.91	-42.8	-47.0	11.4	7.74e-04	0	60	0	401604608	57	5764
2026-01-16 23:01:53.13	50.46	31.06	-42.8	-47.2	11.3	1.04e-03	0	59	0	403701760	57	5888
2026-01-16 23:01:54.14	50.71	31.20	-43.0	-47.6	10.8	1.79e-03	0	60	0	405798912	57	6137
2026-01-16 23:01:55.15	50.96	31.34	-43.0	-47.6	10.8	2.51e-03	0	60	0	407896064	57	6189
2026-01-16 23:01:56.16	51.21	31.49	-43.1	-47.8	10.6	3.77e-03	0	60	0	409993216	57	6345
2026-01-16 23:01:57.17	51.46	31.63	-43.2	-48.0	10.4	3.33e-03	0	60	0	412090368	57	6450
2026-01-16 23:01:58.18	51.72	31.78	-43.1	-47.8	10.7	3.10e-03	0	59	0	413138944	57	6275
2026-01-16 23:01:59.19	51.98	31.93	-42.9	-47.4	11.0	2.69e-03	0	60	0	415236096	57	6001
2026-01-16 23:02:00.20	52.24	32.07	-43.0	-47.7	10.8	2.26e-03	0	60	0	417333248	57	6208
2026-01-16 23:02:01.21	52.50	32.22	-43.1	-47.8	10.5	3.87e-03	0	60	0	419430400	57	6278
2026-01-16 23:02:02.22	52.77	32.36	-43.2	-48.1	10.4	4.85e-03	0	60	0	421527552	57	6517
2026-01-16 23:02:03.23	53.04	32.51	-43.3	-48.3	10.2	5.92e-03	0	60	0	422576128	57	6647
2026-01-16 23:02:04.24	53.31	32.65	-43.3	-48.2	10.3	5.72e-03	0	60	0	424673280	57	6582
2026-01-16 23:02:05.25	53.58	32.80	-43.3	-48.3	10.1	6.10e-03	0	60	0	426770432	57	6681
2026-01-16 23:02:06.26	53.86	32.94	-43.4	-48.5	10.0	8.30e-03	0	60	0	428867584	57	6822
2026-01-16 23:02:07.27	54.14	33.09	-43.5	-49.0	9.4	1.10e-02	0	60	0	430964736	57	7215
2026-01-16 23:02:08.27	54.41	33.23	-43.6	-49.1	9.4	1.89e-02	0	60	0	432013312	57	7341
2026-01-16 23:02:09.28	54.70	33.38	-43.9	-50.0	8.5	3.10e-02	0	60	0	434110464	58	7698
2026-01-16 23:02:10.29	54.98	33.52	-44.0	-50.5	8.0	5.94e-02	0	60	0	436207616	58	8087
2026-01-16 23:02:11.30	55.27	33.67	-44.0	-50.6	7.9	6.01e-02	0	60	0	438304768	58	8197
2026-01-16 23:02:12.31	55.56	33.81	-43.9	-50.1	8.4	4.59e-02	0	60	0	440401920	58	7730
2026-01-16 23:02:13.32	55.85	33.96	-43.7	-49.2	9.2	2.60e-02	0	60	0	441450496	58	7004
2026-01-16 23:02:14.33	56.15	34.10	-43.5	-48.9	9.6	1.83e-02	0	60	0	443547648	58	6754
2026-01-16 23:02:15.34	56.45	34.25	-43.5	-48.8	9.7	1.36e-02	0	60	0	445644800	58	6677
2026-01-16 23:02:16.35	56.75	34.39	-43.5	-48.7	9.7	1.41e-02	0	60	0	447741952	58	6620
2026-01-16 23:02:17.36	57.05	34.54	-43.7	-49.3	9.1	1.48e-02	0	60	0	449839104	58	7120
2026-01-16 23:02:18.37	57.36	34.68	-43.7	-49.2	9.2	1.99e-02	0	60	0	450887680	58	7018
2026-01-16 23:02:19.38	57.66	34.83	-43.5	-48.6	9.8	1.06e-02	0	60	0	452984832	58	6555
2026-01-16 23:02:20.39	57.98	34.97	-43.4	-48.5	10.1	9.27e-03	0	60	0	455081984	58	6429
2026-01-16 23:02:21.40	58.29	35.11	-43.3	-48.2	10.2	1.10e-02	0	60	0	457179136	58	6229
2026-01-16 23:02:22.41	58.61	35.26	-43.5	-48.7	9.7	9.13e-03	0	60	0	459276288	58	6617
2026-01-16 23:02:23.42	58.93	35.40	-43.8	-49.4	9.0	1.46e-02	0	60	0	460324864	58	7183
2026-01-16 23:02:24.43	59.25	35.54	-43.9	-49.9	8.5	2.33e-02	0	60	0	462422016	58	7629
2026-01-16 23:02:25.43	59.57	35.68	-44.0	-50.4	8.1	5.36e-02	0	60	0	464519168	58	8077
2026-01-16 23:02:26.44	59.90	35.82	-44.1	-50.8	7.7	8.32e-02	0	60	0	466616320	58	8378
2026-01-16 23:02:27.45	60.23	35.97	-44.1	-50.6	7.8	7.79e-02	0	60	0	468713472	58	8220
2026-01-16 23:02:28.46	60.56	36.11	-44.2	-51.1	7.3	9.81e-02	0	60	0	469762048	59	8262
2026-01-16 23:02:29.47	60.90	36.25	-44.2	-50.9	7.6	1.22e-01	0	60	0	471859200	59	7999
2026-01-16 23:02:30.48	61.24	36.39	-44.1	-50.5	7.9	5.96e-02	0	60	0	473956352	59	7690
2026-01-16 23:02:31.49	61.58	36.53	-43.9	-50.0	8.6	4.17e-02	0	60	0	476053504	59	7285
2026-01-16 23:02:32.50	61.93	36.67	-43.9	-50.0	8.5	3.84e-02	0	60	0	478150656	59	7231
2026-01-16 23:02:33.51	62.27	36.80	-43.9	-50.0	8.3	4.09e-02	0	60	0	480247808	59	7247
2026-01-16 23:02:34.52	62.62	36.94	-44.0	-50.0	8.4	5.61e-02	0	60	0	481296384	59	7281
2026-01-16 23:02:35.53	62.98	37.08	-44.2	-50.7	7.7	7.88e-02	0	60	0	483393536	59	7897
2026-01-16 23:02:36.54	63.33	37.22	-44.3	-51.5	7.1	1.17e-01	0	60	0	485490688	59	8586
2026-01-16 23:02:37.55	63.69	37.35	-44.3	-51.4	7.2	1.39e-01	0	60	0	487587840	59	8488
2026-01-16 23:02:38.56	64.06	37.49	-44.2	-51.0	7.5	1.01e-01	0	60	0	489684992	59	8135
2026-01-16 23:02:39.57	64.42	37.62	-44.1	-50.6	7.8	8.74e-02	0	60	0	490733568	59	7758
2026-01-16 23:02:40.58	64.79	37.75	-43.9	-49.7	8.8	5.00e-02	0	60	0	492830720	59	6967
2026-01-16 23:02:41.59	65.16	37.89	-43.6	-49.0	9.5	1.74e-02	0	60	0	494927872	59	6475
2026-01-16 23:02:42.60	65.54	38.02	-43.5	-48.7	9.8	1.41e-02	0	60	0	497025024	59	6262
2026-01-16 23:02:43.61	65.92	38.15	-43.8	-49.4	9.1	1.43e-02	0	60	0	499122176	59	6728
2026-01-16 23:02:44.62	66.30	38.28	-44.0	-50.1	8.4	2.47e-02	0	60	0	500170752	59	7328
2026-01-16 23:02:45.63	66.68	38.41	-44.2	-50.8	7.7	6.81e-02	0	60	0	502267904	59	7938
2026-01-16 23:02:46.64	67.07	38.54	-44.3	-51.3	7.2	8.47e-02	0	60	0	504365056	59	8444
2026-01-16 23:02:47.65	67.46	38.67	-44.1	-50.4	8.1	1.10e-01	0	60	0	506462208	59	7623
2026-01-16 23:02:48.66	67.85	38.79	-43.8	-49.3	9.1	3.67e-02	0	60	0	508559360	59	6682
2026-01-16 23:02:49.67	68.25	38.92	-43.4	-48.3	10.2	1.06e-02	0	60	0	509607936	58	6322
2026-01-16 23:02:50.68	68.65	39.04	-43.2	-47.7	10.9	4.83e-03	0	60	0	511705088	58	5887
2026-01-16 23:02:51.69	69.05	39.17	-43.3	-48.0	10.6	2.45e-03	0	60	0	513802240	58	6109
2026-01-16 23:02:52.70	69.45	39.29	-43.5	-48.6	10.0	4.57e-03	0	60	0	515899392	58	6498
2026-01-16 23:02:53.71	69.86	39.41	-43.8	-49.6	9.0	1.77e-02	0	60	0	517996544	58	7305
2026-01-16 23:02:54.72	70.27	39.53	-44.3	-51.4	7.2	9.66e-02	0	60	0	519045120	59	8468
2026-01-16 23:02:55.73	70.69	39.65	-44.2	-50.8	7.5	1.09e-01	0	60	0	521142272	59	7957
2026-01-16 23:02:56.74	71.10	39.77	-43.9	-49.9	8.7	5.68e-02	0	60	0	523239424	59	7166
2026-01-16 23:02:57.75	71.52	39.88	-43.6	-48.8	9.7	1.58e-02	0	60	0	525336576	59	6324
2026-01-16 23:02:58.76	71.95	40.00	-43.4	-48.2	10.4	6.33e-03	0	60	0	527433728	58	6255
2026-01-16 23:02:59.76	72.37	40.11	-43.0	-47.4	11.2	2.19e-03	0	60	0	528482304	58	5713
2026-01-16 23:03:00.77	72.80	40.22	-42.9	-47.1	11.6	8.70e-04	0	60	0	530579456	57	5812
2026-01-16 23:03:01.78	73.23	40.34	-42.9	-47.2	11.4	8.19e-04	0	60	0	532676608	57	5903
2026-01-16 23:03:02.79	73.66	40.44	-43.3	-48.1	10.5	2.30e-03	0	60	0	534773760	57	6535
2026-01-16 23:03:03.81	74.10	40.55	-43.4	-48.4	10.1	6.22e-03	0	60	0	536870912	57	6761
2026-01-16 23:03:04.81	74.54	40.66	-43.5	-48.6	10.0	6.47e-03	0	60	0	537919488	57	6905
2026-01-16 23:03:05.83	74.99	40.76	-43.3	-48.0	10.5	4.45e-03	0	60	0	540016640	57	6457
2026-01-16 23:03:06.83	75.43	40.87	-43.3	-48.1	10.6	5.00e-03	0	60	0	542113792	57	6501
2026-01-16 23:03:07.84	75.88	40.97	-43.2	-47.8	10.8	1.90e-03	0	60	0	544210944	57	6295
2026-01-16 23:03:08.85	76.33	41.07	-42.8	-47.0	11.5	1.22e-03	0	60	0	546308096	57	5754
2026-01-16 23:03:09.86	76.79	41.17	-42.9	-47.1	11.5	8.86e-04	0	60	0	548405248	57	5836
2026-01-16 23:03:10.87	77.24	41.26	-43.3	-48.0	10.6	2.48e-03	0	60	0	549453824	57	6456
2026-01-16 23:03:11.88	77.70	41.36	-43.6	-48.8	9.8	1.04e-02	0	60	0	551550976	57	7099
2026-01-16 23:03:12.89	78.17	41.45	-44.0	-50.1	8.5	2.78e-02	0	60	0	553648128	58	7724
2026-01-16 23:03:13.90	78.63	41.54	-44.0	-50.3	8.1	4.69e-02	0	60	0	555745280	58	7901
2026-01-16 23:03:14.91	79.10	41.63	-43.9	-49.7	8.8	3.22e-02	0	60	0	557842432	58	7403
2026-01-16 23:03:15.92	79.57	41.72	-43.8	-49.5	9.0	2.99e-02	0	60	0	558891008	58	7243
2026-01-16 23:03:16.92	80.04	41.80	-43.7	-49.2	9.3	1.86e-02	0	60	0	560988160	58	7040
2026-01-16 23:03:17.94	80.52	41.89	-43.8	-49.2	9.4	2.72e-02	0	60	0	563085312	58	7024
2026-01-16 23:03:18.94	80.99	41.97	-43.7	-49.1	9.4	1.95e-02	0	60	0	565182464	58	6945
2026-01-16 23:03:19.95	81.47	42.05	-43.5	-48.6	9.9	1.21e-02	0	60	0	567279616	58	6529
2026-01-16 23:03:20.96	81.95	42.13	-43.7	-49.0	9.6	9.94e-03	0	60	0	568328192	58	6818
2026-01-16 23:03:21.97	82.44	42.20	-43.7	-49.1	9.5	1.56e-02	0	60	0	570425344	58	6888
2026-01-16 23:03:22.98	82.93	42.27	-43.9	-49.9	8.6	2.48e-02	0	60	0	572522496	58	7584
2026-01-16 23:03:23.99	83.42	42.35	-43.8	-49.6	9.0	2.69e-02	0	60	0	574619648	58	7308
2026-01-16 23:03:25.00	83.91	42.41	-43.7	-49.1	9.5	2.07e-02	0	60	0	576716800	58	6927
2026-01-16 23:03:26.01	84.40	42.48	-43.6	-48.9	9.6	1.40e-02	0	60	0	577765376	58	6791
2026-01-16 23:03:27.02	84.90	42.55	-43.6	-48.9	9.6	1.24e-02	0	60	0	579862528	58	6732
2026-01-16 23:03:28.03	85.39	42.61	-43.7	-49.0	9.5	1.60e-02	0	60	0	581959680	58	6873
2026-01-16 23:03:29.04	85.89	42.67	-43.6	-48.7	9.9	1.26e-02	0	60	0	584056832	58	6573
2026-01-16 23:03:30.05	86.39	42.73	-43.5	-48.5	10.2	6.41e-03	0	60	0	586153984	58	6437
2026-01-16 23:03:31.06	86.90	42.78	-43.3	-48.1	10.5	4.44e-03	0	60	0	587202560	58	6153
2026-01-16 23:03:32.07	87.40	42.83	-43.5	-48.5	10.2	4.36e-03	0	60	0	589299712	58	6429
2026-01-16 23:03:33.08	87.91	42.89	-43.5	-48.5	10.0	7.24e-03	0	60	0	591396864	58	6471
2026-01-16 23:03:34.09	88.41	42.93	-43.4	-48.3	10.4	7.59e-03	0	60	0	593494016	58	6284
2026-01-16 23:03:35.10	88.92	42.98	-43.3	-47.9	10.8	3.33e-03	0	60	0	595591168	58	6012
2026-01-16 23:03:36.11	89.43	43.02	-43.2	-47.9	10.6	2.10e-03	0	60	0	596639744	58	6015
2026-01-16 23:03:37.12	89.95	43.06	-43.5	-48.4	10.2	4.67e-03	0	60	0	598736896	58	6410
2026-01-16 23:03:38.13	90.46	43.10	-43.8	-49.5	9.0	1.62e-02	0	60	0	600834048	58	7229
2026-01-16 23:03:39.14	90.97	43.14	-43.8	-49.3	9.3	2.33e-02	0	60	0	602931200	58	7045
2026-01-16 23:03:40.15	91.49	43.17	-43.4	-48.4	10.2	7.74e-03	0	60	0	605028352	58	6350
2026-01-16 23:03:41.16	92.01	43.20	-43.1	-47.6	11.0	2.56e-03	0	60	0	606076928	58	5843
2026-01-16 23:03:42.17	92.53	43.23	-43.2	-47.7	10.9	1.85e-03	0	60	0	608174080	58	5893
2026-01-16 23:03:43.17	93.04	43.26	-43.2	-47.7	11.0	1.85e-03	0	60	0	610271232	58	5892
2026-01-16 23:03:44.18	93.56	43.28	-43.2	-47.7	10.8	2.77e-03	0	60	0	612368384	58	5910
2026-01-16 23:03:45.19	94.08	43.30	-43.1	-47.4	11.3	1.51e-03	0	60	0	614465536	58	5702
2026-01-16 23:03:46.20	94.60	43.32	-43.0	-47.3	11.4	1.07e-03	0	60	0	616562688	57	5946
2026-01-16 23:03:47.21	95.12	43.34	-43.2	-47.7	11.0	1.67e-03	0	60	0	617611264	57	6249
2026-01-16 23:03:48.22	95.64	43.35	-43.0	-47.2	11.5	1.19e-03	0	60	0	619708416	57	5895
2026-01-16 23:03:49.23	96.16	43.36	-42.8	-46.8	11.8	9.50e-04	0	60	0	621805568	57	5639
2026-01-16 23:03:50.24	96.69	43.37	-42.4	-46.2	12.6	1.16e-04	0	60	0	623902720	56	5534
2026-01-16 23:03:51.25	97.21	43.37	-42.2	-45.6	13.1	4.27e-05	0	60	0	625999872	56	5214
2026-01-16 23:03:52.26	97.73	43.38	-42.2	-45.7	13.1	1.75e-05	0	60	0	627048448	56	5233
2026-01-16 23:03:53.27	98.26	43.38	-42.6	-46.4	12.4	8.85e-05	0	60	0	629145600	56	5673
2026-01-16 23:03:54.28	98.78	43.38	-43.2	-47.8	11.0	8.85e-04	0	60	0	631242752	56	6662
2026-01-16 23:03:55.29	99.30	43.37	-43.7	-49.0	9.6	8.11e-03	0	60	0	633339904	57	7264
2026-01-16 23:03:56.30	99.82	43.36	-43.4	-48.3	10.3	8.07e-03	0	60	0	635437056	57	6651
2026-01-16 23:03:57.31	100.35	43.35	-42.9	-47.1	11.5	1.59e-03	0	60	0	636485632	57	5844
2026-01-16 23:03:58.31	100.86	43.34	-43.0	-47.4	11.3	7.67e-04	0	60	0	638582784	57	6003
2026-01-16 23:03:59.32	101.38	43.32	-43.5	-48.7	10.0	1.96e-03	0	60	0	640679936	57	6973
2026-01-16 23:04:00.33	101.91	43.31	-43.7	-49.0	9.6	1.38e-02	0	60	0	642777088	58	6856
2026-01-16 23:04:01.34	102.43	43.29	-43.4	-48.4	10.2	1.13e-02	0	60	0	644874240	58	6352
2026-01-16 23:04:02.35	102.95	43.26	-43.0	-47.2	11.5	2.09e-03	0	60	0	645922816	57	5896
2026-01-16 23:04:03.36	103.46	43.24	-43.0	-47.3	11.4	6.45e-04	0	60	0	648019968	57	5926
2026-01-16 23:04:04.37	103.98	43.21	-43.4	-48.3	10.5	2.16e-03	0	61	0	650117120	57	6683
2026-01-16 23:04:05.38	104.50	43.18	-43.7	-49.0	9.6	9.50e-03	0	61	0	652214272	58	6845
2026-01-16 23:04:06.39	105.02	43.15	-43.4	-48.1	10.5	6.03e-03	0	60	0	654311424	58	6181
2026-01-16 23:04:07.40	105.53	43.11	-43.3	-48.0	10.8	1.81e-03	0	60	0	655360000	58	6068
2026-01-16 23:04:08.41	106.05	43.07	-43.7	-49.0	9.7	2.49e-03	0	61	0	657457152	58	6821
2026-01-16 23:04:09.41	106.55	43.03	-44.4	-51.3	7.4	7.00e-02	0	61	0	659554304	59	8396
2026-01-16 23:04:10.42	107.06	42.99	-44.7	-53.2	5.8	2.86e-01	0	60	0	661651456	59	10469
2026-01-16 23:04:11.43	107.57	42.94	-44.5	-52.3	6.5	2.61e-01	0	60	0	663748608	60	8935
2026-01-16 23:04:12.44	108.08	42.89	-44.2	-51.2	7.6	1.25e-01	0	61	0	664797184	60	7829
2026-01-16 23:04:13.45	108.59	42.84	-44.0	-50.2	8.4	4.48e-02	0	60	0	666894336	59	7431
2026-01-16 23:04:14.46	109.10	42.79	-43.8	-49.5	9.1	3.11e-02	0	61	0	668991488	59	6820
2026-01-16 23:04:15.47	109.60	42.74	-43.9	-49.8	8.8	2.35e-02	0	60	0	671088640	59	7072
2026-01-16 23:04:16.48	110.10	42.68	-43.9	-49.6	9.0	2.51e-02	0	60	0	673185792	59	6924
2026-01-16 23:04:17.49	110.60	42.62	-43.8	-49.4	9.2	1.99e-02	0	60	0	674234368	59	6767
2026-01-16 23:04:18.49	111.10	42.56	-43.8	-49.2	9.3	1.66e-02	0	60	0	676331520	59	6635
2026-01-16 23:04:19.50	111.59	42.49	-44.3	-51.1	7.5	3.74e-02	0	60	0	678428672	59	8181
2026-01-16 23:04:20.51	112.09	42.43	-44.6	-52.4	6.4	1.39e-01	0	60	0	680525824	59	9520
2026-01-16 23:04:21.52	112.58	42.36	-44.5	-51.9	6.7	2.50e-01	0	60	0	682622976	59	9063
2026-01-16 23:04:22.54	113.07	42.29	-44.3	-51.2	7.4	1.31e-01	0	61	0	683671552	59	8358
2026-01-16 23:04:23.55	113.56	42.21	-44.2	-50.6	7.7	9.58e-02	0	60	0	685768704	59	7807
2026-01-16 23:04:24.55	114.04	42.14	-44.0	-50.1	8.6	5.06e-02	0	60	0	687865856	59	7303
2026-01-16 23:04:25.57	114.53	42.06	-43.7	-48.9	9.8	1.27e-02	0	60	0	689963008	59	6416
2026-01-16 23:04:26.57	115.01	41.98	-43.8	-49.3	9.4	1.25e-02	0	61	0	692060160	59	6648
2026-01-16 23:04:27.58	115.49	41.90	-44.1	-50.2	8.5	2.82e-02	0	60	0	693108736	59	7445
2026-01-16 23:04:28.59	115.97	41.82	-44.0	-50.0	8.6	3.34e-02	0	61	0	695205888	59	7257
2026-01-16 23:04:29.60	116.44	41.73	-43.7	-49.0	9.7	2.14e-02	0	60	0	697303040	59	6453
2026-01-16 23:04:30.61	116.91	41.65	-43.1	-47.5	11.2	4.40e-03	0	60	0	699400192	58	5746
2026-01-16 23:04:31.62	117.38	41.56	-42.8	-46.9	11.8	8.89e-04	0	61	0	701497344	57	5714
2026-01-16 23:04:32.63	117.85	41.47	-43.0	-47.2	11.4	9.52e-04	0	61	0	702545920	57	5911
2026-01-16 23:04:33.64	118.31	41.37	-43.3	-47.9	10.7	2.59e-03	0	60	0	704643072	57	6404
2026-01-16 23:04:34.65	118.77	41.28	-43.1	-47.6	11.1	2.52e-03	0	61	0	706740224	57	6186
2026-01-16 23:04:35.66	119.23	41.18	-42.8	-46.8	11.9	4.82e-04	0	61	0	708837376	57	5619
2026-01-16 23:04:36.66	119.68	41.08	-42.3	-45.9	12.9	6.25e-05	0	61	0	710934528	56	5368
2026-01-16 23:04:37.67	120.14	40.98	-42.8	-47.0	11.8	1.05e-04	0	60	0	713031680	56	6066
2026-01-16 23:04:38.68	120.59	40.88	-43.5	-48.5	10.2	4.12e-03	0	61	0	714080256	57	6847
2026-01-16 23:04:39.69	121.03	40.78	-43.5	-48.6	10.0	8.12e-03	0	60	0	716177408	57	6955
2026-01-16 23:04:40.70	121.48	40.67	-43.3	-48.1	10.5	5.56e-03	0	61	0	718274560	57	6566
2026-01-16 23:04:41.71	121.92	40.57	-42.8	-47.0	11.7	7.70e-04	0	61	0	720371712	57	5732
2026-01-16 23:04:42.72	122.36	40.46	-42.7	-46.7	12.0	2.38e-04	0	61	0	722468864	57	5557
2026-01-16 23:04:43.73	122.80	40.35	-42.7	-46.7	12.1	2.91e-04	0	61	0	723517440	57	5535
2026-01-16 23:04:44.74	123.23	40.24	-42.6	-46.5	12.3	2.96e-04	0	61	0	725614592	57	5413
2026-01-16 23:04:45.75	123.66	40.13	-42.4	-46.0	12.8	3.89e-05	0	61	0	727711744	56	5425
2026-01-16 23:04:46.76	124.09	40.01	-42.3	-45.8	13.0	5.49e-05	0	60	0	729808896	56	5327
2026-01-16 23:04:47.77	124.51	39.90	-42.6	-46.4	12.4	6.56e-05	0	60	0	731906048	56	5708
2026-01-16 23:04:48.78	124.93	39.78	-42.8	-46.8	11.9	3.93e-04	0	61	0	732954624	56	5982
2026-01-16 23:04:49.79	125.35	39.66	-43.0	-47.3	11.5	7.06e-04	0	60	0	735051776	56	6329
2026-01-16 23:04:50.79	125.76	39.55	-43.1	-47.5	11.3	9.85e-04	0	60	0	737148928	56	6490
2026-01-16 23:04:51.80	126.18	39.42	-43.2	-47.9	10.8	1.97e-03	0	61	0	739246080	57	6402
2026-01-16 23:04:52.82	126.59	39.30	-42.9	-47.1	11.6	1.24e-03	0	60	0	741343232	57	5837
2026-01-16 23:04:53.82	126.99	39.18	-42.4	-46.0	12.8	1.96e-04	0	60	0	742391808	56	5442
2026-01-16 23:04:54.83	127.40	39.06	-42.0	-45.4	13.4	1.75e-05	0	60	0	744488960	56	5067
2026-01-16 23:04:55.84	127.80	38.93	-42.1	-45.5	13.3	1.90e-05	0	61	0	746586112	56	5124
2026-01-16 23:04:56.85	128.20	38.81	-42.2	-45.8	13.0	2.44e-05	0	60	0	748683264	56	5299
2026-01-16 23:04:57.86	128.59	38.68	-42.5	-46.2	12.5	6.10e-05	0	60	0	750780416	56	5586
2026-01-16 23:04:58.87	128.98	38.55	-42.6	-46.6	12.3	1.72e-04	0	61	0	751828992	56	5802
2026-01-16 23:04:59.88	129.37	38.42	-42.7	-46.7	12.0	2.13e-04	0	60	0	753926144	56	5895
2026-01-16 23:05:00.89	129.75	38.29	-42.6	-46.5	12.2	2.63e-04	0	61	0	756023296	56	5766
2026-01-16 23:05:01.90	130.14	38.16	-42.0	-45.3	13.4	4.19e-05	0	60	0	758120448	56	5027
2026-01-16 23:05:02.91	130.52	38.03	-41.6	-44.8	13.9	6.10e-06	0	60	0	760217600	55	4989
2026-01-16 23:05:03.92	130.89	37.90	-41.4	-44.4	14.3	2.20e-06	0	61	0	761266176	54	5048
2026-01-16 23:05:04.93	131.27	37.76	-41.6	-44.7	13.9	3.80e-06	0	60	0	763363328	54	5279
2026-01-16 23:05:05.94	131.64	37.63	-41.6	-44.7	13.9	6.80e-06	0	61	0	765460480	54	5271
2026-01-16 23:05:06.95	132.00	37.49	-41.1	-43.9	14.7	7.00e-07	0	61	0	767557632	54	4805
2026-01-16 23:05:07.96	132.37	37.36	-40.9	-43.5	15.1	0.00e+00	0	61	0	769654784	53	4866
2026-01-16 23:05:08.97	132.73	37.22	-40.8	-43.4	15.2	0.00e+00	0	61	0	770703360	53	4803
2026-01-16 23:05:09.98	133.09	37.08	-41.0	-43.8	14.9	0.00e+00	0	60	0	772800512	53	4990
2026-01-16 23:05:10.99	133.44	36.95	-41.0	-43.8	14.9	7.00e-07	0	61	0	774897664	53	4990
2026-01-16 23:05:12.00	133.80	36.81	-41.1	-43.9	14.7	0.00e+00	0	61	0	776994816	53	5078
2026-01-16 23:05:13.01	134.14	36.67	-40.9	-43.6	15.0	0.00e+00	0	60	0	779091968	53	4901
2026-01-16 23:05:14.02	134.49	36.53	-40.9	-43.6	15.0	0.00e+00	0	60	0	781189120	53	4913
2026-01-16 23:05:15.03	134.83	36.39	-41.1	-44.0	14.6	0.00e+00	0	60	0	782237696	53	5141
2026-01-16 23:05:16.03	135.17	36.25	-41.6	-44.8	13.9	7.00e-07	0	61	0	784334848	53	5649
2026-01-16 23:05:17.04	135.51	36.11	-42.2	-45.8	12.8	1.75e-05	0	60	0	786432000	55	5644
2026-01-16 23:05:18.05	135.85	35.97	-42.3	-46.1	12.5	9.30e-05	0	61	0	788529152	55	5828
2026-01-16 23:05:19.06	136.18	35.83	-42.2	-45.8	12.7	1.18e-04	0	60	0	790626304	55	5631
2026-01-16 23:05:20.07	136.51	35.68	-41.4	-44.5	14.2	9.90e-06	0	61	0	791674880	54	5106
2026-01-16 23:05:21.08	136.83	35.54	-41.2	-44.1	14.6	0.00e+00	0	60	0	793772032	54	4884
2026-01-16 23:05:22.09	137.16	35.40	-41.4	-44.4	14.2	0.00e+00	0	61	0	795869184	54	5081
2026-01-16 23:05:23.10	137.48	35.25	-42.0	-45.5	13.1	3.00e-06	0	61	0	797966336	54	5768
2026-01-16 23:05:24.11	137.80	35.11	-42.5	-46.6	12.0	2.47e-04	0	61	0	800063488	55	6141
2026-01-16 23:05:25.12	138.11	34.96	-42.5	-46.5	12.1	3.55e-04	0	60	0	801112064	55	6096
2026-01-16 23:05:26.13	138.42	34.82	-42.0	-45.5	13.1	5.72e-05	0	61	0	803209216	55	5442
2026-01-16 23:05:27.14	138.73	34.68	-41.6	-44.8	13.8	6.10e-06	0	60	0	805306368	55	5009
2026-01-16 23:05:28.15	139.04	34.53	-41.7	-44.9	13.7	5.30e-06	0	61	0	807403520	54	5391
2026-01-16 23:05:29.16	139.35	34.39	-42.1	-45.7	12.9	1.75e-05	0	60	0	809500672	54	5884
2026-01-16 23:05:30.17	139.65	34.24	-43.0	-47.3	11.4	1.62e-04	0	61	0	810549248	56	6311
2026-01-16 23:05:31.18	139.95	34.09	-43.5	-48.7	9.9	5.80e-03	0	60	0	812646400	57	7025
2026-01-16 23:05:32.19	140.24	33.95	-43.4	-48.4	10.2	8.58e-03	0	61	0	814743552	57	6755
2026-01-16 23:05:33.20	140.54	33.80	-42.6	-46.5	12.2	1.63e-03	0	61	0	816840704	57	5434
2026-01-16 23:05:34.21	140.83	33.66	-41.7	-44.9	13.6	9.10e-06	0	60	0	818937856	55	5099
2026-01-16 23:05:35.22	141.12	33.51	-41.6	-44.8	13.8	6.80e-06	0	60	0	819986432	55	5015
2026-01-16 23:05:36.23	141.40	33.36	-42.0	-45.6	13.0	1.44e-05	0	60	0	822083584	55	5466
2026-01-16 23:05:37.24	141.69	33.22	-43.1	-47.6	11.1	7.80e-04	0	61	0	824180736	56	6532
2026-01-16 23:05:38.24	141.97	33.07	-43.9	-49.8	8.8	1.70e-02	0	60	0	826277888	58	7502
2026-01-16 23:05:39.25	142.25	32.93	-43.7	-49.3	9.3	2.53e-02	0	61	0	828375040	58	7082
2026-01-16 23:05:40.26	142.52	32.78	-43.2	-47.8	10.8	4.30e-03	0	61	0	829423616	58	5931
2026-01-16 23:05:41.27	142.80	32.63	-42.7	-46.8	11.9	8.34e-04	0	60	0	831520768	57	5618
2026-01-16 23:05:42.28	143.07	32.49	-42.4	-46.1	12.6	4.00e-04	0	61	0	833617920	56	5495
2026-01-16 23:05:43.29	143.34	32.34	-42.6	-46.5	12.2	8.39e-05	0	61	0	835715072	56	5728
2026-01-16 23:05:44.30	143.60	32.20	-43.1	-47.6	11.1	1.00e-03	0	60	0	837812224	56	6553
2026-01-16 23:05:45.31	143.87	32.05	-43.8	-49.6	8.9	8.05e-03	0	61	0	838860800	58	7312
2026-01-16 23:05:46.32	144.13	31.90	-44.2	-50.9	7.6	4.84e-02	0	61	0	840957952	58	8522
2026-01-16 23:05:47.33	144.39	31.76	-43.9	-49.9	8.6	5.59e-02	0	60	0	843055104	58	7585
2026-01-16 23:05:48.34	144.65	31.61	-43.3	-48.2	10.3	1.67e-02	0	61	0	845152256	58	6209
2026-01-16 23:05:49.35	144.90	31.46	-42.7	-46.7	11.8	1.64e-03	0	61	0	847249408	57	5591
2026-01-16 23:05:50.36	145.16	31.32	-42.3	-45.9	12.7	8.16e-05	0	61	0	848297984	56	5394
2026-01-16 23:05:51.37	145.41	31.17	-42.2	-45.8	12.9	4.65e-05	0	61	0	850395136	56	5301
2026-01-16 23:05:52.38	145.66	31.03	-42.2	-45.8	12.9	3.66e-05	0	60	0	852492288	56	5300
2026-01-16 23:05:53.39	145.90	30.88	-42.8	-47.0	11.6	1.17e-04	0	61	0	854589440	56	6114
2026-01-16 23:05:54.40	146.15	30.74	-43.1	-47.7	11.0	2.04e-03	0	61	0	856686592	56	6603
2026-01-16 23:05:55.40	146.39	30.59	-43.2	-47.9	10.6	3.54e-03	0	61	0	858783744	57	6420
2026-01-16 23:05:56.41	146.63	30.45	-42.6	-46.5	12.1	1.63e-03	0	61	0	859832320	57	5441
2026-01-16 23:05:57.43	146.87	30.30	-42.3	-45.9	12.7	6.02e-05	0	60	0	861929472	56	5399
2026-01-16 23:05:58.43	147.10	30.16	-42.3	-46.0	12.6	7.78e-05	0	61	0	864026624	56	5430
2026-01-16 23:05:59.44	147.33	30.02	-42.4	-46.3	12.3	1.11e-04	0	60	0	866123776	56	5597
2026-01-16 23:06:00.45	147.57	29.87	-42.7	-46.7	11.9	2.83e-04	0	61	0	868220928	56	5894
2026-01-16 23:06:01.46	147.80	29.73	-42.8	-47.1	11.5	6.44e-04	0	61	0	869269504	56	6177
2026-01-16 23:06:02.47	148.02	29.58	-43.2	-48.0	10.5	1.88e-03	0	61	0	871366656	56	6853
2026-01-16 23:06:03.48	148.25	29.44	-43.1	-47.8	10.7	3.59e-03	0	61	0	873463808	57	6331
2026-01-16 23:06:04.49	148.47	29.30	-42.7	-46.7	11.8	9.80e-04	0	61	0	875560960	57	5588
2026-01-16 23:06:05.50	148.69	29.15	-42.0	-45.5	13.1	1.24e-04	0	60	0	877658112	56	5101
2026-01-16 23:06:06.51	148.91	29.01	-41.4	-44.4	14.1	6.10e-06	0	61	0	878706688	54	5077
2026-01-16 23:06:07.52	149.13	28.87	-41.2	-44.2	14.3	7.00e-07	0	61	0	880803840	54	4967
2026-01-16 23:06:08.53	149.35	28.73	-41.2	-44.2	14.3	0.00e+00	0	60	0	882900992	54	4935
2026-01-16 23:06:09.54	149.56	28.59	-41.5	-44.6	13.9	3.80e-06	0	61	0	884998144	54	5186
2026-01-16 23:06:10.55	149.78	28.44	-42.1	-45.7	12.9	1.75e-05	0	61	0	887095296	54	5868
2026-01-16 23:06:11.56	149.99	28.30	-42.6	-46.7	11.7	2.55e-04	0	61	0	888143872	55	6223
2026-01-16 23:06:12.57	150.20	28.16	-43.1	-47.7	10.8	9.24e-04	0	60	0	890241024	56	6645
2026-01-16 23:06:13.58	150.40	28.02	-43.4	-48.7	9.7	6.03e-03	0	61	0	892338176	57	7014
2026-01-16 23:06:14.59	150.61	27.88	-43.5	-48.9	9.6	1.05e-02	0	60	0	894435328	57	7122
2026-01-16 23:06:15.60	150.81	27.74	-43.1	-47.9	10.5	8.11e-03	0	61	0	896532480	57	6409
2026-01-16 23:06:16.61	151.01	27.60	-42.9	-47.3	11.2	2.18e-03	0	61	0	897581056	57	5955
2026-01-16 23:06:17.62	151.21	27.46	-42.7	-47.0	11.6	1.10e-03	0	61	0	899678208	57	5735
2026-01-16 23:06:18.63	151.41	27.32	-42.6	-46.7	12.0	6.55e-04	0	61	0	901775360	57	5569
2026-01-16 23:06:19.64	151.61	27.19	-42.7	-46.8	11.7	4.33e-04	0	61	0	903872512	57	5631
2026-01-16 23:06:20.64	151.80	27.05	-42.8	-47.0	11.4	5.09e-04	0	61	0	905969664	57	5785
2026-01-16 23:06:21.65	152.00	26.91	-42.8	-47.0	11.5	7.25e-04	0	60	0	907018240	57	5770
2026-01-16 23:06:22.66	152.19	26.77	-42.9	-47.4	11.1	1.30e-03	0	61	0	909115392	57	6025
2026-01-16 23:06:23.67	152.38	26.64	-43.1	-47.8	10.6	2.34e-03	0	60	0	911212544	57	6287
2026-01-16 23:06:24.68	152.57	26.50	-42.8	-47.1	11.4	1.73e-03	0	61	0	913309696	57	5844
2026-01-16 23:06:25.69	152.75	26.36	-42.8	-47.1	11.5	8.95e-04	0	60	0	915406848	57	5803
2026-01-16 23:06:26.70	152.94	26.23	-42.3	-46.0	12.5	2.94e-04	0	61	0	916455424	56	5428
2026-01-16 23:06:27.71	153.12	26.09	-41.8	-45.2	13.1	4.50e-05	0	61	0	918552576	55	5261
2026-01-16 23:06:28.72	153.30	25.96	-41.6	-44.9	13.6	1.52e-05	0	61	0	920649728	55	5042
2026-01-16 23:06:29.73	153.49	25.82	-41.2	-44.2	14.2	1.50e-06	0	61	0	922746880	54	4958
2026-01-16 23:06:30.74	153.67	25.69	-41.3	-44.4	14.1	1.50e-06	0	61	0	924844032	54	5048
2026-01-16 23:06:31.75	153.84	25.55	-41.5	-44.7	13.7	5.30e-06	0	61	0	926941184	54	5246
2026-01-16 23:06:32.76	154.02	25.42	-41.7	-45.1	13.3	1.22e-05	0	60	0	927989760	54	5508
2026-01-16 23:06:33.76	154.19	25.29	-42.2	-46.1	12.2	9.53e-05	0	61	0	930086912	55	5795
2026-01-16 23:06:34.78	154.37	25.15	-42.6	-47.0	11.4	4.46e-04	0	60	0	932184064	55	6427
2026-01-16 23:06:35.79	154.54	25.02	-43.1	-48.0	10.5	3.06e-03	0	60	0	934281216	56	6816
2026-01-16 23:06:36.79	154.71	24.89	-43.4	-48.6	9.9	8.13e-03	0	61	0	936378368	57	6899
2026-01-16 23:06:37.81	154.88	24.76	-43.5	-49.1	9.3	1.37e-02	0	60	0	937426944	57	7310
2026-01-16 23:06:38.82	155.05	24.63	-43.5	-49.0	9.3	1.79e-02	0	60	0	939524096	57	7243
2026-01-16 23:06:39.83	155.22	24.50	-43.5	-48.9	9.5	1.79e-02	0	60	0	941621248	57	7189
2026-01-16 23:06:40.84	155.38	24.37	-43.3	-48.4	10.0	1.05e-02	0	61	0	943718400	57	6800
2026-01-16 23:06:41.85	155.55	24.24	-43.2	-48.2	10.2	5.80e-03	0	61	0	945815552	57	6592
2026-01-16 23:06:42.86	155.71	24.11	-43.1	-47.8	10.6	4.92e-03	0	61	0	946864128	57	6346
2026-01-16 23:06:43.87	155.87	23.98	-42.9	-47.5	11.0	2.85e-03	0	60	0	948961280	57	6076
2026-01-16 23:06:44.88	156.03	23.85	-42.6	-46.8	11.6	1.53e-03	0	61	0	951058432	57	5607
2026-01-16 23:06:45.89	156.19	23.72	-42.7	-46.9	11.6	5.73e-04	0	61	0	953155584	57	5665
2026-01-16 23:06:46.90	156.35	23.59	-42.4	-46.4	12.1	4.96e-04	0	60	0	955252736	56	5687
2026-01-16 23:06:47.91	156.50	23.46	-42.6	-46.8	11.7	3.50e-04	0	61	0	956301312	56	5967
2026-01-16 23:06:48.91	156.66	23.34	-42.7	-47.1	11.4	8.29e-04	0	61	0	958398464	56	6148
2026-01-16 23:06:49.92	156.81	23.21	-42.9	-47.4	11.0	1.25e-03	0	61	0	960495616	56	6400
2026-01-16 23:06:50.93	156.96	23.09	-43.3	-48.4	10.0	3.84e-03	0	61	0	962592768	57	6781
2026-01-16 23:06:51.94	157.11	22.96	-43.5	-49.1	9.2	2.02e-02	0	61	0	964689920	57	7361
2026-01-16 23:06:52.96	157.27	22.83	-43.8	-50.0	8.3	2.77e-02	0	61	0	965738496	58	7695
2026-01-16 23:06:53.97	157.41	22.71	-44.0	-50.7	7.7	6.26e-02	0	61	0	967835648	58	8299
2026-01-16 23:06:54.98	157.56	22.58	-43.9	-50.4	8.0	7.24e-02	0	61	0	969932800	58	8004
2026-01-16 23:06:55.98	157.71	22.46	-44.0	-50.7	7.7	7.98e-02	0	61	0	972029952	58	8299
2026-01-16 23:06:56.99	157.85	22.34	-43.9	-50.4	8.0	9.15e-02	0	61	0	974127104	58	8007
2026-01-16 23:06:58.00	158.00	22.21	-43.8	-50.1	8.2	5.86e-02	0	60	0	975175680	58	7765
2026-01-16 23:06:59.01	158.14	22.09	-43.6	-49.2	9.1	3.24e-02	0	61	0	977272832	58	7019
2026-01-16 23:07:00.02	158.28	21.97	-43.2	-48.2	10.2	9.84e-03	0	61	0	979369984	58	6226
2026-01-16 23:07:01.03	158.43	21.85	-43.1	-48.1	10.3	4.68e-03	0	61	0	981467136	58	6141
2026-01-16 23:07:02.04	158.57	21.72	-43.2	-48.1	10.2	7.83e-03	0	61	0	983564288	58	6186
2026-01-16 23:07:03.05	158.71	21.60	-43.0	-47.7	10.7	2.93e-03	0	61	0	984612864	57	6210
2026-01-16 23:07:04.06	158.84	21.48	-43.0	-47.8	10.6	2.34e-03	0	61	0	986710016	57	6289
2026-01-16 23:07:05.07	158.98	21.36	-42.8	-47.3	11.0	2.04e-03	0	61	0	988807168	57	5981
2026-01-16 23:07:06.08	159.12	21.24	-42.8	-47.2	11.2	1.10e-03	0	61	0	990904320	57	5857
2026-01-16 23:07:07.09	159.25	21.12	-42.9	-47.4	10.9	1.46e-03	0	61	0	993001472	57	6055
2026-01-16 23:07:08.10	159.39	21.00	-42.5	-46.5	11.9	5.40e-04	0	61	0	995098624	56	5775
2026-01-16 23:07:09.11	159.52	20.88	-42.3	-46.2	12.2	2.63e-04	0	61	0	996147200	56	5551
2026-01-16 23:07:10.12	159.65	20.76	-42.1	-45.7	12.6	1.69e-04	0	61	0	998244352	56	5248
2026-01-16 23:07:11.13	159.78	20.65	-41.6	-45.0	13.2	3.73e-05	0	60	0	1000341504	55	5116
2026-01-16 23:07:12.14	159.91	20.53	-41.7	-45.1	13.1	1.83e-05	0	61	0	1002438656	55	5209
2026-01-16 23:07:13.15	160.04	20.41	-41.5	-44.8	13.4	2.97e-05	0	61	0	1004535808	55	5025
2026-01-16 23:07:14.16	160.17	20.29	-41.6	-45.1	13.2	1.52e-05	0	60	0	1005584384	55	5162
2026-01-16 23:07:15.17	160.30	20.18	-41.9	-45.5	12.7	3.58e-05	0	61	0	1007681536	55	5434
2026-01-16 23:07:16.18	160.42	20.06	-41.9	-45.6	12.6	7.32e-05	0	60	0	1009778688	55	5475
2026-01-16 23:07:17.19	160.55	19.95	-42.1	-45.9	12.3	1.68e-04	0	61	0	1011875840	55	5716
2026-01-16 23:07:18.20	160.67	19.83	-42.4	-46.6	11.5	6.30e-04	0	61	0	1013972992	55	6182
2026-01-16 23:07:19.20	160.79	19.72	-42.6	-47.0	11.1	1.24e-03	0	61	0	1015021568	55	6478
2026-01-16 23:07:20.21	160.92	19.60	-43.0	-47.8	10.4	2.27e-03	0	61	0	1017118720	56	6681
2026-01-16 23:07:21.22	161.04	19.49	-43.0	-47.9	10.3	4.67e-03	0	61	0	1019215872	56	6766
2026-01-16 23:07:22.23	161.16	19.38	-43.2	-48.5	9.8	6.49e-03	0	60	0	1021313024	57	6835
2026-01-16 23:07:23.24	161.28	19.26	-43.2	-48.5	9.7	9.47e-03	0	61	0	1023410176	57	6824
2026-01-16 23:07:24.25	161.40	19.15	-43.2	-48.5	9.7	1.21e-02	0	61	0	1024458752	57	6833
2026-01-16 23:07:25.26	161.52	19.04	-43.2	-48.4	9.9	1.02e-02	0	61	0	1026555904	57	6725
2026-01-16 23:07:26.27	161.64	18.93	-43.2	-48.3	9.9	1.09e-02	0	61	0	1028653056	57	6719
2026-01-16 23:07:27.28	161.75	18.81	-43.1	-48.1	10.1	8.13e-03	0	61	0	1030750208	57	6516
2026-01-16 23:07:28.29	161.87	18.70	-42.9	-47.8	10.4	3.85e-03	0	61	0	1032847360	57	6281
2026-01-16 23:07:29.30	161.98	18.59	-42.8	-47.4	10.8	3.05e-03	0	61	0	1033895936	57	6057
2026-01-16 23:07:30.31	162.10	18.48	-42.7	-47.2	11.0	2.27e-03	0	61	0	1035993088	57	5871
2026-01-16 23:07:31.32	162.21	18.37	-42.6	-47.0	11.2	2.39e-03	0	61	0	1038090240	57	5780
2026-01-16 23:07:32.33	162.32	18.26	-42.6	-46.8	11.4	1.48e-03	0	61	0	1040187392	57	5644
2026-01-16 23:07:33.34	162.44	18.15	-42.5	-46.7	11.5	9.32e-04	0	60	0	1042284544	56	5918
2026-01-16 23:07:34.35	162.55	18.04	-42.5	-46.8	11.4	8.93e-04	0	61	0	1043333120	56	5953
2026-01-16 23:07:35.36	162.66	17.93	-42.6	-46.9	11.3	9.61e-04	0	61	0	1045430272	56	6033
2026-01-16 23:07:36.37	162.77	17.83	-42.6	-47.0	11.2	1.09e-03	0	61	0	1047527424	56	6091
2026-01-16 23:07:37.38	162.87	17.72	-42.7	-47.2	11.0	1.56e-03	0	61	0	1049624576	56	6230
2026-01-16 23:07:38.39	162.98	17.61	-42.7	-47.2	10.9	1.73e-03	0	61	0	1051721728	56	6270
2026-01-16 23:07:39.40	163.09	17.50	-42.8	-47.4	10.8	2.84e-03	0	61	0	1052770304	56	6367
2026-01-16 23:07:40.41	163.20	17.40	-42.8	-47.6	10.6	3.80e-03	0	61	0	1054867456	56	6496
2026-01-16 23:07:41.41	163.30	17.29	-43.0	-47.9	10.2	4.14e-03	0	61	0	1056964608	56	6735
2026-01-16 23:07:42.42	163.41	17.19	-43.1	-48.3	9.8	6.94e-03	0	61	0	1059061760	56	7052
2026-01-16 23:07:43.43	163.51	17.08	-43.2	-48.5	9.5	1.15e-02	0	60	0	1061158912	56	7264
2026-01-16 23:07:44.44	163.62	16.98	-43.3	-48.8	9.3	1.76e-02	0	61	0	1063256064	57	7104
2026-01-16 23:07:45.45	163.72	16.87	-43.3	-48.7	9.3	1.86e-02	0	61	0	1064304640	57	7004
2026-01-16 23:07:46.46	163.82	16.77	-43.2	-48.6	9.4	2.15e-02	0	61	0	1066401792	57	6945
2026-01-16 23:07:47.47	163.92	16.66	-43.3	-48.8	9.3	1.86e-02	0	60	0	1068498944	57	7046
2026-01-16 23:07:48.48	164.02	16.56	-43.3	-49.0	9.0	2.32e-02	0	61	0	1070596096	57	7212
2026-01-16 23:07:49.49	164.12	16.46	-43.3	-48.9	9.0	2.03e-02	0	61	0	1072693248	57	7199
2026-01-16 23:07:50.51	164.22	16.35	-43.3	-48.8	9.2	2.27e-02	0	61	0	1073741824	57	7050
2026-01-16 23:07:51.52	164.32	16.25	-43.2	-48.6	9.3	1.78e-02	0	61	0	1075838976	57	6906
2026-01-16 23:07:52.53	164.42	16.15	-43.2	-48.6	9.4	1.35e-02	0	61	0	1077936128	57	6905
2026-01-16 23:07:53.53	164.52	16.05	-43.1	-48.2	9.8	1.35e-02	0	61	0	1080033280	57	6610
2026-01-16 23:07:54.54	164.62	15.94	-43.0	-48.0	10.0	9.80e-03	0	61	0	1082130432	57	6467
2026-01-16 23:07:55.55	164.71	15.84	-42.9	-47.9	10.1	9.25e-03	0	61	0	1083179008	57	6367
2026-01-16 23:07:56.56	164.81	15.74	-42.9	-47.8	10.1	7.84e-03	0	61	0	1085276160	57	6334
2026-01-16 23:07:57.57	164.90	15.64	-42.8	-47.5	10.4	3.86e-03	0	61	0	1087373312	57	6092
2026-01-16 23:07:58.58	165.00	15.54	-42.7	-47.4	10.6	3.63e-03	0	61	0	1089470464	57	6022
2026-01-16 23:07:59.59	165.09	15.44	-42.7	-47.3	10.7	3.35e-03	0	61	0	1091567616	57	5946
2026-01-16 23:08:00.60	165.19	15.34	-42.7	-47.5	10.5	3.24e-03	0	61	0	1092616192	57	6081
2026-01-16 23:08:01.61	165.28	15.24	-42.7	-47.4	10.6	3.43e-03	0	60	0	1094713344	57	6017
2026-01-16 23:08:02.62	165.37	15.14	-42.5	-46.9	11.1	2.86e-03	0	61	0	1096810496	57	5684
2026-01-16 23:08:03.63	165.46	15.04	-42.6	-47.1	10.8	2.15e-03	0	61	0	1098907648	57	5842
2026-01-16 23:08:04.64	165.55	14.95	-42.6	-47.1	10.7	2.15e-03	0	61	0	1101004800	57	5811
2026-01-16 23:08:05.65	165.64	14.85	-42.6	-47.1	10.8	1.90e-03	0	60	0	1102053376	56	6169
2026-01-16 23:08:06.66	165.73	14.75	-42.7	-47.4	10.5	3.46e-03	0	60	0	1104150528	56	6419
2026-01-16 23:08:07.67	165.82	14.65	-42.7	-47.5	10.4	5.06e-03	0	61	0	1106247680	56	6467
2026-01-16 23:08:08.68	165.91	14.56	-42.7	-47.6	10.3	5.15e-03	0	61	0	1108344832	56	6538
2026-01-16 23:08:09.68	166.00	14.46	-42.7	-47.5	10.3	5.37e-03	0	61	0	1110441984	56	6490
2026-01-16 23:08:10.70	166.09	14.36	-42.6	-47.2	10.7	3.89e-03	0	61	0	1111490560	56	6268
2026-01-16 23:08:11.70	166.17	14.27	-42.7	-47.5	10.4	3.73e-03	0	61	0	1113587712	56	6464
2026-01-16 23:08:12.71	166.26	14.17	-42.7	-47.4	10.4	4.48e-03	0	61	0	1115684864	56	6418
2026-01-16 23:08:13.72	166.35	14.08	-42.6	-47.4	10.4	3.80e-03	0	61	0	1117782016	56	6402
2026-01-16 23:08:14.73	166.43	13.98	-42.7	-47.6	10.3	4.67e-03	0	61	0	1119879168	56	6495
2026-01-16 23:08:15.74	166.52	13.89	-42.5	-47.1	10.7	5.02e-03	0	61	0	1120927744	56	6171
2026-01-16 23:08:16.75	166.60	13.79	-42.6	-47.3	10.6	2.96e-03	0	61	0	1123024896	56	6287
2026-01-16 23:08:17.76	166.69	13.70	-42.5	-47.1	10.7	3.39e-03	0	61	0	1125122048	56	6173
2026-01-16 23:08:18.77	166.77	13.61	-42.4	-46.8	11.0	2.49e-03	0	61	0	1127219200	56	5971
2026-01-16 23:08:19.78	166.85	13.51	-42.3	-46.7	11.1	1.85e-03	0	60	0	1129316352	56	5908
2026-01-16 23:08:20.79	166.93	13.42	-42.2	-46.5	11.3	1.49e-03	0	61	0	1130364928	56	5775
2026-01-16 23:08:21.80	167.02	13.33	-42.3	-46.6	11.3	9.81e-04	0	61	0	1132462080	56	5802
2026-01-16 23:08:22.81	167.10	13.23	-42.2	-46.5	11.3	9.74e-04	0	61	0	1134559232	56	5780
2026-01-16 23:08:23.82	167.18	13.14	-42.1	-46.2	11.6	9.92e-04	0	61	0	1136656384	56	5566
2026-01-16 23:08:24.83	167.26	13.05	-42.2	-46.4	11.4	7.92e-04	0	60	0	1138753536	56	5682
2026-01-16 23:08:25.84	167.34	12.96	-42.1	-46.3	11.4	1.01e-03	0	61	0	1139802112	56	5602
2026-01-16 23:08:26.84	167.42	12.87	-42.2	-46.5	11.2	9.77e-04	0	61	0	1141899264	56	5767
2026-01-16 23:08:27.85	167.50	12.78	-42.2	-46.5	11.2	1.30e-03	0	61	0	1143996416	56	5762
2026-01-16 23:08:28.86	167.58	12.69	-42.2	-46.6	11.1	1.39e-03	0	61	0	1146093568	56	5789
2026-01-16 23:08:29.87	167.65	12.60	-42.3	-46.7	11.1	1.48e-03	0	60	0	1148190720	56	5870
2026-01-16 23:08:30.88	167.73	12.51	-42.3	-46.8	10.9	2.21e-03	0	61	0	1149239296	56	5932
2026-01-16 23:08:31.89	167.81	12.42	-42.4	-46.9	10.8	2.92e-03	0	60	0	1151336448	56	6046
2026-01-16 23:08:32.90	167.89	12.33	-42.5	-47.3	10.4	4.11e-03	0	61	0	1153433600	56	6319
2026-01-16 23:08:33.91	167.96	12.24	-42.7	-47.7	10.0	6.66e-03	0	61	0	1155530752	56	6578
