passes_logs/2026/01/16/R2.0S_Moscow/R2.0S_Moscow__20260116_221410_FENGYUN_3G_rec.log

#Pass ID: 20260116_221410_FENGYUN 3G
#Satellite: FENGYUN 3G
#Configuration: FENGYUN 3G
#almurnet v.1.7.20251203
#Start time: 2026-01-16 22:14:11

#Version: 2.2.20231116
#Station: R2.0S_Moscow
#Location: 37.707566 lon 55.798166 lat
#TLE: 1 56232U 23055A   26016.27117466  .00021245  00000+0  33355-3 0  9997
#TLE: 2 56232  49.9942  49.3739 0004180  33.4292 326.6938 15.53552571156398

#Time	Az	El	Level	Level2	SNR	BER	BlckErr	Temp	State	Recorded	gain1	gain2
2026-01-16 22:14:11.53	245.03	2.07	-44.3	-62.3	3.8	8.46e-01	0	51	0	0	60	28215
2026-01-16 22:14:12.53	244.97	2.13	-44.3	-62.3	3.8	8.44e-01	0	51	104	0	60	28248
2026-01-16 22:14:13.54	244.90	2.20	-44.3	-62.3	3.8	8.45e-01	0	52	104	0	60	28205
2026-01-16 22:14:14.55	244.84	2.27	-44.3	-62.3	3.8	8.45e-01	0	52	104	0	60	28230
2026-01-16 22:14:15.56	244.77	2.33	-44.3	-62.3	3.8	8.45e-01	0	52	104	0	60	28235
2026-01-16 22:14:16.57	244.71	2.40	-44.3	-62.3	3.8	8.46e-01	0	52	104	0	60	28255
2026-01-16 22:14:17.58	244.64	2.47	-44.3	-62.3	3.8	8.46e-01	0	52	104	0	60	28155
2026-01-16 22:14:18.59	244.58	2.54	-44.3	-62.3	3.8	8.46e-01	0	52	104	0	60	28160
2026-01-16 22:14:19.60	244.51	2.60	-44.3	-62.3	3.8	8.47e-01	0	52	104	0	60	28245
2026-01-16 22:14:20.61	244.44	2.67	-44.3	-62.2	3.8	8.46e-01	0	52	104	0	60	27980
2026-01-16 22:14:21.62	244.37	2.74	-44.2	-62.3	3.8	8.46e-01	0	52	104	0	60	28184
2026-01-16 22:14:22.63	244.30	2.81	-44.2	-62.2	3.8	8.46e-01	0	52	104	0	60	27879
2026-01-16 22:14:23.64	244.23	2.88	-44.2	-62.3	3.8	8.46e-01	0	52	104	0	60	28049
2026-01-16 22:14:24.65	244.16	2.95	-44.2	-62.2	3.8	8.46e-01	0	52	104	0	60	27908
2026-01-16 22:14:25.67	244.09	3.02	-44.2	-62.2	3.8	8.47e-01	0	52	104	0	60	27898
2026-01-16 22:14:26.68	244.02	3.09	-44.2	-62.3	3.8	8.46e-01	0	53	104	0	60	28044
2026-01-16 22:14:27.69	243.95	3.16	-44.2	-62.2	3.8	8.47e-01	0	52	104	0	60	27876
2026-01-16 22:14:28.70	243.88	3.22	-44.3	-62.2	3.8	8.47e-01	0	52	104	0	60	27722
2026-01-16 22:14:29.71	243.81	3.29	-44.2	-62.3	3.8	8.46e-01	0	53	104	0	60	28042
2026-01-16 22:14:30.72	243.74	3.37	-44.2	-62.2	3.8	8.47e-01	0	53	104	0	60	27929
2026-01-16 22:14:31.73	243.66	3.44	-44.2	-62.2	3.8	8.47e-01	0	53	104	0	60	27789
2026-01-16 22:14:32.74	243.59	3.51	-44.2	-62.3	3.8	8.45e-01	0	53	104	0	60	28084
2026-01-16 22:14:33.75	243.52	3.58	-44.2	-62.2	3.8	8.45e-01	0	53	104	0	60	28001
2026-01-16 22:14:34.76	243.44	3.65	-44.2	-62.2	3.8	8.45e-01	0	53	104	0	60	27940
2026-01-16 22:14:35.77	243.37	3.72	-44.2	-62.3	3.8	8.47e-01	0	53	104	0	60	28110
2026-01-16 22:14:36.78	243.29	3.79	-44.2	-62.3	3.8	8.46e-01	0	53	104	0	60	28045
2026-01-16 22:14:37.79	243.21	3.86	-44.2	-62.3	3.8	8.46e-01	0	53	104	0	60	28071
2026-01-16 22:14:38.80	243.14	3.94	-44.2	-62.3	3.8	8.46e-01	0	53	104	0	60	28213
2026-01-16 22:14:39.81	243.06	4.01	-44.2	-62.3	3.8	8.47e-01	0	53	104	0	60	28142
2026-01-16 22:14:40.82	242.98	4.08	-44.2	-62.2	3.8	8.47e-01	0	53	104	0	60	27983
2026-01-16 22:14:41.83	242.90	4.15	-44.2	-62.2	3.8	8.47e-01	0	53	104	0	60	28003
2026-01-16 22:14:42.84	242.82	4.23	-44.2	-62.2	3.8	8.46e-01	0	53	104	0	60	27919
2026-01-16 22:14:43.85	242.74	4.30	-44.2	-62.1	3.8	8.46e-01	0	53	104	0	60	27489
2026-01-16 22:14:44.87	242.66	4.38	-44.2	-62.1	3.8	8.46e-01	0	53	104	0	60	27664
2026-01-16 22:14:45.88	242.58	4.45	-44.2	-62.1	3.8	8.46e-01	0	53	104	0	60	27468
2026-01-16 22:14:46.89	242.50	4.52	-44.2	-61.8	3.8	8.45e-01	0	53	104	0	60	26671
2026-01-16 22:14:47.90	242.42	4.60	-44.2	-61.8	3.8	8.45e-01	0	54	104	0	60	26698
2026-01-16 22:14:48.91	242.34	4.67	-44.2	-61.8	3.8	8.46e-01	0	54	104	0	60	26606
2026-01-16 22:14:49.92	242.25	4.75	-44.2	-61.7	3.8	8.45e-01	0	54	104	0	60	26362
2026-01-16 22:14:50.93	242.17	4.82	-44.2	-61.6	3.8	8.45e-01	0	54	104	0	60	26054
2026-01-16 22:14:51.94	242.09	4.90	-44.2	-61.6	3.8	8.45e-01	0	54	104	0	60	26032
2026-01-16 22:14:52.95	242.00	4.98	-44.2	-61.6	3.8	8.46e-01	0	54	104	0	60	25866
2026-01-16 22:14:53.96	241.91	5.05	-44.2	-61.3	3.8	8.46e-01	0	54	104	0	60	25206
2026-01-16 22:14:54.98	241.83	5.13	-44.2	-61.1	3.8	8.46e-01	0	54	104	0	60	24426
2026-01-16 22:14:55.99	241.74	5.21	-44.2	-60.6	3.8	8.45e-01	0	54	104	0	60	23310
2026-01-16 22:14:57.00	241.65	5.28	-44.2	-59.9	3.9	8.46e-01	0	54	104	0	60	21438
2026-01-16 22:14:58.01	241.56	5.36	-44.2	-60.0	3.8	8.46e-01	0	54	104	0	60	21606
2026-01-16 22:14:59.02	241.47	5.44	-44.2	-59.5	4.0	8.45e-01	0	54	104	0	60	20460
2026-01-16 22:15:00.03	241.38	5.52	-44.2	-59.6	4.0	8.44e-01	0	54	0	0	60	20584
2026-01-16 22:15:01.04	241.29	5.59	-44.2	-59.6	3.9	8.44e-01	0	54	104	0	60	20611
2026-01-16 22:15:02.05	241.20	5.67	-44.2	-59.7	4.0	8.43e-01	0	55	104	0	60	20902
2026-01-16 22:15:03.06	241.11	5.75	-44.1	-59.3	4.1	8.44e-01	0	54	0	0	60	19928
2026-01-16 22:15:04.07	241.02	5.83	-44.1	-59.3	4.1	8.43e-01	0	55	0	0	60	19847
2026-01-16 22:15:05.09	240.92	5.91	-44.1	-59.2	4.1	8.43e-01	0	55	0	0	60	19761
2026-01-16 22:15:06.10	240.83	5.99	-44.1	-58.6	4.2	8.41e-01	0	54	0	0	60	18364
2026-01-16 22:15:07.11	240.73	6.07	-44.1	-58.1	4.4	8.33e-01	0	55	0	0	60	17296
2026-01-16 22:15:08.12	240.64	6.15	-44.0	-56.8	4.9	8.33e-01	0	55	0	0	60	15009
2026-01-16 22:15:09.13	240.54	6.23	-44.0	-55.7	5.6	8.01e-01	0	55	0	0	59	13983
2026-01-16 22:15:10.14	240.44	6.31	-43.9	-54.3	6.7	5.54e-01	0	55	0	1048576	59	11921
2026-01-16 22:15:11.15	240.35	6.40	-43.8	-53.3	7.6	5.54e-01	0	55	0	2097152	59	10543
2026-01-16 22:15:12.16	240.25	6.48	-43.6	-52.1	8.9	1.75e-01	0	55	0	3145728	59	9245
2026-01-16 22:15:13.17	240.15	6.56	-43.5	-51.5	9.5	4.35e-02	0	55	0	4194304	58	9151
2026-01-16 22:15:14.18	240.05	6.64	-43.3	-50.9	10.2	4.35e-02	0	55	0	5767168	58	8510
2026-01-16 22:15:15.19	239.95	6.72	-43.2	-50.3	10.8	1.35e-02	0	55	0	6815744	58	7925
2026-01-16 22:15:16.20	239.84	6.81	-43.2	-50.4	10.7	4.18e-03	0	55	0	7864320	58	8052
2026-01-16 22:15:17.21	239.74	6.89	-43.3	-50.6	10.5	3.78e-03	0	55	0	8912896	58	8245
2026-01-16 22:15:18.22	239.64	6.97	-43.4	-51.2	9.9	3.78e-03	0	55	0	9961472	58	8796
2026-01-16 22:15:19.23	239.53	7.06	-43.7	-52.6	8.5	9.47e-03	0	55	0	11010048	58	10411
2026-01-16 22:15:20.24	239.43	7.14	-44.0	-55.0	6.3	7.88e-02	0	55	0	12582912	58	13648
2026-01-16 22:15:21.25	239.32	7.23	-44.2	-58.5	4.3	7.88e-02	0	55	0	12582912	58	20341
2026-01-16 22:15:22.26	239.22	7.31	-44.3	-62.1	3.8	6.45e-01	0	55	104	12582912	59	29152
2026-01-16 22:15:23.27	239.11	7.40	-44.2	-59.9	3.8	8.45e-01	0	55	104	12582912	59	22732
2026-01-16 22:15:24.28	239.00	7.49	-43.9	-55.0	6.1	8.45e-01	0	55	0	12582912	59	12816
2026-01-16 22:15:25.29	238.89	7.57	-43.5	-51.7	9.2	7.14e-01	0	55	0	13631488	59	8788
2026-01-16 22:15:26.30	238.78	7.66	-42.9	-49.2	11.7	5.90e-02	0	55	0	14680064	57	7422
2026-01-16 22:15:27.31	238.67	7.75	-42.4	-47.9	13.2	5.90e-02	0	55	0	15728640	56	6740
2026-01-16 22:15:28.32	238.55	7.83	-42.0	-46.8	14.5	5.64e-04	0	56	0	16777216	56	5925
2026-01-16 22:15:29.33	238.44	7.92	-41.6	-46.1	15.0	4.50e-06	0	56	0	18350080	55	5790
2026-01-16 22:15:30.35	238.32	8.01	-41.5	-45.8	15.3	0.00e+00	0	55	0	19398656	54	5944
2026-01-16 22:15:31.36	238.21	8.10	-41.2	-45.1	15.8	0.00e+00	0	56	0	20447232	54	5509
2026-01-16 22:15:32.37	238.09	8.19	-43.4	-50.9	9.8	2.20e-06	0	56	0	21495808	58	8561
2026-01-16 22:15:33.38	237.97	8.28	-41.0	-44.7	16.4	3.18e-02	0	56	0	22544384	54	5251
2026-01-16 22:15:34.39	237.86	8.37	-43.7	-53.4	5.8	3.18e-02	0	56	0	23068672	58	11316
2026-01-16 22:15:35.40	237.74	8.46	-41.3	-45.2	15.7	3.34e-01	0	56	0	24117248	54	5581
2026-01-16 22:15:36.41	237.62	8.55	-42.8	-48.8	11.8	1.88e-03	0	56	0	25690112	57	7078
2026-01-16 22:15:37.42	237.49	8.64	-40.6	-44.1	17.1	1.88e-03	0	56	0	26738688	53	5173
2026-01-16 22:15:38.42	237.37	8.73	-40.5	-44.0	17.2	2.49e-03	0	56	0	27787264	53	5115
2026-01-16 22:15:39.43	237.25	8.82	-40.6	-44.0	17.2	0.00e+00	0	56	0	28835840	53	5133
2026-01-16 22:15:40.44	237.12	8.91	-40.6	-44.1	17.1	0.00e+00	0	56	0	29884416	53	5181
2026-01-16 22:15:41.45	237.00	9.01	-40.6	-44.0	17.2	0.00e+00	0	56	0	30932992	53	5155
2026-01-16 22:15:42.46	236.87	9.10	-40.6	-44.0	17.2	0.00e+00	0	56	0	32505856	53	5148
2026-01-16 22:15:43.47	236.74	9.19	-40.6	-44.0	17.2	0.00e+00	0	56	0	33554432	53	5147
2026-01-16 22:15:44.48	236.61	9.29	-40.7	-44.2	17.1	0.00e+00	0	56	0	34603008	53	5230
2026-01-16 22:15:45.49	236.48	9.38	-40.6	-44.0	17.3	0.00e+00	0	56	0	35651584	53	5116
2026-01-16 22:15:46.50	236.35	9.47	-40.6	-44.0	17.2	0.00e+00	0	56	0	36700160	53	5152
2026-01-16 22:15:47.51	236.22	9.57	-40.5	-43.9	17.4	0.00e+00	0	56	0	37748736	53	5054
2026-01-16 22:15:48.52	236.08	9.67	-40.5	-43.8	17.5	0.00e+00	0	56	0	39321600	52	5317
2026-01-16 22:15:49.53	235.95	9.76	-40.4	-43.6	17.7	0.00e+00	0	56	0	40370176	52	5193
2026-01-16 22:15:50.54	235.81	9.86	-40.3	-43.5	17.8	0.00e+00	0	56	0	41418752	52	5158
2026-01-16 22:15:51.55	235.67	9.95	-40.3	-43.5	17.8	0.00e+00	0	56	0	42467328	52	5134
2026-01-16 22:15:52.56	235.54	10.05	-40.2	-43.3	18.0	0.00e+00	0	56	0	43515904	52	5013
2026-01-16 22:15:53.56	235.40	10.15	-40.1	-43.2	18.1	0.00e+00	0	56	0	44564480	52	4958
2026-01-16 22:15:54.58	235.25	10.25	-40.3	-43.5	17.9	0.00e+00	0	56	0	46137344	52	5130
2026-01-16 22:15:55.58	235.11	10.35	-40.3	-43.6	17.8	0.00e+00	0	56	0	47185920	52	5165
2026-01-16 22:15:56.59	234.97	10.45	-40.4	-43.7	17.6	0.00e+00	0	56	0	48234496	52	5266
2026-01-16 22:15:57.61	234.82	10.55	-40.5	-43.7	17.6	0.00e+00	0	56	0	49283072	52	5265
2026-01-16 22:15:58.62	234.67	10.65	-40.5	-43.8	17.5	0.00e+00	0	56	0	50331648	52	5316
2026-01-16 22:15:59.63	234.53	10.75	-40.5	-43.8	17.6	0.00e+00	0	57	0	51380224	52	5305
2026-01-16 22:16:00.64	234.38	10.85	-40.5	-43.7	17.7	0.00e+00	0	57	0	52953088	52	5255
2026-01-16 22:16:01.64	234.23	10.95	-40.4	-43.6	17.8	0.00e+00	0	57	0	54001664	52	5189
2026-01-16 22:16:02.65	234.07	11.05	-40.3	-43.4	18.0	0.00e+00	0	56	0	55050240	52	5059
2026-01-16 22:16:03.66	233.92	11.15	-40.1	-43.1	18.2	0.00e+00	0	57	0	56098816	52	4905
2026-01-16 22:16:04.67	233.77	11.26	-40.0	-43.0	18.4	0.00e+00	0	56	0	57147392	52	4818
2026-01-16 22:16:05.68	233.61	11.36	-40.0	-43.0	18.5	0.00e+00	0	57	0	58195968	52	4818
2026-01-16 22:16:06.69	233.45	11.46	-40.0	-42.9	18.6	0.00e+00	0	57	0	59768832	51	5054
2026-01-16 22:16:07.70	233.29	11.57	-40.0	-42.8	18.7	0.00e+00	0	57	0	60817408	51	5039
2026-01-16 22:16:08.71	233.13	11.67	-40.0	-42.9	18.6	0.00e+00	0	57	0	61865984	51	5077
2026-01-16 22:16:09.72	232.97	11.78	-40.0	-42.9	18.6	0.00e+00	0	57	0	62914560	51	5048
2026-01-16 22:16:10.73	232.80	11.88	-40.0	-42.9	18.6	0.00e+00	0	57	0	63963136	51	5072
2026-01-16 22:16:11.74	232.64	11.99	-40.0	-42.9	18.6	0.00e+00	0	57	0	65011712	51	5094
2026-01-16 22:16:12.75	232.47	12.10	-40.1	-43.0	18.5	0.00e+00	0	57	0	66584576	51	5115
2026-01-16 22:16:13.76	232.30	12.20	-40.1	-43.0	18.6	0.00e+00	0	57	0	67633152	51	5106
2026-01-16 22:16:14.77	232.13	12.31	-40.0	-42.9	18.7	0.00e+00	0	57	0	68681728	51	5055
2026-01-16 22:16:15.78	231.96	12.42	-40.1	-43.0	18.6	0.00e+00	0	57	0	69730304	51	5121
2026-01-16 22:16:16.78	231.78	12.53	-40.0	-42.9	18.7	0.00e+00	0	57	0	70778880	51	5053
2026-01-16 22:16:17.80	231.61	12.64	-40.0	-42.8	18.8	0.00e+00	0	57	0	71827456	51	5016
2026-01-16 22:16:18.81	231.43	12.75	-39.9	-42.7	18.9	0.00e+00	0	57	0	73400320	51	4965
2026-01-16 22:16:19.82	231.25	12.86	-39.8	-42.5	19.0	0.00e+00	0	57	0	74448896	51	4860
2026-01-16 22:16:20.83	231.07	12.97	-39.8	-42.5	19.1	0.00e+00	0	57	0	75497472	51	4858
2026-01-16 22:16:21.83	230.89	13.08	-39.8	-42.5	19.1	0.00e+00	0	57	0	76546048	51	4861
2026-01-16 22:16:22.84	230.70	13.19	-39.8	-42.5	19.1	0.00e+00	0	57	0	77594624	51	4850
2026-01-16 22:16:23.85	230.51	13.31	-39.9	-42.7	19.0	0.00e+00	0	57	0	78643200	51	4928
2026-01-16 22:16:24.86	230.33	13.42	-39.8	-42.5	19.0	0.00e+00	0	57	0	80216064	51	4865
2026-01-16 22:16:25.87	230.14	13.53	-39.8	-42.5	19.1	0.00e+00	0	57	0	81264640	51	4829
2026-01-16 22:16:26.88	229.94	13.65	-39.8	-42.5	19.1	0.00e+00	0	57	0	82313216	51	4832
2026-01-16 22:16:27.89	229.75	13.76	-39.8	-42.5	19.2	0.00e+00	0	57	0	83361792	51	4856
2026-01-16 22:16:28.90	229.55	13.88	-39.7	-42.4	19.2	0.00e+00	0	57	0	84410368	51	4812
2026-01-16 22:16:29.91	229.35	13.99	-39.6	-42.2	19.4	0.00e+00	0	57	0	85458944	51	4687
2026-01-16 22:16:30.92	229.15	14.11	-39.5	-42.1	19.5	0.00e+00	0	57	0	87031808	51	4629
2026-01-16 22:16:31.93	228.95	14.22	-39.5	-42.0	19.6	0.00e+00	0	57	0	88080384	50	4861
2026-01-16 22:16:32.94	228.75	14.34	-39.4	-42.0	19.7	0.00e+00	0	57	0	89128960	50	4835
2026-01-16 22:16:33.94	228.54	14.46	-39.4	-41.9	19.8	0.00e+00	0	57	0	90177536	50	4807
2026-01-16 22:16:34.95	228.33	14.58	-39.3	-41.8	19.9	0.00e+00	0	57	0	91226112	50	4729
2026-01-16 22:16:35.96	228.12	14.70	-39.3	-41.8	19.9	0.00e+00	0	57	0	92274688	50	4731
2026-01-16 22:16:36.98	227.91	14.82	-39.4	-41.9	19.8	0.00e+00	0	57	0	93847552	50	4799
2026-01-16 22:16:37.99	227.69	14.94	-39.3	-41.8	19.9	0.00e+00	0	57	0	94896128	50	4756
2026-01-16 22:16:38.99	227.48	15.06	-39.4	-42.0	19.8	0.00e+00	0	57	0	95944704	50	4817
2026-01-16 22:16:40.00	227.26	15.18	-39.4	-42.0	19.7	0.00e+00	0	57	0	96993280	50	4828
2026-01-16 22:16:41.01	227.04	15.30	-39.4	-41.9	19.8	0.00e+00	0	57	0	98041856	50	4776
2026-01-16 22:16:42.02	226.81	15.42	-39.4	-41.9	19.9	0.00e+00	0	57	0	99090432	50	4763
2026-01-16 22:16:43.03	226.58	15.54	-39.2	-41.7	20.1	0.00e+00	0	57	0	100663296	50	4669
2026-01-16 22:16:44.04	226.36	15.66	-39.2	-41.6	20.2	0.00e+00	0	57	0	101711872	50	4624
2026-01-16 22:16:45.05	226.12	15.79	-39.1	-41.5	20.3	0.00e+00	0	57	0	102760448	50	4564
2026-01-16 22:16:46.06	225.89	15.91	-39.0	-41.3	20.4	0.00e+00	0	57	0	103809024	50	4491
2026-01-16 22:16:47.07	225.65	16.04	-38.8	-41.1	20.6	0.00e+00	0	58	0	104857600	49	4624
2026-01-16 22:16:48.08	225.41	16.16	-38.7	-40.9	20.8	0.00e+00	0	57	0	105906176	49	4545
2026-01-16 22:16:49.09	225.17	16.29	-38.8	-41.1	20.7	0.00e+00	0	57	0	107479040	49	4631
2026-01-16 22:16:50.10	224.93	16.41	-39.1	-41.5	20.3	0.00e+00	0	57	0	108527616	49	4831
2026-01-16 22:16:51.11	224.68	16.54	-39.1	-41.4	20.3	0.00e+00	0	58	0	109576192	49	4801
2026-01-16 22:16:52.12	224.43	16.67	-39.1	-41.6	20.3	0.00e+00	0	58	0	110624768	49	4871
2026-01-16 22:16:53.13	224.18	16.79	-39.0	-41.4	20.3	0.00e+00	0	58	0	111673344	49	4788
2026-01-16 22:16:54.14	223.93	16.92	-39.1	-41.5	20.3	0.00e+00	0	58	0	112721920	49	4842
2026-01-16 22:16:55.15	223.67	17.05	-38.9	-41.2	20.6	0.00e+00	0	57	0	114294784	49	4690
2026-01-16 22:16:56.16	223.41	17.18	-38.8	-41.1	20.7	0.00e+00	0	58	0	115343360	49	4625
2026-01-16 22:16:57.17	223.15	17.31	-38.6	-40.9	20.9	0.00e+00	0	58	0	116391936	49	4498
2026-01-16 22:16:58.18	222.88	17.44	-38.5	-40.6	21.1	0.00e+00	0	58	0	117440512	48	4617
2026-01-16 22:16:59.19	222.61	17.57	-38.6	-40.8	21.0	0.00e+00	0	58	0	118489088	48	4732
2026-01-16 22:17:00.19	222.34	17.70	-38.6	-40.8	21.0	0.00e+00	0	57	0	119537664	48	4757
2026-01-16 22:17:01.18	222.07	17.83	-38.6	-40.8	21.0	0.00e+00	0	57	0	121110528	48	4734
2026-01-16 22:17:02.19	221.80	17.96	-38.8	-41.0	20.8	0.00e+00	0	58	0	122159104	48	4861
2026-01-16 22:17:03.20	221.52	18.09	-38.8	-41.1	20.7	0.00e+00	0	58	0	123207680	48	4905
2026-01-16 22:17:04.21	221.23	18.22	-38.9	-41.2	20.6	0.00e+00	0	58	0	124256256	48	4964
2026-01-16 22:17:05.22	220.95	18.36	-38.6	-40.9	21.0	0.00e+00	0	58	0	125304832	48	4777
2026-01-16 22:17:06.23	220.66	18.49	-38.6	-40.7	21.1	0.00e+00	0	58	0	126353408	48	4696
2026-01-16 22:17:07.24	220.37	18.62	-38.6	-40.8	21.0	0.00e+00	0	58	0	127926272	48	4726
2026-01-16 22:17:08.25	220.07	18.76	-38.3	-40.4	21.4	0.00e+00	0	58	0	128974848	48	4541
2026-01-16 22:17:09.26	219.77	18.89	-38.3	-40.4	21.5	0.00e+00	0	58	0	130023424	48	4507
2026-01-16 22:17:10.27	219.47	19.02	-38.3	-40.4	21.5	0.00e+00	0	58	0	131072000	48	4517
2026-01-16 22:17:11.28	219.16	19.16	-38.3	-40.5	21.4	0.00e+00	0	58	0	132120576	48	4553
2026-01-16 22:17:12.29	218.85	19.29	-38.4	-40.6	21.3	0.00e+00	0	58	0	133169152	48	4616
2026-01-16 22:17:13.30	218.54	19.43	-38.5	-40.7	21.2	0.00e+00	0	58	0	134742016	48	4682
2026-01-16 22:17:14.30	218.23	19.56	-38.6	-40.8	21.1	0.00e+00	0	58	0	135790592	48	4713
2026-01-16 22:17:15.31	217.91	19.70	-38.6	-40.8	21.1	0.00e+00	0	58	0	136839168	48	4732
2026-01-16 22:17:16.32	217.59	19.84	-38.5	-40.7	21.2	0.00e+00	0	58	0	137887744	48	4659
2026-01-16 22:17:17.33	217.26	19.97	-38.5	-40.7	21.2	0.00e+00	0	58	0	138936320	48	4665
2026-01-16 22:17:18.34	216.93	20.11	-38.4	-40.5	21.4	0.00e+00	0	58	0	139984896	48	4564
2026-01-16 22:17:19.35	216.60	20.25	-38.1	-40.2	21.7	0.00e+00	0	58	0	141557760	48	4405
2026-01-16 22:17:20.36	216.26	20.38	-38.0	-40.0	21.9	0.00e+00	0	58	0	142606336	48	4315
2026-01-16 22:17:21.37	215.92	20.52	-37.8	-39.8	22.1	0.00e+00	0	58	0	143654912	47	4460
2026-01-16 22:17:22.38	215.58	20.66	-37.7	-39.7	22.2	0.00e+00	0	58	0	144703488	47	4403
2026-01-16 22:17:23.39	215.23	20.79	-37.6	-39.6	22.2	0.00e+00	0	58	0	145752064	47	4350
2026-01-16 22:17:24.40	214.88	20.93	-37.7	-39.6	22.2	0.00e+00	0	58	0	146800640	47	4387
2026-01-16 22:17:25.41	214.52	21.07	-37.9	-40.0	21.9	0.00e+00	0	58	0	147849216	47	4564
2026-01-16 22:17:26.41	214.17	21.20	-38.2	-40.3	21.6	0.00e+00	0	58	0	149422080	47	4748
2026-01-16 22:17:27.42	213.81	21.34	-38.3	-40.4	21.5	0.00e+00	0	58	0	150470656	47	4807
2026-01-16 22:17:28.43	213.44	21.48	-38.2	-40.3	21.5	0.00e+00	0	58	0	151519232	47	4749
2026-01-16 22:17:29.44	213.07	21.62	-38.1	-40.2	21.7	0.00e+00	0	58	0	152567808	47	4675
2026-01-16 22:17:30.45	212.69	21.75	-37.9	-40.0	21.9	0.00e+00	0	58	0	153616384	47	4550
2026-01-16 22:17:31.46	212.31	21.89	-37.7	-39.7	22.1	0.00e+00	0	58	0	154664960	47	4422
2026-01-16 22:17:32.47	211.93	22.03	-37.8	-39.8	22.0	0.00e+00	0	58	0	156237824	47	4482
2026-01-16 22:17:33.48	211.55	22.16	-37.6	-39.5	22.3	0.00e+00	0	58	0	157286400	47	4338
2026-01-16 22:17:34.49	211.16	22.30	-37.3	-39.3	22.5	0.00e+00	0	58	0	158334976	46	4450
2026-01-16 22:17:35.50	210.76	22.44	-37.5	-39.4	22.5	0.00e+00	0	58	0	159383552	46	4511
2026-01-16 22:17:36.51	210.36	22.57	-37.3	-39.2	22.7	0.00e+00	0	58	0	160432128	46	4397
2026-01-16 22:17:37.52	209.96	22.71	-37.4	-39.3	22.5	0.00e+00	0	58	0	161480704	46	4491
2026-01-16 22:17:38.53	209.55	22.84	-37.5	-39.4	22.4	0.00e+00	0	58	0	163053568	46	4536
2026-01-16 22:17:39.54	209.14	22.98	-37.6	-39.5	22.4	0.00e+00	0	58	0	164102144	46	4592
2026-01-16 22:17:40.55	208.73	23.11	-37.5	-39.4	22.4	0.00e+00	0	58	0	165150720	46	4532
2026-01-16 22:17:41.56	208.31	23.24	-37.7	-39.6	22.2	0.00e+00	0	58	0	166199296	46	4647
2026-01-16 22:17:42.57	207.88	23.38	-37.6	-39.6	22.3	0.00e+00	0	58	0	167247872	46	4619
2026-01-16 22:17:43.58	207.45	23.51	-37.5	-39.5	22.5	0.00e+00	0	58	0	168820736	46	4557
2026-01-16 22:17:44.59	207.02	23.64	-37.7	-39.6	22.3	0.00e+00	0	58	0	169869312	46	4628
2026-01-16 22:17:45.60	206.59	23.77	-37.7	-39.6	22.3	0.00e+00	0	58	0	170917888	46	4637
2026-01-16 22:17:46.61	206.14	23.90	-37.7	-39.7	22.3	0.00e+00	0	58	0	171966464	46	4655
2026-01-16 22:17:47.62	205.70	24.03	-37.7	-39.7	22.2	0.00e+00	0	58	0	173015040	46	4689
2026-01-16 22:17:48.63	205.25	24.16	-37.5	-39.4	22.5	0.00e+00	0	58	0	174063616	46	4524
2026-01-16 22:17:49.64	204.80	24.29	-37.4	-39.4	22.5	0.00e+00	0	58	0	175636480	46	4497
2026-01-16 22:17:50.65	204.34	24.42	-37.2	-39.1	22.9	0.00e+00	0	58	0	176685056	46	4344
2026-01-16 22:17:51.66	203.88	24.55	-37.3	-39.2	22.7	0.00e+00	0	58	0	177733632	46	4411
2026-01-16 22:17:52.67	203.41	24.67	-37.3	-39.1	22.8	0.00e+00	0	58	0	178782208	46	4390
2026-01-16 22:17:53.68	202.94	24.79	-37.5	-39.4	22.5	0.00e+00	0	58	0	179830784	46	4541
2026-01-16 22:17:54.69	202.46	24.92	-37.3	-39.1	22.8	0.00e+00	0	58	0	180879360	46	4379
2026-01-16 22:17:55.70	201.98	25.04	-37.4	-39.4	22.5	0.00e+00	0	58	0	182452224	46	4498
2026-01-16 22:17:56.70	201.50	25.16	-37.3	-39.2	22.7	0.00e+00	0	58	0	183500800	46	4398
2026-01-16 22:17:57.71	201.01	25.28	-37.2	-39.1	22.8	0.00e+00	0	58	0	184549376	46	4354
2026-01-16 22:17:58.72	200.52	25.40	-37.2	-39.0	22.9	0.00e+00	0	58	0	185597952	46	4325
2026-01-16 22:17:59.73	200.03	25.52	-36.9	-38.7	23.1	0.00e+00	0	58	0	186646528	45	4440
2026-01-16 22:18:00.74	199.52	25.63	-37.1	-39.0	22.9	0.00e+00	0	59	0	187695104	45	4568
2026-01-16 22:18:01.75	199.02	25.74	-37.0	-38.9	23.0	0.00e+00	0	58	0	188743680	45	4496
2026-01-16 22:18:02.76	198.51	25.86	-37.1	-38.9	22.9	0.00e+00	0	58	0	190316544	45	4524
2026-01-16 22:18:03.77	198.00	25.97	-37.0	-38.8	23.0	0.00e+00	0	58	0	191365120	45	4492
2026-01-16 22:18:04.78	197.48	26.08	-36.9	-38.7	23.2	0.00e+00	0	58	0	192413696	45	4400
2026-01-16 22:18:05.79	196.96	26.18	-36.8	-38.6	23.2	0.00e+00	0	58	0	193462272	45	4383
2026-01-16 22:18:06.80	196.43	26.29	-36.8	-38.6	23.2	0.00e+00	0	58	0	194510848	45	4391
2026-01-16 22:18:07.81	195.90	26.39	-36.7	-38.4	23.4	0.00e+00	0	59	0	195559424	45	4269
2026-01-16 22:18:08.82	195.37	26.50	-36.9	-38.7	23.2	0.00e+00	0	58	0	197132288	45	4392
2026-01-16 22:18:09.83	194.83	26.60	-36.8	-38.6	23.2	0.00e+00	0	58	0	198180864	45	4375
2026-01-16 22:18:10.84	194.29	26.69	-36.7	-38.4	23.4	0.00e+00	0	58	0	199229440	45	4291
2026-01-16 22:18:11.85	193.74	26.79	-36.7	-38.4	23.4	0.00e+00	0	59	0	200278016	45	4280
2026-01-16 22:18:12.86	193.20	26.88	-36.5	-38.2	23.7	0.00e+00	0	58	0	201326592	44	4409
2026-01-16 22:18:13.87	192.64	26.98	-36.6	-38.4	23.4	0.00e+00	0	58	0	202375168	44	4524
2026-01-16 22:18:14.88	192.09	27.07	-36.8	-38.6	23.3	0.00e+00	0	58	0	203948032	44	4603
2026-01-16 22:18:15.88	191.53	27.15	-36.8	-38.6	23.3	0.00e+00	0	58	0	204996608	44	4604
2026-01-16 22:18:16.89	190.97	27.24	-36.7	-38.5	23.4	0.00e+00	0	59	0	206045184	44	4560
2026-01-16 22:18:17.90	190.40	27.32	-36.4	-38.1	23.7	0.00e+00	0	58	0	207093760	44	4385
2026-01-16 22:18:18.91	189.83	27.40	-36.4	-38.1	23.7	0.00e+00	0	59	0	208142336	44	4376
2026-01-16 22:18:19.92	189.26	27.48	-36.2	-37.8	24.0	0.00e+00	0	58	0	209190912	44	4233
2026-01-16 22:18:20.93	188.69	27.55	-36.3	-38.1	23.6	0.00e+00	0	59	0	210763776	44	4348
2026-01-16 22:18:21.94	188.11	27.62	-36.2	-37.9	23.8	0.00e+00	0	59	0	211812352	44	4283
2026-01-16 22:18:22.95	187.52	27.69	-36.3	-38.0	23.8	0.00e+00	0	59	0	212860928	44	4334
2026-01-16 22:18:23.96	186.94	27.76	-36.2	-37.9	23.9	0.00e+00	0	58	0	213909504	44	4244
2026-01-16 22:18:24.97	186.35	27.83	-36.3	-38.0	23.8	0.00e+00	0	59	0	214958080	44	4320
2026-01-16 22:18:25.98	185.76	27.89	-36.4	-38.1	23.7	0.00e+00	0	59	0	216530944	44	4374
2026-01-16 22:18:26.99	185.17	27.95	-36.7	-38.4	23.4	0.00e+00	0	59	0	217579520	44	4528
2026-01-16 22:18:28.00	184.57	28.00	-36.8	-38.6	23.2	0.00e+00	0	59	0	218628096	44	4636
2026-01-16 22:18:29.01	183.98	28.05	-36.9	-38.8	23.1	0.00e+00	0	59	0	219676672	44	4712
2026-01-16 22:18:30.02	183.38	28.10	-37.0	-38.8	23.1	0.00e+00	0	59	0	220725248	44	4728
2026-01-16 22:18:31.03	182.78	28.15	-36.9	-38.7	23.2	0.00e+00	0	59	0	221773824	44	4671
2026-01-16 22:18:32.04	182.17	28.19	-36.9	-38.7	23.1	0.00e+00	0	59	0	223346688	44	4682
2026-01-16 22:18:33.05	181.57	28.23	-37.0	-38.9	23.0	0.00e+00	0	59	0	224395264	44	4779
2026-01-16 22:18:34.05	180.97	28.27	-37.2	-39.1	22.8	0.00e+00	0	59	0	225443840	44	4875
2026-01-16 22:18:35.06	180.36	28.31	-37.3	-39.2	22.7	0.00e+00	0	59	0	226492416	45	4664
2026-01-16 22:18:36.07	179.75	28.34	-37.0	-38.9	23.0	0.00e+00	0	59	0	227540992	45	4500
2026-01-16 22:18:37.08	179.14	28.36	-36.9	-38.7	23.1	0.00e+00	0	59	0	228589568	45	4435
2026-01-16 22:18:38.09	178.53	28.39	-36.9	-38.7	23.1	0.00e+00	0	59	0	229638144	45	4424
2026-01-16 22:18:39.10	177.91	28.41	-36.9	-38.8	23.1	0.00e+00	0	59	0	231211008	45	4447
2026-01-16 22:18:40.11	177.30	28.43	-37.1	-38.9	23.0	0.00e+00	0	59	0	232259584	45	4529
2026-01-16 22:18:41.12	176.69	28.44	-37.0	-38.9	23.1	0.00e+00	0	59	0	233308160	45	4494
2026-01-16 22:18:42.13	176.07	28.46	-37.5	-39.3	22.9	0.00e+00	0	59	0	234356736	45	4752
2026-01-16 22:18:43.14	175.45	28.46	-37.2	-39.0	22.9	0.00e+00	0	59	0	235405312	45	4597
2026-01-16 22:18:44.15	174.84	28.47	-37.2	-39.0	23.0	0.00e+00	0	59	0	236453888	45	4564
2026-01-16 22:18:45.16	174.22	28.47	-37.1	-38.9	23.1	0.00e+00	0	59	0	238026752	45	4535
2026-01-16 22:18:46.17	173.61	28.47	-36.9	-38.8	23.2	0.00e+00	0	59	0	239075328	45	4442
2026-01-16 22:18:47.18	172.99	28.46	-37.0	-38.8	23.1	0.00e+00	0	59	0	240123904	45	4486
2026-01-16 22:18:48.19	172.38	28.46	-36.9	-38.7	23.2	0.00e+00	0	59	0	241172480	45	4432
2026-01-16 22:18:49.20	171.76	28.45	-37.0	-38.8	23.1	0.00e+00	0	59	0	242221056	45	4454
2026-01-16 22:18:50.20	171.15	28.43	-36.9	-38.7	23.3	0.00e+00	0	59	0	243269632	45	4416
2026-01-16 22:18:51.21	170.54	28.41	-37.0	-38.8	23.2	0.00e+00	0	59	0	244842496	45	4452
2026-01-16 22:18:52.22	169.92	28.39	-37.1	-38.9	23.0	0.00e+00	0	59	0	245891072	45	4522
2026-01-16 22:18:53.23	169.31	28.37	-37.0	-38.8	23.1	0.00e+00	0	59	0	246939648	45	4474
2026-01-16 22:18:54.24	168.70	28.34	-36.9	-38.6	23.4	0.00e+00	0	59	0	247988224	45	4383
2026-01-16 22:18:55.25	168.09	28.31	-36.9	-38.6	23.3	0.00e+00	0	59	0	249036800	45	4390
2026-01-16 22:18:56.26	167.48	28.27	-37.1	-38.9	23.1	0.00e+00	0	59	0	250085376	45	4527
2026-01-16 22:18:57.27	166.88	28.24	-35.5	-38.8	23.2	0.00e+00	0	59	0	251658240	45	4490
2026-01-16 22:18:58.28	166.27	28.20	-37.1	-39.0	23.1	0.00e+00	0	59	0	252706816	44	4833
2026-01-16 22:18:59.29	165.67	28.15	-36.7	-38.5	23.5	0.00e+00	0	59	0	253755392	44	4584
2026-01-16 22:19:00.30	165.07	28.11	-36.6	-38.4	23.6	0.00e+00	0	59	0	254803968	44	4499
2026-01-16 22:19:01.30	164.47	28.06	-36.8	-38.6	23.4	0.00e+00	0	59	0	255852544	44	4644
2026-01-16 22:19:02.31	163.88	28.01	-37.0	-38.9	23.2	0.00e+00	0	59	0	256901120	44	4765
2026-01-16 22:19:03.32	163.28	27.95	-37.0	-38.9	23.1	0.00e+00	0	59	0	258473984	44	4769
2026-01-16 22:19:04.33	162.69	27.89	-36.9	-38.7	23.3	0.00e+00	0	59	0	259522560	44	4690
2026-01-16 22:19:05.34	162.10	27.83	-36.8	-38.6	23.4	0.00e+00	0	59	0	260571136	44	4604
2026-01-16 22:19:06.35	161.51	27.77	-36.4	-38.2	23.8	0.00e+00	0	59	0	261619712	44	4398
2026-01-16 22:19:07.36	160.93	27.70	-36.4	-38.1	23.9	0.00e+00	0	59	0	262668288	44	4356
2026-01-16 22:19:08.36	160.35	27.63	-36.5	-38.2	23.8	0.00e+00	0	59	0	263716864	44	4423
2026-01-16 22:19:09.38	159.77	27.56	-36.7	-38.5	23.5	0.00e+00	0	59	0	265289728	44	4556
2026-01-16 22:19:10.39	159.19	27.49	-36.8	-38.5	23.4	0.00e+00	0	59	0	266338304	44	4595
2026-01-16 22:19:11.40	158.62	27.41	-36.8	-38.6	23.4	0.00e+00	0	59	0	267386880	44	4629
2026-01-16 22:19:12.41	158.05	27.33	-36.6	-38.4	23.6	0.00e+00	0	59	0	268435456	44	4508
2026-01-16 22:19:13.41	157.49	27.25	-36.6	-38.4	23.7	0.00e+00	0	59	0	269484032	44	4506
2026-01-16 22:19:14.43	156.92	27.16	-36.7	-38.4	23.6	0.00e+00	0	59	0	270532608	44	4537
2026-01-16 22:19:15.44	156.36	27.08	-36.7	-38.5	23.5	0.00e+00	0	59	0	272105472	44	4569
2026-01-16 22:19:16.45	155.80	26.99	-36.8	-38.6	23.4	0.00e+00	0	59	0	273154048	44	4624
2026-01-16 22:19:17.46	155.25	26.90	-36.7	-38.5	23.5	0.00e+00	0	59	0	274202624	44	4584
2026-01-16 22:19:18.47	154.70	26.80	-36.5	-38.3	23.7	0.00e+00	0	59	0	275251200	44	4459
2026-01-16 22:19:19.48	154.16	26.71	-36.3	-38.0	24.1	0.00e+00	0	59	0	276299776	44	4312
2026-01-16 22:19:20.49	153.62	26.61	-36.3	-38.0	24.0	0.00e+00	0	59	0	277348352	44	4306
2026-01-16 22:19:21.50	153.08	26.51	-36.7	-38.4	23.7	0.00e+00	0	59	0	278921216	44	4540
2026-01-16 22:19:22.51	152.55	26.41	-37.2	-39.0	23.1	0.00e+00	0	59	0	279969792	44	4862
2026-01-16 22:19:23.52	152.02	26.30	-37.6	-39.5	22.6	0.00e+00	0	59	0	281018368	45	4862
2026-01-16 22:19:24.53	151.49	26.20	-37.8	-39.8	22.3	0.00e+00	0	59	0	282066944	46	4754
2026-01-16 22:19:25.54	150.97	26.09	-37.6	-39.5	22.6	0.00e+00	0	59	0	283115520	46	4591
2026-01-16 22:19:26.55	150.45	25.98	-37.3	-39.2	22.9	0.00e+00	0	59	0	284164096	46	4435
2026-01-16 22:19:27.56	149.94	25.87	-37.2	-39.0	23.1	0.00e+00	0	59	0	285736960	46	4335
2026-01-16 22:19:28.56	149.44	25.76	-37.3	-39.2	22.9	0.00e+00	0	59	0	286785536	46	4401
2026-01-16 22:19:29.57	148.93	25.65	-37.5	-39.5	22.6	0.00e+00	0	59	0	287834112	46	4565
2026-01-16 22:19:30.58	148.43	25.53	-37.5	-39.4	22.7	0.00e+00	0	59	0	288882688	46	4527
2026-01-16 22:19:31.59	147.93	25.41	-37.7	-39.6	22.5	0.00e+00	0	59	0	289931264	46	4641
2026-01-16 22:19:32.60	147.44	25.30	-37.7	-39.7	22.4	0.00e+00	0	59	0	290979840	46	4671
2026-01-16 22:19:33.61	146.95	25.18	-37.6	-39.6	22.5	0.00e+00	0	59	0	292552704	46	4638
2026-01-16 22:19:34.62	146.47	25.06	-37.5	-39.4	22.7	0.00e+00	0	59	0	293601280	46	4541
2026-01-16 22:19:35.63	145.99	24.94	-37.6	-39.5	22.6	0.00e+00	0	59	0	294649856	46	4580
2026-01-16 22:19:36.63	145.52	24.81	-37.6	-39.6	22.5	0.00e+00	0	59	0	295698432	46	4633
2026-01-16 22:19:37.64	145.05	24.69	-37.6	-39.6	22.6	0.00e+00	0	59	0	296747008	46	4623
2026-01-16 22:19:38.65	144.58	24.56	-37.7	-39.6	22.5	0.00e+00	0	59	0	297795584	46	4638
2026-01-16 22:19:39.66	144.12	24.44	-37.6	-39.6	22.5	0.00e+00	0	59	0	299368448	46	4636
2026-01-16 22:19:40.67	143.66	24.31	-37.7	-39.7	22.4	0.00e+00	0	59	0	300417024	46	4692
2026-01-16 22:19:41.68	143.21	24.18	-37.7	-39.7	22.5	0.00e+00	0	59	0	301465600	46	4688
2026-01-16 22:19:42.69	142.76	24.05	-37.6	-39.5	22.6	0.00e+00	0	59	0	302514176	46	4585
2026-01-16 22:19:43.70	142.31	23.93	-37.5	-39.4	22.7	0.00e+00	0	59	0	303562752	46	4536
2026-01-16 22:19:44.71	141.87	23.79	-37.3	-39.2	22.9	0.00e+00	0	59	0	304611328	46	4431
2026-01-16 22:19:45.72	141.44	23.66	-37.1	-39.0	23.1	0.00e+00	0	59	0	306184192	46	4322
2026-01-16 22:19:46.73	141.01	23.53	-37.1	-38.9	23.2	0.00e+00	0	59	0	307232768	46	4290
2026-01-16 22:19:47.74	140.58	23.40	-37.3	-39.1	23.0	0.00e+00	0	59	0	308281344	46	4384
2026-01-16 22:19:48.75	140.15	23.27	-37.7	-39.7	22.4	0.00e+00	0	59	0	309329920	46	4678
2026-01-16 22:19:49.76	139.73	23.13	-37.9	-39.9	22.3	0.00e+00	0	59	0	310378496	46	4780
2026-01-16 22:19:50.77	139.32	23.00	-37.8	-39.8	22.3	0.00e+00	0	59	0	311427072	46	4719
2026-01-16 22:19:51.78	138.91	22.87	-37.7	-39.8	22.4	0.00e+00	0	59	0	312999936	46	4708
2026-01-16 22:19:52.79	138.50	22.73	-37.5	-39.4	22.7	0.00e+00	0	59	0	314048512	46	4526
2026-01-16 22:19:53.80	138.10	22.60	-37.5	-39.4	22.7	0.00e+00	0	59	0	315097088	46	4523
2026-01-16 22:19:54.80	137.70	22.46	-37.6	-39.5	22.7	0.00e+00	0	59	0	316145664	46	4577
2026-01-16 22:19:55.81	137.31	22.33	-37.7	-39.6	22.5	0.00e+00	0	59	0	317194240	46	4649
2026-01-16 22:19:56.82	136.92	22.19	-37.8	-39.8	22.3	0.00e+00	0	59	0	318242816	46	4723
2026-01-16 22:19:57.83	136.53	22.05	-37.8	-39.8	22.3	0.00e+00	0	59	0	319815680	46	4721
2026-01-16 22:19:58.84	136.15	21.92	-37.8	-39.8	22.4	0.00e+00	0	59	0	320864256	46	4739
2026-01-16 22:19:59.85	135.77	21.78	-37.8	-39.8	22.3	0.00e+00	0	59	0	321912832	46	4734
2026-01-16 22:20:00.86	135.40	21.64	-37.9	-39.9	22.2	0.00e+00	0	59	0	322961408	46	4810
2026-01-16 22:20:01.87	135.03	21.51	-38.0	-40.1	22.1	0.00e+00	0	59	0	324009984	46	4883
2026-01-16 22:20:02.88	134.66	21.37	-38.0	-40.1	22.0	0.00e+00	0	59	0	325058560	46	4895
2026-01-16 22:20:03.89	134.30	21.23	-37.8	-39.8	22.3	0.00e+00	0	59	0	326631424	46	4743
2026-01-16 22:20:04.90	133.94	21.10	-37.8	-39.8	22.3	0.00e+00	0	59	0	327680000	46	4722
2026-01-16 22:20:05.91	133.58	20.96	-37.8	-39.8	22.3	0.00e+00	0	59	0	328728576	46	4744
2026-01-16 22:20:06.92	133.23	20.82	-37.9	-40.0	22.1	0.00e+00	0	59	0	329777152	46	4815
2026-01-16 22:20:07.93	132.89	20.69	-38.1	-40.2	21.9	0.00e+00	0	59	0	330825728	46	4962
2026-01-16 22:20:08.94	132.54	20.55	-38.3	-40.5	21.6	0.00e+00	0	59	0	331874304	47	4831
2026-01-16 22:20:09.95	132.20	20.41	-38.3	-40.4	21.6	0.00e+00	0	59	0	333447168	47	4813
2026-01-16 22:20:10.96	131.87	20.28	-38.1	-40.2	21.8	0.00e+00	0	59	0	334495744	47	4693
2026-01-16 22:20:11.97	131.53	20.14	-37.9	-40.0	22.0	0.00e+00	0	59	0	335544320	47	4559
2026-01-16 22:20:12.98	131.20	20.00	-37.9	-40.0	22.1	0.00e+00	0	59	0	336592896	47	4546
2026-01-16 22:20:13.98	130.88	19.87	-38.0	-40.1	21.9	0.00e+00	0	59	0	337641472	47	4639
2026-01-16 22:20:14.99	130.56	19.73	-38.1	-40.2	21.8	0.00e+00	0	59	0	338690048	47	4661
2026-01-16 22:20:16.00	130.24	19.60	-38.1	-40.3	21.7	0.00e+00	0	59	0	340262912	47	4716
2026-01-16 22:20:17.01	129.92	19.46	-38.0	-40.1	21.8	0.00e+00	0	59	0	341311488	47	4642
2026-01-16 22:20:18.02	129.61	19.33	-38.0	-40.1	21.9	0.00e+00	0	59	0	342360064	47	4608
2026-01-16 22:20:19.03	129.30	19.19	-38.2	-40.3	21.7	0.00e+00	0	60	0	343408640	47	4737
2026-01-16 22:20:20.04	129.00	19.06	-38.2	-40.3	21.6	0.00e+00	0	59	0	344457216	47	4754
2026-01-16 22:20:21.05	128.70	18.92	-38.4	-40.6	21.3	0.00e+00	0	59	0	345505792	47	4920
2026-01-16 22:20:22.06	128.40	18.79	-38.4	-40.7	21.3	1.18e-04	0	60	0	347078656	47	4927
2026-01-16 22:20:23.07	128.10	18.66	-38.5	-40.8	21.2	0.00e+00	0	59	0	348127232	47	5019
2026-01-16 22:20:24.08	127.81	18.52	-38.3	-40.5	21.4	0.00e+00	0	59	0	349175808	47	4852
2026-01-16 22:20:25.09	127.52	18.39	-38.2	-40.4	21.5	0.00e+00	0	59	0	350224384	47	4797
2026-01-16 22:20:26.10	127.23	18.26	-38.4	-40.7	21.2	0.00e+00	0	59	0	351272960	47	4932
2026-01-16 22:20:27.11	126.95	18.13	-38.4	-40.7	21.2	0.00e+00	0	59	0	352321536	47	4941
2026-01-16 22:20:28.12	126.67	17.99	-38.5	-40.7	21.2	0.00e+00	0	59	0	353894400	47	4980
2026-01-16 22:20:29.13	126.39	17.86	-38.8	-41.1	20.8	0.00e+00	0	59	0	354942976	48	4922
2026-01-16 22:20:30.14	126.12	17.73	-38.5	-40.8	21.1	0.00e+00	0	59	0	355991552	48	4723
2026-01-16 22:20:31.15	125.85	17.60	-38.6	-40.9	21.1	0.00e+00	0	59	0	357040128	48	4766
2026-01-16 22:20:32.16	125.58	17.47	-38.7	-41.0	20.9	0.00e+00	0	59	0	358088704	48	4845
2026-01-16 22:20:33.17	125.31	17.34	-38.8	-41.2	20.7	0.00e+00	0	59	0	359137280	48	4955
2026-01-16 22:20:34.18	125.05	17.21	-38.9	-41.3	20.6	0.00e+00	0	59	0	360710144	48	4988
2026-01-16 22:20:35.19	124.79	17.08	-38.8	-41.2	20.6	0.00e+00	0	59	0	361758720	48	4939
2026-01-16 22:20:36.20	124.53	16.96	-38.8	-41.2	20.6	2.20e-06	0	59	0	362807296	48	4959
2026-01-16 22:20:37.21	124.28	16.83	-38.9	-41.3	20.5	2.20e-06	0	59	0	363855872	48	5034
2026-01-16 22:20:38.22	124.03	16.70	-38.7	-41.1	20.7	0.00e+00	0	60	0	364904448	48	4881
2026-01-16 22:20:39.22	123.78	16.57	-38.7	-41.1	20.7	0.00e+00	0	59	0	365953024	48	4876
2026-01-16 22:20:40.23	123.54	16.45	-39.0	-41.5	20.3	0.00e+00	0	59	0	367525888	48	5103
2026-01-16 22:20:41.24	123.29	16.32	-39.1	-41.6	20.2	0.00e+00	0	59	0	368574464	48	5176
2026-01-16 22:20:42.25	123.05	16.20	-39.3	-41.8	20.0	0.00e+00	0	59	0	369623040	49	5026
2026-01-16 22:20:43.26	122.81	16.07	-39.2	-41.8	19.9	0.00e+00	0	59	0	370671616	49	4992
2026-01-16 22:20:44.27	122.58	15.95	-39.1	-41.5	20.1	0.00e+00	0	59	0	371720192	49	4869
2026-01-16 22:20:45.28	122.34	15.82	-39.1	-41.7	20.1	0.00e+00	0	59	0	372768768	49	4947
2026-01-16 22:20:46.29	122.11	15.70	-39.0	-41.5	20.2	0.00e+00	0	59	0	374341632	49	4859
2026-01-16 22:20:47.30	121.88	15.58	-38.9	-41.4	20.2	0.00e+00	0	59	0	375390208	49	4765
2026-01-16 22:20:48.31	121.65	15.46	-39.0	-41.5	20.2	0.00e+00	0	59	0	376438784	48	5137
2026-01-16 22:20:49.32	121.43	15.33	-39.0	-41.5	20.1	0.00e+00	0	59	0	377487360	48	5145
2026-01-16 22:20:50.33	121.21	15.21	-37.2	-41.6	16.8	0.00e+00	0	59	0	378535936	45	6193
2026-01-16 22:20:51.34	120.99	15.09	-39.1	-41.8	19.7	5.29e-04	0	59	0	379584512	49	5040
2026-01-16 22:20:52.35	120.77	14.97	-39.3	-42.0	19.4	7.06e-04	0	59	0	381157376	49	5135
2026-01-16 22:20:53.36	120.56	14.85	-39.5	-42.3	19.1	7.06e-04	0	59	0	382205952	49	5287
2026-01-16 22:20:54.37	120.34	14.73	-39.5	-42.4	19.0	9.10e-06	0	59	0	383254528	49	5360
2026-01-16 22:20:55.38	120.13	14.61	-38.4	-42.5	18.7	4.50e-06	0	59	0	384303104	49	5415
2026-01-16 22:20:56.39	119.93	14.50	-39.5	-42.3	18.9	4.50e-06	0	59	0	385351680	49	5311
2026-01-16 22:20:57.40	119.72	14.38	-39.5	-42.3	19.2	6.40e-05	0	59	0	386400256	49	5280
2026-01-16 22:20:58.41	119.51	14.26	-39.1	-42.2	19.0	1.37e-05	0	59	0	387973120	49	5240
2026-01-16 22:20:59.42	119.31	14.15	-39.4	-42.1	19.2	3.20e-05	0	60	0	389021696	49	5191
2026-01-16 22:21:00.43	119.11	14.03	-39.4	-42.2	19.1	3.20e-05	0	59	0	390070272	49	5253
2026-01-16 22:21:01.44	118.91	13.91	-39.6	-42.4	18.9	2.28e-05	0	60	0	391118848	49	5364
2026-01-16 22:21:02.45	118.72	13.80	-39.4	-42.5	18.9	4.80e-05	0	59	0	392167424	49	5434
2026-01-16 22:21:03.46	118.52	13.68	-39.7	-42.6	18.7	4.80e-05	0	59	0	393216000	50	5205
2026-01-16 22:21:04.46	118.33	13.57	-39.9	-42.9	18.5	1.83e-05	0	59	0	394788864	50	5372
2026-01-16 22:21:05.47	118.14	13.46	-39.8	-43.0	14.3	5.14e-05	0	59	0	395837440	46	6811
2026-01-16 22:21:06.48	117.95	13.35	-39.9	-43.1	16.0	5.14e-05	0	59	0	396886016	50	5495
2026-01-16 22:21:07.49	117.77	13.23	-39.8	-42.7	18.4	2.79e-03	0	59	0	397934592	50	5270
2026-01-16 22:21:08.50	117.58	13.12	-39.8	-42.6	18.8	3.59e-04	0	59	0	398983168	50	5216
2026-01-16 22:21:09.51	117.40	13.01	-39.6	-42.4	19.1	3.59e-04	0	60	0	400031744	50	5056
2026-01-16 22:21:10.52	117.22	12.90	-39.6	-42.6	18.8	1.10e-06	0	60	0	401080320	50	5208
2026-01-16 22:21:11.53	117.04	12.79	-39.9	-42.9	18.6	0.00e+00	0	59	0	402653184	50	5373
2026-01-16 22:21:12.54	116.86	12.68	-39.9	-42.9	18.6	2.20e-06	0	60	0	403701760	50	5355
2026-01-16 22:21:13.55	116.69	12.57	-40.0	-43.1	18.2	2.20e-06	0	59	0	404750336	50	5512
2026-01-16 22:21:14.56	116.51	12.46	-40.0	-43.0	18.2	3.55e-04	0	60	0	405798912	50	5437
2026-01-16 22:21:15.57	116.34	12.35	-39.5	-43.3	17.7	0.00e+00	0	59	0	406847488	51	5288
2026-01-16 22:21:16.58	116.17	12.25	-39.9	-43.0	18.0	0.00e+00	0	60	0	408420352	50	5444
2026-01-16 22:21:17.59	116.00	12.14	-39.8	-43.2	17.5	0.00e+00	0	59	0	409468928	50	5587
2026-01-16 22:21:18.60	115.83	12.03	-40.1	-43.5	17.4	1.71e-05	0	59	0	410517504	50	5773
2026-01-16 22:21:19.61	115.67	11.93	-39.8	-43.3	17.6	1.71e-05	0	59	0	411566080	50	5603
2026-01-16 22:21:20.62	115.50	11.82	-39.9	-43.5	17.2	6.06e-05	0	59	0	412614656	50	5736
2026-01-16 22:21:21.63	115.34	11.71	-39.6	-43.5	16.8	1.68e-04	0	60	0	413663232	49	6063
2026-01-16 22:21:22.63	115.18	11.61	-39.5	-43.4	16.7	1.68e-04	0	60	0	415236096	49	6003
2026-01-16 22:21:23.64	115.02	11.51	-39.3	-43.4	16.7	4.87e-04	0	59	0	416284672	49	5993
2026-01-16 22:21:24.65	114.86	11.40	-35.4	-43.2	15.9	8.98e-04	0	59	0	417333248	46	6971
2026-01-16 22:21:25.66	114.71	11.30	-39.3	-43.4	15.5	4.92e-03	0	60	0	418381824	49	6061
2026-01-16 22:21:26.67	114.55	11.20	-37.5	-43.3	14.8	4.92e-03	0	59	0	419430400	46	7092
2026-01-16 22:21:27.68	114.40	11.09	-39.2	-43.6	14.8	3.26e-03	0	59	0	420478976	48	6546
2026-01-16 22:21:28.70	114.24	10.99	-38.1	-43.5	14.3	5.55e-03	0	60	0	422051840	46	7254
2026-01-16 22:21:29.71	114.09	10.89	-37.3	-43.6	11.9	5.55e-03	0	59	0	423100416	41	9808
2026-01-16 22:21:30.72	113.94	10.79	-35.7	-42.9	12.0	1.45e-02	0	59	0	424148992	41	9013
2026-01-16 22:21:31.73	113.80	10.69	-37.0	-44.1	13.3	1.61e-02	0	59	0	425197568	46	7727
2026-01-16 22:21:32.73	113.65	10.59	-35.6	-44.0	12.3	1.61e-02	0	59	0	426246144	44	8568
2026-01-16 22:21:33.74	113.50	10.49	-35.6	-43.6	13.0	2.33e-02	0	60	0	427294720	44	8211
2026-01-16 22:21:34.75	113.36	10.39	-38.3	-44.8	12.2	1.42e-02	0	59	0	428867584	45	8870
2026-01-16 22:21:35.76	113.22	10.29	-38.7	-45.9	11.5	1.42e-02	0	60	0	429916160	45	10124
2026-01-16 22:21:36.77	113.08	10.19	-38.7	-46.9	10.6	3.22e-02	0	60	0	430964736	46	10726
2026-01-16 22:21:37.78	112.94	10.10	-38.4	-46.3	11.2	4.08e-02	0	59	0	432013312	43	11820
2026-01-16 22:21:38.79	112.80	10.00	-38.2	-46.4	10.8	2.96e-02	0	60	0	433061888	48	9064
2026-01-16 22:21:39.80	112.66	9.90	-38.6	-45.9	11.3	2.96e-02	0	60	0	434110464	47	8976
2026-01-16 22:21:40.81	112.52	9.81	-38.0	-44.6	12.4	4.48e-02	0	60	0	435683328	44	9236
2026-01-16 22:21:41.82	112.39	9.71	-38.2	-46.1	10.6	6.63e-02	0	60	0	436731904	46	9811
2026-01-16 22:21:42.83	112.26	9.61	-37.6	-46.7	10.5	6.63e-02	0	60	0	437780480	46	10510
2026-01-16 22:21:43.84	112.12	9.52	-38.2	-47.1	10.3	4.46e-02	0	60	0	438829056	47	10305
2026-01-16 22:21:44.85	111.99	9.43	-38.1	-46.2	10.1	9.25e-02	0	60	0	439877632	44	11102
2026-01-16 22:21:45.86	111.86	9.33	-38.0	-45.6	11.4	9.25e-02	0	60	0	440926208	46	9241
2026-01-16 22:21:46.87	111.73	9.24	-38.9	-45.8	12.3	5.47e-02	0	60	0	441974784	48	8407
2026-01-16 22:21:47.88	111.60	9.14	-38.9	-45.3	12.6	2.13e-02	0	60	0	443547648	47	8381
2026-01-16 22:21:48.89	111.48	9.05	-39.0	-44.5	13.9	1.67e-02	0	60	0	444596224	48	7264
2026-01-16 22:21:49.90	111.35	8.96	-35.8	-44.0	13.9	1.67e-02	0	60	0	445644800	46	7648
2026-01-16 22:21:50.90	111.23	8.87	-37.9	-44.8	13.0	1.68e-02	0	59	0	446693376	47	7912
2026-01-16 22:21:51.91	111.10	8.78	-36.6	-44.8	11.1	2.58e-02	0	60	0	447741952	46	8442
2026-01-16 22:21:52.92	110.98	8.68	-39.4	-45.2	13.0	2.58e-02	0	60	0	448790528	49	7398
2026-01-16 22:21:53.93	110.86	8.59	-39.6	-45.2	13.1	1.63e-02	0	60	0	450363392	49	7404
2026-01-16 22:21:54.94	110.74	8.50	-36.2	-45.3	10.0	1.24e-02	0	60	0	451411968	42	11179
2026-01-16 22:21:55.95	110.62	8.41	-37.2	-44.9	12.9	1.24e-02	0	60	0	452460544	45	8983
2026-01-16 22:21:56.96	110.50	8.32	-37.6	-44.8	13.5	3.46e-02	0	60	0	453509120	47	7963
2026-01-16 22:21:57.97	110.38	8.23	-39.5	-45.5	12.4	1.34e-02	0	60	0	454557696	47	8633
2026-01-16 22:21:58.98	110.27	8.15	-39.5	-44.9	13.9	1.34e-02	0	60	0	455606272	49	7190
2026-01-16 22:21:59.99	110.15	8.06	-38.4	-44.7	13.7	9.61e-03	0	60	0	457179136	47	7867
2026-01-16 22:22:01.00	110.04	7.97	-44.2	-61.7	3.8	5.35e-03	0	60	104	457703424	58	29374
2026-01-16 22:22:02.01	109.92	7.88	-44.6	-62.6	3.8	7.55e-01	0	60	104	457703424	59	30815
2026-01-16 22:22:03.02	109.81	7.79	-44.9	-63.0	3.8	7.55e-01	0	60	104	457703424	60	30728
2026-01-16 22:22:04.03	109.70	7.71	-45.1	-63.2	3.8	8.46e-01	0	60	104	457703424	60	31397
2026-01-16 22:22:05.04	109.59	7.62	-45.4	-63.5	3.8	8.47e-01	0	60	104	457703424	61	30591
2026-01-16 22:22:06.05	109.48	7.53	-45.5	-63.6	3.8	8.47e-01	0	60	104	457703424	61	31024
2026-01-16 22:22:07.06	109.37	7.45	-45.6	-63.8	3.8	8.47e-01	0	60	104	457703424	61	31630
2026-01-16 22:22:08.07	109.26	7.36	-45.7	-63.9	3.8	8.45e-01	0	59	104	457703424	61	31953
2026-01-16 22:22:09.08	109.16	7.28	-45.9	-64.0	3.8	8.45e-01	0	59	104	457703424	62	30641
2026-01-16 22:22:10.09	109.05	7.19	-45.8	-64.0	3.8	8.47e-01	0	60	104	457703424	62	30660
2026-01-16 22:22:11.10	108.94	7.11	-45.8	-63.9	3.8	8.47e-01	0	60	104	457703424	62	30292
2026-01-16 22:22:12.11	108.84	7.02	-45.7	-63.9	3.8	8.47e-01	0	60	104	457703424	62	30095
2026-01-16 22:22:13.12	108.74	6.94	-45.6	-63.8	3.8	8.46e-01	0	60	104	457703424	62	29787
2026-01-16 22:22:14.13	108.63	6.86	-45.6	-63.7	3.8	8.47e-01	0	60	104	457703424	62	29622
2026-01-16 22:22:15.14	108.53	6.77	-45.6	-63.7	3.8	8.46e-01	0	60	104	457703424	62	29389
2026-01-16 22:22:16.15	108.43	6.69	-45.6	-63.6	3.8	8.46e-01	0	60	104	457703424	62	29282
2026-01-16 22:22:17.16	108.33	6.61	-45.4	-63.5	3.8	8.47e-01	0	60	104	457703424	62	28734
2026-01-16 22:22:18.17	108.23	6.53	-45.4	-63.5	3.8	8.46e-01	0	60	104	457703424	62	28744
2026-01-16 22:22:19.18	108.13	6.44	-45.4	-63.5	3.8	8.46e-01	0	60	104	457703424	62	28759
2026-01-16 22:22:20.19	108.03	6.36	-45.4	-63.4	3.8	8.45e-01	0	60	104	457703424	62	28674
2026-01-16 22:22:21.21	107.94	6.28	-45.4	-63.5	3.8	8.45e-01	0	60	104	457703424	62	28743
2026-01-16 22:22:22.22	107.84	6.20	-45.4	-63.5	3.8	8.45e-01	0	60	104	457703424	62	28756
2026-01-16 22:22:23.23	107.74	6.12	-45.4	-63.5	3.8	8.45e-01	0	60	104	457703424	62	28730
2026-01-16 22:22:24.24	107.65	6.04	-45.4	-63.5	3.8	8.46e-01	0	60	104	457703424	62	28759
2026-01-16 22:22:25.25	107.56	5.96	-45.4	-63.5	3.8	8.46e-01	0	60	104	457703424	62	28761
2026-01-16 22:22:26.26	107.46	5.88	-45.4	-63.5	3.8	8.45e-01	0	60	104	457703424	62	28683
2026-01-16 22:22:27.27	107.37	5.80	-45.4	-63.5	3.8	8.46e-01	0	60	104	457703424	62	28692
2026-01-16 22:22:28.28	107.28	5.72	-45.4	-63.5	3.8	8.47e-01	0	60	104	457703424	62	28691
2026-01-16 22:22:29.29	107.19	5.64	-45.4	-63.5	3.8	8.47e-01	0	60	104	457703424	62	28715
2026-01-16 22:22:30.31	107.10	5.57	-45.4	-63.5	3.8	8.47e-01	0	60	104	457703424	62	28720
2026-01-16 22:22:31.32	107.01	5.49	-45.4	-63.4	3.8	8.46e-01	0	60	104	457703424	62	28665
2026-01-16 22:22:32.33	106.92	5.41	-45.4	-63.5	3.8	8.46e-01	0	60	104	457703424	62	28782
2026-01-16 22:22:33.34	106.83	5.33	-45.4	-63.5	3.8	8.46e-01	0	60	104	457703424	62	28766
2026-01-16 22:22:34.35	106.74	5.26	-45.4	-63.5	3.8	8.47e-01	0	60	104	457703424	62	28706
2026-01-16 22:22:35.36	106.65	5.18	-45.4	-63.4	3.8	8.47e-01	0	60	104	457703424	62	28549
2026-01-16 22:22:36.37	106.57	5.10	-45.4	-63.4	3.8	8.46e-01	0	60	104	457703424	62	28639
2026-01-16 22:22:37.38	106.48	5.03	-45.4	-63.4	3.8	8.46e-01	0	60	104	457703424	62	28633
2026-01-16 22:22:38.39	106.40	4.95	-45.4	-63.4	3.8	8.46e-01	0	60	104	457703424	62	28577
2026-01-16 22:22:39.40	106.31	4.87	-45.4	-63.4	3.8	8.46e-01	0	60	104	457703424	62	28621
2026-01-16 22:22:40.41	106.23	4.80	-45.4	-63.4	3.8	8.47e-01	0	60	104	457703424	62	28636
2026-01-16 22:22:41.43	106.14	4.72	-45.4	-63.4	3.8	8.46e-01	0	60	104	457703424	62	28656
2026-01-16 22:22:42.44	106.06	4.65	-45.4	-63.4	3.8	8.46e-01	0	60	104	457703424	62	28644
2026-01-16 22:22:43.45	105.98	4.57	-45.4	-63.4	3.8	8.45e-01	0	60	104	457703424	62	28559
2026-01-16 22:22:44.46	105.90	4.50	-45.4	-63.4	3.8	8.46e-01	0	60	104	457703424	62	28535
2026-01-16 22:22:45.47	105.82	4.43	-45.4	-63.4	3.8	8.46e-01	0	60	104	457703424	62	28605
2026-01-16 22:22:46.48	105.74	4.35	-45.3	-63.4	3.8	8.47e-01	0	60	104	457703424	62	28554
2026-01-16 22:22:47.49	105.66	4.28	-45.4	-63.4	3.8	8.47e-01	0	60	104	457703424	62	28590
2026-01-16 22:22:48.50	105.58	4.21	-45.4	-63.4	3.8	8.47e-01	0	60	104	457703424	62	28569
2026-01-16 22:22:49.51	105.50	4.13	-45.4	-63.4	3.8	8.46e-01	0	60	104	457703424	62	28528
2026-01-16 22:22:50.53	105.42	4.06	-45.4	-63.4	3.8	8.46e-01	0	60	104	457703424	62	28560
2026-01-16 22:22:51.54	105.34	3.99	-45.4	-63.4	3.8	8.47e-01	0	60	104	457703424	62	28575
2026-01-16 22:22:52.55	105.27	3.92	-45.3	-63.4	3.8	8.47e-01	0	60	104	457703424	62	28573
2026-01-16 22:22:53.56	105.19	3.84	-45.4	-63.4	3.8	8.47e-01	0	60	104	457703424	62	28482
2026-01-16 22:22:54.57	105.12	3.77	-45.4	-63.4	3.8	8.46e-01	0	60	104	457703424	62	28567
2026-01-16 22:22:55.58	105.04	3.70	-45.3	-63.4	3.8	8.46e-01	0	60	104	457703424	62	28573
2026-01-16 22:22:56.59	104.97	3.63	-45.3	-63.4	3.8	8.46e-01	0	60	104	457703424	62	28637
2026-01-16 22:22:57.60	104.89	3.56	-45.3	-63.4	3.8	8.47e-01	0	60	104	457703424	62	28547
2026-01-16 22:22:58.61	104.82	3.49	-45.3	-63.4	3.8	8.47e-01	0	60	104	457703424	62	28572
2026-01-16 22:22:59.63	104.75	3.42	-45.3	-63.4	3.8	8.46e-01	0	60	104	457703424	62	28549
2026-01-16 22:23:00.64	104.67	3.35	-45.3	-63.4	3.8	8.46e-01	0	60	104	457703424	62	28572
2026-01-16 22:23:01.65	104.60	3.28	-45.3	-63.4	3.8	8.46e-01	0	60	104	457703424	62	28568
2026-01-16 22:23:02.66	104.53	3.21	-45.3	-63.4	3.8	8.47e-01	0	60	104	457703424	62	28507
2026-01-16 22:23:03.67	104.46	3.14	-45.3	-63.4	3.8	8.47e-01	0	60	104	457703424	62	28520
2026-01-16 22:23:04.68	104.39	3.07	-45.3	-63.4	3.8	8.46e-01	0	60	104	457703424	62	28525
2026-01-16 22:23:05.69	104.32	3.00	-45.3	-63.4	3.8	8.46e-01	0	60	104	457703424	62	28550
2026-01-16 22:23:06.70	104.25	2.93	-45.3	-63.4	3.8	8.47e-01	0	60	104	457703424	62	28550
2026-01-16 22:23:07.71	104.18	2.86	-45.3	-63.4	3.8	8.46e-01	0	60	104	457703424	62	28491
2026-01-16 22:23:08.73	104.11	2.79	-45.3	-63.4	3.8	8.46e-01	0	60	104	457703424	62	28533
2026-01-16 22:23:09.74	104.04	2.72	-45.3	-63.4	3.8	8.47e-01	0	60	104	457703424	62	28544
2026-01-16 22:23:10.75	103.98	2.66	-45.3	-63.4	3.8	8.46e-01	0	60	104	457703424	62	28541
2026-01-16 22:23:11.76	103.91	2.59	-45.3	-63.4	3.8	8.46e-01	0	60	104	457703424	62	28502
2026-01-16 22:23:12.77	103.84	2.52	-45.3	-63.4	3.8	8.46e-01	0	60	104	457703424	62	28420
2026-01-16 22:23:13.78	103.78	2.45	-45.3	-63.4	3.8	8.47e-01	0	60	104	457703424	62	28497
2026-01-16 22:23:14.79	103.71	2.39	-45.3	-63.4	3.8	8.47e-01	0	60	104	457703424	62	28412
2026-01-16 22:23:15.80	103.65	2.32	-45.3	-63.4	3.8	8.46e-01	0	60	104	457703424	62	28471
2026-01-16 22:23:16.81	103.58	2.25	-45.3	-63.4	3.8	8.46e-01	0	60	104	457703424	62	28467
2026-01-16 22:23:17.82	103.52	2.19	-45.3	-63.4	3.8	8.46e-01	0	60	104	457703424	62	28445
2026-01-16 22:23:18.83	103.45	2.12	-45.3	-63.4	3.8	8.46e-01	0	60	104	457703424	62	28473
2026-01-16 22:23:19.85	103.39	2.05	-45.3	-63.4	3.8	8.48e-01	0	60	104	457703424	62	28443
2026-01-16 22:23:20.86	103.33	1.99	-45.3	-63.4	3.8	8.46e-01	0	60	104	457703424	62	28479
2026-01-16 22:23:21.87	103.26	1.92	-45.3	-63.4	3.8	8.46e-01	0	60	104	457703424	62	28475

#Closed at: 2026-01-16 22:23:22
#Recorded file [457 MB]: D:/lorett/data/31039_260117_011411.dat