passes_logs/2026/01/16/R2.0S_Moscow/R2.0S_Moscow__20260116_114519_FENGYUN_3D_rec.log

#Pass ID: 20260116_114519_FENGYUN 3D
#Satellite: FENGYUN 3D
#Configuration: FENGYUN 3D
#almurnet v.1.7.20251203
#Start time: 2026-01-16 11:45:19

#Version: 2.2.20231116
#Station: R2.0S_Moscow
#Location: 37.707566 lon 55.798166 lat
#TLE: 1 43010U 17072A   26015.49690188 -.00000192  00000+0 -69217-4 0  9996
#TLE: 2 43010  98.9932 347.3205 0002350 106.2275 253.9159 14.19694721423329

#Time	Az	El	Level	Level2	SNR	BER	BlckErr	Temp	State	Recorded	gain1	gain2
2026-01-16 11:45:19.06	154.27	1.97	-44.0	-55.6	3.8	8.47e-01	0	51	0	0	59	13803
2026-01-16 11:45:20.06	154.26	2.03	-44.0	-55.6	3.8	8.46e-01	0	52	104	0	59	13809
2026-01-16 11:45:21.07	154.25	2.10	-44.0	-55.6	3.8	8.46e-01	0	52	104	0	59	13791
2026-01-16 11:45:22.08	154.25	2.16	-44.0	-55.6	3.8	8.46e-01	0	52	104	0	59	13754
2026-01-16 11:45:23.09	154.24	2.23	-44.0	-55.6	3.8	8.45e-01	0	52	104	0	59	13820
2026-01-16 11:45:24.10	154.23	2.29	-43.9	-55.6	3.8	8.46e-01	0	52	104	0	59	13790
2026-01-16 11:45:25.12	154.23	2.36	-44.0	-55.6	3.8	8.46e-01	0	52	104	0	59	13781
2026-01-16 11:45:26.12	154.22	2.43	-44.0	-55.6	3.8	8.46e-01	0	52	104	0	59	13856
2026-01-16 11:45:27.14	154.21	2.49	-44.0	-55.6	3.8	8.47e-01	0	52	104	0	59	13822
2026-01-16 11:45:28.15	154.21	2.56	-44.0	-55.6	3.8	8.46e-01	0	52	104	0	59	13823
2026-01-16 11:45:29.16	154.20	2.63	-44.0	-55.6	3.8	8.45e-01	0	52	104	0	59	13824
2026-01-16 11:45:30.17	154.19	2.69	-44.0	-55.6	3.8	8.47e-01	0	52	104	0	59	13799
2026-01-16 11:45:31.18	154.18	2.76	-44.0	-55.6	3.8	8.47e-01	0	52	104	0	59	13783
2026-01-16 11:45:32.19	154.18	2.83	-44.0	-55.6	3.8	8.47e-01	0	52	104	0	59	13792
2026-01-16 11:45:33.20	154.17	2.89	-44.0	-55.6	3.8	8.47e-01	0	53	104	0	59	13799
2026-01-16 11:45:34.21	154.16	2.96	-44.0	-55.6	3.8	8.45e-01	0	53	104	0	59	13808
2026-01-16 11:45:35.22	154.15	3.03	-44.0	-55.6	3.8	8.46e-01	0	53	104	0	59	13876
2026-01-16 11:45:36.23	154.15	3.09	-44.0	-55.6	3.8	8.46e-01	0	53	104	0	59	13795
2026-01-16 11:45:37.24	154.14	3.16	-44.0	-55.6	3.8	8.46e-01	0	53	104	0	59	13780
2026-01-16 11:45:38.25	154.13	3.23	-44.0	-55.6	3.8	8.45e-01	0	53	104	0	59	13785
2026-01-16 11:45:39.26	154.13	3.30	-44.0	-55.6	3.8	8.47e-01	0	53	104	0	59	13844
2026-01-16 11:45:40.27	154.12	3.37	-44.0	-55.6	3.8	8.46e-01	0	53	104	0	59	13794
2026-01-16 11:45:41.28	154.11	3.43	-44.0	-55.6	3.8	8.47e-01	0	53	104	0	59	13807
2026-01-16 11:45:42.29	154.10	3.50	-44.0	-55.6	3.8	8.46e-01	0	53	104	0	59	13757
2026-01-16 11:45:43.29	154.09	3.57	-44.0	-55.6	3.8	8.46e-01	0	53	104	0	59	13817
2026-01-16 11:45:44.30	154.09	3.64	-44.0	-55.6	3.8	8.45e-01	0	53	104	0	59	13823
2026-01-16 11:45:45.31	154.08	3.71	-44.0	-55.6	3.8	8.45e-01	0	54	104	0	59	13747
2026-01-16 11:45:46.32	154.07	3.78	-44.0	-55.6	3.8	8.46e-01	0	53	104	0	59	13763
2026-01-16 11:45:47.33	154.06	3.85	-43.9	-55.6	3.8	8.46e-01	0	54	104	0	59	13799
2026-01-16 11:45:48.34	154.06	3.92	-43.9	-55.6	3.8	8.46e-01	0	54	104	0	59	13788
2026-01-16 11:45:49.35	154.05	3.99	-44.0	-55.6	3.8	8.46e-01	0	54	104	0	59	13756
2026-01-16 11:45:50.36	154.04	4.05	-44.0	-55.6	3.8	8.46e-01	0	54	104	0	59	13791
2026-01-16 11:45:51.37	154.03	4.12	-43.9	-55.6	3.8	8.46e-01	0	54	104	0	59	13782
2026-01-16 11:45:52.37	154.02	4.19	-43.9	-55.6	3.8	8.46e-01	0	54	104	0	59	13768
2026-01-16 11:45:53.38	154.02	4.26	-43.9	-55.6	3.8	8.45e-01	0	54	104	0	59	13768
2026-01-16 11:45:54.39	154.01	4.34	-43.9	-55.6	3.8	8.45e-01	0	54	104	0	59	13774
2026-01-16 11:45:55.40	154.00	4.41	-44.0	-55.6	3.8	8.46e-01	0	54	104	0	59	13772
2026-01-16 11:45:56.41	153.99	4.48	-43.9	-55.6	3.8	8.46e-01	0	54	104	0	59	13766
2026-01-16 11:45:57.42	153.98	4.55	-43.9	-55.6	3.8	8.45e-01	0	54	104	0	59	13759
2026-01-16 11:45:58.43	153.97	4.62	-43.9	-55.6	3.8	8.46e-01	0	54	104	0	59	13742
2026-01-16 11:45:59.44	153.97	4.69	-44.0	-55.6	3.8	8.45e-01	0	54	104	0	59	13746
2026-01-16 11:46:00.45	153.96	4.76	-43.9	-55.6	3.8	8.46e-01	0	54	104	0	59	13750
2026-01-16 11:46:01.46	153.95	4.83	-43.9	-55.5	3.8	8.46e-01	0	55	104	0	59	13678
2026-01-16 11:46:02.47	153.94	4.91	-44.0	-55.6	3.8	8.47e-01	0	55	104	0	59	13728
2026-01-16 11:46:03.48	153.93	4.98	-43.9	-55.5	3.8	8.46e-01	0	55	104	0	59	13644
2026-01-16 11:46:04.49	153.92	5.05	-43.9	-55.5	3.8	8.47e-01	0	55	104	0	59	13679
2026-01-16 11:46:05.50	153.91	5.12	-43.9	-55.5	3.8	8.46e-01	0	54	104	0	59	13676
2026-01-16 11:46:06.51	153.90	5.20	-43.9	-55.6	3.8	8.46e-01	0	55	104	0	59	13734
2026-01-16 11:46:07.52	153.90	5.27	-43.9	-55.5	3.8	8.45e-01	0	55	104	0	59	13700
2026-01-16 11:46:08.53	153.89	5.34	-43.9	-55.5	3.8	8.46e-01	0	55	104	0	59	13607
2026-01-16 11:46:09.54	153.88	5.42	-43.9	-55.4	3.8	8.46e-01	0	55	104	0	59	13558
2026-01-16 11:46:10.55	153.87	5.49	-43.9	-55.4	3.8	8.46e-01	0	55	104	0	59	13458
2026-01-16 11:46:11.56	153.86	5.56	-43.9	-55.3	3.8	8.44e-01	0	55	104	0	59	13309
2026-01-16 11:46:12.57	153.85	5.64	-43.9	-55.1	3.8	8.48e-01	0	55	104	0	59	13045
2026-01-16 11:46:13.58	153.84	5.71	-43.9	-54.8	3.8	8.46e-01	0	55	104	0	59	12560
2026-01-16 11:46:14.59	153.83	5.79	-43.8	-54.4	3.8	8.46e-01	0	55	104	0	59	11982
2026-01-16 11:46:15.60	153.82	5.86	-43.8	-53.8	3.8	8.46e-01	0	55	104	0	59	11227
2026-01-16 11:46:16.61	153.81	5.94	-43.6	-52.9	4.0	8.44e-01	0	55	104	0	59	10072
2026-01-16 11:46:17.62	153.80	6.01	-43.5	-52.2	4.1	8.39e-01	0	55	0	0	59	9347
2026-01-16 11:46:18.63	153.79	6.09	-43.4	-51.5	4.3	8.31e-01	0	55	0	0	58	9162
2026-01-16 11:46:19.65	153.78	6.16	-43.3	-50.9	4.6	8.22e-01	0	55	0	0	58	8487
2026-01-16 11:46:20.66	153.77	6.24	-43.3	-51.1	4.5	8.19e-01	0	56	0	0	58	8681
2026-01-16 11:46:21.67	153.76	6.32	-43.3	-51.2	4.5	8.23e-01	0	55	0	0	58	8791
2026-01-16 11:46:22.68	153.75	6.39	-43.4	-51.4	4.4	8.27e-01	0	56	0	0	58	9041
2026-01-16 11:46:23.69	153.74	6.47	-43.4	-51.6	4.3	8.30e-01	0	56	0	0	58	9201
2026-01-16 11:46:24.70	153.73	6.54	-43.4	-51.6	4.3	8.33e-01	0	56	0	0	58	9190
2026-01-16 11:46:25.72	153.72	6.62	-43.4	-51.6	4.3	8.30e-01	0	56	0	0	58	9266
2026-01-16 11:46:26.73	153.71	6.70	-43.6	-52.7	3.9	8.40e-01	0	56	104	0	58	10419
2026-01-16 11:46:27.74	153.70	6.78	-43.7	-53.6	3.8	8.45e-01	0	56	104	0	58	11634
2026-01-16 11:46:28.74	153.69	6.85	-43.8	-54.3	3.8	8.47e-01	0	56	104	0	58	12585
2026-01-16 11:46:29.76	153.68	6.93	-43.9	-54.9	3.8	8.47e-01	0	56	104	0	58	13479
2026-01-16 11:46:30.77	153.67	7.01	-43.9	-55.6	3.8	8.46e-01	0	56	104	0	58	14543
2026-01-16 11:46:31.78	153.66	7.09	-43.9	-55.5	3.8	8.47e-01	0	56	104	0	58	14461
2026-01-16 11:46:32.78	153.65	7.17	-43.9	-54.9	3.8	8.47e-01	0	56	104	0	58	13542
2026-01-16 11:46:33.79	153.64	7.25	-43.6	-53.2	3.9	8.45e-01	0	56	104	0	58	11113
2026-01-16 11:46:34.80	153.63	7.32	-43.4	-51.6	4.3	8.39e-01	0	56	0	0	58	9257
2026-01-16 11:46:35.82	153.62	7.40	-43.1	-50.1	5.0	8.02e-01	0	56	0	0	58	7741
2026-01-16 11:46:36.83	153.61	7.48	-42.6	-48.4	6.1	5.53e-01	0	56	0	2097152	57	6738
2026-01-16 11:46:37.84	153.60	7.56	-42.3	-47.5	6.7	2.47e-01	0	56	0	7340032	56	6492
2026-01-16 11:46:38.85	153.59	7.64	-41.6	-46.0	8.1	1.12e-01	0	56	0	12582912	55	5761
2026-01-16 11:46:39.86	153.58	7.72	-41.3	-45.3	8.7	4.73e-02	0	57	0	18874368	54	5646
2026-01-16 11:46:40.87	153.56	7.81	-40.7	-44.2	9.9	1.81e-02	0	56	0	24117248	53	5276
2026-01-16 11:46:41.88	153.55	7.89	-40.5	-43.9	10.2	1.02e-02	0	57	0	30408704	53	5082
2026-01-16 11:46:42.89	153.54	7.97	-40.2	-43.4	10.7	4.54e-03	0	57	0	35651584	52	5094
2026-01-16 11:46:43.91	153.53	8.05	-40.0	-43.1	11.0	2.27e-03	0	57	0	41943040	52	4912
2026-01-16 11:46:44.91	153.52	8.13	-44.1	-52.9	4.1	8.40e-01	0	57	104	45088768	58	10685
2026-01-16 11:46:45.93	153.51	8.21	-44.3	-55.9	3.8	8.45e-01	0	57	104	45088768	59	14282
2026-01-16 11:46:46.93	153.50	8.29	-42.9	-50.4	4.7	2.68e-02	0	56	0	45088768	56	9039
2026-01-16 11:46:47.94	153.48	8.38	-43.0	-49.4	5.4	3.55e-01	0	57	0	48234496	56	8038
2026-01-16 11:46:48.96	153.47	8.46	-40.5	-43.9	10.2	3.51e-03	0	57	0	53477376	52	5391
2026-01-16 11:46:49.97	153.46	8.54	-40.1	-43.2	11.1	3.99e-03	0	57	0	58720256	51	5222
2026-01-16 11:46:50.98	153.45	8.63	-39.8	-42.7	11.5	1.19e-03	0	57	0	65011712	51	4976
2026-01-16 11:46:51.99	153.44	8.71	-39.8	-42.6	11.7	1.09e-03	0	57	0	70254592	51	4904
2026-01-16 11:46:53.00	153.43	8.79	-39.7	-42.5	11.8	1.00e-03	0	57	0	75497472	51	4849
2026-01-16 11:46:54.01	153.41	8.88	-39.7	-42.4	11.9	7.20e-04	0	57	0	81788928	51	4810
2026-01-16 11:46:55.01	153.40	8.96	-39.7	-42.5	11.8	6.82e-04	0	57	0	87031808	51	4861
2026-01-16 11:46:56.02	153.39	9.05	-39.7	-42.4	11.9	4.45e-04	0	57	0	93323264	51	4783
2026-01-16 11:46:57.03	153.38	9.13	-39.7	-42.5	11.9	5.49e-04	0	57	0	98566144	51	4841
2026-01-16 11:46:58.04	153.36	9.22	-39.6	-42.3	12.1	4.84e-04	0	57	0	103809024	51	4714
2026-01-16 11:46:59.05	153.35	9.30	-39.5	-42.2	12.3	2.84e-04	0	57	0	110100480	50	4928
2026-01-16 11:47:00.06	153.34	9.39	-39.6	-42.2	12.3	2.82e-04	0	57	0	115343360	50	4962
2026-01-16 11:47:01.07	153.33	9.47	-39.5	-42.2	12.3	2.68e-04	0	57	0	121634816	50	4932
2026-01-16 11:47:02.08	153.31	9.56	-39.4	-42.0	12.5	3.12e-04	0	57	0	126877696	50	4837
2026-01-16 11:47:03.09	153.30	9.65	-39.5	-42.0	12.5	1.85e-04	0	57	0	132120576	50	4858
2026-01-16 11:47:04.10	153.29	9.73	-39.3	-41.9	12.6	1.80e-04	0	57	0	138412032	50	4770
2026-01-16 11:47:05.11	153.27	9.82	-39.5	-42.1	12.4	1.49e-04	0	57	0	143654912	50	4887
2026-01-16 11:47:06.12	153.26	9.91	-39.3	-41.9	12.7	1.79e-04	0	57	0	149946368	50	4760
2026-01-16 11:47:07.13	153.25	10.00	-39.3	-41.9	12.7	1.72e-04	0	57	0	155189248	50	4785
2026-01-16 11:47:08.14	153.23	10.08	-39.4	-41.9	12.7	1.05e-04	0	57	0	161480704	50	4772
2026-01-16 11:47:09.14	153.22	10.17	-39.3	-41.9	12.8	1.06e-04	0	57	0	166723584	50	4766
2026-01-16 11:47:10.15	153.21	10.26	-39.2	-41.7	12.9	7.89e-05	0	57	0	171966464	50	4684
2026-01-16 11:47:11.16	153.19	10.35	-39.3	-41.8	12.8	8.46e-05	0	57	0	178257920	50	4732
2026-01-16 11:47:12.17	153.18	10.44	-39.0	-41.5	13.1	6.40e-05	0	58	0	183500800	50	4587
2026-01-16 11:47:13.18	153.17	10.53	-39.2	-41.6	13.1	7.20e-05	0	58	0	189792256	50	4610
2026-01-16 11:47:14.19	153.15	10.62	-39.2	-41.6	13.1	4.57e-05	0	57	0	195035136	50	4631
2026-01-16 11:47:15.20	153.14	10.71	-39.0	-41.5	13.2	6.17e-05	0	58	0	200278016	50	4571
2026-01-16 11:47:16.21	153.12	10.80	-39.2	-41.6	13.1	5.72e-05	0	57	0	206569472	50	4644
2026-01-16 11:47:17.22	153.11	10.89	-39.1	-41.5	13.2	6.06e-05	0	57	0	211812352	50	4568
2026-01-16 11:47:18.23	153.09	10.98	-39.1	-41.5	13.2	5.14e-05	0	58	0	218103808	50	4551
2026-01-16 11:47:19.24	153.08	11.07	-39.1	-41.5	13.3	4.80e-05	0	58	0	223346688	49	4832
2026-01-16 11:47:20.25	153.06	11.17	-39.1	-41.5	13.2	3.77e-05	0	57	0	228589568	49	4847
2026-01-16 11:47:21.26	153.05	11.26	-39.0	-41.4	13.4	2.05e-05	0	58	0	234881024	49	4777
2026-01-16 11:47:22.27	153.04	11.35	-39.0	-41.3	13.5	2.40e-05	0	58	0	240123904	49	4747
2026-01-16 11:47:23.28	153.02	11.45	-39.1	-41.4	13.4	2.17e-05	0	58	0	246415360	49	4814
2026-01-16 11:47:24.29	153.01	11.54	-39.0	-41.4	13.4	2.05e-05	0	58	0	251658240	49	4769
2026-01-16 11:47:25.30	152.99	11.63	-39.0	-41.3	13.5	1.60e-05	0	58	0	257949696	49	4756
2026-01-16 11:47:26.32	152.97	11.73	-39.1	-41.4	13.5	3.08e-05	0	58	0	263192576	49	4779
2026-01-16 11:47:27.33	152.96	11.82	-39.1	-41.4	13.4	3.66e-05	0	58	0	269484032	49	4790
2026-01-16 11:47:28.34	152.94	11.92	-39.0	-41.2	13.6	2.51e-05	0	58	0	274726912	49	4691
2026-01-16 11:47:29.35	152.93	12.01	-39.1	-41.4	13.5	1.83e-05	0	58	0	279969792	49	4781
2026-01-16 11:47:30.36	152.91	12.11	-38.9	-41.2	13.7	2.63e-05	0	58	0	286261248	49	4653
2026-01-16 11:47:31.37	152.90	12.21	-39.1	-41.4	13.5	1.37e-05	0	58	0	291504128	49	4798
2026-01-16 11:47:32.38	152.88	12.30	-39.0	-41.3	13.6	1.48e-05	0	58	0	297795584	49	4723
2026-01-16 11:47:33.39	152.86	12.40	-38.9	-41.2	13.7	8.00e-06	0	58	0	303038464	49	4657
2026-01-16 11:47:34.40	152.85	12.50	-39.0	-41.3	13.7	1.48e-05	0	58	0	308281344	49	4706
2026-01-16 11:47:35.41	152.83	12.59	-39.0	-41.3	13.7	1.60e-05	0	58	0	314572800	49	4715
2026-01-16 11:47:36.42	152.81	12.69	-38.9	-41.1	13.8	1.02e-05	0	58	0	319815680	49	4613
2026-01-16 11:47:37.43	152.80	12.79	-38.9	-41.1	13.8	4.50e-06	0	58	0	326107136	49	4630
2026-01-16 11:47:38.44	152.78	12.89	-38.9	-41.2	13.8	9.10e-06	0	58	0	331350016	49	4656
2026-01-16 11:47:39.45	152.76	12.99	-38.9	-41.1	13.9	6.80e-06	0	58	0	336592896	49	4629
2026-01-16 11:47:40.46	152.75	13.09	-38.9	-41.2	13.7	9.10e-06	0	58	0	342884352	49	4673
2026-01-16 11:47:41.47	152.73	13.19	-38.8	-41.0	13.9	2.20e-06	0	58	0	348127232	49	4597
2026-01-16 11:47:42.48	152.71	13.29	-38.9	-41.1	13.9	1.02e-05	0	58	0	354418688	49	4614
2026-01-16 11:47:43.49	152.70	13.39	-38.9	-41.1	13.9	3.40e-06	0	58	0	359661568	49	4612
2026-01-16 11:47:44.50	152.68	13.49	-38.8	-41.0	14.0	4.50e-06	0	58	0	365953024	49	4573
2026-01-16 11:47:45.51	152.66	13.59	-38.7	-40.9	14.1	3.40e-06	0	58	0	371195904	49	4531
2026-01-16 11:47:46.52	152.64	13.69	-38.8	-40.9	14.1	5.70e-06	0	58	0	377487360	49	4542
2026-01-16 11:47:47.53	152.62	13.80	-38.8	-41.0	14.0	4.50e-06	0	58	0	382730240	49	4574
2026-01-16 11:47:48.54	152.61	13.90	-38.6	-40.7	14.3	0.00e+00	0	58	0	387973120	49	4440
2026-01-16 11:47:49.55	152.59	14.00	-38.6	-40.7	14.3	1.10e-06	0	58	0	394264576	49	4405
2026-01-16 11:47:50.56	152.57	14.11	-38.7	-40.8	14.2	1.10e-06	0	59	0	399507456	49	4491
2026-01-16 11:47:51.57	152.55	14.21	-38.6	-40.7	14.3	0.00e+00	0	59	0	405798912	49	4415
2026-01-16 11:47:52.58	152.53	14.32	-38.6	-40.7	14.4	0.00e+00	0	59	0	411041792	49	4398
2026-01-16 11:47:53.59	152.51	14.42	-38.4	-40.4	14.6	0.00e+00	0	59	0	416284672	48	4544
2026-01-16 11:47:54.60	152.49	14.53	-38.5	-40.6	14.5	0.00e+00	0	58	0	422576128	48	4627
2026-01-16 11:47:55.61	152.47	14.63	-38.5	-40.5	14.6	0.00e+00	0	59	0	427819008	48	4595
2026-01-16 11:47:56.62	152.45	14.74	-38.4	-40.5	14.6	0.00e+00	0	58	0	434110464	48	4576
2026-01-16 11:47:57.63	152.44	14.85	-38.3	-40.4	14.8	0.00e+00	0	59	0	439353344	48	4504
2026-01-16 11:47:58.64	152.42	14.95	-38.4	-40.4	14.7	0.00e+00	0	59	0	444596224	48	4515
2026-01-16 11:47:59.64	152.40	15.06	-38.4	-40.4	14.7	0.00e+00	0	58	0	450887680	48	4521
2026-01-16 11:48:00.65	152.38	15.17	-38.3	-40.3	14.8	0.00e+00	0	59	0	456130560	48	4463
2026-01-16 11:48:01.66	152.36	15.28	-38.3	-40.4	14.8	1.10e-06	0	59	0	462422016	48	4502
2026-01-16 11:48:02.67	152.34	15.39	-38.2	-40.2	14.9	0.00e+00	0	59	0	467664896	48	4419
2026-01-16 11:48:03.68	152.31	15.50	-38.2	-40.1	15.0	0.00e+00	0	59	0	473956352	48	4379
2026-01-16 11:48:04.69	152.29	15.61	-38.2	-40.2	15.0	0.00e+00	0	59	0	479199232	48	4402
2026-01-16 11:48:05.70	152.27	15.72	-38.2	-40.1	15.0	0.00e+00	0	59	0	484442112	48	4372
2026-01-16 11:48:06.71	152.25	15.83	-38.1	-40.0	15.1	0.00e+00	0	59	0	490733568	48	4337
2026-01-16 11:48:07.72	152.23	15.94	-38.1	-40.1	15.1	0.00e+00	0	59	0	495976448	48	4342
2026-01-16 11:48:08.73	152.21	16.06	-38.1	-40.0	15.1	1.10e-06	0	59	0	502267904	48	4327
2026-01-16 11:48:09.74	152.19	16.17	-38.1	-40.0	15.2	0.00e+00	0	59	0	507510784	48	4304
2026-01-16 11:48:10.75	152.17	16.28	-38.1	-40.0	15.2	0.00e+00	0	59	0	512753664	48	4320
2026-01-16 11:48:11.76	152.14	16.40	-38.0	-40.0	15.2	0.00e+00	0	59	0	519045120	48	4293
2026-01-16 11:48:12.77	152.12	16.51	-37.8	-39.8	15.3	0.00e+00	0	59	0	524288000	47	4445
2026-01-16 11:48:13.78	152.10	16.63	-37.8	-39.7	15.4	0.00e+00	0	59	0	530579456	47	4436
2026-01-16 11:48:14.79	152.08	16.74	-37.7	-39.6	15.4	0.00e+00	0	59	0	535822336	47	4390
2026-01-16 11:48:15.80	152.05	16.86	-37.7	-39.6	15.5	0.00e+00	0	59	0	541065216	47	4362
2026-01-16 11:48:16.81	152.03	16.97	-37.6	-39.4	15.7	0.00e+00	0	59	0	547356672	47	4264
2026-01-16 11:48:17.81	152.01	17.09	-37.7	-39.5	15.6	0.00e+00	0	59	0	552599552	47	4338
2026-01-16 11:48:18.82	151.99	17.21	-37.6	-39.5	15.7	0.00e+00	0	59	0	558891008	47	4297
2026-01-16 11:48:19.83	151.96	17.33	-37.6	-39.4	15.7	0.00e+00	0	59	0	564133888	47	4269
2026-01-16 11:48:20.84	151.94	17.45	-37.5	-39.4	15.7	0.00e+00	0	59	0	570425344	47	4246
2026-01-16 11:48:21.85	151.91	17.57	-37.4	-39.2	16.0	0.00e+00	0	59	0	575668224	46	4411
2026-01-16 11:48:22.86	151.89	17.69	-37.4	-39.3	15.9	0.00e+00	0	59	0	580911104	46	4444
2026-01-16 11:48:23.87	151.87	17.81	-37.4	-39.2	16.0	0.00e+00	0	59	0	587202560	46	4413
2026-01-16 11:48:24.88	151.84	17.93	-37.4	-39.2	16.0	0.00e+00	0	59	0	592445440	46	4401
2026-01-16 11:48:25.89	151.82	18.05	-37.4	-39.3	15.9	0.00e+00	0	59	0	598736896	46	4442
2026-01-16 11:48:26.90	151.79	18.17	-37.3	-39.1	16.1	0.00e+00	0	59	0	603979776	46	4341
2026-01-16 11:48:27.91	151.77	18.30	-37.4	-39.2	16.0	0.00e+00	0	59	0	610271232	46	4407
2026-01-16 11:48:28.92	151.74	18.42	-37.3	-39.0	16.1	0.00e+00	0	59	0	615514112	46	4330
2026-01-16 11:48:29.93	151.71	18.54	-37.4	-39.2	16.0	0.00e+00	0	59	0	620756992	46	4397
2026-01-16 11:48:30.94	151.69	18.67	-37.3	-39.1	16.1	0.00e+00	0	59	0	627048448	46	4356
2026-01-16 11:48:31.95	151.66	18.79	-37.4	-39.2	16.0	0.00e+00	0	59	0	632291328	46	4398
2026-01-16 11:48:32.96	151.64	18.92	-37.3	-39.1	16.1	0.00e+00	0	59	0	638582784	46	4342
2026-01-16 11:48:33.97	151.61	19.05	-37.3	-39.1	16.1	0.00e+00	0	59	0	643825664	46	4376
2026-01-16 11:48:34.98	151.58	19.18	-37.3	-39.1	16.1	0.00e+00	0	59	0	649068544	46	4370
2026-01-16 11:48:35.99	151.55	19.30	-37.3	-39.1	16.0	0.00e+00	0	59	0	655360000	46	4368
2026-01-16 11:48:37.00	151.53	19.43	-37.3	-39.1	16.1	0.00e+00	0	59	0	660602880	46	4378
2026-01-16 11:48:38.01	151.50	19.56	-37.4	-39.2	15.9	0.00e+00	0	59	0	666894336	46	4433
2026-01-16 11:48:39.01	151.47	19.69	-37.4	-39.2	16.0	0.00e+00	0	60	0	672137216	46	4410
2026-01-16 11:48:40.03	151.44	19.82	-37.5	-39.3	15.9	0.00e+00	0	59	0	678428672	46	4452
2026-01-16 11:48:41.04	151.42	19.95	-37.4	-39.3	15.9	0.00e+00	0	59	0	683671552	46	4442
2026-01-16 11:48:42.05	151.39	20.09	-37.5	-39.3	15.9	0.00e+00	0	60	0	688914432	46	4457
2026-01-16 11:48:43.05	151.36	20.22	-37.5	-39.4	15.8	0.00e+00	0	60	0	695205888	46	4516
2026-01-16 11:48:44.06	151.33	20.35	-37.5	-39.4	15.8	0.00e+00	0	60	0	700448768	46	4514
2026-01-16 11:48:45.07	151.30	20.49	-37.5	-39.4	15.8	0.00e+00	0	60	0	706740224	46	4509
2026-01-16 11:48:46.09	151.27	20.62	-37.6	-39.5	15.7	0.00e+00	0	59	0	711983104	46	4575
2026-01-16 11:48:47.10	151.24	20.76	-37.5	-39.4	15.8	0.00e+00	0	59	0	717225984	46	4494
2026-01-16 11:48:48.10	151.21	20.89	-37.5	-39.3	15.9	0.00e+00	0	60	0	723517440	46	4477
2026-01-16 11:48:49.12	151.18	21.03	-37.5	-39.3	15.9	0.00e+00	0	60	0	728760320	46	4471
2026-01-16 11:48:50.12	151.15	21.17	-37.4	-39.2	16.0	0.00e+00	0	59	0	735051776	46	4409
2026-01-16 11:48:51.13	151.12	21.31	-37.3	-39.1	16.1	0.00e+00	0	59	0	740294656	46	4383
2026-01-16 11:48:52.14	151.08	21.45	-37.3	-39.1	16.2	0.00e+00	0	60	0	745537536	46	4341
2026-01-16 11:48:53.15	151.05	21.59	-37.1	-38.8	16.4	0.00e+00	0	59	0	751828992	46	4240
2026-01-16 11:48:54.16	151.02	21.73	-37.0	-38.7	16.5	0.00e+00	0	59	0	757071872	46	4190
2026-01-16 11:48:55.17	150.99	21.87	-37.0	-38.7	16.6	0.00e+00	0	60	0	763363328	45	4417
2026-01-16 11:48:56.19	150.95	22.01	-36.9	-38.6	16.6	0.00e+00	0	60	0	768606208	45	4386
2026-01-16 11:48:57.19	150.92	22.16	-36.9	-38.6	16.6	0.00e+00	0	59	0	774897664	45	4387
2026-01-16 11:48:58.20	150.89	22.30	-36.7	-38.4	16.8	0.00e+00	0	60	0	780140544	45	4273
2026-01-16 11:48:59.21	150.85	22.45	-36.8	-38.4	16.8	0.00e+00	0	60	0	786432000	45	4283
2026-01-16 11:49:00.22	150.82	22.59	-36.7	-38.3	16.9	0.00e+00	0	60	0	791674880	45	4224
2026-01-16 11:49:01.23	150.78	22.74	-36.7	-38.3	16.9	0.00e+00	0	60	0	796917760	45	4234
2026-01-16 11:49:02.24	150.75	22.89	-36.7	-38.3	16.9	0.00e+00	0	59	0	803209216	45	4233
2026-01-16 11:49:03.25	150.71	23.03	-36.7	-38.4	16.8	0.00e+00	0	60	0	808452096	45	4262
2026-01-16 11:49:04.26	150.68	23.18	-36.7	-38.4	16.9	0.00e+00	0	60	0	813694976	45	4254
2026-01-16 11:49:05.27	150.64	23.33	-36.7	-38.4	16.8	0.00e+00	0	60	0	819986432	45	4270
2026-01-16 11:49:06.28	150.61	23.48	-36.7	-38.4	16.9	0.00e+00	0	60	0	825229312	45	4251
2026-01-16 11:49:07.29	150.57	23.64	-36.7	-38.4	16.9	0.00e+00	0	60	0	831520768	45	4249
2026-01-16 11:49:08.30	150.53	23.79	-36.7	-38.4	16.8	0.00e+00	0	60	0	836763648	45	4267
2026-01-16 11:49:09.31	150.49	23.94	-36.8	-38.5	16.8	0.00e+00	0	60	0	842006528	45	4302
2026-01-16 11:49:10.32	150.46	24.10	-36.7	-38.4	16.9	0.00e+00	0	60	0	848297984	45	4258
2026-01-16 11:49:11.32	150.42	24.25	-36.8	-38.4	16.8	0.00e+00	0	60	0	853540864	45	4291
2026-01-16 11:49:12.34	150.38	24.41	-36.7	-38.4	16.9	0.00e+00	0	60	0	859832320	45	4250
2026-01-16 11:49:13.35	150.34	24.57	-36.7	-38.4	16.9	0.00e+00	0	60	0	865075200	45	4248
2026-01-16 11:49:14.36	150.30	24.72	-36.8	-38.4	16.8	0.00e+00	0	60	0	871366656	45	4285
2026-01-16 11:49:15.37	150.26	24.88	-36.8	-38.5	16.8	0.00e+00	0	60	0	876609536	45	4292
2026-01-16 11:49:16.37	150.22	25.04	-36.7	-38.3	16.9	0.00e+00	0	60	0	882900992	45	4237
2026-01-16 11:49:17.38	150.18	25.20	-36.6	-38.3	17.0	0.00e+00	0	60	0	888143872	45	4203
2026-01-16 11:49:18.39	150.14	25.36	-36.6	-38.2	17.1	0.00e+00	0	60	0	893386752	45	4151
2026-01-16 11:49:19.40	150.10	25.53	-36.6	-38.2	17.1	0.00e+00	0	60	0	899678208	45	4153
2026-01-16 11:49:20.41	150.05	25.69	-36.5	-38.1	17.2	0.00e+00	0	60	0	904921088	45	4127
2026-01-16 11:49:21.42	150.01	25.86	-36.5	-38.1	17.2	0.00e+00	0	60	0	911212544	45	4119
2026-01-16 11:49:22.43	149.97	26.02	-36.5	-38.1	17.2	0.00e+00	0	60	0	916455424	44	4342
2026-01-16 11:49:23.44	149.92	26.19	-36.5	-38.1	17.3	0.00e+00	0	60	0	921698304	44	4341
2026-01-16 11:49:24.45	149.88	26.36	-36.5	-38.0	17.3	0.00e+00	0	60	0	927989760	44	4336
2026-01-16 11:49:25.46	149.83	26.53	-36.5	-38.1	17.2	0.00e+00	0	60	0	933232640	44	4363
2026-01-16 11:49:26.46	149.79	26.69	-36.5	-38.0	17.3	0.00e+00	0	60	0	939524096	44	4340
2026-01-16 11:49:27.47	149.74	26.86	-36.5	-38.1	17.2	0.00e+00	0	60	0	944766976	44	4381
2026-01-16 11:49:28.49	149.70	27.04	-36.6	-38.2	17.2	0.00e+00	0	60	0	950009856	44	4399
2026-01-16 11:49:29.49	149.65	27.21	-36.6	-38.2	17.1	0.00e+00	0	60	0	956301312	44	4420
2026-01-16 11:49:30.51	149.60	27.39	-36.6	-38.2	17.1	0.00e+00	0	60	0	961544192	44	4413
2026-01-16 11:49:31.52	149.55	27.56	-36.7	-38.3	17.0	0.00e+00	0	60	0	967835648	44	4459
2026-01-16 11:49:32.53	149.51	27.74	-36.6	-38.3	17.1	0.00e+00	0	60	0	973078528	44	4444
2026-01-16 11:49:33.54	149.46	27.92	-36.7	-38.3	17.0	0.00e+00	0	60	0	979369984	44	4468
2026-01-16 11:49:34.55	149.41	28.09	-36.7	-38.4	17.0	0.00e+00	0	60	0	984612864	44	4499
2026-01-16 11:49:35.56	149.36	28.27	-36.7	-38.4	17.0	0.00e+00	0	60	0	989855744	44	4495
2026-01-16 11:49:36.57	149.31	28.45	-36.7	-38.3	17.0	0.00e+00	0	60	0	996147200	44	4478
2026-01-16 11:49:37.58	149.25	28.64	-36.7	-38.3	17.0	0.00e+00	0	60	0	1001390080	44	4492
2026-01-16 11:49:38.59	149.20	28.82	-36.7	-38.3	17.0	0.00e+00	0	60	0	1007681536	44	4487
2026-01-16 11:49:39.60	149.15	29.00	-36.6	-38.2	17.1	0.00e+00	0	60	0	1012924416	44	4437
2026-01-16 11:49:40.61	149.10	29.19	-36.6	-38.3	17.0	0.00e+00	0	60	0	1019215872	44	4487
2026-01-16 11:49:41.62	149.04	29.38	-36.6	-38.3	17.0	0.00e+00	0	60	0	1024458752	44	4449
2026-01-16 11:49:42.63	148.99	29.57	-36.6	-38.3	17.0	0.00e+00	0	60	0	1029701632	44	4442
2026-01-16 11:49:43.64	148.93	29.75	-36.6	-38.3	17.0	0.00e+00	0	60	0	1035993088	44	4479
2026-01-16 11:49:44.65	148.88	29.94	-36.6	-38.2	17.1	0.00e+00	0	60	0	1041235968	44	4417
2026-01-16 11:49:45.66	148.82	30.14	-36.5	-38.1	17.1	0.00e+00	0	60	0	1046478848	44	4377
2026-01-16 11:49:46.67	148.76	30.33	-36.4	-38.1	17.2	0.00e+00	0	60	0	1052770304	44	4344
2026-01-16 11:49:47.68	148.70	30.52	-36.4	-38.1	17.2	0.00e+00	0	60	0	1058013184	44	4349
2026-01-16 11:49:48.69	148.65	30.72	-36.4	-38.1	17.2	0.00e+00	0	60	0	1064304640	44	4354
2026-01-16 11:49:49.70	148.59	30.92	-36.4	-38.0	17.3	0.00e+00	0	60	0	1069547520	44	4303
2026-01-16 11:49:50.71	148.53	31.11	-36.2	-37.8	17.5	0.00e+00	0	60	0	1075838976	44	4223
2026-01-16 11:49:51.72	148.46	31.31	-36.2	-37.8	17.5	0.00e+00	0	60	0	1081081856	44	4207
2026-01-16 11:49:52.73	148.40	31.52	-36.2	-37.7	17.6	0.00e+00	0	60	0	1087373312	44	4185
2026-01-16 11:49:53.74	148.34	31.72	-36.2	-37.7	17.5	0.00e+00	0	60	0	1092616192	44	4191
2026-01-16 11:49:54.75	148.28	31.92	-36.0	-37.6	17.7	0.00e+00	0	60	0	1097859072	44	4101
2026-01-16 11:49:55.76	148.21	32.13	-35.8	-37.3	17.8	0.00e+00	0	60	0	1104150528	43	4231
2026-01-16 11:49:56.77	148.15	32.33	-35.8	-37.3	17.8	0.00e+00	0	60	0	1109393408	43	4206
2026-01-16 11:49:57.78	148.08	32.54	-35.7	-37.2	17.9	0.00e+00	0	60	0	1115684864	43	4166
2026-01-16 11:49:58.79	148.01	32.75	-35.7	-37.2	18.0	0.00e+00	0	60	0	1120927744	43	4149
2026-01-16 11:49:59.80	147.94	32.96	-35.7	-37.2	17.9	0.00e+00	0	60	0	1126170624	43	4174
2026-01-16 11:50:00.80	147.88	33.17	-35.7	-37.2	17.9	0.00e+00	0	60	0	1132462080	43	4190
2026-01-16 11:50:01.82	147.81	33.38	-35.8	-37.3	17.8	0.00e+00	0	60	0	1137704960	43	4230
2026-01-16 11:50:02.83	147.73	33.60	-35.9	-37.4	17.8	0.00e+00	0	60	0	1143996416	43	4259
2026-01-16 11:50:03.84	147.66	33.82	-35.9	-37.4	17.7	0.00e+00	0	60	0	1149239296	43	4282
2026-01-16 11:50:04.84	147.59	34.03	-35.9	-37.5	17.7	0.00e+00	0	60	0	1154482176	43	4301
2026-01-16 11:50:05.85	147.52	34.25	-35.8	-37.4	17.8	0.00e+00	0	60	0	1160773632	43	4246
2026-01-16 11:50:06.86	147.44	34.47	-35.8	-37.3	17.9	0.00e+00	0	60	0	1166016512	43	4201
2026-01-16 11:50:07.87	147.37	34.69	-35.7	-37.2	18.0	0.00e+00	0	60	0	1172307968	43	4183
2026-01-16 11:50:08.88	147.29	34.92	-35.7	-37.1	18.1	0.00e+00	0	60	0	1177550848	43	4134
2026-01-16 11:50:09.89	147.21	35.14	-35.6	-37.0	18.2	0.00e+00	0	60	0	1183842304	43	4093
2026-01-16 11:50:10.90	147.13	35.37	-35.6	-37.1	18.1	0.00e+00	0	60	0	1189085184	43	4126
2026-01-16 11:50:11.91	147.05	35.60	-35.6	-37.1	18.1	0.00e+00	0	60	0	1195376640	43	4121
2026-01-16 11:50:12.92	146.97	35.83	-35.6	-37.1	18.1	0.00e+00	0	60	0	1200619520	43	4122
2026-01-16 11:50:13.93	146.89	36.06	-35.7	-37.1	18.1	0.00e+00	0	60	0	1205862400	43	4140
2026-01-16 11:50:14.94	146.80	36.29	-35.7	-37.2	18.0	0.00e+00	0	60	0	1212153856	43	4164
2026-01-16 11:50:15.95	146.72	36.53	-35.8	-37.3	17.9	0.00e+00	0	60	0	1217396736	43	4236
2026-01-16 11:50:16.96	146.63	36.76	-35.9	-37.4	17.8	0.00e+00	0	60	0	1222639616	43	4275
2026-01-16 11:50:17.97	146.54	37.00	-36.0	-37.5	17.7	0.00e+00	0	60	0	1228931072	43	4327
2026-01-16 11:50:18.98	146.45	37.24	-36.0	-37.5	17.7	0.00e+00	0	60	0	1234173952	43	4332
2026-01-16 11:50:19.99	146.36	37.48	-35.9	-37.4	17.8	0.00e+00	0	60	0	1240465408	43	4282
2026-01-16 11:50:21.00	146.27	37.73	-35.9	-37.5	17.7	0.00e+00	0	60	0	1245708288	43	4300
2026-01-16 11:50:22.01	146.18	37.97	-35.9	-37.5	17.7	0.00e+00	0	60	0	1250951168	43	4298
2026-01-16 11:50:23.01	146.08	38.21	-36.0	-37.5	17.6	0.00e+00	0	60	0	1257242624	43	4329
2026-01-16 11:50:24.02	145.99	38.46	-35.9	-37.5	17.7	0.00e+00	0	60	0	1262485504	43	4302
2026-01-16 11:50:25.03	145.89	38.71	-36.0	-37.5	17.7	0.00e+00	0	60	0	1268776960	43	4311
2026-01-16 11:50:26.04	145.79	38.96	-36.0	-37.5	17.7	0.00e+00	0	60	0	1274019840	43	4323
2026-01-16 11:50:27.05	145.69	39.22	-36.0	-37.5	17.7	0.00e+00	0	60	0	1280311296	43	4322
2026-01-16 11:50:28.06	145.59	39.47	-36.0	-37.5	17.7	0.00e+00	0	61	0	1285554176	43	4311
2026-01-16 11:50:29.07	145.48	39.73	-35.9	-37.4	17.8	0.00e+00	0	60	0	1291845632	43	4278
2026-01-16 11:50:30.08	145.38	39.99	-35.8	-37.3	17.9	0.00e+00	0	60	0	1297088512	43	4234
2026-01-16 11:50:31.09	145.27	40.25	-35.8	-37.3	17.9	0.00e+00	0	60	0	1302331392	43	4216
2026-01-16 11:50:32.10	145.16	40.51	-35.8	-37.3	17.9	0.00e+00	0	60	0	1308622848	43	4215
2026-01-16 11:50:33.11	145.05	40.78	-36.0	-37.5	17.7	0.00e+00	0	60	0	1313865728	43	4311
2026-01-16 11:50:34.12	144.93	41.04	-36.1	-37.7	17.6	0.00e+00	0	60	0	1320157184	43	4408
2026-01-16 11:50:35.13	144.82	41.31	-36.3	-37.9	17.4	0.00e+00	0	60	0	1325400064	43	4512
2026-01-16 11:50:36.14	144.70	41.58	-36.5	-38.1	17.1	0.00e+00	0	60	0	1330642944	43	4628
2026-01-16 11:50:37.15	144.58	41.85	-36.5	-38.2	17.1	0.00e+00	0	60	0	1336934400	43	4656
2026-01-16 11:50:38.16	144.46	42.12	-36.4	-38.0	17.2	0.00e+00	0	60	0	1342177280	43	4579
2026-01-16 11:50:39.17	144.34	42.40	-36.3	-37.9	17.3	0.00e+00	0	60	0	1348468736	43	4527
2026-01-16 11:50:40.17	144.21	42.67	-36.3	-37.9	17.4	0.00e+00	0	60	0	1353711616	43	4524
2026-01-16 11:50:41.18	144.09	42.95	-36.4	-37.9	17.3	0.00e+00	0	60	0	1358954496	43	4543
2026-01-16 11:50:42.19	143.95	43.23	-36.5	-38.1	17.2	0.00e+00	0	60	0	1365245952	43	4604
2026-01-16 11:50:43.20	143.82	43.52	-36.4	-38.0	17.3	0.00e+00	0	60	0	1370488832	43	4592
2026-01-16 11:50:44.21	143.69	43.80	-36.3	-37.9	17.4	0.00e+00	0	61	0	1376780288	43	4518
2026-01-16 11:50:45.22	143.55	44.09	-36.3	-37.8	17.5	0.00e+00	0	61	0	1382023168	43	4467
2026-01-16 11:50:46.23	143.41	44.38	-36.2	-37.8	17.5	0.00e+00	0	60	0	1388314624	43	4469
2026-01-16 11:50:47.24	143.27	44.67	-36.3	-37.8	17.4	0.00e+00	0	60	0	1393557504	43	4488
2026-01-16 11:50:48.25	143.12	44.96	-36.2	-37.8	17.5	0.00e+00	0	60	0	1398800384	43	4468
2026-01-16 11:50:49.26	142.97	45.25	-36.3	-37.8	17.4	0.00e+00	0	60	0	1405091840	43	4483
2026-01-16 11:50:50.27	142.82	45.55	-36.2	-37.8	17.5	0.00e+00	0	61	0	1410334720	43	4452
2026-01-16 11:50:51.28	142.67	45.85	-36.3	-37.8	17.5	0.00e+00	0	60	0	1416626176	43	4475
2026-01-16 11:50:52.29	142.51	46.15	-36.2	-37.8	17.5	0.00e+00	0	60	0	1421869056	43	4447
2026-01-16 11:50:53.30	142.35	46.45	-36.3	-37.8	17.5	0.00e+00	0	60	0	1427111936	43	4472
2026-01-16 11:50:54.31	142.19	46.75	-36.2	-37.8	17.6	0.00e+00	0	61	0	1433403392	43	4446
2026-01-16 11:50:55.32	142.02	47.06	-36.3	-37.8	17.5	0.00e+00	0	60	0	1438646272	43	4486
2026-01-16 11:50:56.33	141.85	47.37	-36.3	-37.9	17.5	0.00e+00	0	60	0	1444937728	43	4495
2026-01-16 11:50:57.34	141.68	47.68	-36.3	-37.8	17.5	0.00e+00	0	60	0	1450180608	43	4485
2026-01-16 11:50:58.35	141.50	47.99	-36.3	-37.8	17.5	0.00e+00	0	60	0	1455423488	43	4461
2026-01-16 11:50:59.36	141.32	48.31	-36.2	-37.7	17.6	0.00e+00	0	60	0	1461714944	43	4436
2026-01-16 11:51:00.37	141.14	48.62	-36.3	-37.8	17.5	0.00e+00	0	60	0	1466957824	43	4490
2026-01-16 11:51:01.37	140.95	48.94	-36.5	-38.1	17.2	0.00e+00	0	61	0	1473249280	43	4631
2026-01-16 11:51:02.39	140.76	49.26	-36.9	-38.6	16.9	0.00e+00	0	61	0	1478492160	44	4607
2026-01-16 11:51:03.39	140.57	49.58	-37.1	-38.7	16.8	0.00e+00	0	61	0	1484783616	44	4681
2026-01-16 11:51:04.41	140.36	49.91	-37.1	-38.7	16.8	0.00e+00	0	61	0	1490026496	44	4678
2026-01-16 11:51:05.41	140.16	50.23	-37.1	-38.8	16.7	0.00e+00	0	61	0	1496317952	44	4722
2026-01-16 11:51:06.42	139.95	50.56	-37.3	-39.0	16.5	0.00e+00	0	61	0	1501560832	45	4567
2026-01-16 11:51:07.43	139.74	50.88	-37.6	-39.4	16.1	0.00e+00	0	60	0	1506803712	45	4781
2026-01-16 11:51:08.44	139.52	51.22	-37.7	-39.5	16.0	0.00e+00	0	60	0	1513095168	45	4816
2026-01-16 11:51:09.46	139.29	51.55	-37.5	-39.3	16.2	0.00e+00	0	61	0	1518338048	45	4733
2026-01-16 11:51:10.47	139.06	51.89	-37.3	-39.0	16.4	0.00e+00	0	61	0	1524629504	45	4581
2026-01-16 11:51:11.48	138.83	52.23	-37.2	-38.9	16.6	0.00e+00	0	61	0	1529872384	45	4511
2026-01-16 11:51:12.49	138.59	52.56	-37.3	-39.0	16.4	0.00e+00	0	61	0	1535115264	45	4587
2026-01-16 11:51:13.50	138.34	52.90	-37.5	-39.2	16.3	0.00e+00	0	61	0	1541406720	45	4692
2026-01-16 11:51:14.51	138.09	53.25	-37.4	-39.2	16.3	0.00e+00	0	61	0	1546649600	45	4659
2026-01-16 11:51:15.52	137.84	53.59	-37.3	-39.0	16.5	0.00e+00	0	61	0	1552941056	45	4565
2026-01-16 11:51:16.53	137.57	53.94	-37.3	-39.1	16.4	0.00e+00	0	61	0	1558183936	45	4606
2026-01-16 11:51:17.54	137.30	54.29	-37.3	-38.9	16.6	0.00e+00	0	61	0	1563426816	45	4531
2026-01-16 11:51:18.55	137.03	54.63	-37.2	-38.9	16.6	0.00e+00	0	61	0	1569718272	45	4518
2026-01-16 11:51:19.56	136.74	54.99	-37.3	-39.0	16.5	0.00e+00	0	61	0	1574961152	45	4549
2026-01-16 11:51:20.57	136.45	55.34	-37.3	-39.0	16.5	0.00e+00	0	60	0	1581252608	45	4554
2026-01-16 11:51:21.58	136.15	55.69	-37.1	-38.8	16.7	0.00e+00	0	60	0	1586495488	45	4452
2026-01-16 11:51:22.59	135.85	56.05	-36.9	-38.5	16.9	0.00e+00	0	61	0	1592786944	45	4330
2026-01-16 11:51:23.60	135.53	56.40	-37.0	-38.6	16.8	0.00e+00	0	60	0	1598029824	45	4364
2026-01-16 11:51:24.61	135.21	56.76	-36.9	-38.5	16.9	0.00e+00	0	61	0	1604321280	45	4316
2026-01-16 11:51:25.62	134.88	57.12	-36.9	-38.5	16.9	0.00e+00	0	61	0	1609564160	45	4317
2026-01-16 11:51:26.63	134.54	57.48	-36.9	-38.5	17.0	0.00e+00	0	60	0	1614807040	45	4310
2026-01-16 11:51:27.64	134.19	57.85	-36.7	-38.3	17.1	0.00e+00	0	61	0	1621098496	45	4228
2026-01-16 11:51:28.65	133.83	58.21	-36.5	-38.1	17.3	0.00e+00	0	61	0	1626341376	45	4119
2026-01-16 11:51:29.66	133.47	58.58	-36.7	-38.3	17.1	0.00e+00	0	61	0	1632632832	45	4217
2026-01-16 11:51:30.67	133.09	58.94	-37.0	-38.7	16.8	0.00e+00	0	60	0	1637875712	45	4408
2026-01-16 11:51:31.68	132.70	59.31	-36.9	-38.5	17.0	0.00e+00	0	61	0	1643118592	45	4301
2026-01-16 11:51:32.69	132.30	59.68	-36.8	-38.4	17.1	0.00e+00	0	61	0	1649410048	45	4264
2026-01-16 11:51:33.70	131.88	60.05	-36.9	-38.5	16.9	0.00e+00	0	61	0	1654652928	45	4309
2026-01-16 11:51:34.71	131.46	60.42	-37.0	-38.6	16.8	0.00e+00	0	61	0	1660944384	45	4381
2026-01-16 11:51:35.72	131.02	60.79	-36.9	-38.5	16.9	0.00e+00	0	61	0	1666187264	45	4314
2026-01-16 11:51:36.73	130.57	61.16	-36.6	-38.1	17.2	0.00e+00	0	61	0	1671430144	45	4144
2026-01-16 11:51:37.74	130.11	61.53	-36.4	-37.9	17.4	0.00e+00	0	61	0	1677721600	44	4287
2026-01-16 11:51:38.75	129.63	61.90	-36.6	-38.2	17.2	0.00e+00	0	61	0	1682964480	44	4432
2026-01-16 11:51:39.76	129.14	62.27	-36.4	-38.0	17.3	0.00e+00	0	61	0	1689255936	44	4316
2026-01-16 11:51:40.77	128.63	62.64	-36.2	-37.7	17.6	0.00e+00	0	61	0	1694498816	44	4182
2026-01-16 11:51:41.78	128.10	63.02	-36.1	-37.6	17.8	0.00e+00	0	61	0	1700790272	44	4108
2026-01-16 11:51:42.79	127.56	63.39	-36.3	-37.8	17.5	0.00e+00	0	61	0	1706033152	44	4235
2026-01-16 11:51:43.80	127.00	63.76	-36.4	-38.0	17.3	0.00e+00	0	61	0	1711276032	44	4325
2026-01-16 11:51:44.81	126.43	64.13	-36.2	-37.8	17.5	0.00e+00	0	61	0	1717567488	44	4200
2026-01-16 11:51:45.82	125.83	64.50	-36.2	-37.8	17.6	0.00e+00	0	61	0	1722810368	44	4204
2026-01-16 11:51:46.83	125.22	64.87	-36.0	-37.5	17.8	0.00e+00	0	61	0	1729101824	44	4085
2026-01-16 11:51:47.84	124.58	65.24	-35.6	-37.1	18.0	0.00e+00	0	61	0	1734344704	43	4113
2026-01-16 11:51:48.85	123.92	65.61	-35.6	-37.0	18.0	0.00e+00	0	61	0	1739587584	43	4097
2026-01-16 11:51:49.86	123.24	65.98	-35.6	-37.1	18.1	0.00e+00	0	61	0	1745879040	43	4106
2026-01-16 11:51:50.87	122.54	66.34	-35.5	-36.9	18.2	0.00e+00	0	61	0	1751121920	43	4049
2026-01-16 11:51:51.88	121.81	66.71	-35.4	-36.9	18.3	0.00e+00	0	61	0	1757413376	42	4247
2026-01-16 11:51:52.89	121.06	67.07	-35.1	-36.5	18.6	0.00e+00	0	61	0	1762656256	42	4079
2026-01-16 11:51:53.90	120.28	67.43	-35.3	-36.7	18.5	0.00e+00	0	61	0	1767899136	42	4159
2026-01-16 11:51:54.91	119.48	67.78	-35.5	-36.9	18.3	0.00e+00	0	61	0	1774190592	42	4272
2026-01-16 11:51:55.92	118.64	68.14	-35.4	-36.8	18.3	0.00e+00	0	61	0	1779433472	42	4225
2026-01-16 11:51:56.93	117.78	68.49	-35.4	-36.9	18.3	0.00e+00	0	61	0	1785724928	42	4256
2026-01-16 11:51:57.94	116.88	68.84	-35.3	-36.7	18.4	0.00e+00	0	61	0	1790967808	42	4187
2026-01-16 11:51:58.96	115.94	69.18	-35.4	-36.8	18.3	0.00e+00	0	61	0	1797259264	42	4231
2026-01-16 11:51:59.97	114.98	69.52	-35.5	-37.0	18.1	0.00e+00	0	61	0	1802502144	42	4327
2026-01-16 11:52:00.98	113.98	69.86	-35.3	-36.8	18.3	0.00e+00	0	61	0	1808793600	42	4207
2026-01-16 11:52:01.99	112.95	70.19	-35.1	-36.5	18.5	0.00e+00	0	61	0	1814036480	42	4090
2026-01-16 11:52:03.00	111.88	70.51	-35.5	-36.9	18.2	0.00e+00	0	61	0	1819279360	42	4272
2026-01-16 11:52:04.01	110.77	70.83	-35.8	-37.3	17.8	0.00e+00	0	61	0	1825570816	42	4474
2026-01-16 11:52:05.02	109.62	71.15	-35.5	-36.9	18.2	0.00e+00	0	61	0	1830813696	42	4263
2026-01-16 11:52:06.02	108.45	71.45	-35.7	-37.1	18.0	0.00e+00	0	61	0	1837105152	42	4372
2026-01-16 11:52:07.03	107.22	71.75	-36.2	-37.8	17.4	0.00e+00	0	61	0	1842348032	42	4716
2026-01-16 11:52:08.04	105.94	72.05	-35.6	-37.1	17.9	0.00e+00	0	61	0	1847590912	42	4390
2026-01-16 11:52:09.05	104.62	72.33	-35.2	-36.6	18.5	0.00e+00	0	61	0	1853882368	42	4130
2026-01-16 11:52:10.06	103.26	72.61	-35.4	-36.9	18.2	0.00e+00	0	61	0	1859125248	42	4250
2026-01-16 11:52:11.07	101.85	72.87	-35.6	-37.2	17.9	0.00e+00	0	61	0	1865416704	42	4396
2026-01-16 11:52:12.08	100.40	73.13	-35.2	-36.7	18.3	0.00e+00	0	61	0	1870659584	42	4168
2026-01-16 11:52:13.09	98.89	73.38	-35.1	-36.5	18.5	0.00e+00	0	61	0	1875902464	42	4088
2026-01-16 11:52:14.10	97.35	73.62	-35.6	-37.1	18.0	0.00e+00	0	61	0	1882193920	42	4367
2026-01-16 11:52:15.11	95.75	73.84	-35.7	-37.2	17.8	0.00e+00	0	61	0	1887436800	42	4429
2026-01-16 11:52:16.12	94.11	74.06	-35.2	-36.6	18.5	0.00e+00	0	61	0	1893728256	42	4113
2026-01-16 11:52:17.13	92.42	74.26	-35.1	-36.5	18.6	0.00e+00	0	61	0	1898971136	42	4052
2026-01-16 11:52:18.14	90.69	74.44	-35.2	-36.7	18.4	0.00e+00	0	61	0	1905262592	42	4157
2026-01-16 11:52:19.15	88.92	74.62	-35.0	-36.5	18.6	0.00e+00	0	61	0	1910505472	42	4057
2026-01-16 11:52:20.16	87.11	74.78	-34.7	-36.0	18.9	0.00e+00	0	61	0	1916796928	41	4077
2026-01-16 11:52:21.17	85.26	74.92	-34.8	-36.2	18.8	0.00e+00	0	61	0	1922039808	41	4188
2026-01-16 11:52:22.18	83.37	75.05	-34.9	-36.3	18.7	0.00e+00	0	61	0	1927282688	41	4232
2026-01-16 11:52:23.19	81.45	75.17	-34.8	-36.2	18.8	0.00e+00	0	61	0	1933574144	41	4151
2026-01-16 11:52:24.20	79.51	75.26	-35.0	-36.4	18.6	0.00e+00	0	61	0	1938817024	41	4252
2026-01-16 11:52:25.21	77.53	75.34	-34.8	-36.1	18.9	0.00e+00	0	61	0	1945108480	41	4135
2026-01-16 11:52:26.22	75.54	75.41	-34.6	-36.0	19.0	0.00e+00	0	61	0	1950351360	41	4070
2026-01-16 11:52:27.23	73.53	75.45	-34.6	-35.9	19.1	0.00e+00	0	61	0	1955594240	41	4038
2026-01-16 11:52:28.24	71.52	75.48	-34.6	-35.9	19.1	0.00e+00	0	61	0	1961885696	41	4033
2026-01-16 11:52:29.25	69.49	75.50	-34.9	-36.3	18.7	0.00e+00	0	61	0	1967128576	41	4206
2026-01-16 11:52:30.26	67.47	75.49	-34.8	-36.3	18.7	0.00e+00	0	61	0	1972371456	41	4211
2026-01-16 11:52:31.27	65.44	75.47	-34.4	-35.8	19.2	0.00e+00	0	61	0	1978662912	40	4195
2026-01-16 11:52:32.28	63.43	75.43	-34.7	-36.0	19.0	0.00e+00	0	61	0	1983905792	40	4331
2026-01-16 11:52:33.29	61.43	75.37	-34.8	-36.3	18.7	0.00e+00	0	61	0	1990197248	40	4453
2026-01-16 11:52:34.30	59.46	75.29	-34.3	-35.7	19.3	0.00e+00	0	61	0	1995440128	40	4147
2026-01-16 11:52:35.31	57.50	75.20	-34.4	-35.8	19.2	0.00e+00	0	61	0	2001731584	40	4195
2026-01-16 11:52:36.32	55.57	75.09	-34.6	-36.0	19.0	0.00e+00	0	61	0	2006974464	40	4304
2026-01-16 11:52:37.33	53.67	74.97	-34.5	-35.9	19.2	0.00e+00	0	61	0	2013265920	40	4248
2026-01-16 11:52:38.34	51.81	74.83	-34.7	-36.0	19.0	0.00e+00	0	61	0	2018508800	40	4330
2026-01-16 11:52:39.35	49.98	74.68	-34.9	-36.3	18.7	0.00e+00	0	61	0	2023751680	40	4473
2026-01-16 11:52:40.36	48.20	74.51	-34.7	-36.0	19.0	0.00e+00	0	61	0	2030043136	40	4311
2026-01-16 11:52:41.37	46.45	74.33	-34.6	-35.9	19.1	0.00e+00	0	61	0	2035286016	40	4283
2026-01-16 11:52:42.38	44.75	74.13	-34.8	-36.1	18.9	0.00e+00	0	61	0	2041577472	40	4379
2026-01-16 11:52:43.39	43.10	73.92	-34.7	-36.1	18.9	0.00e+00	0	61	0	2046820352	40	4354
2026-01-16 11:52:44.40	41.49	73.70	-34.8	-36.2	18.8	0.00e+00	0	61	0	2052063232	40	4421
2026-01-16 11:52:45.41	39.92	73.47	-35.1	-36.5	18.5	0.00e+00	0	61	0	2058354688	40	4578
2026-01-16 11:52:46.42	38.40	73.22	-34.9	-36.3	18.8	0.00e+00	0	61	0	2063597568	40	4442
2026-01-16 11:52:47.43	36.93	72.97	-34.8	-36.2	18.8	0.00e+00	0	61	0	2069889024	40	4393
2026-01-16 11:52:48.44	35.51	72.71	-34.9	-36.3	18.7	0.00e+00	0	61	0	2075131904	40	4465
2026-01-16 11:52:49.45	34.13	72.43	-34.9	-36.3	18.7	0.00e+00	0	61	0	2080374784	40	4458
2026-01-16 11:52:50.46	32.80	72.15	-35.0	-36.4	18.6	0.00e+00	0	61	0	2086666240	40	4509
2026-01-16 11:52:51.47	31.51	71.86	-35.2	-36.6	18.4	0.00e+00	0	61	0	2091909120	40	4628
2026-01-16 11:52:52.48	30.26	71.56	-35.0	-36.4	18.6	0.00e+00	0	61	0	2098200576	40	4527
2026-01-16 11:52:53.49	29.06	71.26	-35.0	-36.4	18.7	0.00e+00	0	61	0	2103443456	40	4518
2026-01-16 11:52:54.50	27.90	70.95	-35.0	-36.4	18.7	0.00e+00	0	61	0	2109734912	40	4504
2026-01-16 11:52:55.51	26.78	70.63	-35.0	-36.4	18.7	0.00e+00	0	61	0	2114977792	40	4517
2026-01-16 11:52:56.52	25.70	70.31	-35.1	-36.5	18.5	0.00e+00	0	61	0	2121269248	40	4588
2026-01-16 11:52:57.53	24.65	69.98	-35.2	-36.6	18.5	0.00e+00	0	61	0	2126512128	41	4357
2026-01-16 11:52:58.54	23.64	69.65	-35.0	-36.4	18.7	0.00e+00	0	61	0	2131755008	41	4276
2026-01-16 11:52:59.55	22.67	69.31	-35.0	-36.4	18.7	0.00e+00	0	61	0	2138046464	41	4256
2026-01-16 11:53:00.56	21.73	68.97	-35.3	-36.7	18.4	0.00e+00	0	61	0	2143289344	41	4394
2026-01-16 11:53:01.57	20.82	68.62	-35.6	-37.1	18.0	0.00e+00	0	61	0	2149580800	41	4642
2026-01-16 11:53:02.58	19.95	68.27	-35.6	-37.1	17.9	0.00e+00	0	61	0	2154823680	41	4646
2026-01-16 11:53:03.59	19.10	67.92	-35.4	-36.8	18.3	0.00e+00	0	61	0	2160066560	41	4466
2026-01-16 11:53:04.60	18.29	67.57	-35.4	-36.8	18.3	0.00e+00	0	61	0	2166358016	41	4470
2026-01-16 11:53:05.61	17.50	67.21	-35.4	-36.9	18.2	0.00e+00	0	61	0	2171600896	41	4510
2026-01-16 11:53:06.62	16.74	66.85	-35.1	-36.5	18.6	0.00e+00	0	61	0	2177892352	41	4292
2026-01-16 11:53:07.63	16.00	66.49	-35.0	-36.3	18.8	0.00e+00	0	61	0	2183135232	41	4203
2026-01-16 11:53:08.63	15.30	66.13	-35.1	-36.5	18.6	0.00e+00	0	61	0	2188378112	41	4310
2026-01-16 11:53:09.65	14.61	65.76	-35.3	-36.7	18.4	0.00e+00	0	61	0	2194669568	41	4399
2026-01-16 11:53:10.65	13.95	65.39	-35.2	-36.6	18.5	0.00e+00	0	61	0	2199912448	41	4371
2026-01-16 11:53:11.66	13.30	65.03	-35.3	-36.7	18.4	0.00e+00	0	61	0	2206203904	41	4431
2026-01-16 11:53:12.67	12.68	64.66	-35.6	-37.1	18.1	0.00e+00	0	61	0	2211446784	41	4605
2026-01-16 11:53:13.68	12.08	64.29	-35.5	-36.9	18.2	0.00e+00	0	61	0	2217738240	41	4506
2026-01-16 11:53:14.69	11.50	63.92	-35.3	-36.7	18.4	0.00e+00	0	61	0	2222981120	41	4412
2026-01-16 11:53:15.70	10.93	63.55	-35.3	-36.7	18.5	0.00e+00	0	61	0	2228224000	41	4414
2026-01-16 11:53:16.71	10.39	63.18	-35.2	-36.6	18.6	0.00e+00	0	61	0	2234515456	41	4359
2026-01-16 11:53:17.72	9.86	62.80	-35.4	-36.8	18.4	0.00e+00	0	61	0	2239758336	41	4450
2026-01-16 11:53:18.73	9.34	62.43	-35.6	-37.0	18.1	0.00e+00	0	61	0	2246049792	41	4596
2026-01-16 11:53:19.74	8.84	62.06	-35.6	-37.0	18.1	0.00e+00	0	61	0	2251292672	41	4583
2026-01-16 11:53:20.75	8.36	61.69	-35.6	-37.0	18.1	0.00e+00	0	61	0	2256535552	41	4576
2026-01-16 11:53:21.76	7.89	61.32	-35.9	-37.4	17.8	0.00e+00	0	61	0	2262827008	42	4522
2026-01-16 11:53:22.77	7.44	60.95	-36.1	-37.7	17.5	0.00e+00	0	61	0	2268069888	42	4678
2026-01-16 11:53:23.78	7.00	60.58	-36.0	-37.5	17.7	0.00e+00	0	61	0	2274361344	42	4584
2026-01-16 11:53:24.79	6.57	60.21	-36.0	-37.5	17.7	0.00e+00	0	61	0	2279604224	42	4555
2026-01-16 11:53:25.80	6.15	59.84	-36.3	-37.8	17.4	0.00e+00	0	61	0	2284847104	43	4452
2026-01-16 11:53:26.81	5.75	59.48	-36.5	-38.0	17.2	0.00e+00	0	61	0	2291138560	43	4576
2026-01-16 11:53:27.82	5.35	59.11	-36.4	-37.9	17.3	0.00e+00	0	61	0	2296381440	43	4539
2026-01-16 11:53:28.82	4.97	58.75	-36.3	-37.8	17.4	0.00e+00	0	61	0	2302672896	43	4483
2026-01-16 11:53:29.83	4.60	58.38	-36.3	-37.8	17.4	0.00e+00	0	61	0	2307915776	43	4492
2026-01-16 11:53:30.84	4.24	58.02	-36.4	-37.9	17.3	0.00e+00	0	61	0	2314207232	43	4526
2026-01-16 11:53:31.85	3.89	57.66	-36.5	-38.0	17.2	0.00e+00	0	61	0	2319450112	43	4556
2026-01-16 11:53:32.86	3.55	57.30	-37.0	-38.6	16.8	0.00e+00	0	61	0	2325741568	44	4620
2026-01-16 11:53:33.87	3.21	56.94	-37.1	-38.8	16.6	0.00e+00	0	61	0	2330984448	44	4724
2026-01-16 11:53:34.88	2.89	56.58	-36.9	-38.6	16.6	0.00e+00	0	61	0	2336227328	44	4607
2026-01-16 11:53:35.89	2.57	56.22	-36.9	-38.4	16.9	0.00e+00	0	61	0	2342518784	44	4535
2026-01-16 11:53:36.90	2.26	55.87	-37.3	-39.0	16.4	0.00e+00	0	61	0	2347761664	45	4553
2026-01-16 11:53:37.91	1.96	55.51	-37.7	-39.6	15.9	0.00e+00	0	61	0	2353004544	46	4599
2026-01-16 11:53:38.92	1.67	55.16	-37.6	-39.5	16.0	2.20e-06	0	61	0	2359296000	46	4557
2026-01-16 11:53:39.93	1.38	54.81	-37.6	-39.3	16.1	0.00e+00	0	61	0	2364538880	46	4452
2026-01-16 11:53:40.94	1.10	54.46	-37.2	-38.8	16.6	1.10e-06	0	61	0	2370830336	45	4474
2026-01-16 11:53:41.95	0.83	54.12	-37.3	-38.9	16.5	0.00e+00	0	61	0	2376073216	45	4545
2026-01-16 11:53:42.96	0.57	53.77	-37.1	-38.8	16.6	0.00e+00	0	61	0	2382364672	45	4455
2026-01-16 11:53:43.97	0.31	53.43	-37.0	-38.6	16.8	0.00e+00	0	61	0	2387607552	45	4342
2026-01-16 11:53:44.98	0.05	53.08	-36.8	-38.4	17.0	0.00e+00	0	61	0	2392850432	45	4268
2026-01-16 11:53:45.99	359.81	52.74	-36.9	-38.5	16.9	5.70e-06	0	61	0	2399141888	44	4562
2026-01-16 11:53:47.00	359.57	52.41	-36.9	-38.6	16.8	0.00e+00	0	61	0	2404384768	44	4606
2026-01-16 11:53:48.01	359.33	52.07	-36.7	-38.4	17.0	0.00e+00	0	61	0	2410676224	44	4497
2026-01-16 11:53:49.02	359.10	51.73	-36.5	-38.0	17.3	0.00e+00	0	61	0	2415919104	44	4311
2026-01-16 11:53:50.03	358.87	51.40	-36.3	-37.8	17.6	0.00e+00	0	61	0	2422210560	44	4220
2026-01-16 11:53:51.03	358.66	51.07	-36.3	-37.8	17.6	0.00e+00	0	61	0	2427453440	44	4205
2026-01-16 11:53:52.05	358.44	50.74	-36.6	-38.0	17.6	0.00e+00	0	61	0	2432696320	44	4320
2026-01-16 11:53:53.06	358.23	50.41	-36.7	-38.1	17.4	3.40e-06	0	61	0	2438987776	44	4388
2026-01-16 11:53:54.07	358.02	50.09	-36.7	-38.2	17.4	0.00e+00	0	61	0	2444230656	44	4414
2026-01-16 11:53:55.08	357.82	49.76	-36.7	-38.2	17.4	0.00e+00	0	61	0	2450522112	44	4393
2026-01-16 11:53:56.09	357.62	49.44	-36.6	-38.0	17.5	0.00e+00	0	61	0	2455764992	44	4322
2026-01-16 11:53:57.10	357.43	49.12	-36.4	-37.8	17.8	0.00e+00	0	61	0	2461007872	44	4212
2026-01-16 11:53:58.11	357.24	48.81	-36.4	-37.8	17.8	0.00e+00	0	61	0	2467299328	44	4196
2026-01-16 11:53:59.11	357.06	48.49	-36.3	-37.7	17.8	0.00e+00	0	61	0	2472542208	44	4181
2026-01-16 11:54:00.12	356.88	48.18	-36.3	-37.7	17.8	0.00e+00	0	61	0	2478833664	44	4181
2026-01-16 11:54:01.13	356.70	47.87	-36.4	-37.8	17.7	0.00e+00	0	61	0	2484076544	44	4228
2026-01-16 11:54:02.14	356.52	47.56	-36.3	-37.7	17.8	0.00e+00	0	61	0	2489319424	44	4190
2026-01-16 11:54:03.15	356.35	47.25	-36.2	-37.6	17.9	0.00e+00	0	61	0	2495610880	44	4124
2026-01-16 11:54:04.16	356.19	46.94	-36.2	-37.5	18.0	0.00e+00	0	61	0	2500853760	44	4077
2026-01-16 11:54:05.17	356.02	46.64	-36.0	-37.4	18.0	0.00e+00	0	61	0	2507145216	43	4247
2026-01-16 11:54:06.18	355.86	46.34	-36.1	-37.5	17.9	0.00e+00	0	61	0	2512388096	43	4315
2026-01-16 11:54:07.19	355.70	46.04	-36.3	-37.7	17.7	0.00e+00	0	61	0	2518679552	43	4414
2026-01-16 11:54:08.20	355.55	45.74	-36.4	-37.8	17.5	0.00e+00	0	61	0	2523922432	43	4492
2026-01-16 11:54:09.21	355.40	45.44	-36.4	-37.8	17.5	0.00e+00	0	61	0	2530213888	43	4480
2026-01-16 11:54:10.22	355.25	45.15	-36.2	-37.7	17.7	0.00e+00	0	61	0	2535456768	43	4392
2026-01-16 11:54:11.23	355.10	44.86	-36.2	-37.6	17.8	0.00e+00	0	61	0	2540699648	43	4356
2026-01-16 11:54:12.24	354.96	44.57	-36.1	-37.5	17.8	0.00e+00	0	61	0	2546991104	43	4322
2026-01-16 11:54:13.24	354.82	44.28	-36.0	-37.4	17.9	0.00e+00	0	61	0	2552233984	43	4270
2026-01-16 11:54:14.26	354.68	43.99	-36.2	-37.6	17.7	0.00e+00	0	61	0	2557476864	43	4377
2026-01-16 11:54:15.27	354.55	43.71	-36.3	-37.7	17.7	0.00e+00	0	61	0	2563768320	43	4412
2026-01-16 11:54:16.28	354.41	43.42	-36.2	-37.7	17.7	0.00e+00	0	61	0	2569011200	43	4400
2026-01-16 11:54:17.29	354.28	43.14	-36.2	-37.6	17.8	0.00e+00	0	61	0	2575302656	43	4348
2026-01-16 11:54:18.30	354.15	42.86	-36.1	-37.4	17.9	0.00e+00	0	61	0	2580545536	43	4286
2026-01-16 11:54:19.31	354.03	42.59	-36.0	-37.4	18.0	0.00e+00	0	61	0	2585788416	43	4251
2026-01-16 11:54:20.32	353.90	42.31	-36.0	-37.3	18.0	0.00e+00	0	61	0	2592079872	43	4213
2026-01-16 11:54:21.33	353.78	42.04	-35.9	-37.3	18.1	0.00e+00	0	61	0	2597322752	43	4213
2026-01-16 11:54:22.34	353.66	41.77	-35.9	-37.2	18.1	0.00e+00	0	61	0	2603614208	43	4180
2026-01-16 11:54:23.35	353.54	41.50	-35.8	-37.1	18.2	0.00e+00	0	61	0	2608857088	43	4133
2026-01-16 11:54:24.36	353.43	41.23	-35.7	-37.0	18.3	0.00e+00	0	61	0	2615148544	43	4089
2026-01-16 11:54:25.37	353.31	40.97	-35.5	-36.8	18.5	0.00e+00	0	61	0	2620391424	43	3987
2026-01-16 11:54:26.38	353.20	40.70	-35.4	-36.7	18.6	0.00e+00	0	61	0	2626682880	42	4169
2026-01-16 11:54:27.39	353.09	40.44	-35.4	-36.6	18.7	0.00e+00	0	61	0	2631925760	42	4139
2026-01-16 11:54:28.40	352.98	40.18	-35.3	-36.6	18.7	0.00e+00	0	61	0	2637168640	42	4134
2026-01-16 11:54:29.41	352.88	39.92	-35.4	-36.7	18.7	0.00e+00	0	61	0	2643460096	42	4146
2026-01-16 11:54:30.42	352.77	39.66	-35.4	-36.7	18.6	0.00e+00	0	61	0	2648702976	42	4166
2026-01-16 11:54:31.43	352.67	39.41	-35.4	-36.7	18.6	0.00e+00	0	61	0	2654994432	42	4192
2026-01-16 11:54:32.44	352.57	39.16	-35.5	-36.8	18.5	0.00e+00	0	61	0	2660237312	42	4221
2026-01-16 11:54:33.45	352.47	38.90	-35.5	-36.9	18.4	0.00e+00	0	61	0	2665480192	42	4245
2026-01-16 11:54:34.46	352.37	38.65	-35.6	-36.9	18.4	0.00e+00	0	61	0	2671771648	42	4275
2026-01-16 11:54:35.46	352.28	38.41	-35.6	-37.0	18.3	0.00e+00	0	61	0	2677014528	42	4307
2026-01-16 11:54:36.48	352.18	38.16	-35.7	-37.1	18.2	0.00e+00	0	61	0	2683305984	42	4342
2026-01-16 11:54:37.49	352.09	37.92	-35.8	-37.1	18.2	0.00e+00	0	61	0	2688548864	42	4369
2026-01-16 11:54:38.50	352.00	37.67	-35.8	-37.2	18.1	0.00e+00	0	61	0	2693791744	42	4396
2026-01-16 11:54:39.51	351.90	37.43	-35.8	-37.2	18.1	0.00e+00	0	61	0	2700083200	42	4403
2026-01-16 11:54:40.52	351.82	37.19	-35.7	-37.1	18.2	0.00e+00	0	61	0	2705326080	42	4349
2026-01-16 11:54:41.52	351.73	36.96	-35.7	-37.1	18.2	0.00e+00	0	61	0	2711617536	42	4354
2026-01-16 11:54:42.53	351.64	36.72	-35.7	-37.0	18.2	0.00e+00	0	61	0	2716860416	42	4339
2026-01-16 11:54:43.54	351.56	36.49	-35.7	-37.1	18.2	0.00e+00	0	61	0	2723151872	42	4349
2026-01-16 11:54:44.55	351.47	36.25	-35.8	-37.1	18.2	0.00e+00	0	61	0	2728394752	42	4377
2026-01-16 11:54:45.56	351.39	36.02	-35.8	-37.2	18.1	0.00e+00	0	61	0	2734686208	42	4419
2026-01-16 11:54:46.57	351.31	35.79	-35.9	-37.3	18.0	0.00e+00	0	61	0	2739929088	42	4450
2026-01-16 11:54:47.58	351.23	35.56	-35.9	-37.3	18.0	0.00e+00	0	61	0	2745171968	42	4473
2026-01-16 11:54:48.59	351.15	35.34	-36.0	-37.4	17.9	0.00e+00	0	61	0	2751463424	42	4524
2026-01-16 11:54:49.60	351.07	35.11	-36.0	-37.4	17.9	0.00e+00	0	61	0	2756706304	42	4527
2026-01-16 11:54:50.61	350.99	34.89	-36.0	-37.4	17.8	0.00e+00	0	61	0	2761949184	42	4539
2026-01-16 11:54:51.62	350.92	34.66	-36.0	-37.4	17.9	0.00e+00	0	61	0	2768240640	42	4508
2026-01-16 11:54:52.62	350.84	34.45	-36.0	-37.4	17.9	0.00e+00	0	61	0	2773483520	42	4519
2026-01-16 11:54:53.63	350.77	34.23	-36.0	-37.4	17.9	0.00e+00	0	61	0	2779774976	42	4516
2026-01-16 11:54:54.64	350.70	34.01	-36.0	-37.4	17.9	0.00e+00	0	61	0	2785017856	42	4507
2026-01-16 11:54:55.65	350.62	33.79	-36.0	-37.4	17.8	0.00e+00	0	61	0	2790260736	42	4510
2026-01-16 11:54:56.66	350.55	33.58	-36.0	-37.4	17.8	0.00e+00	0	61	0	2796552192	42	4542
2026-01-16 11:54:57.67	350.48	33.37	-36.0	-37.4	17.8	0.00e+00	0	61	0	2801795072	42	4537
2026-01-16 11:54:58.68	350.42	33.15	-36.1	-37.5	17.7	0.00e+00	0	61	0	2808086528	42	4561
2026-01-16 11:54:59.69	350.35	32.94	-36.1	-37.5	17.7	0.00e+00	0	61	0	2813329408	42	4558
2026-01-16 11:55:00.70	350.28	32.73	-36.1	-37.5	17.7	0.00e+00	0	61	0	2819620864	42	4578
2026-01-16 11:55:01.71	350.21	32.53	-36.1	-37.5	17.6	0.00e+00	0	61	0	2824863744	42	4595
2026-01-16 11:55:02.72	350.15	32.32	-36.2	-37.6	17.6	0.00e+00	0	61	0	2831155200	42	4622
2026-01-16 11:55:03.73	350.09	32.12	-36.2	-37.6	17.6	0.00e+00	0	61	0	2836398080	43	4375
2026-01-16 11:55:04.74	350.02	31.91	-36.2	-37.7	17.5	0.00e+00	0	61	0	2841640960	43	4392
2026-01-16 11:55:05.75	349.96	31.71	-36.3	-37.7	17.4	0.00e+00	0	61	0	2847932416	43	4435
2026-01-16 11:55:06.76	349.90	31.51	-36.3	-37.8	17.4	0.00e+00	0	61	0	2853175296	43	4442
2026-01-16 11:55:07.77	349.84	31.31	-36.3	-37.7	17.5	0.00e+00	0	61	0	2859466752	43	4435
2026-01-16 11:55:08.78	349.78	31.11	-36.3	-37.8	17.4	0.00e+00	0	61	0	2864709632	43	4463
2026-01-16 11:55:09.79	349.72	30.92	-36.3	-37.8	17.4	0.00e+00	0	61	0	2869952512	43	4476
2026-01-16 11:55:10.80	349.66	30.72	-36.3	-37.7	17.4	0.00e+00	0	61	0	2876243968	43	4425
2026-01-16 11:55:11.81	349.60	30.53	-36.2	-37.7	17.4	0.00e+00	0	61	0	2881486848	43	4412
2026-01-16 11:55:12.82	349.54	30.33	-36.2	-37.6	17.6	0.00e+00	0	61	0	2887778304	43	4362
2026-01-16 11:55:13.83	349.49	30.14	-36.1	-37.5	17.6	0.00e+00	0	61	0	2893021184	43	4332
2026-01-16 11:55:14.84	349.43	29.95	-36.1	-37.6	17.6	0.00e+00	0	61	0	2898264064	43	4343
2026-01-16 11:55:15.85	349.38	29.76	-36.1	-37.5	17.6	0.00e+00	0	61	0	2904555520	43	4294
2026-01-16 11:55:16.86	349.32	29.57	-36.0	-37.4	17.6	0.00e+00	0	61	0	2909798400	43	4287
2026-01-16 11:55:17.87	349.27	29.39	-36.0	-37.4	17.7	0.00e+00	0	61	0	2916089856	43	4278
2026-01-16 11:55:18.88	349.21	29.20	-36.0	-37.4	17.7	0.00e+00	0	61	0	2921332736	43	4252
2026-01-16 11:55:19.89	349.16	29.02	-36.1	-37.5	17.6	0.00e+00	0	61	0	2927624192	43	4310
2026-01-16 11:55:20.91	349.11	28.83	-36.1	-37.5	17.5	0.00e+00	0	61	0	2932867072	43	4333
2026-01-16 11:55:21.92	349.06	28.65	-36.2	-37.6	17.4	0.00e+00	0	61	0	2939158528	43	4367
2026-01-16 11:55:22.93	349.01	28.47	-36.2	-37.6	17.4	0.00e+00	0	61	0	2944401408	43	4383
2026-01-16 11:55:23.94	348.96	28.29	-36.3	-37.7	17.3	0.00e+00	0	61	0	2949644288	43	4430
2026-01-16 11:55:24.95	348.91	28.11	-36.3	-37.8	17.3	0.00e+00	0	61	0	2955935744	43	4444
2026-01-16 11:55:25.96	348.86	27.93	-36.3	-37.7	17.3	0.00e+00	0	61	0	2961178624	43	4436
2026-01-16 11:55:26.96	348.81	27.76	-36.3	-37.8	17.2	0.00e+00	0	61	0	2967470080	43	4445
2026-01-16 11:55:27.97	348.76	27.58	-36.3	-37.8	17.2	0.00e+00	0	61	0	2972712960	43	4452
2026-01-16 11:55:28.98	348.72	27.41	-36.3	-37.7	17.2	0.00e+00	0	61	0	2977955840	43	4439
2026-01-16 11:55:29.99	348.67	27.24	-36.3	-37.7	17.2	0.00e+00	0	61	0	2984247296	43	4430
2026-01-16 11:55:31.00	348.62	27.06	-36.2	-37.7	17.2	0.00e+00	0	61	0	2989490176	43	4417
2026-01-16 11:55:32.01	348.58	26.89	-36.2	-37.7	17.2	0.00e+00	0	61	0	2995781632	43	4418
2026-01-16 11:55:33.02	348.53	26.72	-36.2	-37.6	17.2	0.00e+00	0	61	0	3001024512	43	4390
2026-01-16 11:55:34.03	348.49	26.55	-36.2	-37.7	17.1	0.00e+00	0	61	0	3006267392	43	4407
2026-01-16 11:55:35.04	348.45	26.39	-36.2	-37.7	17.1	0.00e+00	0	61	0	3012558848	43	4427
2026-01-16 11:55:36.05	348.40	26.22	-36.2	-37.6	17.2	0.00e+00	0	61	0	3017801728	43	4377
2026-01-16 11:55:37.06	348.36	26.05	-36.2	-37.7	17.1	0.00e+00	0	61	0	3024093184	43	4410
2026-01-16 11:55:38.07	348.32	25.89	-36.3	-37.7	17.0	0.00e+00	0	61	0	3029336064	43	4435
2026-01-16 11:55:39.08	348.28	25.73	-36.1	-37.6	17.1	0.00e+00	0	61	0	3035627520	43	4367
2026-01-16 11:55:40.09	348.23	25.56	-36.2	-37.7	17.0	0.00e+00	0	61	0	3040870400	43	4439
2026-01-16 11:55:41.10	348.19	25.40	-36.2	-37.7	17.0	0.00e+00	0	61	0	3046113280	43	4417
2026-01-16 11:55:42.11	348.15	25.24	-36.2	-37.7	16.9	0.00e+00	0	61	0	3052404736	43	4439
2026-01-16 11:55:43.12	348.11	25.08	-36.2	-37.8	16.9	0.00e+00	0	61	0	3057647616	43	4444
2026-01-16 11:55:44.13	348.07	24.92	-36.3	-37.8	16.8	0.00e+00	0	61	0	3063939072	43	4471
2026-01-16 11:55:45.14	348.03	24.76	-36.3	-37.8	16.8	0.00e+00	0	61	0	3069181952	43	4484
2026-01-16 11:55:46.15	348.00	24.61	-36.3	-37.9	16.7	0.00e+00	0	61	0	3074424832	43	4515
2026-01-16 11:55:47.16	347.96	24.45	-36.3	-37.9	16.7	0.00e+00	0	61	0	3080716288	43	4503
2026-01-16 11:55:48.17	347.92	24.29	-36.3	-37.9	16.6	0.00e+00	0	61	0	3085959168	43	4509
2026-01-16 11:55:49.18	347.88	24.14	-36.4	-38.0	16.5	0.00e+00	0	61	0	3092250624	43	4552
2026-01-16 11:55:50.19	347.84	23.99	-36.3	-37.9	16.5	0.00e+00	0	61	0	3097493504	43	4509
2026-01-16 11:55:51.20	347.81	23.83	-36.3	-37.9	16.5	0.00e+00	0	61	0	3102736384	43	4498
2026-01-16 11:55:52.21	347.77	23.68	-36.4	-38.0	16.2	0.00e+00	0	61	0	3109027840	43	4584
2026-01-16 11:55:53.22	347.74	23.53	-36.3	-37.9	16.2	0.00e+00	0	61	0	3114270720	43	4542
2026-01-16 11:55:54.23	347.70	23.38	-36.2	-37.8	16.2	0.00e+00	0	62	0	3120562176	43	4452
2026-01-16 11:55:55.24	347.66	23.23	-36.3	-38.0	15.9	0.00e+00	0	61	0	3125805056	43	4587
2026-01-16 11:55:56.25	347.63	23.08	-36.5	-38.3	15.5	0.00e+00	0	61	0	3132096512	43	4712
2026-01-16 11:55:57.25	347.60	22.94	-36.3	-38.0	15.6	0.00e+00	0	61	0	3137339392	43	4582
2026-01-16 11:55:58.26	347.56	22.79	-36.1	-37.8	15.7	0.00e+00	0	61	0	3143630848	43	4446
2026-01-16 11:55:59.28	347.53	22.64	-36.1	-37.8	15.6	0.00e+00	0	61	0	3148873728	43	4486
2026-01-16 11:56:00.29	347.49	22.50	-36.2	-37.9	15.4	0.00e+00	0	61	0	3154116608	43	4540
2026-01-16 11:56:01.30	347.46	22.36	-36.3	-38.1	15.1	0.00e+00	0	61	0	3160408064	43	4626
2026-01-16 11:56:02.31	347.43	22.21	-36.2	-38.0	15.2	0.00e+00	0	61	0	3165650944	43	4570
2026-01-16 11:56:03.32	347.40	22.07	-36.3	-38.2	14.9	0.00e+00	0	61	0	3171942400	43	4659
2026-01-16 11:56:04.33	347.36	21.93	-36.7	-38.7	14.4	1.10e-06	0	61	0	3177185280	43	4928
2026-01-16 11:56:05.34	347.33	21.79	-37.3	-39.5	13.6	5.70e-06	0	61	0	3182428160	45	4820
2026-01-16 11:56:06.35	347.30	21.65	-38.0	-40.5	12.5	1.38e-04	0	61	0	3188719616	46	5113
2026-01-16 11:56:07.36	347.27	21.51	-38.7	-41.7	11.1	1.30e-03	0	61	0	3193962496	47	5553
2026-01-16 11:56:08.37	347.24	21.37	-39.6	-43.2	9.4	1.55e-02	0	61	0	3200253952	49	5904
2026-01-16 11:56:09.38	347.21	21.23	-40.2	-44.8	7.7	6.82e-02	0	61	0	3205496832	50	6658
2026-01-16 11:56:10.39	347.18	21.09	-40.7	-46.4	6.1	2.11e-01	0	61	0	3210739712	51	7554
2026-01-16 11:56:11.40	347.15	20.96	-40.9	-48.0	4.9	7.46e-01	0	61	0	3213885440	52	8612
2026-01-16 11:56:12.41	347.12	20.82	-41.1	-49.4	4.3	8.22e-01	0	61	0	3213885440	52	10150
2026-01-16 11:56:13.41	347.09	20.69	-41.2	-51.0	3.8	8.44e-01	0	62	104	3213885440	53	11510
2026-01-16 11:56:14.42	347.06	20.55	-41.3	-51.9	3.8	8.45e-01	0	61	104	3213885440	53	12786
2026-01-16 11:56:15.43	347.03	20.42	-41.3	-52.6	3.8	8.47e-01	0	62	104	3213885440	53	13793
2026-01-16 11:56:16.44	347.00	20.29	-41.3	-52.9	3.8	8.47e-01	0	61	104	3213885440	53	14322
2026-01-16 11:56:17.45	346.98	20.15	-41.3	-52.8	3.8	8.46e-01	0	61	104	3213885440	53	14146
2026-01-16 11:56:18.46	346.95	20.02	-41.3	-53.0	3.8	8.45e-01	0	61	104	3213885440	53	14475
2026-01-16 11:56:19.47	346.92	19.89	-41.4	-52.9	3.8	8.45e-01	0	61	104	3213885440	53	14221
2026-01-16 11:56:20.48	346.89	19.76	-41.4	-52.7	3.8	8.46e-01	0	62	104	3213885440	53	14002
2026-01-16 11:56:21.49	346.87	19.63	-41.4	-53.0	3.8	8.45e-01	0	61	104	3213885440	53	14483
2026-01-16 11:56:22.50	346.84	19.50	-41.3	-53.0	3.8	8.46e-01	0	61	104	3213885440	53	14407
2026-01-16 11:56:23.50	346.81	19.38	-41.3	-53.0	3.8	8.46e-01	0	61	104	3213885440	53	14431
2026-01-16 11:56:24.51	346.79	19.25	-41.3	-53.0	3.8	8.45e-01	0	62	104	3213885440	53	14471
2026-01-16 11:56:25.52	346.76	19.12	-41.3	-53.0	3.8	8.46e-01	0	61	104	3213885440	53	14511
2026-01-16 11:56:26.53	346.73	19.00	-41.2	-52.9	3.8	8.47e-01	0	62	104	3213885440	53	14213
2026-01-16 11:56:27.53	346.71	18.87	-40.9	-52.6	3.8	8.47e-01	0	61	104	3213885440	53	13839
2026-01-16 11:56:28.54	346.68	18.75	-40.9	-52.7	3.8	8.46e-01	0	61	104	3213885440	53	13996
2026-01-16 11:56:29.55	346.66	18.62	-40.9	-52.7	3.8	8.46e-01	0	61	104	3213885440	53	13925
2026-01-16 11:56:30.56	346.63	18.50	-40.9	-52.7	3.8	8.46e-01	0	62	104	3213885440	53	13947
2026-01-16 11:56:31.57	346.61	18.38	-41.1	-52.8	3.8	8.47e-01	0	62	104	3213885440	53	14085
2026-01-16 11:56:32.58	346.58	18.25	-40.9	-52.7	3.8	8.47e-01	0	62	104	3213885440	53	13958
2026-01-16 11:56:33.59	346.56	18.13	-40.9	-52.7	3.8	8.46e-01	0	61	104	3213885440	53	13901
2026-01-16 11:56:34.60	346.54	18.01	-41.0	-52.8	3.8	8.45e-01	0	61	104	3213885440	53	14052
2026-01-16 11:56:35.61	346.51	17.89	-41.5	-53.0	3.8	8.46e-01	0	61	104	3213885440	53	14500
2026-01-16 11:56:36.62	346.49	17.77	-40.9	-52.7	3.8	8.46e-01	0	61	104	3213885440	53	13998
2026-01-16 11:56:37.63	346.47	17.65	-41.4	-52.9	3.8	8.45e-01	0	62	104	3213885440	53	14366
2026-01-16 11:56:38.64	346.44	17.53	-41.1	-52.8	3.8	8.46e-01	0	62	104	3213885440	53	14103
2026-01-16 11:56:39.65	346.42	17.41	-41.0	-52.7	3.8	8.47e-01	0	61	104	3213885440	53	13959
2026-01-16 11:56:40.66	346.40	17.30	-41.5	-53.1	3.8	8.47e-01	0	61	104	3213885440	53	14605
2026-01-16 11:56:41.66	346.38	17.18	-41.2	-52.9	3.8	8.46e-01	0	61	104	3213885440	53	14266
2026-01-16 11:56:42.67	346.35	17.06	-41.5	-53.1	3.8	8.45e-01	0	61	104	3213885440	53	14665
2026-01-16 11:56:43.68	346.33	16.95	-41.2	-52.8	3.8	8.46e-01	0	62	104	3213885440	53	14203
2026-01-16 11:56:44.69	346.31	16.83	-41.4	-53.0	3.8	8.46e-01	0	61	104	3213885440	53	14423
2026-01-16 11:56:45.70	346.29	16.72	-41.1	-52.7	3.8	8.47e-01	0	62	104	3213885440	53	14039
2026-01-16 11:56:46.71	346.27	16.60	-41.4	-53.0	3.8	8.46e-01	0	62	104	3213885440	53	14444
2026-01-16 11:56:47.71	346.25	16.49	-41.1	-52.7	3.8	8.46e-01	0	62	104	3213885440	53	14008
2026-01-16 11:56:48.72	346.22	16.37	-41.3	-52.9	3.8	8.45e-01	0	62	104	3213885440	53	14352
2026-01-16 11:56:49.73	346.20	16.26	-41.0	-52.6	3.8	8.45e-01	0	62	104	3213885440	53	13794
2026-01-16 11:56:50.74	346.18	16.15	-41.3	-52.9	3.8	8.46e-01	0	62	104	3213885440	53	14298
2026-01-16 11:56:51.75	346.16	16.04	-41.2	-52.9	3.8	8.45e-01	0	61	104	3213885440	53	14267
