passes_logs/2026/01/16/R2.0S_Moscow/R2.0S_Moscow__20260116_231725_NOAA_20_JPSS-1_rec.log

#Pass ID: 20260116_231725_NOAA 20 (JPSS-1)
#Satellite: NOAA 20 (JPSS-1)
#Configuration: NOAA 20
#almurnet v.1.7.20251203
#Start time: 2026-01-16 23:17:26

#Version: 2.2.20231116
#Station: R2.0S_Moscow
#Location: 37.707566 lon 55.798166 lat
#TLE: 1 43013U 17073A   26016.24631778  .00000038  00000+0  39093-4 0  9990
#TLE: 2 43013  98.7637 317.1726 0001455  37.6755 322.4523 14.19536243422915

#Time	Az	El	Level	Level2	SNR	BER	BlckErr	Temp	State	Recorded	gain1	gain2
2026-01-16 23:17:26.71	18.01	2.11	-41.5	-56.6	3.8	1.49e+00	0	52	0	0	55	19488
2026-01-16 23:17:27.71	18.03	2.17	-41.5	-56.6	3.8	1.49e+00	0	53	104	0	53	21807
2026-01-16 23:17:28.72	18.06	2.23	-41.5	-56.6	3.8	1.49e+00	0	53	104	0	53	21858
2026-01-16 23:17:29.73	18.08	2.30	-41.5	-56.6	3.8	1.49e+00	0	53	104	0	53	21827
2026-01-16 23:17:30.74	18.10	2.36	-41.5	-56.6	3.8	1.49e+00	0	53	104	0	53	21846
2026-01-16 23:17:31.75	18.12	2.43	-41.5	-56.6	3.8	1.49e+00	0	53	104	0	53	21782
2026-01-16 23:17:32.76	18.14	2.49	-41.4	-56.6	3.8	1.49e+00	0	53	104	0	53	21787
2026-01-16 23:17:33.77	18.16	2.56	-41.4	-56.6	3.8	1.49e+00	0	53	104	0	53	21766
2026-01-16 23:17:34.79	18.19	2.62	-41.5	-56.6	3.8	1.49e+00	0	53	104	0	53	21829
2026-01-16 23:17:35.80	18.21	2.69	-41.5	-56.5	3.8	1.49e+00	0	53	104	0	53	21752
2026-01-16 23:17:36.81	18.23	2.75	-41.5	-56.6	3.8	1.49e+00	0	53	104	0	53	21779
2026-01-16 23:17:37.82	18.25	2.82	-41.4	-56.5	3.8	1.49e+00	0	53	104	0	53	21713
2026-01-16 23:17:38.83	18.27	2.88	-41.4	-56.5	3.8	1.49e+00	0	53	104	0	53	21728
2026-01-16 23:17:39.84	18.30	2.95	-41.5	-56.6	3.8	1.49e+00	0	53	104	0	53	21781
2026-01-16 23:17:40.85	18.32	3.02	-41.4	-56.6	3.8	1.49e+00	0	53	104	0	53	21770
2026-01-16 23:17:41.86	18.34	3.08	-41.5	-56.6	3.8	1.49e+00	0	53	104	0	53	21788
2026-01-16 23:17:42.87	18.36	3.15	-41.4	-56.6	3.8	1.49e+00	0	54	104	0	53	21767
2026-01-16 23:17:43.88	18.38	3.21	-41.4	-56.6	3.8	1.49e+00	0	53	104	0	53	21765
2026-01-16 23:17:44.90	18.41	3.28	-41.4	-56.5	3.8	1.49e+00	0	54	104	0	53	21726
2026-01-16 23:17:45.91	18.43	3.35	-41.5	-56.5	3.8	1.49e+00	0	54	104	0	53	21750
2026-01-16 23:17:46.92	18.45	3.41	-41.4	-56.6	3.8	1.49e+00	0	54	104	0	53	21776
2026-01-16 23:17:47.93	18.48	3.48	-41.4	-56.6	3.8	1.49e+00	0	54	104	0	53	21771
2026-01-16 23:17:48.94	18.50	3.55	-41.4	-56.6	3.8	1.49e+00	0	54	104	0	53	21763
2026-01-16 23:17:49.95	18.52	3.62	-41.4	-56.5	3.8	1.49e+00	0	54	104	0	53	21715
2026-01-16 23:17:50.96	18.54	3.68	-41.5	-56.5	3.8	1.49e+00	0	54	104	0	53	21733
2026-01-16 23:17:51.97	18.57	3.75	-41.4	-56.6	3.8	1.49e+00	0	54	104	0	53	21768
2026-01-16 23:17:52.98	18.59	3.82	-41.5	-56.5	3.8	1.49e+00	0	54	104	0	53	21736
2026-01-16 23:17:53.99	18.61	3.89	-41.4	-56.5	3.8	1.49e+00	0	54	104	0	53	21749
2026-01-16 23:17:55.01	18.64	3.96	-41.4	-56.6	3.8	1.49e+00	0	54	104	0	53	21767
2026-01-16 23:17:56.02	18.66	4.02	-41.4	-56.5	3.8	1.49e+00	0	54	104	0	53	21747
2026-01-16 23:17:57.03	18.68	4.09	-41.4	-56.5	3.8	1.49e+00	0	54	104	0	53	21733
2026-01-16 23:17:58.04	18.71	4.16	-41.5	-56.5	3.8	1.49e+00	0	54	104	0	53	21739
2026-01-16 23:17:59.05	18.73	4.23	-41.4	-56.5	3.8	1.49e+00	0	54	104	0	53	21717
2026-01-16 23:18:00.06	18.76	4.30	-41.4	-56.5	3.8	1.49e+00	0	54	104	0	53	21745
2026-01-16 23:18:01.07	18.78	4.37	-41.4	-56.5	3.8	1.49e+00	0	55	104	0	53	21744
2026-01-16 23:18:02.08	18.80	4.44	-41.4	-56.5	3.8	1.49e+00	0	55	104	0	53	21688
2026-01-16 23:18:03.09	18.83	4.51	-41.4	-56.5	3.8	1.49e+00	0	55	104	0	53	21725
2026-01-16 23:18:04.11	18.85	4.58	-41.4	-56.5	3.8	1.49e+00	0	55	104	0	53	21691
2026-01-16 23:18:05.12	18.88	4.65	-41.4	-56.5	3.8	1.49e+00	0	55	104	0	53	21742
2026-01-16 23:18:06.13	18.90	4.72	-41.4	-56.5	3.8	1.49e+00	0	55	104	0	53	21732
2026-01-16 23:18:07.14	18.93	4.79	-41.4	-56.5	3.8	1.49e+00	0	55	104	0	53	21723
2026-01-16 23:18:08.15	18.95	4.86	-41.4	-56.5	3.8	1.49e+00	0	55	104	0	53	21733
2026-01-16 23:18:09.16	18.97	4.93	-41.5	-56.5	3.8	1.49e+00	0	55	104	0	53	21750
2026-01-16 23:18:10.17	19.00	5.00	-41.4	-56.5	3.8	1.49e+00	0	55	104	0	53	21736
2026-01-16 23:18:11.18	19.02	5.07	-41.4	-56.5	3.8	1.49e+00	0	55	104	0	53	21708
2026-01-16 23:18:12.19	19.05	5.14	-41.4	-56.5	3.8	1.49e+00	0	55	104	0	53	21728
2026-01-16 23:18:13.20	19.07	5.21	-41.4	-56.5	3.8	1.49e+00	0	55	104	0	53	21752
2026-01-16 23:18:14.21	19.10	5.28	-41.4	-56.5	3.8	1.49e+00	0	55	104	0	53	21732
2026-01-16 23:18:15.22	19.12	5.36	-41.4	-56.5	3.8	1.49e+00	0	55	104	0	53	21684
2026-01-16 23:18:16.23	19.15	5.43	-41.4	-56.5	3.8	1.49e+00	0	55	104	0	53	21720
2026-01-16 23:18:17.24	19.18	5.50	-41.4	-56.5	3.8	1.49e+00	0	55	104	0	53	21736
2026-01-16 23:18:18.26	19.20	5.57	-41.4	-56.5	3.8	1.49e+00	0	55	104	0	53	21688
2026-01-16 23:18:19.27	19.23	5.64	-41.4	-56.5	3.8	1.49e+00	0	55	104	0	53	21667
2026-01-16 23:18:20.28	19.25	5.72	-41.4	-56.5	3.8	1.49e+00	0	55	104	0	53	21674
2026-01-16 23:18:21.29	19.28	5.79	-41.4	-56.5	3.8	1.49e+00	0	56	104	0	53	21673
2026-01-16 23:18:22.30	19.30	5.86	-41.4	-56.5	3.8	1.49e+00	0	56	104	0	53	21724
2026-01-16 23:18:23.31	19.33	5.94	-41.4	-56.5	3.8	1.49e+00	0	55	104	0	53	21644
2026-01-16 23:18:24.32	19.36	6.01	-41.4	-56.5	3.8	1.49e+00	0	56	104	0	53	21743
2026-01-16 23:18:25.33	19.38	6.08	-41.4	-56.5	3.8	1.49e+00	0	56	104	0	53	21742
2026-01-16 23:18:26.34	19.41	6.16	-41.4	-56.5	3.8	1.49e+00	0	56	104	0	53	21705
2026-01-16 23:18:27.36	19.44	6.23	-41.4	-56.5	3.8	1.49e+00	0	56	104	0	53	21708
2026-01-16 23:18:28.36	19.46	6.31	-41.4	-56.5	3.8	1.49e+00	0	56	104	0	53	21717
2026-01-16 23:18:29.38	19.49	6.38	-41.4	-56.5	3.8	1.49e+00	0	56	104	0	53	21610
2026-01-16 23:18:30.39	19.52	6.46	-41.4	-56.5	3.8	1.49e+00	0	56	104	0	53	21703
2026-01-16 23:18:31.40	19.54	6.53	-41.4	-56.5	3.8	1.49e+00	0	56	104	0	53	21647
2026-01-16 23:18:32.41	19.57	6.61	-41.4	-56.5	3.8	1.49e+00	0	56	104	0	53	21699
2026-01-16 23:18:33.42	19.60	6.68	-41.4	-56.5	3.8	1.49e+00	0	56	104	0	53	21639
2026-01-16 23:18:34.43	19.63	6.76	-41.4	-56.5	3.8	1.49e+00	0	56	104	0	53	21632
2026-01-16 23:18:35.44	19.65	6.83	-41.4	-56.5	3.8	1.49e+00	0	56	104	0	53	21652
2026-01-16 23:18:36.45	19.68	6.91	-41.4	-56.5	3.8	1.49e+00	0	56	104	0	53	21645
2026-01-16 23:18:37.47	19.71	6.99	-41.4	-56.5	3.8	1.49e+00	0	56	104	0	53	21599
2026-01-16 23:18:38.48	19.74	7.06	-41.4	-56.4	3.8	1.49e+00	0	56	104	0	53	21483
2026-01-16 23:18:39.49	19.76	7.14	-41.4	-56.4	3.8	1.49e+00	0	56	104	0	53	21463
2026-01-16 23:18:40.50	19.79	7.22	-41.4	-56.4	3.8	1.49e+00	0	56	104	0	53	21451
2026-01-16 23:18:41.51	19.82	7.29	-41.4	-56.4	3.8	1.49e+00	0	56	104	0	53	21374
2026-01-16 23:18:42.52	19.85	7.37	-41.4	-56.4	3.8	1.49e+00	0	56	104	0	53	21314
2026-01-16 23:18:43.53	19.88	7.45	-41.4	-56.3	3.8	1.49e+00	0	56	104	0	53	21129
2026-01-16 23:18:44.54	19.91	7.53	-41.4	-56.2	3.8	1.49e+00	0	57	104	0	53	20802
2026-01-16 23:18:45.55	19.93	7.60	-41.4	-56.1	3.8	1.49e+00	0	57	104	0	53	20714
2026-01-16 23:18:46.56	19.96	7.68	-41.4	-55.9	3.8	1.49e+00	0	56	104	0	53	20229
2026-01-16 23:18:47.57	19.99	7.76	-41.4	-55.6	3.8	1.49e+00	0	57	104	0	53	19611
2026-01-16 23:18:48.58	20.02	7.84	-41.4	-55.5	3.8	1.49e+00	0	57	104	0	53	19210
2026-01-16 23:18:49.60	20.05	7.92	-41.4	-55.4	3.8	1.49e+00	0	57	104	0	53	19049
2026-01-16 23:18:50.61	20.08	8.00	-41.4	-55.3	3.8	1.49e+00	0	57	104	0	53	18780
2026-01-16 23:18:51.62	20.11	8.08	-41.6	-54.3	4.0	1.48e+00	0	57	104	0	53	16802
2026-01-16 23:18:52.63	20.14	8.16	-41.3	-56.3	3.8	1.48e+00	0	57	104	0	53	21131
2026-01-16 23:18:53.64	20.17	8.24	-41.6	-51.8	4.1	1.49e+00	0	57	104	0	53	12540
2026-01-16 23:18:54.65	20.20	8.32	-42.5	-51.7	5.4	6.86e-01	0	57	0	1048576	55	11037
2026-01-16 23:18:55.66	20.23	8.40	-41.6	-51.1	5.4	4.33e-01	0	57	0	2097152	55	10304
2026-01-16 23:18:56.67	20.26	8.48	-41.5	-49.0	6.7	1.43e+00	0	57	0	3145728	54	8581
2026-01-16 23:18:57.68	20.29	8.56	-41.4	-47.5	8.6	5.44e-02	0	57	0	5242880	54	7228
2026-01-16 23:18:58.69	20.32	8.64	-41.3	-47.2	8.9	2.65e-02	0	57	0	6291456	54	7002
2026-01-16 23:18:59.70	20.35	8.72	-41.2	-46.7	9.4	1.77e-02	0	57	0	8388608	54	6636
2026-01-16 23:19:00.71	20.38	8.81	-41.4	-47.2	9.1	1.92e-02	0	57	0	10485760	54	6986
2026-01-16 23:19:01.72	20.41	8.89	-41.6	-48.0	8.3	4.90e-02	0	57	0	12582912	54	7661
2026-01-16 23:19:02.73	20.44	8.97	-41.7	-47.9	8.4	5.72e-02	0	57	0	14680064	54	7602
2026-01-16 23:19:03.74	20.48	9.05	-41.6	-47.3	9.1	3.34e-02	0	57	0	15728640	54	7110
2026-01-16 23:19:04.75	20.51	9.14	-41.6	-47.3	9.2	2.09e-02	0	57	0	17825792	54	7056
2026-01-16 23:19:05.76	20.54	9.22	-41.7	-47.3	9.3	1.66e-02	0	57	0	19922944	54	7052
2026-01-16 23:19:06.77	20.57	9.30	-41.7	-47.2	9.4	1.87e-02	0	57	0	22020096	54	7008
2026-01-16 23:19:07.77	20.60	9.38	-41.8	-47.3	9.4	1.63e-02	0	57	0	24117248	54	7082
2026-01-16 23:19:08.78	20.63	9.47	-41.6	-46.9	9.8	1.16e-02	0	57	0	25165824	54	6738
2026-01-16 23:19:09.79	20.67	9.55	-41.5	-46.6	10.2	8.09e-03	0	57	0	27262976	54	6507
2026-01-16 23:19:10.80	20.70	9.64	-41.5	-46.6	10.2	5.70e-03	0	58	0	29360128	54	6519
2026-01-16 23:19:11.81	20.73	9.72	-41.6	-46.8	10.0	7.43e-03	0	58	0	31457280	54	6663
2026-01-16 23:19:12.82	20.76	9.81	-41.6	-46.5	10.4	5.64e-03	0	57	0	33554432	54	6427
2026-01-16 23:19:13.83	20.80	9.89	-41.7	-46.8	10.2	4.55e-03	0	57	0	34603008	54	6669
2026-01-16 23:19:14.84	20.83	9.98	-41.7	-46.7	10.2	6.55e-03	0	57	0	36700160	54	6641
2026-01-16 23:19:15.85	20.86	10.06	-41.7	-46.7	10.3	4.87e-03	0	58	0	38797312	54	6576
2026-01-16 23:19:16.86	20.90	10.15	-41.8	-46.8	10.2	5.79e-03	0	57	0	40894464	54	6666
2026-01-16 23:19:17.87	20.93	10.24	-41.7	-46.5	10.5	3.83e-03	0	58	0	42991616	54	6488
2026-01-16 23:19:18.88	20.96	10.32	-41.8	-46.6	10.4	4.67e-03	0	57	0	44040192	54	6556
2026-01-16 23:19:19.89	21.00	10.41	-41.7	-46.5	10.7	3.18e-03	0	58	0	46137344	54	6426
2026-01-16 23:19:20.90	21.03	10.50	-41.8	-46.5	10.6	3.62e-03	0	58	0	48234496	54	6462
2026-01-16 23:19:21.91	21.06	10.59	-41.8	-46.5	10.7	2.93e-03	0	58	0	50331648	54	6451
2026-01-16 23:19:22.92	21.10	10.67	-41.8	-46.6	10.6	3.58e-03	0	58	0	52428800	54	6535
2026-01-16 23:19:23.93	21.13	10.76	-41.9	-46.6	10.6	3.24e-03	0	58	0	53477376	54	6526
2026-01-16 23:19:24.94	21.17	10.85	-41.8	-46.5	10.7	3.21e-03	0	58	0	55574528	54	6456
2026-01-16 23:19:25.95	21.20	10.94	-41.8	-46.5	10.8	2.42e-03	0	58	0	57671680	54	6444
2026-01-16 23:19:26.96	21.24	11.03	-41.8	-46.4	10.9	3.24e-03	0	58	0	59768832	54	6395
2026-01-16 23:19:27.97	21.27	11.12	-41.9	-46.5	10.8	2.75e-03	0	58	0	61865984	54	6486
2026-01-16 23:19:28.98	21.31	11.21	-41.9	-46.6	10.7	2.99e-03	0	58	0	63963136	54	6507
2026-01-16 23:19:29.99	21.35	11.30	-41.9	-46.5	10.9	2.52e-03	0	58	0	65011712	54	6445
2026-01-16 23:19:31.00	21.38	11.39	-41.9	-46.4	10.9	2.07e-03	0	58	0	67108864	54	6401
2026-01-16 23:19:32.00	21.42	11.48	-41.9	-46.4	10.9	1.96e-03	0	58	0	69206016	54	6420
2026-01-16 23:19:33.01	21.45	11.57	-41.9	-46.4	10.9	1.88e-03	0	58	0	71303168	54	6416
2026-01-16 23:19:34.02	21.49	11.66	-41.8	-46.3	11.1	1.52e-03	0	58	0	73400320	54	6314
2026-01-16 23:19:35.03	21.53	11.76	-41.9	-46.4	11.0	1.75e-03	0	58	0	74448896	54	6392
2026-01-16 23:19:36.04	21.56	11.85	-41.9	-46.3	11.1	1.82e-03	0	58	0	76546048	54	6345
2026-01-16 23:19:37.05	21.60	11.94	-41.8	-46.3	11.1	1.48e-03	0	58	0	78643200	54	6315
2026-01-16 23:19:38.06	21.64	12.03	-41.9	-46.4	11.1	1.41e-03	0	58	0	80740352	54	6355
2026-01-16 23:19:39.07	21.67	12.13	-41.9	-46.4	11.0	1.54e-03	0	58	0	82837504	54	6406
2026-01-16 23:19:40.08	21.71	12.22	-41.9	-46.3	11.2	1.58e-03	0	58	0	83886080	54	6327
2026-01-16 23:19:41.09	21.75	12.31	-41.8	-46.2	11.3	1.11e-03	0	58	0	85983232	54	6245
2026-01-16 23:19:42.10	21.79	12.41	-41.8	-46.1	11.5	1.08e-03	0	58	0	88080384	54	6165
2026-01-16 23:19:43.11	21.83	12.50	-41.9	-46.2	11.3	8.88e-04	0	58	0	90177536	54	6240
2026-01-16 23:19:44.12	21.87	12.60	-41.8	-46.1	11.5	1.06e-03	0	58	0	92274688	54	6166
2026-01-16 23:19:45.13	21.90	12.69	-41.8	-46.1	11.5	8.51e-04	0	58	0	93323264	54	6149
2026-01-16 23:19:46.14	21.94	12.79	-41.8	-46.2	11.4	1.01e-03	0	58	0	95420416	54	6212
2026-01-16 23:19:47.15	21.98	12.89	-41.9	-46.3	11.3	1.00e-03	0	58	0	97517568	54	6292
2026-01-16 23:19:48.16	22.02	12.98	-41.9	-46.3	11.3	1.05e-03	0	58	0	99614720	54	6307
2026-01-16 23:19:49.17	22.06	13.08	-41.9	-46.3	11.4	1.09e-03	0	58	0	101711872	54	6285
2026-01-16 23:19:50.18	22.10	13.18	-41.9	-46.2	11.4	9.61e-04	0	58	0	102760448	54	6250
2026-01-16 23:19:51.19	22.14	13.27	-41.9	-46.2	11.5	9.70e-04	0	58	0	104857600	54	6211
2026-01-16 23:19:52.20	22.18	13.37	-41.9	-46.2	11.4	8.48e-04	0	59	0	106954752	54	6250
2026-01-16 23:19:53.21	22.22	13.47	-41.8	-46.1	11.6	7.24e-04	0	58	0	109051904	54	6132
2026-01-16 23:19:54.21	22.26	13.57	-41.9	-46.1	11.6	7.24e-04	0	59	0	111149056	54	6170
2026-01-16 23:19:55.22	22.30	13.67	-41.9	-46.1	11.5	7.19e-04	0	58	0	112197632	54	6189
2026-01-16 23:19:56.23	22.35	13.77	-41.9	-46.0	11.6	6.08e-04	0	58	0	114294784	54	6131
2026-01-16 23:19:57.24	22.39	13.87	-41.9	-46.1	11.6	6.53e-04	0	58	0	116391936	54	6140
2026-01-16 23:19:58.25	22.43	13.97	-41.8	-46.0	11.7	6.61e-04	0	58	0	118489088	54	6087
2026-01-16 23:19:59.26	22.47	14.07	-41.8	-46.0	11.7	5.35e-04	0	59	0	120586240	54	6106
2026-01-16 23:20:00.27	22.51	14.17	-41.9	-46.1	11.6	5.56e-04	0	58	0	121634816	54	6147
2026-01-16 23:20:01.28	22.56	14.27	-41.8	-46.0	11.7	5.31e-04	0	59	0	123731968	54	6087
2026-01-16 23:20:02.29	22.60	14.37	-41.8	-46.0	11.8	5.53e-04	0	59	0	125829120	54	6071
2026-01-16 23:20:03.30	22.64	14.48	-41.8	-46.0	11.8	5.01e-04	0	58	0	127926272	54	6075
2026-01-16 23:20:04.31	22.69	14.58	-41.9	-46.1	11.7	5.81e-04	0	58	0	130023424	54	6157
2026-01-16 23:20:05.32	22.73	14.68	-41.9	-46.1	11.6	4.55e-04	0	59	0	132120576	54	6188
2026-01-16 23:20:06.33	22.77	14.79	-41.9	-46.0	11.8	6.31e-04	0	59	0	133169152	54	6084
2026-01-16 23:20:07.33	22.82	14.89	-41.9	-46.0	11.8	5.53e-04	0	59	0	135266304	54	6073
2026-01-16 23:20:08.34	22.86	15.00	-41.9	-46.1	11.7	5.49e-04	0	59	0	137363456	54	6169
2026-01-16 23:20:09.35	22.91	15.10	-41.9	-46.1	11.7	5.54e-04	0	59	0	139460608	54	6156
2026-01-16 23:20:10.36	22.95	15.21	-41.9	-46.1	11.7	5.64e-04	0	59	0	141557760	54	6151
2026-01-16 23:20:11.37	23.00	15.31	-41.9	-46.1	11.7	6.70e-04	0	59	0	142606336	54	6158
2026-01-16 23:20:12.38	23.04	15.42	-42.0	-46.2	11.6	5.11e-04	0	59	0	144703488	54	6232
2026-01-16 23:20:13.39	23.09	15.53	-41.9	-46.0	11.8	5.31e-04	0	59	0	146800640	54	6110
2026-01-16 23:20:14.40	23.14	15.63	-41.9	-46.1	11.8	5.03e-04	0	59	0	148897792	54	6138
2026-01-16 23:20:15.41	23.18	15.74	-41.9	-46.0	11.8	4.81e-04	0	59	0	150994944	54	6113
2026-01-16 23:20:16.42	23.23	15.85	-41.9	-46.0	11.9	4.42e-04	0	59	0	152043520	54	6102
2026-01-16 23:20:17.43	23.28	15.96	-41.9	-46.0	11.9	4.39e-04	0	59	0	154140672	54	6073
2026-01-16 23:20:18.44	23.32	16.07	-41.9	-46.0	11.9	4.54e-04	0	59	0	156237824	54	6083
2026-01-16 23:20:19.45	23.37	16.18	-41.9	-46.0	11.9	3.90e-04	0	59	0	158334976	54	6118
2026-01-16 23:20:20.46	23.42	16.29	-42.0	-46.1	11.8	4.32e-04	0	59	0	160432128	54	6182
2026-01-16 23:20:21.46	23.47	16.40	-41.9	-46.0	11.9	4.39e-04	0	59	0	161480704	54	6106
2026-01-16 23:20:22.47	23.52	16.51	-42.0	-46.1	11.9	4.36e-04	0	59	0	163577856	54	6141
2026-01-16 23:20:23.48	23.57	16.62	-42.0	-46.1	11.8	4.10e-04	0	59	0	165675008	54	6143
2026-01-16 23:20:24.49	23.62	16.73	-42.0	-46.0	11.9	4.49e-04	0	59	0	167772160	54	6131
2026-01-16 23:20:25.51	23.67	16.84	-42.0	-46.1	11.8	4.47e-04	0	59	0	169869312	54	6189
2026-01-16 23:20:26.52	23.72	16.96	-42.0	-46.2	11.8	5.02e-04	0	59	0	170917888	54	6213
2026-01-16 23:20:27.53	23.77	17.07	-42.1	-46.3	11.7	4.89e-04	0	59	0	173015040	54	6281
2026-01-16 23:20:28.54	23.82	17.19	-42.1	-46.3	11.7	5.56e-04	0	59	0	175112192	54	6280
2026-01-16 23:20:29.54	23.87	17.30	-42.1	-46.3	11.7	6.10e-04	0	59	0	177209344	54	6300
2026-01-16 23:20:30.56	23.92	17.42	-42.2	-46.4	11.6	7.03e-04	0	59	0	179306496	54	6361
2026-01-16 23:20:31.57	23.97	17.53	-42.2	-46.5	11.5	7.89e-04	0	59	0	180355072	54	6434
2026-01-16 23:20:32.58	24.03	17.65	-42.2	-46.5	11.4	8.97e-04	0	59	0	182452224	55	6120
2026-01-16 23:20:33.59	24.08	17.76	-42.2	-46.4	11.6	7.45e-04	0	59	0	184549376	55	6000
2026-01-16 23:20:34.60	24.13	17.88	-42.2	-46.4	11.6	7.12e-04	0	59	0	186646528	55	6019
2026-01-16 23:20:35.60	24.18	18.00	-42.2	-46.5	11.5	6.22e-04	0	59	0	188743680	55	6075
2026-01-16 23:20:36.61	24.24	18.12	-42.3	-46.5	11.4	8.25e-04	0	59	0	189792256	55	6128
2026-01-16 23:20:37.62	24.29	18.24	-42.3	-46.6	11.4	9.06e-04	0	59	0	191889408	55	6148
2026-01-16 23:20:38.63	24.35	18.36	-42.3	-46.6	11.3	9.52e-04	0	59	0	193986560	55	6166
2026-01-16 23:20:39.64	24.40	18.48	-42.3	-46.6	11.4	9.25e-04	0	59	0	196083712	55	6145
2026-01-16 23:20:40.65	24.46	18.60	-42.3	-46.5	11.5	1.06e-03	0	59	0	198180864	55	6113
2026-01-16 23:20:41.66	24.51	18.72	-42.2	-46.4	11.6	7.76e-04	0	59	0	200278016	55	6005
2026-01-16 23:20:42.67	24.57	18.84	-42.3	-46.5	11.6	6.96e-04	0	59	0	201326592	55	6068
2026-01-16 23:20:43.68	24.63	18.96	-42.1	-46.2	11.8	5.10e-04	0	59	0	203423744	55	5896
2026-01-16 23:20:44.69	24.68	19.09	-42.1	-46.3	11.8	5.32e-04	0	59	0	205520896	55	5932
2026-01-16 23:20:45.70	24.74	19.21	-42.2	-46.3	11.8	4.98e-04	0	59	0	207618048	55	5961
2026-01-16 23:20:46.70	24.80	19.33	-42.2	-46.4	11.7	5.71e-04	0	59	0	208666624	55	6000
2026-01-16 23:20:47.71	24.86	19.46	-42.2	-46.3	11.8	5.16e-04	0	59	0	210763776	55	5939
2026-01-16 23:20:48.72	24.92	19.58	-42.2	-46.3	11.8	5.07e-04	0	59	0	212860928	55	5971
2026-01-16 23:20:49.73	24.97	19.71	-42.2	-46.4	11.7	5.42e-04	0	59	0	214958080	55	5997
2026-01-16 23:20:50.74	25.03	19.83	-42.2	-46.4	11.7	5.12e-04	0	59	0	217055232	55	6030
2026-01-16 23:20:51.75	25.09	19.96	-42.2	-46.3	11.8	5.44e-04	0	59	0	218103808	55	5977
2026-01-16 23:20:52.76	25.16	20.09	-42.2	-46.3	11.8	5.44e-04	0	59	0	220200960	55	5951
2026-01-16 23:20:53.77	25.22	20.22	-42.3	-46.4	11.7	5.45e-04	0	59	0	222298112	55	6013
2026-01-16 23:20:54.78	25.28	20.35	-42.3	-46.5	11.6	5.81e-04	0	59	0	224395264	55	6104
2026-01-16 23:20:55.79	25.34	20.48	-42.3	-46.5	11.6	7.50e-04	0	59	0	226492416	55	6109
2026-01-16 23:20:56.80	25.40	20.61	-42.2	-46.4	11.8	6.16e-04	0	60	0	228589568	55	6000
2026-01-16 23:20:57.81	25.47	20.74	-42.3	-46.4	11.7	6.20e-04	0	59	0	229638144	55	6055
2026-01-16 23:20:58.82	25.53	20.87	-42.2	-46.4	11.8	6.27e-04	0	59	0	231735296	55	5998
2026-01-16 23:20:59.83	25.59	21.00	-42.2	-46.2	11.9	4.39e-04	0	59	0	233832448	55	5919
2026-01-16 23:21:00.84	25.66	21.14	-42.2	-46.2	11.9	4.01e-04	0	60	0	235929600	55	5922
2026-01-16 23:21:01.85	25.72	21.27	-42.2	-46.2	11.9	4.21e-04	0	59	0	238026752	55	5899
2026-01-16 23:21:02.86	25.79	21.40	-42.1	-46.1	12.0	3.48e-04	0	59	0	239075328	55	5834
2026-01-16 23:21:03.87	25.86	21.54	-42.1	-45.9	12.3	2.21e-04	0	60	0	241172480	55	5690
2026-01-16 23:21:04.88	25.92	21.68	-42.0	-45.8	12.4	1.31e-04	0	59	0	243269632	55	5632
2026-01-16 23:21:05.89	25.99	21.81	-41.9	-45.7	12.5	1.28e-04	0	59	0	245366784	55	5558
2026-01-16 23:21:06.90	26.06	21.95	-41.9	-45.6	12.6	1.04e-04	0	60	0	247463936	55	5467
2026-01-16 23:21:07.90	26.13	22.09	-41.8	-45.5	12.7	6.40e-05	0	59	0	248512512	55	5420
2026-01-16 23:21:08.91	26.19	22.22	-41.8	-45.4	12.9	5.41e-05	0	60	0	250609664	55	5349
2026-01-16 23:21:09.92	26.26	22.36	-41.8	-45.4	12.9	4.73e-05	0	59	0	252706816	55	5359
2026-01-16 23:21:10.93	26.33	22.50	-41.7	-45.3	13.0	4.95e-05	0	60	0	254803968	55	5303
2026-01-16 23:21:11.94	26.40	22.64	-41.7	-45.2	13.0	3.20e-05	0	59	0	256901120	55	5258
2026-01-16 23:21:12.95	26.48	22.79	-41.7	-45.3	13.0	3.58e-05	0	60	0	257949696	55	5284
2026-01-16 23:21:13.96	26.55	22.93	-41.7	-45.2	13.1	3.66e-05	0	60	0	260046848	55	5219
2026-01-16 23:21:14.97	26.62	23.07	-41.6	-45.1	13.2	2.89e-05	0	59	0	262144000	55	5185
2026-01-16 23:21:15.98	26.69	23.22	-41.6	-45.1	13.2	2.28e-05	0	60	0	264241152	55	5169
2026-01-16 23:21:16.98	26.77	23.36	-41.6	-45.0	13.2	2.13e-05	0	59	0	266338304	55	5152
2026-01-16 23:21:17.99	26.84	23.50	-41.6	-44.9	13.3	1.83e-05	0	60	0	267386880	55	5096
2026-01-16 23:21:19.01	26.92	23.65	-41.5	-44.9	13.4	1.29e-05	0	60	0	269484032	55	5053
2026-01-16 23:21:20.02	26.99	23.80	-41.5	-44.8	13.5	1.06e-05	0	59	0	271581184	55	5030
2026-01-16 23:21:21.03	27.07	23.95	-41.5	-44.8	13.5	1.52e-05	0	59	0	273678336	54	5308
2026-01-16 23:21:22.04	27.15	24.09	-41.5	-44.7	13.5	8.30e-06	0	60	0	275775488	54	5278
2026-01-16 23:21:23.05	27.23	24.24	-41.5	-44.8	13.6	6.80e-06	0	60	0	276824064	54	5283
2026-01-16 23:21:24.05	27.30	24.39	-41.4	-44.6	13.7	6.10e-06	0	60	0	278921216	54	5192
2026-01-16 23:21:25.06	27.38	24.54	-41.4	-44.6	13.7	5.30e-06	0	60	0	281018368	54	5188
2026-01-16 23:21:26.07	27.46	24.70	-41.3	-44.5	13.8	6.10e-06	0	60	0	283115520	54	5128
2026-01-16 23:21:27.08	27.54	24.85	-41.3	-44.5	13.9	2.20e-06	0	60	0	285212672	54	5118
2026-01-16 23:21:28.09	27.63	25.00	-41.3	-44.5	13.8	5.30e-06	0	60	0	286261248	54	5132
2026-01-16 23:21:29.10	27.71	25.16	-41.3	-44.5	13.8	4.50e-06	0	60	0	288358400	54	5112
2026-01-16 23:21:30.11	27.79	25.31	-41.3	-44.5	13.9	5.30e-06	0	60	0	290455552	54	5126
2026-01-16 23:21:31.12	27.87	25.47	-41.4	-44.5	13.8	1.50e-06	0	60	0	292552704	54	5158
2026-01-16 23:21:32.13	27.96	25.62	-41.3	-44.5	13.9	3.00e-06	0	60	0	294649856	54	5133
2026-01-16 23:21:33.14	28.04	25.78	-41.4	-44.6	13.8	6.80e-06	0	60	0	296747008	54	5173
2026-01-16 23:21:34.15	28.13	25.94	-41.4	-44.5	13.8	3.80e-06	0	60	0	297795584	54	5152
2026-01-16 23:21:35.16	28.22	26.10	-41.4	-44.5	13.9	2.20e-06	0	60	0	299892736	54	5155
2026-01-16 23:21:36.17	28.31	26.26	-41.4	-44.6	13.8	8.30e-06	0	60	0	301989888	54	5202
2026-01-16 23:21:37.18	28.39	26.42	-41.4	-44.6	13.7	6.80e-06	0	60	0	304087040	54	5214
2026-01-16 23:21:38.19	28.48	26.58	-41.5	-44.7	13.7	9.90e-06	0	60	0	306184192	54	5260
2026-01-16 23:21:39.20	28.58	26.75	-41.5	-44.8	13.6	7.60e-06	0	60	0	307232768	54	5316
2026-01-16 23:21:40.21	28.67	26.91	-41.6	-44.9	13.5	6.80e-06	0	60	0	309329920	54	5376
2026-01-16 23:21:41.22	28.76	27.08	-41.6	-44.9	13.4	1.22e-05	0	60	0	311427072	54	5394
2026-01-16 23:21:42.23	28.85	27.24	-41.7	-45.1	13.2	1.83e-05	0	60	0	313524224	54	5522
2026-01-16 23:21:43.24	28.95	27.41	-41.7	-45.1	13.3	1.67e-05	0	59	0	315621376	54	5496
2026-01-16 23:21:44.25	29.04	27.58	-41.7	-45.1	13.2	1.75e-05	0	60	0	316669952	54	5524
2026-01-16 23:21:45.26	29.14	27.74	-41.8	-45.3	13.1	3.28e-05	0	60	0	318767104	54	5616
2026-01-16 23:21:46.27	29.23	27.91	-41.8	-45.4	13.0	2.97e-05	0	60	0	320864256	54	5677
2026-01-16 23:21:47.27	29.33	28.08	-42.0	-45.6	12.8	4.95e-05	0	60	0	322961408	54	5792
2026-01-16 23:21:48.28	29.43	28.26	-42.0	-45.6	12.8	6.86e-05	0	60	0	325058560	54	5842
2026-01-16 23:21:49.29	29.53	28.43	-42.0	-45.7	12.7	9.07e-05	0	60	0	326107136	54	5907
2026-01-16 23:21:50.30	29.63	28.60	-42.0	-45.7	12.6	9.00e-05	0	60	0	328204288	54	5913
2026-01-16 23:21:51.31	29.73	28.78	-42.1	-45.8	12.6	9.15e-05	0	60	0	330301440	54	5948
2026-01-16 23:21:52.32	29.84	28.95	-42.1	-45.8	12.5	1.20e-04	0	60	0	332398592	54	5985
2026-01-16 23:21:53.33	29.94	29.13	-42.1	-45.9	12.5	9.30e-05	0	60	0	334495744	54	6029
2026-01-16 23:21:54.34	30.05	29.31	-42.2	-46.1	12.3	1.40e-04	0	60	0	335544320	55	5801
2026-01-16 23:21:55.35	30.15	29.48	-42.3	-46.2	12.2	2.43e-04	0	60	0	337641472	55	5904
2026-01-16 23:21:56.36	30.26	29.66	-42.4	-46.4	12.0	2.53e-04	0	60	0	339738624	55	6039
2026-01-16 23:21:57.37	30.37	29.85	-42.4	-46.5	11.8	4.53e-04	0	60	0	341835776	55	6120
2026-01-16 23:21:58.38	30.48	30.03	-42.6	-46.8	11.6	7.04e-04	0	60	0	343932928	55	6284
2026-01-16 23:21:59.39	30.59	30.21	-42.6	-46.9	11.5	8.28e-04	0	60	0	344981504	55	6360
2026-01-16 23:22:00.40	30.70	30.39	-42.7	-47.1	11.2	1.17e-03	0	60	0	347078656	55	6530
2026-01-16 23:22:01.41	30.82	30.58	-42.9	-47.4	11.1	1.52e-03	0	60	0	349175808	56	6400
2026-01-16 23:22:02.42	30.93	30.77	-43.0	-47.6	10.9	1.96e-03	0	60	0	351272960	56	6552
2026-01-16 23:22:03.43	31.05	30.95	-43.1	-47.8	10.7	2.93e-03	0	60	0	353370112	56	6699
2026-01-16 23:22:04.44	31.17	31.14	-43.2	-48.0	10.4	3.82e-03	0	60	0	354418688	56	6850
2026-01-16 23:22:05.45	31.29	31.33	-43.3	-48.3	10.2	4.91e-03	0	60	0	356515840	57	6685
2026-01-16 23:22:06.46	31.41	31.52	-43.3	-48.4	10.1	7.83e-03	0	60	0	358612992	57	6749
2026-01-16 23:22:07.47	31.53	31.71	-43.4	-48.5	10.0	7.50e-03	0	60	0	360710144	57	6829
2026-01-16 23:22:08.48	31.65	31.90	-43.4	-48.5	10.0	8.26e-03	0	60	0	362807296	57	6851
2026-01-16 23:22:09.49	31.78	32.10	-43.4	-48.6	9.9	1.02e-02	0	60	0	364904448	57	6886
2026-01-16 23:22:10.50	31.90	32.29	-43.5	-48.8	9.7	1.16e-02	0	60	0	365953024	57	7053
2026-01-16 23:22:11.51	32.03	32.49	-43.5	-48.8	9.6	1.19e-02	0	60	0	368050176	57	7118
2026-01-16 23:22:12.52	32.16	32.69	-43.5	-48.9	9.5	1.27e-02	0	60	0	370147328	57	7161
2026-01-16 23:22:13.52	32.29	32.88	-43.5	-48.9	9.5	1.43e-02	0	60	0	372244480	57	7191
2026-01-16 23:22:14.53	32.42	33.08	-43.6	-49.0	9.4	1.71e-02	0	60	0	374341632	57	7278
2026-01-16 23:22:15.54	32.55	33.28	-43.6	-49.0	9.4	1.60e-02	0	60	0	375390208	57	7249
2026-01-16 23:22:16.56	32.69	33.49	-43.6	-49.0	9.4	1.49e-02	0	60	0	377487360	57	7235
2026-01-16 23:22:17.57	32.83	33.69	-43.6	-48.9	9.5	1.54e-02	0	60	0	379584512	57	7204
2026-01-16 23:22:18.58	32.97	33.90	-43.5	-48.8	9.6	1.37e-02	0	60	0	381681664	57	7099
2026-01-16 23:22:19.59	33.11	34.10	-43.5	-48.8	9.7	1.25e-02	0	60	0	383778816	57	7096
2026-01-16 23:22:20.59	33.25	34.31	-43.5	-48.7	9.8	1.06e-02	0	60	0	384827392	57	6976
2026-01-16 23:22:21.60	33.39	34.51	-43.5	-48.7	9.8	9.50e-03	0	60	0	386924544	57	7005
2026-01-16 23:22:22.61	33.54	34.72	-43.4	-48.6	9.9	1.03e-02	0	60	0	389021696	57	6930
2026-01-16 23:22:23.62	33.68	34.93	-43.5	-48.6	9.9	9.63e-03	0	60	0	391118848	57	6930
2026-01-16 23:22:24.63	33.83	35.14	-43.5	-48.6	10.0	8.56e-03	0	60	0	393216000	57	6913
2026-01-16 23:22:25.64	33.98	35.36	-43.5	-48.7	9.9	8.84e-03	0	60	0	394264576	57	6980
2026-01-16 23:22:26.65	34.14	35.57	-43.5	-48.8	9.8	1.03e-02	0	60	0	396361728	57	7054
2026-01-16 23:22:27.66	34.29	35.79	-43.5	-48.8	9.7	1.11e-02	0	60	0	398458880	57	7084
2026-01-16 23:22:28.67	34.45	36.00	-43.5	-48.6	9.9	1.02e-02	0	60	0	400556032	57	6927
2026-01-16 23:22:29.68	34.61	36.22	-43.6	-48.9	9.7	1.10e-02	0	60	0	402653184	57	7147
2026-01-16 23:22:30.68	34.77	36.44	-43.6	-48.9	9.6	1.34e-02	0	60	0	403701760	57	7152
2026-01-16 23:22:31.70	34.93	36.66	-43.6	-48.8	9.7	1.18e-02	0	60	0	405798912	57	7092
2026-01-16 23:22:32.70	35.10	36.88	-43.5	-48.7	9.8	1.07e-02	0	60	0	407896064	57	6997
2026-01-16 23:22:33.71	35.26	37.10	-43.4	-48.5	10.0	8.52e-03	0	60	0	409993216	57	6847
2026-01-16 23:22:34.72	35.43	37.32	-43.5	-48.6	10.0	8.18e-03	0	60	0	412090368	57	6887
2026-01-16 23:22:35.73	35.61	37.55	-43.4	-48.4	10.1	7.49e-03	0	60	0	413138944	57	6783
2026-01-16 23:22:36.74	35.78	37.78	-43.4	-48.4	10.2	6.24e-03	0	60	0	415236096	57	6728
2026-01-16 23:22:37.75	35.96	38.00	-43.5	-48.5	10.0	7.05e-03	0	60	0	417333248	57	6876
2026-01-16 23:22:38.77	36.14	38.24	-43.5	-48.6	9.9	8.00e-03	0	60	0	419430400	57	6936
2026-01-16 23:22:39.78	36.32	38.47	-43.5	-48.6	9.9	8.26e-03	0	60	0	421527552	57	6943
2026-01-16 23:22:40.79	36.51	38.70	-43.5	-48.6	9.9	8.88e-03	0	60	0	422576128	57	6948
2026-01-16 23:22:41.79	36.69	38.93	-43.4	-48.5	10.1	8.09e-03	0	60	0	424673280	57	6803
2026-01-16 23:22:42.80	36.88	39.16	-43.4	-48.4	10.2	5.30e-03	0	60	0	426770432	57	6726
2026-01-16 23:22:43.81	37.07	39.40	-43.4	-48.2	10.4	5.66e-03	0	60	0	428867584	57	6634
2026-01-16 23:22:44.82	37.27	39.63	-43.3	-48.0	10.6	3.95e-03	0	60	0	430964736	57	6444
2026-01-16 23:22:45.83	37.47	39.87	-43.3	-48.1	10.5	3.57e-03	0	60	0	433061888	57	6521
2026-01-16 23:22:46.84	37.67	40.11	-43.3	-48.0	10.6	3.73e-03	0	60	0	434110464	57	6466
2026-01-16 23:22:47.85	37.87	40.35	-43.3	-48.0	10.7	3.26e-03	0	60	0	436207616	57	6425
2026-01-16 23:22:48.86	38.08	40.59	-43.2	-47.7	10.9	2.13e-03	0	60	0	438304768	57	6253
2026-01-16 23:22:49.87	38.29	40.83	-43.1	-47.6	11.1	1.86e-03	0	60	0	440401920	57	6132
2026-01-16 23:22:50.88	38.50	41.08	-43.0	-47.3	11.3	1.33e-03	0	60	0	442499072	57	5974
2026-01-16 23:22:51.89	38.72	41.32	-42.9	-47.1	11.6	9.35e-04	0	60	0	443547648	57	5822
2026-01-16 23:22:52.90	38.94	41.57	-42.9	-47.0	11.6	5.39e-04	0	60	0	445644800	57	5784
2026-01-16 23:22:53.91	39.16	41.82	-42.9	-47.1	11.6	5.65e-04	0	60	0	447741952	57	5796
2026-01-16 23:22:54.92	39.38	42.07	-42.9	-47.1	11.6	6.51e-04	0	60	0	449839104	57	5823
2026-01-16 23:22:55.93	39.61	42.32	-42.9	-47.1	11.6	6.59e-04	0	60	0	451936256	57	5849
2026-01-16 23:22:56.94	39.85	42.57	-42.9	-47.1	11.5	7.49e-04	0	60	0	452984832	57	5842
2026-01-16 23:22:57.95	40.08	42.82	-43.0	-47.4	11.4	7.57e-04	0	60	0	455081984	57	6007
2026-01-16 23:22:58.96	40.32	43.07	-43.1	-47.5	11.1	1.35e-03	0	60	0	457179136	57	6108
2026-01-16 23:22:59.97	40.57	43.33	-43.0	-47.4	11.3	1.62e-03	0	60	0	459276288	57	6033
2026-01-16 23:23:00.98	40.82	43.58	-43.0	-47.3	11.4	1.05e-03	0	60	0	461373440	57	5958
2026-01-16 23:23:01.99	41.07	43.84	-43.0	-47.3	11.4	9.22e-04	0	60	0	462422016	57	5952
2026-01-16 23:23:03.00	41.32	44.10	-42.9	-47.1	11.5	7.87e-04	0	60	0	464519168	57	5849
2026-01-16 23:23:04.00	41.58	44.36	-43.0	-47.3	11.4	7.76e-04	0	60	0	466616320	57	5954
2026-01-16 23:23:05.01	41.85	44.62	-42.9	-47.2	11.5	7.22e-04	0	60	0	468713472	57	5870
2026-01-16 23:23:06.02	42.12	44.88	-43.1	-47.5	11.2	1.10e-03	0	60	0	470810624	57	6101
2026-01-16 23:23:07.03	42.39	45.14	-43.3	-48.1	10.6	2.01e-03	0	60	0	471859200	57	6504
2026-01-16 23:23:08.04	42.67	45.40	-43.4	-48.2	10.5	3.95e-03	0	60	0	473956352	57	6608
2026-01-16 23:23:09.05	42.95	45.67	-43.6	-48.8	9.8	8.19e-03	0	60	0	476053504	57	7073
2026-01-16 23:23:10.06	43.23	45.93	-43.7	-49.1	9.5	1.01e-02	0	61	0	478150656	57	7355
2026-01-16 23:23:11.07	43.53	46.20	-43.7	-48.9	9.7	1.26e-02	0	60	0	480247808	58	6790
2026-01-16 23:23:12.08	43.82	46.47	-43.6	-48.7	9.9	8.99e-03	0	60	0	481296384	58	6630
2026-01-16 23:23:13.09	44.12	46.74	-43.4	-48.3	10.3	5.94e-03	0	60	0	483393536	58	6337
2026-01-16 23:23:14.10	44.43	47.01	-43.4	-48.2	10.5	4.08e-03	0	60	0	485490688	58	6225
2026-01-16 23:23:15.11	44.74	47.28	-43.4	-48.3	10.4	3.88e-03	0	60	0	487587840	58	6288
2026-01-16 23:23:16.12	45.06	47.55	-43.4	-48.3	10.4	3.96e-03	0	60	0	489684992	58	6310
2026-01-16 23:23:17.13	45.38	47.82	-43.6	-48.7	10.0	6.35e-03	0	60	0	490733568	58	6581
2026-01-16 23:23:18.14	45.71	48.09	-43.7	-49.0	9.7	1.04e-02	0	60	0	492830720	58	6818
2026-01-16 23:23:19.15	46.05	48.37	-43.7	-48.9	9.7	1.21e-02	0	60	0	494927872	58	6783
2026-01-16 23:23:20.16	46.39	48.64	-43.6	-48.7	10.0	9.00e-03	0	60	0	497025024	58	6590
2026-01-16 23:23:21.16	46.73	48.91	-43.4	-48.3	10.5	5.77e-03	0	60	0	499122176	58	6285
2026-01-16 23:23:22.17	47.08	49.19	-43.2	-47.8	10.9	2.52e-03	0	60	0	501219328	58	5947
2026-01-16 23:23:23.18	47.44	49.46	-43.1	-47.4	11.2	1.45e-03	0	60	0	502267904	58	5691
2026-01-16 23:23:24.19	47.81	49.74	-42.9	-46.9	11.8	6.81e-04	0	60	0	504365056	57	5717
2026-01-16 23:23:25.20	48.18	50.01	-42.8	-46.8	12.0	3.54e-04	0	60	0	506462208	57	5603
2026-01-16 23:23:26.21	48.56	50.29	-42.7	-46.7	12.1	3.13e-04	0	60	0	508559360	57	5533
2026-01-16 23:23:27.22	48.94	50.57	-42.5	-46.3	12.5	1.99e-04	0	60	0	510656512	57	5295
2026-01-16 23:23:28.23	49.33	50.85	-42.3	-45.9	12.9	5.72e-05	0	60	0	511705088	56	5350
2026-01-16 23:23:29.24	49.73	51.13	-42.1	-45.4	13.4	1.98e-05	0	60	0	513802240	56	5082
2026-01-16 23:23:30.25	50.14	51.40	-41.8	-45.0	13.6	1.14e-05	0	60	0	515899392	55	5144
2026-01-16 23:23:31.25	50.55	51.68	-41.5	-44.6	14.1	3.80e-06	0	60	0	517996544	55	4878
2026-01-16 23:23:32.27	50.98	51.96	-41.4	-44.3	14.4	0.00e+00	0	61	0	520093696	54	5018
2026-01-16 23:23:33.28	51.41	52.24	-41.3	-44.2	14.6	0.00e+00	0	60	0	521142272	54	4932
2026-01-16 23:23:34.29	51.85	52.52	-41.4	-44.3	14.4	7.00e-07	0	61	0	523239424	54	5004
2026-01-16 23:23:35.30	52.30	52.80	-41.3	-44.2	14.6	0.00e+00	0	61	0	525336576	54	4956
2026-01-16 23:23:36.31	52.75	53.07	-41.2	-44.0	14.7	0.00e+00	0	60	0	527433728	54	4859
2026-01-16 23:23:37.32	53.22	53.35	-41.0	-43.7	15.0	0.00e+00	0	60	0	529530880	54	4683
2026-01-16 23:23:38.32	53.68	53.63	-41.0	-43.7	15.1	0.00e+00	0	61	0	530579456	53	4946
2026-01-16 23:23:39.33	54.17	53.90	-40.9	-43.5	15.2	0.00e+00	0	61	0	532676608	53	4869
2026-01-16 23:23:40.34	54.66	54.18	-40.9	-43.6	15.1	0.00e+00	0	60	0	534773760	53	4900
2026-01-16 23:23:41.35	55.16	54.46	-41.1	-43.9	14.8	0.00e+00	0	60	0	536870912	53	5083
2026-01-16 23:23:42.36	55.67	54.73	-41.5	-44.5	14.2	1.50e-06	0	60	0	538968064	53	5435
2026-01-16 23:23:43.37	56.19	55.01	-41.7	-44.8	13.9	3.80e-06	0	60	0	540016640	53	5643
2026-01-16 23:23:44.38	56.72	55.28	-41.7	-44.9	13.8	4.50e-06	0	61	0	542113792	54	5363
2026-01-16 23:23:45.39	57.26	55.55	-41.7	-44.9	13.8	4.50e-06	0	60	0	544210944	54	5377
2026-01-16 23:23:46.40	57.81	55.82	-41.9	-45.2	13.4	8.30e-06	0	60	0	546308096	54	5584
2026-01-16 23:23:47.41	58.37	56.09	-42.3	-45.9	12.8	4.95e-05	0	60	0	548405248	55	5705
2026-01-16 23:23:48.42	58.95	56.36	-42.5	-46.3	12.3	1.27e-04	0	60	0	549453824	55	5975
2026-01-16 23:23:49.43	59.53	56.63	-42.7	-46.8	11.9	2.93e-04	0	60	0	551550976	55	6286
2026-01-16 23:23:50.44	60.12	56.90	-42.9	-47.0	11.8	3.54e-04	0	60	0	553648128	56	6077
2026-01-16 23:23:51.45	60.73	57.16	-43.0	-47.2	11.6	5.95e-04	0	60	0	555745280	56	6242
2026-01-16 23:23:52.46	61.35	57.42	-43.0	-47.2	11.7	6.19e-04	0	60	0	557842432	56	6221
2026-01-16 23:23:53.48	61.99	57.68	-43.0	-47.3	11.5	7.16e-04	0	61	0	558891008	56	6278
2026-01-16 23:23:54.48	62.62	57.94	-43.2	-47.6	11.1	1.27e-03	0	61	0	560988160	56	6541
2026-01-16 23:23:55.49	63.28	58.20	-43.1	-47.5	11.2	1.82e-03	0	61	0	563085312	57	6070
2026-01-16 23:23:56.50	63.95	58.45	-42.8	-46.8	12.0	8.99e-04	0	61	0	565182464	57	5623
2026-01-16 23:23:57.51	64.63	58.70	-42.7	-46.5	12.3	2.00e-04	0	61	0	567279616	57	5427
2026-01-16 23:23:58.52	65.32	58.95	-42.5	-46.2	12.5	1.43e-04	0	61	0	569376768	57	5265
2026-01-16 23:23:59.53	66.02	59.19	-42.7	-46.5	12.3	1.51e-04	0	60	0	570425344	57	5448
2026-01-16 23:24:00.54	66.74	59.43	-42.5	-46.2	12.6	1.22e-04	0	61	0	572522496	57	5241
2026-01-16 23:24:01.55	67.48	59.67	-42.3	-45.8	13.0	4.80e-05	0	60	0	574619648	56	5311
2026-01-16 23:24:02.56	68.22	59.91	-42.2	-45.6	13.2	2.82e-05	0	60	0	576716800	56	5187
2026-01-16 23:24:03.57	68.98	60.14	-42.0	-45.3	13.6	1.14e-05	0	61	0	578813952	56	5000
2026-01-16 23:24:04.58	69.76	60.37	-41.7	-44.8	13.8	4.50e-06	0	61	0	579862528	55	5039
2026-01-16 23:24:05.59	70.54	60.59	-41.9	-45.1	13.6	7.60e-06	0	61	0	581959680	55	5199
2026-01-16 23:24:06.60	71.34	60.82	-42.1	-45.5	13.1	1.14e-05	0	61	0	584056832	55	5455
2026-01-16 23:24:07.61	72.16	61.03	-41.9	-45.3	13.4	1.75e-05	0	61	0	586153984	55	5304
2026-01-16 23:24:08.62	72.99	61.24	-41.7	-44.8	13.9	4.50e-06	0	60	0	588251136	55	5017
2026-01-16 23:24:09.63	73.83	61.45	-41.7	-44.8	13.8	4.50e-06	0	60	0	589299712	55	5028
2026-01-16 23:24:10.64	74.69	61.65	-41.9	-45.2	13.4	3.80e-06	0	61	0	591396864	55	5261
2026-01-16 23:24:11.65	75.56	61.85	-42.1	-45.6	13.1	2.59e-05	0	60	0	593494016	55	5469
2026-01-16 23:24:12.65	76.43	62.04	-41.6	-44.6	14.0	1.37e-05	0	60	0	595591168	55	4902
2026-01-16 23:24:13.66	77.33	62.23	-41.0	-43.6	15.0	0.00e+00	0	60	0	597688320	54	4647
2026-01-16 23:24:14.67	78.25	62.41	-41.1	-43.8	14.9	0.00e+00	0	60	0	598736896	53	5003
2026-01-16 23:24:15.68	79.17	62.59	-41.5	-44.5	14.2	0.00e+00	0	61	0	600834048	53	5443
2026-01-16 23:24:16.69	80.11	62.76	-41.7	-44.9	13.8	2.20e-06	0	61	0	602931200	54	5346
2026-01-16 23:24:17.70	81.06	62.92	-41.4	-44.3	14.3	7.00e-07	0	61	0	605028352	54	5033
2026-01-16 23:24:18.71	82.03	63.08	-41.0	-43.8	14.9	0.00e+00	0	61	0	607125504	54	4706
2026-01-16 23:24:19.72	83.00	63.23	-40.9	-43.6	15.0	0.00e+00	0	61	0	608174080	53	4923
2026-01-16 23:24:20.73	83.99	63.38	-41.3	-44.2	14.5	7.00e-07	0	61	0	610271232	53	5230
2026-01-16 23:24:21.74	85.00	63.51	-41.6	-44.7	13.9	7.00e-07	0	60	0	612368384	53	5530
2026-01-16 23:24:22.75	86.01	63.64	-41.9	-45.3	13.4	8.30e-06	0	60	0	614465536	54	5621
2026-01-16 23:24:23.76	87.03	63.77	-41.8	-45.1	13.6	1.22e-05	0	60	0	616562688	54	5489
2026-01-16 23:24:24.77	88.07	63.89	-41.8	-44.9	13.6	3.00e-06	0	61	0	617611264	54	5396
2026-01-16 23:24:25.78	89.11	64.00	-42.0	-45.4	13.1	7.60e-06	0	61	0	619708416	54	5720
2026-01-16 23:24:26.79	90.17	64.10	-42.3	-45.9	12.7	8.16e-05	0	61	0	621805568	55	5688
2026-01-16 23:24:27.80	91.23	64.19	-42.0	-45.4	13.1	5.49e-05	0	60	0	623902720	55	5401
2026-01-16 23:24:28.81	92.30	64.28	-42.1	-45.6	13.0	2.67e-05	0	61	0	625999872	55	5496
2026-01-16 23:24:29.81	93.37	64.35	-42.3	-46.1	12.5	8.85e-05	0	61	0	627048448	55	5804
2026-01-16 23:24:30.82	94.46	64.43	-42.2	-45.8	12.7	1.35e-04	0	61	0	629145600	55	5644
2026-01-16 23:24:31.83	95.55	64.49	-42.1	-45.5	13.0	3.66e-05	0	61	0	631242752	55	5459
2026-01-16 23:24:32.84	96.65	64.54	-42.2	-45.7	12.9	4.11e-05	0	61	0	633339904	55	5557
2026-01-16 23:24:33.85	97.76	64.59	-42.4	-46.1	12.4	1.06e-04	0	61	0	635437056	55	5853
2026-01-16 23:24:34.86	98.86	64.62	-42.2	-45.8	12.8	1.10e-04	0	60	0	637534208	55	5638
2026-01-16 23:24:35.87	99.97	64.65	-42.0	-45.4	13.2	3.35e-05	0	60	0	638582784	55	5349
2026-01-16 23:24:36.88	101.09	64.67	-41.5	-44.6	14.0	3.80e-06	0	60	0	640679936	55	4888
2026-01-16 23:24:37.89	102.20	64.69	-41.6	-44.6	14.0	5.30e-06	0	60	0	642777088	54	5206
2026-01-16 23:24:38.90	103.32	64.69	-41.7	-45.0	13.6	3.00e-06	0	60	0	644874240	54	5407
2026-01-16 23:24:39.91	104.43	64.68	-41.8	-45.0	13.5	9.90e-06	0	61	0	645922816	54	5457
2026-01-16 23:24:40.92	105.55	64.67	-41.7	-44.9	13.7	4.50e-06	0	60	0	648019968	54	5341
2026-01-16 23:24:41.93	106.66	64.65	-41.5	-44.6	14.0	1.50e-06	0	60	0	650117120	54	5164
2026-01-16 23:24:42.93	107.76	64.62	-41.7	-44.9	13.7	2.20e-06	0	61	0	652214272	54	5383
2026-01-16 23:24:43.94	108.87	64.58	-41.9	-45.3	13.3	1.44e-05	0	60	0	654311424	54	5609
2026-01-16 23:24:44.95	109.97	64.53	-42.1	-45.5	13.0	2.59e-05	0	61	0	655360000	54	5767
2026-01-16 23:24:45.96	111.07	64.47	-41.8	-45.0	13.6	7.60e-06	0	61	0	657457152	54	5432
2026-01-16 23:24:46.97	112.16	64.41	-41.9	-45.2	13.4	6.80e-06	0	61	0	659554304	54	5562
2026-01-16 23:24:47.98	113.24	64.34	-41.8	-45.1	13.4	1.67e-05	0	60	0	661651456	54	5512
2026-01-16 23:24:48.99	114.32	64.26	-41.9	-45.3	13.3	8.30e-06	0	60	0	663748608	54	5607
2026-01-16 23:24:50.00	115.39	64.17	-41.9	-45.3	13.3	1.06e-05	0	61	0	665845760	54	5616
2026-01-16 23:24:51.01	116.46	64.07	-42.1	-45.5	13.0	3.50e-05	0	60	0	666894336	54	5769
2026-01-16 23:24:52.02	117.51	63.97	-41.7	-44.8	13.7	1.67e-05	0	61	0	668991488	54	5315
2026-01-16 23:24:53.03	118.55	63.86	-41.2	-44.0	14.6	0.00e+00	0	60	0	671088640	54	4852
2026-01-16 23:24:54.04	119.59	63.74	-41.3	-44.2	14.3	1.50e-06	0	60	0	673185792	54	4976
2026-01-16 23:24:55.05	120.61	63.62	-41.2	-44.1	14.5	1.50e-06	0	60	0	675282944	54	4880
2026-01-16 23:24:56.06	121.62	63.48	-41.0	-43.8	14.8	0.00e+00	0	60	0	676331520	54	4732
2026-01-16 23:24:57.07	122.62	63.34	-41.2	-44.1	14.5	7.00e-07	0	60	0	678428672	54	4908
2026-01-16 23:24:58.08	123.61	63.20	-41.2	-44.1	14.5	7.00e-07	0	61	0	680525824	54	4894
2026-01-16 23:24:59.09	124.59	63.04	-40.8	-43.4	15.1	0.00e+00	0	61	0	682622976	53	4812
2026-01-16 23:25:00.10	125.55	62.88	-40.9	-43.5	15.1	0.00e+00	0	61	0	684720128	53	4849
2026-01-16 23:25:01.10	126.49	62.72	-41.1	-43.9	14.7	0.00e+00	0	61	0	685768704	53	5077
2026-01-16 23:25:02.11	127.43	62.55	-40.9	-43.6	15.0	0.00e+00	0	61	0	687865856	53	4882
2026-01-16 23:25:03.12	128.35	62.37	-40.7	-43.3	15.3	0.00e+00	0	61	0	689963008	53	4738
2026-01-16 23:25:04.14	129.27	62.18	-40.7	-43.3	15.3	0.00e+00	0	61	0	692060160	53	4707
2026-01-16 23:25:05.14	130.16	62.00	-40.5	-43.0	15.5	0.00e+00	0	61	0	694157312	53	4581
2026-01-16 23:25:06.15	131.04	61.80	-40.3	-42.7	15.8	0.00e+00	0	60	0	695205888	52	4674
2026-01-16 23:25:07.16	131.91	61.60	-40.3	-42.7	15.9	0.00e+00	0	61	0	697303040	52	4679
2026-01-16 23:25:08.17	132.76	61.40	-40.4	-42.8	15.8	0.00e+00	0	60	0	699400192	52	4755
2026-01-16 23:25:09.18	133.61	61.19	-40.5	-43.0	15.6	0.00e+00	0	61	0	701497344	52	4866
2026-01-16 23:25:10.19	134.43	60.98	-40.5	-43.0	15.6	7.00e-07	0	61	0	703594496	52	4845
2026-01-16 23:25:11.20	135.25	60.76	-40.4	-42.9	15.7	0.00e+00	0	61	0	704643072	52	4790
2026-01-16 23:25:12.21	136.04	60.54	-40.8	-43.4	15.2	0.00e+00	0	61	0	706740224	52	5055
2026-01-16 23:25:13.22	136.83	60.31	-41.5	-44.6	14.0	7.00e-07	0	61	0	708837376	53	5492
2026-01-16 23:25:14.23	137.60	60.08	-42.0	-45.4	13.1	1.44e-05	0	61	0	710934528	54	5696
2026-01-16 23:25:15.24	138.36	59.85	-41.7	-44.9	13.6	1.52e-05	0	60	0	713031680	54	5360
2026-01-16 23:25:16.25	139.10	59.61	-41.8	-45.1	13.5	6.10e-06	0	60	0	714080256	54	5472
2026-01-16 23:25:17.26	139.83	59.37	-42.1	-45.6	12.9	1.52e-05	0	61	0	716177408	54	5842
2026-01-16 23:25:18.27	140.55	59.13	-42.2	-45.9	12.6	9.61e-05	0	60	0	718274560	55	5664
2026-01-16 23:25:19.28	141.25	58.88	-42.2	-45.7	12.8	7.55e-05	0	61	0	720371712	55	5572
2026-01-16 23:25:20.29	141.95	58.63	-42.3	-45.9	12.6	4.95e-05	0	60	0	722468864	55	5685
2026-01-16 23:25:21.30	142.62	58.38	-42.0	-45.5	13.0	6.48e-05	0	61	0	723517440	55	5427
2026-01-16 23:25:22.31	143.29	58.12	-41.6	-44.8	13.7	7.60e-06	0	60	0	725614592	55	4984
2026-01-16 23:25:23.32	143.94	57.87	-41.8	-45.0	13.6	7.60e-06	0	61	0	727711744	55	5119
2026-01-16 23:25:24.33	144.58	57.61	-41.9	-45.2	13.3	1.37e-05	0	61	0	729808896	55	5278
2026-01-16 23:25:25.34	145.21	57.35	-41.4	-44.4	14.1	6.80e-06	0	60	0	731906048	54	5083
2026-01-16 23:25:26.35	145.83	57.08	-40.9	-43.7	14.9	7.00e-07	0	61	0	734003200	53	4936
2026-01-16 23:25:27.36	146.43	56.82	-41.1	-43.8	14.7	0.00e+00	0	60	0	735051776	53	5039
2026-01-16 23:25:28.37	147.03	56.55	-41.1	-43.9	14.6	0.00e+00	0	61	0	737148928	53	5093
2026-01-16 23:25:29.37	147.60	56.29	-40.9	-43.5	15.0	0.00e+00	0	61	0	739246080	53	4859
2026-01-16 23:25:30.38	148.17	56.02	-40.8	-43.5	15.0	0.00e+00	0	60	0	741343232	53	4858
2026-01-16 23:25:31.39	148.73	55.74	-40.8	-43.5	15.0	7.00e-07	0	61	0	743440384	53	4861
2026-01-16 23:25:32.40	149.28	55.47	-40.7	-43.3	15.2	0.00e+00	0	61	0	744488960	53	4724
2026-01-16 23:25:33.41	149.82	55.20	-40.5	-42.9	15.6	0.00e+00	0	61	0	746586112	52	4800
2026-01-16 23:25:34.42	150.35	54.92	-40.6	-43.1	15.4	0.00e+00	0	60	0	748683264	52	4904
2026-01-16 23:25:35.43	150.87	54.65	-40.8	-43.5	15.0	0.00e+00	0	60	0	750780416	52	5120
2026-01-16 23:25:36.44	151.38	54.37	-40.4	-42.9	15.6	0.00e+00	0	61	0	752877568	52	4795
2026-01-16 23:25:37.45	151.88	54.09	-40.1	-42.5	16.0	0.00e+00	0	60	0	753926144	52	4563
2026-01-16 23:25:38.46	152.37	53.82	-40.4	-42.9	15.6	0.00e+00	0	60	0	756023296	52	4791
2026-01-16 23:25:39.47	152.85	53.54	-40.5	-43.0	15.5	0.00e+00	0	61	0	758120448	52	4841
2026-01-16 23:25:40.47	153.32	53.26	-40.4	-42.8	15.7	0.00e+00	0	60	0	760217600	52	4758
2026-01-16 23:25:41.48	153.78	52.98	-40.8	-43.5	15.0	0.00e+00	0	61	0	762314752	52	5117
2026-01-16 23:25:42.50	154.24	52.70	-41.5	-44.6	13.9	7.00e-07	0	61	0	763363328	53	5506
2026-01-16 23:25:43.51	154.68	52.42	-41.6	-44.8	13.6	9.10e-06	0	61	0	765460480	53	5626
2026-01-16 23:25:44.51	155.12	52.15	-41.5	-44.6	13.9	6.80e-06	0	61	0	767557632	53	5474
2026-01-16 23:25:45.52	155.55	51.87	-41.6	-44.7	13.8	3.80e-06	0	61	0	769654784	53	5570
2026-01-16 23:25:46.53	155.97	51.59	-42.0	-45.4	13.0	1.37e-05	0	60	0	771751936	54	5695
2026-01-16 23:25:47.54	156.38	51.31	-42.1	-45.7	12.7	4.19e-05	0	60	0	772800512	54	5877
2026-01-16 23:25:48.55	156.79	51.03	-42.3	-45.9	12.5	7.93e-05	0	61	0	774897664	55	5708
2026-01-16 23:25:49.56	157.19	50.75	-42.5	-46.5	11.9	2.06e-04	0	61	0	776994816	55	6097
2026-01-16 23:25:50.57	157.58	50.47	-43.1	-47.7	10.8	7.61e-04	0	61	0	779091968	56	6615
2026-01-16 23:25:51.58	157.96	50.19	-43.3	-48.0	10.5	4.29e-03	0	60	0	781189120	57	6456
2026-01-16 23:25:52.59	158.34	49.91	-43.0	-47.5	11.0	2.85e-03	0	61	0	782237696	57	6079
2026-01-16 23:25:53.60	158.71	49.63	-43.0	-47.3	11.2	1.43e-03	0	61	0	784334848	57	5954
2026-01-16 23:25:54.61	159.07	49.36	-43.4	-48.2	10.4	3.02e-03	0	61	0	786432000	57	6599
2026-01-16 23:25:55.62	159.43	49.08	-43.8	-49.5	8.9	1.89e-02	0	61	0	788529152	58	7258
2026-01-16 23:25:56.63	159.78	48.80	-43.9	-49.8	8.6	3.29e-02	0	61	0	790626304	58	7477
2026-01-16 23:25:57.63	160.13	48.53	-43.8	-49.3	9.2	2.63e-02	0	61	0	791674880	58	7042
2026-01-16 23:25:58.64	160.46	48.26	-44.0	-50.0	8.4	3.17e-02	0	60	0	793772032	58	7691
2026-01-16 23:25:59.65	160.80	47.98	-44.2	-51.0	7.5	7.97e-02	0	61	0	795869184	59	8095
2026-01-16 23:26:00.66	161.13	47.71	-44.0	-50.0	8.3	7.12e-02	0	61	0	797966336	59	7230
2026-01-16 23:26:01.67	161.45	47.44	-43.5	-48.5	9.9	1.85e-02	0	61	0	800063488	58	6448
2026-01-16 23:26:02.69	161.77	47.16	-43.2	-47.9	10.6	4.18e-03	0	61	0	802160640	58	6014
2026-01-16 23:26:03.70	162.08	46.89	-43.5	-48.6	9.9	4.59e-03	0	61	0	803209216	58	6531
2026-01-16 23:26:04.71	162.38	46.62	-44.0	-50.2	8.2	3.46e-02	0	61	0	805306368	58	7841
2026-01-16 23:26:05.71	162.68	46.35	-44.4	-51.8	6.7	1.40e-01	0	61	0	807403520	59	8922
2026-01-16 23:26:06.73	162.98	46.08	-44.0	-50.1	8.1	1.65e-01	0	60	0	809500672	59	7357
2026-01-16 23:26:07.73	163.27	45.82	-43.3	-48.1	10.2	1.09e-02	0	61	0	811597824	58	6180
2026-01-16 23:26:08.74	163.55	45.55	-42.8	-47.0	11.5	1.87e-03	0	61	0	812646400	57	5757
2026-01-16 23:26:09.75	163.84	45.28	-42.5	-46.3	12.1	4.50e-04	0	61	0	814743552	57	5337
2026-01-16 23:26:10.76	164.11	45.02	-42.4	-46.1	12.3	2.30e-04	0	61	0	816840704	56	5510
2026-01-16 23:26:11.77	164.38	44.76	-42.6	-46.4	12.1	1.25e-04	0	61	0	818937856	56	5717
2026-01-16 23:26:12.78	164.65	44.49	-42.9	-47.1	11.4	4.87e-04	0	61	0	821035008	56	6166
2026-01-16 23:26:13.79	164.92	44.23	-43.4	-48.4	10.1	5.01e-03	0	61	0	822083584	57	6728
2026-01-16 23:26:14.80	165.17	43.97	-43.6	-48.9	9.4	1.54e-02	0	61	0	824180736	57	7203
2026-01-16 23:26:15.81	165.43	43.71	-43.0	-47.5	10.8	8.10e-03	0	61	0	826277888	57	6094
2026-01-16 23:26:16.82	165.68	43.46	-42.1	-45.6	12.9	1.43e-04	0	61	0	828375040	56	5186
2026-01-16 23:26:17.83	165.93	43.20	-41.2	-44.1	14.3	1.50e-06	0	61	0	830472192	54	4892
2026-01-16 23:26:18.85	166.17	42.94	-41.1	-44.0	14.4	0.00e+00	0	61	0	831520768	54	4823
2026-01-16 23:26:19.86	166.41	42.69	-41.1	-43.8	14.6	0.00e+00	0	61	0	833617920	54	4756
2026-01-16 23:26:20.87	166.65	42.43	-41.8	-45.1	13.2	3.00e-06	0	61	0	835715072	54	5510
2026-01-16 23:26:21.87	166.88	42.18	-42.5	-46.6	11.8	1.81e-04	0	61	0	837812224	55	6133
2026-01-16 23:26:22.88	167.11	41.93	-43.0	-47.5	11.0	1.20e-03	0	61	0	839909376	56	6432
2026-01-16 23:26:23.89	167.33	41.68	-42.7	-46.8	11.6	1.18e-03	0	61	0	840957952	56	5985
2026-01-16 23:26:24.91	167.56	41.43	-42.2	-45.8	12.7	1.72e-04	0	61	0	843055104	56	5307
2026-01-16 23:26:25.91	167.77	41.19	-41.8	-45.1	13.2	4.88e-05	0	61	0	845152256	55	5181
2026-01-16 23:26:26.92	167.99	40.94	-41.6	-44.8	13.5	1.60e-05	0	61	0	847249408	55	5024
2026-01-16 23:26:27.93	168.20	40.70	-41.7	-44.9	13.4	3.80e-06	0	61	0	849346560	55	5071
2026-01-16 23:26:28.94	168.41	40.45	-41.8	-45.2	13.2	1.14e-05	0	61	0	850395136	55	5227
2026-01-16 23:26:29.95	168.62	40.21	-42.3	-46.0	12.3	1.12e-04	0	61	0	852492288	55	5745
2026-01-16 23:26:30.96	168.82	39.97	-42.5	-46.6	11.6	4.54e-04	0	61	0	854589440	55	6169
2026-01-16 23:26:31.97	169.02	39.73	-42.9	-47.4	11.0	1.16e-03	0	61	0	856686592	56	6357
2026-01-16 23:26:32.98	169.22	39.49	-42.9	-47.2	11.1	2.03e-03	0	61	0	858783744	56	6267
2026-01-16 23:26:33.99	169.41	39.25	-42.6	-46.6	11.8	6.94e-04	0	61	0	859832320	56	5797
2026-01-16 23:26:35.00	169.60	39.02	-42.1	-45.5	12.9	1.63e-04	0	61	0	861929472	56	5152
2026-01-16 23:26:36.01	169.79	38.78	-41.4	-44.6	13.7	1.60e-05	0	61	0	864026624	54	5160
2026-01-16 23:26:37.02	169.98	38.55	-41.3	-44.3	14.0	1.50e-06	0	61	0	866123776	54	5036
2026-01-16 23:26:38.02	170.16	38.32	-41.3	-44.3	14.0	7.00e-07	0	61	0	868220928	54	4993
2026-01-16 23:26:39.03	170.34	38.09	-41.2	-44.1	14.2	7.00e-07	0	61	0	870318080	54	4913
2026-01-16 23:26:40.04	170.52	37.86	-41.4	-44.5	13.8	3.80e-06	0	61	0	871366656	54	5124
2026-01-16 23:26:41.05	170.70	37.63	-41.8	-45.2	13.1	1.14e-05	0	61	0	873463808	54	5532
2026-01-16 23:26:42.06	170.87	37.40	-42.2	-46.0	12.2	7.01e-05	0	61	0	875560960	55	5765
2026-01-16 23:26:43.07	171.04	37.18	-42.6	-46.8	11.4	6.83e-04	0	61	0	877658112	55	6333
2026-01-16 23:26:44.08	171.21	36.95	-42.6	-46.8	11.3	9.26e-04	0	61	0	879755264	55	6342
2026-01-16 23:26:45.09	171.38	36.73	-42.5	-46.6	11.6	9.44e-04	0	61	0	880803840	55	6150
2026-01-16 23:26:46.10	171.54	36.51	-42.1	-45.8	12.4	3.96e-04	0	61	0	882900992	55	5639
2026-01-16 23:26:47.11	171.71	36.29	-41.7	-45.1	13.2	3.96e-05	0	61	0	884998144	55	5166
2026-01-16 23:26:48.12	171.87	36.07	-41.5	-44.7	13.5	6.10e-06	0	61	0	887095296	55	4943
2026-01-16 23:26:49.13	172.02	35.85	-41.5	-44.7	13.6	6.80e-06	0	61	0	889192448	54	5221
2026-01-16 23:26:50.14	172.18	35.63	-41.3	-44.2	14.0	3.00e-06	0	61	0	890241024	54	4981
2026-01-16 23:26:51.15	172.33	35.42	-41.4	-44.4	13.8	3.80e-06	0	61	0	892338176	54	5100
2026-01-16 23:26:52.16	172.49	35.20	-41.6	-44.8	13.5	7.60e-06	0	61	0	894435328	54	5293
2026-01-16 23:26:53.17	172.64	34.99	-41.8	-45.1	13.1	1.75e-05	0	61	0	896532480	54	5508
2026-01-16 23:26:54.18	172.79	34.78	-42.0	-45.6	12.6	4.27e-05	0	61	0	898629632	54	5826
2026-01-16 23:26:55.19	172.93	34.57	-42.2	-46.0	12.3	1.11e-04	0	61	0	899678208	54	6067
2026-01-16 23:26:56.20	173.08	34.36	-42.3	-46.3	11.9	3.66e-04	0	61	0	901775360	55	5932
2026-01-16 23:26:57.21	173.22	34.15	-42.4	-46.4	11.8	4.78e-04	0	61	0	903872512	55	6033
2026-01-16 23:26:58.22	173.36	33.94	-42.5	-46.6	11.5	6.18e-04	0	61	0	905969664	55	6178
2026-01-16 23:26:59.23	173.50	33.73	-42.5	-46.6	11.6	7.80e-04	0	61	0	908066816	55	6176
2026-01-16 23:27:00.24	173.64	33.53	-42.5	-46.7	11.5	9.02e-04	0	61	0	909115392	55	6209
2026-01-16 23:27:01.25	173.78	33.33	-42.5	-46.7	11.4	9.28e-04	0	61	0	911212544	55	6271
2026-01-16 23:27:02.26	173.91	33.12	-42.5	-46.7	11.4	1.18e-03	0	61	0	913309696	55	6263
2026-01-16 23:27:03.27	174.04	32.92	-42.5	-46.7	11.5	9.41e-04	0	61	0	915406848	55	6231
2026-01-16 23:27:04.28	174.17	32.72	-42.5	-46.7	11.4	8.41e-04	0	61	0	917504000	55	6229
2026-01-16 23:27:05.28	174.30	32.52	-42.5	-46.7	11.5	7.77e-04	0	61	0	918552576	55	6218
2026-01-16 23:27:06.29	174.43	32.33	-42.3	-46.2	11.9	5.32e-04	0	61	0	920649728	55	5918
2026-01-16 23:27:07.30	174.56	32.13	-42.3	-46.2	11.9	3.60e-04	0	61	0	922746880	55	5888
2026-01-16 23:27:08.31	174.68	31.93	-42.2	-46.0	12.1	2.89e-04	0	61	0	924844032	55	5782
2026-01-16 23:27:09.32	174.81	31.74	-42.2	-46.0	12.1	2.59e-04	0	61	0	926941184	55	5773
2026-01-16 23:27:10.33	174.93	31.55	-42.3	-46.2	11.9	3.92e-04	0	61	0	927989760	55	5896
2026-01-16 23:27:11.34	175.05	31.35	-42.3	-46.3	11.8	4.26e-04	0	61	0	930086912	55	5957
2026-01-16 23:27:12.36	175.17	31.16	-42.4	-46.5	11.6	5.34e-04	0	61	0	932184064	55	6062
2026-01-16 23:27:13.37	175.29	30.97	-42.5	-46.7	11.4	8.95e-04	0	61	0	934281216	55	6222
2026-01-16 23:27:14.37	175.41	30.78	-42.6	-46.9	11.2	1.13e-03	0	61	0	936378368	55	6381
2026-01-16 23:27:15.39	175.52	30.60	-42.6	-47.0	11.1	1.57e-03	0	61	0	938475520	55	6460
2026-01-16 23:27:16.39	175.64	30.41	-42.6	-47.0	11.1	1.49e-03	0	61	0	939524096	55	6465
2026-01-16 23:27:17.40	175.75	30.23	-42.6	-46.9	11.1	1.75e-03	0	61	0	941621248	55	6412
2026-01-16 23:27:18.41	175.86	30.04	-42.5	-46.8	11.3	1.25e-03	0	61	0	943718400	55	6322
2026-01-16 23:27:19.43	175.97	29.86	-42.5	-46.6	11.4	8.80e-04	0	61	0	945815552	55	6197
2026-01-16 23:27:20.43	176.08	29.67	-42.4	-46.5	11.5	8.22e-04	0	61	0	947912704	55	6124
2026-01-16 23:27:21.44	176.19	29.49	-42.3	-46.3	11.8	6.96e-04	0	61	0	948961280	55	5963
2026-01-16 23:27:22.45	176.30	29.31	-42.2	-46.1	11.9	4.04e-04	0	61	0	951058432	55	5843
2026-01-16 23:27:23.46	176.40	29.13	-42.2	-46.0	12.1	2.59e-04	0	61	0	953155584	55	5741
2026-01-16 23:27:24.48	176.51	28.95	-42.2	-46.0	12.0	3.16e-04	0	61	0	955252736	55	5767
2026-01-16 23:27:25.49	176.61	28.78	-42.0	-45.7	12.4	1.70e-04	0	61	0	957349888	55	5592
2026-01-16 23:27:26.50	176.71	28.60	-42.0	-45.6	12.5	1.40e-04	0	61	0	958398464	55	5512
2026-01-16 23:27:27.51	176.82	28.43	-41.9	-45.5	12.7	1.08e-04	0	61	0	960495616	55	5409
2026-01-16 23:27:28.51	176.92	28.25	-41.7	-45.2	12.9	6.17e-05	0	61	0	962592768	55	5223
2026-01-16 23:27:29.52	177.01	28.08	-41.8	-45.3	12.9	4.34e-05	0	61	0	964689920	55	5300
2026-01-16 23:27:30.53	177.11	27.91	-41.9	-45.5	12.6	8.08e-05	0	61	0	966787072	55	5412
2026-01-16 23:27:31.54	177.21	27.74	-42.0	-45.7	12.4	1.16e-04	0	61	0	967835648	55	5557
2026-01-16 23:27:32.55	177.31	27.57	-42.0	-45.8	12.3	1.64e-04	0	61	0	969932800	55	5595
2026-01-16 23:27:33.56	177.40	27.40	-42.1	-46.0	12.1	1.94e-04	0	61	0	972029952	55	5730
2026-01-16 23:27:34.57	177.50	27.23	-42.2	-46.0	12.0	2.84e-04	0	61	0	974127104	55	5769
2026-01-16 23:27:35.58	177.59	27.06	-42.2	-46.0	12.0	2.94e-04	0	61	0	976224256	55	5778
2026-01-16 23:27:36.59	177.68	26.90	-42.1	-46.0	12.1	3.62e-04	0	61	0	977272832	55	5749
2026-01-16 23:27:37.60	177.77	26.73	-42.1	-45.9	12.2	2.78e-04	0	61	0	979369984	55	5696
2026-01-16 23:27:38.61	177.87	26.57	-42.0	-45.7	12.3	1.89e-04	0	61	0	981467136	55	5564
2026-01-16 23:27:39.62	177.96	26.40	-41.9	-45.6	12.4	1.77e-04	0	61	0	983564288	55	5511
2026-01-16 23:27:40.63	178.04	26.24	-41.9	-45.6	12.5	1.28e-04	0	61	0	985661440	55	5468
2026-01-16 23:27:41.64	178.13	26.08	-41.7	-45.2	12.9	5.56e-05	0	61	0	986710016	55	5257
2026-01-16 23:27:42.65	178.22	25.92	-41.5	-44.9	13.2	2.51e-05	0	61	0	988807168	55	5061
2026-01-16 23:27:43.66	178.31	25.76	-41.4	-44.6	13.4	2.13e-05	0	61	0	990904320	54	5208
2026-01-16 23:27:44.67	178.39	25.60	-41.4	-44.6	13.5	1.06e-05	0	61	0	993001472	54	5190
2026-01-16 23:27:45.68	178.48	25.44	-41.4	-44.5	13.6	1.14e-05	0	61	0	995098624	54	5156
2026-01-16 23:27:46.69	178.56	25.28	-41.3	-44.4	13.7	5.30e-06	0	61	0	996147200	54	5061
2026-01-16 23:27:47.70	178.64	25.13	-41.2	-44.4	13.7	6.10e-06	0	61	0	998244352	54	5047
2026-01-16 23:27:48.71	178.73	24.97	-41.3	-44.4	13.7	4.50e-06	0	61	0	1000341504	54	5080
2026-01-16 23:27:49.72	178.81	24.82	-41.3	-44.5	13.6	7.60e-06	0	61	0	1002438656	54	5142
2026-01-16 23:27:50.73	178.89	24.66	-41.4	-44.7	13.4	7.60e-06	0	61	0	1004535808	54	5243
2026-01-16 23:27:51.74	178.97	24.51	-41.4	-44.7	13.4	1.60e-05	0	61	0	1006632960	54	5247
2026-01-16 23:27:52.75	179.05	24.36	-41.4	-44.7	13.4	1.14e-05	0	61	0	1007681536	54	5230
2026-01-16 23:27:53.76	179.13	24.21	-41.5	-44.8	13.3	1.44e-05	0	61	0	1009778688	54	5299
2026-01-16 23:27:54.77	179.20	24.06	-41.5	-44.9	13.2	1.83e-05	0	61	0	1011875840	54	5355
2026-01-16 23:27:55.78	179.28	23.91	-41.5	-44.9	13.2	1.60e-05	0	61	0	1013972992	54	5367
2026-01-16 23:27:56.79	179.36	23.76	-41.6	-45.0	13.1	3.12e-05	0	61	0	1016070144	54	5432
2026-01-16 23:27:57.80	179.43	23.61	-41.6	-45.0	13.0	2.74e-05	0	61	0	1017118720	54	5448
2026-01-16 23:27:58.81	179.51	23.46	-41.5	-44.8	13.2	2.36e-05	0	61	0	1019215872	54	5318
2026-01-16 23:27:59.82	179.58	23.32	-41.4	-44.7	13.3	1.98e-05	0	61	0	1021313024	54	5274
2026-01-16 23:28:00.82	179.66	23.17	-41.3	-44.5	13.5	7.60e-06	0	61	0	1023410176	54	5151
2026-01-16 23:28:01.83	179.73	23.03	-41.4	-44.6	13.4	2.05e-05	0	61	0	1025507328	54	5201
2026-01-16 23:28:02.84	179.80	22.88	-41.3	-44.6	13.5	1.37e-05	0	61	0	1026555904	54	5174
2026-01-16 23:28:03.86	179.87	22.74	-41.4	-44.6	13.4	1.60e-05	0	61	0	1028653056	54	5204
2026-01-16 23:28:04.87	179.95	22.59	-41.4	-44.7	13.3	9.90e-06	0	61	0	1030750208	54	5272
2026-01-16 23:28:05.87	180.02	22.45	-41.4	-44.7	13.3	1.83e-05	0	61	0	1032847360	54	5233
2026-01-16 23:28:06.88	180.09	22.31	-41.3	-44.5	13.5	2.36e-05	0	61	0	1034944512	54	5149
2026-01-16 23:28:07.89	180.16	22.17	-41.3	-44.5	13.6	9.10e-06	0	61	0	1035993088	54	5105
2026-01-16 23:28:08.90	180.22	22.03	-41.2	-44.4	13.6	1.29e-05	0	61	0	1038090240	54	5087
2026-01-16 23:28:09.91	180.29	21.89	-41.3	-44.5	13.5	9.10e-06	0	61	0	1040187392	54	5125
2026-01-16 23:28:10.92	180.36	21.76	-41.3	-44.5	13.5	1.06e-05	0	61	0	1042284544	54	5156
2026-01-16 23:28:11.93	180.43	21.62	-41.3	-44.5	13.5	1.14e-05	0	61	0	1044381696	54	5156
2026-01-16 23:28:12.94	180.49	21.48	-41.3	-44.6	13.4	1.14e-05	0	61	0	1045430272	54	5177
2026-01-16 23:28:13.95	180.56	21.34	-41.3	-44.6	13.5	1.06e-05	0	61	0	1047527424	54	5160
2026-01-16 23:28:14.96	180.63	21.21	-41.3	-44.6	13.4	7.60e-06	0	61	0	1049624576	54	5190
2026-01-16 23:28:15.97	180.69	21.07	-41.4	-44.7	13.3	1.06e-05	0	61	0	1051721728	54	5233
2026-01-16 23:28:16.98	180.75	20.94	-41.5	-44.8	13.2	2.51e-05	0	61	0	1053818880	54	5332
2026-01-16 23:28:17.99	180.82	20.81	-41.4	-44.7	13.3	2.51e-05	0	61	0	1054867456	54	5265
2026-01-16 23:28:19.00	180.88	20.67	-41.4	-44.8	13.2	2.28e-05	0	61	0	1056964608	54	5285
2026-01-16 23:28:20.01	180.94	20.54	-41.4	-44.7	13.3	1.75e-05	0	61	0	1059061760	54	5221
2026-01-16 23:28:21.02	181.01	20.41	-41.3	-44.7	13.4	1.22e-05	0	61	0	1061158912	54	5222
2026-01-16 23:28:22.03	181.07	20.28	-41.4	-44.7	13.3	1.44e-05	0	61	0	1063256064	54	5258
2026-01-16 23:28:23.04	181.13	20.15	-41.4	-44.7	13.3	1.67e-05	0	61	0	1064304640	54	5238
2026-01-16 23:28:24.05	181.19	20.02	-41.4	-44.6	13.4	1.37e-05	0	61	0	1066401792	54	5211
2026-01-16 23:28:25.06	181.25	19.89	-41.3	-44.6	13.4	8.30e-06	0	61	0	1068498944	54	5190
2026-01-16 23:28:26.06	181.31	19.76	-41.4	-44.6	13.4	1.90e-05	0	61	0	1070596096	54	5195
2026-01-16 23:28:27.07	181.37	19.64	-41.3	-44.6	13.4	1.37e-05	0	61	0	1072693248	54	5176
2026-01-16 23:28:28.08	181.43	19.51	-41.4	-44.7	13.3	1.52e-05	0	60	0	1074790400	54	5220
2026-01-16 23:28:29.09	181.49	19.38	-41.3	-44.5	13.5	1.22e-05	0	61	0	1075838976	54	5144
2026-01-16 23:28:30.10	181.55	19.26	-41.3	-44.6	13.4	1.37e-05	0	61	0	1077936128	54	5192
2026-01-16 23:28:31.11	181.60	19.13	-41.3	-44.7	13.3	1.67e-05	0	61	0	1080033280	54	5222
2026-01-16 23:28:32.12	181.66	19.01	-41.3	-44.5	13.4	1.29e-05	0	61	0	1082130432	54	5152
2026-01-16 23:28:33.13	181.72	18.88	-41.3	-44.5	13.4	1.83e-05	0	61	0	1084227584	54	5153
2026-01-16 23:28:34.14	181.77	18.76	-41.3	-44.5	13.4	1.29e-05	0	61	0	1085276160	54	5151
2026-01-16 23:28:35.15	181.83	18.64	-41.3	-44.5	13.5	1.37e-05	0	61	0	1087373312	54	5125
2026-01-16 23:28:36.16	181.88	18.52	-41.3	-44.6	13.4	1.14e-05	0	61	0	1089470464	54	5190
2026-01-16 23:28:37.17	181.94	18.40	-41.4	-44.7	13.3	1.98e-05	0	61	0	1091567616	54	5252
2026-01-16 23:28:38.18	181.99	18.27	-41.4	-44.7	13.2	2.28e-05	0	61	0	1093664768	54	5270
2026-01-16 23:28:39.19	182.05	18.15	-41.4	-44.8	13.1	2.51e-05	0	61	0	1094713344	54	5335
2026-01-16 23:28:40.20	182.10	18.03	-41.5	-44.9	13.0	3.81e-05	0	61	0	1096810496	54	5396
2026-01-16 23:28:41.21	182.16	17.91	-41.6	-45.1	12.9	4.73e-05	0	61	0	1098907648	54	5502
2026-01-16 23:28:42.22	182.21	17.80	-41.6	-45.1	12.8	5.72e-05	0	61	0	1101004800	54	5509
2026-01-16 23:28:43.22	182.26	17.68	-41.6	-45.2	12.7	5.64e-05	0	61	0	1103101952	54	5547
2026-01-16 23:28:44.23	182.31	17.56	-41.7	-45.3	12.6	1.02e-04	0	61	0	1104150528	54	5654
2026-01-16 23:28:45.24	182.36	17.44	-41.8	-45.4	12.5	1.11e-04	0	61	0	1106247680	54	5722
2026-01-16 23:28:46.25	182.42	17.33	-41.9	-45.7	12.2	1.55e-04	0	61	0	1108344832	54	5894
2026-01-16 23:28:47.26	182.47	17.21	-41.9	-45.7	12.2	2.20e-04	0	61	0	1110441984	54	5908
2026-01-16 23:28:48.27	182.52	17.10	-41.9	-45.7	12.2	2.22e-04	0	61	0	1112539136	54	5921
2026-01-16 23:28:49.28	182.57	16.98	-41.9	-45.8	12.1	2.14e-04	0	61	0	1113587712	54	5949
2026-01-16 23:28:50.29	182.62	16.87	-41.9	-45.8	12.1	2.38e-04	0	61	0	1115684864	54	5969
2026-01-16 23:28:51.30	182.67	16.75	-42.0	-46.0	12.0	3.52e-04	0	61	0	1117782016	54	6066
2026-01-16 23:28:52.31	182.72	16.64	-42.0	-46.0	11.9	3.98e-04	0	61	0	1119879168	54	6082
2026-01-16 23:28:53.32	182.77	16.53	-42.0	-45.9	12.0	3.40e-04	0	61	0	1121976320	54	6038
2026-01-16 23:28:54.33	182.81	16.41	-42.1	-46.1	11.8	4.58e-04	0	61	0	1123024896	54	6177
2026-01-16 23:28:55.34	182.86	16.30	-42.0	-46.0	11.9	4.97e-04	0	61	0	1125122048	54	6073
2026-01-16 23:28:56.35	182.91	16.19	-42.0	-46.0	11.9	3.91e-04	0	61	0	1127219200	54	6112
2026-01-16 23:28:57.36	182.96	16.08	-42.1	-46.1	11.8	4.80e-04	0	61	0	1129316352	54	6179
2026-01-16 23:28:58.37	183.01	15.97	-42.0	-46.0	11.8	5.08e-04	0	61	0	1131413504	54	6124
2026-01-16 23:28:59.38	183.05	15.86	-42.0	-46.0	11.9	3.68e-04	0	61	0	1132462080	54	6072
2026-01-16 23:29:00.40	183.10	15.75	-42.0	-46.0	11.9	4.30e-04	0	61	0	1134559232	54	6113
2026-01-16 23:29:01.40	183.15	15.64	-42.0	-45.9	12.0	3.60e-04	0	61	0	1136656384	54	6038
2026-01-16 23:29:02.41	183.19	15.53	-42.0	-46.0	11.9	3.99e-04	0	61	0	1138753536	54	6095
2026-01-16 23:29:03.42	183.24	15.42	-42.0	-45.9	12.0	3.58e-04	0	61	0	1140850688	54	6018
2026-01-16 23:29:04.43	183.28	15.32	-42.0	-46.0	11.9	3.81e-04	0	61	0	1142947840	54	6062
2026-01-16 23:29:05.44	183.33	15.21	-42.0	-45.9	11.9	3.78e-04	0	61	0	1143996416	54	6039
2026-01-16 23:29:06.45	183.37	15.10	-42.0	-45.9	11.9	3.44e-04	0	61	0	1146093568	54	6060
2026-01-16 23:29:07.46	183.42	15.00	-42.0	-46.0	11.9	3.68e-04	0	61	0	1148190720	54	6087
2026-01-16 23:29:08.47	183.46	14.89	-42.0	-46.1	11.8	4.86e-04	0	61	0	1150287872	54	6143
