passes_logs/2026/01/16/R2.0S_Moscow/R2.0S_Moscow__20260116_235023_FENGYUN_3G_rec.log

#Pass ID: 20260116_235023_FENGYUN 3G
#Satellite: FENGYUN 3G
#Configuration: FENGYUN 3G
#almurnet v.1.7.20251203
#Start time: 2026-01-16 23:50:25

#Version: 2.2.20231116
#Station: R2.0S_Moscow
#Location: 37.707566 lon 55.798166 lat
#TLE: 1 56232U 23055A   26016.27117466  .00021245  00000+0  33355-3 0  9997
#TLE: 2 56232  49.9942  49.3739 0004180  33.4292 326.6938 15.53552571156398

#Time	Az	El	Level	Level2	SNR	BER	BlckErr	Temp	State	Recorded	gain1	gain2
2026-01-16 23:50:25.10	261.48	2.10	-44.2	-62.2	3.8	8.46e-01	0	51	0	0	60	28017
2026-01-16 23:50:26.11	261.40	2.17	-44.2	-62.2	3.8	8.45e-01	0	51	104	0	60	27799
2026-01-16 23:50:27.12	261.33	2.23	-44.2	-62.0	3.8	8.46e-01	0	52	104	0	60	27215
2026-01-16 23:50:28.12	261.25	2.30	-44.2	-62.0	3.8	8.46e-01	0	52	104	0	60	27271
2026-01-16 23:50:29.13	261.18	2.36	-44.2	-61.9	3.8	8.46e-01	0	52	104	0	60	26947
2026-01-16 23:50:30.15	261.10	2.43	-44.2	-61.8	3.8	8.46e-01	0	52	104	0	60	26562
2026-01-16 23:50:31.16	261.02	2.49	-44.2	-61.9	3.8	8.46e-01	0	52	104	0	60	26776
2026-01-16 23:50:32.17	260.95	2.56	-44.2	-61.8	3.8	8.46e-01	0	52	104	0	60	26726
2026-01-16 23:50:33.18	260.87	2.63	-44.2	-61.8	3.8	8.45e-01	0	52	104	0	60	26711
2026-01-16 23:50:34.19	260.79	2.69	-44.2	-61.8	3.8	8.47e-01	0	52	104	0	60	26477
2026-01-16 23:50:35.20	260.71	2.76	-44.2	-61.8	3.8	8.47e-01	0	52	104	0	60	26646
2026-01-16 23:50:36.21	260.63	2.83	-44.2	-62.0	3.8	8.45e-01	0	52	104	0	60	27193
2026-01-16 23:50:37.22	260.55	2.89	-44.2	-62.1	3.8	8.46e-01	0	52	104	0	60	27462
2026-01-16 23:50:38.23	260.47	2.96	-44.2	-62.1	3.8	8.46e-01	0	52	104	0	60	27669
2026-01-16 23:50:39.24	260.39	3.03	-44.2	-62.2	3.8	8.47e-01	0	52	104	0	60	27872
2026-01-16 23:50:40.25	260.31	3.10	-44.2	-62.2	3.8	8.45e-01	0	52	104	0	60	27953
2026-01-16 23:50:41.26	260.22	3.16	-44.2	-62.2	3.8	8.47e-01	0	52	104	0	60	27984
2026-01-16 23:50:42.27	260.14	3.23	-44.2	-62.2	3.8	8.47e-01	0	52	104	0	60	27917
2026-01-16 23:50:43.29	260.06	3.30	-44.2	-62.2	3.8	8.47e-01	0	53	104	0	60	27786
2026-01-16 23:50:44.30	259.97	3.37	-44.2	-62.1	3.8	8.47e-01	0	53	104	0	60	27511
2026-01-16 23:50:45.31	259.89	3.44	-44.2	-62.0	3.8	8.47e-01	0	53	104	0	60	27303
2026-01-16 23:50:46.32	259.80	3.51	-44.2	-62.0	3.8	8.46e-01	0	53	104	0	60	27358
2026-01-16 23:50:47.33	259.72	3.58	-44.2	-62.1	3.8	8.45e-01	0	53	104	0	60	27606
2026-01-16 23:50:48.34	259.63	3.65	-44.2	-62.1	3.8	8.45e-01	0	53	104	0	60	27549
2026-01-16 23:50:49.35	259.54	3.72	-44.2	-62.1	3.8	8.47e-01	0	53	104	0	60	27510
2026-01-16 23:50:50.36	259.46	3.79	-44.2	-62.0	3.8	8.46e-01	0	53	104	0	60	27381
2026-01-16 23:50:51.38	259.37	3.86	-44.2	-61.9	3.8	8.46e-01	0	53	104	0	60	27029
2026-01-16 23:50:52.39	259.28	3.93	-44.2	-61.9	3.8	8.46e-01	0	53	104	0	60	27055
2026-01-16 23:50:53.40	259.19	4.00	-44.2	-62.1	3.8	8.47e-01	0	53	104	0	60	27446
2026-01-16 23:50:54.41	259.10	4.07	-44.2	-62.2	3.8	8.47e-01	0	53	104	0	60	27753
2026-01-16 23:50:55.42	259.01	4.14	-44.2	-62.2	3.8	8.47e-01	0	53	104	0	60	27910
2026-01-16 23:50:56.43	258.92	4.21	-44.2	-62.2	3.8	8.46e-01	0	53	104	0	60	27806
2026-01-16 23:50:57.44	258.82	4.28	-44.2	-62.2	3.8	8.45e-01	0	53	104	0	60	27957
2026-01-16 23:50:58.45	258.73	4.35	-44.2	-62.3	3.8	8.45e-01	0	53	104	0	60	28029
2026-01-16 23:50:59.46	258.64	4.42	-44.2	-62.2	3.8	8.47e-01	0	54	104	0	60	27748
2026-01-16 23:51:00.47	258.54	4.50	-44.2	-62.2	3.8	8.46e-01	0	54	104	0	60	27758
2026-01-16 23:51:01.48	258.45	4.57	-44.2	-62.2	3.8	8.46e-01	0	54	104	0	60	27851
2026-01-16 23:51:02.49	258.35	4.64	-44.2	-62.2	3.8	8.46e-01	0	54	104	0	60	27851
2026-01-16 23:51:03.51	258.26	4.72	-44.2	-62.0	3.8	8.46e-01	0	54	104	0	60	27276
2026-01-16 23:51:04.52	258.16	4.79	-44.2	-61.9	3.8	8.47e-01	0	54	104	0	60	26918
2026-01-16 23:51:05.53	258.06	4.86	-44.2	-61.8	3.8	8.47e-01	0	54	104	0	60	26763
2026-01-16 23:51:06.54	257.96	4.94	-44.2	-61.6	3.8	8.47e-01	0	54	104	0	60	26083
2026-01-16 23:51:07.55	257.87	5.01	-44.2	-61.5	3.8	8.47e-01	0	54	104	0	60	25661
2026-01-16 23:51:08.56	257.77	5.08	-44.2	-61.3	3.8	8.47e-01	0	54	104	0	60	25204
2026-01-16 23:51:09.57	257.67	5.16	-44.2	-61.3	3.8	8.46e-01	0	54	104	0	60	25134
2026-01-16 23:51:10.58	257.56	5.23	-44.2	-61.4	3.8	8.46e-01	0	54	104	0	60	25372
2026-01-16 23:51:11.59	257.46	5.31	-44.2	-61.4	3.8	8.46e-01	0	54	104	0	60	25470
2026-01-16 23:51:12.60	257.36	5.38	-44.2	-61.1	3.8	8.46e-01	0	54	104	0	60	24606
2026-01-16 23:51:13.62	257.26	5.46	-44.2	-61.1	3.8	8.47e-01	0	54	104	0	60	24455
2026-01-16 23:51:14.63	257.15	5.53	-44.2	-60.8	3.8	8.47e-01	0	55	104	0	60	23689
2026-01-16 23:51:15.64	257.05	5.61	-44.1	-60.6	3.8	8.45e-01	0	54	104	0	60	23179
2026-01-16 23:51:16.65	256.94	5.69	-44.1	-60.3	3.8	8.47e-01	0	55	104	0	60	22437
2026-01-16 23:51:17.66	256.83	5.76	-44.1	-60.0	3.8	8.46e-01	0	55	104	0	60	21755
2026-01-16 23:51:18.67	256.73	5.84	-44.1	-59.8	3.8	8.46e-01	0	55	104	0	60	21144
2026-01-16 23:51:19.68	256.62	5.92	-44.1	-60.0	3.8	8.45e-01	0	55	104	0	60	21520
2026-01-16 23:51:20.69	256.51	5.99	-44.1	-59.6	4.0	8.44e-01	0	55	104	0	60	20743
2026-01-16 23:51:21.70	256.40	6.07	-44.1	-59.6	4.0	8.44e-01	0	55	0	0	60	20749
2026-01-16 23:51:22.72	256.29	6.15	-44.1	-59.3	3.9	8.43e-01	0	55	104	0	60	20037
2026-01-16 23:51:23.73	256.18	6.23	-44.1	-58.7	4.2	8.41e-01	0	55	0	0	60	18629
2026-01-16 23:51:24.74	256.06	6.31	-44.0	-57.9	4.5	8.41e-01	0	55	0	0	60	16896
2026-01-16 23:51:25.75	255.95	6.38	-44.0	-57.1	4.8	8.31e-01	0	55	0	0	60	15508
2026-01-16 23:51:26.76	255.84	6.46	-44.0	-55.7	5.6	7.90e-01	0	55	0	0	59	13897
2026-01-16 23:51:27.77	255.72	6.54	-43.9	-54.4	6.6	7.90e-01	0	55	0	1048576	59	12051
2026-01-16 23:51:28.78	255.61	6.62	-43.7	-53.3	7.7	4.29e-01	0	55	0	2097152	59	10537
2026-01-16 23:51:29.79	255.49	6.70	-43.5	-52.1	8.8	1.25e-01	0	55	0	3145728	59	9277
2026-01-16 23:51:30.80	255.37	6.78	-43.4	-51.6	9.4	3.47e-02	0	55	0	4194304	58	9221
2026-01-16 23:51:31.81	255.25	6.86	-43.4	-51.4	9.6	3.47e-02	0	55	0	5242880	58	9035
2026-01-16 23:51:32.82	255.13	6.94	-43.4	-51.2	9.9	1.53e-02	0	55	0	6291456	58	8762
2026-01-16 23:51:33.83	255.01	7.02	-43.4	-51.5	9.5	1.59e-02	0	55	0	7864320	58	9120
2026-01-16 23:51:34.84	254.89	7.10	-43.6	-52.6	8.4	1.59e-02	0	56	0	8912896	58	10302
2026-01-16 23:51:35.85	254.77	7.19	-43.9	-54.5	6.7	3.47e-02	0	55	0	9961472	58	12871
2026-01-16 23:51:36.87	254.64	7.27	-44.1	-57.1	4.9	2.75e-01	0	56	0	10485760	58	17361
2026-01-16 23:51:37.88	254.52	7.35	-44.3	-61.2	3.8	2.75e-01	0	56	104	10485760	59	26327
2026-01-16 23:51:38.89	254.39	7.43	-44.2	-60.7	3.8	8.19e-01	0	55	104	10485760	59	24811
2026-01-16 23:51:39.90	254.27	7.52	-44.0	-55.8	5.4	8.43e-01	0	56	0	10485760	59	14191
2026-01-16 23:51:40.91	254.14	7.60	-43.5	-52.1	8.8	3.82e-01	0	56	0	11010048	59	9260
2026-01-16 23:51:41.92	254.01	7.68	-43.0	-49.7	11.4	3.82e-01	0	56	0	12582912	58	7385
2026-01-16 23:51:42.93	253.88	7.77	-42.4	-47.9	13.1	5.85e-03	0	56	0	13631488	56	6774
2026-01-16 23:51:43.94	253.75	7.85	-42.0	-46.9	14.3	4.00e-05	0	56	0	14680064	56	6024
2026-01-16 23:51:44.95	253.62	7.93	-41.7	-46.3	14.7	4.00e-05	0	56	0	15728640	55	5947
2026-01-16 23:51:45.96	253.49	8.02	-41.6	-46.2	14.9	1.10e-06	0	56	0	16777216	55	5876
2026-01-16 23:51:46.97	253.35	8.10	-44.0	-53.8	8.1	1.10e-06	0	56	0	17825792	58	11826
2026-01-16 23:51:47.98	253.22	8.19	-43.4	-51.2	9.9	1.10e-06	0	56	0	19398656	58	8786
2026-01-16 23:51:48.98	253.08	8.27	-44.0	-55.2	7.1	3.17e-02	0	56	0	20447232	58	13892
2026-01-16 23:51:49.99	252.95	8.36	-42.1	-47.0	14.3	1.11e-01	0	56	0	21495808	54	6856
2026-01-16 23:51:51.00	252.81	8.45	-44.1	-57.9	4.3	1.11e-01	0	56	0	22020096	58	19065
2026-01-16 23:51:52.01	252.67	8.53	-41.2	-45.1	16.1	1.91e-01	0	56	0	23068672	54	5470
2026-01-16 23:51:53.02	252.53	8.62	-41.0	-44.9	16.3	2.00e-01	0	56	0	24117248	54	5357
2026-01-16 23:51:54.03	252.39	8.71	-41.1	-45.0	16.1	0.00e+00	0	56	0	25165824	54	5445
2026-01-16 23:51:55.04	252.24	8.79	-41.2	-45.1	16.0	0.00e+00	0	56	0	26214400	54	5527
2026-01-16 23:51:56.05	252.10	8.88	-41.0	-44.8	16.4	0.00e+00	0	56	0	27262976	54	5310
2026-01-16 23:51:57.06	251.96	8.97	-41.0	-44.8	16.5	0.00e+00	0	56	0	28311552	54	5282
2026-01-16 23:51:58.07	251.81	9.06	-40.9	-44.7	16.6	0.00e+00	0	56	0	29884416	53	5540
2026-01-16 23:51:59.08	251.66	9.15	-40.9	-44.7	16.6	0.00e+00	0	56	0	30932992	53	5542
2026-01-16 23:52:00.08	251.51	9.24	-40.9	-44.5	16.7	0.00e+00	0	56	0	31981568	53	5462
2026-01-16 23:52:01.09	251.36	9.33	-40.8	-44.5	16.7	0.00e+00	0	56	0	33030144	53	5411
2026-01-16 23:52:02.10	251.21	9.42	-40.9	-44.5	16.7	0.00e+00	0	56	0	34078720	53	5443
2026-01-16 23:52:03.11	251.06	9.51	-40.8	-44.4	16.8	0.00e+00	0	57	0	35127296	53	5388
2026-01-16 23:52:04.12	250.91	9.60	-40.9	-44.5	16.7	0.00e+00	0	56	0	36700160	53	5446
2026-01-16 23:52:05.13	250.75	9.69	-40.8	-44.4	16.9	0.00e+00	0	56	0	37748736	53	5373
2026-01-16 23:52:06.14	250.59	9.78	-40.8	-44.4	16.9	0.00e+00	0	57	0	38797312	53	5360
2026-01-16 23:52:07.15	250.44	9.87	-40.8	-44.4	16.9	0.00e+00	0	57	0	39845888	53	5372
2026-01-16 23:52:08.16	250.28	9.96	-40.9	-44.5	16.8	0.00e+00	0	56	0	40894464	53	5431
2026-01-16 23:52:09.17	250.11	10.05	-40.8	-44.3	17.0	0.00e+00	0	57	0	41943040	53	5327
2026-01-16 23:52:10.18	249.95	10.15	-40.8	-44.3	16.9	0.00e+00	0	57	0	43515904	53	5337
2026-01-16 23:52:11.19	249.79	10.24	-40.9	-44.4	16.8	0.00e+00	0	57	0	44564480	53	5390
2026-01-16 23:52:12.20	249.62	10.33	-40.8	-44.3	17.0	0.00e+00	0	57	0	45613056	53	5317
2026-01-16 23:52:13.21	249.46	10.43	-40.7	-44.1	17.2	0.00e+00	0	57	0	46661632	53	5206
2026-01-16 23:52:14.22	249.29	10.52	-40.6	-44.0	17.3	0.00e+00	0	57	0	47710208	53	5146
2026-01-16 23:52:15.22	249.12	10.61	-40.5	-43.8	17.5	0.00e+00	0	57	0	48758784	53	5018
2026-01-16 23:52:16.23	248.95	10.71	-40.4	-43.6	17.8	0.00e+00	0	57	0	50331648	52	5193
2026-01-16 23:52:17.24	248.78	10.80	-40.3	-43.5	17.8	0.00e+00	0	57	0	51380224	52	5141
2026-01-16 23:52:18.25	248.61	10.90	-40.4	-43.6	17.8	0.00e+00	0	57	0	52428800	52	5202
2026-01-16 23:52:19.26	248.43	10.99	-40.5	-43.7	17.7	0.00e+00	0	57	0	53477376	52	5245
2026-01-16 23:52:20.27	248.25	11.09	-40.6	-44.0	17.4	0.00e+00	0	57	0	54525952	52	5416
2026-01-16 23:52:21.28	248.07	11.19	-40.5	-43.8	17.6	0.00e+00	0	57	0	55574528	52	5303
2026-01-16 23:52:22.29	247.89	11.28	-40.4	-43.6	17.8	0.00e+00	0	57	0	57147392	52	5180
2026-01-16 23:52:23.30	247.71	11.38	-40.4	-43.6	17.8	0.00e+00	0	57	0	58195968	52	5192
2026-01-16 23:52:24.31	247.53	11.48	-40.4	-43.5	17.9	0.00e+00	0	57	0	59244544	52	5136
2026-01-16 23:52:25.32	247.34	11.58	-40.3	-43.4	18.0	0.00e+00	0	57	0	60293120	52	5075
2026-01-16 23:52:26.33	247.16	11.67	-40.2	-43.2	18.2	0.00e+00	0	57	0	61341696	52	4974
2026-01-16 23:52:27.34	246.97	11.77	-40.1	-43.1	18.3	0.00e+00	0	57	0	62390272	52	4900
2026-01-16 23:52:28.35	246.78	11.87	-40.0	-43.0	18.5	0.00e+00	0	57	0	63963136	52	4818
2026-01-16 23:52:29.36	246.59	11.97	-40.1	-43.0	18.6	0.00e+00	0	57	0	65011712	51	5108
2026-01-16 23:52:30.36	246.40	12.07	-40.0	-42.8	18.7	0.00e+00	0	57	0	66060288	51	5032
2026-01-16 23:52:31.37	246.20	12.17	-40.0	-42.9	18.7	0.00e+00	0	57	0	67108864	51	5058
2026-01-16 23:52:32.39	246.00	12.27	-40.1	-43.0	18.6	0.00e+00	0	57	0	68157440	51	5105
2026-01-16 23:52:33.40	245.80	12.37	-40.1	-43.0	18.6	0.00e+00	0	57	0	69206016	51	5115
2026-01-16 23:52:34.41	245.60	12.47	-40.1	-43.0	18.6	0.00e+00	0	57	0	70778880	51	5131
2026-01-16 23:52:35.41	245.40	12.57	-40.2	-43.2	18.4	0.00e+00	0	57	0	71827456	51	5268
2026-01-16 23:52:36.42	245.20	12.68	-40.2	-43.2	18.3	0.00e+00	0	57	0	72876032	51	5263
2026-01-16 23:52:37.43	244.99	12.78	-40.2	-43.1	18.5	0.00e+00	0	57	0	73924608	51	5181
2026-01-16 23:52:38.44	244.79	12.88	-40.0	-42.9	18.7	0.00e+00	0	57	0	74973184	51	5071
2026-01-16 23:52:39.45	244.58	12.98	-39.9	-42.6	19.0	0.00e+00	0	57	0	76021760	51	4914
2026-01-16 23:52:40.46	244.36	13.09	-39.8	-42.6	19.0	0.00e+00	0	57	0	77594624	51	4906
2026-01-16 23:52:41.47	244.15	13.19	-39.7	-42.3	19.2	0.00e+00	0	57	0	78643200	51	4756
2026-01-16 23:52:42.48	243.93	13.29	-39.5	-42.2	19.4	0.00e+00	0	58	0	79691776	51	4671
2026-01-16 23:52:43.49	243.72	13.40	-39.5	-42.1	19.6	0.00e+00	0	57	0	80740352	50	4884
2026-01-16 23:52:44.50	243.50	13.50	-39.5	-42.1	19.5	0.00e+00	0	58	0	81788928	50	4901
2026-01-16 23:52:45.51	243.28	13.61	-39.6	-42.2	19.4	0.00e+00	0	57	0	82837504	50	4972
2026-01-16 23:52:46.52	243.05	13.71	-39.8	-42.5	19.2	0.00e+00	0	58	0	84410368	50	5122
2026-01-16 23:52:47.53	242.83	13.82	-39.7	-42.4	19.3	0.00e+00	0	58	0	85458944	50	5062
2026-01-16 23:52:48.54	242.60	13.92	-39.8	-42.6	19.1	0.00e+00	0	58	0	86507520	50	5191
2026-01-16 23:52:49.55	242.37	14.03	-39.9	-42.7	18.9	0.00e+00	0	57	0	87556096	50	5272
2026-01-16 23:52:50.56	242.14	14.13	-39.8	-42.5	19.1	0.00e+00	0	57	0	88604672	50	5140
2026-01-16 23:52:51.57	241.90	14.24	-39.7	-42.4	19.2	0.00e+00	0	58	0	89653248	50	5099
2026-01-16 23:52:52.58	241.67	14.35	-39.5	-42.0	19.6	0.00e+00	0	57	0	91226112	50	4850
2026-01-16 23:52:53.59	241.43	14.45	-39.4	-41.9	19.8	0.00e+00	0	58	0	92274688	50	4789
2026-01-16 23:52:54.60	241.19	14.56	-39.4	-42.0	19.7	0.00e+00	0	57	0	93323264	50	4818
2026-01-16 23:52:55.61	240.94	14.67	-39.3	-41.8	19.9	0.00e+00	0	58	0	94371840	50	4719
2026-01-16 23:52:56.62	240.70	14.78	-39.4	-42.0	19.7	0.00e+00	0	57	0	95420416	50	4828
2026-01-16 23:52:57.63	240.45	14.88	-39.4	-41.9	19.7	0.00e+00	0	58	0	96468992	50	4805
2026-01-16 23:52:58.64	240.20	14.99	-39.5	-42.0	19.6	0.00e+00	0	58	0	98041856	50	4867
2026-01-16 23:52:59.65	239.95	15.10	-39.6	-42.3	19.5	0.00e+00	0	58	0	99090432	50	4999
2026-01-16 23:53:00.66	239.69	15.21	-39.5	-42.0	19.7	0.00e+00	0	58	0	100139008	50	4848
2026-01-16 23:53:01.67	239.44	15.32	-39.4	-42.0	19.7	0.00e+00	0	58	0	101187584	50	4821
2026-01-16 23:53:02.68	239.18	15.43	-39.4	-41.9	19.8	0.00e+00	0	58	0	102236160	50	4771
2026-01-16 23:53:03.69	238.91	15.54	-39.4	-41.9	19.8	0.00e+00	0	58	0	103284736	50	4781
2026-01-16 23:53:04.70	238.65	15.65	-39.0	-41.4	20.3	0.00e+00	0	58	0	104857600	50	4526
2026-01-16 23:53:05.71	238.38	15.76	-38.8	-41.2	20.6	0.00e+00	0	58	0	105906176	49	4653
2026-01-16 23:53:06.72	238.11	15.87	-38.9	-41.3	20.5	0.00e+00	0	58	0	106954752	49	4709
2026-01-16 23:53:07.73	237.84	15.98	-39.1	-41.4	20.3	0.00e+00	0	58	0	108003328	49	4811
2026-01-16 23:53:08.74	237.57	16.09	-39.2	-41.7	20.1	0.00e+00	0	58	0	109051904	49	4937
2026-01-16 23:53:09.75	237.29	16.20	-39.1	-41.4	20.3	0.00e+00	0	58	0	110100480	49	4806
2026-01-16 23:53:10.76	237.01	16.31	-39.1	-41.5	20.2	0.00e+00	0	58	0	111673344	49	4852
2026-01-16 23:53:11.77	236.73	16.42	-39.1	-41.4	20.3	0.00e+00	0	58	0	112721920	49	4808
2026-01-16 23:53:12.78	236.44	16.53	-39.0	-41.3	20.4	0.00e+00	0	58	0	113770496	49	4755
2026-01-16 23:53:13.79	236.15	16.64	-39.1	-41.5	20.3	0.00e+00	0	58	0	114819072	49	4837
2026-01-16 23:53:14.79	235.87	16.75	-39.1	-41.4	20.3	0.00e+00	0	58	0	115867648	49	4813
2026-01-16 23:53:15.80	235.57	16.87	-38.9	-41.2	20.5	0.00e+00	0	58	0	116916224	49	4692
2026-01-16 23:53:16.81	235.28	16.98	-38.8	-41.0	20.7	0.00e+00	0	58	0	118489088	49	4597
2026-01-16 23:53:17.82	234.98	17.09	-38.6	-40.9	20.9	0.00e+00	0	58	0	119537664	49	4506
2026-01-16 23:53:18.83	234.68	17.20	-38.8	-41.1	20.7	0.00e+00	0	58	0	120586240	49	4616
2026-01-16 23:53:19.84	234.37	17.31	-38.8	-41.1	20.7	0.00e+00	0	58	0	121634816	49	4645
2026-01-16 23:53:20.85	234.07	17.42	-38.8	-41.1	20.7	0.00e+00	0	58	0	122683392	49	4603
2026-01-16 23:53:21.86	233.76	17.54	-39.0	-41.4	20.4	0.00e+00	0	58	0	123731968	49	4775
2026-01-16 23:53:22.87	233.45	17.65	-39.1	-41.5	20.3	0.00e+00	0	58	0	125304832	49	4836
2026-01-16 23:53:23.88	233.13	17.76	-39.2	-41.6	20.2	0.00e+00	0	58	0	126353408	49	4918
2026-01-16 23:53:24.89	232.81	17.87	-39.1	-41.4	20.4	0.00e+00	0	58	0	127401984	49	4792
2026-01-16 23:53:25.89	232.49	17.98	-39.0	-41.3	20.5	0.00e+00	0	58	0	128450560	49	4744
2026-01-16 23:53:26.91	232.17	18.09	-38.8	-41.1	20.7	0.00e+00	0	58	0	129499136	49	4634
2026-01-16 23:53:27.91	231.84	18.20	-38.5	-40.7	21.1	0.00e+00	0	58	0	130547712	49	4422
2026-01-16 23:53:28.92	231.51	18.32	-38.5	-40.7	21.1	0.00e+00	0	58	0	132120576	49	4410
2026-01-16 23:53:29.93	231.18	18.43	-38.3	-40.5	21.3	0.00e+00	0	58	0	133169152	48	4562
2026-01-16 23:53:30.95	230.84	18.54	-38.3	-40.5	21.4	0.00e+00	0	58	0	134217728	48	4565
2026-01-16 23:53:31.96	230.50	18.65	-38.5	-40.7	21.2	0.00e+00	0	58	0	135266304	48	4658
2026-01-16 23:53:32.97	230.16	18.76	-38.6	-40.8	21.1	0.00e+00	0	58	0	136314880	48	4710
2026-01-16 23:53:33.97	229.82	18.87	-38.6	-40.8	21.1	0.00e+00	0	58	0	137363456	48	4719
2026-01-16 23:53:34.98	229.47	18.98	-38.6	-40.8	21.0	0.00e+00	0	58	0	138936320	48	4752
2026-01-16 23:53:35.99	229.12	19.09	-38.7	-40.9	21.0	0.00e+00	0	58	0	139984896	48	4781
2026-01-16 23:53:37.00	228.76	19.20	-38.7	-40.9	21.0	0.00e+00	0	58	0	141033472	48	4770
2026-01-16 23:53:38.01	228.40	19.31	-38.8	-41.1	20.8	0.00e+00	0	58	0	142082048	48	4905
2026-01-16 23:53:39.02	228.04	19.42	-38.5	-40.7	21.2	0.00e+00	0	58	0	143130624	48	4672
2026-01-16 23:53:40.03	227.68	19.53	-38.5	-40.7	21.2	0.00e+00	0	58	0	144179200	48	4669
2026-01-16 23:53:41.04	227.31	19.64	-38.3	-40.4	21.5	0.00e+00	0	58	0	145752064	48	4497
2026-01-16 23:53:42.04	226.95	19.74	-38.1	-40.2	21.7	0.00e+00	0	58	0	146800640	48	4393
2026-01-16 23:53:43.05	226.57	19.85	-37.9	-39.9	21.9	0.00e+00	0	58	0	147849216	47	4522
2026-01-16 23:53:44.06	226.20	19.96	-38.0	-40.1	21.8	0.00e+00	0	58	0	148897792	47	4606
2026-01-16 23:53:45.07	225.82	20.07	-38.0	-40.0	21.8	0.00e+00	0	58	0	149946368	47	4590
2026-01-16 23:53:46.08	225.43	20.17	-38.2	-40.3	21.5	0.00e+00	0	58	0	150994944	47	4711
2026-01-16 23:53:47.09	225.05	20.28	-38.3	-40.4	21.5	0.00e+00	0	58	0	152567808	47	4785
2026-01-16 23:53:48.10	224.66	20.38	-38.5	-40.6	21.3	0.00e+00	0	58	0	153616384	47	4926
2026-01-16 23:53:49.11	224.26	20.49	-38.6	-40.8	21.1	0.00e+00	0	58	0	154664960	47	5028
2026-01-16 23:53:50.12	223.87	20.59	-38.2	-40.4	21.5	0.00e+00	0	58	0	155713536	47	4771
2026-01-16 23:53:51.13	223.47	20.69	-38.2	-40.3	21.6	0.00e+00	0	58	0	156762112	47	4755
2026-01-16 23:53:52.14	223.07	20.80	-38.2	-40.3	21.5	0.00e+00	0	58	0	157810688	47	4747
2026-01-16 23:53:53.15	222.66	20.90	-38.1	-40.1	21.8	0.00e+00	0	59	0	159383552	47	4632
2026-01-16 23:53:54.16	222.25	21.00	-38.1	-40.2	21.7	0.00e+00	0	59	0	160432128	47	4658
2026-01-16 23:53:55.17	221.84	21.10	-38.0	-40.0	21.9	0.00e+00	0	59	0	161480704	47	4567
2026-01-16 23:53:56.18	221.42	21.20	-38.0	-40.1	21.8	0.00e+00	0	58	0	162529280	47	4636
2026-01-16 23:53:57.19	221.01	21.30	-37.8	-39.8	22.1	0.00e+00	0	59	0	163577856	47	4463
2026-01-16 23:53:58.20	220.58	21.40	-38.0	-40.0	21.9	0.00e+00	0	58	0	164626432	47	4574
2026-01-16 23:53:59.21	220.16	21.49	-38.0	-40.1	21.8	0.00e+00	0	59	0	166199296	47	4610
2026-01-16 23:54:00.22	219.73	21.59	-37.9	-39.9	21.9	0.00e+00	0	59	0	167247872	47	4543
2026-01-16 23:54:01.23	219.30	21.68	-37.9	-39.9	22.0	0.00e+00	0	59	0	168296448	47	4527
2026-01-16 23:54:02.24	218.87	21.78	-37.9	-39.9	22.0	0.00e+00	0	59	0	169345024	47	4539
2026-01-16 23:54:03.25	218.43	21.87	-37.8	-39.8	22.1	0.00e+00	0	59	0	170393600	47	4462
2026-01-16 23:54:04.26	217.99	21.96	-37.9	-39.9	22.1	0.00e+00	0	58	0	171442176	47	4498
2026-01-16 23:54:05.27	217.54	22.05	-37.8	-39.8	22.1	0.00e+00	0	59	0	173015040	47	4488
2026-01-16 23:54:06.28	217.10	22.14	-38.1	-40.1	21.9	0.00e+00	0	59	0	174063616	47	4621
2026-01-16 23:54:07.29	216.65	22.23	-38.1	-40.2	21.7	0.00e+00	0	59	0	175112192	47	4685
2026-01-16 23:54:08.29	216.20	22.32	-38.1	-40.1	21.8	0.00e+00	0	59	0	176160768	47	4639
2026-01-16 23:54:09.30	215.74	22.40	-37.9	-39.9	22.1	0.00e+00	0	59	0	177209344	47	4509
2026-01-16 23:54:10.31	215.28	22.49	-37.8	-39.8	22.1	0.00e+00	0	59	0	178257920	47	4458
2026-01-16 23:54:11.32	214.82	22.57	-37.6	-39.6	22.4	0.00e+00	0	58	0	179830784	47	4356
2026-01-16 23:54:12.33	214.36	22.65	-37.5	-39.4	22.5	0.00e+00	0	59	0	180879360	47	4279
2026-01-16 23:54:13.34	213.89	22.73	-37.5	-39.5	22.5	0.00e+00	0	59	0	181927936	46	4546
2026-01-16 23:54:14.35	213.42	22.81	-37.5	-39.5	22.4	0.00e+00	0	59	0	182976512	46	4553
2026-01-16 23:54:15.36	212.95	22.89	-37.6	-39.5	22.4	0.00e+00	0	59	0	184025088	46	4581
2026-01-16 23:54:16.37	212.47	22.97	-37.5	-39.5	22.5	0.00e+00	0	59	0	185073664	46	4548
2026-01-16 23:54:17.38	211.99	23.04	-37.5	-39.4	22.5	0.00e+00	0	59	0	186646528	46	4544
2026-01-16 23:54:18.39	211.51	23.11	-37.7	-39.6	22.3	0.00e+00	0	59	0	187695104	46	4632
2026-01-16 23:54:19.40	211.03	23.18	-37.6	-39.5	22.4	0.00e+00	0	58	0	188743680	46	4582
2026-01-16 23:54:20.41	210.54	23.25	-37.6	-39.5	22.4	0.00e+00	0	59	0	189792256	46	4579
2026-01-16 23:54:21.42	210.05	23.32	-37.4	-39.3	22.6	0.00e+00	0	58	0	190840832	46	4476
2026-01-16 23:54:22.43	209.56	23.39	-37.5	-39.4	22.5	0.00e+00	0	58	0	191889408	46	4538
2026-01-16 23:54:23.44	209.07	23.45	-37.5	-39.4	22.5	0.00e+00	0	58	0	193462272	46	4527
2026-01-16 23:54:24.45	208.57	23.52	-37.3	-39.2	22.7	0.00e+00	0	59	0	194510848	46	4425
2026-01-16 23:54:25.46	208.07	23.58	-37.2	-39.1	22.8	0.00e+00	0	59	0	195559424	46	4369
2026-01-16 23:54:26.48	207.57	23.64	-37.3	-39.1	22.7	0.00e+00	0	58	0	196608000	46	4388
2026-01-16 23:54:27.49	207.06	23.69	-37.2	-39.1	22.8	0.00e+00	0	59	0	197656576	46	4361
2026-01-16 23:54:28.49	206.56	23.75	-37.3	-39.2	22.7	0.00e+00	0	59	0	198705152	46	4422
2026-01-16 23:54:29.50	206.06	23.80	-37.5	-39.4	22.6	0.00e+00	0	59	0	200278016	46	4524
2026-01-16 23:54:30.51	205.55	23.85	-37.4	-39.3	22.7	0.00e+00	0	59	0	201326592	46	4445
2026-01-16 23:54:31.52	205.04	23.90	-37.2	-39.1	22.9	0.00e+00	0	59	0	202375168	46	4346
2026-01-16 23:54:32.53	204.52	23.95	-37.1	-39.0	23.0	0.00e+00	0	59	0	203423744	46	4300
2026-01-16 23:54:33.54	204.01	23.99	-37.3	-39.2	22.8	0.00e+00	0	59	0	204472320	46	4392
2026-01-16 23:54:34.55	203.49	24.04	-37.3	-39.2	22.7	0.00e+00	0	59	0	205520896	46	4422
2026-01-16 23:54:35.56	202.97	24.08	-37.5	-39.4	22.5	0.00e+00	0	59	0	207093760	46	4521
2026-01-16 23:54:36.57	202.46	24.12	-37.6	-39.6	22.4	0.00e+00	0	59	0	208142336	46	4608
2026-01-16 23:54:37.58	201.93	24.15	-37.6	-39.5	22.4	0.00e+00	0	59	0	209190912	46	4593
2026-01-16 23:54:38.59	201.41	24.19	-37.5	-39.4	22.5	0.00e+00	0	59	0	210239488	46	4518
2026-01-16 23:54:39.60	200.89	24.22	-37.5	-39.4	22.5	0.00e+00	0	59	0	211288064	46	4531
2026-01-16 23:54:40.61	200.36	24.25	-37.5	-39.4	22.5	0.00e+00	0	59	0	212336640	46	4520
2026-01-16 23:54:41.62	199.84	24.28	-37.5	-39.5	22.5	0.00e+00	0	59	0	213909504	46	4560
2026-01-16 23:54:42.63	199.31	24.30	-37.8	-39.8	22.1	0.00e+00	0	59	0	214958080	46	4759
2026-01-16 23:54:43.64	198.78	24.33	-37.9	-39.9	22.0	0.00e+00	0	59	0	216006656	46	4812
2026-01-16 23:54:44.65	198.25	24.35	-38.0	-40.1	21.9	0.00e+00	0	59	0	217055232	46	4889
2026-01-16 23:54:45.66	197.72	24.37	-38.1	-40.1	21.8	0.00e+00	0	59	0	218103808	46	4924
2026-01-16 23:54:46.67	197.19	24.38	-38.1	-40.1	21.9	0.00e+00	0	59	0	219152384	46	4907
2026-01-16 23:54:47.68	196.66	24.40	-37.9	-39.9	22.1	0.00e+00	0	59	0	220725248	46	4767
2026-01-16 23:54:48.69	196.13	24.41	-37.6	-39.5	22.4	0.00e+00	0	59	0	221773824	46	4586
2026-01-16 23:54:49.70	195.60	24.42	-37.5	-39.5	22.4	0.00e+00	0	59	0	222822400	46	4554
2026-01-16 23:54:50.71	195.07	24.43	-37.5	-39.4	22.5	0.00e+00	0	59	0	223870976	46	4494
2026-01-16 23:54:51.72	194.54	24.43	-37.3	-39.2	22.7	0.00e+00	0	59	0	224919552	46	4396
2026-01-16 23:54:52.73	194.00	24.43	-37.2	-39.1	22.9	0.00e+00	0	59	0	225968128	46	4344
2026-01-16 23:54:53.74	193.47	24.43	-37.2	-39.1	22.9	0.00e+00	0	59	0	227540992	46	4352
2026-01-16 23:54:54.75	192.94	24.43	-37.3	-39.2	22.7	0.00e+00	0	59	0	228589568	46	4409
2026-01-16 23:54:55.76	192.41	24.43	-37.5	-39.4	22.5	0.00e+00	0	59	0	229638144	46	4526
2026-01-16 23:54:56.77	191.87	24.42	-37.7	-39.6	22.3	0.00e+00	0	59	0	230686720	46	4648
2026-01-16 23:54:57.78	191.34	24.41	-37.6	-39.6	22.4	0.00e+00	0	59	0	231735296	46	4608
2026-01-16 23:54:58.79	190.81	24.40	-37.5	-39.4	22.5	0.00e+00	0	59	0	232783872	46	4500
2026-01-16 23:54:59.80	190.28	24.38	-37.3	-39.2	22.7	0.00e+00	0	59	0	234356736	46	4412
2026-01-16 23:55:00.80	189.75	24.37	-37.4	-39.3	22.6	0.00e+00	0	59	0	235405312	46	4465
2026-01-16 23:55:01.81	189.23	24.35	-37.5	-39.4	22.5	0.00e+00	0	59	0	236453888	46	4513
2026-01-16 23:55:02.82	188.70	24.33	-37.5	-39.4	22.5	0.00e+00	0	59	0	237502464	46	4528
2026-01-16 23:55:03.83	188.17	24.31	-37.4	-39.3	22.6	0.00e+00	0	59	0	238551040	46	4461
2026-01-16 23:55:04.84	187.64	24.28	-37.2	-39.0	22.8	0.00e+00	0	59	0	239599616	46	4334
2026-01-16 23:55:05.85	187.12	24.25	-37.1	-39.0	22.9	0.00e+00	0	59	0	241172480	46	4294
2026-01-16 23:55:06.86	186.59	24.22	-37.2	-39.1	22.8	0.00e+00	0	59	0	242221056	46	4350
2026-01-16 23:55:07.87	186.07	24.19	-37.3	-39.2	22.7	0.00e+00	0	59	0	243269632	46	4395
2026-01-16 23:55:08.88	185.54	24.16	-37.2	-39.1	22.8	0.00e+00	0	59	0	244318208	46	4348
2026-01-16 23:55:09.89	185.02	24.12	-37.3	-39.1	22.7	0.00e+00	0	59	0	245366784	46	4383
2026-01-16 23:55:10.90	184.50	24.08	-37.6	-39.6	22.3	0.00e+00	0	59	0	246415360	46	4623
2026-01-16 23:55:11.91	183.99	24.04	-37.8	-39.9	22.0	0.00e+00	0	59	0	247988224	46	4763
2026-01-16 23:55:12.92	183.47	24.00	-37.9	-40.0	21.9	0.00e+00	0	59	0	249036800	46	4843
2026-01-16 23:55:13.93	182.95	23.95	-37.9	-40.0	21.9	0.00e+00	0	59	0	250085376	46	4819
2026-01-16 23:55:14.94	182.44	23.91	-37.5	-39.4	22.4	0.00e+00	0	59	0	251133952	46	4524
2026-01-16 23:55:15.95	181.93	23.86	-37.4	-39.4	22.5	0.00e+00	0	59	0	252182528	46	4503
2026-01-16 23:55:16.96	181.42	23.81	-37.5	-39.5	22.4	0.00e+00	0	59	0	253231104	46	4548
2026-01-16 23:55:17.97	180.91	23.75	-37.7	-39.7	22.2	0.00e+00	0	59	0	254803968	46	4671
2026-01-16 23:55:18.97	180.41	23.70	-37.9	-39.9	22.0	0.00e+00	0	59	0	255852544	46	4789
2026-01-16 23:55:19.99	179.90	23.64	-37.6	-39.6	22.3	0.00e+00	0	59	0	256901120	46	4614
2026-01-16 23:55:21.00	179.40	23.58	-37.5	-39.4	22.4	0.00e+00	0	59	0	257949696	46	4534
2026-01-16 23:55:22.01	178.91	23.52	-37.4	-39.3	22.6	0.00e+00	0	59	0	258998272	46	4445
2026-01-16 23:55:23.01	178.41	23.46	-37.4	-39.4	22.5	0.00e+00	0	59	0	260046848	46	4509
2026-01-16 23:55:24.02	177.92	23.39	-37.4	-39.3	22.6	0.00e+00	0	59	0	261619712	46	4447
2026-01-16 23:55:25.03	177.43	23.33	-37.2	-39.1	22.8	0.00e+00	0	59	0	262668288	46	4353
2026-01-16 23:55:26.04	176.94	23.26	-37.3	-39.2	22.7	0.00e+00	0	59	0	263716864	46	4413
2026-01-16 23:55:27.05	176.45	23.19	-37.4	-39.3	22.6	0.00e+00	0	59	0	264765440	46	4489
2026-01-16 23:55:28.06	175.97	23.12	-37.4	-39.4	22.6	0.00e+00	0	59	0	265814016	46	4495
2026-01-16 23:55:29.07	175.49	23.05	-38.0	-39.9	22.4	0.00e+00	0	59	0	266862592	46	4802
2026-01-16 23:55:30.08	175.01	22.97	-37.6	-39.5	22.5	0.00e+00	0	59	0	268435456	46	4567
2026-01-16 23:55:31.09	174.53	22.90	-37.5	-39.4	22.5	0.00e+00	0	59	0	269484032	46	4535
2026-01-16 23:55:32.10	174.06	22.82	-37.1	-39.0	23.0	0.00e+00	0	59	0	270532608	46	4295
2026-01-16 23:55:33.11	173.59	22.74	-37.2	-39.0	22.9	0.00e+00	0	59	0	271581184	46	4340
2026-01-16 23:55:34.12	173.12	22.66	-37.2	-39.1	22.9	0.00e+00	0	59	0	272629760	46	4346
2026-01-16 23:55:35.13	172.65	22.58	-37.3	-39.2	22.8	0.00e+00	0	59	0	273678336	46	4406
2026-01-16 23:55:36.14	172.19	22.50	-37.3	-39.2	22.7	0.00e+00	0	59	0	275251200	45	4655
2026-01-16 23:55:37.15	171.73	22.41	-37.3	-39.2	22.7	0.00e+00	0	59	0	276299776	45	4688
2026-01-16 23:55:38.16	171.28	22.33	-37.5	-39.4	22.5	0.00e+00	0	59	0	277348352	45	4790
2026-01-16 23:55:39.16	170.83	22.24	-37.4	-39.3	22.6	0.00e+00	0	59	0	278396928	45	4723
2026-01-16 23:55:40.18	170.37	22.15	-37.6	-39.6	22.3	0.00e+00	0	59	0	279445504	45	4884
2026-01-16 23:55:41.18	169.93	22.06	-37.5	-39.4	22.5	0.00e+00	0	59	0	280494080	45	4797
2026-01-16 23:55:42.19	169.49	21.97	-37.6	-39.5	22.5	0.00e+00	0	59	0	281542656	45	4847
2026-01-16 23:55:43.20	169.05	21.88	-37.8	-39.8	22.2	0.00e+00	0	59	0	283115520	46	4710
2026-01-16 23:55:44.21	168.61	21.79	-38.1	-40.2	21.9	0.00e+00	0	59	0	284164096	46	4940
2026-01-16 23:55:45.22	168.17	21.69	-38.4	-40.5	21.5	0.00e+00	0	59	0	285212672	47	4837
2026-01-16 23:55:46.23	167.74	21.60	-38.1	-40.1	21.9	0.00e+00	0	59	0	286261248	47	4644
2026-01-16 23:55:47.24	167.31	21.50	-37.9	-39.9	22.1	0.00e+00	0	59	0	287309824	47	4506
2026-01-16 23:55:48.25	166.89	21.41	-37.6	-39.5	22.5	0.00e+00	0	59	0	288882688	47	4326
2026-01-16 23:55:49.25	166.47	21.31	-37.5	-39.5	22.5	0.00e+00	0	59	0	289931264	47	4296
2026-01-16 23:55:50.26	166.05	21.21	-37.6	-39.6	22.4	0.00e+00	0	59	0	290979840	47	4357
2026-01-16 23:55:51.27	165.64	21.11	-38.0	-40.1	22.0	0.00e+00	0	59	0	292028416	47	4611
2026-01-16 23:55:52.28	165.22	21.01	-38.3	-40.5	21.5	0.00e+00	0	59	0	293076992	47	4833
2026-01-16 23:55:53.29	164.81	20.91	-38.8	-41.0	21.1	0.00e+00	0	59	0	294125568	48	4859
2026-01-16 23:55:54.30	164.41	20.81	-38.8	-41.0	21.0	0.00e+00	0	59	0	295698432	48	4856
2026-01-16 23:55:55.31	164.00	20.70	-38.5	-40.6	21.5	0.00e+00	0	59	0	296747008	48	4612
2026-01-16 23:55:56.32	163.60	20.60	-38.2	-40.2	21.9	0.00e+00	0	59	0	297795584	48	4419
2026-01-16 23:55:57.33	163.21	20.50	-38.0	-40.0	22.0	0.00e+00	0	59	0	298844160	48	4333
2026-01-16 23:55:58.34	162.82	20.39	-37.9	-39.9	22.2	0.00e+00	0	59	0	299892736	47	4505
2026-01-16 23:55:59.35	162.43	20.29	-38.0	-40.0	22.0	0.00e+00	0	59	0	300941312	47	4596
2026-01-16 23:56:00.36	162.04	20.18	-38.2	-40.3	21.8	0.00e+00	0	59	0	302514176	47	4711
2026-01-16 23:56:01.37	161.65	20.08	-38.3	-40.4	21.6	0.00e+00	0	59	0	303562752	47	4782
2026-01-16 23:56:02.38	161.27	19.97	-38.4	-40.6	21.5	0.00e+00	0	59	0	304611328	47	4884
2026-01-16 23:56:03.39	160.90	19.86	-38.5	-40.7	21.4	0.00e+00	0	59	0	305659904	47	4943
2026-01-16 23:56:04.40	160.52	19.75	-38.8	-41.0	21.1	0.00e+00	0	60	0	306708480	48	4846
2026-01-16 23:56:05.41	160.15	19.65	-38.8	-41.1	21.0	0.00e+00	0	59	0	307757056	48	4885
2026-01-16 23:56:06.42	159.79	19.54	-38.7	-40.9	21.2	0.00e+00	0	59	0	309329920	48	4795
2026-01-16 23:56:07.43	159.42	19.43	-38.5	-40.7	21.4	0.00e+00	0	59	0	310378496	48	4674
2026-01-16 23:56:08.43	159.06	19.32	-38.6	-40.8	21.4	0.00e+00	0	59	0	311427072	48	4709
2026-01-16 23:56:09.44	158.70	19.21	-38.6	-40.7	21.4	0.00e+00	0	59	0	312475648	48	4687
2026-01-16 23:56:10.45	158.35	19.10	-38.6	-40.7	21.4	0.00e+00	0	59	0	313524224	48	4694
2026-01-16 23:56:11.46	158.00	18.99	-38.8	-41.0	21.1	0.00e+00	0	60	0	314572800	48	4845
2026-01-16 23:56:12.47	157.65	18.88	-38.8	-41.1	21.0	0.00e+00	0	59	0	315621376	48	4890
2026-01-16 23:56:13.48	157.30	18.77	-38.8	-41.0	21.1	0.00e+00	0	59	0	317194240	48	4846
2026-01-16 23:56:14.49	156.96	18.66	-38.6	-40.8	21.3	0.00e+00	0	59	0	318242816	48	4714
2026-01-16 23:56:15.50	156.62	18.55	-38.5	-40.7	20.9	0.00e+00	0	60	0	319291392	48	4675
2026-01-16 23:56:16.51	156.28	18.44	-38.4	-40.7	20.8	4.50e-04	0	59	0	320339968	48	4668
2026-01-16 23:56:17.52	155.95	18.33	-38.6	-40.9	20.7	4.50e-04	0	59	0	321388544	48	4780
2026-01-16 23:56:18.53	155.62	18.22	-38.8	-41.1	20.5	2.43e-03	0	59	0	322437120	48	4896
2026-01-16 23:56:19.54	155.29	18.10	-38.7	-41.0	20.6	1.73e-03	0	60	0	324009984	48	4823
2026-01-16 23:56:20.55	154.97	17.99	-38.6	-40.9	20.6	1.72e-03	0	59	0	325058560	48	4808
2026-01-16 23:56:21.56	154.65	17.88	-38.5	-40.8	20.7	1.72e-03	0	59	0	326107136	48	4738
2026-01-16 23:56:22.57	154.33	17.77	-38.5	-40.7	20.8	2.61e-03	0	59	0	327155712	48	4698
2026-01-16 23:56:23.58	154.01	17.66	-38.6	-40.9	20.7	1.71e-03	0	59	0	328204288	48	4771
2026-01-16 23:56:24.59	153.70	17.55	-38.8	-41.1	20.5	1.71e-03	0	59	0	329252864	48	4909
2026-01-16 23:56:25.60	153.39	17.43	-39.0	-41.4	20.3	1.44e-03	0	59	0	330825728	48	5053
2026-01-16 23:56:26.61	153.08	17.32	-38.9	-41.3	20.4	8.69e-04	0	60	0	331874304	48	5014
2026-01-16 23:56:27.61	152.78	17.21	-38.8	-41.1	20.7	8.69e-04	0	59	0	332922880	48	4915
2026-01-16 23:56:28.63	152.48	17.10	-38.9	-41.2	20.8	1.27e-04	0	59	0	333971456	48	4927
2026-01-16 23:56:29.64	152.18	16.99	-39.0	-41.3	20.7	0.00e+00	0	59	0	335020032	48	5012
2026-01-16 23:56:30.65	151.88	16.88	-38.9	-41.3	20.7	0.00e+00	0	60	0	336592896	48	5001
2026-01-16 23:56:31.66	151.59	16.76	-38.9	-41.3	20.7	1.10e-06	0	60	0	337641472	48	4993
2026-01-16 23:56:32.66	151.30	16.65	-38.8	-41.2	20.9	0.00e+00	0	60	0	338690048	48	4929
2026-01-16 23:56:33.67	151.01	16.54	-38.8	-41.2	20.9	0.00e+00	0	59	0	339738624	48	4927
2026-01-16 23:56:34.68	150.73	16.43	-38.9	-41.2	20.9	0.00e+00	0	59	0	340787200	48	4961
2026-01-16 23:56:35.69	150.44	16.32	-38.9	-41.2	20.9	0.00e+00	0	59	0	341835776	48	4928
2026-01-16 23:56:36.70	150.16	16.21	-38.9	-41.2	20.8	0.00e+00	0	59	0	343408640	48	4979
2026-01-16 23:56:37.71	149.89	16.10	-39.1	-41.5	20.6	0.00e+00	0	60	0	344457216	48	5156
2026-01-16 23:56:38.72	149.61	15.99	-39.3	-41.7	20.4	0.00e+00	0	60	0	345505792	49	4969
2026-01-16 23:56:39.73	149.34	15.88	-39.4	-41.9	20.2	0.00e+00	0	59	0	346554368	49	5056
2026-01-16 23:56:40.74	149.07	15.77	-39.4	-41.9	20.2	0.00e+00	0	60	0	347602944	49	5068
2026-01-16 23:56:41.75	148.80	15.66	-39.3	-41.8	20.2	0.00e+00	0	59	0	348651520	49	5002
2026-01-16 23:56:42.76	148.54	15.55	-39.3	-41.8	20.3	0.00e+00	0	59	0	350224384	49	4996
2026-01-16 23:56:43.77	148.27	15.44	-39.4	-41.9	20.1	0.00e+00	0	60	0	351272960	49	5063
2026-01-16 23:56:44.78	148.01	15.33	-39.5	-42.0	20.0	0.00e+00	0	60	0	352321536	49	5143
2026-01-16 23:56:45.79	147.76	15.22	-39.5	-42.0	20.0	0.00e+00	0	60	0	353370112	49	5151
2026-01-16 23:56:46.80	147.50	15.11	-39.4	-42.0	20.1	0.00e+00	0	59	0	354418688	49	5103
2026-01-16 23:56:47.81	147.25	15.00	-39.3	-41.8	20.1	0.00e+00	0	60	0	355467264	49	5038
2026-01-16 23:56:48.82	147.00	14.89	-39.3	-41.7	20.2	0.00e+00	0	60	0	356515840	49	4963
2026-01-16 23:56:49.83	146.75	14.79	-39.4	-41.9	20.1	0.00e+00	0	60	0	358088704	49	5063
2026-01-16 23:56:50.84	146.50	14.68	-39.5	-42.0	20.0	0.00e+00	0	60	0	359137280	49	5138
2026-01-16 23:56:51.85	146.26	14.57	-39.6	-42.2	19.8	0.00e+00	0	60	0	360185856	49	5250
2026-01-16 23:56:52.86	146.02	14.46	-39.7	-42.3	19.6	0.00e+00	0	60	0	361234432	49	5334
2026-01-16 23:56:53.87	145.78	14.36	-39.7	-42.4	19.6	0.00e+00	0	60	0	362283008	49	5349
2026-01-16 23:56:54.88	145.54	14.25	-39.8	-42.5	19.5	0.00e+00	0	59	0	363331584	50	5122
2026-01-16 23:56:55.89	145.31	14.14	-39.9	-42.6	19.3	0.00e+00	0	59	0	364904448	50	5206
2026-01-16 23:56:56.90	145.08	14.04	-39.8	-42.6	19.3	0.00e+00	0	59	0	365953024	50	5176
2026-01-16 23:56:57.91	144.85	13.93	-39.7	-42.4	19.5	0.00e+00	0	60	0	367001600	50	5087
2026-01-16 23:56:58.91	144.62	13.83	-39.7	-42.4	19.5	0.00e+00	0	60	0	368050176	50	5060
2026-01-16 23:56:59.92	144.39	13.72	-39.8	-42.5	19.4	0.00e+00	0	60	0	369098752	50	5146
2026-01-16 23:57:00.93	144.17	13.61	-39.9	-42.6	19.2	0.00e+00	0	60	0	370147328	50	5218
2026-01-16 23:57:01.94	143.95	13.51	-39.9	-42.6	19.2	0.00e+00	0	60	0	371720192	50	5218
2026-01-16 23:57:02.95	143.73	13.41	-39.9	-42.7	19.2	0.00e+00	0	59	0	372768768	50	5250
2026-01-16 23:57:03.96	143.51	13.30	-39.9	-42.6	19.2	0.00e+00	0	60	0	373817344	50	5212
2026-01-16 23:57:04.97	143.29	13.20	-39.9	-42.7	19.2	0.00e+00	0	59	0	374865920	50	5220
2026-01-16 23:57:05.98	143.08	13.09	-40.0	-42.8	19.0	0.00e+00	0	60	0	375914496	50	5330
2026-01-16 23:57:06.99	142.87	12.99	-39.9	-42.7	19.1	0.00e+00	0	60	0	376963072	50	5254
2026-01-16 23:57:08.00	142.66	12.89	-39.9	-42.8	19.0	0.00e+00	0	60	0	378535936	50	5282
2026-01-16 23:57:09.01	142.45	12.79	-40.0	-42.9	18.9	0.00e+00	0	60	0	379584512	50	5385
2026-01-16 23:57:10.02	142.24	12.68	-40.0	-42.9	18.9	0.00e+00	0	60	0	380633088	50	5359
2026-01-16 23:57:11.03	142.04	12.58	-40.1	-43.0	18.7	0.00e+00	0	59	0	381681664	50	5451
2026-01-16 23:57:12.04	141.84	12.48	-40.0	-42.8	18.9	0.00e+00	0	60	0	382730240	50	5333
2026-01-16 23:57:13.05	141.64	12.38	-39.9	-42.8	19.0	0.00e+00	0	60	0	384303104	50	5285
2026-01-16 23:57:14.06	141.44	12.28	-40.0	-42.9	18.7	0.00e+00	0	60	0	385351680	50	5398
2026-01-16 23:57:15.07	141.24	12.18	-40.2	-43.2	18.4	0.00e+00	0	60	0	386400256	51	5273
2026-01-16 23:57:16.08	141.04	12.08	-40.2	-43.3	18.3	0.00e+00	0	60	0	387448832	51	5319
2026-01-16 23:57:17.09	140.85	11.98	-40.3	-43.5	18.1	0.00e+00	0	60	0	388497408	51	5418
2026-01-16 23:57:18.09	140.66	11.88	-40.4	-43.5	18.0	0.00e+00	0	59	0	389545984	51	5459
2026-01-16 23:57:19.10	140.47	11.78	-40.3	-43.5	18.0	0.00e+00	0	60	0	391118848	51	5418
2026-01-16 23:57:20.11	140.28	11.68	-40.3	-43.5	17.9	0.00e+00	0	60	0	392167424	51	5448
2026-01-16 23:57:21.12	140.09	11.59	-40.4	-43.7	17.8	0.00e+00	0	60	0	393216000	51	5535
2026-01-16 23:57:22.13	139.91	11.49	-40.2	-43.4	18.0	0.00e+00	0	60	0	394264576	51	5345
2026-01-16 23:57:23.14	139.73	11.39	-40.3	-43.6	17.8	0.00e+00	0	60	0	395313152	51	5470
2026-01-16 23:57:24.15	139.54	11.29	-40.3	-43.7	17.6	0.00e+00	0	60	0	396361728	51	5584
2026-01-16 23:57:25.16	139.36	11.20	-40.3	-43.7	17.5	8.00e-06	0	60	0	397410304	51	5576
2026-01-16 23:57:26.17	139.18	11.10	-40.3	-43.7	17.4	5.95e-05	0	60	0	398983168	51	5575
2026-01-16 23:57:27.18	139.01	11.00	-39.8	-44.8	16.3	5.95e-05	0	60	0	400031744	52	5938
2026-01-16 23:57:28.19	138.83	10.91	-39.9	-43.4	17.2	8.23e-05	0	60	0	401080320	48	6414
2026-01-16 23:57:29.20	138.66	10.81	-39.9	-43.1	17.4	8.46e-05	0	60	0	402128896	50	5517
2026-01-16 23:57:30.21	138.48	10.72	-40.9	-45.6	14.4	8.46e-05	0	60	0	403177472	39	13885
2026-01-16 23:57:31.22	138.31	10.62	-41.3	-47.0	12.9	3.18e-03	0	60	0	404226048	46	10850
2026-01-16 23:57:32.23	138.14	10.53	-33.0	-48.7	10.7	6.08e-03	0	60	0	405798912	49	11112
2026-01-16 23:57:33.24	137.98	10.43	-38.8	-51.8	7.9	6.08e-03	0	60	0	406847488	53	12662
2026-01-16 23:57:34.24	137.81	10.34	-33.2	-49.9	5.9	1.21e-01	0	60	0	407371776	39	22528
2026-01-16 23:57:35.25	137.65	10.25	-36.8	-52.6	7.0	3.28e-01	0	60	0	408420352	55	12332
2026-01-16 23:57:36.26	137.48	10.15	-42.0	-54.3	5.7	3.51e-01	0	60	0	409468928	55	14940
2026-01-16 23:57:37.27	137.32	10.06	-42.4	-57.0	4.3	3.51e-01	0	60	0	409468928	55	20408
2026-01-16 23:57:38.28	137.16	9.97	-42.5	-57.8	4.1	8.19e-01	0	60	104	409468928	54	23744
2026-01-16 23:57:39.30	137.00	9.88	-42.6	-59.6	3.9	8.43e-01	0	60	104	409468928	55	27538
2026-01-16 23:57:40.31	136.84	9.79	-42.3	-60.1	3.8	8.43e-01	0	60	104	409468928	55	29263
2026-01-16 23:57:41.32	136.68	9.69	-42.5	-60.1	3.9	8.45e-01	0	60	104	409468928	55	29241
2026-01-16 23:57:42.33	136.53	9.60	-42.5	-60.6	3.8	8.45e-01	0	60	104	409468928	55	30792
2026-01-16 23:57:43.34	136.37	9.51	-42.4	-60.5	4.0	8.45e-01	0	60	104	409468928	55	30628
2026-01-16 23:57:44.35	136.22	9.42	-38.5	-57.8	3.3	8.45e-01	0	60	104	409468928	51	28082
2026-01-16 23:57:45.36	136.07	9.33	-40.0	-58.9	4.0	8.44e-01	0	60	104	409468928	52	30205
2026-01-16 23:57:46.36	135.92	9.24	-40.7	-60.1	3.9	8.44e-01	0	60	104	409468928	55	29233
2026-01-16 23:57:47.37	135.77	9.15	-41.5	-60.0	3.8	8.43e-01	0	60	104	409468928	54	30391
2026-01-16 23:57:48.39	135.62	9.06	-30.3	-52.8	4.1	8.43e-01	0	60	104	409468928	46	21148
2026-01-16 23:57:49.40	135.47	8.98	-34.6	-54.7	4.0	8.36e-01	0	60	104	409468928	47	24750
2026-01-16 23:57:50.41	135.33	8.89	-33.9	-54.8	4.5	8.36e-01	0	60	104	409468928	38	42036
2026-01-16 23:57:51.42	135.18	8.80	-40.9	-58.2	4.1	8.23e-01	0	60	104	409468928	49	33142
2026-01-16 23:57:52.43	135.04	8.71	-30.4	-48.1	3.8	8.32e-01	0	60	104	409468928	27	36855
2026-01-16 23:57:53.44	134.90	8.63	-29.1	-48.0	3.8	8.32e-01	0	60	104	409468928	28	34306
2026-01-16 23:57:54.45	134.76	8.54	-37.8	-57.5	4.3	8.09e-01	0	60	104	409468928	36	64338
2026-01-16 23:57:55.46	134.62	8.45	-22.8	-42.1	4.0	8.13e-01	0	60	104	409468928	20	27570
2026-01-16 23:57:56.47	134.48	8.37	-22.0	-43.2	4.0	8.13e-01	0	60	104	409468928	20	31182
2026-01-16 23:57:57.48	134.34	8.28	-20.7	-40.0	3.4	7.90e-01	0	60	104	409468928	14	30461
2026-01-16 23:57:58.49	134.21	8.19	-26.3	-46.2	4.0	7.94e-01	0	60	104	409468928	20	44285
2026-01-16 23:57:59.50	134.07	8.11	-30.6	-47.1	7.9	7.94e-01	0	60	0	409468928	26	34496
2026-01-16 23:58:00.51	133.94	8.02	-22.8	-42.2	3.5	7.84e-01	0	60	104	409468928	15	37288
2026-01-16 23:58:01.52	133.80	7.94	-27.5	-47.3	3.4	7.98e-01	0	60	0	409468928	21	47286
2026-01-16 23:58:02.54	133.67	7.85	-44.8	-63.1	3.9	8.07e-01	0	60	104	409468928	60	30782
2026-01-16 23:58:03.55	133.54	7.77	-45.2	-63.4	3.8	8.07e-01	0	60	104	409468928	60	32178
2026-01-16 23:58:04.56	133.41	7.69	-45.4	-63.7	3.8	8.47e-01	0	60	104	409468928	61	31160
2026-01-16 23:58:05.57	133.28	7.60	-45.5	-63.8	3.8	8.47e-01	0	60	104	409468928	61	31582
2026-01-16 23:58:06.58	133.15	7.52	-45.6	-63.8	3.8	8.47e-01	0	60	104	409468928	61	31782
2026-01-16 23:58:07.59	133.03	7.44	-45.7	-63.9	3.8	8.46e-01	0	60	104	409468928	61	32120
2026-01-16 23:58:08.60	132.90	7.35	-45.8	-64.0	3.8	8.46e-01	0	60	104	409468928	62	30590
2026-01-16 23:58:09.61	132.78	7.27	-46.0	-64.2	3.8	8.46e-01	0	60	104	409468928	62	31183
2026-01-16 23:58:10.62	132.65	7.19	-45.9	-64.1	3.8	8.46e-01	0	60	104	409468928	62	30864
2026-01-16 23:58:11.63	132.53	7.11	-45.8	-64.0	3.8	8.46e-01	0	60	104	409468928	62	30441
2026-01-16 23:58:12.64	132.41	7.03	-45.7	-63.9	3.8	8.46e-01	0	60	104	409468928	62	30230
2026-01-16 23:58:13.65	132.29	6.95	-45.7	-63.8	3.8	8.46e-01	0	60	104	409468928	62	29995
2026-01-16 23:58:14.66	132.17	6.87	-45.7	-63.8	3.8	8.45e-01	0	60	104	409468928	62	29728
2026-01-16 23:58:15.67	132.05	6.79	-45.6	-63.7	3.8	8.46e-01	0	60	104	409468928	62	29640
2026-01-16 23:58:16.68	131.93	6.71	-45.5	-63.6	3.8	8.46e-01	0	60	104	409468928	62	29157
2026-01-16 23:58:17.69	131.81	6.63	-45.5	-63.6	3.8	8.46e-01	0	60	104	409468928	62	29152
2026-01-16 23:58:18.71	131.70	6.55	-45.5	-63.6	3.8	8.45e-01	0	60	104	409468928	62	29103
2026-01-16 23:58:19.72	131.58	6.47	-45.5	-63.6	3.8	8.45e-01	0	60	104	409468928	62	29123
2026-01-16 23:58:20.73	131.47	6.39	-45.5	-63.6	3.8	8.47e-01	0	60	104	409468928	62	29134
2026-01-16 23:58:21.74	131.35	6.31	-45.5	-63.6	3.8	8.46e-01	0	60	104	409468928	62	29056
2026-01-16 23:58:22.75	131.24	6.23	-45.5	-63.6	3.8	8.46e-01	0	60	104	409468928	62	29107
2026-01-16 23:58:23.76	131.13	6.15	-45.5	-63.6	3.8	8.46e-01	0	60	104	409468928	62	29087
2026-01-16 23:58:24.77	131.02	6.07	-45.5	-63.6	3.8	8.46e-01	0	60	104	409468928	62	29099
2026-01-16 23:58:25.78	130.91	6.00	-45.5	-63.6	3.8	8.46e-01	0	60	104	409468928	62	29104
2026-01-16 23:58:26.79	130.80	5.92	-45.5	-63.6	3.8	8.46e-01	0	60	104	409468928	62	29092
2026-01-16 23:58:27.80	130.69	5.84	-45.5	-63.6	3.8	8.46e-01	0	60	104	409468928	62	29113
2026-01-16 23:58:28.81	130.58	5.77	-45.5	-63.5	3.8	8.46e-01	0	60	104	409468928	62	28987
2026-01-16 23:58:29.82	130.48	5.69	-45.5	-63.6	3.8	8.46e-01	0	60	104	409468928	62	29022
2026-01-16 23:58:30.83	130.37	5.61	-45.5	-63.6	3.8	8.46e-01	0	60	104	409468928	62	29024
2026-01-16 23:58:31.84	130.26	5.54	-45.5	-63.6	3.8	8.44e-01	0	60	104	409468928	62	29046
2026-01-16 23:58:32.85	130.16	5.46	-45.5	-63.5	3.8	8.44e-01	0	60	104	409468928	62	28940
2026-01-16 23:58:33.87	130.05	5.39	-45.5	-63.6	3.8	8.47e-01	0	60	104	409468928	62	29030
2026-01-16 23:58:34.87	129.95	5.31	-45.5	-63.5	3.8	8.45e-01	0	60	104	409468928	62	28922
2026-01-16 23:58:35.89	129.85	5.24	-45.5	-63.5	3.8	8.45e-01	0	60	104	409468928	62	28968
2026-01-16 23:58:36.90	129.75	5.16	-45.5	-63.5	3.8	8.46e-01	0	60	104	409468928	62	28951
2026-01-16 23:58:37.91	129.65	5.09	-45.5	-63.5	3.8	8.45e-01	0	60	104	409468928	62	28964
2026-01-16 23:58:38.92	129.55	5.01	-45.5	-63.5	3.8	8.47e-01	0	60	104	409468928	62	28951
2026-01-16 23:58:39.93	129.45	4.94	-45.5	-63.5	3.8	8.47e-01	0	60	104	409468928	62	28970
2026-01-16 23:58:40.94	129.35	4.87	-45.5	-63.5	3.8	8.46e-01	0	60	104	409468928	62	29011
2026-01-16 23:58:41.95	129.25	4.79	-45.5	-63.5	3.8	8.47e-01	0	60	104	409468928	62	28933
2026-01-16 23:58:42.96	129.16	4.72	-45.5	-63.5	3.8	8.47e-01	0	60	104	409468928	62	28984
2026-01-16 23:58:43.98	129.06	4.65	-45.5	-63.5	3.8	8.47e-01	0	60	104	409468928	62	28964
2026-01-16 23:58:44.99	128.96	4.57	-45.5	-63.6	3.8	8.45e-01	0	60	104	409468928	62	29043
2026-01-16 23:58:46.00	128.87	4.50	-45.5	-63.5	3.8	8.45e-01	0	60	104	409468928	62	29004
2026-01-16 23:58:47.01	128.77	4.43	-45.5	-63.5	3.8	8.46e-01	0	60	104	409468928	62	28816
2026-01-16 23:58:48.02	128.68	4.36	-45.5	-63.5	3.8	8.46e-01	0	60	104	409468928	62	28897
2026-01-16 23:58:49.03	128.59	4.28	-45.5	-63.6	3.8	8.46e-01	0	60	104	409468928	62	29012
2026-01-16 23:58:50.04	128.49	4.21	-45.5	-63.6	3.8	8.46e-01	0	60	104	409468928	62	29015
2026-01-16 23:58:51.05	128.40	4.14	-45.5	-63.5	3.8	8.45e-01	0	60	104	409468928	62	28994
2026-01-16 23:58:52.06	128.31	4.07	-45.5	-63.5	3.8	8.45e-01	0	60	104	409468928	62	28949
2026-01-16 23:58:53.08	128.22	4.00	-45.5	-63.5	3.8	8.45e-01	0	60	104	409468928	62	28902
2026-01-16 23:58:54.09	128.13	3.93	-45.5	-63.5	3.8	8.45e-01	0	60	104	409468928	62	28787
2026-01-16 23:58:55.10	128.04	3.86	-45.4	-63.5	3.8	8.46e-01	0	60	104	409468928	62	28877
2026-01-16 23:58:56.11	127.95	3.79	-45.5	-63.5	3.8	8.46e-01	0	60	104	409468928	62	28925
2026-01-16 23:58:57.12	127.86	3.72	-45.4	-63.5	3.8	8.47e-01	0	60	104	409468928	62	28880
2026-01-16 23:58:58.13	127.78	3.65	-45.5	-63.5	3.8	8.47e-01	0	60	104	409468928	62	28853
2026-01-16 23:58:59.14	127.69	3.58	-45.4	-63.5	3.8	8.47e-01	0	60	104	409468928	62	28895
2026-01-16 23:59:00.15	127.60	3.51	-45.4	-63.5	3.8	8.47e-01	0	60	104	409468928	62	28792
2026-01-16 23:59:01.16	127.52	3.44	-45.4	-63.5	3.8	8.46e-01	0	60	104	409468928	62	28890
2026-01-16 23:59:02.17	127.43	3.37	-45.4	-63.5	3.8	8.46e-01	0	60	104	409468928	62	28886
2026-01-16 23:59:03.18	127.35	3.30	-45.4	-63.5	3.8	8.47e-01	0	60	104	409468928	62	28878
2026-01-16 23:59:04.19	127.27	3.24	-45.4	-63.5	3.8	8.47e-01	0	60	104	409468928	62	28874
2026-01-16 23:59:05.20	127.18	3.17	-45.4	-63.5	3.8	8.46e-01	0	60	104	409468928	62	28859
2026-01-16 23:59:06.22	127.10	3.10	-45.4	-63.5	3.8	8.46e-01	0	60	104	409468928	62	28836
2026-01-16 23:59:07.23	127.02	3.03	-45.4	-63.5	3.8	8.47e-01	0	60	104	409468928	62	28848
2026-01-16 23:59:08.24	126.94	2.96	-45.4	-63.5	3.8	8.47e-01	0	60	104	409468928	62	28869
2026-01-16 23:59:09.25	126.86	2.90	-45.4	-63.5	3.8	8.47e-01	0	60	104	409468928	62	28762
2026-01-16 23:59:10.26	126.77	2.83	-45.4	-63.5	3.8	8.47e-01	0	60	104	409468928	62	28789
2026-01-16 23:59:11.27	126.70	2.76	-45.4	-63.5	3.8	8.46e-01	0	60	104	409468928	62	28836
2026-01-16 23:59:12.28	126.62	2.70	-45.4	-63.5	3.8	8.46e-01	0	60	104	409468928	62	28763
2026-01-16 23:59:13.29	126.54	2.63	-45.4	-63.5	3.8	8.46e-01	0	60	104	409468928	62	28875
2026-01-16 23:59:14.30	126.46	2.56	-45.4	-63.5	3.8	8.47e-01	0	60	104	409468928	62	28851
2026-01-16 23:59:15.31	126.38	2.50	-45.4	-63.5	3.8	8.46e-01	0	60	104	409468928	62	28872
2026-01-16 23:59:16.32	126.30	2.43	-45.4	-63.5	3.8	8.46e-01	0	60	104	409468928	62	28880
2026-01-16 23:59:17.33	126.23	2.37	-45.4	-63.5	3.8	8.46e-01	0	60	104	409468928	62	28777
2026-01-16 23:59:18.34	126.15	2.30	-45.4	-63.5	3.8	8.46e-01	0	60	104	409468928	62	28840
2026-01-16 23:59:19.35	126.07	2.23	-45.4	-63.5	3.8	8.46e-01	0	60	104	409468928	62	28752
2026-01-16 23:59:20.37	126.00	2.17	-45.4	-63.5	3.8	8.47e-01	0	60	104	409468928	62	28818
2026-01-16 23:59:21.38	125.92	2.10	-45.4	-63.5	3.8	8.45e-01	0	60	104	409468928	62	28750
2026-01-16 23:59:22.39	125.85	2.04	-45.4	-63.5	3.8	8.45e-01	0	60	104	409468928	62	28852
2026-01-16 23:59:23.40	125.78	1.97	-45.4	-63.5	3.8	8.46e-01	0	60	104	409468928	62	28827

#Closed at: 2026-01-16 23:59:23
#Recorded file [409 MB]: D:/lorett/data/31039_260117_025024.dat