passes_logs/2026/01/16/R2.0S_Moscow/R2.0S_Moscow__20260116_001445_FENGYUN_3D_rec.log

#Pass ID: 20260116_001445_FENGYUN 3D
#Satellite: FENGYUN 3D
#Configuration: FENGYUN 3D
#almurnet v.1.7.20251203
#Start time: 2026-01-16 00:14:47

#Version: 2.2.20231116
#Station: R2.0S_Moscow
#Location: 37.707566 lon 55.798166 lat
#TLE: 1 43010U 17072A   26015.49690188 -.00000192  00000+0 -69217-4 0  9996
#TLE: 2 43010  98.9932 347.3205 0002350 106.2275 253.9159 14.19694721423329

#Time	Az	El	Level	Level2	SNR	BER	BlckErr	Temp	State	Recorded	gain1	gain2
2026-01-16 00:14:47.47	25.91	2.11	-41.6	-53.8	3.8	8.46e-01	0	51	0	0	55	14178
2026-01-16 00:14:48.47	25.98	2.17	-41.6	-53.9	3.8	8.45e-01	0	51	104	0	53	15945
2026-01-16 00:14:49.48	26.05	2.22	-41.6	-53.8	3.8	8.45e-01	0	51	104	0	53	15913
2026-01-16 00:14:50.49	26.13	2.28	-41.6	-53.8	3.8	8.46e-01	0	51	104	0	53	15871
2026-01-16 00:14:51.50	26.20	2.33	-41.6	-53.8	3.8	8.46e-01	0	51	104	0	53	15876
2026-01-16 00:14:52.51	26.27	2.39	-41.6	-53.8	3.8	8.46e-01	0	52	104	0	53	15872
2026-01-16 00:14:53.52	26.35	2.44	-41.6	-53.8	3.8	8.46e-01	0	51	104	0	53	15865
2026-01-16 00:14:54.52	26.42	2.50	-41.6	-53.8	3.8	8.46e-01	0	52	104	0	53	15914
2026-01-16 00:14:55.53	26.50	2.55	-41.6	-53.8	3.8	8.46e-01	0	52	104	0	53	15934
2026-01-16 00:14:56.55	26.57	2.61	-41.6	-53.8	3.8	8.46e-01	0	52	104	0	53	15905
2026-01-16 00:14:57.56	26.65	2.67	-41.6	-53.8	3.8	8.46e-01	0	52	104	0	53	15938
2026-01-16 00:14:58.56	26.72	2.72	-41.6	-53.8	3.8	8.47e-01	0	52	104	0	53	15919
2026-01-16 00:14:59.57	26.80	2.78	-41.6	-53.8	3.8	8.46e-01	0	52	104	0	53	15922
2026-01-16 00:15:00.56	26.87	2.83	-41.6	-53.8	3.8	8.46e-01	0	52	104	0	53	15911
2026-01-16 00:15:01.57	26.95	2.89	-41.6	-53.9	3.8	8.46e-01	0	52	104	0	53	15972
2026-01-16 00:15:02.58	27.02	2.94	-41.6	-53.8	3.8	8.45e-01	0	52	104	0	53	15895
2026-01-16 00:15:03.59	27.10	3.00	-41.6	-53.8	3.8	8.47e-01	0	52	104	0	53	15899
2026-01-16 00:15:04.60	27.18	3.06	-41.6	-53.8	3.8	8.46e-01	0	52	104	0	53	15895
2026-01-16 00:15:05.61	27.26	3.11	-41.6	-53.8	3.8	8.46e-01	0	52	104	0	53	15916
2026-01-16 00:15:06.61	27.33	3.17	-41.6	-53.8	3.8	8.46e-01	0	52	104	0	53	15935
2026-01-16 00:15:07.63	27.41	3.22	-41.6	-53.8	3.8	8.46e-01	0	53	104	0	53	15859
2026-01-16 00:15:08.63	27.49	3.28	-41.6	-53.8	3.8	8.46e-01	0	53	104	0	53	15937
2026-01-16 00:15:09.65	27.57	3.34	-41.6	-53.8	3.8	8.47e-01	0	52	104	0	53	15909
2026-01-16 00:15:10.66	27.65	3.39	-41.6	-53.8	3.8	8.46e-01	0	53	104	0	53	15901
2026-01-16 00:15:11.67	27.73	3.45	-41.6	-53.8	3.8	8.46e-01	0	53	104	0	53	15920
2026-01-16 00:15:12.68	27.81	3.51	-41.6	-53.8	3.8	8.47e-01	0	53	104	0	53	15884
2026-01-16 00:15:13.69	27.89	3.56	-41.6	-53.8	3.8	8.47e-01	0	53	104	0	53	15905
2026-01-16 00:15:14.70	27.97	3.62	-41.6	-53.8	3.8	8.46e-01	0	53	104	0	53	15921
2026-01-16 00:15:15.71	28.05	3.68	-41.6	-53.8	3.8	8.47e-01	0	53	104	0	53	15935
2026-01-16 00:15:16.72	28.13	3.74	-41.6	-53.8	3.8	8.46e-01	0	53	104	0	53	15903
2026-01-16 00:15:17.73	28.21	3.79	-41.6	-53.8	3.8	8.48e-01	0	53	104	0	53	15919
2026-01-16 00:15:18.74	28.29	3.85	-41.6	-53.8	3.8	8.46e-01	0	53	104	0	53	15886
2026-01-16 00:15:19.75	28.37	3.91	-41.6	-53.8	3.8	8.46e-01	0	53	104	0	53	15920
2026-01-16 00:15:20.76	28.45	3.97	-41.6	-53.8	3.8	8.46e-01	0	54	104	0	53	15924
2026-01-16 00:15:21.77	28.53	4.02	-41.6	-53.8	3.8	8.45e-01	0	53	104	0	53	15878
2026-01-16 00:15:22.78	28.62	4.08	-41.6	-53.8	3.8	8.45e-01	0	54	104	0	53	15886
2026-01-16 00:15:23.79	28.70	4.14	-41.6	-53.8	3.8	8.46e-01	0	54	104	0	53	15808
2026-01-16 00:15:24.80	28.78	4.20	-41.6	-53.8	3.8	8.45e-01	0	53	104	0	53	15919
2026-01-16 00:15:25.81	28.86	4.25	-41.6	-53.8	3.8	8.47e-01	0	54	104	0	53	15853
2026-01-16 00:15:26.82	28.95	4.31	-41.6	-53.8	3.8	8.47e-01	0	54	104	0	53	15870
2026-01-16 00:15:27.83	29.03	4.37	-41.6	-53.8	3.8	8.46e-01	0	54	104	0	53	15881
2026-01-16 00:15:28.84	29.12	4.43	-41.6	-53.8	3.8	8.45e-01	0	54	104	0	53	15913
2026-01-16 00:15:29.86	29.20	4.49	-41.6	-53.8	3.8	8.45e-01	0	54	104	0	53	15830
2026-01-16 00:15:30.87	29.29	4.54	-41.6	-53.8	3.8	8.47e-01	0	54	104	0	53	15875
2026-01-16 00:15:31.88	29.37	4.60	-41.6	-53.8	3.8	8.46e-01	0	54	104	0	53	15872
2026-01-16 00:15:32.89	29.46	4.66	-41.6	-53.8	3.8	8.44e-01	0	54	104	0	53	15889
2026-01-16 00:15:33.90	29.54	4.72	-41.5	-53.8	3.8	8.46e-01	0	54	104	0	53	15897
2026-01-16 00:15:34.91	29.63	4.78	-41.6	-53.9	3.8	8.46e-01	0	55	104	0	53	15946
2026-01-16 00:15:35.92	29.72	4.84	-41.6	-53.8	3.8	8.46e-01	0	54	104	0	53	15908
2026-01-16 00:15:36.93	29.80	4.89	-41.6	-53.8	3.8	8.48e-01	0	54	104	0	53	15880
2026-01-16 00:15:37.94	29.89	4.95	-41.6	-53.8	3.8	8.47e-01	0	55	104	0	53	15865
2026-01-16 00:15:38.95	29.98	5.01	-41.6	-53.8	3.8	8.46e-01	0	55	104	0	53	15891
2026-01-16 00:15:39.96	30.06	5.07	-41.6	-53.8	3.8	8.47e-01	0	55	104	0	53	15835
2026-01-16 00:15:40.97	30.15	5.13	-41.6	-53.8	3.8	8.45e-01	0	54	104	0	53	15875
2026-01-16 00:15:41.98	30.24	5.19	-41.6	-53.8	3.8	8.46e-01	0	55	104	0	53	15893
2026-01-16 00:15:42.99	30.33	5.25	-41.6	-53.8	3.8	8.46e-01	0	55	104	0	53	15867
2026-01-16 00:15:44.00	30.42	5.31	-41.6	-53.8	3.8	8.45e-01	0	55	104	0	53	15904
2026-01-16 00:15:45.02	30.51	5.37	-41.6	-53.8	3.8	8.46e-01	0	55	104	0	53	15878
2026-01-16 00:15:46.03	30.60	5.43	-41.6	-53.8	3.8	8.46e-01	0	55	104	0	53	15829
2026-01-16 00:15:47.04	30.69	5.49	-41.6	-53.8	3.8	8.48e-01	0	55	104	0	53	15887
2026-01-16 00:15:48.04	30.78	5.54	-41.6	-53.8	3.8	8.46e-01	0	55	104	0	53	15906
2026-01-16 00:15:49.06	30.87	5.60	-41.6	-53.8	3.8	8.46e-01	0	55	104	0	53	15904
2026-01-16 00:15:50.07	30.96	5.66	-41.6	-53.8	3.8	8.47e-01	0	55	104	0	53	15862
2026-01-16 00:15:51.08	31.05	5.72	-41.6	-53.8	3.8	8.47e-01	0	55	104	0	53	15905
2026-01-16 00:15:52.09	31.15	5.78	-41.6	-53.8	3.8	8.46e-01	0	55	104	0	53	15856
2026-01-16 00:15:53.10	31.24	5.84	-41.6	-53.8	3.8	8.46e-01	0	55	104	0	53	15885
2026-01-16 00:15:54.11	31.33	5.90	-41.6	-53.8	3.8	8.47e-01	0	55	104	0	53	15912
2026-01-16 00:15:55.12	31.42	5.96	-41.6	-53.8	3.8	8.48e-01	0	55	104	0	53	15883
2026-01-16 00:15:56.13	31.52	6.02	-41.6	-53.8	3.8	8.47e-01	0	55	104	0	53	15881
2026-01-16 00:15:57.14	31.61	6.08	-41.6	-53.8	3.8	8.46e-01	0	55	104	0	53	15837
2026-01-16 00:15:58.15	31.70	6.14	-41.6	-53.8	3.8	8.47e-01	0	55	104	0	53	15854
2026-01-16 00:15:59.16	31.80	6.21	-41.6	-53.8	3.8	8.46e-01	0	55	104	0	53	15894
2026-01-16 00:16:00.17	31.89	6.27	-41.6	-53.8	3.8	8.46e-01	0	55	104	0	53	15870
2026-01-16 00:16:01.18	31.99	6.33	-41.6	-53.8	3.8	8.47e-01	0	56	104	0	53	15862
2026-01-16 00:16:02.19	32.08	6.39	-41.5	-53.7	3.8	8.47e-01	0	56	104	0	53	15731
2026-01-16 00:16:03.20	32.18	6.45	-41.5	-53.8	3.8	8.45e-01	0	56	104	0	53	15779
2026-01-16 00:16:04.21	32.28	6.51	-41.5	-53.7	3.8	8.45e-01	0	56	104	0	53	15673
2026-01-16 00:16:05.22	32.37	6.57	-41.6	-53.8	3.8	8.47e-01	0	56	104	0	53	15796
2026-01-16 00:16:06.23	32.47	6.63	-41.5	-53.8	3.8	8.46e-01	0	56	104	0	53	15777
2026-01-16 00:16:07.24	32.57	6.69	-41.6	-53.8	3.8	8.46e-01	0	56	104	0	53	15773
2026-01-16 00:16:08.25	32.67	6.75	-41.6	-53.8	3.8	8.45e-01	0	56	104	0	53	15851
2026-01-16 00:16:09.26	32.77	6.81	-41.5	-53.8	3.8	8.47e-01	0	56	104	0	53	15814
2026-01-16 00:16:10.27	32.86	6.87	-41.5	-53.7	3.8	8.47e-01	0	56	104	0	53	15652
2026-01-16 00:16:11.28	32.96	6.94	-41.5	-53.5	3.8	8.46e-01	0	56	104	0	53	15395
2026-01-16 00:16:12.28	33.06	7.00	-41.4	-52.6	3.8	8.46e-01	0	56	104	0	53	13852
2026-01-16 00:16:13.30	33.16	7.06	-41.3	-52.2	3.8	8.46e-01	0	56	104	0	53	13152
2026-01-16 00:16:14.31	33.26	7.12	-41.3	-51.8	3.8	8.46e-01	0	56	104	0	53	12600
2026-01-16 00:16:15.32	33.36	7.18	-41.2	-51.4	4.0	8.43e-01	0	56	104	0	53	11981
2026-01-16 00:16:16.33	33.46	7.24	-41.2	-52.6	3.8	8.44e-01	0	56	104	0	53	13763
2026-01-16 00:16:17.34	33.57	7.31	-41.3	-53.4	3.8	8.47e-01	0	56	104	0	53	15080
2026-01-16 00:16:18.35	33.67	7.37	-41.3	-53.0	3.8	8.45e-01	0	56	104	0	53	14430
2026-01-16 00:16:19.36	33.77	7.43	-41.1	-51.8	3.9	8.45e-01	0	56	104	0	53	12564
2026-01-16 00:16:20.37	33.87	7.49	-41.0	-50.2	4.2	8.43e-01	0	56	104	0	53	10451
2026-01-16 00:16:21.38	33.98	7.55	-40.9	-50.1	4.2	8.36e-01	0	56	0	0	53	10324
2026-01-16 00:16:22.39	34.08	7.62	-40.7	-48.0	5.1	7.90e-01	0	56	0	0	53	8163
2026-01-16 00:16:23.40	34.18	7.68	-40.5	-47.1	5.7	6.07e-01	0	56	0	0	52	7787
2026-01-16 00:16:24.41	34.29	7.74	-40.4	-47.2	5.7	4.48e-01	0	57	0	6291456	52	7852
2026-01-16 00:16:25.42	34.39	7.80	-40.1	-46.5	6.2	3.74e-01	0	57	0	10485760	52	7213
2026-01-16 00:16:26.43	34.50	7.86	-39.7	-44.9	7.7	1.69e-01	0	56	0	15728640	51	6367
2026-01-16 00:16:27.44	34.60	7.93	-38.9	-43.0	9.7	1.80e-02	0	57	0	22020096	49	5728
2026-01-16 00:16:28.45	34.71	7.99	-38.7	-42.5	10.1	8.48e-03	0	57	0	27262976	49	5425
2026-01-16 00:16:29.46	34.82	8.05	-38.9	-42.6	10.2	1.09e-02	0	57	0	33554432	49	5502
2026-01-16 00:16:30.47	34.92	8.12	-39.9	-45.5	7.1	1.27e-02	0	57	0	38797312	50	7284
2026-01-16 00:16:31.48	35.03	8.18	-39.2	-43.5	6.5	8.46e-01	0	57	104	39845888	50	5731
2026-01-16 00:16:32.49	35.14	8.24	-40.2	-44.1	9.4	3.37e-02	0	57	0	42991616	52	5511
2026-01-16 00:16:33.50	35.25	8.30	-38.6	-41.6	11.9	8.05e-02	0	57	0	49283072	49	4920
2026-01-16 00:16:34.51	35.36	8.37	-39.6	-43.5	9.6	5.26e-02	0	56	0	54525952	51	5462
2026-01-16 00:16:35.52	35.47	8.43	-38.7	-41.8	11.7	1.10e-03	0	57	0	60817408	49	5019
2026-01-16 00:16:36.53	35.58	8.49	-38.9	-41.9	11.7	7.75e-04	0	57	0	66060288	49	5056
2026-01-16 00:16:37.54	35.69	8.56	-39.0	-42.0	11.6	8.65e-04	0	57	0	72351744	49	5125
2026-01-16 00:16:38.55	35.80	8.62	-39.1	-42.0	11.6	1.14e-03	0	57	0	77594624	49	5134
2026-01-16 00:16:39.56	35.91	8.68	-39.1	-41.9	11.7	8.52e-04	0	57	0	82837504	49	5091
2026-01-16 00:16:40.57	36.02	8.75	-39.3	-42.3	11.4	1.12e-03	0	57	0	89128960	49	5282
2026-01-16 00:16:41.58	36.13	8.81	-39.3	-42.1	11.6	1.33e-03	0	57	0	94371840	49	5207
2026-01-16 00:16:42.59	36.24	8.87	-39.2	-41.9	11.8	6.09e-04	0	57	0	100663296	49	5082
2026-01-16 00:16:43.60	36.36	8.94	-39.2	-41.9	11.9	6.18e-04	0	57	0	105906176	49	5076
2026-01-16 00:16:44.61	36.47	9.00	-39.1	-41.8	12.0	3.39e-04	0	57	0	111149056	49	5032
2026-01-16 00:16:45.62	36.59	9.07	-39.3	-42.0	11.9	6.65e-04	0	57	0	117440512	49	5130
2026-01-16 00:16:46.62	36.70	9.13	-39.3	-42.0	11.9	6.19e-04	0	57	0	122683392	49	5154
2026-01-16 00:16:47.63	36.81	9.19	-39.2	-41.8	12.1	4.54e-04	0	57	0	128974848	49	5029
2026-01-16 00:16:48.64	36.93	9.26	-39.0	-41.6	12.4	2.17e-04	0	57	0	134217728	49	4892
2026-01-16 00:16:49.65	37.04	9.32	-39.2	-41.8	12.2	3.80e-04	0	57	0	139460608	49	5004
2026-01-16 00:16:50.66	37.16	9.38	-39.2	-41.9	12.2	3.01e-04	0	57	0	145752064	49	5048
2026-01-16 00:16:51.67	37.28	9.45	-39.2	-41.8	12.2	3.99e-04	0	57	0	150994944	49	5040
2026-01-16 00:16:52.68	37.40	9.51	-39.1	-41.7	12.4	1.85e-04	0	57	0	157286400	49	4954
2026-01-16 00:16:53.69	37.51	9.58	-39.4	-42.0	12.2	3.67e-04	0	57	0	162529280	49	5123
2026-01-16 00:16:54.70	37.63	9.64	-39.1	-41.6	12.6	1.61e-04	0	58	0	168820736	49	4914
2026-01-16 00:16:55.71	37.75	9.71	-39.2	-41.8	12.4	3.01e-04	0	57	0	174063616	49	5009
2026-01-16 00:16:56.72	37.87	9.77	-39.2	-41.8	12.4	1.50e-04	0	57	0	180355072	49	4989
2026-01-16 00:16:57.73	37.99	9.84	-39.1	-41.6	12.7	1.46e-04	0	58	0	185597952	49	4879
2026-01-16 00:16:58.74	38.11	9.90	-39.2	-41.7	12.6	1.18e-04	0	57	0	190840832	49	4974
2026-01-16 00:16:59.75	38.23	9.97	-39.1	-41.6	12.7	1.57e-04	0	57	0	197132288	49	4905
2026-01-16 00:17:00.75	38.35	10.03	-39.2	-41.7	12.7	1.45e-04	0	58	0	202375168	49	4928
2026-01-16 00:17:01.76	38.47	10.09	-39.0	-41.4	12.9	7.20e-05	0	58	0	207618048	49	4806
2026-01-16 00:17:02.77	38.60	10.16	-38.9	-41.2	13.1	5.72e-05	0	57	0	213909504	49	4691
2026-01-16 00:17:03.79	38.72	10.22	-38.9	-41.2	13.2	6.98e-05	0	58	0	219152384	49	4686
2026-01-16 00:17:04.79	38.84	10.29	-38.8	-41.0	13.4	2.51e-05	0	58	0	225443840	49	4587
2026-01-16 00:17:05.80	38.97	10.35	-38.8	-41.1	13.4	3.31e-05	0	57	0	230686720	49	4606
2026-01-16 00:17:06.81	39.09	10.42	-38.9	-41.2	13.3	2.74e-05	0	57	0	235929600	49	4669
2026-01-16 00:17:07.82	39.22	10.48	-39.0	-41.3	13.2	2.40e-05	0	57	0	242221056	49	4708
2026-01-16 00:17:08.83	39.34	10.55	-39.1	-41.4	13.1	4.00e-05	0	58	0	247463936	49	4779
2026-01-16 00:17:09.84	39.47	10.62	-39.1	-41.5	13.0	4.11e-05	0	58	0	253755392	49	4858
2026-01-16 00:17:10.85	39.60	10.68	-39.2	-41.6	12.8	8.35e-05	0	58	0	258998272	49	4926
2026-01-16 00:17:11.86	39.72	10.75	-39.2	-41.6	12.9	6.06e-05	0	58	0	265289728	49	4894
2026-01-16 00:17:12.87	39.85	10.81	-39.2	-41.6	12.9	5.14e-05	0	58	0	270532608	49	4912
2026-01-16 00:17:13.88	39.98	10.88	-39.1	-41.4	13.1	5.60e-05	0	58	0	276824064	49	4814
2026-01-16 00:17:14.89	40.11	10.94	-39.1	-41.5	13.1	5.37e-05	0	58	0	282066944	49	4826
2026-01-16 00:17:15.90	40.24	11.01	-39.1	-41.5	13.1	3.89e-05	0	58	0	287309824	49	4833
2026-01-16 00:17:16.92	40.37	11.07	-39.2	-41.6	13.0	5.37e-05	0	58	0	293601280	49	4885
2026-01-16 00:17:17.93	40.50	11.14	-39.1	-41.5	13.1	6.86e-05	0	58	0	298844160	49	4839
2026-01-16 00:17:18.94	40.63	11.21	-39.1	-41.4	13.2	5.26e-05	0	58	0	305135616	49	4801
2026-01-16 00:17:19.95	40.76	11.27	-39.2	-41.5	13.2	3.89e-05	0	58	0	310378496	49	4844
2026-01-16 00:17:20.96	40.90	11.34	-39.2	-41.5	13.1	4.46e-05	0	58	0	315621376	49	4860
2026-01-16 00:17:21.97	41.03	11.40	-39.1	-41.4	13.3	4.00e-05	0	58	0	321912832	49	4762
2026-01-16 00:17:22.98	41.16	11.47	-39.0	-41.3	13.4	1.71e-05	0	58	0	327155712	49	4727
2026-01-16 00:17:23.99	41.30	11.54	-39.0	-41.3	13.4	2.40e-05	0	58	0	333447168	49	4716
2026-01-16 00:17:25.00	41.43	11.60	-39.0	-41.2	13.5	1.94e-05	0	58	0	338690048	49	4704
2026-01-16 00:17:26.01	41.57	11.67	-39.0	-41.2	13.5	1.94e-05	0	58	0	343932928	49	4699
2026-01-16 00:17:27.02	41.70	11.73	-38.9	-41.1	13.6	1.94e-05	0	58	0	350224384	49	4626
2026-01-16 00:17:28.03	41.84	11.80	-38.8	-41.0	13.7	1.25e-05	0	58	0	355467264	49	4587
2026-01-16 00:17:29.04	41.98	11.87	-38.8	-41.0	13.7	1.83e-05	0	58	0	361758720	49	4588
2026-01-16 00:17:30.05	42.11	11.93	-38.8	-41.0	13.7	1.14e-05	0	58	0	367001600	49	4572
2026-01-16 00:17:31.06	42.25	12.00	-38.9	-41.1	13.6	1.37e-05	0	58	0	373293056	49	4641
2026-01-16 00:17:32.07	42.39	12.07	-39.0	-41.2	13.5	1.25e-05	0	58	0	378535936	49	4684
2026-01-16 00:17:33.08	42.53	12.13	-39.0	-41.2	13.6	1.25e-05	0	58	0	384827392	49	4677
2026-01-16 00:17:34.09	42.67	12.20	-38.8	-41.0	13.8	1.14e-05	0	58	0	390070272	49	4564
2026-01-16 00:17:35.10	42.81	12.26	-38.7	-40.8	14.0	4.50e-06	0	58	0	395313152	49	4463
2026-01-16 00:17:36.11	42.95	12.33	-38.7	-40.8	14.0	6.80e-06	0	58	0	401604608	49	4445
2026-01-16 00:17:37.12	43.09	12.40	-38.7	-40.8	14.0	5.70e-06	0	58	0	406847488	49	4483
2026-01-16 00:17:38.13	43.24	12.46	-38.7	-40.8	14.0	4.50e-06	0	58	0	413138944	49	4481
2026-01-16 00:17:39.14	43.38	12.53	-38.8	-40.9	13.8	3.40e-06	0	58	0	418381824	49	4543
2026-01-16 00:17:40.15	43.52	12.60	-38.7	-40.8	14.0	8.00e-06	0	58	0	423624704	49	4478
2026-01-16 00:17:41.17	43.67	12.66	-38.6	-40.6	14.2	3.40e-06	0	58	0	429916160	49	4385
2026-01-16 00:17:42.18	43.81	12.73	-38.5	-40.5	14.3	3.40e-06	0	58	0	435159040	49	4328
2026-01-16 00:17:43.19	43.96	12.80	-38.5	-40.6	14.3	2.20e-06	0	58	0	441450496	49	4347
2026-01-16 00:17:44.20	44.11	12.86	-38.5	-40.6	14.3	1.10e-06	0	58	0	446693376	49	4342
2026-01-16 00:17:45.21	44.25	12.93	-38.5	-40.5	14.3	0.00e+00	0	58	0	451936256	48	4597
2026-01-16 00:17:46.22	44.40	13.00	-38.5	-40.5	14.4	2.20e-06	0	58	0	458227712	48	4585
2026-01-16 00:17:47.23	44.55	13.06	-38.5	-40.5	14.4	3.40e-06	0	58	0	463470592	48	4592
2026-01-16 00:17:48.24	44.70	13.13	-38.6	-40.7	14.2	2.20e-06	0	58	0	469762048	48	4678
2026-01-16 00:17:49.25	44.85	13.20	-38.7	-40.8	14.1	4.50e-06	0	59	0	475004928	48	4727
2026-01-16 00:17:50.25	45.00	13.26	-38.6	-40.6	14.3	3.40e-06	0	58	0	481296384	48	4640
2026-01-16 00:17:51.26	45.15	13.33	-38.5	-40.5	14.4	2.20e-06	0	59	0	486539264	48	4556
2026-01-16 00:17:52.27	45.30	13.40	-38.4	-40.3	14.6	0.00e+00	0	59	0	492830720	48	4491
2026-01-16 00:17:53.28	45.45	13.46	-38.3	-40.3	14.6	1.10e-06	0	59	0	498073600	48	4461
2026-01-16 00:17:54.29	45.60	13.53	-38.4	-40.3	14.6	0.00e+00	0	58	0	503316480	48	4474
2026-01-16 00:17:55.30	45.76	13.60	-38.3	-40.3	14.7	1.10e-06	0	58	0	509607936	48	4446
2026-01-16 00:17:56.31	45.91	13.66	-38.3	-40.3	14.6	1.10e-06	0	59	0	514850816	48	4461
2026-01-16 00:17:57.32	46.07	13.73	-38.4	-40.3	14.6	1.10e-06	0	59	0	521142272	48	4481
2026-01-16 00:17:58.33	46.22	13.80	-38.5	-40.5	14.5	1.10e-06	0	59	0	526385152	48	4553
2026-01-16 00:17:59.34	46.38	13.86	-38.5	-40.5	14.4	0.00e+00	0	58	0	531628032	48	4583
2026-01-16 00:18:00.35	46.54	13.93	-38.6	-40.6	14.4	1.10e-06	0	58	0	537919488	48	4626
2026-01-16 00:18:01.36	46.69	14.00	-38.6	-40.6	14.3	2.20e-06	0	59	0	543162368	48	4635
2026-01-16 00:18:02.37	46.85	14.06	-38.7	-40.8	14.2	3.40e-06	0	58	0	548405248	48	4720
2026-01-16 00:18:03.38	47.01	14.13	-38.7	-40.7	14.3	2.20e-06	0	59	0	554696704	48	4679
2026-01-16 00:18:04.39	47.17	14.20	-38.6	-40.6	14.3	2.20e-06	0	59	0	559939584	48	4642
2026-01-16 00:18:05.40	47.33	14.26	-38.7	-40.7	14.3	2.20e-06	0	59	0	566231040	48	4686
2026-01-16 00:18:06.41	47.49	14.33	-38.7	-40.7	14.2	1.10e-06	0	59	0	571473920	48	4691
2026-01-16 00:18:07.41	47.65	14.40	-38.7	-40.8	14.2	0.00e+00	0	59	0	577765376	48	4715
2026-01-16 00:18:08.42	47.82	14.46	-38.7	-40.8	14.2	0.00e+00	0	59	0	583008256	48	4744
2026-01-16 00:18:09.43	47.98	14.53	-38.6	-40.6	14.4	1.10e-06	0	59	0	589299712	48	4630
2026-01-16 00:18:10.44	48.14	14.60	-38.5	-40.5	14.5	0.00e+00	0	59	0	594542592	48	4561
2026-01-16 00:18:11.45	48.31	14.66	-38.4	-40.4	14.6	1.10e-06	0	59	0	599785472	48	4524
2026-01-16 00:18:12.46	48.47	14.73	-38.3	-40.2	14.8	0.00e+00	0	59	0	606076928	48	4425
2026-01-16 00:18:13.47	48.64	14.79	-38.2	-40.1	14.9	0.00e+00	0	59	0	611319808	48	4360
2026-01-16 00:18:14.48	48.81	14.86	-38.2	-40.1	14.9	0.00e+00	0	59	0	617611264	48	4341
2026-01-16 00:18:15.49	48.97	14.93	-38.2	-40.0	14.9	0.00e+00	0	59	0	622854144	48	4340
2026-01-16 00:18:16.50	49.14	14.99	-38.2	-40.1	14.9	0.00e+00	0	59	0	628097024	48	4370
2026-01-16 00:18:17.51	49.31	15.06	-38.3	-40.2	14.8	1.10e-06	0	58	0	634388480	48	4418
2026-01-16 00:18:18.52	49.48	15.13	-38.4	-40.3	14.7	0.00e+00	0	59	0	639631360	48	4475
2026-01-16 00:18:19.53	49.65	15.19	-38.4	-40.3	14.7	1.10e-06	0	59	0	645922816	48	4481
2026-01-16 00:18:20.54	49.82	15.26	-38.3	-40.2	14.8	0.00e+00	0	59	0	651165696	48	4431
2026-01-16 00:18:21.55	49.99	15.32	-38.2	-40.1	14.9	0.00e+00	0	59	0	656408576	48	4379
2026-01-16 00:18:22.56	50.17	15.39	-38.3	-40.2	14.9	0.00e+00	0	59	0	662700032	48	4404
2026-01-16 00:18:23.57	50.34	15.46	-38.2	-40.1	14.9	0.00e+00	0	59	0	667942912	48	4367
2026-01-16 00:18:24.58	50.52	15.52	-38.2	-40.1	15.0	0.00e+00	0	59	0	674234368	48	4350
2026-01-16 00:18:25.59	50.69	15.59	-38.2	-40.1	15.0	1.10e-06	0	59	0	679477248	48	4360
2026-01-16 00:18:26.60	50.87	15.65	-38.2	-40.1	15.0	0.00e+00	0	59	0	685768704	48	4359
2026-01-16 00:18:27.61	51.04	15.72	-38.1	-40.0	15.1	0.00e+00	0	59	0	691011584	48	4317
2026-01-16 00:18:28.62	51.22	15.78	-38.1	-40.0	15.1	0.00e+00	0	59	0	696254464	48	4307
2026-01-16 00:18:29.63	51.40	15.85	-38.1	-40.0	15.1	0.00e+00	0	59	0	702545920	48	4293
2026-01-16 00:18:30.64	51.58	15.91	-38.0	-39.8	15.2	0.00e+00	0	59	0	707788800	48	4239
2026-01-16 00:18:31.65	51.76	15.98	-37.9	-39.7	15.3	0.00e+00	0	59	0	714080256	47	4416
2026-01-16 00:18:32.66	51.94	16.05	-37.9	-39.8	15.2	0.00e+00	0	59	0	719323136	47	4446
2026-01-16 00:18:33.67	52.12	16.11	-37.9	-39.8	15.2	0.00e+00	0	59	0	724566016	47	4455
2026-01-16 00:18:34.68	52.30	16.18	-37.9	-39.8	15.1	0.00e+00	0	59	0	730857472	47	4470
2026-01-16 00:18:35.69	52.48	16.24	-37.9	-39.7	15.2	0.00e+00	0	59	0	736100352	47	4416
2026-01-16 00:18:36.69	52.66	16.30	-37.9	-39.7	15.2	0.00e+00	0	59	0	742391808	47	4439
2026-01-16 00:18:37.70	52.85	16.37	-37.9	-39.8	15.2	0.00e+00	0	59	0	747634688	47	4450
2026-01-16 00:18:38.71	53.03	16.43	-37.9	-39.8	15.2	0.00e+00	0	59	0	752877568	47	4442
2026-01-16 00:18:39.73	53.22	16.50	-37.9	-39.7	15.2	0.00e+00	0	59	0	759169024	47	4429
2026-01-16 00:18:40.74	53.41	16.56	-37.9	-39.7	15.2	0.00e+00	0	59	0	764411904	47	4436
2026-01-16 00:18:41.75	53.59	16.63	-37.9	-39.8	15.2	1.10e-06	0	59	0	770703360	47	4454
2026-01-16 00:18:42.76	53.78	16.69	-37.9	-39.7	15.3	0.00e+00	0	59	0	775946240	47	4424
2026-01-16 00:18:43.77	53.97	16.76	-37.8	-39.6	15.4	0.00e+00	0	59	0	782237696	47	4390
2026-01-16 00:18:44.78	54.16	16.82	-37.9	-39.7	15.3	0.00e+00	0	59	0	787480576	47	4421
2026-01-16 00:18:45.79	54.35	16.88	-37.8	-39.7	15.3	0.00e+00	0	59	0	793772032	47	4393
2026-01-16 00:18:46.80	54.54	16.95	-37.8	-39.6	15.3	0.00e+00	0	59	0	799014912	47	4384
2026-01-16 00:18:47.80	54.73	17.01	-37.8	-39.6	15.4	0.00e+00	0	59	0	804257792	47	4359
2026-01-16 00:18:48.81	54.93	17.07	-37.7	-39.4	15.5	0.00e+00	0	59	0	810549248	47	4283
2026-01-16 00:18:49.82	55.12	17.14	-37.6	-39.4	15.6	0.00e+00	0	59	0	815792128	47	4244
2026-01-16 00:18:50.83	55.31	17.20	-37.6	-39.4	15.6	0.00e+00	0	59	0	822083584	47	4256
2026-01-16 00:18:51.84	55.51	17.26	-37.6	-39.4	15.6	0.00e+00	0	59	0	827326464	47	4244
2026-01-16 00:18:52.85	55.70	17.32	-37.6	-39.4	15.7	0.00e+00	0	59	0	832569344	47	4252
2026-01-16 00:18:53.86	55.90	17.39	-37.6	-39.4	15.6	0.00e+00	0	59	0	838860800	47	4263
2026-01-16 00:18:54.87	56.10	17.45	-37.6	-39.4	15.6	0.00e+00	0	59	0	844103680	47	4269
2026-01-16 00:18:55.88	56.30	17.51	-37.7	-39.5	15.5	0.00e+00	0	59	0	850395136	47	4299
2026-01-16 00:18:56.89	56.50	17.57	-37.7	-39.5	15.5	0.00e+00	0	59	0	855638016	47	4323
2026-01-16 00:18:57.90	56.70	17.64	-37.7	-39.5	15.5	0.00e+00	0	59	0	860880896	47	4313
2026-01-16 00:18:58.91	56.90	17.70	-37.7	-39.5	15.5	0.00e+00	0	59	0	867172352	47	4315
2026-01-16 00:18:59.92	57.10	17.76	-37.7	-39.5	15.5	0.00e+00	0	59	0	872415232	47	4320
2026-01-16 00:19:00.93	57.30	17.82	-37.7	-39.4	15.6	0.00e+00	0	59	0	878706688	47	4286
2026-01-16 00:19:01.94	57.50	17.88	-37.6	-39.3	15.7	0.00e+00	0	59	0	883949568	47	4240
2026-01-16 00:19:02.95	57.71	17.94	-37.6	-39.3	15.7	0.00e+00	0	59	0	890241024	47	4224
2026-01-16 00:19:03.96	57.91	18.00	-37.6	-39.3	15.7	1.10e-06	0	59	0	895483904	47	4217
2026-01-16 00:19:04.97	58.12	18.06	-37.6	-39.3	15.7	0.00e+00	0	59	0	900726784	47	4213
2026-01-16 00:19:05.97	58.32	18.12	-37.6	-39.4	15.7	0.00e+00	0	59	0	907018240	47	4251
2026-01-16 00:19:06.98	58.53	18.18	-37.7	-39.4	15.6	0.00e+00	0	59	0	912261120	47	4277
2026-01-16 00:19:07.99	58.74	18.24	-37.7	-39.4	15.6	0.00e+00	0	59	0	918552576	47	4275
2026-01-16 00:19:09.00	58.95	18.30	-37.7	-39.4	15.6	0.00e+00	0	59	0	923795456	47	4278
2026-01-16 00:19:10.01	59.16	18.36	-37.7	-39.4	15.6	0.00e+00	0	60	0	929038336	47	4290
2026-01-16 00:19:11.02	59.37	18.42	-37.7	-39.4	15.6	0.00e+00	0	59	0	935329792	47	4282
2026-01-16 00:19:12.03	59.58	18.48	-37.6	-39.3	15.7	0.00e+00	0	59	0	940572672	47	4242
2026-01-16 00:19:13.04	59.79	18.54	-37.5	-39.2	15.8	0.00e+00	0	60	0	946864128	47	4186
2026-01-16 00:19:14.05	60.00	18.60	-37.4	-39.2	15.9	0.00e+00	0	59	0	952107008	46	4397
2026-01-16 00:19:15.06	60.22	18.66	-37.4	-39.2	15.9	0.00e+00	0	59	0	957349888	46	4395
2026-01-16 00:19:16.06	60.43	18.71	-37.4	-39.1	15.9	0.00e+00	0	59	0	963641344	46	4383
2026-01-16 00:19:17.07	60.64	18.77	-37.4	-39.1	15.9	0.00e+00	0	59	0	968884224	46	4364
2026-01-16 00:19:18.08	60.86	18.83	-37.4	-39.1	15.9	0.00e+00	0	59	0	975175680	46	4357
2026-01-16 00:19:19.09	61.08	18.89	-37.4	-39.0	16.0	0.00e+00	0	59	0	980418560	46	4333
2026-01-16 00:19:20.10	61.30	18.94	-37.4	-39.1	16.0	0.00e+00	0	59	0	986710016	46	4355
2026-01-16 00:19:21.11	61.51	19.00	-37.4	-39.1	16.0	0.00e+00	0	60	0	991952896	46	4358
2026-01-16 00:19:22.12	61.73	19.06	-37.2	-39.0	15.8	0.00e+00	0	59	0	998244352	46	4325
2026-01-16 00:19:23.13	61.95	19.11	-37.2	-39.0	15.8	0.00e+00	0	59	0	1003487232	46	4316
2026-01-16 00:19:24.14	62.17	19.17	-37.1	-38.9	15.9	0.00e+00	0	59	0	1008730112	46	4284
2026-01-16 00:19:25.16	62.40	19.23	-37.1	-38.9	15.9	0.00e+00	0	59	0	1015021568	46	4262
2026-01-16 00:19:26.17	62.62	19.28	-37.0	-38.7	16.0	0.00e+00	0	60	0	1020264448	46	4186
2026-01-16 00:19:27.17	62.84	19.34	-37.0	-38.7	16.0	0.00e+00	0	60	0	1026555904	45	4425
2026-01-16 00:19:28.18	63.07	19.39	-37.0	-38.7	16.0	0.00e+00	0	59	0	1031798784	45	4435
2026-01-16 00:19:29.19	63.29	19.45	-36.9	-38.7	16.1	0.00e+00	0	60	0	1037041664	45	4419
2026-01-16 00:19:30.20	63.52	19.50	-37.0	-38.7	16.0	0.00e+00	0	59	0	1043333120	45	4438
2026-01-16 00:19:31.21	63.74	19.55	-37.1	-38.9	15.9	0.00e+00	0	59	0	1048576000	45	4508
2026-01-16 00:19:32.22	63.97	19.61	-37.1	-39.0	15.8	0.00e+00	0	60	0	1054867456	45	4555
2026-01-16 00:19:33.23	64.20	19.66	-37.2	-39.0	15.8	0.00e+00	0	59	0	1060110336	45	4566
2026-01-16 00:19:34.24	64.43	19.71	-37.1	-38.9	15.8	0.00e+00	0	60	0	1065353216	45	4531
2026-01-16 00:19:35.25	64.66	19.77	-37.1	-39.0	15.8	0.00e+00	0	60	0	1071644672	45	4554
2026-01-16 00:19:36.26	64.89	19.82	-37.1	-38.9	15.8	0.00e+00	0	60	0	1076887552	45	4529
2026-01-16 00:19:37.28	65.12	19.87	-37.0	-38.8	15.9	0.00e+00	0	59	0	1083179008	45	4491
2026-01-16 00:19:38.29	65.35	19.92	-36.9	-38.7	16.0	0.00e+00	0	59	0	1088421888	45	4420
2026-01-16 00:19:39.29	65.58	19.97	-36.9	-38.7	16.1	0.00e+00	0	60	0	1094713344	45	4398
2026-01-16 00:19:40.30	65.82	20.02	-37.0	-38.8	15.9	0.00e+00	0	59	0	1099956224	45	4455
2026-01-16 00:19:41.31	66.05	20.07	-37.1	-38.9	15.8	0.00e+00	0	60	0	1105199104	45	4508
2026-01-16 00:19:42.32	66.28	20.12	-37.2	-39.0	15.7	0.00e+00	0	59	0	1111490560	45	4578
2026-01-16 00:19:43.33	66.52	20.17	-37.2	-39.1	15.6	0.00e+00	0	60	0	1116733440	45	4604
2026-01-16 00:19:44.34	66.76	20.22	-37.1	-39.0	15.7	0.00e+00	0	59	0	1123024896	45	4563
2026-01-16 00:19:45.35	66.99	20.27	-37.0	-38.9	15.8	0.00e+00	0	60	0	1128267776	45	4504
2026-01-16 00:19:46.36	67.23	20.32	-36.9	-38.7	15.9	0.00e+00	0	59	0	1133510656	45	4440
2026-01-16 00:19:47.37	67.47	20.37	-37.0	-38.8	15.9	0.00e+00	0	59	0	1139802112	45	4458
2026-01-16 00:19:48.38	67.71	20.42	-37.0	-38.8	15.8	0.00e+00	0	59	0	1145044992	45	4467
2026-01-16 00:19:49.38	67.95	20.46	-37.0	-38.9	15.7	0.00e+00	0	60	0	1151336448	45	4517
2026-01-16 00:19:50.39	68.19	20.51	-37.1	-39.0	15.6	0.00e+00	0	60	0	1156579328	45	4564
2026-01-16 00:19:51.40	68.43	20.56	-37.1	-39.0	15.5	0.00e+00	0	60	0	1161822208	45	4586
2026-01-16 00:19:52.41	68.67	20.60	-37.2	-39.1	15.4	0.00e+00	0	60	0	1168113664	45	4630
2026-01-16 00:19:53.42	68.92	20.65	-37.2	-39.1	15.4	0.00e+00	0	60	0	1173356544	45	4624
2026-01-16 00:19:54.43	69.16	20.69	-37.2	-39.1	15.4	0.00e+00	0	60	0	1179648000	45	4612
2026-01-16 00:19:55.44	69.40	20.74	-37.1	-39.0	15.5	0.00e+00	0	60	0	1184890880	45	4559
2026-01-16 00:19:56.45	69.65	20.78	-37.0	-38.9	15.5	0.00e+00	0	60	0	1191182336	45	4526
2026-01-16 00:19:57.46	69.89	20.83	-37.0	-38.9	15.5	1.10e-06	0	60	0	1196425216	45	4522
2026-01-16 00:19:58.46	70.14	20.87	-37.1	-39.0	15.4	0.00e+00	0	60	0	1201668096	45	4570
2026-01-16 00:19:59.47	70.39	20.91	-37.1	-39.1	15.3	0.00e+00	0	60	0	1207959552	45	4600
2026-01-16 00:20:00.48	70.63	20.95	-37.2	-39.1	15.3	1.10e-06	0	60	0	1213202432	45	4599
2026-01-16 00:20:01.49	70.88	21.00	-37.2	-39.1	15.2	0.00e+00	0	60	0	1219493888	45	4614
2026-01-16 00:20:02.50	71.13	21.04	-37.2	-39.1	15.1	0.00e+00	0	60	0	1224736768	45	4646
2026-01-16 00:20:03.52	71.38	21.08	-37.3	-39.2	15.1	0.00e+00	0	60	0	1229979648	45	4686
2026-01-16 00:20:04.53	71.63	21.12	-37.3	-39.2	15.0	0.00e+00	0	60	0	1236271104	45	4705
2026-01-16 00:20:05.54	71.88	21.16	-37.3	-39.3	15.0	0.00e+00	0	60	0	1241513984	45	4708
2026-01-16 00:20:06.54	72.13	21.20	-37.2	-39.2	15.1	0.00e+00	0	60	0	1247805440	45	4675
2026-01-16 00:20:07.55	72.39	21.24	-37.2	-39.1	15.2	0.00e+00	0	60	0	1253048320	45	4639
2026-01-16 00:20:08.57	72.64	21.28	-37.1	-39.0	15.3	0.00e+00	0	60	0	1258291200	45	4583
2026-01-16 00:20:09.58	72.90	21.32	-37.1	-39.0	15.3	0.00e+00	0	60	0	1264582656	45	4579
2026-01-16 00:20:10.59	73.15	21.35	-37.1	-39.0	15.4	0.00e+00	0	60	0	1269825536	45	4577
2026-01-16 00:20:11.60	73.41	21.39	-37.2	-39.1	15.3	0.00e+00	0	60	0	1276116992	45	4619
2026-01-16 00:20:12.61	73.66	21.43	-37.2	-39.2	15.2	0.00e+00	0	60	0	1281359872	45	4665
2026-01-16 00:20:13.61	73.91	21.46	-37.2	-39.1	15.2	1.10e-06	0	60	0	1287651328	45	4651
2026-01-16 00:20:14.62	74.17	21.50	-37.2	-39.1	15.2	0.00e+00	0	60	0	1292894208	45	4612
2026-01-16 00:20:15.63	74.43	21.53	-37.1	-39.0	15.2	0.00e+00	0	60	0	1299185664	45	4594
2026-01-16 00:20:16.64	74.69	21.57	-37.1	-39.0	15.2	0.00e+00	0	60	0	1304428544	45	4598
2026-01-16 00:20:17.65	74.94	21.60	-37.2	-39.1	15.1	0.00e+00	0	60	0	1309671424	45	4645
2026-01-16 00:20:18.66	75.20	21.64	-37.2	-39.1	15.2	0.00e+00	0	60	0	1315962880	45	4630
2026-01-16 00:20:19.67	75.46	21.67	-37.0	-38.9	15.4	0.00e+00	0	60	0	1321205760	45	4536
2026-01-16 00:20:20.68	75.72	21.70	-36.9	-38.8	15.6	0.00e+00	0	60	0	1327497216	45	4451
2026-01-16 00:20:21.69	75.98	21.73	-36.8	-38.7	15.7	0.00e+00	0	60	0	1332740096	45	4398
2026-01-16 00:20:22.70	76.24	21.76	-36.8	-38.7	15.7	0.00e+00	0	60	0	1337982976	45	4395
2026-01-16 00:20:23.71	76.51	21.80	-36.9	-38.7	15.6	0.00e+00	0	60	0	1344274432	45	4436
2026-01-16 00:20:24.72	76.77	21.83	-36.9	-38.8	15.6	0.00e+00	0	60	0	1349517312	45	4446
2026-01-16 00:20:25.73	77.03	21.86	-36.9	-38.7	15.6	1.10e-06	0	60	0	1355808768	45	4425
2026-01-16 00:20:26.74	77.29	21.88	-36.8	-38.7	15.7	0.00e+00	0	60	0	1361051648	45	4400
2026-01-16 00:20:27.75	77.56	21.91	-36.8	-38.6	15.8	0.00e+00	0	60	0	1366294528	45	4356
2026-01-16 00:20:28.76	77.82	21.94	-36.8	-38.6	15.9	0.00e+00	0	60	0	1372585984	45	4354
2026-01-16 00:20:29.77	78.09	21.97	-36.8	-38.6	15.8	0.00e+00	0	60	0	1377828864	45	4360
2026-01-16 00:20:30.78	78.35	21.99	-36.8	-38.6	15.9	0.00e+00	0	60	0	1384120320	45	4360
2026-01-16 00:20:31.78	78.62	22.02	-36.9	-38.7	15.7	0.00e+00	0	60	0	1389363200	45	4427
2026-01-16 00:20:32.79	78.88	22.05	-36.9	-38.7	15.7	0.00e+00	0	60	0	1395654656	45	4425
2026-01-16 00:20:33.80	79.15	22.07	-36.8	-38.6	15.8	0.00e+00	0	60	0	1400897536	45	4385
2026-01-16 00:20:34.81	79.41	22.10	-36.7	-38.5	16.0	0.00e+00	0	60	0	1406140416	45	4320
2026-01-16 00:20:35.82	79.68	22.12	-36.6	-38.4	16.1	0.00e+00	0	60	0	1412431872	45	4251
2026-01-16 00:20:36.83	79.95	22.14	-36.6	-38.3	16.1	0.00e+00	0	60	0	1417674752	45	4232
2026-01-16 00:20:37.84	80.22	22.16	-36.7	-38.4	16.0	0.00e+00	0	60	0	1423966208	45	4274
2026-01-16 00:20:38.85	80.49	22.19	-36.7	-38.5	16.0	0.00e+00	0	60	0	1429209088	45	4306
2026-01-16 00:20:39.86	80.75	22.21	-36.8	-38.6	15.9	0.00e+00	0	60	0	1434451968	45	4367
2026-01-16 00:20:40.87	81.02	22.23	-36.9	-38.7	15.8	0.00e+00	0	60	0	1440743424	45	4413
2026-01-16 00:20:41.88	81.29	22.25	-36.8	-38.7	15.8	0.00e+00	0	60	0	1445986304	45	4404
2026-01-16 00:20:42.89	81.56	22.27	-36.6	-38.4	16.1	0.00e+00	0	60	0	1452277760	45	4279
2026-01-16 00:20:43.90	81.83	22.29	-36.5	-38.2	16.3	0.00e+00	0	60	0	1457520640	45	4173
2026-01-16 00:20:44.91	82.10	22.30	-36.5	-38.2	16.2	0.00e+00	0	60	0	1462763520	44	4428
2026-01-16 00:20:45.92	82.37	22.32	-36.4	-38.2	16.3	0.00e+00	0	60	0	1469054976	44	4409
2026-01-16 00:20:46.93	82.65	22.34	-36.5	-38.3	16.2	0.00e+00	0	60	0	1474297856	44	4451
2026-01-16 00:20:47.94	82.92	22.36	-36.6	-38.4	16.1	0.00e+00	0	60	0	1480589312	44	4515
2026-01-16 00:20:48.95	83.19	22.37	-36.7	-38.5	16.0	0.00e+00	0	60	0	1485832192	44	4580
2026-01-16 00:20:49.96	83.46	22.39	-36.7	-38.5	16.0	0.00e+00	0	60	0	1492123648	44	4554
2026-01-16 00:20:50.97	83.73	22.40	-36.7	-38.5	16.0	0.00e+00	0	60	0	1497366528	44	4564
2026-01-16 00:20:51.98	84.00	22.41	-36.8	-38.6	15.9	0.00e+00	0	60	0	1503657984	44	4602
2026-01-16 00:20:52.99	84.28	22.43	-36.7	-38.5	15.9	0.00e+00	0	60	0	1508900864	44	4590
2026-01-16 00:20:54.00	84.55	22.44	-36.8	-38.5	16.0	0.00e+00	0	60	0	1514143744	44	4598
2026-01-16 00:20:55.01	84.82	22.45	-36.8	-38.6	15.9	0.00e+00	0	60	0	1520435200	44	4634
2026-01-16 00:20:56.02	85.10	22.46	-36.8	-38.6	15.9	0.00e+00	0	60	0	1525678080	44	4627
2026-01-16 00:20:57.03	85.37	22.47	-36.8	-38.6	16.0	0.00e+00	0	60	0	1531969536	44	4617
2026-01-16 00:20:58.04	85.64	22.48	-36.8	-38.6	15.9	0.00e+00	0	60	0	1537212416	44	4645
2026-01-16 00:20:59.05	85.92	22.49	-36.8	-38.6	15.9	0.00e+00	0	60	0	1542455296	44	4621
2026-01-16 00:21:00.06	86.19	22.50	-36.9	-38.7	15.8	0.00e+00	0	60	0	1548746752	44	4681
2026-01-16 00:21:01.07	86.47	22.51	-36.9	-38.7	15.8	0.00e+00	0	60	0	1553989632	44	4677
2026-01-16 00:21:02.08	86.74	22.51	-36.9	-38.7	15.8	0.00e+00	0	60	0	1560281088	44	4687
2026-01-16 00:21:03.09	87.02	22.52	-36.8	-38.7	15.8	0.00e+00	0	60	0	1565523968	44	4654
2026-01-16 00:21:04.10	87.29	22.53	-36.8	-38.6	15.9	0.00e+00	0	60	0	1570766848	44	4628
2026-01-16 00:21:05.11	87.56	22.53	-36.9	-38.7	15.9	0.00e+00	0	60	0	1577058304	44	4665
2026-01-16 00:21:06.12	87.84	22.54	-36.8	-38.7	15.9	0.00e+00	0	60	0	1582301184	44	4665
2026-01-16 00:21:07.13	88.11	22.54	-36.9	-38.7	15.9	0.00e+00	0	60	0	1588592640	44	4670
2026-01-16 00:21:08.14	88.39	22.54	-36.9	-38.7	15.9	0.00e+00	0	60	0	1593835520	44	4666
2026-01-16 00:21:09.16	88.67	22.55	-36.9	-38.7	15.9	0.00e+00	0	60	0	1600126976	44	4680
2026-01-16 00:21:10.17	88.94	22.55	-36.9	-38.7	15.9	0.00e+00	0	60	0	1605369856	44	4663
2026-01-16 00:21:11.17	89.21	22.55	-36.9	-38.8	15.9	0.00e+00	0	60	0	1611661312	44	4710
2026-01-16 00:21:12.18	89.49	22.55	-36.9	-38.8	15.9	0.00e+00	0	60	0	1616904192	44	4707
2026-01-16 00:21:13.19	89.76	22.55	-36.8	-38.6	16.0	0.00e+00	0	60	0	1622147072	44	4644
2026-01-16 00:21:14.20	90.04	22.55	-36.8	-38.6	16.0	0.00e+00	0	60	0	1628438528	44	4629
2026-01-16 00:21:15.22	90.32	22.55	-36.8	-38.5	16.1	0.00e+00	0	60	0	1633681408	44	4594
2026-01-16 00:21:16.23	90.59	22.54	-36.8	-38.5	16.2	0.00e+00	0	60	0	1639972864	44	4581
2026-01-16 00:21:17.24	90.87	22.54	-36.8	-38.6	16.1	0.00e+00	0	60	0	1645215744	44	4625
2026-01-16 00:21:18.24	91.14	22.54	-36.8	-38.5	16.2	0.00e+00	0	60	0	1650458624	44	4596
2026-01-16 00:21:19.25	91.41	22.53	-36.7	-38.4	16.3	0.00e+00	0	60	0	1656750080	44	4522
2026-01-16 00:21:20.26	91.69	22.53	-36.5	-38.2	16.5	0.00e+00	0	60	0	1661992960	44	4420
2026-01-16 00:21:21.27	91.96	22.52	-36.4	-38.1	16.6	0.00e+00	0	60	0	1668284416	44	4384
2026-01-16 00:21:22.28	92.24	22.52	-36.4	-38.1	16.6	0.00e+00	0	60	0	1673527296	44	4358
2026-01-16 00:21:23.29	92.51	22.51	-36.4	-38.1	16.6	0.00e+00	0	60	0	1678770176	44	4343
2026-01-16 00:21:24.30	92.79	22.50	-36.5	-38.2	16.6	0.00e+00	0	60	0	1685061632	44	4401
2026-01-16 00:21:25.31	93.06	22.49	-36.5	-38.2	16.6	0.00e+00	0	60	0	1690304512	44	4409
2026-01-16 00:21:26.32	93.34	22.49	-36.5	-38.2	16.6	0.00e+00	0	60	0	1696595968	44	4404
2026-01-16 00:21:27.33	93.61	22.48	-36.5	-38.2	16.6	0.00e+00	0	60	0	1701838848	44	4406
2026-01-16 00:21:28.34	93.88	22.47	-36.5	-38.2	16.6	0.00e+00	0	60	0	1708130304	44	4428
2026-01-16 00:21:29.35	94.16	22.45	-36.6	-38.3	16.6	0.00e+00	0	60	0	1713373184	44	4446
2026-01-16 00:21:30.36	94.43	22.44	-36.6	-38.3	16.6	0.00e+00	0	60	0	1718616064	44	4451
2026-01-16 00:21:31.37	94.70	22.43	-36.6	-38.3	16.6	0.00e+00	0	60	0	1724907520	44	4455
2026-01-16 00:21:32.38	94.98	22.42	-36.6	-38.3	16.6	0.00e+00	0	60	0	1730150400	44	4478
2026-01-16 00:21:33.39	95.25	22.40	-36.6	-38.3	16.6	0.00e+00	0	60	0	1736441856	44	4459
2026-01-16 00:21:34.40	95.52	22.39	-36.6	-38.3	16.6	0.00e+00	0	60	0	1741684736	44	4459
2026-01-16 00:21:35.41	95.79	22.38	-36.6	-38.3	16.6	0.00e+00	0	60	0	1746927616	44	4446
2026-01-16 00:21:36.42	96.07	22.36	-36.6	-38.2	16.6	0.00e+00	0	60	0	1753219072	44	4434
2026-01-16 00:21:37.44	96.34	22.34	-36.6	-38.3	16.6	0.00e+00	0	60	0	1758461952	44	4459
2026-01-16 00:21:38.44	96.61	22.33	-36.6	-38.3	16.6	0.00e+00	0	60	0	1764753408	44	4482
2026-01-16 00:21:39.46	96.88	22.31	-36.7	-38.4	16.5	0.00e+00	0	60	0	1769996288	44	4501
2026-01-16 00:21:40.47	97.15	22.29	-36.7	-38.4	16.5	0.00e+00	0	60	0	1775239168	44	4522
2026-01-16 00:21:41.47	97.42	22.27	-36.7	-38.4	16.5	0.00e+00	0	60	0	1781530624	44	4499
2026-01-16 00:21:42.48	97.69	22.25	-36.7	-38.4	16.5	0.00e+00	0	60	0	1786773504	44	4541
2026-01-16 00:21:43.50	97.97	22.23	-36.7	-38.5	16.4	0.00e+00	0	60	0	1793064960	44	4549
2026-01-16 00:21:44.51	98.24	22.21	-36.8	-38.5	16.4	0.00e+00	0	60	0	1798307840	44	4569
2026-01-16 00:21:45.52	98.50	22.19	-36.8	-38.5	16.4	0.00e+00	0	60	0	1804599296	44	4575
2026-01-16 00:21:46.53	98.77	22.17	-36.8	-38.5	16.4	0.00e+00	0	60	0	1809842176	44	4586
2026-01-16 00:21:47.54	99.04	22.15	-36.8	-38.5	16.4	0.00e+00	0	60	0	1816133632	44	4563
2026-01-16 00:21:48.55	99.31	22.13	-36.7	-38.4	16.5	0.00e+00	0	60	0	1821376512	44	4514
2026-01-16 00:21:49.55	99.58	22.10	-36.7	-38.4	16.5	0.00e+00	0	60	0	1826619392	44	4507
2026-01-16 00:21:50.56	99.84	22.08	-36.6	-38.3	16.6	0.00e+00	0	60	0	1832910848	44	4480
2026-01-16 00:21:51.57	100.11	22.05	-36.7	-38.4	16.5	0.00e+00	0	60	0	1838153728	44	4497
2026-01-16 00:21:52.58	100.38	22.03	-36.7	-38.4	16.6	0.00e+00	0	60	0	1844445184	44	4495
2026-01-16 00:21:53.59	100.64	22.00	-36.7	-38.4	16.5	0.00e+00	0	60	0	1849688064	44	4505
2026-01-16 00:21:54.60	100.91	21.97	-36.7	-38.4	16.5	0.00e+00	0	60	0	1854930944	44	4532
2026-01-16 00:21:55.61	101.17	21.95	-36.7	-38.5	16.4	0.00e+00	0	60	0	1861222400	44	4562
2026-01-16 00:21:56.62	101.44	21.92	-36.7	-38.5	16.4	0.00e+00	0	60	0	1866465280	44	4558
2026-01-16 00:21:57.63	101.70	21.89	-36.7	-38.4	16.5	0.00e+00	0	60	0	1872756736	44	4531
2026-01-16 00:21:58.64	101.97	21.86	-36.7	-38.4	16.5	0.00e+00	0	60	0	1877999616	44	4502
2026-01-16 00:21:59.64	102.23	21.83	-36.6	-38.3	16.6	0.00e+00	0	60	0	1883242496	44	4466
2026-01-16 00:22:00.65	102.49	21.80	-36.6	-38.3	16.6	0.00e+00	0	60	0	1889533952	44	4451
2026-01-16 00:22:01.66	102.75	21.77	-36.6	-38.3	16.6	0.00e+00	0	60	0	1894776832	44	4467
2026-01-16 00:22:02.67	103.02	21.74	-36.6	-38.3	16.6	0.00e+00	0	60	0	1901068288	44	4475
2026-01-16 00:22:03.68	103.28	21.71	-36.6	-38.3	16.6	0.00e+00	0	60	0	1906311168	44	4468
2026-01-16 00:22:04.70	103.54	21.68	-36.6	-38.3	16.5	0.00e+00	0	60	0	1912602624	44	4493
2026-01-16 00:22:05.71	103.80	21.64	-36.6	-38.3	16.5	0.00e+00	0	60	0	1917845504	44	4488
2026-01-16 00:22:06.72	104.06	21.61	-36.7	-38.4	16.5	0.00e+00	0	60	0	1923088384	44	4507
2026-01-16 00:22:07.73	104.32	21.58	-36.7	-38.4	16.4	0.00e+00	0	60	0	1929379840	44	4541
2026-01-16 00:22:08.74	104.58	21.54	-36.8	-38.5	16.3	0.00e+00	0	60	0	1934622720	44	4593
2026-01-16 00:22:09.75	104.84	21.51	-36.9	-38.7	16.2	0.00e+00	0	60	0	1940914176	44	4670
2026-01-16 00:22:10.76	105.09	21.47	-37.0	-38.8	16.1	0.00e+00	0	60	0	1946157056	44	4732
2026-01-16 00:22:11.77	105.35	21.43	-37.1	-38.9	16.0	0.00e+00	0	60	0	1951399936	44	4772
2026-01-16 00:22:12.78	105.61	21.40	-37.1	-38.9	16.0	0.00e+00	0	60	0	1957691392	44	4774
2026-01-16 00:22:13.79	105.86	21.36	-37.1	-38.9	16.1	0.00e+00	0	60	0	1962934272	44	4762
2026-01-16 00:22:14.80	106.12	21.32	-37.0	-38.8	16.2	0.00e+00	0	60	0	1969225728	44	4717
2026-01-16 00:22:15.80	106.37	21.29	-37.0	-38.8	16.2	0.00e+00	0	60	0	1974468608	44	4719
2026-01-16 00:22:16.81	106.63	21.25	-36.9	-38.7	16.3	0.00e+00	0	60	0	1979711488	44	4660
2026-01-16 00:22:17.82	106.88	21.21	-36.9	-38.6	16.3	0.00e+00	0	60	0	1986002944	44	4621
2026-01-16 00:22:18.83	107.13	21.17	-36.9	-38.7	16.3	0.00e+00	0	60	0	1991245824	44	4652
2026-01-16 00:22:19.84	107.38	21.13	-37.0	-38.7	16.2	0.00e+00	0	60	0	1997537280	44	4696
2026-01-16 00:22:20.85	107.64	21.09	-37.0	-38.8	16.1	0.00e+00	0	60	0	2002780160	44	4745
2026-01-16 00:22:21.86	107.89	21.05	-37.1	-38.9	16.1	0.00e+00	0	60	0	2009071616	44	4772
2026-01-16 00:22:22.87	108.14	21.00	-37.1	-38.9	16.0	0.00e+00	0	60	0	2014314496	44	4785
2026-01-16 00:22:23.88	108.39	20.96	-37.1	-38.9	16.0	0.00e+00	0	60	0	2020605952	44	4795
2026-01-16 00:22:24.89	108.63	20.92	-37.0	-38.9	16.0	0.00e+00	0	60	0	2025848832	44	4774
2026-01-16 00:22:25.90	108.88	20.88	-37.0	-38.9	16.1	0.00e+00	0	60	0	2031091712	44	4761
2026-01-16 00:22:26.91	109.13	20.83	-37.0	-38.8	16.0	0.00e+00	0	60	0	2037383168	44	4748
2026-01-16 00:22:27.92	109.38	20.79	-37.0	-38.8	16.1	0.00e+00	0	60	0	2042626048	44	4754
2026-01-16 00:22:28.93	109.62	20.74	-37.1	-38.9	16.0	0.00e+00	0	60	0	2048917504	44	4781
2026-01-16 00:22:29.94	109.87	20.70	-37.1	-38.9	16.0	0.00e+00	0	60	0	2054160384	44	4784
2026-01-16 00:22:30.95	110.11	20.65	-37.1	-38.9	16.0	0.00e+00	0	60	0	2059403264	44	4794
2026-01-16 00:22:31.96	110.36	20.61	-37.1	-38.8	16.1	0.00e+00	0	60	0	2065694720	44	4759
2026-01-16 00:22:32.97	110.60	20.56	-37.1	-38.9	16.1	0.00e+00	0	60	0	2070937600	44	4765
2026-01-16 00:22:33.98	110.84	20.51	-37.1	-38.9	16.0	0.00e+00	0	60	0	2077229056	44	4785
2026-01-16 00:22:34.99	111.09	20.47	-37.2	-39.0	15.9	0.00e+00	0	60	0	2082471936	44	4849
2026-01-16 00:22:36.00	111.33	20.42	-37.2	-39.1	15.8	0.00e+00	0	60	0	2087714816	45	4617
2026-01-16 00:22:37.01	111.57	20.37	-37.3	-39.1	15.8	0.00e+00	0	60	0	2094006272	45	4638
2026-01-16 00:22:38.02	111.81	20.32	-37.3	-39.1	15.8	0.00e+00	0	60	0	2099249152	45	4633
2026-01-16 00:22:39.03	112.05	20.28	-37.2	-39.1	15.8	0.00e+00	0	60	0	2105540608	45	4614
2026-01-16 00:22:40.04	112.28	20.23	-37.2	-39.0	15.9	0.00e+00	0	60	0	2110783488	45	4596
2026-01-16 00:22:41.05	112.52	20.18	-37.2	-39.0	15.9	0.00e+00	0	60	0	2117074944	45	4573
2026-01-16 00:22:42.06	112.76	20.13	-37.2	-39.0	15.9	0.00e+00	0	60	0	2122317824	45	4567
2026-01-16 00:22:43.07	112.99	20.08	-37.2	-39.0	15.9	0.00e+00	0	60	0	2128609280	45	4583
2026-01-16 00:22:44.08	113.23	20.03	-37.2	-39.1	15.8	0.00e+00	0	60	0	2133852160	45	4599
2026-01-16 00:22:45.09	113.46	19.98	-37.2	-39.1	15.8	0.00e+00	0	60	0	2139095040	45	4634
2026-01-16 00:22:46.10	113.70	19.92	-37.2	-39.1	15.8	0.00e+00	0	60	0	2145386496	45	4620
2026-01-16 00:22:47.11	113.93	19.87	-37.2	-39.0	15.8	0.00e+00	0	60	0	2150629376	45	4595
2026-01-16 00:22:48.12	114.16	19.82	-37.1	-39.0	15.9	0.00e+00	0	60	0	2155872256	45	4549
2026-01-16 00:22:49.13	114.39	19.77	-37.1	-38.9	16.0	0.00e+00	0	60	0	2162163712	45	4496
2026-01-16 00:22:50.14	114.62	19.71	-37.0	-38.7	16.1	0.00e+00	0	60	0	2167406592	45	4426
2026-01-16 00:22:51.15	114.85	19.66	-37.0	-38.8	16.1	0.00e+00	0	60	0	2173698048	45	4444
2026-01-16 00:22:52.16	115.08	19.61	-37.1	-38.8	16.1	0.00e+00	0	60	0	2178940928	45	4488
2026-01-16 00:22:53.17	115.31	19.55	-37.2	-39.0	15.9	0.00e+00	0	60	0	2184183808	45	4562
2026-01-16 00:22:54.18	115.54	19.50	-37.3	-39.2	15.7	0.00e+00	0	60	0	2190475264	45	4661
2026-01-16 00:22:55.19	115.77	19.45	-37.4	-39.3	15.5	0.00e+00	0	60	0	2195718144	45	4754
2026-01-16 00:22:56.19	115.99	19.39	-37.4	-39.4	15.5	0.00e+00	0	60	0	2202009600	45	4778
2026-01-16 00:22:57.20	116.22	19.34	-37.5	-39.4	15.5	0.00e+00	0	60	0	2207252480	45	4792
2026-01-16 00:22:58.21	116.44	19.28	-37.4	-39.3	15.5	0.00e+00	0	60	0	2213543936	45	4754
2026-01-16 00:22:59.22	116.66	19.23	-37.4	-39.3	15.6	0.00e+00	0	60	0	2218786816	45	4731
2026-01-16 00:23:00.23	116.89	19.17	-37.4	-39.2	15.6	0.00e+00	0	60	0	2225078272	45	4705
2026-01-16 00:23:01.24	117.11	19.11	-37.3	-39.2	15.7	0.00e+00	0	60	0	2230321152	45	4679
2026-01-16 00:23:02.25	117.33	19.06	-37.4	-39.2	15.7	0.00e+00	0	60	0	2235564032	45	4680
2026-01-16 00:23:03.26	117.55	19.00	-37.4	-39.2	15.6	0.00e+00	0	60	0	2241855488	45	4704
2026-01-16 00:23:04.27	117.77	18.94	-37.4	-39.2	15.6	0.00e+00	0	60	0	2247098368	45	4699
2026-01-16 00:23:05.28	117.99	18.88	-37.3	-39.2	15.5	0.00e+00	0	60	0	2253389824	45	4683
2026-01-16 00:23:06.29	118.21	18.83	-37.3	-39.2	15.6	0.00e+00	0	60	0	2258632704	45	4693
2026-01-16 00:23:07.30	118.42	18.77	-37.3	-39.2	15.7	0.00e+00	0	60	0	2263875584	45	4658
2026-01-16 00:23:08.31	118.64	18.71	-37.3	-39.1	15.7	0.00e+00	0	60	0	2270167040	45	4633
2026-01-16 00:23:09.32	118.86	18.65	-37.2	-39.1	15.8	0.00e+00	0	60	0	2275409920	45	4619
2026-01-16 00:23:10.33	119.07	18.59	-37.3	-39.2	15.7	0.00e+00	0	60	0	2281701376	45	4669
2026-01-16 00:23:11.34	119.28	18.53	-37.3	-39.2	15.6	4.50e-06	0	60	0	2286944256	45	4695
2026-01-16 00:23:12.35	119.50	18.48	-37.4	-39.4	15.4	0.00e+00	0	60	0	2292187136	45	4760
2026-01-16 00:23:13.36	119.71	18.42	-37.5	-39.5	15.4	0.00e+00	0	60	0	2298478592	45	4817
2026-01-16 00:23:14.37	119.92	18.36	-37.6	-39.5	15.2	0.00e+00	0	60	0	2303721472	45	4859
2026-01-16 00:23:15.38	120.13	18.30	-37.6	-39.5	15.3	1.10e-06	0	60	0	2310012928	45	4846
2026-01-16 00:23:16.39	120.34	18.24	-37.6	-39.6	15.3	3.20e-05	0	60	0	2315255808	45	4881
2026-01-16 00:23:17.40	120.55	18.18	-37.6	-39.6	15.3	2.28e-05	0	60	0	2321547264	45	4885
2026-01-16 00:23:18.41	120.76	18.11	-37.7	-39.7	15.2	4.34e-05	0	60	0	2326790144	45	4933
2026-01-16 00:23:19.42	120.97	18.05	-37.8	-39.8	15.0	5.03e-05	0	60	0	2332033024	46	4735
2026-01-16 00:23:20.43	121.17	17.99	-37.9	-39.9	14.9	2.05e-05	0	60	0	2338324480	46	4772
2026-01-16 00:23:21.44	121.38	17.93	-37.9	-40.0	14.7	2.63e-05	0	60	0	2343567360	46	4846
2026-01-16 00:23:22.44	121.58	17.87	-38.0	-40.1	14.8	2.05e-05	0	61	0	2349858816	46	4875
2026-01-16 00:23:23.45	121.79	17.81	-38.0	-40.1	14.7	1.35e-03	0	60	0	2355101696	46	4885
2026-01-16 00:23:24.46	121.99	17.75	-38.0	-40.1	14.7	4.92e-05	0	60	0	2360344576	46	4899
2026-01-16 00:23:25.47	122.19	17.69	-37.9	-39.9	14.9	1.02e-05	0	60	0	2366636032	46	4773
2026-01-16 00:23:26.49	122.40	17.62	-37.8	-39.8	15.0	1.94e-05	0	60	0	2371878912	46	4741
2026-01-16 00:23:27.50	122.60	17.56	-37.8	-39.8	15.0	8.00e-06	0	60	0	2378170368	46	4754
2026-01-16 00:23:28.51	122.80	17.50	-37.9	-39.9	14.9	1.60e-05	0	60	0	2383413248	46	4776
2026-01-16 00:23:29.52	123.00	17.43	-37.9	-39.9	14.9	5.70e-06	0	60	0	2388656128	46	4801
2026-01-16 00:23:30.53	123.20	17.37	-37.9	-39.9	14.9	6.80e-06	0	60	0	2394947584	46	4777
2026-01-16 00:23:31.54	123.39	17.31	-37.8	-39.8	15.0	5.70e-06	0	60	0	2400190464	46	4755
2026-01-16 00:23:32.55	123.59	17.25	-37.8	-39.8	14.9	2.20e-06	0	60	0	2406481920	46	4721
2026-01-16 00:23:33.56	123.79	17.18	-37.7	-39.7	15.1	2.20e-06	0	60	0	2411724800	45	4947
2026-01-16 00:23:34.57	123.98	17.12	-37.7	-39.7	14.8	0.00e+00	0	60	0	2418016256	45	4943
2026-01-16 00:23:35.58	124.18	17.05	-37.7	-39.7	15.1	2.20e-06	0	60	0	2423259136	45	4951
2026-01-16 00:23:36.59	124.37	16.99	-37.8	-39.8	15.0	1.10e-06	0	60	0	2429550592	46	4729
2026-01-16 00:23:37.60	124.56	16.93	-37.8	-39.8	14.9	1.10e-06	0	60	0	2434793472	46	4756
2026-01-16 00:23:38.61	124.76	16.86	-37.9	-39.9	14.9	0.00e+00	0	60	0	2440036352	46	4783
2026-01-16 00:23:39.62	124.95	16.80	-37.9	-39.9	14.8	0.00e+00	0	60	0	2446327808	46	4806
2026-01-16 00:23:40.63	125.14	16.73	-37.9	-40.0	14.8	0.00e+00	0	60	0	2451570688	46	4838
2026-01-16 00:23:41.64	125.33	16.67	-38.0	-40.0	14.7	3.40e-06	0	60	0	2457862144	46	4862
2026-01-16 00:23:42.65	125.52	16.60	-37.9	-40.0	14.8	7.20e-05	0	60	0	2463105024	46	4829
2026-01-16 00:23:43.66	125.71	16.54	-38.0	-40.1	14.6	0.00e+00	0	60	0	2468347904	46	4878
2026-01-16 00:23:44.66	125.89	16.48	-37.9	-40.0	14.8	1.71e-05	0	60	0	2474639360	46	4815
2026-01-16 00:23:45.67	126.08	16.41	-37.9	-39.9	14.8	0.00e+00	0	60	0	2479882240	46	4806
2026-01-16 00:23:46.69	126.27	16.34	-37.9	-39.9	14.8	1.10e-06	0	60	0	2486173696	46	4794
2026-01-16 00:23:47.70	126.45	16.28	-37.9	-40.0	14.8	1.10e-06	0	60	0	2491416576	46	4830
2026-01-16 00:23:48.71	126.63	16.21	-37.9	-40.1	14.4	2.20e-06	0	60	0	2496659456	46	4905
2026-01-16 00:23:49.72	126.82	16.15	-38.2	-40.3	14.4	1.94e-05	0	60	0	2502950912	46	5037
2026-01-16 00:23:50.73	127.00	16.08	-38.4	-40.6	14.0	8.00e-06	0	60	0	2508193792	47	4889
2026-01-16 00:23:51.74	127.18	16.02	-38.5	-40.7	14.0	1.94e-05	0	60	0	2514485248	47	4975
2026-01-16 00:23:52.75	127.36	15.95	-36.3	-40.6	11.1	5.20e-03	0	60	0	2519728128	44	5818
2026-01-16 00:23:53.76	127.54	15.89	-38.2	-40.8	13.7	6.86e-05	0	60	0	2526019584	47	5024
2026-01-16 00:23:54.77	127.72	15.82	-38.5	-40.8	13.8	1.15e-04	0	60	0	2531262464	47	5021
2026-01-16 00:23:55.78	127.90	15.75	-38.6	-40.9	13.5	3.17e-04	0	60	0	2537553920	47	5084
2026-01-16 00:23:56.79	128.08	15.69	-38.6	-40.9	13.7	8.03e-04	0	60	0	2542796800	47	5087
2026-01-16 00:23:57.80	128.26	15.62	-38.6	-40.9	13.7	1.26e-03	0	60	0	2548039680	47	5043
2026-01-16 00:23:58.81	128.43	15.56	-38.4	-40.6	14.0	9.49e-04	0	60	0	2554331136	47	4896
2026-01-16 00:23:59.82	128.61	15.49	-38.5	-40.7	13.6	1.54e-03	0	60	0	2559574016	47	4974
2026-01-16 00:24:00.82	128.78	15.42	-35.0	-40.3	9.5	2.13e-03	0	60	0	2565865472	44	5634
2026-01-16 00:24:01.83	128.96	15.36	-38.1	-40.6	13.7	3.17e-03	0	60	0	2571108352	47	4897
2026-01-16 00:24:02.84	129.13	15.29	-38.2	-40.4	13.7	5.52e-03	0	60	0	2576351232	46	5096
2026-01-16 00:24:03.85	129.30	15.22	-38.2	-40.4	13.3	6.85e-03	0	61	0	2582642688	46	5100
2026-01-16 00:24:04.86	129.48	15.16	-28.5	-38.1	7.4	8.62e-02	0	60	0	2587885568	39	5809
2026-01-16 00:24:05.87	129.65	15.09	-38.1	-40.5	13.3	5.60e-02	0	61	0	2593128448	47	4852
2026-01-16 00:24:06.88	129.82	15.02	-37.7	-40.5	11.2	1.26e-01	0	60	0	2598371328	44	5776
2026-01-16 00:24:07.89	129.99	14.96	-23.9	-33.8	4.3	1.79e-01	0	60	0	2602565632	32	5313
2026-01-16 00:24:08.91	130.16	14.89	-38.1	-40.5	12.9	4.20e-01	0	60	104	2602565632	45	5424
2026-01-16 00:24:09.92	130.33	14.82	-38.1	-40.5	13.1	4.00e-02	0	60	0	2606759936	46	5136
2026-01-16 00:24:10.93	130.50	14.76	-38.5	-40.8	12.6	5.97e-02	0	60	0	2613051392	46	5301
2026-01-16 00:24:11.94	130.66	14.69	-37.9	-40.5	13.0	6.08e-02	0	61	0	2618294272	46	5106
2026-01-16 00:24:12.95	130.83	14.62	-37.9	-40.6	11.5	1.53e-01	0	60	0	2623537152	44	5808
2026-01-16 00:24:13.96	130.99	14.55	-37.4	-40.5	12.8	5.83e-02	0	60	0	2628780032	46	5155
2026-01-16 00:24:14.97	131.16	14.49	-37.1	-40.3	11.2	2.45e-01	0	60	0	2634022912	43	5973
2026-01-16 00:24:15.98	131.32	14.42	-37.8	-40.5	12.4	6.59e-02	0	60	0	2639265792	45	5453
2026-01-16 00:24:16.99	131.49	14.35	-37.1	-40.4	10.9	1.81e-01	0	60	0	2644508672	44	5694
2026-01-16 00:24:18.00	131.65	14.29	-38.0	-40.6	10.9	1.28e-01	0	60	0	2649751552	44	5814
2026-01-16 00:24:19.01	131.81	14.22	-37.1	-40.6	11.2	8.54e-02	0	60	0	2654994432	36	9194
2026-01-16 00:24:20.02	131.97	14.15	-38.0	-40.7	11.5	6.73e-02	0	60	0	2660237312	45	5564
2026-01-16 00:24:21.03	132.13	14.08	-37.5	-40.6	9.5	2.85e-01	0	60	0	2665480192	42	6544
2026-01-16 00:24:22.04	132.29	14.02	-38.3	-41.1	11.4	8.50e-02	0	60	0	2670723072	46	5481
2026-01-16 00:24:23.05	132.45	13.95	-19.8	-32.4	4.0	5.13e-01	0	60	104	2673868800	11	15124
2026-01-16 00:24:24.06	132.61	13.88	-37.8	-40.7	11.2	1.35e-01	0	61	0	2674917376	44	5876
2026-01-16 00:24:25.06	132.76	13.82	-36.9	-40.6	11.5	2.14e-01	0	60	0	2679111680	45	5497
2026-01-16 00:24:26.08	132.92	13.75	-36.9	-40.5	10.9	1.22e-01	0	60	0	2685403136	46	5140
2026-01-16 00:24:27.09	133.08	13.68	-38.1	-40.7	11.8	8.56e-02	0	60	0	2690646016	45	5561
2026-01-16 00:24:28.09	133.23	13.61	-37.9	-40.7	12.0	6.59e-02	0	60	0	2695888896	46	5263
2026-01-16 00:24:29.10	133.39	13.55	-37.9	-40.7	12.1	1.44e-01	0	60	0	2701131776	46	5273
2026-01-16 00:24:30.11	133.54	13.48	-38.1	-40.8	11.3	6.65e-02	0	60	0	2706374656	45	5605
2026-01-16 00:24:31.12	133.70	13.41	-37.3	-40.7	11.0	1.54e-01	0	60	0	2711617536	44	5913
2026-01-16 00:24:32.13	133.85	13.34	-37.9	-40.9	11.4	6.05e-02	0	60	0	2716860416	46	5358
2026-01-16 00:24:33.14	134.00	13.28	-37.8	-40.9	12.3	9.34e-02	0	61	0	2722103296	47	5067
2026-01-16 00:24:34.15	134.15	13.21	-38.3	-41.1	12.1	4.00e-02	0	60	0	2728394752	47	5179
2026-01-16 00:24:35.16	134.30	13.14	-38.3	-40.8	12.5	1.14e-01	0	60	0	2733637632	47	5002
2026-01-16 00:24:36.17	134.45	13.07	-38.4	-41.0	12.2	5.77e-02	0	60	0	2738880512	47	5148
2026-01-16 00:24:37.18	134.60	13.01	-38.5	-41.0	12.4	1.24e-01	0	61	0	2744123392	46	5458
2026-01-16 00:24:38.19	134.75	12.94	-24.3	-36.1	5.2	4.05e-01	0	61	0	2747269120	22	12310
2026-01-16 00:24:39.20	134.90	12.87	-38.3	-40.7	12.3	7.04e-02	0	60	0	2752512000	47	4928
2026-01-16 00:24:40.21	135.05	12.81	-37.1	-40.7	10.4	8.00e-02	0	60	0	2757754880	45	5567
2026-01-16 00:24:41.21	135.19	12.74	-38.5	-41.1	12.1	1.72e-01	0	60	0	2762997760	47	5162
2026-01-16 00:24:42.22	135.34	12.67	-38.4	-41.1	11.2	3.97e-02	0	60	0	2768240640	46	5497
2026-01-16 00:24:43.23	135.48	12.60	-38.3	-41.0	12.5	6.22e-02	0	60	0	2773483520	47	5142
2026-01-16 00:24:44.24	135.63	12.54	-38.5	-41.1	11.8	4.13e-02	0	60	0	2778726400	47	5169
2026-01-16 00:24:45.25	135.77	12.47	-38.5	-41.2	12.3	4.38e-02	0	61	0	2785017856	47	5237
2026-01-16 00:24:46.26	135.92	12.40	-38.5	-41.2	12.1	5.51e-02	0	60	0	2790260736	45	5895
2026-01-16 00:24:47.27	136.06	12.34	-38.5	-41.3	12.2	4.67e-02	0	60	0	2795503616	47	5298
2026-01-16 00:24:48.28	136.20	12.27	-33.0	-41.3	9.6	1.32e-01	0	61	0	2800746496	46	5610
2026-01-16 00:24:49.29	136.35	12.20	-38.5	-41.4	11.8	4.11e-01	0	60	0	2803892224	47	5348
2026-01-16 00:24:50.30	136.49	12.13	-38.6	-41.4	12.1	4.90e-02	0	60	0	2809135104	47	5357
2026-01-16 00:24:51.31	136.63	12.07	-38.5	-41.3	11.8	6.72e-02	0	61	0	2814377984	47	5319
2026-01-16 00:24:52.32	136.77	12.00	-38.2	-41.3	12.0	4.32e-02	0	61	0	2820669440	47	5313
2026-01-16 00:24:53.33	136.91	11.93	-38.5	-41.3	12.0	7.75e-01	0	60	0	2823815168	45	5933
2026-01-16 00:24:54.34	137.04	11.87	-38.3	-41.3	12.0	3.59e-02	0	60	0	2829058048	47	5307
2026-01-16 00:24:55.35	137.18	11.80	-35.2	-41.2	10.5	1.07e-01	0	60	0	2834300928	40	7898
2026-01-16 00:24:56.36	137.32	11.73	-37.6	-41.2	11.6	3.82e-02	0	60	0	2839543808	46	5539
2026-01-16 00:24:57.37	137.46	11.67	-37.4	-41.2	12.3	2.45e-02	0	60	0	2845835264	46	5559
2026-01-16 00:24:58.38	137.59	11.60	-38.6	-41.2	12.3	1.93e-02	0	61	0	2851078144	47	5277
2026-01-16 00:24:59.39	137.73	11.53	-38.6	-41.3	12.4	2.10e-02	0	61	0	2856321024	47	5306
2026-01-16 00:25:00.40	137.86	11.46	-38.6	-41.2	12.2	7.71e-03	0	60	0	2861563904	47	5271
2026-01-16 00:25:01.41	138.00	11.40	-38.5	-41.2	12.3	4.90e-03	0	60	0	2867855360	47	5233
2026-01-16 00:25:02.42	138.13	11.33	-39.0	-41.7	12.0	5.97e-03	0	60	0	2873098240	48	5270
2026-01-16 00:25:03.43	138.27	11.26	-37.1	-42.0	11.7	8.26e-03	0	60	0	2879389696	47	5735
2026-01-16 00:25:04.45	138.40	11.20	-39.1	-41.8	12.2	4.64e-03	0	61	0	2884632576	48	5298
2026-01-16 00:25:05.46	138.53	11.13	-39.0	-41.7	12.3	1.44e-02	0	60	0	2889875456	48	5229
2026-01-16 00:25:06.47	138.66	11.06	-39.3	-42.0	12.0	6.11e-03	0	60	0	2896166912	49	5159
2026-01-16 00:25:07.48	138.79	11.00	-39.4	-42.4	11.5	4.41e-02	0	61	0	2901409792	49	5374
2026-01-16 00:25:08.49	138.92	10.93	-39.2	-42.1	11.7	5.89e-01	0	60	0	2904555520	48	5467
2026-01-16 00:25:09.50	139.05	10.87	-39.1	-41.7	12.2	3.51e-02	0	60	0	2910846976	48	5269
2026-01-16 00:25:10.51	139.18	10.80	-38.9	-41.4	12.5	1.16e-03	0	61	0	2916089856	48	5074
2026-01-16 00:25:11.52	139.31	10.73	-38.6	-41.1	12.8	1.24e-03	0	60	0	2921332736	47	5168
2026-01-16 00:25:12.53	139.44	10.67	-38.2	-41.3	12.3	2.71e-03	0	61	0	2927624192	48	5030
2026-01-16 00:25:13.54	139.57	10.60	-39.0	-41.6	12.4	3.58e-04	0	61	0	2932867072	48	5204
2026-01-16 00:25:14.55	139.69	10.53	-39.1	-41.7	12.1	5.57e-04	0	61	0	2939158528	48	5262
2026-01-16 00:25:15.56	139.82	10.47	-39.1	-41.8	12.2	3.75e-04	0	61	0	2944401408	49	5001
2026-01-16 00:25:16.57	139.95	10.40	-38.9	-41.5	12.5	1.14e-03	0	61	0	2950692864	49	4851
2026-01-16 00:25:17.58	140.07	10.34	-39.0	-41.6	12.5	3.02e-04	0	60	0	2955935744	48	5185
2026-01-16 00:25:18.59	140.20	10.27	-39.0	-41.6	12.4	9.63e-04	0	61	0	2961178624	48	5217
2026-01-16 00:25:19.60	140.32	10.21	-38.9	-41.5	12.6	1.67e-04	0	60	0	2967470080	48	5110
2026-01-16 00:25:20.62	140.45	10.14	-39.1	-41.7	12.4	2.05e-04	0	61	0	2972712960	48	5243
2026-01-16 00:25:21.63	140.57	10.07	-39.0	-41.6	12.5	1.74e-04	0	60	0	2979004416	48	5199
2026-01-16 00:25:22.64	140.69	10.01	-38.9	-41.5	12.6	2.41e-04	0	60	0	2984247296	48	5158
2026-01-16 00:25:23.65	140.81	9.94	-39.2	-41.9	12.3	2.84e-04	0	60	0	2990538752	49	5043
2026-01-16 00:25:24.66	140.94	9.88	-39.3	-42.0	12.1	2.37e-04	0	60	0	2995781632	49	5157
2026-01-16 00:25:25.67	141.06	9.81	-39.3	-41.9	12.2	1.62e-04	0	60	0	3001024512	49	5096
2026-01-16 00:25:26.68	141.18	9.75	-39.4	-42.1	12.1	2.39e-04	0	61	0	3007315968	49	5180
2026-01-16 00:25:27.69	141.30	9.68	-39.4	-42.1	12.0	3.38e-04	0	61	0	3012558848	49	5216
2026-01-16 00:25:28.70	141.42	9.62	-39.3	-42.0	12.2	2.78e-04	0	60	0	3018850304	49	5145
2026-01-16 00:25:29.71	141.54	9.55	-39.4	-42.1	12.1	2.92e-04	0	61	0	3024093184	49	5211
2026-01-16 00:25:30.72	141.65	9.48	-39.4	-42.1	12.1	3.64e-04	0	60	0	3029336064	49	5195
2026-01-16 00:25:31.73	141.77	9.42	-39.3	-42.0	12.2	3.88e-04	0	60	0	3035627520	49	5129
2026-01-16 00:25:32.74	141.89	9.35	-39.4	-42.1	12.0	3.98e-04	0	60	0	3040870400	49	5196
2026-01-16 00:25:33.75	142.01	9.29	-39.5	-42.3	11.9	5.69e-04	0	60	0	3047161856	49	5294
2026-01-16 00:25:34.76	142.12	9.23	-39.6	-42.4	11.7	7.88e-04	0	60	0	3052404736	49	5379
2026-01-16 00:25:35.77	142.24	9.16	-39.7	-42.6	11.5	9.18e-04	0	60	0	3058696192	49	5488
2026-01-16 00:25:36.78	142.35	9.10	-39.5	-42.4	11.7	8.25e-04	0	61	0	3063939072	49	5373
2026-01-16 00:25:37.79	142.47	9.03	-39.5	-42.4	11.7	7.57e-04	0	61	0	3069181952	49	5356
2026-01-16 00:25:38.80	142.58	8.97	-39.5	-42.4	11.7	7.14e-04	0	60	0	3075473408	49	5352
2026-01-16 00:25:39.81	142.70	8.90	-39.5	-42.4	11.7	7.59e-04	0	61	0	3080716288	49	5379
2026-01-16 00:25:40.82	142.81	8.84	-39.5	-42.3	11.8	9.57e-04	0	61	0	3087007744	49	5320
2026-01-16 00:25:41.83	142.92	8.77	-39.5	-42.3	11.7	8.23e-04	0	60	0	3092250624	49	5317
2026-01-16 00:25:42.83	143.04	8.71	-39.5	-42.4	11.6	1.06e-03	0	61	0	3098542080	49	5395
2026-01-16 00:25:43.84	143.15	8.65	-39.5	-42.4	11.6	1.01e-03	0	61	0	3103784960	49	5364
2026-01-16 00:25:44.85	143.26	8.58	-39.5	-42.4	11.6	9.73e-04	0	61	0	3109027840	49	5373
2026-01-16 00:25:45.86	143.37	8.52	-39.5	-42.4	11.6	1.05e-03	0	61	0	3115319296	49	5368
2026-01-16 00:25:46.87	143.48	8.45	-39.6	-42.6	11.4	1.13e-03	0	61	0	3120562176	49	5478
2026-01-16 00:25:47.88	143.59	8.39	-39.6	-42.5	11.5	1.20e-03	0	61	0	3126853632	49	5438
2026-01-16 00:25:48.90	143.70	8.32	-39.6	-42.6	11.4	1.22e-03	0	61	0	3132096512	49	5477
2026-01-16 00:25:49.91	143.81	8.26	-39.6	-42.6	11.3	1.50e-03	0	60	0	3137339392	49	5503
2026-01-16 00:25:50.92	143.92	8.20	-39.8	-42.8	11.1	1.96e-03	0	60	0	3143630848	50	5314
2026-01-16 00:25:51.93	144.03	8.13	-39.7	-42.8	11.1	2.12e-03	0	61	0	3148873728	50	5292
2026-01-16 00:25:52.94	144.14	8.07	-39.7	-42.7	11.3	1.62e-03	0	61	0	3155165184	50	5224
2026-01-16 00:25:53.95	144.24	8.01	-39.7	-42.8	11.2	1.66e-03	0	61	0	3160408064	50	5284
2026-01-16 00:25:54.96	144.35	7.94	-43.2	-50.6	4.2	8.01e-01	0	60	104	3163553792	57	8679
2026-01-16 00:25:55.97	144.46	7.88	-43.2	-55.3	3.8	8.46e-01	0	61	104	3163553792	58	14150
2026-01-16 00:25:56.98	144.56	7.82	-44.8	-56.6	3.8	8.45e-01	0	61	104	3163553792	60	14650
2026-01-16 00:25:57.99	144.67	7.75	-45.1	-57.0	3.8	8.46e-01	0	61	104	3163553792	60	15327
2026-01-16 00:25:59.00	144.77	7.69	-45.3	-57.2	3.8	8.46e-01	0	60	104	3163553792	61	14745
2026-01-16 00:26:00.00	144.88	7.63	-45.4	-57.3	3.8	8.46e-01	0	61	104	3163553792	61	14989
2026-01-16 00:26:01.01	144.98	7.56	-45.5	-57.4	3.8	8.46e-01	0	61	104	3163553792	61	15118
2026-01-16 00:26:02.02	145.09	7.50	-45.6	-57.4	3.8	8.47e-01	0	61	104	3163553792	61	15193
2026-01-16 00:26:03.04	145.19	7.44	-45.6	-57.5	3.8	8.47e-01	0	60	104	3163553792	61	15298
2026-01-16 00:26:04.05	145.29	7.38	-45.6	-57.4	3.8	8.46e-01	0	60	104	3163553792	61	15135
2026-01-16 00:26:05.05	145.39	7.31	-45.5	-57.3	3.8	8.46e-01	0	61	104	3163553792	61	14981
2026-01-16 00:26:06.06	145.50	7.25	-45.5	-57.2	3.8	8.45e-01	0	61	104	3163553792	61	14769
2026-01-16 00:26:07.07	145.60	7.19	-45.5	-57.1	3.8	8.46e-01	0	61	104	3163553792	61	14645
2026-01-16 00:26:08.08	145.70	7.13	-45.4	-57.1	3.8	8.46e-01	0	61	104	3163553792	61	14615
2026-01-16 00:26:09.09	145.80	7.06	-45.4	-57.0	3.8	8.46e-01	0	61	104	3163553792	61	14497
2026-01-16 00:26:10.10	145.90	7.00	-45.3	-57.0	3.8	8.46e-01	0	61	104	3163553792	61	14454
2026-01-16 00:26:11.11	146.00	6.94	-45.3	-57.0	3.8	8.45e-01	0	61	104	3163553792	61	14391
2026-01-16 00:26:12.12	146.10	6.88	-45.3	-57.0	3.8	8.46e-01	0	61	104	3163553792	61	14376
2026-01-16 00:26:13.13	146.20	6.82	-45.3	-57.0	3.8	8.46e-01	0	61	104	3163553792	61	14400
2026-01-16 00:26:14.14	146.30	6.75	-45.3	-57.0	3.8	8.47e-01	0	61	104	3163553792	61	14426
2026-01-16 00:26:15.16	146.40	6.69	-45.3	-57.0	3.8	8.46e-01	0	61	104	3163553792	61	14397
2026-01-16 00:26:16.16	146.50	6.63	-45.3	-56.9	3.8	8.45e-01	0	61	104	3163553792	61	14359
2026-01-16 00:26:17.17	146.59	6.57	-45.3	-57.0	3.8	8.45e-01	0	61	104	3163553792	61	14379
2026-01-16 00:26:18.18	146.69	6.51	-45.3	-56.9	3.8	8.47e-01	0	61	104	3163553792	61	14362
2026-01-16 00:26:19.19	146.79	6.45	-45.3	-56.9	3.8	8.46e-01	0	60	104	3163553792	61	14331
2026-01-16 00:26:20.20	146.88	6.38	-45.3	-56.9	3.8	8.46e-01	0	61	104	3163553792	61	14364
2026-01-16 00:26:21.21	146.98	6.32	-45.3	-56.9	3.8	8.45e-01	0	61	104	3163553792	61	14350
2026-01-16 00:26:22.22	147.08	6.26	-45.3	-56.9	3.8	8.46e-01	0	61	104	3163553792	61	14223
2026-01-16 00:26:23.23	147.17	6.20	-45.3	-56.9	3.8	8.45e-01	0	61	104	3163553792	61	14323
2026-01-16 00:26:24.24	147.27	6.14	-45.3	-56.9	3.8	8.47e-01	0	61	104	3163553792	61	14289
2026-01-16 00:26:25.25	147.36	6.08	-45.3	-56.9	3.8	8.46e-01	0	61	104	3163553792	61	14337
