passes_logs/2026/01/16/R2.0S_Moscow/R2.0S_Moscow__20260116_015447_FENGYUN_3D_rec.log

#Pass ID: 20260116_015447_FENGYUN 3D
#Satellite: FENGYUN 3D
#Configuration: FENGYUN 3D
#almurnet v.1.7.20251203
#Start time: 2026-01-16 01:54:48

#Version: 2.2.20231116
#Station: R2.0S_Moscow
#Location: 37.707566 lon 55.798166 lat
#TLE: 1 43010U 17072A   26015.49690188 -.00000192  00000+0 -69217-4 0  9996
#TLE: 2 43010  98.9932 347.3205 0002350 106.2275 253.9159 14.19694721423329

#Time	Az	El	Level	Level2	SNR	BER	BlckErr	Temp	State	Recorded	gain1	gain2
2026-01-16 01:54:48.30	15.90	2.08	-42.7	-54.5	3.8	8.46e-01	0	51	0	0	57	13598
2026-01-16 01:54:49.30	15.90	2.14	-42.7	-54.5	3.8	8.45e-01	0	51	104	0	57	13602
2026-01-16 01:54:50.31	15.89	2.21	-42.7	-54.5	3.8	8.46e-01	0	51	104	0	57	13607
2026-01-16 01:54:51.32	15.89	2.27	-42.7	-54.5	3.8	8.47e-01	0	51	104	0	57	13636
2026-01-16 01:54:52.33	15.89	2.34	-42.7	-54.5	3.8	8.45e-01	0	51	104	0	57	13597
2026-01-16 01:54:53.33	15.88	2.40	-42.7	-54.5	3.8	8.45e-01	0	51	104	0	57	13640
2026-01-16 01:54:54.34	15.88	2.47	-42.7	-54.5	3.8	8.46e-01	0	51	104	0	57	13604
2026-01-16 01:54:55.35	15.88	2.53	-42.7	-54.4	3.8	8.46e-01	0	52	104	0	57	13564
2026-01-16 01:54:56.36	15.87	2.60	-42.7	-54.4	3.8	8.47e-01	0	52	104	0	57	13557
2026-01-16 01:54:57.37	15.87	2.66	-42.7	-54.4	3.8	8.46e-01	0	52	104	0	57	13505
2026-01-16 01:54:58.39	15.87	2.73	-42.7	-54.4	3.8	8.46e-01	0	52	104	0	57	13568
2026-01-16 01:54:59.40	15.86	2.80	-42.7	-54.4	3.8	8.45e-01	0	52	104	0	57	13525
2026-01-16 01:55:00.41	15.86	2.86	-42.7	-54.4	3.8	8.45e-01	0	52	104	0	57	13543
2026-01-16 01:55:01.42	15.86	2.93	-42.7	-54.5	3.8	8.46e-01	0	52	104	0	57	13588
2026-01-16 01:55:02.43	15.85	3.00	-42.7	-54.4	3.8	8.47e-01	0	52	104	0	57	13553
2026-01-16 01:55:03.44	15.85	3.06	-42.7	-54.5	3.8	8.45e-01	0	53	104	0	57	13570
2026-01-16 01:55:04.45	15.85	3.13	-42.7	-54.4	3.8	8.46e-01	0	53	104	0	57	13521
2026-01-16 01:55:05.46	15.84	3.20	-42.7	-54.4	3.8	8.47e-01	0	52	104	0	57	13554
2026-01-16 01:55:06.47	15.84	3.26	-42.7	-54.5	3.8	8.46e-01	0	52	104	0	57	13593
2026-01-16 01:55:07.47	15.84	3.33	-42.7	-54.4	3.8	8.46e-01	0	52	104	0	57	13564
2026-01-16 01:55:08.48	15.83	3.40	-42.7	-54.5	3.8	8.46e-01	0	53	104	0	57	13590
2026-01-16 01:55:09.49	15.83	3.47	-42.7	-54.5	3.8	8.46e-01	0	53	104	0	57	13583
2026-01-16 01:55:10.50	15.82	3.53	-42.7	-54.5	3.8	8.47e-01	0	53	104	0	57	13604
2026-01-16 01:55:11.51	15.82	3.60	-42.7	-54.5	3.8	8.46e-01	0	53	104	0	57	13574
2026-01-16 01:55:12.52	15.82	3.67	-42.7	-54.5	3.8	8.46e-01	0	53	104	0	57	13576
2026-01-16 01:55:13.53	15.81	3.74	-42.7	-54.5	3.8	8.46e-01	0	53	104	0	57	13585
2026-01-16 01:55:14.54	15.81	3.81	-42.7	-54.4	3.8	8.45e-01	0	53	104	0	57	13563
2026-01-16 01:55:15.55	15.80	3.88	-42.7	-54.4	3.8	8.46e-01	0	53	104	0	57	13545
2026-01-16 01:55:16.56	15.80	3.95	-42.7	-54.5	3.8	8.46e-01	0	53	104	0	57	13576
2026-01-16 01:55:17.58	15.80	4.01	-42.7	-54.4	3.8	8.46e-01	0	53	104	0	57	13563
2026-01-16 01:55:18.59	15.79	4.08	-42.7	-54.4	3.8	8.46e-01	0	53	104	0	57	13553
2026-01-16 01:55:19.60	15.79	4.15	-42.7	-54.4	3.8	8.46e-01	0	53	104	0	57	13547
2026-01-16 01:55:20.61	15.78	4.22	-42.7	-54.4	3.8	8.46e-01	0	53	104	0	57	13540
2026-01-16 01:55:21.62	15.78	4.29	-42.7	-54.5	3.8	8.46e-01	0	53	104	0	57	13571
2026-01-16 01:55:22.63	15.78	4.36	-42.7	-54.4	3.8	8.46e-01	0	53	104	0	57	13562
2026-01-16 01:55:23.64	15.77	4.43	-42.7	-54.4	3.8	8.46e-01	0	54	104	0	57	13533
2026-01-16 01:55:24.65	15.77	4.50	-42.7	-54.4	3.8	8.46e-01	0	54	104	0	57	13538
2026-01-16 01:55:25.66	15.76	4.57	-42.7	-54.5	3.8	8.46e-01	0	54	104	0	57	13580
2026-01-16 01:55:26.67	15.76	4.65	-42.7	-54.4	3.8	8.47e-01	0	54	104	0	57	13517
2026-01-16 01:55:27.68	15.75	4.72	-42.7	-54.5	3.8	8.46e-01	0	54	104	0	57	13570
2026-01-16 01:55:28.69	15.75	4.79	-42.7	-54.4	3.8	8.45e-01	0	54	104	0	57	13508
2026-01-16 01:55:29.70	15.74	4.86	-42.7	-54.4	3.8	8.45e-01	0	54	104	0	57	13520
2026-01-16 01:55:30.71	15.74	4.93	-42.7	-54.4	3.8	8.45e-01	0	54	104	0	57	13510
2026-01-16 01:55:31.72	15.73	5.00	-42.7	-54.4	3.8	8.46e-01	0	54	104	0	57	13517
2026-01-16 01:55:32.73	15.73	5.07	-42.7	-54.4	3.8	8.46e-01	0	54	104	0	57	13444
2026-01-16 01:55:33.74	15.73	5.15	-42.7	-54.4	3.8	8.45e-01	0	54	104	0	57	13528
2026-01-16 01:55:34.75	15.72	5.22	-42.7	-54.3	3.8	8.46e-01	0	54	104	0	57	13372
2026-01-16 01:55:35.76	15.72	5.29	-42.7	-54.3	3.8	8.46e-01	0	54	104	0	57	13388
2026-01-16 01:55:36.77	15.71	5.36	-42.7	-54.4	3.8	8.47e-01	0	54	104	0	57	13501
2026-01-16 01:55:37.78	15.71	5.44	-42.7	-54.3	3.8	8.46e-01	0	54	104	0	57	13408
2026-01-16 01:55:38.79	15.70	5.51	-42.7	-54.3	3.8	8.45e-01	0	54	104	0	57	13265
2026-01-16 01:55:39.80	15.70	5.58	-42.7	-54.3	3.8	8.47e-01	0	55	104	0	57	13336
2026-01-16 01:55:40.81	15.69	5.66	-42.7	-54.4	3.8	8.46e-01	0	55	104	0	57	13459
2026-01-16 01:55:41.82	15.69	5.73	-42.7	-54.3	3.8	8.46e-01	0	55	104	0	57	13301
2026-01-16 01:55:42.83	15.68	5.80	-42.6	-54.2	3.8	8.46e-01	0	55	104	0	57	13148
2026-01-16 01:55:43.84	15.68	5.88	-42.7	-54.3	3.8	8.46e-01	0	55	104	0	57	13315
2026-01-16 01:55:44.86	15.67	5.95	-42.7	-54.4	3.8	8.45e-01	0	55	104	0	57	13464
2026-01-16 01:55:45.87	15.66	6.03	-42.7	-54.3	3.8	8.45e-01	0	55	104	0	57	13369
2026-01-16 01:55:46.88	15.66	6.10	-42.6	-54.1	3.8	8.46e-01	0	55	104	0	57	12963
2026-01-16 01:55:47.89	15.65	6.18	-42.6	-53.8	3.8	8.45e-01	0	55	104	0	57	12610
2026-01-16 01:55:48.90	15.65	6.25	-42.6	-53.7	3.8	8.47e-01	0	55	104	0	57	12428
2026-01-16 01:55:49.91	15.64	6.33	-42.6	-53.7	3.8	8.47e-01	0	55	104	0	57	12464
2026-01-16 01:55:50.92	15.64	6.40	-42.6	-53.8	3.8	8.47e-01	0	55	104	0	57	12592
2026-01-16 01:55:51.93	15.63	6.48	-42.6	-53.7	3.8	8.47e-01	0	55	104	0	57	12431
2026-01-16 01:55:52.94	15.63	6.56	-42.6	-53.5	3.8	8.46e-01	0	55	104	0	57	12203
2026-01-16 01:55:53.95	15.62	6.63	-42.5	-53.1	3.8	8.45e-01	0	55	104	0	57	11636
2026-01-16 01:55:54.96	15.61	6.71	-42.5	-52.6	3.8	8.46e-01	0	55	104	0	57	10981
2026-01-16 01:55:55.97	15.61	6.79	-42.4	-52.1	4.0	8.45e-01	0	55	104	0	56	10909
2026-01-16 01:55:56.98	15.60	6.86	-42.3	-51.3	4.1	8.41e-01	0	56	0	0	56	10037
2026-01-16 01:55:57.99	15.60	6.94	-42.1	-50.3	4.4	8.37e-01	0	56	0	0	56	8900
2026-01-16 01:55:59.00	15.59	7.02	-41.8	-48.9	4.9	8.03e-01	0	56	0	0	55	8040
2026-01-16 01:56:00.01	15.58	7.10	-41.4	-47.6	5.7	6.13e-01	0	55	0	0	54	7341
2026-01-16 01:56:01.02	15.58	7.17	-41.0	-46.3	6.8	2.62e-01	0	55	0	6291456	54	6296
2026-01-16 01:56:02.04	15.57	7.25	-40.5	-44.9	8.0	1.22e-01	0	56	0	11534336	53	5702
2026-01-16 01:56:03.05	15.57	7.33	-40.0	-43.8	9.3	3.09e-02	0	55	0	16777216	51	5615
2026-01-16 01:56:04.05	15.56	7.41	-39.4	-42.7	10.5	9.79e-03	0	56	0	23068672	50	5231
2026-01-16 01:56:05.07	15.55	7.49	-39.0	-42.0	11.2	2.72e-03	0	56	0	28311552	50	4819
2026-01-16 01:56:06.08	15.55	7.57	-38.6	-41.4	11.8	8.78e-04	0	56	0	34603008	49	4761
2026-01-16 01:56:07.09	15.54	7.65	-38.5	-41.3	12.0	5.00e-04	0	56	0	39845888	49	4714
2026-01-16 01:56:08.10	15.53	7.73	-38.9	-41.8	11.4	9.67e-04	0	56	0	46137344	49	5015
2026-01-16 01:56:09.11	15.53	7.81	-39.5	-42.9	10.2	4.70e-03	0	56	0	51380224	49	5687
2026-01-16 01:56:10.12	15.52	7.89	-40.1	-43.9	9.2	1.96e-02	0	56	0	56623104	50	6051
2026-01-16 01:56:11.13	15.51	7.97	-40.0	-43.9	9.2	2.79e-02	0	56	0	62914560	50	6028
2026-01-16 01:56:12.14	15.51	8.05	-39.7	-43.2	9.9	1.38e-02	0	56	0	68157440	50	5581
2026-01-16 01:56:13.15	15.50	8.13	-40.6	-45.0	8.2	5.34e-02	0	56	0	74448896	51	6489
2026-01-16 01:56:14.16	15.49	8.21	-42.0	-50.0	4.4	8.24e-01	0	56	0	76546048	54	9702
2026-01-16 01:56:15.17	15.49	8.29	-40.9	-45.5	7.7	1.18e-01	0	56	0	81788928	52	6442
2026-01-16 01:56:16.18	15.48	8.37	-40.5	-44.3	9.3	2.79e-02	0	56	0	87031808	52	5597
2026-01-16 01:56:17.19	15.47	8.46	-41.7	-50.9	3.9	6.81e-01	0	56	104	90177536	54	10708
2026-01-16 01:56:18.20	15.46	8.54	-39.5	-42.4	11.2	3.80e-03	0	56	0	93323264	51	4802
2026-01-16 01:56:19.21	15.46	8.62	-39.6	-42.6	11.0	2.39e-03	0	56	0	98566144	51	4899
2026-01-16 01:56:20.22	15.45	8.70	-39.5	-42.5	11.1	2.46e-03	0	56	0	104857600	51	4836
2026-01-16 01:56:21.23	15.44	8.79	-39.2	-41.9	11.8	9.52e-04	0	56	0	110100480	50	4770
2026-01-16 01:56:22.25	15.44	8.87	-39.2	-42.0	11.8	5.79e-04	0	56	0	115343360	50	4832
2026-01-16 01:56:23.25	15.43	8.95	-39.4	-42.3	11.5	1.27e-03	0	56	0	121634816	50	4985
2026-01-16 01:56:24.26	15.42	9.04	-39.3	-42.0	11.7	7.37e-04	0	56	0	126877696	50	4858
2026-01-16 01:56:25.28	15.41	9.12	-39.5	-42.4	11.4	1.25e-03	0	56	0	133169152	50	5087
2026-01-16 01:56:26.29	15.41	9.21	-39.3	-42.0	11.9	7.86e-04	0	56	0	138412032	50	4828
2026-01-16 01:56:27.30	15.40	9.29	-39.4	-42.1	11.8	5.34e-04	0	56	0	143654912	50	4911
2026-01-16 01:56:28.30	15.39	9.38	-39.2	-41.8	12.2	3.94e-04	0	57	0	149946368	50	4749
2026-01-16 01:56:29.31	15.38	9.46	-39.3	-42.0	12.1	3.72e-04	0	56	0	155189248	50	4816
2026-01-16 01:56:30.32	15.37	9.55	-39.3	-41.9	12.2	4.30e-04	0	56	0	161480704	50	4774
2026-01-16 01:56:31.33	15.37	9.63	-39.3	-41.9	12.1	3.40e-04	0	56	0	166723584	50	4778
2026-01-16 01:56:32.34	15.36	9.72	-39.2	-41.8	12.3	2.59e-04	0	57	0	173015040	50	4715
2026-01-16 01:56:33.35	15.35	9.81	-39.3	-41.8	12.2	2.89e-04	0	57	0	178257920	50	4754
2026-01-16 01:56:34.37	15.34	9.89	-39.3	-41.8	12.3	3.15e-04	0	57	0	184549376	50	4751
2026-01-16 01:56:35.37	15.33	9.98	-39.2	-41.8	12.3	2.54e-04	0	57	0	189792256	50	4708
2026-01-16 01:56:36.38	15.32	10.07	-39.1	-41.7	12.5	2.59e-04	0	57	0	195035136	50	4657
2026-01-16 01:56:37.39	15.32	10.15	-39.2	-41.7	12.4	2.09e-04	0	57	0	201326592	50	4691
2026-01-16 01:56:38.40	15.31	10.24	-39.2	-41.8	12.4	1.85e-04	0	57	0	206569472	50	4711
2026-01-16 01:56:39.41	15.30	10.33	-39.2	-41.7	12.5	1.86e-04	0	57	0	212860928	50	4682
2026-01-16 01:56:40.42	15.29	10.42	-39.2	-41.7	12.5	2.08e-04	0	57	0	218103808	50	4667
2026-01-16 01:56:41.43	15.28	10.51	-39.2	-41.6	12.5	1.60e-04	0	57	0	223346688	50	4647
2026-01-16 01:56:42.45	15.27	10.60	-39.2	-41.6	12.6	1.84e-04	0	57	0	229638144	50	4650
2026-01-16 01:56:43.45	15.26	10.69	-39.2	-41.6	12.6	1.48e-04	0	57	0	234881024	50	4640
2026-01-16 01:56:44.47	15.25	10.78	-39.2	-41.7	12.6	1.76e-04	0	57	0	241172480	50	4674
2026-01-16 01:56:45.48	15.25	10.87	-39.2	-41.7	12.6	1.64e-04	0	57	0	246415360	50	4665
2026-01-16 01:56:46.48	15.24	10.96	-39.2	-41.7	12.6	1.72e-04	0	57	0	251658240	50	4666
2026-01-16 01:56:47.49	15.23	11.05	-39.2	-41.7	12.6	1.46e-04	0	57	0	257949696	50	4681
2026-01-16 01:56:48.50	15.22	11.14	-39.2	-41.7	12.6	1.45e-04	0	57	0	263192576	50	4685
2026-01-16 01:56:49.52	15.21	11.23	-39.3	-41.7	12.6	1.67e-04	0	57	0	269484032	50	4694
2026-01-16 01:56:50.53	15.20	11.33	-39.3	-41.7	12.6	1.17e-04	0	57	0	274726912	50	4688
2026-01-16 01:56:51.53	15.19	11.42	-39.2	-41.7	12.7	1.48e-04	0	57	0	281018368	50	4672
2026-01-16 01:56:52.54	15.18	11.51	-39.2	-41.6	12.7	1.27e-04	0	57	0	286261248	50	4644
2026-01-16 01:56:53.55	15.17	11.60	-39.2	-41.6	12.8	9.49e-05	0	57	0	292552704	50	4614
2026-01-16 01:56:54.56	15.16	11.70	-39.2	-41.6	12.8	1.09e-04	0	57	0	297795584	50	4608
2026-01-16 01:56:55.57	15.15	11.79	-39.2	-41.6	12.8	9.38e-05	0	57	0	303038464	50	4609
2026-01-16 01:56:56.58	15.14	11.88	-39.2	-41.7	12.8	9.72e-05	0	57	0	309329920	50	4660
2026-01-16 01:56:57.59	15.13	11.98	-39.1	-41.5	12.9	9.26e-05	0	57	0	314572800	50	4592
2026-01-16 01:56:58.60	15.12	12.07	-39.2	-41.6	12.9	8.12e-05	0	57	0	320864256	50	4603
2026-01-16 01:56:59.61	15.11	12.17	-39.1	-41.5	12.9	6.40e-05	0	57	0	326107136	50	4568
2026-01-16 01:57:00.62	15.10	12.26	-39.1	-41.4	13.0	6.63e-05	0	57	0	331350016	50	4542
2026-01-16 01:57:01.63	15.09	12.36	-39.1	-41.4	13.0	5.72e-05	0	57	0	337641472	50	4541
2026-01-16 01:57:02.64	15.08	12.46	-39.1	-41.4	13.1	5.26e-05	0	57	0	342884352	50	4514
2026-01-16 01:57:03.65	15.07	12.55	-39.1	-41.4	13.1	5.03e-05	0	57	0	349175808	50	4512
2026-01-16 01:57:04.66	15.06	12.65	-39.0	-41.3	13.2	4.80e-05	0	58	0	354418688	50	4449
2026-01-16 01:57:05.67	15.04	12.75	-39.0	-41.3	13.2	4.34e-05	0	58	0	359661568	49	4726
2026-01-16 01:57:06.68	15.03	12.85	-39.0	-41.3	13.2	4.92e-05	0	57	0	365953024	49	4758
2026-01-16 01:57:07.69	15.02	12.94	-38.9	-41.2	13.3	3.54e-05	0	57	0	371195904	49	4683
2026-01-16 01:57:08.70	15.01	13.04	-39.0	-41.3	13.3	3.20e-05	0	58	0	377487360	49	4726
2026-01-16 01:57:09.71	15.00	13.14	-39.0	-41.2	13.4	2.74e-05	0	57	0	382730240	49	4684
2026-01-16 01:57:10.72	14.99	13.24	-39.0	-41.3	13.3	3.54e-05	0	57	0	389021696	49	4710
2026-01-16 01:57:11.73	14.98	13.34	-39.0	-41.2	13.4	2.28e-05	0	57	0	394264576	49	4686
2026-01-16 01:57:12.74	14.97	13.44	-39.0	-41.2	13.4	2.63e-05	0	57	0	399507456	49	4699
2026-01-16 01:57:13.75	14.95	13.54	-38.9	-41.2	13.5	1.37e-05	0	57	0	405798912	49	4655
2026-01-16 01:57:14.76	14.94	13.64	-38.9	-41.0	13.6	1.83e-05	0	57	0	411041792	49	4595
2026-01-16 01:57:15.76	14.93	13.75	-38.9	-41.0	13.7	1.02e-05	0	58	0	417333248	49	4575
2026-01-16 01:57:16.77	14.92	13.85	-38.9	-41.0	13.7	1.02e-05	0	58	0	422576128	49	4576
2026-01-16 01:57:17.78	14.91	13.95	-38.8	-41.0	13.7	6.80e-06	0	58	0	427819008	49	4548
2026-01-16 01:57:18.80	14.89	14.05	-38.8	-40.9	13.8	1.71e-05	0	58	0	434110464	49	4531
2026-01-16 01:57:19.80	14.88	14.16	-38.7	-40.9	13.9	6.80e-06	0	58	0	439353344	49	4504
2026-01-16 01:57:20.81	14.87	14.26	-38.7	-40.8	13.9	1.14e-05	0	57	0	445644800	49	4478
2026-01-16 01:57:21.82	14.86	14.36	-38.7	-40.8	14.0	4.50e-06	0	58	0	450887680	49	4444
2026-01-16 01:57:22.83	14.84	14.47	-38.6	-40.7	14.0	4.50e-06	0	58	0	456130560	49	4429
2026-01-16 01:57:23.84	14.83	14.57	-38.6	-40.7	14.1	4.50e-06	0	58	0	462422016	49	4412
2026-01-16 01:57:24.85	14.82	14.68	-38.6	-40.7	14.1	1.10e-06	0	58	0	467664896	49	4394
2026-01-16 01:57:25.86	14.80	14.79	-38.5	-40.6	14.2	2.20e-06	0	58	0	473956352	49	4355
2026-01-16 01:57:26.87	14.79	14.89	-38.5	-40.5	14.3	4.50e-06	0	58	0	479199232	49	4311
2026-01-16 01:57:27.88	14.78	15.00	-38.4	-40.4	14.5	3.40e-06	0	58	0	485490688	48	4506
2026-01-16 01:57:28.89	14.76	15.11	-38.4	-40.4	14.4	0.00e+00	0	58	0	490733568	48	4494
2026-01-16 01:57:29.91	14.75	15.22	-38.4	-40.4	14.5	0.00e+00	0	58	0	497025024	48	4504
2026-01-16 01:57:30.92	14.74	15.32	-38.4	-40.3	14.5	1.10e-06	0	58	0	502267904	48	4480
2026-01-16 01:57:31.93	14.72	15.43	-38.3	-40.2	14.6	0.00e+00	0	58	0	507510784	48	4433
2026-01-16 01:57:32.94	14.71	15.54	-38.2	-40.2	14.7	0.00e+00	0	58	0	513802240	48	4399
2026-01-16 01:57:33.95	14.69	15.65	-38.2	-40.2	14.7	0.00e+00	0	58	0	519045120	48	4392
2026-01-16 01:57:34.96	14.68	15.76	-38.2	-40.1	14.8	2.20e-06	0	58	0	525336576	48	4372
2026-01-16 01:57:35.97	14.67	15.87	-38.1	-40.0	14.9	0.00e+00	0	58	0	530579456	48	4322
2026-01-16 01:57:36.98	14.65	15.98	-38.1	-40.0	14.9	0.00e+00	0	58	0	535822336	48	4322
2026-01-16 01:57:37.99	14.64	16.10	-38.1	-40.0	14.9	0.00e+00	0	58	0	542113792	48	4320
2026-01-16 01:57:39.00	14.62	16.21	-38.1	-39.9	15.0	0.00e+00	0	58	0	547356672	48	4286
2026-01-16 01:57:40.01	14.61	16.32	-38.0	-39.9	15.1	0.00e+00	0	58	0	553648128	48	4255
2026-01-16 01:57:41.02	14.59	16.44	-38.0	-39.8	15.1	0.00e+00	0	58	0	558891008	48	4240
2026-01-16 01:57:42.03	14.58	16.55	-37.9	-39.7	15.2	1.10e-06	0	58	0	564133888	47	4428
2026-01-16 01:57:43.04	14.56	16.66	-37.8	-39.6	15.3	0.00e+00	0	58	0	570425344	47	4388
2026-01-16 01:57:44.05	14.54	16.78	-37.8	-39.6	15.3	0.00e+00	0	58	0	575668224	47	4370
2026-01-16 01:57:45.06	14.53	16.89	-37.8	-39.6	15.3	0.00e+00	0	58	0	581959680	47	4363
2026-01-16 01:57:46.07	14.51	17.01	-37.8	-39.6	15.3	0.00e+00	0	58	0	587202560	47	4355
2026-01-16 01:57:47.08	14.50	17.13	-37.7	-39.5	15.4	0.00e+00	0	58	0	593494016	47	4335
2026-01-16 01:57:48.09	14.48	17.24	-37.7	-39.5	15.4	0.00e+00	0	58	0	598736896	47	4326
2026-01-16 01:57:49.10	14.46	17.36	-37.7	-39.5	15.5	0.00e+00	0	58	0	605028352	47	4313
2026-01-16 01:57:50.11	14.45	17.48	-37.7	-39.5	15.5	0.00e+00	0	58	0	610271232	47	4296
2026-01-16 01:57:51.12	14.43	17.60	-37.6	-39.4	15.6	0.00e+00	0	58	0	615514112	47	4265
2026-01-16 01:57:52.13	14.41	17.72	-37.6	-39.4	15.6	0.00e+00	0	58	0	621805568	47	4260
2026-01-16 01:57:53.14	14.40	17.84	-37.6	-39.3	15.7	0.00e+00	0	58	0	627048448	47	4207
2026-01-16 01:57:54.15	14.38	17.96	-37.6	-39.3	15.7	0.00e+00	0	58	0	633339904	47	4228
2026-01-16 01:57:55.16	14.36	18.08	-37.6	-39.3	15.7	0.00e+00	0	58	0	638582784	47	4233
2026-01-16 01:57:56.17	14.35	18.20	-37.6	-39.4	15.6	0.00e+00	0	58	0	643825664	47	4260
2026-01-16 01:57:57.18	14.33	18.33	-37.6	-39.3	15.7	0.00e+00	0	58	0	650117120	47	4239
2026-01-16 01:57:58.19	14.31	18.45	-37.6	-39.3	15.7	0.00e+00	0	59	0	655360000	47	4217
2026-01-16 01:57:59.20	14.29	18.57	-37.6	-39.3	15.8	0.00e+00	0	58	0	660602880	47	4204
2026-01-16 01:58:00.20	14.27	18.70	-37.5	-39.3	15.8	0.00e+00	0	59	0	666894336	47	4199
2026-01-16 01:58:01.21	14.26	18.82	-37.5	-39.3	15.8	0.00e+00	0	58	0	672137216	47	4194
2026-01-16 01:58:02.22	14.24	18.95	-37.5	-39.2	15.9	0.00e+00	0	58	0	678428672	46	4405
2026-01-16 01:58:03.23	14.22	19.07	-37.5	-39.2	15.9	0.00e+00	0	58	0	683671552	46	4399
2026-01-16 01:58:04.24	14.20	19.20	-37.5	-39.2	15.9	0.00e+00	0	58	0	689963008	46	4400
2026-01-16 01:58:05.25	14.18	19.33	-37.5	-39.2	15.9	0.00e+00	0	59	0	695205888	46	4402
2026-01-16 01:58:06.26	14.16	19.46	-37.4	-39.1	16.0	0.00e+00	0	59	0	701497344	46	4375
2026-01-16 01:58:07.27	14.14	19.58	-37.4	-39.1	16.0	0.00e+00	0	58	0	706740224	46	4369
2026-01-16 01:58:08.28	14.12	19.71	-37.4	-39.1	16.0	0.00e+00	0	59	0	711983104	46	4362
2026-01-16 01:58:09.29	14.10	19.84	-37.4	-39.1	16.0	0.00e+00	0	58	0	718274560	46	4365
2026-01-16 01:58:10.30	14.08	19.98	-37.4	-39.1	16.0	0.00e+00	0	58	0	723517440	46	4344
2026-01-16 01:58:11.31	14.06	20.11	-37.4	-39.0	16.1	0.00e+00	0	58	0	729808896	46	4327
2026-01-16 01:58:12.32	14.04	20.24	-37.4	-39.0	16.1	0.00e+00	0	59	0	735051776	46	4332
2026-01-16 01:58:13.33	14.02	20.37	-37.4	-39.0	16.1	0.00e+00	0	59	0	740294656	46	4339
2026-01-16 01:58:14.34	14.00	20.51	-37.4	-39.0	16.1	0.00e+00	0	59	0	746586112	46	4337
2026-01-16 01:58:15.35	13.98	20.64	-37.3	-38.9	16.2	0.00e+00	0	59	0	751828992	46	4287
2026-01-16 01:58:16.36	13.96	20.78	-37.3	-39.0	16.2	0.00e+00	0	59	0	758120448	46	4301
2026-01-16 01:58:17.37	13.93	20.91	-37.3	-38.9	16.2	0.00e+00	0	59	0	763363328	46	4281
2026-01-16 01:58:18.38	13.91	21.05	-37.3	-38.9	16.3	0.00e+00	0	59	0	768606208	46	4263
2026-01-16 01:58:19.39	13.89	21.19	-37.2	-38.9	16.3	0.00e+00	0	59	0	774897664	46	4249
2026-01-16 01:58:20.40	13.87	21.32	-37.2	-38.9	16.3	0.00e+00	0	59	0	780140544	46	4251
2026-01-16 01:58:21.41	13.84	21.46	-37.2	-38.8	16.3	0.00e+00	0	59	0	786432000	46	4238
2026-01-16 01:58:22.42	13.82	21.60	-37.1	-38.8	16.4	0.00e+00	0	59	0	791674880	46	4200
2026-01-16 01:58:23.43	13.80	21.74	-37.1	-38.7	16.5	0.00e+00	0	59	0	797966336	46	4171
2026-01-16 01:58:24.44	13.78	21.88	-37.1	-38.7	16.5	0.00e+00	0	59	0	803209216	46	4176
2026-01-16 01:58:25.45	13.75	22.03	-37.1	-38.7	16.5	0.00e+00	0	59	0	809500672	46	4149
2026-01-16 01:58:26.46	13.73	22.17	-37.0	-38.6	16.6	0.00e+00	0	59	0	814743552	46	4112
2026-01-16 01:58:27.47	13.70	22.31	-37.0	-38.5	16.6	0.00e+00	0	59	0	819986432	45	4336
2026-01-16 01:58:28.48	13.68	22.46	-36.9	-38.5	16.7	0.00e+00	0	59	0	826277888	45	4320
2026-01-16 01:58:29.49	13.66	22.60	-36.9	-38.5	16.7	0.00e+00	0	59	0	831520768	45	4299
2026-01-16 01:58:30.50	13.63	22.75	-36.8	-38.4	16.8	0.00e+00	0	59	0	836763648	45	4259
2026-01-16 01:58:31.50	13.61	22.89	-36.8	-38.4	16.8	0.00e+00	0	59	0	843055104	45	4264
2026-01-16 01:58:32.51	13.58	23.04	-36.8	-38.3	16.9	0.00e+00	0	59	0	848297984	45	4230
2026-01-16 01:58:33.52	13.55	23.19	-36.7	-38.3	16.9	0.00e+00	0	59	0	854589440	45	4206
2026-01-16 01:58:34.53	13.53	23.34	-36.7	-38.3	16.9	0.00e+00	0	59	0	859832320	45	4204
2026-01-16 01:58:35.54	13.50	23.49	-36.7	-38.2	17.0	0.00e+00	0	59	0	865075200	45	4189
2026-01-16 01:58:36.55	13.48	23.64	-36.7	-38.2	17.0	0.00e+00	0	59	0	871366656	45	4184
2026-01-16 01:58:37.56	13.45	23.79	-36.7	-38.2	17.0	0.00e+00	0	59	0	876609536	45	4182
2026-01-16 01:58:38.57	13.42	23.95	-36.7	-38.2	17.0	0.00e+00	0	59	0	882900992	45	4187
2026-01-16 01:58:39.59	13.39	24.10	-36.7	-38.2	17.0	0.00e+00	0	59	0	888143872	45	4171
2026-01-16 01:58:40.60	13.37	24.26	-36.6	-38.1	17.1	0.00e+00	0	59	0	894435328	45	4144
2026-01-16 01:58:41.60	13.34	24.41	-36.7	-38.2	17.0	0.00e+00	0	59	0	899678208	45	4186
2026-01-16 01:58:42.61	13.31	24.57	-36.7	-38.2	17.0	0.00e+00	0	59	0	905969664	45	4172
2026-01-16 01:58:43.62	13.28	24.72	-36.7	-38.2	17.1	0.00e+00	0	59	0	911212544	45	4153
2026-01-16 01:58:44.63	13.25	24.88	-36.6	-38.1	17.1	0.00e+00	0	59	0	916455424	45	4136
2026-01-16 01:58:45.64	13.22	25.04	-36.6	-38.1	17.2	0.00e+00	0	59	0	922746880	45	4114
2026-01-16 01:58:46.65	13.19	25.20	-36.7	-38.1	17.1	0.00e+00	0	59	0	927989760	45	4144
2026-01-16 01:58:47.66	13.16	25.36	-36.7	-38.2	17.1	0.00e+00	0	59	0	934281216	45	4148
2026-01-16 01:58:48.67	13.13	25.53	-36.7	-38.2	17.1	0.00e+00	0	59	0	939524096	45	4148
2026-01-16 01:58:49.68	13.10	25.69	-36.7	-38.2	17.1	0.00e+00	0	59	0	944766976	45	4155
2026-01-16 01:58:50.69	13.07	25.85	-36.7	-38.2	17.1	0.00e+00	0	59	0	951058432	45	4173
2026-01-16 01:58:51.70	13.04	26.02	-36.7	-38.2	17.1	0.00e+00	0	59	0	956301312	45	4165
2026-01-16 01:58:52.71	13.01	26.18	-36.7	-38.2	17.1	0.00e+00	0	59	0	962592768	45	4167
2026-01-16 01:58:53.72	12.97	26.35	-36.7	-38.2	17.1	0.00e+00	0	59	0	967835648	45	4147
2026-01-16 01:58:54.73	12.94	26.52	-36.6	-38.1	17.2	0.00e+00	0	59	0	973078528	45	4138
2026-01-16 01:58:55.74	12.91	26.69	-36.6	-38.1	17.2	0.00e+00	0	59	0	979369984	45	4100
2026-01-16 01:58:56.75	12.88	26.86	-36.5	-38.0	17.3	0.00e+00	0	59	0	984612864	45	4076
2026-01-16 01:58:57.76	12.84	27.03	-36.5	-38.0	17.3	0.00e+00	0	59	0	990904320	45	4063
2026-01-16 01:58:58.77	12.81	27.20	-36.5	-37.9	17.4	0.00e+00	0	59	0	996147200	45	4049
2026-01-16 01:58:59.78	12.77	27.38	-36.4	-37.9	17.4	0.00e+00	0	59	0	1002438656	44	4265
2026-01-16 01:59:00.79	12.74	27.55	-36.4	-37.9	17.5	0.00e+00	0	59	0	1007681536	44	4262
2026-01-16 01:59:01.80	12.70	27.73	-36.4	-37.9	17.4	0.00e+00	0	59	0	1013972992	44	4270
2026-01-16 01:59:02.81	12.67	27.91	-36.4	-37.9	17.4	0.00e+00	0	59	0	1019215872	44	4268
2026-01-16 01:59:03.82	12.63	28.08	-36.5	-37.9	17.4	0.00e+00	0	59	0	1024458752	44	4279
2026-01-16 01:59:04.83	12.59	28.26	-36.5	-37.9	17.4	0.00e+00	0	59	0	1030750208	44	4267
2026-01-16 01:59:05.83	12.56	28.44	-36.5	-37.9	17.4	0.00e+00	0	59	0	1035993088	44	4285
2026-01-16 01:59:06.84	12.52	28.62	-36.5	-38.0	17.4	0.00e+00	0	59	0	1041235968	44	4302
2026-01-16 01:59:07.86	12.48	28.81	-36.5	-38.0	17.4	0.00e+00	0	59	0	1047527424	44	4317
2026-01-16 01:59:08.87	12.44	28.99	-36.6	-38.0	17.3	0.00e+00	0	59	0	1052770304	44	4324
2026-01-16 01:59:09.88	12.40	29.18	-36.6	-38.1	17.3	0.00e+00	0	59	0	1059061760	44	4367
2026-01-16 01:59:10.89	12.36	29.37	-36.6	-38.1	17.2	0.00e+00	0	59	0	1064304640	44	4391
2026-01-16 01:59:11.90	12.32	29.55	-36.6	-38.1	17.3	0.00e+00	0	59	0	1070596096	44	4372
2026-01-16 01:59:12.91	12.28	29.74	-36.6	-38.1	17.2	0.00e+00	0	59	0	1075838976	44	4376
2026-01-16 01:59:13.92	12.24	29.93	-36.6	-38.1	17.3	0.00e+00	0	59	0	1081081856	44	4364
2026-01-16 01:59:14.92	12.20	30.12	-36.6	-38.1	17.3	0.00e+00	0	59	0	1087373312	44	4349
2026-01-16 01:59:15.93	12.16	30.31	-36.6	-38.1	17.3	0.00e+00	0	59	0	1092616192	44	4345
2026-01-16 01:59:16.94	12.11	30.51	-36.5	-38.0	17.3	0.00e+00	0	59	0	1098907648	44	4326
2026-01-16 01:59:17.95	12.07	30.70	-36.5	-38.0	17.4	0.00e+00	0	59	0	1104150528	44	4324
2026-01-16 01:59:18.96	12.03	30.90	-36.5	-37.9	17.5	0.00e+00	0	59	0	1110441984	44	4282
2026-01-16 01:59:19.97	11.98	31.10	-36.4	-37.9	17.5	0.00e+00	0	59	0	1115684864	44	4249
2026-01-16 01:59:20.98	11.94	31.30	-36.3	-37.8	17.6	0.00e+00	0	59	0	1120927744	44	4204
2026-01-16 01:59:21.99	11.89	31.50	-36.2	-37.6	17.8	0.00e+00	0	59	0	1127219200	44	4139
2026-01-16 01:59:23.00	11.84	31.70	-36.2	-37.6	17.8	0.00e+00	0	59	0	1132462080	44	4106
2026-01-16 01:59:24.01	11.80	31.90	-36.1	-37.5	17.9	0.00e+00	0	59	0	1138753536	44	4084
2026-01-16 01:59:25.02	11.75	32.11	-36.0	-37.4	17.9	0.00e+00	0	59	0	1143996416	44	4043
2026-01-16 01:59:26.03	11.70	32.31	-36.0	-37.4	18.0	0.00e+00	0	59	0	1149239296	44	4020
2026-01-16 01:59:27.03	11.65	32.52	-36.0	-37.4	18.0	0.00e+00	0	59	0	1155530752	44	4031
2026-01-16 01:59:28.04	11.60	32.73	-36.0	-37.4	18.1	0.00e+00	0	59	0	1160773632	44	4009
2026-01-16 01:59:29.06	11.55	32.94	-35.8	-37.2	18.0	0.00e+00	0	59	0	1167065088	43	4172
2026-01-16 01:59:30.07	11.50	33.15	-35.9	-37.2	18.0	0.00e+00	0	59	0	1172307968	43	4193
2026-01-16 01:59:31.07	11.45	33.36	-36.0	-37.4	17.9	0.00e+00	0	59	0	1177550848	43	4257
2026-01-16 01:59:32.08	11.40	33.58	-36.0	-37.4	17.9	0.00e+00	0	59	0	1183842304	43	4257
2026-01-16 01:59:33.09	11.34	33.80	-36.0	-37.4	17.9	0.00e+00	0	60	0	1189085184	43	4263
2026-01-16 01:59:34.10	11.29	34.01	-36.0	-37.4	17.9	0.00e+00	0	59	0	1195376640	43	4246
2026-01-16 01:59:35.11	11.23	34.23	-35.9	-37.3	18.0	0.00e+00	0	59	0	1200619520	43	4216
2026-01-16 01:59:36.12	11.18	34.45	-35.8	-37.2	18.1	0.00e+00	0	59	0	1206910976	43	4152
2026-01-16 01:59:37.13	11.12	34.68	-35.8	-37.1	18.1	0.00e+00	0	59	0	1212153856	43	4143
2026-01-16 01:59:38.14	11.07	34.90	-35.7	-37.1	18.2	0.00e+00	0	59	0	1217396736	43	4107
2026-01-16 01:59:39.15	11.01	35.13	-35.7	-37.1	18.2	0.00e+00	0	60	0	1223688192	43	4126
2026-01-16 01:59:40.16	10.95	35.35	-35.7	-37.1	18.1	0.00e+00	0	59	0	1228931072	43	4128
2026-01-16 01:59:41.17	10.89	35.58	-35.9	-37.3	18.0	0.00e+00	0	59	0	1235222528	43	4207
2026-01-16 01:59:42.18	10.83	35.81	-35.9	-37.4	17.9	0.00e+00	0	59	0	1240465408	43	4245
2026-01-16 01:59:43.19	10.77	36.04	-36.1	-37.5	17.8	0.00e+00	0	59	0	1245708288	43	4314
2026-01-16 01:59:44.20	10.70	36.28	-36.0	-37.4	17.8	0.00e+00	0	59	0	1251999744	43	4285
2026-01-16 01:59:45.21	10.64	36.51	-36.0	-37.4	17.9	0.00e+00	0	59	0	1257242624	43	4268
2026-01-16 01:59:46.22	10.57	36.75	-35.8	-37.2	18.1	0.00e+00	0	59	0	1263534080	43	4156
2026-01-16 01:59:47.23	10.51	36.99	-35.7	-37.1	18.1	0.00e+00	0	60	0	1268776960	43	4129
2026-01-16 01:59:48.24	10.44	37.23	-35.7	-37.1	18.2	0.00e+00	0	59	0	1274019840	43	4126
2026-01-16 01:59:49.25	10.37	37.47	-35.8	-37.2	18.1	0.00e+00	0	60	0	1280311296	43	4167
2026-01-16 01:59:50.26	10.31	37.72	-36.0	-37.4	17.9	0.00e+00	0	60	0	1285554176	43	4261
2026-01-16 01:59:51.27	10.24	37.96	-36.1	-37.5	17.8	0.00e+00	0	60	0	1291845632	43	4323
2026-01-16 01:59:52.28	10.17	38.21	-36.2	-37.6	17.7	0.00e+00	0	59	0	1297088512	43	4359
2026-01-16 01:59:53.29	10.09	38.46	-36.2	-37.7	17.6	0.00e+00	0	59	0	1303379968	43	4397
2026-01-16 01:59:54.30	10.02	38.71	-36.1	-37.5	17.8	0.00e+00	0	60	0	1308622848	43	4321
2026-01-16 01:59:55.31	9.95	38.96	-36.1	-37.5	17.8	0.00e+00	0	59	0	1314914304	43	4304
2026-01-16 01:59:56.32	9.87	39.22	-36.0	-37.4	17.9	0.00e+00	0	60	0	1320157184	43	4252
2026-01-16 01:59:57.33	9.79	39.47	-36.0	-37.4	17.9	0.00e+00	0	60	0	1325400064	43	4269
2026-01-16 01:59:58.34	9.71	39.73	-36.1	-37.5	17.8	0.00e+00	0	60	0	1331691520	43	4305
2026-01-16 01:59:59.35	9.63	39.99	-36.2	-37.6	17.7	0.00e+00	0	60	0	1336934400	43	4366
2026-01-16 02:00:00.36	9.55	40.25	-36.3	-37.8	17.5	0.00e+00	0	59	0	1343225856	43	4456
2026-01-16 02:00:01.37	9.47	40.52	-36.5	-38.0	17.3	0.00e+00	0	59	0	1348468736	43	4562
2026-01-16 02:00:02.38	9.39	40.78	-36.6	-38.1	17.2	0.00e+00	0	60	0	1353711616	43	4638
2026-01-16 02:00:03.39	9.30	41.05	-36.7	-38.2	17.1	0.00e+00	0	60	0	1360003072	43	4679
2026-01-16 02:00:04.40	9.22	41.32	-36.6	-38.1	17.2	0.00e+00	0	60	0	1365245952	43	4611
2026-01-16 02:00:05.40	9.13	41.59	-36.5	-38.0	17.3	0.00e+00	0	59	0	1371537408	43	4593
2026-01-16 02:00:06.41	9.04	41.86	-36.5	-38.0	17.3	0.00e+00	0	60	0	1376780288	43	4572
2026-01-16 02:00:07.42	8.95	42.14	-36.5	-38.0	17.3	0.00e+00	0	60	0	1382023168	43	4571
2026-01-16 02:00:08.43	8.85	42.42	-36.6	-38.1	17.3	0.00e+00	0	60	0	1388314624	43	4614
2026-01-16 02:00:09.44	8.76	42.70	-36.5	-38.0	17.3	0.00e+00	0	60	0	1393557504	43	4555
2026-01-16 02:00:10.45	8.66	42.98	-36.5	-38.0	17.4	0.00e+00	0	60	0	1399848960	43	4546
2026-01-16 02:00:11.46	8.57	43.26	-36.5	-37.9	17.4	0.00e+00	0	60	0	1405091840	43	4523
2026-01-16 02:00:12.47	8.47	43.55	-36.3	-37.7	17.6	0.00e+00	0	60	0	1411383296	43	4429
2026-01-16 02:00:13.48	8.36	43.83	-36.3	-37.7	17.6	0.00e+00	0	60	0	1416626176	43	4433
2026-01-16 02:00:14.49	8.26	44.12	-36.3	-37.7	17.6	0.00e+00	0	60	0	1421869056	43	4437
2026-01-16 02:00:15.50	8.15	44.42	-36.4	-37.8	17.5	0.00e+00	0	60	0	1428160512	43	4483
2026-01-16 02:00:16.51	8.05	44.71	-36.3	-37.7	17.6	0.00e+00	0	60	0	1433403392	43	4441
2026-01-16 02:00:17.52	7.94	45.01	-36.3	-37.8	17.6	0.00e+00	0	60	0	1439694848	43	4445
2026-01-16 02:00:18.53	7.82	45.30	-36.5	-38.0	17.4	0.00e+00	0	60	0	1444937728	43	4567
2026-01-16 02:00:19.54	7.71	45.60	-36.7	-38.2	17.2	0.00e+00	0	60	0	1450180608	43	4668
2026-01-16 02:00:20.55	7.59	45.91	-36.9	-38.4	17.2	0.00e+00	0	60	0	1456472064	44	4507
2026-01-16 02:00:21.56	7.47	46.21	-36.9	-38.4	17.1	0.00e+00	0	60	0	1461714944	44	4509
2026-01-16 02:00:22.57	7.35	46.52	-36.7	-38.2	17.4	0.00e+00	0	60	0	1468006400	44	4407
2026-01-16 02:00:23.58	7.23	46.83	-36.5	-37.9	17.6	0.00e+00	0	60	0	1473249280	44	4265
2026-01-16 02:00:24.59	7.10	47.14	-36.3	-37.7	17.8	0.00e+00	0	60	0	1478492160	44	4173
2026-01-16 02:00:25.60	6.97	47.45	-36.1	-37.5	18.0	0.00e+00	0	60	0	1484783616	44	4073
2026-01-16 02:00:26.61	6.84	47.77	-36.0	-37.4	18.2	0.00e+00	0	60	0	1490026496	44	4017
2026-01-16 02:00:27.62	6.71	48.08	-36.1	-37.5	18.1	0.00e+00	0	60	0	1496317952	44	4052
2026-01-16 02:00:28.63	6.57	48.40	-36.3	-37.6	17.9	0.00e+00	0	60	0	1501560832	44	4142
2026-01-16 02:00:29.64	6.43	48.73	-36.4	-37.8	17.7	0.00e+00	0	60	0	1507852288	44	4219
2026-01-16 02:00:30.65	6.29	49.05	-36.4	-37.8	17.7	0.00e+00	0	60	0	1513095168	44	4223
2026-01-16 02:00:31.66	6.14	49.38	-36.3	-37.7	17.8	0.00e+00	0	60	0	1519386624	44	4174
2026-01-16 02:00:32.67	5.99	49.70	-36.3	-37.7	17.8	0.00e+00	0	60	0	1524629504	44	4178
2026-01-16 02:00:33.68	5.84	50.03	-36.6	-38.1	17.4	0.00e+00	0	60	0	1529872384	44	4353
2026-01-16 02:00:34.69	5.68	50.37	-37.1	-38.6	16.9	0.00e+00	0	60	0	1536163840	44	4624
2026-01-16 02:00:35.70	5.52	50.70	-37.4	-39.0	16.5	0.00e+00	0	60	0	1541406720	45	4557
2026-01-16 02:00:36.71	5.36	51.04	-37.5	-39.1	16.5	0.00e+00	0	60	0	1547698176	45	4617
2026-01-16 02:00:37.72	5.19	51.38	-37.5	-39.2	16.1	0.00e+00	0	60	0	1552941056	45	4675
2026-01-16 02:00:38.73	5.02	51.72	-37.7	-39.5	15.9	0.00e+00	0	60	0	1558183936	45	4836
2026-01-16 02:00:39.74	4.84	52.06	-37.8	-39.6	15.8	0.00e+00	0	60	0	1564475392	46	4616
2026-01-16 02:00:40.75	4.66	52.41	-37.5	-39.3	16.1	0.00e+00	0	60	0	1569718272	46	4449
2026-01-16 02:00:41.76	4.48	52.76	-37.6	-39.3	16.0	0.00e+00	0	60	0	1576009728	46	4491
2026-01-16 02:00:42.78	4.29	53.11	-37.8	-39.6	15.7	0.00e+00	0	60	0	1581252608	46	4629
2026-01-16 02:00:43.79	4.10	53.46	-37.9	-39.7	15.6	0.00e+00	0	60	0	1586495488	46	4680
2026-01-16 02:00:44.80	3.90	53.82	-37.7	-39.5	15.8	0.00e+00	0	60	0	1592786944	46	4584
2026-01-16 02:00:45.81	3.69	54.17	-37.6	-39.3	16.0	0.00e+00	0	60	0	1598029824	46	4483
2026-01-16 02:00:46.82	3.49	54.53	-37.5	-39.2	16.1	0.00e+00	0	60	0	1604321280	46	4437
2026-01-16 02:00:47.83	3.27	54.89	-37.6	-39.4	16.0	0.00e+00	0	60	0	1609564160	46	4512
2026-01-16 02:00:48.84	3.05	55.26	-37.6	-39.4	16.0	0.00e+00	0	60	0	1615855616	46	4505
2026-01-16 02:00:49.85	2.83	55.62	-37.5	-39.2	16.2	0.00e+00	0	60	0	1621098496	46	4405
2026-01-16 02:00:50.86	2.60	55.99	-37.2	-38.8	16.5	0.00e+00	0	60	0	1627389952	46	4241
2026-01-16 02:00:51.87	2.36	56.36	-37.2	-38.8	16.5	0.00e+00	0	60	0	1632632832	46	4238
2026-01-16 02:00:52.88	2.11	56.73	-37.2	-38.9	16.4	0.00e+00	0	60	0	1637875712	46	4267
2026-01-16 02:00:53.89	1.86	57.10	-37.1	-38.8	16.5	0.00e+00	0	60	0	1644167168	46	4207
2026-01-16 02:00:54.90	1.60	57.48	-36.8	-38.5	16.8	0.00e+00	0	60	0	1649410048	45	4296
2026-01-16 02:00:55.91	1.34	57.85	-36.6	-38.1	17.2	0.00e+00	0	60	0	1655701504	45	4143
2026-01-16 02:00:56.92	1.07	58.23	-36.7	-38.3	17.0	0.00e+00	0	60	0	1660944384	45	4223
2026-01-16 02:00:57.93	0.78	58.61	-37.1	-38.8	16.5	0.00e+00	0	60	0	1666187264	45	4466
2026-01-16 02:00:58.94	0.50	58.99	-37.1	-38.8	16.5	0.00e+00	0	60	0	1672478720	45	4481
2026-01-16 02:00:59.95	0.20	59.38	-36.7	-38.3	17.0	0.00e+00	0	60	0	1677721600	45	4197
2026-01-16 02:01:00.96	359.89	59.76	-36.5	-38.0	17.3	0.00e+00	0	60	0	1684013056	45	4086
2026-01-16 02:01:01.97	359.57	60.15	-36.7	-38.2	17.1	0.00e+00	0	60	0	1689255936	45	4185
2026-01-16 02:01:02.98	359.25	60.54	-36.5	-38.1	17.2	0.00e+00	0	60	0	1694498816	45	4102
2026-01-16 02:01:03.99	358.91	60.93	-36.3	-37.8	17.5	0.00e+00	0	60	0	1700790272	44	4204
2026-01-16 02:01:05.00	358.56	61.32	-36.3	-37.8	17.5	0.00e+00	0	60	0	1706033152	44	4237
2026-01-16 02:01:06.01	358.21	61.72	-36.5	-38.1	17.3	0.00e+00	0	60	0	1712324608	44	4349
2026-01-16 02:01:07.02	357.84	62.11	-36.2	-37.7	17.6	0.00e+00	0	60	0	1717567488	44	4178
2026-01-16 02:01:08.04	357.45	62.51	-36.0	-37.4	17.9	0.00e+00	0	60	0	1723858944	44	4037
2026-01-16 02:01:09.05	357.05	62.91	-35.6	-37.0	18.1	0.00e+00	0	60	0	1729101824	43	4072
2026-01-16 02:01:10.05	356.65	63.30	-35.8	-37.3	17.9	0.00e+00	0	60	0	1735393280	43	4195
2026-01-16 02:01:11.06	356.23	63.70	-36.1	-37.7	17.4	0.00e+00	0	60	0	1740636160	43	4407
2026-01-16 02:01:12.07	355.79	64.10	-36.0	-37.5	17.6	0.00e+00	0	60	0	1745879040	43	4311
2026-01-16 02:01:13.08	355.33	64.50	-35.6	-37.1	18.0	0.00e+00	0	60	0	1752170496	43	4105
2026-01-16 02:01:14.10	354.86	64.91	-35.9	-37.4	17.7	0.00e+00	0	60	0	1757413376	43	4246
2026-01-16 02:01:15.11	354.37	65.31	-36.3	-38.0	17.1	0.00e+00	0	60	0	1763704832	43	4556
2026-01-16 02:01:16.12	353.87	65.71	-36.2	-37.8	17.3	0.00e+00	0	60	0	1768947712	43	4459
2026-01-16 02:01:17.13	353.34	66.11	-35.6	-37.1	18.0	0.00e+00	0	60	0	1774190592	43	4114
2026-01-16 02:01:18.14	352.80	66.51	-35.5	-36.9	18.2	0.00e+00	0	60	0	1780482048	42	4247
2026-01-16 02:01:19.15	352.23	66.92	-35.4	-36.8	18.3	0.00e+00	0	60	0	1785724928	42	4217
2026-01-16 02:01:20.16	351.65	67.32	-35.2	-36.7	18.4	0.00e+00	0	60	0	1792016384	42	4146
2026-01-16 02:01:21.16	351.04	67.72	-34.8	-36.1	18.9	0.00e+00	0	60	0	1797259264	41	4145
2026-01-16 02:01:22.17	350.41	68.12	-34.9	-36.3	18.7	0.00e+00	0	60	0	1802502144	41	4227
2026-01-16 02:01:23.18	349.75	68.52	-35.0	-36.5	18.5	0.00e+00	0	60	0	1808793600	41	4293
2026-01-16 02:01:24.19	349.06	68.92	-35.1	-36.5	18.4	0.00e+00	0	60	0	1814036480	41	4330
2026-01-16 02:01:25.20	348.34	69.32	-35.1	-36.5	18.5	0.00e+00	0	60	0	1820327936	41	4309
2026-01-16 02:01:26.21	347.59	69.72	-35.0	-36.4	18.6	0.00e+00	0	60	0	1825570816	41	4262
2026-01-16 02:01:27.22	346.81	70.11	-35.0	-36.4	18.6	0.00e+00	0	60	0	1831862272	41	4265
2026-01-16 02:01:28.23	346.00	70.50	-34.9	-36.2	18.7	0.00e+00	0	60	0	1837105152	41	4180
2026-01-16 02:01:29.24	345.15	70.90	-34.7	-36.1	18.9	0.00e+00	0	60	0	1842348032	41	4100
2026-01-16 02:01:30.25	344.26	71.28	-34.8	-36.1	18.8	0.00e+00	0	60	0	1848639488	41	4126
2026-01-16 02:01:31.26	343.34	71.67	-34.8	-36.2	18.7	0.00e+00	0	60	0	1853882368	41	4176
2026-01-16 02:01:32.27	342.37	72.05	-35.0	-36.4	18.5	0.00e+00	0	60	0	1860173824	41	4267
2026-01-16 02:01:33.28	341.35	72.43	-35.0	-36.4	18.5	0.00e+00	0	60	0	1865416704	41	4273
2026-01-16 02:01:34.29	340.29	72.80	-35.1	-36.5	18.4	0.00e+00	0	60	0	1870659584	41	4327
2026-01-16 02:01:35.30	339.18	73.17	-35.1	-36.6	18.4	0.00e+00	0	60	0	1876951040	41	4345
2026-01-16 02:01:36.31	338.02	73.54	-35.0	-36.4	18.6	0.00e+00	0	60	0	1882193920	41	4243
2026-01-16 02:01:37.32	336.80	73.90	-34.9	-36.3	18.6	0.00e+00	0	60	0	1888485376	41	4209
2026-01-16 02:01:38.33	335.52	74.25	-35.0	-36.4	18.5	0.00e+00	0	60	0	1893728256	41	4261
2026-01-16 02:01:39.34	334.19	74.59	-35.0	-36.4	18.5	0.00e+00	0	60	0	1898971136	41	4264
2026-01-16 02:01:40.35	332.79	74.93	-34.6	-35.9	18.9	0.00e+00	0	60	0	1905262592	41	4049
2026-01-16 02:01:41.36	331.32	75.26	-34.4	-35.7	19.1	0.00e+00	0	60	0	1910505472	40	4158
2026-01-16 02:01:42.37	329.79	75.58	-34.4	-35.8	19.0	0.00e+00	0	60	0	1916796928	40	4221
2026-01-16 02:01:43.38	328.18	75.89	-34.2	-35.5	19.2	0.00e+00	0	60	0	1922039808	40	4095
2026-01-16 02:01:44.39	326.50	76.19	-33.9	-35.2	19.6	0.00e+00	0	60	0	1928331264	39	4156
2026-01-16 02:01:45.40	324.75	76.48	-33.9	-35.1	19.7	0.00e+00	0	60	0	1933574144	39	4138
2026-01-16 02:01:46.40	322.93	76.76	-34.2	-35.5	19.3	0.00e+00	0	60	0	1939865600	39	4336
2026-01-16 02:01:47.41	321.02	77.02	-33.9	-35.2	19.6	0.00e+00	0	60	0	1945108480	39	4172
2026-01-16 02:01:48.42	319.03	77.27	-33.6	-34.9	20.0	0.00e+00	0	60	0	1950351360	39	4020
2026-01-16 02:01:49.43	316.96	77.50	-33.7	-35.0	19.9	0.00e+00	0	60	0	1956642816	39	4055
2026-01-16 02:01:50.44	314.82	77.72	-33.8	-35.1	19.7	0.00e+00	0	60	0	1961885696	39	4122
2026-01-16 02:01:51.45	312.59	77.92	-33.4	-34.6	20.1	0.00e+00	0	60	0	1968177152	38	4135
2026-01-16 02:01:52.47	310.27	78.10	-33.4	-34.6	20.2	0.00e+00	0	60	0	1973420032	38	4129
2026-01-16 02:01:53.48	307.90	78.27	-33.5	-34.7	20.1	0.00e+00	0	60	0	1978662912	38	4177
2026-01-16 02:01:54.49	305.47	78.41	-33.4	-34.7	20.1	0.00e+00	0	60	0	1984954368	38	4157
2026-01-16 02:01:55.50	302.98	78.53	-33.7	-35.0	19.9	0.00e+00	0	60	0	1990197248	38	4294
2026-01-16 02:01:56.51	300.44	78.63	-33.8	-35.1	19.7	0.00e+00	0	60	0	1996488704	38	4359
2026-01-16 02:01:57.52	297.85	78.71	-33.9	-35.2	19.6	0.00e+00	0	60	0	2001731584	38	4403
2026-01-16 02:01:58.53	295.24	78.77	-33.9	-35.2	19.6	0.00e+00	0	60	0	2006974464	38	4418
2026-01-16 02:01:59.54	292.61	78.80	-33.6	-34.8	19.9	0.00e+00	0	60	0	2013265920	38	4236
2026-01-16 02:02:00.54	289.99	78.81	-33.6	-34.9	19.9	0.00e+00	0	60	0	2018508800	38	4250
2026-01-16 02:02:01.56	287.32	78.80	-33.5	-34.8	20.0	0.00e+00	0	60	0	2024800256	38	4204
2026-01-16 02:02:02.56	284.71	78.76	-33.4	-34.7	20.0	0.00e+00	0	60	0	2030043136	38	4162
2026-01-16 02:02:03.57	282.10	78.70	-33.6	-34.8	19.9	0.00e+00	0	60	0	2036334592	38	4229
2026-01-16 02:02:04.58	279.53	78.61	-33.5	-34.7	20.0	0.00e+00	0	60	0	2041577472	38	4179
2026-01-16 02:02:05.59	277.00	78.51	-33.6	-34.8	20.0	0.00e+00	0	60	0	2046820352	38	4233
2026-01-16 02:02:06.60	274.52	78.38	-33.7	-35.0	19.8	0.00e+00	0	60	0	2053111808	38	4312
2026-01-16 02:02:07.61	272.10	78.23	-33.7	-34.9	19.9	0.00e+00	0	60	0	2058354688	38	4273
2026-01-16 02:02:08.62	269.74	78.07	-33.5	-34.8	20.0	0.00e+00	0	60	0	2064646144	38	4202
2026-01-16 02:02:09.63	267.45	77.88	-33.6	-34.8	19.9	0.00e+00	0	60	0	2069889024	38	4241
2026-01-16 02:02:10.64	265.24	77.68	-33.7	-34.9	19.8	0.00e+00	0	60	0	2075131904	38	4291
2026-01-16 02:02:11.65	263.11	77.46	-33.6	-34.8	19.9	0.00e+00	0	60	0	2081423360	38	4237
2026-01-16 02:02:12.66	261.06	77.22	-33.6	-34.9	19.9	0.00e+00	0	60	0	2086666240	38	4274
2026-01-16 02:02:13.67	259.08	76.97	-33.7	-34.9	19.8	0.00e+00	0	60	0	2092957696	38	4279
2026-01-16 02:02:14.68	257.18	76.70	-33.7	-34.9	19.9	0.00e+00	0	60	0	2098200576	38	4275
2026-01-16 02:02:15.69	255.37	76.42	-33.7	-35.0	19.8	0.00e+00	0	60	0	2103443456	38	4307
2026-01-16 02:02:16.70	253.63	76.13	-34.0	-35.2	19.5	0.00e+00	0	60	0	2109734912	38	4441
2026-01-16 02:02:17.71	251.96	75.82	-34.1	-35.5	19.4	0.00e+00	0	60	0	2114977792	38	4549
2026-01-16 02:02:18.71	250.39	75.51	-34.1	-35.4	19.4	0.00e+00	0	60	0	2121269248	38	4523
2026-01-16 02:02:19.72	248.87	75.19	-34.0	-35.3	19.5	0.00e+00	0	60	0	2126512128	38	4445
2026-01-16 02:02:20.73	247.41	74.86	-34.2	-35.5	19.3	0.00e+00	0	60	0	2132803584	38	4577
2026-01-16 02:02:21.75	246.01	74.52	-34.5	-35.9	19.0	0.00e+00	0	60	0	2138046464	39	4522
2026-01-16 02:02:22.76	244.69	74.17	-34.5	-35.8	19.1	0.00e+00	0	60	0	2144337920	39	4465
2026-01-16 02:02:23.77	243.42	73.81	-34.6	-35.9	19.0	0.00e+00	0	60	0	2149580800	39	4523
2026-01-16 02:02:24.78	242.22	73.45	-34.7	-36.1	18.8	0.00e+00	0	60	0	2154823680	40	4345
2026-01-16 02:02:25.79	241.06	73.09	-34.7	-36.0	18.8	0.00e+00	0	60	0	2161115136	40	4325
2026-01-16 02:02:26.79	239.97	72.72	-34.6	-35.9	19.0	0.00e+00	0	60	0	2166358016	40	4268
2026-01-16 02:02:27.80	238.92	72.35	-34.8	-36.1	18.7	0.00e+00	0	60	0	2172649472	40	4380
2026-01-16 02:02:28.81	237.92	71.97	-34.8	-36.2	18.6	0.00e+00	0	60	0	2177892352	40	4412
2026-01-16 02:02:29.82	236.96	71.58	-34.7	-36.1	18.8	0.00e+00	0	60	0	2183135232	40	4342
2026-01-16 02:02:30.83	236.04	71.20	-34.7	-36.0	18.8	0.00e+00	0	60	0	2189426688	40	4314
2026-01-16 02:02:31.84	235.16	70.81	-34.7	-36.1	18.8	0.00e+00	0	60	0	2194669568	40	4342
2026-01-16 02:02:32.85	234.31	70.41	-35.1	-36.6	18.3	0.00e+00	0	60	0	2200961024	40	4614
2026-01-16 02:02:33.86	233.51	70.02	-35.2	-36.6	18.2	0.00e+00	0	60	0	2206203904	41	4375
2026-01-16 02:02:34.87	232.73	69.62	-34.9	-36.3	18.6	0.00e+00	0	60	0	2211446784	41	4195
2026-01-16 02:02:35.88	231.99	69.22	-35.0	-36.4	18.5	0.00e+00	0	60	0	2217738240	41	4245
2026-01-16 02:02:36.89	231.28	68.82	-35.3	-36.7	18.2	0.00e+00	0	60	0	2222981120	41	4432
2026-01-16 02:02:37.90	230.60	68.42	-35.2	-36.6	18.3	0.00e+00	0	60	0	2229272576	41	4361
2026-01-16 02:02:38.91	229.94	68.02	-34.9	-36.3	18.6	0.00e+00	0	60	0	2234515456	41	4202
2026-01-16 02:02:39.92	229.31	67.62	-35.2	-36.7	18.2	0.00e+00	0	60	0	2240806912	41	4399
2026-01-16 02:02:40.93	228.70	67.22	-35.5	-37.0	17.9	0.00e+00	0	60	0	2246049792	41	4592
2026-01-16 02:02:41.94	228.12	66.81	-35.2	-36.6	18.3	0.00e+00	0	60	0	2251292672	41	4376
2026-01-16 02:02:42.95	227.56	66.41	-34.9	-36.2	18.7	0.00e+00	0	60	0	2257584128	41	4188
2026-01-16 02:02:43.96	227.02	66.01	-35.0	-36.4	18.6	0.00e+00	0	60	0	2262827008	41	4259
2026-01-16 02:02:44.97	226.50	65.60	-35.6	-37.1	17.9	0.00e+00	0	60	0	2269118464	41	4623
2026-01-16 02:02:45.97	226.00	65.20	-35.6	-37.0	18.0	0.00e+00	0	60	0	2274361344	41	4596
2026-01-16 02:02:46.98	225.52	64.80	-35.4	-36.8	18.2	0.00e+00	0	60	0	2279604224	41	4464
2026-01-16 02:02:47.99	225.05	64.40	-35.2	-36.6	18.4	0.00e+00	0	60	0	2285895680	41	4342
2026-01-16 02:02:49.00	224.60	64.00	-35.1	-36.5	18.5	0.00e+00	0	60	0	2291138560	41	4311
2026-01-16 02:02:50.01	224.16	63.60	-35.3	-36.7	18.3	0.00e+00	0	60	0	2297430016	41	4401
2026-01-16 02:02:51.02	223.74	63.20	-35.5	-36.9	18.1	0.00e+00	0	60	0	2302672896	41	4531
2026-01-16 02:02:52.03	223.34	62.80	-35.4	-36.9	18.1	0.00e+00	0	60	0	2307915776	41	4504
2026-01-16 02:02:53.04	222.94	62.40	-35.3	-36.7	18.3	0.00e+00	0	60	0	2314207232	41	4407
2026-01-16 02:02:54.05	222.56	62.00	-35.3	-36.7	18.2	0.00e+00	0	60	0	2319450112	41	4412
2026-01-16 02:02:55.06	222.19	61.61	-35.3	-36.7	18.2	0.00e+00	0	60	0	2325741568	41	4437
2026-01-16 02:02:56.07	221.84	61.21	-35.3	-36.7	18.3	0.00e+00	0	60	0	2330984448	41	4418
2026-01-16 02:02:57.08	221.49	60.82	-35.4	-36.8	18.2	0.00e+00	0	60	0	2337275904	41	4477
2026-01-16 02:02:58.09	221.16	60.43	-35.6	-37.1	18.0	0.00e+00	0	60	0	2342518784	41	4607
2026-01-16 02:02:59.10	220.83	60.04	-35.8	-37.3	17.8	0.00e+00	0	60	0	2348810240	42	4458
2026-01-16 02:03:00.11	220.52	59.65	-35.9	-37.4	17.7	0.00e+00	0	60	0	2354053120	42	4500
2026-01-16 02:03:01.12	220.21	59.27	-36.0	-37.5	17.6	0.00e+00	0	60	0	2359296000	42	4566
2026-01-16 02:03:02.13	219.92	58.88	-36.2	-37.7	17.4	0.00e+00	0	60	0	2365587456	42	4699
2026-01-16 02:03:03.14	219.63	58.50	-36.3	-37.8	17.3	0.00e+00	0	60	0	2370830336	43	4478
2026-01-16 02:03:04.15	219.35	58.12	-36.2	-37.7	17.4	0.00e+00	0	60	0	2377121792	43	4404
2026-01-16 02:03:05.16	219.08	57.74	-36.2	-37.8	17.3	0.00e+00	0	60	0	2382364672	43	4449
2026-01-16 02:03:06.17	218.81	57.36	-36.5	-38.0	17.0	0.00e+00	0	60	0	2387607552	43	4597
2026-01-16 02:03:07.18	218.55	56.98	-36.3	-37.9	17.1	0.00e+00	0	60	0	2393899008	43	4520
2026-01-16 02:03:08.19	218.31	56.61	-36.2	-37.7	17.2	0.00e+00	0	60	0	2399141888	43	4437
2026-01-16 02:03:09.20	218.06	56.24	-36.5	-38.1	17.0	0.00e+00	0	60	0	2405433344	43	4622
2026-01-16 02:03:10.21	217.83	55.87	-37.2	-38.9	16.3	0.00e+00	0	60	0	2410676224	44	4792
2026-01-16 02:03:11.21	217.60	55.50	-37.4	-39.2	16.0	0.00e+00	0	60	0	2415919104	45	4665
2026-01-16 02:03:12.23	217.37	55.13	-37.2	-38.9	16.3	0.00e+00	0	60	0	2422210560	45	4508
2026-01-16 02:03:13.24	217.15	54.77	-37.0	-38.6	16.6	0.00e+00	0	60	0	2427453440	45	4372
2026-01-16 02:03:14.25	216.94	54.41	-37.0	-38.6	16.6	0.00e+00	0	60	0	2433744896	45	4367
2026-01-16 02:03:15.26	216.73	54.05	-36.9	-38.6	16.7	0.00e+00	0	60	0	2438987776	45	4349
2026-01-16 02:03:16.27	216.53	53.69	-36.7	-38.3	16.9	0.00e+00	0	60	0	2445279232	45	4227
2026-01-16 02:03:17.28	216.33	53.34	-36.6	-38.2	17.1	0.00e+00	0	60	0	2450522112	45	4149
2026-01-16 02:03:18.29	216.14	52.98	-36.6	-38.1	17.1	0.00e+00	0	60	0	2455764992	45	4128
2026-01-16 02:03:19.30	215.95	52.63	-36.8	-38.3	16.9	0.00e+00	0	60	0	2462056448	45	4228
2026-01-16 02:03:20.31	215.77	52.28	-36.9	-38.5	16.7	0.00e+00	0	60	0	2467299328	45	4321
2026-01-16 02:03:21.32	215.59	51.94	-36.7	-38.3	16.9	0.00e+00	0	60	0	2473590784	45	4217
2026-01-16 02:03:22.33	215.41	51.59	-36.3	-37.8	17.4	0.00e+00	0	60	0	2478833664	44	4225
2026-01-16 02:03:23.34	215.24	51.25	-36.1	-37.5	17.7	0.00e+00	0	60	0	2484076544	44	4090
2026-01-16 02:03:24.35	215.07	50.91	-36.1	-37.5	17.7	0.00e+00	0	60	0	2490368000	44	4073
2026-01-16 02:03:25.36	214.91	50.57	-36.2	-37.6	17.6	0.00e+00	0	60	0	2495610880	44	4140
2026-01-16 02:03:26.37	214.75	50.24	-36.3	-37.8	17.5	0.00e+00	0	60	0	2501902336	44	4218
2026-01-16 02:03:27.37	214.60	49.91	-36.3	-37.9	17.4	0.00e+00	0	60	0	2507145216	44	4246
2026-01-16 02:03:28.38	214.44	49.58	-36.4	-37.9	17.4	0.00e+00	0	60	0	2512388096	44	4263
2026-01-16 02:03:29.40	214.29	49.24	-36.3	-37.8	17.5	0.00e+00	0	60	0	2518679552	44	4204
2026-01-16 02:03:30.41	214.15	48.92	-36.0	-37.5	17.8	0.00e+00	0	60	0	2523922432	44	4058
2026-01-16 02:03:31.41	214.00	48.60	-36.0	-37.5	17.7	0.00e+00	0	60	0	2530213888	44	4052
2026-01-16 02:03:32.43	213.86	48.27	-35.8	-37.3	17.7	0.00e+00	0	60	0	2535456768	43	4216
2026-01-16 02:03:33.44	213.73	47.95	-35.8	-37.3	17.7	0.00e+00	0	60	0	2541748224	43	4226
2026-01-16 02:03:34.44	213.59	47.63	-35.9	-37.4	17.6	0.00e+00	0	60	0	2546991104	43	4258
2026-01-16 02:03:35.46	213.46	47.32	-35.8	-37.3	17.7	0.00e+00	0	60	0	2553282560	43	4208
2026-01-16 02:03:36.47	213.33	47.00	-35.7	-37.1	17.9	0.00e+00	0	60	0	2558525440	43	4145
2026-01-16 02:03:37.48	213.20	46.69	-35.6	-37.1	17.9	0.00e+00	0	60	0	2563768320	43	4116
2026-01-16 02:03:38.48	213.08	46.38	-35.6	-37.0	18.0	0.00e+00	0	60	0	2570059776	43	4083
2026-01-16 02:03:39.49	212.96	46.08	-35.6	-37.1	17.9	0.00e+00	0	60	0	2575302656	43	4104
2026-01-16 02:03:40.50	212.84	45.77	-35.8	-37.2	17.8	0.00e+00	0	60	0	2581594112	43	4192
2026-01-16 02:03:41.51	212.73	45.47	-35.9	-37.4	17.6	0.00e+00	0	60	0	2586836992	43	4263
2026-01-16 02:03:42.52	212.61	45.17	-36.0	-37.5	17.5	0.00e+00	0	60	0	2592079872	43	4323
2026-01-16 02:03:43.53	212.50	44.87	-36.0	-37.6	17.5	0.00e+00	0	60	0	2598371328	43	4352
2026-01-16 02:03:44.54	212.39	44.57	-35.9	-37.5	17.6	0.00e+00	0	60	0	2603614208	43	4295
2026-01-16 02:03:45.55	212.28	44.28	-35.8	-37.3	17.7	0.00e+00	0	60	0	2609905664	43	4201
2026-01-16 02:03:46.56	212.18	43.99	-35.7	-37.2	17.8	0.00e+00	0	60	0	2615148544	43	4162
2026-01-16 02:03:47.57	212.07	43.69	-35.6	-37.1	17.9	0.00e+00	0	60	0	2620391424	43	4119
2026-01-16 02:03:48.58	211.97	43.41	-35.7	-37.2	17.8	0.00e+00	0	60	0	2626682880	43	4165
2026-01-16 02:03:49.59	211.87	43.12	-35.9	-37.4	17.7	0.00e+00	0	60	0	2631925760	43	4254
2026-01-16 02:03:50.60	211.77	42.84	-36.0	-37.5	17.5	0.00e+00	0	60	0	2638217216	43	4339
2026-01-16 02:03:51.60	211.68	42.56	-36.0	-37.6	17.4	0.00e+00	0	60	0	2643460096	43	4371
2026-01-16 02:03:52.61	211.58	42.28	-36.0	-37.6	17.4	0.00e+00	0	60	0	2649751552	43	4359
2026-01-16 02:03:53.62	211.49	42.00	-36.0	-37.5	17.5	0.00e+00	0	60	0	2654994432	43	4315
2026-01-16 02:03:54.63	211.40	41.72	-35.8	-37.3	17.6	0.00e+00	0	60	0	2660237312	43	4236
2026-01-16 02:03:55.64	211.31	41.45	-35.8	-37.3	17.7	0.00e+00	0	60	0	2666528768	43	4198
2026-01-16 02:03:56.65	211.22	41.18	-35.6	-37.1	17.9	0.00e+00	0	60	0	2671771648	43	4105
2026-01-16 02:03:57.66	211.13	40.90	-35.5	-37.0	18.0	0.00e+00	0	60	0	2678063104	43	4069
2026-01-16 02:03:58.67	211.05	40.64	-35.4	-36.9	18.1	0.00e+00	0	60	0	2683305984	42	4258
2026-01-16 02:03:59.68	210.96	40.37	-35.4	-36.8	18.1	0.00e+00	0	60	0	2688548864	42	4209
2026-01-16 02:04:00.69	210.88	40.11	-35.3	-36.7	18.3	0.00e+00	0	60	0	2694840320	42	4153
2026-01-16 02:04:01.70	210.80	39.84	-35.2	-36.6	18.3	0.00e+00	0	60	0	2700083200	42	4130
2026-01-16 02:04:02.71	210.72	39.58	-35.1	-36.6	18.4	0.00e+00	0	60	0	2706374656	42	4106
2026-01-16 02:04:03.72	210.64	39.32	-35.2	-36.6	18.3	0.00e+00	0	60	0	2711617536	42	4115
2026-01-16 02:04:04.73	210.56	39.07	-35.2	-36.7	18.2	0.00e+00	0	60	0	2716860416	42	4149
2026-01-16 02:04:05.74	210.49	38.81	-35.2	-36.7	18.3	0.00e+00	0	60	0	2723151872	42	4152
2026-01-16 02:04:06.75	210.41	38.56	-35.2	-36.7	18.2	0.00e+00	0	60	0	2728394752	42	4149
2026-01-16 02:04:07.76	210.34	38.31	-35.2	-36.6	18.2	0.00e+00	0	60	0	2734686208	42	4141
2026-01-16 02:04:08.77	210.27	38.06	-35.1	-36.6	18.3	0.00e+00	0	60	0	2739929088	42	4103
2026-01-16 02:04:09.78	210.20	37.81	-35.1	-36.6	18.3	0.00e+00	0	60	0	2746220544	42	4106
2026-01-16 02:04:10.79	210.13	37.56	-35.1	-36.5	18.3	0.00e+00	0	60	0	2751463424	42	4082
2026-01-16 02:04:11.80	210.06	37.32	-35.2	-36.6	18.3	0.00e+00	0	60	0	2757754880	42	4108
2026-01-16 02:04:12.81	209.99	37.08	-35.2	-36.6	18.3	0.00e+00	0	60	0	2762997760	42	4133
2026-01-16 02:04:13.82	209.92	36.83	-35.2	-36.7	18.2	0.00e+00	0	60	0	2768240640	42	4157
2026-01-16 02:04:14.83	209.86	36.59	-35.3	-36.7	18.2	0.00e+00	0	60	0	2774532096	42	4183
2026-01-16 02:04:15.84	209.79	36.36	-35.3	-36.7	18.1	0.00e+00	0	60	0	2779774976	42	4181
2026-01-16 02:04:16.84	209.73	36.12	-35.3	-36.7	18.2	0.00e+00	0	60	0	2785017856	42	4181
2026-01-16 02:04:17.86	209.67	35.89	-35.3	-36.7	18.2	0.00e+00	0	60	0	2791309312	42	4179
2026-01-16 02:04:18.87	209.60	35.65	-35.2	-36.7	18.2	0.00e+00	0	60	0	2796552192	42	4146
2026-01-16 02:04:19.88	209.54	35.42	-35.2	-36.7	18.2	0.00e+00	0	60	0	2802843648	42	4149
2026-01-16 02:04:20.88	209.48	35.20	-35.2	-36.7	18.2	0.00e+00	0	60	0	2808086528	42	4163
2026-01-16 02:04:21.89	209.42	34.97	-35.2	-36.7	18.2	0.00e+00	0	61	0	2813329408	42	4168
2026-01-16 02:04:22.90	209.36	34.74	-35.3	-36.7	18.1	0.00e+00	0	60	0	2819620864	42	4189
2026-01-16 02:04:23.92	209.31	34.52	-35.3	-36.8	18.1	0.00e+00	0	60	0	2824863744	42	4215
2026-01-16 02:04:24.92	209.25	34.30	-35.3	-36.8	18.1	0.00e+00	0	60	0	2831155200	42	4224
2026-01-16 02:04:25.94	209.19	34.07	-35.4	-36.9	18.0	0.00e+00	0	60	0	2836398080	42	4244
2026-01-16 02:04:26.95	209.14	33.85	-35.4	-36.9	18.0	0.00e+00	0	60	0	2842689536	42	4258
2026-01-16 02:04:27.96	209.08	33.63	-35.4	-36.9	18.0	0.00e+00	0	60	0	2847932416	42	4251
2026-01-16 02:04:28.96	209.03	33.42	-35.4	-36.9	18.0	0.00e+00	0	60	0	2854223872	42	4244
2026-01-16 02:04:29.98	208.98	33.20	-35.4	-36.9	18.0	0.00e+00	0	60	0	2859466752	42	4265
2026-01-16 02:04:30.99	208.93	32.99	-35.4	-36.9	18.0	0.00e+00	0	60	0	2864709632	42	4262
2026-01-16 02:04:32.00	208.87	32.78	-35.5	-36.9	17.9	0.00e+00	0	60	0	2871001088	42	4283
2026-01-16 02:04:33.00	208.82	32.57	-35.6	-37.1	17.8	0.00e+00	0	60	0	2876243968	42	4347
2026-01-16 02:04:34.01	208.77	32.36	-35.7	-37.1	17.7	0.00e+00	0	60	0	2882535424	42	4390
2026-01-16 02:04:35.02	208.72	32.15	-35.7	-37.2	17.7	0.00e+00	0	60	0	2887778304	42	4435
2026-01-16 02:04:36.03	208.68	31.94	-35.8	-37.4	17.5	0.00e+00	0	60	0	2893021184	42	4502
2026-01-16 02:04:37.04	208.63	31.74	-35.9	-37.5	17.4	0.00e+00	0	60	0	2899312640	42	4563
2026-01-16 02:04:38.05	208.58	31.53	-36.0	-37.5	17.4	0.00e+00	0	60	0	2904555520	42	4590
2026-01-16 02:04:39.07	208.53	31.33	-36.0	-37.6	17.3	0.00e+00	0	60	0	2910846976	42	4636
2026-01-16 02:04:40.08	208.49	31.13	-36.0	-37.6	17.3	0.00e+00	0	60	0	2916089856	42	4638
2026-01-16 02:04:41.09	208.44	30.93	-36.0	-37.6	17.3	0.00e+00	0	60	0	2921332736	42	4635
2026-01-16 02:04:42.10	208.40	30.73	-36.0	-37.6	17.3	0.00e+00	0	60	0	2927624192	42	4622
2026-01-16 02:04:43.11	208.35	30.53	-36.0	-37.6	17.4	0.00e+00	0	60	0	2932867072	42	4599
2026-01-16 02:04:44.12	208.31	30.34	-35.9	-37.5	17.4	0.00e+00	0	61	0	2939158528	42	4562
2026-01-16 02:04:45.13	208.26	30.14	-35.9	-37.4	17.4	0.00e+00	0	60	0	2944401408	42	4544
2026-01-16 02:04:46.14	208.22	29.95	-35.9	-37.5	17.5	0.00e+00	0	60	0	2950692864	42	4549
2026-01-16 02:04:47.15	208.18	29.76	-35.8	-37.4	17.5	0.00e+00	0	60	0	2955935744	42	4517
2026-01-16 02:04:48.16	208.14	29.57	-35.8	-37.3	17.6	0.00e+00	0	60	0	2962227200	42	4488
2026-01-16 02:04:49.17	208.10	29.38	-35.8	-37.3	17.6	0.00e+00	0	60	0	2967470080	42	4479
2026-01-16 02:04:50.18	208.06	29.19	-35.8	-37.3	17.6	0.00e+00	0	60	0	2972712960	42	4449
2026-01-16 02:04:51.19	208.02	29.00	-35.7	-37.2	17.7	0.00e+00	0	60	0	2979004416	42	4431
2026-01-16 02:04:52.20	207.98	28.82	-35.7	-37.2	17.7	0.00e+00	0	60	0	2984247296	42	4414
2026-01-16 02:04:53.21	207.94	28.63	-35.7	-37.2	17.7	0.00e+00	0	60	0	2990538752	42	4392
2026-01-16 02:04:54.22	207.90	28.45	-35.7	-37.2	17.8	0.00e+00	0	60	0	2995781632	42	4396
2026-01-16 02:04:55.24	207.86	28.27	-35.7	-37.1	17.8	0.00e+00	0	60	0	3001024512	42	4381
2026-01-16 02:04:56.25	207.82	28.09	-35.6	-37.1	17.8	0.00e+00	0	60	0	3007315968	42	4374
2026-01-16 02:04:57.26	207.78	27.91	-35.7	-37.2	17.8	0.00e+00	0	60	0	3012558848	42	4398
2026-01-16 02:04:58.27	207.75	27.73	-35.7	-37.2	17.7	0.00e+00	0	60	0	3018850304	42	4399
2026-01-16 02:04:59.28	207.71	27.55	-35.7	-37.2	17.8	0.00e+00	0	60	0	3024093184	42	4399
2026-01-16 02:05:00.29	207.68	27.37	-35.7	-37.2	17.7	0.00e+00	0	60	0	3029336064	42	4427
2026-01-16 02:05:01.30	207.64	27.20	-35.8	-37.3	17.6	0.00e+00	0	60	0	3035627520	42	4455
2026-01-16 02:05:02.31	207.60	27.02	-35.8	-37.3	17.6	0.00e+00	0	60	0	3040870400	42	4486
2026-01-16 02:05:03.32	207.57	26.85	-35.8	-37.4	17.5	0.00e+00	0	60	0	3047161856	42	4508
2026-01-16 02:05:04.33	207.54	26.68	-35.9	-37.4	17.5	0.00e+00	0	60	0	3052404736	42	4538
2026-01-16 02:05:05.34	207.50	26.51	-35.9	-37.5	17.4	0.00e+00	0	60	0	3058696192	42	4554
2026-01-16 02:05:06.35	207.47	26.34	-35.9	-37.5	17.4	0.00e+00	0	60	0	3063939072	42	4572
2026-01-16 02:05:07.36	207.44	26.17	-35.9	-37.5	17.4	0.00e+00	0	60	0	3070230528	42	4568
2026-01-16 02:05:08.37	207.40	26.00	-35.9	-37.5	17.4	0.00e+00	0	60	0	3075473408	42	4560
2026-01-16 02:05:09.37	207.37	25.84	-35.9	-37.5	17.4	0.00e+00	0	60	0	3080716288	42	4547
2026-01-16 02:05:10.38	207.34	25.67	-35.9	-37.4	17.4	0.00e+00	0	60	0	3087007744	42	4543
2026-01-16 02:05:11.39	207.31	25.51	-35.9	-37.5	17.4	0.00e+00	0	60	0	3092250624	42	4548
2026-01-16 02:05:12.40	207.28	25.34	-35.9	-37.4	17.5	0.00e+00	0	60	0	3098542080	42	4515
2026-01-16 02:05:13.41	207.24	25.18	-35.9	-37.4	17.5	0.00e+00	0	60	0	3103784960	42	4527
2026-01-16 02:05:14.42	207.21	25.02	-35.9	-37.4	17.5	0.00e+00	0	60	0	3109027840	42	4517
2026-01-16 02:05:15.43	207.18	24.86	-35.9	-37.4	17.4	0.00e+00	0	60	0	3115319296	42	4528
2026-01-16 02:05:16.44	207.15	24.70	-35.9	-37.4	17.4	0.00e+00	0	60	0	3120562176	42	4533
2026-01-16 02:05:17.45	207.12	24.54	-35.9	-37.5	17.4	0.00e+00	0	60	0	3125805056	42	4550
2026-01-16 02:05:18.46	207.09	24.38	-36.0	-37.5	17.3	0.00e+00	0	60	0	3132096512	42	4586
2026-01-16 02:05:19.47	207.07	24.23	-36.0	-37.5	17.3	0.00e+00	0	60	0	3137339392	42	4593
2026-01-16 02:05:20.48	207.04	24.07	-36.1	-37.7	17.2	0.00e+00	0	60	0	3143630848	42	4653
2026-01-16 02:05:21.49	207.01	23.92	-36.2	-37.7	17.1	0.00e+00	0	60	0	3148873728	42	4695
2026-01-16 02:05:22.50	206.98	23.76	-36.2	-37.8	17.0	0.00e+00	0	60	0	3155165184	43	4473
2026-01-16 02:05:23.51	206.95	23.61	-36.3	-37.9	17.0	0.00e+00	0	60	0	3160408064	43	4514
2026-01-16 02:05:24.52	206.93	23.46	-36.4	-38.0	16.9	0.00e+00	0	61	0	3166699520	43	4571
2026-01-16 02:05:25.53	206.90	23.30	-36.4	-38.1	16.8	0.00e+00	0	60	0	3171942400	43	4600
2026-01-16 02:05:26.54	206.87	23.15	-36.5	-38.1	16.7	0.00e+00	0	60	0	3177185280	43	4646
2026-01-16 02:05:27.55	206.84	23.00	-36.5	-38.2	16.6	0.00e+00	0	60	0	3183476736	43	4677
2026-01-16 02:05:28.56	206.82	22.86	-36.5	-38.2	16.6	0.00e+00	0	60	0	3188719616	43	4690
2026-01-16 02:05:29.57	206.79	22.71	-36.6	-38.3	16.5	0.00e+00	0	60	0	3195011072	43	4730
2026-01-16 02:05:30.58	206.77	22.56	-36.6	-38.3	16.5	0.00e+00	0	60	0	3200253952	43	4744
2026-01-16 02:05:31.59	206.74	22.41	-36.6	-38.4	16.5	0.00e+00	0	60	0	3205496832	43	4761
2026-01-16 02:05:32.60	206.72	22.27	-36.6	-38.3	16.5	0.00e+00	0	61	0	3211788288	43	4754
2026-01-16 02:05:33.61	206.69	22.12	-36.6	-38.3	16.5	0.00e+00	0	61	0	3217031168	43	4745
2026-01-16 02:05:34.62	206.67	21.98	-36.6	-38.3	16.5	0.00e+00	0	61	0	3223322624	43	4757
2026-01-16 02:05:35.62	206.64	21.84	-36.6	-38.3	16.5	0.00e+00	0	60	0	3228565504	43	4742
2026-01-16 02:05:36.63	206.62	21.70	-36.6	-38.3	16.5	0.00e+00	0	60	0	3233808384	43	4735
2026-01-16 02:05:37.64	206.59	21.56	-36.6	-38.3	16.5	0.00e+00	0	60	0	3240099840	43	4717
2026-01-16 02:05:38.65	206.57	21.41	-36.6	-38.3	16.5	0.00e+00	0	60	0	3245342720	43	4713
2026-01-16 02:05:39.67	206.55	21.27	-36.6	-38.2	16.6	0.00e+00	0	60	0	3251634176	43	4705
2026-01-16 02:05:40.68	206.52	21.13	-36.6	-38.3	16.5	0.00e+00	0	61	0	3256877056	43	4729
2026-01-16 02:05:41.69	206.50	21.00	-36.6	-38.2	16.5	0.00e+00	0	60	0	3263168512	43	4700
2026-01-16 02:05:42.69	206.48	20.86	-36.6	-38.3	16.5	0.00e+00	0	60	0	3268411392	43	4707
2026-01-16 02:05:43.70	206.46	20.72	-36.6	-38.3	16.5	0.00e+00	0	60	0	3274702848	43	4720
2026-01-16 02:05:44.71	206.43	20.59	-36.6	-38.3	16.5	0.00e+00	0	60	0	3279945728	43	4711
2026-01-16 02:05:45.72	206.41	20.45	-36.6	-38.3	16.5	0.00e+00	0	60	0	3285188608	43	4723
2026-01-16 02:05:46.73	206.39	20.32	-36.6	-38.3	16.5	0.00e+00	0	60	0	3291480064	43	4736
2026-01-16 02:05:47.74	206.37	20.18	-36.7	-38.3	16.5	0.00e+00	0	60	0	3296722944	43	4739
2026-01-16 02:05:48.75	206.35	20.05	-36.7	-38.3	16.5	0.00e+00	0	61	0	3303014400	43	4752
2026-01-16 02:05:49.76	206.32	19.92	-36.7	-38.3	16.5	0.00e+00	0	60	0	3308257280	43	4747
2026-01-16 02:05:50.77	206.30	19.79	-36.7	-38.3	16.4	0.00e+00	0	60	0	3313500160	43	4753
2026-01-16 02:05:51.78	206.28	19.65	-36.7	-38.4	16.4	0.00e+00	0	60	0	3319791616	43	4770
2026-01-16 02:05:52.79	206.26	19.52	-36.9	-38.6	16.4	0.00e+00	0	60	0	3325034496	44	4617
2026-01-16 02:05:53.80	206.24	19.39	-36.9	-38.6	16.4	0.00e+00	0	60	0	3331325952	44	4616
2026-01-16 02:05:54.81	206.22	19.26	-36.9	-38.6	16.4	0.00e+00	0	60	0	3336568832	44	4630
2026-01-16 02:05:55.82	206.20	19.14	-36.9	-38.6	16.3	0.00e+00	0	60	0	3341811712	44	4633
2026-01-16 02:05:56.83	206.18	19.01	-37.0	-38.7	16.3	0.00e+00	0	60	0	3348103168	44	4653
2026-01-16 02:05:57.84	206.16	18.88	-37.0	-38.7	16.3	0.00e+00	0	60	0	3353346048	44	4665
2026-01-16 02:05:58.85	206.14	18.75	-37.0	-38.7	16.3	0.00e+00	0	60	0	3359637504	44	4674
2026-01-16 02:05:59.86	206.12	18.63	-37.0	-38.7	16.2	0.00e+00	0	60	0	3364880384	44	4700
2026-01-16 02:06:00.87	206.10	18.50	-37.0	-38.7	16.2	0.00e+00	0	60	0	3371171840	44	4703
2026-01-16 02:06:01.88	206.09	18.38	-37.0	-38.7	16.2	0.00e+00	0	60	0	3376414720	44	4705
2026-01-16 02:06:02.89	206.07	18.26	-37.1	-38.8	16.1	0.00e+00	0	60	0	3381657600	44	4729
2026-01-16 02:06:03.90	206.05	18.13	-37.1	-38.8	16.1	0.00e+00	0	60	0	3387949056	44	4741
2026-01-16 02:06:04.91	206.03	18.01	-37.1	-38.8	16.1	0.00e+00	0	60	0	3393191936	44	4750
2026-01-16 02:06:05.92	206.01	17.89	-37.1	-38.8	16.1	0.00e+00	0	60	0	3399483392	44	4751
2026-01-16 02:06:06.93	205.99	17.77	-37.1	-38.9	16.1	0.00e+00	0	60	0	3404726272	44	4762
2026-01-16 02:06:07.94	205.98	17.64	-37.1	-38.8	16.1	0.00e+00	0	60	0	3409969152	44	4742
2026-01-16 02:06:08.95	205.96	17.52	-37.1	-38.9	16.0	0.00e+00	0	60	0	3416260608	44	4779
2026-01-16 02:06:09.96	205.94	17.40	-37.2	-38.9	16.0	0.00e+00	0	60	0	3421503488	44	4798
2026-01-16 02:06:10.97	205.92	17.29	-37.2	-38.9	16.0	0.00e+00	0	60	0	3427794944	44	4791
2026-01-16 02:06:11.98	205.91	17.17	-37.2	-39.0	15.9	0.00e+00	0	60	0	3433037824	45	4554
2026-01-16 02:06:12.99	205.89	17.05	-37.2	-39.0	15.9	0.00e+00	0	61	0	3438280704	45	4570
2026-01-16 02:06:14.00	205.87	16.93	-37.2	-39.0	15.9	0.00e+00	0	60	0	3444572160	45	4565
2026-01-16 02:06:15.01	205.85	16.81	-37.3	-39.0	15.9	0.00e+00	0	61	0	3449815040	45	4587
2026-01-16 02:06:16.02	205.84	16.70	-37.3	-39.1	15.8	0.00e+00	0	60	0	3456106496	45	4621
2026-01-16 02:06:17.03	205.82	16.58	-37.3	-39.1	15.8	0.00e+00	0	60	0	3461349376	45	4630
2026-01-16 02:06:18.04	205.80	16.47	-37.3	-39.1	15.8	0.00e+00	0	60	0	3467640832	45	4632
2026-01-16 02:06:19.05	205.79	16.35	-37.4	-39.2	15.7	0.00e+00	0	61	0	3472883712	45	4672
2026-01-16 02:06:20.06	205.77	16.24	-37.4	-39.3	15.6	0.00e+00	0	60	0	3479175168	45	4706
2026-01-16 02:06:21.07	205.76	16.12	-37.4	-39.2	15.6	0.00e+00	0	61	0	3484418048	45	4703
2026-01-16 02:06:22.08	205.74	16.01	-37.5	-39.3	15.5	0.00e+00	0	60	0	3489660928	45	4745
2026-01-16 02:06:23.09	205.73	15.90	-37.6	-39.4	15.5	0.00e+00	0	60	0	3495952384	45	4797
2026-01-16 02:06:24.10	205.71	15.79	-37.6	-39.5	15.4	0.00e+00	0	60	0	3501195264	45	4825
