passes_logs/2026/01/16/R2.0S_Moscow/R2.0S_Moscow__20260116_151040_FENGYUN_3E_rec.log

#Pass ID: 20260116_151040_FENGYUN 3E
#Satellite: FENGYUN 3E
#Configuration: FENGYUN 3E
#almurnet v.1.7.20251203
#Start time: 2026-01-16 15:10:40

#Version: 2.2.20231116
#Station: R2.0S_Moscow
#Location: 37.707566 lon 55.798166 lat
#TLE: 1 49008U 21062A   26015.99225297  .00000062  00000+0  49720-4 0  9994
#TLE: 2 49008  98.7486  21.1092 0002100 136.3389 223.7953 14.19885247234982

#Time	Az	El	Level	Level2	SNR	BER	BlckErr	Temp	State	Recorded	gain1	gain2
2026-01-16 15:10:40.59	189.59	2.01	-44.5	-55.5	3.8	8.47e-01	0	51	0	0	59	12909
2026-01-16 15:10:41.59	189.64	2.07	-44.5	-55.5	3.8	8.46e-01	0	52	104	0	59	12895
2026-01-16 15:10:42.60	189.68	2.13	-44.5	-55.5	3.8	8.46e-01	0	51	104	0	59	12948
2026-01-16 15:10:43.61	189.73	2.19	-44.5	-55.5	3.8	8.46e-01	0	52	104	0	59	12949
2026-01-16 15:10:44.62	189.78	2.26	-44.5	-55.5	3.8	8.46e-01	0	52	104	0	59	12877
2026-01-16 15:10:45.64	189.83	2.32	-44.4	-55.5	3.8	8.46e-01	0	52	104	0	59	12949
2026-01-16 15:10:46.65	189.88	2.38	-44.5	-55.5	3.8	8.46e-01	0	52	104	0	59	12958
2026-01-16 15:10:47.65	189.92	2.44	-44.5	-55.5	3.8	8.47e-01	0	52	104	0	59	12891
2026-01-16 15:10:48.66	189.97	2.50	-44.5	-55.5	3.8	8.45e-01	0	52	104	0	59	12927
2026-01-16 15:10:49.67	190.02	2.57	-44.5	-55.5	3.8	8.47e-01	0	52	104	0	59	12930
2026-01-16 15:10:50.68	190.07	2.63	-44.5	-55.5	3.8	8.47e-01	0	52	104	0	59	12889
2026-01-16 15:10:51.69	190.12	2.69	-44.5	-55.5	3.8	8.46e-01	0	52	104	0	59	12930
2026-01-16 15:10:52.70	190.17	2.75	-44.5	-55.5	3.8	8.45e-01	0	52	104	0	59	12907
2026-01-16 15:10:53.71	190.22	2.82	-44.5	-55.5	3.8	8.46e-01	0	53	104	0	59	12951
2026-01-16 15:10:54.72	190.27	2.88	-44.5	-55.6	3.8	8.46e-01	0	53	104	0	59	12969
2026-01-16 15:10:55.74	190.32	2.94	-44.5	-55.5	3.8	8.47e-01	0	53	104	0	59	12942
2026-01-16 15:10:56.75	190.37	3.01	-44.5	-55.5	3.8	8.46e-01	0	53	104	0	59	12905
2026-01-16 15:10:57.76	190.42	3.07	-44.5	-55.5	3.8	8.47e-01	0	53	104	0	59	12893
2026-01-16 15:10:58.77	190.47	3.13	-44.5	-55.5	3.8	8.46e-01	0	53	104	0	59	12950
2026-01-16 15:10:59.78	190.52	3.20	-44.5	-55.5	3.8	8.46e-01	0	53	104	0	59	12879
2026-01-16 15:11:00.79	190.57	3.26	-44.5	-55.5	3.8	8.45e-01	0	53	104	0	59	12907
2026-01-16 15:11:01.80	190.62	3.32	-44.5	-55.5	3.8	8.45e-01	0	53	104	0	59	12941
2026-01-16 15:11:02.81	190.67	3.39	-44.5	-55.5	3.8	8.46e-01	0	53	104	0	59	12915
2026-01-16 15:11:03.82	190.72	3.45	-44.5	-55.6	3.8	8.46e-01	0	53	104	0	59	12989
2026-01-16 15:11:04.83	190.77	3.51	-44.5	-55.5	3.8	8.47e-01	0	53	104	0	59	12917
2026-01-16 15:11:05.84	190.82	3.58	-44.5	-55.5	3.8	8.47e-01	0	54	104	0	59	12945
2026-01-16 15:11:06.85	190.88	3.64	-44.5	-55.5	3.8	8.47e-01	0	53	104	0	59	12916
2026-01-16 15:11:07.87	190.93	3.71	-44.5	-55.5	3.8	8.45e-01	0	53	104	0	59	12884
2026-01-16 15:11:08.88	190.98	3.77	-44.5	-55.5	3.8	8.45e-01	0	54	104	0	59	12901
2026-01-16 15:11:09.89	191.03	3.84	-44.5	-55.5	3.8	8.45e-01	0	54	104	0	59	12887
2026-01-16 15:11:10.90	191.09	3.90	-44.5	-55.5	3.8	8.46e-01	0	54	104	0	59	12883
2026-01-16 15:11:11.91	191.14	3.97	-44.5	-55.5	3.8	8.47e-01	0	54	104	0	59	12891
2026-01-16 15:11:12.92	191.19	4.03	-44.5	-55.5	3.8	8.47e-01	0	54	104	0	59	12958
2026-01-16 15:11:13.93	191.25	4.10	-44.4	-55.5	3.8	8.46e-01	0	54	104	0	59	12917
2026-01-16 15:11:14.94	191.30	4.16	-44.5	-55.5	3.8	8.45e-01	0	54	104	0	59	12881
2026-01-16 15:11:15.95	191.36	4.23	-44.5	-55.5	3.8	8.47e-01	0	54	104	0	59	12843
2026-01-16 15:11:16.96	191.41	4.30	-44.5	-55.4	3.8	8.46e-01	0	54	104	0	59	12762
2026-01-16 15:11:17.97	191.46	4.36	-44.4	-55.4	3.8	8.46e-01	0	54	104	0	59	12743
2026-01-16 15:11:18.99	191.52	4.43	-44.5	-55.4	3.8	8.45e-01	0	54	104	0	59	12808
2026-01-16 15:11:20.00	191.57	4.49	-44.4	-55.4	3.8	8.46e-01	0	54	104	0	59	12772
2026-01-16 15:11:21.01	191.63	4.56	-44.5	-55.4	3.8	8.46e-01	0	54	104	0	59	12753
2026-01-16 15:11:22.02	191.68	4.63	-44.5	-55.3	3.8	8.47e-01	0	54	104	0	59	12642
2026-01-16 15:11:23.03	191.74	4.69	-44.4	-55.3	3.8	8.46e-01	0	55	104	0	59	12616
2026-01-16 15:11:24.04	191.80	4.76	-44.4	-55.3	3.8	8.45e-01	0	54	104	0	59	12629
2026-01-16 15:11:25.05	191.85	4.83	-44.4	-55.3	3.8	8.48e-01	0	55	104	0	59	12641
2026-01-16 15:11:26.06	191.91	4.89	-44.4	-55.2	3.8	8.46e-01	0	55	104	0	59	12440
2026-01-16 15:11:27.08	191.97	4.96	-44.4	-55.0	3.8	8.46e-01	0	55	104	0	59	12228
2026-01-16 15:11:28.09	192.02	5.03	-44.4	-54.9	3.8	8.46e-01	0	55	104	0	59	12059
2026-01-16 15:11:29.10	192.08	5.10	-44.3	-54.6	3.8	8.48e-01	0	55	104	0	59	11623
2026-01-16 15:11:30.11	192.14	5.17	-44.3	-54.1	3.8	8.47e-01	0	55	104	0	59	11025
2026-01-16 15:11:31.12	192.20	5.23	-44.3	-54.1	3.8	8.46e-01	0	55	104	0	59	11027
2026-01-16 15:11:32.13	192.25	5.30	-44.2	-53.8	3.8	8.46e-01	0	55	104	0	59	10624
2026-01-16 15:11:33.14	192.31	5.37	-44.2	-53.4	3.8	8.45e-01	0	55	104	0	59	10106
2026-01-16 15:11:34.15	192.37	5.44	-44.1	-52.9	3.9	8.44e-01	0	55	104	0	59	9579
2026-01-16 15:11:35.16	192.43	5.51	-44.0	-52.7	3.9	8.43e-01	0	55	104	0	59	9333
2026-01-16 15:11:36.17	192.49	5.57	-44.0	-52.4	4.1	8.44e-01	0	55	0	0	58	9588
2026-01-16 15:11:37.18	192.55	5.64	-43.9	-52.0	4.2	8.38e-01	0	55	0	0	58	9121
2026-01-16 15:11:38.19	192.61	5.71	-43.8	-51.5	4.3	8.34e-01	0	55	0	0	58	8584
2026-01-16 15:11:39.20	192.67	5.78	-43.7	-50.9	4.5	8.17e-01	0	55	0	0	58	8029
2026-01-16 15:11:40.21	192.73	5.85	-43.7	-50.8	4.6	8.20e-01	0	55	0	0	58	7920
2026-01-16 15:11:41.22	192.79	5.92	-43.4	-49.9	5.1	7.77e-01	0	55	0	0	57	7548
2026-01-16 15:11:42.23	192.85	5.99	-43.3	-49.6	5.2	7.56e-01	0	55	0	0	57	7294
2026-01-16 15:11:43.25	192.91	6.06	-43.1	-48.9	5.7	6.04e-01	0	56	0	0	57	6753
2026-01-16 15:11:44.26	192.97	6.13	-43.0	-48.6	5.8	6.57e-01	0	55	0	4194304	57	6558
2026-01-16 15:11:45.27	193.03	6.20	-43.0	-48.6	5.8	4.77e-01	0	56	0	10485760	56	6937
2026-01-16 15:11:46.28	193.09	6.27	-42.9	-48.5	5.9	3.93e-01	0	56	0	16777216	56	6851
2026-01-16 15:11:47.29	193.15	6.34	-43.0	-48.7	5.8	4.04e-01	0	56	0	24117248	56	6988
2026-01-16 15:11:48.30	193.22	6.41	-42.8	-48.3	6.1	3.18e-01	0	56	0	31457280	56	6652
2026-01-16 15:11:49.31	193.28	6.48	-43.0	-48.8	5.7	4.33e-01	0	56	0	38797312	56	7055
2026-01-16 15:11:50.32	193.34	6.55	-42.9	-48.4	6.0	5.82e-01	0	56	0	45088768	56	6774
2026-01-16 15:11:51.33	193.40	6.62	-43.1	-49.0	5.6	6.43e-01	0	56	0	50331648	56	7246
2026-01-16 15:11:52.34	193.47	6.70	-43.1	-49.1	5.5	6.58e-01	0	56	0	53477376	56	7353
2026-01-16 15:11:53.36	193.53	6.77	-43.2	-49.4	5.3	7.16e-01	0	56	0	55574528	56	7620
2026-01-16 15:11:54.37	193.60	6.84	-43.1	-49.0	5.5	7.06e-01	0	56	0	57671680	56	7271
2026-01-16 15:11:55.38	193.66	6.91	-42.9	-48.5	6.0	3.89e-01	0	56	0	62914560	56	6841
2026-01-16 15:11:56.39	193.73	6.98	-42.8	-48.1	6.3	3.01e-01	0	56	0	71303168	56	6501
2026-01-16 15:11:57.40	193.79	7.05	-42.3	-46.9	7.1	1.76e-01	0	56	0	77594624	55	6058
2026-01-16 15:11:58.41	193.86	7.13	-42.0	-46.3	7.7	9.88e-02	0	56	0	84934656	54	5952
2026-01-16 15:11:59.42	193.92	7.20	-41.5	-45.3	8.7	4.82e-02	0	56	0	92274688	54	5335
2026-01-16 15:12:00.43	193.99	7.27	-40.9	-44.3	9.7	1.78e-02	0	57	0	99614720	52	5324
2026-01-16 15:12:01.44	194.05	7.34	-40.4	-43.5	10.6	4.35e-03	0	56	0	106954752	51	5143
2026-01-16 15:12:02.46	194.12	7.42	-40.0	-42.8	11.3	1.60e-03	0	56	0	114294784	51	4757
2026-01-16 15:12:03.47	194.19	7.49	-39.6	-42.3	11.9	5.29e-04	0	56	0	121634816	50	4709
2026-01-16 15:12:04.48	194.25	7.56	-39.3	-41.9	12.3	2.31e-04	0	57	0	128974848	49	4788
2026-01-16 15:12:05.49	194.32	7.64	-39.1	-41.6	12.6	1.07e-04	0	57	0	136314880	49	4621
2026-01-16 15:12:06.50	194.39	7.71	-38.7	-41.1	13.1	5.49e-05	0	57	0	143654912	48	4623
2026-01-16 15:12:07.51	194.46	7.79	-38.6	-41.1	13.1	3.08e-05	0	57	0	150994944	48	4609
2026-01-16 15:12:08.52	194.53	7.86	-38.6	-41.0	13.2	3.31e-05	0	57	0	158334976	48	4591
2026-01-16 15:12:09.53	194.59	7.93	-38.6	-41.0	13.1	2.97e-05	0	57	0	165675008	48	4597
2026-01-16 15:12:10.54	194.66	8.01	-38.9	-41.5	12.8	5.83e-05	0	57	0	173015040	48	4819
2026-01-16 15:12:11.55	194.73	8.08	-43.1	-48.5	6.5	4.00e-05	0	57	0	180355072	55	7213
2026-01-16 15:12:12.56	194.80	8.16	-43.2	-48.5	6.0	8.16e-01	0	57	0	180355072	57	6492
2026-01-16 15:12:13.57	194.87	8.23	-39.4	-42.1	12.3	5.37e-05	0	57	0	187695104	48	5186
2026-01-16 15:12:14.59	194.94	8.31	-43.1	-49.4	5.2	6.75e-01	0	57	0	191889408	55	8022
2026-01-16 15:12:15.59	195.01	8.38	-38.7	-41.2	13.1	1.44e-01	0	57	0	191889408	48	4656
2026-01-16 15:12:16.60	195.09	8.46	-39.1	-41.6	12.9	5.33e-04	0	57	0	199229440	49	4599
2026-01-16 15:12:17.61	195.16	8.53	-38.5	-40.9	13.4	2.20e-06	0	57	0	206569472	48	4525
2026-01-16 15:12:18.62	195.23	8.61	-38.5	-40.8	13.5	4.50e-06	0	57	0	213909504	48	4489
2026-01-16 15:12:19.63	195.30	8.69	-38.3	-40.6	13.6	9.10e-06	0	57	0	221249536	47	4634
2026-01-16 15:12:20.64	195.37	8.76	-38.1	-40.4	13.8	3.40e-06	0	57	0	228589568	47	4508
2026-01-16 15:12:21.65	195.45	8.84	-38.2	-40.6	13.7	1.02e-05	0	57	0	235929600	47	4609
2026-01-16 15:12:22.66	195.52	8.92	-38.2	-40.5	13.7	1.25e-05	0	57	0	243269632	47	4561
2026-01-16 15:12:23.67	195.59	8.99	-38.1	-40.4	13.8	6.80e-06	0	57	0	250609664	47	4532
2026-01-16 15:12:24.68	195.67	9.07	-38.0	-40.3	14.0	3.40e-06	0	57	0	256901120	47	4450
2026-01-16 15:12:25.69	195.74	9.15	-38.1	-40.4	13.8	4.50e-06	0	57	0	265289728	46	4814
2026-01-16 15:12:26.70	195.82	9.22	-38.1	-40.4	13.9	0.00e+00	0	58	0	272629760	46	4766
2026-01-16 15:12:27.71	195.89	9.30	-38.0	-40.2	14.1	1.10e-06	0	57	0	278921216	46	4681
2026-01-16 15:12:28.72	195.97	9.38	-38.1	-40.4	13.9	3.40e-06	0	57	0	286261248	46	4788
2026-01-16 15:12:29.73	196.04	9.46	-38.1	-40.4	13.9	1.10e-06	0	58	0	293601280	46	4775
2026-01-16 15:12:30.74	196.12	9.54	-38.0	-40.3	14.0	0.00e+00	0	57	0	300941312	46	4743
2026-01-16 15:12:31.75	196.20	9.61	-38.0	-40.3	14.0	0.00e+00	0	58	0	308281344	46	4722
2026-01-16 15:12:32.76	196.27	9.69	-37.9	-40.2	14.1	1.10e-06	0	58	0	315621376	46	4669
2026-01-16 15:12:33.77	196.35	9.77	-38.1	-40.4	14.0	0.00e+00	0	58	0	322961408	46	4763
2026-01-16 15:12:34.78	196.43	9.85	-38.0	-40.3	14.1	3.40e-06	0	57	0	330301440	46	4710
2026-01-16 15:12:35.79	196.51	9.93	-38.1	-40.3	14.0	2.20e-06	0	58	0	337641472	46	4758
2026-01-16 15:12:36.80	196.59	10.01	-38.0	-40.3	14.1	2.20e-06	0	58	0	344981504	46	4729
2026-01-16 15:12:37.82	196.67	10.09	-37.9	-40.2	14.2	1.10e-06	0	58	0	352321536	46	4669
2026-01-16 15:12:38.83	196.75	10.17	-38.0	-40.3	14.1	0.00e+00	0	58	0	359661568	46	4711
2026-01-16 15:12:39.84	196.83	10.25	-38.0	-40.3	14.1	0.00e+00	0	58	0	367001600	46	4736
2026-01-16 15:12:40.85	196.91	10.33	-38.0	-40.3	14.1	1.10e-06	0	58	0	374341632	46	4717
2026-01-16 15:12:41.86	196.99	10.41	-38.0	-40.2	14.2	0.00e+00	0	58	0	381681664	46	4688
2026-01-16 15:12:42.87	197.07	10.49	-37.8	-39.9	14.4	0.00e+00	0	58	0	389021696	46	4543
2026-01-16 15:12:43.88	197.15	10.57	-38.0	-40.2	14.2	0.00e+00	0	58	0	396361728	46	4674
2026-01-16 15:12:44.88	197.23	10.65	-38.0	-40.3	14.1	1.10e-06	0	58	0	403701760	46	4735
2026-01-16 15:12:45.89	197.31	10.74	-37.9	-40.1	14.3	1.10e-06	0	58	0	411041792	46	4617
2026-01-16 15:12:46.90	197.40	10.82	-37.9	-40.1	14.3	1.10e-06	0	58	0	418381824	46	4612
2026-01-16 15:12:47.91	197.48	10.90	-37.8	-40.0	14.4	0.00e+00	0	58	0	424673280	46	4557
2026-01-16 15:12:48.92	197.56	10.98	-37.9	-40.1	14.3	0.00e+00	0	58	0	432013312	46	4646
2026-01-16 15:12:49.93	197.65	11.06	-37.7	-39.9	14.6	0.00e+00	0	58	0	439353344	46	4494
2026-01-16 15:12:50.94	197.73	11.15	-37.8	-39.9	14.5	0.00e+00	0	58	0	446693376	46	4530
2026-01-16 15:12:51.95	197.82	11.23	-37.7	-39.8	14.7	0.00e+00	0	58	0	454033408	46	4456
2026-01-16 15:12:52.96	197.90	11.31	-37.8	-39.9	14.6	0.00e+00	0	58	0	461373440	46	4538
2026-01-16 15:12:53.97	197.99	11.40	-37.7	-39.8	14.7	0.00e+00	0	58	0	468713472	45	4717
2026-01-16 15:12:54.98	198.08	11.48	-37.7	-39.8	14.6	0.00e+00	0	58	0	476053504	45	4751
2026-01-16 15:12:55.99	198.16	11.56	-37.7	-39.8	14.7	1.10e-06	0	58	0	483393536	45	4730
2026-01-16 15:12:57.00	198.25	11.65	-37.7	-39.8	14.7	1.10e-06	0	58	0	490733568	45	4716
2026-01-16 15:12:58.01	198.34	11.73	-37.6	-39.7	14.9	0.00e+00	0	58	0	498073600	45	4657
2026-01-16 15:12:59.02	198.43	11.82	-37.6	-39.7	14.8	0.00e+00	0	58	0	505413632	45	4675
2026-01-16 15:13:00.03	198.52	11.90	-37.6	-39.7	14.8	0.00e+00	0	58	0	512753664	45	4657
2026-01-16 15:13:01.05	198.61	11.99	-37.6	-39.6	14.9	0.00e+00	0	58	0	520093696	45	4641
2026-01-16 15:13:02.06	198.70	12.07	-37.5	-39.6	14.9	0.00e+00	0	58	0	527433728	45	4613
2026-01-16 15:13:03.07	198.79	12.16	-37.4	-39.5	15.0	0.00e+00	0	58	0	534773760	45	4551
2026-01-16 15:13:04.08	198.88	12.24	-37.6	-39.7	14.9	0.00e+00	0	58	0	542113792	45	4652
2026-01-16 15:13:05.09	198.97	12.33	-37.5	-39.5	15.0	0.00e+00	0	58	0	549453824	45	4573
2026-01-16 15:13:06.10	199.06	12.41	-37.6	-39.7	14.9	0.00e+00	0	58	0	556793856	45	4654
2026-01-16 15:13:07.11	199.16	12.50	-37.6	-39.7	14.8	0.00e+00	0	59	0	564133888	45	4669
2026-01-16 15:13:08.12	199.25	12.59	-37.6	-39.7	14.9	0.00e+00	0	59	0	571473920	45	4669
2026-01-16 15:13:09.13	199.34	12.67	-37.6	-39.6	14.9	0.00e+00	0	59	0	577765376	45	4647
2026-01-16 15:13:10.13	199.44	12.76	-37.5	-39.6	15.0	0.00e+00	0	58	0	586153984	45	4601
2026-01-16 15:13:11.14	199.53	12.85	-37.6	-39.6	14.9	0.00e+00	0	58	0	593494016	45	4624
2026-01-16 15:13:12.16	199.63	12.93	-37.5	-39.6	15.0	0.00e+00	0	59	0	599785472	45	4612
2026-01-16 15:13:13.17	199.72	13.02	-37.6	-39.7	14.8	0.00e+00	0	58	0	607125504	45	4689
2026-01-16 15:13:14.18	199.82	13.11	-37.6	-39.6	15.0	0.00e+00	0	59	0	614465536	45	4628
2026-01-16 15:13:15.19	199.92	13.20	-37.6	-39.6	14.9	0.00e+00	0	59	0	621805568	45	4642
2026-01-16 15:13:16.20	200.02	13.29	-37.5	-39.5	15.0	0.00e+00	0	59	0	629145600	45	4595
2026-01-16 15:13:17.21	200.11	13.38	-37.5	-39.5	15.0	0.00e+00	0	59	0	636485632	45	4584
2026-01-16 15:13:18.22	200.21	13.47	-37.5	-39.6	15.0	0.00e+00	0	59	0	643825664	45	4601
2026-01-16 15:13:19.22	200.31	13.55	-37.5	-39.5	15.1	0.00e+00	0	59	0	651165696	45	4546
2026-01-16 15:13:20.23	200.41	13.64	-37.4	-39.4	15.2	0.00e+00	0	59	0	658505728	45	4504
2026-01-16 15:13:21.24	200.51	13.73	-37.4	-39.4	15.2	0.00e+00	0	59	0	665845760	45	4504
2026-01-16 15:13:22.25	200.61	13.82	-37.5	-39.4	15.1	0.00e+00	0	59	0	673185792	45	4544
2026-01-16 15:13:23.26	200.71	13.91	-37.5	-39.4	15.2	0.00e+00	0	59	0	680525824	45	4540
2026-01-16 15:13:24.27	200.82	14.00	-37.3	-39.3	15.3	0.00e+00	0	59	0	687865856	45	4465
2026-01-16 15:13:25.28	200.92	14.09	-37.5	-39.5	15.1	0.00e+00	0	59	0	695205888	45	4578
2026-01-16 15:13:26.29	201.02	14.19	-37.4	-39.4	15.2	0.00e+00	0	59	0	702545920	45	4512
2026-01-16 15:13:27.30	201.13	14.28	-37.3	-39.3	15.3	0.00e+00	0	59	0	709885952	45	4460
2026-01-16 15:13:28.31	201.23	14.37	-37.4	-39.3	15.3	1.10e-06	0	59	0	717225984	45	4469
2026-01-16 15:13:29.32	201.34	14.46	-37.4	-39.3	15.3	0.00e+00	0	59	0	724566016	45	4490
2026-01-16 15:13:30.33	201.44	14.55	-37.4	-39.3	15.3	0.00e+00	0	59	0	730857472	45	4488
2026-01-16 15:13:31.34	201.55	14.64	-37.3	-39.3	15.4	0.00e+00	0	59	0	739246080	45	4445
2026-01-16 15:13:32.35	201.66	14.74	-37.3	-39.2	15.4	0.00e+00	0	59	0	746586112	45	4433
2026-01-16 15:13:33.36	201.76	14.83	-37.3	-39.2	15.5	0.00e+00	0	59	0	752877568	45	4404
2026-01-16 15:13:34.37	201.87	14.92	-37.1	-39.0	15.6	0.00e+00	0	59	0	760217600	45	4317
2026-01-16 15:13:35.38	201.98	15.02	-37.1	-38.9	15.8	0.00e+00	0	59	0	767557632	44	4518
2026-01-16 15:13:36.39	202.09	15.11	-37.1	-38.9	15.8	0.00e+00	0	59	0	774897664	44	4538
2026-01-16 15:13:37.40	202.20	15.20	-37.0	-38.9	15.8	0.00e+00	0	59	0	782237696	44	4494
2026-01-16 15:13:38.41	202.31	15.30	-37.0	-38.9	15.8	0.00e+00	0	59	0	789577728	44	4509
2026-01-16 15:13:39.42	202.42	15.39	-37.0	-38.8	15.9	0.00e+00	0	59	0	796917760	44	4488
2026-01-16 15:13:40.43	202.54	15.49	-36.9	-38.6	16.1	0.00e+00	0	59	0	804257792	44	4379
2026-01-16 15:13:41.44	202.65	15.58	-37.0	-38.8	15.9	0.00e+00	0	59	0	811597824	44	4460
2026-01-16 15:13:42.45	202.76	15.68	-36.9	-38.7	16.0	0.00e+00	0	59	0	818937856	44	4423
2026-01-16 15:13:43.46	202.88	15.77	-36.9	-38.8	16.0	0.00e+00	0	59	0	826277888	44	4443
2026-01-16 15:13:44.47	202.99	15.87	-37.0	-38.8	15.9	0.00e+00	0	59	0	833617920	44	4467
2026-01-16 15:13:45.48	203.11	15.96	-36.8	-38.6	16.1	0.00e+00	0	59	0	840957952	44	4364
2026-01-16 15:13:46.49	203.23	16.06	-36.8	-38.6	16.1	0.00e+00	0	59	0	848297984	44	4365
2026-01-16 15:13:47.50	203.34	16.16	-36.8	-38.6	16.1	0.00e+00	0	59	0	855638016	44	4366
2026-01-16 15:13:48.51	203.46	16.25	-36.8	-38.7	16.1	0.00e+00	0	59	0	862978048	44	4407
2026-01-16 15:13:49.52	203.58	16.35	-36.8	-38.7	16.1	0.00e+00	0	59	0	870318080	44	4400
2026-01-16 15:13:50.53	203.70	16.45	-36.8	-38.6	16.1	0.00e+00	0	59	0	876609536	44	4382
2026-01-16 15:13:51.54	203.82	16.55	-36.7	-38.5	16.2	0.00e+00	0	59	0	884998144	44	4333
2026-01-16 15:13:52.55	203.94	16.64	-36.7	-38.5	16.2	0.00e+00	0	59	0	892338176	44	4339
2026-01-16 15:13:53.56	204.06	16.74	-36.7	-38.5	16.3	0.00e+00	0	59	0	898629632	44	4322
2026-01-16 15:13:54.57	204.19	16.84	-36.7	-38.5	16.3	0.00e+00	0	59	0	905969664	44	4323
2026-01-16 15:13:55.58	204.31	16.94	-36.6	-38.4	16.4	0.00e+00	0	59	0	913309696	44	4261
2026-01-16 15:13:56.59	204.43	17.04	-36.4	-38.2	16.4	0.00e+00	0	59	0	920649728	43	4437
2026-01-16 15:13:57.60	204.56	17.14	-36.4	-38.2	16.4	0.00e+00	0	59	0	927989760	43	4435
2026-01-16 15:13:58.61	204.69	17.24	-36.5	-38.3	16.3	0.00e+00	0	59	0	935329792	43	4472
2026-01-16 15:13:59.62	204.81	17.34	-36.4	-38.2	16.4	0.00e+00	0	59	0	942669824	43	4424
2026-01-16 15:14:00.63	204.94	17.44	-36.3	-38.0	16.5	0.00e+00	0	60	0	950009856	43	4339
2026-01-16 15:14:01.64	205.07	17.54	-36.2	-38.0	16.6	0.00e+00	0	59	0	957349888	43	4296
2026-01-16 15:14:02.65	205.20	17.64	-36.3	-38.1	16.5	0.00e+00	0	60	0	964689920	43	4372
2026-01-16 15:14:03.66	205.33	17.74	-36.3	-38.1	16.5	0.00e+00	0	59	0	972029952	43	4342
2026-01-16 15:14:04.67	205.46	17.84	-36.2	-38.0	16.6	0.00e+00	0	60	0	979369984	43	4303
2026-01-16 15:14:05.68	205.59	17.94	-36.1	-37.9	16.7	0.00e+00	0	59	0	986710016	43	4273
2026-01-16 15:14:06.69	205.72	18.05	-36.3	-38.2	16.4	0.00e+00	0	59	0	994050048	43	4399
2026-01-16 15:14:07.70	205.86	18.15	-36.2	-38.0	16.6	0.00e+00	0	60	0	1001390080	43	4292
2026-01-16 15:14:08.71	205.99	18.25	-36.2	-38.0	16.6	0.00e+00	0	59	0	1008730112	43	4303
2026-01-16 15:14:09.72	206.13	18.35	-36.2	-38.0	16.6	0.00e+00	0	59	0	1016070144	43	4321
2026-01-16 15:14:10.73	206.26	18.46	-36.1	-37.9	16.7	0.00e+00	0	60	0	1023410176	43	4275
2026-01-16 15:14:11.74	206.40	18.56	-36.1	-37.9	16.6	0.00e+00	0	60	0	1030750208	43	4291
2026-01-16 15:14:12.75	206.54	18.66	-36.2	-38.0	16.6	0.00e+00	0	59	0	1038090240	43	4326
2026-01-16 15:14:13.76	206.68	18.77	-36.2	-38.1	16.6	0.00e+00	0	60	0	1045430272	43	4349
2026-01-16 15:14:14.77	206.82	18.87	-36.3	-38.1	16.5	0.00e+00	0	59	0	1051721728	43	4382
2026-01-16 15:14:15.78	206.96	18.97	-36.2	-38.1	16.5	0.00e+00	0	60	0	1059061760	43	4364
2026-01-16 15:14:16.79	207.10	19.08	-36.3	-38.1	16.4	0.00e+00	0	60	0	1067450368	43	4386
2026-01-16 15:14:17.80	207.24	19.18	-36.2	-38.0	16.6	0.00e+00	0	60	0	1073741824	43	4314
2026-01-16 15:14:18.81	207.38	19.29	-36.2	-38.0	16.5	0.00e+00	0	59	0	1081081856	43	4333
2026-01-16 15:14:19.82	207.53	19.39	-36.1	-37.9	16.6	0.00e+00	0	60	0	1088421888	43	4271
2026-01-16 15:14:20.83	207.67	19.50	-36.0	-37.8	16.8	0.00e+00	0	60	0	1095761920	43	4225
2026-01-16 15:14:21.84	207.82	19.61	-36.1	-37.8	16.7	0.00e+00	0	60	0	1103101952	42	4493
2026-01-16 15:14:22.85	207.97	19.71	-36.0	-37.8	16.8	0.00e+00	0	60	0	1110441984	42	4466
2026-01-16 15:14:23.86	208.12	19.82	-36.0	-37.8	16.8	0.00e+00	0	60	0	1117782016	42	4443
2026-01-16 15:14:24.87	208.27	19.92	-35.8	-37.5	17.0	0.00e+00	0	60	0	1125122048	42	4315
2026-01-16 15:14:25.88	208.42	20.03	-35.9	-37.6	16.9	0.00e+00	0	60	0	1132462080	42	4377
2026-01-16 15:14:26.89	208.57	20.14	-35.7	-37.4	17.2	0.00e+00	0	60	0	1139802112	42	4250
2026-01-16 15:14:27.90	208.72	20.25	-35.7	-37.5	17.1	0.00e+00	0	60	0	1147142144	42	4298
2026-01-16 15:14:28.91	208.87	20.35	-35.7	-37.4	17.1	0.00e+00	0	60	0	1154482176	42	4287
2026-01-16 15:14:29.92	209.03	20.46	-35.8	-37.5	17.0	0.00e+00	0	60	0	1161822208	42	4326
2026-01-16 15:14:30.93	209.18	20.57	-35.8	-37.5	17.1	0.00e+00	0	60	0	1169162240	42	4306
2026-01-16 15:14:31.94	209.34	20.68	-35.8	-37.5	17.0	0.00e+00	0	60	0	1176502272	42	4338
2026-01-16 15:14:32.95	209.50	20.79	-35.7	-37.5	17.1	0.00e+00	0	60	0	1183842304	42	4307
2026-01-16 15:14:33.96	209.66	20.90	-35.8	-37.6	17.0	0.00e+00	0	60	0	1191182336	42	4349
2026-01-16 15:14:34.97	209.82	21.01	-35.8	-37.6	17.0	0.00e+00	0	60	0	1197473792	42	4357
2026-01-16 15:14:35.98	209.98	21.12	-35.7	-37.5	17.1	0.00e+00	0	60	0	1204813824	42	4302
2026-01-16 15:14:36.99	210.14	21.23	-35.8	-37.5	17.0	0.00e+00	0	60	0	1213202432	42	4320
2026-01-16 15:14:38.00	210.30	21.34	-35.6	-37.3	17.2	0.00e+00	0	60	0	1219493888	42	4228
2026-01-16 15:14:39.02	210.47	21.45	-35.7	-37.5	17.1	0.00e+00	0	60	0	1226833920	42	4295
2026-01-16 15:14:40.03	210.64	21.56	-35.7	-37.5	17.1	0.00e+00	0	60	0	1234173952	42	4295
2026-01-16 15:14:41.04	210.80	21.67	-35.8	-37.5	17.1	0.00e+00	0	60	0	1241513984	42	4318
2026-01-16 15:14:42.05	210.97	21.78	-35.8	-37.6	17.0	0.00e+00	0	60	0	1248854016	42	4348
2026-01-16 15:14:43.06	211.14	21.89	-35.7	-37.5	17.1	0.00e+00	0	60	0	1256194048	42	4307
2026-01-16 15:14:44.07	211.31	22.00	-35.7	-37.5	17.1	0.00e+00	0	60	0	1263534080	42	4311
2026-01-16 15:14:45.08	211.48	22.11	-35.6	-37.4	17.2	0.00e+00	0	60	0	1270874112	42	4257
2026-01-16 15:14:46.08	211.65	22.23	-35.7	-37.4	17.2	0.00e+00	0	60	0	1278214144	42	4269
2026-01-16 15:14:47.09	211.83	22.34	-35.5	-37.2	17.4	0.00e+00	0	60	0	1285554176	42	4183
2026-01-16 15:14:48.10	212.00	22.45	-35.5	-37.2	17.4	0.00e+00	0	60	0	1292894208	41	4418
2026-01-16 15:14:49.11	212.18	22.56	-35.6	-37.3	17.3	0.00e+00	0	60	0	1300234240	41	4484
2026-01-16 15:14:50.12	212.36	22.68	-35.4	-37.1	17.5	0.00e+00	0	60	0	1307574272	41	4359
2026-01-16 15:14:51.13	212.54	22.79	-35.4	-37.1	17.5	0.00e+00	0	60	0	1314914304	41	4370
2026-01-16 15:14:52.14	212.72	22.90	-35.5	-37.1	17.4	0.00e+00	0	60	0	1322254336	41	4388
2026-01-16 15:14:53.15	212.90	23.02	-35.4	-37.1	17.5	0.00e+00	0	60	0	1329594368	41	4369
2026-01-16 15:14:54.16	213.08	23.13	-35.4	-37.0	17.5	0.00e+00	0	60	0	1336934400	41	4335
2026-01-16 15:14:55.17	213.26	23.24	-35.5	-37.2	17.4	0.00e+00	0	60	0	1344274432	41	4395
2026-01-16 15:14:56.18	213.45	23.36	-35.5	-37.2	17.4	0.00e+00	0	60	0	1350565888	41	4415
2026-01-16 15:14:57.19	213.64	23.47	-35.5	-37.2	17.4	0.00e+00	0	60	0	1358954496	41	4441
2026-01-16 15:14:58.20	213.82	23.59	-35.5	-37.2	17.4	0.00e+00	0	60	0	1366294528	41	4428
2026-01-16 15:14:59.21	214.01	23.70	-35.5	-37.2	17.4	0.00e+00	0	60	0	1372585984	41	4402
2026-01-16 15:15:00.22	214.21	23.82	-35.5	-37.2	17.5	0.00e+00	0	60	0	1379926016	41	4400
2026-01-16 15:15:01.23	214.40	23.93	-35.4	-37.1	17.5	0.00e+00	0	60	0	1387266048	41	4358
2026-01-16 15:15:02.24	214.59	24.05	-35.3	-37.0	17.6	0.00e+00	0	60	0	1394606080	41	4300
2026-01-16 15:15:03.25	214.79	24.16	-35.4	-37.0	17.6	0.00e+00	0	60	0	1401946112	41	4320
2026-01-16 15:15:04.26	214.98	24.28	-35.3	-37.0	17.7	0.00e+00	0	60	0	1409286144	41	4292
2026-01-16 15:15:05.27	215.18	24.40	-35.3	-36.9	17.7	0.00e+00	0	60	0	1416626176	41	4281
2026-01-16 15:15:06.28	215.38	24.51	-35.3	-36.9	17.7	0.00e+00	0	60	0	1423966208	41	4274
2026-01-16 15:15:07.29	215.58	24.63	-35.2	-36.8	17.8	0.00e+00	0	60	0	1431306240	41	4226
2026-01-16 15:15:08.30	215.78	24.74	-35.2	-36.8	17.8	0.00e+00	0	60	0	1438646272	41	4218
2026-01-16 15:15:09.31	215.99	24.86	-35.1	-36.8	17.8	0.00e+00	0	60	0	1445986304	41	4203
2026-01-16 15:15:10.32	216.19	24.98	-35.1	-36.7	17.9	0.00e+00	0	60	0	1453326336	41	4171
2026-01-16 15:15:11.33	216.40	25.09	-35.0	-36.6	18.0	0.00e+00	0	60	0	1460666368	41	4135
2026-01-16 15:15:12.34	216.61	25.21	-35.0	-36.6	18.0	0.00e+00	0	60	0	1468006400	40	4379
2026-01-16 15:15:13.35	216.81	25.33	-35.0	-36.7	18.0	0.00e+00	0	60	0	1475346432	40	4400
2026-01-16 15:15:14.36	217.03	25.44	-35.1	-36.7	17.9	0.00e+00	0	60	0	1482686464	40	4414
2026-01-16 15:15:15.37	217.24	25.56	-35.1	-36.7	17.9	0.00e+00	0	60	0	1490026496	40	4404
2026-01-16 15:15:16.38	217.45	25.68	-35.1	-36.7	17.9	0.00e+00	0	60	0	1496317952	40	4416
2026-01-16 15:15:17.39	217.67	25.80	-35.0	-36.6	18.0	0.00e+00	0	60	0	1504706560	40	4390
2026-01-16 15:15:18.39	217.88	25.91	-34.9	-36.5	18.1	0.00e+00	0	60	0	1512046592	40	4329
2026-01-16 15:15:19.40	218.10	26.03	-35.0	-36.6	18.1	0.00e+00	0	60	0	1518338048	40	4352
2026-01-16 15:15:20.41	218.32	26.15	-35.0	-36.6	18.1	0.00e+00	0	60	0	1525678080	40	4345
2026-01-16 15:15:21.42	218.54	26.27	-34.9	-36.5	18.1	0.00e+00	0	60	0	1533018112	40	4325
2026-01-16 15:15:22.44	218.77	26.39	-35.1	-36.7	18.0	0.00e+00	0	60	0	1540358144	40	4405
2026-01-16 15:15:23.45	219.00	26.50	-35.1	-36.7	17.9	0.00e+00	0	60	0	1547698176	40	4430
2026-01-16 15:15:24.46	219.22	26.62	-35.1	-36.7	17.9	0.00e+00	0	60	0	1555038208	40	4421
2026-01-16 15:15:25.47	219.45	26.74	-35.1	-36.7	17.9	0.00e+00	0	60	0	1562378240	40	4437
2026-01-16 15:15:26.48	219.68	26.86	-35.2	-36.8	17.9	0.00e+00	0	60	0	1569718272	40	4467
2026-01-16 15:15:27.49	219.91	26.98	-35.1	-36.8	17.8	0.00e+00	0	60	0	1577058304	40	4463
2026-01-16 15:15:28.50	220.15	27.09	-35.1	-36.7	17.9	0.00e+00	0	60	0	1584398336	40	4416
2026-01-16 15:15:29.51	220.38	27.21	-35.0	-36.6	18.0	0.00e+00	0	60	0	1591738368	40	4381
2026-01-16 15:15:30.52	220.62	27.33	-35.0	-36.6	18.0	0.00e+00	0	60	0	1599078400	40	4365
2026-01-16 15:15:31.53	220.86	27.45	-34.9	-36.5	18.1	0.00e+00	0	60	0	1606418432	40	4327
2026-01-16 15:15:32.54	221.10	27.57	-34.9	-36.5	18.1	0.00e+00	0	60	0	1613758464	40	4321
2026-01-16 15:15:33.54	221.34	27.68	-34.8	-36.4	18.2	0.00e+00	0	60	0	1621098496	40	4280
2026-01-16 15:15:34.55	221.58	27.80	-34.8	-36.4	18.3	0.00e+00	0	60	0	1628438528	40	4252
2026-01-16 15:15:35.56	221.83	27.92	-34.8	-36.5	18.1	0.00e+00	0	60	0	1635778560	40	4306
2026-01-16 15:15:36.57	222.08	28.04	-34.9	-36.5	18.1	0.00e+00	0	60	0	1643118592	40	4306
2026-01-16 15:15:37.58	222.33	28.15	-34.9	-36.6	18.1	0.00e+00	0	60	0	1649410048	40	4344
2026-01-16 15:15:38.59	222.58	28.27	-34.9	-36.5	18.0	0.00e+00	0	60	0	1657798656	40	4340
2026-01-16 15:15:39.60	222.83	28.39	-34.9	-36.6	18.0	0.00e+00	0	60	0	1665138688	40	4349
2026-01-16 15:15:40.61	223.08	28.51	-34.9	-36.5	18.1	0.00e+00	0	60	0	1671430144	40	4331
2026-01-16 15:15:41.62	223.34	28.62	-34.9	-36.5	18.1	0.00e+00	0	60	0	1678770176	40	4312
2026-01-16 15:15:42.63	223.60	28.74	-34.9	-36.5	18.1	0.00e+00	0	60	0	1686110208	40	4306
2026-01-16 15:15:43.64	223.86	28.86	-34.8	-36.3	18.3	0.00e+00	0	60	0	1693450240	40	4228
2026-01-16 15:15:44.65	224.12	28.98	-34.7	-36.3	18.3	0.00e+00	0	60	0	1700790272	40	4225
2026-01-16 15:15:45.66	224.39	29.09	-34.8	-36.4	18.2	0.00e+00	0	61	0	1708130304	40	4276
2026-01-16 15:15:46.67	224.65	29.21	-34.8	-36.4	18.2	0.00e+00	0	60	0	1715470336	40	4256
2026-01-16 15:15:47.68	224.92	29.33	-34.9	-36.5	18.2	0.00e+00	0	61	0	1722810368	40	4310
2026-01-16 15:15:48.69	225.19	29.44	-34.9	-36.5	18.2	0.00e+00	0	60	0	1730150400	40	4300
2026-01-16 15:15:49.70	225.46	29.56	-34.9	-36.5	18.2	0.00e+00	0	60	0	1737490432	40	4313
2026-01-16 15:15:50.71	225.73	29.67	-34.9	-36.5	18.2	0.00e+00	0	60	0	1744830464	40	4300
2026-01-16 15:15:51.72	226.01	29.79	-34.9	-36.6	18.1	0.00e+00	0	60	0	1752170496	40	4346
2026-01-16 15:15:52.73	226.29	29.91	-34.9	-36.6	18.1	0.00e+00	0	61	0	1759510528	40	4348
2026-01-16 15:15:53.74	226.57	30.02	-34.8	-36.4	18.2	0.00e+00	0	61	0	1766850560	40	4264
2026-01-16 15:15:54.75	226.85	30.14	-34.8	-36.4	18.2	0.00e+00	0	61	0	1774190592	40	4260
2026-01-16 15:15:55.76	227.13	30.25	-34.8	-36.4	18.2	0.00e+00	0	60	0	1781530624	40	4283
2026-01-16 15:15:56.78	227.42	30.37	-34.9	-36.5	18.1	0.00e+00	0	61	0	1788870656	40	4321
2026-01-16 15:15:57.78	227.70	30.48	-34.9	-36.5	18.1	0.00e+00	0	61	0	1796210688	40	4336
2026-01-16 15:15:58.79	227.99	30.59	-34.9	-36.5	18.0	0.00e+00	0	60	0	1803550720	40	4339
2026-01-16 15:15:59.80	228.28	30.71	-34.8	-36.5	18.1	0.00e+00	0	60	0	1810890752	40	4308
2026-01-16 15:16:00.81	228.58	30.82	-34.9	-36.6	18.0	0.00e+00	0	60	0	1817182208	40	4344
2026-01-16 15:16:01.82	228.87	30.93	-34.9	-36.6	17.9	0.00e+00	0	60	0	1824522240	40	4373
2026-01-16 15:16:02.83	229.17	31.04	-34.8	-36.5	18.0	0.00e+00	0	60	0	1831862272	40	4334
2026-01-16 15:16:03.84	229.47	31.16	-34.8	-36.5	18.1	0.00e+00	0	60	0	1839202304	40	4318
2026-01-16 15:16:04.85	229.77	31.27	-34.8	-36.5	18.1	0.00e+00	0	60	0	1846542336	40	4313
2026-01-16 15:16:05.86	230.07	31.38	-34.8	-36.5	18.1	0.00e+00	0	61	0	1853882368	40	4318
2026-01-16 15:16:06.87	230.38	31.49	-34.9	-36.6	17.9	0.00e+00	0	61	0	1861222400	40	4374
2026-01-16 15:16:07.88	230.69	31.60	-34.9	-36.5	18.0	0.00e+00	0	60	0	1868562432	40	4335
2026-01-16 15:16:08.89	231.00	31.71	-34.8	-36.4	18.1	0.00e+00	0	61	0	1875902464	40	4276
2026-01-16 15:16:09.90	231.31	31.82	-34.7	-36.3	18.2	0.00e+00	0	61	0	1883242496	40	4239
2026-01-16 15:16:10.91	231.62	31.92	-34.7	-36.3	18.3	0.00e+00	0	60	0	1890582528	40	4231
2026-01-16 15:16:11.92	231.94	32.03	-34.7	-36.3	18.3	0.00e+00	0	60	0	1897922560	40	4208
2026-01-16 15:16:12.93	232.26	32.14	-34.8	-36.4	18.2	0.00e+00	0	60	0	1905262592	40	4281
2026-01-16 15:16:13.94	232.58	32.25	-34.7	-36.3	18.3	0.00e+00	0	61	0	1912602624	40	4230
2026-01-16 15:16:14.95	232.90	32.35	-34.7	-36.3	18.3	0.00e+00	0	61	0	1919942656	40	4202
2026-01-16 15:16:15.96	233.22	32.46	-34.7	-36.3	18.4	0.00e+00	0	61	0	1927282688	40	4207
2026-01-16 15:16:16.97	233.55	32.56	-34.7	-36.3	18.3	0.00e+00	0	60	0	1934622720	40	4218
2026-01-16 15:16:17.98	233.88	32.67	-34.8	-36.4	18.3	0.00e+00	0	60	0	1941962752	40	4243
2026-01-16 15:16:18.99	234.21	32.77	-34.8	-36.4	18.3	0.00e+00	0	60	0	1949302784	40	4246
2026-01-16 15:16:20.00	234.54	32.87	-34.8	-36.5	18.1	0.00e+00	0	61	0	1956642816	40	4296
2026-01-16 15:16:21.01	234.87	32.98	-34.9	-36.5	18.1	0.00e+00	0	61	0	1963982848	40	4319
2026-01-16 15:16:22.02	235.21	33.08	-34.8	-36.5	18.2	0.00e+00	0	61	0	1970274304	40	4294
2026-01-16 15:16:23.03	235.55	33.18	-34.9	-36.6	18.0	0.00e+00	0	61	0	1977614336	40	4360
2026-01-16 15:16:24.04	235.89	33.28	-34.8	-36.5	18.1	0.00e+00	0	61	0	1986002944	40	4317
2026-01-16 15:16:25.05	236.23	33.38	-34.8	-36.4	18.1	0.00e+00	0	60	0	1992294400	40	4286
2026-01-16 15:16:26.06	236.58	33.48	-34.8	-36.4	18.2	0.00e+00	0	61	0	1999634432	40	4274
2026-01-16 15:16:27.07	236.92	33.57	-34.8	-36.4	18.1	0.00e+00	0	61	0	2006974464	40	4280
2026-01-16 15:16:28.08	237.27	33.67	-34.8	-36.4	18.2	0.00e+00	0	60	0	2014314496	40	4254
2026-01-16 15:16:29.09	237.62	33.77	-34.7	-36.3	18.3	0.00e+00	0	61	0	2021654528	40	4240
2026-01-16 15:16:30.10	237.97	33.86	-34.9	-36.5	18.1	0.00e+00	0	60	0	2028994560	40	4315
2026-01-16 15:16:31.11	238.33	33.96	-34.7	-36.3	18.3	0.00e+00	0	61	0	2036334592	40	4237
2026-01-16 15:16:32.12	238.69	34.05	-34.7	-36.3	18.3	0.00e+00	0	61	0	2043674624	40	4209
2026-01-16 15:16:33.13	239.04	34.14	-34.8	-36.5	18.2	0.00e+00	0	61	0	2051014656	40	4293
2026-01-16 15:16:34.14	239.41	34.23	-34.9	-36.6	18.0	0.00e+00	0	60	0	2058354688	40	4361
2026-01-16 15:16:35.15	239.77	34.32	-35.0	-36.7	18.0	0.00e+00	0	60	0	2065694720	40	4392
2026-01-16 15:16:36.16	240.13	34.41	-34.8	-36.5	18.2	0.00e+00	0	61	0	2073034752	40	4292
2026-01-16 15:16:37.17	240.50	34.50	-34.8	-36.4	18.2	0.00e+00	0	61	0	2080374784	40	4276
2026-01-16 15:16:38.18	240.87	34.59	-34.6	-36.2	18.5	0.00e+00	0	61	0	2087714816	40	4164
2026-01-16 15:16:39.19	241.24	34.67	-34.7	-36.2	18.4	0.00e+00	0	61	0	2095054848	40	4185
2026-01-16 15:16:40.20	241.61	34.76	-34.6	-36.2	18.5	0.00e+00	0	61	0	2102394880	40	4165
2026-01-16 15:16:41.21	241.99	34.84	-34.7	-36.4	18.3	0.00e+00	0	61	0	2109734912	40	4244
2026-01-16 15:16:42.23	242.37	34.93	-34.8	-36.4	18.3	0.00e+00	0	60	0	2116026368	40	4253
2026-01-16 15:16:43.24	242.74	35.01	-34.7	-36.3	18.3	0.00e+00	0	61	0	2124414976	40	4230
2026-01-16 15:16:44.24	243.12	35.09	-34.8	-36.4	18.3	0.00e+00	0	61	0	2131755008	40	4250
2026-01-16 15:16:45.26	243.51	35.17	-35.0	-36.6	18.1	0.00e+00	0	61	0	2138046464	40	4371
2026-01-16 15:16:46.27	243.89	35.24	-34.8	-36.4	18.2	0.00e+00	0	61	0	2145386496	40	4277
2026-01-16 15:16:47.28	244.27	35.32	-34.8	-36.4	18.2	0.00e+00	0	61	0	2152726528	40	4287
2026-01-16 15:16:48.29	244.66	35.40	-34.8	-36.4	18.3	0.00e+00	0	61	0	2160066560	40	4259
2026-01-16 15:16:49.30	245.05	35.47	-34.8	-36.4	18.3	0.00e+00	0	61	0	2167406592	40	4253
2026-01-16 15:16:50.31	245.44	35.54	-34.8	-36.4	18.3	0.00e+00	0	61	0	2174746624	40	4250
2026-01-16 15:16:51.32	245.83	35.62	-34.8	-36.5	18.2	0.00e+00	0	61	0	2182086656	40	4296
2026-01-16 15:16:52.33	246.23	35.69	-34.9	-36.5	18.1	0.00e+00	0	61	0	2189426688	40	4339
2026-01-16 15:16:53.34	246.62	35.76	-34.9	-36.5	18.2	0.00e+00	0	61	0	2196766720	40	4306
2026-01-16 15:16:54.35	247.02	35.82	-34.7	-36.3	18.4	0.00e+00	0	61	0	2204106752	40	4217
2026-01-16 15:16:55.36	247.42	35.89	-34.7	-36.3	18.4	0.00e+00	0	61	0	2211446784	40	4207
2026-01-16 15:16:56.37	247.82	35.95	-34.7	-36.3	18.4	0.00e+00	0	61	0	2218786816	40	4212
2026-01-16 15:16:57.38	248.22	36.02	-34.7	-36.3	18.4	0.00e+00	0	61	0	2226126848	40	4202
2026-01-16 15:16:58.39	248.63	36.08	-34.7	-36.2	18.5	0.00e+00	0	61	0	2233466880	40	4181
2026-01-16 15:16:59.40	249.03	36.14	-34.6	-36.2	18.5	0.00e+00	0	61	0	2240806912	40	4149
2026-01-16 15:17:00.39	249.43	36.20	-34.5	-36.1	18.6	0.00e+00	0	61	0	2248146944	40	4103
2026-01-16 15:17:01.40	249.84	36.26	-34.5	-36.1	18.6	0.00e+00	0	61	0	2255486976	40	4113
2026-01-16 15:17:02.41	250.25	36.31	-34.5	-36.1	18.6	0.00e+00	0	61	0	2262827008	40	4111
2026-01-16 15:17:03.42	250.66	36.37	-34.6	-36.2	18.6	0.00e+00	0	61	0	2269118464	39	4403
2026-01-16 15:17:04.43	251.07	36.42	-34.7	-36.3	18.5	0.00e+00	0	61	0	2276458496	39	4446
2026-01-16 15:17:05.44	251.48	36.47	-34.8	-36.4	18.3	0.00e+00	0	61	0	2284847104	39	4543
2026-01-16 15:17:06.45	251.90	36.52	-34.9	-36.5	18.3	0.00e+00	0	61	0	2291138560	39	4575
2026-01-16 15:17:07.46	252.31	36.57	-35.1	-36.7	18.0	0.00e+00	0	61	0	2298478592	39	4695
2026-01-16 15:17:08.47	252.73	36.62	-35.0	-36.6	18.1	0.00e+00	0	61	0	2305818624	39	4607
2026-01-16 15:17:09.48	253.15	36.66	-34.8	-36.4	18.3	0.00e+00	0	61	0	2313158656	39	4517
2026-01-16 15:17:10.49	253.57	36.70	-34.7	-36.3	18.4	0.00e+00	0	61	0	2320498688	39	4454
2026-01-16 15:17:11.50	253.99	36.75	-34.7	-36.3	18.5	0.00e+00	0	61	0	2327838720	39	4444
2026-01-16 15:17:12.51	254.41	36.79	-34.8	-36.3	18.4	0.00e+00	0	61	0	2335178752	39	4480
2026-01-16 15:17:13.52	254.83	36.83	-34.8	-36.3	18.4	0.00e+00	0	61	0	2342518784	39	4479
2026-01-16 15:17:14.53	255.26	36.86	-34.9	-36.4	18.3	0.00e+00	0	61	0	2349858816	39	4544
2026-01-16 15:17:15.54	255.68	36.90	-34.8	-36.4	18.4	0.00e+00	0	61	0	2357198848	39	4518
2026-01-16 15:17:16.55	256.10	36.93	-34.8	-36.4	18.5	0.00e+00	0	61	0	2364538880	39	4505
2026-01-16 15:17:17.56	256.53	36.96	-34.8	-36.4	18.4	0.00e+00	0	61	0	2371878912	39	4497
2026-01-16 15:17:18.57	256.96	36.99	-34.7	-36.2	18.6	0.00e+00	0	61	0	2379218944	39	4428
2026-01-16 15:17:19.58	257.38	37.02	-34.6	-36.1	18.6	0.00e+00	0	61	0	2386558976	39	4390
2026-01-16 15:17:20.59	257.81	37.05	-34.7	-36.2	18.6	0.00e+00	0	61	0	2393899008	39	4410
2026-01-16 15:17:21.60	258.24	37.07	-35.2	-36.3	18.9	0.00e+00	0	61	0	2401239040	39	4469
2026-01-16 15:17:22.61	258.67	37.10	-35.2	-36.3	18.9	0.00e+00	0	61	0	2408579072	40	4219
2026-01-16 15:17:23.62	259.10	37.12	-35.3	-36.4	18.8	0.00e+00	0	61	0	2415919104	40	4281
2026-01-16 15:17:24.63	259.53	37.14	-35.1	-36.2	19.0	0.00e+00	0	61	0	2422210560	40	4175
2026-01-16 15:17:25.64	259.96	37.15	-35.0	-36.1	19.1	0.00e+00	0	61	0	2430599168	40	4107
2026-01-16 15:17:26.65	260.39	37.17	-34.9	-36.0	19.1	0.00e+00	0	61	0	2437939200	40	4090
2026-01-16 15:17:27.67	260.83	37.19	-34.9	-35.9	19.2	0.00e+00	0	61	0	2444230656	40	4049
2026-01-16 15:17:28.68	261.26	37.20	-34.8	-35.9	19.2	0.00e+00	0	61	0	2451570688	40	4037
2026-01-16 15:17:29.69	261.70	37.21	-34.9	-36.0	19.2	0.00e+00	0	61	0	2459959296	40	4067
2026-01-16 15:17:30.69	262.12	37.22	-35.0	-36.1	19.1	0.00e+00	0	61	0	2466250752	40	4108
2026-01-16 15:17:31.71	262.56	37.22	-35.0	-36.1	19.1	0.00e+00	0	61	0	2473590784	40	4121
2026-01-16 15:17:32.72	262.99	37.23	-34.9	-36.0	19.1	0.00e+00	0	61	0	2480930816	40	4089
2026-01-16 15:17:33.73	263.43	37.23	-34.8	-35.9	19.3	0.00e+00	0	61	0	2488270848	40	4014
2026-01-16 15:17:34.74	263.86	37.23	-34.9	-35.9	19.1	0.00e+00	0	61	0	2495610880	40	4040
2026-01-16 15:17:35.75	264.29	37.23	-35.1	-36.2	19.0	0.00e+00	0	61	0	2502950912	40	4157
2026-01-16 15:17:36.76	264.73	37.23	-35.2	-36.4	18.8	0.00e+00	0	61	0	2510290944	40	4243
2026-01-16 15:17:37.77	265.16	37.23	-35.2	-36.3	18.9	0.00e+00	0	61	0	2517630976	40	4225
2026-01-16 15:17:38.78	265.59	37.22	-35.2	-36.3	18.9	0.00e+00	0	61	0	2524971008	40	4227
2026-01-16 15:17:39.79	266.03	37.22	-35.1	-36.2	19.0	0.00e+00	0	61	0	2532311040	40	4155
2026-01-16 15:17:40.80	266.46	37.21	-34.9	-36.0	19.2	0.00e+00	0	61	0	2539651072	40	4072
2026-01-16 15:17:41.81	266.89	37.20	-34.9	-36.0	19.2	0.00e+00	0	61	0	2546991104	40	4068
2026-01-16 15:17:42.82	267.32	37.18	-35.0	-36.1	19.0	0.00e+00	0	61	0	2554331136	40	4126
2026-01-16 15:17:43.83	267.75	37.17	-35.1	-36.2	19.0	0.00e+00	0	61	0	2561671168	40	4169
2026-01-16 15:17:44.84	268.19	37.15	-35.0	-36.1	19.1	0.00e+00	0	61	0	2569011200	40	4118
2026-01-16 15:17:45.85	268.62	37.13	-34.9	-36.0	19.1	0.00e+00	0	61	0	2576351232	40	4097
2026-01-16 15:17:46.86	269.05	37.11	-34.8	-35.9	19.3	0.00e+00	0	61	0	2583691264	40	4020
2026-01-16 15:17:47.87	269.48	37.09	-34.9	-36.0	19.2	0.00e+00	0	61	0	2589982720	40	4067
2026-01-16 15:17:48.88	269.90	37.07	-35.0	-36.1	19.1	0.00e+00	0	61	0	2597322752	40	4107
2026-01-16 15:17:49.89	270.33	37.04	-35.1	-36.2	19.0	0.00e+00	0	61	0	2605711360	40	4157
2026-01-16 15:17:50.90	270.76	37.02	-35.1	-36.2	19.0	0.00e+00	0	61	0	2612002816	40	4151
2026-01-16 15:17:51.91	271.19	36.99	-34.9	-36.0	19.1	0.00e+00	0	61	0	2619342848	40	4085
2026-01-16 15:17:52.92	271.61	36.96	-35.0	-36.0	19.1	0.00e+00	0	61	0	2626682880	40	4091
2026-01-16 15:17:53.93	272.04	36.93	-34.9	-36.0	19.1	0.00e+00	0	61	0	2634022912	40	4083
2026-01-16 15:17:54.94	272.46	36.89	-34.9	-36.0	19.2	0.00e+00	0	61	0	2641362944	40	4079
2026-01-16 15:17:55.95	272.89	36.86	-34.9	-35.9	19.2	0.00e+00	0	61	0	2648702976	40	4051
2026-01-16 15:17:56.95	273.31	36.82	-35.0	-36.2	19.0	0.00e+00	0	61	0	2656043008	40	4146
2026-01-16 15:17:57.97	273.73	36.78	-35.2	-36.4	18.8	0.00e+00	0	61	0	2663383040	40	4245
2026-01-16 15:17:58.97	274.15	36.74	-35.2	-36.3	18.8	0.00e+00	0	61	0	2670723072	40	4242
2026-01-16 15:17:59.99	274.57	36.70	-35.2	-36.3	18.8	0.00e+00	0	61	0	2678063104	40	4230
2026-01-16 15:18:00.99	274.99	36.65	-35.1	-36.2	18.9	0.00e+00	0	61	0	2685403136	40	4175
2026-01-16 15:18:02.00	275.40	36.61	-35.0	-36.1	19.0	0.00e+00	0	61	0	2692743168	40	4137
2026-01-16 15:18:03.01	275.82	36.56	-34.9	-36.0	19.1	0.00e+00	0	61	0	2700083200	40	4075
2026-01-16 15:18:04.02	276.24	36.51	-34.9	-36.0	19.2	0.00e+00	0	61	0	2707423232	40	4057
2026-01-16 15:18:05.03	276.65	36.46	-34.9	-35.9	19.2	0.00e+00	0	61	0	2714763264	40	4048
2026-01-16 15:18:06.04	277.06	36.41	-34.9	-36.0	19.2	0.00e+00	0	61	0	2722103296	40	4074
2026-01-16 15:18:07.05	277.47	36.36	-34.9	-36.0	19.1	0.00e+00	0	61	0	2729443328	40	4098
2026-01-16 15:18:08.06	277.88	36.30	-34.9	-36.0	19.1	0.00e+00	0	61	0	2736783360	40	4082
2026-01-16 15:18:09.07	278.29	36.25	-35.1	-36.2	19.0	0.00e+00	0	61	0	2743074816	40	4168
2026-01-16 15:18:10.08	278.70	36.19	-35.2	-36.3	18.8	0.00e+00	0	61	0	2751463424	40	4236
2026-01-16 15:18:11.09	279.10	36.13	-35.2	-36.4	18.8	0.00e+00	0	61	0	2758803456	40	4244
2026-01-16 15:18:12.10	279.51	36.07	-35.2	-36.4	18.8	0.00e+00	0	61	0	2765094912	40	4250
2026-01-16 15:18:13.11	279.91	36.01	-35.2	-36.3	18.8	0.00e+00	0	61	0	2772434944	40	4241
2026-01-16 15:18:14.13	280.32	35.94	-35.2	-36.3	18.8	0.00e+00	0	61	0	2779774976	40	4228
2026-01-16 15:18:15.14	280.71	35.88	-35.2	-36.3	18.9	0.00e+00	0	61	0	2787115008	40	4213
2026-01-16 15:18:16.14	281.11	35.81	-35.1	-36.3	18.9	0.00e+00	0	61	0	2794455040	40	4195
2026-01-16 15:18:17.15	281.51	35.75	-35.2	-36.4	18.8	0.00e+00	0	61	0	2801795072	40	4249
2026-01-16 15:18:18.17	281.90	35.68	-35.3	-36.4	18.8	0.00e+00	0	61	0	2809135104	40	4262
2026-01-16 15:18:19.18	282.30	35.61	-35.2	-36.4	18.8	0.00e+00	0	61	0	2816475136	40	4250
2026-01-16 15:18:20.19	282.69	35.53	-35.3	-36.4	18.7	0.00e+00	0	61	0	2823815168	40	4282
2026-01-16 15:18:21.19	283.07	35.46	-35.4	-36.5	18.7	0.00e+00	0	61	0	2831155200	40	4314
2026-01-16 15:18:22.20	283.46	35.39	-35.4	-36.6	18.6	0.00e+00	0	61	0	2838495232	40	4355
2026-01-16 15:18:23.21	283.85	35.31	-35.4	-36.6	18.6	0.00e+00	0	61	0	2845835264	40	4351
2026-01-16 15:18:24.22	284.23	35.23	-35.4	-36.6	18.6	0.00e+00	0	61	0	2853175296	40	4347
2026-01-16 15:18:25.23	284.61	35.16	-35.4	-36.5	18.7	0.00e+00	0	61	0	2860515328	40	4323
2026-01-16 15:18:26.24	284.99	35.08	-35.4	-36.5	18.6	0.00e+00	0	61	0	2867855360	40	4313
2026-01-16 15:18:27.26	285.38	35.00	-35.4	-36.5	18.7	0.00e+00	0	61	0	2875195392	40	4315
2026-01-16 15:18:28.26	285.75	34.92	-35.3	-36.5	18.7	0.00e+00	0	61	0	2882535424	40	4296
2026-01-16 15:18:29.28	286.13	34.83	-35.3	-36.4	18.7	0.00e+00	0	61	0	2888826880	40	4290
2026-01-16 15:18:30.29	286.50	34.75	-35.4	-36.5	18.7	0.00e+00	0	61	0	2897215488	40	4316
2026-01-16 15:18:31.30	286.87	34.66	-35.3	-36.5	18.7	0.00e+00	0	61	0	2904555520	40	4302
2026-01-16 15:18:32.31	287.24	34.58	-35.3	-36.4	18.7	0.00e+00	0	61	0	2910846976	40	4287
2026-01-16 15:18:33.32	287.61	34.49	-35.3	-36.4	18.7	0.00e+00	0	61	0	2918187008	40	4281
2026-01-16 15:18:34.33	287.97	34.40	-35.1	-36.2	18.8	0.00e+00	0	61	0	2925527040	40	4167
2026-01-16 15:18:35.34	288.34	34.31	-35.1	-36.3	18.9	0.00e+00	0	61	0	2932867072	40	4196
2026-01-16 15:18:36.35	288.70	34.22	-35.1	-36.2	19.0	0.00e+00	0	61	0	2940207104	40	4151
2026-01-16 15:18:37.36	289.06	34.13	-35.0	-36.1	19.0	0.00e+00	0	61	0	2947547136	40	4121
2026-01-16 15:18:38.37	289.42	34.04	-35.0	-36.1	19.1	0.00e+00	0	61	0	2954887168	40	4105
2026-01-16 15:18:39.38	289.77	33.95	-35.1	-36.2	18.9	0.00e+00	0	61	0	2962227200	40	4193
2026-01-16 15:18:40.39	290.13	33.85	-35.2	-36.3	18.8	0.00e+00	0	61	0	2969567232	40	4234
2026-01-16 15:18:41.40	290.48	33.76	-35.3	-36.4	18.7	0.00e+00	0	61	0	2976907264	40	4259
2026-01-16 15:18:42.41	290.83	33.66	-35.3	-36.4	18.7	0.00e+00	0	61	0	2984247296	40	4279
2026-01-16 15:18:43.43	291.18	33.57	-35.3	-36.5	18.7	0.00e+00	0	61	0	2991587328	40	4297
2026-01-16 15:18:44.43	291.52	33.47	-35.4	-36.6	18.6	0.00e+00	0	61	0	2998927360	40	4359
2026-01-16 15:18:45.44	291.86	33.37	-35.4	-36.5	18.6	0.00e+00	0	61	0	3006267392	40	4340
2026-01-16 15:18:46.45	292.20	33.27	-35.4	-36.5	18.6	0.00e+00	0	61	0	3013607424	40	4318
2026-01-16 15:18:47.46	292.54	33.17	-35.3	-36.4	18.8	0.00e+00	0	61	0	3020947456	40	4261
2026-01-16 15:18:48.47	292.88	33.07	-35.2	-36.4	18.8	0.00e+00	0	61	0	3028287488	40	4252
2026-01-16 15:18:49.48	293.21	32.97	-35.3	-36.4	18.7	0.00e+00	0	61	0	3035627520	40	4266
2026-01-16 15:18:50.49	293.55	32.87	-35.3	-36.4	18.7	0.00e+00	0	61	0	3042967552	40	4286
2026-01-16 15:18:51.50	293.88	32.77	-35.3	-36.4	18.7	0.00e+00	0	61	0	3050307584	40	4267
2026-01-16 15:18:52.51	294.21	32.67	-35.3	-36.4	18.7	0.00e+00	0	61	0	3057647616	40	4281
2026-01-16 15:18:53.52	294.53	32.56	-35.4	-36.6	18.6	0.00e+00	0	61	0	3063939072	40	4347
2026-01-16 15:18:54.53	294.86	32.46	-35.5	-36.6	18.5	0.00e+00	0	61	0	3071279104	40	4379
2026-01-16 15:18:55.54	295.18	32.35	-35.5	-36.7	18.3	0.00e+00	0	61	0	3079667712	40	4429
2026-01-16 15:18:56.55	295.50	32.25	-35.5	-36.7	18.5	0.00e+00	0	61	0	3085959168	40	4414
2026-01-16 15:18:57.56	295.82	32.14	-35.6	-36.7	18.2	0.00e+00	0	61	0	3093299200	40	4439
2026-01-16 15:18:58.57	296.14	32.03	-35.5	-36.7	18.4	0.00e+00	0	61	0	3100639232	40	4424
2026-01-16 15:18:59.58	296.45	31.93	-35.4	-36.6	18.6	0.00e+00	0	61	0	3107979264	40	4355
2026-01-16 15:19:00.59	296.76	31.82	-35.4	-36.5	18.6	0.00e+00	0	61	0	3115319296	40	4328
2026-01-16 15:19:01.59	297.07	31.71	-35.3	-36.4	18.7	0.00e+00	0	61	0	3122659328	40	4291
2026-01-16 15:19:02.60	297.38	31.60	-35.2	-36.4	18.8	0.00e+00	0	61	0	3129999360	40	4246
2026-01-16 15:19:03.62	297.69	31.49	-35.3	-36.4	18.7	0.00e+00	0	61	0	3137339392	40	4271
2026-01-16 15:19:04.63	297.99	31.38	-35.3	-36.4	18.7	0.00e+00	0	61	0	3144679424	40	4260
2026-01-16 15:19:05.64	298.30	31.27	-35.2	-36.3	18.8	0.00e+00	0	61	0	3152019456	40	4233
2026-01-16 15:19:06.64	298.59	31.16	-35.3	-36.4	18.7	0.00e+00	0	61	0	3159359488	40	4277
2026-01-16 15:19:07.66	298.89	31.05	-35.4	-36.5	18.6	0.00e+00	0	61	0	3166699520	40	4336
2026-01-16 15:19:08.67	299.19	30.94	-35.5	-36.6	18.5	0.00e+00	0	61	0	3174039552	40	4376
2026-01-16 15:19:09.68	299.48	30.83	-35.5	-36.7	18.4	0.00e+00	0	61	0	3181379584	40	4402
2026-01-16 15:19:10.68	299.77	30.71	-35.5	-36.6	18.5	0.00e+00	0	61	0	3188719616	40	4388
2026-01-16 15:19:11.69	300.06	30.60	-35.6	-36.8	18.3	0.00e+00	0	61	0	3196059648	40	4446
2026-01-16 15:19:12.70	300.35	30.49	-35.7	-36.9	18.2	0.00e+00	0	61	0	3203399680	40	4506
2026-01-16 15:19:13.71	300.64	30.37	-35.7	-36.9	18.2	0.00e+00	0	61	0	3209691136	41	4287
2026-01-16 15:19:14.72	300.92	30.26	-35.7	-36.8	18.2	0.00e+00	0	61	0	3217031168	41	4242
2026-01-16 15:19:15.73	301.20	30.15	-35.6	-36.7	18.4	0.00e+00	0	61	0	3224371200	41	4186
2026-01-16 15:19:16.74	301.48	30.03	-35.4	-36.6	18.5	0.00e+00	0	61	0	3231711232	41	4113
2026-01-16 15:19:17.75	301.76	29.92	-35.4	-36.6	18.5	0.00e+00	0	61	0	3239051264	41	4106
2026-01-16 15:19:18.76	302.04	29.80	-35.3	-36.4	18.6	0.00e+00	0	61	0	3246391296	41	4037
2026-01-16 15:19:19.77	302.31	29.69	-35.2	-36.4	18.7	0.00e+00	0	61	0	3253731328	41	4007
2026-01-16 15:19:20.78	302.59	29.57	-35.2	-36.3	18.8	0.00e+00	0	61	0	3261071360	41	3966
2026-01-16 15:19:21.79	302.86	29.46	-35.1	-36.2	18.8	0.00e+00	0	61	0	3268411392	41	3936
2026-01-16 15:19:22.80	303.12	29.34	-35.2	-36.3	18.7	0.00e+00	0	61	0	3275751424	41	3992
2026-01-16 15:19:23.81	303.39	29.23	-35.2	-36.4	18.7	0.00e+00	0	61	0	3283091456	41	4011
2026-01-16 15:19:24.82	303.66	29.11	-35.4	-36.5	18.5	0.00e+00	0	61	0	3290431488	41	4087
2026-01-16 15:19:25.83	303.92	28.99	-35.5	-36.7	18.4	0.00e+00	0	61	0	3297771520	41	4158
2026-01-16 15:19:26.84	304.18	28.88	-35.6	-36.8	18.2	0.00e+00	0	61	0	3305111552	41	4237
2026-01-16 15:19:27.85	304.44	28.76	-35.7	-36.9	18.1	0.00e+00	0	61	0	3312451584	41	4249
2026-01-16 15:19:28.86	304.70	28.65	-35.8	-37.0	18.1	0.00e+00	0	61	0	3319791616	41	4303
2026-01-16 15:19:29.87	304.95	28.53	-35.7	-36.9	18.1	0.00e+00	0	61	0	3327131648	41	4289
2026-01-16 15:19:30.88	305.21	28.41	-35.6	-36.8	18.2	0.00e+00	0	61	0	3334471680	41	4221
2026-01-16 15:19:31.89	305.46	28.29	-35.6	-36.7	18.3	0.00e+00	0	61	0	3341811712	41	4177
2026-01-16 15:19:32.90	305.71	28.18	-35.5	-36.6	18.5	0.00e+00	0	61	0	3349151744	41	4127
2026-01-16 15:19:33.91	305.96	28.06	-35.4	-36.5	18.5	0.00e+00	0	61	0	3356491776	41	4077
2026-01-16 15:19:34.91	306.20	27.94	-35.3	-36.5	18.6	0.00e+00	0	61	0	3362783232	41	4053
2026-01-16 15:19:35.92	306.45	27.83	-35.3	-36.4	18.6	0.00e+00	0	61	0	3370123264	41	4024
2026-01-16 15:19:36.93	306.69	27.71	-35.3	-36.4	18.6	0.00e+00	0	61	0	3378511872	41	4038
2026-01-16 15:19:37.95	306.93	27.59	-35.3	-36.5	18.6	0.00e+00	0	61	0	3384803328	41	4067
2026-01-16 15:19:38.96	307.17	27.47	-35.4	-36.6	18.5	0.00e+00	0	61	0	3392143360	41	4115
2026-01-16 15:19:39.97	307.41	27.36	-35.5	-36.6	18.4	0.00e+00	0	61	0	3399483392	41	4137
2026-01-16 15:19:40.97	307.64	27.24	-35.6	-36.8	18.2	0.00e+00	0	61	0	3406823424	41	4210
2026-01-16 15:19:41.98	307.88	27.12	-35.7	-36.8	18.2	0.00e+00	0	61	0	3414163456	41	4232
2026-01-16 15:19:42.99	308.11	27.01	-35.7	-36.9	18.1	0.00e+00	0	61	0	3421503488	41	4270
2026-01-16 15:19:44.00	308.34	26.89	-35.7	-36.9	18.1	0.00e+00	0	61	0	3428843520	41	4267
2026-01-16 15:19:45.01	308.57	26.77	-35.6	-36.8	18.2	0.00e+00	0	61	0	3436183552	41	4224
2026-01-16 15:19:46.02	308.80	26.66	-35.7	-36.9	18.1	0.00e+00	0	61	0	3443523584	41	4262
2026-01-16 15:19:47.03	309.03	26.54	-35.7	-36.9	18.1	0.00e+00	0	61	0	3450863616	41	4258
2026-01-16 15:19:48.05	309.25	26.42	-35.6	-36.8	18.2	0.00e+00	0	61	0	3458203648	41	4211
2026-01-16 15:19:49.05	309.47	26.30	-35.5	-36.7	18.3	0.00e+00	0	61	0	3465543680	41	4152
2026-01-16 15:19:50.06	309.69	26.19	-35.5	-36.6	18.4	0.00e+00	0	61	0	3472883712	41	4128
2026-01-16 15:19:51.07	309.91	26.07	-35.4	-36.5	18.4	0.00e+00	0	61	0	3480223744	41	4095
2026-01-16 15:19:52.08	310.13	25.95	-35.4	-36.6	18.4	0.00e+00	0	61	0	3486515200	41	4110
2026-01-16 15:19:53.09	310.35	25.84	-35.4	-36.5	18.5	0.00e+00	0	61	0	3494903808	41	4072
2026-01-16 15:19:54.10	310.56	25.72	-35.4	-36.6	18.4	0.00e+00	0	61	0	3502243840	41	4113
2026-01-16 15:19:55.11	310.78	25.60	-35.4	-36.6	18.4	0.00e+00	0	61	0	3508535296	41	4122
2026-01-16 15:19:56.12	310.99	25.49	-35.5	-36.6	18.3	0.00e+00	0	61	0	3515875328	41	4145
2026-01-16 15:19:57.13	311.20	25.37	-35.5	-36.7	18.3	0.00e+00	0	61	0	3523215360	41	4176
2026-01-16 15:19:58.13	311.41	25.26	-35.6	-36.8	18.2	0.00e+00	0	61	0	3530555392	41	4221
2026-01-16 15:19:59.14	311.61	25.14	-35.7	-36.9	18.2	0.00e+00	0	61	0	3537895424	41	4245
2026-01-16 15:20:00.15	311.82	25.02	-35.7	-36.9	18.0	0.00e+00	0	61	0	3545235456	41	4282
2026-01-16 15:20:01.16	312.02	24.91	-35.8	-37.0	18.0	0.00e+00	0	61	0	3552575488	41	4302
2026-01-16 15:20:02.17	312.23	24.79	-35.8	-37.0	18.0	0.00e+00	0	61	0	3559915520	41	4331
2026-01-16 15:20:03.18	312.43	24.68	-35.8	-37.0	18.0	0.00e+00	0	61	0	3567255552	41	4315
2026-01-16 15:20:04.19	312.63	24.56	-35.7	-36.9	18.0	0.00e+00	0	61	0	3574595584	41	4278
2026-01-16 15:20:05.20	312.83	24.45	-35.7	-36.9	18.0	0.00e+00	0	61	0	3581935616	41	4288
2026-01-16 15:20:06.21	313.02	24.33	-35.8	-37.0	18.0	0.00e+00	0	61	0	3589275648	41	4293
2026-01-16 15:20:07.22	313.22	24.22	-35.8	-37.0	18.0	0.00e+00	0	61	0	3596615680	41	4293
2026-01-16 15:20:08.23	313.41	24.10	-35.7	-36.9	18.0	0.00e+00	0	61	0	3603955712	41	4281
2026-01-16 15:20:09.24	313.61	23.99	-35.7	-36.9	18.0	0.00e+00	0	61	0	3611295744	41	4290
2026-01-16 15:20:10.25	313.80	23.87	-35.8	-37.0	18.0	0.00e+00	0	61	0	3618635776	41	4307
2026-01-16 15:20:11.26	313.99	23.76	-35.9	-37.1	17.9	0.00e+00	0	61	0	3625975808	41	4353
2026-01-16 15:20:12.27	314.18	23.64	-35.9	-37.1	17.9	0.00e+00	0	61	0	3633315840	41	4343
2026-01-16 15:20:13.28	314.37	23.53	-35.9	-37.1	17.8	0.00e+00	0	61	0	3639607296	41	4372
2026-01-16 15:20:14.29	314.55	23.42	-35.9	-37.2	17.7	0.00e+00	0	61	0	3647995904	41	4398
2026-01-16 15:20:15.30	314.74	23.30	-36.0	-37.2	17.8	0.00e+00	0	61	0	3655335936	41	4411
2026-01-16 15:20:16.31	314.92	23.19	-36.0	-37.2	17.8	0.00e+00	0	61	0	3661627392	41	4401
2026-01-16 15:20:17.32	315.10	23.08	-35.9	-37.2	17.8	0.00e+00	0	61	0	3668967424	41	4403
2026-01-16 15:20:18.33	315.28	22.96	-35.9	-37.1	17.8	0.00e+00	0	61	0	3676307456	41	4377
2026-01-16 15:20:19.34	315.46	22.85	-35.8	-37.1	17.9	0.00e+00	0	61	0	3683647488	41	4343
2026-01-16 15:20:20.35	315.64	22.74	-35.8	-37.0	17.9	0.00e+00	0	61	0	3690987520	41	4309
2026-01-16 15:20:21.36	315.82	22.63	-35.8	-37.0	17.9	0.00e+00	0	61	0	3698327552	41	4304
2026-01-16 15:20:22.37	316.00	22.52	-35.7	-36.9	18.0	0.00e+00	0	61	0	3705667584	41	4281
2026-01-16 15:20:23.38	316.17	22.40	-35.8	-37.0	17.9	0.00e+00	0	61	0	3713007616	41	4323
2026-01-16 15:20:24.39	316.34	22.29	-35.8	-37.0	17.9	0.00e+00	0	61	0	3720347648	41	4312
2026-01-16 15:20:25.40	316.52	22.18	-35.9	-37.1	17.8	0.00e+00	0	61	0	3727687680	41	4366
2026-01-16 15:20:26.41	316.69	22.07	-36.0	-37.3	17.7	0.00e+00	0	61	0	3735027712	41	4446
2026-01-16 15:20:27.42	316.86	21.96	-36.0	-37.3	17.6	0.00e+00	0	61	0	3742367744	41	4468
2026-01-16 15:20:28.43	317.03	21.85	-36.2	-37.5	17.4	0.00e+00	0	61	0	3749707776	41	4549
2026-01-16 15:20:29.44	317.20	21.74	-36.3	-37.6	17.3	0.00e+00	0	61	0	3757047808	42	4368
2026-01-16 15:20:30.45	317.36	21.63	-36.4	-37.8	17.2	0.00e+00	0	61	0	3764387840	42	4449
2026-01-16 15:20:31.46	317.53	21.52	-36.6	-38.0	17.0	0.00e+00	0	61	0	3771727872	42	4562
2026-01-16 15:20:32.47	317.69	21.41	-36.7	-38.1	16.8	0.00e+00	0	61	0	3779067904	42	4605
2026-01-16 15:20:33.48	317.85	21.30	-36.7	-38.1	16.8	0.00e+00	0	61	0	3785359360	43	4357
2026-01-16 15:20:34.49	318.02	21.19	-36.8	-38.1	16.8	0.00e+00	0	61	0	3793747968	43	4377
2026-01-16 15:20:35.50	318.18	21.08	-36.8	-38.2	16.8	0.00e+00	0	61	0	3801088000	43	4398
2026-01-16 15:20:36.51	318.34	20.97	-36.7	-38.1	16.9	0.00e+00	0	61	0	3807379456	43	4349
2026-01-16 15:20:37.52	318.50	20.86	-36.6	-38.0	16.9	0.00e+00	0	61	0	3814719488	43	4311
2026-01-16 15:20:38.53	318.65	20.76	-36.6	-38.0	16.9	0.00e+00	0	61	0	3822059520	43	4315
2026-01-16 15:20:39.54	318.81	20.65	-36.6	-37.9	17.0	0.00e+00	0	61	0	3829399552	43	4276
2026-01-16 15:20:40.55	318.97	20.54	-36.4	-37.7	17.2	0.00e+00	0	61	0	3836739584	43	4168
2026-01-16 15:20:41.56	319.12	20.43	-36.4	-37.7	17.2	0.00e+00	0	61	0	3844079616	43	4159
2026-01-16 15:20:42.57	319.27	20.33	-36.4	-37.7	17.1	0.00e+00	0	61	0	3851419648	43	4182
2026-01-16 15:20:43.58	319.43	20.22	-36.4	-37.8	17.1	0.00e+00	0	61	0	3858759680	43	4202
2026-01-16 15:20:44.59	319.58	20.11	-36.4	-37.7	17.1	0.00e+00	0	61	0	3866099712	43	4175
2026-01-16 15:20:45.60	319.73	20.01	-36.5	-37.8	17.0	0.00e+00	0	61	0	3873439744	43	4224
2026-01-16 15:20:46.61	319.88	19.90	-36.6	-37.9	16.9	0.00e+00	0	61	0	3880779776	43	4289
2026-01-16 15:20:47.62	320.03	19.80	-36.7	-38.0	16.8	0.00e+00	0	61	0	3888119808	43	4328
2026-01-16 15:20:48.63	320.17	19.69	-36.8	-38.2	16.7	0.00e+00	0	61	0	3895459840	43	4394
2026-01-16 15:20:49.64	320.32	19.59	-36.7	-38.0	16.8	0.00e+00	0	61	0	3902799872	43	4337
2026-01-16 15:20:50.65	320.46	19.48	-36.8	-38.1	16.7	0.00e+00	0	61	0	3910139904	43	4389
2026-01-16 15:20:51.67	320.61	19.37	-36.9	-38.3	16.6	0.00e+00	0	61	0	3917479936	43	4449
2026-01-16 15:20:52.68	320.75	19.27	-36.9	-38.3	16.6	0.00e+00	0	61	0	3924819968	43	4452
2026-01-16 15:20:53.69	320.90	19.17	-36.8	-38.2	16.6	0.00e+00	0	61	0	3932160000	43	4404
2026-01-16 15:20:54.70	321.04	19.06	-36.8	-38.2	16.6	0.00e+00	0	61	0	3939500032	43	4414
2026-01-16 15:20:55.71	321.18	18.96	-36.8	-38.2	16.6	0.00e+00	0	61	0	3946840064	43	4415
2026-01-16 15:20:56.72	321.32	18.86	-36.9	-38.3	16.5	0.00e+00	0	61	0	3954180096	43	4465
2026-01-16 15:20:57.73	321.46	18.75	-37.0	-38.3	16.5	0.00e+00	0	61	0	3960471552	43	4484
2026-01-16 15:20:58.74	321.59	18.65	-36.9	-38.3	16.5	0.00e+00	0	61	0	3968860160	43	4484
2026-01-16 15:20:59.75	321.73	18.55	-36.9	-38.3	16.5	0.00e+00	0	61	0	3976200192	43	4444
2026-01-16 15:21:00.76	321.87	18.45	-36.9	-38.3	16.5	0.00e+00	0	61	0	3982491648	43	4472
2026-01-16 15:21:01.77	322.00	18.34	-36.9	-38.3	16.5	0.00e+00	0	61	0	3989831680	43	4476
2026-01-16 15:21:02.78	322.14	18.24	-36.9	-38.3	16.5	0.00e+00	0	61	0	3997171712	43	4463
2026-01-16 15:21:03.79	322.27	18.14	-36.9	-38.2	16.5	0.00e+00	0	61	0	4004511744	43	4436
2026-01-16 15:21:04.80	322.40	18.04	-36.9	-38.3	16.5	0.00e+00	0	61	0	4011851776	43	4459
2026-01-16 15:21:05.81	322.54	17.94	-36.8	-38.1	16.7	0.00e+00	0	61	0	4019191808	43	4372
2026-01-16 15:21:06.82	322.67	17.84	-36.7	-38.1	16.7	0.00e+00	0	61	0	4026531840	43	4343
2026-01-16 15:21:07.83	322.80	17.74	-36.7	-38.0	16.7	0.00e+00	0	61	0	4033871872	43	4323
2026-01-16 15:21:08.84	322.93	17.64	-36.6	-38.0	16.8	0.00e+00	0	61	0	4041211904	43	4300
2026-01-16 15:21:09.85	323.05	17.54	-36.7	-38.1	16.7	0.00e+00	0	61	0	4048551936	43	4356
2026-01-16 15:21:10.86	323.18	17.44	-36.7	-38.0	16.7	0.00e+00	0	61	0	4055891968	43	4322
2026-01-16 15:21:11.88	323.31	17.34	-36.6	-38.0	16.8	0.00e+00	0	61	0	4063232000	43	4305
2026-01-16 15:21:12.89	323.44	17.24	-36.7	-38.0	16.7	0.00e+00	0	61	0	4070572032	43	4335
2026-01-16 15:21:13.90	323.56	17.14	-36.7	-38.1	16.7	0.00e+00	0	61	0	4077912064	43	4345
2026-01-16 15:21:14.91	323.69	17.04	-36.7	-38.1	16.7	0.00e+00	0	61	0	4085252096	43	4345
2026-01-16 15:21:15.92	323.81	16.94	-36.8	-38.1	16.6	0.00e+00	0	61	0	4092592128	43	4391
2026-01-16 15:21:16.93	323.93	16.85	-36.8	-38.2	16.5	0.00e+00	0	61	0	4099932160	43	4407
2026-01-16 15:21:17.94	324.05	16.75	-36.9	-38.2	16.5	0.00e+00	0	61	0	4107272192	43	4440
2026-01-16 15:21:18.95	324.18	16.65	-37.0	-38.4	16.3	0.00e+00	0	61	0	4114612224	43	4513
2026-01-16 15:21:19.96	324.30	16.56	-37.1	-38.5	16.2	0.00e+00	0	61	0	4121952256	43	4567
2026-01-16 15:21:20.97	324.42	16.46	-37.2	-38.7	16.1	0.00e+00	0	61	0	4128243712	43	4667
2026-01-16 15:21:21.98	324.54	16.36	-37.4	-38.9	15.9	0.00e+00	0	61	0	4135583744	44	4540
2026-01-16 15:21:22.99	324.65	16.27	-37.6	-39.0	15.8	0.00e+00	0	61	0	4143972352	44	4596
2026-01-16 15:21:24.00	324.77	16.17	-37.4	-38.9	15.9	0.00e+00	0	61	0	4150263808	44	4533
2026-01-16 15:21:25.01	324.89	16.07	-37.5	-39.0	15.9	0.00e+00	0	61	0	4157603840	44	4573
2026-01-16 15:21:26.02	325.00	15.98	-37.6	-39.0	15.8	0.00e+00	0	61	0	4164943872	44	4593
2026-01-16 15:21:27.03	325.12	15.88	-37.5	-39.0	15.9	0.00e+00	0	61	0	4172283904	44	4558
2026-01-16 15:21:28.04	325.24	15.79	-37.5	-39.0	15.8	0.00e+00	0	61	0	4179623936	44	4569
2026-01-16 15:21:29.05	325.35	15.69	-37.6	-39.1	15.8	0.00e+00	0	61	0	4186963968	44	4621
2026-01-16 15:21:30.06	325.46	15.60	-37.6	-39.2	15.7	0.00e+00	0	61	0	4194304000	44	4654
2026-01-16 15:21:31.07	325.58	15.51	-37.7	-39.2	15.7	0.00e+00	0	61	0	4201644032	45	4399
2026-01-16 15:21:32.08	325.69	15.41	-37.6	-39.1	15.7	0.00e+00	0	61	0	4208984064	45	4355
2026-01-16 15:21:33.09	325.80	15.32	-37.4	-38.9	15.9	0.00e+00	0	61	0	4216324096	45	4277
2026-01-16 15:21:34.10	325.91	15.23	-37.5	-38.9	15.9	0.00e+00	0	61	0	4223664128	45	4289
2026-01-16 15:21:35.11	326.02	15.13	-37.5	-39.0	15.8	0.00e+00	0	61	0	4231004160	45	4326
2026-01-16 15:21:36.12	326.13	15.04	-37.5	-39.0	15.7	0.00e+00	0	61	0	4238344192	45	4327
2026-01-16 15:21:37.13	326.24	14.95	-37.6	-39.2	15.6	0.00e+00	0	62	0	4245684224	45	4393
2026-01-16 15:21:38.14	326.35	14.86	-37.6	-39.1	15.7	0.00e+00	0	61	0	4253024256	45	4364
2026-01-16 15:21:39.15	326.45	14.76	-37.7	-39.2	15.6	0.00e+00	0	61	0	4260364288	45	4439
2026-01-16 15:21:40.16	326.56	14.67	-37.7	-39.2	15.6	0.00e+00	0	61	0	4267704320	45	4420
2026-01-16 15:21:41.17	326.67	14.58	-37.8	-39.3	15.4	0.00e+00	0	61	0	4275044352	45	4480
2026-01-16 15:21:42.18	326.77	14.49	-37.7	-39.3	15.5	0.00e+00	0	61	0	4281335808	45	4453
2026-01-16 15:21:43.19	326.88	14.40	-37.7	-39.3	15.5	0.00e+00	0	61	0	4289724416	45	4461
2026-01-16 15:21:44.20	326.98	14.31	-37.7	-39.3	15.5	0.00e+00	0	61	0	4297064448	45	4469
2026-01-16 15:21:45.20	327.08	14.22	-37.7	-39.2	15.5	0.00e+00	0	61	0	4303355904	45	4434
2026-01-16 15:21:46.21	327.19	14.13	-37.7	-39.3	15.4	0.00e+00	0	61	0	4310695936	45	4464
2026-01-16 15:21:47.22	327.29	14.04	-37.7	-39.3	15.5	0.00e+00	0	61	0	4318035968	45	4465
2026-01-16 15:21:48.23	327.39	13.95	-37.9	-39.5	15.3	1.10e-06	0	61	0	4325376000	45	4562
2026-01-16 15:21:49.24	327.49	13.86	-37.8	-39.4	15.4	0.00e+00	0	61	0	4332716032	45	4500
2026-01-16 15:21:50.25	327.59	13.77	-37.8	-39.4	15.3	0.00e+00	0	61	0	4340056064	45	4530
2026-01-16 15:21:51.26	327.69	13.68	-38.0	-39.6	15.1	0.00e+00	0	61	0	4347396096	45	4646
2026-01-16 15:21:52.27	327.79	13.59	-38.0	-39.7	15.0	0.00e+00	0	62	0	4354736128	45	4655
2026-01-16 15:21:53.28	327.89	13.50	-37.8	-39.4	15.3	0.00e+00	0	61	0	4362076160	45	4535
2026-01-16 15:21:54.29	327.99	13.42	-38.0	-39.6	15.1	0.00e+00	0	61	0	4369416192	45	4621
2026-01-16 15:21:55.30	328.09	13.33	-38.0	-39.6	15.1	0.00e+00	0	61	0	4376756224	45	4638
2026-01-16 15:21:56.31	328.19	13.24	-37.9	-39.5	15.2	0.00e+00	0	61	0	4384096256	45	4565
2026-01-16 15:21:57.32	328.28	13.15	-38.0	-39.6	15.0	0.00e+00	0	61	0	4391436288	45	4645
2026-01-16 15:21:58.33	328.38	13.07	-38.0	-39.6	15.1	1.10e-06	0	61	0	4398776320	45	4627
2026-01-16 15:21:59.34	328.48	12.98	-38.0	-39.7	15.0	0.00e+00	0	61	0	4406116352	45	4679
2026-01-16 15:22:00.35	328.57	12.89	-38.0	-39.7	15.0	0.00e+00	0	61	0	4413456384	45	4652
2026-01-16 15:22:01.36	328.67	12.81	-38.0	-39.6	15.1	0.00e+00	0	61	0	4420796416	45	4624
2026-01-16 15:22:02.37	328.76	12.72	-37.9	-39.6	15.1	0.00e+00	0	61	0	4427087872	45	4606
2026-01-16 15:22:03.38	328.85	12.63	-38.0	-39.6	15.0	0.00e+00	0	61	0	4434427904	45	4645
2026-01-16 15:22:04.38	328.95	12.55	-38.1	-39.8	14.9	0.00e+00	0	61	0	4442816512	45	4707
2026-01-16 15:22:05.39	329.04	12.46	-38.0	-39.6	15.0	0.00e+00	0	61	0	4449107968	45	4624
2026-01-16 15:22:06.40	329.13	12.38	-38.1	-39.7	14.9	0.00e+00	0	61	0	4456448000	45	4691
2026-01-16 15:22:07.41	329.22	12.29	-38.1	-39.8	14.9	1.10e-06	0	61	0	4463788032	45	4713
2026-01-16 15:22:08.42	329.31	12.21	-38.2	-39.9	14.8	0.00e+00	0	61	0	4471128064	45	4762
2026-01-16 15:22:09.43	329.40	12.12	-38.1	-39.8	14.8	0.00e+00	0	61	0	4478468096	45	4728
2026-01-16 15:22:10.44	329.49	12.04	-38.3	-40.0	14.6	0.00e+00	0	61	0	4485808128	46	4548
2026-01-16 15:22:11.46	329.59	11.95	-38.3	-40.0	14.6	0.00e+00	0	61	0	4493148160	46	4553
