passes_logs/2026/01/16/R2.0S_Moscow/R2.0S_Moscow__20260116_030142_AQUA_rec.log

#Pass ID: 20260116_030142_AQUA
#Satellite: AQUA
#Configuration: AQUA
#almurnet v.1.7.20251203
#Start time: 2026-01-16 03:01:44

#Version: 2.2.20231116
#Station: R2.0S_Moscow
#Location: 37.707566 lon 55.798166 lat
#TLE: 1 27424U 02022A   26015.51279194  .00000651  00000+0  14022-3 0  9990
#TLE: 2 27424  98.4082 341.9487 0002034  77.6776  33.2672 14.61821775260965

#Time	Az	El	Level	Level2	SNR	BER	BlckErr	Temp	State	Recorded	gain1	gain2
2026-01-16 03:01:44.35	6.18	2.13	-39.8	-60.0	3.8	7.45e-01	0	51	0	0	51	36397
2026-01-16 03:01:45.35	6.10	2.18	-39.8	-60.0	3.8	7.45e-01	0	51	104	0	50	38617
2026-01-16 03:01:46.36	6.02	2.24	-39.8	-60.0	3.8	7.46e-01	0	51	104	0	50	38573
2026-01-16 03:01:47.36	5.94	2.30	-39.7	-60.0	3.8	7.45e-01	0	51	104	0	50	38572
2026-01-16 03:01:48.37	5.86	2.35	-39.7	-60.0	3.8	7.44e-01	0	51	104	0	50	38562
2026-01-16 03:01:49.38	5.78	2.41	-39.7	-60.0	3.8	7.44e-01	0	51	104	0	50	38566
2026-01-16 03:01:50.39	5.69	2.47	-39.7	-60.0	3.8	7.43e-01	0	52	104	0	50	38548
2026-01-16 03:01:51.40	5.61	2.53	-39.7	-60.0	3.8	7.44e-01	0	52	104	0	50	38553
2026-01-16 03:01:52.41	5.52	2.58	-39.8	-60.0	3.8	7.44e-01	0	52	104	0	50	38540
2026-01-16 03:01:53.42	5.44	2.64	-39.7	-60.0	3.8	7.46e-01	0	52	104	0	50	38640
2026-01-16 03:01:54.44	5.35	2.70	-39.7	-60.0	3.8	7.43e-01	0	52	104	0	50	38546
2026-01-16 03:01:55.45	5.27	2.76	-39.7	-60.0	3.8	7.45e-01	0	52	104	0	50	38507
2026-01-16 03:01:56.46	5.18	2.82	-39.7	-60.0	3.8	7.45e-01	0	52	104	0	50	38561
2026-01-16 03:01:57.47	5.10	2.87	-39.7	-60.0	3.8	7.43e-01	0	52	104	0	50	38463
2026-01-16 03:01:58.47	5.01	2.93	-39.8	-60.0	3.8	7.46e-01	0	52	104	0	50	38466
2026-01-16 03:01:59.48	4.92	2.99	-39.7	-60.0	3.8	7.45e-01	0	52	104	0	50	38539
2026-01-16 03:02:00.49	4.84	3.05	-39.8	-60.0	3.8	7.46e-01	0	52	104	0	50	38511
2026-01-16 03:02:01.50	4.75	3.11	-39.7	-60.0	3.8	7.45e-01	0	52	104	0	50	38523
2026-01-16 03:02:02.51	4.66	3.17	-39.7	-60.0	3.8	7.46e-01	0	52	104	0	50	38550
2026-01-16 03:02:03.52	4.57	3.22	-39.7	-60.0	3.8	7.48e-01	0	52	104	0	50	38469
2026-01-16 03:02:04.53	4.49	3.28	-39.7	-60.0	3.8	7.47e-01	0	52	104	0	50	38482
2026-01-16 03:02:05.54	4.40	3.34	-39.8	-60.0	3.8	7.45e-01	0	52	104	0	50	38554
2026-01-16 03:02:06.55	4.31	3.40	-39.8	-60.0	3.8	7.45e-01	0	52	104	0	50	38477
2026-01-16 03:02:07.55	4.22	3.46	-39.7	-60.0	3.8	7.48e-01	0	53	104	0	50	38476
2026-01-16 03:02:08.56	4.13	3.52	-39.8	-60.0	3.8	7.47e-01	0	53	104	0	50	38433
2026-01-16 03:02:09.57	4.04	3.58	-39.8	-60.0	3.8	7.45e-01	0	53	104	0	50	38497
2026-01-16 03:02:10.58	3.94	3.63	-39.8	-60.0	3.8	7.46e-01	0	53	104	0	50	38496
2026-01-16 03:02:11.59	3.85	3.69	-39.8	-60.0	3.8	7.45e-01	0	53	104	0	50	38458
2026-01-16 03:02:12.60	3.76	3.75	-39.8	-60.0	3.8	7.45e-01	0	53	104	0	50	38546
2026-01-16 03:02:13.61	3.67	3.81	-39.7	-60.0	3.8	7.47e-01	0	53	104	0	50	38472
2026-01-16 03:02:14.62	3.58	3.87	-39.8	-60.0	3.8	7.42e-01	0	53	104	0	50	38524
2026-01-16 03:02:15.63	3.48	3.93	-39.7	-60.0	3.8	7.48e-01	0	53	104	0	50	38441
2026-01-16 03:02:16.64	3.39	3.99	-39.7	-60.0	3.8	7.45e-01	0	53	104	0	50	38499
2026-01-16 03:02:17.65	3.29	4.05	-39.7	-60.0	3.8	7.48e-01	0	53	104	0	50	38479
2026-01-16 03:02:18.66	3.20	4.11	-39.8	-60.0	3.8	7.47e-01	0	53	104	0	50	38413
2026-01-16 03:02:19.67	3.10	4.17	-39.7	-60.0	3.8	7.45e-01	0	53	104	0	50	38515
2026-01-16 03:02:20.68	3.01	4.23	-39.8	-60.0	3.8	7.44e-01	0	53	104	0	50	38459
2026-01-16 03:02:21.68	2.91	4.29	-39.7	-60.0	3.8	7.49e-01	0	54	104	0	50	38423
2026-01-16 03:02:22.69	2.82	4.35	-39.7	-60.0	3.8	7.47e-01	0	54	104	0	50	38436
2026-01-16 03:02:23.70	2.72	4.41	-39.7	-60.0	3.8	7.43e-01	0	54	104	0	50	38409
2026-01-16 03:02:24.71	2.62	4.47	-39.7	-60.0	3.8	7.45e-01	0	54	104	0	50	38457
2026-01-16 03:02:25.72	2.53	4.53	-39.7	-60.0	3.8	7.45e-01	0	54	104	0	50	38501
2026-01-16 03:02:26.73	2.43	4.59	-39.8	-60.0	3.8	7.46e-01	0	54	104	0	50	38440
2026-01-16 03:02:27.74	2.33	4.65	-39.7	-60.0	3.8	7.46e-01	0	54	104	0	50	38385
2026-01-16 03:02:28.75	2.23	4.71	-39.7	-60.0	3.8	7.45e-01	0	54	104	0	50	38456
2026-01-16 03:02:29.76	2.13	4.77	-39.7	-60.0	3.8	7.46e-01	0	54	104	0	50	38455
2026-01-16 03:02:30.77	2.03	4.83	-39.7	-60.0	3.8	7.48e-01	0	54	104	0	50	38520
2026-01-16 03:02:31.78	1.93	4.89	-39.8	-60.0	3.8	7.44e-01	0	54	104	0	50	38421
2026-01-16 03:02:32.79	1.83	4.95	-39.7	-60.0	3.8	7.50e-01	0	54	104	0	50	38488
2026-01-16 03:02:33.80	1.73	5.01	-39.8	-60.0	3.8	7.47e-01	0	54	104	0	50	38390
2026-01-16 03:02:34.81	1.62	5.07	-39.8	-60.0	3.8	7.47e-01	0	54	104	0	50	38421
2026-01-16 03:02:35.82	1.52	5.13	-39.8	-60.0	3.8	7.44e-01	0	54	104	0	50	38410
2026-01-16 03:02:36.83	1.42	5.19	-39.7	-60.0	3.8	7.43e-01	0	54	104	0	50	38475
2026-01-16 03:02:37.84	1.32	5.26	-39.7	-60.0	3.8	7.44e-01	0	54	104	0	50	38424
2026-01-16 03:02:38.85	1.21	5.32	-39.7	-60.0	3.8	7.44e-01	0	54	104	0	50	38464
2026-01-16 03:02:39.86	1.11	5.38	-39.7	-60.0	3.8	7.44e-01	0	54	104	0	50	38432
2026-01-16 03:02:40.87	1.00	5.44	-39.7	-60.0	3.8	7.47e-01	0	55	104	0	50	38453
2026-01-16 03:02:41.88	0.90	5.50	-39.8	-60.0	3.8	7.47e-01	0	54	104	0	50	38472
2026-01-16 03:02:42.89	0.79	5.56	-39.7	-60.0	3.8	7.43e-01	0	54	104	0	50	38493
2026-01-16 03:02:43.90	0.68	5.62	-39.7	-60.0	3.8	7.48e-01	0	55	104	0	50	38438
2026-01-16 03:02:44.91	0.58	5.68	-39.8	-60.0	3.8	7.42e-01	0	55	104	0	50	38408
2026-01-16 03:02:45.91	0.47	5.75	-39.8	-60.0	3.8	7.44e-01	0	55	104	0	50	38476
2026-01-16 03:02:46.92	0.36	5.81	-39.8	-60.0	3.8	7.43e-01	0	55	104	0	50	38395
2026-01-16 03:02:47.93	0.25	5.87	-39.7	-60.0	3.8	7.47e-01	0	55	104	0	50	38406
2026-01-16 03:02:48.94	0.15	5.93	-39.8	-60.0	3.8	7.46e-01	0	55	104	0	50	38453
2026-01-16 03:02:49.95	0.04	5.99	-39.7	-60.0	3.8	7.44e-01	0	55	104	0	50	38468
2026-01-16 03:02:50.97	359.92	6.06	-39.7	-60.0	3.8	7.42e-01	0	55	104	0	50	38399
2026-01-16 03:02:51.97	359.82	6.12	-39.7	-60.0	3.8	7.44e-01	0	55	104	0	50	38386
2026-01-16 03:02:52.98	359.70	6.18	-39.8	-60.0	3.8	7.46e-01	0	55	104	0	50	38414
2026-01-16 03:02:53.99	359.59	6.24	-39.7	-60.0	3.8	7.45e-01	0	55	104	0	50	38424
2026-01-16 03:02:55.00	359.48	6.30	-39.8	-60.0	3.8	7.45e-01	0	55	104	0	50	38512
2026-01-16 03:02:56.01	359.37	6.37	-39.8	-60.0	3.8	7.46e-01	0	55	104	0	50	38424
2026-01-16 03:02:57.02	359.25	6.43	-39.7	-60.0	3.8	7.42e-01	0	55	104	0	50	38334
2026-01-16 03:02:58.03	359.14	6.49	-39.7	-60.0	3.8	7.47e-01	0	55	104	0	50	38440
2026-01-16 03:02:59.04	359.03	6.55	-39.8	-60.0	3.8	7.41e-01	0	55	104	0	50	38384
2026-01-16 03:03:00.05	358.91	6.62	-39.7	-60.0	3.8	7.44e-01	0	55	104	0	50	38403
2026-01-16 03:03:01.06	358.80	6.68	-39.7	-60.0	3.8	7.41e-01	0	55	104	0	50	38402
2026-01-16 03:03:02.07	358.68	6.74	-39.7	-60.0	3.8	7.47e-01	0	55	104	0	50	38426
2026-01-16 03:03:03.07	358.56	6.80	-39.7	-60.0	3.8	7.49e-01	0	55	104	0	50	38371
2026-01-16 03:03:04.08	358.45	6.87	-39.7	-60.0	3.8	7.45e-01	0	55	104	0	50	38407
2026-01-16 03:03:05.09	358.33	6.93	-39.7	-60.0	3.8	7.46e-01	0	56	104	0	50	38441
2026-01-16 03:03:06.10	358.21	6.99	-39.7	-60.0	3.8	7.41e-01	0	56	104	0	50	38398
2026-01-16 03:03:07.11	358.09	7.06	-39.7	-60.0	3.8	7.46e-01	0	55	104	0	50	38405
2026-01-16 03:03:08.12	357.97	7.12	-39.7	-60.0	3.8	7.43e-01	0	55	104	0	50	38355
2026-01-16 03:03:09.13	357.85	7.18	-39.7	-60.0	3.8	7.45e-01	0	56	104	0	50	38472
2026-01-16 03:03:10.14	357.73	7.24	-39.8	-60.0	3.8	7.44e-01	0	56	104	0	50	38441
2026-01-16 03:03:11.15	357.61	7.31	-39.7	-60.0	3.8	7.44e-01	0	56	104	0	50	38398
2026-01-16 03:03:12.15	357.49	7.37	-39.7	-60.0	3.8	7.44e-01	0	56	104	0	50	38407
2026-01-16 03:03:13.16	357.37	7.43	-39.8	-60.0	3.8	7.47e-01	0	56	104	0	50	38369
2026-01-16 03:03:14.17	357.24	7.50	-39.7	-60.0	3.8	7.48e-01	0	56	104	0	50	38444
2026-01-16 03:03:15.18	357.12	7.56	-39.7	-60.0	3.8	7.47e-01	0	56	104	0	50	38345
2026-01-16 03:03:16.19	357.00	7.62	-39.8	-60.0	3.8	7.47e-01	0	56	104	0	50	38374
2026-01-16 03:03:17.20	356.87	7.69	-39.8	-60.0	3.8	7.46e-01	0	56	104	0	50	38413
2026-01-16 03:03:18.21	356.75	7.75	-39.8	-60.0	3.8	7.48e-01	0	56	104	0	50	38345
2026-01-16 03:03:19.22	356.62	7.82	-39.7	-60.0	3.8	7.43e-01	0	56	104	0	50	38377
2026-01-16 03:03:20.23	356.49	7.88	-39.7	-60.0	3.8	7.50e-01	0	56	104	0	50	38412
2026-01-16 03:03:21.24	356.37	7.94	-39.7	-60.0	3.8	7.42e-01	0	56	104	0	50	38385
2026-01-16 03:03:22.24	356.24	8.01	-39.7	-60.0	3.8	7.45e-01	0	56	104	0	50	38391
2026-01-16 03:03:23.25	356.11	8.07	-39.7	-60.0	3.8	7.46e-01	0	56	104	0	50	38533
2026-01-16 03:03:24.26	355.98	8.13	-39.9	-60.1	3.8	7.45e-01	0	56	104	0	50	39014
2026-01-16 03:03:25.27	355.85	8.20	-40.0	-60.1	3.8	7.47e-01	0	56	104	0	50	38902
2026-01-16 03:03:26.28	355.72	8.26	-40.2	-60.1	3.8	7.49e-01	0	56	104	0	51	36762
2026-01-16 03:03:27.29	355.59	8.33	-40.5	-60.3	3.8	7.44e-01	0	56	104	0	51	37502
2026-01-16 03:03:28.29	355.46	8.39	-39.9	-60.1	3.8	7.47e-01	0	56	104	0	51	36886
2026-01-16 03:03:29.30	355.33	8.45	-40.6	-60.3	3.8	7.45e-01	0	56	104	0	51	37660
2026-01-16 03:03:30.31	355.19	8.52	-39.9	-60.2	3.8	7.44e-01	0	57	104	0	51	36966
2026-01-16 03:03:31.32	355.06	8.58	-40.5	-60.1	3.8	7.46e-01	0	57	104	0	52	34852
2026-01-16 03:03:32.33	354.93	8.65	-40.5	-60.2	3.8	7.48e-01	0	56	104	0	52	34978
2026-01-16 03:03:33.34	354.79	8.71	-40.7	-60.2	3.8	7.47e-01	0	57	104	0	52	34934
2026-01-16 03:03:34.35	354.65	8.78	-40.6	-60.2	3.8	7.48e-01	0	57	104	0	52	35222
2026-01-16 03:03:35.36	354.52	8.84	-40.9	-60.3	3.8	7.44e-01	0	57	104	0	52	35489
2026-01-16 03:03:36.37	354.38	8.91	-40.5	-60.2	3.8	7.46e-01	0	57	104	0	52	35085
2026-01-16 03:03:37.38	354.24	8.97	-41.0	-60.3	3.8	7.41e-01	0	57	104	0	52	35537
2026-01-16 03:03:38.39	354.11	9.03	-40.6	-60.2	3.8	7.47e-01	0	57	104	0	52	34968
2026-01-16 03:03:39.40	353.97	9.10	-41.0	-60.3	3.8	7.46e-01	0	57	104	0	52	35382
2026-01-16 03:03:40.41	353.83	9.16	-40.9	-60.3	3.8	7.45e-01	0	57	104	0	52	35298
2026-01-16 03:03:41.42	353.69	9.23	-41.0	-60.3	3.8	7.46e-01	0	57	104	0	52	35468
2026-01-16 03:03:42.43	353.54	9.29	-41.2	-60.3	3.8	7.46e-01	0	57	104	0	52	35415
2026-01-16 03:03:43.44	353.40	9.36	-41.2	-60.4	3.8	7.48e-01	0	57	104	0	53	33934
2026-01-16 03:03:44.45	353.26	9.42	-41.1	-60.3	3.8	7.48e-01	0	57	104	0	53	33658
2026-01-16 03:03:45.45	353.12	9.49	-41.2	-60.5	3.8	7.43e-01	0	57	104	0	53	34247
2026-01-16 03:03:46.47	352.97	9.55	-41.1	-60.4	3.8	7.44e-01	0	57	104	0	53	33721
2026-01-16 03:03:47.48	352.83	9.62	-41.1	-60.4	3.8	7.44e-01	0	57	104	0	53	34077
2026-01-16 03:03:48.49	352.68	9.68	-41.2	-60.5	3.8	7.45e-01	0	57	104	0	53	34387
2026-01-16 03:03:49.50	352.54	9.75	-41.0	-60.5	3.8	7.47e-01	0	57	104	0	53	34338
2026-01-16 03:03:50.51	352.39	9.81	-41.1	-60.6	3.8	7.41e-01	0	57	104	0	53	34695
2026-01-16 03:03:51.52	352.24	9.88	-41.0	-60.6	3.8	7.44e-01	0	57	104	0	53	34870
2026-01-16 03:03:52.53	352.09	9.94	-40.9	-60.6	3.8	7.47e-01	0	57	104	0	53	34727
2026-01-16 03:03:53.54	351.95	10.01	-40.8	-60.6	3.8	7.45e-01	0	57	104	0	53	34634
2026-01-16 03:03:54.55	351.80	10.07	-40.9	-60.6	3.8	7.44e-01	0	57	104	0	53	34599
2026-01-16 03:03:55.55	351.65	10.14	-40.7	-60.5	3.8	7.41e-01	0	57	104	0	53	34238
2026-01-16 03:03:56.57	351.49	10.20	-40.8	-60.5	3.8	7.45e-01	0	57	104	0	53	34176
2026-01-16 03:03:57.57	351.34	10.27	-40.8	-60.5	3.8	7.44e-01	0	57	104	0	53	34179
2026-01-16 03:03:58.58	351.19	10.33	-41.5	-60.7	3.8	7.46e-01	0	57	104	0	53	35179
2026-01-16 03:03:59.59	351.04	10.40	-41.0	-60.6	3.8	7.45e-01	0	57	104	0	53	34627
2026-01-16 03:04:00.60	350.88	10.46	-41.4	-60.7	3.8	7.43e-01	0	57	104	0	53	35003
2026-01-16 03:04:01.61	350.73	10.53	-41.2	-60.6	3.8	7.48e-01	0	57	104	0	53	34879
2026-01-16 03:04:02.62	350.57	10.59	-41.5	-60.8	3.8	7.47e-01	0	57	104	0	53	35342
2026-01-16 03:04:03.63	350.42	10.66	-41.5	-60.7	3.8	7.44e-01	0	57	104	0	54	32999
2026-01-16 03:04:04.64	350.26	10.72	-41.6	-60.7	3.8	7.47e-01	0	57	104	0	54	33298
2026-01-16 03:04:05.65	350.10	10.79	-41.4	-60.6	3.8	7.45e-01	0	57	104	0	54	32888
2026-01-16 03:04:06.66	349.94	10.85	-41.4	-60.9	3.8	7.47e-01	0	57	104	0	54	33767
2026-01-16 03:04:07.67	349.78	10.92	-41.5	-60.8	3.8	7.45e-01	0	57	104	0	54	33420
2026-01-16 03:04:08.68	349.62	10.98	-41.6	-60.9	3.8	7.44e-01	0	58	104	0	54	34068
2026-01-16 03:04:09.69	349.46	11.05	-41.5	-60.8	3.8	7.47e-01	0	58	104	0	54	33636
2026-01-16 03:04:10.70	349.30	11.11	-41.7	-60.8	3.8	7.42e-01	0	58	104	0	54	33587
2026-01-16 03:04:11.70	349.14	11.18	-41.6	-61.0	3.8	7.45e-01	0	57	104	0	54	34219
2026-01-16 03:04:12.71	348.97	11.24	-41.7	-60.9	3.8	7.43e-01	0	57	104	0	54	33981
2026-01-16 03:04:13.72	348.81	11.31	-41.6	-61.0	3.8	7.44e-01	0	58	104	0	54	34421
2026-01-16 03:04:14.73	348.64	11.37	-41.6	-61.1	3.8	7.44e-01	0	58	104	0	54	34486
2026-01-16 03:04:15.74	348.48	11.43	-41.7	-61.1	3.8	7.44e-01	0	58	104	0	54	34571
2026-01-16 03:04:16.75	348.31	11.50	-41.7	-61.1	3.8	7.45e-01	0	58	104	0	54	34690
2026-01-16 03:04:17.76	348.14	11.56	-41.7	-61.1	3.8	7.45e-01	0	58	104	0	54	34571
2026-01-16 03:04:18.77	347.98	11.63	-41.8	-61.0	3.8	7.45e-01	0	58	104	0	54	34477
2026-01-16 03:04:19.78	347.81	11.69	-41.9	-61.1	3.8	7.45e-01	0	58	104	0	54	34525
2026-01-16 03:04:20.79	347.64	11.76	-41.8	-61.1	3.8	7.45e-01	0	58	104	0	54	34726
2026-01-16 03:04:21.80	347.47	11.82	-41.9	-61.1	3.8	7.44e-01	0	58	104	0	54	34706
2026-01-16 03:04:22.81	347.29	11.89	-41.9	-61.0	3.8	7.45e-01	0	58	104	0	54	34341
2026-01-16 03:04:23.82	347.12	11.95	-41.7	-61.1	3.8	7.44e-01	0	58	104	0	54	34766
2026-01-16 03:04:24.82	346.95	12.02	-41.9	-61.0	3.8	7.46e-01	0	58	104	0	54	34199
2026-01-16 03:04:25.83	346.78	12.08	-41.8	-61.1	3.8	7.46e-01	0	58	104	0	54	34879
2026-01-16 03:04:26.84	346.60	12.14	-42.0	-61.2	3.8	7.45e-01	0	58	104	0	54	35034
2026-01-16 03:04:27.85	346.42	12.21	-41.8	-61.0	3.8	7.44e-01	0	58	104	0	54	34188
2026-01-16 03:04:28.86	346.25	12.27	-42.1	-61.1	3.8	7.47e-01	0	58	104	0	54	34851
2026-01-16 03:04:29.87	346.07	12.34	-41.7	-60.9	3.8	7.47e-01	0	58	104	0	54	33709
2026-01-16 03:04:30.88	345.89	12.40	-41.4	-60.8	3.8	7.45e-01	0	58	104	0	54	33407
2026-01-16 03:04:31.89	345.71	12.46	-41.9	-60.9	3.8	7.45e-01	0	58	104	0	54	34076
2026-01-16 03:04:32.90	345.53	12.53	-41.4	-60.9	3.8	7.46e-01	0	58	104	0	54	33984
2026-01-16 03:04:33.91	345.35	12.59	-41.8	-60.9	3.8	7.46e-01	0	58	104	0	54	33812
2026-01-16 03:04:34.92	345.17	12.66	-41.8	-60.9	3.8	7.44e-01	0	58	104	0	54	34032
2026-01-16 03:04:35.93	344.99	12.72	-41.5	-60.8	3.8	7.45e-01	0	58	104	0	54	33569
2026-01-16 03:04:36.94	344.80	12.78	-41.7	-61.0	3.8	7.48e-01	0	58	104	0	54	34303
2026-01-16 03:04:37.95	344.62	12.85	-41.5	-60.8	3.8	7.46e-01	0	58	104	0	54	33466
2026-01-16 03:04:38.96	344.43	12.91	-41.6	-60.8	3.8	7.45e-01	0	58	104	0	54	33348
2026-01-16 03:04:39.97	344.25	12.97	-41.4	-60.9	3.8	7.48e-01	0	58	104	0	54	33879
2026-01-16 03:04:40.98	344.06	13.04	-41.7	-60.8	3.8	7.47e-01	0	58	104	0	54	33477
2026-01-16 03:04:41.98	343.88	13.10	-41.3	-61.0	3.8	7.41e-01	0	58	104	0	54	34105
2026-01-16 03:04:42.99	343.69	13.16	-41.3	-60.8	3.8	7.41e-01	0	58	104	0	54	33538
2026-01-16 03:04:44.00	343.50	13.22	-41.4	-60.6	3.8	7.45e-01	0	58	104	0	54	32924
2026-01-16 03:04:45.01	343.31	13.29	-41.2	-60.8	3.8	7.47e-01	0	58	104	0	54	33501
2026-01-16 03:04:46.02	343.11	13.35	-41.4	-60.7	3.8	7.43e-01	0	58	104	0	54	33101
2026-01-16 03:04:47.03	342.92	13.41	-41.5	-60.8	3.8	7.45e-01	0	58	104	0	54	33377
2026-01-16 03:04:48.05	342.73	13.48	-41.7	-60.8	3.8	7.45e-01	0	58	104	0	54	33372
2026-01-16 03:04:49.06	342.53	13.54	-41.4	-60.7	3.8	7.46e-01	0	58	104	0	54	33219
2026-01-16 03:04:50.06	342.34	13.60	-41.8	-60.8	3.8	7.46e-01	0	58	104	0	54	33654
2026-01-16 03:04:51.07	342.14	13.66	-41.6	-60.7	3.8	7.43e-01	0	58	104	0	54	33215
2026-01-16 03:04:52.09	341.95	13.72	-40.9	-60.6	3.8	7.40e-01	0	58	104	0	53	34507
2026-01-16 03:04:53.10	341.75	13.79	-41.5	-60.7	3.8	7.44e-01	0	58	104	0	53	34939
2026-01-16 03:04:54.10	341.55	13.85	-41.1	-60.6	3.8	7.42e-01	0	58	104	0	53	34645
2026-01-16 03:04:55.11	341.35	13.91	-41.8	-61.1	3.8	7.47e-01	0	58	104	0	54	34771
2026-01-16 03:04:56.12	341.15	13.97	-41.3	-60.7	3.8	7.43e-01	0	58	104	0	54	33098
2026-01-16 03:04:57.13	340.95	14.03	-42.0	-61.1	3.8	7.47e-01	0	58	104	0	54	34528
2026-01-16 03:04:58.14	340.75	14.09	-41.4	-60.7	3.8	7.45e-01	0	58	104	0	54	33045
2026-01-16 03:04:59.14	340.55	14.15	-41.2	-60.9	3.8	7.48e-01	0	58	104	0	54	34046
2026-01-16 03:05:00.15	340.34	14.21	-42.0	-60.9	3.8	7.47e-01	0	58	104	0	54	33937
2026-01-16 03:05:01.16	340.14	14.27	-41.4	-61.2	3.8	7.45e-01	0	58	104	0	54	35062
2026-01-16 03:05:02.17	339.93	14.33	-42.2	-60.9	3.8	7.45e-01	0	58	104	0	55	32072
2026-01-16 03:05:03.18	339.73	14.39	-42.8	-54.9	6.3	6.75e-01	92	58	0	0	56	15175
2026-01-16 03:05:04.19	339.52	14.45	-42.2	-60.9	3.8	7.46e-01	0	58	104	524288	56	30158
2026-01-16 03:05:05.20	339.31	14.51	-42.5	-51.4	9.7	6.23e-01	0	58	0	524288	56	10067
2026-01-16 03:05:06.21	339.10	14.57	-42.1	-49.4	12.1	6.07e-01	0	58	0	2621440	56	8022
2026-01-16 03:05:07.22	338.89	14.63	-41.7	-47.9	13.6	6.05e-01	0	58	0	4718592	55	7149
2026-01-16 03:05:08.23	338.68	14.69	-41.4	-46.7	15.0	6.04e-01	0	58	0	6291456	54	6622
2026-01-16 03:05:09.24	338.47	14.75	-41.3	-46.2	15.6	6.00e-01	0	58	0	8388608	54	6220
2026-01-16 03:05:10.25	338.25	14.81	-41.2	-45.8	16.0	6.00e-01	0	58	0	9961472	54	5955
2026-01-16 03:05:11.26	338.04	14.86	-41.0	-45.1	16.9	6.00e-01	0	58	0	12058624	54	5522
2026-01-16 03:05:12.27	337.83	14.92	-41.4	-45.6	16.5	6.02e-01	0	58	0	14155776	54	5824
2026-01-16 03:05:13.28	337.61	14.98	-41.9	-46.4	15.9	5.98e-01	0	58	0	15728640	54	6407
2026-01-16 03:05:14.29	337.39	15.04	-41.7	-45.8	16.6	6.01e-01	0	59	0	17825792	54	5926
2026-01-16 03:05:15.29	337.18	15.10	-41.4	-45.0	17.5	6.00e-01	0	58	0	19398656	54	5462
2026-01-16 03:05:16.30	336.96	15.15	-41.8	-45.8	17.0	6.02e-01	0	58	0	21495808	54	5936
2026-01-16 03:05:17.31	336.74	15.21	-41.6	-45.4	17.4	6.01e-01	0	58	0	23592960	54	5658
2026-01-16 03:05:18.32	336.52	15.27	-41.6	-45.2	17.6	6.01e-01	0	58	0	25165824	54	5583
2026-01-16 03:05:19.33	336.30	15.32	-41.7	-45.3	17.5	6.01e-01	0	59	0	27262976	54	5651
2026-01-16 03:05:20.34	336.08	15.38	-41.6	-45.2	17.7	6.01e-01	0	59	0	28835840	54	5540
2026-01-16 03:05:21.35	335.85	15.43	-41.7	-45.4	17.5	5.99e-01	0	58	0	30932992	54	5678
2026-01-16 03:05:22.36	335.63	15.49	-41.7	-45.3	17.7	6.00e-01	0	59	0	33030144	54	5625
2026-01-16 03:05:23.37	335.40	15.55	-41.9	-45.6	17.4	6.02e-01	0	59	0	34603008	54	5816
2026-01-16 03:05:24.38	335.18	15.60	-41.8	-45.3	17.8	6.01e-01	0	59	0	36700160	54	5641
2026-01-16 03:05:25.39	334.95	15.65	-41.8	-45.3	17.9	6.02e-01	0	59	0	38273024	54	5601
2026-01-16 03:05:26.40	334.72	15.71	-41.8	-45.3	17.8	6.01e-01	0	59	0	40370176	54	5638
2026-01-16 03:05:27.41	334.50	15.76	-41.8	-45.2	17.9	6.01e-01	0	58	0	42467328	54	5591
2026-01-16 03:05:28.42	334.27	15.82	-41.8	-45.2	18.0	6.00e-01	0	59	0	44040192	54	5585
2026-01-16 03:05:29.43	334.04	15.87	-41.8	-45.3	17.9	5.99e-01	0	59	0	46137344	54	5637
2026-01-16 03:05:30.44	333.81	15.92	-41.9	-45.5	17.8	6.01e-01	0	58	0	47710208	54	5724
2026-01-16 03:05:31.45	333.57	15.98	-41.9	-45.4	17.8	6.01e-01	0	59	0	49807360	54	5704
2026-01-16 03:05:32.46	333.34	16.03	-41.9	-45.4	17.9	6.02e-01	0	59	0	51904512	54	5691
2026-01-16 03:05:33.47	333.11	16.08	-41.9	-45.4	17.9	6.01e-01	0	59	0	53477376	54	5687
2026-01-16 03:05:34.48	332.87	16.13	-41.9	-45.4	17.9	6.00e-01	0	58	0	55574528	54	5712
2026-01-16 03:05:35.49	332.64	16.18	-41.9	-45.4	17.9	6.00e-01	0	59	0	57671680	54	5704
2026-01-16 03:05:36.50	332.40	16.24	-41.8	-45.3	18.1	6.00e-01	0	59	0	59244544	54	5602
2026-01-16 03:05:37.51	332.16	16.29	-41.8	-45.2	18.1	6.03e-01	0	59	0	61341696	54	5572
2026-01-16 03:05:38.52	331.93	16.34	-41.9	-45.3	18.1	6.03e-01	0	59	0	62914560	54	5601
2026-01-16 03:05:39.53	331.69	16.39	-42.0	-45.4	17.9	6.01e-01	0	59	0	65011712	54	5707
2026-01-16 03:05:40.54	331.45	16.44	-42.0	-45.5	17.9	6.00e-01	0	59	0	67108864	54	5783
2026-01-16 03:05:41.55	331.21	16.49	-42.0	-45.6	17.8	6.00e-01	0	59	0	68681728	54	5819
2026-01-16 03:05:42.56	330.96	16.54	-42.0	-45.5	18.0	5.97e-01	0	59	0	70778880	54	5733
2026-01-16 03:05:43.57	330.72	16.58	-41.9	-45.4	18.0	6.01e-01	0	59	0	72876032	54	5667
2026-01-16 03:05:44.58	330.48	16.63	-41.9	-45.3	18.1	6.03e-01	0	59	0	74448896	54	5652
2026-01-16 03:05:45.59	330.23	16.68	-41.9	-45.3	18.1	6.01e-01	0	59	0	76546048	54	5654
2026-01-16 03:05:46.60	329.99	16.73	-42.0	-45.4	18.0	6.00e-01	0	59	0	78118912	54	5711
2026-01-16 03:05:47.60	329.75	16.77	-42.0	-45.4	18.1	6.02e-01	0	59	0	80216064	54	5695
2026-01-16 03:05:48.61	329.50	16.82	-42.0	-45.4	18.0	5.99e-01	0	59	0	82313216	54	5700
2026-01-16 03:05:49.62	329.25	16.87	-42.0	-45.4	18.0	6.02e-01	0	59	0	83886080	54	5715
2026-01-16 03:05:50.63	329.00	16.91	-42.0	-45.4	18.1	6.00e-01	0	59	0	85983232	54	5678
2026-01-16 03:05:51.64	328.76	16.96	-42.0	-45.4	18.1	6.00e-01	0	59	0	87556096	54	5671
2026-01-16 03:05:52.65	328.51	17.00	-42.0	-45.4	18.1	6.03e-01	0	59	0	89653248	54	5666
2026-01-16 03:05:53.67	328.25	17.05	-42.0	-45.5	18.1	6.02e-01	0	59	0	91750400	54	5732
2026-01-16 03:05:54.67	328.00	17.09	-42.1	-45.5	18.0	6.03e-01	0	59	0	93323264	54	5770
2026-01-16 03:05:55.68	327.75	17.13	-42.0	-45.4	18.1	5.99e-01	0	59	0	95420416	54	5721
2026-01-16 03:05:56.69	327.50	17.18	-42.1	-45.5	18.0	6.00e-01	0	59	0	96993280	54	5767
2026-01-16 03:05:57.70	327.24	17.22	-42.0	-45.5	18.1	6.02e-01	0	59	0	99090432	54	5741
2026-01-16 03:05:58.71	326.99	17.26	-42.0	-45.4	18.1	5.99e-01	0	59	0	101187584	54	5670
2026-01-16 03:05:59.72	326.73	17.30	-42.1	-45.5	18.0	6.01e-01	0	59	0	102760448	54	5736
2026-01-16 03:06:00.73	326.48	17.34	-42.1	-45.5	18.0	6.01e-01	0	59	0	104857600	54	5783
2026-01-16 03:06:01.74	326.22	17.39	-42.1	-45.5	18.0	6.01e-01	0	59	0	106430464	54	5768
2026-01-16 03:06:02.75	325.96	17.43	-42.1	-45.6	17.9	6.01e-01	0	59	0	108527616	54	5830
2026-01-16 03:06:03.76	325.71	17.47	-42.1	-45.6	18.0	6.02e-01	0	59	0	110624768	54	5803
2026-01-16 03:06:04.77	325.45	17.50	-42.1	-45.6	17.9	6.01e-01	0	59	0	112197632	54	5821
2026-01-16 03:06:05.78	325.19	17.54	-42.1	-45.6	17.9	6.02e-01	0	59	0	114294784	54	5823
2026-01-16 03:06:06.79	324.93	17.58	-42.1	-45.6	18.0	5.99e-01	0	59	0	115867648	54	5791
2026-01-16 03:06:07.80	324.67	17.62	-42.1	-45.6	18.0	5.99e-01	0	59	0	117964800	54	5800
2026-01-16 03:06:08.81	324.40	17.66	-42.1	-45.6	18.0	6.01e-01	0	59	0	120061952	54	5803
2026-01-16 03:06:09.82	324.14	17.69	-42.1	-45.6	17.9	6.02e-01	0	59	0	121634816	54	5835
2026-01-16 03:06:10.83	323.88	17.73	-42.1	-45.5	18.0	6.01e-01	0	59	0	123731968	54	5773
2026-01-16 03:06:11.84	323.61	17.76	-42.1	-45.6	18.0	5.98e-01	0	59	0	125829120	54	5798
2026-01-16 03:06:12.85	323.35	17.80	-42.1	-45.6	18.0	6.00e-01	0	59	0	127401984	54	5824
2026-01-16 03:06:13.86	323.08	17.83	-42.1	-45.6	18.0	6.01e-01	0	59	0	129499136	54	5825
2026-01-16 03:06:14.87	322.82	17.87	-42.1	-45.6	18.0	5.99e-01	0	59	0	131072000	54	5804
2026-01-16 03:06:15.87	322.56	17.90	-42.2	-45.6	17.9	6.01e-01	0	59	0	133169152	54	5847
2026-01-16 03:06:16.88	322.29	17.93	-42.1	-45.5	18.0	5.99e-01	0	59	0	135266304	54	5779
2026-01-16 03:06:17.90	322.02	17.97	-42.2	-45.6	17.9	6.00e-01	0	59	0	136839168	54	5851
2026-01-16 03:06:18.91	321.75	18.00	-42.1	-45.5	18.1	6.00e-01	0	59	0	138936320	54	5757
2026-01-16 03:06:19.92	321.48	18.03	-42.2	-45.7	17.9	6.01e-01	0	59	0	141033472	54	5861
2026-01-16 03:06:20.92	321.21	18.06	-42.1	-45.6	18.0	6.01e-01	0	59	0	142606336	54	5802
2026-01-16 03:06:21.93	320.94	18.09	-42.2	-45.8	17.8	6.02e-01	0	59	0	144703488	55	5619
2026-01-16 03:06:22.94	320.67	18.12	-42.1	-45.6	18.0	6.00e-01	0	59	0	146276352	55	5490
2026-01-16 03:06:23.95	320.40	18.15	-42.2	-45.8	17.8	6.02e-01	0	59	0	148373504	55	5622
2026-01-16 03:06:24.96	320.13	18.18	-42.1	-45.5	18.1	6.02e-01	0	59	0	150470656	55	5420
2026-01-16 03:06:25.97	319.86	18.20	-42.2	-45.6	18.0	6.03e-01	0	59	0	152043520	55	5526
2026-01-16 03:06:26.98	319.58	18.23	-42.2	-45.6	18.0	5.99e-01	0	59	0	154140672	55	5518
2026-01-16 03:06:27.99	319.31	18.26	-42.2	-45.7	17.9	6.01e-01	0	59	0	155713536	55	5574
2026-01-16 03:06:29.00	319.04	18.28	-42.3	-45.8	17.8	6.02e-01	0	59	0	157810688	55	5635
2026-01-16 03:06:30.01	318.76	18.31	-42.4	-46.0	17.6	6.00e-01	0	59	0	159907840	55	5744
2026-01-16 03:06:31.02	318.49	18.33	-42.2	-45.7	17.8	6.03e-01	0	59	0	161480704	55	5581
2026-01-16 03:06:32.03	318.21	18.36	-42.1	-45.5	18.1	6.01e-01	0	59	0	163577856	55	5459
2026-01-16 03:06:33.04	317.94	18.38	-42.2	-45.7	17.9	5.98e-01	0	59	0	165150720	55	5575
2026-01-16 03:06:34.05	317.66	18.40	-42.3	-45.9	17.7	6.01e-01	0	59	0	167247872	55	5699
2026-01-16 03:06:35.05	317.39	18.42	-42.2	-45.8	17.8	6.01e-01	0	59	0	169345024	55	5605
2026-01-16 03:06:36.06	317.11	18.44	-42.3	-45.9	17.7	6.00e-01	0	59	0	170917888	55	5705
2026-01-16 03:06:37.07	316.83	18.47	-42.3	-45.9	17.7	6.01e-01	0	59	0	173015040	55	5682
2026-01-16 03:06:38.09	316.55	18.49	-42.4	-46.1	17.6	6.01e-01	0	59	0	174587904	55	5790
2026-01-16 03:06:39.09	316.28	18.51	-42.3	-45.8	17.7	6.01e-01	0	59	0	176685056	55	5639
2026-01-16 03:06:40.11	315.99	18.52	-42.3	-45.8	17.8	6.00e-01	0	59	0	178782208	55	5636
2026-01-16 03:06:41.12	315.72	18.54	-42.2	-45.7	17.8	6.03e-01	0	59	0	180355072	55	5591
2026-01-16 03:06:42.12	315.44	18.56	-42.5	-46.2	17.4	5.99e-01	0	59	0	182452224	55	5881
2026-01-16 03:06:43.13	315.16	18.58	-42.4	-46.0	17.6	6.01e-01	0	59	0	184025088	55	5773
2026-01-16 03:06:44.15	314.88	18.59	-42.6	-46.4	17.2	6.01e-01	0	59	0	186122240	55	6019
2026-01-16 03:06:45.16	314.60	18.61	-42.3	-45.8	17.8	6.02e-01	0	59	0	188219392	55	5613
2026-01-16 03:06:46.16	314.32	18.62	-42.4	-46.0	17.7	5.99e-01	0	59	0	189792256	55	5737
2026-01-16 03:06:47.17	314.04	18.64	-42.0	-45.3	18.3	6.00e-01	0	59	0	191889408	55	5336
2026-01-16 03:06:48.18	313.76	18.65	-42.4	-46.1	17.5	6.04e-01	0	59	0	193986560	55	5832
2026-01-16 03:06:49.19	313.47	18.66	-42.3	-45.8	17.8	6.00e-01	0	59	0	195559424	55	5635
2026-01-16 03:06:50.20	313.19	18.68	-42.4	-46.0	17.6	6.03e-01	0	59	0	197656576	55	5768
2026-01-16 03:06:51.21	312.91	18.69	-42.1	-45.4	18.2	6.00e-01	0	59	0	199229440	55	5395
2026-01-16 03:06:52.22	312.63	18.70	-42.3	-45.8	17.8	6.03e-01	0	59	0	201326592	55	5623
2026-01-16 03:06:53.23	312.35	18.71	-42.3	-45.8	17.8	6.01e-01	0	59	0	203423744	55	5636
2026-01-16 03:06:54.24	312.06	18.72	-42.2	-45.7	17.9	6.02e-01	0	59	0	204996608	55	5545
2026-01-16 03:06:55.25	311.78	18.73	-42.4	-46.1	17.6	6.03e-01	0	59	0	207093760	55	5803
2026-01-16 03:06:56.25	311.50	18.73	-42.0	-45.4	18.2	6.00e-01	0	59	0	209190912	55	5381
2026-01-16 03:06:57.26	311.22	18.74	-42.6	-46.4	17.2	6.01e-01	0	59	0	210763776	55	6058
2026-01-16 03:06:58.27	310.93	18.75	-42.0	-45.3	18.4	5.99e-01	0	60	0	212860928	55	5292
2026-01-16 03:06:59.28	310.65	18.75	-42.5	-46.3	17.3	5.99e-01	0	59	0	214433792	55	5979
2026-01-16 03:07:00.29	310.37	18.76	-42.1	-45.6	18.1	6.01e-01	0	59	0	216530944	55	5471
2026-01-16 03:07:01.30	310.08	18.76	-42.3	-46.0	17.5	6.02e-01	0	59	0	218628096	55	5747
2026-01-16 03:07:02.31	309.80	18.77	-42.4	-46.0	17.6	6.01e-01	0	59	0	220200960	55	5761
2026-01-16 03:07:03.32	309.51	18.77	-42.3	-45.9	17.6	5.98e-01	0	59	0	222298112	55	5712
2026-01-16 03:07:04.33	309.23	18.77	-42.6	-46.4	17.2	6.00e-01	0	59	0	223870976	55	6023
2026-01-16 03:07:05.34	308.95	18.77	-42.1	-45.5	18.0	6.00e-01	0	59	0	225968128	55	5409
2026-01-16 03:07:06.35	308.66	18.78	-42.5	-46.3	17.3	5.99e-01	0	59	0	228065280	55	5978
2026-01-16 03:07:07.36	308.38	18.78	-42.0	-45.4	18.3	6.02e-01	0	59	0	229638144	55	5355
2026-01-16 03:07:08.37	308.09	18.78	-42.4	-46.1	17.5	6.03e-01	0	59	0	231735296	55	5816
2026-01-16 03:07:09.38	307.81	18.77	-42.2	-45.6	18.0	6.02e-01	0	59	0	233308160	55	5514
2026-01-16 03:07:10.39	307.53	18.77	-42.4	-46.1	17.5	6.02e-01	0	59	0	235405312	55	5831
2026-01-16 03:07:11.40	307.24	18.77	-42.3	-45.8	17.8	6.01e-01	0	59	0	237502464	55	5638
2026-01-16 03:07:12.41	306.96	18.77	-42.2	-45.7	17.9	6.02e-01	0	60	0	239075328	55	5579
2026-01-16 03:07:13.41	306.68	18.76	-42.3	-45.8	17.8	5.99e-01	0	59	0	241172480	55	5604
2026-01-16 03:07:14.42	306.39	18.76	-42.4	-46.0	17.6	6.00e-01	0	59	0	242745344	55	5769
2026-01-16 03:07:15.44	306.11	18.75	-42.4	-46.0	17.6	6.00e-01	0	59	0	244842496	55	5755
2026-01-16 03:07:16.45	305.82	18.75	-42.5	-46.3	17.3	6.02e-01	0	59	0	246939648	55	5930
2026-01-16 03:07:17.46	305.54	18.74	-42.5	-46.2	17.4	6.01e-01	0	59	0	248512512	55	5907
2026-01-16 03:07:18.46	305.26	18.73	-42.3	-45.9	17.7	6.00e-01	0	60	0	250609664	55	5717
2026-01-16 03:07:19.47	304.98	18.73	-42.2	-45.7	17.9	6.01e-01	0	59	0	252182528	55	5529
2026-01-16 03:07:20.49	304.69	18.72	-42.5	-46.2	17.4	5.99e-01	0	59	0	254279680	55	5892
2026-01-16 03:07:21.49	304.41	18.71	-42.1	-45.4	18.2	6.01e-01	0	60	0	256376832	55	5380
2026-01-16 03:07:22.51	304.13	18.70	-42.5	-46.3	17.3	5.99e-01	0	60	0	257949696	55	5968
2026-01-16 03:07:23.52	303.84	18.69	-42.3	-45.9	17.7	5.99e-01	0	60	0	260046848	55	5717
2026-01-16 03:07:24.53	303.56	18.68	-42.3	-45.9	17.7	6.02e-01	0	59	0	262144000	55	5687
2026-01-16 03:07:25.54	303.28	18.66	-42.5	-46.2	17.3	5.99e-01	0	59	0	263716864	55	5918
2026-01-16 03:07:26.55	303.00	18.65	-42.2	-45.8	17.8	5.99e-01	0	59	0	265814016	55	5611
2026-01-16 03:07:27.56	302.72	18.64	-42.3	-45.9	17.6	6.00e-01	0	59	0	267386880	55	5664
2026-01-16 03:07:28.57	302.43	18.62	-42.4	-46.1	17.5	5.99e-01	0	59	0	269484032	55	5811
2026-01-16 03:07:29.58	302.15	18.61	-42.4	-46.0	17.6	6.01e-01	0	60	0	271581184	55	5746
2026-01-16 03:07:30.59	301.87	18.59	-42.2	-45.8	17.8	6.00e-01	0	60	0	273154048	55	5614
2026-01-16 03:07:31.60	301.59	18.58	-42.4	-46.1	17.6	6.01e-01	0	60	0	275251200	55	5789
2026-01-16 03:07:32.61	301.31	18.56	-42.0	-45.4	18.1	6.02e-01	0	59	0	277348352	55	5379
2026-01-16 03:07:33.62	301.03	18.54	-42.3	-45.9	17.7	6.02e-01	0	60	0	278921216	55	5702
2026-01-16 03:07:34.63	300.75	18.53	-42.4	-46.0	17.4	6.00e-01	0	59	0	281018368	55	5779
2026-01-16 03:07:35.64	300.47	18.51	-42.1	-45.6	18.0	6.01e-01	0	59	0	282591232	55	5466
2026-01-16 03:07:36.65	300.19	18.49	-42.9	-47.0	16.6	6.02e-01	0	59	0	284688384	56	6110
2026-01-16 03:07:37.66	299.92	18.47	-42.2	-45.5	18.2	6.00e-01	0	60	0	286785536	56	5145
2026-01-16 03:07:38.67	299.64	18.45	-43.0	-47.1	16.5	6.00e-01	0	59	0	288358400	56	6182
2026-01-16 03:07:39.68	299.36	18.42	-42.1	-45.5	18.2	6.00e-01	0	60	0	290455552	56	5113
2026-01-16 03:07:40.69	299.08	18.40	-42.3	-45.9	17.8	6.01e-01	0	60	0	292028416	56	5381
2026-01-16 03:07:41.70	298.81	18.38	-42.5	-46.3	17.3	6.01e-01	0	59	0	294125568	56	5656
2026-01-16 03:07:42.71	298.53	18.36	-42.2	-45.6	18.0	5.98e-01	0	60	0	296222720	56	5205
2026-01-16 03:07:43.72	298.25	18.33	-43.1	-47.6	16.0	6.00e-01	0	60	0	297795584	56	6543
2026-01-16 03:07:44.73	297.98	18.31	-42.4	-46.0	17.6	6.00e-01	0	60	0	299892736	56	5446
2026-01-16 03:07:45.74	297.70	18.28	-43.2	-47.6	16.1	6.02e-01	0	59	0	301465600	56	6520
2026-01-16 03:07:46.75	297.43	18.26	-42.7	-46.6	16.9	6.02e-01	0	59	0	303562752	56	5837
2026-01-16 03:07:47.76	297.16	18.23	-42.7	-46.7	17.0	6.01e-01	0	60	0	305659904	56	5866
2026-01-16 03:07:48.77	296.88	18.20	-43.1	-47.4	16.2	6.02e-01	0	59	0	307232768	56	6405
2026-01-16 03:07:49.78	296.61	18.18	-42.6	-46.4	17.2	6.01e-01	0	59	0	309329920	56	5659
2026-01-16 03:07:50.79	296.34	18.15	-42.4	-46.0	17.7	6.00e-01	0	59	0	310902784	56	5421
2026-01-16 03:07:51.79	296.07	18.12	-43.0	-47.3	16.3	6.02e-01	0	60	0	312999936	56	6290
2026-01-16 03:07:52.80	295.80	18.09	-41.8	-44.9	18.6	6.00e-01	0	60	0	315097088	55	5096
2026-01-16 03:07:53.81	295.53	18.06	-42.9	-47.1	16.5	5.99e-01	0	60	0	316669952	56	6185
2026-01-16 03:07:54.83	295.25	18.03	-42.1	-45.4	18.1	6.01e-01	0	60	0	318767104	56	5086
2026-01-16 03:07:55.84	294.98	18.00	-42.7	-46.5	17.2	5.99e-01	0	59	0	320339968	56	5734
2026-01-16 03:07:56.84	294.72	17.97	-42.7	-46.7	17.0	6.01e-01	0	59	0	322437120	56	5856
2026-01-16 03:07:57.85	294.45	17.94	-42.6	-46.4	17.2	5.99e-01	0	60	0	324534272	56	5691
2026-01-16 03:07:58.86	294.18	17.90	-42.6	-46.4	17.1	6.02e-01	0	60	0	326107136	56	5722
2026-01-16 03:07:59.87	293.91	17.87	-42.8	-46.8	16.7	5.99e-01	0	60	0	328204288	56	5971
2026-01-16 03:08:00.88	293.65	17.84	-42.1	-45.5	18.1	6.00e-01	0	59	0	330301440	56	5106
2026-01-16 03:08:01.89	293.38	17.80	-42.5	-46.2	17.4	6.00e-01	0	60	0	331874304	56	5552
2026-01-16 03:08:02.90	293.12	17.77	-42.4	-46.0	17.5	6.02e-01	0	60	0	333971456	56	5445
2026-01-16 03:08:03.91	292.85	17.73	-42.4	-46.1	17.6	6.00e-01	0	59	0	335544320	56	5497
2026-01-16 03:08:04.92	292.59	17.69	-42.6	-46.3	17.3	6.01e-01	0	59	0	337641472	56	5619
2026-01-16 03:08:05.93	292.33	17.66	-42.5	-46.2	17.2	6.04e-01	0	60	0	339738624	56	5575
2026-01-16 03:08:06.94	292.06	17.62	-42.6	-46.4	17.1	6.00e-01	0	59	0	341311488	56	5699
2026-01-16 03:08:07.95	291.80	17.58	-42.4	-45.9	17.7	6.03e-01	0	59	0	343408640	56	5398
2026-01-16 03:08:08.96	291.54	17.54	-42.8	-46.9	16.6	6.01e-01	0	59	0	345505792	56	6058
2026-01-16 03:08:09.96	291.28	17.51	-42.3	-45.8	17.8	6.01e-01	0	59	0	347078656	56	5302
2026-01-16 03:08:10.97	291.02	17.47	-42.2	-45.7	17.9	6.00e-01	0	59	0	349175808	56	5264
2026-01-16 03:08:11.98	290.76	17.43	-42.4	-46.1	17.4	6.00e-01	0	59	0	350748672	56	5493
2026-01-16 03:08:12.99	290.50	17.39	-42.2	-45.7	17.9	6.00e-01	0	60	0	352845824	56	5255
2026-01-16 03:08:14.00	290.25	17.35	-42.4	-46.1	17.5	6.00e-01	0	60	0	354942976	56	5481
2026-01-16 03:08:15.01	289.99	17.30	-42.3	-45.9	17.7	6.00e-01	0	60	0	356515840	56	5384
2026-01-16 03:08:16.02	289.73	17.26	-42.3	-45.8	17.8	6.03e-01	0	60	0	358612992	56	5298
2026-01-16 03:08:17.03	289.48	17.22	-42.2	-45.7	17.9	6.01e-01	0	60	0	360185856	56	5222
2026-01-16 03:08:18.04	289.22	17.18	-42.3	-45.9	17.6	6.03e-01	0	60	0	362283008	56	5394
2026-01-16 03:08:19.05	288.97	17.13	-42.3	-45.9	17.7	6.01e-01	0	60	0	364380160	56	5362
2026-01-16 03:08:20.06	288.72	17.09	-42.2	-45.8	17.7	6.01e-01	0	60	0	365953024	56	5308
2026-01-16 03:08:21.07	288.46	17.05	-42.2	-45.7	17.8	5.99e-01	0	60	0	368050176	56	5266
2026-01-16 03:08:22.08	288.21	17.00	-42.4	-46.2	17.4	6.02e-01	0	60	0	369623040	56	5550
2026-01-16 03:08:23.09	287.96	16.96	-42.4	-46.1	17.3	6.02e-01	0	60	0	371720192	56	5524
2026-01-16 03:08:24.10	287.71	16.91	-42.0	-45.4	18.1	5.99e-01	0	60	0	373817344	56	5077
2026-01-16 03:08:25.11	287.46	16.87	-42.4	-46.1	17.4	5.99e-01	0	60	0	375390208	56	5516
2026-01-16 03:08:26.12	287.22	16.82	-42.3	-46.0	17.5	6.01e-01	0	60	0	377487360	56	5419
2026-01-16 03:08:27.13	286.97	16.77	-41.9	-45.2	18.2	6.00e-01	0	60	0	379060224	55	5229
2026-01-16 03:08:28.14	286.72	16.73	-42.2	-45.8	17.7	6.00e-01	0	60	0	381157376	55	5621
2026-01-16 03:08:29.15	286.48	16.68	-42.4	-46.3	17.1	6.01e-01	0	60	0	383254528	55	5936
2026-01-16 03:08:30.16	286.23	16.63	-41.9	-45.3	18.1	6.02e-01	0	60	0	384827392	55	5299
2026-01-16 03:08:31.17	285.99	16.58	-42.0	-45.5	17.9	6.02e-01	0	60	0	386924544	55	5440
2026-01-16 03:08:32.18	285.74	16.53	-42.4	-46.2	17.2	6.03e-01	0	60	0	388497408	55	5873
2026-01-16 03:08:33.19	285.50	16.48	-42.1	-45.6	17.7	5.99e-01	0	59	0	390594560	55	5522
2026-01-16 03:08:34.20	285.26	16.44	-42.3	-46.1	17.4	6.03e-01	0	60	0	392691712	55	5829
2026-01-16 03:08:35.21	285.02	16.39	-42.6	-46.6	16.7	6.02e-01	0	60	0	394264576	55	6192
2026-01-16 03:08:36.21	284.78	16.34	-42.4	-46.2	17.2	6.02e-01	0	60	0	396361728	55	5873
2026-01-16 03:08:37.22	284.54	16.29	-42.3	-46.1	17.3	6.00e-01	0	60	0	398458880	55	5807
2026-01-16 03:08:38.23	284.30	16.23	-42.9	-47.0	16.6	6.01e-01	0	60	0	400031744	56	6131
2026-01-16 03:08:39.24	284.07	16.18	-42.7	-46.8	16.7	5.99e-01	0	60	0	402128896	56	5926
2026-01-16 03:08:40.25	283.83	16.13	-42.1	-45.6	17.8	6.01e-01	0	60	0	403701760	56	5200
2026-01-16 03:08:41.26	283.59	16.08	-42.2	-45.7	17.7	6.01e-01	0	59	0	405798912	56	5274
2026-01-16 03:08:42.27	283.36	16.03	-42.7	-46.8	16.7	6.00e-01	0	60	0	407896064	56	5924
2026-01-16 03:08:43.28	283.13	15.97	-42.7	-46.7	16.7	6.02e-01	0	60	0	409468928	56	5914
2026-01-16 03:08:44.29	282.89	15.92	-42.4	-46.1	17.3	6.02e-01	0	60	0	411566080	56	5505
2026-01-16 03:08:45.30	282.66	15.87	-42.6	-46.5	17.0	6.02e-01	0	60	0	413138944	56	5730
2026-01-16 03:08:46.31	282.43	15.81	-42.9	-47.3	16.2	6.02e-01	0	60	0	415236096	56	6283
2026-01-16 03:08:47.32	282.20	15.76	-42.8	-46.9	16.4	6.00e-01	0	60	0	417333248	56	6060
2026-01-16 03:08:48.33	281.97	15.71	-42.6	-46.6	16.9	6.02e-01	0	60	0	418906112	56	5815
2026-01-16 03:08:49.34	281.74	15.65	-42.7	-46.8	16.6	6.03e-01	0	60	0	421003264	56	5968
2026-01-16 03:08:50.35	281.51	15.60	-42.9	-47.2	16.3	6.00e-01	0	60	0	422576128	56	6205
2026-01-16 03:08:51.36	281.29	15.54	-42.7	-46.9	16.5	6.00e-01	0	60	0	424673280	56	6006
2026-01-16 03:08:52.37	281.06	15.49	-42.6	-46.5	16.9	6.00e-01	0	60	0	426770432	56	5761
2026-01-16 03:08:53.37	280.84	15.43	-42.6	-46.7	16.8	6.00e-01	0	60	0	428343296	56	5856
2026-01-16 03:08:54.39	280.61	15.37	-42.8	-47.0	16.4	6.01e-01	0	60	0	430440448	56	6082
2026-01-16 03:08:55.40	280.39	15.32	-42.6	-46.6	16.8	6.00e-01	0	60	0	432013312	56	5827
2026-01-16 03:08:56.41	280.17	15.26	-42.3	-45.9	17.5	6.00e-01	0	60	0	434110464	56	5353
2026-01-16 03:08:57.42	279.94	15.20	-42.2	-45.8	17.7	6.00e-01	0	60	0	436207616	56	5287
2026-01-16 03:08:58.43	279.72	15.15	-42.3	-46.1	17.4	5.99e-01	0	60	0	437780480	56	5478
2026-01-16 03:08:59.44	279.50	15.09	-42.4	-46.1	17.3	6.00e-01	0	60	0	439877632	56	5497
2026-01-16 03:09:00.45	279.29	15.03	-42.2	-45.7	17.6	6.01e-01	0	60	0	441974784	56	5279
2026-01-16 03:09:01.46	279.07	14.97	-42.2	-45.7	17.7	6.02e-01	0	59	0	443547648	56	5270
2026-01-16 03:09:02.47	278.85	14.92	-42.2	-45.8	17.6	6.01e-01	0	60	0	445644800	56	5301
2026-01-16 03:09:03.48	278.64	14.86	-42.1	-45.7	17.7	5.99e-01	0	60	0	447217664	56	5275
2026-01-16 03:09:04.49	278.42	14.80	-42.1	-45.6	17.8	6.01e-01	0	60	0	449314816	56	5189
2026-01-16 03:09:05.50	278.21	14.74	-42.0	-45.5	17.9	6.00e-01	0	60	0	451411968	56	5136
2026-01-16 03:09:06.51	277.99	14.68	-42.1	-45.6	17.8	6.02e-01	0	60	0	452984832	56	5208
2026-01-16 03:09:07.52	277.78	14.62	-42.1	-45.7	17.7	6.00e-01	0	60	0	455081984	56	5242
2026-01-16 03:09:08.53	277.57	14.56	-42.2	-45.9	17.5	6.02e-01	0	60	0	456654848	56	5369
2026-01-16 03:09:09.53	277.36	14.50	-42.2	-45.9	17.4	6.00e-01	0	60	0	458752000	56	5401
2026-01-16 03:09:10.55	277.15	14.44	-42.3	-46.0	17.4	6.01e-01	0	60	0	460849152	56	5415
2026-01-16 03:09:11.56	276.94	14.38	-42.2	-45.8	17.5	6.02e-01	0	60	0	462422016	56	5313
2026-01-16 03:09:12.56	276.73	14.32	-42.1	-45.7	17.7	6.01e-01	0	60	0	464519168	56	5229
2026-01-16 03:09:13.57	276.53	14.26	-42.2	-45.8	17.6	6.01e-01	0	60	0	466616320	56	5318
2026-01-16 03:09:14.58	276.32	14.20	-42.2	-45.9	17.5	6.01e-01	0	60	0	468189184	56	5358
2026-01-16 03:09:15.59	276.12	14.14	-42.3	-46.0	17.3	6.00e-01	0	60	0	470286336	56	5425
2026-01-16 03:09:16.60	275.91	14.08	-42.2	-45.9	17.4	6.01e-01	0	60	0	471859200	56	5380
2026-01-16 03:09:17.61	275.71	14.02	-42.1	-45.7	17.6	6.03e-01	0	60	0	473956352	56	5234
2026-01-16 03:09:18.62	275.51	13.96	-42.1	-45.7	17.6	6.01e-01	0	60	0	476053504	56	5250
2026-01-16 03:09:19.63	275.31	13.90	-42.2	-45.8	17.5	6.03e-01	0	60	0	477626368	56	5305
2026-01-16 03:09:20.64	275.11	13.84	-42.2	-45.9	17.4	6.01e-01	0	60	0	479723520	56	5381
2026-01-16 03:09:21.65	274.91	13.77	-42.2	-45.9	17.5	6.01e-01	0	60	0	481296384	56	5349
2026-01-16 03:09:22.66	274.71	13.71	-42.1	-45.6	17.7	6.01e-01	0	60	0	483393536	56	5212
2026-01-16 03:09:23.67	274.51	13.65	-42.1	-45.6	17.7	6.00e-01	0	60	0	485490688	56	5209
2026-01-16 03:09:24.68	274.31	13.59	-42.1	-45.7	17.6	6.03e-01	0	60	0	487063552	56	5237
2026-01-16 03:09:25.69	274.12	13.53	-42.1	-45.7	17.6	5.99e-01	0	60	0	489160704	56	5273
2026-01-16 03:09:26.70	273.92	13.46	-42.3	-46.0	17.3	6.00e-01	0	60	0	491257856	56	5446
2026-01-16 03:09:27.71	273.73	13.40	-42.2	-46.0	17.3	6.03e-01	0	60	0	492830720	56	5436
2026-01-16 03:09:28.72	273.53	13.34	-42.1	-45.8	17.5	6.02e-01	0	60	0	494927872	56	5322
2026-01-16 03:09:29.73	273.34	13.28	-42.2	-45.9	17.4	6.02e-01	0	60	0	496500736	56	5360
2026-01-16 03:09:30.74	273.15	13.21	-42.1	-45.9	17.4	6.00e-01	0	60	0	498597888	56	5345
2026-01-16 03:09:31.76	272.96	13.15	-42.0	-45.7	17.6	6.02e-01	0	60	0	500695040	56	5224
2026-01-16 03:09:32.76	272.77	13.09	-42.1	-45.7	17.5	6.00e-01	0	60	0	502267904	56	5272
2026-01-16 03:09:33.77	272.58	13.02	-42.1	-45.8	17.5	5.98e-01	0	60	0	504365056	56	5290
2026-01-16 03:09:34.78	272.39	12.96	-42.2	-46.0	17.2	5.99e-01	0	60	0	505937920	56	5429
2026-01-16 03:09:35.79	272.20	12.90	-42.2	-46.1	17.1	6.02e-01	0	60	0	508035072	56	5477
2026-01-16 03:09:36.80	272.02	12.83	-42.3	-46.2	17.0	6.01e-01	0	60	0	510132224	56	5541
2026-01-16 03:09:37.81	271.83	12.77	-42.2	-45.9	17.3	6.04e-01	0	60	0	511705088	56	5397
2026-01-16 03:09:38.82	271.65	12.70	-42.2	-46.0	17.2	6.00e-01	0	60	0	513802240	56	5410
2026-01-16 03:09:39.83	271.46	12.64	-42.1	-45.7	17.5	5.99e-01	0	60	0	515375104	56	5270
2026-01-16 03:09:40.84	271.28	12.58	-42.1	-45.8	17.4	6.00e-01	0	60	0	517472256	56	5302
2026-01-16 03:09:41.85	271.10	12.51	-42.1	-45.8	17.3	5.99e-01	0	60	0	519569408	56	5333
2026-01-16 03:09:42.86	270.92	12.45	-42.2	-46.0	17.2	6.01e-01	0	60	0	521142272	56	5439
2026-01-16 03:09:43.87	270.74	12.38	-42.1	-45.9	17.3	6.01e-01	0	60	0	523239424	56	5353
2026-01-16 03:09:44.88	270.56	12.32	-42.1	-45.8	17.3	6.00e-01	0	60	0	524812288	56	5328
2026-01-16 03:09:45.89	270.38	12.26	-42.1	-45.9	17.3	6.01e-01	0	60	0	526909440	56	5341
2026-01-16 03:09:46.90	270.20	12.19	-42.2	-46.0	17.2	6.00e-01	0	60	0	529006592	56	5418
2026-01-16 03:09:47.91	270.02	12.13	-42.2	-46.0	17.2	6.01e-01	0	60	0	530579456	56	5419
2026-01-16 03:09:48.92	269.85	12.06	-42.1	-45.9	17.2	6.00e-01	0	60	0	532676608	56	5379
2026-01-16 03:09:49.93	269.67	12.00	-42.1	-45.9	17.2	6.00e-01	0	60	0	534773760	56	5355
2026-01-16 03:09:50.94	269.50	11.93	-42.1	-45.8	17.3	6.02e-01	0	60	0	536346624	56	5326
2026-01-16 03:09:51.95	269.32	11.87	-42.1	-45.9	17.2	6.02e-01	0	60	0	538443776	56	5358
2026-01-16 03:09:52.96	269.15	11.80	-42.2	-46.0	17.1	6.01e-01	0	60	0	540016640	56	5451
2026-01-16 03:09:53.97	268.98	11.74	-42.3	-46.2	16.9	6.00e-01	0	60	0	542113792	56	5581
2026-01-16 03:09:54.97	268.81	11.67	-42.2	-46.2	16.8	6.00e-01	0	60	0	544210944	56	5590
2026-01-16 03:09:55.98	268.64	11.61	-42.2	-46.1	16.9	5.99e-01	0	60	0	545783808	56	5510
2026-01-16 03:09:56.99	268.47	11.54	-42.2	-46.1	17.0	6.01e-01	0	60	0	547880960	56	5483
2026-01-16 03:09:58.00	268.30	11.48	-42.1	-46.0	17.1	6.02e-01	0	60	0	549453824	56	5425
2026-01-16 03:09:59.01	268.13	11.41	-42.2	-46.1	16.9	5.99e-01	0	60	0	551550976	56	5506
2026-01-16 03:10:00.02	267.97	11.35	-42.3	-46.3	16.7	6.02e-01	0	60	0	553648128	56	5635
2026-01-16 03:10:01.03	267.80	11.28	-42.3	-46.4	16.6	5.99e-01	0	60	0	555220992	56	5671
2026-01-16 03:10:02.04	267.63	11.22	-42.2	-46.2	16.7	6.03e-01	0	60	0	557318144	56	5591
2026-01-16 03:10:03.05	267.47	11.15	-42.1	-45.9	17.0	6.02e-01	0	60	0	559415296	56	5391
2026-01-16 03:10:04.06	267.31	11.09	-42.0	-45.9	17.1	5.99e-01	0	60	0	560988160	56	5346
2026-01-16 03:10:05.07	267.14	11.02	-41.9	-45.7	17.2	6.03e-01	0	60	0	563085312	55	5558
2026-01-16 03:10:06.08	266.98	10.96	-41.9	-45.9	16.9	5.99e-01	0	60	0	564658176	55	5678
2026-01-16 03:10:07.09	266.82	10.89	-41.9	-45.9	16.9	6.01e-01	0	60	0	566755328	55	5712
2026-01-16 03:10:08.10	266.66	10.83	-42.0	-46.1	16.7	6.01e-01	0	60	0	568852480	55	5820
2026-01-16 03:10:09.11	266.50	10.76	-42.0	-46.2	16.6	6.02e-01	0	60	0	570425344	55	5858
2026-01-16 03:10:10.12	266.34	10.70	-42.0	-46.0	16.7	6.02e-01	0	60	0	572522496	55	5788
2026-01-16 03:10:11.13	266.18	10.63	-41.8	-45.8	17.0	6.02e-01	0	60	0	574095360	55	5603
2026-01-16 03:10:12.14	266.02	10.57	-41.8	-45.7	17.0	6.00e-01	0	60	0	576192512	55	5586
2026-01-16 03:10:13.15	265.87	10.50	-41.8	-45.7	17.0	6.02e-01	0	60	0	577765376	55	5532
2026-01-16 03:10:14.16	265.71	10.44	-41.7	-45.5	17.2	5.99e-01	0	60	0	579862528	55	5452
2026-01-16 03:10:15.17	265.55	10.37	-41.8	-45.8	16.9	6.01e-01	0	60	0	581959680	55	5611
2026-01-16 03:10:16.18	265.40	10.31	-41.9	-45.9	16.8	6.01e-01	0	60	0	583532544	55	5681
2026-01-16 03:10:17.19	265.25	10.24	-41.9	-46.0	16.7	6.02e-01	0	60	0	585629696	55	5728
2026-01-16 03:10:18.20	265.09	10.18	-41.9	-46.0	16.6	6.00e-01	0	60	0	587726848	55	5779
2026-01-16 03:10:19.21	264.94	10.11	-42.0	-46.2	16.5	6.01e-01	0	60	0	589299712	55	5856
2026-01-16 03:10:20.22	264.79	10.04	-41.9	-46.0	16.7	6.00e-01	0	60	0	591396864	55	5745
2026-01-16 03:10:21.23	264.64	9.98	-42.0	-46.1	16.6	6.01e-01	0	60	0	592969728	55	5811
2026-01-16 03:10:22.23	264.49	9.91	-42.0	-46.1	16.6	5.99e-01	0	60	0	595066880	55	5837
2026-01-16 03:10:23.25	264.34	9.85	-42.0	-46.2	16.6	6.05e-01	0	60	0	597164032	55	5857
2026-01-16 03:10:24.25	264.19	9.78	-42.0	-46.2	16.5	6.01e-01	0	60	0	598736896	55	5874
2026-01-16 03:10:25.26	264.04	9.72	-42.0	-46.3	16.3	6.00e-01	0	60	0	600834048	55	5955
2026-01-16 03:10:26.27	263.90	9.65	-42.0	-46.3	16.3	6.00e-01	0	60	0	602931200	55	5931
2026-01-16 03:10:27.29	263.75	9.59	-42.0	-46.3	16.3	6.00e-01	0	60	0	604504064	55	5930
2026-01-16 03:10:28.30	263.60	9.52	-42.0	-46.3	16.3	6.01e-01	0	60	0	606601216	55	5954
2026-01-16 03:10:29.31	263.46	9.46	-42.0	-46.2	16.4	6.01e-01	0	60	0	608174080	55	5916
2026-01-16 03:10:30.32	263.31	9.39	-42.1	-46.3	16.4	5.99e-01	0	60	0	610271232	55	5987
2026-01-16 03:10:31.32	263.17	9.33	-42.1	-46.3	16.4	6.01e-01	0	60	0	612368384	55	5937
2026-01-16 03:10:32.33	263.03	9.26	-42.0	-46.2	16.6	6.04e-01	0	60	0	613941248	55	5857
2026-01-16 03:10:33.34	262.89	9.20	-41.9	-46.0	16.6	6.02e-01	0	60	0	616038400	55	5774
2026-01-16 03:10:34.35	262.74	9.13	-41.9	-46.1	16.6	6.01e-01	0	60	0	617611264	55	5807
2026-01-16 03:10:35.36	262.60	9.07	-42.0	-46.2	16.4	6.00e-01	0	60	0	619708416	55	5920
2026-01-16 03:10:36.37	262.46	9.00	-42.1	-46.4	16.2	6.00e-01	0	60	0	621805568	55	6002
2026-01-16 03:10:37.38	262.32	8.94	-42.2	-46.6	16.0	6.01e-01	0	60	0	623378432	55	6140
2026-01-16 03:10:38.39	262.18	8.87	-42.2	-46.5	16.1	6.01e-01	0	60	0	625475584	55	6117
2026-01-16 03:10:39.40	262.05	8.81	-42.2	-46.6	16.1	6.00e-01	0	60	0	627572736	55	6170
2026-01-16 03:10:40.41	261.91	8.74	-42.3	-46.8	16.0	6.02e-01	0	60	0	629145600	55	6308
2026-01-16 03:10:41.42	261.77	8.68	-42.3	-46.8	15.9	5.99e-01	0	60	0	631242752	55	6314
2026-01-16 03:10:42.43	261.64	8.62	-42.3	-46.7	16.0	6.01e-01	0	60	0	632815616	55	6271
2026-01-16 03:10:43.44	261.50	8.55	-42.3	-46.8	15.9	6.01e-01	0	60	0	634912768	55	6325
2026-01-16 03:10:44.45	261.37	8.49	-42.3	-46.7	16.0	6.03e-01	0	60	0	636485632	55	6215
2026-01-16 03:10:45.46	261.23	8.42	-42.4	-46.8	15.9	6.02e-01	0	60	0	638582784	55	6319
2026-01-16 03:10:46.47	261.10	8.36	-42.4	-46.9	15.9	6.00e-01	0	60	0	640679936	55	6376
2026-01-16 03:10:47.47	260.97	8.29	-42.4	-46.9	15.9	5.99e-01	0	60	0	642252800	55	6352
2026-01-16 03:10:48.47	260.84	8.23	-42.4	-46.9	15.8	6.02e-01	0	60	0	644349952	55	6388
2026-01-16 03:10:49.48	260.70	8.17	-42.3	-46.8	15.9	6.00e-01	0	60	0	645922816	55	6300
2026-01-16 03:10:50.49	260.57	8.10	-42.4	-46.8	15.9	6.01e-01	0	60	0	648019968	55	6337
2026-01-16 03:10:51.50	260.44	8.04	-42.4	-47.0	15.8	5.99e-01	0	60	0	650117120	55	6421
2026-01-16 03:10:52.51	260.31	7.97	-43.3	-49.0	15.1	6.01e-01	0	60	0	651689984	57	7230
2026-01-16 03:10:53.52	260.18	7.91	-45.4	-63.9	3.8	7.46e-01	0	60	104	652214272	61	32052
2026-01-16 03:10:54.53	260.06	7.84	-45.8	-64.4	3.8	7.43e-01	0	60	104	652214272	62	32065
2026-01-16 03:10:55.54	259.93	7.78	-46.0	-64.6	3.8	7.44e-01	0	60	104	652214272	62	32671
2026-01-16 03:10:56.54	259.80	7.72	-46.1	-64.8	3.8	7.46e-01	0	60	104	652214272	62	33356
2026-01-16 03:10:57.55	259.67	7.65	-46.2	-64.8	3.8	7.46e-01	0	60	104	652214272	62	33670
2026-01-16 03:10:58.56	259.55	7.59	-46.3	-64.9	3.8	7.47e-01	0	60	104	652214272	63	31997
2026-01-16 03:10:59.57	259.42	7.53	-46.3	-65.0	3.8	7.47e-01	0	60	104	652214272	63	32243
2026-01-16 03:11:00.58	259.30	7.46	-46.3	-65.0	3.8	7.45e-01	0	60	104	652214272	63	32261
2026-01-16 03:11:01.59	259.17	7.40	-46.3	-64.9	3.8	7.47e-01	0	60	104	652214272	63	32047
2026-01-16 03:11:02.60	259.05	7.33	-46.3	-64.9	3.8	7.43e-01	0	60	104	652214272	63	31980
2026-01-16 03:11:03.61	258.93	7.27	-46.3	-64.9	3.8	7.45e-01	0	60	104	652214272	63	31991
2026-01-16 03:11:04.61	258.81	7.21	-46.2	-64.9	3.8	7.43e-01	0	60	104	652214272	63	32009
2026-01-16 03:11:05.62	258.68	7.14	-46.2	-64.9	3.8	7.47e-01	0	60	104	652214272	63	31954
2026-01-16 03:11:06.63	258.56	7.08	-46.2	-64.9	3.8	7.40e-01	0	60	104	652214272	63	31910
2026-01-16 03:11:07.64	258.44	7.02	-46.3	-65.0	3.8	7.45e-01	0	60	104	652214272	63	32203
2026-01-16 03:11:08.65	258.32	6.95	-46.3	-65.0	3.8	7.46e-01	0	60	104	652214272	63	32212
2026-01-16 03:11:09.66	258.20	6.89	-46.3	-65.0	3.8	7.48e-01	0	60	104	652214272	63	32217
2026-01-16 03:11:10.67	258.08	6.83	-46.3	-64.9	3.8	7.48e-01	0	60	104	652214272	63	32040
2026-01-16 03:11:11.68	257.97	6.76	-46.3	-64.9	3.8	7.46e-01	0	60	104	652214272	63	31905
2026-01-16 03:11:12.69	257.85	6.70	-46.3	-64.9	3.8	7.46e-01	0	60	104	652214272	63	31942
2026-01-16 03:11:13.70	257.73	6.64	-46.3	-64.9	3.8	7.46e-01	0	60	104	652214272	63	31937
2026-01-16 03:11:14.70	257.62	6.58	-46.3	-64.9	3.8	7.45e-01	0	60	104	652214272	63	31906
2026-01-16 03:11:15.71	257.50	6.51	-46.3	-64.9	3.8	7.48e-01	0	60	104	652214272	63	31833
2026-01-16 03:11:16.72	257.38	6.45	-46.2	-64.8	3.8	7.44e-01	0	60	104	652214272	63	31804
2026-01-16 03:11:17.73	257.27	6.39	-46.2	-64.8	3.8	7.46e-01	0	60	104	652214272	63	31773
2026-01-16 03:11:18.74	257.15	6.33	-46.2	-64.8	3.8	7.45e-01	0	60	104	652214272	63	31794
2026-01-16 03:11:19.75	257.04	6.26	-46.2	-64.8	3.8	7.43e-01	0	60	104	652214272	63	31711
2026-01-16 03:11:20.76	256.93	6.20	-46.2	-64.8	3.8	7.44e-01	0	60	104	652214272	63	31710
2026-01-16 03:11:21.77	256.81	6.14	-46.2	-64.8	3.8	7.45e-01	0	60	104	652214272	63	31716
2026-01-16 03:11:22.78	256.70	6.08	-46.3	-64.8	3.8	7.45e-01	0	60	104	652214272	63	31761
2026-01-16 03:11:23.79	256.59	6.01	-46.3	-64.8	3.8	7.46e-01	0	60	104	652214272	63	31757
2026-01-16 03:11:24.80	256.48	5.95	-46.2	-64.8	3.8	7.46e-01	0	60	104	652214272	63	31781
2026-01-16 03:11:25.80	256.37	5.89	-46.2	-64.8	3.8	7.43e-01	0	60	104	652214272	63	31673
2026-01-16 03:11:26.81	256.26	5.83	-46.2	-64.8	3.8	7.42e-01	0	60	104	652214272	63	31725
2026-01-16 03:11:27.82	256.15	5.77	-46.2	-64.8	3.8	7.43e-01	0	60	104	652214272	63	31638
2026-01-16 03:11:28.83	256.04	5.70	-46.2	-64.8	3.8	7.46e-01	0	60	104	652214272	63	31721
2026-01-16 03:11:29.84	255.93	5.64	-46.2	-64.8	3.8	7.45e-01	0	60	104	652214272	63	31664
2026-01-16 03:11:30.85	255.82	5.58	-46.2	-64.8	3.8	7.44e-01	0	60	104	652214272	63	31598
2026-01-16 03:11:31.86	255.72	5.52	-46.2	-64.8	3.8	7.45e-01	0	60	104	652214272	63	31689
2026-01-16 03:11:32.87	255.61	5.46	-46.2	-64.8	3.8	7.45e-01	0	60	104	652214272	63	31701
2026-01-16 03:11:33.87	255.50	5.40	-46.2	-64.8	3.8	7.45e-01	0	60	104	652214272	63	31656
2026-01-16 03:11:34.89	255.40	5.33	-46.2	-64.8	3.8	7.44e-01	0	60	104	652214272	63	31645
2026-01-16 03:11:35.90	255.29	5.27	-46.2	-64.8	3.8	7.47e-01	0	60	104	652214272	63	31690
2026-01-16 03:11:36.91	255.19	5.21	-46.2	-64.8	3.8	7.44e-01	0	60	104	652214272	63	31673
2026-01-16 03:11:37.92	255.08	5.15	-46.2	-64.8	3.8	7.44e-01	0	60	104	652214272	63	31618
2026-01-16 03:11:38.93	254.98	5.09	-46.2	-64.8	3.8	7.45e-01	0	60	104	652214272	63	31635
2026-01-16 03:11:39.94	254.87	5.03	-46.2	-64.8	3.8	7.47e-01	0	60	104	652214272	63	31631
2026-01-16 03:11:40.95	254.77	4.97	-46.2	-64.8	3.8	7.45e-01	0	60	104	652214272	63	31652
2026-01-16 03:11:41.96	254.67	4.91	-46.2	-64.8	3.8	7.46e-01	0	61	104	652214272	63	31667
2026-01-16 03:11:42.96	254.57	4.85	-46.2	-64.8	3.8	7.45e-01	0	60	104	652214272	63	31660
2026-01-16 03:11:43.97	254.47	4.79	-46.2	-64.8	3.8	7.47e-01	0	60	104	652214272	63	31594
2026-01-16 03:11:44.98	254.36	4.72	-46.2	-64.8	3.8	7.43e-01	0	60	104	652214272	63	31609
2026-01-16 03:11:45.99	254.26	4.66	-46.2	-64.8	3.8	7.45e-01	0	60	104	652214272	63	31659
2026-01-16 03:11:47.00	254.16	4.60	-46.2	-64.8	3.8	7.48e-01	0	60	104	652214272	63	31602
2026-01-16 03:11:48.01	254.06	4.54	-46.2	-64.8	3.8	7.47e-01	0	60	104	652214272	63	31626
2026-01-16 03:11:49.02	253.96	4.48	-46.2	-64.8	3.8	7.46e-01	0	60	104	652214272	63	31549
2026-01-16 03:11:50.03	253.86	4.42	-46.2	-64.8	3.8	7.48e-01	0	60	104	652214272	63	31607
2026-01-16 03:11:51.04	253.77	4.36	-46.2	-64.8	3.8	7.44e-01	0	60	104	652214272	63	31649
2026-01-16 03:11:52.05	253.67	4.30	-46.2	-64.8	3.8	7.44e-01	0	60	104	652214272	63	31691
2026-01-16 03:11:53.06	253.57	4.24	-46.2	-64.8	3.8	7.43e-01	0	60	104	652214272	63	31572
2026-01-16 03:11:54.07	253.47	4.18	-46.2	-64.8	3.8	7.43e-01	0	60	104	652214272	63	31598
2026-01-16 03:11:55.08	253.38	4.12	-46.2	-64.8	3.8	7.46e-01	0	60	104	652214272	63	31600
2026-01-16 03:11:56.08	253.28	4.06	-46.2	-64.8	3.8	7.42e-01	0	60	104	652214272	63	31628
2026-01-16 03:11:57.09	253.19	4.00	-46.2	-64.8	3.8	7.44e-01	0	60	104	652214272	63	31644
2026-01-16 03:11:58.10	253.09	3.94	-46.2	-64.8	3.8	7.48e-01	0	60	104	652214272	63	31592
2026-01-16 03:11:59.11	253.00	3.88	-46.2	-64.8	3.8	7.44e-01	0	60	104	652214272	63	31552
2026-01-16 03:12:00.12	252.90	3.82	-46.2	-64.8	3.8	7.47e-01	0	60	104	652214272	63	31542
2026-01-16 03:12:01.13	252.81	3.76	-46.2	-64.8	3.8	7.48e-01	0	60	104	652214272	63	31552
2026-01-16 03:12:02.14	252.71	3.70	-46.2	-64.8	3.8	7.49e-01	0	60	104	652214272	63	31568
2026-01-16 03:12:03.15	252.62	3.65	-46.2	-64.8	3.8	7.45e-01	0	60	104	652214272	63	31555
2026-01-16 03:12:04.16	252.53	3.59	-46.2	-64.8	3.8	7.46e-01	0	60	104	652214272	63	31518
2026-01-16 03:12:05.17	252.43	3.53	-46.2	-64.8	3.8	7.45e-01	0	60	104	652214272	63	31563
2026-01-16 03:12:06.18	252.34	3.47	-46.2	-64.8	3.8	7.45e-01	0	60	104	652214272	63	31534
2026-01-16 03:12:07.19	252.25	3.41	-46.2	-64.8	3.8	7.45e-01	0	60	104	652214272	63	31617
2026-01-16 03:12:08.20	252.16	3.35	-46.2	-64.8	3.8	7.46e-01	0	60	104	652214272	63	31547
2026-01-16 03:12:09.21	252.07	3.29	-46.2	-64.8	3.8	7.45e-01	0	60	104	652214272	63	31551
2026-01-16 03:12:10.22	251.98	3.23	-46.2	-64.8	3.8	7.49e-01	0	60	104	652214272	63	31573
2026-01-16 03:12:11.23	251.89	3.17	-46.2	-64.8	3.8	7.43e-01	0	60	104	652214272	63	31526
2026-01-16 03:12:12.24	251.80	3.11	-46.2	-64.8	3.8	7.46e-01	0	60	104	652214272	63	31471
2026-01-16 03:12:13.25	251.71	3.06	-46.2	-64.8	3.8	7.44e-01	0	60	104	652214272	63	31565
2026-01-16 03:12:14.27	251.62	3.00	-46.2	-64.8	3.8	7.47e-01	0	60	104	652214272	63	31477
2026-01-16 03:12:15.28	251.53	2.94	-46.2	-64.8	3.8	7.43e-01	0	61	104	652214272	63	31587
2026-01-16 03:12:16.29	251.44	2.88	-46.2	-64.8	3.8	7.44e-01	0	60	104	652214272	63	31541
2026-01-16 03:12:17.30	251.36	2.82	-46.2	-64.8	3.8	7.44e-01	0	60	104	652214272	63	31580
2026-01-16 03:12:18.31	251.27	2.76	-46.2	-64.8	3.8	7.48e-01	0	60	104	652214272	63	31564
2026-01-16 03:12:19.31	251.18	2.71	-46.2	-64.8	3.8	7.46e-01	0	60	104	652214272	63	31513
2026-01-16 03:12:20.32	251.10	2.65	-46.2	-64.8	3.8	7.46e-01	0	60	104	652214272	63	31557
2026-01-16 03:12:21.33	251.01	2.59	-46.2	-64.8	3.8	7.47e-01	0	60	104	652214272	63	31536
2026-01-16 03:12:22.34	250.93	2.53	-46.2	-64.8	3.8	7.47e-01	0	61	104	652214272	63	31540
2026-01-16 03:12:23.35	250.84	2.48	-46.2	-64.8	3.8	7.46e-01	0	60	104	652214272	63	31478
2026-01-16 03:12:24.36	250.76	2.42	-46.2	-64.8	3.8	7.44e-01	0	60	104	652214272	63	31538
2026-01-16 03:12:25.37	250.67	2.36	-46.2	-64.8	3.8	7.47e-01	0	60	104	652214272	63	31521
2026-01-16 03:12:26.38	250.59	2.30	-46.2	-64.8	3.8	7.45e-01	0	60	104	652214272	63	31451
2026-01-16 03:12:27.39	250.50	2.24	-46.2	-64.8	3.8	7.45e-01	0	60	104	652214272	63	31539
2026-01-16 03:12:28.40	250.42	2.19	-46.2	-64.8	3.8	7.43e-01	0	60	104	652214272	63	31529
2026-01-16 03:12:29.41	250.34	2.13	-46.2	-64.8	3.8	7.49e-01	0	60	104	652214272	63	31489
2026-01-16 03:12:30.42	250.25	2.07	-46.2	-64.8	3.8	7.49e-01	0	60	104	652214272	63	31518
2026-01-16 03:12:31.43	250.17	2.02	-46.2	-64.8	3.8	7.45e-01	0	60	104	652214272	63	31483

#Closed at: 2026-01-16 03:12:31
#Recorded file [652 MB]: D:/lorett/data/31039_260116_060144.dat