passes_logs/2026/01/16/R2.0S_Moscow/R2.0S_Moscow__20260116_105753_AQUA_rec.log

#Pass ID: 20260116_105753_AQUA
#Satellite: AQUA
#Configuration: AQUA
#almurnet v.1.7.20251203
#Start time: 2026-01-16 10:57:54

#Version: 2.2.20231116
#Station: R2.0S_Moscow
#Location: 37.707566 lon 55.798166 lat
#TLE: 1 27424U 02022A   26015.51279194  .00000651  00000+0  14022-3 0  9990
#TLE: 2 27424  98.4082 341.9487 0002034  77.6776  33.2672 14.61821775260965

#Time	Az	El	Level	Level2	SNR	BER	BlckErr	Temp	State	Recorded	gain1	gain2
2026-01-16 10:57:54.58	139.44	2.06	-31.6	-53.7	3.8	7.72e-01	0	52	0	0	37	39385
2026-01-16 10:57:55.58	139.40	2.13	-27.0	-46.8	3.6	7.46e-01	0	52	104	0	30	26557
2026-01-16 10:57:56.59	139.37	2.19	-30.8	-49.9	3.8	7.61e-01	0	52	104	0	31	36091
2026-01-16 10:57:57.60	139.33	2.26	-25.3	-45.3	3.5	7.70e-01	0	52	104	0	26	28069
2026-01-16 10:57:58.61	139.29	2.32	-28.2	-49.6	3.8	7.67e-01	0	52	104	0	31	34726
2026-01-16 10:57:59.62	139.26	2.39	-29.1	-45.4	3.6	7.53e-01	0	53	104	0	24	32004
2026-01-16 10:58:00.63	139.22	2.46	-27.4	-48.4	4.0	7.47e-01	0	52	104	0	28	36000
2026-01-16 10:58:01.64	139.18	2.52	-27.1	-46.7	3.5	7.44e-01	0	52	104	0	28	29635
2026-01-16 10:58:02.65	139.15	2.59	-33.6	-54.0	3.9	7.46e-01	0	53	104	0	40	34193
2026-01-16 10:58:03.66	139.11	2.66	-37.9	-55.0	3.8	7.45e-01	0	53	104	0	46	27142
2026-01-16 10:58:04.67	139.07	2.73	-38.7	-55.5	3.8	7.50e-01	0	53	104	0	42	36414
2026-01-16 10:58:05.68	139.03	2.79	-30.0	-52.7	4.0	7.61e-01	0	53	104	0	43	24914
2026-01-16 10:58:06.69	138.99	2.86	-38.4	-55.3	4.0	7.55e-01	0	53	104	0	44	31598
2026-01-16 10:58:07.70	138.96	2.93	-34.9	-53.3	4.2	7.51e-01	0	53	104	0	34	44472
2026-01-16 10:58:08.71	138.92	3.00	-24.0	-44.6	3.4	7.47e-01	0	53	104	0	22	32910
2026-01-16 10:58:09.72	138.88	3.06	-30.1	-51.5	4.0	7.46e-01	0	53	104	0	38	28699
2026-01-16 10:58:10.73	138.84	3.13	-32.9	-53.5	4.3	7.43e-01	0	53	104	0	41	30461
2026-01-16 10:58:11.74	138.80	3.20	-26.9	-46.6	3.4	7.67e-01	0	53	104	0	28	29127
2026-01-16 10:58:12.75	138.76	3.27	-28.6	-47.1	3.9	7.40e-01	0	53	104	0	28	30936
2026-01-16 10:58:13.76	138.72	3.34	-27.3	-47.0	3.8	7.62e-01	0	53	104	0	28	30721
2026-01-16 10:58:14.77	138.68	3.41	-29.8	-48.4	3.8	7.66e-01	0	53	104	0	30	31966
2026-01-16 10:58:15.78	138.64	3.48	-30.8	-47.0	3.6	7.71e-01	0	53	104	0	25	36221
2026-01-16 10:58:16.79	138.60	3.55	-34.7	-51.7	4.3	7.55e-01	0	54	104	0	44	20779
2026-01-16 10:58:17.80	138.56	3.62	-39.3	-57.8	4.0	7.58e-01	0	54	104	0	48	33615
2026-01-16 10:58:18.81	138.52	3.68	-32.1	-52.5	3.9	7.59e-01	0	54	104	0	42	25668
2026-01-16 10:58:19.82	138.48	3.75	-24.2	-50.4	4.0	7.46e-01	0	54	104	0	33	33931
2026-01-16 10:58:20.84	138.43	3.83	-39.4	-57.4	4.0	7.64e-01	0	54	104	0	47	33778
2026-01-16 10:58:21.84	138.39	3.90	-39.0	-57.5	3.7	7.53e-01	0	54	104	0	48	32506
2026-01-16 10:58:22.85	138.35	3.97	-37.0	-54.2	3.9	7.51e-01	0	54	104	0	36	44052
2026-01-16 10:58:23.86	138.31	4.04	-36.9	-55.7	3.9	7.67e-01	0	54	104	0	44	33085
2026-01-16 10:58:24.87	138.27	4.11	-35.1	-57.2	4.4	7.57e-01	0	54	104	0	43	41833
2026-01-16 10:58:25.88	138.23	4.18	-37.8	-54.2	3.6	7.72e-01	0	54	104	0	34	49713
2026-01-16 10:58:26.89	138.18	4.25	-33.8	-53.5	3.7	7.53e-01	0	54	104	0	41	30610
2026-01-16 10:58:27.90	138.14	4.32	-33.6	-47.4	3.5	7.52e-01	0	54	104	0	27	33757
2026-01-16 10:58:28.92	138.10	4.39	-39.7	-52.1	3.7	7.62e-01	0	54	104	0	39	29019
2026-01-16 10:58:29.93	138.05	4.46	-35.4	-50.1	4.5	7.41e-01	0	54	104	0	42	19422
2026-01-16 10:58:30.94	138.01	4.54	-28.6	-47.2	3.7	7.65e-01	0	54	104	0	26	35273
2026-01-16 10:58:31.95	137.96	4.61	-27.6	-46.0	3.4	7.57e-01	0	54	104	0	25	32427
2026-01-16 10:58:32.96	137.92	4.68	-33.6	-48.0	3.7	7.56e-01	0	54	104	0	29	32494
2026-01-16 10:58:33.97	137.88	4.75	-37.4	-51.9	3.5	7.65e-01	0	55	104	0	32	42652
2026-01-16 10:58:34.98	137.83	4.83	-26.8	-47.9	3.9	7.56e-01	0	55	104	0	33	25395
2026-01-16 10:58:35.99	137.79	4.90	-38.9	-56.5	4.5	7.61e-01	0	55	104	0	45	34242
2026-01-16 10:58:37.00	137.74	4.97	-25.7	-52.4	3.9	7.48e-01	0	55	104	0	40	28490
2026-01-16 10:58:38.01	137.70	5.05	-33.6	-56.7	3.9	7.58e-01	0	55	104	0	39	49666
2026-01-16 10:58:39.02	137.65	5.12	-27.0	-44.6	4.0	7.69e-01	0	55	104	0	30	20542
2026-01-16 10:58:40.03	137.60	5.19	-25.0	-45.1	3.7	7.69e-01	0	55	104	0	30	21975
2026-01-16 10:58:41.04	137.56	5.27	-35.8	-51.6	3.9	7.48e-01	0	55	104	0	40	26093
2026-01-16 10:58:42.05	137.51	5.34	-30.6	-50.9	3.7	7.62e-01	0	55	104	0	32	37857
2026-01-16 10:58:43.06	137.46	5.42	-32.6	-51.4	3.8	7.61e-01	0	55	104	0	32	40471
2026-01-16 10:58:44.07	137.42	5.49	-24.4	-41.3	4.0	7.51e-01	0	55	104	0	21	23646
2026-01-16 10:58:45.08	137.37	5.57	-27.8	-46.6	3.8	7.54e-01	0	55	104	0	26	32625
2026-01-16 10:58:46.10	137.32	5.64	-34.4	-54.9	4.1	7.70e-01	0	55	104	0	41	35957
2026-01-16 10:58:47.10	137.27	5.72	-33.7	-53.8	3.7	7.60e-01	0	55	104	0	35	44484
2026-01-16 10:58:48.12	137.23	5.79	-28.7	-47.2	3.8	7.66e-01	0	55	104	0	27	33048
2026-01-16 10:58:49.12	137.18	5.87	-32.4	-47.1	4.3	7.57e-01	0	55	104	0	33	23169
2026-01-16 10:58:50.14	137.13	5.95	-26.5	-46.5	3.8	7.56e-01	0	55	104	0	29	27357
2026-01-16 10:58:51.15	137.08	6.02	-23.0	-46.2	3.6	7.56e-01	0	55	104	0	24	35253
2026-01-16 10:58:52.16	137.03	6.10	-27.0	-45.3	4.0	7.61e-01	0	55	104	0	24	31678
2026-01-16 10:58:53.17	136.98	6.18	-30.6	-49.7	3.9	7.59e-01	0	55	104	0	32	33053
2026-01-16 10:58:54.18	136.93	6.25	-28.0	-44.6	3.6	7.58e-01	0	55	104	0	25	27492
2026-01-16 10:58:55.19	136.88	6.33	-25.1	-43.9	3.8	7.70e-01	0	55	104	0	23	28411
2026-01-16 10:58:56.20	136.83	6.41	-35.2	-51.4	3.8	7.44e-01	0	55	104	0	32	40224
2026-01-16 10:58:57.21	136.78	6.49	-35.2	-47.9	3.7	7.55e-01	0	56	104	0	30	30217
2026-01-16 10:58:58.22	136.73	6.56	-33.6	-48.4	3.8	7.52e-01	0	55	104	0	29	33921
2026-01-16 10:58:59.23	136.67	6.64	-28.4	-45.7	3.7	7.48e-01	0	56	104	0	27	27787
2026-01-16 10:59:00.23	136.62	6.72	-28.6	-47.5	3.6	7.51e-01	0	56	104	0	27	34100
2026-01-16 10:59:01.24	136.57	6.80	-38.5	-52.8	4.0	7.61e-01	0	56	104	0	40	29958
2026-01-16 10:59:02.25	136.52	6.88	-31.2	-49.6	3.6	7.53e-01	0	56	104	0	31	34706
2026-01-16 10:59:03.26	136.47	6.96	-40.7	-56.6	4.3	7.58e-01	0	56	104	0	45	34565
2026-01-16 10:59:04.27	136.41	7.04	-30.4	-52.5	4.2	7.59e-01	0	56	104	0	43	24353
2026-01-16 10:59:05.28	136.36	7.12	-36.5	-54.1	3.9	7.49e-01	0	56	104	0	42	30959
2026-01-16 10:59:06.29	136.31	7.20	-39.3	-57.8	3.9	7.52e-01	0	56	104	0	49	31491
2026-01-16 10:59:07.30	136.25	7.28	-23.1	-44.4	3.6	7.34e-01	0	56	104	0	21	33697
2026-01-16 10:59:08.31	136.20	7.36	-31.3	-49.6	4.5	7.30e-01	0	56	104	0	43	17347
2026-01-16 10:59:09.32	136.14	7.44	-32.8	-54.6	4.1	7.48e-01	0	56	104	0	43	30951
2026-01-16 10:59:10.33	136.09	7.52	-29.8	-49.7	3.9	7.46e-01	0	56	104	0	29	39252
2026-01-16 10:59:11.34	136.03	7.60	-32.2	-53.0	3.7	7.56e-01	0	56	104	0	35	40543
2026-01-16 10:59:12.35	135.97	7.68	-31.1	-49.5	4.3	7.37e-01	0	56	104	0	37	24389
2026-01-16 10:59:13.36	135.92	7.76	-36.9	-56.7	4.2	7.58e-01	0	56	104	0	39	49358
2026-01-16 10:59:14.37	135.86	7.84	-37.3	-54.5	4.1	7.59e-01	0	56	104	0	41	34253
2026-01-16 10:59:15.38	135.80	7.93	-33.3	-53.0	3.7	7.63e-01	0	56	104	0	38	34198
2026-01-16 10:59:16.39	135.75	8.01	-32.1	-55.2	3.9	7.47e-01	0	56	104	0	48	24814
2026-01-16 10:59:17.40	135.69	8.09	-38.6	-54.3	3.5	7.75e-01	0	56	104	0	36	44860
2026-01-16 10:59:18.41	135.63	8.18	-25.4	-45.2	3.5	7.47e-01	0	57	104	0	23	33090
2026-01-16 10:59:19.41	135.57	8.26	-20.7	-43.4	3.5	7.57e-01	0	56	104	0	12	50875
2026-01-16 10:59:20.42	135.51	8.34	-37.2	-55.0	3.9	7.52e-01	0	57	104	0	43	32294
2026-01-16 10:59:21.43	135.46	8.43	-22.1	-43.5	3.5	7.62e-01	0	56	104	0	16	40772
2026-01-16 10:59:22.44	135.40	8.51	-22.8	-40.0	3.5	7.56e-01	0	57	104	0	4	54283
2026-01-16 10:59:23.45	135.34	8.59	-30.4	-41.4	3.7	7.60e-01	0	57	104	0	9	48086
2026-01-16 10:59:24.46	135.28	8.68	-14.7	-34.5	3.9	7.48e-01	0	56	104	0	0	36466
2026-01-16 10:59:25.47	135.21	8.76	-16.5	-36.5	3.8	7.48e-01	0	57	104	0	6	32255
2026-01-16 10:59:26.48	135.15	8.85	-14.2	-34.9	4.0	7.50e-01	0	57	104	0	1	35978
2026-01-16 10:59:27.49	135.09	8.94	-23.2	-44.9	3.6	7.52e-01	0	57	104	0	16	48077
2026-01-16 10:59:28.50	135.03	9.02	-31.1	-45.5	3.4	7.62e-01	0	57	104	0	17	48409
2026-01-16 10:59:29.51	134.97	9.11	-21.8	-42.2	3.5	7.44e-01	0	57	104	0	13	41754
2026-01-16 10:59:30.52	134.90	9.20	-17.6	-34.2	3.7	7.61e-01	0	57	104	0	3	29548
2026-01-16 10:59:31.53	134.84	9.28	-13.5	-34.3	4.0	7.49e-01	0	57	104	0	0	35344
2026-01-16 10:59:32.54	134.78	9.37	-12.7	-33.5	3.8	7.54e-01	0	57	104	0	0	32507
2026-01-16 10:59:33.54	134.71	9.46	-11.9	-37.8	3.7	7.56e-01	0	57	104	0	4	42218
2026-01-16 10:59:34.55	134.65	9.54	-19.6	-42.0	3.5	7.60e-01	0	57	104	0	13	40974
2026-01-16 10:59:35.56	134.58	9.63	-23.6	-45.6	3.5	7.56e-01	0	57	104	0	20	41269
2026-01-16 10:59:36.57	134.52	9.72	-28.4	-46.3	3.5	7.48e-01	0	57	104	0	24	35332
2026-01-16 10:59:37.58	134.45	9.81	-12.9	-38.0	3.7	7.59e-01	0	57	104	0	1	51353
2026-01-16 10:59:38.59	134.39	9.90	-12.4	-32.7	3.8	7.56e-01	0	57	104	0	0	29617
2026-01-16 10:59:39.60	134.32	9.99	-16.5	-37.2	3.7	7.43e-01	0	57	104	0	5	36985
2026-01-16 10:59:40.61	134.25	10.08	-16.8	-35.4	3.8	7.54e-01	0	57	104	0	0	40391
2026-01-16 10:59:41.62	134.18	10.17	-15.5	-33.3	3.4	7.53e-01	0	57	104	0	0	31487
2026-01-16 10:59:42.63	134.12	10.26	-16.3	-35.8	3.7	7.67e-01	0	57	104	0	4	33420
2026-01-16 10:59:43.64	134.05	10.35	-15.0	-35.9	3.5	7.60e-01	0	58	104	0	3	36018
2026-01-16 10:59:44.65	133.98	10.44	-15.6	-41.4	4.5	7.35e-01	0	57	104	0	11	42505
2026-01-16 10:59:45.66	133.91	10.53	-12.6	-35.8	3.6	7.54e-01	0	57	104	0	0	42409
2026-01-16 10:59:46.67	133.84	10.62	-12.4	-36.3	3.5	7.60e-01	0	57	104	0	1	42137
2026-01-16 10:59:47.68	133.77	10.72	-20.1	-38.8	3.5	7.50e-01	0	57	104	0	2	53234
2026-01-16 10:59:48.69	133.70	10.81	-11.0	-33.8	3.7	7.56e-01	0	58	104	0	0	33530
2026-01-16 10:59:49.70	133.63	10.90	-19.0	-36.4	3.5	7.47e-01	0	57	104	0	3	38227
2026-01-16 10:59:50.71	133.55	10.99	-19.1	-36.1	3.6	7.45e-01	0	57	104	0	2	39124
2026-01-16 10:59:51.72	133.48	11.09	-21.1	-39.5	3.8	7.24e-01	0	57	104	0	14	28718
2026-01-16 10:59:52.73	133.41	11.18	-18.5	-39.0	3.7	7.39e-01	0	58	104	0	10	34297
2026-01-16 10:59:53.74	133.33	11.28	-15.2	-37.3	3.8	7.47e-01	0	58	104	0	4	39893
2026-01-16 10:59:54.75	133.26	11.37	-17.3	-35.6	3.7	7.65e-01	0	58	104	0	2	36822
2026-01-16 10:59:55.77	133.18	11.47	-16.4	-35.2	3.7	7.58e-01	0	58	104	0	1	37336
2026-01-16 10:59:56.77	133.11	11.56	-18.4	-36.5	3.6	7.62e-01	0	58	104	0	2	40517
2026-01-16 10:59:57.78	133.03	11.66	-16.2	-36.9	3.9	7.56e-01	0	58	104	0	5	35708
2026-01-16 10:59:58.79	132.96	11.75	-12.3	-34.9	3.8	7.55e-01	0	58	104	0	0	37856
2026-01-16 10:59:59.80	132.88	11.85	-21.5	-44.8	4.8	7.62e-01	0	58	104	0	11	63154
2026-01-16 11:00:00.81	132.80	11.95	-17.9	-37.8	3.8	7.54e-01	0	58	104	0	9	31765
2026-01-16 11:00:01.82	132.72	12.04	-17.0	-38.2	3.7	7.45e-01	0	58	104	0	3	46746
2026-01-16 11:00:02.83	132.65	12.14	-15.3	-34.0	3.7	7.47e-01	0	58	104	0	0	34335
2026-01-16 11:00:03.84	132.57	12.24	-11.8	-32.8	4.3	7.42e-01	0	58	104	0	5	22279
2026-01-16 11:00:04.85	132.49	12.34	-13.4	-36.9	4.1	7.43e-01	0	58	104	0	4	38029
2026-01-16 11:00:05.86	132.41	12.44	-20.5	-42.7	4.2	7.50e-01	0	58	104	0	19	31140
2026-01-16 11:00:06.87	132.32	12.54	-17.9	-40.6	3.5	7.54e-01	0	58	104	0	16	29171
2026-01-16 11:00:07.88	132.24	12.64	-16.6	-36.4	3.4	7.47e-01	0	58	104	0	3	38140
2026-01-16 11:00:08.89	132.16	12.74	-16.4	-39.1	3.3	7.47e-01	0	58	104	0	9	36844
2026-01-16 11:00:09.89	132.08	12.84	-14.2	-34.4	3.6	7.57e-01	0	58	104	0	0	35943
2026-01-16 11:00:10.90	132.00	12.94	-13.6	-34.1	3.9	7.59e-01	0	58	104	0	0	34820
2026-01-16 11:00:11.91	131.91	13.04	-12.3	-33.0	3.5	7.39e-01	0	58	104	0	0	30447
2026-01-16 11:00:12.92	131.83	13.14	-14.9	-33.7	3.2	7.50e-01	0	58	104	0	0	33117
2026-01-16 11:00:13.93	131.74	13.24	-20.1	-36.8	3.7	7.62e-01	0	58	104	0	5	35691
2026-01-16 11:00:14.95	131.65	13.34	-28.0	-43.4	3.9	7.52e-01	0	58	104	0	16	40423
2026-01-16 11:00:15.96	131.57	13.45	-27.4	-49.2	4.2	7.61e-01	0	58	104	0	28	39437
2026-01-16 11:00:16.96	131.48	13.55	-36.7	-52.6	4.0	7.39e-01	0	58	104	0	34	41056
2026-01-16 11:00:17.98	131.39	13.65	-23.8	-40.2	4.1	7.38e-01	0	58	104	0	13	32999
2026-01-16 11:00:18.98	131.30	13.76	-23.8	-40.4	4.5	7.52e-01	0	58	104	0	10	40148
2026-01-16 11:00:19.99	131.21	13.86	-20.5	-42.7	3.9	7.49e-01	0	58	104	0	13	44340
2026-01-16 11:00:21.00	131.12	13.97	-14.4	-39.1	4.0	7.44e-01	0	58	104	0	16	24548
2026-01-16 11:00:22.01	131.03	14.07	-19.9	-44.8	4.4	7.40e-01	0	58	104	0	21	35607
2026-01-16 11:00:23.02	130.94	14.18	-21.5	-41.5	4.0	7.60e-01	0	58	104	0	13	38635
2026-01-16 11:00:24.03	130.85	14.28	-25.3	-47.1	4.0	7.61e-01	0	58	104	0	26	34606
2026-01-16 11:00:25.04	130.76	14.39	-17.6	-40.9	3.6	7.47e-01	0	58	104	0	22	21344
2026-01-16 11:00:26.05	130.66	14.50	-24.4	-37.3	3.3	7.66e-01	0	59	104	0	1	47126
2026-01-16 11:00:27.06	130.57	14.61	-16.2	-36.4	3.3	7.63e-01	0	58	104	0	1	42619
2026-01-16 11:00:28.07	130.47	14.71	-24.7	-44.8	3.7	7.64e-01	0	58	104	0	16	47416
2026-01-16 11:00:29.07	130.38	14.82	-14.0	-34.8	3.2	7.44e-01	0	58	104	0	0	37385
2026-01-16 11:00:30.08	130.28	14.93	-22.3	-43.6	3.9	7.53e-01	0	59	104	0	19	34774
2026-01-16 11:00:31.09	130.18	15.04	-21.4	-41.9	3.7	7.62e-01	0	59	104	0	17	31964
2026-01-16 11:00:32.10	130.09	15.15	-34.5	-56.0	3.8	7.39e-01	0	59	104	0	51	22788
2026-01-16 11:00:33.11	129.99	15.26	-37.0	-54.5	4.3	7.55e-01	0	59	104	0	51	19355
2026-01-16 11:00:34.12	129.89	15.37	-36.0	-51.2	4.7	7.40e-01	0	59	104	0	43	20989
2026-01-16 11:00:35.13	129.79	15.48	-30.8	-45.6	6.3	6.72e-01	0	59	104	0	42	11562
2026-01-16 11:00:36.14	129.68	15.59	-39.9	-45.4	9.2	6.40e-01	74	59	0	1048576	47	8530
2026-01-16 11:00:37.15	129.58	15.71	-39.0	-45.8	10.3	6.34e-01	62	58	0	1572864	46	9457
2026-01-16 11:00:38.16	129.48	15.82	-37.7	-45.6	5.1	6.44e-01	13	58	104	2097152	36	16393
2026-01-16 11:00:39.17	129.37	15.93	-37.6	-45.6	10.5	6.25e-01	51	59	0	3670016	47	8698
2026-01-16 11:00:40.18	129.27	16.05	-37.9	-46.2	9.7	6.24e-01	38	59	0	4194304	50	7867
2026-01-16 11:00:41.19	129.16	16.16	-40.8	-46.6	14.5	6.09e-01	5	59	0	5767168	54	6505
2026-01-16 11:00:42.20	129.06	16.27	-41.4	-46.5	13.1	6.11e-01	12	59	0	7864320	50	8086
2026-01-16 11:00:43.20	128.95	16.39	-37.9	-45.5	14.3	6.17e-01	30	59	0	9961472	52	6478
2026-01-16 11:00:44.21	128.84	16.50	-42.1	-46.2	16.2	6.07e-01	0	59	0	11534336	55	5919
2026-01-16 11:00:45.22	128.73	16.62	-42.0	-45.9	16.7	6.06e-01	0	59	0	13631488	54	6018
2026-01-16 11:00:46.23	128.62	16.74	-42.1	-45.7	17.0	6.05e-01	0	59	0	15204352	54	5866
2026-01-16 11:00:47.24	128.51	16.86	-42.1	-45.6	17.1	6.06e-01	0	59	0	17301504	54	5823
2026-01-16 11:00:48.25	128.40	16.97	-42.0	-45.6	17.3	6.05e-01	0	59	0	19398656	54	5844
2026-01-16 11:00:49.26	128.29	17.09	-41.6	-45.3	17.2	6.06e-01	0	59	0	20971520	54	5595
2026-01-16 11:00:50.27	128.17	17.21	-41.7	-45.3	13.7	6.07e-01	0	59	0	23068672	54	5609
2026-01-16 11:00:51.28	128.06	17.33	-41.7	-45.3	17.1	6.08e-01	0	59	0	24641536	54	5608
2026-01-16 11:00:52.29	127.94	17.45	-41.9	-45.2	18.1	6.05e-01	0	59	0	26738688	54	5547
2026-01-16 11:00:53.30	127.82	17.57	-41.9	-45.3	17.6	6.08e-01	0	59	0	28835840	54	5617
2026-01-16 11:00:54.31	127.70	17.69	-41.6	-45.3	16.2	6.10e-01	2	59	0	30408704	54	5622
2026-01-16 11:00:55.31	127.59	17.81	-41.5	-45.2	16.9	6.07e-01	3	59	0	32505856	54	5585
2026-01-16 11:00:56.32	127.47	17.93	-41.8	-45.3	17.4	6.06e-01	0	59	0	34078720	54	5633
2026-01-16 11:00:57.33	127.35	18.06	-42.0	-45.4	17.2	6.07e-01	0	59	0	36175872	54	5703
2026-01-16 11:00:58.35	127.22	18.18	-41.7	-45.4	17.3	6.07e-01	0	59	0	38273024	54	5715
2026-01-16 11:00:59.35	127.10	18.30	-41.9	-45.5	17.2	6.07e-01	0	59	0	39845888	54	5742
2026-01-16 11:01:00.36	126.97	18.43	-42.0	-45.5	16.5	6.10e-01	1	59	0	41943040	54	5725
2026-01-16 11:01:01.37	126.85	18.55	-41.9	-45.4	15.3	6.11e-01	4	59	0	43515904	53	6007
2026-01-16 11:01:02.39	126.72	18.68	-41.0	-45.5	15.5	6.09e-01	4	59	0	45613056	54	5731
2026-01-16 11:01:03.40	126.59	18.80	-41.4	-45.4	16.9	6.08e-01	0	59	0	47710208	54	5657
2026-01-16 11:01:04.41	126.46	18.93	-41.9	-45.2	18.1	6.08e-01	0	59	0	49283072	54	5565
2026-01-16 11:01:05.42	126.33	19.06	-41.8	-45.3	17.7	6.05e-01	0	59	0	51380224	54	5632
2026-01-16 11:01:06.43	126.20	19.18	-42.0	-45.4	17.7	6.08e-01	0	59	0	53477376	54	5657
2026-01-16 11:01:07.44	126.07	19.31	-42.1	-45.3	17.5	6.08e-01	0	59	0	55050240	54	5655
2026-01-16 11:01:08.45	125.94	19.44	-41.7	-45.5	18.0	6.06e-01	0	59	0	57147392	54	5754
2026-01-16 11:01:09.46	125.80	19.57	-42.0	-45.3	17.6	6.06e-01	0	59	0	58720256	54	5630
2026-01-16 11:01:10.47	125.67	19.70	-42.0	-45.3	18.2	6.06e-01	0	59	0	60817408	54	5595
2026-01-16 11:01:11.48	125.53	19.83	-42.1	-45.4	18.1	6.07e-01	0	59	0	62914560	54	5695
2026-01-16 11:01:12.49	125.39	19.96	-42.1	-45.5	17.9	6.05e-01	0	59	0	64487424	54	5740
2026-01-16 11:01:13.50	125.25	20.09	-41.6	-45.5	16.6	6.07e-01	0	59	0	66584576	54	5775
2026-01-16 11:01:14.51	125.11	20.23	-42.2	-45.6	17.8	6.08e-01	0	59	0	68157440	55	5478
2026-01-16 11:01:15.52	124.97	20.36	-41.7	-45.6	16.0	6.06e-01	0	59	0	70254592	54	5806
2026-01-16 11:01:16.53	124.82	20.49	-41.7	-45.7	17.2	6.06e-01	0	59	0	72351744	54	5886
2026-01-16 11:01:17.54	124.68	20.63	-41.6	-45.4	16.7	6.07e-01	0	59	0	73924608	54	5673
2026-01-16 11:01:18.55	124.53	20.76	-42.0	-45.3	18.2	6.04e-01	0	59	0	76021760	54	5619
2026-01-16 11:01:19.56	124.38	20.90	-42.0	-45.2	17.6	6.06e-01	0	60	0	78118912	54	5564
2026-01-16 11:01:20.57	124.23	21.03	-41.9	-45.2	17.5	6.06e-01	0	59	0	79691776	54	5565
2026-01-16 11:01:21.58	124.08	21.17	-41.6	-45.3	17.9	6.08e-01	0	59	0	81788928	54	5623
2026-01-16 11:01:22.59	123.93	21.31	-42.0	-45.3	18.1	6.06e-01	0	60	0	83361792	54	5611
2026-01-16 11:01:23.60	123.78	21.44	-42.0	-45.3	18.4	6.06e-01	0	59	0	85458944	54	5603
2026-01-16 11:01:24.61	123.62	21.58	-42.1	-45.4	18.1	6.06e-01	0	59	0	87556096	54	5704
2026-01-16 11:01:25.62	123.47	21.72	-42.0	-45.5	17.5	6.06e-01	0	59	0	89128960	54	5753
2026-01-16 11:01:26.62	123.31	21.86	-42.2	-45.6	17.8	6.06e-01	0	59	0	91226112	55	5485
2026-01-16 11:01:27.63	123.15	22.00	-42.3	-45.7	18.0	6.08e-01	0	59	0	93323264	55	5573
2026-01-16 11:01:28.64	122.99	22.14	-42.4	-45.8	18.0	6.08e-01	0	59	0	94896128	55	5599
2026-01-16 11:01:29.65	122.83	22.28	-42.3	-45.7	18.0	6.08e-01	0	59	0	96993280	55	5568
2026-01-16 11:01:30.66	122.66	22.42	-42.4	-45.8	17.9	6.07e-01	0	59	0	98566144	55	5604
2026-01-16 11:01:31.67	122.50	22.56	-42.4	-45.9	17.9	6.08e-01	0	59	0	100663296	55	5679
2026-01-16 11:01:32.68	122.33	22.71	-42.2	-45.9	17.8	6.04e-01	0	59	0	102760448	55	5695
2026-01-16 11:01:33.69	122.16	22.85	-42.3	-45.7	18.0	6.06e-01	0	59	0	104333312	55	5569
2026-01-16 11:01:34.70	121.99	22.99	-42.4	-45.8	18.0	6.06e-01	0	59	0	106430464	55	5620
2026-01-16 11:01:35.71	121.82	23.14	-42.2	-45.6	18.2	6.07e-01	0	59	0	108003328	55	5471
2026-01-16 11:01:36.72	121.64	23.29	-42.2	-45.5	18.3	6.07e-01	0	59	0	110100480	55	5421
2026-01-16 11:01:37.73	121.47	23.43	-42.2	-45.5	18.2	6.08e-01	0	59	0	111673344	55	5417
2026-01-16 11:01:38.74	121.29	23.58	-42.2	-45.6	18.1	6.06e-01	0	60	0	113770496	55	5480
2026-01-16 11:01:39.75	121.11	23.73	-42.3	-45.6	18.2	6.08e-01	0	59	0	115867648	55	5477
2026-01-16 11:01:40.76	120.93	23.87	-42.2	-45.6	18.2	6.06e-01	0	60	0	117440512	55	5473
2026-01-16 11:01:41.77	120.74	24.02	-42.4	-45.7	18.1	6.07e-01	0	60	0	119537664	55	5569
2026-01-16 11:01:42.78	120.56	24.17	-42.4	-45.8	18.0	6.04e-01	0	59	0	121634816	55	5599
2026-01-16 11:01:43.79	120.37	24.32	-42.4	-45.8	18.0	6.07e-01	0	59	0	123207680	55	5641
2026-01-16 11:01:44.80	120.18	24.47	-42.3	-45.7	18.1	6.07e-01	0	60	0	125304832	55	5547
2026-01-16 11:01:45.81	119.99	24.62	-42.2	-45.5	18.3	6.07e-01	0	59	0	126877696	55	5434
2026-01-16 11:01:46.82	119.80	24.77	-42.3	-45.5	18.2	6.06e-01	0	59	0	128974848	55	5455
2026-01-16 11:01:47.83	119.61	24.93	-42.4	-45.7	18.1	6.05e-01	0	59	0	131072000	55	5578
2026-01-16 11:01:48.84	119.41	25.08	-42.4	-45.8	18.0	6.05e-01	0	59	0	132644864	55	5608
2026-01-16 11:01:49.85	119.21	25.23	-42.4	-45.9	17.9	6.06e-01	0	59	0	134742016	55	5657
2026-01-16 11:01:50.86	119.01	25.39	-42.3	-45.6	18.2	6.06e-01	0	60	0	136314880	55	5482
2026-01-16 11:01:51.86	118.81	25.54	-42.3	-45.6	18.2	6.07e-01	0	60	0	138412032	55	5472
2026-01-16 11:01:52.87	118.61	25.70	-42.3	-45.5	18.3	6.06e-01	0	59	0	140509184	55	5448
2026-01-16 11:01:53.88	118.40	25.85	-42.3	-45.6	18.3	6.06e-01	0	60	0	142082048	55	5468
2026-01-16 11:01:54.89	118.19	26.01	-42.1	-45.3	18.5	6.05e-01	0	59	0	144179200	55	5316
2026-01-16 11:01:55.90	117.98	26.16	-42.1	-45.3	18.6	6.06e-01	0	60	0	146276352	55	5280
2026-01-16 11:01:56.91	117.77	26.32	-42.1	-45.2	18.6	6.06e-01	0	60	0	147849216	55	5251
2026-01-16 11:01:57.92	117.55	26.48	-42.1	-45.3	18.5	6.08e-01	0	60	0	149946368	55	5319
2026-01-16 11:01:58.93	117.33	26.64	-42.2	-45.5	18.4	6.05e-01	0	59	0	151519232	55	5406
2026-01-16 11:01:59.94	117.11	26.80	-42.3	-45.5	18.3	6.07e-01	0	59	0	153616384	55	5448
2026-01-16 11:02:00.95	116.89	26.96	-42.2	-45.4	18.4	6.07e-01	0	60	0	155713536	55	5352
2026-01-16 11:02:01.96	116.67	27.12	-42.2	-45.4	18.4	6.08e-01	0	60	0	157286400	55	5400
2026-01-16 11:02:02.96	116.44	27.28	-42.2	-45.4	18.4	6.07e-01	0	59	0	159383552	55	5379
2026-01-16 11:02:03.97	116.21	27.44	-42.1	-45.3	18.6	6.07e-01	0	60	0	160956416	55	5305
2026-01-16 11:02:04.98	115.98	27.60	-42.2	-45.4	18.5	6.05e-01	0	60	0	163053568	55	5370
2026-01-16 11:02:05.99	115.75	27.76	-42.3	-45.5	18.3	6.06e-01	0	59	0	165150720	55	5449
2026-01-16 11:02:07.00	115.51	27.93	-42.0	-45.1	18.7	6.06e-01	0	60	0	166723584	55	5213
2026-01-16 11:02:08.01	115.27	28.09	-41.9	-44.9	19.0	6.06e-01	0	60	0	168820736	55	5042
2026-01-16 11:02:09.02	115.03	28.25	-41.8	-44.8	19.1	6.07e-01	0	60	0	170393600	55	5012
2026-01-16 11:02:10.03	114.78	28.42	-41.9	-44.9	19.0	6.07e-01	0	60	0	172490752	55	5067
2026-01-16 11:02:11.04	114.54	28.58	-41.9	-44.9	18.9	6.08e-01	0	60	0	174587904	55	5097
2026-01-16 11:02:12.05	114.29	28.75	-41.9	-44.9	19.0	6.06e-01	0	60	0	176160768	55	5063
2026-01-16 11:02:13.06	114.03	28.91	-41.9	-44.8	19.0	6.07e-01	0	60	0	178257920	55	5039
2026-01-16 11:02:14.07	113.78	29.08	-41.8	-44.8	19.1	6.05e-01	0	59	0	179830784	55	5017
2026-01-16 11:02:15.08	113.52	29.25	-41.9	-44.9	19.1	6.06e-01	0	60	0	181927936	55	5049
2026-01-16 11:02:16.09	113.26	29.41	-41.8	-44.7	19.2	6.07e-01	0	60	0	184025088	55	4962
2026-01-16 11:02:17.10	113.00	29.58	-41.8	-44.7	19.2	6.07e-01	0	60	0	185597952	55	4958
2026-01-16 11:02:18.11	112.73	29.75	-41.8	-44.7	19.2	6.05e-01	0	60	0	187695104	55	4945
2026-01-16 11:02:19.12	112.46	29.92	-41.8	-44.7	19.2	6.08e-01	0	60	0	189792256	55	4955
2026-01-16 11:02:20.13	112.19	30.09	-41.8	-44.8	19.2	6.04e-01	0	60	0	191365120	55	4993
2026-01-16 11:02:21.14	111.91	30.25	-41.8	-44.7	19.2	6.06e-01	0	60	0	193462272	55	4965
2026-01-16 11:02:22.15	111.63	30.42	-41.7	-44.5	19.3	6.04e-01	0	60	0	195035136	55	4862
2026-01-16 11:02:23.16	111.35	30.59	-41.7	-44.5	19.4	6.07e-01	0	60	0	197132288	55	4866
2026-01-16 11:02:24.17	111.07	30.76	-41.7	-44.6	19.3	6.06e-01	0	60	0	199229440	55	4915
2026-01-16 11:02:25.18	110.78	30.93	-41.8	-44.7	19.2	6.08e-01	0	60	0	200802304	55	4973
2026-01-16 11:02:26.19	110.49	31.10	-41.7	-44.5	19.4	6.07e-01	0	60	0	202899456	55	4832
2026-01-16 11:02:27.20	110.19	31.27	-41.7	-44.5	19.4	6.05e-01	0	60	0	204472320	55	4840
2026-01-16 11:02:28.21	109.90	31.45	-41.8	-44.7	19.3	6.05e-01	0	60	0	206569472	55	4957
2026-01-16 11:02:29.22	109.60	31.62	-41.8	-44.7	19.2	6.06e-01	0	60	0	208666624	55	4982
2026-01-16 11:02:30.23	109.29	31.79	-41.9	-44.8	19.1	6.07e-01	0	60	0	210239488	55	5010
2026-01-16 11:02:31.24	108.99	31.96	-41.8	-44.8	19.2	6.08e-01	0	60	0	212336640	55	4992
2026-01-16 11:02:32.25	108.68	32.13	-41.7	-44.6	19.3	6.08e-01	0	60	0	214433792	55	4889
2026-01-16 11:02:33.26	108.36	32.30	-41.8	-44.7	19.1	6.04e-01	0	60	0	216006656	55	4969
2026-01-16 11:02:34.27	108.04	32.47	-41.8	-44.8	19.0	6.06e-01	0	60	0	218103808	55	4996
2026-01-16 11:02:35.28	107.72	32.65	-41.9	-44.8	19.1	6.06e-01	0	60	0	219676672	55	5013
2026-01-16 11:02:36.28	107.40	32.82	-41.9	-44.9	19.1	6.05e-01	0	60	0	221773824	55	5044
2026-01-16 11:02:37.30	107.07	32.99	-41.8	-44.7	19.2	6.09e-01	0	60	0	223870976	55	4965
2026-01-16 11:02:38.30	106.74	33.16	-41.9	-44.8	19.1	6.06e-01	0	60	0	225443840	55	5038
2026-01-16 11:02:39.31	106.41	33.33	-42.1	-45.1	18.8	6.06e-01	0	60	0	227540992	55	5197
2026-01-16 11:02:40.32	106.07	33.50	-42.1	-45.2	18.8	6.07e-01	0	60	0	229113856	55	5219
2026-01-16 11:02:41.33	105.73	33.68	-42.0	-44.9	19.0	6.06e-01	0	60	0	231211008	55	5087
2026-01-16 11:02:42.34	105.38	33.85	-42.0	-44.9	19.0	6.06e-01	0	60	0	233308160	55	5098
2026-01-16 11:02:43.35	105.03	34.02	-41.9	-44.9	19.1	6.07e-01	0	60	0	234881024	55	5043
2026-01-16 11:02:44.36	104.68	34.19	-42.0	-45.0	18.9	6.06e-01	0	60	0	236978176	55	5143
2026-01-16 11:02:45.37	104.32	34.36	-42.2	-45.4	18.5	6.05e-01	0	60	0	238551040	55	5357
2026-01-16 11:02:46.38	103.96	34.53	-42.4	-45.7	18.3	6.06e-01	0	60	0	240648192	55	5529
2026-01-16 11:02:47.39	103.59	34.70	-42.3	-45.5	18.4	6.08e-01	0	60	0	242745344	55	5453
2026-01-16 11:02:48.39	103.23	34.87	-42.2	-45.3	18.6	6.07e-01	0	60	0	244318208	55	5320
2026-01-16 11:02:49.40	102.85	35.04	-42.3	-45.5	18.5	6.03e-01	0	60	0	246415360	55	5403
2026-01-16 11:02:50.41	102.47	35.21	-42.4	-45.6	18.3	6.09e-01	0	60	0	247988224	55	5490
2026-01-16 11:02:51.42	102.09	35.38	-42.5	-45.7	18.3	6.07e-01	0	60	0	250085376	55	5566
2026-01-16 11:02:52.44	101.70	35.55	-42.6	-45.9	18.0	6.06e-01	0	60	0	252182528	55	5709
2026-01-16 11:02:53.44	101.32	35.71	-42.6	-46.0	17.9	6.06e-01	0	60	0	253755392	55	5764
2026-01-16 11:02:54.45	100.92	35.88	-42.7	-46.1	17.9	6.06e-01	0	60	0	255852544	55	5826
2026-01-16 11:02:55.46	100.53	36.05	-42.6	-46.0	18.0	6.06e-01	0	60	0	257949696	55	5730
2026-01-16 11:02:56.47	100.12	36.21	-42.9	-46.3	17.7	6.06e-01	0	60	0	259522560	56	5640
2026-01-16 11:02:57.48	99.72	36.38	-42.7	-46.1	17.9	6.03e-01	0	60	0	261619712	56	5477
2026-01-16 11:02:58.49	99.31	36.54	-42.8	-46.2	17.9	6.06e-01	0	60	0	263192576	56	5561
2026-01-16 11:02:59.50	98.89	36.71	-42.9	-46.5	17.6	6.08e-01	0	60	0	265289728	56	5741
2026-01-16 11:03:00.51	98.47	36.87	-42.9	-46.5	17.6	6.04e-01	0	60	0	267386880	56	5730
2026-01-16 11:03:01.52	98.05	37.03	-43.1	-46.7	17.4	6.08e-01	0	60	0	268959744	56	5903
2026-01-16 11:03:02.53	97.62	37.19	-43.1	-46.7	17.4	6.07e-01	0	60	0	271056896	56	5921
2026-01-16 11:03:03.54	97.19	37.35	-43.1	-46.8	17.4	6.07e-01	0	60	0	272629760	56	5933
2026-01-16 11:03:04.55	96.75	37.51	-43.4	-47.3	16.9	6.06e-01	0	60	0	274726912	57	5928
2026-01-16 11:03:05.56	96.31	37.67	-43.5	-47.4	16.7	6.07e-01	0	60	0	276824064	57	6044
2026-01-16 11:03:06.57	95.87	37.83	-43.3	-47.2	16.9	6.04e-01	0	60	0	278396928	57	5881
2026-01-16 11:03:07.58	95.42	37.98	-43.1	-46.8	17.3	6.07e-01	0	60	0	280494080	57	5634
2026-01-16 11:03:08.59	94.96	38.14	-43.0	-46.5	17.5	6.06e-01	0	60	0	282591232	57	5451
2026-01-16 11:03:09.60	94.51	38.29	-42.9	-46.4	17.7	6.07e-01	0	60	0	284164096	57	5395
2026-01-16 11:03:10.61	94.04	38.44	-43.1	-46.7	17.4	6.05e-01	0	60	0	286261248	57	5583
2026-01-16 11:03:11.62	93.58	38.59	-43.1	-46.7	17.4	6.06e-01	0	60	0	287834112	57	5571
2026-01-16 11:03:12.63	93.10	38.74	-43.1	-46.7	17.3	6.07e-01	0	60	0	289931264	57	5561
2026-01-16 11:03:13.64	92.63	38.89	-43.0	-46.6	17.5	6.08e-01	0	60	0	292028416	57	5475
2026-01-16 11:03:14.65	92.15	39.04	-43.0	-46.5	17.6	6.08e-01	0	60	0	293601280	57	5441
2026-01-16 11:03:15.66	91.66	39.18	-43.1	-46.7	17.4	6.10e-01	0	60	0	295698432	57	5535
2026-01-16 11:03:16.67	91.17	39.32	-43.2	-46.9	17.2	6.06e-01	0	60	0	297271296	57	5683
2026-01-16 11:03:17.68	90.68	39.46	-43.2	-47.0	17.2	6.06e-01	0	60	0	299368448	57	5755
2026-01-16 11:03:18.68	90.19	39.60	-43.1	-46.6	17.5	6.06e-01	0	60	0	301465600	57	5517
2026-01-16 11:03:19.69	89.69	39.74	-42.9	-46.4	17.7	6.09e-01	0	60	0	303038464	57	5395
2026-01-16 11:03:20.70	89.18	39.87	-42.9	-46.4	17.7	6.07e-01	0	60	0	305135616	57	5381
2026-01-16 11:03:21.71	88.67	40.01	-43.1	-46.8	17.4	6.05e-01	0	60	0	306708480	57	5602
2026-01-16 11:03:22.72	88.15	40.14	-43.0	-46.5	17.5	6.08e-01	0	60	0	308805632	57	5446
2026-01-16 11:03:23.73	87.63	40.27	-43.1	-46.7	17.5	6.05e-01	0	60	0	310902784	57	5542
2026-01-16 11:03:24.74	87.11	40.39	-43.1	-46.8	17.4	6.08e-01	0	60	0	312475648	57	5596
2026-01-16 11:03:25.75	86.58	40.52	-43.2	-46.9	17.2	6.06e-01	0	60	0	314572800	57	5706
2026-01-16 11:03:26.77	86.05	40.64	-43.1	-46.6	17.5	6.05e-01	0	60	0	316145664	57	5517
2026-01-16 11:03:27.77	85.51	40.76	-43.1	-46.7	17.4	6.07e-01	0	60	0	318242816	57	5554
2026-01-16 11:03:28.78	84.97	40.88	-43.1	-46.7	17.4	6.05e-01	0	60	0	320339968	57	5544
2026-01-16 11:03:29.79	84.43	40.99	-43.0	-46.6	17.4	6.06e-01	0	60	0	321912832	57	5509
2026-01-16 11:03:30.80	83.88	41.11	-42.8	-46.1	18.0	6.08e-01	0	60	0	324009984	57	5197
2026-01-16 11:03:31.81	83.33	41.22	-42.8	-46.1	18.0	6.05e-01	0	60	0	326107136	57	5217
2026-01-16 11:03:32.82	82.78	41.33	-43.0	-46.6	17.5	6.07e-01	0	60	0	327680000	57	5506
2026-01-16 11:03:33.83	82.22	41.43	-42.9	-46.4	17.7	6.06e-01	0	60	0	329777152	57	5373
2026-01-16 11:03:34.84	81.65	41.53	-42.9	-46.2	17.8	6.06e-01	0	60	0	331350016	57	5272
2026-01-16 11:03:35.85	81.09	41.63	-42.7	-46.1	18.1	6.06e-01	0	60	0	333447168	57	5166
2026-01-16 11:03:36.86	80.52	41.73	-43.0	-46.5	17.6	6.05e-01	0	60	0	335544320	57	5444
2026-01-16 11:03:37.87	79.94	41.82	-43.0	-46.4	17.7	6.08e-01	0	60	0	337117184	57	5390
2026-01-16 11:03:38.88	79.37	41.91	-42.9	-46.4	17.8	6.05e-01	0	60	0	339214336	57	5351
2026-01-16 11:03:39.89	78.79	42.00	-42.8	-46.2	18.0	6.06e-01	0	60	0	340787200	57	5223
2026-01-16 11:03:40.90	78.21	42.08	-42.8	-46.2	18.0	6.05e-01	0	60	0	342884352	57	5256
2026-01-16 11:03:41.91	77.62	42.17	-43.2	-46.8	17.4	6.07e-01	0	60	0	344981504	57	5629
2026-01-16 11:03:42.92	77.03	42.24	-43.0	-46.5	17.7	6.07e-01	0	60	0	346554368	57	5427
2026-01-16 11:03:43.93	76.44	42.32	-42.8	-46.1	18.0	6.06e-01	0	60	0	348651520	57	5199
2026-01-16 11:03:44.94	75.84	42.39	-42.9	-46.3	17.9	6.05e-01	0	60	0	350748672	57	5281
2026-01-16 11:03:45.95	75.25	42.46	-42.9	-46.3	17.8	6.07e-01	0	60	0	352321536	57	5338
2026-01-16 11:03:46.96	74.65	42.52	-42.9	-46.4	17.8	6.06e-01	0	60	0	354418688	57	5363
2026-01-16 11:03:47.97	74.05	42.59	-42.9	-46.3	17.9	6.06e-01	0	60	0	355991552	57	5302
2026-01-16 11:03:48.98	73.44	42.64	-42.7	-46.0	18.2	6.07e-01	0	60	0	358088704	57	5118
2026-01-16 11:03:49.99	72.83	42.70	-42.8	-46.2	18.0	6.05e-01	0	60	0	360185856	57	5255
2026-01-16 11:03:51.00	72.23	42.75	-43.0	-46.5	17.8	6.05e-01	0	60	0	361758720	57	5403
2026-01-16 11:03:52.00	71.62	42.80	-42.7	-45.9	18.3	6.08e-01	0	60	0	363855872	57	5094
2026-01-16 11:03:53.01	71.01	42.84	-42.7	-46.0	18.3	6.06e-01	0	60	0	365428736	57	5113
2026-01-16 11:03:54.02	70.40	42.88	-42.9	-46.2	18.0	6.09e-01	0	60	0	367525888	57	5261
2026-01-16 11:03:55.03	69.78	42.92	-43.0	-46.4	17.9	6.06e-01	0	60	0	369098752	57	5392
2026-01-16 11:03:56.04	69.16	42.95	-42.9	-46.4	17.9	6.06e-01	0	60	0	371195904	57	5352
2026-01-16 11:03:57.05	68.55	42.98	-42.9	-46.3	17.9	6.06e-01	0	60	0	373293056	57	5339
2026-01-16 11:03:58.06	67.93	43.01	-43.0	-46.5	17.8	6.06e-01	0	60	0	374865920	57	5404
2026-01-16 11:03:59.07	67.31	43.03	-43.0	-46.5	17.7	6.09e-01	0	60	0	376963072	57	5434
2026-01-16 11:04:00.08	66.69	43.05	-42.8	-46.0	18.2	6.04e-01	0	60	0	379060224	57	5151
2026-01-16 11:04:01.09	66.06	43.07	-42.8	-46.0	18.2	6.06e-01	0	61	0	380633088	57	5145
2026-01-16 11:04:02.10	65.44	43.08	-42.7	-46.0	18.3	6.06e-01	0	61	0	382730240	57	5149
2026-01-16 11:04:03.11	64.82	43.09	-42.8	-46.1	18.2	6.08e-01	0	60	0	384303104	57	5169
2026-01-16 11:04:04.12	64.20	43.09	-42.9	-46.3	18.0	6.08e-01	0	60	0	386400256	57	5317
2026-01-16 11:04:05.13	63.57	43.09	-42.5	-45.6	18.7	6.06e-01	0	60	0	388497408	57	4903
2026-01-16 11:04:06.14	62.95	43.09	-42.8	-46.0	18.3	6.07e-01	0	60	0	390070272	57	5139
2026-01-16 11:04:07.15	62.33	43.08	-42.9	-46.3	18.0	6.06e-01	0	60	0	392167424	57	5313
2026-01-16 11:04:08.16	61.71	43.07	-42.6	-45.8	18.4	6.06e-01	0	60	0	394264576	57	5037
2026-01-16 11:04:09.16	61.09	43.05	-42.6	-45.8	18.5	6.08e-01	0	60	0	395837440	57	4997
2026-01-16 11:04:10.17	60.47	43.03	-42.6	-45.8	18.4	6.07e-01	0	60	0	397934592	57	5032
2026-01-16 11:04:11.18	59.85	43.01	-42.9	-46.3	18.0	6.05e-01	0	60	0	399507456	57	5322
2026-01-16 11:04:12.19	59.23	42.99	-42.8	-46.1	18.1	6.07e-01	0	60	0	401604608	57	5208
2026-01-16 11:04:13.20	58.62	42.96	-42.7	-45.9	18.4	6.07e-01	0	61	0	403701760	57	5066
2026-01-16 11:04:14.21	58.00	42.92	-42.7	-45.9	18.4	6.08e-01	0	60	0	405274624	57	5083
2026-01-16 11:04:15.22	57.39	42.89	-42.9	-46.2	18.1	6.06e-01	0	61	0	407371776	57	5263
2026-01-16 11:04:16.23	56.77	42.85	-42.8	-46.1	18.2	6.07e-01	0	60	0	408944640	57	5175
2026-01-16 11:04:17.24	56.16	42.80	-42.7	-45.9	18.4	6.04e-01	0	60	0	411041792	57	5079
2026-01-16 11:04:18.25	55.55	42.75	-42.9	-46.2	18.0	6.07e-01	0	60	0	413138944	57	5268
2026-01-16 11:04:19.26	54.94	42.70	-42.8	-46.2	18.1	6.04e-01	0	60	0	414711808	57	5222
2026-01-16 11:04:20.26	54.34	42.65	-42.7	-45.9	18.4	6.06e-01	0	60	0	416808960	57	5073
2026-01-16 11:04:21.27	53.74	42.59	-42.8	-46.0	18.3	6.06e-01	0	60	0	418381824	57	5150
2026-01-16 11:04:22.28	53.14	42.53	-42.9	-46.3	17.9	6.05e-01	0	61	0	420478976	57	5323
2026-01-16 11:04:23.29	52.54	42.46	-42.8	-46.1	18.2	6.08e-01	0	61	0	422576128	57	5162
2026-01-16 11:04:24.30	51.94	42.40	-42.7	-46.0	18.2	6.06e-01	0	61	0	424148992	57	5142
2026-01-16 11:04:25.31	51.35	42.33	-42.7	-45.9	18.4	6.06e-01	0	61	0	426246144	57	5068
2026-01-16 11:04:26.32	50.76	42.25	-42.9	-46.4	17.9	6.08e-01	0	61	0	427819008	57	5357
2026-01-16 11:04:27.33	50.17	42.17	-42.8	-46.1	18.2	6.06e-01	0	61	0	429916160	57	5213
2026-01-16 11:04:28.34	49.58	42.09	-42.5	-45.5	18.7	6.06e-01	0	61	0	432013312	57	4870
2026-01-16 11:04:29.35	49.00	42.01	-42.7	-46.0	18.3	6.06e-01	0	61	0	433586176	57	5116
2026-01-16 11:04:30.36	48.42	41.92	-42.8	-46.2	18.1	6.06e-01	0	60	0	435683328	57	5228
2026-01-16 11:04:31.36	47.85	41.83	-42.8	-46.1	18.2	6.05e-01	0	60	0	437256192	57	5161
2026-01-16 11:04:32.37	47.28	41.74	-42.8	-46.2	18.1	6.06e-01	0	61	0	439353344	57	5222
2026-01-16 11:04:33.39	46.70	41.64	-42.8	-46.1	18.2	6.04e-01	0	61	0	441450496	57	5173
2026-01-16 11:04:34.39	46.14	41.54	-43.1	-46.6	17.6	6.06e-01	0	61	0	443023360	57	5516
2026-01-16 11:04:35.40	45.58	41.44	-42.8	-46.2	18.0	6.04e-01	0	61	0	445120512	57	5245
2026-01-16 11:04:36.41	45.02	41.34	-42.8	-46.1	18.1	6.08e-01	0	61	0	447217664	57	5218
2026-01-16 11:04:37.42	44.47	41.23	-43.0	-46.5	17.8	6.07e-01	0	61	0	448790528	57	5442
2026-01-16 11:04:38.43	43.92	41.12	-42.9	-46.4	17.9	6.08e-01	0	61	0	450887680	57	5349
2026-01-16 11:04:39.44	43.37	41.01	-42.8	-46.2	18.1	6.07e-01	0	61	0	452460544	57	5234
2026-01-16 11:04:40.45	42.83	40.89	-42.8	-46.1	18.1	6.07e-01	0	61	0	454557696	57	5208
2026-01-16 11:04:41.46	42.29	40.78	-42.9	-46.3	18.0	6.05e-01	0	60	0	456654848	57	5282
2026-01-16 11:04:42.47	41.75	40.66	-43.1	-46.7	17.6	6.07e-01	0	60	0	458227712	57	5577
2026-01-16 11:04:43.48	41.22	40.53	-43.1	-46.6	17.6	6.07e-01	0	60	0	460324864	57	5487
2026-01-16 11:04:44.49	40.70	40.41	-42.9	-46.3	18.0	6.08e-01	0	61	0	462422016	57	5299
2026-01-16 11:04:45.50	40.17	40.28	-43.1	-46.7	17.5	6.07e-01	0	61	0	463994880	57	5576
2026-01-16 11:04:46.51	39.65	40.16	-43.3	-47.0	17.3	6.07e-01	0	60	0	466092032	57	5781
2026-01-16 11:04:47.51	39.15	40.03	-43.5	-56.8	3.8	7.45e-01	0	60	104	467140608	57	17881
2026-01-16 11:04:48.52	38.64	39.89	-43.4	-56.3	3.8	7.41e-01	0	61	104	467140608	57	16799
2026-01-16 11:04:49.53	38.13	39.76	-43.3	-56.2	3.8	7.42e-01	0	61	104	467140608	57	16564
2026-01-16 11:04:50.54	37.63	39.62	-43.4	-56.6	3.8	7.44e-01	0	61	104	467140608	57	17288
2026-01-16 11:04:51.55	37.13	39.48	-44.7	-59.3	3.7	7.46e-01	0	61	104	467140608	60	19893
2026-01-16 11:04:52.56	36.64	39.34	-43.4	-56.3	3.8	7.43e-01	0	61	104	467140608	58	15821
2026-01-16 11:04:53.57	36.15	39.20	-45.1	-60.5	3.8	7.47e-01	0	61	104	467140608	61	21547
2026-01-16 11:04:54.58	35.67	39.06	-43.4	-56.4	3.8	7.45e-01	0	61	104	467140608	58	15970
2026-01-16 11:04:55.58	35.19	38.91	-44.8	-59.6	3.8	7.46e-01	0	61	104	467140608	61	19537
2026-01-16 11:04:56.59	34.72	38.77	-43.7	-57.0	3.8	7.43e-01	0	61	104	467140608	59	16294
2026-01-16 11:04:57.60	34.25	38.62	-43.8	-57.1	3.8	7.41e-01	0	61	104	467140608	59	16469
2026-01-16 11:04:58.61	33.78	38.47	-43.9	-57.3	3.9	7.40e-01	0	61	104	467140608	59	16801
2026-01-16 11:04:59.62	33.32	38.32	-43.9	-57.4	3.8	7.45e-01	0	61	104	467140608	59	17078
2026-01-16 11:05:00.63	32.86	38.17	-43.5	-56.7	3.8	7.46e-01	0	61	104	467140608	59	15582
2026-01-16 11:05:01.63	32.41	38.01	-44.7	-59.1	3.7	7.42e-01	0	61	104	467140608	60	19511
2026-01-16 11:05:02.65	31.96	37.86	-44.3	-58.1	3.8	7.43e-01	0	61	104	467140608	59	18430
2026-01-16 11:05:03.66	31.51	37.70	-45.1	-60.1	3.8	7.45e-01	0	61	104	467140608	61	20739
2026-01-16 11:05:04.67	31.07	37.54	-44.7	-58.9	4.0	7.42e-01	0	61	104	467140608	59	20184
2026-01-16 11:05:05.67	30.64	37.39	-44.1	-57.8	3.8	7.47e-01	0	61	104	467140608	59	17863
2026-01-16 11:05:06.68	30.21	37.23	-43.7	-56.9	3.8	7.42e-01	0	61	104	467140608	58	16986
2026-01-16 11:05:07.69	29.79	37.07	-43.7	-57.2	3.7	7.47e-01	0	61	104	467140608	58	17608
2026-01-16 11:05:08.70	29.36	36.91	-45.1	-60.6	3.8	7.44e-01	0	61	104	467140608	60	23275
2026-01-16 11:05:09.71	28.95	36.74	-44.0	-57.3	3.8	7.43e-01	0	61	104	467140608	58	17798
2026-01-16 11:05:10.72	28.53	36.58	-44.7	-59.2	3.8	7.42e-01	0	61	104	467140608	60	19763
2026-01-16 11:05:11.73	28.12	36.42	-45.1	-60.4	3.8	7.43e-01	0	61	104	467140608	61	21381
2026-01-16 11:05:12.74	27.72	36.25	-44.3	-58.4	3.8	7.46e-01	0	61	104	467140608	59	19027
2026-01-16 11:05:13.75	27.31	36.09	-44.4	-58.7	3.9	7.45e-01	0	61	104	467140608	60	18643
2026-01-16 11:05:14.76	26.92	35.92	-43.5	-56.9	3.8	7.47e-01	0	61	104	467140608	59	16062
2026-01-16 11:05:15.77	26.52	35.75	-43.3	-56.3	3.8	7.46e-01	0	61	104	467140608	58	15941
2026-01-16 11:05:16.77	26.14	35.59	-44.0	-57.6	3.8	7.44e-01	0	61	104	467140608	58	18501
2026-01-16 11:05:17.78	25.76	35.42	-44.8	-59.4	3.8	7.43e-01	0	61	104	467140608	60	20277
2026-01-16 11:05:18.79	25.37	35.25	-44.8	-59.9	3.8	7.42e-01	0	61	104	467140608	60	21273
2026-01-16 11:05:19.80	25.00	35.08	-45.2	-60.8	3.8	7.46e-01	0	61	104	467140608	61	22468
2026-01-16 11:05:20.81	24.63	34.92	-45.4	-61.3	3.7	7.46e-01	0	61	104	467140608	61	23769
2026-01-16 11:05:21.82	24.26	34.75	-43.3	-56.5	3.9	7.44e-01	0	61	104	467140608	58	16164
2026-01-16 11:05:22.83	23.89	34.58	-43.4	-56.8	3.8	7.47e-01	0	61	104	467140608	58	16838
2026-01-16 11:05:23.84	23.53	34.41	-43.3	-56.6	3.8	7.44e-01	0	61	104	467140608	58	16373
2026-01-16 11:05:24.85	23.17	34.24	-44.6	-59.5	3.8	7.41e-01	0	61	104	467140608	60	20307
2026-01-16 11:05:25.85	22.83	34.07	-45.3	-61.1	3.8	7.45e-01	0	61	104	467140608	61	23233
2026-01-16 11:05:26.86	22.48	33.90	-44.7	-59.0	3.8	7.48e-01	0	61	104	467140608	60	19385
2026-01-16 11:05:27.88	22.13	33.73	-44.5	-59.0	3.8	7.42e-01	0	61	104	467140608	60	19184
2026-01-16 11:05:28.89	21.79	33.55	-45.8	-63.2	3.7	7.47e-01	0	61	104	467140608	62	27887
2026-01-16 11:05:29.89	21.45	33.39	-44.1	-57.8	3.8	7.47e-01	0	61	104	467140608	59	17701
2026-01-16 11:05:30.90	21.12	33.21	-43.1	-56.0	3.8	7.49e-01	0	61	104	467140608	58	15331
2026-01-16 11:05:31.91	20.79	33.04	-43.0	-56.0	3.8	7.43e-01	0	61	104	467140608	57	16245
2026-01-16 11:05:32.92	20.46	32.87	-44.1	-58.0	3.8	7.46e-01	0	61	104	467140608	58	19251
2026-01-16 11:05:33.93	20.14	32.70	-45.1	-60.4	3.8	7.49e-01	0	61	104	467140608	60	22743
2026-01-16 11:05:34.94	19.82	32.53	-45.0	-60.4	3.8	7.46e-01	0	61	104	467140608	60	22574
2026-01-16 11:05:35.95	19.50	32.36	-45.1	-60.7	3.8	7.44e-01	0	61	104	467140608	60	23433
2026-01-16 11:05:36.96	19.19	32.19	-45.5	-62.1	3.8	7.46e-01	0	61	104	467140608	61	25975
2026-01-16 11:05:37.97	18.88	32.02	-42.7	-55.5	3.8	7.47e-01	0	61	104	467140608	57	15245
2026-01-16 11:05:38.97	18.57	31.85	-43.1	-56.0	3.8	7.47e-01	0	61	104	467140608	57	16299
2026-01-16 11:05:39.98	18.27	31.68	-43.0	-56.3	3.8	7.48e-01	0	61	104	467140608	57	16827
2026-01-16 11:05:40.99	17.97	31.51	-44.9	-60.3	3.8	7.45e-01	0	61	104	467140608	60	22477
2026-01-16 11:05:42.00	17.67	31.34	-44.5	-58.7	3.8	7.46e-01	0	61	104	467140608	60	18710
2026-01-16 11:05:43.01	17.38	31.17	-45.7	-62.6	3.8	7.44e-01	0	61	104	467140608	61	27696
2026-01-16 11:05:44.02	17.09	31.00	-45.0	-60.8	3.8	7.44e-01	0	61	104	467140608	61	22425
2026-01-16 11:05:45.03	16.80	30.83	-45.5	-61.6	3.8	7.45e-01	0	61	104	467140608	61	24521
2026-01-16 11:05:46.04	16.52	30.66	-43.6	-56.9	3.8	7.46e-01	0	61	104	467140608	59	16076
2026-01-16 11:05:47.05	16.24	30.49	-42.8	-55.4	3.8	7.47e-01	0	61	104	467140608	57	15155
2026-01-16 11:05:48.06	15.96	30.32	-42.7	-55.6	3.8	7.42e-01	0	61	104	467140608	57	15486
2026-01-16 11:05:49.07	15.69	30.15	-43.1	-56.5	3.8	7.42e-01	0	61	104	467140608	57	17154
2026-01-16 11:05:50.08	15.42	29.99	-44.5	-59.1	3.8	7.43e-01	0	61	104	467140608	60	19535
2026-01-16 11:05:51.09	15.15	29.82	-45.6	-62.6	3.8	7.45e-01	0	61	104	467140608	61	27651
2026-01-16 11:05:52.10	14.88	29.65	-44.9	-60.3	3.8	7.40e-01	0	61	104	467140608	61	21119
2026-01-16 11:05:53.11	14.62	29.49	-45.5	-62.0	3.8	7.44e-01	0	61	104	467140608	61	25692
2026-01-16 11:05:54.12	14.36	29.32	-42.4	-55.4	3.8	7.42e-01	0	61	104	467140608	57	15144
2026-01-16 11:05:55.12	14.10	29.15	-42.6	-55.1	3.8	7.41e-01	0	61	104	467140608	57	14673
2026-01-16 11:05:56.14	13.85	28.99	-42.6	-55.3	3.8	7.44e-01	0	61	104	467140608	57	14976
2026-01-16 11:05:57.15	13.59	28.82	-43.4	-57.0	3.8	7.42e-01	0	61	104	467140608	57	18175
2026-01-16 11:05:58.16	13.34	28.66	-45.2	-61.4	3.8	7.45e-01	0	61	104	467140608	61	23974
2026-01-16 11:05:59.17	13.10	28.49	-44.8	-60.3	3.8	7.44e-01	0	61	104	467140608	60	22463
2026-01-16 11:06:00.18	12.85	28.33	-44.1	-58.3	3.9	7.41e-01	0	61	104	467140608	60	17736
2026-01-16 11:06:01.19	12.61	28.17	-45.5	-62.1	3.8	7.41e-01	0	61	104	467140608	61	25994
2026-01-16 11:06:02.20	12.37	28.00	-43.1	-56.2	3.8	7.46e-01	0	61	104	467140608	57	16693
2026-01-16 11:06:03.21	12.14	27.84	-42.9	-56.0	3.8	7.47e-01	0	61	104	467140608	57	16186
2026-01-16 11:06:04.21	11.91	27.68	-42.7	-55.6	3.8	7.44e-01	0	61	104	467140608	57	15414
2026-01-16 11:06:05.22	11.68	27.52	-44.1	-57.9	3.8	7.42e-01	0	61	104	467140608	59	18060
2026-01-16 11:06:06.23	11.45	27.36	-44.5	-59.7	3.9	7.43e-01	0	61	104	467140608	60	20780
2026-01-16 11:06:07.24	11.22	27.20	-45.2	-61.1	3.8	7.44e-01	0	61	104	467140608	61	23189
2026-01-16 11:06:08.25	11.00	27.04	-43.7	-57.5	3.7	7.41e-01	0	61	104	467140608	59	17096
2026-01-16 11:06:09.26	10.78	26.88	-45.7	-63.2	3.8	7.43e-01	0	61	104	467140608	62	27707
2026-01-16 11:06:10.26	10.56	26.72	-43.0	-55.9	3.9	7.41e-01	0	61	104	467140608	57	15953
2026-01-16 11:06:11.27	10.34	26.57	-42.8	-55.6	3.8	7.44e-01	0	61	104	467140608	57	15423
2026-01-16 11:06:12.28	10.13	26.41	-42.6	-55.4	3.8	7.44e-01	0	61	104	467140608	57	15054
2026-01-16 11:06:13.29	9.91	26.25	-44.4	-58.7	3.8	7.47e-01	0	61	104	467140608	59	19801
2026-01-16 11:06:14.30	9.70	26.10	-43.0	-56.2	3.9	7.44e-01	0	61	104	467140608	58	15746
2026-01-16 11:06:15.31	9.50	25.94	-45.4	-61.9	3.8	7.46e-01	0	61	104	467140608	61	25291
2026-01-16 11:06:16.32	9.29	25.79	-44.2	-58.0	3.8	7.44e-01	0	61	104	467140608	59	18248
2026-01-16 11:06:17.33	9.09	25.63	-45.3	-61.4	3.9	7.44e-01	0	61	104	467140608	61	23897
2026-01-16 11:06:18.34	8.88	25.48	-43.1	-56.3	3.8	7.43e-01	0	61	104	467140608	58	15882
2026-01-16 11:06:19.35	8.68	25.32	-43.0	-56.2	3.8	7.46e-01	0	61	104	467140608	58	15619
2026-01-16 11:06:20.36	8.49	25.17	-42.9	-55.8	3.8	7.48e-01	0	61	104	467140608	57	15807
2026-01-16 11:06:21.37	8.29	25.02	-42.9	-55.9	3.8	7.42e-01	0	61	104	467140608	57	15976
2026-01-16 11:06:22.38	8.10	24.87	-44.0	-57.8	3.9	7.47e-01	0	61	104	467140608	59	17840
2026-01-16 11:06:23.38	7.91	24.72	-44.0	-58.4	3.8	7.43e-01	0	61	104	467140608	60	18095
2026-01-16 11:06:24.40	7.72	24.57	-42.9	-55.9	3.9	7.46e-01	0	61	104	467140608	57	16010
2026-01-16 11:06:25.41	7.53	24.42	-45.0	-61.2	3.8	7.40e-01	0	61	104	467140608	61	23449
2026-01-16 11:06:26.41	7.34	24.27	-43.2	-56.6	3.8	7.42e-01	0	61	104	467140608	57	17334
2026-01-16 11:06:27.42	7.16	24.12	-43.0	-56.2	3.8	7.45e-01	0	61	104	467140608	57	16539
2026-01-16 11:06:28.43	6.98	23.97	-42.9	-55.8	3.8	7.47e-01	0	61	104	467140608	57	15928
2026-01-16 11:06:29.44	6.80	23.82	-44.3	-58.7	3.8	7.45e-01	0	61	104	467140608	59	19694
2026-01-16 11:06:30.45	6.62	23.68	-43.5	-57.1	3.8	7.45e-01	0	61	104	467140608	59	16439
2026-01-16 11:06:31.46	6.44	23.53	-44.2	-58.7	3.9	7.46e-01	0	61	104	467140608	60	18572
2026-01-16 11:06:32.47	6.27	23.39	-42.9	-56.0	3.9	7.45e-01	0	61	104	467140608	57	16286
2026-01-16 11:06:33.48	6.09	23.24	-45.0	-61.3	3.9	7.45e-01	0	61	104	467140608	61	23712
2026-01-16 11:06:34.49	5.92	23.10	-43.2	-56.6	3.8	7.44e-01	0	61	104	467140608	58	16348
2026-01-16 11:06:35.50	5.75	22.95	-43.1	-56.3	3.8	7.45e-01	0	61	104	467140608	58	15903
2026-01-16 11:06:36.51	5.58	22.81	-42.7	-55.7	3.8	7.44e-01	0	61	104	467140608	57	15591
2026-01-16 11:06:37.51	5.42	22.67	-42.7	-55.6	3.8	7.42e-01	0	61	104	467140608	57	15413
2026-01-16 11:06:38.52	5.25	22.53	-43.0	-56.2	3.8	7.44e-01	0	61	104	467140608	58	15668
2026-01-16 11:06:39.54	5.09	22.38	-43.9	-58.0	3.9	7.44e-01	0	61	104	467140608	59	18165
2026-01-16 11:06:40.55	4.92	22.24	-43.6	-57.2	3.8	7.48e-01	0	61	104	467140608	57	18675
2026-01-16 11:06:41.56	4.76	22.10	-44.1	-59.0	3.9	7.45e-01	0	61	104	467140608	60	19377
2026-01-16 11:06:42.57	4.61	21.96	-43.2	-56.6	3.8	7.46e-01	0	61	104	467140608	57	17406
2026-01-16 11:06:43.58	4.45	21.83	-43.0	-56.2	3.8	7.42e-01	0	61	104	467140608	57	16686
2026-01-16 11:06:44.59	4.29	21.69	-43.2	-56.6	3.8	7.46e-01	0	61	104	467140608	57	17390
2026-01-16 11:06:45.60	4.14	21.55	-44.6	-59.8	3.8	7.47e-01	0	61	104	467140608	59	22418
2026-01-16 11:06:46.60	3.99	21.41	-43.1	-56.3	3.8	7.43e-01	0	61	104	467140608	58	15906
2026-01-16 11:06:47.61	3.84	21.28	-43.8	-57.5	3.9	7.42e-01	0	61	104	467140608	59	17181
2026-01-16 11:06:48.62	3.69	21.14	-43.9	-57.9	3.8	7.47e-01	0	61	104	467140608	58	18973
2026-01-16 11:06:49.63	3.54	21.01	-43.7	-57.7	3.8	7.44e-01	0	61	104	467140608	59	17529
2026-01-16 11:06:50.64	3.39	20.87	-42.7	-55.7	3.8	7.44e-01	0	61	104	467140608	57	15651
2026-01-16 11:06:51.65	3.24	20.74	-42.5	-55.4	3.8	7.46e-01	0	61	104	467140608	57	15122
2026-01-16 11:06:52.66	3.10	20.60	-44.2	-58.5	3.8	7.47e-01	0	61	104	467140608	58	20458
2026-01-16 11:06:53.67	2.96	20.47	-43.1	-56.2	3.8	7.43e-01	0	61	104	467140608	57	16658
2026-01-16 11:06:54.67	2.82	20.34	-43.6	-57.5	3.8	7.45e-01	0	61	104	467140608	57	19187
2026-01-16 11:06:55.68	2.67	20.21	-43.8	-57.9	3.8	7.42e-01	0	61	104	467140608	59	18077
2026-01-16 11:06:56.69	2.54	20.08	-44.5	-60.5	3.8	7.48e-01	0	61	104	467140608	60	22823
2026-01-16 11:06:57.70	2.40	19.95	-43.5	-57.7	3.9	7.45e-01	0	61	104	467140608	59	17546
2026-01-16 11:06:58.71	2.26	19.82	-43.0	-56.7	3.8	7.45e-01	0	61	104	467140608	57	17600
2026-01-16 11:06:59.72	2.13	19.69	-42.8	-56.4	3.8	7.44e-01	0	61	104	467140608	57	16955
2026-01-16 11:07:00.73	1.99	19.56	-43.3	-57.2	3.8	7.46e-01	0	61	104	467140608	57	18638
2026-01-16 11:07:01.74	1.86	19.43	-44.7	-60.6	3.8	7.46e-01	0	61	104	467140608	59	24579
2026-01-16 11:07:02.74	1.73	19.30	-44.3	-58.2	3.8	7.51e-01	0	61	104	467140608	58	19770
2026-01-16 11:07:03.75	1.60	19.18	-43.6	-57.2	3.8	7.45e-01	0	61	104	467140608	59	16662
2026-01-16 11:07:04.76	1.47	19.05	-44.7	-60.7	3.8	7.43e-01	0	61	104	467140608	60	23493
2026-01-16 11:07:05.77	1.34	18.92	-43.6	-57.5	3.9	7.45e-01	0	61	104	467140608	59	17085
2026-01-16 11:07:06.78	1.21	18.80	-42.8	-56.1	3.8	7.45e-01	0	61	104	467140608	57	16380
2026-01-16 11:07:07.79	1.09	18.67	-42.7	-55.9	3.8	7.45e-01	0	61	104	467140608	57	16044
2026-01-16 11:07:08.80	0.96	18.55	-42.9	-56.5	3.8	7.47e-01	0	61	104	467140608	56	18133
2026-01-16 11:07:09.81	0.84	18.43	-44.5	-59.7	3.7	7.46e-01	0	61	104	467140608	59	22230
2026-01-16 11:07:10.82	0.71	18.30	-44.1	-59.5	3.8	7.48e-01	0	61	104	467140608	58	22992
2026-01-16 11:07:11.83	0.59	18.18	-43.1	-56.8	3.8	7.45e-01	0	61	104	467140608	57	17709
2026-01-16 11:07:12.84	0.47	18.06	-44.6	-61.6	3.7	7.46e-01	0	61	104	467140608	60	25939
2026-01-16 11:07:13.85	0.35	17.94	-42.8	-56.4	3.9	7.49e-01	0	61	104	467140608	57	16978
2026-01-16 11:07:14.86	0.23	17.82	-42.6	-55.9	3.8	7.44e-01	0	61	104	467140608	57	16028
2026-01-16 11:07:15.86	0.12	17.70	-42.3	-55.6	3.8	7.46e-01	0	61	104	467140608	56	16357
2026-01-16 11:07:16.87	0.00	17.58	-43.4	-57.7	3.8	7.44e-01	0	61	104	467140608	57	19792
2026-01-16 11:07:17.88	359.89	17.46	-43.4	-57.5	3.8	7.43e-01	0	61	104	467140608	57	19357
2026-01-16 11:07:18.89	359.77	17.34	-44.6	-61.9	3.7	7.45e-01	0	61	104	467140608	59	28367
2026-01-16 11:07:19.90	359.66	17.22	-44.2	-60.7	3.8	7.45e-01	0	61	104	467140608	59	24791
2026-01-16 11:07:20.91	359.55	17.10	-44.4	-60.2	3.8	7.46e-01	0	61	104	467140608	59	23547
2026-01-16 11:07:21.92	359.43	16.98	-42.9	-56.9	3.8	7.43e-01	0	61	104	467140608	57	17984
2026-01-16 11:07:22.93	359.32	16.87	-42.7	-56.5	3.8	7.43e-01	0	61	104	467140608	56	18230
2026-01-16 11:07:23.94	359.21	16.75	-42.5	-56.1	3.8	7.45e-01	0	61	104	467140608	56	17413
2026-01-16 11:07:24.94	359.11	16.64	-42.8	-56.9	3.8	7.43e-01	0	61	104	467140608	56	19068
2026-01-16 11:07:25.95	359.00	16.52	-44.6	-61.4	3.8	7.43e-01	0	61	104	467140608	59	26933
2026-01-16 11:07:26.96	358.89	16.41	-44.0	-60.7	3.8	7.43e-01	0	61	104	467140608	58	26319
2026-01-16 11:07:27.97	358.79	16.29	-43.0	-57.4	3.8	7.46e-01	0	61	104	467140608	57	19161
2026-01-16 11:07:28.98	358.68	16.18	-44.0	-61.2	3.8	7.45e-01	0	61	104	467140608	58	27845
2026-01-16 11:07:29.99	358.58	16.06	-41.9	-55.2	3.8	7.49e-01	0	61	104	467140608	55	16543
2026-01-16 11:07:31.00	358.47	15.95	-41.9	-55.5	3.8	7.45e-01	0	61	104	467140608	55	17099
2026-01-16 11:07:32.01	358.37	15.84	-41.8	-55.3	3.8	7.43e-01	0	61	104	467140608	55	16706
2026-01-16 11:07:33.02	358.27	15.73	-43.7	-61.1	3.8	7.43e-01	0	61	104	467140608	58	27687
2026-01-16 11:07:34.02	358.17	15.62	-43.1	-60.1	3.8	7.46e-01	0	61	104	467140608	58	24599
2026-01-16 11:07:35.03	358.07	15.51	-44.6	-62.3	3.8	7.48e-01	0	61	104	467140608	59	29813
2026-01-16 11:07:36.04	357.97	15.39	-43.0	-57.8	3.8	7.45e-01	0	61	104	467140608	57	19911
2026-01-16 11:07:37.05	357.87	15.28	-43.8	-62.3	3.8	7.48e-01	0	61	104	467140608	58	31481
2026-01-16 11:07:38.06	357.77	15.18	-42.6	-57.1	3.8	7.46e-01	0	61	104	467140608	57	18502
2026-01-16 11:07:39.07	357.68	15.07	-42.1	-56.4	3.8	7.47e-01	0	61	104	467140608	56	18078
2026-01-16 11:07:40.08	357.58	14.96	-41.6	-55.5	3.8	7.44e-01	0	61	104	467140608	55	17192
2026-01-16 11:07:41.09	357.49	14.85	-41.8	-56.3	3.8	7.44e-01	0	61	104	467140608	54	19933
2026-01-16 11:07:42.10	357.39	14.74	-41.9	-56.2	3.8	7.41e-01	0	61	104	467140608	54	19779
2026-01-16 11:07:43.11	357.30	14.63	-42.9	-61.1	3.8	7.44e-01	0	62	104	467140608	56	30814
2026-01-16 11:07:44.12	357.20	14.53	-42.5	-59.8	3.8	7.43e-01	0	61	104	467140608	56	26468
2026-01-16 11:07:45.13	357.11	14.42	-43.7	-61.5	3.7	7.40e-01	0	61	104	467140608	58	28925
2026-01-16 11:07:46.14	357.02	14.32	-41.4	-55.6	3.9	7.44e-01	0	61	104	467140608	54	18355
2026-01-16 11:07:47.15	356.93	14.21	-41.1	-55.2	3.8	7.44e-01	0	61	104	467140608	54	17508
2026-01-16 11:07:48.16	356.84	14.10	-41.2	-55.4	3.8	7.44e-01	0	61	104	467140608	54	18085
2026-01-16 11:07:49.17	356.75	14.00	-41.1	-55.6	3.8	7.47e-01	0	61	104	467140608	54	18417
2026-01-16 11:07:50.18	356.66	13.90	-42.9	-60.8	3.8	7.45e-01	0	61	104	467140608	56	30030
2026-01-16 11:07:51.19	356.57	13.79	-41.9	-58.9	3.8	7.43e-01	0	61	104	467140608	54	26775
2026-01-16 11:07:52.20	356.49	13.69	-41.3	-56.5	3.8	7.46e-01	0	61	104	467140608	54	20459
2026-01-16 11:07:53.20	356.40	13.59	-41.8	-60.7	3.8	7.47e-01	0	61	104	467140608	54	33049
2026-01-16 11:07:54.21	356.31	13.48	-41.3	-56.3	3.8	7.43e-01	0	61	104	467140608	54	19988
2026-01-16 11:07:55.22	356.23	13.38	-41.5	-57.1	3.8	7.47e-01	0	61	104	467140608	54	21822
2026-01-16 11:07:56.23	356.14	13.28	-41.6	-57.9	3.8	7.45e-01	0	61	104	467140608	54	23919
2026-01-16 11:07:57.24	356.06	13.18	-41.8	-60.0	3.8	7.43e-01	0	61	104	467140608	54	30521
2026-01-16 11:07:58.25	355.98	13.08	-41.8	-58.9	3.8	7.45e-01	0	61	104	467140608	54	26915
2026-01-16 11:07:59.26	355.89	12.98	-41.3	-60.4	3.8	7.45e-01	0	61	104	467140608	54	31943
2026-01-16 11:08:00.27	355.81	12.88	-41.4	-60.4	3.8	7.46e-01	0	61	104	467140608	54	31811
2026-01-16 11:08:01.28	355.73	12.78	-42.6	-60.5	3.8	7.45e-01	0	61	104	467140608	55	30535
2026-01-16 11:08:02.29	355.65	12.68	-42.1	-59.9	3.8	7.46e-01	0	61	104	467140608	55	28496
2026-01-16 11:08:03.30	355.57	12.58	-42.0	-60.2	3.8	7.46e-01	0	61	104	467140608	55	29525
2026-01-16 11:08:04.31	355.49	12.48	-42.0	-60.6	3.8	7.44e-01	0	61	104	467140608	55	30806
2026-01-16 11:08:05.32	355.41	12.38	-42.1	-61.0	3.8	7.44e-01	0	61	104	467140608	55	32545
2026-01-16 11:08:06.33	355.33	12.29	-41.4	-60.8	3.8	7.48e-01	0	61	104	467140608	54	33538
2026-01-16 11:08:07.33	355.26	12.19	-41.0	-60.7	3.8	7.48e-01	0	61	104	467140608	53	35148
2026-01-16 11:08:08.35	355.18	12.09	-41.3	-60.7	3.8	7.46e-01	0	62	104	467140608	53	34969
2026-01-16 11:08:09.35	355.10	12.00	-41.5	-60.9	3.8	7.44e-01	0	61	104	467140608	54	33734
2026-01-16 11:08:10.36	355.03	11.90	-41.3	-60.6	3.8	7.45e-01	0	61	104	467140608	54	32713
2026-01-16 11:08:11.37	354.95	11.80	-41.5	-60.9	3.8	7.46e-01	0	61	104	467140608	54	33893
2026-01-16 11:08:12.38	354.87	11.71	-41.5	-60.8	3.8	7.43e-01	0	61	104	467140608	54	33388
2026-01-16 11:08:13.39	354.80	11.61	-41.2	-60.6	3.8	7.45e-01	0	61	104	467140608	54	32923
2026-01-16 11:08:14.40	354.73	11.52	-41.5	-60.7	3.8	7.46e-01	0	62	104	467140608	54	33198
2026-01-16 11:08:15.41	354.65	11.42	-41.1	-60.5	3.8	7.40e-01	0	62	104	467140608	54	32435
2026-01-16 11:08:16.42	354.58	11.33	-41.3	-60.5	3.8	7.44e-01	0	61	104	467140608	54	32273
2026-01-16 11:08:17.43	354.51	11.24	-41.4	-60.6	3.8	7.43e-01	0	61	104	467140608	54	32889
2026-01-16 11:08:18.44	354.44	11.14	-41.3	-60.5	3.8	7.46e-01	0	61	104	467140608	54	32222
2026-01-16 11:08:19.45	354.36	11.05	-41.5	-60.7	3.8	7.45e-01	0	61	104	467140608	54	33028
2026-01-16 11:08:20.45	354.29	10.96	-41.4	-60.5	3.8	7.44e-01	0	61	104	467140608	54	32497
2026-01-16 11:08:21.46	354.22	10.87	-41.2	-60.5	3.8	7.46e-01	0	61	104	467140608	54	32277
2026-01-16 11:08:22.47	354.15	10.77	-41.3	-60.5	3.8	7.46e-01	0	61	104	467140608	54	32251
2026-01-16 11:08:23.48	354.09	10.68	-41.2	-60.4	3.8	7.47e-01	0	61	104	467140608	54	32019
2026-01-16 11:08:24.49	354.02	10.59	-41.3	-60.4	3.8	7.47e-01	0	62	104	467140608	54	32128
2026-01-16 11:08:25.50	353.95	10.50	-41.3	-60.4	3.8	7.45e-01	0	61	104	467140608	54	32124
2026-01-16 11:08:26.51	353.88	10.41	-41.2	-60.4	3.8	7.47e-01	0	61	104	467140608	54	32010
2026-01-16 11:08:27.52	353.81	10.32	-41.2	-60.4	3.8	7.45e-01	0	62	104	467140608	54	32163
2026-01-16 11:08:28.53	353.75	10.23	-41.3	-60.4	3.8	7.46e-01	0	61	104	467140608	53	33965
2026-01-16 11:08:29.54	353.68	10.14	-41.3	-60.4	3.8	7.45e-01	0	61	104	467140608	53	33943
2026-01-16 11:08:30.55	353.61	10.05	-41.2	-60.4	3.8	7.47e-01	0	61	104	467140608	53	33992
2026-01-16 11:08:31.56	353.55	9.96	-41.2	-60.4	3.8	7.45e-01	0	61	104	467140608	53	33730
2026-01-16 11:08:32.57	353.48	9.87	-41.2	-60.4	3.8	7.44e-01	0	61	104	467140608	53	33791
2026-01-16 11:08:33.58	353.42	9.78	-41.2	-60.4	3.8	7.46e-01	0	61	104	467140608	53	33888
2026-01-16 11:08:34.59	353.35	9.70	-41.2	-60.4	3.8	7.41e-01	0	61	104	467140608	53	33883
2026-01-16 11:08:35.60	353.29	9.61	-41.3	-60.4	3.8	7.46e-01	0	61	104	467140608	53	33970
2026-01-16 11:08:36.60	353.23	9.52	-41.3	-60.4	3.8	7.47e-01	0	62	104	467140608	53	33852
2026-01-16 11:08:37.61	353.16	9.43	-41.3	-60.5	3.8	7.47e-01	0	61	104	467140608	53	34188
2026-01-16 11:08:38.62	353.10	9.35	-41.3	-60.4	3.8	7.43e-01	0	61	104	467140608	53	33937
2026-01-16 11:08:39.63	353.04	9.26	-41.3	-60.4	3.8	7.44e-01	0	61	104	467140608	53	33942
2026-01-16 11:08:40.64	352.98	9.18	-41.3	-60.4	3.8	7.48e-01	0	62	104	467140608	53	34013
2026-01-16 11:08:41.65	352.92	9.09	-41.3	-60.5	3.8	7.42e-01	0	61	104	467140608	53	34135
2026-01-16 11:08:42.66	352.86	9.00	-41.3	-60.4	3.8	7.43e-01	0	61	104	467140608	53	34080
2026-01-16 11:08:43.67	352.80	8.92	-41.3	-60.6	3.8	7.47e-01	0	61	104	467140608	53	34877
2026-01-16 11:08:44.68	352.74	8.83	-41.3	-60.4	3.8	7.50e-01	0	62	104	467140608	53	34010
2026-01-16 11:08:45.69	352.68	8.75	-41.4	-60.6	3.8	7.46e-01	0	61	104	467140608	53	34793
2026-01-16 11:08:46.70	352.62	8.66	-41.3	-60.4	3.8	7.42e-01	0	61	104	467140608	53	34048
2026-01-16 11:08:47.71	352.56	8.58	-41.4	-60.6	3.8	7.46e-01	0	62	104	467140608	53	34745
2026-01-16 11:08:48.72	352.50	8.50	-41.4	-60.5	3.8	7.44e-01	0	62	104	467140608	53	34238
2026-01-16 11:08:49.73	352.44	8.41	-41.4	-60.6	3.8	7.42e-01	0	61	104	467140608	53	34670
2026-01-16 11:08:50.73	352.39	8.33	-41.3	-60.5	3.8	7.45e-01	0	62	104	467140608	53	34250
2026-01-16 11:08:51.74	352.33	8.25	-41.4	-60.6	3.8	7.48e-01	0	61	104	467140608	53	34814
2026-01-16 11:08:52.75	352.27	8.16	-41.4	-60.6	3.8	7.45e-01	0	61	104	467140608	53	34620
2026-01-16 11:08:53.76	352.22	8.08	-41.5	-60.6	3.8	7.42e-01	0	61	104	467140608	53	34723
2026-01-16 11:08:54.77	352.16	8.00	-41.0	-60.6	3.8	7.44e-01	0	62	104	467140608	53	34770
2026-01-16 11:08:55.78	352.10	7.92	-40.9	-60.7	3.8	7.44e-01	0	61	104	467140608	53	35180
2026-01-16 11:08:56.79	352.05	7.84	-43.1	-62.2	3.8	7.44e-01	0	61	104	467140608	56	35253
2026-01-16 11:08:57.80	351.99	7.76	-45.6	-64.3	3.8	7.43e-01	0	62	104	467140608	61	33582
2026-01-16 11:08:58.80	351.94	7.67	-46.1	-64.7	3.8	7.48e-01	0	62	104	467140608	62	33253
2026-01-16 11:08:59.81	351.88	7.59	-46.2	-64.9	3.8	7.43e-01	0	61	104	467140608	63	32048
2026-01-16 11:09:00.82	351.83	7.51	-46.3	-64.9	3.8	7.47e-01	0	61	104	467140608	63	32172
2026-01-16 11:09:01.83	351.78	7.43	-46.4	-65.0	3.8	7.45e-01	0	61	104	467140608	63	32394
2026-01-16 11:09:02.84	351.72	7.35	-46.4	-65.0	3.8	7.46e-01	0	62	104	467140608	63	32537
2026-01-16 11:09:03.86	351.67	7.27	-46.3	-65.0	3.8	7.50e-01	0	61	104	467140608	63	32478
2026-01-16 11:09:04.87	351.62	7.19	-44.8	-64.6	3.8	7.45e-01	0	61	104	467140608	62	32787
2026-01-16 11:09:05.88	351.57	7.11	-45.7	-64.3	3.8	7.43e-01	0	62	104	467140608	62	31639
2026-01-16 11:09:06.89	351.51	7.03	-46.4	-64.9	3.8	7.48e-01	0	61	104	467140608	63	31988
2026-01-16 11:09:07.90	351.46	6.96	-46.4	-64.7	3.8	7.42e-01	0	61	104	467140608	63	31439
2026-01-16 11:09:08.91	351.41	6.88	-46.4	-65.0	3.8	7.45e-01	0	61	104	467140608	63	32363
2026-01-16 11:09:09.92	351.36	6.80	-46.4	-65.0	3.8	7.45e-01	0	61	104	467140608	63	32370
2026-01-16 11:09:10.93	351.31	6.72	-46.4	-65.0	3.8	7.48e-01	0	61	104	467140608	63	32213
2026-01-16 11:09:11.94	351.26	6.64	-46.3	-64.9	3.8	7.49e-01	0	61	104	467140608	63	32153
2026-01-16 11:09:12.95	351.21	6.57	-46.3	-64.9	3.8	7.45e-01	0	62	104	467140608	63	32059
2026-01-16 11:09:13.96	351.16	6.49	-46.3	-64.9	3.8	7.43e-01	0	61	104	467140608	63	32107
2026-01-16 11:09:14.97	351.11	6.41	-46.3	-64.9	3.8	7.48e-01	0	61	104	467140608	63	32127
2026-01-16 11:09:15.99	351.06	6.33	-46.3	-64.9	3.8	7.40e-01	0	62	104	467140608	63	32139
2026-01-16 11:09:17.00	351.01	6.26	-46.3	-64.9	3.8	7.43e-01	0	61	104	467140608	63	32079
2026-01-16 11:09:18.01	350.96	6.18	-46.3	-64.9	3.8	7.45e-01	0	62	104	467140608	63	32108
2026-01-16 11:09:19.02	350.92	6.10	-46.3	-64.9	3.8	7.43e-01	0	62	104	467140608	63	32142
2026-01-16 11:09:20.03	350.87	6.03	-46.3	-64.9	3.8	7.44e-01	0	62	104	467140608	63	32118
2026-01-16 11:09:21.04	350.82	5.95	-46.3	-64.9	3.8	7.44e-01	0	62	104	467140608	63	32115
2026-01-16 11:09:22.05	350.77	5.88	-46.3	-64.9	3.8	7.46e-01	0	61	104	467140608	63	32072
2026-01-16 11:09:23.05	350.73	5.80	-46.2	-64.7	3.8	7.43e-01	0	61	104	467140608	62	32953
2026-01-16 11:09:24.06	350.68	5.73	-46.3	-64.9	3.8	7.44e-01	0	61	104	467140608	63	32108
2026-01-16 11:09:25.07	350.63	5.65	-46.3	-64.9	3.8	7.41e-01	0	62	104	467140608	63	32090
2026-01-16 11:09:26.09	350.59	5.58	-46.3	-64.9	3.8	7.44e-01	0	62	104	467140608	63	32064
2026-01-16 11:09:27.10	350.54	5.50	-46.3	-64.9	3.8	7.44e-01	0	61	104	467140608	63	32071
2026-01-16 11:09:28.11	350.50	5.43	-46.3	-64.9	3.8	7.43e-01	0	61	104	467140608	63	32017
2026-01-16 11:09:29.12	350.45	5.35	-46.3	-64.9	3.8	7.43e-01	0	62	104	467140608	63	32162
2026-01-16 11:09:30.13	350.41	5.28	-46.3	-64.9	3.8	7.42e-01	0	62	104	467140608	63	32064
2026-01-16 11:09:31.13	350.36	5.21	-46.3	-64.9	3.8	7.45e-01	0	62	104	467140608	63	32065
2026-01-16 11:09:32.14	350.32	5.13	-46.3	-64.9	3.8	7.45e-01	0	61	104	467140608	63	32088
2026-01-16 11:09:33.15	350.27	5.06	-46.3	-64.9	3.8	7.46e-01	0	62	104	467140608	63	32052
2026-01-16 11:09:34.16	350.23	4.99	-46.3	-64.9	3.8	7.44e-01	0	62	104	467140608	63	32009
2026-01-16 11:09:35.17	350.18	4.92	-46.3	-64.9	3.8	7.42e-01	0	61	104	467140608	63	32017
