passes_logs/2026/01/16/R2.0S_Moscow/R2.0S_Moscow__20260116_222714_NOAA_21_JPSS-2_rec.log

#Pass ID: 20260116_222714_NOAA 21 (JPSS-2)
#Satellite: NOAA 21 (JPSS-2)
#Configuration: NOAA-21
#almurnet v.1.7.20251203
#Start time: 2026-01-16 22:27:14

#Version: 2.2.20231116
#Station: R2.0S_Moscow
#Location: 37.707566 lon 55.798166 lat
#TLE: 1 54234U 22150A   26016.21096038  .00000027  00000+0  33607-4 0  9993
#TLE: 2 54234  98.7500 317.0960 0000625 282.3388  77.7718 14.19534911164985

#Time	Az	El	Level	Level2	SNR	BER	BlckErr	Temp	State	Recorded	gain1	gain2
2026-01-16 22:27:14.70	22.99	2.03	-42.1	-55.3	3.8	1.49e+00	0	53	0	0	56	15880
2026-01-16 22:27:15.71	23.05	2.09	-42.0	-55.1	3.8	1.49e+00	0	53	104	0	54	17397
2026-01-16 22:27:16.72	23.11	2.15	-42.0	-55.1	3.8	1.49e+00	0	53	104	0	54	17380
2026-01-16 22:27:17.73	23.16	2.21	-42.0	-55.1	3.8	1.49e+00	0	53	104	0	54	17328
2026-01-16 22:27:18.74	23.22	2.26	-42.0	-55.1	3.8	1.49e+00	0	53	104	0	54	17350
2026-01-16 22:27:19.75	23.28	2.32	-42.0	-55.1	3.8	1.49e+00	0	54	104	0	54	17384
2026-01-16 22:27:20.76	23.34	2.38	-41.9	-55.1	3.8	1.49e+00	0	54	104	0	54	17342
2026-01-16 22:27:21.78	23.40	2.44	-41.9	-55.1	3.8	1.49e+00	0	54	104	0	54	17378
2026-01-16 22:27:22.78	23.46	2.50	-42.0	-55.1	3.8	1.49e+00	0	53	104	0	54	17389
2026-01-16 22:27:23.80	23.53	2.56	-41.9	-55.1	3.8	1.49e+00	0	54	104	0	54	17335
2026-01-16 22:27:24.81	23.59	2.62	-42.0	-55.1	3.8	1.49e+00	0	54	104	0	54	17343
2026-01-16 22:27:25.82	23.65	2.68	-41.9	-55.1	3.8	1.49e+00	0	54	104	0	54	17352
2026-01-16 22:27:26.83	23.71	2.74	-42.0	-55.1	3.8	1.49e+00	0	54	104	0	54	17392
2026-01-16 22:27:27.84	23.77	2.80	-41.9	-55.1	3.8	1.49e+00	0	54	104	0	54	17327
2026-01-16 22:27:28.85	23.83	2.86	-41.9	-55.1	3.8	1.49e+00	0	54	104	0	54	17422
2026-01-16 22:27:29.86	23.90	2.92	-41.9	-55.1	3.8	1.49e+00	0	54	104	0	54	17313
2026-01-16 22:27:30.87	23.96	2.98	-41.9	-55.1	3.8	1.49e+00	0	54	104	0	54	17398
2026-01-16 22:27:31.88	24.02	3.04	-42.0	-55.1	3.8	1.49e+00	0	54	104	0	54	17342
2026-01-16 22:27:32.89	24.08	3.10	-41.9	-55.1	3.8	1.49e+00	0	54	104	0	54	17343
2026-01-16 22:27:33.90	24.15	3.16	-41.9	-55.1	3.8	1.49e+00	0	54	104	0	54	17396
2026-01-16 22:27:34.91	24.21	3.22	-41.9	-55.1	3.8	1.49e+00	0	54	104	0	54	17379
2026-01-16 22:27:35.92	24.27	3.28	-41.9	-55.0	3.8	1.49e+00	0	54	104	0	54	17280
2026-01-16 22:27:36.94	24.34	3.34	-41.9	-55.1	3.8	1.49e+00	0	55	104	0	54	17359
2026-01-16 22:27:37.95	24.40	3.40	-41.9	-55.1	3.8	1.49e+00	0	54	104	0	54	17338
2026-01-16 22:27:38.96	24.47	3.46	-41.9	-55.1	3.8	1.49e+00	0	55	104	0	54	17375
2026-01-16 22:27:39.97	24.53	3.52	-41.9	-55.1	3.8	1.49e+00	0	55	104	0	54	17331
2026-01-16 22:27:40.98	24.59	3.58	-41.9	-55.1	3.8	1.49e+00	0	55	104	0	54	17331
2026-01-16 22:27:41.99	24.66	3.64	-41.9	-55.1	3.8	1.49e+00	0	54	104	0	54	17385
2026-01-16 22:27:43.00	24.72	3.70	-41.9	-55.1	3.8	1.49e+00	0	55	104	0	54	17356
2026-01-16 22:27:44.01	24.79	3.76	-41.9	-55.1	3.8	1.49e+00	0	55	104	0	54	17341
2026-01-16 22:27:45.02	24.86	3.82	-41.9	-55.1	3.8	1.49e+00	0	55	104	0	54	17311
2026-01-16 22:27:46.03	24.92	3.89	-41.9	-55.1	3.8	1.49e+00	0	55	104	0	54	17305
2026-01-16 22:27:47.05	24.99	3.95	-41.9	-55.1	3.8	1.49e+00	0	55	104	0	54	17340
2026-01-16 22:27:48.06	25.06	4.01	-41.9	-55.1	3.8	1.49e+00	0	55	104	0	54	17360
2026-01-16 22:27:49.07	25.12	4.07	-41.9	-55.1	3.8	1.49e+00	0	55	104	0	54	17350
2026-01-16 22:27:50.08	25.19	4.13	-41.9	-55.1	3.8	1.49e+00	0	55	104	0	54	17378
2026-01-16 22:27:51.09	25.26	4.19	-41.9	-55.1	3.8	1.49e+00	0	55	104	0	54	17326
2026-01-16 22:27:52.10	25.32	4.26	-41.9	-55.0	3.8	1.49e+00	0	55	104	0	54	17275
2026-01-16 22:27:53.11	25.39	4.32	-41.9	-55.1	3.8	1.49e+00	0	55	104	0	54	17312
2026-01-16 22:27:54.12	25.46	4.38	-41.9	-55.1	3.8	1.49e+00	0	55	104	0	54	17330
2026-01-16 22:27:55.13	25.53	4.44	-41.9	-55.1	3.8	1.49e+00	0	55	104	0	54	17339
2026-01-16 22:27:56.14	25.60	4.51	-41.9	-55.1	3.8	1.49e+00	0	55	104	0	54	17324
2026-01-16 22:27:57.15	25.67	4.57	-41.9	-55.1	3.8	1.49e+00	0	55	104	0	54	17291
2026-01-16 22:27:58.16	25.73	4.63	-41.9	-55.1	3.8	1.49e+00	0	55	104	0	54	17322
2026-01-16 22:27:59.18	25.81	4.69	-41.9	-55.1	3.8	1.49e+00	0	56	104	0	54	17337
2026-01-16 22:28:00.19	25.87	4.76	-41.9	-55.0	3.8	1.49e+00	0	56	104	0	54	17272
2026-01-16 22:28:01.20	25.94	4.82	-41.9	-55.1	3.8	1.49e+00	0	56	104	0	54	17282
2026-01-16 22:28:02.21	26.02	4.88	-41.9	-55.1	3.8	1.49e+00	0	56	104	0	54	17292
2026-01-16 22:28:03.22	26.09	4.95	-41.9	-55.1	3.8	1.49e+00	0	56	104	0	54	17352
2026-01-16 22:28:04.23	26.16	5.01	-41.9	-55.1	3.8	1.49e+00	0	56	104	0	54	17340
2026-01-16 22:28:05.24	26.23	5.07	-41.9	-55.1	3.8	1.49e+00	0	56	104	0	54	17291
2026-01-16 22:28:06.25	26.30	5.14	-41.9	-55.1	3.8	1.49e+00	0	56	104	0	54	17329
2026-01-16 22:28:07.26	26.37	5.20	-41.9	-55.0	3.8	1.49e+00	0	56	104	0	54	17270
2026-01-16 22:28:08.28	26.44	5.27	-41.9	-55.1	3.8	1.49e+00	0	56	104	0	54	17355
2026-01-16 22:28:09.29	26.52	5.33	-41.9	-55.1	3.8	1.49e+00	0	56	104	0	54	17284
2026-01-16 22:28:10.30	26.59	5.39	-41.9	-55.0	3.8	1.49e+00	0	56	104	0	54	17259
2026-01-16 22:28:11.31	26.66	5.46	-41.9	-55.0	3.8	1.49e+00	0	56	104	0	54	17236
2026-01-16 22:28:12.32	26.73	5.52	-41.9	-55.1	3.8	1.49e+00	0	56	104	0	54	17320
2026-01-16 22:28:13.33	26.81	5.59	-41.9	-55.0	3.8	1.49e+00	0	56	104	0	54	17271
2026-01-16 22:28:14.34	26.88	5.65	-41.9	-55.1	3.8	1.49e+00	0	56	104	0	54	17299
2026-01-16 22:28:15.35	26.96	5.72	-41.9	-55.0	3.8	1.49e+00	0	56	104	0	54	17266
2026-01-16 22:28:16.36	27.03	5.78	-41.9	-55.1	3.8	1.49e+00	0	56	104	0	54	17293
2026-01-16 22:28:17.37	27.11	5.85	-41.9	-55.1	3.8	1.49e+00	0	56	104	0	54	17303
2026-01-16 22:28:18.38	27.18	5.91	-41.9	-55.0	3.8	1.49e+00	0	56	104	0	54	17208
2026-01-16 22:28:19.39	27.26	5.98	-41.9	-55.0	3.8	1.49e+00	0	56	104	0	54	17118
2026-01-16 22:28:20.41	27.33	6.04	-41.9	-55.0	3.8	1.49e+00	0	57	104	0	54	17097
2026-01-16 22:28:21.42	27.41	6.11	-41.9	-54.9	3.8	1.49e+00	0	57	104	0	54	17036
2026-01-16 22:28:22.43	27.48	6.17	-41.9	-54.9	3.8	1.49e+00	0	57	104	0	54	17023
2026-01-16 22:28:23.44	27.56	6.24	-41.9	-54.9	3.8	1.49e+00	0	57	104	0	54	16945
2026-01-16 22:28:24.45	27.64	6.31	-41.9	-54.9	3.8	1.49e+00	0	57	104	0	54	16928
2026-01-16 22:28:25.46	27.72	6.37	-41.9	-54.9	3.8	1.49e+00	0	57	104	0	54	16920
2026-01-16 22:28:26.47	27.79	6.44	-41.9	-54.9	3.8	1.49e+00	0	57	104	0	54	16928
2026-01-16 22:28:27.48	27.87	6.50	-41.9	-54.8	3.8	1.49e+00	0	57	104	0	54	16715
2026-01-16 22:28:28.49	27.95	6.57	-41.9	-54.5	3.8	1.49e+00	0	57	104	0	54	16188
2026-01-16 22:28:29.51	28.03	6.64	-41.8	-53.9	3.8	1.49e+00	0	57	104	0	54	15092
2026-01-16 22:28:30.52	28.11	6.70	-41.7	-53.1	3.8	1.49e+00	0	57	104	0	54	13878
2026-01-16 22:28:31.53	28.19	6.77	-41.7	-52.5	3.9	1.48e+00	0	57	104	0	54	12816
2026-01-16 22:28:32.54	28.27	6.84	-41.7	-52.3	4.0	1.48e+00	0	57	104	0	54	12539
2026-01-16 22:28:33.55	28.35	6.91	-41.7	-52.4	4.0	1.48e+00	0	57	104	0	54	12753
2026-01-16 22:28:34.56	28.43	6.97	-41.8	-53.1	3.8	1.48e+00	0	57	104	0	54	13848
2026-01-16 22:28:35.57	28.51	7.04	-41.7	-52.7	4.0	1.49e+00	0	57	104	0	54	13126
2026-01-16 22:28:36.58	28.59	7.11	-41.8	-53.5	3.8	1.49e+00	0	57	104	0	54	14396
2026-01-16 22:28:37.59	28.67	7.17	-41.8	-53.9	3.8	1.49e+00	0	57	104	0	54	15218
2026-01-16 22:28:38.60	28.75	7.24	-41.8	-53.9	3.8	1.49e+00	0	57	104	0	54	15109
2026-01-16 22:28:39.61	28.83	7.31	-41.8	-53.6	3.8	1.49e+00	0	57	104	0	54	14546
2026-01-16 22:28:40.62	28.92	7.38	-41.7	-52.5	3.9	1.49e+00	0	57	104	0	54	12931
2026-01-16 22:28:41.64	29.00	7.45	-41.4	-50.1	4.7	1.25e+00	0	57	104	0	54	9777
2026-01-16 22:28:42.65	29.08	7.52	-41.1	-48.3	5.7	5.07e-01	0	57	0	1048576	54	7962
2026-01-16 22:28:43.66	29.17	7.58	-40.8	-47.1	6.7	2.35e-01	0	57	0	4194304	53	7294
2026-01-16 22:28:44.67	29.25	7.65	-40.6	-46.5	7.2	1.57e-01	0	57	0	7340032	53	6844
2026-01-16 22:28:45.68	29.34	7.72	-40.5	-46.0	7.7	8.63e-02	0	57	0	10485760	52	6877
2026-01-16 22:28:46.69	29.42	7.79	-40.6	-46.4	7.3	1.00e-01	0	58	0	13631488	52	7182
2026-01-16 22:28:47.70	29.51	7.86	-40.4	-45.9	7.8	9.07e-02	0	57	0	16777216	52	6792
2026-01-16 22:28:48.71	29.59	7.93	-40.2	-45.4	8.3	5.90e-02	0	57	0	19922944	52	6375
2026-01-16 22:28:49.72	29.68	8.00	-40.1	-45.0	8.7	3.41e-02	0	58	0	23068672	52	6117
2026-01-16 22:28:50.73	29.76	8.07	-40.7	-45.7	8.2	3.53e-02	0	58	0	26214400	52	6626
2026-01-16 22:28:51.74	29.85	8.14	-41.5	-48.0	6.2	1.32e-01	0	58	0	29360128	53	8120
2026-01-16 22:28:52.75	29.94	8.21	-40.7	-47.4	6.4	7.03e-02	0	58	0	32505856	53	7616
2026-01-16 22:28:53.76	30.03	8.27	-41.3	-53.3	3.8	1.37e+00	0	58	104	34603008	53	15034
2026-01-16 22:28:54.77	30.11	8.34	-40.6	-44.6	9.8	4.31e-01	0	58	0	34603008	52	5838
2026-01-16 22:28:55.78	30.20	8.41	-40.5	-44.6	9.7	2.05e-02	0	58	0	37748736	53	5494
2026-01-16 22:28:56.79	30.29	8.48	-40.5	-44.7	9.6	1.32e-02	0	58	0	40894464	52	5873
2026-01-16 22:28:57.80	30.38	8.56	-40.2	-44.0	10.3	6.02e-03	0	58	0	44040192	52	5455
2026-01-16 22:28:58.81	30.47	8.63	-40.3	-44.2	10.1	5.80e-03	0	58	0	47185920	52	5591
2026-01-16 22:28:59.82	30.56	8.70	-40.2	-44.1	10.2	6.12e-03	0	58	0	50331648	52	5501
2026-01-16 22:29:00.83	30.65	8.77	-40.2	-44.0	10.3	5.63e-03	0	58	0	53477376	52	5452
2026-01-16 22:29:01.84	30.74	8.84	-40.2	-43.9	10.6	3.78e-03	0	58	0	56623104	52	5376
2026-01-16 22:29:02.85	30.83	8.91	-40.3	-44.0	10.6	3.73e-03	0	58	0	59768832	52	5421
2026-01-16 22:29:03.86	30.92	8.98	-40.2	-43.6	10.9	2.22e-03	0	58	0	62914560	52	5200
2026-01-16 22:29:04.87	31.01	9.05	-40.2	-43.7	10.9	2.57e-03	0	58	0	66060288	52	5257
2026-01-16 22:29:05.88	31.11	9.12	-40.4	-43.9	10.7	2.98e-03	0	58	0	69206016	52	5363
2026-01-16 22:29:06.89	31.20	9.19	-40.3	-43.8	10.8	2.45e-03	0	58	0	72351744	52	5307
2026-01-16 22:29:07.90	31.29	9.27	-40.4	-43.9	10.8	2.91e-03	0	58	0	75497472	52	5343
2026-01-16 22:29:08.91	31.39	9.34	-40.3	-43.8	10.9	2.09e-03	0	58	0	78643200	52	5288
2026-01-16 22:29:09.92	31.48	9.41	-40.4	-43.8	10.9	1.75e-03	0	58	0	81788928	52	5331
2026-01-16 22:29:10.93	31.57	9.48	-40.4	-43.9	10.9	2.57e-03	0	58	0	84934656	52	5343
2026-01-16 22:29:11.94	31.67	9.55	-40.3	-43.8	11.0	1.96e-03	0	58	0	88080384	52	5280
2026-01-16 22:29:12.95	31.77	9.63	-40.3	-43.8	11.0	2.02e-03	0	58	0	91226112	52	5280
2026-01-16 22:29:13.96	31.86	9.70	-40.4	-43.9	10.9	1.81e-03	0	58	0	94371840	52	5385
2026-01-16 22:29:14.97	31.96	9.77	-40.4	-43.7	11.1	1.54e-03	0	58	0	97517568	52	5251
2026-01-16 22:29:15.98	32.05	9.85	-40.5	-43.8	11.0	1.59e-03	0	58	0	100663296	52	5339
2026-01-16 22:29:16.99	32.15	9.92	-40.4	-43.7	11.2	1.48e-03	0	58	0	103809024	52	5242
2026-01-16 22:29:18.00	32.25	9.99	-40.5	-43.8	11.1	1.60e-03	0	58	0	106954752	52	5287
2026-01-16 22:29:19.01	32.35	10.06	-40.4	-43.6	11.3	1.27e-03	0	58	0	110100480	52	5197
2026-01-16 22:29:20.02	32.45	10.14	-40.4	-43.5	11.4	9.09e-04	0	58	0	113246208	52	5155
2026-01-16 22:29:21.03	32.55	10.21	-40.4	-43.5	11.5	8.40e-04	0	58	0	116391936	52	5112
2026-01-16 22:29:22.04	32.65	10.29	-40.4	-43.4	11.6	8.70e-04	0	58	0	119537664	52	5089
2026-01-16 22:29:23.05	32.75	10.36	-40.4	-43.5	11.5	7.44e-04	0	58	0	122683392	52	5135
2026-01-16 22:29:24.06	32.85	10.43	-40.3	-43.3	11.8	5.75e-04	0	58	0	125829120	52	4988
2026-01-16 22:29:25.06	32.95	10.51	-40.4	-43.4	11.6	6.69e-04	0	58	0	128974848	52	5070
2026-01-16 22:29:26.07	33.05	10.58	-40.4	-43.4	11.7	5.65e-04	0	58	0	132120576	52	5064
2026-01-16 22:29:27.08	33.15	10.66	-40.4	-43.4	11.7	6.17e-04	0	58	0	135266304	52	5065
2026-01-16 22:29:28.10	33.25	10.73	-40.4	-43.4	11.6	6.23e-04	0	58	0	138412032	52	5098
2026-01-16 22:29:29.10	33.36	10.81	-40.3	-43.3	11.8	4.47e-04	0	58	0	141557760	52	5008
2026-01-16 22:29:30.11	33.46	10.88	-40.3	-43.3	11.9	3.65e-04	0	58	0	144703488	52	4990
2026-01-16 22:29:31.12	33.56	10.96	-40.3	-43.2	11.9	3.91e-04	0	58	0	147849216	52	4957
2026-01-16 22:29:32.13	33.67	11.03	-40.3	-43.3	11.9	3.23e-04	0	58	0	150994944	52	4992
2026-01-16 22:29:33.14	33.77	11.11	-40.4	-43.3	11.9	3.78e-04	0	58	0	154140672	52	5007
2026-01-16 22:29:34.15	33.88	11.18	-40.3	-43.2	12.0	3.19e-04	0	58	0	157286400	52	4928
2026-01-16 22:29:35.16	33.98	11.26	-40.3	-43.2	12.0	2.91e-04	0	59	0	160432128	52	4939
2026-01-16 22:29:36.17	34.09	11.33	-40.3	-43.2	12.1	3.22e-04	0	58	0	163577856	52	4950
2026-01-16 22:29:37.18	34.20	11.41	-40.2	-43.0	12.2	2.19e-04	0	59	0	166723584	52	4863
2026-01-16 22:29:38.19	34.31	11.49	-40.2	-43.0	12.3	2.30e-04	0	58	0	169869312	52	4818
2026-01-16 22:29:39.20	34.41	11.56	-40.3	-43.1	12.2	2.50e-04	0	59	0	173015040	52	4903
2026-01-16 22:29:40.21	34.52	11.64	-40.3	-43.1	12.3	2.21e-04	0	59	0	176160768	52	4924
2026-01-16 22:29:41.22	34.63	11.72	-40.2	-43.0	12.1	3.66e-04	0	58	0	179306496	52	4861
2026-01-16 22:29:42.23	34.74	11.79	-40.2	-43.1	12.2	1.89e-04	0	59	0	182452224	52	4872
2026-01-16 22:29:43.24	34.85	11.87	-40.3	-43.1	12.2	1.96e-04	0	59	0	185597952	52	4895
2026-01-16 22:29:44.25	34.96	11.95	-40.3	-43.1	12.3	1.79e-04	0	59	0	188743680	52	4885
2026-01-16 22:29:45.26	35.08	12.02	-40.2	-43.0	12.4	1.39e-04	0	59	0	191889408	52	4832
2026-01-16 22:29:46.27	35.19	12.10	-40.2	-42.9	12.4	1.74e-04	0	59	0	195035136	52	4805
2026-01-16 22:29:47.28	35.30	12.18	-40.2	-43.0	12.4	1.47e-04	0	59	0	198180864	52	4845
2026-01-16 22:29:48.29	35.41	12.26	-40.2	-43.0	12.4	1.77e-04	0	59	0	201326592	52	4845
2026-01-16 22:29:49.30	35.53	12.33	-40.2	-42.9	12.4	1.26e-04	0	59	0	204472320	52	4797
2026-01-16 22:29:50.31	35.64	12.41	-40.2	-42.9	12.5	1.33e-04	0	59	0	207618048	52	4770
2026-01-16 22:29:51.32	35.76	12.49	-40.2	-43.0	12.4	1.43e-04	0	59	0	210763776	52	4823
2026-01-16 22:29:52.33	35.87	12.57	-40.2	-42.9	12.5	1.07e-04	0	59	0	213909504	52	4763
2026-01-16 22:29:53.34	35.99	12.65	-40.2	-42.9	12.5	9.61e-05	0	59	0	217055232	52	4766
2026-01-16 22:29:54.35	36.11	12.72	-40.2	-42.9	12.5	8.92e-05	0	59	0	220200960	52	4786
2026-01-16 22:29:55.36	36.22	12.80	-40.1	-42.8	12.6	8.62e-05	0	59	0	223346688	52	4731
2026-01-16 22:29:56.37	36.34	12.88	-40.2	-42.9	12.5	1.21e-04	0	59	0	226492416	52	4777
2026-01-16 22:29:57.37	36.46	12.96	-40.2	-42.9	12.5	1.22e-04	0	59	0	229638144	52	4773
2026-01-16 22:29:58.38	36.58	13.04	-40.1	-42.8	12.7	9.61e-05	0	59	0	232783872	52	4712
2026-01-16 22:29:59.39	36.70	13.12	-40.1	-42.8	12.6	9.46e-05	0	59	0	235929600	52	4747
2026-01-16 22:30:00.40	36.82	13.20	-40.1	-42.8	12.7	9.84e-05	0	59	0	239075328	52	4743
2026-01-16 22:30:01.41	36.94	13.28	-40.1	-42.7	12.7	7.24e-05	0	59	0	242221056	52	4695
2026-01-16 22:30:02.42	37.06	13.36	-40.2	-42.9	12.6	9.23e-05	0	59	0	245366784	52	4765
2026-01-16 22:30:03.43	37.18	13.44	-40.2	-42.9	12.6	9.30e-05	0	59	0	248512512	52	4795
2026-01-16 22:30:04.44	37.31	13.52	-40.1	-42.8	12.7	9.07e-05	0	59	0	251658240	52	4739
2026-01-16 22:30:05.45	37.43	13.60	-40.3	-43.0	12.5	1.30e-04	0	59	0	254803968	52	4842
2026-01-16 22:30:06.46	37.56	13.68	-40.3	-43.1	12.4	1.40e-04	0	59	0	257949696	52	4883
2026-01-16 22:30:07.47	37.68	13.76	-40.3	-43.0	12.5	1.31e-04	0	59	0	261095424	52	4862
2026-01-16 22:30:08.48	37.81	13.84	-40.4	-43.1	12.4	1.69e-04	0	59	0	264241152	52	4920
2026-01-16 22:30:09.49	37.93	13.92	-40.4	-43.2	12.3	1.72e-04	0	59	0	267386880	52	4969
2026-01-16 22:30:10.50	38.06	14.00	-40.4	-43.2	12.3	1.96e-04	0	59	0	270532608	52	4960
2026-01-16 22:30:11.51	38.19	14.08	-40.3	-43.1	12.5	1.32e-04	0	59	0	273678336	52	4883
2026-01-16 22:30:12.52	38.31	14.16	-40.3	-43.0	12.6	1.03e-04	0	59	0	276824064	52	4841
2026-01-16 22:30:13.53	38.44	14.25	-40.4	-43.2	12.3	1.71e-04	0	59	0	279969792	52	4977
2026-01-16 22:30:14.54	38.57	14.33	-40.4	-43.2	12.4	1.79e-04	0	59	0	283115520	52	4957
2026-01-16 22:30:15.55	38.70	14.41	-40.4	-43.1	12.4	1.23e-04	0	59	0	286261248	52	4925
2026-01-16 22:30:16.56	38.83	14.49	-40.4	-43.2	12.4	1.79e-04	0	59	0	289406976	52	4954
2026-01-16 22:30:17.57	38.97	14.57	-40.4	-43.2	12.4	1.69e-04	0	59	0	292552704	52	4952
2026-01-16 22:30:18.58	39.10	14.65	-40.4	-43.1	12.4	1.26e-04	0	59	0	295698432	52	4922
2026-01-16 22:30:19.59	39.23	14.74	-40.4	-43.1	12.5	1.17e-04	0	59	0	298844160	52	4897
2026-01-16 22:30:20.60	39.37	14.82	-40.4	-43.2	12.5	1.24e-04	0	59	0	301989888	52	4937
2026-01-16 22:30:21.61	39.50	14.90	-40.4	-43.1	12.5	1.14e-04	0	59	0	305135616	52	4892
2026-01-16 22:30:22.62	39.64	14.98	-40.4	-43.1	12.5	1.23e-04	0	59	0	308281344	52	4904
2026-01-16 22:30:23.63	39.77	15.07	-40.4	-43.1	12.5	1.07e-04	0	59	0	311427072	52	4914
2026-01-16 22:30:24.64	39.91	15.15	-40.5	-43.3	12.3	1.87e-04	0	59	0	314572800	52	5001
2026-01-16 22:30:25.65	40.05	15.23	-40.4	-43.1	12.5	1.20e-04	0	59	0	318767104	52	4905
2026-01-16 22:30:26.66	40.18	15.32	-40.4	-43.2	12.4	1.45e-04	0	59	0	321912832	52	4968
2026-01-16 22:30:27.67	40.32	15.40	-40.4	-43.2	12.4	1.35e-04	0	59	0	324009984	52	4962
2026-01-16 22:30:28.68	40.46	15.48	-40.4	-43.2	12.4	1.53e-04	0	59	0	327155712	52	4959
2026-01-16 22:30:29.69	40.60	15.57	-40.4	-43.2	12.4	1.52e-04	0	59	0	330301440	52	4941
2026-01-16 22:30:30.70	40.74	15.65	-40.5	-43.2	12.4	1.30e-04	0	59	0	333447168	52	4982
2026-01-16 22:30:31.71	40.89	15.73	-40.4	-43.2	12.5	1.16e-04	0	59	0	337641472	52	4927
2026-01-16 22:30:32.71	41.03	15.82	-40.4	-43.2	12.5	1.30e-04	0	59	0	340787200	52	4945
2026-01-16 22:30:33.72	41.17	15.90	-40.4	-43.1	12.5	1.08e-04	0	59	0	343932928	52	4909
2026-01-16 22:30:34.73	41.32	15.99	-40.4	-43.1	12.5	1.05e-04	0	59	0	347078656	52	4924
2026-01-16 22:30:35.74	41.46	16.07	-40.4	-43.1	12.5	8.23e-05	0	59	0	349175808	52	4925
2026-01-16 22:30:36.75	41.61	16.15	-40.5	-43.2	12.5	1.27e-04	0	59	0	353370112	52	4943
2026-01-16 22:30:37.76	41.75	16.24	-40.5	-43.2	12.5	1.14e-04	0	59	0	356515840	52	4958
2026-01-16 22:30:38.77	41.90	16.32	-40.5	-43.3	12.4	1.41e-04	0	59	0	359661568	52	5002
2026-01-16 22:30:39.78	42.05	16.41	-40.6	-43.3	12.4	1.56e-04	0	60	0	362807296	52	5018
2026-01-16 22:30:40.79	42.20	16.49	-40.6	-43.4	12.3	1.67e-04	0	59	0	365953024	52	5048
2026-01-16 22:30:41.80	42.35	16.58	-40.6	-43.4	12.3	1.79e-04	0	59	0	369098752	52	5065
2026-01-16 22:30:42.81	42.50	16.66	-40.7	-43.5	12.2	2.17e-04	0	59	0	372244480	52	5113
2026-01-16 22:30:43.82	42.65	16.75	-40.7	-43.5	12.1	2.27e-04	0	59	0	375390208	52	5157
2026-01-16 22:30:44.83	42.80	16.83	-40.7	-43.5	12.2	2.13e-04	0	59	0	378535936	52	5110
2026-01-16 22:30:45.84	42.96	16.92	-40.7	-43.6	12.1	2.45e-04	0	59	0	381681664	52	5168
2026-01-16 22:30:46.85	43.11	17.01	-40.7	-43.5	12.2	2.00e-04	0	60	0	384827392	52	5118
2026-01-16 22:30:47.85	43.27	17.09	-40.6	-43.4	12.3	2.04e-04	0	59	0	387973120	52	5087
2026-01-16 22:30:48.87	43.42	17.18	-40.6	-43.4	12.3	2.16e-04	0	60	0	391118848	52	5075
2026-01-16 22:30:49.87	43.58	17.26	-40.7	-43.5	12.2	2.14e-04	0	60	0	394264576	52	5143
2026-01-16 22:30:50.88	43.74	17.35	-40.7	-43.5	12.2	2.18e-04	0	59	0	397410304	52	5116
2026-01-16 22:30:51.89	43.89	17.43	-40.7	-43.6	12.2	2.62e-04	0	59	0	400556032	52	5175
2026-01-16 22:30:52.90	44.05	17.52	-40.8	-43.6	12.1	2.97e-04	0	60	0	403701760	52	5212
2026-01-16 22:30:53.91	44.21	17.61	-40.8	-43.7	12.0	3.00e-04	0	60	0	406847488	52	5277
2026-01-16 22:30:54.92	44.37	17.69	-40.8	-43.6	12.1	3.03e-04	0	60	0	409993216	52	5218
2026-01-16 22:30:55.93	44.54	17.78	-40.8	-43.7	12.0	3.17e-04	0	60	0	413138944	52	5279
2026-01-16 22:30:56.94	44.70	17.87	-40.9	-43.8	12.0	3.30e-04	0	59	0	416284672	52	5286
2026-01-16 22:30:57.95	44.86	17.95	-40.8	-43.6	12.1	2.78e-04	0	60	0	419430400	52	5216
2026-01-16 22:30:58.96	45.03	18.04	-40.7	-43.5	12.3	2.07e-04	0	59	0	422576128	52	5153
2026-01-16 22:30:59.97	45.19	18.13	-40.7	-43.5	12.3	1.89e-04	0	60	0	425721856	52	5101
2026-01-16 22:31:00.98	45.36	18.21	-40.6	-43.4	12.4	1.62e-04	0	59	0	428867584	52	5056
2026-01-16 22:31:01.99	45.53	18.30	-40.5	-43.2	12.6	1.08e-04	0	60	0	432013312	52	4958
2026-01-16 22:31:03.00	45.70	18.39	-40.5	-43.1	12.7	9.00e-05	0	60	0	435159040	52	4915
2026-01-16 22:31:04.01	45.87	18.47	-40.5	-43.1	12.7	7.78e-05	0	60	0	438304768	52	4905
2026-01-16 22:31:05.02	46.04	18.56	-40.4	-43.0	12.8	6.71e-05	0	60	0	441450496	52	4847
2026-01-16 22:31:06.03	46.21	18.65	-40.4	-43.0	12.8	7.01e-05	0	60	0	444596224	52	4853
2026-01-16 22:31:07.03	46.38	18.74	-40.4	-42.9	12.9	4.65e-05	0	60	0	447741952	52	4805
2026-01-16 22:31:08.05	46.55	18.82	-40.4	-42.9	12.9	4.27e-05	0	59	0	450887680	52	4814
2026-01-16 22:31:09.06	46.73	18.91	-40.4	-42.9	12.9	4.80e-05	0	60	0	454033408	52	4799
2026-01-16 22:31:10.06	46.90	19.00	-40.3	-42.9	12.9	4.73e-05	0	60	0	457179136	52	4792
2026-01-16 22:31:11.07	47.08	19.09	-40.3	-42.9	12.9	4.50e-05	0	60	0	460324864	52	4791
2026-01-16 22:31:12.09	47.26	19.17	-40.3	-42.8	13.0	3.28e-05	0	60	0	463470592	52	4738
2026-01-16 22:31:13.10	47.43	19.26	-40.3	-42.8	13.1	3.58e-05	0	59	0	466616320	52	4715
2026-01-16 22:31:14.11	47.61	19.35	-40.1	-42.6	13.2	2.89e-05	0	60	0	469762048	52	4614
2026-01-16 22:31:15.11	47.79	19.44	-40.1	-42.5	13.3	1.83e-05	0	60	0	472907776	52	4564
2026-01-16 22:31:16.12	47.97	19.52	-40.0	-42.4	13.4	9.90e-06	0	60	0	476053504	52	4528
2026-01-16 22:31:17.13	48.16	19.61	-40.0	-42.4	13.4	1.29e-05	0	60	0	479199232	52	4528
2026-01-16 22:31:18.14	48.34	19.70	-40.1	-42.5	13.4	1.06e-05	0	60	0	482344960	51	4830
2026-01-16 22:31:19.15	48.52	19.79	-40.1	-42.5	13.4	9.90e-06	0	60	0	485490688	51	4837
2026-01-16 22:31:20.16	48.71	19.88	-40.1	-42.5	13.4	2.21e-05	0	60	0	488636416	51	4835
2026-01-16 22:31:21.17	48.89	19.96	-40.2	-42.6	13.3	1.44e-05	0	60	0	491782144	51	4879
2026-01-16 22:31:22.18	49.08	20.05	-40.0	-42.4	13.5	9.90e-06	0	60	0	494927872	51	4805
2026-01-16 22:31:23.19	49.27	20.14	-40.1	-42.5	13.5	8.30e-06	0	60	0	498073600	51	4823
2026-01-16 22:31:24.20	49.46	20.23	-40.1	-42.5	13.4	1.60e-05	0	60	0	501219328	51	4846
2026-01-16 22:31:25.21	49.65	20.32	-40.1	-42.5	13.4	1.37e-05	0	60	0	504365056	51	4848
2026-01-16 22:31:26.22	49.84	20.40	-40.1	-42.5	13.4	1.44e-05	0	60	0	507510784	51	4841
2026-01-16 22:31:27.23	50.03	20.49	-40.1	-42.5	13.4	1.22e-05	0	60	0	510656512	51	4844
2026-01-16 22:31:28.24	50.23	20.58	-40.0	-42.4	13.6	1.14e-05	0	60	0	513802240	51	4761
2026-01-16 22:31:29.26	50.43	20.67	-39.9	-42.3	13.6	9.90e-06	0	60	0	516947968	51	4716
2026-01-16 22:31:30.26	50.62	20.75	-39.9	-42.3	13.7	5.30e-06	0	60	0	520093696	51	4712
2026-01-16 22:31:31.28	50.82	20.84	-39.9	-42.2	13.7	6.10e-06	0	60	0	523239424	51	4697
2026-01-16 22:31:32.29	51.02	20.93	-39.9	-42.1	13.8	4.50e-06	0	60	0	526385152	51	4646
2026-01-16 22:31:33.30	51.22	21.02	-39.7	-42.0	13.9	3.00e-06	0	60	0	529530880	51	4557
2026-01-16 22:31:34.31	51.42	21.11	-39.7	-41.9	14.0	3.00e-06	0	60	0	532676608	51	4513
2026-01-16 22:31:35.32	51.62	21.19	-39.6	-41.8	14.1	2.20e-06	0	60	0	535822336	51	4464
2026-01-16 22:31:36.33	51.82	21.28	-39.6	-41.8	14.2	5.30e-06	0	60	0	538968064	51	4443
2026-01-16 22:31:37.34	52.02	21.37	-39.5	-41.6	14.3	1.50e-06	0	60	0	542113792	50	4650
2026-01-16 22:31:38.35	52.23	21.46	-39.5	-41.6	14.3	7.00e-07	0	60	0	545259520	50	4625
2026-01-16 22:31:39.36	52.44	21.55	-39.4	-41.5	14.4	1.50e-06	0	60	0	548405248	50	4596
2026-01-16 22:31:40.37	52.64	21.63	-39.4	-41.5	14.4	0.00e+00	0	60	0	551550976	50	4564
2026-01-16 22:31:41.38	52.85	21.72	-39.4	-41.6	14.4	7.00e-07	0	60	0	554696704	50	4602
2026-01-16 22:31:42.39	53.06	21.81	-39.5	-41.6	14.4	7.00e-07	0	60	0	557842432	50	4621
2026-01-16 22:31:43.40	53.27	21.89	-39.4	-41.5	14.4	7.00e-07	0	60	0	560988160	50	4598
2026-01-16 22:31:44.41	53.48	21.98	-39.4	-41.4	14.5	2.20e-06	0	60	0	564133888	50	4541
2026-01-16 22:31:45.42	53.70	22.07	-39.4	-41.5	14.5	1.50e-06	0	60	0	567279616	50	4568
2026-01-16 22:31:46.43	53.91	22.16	-39.4	-41.4	14.5	0.00e+00	0	60	0	570425344	50	4544
2026-01-16 22:31:47.44	54.13	22.24	-39.4	-41.5	14.5	7.00e-07	0	60	0	573571072	50	4546
2026-01-16 22:31:48.45	54.34	22.33	-39.3	-41.4	14.6	0.00e+00	0	60	0	576716800	50	4522
2026-01-16 22:31:49.46	54.56	22.42	-39.4	-41.5	14.5	0.00e+00	0	60	0	579862528	50	4553
2026-01-16 22:31:50.47	54.78	22.50	-39.4	-41.4	14.5	7.00e-07	0	60	0	583008256	50	4545
2026-01-16 22:31:51.48	55.00	22.59	-39.4	-41.5	14.5	0.00e+00	0	60	0	586153984	50	4567
2026-01-16 22:31:52.49	55.22	22.68	-39.4	-41.5	14.5	1.50e-06	0	60	0	589299712	50	4553
2026-01-16 22:31:53.49	55.44	22.76	-39.3	-41.4	14.6	0.00e+00	0	60	0	592445440	50	4495
2026-01-16 22:31:54.50	55.66	22.85	-39.3	-41.4	14.6	0.00e+00	0	60	0	595591168	50	4508
2026-01-16 22:31:55.51	55.89	22.93	-39.3	-41.3	14.7	0.00e+00	0	60	0	598736896	50	4476
2026-01-16 22:31:56.52	56.11	23.02	-39.3	-41.4	14.6	7.00e-07	0	60	0	601882624	50	4516
2026-01-16 22:31:57.53	56.34	23.10	-39.3	-41.3	14.7	0.00e+00	0	60	0	605028352	50	4493
2026-01-16 22:31:58.55	56.57	23.19	-39.4	-41.5	14.5	0.00e+00	0	60	0	608174080	50	4553
2026-01-16 22:31:59.56	56.80	23.27	-39.4	-41.5	14.5	0.00e+00	0	60	0	611319808	50	4591
2026-01-16 22:32:00.56	57.03	23.36	-39.5	-41.7	14.3	0.00e+00	0	60	0	614465536	50	4659
2026-01-16 22:32:01.57	57.26	23.44	-39.5	-41.7	14.3	7.00e-07	0	60	0	617611264	50	4678
2026-01-16 22:32:02.58	57.50	23.53	-39.6	-41.8	14.2	2.20e-06	0	60	0	620756992	50	4728
2026-01-16 22:32:03.59	57.73	23.61	-39.6	-41.8	14.2	1.50e-06	0	60	0	623902720	50	4743
2026-01-16 22:32:04.60	57.97	23.70	-39.7	-41.9	14.1	1.50e-06	0	60	0	627048448	50	4804
2026-01-16 22:32:05.61	58.21	23.78	-39.7	-41.9	14.1	7.00e-07	0	60	0	630194176	50	4804
2026-01-16 22:32:06.62	58.44	23.86	-39.7	-41.9	14.1	7.00e-07	0	60	0	633339904	50	4798
2026-01-16 22:32:07.63	58.68	23.95	-39.7	-41.9	14.1	1.50e-06	0	60	0	636485632	50	4792
2026-01-16 22:32:08.64	58.92	24.03	-39.7	-41.9	14.2	7.00e-07	0	60	0	639631360	50	4787
2026-01-16 22:32:09.65	59.17	24.11	-39.7	-41.8	14.2	0.00e+00	0	60	0	642777088	50	4755
2026-01-16 22:32:10.66	59.41	24.20	-39.7	-41.9	14.1	7.00e-07	0	60	0	645922816	50	4803
2026-01-16 22:32:11.66	59.65	24.28	-39.7	-41.9	14.1	3.80e-06	0	60	0	649068544	50	4808
2026-01-16 22:32:12.67	59.90	24.36	-39.8	-42.0	14.0	3.80e-06	0	60	0	652214272	50	4839
2026-01-16 22:32:13.69	60.15	24.44	-39.8	-42.1	14.0	5.30e-06	0	60	0	655360000	50	4873
2026-01-16 22:32:14.70	60.40	24.52	-39.8	-42.0	14.0	5.30e-06	0	60	0	658505728	50	4865
2026-01-16 22:32:15.71	60.65	24.61	-39.8	-42.0	14.0	5.30e-06	0	60	0	662700032	50	4849
2026-01-16 22:32:16.72	60.90	24.69	-39.8	-42.0	14.0	2.20e-06	0	60	0	664797184	50	4832
2026-01-16 22:32:17.73	61.15	24.77	-39.8	-42.0	14.0	7.00e-07	0	60	0	667942912	50	4838
2026-01-16 22:32:18.74	61.40	24.85	-39.8	-42.0	14.0	3.80e-06	0	60	0	671088640	50	4860
2026-01-16 22:32:19.75	61.66	24.93	-39.9	-42.1	13.9	3.80e-06	0	60	0	675282944	50	4918
2026-01-16 22:32:20.76	61.91	25.01	-40.0	-42.3	13.7	3.80e-06	0	60	0	678428672	50	4994
2026-01-16 22:32:21.77	62.17	25.09	-40.1	-42.4	13.6	5.30e-06	0	60	0	681574400	50	5072
2026-01-16 22:32:22.78	62.43	25.16	-40.2	-42.7	13.3	1.83e-05	0	60	0	684720128	51	4928
2026-01-16 22:32:23.79	62.69	25.24	-40.3	-42.7	13.3	2.21e-05	0	60	0	686817280	51	4954
2026-01-16 22:32:24.80	62.95	25.32	-40.3	-42.8	13.2	2.44e-05	0	60	0	691011584	51	4998
2026-01-16 22:32:25.81	63.21	25.40	-40.3	-42.7	13.3	1.83e-05	0	60	0	694157312	51	4972
2026-01-16 22:32:26.81	63.48	25.48	-40.1	-42.5	13.5	1.14e-05	0	60	0	697303040	51	4839
2026-01-16 22:32:27.82	63.74	25.55	-40.0	-42.3	13.7	2.20e-06	0	60	0	700448768	51	4730
2026-01-16 22:32:28.83	64.01	25.63	-39.9	-42.2	13.8	5.30e-06	0	60	0	703594496	51	4683
2026-01-16 22:32:29.84	64.28	25.71	-39.8	-42.0	13.9	4.50e-06	0	60	0	706740224	51	4598
2026-01-16 22:32:30.85	64.54	25.78	-39.8	-42.0	13.9	2.20e-06	0	60	0	709885952	51	4587
2026-01-16 22:32:31.86	64.81	25.86	-39.9	-42.1	13.9	1.50e-06	0	60	0	713031680	51	4624
2026-01-16 22:32:32.87	65.09	25.93	-39.9	-42.1	13.9	3.80e-06	0	60	0	716177408	51	4641
2026-01-16 22:32:33.88	65.36	26.01	-39.9	-42.2	13.9	5.30e-06	0	60	0	719323136	51	4669
2026-01-16 22:32:34.89	65.63	26.08	-39.9	-42.1	13.9	5.30e-06	0	60	0	722468864	51	4650
2026-01-16 22:32:35.90	65.91	26.15	-39.9	-42.2	13.9	5.30e-06	0	60	0	725614592	51	4667
2026-01-16 22:32:36.91	66.18	26.23	-39.9	-42.2	13.9	1.50e-06	0	60	0	728760320	51	4676
2026-01-16 22:32:37.92	66.46	26.30	-39.9	-42.1	14.0	4.50e-06	0	60	0	731906048	51	4624
2026-01-16 22:32:38.93	66.74	26.37	-39.8	-42.0	14.1	0.00e+00	0	60	0	735051776	51	4565
2026-01-16 22:32:39.94	67.02	26.44	-39.7	-41.9	14.2	2.20e-06	0	60	0	738197504	51	4520
2026-01-16 22:32:40.95	67.30	26.51	-39.8	-42.0	14.1	0.00e+00	0	60	0	741343232	51	4546
2026-01-16 22:32:41.96	67.58	26.58	-39.8	-42.0	14.0	4.50e-06	0	60	0	744488960	51	4571
2026-01-16 22:32:42.97	67.87	26.65	-39.9	-42.1	13.9	1.50e-06	0	60	0	747634688	51	4626
2026-01-16 22:32:43.98	68.15	26.72	-39.9	-42.1	14.0	2.20e-06	0	60	0	750780416	51	4613
2026-01-16 22:32:44.99	68.44	26.79	-39.9	-42.1	13.9	5.30e-06	0	60	0	753926144	51	4636
2026-01-16 22:32:46.00	68.73	26.86	-39.8	-42.0	14.1	3.80e-06	0	60	0	757071872	51	4579
2026-01-16 22:32:47.01	69.02	26.92	-39.7	-41.9	14.2	1.50e-06	0	60	0	760217600	51	4529
2026-01-16 22:32:48.01	69.30	26.99	-39.7	-41.8	14.3	7.00e-07	0	60	0	763363328	51	4475
2026-01-16 22:32:49.02	69.59	27.06	-39.7	-41.8	14.3	2.20e-06	0	60	0	766509056	51	4487
2026-01-16 22:32:50.03	69.89	27.12	-39.8	-42.0	14.1	2.20e-06	0	60	0	769654784	51	4550
2026-01-16 22:32:51.04	70.18	27.19	-39.8	-42.0	14.0	2.20e-06	0	60	0	772800512	51	4593
2026-01-16 22:32:52.05	70.48	27.25	-39.9	-42.1	14.0	2.20e-06	0	60	0	775946240	51	4636
2026-01-16 22:32:53.06	70.77	27.32	-39.8	-42.0	14.1	2.20e-06	0	60	0	779091968	51	4554
2026-01-16 22:32:54.07	71.07	27.38	-39.7	-41.9	14.2	2.20e-06	0	60	0	782237696	51	4508
2026-01-16 22:32:55.09	71.37	27.44	-39.6	-41.7	14.3	1.50e-06	0	60	0	785383424	51	4428
2026-01-16 22:32:56.09	71.67	27.50	-39.6	-41.8	14.3	1.50e-06	0	60	0	788529152	51	4457
2026-01-16 22:32:57.10	71.97	27.56	-39.8	-42.0	14.1	7.00e-07	0	60	0	791674880	51	4553
2026-01-16 22:32:58.12	72.27	27.62	-39.9	-42.1	14.0	7.00e-07	0	60	0	794820608	51	4632
2026-01-16 22:32:59.13	72.57	27.68	-40.0	-42.2	13.9	3.80e-06	0	60	0	797966336	51	4690
2026-01-16 22:33:00.14	72.88	27.74	-39.9	-42.1	14.0	3.80e-06	0	60	0	801112064	51	4643
2026-01-16 22:33:01.14	73.18	27.80	-39.9	-42.2	13.9	1.50e-06	0	60	0	804257792	51	4661
2026-01-16 22:33:02.15	73.49	27.86	-39.9	-42.1	14.0	2.20e-06	0	60	0	807403520	51	4634
2026-01-16 22:33:03.16	73.79	27.91	-39.9	-42.1	14.1	2.20e-06	0	60	0	810549248	51	4616
2026-01-16 22:33:04.17	74.10	27.97	-39.8	-42.0	14.1	0.00e+00	0	60	0	813694976	51	4594
2026-01-16 22:33:05.18	74.41	28.03	-39.9	-42.1	14.0	7.00e-07	0	60	0	816840704	51	4635
2026-01-16 22:33:06.19	74.72	28.08	-40.0	-42.2	13.9	3.80e-06	0	60	0	819986432	51	4700
2026-01-16 22:33:07.20	75.03	28.13	-40.0	-42.3	13.8	7.60e-06	0	60	0	823132160	51	4738
2026-01-16 22:33:08.21	75.34	28.19	-40.1	-42.4	13.8	4.50e-06	0	60	0	826277888	51	4770
2026-01-16 22:33:09.21	75.66	28.24	-40.0	-42.3	13.8	5.30e-06	0	60	0	829423616	51	4728
2026-01-16 22:33:10.22	75.97	28.29	-40.0	-42.3	13.8	2.20e-06	0	60	0	832569344	51	4732
2026-01-16 22:33:11.23	76.28	28.34	-40.1	-42.3	13.8	6.10e-06	0	60	0	835715072	51	4749
2026-01-16 22:33:12.24	76.60	28.39	-40.1	-42.3	13.8	2.20e-06	0	60	0	838860800	51	4736
2026-01-16 22:33:13.25	76.92	28.44	-40.0	-42.3	13.8	8.30e-06	0	60	0	842006528	51	4737
2026-01-16 22:33:14.26	77.24	28.48	-40.1	-42.4	13.8	8.30e-06	0	60	0	845152256	51	4779
2026-01-16 22:33:15.27	77.56	28.53	-40.1	-42.3	13.8	8.30e-06	0	60	0	848297984	51	4756
2026-01-16 22:33:16.28	77.88	28.58	-40.1	-42.3	13.9	8.30e-06	0	60	0	851443712	51	4742
2026-01-16 22:33:17.29	78.20	28.62	-40.1	-42.3	13.8	3.80e-06	0	60	0	854589440	51	4758
2026-01-16 22:33:18.30	78.52	28.67	-40.1	-42.3	13.8	7.00e-07	0	60	0	857735168	51	4745
2026-01-16 22:33:19.31	78.84	28.71	-40.2	-42.5	13.7	6.10e-06	0	60	0	860880896	51	4827
2026-01-16 22:33:20.32	79.17	28.75	-40.1	-42.5	13.7	5.30e-06	0	60	0	864026624	51	4815
2026-01-16 22:33:21.33	79.49	28.79	-40.1	-42.4	13.8	3.00e-06	0	60	0	867172352	51	4767
2026-01-16 22:33:22.34	79.82	28.83	-40.0	-42.3	13.9	2.20e-06	0	60	0	870318080	51	4719
2026-01-16 22:33:23.35	80.14	28.87	-40.1	-42.3	13.8	3.00e-06	0	60	0	873463808	51	4752
2026-01-16 22:33:24.35	80.47	28.91	-40.1	-42.4	13.8	0.00e+00	0	60	0	876609536	51	4769
2026-01-16 22:33:25.36	80.79	28.95	-40.2	-42.5	13.7	6.10e-06	0	60	0	879755264	51	4825
2026-01-16 22:33:26.37	81.12	28.99	-40.3	-42.7	13.5	5.30e-06	0	60	0	882900992	51	4930
2026-01-16 22:33:27.38	81.45	29.02	-40.3	-42.7	13.4	8.30e-06	0	60	0	886046720	51	4981
2026-01-16 22:33:28.39	81.78	29.06	-40.3	-42.7	13.5	1.06e-05	0	60	0	889192448	51	4962
2026-01-16 22:33:29.40	82.11	29.09	-40.2	-42.5	13.7	5.30e-06	0	60	0	892338176	51	4869
2026-01-16 22:33:30.41	82.44	29.13	-40.1	-42.4	13.8	6.80e-06	0	60	0	895483904	51	4764
2026-01-16 22:33:31.42	82.77	29.16	-40.1	-42.3	13.9	3.80e-06	0	60	0	898629632	51	4734
2026-01-16 22:33:32.43	83.11	29.19	-40.1	-42.4	13.8	1.50e-06	0	60	0	901775360	51	4781
2026-01-16 22:33:33.44	83.44	29.22	-40.2	-42.6	13.6	3.80e-06	0	60	0	904921088	51	4901
2026-01-16 22:33:34.45	83.77	29.25	-40.2	-42.5	13.7	5.30e-06	0	60	0	908066816	51	4840
2026-01-16 22:33:35.46	84.11	29.28	-40.1	-42.3	13.9	1.50e-06	0	60	0	911212544	51	4747
2026-01-16 22:33:36.47	84.44	29.30	-40.0	-42.2	14.0	3.00e-06	0	60	0	914358272	51	4661
2026-01-16 22:33:37.48	84.78	29.33	-40.0	-42.2	14.0	6.80e-06	0	60	0	917504000	51	4697
2026-01-16 22:33:38.49	85.12	29.35	-40.0	-42.2	14.0	2.20e-06	0	60	0	920649728	51	4684
2026-01-16 22:33:39.50	85.45	29.38	-40.0	-42.2	14.0	7.00e-07	0	60	0	923795456	51	4691
2026-01-16 22:33:40.51	85.79	29.40	-40.1	-42.4	13.8	1.50e-06	0	60	0	926941184	51	4786
2026-01-16 22:33:41.52	86.13	29.42	-40.3	-42.6	13.6	3.80e-06	0	60	0	930086912	51	4908
2026-01-16 22:33:42.53	86.47	29.44	-40.2	-42.5	13.8	7.60e-06	0	60	0	933232640	51	4825
2026-01-16 22:33:43.54	86.80	29.46	-40.0	-42.3	14.0	1.50e-06	0	60	0	936378368	51	4712
2026-01-16 22:33:44.55	87.14	29.48	-40.0	-42.2	14.0	3.00e-06	0	60	0	939524096	51	4695
2026-01-16 22:33:45.56	87.48	29.50	-40.1	-42.4	13.8	3.00e-06	0	60	0	942669824	51	4787
2026-01-16 22:33:46.57	87.82	29.51	-40.1	-42.4	13.8	9.90e-06	0	61	0	945815552	51	4800
2026-01-16 22:33:47.58	88.16	29.53	-40.2	-42.5	13.7	2.20e-06	0	60	0	948961280	51	4815
2026-01-16 22:33:48.59	88.50	29.54	-40.2	-42.5	13.7	6.80e-06	0	60	0	952107008	51	4827
2026-01-16 22:33:49.60	88.84	29.56	-40.1	-42.3	13.9	5.30e-06	0	60	0	955252736	51	4754
2026-01-16 22:33:50.61	89.18	29.57	-40.1	-42.3	13.9	4.50e-06	0	60	0	958398464	51	4748
2026-01-16 22:33:51.62	89.52	29.58	-40.1	-42.3	13.9	2.20e-06	0	60	0	961544192	51	4736
2026-01-16 22:33:52.63	89.87	29.59	-40.1	-42.3	13.9	5.30e-06	0	60	0	964689920	51	4737
2026-01-16 22:33:53.64	90.21	29.60	-40.0	-42.2	14.0	7.00e-07	0	60	0	967835648	51	4671
2026-01-16 22:33:54.65	90.55	29.61	-39.9	-42.0	14.2	7.00e-07	0	60	0	970981376	51	4595
2026-01-16 22:33:55.66	90.89	29.61	-39.9	-42.0	14.2	1.50e-06	0	61	0	974127104	51	4576
2026-01-16 22:33:56.67	91.23	29.62	-40.0	-42.2	14.1	3.00e-06	0	60	0	977272832	51	4659
2026-01-16 22:33:57.68	91.58	29.62	-40.1	-42.4	13.9	1.50e-06	0	60	0	980418560	51	4775
2026-01-16 22:33:58.69	91.92	29.63	-40.2	-42.6	13.7	4.50e-06	0	60	0	983564288	51	4885
2026-01-16 22:33:59.70	92.26	29.63	-40.3	-42.7	13.6	7.60e-06	0	60	0	986710016	51	4944
2026-01-16 22:34:00.71	92.60	29.63	-40.3	-42.7	13.6	9.10e-06	0	60	0	989855744	51	4936
2026-01-16 22:34:01.72	92.94	29.63	-40.3	-42.6	13.7	6.10e-06	0	61	0	993001472	51	4897
2026-01-16 22:34:02.73	93.29	29.63	-40.2	-42.5	13.8	6.10e-06	0	60	0	996147200	51	4835
2026-01-16 22:34:03.73	93.63	29.63	-40.1	-42.4	13.9	2.20e-06	0	61	0	999292928	51	4790
2026-01-16 22:34:04.74	93.97	29.63	-40.2	-42.5	13.8	4.50e-06	0	60	0	1002438656	51	4824
2026-01-16 22:34:05.76	94.31	29.62	-40.2	-42.5	13.7	8.30e-06	0	60	0	1005584384	51	4852
2026-01-16 22:34:06.76	94.65	29.62	-40.3	-42.6	13.6	7.60e-06	0	60	0	1008730112	51	4924
2026-01-16 22:34:07.78	95.00	29.61	-40.4	-42.7	13.5	4.50e-06	0	60	0	1011875840	51	4975
2026-01-16 22:34:08.78	95.34	29.60	-40.4	-42.8	13.5	1.22e-05	0	60	0	1015021568	51	5009
2026-01-16 22:34:09.80	95.68	29.59	-40.4	-42.8	13.5	1.60e-05	0	61	0	1018167296	51	5025
2026-01-16 22:34:10.80	96.02	29.58	-40.3	-42.6	13.6	6.10e-06	0	61	0	1022361600	51	4923
2026-01-16 22:34:11.82	96.37	29.57	-40.3	-42.6	13.7	1.14e-05	0	60	0	1025507328	51	4914
2026-01-16 22:34:12.82	96.70	29.56	-40.3	-42.6	13.7	7.60e-06	0	60	0	1027604480	51	4908
2026-01-16 22:34:13.84	97.05	29.55	-40.3	-42.6	13.6	6.80e-06	0	60	0	1030750208	51	4922
2026-01-16 22:34:14.85	97.39	29.53	-40.3	-42.6	13.7	5.30e-06	0	61	0	1033895936	51	4925
2026-01-16 22:34:15.85	97.73	29.52	-40.3	-42.6	13.6	1.14e-05	0	61	0	1038090240	51	4924
2026-01-16 22:34:16.86	98.07	29.50	-40.3	-42.6	13.6	5.30e-06	0	60	0	1041235968	51	4926
2026-01-16 22:34:17.88	98.41	29.49	-40.2	-42.4	13.9	3.00e-06	0	60	0	1044381696	51	4803
2026-01-16 22:34:18.89	98.75	29.47	-40.2	-42.6	13.7	2.20e-06	0	61	0	1047527424	51	4879
2026-01-16 22:34:19.89	99.08	29.45	-40.3	-42.6	13.6	6.10e-06	0	61	0	1050673152	51	4924
2026-01-16 22:34:20.90	99.42	29.43	-40.2	-42.6	13.8	5.30e-06	0	60	0	1053818880	51	4881
2026-01-16 22:34:21.92	99.76	29.41	-40.1	-42.4	13.9	3.80e-06	0	61	0	1056964608	51	4798
2026-01-16 22:34:22.93	100.10	29.38	-40.1	-42.3	14.0	2.20e-06	0	61	0	1060110336	51	4747
2026-01-16 22:34:23.94	100.44	29.36	-40.1	-42.3	14.0	5.30e-06	0	60	0	1063256064	51	4751
2026-01-16 22:34:24.95	100.77	29.33	-40.1	-42.4	13.9	1.50e-06	0	60	0	1066401792	51	4768
2026-01-16 22:34:25.96	101.11	29.31	-40.2	-42.5	13.8	4.50e-06	0	61	0	1069547520	51	4867
2026-01-16 22:34:26.97	101.45	29.28	-40.3	-42.6	13.7	5.30e-06	0	60	0	1072693248	51	4910
2026-01-16 22:34:27.98	101.78	29.25	-40.2	-42.5	13.8	6.80e-06	0	60	0	1075838976	51	4855
2026-01-16 22:34:28.99	102.12	29.23	-40.1	-42.4	13.9	3.00e-06	0	61	0	1078984704	51	4792
2026-01-16 22:34:30.00	102.45	29.20	-40.1	-42.4	13.9	7.00e-07	0	60	0	1082130432	51	4770
2026-01-16 22:34:31.01	102.78	29.17	-40.1	-42.4	13.9	4.50e-06	0	61	0	1085276160	51	4802
2026-01-16 22:34:32.01	103.11	29.13	-40.1	-42.4	14.0	5.30e-06	0	60	0	1088421888	51	4760
2026-01-16 22:34:33.02	103.45	29.10	-39.9	-42.1	14.1	3.00e-06	0	60	0	1091567616	51	4640
2026-01-16 22:34:34.03	103.78	29.07	-39.8	-42.0	14.4	7.00e-07	0	61	0	1094713344	51	4549
2026-01-16 22:34:35.04	104.11	29.03	-39.9	-42.0	14.3	0.00e+00	0	60	0	1097859072	51	4583
2026-01-16 22:34:36.05	104.44	29.00	-39.9	-42.1	14.2	1.50e-06	0	61	0	1101004800	51	4600
2026-01-16 22:34:37.06	104.77	28.96	-40.0	-42.2	14.1	7.00e-07	0	60	0	1104150528	51	4675
2026-01-16 22:34:38.07	105.10	28.92	-40.1	-42.4	13.9	4.50e-06	0	60	0	1107296256	51	4764
2026-01-16 22:34:39.08	105.42	28.88	-40.2	-42.5	13.7	3.80e-06	0	61	0	1110441984	51	4852
2026-01-16 22:34:40.09	105.75	28.84	-40.2	-42.5	13.8	7.60e-06	0	60	0	1113587712	51	4856
2026-01-16 22:34:41.10	106.08	28.80	-40.2	-42.5	13.9	3.80e-06	0	60	0	1116733440	51	4815
2026-01-16 22:34:42.11	106.40	28.76	-40.2	-42.4	13.9	4.50e-06	0	60	0	1119879168	51	4802
2026-01-16 22:34:43.12	106.73	28.72	-40.1	-42.4	13.9	3.80e-06	0	61	0	1123024896	51	4802
2026-01-16 22:34:44.13	107.05	28.68	-40.1	-42.4	13.9	1.50e-06	0	60	0	1126170624	51	4791
2026-01-16 22:34:45.14	107.37	28.63	-40.1	-42.3	14.0	3.00e-06	0	60	0	1129316352	51	4745
2026-01-16 22:34:46.15	107.70	28.59	-40.1	-42.4	13.9	3.00e-06	0	60	0	1132462080	51	4783
2026-01-16 22:34:47.16	108.02	28.54	-40.2	-42.4	13.9	3.00e-06	0	60	0	1135607808	51	4800
2026-01-16 22:34:48.17	108.34	28.49	-40.1	-42.4	13.9	6.10e-06	0	61	0	1138753536	51	4798
2026-01-16 22:34:49.18	108.66	28.45	-40.1	-42.3	14.0	3.80e-06	0	60	0	1141899264	51	4726
2026-01-16 22:34:50.19	108.98	28.40	-40.0	-42.2	14.1	7.00e-07	0	61	0	1145044992	51	4692
2026-01-16 22:34:51.20	109.29	28.35	-40.0	-42.2	14.1	7.00e-07	0	61	0	1148190720	51	4661
2026-01-16 22:34:52.21	109.61	28.30	-40.0	-42.3	14.0	1.50e-06	0	60	0	1151336448	51	4712
2026-01-16 22:34:53.22	109.92	28.25	-40.1	-42.3	14.0	2.20e-06	0	61	0	1154482176	51	4751
2026-01-16 22:34:54.23	110.24	28.20	-40.1	-42.4	13.9	6.10e-06	0	61	0	1157627904	51	4764
2026-01-16 22:34:55.24	110.55	28.14	-40.2	-42.5	13.9	6.10e-06	0	60	0	1160773632	51	4818
2026-01-16 22:34:56.24	110.86	28.09	-40.1	-42.4	13.9	2.20e-06	0	61	0	1163919360	51	4799
2026-01-16 22:34:57.26	111.18	28.04	-40.2	-42.4	13.9	5.30e-06	0	61	0	1167065088	51	4812
2026-01-16 22:34:58.26	111.48	27.98	-40.1	-42.4	13.9	3.00e-06	0	60	0	1170210816	51	4797
2026-01-16 22:34:59.27	111.79	27.92	-40.0	-42.2	14.1	2.20e-06	0	61	0	1173356544	51	4701
2026-01-16 22:35:00.28	112.10	27.87	-40.0	-42.2	14.1	1.50e-06	0	61	0	1176502272	51	4653
2026-01-16 22:35:01.29	112.41	27.81	-39.9	-42.1	14.2	7.00e-07	0	60	0	1179648000	51	4647
2026-01-16 22:35:02.30	112.72	27.75	-39.9	-42.1	14.2	1.50e-06	0	61	0	1182793728	51	4634
2026-01-16 22:35:03.31	113.02	27.69	-39.8	-42.0	14.4	7.00e-07	0	61	0	1185939456	51	4567
2026-01-16 22:35:04.32	113.33	27.63	-39.9	-42.1	14.3	1.50e-06	0	61	0	1189085184	51	4620
2026-01-16 22:35:05.33	113.63	27.57	-40.0	-42.2	14.1	7.00e-07	0	61	0	1192230912	51	4696
2026-01-16 22:35:06.34	113.93	27.51	-40.1	-42.4	14.0	1.50e-06	0	61	0	1195376640	51	4765
2026-01-16 22:35:07.36	114.23	27.45	-40.2	-42.4	13.9	5.30e-06	0	60	0	1198522368	51	4797
2026-01-16 22:35:08.37	114.53	27.39	-40.2	-42.5	13.9	4.50e-06	0	61	0	1201668096	51	4824
2026-01-16 22:35:09.38	114.83	27.32	-40.1	-42.4	13.9	1.50e-06	0	61	0	1204813824	51	4781
2026-01-16 22:35:10.39	115.13	27.26	-40.0	-42.2	14.1	1.50e-06	0	61	0	1207959552	51	4702
2026-01-16 22:35:11.40	115.42	27.20	-40.0	-42.2	14.1	3.80e-06	0	61	0	1211105280	51	4693
2026-01-16 22:35:12.41	115.72	27.13	-39.9	-42.0	14.3	0.00e+00	0	61	0	1214251008	51	4590
2026-01-16 22:35:13.41	116.01	27.07	-39.9	-42.0	14.3	1.50e-06	0	61	0	1217396736	51	4586
2026-01-16 22:35:14.42	116.30	27.00	-39.9	-42.0	14.3	3.00e-06	0	60	0	1220542464	51	4593
2026-01-16 22:35:15.43	116.59	26.93	-39.9	-42.1	14.2	0.00e+00	0	61	0	1223688192	51	4638
2026-01-16 22:35:16.44	116.88	26.86	-40.0	-42.2	14.1	7.00e-07	0	61	0	1226833920	51	4674
2026-01-16 22:35:17.46	117.18	26.80	-40.0	-42.3	14.1	2.20e-06	0	61	0	1229979648	51	4718
2026-01-16 22:35:18.47	117.46	26.73	-40.0	-42.3	14.1	4.50e-06	0	61	0	1233125376	51	4719
2026-01-16 22:35:19.48	117.75	26.66	-40.0	-42.3	14.0	1.50e-06	0	60	0	1236271104	51	4706
2026-01-16 22:35:20.48	118.03	26.59	-40.1	-42.3	14.0	1.50e-06	0	60	0	1239416832	51	4728
2026-01-16 22:35:21.49	118.32	26.52	-40.1	-42.3	14.0	3.80e-06	0	61	0	1242562560	51	4735
2026-01-16 22:35:22.51	118.60	26.45	-40.1	-42.4	13.9	3.80e-06	0	61	0	1245708288	51	4781
2026-01-16 22:35:23.52	118.88	26.37	-40.1	-42.4	13.9	3.00e-06	0	60	0	1248854016	51	4807
2026-01-16 22:35:24.53	119.16	26.30	-40.2	-42.5	13.8	9.10e-06	0	61	0	1251999744	51	4828
2026-01-16 22:35:25.54	119.44	26.23	-40.1	-42.3	14.0	4.50e-06	0	61	0	1255145472	51	4739
2026-01-16 22:35:26.55	119.72	26.16	-39.9	-42.1	14.2	7.00e-07	0	60	0	1258291200	51	4637
2026-01-16 22:35:27.56	120.00	26.08	-39.9	-42.1	14.2	7.00e-07	0	60	0	1261436928	51	4633
2026-01-16 22:35:28.57	120.27	26.01	-40.0	-42.2	14.1	1.50e-06	0	61	0	1264582656	51	4668
2026-01-16 22:35:29.57	120.54	25.93	-40.0	-42.2	14.1	7.00e-07	0	61	0	1267728384	51	4682
2026-01-16 22:35:30.58	120.82	25.86	-39.9	-42.2	14.2	3.00e-06	0	61	0	1270874112	51	4657
2026-01-16 22:35:31.59	121.09	25.78	-39.9	-42.1	14.2	7.00e-07	0	60	0	1274019840	51	4635
2026-01-16 22:35:32.60	121.36	25.71	-39.9	-42.2	14.1	7.00e-07	0	61	0	1277165568	51	4657
2026-01-16 22:35:33.61	121.63	25.63	-39.9	-42.1	14.2	3.80e-06	0	60	0	1280311296	51	4606
2026-01-16 22:35:34.62	121.90	25.55	-39.8	-42.0	14.3	7.00e-07	0	61	0	1283457024	51	4577
2026-01-16 22:35:35.63	122.16	25.48	-39.7	-41.9	14.4	7.00e-07	0	61	0	1286602752	51	4503
2026-01-16 22:35:36.64	122.43	25.40	-39.7	-41.8	14.5	0.00e+00	0	61	0	1289748480	51	4477
2026-01-16 22:35:37.65	122.69	25.32	-39.6	-41.7	14.6	0.00e+00	0	61	0	1292894208	51	4408
2026-01-16 22:35:38.65	122.95	25.24	-39.5	-41.5	14.9	0.00e+00	0	60	0	1296039936	50	4568
2026-01-16 22:35:39.66	123.21	25.16	-39.4	-41.4	14.9	7.00e-07	0	61	0	1299185664	50	4531
2026-01-16 22:35:40.67	123.47	25.08	-39.6	-41.6	14.7	2.20e-06	0	61	0	1302331392	50	4642
2026-01-16 22:35:41.68	123.73	25.00	-39.6	-41.7	14.6	0.00e+00	0	61	0	1305477120	50	4685
2026-01-16 22:35:42.69	123.99	24.92	-39.7	-41.8	14.5	1.50e-06	0	60	0	1308622848	50	4727
2026-01-16 22:35:43.71	124.25	24.84	-39.7	-41.8	14.4	0.00e+00	0	61	0	1311768576	50	4744
2026-01-16 22:35:44.72	124.50	24.76	-39.7	-41.9	14.4	0.00e+00	0	61	0	1314914304	50	4766
2026-01-16 22:35:45.73	124.76	24.68	-39.7	-41.8	14.5	2.20e-06	0	60	0	1318060032	50	4739
2026-01-16 22:35:46.73	125.01	24.60	-39.7	-41.9	14.4	7.00e-07	0	61	0	1321205760	50	4778
2026-01-16 22:35:47.74	125.26	24.52	-39.8	-42.0	14.3	7.00e-07	0	60	0	1324351488	50	4845
2026-01-16 22:35:48.75	125.51	24.44	-39.9	-42.2	14.2	3.00e-06	0	61	0	1327497216	50	4927
2026-01-16 22:35:49.76	125.76	24.35	-39.9	-42.2	14.1	3.00e-06	0	61	0	1330642944	50	4930
2026-01-16 22:35:50.77	126.00	24.27	-40.0	-42.2	14.1	1.50e-06	0	61	0	1333788672	50	4974
2026-01-16 22:35:51.78	126.25	24.19	-39.9	-42.2	14.1	3.80e-06	0	61	0	1336934400	50	4930
2026-01-16 22:35:52.80	126.50	24.10	-39.9	-42.1	14.1	1.50e-06	0	61	0	1340080128	50	4916
2026-01-16 22:35:53.80	126.74	24.02	-39.9	-42.2	14.1	1.50e-06	0	61	0	1343225856	50	4932
2026-01-16 22:35:54.81	126.98	23.94	-40.0	-42.2	14.0	2.20e-06	0	61	0	1346371584	50	4959
2026-01-16 22:35:55.82	127.22	23.85	-40.0	-42.2	14.0	3.00e-06	0	61	0	1349517312	50	4962
2026-01-16 22:35:56.83	127.46	23.77	-40.0	-42.2	14.1	7.00e-07	0	61	0	1352663040	50	4956
2026-01-16 22:35:57.84	127.70	23.69	-40.0	-42.3	14.0	3.00e-06	0	61	0	1355808768	50	4990
2026-01-16 22:35:58.85	127.94	23.60	-39.9	-42.1	14.1	3.00e-06	0	61	0	1360003072	50	4920
2026-01-16 22:35:59.86	128.17	23.52	-39.9	-42.1	14.2	1.50e-06	0	61	0	1363148800	50	4880
2026-01-16 22:36:00.87	128.41	23.43	-39.9	-42.1	14.2	2.20e-06	0	60	0	1366294528	50	4903
2026-01-16 22:36:01.88	128.64	23.34	-39.9	-42.1	14.1	1.50e-06	0	60	0	1368391680	50	4916
2026-01-16 22:36:02.89	128.87	23.26	-39.9	-42.1	14.2	3.00e-06	0	61	0	1371537408	50	4874
2026-01-16 22:36:03.90	129.10	23.17	-39.8	-41.9	14.3	4.50e-06	0	61	0	1375731712	50	4800
2026-01-16 22:36:04.91	129.33	23.09	-39.7	-41.9	14.3	2.20e-06	0	61	0	1378877440	50	4772
2026-01-16 22:36:05.92	129.56	23.00	-39.7	-41.8	14.4	7.00e-07	0	60	0	1382023168	50	4741
2026-01-16 22:36:06.94	129.79	22.91	-39.6	-41.7	14.5	7.00e-07	0	61	0	1385168896	50	4677
2026-01-16 22:36:07.95	130.02	22.83	-39.6	-41.7	14.6	3.00e-06	0	61	0	1388314624	50	4676
2026-01-16 22:36:08.96	130.24	22.74	-39.6	-41.6	14.6	0.00e+00	0	60	0	1391460352	50	4650
2026-01-16 22:36:09.96	130.46	22.66	-39.6	-41.6	14.6	0.00e+00	0	61	0	1394606080	50	4650
2026-01-16 22:36:10.97	130.69	22.57	-39.5	-41.6	14.6	0.00e+00	0	61	0	1397751808	50	4624
2026-01-16 22:36:11.98	130.91	22.48	-39.5	-41.6	14.6	0.00e+00	0	61	0	1400897536	50	4636
2026-01-16 22:36:12.99	131.13	22.39	-39.7	-41.8	14.4	7.00e-07	0	61	0	1404043264	50	4753
2026-01-16 22:36:14.00	131.35	22.31	-39.9	-42.1	14.1	2.20e-06	0	61	0	1407188992	50	4888
2026-01-16 22:36:15.01	131.56	22.22	-39.9	-42.2	14.1	3.00e-06	0	60	0	1410334720	50	4940
2026-01-16 22:36:16.02	131.78	22.13	-39.9	-42.2	14.0	3.00e-06	0	61	0	1413480448	50	4949
2026-01-16 22:36:17.03	132.00	22.04	-40.0	-42.3	13.9	4.50e-06	0	61	0	1416626176	50	4991
2026-01-16 22:36:18.04	132.21	21.96	-40.0	-42.2	14.0	3.80e-06	0	61	0	1419771904	50	4977
2026-01-16 22:36:19.04	132.42	21.87	-40.0	-42.2	14.0	7.00e-07	0	61	0	1422917632	50	4969
2026-01-16 22:36:20.05	132.63	21.78	-39.9	-42.2	14.0	3.00e-06	0	61	0	1426063360	50	4944
2026-01-16 22:36:21.06	132.84	21.69	-39.9	-42.1	14.1	2.20e-06	0	61	0	1429209088	50	4904
2026-01-16 22:36:22.07	133.05	21.61	-39.8	-42.0	14.1	0.00e+00	0	60	0	1432354816	50	4867
2026-01-16 22:36:23.08	133.26	21.52	-39.8	-42.0	14.2	0.00e+00	0	60	0	1435500544	50	4822
2026-01-16 22:36:24.09	133.47	21.43	-39.8	-42.0	14.2	1.50e-06	0	61	0	1438646272	50	4831
2026-01-16 22:36:25.10	133.67	21.34	-39.8	-42.0	14.2	7.00e-07	0	61	0	1441792000	50	4823
2026-01-16 22:36:26.11	133.88	21.25	-39.8	-42.0	14.1	3.00e-06	0	61	0	1444937728	50	4847
2026-01-16 22:36:27.12	134.08	21.16	-39.9	-42.1	14.0	3.80e-06	0	61	0	1448083456	50	4894
2026-01-16 22:36:28.13	134.29	21.07	-39.9	-42.1	14.1	2.20e-06	0	61	0	1451229184	50	4901
2026-01-16 22:36:29.14	134.49	20.99	-39.8	-42.0	14.1	7.00e-07	0	61	0	1454374912	50	4853
2026-01-16 22:36:30.15	134.69	20.90	-39.9	-42.1	14.0	1.50e-06	0	61	0	1457520640	50	4905
2026-01-16 22:36:31.16	134.89	20.81	-39.9	-42.2	14.0	1.50e-06	0	61	0	1460666368	50	4946
2026-01-16 22:36:32.17	135.08	20.72	-39.9	-42.1	14.0	3.00e-06	0	61	0	1463812096	50	4917
2026-01-16 22:36:33.19	135.28	20.63	-39.8	-42.1	14.1	2.20e-06	0	61	0	1466957824	50	4872
2026-01-16 22:36:34.19	135.48	20.54	-39.8	-42.1	14.1	2.20e-06	0	61	0	1470103552	50	4873
2026-01-16 22:36:35.21	135.67	20.45	-39.8	-42.0	14.1	1.50e-06	0	61	0	1473249280	50	4856
2026-01-16 22:36:36.21	135.87	20.37	-39.8	-42.0	14.1	2.20e-06	0	61	0	1476395008	50	4851
2026-01-16 22:36:37.23	136.06	20.28	-39.8	-42.0	14.1	2.20e-06	0	61	0	1479540736	50	4870
2026-01-16 22:36:38.23	136.25	20.19	-39.9	-42.2	14.0	7.00e-07	0	61	0	1482686464	50	4928
2026-01-16 22:36:39.24	136.44	20.10	-39.9	-42.2	14.0	3.00e-06	0	61	0	1485832192	50	4940
2026-01-16 22:36:40.25	136.63	20.01	-39.9	-42.2	13.9	4.50e-06	0	61	0	1488977920	50	4942
2026-01-16 22:36:41.26	136.82	19.92	-40.0	-42.2	13.9	3.80e-06	0	61	0	1492123648	50	4983
2026-01-16 22:36:42.27	137.00	19.83	-40.0	-42.3	13.8	2.20e-06	0	61	0	1495269376	50	5011
2026-01-16 22:36:43.28	137.19	19.74	-40.1	-42.4	13.7	1.06e-05	0	60	0	1498415104	50	5084
2026-01-16 22:36:44.29	137.38	19.66	-40.2	-42.6	13.5	1.06e-05	0	61	0	1501560832	50	5173
2026-01-16 22:36:45.30	137.56	19.57	-40.2	-42.6	13.5	1.14e-05	0	60	0	1504706560	50	5183
2026-01-16 22:36:46.32	137.74	19.48	-40.2	-42.7	13.4	1.83e-05	0	60	0	1507852288	51	4933
2026-01-16 22:36:47.32	137.92	19.39	-40.2	-42.5	13.6	3.00e-06	0	61	0	1510998016	51	4866
2026-01-16 22:36:48.33	138.11	19.30	-40.2	-42.6	13.5	6.80e-06	0	61	0	1514143744	51	4882
2026-01-16 22:36:49.34	138.29	19.21	-40.2	-42.6	13.5	9.90e-06	0	60	0	1517289472	51	4891
2026-01-16 22:36:50.35	138.46	19.12	-40.2	-42.6	13.5	1.37e-05	0	61	0	1520435200	51	4897
2026-01-16 22:36:51.36	138.64	19.04	-40.1	-42.5	13.6	9.10e-06	0	61	0	1523580928	51	4847
2026-01-16 22:36:52.37	138.82	18.95	-40.1	-42.5	13.5	5.30e-06	0	61	0	1526726656	51	4844
2026-01-16 22:36:53.38	139.00	18.86	-40.1	-42.5	13.5	8.30e-06	0	60	0	1529872384	51	4856
2026-01-16 22:36:54.39	139.17	18.77	-40.1	-42.5	13.6	1.29e-05	0	61	0	1533018112	51	4832
2026-01-16 22:36:55.41	139.35	18.68	-40.1	-42.5	13.5	9.90e-06	0	61	0	1536163840	51	4863
2026-01-16 22:36:56.42	139.52	18.59	-40.1	-42.5	13.5	8.30e-06	0	61	0	1539309568	51	4855
2026-01-16 22:36:57.43	139.69	18.51	-40.2	-42.6	13.5	6.80e-06	0	61	0	1542455296	51	4882
2026-01-16 22:36:58.44	139.86	18.42	-40.1	-42.5	13.6	1.29e-05	0	61	0	1545601024	51	4822
2026-01-16 22:36:59.45	140.03	18.33	-39.9	-42.3	13.8	8.30e-06	0	61	0	1548746752	51	4707
2026-01-16 22:37:00.46	140.20	18.24	-39.8	-42.1	14.0	4.50e-06	0	61	0	1551892480	51	4607
2026-01-16 22:37:01.47	140.37	18.15	-39.9	-42.1	13.9	2.20e-06	0	61	0	1555038208	51	4650
2026-01-16 22:37:02.48	140.54	18.07	-39.9	-42.2	13.8	5.30e-06	0	61	0	1558183936	51	4681
2026-01-16 22:37:03.49	140.70	17.98	-39.8	-42.3	13.6	9.90e-06	0	60	0	1561329664	51	4754
2026-01-16 22:37:04.50	140.87	17.89	-39.9	-42.2	13.8	9.10e-06	0	61	0	1564475392	51	4676
2026-01-16 22:37:05.51	141.03	17.80	-39.9	-42.1	13.9	2.13e-05	0	61	0	1567621120	51	4640
2026-01-16 22:37:06.52	141.20	17.72	-39.9	-42.2	13.8	4.88e-05	0	61	0	1570766848	51	4679
2026-01-16 22:37:07.53	141.36	17.63	-39.9	-42.2	13.8	6.80e-06	0	61	0	1573912576	51	4704
2026-01-16 22:37:08.54	141.52	17.54	-40.0	-42.4	13.6	4.11e-05	0	61	0	1577058304	51	4778
2026-01-16 22:37:09.55	141.68	17.45	-40.1	-42.5	13.5	8.30e-06	0	61	0	1580204032	51	4853
2026-01-16 22:37:10.56	141.84	17.37	-40.2	-42.6	13.4	1.44e-05	0	61	0	1583349760	51	4902
2026-01-16 22:37:11.57	142.00	17.28	-40.2	-42.6	13.3	1.29e-05	0	61	0	1586495488	51	4924
2026-01-16 22:37:12.58	142.16	17.19	-40.3	-42.8	13.2	2.44e-05	0	61	0	1589641216	51	5025
2026-01-16 22:37:13.59	142.32	17.11	-40.1	-42.5	13.4	1.06e-05	0	61	0	1592786944	51	4870
2026-01-16 22:37:14.60	142.47	17.02	-40.0	-42.4	13.6	7.60e-06	0	61	0	1595932672	51	4765
2026-01-16 22:37:15.61	142.63	16.93	-40.0	-42.3	13.7	1.19e-04	0	61	0	1599078400	51	4730
2026-01-16 22:37:16.62	142.78	16.85	-39.9	-42.3	13.7	2.20e-06	0	61	0	1602224128	51	4708
2026-01-16 22:37:17.63	142.94	16.76	-40.0	-42.4	13.6	2.20e-06	0	60	0	1605369856	51	4764
2026-01-16 22:37:18.64	143.09	16.68	-39.9	-42.2	13.7	4.50e-06	0	60	0	1608515584	51	4705
2026-01-16 22:37:19.65	143.24	16.59	-39.9	-42.3	13.7	9.10e-06	0	61	0	1611661312	51	4709
2026-01-16 22:37:20.66	143.39	16.50	-40.0	-42.4	13.6	1.06e-05	0	61	0	1614807040	51	4782
2026-01-16 22:37:21.67	143.54	16.42	-40.0	-42.4	13.6	9.90e-06	0	61	0	1617952768	51	4778
2026-01-16 22:37:22.68	143.69	16.33	-40.0	-42.4	13.5	6.80e-06	0	60	0	1621098496	51	4792
2026-01-16 22:37:23.69	143.84	16.25	-40.1	-42.5	13.4	1.37e-05	0	61	0	1624244224	51	4863
2026-01-16 22:37:24.70	143.99	16.16	-40.2	-42.6	13.2	2.13e-05	0	61	0	1627389952	51	4924
2026-01-16 22:37:25.71	144.14	16.07	-40.2	-42.7	13.2	2.21e-05	0	61	0	1630535680	51	4954
2026-01-16 22:37:26.72	144.28	15.99	-40.3	-42.8	13.1	2.51e-05	0	61	0	1633681408	51	4995
2026-01-16 22:37:27.73	144.43	15.90	-40.3	-42.8	13.1	4.11e-05	0	61	0	1636827136	51	5023
2026-01-16 22:37:28.74	144.57	15.82	-40.2	-42.9	13.0	5.87e-05	0	61	0	1639972864	51	5050
2026-01-16 22:37:29.75	144.72	15.73	-40.3	-42.8	13.0	5.26e-05	0	61	0	1643118592	51	5039
2026-01-16 22:37:30.76	144.86	15.65	-40.3	-42.9	13.0	8.23e-05	0	61	0	1646264320	51	5052
2026-01-16 22:37:31.77	145.00	15.57	-40.4	-42.9	12.9	4.42e-05	0	61	0	1649410048	51	5095
2026-01-16 22:37:32.78	145.14	15.48	-40.4	-43.0	12.9	5.41e-05	0	61	0	1652555776	51	5125
2026-01-16 22:37:33.79	145.28	15.40	-40.3	-42.9	13.0	9.00e-05	0	61	0	1655701504	51	5043
2026-01-16 22:37:34.80	145.42	15.31	-40.4	-43.0	12.9	4.57e-05	0	61	0	1658847232	51	5113
2026-01-16 22:37:35.81	145.56	15.23	-40.4	-43.0	12.9	6.02e-05	0	61	0	1661992960	51	5114
2026-01-16 22:37:36.82	145.70	15.14	-40.5	-43.1	12.7	6.79e-05	0	61	0	1665138688	51	5199
2026-01-16 22:37:37.82	145.84	15.06	-40.5	-43.1	12.7	6.40e-05	0	61	0	1668284416	51	5205
2026-01-16 22:37:38.83	145.98	14.98	-40.5	-43.2	12.7	8.46e-05	0	61	0	1671430144	51	5226
2026-01-16 22:37:39.84	146.11	14.89	-40.5	-43.1	12.7	7.32e-05	0	61	0	1674575872	51	5204
2026-01-16 22:37:40.85	146.25	14.81	-40.5	-43.2	12.6	7.78e-05	0	61	0	1678770176	51	5238
2026-01-16 22:37:41.86	146.38	14.73	-40.5	-43.2	12.6	7.78e-05	0	61	0	1681915904	51	5267
2026-01-16 22:37:42.87	146.52	14.64	-40.5	-43.2	12.6	9.53e-05	0	61	0	1684013056	51	5238
2026-01-16 22:37:43.88	146.65	14.56	-40.5	-43.1	12.7	7.62e-05	0	61	0	1687158784	51	5203
2026-01-16 22:37:44.89	146.78	14.48	-40.5	-43.1	12.6	8.01e-05	0	61	0	1690304512	51	5206
2026-01-16 22:37:45.90	146.91	14.40	-40.6	-43.4	12.4	1.31e-04	0	61	0	1694498816	51	5345
2026-01-16 22:37:46.91	147.05	14.31	-40.6	-43.4	12.4	1.55e-04	0	61	0	1697644544	51	5368
2026-01-16 22:37:47.92	147.18	14.23	-40.7	-43.5	12.2	2.00e-04	0	61	0	1700790272	51	5446
2026-01-16 22:37:48.93	147.31	14.15	-40.7	-43.6	12.1	2.60e-04	0	61	0	1703936000	52	5181
2026-01-16 22:37:49.94	147.43	14.07	-40.7	-43.7	12.0	2.84e-04	0	61	0	1706033152	52	5226
2026-01-16 22:37:50.95	147.56	13.98	-40.8	-43.7	12.0	3.66e-04	0	61	0	1710227456	52	5254
2026-01-16 22:37:51.96	147.69	13.90	-40.7	-43.6	12.1	3.46e-04	0	61	0	1713373184	52	5192
2026-01-16 22:37:52.97	147.82	13.82	-40.7	-43.6	12.1	2.75e-04	0	61	0	1716518912	52	5174
2026-01-16 22:37:53.98	147.94	13.74	-40.6	-43.4	12.2	2.09e-04	0	61	0	1719664640	52	5089
2026-01-16 22:37:54.99	148.07	13.66	-40.6	-43.4	12.2	2.04e-04	0	61	0	1722810368	52	5093
2026-01-16 22:37:56.00	148.20	13.58	-40.5	-43.3	12.3	1.76e-04	0	61	0	1725956096	52	5038
2026-01-16 22:37:57.01	148.32	13.49	-40.5	-43.3	12.4	1.91e-04	0	61	0	1729101824	52	5001
2026-01-16 22:37:58.02	148.44	13.41	-40.6	-43.4	12.3	1.60e-04	0	61	0	1732247552	52	5042
2026-01-16 22:37:59.03	148.57	13.33	-40.6	-43.4	12.3	2.20e-04	0	61	0	1735393280	52	5053
2026-01-16 22:38:00.04	148.69	13.25	-40.5	-43.3	12.3	1.88e-04	0	61	0	1738539008	52	5013
2026-01-16 22:38:01.05	148.81	13.17	-40.6	-43.4	12.2	1.91e-04	0	61	0	1741684736	52	5082
2026-01-16 22:38:02.06	148.93	13.09	-40.7	-43.5	12.1	2.74e-04	0	61	0	1744830464	52	5143
2026-01-16 22:38:03.07	149.05	13.01	-40.7	-43.6	11.9	3.79e-04	0	61	0	1747976192	52	5214
2026-01-16 22:38:04.08	149.17	12.93	-40.7	-43.7	11.9	2.89e-04	0	61	0	1751121920	52	5227
2026-01-16 22:38:05.09	149.29	12.85	-40.7	-43.6	12.0	4.16e-04	0	61	0	1754267648	52	5192
2026-01-16 22:38:06.10	149.41	12.77	-40.7	-43.7	11.9	3.54e-04	0	61	0	1757413376	52	5235
2026-01-16 22:38:07.12	149.53	12.69	-40.7	-43.7	11.8	3.82e-04	0	61	0	1760559104	52	5256
2026-01-16 22:38:08.13	149.65	12.61	-40.8	-43.8	11.8	4.88e-04	0	61	0	1763704832	52	5289
2026-01-16 22:38:09.14	149.76	12.53	-40.6	-43.5	12.0	3.49e-04	0	61	0	1766850560	52	5152
2026-01-16 22:38:10.15	149.88	12.45	-40.7	-43.6	11.9	3.51e-04	0	61	0	1769996288	52	5180
2026-01-16 22:38:11.16	149.99	12.37	-40.6	-43.5	12.0	3.51e-04	0	61	0	1773142016	52	5118
2026-01-16 22:38:12.17	150.11	12.30	-40.6	-43.5	12.0	2.94e-04	0	61	0	1776287744	52	5134
2026-01-16 22:38:13.18	150.22	12.22	-40.6	-43.5	12.0	3.41e-04	0	61	0	1779433472	52	5136
2026-01-16 22:38:14.19	150.34	12.14	-40.6	-43.5	12.0	3.23e-04	0	61	0	1782579200	52	5116
2026-01-16 22:38:15.20	150.45	12.06	-40.6	-43.4	12.0	2.78e-04	0	61	0	1785724928	52	5095
2026-01-16 22:38:16.21	150.56	11.98	-40.6	-43.5	12.0	3.55e-04	0	61	0	1788870656	52	5132
2026-01-16 22:38:17.22	150.68	11.90	-40.5	-43.4	12.0	2.99e-04	0	61	0	1792016384	52	5093
2026-01-16 22:38:18.23	150.79	11.83	-40.5	-43.4	12.1	2.46e-04	0	61	0	1795162112	52	5046
2026-01-16 22:38:19.24	150.90	11.75	-40.5	-43.4	12.1	2.64e-04	0	61	0	1798307840	52	5066
2026-01-16 22:38:20.25	151.01	11.67	-40.5	-43.4	12.0	2.98e-04	0	61	0	1801453568	52	5072
2026-01-16 22:38:21.26	151.12	11.59	-40.6	-43.5	11.9	3.23e-04	0	61	0	1804599296	52	5157
2026-01-16 22:38:22.27	151.23	11.52	-40.6	-43.5	11.9	3.99e-04	0	61	0	1807745024	52	5155
2026-01-16 22:38:23.28	151.34	11.44	-40.6	-43.6	11.9	4.13e-04	0	61	0	1810890752	52	5160
2026-01-16 22:38:24.29	151.44	11.36	-40.6	-43.5	11.9	3.88e-04	0	61	0	1814036480	52	5127
2026-01-16 22:38:25.30	151.55	11.28	-40.7	-43.7	11.7	5.18e-04	0	61	0	1817182208	52	5254
2026-01-16 22:38:26.31	151.66	11.21	-40.8	-43.8	11.5	5.99e-04	0	61	0	1820327936	52	5334
2026-01-16 22:38:27.32	151.77	11.13	-40.8	-43.9	11.5	8.49e-04	0	61	0	1823473664	52	5357
2026-01-16 22:38:28.33	151.87	11.05	-40.8	-44.0	11.4	9.78e-04	0	61	0	1826619392	52	5428
2026-01-16 22:38:29.34	151.98	10.98	-40.7	-43.8	11.6	7.58e-04	0	61	0	1829765120	52	5288
2026-01-16 22:38:30.35	152.08	10.90	-40.8	-43.9	11.4	7.64e-04	0	61	0	1832910848	52	5377
2026-01-16 22:38:31.36	152.19	10.83	-40.8	-44.0	11.4	1.04e-03	0	61	0	1836056576	52	5423
2026-01-16 22:38:32.37	152.29	10.75	-40.8	-44.0	11.4	9.68e-04	0	61	0	1839202304	52	5427
2026-01-16 22:38:33.38	152.39	10.67	-40.9	-44.1	11.2	1.22e-03	0	61	0	1842348032	52	5497
2026-01-16 22:38:34.39	152.50	10.60	-40.8	-44.0	11.3	1.31e-03	0	61	0	1845493760	52	5453
2026-01-16 22:38:35.40	152.60	10.52	-40.8	-44.0	11.3	1.19e-03	0	61	0	1848639488	52	5434
2026-01-16 22:38:36.41	152.70	10.45	-40.8	-43.9	11.4	1.05e-03	0	61	0	1851785216	52	5371
2026-01-16 22:38:37.42	152.80	10.37	-40.8	-43.9	11.4	9.92e-04	0	61	0	1854930944	52	5375
2026-01-16 22:38:38.43	152.90	10.30	-40.8	-44.1	11.2	1.20e-03	0	61	0	1858076672	52	5479
2026-01-16 22:38:39.44	153.00	10.22	-40.8	-44.0	11.3	1.24e-03	0	61	0	1861222400	52	5412
2026-01-16 22:38:40.44	153.10	10.15	-40.8	-44.0	11.2	1.48e-03	0	61	0	1864368128	52	5432
2026-01-16 22:38:41.45	153.20	10.08	-40.6	-43.7	11.5	9.95e-04	0	61	0	1867513856	52	5264
2026-01-16 22:38:42.46	153.30	10.00	-40.7	-43.8	11.4	9.81e-04	0	61	0	1870659584	52	5314
2026-01-16 22:38:43.47	153.40	9.93	-40.7	-43.8	11.4	9.62e-04	0	61	0	1873805312	52	5316
2026-01-16 22:38:44.48	153.50	9.85	-40.6	-43.7	11.5	1.01e-03	0	61	0	1876951040	52	5266
2026-01-16 22:38:45.49	153.59	9.78	-40.7	-43.8	11.4	8.88e-04	0	61	0	1880096768	52	5309
2026-01-16 22:38:46.50	153.69	9.71	-40.7	-43.8	11.3	8.33e-04	0	61	0	1883242496	52	5324
2026-01-16 22:38:47.51	153.79	9.63	-40.7	-43.9	11.2	1.38e-03	0	61	0	1886388224	52	5370
2026-01-16 22:38:48.52	153.88	9.56	-40.7	-44.0	11.2	1.23e-03	0	61	0	1889533952	52	5404
2026-01-16 22:38:49.53	153.98	9.49	-40.8	-44.0	11.1	1.34e-03	0	61	0	1892679680	52	5451
2026-01-16 22:38:50.55	154.07	9.41	-40.8	-44.0	11.1	1.49e-03	0	61	0	1895825408	52	5445
2026-01-16 22:38:51.56	154.17	9.34	-40.8	-44.0	11.1	1.66e-03	0	61	0	1898971136	52	5429
2026-01-16 22:38:52.57	154.26	9.27	-40.6	-43.8	11.3	1.25e-03	0	61	0	1902116864	52	5295
2026-01-16 22:38:53.58	154.36	9.19	-40.6	-43.8	11.2	1.45e-03	0	61	0	1905262592	52	5304
2026-01-16 22:38:54.59	154.45	9.12	-40.5	-43.6	11.4	1.11e-03	0	61	0	1908408320	52	5215
