passes_logs/2026/01/16/R2.0S_Moscow/R2.0S_Moscow__20260116_133013_FENGYUN_3E_rec.log

#Pass ID: 20260116_133013_FENGYUN 3E
#Satellite: FENGYUN 3E
#Configuration: FENGYUN 3E
#almurnet v.1.7.20251203
#Start time: 2026-01-16 13:30:13

#Version: 2.2.20231116
#Station: R2.0S_Moscow
#Location: 37.707566 lon 55.798166 lat
#TLE: 1 49008U 21062A   26015.99225297  .00000062  00000+0  49720-4 0  9994
#TLE: 2 49008  98.7486  21.1092 0002100 136.3389 223.7953 14.19885247234982

#Time	Az	El	Level	Level2	SNR	BER	BlckErr	Temp	State	Recorded	gain1	gain2
2026-01-16 13:30:13.35	140.30	2.00	-37.7	-50.0	4.1	8.44e-01	0	51	0	0	49	12185
2026-01-16 13:30:14.36	140.27	2.06	-40.5	-51.5	4.0	8.45e-01	0	52	104	0	40	24330
2026-01-16 13:30:15.37	140.24	2.13	-31.9	-50.1	4.3	8.44e-01	0	52	104	0	43	17330
2026-01-16 13:30:16.38	140.21	2.19	-32.1	-51.4	3.7	8.45e-01	0	52	104	0	38	26936
2026-01-16 13:30:17.39	140.18	2.26	-37.8	-53.3	4.0	8.45e-01	0	52	104	0	53	14083
2026-01-16 13:30:18.40	140.15	2.32	-42.2	-53.2	4.1	8.44e-01	0	52	104	0	52	14874
2026-01-16 13:30:19.41	140.13	2.38	-41.2	-51.6	4.2	8.45e-01	0	52	104	0	52	12270
2026-01-16 13:30:20.42	140.10	2.45	-41.7	-53.1	3.8	8.45e-01	0	52	104	0	51	15525
2026-01-16 13:30:21.43	140.07	2.51	-35.3	-51.4	4.2	8.45e-01	0	52	104	0	46	16895
2026-01-16 13:30:22.44	140.04	2.58	-40.8	-52.8	4.1	8.45e-01	0	52	104	0	52	14201
2026-01-16 13:30:23.44	140.01	2.64	-37.7	-51.6	3.9	8.45e-01	0	53	104	0	51	13020
2026-01-16 13:30:24.45	139.98	2.71	-35.1	-51.0	4.0	8.45e-01	0	53	104	0	48	14395
2026-01-16 13:30:25.47	139.95	2.77	-37.3	-50.3	4.1	8.44e-01	0	53	104	0	50	11941
2026-01-16 13:30:26.48	139.92	2.84	-37.9	-52.9	3.9	8.44e-01	0	53	104	0	39	30245
2026-01-16 13:30:27.48	139.89	2.90	-36.7	-52.0	4.0	8.44e-01	0	53	104	0	37	30426
2026-01-16 13:30:28.49	139.86	2.97	-41.5	-53.4	4.0	8.45e-01	0	53	104	0	50	17059
2026-01-16 13:30:29.50	139.83	3.04	-39.2	-50.9	4.2	8.44e-01	0	53	104	0	39	23892
2026-01-16 13:30:30.51	139.80	3.10	-38.2	-49.8	3.9	8.44e-01	0	53	104	0	41	18927
2026-01-16 13:30:31.52	139.76	3.17	-37.5	-51.0	3.9	8.45e-01	0	53	104	0	41	21626
2026-01-16 13:30:32.53	139.73	3.23	-40.4	-52.6	4.2	8.43e-01	0	53	104	0	50	15470
2026-01-16 13:30:33.54	139.70	3.30	-36.8	-48.1	4.2	8.43e-01	0	53	104	0	39	17429
2026-01-16 13:30:34.55	139.67	3.37	-39.6	-51.2	4.0	8.45e-01	0	53	104	0	48	14721
2026-01-16 13:30:35.56	139.64	3.43	-38.1	-52.2	3.5	8.44e-01	0	54	104	0	43	22202
2026-01-16 13:30:36.57	139.61	3.50	-40.6	-51.8	4.2	8.42e-01	0	54	104	0	46	17721
2026-01-16 13:30:37.58	139.58	3.57	-42.8	-53.1	3.9	8.42e-01	0	54	104	0	46	20675
2026-01-16 13:30:38.59	139.54	3.63	-40.5	-52.6	4.1	8.44e-01	0	54	104	0	49	16368
2026-01-16 13:30:39.60	139.51	3.70	-41.1	-53.1	4.0	8.44e-01	0	54	104	0	49	17439
2026-01-16 13:30:40.61	139.48	3.77	-39.1	-51.2	4.0	8.45e-01	0	54	104	0	45	17563
2026-01-16 13:30:41.62	139.45	3.84	-39.3	-51.6	3.7	8.45e-01	0	54	104	0	52	12278
2026-01-16 13:30:42.63	139.42	3.90	-41.7	-52.1	4.0	8.45e-01	0	54	104	0	53	12319
2026-01-16 13:30:43.64	139.38	3.97	-40.9	-52.6	3.6	8.44e-01	0	54	104	0	53	13081
2026-01-16 13:30:44.65	139.35	4.04	-36.4	-52.3	3.9	8.46e-01	0	54	104	0	46	18915
2026-01-16 13:30:45.66	139.32	4.11	-39.2	-53.2	3.6	8.42e-01	0	54	104	0	51	15608
2026-01-16 13:30:46.66	139.28	4.18	-39.8	-51.9	3.4	8.44e-01	0	54	104	0	51	13419
2026-01-16 13:30:47.68	139.25	4.25	-41.9	-53.2	3.9	8.46e-01	0	54	104	0	53	13922
2026-01-16 13:30:48.69	139.22	4.31	-37.5	-51.9	4.0	8.46e-01	0	54	104	0	52	12783
2026-01-16 13:30:49.70	139.18	4.38	-31.1	-47.5	4.3	8.45e-01	0	54	104	0	35	20503
2026-01-16 13:30:50.71	139.15	4.45	-33.8	-50.3	4.0	8.45e-01	0	55	104	0	37	25092
2026-01-16 13:30:51.72	139.11	4.52	-32.7	-50.4	3.8	8.45e-01	0	55	104	0	39	22716
2026-01-16 13:30:52.73	139.08	4.59	-33.1	-49.6	4.0	8.45e-01	0	55	104	0	45	14549
2026-01-16 13:30:53.74	139.05	4.66	-35.1	-49.9	4.0	8.45e-01	0	55	104	0	46	14219
2026-01-16 13:30:54.74	139.01	4.73	-39.0	-50.0	4.0	8.45e-01	0	55	104	0	43	17173
2026-01-16 13:30:55.75	138.98	4.80	-33.0	-49.1	3.9	8.45e-01	0	55	104	0	44	14586
2026-01-16 13:30:56.76	138.94	4.87	-42.0	-53.6	3.8	8.45e-01	0	55	104	0	52	15420
2026-01-16 13:30:57.77	138.91	4.94	-41.2	-53.3	4.0	8.44e-01	0	55	104	0	51	15827
2026-01-16 13:30:58.78	138.87	5.01	-41.6	-52.0	3.9	8.45e-01	0	55	104	0	52	12885
2026-01-16 13:30:59.80	138.84	5.08	-42.8	-53.7	3.9	8.45e-01	0	55	104	0	48	19693
2026-01-16 13:31:00.80	138.80	5.15	-39.4	-50.9	4.0	8.45e-01	0	55	104	0	45	17071
2026-01-16 13:31:01.81	138.76	5.22	-39.3	-53.1	3.9	8.45e-01	0	55	104	0	52	14676
2026-01-16 13:31:02.82	138.73	5.29	-28.2	-50.1	3.7	8.43e-01	0	55	0	0	34	29263
2026-01-16 13:31:03.83	138.69	5.37	-33.9	-52.2	4.0	8.45e-01	0	55	104	0	43	22233
2026-01-16 13:31:04.84	138.66	5.44	-34.6	-52.0	4.2	8.44e-01	0	55	104	0	42	22945
2026-01-16 13:31:05.85	138.62	5.51	-30.7	-46.5	3.9	8.44e-01	0	55	104	0	33	20379
2026-01-16 13:31:06.86	138.58	5.58	-40.8	-52.7	3.6	8.44e-01	0	56	104	0	33	41582
2026-01-16 13:31:07.87	138.54	5.65	-31.9	-50.5	4.0	8.45e-01	0	55	104	0	41	20335
2026-01-16 13:31:08.88	138.51	5.73	-35.6	-49.2	3.8	8.44e-01	0	56	104	0	40	18674
2026-01-16 13:31:09.89	138.47	5.80	-36.8	-51.7	3.8	8.42e-01	0	56	104	0	37	29503
2026-01-16 13:31:10.91	138.43	5.87	-38.6	-50.9	3.5	8.44e-01	0	56	104	0	42	20216
2026-01-16 13:31:11.92	138.39	5.94	-38.7	-51.3	3.9	8.43e-01	0	56	104	0	45	17821
2026-01-16 13:31:12.93	138.36	6.02	-39.1	-51.4	4.1	8.45e-01	0	56	104	0	43	20200
2026-01-16 13:31:13.94	138.32	6.09	-31.4	-52.0	3.7	8.43e-01	0	56	104	0	36	32291
2026-01-16 13:31:14.95	138.28	6.16	-29.2	-46.2	3.8	8.44e-01	0	56	104	0	37	15593
2026-01-16 13:31:15.96	138.24	6.24	-29.9	-47.8	3.8	8.43e-01	0	56	104	0	37	18933
2026-01-16 13:31:16.97	138.20	6.31	-29.9	-50.3	3.6	8.43e-01	0	56	104	0	37	25209
2026-01-16 13:31:17.98	138.16	6.39	-41.1	-53.0	3.7	8.44e-01	0	56	104	0	50	16187
2026-01-16 13:31:18.99	138.12	6.46	-35.9	-51.3	3.9	8.44e-01	0	56	104	0	43	19995
2026-01-16 13:31:20.00	138.08	6.53	-38.9	-52.0	4.0	8.46e-01	0	56	104	0	49	15381
2026-01-16 13:31:21.00	138.04	6.61	-37.6	-51.1	4.3	8.44e-01	0	56	104	0	41	21871
2026-01-16 13:31:22.01	138.01	6.68	-36.4	-50.6	4.0	8.43e-01	0	56	0	0	41	20771
2026-01-16 13:31:23.02	137.96	6.76	-41.4	-52.3	4.1	8.44e-01	0	56	104	0	45	19900
2026-01-16 13:31:24.04	137.92	6.83	-38.8	-51.3	3.9	8.44e-01	0	56	104	0	38	26631
2026-01-16 13:31:25.04	137.88	6.91	-38.5	-50.8	4.2	8.43e-01	0	56	104	0	34	31727
2026-01-16 13:31:26.05	137.84	6.98	-32.9	-48.0	3.6	8.44e-01	0	56	104	0	44	12832
2026-01-16 13:31:27.07	137.80	7.06	-36.7	-50.6	3.7	8.43e-01	0	57	104	0	47	14578
2026-01-16 13:31:28.08	137.76	7.14	-38.8	-52.8	3.4	8.43e-01	0	56	104	0	38	31630
2026-01-16 13:31:29.09	137.72	7.21	-38.8	-52.5	3.9	8.43e-01	0	57	104	0	43	22785
2026-01-16 13:31:30.10	137.68	7.29	-40.7	-49.8	4.2	8.44e-01	0	57	104	0	44	15909
2026-01-16 13:31:31.11	137.64	7.37	-32.4	-48.9	4.1	8.45e-01	0	57	104	0	40	17891
2026-01-16 13:31:32.12	137.59	7.44	-34.1	-51.2	4.3	8.44e-01	0	57	104	0	50	13220
2026-01-16 13:31:33.13	137.55	7.52	-39.9	-51.3	4.1	8.44e-01	0	57	104	0	38	26475
2026-01-16 13:31:34.14	137.51	7.60	-36.6	-50.7	4.2	8.44e-01	0	57	104	0	47	14745
2026-01-16 13:31:35.15	137.47	7.68	-36.5	-51.0	4.1	8.44e-01	0	57	104	0	39	24184
2026-01-16 13:31:36.16	137.42	7.75	-31.6	-50.8	3.8	8.44e-01	0	57	104	0	39	23596
2026-01-16 13:31:37.17	137.38	7.83	-32.3	-50.2	4.1	8.44e-01	0	57	104	0	34	29357
2026-01-16 13:31:38.18	137.34	7.91	-33.6	-50.0	4.1	8.42e-01	0	57	104	0	39	21529
2026-01-16 13:31:39.19	137.29	7.99	-40.7	-52.1	4.0	8.42e-01	0	57	104	0	32	41166
2026-01-16 13:31:40.20	137.25	8.07	-33.6	-48.4	4.4	8.44e-01	0	57	104	0	35	22724
2026-01-16 13:31:41.21	137.20	8.15	-33.7	-50.2	3.9	8.45e-01	0	57	104	0	43	17589
2026-01-16 13:31:42.22	137.16	8.23	-37.5	-49.1	4.2	8.43e-01	0	57	104	0	36	23188
2026-01-16 13:31:43.23	137.11	8.30	-29.0	-49.7	4.3	8.45e-01	0	57	104	0	36	24926
2026-01-16 13:31:44.24	137.07	8.38	-30.2	-50.9	4.1	8.45e-01	0	57	104	0	34	32169
2026-01-16 13:31:45.25	137.02	8.46	-38.8	-52.2	3.6	8.44e-01	0	57	104	0	46	18694
2026-01-16 13:31:46.26	136.98	8.54	-33.5	-49.8	3.6	8.46e-01	0	57	104	0	37	23792
2026-01-16 13:31:47.27	136.93	8.62	-32.3	-48.8	4.0	8.43e-01	0	57	104	0	35	23750
2026-01-16 13:31:48.28	136.88	8.71	-33.5	-49.8	4.0	8.42e-01	0	57	104	0	41	18943
2026-01-16 13:31:49.29	136.84	8.79	-26.1	-48.9	3.6	8.42e-01	0	57	104	0	29	33943
2026-01-16 13:31:50.29	136.79	8.87	-36.4	-49.4	3.9	8.44e-01	0	57	104	0	43	16118
2026-01-16 13:31:51.30	136.75	8.95	-40.8	-52.2	4.3	8.45e-01	0	57	104	0	34	37145
2026-01-16 13:31:52.31	136.70	9.03	-34.8	-51.5	3.9	8.46e-01	0	57	104	0	38	27143
2026-01-16 13:31:53.32	136.65	9.11	-42.2	-52.9	3.9	8.46e-01	0	58	104	0	50	16063
2026-01-16 13:31:54.33	136.60	9.19	-37.5	-49.2	3.8	8.45e-01	0	58	104	0	42	16631
2026-01-16 13:31:55.34	136.55	9.28	-31.8	-45.2	3.8	8.43e-01	0	58	0	0	28	23497
2026-01-16 13:31:56.35	136.51	9.36	-40.1	-51.3	3.7	8.43e-01	0	58	104	0	38	26702
2026-01-16 13:31:57.37	136.46	9.44	-41.7	-52.2	4.1	8.43e-01	0	58	104	0	48	16575
2026-01-16 13:31:58.38	136.41	9.53	-34.2	-49.3	3.9	8.44e-01	0	58	0	0	48	11854
2026-01-16 13:31:59.39	136.36	9.61	-30.3	-49.4	3.8	8.41e-01	0	58	104	0	32	30037
2026-01-16 13:32:00.40	136.31	9.69	-37.3	-51.8	4.1	8.43e-01	0	58	104	0	47	16791
2026-01-16 13:32:01.41	136.26	9.78	-31.0	-42.9	4.1	8.31e-01	0	58	104	0	34	12766
2026-01-16 13:32:02.41	136.21	9.86	-38.5	-50.1	3.9	8.35e-01	0	58	104	0	37	24435
2026-01-16 13:32:03.42	136.16	9.94	-28.4	-44.3	4.0	8.35e-01	0	58	104	0	33	15882
2026-01-16 13:32:04.43	136.11	10.03	-34.1	-44.9	4.2	8.37e-01	0	58	104	0	32	17973
2026-01-16 13:32:05.44	136.06	10.11	-31.2	-43.9	4.1	8.34e-01	0	58	104	0	37	11960
2026-01-16 13:32:06.45	136.01	10.20	-36.8	-47.0	3.3	8.41e-01	0	58	104	0	34	20313
2026-01-16 13:32:07.46	135.95	10.28	-32.2	-45.6	3.9	8.42e-01	0	58	0	0	37	14619
2026-01-16 13:32:08.48	135.90	10.37	-33.8	-45.3	5.1	7.92e-01	0	58	104	0	39	12615
2026-01-16 13:32:09.49	135.85	10.46	-31.1	-44.7	4.4	8.44e-01	0	58	104	0	40	11033
2026-01-16 13:32:10.50	135.80	10.54	-39.3	-44.8	4.5	8.31e-01	0	58	104	0	39	11897
2026-01-16 13:32:11.51	135.74	10.63	-33.0	-42.0	4.4	8.22e-01	0	58	104	0	32	12824
2026-01-16 13:32:12.52	135.69	10.72	-36.6	-42.9	7.0	6.90e-01	0	58	0	0	39	9593
2026-01-16 13:32:13.53	135.64	10.80	-29.1	-39.2	5.2	6.61e-01	0	58	0	2097152	30	10430
2026-01-16 13:32:14.53	135.58	10.89	-35.1	-42.2	6.0	6.41e-01	0	58	0	4194304	33	12455
2026-01-16 13:32:15.54	135.53	10.98	-35.6	-43.1	4.7	8.25e-01	0	58	104	4194304	38	10347
2026-01-16 13:32:16.55	135.47	11.07	-32.2	-41.1	5.0	7.90e-01	0	58	0	4194304	30	13089
2026-01-16 13:32:17.56	135.42	11.15	-27.7	-41.0	5.0	6.51e-01	0	58	0	4194304	34	10213
2026-01-16 13:32:18.57	135.36	11.24	-31.2	-40.6	4.7	8.10e-01	0	58	104	4194304	28	13876
2026-01-16 13:32:19.58	135.31	11.33	-29.7	-40.4	4.5	8.30e-01	0	58	104	4194304	28	13421
2026-01-16 13:32:20.60	135.25	11.42	-27.3	-37.2	4.1	8.29e-01	0	58	104	4194304	28	9331
2026-01-16 13:32:21.61	135.19	11.51	-28.7	-39.3	4.5	8.30e-01	0	58	104	4194304	28	11862
2026-01-16 13:32:22.62	135.14	11.60	-29.4	-39.1	4.7	8.27e-01	0	59	104	4194304	27	12336
2026-01-16 13:32:23.62	135.08	11.69	-27.1	-38.6	4.8	8.25e-01	0	58	104	4194304	28	10952
2026-01-16 13:32:24.63	135.02	11.78	-32.0	-40.2	4.4	8.31e-01	0	59	104	4194304	30	11786
2026-01-16 13:32:25.64	134.96	11.87	-33.5	-38.1	4.7	8.21e-01	0	59	104	4194304	30	9259
2026-01-16 13:32:26.65	134.91	11.96	-24.9	-37.6	4.4	8.29e-01	0	58	104	4194304	22	13847
2026-01-16 13:32:27.66	134.85	12.05	-30.1	-40.0	4.3	8.25e-01	0	58	104	4194304	25	15391
2026-01-16 13:32:28.67	134.79	12.15	-29.0	-39.9	4.6	8.24e-01	0	59	104	4194304	29	12010
2026-01-16 13:32:29.68	134.73	12.24	-30.3	-38.7	4.3	7.67e-01	0	58	104	4194304	21	16611
2026-01-16 13:32:30.69	134.67	12.33	-26.2	-38.2	4.3	8.24e-01	0	59	104	4194304	24	13222
2026-01-16 13:32:31.70	134.61	12.42	-28.6	-38.4	4.8	8.16e-01	0	59	104	4194304	33	7992
2026-01-16 13:32:32.71	134.55	12.52	-32.0	-40.7	4.7	8.35e-01	0	59	104	4194304	28	14009
2026-01-16 13:32:33.72	134.49	12.61	-31.8	-39.7	5.9	8.10e-01	0	59	104	4194304	31	10510
2026-01-16 13:32:34.73	134.43	12.70	-32.0	-40.1	6.9	6.26e-01	0	59	0	5242880	31	10961
2026-01-16 13:32:35.74	134.36	12.80	-33.2	-39.7	6.3	7.26e-01	0	59	0	6291456	28	12467
2026-01-16 13:32:36.75	134.30	12.89	-23.1	-40.7	8.2	8.14e-01	0	59	104	7340032	31	11816
2026-01-16 13:32:37.76	134.24	12.98	-31.4	-39.2	5.5	7.55e-01	0	59	0	7340032	28	11700
2026-01-16 13:32:38.77	134.18	13.08	-31.1	-39.8	6.9	4.33e-01	0	59	0	9437184	32	9973
2026-01-16 13:32:39.78	134.11	13.17	-33.0	-40.7	6.7	6.15e-01	0	59	0	11534336	34	9880
2026-01-16 13:32:40.79	134.05	13.27	-34.4	-41.7	7.4	5.78e-01	0	59	0	13631488	39	8280
2026-01-16 13:32:41.80	133.98	13.37	-23.9	-35.7	4.4	7.75e-01	0	59	104	15728640	29	7400
2026-01-16 13:32:42.81	133.92	13.46	-21.5	-36.5	4.4	8.24e-01	0	59	104	15728640	16	17276
2026-01-16 13:32:43.82	133.85	13.56	-33.4	-41.1	5.1	6.99e-01	0	59	104	15728640	31	12261
2026-01-16 13:32:44.83	133.79	13.66	-34.0	-41.5	6.5	3.60e-01	0	59	0	17825792	38	8629
2026-01-16 13:32:45.84	133.72	13.75	-26.2	-38.9	7.2	5.81e-01	0	59	0	20971520	31	9558
2026-01-16 13:32:46.85	133.66	13.85	-36.5	-41.3	6.3	6.82e-01	0	59	0	22020096	36	9472
2026-01-16 13:32:47.85	133.59	13.95	-34.3	-41.3	5.6	4.43e-01	0	59	0	26214400	36	9486
2026-01-16 13:32:48.86	133.52	14.05	-37.0	-41.9	8.2	3.44e-01	0	59	0	29360128	42	7167
2026-01-16 13:32:49.87	133.45	14.14	-34.3	-41.2	7.0	5.34e-01	0	59	0	33554432	37	8792
2026-01-16 13:32:50.89	133.38	14.24	-30.4	-41.1	7.9	4.14e-01	0	59	0	36700160	37	8672
2026-01-16 13:32:51.90	133.32	14.34	-37.4	-41.5	7.8	2.52e-01	0	59	0	40894464	39	8088
2026-01-16 13:32:52.91	133.25	14.44	-35.3	-41.4	9.5	3.26e-01	0	59	0	46137344	44	6011
2026-01-16 13:32:53.92	133.18	14.54	-29.7	-38.8	6.0	5.58e-01	0	59	0	49283072	29	10584
2026-01-16 13:32:54.93	133.11	14.64	-38.2	-41.1	10.3	2.18e-01	0	59	0	54525952	45	5505
2026-01-16 13:32:55.94	133.03	14.75	-34.1	-41.2	9.8	1.38e-01	0	59	0	59768832	44	5904
2026-01-16 13:32:56.95	132.96	14.85	-30.8	-39.4	6.7	1.25e-01	0	59	0	65011712	32	9514
2026-01-16 13:32:57.96	132.89	14.95	-33.0	-39.9	6.9	5.34e-01	0	59	0	69206016	35	8475
2026-01-16 13:32:58.97	132.82	15.05	-30.8	-40.4	7.1	2.41e-01	0	59	0	74448896	42	6047
2026-01-16 13:32:59.98	132.75	15.15	-38.0	-41.5	9.3	3.60e-01	0	59	0	79691776	42	6838
2026-01-16 13:33:00.99	132.67	15.26	-31.8	-39.9	6.8	4.61e-01	0	59	0	83886080	35	8492
2026-01-16 13:33:02.00	132.60	15.36	-37.4	-41.1	9.2	4.07e-01	0	59	0	89128960	40	7318
2026-01-16 13:33:03.01	132.52	15.46	-30.2	-40.0	6.7	3.66e-01	0	59	0	94371840	38	7230
2026-01-16 13:33:04.01	132.45	15.57	-37.5	-40.5	8.5	2.18e-01	0	59	0	99614720	42	6066
2026-01-16 13:33:05.02	132.37	15.67	-37.7	-41.0	8.4	3.67e-01	0	59	0	105906176	39	7648
2026-01-16 13:33:06.03	132.30	15.77	-37.9	-41.0	10.1	4.29e-01	0	59	0	111149056	44	5768
2026-01-16 13:33:07.04	132.22	15.88	-35.7	-40.2	7.2	2.41e-01	0	59	0	117440512	38	7384
2026-01-16 13:33:08.05	132.14	15.99	-35.7	-40.4	8.5	3.31e-01	0	59	0	123731968	41	6370
2026-01-16 13:33:09.07	132.07	16.09	-31.9	-40.2	8.9	3.49e-02	0	59	0	131072000	42	5922
2026-01-16 13:33:10.08	131.99	16.20	-37.1	-40.2	8.3	2.08e-01	0	59	0	137363456	41	6274
2026-01-16 13:33:11.08	131.91	16.30	-35.3	-39.7	10.9	1.84e-01	0	59	0	143654912	42	5575
2026-01-16 13:33:12.09	131.83	16.41	-36.3	-39.9	10.0	9.50e-02	0	60	0	150994944	40	6360
2026-01-16 13:33:13.10	131.75	16.52	-36.8	-39.8	10.2	6.37e-02	0	59	0	158334976	42	5629
2026-01-16 13:33:14.11	131.67	16.63	-37.1	-39.9	11.0	8.10e-02	0	59	0	165675008	42	5692
2026-01-16 13:33:15.12	131.59	16.74	-33.9	-39.8	10.1	2.57e-02	0	59	0	171966464	39	6699
2026-01-16 13:33:16.13	131.51	16.84	-36.9	-39.9	10.9	2.35e-01	0	59	0	179306496	37	7612
2026-01-16 13:33:17.14	131.42	16.95	-37.6	-39.9	13.3	3.07e-03	0	60	0	186646528	42	5690
2026-01-16 13:33:18.15	131.34	17.06	-36.3	-39.4	11.3	2.90e-02	0	59	0	193986560	42	5361
2026-01-16 13:33:19.17	131.26	17.17	-37.3	-39.6	14.4	7.97e-04	0	60	0	201326592	44	4910
2026-01-16 13:33:20.18	131.17	17.29	-35.7	-39.1	12.7	6.06e-03	0	59	0	208666624	41	5520
2026-01-16 13:33:21.19	131.09	17.40	-37.2	-39.4	14.7	5.63e-04	0	59	0	214958080	44	4764
2026-01-16 13:33:22.20	131.00	17.51	-36.9	-38.9	15.0	5.70e-04	0	59	0	223346688	43	4801
2026-01-16 13:33:23.21	130.91	17.62	-36.7	-38.7	15.1	2.57e-04	0	59	0	230686720	43	4699
2026-01-16 13:33:24.22	130.83	17.73	-36.5	-38.5	15.3	3.22e-03	0	60	0	236978176	42	4836
2026-01-16 13:33:25.23	130.74	17.84	-36.4	-38.4	15.5	1.52e-03	0	60	0	244318208	42	4779
2026-01-16 13:33:26.24	130.65	17.96	-36.6	-38.5	15.6	5.47e-03	0	59	0	251658240	42	4866
2026-01-16 13:33:27.24	130.56	18.07	-36.2	-38.4	15.8	8.92e-05	0	60	0	258998272	42	4794
2026-01-16 13:33:28.25	130.47	18.18	-36.3	-38.2	16.0	2.40e-05	0	60	0	266338304	42	4668
2026-01-16 13:33:29.26	130.38	18.30	-36.2	-38.2	16.0	7.92e-04	0	60	0	273678336	42	4679
2026-01-16 13:33:30.27	130.29	18.41	-36.4	-38.3	15.9	4.16e-04	0	60	0	281018368	42	4706
2026-01-16 13:33:31.29	130.20	18.53	-36.5	-38.4	15.9	2.37e-04	0	60	0	288358400	42	4767
2026-01-16 13:33:32.30	130.11	18.65	-36.3	-38.2	16.1	9.10e-06	0	60	0	295698432	42	4687
2026-01-16 13:33:33.31	130.01	18.76	-35.8	-38.1	15.6	4.50e-06	0	60	0	303038464	42	4626
2026-01-16 13:33:34.32	129.92	18.88	-35.9	-37.7	16.5	3.40e-06	0	60	0	310378496	41	4688
2026-01-16 13:33:35.32	129.83	19.00	-35.9	-37.7	16.5	6.29e-05	0	60	0	317718528	41	4690
2026-01-16 13:33:36.33	129.73	19.11	-34.9	-37.4	16.1	5.65e-04	0	60	0	325058560	40	4812
2026-01-16 13:33:37.34	129.63	19.23	-35.7	-37.5	16.8	1.83e-05	0	60	0	332398592	41	4556
2026-01-16 13:33:38.35	129.54	19.35	-35.8	-37.6	16.7	2.40e-05	0	60	0	339738624	41	4617
2026-01-16 13:33:39.36	129.44	19.47	-35.6	-37.4	16.8	2.20e-06	0	60	0	347078656	40	4796
2026-01-16 13:33:40.37	129.34	19.59	-35.7	-37.4	16.9	1.60e-05	0	60	0	354418688	40	4809
2026-01-16 13:33:41.39	129.24	19.71	-35.6	-37.3	17.0	8.00e-06	0	60	0	361758720	41	4481
2026-01-16 13:33:42.40	129.14	19.83	-35.7	-37.5	16.9	6.80e-06	0	60	0	369098752	41	4560
2026-01-16 13:33:43.41	129.04	19.95	-35.7	-37.6	16.7	1.37e-05	0	60	0	376438784	41	4601
2026-01-16 13:33:44.42	128.94	20.08	-35.6	-37.4	16.9	0.00e+00	0	60	0	383778816	41	4512
2026-01-16 13:33:45.43	128.84	20.20	-35.7	-37.5	16.9	0.00e+00	0	60	0	390070272	41	4553
2026-01-16 13:33:46.44	128.73	20.32	-35.7	-37.5	17.0	0.00e+00	0	60	0	397410304	41	4550
2026-01-16 13:33:47.45	128.63	20.44	-35.7	-37.5	16.9	0.00e+00	0	60	0	405798912	41	4563
2026-01-16 13:33:48.46	128.52	20.57	-35.7	-37.4	17.0	0.00e+00	0	60	0	412090368	41	4544
2026-01-16 13:33:49.47	128.42	20.69	-35.6	-37.3	17.1	0.00e+00	0	60	0	419430400	41	4478
2026-01-16 13:33:50.48	128.31	20.82	-35.5	-37.2	17.2	0.00e+00	0	60	0	426770432	41	4431
2026-01-16 13:33:51.49	128.20	20.94	-35.5	-37.1	17.3	0.00e+00	0	60	0	434110464	41	4388
2026-01-16 13:33:52.50	128.09	21.07	-35.2	-36.8	17.5	0.00e+00	0	60	0	441450496	41	4223
2026-01-16 13:33:53.51	127.98	21.19	-35.3	-37.0	17.4	0.00e+00	0	60	0	448790528	41	4297
2026-01-16 13:33:54.52	127.87	21.32	-35.2	-36.8	17.6	0.00e+00	0	60	0	456130560	41	4236
2026-01-16 13:33:55.53	127.76	21.45	-35.3	-36.9	17.6	0.00e+00	0	60	0	463470592	41	4251
2026-01-16 13:33:56.54	127.65	21.58	-35.1	-36.7	17.7	0.00e+00	0	60	0	470810624	41	4168
2026-01-16 13:33:57.55	127.54	21.71	-35.2	-36.8	17.6	0.00e+00	0	60	0	478150656	40	4491
2026-01-16 13:33:58.56	127.42	21.83	-35.1	-36.7	17.8	0.00e+00	0	60	0	485490688	40	4427
2026-01-16 13:33:59.57	127.31	21.96	-35.1	-36.7	17.8	0.00e+00	0	60	0	492830720	40	4418
2026-01-16 13:34:00.59	127.19	22.10	-35.1	-36.7	17.8	0.00e+00	0	60	0	500170752	40	4408
2026-01-16 13:34:01.60	127.07	22.23	-35.1	-36.7	17.8	0.00e+00	0	60	0	507510784	40	4400
2026-01-16 13:34:02.61	126.95	22.36	-35.1	-36.7	17.8	0.00e+00	0	60	0	514850816	40	4417
2026-01-16 13:34:03.62	126.83	22.49	-35.1	-36.7	17.7	0.00e+00	0	60	0	522190848	40	4426
2026-01-16 13:34:04.63	126.71	22.62	-35.2	-36.8	17.7	0.00e+00	0	60	0	529530880	40	4457
2026-01-16 13:34:05.64	126.59	22.75	-35.2	-36.8	17.7	0.00e+00	0	60	0	535822336	40	4472
2026-01-16 13:34:06.65	126.47	22.89	-35.3	-36.9	17.5	0.00e+00	0	60	0	544210944	40	4544
2026-01-16 13:34:07.66	126.35	23.02	-35.2	-36.9	17.6	0.00e+00	0	60	0	551550976	40	4529
2026-01-16 13:34:08.67	126.22	23.16	-35.4	-37.1	17.4	0.00e+00	0	60	0	557842432	40	4610
2026-01-16 13:34:09.68	126.10	23.29	-35.4	-37.2	17.3	0.00e+00	0	60	0	565182464	40	4653
2026-01-16 13:34:10.69	125.97	23.43	-35.4	-37.2	17.3	0.00e+00	0	60	0	572522496	40	4663
2026-01-16 13:34:11.70	125.84	23.56	-35.4	-37.2	17.2	0.00e+00	0	60	0	579862528	40	4670
2026-01-16 13:34:12.71	125.71	23.70	-35.5	-37.3	17.1	0.00e+00	0	60	0	587202560	40	4753
2026-01-16 13:34:13.72	125.58	23.84	-35.5	-37.2	17.2	0.00e+00	0	60	0	594542592	41	4437
2026-01-16 13:34:14.73	125.45	23.97	-35.5	-37.3	17.1	0.00e+00	0	60	0	601882624	41	4486
2026-01-16 13:34:15.74	125.32	24.11	-35.5	-37.3	17.1	0.00e+00	0	60	0	609222656	41	4483
2026-01-16 13:34:16.75	125.18	24.25	-35.6	-37.4	17.0	0.00e+00	0	60	0	616562688	41	4544
2026-01-16 13:34:17.76	125.05	24.39	-35.7	-37.5	17.0	0.00e+00	0	60	0	623902720	41	4584
2026-01-16 13:34:18.77	124.91	24.53	-35.6	-37.4	17.1	0.00e+00	0	60	0	631242752	41	4518
2026-01-16 13:34:19.78	124.77	24.67	-35.6	-37.5	17.0	0.00e+00	0	60	0	638582784	41	4551
2026-01-16 13:34:20.79	124.64	24.81	-35.6	-37.4	17.1	0.00e+00	0	60	0	645922816	41	4534
2026-01-16 13:34:21.80	124.50	24.95	-35.6	-37.4	17.1	1.10e-06	0	60	0	653262848	41	4526
2026-01-16 13:34:22.81	124.35	25.10	-35.6	-37.5	17.0	0.00e+00	0	60	0	660602880	41	4555
2026-01-16 13:34:23.82	124.21	25.24	-35.5	-37.3	17.1	0.00e+00	0	60	0	667942912	41	4493
2026-01-16 13:34:24.83	124.07	25.38	-35.5	-37.3	17.2	0.00e+00	0	60	0	675282944	41	4457
2026-01-16 13:34:25.84	123.92	25.53	-35.5	-37.3	17.2	0.00e+00	0	60	0	682622976	41	4462
2026-01-16 13:34:26.85	123.78	25.67	-35.5	-37.2	17.2	0.00e+00	0	60	0	689963008	41	4437
2026-01-16 13:34:27.86	123.63	25.82	-35.4	-37.2	17.3	0.00e+00	0	60	0	697303040	41	4413
2026-01-16 13:34:28.87	123.48	25.96	-35.6	-37.4	17.1	0.00e+00	0	60	0	704643072	41	4544
2026-01-16 13:34:29.88	123.33	26.11	-35.3	-37.1	17.4	0.00e+00	0	60	0	710934528	41	4348
2026-01-16 13:34:30.89	123.18	26.26	-35.3	-37.0	17.5	0.00e+00	0	60	0	718274560	41	4324
2026-01-16 13:34:31.89	123.02	26.40	-35.3	-37.0	17.5	0.00e+00	0	60	0	726663168	41	4315
2026-01-16 13:34:32.90	122.87	26.55	-35.3	-36.9	17.6	0.00e+00	0	60	0	732954624	41	4286
2026-01-16 13:34:33.91	122.71	26.70	-35.1	-36.7	17.8	0.00e+00	0	60	0	740294656	41	4174
2026-01-16 13:34:34.92	122.55	26.85	-35.2	-36.9	17.7	0.00e+00	0	60	0	747634688	40	4506
2026-01-16 13:34:35.93	122.39	27.00	-35.0	-36.6	17.9	0.00e+00	0	60	0	754974720	40	4384
2026-01-16 13:34:36.94	122.23	27.15	-35.0	-36.6	17.9	0.00e+00	0	61	0	762314752	40	4391
2026-01-16 13:34:37.95	122.07	27.30	-34.9	-36.5	18.0	0.00e+00	0	60	0	769654784	40	4325
2026-01-16 13:34:38.96	121.91	27.45	-34.8	-36.4	18.2	0.00e+00	0	60	0	776994816	40	4271
2026-01-16 13:34:39.97	121.74	27.60	-34.9	-36.5	18.1	0.00e+00	0	60	0	784334848	39	4583
2026-01-16 13:34:40.98	121.57	27.76	-34.8	-36.4	18.2	0.00e+00	0	60	0	791674880	39	4506
2026-01-16 13:34:41.99	121.40	27.91	-34.9	-36.5	18.2	0.00e+00	0	60	0	799014912	39	4558
2026-01-16 13:34:43.00	121.23	28.06	-34.9	-36.4	18.1	0.00e+00	0	60	0	806354944	39	4544
2026-01-16 13:34:44.01	121.06	28.22	-34.7	-36.3	18.3	0.00e+00	0	61	0	813694976	39	4485
2026-01-16 13:34:45.02	120.89	28.37	-34.6	-36.2	18.4	0.00e+00	0	60	0	821035008	39	4422
2026-01-16 13:34:46.03	120.71	28.53	-34.7	-36.3	18.3	0.00e+00	0	60	0	828375040	39	4454
2026-01-16 13:34:47.04	120.53	28.68	-34.7	-36.3	18.3	0.00e+00	0	61	0	835715072	39	4483
2026-01-16 13:34:48.05	120.36	28.84	-34.7	-36.3	18.3	0.00e+00	0	61	0	843055104	39	4460
2026-01-16 13:34:49.07	120.17	29.00	-34.7	-36.3	18.3	0.00e+00	0	60	0	850395136	39	4453
2026-01-16 13:34:50.08	119.99	29.16	-34.7	-36.3	18.3	0.00e+00	0	60	0	856686592	39	4492
2026-01-16 13:34:51.08	119.81	29.31	-34.7	-36.3	18.3	0.00e+00	0	60	0	864026624	39	4471
2026-01-16 13:34:52.09	119.62	29.47	-34.7	-36.4	18.2	0.00e+00	0	60	0	872415232	39	4506
2026-01-16 13:34:53.11	119.43	29.63	-34.8	-36.4	18.2	0.00e+00	0	60	0	878706688	39	4526
2026-01-16 13:34:54.12	119.24	29.79	-34.9	-36.5	18.1	0.00e+00	0	61	0	886046720	39	4591
2026-01-16 13:34:55.12	119.05	29.95	-34.8	-36.4	18.3	0.00e+00	0	60	0	893386752	39	4521
2026-01-16 13:34:56.13	118.86	30.11	-34.9	-36.5	18.1	0.00e+00	0	60	0	900726784	39	4588
2026-01-16 13:34:57.14	118.66	30.27	-35.0	-36.7	18.0	0.00e+00	0	61	0	908066816	39	4669
2026-01-16 13:34:58.16	118.46	30.44	-35.1	-36.8	17.9	0.00e+00	0	60	0	915406848	39	4713
2026-01-16 13:34:59.17	118.26	30.60	-35.1	-36.8	17.9	0.00e+00	0	60	0	922746880	39	4725
2026-01-16 13:35:00.17	118.06	30.76	-35.0	-36.6	18.0	0.00e+00	0	60	0	930086912	40	4363
2026-01-16 13:35:01.18	117.85	30.93	-35.3	-37.0	17.6	0.00e+00	0	60	0	937426944	40	4575
2026-01-16 13:35:02.19	117.65	31.09	-35.3	-37.1	17.5	0.00e+00	0	60	0	944766976	40	4625
2026-01-16 13:35:03.20	117.44	31.26	-35.5	-37.3	17.3	0.00e+00	0	60	0	952107008	40	4710
2026-01-16 13:35:04.21	117.23	31.42	-35.6	-37.4	17.2	0.00e+00	0	60	0	959447040	40	4784
2026-01-16 13:35:05.23	117.01	31.59	-35.5	-37.4	17.2	0.00e+00	0	61	0	966787072	41	4511
2026-01-16 13:35:06.24	116.80	31.75	-35.6	-37.5	17.1	0.00e+00	0	60	0	974127104	41	4561
2026-01-16 13:35:07.24	116.58	31.92	-35.6	-37.5	17.1	0.00e+00	0	61	0	981467136	41	4557
2026-01-16 13:35:08.25	116.36	32.09	-35.6	-37.4	17.2	0.00e+00	0	61	0	988807168	41	4526
2026-01-16 13:35:09.26	116.14	32.25	-35.4	-37.2	17.4	0.00e+00	0	60	0	996147200	41	4400
2026-01-16 13:35:10.27	115.92	32.42	-35.2	-37.0	17.6	0.00e+00	0	60	0	1003487232	41	4315
2026-01-16 13:35:11.28	115.69	32.59	-35.2	-37.0	17.6	0.00e+00	0	60	0	1009778688	40	4566
2026-01-16 13:35:12.29	115.46	32.76	-35.2	-36.9	17.7	0.00e+00	0	61	0	1018167296	40	4517
2026-01-16 13:35:13.30	115.23	32.93	-35.0	-36.7	17.9	0.00e+00	0	61	0	1025507328	40	4432
2026-01-16 13:35:14.31	115.00	33.10	-34.9	-36.6	18.0	0.00e+00	0	60	0	1031798784	40	4345
2026-01-16 13:35:15.32	114.76	33.27	-34.8	-36.5	18.1	0.00e+00	0	61	0	1039138816	40	4313
2026-01-16 13:35:16.33	114.52	33.44	-34.9	-36.5	18.0	0.00e+00	0	60	0	1046478848	40	4337
2026-01-16 13:35:17.34	114.28	33.61	-34.9	-36.6	18.0	0.00e+00	0	60	0	1053818880	40	4347
2026-01-16 13:35:18.35	114.04	33.78	-34.9	-36.5	18.1	0.00e+00	0	61	0	1061158912	40	4319
2026-01-16 13:35:19.36	113.79	33.95	-34.9	-36.6	18.0	0.00e+00	0	61	0	1068498944	40	4350
2026-01-16 13:35:20.37	113.54	34.12	-34.8	-36.4	18.2	0.00e+00	0	61	0	1075838976	40	4262
2026-01-16 13:35:21.39	113.29	34.30	-34.7	-36.3	18.3	0.00e+00	0	61	0	1083179008	40	4211
2026-01-16 13:35:22.39	113.04	34.47	-34.7	-36.3	18.3	0.00e+00	0	60	0	1090519040	40	4228
2026-01-16 13:35:23.40	112.78	34.64	-34.8	-36.4	18.2	0.00e+00	0	60	0	1097859072	40	4263
2026-01-16 13:35:24.41	112.52	34.81	-34.8	-36.4	18.2	0.00e+00	0	61	0	1105199104	40	4255
2026-01-16 13:35:25.42	112.26	34.99	-34.8	-36.4	18.2	0.00e+00	0	61	0	1112539136	40	4287
2026-01-16 13:35:26.43	111.99	35.16	-35.1	-36.7	17.9	0.00e+00	0	61	0	1119879168	40	4427
2026-01-16 13:35:27.44	111.72	35.34	-35.1	-36.8	17.8	0.00e+00	0	61	0	1127219200	40	4479
2026-01-16 13:35:28.45	111.45	35.51	-35.6	-36.8	18.4	0.00e+00	0	61	0	1134559232	40	4450
2026-01-16 13:35:29.46	111.18	35.68	-35.6	-36.8	18.4	0.00e+00	0	61	0	1141899264	40	4467
2026-01-16 13:35:30.47	110.90	35.86	-35.7	-36.9	18.2	0.00e+00	0	61	0	1149239296	41	4275
2026-01-16 13:35:31.48	110.62	36.03	-35.8	-37.0	18.2	0.00e+00	0	61	0	1155530752	41	4305
2026-01-16 13:35:32.49	110.34	36.21	-35.7	-36.9	18.3	0.00e+00	0	61	0	1162870784	41	4243
2026-01-16 13:35:33.50	110.05	36.38	-35.7	-36.8	18.3	0.00e+00	0	61	0	1171259392	41	4241
2026-01-16 13:35:34.51	109.76	36.56	-35.7	-36.9	18.3	0.00e+00	0	61	0	1177550848	41	4259
2026-01-16 13:35:35.52	109.47	36.73	-35.7	-36.8	18.3	0.00e+00	0	61	0	1184890880	41	4235
2026-01-16 13:35:36.53	109.17	36.91	-35.8	-37.0	18.1	0.00e+00	0	61	0	1192230912	41	4312
2026-01-16 13:35:37.54	108.88	37.08	-35.8	-37.0	18.2	0.00e+00	0	61	0	1199570944	41	4315
2026-01-16 13:35:38.55	108.57	37.26	-35.8	-37.0	18.1	0.00e+00	0	61	0	1206910976	41	4329
2026-01-16 13:35:39.56	108.27	37.44	-35.9	-37.1	18.0	0.00e+00	0	61	0	1214251008	41	4369
2026-01-16 13:35:40.56	107.96	37.61	-35.8	-37.0	18.2	0.00e+00	0	61	0	1221591040	41	4312
2026-01-16 13:35:41.57	107.65	37.78	-35.9	-37.1	18.0	0.00e+00	0	61	0	1228931072	41	4378
2026-01-16 13:35:42.58	107.33	37.96	-35.6	-36.8	18.4	0.00e+00	0	61	0	1236271104	41	4217
2026-01-16 13:35:43.59	107.02	38.13	-35.7	-36.8	18.3	0.00e+00	0	61	0	1243611136	41	4232
2026-01-16 13:35:44.60	106.69	38.31	-35.6	-36.7	18.4	0.00e+00	0	61	0	1250951168	41	4176
2026-01-16 13:35:45.61	106.37	38.48	-35.6	-36.7	18.4	0.00e+00	0	61	0	1258291200	41	4178
2026-01-16 13:35:46.62	106.04	38.66	-35.4	-36.5	18.6	0.00e+00	0	61	0	1265631232	41	4084
2026-01-16 13:35:47.63	105.70	38.83	-35.5	-36.6	18.6	0.00e+00	0	61	0	1272971264	41	4135
2026-01-16 13:35:48.64	105.37	39.01	-35.5	-36.6	18.5	0.00e+00	0	61	0	1280311296	41	4130
2026-01-16 13:35:49.65	105.03	39.18	-35.5	-36.6	18.6	0.00e+00	0	61	0	1287651328	41	4118
2026-01-16 13:35:50.66	104.68	39.36	-35.5	-36.6	18.6	0.00e+00	0	61	0	1294991360	41	4131
2026-01-16 13:35:51.67	104.34	39.53	-35.5	-36.7	18.5	0.00e+00	0	61	0	1302331392	41	4170
2026-01-16 13:35:52.68	103.99	39.70	-35.8	-37.0	18.3	0.00e+00	0	61	0	1308622848	41	4292
2026-01-16 13:35:53.69	103.63	39.88	-36.0	-37.2	18.0	0.00e+00	0	61	0	1317011456	41	4395
2026-01-16 13:35:54.70	103.27	40.05	-36.2	-37.4	17.8	0.00e+00	0	61	0	1324351488	41	4531
2026-01-16 13:35:55.71	102.91	40.22	-36.3	-37.6	17.6	0.00e+00	0	61	0	1330642944	42	4355
2026-01-16 13:35:56.72	102.54	40.39	-36.6	-37.9	17.4	0.00e+00	0	61	0	1337982976	42	4502
2026-01-16 13:35:57.73	102.17	40.56	-36.7	-38.0	17.3	0.00e+00	0	61	0	1345323008	43	4320
2026-01-16 13:35:58.74	101.80	40.73	-36.4	-37.7	17.5	0.00e+00	0	61	0	1352663040	43	4167
2026-01-16 13:35:59.75	101.42	40.90	-36.2	-37.4	17.8	0.00e+00	0	61	0	1360003072	43	4023
2026-01-16 13:36:00.76	101.04	41.07	-36.2	-37.4	17.8	0.00e+00	0	61	0	1367343104	43	4015
2026-01-16 13:36:01.77	100.65	41.24	-35.9	-37.0	18.2	0.00e+00	0	61	0	1374683136	42	4086
2026-01-16 13:36:02.78	100.26	41.41	-35.8	-37.0	18.2	0.00e+00	0	61	0	1382023168	42	4065
2026-01-16 13:36:03.79	99.86	41.57	-35.8	-37.0	18.2	0.00e+00	0	61	0	1389363200	42	4073
2026-01-16 13:36:04.80	99.47	41.74	-35.8	-36.9	18.3	0.00e+00	0	61	0	1396703232	42	4039
2026-01-16 13:36:05.80	99.07	41.90	-35.9	-37.0	18.2	0.00e+00	0	61	0	1404043264	42	4087
2026-01-16 13:36:06.81	98.66	42.07	-35.7	-36.8	18.4	0.00e+00	0	61	0	1411383296	42	3988
2026-01-16 13:36:07.82	98.25	42.23	-35.6	-36.8	18.5	0.00e+00	0	61	0	1418723328	41	4195
2026-01-16 13:36:08.83	97.83	42.39	-35.6	-36.7	18.5	0.00e+00	0	61	0	1426063360	41	4188
2026-01-16 13:36:09.84	97.41	42.55	-35.7	-36.9	18.4	0.00e+00	0	61	0	1432354816	41	4248
2026-01-16 13:36:10.85	96.99	42.71	-35.8	-37.0	18.3	0.00e+00	0	61	0	1440743424	41	4310
2026-01-16 13:36:11.86	96.56	42.87	-35.8	-37.0	18.3	0.00e+00	0	61	0	1448083456	41	4303
2026-01-16 13:36:12.87	96.13	43.03	-35.8	-36.9	18.3	0.00e+00	0	61	0	1454374912	41	4283
2026-01-16 13:36:13.88	95.69	43.19	-35.9	-37.1	18.2	0.00e+00	0	61	0	1461714944	41	4346
2026-01-16 13:36:14.89	95.25	43.34	-35.8	-36.9	18.3	0.00e+00	0	61	0	1469054976	41	4289
2026-01-16 13:36:15.90	94.81	43.50	-35.7	-36.9	18.4	0.00e+00	0	61	0	1476395008	41	4244
2026-01-16 13:36:16.91	94.36	43.65	-35.7	-36.8	18.4	0.00e+00	0	61	0	1483735040	41	4218
2026-01-16 13:36:17.92	93.90	43.80	-35.6	-36.7	18.5	0.00e+00	0	61	0	1491075072	41	4162
2026-01-16 13:36:18.93	93.45	43.95	-35.5	-36.6	18.7	0.00e+00	0	61	0	1498415104	41	4138
2026-01-16 13:36:19.94	92.98	44.10	-35.5	-36.6	18.7	0.00e+00	0	61	0	1505755136	41	4128
2026-01-16 13:36:20.95	92.52	44.25	-35.6	-36.7	18.6	0.00e+00	0	61	0	1513095168	41	4161
2026-01-16 13:36:21.96	92.05	44.40	-35.8	-37.0	18.3	0.00e+00	0	61	0	1520435200	41	4315
2026-01-16 13:36:22.97	91.57	44.54	-36.0	-37.2	18.1	0.00e+00	0	61	0	1527775232	41	4425
2026-01-16 13:36:23.98	91.09	44.68	-36.1	-37.3	17.9	0.00e+00	0	61	0	1535115264	42	4221
2026-01-16 13:36:24.99	90.61	44.82	-36.4	-37.6	17.7	0.00e+00	0	61	0	1542455296	42	4355
2026-01-16 13:36:26.00	90.12	44.96	-36.3	-37.6	17.8	0.00e+00	0	61	0	1549795328	42	4341
2026-01-16 13:36:27.01	89.63	45.10	-36.4	-37.6	17.7	0.00e+00	0	61	0	1557135360	42	4359
2026-01-16 13:36:28.02	89.13	45.23	-36.4	-37.6	17.7	0.00e+00	0	61	0	1564475392	42	4365
2026-01-16 13:36:29.03	88.63	45.36	-36.3	-37.5	17.7	0.00e+00	0	61	0	1571815424	42	4333
2026-01-16 13:36:30.04	88.12	45.50	-36.3	-37.5	17.8	0.00e+00	0	61	0	1579155456	42	4304
2026-01-16 13:36:31.05	87.61	45.62	-36.0	-37.2	18.1	0.00e+00	0	61	0	1586495488	42	4185
2026-01-16 13:36:32.06	87.10	45.75	-35.9	-37.1	18.2	0.00e+00	0	61	0	1593835520	42	4128
2026-01-16 13:36:33.07	86.58	45.88	-35.9	-37.1	18.2	0.00e+00	0	61	0	1601175552	42	4124
2026-01-16 13:36:34.08	86.06	46.00	-36.0	-37.1	18.2	0.00e+00	0	61	0	1607467008	42	4139
2026-01-16 13:36:35.09	85.54	46.12	-35.9	-37.1	18.2	0.00e+00	0	61	0	1615855616	42	4101
2026-01-16 13:36:36.10	85.01	46.24	-36.0	-37.2	18.1	0.00e+00	0	61	0	1623195648	42	4170
2026-01-16 13:36:37.12	84.47	46.35	-36.1	-37.3	18.0	0.00e+00	0	61	0	1629487104	42	4221
2026-01-16 13:36:38.13	83.93	46.46	-36.1	-37.3	17.9	0.00e+00	0	61	0	1636827136	42	4228
2026-01-16 13:36:39.14	83.39	46.57	-36.4	-37.7	17.7	0.00e+00	0	61	0	1644167168	42	4394
2026-01-16 13:36:40.15	82.84	46.68	-36.3	-37.6	17.8	0.00e+00	0	61	0	1651507200	42	4343
2026-01-16 13:36:41.16	82.29	46.79	-36.3	-37.5	17.8	0.00e+00	0	61	0	1658847232	42	4320
2026-01-16 13:36:42.17	81.74	46.89	-36.1	-37.3	18.0	0.00e+00	0	61	0	1666187264	42	4227
2026-01-16 13:36:43.18	81.19	46.99	-36.2	-37.4	17.9	0.00e+00	0	61	0	1673527296	42	4253
2026-01-16 13:36:44.19	80.63	47.09	-36.4	-37.7	17.7	0.00e+00	0	61	0	1680867328	42	4409
2026-01-16 13:36:45.20	80.06	47.18	-36.7	-38.0	17.3	0.00e+00	0	61	0	1688207360	42	4548
2026-01-16 13:36:46.21	79.50	47.27	-36.8	-38.0	17.3	0.00e+00	0	61	0	1695547392	43	4337
2026-01-16 13:36:47.22	78.93	47.36	-36.6	-37.9	17.5	0.00e+00	0	61	0	1702887424	43	4256
2026-01-16 13:36:48.23	78.35	47.45	-36.5	-37.7	17.7	0.00e+00	0	61	0	1710227456	43	4163
2026-01-16 13:36:49.24	77.78	47.53	-36.2	-37.3	18.0	0.00e+00	0	61	0	1717567488	43	3994
2026-01-16 13:36:50.25	77.20	47.61	-36.1	-37.3	18.1	0.00e+00	0	61	0	1724907520	43	3976
2026-01-16 13:36:51.26	76.62	47.69	-36.0	-37.2	18.2	0.00e+00	0	61	0	1732247552	42	4155
2026-01-16 13:36:52.26	76.04	47.76	-36.0	-37.2	18.2	0.00e+00	0	61	0	1739587584	42	4178
2026-01-16 13:36:53.28	75.45	47.83	-36.4	-37.6	17.8	0.00e+00	0	61	0	1746927616	42	4351
2026-01-16 13:36:54.29	74.86	47.90	-36.6	-37.8	17.6	0.00e+00	0	61	0	1753219072	42	4476
2026-01-16 13:36:55.30	74.26	47.96	-36.8	-38.0	17.4	0.00e+00	0	61	0	1761607680	43	4328
2026-01-16 13:36:56.31	73.67	48.02	-36.8	-38.1	17.3	0.00e+00	0	61	0	1768947712	43	4361
2026-01-16 13:36:57.32	73.07	48.08	-36.6	-37.8	17.5	0.00e+00	0	61	0	1775239168	43	4242
2026-01-16 13:36:58.33	72.47	48.13	-36.4	-37.7	17.7	0.00e+00	0	61	0	1782579200	43	4153
2026-01-16 13:36:59.34	71.87	48.18	-36.4	-37.7	17.7	0.00e+00	0	61	0	1789919232	43	4146
2026-01-16 13:37:00.35	71.27	48.23	-36.5	-37.7	17.7	0.00e+00	0	61	0	1797259264	43	4156
2026-01-16 13:37:01.36	70.66	48.27	-36.5	-37.7	17.7	0.00e+00	0	61	0	1804599296	43	4168
2026-01-16 13:37:02.37	70.06	48.31	-36.9	-38.1	17.3	0.00e+00	0	61	0	1811939328	43	4376
2026-01-16 13:37:03.38	69.45	48.35	-36.8	-38.0	17.4	0.00e+00	0	61	0	1819279360	43	4328
2026-01-16 13:37:04.39	68.84	48.38	-36.7	-38.0	17.4	0.00e+00	0	61	0	1826619392	43	4305
2026-01-16 13:37:05.40	68.23	48.41	-36.8	-38.1	17.3	0.00e+00	0	61	0	1833959424	43	4353
2026-01-16 13:37:06.41	67.62	48.44	-36.6	-37.8	17.6	0.00e+00	0	61	0	1841299456	43	4233
2026-01-16 13:37:07.42	67.00	48.46	-36.6	-37.9	17.5	0.00e+00	0	61	0	1848639488	43	4270
2026-01-16 13:37:08.43	66.39	48.48	-36.8	-38.0	17.4	0.00e+00	0	61	0	1855979520	43	4332
2026-01-16 13:37:09.44	65.78	48.50	-36.7	-37.9	17.4	0.00e+00	0	61	0	1863319552	43	4286
2026-01-16 13:37:10.45	65.16	48.51	-36.8	-38.0	17.4	0.00e+00	0	61	0	1870659584	43	4335
2026-01-16 13:37:11.46	64.55	48.52	-36.8	-38.0	17.3	0.00e+00	0	61	0	1877999616	43	4337
2026-01-16 13:37:12.47	63.93	48.53	-36.5	-37.8	17.6	0.00e+00	0	61	0	1885339648	43	4208
2026-01-16 13:37:13.48	63.32	48.53	-36.4	-37.6	17.8	0.00e+00	0	61	0	1892679680	43	4131
2026-01-16 13:37:14.49	62.70	48.53	-36.4	-37.6	17.7	0.00e+00	0	61	0	1900019712	43	4140
2026-01-16 13:37:15.50	62.09	48.52	-36.7	-37.9	17.5	0.00e+00	0	61	0	1907359744	43	4273
2026-01-16 13:37:16.51	61.47	48.51	-36.8	-38.1	17.3	0.00e+00	0	61	0	1914699776	43	4351
2026-01-16 13:37:17.53	60.85	48.50	-37.0	-38.3	17.2	0.00e+00	0	61	0	1922039808	43	4443
2026-01-16 13:37:18.54	60.24	48.48	-37.1	-38.4	17.0	0.00e+00	0	61	0	1928331264	43	4519
2026-01-16 13:37:19.55	59.62	48.46	-36.9	-38.2	17.1	0.00e+00	0	61	0	1936719872	43	4423
2026-01-16 13:37:20.56	59.01	48.44	-37.1	-38.4	17.0	0.00e+00	0	61	0	1944059904	43	4521
2026-01-16 13:37:21.57	58.40	48.41	-37.3	-38.6	17.0	0.00e+00	0	61	0	1950351360	44	4350
2026-01-16 13:37:22.57	57.79	48.38	-37.3	-38.6	17.0	0.00e+00	0	61	0	1957691392	44	4375
2026-01-16 13:37:23.58	57.19	48.35	-37.3	-38.6	17.0	0.00e+00	0	61	0	1965031424	44	4343
2026-01-16 13:37:24.59	56.58	48.31	-37.2	-38.5	17.1	0.00e+00	0	61	0	1972371456	44	4308
2026-01-16 13:37:25.60	55.97	48.27	-37.1	-38.5	17.1	0.00e+00	0	61	0	1979711488	44	4294
2026-01-16 13:37:26.61	55.37	48.23	-37.1	-38.3	17.2	0.00e+00	0	61	0	1987051520	44	4239
2026-01-16 13:37:27.63	54.76	48.18	-36.8	-38.1	17.5	0.00e+00	0	61	0	1994391552	44	4113
2026-01-16 13:37:28.64	54.16	48.13	-36.7	-38.0	17.6	0.00e+00	0	61	0	2001731584	44	4058
2026-01-16 13:37:29.65	53.56	48.07	-36.8	-38.0	17.5	0.00e+00	0	61	0	2009071616	44	4081
2026-01-16 13:37:30.66	52.96	48.01	-36.8	-38.0	17.5	0.00e+00	0	61	0	2016411648	44	4086
2026-01-16 13:37:31.67	52.37	47.95	-36.5	-37.7	17.8	0.00e+00	0	61	0	2023751680	44	3944
2026-01-16 13:37:32.68	51.78	47.89	-36.3	-37.5	17.9	0.00e+00	0	61	0	2031091712	43	4057
2026-01-16 13:37:33.69	51.19	47.82	-36.4	-37.7	17.7	0.00e+00	0	61	0	2038431744	43	4148
2026-01-16 13:37:34.70	50.60	47.75	-36.6	-37.9	17.5	0.00e+00	0	61	0	2045771776	43	4245
2026-01-16 13:37:35.71	50.02	47.68	-36.8	-38.1	17.3	0.00e+00	0	61	0	2053111808	43	4369
2026-01-16 13:37:36.72	49.44	47.60	-36.8	-38.1	17.3	0.00e+00	0	61	0	2060451840	43	4349
2026-01-16 13:37:37.73	48.86	47.52	-36.7	-37.9	17.5	0.00e+00	0	61	0	2067791872	43	4284
2026-01-16 13:37:38.74	48.28	47.44	-36.3	-37.5	17.9	0.00e+00	0	61	0	2075131904	43	4071
2026-01-16 13:37:39.75	47.71	47.35	-36.2	-37.4	18.0	0.00e+00	0	61	0	2082471936	43	4023
2026-01-16 13:37:40.76	47.14	47.26	-36.3	-37.5	17.9	0.00e+00	0	61	0	2089811968	43	4053
2026-01-16 13:37:41.77	46.58	47.17	-36.3	-37.5	17.8	0.00e+00	0	61	0	2096103424	43	4092
2026-01-16 13:37:42.78	46.02	47.08	-36.5	-37.7	17.7	0.00e+00	0	61	0	2103443456	43	4187
2026-01-16 13:37:43.79	45.46	46.98	-36.4	-37.7	17.7	0.00e+00	0	61	0	2110783488	43	4151
2026-01-16 13:37:44.80	44.90	46.88	-36.3	-37.6	17.8	0.00e+00	0	61	0	2118123520	43	4105
2026-01-16 13:37:45.81	44.35	46.78	-36.3	-37.5	17.8	0.00e+00	0	61	0	2125463552	43	4088
2026-01-16 13:37:46.82	43.81	46.67	-36.4	-37.6	17.8	0.00e+00	0	61	0	2132803584	43	4134
2026-01-16 13:37:47.83	43.26	46.57	-36.3	-37.5	17.9	0.00e+00	0	61	0	2140143616	43	4083
2026-01-16 13:37:48.84	42.72	46.46	-36.2	-37.4	18.0	0.00e+00	0	61	0	2147483648	43	4045
2026-01-16 13:37:49.85	42.19	46.34	-36.1	-37.3	18.0	0.00e+00	0	61	0	2154823680	43	3987
2026-01-16 13:37:50.86	41.65	46.23	-36.2	-37.4	17.9	0.00e+00	0	61	0	2162163712	43	4028
2026-01-16 13:37:51.87	41.12	46.11	-36.2	-37.4	18.0	0.00e+00	0	61	0	2169503744	43	4024
2026-01-16 13:37:52.88	40.60	45.99	-36.4	-37.7	17.7	0.00e+00	0	61	0	2176843776	43	4146
2026-01-16 13:37:53.89	40.08	45.87	-36.3	-37.5	17.9	0.00e+00	0	61	0	2184183808	43	4085
2026-01-16 13:37:54.90	39.56	45.74	-36.2	-37.3	18.0	0.00e+00	0	61	0	2191523840	43	4002
2026-01-16 13:37:55.91	39.05	45.62	-36.2	-37.3	18.0	0.00e+00	0	61	0	2198863872	43	4004
2026-01-16 13:37:56.92	38.54	45.49	-36.2	-37.4	18.0	0.00e+00	0	61	0	2206203904	43	4013
2026-01-16 13:37:57.93	38.04	45.36	-36.1	-37.3	18.1	0.00e+00	0	61	0	2213543936	43	3971
2026-01-16 13:37:58.94	37.54	45.23	-36.2	-37.4	18.0	0.00e+00	0	61	0	2220883968	43	4008
2026-01-16 13:37:59.95	37.04	45.09	-36.3	-37.5	17.9	0.00e+00	0	61	0	2228224000	43	4080
2026-01-16 13:38:00.96	36.55	44.95	-36.4	-37.6	17.7	0.00e+00	0	61	0	2235564032	43	4145
2026-01-16 13:38:01.96	36.07	44.82	-36.4	-37.6	17.7	0.00e+00	0	61	0	2242904064	43	4143
2026-01-16 13:38:02.98	35.58	44.68	-36.4	-37.7	17.7	0.00e+00	0	61	0	2249195520	43	4151
2026-01-16 13:38:03.99	35.11	44.53	-36.3	-37.5	17.9	0.00e+00	0	61	0	2256535552	43	4060
2026-01-16 13:38:05.00	34.63	44.39	-36.1	-37.3	18.1	0.00e+00	0	61	0	2264924160	43	3963
2026-01-16 13:38:06.01	34.16	44.24	-35.9	-37.0	18.3	0.00e+00	0	61	0	2271215616	42	4090
2026-01-16 13:38:07.02	33.70	44.10	-35.7	-36.8	18.5	0.00e+00	0	61	0	2278555648	42	3980
2026-01-16 13:38:08.03	33.24	43.95	-35.7	-36.9	18.5	0.00e+00	0	61	0	2285895680	42	4015
2026-01-16 13:38:09.04	32.78	43.80	-35.6	-36.7	18.6	0.00e+00	0	61	0	2293235712	42	3940
2026-01-16 13:38:10.05	32.33	43.65	-35.7	-36.8	18.5	0.00e+00	0	61	0	2300575744	42	3981
2026-01-16 13:38:11.06	31.88	43.50	-35.7	-36.9	18.4	0.00e+00	0	61	0	2307915776	42	4019
2026-01-16 13:38:12.07	31.44	43.34	-35.9	-37.0	18.3	0.00e+00	0	61	0	2315255808	42	4085
2026-01-16 13:38:13.07	31.00	43.19	-35.8	-37.0	18.4	0.00e+00	0	61	0	2322595840	42	4063
2026-01-16 13:38:14.09	30.56	43.03	-35.7	-36.9	18.4	0.00e+00	0	61	0	2329935872	42	4016
2026-01-16 13:38:15.10	30.13	42.87	-35.7	-36.8	18.5	0.00e+00	0	61	0	2337275904	42	3989
2026-01-16 13:38:16.11	29.70	42.71	-35.6	-36.7	18.6	0.00e+00	0	61	0	2344615936	42	3950
2026-01-16 13:38:17.12	29.28	42.55	-35.6	-36.8	18.6	0.00e+00	0	61	0	2351955968	42	3970
2026-01-16 13:38:18.13	28.86	42.39	-35.8	-36.9	18.4	0.00e+00	0	61	0	2359296000	42	4039
2026-01-16 13:38:19.14	28.45	42.23	-35.9	-37.1	18.2	0.00e+00	0	61	0	2366636032	42	4120
2026-01-16 13:38:20.15	28.04	42.07	-35.9	-37.1	18.2	0.00e+00	0	61	0	2373976064	42	4132
2026-01-16 13:38:21.16	27.63	41.90	-35.9	-37.0	18.3	0.00e+00	0	61	0	2381316096	42	4092
2026-01-16 13:38:22.17	27.23	41.74	-35.7	-36.8	18.5	0.00e+00	0	61	0	2388656128	42	3989
2026-01-16 13:38:23.18	26.84	41.57	-35.5	-36.7	18.6	0.00e+00	0	61	0	2395996160	42	3918
2026-01-16 13:38:24.19	26.44	41.41	-35.4	-36.4	18.8	0.00e+00	0	61	0	2402287616	41	4051
2026-01-16 13:38:25.20	26.05	41.24	-35.4	-36.5	18.8	0.00e+00	0	61	0	2410676224	41	4095
2026-01-16 13:38:26.21	25.67	41.07	-35.5	-36.7	18.6	0.00e+00	0	61	0	2418016256	41	4154
2026-01-16 13:38:27.22	25.29	40.90	-35.7	-36.8	18.4	0.00e+00	0	61	0	2424307712	41	4230
2026-01-16 13:38:28.23	24.91	40.73	-35.9	-37.0	18.2	0.00e+00	0	61	0	2431647744	41	4340
2026-01-16 13:38:29.24	24.54	40.56	-35.9	-37.1	18.2	0.00e+00	0	61	0	2438987776	41	4371
2026-01-16 13:38:30.25	24.17	40.39	-35.9	-37.1	18.2	0.00e+00	0	61	0	2446327808	41	4351
2026-01-16 13:38:31.26	23.80	40.22	-35.8	-37.0	18.3	0.00e+00	0	61	0	2453667840	41	4299
2026-01-16 13:38:32.27	23.44	40.05	-35.7	-36.9	18.3	0.00e+00	0	61	0	2461007872	41	4263
2026-01-16 13:38:33.27	23.09	39.88	-35.8	-37.0	18.2	0.00e+00	0	61	0	2468347904	41	4322
2026-01-16 13:38:34.28	22.73	39.71	-35.9	-37.1	18.0	0.00e+00	0	61	0	2475687936	41	4373
2026-01-16 13:38:35.30	22.38	39.54	-35.8	-37.0	18.3	0.00e+00	0	61	0	2483027968	41	4295
2026-01-16 13:38:36.31	22.03	39.36	-35.8	-36.9	18.3	0.00e+00	0	61	0	2490368000	41	4275
2026-01-16 13:38:37.32	21.69	39.19	-35.8	-37.0	18.3	0.00e+00	0	61	0	2497708032	41	4323
2026-01-16 13:38:38.33	21.35	39.02	-36.0	-37.2	18.0	0.00e+00	0	61	0	2505048064	41	4407
2026-01-16 13:38:39.34	21.02	38.84	-36.1	-37.3	17.9	0.00e+00	0	61	0	2512388096	41	4475
2026-01-16 13:38:40.35	20.68	38.67	-36.0	-37.2	18.1	0.00e+00	0	61	0	2519728128	41	4396
2026-01-16 13:38:41.36	20.36	38.49	-35.7	-36.9	18.3	0.00e+00	0	61	0	2527068160	41	4275
2026-01-16 13:38:42.37	20.03	38.32	-35.6	-36.8	18.4	0.00e+00	0	61	0	2534408192	41	4219
2026-01-16 13:38:43.38	19.71	38.15	-35.6	-36.7	18.5	0.00e+00	0	61	0	2541748224	41	4184
2026-01-16 13:38:44.39	19.39	37.97	-35.6	-36.7	18.5	0.00e+00	0	61	0	2548039680	41	4178
2026-01-16 13:38:45.40	19.08	37.80	-35.6	-36.8	18.5	0.00e+00	0	61	0	2556428288	41	4200
2026-01-16 13:38:46.41	18.77	37.62	-35.6	-36.7	18.5	0.00e+00	0	61	0	2563768320	41	4172
2026-01-16 13:38:47.42	18.46	37.45	-35.6	-36.7	18.5	0.00e+00	0	61	0	2570059776	41	4170
2026-01-16 13:38:48.43	18.16	37.27	-35.5	-36.7	18.5	0.00e+00	0	61	0	2577399808	41	4157
2026-01-16 13:38:49.44	17.86	37.10	-35.5	-36.7	18.6	0.00e+00	0	61	0	2584739840	41	4150
2026-01-16 13:38:50.45	17.56	36.92	-35.5	-36.6	18.6	0.00e+00	0	61	0	2592079872	41	4144
2026-01-16 13:38:51.46	17.26	36.75	-35.5	-36.6	18.6	0.00e+00	0	61	0	2599419904	41	4131
2026-01-16 13:38:52.47	16.97	36.57	-35.5	-36.6	18.6	0.00e+00	0	61	0	2606759936	41	4112
2026-01-16 13:38:53.48	16.68	36.40	-35.5	-36.6	18.6	0.00e+00	0	61	0	2614099968	41	4117
2026-01-16 13:38:54.49	16.40	36.23	-35.5	-36.6	18.6	0.00e+00	0	61	0	2621440000	41	4138
2026-01-16 13:38:55.50	16.12	36.05	-35.5	-36.7	18.5	0.00e+00	0	61	0	2628780032	41	4149
2026-01-16 13:38:56.51	15.84	35.88	-35.5	-36.7	18.5	0.00e+00	0	61	0	2636120064	41	4157
2026-01-16 13:38:57.52	15.56	35.70	-35.6	-36.7	18.5	0.00e+00	0	61	0	2643460096	41	4180
2026-01-16 13:38:58.53	15.29	35.53	-35.5	-36.7	18.5	0.00e+00	0	61	0	2650800128	41	4160
2026-01-16 13:38:59.53	15.02	35.36	-35.4	-36.5	18.7	0.00e+00	0	61	0	2658140160	41	4089
2026-01-16 13:39:00.55	14.75	35.18	-35.4	-36.5	18.7	0.00e+00	0	61	0	2665480192	41	4070
2026-01-16 13:39:01.56	14.49	35.01	-35.2	-36.3	18.8	0.00e+00	0	61	0	2672820224	41	3994
2026-01-16 13:39:02.57	14.23	34.84	-35.4	-36.5	18.7	0.00e+00	0	62	0	2680160256	41	4070
2026-01-16 13:39:03.58	13.97	34.66	-35.4	-36.6	18.6	0.00e+00	0	62	0	2687500288	41	4107
2026-01-16 13:39:04.58	13.71	34.49	-35.6	-36.7	18.4	0.00e+00	0	61	0	2694840320	41	4186
2026-01-16 13:39:05.59	13.46	34.32	-35.3	-36.4	18.5	0.00e+00	0	61	0	2702180352	41	4039
2026-01-16 13:39:06.60	13.21	34.15	-35.3	-36.4	18.8	0.00e+00	0	61	0	2709520384	41	4016
2026-01-16 13:39:07.61	12.96	33.98	-35.2	-36.3	18.9	0.00e+00	0	61	0	2716860416	41	3961
2026-01-16 13:39:08.62	12.72	33.81	-34.9	-36.0	19.1	0.00e+00	0	61	0	2723151872	40	4088
2026-01-16 13:39:09.63	12.47	33.64	-35.1	-36.1	19.0	0.00e+00	0	61	0	2730491904	40	4136
2026-01-16 13:39:10.64	12.23	33.47	-35.3	-36.4	18.8	0.00e+00	0	61	0	2737831936	40	4262
2026-01-16 13:39:11.65	12.00	33.30	-35.5	-36.6	18.6	0.00e+00	0	61	0	2745171968	40	4367
2026-01-16 13:39:12.67	11.76	33.13	-35.7	-36.8	18.4	0.00e+00	0	61	0	2752512000	40	4478
2026-01-16 13:39:13.68	11.53	32.96	-35.8	-37.0	18.2	0.00e+00	0	61	0	2759852032	41	4302
2026-01-16 13:39:14.69	11.30	32.79	-35.8	-37.0	18.1	0.00e+00	0	61	0	2767192064	41	4330
2026-01-16 13:39:15.69	11.07	32.62	-35.8	-37.0	18.1	0.00e+00	0	61	0	2774532096	41	4321
2026-01-16 13:39:16.70	10.85	32.46	-35.8	-37.0	18.1	0.00e+00	0	61	0	2781872128	41	4329
2026-01-16 13:39:17.71	10.62	32.29	-35.7	-36.9	18.3	0.00e+00	0	61	0	2789212160	41	4271
2026-01-16 13:39:18.72	10.40	32.12	-35.6	-36.8	18.3	0.00e+00	0	61	0	2796552192	41	4211
2026-01-16 13:39:19.73	10.18	31.96	-35.6	-36.8	18.4	0.00e+00	0	61	0	2803892224	41	4205
2026-01-16 13:39:20.74	9.97	31.79	-35.5	-36.6	18.5	0.00e+00	0	61	0	2811232256	41	4136
2026-01-16 13:39:21.75	9.75	31.62	-35.5	-36.6	18.5	0.00e+00	0	61	0	2818572288	41	4133
2026-01-16 13:39:22.76	9.54	31.46	-35.5	-36.6	18.5	0.00e+00	0	61	0	2825912320	41	4124
2026-01-16 13:39:23.77	9.33	31.29	-35.6	-36.8	18.4	0.00e+00	0	61	0	2833252352	41	4205
2026-01-16 13:39:24.78	9.13	31.13	-35.6	-36.8	18.3	0.00e+00	0	62	0	2840592384	41	4227
2026-01-16 13:39:25.79	8.92	30.97	-35.7	-36.9	18.2	0.00e+00	0	61	0	2846883840	41	4264
2026-01-16 13:39:26.80	8.72	30.80	-35.7	-36.8	18.2	0.00e+00	0	61	0	2855272448	41	4237
2026-01-16 13:39:27.81	8.52	30.64	-35.6	-36.7	18.4	0.00e+00	0	61	0	2862612480	41	4186
2026-01-16 13:39:28.82	8.32	30.48	-35.5	-36.6	18.5	0.00e+00	0	61	0	2868903936	41	4124
2026-01-16 13:39:29.83	8.12	30.32	-35.3	-36.4	18.6	0.00e+00	0	61	0	2876243968	41	4051
2026-01-16 13:39:30.84	7.92	30.16	-35.3	-36.4	18.7	0.00e+00	0	62	0	2883584000	41	4047
2026-01-16 13:39:31.85	7.73	30.00	-35.4	-36.5	18.6	0.00e+00	0	61	0	2890924032	41	4069
2026-01-16 13:39:32.86	7.54	29.84	-35.4	-36.6	18.5	0.00e+00	0	61	0	2898264064	41	4101
2026-01-16 13:39:33.87	7.35	29.68	-35.6	-36.7	18.4	0.00e+00	0	61	0	2905604096	41	4175
2026-01-16 13:39:34.88	7.16	29.52	-35.6	-36.7	18.4	0.00e+00	0	61	0	2912944128	41	4167
2026-01-16 13:39:35.89	6.98	29.36	-35.7	-36.9	18.2	0.00e+00	0	61	0	2920284160	41	4247
2026-01-16 13:39:36.90	6.79	29.20	-35.8	-37.0	18.0	0.00e+00	0	61	0	2927624192	41	4336
2026-01-16 13:39:37.91	6.61	29.05	-35.9	-37.1	18.0	0.00e+00	0	61	0	2934964224	41	4361
2026-01-16 13:39:38.92	6.43	28.89	-35.9	-37.1	17.9	0.00e+00	0	61	0	2942304256	41	4385
2026-01-16 13:39:39.93	6.25	28.73	-36.0	-37.3	17.8	0.00e+00	0	62	0	2949644288	41	4443
2026-01-16 13:39:40.94	6.08	28.58	-36.0	-37.2	17.8	0.00e+00	0	62	0	2956984320	41	4429
2026-01-16 13:39:41.95	5.90	28.42	-35.9	-37.1	18.0	0.00e+00	0	61	0	2964324352	41	4369
2026-01-16 13:39:42.96	5.73	28.27	-36.0	-37.2	17.9	0.00e+00	0	62	0	2971664384	41	4414
2026-01-16 13:39:43.97	5.56	28.11	-36.0	-37.3	17.8	0.00e+00	0	61	0	2979004416	41	4450
2026-01-16 13:39:44.97	5.39	27.96	-36.1	-37.3	17.7	0.00e+00	0	61	0	2986344448	41	4478
2026-01-16 13:39:45.98	5.22	27.81	-36.0	-37.2	17.8	0.00e+00	0	61	0	2993684480	41	4416
2026-01-16 13:39:46.99	5.06	27.66	-35.9	-37.1	17.9	0.00e+00	0	61	0	3001024512	41	4385
2026-01-16 13:39:48.00	4.89	27.51	-35.9	-37.1	17.9	0.00e+00	0	61	0	3008364544	41	4382
2026-01-16 13:39:49.01	4.73	27.36	-36.0	-37.2	17.8	0.00e+00	0	62	0	3015704576	41	4417
2026-01-16 13:39:50.02	4.57	27.21	-36.1	-37.3	17.7	0.00e+00	0	61	0	3021996032	41	4468
2026-01-16 13:39:51.03	4.41	27.06	-36.2	-37.4	17.6	0.00e+00	0	61	0	3029336064	41	4513
2026-01-16 13:39:52.04	4.25	26.91	-36.2	-37.5	17.6	0.00e+00	0	61	0	3036676096	42	4314
2026-01-16 13:39:53.05	4.09	26.76	-36.1	-37.3	17.7	0.00e+00	0	61	0	3044016128	42	4232
2026-01-16 13:39:54.06	3.93	26.61	-36.0	-37.2	17.8	0.00e+00	0	61	0	3051356160	42	4181
2026-01-16 13:39:55.07	3.78	26.46	-36.0	-37.2	17.8	0.00e+00	0	62	0	3058696192	42	4179
2026-01-16 13:39:56.08	3.63	26.32	-36.0	-37.2	17.8	0.00e+00	0	61	0	3066036224	42	4170
2026-01-16 13:39:57.08	3.48	26.17	-36.0	-37.2	17.7	0.00e+00	0	61	0	3073376256	42	4171
2026-01-16 13:39:58.10	3.33	26.02	-36.1	-37.3	17.6	0.00e+00	0	61	0	3080716288	42	4235
2026-01-16 13:39:59.11	3.18	25.88	-36.0	-37.2	17.8	0.00e+00	0	62	0	3088056320	42	4176
2026-01-16 13:40:00.12	3.03	25.73	-36.0	-37.2	17.8	1.10e-06	0	61	0	3095396352	42	4164
2026-01-16 13:40:01.12	2.89	25.59	-36.0	-37.3	17.7	0.00e+00	0	62	0	3102736384	42	4201
2026-01-16 13:40:02.13	2.74	25.45	-36.1	-37.3	17.6	0.00e+00	0	61	0	3110076416	42	4237
2026-01-16 13:40:03.14	2.60	25.30	-36.1	-37.4	17.5	0.00e+00	0	61	0	3117416448	42	4262
2026-01-16 13:40:04.15	2.46	25.16	-36.2	-37.4	17.6	0.00e+00	0	61	0	3124756480	42	4268
2026-01-16 13:40:05.16	2.32	25.02	-36.2	-37.5	17.5	0.00e+00	0	61	0	3132096512	42	4296
2026-01-16 13:40:06.17	2.18	24.88	-36.0	-37.2	17.7	0.00e+00	0	61	0	3139436544	42	4176
2026-01-16 13:40:07.18	2.04	24.74	-35.9	-37.2	17.7	0.00e+00	0	61	0	3145728000	42	4160
2026-01-16 13:40:08.19	1.90	24.60	-35.8	-37.1	17.8	0.00e+00	0	61	0	3153068032	42	4099
2026-01-16 13:40:09.20	1.77	24.46	-35.8	-37.0	17.9	0.00e+00	0	61	0	3161456640	42	4054
2026-01-16 13:40:10.21	1.63	24.32	-35.8	-37.0	17.8	0.00e+00	0	61	0	3167748096	42	4094
2026-01-16 13:40:11.22	1.50	24.18	-35.8	-37.0	17.9	0.00e+00	0	61	0	3175088128	42	4068
2026-01-16 13:40:12.23	1.37	24.04	-35.8	-36.9	17.9	0.00e+00	0	61	0	3182428160	42	4050
2026-01-16 13:40:13.24	1.24	23.91	-35.7	-36.9	18.0	0.00e+00	0	61	0	3189768192	42	4038
2026-01-16 13:40:14.25	1.11	23.77	-35.8	-36.9	17.9	0.00e+00	0	61	0	3197108224	42	4046
2026-01-16 13:40:15.26	0.98	23.63	-35.8	-37.0	17.9	0.00e+00	0	61	0	3204448256	42	4072
2026-01-16 13:40:16.27	0.85	23.50	-35.9	-37.2	17.7	0.00e+00	0	62	0	3211788288	42	4147
2026-01-16 13:40:17.28	0.73	23.36	-36.0	-37.3	17.6	0.00e+00	0	61	0	3219128320	42	4204
2026-01-16 13:40:18.29	0.60	23.23	-36.1	-37.3	17.5	0.00e+00	0	61	0	3226468352	42	4227
2026-01-16 13:40:19.30	0.48	23.10	-36.3	-37.5	17.3	0.00e+00	0	61	0	3233808384	42	4337
2026-01-16 13:40:20.30	0.36	22.96	-36.3	-37.6	17.2	0.00e+00	0	61	0	3241148416	42	4391
2026-01-16 13:40:21.32	0.23	22.83	-36.5	-37.8	17.0	0.00e+00	0	61	0	3248488448	42	4461
2026-01-16 13:40:22.33	0.11	22.70	-36.5	-37.9	16.9	0.00e+00	0	61	0	3255828480	42	4502
2026-01-16 13:40:23.34	359.99	22.57	-36.6	-37.9	16.9	0.00e+00	0	62	0	3263168512	42	4524
2026-01-16 13:40:24.35	359.88	22.43	-36.6	-38.0	16.8	0.00e+00	0	61	0	3270508544	42	4551
2026-01-16 13:40:25.36	359.76	22.30	-36.7	-38.0	16.7	0.00e+00	0	61	0	3277848576	42	4590
2026-01-16 13:40:26.37	359.64	22.17	-36.6	-37.9	16.8	0.00e+00	0	61	0	3285188608	42	4533
2026-01-16 13:40:27.38	359.53	22.04	-36.4	-37.8	17.0	0.00e+00	0	61	0	3292528640	42	4445
2026-01-16 13:40:28.38	359.41	21.92	-36.4	-37.7	17.0	0.00e+00	0	61	0	3298820096	42	4406
2026-01-16 13:40:29.40	359.30	21.79	-36.3	-37.6	17.0	0.00e+00	0	61	0	3307208704	42	4367
2026-01-16 13:40:30.41	359.19	21.66	-36.2	-37.5	17.1	0.00e+00	0	61	0	3314548736	42	4324
2026-01-16 13:40:31.42	359.07	21.53	-36.2	-37.5	17.1	0.00e+00	0	61	0	3320840192	42	4318
2026-01-16 13:40:32.43	358.96	21.40	-36.2	-37.5	17.1	0.00e+00	0	62	0	3328180224	42	4309
2026-01-16 13:40:33.44	358.85	21.28	-36.1	-37.4	17.1	0.00e+00	0	61	0	3335520256	42	4269
2026-01-16 13:40:34.45	358.75	21.15	-36.1	-37.4	17.0	0.00e+00	0	62	0	3342860288	42	4287
2026-01-16 13:40:35.46	358.64	21.03	-36.1	-37.4	17.0	0.00e+00	0	61	0	3350200320	42	4285
2026-01-16 13:40:36.47	358.53	20.90	-36.3	-37.6	16.9	0.00e+00	0	61	0	3357540352	42	4362
2026-01-16 13:40:37.48	358.42	20.78	-36.3	-37.6	16.7	0.00e+00	0	61	0	3364880384	42	4378
2026-01-16 13:40:38.49	358.32	20.65	-36.3	-37.7	16.7	0.00e+00	0	61	0	3372220416	42	4406
2026-01-16 13:40:39.50	358.22	20.53	-36.3	-37.7	16.6	0.00e+00	0	61	0	3379560448	42	4393
2026-01-16 13:40:40.51	358.11	20.41	-36.4	-37.8	16.4	0.00e+00	0	61	0	3386900480	42	4473
2026-01-16 13:40:41.52	358.01	20.28	-36.5	-37.9	16.2	0.00e+00	0	61	0	3394240512	42	4538
2026-01-16 13:40:42.53	357.91	20.16	-36.8	-38.3	15.8	0.00e+00	0	61	0	3401580544	43	4443
2026-01-16 13:40:43.54	357.81	20.04	-36.9	-38.4	15.5	0.00e+00	0	61	0	3408920576	43	4536
2026-01-16 13:40:44.56	357.71	19.92	-36.9	-38.4	15.5	0.00e+00	0	61	0	3416260608	43	4533
2026-01-16 13:40:45.56	357.61	19.80	-36.9	-38.4	15.5	0.00e+00	0	61	0	3423600640	43	4517
2026-01-16 13:40:46.57	357.51	19.68	-36.7	-38.3	15.6	0.00e+00	0	61	0	3430940672	43	4447
2026-01-16 13:40:47.57	357.41	19.56	-36.7	-38.3	15.5	0.00e+00	0	61	0	3438280704	43	4458
2026-01-16 13:40:48.58	357.31	19.44	-36.9	-38.5	15.2	0.00e+00	0	62	0	3445620736	43	4560
2026-01-16 13:40:49.59	357.22	19.33	-36.9	-38.5	15.1	0.00e+00	0	62	0	3452960768	43	4582
2026-01-16 13:40:50.60	357.12	19.21	-36.9	-38.5	15.1	0.00e+00	0	61	0	3460300800	43	4574
2026-01-16 13:40:51.61	357.03	19.09	-36.7	-38.3	15.2	0.00e+00	0	62	0	3466592256	43	4468
2026-01-16 13:40:52.63	356.93	18.97	-36.5	-38.0	15.4	0.00e+00	0	62	0	3473932288	43	4320
2026-01-16 13:40:53.64	356.84	18.85	-36.3	-37.8	15.4	0.00e+00	0	62	0	3482320896	43	4214
2026-01-16 13:40:54.65	356.75	18.74	-36.4	-38.0	15.1	0.00e+00	0	61	0	3488612352	43	4319
2026-01-16 13:40:55.66	356.66	18.62	-36.6	-38.3	14.7	0.00e+00	0	62	0	3495952384	43	4462
2026-01-16 13:40:56.67	356.57	18.51	-36.8	-38.6	14.3	1.10e-06	0	61	0	3503292416	43	4613
2026-01-16 13:40:57.68	356.48	18.39	-37.1	-39.0	13.7	1.10e-06	0	61	0	3510632448	43	4824
2026-01-16 13:40:58.69	356.39	18.28	-37.6	-39.6	13.1	3.54e-05	0	61	0	3517972480	44	4915
2026-01-16 13:40:59.70	356.30	18.17	-38.1	-40.4	12.2	1.27e-04	0	62	0	3525312512	45	5065
2026-01-16 13:41:00.71	356.21	18.05	-38.6	-41.2	11.2	1.14e-03	0	62	0	3532652544	46	5240
2026-01-16 13:41:01.72	356.12	17.94	-39.0	-41.9	10.2	4.34e-03	0	61	0	3539992576	47	5393
2026-01-16 13:41:02.73	356.03	17.83	-39.7	-43.0	9.1	1.64e-02	0	61	0	3547332608	48	5776
2026-01-16 13:41:03.74	355.95	17.72	-40.1	-44.0	8.0	5.34e-02	0	62	0	3554672640	49	6090
2026-01-16 13:41:04.75	355.86	17.60	-40.3	-44.7	7.2	1.34e-01	0	62	0	3562012672	50	6263
2026-01-16 13:41:05.76	355.78	17.49	-40.6	-45.6	6.3	2.26e-01	0	61	0	3569352704	50	6944
2026-01-16 13:41:06.77	355.69	17.38	-40.9	-46.7	5.4	5.52e-01	0	62	0	3574595584	51	7430
2026-01-16 13:41:07.78	355.61	17.27	-41.1	-48.0	4.7	7.92e-01	0	62	0	3575644160	51	8588
2026-01-16 13:41:08.79	355.53	17.16	-41.1	-48.6	4.4	8.28e-01	0	62	0	3575644160	51	9225
2026-01-16 13:41:09.80	355.45	17.05	-41.2	-49.3	4.1	8.37e-01	0	62	0	3575644160	51	10020
2026-01-16 13:41:10.81	355.36	16.94	-41.2	-50.1	4.0	8.43e-01	0	62	104	3575644160	52	10352
2026-01-16 13:41:11.82	355.28	16.84	-41.2	-51.0	3.8	8.45e-01	0	62	104	3575644160	52	11539
2026-01-16 13:41:12.83	355.20	16.73	-41.2	-51.2	3.8	8.45e-01	0	62	104	3575644160	52	11756
2026-01-16 13:41:13.84	355.12	16.62	-41.2	-51.5	3.8	8.47e-01	0	62	104	3575644160	52	12177
2026-01-16 13:41:14.85	355.04	16.51	-41.2	-52.0	3.8	8.46e-01	0	62	104	3575644160	52	12848
2026-01-16 13:41:15.86	354.96	16.41	-41.2	-52.1	3.8	8.45e-01	0	62	104	3575644160	52	13005
2026-01-16 13:41:16.87	354.89	16.30	-40.9	-52.0	3.8	8.46e-01	0	62	104	3575644160	52	12820
2026-01-16 13:41:17.88	354.81	16.19	-41.1	-52.1	3.8	8.46e-01	0	62	104	3575644160	52	12995
2026-01-16 13:41:18.89	354.73	16.09	-41.5	-51.8	3.8	8.47e-01	0	62	104	3575644160	52	12532
2026-01-16 13:41:19.90	354.66	15.98	-41.1	-51.9	3.8	8.46e-01	0	62	104	3575644160	52	12768
2026-01-16 13:41:20.91	354.58	15.88	-41.5	-52.4	3.8	8.46e-01	0	62	104	3575644160	52	13450
2026-01-16 13:41:21.92	354.51	15.77	-41.1	-52.0	3.8	8.47e-01	0	62	104	3575644160	52	12885
2026-01-16 13:41:22.93	354.43	15.67	-41.4	-52.3	3.8	8.46e-01	0	62	104	3575644160	52	13311
2026-01-16 13:41:23.94	354.36	15.56	-41.0	-51.9	3.8	8.48e-01	0	61	104	3575644160	52	12774
2026-01-16 13:41:24.95	354.28	15.46	-41.4	-52.2	3.8	8.46e-01	0	62	104	3575644160	52	13228
2026-01-16 13:41:25.96	354.21	15.36	-41.0	-51.9	3.8	8.46e-01	0	62	104	3575644160	52	12733
2026-01-16 13:41:26.97	354.14	15.26	-41.3	-52.3	3.8	8.46e-01	0	62	104	3575644160	52	13267
2026-01-16 13:41:27.97	354.07	15.16	-40.6	-52.0	3.8	8.45e-01	0	62	104	3575644160	52	12880
2026-01-16 13:41:28.99	353.99	15.05	-41.3	-52.2	3.8	8.45e-01	0	62	104	3575644160	52	13210
2026-01-16 13:41:29.99	353.92	14.95	-40.6	-52.0	3.8	8.47e-01	0	62	104	3575644160	52	12838
2026-01-16 13:41:31.00	353.85	14.85	-41.2	-52.2	3.8	8.45e-01	0	62	104	3575644160	52	13200
2026-01-16 13:41:32.01	353.78	14.75	-41.1	-52.0	3.8	8.46e-01	0	61	104	3575644160	52	12827
2026-01-16 13:41:33.02	353.71	14.65	-41.1	-52.1	3.8	8.46e-01	0	61	104	3575644160	52	12989
2026-01-16 13:41:34.03	353.64	14.55	-41.1	-52.0	3.8	8.45e-01	0	62	104	3575644160	52	12856
2026-01-16 13:41:35.04	353.58	14.45	-41.0	-52.0	3.8	8.46e-01	0	62	104	3575644160	52	12882
2026-01-16 13:41:36.05	353.51	14.35	-41.0	-52.0	3.8	8.46e-01	0	62	104	3575644160	52	12866
2026-01-16 13:41:37.06	353.44	14.25	-41.0	-52.0	3.8	8.46e-01	0	62	104	3575644160	52	12946
2026-01-16 13:41:38.07	353.37	14.15	-41.1	-52.0	3.8	8.46e-01	0	62	104	3575644160	52	12924
2026-01-16 13:41:39.08	353.31	14.06	-41.0	-51.9	3.8	8.46e-01	0	62	104	3575644160	52	12769
2026-01-16 13:41:40.09	353.24	13.96	-41.1	-52.0	3.8	8.47e-01	0	62	104	3575644160	52	12928
2026-01-16 13:41:41.10	353.17	13.86	-41.0	-51.9	3.8	8.46e-01	0	61	104	3575644160	52	12718
2026-01-16 13:41:42.11	353.11	13.76	-41.1	-52.0	3.8	8.45e-01	0	62	104	3575644160	52	12872
2026-01-16 13:41:43.12	353.04	13.67	-41.0	-51.9	3.8	8.45e-01	0	62	104	3575644160	52	12709
2026-01-16 13:41:44.13	352.98	13.57	-41.2	-52.1	3.8	8.46e-01	0	61	104	3575644160	52	13089
2026-01-16 13:41:45.14	352.92	13.48	-40.9	-51.8	3.8	8.47e-01	0	62	104	3575644160	52	12569
2026-01-16 13:41:46.15	352.85	13.38	-41.3	-52.2	3.8	8.46e-01	0	62	104	3575644160	52	13138
2026-01-16 13:41:47.16	352.79	13.29	-40.9	-51.8	3.8	8.46e-01	0	62	104	3575644160	52	12633
2026-01-16 13:41:48.17	352.73	13.19	-41.1	-51.9	3.8	8.46e-01	0	61	104	3575644160	52	12804
2026-01-16 13:41:49.17	352.67	13.10	-41.1	-52.0	3.8	8.46e-01	0	62	104	3575644160	52	12885
2026-01-16 13:41:50.18	352.60	13.00	-41.1	-51.9	3.8	8.45e-01	0	62	104	3575644160	52	12807
2026-01-16 13:41:51.19	352.54	12.91	-41.1	-52.0	3.8	8.46e-01	0	62	104	3575644160	52	12892
