passes_logs/2026/01/16/R2.0S_Moscow/R2.0S_Moscow__20260116_074902_NOAA_20_JPSS-1_rec.log

#Pass ID: 20260116_074902_NOAA 20 (JPSS-1)
#Satellite: NOAA 20 (JPSS-1)
#Configuration: NOAA 20
#almurnet v.1.7.20251203
#Start time: 2026-01-16 07:49:04

#Version: 2.2.20231116
#Station: R2.0S_Moscow
#Location: 37.707566 lon 55.798166 lat
#TLE: 1 43013U 17073A   26015.47098083  .00000029  00000+0  34851-4 0  9997
#TLE: 2 43013  98.7636 316.4053 0001479  38.6686 321.4595 14.19536048422808

#Time	Az	El	Level	Level2	SNR	BER	BlckErr	Temp	State	Recorded	gain1	gain2
2026-01-16 07:49:04.00	98.25	2.09	-39.8	-54.9	3.8	1.49e+00	0	51	0	0	51	20220
2026-01-16 07:49:05.00	98.17	2.14	-39.8	-54.9	3.8	1.49e+00	0	51	104	0	50	21457
2026-01-16 07:49:06.01	98.09	2.19	-39.9	-54.9	3.9	1.49e+00	0	51	104	0	50	21404
2026-01-16 07:49:07.02	98.00	2.24	-39.4	-54.9	3.8	1.49e+00	0	51	104	0	51	20135
2026-01-16 07:49:08.03	97.92	2.30	-39.8	-55.0	3.7	1.49e+00	0	51	104	0	50	21524
2026-01-16 07:49:09.04	97.83	2.35	-40.2	-55.0	3.9	1.49e+00	0	51	104	0	51	20376
2026-01-16 07:49:10.05	97.75	2.40	-39.5	-54.7	3.8	1.49e+00	0	51	104	0	49	22051
2026-01-16 07:49:11.06	97.66	2.45	-39.2	-54.7	3.8	1.49e+00	0	51	104	0	50	20908
2026-01-16 07:49:12.07	97.58	2.51	-40.1	-54.9	3.8	1.49e+00	0	52	104	0	50	21424
2026-01-16 07:49:13.08	97.49	2.56	-40.0	-54.9	3.8	1.49e+00	0	52	104	0	50	21466
2026-01-16 07:49:14.09	97.41	2.61	-39.7	-54.9	3.8	1.49e+00	0	52	104	0	50	21316
2026-01-16 07:49:15.10	97.32	2.66	-38.8	-54.7	3.8	1.49e+00	0	52	104	0	50	20931
2026-01-16 07:49:16.11	97.23	2.71	-39.7	-54.3	3.8	1.49e+00	0	52	104	0	49	21181
2026-01-16 07:49:17.12	97.14	2.77	-40.1	-54.9	3.8	1.49e+00	0	52	104	0	51	20246
2026-01-16 07:49:18.13	97.06	2.82	-40.1	-55.0	3.8	1.49e+00	0	52	104	0	50	21555
2026-01-16 07:49:19.14	96.97	2.87	-40.0	-54.9	3.8	1.49e+00	0	52	104	0	51	20277
2026-01-16 07:49:20.15	96.88	2.93	-40.2	-54.9	3.8	1.49e+00	0	52	104	0	51	20291
2026-01-16 07:49:21.16	96.79	2.98	-38.8	-55.0	3.7	1.49e+00	0	52	104	0	49	22831
2026-01-16 07:49:22.17	96.70	3.03	-39.0	-54.7	3.8	1.49e+00	0	52	104	0	50	20978
2026-01-16 07:49:23.18	96.61	3.08	-37.7	-54.2	3.7	1.49e+00	0	53	104	0	47	23552
2026-01-16 07:49:24.19	96.52	3.14	-40.2	-55.0	3.9	1.49e+00	0	52	104	0	51	20357
2026-01-16 07:49:25.20	96.43	3.19	-39.7	-54.6	3.8	1.49e+00	0	53	104	0	49	21822
2026-01-16 07:49:26.21	96.34	3.24	-40.0	-54.9	3.8	1.49e+00	0	53	104	0	51	20157
2026-01-16 07:49:27.22	96.25	3.29	-39.1	-54.4	3.7	1.49e+00	0	53	104	0	49	21407
2026-01-16 07:49:28.23	96.16	3.35	-39.7	-54.9	3.8	1.49e+00	0	53	104	0	50	21308
2026-01-16 07:49:29.24	96.07	3.40	-40.1	-55.0	3.8	1.49e+00	0	53	104	0	51	20327
2026-01-16 07:49:30.25	95.98	3.45	-40.1	-55.0	3.9	1.49e+00	0	53	104	0	51	20392
2026-01-16 07:49:31.26	95.89	3.51	-40.3	-55.0	3.7	1.49e+00	0	53	104	0	51	20381
2026-01-16 07:49:32.27	95.80	3.56	-39.8	-54.9	3.8	1.49e+00	0	53	104	0	51	20207
2026-01-16 07:49:33.28	95.70	3.61	-39.5	-54.8	3.8	1.49e+00	0	53	104	0	50	21045
2026-01-16 07:49:34.29	95.61	3.67	-39.6	-54.8	3.8	1.49e+00	0	53	104	0	49	22273
2026-01-16 07:49:35.30	95.52	3.72	-39.5	-54.8	3.8	1.49e+00	0	53	104	0	51	19970
2026-01-16 07:49:36.31	95.42	3.77	-40.2	-55.0	3.9	1.49e+00	0	53	104	0	51	20329
2026-01-16 07:49:37.32	95.33	3.83	-40.1	-55.0	3.8	1.49e+00	0	53	104	0	50	21518
2026-01-16 07:49:38.33	95.23	3.88	-39.6	-55.0	3.8	1.49e+00	0	53	104	0	51	20328
2026-01-16 07:49:39.33	95.14	3.93	-39.0	-54.5	3.8	1.49e+00	0	53	104	0	49	21520
2026-01-16 07:49:40.34	95.05	3.99	-40.2	-55.0	3.8	1.49e+00	0	53	104	0	51	20349
2026-01-16 07:49:41.35	94.95	4.04	-40.2	-55.0	3.8	1.49e+00	0	54	104	0	51	20337
2026-01-16 07:49:42.36	94.85	4.09	-39.9	-54.9	3.8	1.49e+00	0	54	104	0	51	20081
2026-01-16 07:49:43.37	94.76	4.15	-39.8	-54.9	3.8	1.49e+00	0	54	104	0	51	20246
2026-01-16 07:49:44.38	94.66	4.20	-40.0	-55.0	3.8	1.49e+00	0	54	104	0	51	20312
2026-01-16 07:49:45.39	94.56	4.25	-38.6	-54.2	3.8	1.49e+00	0	54	104	0	48	22036
2026-01-16 07:49:46.39	94.47	4.31	-40.0	-54.9	3.8	1.49e+00	0	54	104	0	51	20293
2026-01-16 07:49:47.40	94.37	4.36	-40.2	-55.1	3.8	1.49e+00	0	54	104	0	51	20771
2026-01-16 07:49:48.41	94.27	4.41	-39.9	-55.0	3.8	1.49e+00	0	54	104	0	51	20364
2026-01-16 07:49:49.42	94.17	4.47	-40.0	-54.9	3.8	1.49e+00	0	54	104	0	50	21498
2026-01-16 07:49:50.43	94.08	4.52	-39.6	-54.8	3.7	1.49e+00	0	54	104	0	50	21257
2026-01-16 07:49:51.44	93.98	4.57	-40.2	-55.0	3.8	1.49e+00	0	54	104	0	51	20461
2026-01-16 07:49:52.45	93.88	4.63	-40.2	-55.0	3.8	1.49e+00	0	54	104	0	51	20427
2026-01-16 07:49:53.46	93.78	4.68	-40.2	-55.0	3.8	1.49e+00	0	54	104	0	51	20404
2026-01-16 07:49:54.47	93.68	4.73	-40.1	-55.0	3.8	1.49e+00	0	54	104	0	51	20352
2026-01-16 07:49:55.48	93.58	4.79	-40.2	-54.9	3.8	1.49e+00	0	54	104	0	51	20263
2026-01-16 07:49:56.49	93.48	4.84	-40.2	-55.0	3.8	1.49e+00	0	54	104	0	51	20360
2026-01-16 07:49:57.50	93.37	4.90	-39.5	-54.9	3.8	1.49e+00	0	54	104	0	50	21316
2026-01-16 07:49:58.51	93.27	4.95	-39.8	-54.9	3.8	1.49e+00	0	54	104	0	50	21380
2026-01-16 07:49:59.52	93.17	5.00	-40.0	-54.9	3.9	1.49e+00	0	55	104	0	51	20247
2026-01-16 07:50:00.53	93.07	5.06	-40.1	-55.0	3.8	1.49e+00	0	55	104	0	51	20332
2026-01-16 07:50:01.54	92.97	5.11	-40.2	-54.9	3.8	1.49e+00	0	55	104	0	51	20298
2026-01-16 07:50:02.54	92.86	5.17	-40.2	-55.0	3.8	1.49e+00	0	55	104	0	51	20451
2026-01-16 07:50:03.55	92.76	5.22	-40.2	-55.0	3.8	1.49e+00	0	55	104	0	50	21594
2026-01-16 07:50:04.56	92.66	5.27	-40.0	-54.9	3.8	1.49e+00	0	55	104	0	51	20217
2026-01-16 07:50:05.57	92.55	5.33	-40.2	-54.9	3.9	1.49e+00	0	55	104	0	51	20169
2026-01-16 07:50:06.58	92.45	5.38	-39.6	-54.9	3.8	1.49e+00	0	55	104	0	51	20086
2026-01-16 07:50:07.59	92.34	5.44	-40.2	-54.9	3.8	1.49e+00	0	55	104	0	50	21498
2026-01-16 07:50:08.60	92.24	5.49	-40.0	-55.0	3.8	1.49e+00	0	55	104	0	51	20341
2026-01-16 07:50:09.61	92.13	5.54	-39.9	-54.9	3.7	1.49e+00	0	55	104	0	50	21471
2026-01-16 07:50:10.62	92.02	5.60	-40.2	-55.0	3.8	1.49e+00	0	55	104	0	51	20352
2026-01-16 07:50:11.63	91.92	5.65	-40.2	-55.0	3.8	1.49e+00	0	55	104	0	51	20376
2026-01-16 07:50:12.64	91.81	5.71	-40.2	-55.0	3.8	1.49e+00	0	55	104	0	51	20391
2026-01-16 07:50:13.65	91.70	5.76	-40.2	-55.0	3.7	1.49e+00	0	55	104	0	51	20471
2026-01-16 07:50:14.66	91.59	5.81	-40.2	-54.9	3.8	1.49e+00	0	55	104	0	50	21457
2026-01-16 07:50:15.67	91.49	5.87	-39.6	-54.9	3.8	1.49e+00	0	55	104	0	50	21261
2026-01-16 07:50:16.68	91.38	5.92	-40.2	-55.0	3.8	1.49e+00	0	55	104	0	51	20326
2026-01-16 07:50:17.69	91.27	5.98	-40.2	-55.0	3.8	1.49e+00	0	55	104	0	51	20321
2026-01-16 07:50:18.70	91.16	6.03	-40.2	-55.0	3.8	1.49e+00	0	55	104	0	51	20356
2026-01-16 07:50:19.70	91.05	6.09	-40.2	-55.0	3.8	1.49e+00	0	55	104	0	51	20349
2026-01-16 07:50:20.72	90.94	6.14	-40.1	-54.9	3.9	1.49e+00	0	55	104	0	51	20240
2026-01-16 07:50:21.73	90.83	6.19	-39.0	-54.5	3.8	1.49e+00	0	55	104	0	50	20315
2026-01-16 07:50:22.74	90.71	6.25	-40.2	-55.0	3.8	1.49e+00	0	56	104	0	50	21515
2026-01-16 07:50:23.75	90.60	6.30	-38.7	-54.5	3.7	1.49e+00	0	56	104	0	49	21741
2026-01-16 07:50:24.76	90.49	6.36	-39.1	-54.8	3.9	1.49e+00	0	56	104	0	51	19965
2026-01-16 07:50:25.76	90.38	6.41	-39.5	-54.8	3.8	1.49e+00	0	56	104	0	50	21031
2026-01-16 07:50:26.77	90.27	6.47	-39.6	-54.8	3.8	1.49e+00	0	56	104	0	50	21117
2026-01-16 07:50:27.78	90.15	6.52	-40.2	-55.0	3.8	1.49e+00	0	56	104	0	51	20392
2026-01-16 07:50:28.79	90.04	6.57	-40.2	-55.0	3.8	1.49e+00	0	56	104	0	51	20507
2026-01-16 07:50:29.80	89.92	6.63	-40.2	-55.0	3.8	1.49e+00	0	56	104	0	51	20349
2026-01-16 07:50:30.81	89.81	6.68	-40.1	-54.9	3.8	1.49e+00	0	56	104	0	51	20120
2026-01-16 07:50:31.82	89.69	6.74	-39.1	-54.8	3.8	1.49e+00	0	56	104	0	50	21221
2026-01-16 07:50:32.83	89.58	6.79	-39.9	-54.5	3.8	1.49e+00	0	56	104	0	50	20444
2026-01-16 07:50:33.84	89.46	6.85	-40.2	-54.7	3.8	1.49e+00	0	56	104	0	50	21002
2026-01-16 07:50:34.85	89.35	6.90	-40.0	-54.9	3.9	1.49e+00	0	56	104	0	50	21378
2026-01-16 07:50:35.86	89.23	6.96	-40.2	-55.0	3.8	1.49e+00	0	56	104	0	51	20316
2026-01-16 07:50:36.87	89.11	7.01	-40.1	-54.9	3.8	1.49e+00	0	56	104	0	50	21444
2026-01-16 07:50:37.88	88.99	7.06	-39.8	-54.8	3.7	1.49e+00	0	56	104	0	50	21078
2026-01-16 07:50:38.89	88.87	7.12	-39.9	-54.9	3.8	1.49e+00	0	56	104	0	50	21473
2026-01-16 07:50:39.90	88.76	7.17	-40.1	-55.0	3.8	1.49e+00	0	56	104	0	51	20415
2026-01-16 07:50:40.91	88.64	7.23	-40.0	-55.0	3.8	1.49e+00	0	56	104	0	51	20438
2026-01-16 07:50:41.92	88.52	7.28	-39.4	-54.9	3.8	1.49e+00	0	57	104	0	50	21280
2026-01-16 07:50:42.93	88.40	7.34	-40.2	-54.9	3.8	1.49e+00	0	56	104	0	50	21448
2026-01-16 07:50:43.94	88.28	7.39	-39.6	-54.9	3.8	1.49e+00	0	56	104	0	50	21402
2026-01-16 07:50:44.95	88.16	7.45	-39.5	-54.8	3.9	1.49e+00	0	56	104	0	50	21148
2026-01-16 07:50:45.96	88.03	7.50	-40.1	-55.0	3.7	1.49e+00	0	56	104	0	50	21593
2026-01-16 07:50:46.97	87.91	7.55	-40.1	-54.9	3.8	1.49e+00	0	57	104	0	51	20287
2026-01-16 07:50:47.98	87.79	7.61	-40.2	-55.0	3.8	1.49e+00	0	56	104	0	51	20375
2026-01-16 07:50:48.99	87.67	7.66	-40.2	-55.0	3.7	1.49e+00	0	57	104	0	51	20460
2026-01-16 07:50:50.00	87.54	7.72	-40.1	-54.9	3.8	1.49e+00	0	56	104	0	51	20262
2026-01-16 07:50:51.01	87.42	7.77	-39.6	-54.9	3.8	1.49e+00	0	56	104	0	51	20239
2026-01-16 07:50:52.02	87.29	7.83	-40.2	-54.8	3.8	1.49e+00	0	57	104	0	50	21135
2026-01-16 07:50:53.03	87.17	7.88	-40.2	-55.0	3.8	1.49e+00	0	57	104	0	51	20433
2026-01-16 07:50:54.04	87.04	7.93	-40.2	-55.0	3.8	1.49e+00	0	57	104	0	51	20381
2026-01-16 07:50:55.05	86.92	7.99	-40.3	-55.0	3.8	1.49e+00	0	57	104	0	51	20386
2026-01-16 07:50:56.06	86.79	8.04	-39.9	-54.9	3.8	1.49e+00	0	57	104	0	50	21338
2026-01-16 07:50:57.07	86.67	8.10	-39.6	-55.1	3.8	1.49e+00	0	57	104	0	51	20691
2026-01-16 07:50:58.08	86.54	8.15	-39.4	-55.0	3.8	1.49e+00	0	57	104	0	50	21517
2026-01-16 07:50:59.09	86.41	8.21	-40.2	-55.0	3.8	1.49e+00	0	57	104	0	51	20362
2026-01-16 07:51:00.10	86.28	8.26	-40.3	-55.2	3.8	1.49e+00	0	57	104	0	51	20985
2026-01-16 07:51:01.11	86.15	8.31	-40.3	-54.9	3.8	1.49e+00	0	57	104	0	51	20303
2026-01-16 07:51:02.12	86.02	8.37	-40.3	-55.3	3.8	1.49e+00	0	57	104	0	51	21062
2026-01-16 07:51:03.13	85.89	8.42	-40.2	-54.9	3.8	1.49e+00	0	57	104	0	51	20292
2026-01-16 07:51:04.14	85.76	8.48	-40.2	-55.1	3.8	1.49e+00	0	57	104	0	51	20585
2026-01-16 07:51:05.15	85.63	8.53	-40.2	-55.0	3.8	1.49e+00	0	57	104	0	50	21656
2026-01-16 07:51:06.16	85.50	8.59	-40.2	-55.0	3.9	1.49e+00	0	57	104	0	51	20474
2026-01-16 07:51:07.17	85.37	8.64	-39.7	-54.9	3.8	1.49e+00	0	57	104	0	50	21492
2026-01-16 07:51:08.17	85.24	8.69	-40.2	-55.1	3.8	1.49e+00	0	57	104	0	51	20705
2026-01-16 07:51:09.18	85.11	8.75	-40.3	-54.9	3.8	1.49e+00	0	57	104	0	51	20236
2026-01-16 07:51:10.19	84.97	8.80	-40.2	-54.9	3.8	1.49e+00	0	57	104	0	51	20268
2026-01-16 07:51:11.20	84.84	8.86	-40.2	-54.9	3.8	1.49e+00	0	57	104	0	51	20225
2026-01-16 07:51:12.21	84.71	8.91	-40.2	-54.9	3.8	1.49e+00	0	57	104	0	51	20204
2026-01-16 07:51:13.22	84.57	8.96	-40.2	-54.9	3.9	1.49e+00	0	57	104	0	51	20210
2026-01-16 07:51:14.23	84.44	9.02	-40.3	-55.0	3.8	1.49e+00	0	57	104	0	51	20504
2026-01-16 07:51:15.24	84.30	9.07	-40.1	-55.1	3.8	1.49e+00	0	57	104	0	50	21757
2026-01-16 07:51:16.24	84.17	9.12	-40.3	-55.1	3.8	1.49e+00	0	57	104	0	51	20582
2026-01-16 07:51:17.25	84.03	9.18	-40.2	-55.0	3.8	1.49e+00	0	57	104	0	51	20315
2026-01-16 07:51:18.26	83.89	9.23	-40.2	-55.0	3.8	1.49e+00	0	58	104	0	51	20538
2026-01-16 07:51:19.27	83.76	9.29	-40.0	-54.9	3.8	1.49e+00	0	57	104	0	51	20164
2026-01-16 07:51:20.28	83.62	9.34	-40.3	-55.0	3.8	1.49e+00	0	57	104	0	51	20477
2026-01-16 07:51:21.29	83.48	9.39	-40.3	-55.0	3.8	1.49e+00	0	57	104	0	51	20427
2026-01-16 07:51:22.30	83.34	9.45	-40.3	-55.0	3.8	1.49e+00	0	58	104	0	51	20509
2026-01-16 07:51:23.31	83.20	9.50	-40.2	-55.0	3.8	1.49e+00	0	57	104	0	51	20314
2026-01-16 07:51:24.32	83.06	9.55	-40.3	-55.1	3.8	1.49e+00	0	58	104	0	51	20628
2026-01-16 07:51:25.33	82.92	9.61	-40.1	-54.9	3.8	1.49e+00	0	58	104	0	51	20194
2026-01-16 07:51:26.34	82.78	9.66	-40.4	-55.1	3.8	1.49e+00	0	57	104	0	51	20553
2026-01-16 07:51:27.34	82.64	9.71	-40.1	-54.9	3.8	1.49e+00	0	58	104	0	51	20277
2026-01-16 07:51:28.36	82.49	9.77	-40.3	-55.0	3.8	1.49e+00	0	58	104	0	51	20431
2026-01-16 07:51:29.37	82.35	9.82	-40.3	-55.0	3.8	1.49e+00	0	58	104	0	51	20425
2026-01-16 07:51:30.38	82.21	9.87	-40.3	-55.0	3.8	1.49e+00	0	58	104	0	51	20387
2026-01-16 07:51:31.39	82.06	9.93	-40.4	-55.0	3.8	1.49e+00	0	58	104	0	51	20440
2026-01-16 07:51:32.40	81.92	9.98	-40.4	-55.0	3.8	1.49e+00	0	58	104	0	51	20500
2026-01-16 07:51:33.41	81.77	10.03	-40.2	-55.0	3.8	1.49e+00	0	58	104	0	51	20313
2026-01-16 07:51:34.42	81.63	10.09	-40.4	-55.0	3.8	1.49e+00	0	58	104	0	51	20533
2026-01-16 07:51:35.43	81.48	10.14	-40.3	-55.0	3.8	1.49e+00	0	57	104	0	51	20502
2026-01-16 07:51:36.44	81.34	10.19	-40.4	-55.0	3.8	1.49e+00	0	57	104	0	51	20518
2026-01-16 07:51:37.45	81.19	10.24	-40.3	-55.0	3.8	1.49e+00	0	58	104	0	51	20421
2026-01-16 07:51:38.46	81.04	10.30	-40.4	-55.1	3.8	1.49e+00	0	58	104	0	51	20567
2026-01-16 07:51:39.47	80.89	10.35	-40.4	-55.0	3.8	1.49e+00	0	58	104	0	51	20465
2026-01-16 07:51:40.48	80.74	10.40	-40.4	-55.1	3.8	1.49e+00	0	58	104	0	51	20682
2026-01-16 07:51:41.49	80.59	10.45	-40.4	-55.1	3.8	1.49e+00	0	58	104	0	51	20639
2026-01-16 07:51:42.50	80.44	10.51	-40.4	-55.2	3.8	1.49e+00	0	58	104	0	51	20810
2026-01-16 07:51:43.51	80.29	10.56	-40.4	-55.2	3.8	1.49e+00	0	58	104	0	51	20842
2026-01-16 07:51:44.52	80.14	10.61	-40.4	-55.2	3.8	1.49e+00	0	58	104	0	51	20897
2026-01-16 07:51:45.53	79.99	10.66	-40.4	-55.2	3.8	1.49e+00	0	58	104	0	51	20822
2026-01-16 07:51:46.54	79.84	10.71	-40.5	-55.2	3.8	1.49e+00	0	58	104	0	51	20938
2026-01-16 07:51:47.55	79.69	10.77	-40.5	-55.3	3.8	1.49e+00	0	58	104	0	51	21062
2026-01-16 07:51:48.56	79.53	10.82	-40.5	-55.2	3.8	1.49e+00	0	58	104	0	51	20942
2026-01-16 07:51:49.57	79.38	10.87	-40.5	-55.3	3.8	1.49e+00	0	58	104	0	51	21036
2026-01-16 07:51:50.58	79.23	10.92	-40.6	-55.3	3.8	1.49e+00	0	58	104	0	51	21114
2026-01-16 07:51:51.59	79.07	10.97	-40.7	-55.4	3.8	1.49e+00	0	58	104	0	51	21270
2026-01-16 07:51:52.60	78.92	11.02	-40.6	-55.3	3.8	1.49e+00	0	58	104	0	51	21062
2026-01-16 07:51:53.61	78.76	11.08	-40.7	-55.4	3.8	1.49e+00	0	58	104	0	51	21274
2026-01-16 07:51:54.62	78.60	11.13	-40.6	-55.3	3.8	1.49e+00	0	58	104	0	51	21189
2026-01-16 07:51:55.63	78.45	11.18	-40.6	-55.4	3.8	1.49e+00	0	58	104	0	51	21311
2026-01-16 07:51:56.64	78.29	11.23	-40.7	-55.4	3.8	1.49e+00	0	58	104	0	52	20097
2026-01-16 07:51:57.64	78.13	11.28	-40.6	-55.4	3.8	1.49e+00	0	58	104	0	52	20195
2026-01-16 07:51:58.65	77.97	11.33	-40.8	-55.4	3.8	1.49e+00	0	58	104	0	52	20256
2026-01-16 07:51:59.66	77.82	11.38	-40.9	-55.6	3.8	1.49e+00	0	58	104	0	52	20609
2026-01-16 07:52:00.67	77.66	11.43	-40.6	-55.4	3.8	1.49e+00	0	58	104	0	52	20191
2026-01-16 07:52:01.68	77.50	11.48	-40.8	-55.5	3.8	1.49e+00	0	58	104	0	52	20499
2026-01-16 07:52:02.69	77.33	11.53	-40.7	-55.5	3.8	1.49e+00	0	58	104	0	52	20347
2026-01-16 07:52:03.70	77.17	11.58	-40.8	-55.5	3.8	1.49e+00	0	58	104	0	52	20438
2026-01-16 07:52:04.71	77.01	11.63	-41.0	-55.6	3.8	1.49e+00	0	58	104	0	52	20682
2026-01-16 07:52:05.72	76.85	11.68	-40.9	-55.5	3.8	1.49e+00	0	58	104	0	52	20510
2026-01-16 07:52:06.73	76.69	11.73	-41.0	-55.6	3.8	1.49e+00	0	58	104	0	52	20691
2026-01-16 07:52:07.74	76.52	11.78	-41.0	-55.6	3.8	1.49e+00	0	58	104	0	52	20691
2026-01-16 07:52:08.75	76.36	11.83	-41.0	-55.6	3.8	1.49e+00	0	58	104	0	52	20603
2026-01-16 07:52:09.77	76.19	11.88	-41.0	-55.6	3.8	1.49e+00	0	58	104	0	52	20663
2026-01-16 07:52:10.77	76.03	11.93	-41.0	-55.6	3.8	1.49e+00	0	58	104	0	52	20637
2026-01-16 07:52:11.79	75.86	11.98	-41.0	-55.6	3.8	1.49e+00	0	58	104	0	52	20771
2026-01-16 07:52:12.80	75.69	12.03	-41.0	-55.6	3.8	1.49e+00	0	58	104	0	52	20646
2026-01-16 07:52:13.80	75.53	12.08	-41.1	-55.7	3.8	1.49e+00	0	58	104	0	52	20868
2026-01-16 07:52:14.81	75.36	12.13	-41.0	-55.7	3.8	1.49e+00	0	58	104	0	52	20817
2026-01-16 07:52:15.82	75.19	12.18	-41.2	-55.8	3.8	1.49e+00	0	58	104	0	52	21160
2026-01-16 07:52:16.83	75.02	12.23	-41.0	-55.6	3.8	1.49e+00	0	58	104	0	52	20725
2026-01-16 07:52:17.84	74.86	12.27	-41.2	-55.8	3.8	1.49e+00	0	59	104	0	52	21191
2026-01-16 07:52:18.85	74.69	12.32	-41.0	-55.6	3.8	1.49e+00	0	59	104	0	52	20752
2026-01-16 07:52:19.86	74.51	12.37	-41.2	-55.8	3.8	1.49e+00	0	58	104	0	53	19991
2026-01-16 07:52:20.87	74.34	12.42	-41.2	-55.8	3.8	1.49e+00	0	58	104	0	53	19989
2026-01-16 07:52:21.88	74.17	12.47	-41.2	-55.9	3.8	1.49e+00	0	58	104	0	53	20111
2026-01-16 07:52:22.89	74.00	12.51	-41.1	-55.8	3.8	1.49e+00	0	59	104	0	53	19963
2026-01-16 07:52:23.90	73.83	12.56	-41.0	-55.7	3.8	1.49e+00	0	58	104	0	53	19766
2026-01-16 07:52:24.91	73.65	12.61	-41.2	-55.8	3.8	1.49e+00	0	59	104	0	53	19937
2026-01-16 07:52:25.92	73.48	12.66	-41.0	-55.7	3.8	1.49e+00	0	59	104	0	53	19807
2026-01-16 07:52:26.93	73.31	12.70	-41.2	-55.8	3.8	1.49e+00	0	59	104	0	53	19918
2026-01-16 07:52:27.94	73.13	12.75	-41.2	-55.8	3.8	1.49e+00	0	58	104	0	53	20029
2026-01-16 07:52:28.95	72.96	12.80	-41.0	-55.7	3.8	1.49e+00	0	59	104	0	53	19690
2026-01-16 07:52:29.96	72.78	12.84	-41.2	-55.8	3.8	1.49e+00	0	58	104	0	53	19959
2026-01-16 07:52:30.97	72.60	12.89	-41.1	-55.8	3.8	1.49e+00	0	59	104	0	53	19958
2026-01-16 07:52:31.98	72.43	12.94	-41.2	-55.9	3.8	1.49e+00	0	59	104	0	53	20225
2026-01-16 07:52:32.99	72.25	12.98	-41.0	-55.7	3.8	1.49e+00	0	58	104	0	53	19629
2026-01-16 07:52:34.00	72.07	13.03	-41.2	-55.9	3.8	1.49e+00	0	59	104	0	53	20219
2026-01-16 07:52:35.01	71.89	13.07	-41.0	-55.7	3.8	1.49e+00	0	58	104	0	53	19789
2026-01-16 07:52:36.02	71.71	13.12	-41.3	-56.0	3.8	1.49e+00	0	59	104	0	53	20364
2026-01-16 07:52:37.03	71.53	13.16	-41.2	-55.9	3.8	1.49e+00	0	59	104	0	53	20189
2026-01-16 07:52:38.04	71.35	13.21	-41.4	-56.0	3.8	1.49e+00	0	59	104	0	53	20454
2026-01-16 07:52:39.05	71.17	13.25	-41.2	-55.9	3.8	1.49e+00	0	59	104	0	53	20180
2026-01-16 07:52:40.05	70.99	13.30	-41.4	-56.1	3.8	1.49e+00	0	59	104	0	53	20543
2026-01-16 07:52:41.06	70.81	13.34	-41.2	-55.9	3.8	1.49e+00	0	59	104	0	53	20149
2026-01-16 07:52:42.07	70.63	13.39	-41.5	-56.1	3.8	1.49e+00	0	59	104	0	53	20578
2026-01-16 07:52:43.08	70.44	13.43	-41.2	-55.9	3.8	1.49e+00	0	59	104	0	53	20226
2026-01-16 07:52:44.09	70.26	13.47	-41.7	-55.8	3.8	1.49e+00	0	59	104	0	53	20038
2026-01-16 07:52:45.10	70.08	13.52	-41.1	-55.8	3.8	1.49e+00	0	59	104	0	53	19968
2026-01-16 07:52:46.11	69.89	13.56	-41.8	-55.4	3.8	1.49e+00	0	59	104	0	54	17901
2026-01-16 07:52:47.12	69.71	13.60	-41.2	-55.9	3.8	1.49e+00	0	59	104	0	54	18970
2026-01-16 07:52:48.13	69.52	13.65	-41.8	-55.8	3.8	1.49e+00	0	59	104	0	54	18900
2026-01-16 07:52:49.14	69.33	13.69	-41.6	-55.9	3.8	1.49e+00	0	59	104	0	54	19148
2026-01-16 07:52:50.15	69.15	13.73	-41.7	-55.1	3.8	1.49e+00	0	59	104	0	54	17417
2026-01-16 07:52:51.16	68.96	13.77	-41.7	-54.5	3.8	1.49e+00	0	59	104	0	54	16280
2026-01-16 07:52:52.17	68.77	13.82	-41.7	-54.2	3.9	1.49e+00	0	59	104	0	54	15644
2026-01-16 07:52:53.18	68.58	13.86	-41.7	-53.6	3.9	1.47e+00	0	59	104	0	54	14699
2026-01-16 07:52:54.19	68.39	13.90	-41.7	-52.9	4.2	1.41e+00	0	59	0	0	54	13505
2026-01-16 07:52:55.20	68.20	13.94	-41.7	-52.1	4.5	1.31e+00	1	59	0	0	54	12269
2026-01-16 07:52:56.20	68.02	13.98	-41.7	-51.3	4.9	8.08e-01	0	59	0	2097152	54	11226
2026-01-16 07:52:57.21	67.82	14.02	-41.7	-50.9	5.2	6.49e-01	0	59	0	4194304	54	10684
2026-01-16 07:52:58.22	67.63	14.06	-41.7	-50.6	5.4	5.37e-01	0	59	0	6291456	54	10390
2026-01-16 07:52:59.23	67.44	14.10	-41.8	-50.5	5.5	4.88e-01	0	59	0	7340032	54	10292
2026-01-16 07:53:00.24	67.25	14.14	-41.9	-50.6	5.6	4.53e-01	0	59	0	9437184	54	10321
2026-01-16 07:53:01.25	67.06	14.18	-42.0	-50.6	5.7	4.27e-01	0	59	0	11534336	54	10340
2026-01-16 07:53:02.26	66.86	14.22	-41.9	-49.6	6.5	3.37e-01	0	59	0	13631488	54	9241
2026-01-16 07:53:03.27	66.67	14.26	-41.7	-48.8	7.2	1.60e-01	0	59	0	15728640	54	8372
2026-01-16 07:53:04.28	66.47	14.30	-41.5	-47.9	8.1	8.20e-02	0	59	0	16777216	54	7559
2026-01-16 07:53:05.29	66.28	14.34	-41.2	-46.7	9.4	3.57e-02	0	59	0	18874368	54	6624
2026-01-16 07:53:06.30	66.08	14.38	-40.9	-45.8	10.4	6.26e-03	0	59	0	20971520	53	6302
2026-01-16 07:53:07.31	65.89	14.42	-40.6	-45.2	11.0	3.21e-03	0	59	0	23068672	53	5884
2026-01-16 07:53:08.32	65.69	14.45	-40.6	-45.0	11.3	1.80e-03	0	59	0	25165824	53	5746
2026-01-16 07:53:09.33	65.50	14.49	-40.8	-45.4	10.9	1.84e-03	0	59	0	26214400	53	6007
2026-01-16 07:53:10.34	65.30	14.53	-41.0	-45.9	10.5	2.69e-03	0	59	0	28311552	53	6374
2026-01-16 07:53:11.35	65.10	14.57	-41.1	-46.0	10.5	5.16e-03	0	59	0	30408704	53	6424
2026-01-16 07:53:12.36	64.90	14.60	-41.1	-45.8	10.7	3.85e-03	0	59	0	32505856	53	6342
2026-01-16 07:53:13.37	64.70	14.64	-41.0	-45.6	11.0	2.13e-03	0	59	0	34603008	53	6148
2026-01-16 07:53:14.38	64.50	14.68	-41.1	-45.7	11.0	1.83e-03	0	59	0	36700160	53	6205
2026-01-16 07:53:15.39	64.30	14.71	-41.2	-45.6	11.1	1.64e-03	0	59	0	37748736	53	6199
2026-01-16 07:53:16.40	64.10	14.75	-41.3	-45.9	10.9	1.86e-03	0	59	0	39845888	53	6412
2026-01-16 07:53:17.41	63.90	14.78	-41.4	-45.9	10.9	2.33e-03	0	59	0	41943040	53	6407
2026-01-16 07:53:18.42	63.70	14.82	-41.5	-46.0	11.0	2.25e-03	0	59	0	44040192	53	6470
2026-01-16 07:53:19.43	63.50	14.85	-41.4	-45.8	11.3	1.54e-03	0	59	0	46137344	53	6300
2026-01-16 07:53:20.44	63.30	14.89	-41.5	-45.9	11.2	1.23e-03	0	59	0	47185920	53	6378
2026-01-16 07:53:21.45	63.09	14.92	-41.5	-45.8	11.4	1.30e-03	0	59	0	49283072	53	6317
2026-01-16 07:53:22.46	62.89	14.95	-41.5	-45.8	11.4	8.73e-04	0	59	0	51380224	53	6288
2026-01-16 07:53:23.46	62.69	14.99	-41.6	-45.9	11.4	9.31e-04	0	59	0	53477376	53	6351
2026-01-16 07:53:24.47	62.49	15.02	-41.7	-46.1	11.2	1.04e-03	0	59	0	55574528	53	6515
2026-01-16 07:53:25.48	62.28	15.05	-41.8	-46.2	11.2	1.34e-03	0	59	0	56623104	54	6230
2026-01-16 07:53:26.49	62.08	15.09	-41.7	-46.0	11.4	1.05e-03	0	59	0	58720256	54	6069
2026-01-16 07:53:27.50	61.87	15.12	-41.7	-45.9	11.5	8.43e-04	0	59	0	60817408	54	6060
2026-01-16 07:53:28.51	61.67	15.15	-41.6	-45.8	11.7	7.44e-04	0	59	0	62914560	54	5948
2026-01-16 07:53:29.52	61.46	15.18	-41.7	-45.9	11.6	7.19e-04	0	59	0	65011712	54	6040
2026-01-16 07:53:30.53	61.25	15.21	-41.8	-46.0	11.5	7.09e-04	0	59	0	66060288	54	6088
2026-01-16 07:53:31.54	61.05	15.24	-41.7	-45.9	11.6	8.68e-04	0	59	0	68157440	54	6000
2026-01-16 07:53:32.55	60.84	15.27	-41.7	-45.9	11.7	6.03e-04	0	59	0	70254592	54	6020
2026-01-16 07:53:33.56	60.63	15.30	-41.7	-45.8	11.8	5.65e-04	0	60	0	72351744	54	5969
2026-01-16 07:53:34.56	60.42	15.33	-41.7	-45.8	11.8	5.10e-04	0	59	0	74448896	54	5972
2026-01-16 07:53:35.57	60.21	15.36	-41.7	-45.8	11.8	4.79e-04	0	59	0	75497472	54	5981
2026-01-16 07:53:36.58	60.01	15.39	-41.8	-45.9	11.7	5.32e-04	0	59	0	77594624	54	6047
2026-01-16 07:53:37.60	59.79	15.42	-41.7	-45.8	11.8	5.86e-04	0	59	0	79691776	54	5991
2026-01-16 07:53:38.61	59.58	15.45	-41.7	-45.8	11.8	4.49e-04	0	60	0	81788928	54	5975
2026-01-16 07:53:39.61	59.37	15.48	-41.7	-45.8	11.8	4.00e-04	0	59	0	83886080	54	5959
2026-01-16 07:53:40.62	59.16	15.51	-41.7	-45.8	11.8	4.86e-04	0	59	0	84934656	54	5964
2026-01-16 07:53:41.63	58.95	15.53	-41.8	-45.9	11.7	5.56e-04	0	59	0	87031808	54	6035
2026-01-16 07:53:42.65	58.74	15.56	-41.8	-46.0	11.6	6.32e-04	0	59	0	89128960	54	6117
2026-01-16 07:53:43.65	58.53	15.59	-41.8	-46.0	11.7	5.95e-04	0	59	0	91226112	54	6079
2026-01-16 07:53:44.66	58.32	15.61	-41.9	-46.1	11.6	6.82e-04	0	60	0	93323264	54	6151
2026-01-16 07:53:45.68	58.10	15.64	-42.0	-46.3	11.3	8.46e-04	0	60	0	94371840	54	6294
2026-01-16 07:53:46.69	57.89	15.66	-42.0	-46.4	11.2	1.21e-03	0	59	0	96468992	54	6397
2026-01-16 07:53:47.69	57.68	15.69	-42.1	-46.6	11.1	1.56e-03	0	59	0	98566144	54	6513
2026-01-16 07:53:48.70	57.46	15.71	-42.0	-46.4	11.3	1.28e-03	0	59	0	100663296	54	6380
2026-01-16 07:53:49.71	57.25	15.74	-42.1	-46.5	11.2	1.21e-03	0	59	0	102760448	54	6466
2026-01-16 07:53:50.72	57.03	15.76	-42.1	-46.5	11.2	1.41e-03	0	59	0	104857600	54	6476
2026-01-16 07:53:51.73	56.82	15.79	-42.1	-46.6	11.1	1.62e-03	0	59	0	105906176	54	6501
2026-01-16 07:53:52.74	56.60	15.81	-42.1	-46.7	11.0	1.81e-03	0	59	0	108003328	54	6585
2026-01-16 07:53:53.75	56.39	15.83	-42.1	-46.5	11.2	1.67e-03	0	59	0	110100480	54	6444
2026-01-16 07:53:54.76	56.17	15.85	-42.0	-46.3	11.4	1.11e-03	0	59	0	112197632	54	6328
2026-01-16 07:53:55.77	55.96	15.88	-42.0	-46.2	11.4	9.84e-04	0	59	0	114294784	54	6271
2026-01-16 07:53:56.78	55.74	15.90	-42.0	-46.3	11.5	8.47e-04	0	59	0	115343360	54	6280
2026-01-16 07:53:57.79	55.52	15.92	-42.0	-46.3	11.4	9.83e-04	0	59	0	117440512	54	6314
2026-01-16 07:53:58.80	55.31	15.94	-42.0	-46.4	11.3	1.19e-03	0	60	0	119537664	54	6373
2026-01-16 07:53:59.81	55.09	15.96	-42.0	-46.3	11.4	1.03e-03	0	59	0	121634816	54	6308
2026-01-16 07:54:00.82	54.87	15.98	-42.0	-46.2	11.5	7.48e-04	0	59	0	123731968	54	6236
2026-01-16 07:54:01.83	54.65	16.00	-41.9	-46.1	11.6	7.35e-04	0	59	0	124780544	54	6191
2026-01-16 07:54:02.84	54.44	16.02	-41.9	-46.1	11.6	5.82e-04	0	59	0	126877696	54	6157
2026-01-16 07:54:03.85	54.22	16.04	-41.9	-46.1	11.7	6.38e-04	0	59	0	128974848	54	6142
2026-01-16 07:54:04.85	54.00	16.06	-41.9	-46.2	11.6	6.76e-04	0	60	0	131072000	54	6214
2026-01-16 07:54:05.86	53.78	16.08	-42.0	-46.2	11.6	6.92e-04	0	59	0	133169152	54	6223
2026-01-16 07:54:06.87	53.56	16.09	-42.0	-46.3	11.4	7.80e-04	0	59	0	134217728	54	6321
2026-01-16 07:54:07.88	53.34	16.11	-42.1	-46.5	11.2	1.16e-03	0	59	0	136314880	54	6479
2026-01-16 07:54:08.89	53.12	16.13	-42.2	-46.7	11.1	1.58e-03	0	60	0	138412032	54	6572
2026-01-16 07:54:09.90	52.90	16.14	-42.3	-46.9	10.8	2.09e-03	0	59	0	140509184	55	6360
2026-01-16 07:54:10.91	52.68	16.16	-42.1	-46.5	11.2	1.56e-03	0	60	0	142606336	55	6093
2026-01-16 07:54:11.92	52.46	16.18	-42.0	-46.3	11.4	1.08e-03	0	60	0	143654912	55	5988
2026-01-16 07:54:12.93	52.24	16.19	-42.1	-46.4	11.3	1.00e-03	0	59	0	145752064	55	6056
2026-01-16 07:54:13.94	52.02	16.20	-42.1	-46.5	11.3	1.13e-03	0	59	0	147849216	55	6078
2026-01-16 07:54:14.95	51.80	16.22	-42.2	-46.6	11.1	1.54e-03	0	59	0	149946368	55	6185
2026-01-16 07:54:15.96	51.58	16.23	-42.2	-46.7	11.0	1.90e-03	0	60	0	152043520	55	6266
2026-01-16 07:54:16.97	51.36	16.25	-42.2	-46.7	11.0	1.83e-03	0	60	0	153092096	55	6238
2026-01-16 07:54:17.98	51.13	16.26	-42.1	-46.5	11.3	1.33e-03	0	60	0	155189248	55	6105
2026-01-16 07:54:18.99	50.91	16.27	-42.1	-46.5	11.2	1.22e-03	0	60	0	157286400	55	6127
2026-01-16 07:54:19.99	50.69	16.28	-42.1	-46.6	11.2	1.26e-03	0	60	0	159383552	55	6132
2026-01-16 07:54:21.00	50.47	16.30	-42.2	-46.6	11.2	1.38e-03	0	60	0	161480704	55	6180
2026-01-16 07:54:22.01	50.25	16.31	-42.2	-46.6	11.1	1.46e-03	0	60	0	162529280	55	6197
2026-01-16 07:54:23.02	50.02	16.32	-42.1	-46.5	11.2	1.33e-03	0	60	0	164626432	55	6126
2026-01-16 07:54:24.03	49.80	16.33	-42.1	-46.5	11.3	1.19e-03	0	60	0	166723584	55	6079
2026-01-16 07:54:25.04	49.58	16.34	-42.1	-46.4	11.4	1.10e-03	0	60	0	168820736	55	6024
2026-01-16 07:54:26.05	49.36	16.35	-42.1	-46.5	11.3	1.11e-03	0	59	0	170917888	55	6097
2026-01-16 07:54:27.06	49.13	16.36	-42.1	-46.5	11.2	1.32e-03	0	59	0	173015040	55	6131
2026-01-16 07:54:28.07	48.91	16.37	-42.2	-46.6	11.2	1.54e-03	0	60	0	174063616	55	6194
2026-01-16 07:54:29.08	48.68	16.37	-42.2	-46.6	11.2	1.32e-03	0	60	0	176160768	55	6161
2026-01-16 07:54:30.09	48.46	16.38	-42.1	-46.6	11.2	1.40e-03	0	59	0	178257920	55	6135
2026-01-16 07:54:31.10	48.24	16.39	-42.1	-46.5	11.3	1.48e-03	0	59	0	180355072	55	6123
2026-01-16 07:54:32.11	48.01	16.40	-42.1	-46.6	11.2	1.24e-03	0	59	0	182452224	55	6142
2026-01-16 07:54:33.12	47.79	16.40	-42.2	-46.6	11.2	1.34e-03	0	60	0	183500800	55	6138
2026-01-16 07:54:34.13	47.57	16.41	-42.1	-46.5	11.3	1.13e-03	0	60	0	185597952	55	6097
2026-01-16 07:54:35.14	47.34	16.42	-42.1	-46.5	11.3	1.27e-03	0	60	0	187695104	55	6125
2026-01-16 07:54:36.14	47.12	16.42	-42.1	-46.5	11.3	1.35e-03	0	60	0	189792256	55	6121
2026-01-16 07:54:37.16	46.89	16.42	-42.1	-46.5	11.3	1.04e-03	0	60	0	191889408	55	6069
2026-01-16 07:54:38.17	46.67	16.43	-42.1	-46.6	11.2	1.22e-03	0	60	0	192937984	55	6134
2026-01-16 07:54:39.17	46.45	16.43	-42.2	-46.7	11.1	1.56e-03	0	60	0	195035136	55	6222
2026-01-16 07:54:40.18	46.22	16.44	-42.2	-46.8	11.0	1.81e-03	0	60	0	197132288	55	6292
2026-01-16 07:54:41.19	46.00	16.44	-42.2	-46.8	11.1	1.66e-03	0	60	0	199229440	55	6276
2026-01-16 07:54:42.20	45.77	16.44	-42.2	-46.6	11.2	1.56e-03	0	60	0	201326592	55	6169
2026-01-16 07:54:43.21	45.55	16.44	-42.2	-46.6	11.2	1.32e-03	0	60	0	202375168	55	6188
2026-01-16 07:54:44.22	45.32	16.45	-42.2	-46.6	11.2	1.40e-03	0	60	0	204472320	55	6148
2026-01-16 07:54:45.23	45.10	16.45	-42.1	-46.5	11.3	1.06e-03	0	60	0	206569472	55	6085
2026-01-16 07:54:46.24	44.87	16.45	-42.1	-46.5	11.3	1.02e-03	0	60	0	208666624	55	6115
2026-01-16 07:54:47.25	44.65	16.45	-42.2	-46.7	11.1	1.35e-03	0	60	0	210763776	55	6225
2026-01-16 07:54:48.26	44.43	16.45	-42.3	-46.9	10.9	1.80e-03	0	60	0	211812352	55	6382
2026-01-16 07:54:49.27	44.20	16.45	-42.2	-46.7	11.0	2.06e-03	0	60	0	213909504	55	6265
2026-01-16 07:54:50.28	43.98	16.45	-42.2	-46.7	11.1	1.48e-03	0	59	0	216006656	55	6225
2026-01-16 07:54:51.29	43.75	16.44	-42.1	-46.4	11.4	1.35e-03	0	60	0	218103808	55	6052
2026-01-16 07:54:52.30	43.53	16.44	-42.1	-46.3	11.5	9.70e-04	0	60	0	220200960	55	5972
2026-01-16 07:54:53.30	43.30	16.44	-42.0	-46.3	11.4	8.57e-04	0	60	0	221249536	55	5984
2026-01-16 07:54:54.32	43.08	16.44	-42.1	-46.3	11.5	7.51e-04	0	60	0	223346688	55	5985
2026-01-16 07:54:55.32	42.86	16.43	-42.1	-46.5	11.3	9.28e-04	0	60	0	225443840	55	6074
2026-01-16 07:54:56.33	42.63	16.43	-42.1	-46.5	11.3	1.22e-03	0	60	0	227540992	55	6114
2026-01-16 07:54:57.34	42.41	16.43	-42.2	-46.7	11.0	1.49e-03	0	60	0	229638144	55	6265
2026-01-16 07:54:58.35	42.18	16.42	-42.2	-46.7	11.0	1.79e-03	0	60	0	230686720	55	6269
2026-01-16 07:54:59.36	41.96	16.42	-42.2	-46.6	11.2	1.49e-03	0	60	0	232783872	55	6180
2026-01-16 07:55:00.37	41.74	16.41	-42.1	-46.4	11.4	1.11e-03	0	60	0	234881024	55	6017
2026-01-16 07:55:01.38	41.51	16.41	-42.0	-46.1	11.7	6.82e-04	0	60	0	236978176	55	5848
2026-01-16 07:55:02.39	41.29	16.40	-42.0	-46.1	11.7	5.85e-04	0	60	0	239075328	55	5817
2026-01-16 07:55:03.40	41.06	16.39	-42.0	-46.2	11.7	5.80e-04	0	60	0	241172480	55	5871
2026-01-16 07:55:04.41	40.84	16.38	-42.0	-46.2	11.7	6.06e-04	0	60	0	242221056	55	5867
2026-01-16 07:55:05.42	40.62	16.38	-42.0	-46.2	11.6	6.70e-04	0	60	0	244318208	55	5911
2026-01-16 07:55:06.43	40.39	16.37	-42.0	-46.3	11.6	6.92e-04	0	60	0	246415360	55	5930
2026-01-16 07:55:07.43	40.17	16.36	-42.0	-46.2	11.6	5.77e-04	0	60	0	248512512	55	5902
2026-01-16 07:55:08.44	39.95	16.35	-42.0	-46.2	11.6	6.52e-04	0	60	0	249561088	55	5907
2026-01-16 07:55:09.45	39.73	16.34	-42.0	-46.2	11.6	6.10e-04	0	60	0	251658240	55	5902
2026-01-16 07:55:10.46	39.50	16.33	-42.0	-46.3	11.5	8.15e-04	0	60	0	253755392	55	5961
2026-01-16 07:55:11.47	39.28	16.32	-42.1	-46.4	11.4	9.13e-04	0	60	0	255852544	55	5996
2026-01-16 07:55:12.48	39.06	16.31	-42.0	-46.3	11.5	8.80e-04	0	60	0	257949696	55	5974
2026-01-16 07:55:13.49	38.84	16.30	-41.9	-46.0	11.8	5.51e-04	0	60	0	258998272	55	5755
2026-01-16 07:55:14.50	38.61	16.29	-41.9	-45.9	11.9	3.91e-04	0	60	0	261095424	55	5722
2026-01-16 07:55:15.51	38.39	16.28	-41.8	-45.8	12.0	4.00e-04	0	60	0	263192576	55	5645
2026-01-16 07:55:16.52	38.17	16.26	-41.8	-45.9	12.0	3.08e-04	0	60	0	265289728	55	5675
2026-01-16 07:55:17.53	37.95	16.25	-41.8	-45.9	12.0	4.25e-04	0	60	0	267386880	55	5661
2026-01-16 07:55:18.54	37.73	16.24	-41.8	-45.8	12.1	3.11e-04	0	60	0	269484032	55	5618
2026-01-16 07:55:19.55	37.51	16.22	-41.8	-45.8	12.1	2.64e-04	0	60	0	270532608	55	5602
2026-01-16 07:55:20.56	37.28	16.21	-41.8	-45.9	11.9	3.25e-04	0	60	0	272629760	55	5684
2026-01-16 07:55:21.56	37.07	16.19	-41.8	-45.8	12.0	3.03e-04	0	60	0	274726912	55	5604
2026-01-16 07:55:22.57	36.85	16.18	-41.8	-45.8	12.0	3.28e-04	0	60	0	276824064	55	5634
2026-01-16 07:55:23.58	36.62	16.16	-41.8	-45.7	12.1	2.76e-04	0	60	0	278921216	55	5567
2026-01-16 07:55:24.59	36.40	16.15	-41.7	-45.7	12.2	2.59e-04	0	60	0	279969792	55	5545
2026-01-16 07:55:25.60	36.18	16.13	-41.7	-45.6	12.2	2.01e-04	0	60	0	282066944	55	5524
2026-01-16 07:55:26.61	35.97	16.12	-41.7	-45.6	12.2	2.13e-04	0	60	0	284164096	55	5496
2026-01-16 07:55:27.62	35.75	16.10	-41.8	-45.8	12.1	2.30e-04	0	60	0	286261248	55	5611
2026-01-16 07:55:28.63	35.53	16.08	-41.8	-45.9	12.0	3.11e-04	0	60	0	288358400	55	5669
2026-01-16 07:55:29.64	35.31	16.06	-41.8	-45.9	11.9	3.91e-04	0	60	0	289406976	55	5676
2026-01-16 07:55:30.65	35.09	16.04	-41.9	-45.9	11.9	4.09e-04	0	60	0	291504128	55	5709
2026-01-16 07:55:31.66	34.87	16.03	-41.9	-46.1	11.8	4.58e-04	0	60	0	293601280	55	5803
2026-01-16 07:55:32.67	34.65	16.01	-42.0	-46.2	11.6	5.93e-04	0	60	0	295698432	55	5895
2026-01-16 07:55:33.68	34.44	15.99	-41.9	-46.1	11.8	5.61e-04	0	60	0	297795584	55	5789
2026-01-16 07:55:34.68	34.22	15.97	-41.9	-46.0	11.8	4.87e-04	0	60	0	298844160	55	5774
2026-01-16 07:55:35.69	34.00	15.95	-41.9	-46.0	11.8	5.19e-04	0	60	0	300941312	55	5784
2026-01-16 07:55:36.70	33.79	15.93	-41.9	-46.1	11.7	5.40e-04	0	60	0	303038464	55	5831
2026-01-16 07:55:37.71	33.57	15.90	-41.9	-46.1	11.8	5.31e-04	0	60	0	305135616	55	5811
2026-01-16 07:55:38.72	33.35	15.88	-41.9	-46.2	11.7	5.84e-04	0	60	0	307232768	55	5859
2026-01-16 07:55:39.73	33.14	15.86	-41.9	-46.1	11.7	6.70e-04	0	60	0	308281344	55	5845
2026-01-16 07:55:40.74	32.92	15.84	-42.0	-46.2	11.6	6.59e-04	0	60	0	310378496	55	5881
2026-01-16 07:55:41.75	32.71	15.82	-42.0	-46.2	11.5	7.11e-04	0	60	0	312475648	55	5911
2026-01-16 07:55:42.76	32.49	15.79	-42.0	-46.3	11.5	7.91e-04	0	60	0	314572800	55	5938
2026-01-16 07:55:43.77	32.28	15.77	-42.1	-46.5	11.3	9.44e-04	0	60	0	316669952	55	6083
2026-01-16 07:55:44.78	32.06	15.75	-42.1	-46.5	11.3	1.24e-03	0	60	0	317718528	55	6068
2026-01-16 07:55:45.79	31.85	15.72	-42.1	-46.5	11.3	1.16e-03	0	60	0	319815680	55	6094
2026-01-16 07:55:46.80	31.64	15.70	-42.1	-46.5	11.3	1.19e-03	0	60	0	321912832	55	6092
2026-01-16 07:55:47.81	31.42	15.67	-42.1	-46.5	11.2	1.16e-03	0	60	0	324009984	55	6130
2026-01-16 07:55:48.82	31.21	15.65	-42.1	-46.6	11.2	1.35e-03	0	60	0	326107136	55	6138
2026-01-16 07:55:49.83	31.00	15.62	-42.1	-46.6	11.1	1.41e-03	0	60	0	327155712	55	6188
2026-01-16 07:55:50.84	30.79	15.59	-42.1	-46.6	11.1	1.51e-03	0	60	0	329252864	55	6183
2026-01-16 07:55:51.85	30.57	15.57	-42.2	-46.7	11.1	1.63e-03	0	60	0	331350016	55	6221
2026-01-16 07:55:52.86	30.36	15.54	-42.2	-46.7	11.0	1.86e-03	0	60	0	333447168	55	6219
2026-01-16 07:55:53.87	30.15	15.51	-42.1	-46.5	11.2	1.53e-03	0	60	0	335544320	55	6128
2026-01-16 07:55:54.88	29.94	15.49	-42.1	-46.5	11.2	1.39e-03	0	60	0	337641472	55	6128
2026-01-16 07:55:55.89	29.73	15.46	-42.1	-46.5	11.3	1.21e-03	0	60	0	338690048	55	6063
2026-01-16 07:55:56.89	29.52	15.43	-42.1	-46.5	11.2	1.24e-03	0	60	0	340787200	55	6122
2026-01-16 07:55:57.90	29.32	15.40	-42.1	-46.4	11.3	1.25e-03	0	60	0	342884352	55	6044
2026-01-16 07:55:58.91	29.11	15.37	-42.0	-46.4	11.4	1.03e-03	0	60	0	344981504	55	6013
2026-01-16 07:55:59.92	28.90	15.34	-42.1	-46.5	11.3	1.06e-03	0	60	0	347078656	55	6076
2026-01-16 07:56:00.93	28.69	15.31	-42.0	-46.2	11.6	9.49e-04	0	60	0	348127232	55	5909
2026-01-16 07:56:01.94	28.48	15.28	-41.9	-46.2	11.6	6.84e-04	0	60	0	350224384	55	5863
2026-01-16 07:56:02.95	28.28	15.25	-41.9	-46.0	11.7	5.81e-04	0	60	0	352321536	55	5774
2026-01-16 07:56:03.96	28.07	15.22	-41.8	-45.9	11.9	5.25e-04	0	60	0	354418688	55	5699
2026-01-16 07:56:04.97	27.86	15.19	-41.8	-46.0	11.8	4.65e-04	0	60	0	356515840	55	5727
2026-01-16 07:56:05.98	27.66	15.16	-41.9	-46.1	11.7	4.94e-04	0	60	0	357564416	55	5798
2026-01-16 07:56:06.99	27.45	15.13	-41.9	-46.1	11.7	5.59e-04	0	60	0	359661568	55	5833
2026-01-16 07:56:08.00	27.25	15.10	-42.0	-46.2	11.6	6.78e-04	0	60	0	361758720	55	5875
2026-01-16 07:56:09.01	27.04	15.06	-42.0	-46.3	11.5	7.25e-04	0	60	0	363855872	55	5925
2026-01-16 07:56:10.02	26.84	15.03	-42.0	-46.4	11.4	8.85e-04	0	60	0	365953024	55	6001
2026-01-16 07:56:11.03	26.63	15.00	-42.0	-46.2	11.5	8.49e-04	0	60	0	367001600	55	5916
2026-01-16 07:56:12.04	26.43	14.97	-41.9	-46.2	11.6	7.18e-04	0	60	0	369098752	55	5858
2026-01-16 07:56:13.05	26.23	14.93	-41.9	-46.1	11.6	6.52e-04	0	60	0	371195904	55	5826
2026-01-16 07:56:14.06	26.03	14.90	-41.9	-46.1	11.7	6.53e-04	0	60	0	373293056	55	5794
2026-01-16 07:56:15.07	25.82	14.86	-41.8	-45.9	11.8	4.82e-04	0	60	0	375390208	55	5710
2026-01-16 07:56:16.08	25.62	14.83	-41.9	-46.0	11.7	4.68e-04	0	60	0	376438784	55	5764
2026-01-16 07:56:17.09	25.42	14.79	-41.9	-46.1	11.6	5.93e-04	0	60	0	378535936	55	5854
2026-01-16 07:56:18.10	25.22	14.76	-42.0	-46.2	11.5	6.96e-04	0	60	0	380633088	55	5894
2026-01-16 07:56:19.11	25.02	14.72	-42.0	-46.2	11.5	7.99e-04	0	60	0	382730240	55	5900
2026-01-16 07:56:20.12	24.82	14.69	-42.0	-46.2	11.5	9.15e-04	0	60	0	384827392	55	5913
2026-01-16 07:56:21.13	24.62	14.65	-42.0	-46.3	11.4	9.38e-04	0	60	0	385875968	55	5969
2026-01-16 07:56:22.14	24.43	14.62	-42.0	-46.4	11.3	9.42e-04	0	60	0	387973120	55	6009
2026-01-16 07:56:23.14	24.23	14.58	-42.0	-46.3	11.4	9.81e-04	0	60	0	390070272	55	5949
2026-01-16 07:56:24.16	24.03	14.54	-42.0	-46.3	11.4	1.13e-03	0	60	0	392167424	55	5992
2026-01-16 07:56:25.16	23.84	14.51	-42.0	-46.4	11.3	1.12e-03	0	60	0	394264576	55	6048
2026-01-16 07:56:26.17	23.64	14.47	-42.0	-46.3	11.4	1.16e-03	0	60	0	395313152	55	5986
2026-01-16 07:56:27.18	23.44	14.43	-42.0	-46.3	11.3	1.01e-03	0	60	0	397410304	55	5991
2026-01-16 07:56:28.19	23.25	14.39	-42.0	-46.4	11.2	1.15e-03	0	60	0	399507456	55	6050
2026-01-16 07:56:29.20	23.05	14.35	-42.0	-46.5	11.2	1.38e-03	0	60	0	401604608	55	6080
2026-01-16 07:56:30.21	22.86	14.32	-41.9	-46.5	11.2	1.43e-03	0	60	0	403701760	55	6073
2026-01-16 07:56:31.22	22.67	14.28	-42.1	-46.6	11.1	1.63e-03	0	60	0	405798912	55	6171
2026-01-16 07:56:32.23	22.47	14.24	-42.1	-46.6	11.0	1.87e-03	0	60	0	406847488	55	6196
2026-01-16 07:56:33.24	22.28	14.20	-42.1	-46.5	11.1	1.59e-03	0	60	0	408944640	55	6107
2026-01-16 07:56:34.25	22.09	14.16	-42.1	-46.5	11.1	1.56e-03	0	60	0	411041792	55	6095
2026-01-16 07:56:35.26	21.90	14.12	-42.1	-46.6	11.0	1.52e-03	0	60	0	413138944	55	6153
2026-01-16 07:56:36.27	21.71	14.08	-42.0	-46.5	11.2	1.40e-03	0	60	0	415236096	55	6063
2026-01-16 07:56:37.27	21.52	14.04	-42.0	-46.4	11.2	1.29e-03	0	60	0	416284672	55	6022
2026-01-16 07:56:38.28	21.33	14.00	-42.0	-46.5	11.2	1.50e-03	0	60	0	418381824	55	6092
2026-01-16 07:56:39.29	21.14	13.96	-42.1	-46.7	10.9	1.78e-03	0	60	0	420478976	55	6215
2026-01-16 07:56:40.30	20.95	13.92	-42.2	-46.9	10.6	2.87e-03	0	60	0	422576128	55	6398
2026-01-16 07:56:41.31	20.76	13.87	-42.2	-47.0	10.6	3.77e-03	0	60	0	424673280	55	6458
2026-01-16 07:56:42.32	20.57	13.83	-42.3	-47.1	10.5	3.70e-03	0	60	0	425721856	55	6549
2026-01-16 07:56:43.33	20.38	13.79	-42.3	-47.1	10.4	4.13e-03	0	60	0	427819008	55	6547
2026-01-16 07:56:44.34	20.20	13.75	-42.3	-47.2	10.4	4.85e-03	0	60	0	429916160	55	6599
2026-01-16 07:56:45.35	20.01	13.71	-42.3	-47.3	10.2	5.16e-03	0	60	0	432013312	55	6652
2026-01-16 07:56:46.36	19.82	13.66	-42.3	-47.2	10.3	5.04e-03	0	60	0	434110464	55	6586
2026-01-16 07:56:47.37	19.64	13.62	-42.3	-47.2	10.3	4.88e-03	0	60	0	435159040	55	6583
2026-01-16 07:56:48.38	19.45	13.58	-42.3	-47.2	10.3	4.92e-03	0	60	0	437256192	55	6646
2026-01-16 07:56:49.39	19.27	13.54	-42.3	-47.1	10.4	5.40e-03	0	60	0	439353344	55	6569
2026-01-16 07:56:50.40	19.09	13.49	-42.3	-47.2	10.3	5.16e-03	0	60	0	441450496	55	6610
2026-01-16 07:56:51.41	18.90	13.45	-42.3	-47.3	10.2	5.84e-03	0	60	0	443547648	55	6719
2026-01-16 07:56:52.42	18.72	13.41	-42.3	-47.4	10.1	6.36e-03	0	60	0	444596224	55	6753
2026-01-16 07:56:53.43	18.54	13.36	-42.4	-47.5	10.0	7.33e-03	0	60	0	446693376	55	6840
2026-01-16 07:56:54.44	18.36	13.32	-42.4	-47.6	9.9	8.65e-03	0	60	0	448790528	55	6892
2026-01-16 07:56:55.45	18.18	13.27	-42.4	-47.8	9.7	1.03e-02	0	60	0	450887680	55	7051
2026-01-16 07:56:56.46	18.00	13.23	-42.5	-47.9	9.5	1.35e-02	0	60	0	452984832	55	7173
2026-01-16 07:56:57.47	17.82	13.18	-42.5	-48.0	9.5	1.46e-02	0	60	0	454033408	55	7245
2026-01-16 07:56:58.48	17.64	13.14	-42.6	-48.1	9.3	1.66e-02	0	60	0	456130560	55	7311
2026-01-16 07:56:59.49	17.46	13.09	-42.5	-48.1	9.3	1.77e-02	0	60	0	458227712	55	7363
2026-01-16 07:57:00.50	17.28	13.05	-42.6	-48.3	9.1	2.25e-02	0	60	0	460324864	55	7459
2026-01-16 07:57:01.51	17.10	13.00	-42.7	-48.5	8.9	2.55e-02	0	60	0	462422016	55	7657
2026-01-16 07:57:02.52	16.93	12.96	-42.6	-48.4	8.9	2.84e-02	0	60	0	463470592	55	7612
2026-01-16 07:57:03.53	16.75	12.91	-42.6	-48.4	8.9	2.91e-02	0	60	0	465567744	55	7622
2026-01-16 07:57:04.54	16.57	12.86	-42.6	-48.5	8.9	2.70e-02	0	60	0	467664896	55	7652
2026-01-16 07:57:05.55	16.40	12.82	-42.5	-48.3	9.0	2.72e-02	0	60	0	469762048	55	7491
2026-01-16 07:57:06.56	16.22	12.77	-42.6	-48.3	9.0	2.64e-02	0	60	0	471859200	55	7505
2026-01-16 07:57:07.57	16.05	12.72	-42.5	-48.1	9.2	2.29e-02	0	60	0	473956352	55	7358
2026-01-16 07:57:08.58	15.88	12.68	-42.5	-48.1	9.2	2.05e-02	0	60	0	475004928	55	7308
2026-01-16 07:57:09.59	15.70	12.63	-42.5	-48.3	9.0	2.35e-02	0	60	0	477102080	55	7506
2026-01-16 07:57:10.60	15.53	12.58	-42.5	-48.3	8.9	2.63e-02	0	60	0	479199232	55	7531
2026-01-16 07:57:11.61	15.36	12.54	-42.6	-48.6	8.6	3.22e-02	0	60	0	481296384	55	7773
2026-01-16 07:57:12.62	15.19	12.49	-42.7	-48.7	8.5	4.24e-02	0	60	0	483393536	55	7867
2026-01-16 07:57:13.63	15.02	12.44	-42.7	-48.8	8.3	4.73e-02	0	60	0	484442112	55	7989
2026-01-16 07:57:14.64	14.85	12.39	-42.7	-48.9	8.3	5.17e-02	0	60	0	486539264	55	8025
2026-01-16 07:57:15.65	14.68	12.35	-42.6	-48.9	8.3	5.58e-02	0	60	0	488636416	55	8002
2026-01-16 07:57:16.66	14.51	12.30	-42.6	-48.7	8.4	4.77e-02	0	60	0	490733568	55	7866
2026-01-16 07:57:17.67	14.34	12.25	-42.6	-48.7	8.3	4.93e-02	0	60	0	492830720	55	7867
2026-01-16 07:57:18.68	14.17	12.20	-42.5	-48.7	8.3	4.93e-02	0	60	0	493879296	55	7856
2026-01-16 07:57:19.69	14.00	12.15	-42.5	-48.8	8.2	5.60e-02	0	61	0	495976448	55	7970
2026-01-16 07:57:20.69	13.84	12.10	-42.6	-48.9	8.1	5.74e-02	0	60	0	498073600	55	8035
2026-01-16 07:57:21.70	13.67	12.06	-42.6	-49.0	8.0	6.72e-02	0	60	0	500170752	55	8131
2026-01-16 07:57:22.71	13.51	12.01	-42.6	-49.2	7.8	8.01e-02	0	60	0	502267904	55	8272
2026-01-16 07:57:23.73	13.34	11.96	-42.6	-49.3	7.6	9.35e-02	0	60	0	503316480	55	8451
2026-01-16 07:57:24.74	13.18	11.91	-42.6	-49.3	7.6	1.01e-01	0	60	0	505413632	55	8418
2026-01-16 07:57:25.75	13.01	11.86	-42.5	-49.3	7.6	9.60e-02	0	60	0	507510784	55	8410
2026-01-16 07:57:26.76	12.85	11.81	-42.5	-49.2	7.6	9.93e-02	0	60	0	509607936	55	8349
2026-01-16 07:57:27.77	12.69	11.76	-42.4	-49.1	7.6	9.89e-02	0	60	0	511705088	55	8253
2026-01-16 07:57:28.78	12.52	11.71	-42.3	-49.1	7.5	9.24e-02	0	60	0	512753664	55	8221
2026-01-16 07:57:29.79	12.36	11.66	-42.3	-49.1	7.5	1.06e-01	0	60	0	514850816	55	8195
2026-01-16 07:57:30.80	12.20	11.61	-42.1	-48.9	7.5	1.05e-01	0	60	0	516947968	55	8049
2026-01-16 07:57:31.81	12.04	11.56	-42.1	-48.9	7.4	1.10e-01	0	60	0	519045120	55	8002
2026-01-16 07:57:32.82	11.88	11.51	-42.0	-48.9	7.4	1.12e-01	0	60	0	521142272	55	8001
2026-01-16 07:57:33.83	11.72	11.46	-41.9	-48.6	7.6	1.02e-01	0	60	0	522190848	55	7751
2026-01-16 07:57:34.84	11.56	11.41	-41.9	-48.6	7.6	9.22e-02	0	60	0	524288000	55	7751
2026-01-16 07:57:35.84	11.40	11.36	-41.9	-48.8	7.3	1.19e-01	0	60	0	526385152	55	7976
2026-01-16 07:57:36.85	11.25	11.31	-41.9	-49.1	6.9	1.46e-01	0	60	0	528482304	55	8211
2026-01-16 07:57:37.86	11.09	11.26	-41.9	-49.7	6.4	1.96e-01	0	60	0	530579456	55	8775
2026-01-16 07:57:38.87	10.93	11.21	-41.9	-50.4	5.7	3.75e-01	0	60	0	531628032	55	9568
2026-01-16 07:57:39.88	10.78	11.16	-41.9	-50.8	5.4	5.04e-01	0	60	0	533725184	55	10016
2026-01-16 07:57:40.89	10.62	11.10	-41.8	-51.3	4.9	6.47e-01	0	60	0	535822336	55	10653
2026-01-16 07:57:41.91	10.46	11.05	-41.8	-52.2	4.5	9.80e-01	14	60	0	537919488	55	11738
2026-01-16 07:57:42.92	10.31	11.00	-41.6	-52.8	4.2	1.34e+00	0	60	0	537919488	55	12637
2026-01-16 07:57:43.92	10.16	10.95	-41.6	-53.4	4.0	1.42e+00	0	60	0	537919488	55	13520
2026-01-16 07:57:44.94	10.00	10.90	-41.5	-54.1	3.8	1.47e+00	0	60	104	537919488	54	15541
2026-01-16 07:57:45.95	9.85	10.85	-41.4	-54.9	3.8	1.49e+00	0	60	104	537919488	54	16903
2026-01-16 07:57:46.96	9.70	10.80	-41.3	-55.3	3.8	1.49e+00	0	60	104	537919488	54	17791
2026-01-16 07:57:47.96	9.55	10.74	-41.3	-55.4	3.8	1.49e+00	0	60	104	537919488	54	18051
2026-01-16 07:57:48.97	9.40	10.69	-41.2	-55.4	3.8	1.49e+00	0	60	104	537919488	54	18019
2026-01-16 07:57:49.98	9.25	10.64	-41.1	-55.4	3.8	1.49e+00	0	60	104	537919488	54	18033
2026-01-16 07:57:50.99	9.10	10.59	-41.1	-55.5	3.8	1.49e+00	0	61	104	537919488	54	18184
2026-01-16 07:57:52.00	8.95	10.54	-41.1	-55.6	3.8	1.49e+00	0	60	104	537919488	54	18338
2026-01-16 07:57:53.01	8.80	10.48	-40.6	-55.3	3.8	1.49e+00	0	60	104	537919488	53	18733
2026-01-16 07:57:54.02	8.65	10.43	-41.0	-55.6	3.8	1.49e+00	0	60	104	537919488	53	19598
2026-01-16 07:57:55.03	8.50	10.38	-41.3	-55.5	3.8	1.49e+00	0	60	104	537919488	53	19256
2026-01-16 07:57:56.04	8.35	10.33	-40.5	-55.0	3.8	1.49e+00	0	60	104	537919488	52	19328
2026-01-16 07:57:57.05	8.21	10.27	-41.2	-55.6	3.8	1.49e+00	0	60	104	537919488	52	20726
2026-01-16 07:57:58.05	8.06	10.22	-40.3	-54.9	3.8	1.49e+00	0	60	104	537919488	52	19150
2026-01-16 07:57:59.06	7.92	10.17	-40.1	-54.7	3.8	1.49e+00	0	60	104	537919488	52	18676
2026-01-16 07:58:00.07	7.77	10.12	-40.5	-55.1	3.8	1.49e+00	0	60	104	537919488	52	19450
2026-01-16 07:58:01.08	7.63	10.06	-40.2	-54.8	3.8	1.49e+00	0	61	104	537919488	52	18748
2026-01-16 07:58:02.09	7.48	10.01	-40.1	-54.8	3.8	1.49e+00	0	60	104	537919488	52	18737
2026-01-16 07:58:03.10	7.34	9.96	-40.1	-54.7	3.8	1.49e+00	0	60	104	537919488	52	18523
2026-01-16 07:58:04.11	7.19	9.91	-40.0	-54.6	3.8	1.49e+00	0	60	104	537919488	52	18394
2026-01-16 07:58:05.12	7.05	9.85	-40.0	-54.7	3.8	1.49e+00	0	61	104	537919488	52	18528
2026-01-16 07:58:06.13	6.91	9.80	-40.7	-55.4	3.8	1.49e+00	0	60	104	537919488	52	20115
2026-01-16 07:58:07.14	6.77	9.75	-40.0	-54.6	3.8	1.49e+00	0	60	104	537919488	52	18399
2026-01-16 07:58:08.15	6.63	9.69	-40.2	-54.8	3.8	1.49e+00	0	60	104	537919488	52	18809
2026-01-16 07:58:09.15	6.49	9.64	-40.0	-54.6	3.8	1.49e+00	0	60	104	537919488	52	18443
2026-01-16 07:58:10.17	6.35	9.59	-40.0	-54.6	3.8	1.49e+00	0	60	104	537919488	52	18447
2026-01-16 07:58:11.17	6.21	9.53	-40.0	-54.6	3.8	1.49e+00	0	60	104	537919488	52	18373
2026-01-16 07:58:12.18	6.07	9.48	-40.1	-54.6	3.8	1.49e+00	0	60	104	537919488	51	19524
2026-01-16 07:58:13.19	5.93	9.43	-40.3	-54.9	3.8	1.49e+00	0	60	104	537919488	51	20182
2026-01-16 07:58:14.20	5.79	9.37	-40.1	-54.7	3.8	1.49e+00	0	61	104	537919488	51	19733
2026-01-16 07:58:15.21	5.66	9.32	-40.4	-55.1	3.8	1.49e+00	0	61	104	537919488	51	20680
2026-01-16 07:58:16.22	5.52	9.27	-40.1	-54.7	3.8	1.49e+00	0	60	104	537919488	51	19685
2026-01-16 07:58:17.23	5.38	9.21	-40.4	-55.0	3.8	1.49e+00	0	61	104	537919488	51	20519
2026-01-16 07:58:18.24	5.25	9.16	-40.0	-54.7	3.8	1.49e+00	0	61	104	537919488	51	19658
2026-01-16 07:58:19.25	5.11	9.11	-40.1	-54.7	3.8	1.49e+00	0	60	104	537919488	51	19791
2026-01-16 07:58:20.26	4.98	9.05	-40.1	-54.7	3.8	1.49e+00	0	60	104	537919488	51	19724
2026-01-16 07:58:21.26	4.84	9.00	-40.0	-54.7	3.8	1.49e+00	0	61	104	537919488	51	19756
2026-01-16 07:58:22.27	4.71	8.95	-40.1	-54.7	3.8	1.49e+00	0	61	104	537919488	51	19710
2026-01-16 07:58:23.29	4.58	8.89	-40.2	-54.9	3.8	1.49e+00	0	60	104	537919488	51	20102
2026-01-16 07:58:24.30	4.44	8.84	-40.0	-54.7	3.8	1.49e+00	0	61	104	537919488	51	19643
2026-01-16 07:58:25.31	4.31	8.78	-40.2	-54.8	3.8	1.49e+00	0	60	104	537919488	51	20038
2026-01-16 07:58:26.32	4.18	8.73	-40.0	-54.7	3.8	1.49e+00	0	60	104	537919488	51	19689
2026-01-16 07:58:27.32	4.05	8.68	-40.0	-54.7	3.8	1.49e+00	0	61	104	537919488	51	19706
2026-01-16 07:58:28.34	3.92	8.62	-40.0	-54.7	3.8	1.49e+00	0	61	104	537919488	51	19713
2026-01-16 07:58:29.35	3.79	8.57	-39.9	-54.7	3.8	1.49e+00	0	60	104	537919488	51	19650
2026-01-16 07:58:30.36	3.66	8.52	-40.1	-54.7	3.8	1.49e+00	0	61	104	537919488	51	19807
2026-01-16 07:58:31.37	3.53	8.46	-40.0	-54.8	3.8	1.49e+00	0	61	104	537919488	51	19859
2026-01-16 07:58:32.38	3.40	8.41	-40.0	-54.7	3.8	1.49e+00	0	60	104	537919488	51	19689
2026-01-16 07:58:33.39	3.27	8.35	-39.9	-54.7	3.8	1.49e+00	0	61	104	537919488	51	19713
2026-01-16 07:58:34.40	3.14	8.30	-40.0	-54.6	3.8	1.49e+00	0	60	104	537919488	51	19611
2026-01-16 07:58:35.41	3.02	8.24	-40.0	-54.7	3.8	1.49e+00	0	61	104	537919488	51	19629
2026-01-16 07:58:36.42	2.89	8.19	-39.9	-54.6	3.8	1.49e+00	0	60	104	537919488	51	19512
2026-01-16 07:58:37.43	2.76	8.14	-39.9	-54.7	3.8	1.49e+00	0	61	104	537919488	51	19618
2026-01-16 07:58:38.44	2.64	8.08	-39.9	-54.6	3.8	1.49e+00	0	60	104	537919488	51	19594
2026-01-16 07:58:39.45	2.51	8.03	-40.0	-54.8	3.8	1.49e+00	0	60	104	537919488	51	19866
2026-01-16 07:58:40.46	2.39	7.97	-42.6	-57.2	3.8	1.49e+00	0	60	104	537919488	55	20919
2026-01-16 07:58:41.47	2.26	7.92	-44.8	-59.5	3.8	1.49e+00	0	61	104	537919488	60	20360
2026-01-16 07:58:42.48	2.14	7.87	-45.1	-59.8	3.8	1.49e+00	0	61	104	537919488	60	21134
2026-01-16 07:58:43.48	2.02	7.81	-45.3	-60.0	3.8	1.49e+00	0	60	104	537919488	61	20307
2026-01-16 07:58:44.50	1.89	7.76	-45.4	-60.1	3.8	1.49e+00	0	60	104	537919488	61	20563
2026-01-16 07:58:45.51	1.77	7.70	-45.5	-60.2	3.8	1.49e+00	0	61	104	537919488	61	20788
2026-01-16 07:58:46.52	1.65	7.65	-45.5	-60.2	3.8	1.49e+00	0	61	104	537919488	61	20905
2026-01-16 07:58:47.53	1.53	7.59	-45.5	-60.2	3.8	1.49e+00	0	61	104	537919488	61	20921
2026-01-16 07:58:48.54	1.40	7.54	-45.5	-60.2	3.8	1.49e+00	0	61	104	537919488	61	20791
2026-01-16 07:58:49.55	1.28	7.49	-45.4	-60.1	3.8	1.49e+00	0	61	104	537919488	61	20713
2026-01-16 07:58:50.56	1.16	7.43	-45.4	-60.0	3.8	1.49e+00	0	61	104	537919488	61	20530
2026-01-16 07:58:51.57	1.04	7.38	-45.4	-60.0	3.8	1.49e+00	0	61	104	537919488	61	20431
2026-01-16 07:58:52.58	0.92	7.32	-45.4	-60.0	3.8	1.49e+00	0	60	104	537919488	61	20324
2026-01-16 07:58:53.59	0.81	7.27	-45.4	-59.9	3.8	1.49e+00	0	60	104	537919488	61	20135
2026-01-16 07:58:54.59	0.69	7.22	-45.3	-59.8	3.8	1.49e+00	0	61	104	537919488	61	20065
2026-01-16 07:58:55.61	0.57	7.16	-45.3	-59.8	3.8	1.49e+00	0	61	104	537919488	61	20004
2026-01-16 07:58:56.61	0.45	7.11	-45.3	-59.8	3.8	1.49e+00	0	60	104	537919488	61	19988
2026-01-16 07:58:57.62	0.34	7.05	-45.3	-59.8	3.8	1.49e+00	0	61	104	537919488	61	20030
2026-01-16 07:58:58.63	0.22	7.00	-45.3	-59.8	3.8	1.49e+00	0	61	104	537919488	61	20009
2026-01-16 07:58:59.64	0.10	6.94	-45.3	-59.8	3.8	1.49e+00	0	61	104	537919488	61	20040
2026-01-16 07:59:00.65	359.99	6.89	-45.3	-59.8	3.8	1.49e+00	0	61	104	537919488	61	19944
2026-01-16 07:59:01.66	359.87	6.84	-45.3	-59.8	3.8	1.49e+00	0	61	104	537919488	61	19941
2026-01-16 07:59:02.67	359.76	6.78	-45.3	-59.8	3.8	1.49e+00	0	61	104	537919488	61	19952
2026-01-16 07:59:03.68	359.64	6.73	-45.3	-59.8	3.8	1.49e+00	0	61	104	537919488	61	19946
2026-01-16 07:59:04.69	359.53	6.67	-45.2	-59.8	3.8	1.49e+00	0	61	104	537919488	61	19925
2026-01-16 07:59:05.70	359.42	6.62	-45.3	-59.8	3.8	1.49e+00	0	61	104	537919488	61	19977
2026-01-16 07:59:06.71	359.30	6.56	-45.3	-59.8	3.8	1.49e+00	0	61	104	537919488	61	19935
2026-01-16 07:59:07.72	359.19	6.51	-45.3	-59.8	3.8	1.49e+00	0	60	104	537919488	61	19918
2026-01-16 07:59:08.73	359.08	6.46	-45.3	-59.8	3.8	1.49e+00	0	60	104	537919488	61	19926
2026-01-16 07:59:09.74	358.97	6.40	-45.2	-59.8	3.8	1.49e+00	0	61	104	537919488	61	19936
2026-01-16 07:59:10.75	358.85	6.35	-45.3	-59.8	3.8	1.49e+00	0	61	104	537919488	61	19903
2026-01-16 07:59:11.76	358.74	6.29	-45.3	-59.8	3.8	1.49e+00	0	60	104	537919488	61	19896
2026-01-16 07:59:12.76	358.63	6.24	-45.2	-59.8	3.8	1.49e+00	0	61	104	537919488	61	19943
2026-01-16 07:59:13.77	358.52	6.19	-45.2	-59.8	3.8	1.49e+00	0	61	104	537919488	61	19860
2026-01-16 07:59:14.79	358.41	6.13	-45.2	-59.8	3.8	1.49e+00	0	61	104	537919488	61	19871
2026-01-16 07:59:15.79	358.31	6.08	-45.3	-59.7	3.8	1.49e+00	0	61	104	537919488	61	19832
2026-01-16 07:59:16.81	358.20	6.02	-45.3	-59.8	3.8	1.49e+00	0	61	104	537919488	61	19866
2026-01-16 07:59:17.82	358.09	5.97	-45.3	-59.7	3.8	1.49e+00	0	61	104	537919488	61	19839
2026-01-16 07:59:18.82	357.98	5.91	-45.3	-59.7	3.8	1.49e+00	0	61	104	537919488	61	19829
2026-01-16 07:59:19.83	357.87	5.86	-45.3	-59.8	3.8	1.49e+00	0	61	104	537919488	61	19842
2026-01-16 07:59:20.84	357.77	5.81	-45.2	-59.8	3.8	1.49e+00	0	61	104	537919488	61	19874
2026-01-16 07:59:21.85	357.66	5.75	-45.2	-59.7	3.8	1.49e+00	0	61	104	537919488	61	19793
2026-01-16 07:59:22.86	357.55	5.70	-45.2	-59.8	3.8	1.49e+00	0	60	104	537919488	61	19864
2026-01-16 07:59:23.87	357.45	5.64	-45.2	-59.7	3.8	1.49e+00	0	61	104	537919488	61	19812
2026-01-16 07:59:24.89	357.34	5.59	-45.2	-59.8	3.8	1.49e+00	0	61	104	537919488	61	19853
2026-01-16 07:59:25.90	357.24	5.54	-45.2	-59.7	3.8	1.49e+00	0	61	104	537919488	61	19819
2026-01-16 07:59:26.91	357.13	5.48	-45.2	-59.8	3.8	1.49e+00	0	61	104	537919488	61	19900
2026-01-16 07:59:27.92	357.03	5.43	-45.2	-59.7	3.8	1.49e+00	0	61	104	537919488	61	19829
2026-01-16 07:59:28.93	356.92	5.37	-45.3	-59.8	3.8	1.49e+00	0	60	104	537919488	61	19852
2026-01-16 07:59:29.94	356.82	5.32	-45.2	-59.7	3.8	1.49e+00	0	61	104	537919488	61	19786
2026-01-16 07:59:30.95	356.72	5.27	-45.3	-59.8	3.8	1.49e+00	0	61	104	537919488	61	19857
2026-01-16 07:59:31.96	356.61	5.21	-45.2	-59.8	3.8	1.49e+00	0	61	104	537919488	61	19867
2026-01-16 07:59:32.97	356.51	5.16	-45.2	-59.8	3.8	1.49e+00	0	61	104	537919488	61	19842
2026-01-16 07:59:33.98	356.41	5.11	-45.2	-59.8	3.8	1.49e+00	0	61	104	537919488	61	19859
2026-01-16 07:59:34.99	356.31	5.05	-45.3	-59.7	3.8	1.49e+00	0	61	104	537919488	61	19795
2026-01-16 07:59:35.99	356.21	5.00	-45.2	-59.7	3.8	1.49e+00	0	61	104	537919488	61	19807
2026-01-16 07:59:37.00	356.11	4.94	-45.2	-59.8	3.8	1.49e+00	0	61	104	537919488	61	19858
2026-01-16 07:59:38.02	356.01	4.89	-45.2	-59.7	3.8	1.49e+00	0	61	104	537919488	61	19834
2026-01-16 07:59:39.03	355.91	4.84	-45.2	-59.8	3.8	1.49e+00	0	61	104	537919488	61	19848
2026-01-16 07:59:40.04	355.81	4.78	-45.2	-59.7	3.8	1.49e+00	0	61	104	537919488	61	19790
2026-01-16 07:59:41.05	355.71	4.73	-45.2	-59.7	3.8	1.49e+00	0	61	104	537919488	61	19801
2026-01-16 07:59:42.05	355.61	4.68	-45.3	-59.7	3.8	1.49e+00	0	61	104	537919488	61	19829
2026-01-16 07:59:43.07	355.51	4.62	-45.2	-59.7	3.8	1.49e+00	0	61	104	537919488	61	19741
2026-01-16 07:59:44.08	355.41	4.57	-45.2	-59.7	3.8	1.49e+00	0	61	104	537919488	61	19796
2026-01-16 07:59:45.09	355.31	4.52	-45.2	-59.7	3.8	1.49e+00	0	60	104	537919488	61	19831
2026-01-16 07:59:46.10	355.22	4.46	-45.2	-59.8	3.8	1.49e+00	0	61	104	537919488	61	19844
2026-01-16 07:59:47.11	355.12	4.41	-45.2	-59.7	3.8	1.49e+00	0	61	104	537919488	61	19825
2026-01-16 07:59:48.12	355.02	4.35	-45.1	-59.7	3.7	1.49e+00	0	61	104	537919488	60	20992
2026-01-16 07:59:49.13	354.93	4.30	-45.2	-59.7	3.8	1.49e+00	0	61	104	537919488	61	19798
2026-01-16 07:59:50.14	354.83	4.25	-45.2	-59.7	3.8	1.49e+00	0	61	104	537919488	61	19793
2026-01-16 07:59:51.15	354.73	4.19	-45.2	-59.7	3.8	1.49e+00	0	61	104	537919488	61	19827
2026-01-16 07:59:52.16	354.64	4.14	-45.0	-59.7	3.8	1.49e+00	0	61	104	537919488	60	20967
2026-01-16 07:59:53.17	354.54	4.09	-45.2	-59.8	3.8	1.49e+00	0	61	104	537919488	61	19889
2026-01-16 07:59:54.18	354.45	4.03	-45.2	-59.7	3.8	1.49e+00	0	60	104	537919488	61	19760
2026-01-16 07:59:55.19	354.36	3.98	-45.2	-59.7	3.8	1.49e+00	0	61	104	537919488	61	19730
2026-01-16 07:59:56.20	354.26	3.93	-45.1	-59.7	3.8	1.49e+00	0	61	104	537919488	61	19720
2026-01-16 07:59:57.21	354.17	3.88	-45.2	-59.7	3.8	1.49e+00	0	61	104	537919488	61	19822
2026-01-16 07:59:58.22	354.08	3.82	-45.1	-59.7	3.8	1.49e+00	0	61	104	537919488	60	20933
2026-01-16 07:59:59.22	353.98	3.77	-45.2	-59.7	3.8	1.49e+00	0	61	104	537919488	61	19777
2026-01-16 08:00:00.24	353.89	3.72	-45.2	-59.8	3.8	1.49e+00	0	60	104	537919488	61	19843
2026-01-16 08:00:01.25	353.80	3.66	-45.2	-59.7	3.8	1.49e+00	0	61	104	537919488	61	19798
2026-01-16 08:00:02.26	353.71	3.61	-45.2	-59.8	3.8	1.49e+00	0	61	104	537919488	61	19850
2026-01-16 08:00:03.27	353.62	3.56	-45.2	-59.7	3.8	1.49e+00	0	61	104	537919488	61	19772
2026-01-16 08:00:04.28	353.52	3.50	-44.6	-59.7	3.8	1.49e+00	0	61	104	537919488	61	19745
2026-01-16 08:00:05.29	353.43	3.45	-45.2	-59.7	3.8	1.49e+00	0	61	104	537919488	61	19834
2026-01-16 08:00:06.30	353.34	3.40	-45.2	-59.7	3.8	1.49e+00	0	60	104	537919488	61	19782
2026-01-16 08:00:07.31	353.25	3.35	-45.2	-59.8	3.8	1.49e+00	0	61	104	537919488	60	21019
2026-01-16 08:00:08.32	353.16	3.29	-45.2	-59.7	3.8	1.49e+00	0	61	104	537919488	61	19703
2026-01-16 08:00:09.33	353.08	3.24	-45.2	-59.7	3.8	1.49e+00	0	61	104	537919488	61	19773
2026-01-16 08:00:10.34	352.99	3.19	-45.2	-59.7	3.8	1.49e+00	0	61	104	537919488	61	19704
2026-01-16 08:00:11.35	352.90	3.13	-45.2	-59.7	3.8	1.49e+00	0	61	104	537919488	61	19689
2026-01-16 08:00:12.36	352.81	3.08	-45.2	-59.7	3.8	1.49e+00	0	61	104	537919488	61	19692
2026-01-16 08:00:13.37	352.72	3.03	-45.2	-59.7	3.8	1.49e+00	0	61	104	537919488	61	19712
2026-01-16 08:00:14.38	352.63	2.98	-45.2	-59.7	3.8	1.49e+00	0	61	104	537919488	61	19737
2026-01-16 08:00:15.39	352.55	2.92	-45.2	-59.7	3.8	1.49e+00	0	61	104	537919488	61	19730
2026-01-16 08:00:16.40	352.46	2.87	-45.2	-59.7	3.8	1.49e+00	0	61	104	537919488	61	19761
2026-01-16 08:00:17.41	352.37	2.82	-45.2	-59.7	3.8	1.49e+00	0	61	104	537919488	61	19731
2026-01-16 08:00:18.42	352.29	2.77	-45.2	-59.7	3.8	1.49e+00	0	61	104	537919488	61	19672
2026-01-16 08:00:19.43	352.20	2.71	-45.2	-59.7	3.8	1.49e+00	0	61	104	537919488	61	19660
2026-01-16 08:00:20.44	352.12	2.66	-45.2	-59.7	3.8	1.49e+00	0	61	104	537919488	60	20912
2026-01-16 08:00:21.45	352.03	2.61	-45.2	-59.7	3.8	1.49e+00	0	61	104	537919488	60	20908
2026-01-16 08:00:22.47	351.94	2.56	-45.2	-59.7	3.8	1.49e+00	0	61	104	537919488	60	20934
2026-01-16 08:00:23.48	351.86	2.51	-45.1	-59.7	3.8	1.49e+00	0	61	104	537919488	60	20904
2026-01-16 08:00:24.48	351.78	2.45	-45.1	-59.7	3.8	1.49e+00	0	61	104	537919488	60	20924
2026-01-16 08:00:25.49	351.69	2.40	-45.2	-59.7	3.8	1.49e+00	0	61	104	537919488	60	20987
2026-01-16 08:00:26.51	351.61	2.35	-44.9	-59.7	3.8	1.49e+00	0	61	104	537919488	60	20807
2026-01-16 08:00:27.51	351.52	2.30	-45.2	-59.7	3.8	1.49e+00	0	61	104	537919488	60	20899
2026-01-16 08:00:28.53	351.44	2.24	-45.1	-59.7	3.8	1.49e+00	0	60	104	537919488	60	20894
2026-01-16 08:00:29.53	351.36	2.19	-45.1	-59.7	3.8	1.49e+00	0	61	104	537919488	60	20942
2026-01-16 08:00:30.54	351.28	2.14	-45.2	-59.7	3.8	1.49e+00	0	61	104	537919488	60	20906
2026-01-16 08:00:31.56	351.19	2.09	-44.3	-59.7	3.8	1.49e+00	0	61	104	537919488	60	20859
2026-01-16 08:00:32.57	351.11	2.04	-45.2	-59.7	3.8	1.49e+00	0	61	104	537919488	60	20896

#Closed at: 2026-01-16 08:00:33
#Recorded file [537 MB]: D:/lorett/data/31039_260116_104903.dat