passes_logs/2026/01/16/R2.0S_Moscow/R2.0S_Moscow__20260116_033928_FENGYUN_3E_rec.log

#Pass ID: 20260116_033928_FENGYUN 3E
#Satellite: FENGYUN 3E
#Configuration: FENGYUN 3E
#almurnet v.1.7.20251203
#Start time: 2026-01-16 03:39:29

#Version: 2.2.20231116
#Station: R2.0S_Moscow
#Location: 37.707566 lon 55.798166 lat
#TLE: 1 49008U 21062A   26015.49897766  .00000206  00000+0  11779-3 0  9997
#TLE: 2 49008  98.7486  20.6219 0002049 135.8566 224.2775 14.19885576234916

#Time	Az	El	Level	Level2	SNR	BER	BlckErr	Temp	State	Recorded	gain1	gain2
2026-01-16 03:39:29.23	17.53	2.08	-41.9	-53.3	3.8	8.46e-01	0	51	0	0	54	13291
2026-01-16 03:39:30.24	17.55	2.15	-41.9	-53.2	3.8	8.46e-01	0	51	104	0	54	13248
2026-01-16 03:39:31.25	17.57	2.21	-41.9	-53.2	3.8	8.46e-01	0	51	104	0	54	13225
2026-01-16 03:39:32.26	17.58	2.27	-41.9	-53.2	3.8	8.46e-01	0	52	104	0	54	13232
2026-01-16 03:39:33.27	17.60	2.34	-41.9	-53.2	3.8	8.46e-01	0	52	104	0	54	13256
2026-01-16 03:39:34.28	17.62	2.40	-41.9	-53.2	3.8	8.46e-01	0	51	104	0	54	13233
2026-01-16 03:39:35.29	17.64	2.47	-41.9	-53.2	3.8	8.46e-01	0	52	104	0	54	13246
2026-01-16 03:39:36.30	17.65	2.53	-41.8	-53.2	3.8	8.46e-01	0	52	104	0	54	13256
2026-01-16 03:39:37.31	17.67	2.60	-41.9	-53.2	3.8	8.47e-01	0	52	104	0	54	13245
2026-01-16 03:39:38.32	17.69	2.66	-41.9	-53.2	3.8	8.46e-01	0	52	104	0	54	13240
2026-01-16 03:39:39.33	17.71	2.73	-41.9	-53.2	3.8	8.45e-01	0	52	104	0	54	13244
2026-01-16 03:39:40.34	17.72	2.79	-41.8	-53.2	3.8	8.47e-01	0	52	104	0	54	13236
2026-01-16 03:39:41.35	17.74	2.86	-41.9	-53.2	3.8	8.45e-01	0	52	104	0	54	13243
2026-01-16 03:39:42.36	17.76	2.93	-41.8	-53.2	3.8	8.46e-01	0	52	104	0	54	13240
2026-01-16 03:39:43.37	17.78	2.99	-41.9	-53.2	3.8	8.46e-01	0	52	104	0	54	13253
2026-01-16 03:39:44.37	17.80	3.06	-41.9	-53.2	3.8	8.45e-01	0	52	104	0	54	13242
2026-01-16 03:39:45.38	17.81	3.12	-41.9	-53.2	3.8	8.46e-01	0	53	104	0	54	13257
2026-01-16 03:39:46.39	17.83	3.19	-41.9	-53.3	3.8	8.46e-01	0	53	104	0	54	13262
2026-01-16 03:39:47.40	17.85	3.26	-41.8	-53.2	3.8	8.46e-01	0	53	104	0	54	13233
2026-01-16 03:39:48.41	17.87	3.32	-41.9	-53.3	3.8	8.46e-01	0	53	104	0	54	13287
2026-01-16 03:39:49.41	17.89	3.39	-41.8	-53.3	3.8	8.46e-01	0	53	104	0	54	13291
2026-01-16 03:39:50.43	17.90	3.46	-41.8	-53.2	3.8	8.46e-01	0	53	104	0	54	13235
2026-01-16 03:39:51.44	17.92	3.53	-41.8	-53.2	3.8	8.46e-01	0	53	104	0	54	13195
2026-01-16 03:39:52.44	17.94	3.59	-41.9	-53.2	3.8	8.46e-01	0	53	104	0	54	13253
2026-01-16 03:39:53.45	17.96	3.66	-41.8	-53.2	3.8	8.46e-01	0	53	104	0	54	13216
2026-01-16 03:39:54.46	17.98	3.73	-41.8	-53.2	3.8	8.45e-01	0	53	104	0	54	13224
2026-01-16 03:39:55.47	18.00	3.80	-41.8	-53.2	3.8	8.47e-01	0	53	104	0	54	13230
2026-01-16 03:39:56.48	18.02	3.86	-41.9	-53.2	3.8	8.45e-01	0	53	104	0	54	13169
2026-01-16 03:39:57.49	18.03	3.93	-41.8	-53.2	3.8	8.46e-01	0	53	104	0	54	13228
2026-01-16 03:39:58.50	18.05	4.00	-41.8	-53.2	3.8	8.46e-01	0	53	104	0	54	13259
2026-01-16 03:39:59.51	18.07	4.07	-41.9	-53.3	3.8	8.45e-01	0	54	104	0	54	13272
2026-01-16 03:40:00.51	18.09	4.14	-41.9	-53.2	3.8	8.45e-01	0	54	104	0	54	13178
2026-01-16 03:40:01.52	18.11	4.21	-41.9	-53.2	3.8	8.46e-01	0	54	104	0	54	13218
2026-01-16 03:40:02.53	18.13	4.28	-41.8	-53.2	3.8	8.46e-01	0	54	104	0	54	13187
2026-01-16 03:40:03.54	18.15	4.35	-41.8	-53.2	3.8	8.46e-01	0	54	104	0	54	13223
2026-01-16 03:40:04.55	18.17	4.42	-41.8	-53.2	3.8	8.46e-01	0	54	104	0	54	13235
2026-01-16 03:40:05.56	18.19	4.49	-41.9	-53.2	3.8	8.46e-01	0	54	104	0	54	13224
2026-01-16 03:40:06.57	18.21	4.56	-41.9	-53.2	3.8	8.45e-01	0	54	104	0	54	13238
2026-01-16 03:40:07.58	18.23	4.63	-41.8	-53.3	3.8	8.46e-01	0	54	104	0	54	13263
2026-01-16 03:40:08.58	18.25	4.70	-41.9	-53.2	3.8	8.46e-01	0	54	104	0	54	13249
2026-01-16 03:40:09.59	18.27	4.77	-41.9	-53.2	3.8	8.45e-01	0	54	104	0	54	13201
2026-01-16 03:40:10.60	18.28	4.84	-41.8	-53.3	3.8	8.46e-01	0	54	104	0	54	13266
2026-01-16 03:40:11.61	18.30	4.91	-41.9	-53.2	3.8	8.45e-01	0	54	104	0	54	13204
2026-01-16 03:40:12.62	18.32	4.98	-41.9	-53.2	3.8	8.46e-01	0	54	104	0	54	13233
2026-01-16 03:40:13.63	18.34	5.05	-41.8	-53.2	3.8	8.46e-01	0	54	104	0	54	13217
2026-01-16 03:40:14.64	18.36	5.12	-41.8	-53.2	3.8	8.47e-01	0	54	104	0	54	13225
2026-01-16 03:40:15.65	18.38	5.19	-41.9	-53.2	3.8	8.46e-01	0	54	104	0	54	13230
2026-01-16 03:40:16.66	18.40	5.26	-41.9	-53.2	3.8	8.47e-01	0	55	104	0	54	13234
2026-01-16 03:40:17.67	18.42	5.34	-41.8	-53.3	3.8	8.46e-01	0	55	104	0	54	13274
2026-01-16 03:40:18.68	18.44	5.41	-41.8	-53.2	3.8	8.46e-01	0	55	104	0	54	13254
2026-01-16 03:40:19.69	18.47	5.48	-41.8	-53.2	3.8	8.46e-01	0	55	104	0	54	13260
2026-01-16 03:40:20.70	18.49	5.55	-41.8	-53.2	3.8	8.48e-01	0	55	104	0	54	13218
2026-01-16 03:40:21.71	18.51	5.63	-41.9	-53.2	3.8	8.46e-01	0	55	104	0	54	13250
2026-01-16 03:40:22.72	18.53	5.70	-41.9	-53.3	3.8	8.46e-01	0	55	104	0	54	13282
2026-01-16 03:40:23.73	18.55	5.77	-41.8	-53.2	3.8	8.46e-01	0	55	104	0	54	13243
2026-01-16 03:40:24.74	18.57	5.85	-41.8	-53.2	3.8	8.46e-01	0	55	104	0	54	13246
2026-01-16 03:40:25.75	18.59	5.92	-41.8	-53.2	3.8	8.46e-01	0	55	104	0	54	13193
2026-01-16 03:40:26.76	18.61	5.99	-41.9	-53.2	3.8	8.46e-01	0	55	104	0	54	13215
2026-01-16 03:40:27.77	18.63	6.07	-41.8	-53.2	3.8	8.46e-01	0	55	104	0	54	13227
2026-01-16 03:40:28.79	18.65	6.14	-41.8	-53.2	3.8	8.46e-01	0	55	104	0	54	13169
2026-01-16 03:40:29.79	18.67	6.22	-41.8	-53.2	3.8	8.46e-01	0	55	104	0	54	13208
2026-01-16 03:40:30.80	18.69	6.29	-41.9	-53.2	3.8	8.46e-01	0	55	104	0	54	13211
2026-01-16 03:40:31.82	18.72	6.37	-41.8	-53.2	3.8	8.47e-01	0	55	104	0	54	13164
2026-01-16 03:40:32.83	18.74	6.44	-41.8	-53.2	3.8	8.48e-01	0	55	104	0	54	13200
2026-01-16 03:40:33.84	18.76	6.52	-41.8	-53.1	3.8	8.46e-01	0	56	104	0	54	13061
2026-01-16 03:40:34.85	18.78	6.59	-41.8	-53.1	3.8	8.47e-01	0	55	104	0	54	12984
2026-01-16 03:40:35.85	18.80	6.67	-41.8	-53.1	3.8	8.46e-01	0	56	104	0	54	13070
2026-01-16 03:40:36.86	18.82	6.74	-41.8	-53.1	3.8	8.46e-01	0	56	104	0	54	13062
2026-01-16 03:40:37.88	18.85	6.82	-41.8	-53.1	3.8	8.46e-01	0	56	104	0	54	13027
2026-01-16 03:40:38.88	18.87	6.90	-41.8	-53.1	3.8	8.47e-01	0	56	104	0	54	13022
2026-01-16 03:40:39.90	18.89	6.97	-41.8	-53.0	3.8	8.46e-01	0	56	104	0	54	12909
2026-01-16 03:40:40.91	18.91	7.05	-41.8	-52.9	3.8	8.46e-01	0	56	104	0	54	12805
2026-01-16 03:40:41.92	18.93	7.13	-41.8	-52.9	3.8	8.45e-01	0	56	104	0	54	12743
2026-01-16 03:40:42.93	18.96	7.21	-41.8	-52.9	3.8	8.46e-01	0	56	104	0	54	12679
2026-01-16 03:40:43.94	18.98	7.28	-41.8	-52.8	3.8	8.46e-01	0	56	104	0	54	12589
2026-01-16 03:40:44.95	19.00	7.36	-41.8	-52.7	3.8	8.47e-01	0	56	104	0	54	12431
2026-01-16 03:40:45.96	19.02	7.44	-41.8	-52.7	3.8	8.46e-01	0	56	104	0	54	12427
2026-01-16 03:40:46.97	19.05	7.52	-41.8	-52.7	3.8	8.46e-01	0	56	104	0	54	12447
2026-01-16 03:40:47.97	19.07	7.59	-41.8	-52.6	3.8	8.46e-01	0	56	104	0	54	12248
2026-01-16 03:40:48.98	19.09	7.67	-41.7	-52.1	3.8	8.46e-01	0	56	104	0	54	11643
2026-01-16 03:40:49.99	19.12	7.75	-41.7	-51.6	3.8	8.45e-01	0	56	104	0	54	10932
2026-01-16 03:40:51.00	19.14	7.83	-41.6	-50.6	4.0	8.44e-01	0	56	104	0	54	9825
2026-01-16 03:40:52.01	19.16	7.91	-41.4	-49.8	4.2	8.39e-01	0	56	0	0	53	9444
2026-01-16 03:40:53.02	19.19	7.99	-41.2	-48.9	4.4	8.30e-01	0	56	0	0	53	8494
2026-01-16 03:40:54.03	19.21	8.07	-41.0	-47.8	4.9	7.99e-01	0	56	0	0	53	7520
2026-01-16 03:40:55.04	19.23	8.15	-42.1	-48.2	5.4	7.34e-01	0	57	0	2097152	53	7825
2026-01-16 03:40:56.05	19.26	8.23	-41.6	-52.4	3.8	8.46e-01	0	57	104	4194304	53	12759
2026-01-16 03:40:57.06	19.28	8.31	-40.0	-43.5	9.5	1.05e-02	0	56	0	6291456	49	5761
2026-01-16 03:40:58.07	19.30	8.39	-41.6	-46.4	6.9	1.27e-01	0	56	0	13631488	53	6365
2026-01-16 03:40:59.08	19.33	8.47	-40.7	-46.9	5.4	1.05e-01	0	57	0	19922944	51	7590
2026-01-16 03:41:00.09	19.35	8.56	-38.1	-40.4	12.7	1.70e-04	0	57	0	27262976	47	4508
2026-01-16 03:41:01.10	19.38	8.64	-38.1	-40.3	12.9	8.35e-05	0	56	0	34603008	47	4468
2026-01-16 03:41:02.11	19.40	8.72	-38.4	-40.7	12.5	1.07e-04	0	57	0	40894464	47	4693
2026-01-16 03:41:03.11	19.43	8.80	-38.3	-40.6	12.7	1.51e-04	0	57	0	48234496	47	4613
2026-01-16 03:41:04.12	19.45	8.88	-38.4	-40.7	12.5	1.11e-04	0	57	0	56623104	47	4696
2026-01-16 03:41:05.13	19.47	8.97	-38.6	-40.9	12.3	2.04e-04	0	57	0	62914560	47	4813
2026-01-16 03:41:06.14	19.50	9.05	-38.6	-41.0	12.3	2.20e-04	0	57	0	70254592	47	4822
2026-01-16 03:41:07.15	19.52	9.13	-38.5	-40.8	12.6	1.44e-04	0	57	0	77594624	47	4748
2026-01-16 03:41:08.15	19.55	9.22	-38.3	-40.5	12.9	8.81e-05	0	57	0	84934656	47	4580
2026-01-16 03:41:09.16	19.57	9.30	-38.2	-40.3	13.2	3.20e-05	0	57	0	92274688	47	4456
2026-01-16 03:41:10.17	19.60	9.39	-38.3	-40.4	13.1	3.89e-05	0	57	0	99614720	47	4505
2026-01-16 03:41:11.18	19.62	9.47	-38.5	-40.6	12.9	5.26e-05	0	57	0	106954752	47	4649
2026-01-16 03:41:12.18	19.65	9.55	-38.4	-40.5	13.0	5.83e-05	0	57	0	114294784	47	4584
2026-01-16 03:41:13.19	19.68	9.64	-38.3	-40.4	13.2	1.48e-05	0	57	0	121634816	47	4520
2026-01-16 03:41:14.20	19.70	9.72	-38.4	-40.5	13.2	2.86e-05	0	57	0	128974848	47	4551
2026-01-16 03:41:15.21	19.73	9.81	-38.5	-40.5	13.1	3.89e-05	0	57	0	136314880	47	4582
2026-01-16 03:41:16.22	19.75	9.90	-38.4	-40.4	13.4	2.74e-05	0	57	0	143654912	47	4508
2026-01-16 03:41:17.23	19.78	9.98	-38.5	-40.6	13.1	2.51e-05	0	57	0	150994944	47	4625
2026-01-16 03:41:18.24	19.81	10.07	-38.3	-40.3	13.4	1.02e-05	0	57	0	158334976	47	4482
2026-01-16 03:41:19.24	19.83	10.15	-38.5	-40.5	13.3	1.60e-05	0	57	0	165675008	47	4557
2026-01-16 03:41:20.26	19.86	10.24	-38.3	-40.3	13.5	1.71e-05	0	57	0	171966464	47	4470
2026-01-16 03:41:21.27	19.89	10.33	-38.2	-40.2	13.7	1.25e-05	0	57	0	179306496	47	4406
2026-01-16 03:41:22.28	19.91	10.42	-38.4	-40.4	13.5	9.10e-06	0	57	0	187695104	47	4534
2026-01-16 03:41:23.29	19.94	10.51	-38.4	-40.4	13.5	1.02e-05	0	57	0	193986560	47	4515
2026-01-16 03:41:24.29	19.97	10.59	-38.5	-40.5	13.5	1.60e-05	0	57	0	201326592	47	4554
2026-01-16 03:41:25.30	19.99	10.68	-38.4	-40.4	13.6	9.10e-06	0	57	0	208666624	47	4531
2026-01-16 03:41:26.31	20.02	10.77	-38.5	-40.5	13.6	1.14e-05	0	57	0	216006656	47	4553
2026-01-16 03:41:27.32	20.05	10.86	-38.4	-40.4	13.7	1.14e-05	0	57	0	223346688	47	4501
2026-01-16 03:41:28.34	20.08	10.95	-38.4	-40.3	13.8	1.10e-06	0	57	0	230686720	47	4459
2026-01-16 03:41:29.34	20.10	11.04	-38.3	-40.2	13.9	4.50e-06	0	57	0	238026752	47	4419
2026-01-16 03:41:30.36	20.13	11.13	-38.3	-40.2	13.9	3.40e-06	0	57	0	245366784	47	4407
2026-01-16 03:41:31.37	20.16	11.22	-38.4	-40.3	13.8	8.00e-06	0	57	0	252706816	47	4489
2026-01-16 03:41:32.38	20.19	11.31	-38.3	-40.1	14.0	3.40e-06	0	57	0	260046848	47	4379
2026-01-16 03:41:33.39	20.22	11.41	-38.3	-40.1	14.1	6.80e-06	0	57	0	267386880	47	4374
2026-01-16 03:41:34.40	20.24	11.50	-38.3	-40.2	14.0	6.80e-06	0	58	0	274726912	47	4414
2026-01-16 03:41:35.40	20.27	11.59	-38.3	-40.1	14.1	2.20e-06	0	57	0	282066944	47	4385
2026-01-16 03:41:36.41	20.30	11.68	-38.2	-40.0	14.3	6.80e-06	0	58	0	289406976	47	4319
2026-01-16 03:41:37.42	20.33	11.77	-38.3	-40.1	14.2	1.10e-06	0	58	0	295698432	47	4354
2026-01-16 03:41:38.43	20.36	11.87	-38.3	-40.1	14.2	4.50e-06	0	58	0	304087040	47	4356
2026-01-16 03:41:39.44	20.39	11.96	-38.3	-40.1	14.1	1.10e-06	0	58	0	311427072	47	4389
2026-01-16 03:41:40.44	20.42	12.05	-38.2	-39.9	14.4	0.00e+00	0	58	0	317718528	47	4281
2026-01-16 03:41:41.45	20.45	12.15	-38.2	-39.9	14.4	3.40e-06	0	58	0	325058560	47	4281
2026-01-16 03:41:42.46	20.48	12.24	-38.2	-39.9	14.4	1.10e-06	0	58	0	332398592	47	4274
2026-01-16 03:41:43.47	20.51	12.34	-38.1	-39.8	14.5	0.00e+00	0	58	0	339738624	47	4228
2026-01-16 03:41:44.48	20.54	12.43	-38.1	-39.8	14.6	0.00e+00	0	58	0	347078656	47	4220
2026-01-16 03:41:45.49	20.57	12.53	-38.1	-39.8	14.6	0.00e+00	0	58	0	354418688	47	4209
2026-01-16 03:41:46.50	20.60	12.62	-38.0	-39.7	14.7	0.00e+00	0	58	0	361758720	47	4162
2026-01-16 03:41:47.50	20.63	12.72	-38.2	-39.9	14.5	0.00e+00	0	58	0	369098752	46	4531
2026-01-16 03:41:48.51	20.66	12.82	-38.1	-39.8	14.6	0.00e+00	0	58	0	376438784	46	4456
2026-01-16 03:41:49.51	20.69	12.91	-38.1	-39.8	14.6	1.10e-06	0	58	0	383778816	46	4464
2026-01-16 03:41:50.53	20.72	13.01	-38.1	-39.8	14.6	0.00e+00	0	58	0	391118848	46	4465
2026-01-16 03:41:51.53	20.75	13.11	-38.1	-39.8	14.6	0.00e+00	0	58	0	398458880	46	4476
2026-01-16 03:41:52.54	20.78	13.21	-38.1	-39.8	14.7	1.10e-06	0	58	0	405798912	46	4466
2026-01-16 03:41:53.55	20.81	13.30	-38.1	-39.8	14.7	0.00e+00	0	58	0	413138944	46	4455
2026-01-16 03:41:54.56	20.85	13.40	-37.9	-39.6	14.9	0.00e+00	0	58	0	420478976	46	4363
2026-01-16 03:41:55.57	20.88	13.50	-37.8	-39.5	15.0	0.00e+00	0	58	0	426770432	46	4302
2026-01-16 03:41:56.58	20.91	13.60	-37.8	-39.5	15.0	0.00e+00	0	58	0	435159040	46	4302
2026-01-16 03:41:57.59	20.94	13.70	-37.8	-39.5	15.0	0.00e+00	0	58	0	442499072	46	4298
2026-01-16 03:41:58.60	20.98	13.80	-37.9	-39.5	15.0	0.00e+00	0	58	0	448790528	46	4313
2026-01-16 03:41:59.61	21.01	13.90	-37.9	-39.5	15.0	0.00e+00	0	58	0	456130560	46	4313
2026-01-16 03:42:00.62	21.04	14.01	-37.8	-39.4	15.1	0.00e+00	0	58	0	463470592	46	4266
2026-01-16 03:42:01.62	21.07	14.11	-37.8	-39.5	15.1	0.00e+00	0	58	0	470810624	46	4316
2026-01-16 03:42:02.63	21.11	14.21	-37.8	-39.4	15.1	0.00e+00	0	58	0	478150656	46	4267
2026-01-16 03:42:03.64	21.14	14.31	-37.8	-39.5	15.1	0.00e+00	0	58	0	485490688	46	4301
2026-01-16 03:42:04.65	21.18	14.42	-37.7	-39.3	15.2	0.00e+00	0	58	0	492830720	46	4233
2026-01-16 03:42:05.66	21.21	14.52	-37.7	-39.3	15.3	0.00e+00	0	58	0	500170752	46	4195
2026-01-16 03:42:06.67	21.24	14.62	-37.7	-39.2	15.3	0.00e+00	0	58	0	507510784	46	4186
2026-01-16 03:42:07.68	21.28	14.73	-37.7	-39.3	15.3	0.00e+00	0	58	0	514850816	46	4200
2026-01-16 03:42:08.69	21.31	14.83	-37.6	-39.1	15.5	0.00e+00	0	58	0	522190848	46	4133
2026-01-16 03:42:09.70	21.35	14.94	-37.6	-39.2	15.4	0.00e+00	0	58	0	529530880	46	4154
2026-01-16 03:42:10.70	21.38	15.04	-37.6	-39.2	15.4	0.00e+00	0	58	0	536870912	46	4186
2026-01-16 03:42:11.71	21.42	15.15	-37.6	-39.2	15.5	0.00e+00	0	58	0	544210944	46	4147
2026-01-16 03:42:12.72	21.45	15.26	-37.5	-39.1	15.5	0.00e+00	0	58	0	551550976	46	4117
2026-01-16 03:42:13.73	21.49	15.36	-37.5	-39.0	15.6	0.00e+00	0	58	0	558891008	45	4323
2026-01-16 03:42:14.74	21.52	15.47	-37.4	-39.0	15.7	0.00e+00	0	59	0	566231040	45	4306
2026-01-16 03:42:15.75	21.56	15.58	-37.4	-39.0	15.7	0.00e+00	0	58	0	572522496	45	4292
2026-01-16 03:42:16.76	21.60	15.69	-37.4	-39.0	15.7	0.00e+00	0	58	0	579862528	45	4295
2026-01-16 03:42:17.77	21.63	15.80	-37.4	-39.0	15.7	0.00e+00	0	59	0	587202560	45	4294
2026-01-16 03:42:18.77	21.67	15.91	-37.4	-38.9	15.7	0.00e+00	0	59	0	594542592	45	4290
2026-01-16 03:42:19.78	21.71	16.02	-37.4	-38.9	15.8	0.00e+00	0	58	0	601882624	45	4283
2026-01-16 03:42:20.79	21.74	16.13	-37.4	-38.9	15.8	0.00e+00	0	58	0	609222656	45	4275
2026-01-16 03:42:21.80	21.78	16.24	-37.4	-38.9	15.8	0.00e+00	0	58	0	616562688	45	4254
2026-01-16 03:42:22.82	21.82	16.35	-37.3	-38.7	16.0	0.00e+00	0	58	0	623902720	45	4182
2026-01-16 03:42:23.83	21.86	16.46	-37.1	-38.6	16.1	0.00e+00	0	59	0	631242752	45	4115
2026-01-16 03:42:24.84	21.90	16.58	-37.2	-38.6	16.1	0.00e+00	0	59	0	638582784	45	4134
2026-01-16 03:42:25.85	21.94	16.69	-37.2	-38.7	16.0	0.00e+00	0	59	0	645922816	45	4161
2026-01-16 03:42:26.86	21.97	16.80	-37.2	-38.7	16.0	0.00e+00	0	59	0	653262848	45	4180
2026-01-16 03:42:27.87	22.01	16.92	-37.2	-38.7	16.1	0.00e+00	0	59	0	660602880	45	4149
2026-01-16 03:42:28.88	22.05	17.03	-37.2	-38.7	16.0	0.00e+00	0	58	0	667942912	45	4172
2026-01-16 03:42:29.89	22.09	17.15	-37.1	-38.6	16.2	0.00e+00	0	59	0	675282944	45	4100
2026-01-16 03:42:30.89	22.13	17.26	-37.1	-38.5	16.2	0.00e+00	0	58	0	682622976	45	4075
2026-01-16 03:42:31.90	22.17	17.38	-37.1	-38.5	16.2	0.00e+00	0	59	0	689963008	45	4095
2026-01-16 03:42:32.91	22.21	17.50	-37.0	-38.4	16.3	0.00e+00	0	59	0	697303040	45	4049
2026-01-16 03:42:33.91	22.25	17.61	-37.0	-38.4	16.3	0.00e+00	0	59	0	703594496	44	4272
2026-01-16 03:42:34.92	22.29	17.73	-37.0	-38.4	16.4	0.00e+00	0	59	0	711983104	44	4274
2026-01-16 03:42:35.93	22.34	17.85	-36.9	-38.3	16.5	0.00e+00	0	59	0	719323136	44	4221
2026-01-16 03:42:36.94	22.38	17.97	-36.8	-38.2	16.6	0.00e+00	0	59	0	725614592	44	4170
2026-01-16 03:42:37.95	22.42	18.09	-36.8	-38.2	16.6	0.00e+00	0	59	0	732954624	44	4151
2026-01-16 03:42:38.96	22.46	18.21	-36.8	-38.1	16.7	0.00e+00	0	59	0	740294656	44	4138
2026-01-16 03:42:39.97	22.50	18.33	-36.5	-37.8	17.0	0.00e+00	0	59	0	747634688	44	4004
2026-01-16 03:42:40.98	22.55	18.45	-36.8	-38.1	16.7	0.00e+00	0	59	0	754974720	44	4138
2026-01-16 03:42:42.00	22.59	18.57	-36.7	-38.0	16.8	0.00e+00	0	59	0	762314752	44	4097
2026-01-16 03:42:43.01	22.63	18.70	-36.7	-38.0	16.8	0.00e+00	0	59	0	769654784	44	4086
2026-01-16 03:42:44.02	22.68	18.82	-36.6	-37.9	16.9	0.00e+00	0	59	0	776994816	44	4051
2026-01-16 03:42:45.03	22.72	18.94	-36.6	-38.0	16.9	0.00e+00	0	59	0	784334848	44	4070
2026-01-16 03:42:46.04	22.77	19.07	-36.6	-37.9	17.0	0.00e+00	0	59	0	791674880	44	4025
2026-01-16 03:42:47.05	22.81	19.19	-36.5	-37.8	17.1	0.00e+00	0	59	0	799014912	44	3995
2026-01-16 03:42:48.06	22.86	19.32	-36.4	-37.7	17.0	0.00e+00	0	59	0	806354944	43	4163
2026-01-16 03:42:49.07	22.90	19.44	-36.4	-37.7	17.1	0.00e+00	0	59	0	813694976	43	4150
2026-01-16 03:42:50.08	22.95	19.57	-36.2	-37.4	17.3	0.00e+00	0	59	0	821035008	43	4041
2026-01-16 03:42:51.08	22.99	19.70	-36.2	-37.5	17.2	0.00e+00	0	59	0	828375040	43	4084
2026-01-16 03:42:52.09	23.04	19.83	-36.2	-37.5	17.3	0.00e+00	0	59	0	835715072	43	4070
2026-01-16 03:42:53.10	23.09	19.95	-36.2	-37.4	17.3	0.00e+00	0	59	0	843055104	43	4040
2026-01-16 03:42:54.11	23.13	20.08	-36.2	-37.4	17.3	0.00e+00	0	59	0	849346560	43	4041
2026-01-16 03:42:55.12	23.18	20.21	-36.2	-37.5	17.3	0.00e+00	0	59	0	857735168	43	4075
2026-01-16 03:42:56.13	23.23	20.35	-36.2	-37.5	17.3	0.00e+00	0	59	0	865075200	43	4075
2026-01-16 03:42:57.14	23.28	20.48	-36.2	-37.4	17.4	0.00e+00	0	59	0	871366656	43	4037
2026-01-16 03:42:58.15	23.33	20.61	-36.2	-37.5	17.3	0.00e+00	0	59	0	878706688	43	4068
2026-01-16 03:42:59.16	23.38	20.74	-36.2	-37.4	17.3	0.00e+00	0	59	0	886046720	43	4042
2026-01-16 03:43:00.17	23.43	20.88	-36.3	-37.6	17.2	0.00e+00	0	59	0	893386752	43	4111
2026-01-16 03:43:01.18	23.47	21.01	-36.2	-37.5	17.3	0.00e+00	0	59	0	900726784	43	4075
2026-01-16 03:43:02.19	23.53	21.15	-36.2	-37.5	17.3	0.00e+00	0	59	0	908066816	43	4071
2026-01-16 03:43:03.20	23.58	21.28	-36.3	-37.6	17.2	0.00e+00	0	59	0	915406848	43	4115
2026-01-16 03:43:04.21	23.63	21.42	-36.3	-37.5	17.3	0.00e+00	0	59	0	922746880	43	4093
2026-01-16 03:43:05.22	23.68	21.55	-36.3	-37.6	17.2	0.00e+00	0	59	0	930086912	43	4110
2026-01-16 03:43:06.23	23.73	21.69	-36.3	-37.6	17.3	0.00e+00	0	59	0	937426944	43	4108
2026-01-16 03:43:07.24	23.78	21.83	-36.4	-37.7	17.2	0.00e+00	0	59	0	944766976	43	4150
2026-01-16 03:43:08.25	23.84	21.97	-36.4	-37.7	17.1	0.00e+00	0	59	0	952107008	43	4189
2026-01-16 03:43:09.27	23.89	22.11	-36.4	-37.7	17.1	0.00e+00	0	59	0	959447040	43	4183
2026-01-16 03:43:10.28	23.94	22.25	-36.4	-37.7	17.2	0.00e+00	0	59	0	966787072	43	4164
2026-01-16 03:43:11.29	24.00	22.40	-36.5	-37.8	17.0	0.00e+00	0	59	0	974127104	43	4232
2026-01-16 03:43:12.30	24.05	22.54	-36.4	-37.7	17.1	0.00e+00	0	59	0	981467136	43	4192
2026-01-16 03:43:13.31	24.11	22.68	-36.3	-37.6	17.3	0.00e+00	0	59	0	988807168	43	4121
2026-01-16 03:43:14.32	24.16	22.82	-36.3	-37.5	17.3	0.00e+00	0	59	0	996147200	43	4087
2026-01-16 03:43:15.33	24.22	22.97	-36.3	-37.5	17.3	0.00e+00	0	59	0	1003487232	43	4097
2026-01-16 03:43:16.34	24.28	23.12	-35.8	-37.1	17.8	0.00e+00	0	60	0	1010827264	42	4114
2026-01-16 03:43:17.35	24.33	23.26	-36.1	-37.4	17.5	0.00e+00	0	59	0	1018167296	42	4261
2026-01-16 03:43:18.36	24.39	23.41	-36.0	-37.2	17.7	0.00e+00	0	59	0	1024458752	42	4187
2026-01-16 03:43:19.36	24.45	23.56	-35.9	-37.2	17.7	0.00e+00	0	59	0	1031798784	42	4150
2026-01-16 03:43:20.38	24.51	23.71	-36.0	-37.2	17.7	0.00e+00	0	59	0	1040187392	42	4168
2026-01-16 03:43:21.39	24.57	23.86	-35.9	-37.2	17.7	0.00e+00	0	59	0	1046478848	42	4159
2026-01-16 03:43:22.40	24.62	24.01	-36.0	-37.2	17.7	0.00e+00	0	59	0	1053818880	42	4170
2026-01-16 03:43:23.41	24.68	24.16	-35.8	-37.0	17.9	0.00e+00	0	59	0	1061158912	42	4094
2026-01-16 03:43:24.42	24.75	24.31	-35.9	-37.2	17.8	0.00e+00	0	59	0	1068498944	42	4148
2026-01-16 03:43:25.43	24.81	24.46	-35.9	-37.1	17.8	0.00e+00	0	60	0	1075838976	42	4136
2026-01-16 03:43:26.44	24.87	24.62	-35.7	-36.9	18.0	0.00e+00	0	59	0	1083179008	42	4042
2026-01-16 03:43:27.45	24.93	24.77	-35.9	-37.1	17.8	0.00e+00	0	59	0	1090519040	42	4115
2026-01-16 03:43:28.46	24.99	24.93	-35.7	-36.9	18.1	0.00e+00	0	60	0	1097859072	42	4007
2026-01-16 03:43:29.47	25.06	25.08	-35.7	-36.9	18.0	0.00e+00	0	59	0	1105199104	42	4047
2026-01-16 03:43:30.48	25.12	25.24	-35.8	-37.0	17.9	0.00e+00	0	59	0	1112539136	42	4080
2026-01-16 03:43:31.49	25.19	25.40	-35.8	-37.0	17.9	0.00e+00	0	59	0	1119879168	42	4093
2026-01-16 03:43:32.50	25.25	25.56	-36.0	-37.2	17.7	0.00e+00	0	59	0	1127219200	42	4187
2026-01-16 03:43:33.51	25.32	25.72	-35.9	-37.1	17.9	0.00e+00	0	59	0	1134559232	42	4104
2026-01-16 03:43:34.52	25.38	25.88	-35.9	-37.1	17.8	0.00e+00	0	60	0	1141899264	42	4142
2026-01-16 03:43:35.53	25.45	26.04	-35.9	-37.1	17.8	0.00e+00	0	59	0	1149239296	42	4131
2026-01-16 03:43:36.54	25.52	26.21	-36.0	-37.2	17.8	0.00e+00	0	59	0	1156579328	42	4161
2026-01-16 03:43:37.55	25.59	26.37	-36.0	-37.3	17.7	0.00e+00	0	59	0	1163919360	42	4199
2026-01-16 03:43:38.56	25.66	26.54	-35.9	-37.1	17.9	0.00e+00	0	59	0	1171259392	42	4102
2026-01-16 03:43:39.57	25.73	26.70	-35.8	-37.0	17.9	0.00e+00	0	60	0	1178599424	42	4098
2026-01-16 03:43:40.58	25.80	26.87	-35.7	-36.9	18.0	0.00e+00	0	60	0	1185939456	42	4043
2026-01-16 03:43:41.59	25.87	27.04	-35.7	-36.8	18.1	0.00e+00	0	60	0	1193279488	42	4000
2026-01-16 03:43:42.60	25.94	27.21	-35.5	-36.7	18.3	0.00e+00	0	60	0	1199570944	42	3924
2026-01-16 03:43:43.61	26.01	27.38	-35.7	-36.8	18.1	0.00e+00	0	60	0	1206910976	41	4236
2026-01-16 03:43:44.62	26.09	27.55	-35.5	-36.7	18.3	0.00e+00	0	60	0	1214251008	41	4149
2026-01-16 03:43:45.63	26.16	27.72	-35.5	-36.6	18.4	0.00e+00	0	59	0	1221591040	41	4123
2026-01-16 03:43:46.64	26.24	27.89	-35.3	-36.5	18.5	0.00e+00	0	60	0	1228931072	41	4067
2026-01-16 03:43:47.65	26.31	28.07	-35.4	-36.5	18.4	0.00e+00	0	60	0	1236271104	41	4082
2026-01-16 03:43:48.66	26.39	28.24	-35.4	-36.6	18.4	0.00e+00	0	60	0	1243611136	41	4111
2026-01-16 03:43:49.67	26.47	28.42	-35.3	-36.4	18.5	0.00e+00	0	60	0	1250951168	41	4049
2026-01-16 03:43:50.68	26.54	28.60	-35.3	-36.4	18.6	0.00e+00	0	60	0	1258291200	41	4036
2026-01-16 03:43:51.69	26.62	28.78	-35.2	-36.4	18.6	0.00e+00	0	60	0	1265631232	41	4012
2026-01-16 03:43:52.70	26.70	28.96	-35.2	-36.4	18.6	0.00e+00	0	60	0	1272971264	41	4021
2026-01-16 03:43:53.71	26.78	29.14	-35.2	-36.3	18.7	0.00e+00	0	60	0	1280311296	41	3994
2026-01-16 03:43:54.72	26.86	29.32	-35.3	-36.4	18.6	0.00e+00	0	60	0	1287651328	41	4033
2026-01-16 03:43:55.73	26.95	29.50	-35.3	-36.4	18.6	0.00e+00	0	60	0	1294991360	41	4034
2026-01-16 03:43:56.74	27.03	29.69	-35.3	-36.4	18.6	0.00e+00	0	60	0	1302331392	41	4033
2026-01-16 03:43:57.74	27.11	29.87	-35.3	-36.4	18.6	0.00e+00	0	59	0	1309671424	41	4029
2026-01-16 03:43:58.76	27.20	30.06	-35.2	-36.3	18.7	0.00e+00	0	60	0	1317011456	41	3989
2026-01-16 03:43:59.77	27.29	30.25	-35.3	-36.4	18.6	0.00e+00	0	60	0	1323302912	41	4028
2026-01-16 03:44:00.78	27.37	30.44	-35.2	-36.4	18.6	0.00e+00	0	60	0	1331691520	41	4006
2026-01-16 03:44:01.78	27.46	30.62	-35.2	-36.3	18.7	0.00e+00	0	60	0	1339031552	41	3995
2026-01-16 03:44:02.79	27.55	30.82	-35.2	-36.4	18.7	0.00e+00	0	60	0	1345323008	41	4007
2026-01-16 03:44:03.80	27.64	31.01	-35.3	-36.5	18.5	0.00e+00	0	60	0	1352663040	41	4073
2026-01-16 03:44:04.81	27.73	31.20	-35.3	-36.4	18.6	0.00e+00	0	60	0	1360003072	40	4265
2026-01-16 03:44:05.82	27.82	31.40	-35.3	-36.4	18.6	0.00e+00	0	60	0	1367343104	40	4260
2026-01-16 03:44:06.83	27.92	31.59	-35.3	-36.4	18.6	0.00e+00	0	60	0	1374683136	40	4267
2026-01-16 03:44:07.84	28.01	31.79	-35.3	-36.5	18.6	0.00e+00	0	60	0	1382023168	40	4295
2026-01-16 03:44:08.85	28.11	31.99	-35.4	-36.5	18.5	0.00e+00	0	60	0	1389363200	40	4312
2026-01-16 03:44:09.86	28.20	32.19	-35.5	-36.7	18.4	0.00e+00	0	60	0	1396703232	40	4397
2026-01-16 03:44:10.87	28.30	32.39	-35.4	-36.6	18.5	0.00e+00	0	60	0	1404043264	40	4354
2026-01-16 03:44:11.88	28.40	32.59	-35.5	-36.7	18.4	0.00e+00	0	60	0	1411383296	40	4394
2026-01-16 03:44:12.89	28.50	32.80	-35.5	-36.6	18.4	0.00e+00	0	60	0	1418723328	40	4371
2026-01-16 03:44:13.90	28.60	33.00	-35.3	-36.5	18.6	0.00e+00	0	60	0	1426063360	40	4300
2026-01-16 03:44:14.91	28.70	33.21	-35.5	-36.7	18.4	0.00e+00	0	60	0	1433403392	40	4395
2026-01-16 03:44:15.92	28.81	33.41	-35.6	-36.7	18.3	0.00e+00	0	60	0	1440743424	40	4433
2026-01-16 03:44:16.93	28.91	33.62	-35.5	-36.7	18.4	0.00e+00	0	60	0	1448083456	40	4399
2026-01-16 03:44:17.94	29.02	33.83	-35.6	-36.7	18.4	0.00e+00	0	60	0	1455423488	40	4423
2026-01-16 03:44:18.95	29.12	34.05	-35.5	-36.7	18.4	0.00e+00	0	60	0	1462763520	40	4418
2026-01-16 03:44:19.96	29.23	34.26	-35.7	-36.8	18.2	0.00e+00	0	60	0	1470103552	41	4240
2026-01-16 03:44:20.97	29.34	34.47	-35.5	-36.7	18.4	0.00e+00	0	60	0	1476395008	41	4158
2026-01-16 03:44:21.98	29.46	34.69	-35.5	-36.7	18.4	0.00e+00	0	60	0	1484783616	41	4161
2026-01-16 03:44:22.99	29.57	34.91	-35.5	-36.6	18.5	0.00e+00	0	60	0	1492123648	41	4136
2026-01-16 03:44:24.00	29.68	35.13	-35.4	-36.5	18.6	0.00e+00	0	60	0	1498415104	41	4074
2026-01-16 03:44:25.01	29.80	35.35	-35.1	-36.2	18.9	0.00e+00	0	60	0	1505755136	41	3944
2026-01-16 03:44:26.02	29.92	35.57	-35.4	-36.5	18.6	0.00e+00	0	60	0	1514143744	41	4077
2026-01-16 03:44:27.03	30.04	35.79	-35.2	-36.3	18.7	0.00e+00	0	60	0	1520435200	41	3994
2026-01-16 03:44:28.04	30.16	36.01	-35.2	-36.3	18.7	0.00e+00	0	60	0	1527775232	41	4000
2026-01-16 03:44:29.05	30.28	36.24	-35.2	-36.3	18.8	0.00e+00	0	60	0	1535115264	41	3997
2026-01-16 03:44:30.06	30.41	36.47	-35.3	-36.4	18.7	0.00e+00	0	60	0	1542455296	41	4025
2026-01-16 03:44:31.07	30.53	36.70	-35.3	-36.5	18.7	0.00e+00	0	60	0	1549795328	41	4058
2026-01-16 03:44:32.08	30.66	36.93	-35.4	-36.6	18.5	0.00e+00	0	60	0	1557135360	41	4106
2026-01-16 03:44:33.09	30.79	37.16	-35.5	-36.6	18.5	0.00e+00	0	60	0	1564475392	41	4122
2026-01-16 03:44:34.10	30.92	37.39	-35.5	-36.7	18.4	0.00e+00	0	60	0	1571815424	41	4160
2026-01-16 03:44:35.11	31.05	37.63	-35.3	-36.4	18.7	0.00e+00	0	60	0	1579155456	41	4046
2026-01-16 03:44:36.12	31.19	37.86	-35.6	-36.8	18.4	0.00e+00	0	60	0	1586495488	41	4199
2026-01-16 03:44:37.13	31.32	38.10	-35.6	-36.8	18.3	0.00e+00	0	60	0	1593835520	41	4220
2026-01-16 03:44:38.14	31.46	38.34	-35.7	-36.9	18.3	0.00e+00	0	60	0	1601175552	41	4247
2026-01-16 03:44:39.15	31.60	38.58	-35.7	-36.8	18.3	0.00e+00	0	60	0	1608515584	41	4237
2026-01-16 03:44:40.16	31.75	38.82	-35.8	-37.0	18.1	0.00e+00	0	60	0	1615855616	41	4302
2026-01-16 03:44:41.17	31.89	39.06	-35.6	-36.8	18.3	0.00e+00	0	60	0	1623195648	41	4225
2026-01-16 03:44:42.18	32.04	39.31	-35.6	-36.8	18.4	0.00e+00	0	60	0	1630535680	41	4207
2026-01-16 03:44:43.19	32.19	39.56	-35.7	-36.9	18.3	0.00e+00	0	60	0	1637875712	41	4245
2026-01-16 03:44:44.20	32.34	39.81	-35.7	-36.9	18.2	0.00e+00	0	60	0	1644167168	41	4266
2026-01-16 03:44:45.21	32.49	40.06	-35.7	-36.8	18.3	0.00e+00	0	60	0	1651507200	41	4242
2026-01-16 03:44:46.22	32.65	40.31	-35.8	-37.0	18.1	0.00e+00	0	60	0	1659895808	41	4323
2026-01-16 03:44:47.23	32.81	40.56	-35.8	-36.9	18.2	0.00e+00	0	60	0	1666187264	41	4287
2026-01-16 03:44:48.24	32.97	40.82	-35.8	-37.0	18.1	0.00e+00	0	60	0	1673527296	41	4331
2026-01-16 03:44:49.25	33.13	41.07	-35.8	-36.9	18.2	0.00e+00	0	60	0	1680867328	41	4289
2026-01-16 03:44:50.27	33.30	41.33	-35.7	-36.9	18.3	0.00e+00	0	60	0	1688207360	41	4264
2026-01-16 03:44:51.28	33.47	41.59	-36.3	-37.6	17.6	0.00e+00	0	60	0	1695547392	42	4367
2026-01-16 03:44:52.28	33.64	41.85	-36.0	-37.2	18.0	0.00e+00	0	60	0	1702887424	42	4181
2026-01-16 03:44:53.30	33.81	42.12	-36.0	-37.2	18.0	0.00e+00	0	60	0	1710227456	42	4190
2026-01-16 03:44:54.31	33.99	42.38	-36.1	-37.3	17.9	0.00e+00	0	60	0	1717567488	42	4203
2026-01-16 03:44:55.32	34.17	42.65	-35.9	-37.0	18.1	0.00e+00	0	60	0	1724907520	42	4096
2026-01-16 03:44:56.32	34.35	42.91	-36.1	-37.2	17.9	0.00e+00	0	60	0	1732247552	41	4440
2026-01-16 03:44:57.33	34.54	43.18	-35.7	-36.8	18.3	0.00e+00	0	60	0	1739587584	41	4232
2026-01-16 03:44:58.34	34.73	43.45	-35.9	-37.0	18.2	0.00e+00	0	60	0	1746927616	41	4337
2026-01-16 03:44:59.35	34.92	43.72	-35.8	-37.0	18.2	0.00e+00	0	60	0	1754267648	41	4328
2026-01-16 03:45:00.37	35.12	44.00	-35.9	-37.1	18.0	0.00e+00	0	60	0	1761607680	41	4383
2026-01-16 03:45:01.38	35.31	44.28	-35.9	-37.1	18.1	0.00e+00	0	60	0	1768947712	41	4379
2026-01-16 03:45:02.39	35.52	44.55	-36.0	-37.2	18.0	0.00e+00	0	60	0	1776287744	42	4177
2026-01-16 03:45:03.39	35.72	44.83	-36.1	-37.3	17.9	0.00e+00	0	60	0	1783627776	42	4225
2026-01-16 03:45:04.40	35.93	45.11	-36.0	-37.2	18.1	0.00e+00	0	60	0	1790967808	42	4148
2026-01-16 03:45:05.41	36.14	45.39	-35.8	-37.0	18.2	0.00e+00	0	60	0	1797259264	42	4076
2026-01-16 03:45:06.42	36.36	45.67	-35.9	-37.0	18.2	0.00e+00	0	60	0	1805647872	42	4079
2026-01-16 03:45:07.43	36.58	45.96	-35.8	-37.0	18.3	0.00e+00	0	60	0	1812987904	42	4052
2026-01-16 03:45:08.44	36.80	46.25	-36.2	-37.4	17.9	0.00e+00	0	60	0	1819279360	42	4253
2026-01-16 03:45:09.45	37.03	46.53	-36.2	-37.4	17.8	0.00e+00	0	60	0	1826619392	42	4278
2026-01-16 03:45:10.46	37.26	46.82	-36.4	-37.6	17.6	0.00e+00	0	60	0	1833959424	42	4381
2026-01-16 03:45:11.47	37.50	47.11	-36.4	-37.6	17.6	0.00e+00	0	60	0	1841299456	42	4378
2026-01-16 03:45:12.48	37.74	47.41	-36.2	-37.4	17.7	0.00e+00	0	60	0	1848639488	42	4270
2026-01-16 03:45:13.49	37.99	47.70	-36.7	-38.0	17.2	0.00e+00	0	60	0	1855979520	43	4338
2026-01-16 03:45:14.49	38.23	47.99	-36.7	-38.0	17.3	0.00e+00	0	60	0	1863319552	43	4293
2026-01-16 03:45:15.51	38.49	48.29	-36.6	-37.9	17.3	0.00e+00	0	60	0	1870659584	43	4269
2026-01-16 03:45:16.52	38.75	48.59	-36.6	-37.9	17.3	0.00e+00	0	60	0	1877999616	43	4271
2026-01-16 03:45:17.52	39.01	48.89	-37.6	-39.0	16.4	0.00e+00	0	60	0	1885339648	44	4575
2026-01-16 03:45:18.53	39.29	49.19	-36.7	-38.0	17.2	0.00e+00	0	60	0	1892679680	43	4317
2026-01-16 03:45:19.54	39.56	49.50	-36.7	-38.0	17.3	0.00e+00	0	60	0	1900019712	43	4308
2026-01-16 03:45:20.55	39.84	49.80	-36.9	-38.2	17.1	0.00e+00	0	60	0	1907359744	43	4410
2026-01-16 03:45:21.57	40.13	50.11	-36.9	-38.2	17.1	0.00e+00	0	60	0	1914699776	43	4401
2026-01-16 03:45:22.57	40.42	50.41	-37.0	-38.3	16.8	0.00e+00	0	60	0	1922039808	43	4493
2026-01-16 03:45:23.58	40.72	50.72	-37.1	-38.5	17.0	0.00e+00	0	60	0	1929379840	44	4312
2026-01-16 03:45:24.59	41.02	51.03	-37.0	-38.3	17.1	0.00e+00	0	60	0	1936719872	44	4238
2026-01-16 03:45:25.60	41.33	51.34	-37.1	-38.4	17.0	0.00e+00	0	60	0	1943011328	44	4243
2026-01-16 03:45:26.61	41.65	51.65	-37.2	-38.5	16.9	0.00e+00	0	60	0	1950351360	44	4306
2026-01-16 03:45:27.62	41.97	51.97	-37.0	-38.4	17.0	0.00e+00	0	60	0	1957691392	44	4245
2026-01-16 03:45:28.63	42.30	52.28	-36.8	-38.1	17.1	0.00e+00	0	60	0	1965031424	43	4364
2026-01-16 03:45:29.64	42.64	52.59	-36.7	-38.0	17.3	0.00e+00	0	60	0	1972371456	43	4318
2026-01-16 03:45:30.65	42.99	52.91	-36.7	-38.0	17.3	0.00e+00	0	60	0	1979711488	43	4316
2026-01-16 03:45:31.66	43.34	53.23	-36.8	-38.0	17.2	0.00e+00	0	60	0	1987051520	43	4328
2026-01-16 03:45:32.67	43.70	53.55	-37.1	-38.5	16.8	0.00e+00	0	60	0	1994391552	43	4548
2026-01-16 03:45:33.68	44.07	53.87	-37.7	-39.1	16.3	0.00e+00	0	60	0	2001731584	44	4607
2026-01-16 03:45:34.69	44.44	54.19	-37.2	-38.5	16.9	0.00e+00	0	60	0	2009071616	44	4335
2026-01-16 03:45:35.70	44.83	54.51	-37.2	-38.5	17.0	0.00e+00	0	60	0	2016411648	44	4305
2026-01-16 03:45:36.71	45.22	54.83	-37.2	-38.5	16.9	0.00e+00	0	60	0	2023751680	44	4327
2026-01-16 03:45:37.72	45.62	55.15	-37.1	-38.4	17.0	0.00e+00	0	60	0	2031091712	44	4284
2026-01-16 03:45:38.73	46.03	55.47	-36.2	-37.3	17.8	0.00e+00	0	60	0	2038431744	43	3982
2026-01-16 03:45:39.74	46.45	55.79	-37.2	-38.5	16.9	0.00e+00	0	60	0	2045771776	44	4337
2026-01-16 03:45:40.75	46.88	56.12	-37.3	-38.6	16.8	0.00e+00	0	60	0	2053111808	44	4352
2026-01-16 03:45:41.76	47.32	56.44	-37.1	-38.4	17.0	0.00e+00	0	60	0	2060451840	44	4285
2026-01-16 03:45:42.77	47.77	56.77	-37.4	-38.7	16.7	0.00e+00	0	60	0	2067791872	44	4419
2026-01-16 03:45:43.78	48.24	57.09	-37.3	-38.7	16.7	0.00e+00	0	60	0	2075131904	44	4401
2026-01-16 03:45:44.79	48.71	57.41	-36.9	-38.2	17.2	0.00e+00	0	60	0	2082471936	44	4159
2026-01-16 03:45:45.80	49.19	57.74	-37.0	-38.2	17.2	0.00e+00	0	60	0	2089811968	44	4186
2026-01-16 03:45:46.81	49.69	58.06	-36.8	-38.1	17.4	0.00e+00	0	60	0	2096103424	44	4104
2026-01-16 03:45:47.82	50.19	58.39	-36.9	-38.1	17.3	0.00e+00	0	60	0	2103443456	44	4144
2026-01-16 03:45:48.83	50.71	58.71	-37.1	-38.4	17.1	0.00e+00	0	60	0	2111832064	44	4281
2026-01-16 03:45:49.84	51.25	59.03	-37.0	-38.3	17.1	0.00e+00	0	60	0	2118123520	44	4238
2026-01-16 03:45:50.85	51.79	59.36	-37.0	-38.2	17.2	0.00e+00	0	60	0	2125463552	44	4193
2026-01-16 03:45:51.86	52.35	59.68	-37.0	-38.3	17.1	0.00e+00	0	60	0	2132803584	44	4228
2026-01-16 03:45:52.87	52.93	60.00	-36.9	-38.2	17.2	0.00e+00	0	60	0	2140143616	44	4187
2026-01-16 03:45:53.88	53.51	60.32	-36.9	-38.1	17.3	0.00e+00	0	60	0	2147483648	44	4142
2026-01-16 03:45:54.89	54.12	60.64	-37.0	-38.3	17.1	0.00e+00	0	60	0	2154823680	44	4241
2026-01-16 03:45:55.90	54.73	60.96	-37.0	-38.3	17.2	0.00e+00	0	60	0	2162163712	44	4210
2026-01-16 03:45:56.91	55.37	61.27	-36.9	-38.2	17.2	0.00e+00	0	60	0	2169503744	44	4188
2026-01-16 03:45:57.92	56.02	61.59	-36.6	-37.9	17.5	0.00e+00	0	60	0	2176843776	44	4028
2026-01-16 03:45:58.93	56.68	61.90	-36.4	-37.6	17.7	0.00e+00	0	60	0	2184183808	43	4124
2026-01-16 03:45:59.94	57.36	62.21	-36.3	-37.6	17.7	0.00e+00	0	60	0	2191523840	43	4120
2026-01-16 03:46:00.95	58.07	62.52	-36.3	-37.5	17.7	0.00e+00	0	60	0	2198863872	43	4097
2026-01-16 03:46:01.96	58.78	62.83	-36.4	-37.6	17.6	0.00e+00	0	60	0	2206203904	43	4130
2026-01-16 03:46:02.97	59.52	63.13	-36.4	-37.6	17.6	0.00e+00	0	60	0	2213543936	43	4127
2026-01-16 03:46:03.98	60.28	63.44	-36.0	-37.2	18.1	0.00e+00	0	60	0	2220883968	42	4172
2026-01-16 03:46:04.99	61.05	63.73	-36.1	-37.3	18.0	0.00e+00	0	60	0	2228224000	42	4224
2026-01-16 03:46:06.00	61.85	64.03	-36.2	-37.4	17.7	0.00e+00	0	60	0	2235564032	42	4291
2026-01-16 03:46:07.01	62.67	64.32	-36.1	-37.3	18.0	0.00e+00	0	61	0	2241855488	42	4212
2026-01-16 03:46:08.02	63.50	64.61	-35.8	-36.9	18.3	0.00e+00	0	60	0	2250244096	42	4038
2026-01-16 03:46:09.03	64.36	64.90	-35.7	-36.8	18.4	0.00e+00	0	60	0	2257584128	42	4002
2026-01-16 03:46:10.04	65.24	65.18	-35.8	-36.9	18.3	0.00e+00	0	60	0	2263875584	42	4036
2026-01-16 03:46:11.05	66.14	65.46	-35.8	-37.0	18.3	0.00e+00	0	60	0	2271215616	42	4057
2026-01-16 03:46:12.06	67.07	65.73	-35.7	-36.8	18.4	0.00e+00	0	60	0	2278555648	42	3980
2026-01-16 03:46:13.07	68.01	65.99	-35.4	-36.5	18.6	0.00e+00	0	60	0	2285895680	41	4082
2026-01-16 03:46:14.08	68.99	66.26	-35.3	-36.4	18.8	0.00e+00	0	60	0	2293235712	41	4022
2026-01-16 03:46:15.09	69.98	66.51	-35.5	-36.6	18.6	0.00e+00	0	60	0	2300575744	41	4127
2026-01-16 03:46:16.10	71.00	66.76	-35.5	-36.7	18.6	0.00e+00	0	60	0	2307915776	41	4158
2026-01-16 03:46:17.11	72.04	67.01	-35.7	-36.9	18.4	0.00e+00	0	60	0	2315255808	41	4247
2026-01-16 03:46:18.12	73.11	67.25	-35.6	-36.7	18.5	0.00e+00	0	60	0	2322595840	41	4186
2026-01-16 03:46:19.13	74.20	67.48	-35.7	-36.9	18.3	0.00e+00	0	60	0	2329935872	41	4267
2026-01-16 03:46:20.14	75.31	67.70	-35.9	-37.1	18.1	0.00e+00	0	60	0	2337275904	41	4342
2026-01-16 03:46:21.15	76.45	67.92	-36.0	-37.2	18.0	0.00e+00	0	61	0	2344615936	41	4414
2026-01-16 03:46:22.16	77.62	68.13	-36.2	-37.5	17.7	0.00e+00	0	60	0	2351955968	42	4310
2026-01-16 03:46:23.17	78.80	68.33	-36.0	-37.2	18.1	0.00e+00	0	60	0	2359296000	42	4159
2026-01-16 03:46:24.18	80.01	68.53	-36.0	-37.2	18.1	0.00e+00	0	60	0	2366636032	42	4164
2026-01-16 03:46:25.19	81.25	68.71	-36.1	-37.3	17.9	0.00e+00	0	60	0	2373976064	42	4239
2026-01-16 03:46:26.20	82.51	68.89	-36.2	-37.4	17.8	0.00e+00	0	60	0	2381316096	42	4266
2026-01-16 03:46:27.22	83.80	69.06	-35.8	-37.0	18.2	0.00e+00	0	60	0	2388656128	42	4055
2026-01-16 03:46:28.23	85.10	69.22	-35.7	-36.9	18.3	0.00e+00	0	60	0	2395996160	42	4020
2026-01-16 03:46:29.24	86.42	69.36	-35.7	-36.8	18.4	0.00e+00	0	60	0	2403336192	42	3989
2026-01-16 03:46:30.25	87.76	69.50	-35.8	-36.9	18.2	0.00e+00	0	60	0	2410676224	42	4042
2026-01-16 03:46:31.26	89.12	69.63	-36.0	-37.2	18.0	0.00e+00	0	60	0	2416967680	42	4189
2026-01-16 03:46:32.26	90.49	69.74	-36.1	-37.3	17.9	0.00e+00	0	60	0	2424307712	42	4231
2026-01-16 03:46:33.27	91.88	69.85	-36.0	-37.2	18.0	0.00e+00	0	60	0	2432696320	42	4182
2026-01-16 03:46:34.28	93.29	69.94	-36.0	-37.2	17.9	0.00e+00	0	60	0	2438987776	42	4162
2026-01-16 03:46:35.30	94.73	70.03	-36.0	-37.2	18.0	0.00e+00	0	60	0	2446327808	42	4146
2026-01-16 03:46:36.31	96.16	70.10	-36.0	-37.2	18.0	0.00e+00	0	60	0	2453667840	42	4185
2026-01-16 03:46:37.32	97.61	70.16	-36.0	-37.2	18.0	0.00e+00	0	60	0	2461007872	42	4152
2026-01-16 03:46:38.33	99.06	70.21	-35.9	-37.1	18.0	0.00e+00	0	60	0	2468347904	42	4115
2026-01-16 03:46:39.34	100.52	70.25	-35.7	-36.9	18.2	0.00e+00	0	60	0	2475687936	42	4025
2026-01-16 03:46:40.35	101.99	70.27	-36.0	-37.2	18.0	0.00e+00	0	60	0	2483027968	42	4163
2026-01-16 03:46:41.36	103.46	70.28	-36.1	-37.3	17.9	0.00e+00	0	60	0	2490368000	42	4231
2026-01-16 03:46:42.37	104.93	70.28	-36.2	-37.4	17.8	0.00e+00	0	60	0	2497708032	42	4265
2026-01-16 03:46:43.38	106.40	70.27	-36.2	-37.4	17.8	0.00e+00	0	60	0	2505048064	42	4261
2026-01-16 03:46:44.39	107.86	70.25	-35.9	-37.1	18.1	0.00e+00	0	60	0	2512388096	42	4100
2026-01-16 03:46:45.40	109.32	70.21	-35.6	-36.7	18.4	0.00e+00	0	60	0	2519728128	42	3956
2026-01-16 03:46:46.41	110.78	70.17	-35.7	-36.8	18.4	0.00e+00	0	60	0	2527068160	42	3982
2026-01-16 03:46:47.42	112.22	70.11	-35.8	-36.9	18.3	0.00e+00	0	60	0	2534408192	42	4027
2026-01-16 03:46:48.43	113.66	70.04	-35.7	-36.9	18.3	0.00e+00	0	60	0	2541748224	42	4023
2026-01-16 03:46:49.44	115.08	69.95	-35.5	-36.6	18.6	0.00e+00	0	60	0	2549088256	41	4101
2026-01-16 03:46:50.45	116.50	69.86	-35.5	-36.6	18.6	0.00e+00	0	61	0	2556428288	41	4127
2026-01-16 03:46:51.46	117.89	69.76	-35.5	-36.6	18.5	0.00e+00	0	61	0	2562719744	41	4139
2026-01-16 03:46:52.47	119.27	69.64	-35.5	-36.7	18.6	0.00e+00	0	60	0	2570059776	41	4153
2026-01-16 03:46:53.48	120.64	69.51	-35.5	-36.6	18.5	0.00e+00	0	60	0	2578448384	41	4130
2026-01-16 03:46:54.49	121.98	69.38	-35.5	-36.6	18.6	0.00e+00	0	60	0	2584739840	41	4122
2026-01-16 03:46:55.50	123.31	69.23	-35.4	-36.5	18.6	0.00e+00	0	60	0	2592079872	41	4096
2026-01-16 03:46:56.51	124.61	69.07	-35.3	-36.5	18.7	0.00e+00	0	60	0	2599419904	41	4052
2026-01-16 03:46:57.52	125.90	68.91	-35.3	-36.5	18.7	0.00e+00	0	60	0	2606759936	41	4058
2026-01-16 03:46:58.53	127.16	68.73	-35.6	-36.7	18.5	0.00e+00	0	61	0	2614099968	41	4164
2026-01-16 03:46:59.54	128.39	68.55	-35.7	-36.8	18.4	0.00e+00	0	60	0	2621440000	41	4236
2026-01-16 03:47:00.55	129.61	68.35	-35.6	-36.7	18.5	0.00e+00	0	60	0	2628780032	41	4183
2026-01-16 03:47:01.56	130.80	68.15	-35.4	-36.5	18.6	0.00e+00	0	61	0	2636120064	41	4087
2026-01-16 03:47:02.57	131.97	67.94	-35.4	-36.6	18.6	0.00e+00	0	60	0	2643460096	41	4099
2026-01-16 03:47:03.58	133.11	67.73	-35.4	-36.5	18.7	0.00e+00	0	60	0	2650800128	41	4095
2026-01-16 03:47:04.59	134.23	67.50	-35.3	-36.4	18.8	0.00e+00	0	61	0	2658140160	41	4022
2026-01-16 03:47:05.60	135.33	67.27	-35.5	-36.6	18.5	0.00e+00	0	61	0	2665480192	41	4143
2026-01-16 03:47:06.61	136.40	67.03	-35.6	-36.8	18.3	0.00e+00	0	61	0	2672820224	41	4212
2026-01-16 03:47:07.62	137.44	66.79	-35.6	-36.7	18.4	0.00e+00	0	60	0	2680160256	41	4175
2026-01-16 03:47:08.63	138.46	66.54	-35.4	-36.5	18.6	0.00e+00	0	60	0	2687500288	41	4090
2026-01-16 03:47:09.64	139.46	66.28	-35.2	-36.3	18.8	0.00e+00	0	60	0	2694840320	41	3988
2026-01-16 03:47:10.65	140.44	66.02	-35.3	-36.4	18.8	0.00e+00	0	61	0	2702180352	41	4038
2026-01-16 03:47:11.66	141.39	65.75	-35.4	-36.5	18.8	0.00e+00	0	60	0	2709520384	41	4059
2026-01-16 03:47:12.67	142.32	65.48	-35.4	-36.6	18.7	0.00e+00	0	61	0	2715811840	41	4101
2026-01-16 03:47:13.68	143.22	65.20	-35.4	-36.5	18.5	0.00e+00	0	60	0	2724200448	41	4086
2026-01-16 03:47:14.69	144.11	64.92	-35.6	-36.8	18.4	0.00e+00	0	61	0	2731540480	41	4201
2026-01-16 03:47:15.70	144.97	64.63	-35.9	-37.1	18.0	0.00e+00	0	61	0	2737831936	41	4380
2026-01-16 03:47:16.71	145.81	64.35	-36.0	-37.2	18.0	0.00e+00	0	60	0	2745171968	41	4420
2026-01-16 03:47:17.72	146.63	64.05	-36.2	-37.4	17.8	0.00e+00	0	61	0	2753560576	41	4520
2026-01-16 03:47:18.73	147.43	63.76	-36.2	-37.5	17.8	0.00e+00	0	61	0	2759852032	42	4302
2026-01-16 03:47:19.74	148.21	63.46	-36.0	-37.2	18.0	0.00e+00	0	61	0	2767192064	42	4186
2026-01-16 03:47:20.75	148.97	63.15	-35.9	-37.0	18.2	0.00e+00	0	61	0	2774532096	42	4098
2026-01-16 03:47:21.76	149.71	62.85	-36.1	-37.3	17.9	0.00e+00	0	60	0	2781872128	42	4239
2026-01-16 03:47:22.77	150.43	62.54	-36.5	-37.7	17.5	0.00e+00	0	60	0	2789212160	42	4436
2026-01-16 03:47:23.78	151.13	62.23	-36.7	-38.0	17.3	0.00e+00	0	61	0	2796552192	43	4314
2026-01-16 03:47:24.79	151.82	61.92	-36.7	-38.0	17.3	0.00e+00	0	61	0	2803892224	43	4294
2026-01-16 03:47:25.80	152.49	61.60	-36.6	-37.9	17.3	0.00e+00	0	61	0	2811232256	43	4271
2026-01-16 03:47:26.81	153.14	61.29	-36.6	-37.8	17.4	0.00e+00	0	61	0	2818572288	43	4237
2026-01-16 03:47:27.82	153.77	60.97	-36.8	-38.1	17.1	0.00e+00	0	60	0	2825912320	43	4391
2026-01-16 03:47:28.83	154.39	60.65	-37.1	-38.4	16.8	0.00e+00	0	61	0	2833252352	43	4534
2026-01-16 03:47:29.84	155.00	60.33	-36.9	-38.2	17.0	0.00e+00	0	61	0	2840592384	43	4441
2026-01-16 03:47:30.85	155.59	60.01	-36.8	-38.0	17.2	0.00e+00	0	61	0	2847932416	43	4331
2026-01-16 03:47:31.86	156.16	59.69	-36.9	-38.2	17.1	0.00e+00	0	61	0	2855272448	43	4427
2026-01-16 03:47:32.87	156.72	59.37	-36.9	-38.2	17.1	0.00e+00	0	61	0	2861563904	43	4415
2026-01-16 03:47:33.88	157.27	59.04	-36.8	-38.1	17.2	0.00e+00	0	60	0	2869952512	43	4361
2026-01-16 03:47:34.89	157.81	58.72	-36.7	-37.9	17.3	0.00e+00	0	61	0	2877292544	43	4289
2026-01-16 03:47:35.90	158.33	58.39	-36.8	-38.1	17.1	0.00e+00	0	61	0	2883584000	43	4353
2026-01-16 03:47:36.91	158.84	58.07	-36.7	-38.0	17.2	0.00e+00	0	60	0	2890924032	43	4327
2026-01-16 03:47:37.92	159.34	57.74	-37.0	-38.3	16.9	0.00e+00	0	61	0	2898264064	43	4483
2026-01-16 03:47:38.93	159.82	57.42	-37.2	-38.5	16.7	0.00e+00	0	60	0	2905604096	43	4592
2026-01-16 03:47:39.94	160.29	57.09	-37.5	-38.9	16.5	0.00e+00	0	61	0	2912944128	44	4508
2026-01-16 03:47:40.95	160.76	56.77	-37.6	-38.9	16.5	0.00e+00	0	61	0	2920284160	44	4545
2026-01-16 03:47:41.97	161.21	56.44	-37.6	-39.0	16.5	0.00e+00	0	61	0	2927624192	44	4559
2026-01-16 03:47:42.98	161.66	56.11	-37.5	-38.8	16.6	0.00e+00	0	60	0	2934964224	44	4490
2026-01-16 03:47:43.99	162.09	55.79	-37.3	-38.6	16.8	0.00e+00	0	60	0	2942304256	44	4379
2026-01-16 03:47:45.00	162.51	55.46	-36.9	-38.2	17.0	0.00e+00	0	61	0	2949644288	44	4182
2026-01-16 03:47:46.01	162.92	55.14	-36.9	-38.2	17.3	0.00e+00	0	61	0	2956984320	44	4147
2026-01-16 03:47:47.02	163.32	54.82	-36.9	-38.2	17.2	0.00e+00	0	61	0	2964324352	44	4146
2026-01-16 03:47:48.02	163.72	54.50	-37.0	-38.3	17.1	0.00e+00	0	61	0	2971664384	44	4229
2026-01-16 03:47:49.03	164.10	54.18	-36.8	-38.1	17.3	0.00e+00	0	61	0	2979004416	44	4140
2026-01-16 03:47:50.04	164.48	53.85	-36.7	-38.0	17.4	0.00e+00	0	60	0	2986344448	44	4082
2026-01-16 03:47:51.05	164.85	53.53	-36.7	-37.9	17.5	0.00e+00	0	61	0	2993684480	44	4039
2026-01-16 03:47:52.06	165.21	53.21	-36.6	-37.9	17.0	0.00e+00	0	61	0	3001024512	44	4014
2026-01-16 03:47:53.07	165.56	52.90	-36.7	-38.0	17.5	0.00e+00	0	60	0	3008364544	44	4073
2026-01-16 03:47:54.08	165.91	52.58	-36.8	-38.1	17.4	0.00e+00	0	61	0	3015704576	44	4099
2026-01-16 03:47:55.09	166.25	52.26	-36.8	-38.1	17.3	0.00e+00	0	60	0	3023044608	44	4107
2026-01-16 03:47:56.10	166.58	51.95	-37.0	-38.3	17.2	0.00e+00	0	60	0	3030384640	44	4195
2026-01-16 03:47:57.11	166.90	51.63	-37.0	-38.3	17.1	0.00e+00	0	61	0	3036676096	44	4225
2026-01-16 03:47:58.12	167.22	51.32	-37.1	-38.4	17.0	0.00e+00	0	60	0	3044016128	44	4284
2026-01-16 03:47:59.13	167.53	51.01	-37.2	-38.6	16.9	0.00e+00	0	61	0	3052404736	44	4342
2026-01-16 03:48:00.14	167.84	50.69	-37.1	-38.4	17.0	0.00e+00	0	61	0	3058696192	44	4285
2026-01-16 03:48:01.15	168.13	50.38	-37.1	-38.4	17.0	0.00e+00	0	61	0	3066036224	44	4280
2026-01-16 03:48:02.16	168.43	50.08	-36.9	-38.2	17.2	0.00e+00	0	61	0	3073376256	44	4168
2026-01-16 03:48:03.17	168.71	49.77	-37.0	-38.3	17.1	0.00e+00	0	61	0	3080716288	44	4239
2026-01-16 03:48:04.18	169.00	49.46	-37.1	-38.5	16.9	0.00e+00	0	61	0	3088056320	44	4314
2026-01-16 03:48:05.19	169.27	49.16	-37.2	-38.5	16.9	0.00e+00	0	61	0	3095396352	44	4339
2026-01-16 03:48:06.19	169.54	48.86	-37.2	-38.6	16.8	0.00e+00	0	61	0	3102736384	44	4377
2026-01-16 03:48:07.20	169.81	48.56	-37.1	-38.4	17.0	0.00e+00	0	61	0	3110076416	44	4272
2026-01-16 03:48:08.21	170.07	48.26	-36.8	-38.1	17.3	0.00e+00	0	61	0	3117416448	44	4140
2026-01-16 03:48:09.22	170.32	47.96	-36.6	-37.8	17.5	0.00e+00	0	61	0	3124756480	44	3991
2026-01-16 03:48:10.23	170.57	47.66	-36.6	-37.8	17.6	0.00e+00	0	61	0	3132096512	44	3976
2026-01-16 03:48:11.24	170.82	47.37	-36.4	-37.7	17.5	0.00e+00	0	61	0	3139436544	43	4149
2026-01-16 03:48:12.25	171.06	47.07	-36.5	-37.8	17.5	0.00e+00	0	61	0	3146776576	43	4204
2026-01-16 03:48:13.26	171.30	46.78	-36.6	-37.9	17.3	0.00e+00	0	61	0	3154116608	43	4248
2026-01-16 03:48:14.27	171.53	46.49	-36.6	-37.9	17.4	0.00e+00	0	61	0	3161456640	43	4243
2026-01-16 03:48:15.28	171.76	46.20	-36.5	-37.8	17.5	0.00e+00	0	61	0	3168796672	43	4206
2026-01-16 03:48:16.29	171.98	45.91	-36.4	-37.6	17.6	0.00e+00	0	61	0	3176136704	43	4143
2026-01-16 03:48:17.30	172.20	45.62	-36.2	-37.4	17.8	0.00e+00	0	60	0	3182428160	43	4029
2026-01-16 03:48:18.32	172.42	45.34	-36.1	-37.3	17.9	0.00e+00	0	61	0	3189768192	43	3969
2026-01-16 03:48:19.32	172.63	45.06	-35.9	-37.1	18.2	0.00e+00	0	61	0	3198156800	42	4102
2026-01-16 03:48:20.33	172.84	44.77	-35.7	-36.9	18.3	0.00e+00	0	60	0	3204448256	42	4028
2026-01-16 03:48:21.35	173.05	44.49	-35.8	-36.9	18.2	0.00e+00	0	61	0	3211788288	42	4041
2026-01-16 03:48:22.35	173.25	44.22	-35.7	-36.8	18.3	0.00e+00	0	61	0	3219128320	42	4003
2026-01-16 03:48:23.36	173.45	43.94	-35.7	-36.9	18.3	0.00e+00	0	61	0	3226468352	42	4005
2026-01-16 03:48:24.37	173.65	43.66	-35.7	-36.9	18.3	0.00e+00	0	61	0	3233808384	42	4018
2026-01-16 03:48:25.38	173.84	43.39	-35.7	-36.9	18.4	0.00e+00	0	60	0	3241148416	42	4010
2026-01-16 03:48:26.39	174.03	43.12	-35.7	-36.8	18.4	0.00e+00	0	61	0	3248488448	42	3999
2026-01-16 03:48:27.40	174.21	42.85	-35.7	-36.8	18.3	0.00e+00	0	61	0	3255828480	42	3990
2026-01-16 03:48:28.41	174.40	42.58	-35.6	-36.8	18.4	0.00e+00	0	61	0	3263168512	42	3973
2026-01-16 03:48:29.42	174.58	42.31	-35.6	-36.7	18.4	0.00e+00	0	61	0	3270508544	42	3958
2026-01-16 03:48:30.43	174.75	42.04	-35.5	-36.7	18.6	0.00e+00	0	61	0	3277848576	42	3914
2026-01-16 03:48:31.44	174.93	41.78	-35.6	-36.7	18.2	0.00e+00	0	61	0	3285188608	41	4183
2026-01-16 03:48:32.45	175.10	41.52	-35.5	-36.6	18.5	0.00e+00	0	60	0	3292528640	41	4139
2026-01-16 03:48:33.46	175.27	41.26	-35.4	-36.6	18.6	0.00e+00	0	61	0	3299868672	41	4105
2026-01-16 03:48:34.47	175.43	41.00	-35.5	-36.6	18.4	0.00e+00	0	61	0	3307208704	41	4135
2026-01-16 03:48:35.48	175.60	40.74	-35.6	-36.8	18.4	0.00e+00	0	61	0	3314548736	41	4195
2026-01-16 03:48:36.49	175.76	40.48	-35.6	-36.8	18.4	0.00e+00	0	61	0	3321888768	41	4210
2026-01-16 03:48:37.50	175.92	40.23	-35.7	-36.9	18.3	0.00e+00	0	61	0	3329228800	41	4246
2026-01-16 03:48:38.51	176.07	39.98	-35.7	-36.9	18.2	0.00e+00	0	61	0	3335520256	41	4280
2026-01-16 03:48:39.52	176.23	39.73	-35.8	-37.0	18.1	0.00e+00	0	61	0	3343908864	41	4318
2026-01-16 03:48:40.53	176.38	39.48	-35.8	-37.0	18.1	0.00e+00	0	61	0	3351248896	41	4329
2026-01-16 03:48:41.54	176.53	39.23	-35.8	-37.0	18.1	0.00e+00	0	61	0	3357540352	41	4313
2026-01-16 03:48:42.55	176.67	38.98	-35.8	-37.0	18.1	0.00e+00	0	61	0	3364880384	41	4316
2026-01-16 03:48:43.57	176.82	38.73	-35.8	-37.0	18.1	0.00e+00	0	61	0	3372220416	41	4320
2026-01-16 03:48:44.57	176.96	38.49	-35.8	-37.0	18.1	0.00e+00	0	61	0	3379560448	41	4319
2026-01-16 03:48:45.58	177.10	38.25	-35.8	-37.0	18.2	0.00e+00	0	60	0	3386900480	41	4319
2026-01-16 03:48:46.59	177.24	38.01	-35.7	-36.9	18.3	0.00e+00	0	61	0	3394240512	41	4267
2026-01-16 03:48:47.60	177.38	37.77	-35.7	-36.8	18.2	0.00e+00	0	60	0	3401580544	41	4233
2026-01-16 03:48:48.61	177.51	37.53	-35.6	-36.8	18.3	0.00e+00	0	61	0	3408920576	41	4231
2026-01-16 03:48:49.62	177.65	37.30	-35.6	-36.7	18.4	0.00e+00	0	61	0	3416260608	41	4189
2026-01-16 03:48:50.63	177.78	37.06	-35.5	-36.7	18.4	0.00e+00	0	61	0	3423600640	41	4165
2026-01-16 03:48:51.65	177.91	36.83	-35.5	-36.6	18.5	0.00e+00	0	61	0	3430940672	41	4132
2026-01-16 03:48:52.65	178.03	36.60	-35.4	-36.5	18.5	0.00e+00	0	61	0	3438280704	41	4098
2026-01-16 03:48:53.66	178.16	36.37	-35.4	-36.6	18.5	0.00e+00	0	61	0	3445620736	41	4107
2026-01-16 03:48:54.67	178.28	36.14	-35.3	-36.5	18.6	0.00e+00	0	61	0	3452960768	41	4069
2026-01-16 03:48:55.69	178.41	35.91	-35.4	-36.5	18.5	0.00e+00	0	61	0	3460300800	41	4079
2026-01-16 03:48:56.69	178.53	35.69	-35.4	-36.6	18.5	0.00e+00	0	61	0	3467640832	41	4102
2026-01-16 03:48:57.71	178.65	35.46	-35.4	-36.5	18.6	0.00e+00	0	61	0	3474980864	41	4085
2026-01-16 03:48:58.72	178.77	35.24	-35.4	-36.5	18.6	0.00e+00	0	61	0	3482320896	41	4072
2026-01-16 03:48:59.73	178.88	35.02	-35.4	-36.6	18.5	0.00e+00	0	61	0	3489660928	41	4114
2026-01-16 03:49:00.74	179.00	34.80	-35.4	-36.5	18.6	0.00e+00	0	61	0	3497000960	41	4092
2026-01-16 03:49:01.75	179.11	34.58	-35.5	-36.7	18.4	0.00e+00	0	61	0	3503292416	41	4147
2026-01-16 03:49:02.76	179.22	34.36	-35.5	-36.7	18.4	0.00e+00	0	61	0	3510632448	41	4161
2026-01-16 03:49:03.77	179.33	34.15	-35.5	-36.6	18.5	0.00e+00	0	61	0	3517972480	41	4145
2026-01-16 03:49:04.78	179.44	33.93	-35.5	-36.6	18.5	0.00e+00	0	61	0	3525312512	41	4141
2026-01-16 03:49:05.79	179.55	33.72	-35.4	-36.6	18.5	0.00e+00	0	61	0	3532652544	41	4118
2026-01-16 03:49:06.80	179.65	33.51	-35.4	-36.5	18.5	0.00e+00	0	61	0	3539992576	41	4075
2026-01-16 03:49:07.80	179.76	33.30	-35.3	-36.5	18.6	0.00e+00	0	61	0	3547332608	41	4060
2026-01-16 03:49:08.81	179.86	33.09	-35.3	-36.4	18.7	0.00e+00	0	61	0	3554672640	41	4022
2026-01-16 03:49:09.82	179.96	32.89	-35.2	-36.3	18.8	0.00e+00	0	61	0	3562012672	41	3989
2026-01-16 03:49:10.83	180.06	32.68	-35.2	-36.3	18.7	0.00e+00	0	61	0	3569352704	41	3996
2026-01-16 03:49:11.84	180.16	32.48	-35.1	-36.2	18.8	0.00e+00	0	61	0	3576692736	41	3928
2026-01-16 03:49:12.85	180.26	32.27	-35.1	-36.2	18.8	0.00e+00	0	61	0	3584032768	41	3951
2026-01-16 03:49:13.86	180.36	32.07	-35.1	-36.2	18.8	0.00e+00	0	61	0	3591372800	41	3940
2026-01-16 03:49:14.87	180.46	31.87	-35.1	-36.2	18.8	0.00e+00	0	61	0	3598712832	41	3939
2026-01-16 03:49:15.88	180.55	31.67	-35.1	-36.3	18.8	0.00e+00	0	61	0	3606052864	41	3963
2026-01-16 03:49:16.89	180.64	31.47	-35.2	-36.3	18.8	0.00e+00	0	61	0	3613392896	41	3972
2026-01-16 03:49:17.90	180.74	31.27	-35.2	-36.3	18.7	0.00e+00	0	61	0	3620732928	41	3986
2026-01-16 03:49:18.91	180.83	31.08	-35.2	-36.3	18.7	0.00e+00	0	61	0	3628072960	41	3977
2026-01-16 03:49:19.92	180.92	30.88	-35.3	-36.4	18.7	0.00e+00	0	61	0	3635412992	41	4022
2026-01-16 03:49:20.93	181.01	30.69	-35.3	-36.4	18.6	0.00e+00	0	61	0	3642753024	41	4043
2026-01-16 03:49:21.94	181.10	30.50	-35.3	-36.5	18.6	0.00e+00	0	60	0	3650093056	41	4056
2026-01-16 03:49:22.96	181.19	30.31	-35.4	-36.5	18.5	0.00e+00	0	61	0	3656384512	41	4081
2026-01-16 03:49:23.97	181.27	30.12	-35.4	-36.5	18.5	0.00e+00	0	61	0	3663724544	41	4087
2026-01-16 03:49:24.97	181.36	29.93	-35.4	-36.5	18.5	0.00e+00	0	61	0	3672113152	41	4076
2026-01-16 03:49:25.98	181.44	29.74	-35.4	-36.5	18.5	0.00e+00	0	61	0	3678404608	41	4084
2026-01-16 03:49:26.99	181.53	29.55	-35.4	-36.5	18.5	0.00e+00	0	61	0	3685744640	41	4082
2026-01-16 03:49:28.00	181.61	29.37	-35.3	-36.5	18.6	0.00e+00	0	61	0	3693084672	41	4067
2026-01-16 03:49:29.01	181.69	29.19	-35.4	-36.5	18.5	0.00e+00	0	61	0	3700424704	41	4081
2026-01-16 03:49:30.02	181.77	29.00	-35.3	-36.5	18.5	0.00e+00	0	61	0	3707764736	41	4062
2026-01-16 03:49:31.03	181.85	28.82	-35.4	-36.5	18.5	0.00e+00	0	61	0	3715104768	41	4088
2026-01-16 03:49:32.04	181.93	28.64	-35.4	-36.5	18.5	0.00e+00	0	61	0	3722444800	41	4084
2026-01-16 03:49:33.05	182.01	28.46	-35.4	-36.5	18.4	0.00e+00	0	61	0	3729784832	41	4091
2026-01-16 03:49:34.06	182.09	28.28	-35.4	-36.6	18.2	0.00e+00	0	61	0	3737124864	41	4131
2026-01-16 03:49:35.07	182.17	28.11	-35.5	-36.7	18.3	0.00e+00	0	61	0	3744464896	41	4171
2026-01-16 03:49:36.08	182.24	27.93	-35.5	-36.7	18.2	0.00e+00	0	61	0	3751804928	41	4168
2026-01-16 03:49:37.09	182.32	27.75	-35.6	-36.8	18.2	0.00e+00	0	61	0	3759144960	41	4225
2026-01-16 03:49:38.10	182.39	27.58	-35.7	-36.9	18.1	0.00e+00	0	61	0	3766484992	41	4260
2026-01-16 03:49:39.11	182.47	27.41	-35.7	-36.9	18.0	0.00e+00	0	61	0	3773825024	41	4279
2026-01-16 03:49:40.12	182.54	27.24	-35.8	-37.0	17.9	0.00e+00	0	61	0	3781165056	41	4309
2026-01-16 03:49:41.13	182.61	27.06	-35.9	-37.1	17.9	0.00e+00	0	61	0	3788505088	41	4354
2026-01-16 03:49:42.14	182.68	26.89	-35.9	-37.1	17.8	0.00e+00	0	61	0	3795845120	41	4376
2026-01-16 03:49:43.15	182.75	26.73	-35.9	-37.1	17.8	0.00e+00	0	61	0	3803185152	41	4377
2026-01-16 03:49:44.16	182.82	26.56	-35.9	-37.1	17.8	0.00e+00	0	61	0	3809476608	41	4386
2026-01-16 03:49:45.17	182.89	26.39	-36.0	-37.2	17.7	0.00e+00	0	61	0	3816816640	41	4428
2026-01-16 03:49:46.18	182.96	26.22	-36.0	-37.3	17.7	0.00e+00	0	61	0	3824156672	41	4442
2026-01-16 03:49:47.19	183.03	26.06	-36.1	-37.3	17.6	0.00e+00	0	61	0	3831496704	41	4491
2026-01-16 03:49:48.20	183.10	25.90	-36.0	-37.3	17.6	0.00e+00	0	61	0	3838836736	41	4451
2026-01-16 03:49:49.21	183.16	25.73	-36.0	-37.2	17.7	0.00e+00	0	61	0	3846176768	41	4430
2026-01-16 03:49:50.21	183.23	25.57	-36.0	-37.2	17.8	0.00e+00	0	61	0	3853516800	41	4410
2026-01-16 03:49:51.22	183.29	25.41	-35.9	-37.1	17.8	0.00e+00	0	61	0	3860856832	41	4379
2026-01-16 03:49:52.23	183.36	25.25	-35.9	-37.1	17.8	0.00e+00	0	61	0	3868196864	41	4374
2026-01-16 03:49:53.24	183.42	25.09	-35.8	-37.1	17.9	0.00e+00	0	61	0	3875536896	41	4350
2026-01-16 03:49:54.25	183.49	24.93	-35.8	-37.1	17.9	0.00e+00	0	61	0	3882876928	41	4346
2026-01-16 03:49:55.26	183.55	24.78	-35.8	-37.0	17.9	0.00e+00	0	61	0	3890216960	41	4328
2026-01-16 03:49:56.27	183.61	24.62	-35.8	-37.0	17.9	0.00e+00	0	61	0	3897556992	41	4337
2026-01-16 03:49:57.28	183.67	24.46	-35.7	-37.0	18.0	0.00e+00	0	61	0	3904897024	41	4293
2026-01-16 03:49:58.29	183.74	24.31	-35.7	-37.0	18.0	0.00e+00	0	61	0	3912237056	41	4293
2026-01-16 03:49:59.30	183.80	24.16	-35.7	-36.9	18.0	0.00e+00	0	61	0	3919577088	41	4291
2026-01-16 03:50:00.31	183.86	24.00	-35.7	-36.9	18.0	0.00e+00	0	61	0	3926917120	41	4276
2026-01-16 03:50:01.32	183.92	23.85	-35.7	-36.9	18.0	0.00e+00	0	61	0	3934257152	41	4255
2026-01-16 03:50:02.33	183.98	23.70	-35.7	-36.9	18.0	0.00e+00	0	61	0	3941597184	41	4260
2026-01-16 03:50:03.34	184.03	23.55	-35.7	-36.9	18.0	0.00e+00	0	61	0	3948937216	41	4254
2026-01-16 03:50:04.35	184.09	23.40	-35.7	-36.9	18.0	0.00e+00	0	61	0	3955228672	41	4267
2026-01-16 03:50:05.36	184.15	23.25	-35.7	-36.9	17.9	0.00e+00	0	61	0	3962568704	41	4253
2026-01-16 03:50:06.37	184.21	23.10	-35.7	-36.9	18.0	0.00e+00	0	61	0	3969908736	41	4285
2026-01-16 03:50:07.38	184.26	22.96	-35.7	-36.9	18.0	0.00e+00	0	61	0	3977248768	41	4252
2026-01-16 03:50:08.38	184.32	22.81	-35.7	-36.9	18.0	0.00e+00	0	61	0	3984588800	41	4261
2026-01-16 03:50:09.39	184.37	22.66	-35.7	-36.9	18.0	0.00e+00	0	61	0	3991928832	41	4271
2026-01-16 03:50:10.40	184.43	22.52	-35.7	-36.9	17.9	0.00e+00	0	61	0	3999268864	41	4289
2026-01-16 03:50:11.41	184.48	22.38	-35.7	-36.9	18.0	0.00e+00	0	61	0	4006608896	41	4281
2026-01-16 03:50:12.42	184.54	22.23	-35.7	-36.9	17.9	0.00e+00	0	61	0	4013948928	41	4290
2026-01-16 03:50:13.44	184.59	22.09	-35.7	-36.9	18.0	0.00e+00	0	61	0	4021288960	41	4267
2026-01-16 03:50:14.45	184.64	21.95	-35.7	-36.9	17.9	0.00e+00	0	61	0	4028628992	41	4270
2026-01-16 03:50:15.46	184.70	21.81	-35.7	-36.9	17.9	0.00e+00	0	61	0	4035969024	41	4289
2026-01-16 03:50:16.47	184.75	21.67	-35.8	-37.0	17.9	0.00e+00	0	61	0	4043309056	41	4303
2026-01-16 03:50:17.48	184.80	21.53	-35.8	-37.0	17.9	0.00e+00	0	61	0	4050649088	41	4301
2026-01-16 03:50:18.49	184.85	21.39	-35.8	-37.0	17.8	0.00e+00	0	61	0	4057989120	41	4320
2026-01-16 03:50:19.50	184.90	21.25	-35.8	-37.1	17.8	0.00e+00	0	61	0	4065329152	41	4344
2026-01-16 03:50:20.51	184.95	21.11	-35.9	-37.1	17.8	0.00e+00	0	61	0	4072669184	41	4354
2026-01-16 03:50:21.52	185.00	20.98	-35.9	-37.1	17.7	0.00e+00	0	61	0	4080009216	41	4386
2026-01-16 03:50:22.53	185.05	20.84	-35.9	-37.2	17.7	0.00e+00	0	61	0	4087349248	41	4408
2026-01-16 03:50:23.54	185.10	20.71	-36.0	-37.2	17.6	0.00e+00	0	61	0	4094689280	41	4420
2026-01-16 03:50:24.55	185.15	20.57	-36.0	-37.3	17.6	0.00e+00	0	61	0	4100980736	41	4443
2026-01-16 03:50:25.56	185.20	20.44	-36.1	-37.4	17.5	0.00e+00	0	61	0	4108320768	41	4495
2026-01-16 03:50:26.57	185.25	20.31	-36.1	-37.4	17.5	0.00e+00	0	61	0	4116709376	41	4495
2026-01-16 03:50:27.58	185.30	20.18	-36.2	-37.4	17.4	0.00e+00	0	61	0	4124049408	41	4542
2026-01-16 03:50:28.59	185.34	20.04	-36.2	-37.5	17.3	0.00e+00	0	61	0	4130340864	42	4324
2026-01-16 03:50:29.60	185.39	19.91	-36.3	-37.6	17.2	0.00e+00	0	61	0	4137680896	42	4342
2026-01-16 03:50:30.61	185.44	19.78	-36.4	-37.6	17.2	0.00e+00	0	61	0	4145020928	42	4387
2026-01-16 03:50:31.62	185.48	19.65	-36.4	-37.7	17.1	0.00e+00	0	61	0	4152360960	42	4428
2026-01-16 03:50:32.63	185.53	19.52	-36.4	-37.7	17.1	0.00e+00	0	61	0	4159700992	42	4424
2026-01-16 03:50:33.64	185.57	19.40	-36.4	-37.8	17.0	0.00e+00	0	61	0	4167041024	42	4451
2026-01-16 03:50:34.66	185.62	19.27	-36.5	-37.8	17.0	0.00e+00	0	61	0	4174381056	42	4468
2026-01-16 03:50:35.66	185.66	19.14	-36.5	-37.8	17.0	0.00e+00	0	61	0	4181721088	42	4477
2026-01-16 03:50:36.68	185.71	19.01	-36.5	-37.8	16.9	0.00e+00	0	61	0	4189061120	42	4487
2026-01-16 03:50:37.68	185.75	18.89	-36.5	-37.8	17.0	0.00e+00	0	61	0	4196401152	42	4458
2026-01-16 03:50:38.69	185.80	18.77	-36.5	-37.9	16.9	0.00e+00	0	61	0	4203741184	42	4498
2026-01-16 03:50:39.70	185.84	18.64	-36.5	-37.9	16.9	0.00e+00	0	61	0	4211081216	42	4497
2026-01-16 03:50:40.71	185.88	18.52	-36.5	-37.8	17.0	0.00e+00	0	61	0	4218421248	42	4476
2026-01-16 03:50:41.72	185.93	18.39	-36.5	-37.9	17.0	0.00e+00	0	61	0	4225761280	42	4497
2026-01-16 03:50:42.73	185.97	18.27	-36.5	-37.9	16.9	0.00e+00	0	61	0	4233101312	42	4497
2026-01-16 03:50:43.74	186.01	18.15	-36.5	-37.8	16.9	0.00e+00	0	61	0	4240441344	42	4491
2026-01-16 03:50:44.75	186.05	18.03	-36.5	-37.8	16.9	0.00e+00	0	61	0	4247781376	42	4490
2026-01-16 03:50:45.76	186.09	17.91	-36.5	-37.9	16.9	0.00e+00	0	61	0	4254072832	42	4501
2026-01-16 03:50:46.77	186.13	17.79	-36.5	-37.9	16.9	0.00e+00	0	61	0	4261412864	42	4496
2026-01-16 03:50:47.78	186.18	17.67	-36.5	-37.8	16.9	0.00e+00	0	61	0	4269801472	42	4483
2026-01-16 03:50:48.79	186.22	17.55	-36.5	-37.9	16.9	0.00e+00	0	61	0	4276092928	42	4499
2026-01-16 03:50:49.80	186.26	17.43	-36.6	-37.9	16.9	0.00e+00	0	61	0	4283432960	42	4514
2026-01-16 03:50:50.81	186.30	17.31	-36.6	-37.9	16.9	0.00e+00	0	61	0	4290772992	42	4518
2026-01-16 03:50:51.82	186.34	17.19	-36.6	-37.9	16.9	0.00e+00	0	60	0	4298113024	42	4521
2026-01-16 03:50:52.83	186.38	17.08	-36.5	-37.9	16.9	0.00e+00	0	61	0	4305453056	42	4505
2026-01-16 03:50:53.84	186.41	16.96	-36.6	-37.9	16.8	0.00e+00	0	61	0	4312793088	42	4528
2026-01-16 03:50:54.84	186.45	16.85	-36.6	-38.0	16.8	0.00e+00	0	61	0	4320133120	42	4557
2026-01-16 03:50:55.85	186.49	16.73	-36.7	-38.0	16.7	0.00e+00	0	61	0	4327473152	42	4578
2026-01-16 03:50:56.86	186.53	16.62	-36.6	-38.0	16.8	0.00e+00	0	61	0	4334813184	42	4560
2026-01-16 03:50:57.88	186.57	16.50	-36.7	-38.1	16.7	0.00e+00	0	61	0	4342153216	43	4346
2026-01-16 03:50:58.89	186.61	16.39	-36.7	-38.1	16.6	0.00e+00	0	61	0	4349493248	43	4365
2026-01-16 03:50:59.90	186.64	16.27	-36.7	-38.1	16.6	0.00e+00	0	61	0	4356833280	43	4374
2026-01-16 03:51:00.91	186.68	16.16	-36.8	-38.1	16.6	0.00e+00	0	61	0	4364173312	43	4388
2026-01-16 03:51:01.92	186.72	16.05	-36.8	-38.2	16.5	0.00e+00	0	61	0	4371513344	43	4423
2026-01-16 03:51:02.93	186.76	15.94	-36.9	-38.3	16.4	0.00e+00	0	61	0	4378853376	43	4453
2026-01-16 03:51:03.94	186.79	15.83	-36.9	-38.3	16.4	0.00e+00	0	61	0	4386193408	43	4456
2026-01-16 03:51:04.95	186.83	15.72	-36.9	-38.3	16.4	0.00e+00	0	61	0	4393533440	43	4476
2026-01-16 03:51:05.96	186.86	15.61	-37.0	-38.4	16.3	0.00e+00	0	61	0	4400873472	43	4497
