passes_logs/2026/01/16/R2.0S_Moscow/R2.0S_Moscow__20260116_004211_FENGYUN_3G_rec.log

#Pass ID: 20260116_004211_FENGYUN 3G
#Satellite: FENGYUN 3G
#Configuration: FENGYUN 3G
#almurnet v.1.7.20251203
#Start time: 2026-01-16 00:42:11

#Version: 2.2.20231116
#Station: R2.0S_Moscow
#Location: 37.707566 lon 55.798166 lat
#TLE: 1 56232U 23055A   26015.17772624  .00018907  00000+0  29824-3 0  9995
#TLE: 2 56232  49.9942  55.0157 0004230  27.8148 332.3045 15.53505157156222

#Time	Az	El	Level	Level2	SNR	BER	BlckErr	Temp	State	Recorded	gain1	gain2
2026-01-16 00:42:11.29	263.55	1.96	-44.2	-62.3	3.8	8.47e-01	0	51	0	0	60	28204
2026-01-16 00:42:12.29	263.46	2.02	-44.2	-62.3	3.8	8.44e-01	0	51	104	0	60	28199
2026-01-16 00:42:13.30	263.38	2.09	-44.2	-62.3	3.8	8.47e-01	0	51	104	0	60	28133
2026-01-16 00:42:14.31	263.29	2.15	-44.2	-62.3	3.8	8.47e-01	0	51	104	0	60	28224
2026-01-16 00:42:15.32	263.20	2.21	-44.2	-62.3	3.8	8.47e-01	0	51	104	0	60	28165
2026-01-16 00:42:16.33	263.12	2.28	-44.2	-62.3	3.8	8.46e-01	0	51	104	0	60	28154
2026-01-16 00:42:17.34	263.03	2.34	-44.2	-62.3	3.8	8.46e-01	0	52	104	0	60	28141
2026-01-16 00:42:18.35	262.94	2.40	-44.2	-62.3	3.8	8.46e-01	0	52	104	0	60	28160
2026-01-16 00:42:19.36	262.85	2.47	-44.2	-62.3	3.8	8.46e-01	0	52	104	0	60	28137
2026-01-16 00:42:20.37	262.76	2.53	-44.2	-62.3	3.8	8.45e-01	0	52	104	0	60	28124
2026-01-16 00:42:21.38	262.67	2.60	-44.2	-62.2	3.8	8.45e-01	0	52	104	0	60	27976
2026-01-16 00:42:22.40	262.58	2.66	-44.2	-62.3	3.8	8.45e-01	0	52	104	0	60	28130
2026-01-16 00:42:23.41	262.48	2.73	-44.2	-62.3	3.8	8.46e-01	0	52	104	0	60	28033
2026-01-16 00:42:24.42	262.39	2.79	-44.2	-62.3	3.8	8.46e-01	0	52	104	0	60	28053
2026-01-16 00:42:25.43	262.30	2.86	-44.2	-62.3	3.8	8.47e-01	0	52	104	0	60	28061
2026-01-16 00:42:26.44	262.21	2.92	-44.2	-62.2	3.8	8.47e-01	0	52	104	0	60	27939
2026-01-16 00:42:27.45	262.11	2.99	-44.2	-62.2	3.8	8.47e-01	0	52	104	0	60	27914
2026-01-16 00:42:28.46	262.02	3.05	-44.2	-62.2	3.8	8.47e-01	0	52	104	0	60	27904
2026-01-16 00:42:29.47	261.92	3.12	-44.2	-62.2	3.8	8.46e-01	0	52	104	0	60	27874
2026-01-16 00:42:30.48	261.83	3.18	-44.2	-62.2	3.8	8.46e-01	0	52	104	0	60	27830
2026-01-16 00:42:31.50	261.73	3.25	-44.2	-62.1	3.8	8.46e-01	0	53	104	0	60	27701
2026-01-16 00:42:32.51	261.63	3.31	-44.2	-62.1	3.8	8.46e-01	0	53	104	0	60	27668
2026-01-16 00:42:33.52	261.53	3.38	-44.2	-62.2	3.8	8.45e-01	0	53	104	0	60	27738
2026-01-16 00:42:34.53	261.43	3.45	-44.2	-62.1	3.8	8.45e-01	0	53	104	0	60	27663
2026-01-16 00:42:35.54	261.33	3.51	-44.2	-62.1	3.8	8.46e-01	0	53	104	0	60	27441
2026-01-16 00:42:36.55	261.23	3.58	-44.2	-62.1	3.8	8.46e-01	0	53	104	0	60	27598
2026-01-16 00:42:37.55	261.14	3.65	-44.2	-62.1	3.8	8.47e-01	0	53	104	0	60	27561
2026-01-16 00:42:38.56	261.03	3.71	-44.2	-62.1	3.8	8.47e-01	0	53	104	0	60	27598
2026-01-16 00:42:39.58	260.93	3.78	-44.2	-62.2	3.8	8.46e-01	0	53	104	0	60	27782
2026-01-16 00:42:40.58	260.83	3.85	-44.2	-62.2	3.8	8.46e-01	0	53	104	0	60	27966
2026-01-16 00:42:41.59	260.73	3.92	-44.2	-62.2	3.8	8.46e-01	0	53	104	0	60	27931
2026-01-16 00:42:42.60	260.62	3.99	-44.2	-62.2	3.8	8.46e-01	0	53	104	0	60	27812
2026-01-16 00:42:43.61	260.52	4.05	-44.2	-62.1	3.8	8.46e-01	0	53	104	0	60	27621
2026-01-16 00:42:44.62	260.41	4.12	-44.2	-62.1	3.8	8.46e-01	0	53	104	0	60	27421
2026-01-16 00:42:45.63	260.31	4.19	-44.2	-61.9	3.8	8.45e-01	0	53	104	0	60	26767
2026-01-16 00:42:46.64	260.20	4.26	-44.2	-61.7	3.8	8.46e-01	0	53	104	0	60	26444
2026-01-16 00:42:47.65	260.09	4.33	-44.2	-61.5	3.8	8.46e-01	0	53	104	0	60	25845
2026-01-16 00:42:48.67	259.98	4.40	-44.2	-61.5	3.8	8.46e-01	0	53	104	0	60	25800
2026-01-16 00:42:49.68	259.87	4.47	-44.2	-61.6	3.8	8.46e-01	0	53	104	0	60	26104
2026-01-16 00:42:50.69	259.76	4.54	-44.2	-61.8	3.8	8.46e-01	0	53	104	0	60	26699
2026-01-16 00:42:51.70	259.65	4.61	-44.2	-61.9	3.8	8.46e-01	0	53	104	0	60	26888
2026-01-16 00:42:52.71	259.54	4.68	-44.2	-61.9	3.8	8.46e-01	0	54	104	0	60	26974
2026-01-16 00:42:53.72	259.43	4.75	-44.2	-61.9	3.8	8.45e-01	0	54	104	0	60	26890
2026-01-16 00:42:54.73	259.32	4.82	-44.2	-62.0	3.8	8.45e-01	0	54	104	0	60	27300
2026-01-16 00:42:55.74	259.20	4.89	-44.2	-62.1	3.8	8.47e-01	0	54	104	0	60	27444
2026-01-16 00:42:56.75	259.09	4.96	-44.2	-62.0	3.8	8.47e-01	0	54	104	0	60	27277
2026-01-16 00:42:57.76	258.97	5.03	-44.2	-62.0	3.8	8.47e-01	0	54	104	0	60	27091
2026-01-16 00:42:58.77	258.86	5.10	-44.2	-61.7	3.8	8.46e-01	0	54	104	0	60	26383
2026-01-16 00:42:59.79	258.74	5.17	-44.2	-61.4	3.8	8.45e-01	0	54	104	0	60	25316
2026-01-16 00:43:00.80	258.62	5.24	-44.2	-61.3	3.8	8.45e-01	0	54	104	0	60	25130
2026-01-16 00:43:01.81	258.50	5.31	-44.2	-61.2	3.8	8.46e-01	0	54	104	0	60	24737
2026-01-16 00:43:02.82	258.38	5.39	-44.2	-60.6	3.8	8.45e-01	0	54	104	0	60	23235
2026-01-16 00:43:03.83	258.26	5.46	-44.2	-60.4	3.8	8.46e-01	0	54	104	0	60	22571
2026-01-16 00:43:04.84	258.14	5.53	-44.2	-60.4	3.8	8.46e-01	0	54	104	0	60	22642
2026-01-16 00:43:05.85	258.02	5.60	-44.2	-60.4	3.9	8.46e-01	0	54	104	0	60	22561
2026-01-16 00:43:06.86	257.90	5.68	-44.2	-60.6	3.8	8.45e-01	0	54	104	0	60	23182
2026-01-16 00:43:07.87	257.77	5.75	-44.2	-60.5	3.8	8.45e-01	0	54	104	0	60	22935
2026-01-16 00:43:08.88	257.65	5.82	-44.2	-61.0	3.8	8.45e-01	0	54	104	0	60	24155
2026-01-16 00:43:09.88	257.52	5.89	-44.2	-60.8	3.8	8.45e-01	0	54	104	0	60	23669
2026-01-16 00:43:10.90	257.40	5.97	-44.2	-60.9	3.8	8.45e-01	0	54	104	0	60	24106
2026-01-16 00:43:11.90	257.27	6.04	-44.2	-60.7	3.8	8.46e-01	0	54	104	0	60	23428
2026-01-16 00:43:12.91	257.14	6.12	-44.2	-60.6	3.8	8.46e-01	0	55	104	0	60	23225
2026-01-16 00:43:13.92	257.01	6.19	-44.2	-60.4	3.8	8.46e-01	0	55	104	0	60	22639
2026-01-16 00:43:14.93	256.88	6.27	-44.2	-60.6	3.8	8.45e-01	0	55	104	0	60	23095
2026-01-16 00:43:15.94	256.75	6.34	-44.2	-60.4	3.8	8.45e-01	0	55	104	0	60	22530
2026-01-16 00:43:16.95	256.62	6.41	-44.2	-60.0	3.9	8.45e-01	0	55	104	0	60	21745
2026-01-16 00:43:17.96	256.49	6.49	-44.1	-59.5	4.0	8.45e-01	0	55	104	0	60	20505
2026-01-16 00:43:18.98	256.35	6.57	-44.1	-58.5	4.2	8.44e-01	0	55	0	0	60	18276
2026-01-16 00:43:19.99	256.22	6.64	-44.0	-57.4	4.7	8.33e-01	0	55	0	0	60	15997
2026-01-16 00:43:21.00	256.08	6.72	-44.0	-55.8	5.5	8.33e-01	0	55	0	0	59	14184
2026-01-16 00:43:22.01	255.94	6.79	-43.9	-54.3	6.7	7.35e-01	0	55	0	524288	59	11916
2026-01-16 00:43:23.02	255.81	6.87	-43.7	-53.3	7.7	2.39e-01	0	55	0	1572864	59	10564
2026-01-16 00:43:24.03	255.67	6.95	-43.6	-52.3	8.7	2.39e-01	0	55	0	3145728	59	9433
2026-01-16 00:43:25.04	255.53	7.02	-43.4	-51.5	9.5	6.89e-02	0	55	0	4194304	58	9124
2026-01-16 00:43:26.05	255.39	7.10	-43.4	-51.4	9.6	2.28e-02	0	55	0	5242880	58	9059
2026-01-16 00:43:27.06	255.24	7.18	-43.5	-51.8	9.3	2.28e-02	0	55	0	6291456	58	9407
2026-01-16 00:43:28.07	255.10	7.25	-43.7	-52.6	8.5	1.83e-02	0	55	0	7340032	58	10361
2026-01-16 00:43:29.08	254.96	7.33	-43.9	-54.3	6.9	5.12e-02	0	55	0	8388608	58	12563
2026-01-16 00:43:30.10	254.81	7.41	-44.1	-57.5	4.7	3.82e-01	0	55	0	9437184	58	18142
2026-01-16 00:43:31.11	254.66	7.49	-44.3	-61.4	3.8	3.82e-01	0	55	104	9437184	59	26926
2026-01-16 00:43:32.12	254.51	7.57	-44.2	-58.9	3.9	8.38e-01	0	56	104	9437184	59	20200
2026-01-16 00:43:33.13	254.37	7.65	-43.8	-53.9	6.9	7.66e-01	0	56	0	9437184	59	11384
2026-01-16 00:43:34.14	254.22	7.72	-43.3	-50.7	10.2	7.66e-01	0	55	0	10485760	58	8280
2026-01-16 00:43:35.15	254.07	7.80	-42.6	-48.5	12.7	6.69e-02	0	56	0	12058624	57	6805
2026-01-16 00:43:36.16	253.91	7.88	-42.2	-47.3	13.9	3.99e-04	0	56	0	13107200	56	6307
2026-01-16 00:43:37.17	253.76	7.96	-41.7	-46.4	14.7	3.99e-04	0	56	0	14155776	55	5999
2026-01-16 00:43:38.18	253.61	8.04	-41.7	-46.3	14.8	2.20e-06	0	56	0	15204352	55	5926
2026-01-16 00:43:39.19	253.45	8.12	-41.7	-46.1	14.8	0.00e+00	0	56	0	16252928	55	5848
2026-01-16 00:43:40.20	253.29	8.20	-42.0	-46.8	14.0	6.80e-06	0	56	0	17301504	55	6328
2026-01-16 00:43:41.21	253.13	8.28	-44.1	-59.1	3.9	6.80e-06	0	56	104	18350080	58	21984
2026-01-16 00:43:42.22	252.98	8.36	-43.1	-49.6	11.1	3.97e-01	0	56	0	18874368	58	7366
2026-01-16 00:43:43.23	252.82	8.44	-43.7	-52.9	7.9	9.88e-03	0	56	0	19922944	58	10765
2026-01-16 00:43:44.24	252.65	8.52	-42.1	-47.0	14.2	9.88e-03	0	56	0	20971520	56	6113
2026-01-16 00:43:45.25	252.49	8.61	-41.8	-46.4	14.7	1.03e-02	0	56	0	22544384	55	6023
2026-01-16 00:43:46.26	252.33	8.69	-41.6	-46.0	15.1	0.00e+00	0	56	0	23592960	55	5754
2026-01-16 00:43:47.27	252.16	8.77	-41.6	-45.9	15.3	0.00e+00	0	56	0	24641536	55	5671
2026-01-16 00:43:48.28	251.99	8.85	-41.5	-45.6	15.5	0.00e+00	0	56	0	25690112	54	5855
2026-01-16 00:43:49.29	251.83	8.93	-41.3	-45.3	15.9	0.00e+00	0	56	0	26738688	54	5617
2026-01-16 00:43:50.30	251.66	9.01	-41.1	-45.0	16.2	0.00e+00	0	56	0	27787264	54	5413
2026-01-16 00:43:51.31	251.49	9.10	-41.1	-44.9	16.3	0.00e+00	0	56	0	29360128	54	5365
2026-01-16 00:43:52.32	251.31	9.18	-41.2	-45.0	16.2	0.00e+00	0	56	0	30408704	54	5439
2026-01-16 00:43:53.33	251.14	9.26	-41.1	-44.8	16.5	0.00e+00	0	56	0	31457280	54	5311
2026-01-16 00:43:54.34	250.97	9.35	-41.0	-44.6	16.6	0.00e+00	0	56	0	32505856	53	5515
2026-01-16 00:43:55.35	250.79	9.43	-40.9	-44.5	16.7	0.00e+00	0	56	0	33554432	53	5458
2026-01-16 00:43:56.36	250.61	9.51	-41.0	-44.6	16.6	0.00e+00	0	56	0	34603008	53	5511
2026-01-16 00:43:57.37	250.43	9.60	-41.0	-44.6	16.7	0.00e+00	0	56	0	36175872	53	5495
2026-01-16 00:43:58.38	250.25	9.68	-40.9	-44.5	16.8	0.00e+00	0	56	0	37224448	53	5423
2026-01-16 00:43:59.39	250.07	9.77	-41.0	-44.6	16.7	0.00e+00	0	57	0	38273024	53	5520
2026-01-16 00:44:00.40	249.89	9.85	-40.9	-44.5	16.8	0.00e+00	0	56	0	39321600	53	5448
2026-01-16 00:44:01.41	249.70	9.94	-41.0	-44.6	16.7	0.00e+00	0	56	0	40370176	53	5509
2026-01-16 00:44:02.42	249.52	10.02	-40.9	-44.5	16.9	0.00e+00	0	56	0	41418752	53	5408
2026-01-16 00:44:03.42	249.33	10.10	-40.9	-44.4	16.9	0.00e+00	0	57	0	42991616	53	5392
2026-01-16 00:44:04.43	249.14	10.19	-40.8	-44.3	17.0	0.00e+00	0	56	0	44040192	53	5290
2026-01-16 00:44:05.44	248.95	10.28	-40.9	-44.5	16.9	0.00e+00	0	56	0	45088768	53	5411
2026-01-16 00:44:06.45	248.76	10.36	-40.8	-44.3	17.0	0.00e+00	0	57	0	46137344	53	5340
2026-01-16 00:44:07.46	248.57	10.45	-40.8	-44.3	17.0	0.00e+00	0	57	0	47185920	53	5331
2026-01-16 00:44:08.47	248.37	10.53	-40.7	-44.1	17.2	0.00e+00	0	57	0	48234496	53	5191
2026-01-16 00:44:09.48	248.17	10.62	-40.6	-43.9	17.4	0.00e+00	0	57	0	49807360	53	5098
2026-01-16 00:44:10.49	247.98	10.71	-40.6	-43.9	17.5	0.00e+00	0	57	0	50855936	53	5050
2026-01-16 00:44:11.50	247.78	10.79	-40.5	-43.8	17.6	0.00e+00	0	57	0	51904512	53	5017
2026-01-16 00:44:12.51	247.58	10.88	-40.6	-43.8	17.5	0.00e+00	0	57	0	52953088	53	5037
2026-01-16 00:44:13.52	247.37	10.97	-40.6	-43.9	17.5	0.00e+00	0	57	0	54001664	53	5047
2026-01-16 00:44:14.53	247.17	11.06	-40.7	-44.0	17.3	0.00e+00	0	57	0	55050240	53	5139
2026-01-16 00:44:15.54	246.96	11.14	-40.6	-43.9	17.4	0.00e+00	0	57	0	56623104	53	5082
2026-01-16 00:44:16.55	246.75	11.23	-40.6	-43.9	17.4	0.00e+00	0	57	0	57671680	53	5099
2026-01-16 00:44:17.56	246.54	11.32	-40.5	-43.8	17.6	0.00e+00	0	57	0	58720256	53	4989
2026-01-16 00:44:18.57	246.33	11.41	-40.6	-43.9	17.5	0.00e+00	0	57	0	59768832	53	5095
2026-01-16 00:44:19.58	246.12	11.49	-40.5	-43.8	17.6	0.00e+00	0	57	0	60817408	53	4998
2026-01-16 00:44:20.58	245.91	11.58	-40.4	-43.6	17.8	0.00e+00	0	57	0	61865984	52	5178
2026-01-16 00:44:21.60	245.69	11.67	-40.4	-43.6	17.8	0.00e+00	0	57	0	63438848	52	5181
2026-01-16 00:44:22.60	245.47	11.76	-40.3	-43.4	18.0	0.00e+00	0	57	0	64487424	52	5092
2026-01-16 00:44:23.61	245.25	11.85	-40.3	-43.3	18.1	0.00e+00	0	57	0	65536000	52	5035
2026-01-16 00:44:24.62	245.03	11.94	-40.2	-43.2	18.2	0.00e+00	0	57	0	66584576	52	4955
2026-01-16 00:44:25.63	244.81	12.03	-40.3	-43.4	18.1	0.00e+00	0	57	0	67633152	52	5067
2026-01-16 00:44:26.64	244.58	12.12	-40.4	-43.5	18.0	0.00e+00	0	57	0	68681728	52	5111
2026-01-16 00:44:27.65	244.35	12.21	-40.6	-43.8	17.7	0.00e+00	0	57	0	70254592	52	5314
2026-01-16 00:44:28.66	244.12	12.30	-40.5	-43.7	17.8	0.00e+00	0	57	0	71303168	52	5242
2026-01-16 00:44:29.67	243.89	12.38	-40.4	-43.5	18.0	0.00e+00	0	57	0	72351744	52	5122
2026-01-16 00:44:30.68	243.66	12.47	-40.2	-43.2	18.3	0.00e+00	0	57	0	73400320	52	4942
2026-01-16 00:44:31.69	243.43	12.56	-40.0	-42.9	18.6	0.00e+00	0	57	0	74448896	51	5075
2026-01-16 00:44:32.70	243.19	12.65	-39.8	-42.6	18.9	0.00e+00	0	57	0	75497472	51	4912
2026-01-16 00:44:33.71	242.95	12.74	-39.9	-42.7	18.9	0.00e+00	0	57	0	77070336	51	4933
2026-01-16 00:44:34.72	242.71	12.84	-39.9	-42.7	18.9	0.00e+00	0	57	0	78118912	51	4942
2026-01-16 00:44:35.73	242.47	12.93	-39.9	-42.8	18.9	0.00e+00	0	57	0	79167488	51	4998
2026-01-16 00:44:36.74	242.22	13.02	-40.0	-42.8	18.8	0.00e+00	0	57	0	80216064	51	5000
2026-01-16 00:44:37.75	241.98	13.11	-40.1	-43.1	18.5	0.00e+00	0	57	0	81264640	51	5166
2026-01-16 00:44:38.76	241.73	13.20	-40.2	-43.1	18.5	0.00e+00	0	57	0	82313216	51	5206
2026-01-16 00:44:39.77	241.48	13.29	-40.2	-43.2	18.5	0.00e+00	0	58	0	83886080	51	5227
2026-01-16 00:44:40.78	241.23	13.38	-40.2	-43.2	18.4	0.00e+00	0	57	0	84934656	51	5245
2026-01-16 00:44:41.79	240.97	13.47	-40.1	-43.0	18.6	0.00e+00	0	57	0	85983232	51	5143
2026-01-16 00:44:42.79	240.72	13.56	-40.0	-42.8	18.8	0.00e+00	0	57	0	87031808	51	5008
2026-01-16 00:44:43.81	240.46	13.65	-39.9	-42.7	18.9	0.00e+00	0	57	0	88080384	51	4977
2026-01-16 00:44:44.82	240.20	13.74	-39.7	-42.4	19.2	0.00e+00	0	57	0	89128960	51	4808
2026-01-16 00:44:45.83	239.94	13.83	-39.6	-42.3	19.4	0.00e+00	0	57	0	90701824	51	4713
2026-01-16 00:44:46.83	239.67	13.92	-39.7	-42.4	19.3	0.00e+00	0	57	0	91750400	51	4776
2026-01-16 00:44:47.84	239.41	14.01	-39.7	-42.4	19.3	0.00e+00	0	57	0	92798976	51	4791
2026-01-16 00:44:48.85	239.14	14.10	-39.9	-42.7	18.9	0.00e+00	0	58	0	93847552	51	4968
2026-01-16 00:44:49.86	238.87	14.20	-39.9	-42.6	19.0	0.00e+00	0	58	0	94896128	51	4923
2026-01-16 00:44:50.87	238.60	14.29	-39.9	-42.7	19.0	0.00e+00	0	58	0	95944704	51	4949
2026-01-16 00:44:51.88	238.32	14.38	-40.0	-42.7	18.9	0.00e+00	0	58	0	97517568	51	4981
2026-01-16 00:44:52.89	238.04	14.47	-40.0	-42.8	18.9	0.00e+00	0	58	0	98566144	51	4992
2026-01-16 00:44:53.90	237.76	14.56	-39.8	-42.5	19.1	0.00e+00	0	58	0	99614720	51	4852
2026-01-16 00:44:54.91	237.48	14.65	-39.7	-42.3	19.4	0.00e+00	0	58	0	100663296	51	4740
2026-01-16 00:44:55.92	237.20	14.74	-39.4	-41.9	19.8	0.00e+00	0	58	0	101711872	50	4771
2026-01-16 00:44:56.93	236.91	14.83	-39.3	-41.8	20.0	0.00e+00	0	58	0	102760448	50	4711
2026-01-16 00:44:57.94	236.62	14.92	-39.3	-41.8	19.9	0.00e+00	0	58	0	104333312	50	4722
2026-01-16 00:44:58.95	236.33	15.01	-39.4	-42.0	19.8	0.00e+00	0	58	0	105381888	50	4815
2026-01-16 00:44:59.96	236.04	15.10	-39.4	-42.0	19.7	0.00e+00	0	58	0	106430464	50	4837
2026-01-16 00:45:00.97	235.74	15.19	-39.5	-42.0	19.7	0.00e+00	0	58	0	107479040	50	4835
2026-01-16 00:45:01.98	235.45	15.28	-39.5	-42.0	19.7	0.00e+00	0	58	0	108527616	50	4852
2026-01-16 00:45:02.99	235.15	15.37	-39.5	-42.0	19.7	0.00e+00	0	58	0	109576192	50	4866
2026-01-16 00:45:04.00	234.84	15.46	-39.8	-42.5	19.2	0.00e+00	0	58	0	111149056	50	5126
2026-01-16 00:45:05.00	234.54	15.55	-39.7	-42.3	19.5	0.00e+00	0	58	0	112197632	50	4994
2026-01-16 00:45:06.01	234.24	15.64	-39.6	-42.2	19.6	0.00e+00	0	58	0	113246208	50	4941
2026-01-16 00:45:07.02	233.93	15.73	-39.6	-42.2	19.6	0.00e+00	0	58	0	114294784	50	4930
2026-01-16 00:45:08.03	233.62	15.82	-39.5	-42.1	19.7	0.00e+00	0	58	0	115343360	50	4877
2026-01-16 00:45:09.04	233.30	15.91	-39.6	-42.2	19.5	0.00e+00	0	58	0	116391936	50	4980
2026-01-16 00:45:10.05	232.99	15.99	-39.5	-42.1	19.7	0.00e+00	0	58	0	117964800	50	4882
2026-01-16 00:45:11.06	232.67	16.08	-39.4	-41.8	19.9	0.00e+00	0	58	0	119013376	50	4757
2026-01-16 00:45:12.07	232.35	16.17	-39.3	-41.7	20.0	0.00e+00	0	58	0	120061952	50	4686
2026-01-16 00:45:13.08	232.02	16.26	-39.2	-41.6	20.2	0.00e+00	0	58	0	121110528	50	4633
2026-01-16 00:45:14.09	231.70	16.34	-39.1	-41.5	20.3	0.00e+00	0	58	0	122159104	50	4573
2026-01-16 00:45:15.10	231.37	16.43	-39.5	-42.0	19.7	0.00e+00	0	58	0	123207680	50	4866
2026-01-16 00:45:16.11	231.04	16.52	-39.5	-42.0	19.8	0.00e+00	0	58	0	124780544	50	4855
2026-01-16 00:45:17.12	230.71	16.60	-39.6	-42.2	19.6	0.00e+00	0	58	0	125829120	50	4966
2026-01-16 00:45:18.13	230.37	16.69	-39.3	-41.8	20.0	0.00e+00	0	58	0	126877696	50	4731
2026-01-16 00:45:19.14	230.04	16.77	-39.4	-41.9	19.9	0.00e+00	0	58	0	127926272	50	4811
2026-01-16 00:45:20.15	229.70	16.86	-39.4	-41.9	19.9	0.00e+00	0	58	0	128974848	50	4773
2026-01-16 00:45:21.16	229.35	16.94	-39.3	-41.7	20.1	0.00e+00	0	58	0	130023424	50	4664
2026-01-16 00:45:22.17	229.01	17.03	-39.2	-41.6	20.3	0.00e+00	0	58	0	131596288	50	4599
2026-01-16 00:45:23.18	228.66	17.11	-39.2	-41.6	20.2	0.00e+00	0	58	0	132644864	50	4614
2026-01-16 00:45:24.19	228.31	17.19	-39.0	-41.4	20.4	0.00e+00	0	58	0	133693440	50	4523
2026-01-16 00:45:25.20	227.96	17.28	-38.8	-41.0	20.7	0.00e+00	0	58	0	134742016	49	4597
2026-01-16 00:45:26.21	227.61	17.36	-38.9	-41.2	20.6	0.00e+00	0	58	0	135790592	49	4658
2026-01-16 00:45:27.22	227.25	17.44	-38.8	-41.1	20.7	0.00e+00	0	58	0	136839168	49	4621
2026-01-16 00:45:28.23	226.89	17.52	-38.6	-40.9	20.9	0.00e+00	0	58	0	138412032	49	4499
2026-01-16 00:45:29.23	226.53	17.60	-38.7	-40.9	20.9	0.00e+00	0	58	0	139460608	49	4531
2026-01-16 00:45:30.24	226.17	17.68	-38.7	-40.9	20.9	0.00e+00	0	58	0	140509184	49	4529
2026-01-16 00:45:31.25	225.80	17.76	-38.7	-41.0	20.8	0.00e+00	0	58	0	141557760	49	4569
2026-01-16 00:45:32.26	225.43	17.84	-39.0	-41.4	20.5	0.00e+00	0	58	0	142606336	49	4765
2026-01-16 00:45:33.27	225.06	17.91	-38.9	-41.2	20.6	0.00e+00	0	58	0	143654912	49	4695
2026-01-16 00:45:34.28	224.69	17.99	-39.2	-41.6	20.2	0.00e+00	0	58	0	145227776	49	4906
2026-01-16 00:45:35.29	224.31	18.07	-39.2	-41.6	20.3	0.00e+00	0	58	0	146276352	49	4878
2026-01-16 00:45:36.30	223.94	18.14	-39.2	-41.6	20.3	0.00e+00	0	58	0	147324928	49	4879
2026-01-16 00:45:37.31	223.56	18.22	-39.1	-41.5	20.3	0.00e+00	0	58	0	148373504	49	4850
2026-01-16 00:45:38.32	223.17	18.29	-39.1	-41.5	20.4	0.00e+00	0	58	0	149422080	49	4837
2026-01-16 00:45:39.33	222.79	18.36	-39.1	-41.4	20.4	0.00e+00	0	58	0	150470656	49	4805
2026-01-16 00:45:40.34	222.40	18.44	-39.0	-41.3	20.5	0.00e+00	0	58	0	152043520	49	4758
2026-01-16 00:45:41.35	222.01	18.51	-39.0	-41.4	20.5	0.00e+00	0	58	0	153092096	49	4763
2026-01-16 00:45:42.36	221.62	18.58	-39.0	-41.3	20.6	0.00e+00	0	58	0	154140672	49	4728
2026-01-16 00:45:43.37	221.23	18.65	-39.0	-41.3	20.6	0.00e+00	0	58	0	155189248	49	4722
2026-01-16 00:45:44.38	220.83	18.72	-39.0	-41.3	20.5	0.00e+00	0	58	0	156237824	49	4756
2026-01-16 00:45:45.39	220.43	18.78	-39.0	-41.4	20.5	0.00e+00	0	58	0	157286400	49	4770
2026-01-16 00:45:46.40	220.03	18.85	-38.9	-41.2	20.7	0.00e+00	0	58	0	158859264	49	4681
2026-01-16 00:45:47.40	219.63	18.92	-38.9	-41.1	20.7	0.00e+00	0	58	0	159907840	49	4634
2026-01-16 00:45:48.41	219.23	18.98	-38.8	-41.1	20.8	0.00e+00	0	58	0	160956416	49	4604
2026-01-16 00:45:49.42	218.82	19.05	-38.9	-41.2	20.7	0.00e+00	0	58	0	162004992	49	4680
2026-01-16 00:45:50.43	218.41	19.11	-39.0	-41.3	20.6	0.00e+00	0	58	0	163053568	49	4708
2026-01-16 00:45:51.44	218.00	19.17	-38.9	-41.2	20.7	0.00e+00	0	58	0	164102144	49	4695
2026-01-16 00:45:52.45	217.59	19.23	-38.9	-41.2	20.7	0.00e+00	0	58	0	165675008	49	4691
2026-01-16 00:45:53.46	217.18	19.29	-38.9	-41.1	20.8	0.00e+00	0	58	0	166723584	49	4647
2026-01-16 00:45:54.47	216.76	19.35	-38.8	-41.0	20.8	0.00e+00	0	58	0	167772160	49	4596
2026-01-16 00:45:55.48	216.34	19.41	-38.6	-40.8	21.1	0.00e+00	0	58	0	168820736	49	4457
2026-01-16 00:45:56.49	215.92	19.46	-38.5	-40.7	21.2	0.00e+00	0	58	0	169869312	49	4429
2026-01-16 00:45:57.50	215.50	19.52	-38.6	-40.8	21.1	0.00e+00	0	58	0	170917888	49	4475
2026-01-16 00:45:58.51	215.07	19.57	-38.7	-40.9	21.0	0.00e+00	0	58	0	172490752	49	4527
2026-01-16 00:45:59.52	214.65	19.62	-38.9	-41.2	20.7	0.00e+00	0	58	0	173539328	49	4674
2026-01-16 00:46:00.52	214.22	19.68	-38.9	-41.2	20.8	0.00e+00	0	58	0	174587904	49	4672
2026-01-16 00:46:01.53	213.79	19.73	-38.8	-41.1	20.8	0.00e+00	0	58	0	175636480	49	4619
2026-01-16 00:46:02.54	213.36	19.77	-38.9	-41.2	20.7	0.00e+00	0	58	0	176685056	49	4658
2026-01-16 00:46:03.56	212.92	19.82	-39.0	-41.3	20.6	0.00e+00	0	58	0	177733632	49	4709
2026-01-16 00:46:04.56	212.49	19.87	-39.0	-41.3	20.6	0.00e+00	0	59	0	179306496	49	4712
2026-01-16 00:46:05.57	212.06	19.91	-38.9	-41.2	20.7	0.00e+00	0	58	0	180355072	49	4683
2026-01-16 00:46:06.58	211.62	19.96	-39.0	-41.2	20.7	0.00e+00	0	58	0	181403648	49	4699
2026-01-16 00:46:07.59	211.18	20.00	-39.0	-41.3	20.7	0.00e+00	0	58	0	182452224	49	4710
2026-01-16 00:46:08.60	210.74	20.04	-38.9	-41.1	20.8	0.00e+00	0	59	0	183500800	49	4645
2026-01-16 00:46:09.61	210.30	20.08	-38.9	-41.2	20.8	0.00e+00	0	59	0	184549376	49	4662
2026-01-16 00:46:10.62	209.86	20.12	-38.8	-41.0	21.0	0.00e+00	0	59	0	186122240	49	4567
2026-01-16 00:46:11.63	209.41	20.15	-38.8	-41.1	20.9	0.00e+00	0	59	0	187170816	49	4606
2026-01-16 00:46:12.64	208.97	20.19	-38.7	-40.9	21.0	0.00e+00	0	59	0	188219392	49	4540
2026-01-16 00:46:13.65	208.52	20.22	-38.9	-41.1	20.8	0.00e+00	0	59	0	189267968	49	4638
2026-01-16 00:46:14.66	208.07	20.25	-39.0	-41.3	20.6	0.00e+00	0	59	0	190316544	49	4724
2026-01-16 00:46:15.67	207.62	20.28	-38.9	-41.2	20.7	0.00e+00	0	58	0	191365120	49	4688
2026-01-16 00:46:16.68	207.17	20.31	-38.9	-41.1	20.8	0.00e+00	0	59	0	192937984	49	4639
2026-01-16 00:46:17.69	206.72	20.34	-38.8	-41.0	20.8	0.00e+00	0	59	0	193986560	49	4598
2026-01-16 00:46:18.70	206.27	20.36	-38.9	-41.1	20.8	0.00e+00	0	59	0	195035136	49	4630
2026-01-16 00:46:19.71	205.81	20.39	-38.9	-41.1	20.8	0.00e+00	0	59	0	196083712	49	4631
2026-01-16 00:46:20.72	205.36	20.41	-38.9	-41.2	20.7	0.00e+00	0	58	0	197132288	49	4683
2026-01-16 00:46:21.73	204.90	20.43	-39.0	-41.4	20.6	0.00e+00	0	59	0	198180864	49	4766
2026-01-16 00:46:22.74	204.45	20.45	-39.0	-41.4	20.5	0.00e+00	0	59	0	199229440	49	4774
2026-01-16 00:46:23.74	204.00	20.47	-39.1	-41.4	20.5	0.00e+00	0	59	0	200802304	49	4789
2026-01-16 00:46:24.75	203.54	20.48	-38.9	-41.2	20.6	0.00e+00	0	59	0	201850880	49	4699
2026-01-16 00:46:25.76	203.08	20.50	-38.8	-41.1	20.8	0.00e+00	0	59	0	202899456	49	4606
2026-01-16 00:46:26.77	202.63	20.51	-38.7	-40.9	21.0	0.00e+00	0	58	0	203948032	49	4538
2026-01-16 00:46:27.78	202.17	20.52	-38.5	-40.7	21.2	0.00e+00	0	58	0	204996608	49	4405
2026-01-16 00:46:28.79	201.71	20.53	-38.3	-40.4	21.4	0.00e+00	0	59	0	206569472	48	4545
2026-01-16 00:46:29.80	201.25	20.54	-38.3	-40.3	21.6	0.00e+00	0	59	0	207618048	48	4487
2026-01-16 00:46:30.81	200.79	20.55	-38.4	-40.5	21.4	0.00e+00	0	59	0	208666624	48	4571
2026-01-16 00:46:31.82	200.33	20.55	-38.3	-40.4	21.5	0.00e+00	0	59	0	209715200	48	4513
2026-01-16 00:46:32.83	199.87	20.56	-38.2	-40.3	21.6	0.00e+00	0	59	0	210763776	48	4468
2026-01-16 00:46:33.84	199.41	20.56	-38.0	-40.0	21.9	0.00e+00	0	59	0	211812352	48	4334
2026-01-16 00:46:34.85	198.95	20.56	-38.0	-40.1	21.8	0.00e+00	0	59	0	213385216	48	4346
2026-01-16 00:46:35.86	198.49	20.56	-38.2	-40.2	21.7	0.00e+00	0	59	0	214433792	48	4428
2026-01-16 00:46:36.87	198.03	20.55	-38.2	-40.3	21.6	0.00e+00	0	59	0	215482368	48	4450
2026-01-16 00:46:37.88	197.57	20.55	-38.3	-40.4	21.5	0.00e+00	0	59	0	216530944	48	4515
2026-01-16 00:46:38.89	197.11	20.54	-38.3	-40.4	21.4	0.00e+00	0	59	0	217579520	48	4527
2026-01-16 00:46:39.89	196.66	20.53	-38.4	-40.5	21.4	0.00e+00	0	59	0	218628096	48	4572
2026-01-16 00:46:40.90	196.20	20.52	-38.4	-40.5	21.4	0.00e+00	0	59	0	220200960	48	4571
2026-01-16 00:46:41.91	195.74	20.51	-38.4	-40.5	21.4	0.00e+00	0	59	0	221249536	48	4590
2026-01-16 00:46:42.92	195.29	20.50	-38.3	-40.3	21.5	0.00e+00	0	59	0	222298112	48	4483
2026-01-16 00:46:43.93	194.83	20.48	-38.2	-40.3	21.6	0.00e+00	0	59	0	223346688	48	4479
2026-01-16 00:46:44.94	194.37	20.47	-38.3	-40.4	21.5	0.00e+00	0	59	0	224395264	48	4521
2026-01-16 00:46:45.95	193.92	20.45	-38.2	-40.3	21.6	0.00e+00	0	59	0	225443840	48	4454
2026-01-16 00:46:46.96	193.46	20.43	-38.2	-40.3	21.6	0.00e+00	0	59	0	227016704	48	4467
2026-01-16 00:46:47.97	193.01	20.41	-38.3	-40.4	21.5	0.00e+00	0	59	0	228065280	48	4506
2026-01-16 00:46:48.98	192.55	20.38	-38.4	-40.5	21.4	0.00e+00	0	59	0	229113856	48	4559
2026-01-16 00:46:49.99	192.10	20.36	-38.7	-40.9	21.0	0.00e+00	0	59	0	230162432	48	4777
2026-01-16 00:46:51.00	191.65	20.33	-38.8	-41.1	20.8	0.00e+00	0	59	0	231211008	48	4891
2026-01-16 00:46:52.01	191.19	20.31	-38.6	-40.8	21.1	0.00e+00	0	59	0	232259584	48	4751
2026-01-16 00:46:53.02	190.74	20.28	-38.8	-41.0	20.9	0.00e+00	0	59	0	233832448	48	4832
2026-01-16 00:46:54.03	190.30	20.25	-38.6	-40.8	21.0	0.00e+00	0	59	0	234881024	48	4756
2026-01-16 00:46:55.04	189.85	20.21	-38.7	-40.9	21.0	0.00e+00	0	59	0	235929600	48	4792
2026-01-16 00:46:56.05	189.40	20.18	-38.6	-40.8	21.0	0.00e+00	0	59	0	236978176	48	4750
2026-01-16 00:46:57.06	188.95	20.15	-38.7	-40.9	21.0	0.00e+00	0	59	0	238026752	48	4784
2026-01-16 00:46:58.06	188.51	20.11	-38.9	-41.2	20.7	0.00e+00	0	59	0	239075328	48	4955
2026-01-16 00:46:59.07	188.07	20.07	-39.0	-41.4	20.5	0.00e+00	0	59	0	240123904	48	5043
2026-01-16 00:47:00.08	187.63	20.03	-39.2	-41.6	20.2	0.00e+00	0	59	0	241696768	49	4909
2026-01-16 00:47:01.10	187.18	19.99	-39.4	-41.8	20.0	0.00e+00	0	59	0	242745344	49	5021
2026-01-16 00:47:02.11	186.75	19.95	-39.2	-41.6	20.2	0.00e+00	0	59	0	243793920	49	4906
2026-01-16 00:47:03.12	186.31	19.90	-38.9	-41.2	20.6	0.00e+00	0	59	0	244842496	49	4665
2026-01-16 00:47:04.13	185.87	19.86	-38.7	-40.9	20.9	0.00e+00	0	59	0	245891072	49	4516
2026-01-16 00:47:05.14	185.44	19.81	-38.4	-40.6	21.2	0.00e+00	0	59	0	246939648	48	4624
2026-01-16 00:47:06.15	185.00	19.77	-38.5	-40.7	21.2	0.00e+00	0	59	0	248512512	48	4653
2026-01-16 00:47:07.16	184.57	19.72	-38.7	-40.9	20.9	0.00e+00	0	59	0	249561088	48	4804
2026-01-16 00:47:08.16	184.15	19.67	-38.8	-41.1	20.8	0.00e+00	0	59	0	250609664	48	4872
2026-01-16 00:47:09.17	183.72	19.62	-38.5	-40.7	21.1	0.00e+00	0	59	0	251658240	48	4688
2026-01-16 00:47:10.18	183.29	19.56	-38.5	-40.7	21.1	0.00e+00	0	59	0	252706816	48	4665
2026-01-16 00:47:11.19	182.87	19.51	-38.4	-40.5	21.3	0.00e+00	0	59	0	254279680	48	4570
2026-01-16 00:47:12.20	182.45	19.45	-38.4	-40.5	21.3	0.00e+00	0	59	0	255328256	48	4593
2026-01-16 00:47:13.21	182.03	19.40	-38.4	-40.6	21.2	0.00e+00	0	59	0	256376832	48	4634
2026-01-16 00:47:14.22	181.61	19.34	-38.5	-40.7	21.1	0.00e+00	0	59	0	257425408	48	4668
2026-01-16 00:47:15.23	181.19	19.28	-38.4	-40.5	21.2	0.00e+00	0	59	0	258473984	48	4591
2026-01-16 00:47:16.24	180.78	19.22	-38.3	-40.4	21.3	0.00e+00	0	59	0	259522560	48	4543
2026-01-16 00:47:17.25	180.36	19.16	-38.3	-40.5	21.2	0.00e+00	0	59	0	261095424	48	4563
2026-01-16 00:47:18.26	179.95	19.10	-38.4	-40.6	21.2	0.00e+00	0	59	0	262144000	48	4620
2026-01-16 00:47:19.27	179.55	19.03	-38.7	-41.0	20.8	0.00e+00	0	59	0	263192576	48	4828
2026-01-16 00:47:20.28	179.14	18.97	-38.6	-40.8	20.9	0.00e+00	0	59	0	264241152	48	4746
2026-01-16 00:47:21.29	178.73	18.90	-38.6	-40.8	20.9	0.00e+00	0	59	0	265289728	48	4753
2026-01-16 00:47:22.30	178.33	18.84	-38.6	-40.8	20.9	0.00e+00	0	59	0	266338304	48	4744
2026-01-16 00:47:23.31	177.93	18.77	-38.7	-41.0	20.8	0.00e+00	0	59	0	267911168	48	4829
2026-01-16 00:47:24.32	177.53	18.70	-38.9	-41.2	20.6	0.00e+00	0	59	0	268959744	48	4930
2026-01-16 00:47:25.33	177.14	18.63	-38.9	-41.2	20.6	0.00e+00	0	59	0	270008320	48	4930
2026-01-16 00:47:26.33	176.75	18.57	-39.0	-41.3	20.5	0.00e+00	0	59	0	271056896	48	5020
2026-01-16 00:47:27.34	176.36	18.49	-39.1	-41.4	20.4	0.00e+00	0	59	0	272105472	48	5088
2026-01-16 00:47:28.35	175.97	18.42	-38.8	-41.1	20.7	0.00e+00	0	59	0	273154048	48	4881
2026-01-16 00:47:29.36	175.58	18.35	-38.9	-41.2	20.6	0.00e+00	0	59	0	274202624	48	4980
2026-01-16 00:47:30.38	175.19	18.28	-39.0	-41.3	20.5	0.00e+00	0	59	0	275775488	48	5009
2026-01-16 00:47:31.39	174.81	18.20	-39.0	-41.3	20.5	0.00e+00	0	59	0	276824064	48	5010
2026-01-16 00:47:32.39	174.43	18.13	-39.4	-41.8	20.3	0.00e+00	0	59	0	277872640	49	5001
2026-01-16 00:47:33.40	174.06	18.05	-38.9	-41.1	20.8	0.00e+00	0	59	0	278921216	49	4641
2026-01-16 00:47:34.41	173.68	17.98	-38.7	-40.9	21.0	0.00e+00	0	59	0	279969792	49	4517
2026-01-16 00:47:35.42	173.31	17.90	-38.6	-40.8	21.1	0.00e+00	0	59	0	281018368	49	4456
2026-01-16 00:47:36.43	172.94	17.82	-38.4	-40.5	21.3	0.00e+00	0	59	0	282591232	48	4583
2026-01-16 00:47:37.44	172.57	17.74	-38.6	-40.7	21.1	0.00e+00	0	59	0	283639808	48	4697
2026-01-16 00:47:38.45	172.20	17.66	-38.6	-40.8	21.0	0.00e+00	0	59	0	284688384	48	4752
2026-01-16 00:47:39.46	171.84	17.58	-38.9	-41.2	20.7	0.00e+00	0	59	0	285736960	48	4951
2026-01-16 00:47:40.46	171.48	17.50	-39.1	-41.5	20.4	0.00e+00	0	59	0	286785536	48	5146
2026-01-16 00:47:41.47	171.12	17.42	-39.1	-41.5	20.4	0.00e+00	0	59	0	287834112	48	5134
2026-01-16 00:47:42.48	170.77	17.34	-39.2	-41.6	20.2	0.00e+00	0	59	0	289406976	48	5179
2026-01-16 00:47:43.49	170.41	17.26	-39.0	-41.4	20.4	0.00e+00	0	59	0	290455552	48	5064
2026-01-16 00:47:44.50	170.06	17.18	-39.0	-41.2	20.6	0.00e+00	0	59	0	291504128	48	4979
2026-01-16 00:47:45.51	169.71	17.09	-39.0	-41.3	20.5	0.00e+00	0	59	0	292552704	48	5028
2026-01-16 00:47:46.52	169.36	17.01	-39.1	-41.4	20.5	0.00e+00	0	59	0	293601280	48	5076
2026-01-16 00:47:47.53	169.02	16.93	-39.2	-41.7	20.2	0.00e+00	0	59	0	294649856	49	4936
2026-01-16 00:47:48.54	168.68	16.84	-39.3	-41.7	20.1	0.00e+00	0	59	0	296222720	49	4974
2026-01-16 00:47:49.54	168.34	16.76	-39.3	-41.8	20.1	0.00e+00	0	59	0	297271296	49	5009
2026-01-16 00:47:50.56	168.00	16.67	-39.4	-41.9	20.0	0.00e+00	0	59	0	298319872	49	5100
2026-01-16 00:47:51.57	167.66	16.59	-39.5	-42.0	19.9	0.00e+00	0	59	0	299368448	49	5115
2026-01-16 00:47:52.58	167.33	16.50	-39.5	-42.0	19.8	0.00e+00	0	59	0	300417024	49	5121
2026-01-16 00:47:53.59	167.00	16.41	-39.5	-42.0	19.8	0.00e+00	0	59	0	301465600	49	5159
2026-01-16 00:47:54.60	166.67	16.33	-39.3	-41.7	20.1	0.00e+00	0	59	0	303038464	49	4976
2026-01-16 00:47:55.61	166.35	16.24	-39.3	-41.8	20.1	0.00e+00	0	59	0	304087040	49	4985
2026-01-16 00:47:56.62	166.03	16.15	-39.3	-41.7	20.1	0.00e+00	0	59	0	305135616	49	4948
2026-01-16 00:47:57.62	165.71	16.06	-39.3	-41.8	20.1	0.00e+00	0	59	0	306184192	49	4996
2026-01-16 00:47:58.63	165.39	15.98	-39.3	-41.8	20.1	0.00e+00	0	59	0	307232768	49	5008
2026-01-16 00:47:59.64	165.07	15.89	-39.5	-42.0	19.8	0.00e+00	0	59	0	308805632	49	5138
2026-01-16 00:48:00.65	164.76	15.80	-39.6	-42.1	19.7	0.00e+00	0	59	0	309854208	49	5215
2026-01-16 00:48:01.66	164.45	15.71	-39.8	-42.4	19.5	0.00e+00	0	59	0	310902784	50	5084
2026-01-16 00:48:02.67	164.14	15.62	-39.8	-42.5	19.4	0.00e+00	0	59	0	311951360	50	5134
2026-01-16 00:48:03.68	163.83	15.53	-39.8	-42.5	19.3	0.00e+00	0	59	0	312999936	50	5135
2026-01-16 00:48:04.69	163.53	15.44	-39.8	-42.5	19.4	0.00e+00	0	59	0	314048512	50	5134
2026-01-16 00:48:05.70	163.23	15.35	-39.8	-42.5	19.5	0.00e+00	0	59	0	315097088	50	5117
2026-01-16 00:48:06.71	162.93	15.26	-39.9	-42.5	19.3	0.00e+00	0	59	0	316669952	50	5145
2026-01-16 00:48:07.72	162.63	15.17	-39.9	-42.6	19.3	0.00e+00	0	59	0	317718528	50	5175
2026-01-16 00:48:08.73	162.34	15.08	-39.9	-42.5	19.4	0.00e+00	0	59	0	318767104	50	5150
2026-01-16 00:48:09.74	162.04	14.99	-40.0	-42.7	19.2	0.00e+00	0	59	0	319815680	50	5257
2026-01-16 00:48:10.75	161.75	14.90	-39.8	-42.5	19.4	0.00e+00	0	59	0	320864256	50	5118
2026-01-16 00:48:11.76	161.46	14.81	-39.9	-42.5	19.4	0.00e+00	0	59	0	321912832	50	5145
2026-01-16 00:48:12.77	161.18	14.72	-40.0	-42.8	19.2	0.00e+00	0	59	0	323485696	50	5295
2026-01-16 00:48:13.78	160.89	14.63	-40.1	-42.9	19.0	0.00e+00	0	59	0	324534272	50	5386
2026-01-16 00:48:14.79	160.61	14.54	-40.2	-43.0	18.9	0.00e+00	0	59	0	325582848	50	5454
2026-01-16 00:48:15.80	160.33	14.45	-40.3	-43.1	18.8	0.00e+00	0	59	0	326631424	51	5211
2026-01-16 00:48:16.81	160.05	14.36	-40.0	-42.8	19.1	0.00e+00	0	59	0	327680000	51	5007
2026-01-16 00:48:17.82	159.78	14.27	-40.0	-42.8	19.1	0.00e+00	0	59	0	328728576	51	5024
2026-01-16 00:48:18.83	159.51	14.18	-40.0	-42.8	19.1	0.00e+00	0	59	0	330301440	51	5007
2026-01-16 00:48:19.84	159.24	14.08	-39.9	-42.6	19.3	0.00e+00	0	59	0	331350016	51	4916
2026-01-16 00:48:20.85	158.97	13.99	-40.0	-42.7	19.2	0.00e+00	0	59	0	332398592	51	4974
2026-01-16 00:48:21.86	158.70	13.90	-40.0	-42.8	19.1	0.00e+00	0	59	0	333447168	51	5016
2026-01-16 00:48:22.87	158.44	13.81	-40.3	-43.2	18.7	0.00e+00	0	59	0	334495744	51	5253
2026-01-16 00:48:23.87	158.18	13.72	-40.3	-43.3	18.5	0.00e+00	0	59	0	335544320	51	5318
2026-01-16 00:48:24.88	157.92	13.63	-40.4	-43.4	18.5	0.00e+00	0	59	0	337117184	51	5356
2026-01-16 00:48:25.89	157.66	13.54	-40.3	-43.3	18.5	0.00e+00	0	59	0	338165760	51	5327
2026-01-16 00:48:26.90	157.40	13.45	-40.2	-43.2	18.7	0.00e+00	0	59	0	339214336	51	5235
2026-01-16 00:48:27.91	157.15	13.36	-40.2	-43.1	18.8	0.00e+00	0	59	0	340262912	51	5188
2026-01-16 00:48:28.92	156.90	13.27	-40.2	-43.1	18.7	0.00e+00	0	59	0	341311488	51	5218
2026-01-16 00:48:29.93	156.65	13.18	-40.2	-43.1	18.6	0.00e+00	0	59	0	342360064	51	5214
2026-01-16 00:48:30.94	156.40	13.09	-40.3	-43.3	18.5	0.00e+00	0	59	0	343932928	51	5322
2026-01-16 00:48:31.95	156.15	13.00	-40.4	-43.4	18.4	0.00e+00	0	59	0	344981504	51	5365
2026-01-16 00:48:32.96	155.91	12.90	-40.4	-43.4	18.4	0.00e+00	0	59	0	346030080	51	5375
2026-01-16 00:48:33.97	155.66	12.81	-40.5	-43.6	18.2	0.00e+00	0	59	0	347078656	51	5520
2026-01-16 00:48:34.98	155.42	12.72	-40.4	-43.5	18.3	0.00e+00	0	59	0	348127232	51	5420
2026-01-16 00:48:35.99	155.19	12.63	-40.4	-43.4	18.3	0.00e+00	0	59	0	349175808	51	5401
2026-01-16 00:48:37.00	154.95	12.54	-40.5	-43.6	18.2	0.00e+00	0	59	0	350748672	51	5506
2026-01-16 00:48:38.01	154.71	12.45	-40.5	-43.6	18.1	0.00e+00	0	59	0	351797248	51	5511
2026-01-16 00:48:39.02	154.48	12.36	-40.5	-43.7	18.0	0.00e+00	0	59	0	352845824	51	5553
2026-01-16 00:48:40.03	154.25	12.27	-40.5	-43.6	18.1	0.00e+00	0	59	0	353894400	51	5512
2026-01-16 00:48:41.03	154.02	12.19	-40.5	-43.7	18.0	0.00e+00	0	60	0	354942976	51	5564
2026-01-16 00:48:42.04	153.80	12.10	-40.6	-43.8	17.9	0.00e+00	0	59	0	355991552	51	5637
2026-01-16 00:48:43.05	153.57	12.01	-40.5	-43.7	18.0	0.00e+00	0	59	0	357564416	51	5557
2026-01-16 00:48:44.06	153.35	11.92	-40.6	-43.8	17.8	0.00e+00	0	59	0	358612992	51	5638
2026-01-16 00:48:45.07	153.13	11.83	-40.6	-43.9	17.7	0.00e+00	0	60	0	359661568	51	5707
2026-01-16 00:48:46.08	152.91	11.74	-40.6	-43.8	17.8	0.00e+00	0	59	0	360710144	51	5647
2026-01-16 00:48:47.09	152.69	11.65	-40.7	-44.1	17.6	0.00e+00	0	59	0	361758720	51	5794
2026-01-16 00:48:48.10	152.47	11.56	-40.6	-43.9	17.6	0.00e+00	0	60	0	362807296	52	5371
2026-01-16 00:48:49.11	152.26	11.47	-40.6	-43.9	17.6	0.00e+00	0	60	0	364380160	52	5379
2026-01-16 00:48:50.12	152.04	11.38	-40.6	-44.0	17.5	0.00e+00	0	59	0	365428736	52	5429
2026-01-16 00:48:51.13	151.83	11.30	-40.5	-43.8	17.7	0.00e+00	0	59	0	366477312	52	5315
2026-01-16 00:48:52.14	151.62	11.21	-40.5	-43.9	17.6	0.00e+00	0	59	0	367525888	52	5345
2026-01-16 00:48:53.15	151.42	11.12	-40.4	-43.6	17.8	0.00e+00	0	59	0	368574464	52	5197
2026-01-16 00:48:54.16	151.21	11.03	-40.3	-43.4	18.1	0.00e+00	0	59	0	369623040	52	5068
2026-01-16 00:48:55.17	151.00	10.95	-40.4	-43.6	17.9	0.00e+00	0	60	0	371195904	52	5174
2026-01-16 00:48:56.18	150.80	10.86	-40.3	-43.6	17.9	0.00e+00	0	59	0	372244480	52	5169
2026-01-16 00:48:57.19	150.60	10.77	-40.4	-43.6	17.8	0.00e+00	0	59	0	373293056	52	5190
2026-01-16 00:48:58.20	150.40	10.68	-40.5	-43.9	17.5	0.00e+00	0	59	0	374341632	52	5386
2026-01-16 00:48:59.21	150.20	10.60	-40.5	-43.9	17.6	0.00e+00	0	60	0	375390208	52	5359
2026-01-16 00:49:00.22	150.00	10.51	-40.5	-43.9	17.5	0.00e+00	0	59	0	376438784	52	5380
2026-01-16 00:49:01.23	149.81	10.43	-40.6	-44.0	17.4	0.00e+00	0	59	0	378011648	52	5434
2026-01-16 00:49:02.24	149.62	10.34	-40.6	-44.1	17.3	0.00e+00	0	59	0	379060224	52	5496
2026-01-16 00:49:03.25	149.42	10.25	-40.8	-44.4	17.0	0.00e+00	0	60	0	380108800	52	5666
2026-01-16 00:49:04.26	149.23	10.17	-40.9	-44.6	16.8	0.00e+00	0	59	0	381157376	52	5808
2026-01-16 00:49:05.27	149.04	10.08	-40.9	-44.6	16.7	0.00e+00	0	59	0	382205952	52	5809
2026-01-16 00:49:06.28	148.86	10.00	-40.9	-44.6	16.7	0.00e+00	0	60	0	383254528	52	5842
2026-01-16 00:49:07.29	148.67	9.91	-40.9	-44.6	16.7	0.00e+00	0	59	0	384827392	52	5829
2026-01-16 00:49:08.30	148.49	9.83	-40.8	-44.5	16.8	0.00e+00	0	59	0	385875968	52	5726
2026-01-16 00:49:09.31	148.30	9.74	-40.8	-44.5	16.8	0.00e+00	0	59	0	386924544	52	5727
2026-01-16 00:49:10.31	148.12	9.66	-40.8	-44.6	16.7	0.00e+00	0	59	0	387973120	52	5790
2026-01-16 00:49:11.32	147.94	9.58	-40.8	-44.6	16.6	0.00e+00	0	59	0	389021696	52	5820
2026-01-16 00:49:12.33	147.76	9.49	-40.8	-44.6	16.6	0.00e+00	0	59	0	390070272	52	5828
2026-01-16 00:49:13.34	147.59	9.41	-40.9	-44.7	16.4	0.00e+00	0	59	0	391643136	52	5922
2026-01-16 00:49:14.35	147.41	9.32	-40.9	-44.8	16.4	0.00e+00	0	59	0	392691712	52	5956
2026-01-16 00:49:15.36	147.23	9.24	-41.0	-45.1	16.1	0.00e+00	0	59	0	393740288	52	6138
2026-01-16 00:49:16.37	147.06	9.16	-41.0	-45.0	16.1	0.00e+00	0	59	0	394788864	52	6119
2026-01-16 00:49:17.38	146.89	9.07	-40.9	-44.9	16.2	0.00e+00	0	59	0	395837440	52	6001
2026-01-16 00:49:18.39	146.72	8.99	-40.9	-44.8	16.3	0.00e+00	0	60	0	396886016	52	5955
2026-01-16 00:49:19.40	146.55	8.91	-40.8	-44.7	16.3	0.00e+00	0	60	0	398458880	52	5918
2026-01-16 00:49:20.41	146.38	8.83	-40.8	-44.6	16.5	0.00e+00	0	59	0	399507456	52	5834
2026-01-16 00:49:21.42	146.21	8.75	-40.7	-44.6	16.5	0.00e+00	0	60	0	400556032	52	5806
2026-01-16 00:49:22.43	146.05	8.66	-40.8	-44.8	16.2	0.00e+00	0	59	0	401604608	52	5945
2026-01-16 00:49:23.44	145.88	8.58	-40.8	-44.7	16.2	0.00e+00	0	59	0	402653184	52	5915
2026-01-16 00:49:24.44	145.72	8.50	-40.8	-44.9	16.1	0.00e+00	0	60	0	403701760	52	6017
2026-01-16 00:49:25.45	145.56	8.42	-40.9	-44.9	16.1	0.00e+00	0	60	0	405274624	52	6039
2026-01-16 00:49:26.46	145.40	8.34	-40.8	-44.9	16.0	0.00e+00	0	60	0	406323200	52	6004
2026-01-16 00:49:27.47	145.24	8.26	-40.8	-44.9	16.1	0.00e+00	0	59	0	407371776	52	6001
2026-01-16 00:49:28.48	145.08	8.18	-40.9	-45.0	15.9	0.00e+00	0	60	0	408420352	52	6063
2026-01-16 00:49:29.49	144.93	8.10	-40.9	-45.1	15.8	0.00e+00	0	60	0	409468928	52	6164
2026-01-16 00:49:30.50	144.77	8.02	-42.5	-48.9	13.2	0.00e+00	0	60	0	410517504	55	8033
2026-01-16 00:49:31.51	144.62	7.94	-44.6	-61.4	3.8	1.72e-01	0	60	104	411041792	59	26967
2026-01-16 00:49:32.52	144.46	7.86	-44.9	-62.7	3.9	1.72e-01	0	60	104	411041792	60	29472
2026-01-16 00:49:33.53	144.31	7.78	-45.2	-63.4	3.8	8.47e-01	0	60	104	411041792	60	32132
2026-01-16 00:49:34.54	144.16	7.70	-45.4	-63.6	3.8	8.46e-01	0	60	104	411041792	61	30822
2026-01-16 00:49:35.55	144.01	7.62	-45.6	-63.7	3.8	8.46e-01	0	60	104	411041792	61	31358
2026-01-16 00:49:36.56	143.86	7.55	-45.7	-63.9	3.8	8.46e-01	0	59	104	411041792	61	31847
2026-01-16 00:49:37.57	143.71	7.47	-45.7	-64.0	3.8	8.45e-01	0	60	104	411041792	62	30451
2026-01-16 00:49:38.58	143.57	7.39	-45.8	-64.0	3.8	8.46e-01	0	60	104	411041792	62	30423
2026-01-16 00:49:39.59	143.42	7.31	-45.8	-64.0	3.8	8.46e-01	0	60	104	411041792	62	30492
2026-01-16 00:49:40.60	143.28	7.23	-45.8	-64.0	3.8	8.45e-01	0	60	104	411041792	62	30481
2026-01-16 00:49:41.61	143.13	7.16	-45.7	-63.9	3.8	8.45e-01	0	60	104	411041792	62	30099
2026-01-16 00:49:42.62	142.99	7.08	-45.7	-63.8	3.8	8.45e-01	0	60	104	411041792	62	29844
2026-01-16 00:49:43.63	142.85	7.00	-45.7	-63.7	3.8	8.47e-01	0	60	104	411041792	62	29553
2026-01-16 00:49:44.64	142.71	6.93	-45.7	-63.7	3.8	8.47e-01	0	59	104	411041792	62	29562
2026-01-16 00:49:45.65	142.57	6.85	-45.5	-63.6	3.8	8.47e-01	0	59	104	411041792	62	29143
2026-01-16 00:49:46.66	142.43	6.77	-45.5	-63.6	3.8	8.46e-01	0	59	104	411041792	62	29054
2026-01-16 00:49:47.67	142.29	6.70	-45.5	-63.6	3.8	8.46e-01	0	60	104	411041792	62	29095
2026-01-16 00:49:48.68	142.16	6.62	-45.5	-63.6	3.8	8.46e-01	0	60	104	411041792	62	29104
2026-01-16 00:49:49.69	142.02	6.54	-45.5	-63.6	3.8	8.46e-01	0	60	104	411041792	62	29157
2026-01-16 00:49:50.70	141.89	6.47	-45.5	-63.5	3.8	8.47e-01	0	60	104	411041792	62	29011
2026-01-16 00:49:51.71	141.76	6.39	-45.5	-63.6	3.8	8.46e-01	0	60	104	411041792	62	29021
2026-01-16 00:49:52.72	141.62	6.32	-45.5	-63.6	3.8	8.46e-01	0	60	104	411041792	62	29088
2026-01-16 00:49:53.73	141.49	6.24	-45.5	-63.6	3.8	8.45e-01	0	59	104	411041792	62	29056
2026-01-16 00:49:54.74	141.36	6.17	-45.5	-63.6	3.8	8.46e-01	0	60	104	411041792	62	29080
2026-01-16 00:49:55.75	141.23	6.10	-45.5	-63.6	3.8	8.46e-01	0	60	104	411041792	62	29057
2026-01-16 00:49:56.76	141.10	6.02	-45.5	-63.6	3.8	8.46e-01	0	60	104	411041792	62	29059
2026-01-16 00:49:57.77	140.98	5.95	-45.5	-63.5	3.8	8.46e-01	0	60	104	411041792	62	28993
2026-01-16 00:49:58.78	140.85	5.87	-45.5	-63.5	3.8	8.46e-01	0	60	104	411041792	62	29010
2026-01-16 00:49:59.79	140.72	5.80	-45.5	-63.6	3.8	8.45e-01	0	60	104	411041792	62	29021
2026-01-16 00:50:00.80	140.60	5.73	-45.5	-63.5	3.8	8.46e-01	0	60	104	411041792	62	28950
2026-01-16 00:50:01.81	140.48	5.65	-45.5	-63.5	3.8	8.47e-01	0	60	104	411041792	62	28973
2026-01-16 00:50:02.82	140.35	5.58	-45.5	-63.5	3.8	8.47e-01	0	60	104	411041792	62	28932
2026-01-16 00:50:03.83	140.23	5.51	-45.5	-63.5	3.8	8.46e-01	0	60	104	411041792	62	28912
2026-01-16 00:50:04.84	140.11	5.44	-45.5	-63.6	3.8	8.48e-01	0	60	104	411041792	62	29078
2026-01-16 00:50:05.85	139.99	5.37	-45.5	-63.6	3.8	8.48e-01	0	60	104	411041792	62	29014
2026-01-16 00:50:06.86	139.87	5.29	-45.5	-63.5	3.8	8.47e-01	0	60	104	411041792	62	28862
2026-01-16 00:50:07.87	139.75	5.22	-45.5	-63.5	3.8	8.46e-01	0	60	104	411041792	62	28935
2026-01-16 00:50:08.88	139.63	5.15	-45.5	-63.5	3.8	8.46e-01	0	60	104	411041792	62	28953
2026-01-16 00:50:09.89	139.52	5.08	-45.5	-63.5	3.8	8.46e-01	0	60	104	411041792	62	28931
2026-01-16 00:50:10.90	139.40	5.01	-45.5	-63.5	3.8	8.46e-01	0	60	104	411041792	62	29002
2026-01-16 00:50:11.91	139.28	4.94	-45.4	-63.5	3.8	8.46e-01	0	60	104	411041792	62	28904
2026-01-16 00:50:12.92	139.17	4.87	-45.5	-63.5	3.8	8.47e-01	0	60	104	411041792	62	28961
2026-01-16 00:50:13.93	139.05	4.80	-45.4	-63.5	3.8	8.46e-01	0	60	104	411041792	62	28831
2026-01-16 00:50:14.94	138.94	4.73	-45.5	-63.5	3.8	8.47e-01	0	60	104	411041792	62	28852
2026-01-16 00:50:15.95	138.83	4.66	-45.5	-63.5	3.8	8.47e-01	0	60	104	411041792	62	28909
2026-01-16 00:50:16.95	138.72	4.59	-45.4	-63.5	3.8	8.45e-01	0	60	104	411041792	62	28861
2026-01-16 00:50:17.96	138.61	4.52	-45.5	-63.5	3.8	8.47e-01	0	60	104	411041792	62	28812
2026-01-16 00:50:18.97	138.50	4.45	-45.5	-63.5	3.8	8.47e-01	0	60	104	411041792	62	28844
2026-01-16 00:50:19.98	138.39	4.38	-45.5	-63.5	3.8	8.46e-01	0	60	104	411041792	62	28850
2026-01-16 00:50:20.99	138.28	4.31	-45.5	-63.5	3.8	8.46e-01	0	60	104	411041792	62	28815
2026-01-16 00:50:22.00	138.17	4.24	-45.4	-63.5	3.8	8.46e-01	0	60	104	411041792	62	28845
2026-01-16 00:50:23.01	138.07	4.17	-45.4	-63.5	3.8	8.47e-01	0	60	104	411041792	62	28828
2026-01-16 00:50:24.02	137.96	4.10	-45.4	-63.5	3.8	8.45e-01	0	60	104	411041792	62	28919
2026-01-16 00:50:25.03	137.85	4.03	-45.4	-63.5	3.8	8.45e-01	0	60	104	411041792	62	28798
2026-01-16 00:50:26.04	137.75	3.97	-45.4	-63.5	3.8	8.47e-01	0	60	104	411041792	62	28872
2026-01-16 00:50:27.05	137.64	3.90	-45.4	-63.5	3.8	8.47e-01	0	60	104	411041792	62	28811
2026-01-16 00:50:28.06	137.54	3.83	-45.4	-63.5	3.8	8.46e-01	0	60	104	411041792	62	28836
2026-01-16 00:50:29.07	137.44	3.76	-45.4	-63.5	3.8	8.46e-01	0	60	104	411041792	62	28780
2026-01-16 00:50:30.08	137.34	3.70	-45.4	-63.5	3.8	8.46e-01	0	60	104	411041792	62	28805
2026-01-16 00:50:31.09	137.23	3.63	-45.4	-63.5	3.8	8.46e-01	0	60	104	411041792	62	28792
2026-01-16 00:50:32.10	137.13	3.56	-45.4	-63.5	3.8	8.46e-01	0	60	104	411041792	62	28733
2026-01-16 00:50:33.11	137.03	3.49	-45.4	-63.5	3.8	8.46e-01	0	60	104	411041792	62	28842
2026-01-16 00:50:34.12	136.93	3.43	-45.4	-63.5	3.8	8.46e-01	0	60	104	411041792	62	28832
2026-01-16 00:50:35.13	136.83	3.36	-45.4	-63.5	3.8	8.46e-01	0	60	104	411041792	62	28862
2026-01-16 00:50:36.13	136.74	3.30	-45.4	-63.5	3.8	8.46e-01	0	60	104	411041792	62	28751
2026-01-16 00:50:37.14	136.64	3.23	-45.4	-63.5	3.8	8.45e-01	0	60	104	411041792	62	28807
2026-01-16 00:50:38.16	136.54	3.16	-45.4	-63.5	3.8	8.45e-01	0	60	104	411041792	62	28803
2026-01-16 00:50:39.17	136.45	3.10	-45.4	-63.5	3.8	8.47e-01	0	60	104	411041792	62	28850
2026-01-16 00:50:40.18	136.35	3.03	-45.4	-63.5	3.8	8.46e-01	0	60	104	411041792	62	28790
2026-01-16 00:50:41.19	136.26	2.97	-45.4	-63.5	3.8	8.46e-01	0	60	104	411041792	62	28753
2026-01-16 00:50:42.20	136.16	2.90	-45.4	-63.5	3.8	8.46e-01	0	60	104	411041792	62	28749
2026-01-16 00:50:43.21	136.07	2.84	-45.4	-63.5	3.8	8.46e-01	0	60	104	411041792	62	28759
2026-01-16 00:50:44.22	135.97	2.77	-45.4	-63.5	3.8	8.46e-01	0	60	104	411041792	62	28817
2026-01-16 00:50:45.23	135.88	2.71	-45.4	-63.5	3.8	8.46e-01	0	60	104	411041792	62	28795
2026-01-16 00:50:46.24	135.79	2.64	-45.4	-63.5	3.8	8.47e-01	0	59	104	411041792	62	28712
2026-01-16 00:50:47.25	135.70	2.58	-45.4	-63.5	3.8	8.46e-01	0	60	104	411041792	62	28801
2026-01-16 00:50:48.26	135.61	2.51	-45.4	-63.5	3.8	8.46e-01	0	60	104	411041792	62	28806
2026-01-16 00:50:49.27	135.52	2.45	-45.4	-63.5	3.8	8.45e-01	0	60	104	411041792	62	28745
2026-01-16 00:50:50.28	135.43	2.39	-45.4	-63.5	3.8	8.45e-01	0	60	104	411041792	62	28731
2026-01-16 00:50:51.29	135.34	2.32	-45.4	-63.5	3.8	8.47e-01	0	60	104	411041792	62	28719
2026-01-16 00:50:52.30	135.25	2.26	-45.4	-63.5	3.8	8.47e-01	0	60	104	411041792	62	28733
2026-01-16 00:50:53.31	135.16	2.20	-45.4	-63.5	3.8	8.47e-01	0	60	104	411041792	62	28743
2026-01-16 00:50:54.32	135.07	2.13	-45.4	-63.5	3.8	8.45e-01	0	60	104	411041792	62	28787
2026-01-16 00:50:55.33	134.99	2.07	-45.4	-63.5	3.8	8.45e-01	0	60	104	411041792	62	28727
2026-01-16 00:50:56.34	134.90	2.01	-45.4	-63.5	3.8	8.47e-01	0	60	104	411041792	62	28708
2026-01-16 00:50:57.35	134.81	1.94	-45.4	-63.5	3.8	8.45e-01	0	60	104	411041792	62	28737

#Closed at: 2026-01-16 00:50:58
#Recorded file [411 MB]: D:/lorett/data/31039_260116_034211.dat