passes_logs/2026/01/16/R2.0S_Moscow/R2.0S_Moscow__20260116_203836_FENGYUN_3G_rec.log

#Pass ID: 20260116_203836_FENGYUN 3G
#Satellite: FENGYUN 3G
#Configuration: FENGYUN 3G
#almurnet v.1.7.20251203
#Start time: 2026-01-16 20:38:36

#Version: 2.2.20231116
#Station: R2.0S_Moscow
#Location: 37.707566 lon 55.798166 lat
#TLE: 1 56232U 23055A   26015.94957575  .00019432  00000+0  30595-3 0  9991
#TLE: 2 56232  49.9941  51.0332 0004204  31.6225 328.4995 15.53536505156346

#Time	Az	El	Level	Level2	SNR	BER	BlckErr	Temp	State	Recorded	gain1	gain2
2026-01-16 20:38:36.60	213.96	2.00	-44.0	-61.9	3.8	8.46e-01	0	51	0	0	59	28636
2026-01-16 20:38:37.61	213.85	2.06	-44.0	-61.9	3.8	8.43e-01	0	51	104	0	59	28597
2026-01-16 20:38:38.62	213.75	2.12	-43.9	-61.9	3.8	8.46e-01	0	51	104	0	59	28587
2026-01-16 20:38:39.63	213.64	2.18	-44.0	-61.9	3.8	8.47e-01	0	51	104	0	59	28599
2026-01-16 20:38:40.64	213.54	2.24	-43.9	-61.9	3.8	8.47e-01	0	51	104	0	59	28581
2026-01-16 20:38:41.65	213.43	2.30	-43.9	-61.9	3.8	8.46e-01	0	51	104	0	59	28649
2026-01-16 20:38:42.66	213.32	2.36	-44.0	-61.9	3.8	8.46e-01	0	51	104	0	59	28599
2026-01-16 20:38:43.68	213.21	2.42	-43.9	-61.9	3.8	8.46e-01	0	51	104	0	59	28616
2026-01-16 20:38:44.69	213.10	2.48	-43.9	-61.9	3.8	8.46e-01	0	52	104	0	59	28595
2026-01-16 20:38:45.70	212.99	2.54	-43.9	-61.9	3.8	8.46e-01	0	52	104	0	59	28640
2026-01-16 20:38:46.71	212.88	2.60	-43.9	-61.9	3.8	8.46e-01	0	52	104	0	59	28653
2026-01-16 20:38:47.72	212.77	2.66	-43.9	-61.9	3.8	8.46e-01	0	52	104	0	59	28570
2026-01-16 20:38:48.73	212.66	2.72	-43.9	-61.9	3.8	8.46e-01	0	52	104	0	59	28511
2026-01-16 20:38:49.74	212.55	2.78	-43.9	-61.9	3.8	8.46e-01	0	52	104	0	59	28616
2026-01-16 20:38:50.75	212.43	2.85	-43.9	-62.0	3.8	8.47e-01	0	52	104	0	59	28695
2026-01-16 20:38:51.76	212.32	2.91	-43.9	-61.9	3.8	8.47e-01	0	52	104	0	59	28568
2026-01-16 20:38:52.77	212.21	2.97	-43.9	-61.9	3.8	8.47e-01	0	52	104	0	59	28525
2026-01-16 20:38:53.78	212.09	3.03	-43.9	-61.9	3.8	8.47e-01	0	52	104	0	59	28519
2026-01-16 20:38:54.79	211.98	3.09	-43.9	-61.9	3.8	8.47e-01	0	52	104	0	59	28661
2026-01-16 20:38:55.80	211.86	3.15	-43.9	-61.9	3.8	8.46e-01	0	52	104	0	59	28582
2026-01-16 20:38:56.82	211.74	3.22	-43.9	-61.9	3.8	8.46e-01	0	52	104	0	59	28515
2026-01-16 20:38:57.83	211.62	3.28	-43.9	-61.9	3.8	8.47e-01	0	52	104	0	59	28522
2026-01-16 20:38:58.84	211.50	3.34	-43.9	-61.9	3.8	8.46e-01	0	52	104	0	59	28534
2026-01-16 20:38:59.85	211.39	3.40	-43.9	-61.9	3.8	8.46e-01	0	53	104	0	59	28530
2026-01-16 20:39:00.86	211.27	3.47	-43.9	-61.9	3.8	8.46e-01	0	53	104	0	59	28558
2026-01-16 20:39:01.87	211.14	3.53	-43.9	-61.9	3.8	8.46e-01	0	53	104	0	59	28520
2026-01-16 20:39:02.88	211.02	3.59	-43.9	-61.9	3.8	8.46e-01	0	53	104	0	59	28465
2026-01-16 20:39:03.89	210.90	3.66	-43.9	-61.9	3.8	8.47e-01	0	53	104	0	59	28570
2026-01-16 20:39:04.90	210.78	3.72	-43.9	-61.9	3.8	8.45e-01	0	53	104	0	59	28596
2026-01-16 20:39:05.91	210.65	3.78	-43.9	-61.9	3.8	8.46e-01	0	53	104	0	59	28454
2026-01-16 20:39:06.92	210.53	3.85	-43.9	-61.9	3.8	8.46e-01	0	53	104	0	59	28517
2026-01-16 20:39:07.93	210.40	3.91	-44.0	-61.9	3.8	8.45e-01	0	53	104	0	59	28567
2026-01-16 20:39:08.94	210.28	3.97	-43.9	-61.9	3.8	8.46e-01	0	53	104	0	59	28516
2026-01-16 20:39:09.95	210.15	4.04	-43.9	-61.9	3.8	8.46e-01	0	53	104	0	59	28591
2026-01-16 20:39:10.97	210.02	4.10	-43.9	-61.9	3.8	8.46e-01	0	53	104	0	59	28488
2026-01-16 20:39:11.97	209.89	4.17	-43.9	-61.9	3.8	8.45e-01	0	53	104	0	59	28528
2026-01-16 20:39:12.98	209.76	4.23	-43.9	-61.9	3.8	8.45e-01	0	53	104	0	59	28426
2026-01-16 20:39:13.99	209.63	4.29	-43.9	-61.9	3.8	8.46e-01	0	54	104	0	59	28474
2026-01-16 20:39:15.00	209.50	4.36	-43.9	-61.9	3.8	8.46e-01	0	54	104	0	59	28439
2026-01-16 20:39:16.02	209.37	4.42	-43.9	-61.9	3.8	8.47e-01	0	53	104	0	59	28369
2026-01-16 20:39:17.03	209.24	4.49	-43.9	-61.9	3.8	8.47e-01	0	54	104	0	59	28436
2026-01-16 20:39:18.04	209.10	4.55	-43.9	-61.9	3.8	8.45e-01	0	54	104	0	59	28424
2026-01-16 20:39:19.05	208.97	4.62	-43.9	-61.9	3.8	8.47e-01	0	54	104	0	59	28367
2026-01-16 20:39:20.06	208.83	4.68	-43.9	-61.9	3.8	8.47e-01	0	54	104	0	59	28487
2026-01-16 20:39:21.07	208.70	4.75	-43.9	-61.9	3.8	8.46e-01	0	54	104	0	59	28571
2026-01-16 20:39:22.08	208.56	4.81	-43.9	-61.9	3.8	8.45e-01	0	54	104	0	59	28496
2026-01-16 20:39:23.09	208.42	4.88	-43.9	-61.9	3.8	8.45e-01	0	54	104	0	59	28376
2026-01-16 20:39:24.10	208.28	4.95	-43.9	-61.8	3.8	8.46e-01	0	54	104	0	59	28286
2026-01-16 20:39:25.11	208.14	5.01	-43.9	-61.8	3.8	8.45e-01	0	54	104	0	59	28113
2026-01-16 20:39:26.12	208.00	5.08	-43.9	-61.7	3.8	8.45e-01	0	54	104	0	59	27752
2026-01-16 20:39:27.14	207.86	5.14	-43.9	-61.7	3.8	8.46e-01	0	54	104	0	59	27716
2026-01-16 20:39:28.15	207.72	5.21	-43.9	-61.6	3.8	8.47e-01	0	54	104	0	59	27596
2026-01-16 20:39:29.16	207.57	5.28	-43.9	-61.6	3.8	8.46e-01	0	54	104	0	59	27545
2026-01-16 20:39:30.17	207.43	5.34	-43.9	-61.6	3.8	8.46e-01	0	54	104	0	59	27629
2026-01-16 20:39:31.18	207.28	5.41	-43.9	-61.7	3.8	8.47e-01	0	54	104	0	59	27937
2026-01-16 20:39:32.19	207.14	5.48	-43.9	-61.8	3.8	8.47e-01	0	55	104	0	59	28216
2026-01-16 20:39:33.20	206.99	5.54	-43.9	-61.9	3.8	8.47e-01	0	55	104	0	59	28363
2026-01-16 20:39:34.21	206.84	5.61	-43.9	-61.9	3.8	8.45e-01	0	55	104	0	59	28445
2026-01-16 20:39:35.22	206.69	5.68	-43.9	-61.8	3.8	8.46e-01	0	54	104	0	59	28258
2026-01-16 20:39:36.23	206.54	5.74	-43.9	-61.9	3.8	8.46e-01	0	54	104	0	59	28429
2026-01-16 20:39:37.24	206.39	5.81	-43.9	-61.7	3.8	8.46e-01	0	55	104	0	59	27961
2026-01-16 20:39:38.25	206.24	5.88	-43.9	-61.6	3.8	8.46e-01	0	55	104	0	59	27632
2026-01-16 20:39:39.27	206.08	5.95	-43.9	-61.4	3.8	8.46e-01	0	55	104	0	59	27072
2026-01-16 20:39:40.28	205.93	6.01	-43.9	-61.2	3.8	8.47e-01	0	55	104	0	59	26186
2026-01-16 20:39:41.29	205.77	6.08	-43.9	-61.1	3.8	8.47e-01	0	55	104	0	59	26123
2026-01-16 20:39:42.30	205.62	6.15	-43.9	-61.1	3.8	8.46e-01	0	55	104	0	59	25880
2026-01-16 20:39:43.31	205.46	6.22	-43.9	-61.0	3.8	8.46e-01	0	55	104	0	59	25663
2026-01-16 20:39:44.32	205.30	6.29	-43.9	-60.8	3.8	8.46e-01	0	55	104	0	59	25006
2026-01-16 20:39:45.33	205.14	6.35	-43.9	-60.6	3.8	8.46e-01	0	55	104	0	59	24509
2026-01-16 20:39:46.34	204.98	6.42	-43.9	-60.5	3.8	8.46e-01	0	55	104	0	59	24184
2026-01-16 20:39:47.35	204.82	6.49	-43.9	-60.0	3.8	8.45e-01	0	55	104	0	59	23027
2026-01-16 20:39:48.36	204.66	6.56	-43.9	-59.9	3.8	8.45e-01	0	55	104	0	59	22629
2026-01-16 20:39:49.37	204.50	6.63	-43.9	-59.7	3.8	8.45e-01	0	55	104	0	59	22230
2026-01-16 20:39:50.38	204.33	6.70	-43.9	-59.5	3.9	8.45e-01	0	55	104	0	59	21619
2026-01-16 20:39:51.40	204.16	6.77	-43.8	-59.2	4.0	8.44e-01	0	55	104	0	59	20950
2026-01-16 20:39:52.41	204.00	6.84	-43.8	-58.7	4.1	8.42e-01	0	55	0	0	59	19784
2026-01-16 20:39:53.42	203.83	6.91	-43.8	-58.1	4.3	8.42e-01	0	55	0	0	59	18322
2026-01-16 20:39:54.43	203.66	6.98	-43.7	-56.3	5.0	8.33e-01	0	56	0	0	59	14974
2026-01-16 20:39:55.44	203.49	7.04	-43.6	-54.7	6.0	7.21e-01	0	55	0	0	59	12491
2026-01-16 20:39:56.45	203.32	7.11	-43.4	-53.4	7.2	7.21e-01	0	55	0	1048576	58	11376
2026-01-16 20:39:57.46	203.15	7.18	-43.2	-52.1	8.5	1.85e-01	0	56	0	2097152	58	9785
2026-01-16 20:39:58.47	202.97	7.25	-43.2	-51.6	9.0	4.26e-02	0	56	0	3145728	58	9229
2026-01-16 20:39:59.48	202.80	7.32	-43.1	-51.4	9.3	4.26e-02	0	56	0	4718592	58	9048
2026-01-16 20:40:00.49	202.62	7.39	-43.1	-51.2	9.4	1.81e-02	0	55	0	5767168	58	8813
2026-01-16 20:40:01.50	202.44	7.46	-43.3	-52.2	8.4	1.60e-02	0	56	0	6815744	58	9889
2026-01-16 20:40:02.51	202.27	7.53	-43.6	-54.7	6.2	1.60e-02	0	56	0	7864320	58	13207
2026-01-16 20:40:03.52	202.09	7.60	-43.9	-59.2	4.0	1.22e-01	0	56	0	8388608	58	22082
2026-01-16 20:40:04.53	201.91	7.67	-43.9	-61.1	3.8	7.89e-01	0	56	104	8388608	58	27509
2026-01-16 20:40:05.54	201.72	7.74	-43.6	-54.5	6.1	7.89e-01	0	56	0	8388608	58	12888
2026-01-16 20:40:06.54	201.54	7.81	-42.9	-50.2	10.2	7.76e-01	0	56	0	9437184	57	8338
2026-01-16 20:40:07.56	201.36	7.88	-42.3	-48.2	12.5	5.61e-02	0	56	0	10485760	56	7010
2026-01-16 20:40:08.57	201.17	7.96	-41.6	-46.6	14.1	2.59e-04	0	56	0	11534336	55	6165
2026-01-16 20:40:09.58	200.98	8.03	-41.4	-46.2	14.5	2.59e-04	0	56	0	12582912	54	6207
2026-01-16 20:40:10.59	200.79	8.10	-41.3	-45.7	15.1	2.20e-06	0	56	0	14155776	54	5878
2026-01-16 20:40:11.60	200.61	8.17	-42.1	-47.6	13.6	1.10e-06	0	56	0	15204352	54	7333
2026-01-16 20:40:12.61	200.41	8.24	-41.7	-46.7	14.4	1.10e-06	0	56	0	16252928	54	6607
2026-01-16 20:40:13.62	200.22	8.31	-41.4	-45.7	15.1	1.77e-03	0	56	0	17301504	54	5856
2026-01-16 20:40:14.63	200.03	8.38	-42.1	-47.8	14.0	3.09e-02	0	56	0	18350080	54	7481
2026-01-16 20:40:15.64	199.83	8.45	-42.6	-49.2	10.3	3.09e-02	0	56	0	18874368	57	7447
2026-01-16 20:40:16.64	199.64	8.52	-41.1	-45.2	15.6	3.80e-01	0	56	0	19922944	54	5577
2026-01-16 20:40:17.65	199.44	8.59	-41.1	-45.2	15.7	1.10e-06	0	56	0	21495808	54	5568
2026-01-16 20:40:18.67	199.24	8.67	-41.1	-45.1	16.0	0.00e+00	0	56	0	22544384	54	5467
2026-01-16 20:40:19.67	199.05	8.74	-41.1	-45.1	15.9	0.00e+00	0	56	0	23592960	54	5504
2026-01-16 20:40:20.68	198.84	8.81	-40.9	-44.8	16.2	0.00e+00	0	56	0	24641536	53	5643
2026-01-16 20:40:21.69	198.64	8.88	-40.9	-44.8	16.3	0.00e+00	0	57	0	25690112	53	5622
2026-01-16 20:40:22.70	198.44	8.95	-41.0	-44.9	16.2	0.00e+00	0	56	0	26738688	53	5667
2026-01-16 20:40:23.71	198.23	9.02	-40.9	-44.6	16.5	0.00e+00	0	57	0	28311552	53	5517
2026-01-16 20:40:24.72	198.03	9.09	-40.8	-44.4	16.7	0.00e+00	0	57	0	29360128	53	5391
2026-01-16 20:40:25.73	197.82	9.17	-40.7	-44.3	16.8	0.00e+00	0	57	0	30408704	53	5320
2026-01-16 20:40:26.74	197.61	9.24	-40.7	-44.3	16.8	0.00e+00	0	56	0	31457280	53	5328
2026-01-16 20:40:27.75	197.40	9.31	-40.6	-44.2	17.0	0.00e+00	0	57	0	32505856	53	5227
2026-01-16 20:40:28.76	197.18	9.38	-40.6	-44.1	17.1	0.00e+00	0	57	0	33554432	53	5169
2026-01-16 20:40:29.76	196.97	9.45	-40.6	-44.0	17.2	0.00e+00	0	57	0	34603008	53	5131
2026-01-16 20:40:30.77	196.76	9.52	-40.7	-44.2	17.0	0.00e+00	0	57	0	36175872	53	5261
2026-01-16 20:40:31.78	196.54	9.59	-40.8	-44.4	16.8	0.00e+00	0	57	0	37224448	53	5359
2026-01-16 20:40:32.79	196.32	9.67	-40.9	-44.5	16.7	0.00e+00	0	57	0	38273024	53	5440
2026-01-16 20:40:33.80	196.10	9.74	-41.0	-44.7	16.6	0.00e+00	0	57	0	39321600	53	5551
2026-01-16 20:40:34.81	195.88	9.81	-40.9	-44.6	16.5	0.00e+00	0	57	0	40370176	53	5527
2026-01-16 20:40:35.82	195.66	9.88	-40.9	-44.6	16.6	0.00e+00	0	57	0	41418752	53	5523
2026-01-16 20:40:36.83	195.44	9.95	-40.9	-44.6	16.6	0.00e+00	0	57	0	42991616	53	5507
2026-01-16 20:40:37.84	195.21	10.03	-40.8	-44.4	16.9	0.00e+00	0	57	0	44040192	53	5357
2026-01-16 20:40:38.85	194.98	10.10	-40.7	-44.2	17.1	0.00e+00	0	57	0	45088768	53	5236
2026-01-16 20:40:39.86	194.76	10.17	-40.5	-43.8	17.4	0.00e+00	0	57	0	46137344	53	5037
2026-01-16 20:40:40.87	194.53	10.24	-40.4	-43.7	17.6	0.00e+00	0	57	0	47185920	52	5225
2026-01-16 20:40:41.88	194.29	10.31	-40.3	-43.4	17.9	0.00e+00	0	57	0	48234496	52	5077
2026-01-16 20:40:42.89	194.06	10.38	-40.3	-43.5	17.8	0.00e+00	0	57	0	49807360	52	5153
2026-01-16 20:40:43.89	193.83	10.45	-40.4	-43.7	17.7	0.00e+00	0	57	0	50855936	52	5232
2026-01-16 20:40:44.90	193.59	10.53	-40.5	-43.8	17.6	0.00e+00	0	57	0	51904512	52	5288
2026-01-16 20:40:45.91	193.36	10.60	-40.4	-43.6	17.7	0.00e+00	0	57	0	52953088	52	5217
2026-01-16 20:40:46.92	193.12	10.67	-40.6	-44.0	17.4	0.00e+00	0	57	0	54001664	52	5404
2026-01-16 20:40:47.92	192.88	10.74	-40.7	-44.2	17.2	0.00e+00	0	57	0	55050240	52	5533
2026-01-16 20:40:48.93	192.64	10.81	-40.7	-44.2	17.2	0.00e+00	0	57	0	56623104	52	5540
2026-01-16 20:40:49.94	192.39	10.88	-40.7	-44.1	17.3	0.00e+00	0	57	0	57671680	52	5479
2026-01-16 20:40:50.95	192.15	10.95	-40.6	-43.9	17.4	0.00e+00	0	57	0	58720256	52	5379
2026-01-16 20:40:51.96	191.90	11.02	-40.5	-43.7	17.7	0.00e+00	0	57	0	59768832	52	5262
2026-01-16 20:40:52.97	191.65	11.09	-40.4	-43.5	17.9	0.00e+00	0	57	0	60817408	52	5146
2026-01-16 20:40:53.98	191.40	11.16	-40.2	-43.3	18.1	0.00e+00	0	57	0	61865984	52	5006
2026-01-16 20:40:54.99	191.15	11.23	-40.2	-43.2	18.2	0.00e+00	0	57	0	63438848	52	4983
2026-01-16 20:40:56.00	190.90	11.31	-40.2	-43.3	18.1	0.00e+00	0	57	0	64487424	52	4994
2026-01-16 20:40:57.01	190.64	11.38	-40.1	-43.1	18.3	0.00e+00	0	57	0	65536000	52	4919
2026-01-16 20:40:58.02	190.38	11.45	-40.1	-43.1	18.3	0.00e+00	0	57	0	66584576	52	4902
2026-01-16 20:40:59.03	190.13	11.52	-40.2	-43.2	18.2	0.00e+00	0	57	0	67633152	52	4971
2026-01-16 20:41:00.03	189.87	11.59	-40.3	-43.3	18.0	0.00e+00	0	57	0	68681728	52	5027
2026-01-16 20:41:01.05	189.60	11.66	-40.3	-43.3	18.1	0.00e+00	0	57	0	70254592	52	5040
2026-01-16 20:41:02.06	189.34	11.73	-40.3	-43.4	18.0	0.00e+00	0	57	0	71303168	52	5067
2026-01-16 20:41:03.07	189.08	11.79	-40.4	-43.6	17.9	0.00e+00	0	57	0	72351744	52	5162
2026-01-16 20:41:04.07	188.81	11.86	-40.4	-43.6	17.8	0.00e+00	0	57	0	73400320	52	5177
2026-01-16 20:41:05.08	188.54	11.93	-40.4	-43.6	17.8	0.00e+00	0	57	0	74448896	52	5216
2026-01-16 20:41:06.09	188.27	12.00	-40.4	-43.7	17.8	0.00e+00	0	57	0	75497472	52	5223
2026-01-16 20:41:07.10	188.00	12.07	-40.3	-43.5	17.9	0.00e+00	0	57	0	77070336	52	5113
2026-01-16 20:41:08.11	187.73	12.14	-40.1	-43.2	18.3	0.00e+00	0	57	0	78118912	52	4929
2026-01-16 20:41:09.12	187.46	12.21	-40.1	-43.0	18.4	0.00e+00	0	57	0	79167488	52	4858
2026-01-16 20:41:10.13	187.18	12.27	-40.1	-43.1	18.3	0.00e+00	0	57	0	80216064	52	4890
2026-01-16 20:41:11.14	186.90	12.34	-40.0	-43.0	18.4	0.00e+00	0	57	0	81264640	52	4845
2026-01-16 20:41:12.15	186.62	12.41	-40.1	-43.0	18.5	0.00e+00	0	57	0	82313216	51	5137
2026-01-16 20:41:13.16	186.34	12.48	-40.1	-43.0	18.5	0.00e+00	0	58	0	83886080	51	5135
2026-01-16 20:41:14.17	186.06	12.54	-40.2	-43.2	18.4	0.00e+00	0	58	0	84934656	51	5240
2026-01-16 20:41:15.18	185.77	12.61	-40.1	-43.0	18.5	0.00e+00	0	57	0	85983232	51	5158
2026-01-16 20:41:16.19	185.48	12.68	-40.2	-43.2	18.3	0.00e+00	0	58	0	87031808	51	5262
2026-01-16 20:41:17.20	185.20	12.74	-40.3	-43.4	18.2	0.00e+00	0	58	0	88080384	51	5355
2026-01-16 20:41:18.21	184.91	12.81	-40.6	-43.8	17.8	0.00e+00	0	58	0	89128960	51	5613
2026-01-16 20:41:19.21	184.62	12.87	-40.6	-43.8	17.7	0.00e+00	0	58	0	90701824	51	5647
2026-01-16 20:41:20.23	184.32	12.94	-40.5	-43.7	17.8	0.00e+00	0	58	0	91750400	51	5563
2026-01-16 20:41:21.24	184.03	13.00	-40.5	-43.6	17.9	0.00e+00	0	58	0	92798976	51	5495
2026-01-16 20:41:22.24	183.73	13.07	-40.5	-43.6	17.9	0.00e+00	0	58	0	93847552	51	5496
2026-01-16 20:41:23.25	183.43	13.13	-40.2	-43.2	18.3	0.00e+00	0	58	0	94896128	51	5269
2026-01-16 20:41:24.26	183.13	13.20	-40.1	-43.1	18.5	0.00e+00	0	58	0	95944704	51	5165
2026-01-16 20:41:25.27	182.83	13.26	-39.8	-42.6	18.9	0.00e+00	0	58	0	97517568	51	4913
2026-01-16 20:41:26.28	182.53	13.32	-39.7	-42.4	19.1	0.00e+00	0	58	0	98566144	51	4785
2026-01-16 20:41:27.29	182.22	13.38	-39.5	-42.2	19.4	0.00e+00	0	58	0	99614720	51	4672
2026-01-16 20:41:28.30	181.92	13.45	-39.7	-42.4	19.1	0.00e+00	0	58	0	100663296	51	4792
2026-01-16 20:41:29.31	181.61	13.51	-39.6	-42.3	19.2	0.00e+00	0	58	0	101711872	51	4739
2026-01-16 20:41:30.32	181.30	13.57	-39.7	-42.5	19.0	0.00e+00	0	58	0	102760448	51	4839
2026-01-16 20:41:31.33	180.99	13.63	-39.8	-42.6	19.0	0.00e+00	0	58	0	104333312	51	4883
2026-01-16 20:41:32.33	180.68	13.69	-39.8	-42.7	18.8	0.00e+00	0	58	0	105381888	51	4928
2026-01-16 20:41:33.34	180.36	13.75	-39.8	-42.5	19.0	0.00e+00	0	58	0	106430464	51	4855
2026-01-16 20:41:34.35	180.05	13.81	-39.8	-42.5	19.0	0.00e+00	0	58	0	107479040	51	4864
2026-01-16 20:41:35.36	179.73	13.87	-39.7	-42.5	19.1	0.00e+00	0	58	0	108527616	51	4827
2026-01-16 20:41:36.37	179.41	13.93	-39.7	-42.5	19.0	0.00e+00	0	58	0	109576192	51	4847
2026-01-16 20:41:37.38	179.09	13.98	-39.7	-42.5	19.1	0.00e+00	0	58	0	111149056	51	4819
2026-01-16 20:41:38.39	178.76	14.04	-39.8	-42.5	19.0	0.00e+00	0	58	0	112197632	51	4869
2026-01-16 20:41:39.40	178.44	14.10	-39.9	-42.7	18.8	0.00e+00	0	58	0	113246208	51	4951
2026-01-16 20:41:40.41	178.11	14.16	-39.8	-42.6	19.0	0.00e+00	0	58	0	114294784	51	4900
2026-01-16 20:41:41.42	177.78	14.21	-40.0	-43.0	18.6	0.00e+00	0	58	0	115343360	51	5109
2026-01-16 20:41:42.42	177.46	14.27	-40.0	-42.9	18.6	0.00e+00	0	58	0	116391936	51	5098
2026-01-16 20:41:43.43	177.13	14.32	-40.2	-43.2	18.4	0.00e+00	0	58	0	117964800	51	5230
2026-01-16 20:41:44.44	176.79	14.37	-40.1	-43.0	18.5	0.00e+00	0	58	0	119013376	51	5149
2026-01-16 20:41:45.45	176.46	14.43	-40.0	-42.9	18.7	0.00e+00	0	58	0	120061952	51	5047
2026-01-16 20:41:46.46	176.12	14.48	-40.0	-42.9	18.7	0.00e+00	0	58	0	121110528	51	5067
2026-01-16 20:41:47.47	175.79	14.53	-39.9	-42.7	18.8	0.00e+00	0	58	0	122159104	51	4974
2026-01-16 20:41:48.48	175.45	14.58	-40.0	-42.8	18.8	0.00e+00	0	58	0	123207680	51	4997
2026-01-16 20:41:49.49	175.11	14.64	-39.9	-42.6	19.0	0.00e+00	0	58	0	124780544	51	4912
2026-01-16 20:41:50.50	174.77	14.69	-39.9	-42.7	18.9	0.00e+00	0	58	0	125829120	51	4934
2026-01-16 20:41:51.51	174.42	14.74	-39.9	-42.8	18.8	0.00e+00	0	58	0	126877696	51	4988
2026-01-16 20:41:52.52	174.08	14.78	-39.9	-42.6	19.0	0.00e+00	0	58	0	127926272	51	4921
2026-01-16 20:41:53.53	173.73	14.83	-40.3	-43.1	18.9	0.00e+00	0	58	0	128974848	51	5187
2026-01-16 20:41:54.54	173.39	14.88	-39.9	-42.7	19.1	0.00e+00	0	58	0	130023424	51	4941
2026-01-16 20:41:55.54	173.04	14.93	-39.9	-42.7	19.1	0.00e+00	0	58	0	131596288	51	4931
2026-01-16 20:41:56.55	172.69	14.97	-39.9	-42.6	19.1	0.00e+00	0	58	0	132644864	51	4917
2026-01-16 20:41:57.56	172.34	15.02	-39.9	-42.7	19.0	0.00e+00	0	58	0	133693440	51	4952
2026-01-16 20:41:58.57	171.99	15.06	-39.9	-42.7	19.0	0.00e+00	0	58	0	134742016	51	4948
2026-01-16 20:41:59.58	171.63	15.11	-39.8	-42.5	19.2	0.00e+00	0	58	0	135790592	51	4860
2026-01-16 20:42:00.59	171.28	15.15	-39.8	-42.4	19.3	0.00e+00	0	58	0	136839168	51	4804
2026-01-16 20:42:01.60	170.92	15.19	-39.7	-42.3	19.4	0.00e+00	0	58	0	138412032	51	4735
2026-01-16 20:42:02.61	170.56	15.23	-39.5	-42.0	19.6	0.00e+00	0	58	0	139460608	51	4589
2026-01-16 20:42:03.62	170.20	15.27	-39.5	-42.1	19.6	0.00e+00	0	58	0	140509184	50	4890
2026-01-16 20:42:04.63	169.84	15.31	-39.5	-42.0	19.7	0.00e+00	0	58	0	141557760	50	4844
2026-01-16 20:42:05.64	169.48	15.35	-39.5	-42.0	19.8	0.00e+00	0	58	0	142606336	50	4819
2026-01-16 20:42:06.65	169.12	15.39	-39.6	-42.1	19.7	0.00e+00	0	58	0	143654912	50	4903
2026-01-16 20:42:07.66	168.75	15.43	-39.7	-42.3	19.5	0.00e+00	0	59	0	145227776	50	5014
2026-01-16 20:42:08.67	168.39	15.46	-39.9	-42.5	19.3	0.00e+00	0	58	0	146276352	50	5139
2026-01-16 20:42:09.68	168.02	15.50	-39.8	-42.4	19.4	0.00e+00	0	58	0	147324928	50	5083
2026-01-16 20:42:10.69	167.66	15.53	-39.9	-42.6	19.2	0.00e+00	0	58	0	148373504	50	5213
2026-01-16 20:42:11.70	167.29	15.57	-40.0	-42.7	19.2	0.00e+00	0	58	0	149422080	50	5225
2026-01-16 20:42:12.71	166.92	15.60	-40.0	-42.8	19.1	0.00e+00	0	58	0	150470656	50	5280
2026-01-16 20:42:13.72	166.55	15.63	-39.9	-42.6	19.3	0.00e+00	0	58	0	152043520	50	5188
2026-01-16 20:42:14.73	166.18	15.66	-39.9	-42.5	19.3	0.00e+00	0	58	0	153092096	50	5147
2026-01-16 20:42:15.74	165.80	15.69	-39.8	-42.4	19.4	0.00e+00	0	58	0	154140672	50	5097
2026-01-16 20:42:16.75	165.43	15.72	-39.8	-42.4	19.5	0.00e+00	0	58	0	155189248	50	5098
2026-01-16 20:42:17.76	165.06	15.75	-39.7	-42.2	19.6	0.00e+00	0	59	0	156237824	50	4979
2026-01-16 20:42:18.77	164.68	15.77	-39.6	-42.1	19.7	0.00e+00	0	58	0	157286400	50	4922
2026-01-16 20:42:19.78	164.31	15.80	-39.6	-42.1	19.8	0.00e+00	0	58	0	158859264	50	4885
2026-01-16 20:42:20.79	163.93	15.83	-39.5	-42.0	19.8	0.00e+00	0	58	0	159907840	50	4858
2026-01-16 20:42:21.80	163.55	15.85	-39.5	-42.0	19.9	0.00e+00	0	59	0	160956416	50	4848
2026-01-16 20:42:22.81	163.17	15.87	-39.6	-42.1	19.8	0.00e+00	0	59	0	162004992	50	4894
2026-01-16 20:42:23.82	162.80	15.89	-39.7	-42.3	19.6	0.00e+00	0	58	0	163053568	50	5024
2026-01-16 20:42:24.82	162.42	15.92	-39.8	-42.4	19.5	0.00e+00	0	58	0	164102144	50	5087
2026-01-16 20:42:25.83	162.04	15.94	-39.9	-42.5	19.4	0.00e+00	0	58	0	165675008	50	5148
2026-01-16 20:42:26.84	161.66	15.95	-39.9	-42.6	19.3	0.00e+00	0	58	0	166723584	50	5177
2026-01-16 20:42:27.85	161.28	15.97	-40.0	-42.8	19.1	0.00e+00	0	58	0	167772160	50	5298
2026-01-16 20:42:28.86	160.90	15.99	-40.0	-42.8	19.2	0.00e+00	0	59	0	168820736	50	5280
2026-01-16 20:42:29.87	160.51	16.01	-40.0	-42.8	19.2	0.00e+00	0	58	0	169869312	50	5298
2026-01-16 20:42:30.88	160.13	16.02	-40.0	-42.7	19.3	0.00e+00	0	58	0	170917888	50	5244
2026-01-16 20:42:31.89	159.75	16.03	-40.0	-42.7	19.2	0.00e+00	0	59	0	172490752	50	5269
2026-01-16 20:42:32.90	159.36	16.05	-39.9	-42.6	19.4	0.00e+00	0	58	0	173539328	50	5182
2026-01-16 20:42:33.92	158.98	16.06	-39.6	-42.2	19.7	0.00e+00	0	58	0	174587904	50	4982
2026-01-16 20:42:34.93	158.59	16.07	-39.5	-42.0	19.9	0.00e+00	0	59	0	175636480	50	4866
2026-01-16 20:42:35.94	158.21	16.08	-39.3	-41.8	20.1	0.00e+00	0	59	0	176685056	50	4717
2026-01-16 20:42:36.94	157.83	16.09	-39.1	-41.5	20.4	0.00e+00	0	59	0	177733632	50	4574
2026-01-16 20:42:37.95	157.44	16.10	-39.1	-41.4	20.5	0.00e+00	0	59	0	179306496	50	4538
2026-01-16 20:42:38.96	157.06	16.10	-39.0	-41.4	20.5	0.00e+00	0	59	0	180355072	49	4803
2026-01-16 20:42:39.97	156.67	16.11	-39.2	-41.6	20.2	0.00e+00	0	58	0	181403648	49	4922
2026-01-16 20:42:40.98	156.28	16.11	-39.3	-41.8	20.2	0.00e+00	0	59	0	182452224	49	4992
2026-01-16 20:42:41.99	155.90	16.11	-39.4	-41.9	20.0	0.00e+00	0	59	0	183500800	49	5099
2026-01-16 20:42:43.00	155.51	16.12	-39.5	-42.0	19.9	0.00e+00	0	59	0	184549376	49	5137
2026-01-16 20:42:44.01	155.13	16.12	-39.4	-41.9	20.0	0.00e+00	0	59	0	186122240	49	5096
2026-01-16 20:42:45.02	154.74	16.12	-39.4	-42.0	19.9	0.00e+00	0	59	0	187170816	49	5127
2026-01-16 20:42:46.03	154.35	16.12	-39.4	-41.9	20.1	0.00e+00	0	59	0	188219392	49	5067
2026-01-16 20:42:47.04	153.97	16.11	-39.3	-41.8	20.1	0.00e+00	0	59	0	189267968	49	5022
2026-01-16 20:42:48.05	153.58	16.11	-39.3	-41.8	20.1	0.00e+00	0	59	0	190316544	49	5019
2026-01-16 20:42:49.06	153.20	16.11	-39.3	-41.9	20.0	0.00e+00	0	59	0	191365120	49	5070
2026-01-16 20:42:50.06	152.82	16.10	-39.5	-42.1	19.9	0.00e+00	0	59	0	192937984	49	5168
2026-01-16 20:42:51.07	152.43	16.10	-39.5	-42.1	19.8	0.00e+00	0	59	0	193986560	49	5211
2026-01-16 20:42:52.08	152.04	16.09	-39.5	-42.1	19.9	0.00e+00	0	59	0	195035136	49	5163
2026-01-16 20:42:53.09	151.66	16.08	-39.4	-42.0	19.9	0.00e+00	0	59	0	196083712	49	5108
2026-01-16 20:42:54.10	151.28	16.07	-39.4	-42.0	20.0	0.00e+00	0	59	0	197132288	49	5107
2026-01-16 20:42:55.11	150.89	16.06	-39.4	-41.9	20.0	0.00e+00	0	59	0	198180864	49	5070
2026-01-16 20:42:56.12	150.51	16.05	-39.3	-41.9	20.0	0.00e+00	0	59	0	199753728	49	5060
2026-01-16 20:42:57.13	150.12	16.03	-39.3	-41.8	20.1	0.00e+00	0	59	0	200802304	49	5014
2026-01-16 20:42:58.14	149.74	16.02	-39.3	-41.9	20.1	0.00e+00	0	59	0	201850880	49	5048
2026-01-16 20:42:59.15	149.36	16.01	-39.3	-41.7	20.1	0.00e+00	0	59	0	202899456	49	4955
2026-01-16 20:43:00.16	148.98	15.99	-39.3	-41.8	20.1	0.00e+00	0	59	0	203948032	49	5007
2026-01-16 20:43:01.17	148.60	15.97	-39.4	-41.9	19.9	0.00e+00	0	59	0	204996608	49	5096
2026-01-16 20:43:02.18	148.21	15.95	-39.5	-42.1	19.8	0.00e+00	0	59	0	206569472	49	5171
2026-01-16 20:43:03.19	147.83	15.94	-39.7	-42.4	19.5	0.00e+00	0	59	0	207618048	49	5374
2026-01-16 20:43:04.20	147.46	15.92	-39.8	-42.6	19.3	0.00e+00	0	59	0	208666624	50	5166
2026-01-16 20:43:05.21	147.08	15.89	-39.9	-42.6	19.5	0.00e+00	0	59	0	209715200	50	5186
2026-01-16 20:43:06.22	146.70	15.87	-39.8	-42.5	19.5	0.00e+00	0	59	0	210763776	50	5147
2026-01-16 20:43:07.23	146.32	15.85	-39.7	-42.3	19.7	0.00e+00	0	59	0	211812352	50	5030
2026-01-16 20:43:08.24	145.94	15.82	-39.6	-42.2	19.8	0.00e+00	0	59	0	212860928	50	4966
2026-01-16 20:43:09.24	145.57	15.80	-38.8	-42.0	19.9	1.48e-05	0	59	0	214433792	49	5159
2026-01-16 20:43:10.25	145.20	15.77	-39.5	-42.0	19.9	1.48e-05	0	59	0	215482368	49	5156
2026-01-16 20:43:11.26	144.82	15.75	-39.4	-42.0	19.8	2.20e-06	0	59	0	216530944	49	5150
2026-01-16 20:43:12.27	144.45	15.72	-39.4	-41.9	20.0	8.00e-06	0	59	0	217579520	49	5095
2026-01-16 20:43:13.28	144.08	15.69	-39.5	-42.1	19.8	8.00e-06	0	59	0	218628096	49	5218
2026-01-16 20:43:14.29	143.70	15.66	-39.6	-42.2	19.7	2.20e-06	0	59	0	220200960	49	5267
2026-01-16 20:43:15.30	143.33	15.63	-39.7	-42.3	19.6	1.83e-05	0	59	0	221249536	49	5336
2026-01-16 20:43:16.31	142.96	15.60	-39.8	-42.5	19.5	0.00e+00	0	59	0	222298112	50	5143
2026-01-16 20:43:17.32	142.60	15.57	-39.7	-42.4	19.6	0.00e+00	0	59	0	223346688	50	5049
2026-01-16 20:43:18.33	142.23	15.53	-39.5	-42.1	19.8	2.20e-06	0	59	0	224395264	49	5186
2026-01-16 20:43:19.34	141.86	15.50	-39.4	-41.9	19.9	1.10e-06	0	59	0	225443840	49	5097
2026-01-16 20:43:20.35	141.50	15.46	-39.3	-41.8	20.1	1.10e-06	0	59	0	227016704	49	4993
2026-01-16 20:43:21.36	141.13	15.43	-39.3	-41.8	20.1	0.00e+00	0	59	0	228065280	49	5014
2026-01-16 20:43:22.37	140.77	15.39	-39.5	-42.2	19.7	0.00e+00	0	59	0	229113856	49	5221
2026-01-16 20:43:23.38	140.41	15.35	-39.8	-42.6	19.3	0.00e+00	0	59	0	230162432	50	5177
2026-01-16 20:43:24.39	140.05	15.31	-39.8	-42.6	19.3	0.00e+00	0	59	0	231211008	50	5197
2026-01-16 20:43:25.39	139.69	15.27	-39.8	-42.5	19.4	0.00e+00	0	59	0	232259584	50	5111
2026-01-16 20:43:26.40	139.33	15.23	-39.5	-42.2	19.7	0.00e+00	0	59	0	233832448	50	4948
2026-01-16 20:43:27.41	138.98	15.19	-39.3	-41.8	20.0	0.00e+00	0	59	0	234881024	50	4748
2026-01-16 20:43:28.42	138.62	15.15	-39.2	-41.8	20.0	0.00e+00	0	59	0	235929600	49	4995
2026-01-16 20:43:29.43	138.27	15.11	-39.3	-41.8	19.3	3.77e-05	0	59	0	236978176	49	5010
2026-01-16 20:43:30.44	137.91	15.06	-39.1	-42.0	19.3	3.77e-05	0	59	0	238026752	49	5126
2026-01-16 20:43:31.45	137.56	15.02	-40.1	-42.6	18.9	2.55e-04	0	59	0	239075328	49	5517
2026-01-16 20:43:32.46	137.21	14.97	-39.5	-42.5	18.1	1.82e-03	0	59	0	240648192	49	5455
2026-01-16 20:43:33.47	136.86	14.93	-38.3	-42.8	9.9	1.82e-03	0	59	0	241696768	42	8374
2026-01-16 20:43:34.48	136.51	14.88	-36.9	-43.0	17.1	2.20e-02	0	59	0	242745344	48	6073
2026-01-16 20:43:35.49	136.17	14.83	-39.3	-42.4	17.3	3.09e-02	0	59	0	243793920	49	5362
2026-01-16 20:43:36.50	135.82	14.79	-36.2	-42.1	16.3	3.09e-02	0	59	0	244842496	47	5799
2026-01-16 20:43:37.51	135.48	14.74	-35.8	-41.7	15.6	5.17e-02	0	59	0	245891072	46	5859
2026-01-16 20:43:38.52	135.14	14.69	-38.4	-42.1	14.8	6.46e-02	0	59	0	246939648	46	6176
2026-01-16 20:43:39.53	134.80	14.64	-39.0	-42.3	16.5	6.46e-02	0	59	0	247988224	48	5641
2026-01-16 20:43:40.54	134.46	14.59	-39.2	-42.3	16.2	9.87e-02	0	59	0	249036800	48	5622
2026-01-16 20:43:41.55	134.12	14.54	-39.0	-42.3	15.4	6.18e-02	0	59	0	250085376	48	5651
2026-01-16 20:43:42.56	133.78	14.48	-31.8	-42.5	15.2	5.40e-02	0	59	0	251133952	48	5772
2026-01-16 20:43:43.57	133.45	14.43	-37.8	-43.0	15.9	5.40e-02	0	59	0	252182528	49	5728
2026-01-16 20:43:44.57	133.12	14.38	-31.7	-42.3	14.9	6.60e-02	0	59	0	253231104	46	6322
2026-01-16 20:43:45.59	132.79	14.32	-34.3	-42.5	15.3	4.20e-02	0	59	0	254279680	46	6421
2026-01-16 20:43:46.59	132.46	14.27	-37.3	-41.7	14.7	4.20e-02	0	59	0	255328256	44	6632
2026-01-16 20:43:47.61	132.13	14.21	-38.8	-42.4	14.8	7.04e-02	0	59	0	256376832	47	6010
2026-01-16 20:43:48.62	131.80	14.16	-37.7	-41.9	14.4	7.25e-02	0	59	0	257425408	45	6375
2026-01-16 20:43:49.63	131.48	14.10	-36.8	-41.6	13.8	7.25e-02	0	59	0	258473984	44	6541
2026-01-16 20:43:50.63	131.16	14.05	-36.9	-42.1	12.8	1.48e-01	0	59	0	259522560	43	7320
2026-01-16 20:43:51.64	130.83	13.99	-34.8	-41.3	8.9	1.26e-01	0	59	0	260571136	41	7498
2026-01-16 20:43:52.65	130.51	13.93	-35.6	-42.2	12.0	1.26e-01	0	59	0	261619712	42	7832
2026-01-16 20:43:53.66	130.19	13.87	-35.8	-42.3	10.7	1.24e-01	0	59	0	262668288	39	9479
2026-01-16 20:43:54.67	129.88	13.81	-34.2	-42.8	10.7	1.62e-01	0	59	0	263716864	40	9435
2026-01-16 20:43:55.68	129.56	13.76	-34.2	-42.9	11.6	1.31e-01	0	59	0	264765440	41	9063
2026-01-16 20:43:56.69	129.25	13.70	-32.7	-42.6	10.4	1.31e-01	0	59	0	265814016	36	11570
2026-01-16 20:43:57.70	128.94	13.64	-33.9	-42.5	10.5	1.92e-01	0	59	0	266862592	38	10217
2026-01-16 20:43:58.71	128.63	13.58	-35.4	-42.3	10.7	2.17e-01	0	59	0	267911168	40	8937
2026-01-16 20:43:59.72	128.32	13.51	-33.4	-42.8	11.7	2.17e-01	0	59	0	268959744	39	9964
2026-01-16 20:44:00.73	128.01	13.45	-33.2	-42.5	10.9	1.39e-01	0	59	0	270008320	38	10228
2026-01-16 20:44:01.74	127.71	13.39	-34.0	-42.1	11.2	1.80e-01	0	59	0	271056896	39	9251
2026-01-16 20:44:02.75	127.40	13.33	-32.6	-41.8	11.4	1.80e-01	0	59	0	272105472	41	7913
2026-01-16 20:44:03.76	127.10	13.27	-33.2	-42.3	11.6	1.53e-01	0	59	0	272629760	43	7498
2026-01-16 20:44:04.77	126.80	13.20	-34.4	-42.3	11.7	1.71e-01	0	59	0	273678336	42	7904
2026-01-16 20:44:05.78	126.50	13.14	-35.8	-42.9	11.8	1.71e-01	0	59	0	274726912	43	8061
2026-01-16 20:44:06.79	126.20	13.08	-35.2	-43.1	11.2	1.43e-01	0	59	0	275775488	44	7763
2026-01-16 20:44:07.80	125.91	13.01	-36.2	-42.7	12.0	1.19e-01	0	59	0	276824064	42	8328
2026-01-16 20:44:08.80	125.62	12.95	-37.7	-43.1	12.4	9.81e-02	0	59	0	277872640	42	8736
2026-01-16 20:44:09.81	125.32	12.88	-33.0	-42.1	12.9	9.81e-02	0	59	0	278921216	41	8201
2026-01-16 20:44:10.82	125.03	12.82	-35.4	-41.9	13.1	1.11e-01	0	59	0	279969792	42	7550
2026-01-16 20:44:11.83	124.75	12.75	-34.1	-42.3	11.5	8.88e-02	0	59	0	281018368	39	9450
2026-01-16 20:44:12.84	124.46	12.69	-26.9	-40.6	12.3	8.88e-02	0	60	0	282591232	26	16433
2026-01-16 20:44:13.85	124.17	12.62	-33.7	-42.4	9.5	6.43e-02	0	59	0	283639808	24	22699
2026-01-16 20:44:14.86	123.89	12.55	-22.4	-40.5	9.6	9.84e-02	0	59	0	284688384	16	29002
2026-01-16 20:44:15.87	123.61	12.49	-22.6	-40.3	8.7	9.84e-02	0	60	0	285736960	16	28304
2026-01-16 20:44:16.88	123.33	12.42	-26.9	-41.8	8.7	1.45e-01	0	59	0	286261248	28	16720
2026-01-16 20:44:17.89	123.05	12.35	-34.4	-41.9	11.3	1.78e-01	0	59	0	287834112	34	11981
2026-01-16 20:44:18.90	122.77	12.29	-26.0	-41.5	7.9	1.78e-01	0	59	0	288882688	26	18256
2026-01-16 20:44:19.91	122.50	12.22	-31.6	-42.4	8.1	1.10e-01	0	59	0	289406976	31	15173
2026-01-16 20:44:20.92	122.22	12.15	-27.8	-42.1	7.2	2.75e-01	0	59	0	290455552	27	18406
2026-01-16 20:44:21.93	121.95	12.08	-33.0	-43.2	7.7	2.65e-01	0	59	0	291504128	34	14020
2026-01-16 20:44:22.94	121.68	12.01	-30.1	-42.7	3.6	2.65e-01	0	60	104	292028416	31	15728
2026-01-16 20:44:23.95	121.41	11.95	-30.6	-42.2	4.1	4.89e-01	0	59	104	292028416	33	13170
2026-01-16 20:44:24.96	121.15	11.88	-31.1	-42.2	8.3	4.82e-01	0	59	0	292028416	33	13224
2026-01-16 20:44:25.97	120.88	11.81	-27.2	-40.5	8.5	4.82e-01	0	59	0	293076992	30	12910
2026-01-16 20:44:26.98	120.62	11.74	-29.4	-40.9	8.0	4.31e-01	0	60	0	293601280	29	14341
2026-01-16 20:44:27.99	120.36	11.67	-28.0	-41.5	9.2	2.96e-01	0	59	0	294649856	30	14466
2026-01-16 20:44:29.00	120.10	11.60	-38.4	-43.4	10.0	2.96e-01	0	60	0	295698432	38	11309
2026-01-16 20:44:30.01	119.84	11.53	-36.2	-42.9	6.9	1.23e-01	0	60	0	296747008	33	14297
2026-01-16 20:44:31.02	119.58	11.46	-30.0	-41.0	8.1	3.37e-01	0	59	0	297271296	30	13696
2026-01-16 20:44:32.03	119.33	11.39	-23.3	-38.7	8.3	3.37e-01	0	60	104	297271296	24	14712
2026-01-16 20:44:33.03	119.07	11.32	-34.3	-42.1	7.7	5.87e-01	0	59	0	297271296	32	13807
2026-01-16 20:44:34.04	118.82	11.25	-30.2	-42.6	8.9	4.69e-01	0	60	0	298319872	36	11595
2026-01-16 20:44:35.05	118.57	11.18	-28.3	-41.3	7.7	3.02e-01	0	59	0	298844160	29	14977
2026-01-16 20:44:36.06	118.32	11.11	-29.4	-42.5	6.3	3.02e-01	0	59	0	299892736	28	18096
2026-01-16 20:44:37.07	118.08	11.04	-28.7	-43.9	5.3	3.57e-01	0	59	104	300417024	26	23932
2026-01-16 20:44:38.08	117.83	10.97	-19.9	-38.1	4.3	6.43e-01	0	59	104	300417024	24	13842
2026-01-16 20:44:39.10	117.58	10.90	-29.3	-42.8	7.7	6.43e-01	0	59	0	300417024	31	15861
2026-01-16 20:44:40.11	117.34	10.83	-29.3	-43.5	7.4	6.75e-01	0	60	0	300941312	32	16191
2026-01-16 20:44:41.11	117.10	10.76	-19.7	-38.8	5.6	4.74e-01	0	60	0	301465600	24	15040
2026-01-16 20:44:42.13	116.86	10.69	-26.9	-41.2	4.3	4.74e-01	0	59	104	301465600	20	24792
2026-01-16 20:44:43.14	116.62	10.61	-26.4	-42.0	6.1	7.20e-01	0	59	104	301465600	25	20470
2026-01-16 20:44:44.15	116.39	10.54	-18.5	-37.2	3.8	7.41e-01	0	59	104	301465600	12	24772
2026-01-16 20:44:45.16	116.15	10.47	-27.0	-44.0	5.1	7.56e-01	0	59	104	301465600	23	28737
2026-01-16 20:44:46.17	115.92	10.40	-26.2	-42.9	4.4	7.56e-01	0	59	104	301465600	25	22570
2026-01-16 20:44:47.18	115.69	10.33	-21.8	-42.2	4.7	7.66e-01	0	59	0	301465600	18	31381
2026-01-16 20:44:48.18	115.46	10.26	-25.6	-42.8	5.5	6.94e-01	0	59	0	301465600	24	23752
2026-01-16 20:44:49.19	115.23	10.19	-27.0	-45.3	4.0	6.94e-01	0	59	104	301465600	23	33409
2026-01-16 20:44:50.20	115.00	10.12	-26.3	-44.8	4.2	8.06e-01	0	59	104	301465600	26	26760
2026-01-16 20:44:51.21	114.78	10.05	-19.3	-40.6	4.4	8.35e-01	0	60	104	301465600	18	26107
2026-01-16 20:44:52.22	114.55	9.97	-19.1	-40.8	4.2	8.35e-01	0	59	104	301465600	13	35472
2026-01-16 20:44:53.23	114.33	9.90	-26.3	-45.3	3.6	8.36e-01	0	60	104	301465600	22	35345
2026-01-16 20:44:54.24	114.11	9.83	-21.8	-41.1	3.8	8.28e-01	0	59	104	301465600	14	34768
2026-01-16 20:44:55.25	113.89	9.76	-24.8	-46.3	4.3	8.28e-01	0	59	104	301465600	23	37506
2026-01-16 20:44:56.26	113.67	9.69	-25.6	-47.7	4.0	8.36e-01	0	59	104	301465600	24	41474
2026-01-16 20:44:57.27	113.46	9.62	-24.4	-46.0	4.3	8.39e-01	0	59	104	301465600	24	34286
2026-01-16 20:44:58.28	113.24	9.55	-26.4	-47.0	4.5	8.38e-01	0	59	104	301465600	28	30594
2026-01-16 20:44:59.29	113.03	9.48	-26.7	-41.4	5.3	8.38e-01	0	59	0	301465600	21	24091
2026-01-16 20:45:00.30	112.81	9.40	-29.3	-43.9	7.0	7.16e-01	0	59	0	301465600	30	19138
2026-01-16 20:45:01.31	112.60	9.33	-29.3	-43.3	6.6	5.24e-01	0	60	0	301465600	27	21032
2026-01-16 20:45:02.32	112.39	9.26	-30.4	-44.1	6.1	5.24e-01	0	60	104	301989888	30	19553
2026-01-16 20:45:03.33	112.18	9.19	-31.5	-44.3	6.9	5.95e-01	0	59	0	302514176	32	17863
2026-01-16 20:45:04.34	111.98	9.12	-29.1	-42.7	8.7	3.91e-01	0	60	0	303038464	34	13205
2026-01-16 20:45:05.35	111.77	9.05	-30.6	-43.4	10.3	3.91e-01	0	60	0	304087040	38	11416
2026-01-16 20:45:06.36	111.57	8.98	-33.6	-43.5	10.5	2.32e-01	0	60	0	304611328	38	11449
2026-01-16 20:45:07.37	111.37	8.91	-30.1	-43.4	9.3	2.89e-01	0	60	0	305659904	35	13456
2026-01-16 20:45:08.38	111.16	8.83	-32.5	-43.7	10.0	2.89e-01	0	60	104	306184192	39	11034
2026-01-16 20:45:09.39	110.96	8.76	-33.7	-44.5	10.4	3.13e-01	0	60	0	307232768	42	10293
2026-01-16 20:45:10.40	110.77	8.69	-34.0	-44.9	9.3	1.29e-01	0	60	0	307757056	40	11981
2026-01-16 20:45:11.41	110.57	8.62	-35.0	-44.3	9.3	2.61e-01	0	60	0	308805632	40	11224
2026-01-16 20:45:12.42	110.37	8.55	-34.3	-44.7	10.5	2.61e-01	0	59	0	309854208	41	11078
2026-01-16 20:45:13.43	110.18	8.48	-34.4	-44.5	9.9	1.68e-01	0	59	0	310902784	37	13647
2026-01-16 20:45:14.43	109.99	8.41	-35.0	-45.9	5.1	3.57e-01	0	60	104	311427072	39	14285
2026-01-16 20:45:15.44	109.79	8.34	-33.4	-45.4	9.7	3.57e-01	0	60	0	311427072	42	11336
2026-01-16 20:45:16.45	109.60	8.27	-34.5	-44.9	10.2	4.02e-01	0	60	0	312475648	42	10674
2026-01-16 20:45:17.46	109.41	8.20	-33.6	-44.5	10.4	1.46e-01	0	60	0	313524224	40	11447
2026-01-16 20:45:18.47	109.23	8.13	-32.0	-45.1	11.1	1.46e-01	0	60	0	314572800	41	11617
2026-01-16 20:45:19.48	109.04	8.06	-35.6	-45.1	9.9	8.87e-02	0	60	0	316145664	40	12355
2026-01-16 20:45:20.49	108.85	7.99	-39.6	-51.3	8.6	1.11e-01	0	60	0	317194240	46	17752
2026-01-16 20:45:21.50	108.67	7.92	-43.1	-61.5	3.8	1.11e-01	0	60	104	317194240	57	30395
2026-01-16 20:45:22.52	108.48	7.85	-44.8	-63.0	3.8	5.91e-01	0	60	104	317194240	60	30511
2026-01-16 20:45:23.53	108.30	7.78	-45.0	-63.1	3.8	8.46e-01	0	60	104	317194240	60	31056
2026-01-16 20:45:24.53	108.12	7.71	-45.3	-63.4	3.8	8.45e-01	0	60	104	317194240	61	30229
2026-01-16 20:45:25.55	107.94	7.64	-45.4	-63.6	3.8	8.45e-01	0	60	104	317194240	61	30894
2026-01-16 20:45:26.56	107.76	7.57	-45.7	-63.8	3.8	8.47e-01	0	60	104	317194240	61	31642
2026-01-16 20:45:27.57	107.58	7.50	-45.8	-63.9	3.8	8.47e-01	0	60	104	317194240	62	30279
2026-01-16 20:45:28.58	107.41	7.43	-45.8	-64.0	3.8	8.47e-01	0	60	104	317194240	62	30481
2026-01-16 20:45:29.59	107.23	7.36	-45.9	-64.1	3.8	8.47e-01	0	60	104	317194240	62	30749
2026-01-16 20:45:30.60	107.06	7.29	-45.8	-64.0	3.8	8.46e-01	0	60	104	317194240	62	30530
2026-01-16 20:45:31.61	106.89	7.22	-45.8	-63.9	3.8	8.46e-01	0	60	104	317194240	62	30232
2026-01-16 20:45:32.62	106.72	7.15	-45.7	-63.8	3.8	8.46e-01	0	60	104	317194240	62	30027
2026-01-16 20:45:33.63	106.55	7.08	-45.6	-63.7	3.8	8.46e-01	0	60	104	317194240	62	29651
2026-01-16 20:45:34.64	106.38	7.01	-45.6	-63.7	3.8	8.46e-01	0	60	104	317194240	62	29446
2026-01-16 20:45:35.65	106.21	6.94	-45.5	-63.6	3.8	8.46e-01	0	60	104	317194240	62	29286
2026-01-16 20:45:36.66	106.04	6.87	-45.5	-63.6	3.8	8.46e-01	0	60	104	317194240	62	29262
2026-01-16 20:45:37.67	105.88	6.80	-45.4	-63.5	3.8	8.45e-01	0	60	104	317194240	62	28818
2026-01-16 20:45:38.68	105.71	6.73	-45.4	-63.5	3.8	8.45e-01	0	60	104	317194240	61	30451
2026-01-16 20:45:39.69	105.55	6.67	-45.1	-63.5	3.9	8.46e-01	0	60	104	317194240	61	30724
2026-01-16 20:45:40.71	105.38	6.60	-45.4	-63.5	3.8	8.46e-01	0	60	104	317194240	61	30584
2026-01-16 20:45:41.72	105.22	6.53	-45.4	-63.5	3.8	8.46e-01	0	60	104	317194240	61	30383
2026-01-16 20:45:42.73	105.06	6.46	-45.4	-63.5	3.8	8.46e-01	0	60	104	317194240	61	30463
2026-01-16 20:45:43.73	104.90	6.39	-45.4	-63.5	3.8	8.46e-01	0	60	104	317194240	61	30492
2026-01-16 20:45:44.74	104.75	6.33	-45.4	-63.5	3.8	8.46e-01	0	60	104	317194240	61	30466
2026-01-16 20:45:45.75	104.59	6.26	-45.4	-63.5	3.8	8.46e-01	0	60	104	317194240	61	30471
2026-01-16 20:45:46.76	104.43	6.19	-45.4	-63.5	3.8	8.46e-01	0	60	104	317194240	61	30447
2026-01-16 20:45:47.77	104.28	6.12	-45.4	-63.5	3.8	8.46e-01	0	60	104	317194240	61	30413
2026-01-16 20:45:48.78	104.12	6.05	-45.4	-63.4	3.8	8.46e-01	0	60	104	317194240	61	30376
2026-01-16 20:45:49.79	103.97	5.99	-45.1	-63.5	3.8	8.47e-01	0	60	104	317194240	61	30435
2026-01-16 20:45:50.80	103.82	5.92	-45.4	-63.5	3.8	8.46e-01	0	60	104	317194240	61	30463
2026-01-16 20:45:51.81	103.67	5.85	-45.4	-63.5	3.8	8.46e-01	0	60	104	317194240	61	30405
2026-01-16 20:45:52.82	103.52	5.79	-45.4	-63.4	3.8	8.45e-01	0	60	104	317194240	61	30335
2026-01-16 20:45:53.83	103.37	5.72	-45.4	-63.4	3.8	8.46e-01	0	60	104	317194240	61	30331
2026-01-16 20:45:54.84	103.22	5.65	-45.4	-63.4	3.8	8.46e-01	0	60	104	317194240	61	30328
2026-01-16 20:45:55.85	103.07	5.59	-45.4	-63.5	3.8	8.46e-01	0	60	104	317194240	61	30446
2026-01-16 20:45:56.87	102.93	5.52	-45.4	-63.4	3.8	8.47e-01	0	60	104	317194240	61	30370
2026-01-16 20:45:57.88	102.78	5.45	-45.4	-63.4	3.8	8.47e-01	0	60	104	317194240	61	30319
2026-01-16 20:45:58.89	102.64	5.39	-45.4	-63.4	3.8	8.47e-01	0	60	104	317194240	61	30328
2026-01-16 20:45:59.90	102.49	5.32	-45.4	-63.4	3.8	8.45e-01	0	60	104	317194240	61	30344
2026-01-16 20:46:00.91	102.35	5.25	-45.2	-63.4	3.8	8.46e-01	0	60	104	317194240	61	30306
2026-01-16 20:46:01.92	102.21	5.19	-45.4	-63.4	3.8	8.46e-01	0	60	104	317194240	61	30318
2026-01-16 20:46:02.93	102.07	5.12	-45.3	-63.4	3.8	8.46e-01	0	60	104	317194240	61	30350
2026-01-16 20:46:03.94	101.93	5.06	-45.4	-63.4	3.8	8.46e-01	0	60	104	317194240	61	30296
2026-01-16 20:46:04.95	101.79	4.99	-45.4	-63.4	3.8	8.46e-01	0	60	104	317194240	61	30256
2026-01-16 20:46:05.96	101.65	4.93	-45.4	-63.4	3.8	8.45e-01	0	60	104	317194240	61	30290
2026-01-16 20:46:06.97	101.51	4.86	-45.3	-63.4	3.8	8.47e-01	0	60	104	317194240	61	30284
2026-01-16 20:46:07.99	101.38	4.79	-45.4	-63.4	3.8	8.47e-01	0	60	104	317194240	61	30288
2026-01-16 20:46:09.00	101.24	4.73	-45.3	-63.4	3.8	8.46e-01	0	60	104	317194240	61	30241
2026-01-16 20:46:10.01	101.11	4.66	-45.4	-63.4	3.8	8.48e-01	0	60	104	317194240	61	30276
2026-01-16 20:46:11.02	100.97	4.60	-45.3	-63.4	3.8	8.48e-01	0	60	104	317194240	61	30226
2026-01-16 20:46:12.03	100.84	4.54	-45.3	-63.4	3.8	8.47e-01	0	60	104	317194240	61	30344
2026-01-16 20:46:13.04	100.71	4.47	-45.3	-63.4	3.8	8.47e-01	0	60	104	317194240	61	30273
2026-01-16 20:46:14.05	100.58	4.41	-45.3	-63.4	3.8	8.47e-01	0	60	104	317194240	61	30313
2026-01-16 20:46:15.06	100.45	4.34	-45.3	-63.4	3.8	8.47e-01	0	60	104	317194240	61	30328
2026-01-16 20:46:16.07	100.32	4.28	-45.3	-63.4	3.8	8.46e-01	0	60	104	317194240	61	30366
2026-01-16 20:46:17.08	100.19	4.21	-45.3	-63.4	3.8	8.46e-01	0	60	104	317194240	61	30305
2026-01-16 20:46:18.09	100.06	4.15	-45.3	-63.4	3.8	8.46e-01	0	60	104	317194240	61	30247
2026-01-16 20:46:19.10	99.93	4.09	-45.3	-63.4	3.8	8.46e-01	0	60	104	317194240	61	30251
2026-01-16 20:46:20.11	99.81	4.02	-45.3	-63.4	3.8	8.47e-01	0	60	104	317194240	61	30222
2026-01-16 20:46:21.12	99.68	3.96	-45.3	-63.4	3.8	8.47e-01	0	60	104	317194240	61	30213
2026-01-16 20:46:22.13	99.56	3.90	-45.3	-63.4	3.8	8.46e-01	0	60	104	317194240	61	30290
2026-01-16 20:46:23.15	99.43	3.83	-45.3	-63.4	3.8	8.46e-01	0	60	104	317194240	61	30324
2026-01-16 20:46:24.16	99.31	3.77	-45.3	-63.4	3.8	8.46e-01	0	60	104	317194240	61	30295
2026-01-16 20:46:25.17	99.19	3.71	-45.3	-63.4	3.8	8.45e-01	0	60	104	317194240	61	30167
2026-01-16 20:46:26.18	99.07	3.64	-45.3	-63.4	3.8	8.47e-01	0	60	104	317194240	61	30307
2026-01-16 20:46:27.19	98.95	3.58	-45.3	-63.4	3.8	8.46e-01	0	60	104	317194240	61	30277
2026-01-16 20:46:28.20	98.83	3.52	-45.3	-63.4	3.8	8.46e-01	0	60	104	317194240	61	30269
2026-01-16 20:46:29.21	98.71	3.46	-45.3	-63.4	3.8	8.47e-01	0	60	104	317194240	61	30292
2026-01-16 20:46:30.22	98.59	3.39	-45.3	-63.4	3.8	8.46e-01	0	60	104	317194240	61	30154
2026-01-16 20:46:31.23	98.47	3.33	-45.3	-63.4	3.8	8.46e-01	0	60	104	317194240	61	30197
2026-01-16 20:46:32.24	98.35	3.27	-45.3	-63.4	3.8	8.46e-01	0	60	104	317194240	61	30221
2026-01-16 20:46:33.25	98.24	3.21	-45.3	-63.4	3.8	8.46e-01	0	60	104	317194240	61	30213
2026-01-16 20:46:34.26	98.12	3.15	-45.3	-63.4	3.8	8.46e-01	0	60	104	317194240	61	30200
2026-01-16 20:46:35.28	98.01	3.08	-45.3	-63.4	3.8	8.47e-01	0	60	104	317194240	61	30228
2026-01-16 20:46:36.29	97.89	3.02	-45.3	-63.4	3.8	8.46e-01	0	60	104	317194240	61	30238
2026-01-16 20:46:37.30	97.78	2.96	-45.3	-63.4	3.8	8.45e-01	0	60	104	317194240	61	30279
2026-01-16 20:46:38.31	97.66	2.90	-45.3	-63.4	3.8	8.45e-01	0	60	104	317194240	61	30296
2026-01-16 20:46:39.32	97.55	2.84	-45.3	-63.4	3.8	8.45e-01	0	60	104	317194240	61	30135
2026-01-16 20:46:40.33	97.44	2.78	-45.3	-63.4	3.8	8.45e-01	0	60	104	317194240	61	30250
2026-01-16 20:46:41.34	97.33	2.72	-45.3	-63.4	3.8	8.45e-01	0	60	104	317194240	61	30223
2026-01-16 20:46:42.35	97.22	2.66	-45.3	-63.4	3.8	8.46e-01	0	60	104	317194240	61	30203
2026-01-16 20:46:43.36	97.11	2.59	-45.3	-63.4	3.8	8.46e-01	0	60	104	317194240	61	30245
2026-01-16 20:46:44.37	97.00	2.53	-45.3	-63.4	3.8	8.46e-01	0	60	104	317194240	61	30188
2026-01-16 20:46:45.39	96.89	2.47	-45.1	-63.4	3.8	8.48e-01	0	60	104	317194240	61	30225
2026-01-16 20:46:46.40	96.79	2.41	-45.2	-63.4	3.8	8.45e-01	0	60	104	317194240	61	30132
2026-01-16 20:46:47.41	96.68	2.35	-45.3	-63.4	3.8	8.45e-01	0	60	104	317194240	61	30158
2026-01-16 20:46:48.42	96.57	2.29	-45.3	-63.4	3.8	8.46e-01	0	60	104	317194240	61	30162
2026-01-16 20:46:49.43	96.47	2.23	-45.2	-63.4	3.8	8.47e-01	0	60	104	317194240	61	30207
2026-01-16 20:46:50.44	96.36	2.17	-45.3	-63.4	3.8	8.46e-01	0	60	104	317194240	61	30150
2026-01-16 20:46:51.45	96.26	2.11	-45.3	-63.4	3.8	8.46e-01	0	60	104	317194240	61	30154
2026-01-16 20:46:52.46	96.15	2.05	-45.3	-63.4	3.8	8.47e-01	0	60	104	317194240	61	30110
2026-01-16 20:46:53.48	96.05	1.99	-45.3	-63.4	3.8	8.47e-01	0	60	104	317194240	61	30259
2026-01-16 20:46:54.49	95.95	1.93	-45.3	-63.4	3.8	8.47e-01	0	60	104	317194240	61	30244
2026-01-16 20:46:55.50	95.85	1.87	-45.3	-63.4	3.8	8.46e-01	0	60	104	317194240	61	30177

#Closed at: 2026-01-16 20:46:56
#Recorded file [317 MB]: D:/lorett/data/31039_260116_233836.dat