passes_logs/2026/01/03/R4.6S_Anadyr/R4.6S_Anadyr__20260103_125920_NOAA_21_JPSS-2_rec.log

#Pass ID: 20260103_125920_NOAA 21 (JPSS-2)
#Satellite: NOAA 21 (JPSS-2)
#Configuration: NOAA-21
#almurnet v.1.7.20251203
#Start time: 2026-01-03 12:59:22

#Version: 2.2.20231116
#Station: R4.6S_Anadyr
#Location: 177.4865 lon 64.73178 lat
#TLE: 1 54234U 22150A   26002.88923379  .00000185  00000+0  10883-3 0  9993
#TLE: 2 54234  98.7486 303.9362 0001189 349.0578  11.0572 14.19531433163092

#Time	Az	El	Level	Level2	SNR	BER	BlckErr	Temp	State	Recorded	gain1	gain2
2026-01-03 12:59:22.06	18.76	0.11	-50.3	-65.2	3.5	1.51e+00	0	37	0	0	60	65904
2026-01-03 12:59:23.07	18.82	0.17	-52.6	-65.4	3.5	1.52e+00	0	38	104	0	60	65629
2026-01-03 12:59:24.08	18.87	0.22	-52.3	-65.1	3.5	1.52e+00	0	38	104	0	60	63271
2026-01-03 12:59:25.08	18.93	0.27	-51.6	-64.4	3.5	1.52e+00	0	38	104	0	60	58216
2026-01-03 12:59:26.09	18.99	0.33	-50.7	-63.6	3.5	1.52e+00	0	38	104	0	60	53088
2026-01-03 12:59:27.10	19.04	0.38	-50.5	-63.4	3.5	1.52e+00	0	38	104	0	60	52017
2026-01-03 12:59:28.11	19.10	0.44	-50.3	-63.3	3.5	1.51e+00	0	38	104	0	60	51070
2026-01-03 12:59:29.12	19.16	0.49	-50.4	-63.2	3.5	1.52e+00	0	38	104	0	60	50577
2026-01-03 12:59:30.13	19.22	0.55	-50.4	-63.3	3.5	1.51e+00	0	38	104	0	60	51140
2026-01-03 12:59:31.14	19.28	0.60	-50.3	-63.2	3.5	1.52e+00	0	38	104	0	60	50881
2026-01-03 12:59:32.15	19.33	0.66	-50.2	-63.1	3.5	1.52e+00	0	39	104	0	60	49954
2026-01-03 12:59:33.17	19.39	0.71	-50.0	-62.9	3.5	1.52e+00	0	39	104	0	60	48996
2026-01-03 12:59:34.17	19.45	0.77	-49.9	-62.7	3.5	1.52e+00	0	39	104	0	60	47970
2026-01-03 12:59:35.18	19.51	0.82	-49.6	-62.5	3.5	1.52e+00	0	39	104	0	60	46895
2026-01-03 12:59:36.19	19.57	0.88	-49.5	-62.4	3.5	1.52e+00	0	39	104	0	60	46274
2026-01-03 12:59:37.20	19.63	0.93	-49.4	-62.2	3.5	1.52e+00	0	39	104	0	60	45312
2026-01-03 12:59:38.21	19.69	0.99	-49.0	-61.9	3.5	1.52e+00	0	39	104	0	60	43625
2026-01-03 12:59:39.22	19.75	1.05	-48.7	-61.4	3.5	1.52e+00	0	39	104	0	60	41374
2026-01-03 12:59:40.23	19.81	1.10	-48.6	-61.3	3.5	1.52e+00	0	39	104	0	60	40823
2026-01-03 12:59:41.24	19.87	1.16	-48.6	-61.3	3.5	1.52e+00	0	39	104	0	60	40951
2026-01-03 12:59:42.25	19.93	1.21	-48.6	-61.3	3.5	1.52e+00	0	39	104	0	60	40944
2026-01-03 12:59:43.26	19.99	1.27	-48.6	-61.4	3.5	1.52e+00	0	39	104	0	60	41038
2026-01-03 12:59:44.27	20.05	1.32	-48.6	-61.5	3.5	1.52e+00	0	39	104	0	60	41478
2026-01-03 12:59:45.28	20.11	1.38	-48.6	-61.5	3.5	1.52e+00	0	39	104	0	60	41550
2026-01-03 12:59:46.29	20.17	1.44	-48.6	-61.5	3.5	1.52e+00	0	39	104	0	60	41519
2026-01-03 12:59:47.30	20.23	1.49	-48.6	-61.5	3.5	1.52e+00	0	39	104	0	60	41798
2026-01-03 12:59:48.31	20.29	1.55	-48.7	-61.5	3.5	1.52e+00	0	39	104	0	60	41881
2026-01-03 12:59:49.32	20.35	1.61	-48.8	-61.6	3.5	1.52e+00	0	39	104	0	60	42270
2026-01-03 12:59:50.33	20.41	1.66	-48.7	-61.5	3.5	1.52e+00	0	39	104	0	60	41890
2026-01-03 12:59:51.34	20.48	1.72	-48.8	-61.6	3.5	1.51e+00	0	39	104	0	60	42310
2026-01-03 12:59:52.35	20.54	1.78	-48.8	-61.6	3.5	1.51e+00	0	39	104	0	60	42147
2026-01-03 12:59:53.35	20.60	1.83	-49.0	-61.7	3.5	1.52e+00	0	39	104	0	60	42633
2026-01-03 12:59:54.36	20.66	1.89	-48.9	-61.6	3.5	1.52e+00	0	39	104	0	60	42158
2026-01-03 12:59:55.38	20.73	1.95	-48.8	-61.5	3.5	1.52e+00	0	39	104	0	60	41855
2026-01-03 12:59:56.39	20.79	2.00	-48.8	-61.5	3.5	1.52e+00	0	39	104	0	60	41827
2026-01-03 12:59:57.39	20.85	2.06	-48.9	-61.5	3.5	1.52e+00	0	39	104	0	60	41920
2026-01-03 12:59:58.40	20.92	2.12	-48.9	-61.7	3.5	1.52e+00	0	39	104	0	60	42643
2026-01-03 12:59:59.41	20.98	2.18	-48.9	-61.7	3.5	1.52e+00	0	39	104	0	60	42625
2026-01-03 13:00:00.42	21.04	2.23	-48.8	-61.6	3.5	1.51e+00	0	39	104	0	60	42430
2026-01-03 13:00:01.43	21.11	2.29	-49.1	-61.8	3.5	1.52e+00	0	39	104	0	60	42988
2026-01-03 13:00:02.44	21.17	2.35	-49.2	-62.0	3.4	1.51e+00	0	39	104	0	60	44103
2026-01-03 13:00:03.45	21.24	2.41	-49.2	-61.8	3.5	1.52e+00	0	39	104	0	60	43006
2026-01-03 13:00:04.46	21.30	2.46	-49.2	-61.7	3.5	1.52e+00	0	39	104	0	60	42593
2026-01-03 13:00:05.47	21.37	2.52	-49.0	-61.3	3.5	1.52e+00	0	39	104	0	60	40993
2026-01-03 13:00:06.48	21.43	2.58	-48.9	-60.5	3.5	1.51e+00	0	39	104	0	60	37362
2026-01-03 13:00:07.49	21.50	2.64	-48.8	-61.0	3.5	1.51e+00	0	39	104	0	60	39337
2026-01-03 13:00:08.50	21.57	2.70	-48.9	-61.1	3.5	1.52e+00	0	39	104	0	60	39861
2026-01-03 13:00:09.51	21.63	2.75	-48.6	-58.5	3.9	1.46e+00	111	39	104	0	60	29374
2026-01-03 13:00:10.52	21.70	2.81	-46.7	-51.3	10.0	1.43e+00	123	39	104	0	60	12830
2026-01-03 13:00:11.53	21.76	2.87	-44.7	-47.2	12.9	1.37e-05	122	39	0	1048576	60	8047
2026-01-03 13:00:12.54	21.83	2.93	-45.5	-48.5	14.0	3.28e-05	122	39	0	4194304	60	9374
2026-01-03 13:00:13.55	21.90	2.99	-42.0	-43.6	17.2	0.00e+00	123	39	0	7340032	56	6718
2026-01-03 13:00:14.56	21.97	3.05	-42.7	-44.6	17.3	0.00e+00	123	39	0	10485760	58	6659
2026-01-03 13:00:15.57	22.03	3.11	-40.3	-41.6	19.8	0.00e+00	122	39	0	13631488	52	6669
2026-01-03 13:00:16.58	22.10	3.16	-40.2	-41.6	19.3	0.00e+00	123	39	0	16777216	52	6650
2026-01-03 13:00:17.59	22.17	3.22	-40.2	-41.5	19.4	0.00e+00	122	39	0	19922944	52	6585
2026-01-03 13:00:18.60	22.24	3.28	-39.8	-41.0	19.8	0.00e+00	122	39	0	23068672	54	5575
2026-01-03 13:00:19.61	22.31	3.34	-42.4	-44.1	16.9	0.00e+00	120	39	0	26214400	56	7104
2026-01-03 13:00:20.62	22.38	3.40	-40.8	-42.1	18.7	0.00e+00	123	39	0	29360128	56	5654
2026-01-03 13:00:21.63	22.44	3.46	-40.0	-41.3	19.5	0.00e+00	123	39	0	32505856	52	6441
2026-01-03 13:00:22.63	22.51	3.52	-44.4	-46.9	9.2	0.00e+00	121	39	0	35651584	58	8708
2026-01-03 13:00:23.64	22.58	3.58	-47.9	-54.7	4.1	1.50e+00	0	39	104	35651584	60	19003
2026-01-03 13:00:24.65	22.65	3.64	-40.3	-41.9	18.8	0.00e+00	120	39	104	35651584	54	6159
2026-01-03 13:00:25.66	22.72	3.70	-42.9	-44.7	16.8	0.00e+00	123	39	0	37748736	60	6017
2026-01-03 13:00:26.67	22.79	3.76	-41.5	-43.0	18.3	0.00e+00	122	39	0	40894464	56	6248
2026-01-03 13:00:27.68	22.86	3.82	-41.2	-42.6	18.2	0.00e+00	122	39	0	45088768	56	5950
2026-01-03 13:00:28.69	22.94	3.88	-42.0	-43.6	17.9	0.00e+00	120	39	0	48234496	56	6675
2026-01-03 13:00:29.70	23.01	3.94	-41.2	-42.6	18.3	0.00e+00	122	39	0	50331648	56	5942
2026-01-03 13:00:30.70	23.08	4.00	-42.0	-43.6	17.7	0.00e+00	122	39	0	53477376	56	6708
2026-01-03 13:00:31.71	23.15	4.06	-41.3	-42.7	18.4	0.00e+00	123	39	0	56623104	56	6037
2026-01-03 13:00:32.72	23.22	4.12	-41.2	-42.7	18.3	0.00e+00	122	39	0	59768832	56	6018
2026-01-03 13:00:33.73	23.29	4.18	-41.5	-42.9	18.1	0.00e+00	122	39	0	63963136	56	6202
2026-01-03 13:00:34.74	23.37	4.24	-41.6	-43.1	18.2	0.00e+00	120	39	0	67108864	56	6336
2026-01-03 13:00:35.75	23.44	4.30	-41.3	-42.7	18.3	0.00e+00	120	39	0	70254592	56	6052
2026-01-03 13:00:36.76	23.51	4.36	-41.4	-42.9	18.3	0.00e+00	123	39	0	72351744	56	6186
2026-01-03 13:00:37.76	23.59	4.42	-41.3	-42.8	17.9	0.00e+00	123	39	0	75497472	56	6082
2026-01-03 13:00:38.77	23.66	4.48	-41.3	-42.8	18.7	0.00e+00	123	39	0	78643200	56	6067
2026-01-03 13:00:39.78	23.73	4.55	-41.1	-42.5	18.8	0.00e+00	120	39	0	82837504	56	5897
2026-01-03 13:00:40.79	23.81	4.61	-41.6	-43.0	18.3	0.00e+00	122	39	0	85983232	56	6270
2026-01-03 13:00:41.80	23.88	4.67	-41.0	-42.3	19.2	0.00e+00	123	39	0	89128960	56	5777
2026-01-03 13:00:42.81	23.96	4.73	-42.0	-43.6	17.7	0.00e+00	122	39	0	92274688	56	6681
2026-01-03 13:00:43.82	24.03	4.79	-41.2	-42.6	19.0	0.00e+00	121	39	0	95420416	56	5933
2026-01-03 13:00:44.83	24.11	4.85	-40.7	-42.1	19.2	0.00e+00	123	39	0	98566144	54	6306
2026-01-03 13:00:45.84	24.18	4.92	-40.3	-41.5	19.3	0.00e+00	123	39	0	101711872	54	5921
2026-01-03 13:00:46.85	24.26	4.98	-40.7	-42.1	19.5	0.00e+00	123	39	0	104857600	54	6289
2026-01-03 13:00:47.86	24.34	5.04	-40.7	-42.0	19.3	0.00e+00	122	39	0	108003328	54	6234
2026-01-03 13:00:48.86	24.41	5.10	-40.3	-41.6	19.7	0.00e+00	121	39	0	111149056	54	5941
2026-01-03 13:00:49.88	24.49	5.16	-40.0	-41.3	19.6	0.00e+00	123	39	0	114294784	54	5737
2026-01-03 13:00:50.88	24.57	5.23	-40.6	-41.9	19.7	0.00e+00	123	39	0	117440512	54	6184
2026-01-03 13:00:51.89	24.65	5.29	-40.1	-41.4	19.7	0.00e+00	122	39	0	120586240	54	5838
2026-01-03 13:00:52.90	24.72	5.35	-40.4	-41.6	19.7	0.00e+00	122	39	0	123731968	54	5990
2026-01-03 13:00:53.91	24.80	5.41	-40.1	-41.3	19.7	0.00e+00	122	39	0	126877696	54	5752
2026-01-03 13:00:54.92	24.88	5.48	-40.4	-41.7	20.3	0.00e+00	122	39	0	130023424	54	6029
2026-01-03 13:00:55.93	24.96	5.54	-39.7	-40.9	20.4	0.00e+00	123	39	0	133169152	52	6143
2026-01-03 13:00:56.94	25.04	5.60	-40.1	-41.3	20.2	0.00e+00	120	39	0	136314880	52	6487
2026-01-03 13:00:57.96	25.12	5.67	-40.0	-41.2	20.4	0.00e+00	123	39	0	139460608	52	6370
2026-01-03 13:00:58.96	25.20	5.73	-39.7	-40.8	20.6	0.00e+00	121	39	0	142606336	52	6127
2026-01-03 13:00:59.97	25.28	5.79	-39.5	-40.6	20.7	0.00e+00	122	39	0	145752064	52	5969
2026-01-03 13:01:00.98	25.36	5.86	-39.4	-40.6	20.6	0.00e+00	123	39	0	148897792	52	5927
2026-01-03 13:01:01.99	25.44	5.92	-39.7	-40.9	20.1	0.00e+00	123	39	0	152043520	52	6197
2026-01-03 13:01:03.00	25.52	5.98	-39.4	-40.5	20.8	0.00e+00	120	39	0	155189248	52	5924
2026-01-03 13:01:04.01	25.60	6.05	-39.3	-40.5	20.7	0.00e+00	122	39	0	158334976	52	5864
2026-01-03 13:01:05.02	25.68	6.11	-39.3	-40.5	20.8	0.00e+00	120	39	0	161480704	52	5879
2026-01-03 13:01:06.03	25.77	6.17	-39.5	-40.7	21.0	0.00e+00	123	39	0	164626432	52	6015
2026-01-03 13:01:07.04	25.85	6.24	-39.4	-40.5	20.8	0.00e+00	122	39	0	167772160	52	5906
2026-01-03 13:01:08.05	25.93	6.30	-39.5	-40.7	20.8	0.00e+00	122	39	0	170917888	52	6022
2026-01-03 13:01:09.06	26.02	6.37	-39.2	-40.4	20.9	0.00e+00	120	39	0	174063616	52	5793
2026-01-03 13:01:10.07	26.10	6.43	-39.4	-40.5	20.9	0.00e+00	122	39	0	177209344	52	5884
2026-01-03 13:01:11.08	26.18	6.50	-39.1	-40.2	20.9	0.00e+00	120	39	0	180355072	52	5713
2026-01-03 13:01:12.09	26.27	6.56	-38.8	-39.9	21.2	0.00e+00	122	39	0	183500800	50	6151
2026-01-03 13:01:13.10	26.35	6.63	-38.8	-39.9	21.3	0.00e+00	122	39	0	186646528	50	6163
2026-01-03 13:01:14.11	26.44	6.69	-38.8	-39.9	21.4	0.00e+00	122	39	0	189792256	50	6182
2026-01-03 13:01:15.12	26.52	6.76	-38.9	-40.0	21.2	0.00e+00	120	39	0	192937984	50	6247
2026-01-03 13:01:16.12	26.61	6.82	-38.7	-39.8	21.5	0.00e+00	123	39	0	196083712	50	6118
2026-01-03 13:01:17.13	26.69	6.89	-38.7	-39.8	21.6	0.00e+00	122	39	0	199229440	50	6074
2026-01-03 13:01:18.14	26.78	6.95	-38.9	-40.0	21.2	0.00e+00	122	39	0	202375168	50	6256
2026-01-03 13:01:19.15	26.87	7.02	-38.8	-39.9	21.2	0.00e+00	120	39	0	205520896	50	6159
2026-01-03 13:01:20.16	26.95	7.08	-38.6	-39.7	21.2	0.00e+00	122	39	0	208666624	50	6047
2026-01-03 13:01:21.18	27.04	7.15	-39.1	-40.2	21.0	0.00e+00	123	39	0	211812352	50	6390
2026-01-03 13:01:22.19	27.13	7.21	-38.6	-39.7	21.5	0.00e+00	123	39	0	214958080	50	6002
2026-01-03 13:01:23.19	27.22	7.28	-38.6	-39.6	21.4	0.00e+00	120	39	0	218103808	50	5993
2026-01-03 13:01:24.20	27.31	7.35	-38.4	-39.5	21.8	0.00e+00	123	39	0	221249536	50	5896
2026-01-03 13:01:25.21	27.40	7.41	-38.6	-39.7	21.5	0.00e+00	123	39	0	224395264	50	6002
2026-01-03 13:01:26.22	27.48	7.48	-38.7	-39.8	21.6	0.00e+00	123	39	0	227540992	50	6073
2026-01-03 13:01:27.22	27.57	7.54	-38.6	-39.7	21.5	0.00e+00	123	39	0	230686720	50	6025
2026-01-03 13:01:28.23	27.66	7.61	-39.2	-40.3	20.9	0.00e+00	123	39	0	233832448	50	6486
2026-01-03 13:01:29.24	27.75	7.68	-38.4	-39.4	21.9	0.00e+00	120	39	0	236978176	50	5848
2026-01-03 13:01:30.25	27.85	7.74	-38.1	-39.1	22.0	0.00e+00	123	39	0	240123904	50	5658
2026-01-03 13:01:31.26	27.94	7.81	-38.4	-39.5	21.6	0.00e+00	120	39	0	243269632	50	5866
2026-01-03 13:01:32.27	28.03	7.88	-38.2	-39.2	21.7	0.00e+00	122	39	0	246415360	50	5707
2026-01-03 13:01:33.28	28.12	7.94	-38.2	-39.3	21.7	0.00e+00	123	39	0	249561088	50	5739
2026-01-03 13:01:34.29	28.21	8.01	-38.2	-39.2	21.8	0.00e+00	120	39	0	252706816	50	5713
2026-01-03 13:01:35.30	28.31	8.08	-38.2	-39.3	22.1	0.00e+00	122	39	0	255852544	50	5737
2026-01-03 13:01:36.31	28.40	8.15	-38.4	-39.4	21.9	0.00e+00	122	39	0	258998272	50	5855
2026-01-03 13:01:37.32	28.49	8.21	-38.3	-39.3	21.9	0.00e+00	120	39	0	262144000	50	5766
2026-01-03 13:01:38.33	28.59	8.28	-38.2	-39.2	21.9	0.00e+00	123	39	0	265289728	50	5715
2026-01-03 13:01:39.34	28.68	8.35	-38.2	-39.3	22.0	0.00e+00	120	39	0	268435456	50	5731
2026-01-03 13:01:40.34	28.78	8.42	-38.4	-39.5	22.2	0.00e+00	123	39	0	271581184	50	5896
2026-01-03 13:01:41.35	28.87	8.48	-38.0	-39.0	22.3	0.00e+00	122	39	0	274726912	50	5544
2026-01-03 13:01:42.36	28.97	8.55	-38.1	-39.2	22.0	0.00e+00	122	39	0	277872640	50	5676
2026-01-03 13:01:43.37	29.06	8.62	-38.2	-39.2	21.9	0.00e+00	120	39	0	281018368	50	5713
2026-01-03 13:01:44.38	29.16	8.69	-37.8	-38.8	22.2	0.00e+00	123	39	0	284164096	50	5447
2026-01-03 13:01:45.39	29.26	8.76	-37.8	-38.9	22.2	0.00e+00	122	39	0	287309824	50	5472
2026-01-03 13:01:46.40	29.36	8.83	-37.6	-38.6	22.4	0.00e+00	123	39	0	290455552	48	5977
2026-01-03 13:01:47.41	29.45	8.90	-37.7	-38.7	22.2	0.00e+00	123	39	0	293601280	48	6006
2026-01-03 13:01:48.42	29.55	8.96	-37.5	-38.6	22.4	0.00e+00	122	39	0	296747008	48	5931
2026-01-03 13:01:49.43	29.65	9.03	-37.5	-38.5	22.4	0.00e+00	123	39	0	299892736	48	5922
2026-01-03 13:01:50.44	29.75	9.10	-37.7	-38.7	22.3	0.00e+00	122	39	0	303038464	48	6037
2026-01-03 13:01:51.45	29.85	9.17	-37.6	-38.6	22.4	0.00e+00	120	39	0	306184192	48	5957
2026-01-03 13:01:52.46	29.95	9.24	-37.4	-38.4	22.5	0.00e+00	122	39	0	309329920	48	5812
2026-01-03 13:01:53.47	30.05	9.31	-37.4	-38.4	22.5	0.00e+00	120	39	0	312475648	48	5809
2026-01-03 13:01:54.48	30.15	9.38	-37.4	-38.3	22.4	0.00e+00	122	39	0	315621376	48	5789
2026-01-03 13:01:55.49	30.25	9.45	-37.2	-38.2	22.7	0.00e+00	122	39	0	318767104	48	5688
2026-01-03 13:01:56.50	30.36	9.52	-37.2	-38.1	22.6	0.00e+00	123	39	0	321912832	48	5659
2026-01-03 13:01:57.51	30.46	9.59	-37.3	-38.3	22.6	0.00e+00	123	39	0	325058560	48	5759
2026-01-03 13:01:58.52	30.56	9.66	-37.4	-38.4	22.5	0.00e+00	123	39	0	328204288	48	5814
2026-01-03 13:01:59.53	30.67	9.73	-37.2	-38.2	22.7	0.00e+00	120	39	0	331350016	48	5725
2026-01-03 13:02:00.54	30.77	9.80	-37.3	-38.3	22.7	0.00e+00	122	39	0	334495744	48	5752
2026-01-03 13:02:01.55	30.87	9.87	-37.2	-38.2	22.7	0.00e+00	122	39	0	337641472	48	5704
2026-01-03 13:02:02.56	30.98	9.94	-37.2	-38.1	22.7	0.00e+00	123	39	0	340787200	48	5645
2026-01-03 13:02:03.56	31.08	10.01	-37.3	-38.3	22.8	0.00e+00	120	39	0	343932928	48	5733
2026-01-03 13:02:04.57	31.19	10.08	-37.1	-38.0	23.0	0.00e+00	123	39	0	347078656	48	5590
2026-01-03 13:02:05.58	31.30	10.15	-37.2	-38.2	22.7	0.00e+00	123	39	0	350224384	48	5714
2026-01-03 13:02:06.60	31.40	10.23	-37.1	-38.0	22.8	0.00e+00	122	39	0	353370112	48	5571
2026-01-03 13:02:07.60	31.51	10.30	-37.0	-38.0	22.8	0.00e+00	123	39	0	356515840	48	5559
2026-01-03 13:02:08.61	31.62	10.37	-37.1	-38.0	22.8	0.00e+00	123	39	0	359661568	48	5592
2026-01-03 13:02:09.62	31.73	10.44	-37.0	-38.0	22.9	0.00e+00	120	39	0	362807296	48	5572
2026-01-03 13:02:10.63	31.84	10.51	-37.0	-38.0	23.0	0.00e+00	123	39	0	365953024	48	5534
2026-01-03 13:02:11.64	31.95	10.58	-36.7	-37.7	23.0	0.00e+00	120	39	0	369098752	48	5374
2026-01-03 13:02:12.65	32.06	10.65	-36.8	-37.8	23.0	0.00e+00	123	39	0	372244480	46	6066
2026-01-03 13:02:13.66	32.17	10.73	-37.0	-37.9	22.9	0.00e+00	123	39	0	375390208	46	6194
2026-01-03 13:02:14.67	32.28	10.80	-36.8	-37.7	23.0	0.00e+00	123	39	0	378535936	46	6056
2026-01-03 13:02:15.68	32.39	10.87	-36.8	-37.8	23.0	0.00e+00	123	39	0	381681664	46	6080
2026-01-03 13:02:16.69	32.50	10.94	-36.7	-37.7	23.1	0.00e+00	123	39	0	384827392	46	6010
2026-01-03 13:02:17.70	32.61	11.01	-36.9	-37.8	23.0	0.00e+00	123	39	0	387973120	46	6120
2026-01-03 13:02:18.71	32.73	11.09	-36.8	-37.8	23.2	0.00e+00	123	39	0	391118848	46	6101
2026-01-03 13:02:19.72	32.84	11.16	-36.8	-37.7	23.2	0.00e+00	120	39	0	394264576	46	6042
2026-01-03 13:02:20.73	32.95	11.23	-36.7	-37.7	23.2	0.00e+00	123	39	0	397410304	46	6028
2026-01-03 13:02:21.74	33.07	11.30	-36.7	-37.6	23.1	0.00e+00	120	39	0	400556032	46	5989
2026-01-03 13:02:22.75	33.18	11.38	-36.8	-37.8	23.1	0.00e+00	123	39	0	403701760	46	6079
2026-01-03 13:02:23.76	33.30	11.45	-36.7	-37.7	23.1	0.00e+00	122	39	0	406847488	46	6038
2026-01-03 13:02:24.77	33.42	11.52	-37.2	-38.2	22.8	0.00e+00	123	39	0	409993216	46	6363
2026-01-03 13:02:25.78	33.53	11.60	-36.8	-37.8	22.9	0.00e+00	123	39	0	413138944	46	6073
2026-01-03 13:02:26.79	33.65	11.67	-37.4	-38.4	22.7	0.00e+00	120	39	0	416284672	46	6561
2026-01-03 13:02:27.80	33.77	11.74	-37.0	-38.0	22.8	0.00e+00	122	39	0	419430400	46	6230
2026-01-03 13:02:28.81	33.89	11.82	-37.1	-38.0	22.9	0.00e+00	121	39	0	422576128	46	6258
2026-01-03 13:02:29.81	34.01	11.89	-36.8	-37.8	23.2	0.00e+00	122	39	0	425721856	46	6082
2026-01-03 13:02:30.82	34.13	11.96	-36.7	-37.7	23.1	0.00e+00	123	39	0	428867584	46	6031
2026-01-03 13:02:31.83	34.25	12.04	-36.6	-37.6	23.4	0.00e+00	123	39	0	433061888	46	5929
2026-01-03 13:02:32.84	34.37	12.11	-36.5	-37.5	23.4	0.00e+00	123	39	0	436207616	46	5877
2026-01-03 13:02:33.85	34.49	12.19	-36.7	-37.7	23.4	0.00e+00	122	39	0	438304768	46	5997
2026-01-03 13:02:34.86	34.61	12.26	-36.5	-37.5	23.5	0.00e+00	122	39	0	441450496	46	5863
2026-01-03 13:02:35.87	34.73	12.34	-36.5	-37.5	23.4	0.00e+00	123	39	0	444596224	46	5875
2026-01-03 13:02:36.88	34.86	12.41	-36.9	-37.9	23.2	0.00e+00	122	39	0	448790528	46	6165
2026-01-03 13:02:37.89	34.98	12.49	-36.8	-37.8	23.4	0.00e+00	123	39	0	451936256	46	6082
2026-01-03 13:02:38.90	35.10	12.56	-36.8	-37.7	23.4	0.00e+00	123	39	0	455081984	46	6037
2026-01-03 13:02:39.91	35.23	12.64	-37.2	-38.2	23.1	0.00e+00	122	39	0	458227712	46	6362
2026-01-03 13:02:40.92	35.36	12.71	-37.0	-37.9	23.3	0.00e+00	122	39	0	460324864	46	6192
2026-01-03 13:02:41.93	35.48	12.79	-37.1	-38.0	23.4	0.00e+00	122	39	0	464519168	46	6273
2026-01-03 13:02:42.94	35.61	12.86	-36.7	-37.6	23.5	0.00e+00	123	39	0	467664896	46	5985
2026-01-03 13:02:43.95	35.74	12.94	-36.5	-37.4	23.6	0.00e+00	123	39	0	470810624	46	5824
2026-01-03 13:02:44.96	35.86	13.01	-36.4	-37.4	23.7	0.00e+00	120	39	0	473956352	46	5817
2026-01-03 13:02:45.97	35.99	13.09	-36.3	-37.2	23.7	0.00e+00	120	39	0	477102080	46	5723
2026-01-03 13:02:46.98	36.12	13.16	-36.5	-37.4	23.7	0.00e+00	120	39	0	480247808	46	5847
2026-01-03 13:02:47.99	36.25	13.24	-36.4	-37.3	23.6	0.00e+00	123	39	0	483393536	46	5779
2026-01-03 13:02:49.00	36.38	13.31	-36.6	-37.5	23.5	0.00e+00	120	39	0	486539264	46	5915
2026-01-03 13:02:50.01	36.52	13.39	-36.4	-37.3	23.8	0.00e+00	123	39	0	489684992	46	5766
2026-01-03 13:02:51.02	36.65	13.47	-36.6	-37.6	23.6	0.00e+00	123	39	0	492830720	46	5941
2026-01-03 13:02:52.03	36.78	13.54	-36.8	-37.7	23.5	0.00e+00	123	39	0	495976448	46	6033
2026-01-03 13:02:53.04	36.91	13.62	-36.4	-37.3	23.7	0.00e+00	122	39	0	499122176	46	5761
2026-01-03 13:02:54.05	37.05	13.70	-36.5	-37.4	23.7	0.00e+00	123	39	0	502267904	46	5816
2026-01-03 13:02:55.06	37.18	13.77	-36.5	-37.5	23.6	0.00e+00	123	39	0	505413632	46	5870
2026-01-03 13:02:56.07	37.32	13.85	-36.4	-37.3	23.6	0.00e+00	122	39	0	508559360	46	5766
2026-01-03 13:02:57.08	37.45	13.93	-36.4	-37.3	23.8	0.00e+00	120	39	0	511705088	46	5764
2026-01-03 13:02:58.09	37.59	14.00	-36.3	-37.2	23.9	0.00e+00	123	39	0	514850816	46	5694
2026-01-03 13:02:59.10	37.73	14.08	-36.3	-37.2	23.8	0.00e+00	121	39	0	517996544	46	5713
2026-01-03 13:03:00.11	37.87	14.16	-36.4	-37.3	23.8	0.00e+00	123	39	0	521142272	46	5784
2026-01-03 13:03:01.12	38.00	14.23	-36.3	-37.2	23.8	0.00e+00	123	39	0	524288000	46	5718
2026-01-03 13:03:02.13	38.14	14.31	-36.6	-37.5	23.6	0.00e+00	123	39	0	527433728	46	5914
2026-01-03 13:03:03.14	38.28	14.39	-36.6	-37.5	23.7	0.00e+00	122	39	0	530579456	46	5880
2026-01-03 13:03:04.16	38.43	14.47	-36.5	-37.4	23.7	0.00e+00	122	39	0	533725184	46	5832
2026-01-03 13:03:05.16	38.57	14.54	-36.5	-37.4	23.8	0.00e+00	120	39	0	536870912	46	5849
2026-01-03 13:03:06.18	38.71	14.62	-36.6	-37.6	23.5	0.00e+00	122	39	0	540016640	46	5946
2026-01-03 13:03:07.18	38.85	14.70	-36.6	-37.6	23.6	0.00e+00	122	39	0	543162368	46	5938
2026-01-03 13:03:08.19	39.00	14.78	-36.9	-37.8	23.6	0.00e+00	122	39	0	546308096	46	6100
2026-01-03 13:03:09.20	39.14	14.85	-36.6	-37.6	23.7	0.00e+00	121	39	0	549453824	46	5934
2026-01-03 13:03:10.21	39.29	14.93	-36.7	-37.6	23.5	0.00e+00	123	39	0	552599552	46	5963
2026-01-03 13:03:11.22	39.43	15.01	-36.7	-37.6	23.5	0.00e+00	123	39	0	555745280	46	5979
2026-01-03 13:03:12.24	39.58	15.09	-36.7	-37.6	23.5	0.00e+00	122	39	0	558891008	46	5975
2026-01-03 13:03:13.24	39.73	15.17	-36.7	-37.6	23.5	0.00e+00	120	39	0	562036736	46	5960
2026-01-03 13:03:14.25	39.87	15.24	-37.0	-37.9	23.3	0.00e+00	122	39	0	565182464	46	6170
2026-01-03 13:03:15.26	40.02	15.32	-36.9	-37.8	23.4	0.00e+00	123	39	0	568328192	46	6125
2026-01-03 13:03:16.27	40.17	15.40	-37.0	-37.9	23.3	0.00e+00	123	39	0	571473920	46	6190
2026-01-03 13:03:17.28	40.32	15.48	-36.8	-37.7	23.4	0.00e+00	122	39	0	574619648	46	6054
2026-01-03 13:03:18.29	40.47	15.56	-37.0	-38.0	23.1	0.00e+00	122	39	0	577765376	46	6210
2026-01-03 13:03:19.30	40.63	15.64	-37.3	-38.3	23.2	0.00e+00	123	39	0	580911104	46	6457
2026-01-03 13:03:20.31	40.78	15.71	-37.1	-38.0	23.1	0.00e+00	123	39	0	584056832	46	6273
2026-01-03 13:03:21.32	40.93	15.79	-36.9	-37.9	23.4	0.00e+00	123	39	0	587202560	46	6159
2026-01-03 13:03:22.33	41.09	15.87	-37.2	-38.2	23.4	0.00e+00	123	39	0	590348288	46	6400
2026-01-03 13:03:23.34	41.24	15.95	-37.0	-38.0	23.4	0.00e+00	123	39	0	593494016	46	6208
2026-01-03 13:03:24.35	41.40	16.03	-37.5	-38.4	23.3	0.00e+00	120	39	0	596639744	46	6567
2026-01-03 13:03:25.36	41.55	16.11	-37.4	-38.4	22.6	0.00e+00	122	39	0	599785472	46	6555
2026-01-03 13:03:26.36	41.71	16.19	-37.0	-37.9	23.3	0.00e+00	120	39	0	602931200	48	5515
2026-01-03 13:03:27.37	41.87	16.27	-37.4	-38.4	23.0	0.00e+00	123	39	0	606076928	48	5799
2026-01-03 13:03:28.38	42.03	16.34	-37.2	-38.1	23.1	0.00e+00	120	39	0	609222656	48	5631
2026-01-03 13:03:29.39	42.19	16.42	-36.8	-37.7	23.4	0.00e+00	123	39	0	612368384	48	5399
2026-01-03 13:03:30.40	42.35	16.50	-36.9	-37.9	23.4	0.00e+00	120	39	0	615514112	48	5492
2026-01-03 13:03:31.41	42.51	16.58	-37.0	-37.9	23.4	0.00e+00	123	39	0	618659840	48	5507
2026-01-03 13:03:32.42	42.67	16.66	-36.9	-37.8	23.4	0.00e+00	122	39	0	621805568	48	5465
2026-01-03 13:03:33.43	42.84	16.74	-37.1	-38.0	23.3	0.00e+00	123	39	0	624951296	48	5583
2026-01-03 13:03:34.44	43.00	16.82	-36.9	-37.9	23.4	0.00e+00	120	39	0	628097024	48	5488
2026-01-03 13:03:35.45	43.17	16.90	-37.0	-38.0	23.3	0.00e+00	120	39	0	631242752	48	5566
2026-01-03 13:03:36.46	43.33	16.98	-37.0	-38.0	23.3	0.00e+00	123	39	0	634388480	48	5547
2026-01-03 13:03:37.47	43.50	17.06	-37.0	-38.0	23.3	0.00e+00	122	39	0	637534208	48	5555
2026-01-03 13:03:38.48	43.67	17.14	-37.1	-38.0	23.3	0.00e+00	123	39	0	640679936	48	5579
2026-01-03 13:03:39.49	43.83	17.22	-37.1	-38.0	23.2	0.00e+00	123	39	0	643825664	48	5573
2026-01-03 13:03:40.50	44.00	17.30	-37.2	-38.1	23.2	0.00e+00	123	39	0	646971392	48	5651
2026-01-03 13:03:41.50	44.17	17.38	-37.1	-38.1	23.0	0.00e+00	123	39	0	650117120	48	5616
2026-01-03 13:03:42.51	44.34	17.46	-37.4	-38.3	23.1	0.00e+00	122	39	0	653262848	48	5774
2026-01-03 13:03:43.52	44.51	17.54	-37.1	-38.1	23.1	0.00e+00	123	39	0	656408576	48	5599
2026-01-03 13:03:44.53	44.69	17.62	-37.0	-38.0	23.2	0.00e+00	120	39	0	659554304	48	5558
2026-01-03 13:03:45.54	44.86	17.70	-37.3	-38.3	23.0	0.00e+00	123	39	0	662700032	48	5764
2026-01-03 13:03:46.55	45.03	17.77	-37.2	-38.2	22.9	0.00e+00	121	39	0	665845760	48	5683
2026-01-03 13:03:47.56	45.21	17.85	-37.0	-38.0	23.1	0.00e+00	123	39	0	668991488	48	5536
2026-01-03 13:03:48.57	45.39	17.93	-37.2	-38.2	23.0	0.00e+00	123	39	0	672137216	48	5676
2026-01-03 13:03:49.58	45.56	18.01	-37.2	-38.1	23.3	0.00e+00	122	39	0	675282944	48	5636
2026-01-03 13:03:50.59	45.74	18.09	-37.2	-38.1	23.2	0.00e+00	123	39	0	678428672	48	5649
2026-01-03 13:03:51.59	45.92	18.17	-37.2	-38.1	23.3	0.00e+00	123	39	0	681574400	48	5642
2026-01-03 13:03:52.60	46.10	18.25	-36.9	-37.8	23.4	0.00e+00	123	39	0	684720128	48	5446
2026-01-03 13:03:53.61	46.28	18.33	-37.2	-38.1	23.2	0.00e+00	122	39	0	687865856	48	5643
2026-01-03 13:03:54.62	46.46	18.41	-36.8	-37.7	23.5	0.00e+00	120	39	0	691011584	48	5394
2026-01-03 13:03:55.64	46.65	18.49	-36.9	-37.9	23.3	0.00e+00	123	39	0	694157312	46	6158
2026-01-03 13:03:56.64	46.83	18.57	-36.9	-37.8	23.4	0.00e+00	120	39	0	697303040	46	6118
2026-01-03 13:03:57.66	47.01	18.65	-36.9	-37.8	23.3	0.00e+00	122	39	0	700448768	46	6101
2026-01-03 13:03:58.66	47.20	18.73	-37.1	-38.1	23.1	0.00e+00	123	39	0	703594496	46	6322
2026-01-03 13:03:59.67	47.38	18.81	-37.0	-38.0	23.2	0.00e+00	123	39	0	706740224	46	6236
2026-01-03 13:04:00.68	47.57	18.89	-36.8	-37.7	23.4	0.00e+00	120	39	0	709885952	46	6059
2026-01-03 13:04:01.70	47.76	18.97	-36.9	-37.8	23.3	0.00e+00	122	39	0	713031680	46	6114
2026-01-03 13:04:02.71	47.95	19.05	-36.9	-37.8	23.3	0.00e+00	123	39	0	716177408	46	6107
2026-01-03 13:04:03.71	48.14	19.13	-36.8	-37.8	23.4	0.00e+00	120	39	0	719323136	46	6074
2026-01-03 13:04:04.73	48.33	19.21	-36.7	-37.6	23.5	0.00e+00	123	39	0	722468864	46	5990
2026-01-03 13:04:05.73	48.52	19.29	-37.2	-38.1	23.6	0.00e+00	123	39	0	725614592	46	6343
2026-01-03 13:04:06.75	48.72	19.37	-36.8	-37.8	23.4	0.00e+00	123	39	0	728760320	46	6089
2026-01-03 13:04:07.75	48.91	19.44	-36.6	-37.5	23.6	0.00e+00	123	39	0	731906048	46	5905
2026-01-03 13:04:08.76	49.11	19.52	-36.6	-37.5	23.6	0.00e+00	122	39	0	735051776	46	5922
2026-01-03 13:04:09.77	49.30	19.60	-36.3	-37.2	23.8	0.00e+00	123	39	0	738197504	46	5721
2026-01-03 13:04:10.78	49.50	19.68	-36.3	-37.2	23.8	0.00e+00	123	39	0	741343232	46	5692
2026-01-03 13:04:11.79	49.70	19.76	-36.3	-37.2	23.8	0.00e+00	123	39	0	744488960	46	5717
2026-01-03 13:04:12.80	49.90	19.84	-36.1	-37.0	24.0	0.00e+00	121	39	0	747634688	46	5553
2026-01-03 13:04:13.81	50.10	19.92	-36.0	-36.9	24.0	0.00e+00	122	39	0	750780416	46	5517
2026-01-03 13:04:14.82	50.30	20.00	-36.3	-37.2	24.0	0.00e+00	122	39	0	753926144	46	5711
2026-01-03 13:04:15.83	50.50	20.07	-36.0	-36.9	24.0	0.00e+00	123	39	0	757071872	46	5523
2026-01-03 13:04:16.84	50.70	20.15	-35.9	-36.8	24.2	0.00e+00	120	39	0	760217600	46	5425
2026-01-03 13:04:17.85	50.91	20.23	-35.7	-36.6	24.3	0.00e+00	123	39	0	763363328	44	5960
2026-01-03 13:04:18.86	51.11	20.31	-36.0	-36.9	24.1	0.00e+00	123	39	0	766509056	44	6190
2026-01-03 13:04:19.87	51.32	20.39	-35.9	-36.8	24.2	0.00e+00	123	39	0	769654784	44	6125
2026-01-03 13:04:20.88	51.52	20.46	-36.0	-36.9	24.1	0.00e+00	120	39	0	773849088	44	6158
2026-01-03 13:04:21.88	51.73	20.54	-35.8	-36.7	24.2	0.00e+00	122	39	0	776994816	44	6058
2026-01-03 13:04:22.89	51.94	20.62	-35.9	-36.8	24.2	0.00e+00	122	39	0	779091968	44	6114
2026-01-03 13:04:23.90	52.15	20.70	-35.9	-36.8	24.1	0.00e+00	122	39	0	782237696	44	6104
2026-01-03 13:04:24.91	52.36	20.77	-35.8	-36.7	24.2	0.00e+00	122	39	0	785383424	44	6021
2026-01-03 13:04:25.92	52.57	20.85	-35.9	-36.8	24.1	0.00e+00	123	39	0	788529152	44	6098
2026-01-03 13:04:26.93	52.79	20.93	-35.9	-36.8	24.2	0.00e+00	122	39	0	792723456	44	6110
2026-01-03 13:04:27.94	53.00	21.01	-35.8	-36.7	24.3	0.00e+00	122	39	0	795869184	44	6060
2026-01-03 13:04:28.94	53.22	21.08	-35.9	-36.8	24.1	0.00e+00	122	39	0	799014912	44	6078
2026-01-03 13:04:29.96	53.43	21.16	-36.0	-36.9	24.2	0.00e+00	123	39	0	802160640	44	6170
2026-01-03 13:04:30.96	53.65	21.23	-36.0	-36.9	24.2	0.00e+00	122	39	0	804257792	44	6175
2026-01-03 13:04:31.97	53.87	21.31	-35.9	-36.8	24.0	0.00e+00	123	39	0	807403520	44	6109
2026-01-03 13:04:32.98	54.09	21.39	-36.3	-37.3	23.9	0.00e+00	120	40	0	811597824	44	6440
2026-01-03 13:04:33.99	54.31	21.46	-36.2	-37.1	23.8	0.00e+00	123	39	0	814743552	44	6310
2026-01-03 13:04:35.00	54.53	21.54	-36.0	-36.9	24.0	0.00e+00	122	39	0	817889280	44	6176
2026-01-03 13:04:36.01	54.75	21.61	-35.9	-36.8	23.8	0.00e+00	122	39	0	821035008	44	6133
2026-01-03 13:04:37.02	54.98	21.69	-36.1	-37.0	24.1	0.00e+00	123	39	0	824180736	44	6248
2026-01-03 13:04:38.03	55.20	21.76	-36.0	-37.0	24.1	0.00e+00	123	39	0	827326464	44	6215
2026-01-03 13:04:39.04	55.43	21.84	-35.8	-36.7	24.2	0.00e+00	122	39	0	830472192	44	6023
2026-01-03 13:04:40.05	55.66	21.91	-35.5	-36.4	24.5	0.00e+00	123	39	0	833617920	44	5834
2026-01-03 13:04:41.06	55.88	21.99	-35.5	-36.4	24.5	0.00e+00	120	39	0	836763648	44	5802
2026-01-03 13:04:42.07	56.11	22.06	-35.4	-36.3	24.5	0.00e+00	123	39	0	839909376	44	5736
2026-01-03 13:04:43.08	56.34	22.14	-35.3	-36.2	24.5	0.00e+00	120	39	0	843055104	44	5697
2026-01-03 13:04:44.09	56.57	22.21	-35.5	-36.5	24.2	0.00e+00	123	39	0	846200832	44	5860
2026-01-03 13:04:45.10	56.81	22.28	-35.5	-36.5	24.2	0.00e+00	123	39	0	849346560	44	5861
2026-01-03 13:04:46.11	57.04	22.36	-35.4	-36.3	24.3	0.00e+00	122	39	0	852492288	44	5751
2026-01-03 13:04:47.12	57.28	22.43	-35.5	-36.4	24.2	0.00e+00	123	39	0	855638016	44	5809
2026-01-03 13:04:48.13	57.51	22.50	-35.4	-36.4	24.2	0.00e+00	120	39	0	858783744	44	5803
2026-01-03 13:04:49.14	57.75	22.57	-35.4	-36.3	24.3	0.00e+00	123	39	0	861929472	44	5762
2026-01-03 13:04:50.15	57.99	22.65	-35.7	-36.7	24.4	0.00e+00	120	39	0	865075200	44	6016
2026-01-03 13:04:51.16	58.23	22.72	-35.4	-36.3	24.5	0.00e+00	123	39	0	868220928	44	5768
2026-01-03 13:04:52.17	58.47	22.79	-35.4	-36.3	24.6	0.00e+00	120	39	0	871366656	44	5736
2026-01-03 13:04:53.18	58.71	22.86	-35.5	-36.4	24.4	0.00e+00	123	39	0	874512384	44	5801
2026-01-03 13:04:54.18	58.95	22.93	-35.4	-36.3	24.5	0.00e+00	122	39	0	877658112	44	5726
2026-01-03 13:04:55.20	59.19	23.00	-35.4	-36.3	24.4	0.00e+00	123	39	0	880803840	44	5761
2026-01-03 13:04:56.21	59.44	23.07	-35.4	-36.3	24.3	0.00e+00	123	39	0	883949568	44	5774
2026-01-03 13:04:57.22	59.68	23.14	-35.4	-36.3	24.4	0.00e+00	123	39	0	887095296	44	5749
2026-01-03 13:04:58.23	59.93	23.21	-35.3	-36.3	24.5	0.00e+00	123	39	0	890241024	44	5727
2026-01-03 13:04:59.23	60.17	23.28	-35.4	-36.3	24.3	0.00e+00	120	39	0	893386752	44	5788
2026-01-03 13:05:00.25	60.42	23.35	-35.5	-36.4	24.3	0.00e+00	123	40	0	896532480	44	5836
2026-01-03 13:05:01.26	60.67	23.42	-35.5	-36.4	24.4	0.00e+00	122	40	0	899678208	44	5798
2026-01-03 13:05:02.27	60.92	23.48	-35.7	-36.6	24.3	0.00e+00	122	40	0	902823936	44	5946
2026-01-03 13:05:03.27	61.17	23.55	-35.5	-36.5	24.3	0.00e+00	123	40	0	905969664	44	5859
2026-01-03 13:05:04.28	61.43	23.62	-35.4	-36.3	24.4	0.00e+00	123	39	0	909115392	44	5776
2026-01-03 13:05:05.30	61.68	23.69	-35.4	-36.3	24.4	0.00e+00	120	39	0	912261120	44	5783
2026-01-03 13:05:06.31	61.94	23.75	-35.6	-36.5	24.4	0.00e+00	123	40	0	915406848	44	5903
2026-01-03 13:05:07.32	62.19	23.82	-35.6	-36.5	24.2	0.00e+00	123	39	0	918552576	44	5916
2026-01-03 13:05:08.33	62.45	23.88	-35.6	-36.5	24.2	0.00e+00	123	39	0	921698304	44	5902
2026-01-03 13:05:09.33	62.71	23.95	-35.9	-36.8	24.1	0.00e+00	123	40	0	924844032	44	6101
2026-01-03 13:05:10.34	62.97	24.01	-35.8	-36.7	24.2	0.00e+00	123	39	0	927989760	44	6014
2026-01-03 13:05:11.35	63.23	24.08	-35.8	-36.7	24.2	0.00e+00	122	39	0	931135488	44	6056
2026-01-03 13:05:12.36	63.49	24.14	-36.0	-36.9	24.1	0.00e+00	122	39	0	934281216	44	6197
2026-01-03 13:05:13.37	63.75	24.20	-35.9	-36.8	24.2	0.00e+00	120	40	0	937426944	44	6111
2026-01-03 13:05:14.38	64.01	24.27	-36.1	-37.0	24.0	0.00e+00	123	40	0	940572672	44	6237
2026-01-03 13:05:15.40	64.28	24.33	-36.1	-37.0	24.1	0.00e+00	123	40	0	943718400	44	6235
2026-01-03 13:05:16.41	64.55	24.39	-36.0	-36.9	23.9	0.00e+00	122	39	0	946864128	44	6148
2026-01-03 13:05:17.42	64.81	24.45	-36.2	-37.1	23.9	0.00e+00	122	40	0	950009856	44	6344
2026-01-03 13:05:18.43	65.08	24.51	-36.0	-37.0	23.9	0.00e+00	120	39	0	953155584	44	6210
2026-01-03 13:05:19.44	65.35	24.57	-36.1	-37.0	24.1	0.00e+00	123	39	0	956301312	44	6236
2026-01-03 13:05:20.45	65.62	24.63	-36.1	-37.0	24.1	0.00e+00	123	39	0	959447040	44	6238
2026-01-03 13:05:21.46	65.89	24.69	-35.9	-36.8	24.2	0.00e+00	123	39	0	962592768	44	6108
2026-01-03 13:05:22.47	66.16	24.75	-36.0	-36.9	24.2	0.00e+00	123	40	0	965738496	44	6150
2026-01-03 13:05:23.48	66.43	24.81	-35.9	-36.8	24.2	0.00e+00	123	40	0	968884224	44	6067
2026-01-03 13:05:24.48	66.71	24.87	-36.0	-37.0	23.9	0.00e+00	123	39	0	972029952	44	6214
2026-01-03 13:05:25.49	66.98	24.93	-36.2	-37.1	23.9	0.00e+00	122	39	0	975175680	44	6311
2026-01-03 13:05:26.50	67.26	24.98	-36.0	-36.9	24.0	0.00e+00	123	40	0	978321408	44	6156
2026-01-03 13:05:27.51	67.53	25.04	-36.0	-36.9	24.1	0.00e+00	123	39	0	981467136	44	6145
2026-01-03 13:05:28.52	67.81	25.09	-35.9	-36.8	24.1	0.00e+00	122	40	0	984612864	44	6109
2026-01-03 13:05:29.53	68.09	25.15	-35.9	-36.8	24.1	0.00e+00	123	40	0	987758592	44	6120
2026-01-03 13:05:30.54	68.37	25.20	-35.8	-36.7	24.3	0.00e+00	123	40	0	990904320	44	6051
2026-01-03 13:05:31.55	68.65	25.26	-35.8	-36.7	24.3	0.00e+00	123	39	0	994050048	44	6024
2026-01-03 13:05:32.56	68.93	25.31	-35.7	-36.6	24.3	0.00e+00	122	39	0	997195776	44	5928
2026-01-03 13:05:33.57	69.21	25.36	-35.7	-36.6	24.3	0.00e+00	123	40	0	1000341504	44	5979
2026-01-03 13:05:34.58	69.49	25.42	-35.8	-36.7	24.1	0.00e+00	123	40	0	1003487232	44	6021
2026-01-03 13:05:35.59	69.78	25.47	-35.8	-36.8	24.1	0.00e+00	123	40	0	1006632960	44	6065
2026-01-03 13:05:36.60	70.06	25.52	-36.0	-36.9	24.1	0.00e+00	123	39	0	1009778688	44	6205
2026-01-03 13:05:37.61	70.35	25.57	-35.9	-36.8	24.1	0.00e+00	123	39	0	1012924416	44	6112
2026-01-03 13:05:38.62	70.64	25.62	-36.0	-36.9	24.1	0.00e+00	122	39	0	1016070144	44	6205
2026-01-03 13:05:39.62	70.92	25.66	-36.0	-36.9	24.1	0.00e+00	123	40	0	1019215872	44	6176
2026-01-03 13:05:40.63	71.21	25.71	-35.8	-36.7	24.2	0.00e+00	120	39	0	1022361600	44	6022
2026-01-03 13:05:41.64	71.50	25.76	-35.7	-36.6	24.3	0.00e+00	123	39	0	1025507328	44	5937
2026-01-03 13:05:42.65	71.79	25.81	-35.7	-36.6	24.1	0.00e+00	123	39	0	1028653056	44	5963
2026-01-03 13:05:43.66	72.08	25.85	-35.6	-36.5	24.1	0.00e+00	122	39	0	1031798784	44	5917
2026-01-03 13:05:44.67	72.37	25.90	-35.8	-36.7	24.1	0.00e+00	120	39	0	1034944512	44	6023
2026-01-03 13:05:45.67	72.66	25.94	-35.8	-36.7	24.0	0.00e+00	123	39	0	1038090240	44	6010
2026-01-03 13:05:46.69	72.96	25.99	-35.7	-36.6	24.2	0.00e+00	123	39	0	1041235968	44	5994
2026-01-03 13:05:47.70	73.25	26.03	-35.8	-36.7	24.0	0.00e+00	121	40	0	1044381696	44	6024
2026-01-03 13:05:48.70	73.54	26.07	-35.9	-36.8	24.0	0.00e+00	123	39	0	1047527424	44	6078
2026-01-03 13:05:49.72	73.84	26.11	-35.8	-36.7	24.0	0.00e+00	120	39	0	1050673152	44	6019
2026-01-03 13:05:50.72	74.14	26.16	-35.9	-36.9	24.0	0.00e+00	123	39	0	1053818880	44	6141
2026-01-03 13:05:51.74	74.44	26.20	-35.6	-36.5	24.2	0.00e+00	123	39	0	1056964608	44	5889
2026-01-03 13:05:52.74	74.73	26.24	-35.7	-36.6	24.1	0.00e+00	123	39	0	1060110336	44	5956
2026-01-03 13:05:53.75	75.03	26.27	-35.6	-36.5	24.3	0.00e+00	120	39	0	1063256064	44	5910
2026-01-03 13:05:54.76	75.33	26.31	-35.5	-36.4	24.3	0.00e+00	122	39	0	1066401792	44	5834
2026-01-03 13:05:55.77	75.63	26.35	-35.5	-36.4	24.3	0.00e+00	120	39	0	1069547520	44	5807
2026-01-03 13:05:56.78	75.93	26.39	-35.5	-36.4	24.3	0.00e+00	122	39	0	1072693248	44	5857
2026-01-03 13:05:57.79	76.23	26.42	-36.0	-36.9	24.2	0.00e+00	120	39	0	1075838976	44	6171
2026-01-03 13:05:58.80	76.54	26.46	-35.7	-36.6	24.0	0.00e+00	122	40	0	1078984704	44	5952
2026-01-03 13:05:59.81	76.84	26.49	-36.1	-37.0	24.2	0.00e+00	125	39	0	1082130432	44	6237
2026-01-03 13:06:00.82	77.14	26.52	-35.9	-36.8	24.4	0.00e+00	123	39	0	1085276160	44	6128
2026-01-03 13:06:01.83	77.45	26.56	-35.6	-36.5	24.4	0.00e+00	122	39	0	1088421888	44	5911
2026-01-03 13:06:02.84	77.75	26.59	-35.6	-36.5	24.3	0.00e+00	123	39	0	1091567616	44	5896
2026-01-03 13:06:03.85	78.06	26.62	-35.5	-36.4	24.5	0.00e+00	122	40	0	1094713344	44	5832
2026-01-03 13:06:04.86	78.36	26.65	-35.6	-36.5	24.5	0.00e+00	122	39	0	1097859072	44	5898
2026-01-03 13:06:05.87	78.67	26.68	-35.5	-36.4	24.5	0.00e+00	123	39	0	1101004800	44	5850
2026-01-03 13:06:06.88	78.98	26.71	-35.6	-36.5	24.5	0.00e+00	122	39	0	1104150528	44	5921
2026-01-03 13:06:07.89	79.29	26.74	-35.5	-36.4	24.4	0.00e+00	122	39	0	1107296256	44	5827
2026-01-03 13:06:08.90	79.59	26.76	-35.6	-36.5	24.3	0.00e+00	121	40	0	1110441984	44	5877
2026-01-03 13:06:09.91	79.90	26.79	-35.5	-36.4	24.5	0.00e+00	120	39	0	1113587712	44	5793
2026-01-03 13:06:10.92	80.21	26.81	-35.5	-36.4	24.3	0.00e+00	123	39	0	1116733440	44	5805
2026-01-03 13:06:11.93	80.52	26.84	-35.6	-36.5	24.5	0.00e+00	120	40	0	1119879168	44	5883
2026-01-03 13:06:12.94	80.83	26.86	-35.6	-36.5	24.4	0.00e+00	122	39	0	1123024896	44	5862
2026-01-03 13:06:13.95	81.14	26.88	-35.4	-36.3	24.6	0.00e+00	120	39	0	1126170624	44	5761
2026-01-03 13:06:14.96	81.45	26.91	-35.3	-36.2	24.6	0.00e+00	122	40	0	1129316352	44	5698
2026-01-03 13:06:15.96	81.76	26.93	-35.3	-36.2	24.6	0.00e+00	120	39	0	1132462080	44	5700
2026-01-03 13:06:16.97	82.07	26.95	-35.6	-36.5	24.5	0.00e+00	123	39	0	1135607808	44	5881
2026-01-03 13:06:17.98	82.39	26.96	-35.9	-36.8	24.1	0.00e+00	121	39	0	1139802112	44	6099
2026-01-03 13:06:18.99	82.70	26.98	-35.9	-36.8	24.3	0.00e+00	123	39	0	1141899264	44	6068
2026-01-03 13:06:20.00	83.01	27.00	-35.6	-36.5	24.5	0.00e+00	120	39	0	1145044992	44	5879
2026-01-03 13:06:21.01	83.32	27.02	-35.8	-36.7	24.3	0.00e+00	122	39	0	1148190720	44	6033
2026-01-03 13:06:22.02	83.64	27.03	-35.5	-36.4	24.4	0.00e+00	120	40	0	1151336448	44	5826
2026-01-03 13:06:23.03	83.95	27.05	-35.4	-36.3	24.5	0.00e+00	120	39	0	1155530752	44	5747
2026-01-03 13:06:24.04	84.27	27.06	-35.6	-36.5	24.3	0.00e+00	123	39	0	1158676480	44	5904
2026-01-03 13:06:25.05	84.58	27.07	-35.5	-36.4	24.2	0.00e+00	120	39	0	1161822208	44	5843
2026-01-03 13:06:26.06	84.89	27.08	-35.6	-36.5	24.4	0.00e+00	123	39	0	1164967936	44	5859
2026-01-03 13:06:27.07	85.21	27.10	-35.6	-36.5	24.4	0.00e+00	120	39	0	1167065088	44	5875
2026-01-03 13:06:28.08	85.52	27.11	-35.4	-36.3	24.6	0.00e+00	123	39	0	1171259392	44	5747
2026-01-03 13:06:29.09	85.84	27.12	-35.3	-36.2	24.7	0.00e+00	120	39	0	1174405120	44	5699
2026-01-03 13:06:30.10	86.16	27.12	-35.3	-36.2	24.6	0.00e+00	122	40	0	1177550848	44	5675
2026-01-03 13:06:31.11	86.47	27.13	-35.5	-36.4	24.4	0.00e+00	120	39	0	1180696576	44	5826
2026-01-03 13:06:32.12	86.79	27.14	-35.6	-36.5	24.5	0.00e+00	121	40	0	1183842304	44	5862
2026-01-03 13:06:33.12	87.10	27.14	-35.6	-36.5	24.5	0.00e+00	122	39	0	1186988032	44	5888
2026-01-03 13:06:34.14	87.42	27.15	-35.6	-36.5	24.4	0.00e+00	123	40	0	1190133760	44	5904
2026-01-03 13:06:35.15	87.74	27.15	-35.8	-36.7	24.3	0.00e+00	122	39	0	1193279488	44	6023
2026-01-03 13:06:36.16	88.05	27.15	-35.7	-36.6	24.3	0.00e+00	120	40	0	1196425216	44	5966
2026-01-03 13:06:37.16	88.36	27.16	-35.5	-36.4	24.3	0.00e+00	123	40	0	1199570944	44	5850
2026-01-03 13:06:38.17	88.68	27.16	-35.7	-36.6	24.4	0.00e+00	121	39	0	1202716672	44	5986
2026-01-03 13:06:39.18	89.00	27.16	-35.6	-36.5	24.4	0.00e+00	123	40	0	1205862400	44	5903
2026-01-03 13:06:40.19	89.31	27.16	-35.6	-36.5	24.5	0.00e+00	123	40	0	1209008128	44	5882
2026-01-03 13:06:41.20	89.63	27.15	-35.2	-36.1	24.7	0.00e+00	123	39	0	1212153856	44	5635
2026-01-03 13:06:42.21	89.95	27.15	-35.5	-36.4	24.5	0.00e+00	120	39	0	1215299584	44	5849
2026-01-03 13:06:43.22	90.26	27.15	-35.5	-36.4	24.5	0.00e+00	123	39	0	1218445312	44	5800
2026-01-03 13:06:44.23	90.58	27.14	-35.5	-36.4	24.5	0.00e+00	122	40	0	1221591040	44	5815
2026-01-03 13:06:45.24	90.89	27.14	-35.6	-36.5	24.4	0.00e+00	123	40	0	1224736768	44	5921
2026-01-03 13:06:46.26	91.21	27.13	-35.5	-36.4	24.4	0.00e+00	123	40	0	1227882496	44	5852
2026-01-03 13:06:47.26	91.53	27.12	-35.5	-36.4	24.4	0.00e+00	123	40	0	1231028224	44	5793
2026-01-03 13:06:48.28	91.84	27.12	-35.2	-36.1	24.6	0.00e+00	123	39	0	1234173952	44	5608
2026-01-03 13:06:49.29	92.16	27.11	-35.2	-36.1	24.6	0.00e+00	123	40	0	1237319680	44	5605
2026-01-03 13:06:50.30	92.48	27.10	-35.2	-36.1	24.6	0.00e+00	121	39	0	1240465408	44	5606
2026-01-03 13:06:51.31	92.79	27.09	-35.1	-36.0	24.7	0.00e+00	123	39	0	1243611136	44	5567
2026-01-03 13:06:52.32	93.10	27.07	-35.7	-36.6	24.4	0.00e+00	121	40	0	1246756864	44	5956
2026-01-03 13:06:53.33	93.42	27.06	-35.6	-36.5	24.4	0.00e+00	123	40	0	1249902592	44	5875
2026-01-03 13:06:54.34	93.73	27.05	-35.6	-36.5	24.3	0.00e+00	120	39	0	1253048320	44	5912
2026-01-03 13:06:55.34	94.04	27.03	-35.5	-36.4	24.6	0.00e+00	120	39	0	1256194048	44	5820
2026-01-03 13:06:56.35	94.36	27.02	-35.5	-36.4	24.4	0.00e+00	121	40	0	1259339776	44	5808
2026-01-03 13:06:57.36	94.67	27.00	-35.5	-36.4	24.4	0.00e+00	123	40	0	1262485504	44	5823
2026-01-03 13:06:58.36	94.98	26.98	-35.3	-36.2	24.4	0.00e+00	121	40	0	1265631232	44	5692
2026-01-03 13:06:59.37	95.30	26.97	-35.5	-36.4	24.4	0.00e+00	123	40	0	1268776960	44	5824
2026-01-03 13:07:00.38	95.61	26.95	-35.2	-36.0	24.7	0.00e+00	120	40	0	1271922688	44	5592
2026-01-03 13:07:01.39	95.92	26.93	-35.2	-36.0	24.8	0.00e+00	123	40	0	1275068416	44	5587
2026-01-03 13:07:02.40	96.23	26.91	-35.3	-36.2	24.7	0.00e+00	122	40	0	1278214144	44	5682
2026-01-03 13:07:03.41	96.54	26.88	-35.6	-36.5	24.5	0.00e+00	122	40	0	1281359872	44	5884
2026-01-03 13:07:04.42	96.85	26.86	-35.6	-36.5	24.5	0.00e+00	123	40	0	1284505600	44	5897
2026-01-03 13:07:05.43	97.16	26.84	-35.3	-36.2	24.5	0.00e+00	120	40	0	1287651328	44	5669
2026-01-03 13:07:06.44	97.47	26.81	-35.6	-36.5	24.3	0.00e+00	123	40	0	1290797056	44	5911
2026-01-03 13:07:07.45	97.78	26.79	-35.7	-36.6	24.3	0.00e+00	120	40	0	1293942784	44	5968
2026-01-03 13:07:08.46	98.09	26.76	-35.9	-36.8	24.1	0.00e+00	122	40	0	1297088512	44	6133
2026-01-03 13:07:09.47	98.40	26.74	-35.8	-36.7	24.1	0.00e+00	120	40	0	1300234240	44	6018
2026-01-03 13:07:10.49	98.71	26.71	-35.3	-36.2	24.5	0.00e+00	122	39	0	1303379968	44	5718
2026-01-03 13:07:11.50	99.02	26.68	-35.2	-36.1	24.7	0.00e+00	122	40	0	1306525696	44	5595
2026-01-03 13:07:12.51	99.33	26.65	-35.3	-36.2	24.5	0.00e+00	122	40	0	1309671424	44	5696
2026-01-03 13:07:13.52	99.63	26.62	-35.3	-36.2	24.5	0.00e+00	122	40	0	1312817152	44	5711
2026-01-03 13:07:14.53	99.94	26.59	-35.3	-36.2	24.6	0.00e+00	120	39	0	1315962880	44	5702
2026-01-03 13:07:15.54	100.25	26.56	-35.4	-36.3	24.6	0.00e+00	123	40	0	1319108608	44	5727
2026-01-03 13:07:16.55	100.55	26.52	-35.4	-36.3	24.4	0.00e+00	121	40	0	1322254336	44	5788
2026-01-03 13:07:17.56	100.85	26.49	-35.5	-36.4	24.4	0.00e+00	123	40	0	1325400064	44	5856
2026-01-03 13:07:18.57	101.16	26.46	-35.5	-36.4	24.4	0.00e+00	121	40	0	1328545792	44	5811
2026-01-03 13:07:19.58	101.46	26.42	-35.7	-36.6	24.4	0.00e+00	123	40	0	1331691520	44	5950
2026-01-03 13:07:20.58	101.76	26.39	-35.5	-36.4	24.4	0.00e+00	122	39	0	1334837248	44	5854
2026-01-03 13:07:21.59	102.06	26.35	-35.6	-36.5	24.4	0.00e+00	120	40	0	1337982976	44	5897
2026-01-03 13:07:22.60	102.36	26.31	-35.6	-36.5	24.4	0.00e+00	122	40	0	1341128704	44	5874
2026-01-03 13:07:23.60	102.66	26.27	-35.6	-36.5	24.3	0.00e+00	122	40	0	1344274432	44	5917
2026-01-03 13:07:24.61	102.96	26.24	-36.0	-36.9	24.2	0.00e+00	123	39	0	1347420160	44	6183
2026-01-03 13:07:25.62	103.26	26.20	-35.9	-36.8	24.1	0.00e+00	123	39	0	1350565888	44	6091
2026-01-03 13:07:26.63	103.56	26.16	-35.8	-36.7	24.2	0.00e+00	123	39	0	1353711616	44	6038
2026-01-03 13:07:27.64	103.85	26.11	-35.8	-36.7	24.1	0.00e+00	123	39	0	1356857344	44	6058
2026-01-03 13:07:28.65	104.15	26.07	-35.9	-36.8	24.2	0.00e+00	122	39	0	1360003072	44	6087
2026-01-03 13:07:29.66	104.45	26.03	-35.9	-36.9	24.1	0.00e+00	123	39	0	1363148800	44	6143
2026-01-03 13:07:30.67	104.74	25.99	-35.9	-36.8	24.2	0.00e+00	123	39	0	1366294528	44	6103
2026-01-03 13:07:31.68	105.03	25.94	-36.1	-37.1	23.8	0.00e+00	120	40	0	1369440256	44	6291
2026-01-03 13:07:32.69	105.33	25.90	-36.1	-37.0	24.1	0.00e+00	123	39	0	1372585984	44	6235
2026-01-03 13:07:33.70	105.62	25.85	-36.1	-37.0	24.1	0.00e+00	120	40	0	1375731712	44	6256
2026-01-03 13:07:34.71	105.91	25.81	-36.0	-36.9	24.1	0.00e+00	123	40	0	1378877440	44	6198
2026-01-03 13:07:35.71	106.20	25.76	-36.2	-37.2	23.9	0.00e+00	123	39	0	1382023168	44	6362
2026-01-03 13:07:36.72	106.49	25.71	-36.0	-36.9	24.1	0.00e+00	123	40	0	1385168896	44	6163
2026-01-03 13:07:37.73	106.78	25.66	-35.9	-36.8	24.1	0.00e+00	121	40	0	1388314624	44	6100
2026-01-03 13:07:38.75	107.07	25.61	-35.8	-36.7	24.0	0.00e+00	120	40	0	1391460352	44	6024
2026-01-03 13:07:39.75	107.36	25.56	-35.6	-36.6	24.4	0.00e+00	123	40	0	1394606080	44	5929
2026-01-03 13:07:40.76	107.64	25.51	-35.4	-36.2	24.5	0.00e+00	120	39	0	1397751808	44	5721
2026-01-03 13:07:41.77	107.93	25.46	-35.4	-36.3	24.5	0.00e+00	122	39	0	1400897536	44	5729
2026-01-03 13:07:42.78	108.21	25.41	-35.4	-36.3	24.5	0.00e+00	120	39	0	1404043264	44	5764
2026-01-03 13:07:43.79	108.50	25.36	-35.4	-36.3	24.6	0.00e+00	122	39	0	1407188992	44	5769
2026-01-03 13:07:44.80	108.78	25.31	-35.4	-36.2	24.5	0.00e+00	122	39	0	1410334720	44	5710
2026-01-03 13:07:45.81	109.06	25.25	-35.4	-36.2	24.5	0.00e+00	123	39	0	1413480448	44	5715
2026-01-03 13:07:46.82	109.34	25.20	-35.3	-36.2	24.6	0.00e+00	123	39	0	1416626176	44	5682
2026-01-03 13:07:47.83	109.62	25.14	-35.3	-36.2	24.5	0.00e+00	122	39	0	1419771904	44	5705
2026-01-03 13:07:48.84	109.90	25.09	-35.5	-36.3	24.5	0.00e+00	120	39	0	1422917632	44	5784
2026-01-03 13:07:49.85	110.18	25.03	-35.4	-36.3	24.5	0.00e+00	122	39	0	1426063360	44	5776
2026-01-03 13:07:50.86	110.46	24.98	-35.5	-36.4	24.5	0.00e+00	123	39	0	1429209088	44	5794
2026-01-03 13:07:51.87	110.73	24.92	-35.3	-36.1	24.4	0.00e+00	122	40	0	1432354816	44	5657
2026-01-03 13:07:52.87	111.01	24.86	-35.4	-36.3	24.6	0.00e+00	122	40	0	1435500544	44	5741
2026-01-03 13:07:53.88	111.28	24.81	-35.3	-36.2	24.5	0.00e+00	122	39	0	1438646272	44	5702
2026-01-03 13:07:54.89	111.55	24.75	-35.3	-36.2	24.4	0.00e+00	122	40	0	1441792000	44	5702
2026-01-03 13:07:55.91	111.83	24.69	-35.3	-36.2	24.3	0.00e+00	120	40	0	1444937728	44	5705
2026-01-03 13:07:56.91	112.10	24.63	-35.4	-36.3	24.4	0.00e+00	122	39	0	1448083456	44	5728
2026-01-03 13:07:57.92	112.37	24.57	-35.4	-36.3	24.7	0.00e+00	120	40	0	1451229184	44	5758
2026-01-03 13:07:58.93	112.64	24.51	-35.1	-35.9	24.8	0.00e+00	123	40	0	1454374912	44	5519
2026-01-03 13:07:59.94	112.91	24.45	-35.3	-36.2	24.7	0.00e+00	120	39	0	1457520640	44	5678
2026-01-03 13:08:00.95	113.17	24.38	-35.4	-36.3	24.5	0.00e+00	123	39	0	1460666368	44	5726
2026-01-03 13:08:01.96	113.44	24.32	-35.3	-36.2	24.7	0.00e+00	120	39	0	1463812096	44	5680
2026-01-03 13:08:02.97	113.71	24.26	-35.6	-36.4	24.5	0.00e+00	123	39	0	1466957824	44	5833
2026-01-03 13:08:03.98	113.97	24.20	-35.6	-36.5	24.3	0.00e+00	123	39	0	1470103552	44	5910
2026-01-03 13:08:04.99	114.23	24.13	-35.8	-36.7	24.2	0.00e+00	123	39	0	1473249280	44	6035
2026-01-03 13:08:06.00	114.50	24.07	-36.1	-37.0	24.1	0.00e+00	123	39	0	1476395008	44	6214
2026-01-03 13:08:07.00	114.75	24.00	-36.1	-37.0	24.0	0.00e+00	123	39	0	1479540736	44	6244
2026-01-03 13:08:08.02	115.02	23.94	-36.2	-37.1	23.7	0.00e+00	123	39	0	1482686464	46	5618
2026-01-03 13:08:09.02	115.27	23.87	-36.3	-37.2	23.8	0.00e+00	123	40	0	1485832192	46	5708
2026-01-03 13:08:10.03	115.53	23.81	-36.3	-37.2	23.7	0.00e+00	120	39	0	1488977920	46	5712
2026-01-03 13:08:11.04	115.79	23.74	-36.3	-37.2	23.8	0.00e+00	122	39	0	1492123648	46	5677
2026-01-03 13:08:12.05	116.04	23.67	-36.5	-37.4	23.3	0.00e+00	122	40	0	1495269376	46	5824
2026-01-03 13:08:13.06	116.30	23.61	-37.3	-38.2	23.7	0.00e+00	123	40	0	1498415104	46	6408
2026-01-03 13:08:14.07	116.55	23.54	-36.7	-37.6	23.3	0.00e+00	123	40	0	1501560832	46	5970
2026-01-03 13:08:15.08	116.81	23.47	-37.1	-38.0	23.7	0.00e+00	122	40	0	1505755136	46	6258
2026-01-03 13:08:16.09	117.06	23.40	-37.0	-37.9	23.9	0.00e+00	123	40	0	1507852288	46	6186
2026-01-03 13:08:17.10	117.31	23.33	-36.5	-37.5	23.9	0.00e+00	120	40	0	1510998016	46	5862
2026-01-03 13:08:18.11	117.56	23.27	-36.3	-37.2	24.0	0.00e+00	123	40	0	1514143744	46	5691
2026-01-03 13:08:19.12	117.81	23.20	-36.3	-37.2	24.1	0.00e+00	123	40	0	1517289472	46	5676
2026-01-03 13:08:20.13	118.05	23.13	-36.3	-37.2	24.1	0.00e+00	123	40	0	1521483776	46	5711
2026-01-03 13:08:21.14	118.30	23.06	-36.3	-37.2	24.1	0.00e+00	123	40	0	1524629504	46	5717
2026-01-03 13:08:22.15	118.54	22.99	-35.9	-36.8	24.4	0.00e+00	122	40	0	1527775232	46	5438
2026-01-03 13:08:23.16	118.79	22.92	-35.8	-36.7	24.3	0.00e+00	120	40	0	1529872384	44	6017
2026-01-03 13:08:24.16	119.03	22.84	-35.6	-36.5	24.5	0.00e+00	123	39	0	1533018112	44	5890
2026-01-03 13:08:25.18	119.27	22.77	-35.8	-36.7	24.2	0.00e+00	120	40	0	1537212416	44	6028
2026-01-03 13:08:26.19	119.51	22.70	-35.8	-36.7	24.4	0.00e+00	122	40	0	1540358144	44	6031
2026-01-03 13:08:27.20	119.75	22.63	-35.7	-36.6	24.4	0.00e+00	120	40	0	1543503872	44	5928
2026-01-03 13:08:28.21	119.99	22.56	-35.8	-36.7	24.3	0.00e+00	122	40	0	1546649600	44	6052
2026-01-03 13:08:29.22	120.23	22.48	-35.8	-36.7	24.2	0.00e+00	120	40	0	1549795328	44	6052
2026-01-03 13:08:30.23	120.47	22.41	-35.9	-36.9	24.2	0.00e+00	120	40	0	1552941056	44	6136
2026-01-03 13:08:31.24	120.70	22.34	-36.0	-36.9	24.2	0.00e+00	122	40	0	1556086784	44	6150
2026-01-03 13:08:32.25	120.94	22.26	-36.0	-36.9	24.3	0.00e+00	123	39	0	1559232512	44	6192
2026-01-03 13:08:33.26	121.17	22.19	-35.8	-36.7	24.3	0.00e+00	123	40	0	1562378240	44	5999
2026-01-03 13:08:34.27	121.40	22.12	-35.8	-36.7	24.4	0.00e+00	123	40	0	1565523968	44	6025
2026-01-03 13:08:35.28	121.63	22.04	-35.7	-36.6	24.4	0.00e+00	123	40	0	1568669696	44	5955
2026-01-03 13:08:36.29	121.86	21.97	-36.3	-37.2	24.4	0.00e+00	123	39	0	1571815424	44	6408
2026-01-03 13:08:37.30	122.09	21.89	-35.8	-36.7	24.5	0.00e+00	122	40	0	1574961152	44	6030
2026-01-03 13:08:38.31	122.32	21.82	-35.6	-36.6	24.4	0.00e+00	120	40	0	1578106880	44	5929
2026-01-03 13:08:39.31	122.55	21.74	-35.6	-36.5	24.4	0.00e+00	122	40	0	1581252608	44	5911
2026-01-03 13:08:40.33	122.77	21.67	-35.7	-36.6	24.4	0.00e+00	123	40	0	1584398336	44	5955
2026-01-03 13:08:41.34	123.00	21.59	-35.9	-36.8	24.2	0.00e+00	123	40	0	1587544064	44	6124
2026-01-03 13:08:42.35	123.22	21.51	-36.0	-36.9	24.3	0.00e+00	123	40	0	1590689792	44	6190
2026-01-03 13:08:43.36	123.44	21.44	-36.0	-36.9	24.0	0.00e+00	123	40	0	1593835520	44	6192
2026-01-03 13:08:44.37	123.67	21.36	-35.9	-36.8	24.2	0.00e+00	116	40	0	1596981248	44	6087
2026-01-03 13:08:45.38	123.89	21.29	-35.8	-36.7	24.4	0.00e+00	122	40	0	1600126976	44	6017
2026-01-03 13:08:46.39	124.11	21.21	-35.4	-36.4	24.6	0.00e+00	122	40	0	1603272704	44	5795
2026-01-03 13:08:47.40	124.32	21.13	-36.0	-36.9	24.5	0.00e+00	122	40	0	1606418432	44	6186
2026-01-03 13:08:48.41	124.54	21.05	-35.5	-36.4	24.6	0.00e+00	122	40	0	1609564160	44	5833
2026-01-03 13:08:49.42	124.76	20.98	-35.7	-36.6	24.6	0.00e+00	122	40	0	1612709888	44	5972
2026-01-03 13:08:50.43	124.97	20.90	-35.5	-36.3	24.5	0.00e+00	123	40	0	1615855616	44	5788
2026-01-03 13:08:51.44	125.19	20.82	-35.9	-36.8	24.2	0.00e+00	122	40	0	1619001344	44	6134
2026-01-03 13:08:52.45	125.40	20.74	-35.4	-36.3	24.6	0.00e+00	123	40	0	1622147072	44	5740
2026-01-03 13:08:53.46	125.61	20.67	-35.4	-36.3	24.5	0.00e+00	122	40	0	1625292800	44	5766
2026-01-03 13:08:54.47	125.82	20.59	-35.5	-36.4	24.5	0.00e+00	122	40	0	1628438528	44	5818
2026-01-03 13:08:55.48	126.03	20.51	-35.7	-36.6	24.4	0.00e+00	122	40	0	1631584256	44	5931
2026-01-03 13:08:56.49	126.24	20.43	-35.9	-36.8	24.1	0.00e+00	122	40	0	1634729984	44	6087
2026-01-03 13:08:57.50	126.45	20.35	-35.5	-36.4	24.4	0.00e+00	123	40	0	1637875712	44	5805
2026-01-03 13:08:58.51	126.66	20.27	-35.6	-36.5	24.2	0.00e+00	123	40	0	1641021440	44	5915
2026-01-03 13:08:59.52	126.86	20.20	-35.2	-36.1	24.5	0.00e+00	123	40	0	1644167168	44	5629
2026-01-03 13:09:00.53	127.07	20.12	-35.5	-36.4	24.2	0.00e+00	123	40	0	1647312896	44	5835
2026-01-03 13:09:01.53	127.27	20.04	-35.5	-36.4	24.2	0.00e+00	123	40	0	1650458624	44	5799
2026-01-03 13:09:02.54	127.47	19.96	-35.5	-36.4	24.2	0.00e+00	122	40	0	1653604352	44	5851
2026-01-03 13:09:03.55	127.67	19.88	-35.8	-36.7	24.2	0.00e+00	123	40	0	1656750080	44	6054
2026-01-03 13:09:04.56	127.87	19.80	-35.6	-36.5	24.2	0.00e+00	122	40	0	1659895808	44	5918
2026-01-03 13:09:05.58	128.08	19.72	-35.8	-36.7	24.2	0.00e+00	123	40	0	1663041536	44	5999
2026-01-03 13:09:06.59	128.27	19.64	-35.9	-36.8	24.1	0.00e+00	122	40	0	1666187264	44	6089
2026-01-03 13:09:07.60	128.47	19.56	-35.9	-36.8	24.1	0.00e+00	124	40	0	1669332992	44	6086
2026-01-03 13:09:08.61	128.67	19.48	-35.8	-36.8	24.1	0.00e+00	120	40	0	1672478720	44	6068
2026-01-03 13:09:09.62	128.86	19.40	-36.0	-36.9	24.1	0.00e+00	122	40	0	1675624448	44	6184
2026-01-03 13:09:10.63	129.06	19.32	-36.1	-37.0	23.9	0.00e+00	123	40	0	1678770176	44	6265
2026-01-03 13:09:11.64	129.25	19.24	-36.0	-36.9	24.1	0.00e+00	123	40	0	1681915904	44	6183
2026-01-03 13:09:12.65	129.45	19.16	-36.4	-37.3	23.9	0.00e+00	123	40	0	1685061632	44	6459
2026-01-03 13:09:13.65	129.64	19.09	-36.4	-37.4	23.6	0.00e+00	122	40	0	1688207360	44	6506
2026-01-03 13:09:14.66	129.83	19.01	-36.1	-37.0	23.9	0.00e+00	122	40	0	1691353088	44	6247
2026-01-03 13:09:15.67	130.02	18.93	-35.9	-36.8	24.0	0.00e+00	123	40	0	1694498816	44	6111
2026-01-03 13:09:16.68	130.21	18.85	-35.9	-36.9	23.9	0.00e+00	122	40	0	1697644544	44	6145
2026-01-03 13:09:17.69	130.39	18.77	-36.0	-36.9	24.0	0.00e+00	123	40	0	1700790272	44	6194
2026-01-03 13:09:18.70	130.58	18.69	-36.0	-36.9	24.0	0.00e+00	122	40	0	1703936000	44	6162
2026-01-03 13:09:19.71	130.77	18.61	-36.1	-37.0	23.9	0.00e+00	123	40	0	1707081728	44	6253
2026-01-03 13:09:20.72	130.95	18.52	-36.0	-36.9	24.0	0.00e+00	123	40	0	1710227456	44	6183
2026-01-03 13:09:21.73	131.14	18.44	-36.5	-37.4	23.6	0.00e+00	120	40	0	1713373184	44	6535
2026-01-03 13:09:22.74	131.32	18.36	-36.2	-37.1	24.1	0.00e+00	123	40	0	1716518912	46	5632
2026-01-03 13:09:23.75	131.50	18.28	-36.1	-37.0	24.2	0.00e+00	122	40	0	1719664640	46	5568
2026-01-03 13:09:24.76	131.68	18.20	-36.1	-37.0	24.0	0.00e+00	122	40	0	1722810368	46	5593
2026-01-03 13:09:25.77	131.86	18.12	-36.3	-37.2	23.9	0.00e+00	120	40	0	1725956096	46	5725
2026-01-03 13:09:26.78	132.04	18.04	-36.3	-37.2	23.9	0.00e+00	122	40	0	1729101824	46	5707
2026-01-03 13:09:27.79	132.22	17.96	-36.2	-37.2	23.8	0.00e+00	123	40	0	1732247552	46	5667
2026-01-03 13:09:28.80	132.40	17.88	-37.0	-37.9	23.4	0.00e+00	120	40	0	1735393280	46	6197
2026-01-03 13:09:29.80	132.57	17.80	-36.7	-37.7	23.5	0.00e+00	123	40	0	1738539008	46	6001
2026-01-03 13:09:30.82	132.75	17.72	-36.7	-37.7	23.4	0.00e+00	120	40	0	1741684736	46	6020
2026-01-03 13:09:31.83	132.93	17.64	-36.8	-37.7	23.6	0.00e+00	122	40	0	1744830464	46	6040
2026-01-03 13:09:32.84	133.10	17.56	-36.3	-37.3	23.7	0.00e+00	122	40	0	1747976192	46	5752
2026-01-03 13:09:33.85	133.27	17.48	-36.5	-37.4	23.6	0.00e+00	123	40	0	1751121920	46	5836
2026-01-03 13:09:34.85	133.44	17.40	-36.5	-37.4	23.6	0.00e+00	123	40	0	1754267648	46	5840
2026-01-03 13:09:35.87	133.62	17.32	-36.8	-37.7	23.5	0.00e+00	123	40	0	1757413376	46	6048
2026-01-03 13:09:36.88	133.79	17.24	-36.4	-37.4	23.8	0.00e+00	123	40	0	1760559104	46	5794
2026-01-03 13:09:37.89	133.96	17.16	-36.4	-37.4	23.7	0.00e+00	122	40	0	1763704832	46	5799
2026-01-03 13:09:38.90	134.13	17.08	-36.8	-37.7	23.5	0.00e+00	120	40	0	1766850560	46	6039
2026-01-03 13:09:39.91	134.29	17.00	-36.8	-37.8	23.5	0.00e+00	123	40	0	1769996288	46	6081
2026-01-03 13:09:40.91	134.46	16.92	-37.2	-38.1	23.4	0.00e+00	116	40	0	1773142016	46	6333
2026-01-03 13:09:41.92	134.63	16.84	-37.1	-38.0	23.2	0.00e+00	122	40	0	1776287744	46	6266
2026-01-03 13:09:42.93	134.79	16.76	-37.2	-38.2	23.0	0.00e+00	123	40	0	1779433472	46	6356
2026-01-03 13:09:43.94	134.95	16.68	-37.9	-38.9	22.6	0.00e+00	122	40	0	1782579200	48	6191
2026-01-03 13:09:44.94	135.12	16.60	-37.7	-38.7	22.7	0.00e+00	120	40	0	1785724928	48	6017
2026-01-03 13:09:45.95	135.28	16.52	-37.6	-38.6	22.8	0.00e+00	122	40	0	1788870656	48	5938
2026-01-03 13:09:46.96	135.44	16.44	-37.0	-38.0	23.1	0.00e+00	120	40	0	1792016384	48	5563
2026-01-03 13:09:47.97	135.60	16.36	-37.0	-38.0	23.0	0.00e+00	123	40	0	1795162112	48	5572
2026-01-03 13:09:48.98	135.76	16.28	-36.8	-37.7	23.1	0.00e+00	120	40	0	1798307840	48	5398
2026-01-03 13:09:49.99	135.92	16.20	-36.6	-37.6	23.4	0.00e+00	123	40	0	1801453568	46	5948
2026-01-03 13:09:51.00	136.08	16.12	-36.4	-37.4	23.7	0.00e+00	120	40	0	1804599296	46	5807
2026-01-03 13:09:52.01	136.24	16.04	-36.3	-37.3	23.9	0.00e+00	123	40	0	1807745024	46	5729
2026-01-03 13:09:53.02	136.40	15.96	-36.4	-37.3	23.8	0.00e+00	120	40	0	1810890752	46	5749
2026-01-03 13:09:54.03	136.55	15.88	-36.4	-37.3	23.8	0.00e+00	123	40	0	1814036480	46	5764
2026-01-03 13:09:55.04	136.71	15.80	-36.5	-37.4	23.6	0.00e+00	122	40	0	1817182208	46	5798
2026-01-03 13:09:56.05	136.86	15.73	-36.5	-37.4	23.7	0.00e+00	123	40	0	1820327936	46	5807
2026-01-03 13:09:57.06	137.02	15.65	-36.4	-37.4	23.8	0.00e+00	120	40	0	1823473664	46	5801
2026-01-03 13:09:58.07	137.17	15.57	-36.5	-37.4	23.8	0.00e+00	122	40	0	1826619392	46	5838
2026-01-03 13:09:59.07	137.32	15.49	-36.9	-37.9	23.4	0.00e+00	120	40	0	1829765120	46	6135
2026-01-03 13:10:00.08	137.47	15.41	-36.9	-37.8	23.6	0.00e+00	122	40	0	1832910848	46	6126
2026-01-03 13:10:01.09	137.62	15.33	-37.0	-37.9	23.5	0.00e+00	120	40	0	1836056576	46	6170
2026-01-03 13:10:02.10	137.77	15.25	-37.4	-38.4	22.9	0.00e+00	123	40	0	1839202304	46	6548
2026-01-03 13:10:03.11	137.92	15.17	-37.4	-38.4	23.1	0.00e+00	122	40	0	1842348032	46	6510
2026-01-03 13:10:04.12	138.07	15.09	-37.1	-38.1	23.3	0.00e+00	122	40	0	1845493760	46	6303
2026-01-03 13:10:05.13	138.22	15.02	-37.0	-38.0	23.3	0.00e+00	120	40	0	1848639488	46	6214
2026-01-03 13:10:06.14	138.36	14.94	-37.1	-38.0	23.1	0.00e+00	123	40	0	1851785216	46	6277
2026-01-03 13:10:07.15	138.51	14.86	-37.0	-37.9	23.1	0.00e+00	123	40	0	1854930944	46	6200
2026-01-03 13:10:08.16	138.66	14.78	-36.8	-37.7	23.3	0.00e+00	123	40	0	1858076672	46	6027
2026-01-03 13:10:09.17	138.80	14.70	-37.0	-38.0	23.1	0.00e+00	123	40	0	1861222400	46	6233
2026-01-03 13:10:10.17	138.94	14.62	-37.2	-38.2	22.7	0.00e+00	123	40	0	1864368128	46	6398
2026-01-03 13:10:11.18	139.09	14.55	-36.8	-37.8	23.2	0.00e+00	121	40	0	1868562432	46	6093
2026-01-03 13:10:12.20	139.23	14.47	-36.9	-37.9	23.0	0.00e+00	123	40	0	1870659584	46	6150
2026-01-03 13:10:13.21	139.37	14.39	-36.7	-37.7	23.2	0.00e+00	123	40	0	1873805312	46	6045
2026-01-03 13:10:14.21	139.51	14.31	-37.0	-38.0	23.0	0.00e+00	123	40	0	1876951040	46	6236
2026-01-03 13:10:15.22	139.65	14.23	-37.1	-38.0	23.1	0.00e+00	123	40	0	1880096768	46	6275
2026-01-03 13:10:16.23	139.79	14.16	-37.2	-38.1	23.1	0.00e+00	120	40	0	1884291072	46	6330
2026-01-03 13:10:17.24	139.93	14.08	-37.2	-38.2	23.0	0.00e+00	122	40	0	1887436800	46	6354
2026-01-03 13:10:18.25	140.07	14.00	-37.3	-38.3	22.9	0.00e+00	122	40	0	1890582528	46	6440
2026-01-03 13:10:19.26	140.21	13.92	-37.5	-38.5	22.7	0.00e+00	123	40	0	1892679680	46	6626
2026-01-03 13:10:20.27	140.34	13.85	-37.6	-38.6	22.4	0.00e+00	121	40	0	1895825408	46	6669
2026-01-03 13:10:21.28	140.48	13.77	-37.9	-38.9	22.4	0.00e+00	122	40	0	1900019712	48	6148
2026-01-03 13:10:22.29	140.62	13.69	-38.2	-39.2	22.2	0.00e+00	123	40	0	1903165440	48	6422
2026-01-03 13:10:23.31	140.75	13.61	-38.2	-39.2	21.9	0.00e+00	120	40	0	1906311168	48	6385
2026-01-03 13:10:24.31	140.88	13.54	-38.5	-39.5	21.8	0.00e+00	123	40	0	1909456896	48	6626
2026-01-03 13:10:25.33	141.02	13.46	-38.7	-39.8	21.7	0.00e+00	120	40	0	1912602624	48	6842
2026-01-03 13:10:26.34	141.15	13.38	-38.9	-40.0	21.3	0.00e+00	122	40	0	1915748352	50	6206
2026-01-03 13:10:27.34	141.28	13.31	-38.4	-39.5	21.2	0.00e+00	122	40	0	1918894080	50	5872
2026-01-03 13:10:28.35	141.41	13.23	-38.5	-39.6	21.3	0.00e+00	123	40	0	1922039808	50	5943
2026-01-03 13:10:29.36	141.54	13.15	-38.8	-39.9	21.2	0.00e+00	120	40	0	1925185536	50	6172
2026-01-03 13:10:30.37	141.67	13.08	-39.5	-40.7	19.3	0.00e+00	122	40	0	1928331264	50	6786
2026-01-03 13:10:31.38	141.80	13.00	-38.9	-40.0	21.0	0.00e+00	123	40	0	1931476992	50	6258
2026-01-03 13:10:32.39	141.93	12.92	-38.8	-40.0	21.1	0.00e+00	120	40	0	1934622720	50	6206
2026-01-03 13:10:33.40	142.06	12.85	-38.6	-39.7	21.3	0.00e+00	123	40	0	1937768448	50	6018
2026-01-03 13:10:34.41	142.19	12.77	-38.6	-39.6	21.6	0.00e+00	122	40	0	1940914176	50	5990
2026-01-03 13:10:35.42	142.32	12.70	-38.6	-39.7	21.6	0.00e+00	123	40	0	1944059904	50	5998
2026-01-03 13:10:36.43	142.44	12.62	-38.8	-39.9	21.5	0.00e+00	120	40	0	1947205632	50	6203
2026-01-03 13:10:37.44	142.57	12.55	-38.2	-39.2	21.8	0.00e+00	122	40	0	1950351360	50	5721
2026-01-03 13:10:38.45	142.69	12.47	-38.5	-39.6	21.7	0.00e+00	120	40	0	1953497088	50	5970
2026-01-03 13:10:39.45	142.82	12.40	-38.3	-39.3	21.8	0.00e+00	123	40	0	1956642816	50	5761
2026-01-03 13:10:40.46	142.94	12.32	-38.5	-39.5	21.6	0.00e+00	123	40	0	1959788544	50	5891
2026-01-03 13:10:41.47	143.06	12.25	-38.4	-39.5	21.9	0.00e+00	122	40	0	1962934272	50	5883
2026-01-03 13:10:42.48	143.19	12.17	-38.9	-40.0	21.7	0.00e+00	120	40	0	1966080000	50	6250
2026-01-03 13:10:43.49	143.31	12.10	-38.3	-39.4	21.7	0.00e+00	123	40	0	1969225728	50	5796
2026-01-03 13:10:44.50	143.43	12.02	-37.8	-38.9	22.0	0.00e+00	122	40	0	1972371456	50	5468
