passes_logs/2026/01/03/R4.6S_Anadyr/R4.6S_Anadyr__20260103_091040_TY-42_rec.log

#Pass ID: 20260103_091040_TY-42
#Satellite: TY-42
#Configuration: TY-42_900M
#almurnet v.1.7.20251203
#Start time: 2026-01-03 09:11:13

#Version: 2.2.20231116
#Station: R4.6S_Anadyr
#Location: 177.4865 lon 64.73178 lat
#TLE: 1 64048U 25103A   26003.26844907  .00008006  00000-0  38191-3 0 09993
#TLE: 2 64048 097.4108 078.9075 0001627 094.5447 046.7649 15.19153010 35031

#Time	Az	El	Level	Level2	SNR	BER	BlckErr	Temp	State	Recorded	gain1	gain2
2026-01-03 09:11:13.24	152.84	2.17	-50.5	-62.1	3.5	8.45e-01	0	36	0	0	60	46062
2026-01-03 09:11:14.25	152.83	2.24	-49.0	-51.6	6.1	0.00e+00	0	38	104	0	60	46361
2026-01-03 09:11:15.26	152.82	2.31	-48.9	-51.4	6.1	0.00e+00	0	38	104	0	60	45510
2026-01-03 09:11:16.27	152.81	2.38	-49.0	-51.5	6.1	0.00e+00	0	38	104	0	60	45859
2026-01-03 09:11:17.28	152.80	2.46	-49.0	-51.4	6.1	0.00e+00	0	38	104	0	60	45768
2026-01-03 09:11:18.28	152.79	2.53	-49.0	-51.5	6.1	0.00e+00	0	39	104	0	60	45999
2026-01-03 09:11:19.29	152.78	2.60	-49.0	-51.5	6.1	0.00e+00	0	39	104	0	60	45824
2026-01-03 09:11:20.30	152.77	2.67	-49.0	-51.4	6.1	0.00e+00	0	39	104	0	60	45512
2026-01-03 09:11:21.31	152.76	2.75	-49.0	-51.4	6.1	0.00e+00	0	39	104	0	60	45565
2026-01-03 09:11:22.32	152.75	2.82	-48.9	-51.4	6.1	0.00e+00	0	39	104	0	60	45315
2026-01-03 09:11:23.33	152.74	2.89	-48.9	-51.4	6.1	0.00e+00	0	39	104	0	60	45521
2026-01-03 09:11:24.34	152.73	2.97	-48.9	-51.4	6.1	0.00e+00	0	39	104	0	60	45413
2026-01-03 09:11:25.35	152.72	3.04	-49.0	-51.4	6.1	0.00e+00	0	39	104	0	60	45692
2026-01-03 09:11:26.36	152.71	3.12	-49.0	-51.5	6.1	0.00e+00	0	39	104	0	60	46126
2026-01-03 09:11:27.37	152.70	3.19	-49.0	-51.5	6.1	0.00e+00	0	39	104	0	60	45955
2026-01-03 09:11:28.38	152.69	3.26	-49.0	-51.5	6.1	0.00e+00	0	39	104	0	60	45856
2026-01-03 09:11:29.39	152.68	3.34	-49.0	-51.4	6.1	0.00e+00	0	39	104	0	60	45707
2026-01-03 09:11:30.40	152.66	3.41	-49.1	-51.5	6.1	0.00e+00	0	39	104	0	60	46278
2026-01-03 09:11:31.41	152.65	3.49	-49.0	-51.5	6.1	0.00e+00	0	39	104	0	60	46167
2026-01-03 09:11:32.42	152.64	3.57	-49.0	-51.5	6.1	0.00e+00	0	39	104	0	60	45996
2026-01-03 09:11:33.43	152.63	3.64	-49.0	-51.5	6.1	0.00e+00	0	39	104	0	60	46129
2026-01-03 09:11:34.44	152.62	3.72	-49.1	-51.6	6.1	0.00e+00	0	39	104	0	60	46482
2026-01-03 09:11:35.45	152.61	3.80	-49.0	-51.5	6.1	0.00e+00	0	39	104	0	60	45774
2026-01-03 09:11:36.46	152.59	3.87	-49.1	-51.6	6.1	0.00e+00	0	39	104	0	60	46586
2026-01-03 09:11:37.47	152.58	3.95	-49.1	-51.6	6.1	0.00e+00	0	39	104	0	60	46790
2026-01-03 09:11:38.48	152.57	4.03	-49.1	-51.6	6.1	0.00e+00	0	39	104	0	60	46424
2026-01-03 09:11:39.49	152.56	4.11	-49.0	-51.5	6.1	0.00e+00	0	39	104	0	60	45935
2026-01-03 09:11:40.50	152.55	4.18	-49.0	-51.4	6.1	0.00e+00	0	39	104	0	60	45629
2026-01-03 09:11:41.51	152.53	4.26	-49.1	-51.6	6.1	0.00e+00	0	39	104	0	60	46474
2026-01-03 09:11:42.52	152.52	4.34	-49.2	-51.6	6.1	0.00e+00	0	39	104	0	60	46576
2026-01-03 09:11:43.52	152.51	4.42	-49.1	-51.6	6.1	0.00e+00	0	39	104	0	60	46299
2026-01-03 09:11:44.53	152.49	4.50	-49.0	-51.5	6.1	0.00e+00	0	39	104	0	60	45873
2026-01-03 09:11:45.54	152.48	4.58	-49.1	-51.5	6.1	0.00e+00	0	39	104	0	60	46176
2026-01-03 09:11:46.54	152.47	4.66	-49.2	-51.7	6.0	0.00e+00	0	39	104	0	60	47372
2026-01-03 09:11:47.55	152.46	4.74	-49.1	-51.6	6.1	0.00e+00	0	39	104	0	60	46514
2026-01-03 09:11:48.56	152.44	4.82	-49.0	-51.5	6.1	0.00e+00	0	39	104	0	60	46174
2026-01-03 09:11:49.57	152.43	4.90	-49.2	-51.7	6.1	0.00e+00	0	39	104	0	60	47007
2026-01-03 09:11:50.58	152.42	4.98	-49.1	-51.6	6.1	0.00e+00	0	39	104	0	60	46469
2026-01-03 09:11:51.59	152.40	5.06	-49.2	-51.7	6.1	0.00e+00	0	39	104	0	60	47008
2026-01-03 09:11:52.60	152.39	5.14	-49.2	-51.6	6.1	0.00e+00	0	40	104	0	60	46827
2026-01-03 09:11:53.61	152.37	5.23	-49.1	-51.6	6.1	0.00e+00	0	40	104	0	60	46672
2026-01-03 09:11:54.62	152.36	5.31	-49.4	-51.8	6.1	0.00e+00	0	40	104	0	60	47664
2026-01-03 09:11:55.63	152.35	5.39	-49.2	-51.6	6.1	0.00e+00	0	40	104	0	60	46801
2026-01-03 09:11:56.64	152.33	5.48	-49.3	-51.7	6.1	0.00e+00	0	40	104	0	60	47306
2026-01-03 09:11:57.65	152.32	5.56	-35.8	-36.3	9.5	0.00e+00	256	40	104	0	40	25193
2026-01-03 09:11:58.66	152.30	5.64	-40.0	-40.5	10.2	0.00e+00	0	40	104	0	60	12906
2026-01-03 09:11:59.67	152.29	5.73	-36.9	-37.2	12.1	0.00e+00	0	40	0	25165824	50	15833
2026-01-03 09:12:00.68	152.27	5.81	-36.4	-36.8	12.5	2.27e-01	0	40	0	134217728	48	16887
2026-01-03 09:12:01.69	152.26	5.90	-38.6	-39.0	10.8	1.31e-01	3799	40	0	243269632	52	17302
2026-01-03 09:12:02.70	152.24	5.98	-37.8	-38.0	12.2	1.31e-01	1789	40	0	360710144	54	13664
2026-01-03 09:12:03.71	152.23	6.07	-41.8	-42.5	6.9	0.00e+00	0	40	104	444596224	60	16280
2026-01-03 09:12:04.72	152.21	6.16	-36.7	-37.1	12.6	0.00e+00	0	40	0	478150656	44	22136
2026-01-03 09:12:05.73	152.20	6.24	-37.5	-37.8	11.7	0.00e+00	8	40	0	587202560	50	16888
2026-01-03 09:12:06.73	152.18	6.33	-36.4	-36.8	12.2	1.59e-01	0	40	0	704643072	48	16909
2026-01-03 09:12:07.74	152.17	6.42	-38.4	-38.8	10.9	1.59e-01	5511	40	0	813694976	50	18869
2026-01-03 09:12:08.75	152.15	6.50	-34.4	-34.8	14.0	1.59e-01	0	40	0	931135488	44	16891
2026-01-03 09:12:09.76	152.14	6.59	-34.4	-34.9	13.7	1.38e-01	0	40	0	1048576000	42	19152
2026-01-03 09:12:10.77	152.12	6.68	-34.7	-35.2	13.2	1.38e-01	0	40	0	1157627904	44	17715
2026-01-03 09:12:11.77	152.10	6.77	-34.9	-35.2	12.0	1.38e-01	0	40	0	1266679808	44	17712
2026-01-03 09:12:12.78	152.09	6.86	-34.7	-35.1	13.8	1.43e-02	0	40	0	1375731712	52	11091
2026-01-03 09:12:13.79	152.07	6.95	-34.0	-34.5	14.3	5.81e-02	0	40	0	1493172224	42	18291
2026-01-03 09:12:14.80	152.05	7.04	-34.4	-34.8	13.5	5.81e-02	0	40	0	1602224128	42	19054
2026-01-03 09:12:15.81	152.04	7.13	-35.1	-35.6	13.0	4.69e-02	0	40	0	1719664640	46	16453
2026-01-03 09:12:16.82	152.02	7.22	-34.8	-35.2	13.2	4.69e-02	0	40	0	1837105152	44	17740
2026-01-03 09:12:17.83	152.00	7.31	-33.7	-34.1	14.1	4.69e-02	0	40	0	1946157056	42	17553
2026-01-03 09:12:18.84	151.99	7.40	-34.6	-35.0	13.6	4.22e-02	0	40	0	2055208960	44	17330
2026-01-03 09:12:19.85	151.97	7.50	-35.6	-36.1	12.7	4.22e-02	0	41	0	2172649472	44	19567
2026-01-03 09:12:20.86	151.95	7.59	-36.1	-36.6	12.5	5.33e-02	0	40	0	2290089984	44	20718
2026-01-03 09:12:21.87	151.93	7.68	-33.8	-34.3	13.6	5.33e-02	0	41	0	2399141888	44	15882
2026-01-03 09:12:22.87	151.92	7.77	-35.0	-35.4	13.0	5.04e-02	0	41	0	2516582400	44	18104
2026-01-03 09:12:23.88	151.90	7.87	-34.7	-35.1	13.0	5.04e-02	0	41	0	2625634304	44	17570
2026-01-03 09:12:24.89	151.88	7.96	-34.9	-35.3	13.2	5.04e-02	0	41	0	2734686208	48	14213
2026-01-03 09:12:25.90	151.86	8.06	-37.7	-37.8	11.9	4.82e-02	5272	41	0	2852126720	60	9483
2026-01-03 09:12:26.91	151.84	8.15	-37.4	-37.9	12.1	9.13e-02	953	41	0	2969567232	48	19105
2026-01-03 09:12:27.91	151.82	8.25	-35.0	-35.5	13.7	9.13e-02	0	41	0	3078619136	44	18297
2026-01-03 09:12:28.92	151.80	8.35	-34.9	-35.4	13.6	8.00e-02	0	41	0	3187671040	42	20316
2026-01-03 09:12:29.93	151.79	8.44	-34.4	-34.8	13.5	3.52e-02	0	41	0	3305111552	44	16903
2026-01-03 09:12:30.94	151.77	8.54	-34.4	-34.9	13.9	3.52e-02	0	41	0	3414163456	42	19186
2026-01-03 09:12:31.95	151.75	8.64	-32.7	-33.2	14.5	3.52e-02	0	41	0	3531603968	40	17611
2026-01-03 09:12:32.96	151.73	8.74	-32.4	-32.9	14.6	2.79e-02	0	41	0	3649044480	40	17114
2026-01-03 09:12:33.97	151.71	8.84	-32.5	-32.9	14.5	2.79e-02	0	41	0	3758096384	40	17157
2026-01-03 09:12:34.98	151.69	8.94	-33.5	-34.0	14.1	1.30e-02	0	41	0	3875536896	38	21760
2026-01-03 09:12:35.99	151.67	9.04	-32.4	-32.9	14.6	1.30e-02	0	41	0	3984588800	40	17096
2026-01-03 09:12:37.00	151.65	9.14	-31.4	-31.9	15.0	1.30e-02	0	41	0	4093640704	38	17101
2026-01-03 09:12:38.01	151.63	9.24	-29.8	-30.3	15.6	1.51e-02	0	41	0	4211081216	36	15913
2026-01-03 09:12:39.02	151.60	9.34	-29.7	-30.2	15.7	1.51e-02	0	41	0	4328521728	36	15785
2026-01-03 09:12:40.03	151.58	9.44	-29.2	-29.7	15.8	1.86e-03	0	41	0	4437573632	34	16750
2026-01-03 09:12:41.04	151.56	9.54	-30.1	-30.6	15.6	1.86e-03	0	41	0	4555014144	34	18475
2026-01-03 09:12:42.05	151.54	9.65	-29.3	-29.8	15.7	9.97e-04	0	41	0	4664066048	34	16951
2026-01-03 09:12:43.06	151.52	9.75	-29.2	-29.7	15.9	9.97e-04	0	41	0	4781506560	34	16700
2026-01-03 09:12:44.07	151.50	9.86	-28.5	-29.0	16.0	9.97e-04	0	41	0	4898947072	32	17237
2026-01-03 09:12:45.08	151.47	9.96	-28.7	-29.2	15.9	5.29e-04	0	41	0	5007998976	32	17649
2026-01-03 09:12:46.09	151.45	10.07	-28.4	-28.9	16.1	5.29e-04	0	41	0	5117050880	32	17153
2026-01-03 09:12:47.10	151.43	10.17	-28.4	-28.9	16.0	2.51e-04	0	41	0	5234491392	32	17176
2026-01-03 09:12:48.10	151.41	10.28	-28.3	-28.8	16.1	2.51e-04	0	41	0	5351931904	32	16891
2026-01-03 09:12:49.11	151.38	10.39	-28.7	-29.2	16.0	2.51e-04	0	41	0	5460983808	32	17726
2026-01-03 09:12:50.12	151.36	10.49	-28.2	-28.6	16.1	2.51e-04	0	41	0	5578424320	32	16611
2026-01-03 09:12:51.13	151.34	10.60	-28.5	-29.0	16.0	4.74e-04	0	41	0	5687476224	32	17245
2026-01-03 09:12:52.14	151.31	10.71	-28.0	-28.5	16.1	4.74e-04	0	41	0	5804916736	32	16386
2026-01-03 09:12:53.15	151.29	10.82	-28.1	-28.6	16.1	4.74e-04	0	41	0	5913968640	32	16451
2026-01-03 09:12:54.16	151.26	10.93	-28.0	-28.4	16.1	2.18e-04	0	41	0	6031409152	32	16220
2026-01-03 09:12:55.17	151.24	11.05	-28.1	-28.6	16.1	2.18e-04	0	41	0	6140461056	32	16475
2026-01-03 09:12:56.18	151.21	11.16	-28.0	-28.5	16.1	2.18e-04	0	41	0	6257901568	32	16368
2026-01-03 09:12:57.19	151.19	11.27	-27.8	-28.3	16.2	1.09e-04	0	41	0	6366953472	32	16029
2026-01-03 09:12:58.20	151.16	11.38	-27.8	-28.2	16.2	8.17e-05	0	41	0	6484393984	30	17801
2026-01-03 09:12:59.21	151.14	11.50	-27.7	-28.2	16.2	8.17e-05	0	41	0	6601834496	30	17743
2026-01-03 09:13:00.22	151.11	11.61	-28.4	-28.9	16.1	7.08e-05	0	41	0	6710886400	30	19178
2026-01-03 09:13:01.23	151.09	11.73	-28.1	-28.5	16.1	7.08e-05	0	41	0	6828326912	32	16422
2026-01-03 09:13:02.24	151.06	11.84	-27.4	-27.9	16.2	7.08e-05	0	41	0	6937378816	30	17048
2026-01-03 09:13:03.25	151.03	11.96	-27.6	-28.1	16.2	1.58e-04	0	41	0	7046430720	30	17470
2026-01-03 09:13:04.26	151.01	12.08	-27.4	-27.9	16.3	6.53e-05	0	41	0	7172259840	30	17104
2026-01-03 09:13:05.27	150.98	12.20	-27.4	-27.8	16.3	6.53e-05	0	41	0	7281311744	30	16982
2026-01-03 09:13:06.27	150.95	12.31	-27.5	-28.0	16.3	6.53e-05	0	41	0	7390363648	30	17273
2026-01-03 09:13:07.28	150.92	12.43	-27.3	-27.8	16.3	4.90e-05	0	41	0	7507804160	30	16903
2026-01-03 09:13:08.29	150.89	12.55	-27.5	-28.0	16.3	4.90e-05	0	41	0	7616856064	30	17307
2026-01-03 09:13:09.30	150.87	12.68	-27.6	-28.1	16.3	2.72e-05	0	42	0	7734296576	30	17443
2026-01-03 09:13:10.31	150.84	12.80	-27.4	-27.9	16.3	2.72e-05	0	42	0	7851737088	30	17013
2026-01-03 09:13:11.32	150.81	12.92	-27.2	-27.7	16.3	1.63e-05	0	41	0	7960788992	30	16645
2026-01-03 09:13:12.33	150.78	13.04	-27.1	-27.5	16.3	1.63e-05	0	41	0	8069840896	30	16410
2026-01-03 09:13:13.34	150.75	13.17	-26.9	-27.4	16.4	5.40e-06	0	41	0	8187281408	30	16224
2026-01-03 09:13:14.35	150.72	13.29	-27.0	-27.5	16.4	5.40e-06	0	41	0	8296333312	30	16269
2026-01-03 09:13:15.36	150.69	13.42	-26.7	-27.2	16.4	5.40e-06	0	42	0	8413773824	28	17698
2026-01-03 09:13:16.37	150.66	13.55	-26.8	-27.3	16.4	1.63e-05	0	42	0	8531214336	28	17948
2026-01-03 09:13:17.38	150.63	13.68	-26.6	-27.1	16.4	1.63e-05	0	41	0	8640266240	28	17575
2026-01-03 09:13:18.39	150.59	13.81	-26.7	-27.2	16.4	1.63e-05	0	42	0	8757706752	28	17749
2026-01-03 09:13:19.40	150.56	13.93	-26.6	-27.1	16.4	1.08e-05	0	42	0	8866758656	28	17497
2026-01-03 09:13:20.40	150.53	14.06	-26.7	-27.2	16.4	1.08e-05	0	41	0	8984199168	28	17785
2026-01-03 09:13:21.41	150.50	14.20	-26.7	-27.2	16.4	2.17e-05	0	42	0	9101639680	28	17795
2026-01-03 09:13:22.42	150.46	14.33	-26.6	-27.1	16.4	2.17e-05	0	42	0	9210691584	28	17580
2026-01-03 09:13:23.43	150.43	14.46	-26.3	-26.8	16.4	3.26e-05	0	42	0	9319743488	28	16932
2026-01-03 09:13:24.44	150.40	14.60	-26.4	-26.9	16.4	3.26e-05	0	42	0	9437184000	28	17080
2026-01-03 09:13:25.45	150.36	14.73	-26.1	-26.6	16.5	3.26e-05	0	42	0	9546235904	28	16463
2026-01-03 09:13:26.46	150.33	14.87	-26.0	-26.5	16.5	2.72e-05	0	42	0	9663676416	28	16329
2026-01-03 09:13:27.47	150.29	15.00	-26.0	-26.5	16.5	2.72e-05	0	42	0	9781116928	28	16312
2026-01-03 09:13:28.48	150.26	15.14	-26.1	-26.6	16.5	2.72e-05	0	42	0	9890168832	28	16548
2026-01-03 09:13:29.49	150.22	15.28	-26.0	-26.5	16.5	0.00e+00	0	42	0	9999220736	28	16305
2026-01-03 09:13:30.50	150.18	15.42	-25.9	-26.4	16.5	0.00e+00	0	42	0	10116661248	28	16157
2026-01-03 09:13:31.51	150.15	15.56	-25.9	-26.4	16.5	1.63e-05	0	42	0	10234101760	28	16144
2026-01-03 09:13:32.52	150.11	15.71	-25.8	-26.3	16.5	1.63e-05	0	42	0	10343153664	28	15988
2026-01-03 09:13:33.53	150.07	15.85	-25.8	-26.3	16.5	1.63e-05	0	42	0	10460594176	28	15920
2026-01-03 09:13:34.53	150.04	15.99	-25.6	-26.1	16.5	1.08e-05	0	42	0	10569646080	26	17428
2026-01-03 09:13:35.55	150.00	16.14	-25.6	-26.1	16.6	1.08e-05	0	42	0	10687086592	26	17469
2026-01-03 09:13:36.56	149.96	16.29	-25.6	-26.1	16.6	3.26e-05	0	42	0	10804527104	26	17414
2026-01-03 09:13:37.57	149.92	16.43	-25.7	-26.2	16.5	3.26e-05	0	42	0	10913579008	28	15735
2026-01-03 09:13:38.57	149.88	16.58	-25.6	-26.1	16.6	5.40e-06	0	42	0	11031019520	26	17450
2026-01-03 09:13:39.58	149.84	16.73	-25.7	-26.2	16.5	5.40e-06	0	42	0	11140071424	26	17687
2026-01-03 09:13:40.59	149.80	16.88	-25.8	-26.3	16.5	5.40e-06	0	42	0	11249123328	26	17868
2026-01-03 09:13:41.60	149.75	17.04	-25.5	-26.0	16.6	5.40e-06	0	42	0	11366563840	26	17278
2026-01-03 09:13:42.61	149.71	17.19	-25.4	-25.9	16.6	5.40e-06	0	42	0	11484004352	26	17036
2026-01-03 09:13:43.62	149.67	17.34	-25.5	-25.9	16.5	5.40e-06	0	42	0	11593056256	26	17169
2026-01-03 09:13:44.63	149.63	17.50	-25.3	-25.8	16.6	5.40e-06	0	42	0	11710496768	26	16982
2026-01-03 09:13:45.64	149.58	17.66	-25.4	-25.8	16.6	5.40e-06	0	42	0	11819548672	26	16959
2026-01-03 09:13:46.65	149.54	17.82	-25.2	-25.7	16.6	1.08e-05	0	42	0	11928600576	26	16633
2026-01-03 09:13:47.66	149.49	17.98	-25.4	-25.9	16.6	1.08e-05	0	42	0	12054429696	26	17051
2026-01-03 09:13:48.67	149.45	18.14	-25.3	-25.8	16.6	1.08e-05	0	42	0	12163481600	26	16844
2026-01-03 09:13:49.68	149.40	18.30	-25.2	-25.7	16.6	1.08e-05	0	42	0	12272533504	26	16692
2026-01-03 09:13:50.69	149.35	18.46	-25.3	-25.7	16.6	1.08e-05	0	42	0	12389974016	26	16796
2026-01-03 09:13:51.70	149.31	18.63	-25.1	-25.6	16.6	0.00e+00	0	42	0	12499025920	26	16546
2026-01-03 09:13:52.71	149.26	18.80	-25.1	-25.6	16.6	0.00e+00	0	42	0	12616466432	26	16587
2026-01-03 09:13:53.71	149.21	18.96	-25.1	-25.6	16.7	0.00e+00	0	42	0	12733906944	26	16443
2026-01-03 09:13:54.72	149.16	19.13	-25.1	-25.5	16.7	0.00e+00	0	42	0	12842958848	26	16417
2026-01-03 09:13:55.73	149.11	19.30	-24.8	-25.3	16.6	0.00e+00	0	42	0	12960399360	26	15993
2026-01-03 09:13:56.74	149.06	19.48	-24.9	-25.4	16.6	0.00e+00	0	42	0	13069451264	24	18138
2026-01-03 09:13:57.74	149.01	19.65	-25.1	-25.6	16.7	0.00e+00	0	42	0	13178503168	24	18533
2026-01-03 09:13:58.75	148.96	19.82	-24.9	-25.4	16.6	0.00e+00	0	42	0	13295943680	24	18074
2026-01-03 09:13:59.76	148.90	20.00	-24.6	-25.1	16.7	0.00e+00	0	42	0	13413384192	24	17581
2026-01-03 09:14:00.77	148.85	20.18	-25.0	-25.5	16.6	0.00e+00	0	42	0	13522436096	24	18298
2026-01-03 09:14:01.78	148.80	20.36	-24.1	-24.6	16.7	0.00e+00	0	42	0	13639876608	24	16533
2026-01-03 09:14:02.79	148.74	20.54	-24.7	-25.2	16.7	0.00e+00	0	42	0	13748928512	24	17609
2026-01-03 09:14:03.80	148.68	20.72	-23.8	-24.3	16.7	0.00e+00	0	42	0	13857980416	24	15955
2026-01-03 09:14:04.81	148.63	20.91	-23.7	-24.2	16.7	0.00e+00	0	42	0	13983809536	22	17698
2026-01-03 09:14:05.82	148.57	21.10	-23.6	-24.1	16.7	0.00e+00	0	42	0	14092861440	22	17464
2026-01-03 09:14:06.83	148.51	21.28	-23.8	-24.3	16.6	0.00e+00	0	42	0	14201913344	22	17870
2026-01-03 09:14:07.84	148.45	21.47	-23.5	-24.0	16.7	0.00e+00	0	42	0	14319353856	22	17286
2026-01-03 09:14:08.85	148.39	21.67	-23.4	-23.9	16.8	0.00e+00	0	42	0	14428405760	22	17130
2026-01-03 09:14:09.85	148.33	21.86	-23.4	-23.9	16.8	0.00e+00	0	42	0	14545846272	22	17128
2026-01-03 09:14:10.87	148.27	22.05	-23.3	-23.8	16.8	0.00e+00	0	42	0	14663286784	22	16946
2026-01-03 09:14:11.87	148.21	22.25	-23.2	-23.7	16.8	0.00e+00	0	42	0	14772338688	22	16687
2026-01-03 09:14:12.88	148.14	22.45	-23.0	-23.5	16.9	0.00e+00	0	42	0	14889779200	22	16368
2026-01-03 09:14:13.89	148.08	22.65	-22.9	-23.5	16.9	0.00e+00	0	42	0	14998831104	22	16245
2026-01-03 09:14:14.90	148.01	22.85	-22.9	-23.4	16.9	0.00e+00	0	42	0	15107883008	22	16098
2026-01-03 09:14:15.90	147.94	23.06	-23.0	-23.5	16.9	0.00e+00	0	42	0	15225323520	22	16383
2026-01-03 09:14:16.91	147.88	23.26	-22.5	-23.0	16.9	0.00e+00	0	42	0	15342764032	20	17270
2026-01-03 09:14:17.92	147.81	23.47	-22.6	-23.1	16.9	0.00e+00	0	42	0	15451815936	20	17557
2026-01-03 09:14:18.93	147.74	23.68	-22.4	-22.9	17.0	0.00e+00	0	42	0	15569256448	20	17050
2026-01-03 09:14:19.94	147.67	23.90	-22.7	-23.2	16.9	0.00e+00	0	42	0	15678308352	22	15712
2026-01-03 09:14:20.95	147.59	24.11	-22.6	-23.1	16.9	0.00e+00	0	42	0	15787360256	20	17583
2026-01-03 09:14:21.96	147.52	24.33	-22.1	-22.7	16.9	0.00e+00	0	42	0	15913189376	20	16642
2026-01-03 09:14:22.97	147.45	24.55	-22.2	-22.7	17.0	0.00e+00	0	42	0	16022241280	20	16763
2026-01-03 09:14:23.98	147.37	24.77	-22.5	-23.0	17.0	0.00e+00	0	42	0	16131293184	20	17303
2026-01-03 09:14:24.99	147.29	24.99	-22.1	-22.6	17.1	0.00e+00	0	42	0	16248733696	20	16530
2026-01-03 09:14:26.00	147.21	25.22	-22.1	-22.6	17.1	0.00e+00	0	42	0	16357785600	20	16558
2026-01-03 09:14:27.00	147.14	25.45	-21.9	-22.4	17.1	0.00e+00	0	42	0	16475226112	20	16094
2026-01-03 09:14:28.01	147.05	25.68	-22.0	-22.5	17.1	0.00e+00	0	42	0	16592666624	20	16352
2026-01-03 09:14:29.02	146.97	25.91	-21.6	-22.1	17.1	0.00e+00	0	42	0	16701718528	20	15666
2026-01-03 09:14:30.03	146.89	26.14	-22.8	-23.4	17.1	0.00e+00	0	42	0	16819159040	18	20250
2026-01-03 09:14:31.04	146.80	26.38	-21.7	-22.2	17.1	0.00e+00	0	42	0	16928210944	18	17657
2026-01-03 09:14:32.05	146.72	26.62	-21.9	-22.4	17.2	0.00e+00	0	42	0	17037262848	18	18028
2026-01-03 09:14:33.06	146.63	26.87	-21.4	-21.9	17.2	0.00e+00	0	42	0	17154703360	18	17104
2026-01-03 09:14:34.07	146.54	27.11	-21.4	-21.9	17.2	0.00e+00	0	42	0	17272143872	18	17158
2026-01-03 09:14:35.08	146.45	27.36	-22.1	-22.6	17.2	0.00e+00	0	42	0	17381195776	18	18571
2026-01-03 09:14:36.09	146.35	27.61	-21.5	-22.0	17.3	0.00e+00	0	42	0	17498636288	18	17390
2026-01-03 09:14:37.09	146.26	27.86	-21.3	-21.8	17.3	0.00e+00	0	42	0	17607688192	18	16961
2026-01-03 09:14:38.10	146.16	28.12	-21.5	-22.0	17.3	0.00e+00	0	42	0	17725128704	18	17301
2026-01-03 09:14:39.11	146.06	28.38	-20.8	-21.3	17.3	0.00e+00	0	42	0	17842569216	16	17868
2026-01-03 09:14:40.12	145.96	28.64	-21.0	-21.5	17.3	0.00e+00	0	42	0	17951621120	16	18285
2026-01-03 09:14:41.13	145.86	28.90	-20.5	-21.0	17.4	0.00e+00	0	42	0	18060673024	16	17224
2026-01-03 09:14:42.14	145.76	29.17	-20.4	-20.9	17.4	0.00e+00	0	42	0	18178113536	16	17102
2026-01-03 09:14:43.15	145.65	29.44	-20.2	-20.7	17.4	0.00e+00	0	42	0	18287165440	16	16673
2026-01-03 09:14:44.16	145.55	29.71	-20.1	-20.6	17.4	0.00e+00	0	42	0	18404605952	16	16580
2026-01-03 09:14:45.17	145.44	29.99	-20.1	-20.6	17.5	0.00e+00	0	42	0	18522046464	16	16565
2026-01-03 09:14:46.18	145.32	30.27	-20.3	-20.8	17.5	0.00e+00	0	42	0	18631098368	16	16832
2026-01-03 09:14:47.18	145.21	30.55	-20.0	-20.5	17.5	0.00e+00	0	42	0	18748538880	16	16405
2026-01-03 09:14:48.19	145.09	30.83	-19.8	-20.3	17.4	0.00e+00	0	42	0	18857590784	16	15925
2026-01-03 09:14:49.20	144.98	31.12	-19.7	-20.2	17.4	0.00e+00	0	42	0	18975031296	14	17754
2026-01-03 09:14:50.21	144.86	31.42	-19.8	-20.3	17.5	0.00e+00	0	42	0	19084083200	14	17860
2026-01-03 09:14:51.22	144.73	31.71	-19.1	-19.6	17.5	0.00e+00	0	42	0	19201523712	14	16516
2026-01-03 09:14:52.23	144.61	32.01	-19.1	-19.7	17.5	0.00e+00	0	42	0	19310575616	14	16618
2026-01-03 09:14:53.24	144.48	32.31	-18.9	-19.4	17.5	0.00e+00	0	42	0	19428016128	14	16160
2026-01-03 09:14:54.25	144.35	32.62	-19.1	-19.6	17.6	0.00e+00	0	42	0	19537068032	14	16562
2026-01-03 09:14:55.26	144.21	32.93	-18.7	-19.2	17.6	0.00e+00	0	42	0	19654508544	12	17704
2026-01-03 09:14:56.27	144.08	33.24	-19.0	-19.5	17.6	0.00e+00	0	42	0	19771949056	12	18392
2026-01-03 09:14:57.27	143.94	33.55	-19.0	-19.5	17.6	0.00e+00	0	42	0	19881000960	12	18336
2026-01-03 09:14:58.28	143.79	33.87	-18.6	-19.1	17.6	0.00e+00	0	42	0	19990052864	12	17503
2026-01-03 09:14:59.29	143.65	34.20	-18.4	-18.9	17.6	0.00e+00	0	42	0	20107493376	12	17105
2026-01-03 09:15:00.30	143.50	34.52	-18.1	-18.6	17.6	0.00e+00	0	42	0	20224933888	12	16590
2026-01-03 09:15:01.31	143.35	34.86	-18.0	-18.5	17.6	0.00e+00	0	42	0	20333985792	12	16344
2026-01-03 09:15:02.32	143.19	35.19	-18.0	-18.5	17.7	0.00e+00	0	42	0	20451426304	12	16378
2026-01-03 09:15:03.33	143.03	35.53	-17.9	-18.4	17.7	0.00e+00	0	42	0	20560478208	12	16115
2026-01-03 09:15:04.34	142.87	35.87	-17.8	-18.3	17.6	0.00e+00	0	42	0	20677918720	12	15908
2026-01-03 09:15:05.35	142.70	36.22	-18.0	-18.5	17.7	0.00e+00	0	42	0	20786970624	12	16290
2026-01-03 09:15:06.36	142.53	36.57	-18.0	-18.4	17.7	0.00e+00	0	42	0	20904411136	12	16203
2026-01-03 09:15:07.37	142.36	36.92	-17.9	-18.3	17.7	0.00e+00	0	42	0	21013463040	12	15997
2026-01-03 09:15:08.38	142.18	37.28	-17.7	-18.2	17.7	0.00e+00	0	42	0	21130903552	10	17671
2026-01-03 09:15:09.39	142.00	37.65	-17.7	-18.2	17.8	0.00e+00	0	42	0	21239955456	10	17604
2026-01-03 09:15:10.40	141.81	38.01	-17.3	-17.8	17.8	0.00e+00	0	42	0	21357395968	10	16947
2026-01-03 09:15:11.40	141.62	38.38	-17.3	-17.8	17.8	0.00e+00	0	42	0	21474836480	10	16878
2026-01-03 09:15:12.41	141.42	38.76	-17.1	-17.5	17.8	0.00e+00	0	42	0	21583888384	10	16423
2026-01-03 09:15:13.42	141.22	39.14	-17.2	-17.7	17.8	0.00e+00	0	42	0	21701328896	10	16684
2026-01-03 09:15:14.43	141.01	39.52	-16.9	-17.4	17.8	0.00e+00	0	42	0	21810380800	10	16059
2026-01-03 09:15:15.43	140.80	39.91	-17.0	-17.5	17.8	0.00e+00	0	42	0	21919432704	10	16271
2026-01-03 09:15:16.44	140.59	40.30	-16.7	-17.2	17.8	0.00e+00	0	42	0	22036873216	8	17710
2026-01-03 09:15:17.45	140.36	40.70	-16.4	-16.9	17.8	0.00e+00	0	42	0	22145925120	8	17031
2026-01-03 09:15:18.46	140.13	41.10	-16.4	-16.8	17.8	0.00e+00	0	42	0	22263365632	8	16943
2026-01-03 09:15:19.47	139.90	41.51	-16.2	-16.6	17.8	0.00e+00	0	42	0	22380806144	8	16615
2026-01-03 09:15:20.47	139.66	41.92	-16.3	-16.7	17.8	0.00e+00	0	42	0	22489858048	8	16776
2026-01-03 09:15:21.48	139.41	42.34	-16.0	-16.4	17.8	0.00e+00	0	42	0	22607298560	8	16223
2026-01-03 09:15:22.49	139.16	42.76	-16.4	-16.8	17.8	0.00e+00	0	42	0	22716350464	8	16944
2026-01-03 09:15:23.51	138.89	43.19	-16.3	-16.7	17.8	0.00e+00	0	42	0	22833790976	8	16780
2026-01-03 09:15:24.52	138.62	43.62	-16.3	-16.7	17.8	0.00e+00	0	42	0	22942842880	8	16708
2026-01-03 09:15:25.52	138.35	44.05	-15.8	-16.2	17.9	0.00e+00	0	42	0	23060283392	8	15811
2026-01-03 09:15:26.54	138.06	44.50	-16.1	-16.6	17.9	0.00e+00	0	42	0	23169335296	8	16461
2026-01-03 09:15:27.54	137.77	44.94	-16.2	-16.6	17.8	0.00e+00	0	42	0	23286775808	8	16462
2026-01-03 09:15:28.56	137.46	45.39	-17.0	-17.4	17.8	0.00e+00	0	42	0	23404216320	8	18134
2026-01-03 09:15:29.56	137.15	45.84	-16.2	-16.6	17.9	0.00e+00	0	42	0	23513268224	8	16454
2026-01-03 09:15:30.57	136.83	46.30	-15.6	-16.0	17.9	0.00e+00	0	42	0	23630708736	6	17391
2026-01-03 09:15:31.58	136.50	46.77	-15.3	-15.8	17.9	0.00e+00	0	42	0	23739760640	6	16854
2026-01-03 09:15:32.59	136.16	47.24	-15.8	-16.2	17.9	0.00e+00	0	42	0	23848812544	6	17725
2026-01-03 09:15:33.60	135.81	47.71	-16.4	-16.8	17.8	0.00e+00	0	42	0	23966253056	6	19025
2026-01-03 09:15:34.61	135.44	48.19	-16.0	-16.4	17.9	0.00e+00	0	42	0	24083693568	6	18044
2026-01-03 09:15:35.62	135.07	48.67	-15.2	-15.6	17.9	0.00e+00	0	42	0	24192745472	6	16457
2026-01-03 09:15:36.63	134.68	49.16	-14.8	-15.2	17.9	0.00e+00	0	42	0	24310185984	6	15768
2026-01-03 09:15:37.64	134.27	49.65	-14.9	-15.3	18.0	0.00e+00	0	42	0	24419237888	6	15923
2026-01-03 09:15:38.65	133.86	50.15	-15.8	-16.2	17.9	0.00e+00	0	42	0	24536678400	6	17712
2026-01-03 09:15:39.66	133.43	50.65	-15.0	-15.4	17.9	0.00e+00	0	42	0	24654118912	6	16166
2026-01-03 09:15:40.67	132.99	51.15	-14.9	-15.2	17.9	0.00e+00	0	42	0	24763170816	4	17772
2026-01-03 09:15:41.68	132.52	51.66	-14.9	-15.3	18.0	0.00e+00	0	42	0	24872222720	4	17855
2026-01-03 09:15:42.69	132.05	52.18	-15.2	-15.6	18.0	0.00e+00	0	42	0	24989663232	4	18510
2026-01-03 09:15:43.70	131.55	52.69	-14.2	-14.6	18.0	0.00e+00	0	42	0	25098715136	4	16537
2026-01-03 09:15:44.70	131.05	53.21	-14.4	-14.8	18.0	0.00e+00	0	42	0	25216155648	4	16926
2026-01-03 09:15:45.71	130.51	53.73	-14.3	-14.6	18.0	0.00e+00	0	42	0	25333596160	4	16611
2026-01-03 09:15:46.72	129.96	54.26	-14.3	-14.6	18.0	0.00e+00	0	42	0	25442648064	4	16616
2026-01-03 09:15:47.73	129.39	54.79	-14.6	-15.0	18.0	0.00e+00	0	42	0	25560088576	4	17227
2026-01-03 09:15:48.74	128.79	55.33	-14.3	-14.7	18.0	0.00e+00	0	42	0	25669140480	4	16664
2026-01-03 09:15:49.74	128.18	55.86	-14.3	-14.6	18.1	0.00e+00	0	42	0	25778192384	4	16607
2026-01-03 09:15:50.75	127.54	56.40	-15.0	-15.4	18.0	0.00e+00	0	42	0	25895632896	4	18072
2026-01-03 09:15:51.76	126.87	56.94	-15.4	-15.8	18.0	0.00e+00	0	42	0	26013073408	4	18970
2026-01-03 09:15:52.77	126.17	57.48	-15.4	-15.7	18.1	0.00e+00	0	42	0	26122125312	6	16796
2026-01-03 09:15:53.78	125.45	58.03	-14.2	-14.6	18.1	0.00e+00	0	42	0	26239565824	4	16460
2026-01-03 09:15:54.79	124.69	58.57	-13.9	-14.3	18.1	0.00e+00	0	42	0	26348617728	4	15912
2026-01-03 09:15:55.80	123.90	59.12	-13.7	-14.1	18.2	0.00e+00	0	42	0	26466058240	2	17404
2026-01-03 09:15:56.81	123.08	59.66	-14.9	-15.3	18.1	0.00e+00	0	42	0	26583498752	2	20024
2026-01-03 09:15:57.82	122.22	60.21	-14.1	-14.5	18.1	0.00e+00	0	42	0	26692550656	4	16329
2026-01-03 09:15:58.82	121.33	60.75	-14.1	-14.5	18.1	0.00e+00	0	42	0	26801602560	2	18222
2026-01-03 09:15:59.83	120.39	61.29	-14.1	-14.5	18.1	0.00e+00	0	42	0	26919043072	4	16349
2026-01-03 09:16:00.84	119.41	61.84	-14.4	-14.8	18.1	0.00e+00	0	42	0	27028094976	2	19056
2026-01-03 09:16:01.85	118.39	62.37	-13.5	-13.9	18.2	0.00e+00	0	42	0	27145535488	2	17034
2026-01-03 09:16:02.86	117.32	62.91	-13.5	-13.9	18.1	0.00e+00	0	42	0	27262976000	2	17099
2026-01-03 09:16:03.87	116.20	63.44	-14.0	-14.4	18.1	0.00e+00	0	42	0	27372027904	2	18168
2026-01-03 09:16:04.88	115.02	63.97	-14.3	-14.7	18.1	0.00e+00	0	42	0	27489468416	4	16649
2026-01-03 09:16:05.89	113.80	64.49	-13.8	-14.2	18.1	0.00e+00	0	42	0	27598520320	2	17736
2026-01-03 09:16:06.90	112.51	65.00	-14.4	-14.8	18.1	0.00e+00	0	42	0	27707572224	2	18919
2026-01-03 09:16:07.91	111.17	65.50	-14.2	-14.5	18.1	0.00e+00	0	42	0	27833401344	6	14536
2026-01-03 09:16:08.92	109.76	66.00	-15.5	-15.9	18.1	0.00e+00	0	42	0	27942453248	4	19257
2026-01-03 09:16:09.93	108.29	66.48	-14.3	-14.7	18.1	0.00e+00	0	42	0	28051505152	2	18746
2026-01-03 09:16:10.94	106.75	66.96	-13.3	-13.7	18.1	0.00e+00	0	42	0	28168945664	2	16702
2026-01-03 09:16:11.95	105.14	67.42	-13.6	-14.0	18.1	0.00e+00	0	42	0	28277997568	2	17300
2026-01-03 09:16:12.96	103.46	67.86	-13.6	-14.0	18.1	0.00e+00	0	42	0	28395438080	2	17260
2026-01-03 09:16:13.97	101.70	68.29	-13.6	-14.0	18.1	0.00e+00	0	42	0	28512878592	2	17240
2026-01-03 09:16:14.97	99.88	68.70	-13.0	-13.4	18.1	0.00e+00	0	42	0	28621930496	2	16162
2026-01-03 09:16:15.98	97.97	69.09	-13.5	-13.9	18.1	0.00e+00	0	42	0	28730982400	2	17055
2026-01-03 09:16:16.99	95.99	69.46	-13.4	-13.8	18.1	0.00e+00	0	42	0	28848422912	2	16930
2026-01-03 09:16:18.00	93.92	69.81	-13.3	-13.6	18.1	0.00e+00	0	42	0	28957474816	2	16578
2026-01-03 09:16:19.01	91.78	70.14	-13.1	-13.5	18.1	0.00e+00	0	42	0	29074915328	2	16249
2026-01-03 09:16:20.02	89.57	70.44	-13.0	-13.3	18.1	0.00e+00	0	42	0	29192355840	2	16000
2026-01-03 09:16:21.03	87.28	70.71	-13.0	-13.4	18.1	0.00e+00	0	42	0	29301407744	2	16188
2026-01-03 09:16:22.04	84.93	70.96	-13.3	-13.7	18.1	0.00e+00	0	42	0	29418848256	2	16744
2026-01-03 09:16:23.04	82.55	71.17	-13.3	-13.6	18.1	0.00e+00	0	42	0	29527900160	2	16578
2026-01-03 09:16:24.05	80.08	71.35	-12.3	-12.6	18.2	0.00e+00	0	42	0	29636952064	46	17794
2026-01-03 09:16:25.06	77.57	71.50	-12.4	-12.8	18.2	0.00e+00	0	42	0	29754392576	46	18053
2026-01-03 09:16:26.07	75.01	71.62	-12.1	-12.5	18.2	0.00e+00	0	42	0	29871833088	46	17411
2026-01-03 09:16:27.08	72.43	71.70	-12.1	-12.5	18.2	0.00e+00	0	42	0	29980884992	46	17493
2026-01-03 09:16:28.08	69.86	71.74	-12.4	-12.7	18.2	0.00e+00	0	42	0	30098325504	46	17978
2026-01-03 09:16:29.09	67.25	71.75	-12.5	-12.8	18.2	0.00e+00	0	42	0	30207377408	48	16161
2026-01-03 09:16:30.10	64.65	71.73	-50.6	-53.0	6.1	0.00e+00	0	42	104	30232543232	60	54636
2026-01-03 09:16:31.11	62.05	71.67	-50.6	-53.0	6.1	0.00e+00	0	42	104	30232543232	60	54756
2026-01-03 09:16:32.12	59.49	71.57	-50.6	-53.0	6.1	0.00e+00	0	42	104	30232543232	60	55019
2026-01-03 09:16:33.13	56.95	71.44	-50.7	-53.1	6.1	0.00e+00	0	42	104	30232543232	60	55520
2026-01-03 09:16:34.14	54.46	71.28	-50.6	-53.1	6.1	0.00e+00	0	42	104	30232543232	60	55364
2026-01-03 09:16:35.15	52.01	71.08	-50.8	-53.3	6.1	0.00e+00	0	42	104	30232543232	60	56325
2026-01-03 09:16:36.16	49.63	70.85	-50.7	-53.1	6.1	0.00e+00	0	42	104	30232543232	60	55407
2026-01-03 09:16:37.17	47.31	70.60	-50.7	-53.2	6.0	0.00e+00	0	42	104	30232543232	60	55979
2026-01-03 09:16:38.18	45.06	70.31	-50.5	-53.0	6.1	0.00e+00	0	42	104	30232543232	60	54666
2026-01-03 09:16:39.19	42.88	70.00	-50.6	-53.1	6.1	0.00e+00	0	42	104	30232543232	60	55446
2026-01-03 09:16:40.19	40.79	69.67	-50.8	-53.2	6.1	0.00e+00	0	42	104	30232543232	60	55798
2026-01-03 09:16:41.20	38.76	69.31	-50.7	-53.1	6.1	0.00e+00	0	42	104	30232543232	60	55514
2026-01-03 09:16:42.21	36.81	68.93	-50.8	-53.3	6.1	0.00e+00	0	42	104	30232543232	60	56435
2026-01-03 09:16:43.22	34.94	68.53	-50.7	-53.1	6.1	0.00e+00	0	42	104	30232543232	60	55621
2026-01-03 09:16:44.23	33.14	68.11	-51.0	-53.6	6.1	0.00e+00	0	42	104	30232543232	60	58428
2026-01-03 09:16:45.24	31.41	67.67	-50.7	-53.2	6.1	0.00e+00	0	42	104	30232543232	60	55897
2026-01-03 09:16:46.25	29.77	67.22	-50.7	-53.2	6.1	0.00e+00	0	42	104	30232543232	60	55705
2026-01-03 09:16:47.26	28.19	66.76	-50.6	-53.1	6.1	0.00e+00	0	42	104	30232543232	60	55246
2026-01-03 09:16:48.27	26.68	66.28	-50.5	-53.0	6.1	0.00e+00	0	42	104	30232543232	60	54443
2026-01-03 09:16:49.28	25.24	65.79	-50.6	-53.1	6.1	0.00e+00	0	42	104	30232543232	60	55054
2026-01-03 09:16:50.29	23.86	65.29	-50.6	-53.1	6.1	0.00e+00	0	42	104	30232543232	60	55402
2026-01-03 09:16:51.30	22.54	64.78	-50.7	-53.2	6.1	0.00e+00	0	42	104	30232543232	60	56020
2026-01-03 09:16:52.31	21.28	64.27	-50.4	-52.9	6.1	0.00e+00	0	42	104	30232543232	60	53941
2026-01-03 09:16:53.32	20.08	63.75	-50.7	-53.1	6.1	0.00e+00	0	42	104	30232543232	60	55601
2026-01-03 09:16:54.33	18.94	63.22	-50.7	-53.2	6.1	0.00e+00	0	42	104	30232543232	60	55791
2026-01-03 09:16:55.34	17.84	62.69	-50.5	-52.9	6.1	0.00e+00	0	42	104	30232543232	60	54391
2026-01-03 09:16:56.35	16.79	62.15	-50.5	-52.9	6.0	0.00e+00	0	42	104	30232543232	60	54297
2026-01-03 09:16:57.36	15.79	61.61	-50.5	-52.9	6.1	0.00e+00	0	42	104	30232543232	60	54344
2026-01-03 09:16:58.37	14.83	61.07	-50.4	-52.9	6.1	0.00e+00	0	42	104	30232543232	60	54076
2026-01-03 09:16:59.38	13.91	60.53	-50.4	-52.8	6.1	0.00e+00	0	42	104	30232543232	60	53678
2026-01-03 09:17:00.37	13.05	60.00	-50.4	-52.9	6.1	0.00e+00	0	42	104	30232543232	60	53842
2026-01-03 09:17:01.38	12.20	59.45	-50.4	-52.9	6.1	0.00e+00	0	42	104	30232543232	60	53806
2026-01-03 09:17:02.39	11.40	58.91	-50.3	-52.8	6.1	0.00e+00	0	42	104	30232543232	60	53429
2026-01-03 09:17:03.39	10.63	58.37	-50.3	-52.8	6.1	0.00e+00	0	42	104	30232543232	60	53437
2026-01-03 09:17:04.40	9.89	57.82	-50.3	-52.8	6.1	0.00e+00	0	42	104	30232543232	60	53385
2026-01-03 09:17:05.41	9.17	57.28	-50.2	-52.7	6.1	0.00e+00	0	42	104	30232543232	60	52676
2026-01-03 09:17:06.42	8.49	56.74	-50.3	-52.8	6.1	0.00e+00	0	42	104	30232543232	60	53385
2026-01-03 09:17:07.43	7.83	56.20	-50.3	-52.8	6.1	0.00e+00	0	42	104	30232543232	60	53450
2026-01-03 09:17:08.44	7.20	55.67	-50.4	-52.9	6.1	0.00e+00	0	42	104	30232543232	60	53946
2026-01-03 09:17:09.45	6.59	55.13	-50.3	-52.7	6.1	0.00e+00	0	42	104	30232543232	60	53147
2026-01-03 09:17:10.46	6.01	54.60	-50.2	-52.7	6.1	0.00e+00	0	42	104	30232543232	60	52950
2026-01-03 09:17:11.47	5.44	54.07	-50.3	-52.8	6.1	0.00e+00	0	42	104	30232543232	60	53191
2026-01-03 09:17:12.48	4.90	53.55	-50.2	-52.7	6.1	0.00e+00	0	42	104	30232543232	60	52836
2026-01-03 09:17:13.49	4.38	53.03	-50.2	-52.7	6.1	0.00e+00	0	42	104	30232543232	60	52908
2026-01-03 09:17:14.50	3.87	52.51	-50.2	-52.6	6.1	0.00e+00	0	42	104	30232543232	60	52507
2026-01-03 09:17:15.51	3.39	51.99	-50.3	-52.8	6.1	0.00e+00	0	42	104	30232543232	60	53454
2026-01-03 09:17:16.52	2.92	51.48	-50.3	-52.7	6.1	0.00e+00	0	42	104	30232543232	60	53038
2026-01-03 09:17:17.53	2.46	50.98	-50.4	-52.8	6.1	0.00e+00	0	42	104	30232543232	60	53568
2026-01-03 09:17:18.54	2.03	50.48	-50.3	-52.7	6.1	0.00e+00	0	42	104	30232543232	60	53008
2026-01-03 09:17:19.54	1.61	49.98	-50.3	-52.8	6.1	0.00e+00	0	41	104	30232543232	60	53284
2026-01-03 09:17:20.55	1.20	49.49	-50.3	-52.7	6.1	0.00e+00	0	42	104	30232543232	60	53041
2026-01-03 09:17:21.56	0.80	49.00	-50.3	-52.8	6.1	0.00e+00	0	42	104	30232543232	60	53233
2026-01-03 09:17:22.57	0.42	48.52	-50.4	-52.9	6.1	0.00e+00	0	41	104	30232543232	60	53783
2026-01-03 09:17:23.58	0.05	48.04	-50.5	-52.9	6.1	0.00e+00	0	42	104	30232543232	60	54273
2026-01-03 09:17:24.59	359.69	47.56	-50.4	-52.9	6.1	0.00e+00	0	42	104	30232543232	60	53847
2026-01-03 09:17:25.60	359.34	47.09	-50.3	-52.8	6.1	0.00e+00	0	42	104	30232543232	60	53277
2026-01-03 09:17:26.61	359.01	46.63	-50.4	-52.8	6.1	0.00e+00	0	41	104	30232543232	60	53729
2026-01-03 09:17:27.62	358.68	46.17	-50.4	-52.9	6.1	0.00e+00	0	42	104	30232543232	60	53884
2026-01-03 09:17:28.63	358.36	45.71	-50.4	-52.9	6.1	0.00e+00	0	42	104	30232543232	60	54241
2026-01-03 09:17:29.63	358.06	45.26	-50.3	-52.7	6.1	0.00e+00	0	42	104	30232543232	60	53131
2026-01-03 09:17:30.64	357.76	44.82	-50.4	-52.8	6.1	0.00e+00	0	41	104	30232543232	60	53722
2026-01-03 09:17:31.65	357.47	44.37	-50.4	-52.9	6.1	0.00e+00	0	41	104	30232543232	60	54092
2026-01-03 09:17:32.66	357.19	43.94	-50.4	-52.9	6.1	0.00e+00	0	42	104	30232543232	60	54203
2026-01-03 09:17:33.67	356.91	43.50	-50.3	-52.7	6.1	0.00e+00	0	42	104	30232543232	60	53086
2026-01-03 09:17:34.68	356.65	43.08	-50.3	-52.7	6.1	0.00e+00	0	42	104	30232543232	60	52857
2026-01-03 09:17:35.69	356.39	42.65	-50.3	-52.7	6.1	0.00e+00	0	42	104	30232543232	60	53110
2026-01-03 09:17:36.70	356.14	42.24	-50.3	-52.8	6.1	0.00e+00	0	42	104	30232543232	60	53498
2026-01-03 09:17:37.71	355.89	41.82	-50.2	-52.7	6.1	0.00e+00	0	42	104	30232543232	60	53063
2026-01-03 09:17:38.72	355.65	41.41	-50.3	-52.7	6.1	0.00e+00	0	41	104	30232543232	60	53140
2026-01-03 09:17:39.73	355.42	41.01	-50.3	-52.8	6.1	0.00e+00	0	42	104	30232543232	60	53225
2026-01-03 09:17:40.74	355.20	40.61	-50.3	-52.8	6.1	0.00e+00	0	42	104	30232543232	60	53407
2026-01-03 09:17:41.75	354.98	40.21	-50.4	-52.8	6.1	0.00e+00	0	42	104	30232543232	60	53605
2026-01-03 09:17:42.76	354.76	39.82	-50.3	-52.8	6.1	0.00e+00	0	42	104	30232543232	60	53460
2026-01-03 09:17:43.76	354.55	39.44	-50.4	-52.8	6.1	0.00e+00	0	41	104	30232543232	60	53664
2026-01-03 09:17:44.78	354.35	39.06	-50.4	-52.8	6.1	0.00e+00	0	42	104	30232543232	60	53711
2026-01-03 09:17:45.78	354.15	38.68	-50.5	-52.9	6.1	0.00e+00	0	42	104	30232543232	60	54202
2026-01-03 09:17:46.79	353.96	38.31	-50.4	-52.9	6.1	0.00e+00	0	42	104	30232543232	60	54244
2026-01-03 09:17:47.80	353.77	37.94	-50.4	-52.9	6.1	0.00e+00	0	42	104	30232543232	60	54131
2026-01-03 09:17:48.81	353.58	37.58	-50.5	-53.0	6.1	0.00e+00	0	42	104	30232543232	60	54596
2026-01-03 09:17:49.82	353.40	37.21	-50.5	-52.9	6.1	0.00e+00	0	42	104	30232543232	60	53958
2026-01-03 09:17:50.83	353.22	36.86	-50.4	-52.9	6.1	0.00e+00	0	41	104	30232543232	60	53868
2026-01-03 09:17:51.84	353.05	36.51	-50.3	-52.8	6.1	0.00e+00	0	42	104	30232543232	60	53313
2026-01-03 09:17:52.85	352.88	36.16	-50.3	-52.8	6.1	0.00e+00	0	42	104	30232543232	60	53200
2026-01-03 09:17:53.86	352.72	35.81	-50.5	-52.9	6.1	0.00e+00	0	42	104	30232543232	60	54075
2026-01-03 09:17:54.87	352.56	35.47	-50.4	-52.9	6.1	0.00e+00	0	41	104	30232543232	60	54117
2026-01-03 09:17:55.88	352.40	35.14	-50.4	-52.9	6.1	0.00e+00	0	42	104	30232543232	60	53877
2026-01-03 09:17:56.88	352.25	34.81	-50.4	-52.8	6.1	0.00e+00	0	41	104	30232543232	60	53568
2026-01-03 09:17:57.89	352.10	34.48	-50.4	-52.9	6.1	0.00e+00	0	41	104	30232543232	60	53899
2026-01-03 09:17:58.90	351.95	34.16	-50.3	-52.7	6.1	0.00e+00	0	41	104	30232543232	60	53154
2026-01-03 09:17:59.91	351.81	33.83	-50.3	-52.7	6.1	0.00e+00	0	42	104	30232543232	60	53066
2026-01-03 09:18:00.92	351.66	33.52	-50.3	-52.8	6.1	0.00e+00	0	42	104	30232543232	60	53486
2026-01-03 09:18:01.93	351.53	33.20	-50.3	-52.8	6.1	0.00e+00	0	42	104	30232543232	60	53538
2026-01-03 09:18:02.94	351.39	32.89	-50.4	-52.8	6.1	0.00e+00	0	41	104	30232543232	60	53643
2026-01-03 09:18:03.95	351.26	32.59	-50.3	-52.8	6.1	0.00e+00	0	41	104	30232543232	60	53511
2026-01-03 09:18:04.95	351.13	32.29	-50.3	-52.7	6.1	0.00e+00	0	42	104	30232543232	60	53149
2026-01-03 09:18:05.96	351.00	31.99	-50.4	-52.8	6.1	0.00e+00	0	42	104	30232543232	60	53432
2026-01-03 09:18:06.97	350.88	31.69	-50.3	-52.7	6.1	0.00e+00	0	42	104	30232543232	60	52853
2026-01-03 09:18:07.98	350.76	31.40	-50.3	-52.8	6.1	0.00e+00	0	42	104	30232543232	60	53701
2026-01-03 09:18:08.99	350.64	31.11	-50.2	-52.7	6.1	0.00e+00	0	42	104	30232543232	60	52659
2026-01-03 09:18:10.00	350.52	30.82	-50.3	-52.8	6.1	0.00e+00	0	42	104	30232543232	60	53198
2026-01-03 09:18:11.01	350.40	30.54	-50.2	-52.6	6.1	0.00e+00	0	41	104	30232543232	60	52416
2026-01-03 09:18:12.02	350.29	30.26	-50.4	-52.9	6.1	0.00e+00	0	42	104	30232543232	60	54096
2026-01-03 09:18:13.03	350.18	29.98	-50.5	-52.9	6.1	0.00e+00	0	42	104	30232543232	60	54179
2026-01-03 09:18:14.03	350.07	29.71	-50.4	-52.8	6.1	0.00e+00	0	42	104	30232543232	60	53487
2026-01-03 09:18:15.05	349.97	29.43	-50.6	-53.0	6.1	0.00e+00	0	42	104	30232543232	60	54536
2026-01-03 09:18:16.06	349.86	29.17	-50.5	-53.0	6.1	0.00e+00	0	42	104	30232543232	60	54487
2026-01-03 09:18:17.06	349.76	28.90	-50.5	-53.0	6.1	0.00e+00	0	41	104	30232543232	60	54946
2026-01-03 09:18:18.07	349.66	28.64	-50.5	-53.0	6.1	0.00e+00	0	42	104	30232543232	60	54748
2026-01-03 09:18:19.08	349.56	28.38	-50.5	-52.9	6.1	0.00e+00	0	41	104	30232543232	60	54308
2026-01-03 09:18:20.09	349.46	28.12	-50.3	-52.8	6.1	0.00e+00	0	42	104	30232543232	60	53589
2026-01-03 09:18:21.10	349.37	27.87	-50.4	-52.9	6.1	0.00e+00	0	41	104	30232543232	60	53949
2026-01-03 09:18:22.11	349.27	27.62	-50.3	-52.7	6.1	0.00e+00	0	42	104	30232543232	60	53137
2026-01-03 09:18:23.12	349.18	27.37	-50.2	-52.7	6.0	0.00e+00	0	41	104	30232543232	60	52583
2026-01-03 09:18:24.13	349.09	27.12	-50.1	-52.6	6.1	0.00e+00	0	42	104	30232543232	60	52061
2026-01-03 09:18:25.14	349.00	26.88	-50.2	-52.7	6.1	0.00e+00	0	42	104	30232543232	60	52826
2026-01-03 09:18:26.15	348.91	26.64	-50.3	-52.7	6.1	0.00e+00	0	41	104	30232543232	60	52875
2026-01-03 09:18:27.16	348.83	26.40	-50.2	-52.7	6.1	0.00e+00	0	42	104	30232543232	60	52841
2026-01-03 09:18:28.17	348.74	26.16	-50.2	-52.6	6.1	0.00e+00	0	42	104	30232543232	60	52505
2026-01-03 09:18:29.18	348.66	25.93	-50.3	-52.8	6.1	0.00e+00	0	42	104	30232543232	60	53293
2026-01-03 09:18:30.18	348.58	25.70	-50.1	-52.6	6.1	0.00e+00	0	41	104	30232543232	60	52402
2026-01-03 09:18:31.19	348.50	25.47	-50.4	-52.9	6.1	0.00e+00	0	42	104	30232543232	60	53962
2026-01-03 09:18:32.20	348.42	25.24	-50.2	-52.7	6.1	0.00e+00	0	42	104	30232543232	60	52683
2026-01-03 09:18:33.21	348.34	25.02	-50.3	-52.8	6.1	0.00e+00	0	41	104	30232543232	60	53215
2026-01-03 09:18:34.22	348.27	24.80	-50.5	-52.9	6.1	0.00e+00	0	41	104	30232543232	60	54147
2026-01-03 09:18:35.23	348.19	24.58	-50.4	-52.8	6.1	0.00e+00	0	41	104	30232543232	60	53349
2026-01-03 09:18:36.24	348.12	24.36	-50.6	-53.0	6.1	0.00e+00	0	41	104	30232543232	60	54968
2026-01-03 09:18:37.25	348.05	24.14	-50.5	-53.0	6.1	0.00e+00	0	41	104	30232543232	60	54543
2026-01-03 09:18:38.26	347.97	23.93	-50.4	-53.0	6.1	0.00e+00	0	41	104	30232543232	60	54448
2026-01-03 09:18:39.27	347.90	23.72	-50.4	-52.8	6.1	0.00e+00	0	41	104	30232543232	60	53197
2026-01-03 09:18:40.28	347.84	23.51	-50.3	-52.7	6.1	0.00e+00	0	41	104	30232543232	60	52970
2026-01-03 09:18:41.29	347.77	23.30	-50.3	-52.8	6.1	0.00e+00	0	42	104	30232543232	60	53690
2026-01-03 09:18:42.30	347.70	23.10	-50.0	-52.5	6.1	0.00e+00	0	41	104	30232543232	60	51685
2026-01-03 09:18:43.31	347.63	22.89	-50.4	-52.9	6.1	0.00e+00	0	42	104	30232543232	60	53916
2026-01-03 09:18:44.32	347.57	22.69	-50.6	-53.0	6.1	0.00e+00	0	42	104	30232543232	60	54798
2026-01-03 09:18:45.33	347.50	22.49	-50.5	-53.0	6.1	0.00e+00	0	41	104	30232543232	60	54491
2026-01-03 09:18:46.34	347.44	22.29	-50.6	-53.1	6.1	0.00e+00	0	41	104	30232543232	60	55455
2026-01-03 09:18:47.35	347.38	22.10	-50.1	-52.6	6.1	0.00e+00	0	41	104	30232543232	60	52243
2026-01-03 09:18:48.35	347.32	21.90	-50.2	-52.6	6.1	0.00e+00	0	41	104	30232543232	60	52498
2026-01-03 09:18:49.36	347.26	21.71	-50.4	-52.8	6.1	0.00e+00	0	41	104	30232543232	60	53647
2026-01-03 09:18:50.37	347.20	21.52	-50.5	-53.0	6.1	0.00e+00	0	41	104	30232543232	60	54658
2026-01-03 09:18:51.38	347.14	21.33	-50.4	-52.9	6.1	0.00e+00	0	42	104	30232543232	60	54179
2026-01-03 09:18:52.39	347.08	21.15	-50.4	-52.8	6.1	0.00e+00	0	41	104	30232543232	60	53452
2026-01-03 09:18:53.40	347.03	20.96	-50.1	-52.6	6.1	0.00e+00	0	41	104	30232543232	60	52262
2026-01-03 09:18:54.41	346.97	20.78	-50.4	-52.8	6.1	0.00e+00	0	41	104	30232543232	60	53660
2026-01-03 09:18:55.42	346.91	20.59	-50.1	-52.6	6.1	0.00e+00	0	41	104	30232543232	60	52367
2026-01-03 09:18:56.42	346.86	20.41	-50.2	-52.7	6.1	0.00e+00	0	41	104	30232543232	60	52801
2026-01-03 09:18:57.43	346.81	20.24	-50.6	-53.0	6.1	0.00e+00	0	41	104	30232543232	60	54756
2026-01-03 09:18:58.44	346.75	20.06	-50.1	-52.6	6.1	0.00e+00	0	42	104	30232543232	60	52103
2026-01-03 09:18:59.45	346.70	19.88	-50.3	-52.8	6.1	0.00e+00	0	42	104	30232543232	60	53504
2026-01-03 09:19:00.46	346.65	19.71	-50.3	-52.7	6.1	0.00e+00	0	42	104	30232543232	60	53109
2026-01-03 09:19:01.46	346.60	19.54	-50.4	-52.9	6.1	0.00e+00	0	42	104	30232543232	60	53829
2026-01-03 09:19:02.47	346.55	19.37	-50.3	-52.8	6.1	0.00e+00	0	42	104	30232543232	60	53269
2026-01-03 09:19:03.48	346.50	19.20	-50.2	-52.7	6.0	0.00e+00	0	42	104	30232543232	60	52576
2026-01-03 09:19:04.49	346.45	19.03	-50.2	-52.7	6.1	0.00e+00	0	42	104	30232543232	60	52975
2026-01-03 09:19:05.50	346.40	18.86	-50.1	-52.6	6.1	0.00e+00	0	42	104	30232543232	60	52168
2026-01-03 09:19:06.51	346.36	18.69	-50.1	-52.6	6.1	0.00e+00	0	41	104	30232543232	60	52011
2026-01-03 09:19:07.52	346.31	18.53	-50.0	-52.5	6.1	0.00e+00	0	41	104	30232543232	60	51733
2026-01-03 09:19:08.53	346.26	18.37	-50.2	-52.7	6.1	0.00e+00	0	42	104	30232543232	60	52553
2026-01-03 09:19:09.54	346.22	18.21	-50.1	-52.6	6.1	0.00e+00	0	42	104	30232543232	60	52066
2026-01-03 09:19:10.55	346.17	18.04	-50.1	-52.5	6.1	0.00e+00	0	42	104	30232543232	60	51922
2026-01-03 09:19:11.56	346.13	17.89	-49.9	-52.4	6.1	0.00e+00	0	41	104	30232543232	60	51039
2026-01-03 09:19:12.57	346.08	17.73	-50.2	-52.7	6.1	0.00e+00	0	41	104	30232543232	60	52719
2026-01-03 09:19:13.58	346.04	17.57	-50.2	-52.7	6.1	0.00e+00	0	41	104	30232543232	60	52672
2026-01-03 09:19:14.59	346.00	17.42	-50.0	-52.5	6.1	0.00e+00	0	42	104	30232543232	60	51881
2026-01-03 09:19:15.59	345.96	17.26	-50.1	-52.6	6.1	0.00e+00	0	42	104	30232543232	60	51979
2026-01-03 09:19:16.61	345.91	17.11	-50.2	-52.6	6.1	0.00e+00	0	42	104	30232543232	60	52183
2026-01-03 09:19:17.61	345.87	16.96	-50.0	-52.4	6.1	0.00e+00	0	41	104	30232543232	60	51184
2026-01-03 09:19:18.63	345.83	16.81	-49.9	-52.4	6.1	0.00e+00	0	42	104	30232543232	60	51008
2026-01-03 09:19:19.63	345.79	16.66	-50.0	-52.5	6.1	0.00e+00	0	42	104	30232543232	60	51511
2026-01-03 09:19:20.64	345.75	16.51	-50.0	-52.4	6.1	0.00e+00	0	42	104	30232543232	60	51265
2026-01-03 09:19:21.65	345.72	16.36	-50.0	-52.5	6.1	0.00e+00	0	41	104	30232543232	60	51538
2026-01-03 09:19:22.66	345.68	16.22	-50.0	-52.5	6.1	0.00e+00	0	42	104	30232543232	60	51378
2026-01-03 09:19:23.67	345.64	16.07	-50.1	-52.6	6.1	0.00e+00	0	42	104	30232543232	60	52421
2026-01-03 09:19:24.68	345.60	15.93	-50.1	-52.6	6.1	0.00e+00	0	42	104	30232543232	60	52003
2026-01-03 09:19:25.69	345.56	15.79	-50.1	-52.5	6.1	0.00e+00	0	41	104	30232543232	60	51736
2026-01-03 09:19:26.70	345.53	15.65	-50.1	-52.5	6.1	0.00e+00	0	42	104	30232543232	60	51871
2026-01-03 09:19:27.71	345.49	15.51	-50.0	-52.5	6.1	0.00e+00	0	42	104	30232543232	60	51395
2026-01-03 09:19:28.71	345.46	15.37	-49.9	-52.3	6.1	0.00e+00	0	42	104	30232543232	60	50724
2026-01-03 09:19:29.73	345.42	15.23	-49.9	-52.4	6.1	0.00e+00	0	41	104	30232543232	60	50814
2026-01-03 09:19:30.74	345.39	15.09	-49.9	-52.3	6.1	0.00e+00	0	42	104	30232543232	60	50761
2026-01-03 09:19:31.75	345.35	14.95	-49.9	-52.3	6.0	0.00e+00	0	42	104	30232543232	60	50550
2026-01-03 09:19:32.76	345.32	14.82	-49.8	-52.3	6.1	0.00e+00	0	41	104	30232543232	60	50432
2026-01-03 09:19:33.77	345.28	14.68	-49.8	-52.3	6.1	0.00e+00	0	41	104	30232543232	60	50263
2026-01-03 09:19:34.78	345.25	14.55	-50.0	-52.4	6.1	0.00e+00	0	41	104	30232543232	60	51095
2026-01-03 09:19:35.78	345.22	14.42	-49.9	-52.4	6.1	0.00e+00	0	41	104	30232543232	60	50922
2026-01-03 09:19:36.79	345.18	14.29	-49.9	-52.4	6.0	0.00e+00	0	41	104	30232543232	60	50877
2026-01-03 09:19:37.80	345.15	14.16	-49.8	-52.3	6.1	0.00e+00	0	41	104	30232543232	60	50420
2026-01-03 09:19:38.81	345.12	14.03	-50.1	-52.5	6.1	0.00e+00	0	41	104	30232543232	60	51846
2026-01-03 09:19:39.82	345.09	13.90	-49.9	-52.3	6.1	0.00e+00	0	42	104	30232543232	60	50715
2026-01-03 09:19:40.83	345.06	13.77	-50.0	-52.4	6.1	0.00e+00	0	41	104	30232543232	60	51342
2026-01-03 09:19:41.84	345.03	13.64	-50.1	-52.6	6.1	0.00e+00	0	42	104	30232543232	60	52043
2026-01-03 09:19:42.85	345.00	13.51	-50.0	-52.5	6.1	0.00e+00	0	42	104	30232543232	60	51522
2026-01-03 09:19:43.86	344.97	13.39	-50.0	-52.4	6.1	0.00e+00	0	41	104	30232543232	60	51205
2026-01-03 09:19:44.87	344.94	13.26	-50.0	-52.5	6.1	0.00e+00	0	41	104	30232543232	60	51733
2026-01-03 09:19:45.88	344.91	13.14	-49.9	-52.4	6.1	0.00e+00	0	41	104	30232543232	60	50920
2026-01-03 09:19:46.89	344.88	13.02	-50.0	-52.5	6.1	0.00e+00	0	41	104	30232543232	60	51536
2026-01-03 09:19:47.90	344.85	12.89	-50.1	-52.5	6.1	0.00e+00	0	41	104	30232543232	60	51913
2026-01-03 09:19:48.91	344.82	12.77	-49.9	-52.4	6.1	0.00e+00	0	41	104	30232543232	60	51087
2026-01-03 09:19:49.91	344.80	12.65	-50.0	-52.5	6.1	0.00e+00	0	42	104	30232543232	60	51556
2026-01-03 09:19:50.92	344.77	12.53	-50.0	-52.4	6.1	0.00e+00	0	41	104	30232543232	60	51144
2026-01-03 09:19:51.93	344.74	12.41	-50.0	-52.5	6.1	0.00e+00	0	41	104	30232543232	60	51834
2026-01-03 09:19:52.94	344.71	12.29	-50.2	-52.6	6.1	0.00e+00	0	41	104	30232543232	60	52396
2026-01-03 09:19:53.95	344.69	12.18	-50.0	-52.5	6.1	0.00e+00	0	41	104	30232543232	60	51839
2026-01-03 09:19:54.96	344.66	12.06	-50.1	-52.5	6.1	0.00e+00	0	41	104	30232543232	60	51934
2026-01-03 09:19:55.97	344.63	11.94	-50.1	-52.6	6.1	0.00e+00	0	41	104	30232543232	60	52012
2026-01-03 09:19:56.98	344.61	11.83	-50.2	-52.7	6.1	0.00e+00	0	41	104	30232543232	60	52758
2026-01-03 09:19:57.99	344.58	11.71	-50.0	-52.5	6.1	0.00e+00	0	41	104	30232543232	60	51715
2026-01-03 09:19:59.00	344.56	11.60	-50.0	-52.5	6.1	0.00e+00	0	41	104	30232543232	60	51451
2026-01-03 09:20:00.00	344.53	11.49	-50.1	-52.6	6.1	0.00e+00	0	41	104	30232543232	60	52071
2026-01-03 09:20:01.01	344.51	11.37	-50.1	-52.6	6.1	0.00e+00	0	41	104	30232543232	60	51989
2026-01-03 09:20:02.02	344.48	11.26	-50.1	-52.5	6.1	0.00e+00	0	42	104	30232543232	60	51806
2026-01-03 09:20:03.03	344.46	11.15	-50.2	-52.6	6.1	0.00e+00	0	41	104	30232543232	60	52541
2026-01-03 09:20:04.04	344.44	11.04	-50.1	-52.6	6.1	0.00e+00	0	41	104	30232543232	60	52381
2026-01-03 09:20:05.05	344.41	10.93	-50.3	-52.8	6.1	0.00e+00	0	41	104	30232543232	60	53354
2026-01-03 09:20:06.06	344.39	10.82	-50.1	-52.6	6.1	0.00e+00	0	41	104	30232543232	60	52149
2026-01-03 09:20:07.06	344.37	10.71	-50.3	-52.7	6.1	0.00e+00	0	41	104	30232543232	60	52912
2026-01-03 09:20:08.07	344.34	10.60	-50.3	-52.7	6.1	0.00e+00	0	41	104	30232543232	60	52775
2026-01-03 09:20:09.08	344.32	10.50	-50.2	-52.6	6.1	0.00e+00	0	41	104	30232543232	60	52138
2026-01-03 09:20:10.09	344.30	10.39	-50.0	-52.5	6.1	0.00e+00	0	42	104	30232543232	60	51541
2026-01-03 09:20:11.10	344.27	10.28	-49.9	-52.4	6.1	0.00e+00	0	41	104	30232543232	60	51245
2026-01-03 09:20:12.11	344.25	10.18	-50.1	-52.6	6.1	0.00e+00	0	41	104	30232543232	60	52325
2026-01-03 09:20:13.12	344.23	10.07	-50.3	-52.7	6.1	0.00e+00	0	42	104	30232543232	60	53146
2026-01-03 09:20:14.13	344.21	9.97	-50.2	-52.7	6.1	0.00e+00	0	41	104	30232543232	60	52900
2026-01-03 09:20:15.14	344.19	9.86	-50.3	-52.7	6.1	0.00e+00	0	42	104	30232543232	60	52942
2026-01-03 09:20:16.14	344.17	9.76	-50.2	-52.6	6.1	0.00e+00	0	41	104	30232543232	60	52350
2026-01-03 09:20:17.15	344.15	9.66	-50.2	-52.6	6.1	0.00e+00	0	42	104	30232543232	60	52295
2026-01-03 09:20:18.16	344.13	9.55	-50.4	-52.9	6.1	0.00e+00	0	41	104	30232543232	60	54134
2026-01-03 09:20:19.17	344.11	9.45	-50.3	-52.8	6.1	0.00e+00	0	42	104	30232543232	60	53556
2026-01-03 09:20:20.18	344.08	9.35	-50.3	-52.7	6.1	0.00e+00	0	42	104	30232543232	60	52921
2026-01-03 09:20:21.19	344.06	9.25	-50.3	-52.7	6.1	0.00e+00	0	42	104	30232543232	60	53003
2026-01-03 09:20:22.20	344.04	9.15	-50.3	-52.7	6.1	0.00e+00	0	42	104	30232543232	60	53039
2026-01-03 09:20:23.21	344.03	9.05	-50.4	-52.9	6.1	0.00e+00	0	41	104	30232543232	60	53866
2026-01-03 09:20:24.22	344.01	8.95	-50.3	-52.7	6.1	0.00e+00	0	41	104	30232543232	60	53007
2026-01-03 09:20:25.23	343.99	8.85	-50.1	-52.6	6.1	0.00e+00	0	41	104	30232543232	60	52311
2026-01-03 09:20:26.24	343.97	8.75	-50.0	-52.4	6.1	0.00e+00	0	41	104	30232543232	60	51337
2026-01-03 09:20:27.24	343.95	8.66	-49.9	-52.4	6.1	0.00e+00	0	42	104	30232543232	60	51172
2026-01-03 09:20:28.25	343.93	8.56	-50.1	-52.6	6.1	0.00e+00	0	41	104	30232543232	60	52369
2026-01-03 09:20:29.26	343.91	8.46	-49.9	-52.4	6.1	0.00e+00	0	41	104	30232543232	60	51262
2026-01-03 09:20:30.27	343.89	8.37	-49.9	-52.4	6.1	0.00e+00	0	41	104	30232543232	60	51174
2026-01-03 09:20:31.27	343.88	8.27	-49.8	-52.4	6.1	0.00e+00	0	42	104	30232543232	60	50969
2026-01-03 09:20:32.28	343.86	8.18	-50.3	-52.8	6.1	0.00e+00	0	42	104	30232543232	60	53499
2026-01-03 09:20:33.29	343.84	8.08	-50.0	-52.5	6.1	0.00e+00	0	42	104	30232543232	60	51401
2026-01-03 09:20:34.30	343.82	7.99	-49.6	-52.1	6.1	0.00e+00	0	42	104	30232543232	60	49365
2026-01-03 09:20:35.31	343.80	7.89	-50.0	-52.5	6.1	0.00e+00	0	41	104	30232543232	60	51825
2026-01-03 09:20:36.32	343.79	7.80	-50.0	-52.5	6.1	0.00e+00	0	42	104	30232543232	60	51382
2026-01-03 09:20:37.32	343.77	7.71	-49.8	-52.3	6.1	0.00e+00	0	41	104	30232543232	60	50240
2026-01-03 09:20:38.33	343.75	7.62	-49.7	-52.2	6.1	0.00e+00	0	41	104	30232543232	60	49807
2026-01-03 09:20:39.34	343.74	7.52	-49.8	-52.2	6.1	0.00e+00	0	41	104	30232543232	60	49863
2026-01-03 09:20:40.35	343.72	7.43	-49.6	-52.1	6.1	0.00e+00	0	41	104	30232543232	60	49305
2026-01-03 09:20:41.36	343.70	7.34	-49.9	-52.4	6.1	0.00e+00	0	42	104	30232543232	60	50849
2026-01-03 09:20:42.37	343.69	7.25	-49.7	-52.2	6.1	0.00e+00	0	42	104	30232543232	60	49989
2026-01-03 09:20:43.38	343.67	7.16	-49.9	-52.4	6.1	0.00e+00	0	42	104	30232543232	60	50970
2026-01-03 09:20:44.38	343.66	7.07	-50.0	-52.4	6.1	0.00e+00	0	42	104	30232543232	60	51229
2026-01-03 09:20:45.39	343.64	6.98	-49.5	-52.0	6.1	0.00e+00	0	41	104	30232543232	60	48749
2026-01-03 09:20:46.40	343.62	6.89	-49.2	-51.7	6.1	0.00e+00	0	42	104	30232543232	60	47352
2026-01-03 09:20:47.41	343.61	6.80	-49.2	-51.8	6.1	0.00e+00	0	42	104	30232543232	60	47388
2026-01-03 09:20:48.42	343.59	6.72	-49.3	-51.8	6.1	0.00e+00	0	42	104	30232543232	60	47748
2026-01-03 09:20:49.43	343.58	6.63	-49.1	-51.6	6.1	0.00e+00	0	41	104	30232543232	60	46643
2026-01-03 09:20:50.44	343.56	6.54	-48.8	-51.3	6.1	0.00e+00	0	41	104	30232543232	60	45014
2026-01-03 09:20:51.45	343.55	6.45	-48.5	-51.0	6.1	0.00e+00	0	41	104	30232543232	60	43707
2026-01-03 09:20:52.46	343.53	6.37	-49.1	-51.6	6.1	0.00e+00	0	42	104	30232543232	60	46428
2026-01-03 09:20:53.47	343.52	6.28	-49.4	-51.9	6.1	0.00e+00	0	41	104	30232543232	60	48179
2026-01-03 09:20:54.47	343.50	6.20	-48.3	-50.7	6.1	0.00e+00	0	41	104	30232543232	60	42152
2026-01-03 09:20:55.48	343.49	6.11	-48.0	-50.5	6.1	0.00e+00	0	41	104	30232543232	60	40829
2026-01-03 09:20:56.49	343.48	6.02	-47.8	-50.2	6.1	0.00e+00	0	42	104	30232543232	60	39657
2026-01-03 09:20:57.50	343.46	5.94	-47.5	-50.0	6.1	0.00e+00	0	42	104	30232543232	60	38628
2026-01-03 09:20:58.51	343.45	5.85	-47.1	-49.6	6.1	0.00e+00	0	42	104	30232543232	60	37046
2026-01-03 09:20:59.52	343.43	5.77	-47.1	-49.5	6.1	0.00e+00	0	42	104	30232543232	60	36621
2026-01-03 09:21:00.53	343.42	5.69	-46.9	-49.4	6.1	0.00e+00	0	42	104	30232543232	60	36154
2026-01-03 09:21:01.54	343.41	5.60	-48.1	-50.6	6.1	0.00e+00	0	42	104	30232543232	60	41636
2026-01-03 09:21:02.55	343.39	5.52	-48.4	-50.8	6.1	0.00e+00	0	42	104	30232543232	60	42681
2026-01-03 09:21:03.55	343.38	5.44	-47.2	-49.7	6.1	0.00e+00	0	41	104	30232543232	60	37483
2026-01-03 09:21:04.56	343.37	5.36	-47.4	-49.8	6.0	0.00e+00	0	42	104	30232543232	60	38055
2026-01-03 09:21:05.57	343.35	5.27	-47.2	-49.6	6.1	0.00e+00	0	42	104	30232543232	60	37110
2026-01-03 09:21:06.58	343.34	5.19	-46.8	-49.2	6.1	0.00e+00	0	42	104	30232543232	60	35344
2026-01-03 09:21:07.59	343.33	5.11	-46.7	-49.2	6.1	0.00e+00	0	42	104	30232543232	60	35260
2026-01-03 09:21:08.60	343.31	5.03	-46.6	-49.2	6.1	0.00e+00	0	41	104	30232543232	60	35155
2026-01-03 09:21:09.61	343.30	4.95	-46.4	-48.9	6.1	0.00e+00	0	41	104	30232543232	60	33968
2026-01-03 09:21:10.61	343.29	4.87	-47.5	-50.0	6.1	0.00e+00	0	41	104	30232543232	60	38549
2026-01-03 09:21:11.62	343.28	4.79	-47.1	-49.6	6.1	0.00e+00	0	42	104	30232543232	60	36870
2026-01-03 09:21:12.63	343.27	4.71	-46.8	-49.3	6.1	0.00e+00	0	42	104	30232543232	60	35600
2026-01-03 09:21:13.64	343.25	4.63	-46.4	-48.8	6.1	0.00e+00	0	41	104	30232543232	60	33897
2026-01-03 09:21:14.65	343.24	4.55	-46.2	-48.7	6.1	0.00e+00	0	42	104	30232543232	60	33241
2026-01-03 09:21:15.65	343.23	4.47	-46.2	-48.6	6.1	0.00e+00	0	42	104	30232543232	60	33130
2026-01-03 09:21:16.66	343.22	4.39	-46.1	-48.6	6.1	0.00e+00	0	42	104	30232543232	60	32987
2026-01-03 09:21:17.67	343.21	4.32	-46.0	-48.5	6.1	0.00e+00	0	41	104	30232543232	60	32480
2026-01-03 09:21:18.67	343.19	4.24	-46.0	-48.4	6.1	0.00e+00	0	42	104	30232543232	60	32351
2026-01-03 09:21:19.68	343.18	4.16	-46.5	-48.9	6.1	0.00e+00	0	42	104	30232543232	60	34308
2026-01-03 09:21:20.69	343.17	4.08	-46.3	-48.7	6.1	0.00e+00	0	42	104	30232543232	60	33458
2026-01-03 09:21:21.70	343.16	4.01	-45.9	-48.4	6.1	0.00e+00	0	42	104	30232543232	60	32230
2026-01-03 09:21:22.71	343.15	3.93	-45.9	-48.4	6.1	0.00e+00	0	42	104	30232543232	60	32111
2026-01-03 09:21:23.71	343.14	3.85	-45.7	-48.3	6.1	0.00e+00	0	42	104	30232543232	60	31690
2026-01-03 09:21:24.72	343.13	3.78	-45.7	-48.2	6.1	0.00e+00	0	41	104	30232543232	60	31593
2026-01-03 09:21:25.73	343.12	3.70	-45.7	-48.2	6.1	0.00e+00	0	42	104	30232543232	60	31484
2026-01-03 09:21:26.74	343.11	3.63	-45.8	-48.3	6.1	0.00e+00	0	42	104	30232543232	60	31847
2026-01-03 09:21:27.75	343.10	3.55	-45.8	-48.3	6.1	0.00e+00	0	42	104	30232543232	60	31908
2026-01-03 09:21:28.76	343.08	3.48	-46.1	-48.6	6.1	0.00e+00	0	42	104	30232543232	60	32912
2026-01-03 09:21:29.77	343.07	3.40	-46.1	-48.6	6.1	0.00e+00	0	42	104	30232543232	60	33026
2026-01-03 09:21:30.78	343.06	3.33	-46.1	-48.5	6.1	0.00e+00	0	42	104	30232543232	60	32670
2026-01-03 09:21:31.79	343.05	3.25	-45.9	-48.3	6.1	0.00e+00	0	42	104	30232543232	60	31868
2026-01-03 09:21:32.80	343.04	3.18	-46.1	-48.7	6.1	0.00e+00	0	42	104	30232543232	60	33229
2026-01-03 09:21:33.80	343.03	3.10	-46.0	-48.5	6.1	0.00e+00	0	42	104	30232543232	60	32551
2026-01-03 09:21:34.81	343.02	3.03	-45.8	-48.3	6.1	0.00e+00	0	42	104	30232543232	60	31696
2026-01-03 09:21:35.82	343.01	2.96	-46.3	-48.8	6.1	0.00e+00	0	42	104	30232543232	60	33857
2026-01-03 09:21:36.83	343.00	2.88	-49.7	-52.2	6.1	0.00e+00	0	42	104	30232543232	60	49805
2026-01-03 09:21:37.84	342.99	2.81	-50.0	-52.5	6.1	0.00e+00	0	42	104	30232543232	60	51781
2026-01-03 09:21:38.85	342.98	2.74	-50.2	-52.7	6.1	0.00e+00	0	42	104	30232543232	60	52557
2026-01-03 09:21:39.86	342.97	2.67	-50.2	-52.7	6.1	0.00e+00	0	42	104	30232543232	60	52917
2026-01-03 09:21:40.87	342.97	2.59	-50.4	-52.9	6.1	0.00e+00	0	42	104	30232543232	60	54082
2026-01-03 09:21:41.88	342.96	2.52	-50.4	-52.9	6.1	0.00e+00	0	42	104	30232543232	60	54035
2026-01-03 09:21:42.89	342.95	2.45	-50.6	-53.1	6.1	0.00e+00	0	42	104	30232543232	60	55443
2026-01-03 09:21:43.90	342.94	2.38	-50.6	-53.1	6.1	0.00e+00	0	42	104	30232543232	60	55444
2026-01-03 09:21:44.91	342.93	2.31	-50.2	-52.8	6.1	0.00e+00	0	42	104	30232543232	60	53443
2026-01-03 09:21:45.92	342.92	2.24	-50.6	-53.0	6.1	0.00e+00	0	42	104	30232543232	60	54967
2026-01-03 09:21:46.93	342.91	2.17	-50.5	-52.9	6.1	0.00e+00	0	42	104	30232543232	60	54369
2026-01-03 09:21:47.94	342.90	2.10	-50.5	-53.0	6.1	0.00e+00	0	42	104	30232543232	60	54517
2026-01-03 09:21:48.95	342.89	2.03	-50.2	-52.7	6.1	0.00e+00	0	42	104	30232543232	60	53035
2026-01-03 09:21:49.96	342.88	1.96	-50.7	-53.2	6.1	0.00e+00	0	42	104	30232543232	60	55724
2026-01-03 09:21:50.97	342.87	1.89	-50.7	-53.2	6.1	0.00e+00	0	42	104	30232543232	60	56140
2026-01-03 09:21:51.98	342.87	1.82	-50.5	-53.0	6.1	0.00e+00	0	42	104	30232543232	60	54412
2026-01-03 09:21:52.99	342.86	1.75	-50.4	-52.9	6.1	0.00e+00	0	42	104	30232543232	60	53947
2026-01-03 09:21:54.00	342.85	1.68	-50.8	-53.3	6.1	0.00e+00	0	42	104	30232543232	60	56654
2026-01-03 09:21:55.01	342.84	1.61	-50.6	-53.1	6.1	0.00e+00	0	42	104	30232543232	60	55309
2026-01-03 09:21:56.02	342.83	1.54	-50.7	-53.1	6.1	0.00e+00	0	42	104	30232543232	60	55310
2026-01-03 09:21:57.03	342.82	1.47	-50.5	-53.0	6.1	0.00e+00	0	42	104	30232543232	60	54579
2026-01-03 09:21:58.04	342.82	1.40	-50.6	-53.0	6.1	0.00e+00	0	42	104	30232543232	60	54914
2026-01-03 09:21:59.05	342.81	1.34	-50.8	-53.2	6.1	0.00e+00	0	42	104	30232543232	60	56194
2026-01-03 09:22:00.06	342.80	1.27	-50.5	-53.0	6.1	0.00e+00	0	42	104	30232543232	60	54672
2026-01-03 09:22:01.07	342.79	1.20	-50.6	-53.1	6.1	0.00e+00	0	42	104	30232543232	60	55200
2026-01-03 09:22:02.08	342.78	1.13	-50.8	-53.2	6.1	0.00e+00	0	41	104	30232543232	60	55846
2026-01-03 09:22:03.09	342.78	1.07	-50.6	-53.1	6.1	0.00e+00	0	41	104	30232543232	60	55119
2026-01-03 09:22:04.10	342.77	1.00	-50.5	-53.0	6.1	0.00e+00	0	42	104	30232543232	60	54618
2026-01-03 09:22:05.10	342.76	0.93	-50.6	-53.1	6.1	0.00e+00	0	42	104	30232543232	60	55310
2026-01-03 09:22:06.11	342.75	0.87	-50.7	-53.2	6.1	0.00e+00	0	42	104	30232543232	60	56229
2026-01-03 09:22:07.13	342.75	0.80	-50.7	-53.2	6.1	0.00e+00	0	42	104	30232543232	60	56068
2026-01-03 09:22:08.13	342.74	0.73	-50.8	-53.2	6.1	0.00e+00	0	42	104	30232543232	60	56016
2026-01-03 09:22:09.14	342.73	0.67	-50.6	-53.0	6.1	0.00e+00	0	42	104	30232543232	60	54543
2026-01-03 09:22:10.15	342.72	0.60	-50.4	-52.9	6.0	0.00e+00	0	42	104	30232543232	60	54352
2026-01-03 09:22:11.16	342.72	0.54	-50.5	-53.0	6.1	0.00e+00	0	42	104	30232543232	60	54582
2026-01-03 09:22:12.17	342.71	0.47	-50.9	-53.4	6.1	0.00e+00	0	42	104	30232543232	60	57311
2026-01-03 09:22:13.18	342.70	0.40	-50.9	-53.4	6.1	0.00e+00	0	42	104	30232543232	60	57127
2026-01-03 09:22:14.19	342.70	0.34	-50.7	-53.2	6.1	0.00e+00	0	42	104	30232543232	60	55670
2026-01-03 09:22:15.20	342.69	0.27	-51.0	-53.4	6.1	0.00e+00	0	42	104	30232543232	60	57594
2026-01-03 09:22:16.21	342.68	0.21	-51.0	-53.4	6.1	0.00e+00	0	41	104	30232543232	60	57205
2026-01-03 09:22:17.22	342.68	0.14	-50.9	-53.3	6.1	0.00e+00	0	42	104	30232543232	60	56562
2026-01-03 09:22:18.23	342.67	0.08	-50.9	-53.4	6.1	0.00e+00	0	42	104	30232543232	60	57410
2026-01-03 09:22:19.24	342.66	0.02	-51.0	-53.5	6.1	0.00e+00	0	42	104	30232543232	60	58050
2026-01-03 09:22:20.25	342.66	-0.05	-50.9	-53.4	6.1	0.00e+00	0	42	104	30232543232	60	57072
2026-01-03 09:22:21.26	342.65	-0.11	-50.7	-53.2	6.1	0.00e+00	0	42	104	30232543232	60	55791
2026-01-03 09:22:22.27	342.64	-0.18	-50.9	-53.3	6.1	0.00e+00	0	42	104	30232543232	60	56615

#Closed at: 2026-01-03 09:22:22
#Recorded file [30232 MB]: D:/lorett/data/35029_260103_211113.dat