passes_logs/2026/01/03/R4.6S_Anadyr/R4.6S_Anadyr__20260103_005401_NOAA_21_JPSS-2_rec.log

#Pass ID: 20260103_005401_NOAA 21 (JPSS-2)
#Satellite: NOAA 21 (JPSS-2)
#Configuration: NOAA-21
#almurnet v.1.7.20251203
#Start time: 2026-01-03 00:54:03

#Version: 2.2.20231116
#Station: R4.6S_Anadyr
#Location: 177.4865 lon 64.73178 lat
#TLE: 1 54234U 22150A   26002.74826289  .00000196  00000+0  11365-3 0  9998
#TLE: 2 54234  98.7486 303.7970 0001197 349.3858  10.7292 14.19531423163070

#Time	Az	El	Level	Level2	SNR	BER	BlckErr	Temp	State	Recorded	gain1	gain2
2026-01-03 00:54:03.35	173.54	0.13	-50.2	-65.2	3.5	1.51e+00	0	36	0	0	60	65640
2026-01-03 00:54:04.36	173.56	0.19	-50.3	-63.2	3.5	1.52e+00	0	37	104	0	60	50869
2026-01-03 00:54:05.37	173.59	0.25	-50.2	-63.0	3.5	1.52e+00	0	37	104	0	60	49750
2026-01-03 00:54:06.38	173.61	0.31	-50.2	-63.0	3.5	1.52e+00	0	37	104	0	60	49827
2026-01-03 00:54:07.38	173.64	0.37	-50.1	-63.1	3.5	1.52e+00	0	37	104	0	60	49959
2026-01-03 00:54:08.40	173.66	0.44	-50.2	-63.1	3.5	1.52e+00	0	37	104	0	60	50065
2026-01-03 00:54:09.41	173.69	0.50	-50.2	-63.1	3.5	1.51e+00	0	37	104	0	60	50052
2026-01-03 00:54:10.42	173.71	0.56	-50.2	-63.0	3.5	1.52e+00	0	38	104	0	60	49800
2026-01-03 00:54:11.43	173.73	0.62	-50.2	-63.0	3.5	1.52e+00	0	38	104	0	60	49672
2026-01-03 00:54:12.44	173.76	0.68	-50.2	-63.0	3.5	1.52e+00	0	38	104	0	60	49672
2026-01-03 00:54:13.44	173.78	0.74	-50.1	-62.9	3.5	1.52e+00	0	38	104	0	60	49084
2026-01-03 00:54:14.46	173.81	0.80	-50.1	-62.9	3.5	1.51e+00	0	38	104	0	60	49012
2026-01-03 00:54:15.47	173.83	0.86	-50.0	-62.9	3.5	1.52e+00	0	38	104	0	60	48770
2026-01-03 00:54:16.48	173.86	0.92	-49.9	-62.7	3.5	1.52e+00	0	38	104	0	60	48024
2026-01-03 00:54:17.49	173.88	0.98	-49.7	-62.6	3.5	1.52e+00	0	38	104	0	60	47195
2026-01-03 00:54:18.50	173.91	1.05	-49.4	-62.3	3.5	1.52e+00	0	38	104	0	60	45542
2026-01-03 00:54:19.50	173.94	1.11	-48.8	-61.5	3.5	1.52e+00	0	38	104	0	60	41744
2026-01-03 00:54:20.51	173.96	1.17	-48.8	-61.5	3.5	1.52e+00	0	38	104	0	60	41592
2026-01-03 00:54:21.53	173.99	1.23	-48.7	-61.5	3.5	1.52e+00	0	38	104	0	60	41551
2026-01-03 00:54:22.54	174.01	1.29	-48.7	-61.5	3.5	1.52e+00	0	38	104	0	60	41657
2026-01-03 00:54:23.55	174.04	1.36	-48.7	-61.4	3.5	1.52e+00	0	38	104	0	60	41161
2026-01-03 00:54:24.56	174.06	1.42	-48.7	-61.3	3.5	1.52e+00	0	38	104	0	60	40791
2026-01-03 00:54:25.57	174.09	1.48	-48.7	-61.4	3.5	1.52e+00	0	38	104	0	60	41177
2026-01-03 00:54:26.58	174.12	1.54	-48.7	-61.4	3.5	1.52e+00	0	38	104	0	60	41247
2026-01-03 00:54:27.59	174.14	1.61	-48.7	-60.9	3.5	1.52e+00	0	38	104	0	60	38931
2026-01-03 00:54:28.60	174.17	1.67	-48.7	-61.2	3.5	1.52e+00	0	38	104	0	60	40150
2026-01-03 00:54:29.61	174.20	1.73	-48.7	-61.2	3.5	1.51e+00	0	38	104	0	60	40254
2026-01-03 00:54:30.62	174.22	1.80	-48.7	-61.0	3.5	1.51e+00	0	38	104	0	60	39382
2026-01-03 00:54:31.63	174.25	1.86	-48.7	-61.1	3.5	1.52e+00	0	38	104	0	60	39710
2026-01-03 00:54:32.64	174.27	1.92	-48.7	-61.1	3.5	1.52e+00	0	38	104	0	60	39993
2026-01-03 00:54:33.65	174.30	1.99	-48.7	-61.3	3.5	1.52e+00	0	38	104	0	60	40578
2026-01-03 00:54:34.66	174.33	2.05	-48.7	-61.3	3.5	1.52e+00	0	38	104	0	60	40691
2026-01-03 00:54:35.67	174.36	2.11	-48.7	-61.5	3.5	1.52e+00	0	38	104	0	60	41551
2026-01-03 00:54:36.68	174.38	2.18	-48.7	-61.5	3.5	1.52e+00	0	38	104	0	60	41870
2026-01-03 00:54:37.69	174.41	2.24	-48.7	-61.6	3.5	1.52e+00	0	38	104	0	60	42163
2026-01-03 00:54:38.69	174.44	2.31	-48.7	-61.6	3.5	1.52e+00	0	38	104	0	60	41998
2026-01-03 00:54:39.70	174.46	2.37	-48.7	-61.6	3.5	1.52e+00	0	38	104	0	60	42058
2026-01-03 00:54:40.71	174.49	2.44	-48.7	-61.6	3.5	1.52e+00	0	38	104	0	60	41982
2026-01-03 00:54:41.72	174.52	2.50	-48.7	-61.4	3.5	1.51e+00	0	38	104	0	60	41372
2026-01-03 00:54:42.73	174.55	2.57	-48.7	-61.2	3.5	1.51e+00	0	38	104	0	60	40520
2026-01-03 00:54:43.74	174.58	2.63	-48.7	-60.6	3.5	1.52e+00	0	38	104	0	60	37768
2026-01-03 00:54:44.75	174.60	2.70	-48.6	-60.3	3.5	1.51e+00	0	38	104	0	60	36182
2026-01-03 00:54:45.76	174.63	2.76	-48.6	-59.6	3.5	1.51e+00	0	38	104	0	60	33378
2026-01-03 00:54:46.77	174.66	2.83	-48.6	-59.9	3.5	1.51e+00	0	38	104	0	60	34757
2026-01-03 00:54:47.78	174.69	2.89	-48.7	-60.7	3.5	1.52e+00	0	38	104	0	60	37936
2026-01-03 00:54:48.79	174.72	2.96	-48.7	-61.2	3.5	1.52e+00	0	38	104	0	60	40304
2026-01-03 00:54:49.80	174.74	3.02	-48.7	-60.7	3.5	1.51e+00	0	38	104	0	60	38041
2026-01-03 00:54:50.81	174.77	3.09	-48.2	-57.1	4.7	1.49e+00	123	38	104	0	60	25028
2026-01-03 00:54:51.82	174.80	3.16	-47.8	-54.8	6.9	1.25e+00	0	38	104	0	60	19271
2026-01-03 00:54:52.83	174.83	3.22	-46.0	-49.5	11.1	1.65e-03	122	38	0	0	60	10474
2026-01-03 00:54:53.84	174.86	3.29	-45.2	-48.0	13.0	1.80e-04	121	38	0	3145728	60	8860
2026-01-03 00:54:54.85	174.89	3.36	-43.0	-44.9	16.3	0.00e+00	122	38	0	6291456	60	6162
2026-01-03 00:54:55.86	174.92	3.42	-42.8	-44.7	15.9	0.00e+00	120	38	0	9437184	58	6737
2026-01-03 00:54:56.86	174.95	3.49	-40.6	-42.0	18.6	0.00e+00	123	38	0	13631488	54	6264
2026-01-03 00:54:57.87	174.98	3.56	-40.6	-41.9	18.8	0.00e+00	120	38	0	16777216	54	6201
2026-01-03 00:54:58.88	175.01	3.62	-40.0	-41.4	19.3	0.00e+00	123	38	0	19922944	54	5794
2026-01-03 00:54:59.89	175.04	3.69	-39.6	-40.9	19.7	0.00e+00	122	38	0	22020096	52	6135
2026-01-03 00:55:00.90	175.07	3.76	-39.9	-41.2	19.4	0.00e+00	123	38	0	25165824	52	6406
2026-01-03 00:55:01.91	175.10	3.83	-40.9	-42.4	18.1	0.00e+00	123	38	0	28311552	52	7324
2026-01-03 00:55:02.92	175.13	3.89	-45.9	-49.2	12.1	2.20e-06	120	38	0	32505856	60	10077
2026-01-03 00:55:03.93	175.16	3.96	-48.0	-55.1	5.3	5.34e-05	123	38	0	35651584	60	20080
2026-01-03 00:55:04.94	175.19	4.03	-47.8	-54.9	5.2	1.26e-01	120	38	104	35651584	60	19486
2026-01-03 00:55:05.95	175.22	4.10	-45.8	-49.1	11.2	0.00e+00	122	38	0	37748736	60	10016
2026-01-03 00:55:06.96	175.25	4.17	-42.5	-44.2	16.7	0.00e+00	123	38	0	40894464	58	6376
2026-01-03 00:55:07.97	175.28	4.24	-42.2	-43.9	17.1	0.00e+00	123	38	0	44040192	58	6145
2026-01-03 00:55:08.98	175.31	4.31	-41.5	-43.0	18.1	0.00e+00	123	38	0	47185920	56	6237
2026-01-03 00:55:09.99	175.34	4.38	-41.3	-42.8	18.2	0.00e+00	122	38	0	50331648	56	6100
2026-01-03 00:55:11.00	175.37	4.44	-40.6	-42.0	18.6	0.00e+00	120	38	0	53477376	54	6253
2026-01-03 00:55:12.02	175.40	4.51	-40.6	-41.9	18.9	0.00e+00	123	38	0	56623104	54	6189
2026-01-03 00:55:13.03	175.43	4.58	-40.8	-42.2	18.7	0.00e+00	123	38	0	59768832	54	6396
2026-01-03 00:55:14.03	175.46	4.65	-40.4	-41.7	19.1	0.00e+00	122	38	0	62914560	54	6051
2026-01-03 00:55:15.04	175.50	4.72	-40.7	-42.1	18.9	0.00e+00	123	38	0	66060288	54	6281
2026-01-03 00:55:16.05	175.53	4.79	-40.9	-42.3	18.7	0.00e+00	123	38	0	69206016	54	6455
2026-01-03 00:55:17.07	175.56	4.87	-40.6	-41.9	18.9	0.00e+00	122	38	0	72351744	54	6166
2026-01-03 00:55:18.08	175.59	4.94	-40.5	-41.8	18.9	0.00e+00	123	38	0	75497472	54	6122
2026-01-03 00:55:19.09	175.62	5.01	-41.1	-42.5	18.8	0.00e+00	122	38	0	78643200	54	6611
2026-01-03 00:55:20.10	175.66	5.08	-40.5	-41.9	18.9	0.00e+00	123	38	0	81788928	54	6144
2026-01-03 00:55:21.11	175.69	5.15	-41.3	-42.7	18.6	0.00e+00	123	38	0	84934656	54	6756
2026-01-03 00:55:22.12	175.72	5.22	-40.7	-42.1	19.1	0.00e+00	121	38	0	89128960	54	6289
2026-01-03 00:55:23.13	175.75	5.29	-40.7	-42.0	19.0	0.00e+00	123	39	0	92274688	54	6255
2026-01-03 00:55:24.14	175.79	5.36	-39.6	-40.8	20.1	0.00e+00	123	38	0	95420416	52	6105
2026-01-03 00:55:25.15	175.82	5.44	-39.6	-40.8	20.0	0.00e+00	123	38	0	97517568	52	6110
2026-01-03 00:55:26.16	175.85	5.51	-39.3	-40.5	20.5	0.00e+00	123	38	0	100663296	52	5859
2026-01-03 00:55:27.17	175.89	5.58	-39.0	-40.1	20.7	0.00e+00	123	38	0	104857600	52	5655
2026-01-03 00:55:28.18	175.92	5.65	-39.4	-40.6	20.3	0.00e+00	122	38	0	108003328	52	5988
2026-01-03 00:55:29.19	175.95	5.72	-39.1	-40.3	20.5	0.00e+00	123	38	0	111149056	52	5753
2026-01-03 00:55:30.20	175.99	5.80	-39.1	-40.3	20.5	0.00e+00	122	38	0	114294784	52	5733
2026-01-03 00:55:31.21	176.02	5.87	-39.2	-40.3	20.7	0.00e+00	122	39	0	117440512	52	5777
2026-01-03 00:55:32.22	176.06	5.94	-39.3	-40.4	20.4	0.00e+00	122	38	0	120586240	52	5854
2026-01-03 00:55:33.23	176.09	6.02	-39.3	-40.5	20.4	0.00e+00	122	38	0	123731968	52	5890
2026-01-03 00:55:34.24	176.12	6.09	-38.8	-39.9	20.9	0.00e+00	123	38	0	126877696	50	6193
2026-01-03 00:55:35.25	176.16	6.16	-38.9	-40.1	20.7	0.00e+00	122	39	0	130023424	50	6278
2026-01-03 00:55:36.26	176.19	6.24	-39.1	-40.3	20.8	0.00e+00	120	39	0	133169152	50	6442
2026-01-03 00:55:37.27	176.23	6.31	-38.9	-40.0	20.9	0.00e+00	122	38	0	136314880	50	6229
2026-01-03 00:55:38.28	176.26	6.39	-38.9	-40.1	20.9	0.00e+00	122	38	0	139460608	50	6288
2026-01-03 00:55:39.29	176.30	6.46	-38.7	-39.9	21.0	0.00e+00	123	39	0	142606336	50	6146
2026-01-03 00:55:40.30	176.33	6.54	-38.7	-39.8	21.0	0.00e+00	122	38	0	145752064	50	6128
2026-01-03 00:55:41.31	176.37	6.61	-38.6	-39.8	21.1	0.00e+00	120	39	0	148897792	50	6065
2026-01-03 00:55:42.32	176.41	6.69	-38.8	-39.9	21.0	0.00e+00	123	39	0	152043520	50	6193
2026-01-03 00:55:43.34	176.44	6.76	-38.9	-40.0	21.0	0.00e+00	123	38	0	155189248	50	6277
2026-01-03 00:55:44.35	176.48	6.84	-38.7	-39.8	21.1	0.00e+00	122	38	0	158334976	50	6108
2026-01-03 00:55:45.36	176.51	6.92	-38.5	-39.6	21.1	0.00e+00	123	38	0	161480704	50	5968
2026-01-03 00:55:46.37	176.55	6.99	-38.5	-39.6	21.2	0.00e+00	121	38	0	164626432	50	5986
2026-01-03 00:55:47.38	176.59	7.07	-38.5	-39.6	21.3	0.00e+00	122	38	0	167772160	50	5931
2026-01-03 00:55:48.39	176.62	7.14	-38.4	-39.5	21.4	0.00e+00	120	38	0	170917888	50	5883
2026-01-03 00:55:49.40	176.66	7.22	-38.6	-39.6	21.3	0.00e+00	120	39	0	174063616	50	5982
2026-01-03 00:55:50.41	176.70	7.30	-38.6	-39.7	21.3	0.00e+00	123	38	0	177209344	50	6017
2026-01-03 00:55:51.42	176.73	7.38	-38.4	-39.5	21.3	0.00e+00	121	39	0	180355072	50	5908
2026-01-03 00:55:52.43	176.77	7.45	-38.3	-39.3	21.6	0.00e+00	123	39	0	183500800	50	5772
2026-01-03 00:55:53.44	176.81	7.53	-38.3	-39.3	21.5	0.00e+00	123	39	0	186646528	50	5768
2026-01-03 00:55:54.45	176.85	7.61	-38.3	-39.3	21.5	0.00e+00	123	39	0	189792256	50	5786
2026-01-03 00:55:55.46	176.89	7.69	-38.1	-39.2	21.7	0.00e+00	122	38	0	192937984	50	5670
2026-01-03 00:55:56.47	176.92	7.77	-38.2	-39.3	21.6	0.00e+00	122	39	0	196083712	50	5746
2026-01-03 00:55:57.48	176.96	7.84	-38.3	-39.3	21.6	0.00e+00	120	38	0	199229440	50	5768
2026-01-03 00:55:58.49	177.00	7.92	-38.0	-39.1	21.8	0.00e+00	122	39	0	202375168	50	5623
2026-01-03 00:55:59.51	177.04	8.00	-38.2	-39.3	21.7	0.00e+00	121	38	0	205520896	50	5732
2026-01-03 00:56:00.52	177.08	8.08	-38.3	-39.3	21.8	0.00e+00	122	39	0	208666624	50	5775
2026-01-03 00:56:01.53	177.12	8.16	-38.3	-39.4	21.7	0.00e+00	123	39	0	211812352	50	5795
2026-01-03 00:56:02.54	177.16	8.24	-38.0	-39.0	21.9	0.00e+00	120	39	0	214958080	50	5574
2026-01-03 00:56:03.55	177.20	8.32	-37.9	-39.0	21.9	0.00e+00	122	39	0	218103808	50	5532
2026-01-03 00:56:04.56	177.24	8.40	-37.9	-38.9	22.1	0.00e+00	123	39	0	221249536	50	5522
2026-01-03 00:56:05.56	177.28	8.48	-37.8	-38.9	22.1	0.00e+00	122	39	0	224395264	50	5482
2026-01-03 00:56:06.57	177.32	8.56	-37.9	-39.0	22.1	0.00e+00	123	39	0	227540992	50	5536
2026-01-03 00:56:07.58	177.36	8.64	-37.8	-38.9	22.1	0.00e+00	125	39	0	230686720	50	5469
2026-01-03 00:56:08.59	177.40	8.73	-38.0	-39.1	22.0	0.00e+00	123	39	0	233832448	50	5611
2026-01-03 00:56:09.60	177.44	8.81	-37.7	-38.8	22.1	0.00e+00	122	39	0	236978176	48	6080
2026-01-03 00:56:10.62	177.48	8.89	-37.8	-38.9	22.1	0.00e+00	123	39	0	240123904	48	6140
2026-01-03 00:56:11.62	177.52	8.97	-37.8	-38.8	22.2	0.00e+00	122	39	0	243269632	48	6081
2026-01-03 00:56:12.64	177.56	9.05	-37.7	-38.7	22.3	0.00e+00	122	39	0	246415360	48	6053
2026-01-03 00:56:13.65	177.60	9.14	-37.6	-38.6	22.3	0.00e+00	122	39	0	249561088	48	5948
2026-01-03 00:56:14.66	177.64	9.22	-37.7	-38.7	22.4	0.00e+00	123	39	0	252706816	48	6004
2026-01-03 00:56:15.67	177.69	9.30	-37.6	-38.6	22.4	0.00e+00	123	39	0	255852544	48	5959
2026-01-03 00:56:16.68	177.73	9.39	-37.7	-38.7	22.3	0.00e+00	122	39	0	258998272	48	6056
2026-01-03 00:56:17.69	177.77	9.47	-37.5	-38.5	22.5	0.00e+00	123	39	0	262144000	48	5891
2026-01-03 00:56:18.70	177.81	9.55	-37.5	-38.5	22.4	0.00e+00	123	39	0	265289728	48	5918
2026-01-03 00:56:19.71	177.86	9.64	-37.5	-38.5	22.5	0.00e+00	122	39	0	268435456	48	5923
2026-01-03 00:56:20.72	177.90	9.72	-37.5	-38.5	22.5	0.00e+00	120	39	0	271581184	48	5919
2026-01-03 00:56:21.73	177.94	9.81	-37.5	-38.5	22.5	0.00e+00	122	39	0	274726912	48	5910
2026-01-03 00:56:22.74	177.99	9.89	-37.5	-38.5	22.6	0.00e+00	120	39	0	277872640	48	5891
2026-01-03 00:56:23.75	178.03	9.98	-37.5	-38.5	22.6	0.00e+00	122	39	0	281018368	48	5901
2026-01-03 00:56:24.76	178.07	10.06	-37.4	-38.4	22.6	0.00e+00	121	39	0	284164096	48	5812
2026-01-03 00:56:25.77	178.12	10.15	-37.6	-38.5	22.5	0.00e+00	123	39	0	287309824	48	5926
2026-01-03 00:56:26.78	178.16	10.24	-37.6	-38.6	22.6	0.00e+00	123	39	0	290455552	48	5927
2026-01-03 00:56:27.79	178.21	10.32	-37.6	-38.6	22.6	0.00e+00	123	39	0	293601280	48	5931
2026-01-03 00:56:28.81	178.25	10.41	-37.3	-38.3	22.7	0.00e+00	120	39	0	296747008	48	5745
2026-01-03 00:56:29.82	178.30	10.50	-37.4	-38.4	22.6	0.00e+00	122	39	0	299892736	48	5839
2026-01-03 00:56:30.83	178.34	10.58	-37.1	-38.1	22.9	0.00e+00	120	39	0	303038464	48	5627
2026-01-03 00:56:31.84	178.39	10.67	-37.2	-38.2	22.7	0.00e+00	123	39	0	306184192	48	5688
2026-01-03 00:56:32.85	178.44	10.76	-37.2	-38.2	22.8	0.00e+00	123	39	0	309329920	48	5660
2026-01-03 00:56:33.86	178.48	10.85	-37.1	-38.1	22.9	0.00e+00	123	39	0	312475648	48	5625
2026-01-03 00:56:34.87	178.53	10.94	-37.1	-38.1	22.9	0.00e+00	121	39	0	315621376	48	5606
2026-01-03 00:56:35.88	178.58	11.03	-37.1	-38.1	23.0	0.00e+00	122	39	0	318767104	48	5603
2026-01-03 00:56:36.89	178.62	11.11	-37.1	-38.1	23.0	0.00e+00	123	39	0	321912832	48	5605
2026-01-03 00:56:37.90	178.67	11.20	-37.1	-38.1	22.9	0.00e+00	122	39	0	325058560	48	5616
2026-01-03 00:56:38.91	178.72	11.29	-37.1	-38.0	23.0	0.00e+00	120	39	0	328204288	48	5593
2026-01-03 00:56:39.92	178.77	11.38	-37.0	-38.0	23.0	0.00e+00	122	39	0	331350016	48	5540
2026-01-03 00:56:40.93	178.81	11.47	-36.9	-37.8	23.2	0.00e+00	121	39	0	334495744	48	5458
2026-01-03 00:56:41.94	178.86	11.57	-36.9	-37.9	23.0	0.00e+00	122	39	0	337641472	48	5498
2026-01-03 00:56:42.95	178.91	11.66	-36.8	-37.8	23.2	0.00e+00	123	39	0	340787200	48	5423
2026-01-03 00:56:43.96	178.96	11.75	-36.9	-37.9	23.1	0.00e+00	123	39	0	343932928	48	5479
2026-01-03 00:56:44.97	179.01	11.84	-36.8	-37.7	23.2	0.00e+00	120	39	0	347078656	48	5384
2026-01-03 00:56:45.98	179.06	11.93	-36.9	-37.8	23.2	0.00e+00	122	39	0	350224384	46	6101
2026-01-03 00:56:46.99	179.11	12.02	-36.9	-37.8	23.2	0.00e+00	123	39	0	353370112	46	6133
2026-01-03 00:56:48.00	179.16	12.12	-36.8	-37.8	23.2	0.00e+00	122	39	0	356515840	46	6075
2026-01-03 00:56:49.01	179.21	12.21	-36.9	-37.9	23.2	0.00e+00	120	39	0	360710144	46	6136
2026-01-03 00:56:50.02	179.26	12.30	-36.8	-37.8	23.2	0.00e+00	123	39	0	363855872	46	6096
2026-01-03 00:56:51.04	179.31	12.40	-36.8	-37.8	23.2	0.00e+00	123	39	0	365953024	46	6073
2026-01-03 00:56:52.04	179.36	12.49	-36.7	-37.6	23.4	0.00e+00	120	39	0	369098752	46	5963
2026-01-03 00:56:53.05	179.41	12.59	-36.6	-37.6	23.4	0.00e+00	122	39	0	372244480	46	5957
2026-01-03 00:56:54.07	179.47	12.68	-36.6	-37.5	23.4	0.00e+00	121	39	0	376438784	46	5926
2026-01-03 00:56:55.08	179.52	12.78	-36.5	-37.5	23.5	0.00e+00	123	39	0	379584512	46	5881
2026-01-03 00:56:56.09	179.57	12.87	-36.7	-37.6	23.4	0.00e+00	120	39	0	382730240	46	5965
2026-01-03 00:56:57.10	179.62	12.97	-36.7	-37.6	23.4	0.00e+00	122	39	0	385875968	46	5986
2026-01-03 00:56:58.11	179.68	13.06	-36.6	-37.5	23.5	0.00e+00	122	39	0	389021696	46	5892
2026-01-03 00:56:59.12	179.73	13.16	-36.7	-37.7	23.4	0.00e+00	122	39	0	392167424	46	5996
2026-01-03 00:57:00.13	179.78	13.26	-36.5	-37.4	23.5	0.00e+00	120	39	0	395313152	46	5830
2026-01-03 00:57:01.14	179.84	13.35	-36.7	-37.6	23.4	0.00e+00	122	39	0	398458880	46	5970
2026-01-03 00:57:02.15	179.89	13.45	-36.4	-37.4	23.5	0.00e+00	123	39	0	401604608	46	5806
2026-01-03 00:57:03.16	179.95	13.55	-36.6	-37.5	23.4	0.00e+00	123	39	0	404750336	46	5917
2026-01-03 00:57:04.17	180.00	13.65	-36.4	-37.3	23.6	0.00e+00	122	39	0	407896064	46	5771
2026-01-03 00:57:05.19	180.06	13.75	-36.4	-37.3	23.6	0.00e+00	122	39	0	411041792	46	5789
2026-01-03 00:57:06.20	180.11	13.85	-36.4	-37.3	23.7	0.00e+00	120	39	0	414187520	46	5748
2026-01-03 00:57:07.21	180.17	13.95	-36.4	-37.4	23.5	0.00e+00	123	39	0	417333248	46	5802
2026-01-03 00:57:08.22	180.23	14.05	-36.3	-37.3	23.6	0.00e+00	120	39	0	420478976	46	5734
2026-01-03 00:57:09.23	180.28	14.15	-36.3	-37.2	23.7	0.00e+00	122	39	0	423624704	46	5720
2026-01-03 00:57:10.24	180.34	14.25	-36.2	-37.1	23.8	0.00e+00	120	39	0	426770432	46	5641
2026-01-03 00:57:11.25	180.40	14.35	-36.2	-37.1	23.8	0.00e+00	122	39	0	429916160	46	5643
2026-01-03 00:57:12.26	180.46	14.45	-36.2	-37.2	23.8	0.00e+00	122	39	0	433061888	46	5666
2026-01-03 00:57:13.27	180.52	14.55	-36.2	-37.1	23.8	0.00e+00	122	39	0	436207616	46	5628
2026-01-03 00:57:14.28	180.57	14.65	-36.4	-37.3	23.7	0.00e+00	122	39	0	439353344	46	5747
2026-01-03 00:57:15.29	180.63	14.76	-36.2	-37.2	23.7	0.00e+00	123	39	0	442499072	46	5665
2026-01-03 00:57:16.30	180.69	14.86	-36.1	-37.0	23.8	0.00e+00	120	39	0	445644800	46	5590
2026-01-03 00:57:17.31	180.75	14.96	-36.2	-37.2	23.8	0.00e+00	122	39	0	448790528	46	5667
2026-01-03 00:57:18.32	180.81	15.07	-36.2	-37.1	23.8	0.00e+00	123	39	0	451936256	46	5646
2026-01-03 00:57:19.33	180.87	15.17	-36.3	-37.2	23.7	0.00e+00	123	39	0	455081984	46	5701
2026-01-03 00:57:20.34	180.94	15.28	-36.1	-37.0	23.9	0.00e+00	122	39	0	458227712	46	5560
2026-01-03 00:57:21.35	181.00	15.38	-36.1	-37.0	23.9	0.00e+00	122	39	0	461373440	46	5568
2026-01-03 00:57:22.36	181.06	15.49	-36.2	-37.1	23.8	0.00e+00	122	39	0	464519168	46	5624
2026-01-03 00:57:23.37	181.12	15.59	-36.3	-37.2	23.8	0.00e+00	123	39	0	467664896	46	5713
2026-01-03 00:57:24.38	181.18	15.70	-36.2	-37.1	23.8	0.00e+00	123	39	0	470810624	46	5651
2026-01-03 00:57:25.39	181.25	15.81	-36.3	-37.2	23.8	0.00e+00	123	39	0	473956352	46	5690
2026-01-03 00:57:26.40	181.31	15.92	-36.3	-37.3	23.7	0.00e+00	123	39	0	477102080	46	5740
2026-01-03 00:57:27.41	181.38	16.02	-36.3	-37.2	23.8	0.00e+00	123	39	0	480247808	46	5690
2026-01-03 00:57:28.42	181.44	16.13	-36.2	-37.1	23.8	0.00e+00	122	39	0	483393536	46	5659
2026-01-03 00:57:29.43	181.50	16.24	-36.1	-37.0	23.9	0.00e+00	122	39	0	486539264	46	5582
2026-01-03 00:57:30.45	181.57	16.35	-36.2	-37.2	23.8	0.00e+00	123	39	0	489684992	46	5674
2026-01-03 00:57:31.46	181.64	16.46	-36.1	-37.1	23.9	0.00e+00	123	39	0	492830720	46	5601
2026-01-03 00:57:32.47	181.70	16.57	-36.3	-37.3	23.8	0.00e+00	123	39	0	495976448	46	5726
2026-01-03 00:57:33.48	181.77	16.68	-36.3	-37.2	23.8	0.00e+00	122	39	0	499122176	46	5669
2026-01-03 00:57:34.49	181.84	16.79	-36.1	-37.0	23.9	0.00e+00	122	39	0	502267904	46	5579
2026-01-03 00:57:35.50	181.90	16.90	-36.1	-37.1	23.9	0.00e+00	123	39	0	505413632	46	5598
2026-01-03 00:57:36.51	181.97	17.02	-36.0	-36.9	24.0	0.00e+00	122	39	0	508559360	46	5506
2026-01-03 00:57:37.52	182.04	17.13	-36.1	-37.0	24.0	0.00e+00	122	39	0	511705088	46	5563
2026-01-03 00:57:38.53	182.11	17.24	-36.0	-36.9	24.1	0.00e+00	123	39	0	514850816	46	5514
2026-01-03 00:57:39.54	182.18	17.35	-36.0	-36.9	24.0	0.00e+00	123	39	0	517996544	46	5519
2026-01-03 00:57:40.55	182.25	17.47	-36.0	-36.9	24.0	0.00e+00	123	39	0	521142272	46	5525
2026-01-03 00:57:41.56	182.32	17.58	-36.1	-37.0	24.0	0.00e+00	122	39	0	524288000	46	5569
2026-01-03 00:57:42.57	182.39	17.70	-36.0	-37.0	23.9	0.00e+00	123	39	0	527433728	46	5536
2026-01-03 00:57:43.58	182.46	17.81	-36.2	-37.2	23.8	0.00e+00	123	39	0	530579456	46	5666
2026-01-03 00:57:44.59	182.54	17.93	-36.1	-37.1	23.9	0.00e+00	123	39	0	533725184	46	5599
2026-01-03 00:57:45.60	182.61	18.05	-36.2	-37.2	23.9	0.00e+00	122	39	0	536870912	46	5660
2026-01-03 00:57:46.61	182.68	18.16	-36.2	-37.1	23.8	0.00e+00	122	39	0	540016640	46	5659
2026-01-03 00:57:47.63	182.76	18.28	-36.2	-37.1	23.8	0.00e+00	122	39	0	543162368	46	5606
2026-01-03 00:57:48.64	182.83	18.40	-36.3	-37.2	23.8	0.00e+00	123	39	0	546308096	46	5707
2026-01-03 00:57:49.65	182.91	18.52	-36.3	-37.2	23.8	0.00e+00	123	39	0	549453824	46	5719
2026-01-03 00:57:50.66	182.98	18.64	-36.3	-37.2	23.8	0.00e+00	123	39	0	552599552	46	5688
2026-01-03 00:57:51.67	183.06	18.76	-36.4	-37.3	23.7	0.00e+00	123	39	0	555745280	46	5777
2026-01-03 00:57:52.68	183.13	18.88	-36.4	-37.4	23.7	0.00e+00	120	39	0	558891008	46	5803
2026-01-03 00:57:53.69	183.21	19.00	-36.4	-37.3	23.7	0.00e+00	123	39	0	562036736	46	5777
2026-01-03 00:57:54.70	183.29	19.12	-36.5	-37.4	23.7	0.00e+00	121	39	0	565182464	46	5843
2026-01-03 00:57:55.71	183.37	19.24	-36.4	-37.3	23.7	0.00e+00	122	39	0	568328192	46	5755
2026-01-03 00:57:56.72	183.44	19.36	-36.3	-37.2	23.8	0.00e+00	120	39	0	571473920	46	5700
2026-01-03 00:57:57.73	183.52	19.48	-36.3	-37.2	23.8	0.00e+00	122	39	0	574619648	46	5686
2026-01-03 00:57:58.74	183.60	19.61	-36.3	-37.2	23.8	0.00e+00	120	39	0	577765376	46	5692
2026-01-03 00:57:59.75	183.69	19.73	-36.2	-37.1	23.8	0.00e+00	122	39	0	580911104	46	5651
2026-01-03 00:58:00.76	183.77	19.86	-36.3	-37.2	23.8	0.00e+00	122	39	0	584056832	46	5677
2026-01-03 00:58:01.77	183.85	19.98	-36.4	-37.3	23.8	0.00e+00	123	39	0	587202560	46	5766
2026-01-03 00:58:02.78	183.93	20.11	-36.2	-37.1	24.0	0.00e+00	123	39	0	590348288	46	5620
2026-01-03 00:58:03.79	184.01	20.23	-36.1	-37.0	23.9	0.00e+00	123	39	0	593494016	46	5555
2026-01-03 00:58:04.80	184.10	20.36	-36.2	-37.1	23.9	0.00e+00	121	39	0	596639744	46	5619
2026-01-03 00:58:05.81	184.18	20.49	-36.1	-37.0	24.0	0.00e+00	122	39	0	599785472	46	5547
2026-01-03 00:58:06.82	184.27	20.62	-36.1	-37.0	24.0	0.00e+00	123	39	0	602931200	46	5585
2026-01-03 00:58:07.83	184.35	20.74	-35.9	-36.9	24.0	0.00e+00	120	39	0	606076928	46	5480
2026-01-03 00:58:08.84	184.44	20.87	-35.9	-36.8	24.1	0.00e+00	122	39	0	609222656	46	5446
2026-01-03 00:58:09.85	184.53	21.00	-36.0	-36.9	24.0	0.00e+00	123	39	0	612368384	46	5488
2026-01-03 00:58:10.86	184.62	21.13	-35.7	-36.6	24.2	0.00e+00	120	39	0	615514112	44	5969
2026-01-03 00:58:11.87	184.70	21.26	-35.6	-36.5	24.1	0.00e+00	122	39	0	618659840	44	5900
2026-01-03 00:58:12.88	184.79	21.40	-35.6	-36.5	24.2	0.00e+00	123	39	0	621805568	44	5909
2026-01-03 00:58:13.89	184.88	21.53	-35.6	-36.5	24.3	0.00e+00	123	39	0	624951296	44	5864
2026-01-03 00:58:14.90	184.97	21.66	-35.2	-36.1	24.4	0.00e+00	123	39	0	628097024	44	5658
2026-01-03 00:58:15.91	185.07	21.80	-35.2	-36.1	24.5	0.00e+00	122	39	0	631242752	44	5637
2026-01-03 00:58:16.92	185.16	21.93	-35.2	-36.1	24.5	0.00e+00	120	39	0	635437056	44	5653
2026-01-03 00:58:17.93	185.25	22.06	-35.3	-36.2	24.4	0.00e+00	123	39	0	637534208	44	5668
2026-01-03 00:58:18.94	185.35	22.20	-34.9	-35.8	24.8	0.00e+00	120	39	0	640679936	44	5417
2026-01-03 00:58:19.95	185.44	22.34	-34.9	-35.8	24.7	0.00e+00	123	39	0	643825664	44	5445
2026-01-03 00:58:20.96	185.54	22.47	-34.9	-35.8	24.8	0.00e+00	123	39	0	648019968	44	5428
2026-01-03 00:58:21.97	185.63	22.61	-34.9	-35.7	24.9	0.00e+00	122	39	0	651165696	44	5399
2026-01-03 00:58:22.98	185.73	22.75	-35.0	-35.8	24.8	0.00e+00	120	39	0	654311424	44	5453
2026-01-03 00:58:23.99	185.83	22.89	-34.9	-35.8	24.9	0.00e+00	123	39	0	657457152	44	5435
2026-01-03 00:58:25.00	185.93	23.03	-34.8	-35.7	25.0	0.00e+00	123	39	0	659554304	42	5997
2026-01-03 00:58:26.02	186.03	23.17	-34.9	-35.8	24.9	0.00e+00	122	39	0	663748608	42	6073
2026-01-03 00:58:27.02	186.13	23.31	-34.9	-35.8	24.9	0.00e+00	120	39	0	666894336	42	6084
2026-01-03 00:58:28.04	186.23	23.45	-34.8	-35.7	24.9	0.00e+00	123	39	0	670040064	42	6035
2026-01-03 00:58:29.04	186.33	23.59	-34.8	-35.7	24.9	0.00e+00	122	39	0	673185792	42	6031
2026-01-03 00:58:30.05	186.43	23.73	-35.0	-35.9	24.8	0.00e+00	122	39	0	676331520	42	6147
2026-01-03 00:58:31.07	186.54	23.88	-34.8	-35.7	25.0	0.00e+00	120	39	0	679477248	42	6026
2026-01-03 00:58:32.07	186.64	24.02	-34.9	-35.8	24.9	0.00e+00	122	39	0	682622976	42	6070
2026-01-03 00:58:33.08	186.75	24.17	-34.7	-35.6	25.0	0.00e+00	123	39	0	685768704	42	5968
2026-01-03 00:58:34.10	186.86	24.31	-34.9	-35.8	24.9	0.00e+00	123	39	0	688914432	42	6106
2026-01-03 00:58:35.11	186.96	24.46	-34.9	-35.8	24.9	0.00e+00	123	39	0	692060160	42	6073
2026-01-03 00:58:36.12	187.07	24.61	-34.9	-35.8	24.9	0.00e+00	123	39	0	695205888	42	6098
2026-01-03 00:58:37.13	187.18	24.75	-35.1	-36.0	24.7	0.00e+00	123	39	0	698351616	42	6217
2026-01-03 00:58:38.14	187.29	24.90	-34.9	-35.8	24.9	0.00e+00	123	39	0	701497344	42	6081
2026-01-03 00:58:39.15	187.41	25.05	-35.0	-35.8	24.8	0.00e+00	120	39	0	704643072	42	6133
2026-01-03 00:58:40.16	187.52	25.20	-35.1	-36.0	24.8	0.00e+00	122	39	0	707788800	42	6213
2026-01-03 00:58:41.17	187.63	25.35	-35.2	-36.1	24.7	0.00e+00	123	39	0	710934528	42	6328
2026-01-03 00:58:42.18	187.75	25.50	-35.3	-36.2	24.6	0.00e+00	122	39	0	714080256	42	6408
2026-01-03 00:58:43.19	187.86	25.66	-35.3	-36.2	24.6	0.00e+00	123	39	0	717225984	42	6394
2026-01-03 00:58:44.20	187.98	25.81	-35.6	-36.5	24.4	0.00e+00	122	39	0	720371712	42	6587
2026-01-03 00:58:45.21	188.10	25.96	-35.5	-36.3	24.5	0.00e+00	120	39	0	723517440	42	6496
2026-01-03 00:58:46.22	188.22	26.12	-35.5	-36.4	24.4	0.00e+00	123	39	0	726663168	42	6549
2026-01-03 00:58:47.23	188.34	26.27	-35.5	-36.4	24.5	0.00e+00	123	39	0	729808896	42	6542
2026-01-03 00:58:48.24	188.46	26.43	-35.6	-36.5	24.3	0.00e+00	123	39	0	732954624	42	6592
2026-01-03 00:58:49.25	188.58	26.59	-35.6	-36.5	24.3	0.00e+00	121	39	0	736100352	42	6647
2026-01-03 00:58:50.26	188.71	26.74	-35.7	-36.6	24.2	0.00e+00	123	39	0	739246080	44	5982
2026-01-03 00:58:51.27	188.83	26.90	-35.6	-36.5	24.3	0.00e+00	120	39	0	742391808	44	5918
2026-01-03 00:58:52.28	188.96	27.06	-35.8	-36.7	24.2	0.00e+00	123	39	0	745537536	44	6064
2026-01-03 00:58:53.29	189.09	27.22	-36.0	-36.9	24.2	0.00e+00	122	39	0	748683264	44	6146
2026-01-03 00:58:54.30	189.21	27.38	-35.9	-36.8	24.2	0.00e+00	122	39	0	751828992	44	6096
2026-01-03 00:58:55.32	189.35	27.54	-36.1	-37.0	24.0	0.00e+00	123	39	0	754974720	44	6221
2026-01-03 00:58:56.33	189.48	27.71	-36.2	-37.1	23.9	0.00e+00	123	39	0	758120448	44	6312
2026-01-03 00:58:57.34	189.61	27.87	-36.3	-37.3	23.8	0.00e+00	120	39	0	761266176	44	6437
2026-01-03 00:58:58.35	189.74	28.03	-36.4	-37.3	23.7	0.00e+00	122	39	0	764411904	44	6497
2026-01-03 00:58:59.36	189.88	28.20	-36.5	-37.4	23.6	0.00e+00	122	39	0	767557632	44	6547
2026-01-03 00:59:00.37	190.02	28.36	-36.5	-37.4	23.5	0.00e+00	123	39	0	770703360	44	6565
2026-01-03 00:59:01.38	190.15	28.53	-36.5	-37.4	23.4	0.00e+00	123	39	0	773849088	44	6547
2026-01-03 00:59:02.39	190.29	28.70	-36.6	-37.5	23.2	0.00e+00	123	39	0	776994816	44	6641
2026-01-03 00:59:03.40	190.43	28.87	-36.6	-37.5	23.2	0.00e+00	122	39	0	780140544	44	6623
2026-01-03 00:59:04.41	190.58	29.04	-36.4	-37.3	23.4	0.00e+00	122	39	0	783286272	44	6478
2026-01-03 00:59:05.42	190.72	29.20	-36.4	-37.3	23.5	0.00e+00	123	39	0	786432000	44	6467
2026-01-03 00:59:06.43	190.87	29.38	-36.4	-37.4	23.5	0.00e+00	123	39	0	789577728	44	6526
2026-01-03 00:59:07.44	191.01	29.55	-36.4	-37.3	23.5	0.00e+00	123	39	0	792723456	44	6452
2026-01-03 00:59:08.45	191.16	29.72	-36.4	-37.3	23.5	0.00e+00	122	39	0	795869184	44	6465
2026-01-03 00:59:09.46	191.31	29.89	-36.3	-37.2	23.6	0.00e+00	123	39	0	799014912	44	6422
2026-01-03 00:59:10.47	191.46	30.07	-36.3	-37.3	23.6	0.00e+00	122	39	0	802160640	44	6426
2026-01-03 00:59:11.48	191.61	30.24	-36.2	-37.2	23.7	0.00e+00	122	39	0	805306368	44	6352
2026-01-03 00:59:12.49	191.77	30.42	-36.2	-37.2	23.7	0.00e+00	120	39	0	808452096	44	6376
2026-01-03 00:59:13.50	191.92	30.59	-36.1	-37.1	23.8	0.00e+00	123	39	0	811597824	44	6285
2026-01-03 00:59:14.51	192.08	30.77	-36.1	-37.1	23.8	0.00e+00	120	39	0	814743552	44	6282
2026-01-03 00:59:15.52	192.24	30.95	-35.9	-36.9	23.9	0.00e+00	123	39	0	817889280	44	6142
2026-01-03 00:59:16.53	192.40	31.13	-35.7	-36.6	24.1	0.00e+00	122	39	0	821035008	44	5953
2026-01-03 00:59:17.54	192.57	31.31	-35.9	-36.8	24.2	0.00e+00	120	39	0	824180736	44	6075
2026-01-03 00:59:18.55	192.73	31.49	-35.7	-36.6	24.4	0.00e+00	122	39	0	827326464	44	5939
2026-01-03 00:59:19.56	192.90	31.67	-35.7	-36.6	24.4	0.00e+00	122	39	0	830472192	44	5973
2026-01-03 00:59:20.57	193.07	31.85	-35.8	-36.7	24.4	0.00e+00	123	39	0	833617920	44	6038
2026-01-03 00:59:21.58	193.24	32.04	-35.9	-36.8	24.3	0.00e+00	123	39	0	836763648	44	6086
2026-01-03 00:59:22.60	193.41	32.22	-35.9	-36.8	24.3	0.00e+00	123	39	0	839909376	44	6098
2026-01-03 00:59:23.60	193.58	32.41	-35.9	-36.8	24.2	0.00e+00	122	39	0	843055104	44	6127
2026-01-03 00:59:24.62	193.76	32.59	-36.0	-36.9	24.2	0.00e+00	123	39	0	846200832	44	6154
2026-01-03 00:59:25.63	193.94	32.78	-36.1	-37.0	24.1	0.00e+00	122	39	0	849346560	44	6214
2026-01-03 00:59:26.64	194.12	32.97	-36.1	-37.0	24.1	0.00e+00	123	39	0	852492288	44	6229
2026-01-03 00:59:27.65	194.30	33.16	-36.1	-37.1	24.1	0.00e+00	120	39	0	855638016	44	6278
2026-01-03 00:59:28.66	194.48	33.35	-36.0	-36.9	24.1	0.00e+00	122	39	0	858783744	44	6202
2026-01-03 00:59:29.67	194.67	33.54	-36.0	-36.9	24.1	0.00e+00	123	39	0	861929472	44	6193
2026-01-03 00:59:30.68	194.86	33.73	-36.2	-37.1	24.0	0.00e+00	122	39	0	865075200	44	6334
2026-01-03 00:59:31.69	195.05	33.92	-36.2	-37.1	24.0	0.00e+00	123	39	0	868220928	44	6345
2026-01-03 00:59:32.70	195.24	34.11	-36.5	-37.4	23.8	0.00e+00	123	39	0	871366656	44	6521
2026-01-03 00:59:33.71	195.44	34.31	-36.8	-37.7	23.6	0.00e+00	122	39	0	874512384	44	6766
2026-01-03 00:59:34.72	195.64	34.50	-37.1	-38.1	23.3	0.00e+00	122	39	0	877658112	46	6309
2026-01-03 00:59:35.73	195.83	34.70	-37.4	-38.4	22.9	0.00e+00	120	39	0	880803840	46	6566
2026-01-03 00:59:36.74	196.04	34.89	-37.7	-38.7	22.7	0.00e+00	123	39	0	883949568	46	6785
2026-01-03 00:59:37.75	196.24	35.09	-37.8	-38.8	22.7	0.00e+00	120	39	0	887095296	48	6081
2026-01-03 00:59:38.76	196.45	35.29	-37.8	-38.8	22.6	0.00e+00	123	39	0	890241024	48	6114
2026-01-03 00:59:39.77	196.66	35.49	-37.6	-38.6	22.6	0.00e+00	122	39	0	893386752	48	5956
2026-01-03 00:59:40.78	196.87	35.68	-37.5	-38.5	22.7	0.00e+00	122	39	0	896532480	48	5874
2026-01-03 00:59:41.79	197.08	35.89	-37.4	-38.4	22.9	0.00e+00	120	39	0	899678208	48	5836
2026-01-03 00:59:42.80	197.30	36.09	-37.6	-38.6	22.8	0.00e+00	122	39	0	902823936	48	5939
2026-01-03 00:59:43.81	197.52	36.29	-37.6	-38.6	23.0	0.00e+00	123	39	0	905969664	48	5932
2026-01-03 00:59:44.82	197.74	36.49	-37.7	-38.7	22.9	0.00e+00	123	39	0	909115392	48	6043
2026-01-03 00:59:45.83	197.97	36.69	-37.6	-38.5	23.0	0.00e+00	123	39	0	912261120	48	5905
2026-01-03 00:59:46.84	198.20	36.90	-37.8	-38.8	22.8	0.00e+00	122	39	0	915406848	48	6065
2026-01-03 00:59:47.85	198.43	37.10	-37.8	-38.8	22.8	0.00e+00	123	39	0	918552576	48	6096
2026-01-03 00:59:48.86	198.66	37.31	-37.5	-38.5	23.0	0.00e+00	122	39	0	921698304	48	5862
2026-01-03 00:59:49.87	198.90	37.52	-37.3	-38.3	23.2	0.00e+00	123	39	0	925892608	48	5754
2026-01-03 00:59:50.88	199.13	37.72	-37.2	-38.2	23.3	0.00e+00	123	39	0	929038336	48	5661
2026-01-03 00:59:51.89	199.38	37.93	-37.4	-38.3	23.2	0.00e+00	123	39	0	931135488	48	5785
2026-01-03 00:59:52.90	199.62	38.14	-37.3	-38.2	23.3	0.00e+00	120	39	0	934281216	48	5703
2026-01-03 00:59:53.91	199.87	38.35	-37.4	-38.3	23.1	0.00e+00	123	39	0	937426944	48	5763
2026-01-03 00:59:54.92	200.12	38.56	-37.5	-38.5	23.0	0.00e+00	122	39	0	941621248	48	5891
2026-01-03 00:59:55.93	200.38	38.77	-37.7	-38.7	22.9	0.00e+00	123	39	0	944766976	48	6023
2026-01-03 00:59:56.94	200.64	38.98	-37.7	-38.6	22.8	0.00e+00	122	39	0	947912704	48	5980
2026-01-03 00:59:57.95	200.90	39.20	-37.7	-38.6	22.8	0.00e+00	122	39	0	951058432	48	5994
2026-01-03 00:59:58.96	201.16	39.41	-37.9	-38.8	22.8	0.00e+00	122	39	0	953155584	48	6117
2026-01-03 00:59:59.97	201.43	39.62	-38.2	-39.2	22.5	0.00e+00	120	39	0	957349888	48	6371
2026-01-03 01:00:00.98	201.70	39.84	-38.4	-39.4	22.3	0.00e+00	122	39	0	960495616	48	6533
2026-01-03 01:00:01.99	201.98	40.05	-38.5	-39.6	22.1	0.00e+00	121	39	0	963641344	48	6660
2026-01-03 01:00:03.00	202.26	40.27	-38.4	-39.5	22.2	0.00e+00	123	39	0	966787072	48	6587
2026-01-03 01:00:04.01	202.54	40.48	-38.2	-39.2	22.4	0.00e+00	123	39	0	969932800	48	6384
2026-01-03 01:00:05.02	202.82	40.70	-38.2	-39.2	22.4	0.00e+00	122	39	0	973078528	48	6414
2026-01-03 01:00:06.03	203.11	40.92	-38.4	-39.4	22.2	0.00e+00	123	39	0	976224256	48	6544
2026-01-03 01:00:07.04	203.41	41.14	-38.4	-39.4	22.1	0.00e+00	121	39	0	979369984	48	6547
2026-01-03 01:00:08.05	203.71	41.35	-38.4	-39.4	22.2	0.00e+00	123	39	0	982515712	48	6527
2026-01-03 01:00:09.06	204.01	41.57	-38.6	-39.6	22.1	0.00e+00	123	39	0	985661440	48	6680
2026-01-03 01:00:10.07	204.31	41.79	-38.6	-39.7	22.0	0.00e+00	122	39	0	988807168	48	6727
2026-01-03 01:00:11.08	204.62	42.01	-38.8	-39.9	21.9	0.00e+00	123	39	0	991952896	50	6170
2026-01-03 01:00:12.09	204.94	42.23	-38.7	-39.8	21.9	0.00e+00	123	39	0	995098624	50	6069
2026-01-03 01:00:13.10	205.26	42.45	-38.9	-39.9	21.8	0.00e+00	122	39	0	998244352	50	6183
2026-01-03 01:00:14.11	205.58	42.67	-38.8	-39.9	21.8	0.00e+00	122	39	0	1001390080	50	6184
2026-01-03 01:00:15.13	205.91	42.89	-38.7	-39.8	21.8	0.00e+00	123	39	0	1004535808	50	6070
2026-01-03 01:00:16.14	206.24	43.11	-38.8	-39.9	21.6	0.00e+00	122	39	0	1007681536	50	6174
2026-01-03 01:00:17.15	206.58	43.34	-38.9	-40.0	21.6	0.00e+00	123	39	0	1010827264	50	6236
2026-01-03 01:00:18.16	206.92	43.56	-39.2	-40.3	21.7	0.00e+00	123	39	0	1013972992	50	6427
2026-01-03 01:00:19.17	207.26	43.78	-39.2	-40.3	21.6	0.00e+00	123	39	0	1017118720	50	6470
2026-01-03 01:00:20.18	207.61	44.00	-39.1	-40.2	21.5	0.00e+00	122	39	0	1020264448	50	6390
2026-01-03 01:00:21.18	207.97	44.22	-38.9	-40.0	21.6	0.00e+00	123	39	0	1023410176	50	6239
2026-01-03 01:00:22.19	208.33	44.44	-38.7	-39.7	21.9	0.00e+00	122	39	0	1026555904	50	6035
2026-01-03 01:00:23.20	208.69	44.66	-38.7	-39.8	21.9	0.00e+00	123	39	0	1029701632	50	6097
2026-01-03 01:00:24.21	209.06	44.89	-38.6	-39.7	22.0	0.00e+00	123	39	0	1032847360	50	6017
2026-01-03 01:00:25.22	209.44	45.11	-38.5	-39.5	22.1	0.00e+00	123	39	0	1035993088	50	5884
2026-01-03 01:00:26.23	209.82	45.33	-38.3	-39.3	22.3	0.00e+00	122	39	0	1039138816	50	5776
2026-01-03 01:00:27.25	210.20	45.55	-38.3	-39.3	22.3	0.00e+00	122	39	0	1042284544	50	5783
2026-01-03 01:00:28.26	210.60	45.77	-38.3	-39.3	22.3	0.00e+00	123	39	0	1045430272	50	5778
2026-01-03 01:00:29.27	210.99	45.99	-38.2	-39.2	22.2	0.00e+00	122	39	0	1048576000	50	5719
2026-01-03 01:00:30.28	211.39	46.22	-38.2	-39.2	22.0	0.00e+00	123	39	0	1051721728	50	5722
2026-01-03 01:00:31.29	211.80	46.44	-38.3	-39.3	21.9	0.00e+00	123	39	0	1054867456	50	5788
2026-01-03 01:00:32.30	212.21	46.66	-38.3	-39.3	22.1	0.00e+00	123	39	0	1058013184	50	5791
2026-01-03 01:00:33.31	212.63	46.88	-38.6	-39.6	22.0	0.00e+00	122	39	0	1061158912	50	5980
2026-01-03 01:00:34.32	213.06	47.09	-38.7	-39.8	22.0	0.00e+00	123	39	0	1064304640	50	6084
2026-01-03 01:00:35.33	213.49	47.31	-38.8	-39.8	22.0	0.00e+00	123	39	0	1067450368	50	6117
2026-01-03 01:00:36.34	213.93	47.53	-38.8	-39.9	21.9	0.00e+00	123	39	0	1070596096	50	6183
2026-01-03 01:00:37.35	214.37	47.75	-38.5	-39.5	22.0	0.00e+00	123	39	0	1073741824	50	5912
2026-01-03 01:00:38.36	214.82	47.96	-38.2	-39.2	22.4	0.00e+00	123	39	0	1076887552	50	5712
2026-01-03 01:00:39.37	215.27	48.18	-38.1	-39.1	22.5	0.00e+00	123	39	0	1080033280	50	5603
2026-01-03 01:00:40.38	215.73	48.39	-37.7	-38.7	22.8	0.00e+00	122	39	0	1083179008	48	6027
2026-01-03 01:00:41.39	216.20	48.61	-37.8	-38.8	22.8	0.00e+00	123	39	0	1086324736	48	6112
2026-01-03 01:00:42.40	216.67	48.82	-37.7	-38.6	23.0	0.00e+00	123	39	0	1089470464	48	5986
2026-01-03 01:00:43.41	217.16	49.03	-37.9	-38.9	22.6	0.00e+00	120	39	0	1092616192	48	6139
2026-01-03 01:00:44.42	217.64	49.24	-37.9	-39.0	22.4	0.00e+00	123	39	0	1095761920	48	6206
2026-01-03 01:00:45.43	218.14	49.45	-38.1	-39.1	22.4	0.00e+00	122	39	0	1098907648	48	6297
2026-01-03 01:00:46.44	218.64	49.66	-38.3	-39.3	22.1	0.00e+00	122	39	0	1102053376	48	6451
2026-01-03 01:00:47.45	219.14	49.87	-38.1	-39.1	22.3	0.00e+00	122	39	0	1105199104	48	6300
2026-01-03 01:00:48.46	219.66	50.07	-38.1	-39.1	22.3	0.00e+00	123	39	0	1108344832	48	6297
2026-01-03 01:00:49.48	220.19	50.28	-38.3	-39.3	22.5	0.00e+00	120	39	0	1111490560	48	6462
2026-01-03 01:00:50.49	220.71	50.48	-38.1	-39.1	22.5	0.00e+00	123	39	0	1114636288	48	6346
2026-01-03 01:00:51.50	221.25	50.68	-38.0	-39.0	22.5	0.00e+00	122	39	0	1117782016	48	6255
2026-01-03 01:00:52.51	221.79	50.88	-38.2	-39.2	22.4	0.00e+00	123	39	0	1120927744	48	6362
2026-01-03 01:00:53.52	222.34	51.08	-38.2	-39.2	22.5	0.00e+00	122	39	0	1124073472	48	6362
2026-01-03 01:00:54.53	222.90	51.27	-38.0	-39.0	22.6	0.00e+00	123	39	0	1127219200	48	6255
2026-01-03 01:00:55.54	223.46	51.47	-37.5	-38.5	23.1	0.00e+00	122	39	0	1130364928	48	5889
2026-01-03 01:00:56.55	224.03	51.66	-37.6	-38.6	23.0	0.00e+00	122	39	0	1133510656	48	5929
2026-01-03 01:00:57.56	224.61	51.84	-36.9	-37.8	23.4	0.00e+00	123	39	0	1136656384	48	5454
2026-01-03 01:00:58.57	225.19	52.03	-36.9	-37.8	23.5	0.00e+00	123	39	0	1139802112	48	5447
2026-01-03 01:00:59.58	225.79	52.22	-36.8	-37.7	23.7	0.00e+00	123	39	0	1142947840	48	5380
2026-01-03 01:01:00.59	226.39	52.40	-36.7	-37.6	23.7	0.00e+00	123	39	0	1146093568	46	5964
2026-01-03 01:01:01.60	226.99	52.58	-36.9	-37.8	23.6	0.00e+00	123	39	0	1149239296	46	6096
2026-01-03 01:01:02.61	227.61	52.75	-36.9	-37.8	23.5	0.00e+00	122	39	0	1152385024	46	6132
2026-01-03 01:01:03.62	228.23	52.93	-37.1	-38.0	23.3	0.00e+00	123	39	0	1155530752	46	6267
2026-01-03 01:01:04.63	228.86	53.10	-37.3	-38.3	23.0	0.00e+00	123	39	0	1158676480	46	6449
2026-01-03 01:01:05.64	229.50	53.26	-37.5	-38.6	22.9	0.00e+00	123	39	0	1161822208	46	6651
2026-01-03 01:01:06.65	230.14	53.43	-37.3	-38.3	23.2	0.00e+00	123	39	0	1164967936	46	6446
2026-01-03 01:01:07.66	230.79	53.59	-37.2	-38.1	23.3	0.00e+00	122	39	0	1168113664	46	6331
2026-01-03 01:01:08.67	231.45	53.75	-37.2	-38.2	23.3	0.00e+00	122	39	0	1171259392	46	6359
2026-01-03 01:01:09.68	232.11	53.90	-37.2	-38.2	23.4	0.00e+00	121	39	0	1174405120	46	6375
2026-01-03 01:01:10.70	232.79	54.06	-36.9	-37.9	23.5	0.00e+00	123	39	0	1177550848	46	6143
2026-01-03 01:01:11.71	233.47	54.21	-36.8	-37.7	23.6	0.00e+00	122	39	0	1180696576	46	6029
2026-01-03 01:01:12.72	234.16	54.35	-36.5	-37.4	23.6	0.00e+00	123	39	0	1183842304	46	5833
2026-01-03 01:01:13.73	234.85	54.49	-36.6	-37.5	23.5	0.00e+00	123	39	0	1186988032	46	5895
2026-01-03 01:01:14.74	235.55	54.63	-36.1	-37.1	23.9	0.00e+00	121	39	0	1190133760	46	5620
2026-01-03 01:01:15.75	236.26	54.76	-36.2	-37.1	24.1	0.00e+00	120	39	0	1193279488	46	5616
2026-01-03 01:01:16.75	236.96	54.89	-36.2	-37.1	24.1	0.00e+00	120	39	0	1196425216	46	5629
2026-01-03 01:01:17.77	237.69	55.02	-36.4	-37.3	23.5	0.00e+00	122	39	0	1199570944	46	5769
2026-01-03 01:01:18.78	238.41	55.14	-36.8	-37.8	23.5	0.00e+00	123	39	0	1202716672	46	6084
2026-01-03 01:01:19.78	239.14	55.25	-36.5	-37.5	23.8	0.00e+00	123	39	0	1205862400	46	5875
2026-01-03 01:01:20.79	239.87	55.37	-36.2	-37.1	24.0	0.00e+00	123	39	0	1209008128	46	5645
2026-01-03 01:01:21.80	240.62	55.47	-36.0	-37.0	24.1	0.00e+00	123	39	0	1212153856	46	5531
2026-01-03 01:01:22.81	241.36	55.58	-35.8	-36.7	24.3	0.00e+00	121	39	0	1216348160	46	5391
2026-01-03 01:01:23.82	242.12	55.68	-36.0	-36.9	24.2	0.00e+00	123	39	0	1219493888	46	5508
2026-01-03 01:01:24.83	242.88	55.77	-36.0	-36.9	24.3	0.00e+00	123	39	0	1222639616	46	5512
2026-01-03 01:01:25.85	243.65	55.86	-36.0	-36.9	24.3	0.00e+00	123	39	0	1224736768	46	5474
2026-01-03 01:01:26.85	244.41	55.95	-36.1	-37.0	24.0	0.00e+00	123	39	0	1227882496	46	5583
2026-01-03 01:01:27.87	245.19	56.03	-36.3	-37.3	23.7	0.00e+00	123	39	0	1232076800	46	5753
2026-01-03 01:01:28.87	245.96	56.10	-36.2	-37.1	24.0	0.00e+00	123	39	0	1235222528	46	5634
2026-01-03 01:01:29.89	246.75	56.17	-36.2	-37.1	24.0	0.00e+00	122	39	0	1238368256	46	5617
2026-01-03 01:01:30.90	247.53	56.24	-35.9	-36.8	24.3	0.00e+00	122	39	0	1241513984	46	5441
2026-01-03 01:01:31.90	248.32	56.30	-36.0	-37.0	24.2	0.00e+00	123	39	0	1244659712	46	5534
2026-01-03 01:01:32.92	249.11	56.35	-36.2	-37.1	24.2	0.00e+00	122	39	0	1247805440	46	5606
2026-01-03 01:01:33.93	249.91	56.40	-36.1	-37.0	24.1	0.00e+00	122	39	0	1250951168	46	5590
2026-01-03 01:01:34.94	250.71	56.45	-35.9	-36.8	24.1	0.00e+00	123	39	0	1254096896	46	5443
2026-01-03 01:01:35.95	251.51	56.48	-35.7	-36.6	24.1	0.00e+00	123	39	0	1257242624	44	5983
2026-01-03 01:01:36.96	252.31	56.52	-35.9	-36.9	24.1	0.00e+00	122	39	0	1260388352	44	6149
2026-01-03 01:01:37.97	253.11	56.55	-36.2	-37.1	23.9	0.00e+00	123	39	0	1263534080	44	6324
2026-01-03 01:01:38.98	253.92	56.57	-36.8	-37.7	23.6	0.00e+00	123	39	0	1266679808	44	6789
2026-01-03 01:01:39.99	254.72	56.59	-37.1	-38.0	23.4	0.00e+00	122	39	0	1269825536	46	6260
2026-01-03 01:01:41.00	255.53	56.60	-37.3	-38.3	23.3	0.00e+00	123	39	0	1272971264	46	6430
2026-01-03 01:01:42.01	256.34	56.61	-36.4	-37.3	24.1	0.00e+00	122	39	0	1276116992	46	5787
2026-01-03 01:01:43.02	257.15	56.61	-36.2	-37.1	24.1	0.00e+00	123	39	0	1279262720	46	5605
2026-01-03 01:01:44.03	257.95	56.60	-35.9	-36.8	24.3	0.00e+00	120	39	0	1282408448	46	5431
2026-01-03 01:01:45.04	258.76	56.59	-36.1	-37.0	24.3	0.00e+00	123	39	0	1285554176	46	5541
2026-01-03 01:01:46.05	259.57	56.58	-36.2	-37.1	24.2	0.00e+00	123	39	0	1288699904	46	5654
2026-01-03 01:01:47.06	260.37	56.56	-36.3	-37.2	24.0	0.00e+00	123	39	0	1291845632	46	5698
2026-01-03 01:01:48.07	261.18	56.53	-36.2	-37.1	24.1	0.00e+00	120	39	0	1294991360	46	5637
2026-01-03 01:01:49.09	261.99	56.50	-36.3	-37.2	24.1	0.00e+00	123	39	0	1298137088	46	5691
2026-01-03 01:01:50.10	262.79	56.47	-35.9	-36.8	24.3	0.00e+00	123	39	0	1301282816	46	5455
2026-01-03 01:01:51.11	263.59	56.43	-35.8	-36.7	24.3	0.00e+00	123	39	0	1304428544	46	5396
2026-01-03 01:01:52.12	264.38	56.38	-36.2	-37.1	23.9	0.00e+00	120	39	0	1307574272	46	5606
2026-01-03 01:01:53.13	265.18	56.33	-36.7	-37.6	23.6	0.00e+00	123	39	0	1310720000	46	5958
2026-01-03 01:01:54.14	265.97	56.27	-36.5	-37.5	23.8	0.00e+00	120	39	0	1313865728	46	5891
2026-01-03 01:01:55.15	266.75	56.21	-36.5	-37.4	24.0	0.00e+00	122	39	0	1317011456	46	5857
2026-01-03 01:01:56.16	267.54	56.14	-35.7	-36.5	24.4	0.00e+00	123	40	0	1320157184	44	5925
2026-01-03 01:01:57.17	268.31	56.07	-35.6	-36.5	24.5	0.00e+00	123	40	0	1323302912	44	5863
2026-01-03 01:01:58.18	269.09	55.99	-36.0	-36.9	24.1	0.00e+00	122	39	0	1326448640	44	6161
2026-01-03 01:01:59.19	269.86	55.91	-36.4	-37.3	23.9	0.00e+00	123	39	0	1329594368	44	6467
2026-01-03 01:02:00.20	270.63	55.82	-36.2	-37.1	23.9	0.00e+00	123	39	0	1332740096	44	6344
2026-01-03 01:02:01.21	271.39	55.73	-36.5	-37.4	23.8	0.00e+00	123	39	0	1335885824	44	6555
2026-01-03 01:02:02.22	272.14	55.63	-36.8	-37.8	23.6	0.00e+00	122	39	0	1339031552	44	6808
2026-01-03 01:02:03.23	272.89	55.53	-37.1	-38.1	23.5	0.00e+00	123	40	0	1342177280	46	6305
2026-01-03 01:02:04.24	273.64	55.43	-36.9	-37.8	23.8	0.00e+00	123	40	0	1345323008	46	6110
2026-01-03 01:02:05.26	274.38	55.32	-36.7	-37.6	23.7	0.00e+00	122	39	0	1348468736	46	5965
2026-01-03 01:02:06.26	275.11	55.20	-36.8	-37.8	23.7	0.00e+00	120	39	0	1351614464	46	6075
2026-01-03 01:02:07.27	275.84	55.08	-37.3	-38.3	23.1	0.00e+00	122	39	0	1354760192	46	6479
2026-01-03 01:02:08.28	276.56	54.96	-37.4	-38.4	23.2	0.00e+00	123	39	0	1357905920	46	6510
2026-01-03 01:02:09.29	277.27	54.84	-37.5	-38.5	23.2	0.00e+00	122	39	0	1361051648	46	6611
2026-01-03 01:02:10.31	277.99	54.70	-37.6	-38.5	23.1	0.00e+00	123	39	0	1364197376	48	5926
2026-01-03 01:02:11.31	278.69	54.57	-37.5	-38.5	23.2	0.00e+00	120	39	0	1367343104	48	5865
2026-01-03 01:02:12.32	279.38	54.43	-36.8	-37.8	23.7	0.00e+00	123	39	0	1370488832	48	5411
2026-01-03 01:02:13.34	280.08	54.29	-36.4	-37.4	23.9	0.00e+00	122	39	0	1373634560	46	5797
2026-01-03 01:02:14.35	280.76	54.14	-36.2	-37.1	24.3	0.00e+00	123	39	0	1376780288	46	5645
2026-01-03 01:02:15.36	281.43	53.99	-36.3	-37.2	24.0	0.00e+00	123	40	0	1379926016	46	5694
2026-01-03 01:02:16.37	282.10	53.84	-36.6	-37.6	23.9	0.00e+00	122	40	0	1383071744	46	5935
2026-01-03 01:02:17.38	282.76	53.68	-36.8	-37.7	23.8	0.00e+00	123	39	0	1386217472	46	6041
2026-01-03 01:02:18.39	283.42	53.52	-36.5	-37.4	24.0	0.00e+00	123	40	0	1389363200	46	5836
2026-01-03 01:02:19.40	284.06	53.36	-36.1	-37.0	24.3	0.00e+00	122	40	0	1392508928	46	5585
2026-01-03 01:02:20.41	284.70	53.19	-36.3	-37.2	24.0	0.00e+00	123	40	0	1395654656	46	5692
2026-01-03 01:02:21.42	285.33	53.03	-36.7	-37.6	23.8	0.00e+00	120	40	0	1398800384	46	5993
2026-01-03 01:02:22.43	285.96	52.85	-36.9	-37.8	23.8	0.00e+00	123	39	0	1401946112	46	6076
2026-01-03 01:02:23.44	286.58	52.68	-37.2	-38.1	23.5	0.00e+00	122	40	0	1405091840	46	6322
2026-01-03 01:02:24.45	287.19	52.50	-37.6	-38.6	22.9	0.00e+00	123	40	0	1408237568	46	6702
2026-01-03 01:02:25.46	287.79	52.32	-38.0	-39.1	22.3	0.00e+00	123	39	0	1411383296	48	6278
2026-01-03 01:02:26.47	288.38	52.14	-37.9	-39.0	22.4	0.00e+00	122	40	0	1414529024	48	6224
2026-01-03 01:02:27.48	288.97	51.96	-37.4	-38.4	23.1	0.00e+00	123	40	0	1417674752	48	5823
2026-01-03 01:02:28.49	289.55	51.77	-37.2	-38.2	23.4	0.00e+00	122	39	0	1420820480	48	5661
2026-01-03 01:02:29.50	290.13	51.58	-37.2	-38.2	23.2	0.00e+00	123	40	0	1423966208	48	5694
2026-01-03 01:02:30.51	290.69	51.39	-37.5	-38.5	23.1	0.00e+00	123	39	0	1427111936	48	5861
2026-01-03 01:02:31.52	291.25	51.20	-37.8	-38.7	22.9	0.00e+00	120	40	0	1430257664	48	6051
2026-01-03 01:02:32.53	291.81	51.00	-37.9	-38.9	22.7	0.00e+00	123	40	0	1433403392	48	6201
2026-01-03 01:02:33.54	292.35	50.80	-38.0	-39.1	22.3	0.00e+00	123	39	0	1436549120	48	6303
2026-01-03 01:02:34.55	292.89	50.61	-38.0	-39.0	22.2	0.00e+00	122	40	0	1439694848	48	6261
2026-01-03 01:02:35.56	293.42	50.40	-37.6	-38.6	22.6	0.00e+00	127	40	0	1442840576	48	5956
2026-01-03 01:02:36.57	293.94	50.20	-37.5	-38.5	22.9	0.00e+00	123	40	0	1445986304	48	5918
2026-01-03 01:02:37.58	294.46	50.00	-37.5	-38.4	23.1	0.00e+00	122	40	0	1449132032	48	5847
2026-01-03 01:02:38.59	294.97	49.79	-37.7	-38.7	23.0	0.00e+00	123	40	0	1452277760	48	6047
2026-01-03 01:02:39.60	295.47	49.59	-37.8	-38.9	22.8	0.00e+00	123	39	0	1455423488	48	6143
2026-01-03 01:02:40.61	295.97	49.38	-38.2	-39.2	22.5	0.00e+00	122	40	0	1458569216	48	6395
2026-01-03 01:02:41.62	296.46	49.17	-38.7	-39.8	22.0	0.00e+00	123	40	0	1461714944	48	6879
2026-01-03 01:02:42.63	296.94	48.96	-38.8	-39.9	22.1	0.00e+00	122	40	0	1464860672	50	6178
2026-01-03 01:02:43.64	297.42	48.75	-38.6	-39.6	22.1	0.00e+00	123	40	0	1468006400	50	5964
2026-01-03 01:02:44.65	297.89	48.54	-38.7	-39.7	21.9	0.00e+00	122	40	0	1471152128	50	6037
2026-01-03 01:02:45.67	298.36	48.32	-38.7	-39.7	21.8	0.00e+00	123	40	0	1474297856	50	6060
2026-01-03 01:02:46.68	298.82	48.11	-38.6	-39.6	21.9	0.00e+00	123	40	0	1477443584	50	5990
2026-01-03 01:02:47.69	299.27	47.89	-38.8	-39.9	21.9	0.00e+00	123	40	0	1480589312	50	6148
2026-01-03 01:02:48.70	299.71	47.68	-38.9	-39.9	22.1	0.00e+00	120	40	0	1483735040	50	6184
2026-01-03 01:02:49.71	300.15	47.46	-38.8	-39.8	22.0	0.00e+00	123	40	0	1486880768	50	6130
2026-01-03 01:02:50.72	300.59	47.24	-38.8	-39.9	22.0	0.00e+00	122	40	0	1491075072	50	6168
2026-01-03 01:02:51.73	301.01	47.02	-38.7	-39.7	22.0	0.00e+00	123	40	0	1493172224	50	6042
2026-01-03 01:02:52.74	301.43	46.81	-38.7	-39.7	21.9	0.00e+00	120	40	0	1496317952	50	6059
2026-01-03 01:02:53.75	301.85	46.59	-38.3	-39.4	22.3	0.00e+00	122	40	0	1499463680	50	5824
2026-01-03 01:02:54.76	302.26	46.37	-38.4	-39.5	22.0	0.00e+00	120	40	0	1502609408	50	5875
2026-01-03 01:02:55.77	302.66	46.15	-38.6	-39.6	22.1	0.00e+00	122	40	0	1506803712	50	5980
2026-01-03 01:02:56.78	303.06	45.93	-38.3	-39.3	22.6	0.00e+00	123	40	0	1509949440	50	5732
2026-01-03 01:02:57.78	303.45	45.71	-37.9	-38.9	22.7	0.00e+00	122	40	0	1513095168	50	5520
2026-01-03 01:02:58.79	303.84	45.49	-38.1	-39.2	22.6	0.00e+00	120	40	0	1515192320	50	5662
2026-01-03 01:02:59.80	304.22	45.27	-38.9	-40.0	22.0	0.00e+00	122	40	0	1518338048	50	6246
2026-01-03 01:03:00.81	304.60	45.05	-39.1	-40.1	21.7	0.00e+00	123	40	0	1522532352	50	6322
2026-01-03 01:03:01.83	304.98	44.83	-39.0	-40.1	21.9	0.00e+00	123	40	0	1525678080	50	6293
2026-01-03 01:03:02.84	305.34	44.60	-39.0	-40.0	21.8	0.00e+00	122	40	0	1528823808	50	6239
2026-01-03 01:03:03.85	305.70	44.38	-39.2	-40.3	21.1	0.00e+00	122	40	0	1531969536	50	6481
2026-01-03 01:03:04.86	306.06	44.16	-39.4	-40.5	21.0	0.00e+00	122	40	0	1535115264	50	6609
2026-01-03 01:03:05.87	306.41	43.94	-39.1	-40.1	21.4	0.00e+00	122	40	0	1538260992	50	6346
2026-01-03 01:03:06.88	306.76	43.72	-38.6	-39.6	22.1	0.00e+00	122	40	0	1541406720	50	5975
2026-01-03 01:03:07.89	307.10	43.50	-38.1	-39.1	22.5	0.00e+00	123	40	0	1544552448	50	5597
2026-01-03 01:03:08.90	307.44	43.28	-37.9	-38.9	22.7	0.00e+00	122	40	0	1547698176	50	5473
2026-01-03 01:03:09.91	307.78	43.06	-38.1	-39.1	22.4	0.00e+00	123	40	0	1550843904	50	5627
2026-01-03 01:03:10.92	308.10	42.84	-38.5	-39.6	22.0	0.00e+00	122	40	0	1553989632	50	5951
2026-01-03 01:03:11.93	308.43	42.62	-38.9	-40.0	21.8	0.00e+00	122	40	0	1557135360	50	6211
2026-01-03 01:03:12.94	308.75	42.40	-39.0	-40.0	21.9	0.00e+00	123	40	0	1560281088	50	6254
2026-01-03 01:03:13.95	309.07	42.18	-38.9	-40.0	21.8	0.00e+00	123	40	0	1563426816	50	6232
2026-01-03 01:03:14.96	309.38	41.96	-39.0	-40.0	21.7	0.00e+00	123	40	0	1566572544	50	6241
2026-01-03 01:03:15.97	309.69	41.75	-39.0	-40.0	21.8	0.00e+00	123	40	0	1569718272	50	6258
2026-01-03 01:03:16.98	309.99	41.53	-38.4	-39.4	22.3	0.00e+00	123	40	0	1572864000	50	5797
2026-01-03 01:03:17.99	310.29	41.31	-38.3	-39.3	22.4	0.00e+00	123	40	0	1576009728	50	5787
2026-01-03 01:03:19.01	310.59	41.09	-38.2	-39.2	22.5	0.00e+00	123	40	0	1579155456	50	5681
2026-01-03 01:03:20.02	310.88	40.88	-38.3	-39.3	22.6	0.00e+00	120	40	0	1582301184	50	5727
2026-01-03 01:03:21.03	311.17	40.66	-38.3	-39.3	22.4	0.00e+00	123	40	0	1585446912	50	5766
2026-01-03 01:03:22.04	311.45	40.45	-38.3	-39.3	22.6	0.00e+00	118	40	0	1588592640	50	5778
2026-01-03 01:03:23.05	311.73	40.23	-38.4	-39.4	22.4	0.00e+00	122	40	0	1591738368	50	5830
2026-01-03 01:03:24.06	312.01	40.02	-38.2	-39.2	22.5	0.00e+00	118	40	0	1594884096	50	5666
2026-01-03 01:03:25.07	312.28	39.80	-38.2	-39.2	22.2	0.00e+00	122	40	0	1598029824	50	5709
2026-01-03 01:03:26.08	312.55	39.59	-38.5	-39.6	21.9	0.00e+00	123	40	0	1601175552	50	5953
2026-01-03 01:03:27.09	312.82	39.38	-38.8	-39.9	21.5	0.00e+00	123	40	0	1604321280	50	6173
2026-01-03 01:03:28.10	313.08	39.17	-38.9	-40.0	21.7	0.00e+00	123	40	0	1607467008	50	6208
2026-01-03 01:03:29.11	313.34	38.95	-38.5	-39.6	22.3	0.00e+00	123	40	0	1610612736	50	5944
2026-01-03 01:03:30.12	313.60	38.74	-38.3	-39.3	22.5	0.00e+00	122	40	0	1613758464	50	5764
2026-01-03 01:03:31.13	313.85	38.53	-38.0	-39.0	22.7	0.00e+00	122	40	0	1616904192	50	5570
2026-01-03 01:03:32.14	314.10	38.33	-38.0	-39.0	22.7	0.00e+00	123	40	0	1620049920	50	5590
2026-01-03 01:03:33.15	314.35	38.12	-38.2	-39.2	22.6	0.00e+00	120	40	0	1623195648	50	5714
2026-01-03 01:03:34.16	314.59	37.91	-38.2	-39.2	22.7	0.00e+00	123	40	0	1626341376	50	5660
2026-01-03 01:03:35.17	314.83	37.70	-38.2	-39.2	22.6	0.00e+00	120	40	0	1629487104	50	5667
2026-01-03 01:03:36.18	315.07	37.50	-38.2	-39.2	22.7	0.00e+00	122	39	0	1632632832	50	5686
2026-01-03 01:03:37.19	315.30	37.29	-37.9	-38.9	22.9	0.00e+00	123	40	0	1635778560	50	5487
2026-01-03 01:03:38.20	315.54	37.09	-37.7	-38.6	23.1	0.00e+00	123	40	0	1638924288	48	5971
2026-01-03 01:03:39.21	315.77	36.88	-37.4	-38.3	23.2	0.00e+00	120	40	0	1642070016	48	5763
2026-01-03 01:03:40.22	315.99	36.68	-37.3	-38.3	23.2	0.00e+00	123	40	0	1645215744	48	5746
2026-01-03 01:03:41.23	316.21	36.48	-37.1	-38.0	23.6	0.00e+00	123	40	0	1648361472	48	5589
2026-01-03 01:03:42.24	316.44	36.28	-36.9	-37.9	23.6	0.00e+00	122	40	0	1651507200	48	5475
2026-01-03 01:03:43.25	316.65	36.08	-37.2	-38.1	23.5	0.00e+00	123	40	0	1654652928	48	5655
2026-01-03 01:03:44.26	316.87	35.88	-37.2	-38.1	23.4	0.00e+00	122	40	0	1657798656	48	5645
2026-01-03 01:03:45.27	317.08	35.68	-37.3	-38.2	23.3	0.00e+00	123	40	0	1660944384	48	5724
2026-01-03 01:03:46.28	317.29	35.48	-37.2	-38.2	23.4	0.00e+00	123	40	0	1664090112	48	5671
2026-01-03 01:03:47.29	317.50	35.28	-37.3	-38.2	23.3	0.00e+00	122	40	0	1667235840	48	5693
2026-01-03 01:03:48.30	317.71	35.08	-37.3	-38.2	23.3	0.00e+00	123	40	0	1670381568	48	5687
2026-01-03 01:03:49.31	317.91	34.89	-37.1	-38.0	23.6	0.00e+00	123	40	0	1673527296	48	5566
2026-01-03 01:03:50.33	318.11	34.69	-37.0	-37.9	23.6	0.00e+00	120	40	0	1676673024	48	5487
2026-01-03 01:03:51.34	318.31	34.50	-36.9	-37.8	23.7	0.00e+00	123	40	0	1679818752	48	5417
2026-01-03 01:03:52.35	318.51	34.30	-37.0	-37.9	23.4	0.00e+00	120	40	0	1682964480	48	5524
2026-01-03 01:03:53.36	318.70	34.11	-37.1	-38.0	23.4	0.00e+00	123	40	0	1686110208	48	5591
2026-01-03 01:03:54.37	318.89	33.92	-36.9	-37.8	23.7	0.00e+00	122	40	0	1689255936	48	5433
2026-01-03 01:03:55.38	319.08	33.73	-36.7	-37.6	23.8	0.00e+00	123	40	0	1692401664	46	5946
2026-01-03 01:03:56.39	319.27	33.54	-37.0	-37.9	23.8	0.00e+00	120	40	0	1695547392	46	6177
2026-01-03 01:03:57.40	319.46	33.35	-36.4	-37.3	24.1	0.00e+00	122	40	0	1698693120	46	5775
2026-01-03 01:03:58.41	319.64	33.16	-36.6	-37.5	24.0	0.00e+00	120	40	0	1701838848	46	5876
2026-01-03 01:03:59.42	319.82	32.98	-36.4	-37.3	24.0	0.00e+00	120	40	0	1704984576	46	5786
2026-01-03 01:04:00.43	320.00	32.79	-36.6	-37.5	23.9	0.00e+00	123	40	0	1708130304	46	5891
2026-01-03 01:04:01.44	320.18	32.60	-37.0	-38.0	23.5	0.00e+00	121	40	0	1711276032	46	6224
2026-01-03 01:04:02.45	320.35	32.42	-37.0	-38.0	23.5	0.00e+00	123	40	0	1714421760	46	6235
2026-01-03 01:04:03.46	320.52	32.24	-37.0	-38.0	23.6	0.00e+00	122	40	0	1717567488	46	6212
2026-01-03 01:04:04.47	320.70	32.05	-37.1	-38.0	23.5	0.00e+00	122	40	0	1720713216	46	6249
2026-01-03 01:04:05.48	320.87	31.87	-36.9	-37.9	23.4	0.00e+00	123	40	0	1723858944	46	6143
2026-01-03 01:04:06.49	321.03	31.69	-36.8	-37.8	23.4	0.00e+00	121	40	0	1727004672	46	6087
2026-01-03 01:04:07.50	321.20	31.51	-36.5	-37.4	23.8	0.00e+00	122	40	0	1730150400	46	5851
2026-01-03 01:04:08.51	321.36	31.33	-36.0	-36.9	24.1	0.00e+00	120	40	0	1733296128	46	5511
2026-01-03 01:04:09.52	321.53	31.15	-35.9	-36.8	24.3	0.00e+00	122	40	0	1736441856	46	5449
2026-01-03 01:04:10.53	321.69	30.97	-35.7	-36.6	24.4	0.00e+00	123	40	0	1739587584	44	5940
2026-01-03 01:04:11.54	321.84	30.80	-35.7	-36.6	24.4	0.00e+00	123	40	0	1742733312	44	5960
2026-01-03 01:04:12.55	322.00	30.62	-35.4	-36.2	24.7	0.00e+00	120	40	0	1745879040	44	5721
2026-01-03 01:04:13.56	322.16	30.44	-35.3	-36.2	24.7	0.00e+00	122	40	0	1749024768	44	5671
2026-01-03 01:04:14.57	322.31	30.27	-35.4	-36.2	24.7	0.00e+00	120	40	0	1752170496	44	5719
2026-01-03 01:04:15.58	322.46	30.10	-35.5	-36.4	24.6	0.00e+00	122	40	0	1755316224	44	5818
2026-01-03 01:04:16.59	322.61	29.92	-35.7	-36.6	24.5	0.00e+00	123	40	0	1758461952	44	5950
2026-01-03 01:04:17.60	322.76	29.75	-35.7	-36.6	24.4	0.00e+00	122	40	0	1761607680	44	5988
2026-01-03 01:04:18.61	322.91	29.58	-36.0	-36.9	24.3	0.00e+00	123	40	0	1764753408	44	6150
2026-01-03 01:04:19.62	323.06	29.41	-36.2	-37.1	24.1	0.00e+00	123	40	0	1767899136	44	6285
2026-01-03 01:04:20.63	323.20	29.24	-36.1	-37.1	24.0	0.00e+00	121	40	0	1771044864	44	6288
2026-01-03 01:04:21.64	323.35	29.07	-36.2	-37.1	23.9	0.00e+00	123	40	0	1774190592	44	6332
2026-01-03 01:04:22.65	323.49	28.90	-36.3	-37.2	23.9	0.00e+00	120	40	0	1777336320	44	6363
2026-01-03 01:04:23.67	323.63	28.74	-36.3	-37.2	23.8	0.00e+00	123	40	0	1781530624	44	6392
2026-01-03 01:04:24.67	323.77	28.57	-36.5	-37.4	23.7	0.00e+00	120	40	0	1783627776	44	6519
2026-01-03 01:04:25.69	323.91	28.40	-36.7	-37.6	23.5	0.00e+00	122	40	0	1786773504	44	6693
2026-01-03 01:04:26.70	324.04	28.24	-36.5	-37.4	23.5	0.00e+00	120	40	0	1789919232	44	6570
2026-01-03 01:04:27.71	324.18	28.08	-36.5	-37.4	23.6	0.00e+00	123	40	0	1793064960	44	6537
2026-01-03 01:04:28.72	324.31	27.91	-36.4	-37.4	23.7	0.00e+00	122	40	0	1797259264	44	6518
2026-01-03 01:04:29.73	324.44	27.75	-36.3	-37.3	23.8	0.00e+00	122	40	0	1800404992	44	6442
2026-01-03 01:04:30.74	324.57	27.59	-36.3	-37.2	23.8	0.00e+00	123	40	0	1803550720	44	6396
2026-01-03 01:04:31.75	324.70	27.43	-36.2	-37.1	23.9	0.00e+00	123	40	0	1805647872	44	6331
2026-01-03 01:04:32.76	324.83	27.27	-36.2	-37.1	23.9	0.00e+00	123	40	0	1808793600	44	6333
2026-01-03 01:04:33.77	324.96	27.11	-36.1	-37.0	24.0	0.00e+00	123	40	0	1812987904	44	6229
2026-01-03 01:04:34.78	325.08	26.95	-36.1	-37.0	23.9	0.00e+00	122	40	0	1816133632	44	6233
2026-01-03 01:04:35.79	325.21	26.80	-36.1	-37.0	23.9	0.00e+00	123	40	0	1819279360	44	6242
2026-01-03 01:04:36.80	325.33	26.64	-36.0	-37.0	23.9	0.00e+00	123	40	0	1822425088	44	6222
2026-01-03 01:04:37.81	325.45	26.48	-36.1	-37.0	23.9	0.00e+00	123	40	0	1825570816	44	6245
2026-01-03 01:04:38.82	325.58	26.33	-36.1	-37.0	23.9	0.00e+00	122	40	0	1828716544	44	6236
2026-01-03 01:04:39.83	325.70	26.17	-36.1	-37.0	23.9	0.00e+00	123	40	0	1831862272	44	6236
2026-01-03 01:04:40.84	325.82	26.02	-36.2	-37.1	23.8	0.00e+00	123	40	0	1835008000	44	6338
2026-01-03 01:04:41.85	325.93	25.87	-36.1	-37.0	23.9	0.00e+00	123	40	0	1838153728	44	6257
2026-01-03 01:04:42.86	326.05	25.72	-36.1	-37.1	23.9	0.00e+00	120	40	0	1841299456	44	6284
2026-01-03 01:04:43.87	326.17	25.57	-35.7	-36.6	24.2	0.00e+00	123	40	0	1844445184	44	5991
2026-01-03 01:04:44.88	326.28	25.42	-35.8	-36.7	24.3	0.00e+00	122	40	0	1847590912	44	6011
2026-01-03 01:04:45.89	326.39	25.27	-35.7	-36.7	24.3	0.00e+00	121	40	0	1850736640	44	5995
2026-01-03 01:04:46.90	326.51	25.12	-35.7	-36.6	24.4	0.00e+00	122	40	0	1853882368	44	5938
2026-01-03 01:04:47.91	326.62	24.97	-35.6	-36.5	24.4	0.00e+00	123	40	0	1857028096	44	5918
2026-01-03 01:04:48.92	326.73	24.82	-35.8	-36.7	24.4	0.00e+00	122	40	0	1860173824	44	6026
2026-01-03 01:04:49.93	326.84	24.67	-35.5	-36.4	24.5	0.00e+00	123	40	0	1863319552	44	5829
2026-01-03 01:04:50.94	326.95	24.53	-35.5	-36.4	24.5	0.00e+00	123	40	0	1866465280	44	5816
2026-01-03 01:04:51.95	327.06	24.38	-35.6	-36.5	24.4	0.00e+00	122	40	0	1869611008	44	5926
2026-01-03 01:04:52.96	327.16	24.24	-35.5	-36.4	24.6	0.00e+00	122	40	0	1872756736	44	5855
2026-01-03 01:04:53.98	327.27	24.09	-35.6	-36.5	24.5	0.00e+00	123	40	0	1875902464	44	5879
2026-01-03 01:04:54.99	327.37	23.95	-35.6	-36.5	24.5	0.00e+00	120	40	0	1879048192	44	5903
2026-01-03 01:04:56.00	327.48	23.81	-35.7	-36.5	24.4	0.00e+00	122	40	0	1882193920	44	5926
2026-01-03 01:04:57.00	327.58	23.67	-35.7	-36.6	24.4	0.00e+00	123	40	0	1885339648	44	5974
2026-01-03 01:04:58.01	327.68	23.52	-35.8	-36.7	24.4	0.00e+00	122	40	0	1888485376	44	6019
2026-01-03 01:04:59.02	327.78	23.38	-35.8	-36.7	24.4	0.00e+00	123	40	0	1891631104	44	6049
2026-01-03 01:05:00.03	327.88	23.24	-35.8	-36.7	24.4	0.00e+00	122	40	0	1894776832	44	6006
2026-01-03 01:05:01.04	327.98	23.11	-35.8	-36.7	24.4	0.00e+00	120	40	0	1897922560	44	6047
2026-01-03 01:05:02.05	328.08	22.97	-35.9	-36.8	24.2	0.00e+00	123	40	0	1901068288	44	6134
2026-01-03 01:05:03.06	328.18	22.83	-36.0	-36.9	24.2	0.00e+00	122	40	0	1904214016	44	6195
2026-01-03 01:05:04.07	328.28	22.69	-36.0	-36.9	24.2	0.00e+00	122	40	0	1907359744	44	6141
2026-01-03 01:05:05.08	328.37	22.56	-36.0	-36.9	24.2	0.00e+00	123	40	0	1910505472	44	6202
2026-01-03 01:05:06.09	328.47	22.42	-36.1	-37.0	24.0	0.00e+00	122	40	0	1913651200	44	6273
2026-01-03 01:05:07.10	328.56	22.28	-36.2	-37.1	24.0	0.00e+00	120	40	0	1916796928	44	6311
2026-01-03 01:05:08.11	328.66	22.15	-36.1	-37.0	24.1	0.00e+00	123	40	0	1919942656	44	6275
2026-01-03 01:05:09.12	328.75	22.02	-36.1	-37.0	24.2	0.00e+00	123	40	0	1923088384	44	6249
2026-01-03 01:05:10.13	328.84	21.88	-36.1	-37.0	24.1	0.00e+00	122	40	0	1926234112	44	6220
2026-01-03 01:05:11.14	328.94	21.75	-35.9	-36.8	24.2	0.00e+00	122	40	0	1929379840	44	6104
2026-01-03 01:05:12.15	329.03	21.62	-35.9	-36.9	24.1	0.00e+00	123	40	0	1932525568	44	6143
2026-01-03 01:05:13.16	329.12	21.49	-36.0	-36.9	24.0	0.00e+00	122	40	0	1935671296	44	6169
2026-01-03 01:05:14.17	329.21	21.36	-36.0	-36.9	24.1	0.00e+00	123	40	0	1938817024	44	6145
2026-01-03 01:05:15.18	329.30	21.22	-35.9	-36.8	24.1	0.00e+00	122	40	0	1941962752	44	6130
2026-01-03 01:05:16.19	329.38	21.10	-35.8	-36.7	24.1	0.00e+00	120	40	0	1945108480	44	6059
2026-01-03 01:05:17.20	329.47	20.97	-35.8	-36.7	24.2	0.00e+00	123	39	0	1948254208	44	6016
2026-01-03 01:05:18.21	329.56	20.84	-35.7	-36.6	24.2	0.00e+00	120	40	0	1951399936	44	5993
2026-01-03 01:05:19.22	329.64	20.71	-35.8	-36.7	24.2	0.00e+00	122	40	0	1954545664	44	6025
2026-01-03 01:05:20.23	329.73	20.58	-35.7	-36.6	24.3	0.00e+00	120	40	0	1957691392	44	5946
