passes_logs/2026/01/03/R4.6S_Anadyr/R4.6S_Anadyr__20260103_200750_SUOMI_NPP_rec.log

#Pass ID: 20260103_200750_SUOMI NPP
#Satellite: SUOMI NPP
#Configuration: NPP
#almurnet v.1.7.20251203
#Start time: 2026-01-03 20:07:52

#Version: 2.2.20231116
#Station: R4.6S_Anadyr
#Location: 177.4865 lon 64.73178 lat
#TLE: 1 37849U 11061A   26001.07732418  .00000182  00000+0  10735-3 0  9990
#TLE: 2 37849  98.7795 303.2470 0002580  87.2016 272.9455 14.19520779734739

#Time	Az	El	Level	Level2	SNR	BER	BlckErr	Temp	State	Recorded	gain1	gain2
2026-01-03 20:07:52.91	63.18	0.11	-50.3	-62.0	3.5	8.45e-01	0	36	0	0	60	45601
2026-01-03 20:07:53.92	63.11	0.16	-52.1	-67.3	3.6	1.51e+00	0	37	104	0	60	83697
2026-01-03 20:07:54.93	63.03	0.21	-52.4	-67.6	3.6	1.51e+00	0	38	104	0	60	86947
2026-01-03 20:07:55.93	62.96	0.26	-51.8	-66.9	3.6	1.51e+00	0	37	104	0	60	80196
2026-01-03 20:07:56.94	62.88	0.31	-51.1	-66.4	3.6	1.51e+00	0	38	104	0	60	75267
2026-01-03 20:07:57.95	62.81	0.36	-51.0	-66.2	3.6	1.51e+00	0	38	104	0	60	74102
2026-01-03 20:07:58.96	62.73	0.41	-51.0	-66.2	3.6	1.51e+00	0	38	104	0	60	73469
2026-01-03 20:07:59.97	62.65	0.46	-50.6	-65.8	3.6	1.51e+00	0	38	104	0	60	70115
2026-01-03 20:08:00.98	62.58	0.51	-50.3	-65.5	3.6	1.51e+00	0	38	104	0	60	68383
2026-01-03 20:08:01.99	62.50	0.56	-50.2	-65.4	3.6	1.51e+00	0	38	104	0	60	67195
2026-01-03 20:08:03.00	62.42	0.61	-50.2	-65.4	3.6	1.51e+00	0	38	104	0	60	67282
2026-01-03 20:08:04.01	62.34	0.66	-50.0	-65.2	3.6	1.51e+00	0	38	104	0	60	65876
2026-01-03 20:08:05.02	62.26	0.71	-49.8	-65.0	3.6	1.51e+00	0	38	104	0	60	64279
2026-01-03 20:08:06.03	62.19	0.76	-49.5	-64.7	3.6	1.51e+00	0	38	104	0	60	61784
2026-01-03 20:08:07.04	62.11	0.81	-49.3	-64.5	3.6	1.51e+00	0	38	104	0	60	60643
2026-01-03 20:08:08.04	62.03	0.85	-49.2	-64.4	3.6	1.51e+00	0	38	104	0	60	60283
2026-01-03 20:08:09.05	61.95	0.90	-49.0	-64.2	3.6	1.51e+00	0	38	104	0	60	58642
2026-01-03 20:08:10.06	61.87	0.95	-48.5	-63.7	3.6	1.51e+00	0	38	104	0	60	55485
2026-01-03 20:08:11.07	61.79	1.00	-48.5	-63.7	3.6	1.51e+00	0	38	104	0	60	55299
2026-01-03 20:08:12.08	61.71	1.05	-48.4	-63.6	3.6	1.51e+00	0	38	104	0	60	54578
2026-01-03 20:08:13.09	61.63	1.10	-48.4	-63.6	3.6	1.51e+00	0	38	104	0	60	54571
2026-01-03 20:08:14.10	61.55	1.15	-48.4	-63.5	3.6	1.51e+00	0	38	104	0	60	54224
2026-01-03 20:08:15.11	61.47	1.20	-48.6	-63.8	3.6	1.51e+00	0	38	104	0	60	55723
2026-01-03 20:08:16.12	61.39	1.25	-48.5	-63.7	3.6	1.51e+00	0	38	104	0	60	55417
2026-01-03 20:08:17.13	61.30	1.30	-48.5	-63.6	3.6	1.51e+00	0	38	104	0	60	54836
2026-01-03 20:08:18.14	61.22	1.35	-48.6	-63.7	3.6	1.51e+00	0	38	104	0	60	55545
2026-01-03 20:08:19.15	61.14	1.41	-48.6	-63.8	3.6	1.51e+00	0	38	104	0	60	55787
2026-01-03 20:08:20.16	61.06	1.46	-48.5	-63.7	3.6	1.51e+00	0	38	104	0	60	55311
2026-01-03 20:08:21.17	60.97	1.51	-48.6	-63.8	3.6	1.51e+00	0	38	104	0	60	55783
2026-01-03 20:08:22.18	60.89	1.56	-48.7	-63.9	3.6	1.51e+00	0	38	104	0	60	56523
2026-01-03 20:08:23.19	60.81	1.61	-48.6	-63.7	3.6	1.51e+00	0	38	104	0	60	55476
2026-01-03 20:08:24.20	60.72	1.66	-48.7	-63.8	3.6	1.51e+00	0	38	104	0	60	56303
2026-01-03 20:08:25.21	60.64	1.71	-48.6	-63.8	3.6	1.51e+00	0	38	104	0	60	55795
2026-01-03 20:08:26.22	60.56	1.76	-48.7	-63.7	3.6	1.51e+00	0	38	104	0	60	55549
2026-01-03 20:08:27.23	60.47	1.81	-48.9	-64.1	3.6	1.51e+00	0	38	104	0	60	57622
2026-01-03 20:08:28.24	60.39	1.86	-49.4	-64.5	3.6	1.51e+00	0	38	104	0	60	60914
2026-01-03 20:08:29.25	60.30	1.91	-49.1	-64.2	3.5	1.51e+00	0	38	104	0	60	58424
2026-01-03 20:08:30.26	60.22	1.96	-49.0	-64.0	3.6	1.51e+00	0	38	104	0	60	57504
2026-01-03 20:08:31.27	60.13	2.01	-49.1	-64.2	3.6	1.51e+00	0	38	104	0	60	58797
2026-01-03 20:08:32.29	60.04	2.06	-48.8	-63.7	3.6	1.51e+00	0	38	104	0	60	55083
2026-01-03 20:08:33.29	59.96	2.11	-48.7	-63.5	3.6	1.51e+00	0	38	104	0	60	54257
2026-01-03 20:08:34.30	59.87	2.16	-48.8	-63.6	3.6	1.51e+00	0	38	104	0	60	54815
2026-01-03 20:08:35.31	59.78	2.21	-48.9	-63.8	3.6	1.51e+00	0	38	104	0	60	56004
2026-01-03 20:08:36.32	59.70	2.26	-48.7	-63.9	3.6	1.51e+00	0	38	104	0	60	56408
2026-01-03 20:08:37.33	59.61	2.31	-48.8	-64.0	3.6	1.51e+00	0	38	104	0	60	57100
2026-01-03 20:08:38.34	59.52	2.37	-48.9	-64.0	3.6	1.51e+00	0	38	104	0	60	57532
2026-01-03 20:08:39.35	59.43	2.42	-48.6	-63.8	3.6	1.51e+00	0	38	104	0	60	55888
2026-01-03 20:08:40.36	59.34	2.47	-48.6	-63.6	3.6	1.51e+00	0	38	104	0	60	54935
2026-01-03 20:08:41.37	59.26	2.52	-48.6	-63.7	3.6	1.51e+00	0	38	104	0	60	55539
2026-01-03 20:08:42.38	59.17	2.57	-48.6	-63.7	3.6	1.51e+00	0	38	104	0	60	55418
2026-01-03 20:08:43.39	59.08	2.62	-48.7	-63.2	3.6	1.51e+00	0	38	104	0	60	52035
2026-01-03 20:08:44.40	58.99	2.67	-48.7	-62.7	3.6	1.51e+00	0	38	104	0	60	49458
2026-01-03 20:08:45.41	58.90	2.72	-48.5	-62.5	3.6	1.51e+00	0	38	104	0	60	48031
2026-01-03 20:08:46.42	58.81	2.77	-48.4	-62.7	3.6	1.51e+00	0	38	104	0	60	49273
2026-01-03 20:08:47.43	58.72	2.82	-48.5	-63.2	3.6	1.51e+00	0	38	104	0	60	52217
2026-01-03 20:08:48.44	58.62	2.87	-48.6	-63.1	3.6	1.51e+00	0	39	104	0	60	51855
2026-01-03 20:08:49.44	58.53	2.93	-48.2	-56.4	5.8	5.30e-01	0	39	0	0	60	23998
2026-01-03 20:08:50.46	58.44	2.98	-48.3	-56.4	5.4	5.04e-01	92	38	0	2097152	60	24002
2026-01-03 20:08:51.47	58.35	3.03	-47.6	-53.3	6.8	2.84e-01	56	39	0	3145728	60	16726
2026-01-03 20:08:52.48	58.26	3.08	-48.9	-63.9	3.6	1.51e+00	0	39	104	3145728	60	56663
2026-01-03 20:08:53.49	58.16	3.13	-46.0	-49.7	10.1	1.94e-01	44	38	104	3145728	60	11014
2026-01-03 20:08:54.49	58.07	3.18	-48.7	-63.8	3.6	1.51e+00	0	39	104	3145728	60	56067
2026-01-03 20:08:55.50	57.98	3.23	-47.5	-53.1	5.5	1.50e+00	0	39	104	3145728	60	16312
2026-01-03 20:08:56.51	57.88	3.28	-45.8	-49.3	13.3	0.00e+00	0	39	0	3145728	60	10487
2026-01-03 20:08:57.52	57.79	3.33	-44.3	-46.4	16.1	0.00e+00	88	38	0	4194304	60	7542
2026-01-03 20:08:58.53	57.70	3.39	-44.7	-47.1	16.2	0.00e+00	92	39	0	6291456	60	8145
2026-01-03 20:08:59.54	57.60	3.44	-44.9	-47.5	15.5	0.00e+00	0	39	0	8388608	60	8592
2026-01-03 20:09:00.55	57.51	3.49	-44.3	-46.6	16.2	0.00e+00	54	39	0	10485760	60	7750
2026-01-03 20:09:01.56	57.41	3.54	-44.5	-46.9	16.0	0.00e+00	0	39	0	12582912	60	7975
2026-01-03 20:09:02.57	57.31	3.59	-44.5	-46.9	16.1	0.00e+00	88	39	0	13631488	60	7957
2026-01-03 20:09:03.57	57.22	3.64	-44.4	-46.7	16.2	0.00e+00	0	39	0	15728640	60	7806
2026-01-03 20:09:04.58	57.12	3.69	-44.4	-46.8	16.1	0.00e+00	90	38	0	17825792	60	7942
2026-01-03 20:09:05.59	57.03	3.75	-44.0	-46.1	16.9	0.00e+00	54	39	0	19922944	60	7328
2026-01-03 20:09:06.60	56.93	3.80	-44.3	-46.6	16.3	0.00e+00	0	39	0	22020096	60	7752
2026-01-03 20:09:07.61	56.83	3.85	-44.5	-46.7	16.4	0.00e+00	68	38	0	23068672	60	7836
2026-01-03 20:09:08.62	56.73	3.90	-44.1	-46.2	16.9	0.00e+00	0	38	0	25165824	60	7367
2026-01-03 20:09:09.63	56.63	3.95	-44.1	-46.2	16.7	0.00e+00	92	39	0	27262976	60	7391
2026-01-03 20:09:10.64	56.54	4.00	-43.8	-45.8	17.3	0.00e+00	0	39	0	29360128	60	7043
2026-01-03 20:09:11.65	56.44	4.05	-44.0	-46.1	16.8	0.00e+00	84	39	0	31457280	60	7314
2026-01-03 20:09:12.65	56.34	4.11	-43.6	-45.6	17.4	0.00e+00	41	39	0	32505856	60	6915
2026-01-03 20:09:13.66	56.24	4.16	-43.7	-45.7	17.3	0.00e+00	0	38	0	34603008	60	6940
2026-01-03 20:09:14.67	56.14	4.21	-43.7	-45.7	17.2	0.00e+00	92	39	0	36700160	60	6954
2026-01-03 20:09:15.68	56.04	4.26	-43.7	-45.8	17.2	0.00e+00	0	38	0	38797312	60	7023
2026-01-03 20:09:16.69	55.94	4.31	-43.9	-45.9	17.0	0.00e+00	90	39	0	40894464	60	7153
2026-01-03 20:09:17.70	55.84	4.36	-43.8	-45.9	17.1	0.00e+00	0	39	0	41943040	60	7096
2026-01-03 20:09:18.71	55.73	4.42	-43.3	-45.2	17.6	0.00e+00	87	39	0	44040192	60	6582
2026-01-03 20:09:19.72	55.63	4.47	-43.9	-45.9	17.4	0.00e+00	9	39	0	46137344	60	7161
2026-01-03 20:09:20.72	55.53	4.52	-43.6	-45.6	17.4	0.00e+00	0	39	0	48234496	60	6879
2026-01-03 20:09:21.73	55.43	4.57	-43.7	-45.6	17.5	0.00e+00	92	39	0	50331648	60	6916
2026-01-03 20:09:22.74	55.33	4.62	-43.4	-45.3	17.8	0.00e+00	0	38	0	51380224	60	6644
2026-01-03 20:09:23.75	55.22	4.67	-43.5	-45.4	17.6	0.00e+00	92	38	0	53477376	60	6720
2026-01-03 20:09:24.75	55.12	4.73	-43.4	-45.2	17.4	0.00e+00	0	39	0	55574528	60	6595
2026-01-03 20:09:25.76	55.02	4.78	-44.5	-46.7	16.6	0.00e+00	92	39	0	57671680	60	7862
2026-01-03 20:09:26.77	54.91	4.83	-43.6	-45.4	17.6	0.00e+00	0	39	0	59768832	60	6759
2026-01-03 20:09:27.78	54.81	4.88	-43.7	-45.7	17.5	0.00e+00	14	39	0	61865984	60	6953
2026-01-03 20:09:28.79	54.70	4.93	-43.2	-45.1	18.1	0.00e+00	92	39	0	62914560	60	6472
2026-01-03 20:09:29.80	54.59	4.98	-43.3	-45.1	18.0	0.00e+00	0	39	0	65011712	60	6499
2026-01-03 20:09:30.80	54.49	5.04	-43.7	-45.7	17.4	0.00e+00	19	39	0	67108864	60	6964
2026-01-03 20:09:31.81	54.38	5.09	-43.6	-45.4	17.9	0.00e+00	0	39	0	69206016	60	6754
2026-01-03 20:09:32.82	54.28	5.14	-43.7	-45.6	17.1	0.00e+00	92	39	0	70254592	60	6862
2026-01-03 20:09:33.83	54.17	5.19	-43.5	-45.4	17.7	0.00e+00	0	39	0	72351744	60	6697
2026-01-03 20:09:34.84	54.06	5.24	-43.6	-45.5	17.7	0.00e+00	34	39	0	74448896	60	6814
2026-01-03 20:09:35.85	53.95	5.30	-43.5	-45.4	17.7	0.00e+00	92	39	0	76546048	60	6707
2026-01-03 20:09:36.86	53.84	5.35	-43.5	-45.4	17.7	0.00e+00	0	39	0	78643200	60	6756
2026-01-03 20:09:37.87	53.74	5.40	-43.4	-45.3	17.8	0.00e+00	0	39	0	79691776	60	6616
2026-01-03 20:09:38.88	53.63	5.45	-43.7	-45.6	17.5	0.00e+00	0	39	0	81788928	60	6901
2026-01-03 20:09:39.88	53.52	5.50	-43.5	-45.5	17.7	0.00e+00	90	39	0	83886080	60	6788
2026-01-03 20:09:40.89	53.41	5.55	-43.8	-45.7	17.8	0.00e+00	0	39	0	85983232	60	7001
2026-01-03 20:09:41.90	53.30	5.61	-43.9	-45.8	18.0	0.00e+00	88	39	0	88080384	60	7054
2026-01-03 20:09:42.91	53.19	5.66	-43.5	-45.3	18.0	0.00e+00	0	39	0	90177536	60	6658
2026-01-03 20:09:43.91	53.08	5.71	-43.3	-45.0	18.2	0.00e+00	0	39	0	91226112	60	6448
2026-01-03 20:09:44.92	52.96	5.76	-43.3	-45.1	17.9	0.00e+00	91	39	0	93323264	60	6498
2026-01-03 20:09:45.93	52.85	5.81	-43.1	-44.9	18.3	0.00e+00	0	39	0	95420416	60	6340
2026-01-03 20:09:46.94	52.74	5.86	-43.1	-44.9	18.2	0.00e+00	62	39	0	97517568	60	6336
2026-01-03 20:09:47.95	52.63	5.92	-43.7	-45.6	17.8	0.00e+00	0	39	0	99614720	60	6910
2026-01-03 20:09:48.96	52.51	5.97	-43.0	-44.7	17.4	0.00e+00	92	39	0	100663296	60	6217
2026-01-03 20:09:49.96	52.40	6.02	-43.3	-45.0	18.3	0.00e+00	0	39	0	102760448	60	6457
2026-01-03 20:09:50.97	52.29	6.07	-42.4	-43.9	19.0	0.00e+00	0	39	0	104857600	58	6356
2026-01-03 20:09:51.98	52.17	6.12	-42.8	-44.5	18.7	0.00e+00	92	39	0	106954752	58	6783
2026-01-03 20:09:52.99	52.06	6.18	-42.7	-44.3	19.1	0.00e+00	0	39	0	109051904	60	5943
2026-01-03 20:09:54.00	51.94	6.23	-43.1	-44.7	18.3	0.00e+00	63	39	0	110100480	58	7005
2026-01-03 20:09:55.00	51.83	6.28	-42.5	-44.0	19.4	0.00e+00	0	39	0	112197632	58	6463
2026-01-03 20:09:56.01	51.71	6.33	-43.1	-44.7	18.7	0.00e+00	92	39	0	114294784	60	6233
2026-01-03 20:09:57.03	51.59	6.38	-43.2	-44.9	18.1	3.66e-05	0	39	0	116391936	58	7116
2026-01-03 20:09:58.03	51.48	6.43	-42.8	-44.4	19.0	0.00e+00	0	39	0	118489088	58	6719
2026-01-03 20:09:59.04	51.36	6.49	-42.7	-44.2	18.6	0.00e+00	61	39	0	119537664	60	5895
2026-01-03 20:10:00.05	51.24	6.54	-42.6	-44.2	18.8	0.00e+00	0	39	0	121634816	58	6584
2026-01-03 20:10:01.06	51.12	6.59	-42.9	-44.5	18.6	0.00e+00	62	39	0	123731968	60	6042
2026-01-03 20:10:02.07	51.00	6.64	-43.7	-45.5	19.2	0.00e+00	0	39	0	125829120	58	7682
2026-01-03 20:10:03.08	50.89	6.69	-42.7	-44.2	18.4	0.00e+00	73	39	0	127926272	60	5873
2026-01-03 20:10:04.09	50.77	6.75	-43.0	-44.6	18.6	0.00e+00	0	39	0	128974848	58	6910
2026-01-03 20:10:05.10	50.65	6.80	-42.9	-44.6	18.5	0.00e+00	61	39	0	131072000	58	6880
2026-01-03 20:10:06.11	50.52	6.85	-43.3	-45.0	16.7	2.20e-06	30	39	0	133169152	60	6429
2026-01-03 20:10:07.12	50.40	6.90	-43.1	-44.8	18.3	0.00e+00	0	39	0	135266304	58	7051
2026-01-03 20:10:08.13	50.28	6.95	-43.1	-44.7	18.6	0.00e+00	90	39	0	137363456	60	6190
2026-01-03 20:10:09.14	50.16	7.00	-46.7	-50.3	13.7	0.00e+00	0	39	0	138412032	60	11841
2026-01-03 20:10:10.15	50.04	7.06	-46.2	-49.0	15.3	0.00e+00	45	39	0	140509184	60	10242
2026-01-03 20:10:11.15	49.92	7.11	-43.3	-44.9	18.6	0.00e+00	0	39	0	142606336	60	6370
2026-01-03 20:10:12.16	49.79	7.16	-43.9	-45.7	17.8	0.00e+00	84	39	0	144703488	60	6968
2026-01-03 20:10:13.17	49.67	7.21	-43.3	-44.9	17.6	0.00e+00	60	39	0	146800640	60	6357
2026-01-03 20:10:14.18	49.55	7.26	-43.3	-45.0	18.4	0.00e+00	0	39	0	147849216	60	6463
2026-01-03 20:10:15.19	49.42	7.31	-42.6	-44.1	19.0	0.00e+00	79	39	0	149946368	58	6500
2026-01-03 20:10:16.20	49.30	7.37	-42.4	-43.9	19.1	0.00e+00	0	39	0	152043520	58	6368
2026-01-03 20:10:17.21	49.17	7.42	-42.5	-44.1	18.9	0.00e+00	92	39	0	154140672	58	6510
2026-01-03 20:10:18.22	49.04	7.47	-42.5	-44.1	19.1	0.00e+00	0	39	0	156237824	58	6470
2026-01-03 20:10:19.22	48.92	7.52	-42.7	-44.3	18.9	0.00e+00	92	39	0	158334976	58	6630
2026-01-03 20:10:20.23	48.79	7.57	-42.6	-44.2	18.9	0.00e+00	6	39	0	159383552	58	6553
2026-01-03 20:10:21.24	48.67	7.62	-42.4	-44.0	19.0	0.00e+00	0	39	0	161480704	58	6409
2026-01-03 20:10:22.25	48.54	7.67	-42.7	-44.3	18.9	0.00e+00	73	39	0	163577856	58	6628
2026-01-03 20:10:23.26	48.41	7.72	-43.4	-45.1	18.9	0.00e+00	0	39	0	165675008	60	6467
2026-01-03 20:10:24.27	48.28	7.78	-42.9	-44.4	19.0	0.00e+00	92	39	0	167772160	60	6026
2026-01-03 20:10:25.28	48.15	7.83	-43.3	-44.9	18.7	0.00e+00	0	39	0	168820736	60	6388
2026-01-03 20:10:26.29	48.02	7.88	-43.5	-45.3	18.2	0.00e+00	79	39	0	170917888	60	6620
2026-01-03 20:10:27.29	47.89	7.93	-42.8	-44.4	18.7	0.00e+00	25	39	0	173015040	58	6735
2026-01-03 20:10:28.30	47.76	7.98	-42.5	-44.0	19.1	0.00e+00	0	39	0	175112192	58	6427
2026-01-03 20:10:29.31	47.63	8.03	-42.5	-44.0	19.2	0.00e+00	78	39	0	176160768	58	6440
2026-01-03 20:10:30.32	47.50	8.08	-42.6	-44.0	19.3	0.00e+00	0	39	0	178257920	58	6458
2026-01-03 20:10:31.33	47.37	8.13	-42.6	-44.0	19.2	0.00e+00	92	39	0	180355072	58	6458
2026-01-03 20:10:32.34	47.24	8.18	-42.6	-44.1	19.2	0.00e+00	0	39	0	182452224	58	6539
2026-01-03 20:10:33.35	47.10	8.24	-42.4	-43.9	19.1	0.00e+00	92	39	0	184549376	58	6371
2026-01-03 20:10:34.36	46.97	8.29	-42.8	-44.4	19.1	0.00e+00	0	39	0	186646528	58	6724
2026-01-03 20:10:35.37	46.84	8.34	-42.8	-44.4	18.7	0.00e+00	17	39	0	187695104	58	6731
2026-01-03 20:10:36.38	46.70	8.39	-42.7	-44.2	19.1	0.00e+00	92	39	0	189792256	60	5840
2026-01-03 20:10:37.38	46.57	8.44	-42.6	-44.1	19.4	0.00e+00	0	39	0	191889408	58	6513
2026-01-03 20:10:38.39	46.43	8.49	-42.0	-43.4	19.9	0.00e+00	2	39	0	193986560	58	5971
2026-01-03 20:10:39.40	46.30	8.54	-42.0	-43.3	19.6	0.00e+00	0	39	0	196083712	58	5964
2026-01-03 20:10:40.41	46.16	8.59	-42.5	-44.0	19.2	0.00e+00	92	39	0	197132288	58	6451
2026-01-03 20:10:41.42	46.02	8.64	-42.0	-43.4	19.7	0.00e+00	0	39	0	199229440	58	6015
2026-01-03 20:10:42.43	45.89	8.69	-42.7	-44.2	19.2	0.00e+00	55	39	0	201326592	58	6604
2026-01-03 20:10:43.44	45.75	8.74	-42.8	-44.4	17.1	0.00e+00	58	39	0	203423744	58	6703
2026-01-03 20:10:44.45	45.61	8.79	-42.7	-44.3	19.2	0.00e+00	0	39	0	205520896	58	6636
2026-01-03 20:10:45.46	45.47	8.84	-43.2	-45.0	18.8	0.00e+00	27	39	0	206569472	58	7172
2026-01-03 20:10:46.47	45.33	8.89	-42.7	-44.2	18.8	0.00e+00	0	39	0	208666624	58	6592
2026-01-03 20:10:47.47	45.19	8.94	-43.0	-44.6	18.6	0.00e+00	71	39	0	210763776	60	6126
2026-01-03 20:10:48.48	45.05	8.99	-43.4	-45.0	18.6	0.00e+00	0	39	0	212860928	60	6457
2026-01-03 20:10:49.49	44.91	9.04	-43.5	-45.1	18.6	0.00e+00	82	39	0	214958080	60	6521
2026-01-03 20:10:50.50	44.77	9.09	-42.9	-44.4	19.2	0.00e+00	0	39	0	216006656	60	6025
2026-01-03 20:10:51.51	44.63	9.14	-42.9	-44.4	19.3	0.00e+00	0	39	0	218103808	60	5972
2026-01-03 20:10:52.52	44.49	9.19	-42.5	-44.0	19.4	0.00e+00	81	39	0	220200960	58	6407
2026-01-03 20:10:53.53	44.35	9.24	-42.2	-43.7	19.8	0.00e+00	0	39	0	222298112	58	6195
2026-01-03 20:10:54.54	44.20	9.29	-42.4	-43.9	19.4	0.00e+00	91	39	0	224395264	58	6322
2026-01-03 20:10:55.55	44.06	9.34	-42.3	-43.7	19.8	0.00e+00	0	39	0	225443840	58	6230
2026-01-03 20:10:56.56	43.91	9.39	-42.1	-43.6	19.8	0.00e+00	91	39	0	227540992	58	6108
2026-01-03 20:10:57.57	43.77	9.44	-42.2	-43.6	19.8	0.00e+00	0	39	0	229638144	58	6131
2026-01-03 20:10:58.57	43.63	9.49	-41.8	-43.1	20.2	0.00e+00	0	39	0	231735296	58	5796
2026-01-03 20:10:59.58	43.48	9.54	-41.9	-43.3	20.1	0.00e+00	58	39	0	233832448	58	5923
2026-01-03 20:11:00.59	43.33	9.59	-41.7	-43.0	20.4	0.00e+00	0	39	0	234881024	58	5719
2026-01-03 20:11:01.60	43.19	9.64	-41.8	-43.1	20.2	0.00e+00	92	39	0	236978176	56	6492
2026-01-03 20:11:02.61	43.04	9.69	-41.7	-43.0	19.8	0.00e+00	0	39	0	239075328	56	6451
2026-01-03 20:11:03.62	42.89	9.74	-41.8	-43.1	20.5	0.00e+00	0	39	0	241172480	56	6486
2026-01-03 20:11:04.63	42.75	9.78	-41.5	-42.8	20.8	0.00e+00	0	39	0	243269632	56	6267
2026-01-03 20:11:05.64	42.60	9.83	-41.5	-42.7	20.9	0.00e+00	0	39	0	244318208	56	6239
2026-01-03 20:11:06.65	42.45	9.88	-41.4	-42.7	20.8	0.00e+00	62	39	0	246415360	56	6196
2026-01-03 20:11:07.66	42.30	9.93	-41.2	-42.4	21.0	0.00e+00	0	39	0	248512512	56	6002
2026-01-03 20:11:08.67	42.15	9.98	-41.1	-42.3	21.0	0.00e+00	60	39	0	250609664	56	5961
2026-01-03 20:11:09.68	42.00	10.03	-40.8	-42.0	21.1	0.00e+00	0	39	0	252706816	56	5726
2026-01-03 20:11:10.69	41.85	10.08	-40.9	-42.0	21.3	0.00e+00	0	39	0	254803968	56	5750
2026-01-03 20:11:11.70	41.69	10.12	-40.6	-41.7	21.4	0.00e+00	0	39	0	255852544	54	6197
2026-01-03 20:11:12.71	41.54	10.17	-40.8	-41.9	21.4	0.00e+00	0	39	0	257949696	54	6355
2026-01-03 20:11:13.72	41.39	10.22	-40.7	-41.8	21.6	0.00e+00	23	39	0	260046848	54	6300
2026-01-03 20:11:14.72	41.24	10.27	-40.7	-41.8	21.3	0.00e+00	0	39	0	262144000	54	6254
2026-01-03 20:11:15.73	41.08	10.32	-40.6	-41.6	21.8	0.00e+00	69	39	0	264241152	56	5495
2026-01-03 20:11:16.74	40.93	10.36	-41.1	-42.3	21.6	0.00e+00	0	39	0	265289728	54	6636
2026-01-03 20:11:17.75	40.77	10.41	-41.0	-42.2	21.7	0.00e+00	0	39	0	267386880	54	6557
2026-01-03 20:11:18.76	40.62	10.46	-40.5	-41.6	21.8	0.00e+00	0	39	0	269484032	54	6105
2026-01-03 20:11:19.77	40.46	10.51	-40.5	-41.6	21.6	0.00e+00	0	39	0	271581184	54	6140
2026-01-03 20:11:20.78	40.31	10.55	-40.6	-41.8	21.5	0.00e+00	22	39	0	273678336	54	6269
2026-01-03 20:11:21.79	40.15	10.60	-40.5	-41.7	21.6	0.00e+00	0	39	0	274726912	54	6181
2026-01-03 20:11:22.80	39.99	10.65	-41.0	-42.2	21.1	0.00e+00	92	39	0	276824064	54	6542
2026-01-03 20:11:23.81	39.84	10.70	-40.9	-42.1	21.1	0.00e+00	0	39	0	278921216	54	6480
2026-01-03 20:11:24.82	39.68	10.74	-41.0	-42.2	21.0	0.00e+00	0	39	0	281018368	54	6582
2026-01-03 20:11:25.83	39.52	10.79	-40.8	-41.9	21.4	0.00e+00	0	39	0	283115520	54	6373
2026-01-03 20:11:26.83	39.36	10.83	-40.7	-41.8	21.5	0.00e+00	0	39	0	284164096	54	6303
2026-01-03 20:11:27.84	39.20	10.88	-40.6	-41.8	21.6	0.00e+00	20	39	0	286261248	54	6283
2026-01-03 20:11:28.85	39.04	10.93	-40.6	-41.8	21.4	0.00e+00	0	39	0	288358400	54	6277
2026-01-03 20:11:29.86	38.88	10.97	-40.7	-41.9	21.4	0.00e+00	92	39	0	290455552	54	6340
2026-01-03 20:11:30.87	38.72	11.02	-40.4	-41.5	21.6	0.00e+00	0	39	0	292552704	54	6067
2026-01-03 20:11:31.88	38.56	11.07	-40.3	-41.4	21.7	0.00e+00	63	39	0	293601280	54	5996
2026-01-03 20:11:32.89	38.39	11.11	-40.3	-41.4	22.0	0.00e+00	0	39	0	295698432	54	5998
2026-01-03 20:11:33.90	38.23	11.16	-39.9	-40.9	22.3	0.00e+00	0	39	0	297795584	54	5666
2026-01-03 20:11:34.90	38.07	11.20	-39.5	-40.4	22.6	0.00e+00	49	39	0	299892736	52	6026
2026-01-03 20:11:35.92	37.90	11.25	-39.4	-40.4	22.7	0.00e+00	0	39	0	301989888	52	5967
2026-01-03 20:11:36.93	37.74	11.29	-39.7	-40.7	22.4	0.00e+00	90	39	0	303038464	52	6198
2026-01-03 20:11:37.94	37.57	11.34	-39.8	-40.8	22.6	0.00e+00	0	39	0	305135616	52	6246
2026-01-03 20:11:38.94	37.41	11.38	-39.6	-40.6	22.6	0.00e+00	90	39	0	307232768	52	6160
2026-01-03 20:11:39.95	37.24	11.43	-39.8	-40.8	22.5	0.00e+00	0	39	0	309329920	52	6263
2026-01-03 20:11:40.96	37.08	11.47	-40.1	-41.1	22.1	0.00e+00	0	39	0	311427072	52	6527
2026-01-03 20:11:41.97	36.91	11.52	-40.0	-41.0	22.2	0.00e+00	0	39	0	312475648	52	6417
2026-01-03 20:11:42.98	36.74	11.56	-40.4	-41.5	21.9	0.00e+00	0	39	0	314572800	52	6822
2026-01-03 20:11:43.99	36.57	11.60	-40.1	-41.2	21.9	0.00e+00	18	39	0	316669952	52	6551
2026-01-03 20:11:44.99	36.41	11.65	-40.0	-41.1	21.9	0.00e+00	0	39	0	318767104	52	6480
2026-01-03 20:11:46.00	36.24	11.69	-39.7	-40.7	22.3	0.00e+00	64	39	0	320864256	52	6213
2026-01-03 20:11:47.01	36.07	11.74	-39.4	-40.3	22.7	0.00e+00	0	39	0	321912832	52	5960
2026-01-03 20:11:48.02	35.90	11.78	-39.5	-40.4	22.7	0.00e+00	0	39	0	324009984	52	6012
2026-01-03 20:11:49.03	35.73	11.82	-39.5	-40.4	22.6	0.00e+00	0	39	0	326107136	52	6013
2026-01-03 20:11:50.04	35.56	11.87	-39.5	-40.5	22.5	0.00e+00	0	39	0	328204288	52	6079
2026-01-03 20:11:51.04	35.39	11.91	-39.3	-40.2	23.0	0.00e+00	63	39	0	330301440	52	5884
2026-01-03 20:11:52.05	35.21	11.95	-39.5	-40.5	22.8	0.00e+00	0	39	0	331350016	52	6046
2026-01-03 20:11:53.06	35.04	11.99	-39.5	-40.5	22.6	0.00e+00	75	39	0	333447168	52	6077
2026-01-03 20:11:54.07	34.87	12.04	-39.5	-40.5	22.5	0.00e+00	0	39	0	335544320	52	6076
2026-01-03 20:11:55.08	34.69	12.08	-39.5	-40.5	22.4	0.00e+00	0	39	0	337641472	52	6097
2026-01-03 20:11:56.09	34.52	12.12	-39.8	-40.8	22.1	0.00e+00	0	39	0	339738624	52	6310
2026-01-03 20:11:57.10	34.34	12.16	-39.7	-40.7	22.4	0.00e+00	0	39	0	340787200	52	6207
2026-01-03 20:11:58.11	34.17	12.20	-39.9	-41.0	22.2	0.00e+00	0	39	0	342884352	52	6418
2026-01-03 20:11:59.12	33.99	12.25	-40.1	-41.2	22.1	0.00e+00	0	39	0	344981504	52	6595
2026-01-03 20:12:00.13	33.82	12.29	-40.2	-41.3	21.9	0.00e+00	28	39	0	347078656	52	6680
2026-01-03 20:12:01.14	33.64	12.33	-40.5	-41.7	21.2	0.00e+00	0	39	0	349175808	52	6941
2026-01-03 20:12:02.15	33.46	12.37	-40.2	-41.3	21.9	0.00e+00	11	39	0	351272960	52	6647
2026-01-03 20:12:03.15	33.29	12.41	-40.3	-41.4	21.9	0.00e+00	0	39	0	352321536	52	6695
2026-01-03 20:12:04.17	33.11	12.45	-40.4	-41.5	21.8	0.00e+00	0	39	0	354418688	52	6844
2026-01-03 20:12:05.17	32.93	12.49	-40.6	-41.7	21.6	0.00e+00	60	39	0	356515840	52	6958
2026-01-03 20:12:06.18	32.75	12.53	-40.5	-41.6	21.9	0.00e+00	0	39	0	358612992	52	6888
2026-01-03 20:12:07.19	32.57	12.57	-40.3	-41.4	21.9	0.00e+00	89	39	0	360710144	52	6712
2026-01-03 20:12:08.20	32.39	12.61	-39.9	-41.0	22.2	0.00e+00	33	39	0	361758720	52	6406
2026-01-03 20:12:09.21	32.21	12.65	-40.1	-41.2	22.2	0.00e+00	92	39	0	363855872	52	6575
2026-01-03 20:12:10.22	32.03	12.69	-40.6	-41.7	21.6	0.00e+00	0	39	0	365953024	52	6998
2026-01-03 20:12:11.23	31.85	12.73	-40.8	-42.0	21.5	0.00e+00	0	39	0	368050176	54	6432
2026-01-03 20:12:12.24	31.67	12.77	-40.7	-41.9	21.7	0.00e+00	0	39	0	370147328	54	6350
2026-01-03 20:12:13.25	31.48	12.80	-40.7	-41.8	21.4	0.00e+00	0	39	0	371195904	54	6309
2026-01-03 20:12:14.26	31.30	12.84	-40.2	-41.3	21.9	0.00e+00	81	39	0	373293056	54	5906
2026-01-03 20:12:15.27	31.12	12.88	-40.1	-41.1	22.0	0.00e+00	0	39	0	375390208	54	5826
2026-01-03 20:12:16.28	30.93	12.92	-39.7	-40.8	22.4	0.00e+00	92	39	0	377487360	52	6268
2026-01-03 20:12:17.29	30.75	12.96	-40.0	-41.0	22.4	0.00e+00	0	39	0	379584512	52	6417
2026-01-03 20:12:18.29	30.56	12.99	-39.7	-40.7	22.5	0.00e+00	0	39	0	380633088	52	6232
2026-01-03 20:12:19.30	30.38	13.03	-39.6	-40.6	22.7	0.00e+00	0	39	0	382730240	52	6164
2026-01-03 20:12:20.31	30.19	13.07	-39.4	-40.4	22.7	0.00e+00	0	39	0	384827392	52	6003
2026-01-03 20:12:21.32	30.01	13.10	-39.5	-40.5	22.6	0.00e+00	65	39	0	386924544	52	6038
2026-01-03 20:12:22.33	29.82	13.14	-39.6	-40.6	22.6	0.00e+00	0	39	0	389021696	52	6132
2026-01-03 20:12:23.34	29.63	13.18	-39.8	-40.8	22.4	0.00e+00	79	39	0	390070272	52	6270
2026-01-03 20:12:24.35	29.44	13.21	-39.9	-41.0	22.2	0.00e+00	0	39	0	392167424	52	6424
2026-01-03 20:12:25.35	29.26	13.25	-39.9	-41.0	22.2	0.00e+00	0	39	0	394264576	52	6416
2026-01-03 20:12:26.36	29.07	13.28	-40.9	-42.0	21.8	0.00e+00	0	39	0	396361728	54	6418
2026-01-03 20:12:27.37	28.88	13.32	-39.9	-40.9	22.3	0.00e+00	0	39	0	398458880	54	5669
2026-01-03 20:12:28.38	28.69	13.35	-39.8	-40.8	22.6	0.00e+00	63	39	0	399507456	54	5569
2026-01-03 20:12:29.38	28.50	13.39	-40.1	-41.1	22.1	0.00e+00	0	39	0	401604608	52	6524
2026-01-03 20:12:30.39	28.31	13.42	-39.7	-40.7	22.4	0.00e+00	72	39	0	403701760	52	6182
2026-01-03 20:12:31.40	28.12	13.45	-40.5	-41.6	22.1	0.00e+00	0	39	0	405798912	52	6879
2026-01-03 20:12:32.41	27.93	13.49	-40.1	-41.1	22.1	0.00e+00	0	39	0	407896064	52	6512
2026-01-03 20:12:33.42	27.74	13.52	-40.2	-41.2	22.1	0.00e+00	0	39	0	408944640	52	6613
2026-01-03 20:12:34.42	27.55	13.55	-40.9	-42.1	21.7	0.00e+00	0	39	0	411041792	54	6466
2026-01-03 20:12:35.43	27.35	13.59	-41.1	-42.3	21.5	0.00e+00	64	39	0	413138944	54	6643
2026-01-03 20:12:36.44	27.16	13.62	-40.8	-41.9	21.7	0.00e+00	0	39	0	415236096	54	6363
2026-01-03 20:12:37.45	26.97	13.65	-40.5	-41.7	21.6	0.00e+00	56	39	0	417333248	54	6176
2026-01-03 20:12:38.46	26.77	13.68	-40.8	-42.0	21.6	0.00e+00	0	39	0	418381824	54	6412
2026-01-03 20:12:39.47	26.58	13.72	-40.7	-41.8	21.7	0.00e+00	64	39	0	420478976	54	6302
2026-01-03 20:12:40.48	26.38	13.75	-40.3	-41.4	21.8	0.00e+00	0	39	0	422576128	54	6001
2026-01-03 20:12:41.49	26.19	13.78	-39.9	-40.9	22.3	0.00e+00	0	39	0	424673280	54	5673
2026-01-03 20:12:42.50	25.99	13.81	-39.5	-40.5	22.5	0.00e+00	0	39	0	426770432	52	6062
2026-01-03 20:12:43.51	25.80	13.84	-39.3	-40.3	22.1	0.00e+00	0	39	0	427819008	52	5928
2026-01-03 20:12:44.52	25.60	13.87	-38.9	-39.9	23.0	0.00e+00	26	39	0	429916160	52	5634
2026-01-03 20:12:45.53	25.40	13.90	-39.2	-40.2	22.5	0.00e+00	0	39	0	432013312	52	5831
2026-01-03 20:12:46.54	25.21	13.93	-40.5	-41.5	20.6	0.00e+00	59	39	0	434110464	54	6088
2026-01-03 20:12:47.55	25.01	13.96	-39.2	-40.1	22.9	0.00e+00	0	39	0	436207616	52	5801
2026-01-03 20:12:48.56	24.81	13.99	-40.1	-41.1	22.1	0.00e+00	0	39	0	437256192	52	6539
2026-01-03 20:12:49.56	24.61	14.02	-39.5	-40.4	22.6	0.00e+00	0	39	0	439353344	52	6030
2026-01-03 20:12:50.58	24.41	14.05	-39.2	-40.2	22.8	0.00e+00	0	39	0	441450496	52	5850
2026-01-03 20:12:51.58	24.21	14.08	-39.7	-40.7	22.5	0.00e+00	60	39	0	443547648	52	6236
2026-01-03 20:12:52.59	24.02	14.10	-39.4	-40.4	22.7	0.00e+00	0	39	0	445644800	52	5965
2026-01-03 20:12:53.60	23.82	14.13	-39.5	-40.5	22.5	0.00e+00	60	39	0	447741952	52	6055
2026-01-03 20:12:54.61	23.61	14.16	-39.4	-40.4	22.5	0.00e+00	0	39	0	448790528	52	5987
2026-01-03 20:12:55.62	23.41	14.19	-38.9	-39.8	23.1	0.00e+00	0	39	0	450887680	52	5619
2026-01-03 20:12:56.63	23.21	14.21	-38.9	-39.9	22.9	0.00e+00	0	39	0	452984832	52	5631
2026-01-03 20:12:57.64	23.01	14.24	-39.0	-40.0	22.9	0.00e+00	0	39	0	455081984	52	5699
2026-01-03 20:12:58.65	22.81	14.26	-39.3	-40.3	22.9	0.00e+00	60	39	0	457179136	52	5906
2026-01-03 20:12:59.66	22.61	14.29	-39.8	-40.8	22.3	0.00e+00	0	39	0	458227712	52	6269
2026-01-03 20:13:00.67	22.40	14.32	-40.1	-41.2	22.1	0.00e+00	77	39	0	460324864	52	6540
2026-01-03 20:13:01.67	22.20	14.34	-40.5	-41.6	21.9	0.00e+00	0	39	0	462422016	52	6880
2026-01-03 20:13:02.68	22.00	14.36	-40.4	-41.5	21.9	0.00e+00	0	39	0	464519168	52	6781
2026-01-03 20:13:03.69	21.80	14.39	-40.7	-41.9	21.3	0.00e+00	0	39	0	466616320	52	7120
2026-01-03 20:13:04.70	21.59	14.41	-40.5	-41.5	21.9	0.00e+00	0	39	0	467664896	54	6103
2026-01-03 20:13:05.71	21.39	14.44	-40.3	-41.4	21.8	0.00e+00	0	39	0	469762048	54	6014
2026-01-03 20:13:06.72	21.18	14.46	-40.2	-41.3	22.0	0.00e+00	0	39	0	471859200	54	5899
2026-01-03 20:13:07.73	20.98	14.48	-40.4	-41.5	21.8	0.00e+00	90	39	0	473956352	54	6054
2026-01-03 20:13:08.74	20.77	14.51	-41.7	-42.9	21.6	0.00e+00	0	39	0	476053504	56	6368
2026-01-03 20:13:09.75	20.57	14.53	-40.7	-41.8	21.4	0.00e+00	0	39	0	477102080	54	6313
2026-01-03 20:13:10.76	20.36	14.55	-40.5	-41.6	21.8	0.00e+00	0	39	0	479199232	54	6136
2026-01-03 20:13:11.77	20.16	14.57	-40.2	-41.3	21.9	0.00e+00	0	39	0	481296384	54	5930
2026-01-03 20:13:12.78	19.95	14.59	-40.0	-41.1	22.1	0.00e+00	62	39	0	483393536	54	5767
2026-01-03 20:13:13.79	19.74	14.61	-40.4	-41.5	21.8	0.00e+00	0	39	0	485490688	54	6084
2026-01-03 20:13:14.79	19.54	14.63	-40.1	-41.2	22.0	0.00e+00	58	39	0	486539264	54	5873
2026-01-03 20:13:15.80	19.33	14.65	-41.3	-42.5	20.9	0.00e+00	0	39	0	488636416	54	6804
2026-01-03 20:13:16.81	19.12	14.67	-41.1	-42.3	18.4	0.00e+00	92	39	0	490733568	54	6662
2026-01-03 20:13:17.82	18.91	14.69	-42.0	-43.2	20.1	0.00e+00	0	39	0	492830720	56	6613
2026-01-03 20:13:18.83	18.71	14.71	-41.0	-42.1	21.2	0.00e+00	0	39	0	494927872	56	5803
2026-01-03 20:13:19.84	18.50	14.73	-41.4	-42.5	20.4	0.00e+00	0	39	0	495976448	56	6097
2026-01-03 20:13:20.85	18.29	14.75	-40.9	-42.0	20.8	0.00e+00	0	39	0	498073600	52	7236
2026-01-03 20:13:21.86	18.08	14.77	-41.6	-42.7	21.5	0.00e+00	50	39	0	500170752	54	7005
2026-01-03 20:13:22.87	17.87	14.79	-39.9	-40.9	22.5	0.00e+00	0	39	0	502267904	52	6334
2026-01-03 20:13:23.87	17.66	14.80	-40.1	-41.1	22.6	0.00e+00	80	39	0	504365056	54	5765
2026-01-03 20:13:24.88	17.45	14.82	-40.0	-41.0	22.7	0.00e+00	0	39	0	505413632	54	5707
2026-01-03 20:13:25.89	17.24	14.84	-39.8	-40.8	22.5	0.00e+00	0	39	0	507510784	52	6274
2026-01-03 20:13:26.90	17.03	14.85	-39.9	-40.9	22.0	0.00e+00	0	39	0	509607936	52	6387
2026-01-03 20:13:27.91	16.82	14.87	-40.2	-41.2	21.6	0.00e+00	0	39	0	511705088	56	5220
2026-01-03 20:13:28.92	16.61	14.88	-42.4	-43.8	21.3	0.00e+00	24	39	0	513802240	56	7036
2026-01-03 20:13:29.93	16.40	14.90	-41.3	-42.4	21.7	0.00e+00	0	39	0	515899392	56	6020
2026-01-03 20:13:30.94	16.19	14.91	-40.5	-41.6	21.8	0.00e+00	81	39	0	516947968	54	6118
2026-01-03 20:13:31.95	15.98	14.93	-40.5	-41.6	21.8	0.00e+00	0	39	0	519045120	54	6171
2026-01-03 20:13:32.96	15.77	14.94	-40.5	-41.6	21.7	0.00e+00	0	39	0	521142272	54	6127
2026-01-03 20:13:33.96	15.56	14.95	-40.4	-41.5	21.5	0.00e+00	0	39	0	523239424	54	6060
2026-01-03 20:13:34.97	15.35	14.97	-40.1	-41.1	22.2	0.00e+00	0	39	0	525336576	54	5807
2026-01-03 20:13:35.98	15.13	14.98	-41.1	-42.2	22.0	0.00e+00	65	39	0	526385152	54	6565
2026-01-03 20:13:36.99	14.92	14.99	-40.9	-42.0	21.9	0.00e+00	0	39	0	528482304	56	5734
2026-01-03 20:13:38.00	14.71	15.00	-41.9	-43.1	20.5	0.00e+00	90	39	0	530579456	56	6536
2026-01-03 20:13:39.01	14.50	15.02	-40.5	-41.6	21.8	0.00e+00	0	39	0	532676608	54	6155
2026-01-03 20:13:40.02	14.28	15.03	-40.3	-41.4	21.9	0.00e+00	0	39	0	533725184	54	6016
2026-01-03 20:13:41.03	14.07	15.04	-40.3	-41.4	21.9	0.00e+00	0	39	0	535822336	54	6011
2026-01-03 20:13:42.04	13.86	15.05	-40.9	-42.0	21.4	0.00e+00	0	39	0	537919488	54	6436
2026-01-03 20:13:43.05	13.64	15.06	-41.4	-42.6	20.9	0.00e+00	41	39	0	540016640	54	6893
2026-01-03 20:13:44.06	13.43	15.07	-41.2	-42.4	21.5	0.00e+00	0	39	0	542113792	54	6740
2026-01-03 20:13:45.07	13.22	15.08	-40.2	-41.3	22.1	0.00e+00	61	39	0	544210944	54	5911
2026-01-03 20:13:46.07	13.01	15.08	-40.1	-41.2	22.0	0.00e+00	0	39	0	545259520	54	5855
2026-01-03 20:13:47.08	12.79	15.09	-39.8	-40.9	22.2	0.00e+00	12	39	0	547356672	54	5635
2026-01-03 20:13:48.09	12.58	15.10	-39.8	-40.8	22.3	0.00e+00	0	39	0	549453824	52	6292
2026-01-03 20:13:49.10	12.36	15.11	-40.0	-41.0	21.9	0.00e+00	0	39	0	551550976	52	6463
2026-01-03 20:13:50.11	12.15	15.12	-40.1	-41.1	22.1	0.00e+00	9	39	0	553648128	52	6510
2026-01-03 20:13:51.12	11.94	15.12	-40.0	-41.0	22.2	0.00e+00	0	39	0	554696704	52	6446
2026-01-03 20:13:52.13	11.72	15.13	-40.2	-41.3	22.0	0.00e+00	92	39	0	556793856	52	6621
2026-01-03 20:13:53.14	11.51	15.13	-39.8	-40.9	22.3	0.00e+00	0	39	0	558891008	52	6320
2026-01-03 20:13:54.15	11.29	15.14	-39.7	-40.8	22.3	0.00e+00	92	39	0	560988160	52	6259
2026-01-03 20:13:55.16	11.08	15.15	-39.7	-40.7	22.4	0.00e+00	0	39	0	563085312	52	6222
2026-01-03 20:13:56.17	10.86	15.15	-39.5	-40.5	22.5	0.00e+00	0	39	0	564133888	52	6081
2026-01-03 20:13:57.17	10.65	15.15	-39.5	-40.5	22.4	0.00e+00	0	39	0	566231040	52	6043
2026-01-03 20:13:58.18	10.44	15.16	-40.8	-41.9	21.6	0.00e+00	0	39	0	568328192	54	6361
2026-01-03 20:13:59.19	10.22	15.16	-40.9	-42.1	21.7	0.00e+00	41	39	0	570425344	54	6510
2026-01-03 20:14:00.20	10.01	15.17	-40.3	-41.4	21.9	0.00e+00	0	39	0	572522496	54	5979
2026-01-03 20:14:01.21	9.79	15.17	-40.6	-41.7	21.8	0.00e+00	90	39	0	573571072	54	6208
2026-01-03 20:14:02.22	9.58	15.17	-40.5	-41.6	22.0	0.00e+00	0	39	0	575668224	54	6127
2026-01-03 20:14:03.23	9.36	15.17	-40.4	-41.5	21.9	0.00e+00	0	39	0	577765376	54	6092
2026-01-03 20:14:04.24	9.15	15.17	-40.3	-41.4	21.9	0.00e+00	0	39	0	579862528	54	5999
2026-01-03 20:14:05.25	8.93	15.17	-40.9	-42.1	21.9	0.00e+00	0	39	0	581959680	54	6494
2026-01-03 20:14:06.26	8.72	15.18	-40.7	-41.8	22.0	0.00e+00	64	39	0	583008256	54	6288
2026-01-03 20:14:07.27	8.50	15.18	-40.4	-41.4	22.3	0.00e+00	0	39	0	585105408	54	6011
2026-01-03 20:14:08.28	8.29	15.18	-39.6	-40.6	22.5	0.00e+00	92	39	0	587202560	54	5493
2026-01-03 20:14:09.29	8.07	15.18	-39.6	-40.6	22.5	0.00e+00	0	39	0	589299712	52	6152
2026-01-03 20:14:10.30	7.86	15.17	-39.9	-40.9	22.6	0.00e+00	50	39	0	591396864	52	6342
2026-01-03 20:14:11.31	7.64	15.17	-39.9	-40.9	22.5	0.00e+00	0	39	0	592445440	54	5664
2026-01-03 20:14:12.31	7.43	15.17	-39.8	-40.8	22.5	0.00e+00	0	39	0	594542592	52	6282
2026-01-03 20:14:13.32	7.22	15.17	-40.1	-41.1	22.3	0.00e+00	18	39	0	596639744	52	6475
2026-01-03 20:14:14.33	7.00	15.17	-40.0	-41.0	22.4	0.00e+00	0	39	0	598736896	52	6426
2026-01-03 20:14:15.34	6.79	15.16	-39.7	-40.7	22.4	0.00e+00	92	39	0	600834048	52	6228
2026-01-03 20:14:16.35	6.57	15.16	-39.8	-40.9	22.2	0.00e+00	0	39	0	601882624	52	6325
2026-01-03 20:14:17.36	6.36	15.16	-40.0	-41.0	22.3	0.00e+00	92	39	0	603979776	52	6426
2026-01-03 20:14:18.37	6.14	15.15	-40.3	-41.4	21.9	0.00e+00	0	39	0	606076928	54	6017
2026-01-03 20:14:19.38	5.93	15.15	-40.4	-41.4	21.8	0.00e+00	0	39	0	608174080	54	6033
2026-01-03 20:14:20.39	5.71	15.14	-40.7	-41.8	21.7	0.00e+00	0	39	0	610271232	54	6303
2026-01-03 20:14:21.40	5.50	15.14	-40.5	-41.6	21.2	0.00e+00	0	39	0	612368384	54	6108
2026-01-03 20:14:22.40	5.29	15.13	-40.5	-41.6	21.6	0.00e+00	61	39	0	613416960	54	6145
2026-01-03 20:14:23.41	5.07	15.13	-40.5	-41.6	21.5	0.00e+00	0	39	0	615514112	54	6160
2026-01-03 20:14:24.42	4.86	15.12	-40.4	-41.5	21.4	0.00e+00	59	39	0	617611264	54	6058
2026-01-03 20:14:25.43	4.64	15.11	-40.3	-41.4	21.6	0.00e+00	0	39	0	619708416	54	6030
2026-01-03 20:14:26.44	4.43	15.10	-40.4	-41.5	21.6	0.00e+00	0	39	0	621805568	54	6089
2026-01-03 20:14:27.45	4.22	15.10	-40.4	-41.5	21.8	0.00e+00	0	39	0	622854144	54	6050
2026-01-03 20:14:28.46	4.00	15.09	-40.6	-41.7	21.8	0.00e+00	0	39	0	624951296	54	6228
2026-01-03 20:14:29.47	3.79	15.08	-40.6	-41.7	22.0	0.00e+00	47	39	0	627048448	54	6233
2026-01-03 20:14:30.48	3.57	15.07	-40.3	-41.4	22.1	0.00e+00	0	39	0	629145600	54	5988
2026-01-03 20:14:31.49	3.36	15.06	-40.0	-41.1	22.2	0.00e+00	92	39	0	631242752	54	5826
2026-01-03 20:14:32.50	3.15	15.05	-39.9	-40.9	22.3	0.00e+00	0	39	0	632291328	54	5673
2026-01-03 20:14:33.51	2.94	15.04	-40.0	-41.0	22.3	0.00e+00	0	39	0	634388480	52	6428
2026-01-03 20:14:34.52	2.72	15.03	-39.9	-40.9	22.4	0.00e+00	0	39	0	636485632	52	6386
2026-01-03 20:14:35.53	2.51	15.02	-40.1	-41.2	22.3	0.00e+00	0	39	0	638582784	52	6551
2026-01-03 20:14:36.54	2.30	15.01	-40.0	-41.0	22.2	0.00e+00	57	39	0	640679936	52	6453
2026-01-03 20:14:37.55	2.08	15.00	-40.0	-41.1	22.3	0.00e+00	0	39	0	641728512	52	6465
2026-01-03 20:14:38.56	1.87	14.99	-40.0	-41.1	22.0	0.00e+00	92	39	0	643825664	52	6505
2026-01-03 20:14:39.56	1.66	14.97	-40.0	-41.1	22.3	0.00e+00	0	39	0	645922816	52	6468
2026-01-03 20:14:40.58	1.45	14.96	-39.9	-41.0	22.3	0.00e+00	0	39	0	648019968	52	6391
2026-01-03 20:14:41.58	1.24	14.95	-40.4	-41.4	22.0	0.00e+00	0	39	0	650117120	52	6764
2026-01-03 20:14:42.59	1.03	14.93	-40.0	-41.0	22.4	0.00e+00	0	39	0	651165696	52	6433
2026-01-03 20:14:43.60	0.82	14.92	-39.6	-40.6	22.6	0.00e+00	5	39	0	653262848	52	6146
2026-01-03 20:14:44.61	0.60	14.90	-39.3	-40.3	22.8	0.00e+00	0	39	0	655360000	52	5908
2026-01-03 20:14:45.62	0.39	14.89	-39.5	-40.5	22.5	0.00e+00	77	39	0	657457152	52	6055
2026-01-03 20:14:46.63	0.18	14.87	-39.2	-40.2	22.8	0.00e+00	0	39	0	659554304	52	5846
2026-01-03 20:14:47.64	359.97	14.86	-39.3	-40.2	22.8	0.00e+00	0	39	0	660602880	52	5883
2026-01-03 20:14:48.65	359.76	14.84	-39.3	-40.3	22.5	0.00e+00	0	39	0	662700032	52	5907
2026-01-03 20:14:49.66	359.55	14.83	-39.4	-40.4	22.6	0.00e+00	0	39	0	664797184	52	6009
2026-01-03 20:14:50.67	359.34	14.81	-41.4	-42.6	21.0	0.00e+00	33	39	0	666894336	52	7736
2026-01-03 20:14:51.68	359.13	14.79	-39.9	-40.9	22.4	0.00e+00	0	39	0	668991488	52	6379
2026-01-03 20:14:52.69	358.92	14.78	-40.1	-41.1	22.4	0.00e+00	92	39	0	670040064	52	6484
2026-01-03 20:14:53.70	358.71	14.76	-39.9	-41.0	22.3	0.00e+00	0	39	0	672137216	52	6399
2026-01-03 20:14:54.71	358.51	14.74	-40.1	-41.2	22.0	0.00e+00	90	39	0	674234368	52	6579
2026-01-03 20:14:55.71	358.30	14.72	-40.1	-41.2	22.1	0.00e+00	0	39	0	676331520	52	6577
2026-01-03 20:14:56.72	358.09	14.70	-40.5	-41.6	22.0	0.00e+00	0	39	0	678428672	52	6857
2026-01-03 20:14:57.73	357.88	14.68	-41.1	-42.2	21.7	0.00e+00	0	39	0	680525824	54	6583
2026-01-03 20:14:58.74	357.68	14.66	-40.7	-41.8	21.7	0.00e+00	0	39	0	681574400	54	6288
2026-01-03 20:14:59.75	357.47	14.64	-40.5	-41.7	21.8	0.00e+00	61	39	0	683671552	54	6184
2026-01-03 20:15:00.76	357.26	14.62	-40.5	-41.6	21.8	0.00e+00	0	39	0	685768704	54	6162
2026-01-03 20:15:01.77	357.05	14.60	-41.0	-42.1	21.8	0.00e+00	92	39	0	687865856	54	6530
2026-01-03 20:15:02.78	356.85	14.58	-40.2	-41.3	22.0	0.00e+00	0	39	0	689963008	54	5943
2026-01-03 20:15:03.79	356.64	14.56	-40.3	-41.4	21.9	0.00e+00	0	39	0	691011584	54	5988
2026-01-03 20:15:04.79	356.44	14.54	-39.9	-41.0	22.2	0.00e+00	0	39	0	693108736	54	5741
2026-01-03 20:15:05.80	356.23	14.52	-39.7	-40.7	22.4	0.00e+00	0	39	0	695205888	52	6214
2026-01-03 20:15:06.81	356.03	14.49	-39.6	-40.6	22.6	0.00e+00	34	39	0	697303040	52	6147
2026-01-03 20:15:07.82	355.82	14.47	-39.5	-40.5	22.6	0.00e+00	0	39	0	699400192	52	6042
2026-01-03 20:15:08.83	355.62	14.45	-39.5	-40.5	22.7	0.00e+00	61	39	0	700448768	52	6039
2026-01-03 20:15:09.84	355.41	14.42	-39.8	-40.9	22.2	0.00e+00	0	39	0	702545920	52	6332
2026-01-03 20:15:10.84	355.21	14.40	-39.9	-40.9	22.4	0.00e+00	0	39	0	704643072	52	6366
2026-01-03 20:15:11.85	355.01	14.38	-39.8	-40.8	22.4	0.00e+00	0	39	0	706740224	52	6287
2026-01-03 20:15:12.86	354.80	14.35	-39.9	-41.0	22.4	0.00e+00	0	39	0	708837376	52	6395
2026-01-03 20:15:13.87	354.60	14.33	-40.0	-41.0	22.3	0.00e+00	60	39	0	709885952	52	6412
2026-01-03 20:15:14.87	354.40	14.30	-39.8	-40.8	22.6	0.00e+00	0	39	0	711983104	52	6248
2026-01-03 20:15:15.88	354.20	14.28	-39.7	-40.7	22.5	0.00e+00	90	39	0	714080256	52	6220
2026-01-03 20:15:16.89	353.99	14.25	-39.6	-40.6	22.8	0.00e+00	0	39	0	716177408	52	6141
2026-01-03 20:15:17.90	353.79	14.22	-39.7	-40.7	22.6	0.00e+00	0	39	0	718274560	52	6182
2026-01-03 20:15:18.91	353.59	14.20	-41.1	-42.2	22.1	0.00e+00	0	39	0	719323136	54	6602
2026-01-03 20:15:19.92	353.39	14.17	-40.6	-41.7	22.1	0.00e+00	33	39	0	721420288	54	6213
2026-01-03 20:15:20.93	353.19	14.14	-40.8	-41.9	21.9	0.00e+00	65	39	0	723517440	54	6367
2026-01-03 20:15:21.93	352.99	14.12	-41.2	-42.4	21.5	0.00e+00	0	39	0	725614592	54	6731
2026-01-03 20:15:22.94	352.79	14.09	-40.6	-41.7	21.6	0.00e+00	59	39	0	727711744	54	6219
2026-01-03 20:15:23.96	352.59	14.06	-40.5	-41.6	21.6	0.00e+00	0	39	0	728760320	54	6163
2026-01-03 20:15:24.96	352.39	14.03	-40.7	-41.9	21.5	0.00e+00	10	39	0	730857472	54	6338
2026-01-03 20:15:25.97	352.20	14.00	-40.7	-41.8	21.9	0.00e+00	0	39	0	732954624	54	6279
2026-01-03 20:15:26.98	352.00	13.98	-40.2	-41.2	22.1	0.00e+00	0	39	0	735051776	54	5894
2026-01-03 20:15:27.99	351.80	13.95	-40.3	-41.4	21.9	0.00e+00	63	39	0	737148928	54	6021
2026-01-03 20:15:29.00	351.60	13.92	-40.5	-41.6	21.7	0.00e+00	0	39	0	738197504	54	6160
2026-01-03 20:15:30.01	351.40	13.89	-40.2	-41.3	22.0	0.00e+00	60	39	0	740294656	54	5907
2026-01-03 20:15:31.02	351.21	13.86	-40.4	-41.5	21.7	0.00e+00	0	39	0	742391808	54	6077
2026-01-03 20:15:32.03	351.01	13.83	-40.3	-41.4	21.7	0.00e+00	90	39	0	744488960	54	5999
2026-01-03 20:15:33.03	350.82	13.80	-40.2	-41.3	21.8	0.00e+00	0	39	0	746586112	54	5919
2026-01-03 20:15:34.04	350.62	13.76	-40.3	-41.4	21.7	0.00e+00	0	39	0	747634688	54	6019
2026-01-03 20:15:35.05	350.43	13.73	-39.9	-41.0	22.1	0.00e+00	0	39	0	749731840	54	5705
2026-01-03 20:15:36.06	350.23	13.70	-39.7	-40.7	22.3	0.00e+00	0	39	0	751828992	52	6238
2026-01-03 20:15:37.07	350.04	13.67	-39.8	-40.8	22.4	0.00e+00	19	39	0	753926144	52	6315
2026-01-03 20:15:38.08	349.85	13.64	-40.0	-41.0	22.3	0.00e+00	0	39	0	756023296	52	6448
2026-01-03 20:15:39.09	349.65	13.60	-40.4	-41.5	22.0	0.00e+00	47	39	0	757071872	52	6773
2026-01-03 20:15:40.10	349.46	13.57	-39.7	-40.8	22.4	0.00e+00	0	39	0	759169024	52	6262
2026-01-03 20:15:41.11	349.27	13.54	-39.6	-40.6	22.4	0.00e+00	0	39	0	761266176	52	6162
2026-01-03 20:15:42.12	349.07	13.50	-40.0	-41.0	22.2	0.00e+00	0	39	0	763363328	52	6441
2026-01-03 20:15:43.13	348.88	13.47	-40.0	-41.0	22.2	0.00e+00	0	39	0	765460480	52	6458
2026-01-03 20:15:44.13	348.69	13.44	-39.9	-40.9	22.3	0.00e+00	24	39	0	766509056	52	6346
2026-01-03 20:15:45.14	348.50	13.40	-39.6	-40.6	22.7	0.00e+00	0	39	0	768606208	52	6131
2026-01-03 20:15:46.15	348.31	13.37	-39.3	-40.2	22.9	0.00e+00	54	39	0	770703360	52	5878
2026-01-03 20:15:47.16	348.12	13.33	-39.1	-40.0	23.1	0.00e+00	0	39	0	772800512	52	5741
2026-01-03 20:15:48.17	347.93	13.30	-39.0	-39.9	23.1	0.00e+00	0	39	0	774897664	52	5687
2026-01-03 20:15:49.18	347.74	13.26	-39.3	-40.2	23.1	0.00e+00	0	39	0	776994816	52	5888
2026-01-03 20:15:50.19	347.56	13.23	-38.9	-39.8	22.9	0.00e+00	0	39	0	778043392	52	5575
2026-01-03 20:15:51.19	347.37	13.19	-39.1	-40.0	23.1	0.00e+00	59	39	0	780140544	52	5753
2026-01-03 20:15:52.20	347.18	13.16	-39.3	-40.3	22.9	0.00e+00	0	39	0	782237696	52	5914
2026-01-03 20:15:53.22	346.99	13.12	-39.6	-40.5	22.9	0.00e+00	92	39	0	784334848	52	6094
2026-01-03 20:15:54.22	346.81	13.08	-39.9	-40.8	22.9	0.00e+00	0	39	0	786432000	52	6316
2026-01-03 20:15:55.23	346.62	13.05	-40.1	-41.2	22.3	0.00e+00	0	39	0	787480576	52	6543
2026-01-03 20:15:56.24	346.44	13.01	-40.0	-41.1	22.4	0.00e+00	0	39	0	789577728	52	6489
2026-01-03 20:15:57.25	346.25	12.97	-40.3	-41.4	22.0	0.00e+00	0	39	0	791674880	52	6698
2026-01-03 20:15:58.26	346.07	12.94	-40.4	-41.5	21.8	0.00e+00	41	39	0	793772032	52	6804
2026-01-03 20:15:59.27	345.88	12.90	-41.1	-42.3	21.3	0.00e+00	0	39	0	794820608	54	6643
2026-01-03 20:16:00.28	345.70	12.86	-40.8	-42.0	21.4	0.00e+00	83	39	0	796917760	54	6440
2026-01-03 20:16:01.29	345.52	12.82	-41.3	-42.5	21.1	0.00e+00	0	39	0	799014912	54	6825
2026-01-03 20:16:02.30	345.33	12.78	-41.7	-43.0	20.9	0.00e+00	65	39	0	801112064	56	6404
2026-01-03 20:16:03.31	345.15	12.75	-41.4	-42.6	21.3	0.00e+00	0	39	0	803209216	56	6110
2026-01-03 20:16:04.31	344.97	12.71	-41.9	-43.1	20.9	0.00e+00	0	39	0	805306368	56	6531
2026-01-03 20:16:05.32	344.79	12.67	-40.9	-42.0	21.6	0.00e+00	0	39	0	806354944	56	5719
2026-01-03 20:16:06.33	344.61	12.63	-41.1	-42.2	21.7	0.00e+00	0	39	0	808452096	56	5883
2026-01-03 20:16:07.33	344.43	12.59	-40.8	-42.0	21.7	0.00e+00	75	39	0	810549248	56	5702
2026-01-03 20:16:08.35	344.25	12.55	-40.8	-41.9	21.6	0.00e+00	0	39	0	812646400	56	5657
2026-01-03 20:16:09.35	344.07	12.51	-40.6	-41.7	21.7	0.00e+00	63	39	0	814743552	54	6207
2026-01-03 20:16:10.36	343.89	12.47	-40.7	-41.9	21.5	0.00e+00	0	39	0	815792128	54	6362
2026-01-03 20:16:11.37	343.72	12.43	-40.8	-41.9	21.7	0.00e+00	0	39	0	817889280	54	6352
2026-01-03 20:16:12.38	343.54	12.39	-41.4	-42.6	21.5	0.00e+00	0	39	0	819986432	54	6859
2026-01-03 20:16:13.39	343.36	12.35	-41.8	-43.0	21.2	0.00e+00	0	39	0	822083584	56	6420
2026-01-03 20:16:14.39	343.18	12.31	-41.1	-42.3	21.5	0.00e+00	62	39	0	824180736	56	5944
2026-01-03 20:16:15.40	343.01	12.27	-41.3	-42.5	21.3	0.00e+00	0	39	0	825229312	56	6043
2026-01-03 20:16:16.41	342.83	12.23	-41.8	-43.1	21.1	0.00e+00	92	39	0	827326464	56	6476
2026-01-03 20:16:17.42	342.66	12.18	-41.3	-42.5	21.5	0.00e+00	0	39	0	829423616	56	6051
2026-01-03 20:16:18.43	342.48	12.14	-41.2	-42.3	21.5	0.00e+00	0	39	0	831520768	56	5918
2026-01-03 20:16:19.44	342.31	12.10	-41.0	-42.2	21.5	0.00e+00	0	39	0	833617920	56	5846
2026-01-03 20:16:20.45	342.13	12.06	-41.1	-42.3	21.3	0.00e+00	0	39	0	834666496	56	5913
2026-01-03 20:16:21.46	341.96	12.02	-41.3	-42.5	21.1	0.00e+00	62	39	0	836763648	56	6042
2026-01-03 20:16:22.47	341.79	11.97	-41.6	-42.8	21.3	0.00e+00	0	39	0	838860800	56	6253
2026-01-03 20:16:23.47	341.62	11.93	-41.6	-42.8	21.4	0.00e+00	68	39	0	840957952	56	6263
2026-01-03 20:16:24.49	341.44	11.89	-41.7	-42.9	21.4	0.00e+00	0	39	0	843055104	56	6324
2026-01-03 20:16:25.49	341.27	11.85	-41.1	-42.2	21.7	0.00e+00	0	39	0	844103680	56	5867
2026-01-03 20:16:26.50	341.10	11.80	-41.2	-42.2	22.0	0.00e+00	0	39	0	846200832	56	5874
2026-01-03 20:16:27.51	340.93	11.76	-40.9	-41.9	22.2	0.00e+00	33	39	0	848297984	56	5642
2026-01-03 20:16:28.52	340.76	11.72	-40.5	-41.5	22.2	0.00e+00	57	39	0	850395136	54	6101
2026-01-03 20:16:29.53	340.59	11.67	-40.2	-41.2	22.2	0.00e+00	0	39	0	852492288	54	5850
2026-01-03 20:16:30.54	340.43	11.63	-40.2	-41.3	21.9	0.00e+00	92	39	0	853540864	54	5903
2026-01-03 20:16:31.55	340.26	11.58	-40.8	-41.9	21.8	0.00e+00	0	39	0	855638016	54	6379
2026-01-03 20:16:32.55	340.09	11.54	-41.3	-42.4	21.5	0.00e+00	92	39	0	857735168	54	6732
2026-01-03 20:16:33.56	339.92	11.50	-41.8	-42.9	21.2	0.00e+00	0	39	0	859832320	54	7161
2026-01-03 20:16:34.57	339.76	11.45	-41.9	-43.1	20.9	0.00e+00	0	39	0	861929472	56	6502
2026-01-03 20:16:35.58	339.59	11.41	-41.9	-43.2	20.5	0.00e+00	49	39	0	862978048	56	6594
2026-01-03 20:16:36.59	339.43	11.36	-42.7	-44.0	20.3	0.00e+00	0	39	0	865075200	56	7238
2026-01-03 20:16:37.60	339.26	11.32	-42.5	-43.8	20.4	0.00e+00	56	39	0	867172352	58	6317
2026-01-03 20:16:38.61	339.10	11.27	-42.7	-44.0	20.4	0.00e+00	33	39	0	869269504	58	6456
2026-01-03 20:16:39.62	338.93	11.23	-42.0	-43.3	20.5	0.00e+00	64	39	0	871366656	58	5951
2026-01-03 20:16:40.63	338.77	11.18	-42.0	-43.2	20.7	0.00e+00	0	39	0	873463808	56	6602
2026-01-03 20:16:41.63	338.61	11.14	-42.2	-43.4	21.1	0.00e+00	0	39	0	874512384	56	6699
2026-01-03 20:16:42.65	338.44	11.09	-41.9	-43.1	21.0	0.00e+00	0	39	0	876609536	56	6509
2026-01-03 20:16:43.66	338.28	11.04	-41.6	-42.9	20.8	0.00e+00	0	39	0	878706688	56	6337
2026-01-03 20:16:44.67	338.12	11.00	-42.1	-43.3	20.9	0.00e+00	0	39	0	880803840	56	6619
2026-01-03 20:16:45.67	337.96	10.95	-42.6	-44.0	20.0	0.00e+00	0	39	0	882900992	58	6429
2026-01-03 20:16:46.68	337.80	10.91	-43.0	-44.5	19.4	0.00e+00	89	39	0	883949568	58	6838
2026-01-03 20:16:47.69	337.64	10.86	-43.3	-44.9	18.8	0.00e+00	0	39	0	886046720	58	7139
2026-01-03 20:16:48.70	337.48	10.81	-44.1	-46.0	17.9	0.00e+00	0	39	0	888143872	60	7189
2026-01-03 20:16:49.71	337.32	10.77	-45.0	-47.0	17.8	0.00e+00	33	39	0	890241024	60	8084
2026-01-03 20:16:50.72	337.16	10.72	-45.3	-47.4	17.5	0.00e+00	0	39	0	891289600	60	8450
2026-01-03 20:16:51.73	337.00	10.67	-45.0	-47.2	17.1	0.00e+00	56	39	0	893386752	60	8245
2026-01-03 20:16:52.74	336.85	10.63	-45.2	-47.3	17.3	0.00e+00	0	39	0	895483904	60	8346
2026-01-03 20:16:53.75	336.69	10.58	-45.1	-47.2	17.5	0.00e+00	75	39	0	897581056	60	8253
2026-01-03 20:16:54.76	336.53	10.53	-44.7	-46.6	17.8	0.00e+00	0	39	0	899678208	60	7749
2026-01-03 20:16:55.76	336.38	10.48	-44.7	-46.6	18.2	0.00e+00	25	39	0	901775360	60	7722
2026-01-03 20:16:56.77	336.22	10.44	-44.5	-46.2	18.7	0.00e+00	0	39	0	902823936	60	7362
2026-01-03 20:16:57.78	336.07	10.39	-44.4	-46.1	18.7	0.00e+00	0	39	0	904921088	60	7270
2026-01-03 20:16:58.79	335.92	10.34	-44.3	-46.0	18.5	0.00e+00	58	39	0	907018240	60	7188
2026-01-03 20:16:59.80	335.76	10.29	-43.8	-45.5	18.8	0.00e+00	0	39	0	909115392	60	6784
2026-01-03 20:17:00.81	335.61	10.25	-43.4	-45.1	18.7	0.00e+00	57	39	0	911212544	60	6468
2026-01-03 20:17:01.82	335.46	10.20	-43.3	-44.9	18.9	0.00e+00	0	39	0	912261120	60	6342
2026-01-03 20:17:02.83	335.30	10.15	-42.9	-44.5	19.0	0.00e+00	0	39	0	914358272	60	6037
2026-01-03 20:17:03.84	335.15	10.10	-42.4	-43.8	19.6	0.00e+00	0	39	0	916455424	58	6313
2026-01-03 20:17:04.85	335.00	10.05	-42.3	-43.8	19.6	0.00e+00	0	39	0	918552576	58	6250
2026-01-03 20:17:05.86	334.85	10.01	-42.6	-44.1	19.5	0.00e+00	0	39	0	920649728	58	6500
2026-01-03 20:17:06.87	334.70	9.96	-42.7	-44.2	19.8	0.00e+00	0	39	0	921698304	58	6541
2026-01-03 20:17:07.88	334.55	9.91	-43.0	-44.5	19.8	0.00e+00	61	39	0	923795456	58	6779
2026-01-03 20:17:08.88	334.40	9.86	-43.1	-44.5	19.7	0.00e+00	0	39	0	925892608	58	6819
2026-01-03 20:17:09.89	334.25	9.81	-43.1	-44.6	19.6	0.00e+00	89	39	0	927989760	58	6861
2026-01-03 20:17:10.90	334.10	9.76	-42.8	-44.2	19.6	0.00e+00	0	39	0	930086912	58	6600
2026-01-03 20:17:11.91	333.96	9.71	-43.8	-45.3	19.2	0.00e+00	0	39	0	931135488	60	6687
2026-01-03 20:17:12.92	333.81	9.66	-43.2	-44.6	19.6	0.00e+00	0	39	0	933232640	60	6150
2026-01-03 20:17:13.93	333.66	9.62	-42.5	-43.9	19.9	0.00e+00	0	39	0	935329792	58	6343
2026-01-03 20:17:14.94	333.52	9.57	-42.4	-43.7	20.1	0.00e+00	59	39	0	937426944	58	6241
2026-01-03 20:17:15.95	333.37	9.52	-42.5	-43.8	20.2	0.00e+00	0	39	0	939524096	58	6285
2026-01-03 20:17:16.95	333.23	9.47	-42.2	-43.5	20.3	0.00e+00	61	39	0	940572672	58	6100
2026-01-03 20:17:17.96	333.08	9.42	-42.0	-43.4	20.1	0.00e+00	0	39	0	942669824	58	5969
2026-01-03 20:17:18.97	332.94	9.37	-42.4	-43.6	20.6	0.00e+00	0	39	0	944766976	56	6905
2026-01-03 20:17:19.98	332.79	9.32	-42.2	-43.4	20.7	0.00e+00	0	39	0	946864128	58	6031
2026-01-03 20:17:20.99	332.65	9.27	-42.6	-43.9	20.3	0.00e+00	0	39	0	948961280	58	6385
2026-01-03 20:17:22.00	332.51	9.22	-42.3	-43.7	20.3	0.00e+00	21	39	0	950009856	58	6198
2026-01-03 20:17:23.01	332.37	9.17	-42.3	-43.6	20.3	0.00e+00	0	39	0	952107008	58	6168
2026-01-03 20:17:24.01	332.23	9.12	-42.6	-44.0	20.2	0.00e+00	73	39	0	954204160	58	6411
2026-01-03 20:17:25.02	332.09	9.07	-42.0	-43.3	20.3	0.00e+00	0	39	0	956301312	58	5964
2026-01-03 20:17:26.03	331.94	9.02	-41.8	-43.1	20.2	0.00e+00	0	39	0	958398464	56	6506
2026-01-03 20:17:27.05	331.80	8.97	-42.2	-43.6	20.0	0.00e+00	0	39	0	959447040	56	6872
2026-01-03 20:17:28.05	331.66	8.92	-42.9	-44.3	19.7	0.00e+00	0	39	0	961544192	58	6664
2026-01-03 20:17:29.06	331.53	8.87	-43.4	-44.9	19.7	0.00e+00	22	39	0	963641344	58	7091
2026-01-03 20:17:30.07	331.39	8.82	-42.9	-44.3	19.7	0.00e+00	0	39	0	965738496	58	6671
2026-01-03 20:17:31.08	331.25	8.77	-42.5	-44.0	19.6	0.00e+00	92	39	0	967835648	58	6443
2026-01-03 20:17:32.09	331.11	8.72	-42.6	-44.1	19.5	0.00e+00	0	39	0	969932800	58	6505
2026-01-03 20:17:33.10	330.97	8.67	-42.7	-44.1	19.4	0.00e+00	37	39	0	970981376	58	6532
2026-01-03 20:17:34.11	330.84	8.62	-42.4	-43.8	19.8	0.00e+00	0	39	0	973078528	58	6288
2026-01-03 20:17:35.12	330.70	8.57	-42.5	-43.9	19.8	0.00e+00	0	39	0	975175680	58	6331
2026-01-03 20:17:36.13	330.56	8.52	-42.5	-44.0	19.6	0.00e+00	21	39	0	977272832	58	6424
2026-01-03 20:17:37.14	330.43	8.47	-42.2	-43.6	19.9	0.00e+00	0	39	0	979369984	58	6139
2026-01-03 20:17:38.15	330.29	8.42	-42.2	-43.6	20.0	0.00e+00	25	39	0	980418560	58	6129
2026-01-03 20:17:39.16	330.16	8.37	-42.1	-43.5	19.9	0.00e+00	0	39	0	982515712	58	6099
2026-01-03 20:17:40.17	330.03	8.31	-43.3	-44.9	18.7	0.00e+00	91	39	0	984612864	58	7134
2026-01-03 20:17:41.18	329.89	8.26	-42.6	-44.0	20.0	0.00e+00	0	39	0	986710016	58	6421
2026-01-03 20:17:42.19	329.76	8.21	-42.1	-43.5	20.1	0.00e+00	33	39	0	988807168	58	6036
2026-01-03 20:17:43.20	329.63	8.16	-42.6	-44.1	19.8	0.00e+00	41	39	0	989855744	58	6496
2026-01-03 20:17:44.21	329.49	8.11	-42.7	-44.1	20.0	0.00e+00	0	39	0	991952896	58	6476
2026-01-03 20:17:45.22	329.36	8.06	-42.5	-43.8	20.6	0.00e+00	55	39	0	994050048	58	6261
2026-01-03 20:17:46.22	329.23	8.01	-42.2	-43.5	20.7	0.00e+00	0	39	0	996147200	58	6041
2026-01-03 20:17:47.23	329.10	7.96	-44.4	-46.0	18.7	0.00e+00	92	39	0	998244352	60	7208
2026-01-03 20:17:48.24	328.97	7.91	-41.8	-42.9	21.3	0.00e+00	0	39	0	999292928	58	5685
2026-01-03 20:17:49.25	328.84	7.86	-41.9	-43.0	21.1	0.00e+00	0	39	0	1001390080	56	6462
2026-01-03 20:17:50.26	328.71	7.80	-42.3	-43.6	20.3	0.00e+00	0	39	0	1003487232	60	5472
2026-01-03 20:17:51.27	328.58	7.75	-43.4	-44.9	19.4	0.00e+00	0	39	0	1005584384	60	6373
2026-01-03 20:17:52.28	328.46	7.70	-43.2	-44.5	20.3	1.50e-06	62	39	0	1007681536	58	6819
2026-01-03 20:17:53.29	328.33	7.65	-42.3	-43.5	20.9	0.00e+00	0	39	0	1008730112	60	5394
2026-01-03 20:17:54.30	328.20	7.60	-42.4	-43.8	21.2	0.00e+00	90	39	0	1010827264	58	6270
2026-01-03 20:17:55.31	328.07	7.55	-41.8	-43.0	21.0	0.00e+00	0	39	0	1012924416	58	5718
2026-01-03 20:17:56.32	327.95	7.50	-41.9	-43.1	21.1	0.00e+00	0	39	0	1015021568	56	6505
2026-01-03 20:17:57.33	327.82	7.45	-41.6	-42.8	21.1	0.00e+00	0	39	0	1017118720	56	6298
2026-01-03 20:17:58.33	327.70	7.39	-42.1	-43.4	20.6	0.00e+00	0	39	0	1018167296	56	6705
2026-01-03 20:17:59.34	327.57	7.34	-41.9	-43.1	21.0	0.00e+00	30	39	0	1020264448	56	6537
2026-01-03 20:18:00.35	327.45	7.29	-41.5	-42.7	21.0	0.00e+00	0	39	0	1022361600	56	6222
2026-01-03 20:18:01.36	327.32	7.24	-41.7	-42.8	21.1	0.00e+00	76	39	0	1024458752	56	6307
2026-01-03 20:18:02.37	327.20	7.19	-41.2	-42.3	21.5	0.00e+00	0	39	0	1026555904	56	5944
2026-01-03 20:18:03.38	327.08	7.14	-40.8	-41.9	21.6	0.00e+00	0	39	0	1027604480	56	5679
2026-01-03 20:18:04.39	326.95	7.08	-40.5	-41.7	21.5	0.00e+00	0	39	0	1029701632	54	6183
2026-01-03 20:18:05.39	326.83	7.03	-40.4	-41.5	21.4	0.00e+00	0	39	0	1031798784	54	6098
2026-01-03 20:18:06.41	326.71	6.98	-41.2	-42.3	21.3	0.00e+00	0	39	0	1033895936	54	6668
2026-01-03 20:18:07.42	326.59	6.93	-42.3	-43.5	21.0	0.00e+00	0	39	0	1035993088	56	6793
2026-01-03 20:18:08.42	326.47	6.88	-42.4	-43.6	20.9	0.00e+00	57	39	0	1038090240	56	6864
2026-01-03 20:18:09.43	326.35	6.83	-42.8	-44.1	20.7	0.00e+00	0	39	0	1039138816	56	7300
2026-01-03 20:18:10.45	326.23	6.77	-43.7	-45.2	18.6	0.00e+00	92	39	0	1041235968	60	6603
2026-01-03 20:18:11.46	326.11	6.72	-42.4	-43.7	20.0	0.00e+00	0	39	0	1043333120	60	5548
2026-01-03 20:18:12.47	325.99	6.67	-43.0	-44.4	19.8	0.00e+00	0	39	0	1045430272	58	6726
2026-01-03 20:18:13.47	325.87	6.62	-43.0	-44.3	20.2	0.00e+00	50	39	0	1047527424	58	6682
2026-01-03 20:18:14.48	325.75	6.57	-43.4	-44.8	19.6	0.00e+00	0	39	0	1048576000	60	6296
2026-01-03 20:18:15.49	325.63	6.52	-43.2	-44.6	19.9	0.00e+00	87	39	0	1050673152	60	6160
2026-01-03 20:18:16.50	325.52	6.46	-44.5	-46.1	18.4	0.00e+00	0	39	0	1052770304	60	7331
2026-01-03 20:18:17.51	325.40	6.41	-43.3	-44.7	20.2	0.00e+00	89	39	0	1054867456	60	6186
2026-01-03 20:18:18.53	325.28	6.36	-42.6	-44.0	20.1	0.00e+00	0	39	0	1056964608	58	6419
2026-01-03 20:18:19.54	325.16	6.31	-42.0	-43.3	20.1	0.00e+00	0	39	0	1058013184	58	5945
2026-01-03 20:18:20.55	325.05	6.26	-41.7	-43.1	20.0	0.00e+00	0	39	0	1060110336	58	5781
2026-01-03 20:18:21.56	324.93	6.20	-41.6	-43.0	19.9	0.00e+00	0	39	0	1062207488	56	6408
2026-01-03 20:18:22.57	324.82	6.15	-41.6	-43.0	19.7	0.00e+00	52	39	0	1064304640	56	6396
2026-01-03 20:18:23.57	324.71	6.10	-41.7	-43.1	19.9	0.00e+00	0	39	0	1066401792	56	6486
2026-01-03 20:18:24.58	324.59	6.05	-41.9	-43.3	20.0	0.00e+00	71	39	0	1067450368	56	6622
2026-01-03 20:18:25.59	324.48	6.00	-41.8	-43.2	19.9	0.00e+00	0	39	0	1069547520	56	6574
2026-01-03 20:18:26.60	324.36	5.95	-41.3	-42.6	20.2	0.00e+00	0	39	0	1071644672	56	6148
2026-01-03 20:18:27.61	324.25	5.89	-41.5	-42.9	19.9	0.00e+00	0	39	0	1073741824	56	6332
2026-01-03 20:18:28.62	324.14	5.84	-41.8	-43.1	20.0	0.00e+00	0	39	0	1075838976	56	6535
2026-01-03 20:18:29.63	324.03	5.79	-41.7	-43.0	20.1	0.00e+00	41	39	0	1076887552	56	6402
2026-01-03 20:18:30.64	323.91	5.74	-41.7	-43.0	20.3	0.00e+00	0	39	0	1078984704	56	6432
2026-01-03 20:18:31.65	323.80	5.69	-41.5	-42.8	20.2	0.00e+00	92	39	0	1081081856	56	6312
2026-01-03 20:18:32.66	323.69	5.63	-41.5	-42.8	20.3	0.00e+00	0	39	0	1083179008	56	6254
2026-01-03 20:18:33.67	323.58	5.58	-41.5	-42.8	20.7	0.00e+00	0	39	0	1085276160	56	6277
2026-01-03 20:18:34.67	323.47	5.53	-41.4	-42.6	20.6	0.00e+00	0	39	0	1086324736	56	6170
2026-01-03 20:18:35.68	323.36	5.48	-41.1	-42.3	20.8	0.00e+00	0	39	0	1088421888	56	5919
2026-01-03 20:18:36.69	323.25	5.43	-41.3	-42.6	20.7	0.00e+00	27	39	0	1090519040	56	6113
2026-01-03 20:18:37.70	323.15	5.38	-41.2	-42.4	20.6	0.00e+00	0	39	0	1092616192	56	5995
2026-01-03 20:18:38.71	323.04	5.32	-41.4	-42.7	20.4	0.00e+00	92	39	0	1094713344	56	6204
2026-01-03 20:18:39.72	322.93	5.27	-41.1	-42.3	20.5	0.00e+00	0	39	0	1095761920	56	5943
2026-01-03 20:18:40.73	322.82	5.22	-41.3	-42.6	20.1	0.00e+00	0	39	0	1097859072	56	6130
2026-01-03 20:18:41.74	322.71	5.17	-41.2	-42.5	20.3	0.00e+00	0	39	0	1099956224	56	6065
2026-01-03 20:18:42.75	322.61	5.12	-41.4	-42.8	19.8	0.00e+00	0	39	0	1102053376	56	6265
2026-01-03 20:18:43.76	322.50	5.06	-41.7	-43.1	19.6	0.00e+00	41	39	0	1104150528	56	6529
2026-01-03 20:18:44.76	322.40	5.01	-41.9	-43.4	19.4	0.00e+00	0	39	0	1105199104	56	6713
2026-01-03 20:18:45.77	322.29	4.96	-42.0	-43.5	19.4	0.00e+00	54	39	0	1107296256	56	6792
2026-01-03 20:18:46.78	322.18	4.91	-42.4	-43.9	19.2	0.00e+00	0	39	0	1109393408	56	7130
2026-01-03 20:18:47.79	322.08	4.86	-42.2	-43.6	19.8	0.00e+00	19	39	0	1111490560	56	6912
2026-01-03 20:18:48.80	321.97	4.81	-42.3	-43.8	19.3	0.00e+00	0	39	0	1113587712	56	7043
2026-01-03 20:18:49.81	321.87	4.75	-42.1	-43.5	19.5	0.00e+00	0	39	0	1114636288	56	6816
2026-01-03 20:18:50.82	321.77	4.70	-41.9	-43.2	19.9	0.00e+00	0	39	0	1116733440	56	6599
2026-01-03 20:18:51.83	321.66	4.65	-41.9	-43.3	20.0	0.00e+00	0	39	0	1118830592	56	6667
2026-01-03 20:18:52.84	321.56	4.60	-41.7	-43.0	19.8	0.00e+00	92	39	0	1120927744	56	6447
2026-01-03 20:18:53.85	321.46	4.55	-41.5	-42.8	20.0	0.00e+00	0	39	0	1123024896	56	6285
2026-01-03 20:18:54.86	321.36	4.50	-41.5	-42.8	20.4	0.00e+00	82	39	0	1124073472	56	6272
2026-01-03 20:18:55.87	321.25	4.44	-42.1	-43.4	20.2	0.00e+00	0	39	0	1126170624	56	6767
2026-01-03 20:18:56.87	321.15	4.39	-41.5	-42.8	20.4	0.00e+00	0	39	0	1128267776	56	6302
2026-01-03 20:18:57.88	321.05	4.34	-41.7	-43.0	20.0	0.00e+00	0	39	0	1130364928	56	6458
2026-01-03 20:18:58.89	320.95	4.29	-41.7	-43.0	20.0	0.00e+00	0	39	0	1132462080	56	6406
2026-01-03 20:18:59.90	320.85	4.24	-41.3	-42.5	20.3	0.00e+00	56	39	0	1134559232	56	6074
2026-01-03 20:19:00.91	320.75	4.19	-41.5	-42.9	20.0	0.00e+00	0	39	0	1135607808	56	6323
2026-01-03 20:19:01.92	320.65	4.14	-41.2	-42.4	20.3	0.00e+00	92	39	0	1137704960	56	6028
2026-01-03 20:19:02.93	320.55	4.08	-41.1	-42.4	20.1	0.00e+00	0	39	0	1139802112	56	5991
2026-01-03 20:19:03.94	320.45	4.03	-41.3	-42.6	20.2	0.00e+00	0	39	0	1141899264	56	6171
2026-01-03 20:19:04.95	320.35	3.98	-42.3	-43.8	19.5	0.00e+00	0	39	0	1143996416	56	7035
2026-01-03 20:19:05.96	320.26	3.93	-42.0	-43.4	19.4	0.00e+00	0	39	0	1145044992	56	6755
2026-01-03 20:19:06.96	320.16	3.88	-43.9	-45.5	19.0	0.00e+00	57	39	0	1147142144	60	6818
2026-01-03 20:19:07.97	320.06	3.83	-43.0	-44.4	19.5	0.00e+00	0	39	0	1149239296	58	6720
2026-01-03 20:19:08.98	319.96	3.77	-43.4	-45.1	18.5	0.00e+00	57	39	0	1151336448	58	7303
2026-01-03 20:19:09.99	319.87	3.72	-43.1	-44.7	18.6	0.00e+00	0	39	0	1153433600	58	6982
2026-01-03 20:19:11.00	319.77	3.67	-42.9	-44.6	18.6	0.00e+00	0	39	0	1154482176	58	6882
2026-01-03 20:19:12.01	319.67	3.62	-43.1	-44.9	18.1	0.00e+00	0	39	0	1156579328	58	7103
2026-01-03 20:19:13.02	319.58	3.57	-43.3	-45.1	18.2	0.00e+00	0	39	0	1158676480	58	7271
2026-01-03 20:19:14.03	319.48	3.52	-44.6	-46.6	17.9	0.00e+00	33	39	0	1160773632	60	7690
2026-01-03 20:19:15.03	319.39	3.47	-44.4	-46.3	17.5	0.00e+00	0	39	0	1162870784	60	7507
2026-01-03 20:19:16.04	319.29	3.42	-44.5	-46.3	18.0	0.00e+00	92	39	0	1163919360	60	7480
2026-01-03 20:19:17.05	319.20	3.36	-44.0	-45.8	17.9	0.00e+00	0	39	0	1166016512	60	7064
2026-01-03 20:19:18.06	319.11	3.31	-44.1	-46.1	17.1	0.00e+00	92	39	0	1168113664	60	7256
2026-01-03 20:19:19.07	319.01	3.26	-44.2	-46.0	18.1	0.00e+00	0	39	0	1170210816	60	7181
2026-01-03 20:19:20.08	318.92	3.21	-44.4	-46.3	17.7	0.00e+00	0	39	0	1172307968	60	7501
2026-01-03 20:19:21.08	318.83	3.16	-43.7	-45.4	18.0	0.00e+00	25	39	0	1173356544	60	6760
2026-01-03 20:19:22.09	318.73	3.11	-44.1	-45.9	18.1	0.00e+00	0	39	0	1175453696	60	7111
2026-01-03 20:19:23.10	318.64	3.06	-44.4	-46.4	17.8	0.00e+00	48	39	0	1177550848	60	7530
2026-01-03 20:19:24.11	318.55	3.01	-44.0	-45.7	18.5	0.00e+00	0	39	0	1179648000	60	6996
2026-01-03 20:19:25.12	318.46	2.96	-50.4	-65.6	3.6	1.25e+00	0	39	104	1180696576	60	68785
2026-01-03 20:19:26.13	318.37	2.90	-51.3	-66.6	3.6	1.51e+00	0	39	104	1180696576	60	77134
2026-01-03 20:19:27.14	318.27	2.85	-51.4	-66.7	3.6	1.51e+00	0	39	104	1180696576	60	77865
2026-01-03 20:19:28.15	318.18	2.80	-51.3	-66.5	3.6	1.51e+00	0	39	104	1180696576	60	76387
2026-01-03 20:19:29.16	318.09	2.75	-51.1	-66.3	3.6	1.51e+00	0	39	104	1180696576	60	74646
2026-01-03 20:19:30.17	318.00	2.70	-51.4	-66.7	3.6	1.51e+00	0	39	104	1180696576	60	77748
2026-01-03 20:19:31.18	317.91	2.65	-51.2	-66.4	3.6	1.51e+00	0	39	104	1180696576	60	75327
2026-01-03 20:19:32.19	317.82	2.60	-51.1	-66.3	3.6	1.51e+00	0	39	104	1180696576	60	74894
