passes_logs/2026/01/03/R4.6S_Anadyr/R4.6S_Anadyr__20260103_211654_NOAA_21_JPSS-2_rec.log

#Pass ID: 20260103_211654_NOAA 21 (JPSS-2)
#Satellite: NOAA 21 (JPSS-2)
#Configuration: NOAA-21
#almurnet v.1.7.20251203
#Start time: 2026-01-03 21:16:56

#Version: 2.2.20231116
#Station: R4.6S_Anadyr
#Location: 177.4865 lon 64.73178 lat
#TLE: 1 54234U 22150A   26003.45311712  .00000198  00000+0  11468-3 0  9993
#TLE: 2 54234  98.7487 304.4932 0001159 347.5017  12.6130 14.19531745163172

#Time	Az	El	Level	Level2	SNR	BER	BlckErr	Temp	State	Recorded	gain1	gain2
2026-01-03 21:16:56.04	87.16	0.06	-52.1	-69.8	3.5	3.02e+01	0	36	0	0	60	119241
2026-01-03 21:16:57.05	87.10	0.12	-51.5	-64.4	3.5	1.52e+00	0	38	104	0	60	57996
2026-01-03 21:16:58.06	87.04	0.17	-51.1	-63.9	3.5	1.52e+00	0	38	104	0	60	55281
2026-01-03 21:16:59.07	86.97	0.22	-51.4	-64.2	3.5	1.52e+00	0	38	104	0	60	56950
2026-01-03 21:17:00.08	86.91	0.28	-51.1	-63.9	3.5	1.52e+00	0	38	104	0	60	55283
2026-01-03 21:17:01.09	86.84	0.33	-50.4	-63.3	3.5	1.52e+00	0	38	104	0	60	51155
2026-01-03 21:17:02.10	86.78	0.38	-50.3	-63.1	3.5	1.52e+00	0	38	104	0	60	50287
2026-01-03 21:17:03.11	86.71	0.44	-50.4	-63.3	3.5	1.52e+00	0	38	104	0	60	51435
2026-01-03 21:17:04.12	86.65	0.49	-50.8	-63.6	3.5	1.52e+00	0	38	104	0	60	53260
2026-01-03 21:17:05.13	86.58	0.54	-50.5	-63.4	3.5	1.52e+00	0	38	104	0	60	51964
2026-01-03 21:17:06.14	86.52	0.60	-50.3	-63.2	3.5	1.52e+00	0	38	104	0	60	50879
2026-01-03 21:17:07.15	86.45	0.65	-50.2	-63.2	3.5	1.52e+00	0	38	104	0	60	50547
2026-01-03 21:17:08.16	86.39	0.70	-50.8	-63.6	3.5	1.52e+00	0	38	104	0	60	53287
2026-01-03 21:17:09.17	86.32	0.76	-50.3	-63.2	3.5	1.52e+00	0	38	104	0	60	50579
2026-01-03 21:17:10.18	86.25	0.81	-50.1	-63.0	3.5	1.52e+00	0	38	104	0	60	49508
2026-01-03 21:17:11.19	86.18	0.86	-50.0	-62.9	3.5	1.51e+00	0	38	104	0	60	48879
2026-01-03 21:17:12.20	86.12	0.92	-49.8	-62.8	3.5	1.52e+00	0	38	104	0	60	48241
2026-01-03 21:17:13.21	86.05	0.97	-48.9	-62.2	3.5	1.52e+00	0	38	104	0	60	45099
2026-01-03 21:17:14.22	85.98	1.02	-49.7	-62.6	3.5	1.52e+00	0	38	104	0	60	47450
2026-01-03 21:17:15.22	85.91	1.08	-48.8	-61.9	3.5	1.52e+00	0	38	104	0	60	43703
2026-01-03 21:17:16.24	85.85	1.13	-48.6	-61.6	3.5	1.52e+00	0	38	104	0	60	42306
2026-01-03 21:17:17.24	85.78	1.19	-49.0	-62.0	3.5	1.52e+00	0	38	104	0	60	44131
2026-01-03 21:17:18.25	85.71	1.24	-48.9	-62.0	3.5	1.52e+00	0	38	104	0	60	43967
2026-01-03 21:17:19.26	85.64	1.29	-48.7	-61.7	3.5	1.51e+00	0	38	104	0	60	42482
2026-01-03 21:17:20.27	85.57	1.35	-48.8	-61.8	3.5	1.52e+00	0	38	104	0	60	43084
2026-01-03 21:17:21.28	85.50	1.40	-48.8	-61.9	3.5	1.51e+00	0	38	104	0	60	43761
2026-01-03 21:17:22.29	85.43	1.46	-49.0	-61.9	3.5	1.52e+00	0	38	104	0	60	43824
2026-01-03 21:17:23.30	85.36	1.51	-48.7	-61.7	3.5	1.52e+00	0	38	104	0	60	42926
2026-01-03 21:17:24.31	85.29	1.57	-48.6	-61.6	3.5	1.52e+00	0	39	104	0	60	42012
2026-01-03 21:17:25.32	85.22	1.62	-48.9	-61.9	3.5	1.52e+00	0	39	104	0	60	43812
2026-01-03 21:17:26.33	85.15	1.68	-48.9	-61.9	3.5	1.51e+00	0	38	104	0	60	43858
2026-01-03 21:17:27.34	85.08	1.73	-48.8	-61.8	3.5	1.52e+00	0	38	104	0	60	43320
2026-01-03 21:17:28.35	85.01	1.79	-48.6	-61.7	3.5	1.52e+00	0	38	104	0	60	42537
2026-01-03 21:17:29.36	84.93	1.84	-48.6	-61.7	3.5	1.51e+00	0	39	104	0	60	42874
2026-01-03 21:17:30.37	84.86	1.89	-48.7	-61.8	3.5	1.51e+00	0	39	104	0	60	43149
2026-01-03 21:17:31.38	84.79	1.95	-48.8	-61.7	3.5	1.52e+00	0	39	104	0	60	42761
2026-01-03 21:17:32.39	84.72	2.00	-48.8	-61.7	3.5	1.52e+00	0	39	104	0	60	42593
2026-01-03 21:17:33.40	84.64	2.06	-48.6	-61.2	3.5	1.52e+00	0	39	104	0	60	40474
2026-01-03 21:17:34.41	84.57	2.11	-48.5	-61.3	3.5	1.52e+00	0	39	104	0	60	40694
2026-01-03 21:17:35.42	84.50	2.17	-48.5	-61.2	3.5	1.52e+00	0	39	104	0	60	40338
2026-01-03 21:17:36.42	84.42	2.22	-48.6	-61.3	3.5	1.52e+00	0	39	104	0	60	40899
2026-01-03 21:17:37.43	84.35	2.28	-48.7	-61.6	3.5	1.52e+00	0	39	104	0	60	42063
2026-01-03 21:17:38.44	84.28	2.34	-48.6	-61.6	3.5	1.52e+00	0	39	104	0	60	42176
2026-01-03 21:17:39.45	84.20	2.39	-48.8	-61.7	3.5	1.51e+00	0	39	104	0	60	42910
2026-01-03 21:17:40.46	84.13	2.45	-48.7	-61.7	3.5	1.52e+00	0	39	104	0	60	42649
2026-01-03 21:17:41.47	84.05	2.50	-48.6	-61.6	3.5	1.52e+00	0	39	104	0	60	42175
2026-01-03 21:17:42.48	83.98	2.56	-48.6	-61.6	3.5	1.52e+00	0	39	104	0	60	42437
2026-01-03 21:17:43.49	83.90	2.61	-48.9	-61.8	3.5	1.52e+00	0	39	104	0	60	43044
2026-01-03 21:17:44.50	83.82	2.67	-48.7	-61.4	3.5	1.52e+00	0	39	104	0	60	41342
2026-01-03 21:17:45.51	83.75	2.72	-48.6	-60.3	3.5	1.52e+00	0	39	104	0	60	36277
2026-01-03 21:17:46.52	83.67	2.78	-48.6	-60.2	3.5	1.51e+00	0	39	104	0	60	35987
2026-01-03 21:17:47.53	83.59	2.84	-48.6	-60.3	3.5	1.52e+00	0	39	104	0	60	36539
2026-01-03 21:17:48.54	83.52	2.89	-48.3	-60.4	3.5	1.52e+00	0	39	104	0	60	36569
2026-01-03 21:17:49.55	83.44	2.95	-48.3	-60.8	3.5	1.52e+00	0	39	104	0	60	38523
2026-01-03 21:17:50.55	83.36	3.00	-48.2	-58.0	3.7	1.50e+00	0	39	104	0	60	27916
2026-01-03 21:17:51.56	83.28	3.06	-47.4	-54.1	6.8	2.60e-01	123	39	104	0	60	17742
2026-01-03 21:17:52.57	83.20	3.12	-46.6	-51.0	9.5	2.07e-03	120	39	0	2097152	60	12389
2026-01-03 21:17:53.58	83.13	3.17	-45.9	-49.6	10.9	8.93e-04	123	39	0	5242880	60	10556
2026-01-03 21:17:54.59	83.05	3.23	-45.9	-49.7	10.6	4.16e-04	120	39	0	8388608	60	10711
2026-01-03 21:17:55.60	82.97	3.29	-48.1	-56.7	3.7	5.49e-01	0	39	104	11534336	60	24034
2026-01-03 21:17:56.60	82.89	3.34	-46.2	-50.4	11.3	8.32e-02	120	39	0	11534336	60	11573
2026-01-03 21:17:57.61	82.81	3.40	-40.3	-41.7	19.3	0.00e+00	122	39	0	14680064	56	5380
2026-01-03 21:17:58.62	82.73	3.46	-48.2	-57.2	3.6	0.00e+00	24	39	104	17825792	60	25305
2026-01-03 21:17:59.62	82.65	3.51	-44.4	-47.4	5.1	1.51e+00	0	39	104	17825792	60	8275
2026-01-03 21:18:00.63	82.57	3.57	-40.0	-41.3	19.2	0.00e+00	123	39	0	17825792	52	6483
2026-01-03 21:18:01.64	82.48	3.62	-39.6	-40.9	19.5	0.00e+00	123	39	0	20971520	52	6164
2026-01-03 21:18:02.64	82.40	3.68	-40.0	-41.3	19.6	0.00e+00	123	39	0	24117248	52	6431
2026-01-03 21:18:03.65	82.32	3.74	-39.6	-40.8	19.8	0.00e+00	123	39	0	27262976	52	6097
2026-01-03 21:18:04.66	82.24	3.80	-39.7	-41.0	19.6	0.00e+00	122	39	0	30408704	52	6218
2026-01-03 21:18:05.67	82.16	3.85	-39.9	-41.2	19.9	0.00e+00	122	39	0	33554432	52	6374
2026-01-03 21:18:06.68	82.07	3.91	-39.8	-41.1	19.7	0.00e+00	120	39	0	36700160	52	6317
2026-01-03 21:18:07.69	81.99	3.97	-39.8	-41.1	19.8	0.00e+00	123	39	0	39845888	52	6281
2026-01-03 21:18:08.70	81.91	4.02	-39.7	-41.0	19.7	0.00e+00	120	39	0	42991616	52	6246
2026-01-03 21:18:09.71	81.82	4.08	-39.3	-40.5	20.2	0.00e+00	122	39	0	46137344	52	5912
2026-01-03 21:18:10.72	81.74	4.14	-39.3	-40.5	20.2	0.00e+00	123	39	0	49283072	52	5917
2026-01-03 21:18:11.72	81.65	4.20	-39.5	-40.7	19.8	0.00e+00	123	39	0	52428800	52	6036
2026-01-03 21:18:12.74	81.57	4.25	-39.5	-40.7	20.1	0.00e+00	123	39	0	55574528	52	6007
2026-01-03 21:18:13.74	81.48	4.31	-39.7	-40.9	20.3	0.00e+00	123	39	0	58720256	52	6162
2026-01-03 21:18:14.75	81.40	4.37	-40.6	-41.8	20.4	0.00e+00	122	39	0	61865984	52	6868
2026-01-03 21:18:15.76	81.31	4.43	-40.3	-41.5	20.2	0.00e+00	123	39	0	65011712	52	6586
2026-01-03 21:18:16.77	81.22	4.48	-40.2	-41.4	20.1	0.00e+00	123	39	0	68157440	52	6513
2026-01-03 21:18:17.78	81.14	4.54	-39.4	-40.6	20.3	0.00e+00	122	39	0	71303168	52	5977
2026-01-03 21:18:18.79	81.05	4.60	-39.5	-40.7	20.2	0.00e+00	120	39	0	74448896	52	6049
2026-01-03 21:18:19.80	80.96	4.66	-39.6	-40.8	20.4	0.00e+00	122	39	0	77594624	52	6110
2026-01-03 21:18:20.81	80.87	4.72	-39.6	-40.8	20.1	0.00e+00	122	39	0	80740352	52	6087
2026-01-03 21:18:21.82	80.79	4.77	-40.3	-41.6	20.3	0.00e+00	123	39	0	83886080	52	6677
2026-01-03 21:18:22.84	80.70	4.83	-39.9	-41.1	20.3	0.00e+00	123	39	0	87031808	52	6318
2026-01-03 21:18:23.84	80.61	4.89	-39.6	-40.7	20.6	0.00e+00	123	39	0	90177536	52	6060
2026-01-03 21:18:24.85	80.52	4.95	-39.5	-40.6	20.6	0.00e+00	122	39	0	93323264	52	5986
2026-01-03 21:18:25.86	80.43	5.01	-39.6	-40.7	20.6	0.00e+00	122	39	0	96468992	52	6047
2026-01-03 21:18:26.87	80.34	5.06	-39.5	-40.7	20.2	0.00e+00	123	39	0	99614720	52	6043
2026-01-03 21:18:27.88	80.25	5.12	-39.7	-40.9	20.5	0.00e+00	122	39	0	102760448	52	6166
2026-01-03 21:18:28.89	80.16	5.18	-39.2	-40.4	20.7	0.00e+00	120	39	0	105906176	52	5820
2026-01-03 21:18:29.90	80.07	5.24	-39.2	-40.3	20.7	0.00e+00	122	39	0	109051904	52	5755
2026-01-03 21:18:30.91	79.98	5.30	-39.1	-40.2	20.7	0.00e+00	122	39	0	112197632	52	5714
2026-01-03 21:18:31.92	79.88	5.36	-39.4	-40.6	20.7	0.00e+00	122	39	0	115343360	52	5956
2026-01-03 21:18:32.93	79.79	5.42	-39.6	-40.7	20.6	0.00e+00	123	39	0	118489088	52	6053
2026-01-03 21:18:33.94	79.70	5.48	-39.2	-40.3	20.7	0.00e+00	123	39	0	121634816	52	5770
2026-01-03 21:18:34.95	79.60	5.53	-39.3	-40.5	20.8	0.00e+00	120	39	0	124780544	52	5870
2026-01-03 21:18:35.96	79.51	5.59	-39.1	-40.2	20.9	0.00e+00	123	39	0	127926272	52	5696
2026-01-03 21:18:36.97	79.42	5.65	-39.4	-40.5	21.1	0.00e+00	123	39	0	131072000	52	5909
2026-01-03 21:18:37.98	79.32	5.71	-39.2	-40.3	21.1	0.00e+00	123	39	0	134217728	52	5771
2026-01-03 21:18:38.98	79.23	5.77	-39.7	-40.8	21.1	0.00e+00	123	39	0	137363456	52	6074
2026-01-03 21:18:39.99	79.13	5.83	-39.2	-40.3	21.0	0.00e+00	123	39	0	140509184	52	5778
2026-01-03 21:18:41.00	79.04	5.89	-38.9	-40.0	21.0	0.00e+00	123	39	0	143654912	52	5562
2026-01-03 21:18:42.01	78.94	5.95	-38.8	-40.0	20.9	0.00e+00	122	39	0	146800640	52	5536
2026-01-03 21:18:43.02	78.85	6.01	-38.7	-39.8	21.1	0.00e+00	122	39	0	149946368	50	6084
2026-01-03 21:18:44.03	78.75	6.07	-38.7	-39.7	21.2	0.00e+00	123	39	0	153092096	50	6060
2026-01-03 21:18:45.04	78.65	6.13	-38.7	-39.8	21.4	0.00e+00	123	39	0	156237824	50	6090
2026-01-03 21:18:46.05	78.55	6.19	-38.6	-39.7	21.4	0.00e+00	123	39	0	159383552	50	6030
2026-01-03 21:18:47.06	78.46	6.24	-39.7	-40.9	20.0	0.00e+00	123	39	0	162529280	54	5490
2026-01-03 21:18:48.07	78.36	6.30	-39.3	-40.5	21.0	0.00e+00	123	39	0	165675008	52	5875
2026-01-03 21:18:49.07	78.26	6.36	-39.2	-40.3	20.9	0.00e+00	122	39	0	168820736	56	4560
2026-01-03 21:18:50.08	78.16	6.42	-41.0	-42.4	19.0	0.00e+00	120	39	0	171966464	50	8218
2026-01-03 21:18:51.09	78.06	6.48	-39.5	-40.6	21.2	0.00e+00	122	39	0	175112192	52	5955
2026-01-03 21:18:52.10	77.96	6.54	-40.6	-41.8	21.2	0.00e+00	120	39	0	178257920	52	6859
2026-01-03 21:18:53.11	77.86	6.60	-39.8	-40.9	20.6	0.00e+00	123	39	0	181403648	52	6179
2026-01-03 21:18:54.12	77.76	6.66	-41.6	-43.0	21.1	0.00e+00	120	39	0	184549376	52	7859
2026-01-03 21:18:55.13	77.66	6.72	-39.7	-40.9	20.2	0.00e+00	123	39	0	187695104	52	6183
2026-01-03 21:18:56.14	77.56	6.78	-40.2	-41.3	21.1	0.00e+00	122	39	0	190840832	52	6457
2026-01-03 21:18:57.15	77.46	6.84	-42.2	-43.5	19.6	0.00e+00	123	39	0	193986560	56	6648
2026-01-03 21:18:58.16	77.35	6.90	-40.1	-41.3	20.8	0.00e+00	123	39	0	197132288	54	5763
2026-01-03 21:18:59.17	77.25	6.96	-40.0	-41.2	21.1	0.00e+00	123	39	0	200278016	52	6381
2026-01-03 21:19:00.18	77.15	7.02	-39.7	-40.8	21.1	0.00e+00	122	39	0	203423744	52	6123
2026-01-03 21:19:01.19	77.04	7.08	-39.4	-40.6	21.1	0.00e+00	122	39	0	206569472	52	5944
2026-01-03 21:19:02.20	76.94	7.14	-42.1	-43.5	20.9	0.00e+00	123	39	0	209715200	52	8363
2026-01-03 21:19:03.21	76.83	7.20	-40.3	-41.6	20.0	0.00e+00	123	39	0	212860928	54	5945
2026-01-03 21:19:04.22	76.73	7.27	-39.1	-40.2	21.2	0.00e+00	123	39	0	216006656	52	5679
2026-01-03 21:19:05.23	76.62	7.33	-39.7	-40.8	21.0	0.00e+00	120	39	0	219152384	52	6087
2026-01-03 21:19:06.24	76.52	7.39	-39.9	-41.0	20.4	0.00e+00	123	39	0	222298112	52	6273
2026-01-03 21:19:07.24	76.41	7.45	-40.1	-41.3	21.1	0.00e+00	120	39	0	225443840	52	6452
2026-01-03 21:19:08.25	76.30	7.51	-39.7	-40.8	20.4	0.00e+00	120	39	0	228589568	52	6085
2026-01-03 21:19:09.26	76.20	7.57	-39.4	-40.5	21.0	0.00e+00	122	39	0	231735296	52	5866
2026-01-03 21:19:10.27	76.09	7.63	-39.3	-40.5	21.1	0.00e+00	123	39	0	234881024	52	5867
2026-01-03 21:19:11.28	75.98	7.69	-39.3	-40.4	20.5	0.00e+00	123	39	0	238026752	52	5853
2026-01-03 21:19:12.29	75.87	7.75	-39.4	-40.5	20.8	0.00e+00	120	39	0	241172480	52	5900
2026-01-03 21:19:13.30	75.76	7.81	-38.9	-40.0	21.1	0.00e+00	122	39	0	244318208	52	5581
2026-01-03 21:19:14.31	75.65	7.87	-39.0	-40.0	21.2	0.00e+00	123	39	0	248512512	52	5591
2026-01-03 21:19:15.32	75.54	7.93	-39.1	-40.2	21.6	0.00e+00	123	39	0	251658240	52	5662
2026-01-03 21:19:16.33	75.43	7.99	-39.1	-40.2	20.2	0.00e+00	121	39	0	253755392	52	5703
2026-01-03 21:19:17.34	75.32	8.06	-40.2	-41.4	20.7	0.00e+00	122	39	0	256901120	50	7350
2026-01-03 21:19:18.35	75.21	8.12	-38.8	-39.9	21.0	0.00e+00	120	39	0	260046848	52	5511
2026-01-03 21:19:19.36	75.09	8.18	-39.1	-40.2	21.2	0.00e+00	123	39	0	263192576	52	5707
2026-01-03 21:19:20.36	74.98	8.24	-38.8	-39.9	20.8	0.00e+00	122	39	0	267386880	50	6168
2026-01-03 21:19:21.37	74.87	8.30	-39.1	-40.2	21.1	0.00e+00	122	39	0	270532608	50	6382
2026-01-03 21:19:22.38	74.76	8.36	-39.0	-40.2	21.0	0.00e+00	122	39	0	273678336	50	6353
2026-01-03 21:19:23.39	74.64	8.42	-38.9	-40.0	21.0	0.00e+00	122	39	0	276824064	50	6271
2026-01-03 21:19:24.40	74.53	8.48	-38.5	-39.6	21.5	0.00e+00	123	39	0	278921216	50	5927
2026-01-03 21:19:25.41	74.41	8.55	-40.2	-41.4	21.0	0.00e+00	123	39	0	283115520	50	7328
2026-01-03 21:19:26.42	74.30	8.61	-39.5	-40.6	21.3	0.00e+00	122	39	0	286261248	54	5307
2026-01-03 21:19:27.43	74.18	8.67	-39.2	-40.3	21.8	0.00e+00	122	39	0	289406976	50	6433
2026-01-03 21:19:28.44	74.06	8.73	-38.6	-39.6	22.1	0.00e+00	122	39	0	292552704	50	5964
2026-01-03 21:19:29.45	73.95	8.79	-40.0	-41.1	21.6	0.00e+00	120	39	0	295698432	56	4994
2026-01-03 21:19:30.46	73.83	8.85	-38.4	-39.5	20.3	0.00e+00	123	39	0	298844160	50	5880
2026-01-03 21:19:31.47	73.71	8.91	-41.1	-42.2	21.4	0.00e+00	122	39	0	301989888	52	7182
2026-01-03 21:19:32.48	73.59	8.98	-38.3	-39.3	21.8	0.00e+00	123	39	0	305135616	50	5780
2026-01-03 21:19:33.49	73.47	9.04	-39.1	-40.1	21.6	0.00e+00	123	39	0	308281344	50	6330
2026-01-03 21:19:34.50	73.35	9.10	-39.7	-40.7	22.1	0.00e+00	120	39	0	311427072	52	6034
2026-01-03 21:19:35.51	73.23	9.16	-38.7	-39.7	21.6	0.00e+00	123	39	0	314572800	50	6021
2026-01-03 21:19:36.51	73.11	9.22	-40.2	-41.4	20.8	0.00e+00	123	39	0	317718528	50	7339
2026-01-03 21:19:37.52	72.99	9.28	-44.8	-46.6	21.6	0.00e+00	123	39	0	320864256	56	9399
2026-01-03 21:19:38.53	72.87	9.35	-38.6	-39.7	21.8	0.00e+00	123	39	0	324009984	50	6033
2026-01-03 21:19:39.54	72.75	9.41	-39.0	-40.0	22.2	0.00e+00	122	39	0	327155712	50	6262
2026-01-03 21:19:40.55	72.62	9.47	-38.1	-39.1	22.1	0.00e+00	122	39	0	330301440	50	5629
2026-01-03 21:19:41.56	72.50	9.53	-38.5	-39.5	21.9	0.00e+00	123	39	0	333447168	50	5914
2026-01-03 21:19:42.57	72.38	9.59	-38.3	-39.3	22.1	0.00e+00	120	39	0	336592896	50	5753
2026-01-03 21:19:43.58	72.25	9.66	-38.0	-38.9	22.6	0.00e+00	122	39	0	339738624	50	5529
2026-01-03 21:19:44.58	72.13	9.72	-38.0	-39.0	22.7	0.00e+00	120	39	0	342884352	50	5551
2026-01-03 21:19:45.60	72.00	9.78	-37.7	-38.7	22.8	0.00e+00	120	39	0	346030080	48	6004
2026-01-03 21:19:46.60	71.88	9.84	-37.7	-38.6	22.7	0.00e+00	123	39	0	349175808	48	5983
2026-01-03 21:19:47.61	71.75	9.90	-38.0	-39.0	22.6	0.00e+00	122	39	0	352321536	48	6220
2026-01-03 21:19:48.62	71.62	9.97	-38.0	-39.0	22.0	0.00e+00	122	39	0	355467264	48	6230
2026-01-03 21:19:49.63	71.50	10.03	-38.2	-39.2	22.9	0.00e+00	123	39	0	358612992	48	6386
2026-01-03 21:19:50.64	71.37	10.09	-37.5	-38.5	22.6	0.00e+00	122	39	0	361758720	48	5912
2026-01-03 21:19:51.65	71.24	10.15	-37.4	-38.4	22.7	0.00e+00	122	39	0	364904448	48	5823
2026-01-03 21:19:52.66	71.11	10.21	-37.5	-38.5	22.7	0.00e+00	122	39	0	368050176	48	5905
2026-01-03 21:19:53.67	70.98	10.28	-39.1	-40.2	20.9	0.00e+00	122	39	0	371195904	50	6407
2026-01-03 21:19:54.67	70.85	10.34	-38.5	-39.6	22.0	0.00e+00	120	39	0	374341632	48	6657
2026-01-03 21:19:55.68	70.72	10.40	-38.2	-39.2	22.1	0.00e+00	123	39	0	377487360	48	6416
2026-01-03 21:19:56.69	70.59	10.46	-37.8	-38.8	22.8	0.00e+00	122	39	0	380633088	48	6112
2026-01-03 21:19:57.70	70.45	10.52	-37.7	-38.6	23.0	0.00e+00	120	39	0	383778816	48	5959
2026-01-03 21:19:58.71	70.32	10.59	-37.9	-38.8	23.1	0.00e+00	123	39	0	386924544	48	6099
2026-01-03 21:19:59.72	70.19	10.65	-37.4	-38.3	23.2	0.00e+00	123	39	0	390070272	48	5770
2026-01-03 21:20:00.73	70.05	10.71	-38.1	-39.1	23.3	0.00e+00	121	39	0	393216000	48	6281
2026-01-03 21:20:01.74	69.92	10.77	-37.7	-38.6	22.9	0.00e+00	123	39	0	396361728	48	5984
2026-01-03 21:20:02.75	69.78	10.84	-37.6	-38.5	23.0	0.00e+00	122	39	0	399507456	48	5922
2026-01-03 21:20:03.76	69.65	10.90	-37.8	-38.8	23.2	0.00e+00	120	39	0	402653184	48	6083
2026-01-03 21:20:04.77	69.51	10.96	-38.6	-39.7	18.0	0.00e+00	123	39	0	405798912	50	6002
2026-01-03 21:20:05.78	69.38	11.02	-37.7	-38.7	23.2	0.00e+00	122	39	0	408944640	48	6011
2026-01-03 21:20:06.79	69.24	11.08	-37.8	-38.8	22.5	0.00e+00	123	39	0	412090368	48	6128
2026-01-03 21:20:07.80	69.10	11.15	-37.6	-38.5	23.0	0.00e+00	122	39	0	415236096	48	5898
2026-01-03 21:20:08.81	68.96	11.21	-37.5	-38.5	23.0	0.00e+00	121	39	0	418381824	48	5886
2026-01-03 21:20:09.81	68.82	11.27	-38.0	-39.0	22.8	0.00e+00	123	39	0	421527552	48	6232
2026-01-03 21:20:10.83	68.68	11.33	-37.8	-38.8	23.1	0.00e+00	123	39	0	424673280	48	6065
2026-01-03 21:20:11.83	68.54	11.40	-37.3	-38.2	23.1	0.00e+00	122	39	0	427819008	48	5696
2026-01-03 21:20:12.85	68.40	11.46	-37.2	-38.2	23.1	0.00e+00	123	40	0	430964736	48	5681
2026-01-03 21:20:13.86	68.26	11.52	-37.9	-38.8	23.1	0.00e+00	123	40	0	434110464	48	6109
2026-01-03 21:20:14.86	68.12	11.58	-38.0	-38.9	22.5	0.00e+00	123	40	0	437256192	50	5520
2026-01-03 21:20:15.87	67.97	11.64	-37.7	-38.6	23.4	0.00e+00	123	39	0	440401920	48	5956
2026-01-03 21:20:16.88	67.83	11.71	-37.2	-38.2	23.3	0.00e+00	123	39	0	443547648	48	5676
2026-01-03 21:20:17.89	67.69	11.77	-38.3	-39.3	23.2	0.00e+00	123	39	0	446693376	48	6448
2026-01-03 21:20:18.90	67.54	11.83	-37.5	-38.4	23.4	0.00e+00	123	39	0	449839104	48	5845
2026-01-03 21:20:19.91	67.40	11.89	-37.3	-38.2	23.4	0.00e+00	123	40	0	452984832	48	5701
2026-01-03 21:20:20.92	67.25	11.95	-37.2	-38.1	23.3	0.00e+00	123	40	0	456130560	48	5648
2026-01-03 21:20:21.92	67.11	12.02	-37.1	-38.0	23.4	0.00e+00	122	39	0	459276288	48	5592
2026-01-03 21:20:22.93	66.96	12.08	-37.0	-38.0	23.5	0.00e+00	122	40	0	462422016	48	5536
2026-01-03 21:20:23.94	66.81	12.14	-37.5	-38.4	23.5	0.00e+00	122	40	0	465567744	48	5802
2026-01-03 21:20:24.95	66.66	12.20	-37.3	-38.2	23.5	0.00e+00	122	40	0	468713472	48	5725
2026-01-03 21:20:25.96	66.51	12.26	-37.0	-37.9	23.5	0.00e+00	122	40	0	471859200	48	5521
2026-01-03 21:20:26.97	66.36	12.33	-38.1	-39.0	23.2	0.00e+00	123	39	0	475004928	48	6247
2026-01-03 21:20:27.98	66.21	12.39	-37.7	-38.7	23.1	0.00e+00	123	39	0	478150656	48	6015
2026-01-03 21:20:28.99	66.06	12.45	-37.6	-38.5	23.2	0.00e+00	122	39	0	481296384	48	5902
2026-01-03 21:20:30.00	65.91	12.51	-37.7	-38.7	23.1	0.00e+00	122	39	0	484442112	48	5997
2026-01-03 21:20:31.01	65.76	12.57	-37.3	-38.3	23.1	0.00e+00	123	40	0	487587840	48	5747
2026-01-03 21:20:32.02	65.60	12.63	-37.6	-38.6	23.1	0.00e+00	122	39	0	490733568	48	5930
2026-01-03 21:20:33.03	65.45	12.70	-38.1	-39.1	23.1	0.00e+00	122	40	0	493879296	48	6279
2026-01-03 21:20:34.04	65.30	12.76	-37.7	-38.7	23.1	0.00e+00	123	39	0	497025024	48	6012
2026-01-03 21:20:35.04	65.14	12.82	-37.8	-38.8	23.0	0.00e+00	122	39	0	500170752	48	6085
2026-01-03 21:20:36.05	64.99	12.88	-37.5	-38.5	23.0	0.00e+00	122	39	0	503316480	48	5903
2026-01-03 21:20:37.06	64.83	12.94	-37.4	-38.4	23.3	0.00e+00	123	40	0	506462208	48	5835
2026-01-03 21:20:38.07	64.67	13.00	-37.7	-38.7	23.1	0.00e+00	123	40	0	509607936	48	5999
2026-01-03 21:20:39.07	64.52	13.06	-39.4	-40.4	21.7	0.00e+00	123	40	0	512753664	54	5210
2026-01-03 21:20:40.08	64.36	13.12	-38.3	-39.3	22.4	0.00e+00	123	40	0	515899392	48	6472
2026-01-03 21:20:41.09	64.20	13.18	-38.0	-39.0	22.3	0.00e+00	123	39	0	519045120	48	6259
2026-01-03 21:20:42.10	64.04	13.25	-37.8	-38.7	22.6	0.00e+00	123	40	0	522190848	50	5403
2026-01-03 21:20:43.11	63.88	13.31	-37.5	-38.5	22.9	0.00e+00	120	40	0	525336576	48	5880
2026-01-03 21:20:44.12	63.72	13.37	-37.3	-38.3	22.8	0.00e+00	122	40	0	528482304	48	5731
2026-01-03 21:20:45.13	63.56	13.43	-40.4	-41.5	21.0	0.00e+00	120	40	0	531628032	52	6632
2026-01-03 21:20:46.14	63.39	13.49	-38.1	-39.1	22.3	0.00e+00	122	40	0	534773760	50	5612
2026-01-03 21:20:47.15	63.23	13.55	-37.4	-38.4	22.6	0.00e+00	120	40	0	537919488	48	5804
2026-01-03 21:20:48.16	63.07	13.61	-38.2	-39.3	22.3	0.00e+00	121	40	0	541065216	48	6442
2026-01-03 21:20:49.17	62.90	13.67	-38.1	-39.1	21.3	0.00e+00	123	39	0	544210944	48	6316
2026-01-03 21:20:50.18	62.74	13.73	-38.7	-39.8	21.8	0.00e+00	120	40	0	547356672	50	6111
2026-01-03 21:20:51.19	62.57	13.79	-37.9	-38.9	22.3	0.00e+00	122	40	0	550502400	48	6144
2026-01-03 21:20:52.19	62.41	13.85	-38.2	-39.2	22.4	0.00e+00	122	40	0	553648128	48	6381
2026-01-03 21:20:53.20	62.24	13.91	-38.0	-39.0	22.4	0.00e+00	121	40	0	556793856	48	6236
2026-01-03 21:20:54.21	62.07	13.97	-37.8	-38.8	22.3	0.00e+00	123	40	0	559939584	50	5459
2026-01-03 21:20:55.22	61.90	14.03	-37.0	-38.0	22.9	0.00e+00	120	40	0	563085312	48	5538
2026-01-03 21:20:56.23	61.74	14.09	-37.8	-38.8	22.7	0.00e+00	120	40	0	566231040	52	4827
2026-01-03 21:20:57.24	61.57	14.15	-37.7	-38.7	22.7	0.00e+00	118	40	0	569376768	48	6013
2026-01-03 21:20:58.25	61.40	14.21	-37.3	-38.3	22.7	0.00e+00	120	40	0	572522496	48	5771
2026-01-03 21:20:59.26	61.22	14.27	-37.3	-38.3	22.8	0.00e+00	123	40	0	575668224	48	5762
2026-01-03 21:21:00.26	61.05	14.33	-37.2	-38.2	22.8	0.00e+00	120	40	0	578813952	48	5671
2026-01-03 21:21:01.26	60.88	14.39	-37.2	-38.1	22.7	0.00e+00	122	40	0	581959680	48	5652
2026-01-03 21:21:02.27	60.71	14.45	-37.2	-38.2	22.7	0.00e+00	120	40	0	585105408	48	5719
2026-01-03 21:21:03.28	60.54	14.51	-38.1	-39.1	22.6	0.00e+00	123	40	0	588251136	48	6320
2026-01-03 21:21:04.29	60.36	14.56	-38.0	-39.0	22.6	0.00e+00	121	40	0	591396864	48	6246
2026-01-03 21:21:05.30	60.19	14.62	-38.0	-39.0	22.2	0.00e+00	122	40	0	594542592	48	6255
2026-01-03 21:21:06.31	60.01	14.68	-38.6	-39.6	22.2	0.00e+00	120	40	0	597688320	48	6705
2026-01-03 21:21:07.32	59.83	14.74	-38.9	-39.9	22.7	0.00e+00	122	40	0	600834048	50	6155
2026-01-03 21:21:08.32	59.66	14.80	-38.1	-39.1	22.5	0.00e+00	120	40	0	603979776	50	5604
2026-01-03 21:21:09.33	59.48	14.86	-41.4	-42.7	21.2	0.00e+00	122	40	0	607125504	50	8521
2026-01-03 21:21:10.34	59.30	14.92	-38.5	-39.5	22.5	0.00e+00	123	40	0	610271232	52	5264
2026-01-03 21:21:11.35	59.12	14.97	-40.1	-41.2	21.5	0.00e+00	123	40	0	613416960	50	7194
2026-01-03 21:21:12.35	58.94	15.03	-38.7	-39.7	22.5	0.00e+00	123	40	0	616562688	50	6042
2026-01-03 21:21:13.36	58.76	15.09	-39.4	-40.5	21.6	0.00e+00	123	40	0	619708416	50	6574
2026-01-03 21:21:14.37	58.58	15.15	-38.5	-39.5	21.9	0.00e+00	120	40	0	622854144	50	5920
2026-01-03 21:21:15.38	58.40	15.20	-38.2	-39.3	22.3	0.00e+00	122	40	0	625999872	50	5733
2026-01-03 21:21:16.39	58.21	15.26	-38.2	-39.3	22.1	0.00e+00	123	40	0	629145600	48	6452
2026-01-03 21:21:17.40	58.03	15.32	-37.8	-38.8	22.3	0.00e+00	122	40	0	632291328	48	6108
2026-01-03 21:21:18.41	57.84	15.37	-37.5	-38.5	22.4	0.00e+00	123	40	0	635437056	48	5867
2026-01-03 21:21:19.42	57.66	15.43	-37.6	-38.6	22.2	0.00e+00	123	40	0	638582784	48	5979
2026-01-03 21:21:20.43	57.47	15.49	-38.1	-39.1	21.7	0.00e+00	122	40	0	641728512	48	6330
2026-01-03 21:21:21.44	57.29	15.54	-37.7	-38.7	22.1	0.00e+00	122	40	0	644874240	48	6010
2026-01-03 21:21:22.45	57.10	15.60	-37.3	-38.3	22.3	0.00e+00	123	40	0	648019968	48	5784
2026-01-03 21:21:23.46	56.91	15.66	-37.4	-38.4	22.2	0.00e+00	123	40	0	651165696	48	5853
2026-01-03 21:21:24.47	56.72	15.71	-38.0	-39.0	22.3	0.00e+00	123	40	0	654311424	48	6243
2026-01-03 21:21:25.48	56.53	15.77	-38.7	-39.7	22.2	0.00e+00	120	40	0	657457152	48	6782
2026-01-03 21:21:26.49	56.34	15.82	-38.4	-39.4	22.3	0.00e+00	123	40	0	660602880	50	5848
2026-01-03 21:21:27.50	56.15	15.88	-39.4	-40.4	21.7	0.00e+00	122	40	0	663748608	52	5823
2026-01-03 21:21:28.51	55.96	15.93	-38.7	-39.8	21.8	0.00e+00	123	40	0	666894336	50	6070
2026-01-03 21:21:29.52	55.77	15.99	-37.9	-38.9	22.2	0.00e+00	123	40	0	670040064	50	5493
2026-01-03 21:21:30.52	55.58	16.04	-37.4	-38.4	22.3	0.00e+00	123	40	0	673185792	48	5845
2026-01-03 21:21:31.54	55.38	16.10	-37.5	-38.5	22.3	0.00e+00	120	40	0	676331520	48	5894
2026-01-03 21:21:32.54	55.19	16.15	-37.5	-38.5	22.2	0.00e+00	123	40	0	679477248	48	5883
2026-01-03 21:21:33.55	54.99	16.20	-38.3	-39.3	22.1	0.00e+00	121	40	0	682622976	48	6460
2026-01-03 21:21:34.56	54.80	16.26	-38.1	-39.1	22.4	0.00e+00	123	40	0	686817280	50	5611
2026-01-03 21:21:35.57	54.60	16.31	-38.3	-39.3	21.9	0.00e+00	120	40	0	688914432	50	5790
2026-01-03 21:21:36.58	54.40	16.37	-37.5	-38.5	22.5	0.00e+00	123	40	0	692060160	48	5909
2026-01-03 21:21:37.59	54.20	16.42	-37.6	-38.6	22.4	0.00e+00	123	40	0	695205888	48	5978
2026-01-03 21:21:38.60	54.01	16.47	-37.3	-38.3	22.7	0.00e+00	123	40	0	698351616	48	5774
2026-01-03 21:21:39.61	53.81	16.52	-37.0	-38.0	22.6	0.00e+00	123	40	0	702545920	48	5575
2026-01-03 21:21:40.62	53.61	16.58	-37.0	-38.0	22.5	0.00e+00	120	40	0	705691648	48	5542
2026-01-03 21:21:41.63	53.40	16.63	-37.4	-38.3	22.7	0.00e+00	122	40	0	708837376	48	5775
2026-01-03 21:21:42.63	53.21	16.68	-37.4	-38.4	22.5	0.00e+00	123	40	0	711983104	48	5803
2026-01-03 21:21:43.64	53.00	16.73	-37.7	-38.7	22.7	0.00e+00	123	40	0	714080256	48	6006
2026-01-03 21:21:44.65	52.80	16.78	-37.1	-38.0	22.9	0.00e+00	121	40	0	717225984	48	5588
2026-01-03 21:21:45.66	52.60	16.83	-37.6	-38.6	22.8	0.00e+00	123	40	0	721420288	48	5974
2026-01-03 21:21:46.67	52.39	16.88	-37.9	-39.0	21.8	0.00e+00	120	40	0	724566016	48	6238
2026-01-03 21:21:47.68	52.19	16.93	-38.4	-39.4	22.2	0.00e+00	123	40	0	727711744	48	6535
2026-01-03 21:21:48.69	51.98	16.99	-37.8	-38.7	22.6	0.00e+00	120	40	0	730857472	48	6052
2026-01-03 21:21:49.70	51.77	17.04	-39.0	-40.2	20.1	0.00e+00	123	40	0	734003200	48	7146
2026-01-03 21:21:50.71	51.57	17.08	-38.4	-39.4	22.3	0.00e+00	122	40	0	737148928	50	5815
2026-01-03 21:21:51.72	51.36	17.13	-37.5	-38.5	22.4	0.00e+00	123	40	0	740294656	48	5903
2026-01-03 21:21:52.73	51.15	17.18	-37.5	-38.5	22.2	0.00e+00	121	40	0	743440384	48	5870
2026-01-03 21:21:53.73	50.94	17.23	-37.7	-38.7	22.5	0.00e+00	123	40	0	746586112	48	6062
2026-01-03 21:21:54.74	50.73	17.28	-37.9	-39.0	22.0	0.00e+00	123	40	0	749731840	48	6222
2026-01-03 21:21:55.75	50.52	17.33	-38.1	-39.1	22.5	0.00e+00	123	40	0	752877568	48	6299
2026-01-03 21:21:56.76	50.31	17.38	-38.1	-39.1	22.6	0.00e+00	122	40	0	756023296	50	5629
2026-01-03 21:21:57.77	50.10	17.42	-38.1	-39.1	22.3	0.00e+00	122	40	0	759169024	50	5627
2026-01-03 21:21:58.78	49.89	17.47	-37.3	-38.3	22.6	0.00e+00	120	40	0	762314752	48	5775
2026-01-03 21:21:59.79	49.67	17.52	-38.9	-40.0	21.0	0.00e+00	122	40	0	765460480	48	7038
2026-01-03 21:22:00.79	49.46	17.56	-38.2	-39.2	22.2	0.00e+00	120	40	0	768606208	50	5712
2026-01-03 21:22:01.80	49.25	17.61	-37.3	-38.3	23.1	0.00e+00	123	40	0	771751936	48	5748
2026-01-03 21:22:02.81	49.03	17.66	-37.6	-38.6	22.8	0.00e+00	123	40	0	774897664	48	5947
2026-01-03 21:22:03.82	48.82	17.70	-38.4	-39.3	23.0	0.00e+00	123	40	0	778043392	48	6481
2026-01-03 21:22:04.83	48.60	17.75	-37.5	-38.4	23.1	0.00e+00	122	40	0	781189120	48	5843
2026-01-03 21:22:05.84	48.38	17.79	-38.1	-39.1	23.1	0.00e+00	123	40	0	784334848	48	6332
2026-01-03 21:22:06.85	48.17	17.84	-38.4	-39.5	22.7	0.00e+00	122	40	0	787480576	48	6582
2026-01-03 21:22:07.86	47.95	17.88	-37.8	-38.8	21.7	0.00e+00	123	40	0	790626304	48	6088
2026-01-03 21:22:08.87	47.73	17.93	-38.1	-39.1	23.1	0.00e+00	122	40	0	793772032	48	6333
2026-01-03 21:22:09.88	47.51	17.97	-37.2	-38.1	23.4	0.00e+00	122	40	0	796917760	48	5656
2026-01-03 21:22:10.89	47.29	18.01	-36.9	-37.8	23.3	0.00e+00	123	40	0	800063488	48	5458
2026-01-03 21:22:11.90	47.07	18.06	-36.6	-37.6	23.1	0.00e+00	123	40	0	803209216	46	5931
2026-01-03 21:22:12.91	46.84	18.10	-36.6	-37.5	23.2	0.00e+00	123	40	0	806354944	46	5909
2026-01-03 21:22:13.91	46.62	18.14	-38.4	-39.4	22.0	0.00e+00	123	40	0	809500672	48	6526
2026-01-03 21:22:14.92	46.40	18.18	-36.9	-37.8	23.0	0.00e+00	120	40	0	812646400	48	5454
2026-01-03 21:22:15.93	46.18	18.22	-36.8	-37.7	23.2	0.00e+00	122	40	0	815792128	48	5370
2026-01-03 21:22:16.94	45.95	18.26	-37.0	-37.9	23.2	0.00e+00	120	40	0	818937856	46	6176
2026-01-03 21:22:17.95	45.73	18.30	-37.2	-38.1	22.5	0.00e+00	122	40	0	822083584	46	6331
2026-01-03 21:22:18.96	45.50	18.35	-37.1	-38.1	22.6	0.00e+00	122	40	0	825229312	46	6314
2026-01-03 21:22:19.97	45.28	18.38	-37.0	-37.9	22.7	0.00e+00	120	40	0	828375040	46	6195
2026-01-03 21:22:20.98	45.05	18.42	-36.3	-37.3	23.5	0.00e+00	123	40	0	831520768	46	5753
2026-01-03 21:22:21.99	44.82	18.46	-36.2	-37.2	23.2	0.00e+00	120	40	0	834666496	46	5669
2026-01-03 21:22:23.00	44.60	18.50	-36.1	-37.1	23.1	0.00e+00	123	40	0	837812224	46	5613
2026-01-03 21:22:24.01	44.37	18.54	-37.2	-38.2	22.9	0.00e+00	123	40	0	840957952	48	5664
2026-01-03 21:22:25.02	44.14	18.58	-37.5	-38.4	22.0	0.00e+00	122	40	0	844103680	50	5215
2026-01-03 21:22:26.03	43.91	18.62	-37.1	-38.0	23.2	0.00e+00	121	40	0	847249408	46	6250
2026-01-03 21:22:27.04	43.68	18.65	-36.9	-37.9	21.3	0.00e+00	123	40	0	850395136	46	6148
2026-01-03 21:22:28.05	43.45	18.69	-36.5	-37.4	22.2	0.00e+00	120	40	0	853540864	46	5855
2026-01-03 21:22:29.05	43.22	18.72	-34.8	-36.3	13.4	1.50e-06	123	40	0	856686592	48	4577
2026-01-03 21:22:30.07	42.99	18.76	-31.9	-36.5	3.7	1.22e+00	11	40	104	858783744	40	7434
2026-01-03 21:22:31.07	42.76	18.80	-36.3	-37.2	13.9	4.38e-02	122	40	0	859832320	44	6419
2026-01-03 21:22:32.08	42.52	18.83	-36.9	-37.9	18.0	0.00e+00	122	40	0	862978048	46	6145
2026-01-03 21:22:33.09	42.29	18.86	-36.7	-37.7	23.7	0.00e+00	122	40	0	866123776	46	6001
2026-01-03 21:22:34.10	42.06	18.90	-36.4	-37.3	23.9	0.00e+00	120	40	0	869269504	46	5740
2026-01-03 21:22:35.11	41.82	18.93	-36.0	-36.9	23.2	0.00e+00	122	40	0	872415232	46	5498
2026-01-03 21:22:36.12	41.59	18.96	-35.9	-36.8	23.8	0.00e+00	122	40	0	875560960	46	5465
2026-01-03 21:22:37.13	41.35	19.00	-36.1	-37.0	23.6	0.00e+00	123	40	0	878706688	46	5584
2026-01-03 21:22:38.14	41.12	19.03	-38.7	-39.8	22.5	0.00e+00	123	40	0	881852416	48	6810
2026-01-03 21:22:39.15	40.88	19.06	-36.6	-37.5	24.0	0.00e+00	123	40	0	884998144	46	5910
2026-01-03 21:22:40.16	40.64	19.09	-36.7	-37.7	23.7	0.00e+00	123	40	0	888143872	46	6013
2026-01-03 21:22:41.17	40.41	19.12	-36.6	-37.5	23.8	0.00e+00	122	40	0	891289600	46	5912
2026-01-03 21:22:42.18	40.17	19.15	-36.7	-37.6	23.6	0.00e+00	122	40	0	894435328	46	5978
2026-01-03 21:22:43.19	39.93	19.18	-36.9	-37.9	23.8	0.00e+00	123	40	0	897581056	48	5520
2026-01-03 21:22:44.20	39.69	19.21	-36.8	-37.7	24.0	0.00e+00	120	39	0	900726784	48	5387
2026-01-03 21:22:45.20	39.46	19.24	-36.3	-37.2	24.0	0.00e+00	120	40	0	903872512	46	5683
2026-01-03 21:22:46.21	39.22	19.27	-36.3	-37.2	23.9	0.00e+00	122	40	0	907018240	46	5688
2026-01-03 21:22:47.22	38.98	19.30	-37.1	-38.1	24.0	0.00e+00	123	40	0	910163968	46	6295
2026-01-03 21:22:48.23	38.74	19.32	-37.0	-37.9	23.9	0.00e+00	122	40	0	913309696	48	5485
2026-01-03 21:22:49.24	38.49	19.35	-37.6	-38.5	22.5	0.00e+00	123	40	0	916455424	46	6640
2026-01-03 21:22:50.25	38.25	19.38	-37.6	-38.6	23.6	0.00e+00	123	40	0	919601152	48	5934
2026-01-03 21:22:51.26	38.01	19.40	-37.7	-38.7	23.4	0.00e+00	120	39	0	922746880	48	6041
2026-01-03 21:22:52.27	37.77	19.43	-37.1	-38.0	23.8	0.00e+00	123	39	0	925892608	46	6254
2026-01-03 21:22:53.28	37.53	19.45	-37.5	-38.4	24.0	0.00e+00	120	39	0	929038336	48	5848
2026-01-03 21:22:54.28	37.29	19.48	-36.9	-37.9	23.7	0.00e+00	123	39	0	932184064	46	6157
2026-01-03 21:22:55.29	37.04	19.50	-36.8	-37.7	23.8	0.00e+00	122	40	0	935329792	46	6027
2026-01-03 21:22:56.30	36.80	19.52	-37.3	-38.2	23.7	0.00e+00	123	39	0	938475520	46	6393
2026-01-03 21:22:57.31	36.56	19.55	-36.6	-37.5	24.0	0.00e+00	120	39	0	941621248	46	5888
2026-01-03 21:22:58.31	36.31	19.57	-36.8	-37.7	23.9	0.00e+00	123	40	0	944766976	46	6030
2026-01-03 21:22:59.32	36.07	19.59	-36.7	-37.6	24.0	0.00e+00	121	40	0	947912704	46	5976
2026-01-03 21:23:00.32	35.83	19.61	-36.5	-37.4	23.9	0.00e+00	123	39	0	951058432	46	5810
2026-01-03 21:23:01.33	35.58	19.63	-36.3	-37.2	23.9	0.00e+00	123	40	0	954204160	46	5682
2026-01-03 21:23:02.34	35.33	19.65	-36.1	-37.1	23.9	0.00e+00	123	39	0	957349888	46	5597
2026-01-03 21:23:03.35	35.09	19.67	-36.2	-37.1	23.8	0.00e+00	122	39	0	960495616	46	5652
2026-01-03 21:23:04.35	34.84	19.69	-37.1	-38.1	23.1	0.00e+00	123	39	0	963641344	46	6284
2026-01-03 21:23:05.37	34.60	19.71	-36.9	-37.8	23.8	0.00e+00	120	39	0	966787072	46	6080
2026-01-03 21:23:06.38	34.35	19.73	-36.6	-37.5	23.9	0.00e+00	122	40	0	969932800	46	5921
2026-01-03 21:23:07.39	34.10	19.74	-36.5	-37.4	24.0	0.00e+00	123	40	0	973078528	46	5818
2026-01-03 21:23:08.40	33.85	19.76	-36.8	-37.7	24.1	0.00e+00	122	39	0	976224256	46	6026
2026-01-03 21:23:09.40	33.61	19.78	-36.8	-37.7	24.1	0.00e+00	122	40	0	979369984	46	6054
2026-01-03 21:23:10.41	33.36	19.79	-36.8	-37.7	24.0	0.00e+00	122	40	0	982515712	46	6011
2026-01-03 21:23:11.42	33.11	19.81	-36.7	-37.6	24.0	0.00e+00	123	39	0	985661440	46	5938
2026-01-03 21:23:12.43	32.86	19.82	-37.1	-38.0	24.1	0.00e+00	123	39	0	988807168	46	6232
2026-01-03 21:23:13.44	32.62	19.83	-36.9	-37.8	24.1	0.00e+00	123	39	0	991952896	46	6112
2026-01-03 21:23:14.45	32.37	19.85	-37.0	-38.0	23.7	0.00e+00	122	39	0	995098624	46	6229
2026-01-03 21:23:15.46	32.12	19.86	-36.9	-37.9	23.8	0.00e+00	120	40	0	998244352	46	6141
2026-01-03 21:23:16.47	31.87	19.87	-37.0	-37.9	23.7	0.00e+00	123	39	0	1001390080	46	6185
2026-01-03 21:23:17.48	31.62	19.88	-36.6	-37.5	24.0	0.00e+00	123	40	0	1004535808	46	5887
2026-01-03 21:23:18.49	31.37	19.90	-36.4	-37.3	23.9	0.00e+00	123	40	0	1007681536	46	5769
2026-01-03 21:23:19.50	31.12	19.91	-36.4	-37.3	24.0	0.00e+00	122	40	0	1010827264	46	5741
2026-01-03 21:23:20.50	30.87	19.92	-36.2	-37.1	24.1	0.00e+00	122	40	0	1013972992	46	5619
2026-01-03 21:23:21.52	30.62	19.93	-36.2	-37.1	24.2	0.00e+00	122	39	0	1017118720	46	5647
2026-01-03 21:23:22.52	30.37	19.93	-36.7	-37.6	24.1	0.00e+00	123	40	0	1020264448	46	5940
2026-01-03 21:23:23.53	30.12	19.94	-36.3	-37.2	24.2	0.00e+00	122	40	0	1023410176	46	5683
2026-01-03 21:23:24.54	29.87	19.95	-36.1	-37.1	24.2	0.00e+00	122	40	0	1026555904	46	5595
2026-01-03 21:23:25.55	29.62	19.96	-36.8	-37.7	24.0	0.00e+00	122	39	0	1029701632	46	6030
2026-01-03 21:23:26.55	29.37	19.96	-36.2	-37.1	24.1	0.00e+00	122	39	0	1032847360	46	5636
2026-01-03 21:23:27.56	29.12	19.97	-36.1	-37.1	24.2	0.00e+00	120	40	0	1035993088	46	5599
2026-01-03 21:23:28.57	28.87	19.98	-37.6	-38.6	23.4	0.00e+00	123	39	0	1039138816	52	4731
2026-01-03 21:23:29.58	28.62	19.98	-38.5	-39.5	23.8	0.00e+00	123	39	0	1042284544	48	6619
2026-01-03 21:23:30.59	28.37	19.99	-39.0	-40.1	23.7	0.00e+00	121	39	0	1045430272	54	5000
2026-01-03 21:23:31.60	28.11	19.99	-37.8	-38.7	23.6	0.00e+00	123	39	0	1048576000	48	6052
2026-01-03 21:23:32.61	27.86	19.99	-37.2	-38.1	23.6	0.00e+00	123	39	0	1051721728	48	5633
2026-01-03 21:23:33.62	27.61	19.99	-36.9	-37.8	23.6	0.00e+00	122	39	0	1054867456	46	6125
2026-01-03 21:23:34.63	27.36	20.00	-36.8	-37.7	23.8	0.00e+00	120	39	0	1058013184	46	6055
2026-01-03 21:23:35.64	27.11	20.00	-36.7	-37.6	23.8	0.00e+00	123	39	0	1061158912	46	5946
2026-01-03 21:23:36.65	26.86	20.00	-36.1	-37.1	24.0	0.00e+00	122	39	0	1064304640	46	5595
2026-01-03 21:23:37.66	26.61	20.00	-37.4	-38.3	23.8	0.00e+00	123	39	0	1067450368	48	5783
2026-01-03 21:23:38.67	26.35	20.00	-36.8	-37.7	23.9	0.00e+00	123	39	0	1070596096	48	5376
2026-01-03 21:23:39.68	26.10	20.00	-37.3	-38.2	23.7	0.00e+00	120	39	0	1073741824	46	6376
2026-01-03 21:23:40.69	25.85	20.00	-37.3	-38.3	23.7	0.00e+00	122	39	0	1076887552	46	6445
2026-01-03 21:23:41.70	25.60	19.99	-36.9	-37.8	23.8	0.00e+00	120	39	0	1080033280	46	6132
2026-01-03 21:23:42.71	25.35	19.99	-36.8	-37.8	24.0	0.00e+00	122	39	0	1083179008	46	6068
2026-01-03 21:23:43.71	25.10	19.99	-37.2	-38.1	23.9	0.00e+00	120	39	0	1086324736	46	6319
2026-01-03 21:23:44.72	24.85	19.98	-36.5	-37.4	24.2	0.00e+00	123	39	0	1089470464	46	5811
2026-01-03 21:23:45.73	24.60	19.98	-36.4	-37.3	24.3	0.00e+00	120	39	0	1092616192	46	5729
2026-01-03 21:23:46.74	24.35	19.98	-36.6	-37.5	23.9	0.00e+00	122	39	0	1095761920	46	5899
2026-01-03 21:23:47.75	24.09	19.97	-36.7	-37.6	24.4	0.00e+00	122	39	0	1098907648	46	5944
2026-01-03 21:23:48.76	23.84	19.96	-36.3	-37.2	24.4	0.00e+00	122	39	0	1102053376	46	5684
2026-01-03 21:23:49.77	23.59	19.96	-35.9	-36.8	24.5	0.00e+00	120	39	0	1105199104	46	5432
2026-01-03 21:23:50.78	23.34	19.95	-36.3	-37.2	24.1	0.00e+00	123	39	0	1108344832	46	5697
2026-01-03 21:23:51.79	23.09	19.94	-36.8	-37.7	24.3	0.00e+00	120	39	0	1111490560	46	6004
2026-01-03 21:23:52.80	22.84	19.93	-36.2	-37.1	24.4	0.00e+00	122	39	0	1114636288	46	5616
2026-01-03 21:23:53.81	22.59	19.92	-36.3	-37.2	24.4	0.00e+00	120	39	0	1117782016	46	5687
2026-01-03 21:23:54.82	22.34	19.91	-36.0	-36.9	24.4	0.00e+00	123	39	0	1120927744	46	5497
2026-01-03 21:23:55.83	22.09	19.90	-35.8	-36.7	24.3	0.00e+00	123	39	0	1124073472	44	6052
2026-01-03 21:23:56.84	21.84	19.89	-36.6	-37.5	24.4	0.00e+00	120	39	0	1127219200	46	5867
2026-01-03 21:23:57.85	21.59	19.88	-36.9	-37.8	24.2	0.00e+00	123	39	0	1130364928	46	6094
2026-01-03 21:23:58.85	21.34	19.87	-36.8	-37.7	24.1	0.00e+00	120	39	0	1133510656	46	6030
2026-01-03 21:23:59.86	21.10	19.86	-37.3	-38.2	24.3	0.00e+00	123	39	0	1136656384	46	6419
2026-01-03 21:24:00.87	20.85	19.85	-36.5	-37.4	24.2	0.00e+00	120	39	0	1139802112	46	5824
2026-01-03 21:24:01.88	20.60	19.83	-36.7	-37.6	24.3	0.00e+00	123	39	0	1142947840	46	5945
2026-01-03 21:24:02.89	20.35	19.82	-36.0	-36.9	24.3	0.00e+00	121	39	0	1146093568	46	5488
2026-01-03 21:24:03.90	20.10	19.80	-36.0	-36.9	24.4	0.00e+00	122	39	0	1149239296	46	5482
2026-01-03 21:24:04.91	19.85	19.79	-36.9	-37.8	23.7	0.00e+00	120	39	0	1152385024	46	6110
2026-01-03 21:24:05.91	19.61	19.77	-36.7	-37.6	24.2	0.00e+00	122	39	0	1155530752	48	5328
2026-01-03 21:24:06.93	19.36	19.76	-37.1	-38.0	24.0	0.00e+00	120	39	0	1158676480	46	6246
2026-01-03 21:24:07.93	19.11	19.74	-36.5	-37.4	24.2	0.00e+00	123	39	0	1161822208	46	5851
2026-01-03 21:24:08.94	18.87	19.72	-37.1	-38.0	23.9	0.00e+00	122	39	0	1164967936	46	6217
2026-01-03 21:24:09.95	18.62	19.70	-36.9	-37.8	24.4	0.00e+00	123	39	0	1168113664	46	6067
2026-01-03 21:24:10.96	18.37	19.69	-39.0	-40.0	22.8	0.00e+00	123	39	0	1171259392	46	7887
2026-01-03 21:24:11.97	18.13	19.67	-42.8	-44.3	22.9	0.00e+00	120	39	0	1174405120	48	11437
2026-01-03 21:24:12.98	17.88	19.65	-37.7	-38.6	24.0	0.00e+00	123	39	0	1177550848	48	5943
2026-01-03 21:24:13.99	17.63	19.63	-36.8	-37.7	24.0	0.00e+00	120	39	0	1180696576	46	6010
2026-01-03 21:24:15.00	17.39	19.61	-36.4	-37.3	24.2	0.00e+00	122	39	0	1183842304	46	5739
2026-01-03 21:24:16.01	17.14	19.59	-36.2	-37.1	24.1	0.00e+00	122	39	0	1186988032	46	5637
2026-01-03 21:24:17.02	16.90	19.56	-38.5	-39.5	23.1	0.00e+00	122	39	0	1190133760	48	6606
2026-01-03 21:24:18.03	16.66	19.54	-37.0	-37.9	23.7	0.00e+00	123	39	0	1193279488	46	6204
2026-01-03 21:24:19.04	16.41	19.52	-37.6	-38.5	23.4	0.00e+00	123	39	0	1196425216	46	6636
2026-01-03 21:24:20.05	16.17	19.50	-37.2	-38.1	23.8	0.00e+00	123	39	0	1199570944	46	6327
2026-01-03 21:24:21.06	15.93	19.47	-37.1	-38.0	23.9	0.00e+00	123	39	0	1202716672	46	6262
2026-01-03 21:24:22.07	15.68	19.45	-36.5	-37.5	24.1	0.00e+00	122	39	0	1205862400	46	5862
2026-01-03 21:24:23.08	15.44	19.42	-36.4	-37.3	24.2	0.00e+00	122	39	0	1209008128	46	5759
2026-01-03 21:24:24.09	15.20	19.40	-36.2	-37.1	24.5	0.00e+00	123	39	0	1212153856	46	5603
2026-01-03 21:24:25.10	14.96	19.37	-36.0	-36.9	24.4	0.00e+00	122	39	0	1215299584	46	5485
2026-01-03 21:24:26.11	14.72	19.35	-35.6	-36.5	24.5	0.00e+00	123	39	0	1219493888	44	5888
2026-01-03 21:24:27.12	14.48	19.32	-35.7	-36.6	24.5	0.00e+00	123	39	0	1221591040	44	5936
2026-01-03 21:24:28.13	14.24	19.29	-36.1	-37.0	24.2	0.00e+00	120	39	0	1224736768	46	5547
2026-01-03 21:24:29.14	14.00	19.26	-36.3	-37.2	24.5	0.00e+00	122	39	0	1227882496	46	5662
2026-01-03 21:24:30.14	13.76	19.24	-37.5	-38.4	23.8	0.00e+00	123	39	0	1231028224	48	5804
2026-01-03 21:24:31.15	13.52	19.21	-37.5	-38.4	24.3	0.00e+00	123	39	0	1234173952	46	6525
2026-01-03 21:24:32.16	13.28	19.18	-36.4	-37.3	24.2	0.00e+00	123	39	0	1238368256	46	5781
2026-01-03 21:24:33.17	13.05	19.15	-36.4	-37.3	23.9	0.00e+00	122	39	0	1241513984	46	5746
2026-01-03 21:24:34.18	12.81	19.12	-36.4	-37.3	24.2	0.00e+00	123	39	0	1243611136	46	5737
2026-01-03 21:24:35.19	12.57	19.09	-36.2	-37.1	24.3	0.00e+00	123	39	0	1246756864	46	5622
2026-01-03 21:24:36.20	12.33	19.06	-36.6	-37.5	24.1	0.00e+00	122	39	0	1249902592	46	5909
2026-01-03 21:24:37.21	12.10	19.02	-37.0	-38.0	23.9	0.00e+00	122	39	0	1254096896	48	5536
2026-01-03 21:24:38.22	11.86	18.99	-37.4	-38.4	23.4	0.00e+00	120	39	0	1257242624	48	5818
2026-01-03 21:24:39.23	11.63	18.96	-36.9	-37.8	24.0	0.00e+00	122	39	0	1260388352	48	5446
2026-01-03 21:24:40.24	11.39	18.93	-36.7	-37.7	23.9	0.00e+00	123	39	0	1263534080	46	6006
2026-01-03 21:24:41.25	11.16	18.89	-37.0	-37.9	24.1	0.00e+00	123	39	0	1266679808	46	6191
2026-01-03 21:24:42.26	10.93	18.86	-37.1	-38.1	23.9	0.00e+00	120	39	0	1269825536	46	6292
2026-01-03 21:24:43.27	10.69	18.82	-37.9	-38.9	23.1	0.00e+00	123	39	0	1272971264	46	6901
2026-01-03 21:24:44.28	10.46	18.79	-36.6	-37.5	24.1	0.00e+00	122	39	0	1276116992	48	5252
2026-01-03 21:24:45.28	10.23	18.75	-36.5	-37.4	24.1	0.00e+00	123	39	0	1279262720	46	5847
2026-01-03 21:24:46.29	10.00	18.72	-36.7	-37.7	24.0	0.00e+00	122	39	0	1282408448	46	6003
2026-01-03 21:24:47.30	9.77	18.68	-36.7	-37.7	24.1	0.00e+00	122	39	0	1285554176	46	6012
2026-01-03 21:24:48.31	9.54	18.65	-36.6	-37.6	24.0	0.00e+00	120	39	0	1288699904	46	5940
2026-01-03 21:24:49.32	9.31	18.61	-36.5	-37.4	24.2	0.00e+00	123	39	0	1291845632	46	5809
2026-01-03 21:24:50.33	9.08	18.57	-36.5	-37.4	24.2	0.00e+00	122	39	0	1294991360	46	5805
2026-01-03 21:24:51.34	8.85	18.53	-36.6	-37.5	24.0	0.00e+00	123	39	0	1298137088	46	5904
2026-01-03 21:24:52.35	8.63	18.50	-36.6	-37.6	24.1	0.00e+00	122	39	0	1301282816	46	5936
2026-01-03 21:24:53.36	8.40	18.46	-37.1	-38.0	23.9	0.00e+00	122	39	0	1304428544	46	6271
2026-01-03 21:24:54.37	8.17	18.42	-37.0	-38.0	24.0	0.00e+00	120	39	0	1307574272	48	5534
2026-01-03 21:24:55.38	7.95	18.38	-36.6	-37.6	24.0	0.00e+00	123	39	0	1310720000	46	5945
2026-01-03 21:24:56.39	7.72	18.34	-36.4	-37.3	24.1	0.00e+00	122	39	0	1313865728	46	5747
2026-01-03 21:24:57.39	7.50	18.30	-37.7	-38.6	23.5	0.00e+00	123	39	0	1317011456	48	5955
2026-01-03 21:24:58.40	7.27	18.26	-36.9	-37.8	24.1	0.00e+00	122	39	0	1320157184	48	5464
2026-01-03 21:24:59.41	7.05	18.22	-36.6	-37.5	24.0	0.00e+00	120	39	0	1323302912	48	5267
2026-01-03 21:25:00.42	6.83	18.18	-36.5	-37.4	23.9	0.00e+00	122	39	0	1326448640	46	5815
2026-01-03 21:25:01.43	6.61	18.13	-36.6	-37.5	23.7	0.00e+00	123	39	0	1329594368	46	5906
2026-01-03 21:25:02.44	6.38	18.09	-36.5	-37.4	23.7	0.00e+00	123	39	0	1332740096	46	5841
2026-01-03 21:25:03.45	6.16	18.05	-36.5	-37.4	23.7	0.00e+00	123	39	0	1335885824	46	5822
2026-01-03 21:25:04.46	5.94	18.01	-37.3	-38.3	23.6	0.00e+00	123	39	0	1339031552	46	6431
2026-01-03 21:25:05.46	5.72	17.96	-36.3	-37.2	23.9	0.00e+00	123	39	0	1342177280	46	5703
2026-01-03 21:25:06.48	5.50	17.92	-36.6	-37.5	23.8	0.00e+00	121	39	0	1345323008	46	5912
2026-01-03 21:25:07.48	5.29	17.88	-36.1	-37.0	24.0	0.00e+00	123	39	0	1348468736	46	5557
2026-01-03 21:25:08.49	5.07	17.83	-36.3	-37.2	23.9	0.00e+00	122	39	0	1351614464	46	5720
2026-01-03 21:25:09.50	4.85	17.79	-36.4	-37.3	23.8	0.00e+00	123	39	0	1354760192	46	5739
2026-01-03 21:25:10.51	4.63	17.74	-36.3	-37.2	23.8	0.00e+00	120	39	0	1357905920	46	5702
2026-01-03 21:25:11.51	4.42	17.70	-36.5	-37.4	24.0	0.00e+00	123	39	0	1361051648	46	5844
2026-01-03 21:25:12.52	4.21	17.65	-36.5	-37.4	24.2	0.00e+00	123	39	0	1364197376	46	5837
2026-01-03 21:25:13.53	3.99	17.61	-36.9	-37.8	24.1	0.00e+00	123	39	0	1367343104	46	6109
2026-01-03 21:25:14.54	3.78	17.56	-36.7	-37.6	24.0	0.00e+00	121	39	0	1370488832	46	5952
2026-01-03 21:25:15.55	3.56	17.51	-36.9	-37.8	24.0	0.00e+00	123	39	0	1373634560	46	6111
2026-01-03 21:25:16.56	3.35	17.47	-36.7	-37.6	23.9	0.00e+00	120	39	0	1376780288	46	5947
2026-01-03 21:25:17.57	3.14	17.42	-37.6	-38.4	23.8	0.00e+00	122	39	0	1379926016	46	6572
2026-01-03 21:25:18.58	2.93	17.37	-37.6	-38.5	23.8	0.00e+00	123	39	0	1383071744	48	5884
2026-01-03 21:25:19.59	2.72	17.32	-37.2	-38.1	23.8	0.00e+00	120	39	0	1386217472	48	5634
2026-01-03 21:25:20.60	2.51	17.27	-37.0	-37.9	23.9	0.00e+00	123	39	0	1389363200	48	5489
2026-01-03 21:25:21.61	2.30	17.23	-37.4	-38.3	23.8	0.00e+00	122	39	0	1392508928	48	5770
2026-01-03 21:25:22.62	2.09	17.18	-36.5	-37.4	23.8	0.00e+00	123	39	0	1395654656	46	5801
2026-01-03 21:25:23.63	1.88	17.13	-36.7	-37.6	24.0	0.00e+00	123	39	0	1398800384	46	5961
2026-01-03 21:25:24.63	1.68	17.08	-36.4	-37.3	24.1	0.00e+00	123	39	0	1401946112	46	5785
2026-01-03 21:25:25.64	1.47	17.03	-36.2	-37.1	24.1	0.00e+00	120	39	0	1405091840	46	5613
2026-01-03 21:25:26.65	1.26	16.98	-36.0	-36.9	24.1	0.00e+00	123	39	0	1408237568	46	5519
2026-01-03 21:25:27.66	1.06	16.93	-36.4	-37.3	23.9	0.00e+00	123	39	0	1411383296	46	5770
2026-01-03 21:25:28.67	0.85	16.88	-37.0	-38.0	23.8	0.00e+00	120	39	0	1414529024	46	6235
2026-01-03 21:25:29.68	0.65	16.83	-37.1	-38.1	23.3	0.00e+00	123	39	0	1417674752	46	6294
2026-01-03 21:25:30.69	0.45	16.78	-37.4	-38.3	23.1	0.00e+00	123	39	0	1420820480	46	6490
2026-01-03 21:25:31.69	0.25	16.73	-37.1	-38.0	23.8	0.00e+00	122	39	0	1423966208	48	5557
2026-01-03 21:25:32.70	0.04	16.68	-37.2	-38.1	23.5	0.00e+00	123	39	0	1427111936	48	5636
2026-01-03 21:25:33.71	359.84	16.62	-37.1	-38.0	23.8	0.00e+00	122	39	0	1430257664	48	5566
2026-01-03 21:25:34.72	359.64	16.57	-36.7	-37.6	23.8	0.00e+00	122	39	0	1433403392	46	5985
2026-01-03 21:25:35.73	359.44	16.52	-36.6	-37.5	23.8	0.00e+00	123	39	0	1436549120	46	5899
2026-01-03 21:25:36.74	359.25	16.47	-36.4	-37.3	23.6	0.00e+00	122	39	0	1439694848	46	5763
2026-01-03 21:25:37.75	359.05	16.41	-36.5	-37.4	23.8	0.00e+00	121	39	0	1442840576	46	5814
2026-01-03 21:25:38.76	358.85	16.36	-36.6	-37.6	23.7	0.00e+00	123	39	0	1445986304	46	5944
2026-01-03 21:25:39.77	358.65	16.31	-36.7	-37.6	23.5	0.00e+00	121	39	0	1449132032	46	5992
2026-01-03 21:25:40.78	358.46	16.25	-36.3	-37.3	23.6	0.00e+00	123	39	0	1452277760	46	5741
2026-01-03 21:25:41.79	358.26	16.20	-36.6	-37.6	23.5	0.00e+00	123	39	0	1455423488	46	5951
2026-01-03 21:25:42.80	358.07	16.15	-36.6	-37.6	23.5	0.00e+00	122	39	0	1458569216	46	5928
2026-01-03 21:25:43.81	357.87	16.09	-36.3	-37.2	23.7	0.00e+00	122	39	0	1461714944	46	5715
2026-01-03 21:25:44.81	357.68	16.04	-37.1	-38.0	23.8	0.00e+00	123	39	0	1464860672	46	6255
2026-01-03 21:25:45.82	357.49	15.98	-39.9	-40.9	23.5	0.00e+00	123	39	0	1468006400	48	7787
2026-01-03 21:25:46.83	357.30	15.93	-37.7	-38.7	23.8	0.00e+00	122	39	0	1471152128	48	6015
2026-01-03 21:25:47.84	357.11	15.87	-37.0	-37.9	23.6	0.00e+00	123	39	0	1474297856	48	5520
2026-01-03 21:25:48.85	356.92	15.82	-39.0	-40.0	21.9	0.00e+00	122	39	0	1477443584	48	7023
2026-01-03 21:25:49.86	356.73	15.76	-38.0	-39.0	23.4	0.00e+00	123	39	0	1480589312	48	6233
2026-01-03 21:25:50.87	356.54	15.71	-37.4	-38.4	23.4	0.00e+00	122	39	0	1483735040	48	5833
2026-01-03 21:25:51.88	356.35	15.65	-37.4	-38.4	23.3	0.00e+00	123	39	0	1486880768	48	5792
2026-01-03 21:25:52.88	356.16	15.60	-37.9	-38.8	23.3	0.00e+00	123	39	0	1490026496	48	6125
2026-01-03 21:25:53.89	355.98	15.54	-37.4	-38.4	23.3	0.00e+00	120	39	0	1493172224	48	5794
2026-01-03 21:25:54.91	355.79	15.48	-37.6	-38.6	23.4	0.00e+00	123	39	0	1496317952	48	5933
2026-01-03 21:25:55.91	355.61	15.43	-37.7	-38.7	22.9	0.00e+00	123	39	0	1499463680	48	6034
2026-01-03 21:25:56.92	355.42	15.37	-37.3	-38.3	23.3	0.00e+00	122	39	0	1502609408	48	5735
2026-01-03 21:25:57.93	355.24	15.32	-37.5	-38.4	23.1	0.00e+00	122	39	0	1505755136	48	5855
2026-01-03 21:25:58.94	355.05	15.26	-37.9	-38.9	23.3	0.00e+00	122	39	0	1508900864	48	6137
2026-01-03 21:25:59.95	354.87	15.20	-37.2	-38.2	23.4	0.00e+00	122	39	0	1512046592	48	5695
2026-01-03 21:26:00.96	354.69	15.14	-37.8	-38.7	23.4	0.00e+00	122	39	0	1515192320	48	6053
2026-01-03 21:26:01.97	354.51	15.09	-37.8	-38.8	22.7	0.00e+00	122	39	0	1518338048	48	6128
2026-01-03 21:26:02.98	354.33	15.03	-38.0	-39.0	22.8	0.00e+00	123	39	0	1521483776	48	6219
2026-01-03 21:26:03.99	354.15	14.97	-38.9	-39.8	22.8	0.00e+00	122	39	0	1524629504	48	6880
2026-01-03 21:26:05.00	353.97	14.91	-37.5	-38.4	23.1	0.00e+00	122	39	0	1527775232	48	5847
2026-01-03 21:26:06.01	353.79	14.86	-38.1	-39.0	23.2	0.00e+00	122	39	0	1530920960	48	6256
2026-01-03 21:26:07.02	353.61	14.80	-37.8	-38.8	23.1	0.00e+00	122	39	0	1534066688	48	6088
2026-01-03 21:26:08.03	353.44	14.74	-37.9	-38.9	23.2	0.00e+00	123	39	0	1537212416	48	6180
2026-01-03 21:26:09.04	353.26	14.68	-37.9	-38.8	23.3	0.00e+00	123	39	0	1540358144	48	6079
2026-01-03 21:26:10.04	353.09	14.62	-39.0	-39.9	23.3	0.00e+00	123	39	0	1543503872	50	6184
2026-01-03 21:26:11.05	352.91	14.56	-38.1	-39.0	22.9	0.00e+00	122	39	0	1546649600	50	5591
2026-01-03 21:26:12.06	352.74	14.50	-38.4	-39.4	22.6	0.00e+00	123	40	0	1549795328	50	5823
2026-01-03 21:26:13.07	352.56	14.45	-37.7	-38.7	23.1	0.00e+00	122	39	0	1552941056	50	5351
2026-01-03 21:26:14.08	352.39	14.39	-38.0	-39.0	23.1	0.00e+00	121	39	0	1556086784	50	5538
2026-01-03 21:26:15.09	352.22	14.33	-38.2	-39.2	22.9	7.00e-07	123	39	0	1559232512	50	5690
2026-01-03 21:26:16.10	352.05	14.27	-37.0	-38.0	23.2	0.00e+00	123	39	0	1562378240	48	5540
2026-01-03 21:26:17.11	351.88	14.21	-37.5	-38.4	23.4	0.00e+00	123	39	0	1565523968	48	5839
2026-01-03 21:26:18.12	351.71	14.15	-37.8	-38.8	23.4	0.00e+00	123	39	0	1568669696	48	6067
2026-01-03 21:26:19.13	351.54	14.09	-37.7	-38.7	23.6	0.00e+00	123	39	0	1571815424	48	6029
2026-01-03 21:26:20.14	351.37	14.03	-38.8	-39.8	22.6	0.00e+00	120	39	0	1574961152	50	6065
2026-01-03 21:26:21.15	351.20	13.97	-37.6	-38.6	23.5	0.00e+00	122	39	0	1578106880	50	5289
2026-01-03 21:26:22.16	351.04	13.91	-37.0	-38.0	23.5	0.00e+00	122	39	0	1581252608	48	5553
2026-01-03 21:26:23.16	350.87	13.85	-37.6	-38.6	23.6	0.00e+00	122	39	0	1584398336	48	5943
2026-01-03 21:26:24.17	350.71	13.79	-37.1	-38.1	23.4	0.00e+00	120	39	0	1587544064	48	5595
2026-01-03 21:26:25.18	350.54	13.73	-38.0	-38.9	23.4	0.00e+00	122	39	0	1590689792	48	6172
2026-01-03 21:26:26.19	350.38	13.67	-38.0	-38.9	23.4	0.00e+00	123	39	0	1593835520	48	6183
2026-01-03 21:26:27.20	350.21	13.61	-38.5	-39.4	23.2	0.00e+00	122	39	0	1596981248	50	5831
2026-01-03 21:26:28.21	350.05	13.55	-37.8	-38.7	23.3	0.00e+00	123	39	0	1600126976	48	6045
2026-01-03 21:26:29.22	349.89	13.49	-37.8	-38.7	23.1	0.00e+00	123	39	0	1603272704	50	5358
2026-01-03 21:26:30.23	349.73	13.43	-38.0	-39.0	23.4	0.00e+00	120	39	0	1606418432	48	6256
2026-01-03 21:26:31.24	349.56	13.37	-38.2	-39.1	23.3	0.00e+00	123	39	0	1609564160	50	5634
2026-01-03 21:26:32.25	349.40	13.31	-38.8	-39.7	23.5	0.00e+00	123	39	0	1612709888	50	6040
2026-01-03 21:26:33.26	349.24	13.25	-37.9	-38.9	23.2	0.00e+00	123	39	0	1615855616	50	5508
2026-01-03 21:26:34.26	349.09	13.19	-37.9	-38.8	23.1	0.00e+00	120	39	0	1619001344	48	6133
2026-01-03 21:26:35.28	348.93	13.12	-37.6	-38.6	23.1	0.00e+00	123	39	0	1622147072	48	5928
2026-01-03 21:26:36.29	348.77	13.06	-38.5	-39.6	21.9	0.00e+00	123	39	0	1625292800	48	6683
2026-01-03 21:26:37.29	348.61	13.00	-37.9	-38.9	23.4	1.50e-06	123	39	0	1628438528	50	5472
2026-01-03 21:26:38.30	348.46	12.94	-38.6	-39.6	22.8	0.00e+00	120	39	0	1631584256	50	5992
2026-01-03 21:26:39.31	348.30	12.88	-38.9	-39.9	22.7	0.00e+00	123	39	0	1634729984	50	6146
2026-01-03 21:26:40.32	348.15	12.82	-38.5	-39.6	22.5	0.00e+00	120	39	0	1637875712	50	5927
2026-01-03 21:26:41.33	347.99	12.76	-38.0	-39.0	22.5	0.00e+00	123	39	0	1641021440	48	6227
2026-01-03 21:26:42.34	347.84	12.70	-38.2	-39.2	23.0	0.00e+00	120	39	0	1644167168	48	6423
2026-01-03 21:26:43.35	347.69	12.63	-38.6	-39.5	23.1	0.00e+00	123	39	0	1647312896	50	5913
2026-01-03 21:26:44.36	347.53	12.57	-37.6	-38.5	22.8	0.00e+00	122	39	0	1651507200	48	5920
2026-01-03 21:26:45.37	347.38	12.51	-37.5	-38.5	23.1	0.00e+00	123	39	0	1654652928	48	5888
2026-01-03 21:26:46.38	347.23	12.45	-38.0	-39.0	22.8	0.00e+00	122	39	0	1656750080	48	6274
2026-01-03 21:26:47.39	347.08	12.39	-37.7	-38.7	22.9	0.00e+00	123	39	0	1659895808	48	6029
2026-01-03 21:26:48.40	346.93	12.33	-37.8	-38.7	22.9	0.00e+00	123	39	0	1663041536	48	6033
2026-01-03 21:26:49.41	346.78	12.27	-38.8	-39.8	22.8	0.00e+00	121	39	0	1667235840	52	5412
2026-01-03 21:26:50.42	346.63	12.20	-38.4	-39.4	22.8	0.00e+00	123	39	0	1670381568	50	5813
2026-01-03 21:26:51.43	346.49	12.14	-37.9	-38.9	22.8	0.00e+00	120	39	0	1673527296	50	5494
2026-01-03 21:26:52.44	346.34	12.08	-37.9	-38.8	22.5	0.00e+00	122	39	0	1676673024	48	6132
2026-01-03 21:26:53.44	346.19	12.02	-38.5	-39.4	22.7	0.00e+00	120	39	0	1678770176	50	5845
2026-01-03 21:26:54.45	346.05	11.96	-39.4	-40.3	22.6	0.00e+00	123	39	0	1681915904	50	6498
2026-01-03 21:26:55.46	345.90	11.90	-38.4	-39.4	22.7	0.00e+00	120	39	0	1686110208	50	5824
2026-01-03 21:26:56.47	345.76	11.83	-39.0	-40.0	22.5	0.00e+00	123	39	0	1689255936	50	6223
2026-01-03 21:26:57.48	345.61	11.77	-38.8	-39.8	22.8	0.00e+00	123	39	0	1692401664	50	6126
2026-01-03 21:26:58.49	345.47	11.71	-38.2	-39.1	22.8	0.00e+00	120	39	0	1695547392	50	5651
2026-01-03 21:26:59.50	345.33	11.65	-38.6	-39.6	22.4	0.00e+00	123	39	0	1698693120	50	5963
2026-01-03 21:27:00.51	345.18	11.59	-39.2	-40.2	22.3	0.00e+00	122	39	0	1701838848	50	6404
2026-01-03 21:27:01.52	345.04	11.52	-39.1	-40.1	21.6	0.00e+00	122	39	0	1704984576	50	6325
2026-01-03 21:27:02.53	344.90	11.46	-38.5	-39.6	22.1	0.00e+00	122	39	0	1708130304	50	5939
2026-01-03 21:27:03.54	344.76	11.40	-38.4	-39.4	22.3	0.00e+00	122	39	0	1711276032	50	5852
2026-01-03 21:27:04.55	344.62	11.34	-39.5	-40.5	21.6	0.00e+00	120	39	0	1714421760	50	6645
2026-01-03 21:27:05.56	344.48	11.28	-39.2	-40.3	21.9	0.00e+00	122	40	0	1717567488	52	5732
2026-01-03 21:27:06.57	344.34	11.21	-39.2	-40.2	21.9	0.00e+00	120	40	0	1720713216	52	5707
2026-01-03 21:27:07.58	344.21	11.15	-38.5	-39.6	22.2	0.00e+00	123	39	0	1723858944	50	5953
2026-01-03 21:27:08.59	344.07	11.09	-39.0	-40.0	22.2	0.00e+00	123	39	0	1727004672	50	6255
2026-01-03 21:27:09.60	343.93	11.03	-38.9	-40.0	22.1	0.00e+00	122	39	0	1730150400	52	5546
2026-01-03 21:27:10.60	343.80	10.97	-40.3	-41.3	21.7	0.00e+00	122	39	0	1733296128	52	6487
2026-01-03 21:27:11.61	343.66	10.90	-38.8	-39.9	22.2	0.00e+00	122	39	0	1736441856	52	5468
2026-01-03 21:27:12.62	343.53	10.84	-38.8	-39.8	22.2	0.00e+00	120	39	0	1739587584	50	6091
2026-01-03 21:27:13.63	343.39	10.78	-38.4	-39.4	21.9	0.00e+00	123	39	0	1742733312	50	5842
2026-01-03 21:27:14.64	343.26	10.72	-38.3	-39.3	22.1	0.00e+00	123	39	0	1745879040	50	5746
2026-01-03 21:27:15.64	343.12	10.66	-38.8	-39.8	22.4	0.00e+00	123	40	0	1749024768	50	6075
2026-01-03 21:27:16.65	342.99	10.59	-38.9	-39.9	22.4	0.00e+00	120	40	0	1752170496	50	6188
2026-01-03 21:27:17.66	342.86	10.53	-39.3	-40.4	21.9	0.00e+00	122	39	0	1755316224	50	6540
2026-01-03 21:27:18.67	342.73	10.47	-39.4	-40.4	22.1	0.00e+00	122	39	0	1758461952	52	5838
2026-01-03 21:27:19.68	342.60	10.41	-40.3	-41.3	21.9	0.00e+00	123	39	0	1761607680	52	6432
2026-01-03 21:27:20.69	342.47	10.35	-39.4	-40.5	21.9	7.00e-07	123	39	0	1764753408	52	5867
2026-01-03 21:27:21.70	342.34	10.28	-40.0	-41.1	22.1	0.00e+00	122	39	0	1767899136	54	5624
2026-01-03 21:27:22.71	342.21	10.22	-40.1	-41.2	21.3	0.00e+00	120	40	0	1771044864	54	5688
2026-01-03 21:27:23.72	342.08	10.16	-40.4	-41.5	21.3	0.00e+00	123	39	0	1774190592	54	5867
2026-01-03 21:27:24.73	341.95	10.10	-39.7	-40.8	21.6	0.00e+00	123	39	0	1777336320	54	5419
2026-01-03 21:27:25.74	341.82	10.04	-39.2	-40.2	21.9	0.00e+00	123	39	0	1780482048	52	5720
2026-01-03 21:27:26.74	341.70	9.97	-39.1	-40.2	21.8	0.00e+00	120	39	0	1783627776	52	5662
2026-01-03 21:27:27.75	341.57	9.91	-38.6	-39.7	21.8	0.00e+00	123	39	0	1786773504	50	6037
2026-01-03 21:27:28.76	341.44	9.85	-38.5	-39.6	21.9	0.00e+00	120	39	0	1789919232	50	5951
2026-01-03 21:27:29.77	341.32	9.79	-38.7	-39.8	22.1	0.00e+00	123	39	0	1793064960	50	6077
2026-01-03 21:27:30.78	341.19	9.73	-38.6	-39.6	22.2	0.00e+00	120	39	0	1796210688	50	5980
2026-01-03 21:27:31.79	341.07	9.66	-38.6	-39.7	22.2	0.00e+00	123	39	0	1799356416	50	6017
2026-01-03 21:27:32.80	340.95	9.60	-39.8	-40.8	21.9	0.00e+00	120	39	0	1802502144	50	6825
2026-01-03 21:27:33.81	340.82	9.54	-40.4	-41.5	20.8	0.00e+00	123	40	0	1805647872	54	5901
2026-01-03 21:27:34.82	340.70	9.48	-39.2	-40.2	22.1	0.00e+00	121	40	0	1808793600	52	5709
2026-01-03 21:27:35.83	340.58	9.42	-39.2	-40.3	22.0	0.00e+00	123	39	0	1811939328	52	5753
2026-01-03 21:27:36.84	340.46	9.36	-38.9	-39.9	21.8	0.00e+00	121	39	0	1815085056	52	5504
2026-01-03 21:27:37.85	340.33	9.29	-39.1	-40.2	21.5	0.00e+00	122	39	0	1818230784	52	5696
2026-01-03 21:27:38.86	340.21	9.23	-40.4	-41.5	21.0	0.00e+00	123	40	0	1821376512	52	6626
2026-01-03 21:27:39.87	340.09	9.17	-40.4	-41.5	21.0	0.00e+00	123	39	0	1824522240	54	5902
2026-01-03 21:27:40.88	339.97	9.11	-41.2	-42.5	19.9	0.00e+00	120	39	0	1827667968	54	6576
2026-01-03 21:27:41.89	339.86	9.05	-41.7	-42.9	20.9	0.00e+00	122	39	0	1830813696	54	6913
2026-01-03 21:27:42.90	339.74	8.99	-39.9	-41.1	21.0	0.00e+00	122	39	0	1833959424	54	5597
2026-01-03 21:27:43.91	339.62	8.92	-40.0	-41.1	21.6	0.00e+00	122	39	0	1837105152	52	6294
2026-01-03 21:27:44.92	339.50	8.86	-40.0	-41.1	21.2	7.00e-07	120	39	0	1840250880	52	6328
2026-01-03 21:27:45.93	339.38	8.80	-39.5	-40.6	21.6	0.00e+00	122	39	0	1843396608	52	5964
2026-01-03 21:27:46.94	339.27	8.74	-38.6	-39.7	21.8	0.00e+00	123	39	0	1846542336	52	5379
2026-01-03 21:27:47.95	339.15	8.68	-38.4	-39.5	21.8	0.00e+00	120	40	0	1849688064	50	5864
2026-01-03 21:27:48.95	339.04	8.62	-38.5	-39.5	21.9	0.00e+00	122	40	0	1852833792	50	5925
2026-01-03 21:27:49.96	338.92	8.56	-39.6	-40.6	21.8	0.00e+00	123	39	0	1855979520	50	6714
2026-01-03 21:27:50.97	338.81	8.49	-39.4	-40.4	22.1	0.00e+00	122	39	0	1859125248	52	5828
2026-01-03 21:27:51.98	338.69	8.43	-39.7	-40.7	21.2	1.50e-06	122	39	0	1862270976	52	6040
2026-01-03 21:27:52.99	338.58	8.37	-40.1	-41.0	21.6	0.00e+00	123	39	0	1865416704	52	6269
2026-01-03 21:27:54.01	338.47	8.31	-41.4	-42.4	21.7	0.00e+00	123	39	0	1868562432	56	5852
2026-01-03 21:27:55.01	338.35	8.25	-39.5	-40.6	21.6	0.00e+00	122	39	0	1871708160	52	5936
2026-01-03 21:27:56.02	338.24	8.19	-39.1	-40.2	21.7	0.00e+00	123	39	0	1874853888	52	5686
2026-01-03 21:27:57.03	338.13	8.13	-40.8	-42.0	20.6	0.00e+00	123	39	0	1877999616	52	6983
2026-01-03 21:27:58.04	338.02	8.07	-39.9	-41.0	21.2	0.00e+00	123	39	0	1881145344	54	5558
2026-01-03 21:27:59.05	337.91	8.01	-39.8	-40.9	21.3	0.00e+00	123	39	0	1884291072	52	6162
2026-01-03 21:28:00.06	337.80	7.95	-40.0	-41.1	21.3	0.00e+00	122	39	0	1887436800	52	6339
2026-01-03 21:28:01.07	337.69	7.88	-40.2	-41.3	21.0	0.00e+00	123	39	0	1890582528	52	6446
2026-01-03 21:28:02.08	337.58	7.82	-40.6	-41.7	21.3	0.00e+00	122	39	0	1893728256	52	6762
2026-01-03 21:28:03.09	337.47	7.76	-40.4	-41.5	21.0	0.00e+00	123	39	0	1896873984	52	6617
2026-01-03 21:28:04.10	337.36	7.70	-40.0	-41.1	21.3	0.00e+00	123	39	0	1900019712	52	6340
2026-01-03 21:28:05.11	337.26	7.64	-39.8	-40.9	21.4	0.00e+00	122	39	0	1903165440	54	5493
2026-01-03 21:28:06.12	337.15	7.58	-40.3	-41.5	21.3	0.00e+00	122	39	0	1906311168	54	5866
2026-01-03 21:28:07.13	337.04	7.52	-39.8	-40.9	21.5	0.00e+00	122	39	0	1909456896	52	6185
2026-01-03 21:28:08.14	336.93	7.46	-40.6	-41.7	21.2	0.00e+00	123	39	0	1912602624	52	6803
2026-01-03 21:28:09.15	336.83	7.40	-40.3	-41.5	20.3	0.00e+00	123	39	0	1915748352	54	5898
2026-01-03 21:28:10.15	336.72	7.34	-40.4	-41.3	21.7	0.00e+00	123	39	0	1918894080	54	5769
2026-01-03 21:28:11.17	336.62	7.28	-40.7	-41.8	20.8	0.00e+00	122	39	0	1922039808	54	6132
2026-01-03 21:28:12.17	336.51	7.22	-40.2	-41.3	21.0	0.00e+00	123	39	0	1925185536	54	5756
2026-01-03 21:28:13.18	336.41	7.16	-41.1	-42.1	20.5	0.00e+00	122	39	0	1928331264	54	6343
2026-01-03 21:28:14.19	336.31	7.10	-40.9	-42.0	20.7	0.00e+00	123	39	0	1931476992	54	6265
2026-01-03 21:28:15.20	336.20	7.04	-40.5	-41.7	20.8	0.00e+00	123	39	0	1934622720	54	6000
2026-01-03 21:28:16.21	336.10	6.98	-40.9	-42.0	20.2	0.00e+00	122	39	0	1937768448	54	6236
2026-01-03 21:28:17.22	336.00	6.92	-41.3	-42.4	20.5	0.00e+00	122	40	0	1940914176	56	5839
2026-01-03 21:28:18.23	335.90	6.86	-40.6	-41.8	20.6	0.00e+00	122	40	0	1944059904	54	6070
2026-01-03 21:28:19.24	335.79	6.80	-41.0	-42.2	20.3	0.00e+00	123	40	0	1947205632	54	6394
2026-01-03 21:28:20.25	335.69	6.74	-41.0	-42.2	20.7	0.00e+00	123	39	0	1950351360	54	6374
