passes_logs/2026/01/03/R4.6S_Anadyr/R4.6S_Anadyr__20260103_175044_FENGYUN_3D_rec.log

#Pass ID: 20260103_175044_FENGYUN 3D
#Satellite: FENGYUN 3D
#Configuration: FENGYUN 3D
#almurnet v.1.7.20251203
#Start time: 2026-01-03 17:50:48

#Version: 2.2.20231116
#Station: R4.6S_Anadyr
#Location: 177.4865 lon 64.73178 lat
#TLE: 1 43010U 17072A   26002.95198047  .00000207  00000+0  11963-3 0  9999
#TLE: 2 43010  98.9912 334.5826 0001910 130.7105 229.4237 14.19692231421540

#Time	Az	El	Level	Level2	SNR	BER	BlckErr	Temp	State	Recorded	gain1	gain2
2026-01-03 17:50:48.02	23.94	0.21	-51.2	-66.1	3.5	1.51e+00	0	38	0	0	60	73186
2026-01-03 17:50:49.03	23.92	0.27	-51.6	-63.8	3.6	8.43e-01	0	39	104	0	60	56175
2026-01-03 17:50:50.04	23.89	0.33	-51.1	-63.2	3.6	8.46e-01	0	39	104	0	60	52413
2026-01-03 17:50:51.05	23.87	0.39	-50.7	-62.9	3.6	8.46e-01	0	39	104	0	60	50220
2026-01-03 17:50:52.06	23.84	0.45	-50.6	-62.7	3.6	8.44e-01	0	39	104	0	60	49530
2026-01-03 17:50:53.07	23.82	0.51	-50.5	-62.6	3.6	8.45e-01	0	39	104	0	60	48886
2026-01-03 17:50:54.08	23.79	0.57	-50.3	-62.4	3.6	8.46e-01	0	39	104	0	60	47897
2026-01-03 17:50:55.09	23.77	0.63	-50.1	-62.2	3.6	8.45e-01	0	39	104	0	60	46529
2026-01-03 17:50:56.10	23.74	0.69	-50.1	-62.2	3.6	8.46e-01	0	39	104	0	60	46719
2026-01-03 17:50:57.11	23.72	0.75	-50.0	-62.2	3.6	8.46e-01	0	39	104	0	60	46503
2026-01-03 17:50:58.12	23.69	0.81	-49.9	-62.1	3.6	8.45e-01	0	39	104	0	60	46075
2026-01-03 17:50:59.13	23.67	0.87	-49.8	-62.0	3.6	8.44e-01	0	39	104	0	60	45397
2026-01-03 17:51:00.14	23.64	0.93	-49.7	-61.8	3.6	8.46e-01	0	39	104	0	60	44395
2026-01-03 17:51:01.15	23.62	0.99	-49.5	-61.6	3.6	8.44e-01	0	39	104	0	60	43607
2026-01-03 17:51:02.16	23.59	1.05	-49.4	-61.6	3.6	8.45e-01	0	39	104	0	60	43353
2026-01-03 17:51:03.17	23.56	1.11	-49.3	-61.4	3.6	8.45e-01	0	39	104	0	60	42603
2026-01-03 17:51:04.18	23.54	1.18	-49.0	-61.1	3.6	8.45e-01	0	39	104	0	60	40849
2026-01-03 17:51:05.19	23.51	1.24	-48.7	-60.7	3.6	8.45e-01	0	39	104	0	60	39184
2026-01-03 17:51:06.20	23.49	1.30	-48.6	-60.7	3.6	8.46e-01	0	39	104	0	60	39149
2026-01-03 17:51:07.21	23.46	1.36	-48.7	-60.7	3.6	8.44e-01	0	39	104	0	60	39391
2026-01-03 17:51:08.21	23.43	1.42	-48.6	-60.7	3.6	8.46e-01	0	39	104	0	60	39383
2026-01-03 17:51:09.22	23.41	1.48	-48.6	-60.7	3.6	8.45e-01	0	39	104	0	60	39234
2026-01-03 17:51:10.23	23.38	1.55	-48.6	-60.7	3.6	8.45e-01	0	39	104	0	60	39395
2026-01-03 17:51:11.24	23.35	1.61	-48.6	-60.7	3.6	8.45e-01	0	39	104	0	60	39091
2026-01-03 17:51:12.25	23.33	1.67	-48.6	-60.6	3.6	8.45e-01	0	39	104	0	60	38806
2026-01-03 17:51:13.26	23.30	1.73	-48.6	-60.5	3.6	8.45e-01	0	39	104	0	60	38191
2026-01-03 17:51:14.27	23.27	1.80	-48.6	-60.2	3.6	8.45e-01	0	39	104	0	60	36933
2026-01-03 17:51:15.28	23.24	1.86	-48.6	-60.3	3.6	8.46e-01	0	39	104	0	60	37254
2026-01-03 17:51:16.29	23.22	1.92	-48.6	-60.2	3.6	8.45e-01	0	39	104	0	60	36889
2026-01-03 17:51:17.30	23.19	1.98	-48.6	-60.4	3.5	8.44e-01	0	39	104	0	60	37876
2026-01-03 17:51:18.31	23.16	2.05	-48.6	-60.4	3.6	8.45e-01	0	39	104	0	60	38064
2026-01-03 17:51:19.32	23.13	2.11	-48.6	-60.7	3.6	8.45e-01	0	39	104	0	60	39141
2026-01-03 17:51:20.33	23.10	2.17	-48.6	-60.7	3.6	8.45e-01	0	39	104	0	60	39386
2026-01-03 17:51:21.34	23.08	2.24	-48.6	-60.7	3.6	8.45e-01	0	39	104	0	60	39140
2026-01-03 17:51:22.35	23.05	2.30	-48.6	-60.5	3.6	8.45e-01	0	39	104	0	60	38242
2026-01-03 17:51:23.36	23.02	2.36	-48.6	-60.4	3.6	8.47e-01	0	39	104	0	60	37906
2026-01-03 17:51:24.37	22.99	2.43	-48.5	-60.3	3.6	8.46e-01	0	39	104	0	60	37609
2026-01-03 17:51:25.38	22.96	2.49	-48.5	-60.0	3.6	8.45e-01	0	39	104	0	60	36095
2026-01-03 17:51:26.39	22.93	2.56	-48.5	-59.6	3.6	8.45e-01	0	39	104	0	60	34582
2026-01-03 17:51:27.40	22.90	2.62	-48.4	-59.0	3.6	8.45e-01	0	39	104	0	60	32217
2026-01-03 17:51:28.41	22.87	2.69	-48.4	-58.8	3.6	8.45e-01	0	39	104	0	60	31486
2026-01-03 17:51:29.42	22.85	2.75	-48.4	-58.7	3.7	8.45e-01	0	39	104	0	60	31275
2026-01-03 17:51:30.43	22.82	2.82	-48.5	-59.1	3.6	8.45e-01	0	39	104	0	60	32504
2026-01-03 17:51:31.44	22.79	2.88	-48.5	-59.8	3.6	8.45e-01	0	39	104	0	60	35452
2026-01-03 17:51:32.45	22.76	2.95	-48.6	-60.3	3.6	8.47e-01	0	39	104	0	60	37567
2026-01-03 17:51:33.46	22.73	3.01	-48.6	-60.0	3.6	8.46e-01	0	39	104	0	60	36206
2026-01-03 17:51:34.47	22.70	3.08	-48.2	-56.8	4.1	8.39e-01	0	39	104	0	60	25023
2026-01-03 17:51:35.48	22.67	3.14	-47.7	-53.2	5.5	7.65e-01	0	39	0	0	60	16524
2026-01-03 17:51:36.49	22.63	3.21	-46.6	-50.4	8.8	4.27e-02	0	39	0	5242880	60	11966
2026-01-03 17:51:37.50	22.60	3.27	-45.9	-49.1	10.7	1.29e-02	0	39	0	11534336	60	10341
2026-01-03 17:51:38.51	22.57	3.34	-44.9	-47.4	12.1	8.43e-04	0	39	0	16777216	60	8431
2026-01-03 17:51:39.52	22.54	3.40	-43.9	-46.0	13.7	2.40e-05	0	39	0	23068672	60	7179
2026-01-03 17:51:40.53	22.51	3.47	-43.6	-45.5	14.3	3.40e-06	0	39	0	28311552	60	6807
2026-01-03 17:51:41.54	22.48	3.54	-43.2	-44.9	15.0	2.20e-06	0	39	0	34603008	60	6369
2026-01-03 17:51:42.55	22.45	3.60	-42.1	-43.6	15.9	0.00e+00	0	39	0	39845888	58	6148
2026-01-03 17:51:43.56	22.42	3.67	-43.0	-44.8	14.9	0.00e+00	0	39	0	45088768	58	7026
2026-01-03 17:51:44.57	22.38	3.74	-43.6	-45.5	14.2	0.00e+00	0	39	0	51380224	58	7653
2026-01-03 17:51:45.57	22.35	3.80	-48.7	-60.8	3.6	8.45e-01	0	39	104	52428800	60	39736
2026-01-03 17:51:46.59	22.32	3.87	-45.1	-47.8	14.0	3.00e-01	0	39	104	52428800	60	8914
2026-01-03 17:51:47.59	22.29	3.94	-47.8	-54.7	7.6	8.39e-01	0	39	104	52428800	60	19638
2026-01-03 17:51:48.61	22.26	4.01	-38.3	-39.3	19.6	0.00e+00	0	39	0	54525952	50	5904
2026-01-03 17:51:49.62	22.22	4.07	-48.6	-60.5	3.6	8.45e-01	0	39	104	55574528	60	38407
2026-01-03 17:51:50.63	22.19	4.14	-37.5	-38.4	19.7	0.00e+00	0	39	104	55574528	48	5987
2026-01-03 17:51:51.64	22.16	4.21	-37.1	-37.9	21.8	0.00e+00	0	39	0	59768832	48	5670
2026-01-03 17:51:52.65	22.12	4.28	-37.3	-38.1	21.6	0.00e+00	0	39	0	65011712	48	5808
2026-01-03 17:51:53.66	22.09	4.35	-37.5	-38.4	21.3	0.00e+00	0	39	0	71303168	48	6001
2026-01-03 17:51:54.67	22.06	4.41	-37.2	-38.0	21.8	0.00e+00	0	39	0	76546048	48	5759
2026-01-03 17:51:55.67	22.02	4.48	-37.1	-37.9	21.7	0.00e+00	0	39	0	81788928	48	5683
2026-01-03 17:51:56.68	21.99	4.55	-37.1	-38.0	21.9	0.00e+00	0	39	0	88080384	48	5699
2026-01-03 17:51:57.69	21.96	4.62	-36.9	-37.7	22.1	0.00e+00	0	39	0	93323264	48	5529
2026-01-03 17:51:58.70	21.92	4.69	-37.1	-37.9	21.8	0.00e+00	0	39	0	99614720	46	6387
2026-01-03 17:51:59.71	21.89	4.76	-37.0	-37.8	22.1	0.00e+00	0	39	0	104857600	46	6259
2026-01-03 17:52:00.72	21.85	4.83	-36.7	-37.5	22.1	0.00e+00	0	39	0	110100480	46	6061
2026-01-03 17:52:01.73	21.82	4.90	-36.8	-37.6	22.1	0.00e+00	0	39	0	116391936	46	6141
2026-01-03 17:52:02.74	21.78	4.97	-36.8	-37.6	22.2	0.00e+00	0	39	0	121634816	46	6143
2026-01-03 17:52:03.75	21.75	5.04	-36.6	-37.4	22.4	0.00e+00	0	39	0	127926272	46	6027
2026-01-03 17:52:04.76	21.71	5.11	-36.6	-37.3	22.6	0.00e+00	0	39	0	133169152	46	5955
2026-01-03 17:52:05.77	21.68	5.18	-37.0	-37.8	22.1	0.00e+00	0	39	0	139460608	46	6291
2026-01-03 17:52:06.77	21.64	5.25	-36.6	-37.4	22.5	0.00e+00	0	39	0	144703488	46	5978
2026-01-03 17:52:07.78	21.61	5.32	-36.8	-37.6	22.4	0.00e+00	0	39	0	149946368	46	6132
2026-01-03 17:52:08.79	21.57	5.39	-36.6	-37.4	22.5	0.00e+00	0	39	0	156237824	46	5980
2026-01-03 17:52:09.80	21.53	5.46	-36.8	-37.6	22.4	0.00e+00	0	39	0	161480704	46	6118
2026-01-03 17:52:10.81	21.50	5.53	-36.6	-37.4	22.6	0.00e+00	0	39	0	167772160	46	5976
2026-01-03 17:52:11.82	21.46	5.60	-36.7	-37.5	22.5	0.00e+00	0	39	0	173015040	46	6052
2026-01-03 17:52:12.83	21.42	5.67	-36.6	-37.4	22.5	0.00e+00	0	39	0	178257920	46	5988
2026-01-03 17:52:13.84	21.39	5.75	-37.0	-37.8	22.1	0.00e+00	0	39	0	184549376	46	6263
2026-01-03 17:52:14.84	21.35	5.82	-36.4	-37.1	22.8	0.00e+00	0	39	0	189792256	46	5823
2026-01-03 17:52:15.85	21.31	5.89	-36.7	-37.4	22.5	0.00e+00	0	39	0	196083712	46	5999
2026-01-03 17:52:16.86	21.27	5.96	-36.6	-37.3	22.4	0.00e+00	0	39	0	201326592	46	5962
2026-01-03 17:52:17.87	21.24	6.03	-36.4	-37.2	22.8	0.00e+00	0	39	0	207618048	46	5839
2026-01-03 17:52:18.88	21.20	6.11	-37.1	-37.9	22.0	0.00e+00	0	39	0	212860928	46	6340
2026-01-03 17:52:19.89	21.16	6.18	-36.9	-37.7	22.3	0.00e+00	0	39	0	218103808	46	6199
2026-01-03 17:52:20.90	21.12	6.25	-36.9	-37.7	22.4	0.00e+00	0	39	0	224395264	46	6193
2026-01-03 17:52:21.90	21.08	6.32	-37.0	-37.8	22.2	0.00e+00	0	39	0	229638144	46	6276
2026-01-03 17:52:22.91	21.04	6.40	-37.0	-37.7	22.5	0.00e+00	0	39	0	235929600	46	6229
2026-01-03 17:52:23.92	21.01	6.47	-36.7	-37.4	22.6	0.00e+00	0	39	0	241172480	46	6025
2026-01-03 17:52:24.93	20.97	6.55	-36.6	-37.4	22.7	0.00e+00	0	39	0	246415360	46	5974
2026-01-03 17:52:25.94	20.93	6.62	-37.0	-37.8	22.4	0.00e+00	0	39	0	252706816	46	6251
2026-01-03 17:52:26.95	20.89	6.69	-36.4	-37.2	22.7	0.00e+00	0	39	0	257949696	46	5844
2026-01-03 17:52:27.96	20.85	6.77	-36.5	-37.3	22.9	0.00e+00	0	39	0	264241152	46	5927
2026-01-03 17:52:28.97	20.81	6.84	-36.4	-37.1	23.1	0.00e+00	0	39	0	269484032	46	5805
2026-01-03 17:52:29.98	20.77	6.92	-36.8	-37.6	22.7	0.00e+00	0	39	0	274726912	46	6118
2026-01-03 17:52:30.99	20.72	6.99	-36.5	-37.2	23.1	0.00e+00	0	39	0	281018368	46	5882
2026-01-03 17:52:32.00	20.68	7.07	-36.8	-37.6	22.7	0.00e+00	0	39	0	286261248	46	6121
2026-01-03 17:52:33.01	20.64	7.14	-36.5	-37.3	22.8	0.00e+00	0	39	0	292552704	46	5932
2026-01-03 17:52:34.02	20.60	7.22	-36.4	-37.1	23.1	0.00e+00	0	39	0	297795584	46	5785
2026-01-03 17:52:35.03	20.56	7.29	-36.6	-37.3	22.9	0.00e+00	0	39	0	303038464	46	5941
2026-01-03 17:52:36.04	20.52	7.37	-36.3	-37.1	23.1	0.00e+00	0	39	0	309329920	46	5784
2026-01-03 17:52:37.05	20.48	7.45	-36.4	-37.2	23.0	0.00e+00	0	39	0	314572800	46	5844
2026-01-03 17:52:38.06	20.43	7.52	-36.5	-37.2	23.1	0.00e+00	0	39	0	320864256	46	5889
2026-01-03 17:52:39.07	20.39	7.60	-36.4	-37.1	23.1	0.00e+00	0	39	0	326107136	46	5811
2026-01-03 17:52:40.08	20.35	7.68	-36.9	-37.7	22.5	0.00e+00	0	39	0	332398592	46	6199
2026-01-03 17:52:41.08	20.30	7.75	-36.5	-37.2	23.0	0.00e+00	0	39	0	337641472	46	5895
2026-01-03 17:52:42.10	20.26	7.83	-36.4	-37.2	23.1	0.00e+00	0	39	0	343932928	46	5835
2026-01-03 17:52:43.11	20.22	7.91	-36.3	-37.0	23.1	0.00e+00	0	39	0	349175808	46	5757
2026-01-03 17:52:44.11	20.17	7.99	-36.2	-36.9	23.2	0.00e+00	0	39	0	354418688	46	5693
2026-01-03 17:52:45.12	20.13	8.06	-36.4	-37.2	23.1	0.00e+00	0	39	0	360710144	46	5848
2026-01-03 17:52:46.13	20.08	8.14	-36.3	-37.0	23.2	0.00e+00	0	39	0	365953024	46	5731
2026-01-03 17:52:47.14	20.04	8.22	-36.2	-37.0	23.3	0.00e+00	0	39	0	372244480	46	5734
2026-01-03 17:52:48.15	20.00	8.30	-36.2	-36.9	23.3	0.00e+00	0	39	0	377487360	46	5689
2026-01-03 17:52:49.16	19.95	8.38	-36.2	-36.9	23.3	0.00e+00	0	39	0	382730240	46	5674
2026-01-03 17:52:50.17	19.90	8.46	-36.3	-37.1	23.2	0.00e+00	0	39	0	389021696	46	5766
2026-01-03 17:52:51.18	19.86	8.54	-36.2	-36.9	23.3	0.00e+00	0	39	0	394264576	46	5671
2026-01-03 17:52:52.19	19.81	8.62	-36.1	-36.9	23.4	0.00e+00	0	39	0	400556032	46	5645
2026-01-03 17:52:53.20	19.77	8.70	-36.2	-36.9	23.4	0.00e+00	0	39	0	405798912	46	5683
2026-01-03 17:52:54.21	19.72	8.78	-36.1	-36.9	23.4	0.00e+00	0	39	0	412090368	46	5633
2026-01-03 17:52:55.22	19.67	8.86	-36.2	-37.0	23.3	0.00e+00	0	39	0	417333248	46	5712
2026-01-03 17:52:56.23	19.63	8.94	-36.6	-37.3	23.0	0.00e+00	0	39	0	422576128	46	5955
2026-01-03 17:52:57.24	19.58	9.02	-36.5	-37.3	23.2	0.00e+00	0	39	0	428867584	46	5911
2026-01-03 17:52:58.24	19.53	9.10	-36.3	-37.0	23.1	0.00e+00	0	39	0	434110464	46	5758
2026-01-03 17:52:59.25	19.48	9.18	-36.3	-37.0	23.3	0.00e+00	0	39	0	440401920	46	5755
2026-01-03 17:53:00.26	19.43	9.26	-36.4	-37.1	23.4	0.00e+00	0	39	0	445644800	46	5786
2026-01-03 17:53:01.27	19.39	9.34	-36.0	-36.7	23.7	0.00e+00	0	39	0	450887680	46	5523
2026-01-03 17:53:02.28	19.34	9.42	-36.2	-36.9	23.5	0.00e+00	0	39	0	457179136	46	5644
2026-01-03 17:53:03.29	19.29	9.51	-35.9	-36.6	23.6	0.00e+00	0	39	0	462422016	46	5501
2026-01-03 17:53:04.30	19.24	9.59	-35.9	-36.6	23.8	0.00e+00	0	39	0	468713472	46	5492
2026-01-03 17:53:05.31	19.19	9.67	-36.0	-36.7	23.5	0.00e+00	0	39	0	473956352	46	5521
2026-01-03 17:53:06.32	19.14	9.75	-35.9	-36.7	23.6	0.00e+00	0	39	0	479199232	44	6204
2026-01-03 17:53:07.33	19.09	9.84	-35.7	-36.4	23.8	0.00e+00	0	39	0	485490688	44	6000
2026-01-03 17:53:08.34	19.04	9.92	-35.7	-36.5	23.9	0.00e+00	0	39	0	490733568	44	6037
2026-01-03 17:53:09.35	18.99	10.00	-35.6	-36.3	24.0	0.00e+00	0	39	0	497025024	44	5922
2026-01-03 17:53:10.36	18.93	10.09	-35.6	-36.3	23.9	0.00e+00	0	39	0	502267904	44	5961
2026-01-03 17:53:11.37	18.88	10.17	-35.5	-36.2	24.1	0.00e+00	0	39	0	508559360	44	5880
2026-01-03 17:53:12.37	18.83	10.26	-35.6	-36.3	23.9	0.00e+00	0	39	0	513802240	44	5959
2026-01-03 17:53:13.39	18.78	10.34	-35.5	-36.2	24.0	0.00e+00	0	39	0	519045120	44	5862
2026-01-03 17:53:14.40	18.73	10.43	-35.4	-36.1	24.2	0.00e+00	0	39	0	525336576	44	5801
2026-01-03 17:53:15.41	18.67	10.51	-35.5	-36.2	24.0	0.00e+00	0	39	0	530579456	44	5869
2026-01-03 17:53:16.41	18.62	10.60	-35.5	-36.2	24.0	0.00e+00	0	39	0	536870912	44	5886
2026-01-03 17:53:17.42	18.57	10.68	-35.2	-35.8	24.4	0.00e+00	0	39	0	542113792	44	5626
2026-01-03 17:53:18.43	18.51	10.77	-35.1	-35.8	24.3	0.00e+00	0	39	0	547356672	44	5617
2026-01-03 17:53:19.44	18.46	10.86	-35.1	-35.8	24.4	0.00e+00	0	39	0	553648128	44	5568
2026-01-03 17:53:20.45	18.40	10.94	-35.2	-35.9	24.3	0.00e+00	0	39	0	558891008	44	5688
2026-01-03 17:53:21.46	18.35	11.03	-35.2	-35.9	24.4	0.00e+00	0	39	0	565182464	44	5637
2026-01-03 17:53:22.47	18.29	11.12	-35.1	-35.8	24.5	0.00e+00	0	39	0	570425344	44	5578
2026-01-03 17:53:23.47	18.24	11.20	-35.1	-35.8	24.4	0.00e+00	0	39	0	575668224	44	5593
2026-01-03 17:53:24.48	18.18	11.29	-35.0	-35.7	24.5	0.00e+00	0	39	0	581959680	44	5539
2026-01-03 17:53:25.49	18.13	11.38	-34.9	-35.6	24.5	0.00e+00	0	39	0	587202560	44	5473
2026-01-03 17:53:26.50	18.07	11.47	-34.9	-35.6	24.6	0.00e+00	0	39	0	593494016	44	5481
2026-01-03 17:53:27.51	18.01	11.56	-35.0	-35.7	24.5	0.00e+00	0	39	0	598736896	44	5542
2026-01-03 17:53:28.52	17.95	11.65	-34.8	-35.5	24.8	0.00e+00	0	39	0	603979776	44	5409
2026-01-03 17:53:29.53	17.90	11.73	-35.2	-35.9	24.5	0.00e+00	0	39	0	610271232	44	5677
2026-01-03 17:53:30.54	17.84	11.82	-34.8	-35.5	24.8	0.00e+00	0	39	0	616562688	44	5410
2026-01-03 17:53:31.55	17.78	11.91	-34.9	-35.5	24.7	0.00e+00	0	39	0	621805568	44	5430
2026-01-03 17:53:32.56	17.72	12.00	-34.9	-35.6	24.8	0.00e+00	0	39	0	627048448	44	5462
2026-01-03 17:53:33.57	17.66	12.09	-34.9	-35.6	24.7	0.00e+00	0	39	0	633339904	44	5459
2026-01-03 17:53:34.58	17.60	12.19	-34.9	-35.6	24.7	0.00e+00	0	39	0	638582784	44	5444
2026-01-03 17:53:35.59	17.54	12.28	-35.0	-35.7	24.5	0.00e+00	0	39	0	644874240	44	5551
2026-01-03 17:53:36.60	17.48	12.37	-35.0	-35.7	24.6	0.00e+00	0	39	0	650117120	44	5561
2026-01-03 17:53:37.61	17.42	12.46	-35.1	-35.8	24.4	0.00e+00	0	39	0	655360000	44	5609
2026-01-03 17:53:38.62	17.36	12.55	-35.0	-35.7	24.7	0.00e+00	0	39	0	661651456	44	5532
2026-01-03 17:53:39.63	17.30	12.64	-35.0	-35.7	24.7	0.00e+00	0	39	0	666894336	44	5518
2026-01-03 17:53:40.64	17.23	12.74	-34.7	-35.4	24.9	0.00e+00	0	39	0	672137216	44	5365
2026-01-03 17:53:41.65	17.17	12.83	-34.8	-35.5	24.8	0.00e+00	0	39	0	678428672	42	6055
2026-01-03 17:53:42.65	17.11	12.92	-34.8	-35.5	24.7	0.00e+00	0	39	0	683671552	42	6064
2026-01-03 17:53:43.66	17.04	13.02	-34.8	-35.5	24.9	0.00e+00	0	39	0	689963008	42	6047
2026-01-03 17:53:44.67	16.98	13.11	-34.8	-35.5	24.9	0.00e+00	0	39	0	695205888	42	6074
2026-01-03 17:53:45.68	16.92	13.20	-34.7	-35.4	24.9	0.00e+00	0	39	0	701497344	42	6008
2026-01-03 17:53:46.69	16.85	13.30	-34.8	-35.5	24.9	0.00e+00	0	39	0	706740224	42	6039
2026-01-03 17:53:47.70	16.79	13.39	-34.7	-35.4	24.9	0.00e+00	0	39	0	713031680	42	6029
2026-01-03 17:53:48.71	16.72	13.49	-34.6	-35.3	25.0	0.00e+00	0	39	0	718274560	42	5930
2026-01-03 17:53:49.72	16.65	13.58	-34.7	-35.3	25.0	0.00e+00	0	39	0	723517440	42	5939
2026-01-03 17:53:50.73	16.59	13.68	-35.1	-35.7	24.5	0.00e+00	0	39	0	729808896	42	6239
2026-01-03 17:53:51.74	16.52	13.78	-34.9	-35.6	25.0	0.00e+00	0	39	0	735051776	42	6149
2026-01-03 17:53:52.75	16.45	13.87	-34.5	-35.2	25.1	0.00e+00	0	39	0	741343232	42	5842
2026-01-03 17:53:53.76	16.38	13.97	-34.6	-35.3	25.0	0.00e+00	0	39	0	746586112	42	5921
2026-01-03 17:53:54.77	16.32	14.07	-34.9	-35.6	24.6	0.00e+00	0	39	0	751828992	42	6161
2026-01-03 17:53:55.78	16.25	14.16	-35.4	-36.1	24.7	0.00e+00	0	39	0	758120448	42	6471
2026-01-03 17:53:56.79	16.18	14.26	-34.8	-35.5	24.9	0.00e+00	0	39	0	763363328	42	6066
2026-01-03 17:53:57.80	16.11	14.36	-34.7	-35.4	24.8	0.00e+00	0	39	0	769654784	42	5985
2026-01-03 17:53:58.81	16.04	14.46	-34.8	-35.5	24.9	0.00e+00	0	39	0	774897664	42	6044
2026-01-03 17:53:59.82	15.97	14.56	-34.6	-35.2	25.2	0.00e+00	0	39	0	780140544	42	5884
2026-01-03 17:54:00.83	15.89	14.66	-34.7	-35.4	25.2	0.00e+00	0	39	0	786432000	42	5999
2026-01-03 17:54:01.84	15.82	14.76	-34.4	-35.1	25.2	0.00e+00	0	39	0	791674880	42	5811
2026-01-03 17:54:02.84	15.75	14.86	-34.8	-35.5	24.9	0.00e+00	0	39	0	797966336	42	6072
2026-01-03 17:54:03.85	15.68	14.96	-34.3	-35.0	25.3	0.00e+00	0	39	0	803209216	42	5742
2026-01-03 17:54:04.86	15.60	15.06	-34.3	-35.0	25.4	0.00e+00	0	39	0	809500672	42	5723
2026-01-03 17:54:05.87	15.53	15.16	-34.2	-34.9	25.3	0.00e+00	0	39	0	814743552	42	5670
2026-01-03 17:54:06.88	15.46	15.26	-34.1	-34.8	25.5	0.00e+00	0	39	0	819986432	42	5589
2026-01-03 17:54:07.89	15.38	15.36	-34.1	-34.7	25.5	0.00e+00	0	39	0	826277888	42	5555
2026-01-03 17:54:08.91	15.30	15.47	-34.2	-34.8	25.4	0.00e+00	0	39	0	831520768	42	5613
2026-01-03 17:54:09.91	15.23	15.57	-34.0	-34.7	25.6	0.00e+00	0	39	0	837812224	42	5545
2026-01-03 17:54:10.92	15.15	15.67	-34.1	-34.8	25.6	0.00e+00	0	39	0	843055104	42	5572
2026-01-03 17:54:11.93	15.07	15.77	-33.9	-34.6	25.7	0.00e+00	0	39	0	848297984	42	5464
2026-01-03 17:54:12.95	15.00	15.88	-34.3	-35.0	25.3	0.00e+00	0	39	0	854589440	42	5713
2026-01-03 17:54:13.96	14.92	15.98	-34.5	-35.2	25.4	0.00e+00	0	39	0	859832320	42	5847
2026-01-03 17:54:14.97	14.84	16.09	-34.3	-34.9	25.4	0.00e+00	0	39	0	866123776	42	5689
2026-01-03 17:54:15.98	14.76	16.19	-34.6	-35.2	25.3	0.00e+00	0	39	0	871366656	42	5888
2026-01-03 17:54:16.99	14.68	16.30	-34.1	-34.7	25.6	0.00e+00	0	39	0	877658112	42	5562
2026-01-03 17:54:17.99	14.60	16.40	-34.1	-34.8	25.6	0.00e+00	0	39	0	882900992	42	5572
2026-01-03 17:54:19.00	14.52	16.51	-33.9	-34.6	25.9	0.00e+00	0	39	0	888143872	42	5457
2026-01-03 17:54:20.01	14.44	16.62	-34.3	-34.9	25.7	0.00e+00	0	39	0	894435328	42	5684
2026-01-03 17:54:21.02	14.35	16.72	-34.1	-34.8	25.8	0.00e+00	0	39	0	899678208	42	5597
2026-01-03 17:54:22.03	14.27	16.83	-33.9	-34.6	25.8	0.00e+00	0	39	0	905969664	42	5445
2026-01-03 17:54:23.04	14.19	16.94	-33.5	-34.1	26.1	0.00e+00	0	39	0	911212544	40	5819
2026-01-03 17:54:24.05	14.10	17.05	-33.5	-34.2	26.1	0.00e+00	0	39	0	917504000	40	5842
2026-01-03 17:54:25.06	14.02	17.16	-33.4	-34.1	26.1	0.00e+00	0	39	0	922746880	40	5767
2026-01-03 17:54:26.07	13.93	17.26	-33.4	-34.1	26.2	0.00e+00	0	39	0	927989760	40	5794
2026-01-03 17:54:27.08	13.84	17.37	-33.5	-34.1	26.1	0.00e+00	0	39	0	934281216	40	5803
2026-01-03 17:54:28.08	13.76	17.48	-33.6	-34.3	26.1	0.00e+00	0	39	0	939524096	40	5909
2026-01-03 17:54:29.10	13.67	17.59	-33.5	-34.2	26.0	0.00e+00	0	39	0	945815552	40	5851
2026-01-03 17:54:30.10	13.58	17.70	-33.7	-34.4	26.1	0.00e+00	0	39	0	951058432	40	5969
2026-01-03 17:54:31.11	13.49	17.81	-33.4	-34.0	26.2	0.00e+00	0	39	0	956301312	40	5741
2026-01-03 17:54:32.12	13.40	17.93	-33.5	-34.1	26.2	0.00e+00	0	39	0	962592768	40	5808
2026-01-03 17:54:33.13	13.31	18.04	-33.3	-33.9	26.3	0.00e+00	0	39	0	967835648	40	5695
2026-01-03 17:54:34.14	13.22	18.15	-33.6	-34.2	26.4	0.00e+00	0	39	0	974127104	40	5883
2026-01-03 17:54:35.15	13.13	18.26	-33.3	-34.0	26.0	0.00e+00	0	39	0	979369984	40	5699
2026-01-03 17:54:36.16	13.04	18.38	-33.5	-34.1	26.3	0.00e+00	0	39	0	984612864	40	5806
2026-01-03 17:54:37.17	12.94	18.49	-33.1	-33.7	26.5	0.00e+00	0	39	0	990904320	40	5544
2026-01-03 17:54:38.18	12.85	18.61	-33.2	-33.8	26.4	0.00e+00	0	39	0	996147200	40	5614
2026-01-03 17:54:39.19	12.76	18.72	-33.3	-34.0	26.3	0.00e+00	0	39	0	1002438656	40	5708
2026-01-03 17:54:40.20	12.66	18.84	-33.3	-33.9	26.4	0.00e+00	0	39	0	1007681536	40	5674
2026-01-03 17:54:41.21	12.56	18.95	-33.4	-34.1	26.3	0.00e+00	0	39	0	1013972992	40	5788
2026-01-03 17:54:42.21	12.47	19.07	-33.3	-33.9	26.4	0.00e+00	0	39	0	1019215872	40	5649
2026-01-03 17:54:43.22	12.37	19.18	-33.5	-34.1	26.1	0.00e+00	0	39	0	1024458752	40	5817
2026-01-03 17:54:44.23	12.27	19.30	-33.3	-33.9	26.4	0.00e+00	0	39	0	1030750208	40	5666
2026-01-03 17:54:45.24	12.17	19.42	-33.2	-33.8	26.4	0.00e+00	0	39	0	1035993088	40	5607
2026-01-03 17:54:46.24	12.07	19.53	-33.3	-33.9	26.3	0.00e+00	0	39	0	1042284544	40	5690
2026-01-03 17:54:47.25	11.97	19.65	-33.2	-33.8	26.3	0.00e+00	0	39	0	1047527424	40	5630
2026-01-03 17:54:48.26	11.87	19.77	-33.2	-33.8	26.5	0.00e+00	0	39	0	1052770304	40	5616
2026-01-03 17:54:49.27	11.77	19.89	-33.1	-33.8	26.6	0.00e+00	0	39	0	1059061760	40	5572
2026-01-03 17:54:50.28	11.66	20.01	-33.2	-33.8	26.3	0.00e+00	0	39	0	1064304640	40	5607
2026-01-03 17:54:51.29	11.56	20.13	-33.0	-33.7	26.6	0.00e+00	0	39	0	1070596096	40	5513
2026-01-03 17:54:52.30	11.45	20.25	-32.9	-33.5	26.6	0.00e+00	0	39	0	1075838976	40	5428
2026-01-03 17:54:53.31	11.35	20.37	-32.9	-33.5	26.8	0.00e+00	0	39	0	1081081856	40	5425
2026-01-03 17:54:54.32	11.24	20.49	-32.7	-33.3	26.8	0.00e+00	0	39	0	1087373312	38	5962
2026-01-03 17:54:55.33	11.13	20.62	-32.9	-33.6	26.8	0.00e+00	0	39	0	1092616192	38	6108
2026-01-03 17:54:56.34	11.03	20.74	-32.5	-33.1	27.1	0.00e+00	0	39	0	1098907648	38	5820
2026-01-03 17:54:57.35	10.92	20.86	-32.8	-33.5	26.9	0.00e+00	0	39	0	1104150528	38	6036
2026-01-03 17:54:58.36	10.81	20.99	-32.4	-33.0	27.1	0.00e+00	0	39	0	1110441984	38	5751
2026-01-03 17:54:59.37	10.69	21.11	-32.2	-32.9	27.3	0.00e+00	0	39	0	1115684864	38	5640
2026-01-03 17:55:00.38	10.58	21.23	-32.3	-32.9	27.2	0.00e+00	0	39	0	1120927744	38	5680
2026-01-03 17:55:01.38	10.47	21.36	-32.3	-32.9	27.3	0.00e+00	0	39	0	1127219200	38	5672
2026-01-03 17:55:02.39	10.36	21.48	-32.4	-33.0	27.1	0.00e+00	0	39	0	1132462080	38	5752
2026-01-03 17:55:03.40	10.24	21.61	-32.2	-32.8	27.3	0.00e+00	0	39	0	1138753536	38	5587
2026-01-03 17:55:04.41	10.12	21.74	-32.3	-32.9	27.2	0.00e+00	0	39	0	1143996416	38	5655
2026-01-03 17:55:05.42	10.01	21.86	-32.3	-32.9	27.4	0.00e+00	0	39	0	1149239296	38	5648
2026-01-03 17:55:06.43	9.89	21.99	-33.0	-33.6	27.0	0.00e+00	0	39	0	1155530752	38	6149
2026-01-03 17:55:07.44	9.77	22.12	-33.0	-33.6	26.7	0.00e+00	0	39	0	1160773632	38	6157
2026-01-03 17:55:08.45	9.65	22.25	-32.4	-33.0	27.2	0.00e+00	0	39	0	1167065088	38	5745
2026-01-03 17:55:09.46	9.53	22.38	-32.2	-32.8	27.3	0.00e+00	0	39	0	1172307968	38	5618
2026-01-03 17:55:10.47	9.41	22.51	-32.4	-33.0	27.2	0.00e+00	0	39	0	1177550848	38	5724
2026-01-03 17:55:11.48	9.28	22.64	-32.2	-32.8	27.4	0.00e+00	0	39	0	1183842304	38	5603
2026-01-03 17:55:12.49	9.16	22.77	-32.5	-33.1	27.1	0.00e+00	0	39	0	1189085184	38	5824
2026-01-03 17:55:13.50	9.03	22.90	-32.4	-33.1	27.2	0.00e+00	0	39	0	1195376640	38	5767
2026-01-03 17:55:14.51	8.91	23.03	-32.4	-33.0	27.2	0.00e+00	0	39	0	1200619520	38	5738
2026-01-03 17:55:15.51	8.78	23.16	-32.3	-32.9	27.2	0.00e+00	0	39	0	1206910976	38	5669
2026-01-03 17:55:16.52	8.65	23.30	-32.3	-32.9	27.3	0.00e+00	0	39	0	1212153856	38	5657
2026-01-03 17:55:17.53	8.52	23.43	-32.6	-33.2	27.2	0.00e+00	0	39	0	1217396736	38	5869
2026-01-03 17:55:18.54	8.39	23.56	-32.4	-33.0	27.3	0.00e+00	0	39	0	1223688192	38	5742
2026-01-03 17:55:19.55	8.26	23.70	-32.2	-32.9	27.3	0.00e+00	0	39	0	1228931072	38	5652
2026-01-03 17:55:20.56	8.13	23.83	-32.3	-32.9	27.2	0.00e+00	0	39	0	1235222528	38	5688
2026-01-03 17:55:21.57	7.99	23.97	-32.3	-33.0	27.3	0.00e+00	0	39	0	1240465408	38	5700
2026-01-03 17:55:22.58	7.86	24.10	-32.3	-33.0	27.3	0.00e+00	0	39	0	1245708288	38	5697
2026-01-03 17:55:23.59	7.72	24.24	-32.5	-33.1	27.2	0.00e+00	0	39	0	1251999744	38	5798
2026-01-03 17:55:24.60	7.58	24.38	-32.4	-33.1	27.2	0.00e+00	0	39	0	1257242624	38	5786
2026-01-03 17:55:25.60	7.44	24.51	-32.0	-32.7	27.5	0.00e+00	0	39	0	1263534080	38	5507
2026-01-03 17:55:26.62	7.30	24.65	-32.1	-32.7	27.4	0.00e+00	0	39	0	1268776960	38	5539
2026-01-03 17:55:27.63	7.16	24.79	-32.0	-32.6	27.5	0.00e+00	0	39	0	1274019840	38	5493
2026-01-03 17:55:28.63	7.02	24.93	-32.1	-32.7	27.6	0.00e+00	0	39	0	1280311296	38	5546
2026-01-03 17:55:29.64	6.87	25.07	-32.0	-32.7	27.4	0.00e+00	0	39	0	1285554176	38	5519
2026-01-03 17:55:30.65	6.73	25.21	-32.1	-32.8	27.5	0.00e+00	0	39	0	1291845632	38	5579
2026-01-03 17:55:31.66	6.58	25.35	-32.0	-32.6	27.6	0.00e+00	0	39	0	1297088512	38	5481
2026-01-03 17:55:32.68	6.43	25.49	-31.9	-32.5	27.6	0.00e+00	0	39	0	1303379968	38	5415
2026-01-03 17:55:33.68	6.28	25.63	-31.9	-32.5	27.7	0.00e+00	0	39	0	1308622848	38	5398
2026-01-03 17:55:34.69	6.13	25.78	-31.7	-32.3	27.7	0.00e+00	0	39	0	1314914304	36	5938
2026-01-03 17:55:35.70	5.98	25.92	-31.7	-32.3	27.7	0.00e+00	0	39	0	1320157184	36	5964
2026-01-03 17:55:36.71	5.83	26.06	-31.6	-32.2	27.9	0.00e+00	0	39	0	1325400064	36	5831
2026-01-03 17:55:37.72	5.67	26.21	-31.6	-32.2	27.9	0.00e+00	0	39	0	1331691520	36	5852
2026-01-03 17:55:38.73	5.51	26.35	-31.8	-32.5	27.8	0.00e+00	0	39	0	1336934400	36	6037
2026-01-03 17:55:39.74	5.35	26.50	-31.6	-32.1	27.8	0.00e+00	0	39	0	1343225856	36	5821
2026-01-03 17:55:40.75	5.19	26.64	-31.5	-32.0	28.0	0.00e+00	0	39	0	1348468736	36	5760
2026-01-03 17:55:41.76	5.03	26.79	-31.4	-32.0	28.0	0.00e+00	0	39	0	1353711616	36	5753
2026-01-03 17:55:42.77	4.87	26.93	-31.4	-32.0	28.0	0.00e+00	0	39	0	1360003072	36	5719
2026-01-03 17:55:43.78	4.71	27.08	-31.5	-32.2	27.9	0.00e+00	0	39	0	1365245952	36	5831
2026-01-03 17:55:44.79	4.54	27.23	-31.4	-32.1	28.0	0.00e+00	0	39	0	1371537408	36	5769
2026-01-03 17:55:45.80	4.37	27.38	-31.5	-32.1	28.0	0.00e+00	0	39	0	1376780288	36	5793
2026-01-03 17:55:46.81	4.20	27.53	-31.6	-32.2	27.8	0.00e+00	0	39	0	1382023168	36	5874
2026-01-03 17:55:47.82	4.03	27.68	-31.6	-32.3	27.9	0.00e+00	0	39	0	1388314624	36	5903
2026-01-03 17:55:48.83	3.86	27.83	-31.7	-32.3	27.8	0.00e+00	0	39	0	1393557504	36	5956
2026-01-03 17:55:49.84	3.69	27.98	-31.8	-32.4	27.8	0.00e+00	0	39	0	1399848960	36	5978
2026-01-03 17:55:50.85	3.51	28.13	-31.7	-32.3	27.8	0.00e+00	0	39	0	1405091840	36	5954
2026-01-03 17:55:51.86	3.33	28.28	-31.6	-32.3	27.9	0.00e+00	0	39	0	1411383296	36	5900
2026-01-03 17:55:52.86	3.16	28.43	-31.6	-32.2	27.9	0.00e+00	0	39	0	1416626176	36	5835
2026-01-03 17:55:53.87	2.97	28.58	-31.3	-31.9	28.0	0.00e+00	0	39	0	1421869056	36	5670
2026-01-03 17:55:54.88	2.79	28.73	-31.3	-31.9	28.1	0.00e+00	0	39	0	1428160512	36	5664
2026-01-03 17:55:55.89	2.61	28.89	-31.3	-31.9	28.1	0.00e+00	0	39	0	1433403392	36	5691
2026-01-03 17:55:56.90	2.42	29.04	-31.3	-31.9	28.1	0.00e+00	0	39	0	1439694848	36	5690
2026-01-03 17:55:57.91	2.23	29.20	-31.4	-32.0	28.0	0.00e+00	0	39	0	1444937728	36	5731
2026-01-03 17:55:58.92	2.04	29.35	-31.3	-31.9	28.1	0.00e+00	0	39	0	1450180608	36	5652
2026-01-03 17:55:59.93	1.85	29.51	-31.5	-32.1	27.9	0.00e+00	0	39	0	1456472064	36	5816
2026-01-03 17:56:00.95	1.66	29.66	-31.6	-32.2	28.0	0.00e+00	0	39	0	1461714944	36	5844
2026-01-03 17:56:01.95	1.46	29.82	-31.4	-32.1	28.0	0.00e+00	0	39	0	1468006400	36	5774
2026-01-03 17:56:02.96	1.26	29.98	-31.5	-32.2	27.9	0.00e+00	0	39	0	1473249280	36	5848
2026-01-03 17:56:03.97	1.06	30.13	-31.3	-31.8	28.1	0.00e+00	0	39	0	1478492160	36	5621
2026-01-03 17:56:04.98	0.86	30.29	-31.2	-31.7	28.2	0.00e+00	0	39	0	1484783616	36	5564
2026-01-03 17:56:05.99	0.66	30.45	-31.2	-31.8	28.0	0.00e+00	0	39	0	1490026496	36	5596
2026-01-03 17:56:07.00	0.45	30.61	-31.3	-31.9	27.9	0.00e+00	0	39	0	1496317952	36	5676
2026-01-03 17:56:08.01	0.25	30.77	-31.5	-32.1	28.0	0.00e+00	0	39	0	1501560832	36	5763
2026-01-03 17:56:09.02	0.04	30.93	-31.4	-32.0	28.0	0.00e+00	0	39	0	1507852288	36	5743
2026-01-03 17:56:10.03	359.82	31.09	-31.3	-31.9	28.1	0.00e+00	0	39	0	1513095168	36	5656
2026-01-03 17:56:11.04	359.61	31.25	-31.2	-31.9	28.1	0.00e+00	0	39	0	1519386624	36	5640
2026-01-03 17:56:12.05	359.39	31.41	-31.2	-31.8	28.3	0.00e+00	0	39	0	1524629504	36	5590
2026-01-03 17:56:13.06	359.18	31.57	-31.3	-31.9	28.1	0.00e+00	0	39	0	1529872384	36	5672
2026-01-03 17:56:14.06	358.96	31.73	-31.4	-32.0	28.1	0.00e+00	0	39	0	1536163840	36	5720
2026-01-03 17:56:15.07	358.73	31.89	-31.2	-31.8	28.3	0.00e+00	0	39	0	1541406720	36	5608
2026-01-03 17:56:16.08	358.51	32.06	-31.1	-31.7	28.3	0.00e+00	0	39	0	1546649600	36	5546
2026-01-03 17:56:17.09	358.28	32.22	-31.2	-31.8	28.2	0.00e+00	0	39	0	1552941056	36	5621
2026-01-03 17:56:18.10	358.05	32.38	-31.2	-31.8	28.2	0.00e+00	0	39	0	1558183936	36	5569
2026-01-03 17:56:19.11	357.82	32.55	-31.3	-32.0	28.0	0.00e+00	0	39	0	1564475392	36	5702
2026-01-03 17:56:20.12	357.59	32.71	-31.5	-32.2	27.9	0.00e+00	0	39	0	1569718272	36	5834
2026-01-03 17:56:21.13	357.35	32.88	-31.9	-32.5	27.7	0.00e+00	0	39	0	1574961152	36	6074
2026-01-03 17:56:22.14	357.11	33.04	-31.5	-32.1	28.0	0.00e+00	0	39	0	1581252608	36	5818
2026-01-03 17:56:23.15	356.87	33.21	-31.2	-31.8	28.1	0.00e+00	0	39	0	1586495488	36	5614
2026-01-03 17:56:24.16	356.62	33.37	-31.1	-31.7	28.2	0.00e+00	0	39	0	1592786944	36	5512
2026-01-03 17:56:25.17	356.38	33.54	-31.3	-31.9	28.4	0.00e+00	0	39	0	1598029824	36	5640
2026-01-03 17:56:26.18	356.13	33.70	-31.2	-31.8	28.3	0.00e+00	0	39	0	1604321280	36	5602
2026-01-03 17:56:27.19	355.87	33.87	-31.1	-31.7	28.2	0.00e+00	0	39	0	1609564160	36	5562
2026-01-03 17:56:28.19	355.62	34.03	-31.5	-32.1	28.1	0.00e+00	0	39	0	1615855616	36	5778
2026-01-03 17:56:29.20	355.36	34.20	-31.4	-32.0	28.1	0.00e+00	0	39	0	1621098496	36	5731
2026-01-03 17:56:30.21	355.10	34.37	-31.8	-32.4	27.9	0.00e+00	0	39	0	1626341376	36	6009
2026-01-03 17:56:31.22	354.84	34.53	-31.5	-32.1	28.0	0.00e+00	0	39	0	1632632832	36	5819
2026-01-03 17:56:32.23	354.58	34.70	-31.2	-31.8	28.3	0.00e+00	0	39	0	1637875712	36	5617
2026-01-03 17:56:33.24	354.31	34.87	-31.3	-31.9	28.3	0.00e+00	0	39	0	1644167168	36	5683
2026-01-03 17:56:34.25	354.04	35.04	-31.3	-31.9	28.1	0.00e+00	0	39	0	1649410048	36	5644
2026-01-03 17:56:35.26	353.76	35.21	-31.4	-32.0	28.1	0.00e+00	0	39	0	1654652928	36	5740
2026-01-03 17:56:36.27	353.49	35.37	-31.3	-31.9	28.1	0.00e+00	0	39	0	1660944384	36	5687
2026-01-03 17:56:37.28	353.21	35.54	-31.4	-32.0	28.0	0.00e+00	0	39	0	1666187264	36	5743
2026-01-03 17:56:38.29	352.92	35.71	-31.7	-32.3	28.0	0.00e+00	0	39	0	1672478720	36	5942
2026-01-03 17:56:39.30	352.64	35.88	-31.4	-32.0	28.1	0.00e+00	0	39	0	1677721600	36	5751
2026-01-03 17:56:40.31	352.35	36.05	-31.5	-32.1	27.9	0.00e+00	0	39	0	1682964480	36	5813
2026-01-03 17:56:41.32	352.06	36.22	-31.6	-32.2	28.0	0.00e+00	0	39	0	1689255936	36	5834
2026-01-03 17:56:42.33	351.76	36.38	-31.8	-32.5	27.8	0.00e+00	0	39	0	1694498816	36	6041
2026-01-03 17:56:43.34	351.47	36.55	-31.6	-32.2	27.9	0.00e+00	0	39	0	1700790272	36	5878
2026-01-03 17:56:44.35	351.17	36.72	-31.6	-32.1	28.1	0.00e+00	0	39	0	1706033152	36	5814
2026-01-03 17:56:45.36	350.86	36.89	-31.9	-32.5	27.8	0.00e+00	0	39	0	1712324608	36	6075
2026-01-03 17:56:46.37	350.55	37.06	-31.4	-32.1	28.1	0.00e+00	0	39	0	1717567488	36	5766
2026-01-03 17:56:47.38	350.24	37.23	-31.5	-32.1	28.1	0.00e+00	0	39	0	1722810368	36	5808
2026-01-03 17:56:48.39	349.93	37.39	-31.4	-32.0	27.8	0.00e+00	0	39	0	1729101824	36	5740
2026-01-03 17:56:49.40	349.61	37.56	-31.3	-31.9	28.2	0.00e+00	0	39	0	1734344704	36	5665
2026-01-03 17:56:50.41	349.29	37.73	-31.2	-31.8	28.2	0.00e+00	0	39	0	1740636160	36	5592
2026-01-03 17:56:51.42	348.97	37.90	-31.3	-31.9	28.2	0.00e+00	0	39	0	1745879040	36	5663
2026-01-03 17:56:52.43	348.64	38.07	-31.4	-32.0	28.2	0.00e+00	0	39	0	1751121920	36	5728
2026-01-03 17:56:53.44	348.31	38.23	-31.5	-32.1	28.1	0.00e+00	0	39	0	1757413376	36	5781
2026-01-03 17:56:54.45	347.98	38.40	-31.0	-31.7	28.4	0.00e+00	0	39	0	1762656256	36	5520
2026-01-03 17:56:55.45	347.64	38.56	-31.2	-31.8	28.2	0.00e+00	0	39	0	1768947712	36	5575
2026-01-03 17:56:56.46	347.30	38.73	-31.3	-31.9	28.1	0.00e+00	0	39	0	1774190592	36	5692
2026-01-03 17:56:57.47	346.96	38.90	-32.1	-32.7	27.9	0.00e+00	0	39	0	1779433472	36	6217
2026-01-03 17:56:58.48	346.61	39.06	-31.6	-32.2	28.0	0.00e+00	0	39	0	1785724928	36	5858
2026-01-03 17:56:59.50	346.25	39.23	-31.6	-32.2	27.9	0.00e+00	0	39	0	1790967808	36	5852
2026-01-03 17:57:00.50	345.90	39.39	-31.6	-32.2	28.0	0.00e+00	0	39	0	1797259264	36	5883
2026-01-03 17:57:01.51	345.54	39.56	-31.7	-32.3	28.0	0.00e+00	0	39	0	1802502144	36	5959
2026-01-03 17:57:02.52	345.18	39.72	-31.6	-32.2	28.0	0.00e+00	0	39	0	1808793600	36	5881
2026-01-03 17:57:03.54	344.81	39.88	-31.7	-32.3	28.0	0.00e+00	0	39	0	1814036480	36	5940
2026-01-03 17:57:04.54	344.45	40.04	-31.5	-32.0	28.2	0.00e+00	0	39	0	1820327936	36	5755
2026-01-03 17:57:05.55	344.07	40.21	-31.9	-32.5	27.6	0.00e+00	0	39	0	1825570816	36	6067
2026-01-03 17:57:06.56	343.69	40.37	-31.7	-32.3	27.7	0.00e+00	0	39	0	1830813696	36	5931
2026-01-03 17:57:07.57	343.31	40.53	-32.3	-32.9	27.4	0.00e+00	0	39	0	1837105152	36	6386
2026-01-03 17:57:08.58	342.93	40.69	-32.9	-33.5	26.9	0.00e+00	0	39	0	1842348032	36	6804
2026-01-03 17:57:09.59	342.54	40.85	-33.2	-33.8	26.8	0.00e+00	0	39	0	1848639488	38	6299
2026-01-03 17:57:10.60	342.15	41.01	-32.6	-33.3	27.0	0.00e+00	0	39	0	1853882368	38	5898
2026-01-03 17:57:11.61	341.75	41.16	-31.9	-32.6	27.7	0.00e+00	0	39	0	1859125248	38	5455
2026-01-03 17:57:12.62	341.35	41.32	-31.9	-32.5	27.8	0.00e+00	0	39	0	1865416704	36	6050
2026-01-03 17:57:13.63	340.94	41.47	-31.7	-32.3	27.9	0.00e+00	0	39	0	1870659584	36	5943
2026-01-03 17:57:14.64	340.54	41.63	-31.3	-32.0	28.1	0.00e+00	0	39	0	1876951040	36	5702
2026-01-03 17:57:15.65	340.12	41.78	-31.3	-31.9	28.1	0.00e+00	0	39	0	1882193920	36	5660
2026-01-03 17:57:16.66	339.71	41.93	-31.5	-32.1	28.0	0.00e+00	0	39	0	1887436800	36	5799
2026-01-03 17:57:17.66	339.29	42.08	-31.9	-32.5	27.7	0.00e+00	0	39	0	1893728256	36	6091
2026-01-03 17:57:18.68	338.86	42.24	-31.8	-32.4	27.8	0.00e+00	0	39	0	1898971136	36	5998
2026-01-03 17:57:19.68	338.44	42.38	-31.7	-32.3	27.8	0.00e+00	0	39	0	1905262592	36	5959
2026-01-03 17:57:20.69	338.01	42.53	-31.7	-32.4	27.8	0.00e+00	0	39	0	1910505472	36	5968
2026-01-03 17:57:21.70	337.57	42.68	-31.7	-32.3	27.8	0.00e+00	0	39	0	1916796928	36	5936
2026-01-03 17:57:22.71	337.13	42.82	-31.7	-32.3	27.9	0.00e+00	0	39	0	1922039808	36	5920
2026-01-03 17:57:23.72	336.69	42.97	-31.6	-32.3	27.9	0.00e+00	0	39	0	1927282688	36	5902
2026-01-03 17:57:24.73	336.24	43.11	-31.7	-32.3	27.9	0.00e+00	0	39	0	1933574144	36	5954
2026-01-03 17:57:25.74	335.78	43.25	-31.5	-32.1	28.0	0.00e+00	0	39	0	1938817024	36	5815
2026-01-03 17:57:26.75	335.33	43.39	-31.7	-32.3	27.9	0.00e+00	0	39	0	1945108480	36	5939
2026-01-03 17:57:27.76	334.87	43.53	-31.8	-32.4	27.8	0.00e+00	0	39	0	1950351360	36	5976
2026-01-03 17:57:28.77	334.40	43.66	-31.5	-32.1	28.1	0.00e+00	0	39	0	1955594240	36	5807
2026-01-03 17:57:29.78	333.94	43.80	-31.4	-32.0	28.2	0.00e+00	0	39	0	1961885696	36	5729
2026-01-03 17:57:30.79	333.46	43.93	-31.4	-32.0	28.2	0.00e+00	0	39	0	1967128576	36	5744
2026-01-03 17:57:31.80	332.99	44.06	-31.5	-32.0	28.1	0.00e+00	0	39	0	1973420032	36	5755
2026-01-03 17:57:32.81	332.51	44.19	-31.5	-32.1	28.0	0.00e+00	0	39	0	1978662912	36	5813
2026-01-03 17:57:33.82	332.02	44.32	-31.5	-32.1	28.0	0.00e+00	0	39	0	1983905792	36	5819
2026-01-03 17:57:34.83	331.54	44.44	-31.9	-32.5	27.7	0.00e+00	0	39	0	1990197248	36	6073
2026-01-03 17:57:35.84	331.04	44.57	-31.9	-32.4	28.0	0.00e+00	0	39	0	1995440128	36	6031
2026-01-03 17:57:36.85	330.55	44.69	-32.2	-32.8	27.5	0.00e+00	0	39	0	2001731584	36	6297
2026-01-03 17:57:37.86	330.05	44.81	-32.5	-33.2	27.3	0.00e+00	0	39	0	2006974464	36	6559
2026-01-03 17:57:38.87	329.55	44.93	-32.6	-33.3	27.2	0.00e+00	0	39	0	2013265920	38	5904
2026-01-03 17:57:39.88	329.04	45.04	-32.0	-32.6	27.7	0.00e+00	0	39	0	2018508800	38	5483
2026-01-03 17:57:40.89	328.53	45.16	-31.6	-32.2	28.0	0.00e+00	0	39	0	2024800256	36	5877
2026-01-03 17:57:41.90	328.01	45.27	-31.8	-32.4	28.0	0.00e+00	0	39	0	2030043136	36	5990
2026-01-03 17:57:42.91	327.50	45.38	-31.9	-32.5	27.7	0.00e+00	0	39	0	2035286016	36	6085
2026-01-03 17:57:43.92	326.97	45.48	-31.7	-32.3	27.9	0.00e+00	0	39	0	2041577472	36	5955
2026-01-03 17:57:44.93	326.45	45.59	-31.6	-32.1	28.0	0.00e+00	0	39	0	2046820352	36	5826
2026-01-03 17:57:45.94	325.92	45.69	-31.4	-32.0	28.2	0.00e+00	0	39	0	2053111808	36	5731
2026-01-03 17:57:46.95	325.39	45.79	-31.7	-32.3	28.0	0.00e+00	0	39	0	2058354688	36	5899
2026-01-03 17:57:47.96	324.85	45.88	-31.9	-32.5	27.8	0.00e+00	0	39	0	2063597568	36	6048
2026-01-03 17:57:48.97	324.31	45.98	-32.3	-32.9	27.7	0.00e+00	0	39	0	2069889024	36	6351
2026-01-03 17:57:49.98	323.77	46.07	-32.2	-32.9	27.9	0.00e+00	0	39	0	2075131904	36	6328
2026-01-03 17:57:50.99	323.23	46.16	-32.0	-32.6	27.9	0.00e+00	0	39	0	2081423360	36	6163
2026-01-03 17:57:52.01	322.68	46.24	-32.1	-32.7	27.7	0.00e+00	0	39	0	2086666240	36	6210
2026-01-03 17:57:53.02	322.12	46.33	-31.9	-32.5	28.0	0.00e+00	0	39	0	2091909120	38	5401
2026-01-03 17:57:54.02	321.58	46.41	-32.3	-32.9	27.7	0.00e+00	0	39	0	2098200576	38	5664
2026-01-03 17:57:55.03	321.02	46.48	-32.1	-32.7	27.9	0.00e+00	0	39	0	2103443456	38	5510
2026-01-03 17:57:56.04	320.46	46.56	-32.5	-33.1	27.7	0.00e+00	0	39	0	2109734912	38	5791
2026-01-03 17:57:57.05	319.90	46.63	-32.3	-32.9	27.6	0.00e+00	0	39	0	2114977792	38	5686
2026-01-03 17:57:58.06	319.33	46.70	-32.2	-32.8	27.7	0.00e+00	0	39	0	2121269248	38	5608
2026-01-03 17:57:59.07	318.77	46.77	-33.0	-33.6	27.4	0.00e+00	0	39	0	2126512128	38	6131
2026-01-03 17:58:00.08	318.20	46.83	-32.5	-33.1	27.4	0.00e+00	0	39	0	2131755008	38	5799
2026-01-03 17:58:01.09	317.63	46.89	-33.4	-34.0	27.1	0.00e+00	0	39	0	2138046464	38	6446
2026-01-03 17:58:02.10	317.05	46.95	-32.9	-33.6	27.3	0.00e+00	0	39	0	2143289344	40	5481
2026-01-03 17:58:03.11	316.48	47.00	-33.7	-34.3	26.8	0.00e+00	0	39	0	2149580800	40	5953
2026-01-03 17:58:04.12	315.90	47.05	-33.6	-34.3	27.0	0.00e+00	0	39	0	2154823680	38	6628
2026-01-03 17:58:05.13	315.32	47.10	-32.8	-33.5	26.8	0.00e+00	0	39	0	2160066560	38	6037
2026-01-03 17:58:06.14	314.74	47.14	-32.3	-32.9	27.8	0.00e+00	0	39	0	2166358016	38	5693
2026-01-03 17:58:07.15	314.15	47.19	-32.3	-32.9	27.9	0.00e+00	0	39	0	2171600896	38	5658
2026-01-03 17:58:08.16	313.57	47.22	-33.1	-33.7	27.8	0.00e+00	0	39	0	2177892352	38	6240
2026-01-03 17:58:09.16	312.99	47.26	-33.0	-33.6	27.9	0.00e+00	0	39	0	2183135232	38	6139
2026-01-03 17:58:10.18	312.40	47.29	-32.8	-33.4	27.4	0.00e+00	0	39	0	2188378112	38	6002
2026-01-03 17:58:11.19	311.81	47.32	-32.4	-33.0	27.6	0.00e+00	0	39	0	2194669568	38	5738
2026-01-03 17:58:12.20	311.22	47.34	-32.8	-33.5	27.6	0.00e+00	0	39	0	2199912448	38	6049
2026-01-03 17:58:13.21	310.63	47.36	-32.6	-33.2	27.6	0.00e+00	0	39	0	2206203904	38	5843
2026-01-03 17:58:14.22	310.04	47.38	-32.4	-32.9	27.8	0.00e+00	0	39	0	2211446784	38	5675
2026-01-03 17:58:15.23	309.45	47.40	-32.1	-32.6	28.0	0.00e+00	0	39	0	2217738240	38	5472
2026-01-03 17:58:16.24	308.85	47.41	-32.0	-32.5	28.0	0.00e+00	0	39	0	2222981120	38	5428
2026-01-03 17:58:17.25	308.26	47.42	-31.9	-32.5	28.0	0.00e+00	0	39	0	2229272576	38	5405
2026-01-03 17:58:18.26	307.67	47.42	-31.8	-32.4	28.0	0.00e+00	0	39	0	2234515456	38	5359
2026-01-03 17:58:19.27	307.08	47.43	-31.8	-32.4	28.1	0.00e+00	0	39	0	2239758336	36	6027
2026-01-03 17:58:20.28	306.48	47.42	-32.1	-32.7	28.2	0.00e+00	0	39	0	2246049792	36	6202
2026-01-03 17:58:21.29	305.89	47.42	-32.3	-32.9	28.0	0.00e+00	0	39	0	2251292672	36	6359
2026-01-03 17:58:22.30	305.30	47.41	-31.7	-32.3	28.1	0.00e+00	0	39	0	2257584128	36	5920
2026-01-03 17:58:23.31	304.71	47.40	-32.5	-33.1	28.0	0.00e+00	0	39	0	2262827008	36	6514
2026-01-03 17:58:24.32	304.11	47.38	-32.4	-33.0	27.8	0.00e+00	0	39	0	2268069888	36	6449
2026-01-03 17:58:25.33	303.52	47.36	-32.3	-33.0	27.8	0.00e+00	0	39	0	2274361344	36	6428
2026-01-03 17:58:26.34	302.93	47.34	-32.4	-33.1	27.7	0.00e+00	0	39	0	2279604224	36	6489
2026-01-03 17:58:27.35	302.34	47.32	-32.4	-33.1	27.7	0.00e+00	0	39	0	2285895680	36	6469
2026-01-03 17:58:28.36	301.75	47.29	-32.2	-32.9	27.7	0.00e+00	0	39	0	2291138560	36	6336
2026-01-03 17:58:29.37	301.17	47.26	-32.1	-32.7	27.9	0.00e+00	0	39	0	2296381440	36	6236
2026-01-03 17:58:30.38	300.58	47.22	-32.1	-32.7	27.8	0.00e+00	0	39	0	2302672896	36	6212
2026-01-03 17:58:31.39	300.00	47.19	-32.1	-32.7	28.0	0.00e+00	0	39	0	2307915776	36	6218
2026-01-03 17:58:32.40	299.41	47.14	-32.1	-32.7	28.0	0.00e+00	0	39	0	2314207232	36	6234
2026-01-03 17:58:33.41	298.83	47.10	-31.8	-32.4	28.2	0.00e+00	0	39	0	2319450112	36	5975
2026-01-03 17:58:34.42	298.25	47.05	-31.9	-32.4	28.2	0.00e+00	0	39	0	2325741568	36	6031
2026-01-03 17:58:35.43	297.67	47.00	-32.0	-32.6	28.0	0.00e+00	0	39	0	2330984448	36	6123
2026-01-03 17:58:36.44	297.10	46.95	-32.3	-32.9	27.8	0.00e+00	0	39	0	2337275904	36	6388
2026-01-03 17:58:37.45	296.52	46.89	-32.6	-33.2	27.8	0.00e+00	0	39	0	2342518784	36	6602
2026-01-03 17:58:38.46	295.95	46.83	-32.2	-32.9	27.9	0.00e+00	0	39	0	2347761664	36	6325
2026-01-03 17:58:39.47	295.38	46.77	-32.3	-32.9	27.8	0.00e+00	0	39	0	2354053120	36	6387
2026-01-03 17:58:40.48	294.81	46.70	-32.2	-32.8	27.7	0.00e+00	0	39	0	2359296000	36	6281
2026-01-03 17:58:41.48	294.25	46.63	-31.9	-32.5	28.0	0.00e+00	0	39	0	2364538880	36	6036
2026-01-03 17:58:42.49	293.69	46.56	-31.7	-32.3	28.1	0.00e+00	0	39	0	2370830336	36	5900
2026-01-03 17:58:43.50	293.13	46.48	-31.7	-32.3	28.0	0.00e+00	0	39	0	2376073216	36	5903
2026-01-03 17:58:44.51	292.57	46.41	-31.7	-32.3	27.9	0.00e+00	0	39	0	2382364672	36	5910
2026-01-03 17:58:45.52	292.02	46.33	-31.4	-32.0	28.2	0.00e+00	0	39	0	2387607552	36	5716
2026-01-03 17:58:46.53	291.47	46.24	-31.2	-31.7	28.2	0.00e+00	0	39	0	2392850432	36	5552
2026-01-03 17:58:47.54	290.92	46.16	-31.1	-31.6	28.4	0.00e+00	0	39	0	2399141888	36	5488
2026-01-03 17:58:48.55	290.37	46.07	-31.4	-32.0	28.3	0.00e+00	0	39	0	2404384768	36	5717
2026-01-03 17:58:49.56	289.83	45.98	-31.4	-32.0	28.3	0.00e+00	0	39	0	2410676224	36	5729
2026-01-03 17:58:50.57	289.29	45.88	-31.4	-32.0	28.2	0.00e+00	0	39	0	2415919104	36	5744
2026-01-03 17:58:51.58	288.76	45.79	-31.4	-31.9	28.3	0.00e+00	0	39	0	2422210560	36	5656
2026-01-03 17:58:52.59	288.22	45.69	-31.5	-32.1	28.1	0.00e+00	0	39	0	2427453440	36	5804
2026-01-03 17:58:53.60	287.70	45.58	-31.3	-32.0	28.2	0.00e+00	0	39	0	2433744896	36	5731
2026-01-03 17:58:54.60	287.17	45.48	-31.9	-32.5	27.9	0.00e+00	0	39	0	2438987776	36	6038
2026-01-03 17:58:55.61	286.65	45.37	-31.5	-32.1	28.2	0.00e+00	0	39	0	2444230656	36	5779
2026-01-03 17:58:56.63	286.13	45.26	-31.2	-31.9	28.2	0.00e+00	0	39	0	2450522112	36	5672
2026-01-03 17:58:57.64	285.61	45.15	-31.3	-31.8	28.2	0.00e+00	0	39	0	2455764992	36	5606
2026-01-03 17:58:58.65	285.10	45.04	-31.5	-32.0	28.2	0.00e+00	0	39	0	2462056448	36	5713
2026-01-03 17:58:59.66	284.59	44.92	-31.6	-32.1	28.1	0.00e+00	0	39	0	2467299328	36	5794
2026-01-03 17:59:00.66	284.09	44.81	-32.0	-32.5	28.1	0.00e+00	0	39	0	2472542208	36	6065
2026-01-03 17:59:01.67	283.59	44.69	-31.5	-32.0	28.3	0.00e+00	0	39	0	2478833664	36	5723
2026-01-03 17:59:02.68	283.10	44.57	-31.6	-32.1	28.1	0.00e+00	0	39	0	2484076544	36	5827
2026-01-03 17:59:03.69	282.61	44.44	-31.7	-32.4	28.1	0.00e+00	0	39	0	2490368000	36	5985
2026-01-03 17:59:04.70	282.12	44.32	-31.7	-32.2	28.0	0.00e+00	0	39	0	2495610880	36	5891
2026-01-03 17:59:05.71	281.63	44.19	-31.6	-32.2	28.1	0.00e+00	0	39	0	2500853760	36	5887
2026-01-03 17:59:06.72	281.15	44.06	-31.7	-32.2	28.3	0.00e+00	0	39	0	2507145216	36	5850
2026-01-03 17:59:07.73	280.67	43.93	-31.7	-32.3	28.2	0.00e+00	0	39	0	2512388096	36	5921
2026-01-03 17:59:08.74	280.20	43.79	-31.5	-32.0	28.2	0.00e+00	0	39	0	2518679552	36	5733
2026-01-03 17:59:09.75	279.73	43.66	-31.3	-32.0	28.4	0.00e+00	0	39	0	2523922432	36	5719
2026-01-03 17:59:10.76	279.27	43.52	-31.5	-32.0	28.1	0.00e+00	0	39	0	2530213888	36	5759
2026-01-03 17:59:11.77	278.80	43.39	-31.7	-32.2	28.2	0.00e+00	0	39	0	2535456768	36	5853
2026-01-03 17:59:12.78	278.35	43.25	-31.4	-32.0	28.3	0.00e+00	0	39	0	2540699648	36	5751
2026-01-03 17:59:13.79	277.89	43.10	-31.4	-32.0	28.3	0.00e+00	0	39	0	2546991104	36	5734
2026-01-03 17:59:14.80	277.44	42.96	-31.2	-31.8	28.4	0.00e+00	0	39	0	2552233984	36	5572
2026-01-03 17:59:15.81	277.00	42.82	-31.2	-31.8	28.3	0.00e+00	0	39	0	2558525440	36	5613
2026-01-03 17:59:16.82	276.56	42.67	-31.6	-32.2	28.3	0.00e+00	0	39	0	2563768320	36	5837
2026-01-03 17:59:17.83	276.12	42.52	-31.2	-31.7	28.5	0.00e+00	0	39	0	2569011200	36	5535
2026-01-03 17:59:18.83	275.69	42.38	-31.1	-31.6	28.7	0.00e+00	0	39	0	2575302656	36	5502
2026-01-03 17:59:19.84	275.26	42.23	-31.2	-31.8	28.6	0.00e+00	0	39	0	2580545536	36	5611
2026-01-03 17:59:20.86	274.83	42.08	-31.1	-31.7	28.5	0.00e+00	0	39	0	2586836992	36	5517
2026-01-03 17:59:21.87	274.41	41.93	-31.3	-31.8	28.4	0.00e+00	0	39	0	2592079872	36	5614
2026-01-03 17:59:22.87	274.00	41.77	-31.2	-31.7	28.4	0.00e+00	0	39	0	2597322752	36	5566
2026-01-03 17:59:23.88	273.58	41.62	-31.5	-32.0	28.4	0.00e+00	0	39	0	2603614208	36	5741
2026-01-03 17:59:24.89	273.18	41.46	-31.2	-31.9	28.2	0.00e+00	0	39	0	2608857088	36	5661
2026-01-03 17:59:25.90	272.77	41.31	-31.6	-32.2	27.9	0.00e+00	0	39	0	2615148544	36	5887
2026-01-03 17:59:26.91	272.37	41.15	-32.0	-32.7	27.8	0.00e+00	0	39	0	2620391424	36	6174
2026-01-03 17:59:27.92	271.97	40.99	-31.3	-31.9	28.3	0.00e+00	0	39	0	2625634304	36	5669
2026-01-03 17:59:28.93	271.58	40.84	-31.4	-31.9	28.4	0.00e+00	0	39	0	2631925760	36	5677
2026-01-03 17:59:29.94	271.19	40.68	-31.3	-31.8	28.4	0.00e+00	0	39	0	2637168640	36	5598
2026-01-03 17:59:30.95	270.80	40.52	-31.3	-32.0	28.3	0.00e+00	0	39	0	2643460096	36	5711
2026-01-03 17:59:31.96	270.42	40.36	-31.2	-31.8	28.4	0.00e+00	0	39	0	2648702976	36	5589
2026-01-03 17:59:32.97	270.04	40.19	-31.3	-32.0	28.4	0.00e+00	0	39	0	2654994432	36	5709
2026-01-03 17:59:33.98	269.67	40.03	-31.4	-31.9	28.3	0.00e+00	0	39	0	2660237312	36	5683
2026-01-03 17:59:34.99	269.29	39.87	-31.4	-31.9	28.2	0.00e+00	0	39	0	2666528768	36	5648
2026-01-03 17:59:36.00	268.93	39.70	-31.5	-32.0	28.2	0.00e+00	0	39	0	2671771648	36	5724
2026-01-03 17:59:37.01	268.56	39.54	-31.7	-32.4	28.1	0.00e+00	0	39	0	2677014528	36	5983
2026-01-03 17:59:38.02	268.20	39.38	-31.7	-32.2	28.1	0.00e+00	0	39	0	2683305984	36	5860
2026-01-03 17:59:39.03	267.85	39.21	-31.7	-32.3	28.1	0.00e+00	0	39	0	2688548864	36	5952
2026-01-03 17:59:40.04	267.50	39.04	-31.5	-32.1	28.1	0.00e+00	0	39	0	2693791744	36	5766
2026-01-03 17:59:41.04	267.15	38.88	-31.3	-31.8	28.2	0.00e+00	0	39	0	2700083200	36	5606
2026-01-03 17:59:42.05	266.80	38.71	-31.2	-31.9	28.3	0.00e+00	0	39	0	2705326080	36	5663
2026-01-03 17:59:43.06	266.46	38.55	-31.2	-31.7	28.3	0.00e+00	0	39	0	2711617536	36	5564
2026-01-03 17:59:44.07	266.12	38.38	-31.4	-32.0	28.3	0.00e+00	0	39	0	2716860416	36	5746
2026-01-03 17:59:45.08	265.79	38.21	-31.5	-32.0	28.3	0.00e+00	0	39	0	2722103296	36	5731
2026-01-03 17:59:46.09	265.46	38.04	-31.6	-32.2	28.2	0.00e+00	0	39	0	2728394752	36	5894
2026-01-03 17:59:47.10	265.13	37.88	-31.5	-32.2	28.1	0.00e+00	0	39	0	2733637632	36	5840
2026-01-03 17:59:48.11	264.81	37.71	-31.3	-32.0	28.1	0.00e+00	0	39	0	2739929088	36	5697
2026-01-03 17:59:49.12	264.48	37.54	-31.1	-31.8	28.2	0.00e+00	0	39	0	2745171968	36	5592
2026-01-03 17:59:50.13	264.17	37.37	-31.2	-31.7	28.0	0.00e+00	0	39	0	2751463424	36	5548
2026-01-03 17:59:51.14	263.85	37.20	-31.1	-31.6	27.9	0.00e+00	0	39	0	2756706304	36	5470
2026-01-03 17:59:52.14	263.54	37.04	-31.2	-31.9	27.6	0.00e+00	0	39	0	2762997760	36	5676
2026-01-03 17:59:53.15	263.24	36.87	-31.2	-31.9	27.9	0.00e+00	0	39	0	2768240640	36	5670
2026-01-03 17:59:54.16	262.93	36.70	-30.9	-31.5	28.2	0.00e+00	0	39	0	2773483520	36	5383
2026-01-03 17:59:55.17	262.63	36.53	-30.9	-31.4	28.2	0.00e+00	0	39	0	2779774976	36	5332
2026-01-03 17:59:56.18	262.33	36.36	-31.0	-31.5	28.3	0.00e+00	0	39	0	2785017856	36	5424
2026-01-03 17:59:57.19	262.03	36.19	-31.0	-31.5	28.3	0.00e+00	0	39	0	2791309312	36	5439
2026-01-03 17:59:58.20	261.74	36.02	-30.9	-31.5	28.3	0.00e+00	0	39	0	2796552192	36	5380
2026-01-03 17:59:59.21	261.45	35.85	-31.0	-31.7	28.2	0.00e+00	0	39	0	2801795072	36	5510
2026-01-03 18:00:00.22	261.17	35.68	-31.2	-31.9	28.2	0.00e+00	0	39	0	2808086528	36	5638
2026-01-03 18:00:01.23	260.88	35.51	-31.0	-31.5	28.5	0.00e+00	0	39	0	2813329408	36	5399
2026-01-03 18:00:02.24	260.60	35.35	-30.8	-31.3	28.6	0.00e+00	0	39	0	2818572288	36	5309
2026-01-03 18:00:03.25	260.32	35.18	-31.2	-31.9	28.4	0.00e+00	0	39	0	2824863744	36	5640
2026-01-03 18:00:04.26	260.05	35.01	-30.9	-31.4	28.5	0.00e+00	0	39	0	2830106624	36	5352
2026-01-03 18:00:05.27	259.78	34.84	-30.9	-31.5	28.5	0.00e+00	0	39	0	2836398080	36	5439
2026-01-03 18:00:06.28	259.51	34.67	-31.0	-31.5	28.4	0.00e+00	0	39	0	2841640960	36	5397
2026-01-03 18:00:07.29	259.24	34.50	-31.3	-32.0	28.4	0.00e+00	0	39	0	2847932416	36	5717
2026-01-03 18:00:08.30	258.98	34.34	-31.3	-32.0	28.1	0.00e+00	0	39	0	2853175296	36	5728
2026-01-03 18:00:09.31	258.72	34.17	-31.0	-31.7	28.5	0.00e+00	0	39	0	2859466752	36	5548
2026-01-03 18:00:10.32	258.46	34.00	-31.0	-31.5	28.4	0.00e+00	0	39	0	2864709632	36	5426
2026-01-03 18:00:11.33	258.20	33.83	-30.9	-31.6	28.5	0.00e+00	0	39	0	2869952512	36	5449
2026-01-03 18:00:12.34	257.95	33.67	-31.1	-31.8	28.4	0.00e+00	0	39	0	2876243968	36	5579
2026-01-03 18:00:13.34	257.70	33.50	-31.1	-31.6	28.3	0.00e+00	0	39	0	2881486848	36	5483
2026-01-03 18:00:14.35	257.46	33.33	-31.2	-31.8	28.3	0.00e+00	0	39	0	2887778304	36	5571
2026-01-03 18:00:15.36	257.21	33.17	-31.1	-31.6	28.3	0.00e+00	0	39	0	2893021184	36	5497
2026-01-03 18:00:16.37	256.97	33.00	-31.0	-31.5	28.4	0.00e+00	0	39	0	2898264064	36	5398
2026-01-03 18:00:17.38	256.73	32.84	-30.9	-31.5	28.4	0.00e+00	0	39	0	2904555520	36	5436
2026-01-03 18:00:18.39	256.49	32.67	-31.0	-31.7	28.4	0.00e+00	0	39	0	2909798400	36	5509
2026-01-03 18:00:19.40	256.25	32.51	-30.9	-31.6	28.3	0.00e+00	0	39	0	2916089856	36	5480
2026-01-03 18:00:20.41	256.02	32.34	-31.1	-31.8	28.1	0.00e+00	0	39	0	2921332736	36	5613
2026-01-03 18:00:21.42	255.79	32.18	-31.5	-32.1	28.1	0.00e+00	0	39	0	2926575616	36	5788
2026-01-03 18:00:22.43	255.56	32.02	-31.5	-32.1	28.0	0.00e+00	0	39	0	2932867072	36	5779
2026-01-03 18:00:23.44	255.34	31.85	-31.6	-32.3	27.9	0.00e+00	0	39	0	2938109952	36	5914
2026-01-03 18:00:24.45	255.11	31.69	-31.4	-31.9	27.9	0.00e+00	0	39	0	2944401408	36	5681
2026-01-03 18:00:25.46	254.89	31.53	-31.3	-32.0	28.0	0.00e+00	0	39	0	2949644288	36	5736
2026-01-03 18:00:26.46	254.67	31.37	-31.1	-31.8	28.0	0.00e+00	0	39	0	2955935744	36	5567
2026-01-03 18:00:27.47	254.46	31.21	-31.2	-31.9	28.0	0.00e+00	0	39	0	2961178624	36	5646
2026-01-03 18:00:28.48	254.24	31.04	-31.4	-32.0	27.9	0.00e+00	0	39	0	2966421504	36	5757
2026-01-03 18:00:29.49	254.03	30.88	-31.3	-32.0	28.0	0.00e+00	0	39	0	2972712960	36	5722
2026-01-03 18:00:30.50	253.82	30.72	-31.3	-31.9	27.9	0.00e+00	0	39	0	2977955840	36	5656
2026-01-03 18:00:31.51	253.61	30.56	-31.2	-31.9	27.9	0.00e+00	0	39	0	2984247296	36	5640
2026-01-03 18:00:32.52	253.41	30.40	-31.1	-31.6	27.9	0.00e+00	0	39	0	2989490176	36	5480
2026-01-03 18:00:33.53	253.20	30.24	-31.2	-31.9	28.0	0.00e+00	0	39	0	2994733056	36	5634
2026-01-03 18:00:34.54	253.00	30.09	-31.2	-31.9	27.9	0.00e+00	0	39	0	3001024512	36	5640
2026-01-03 18:00:35.55	252.80	29.93	-31.3	-31.9	27.9	0.00e+00	0	39	0	3006267392	36	5647
2026-01-03 18:00:36.56	252.60	29.77	-31.4	-32.0	27.7	0.00e+00	0	39	0	3012558848	36	5699
2026-01-03 18:00:37.57	252.40	29.61	-31.7	-32.4	27.7	0.00e+00	0	39	0	3017801728	36	5974
2026-01-03 18:00:38.58	252.21	29.46	-31.5	-32.1	27.7	0.00e+00	0	39	0	3023044608	36	5828
2026-01-03 18:00:39.59	252.02	29.30	-31.4	-32.0	27.9	0.00e+00	0	39	0	3029336064	36	5750
2026-01-03 18:00:40.60	251.83	29.14	-31.2	-31.7	27.8	0.00e+00	0	39	0	3034578944	36	5555
2026-01-03 18:00:41.61	251.64	28.99	-31.3	-31.8	27.9	0.00e+00	0	39	0	3040870400	36	5579
2026-01-03 18:00:42.62	251.45	28.84	-31.3	-32.0	27.9	0.00e+00	0	39	0	3046113280	36	5732
2026-01-03 18:00:43.63	251.27	28.68	-31.4	-32.0	27.8	0.00e+00	0	39	0	3052404736	36	5706
2026-01-03 18:00:44.64	251.08	28.53	-31.6	-32.1	27.7	0.00e+00	0	39	0	3057647616	36	5795
2026-01-03 18:00:45.65	250.90	28.37	-31.5	-32.1	27.7	0.00e+00	0	39	0	3063939072	36	5782
2026-01-03 18:00:46.66	250.72	28.22	-31.6	-32.2	27.5	0.00e+00	0	39	0	3069181952	36	5842
2026-01-03 18:00:47.66	250.54	28.07	-31.6	-32.2	27.6	0.00e+00	0	39	0	3074424832	36	5845
2026-01-03 18:00:48.68	250.37	27.92	-31.8	-32.3	27.5	0.00e+00	0	39	0	3080716288	36	5962
2026-01-03 18:00:49.68	250.19	27.77	-31.9	-32.4	27.4	0.00e+00	0	39	0	3085959168	36	5994
2026-01-03 18:00:50.69	250.02	27.62	-31.8	-32.3	27.4	0.00e+00	0	39	0	3092250624	36	5944
2026-01-03 18:00:51.70	249.85	27.47	-31.8	-32.3	27.5	0.00e+00	0	39	0	3097493504	36	5933
2026-01-03 18:00:52.71	249.68	27.32	-31.8	-32.4	27.3	0.00e+00	0	39	0	3102736384	36	5976
2026-01-03 18:00:53.72	249.51	27.17	-32.1	-32.7	27.0	0.00e+00	0	39	0	3109027840	36	6178
2026-01-03 18:00:54.73	249.34	27.02	-32.1	-32.6	27.3	0.00e+00	0	39	0	3114270720	36	6141
2026-01-03 18:00:55.74	249.18	26.87	-31.7	-32.2	27.6	0.00e+00	0	39	0	3120562176	36	5863
2026-01-03 18:00:56.75	249.01	26.73	-31.6	-32.2	27.6	0.00e+00	0	39	0	3125805056	36	5840
2026-01-03 18:00:57.76	248.85	26.58	-31.7	-32.4	27.6	0.00e+00	0	39	0	3131047936	36	5989
2026-01-03 18:00:58.77	248.69	26.43	-32.1	-32.6	27.4	0.00e+00	0	39	0	3137339392	36	6134
2026-01-03 18:00:59.78	248.53	26.29	-31.9	-32.4	27.5	0.00e+00	0	39	0	3142582272	36	6024
2026-01-03 18:01:00.79	248.38	26.14	-32.0	-32.5	27.4	0.00e+00	0	39	0	3148873728	36	6077
2026-01-03 18:01:01.80	248.22	26.00	-32.0	-32.6	27.4	0.00e+00	0	39	0	3154116608	36	6115
2026-01-03 18:01:02.81	248.06	25.85	-32.1	-32.7	27.3	0.00e+00	0	39	0	3160408064	36	6196
2026-01-03 18:01:03.82	247.91	25.71	-32.1	-32.6	27.2	0.00e+00	0	39	0	3165650944	36	6153
2026-01-03 18:01:04.83	247.76	25.57	-31.9	-32.5	27.4	0.00e+00	0	39	0	3170893824	36	6068
2026-01-03 18:01:05.84	247.61	25.43	-32.0	-32.6	27.3	0.00e+00	0	39	0	3177185280	36	6105
2026-01-03 18:01:06.85	247.46	25.28	-31.8	-32.5	27.5	0.00e+00	0	39	0	3182428160	36	6080
2026-01-03 18:01:07.86	247.31	25.14	-31.7	-32.3	27.5	0.00e+00	0	39	0	3188719616	36	5911
2026-01-03 18:01:08.87	247.17	25.00	-31.7	-32.3	27.4	0.00e+00	0	39	0	3193962496	36	5901
2026-01-03 18:01:09.88	247.02	24.86	-31.6	-32.2	27.5	0.00e+00	0	39	0	3199205376	36	5833
2026-01-03 18:01:10.89	246.88	24.72	-31.5	-32.1	27.6	0.00e+00	0	39	0	3205496832	36	5763
2026-01-03 18:01:11.90	246.73	24.58	-31.5	-32.2	27.6	0.00e+00	0	39	0	3210739712	36	5867
2026-01-03 18:01:12.91	246.59	24.44	-31.6	-32.3	27.5	0.00e+00	0	39	0	3217031168	36	5940
2026-01-03 18:01:13.92	246.45	24.31	-31.6	-32.3	27.6	0.00e+00	0	39	0	3222274048	36	5899
2026-01-03 18:01:14.93	246.31	24.17	-31.5	-32.1	27.6	0.00e+00	0	39	0	3227516928	36	5777
2026-01-03 18:01:15.93	246.18	24.03	-31.8	-32.3	27.5	0.00e+00	0	39	0	3233808384	36	5923
2026-01-03 18:01:16.94	246.04	23.90	-32.0	-32.7	27.2	0.00e+00	0	39	0	3239051264	36	6212
2026-01-03 18:01:17.95	245.91	23.76	-32.1	-32.6	27.3	0.00e+00	0	39	0	3245342720	36	6143
2026-01-03 18:01:18.96	245.77	23.62	-31.6	-32.2	27.4	0.00e+00	0	39	0	3250585600	36	5858
2026-01-03 18:01:19.97	245.64	23.49	-31.7	-32.2	27.5	0.00e+00	0	39	0	3256877056	36	5879
2026-01-03 18:01:20.98	245.51	23.36	-31.7	-32.3	27.6	0.00e+00	0	39	0	3262119936	36	5917
2026-01-03 18:01:21.99	245.38	23.22	-32.1	-32.8	27.4	0.00e+00	0	39	0	3268411392	36	6290
2026-01-03 18:01:23.00	245.25	23.09	-31.9	-32.6	27.4	0.00e+00	0	39	0	3273654272	36	6151
2026-01-03 18:01:24.01	245.12	22.96	-31.8	-32.3	27.6	0.00e+00	0	39	0	3278897152	36	5915
2026-01-03 18:01:25.02	244.99	22.82	-31.8	-32.3	27.5	0.00e+00	0	39	0	3285188608	36	5947
2026-01-03 18:01:26.03	244.87	22.69	-32.0	-32.5	27.4	0.00e+00	0	39	0	3290431488	36	6051
2026-01-03 18:01:27.04	244.74	22.56	-32.0	-32.5	27.4	0.00e+00	0	39	0	3296722944	36	6083
2026-01-03 18:01:28.05	244.62	22.43	-32.0	-32.5	27.4	0.00e+00	0	39	0	3301965824	36	6068
2026-01-03 18:01:29.06	244.50	22.30	-32.2	-32.7	27.2	0.00e+00	0	39	0	3307208704	36	6222
2026-01-03 18:01:30.07	244.38	22.17	-32.2	-32.7	27.3	0.00e+00	0	39	0	3313500160	36	6238
2026-01-03 18:01:31.08	244.25	22.04	-32.2	-32.9	27.1	0.00e+00	0	39	0	3318743040	36	6328
2026-01-03 18:01:32.09	244.13	21.91	-32.2	-32.9	27.2	0.00e+00	0	39	0	3325034496	36	6326
2026-01-03 18:01:33.10	244.02	21.78	-32.2	-32.9	27.2	0.00e+00	0	39	0	3330277376	36	6325
2026-01-03 18:01:34.11	243.90	21.66	-32.3	-33.0	27.2	0.00e+00	0	39	0	3335520256	36	6412
2026-01-03 18:01:35.12	243.78	21.53	-32.3	-32.8	27.1	0.00e+00	0	39	0	3341811712	36	6312
2026-01-03 18:01:36.13	243.67	21.40	-32.3	-33.0	27.1	0.00e+00	0	39	0	3347054592	36	6435
2026-01-03 18:01:37.13	243.55	21.28	-32.2	-32.8	27.1	0.00e+00	0	39	0	3353346048	36	6271
2026-01-03 18:01:38.14	243.44	21.15	-32.2	-32.9	27.2	0.00e+00	0	39	0	3358588928	36	6375
2026-01-03 18:01:39.15	243.33	21.03	-32.5	-33.0	27.0	0.00e+00	0	39	0	3364880384	36	6439
2026-01-03 18:01:40.16	243.21	20.90	-32.2	-32.9	27.1	0.00e+00	0	39	0	3370123264	36	6383
2026-01-03 18:01:41.17	243.10	20.78	-32.5	-33.2	27.1	0.00e+00	0	39	0	3375366144	36	6543
2026-01-03 18:01:42.18	242.99	20.65	-32.4	-33.1	27.0	0.00e+00	0	39	0	3381657600	36	6528
2026-01-03 18:01:43.19	242.88	20.53	-32.5	-33.2	26.9	0.00e+00	0	39	0	3386900480	36	6580
2026-01-03 18:01:44.20	242.78	20.41	-32.5	-33.2	27.0	0.00e+00	0	39	0	3393191936	36	6590
2026-01-03 18:01:45.21	242.67	20.29	-32.5	-33.2	26.8	0.00e+00	0	39	0	3398434816	36	6585
2026-01-03 18:01:46.21	242.56	20.17	-32.5	-33.2	26.9	0.00e+00	0	39	0	3403677696	36	6574
2026-01-03 18:01:47.22	242.46	20.05	-32.6	-33.2	26.8	0.00e+00	0	39	0	3409969152	36	6555
2026-01-03 18:01:48.24	242.35	19.92	-32.5	-33.1	26.9	0.00e+00	0	39	0	3415212032	36	6475
2026-01-03 18:01:49.25	242.25	19.80	-32.7	-33.3	26.8	0.00e+00	0	39	0	3421503488	36	6655
2026-01-03 18:01:50.26	242.14	19.68	-32.5	-33.0	26.9	0.00e+00	0	39	0	3426746368	36	6459
2026-01-03 18:01:51.26	242.04	19.57	-32.5	-33.1	26.9	0.00e+00	0	39	0	3431989248	36	6480
2026-01-03 18:01:52.27	241.94	19.45	-32.6	-33.2	26.8	0.00e+00	0	39	0	3438280704	36	6564
2026-01-03 18:01:53.28	241.84	19.33	-32.7	-33.3	26.7	0.00e+00	0	39	0	3443523584	36	6665
2026-01-03 18:01:54.29	241.74	19.21	-32.9	-33.6	26.6	0.00e+00	0	39	0	3449815040	38	6134
2026-01-03 18:01:55.30	241.64	19.09	-32.8	-33.4	26.7	0.00e+00	0	39	0	3455057920	38	5984
2026-01-03 18:01:56.31	241.54	18.98	-32.6	-33.1	26.8	0.00e+00	0	39	0	3461349376	38	5792
2026-01-03 18:01:57.32	241.45	18.86	-32.6	-33.2	26.7	0.00e+00	0	39	0	3466592256	38	5842
2026-01-03 18:01:58.33	241.35	18.74	-32.7	-33.3	26.7	0.00e+00	0	39	0	3471835136	38	5900
2026-01-03 18:01:59.33	241.25	18.63	-32.8	-33.3	26.7	0.00e+00	0	39	0	3478126592	38	5938
2026-01-03 18:02:00.35	241.16	18.51	-32.8	-33.4	26.7	0.00e+00	0	39	0	3483369472	38	5992
2026-01-03 18:02:01.36	241.06	18.40	-32.9	-33.4	26.6	0.00e+00	0	39	0	3489660928	38	6000
2026-01-03 18:02:02.37	240.97	18.28	-32.9	-33.4	26.6	0.00e+00	0	39	0	3494903808	38	6027
2026-01-03 18:02:03.37	240.88	18.17	-33.0	-33.6	26.5	0.00e+00	0	39	0	3500146688	38	6146
2026-01-03 18:02:04.38	240.78	18.06	-33.0	-33.8	26.4	0.00e+00	0	39	0	3506438144	38	6252
2026-01-03 18:02:05.39	240.69	17.95	-33.1	-33.8	26.3	0.00e+00	0	39	0	3511681024	38	6269
2026-01-03 18:02:06.41	240.60	17.83	-33.1	-33.8	26.4	0.00e+00	0	39	0	3517972480	38	6304
2026-01-03 18:02:07.42	240.51	17.72	-33.2	-33.9	26.3	0.00e+00	0	39	0	3523215360	38	6362
2026-01-03 18:02:08.43	240.42	17.61	-33.2	-33.8	26.3	0.00e+00	0	39	0	3528458240	38	6282
2026-01-03 18:02:09.44	240.33	17.50	-33.2	-33.8	26.3	0.00e+00	0	39	0	3534749696	38	6254
2026-01-03 18:02:10.45	240.24	17.39	-33.2	-33.9	26.3	0.00e+00	0	39	0	3539992576	38	6356
2026-01-03 18:02:11.46	240.16	17.28	-33.3	-34.0	26.3	0.00e+00	0	39	0	3546284032	38	6447
2026-01-03 18:02:12.47	240.07	17.17	-33.3	-34.0	26.2	0.00e+00	0	39	0	3551526912	38	6442
2026-01-03 18:02:13.48	239.98	17.06	-33.3	-34.0	26.2	0.00e+00	0	39	0	3557818368	38	6454
2026-01-03 18:02:14.49	239.90	16.95	-33.4	-34.1	26.1	0.00e+00	0	39	0	3563061248	38	6512
2026-01-03 18:02:15.49	239.81	16.84	-33.4	-33.9	26.1	0.00e+00	0	39	0	3569352704	38	6384
2026-01-03 18:02:16.50	239.73	16.73	-33.5	-34.2	26.0	0.00e+00	0	39	0	3574595584	38	6589
2026-01-03 18:02:17.51	239.64	16.63	-33.7	-34.4	25.8	0.00e+00	0	39	0	3579838464	40	5994
2026-01-03 18:02:18.52	239.56	16.52	-33.6	-34.3	25.9	0.00e+00	0	39	0	3586129920	40	5907
2026-01-03 18:02:19.53	239.48	16.41	-33.7	-34.3	25.8	0.00e+00	0	39	0	3591372800	40	5961
2026-01-03 18:02:20.54	239.40	16.30	-33.8	-34.5	25.7	0.00e+00	0	39	0	3597664256	40	6065
2026-01-03 18:02:21.55	239.31	16.20	-33.7	-34.3	25.8	0.00e+00	0	39	0	3602907136	40	5912
