passes_logs/2026/01/03/R4.6S_Anadyr/R4.6S_Anadyr__20260103_120921_NOAA_20_JPSS-1_rec.log

#Pass ID: 20260103_120921_NOAA 20 (JPSS-1)
#Satellite: NOAA 20 (JPSS-1)
#Configuration: NOAA 20
#almurnet v.1.7.20251203
#Start time: 2026-01-03 12:09:22

#Version: 2.2.20231116
#Station: R4.6S_Anadyr
#Location: 177.4865 lon 64.73178 lat
#TLE: 1 43013U 17073A   26002.92460628  .00000184  00000+0  10833-3 0  9996
#TLE: 2 43013  98.7623 303.9923 0001887  56.9179 303.2178 14.19532741421028

#Time	Az	El	Level	Level2	SNR	BER	BlckErr	Temp	State	Recorded	gain1	gain2
2026-01-03 12:09:22.60	19.40	0.07	-51.5	-66.3	3.5	1.51e+00	0	37	0	0	60	74990
2026-01-03 12:09:23.61	19.48	0.11	-51.8	-67.1	3.6	1.51e+00	0	38	104	0	60	81764
2026-01-03 12:09:24.62	19.56	0.16	-51.0	-66.2	3.6	1.51e+00	0	38	104	0	60	73528
2026-01-03 12:09:25.63	19.64	0.21	-50.7	-65.9	3.6	1.51e+00	0	38	104	0	60	71085
2026-01-03 12:09:26.64	19.73	0.26	-50.6	-65.7	3.6	1.51e+00	0	38	104	0	60	70001
2026-01-03 12:09:27.65	19.81	0.30	-50.4	-65.6	3.6	1.51e+00	0	39	104	0	60	68918
2026-01-03 12:09:28.66	19.89	0.35	-50.4	-65.5	3.6	1.51e+00	0	39	104	0	60	68439
2026-01-03 12:09:29.67	19.97	0.40	-50.3	-65.5	3.6	1.51e+00	0	39	104	0	60	68000
2026-01-03 12:09:30.68	20.05	0.44	-50.3	-65.5	3.6	1.51e+00	0	38	104	0	60	67699
2026-01-03 12:09:31.69	20.14	0.49	-50.2	-65.4	3.6	1.51e+00	0	39	104	0	60	67434
2026-01-03 12:09:32.70	20.22	0.54	-50.2	-65.4	3.6	1.51e+00	0	39	104	0	60	67142
2026-01-03 12:09:33.70	20.30	0.59	-50.0	-65.2	3.6	1.51e+00	0	39	104	0	60	65875
2026-01-03 12:09:34.71	20.39	0.63	-49.7	-64.9	3.6	1.51e+00	0	39	104	0	60	63333
2026-01-03 12:09:35.72	20.47	0.68	-49.5	-64.7	3.6	1.51e+00	0	39	104	0	60	61872
2026-01-03 12:09:36.74	20.55	0.73	-49.4	-64.6	3.6	1.51e+00	0	39	104	0	60	61651
2026-01-03 12:09:37.74	20.64	0.78	-49.3	-64.5	3.6	1.51e+00	0	39	104	0	60	60978
2026-01-03 12:09:38.75	20.72	0.82	-48.9	-64.2	3.6	1.51e+00	0	39	104	0	60	58293
2026-01-03 12:09:39.76	20.81	0.87	-48.6	-63.7	3.6	1.51e+00	0	39	104	0	60	55566
2026-01-03 12:09:40.77	20.89	0.92	-48.5	-63.7	3.6	1.51e+00	0	39	104	0	60	55652
2026-01-03 12:09:41.78	20.98	0.97	-48.6	-63.7	3.6	1.51e+00	0	39	104	0	60	55633
2026-01-03 12:09:42.80	21.06	1.01	-48.7	-63.8	3.6	1.51e+00	0	39	104	0	60	56059
2026-01-03 12:09:43.80	21.15	1.06	-48.7	-63.9	3.6	1.51e+00	0	39	104	0	60	56310
2026-01-03 12:09:44.81	21.23	1.11	-48.7	-63.8	3.6	1.51e+00	0	39	104	0	60	56287
2026-01-03 12:09:45.82	21.32	1.16	-48.7	-63.9	3.6	1.51e+00	0	39	104	0	60	56317
2026-01-03 12:09:46.83	21.41	1.20	-48.7	-63.9	3.6	1.51e+00	0	39	104	0	60	56587
2026-01-03 12:09:47.84	21.49	1.25	-48.8	-63.9	3.6	1.51e+00	0	39	104	0	60	56708
2026-01-03 12:09:48.85	21.58	1.30	-48.7	-63.9	3.6	1.51e+00	0	39	104	0	60	56877
2026-01-03 12:09:49.86	21.67	1.35	-48.6	-63.7	3.6	1.51e+00	0	39	104	0	60	55630
2026-01-03 12:09:50.87	21.75	1.40	-48.6	-63.7	3.6	1.51e+00	0	39	104	0	60	55662
2026-01-03 12:09:51.88	21.84	1.44	-48.6	-63.7	3.6	1.51e+00	0	39	104	0	60	55574
2026-01-03 12:09:52.89	21.93	1.49	-48.6	-63.8	3.6	1.51e+00	0	39	104	0	60	55696
2026-01-03 12:09:53.90	22.02	1.54	-48.6	-63.7	3.6	1.51e+00	0	39	104	0	60	55529
2026-01-03 12:09:54.91	22.11	1.59	-48.6	-63.8	3.6	1.51e+00	0	39	104	0	60	55676
2026-01-03 12:09:55.92	22.20	1.64	-48.5	-63.7	3.6	1.51e+00	0	39	104	0	60	55503
2026-01-03 12:09:56.92	22.28	1.68	-48.5	-63.7	3.6	1.51e+00	0	39	104	0	60	55209
2026-01-03 12:09:57.93	22.37	1.73	-48.6	-63.8	3.6	1.51e+00	0	39	104	0	60	55876
2026-01-03 12:09:58.94	22.46	1.78	-48.6	-63.9	3.6	1.51e+00	0	39	104	0	60	56359
2026-01-03 12:09:59.95	22.55	1.83	-48.7	-63.9	3.6	1.51e+00	0	39	104	0	60	56661
2026-01-03 12:10:00.96	22.64	1.88	-48.6	-63.8	3.6	1.51e+00	0	39	104	0	60	56047
2026-01-03 12:10:01.96	22.73	1.92	-48.7	-63.8	3.6	1.51e+00	0	39	104	0	60	55944
2026-01-03 12:10:02.97	22.82	1.97	-48.6	-63.7	3.6	1.51e+00	0	39	104	0	60	55438
2026-01-03 12:10:03.98	22.91	2.02	-48.6	-63.8	3.6	1.51e+00	0	39	104	0	60	55936
2026-01-03 12:10:04.99	23.01	2.07	-48.6	-63.8	3.6	1.51e+00	0	39	104	0	60	56062
2026-01-03 12:10:06.00	23.10	2.12	-48.7	-63.8	3.6	1.51e+00	0	39	104	0	60	56105
2026-01-03 12:10:07.01	23.19	2.17	-48.7	-63.9	3.6	1.51e+00	0	39	104	0	60	56467
2026-01-03 12:10:08.02	23.28	2.21	-48.6	-63.8	3.6	1.51e+00	0	39	104	0	60	55711
2026-01-03 12:10:09.03	23.37	2.26	-48.6	-63.7	3.6	1.51e+00	0	39	104	0	60	55366
2026-01-03 12:10:10.05	23.47	2.31	-48.6	-63.7	3.6	1.51e+00	0	39	104	0	60	55357
2026-01-03 12:10:11.05	23.56	2.36	-48.6	-63.7	3.6	1.51e+00	0	39	104	0	60	55443
2026-01-03 12:10:12.06	23.65	2.41	-48.7	-63.7	3.6	1.51e+00	0	39	104	0	60	55298
2026-01-03 12:10:13.07	23.75	2.46	-48.7	-63.2	3.6	1.51e+00	0	39	104	0	60	51974
2026-01-03 12:10:14.08	23.84	2.50	-48.7	-63.2	3.6	1.51e+00	0	39	104	0	60	52341
2026-01-03 12:10:15.09	23.93	2.55	-48.7	-62.9	3.6	1.51e+00	0	39	104	0	60	50507
2026-01-03 12:10:16.10	24.03	2.60	-48.6	-62.7	3.6	1.51e+00	0	39	104	0	60	49236
2026-01-03 12:10:17.11	24.12	2.65	-48.4	-59.6	4.3	1.47e+00	8	39	104	0	60	34564
2026-01-03 12:10:18.12	24.22	2.70	-48.1	-56.2	6.9	1.51e-01	0	39	104	0	60	23368
2026-01-03 12:10:19.13	24.31	2.75	-46.1	-49.6	13.1	4.57e-02	0	39	0	1048576	60	10937
2026-01-03 12:10:20.14	24.41	2.80	-45.3	-48.1	14.6	8.30e-06	0	39	0	3145728	60	9234
2026-01-03 12:10:21.15	24.51	2.84	-44.4	-46.8	16.4	0.00e+00	0	39	0	5242880	60	7911
2026-01-03 12:10:22.15	24.60	2.89	-43.7	-45.8	17.3	0.00e+00	0	39	0	7340032	60	7026
2026-01-03 12:10:23.16	24.70	2.94	-43.8	-45.9	16.7	0.00e+00	0	39	0	8388608	60	7143
2026-01-03 12:10:24.17	24.79	2.99	-44.7	-47.3	15.3	0.00e+00	0	39	0	10485760	60	8345
2026-01-03 12:10:25.18	24.89	3.04	-45.8	-49.3	13.4	2.13e-05	0	39	0	12582912	60	10602
2026-01-03 12:10:26.19	24.99	3.09	-44.0	-46.2	16.5	0.00e+00	0	39	0	14680064	60	7416
2026-01-03 12:10:27.20	25.09	3.14	-43.1	-44.9	18.0	0.00e+00	0	39	0	16777216	60	6389
2026-01-03 12:10:28.21	25.18	3.19	-48.5	-63.3	3.6	7.27e-01	0	39	104	17825792	60	53008
2026-01-03 12:10:29.22	25.28	3.23	-48.2	-59.3	4.4	1.50e+00	0	39	104	17825792	60	33197
2026-01-03 12:10:30.23	25.38	3.28	-46.9	-51.2	12.3	5.74e-01	0	39	104	17825792	60	13137
2026-01-03 12:10:31.24	25.48	3.33	-43.6	-45.5	17.8	0.00e+00	0	39	0	18874368	60	6795
2026-01-03 12:10:32.24	25.58	3.38	-43.8	-45.8	17.9	0.00e+00	0	39	0	19922944	60	7015
2026-01-03 12:10:33.25	25.68	3.43	-43.7	-45.7	17.2	0.00e+00	0	39	0	22020096	60	6941
2026-01-03 12:10:34.26	25.78	3.48	-42.9	-44.6	18.4	0.00e+00	0	39	0	24117248	58	6884
2026-01-03 12:10:35.27	25.88	3.53	-42.6	-44.3	18.6	0.00e+00	0	39	0	26214400	58	6618
2026-01-03 12:10:36.28	25.98	3.58	-42.6	-44.2	18.7	0.00e+00	0	39	0	28311552	58	6603
2026-01-03 12:10:37.29	26.08	3.63	-42.9	-44.5	18.7	0.00e+00	0	39	0	29360128	58	6840
2026-01-03 12:10:38.30	26.18	3.67	-42.7	-44.3	18.9	0.00e+00	0	39	0	31457280	58	6645
2026-01-03 12:10:39.30	26.28	3.72	-42.5	-44.1	19.1	0.00e+00	0	39	0	33554432	58	6505
2026-01-03 12:10:40.31	26.38	3.77	-42.7	-44.3	18.7	0.00e+00	0	39	0	35651584	58	6654
2026-01-03 12:10:41.32	26.49	3.82	-42.4	-44.0	19.1	0.00e+00	0	39	0	37748736	58	6428
2026-01-03 12:10:42.33	26.59	3.87	-42.0	-43.5	19.6	0.00e+00	0	39	0	38797312	58	6041
2026-01-03 12:10:43.34	26.69	3.92	-42.6	-44.2	18.8	0.00e+00	0	39	0	40894464	58	6559
2026-01-03 12:10:44.35	26.79	3.97	-42.5	-44.0	19.1	0.00e+00	0	39	0	42991616	58	6462
2026-01-03 12:10:45.36	26.90	4.02	-42.5	-44.0	18.7	0.00e+00	0	39	0	45088768	58	6451
2026-01-03 12:10:46.37	27.00	4.07	-42.5	-44.0	18.7	0.00e+00	0	39	0	47185920	58	6425
2026-01-03 12:10:47.38	27.11	4.12	-42.7	-44.3	19.1	0.00e+00	0	39	0	48234496	60	5899
2026-01-03 12:10:48.39	27.21	4.17	-42.3	-43.8	19.3	0.00e+00	0	39	0	50331648	58	6275
2026-01-03 12:10:49.40	27.32	4.21	-42.6	-44.1	19.1	0.00e+00	0	39	0	52428800	58	6535
2026-01-03 12:10:50.41	27.42	4.26	-42.3	-43.8	19.3	0.00e+00	0	39	0	54525952	58	6268
2026-01-03 12:10:51.42	27.53	4.31	-42.5	-44.0	19.3	0.00e+00	0	39	0	56623104	58	6453
2026-01-03 12:10:52.42	27.63	4.36	-42.6	-44.1	19.3	0.00e+00	0	39	0	57671680	58	6533
2026-01-03 12:10:53.43	27.74	4.41	-41.7	-43.0	20.1	0.00e+00	0	39	0	59768832	58	5729
2026-01-03 12:10:54.44	27.84	4.46	-42.3	-43.8	19.7	0.00e+00	0	39	0	61865984	56	7040
2026-01-03 12:10:55.45	27.95	4.51	-42.4	-43.9	19.7	0.00e+00	0	39	0	63963136	56	7106
2026-01-03 12:10:56.46	28.06	4.56	-42.7	-44.2	19.1	0.00e+00	0	39	0	66060288	58	6608
2026-01-03 12:10:57.47	28.16	4.61	-42.7	-44.2	19.1	0.00e+00	0	39	0	67108864	58	6572
2026-01-03 12:10:58.48	28.27	4.66	-42.3	-43.7	19.6	0.00e+00	0	39	0	69206016	58	6225
2026-01-03 12:10:59.49	28.38	4.71	-43.0	-44.7	18.8	0.00e+00	0	39	0	71303168	58	6932
2026-01-03 12:11:00.50	28.49	4.76	-42.7	-44.2	19.3	0.00e+00	0	39	0	73400320	58	6548
2026-01-03 12:11:01.51	28.60	4.81	-42.3	-43.7	20.0	0.00e+00	0	39	0	75497472	58	6179
2026-01-03 12:11:02.52	28.71	4.85	-42.5	-44.0	19.6	0.00e+00	0	39	0	77594624	58	6393
2026-01-03 12:11:03.53	28.82	4.90	-42.4	-43.8	19.8	0.00e+00	0	39	0	78643200	58	6313
2026-01-03 12:11:04.54	28.93	4.95	-42.9	-44.4	19.6	0.00e+00	0	39	0	80740352	58	6712
2026-01-03 12:11:05.55	29.04	5.00	-42.4	-43.8	20.0	0.00e+00	0	39	0	82837504	58	6314
2026-01-03 12:11:06.56	29.15	5.05	-42.7	-44.1	19.8	0.00e+00	0	39	0	84934656	58	6526
2026-01-03 12:11:07.57	29.26	5.10	-42.7	-44.2	19.7	0.00e+00	0	39	0	87031808	58	6564
2026-01-03 12:11:08.58	29.37	5.15	-42.3	-43.7	20.1	0.00e+00	0	39	0	88080384	58	6186
2026-01-03 12:11:09.58	29.48	5.20	-41.9	-43.2	20.2	0.00e+00	0	39	0	90177536	58	5861
2026-01-03 12:11:10.59	29.59	5.25	-41.8	-43.1	20.2	0.00e+00	0	39	0	92274688	58	5788
2026-01-03 12:11:11.60	29.71	5.30	-41.7	-43.0	20.4	0.00e+00	0	39	0	94371840	56	6456
2026-01-03 12:11:12.62	29.82	5.35	-41.9	-43.2	20.4	0.00e+00	0	39	0	96468992	56	6604
2026-01-03 12:11:13.63	29.93	5.40	-42.2	-43.6	19.8	0.00e+00	0	39	0	97517568	56	6904
2026-01-03 12:11:14.64	30.05	5.45	-41.6	-42.9	20.5	0.00e+00	0	39	0	99614720	56	6363
2026-01-03 12:11:15.65	30.16	5.50	-41.7	-43.0	20.6	0.00e+00	0	39	0	101711872	56	6404
2026-01-03 12:11:16.66	30.27	5.55	-41.7	-43.0	20.6	0.00e+00	0	39	0	103809024	56	6406
2026-01-03 12:11:17.66	30.39	5.59	-41.5	-42.8	20.6	0.00e+00	0	39	0	105906176	56	6254
2026-01-03 12:11:18.67	30.50	5.64	-41.5	-42.7	20.7	0.00e+00	0	39	0	106954752	56	6244
2026-01-03 12:11:19.68	30.62	5.69	-41.6	-42.8	20.7	0.00e+00	0	39	0	109051904	56	6311
2026-01-03 12:11:20.69	30.73	5.74	-41.6	-42.9	20.6	0.00e+00	0	39	0	111149056	56	6329
2026-01-03 12:11:21.70	30.85	5.79	-41.6	-42.9	20.5	0.00e+00	0	39	0	113246208	56	6321
2026-01-03 12:11:22.71	30.97	5.84	-42.0	-43.3	20.2	0.00e+00	0	39	0	115343360	56	6688
2026-01-03 12:11:23.72	31.08	5.89	-42.7	-44.2	19.7	0.00e+00	0	39	0	116391936	56	7406
2026-01-03 12:11:24.73	31.20	5.94	-42.5	-43.9	20.0	0.00e+00	0	39	0	118489088	56	7133
2026-01-03 12:11:25.74	31.32	5.99	-42.3	-43.7	19.4	0.00e+00	0	39	0	120586240	56	6984
2026-01-03 12:11:26.75	31.44	6.04	-42.3	-43.7	20.0	0.00e+00	0	39	0	122683392	56	6988
2026-01-03 12:11:27.76	31.56	6.09	-41.9	-43.2	20.3	0.00e+00	0	39	0	124780544	56	6613
2026-01-03 12:11:28.77	31.67	6.14	-41.8	-43.0	20.6	0.00e+00	0	39	0	125829120	56	6454
2026-01-03 12:11:29.78	31.79	6.19	-41.9	-43.2	20.4	0.00e+00	0	39	0	127926272	56	6599
2026-01-03 12:11:30.78	31.91	6.24	-41.9	-43.2	20.5	0.00e+00	0	39	0	130023424	56	6540
2026-01-03 12:11:31.79	32.03	6.29	-41.9	-43.2	20.5	0.00e+00	0	39	0	132120576	56	6578
2026-01-03 12:11:32.80	32.15	6.34	-41.9	-43.2	20.3	0.00e+00	0	39	0	134217728	56	6595
2026-01-03 12:11:33.81	32.27	6.38	-42.4	-43.7	20.3	0.00e+00	0	39	0	135266304	56	7004
2026-01-03 12:11:34.82	32.39	6.43	-42.0	-43.3	20.2	0.00e+00	0	39	0	137363456	56	6645
2026-01-03 12:11:35.83	32.52	6.48	-42.0	-43.3	20.4	0.00e+00	0	39	0	139460608	56	6675
2026-01-03 12:11:36.84	32.64	6.53	-42.0	-43.4	20.3	0.00e+00	0	39	0	141557760	56	6698
2026-01-03 12:11:37.85	32.76	6.58	-41.9	-43.2	20.3	0.00e+00	0	39	0	143654912	56	6577
2026-01-03 12:11:38.86	32.88	6.63	-41.6	-42.8	20.7	0.00e+00	0	39	0	144703488	56	6316
2026-01-03 12:11:39.86	33.01	6.68	-41.7	-43.0	20.6	0.00e+00	0	39	0	146800640	56	6411
2026-01-03 12:11:40.87	33.13	6.73	-41.7	-43.0	20.7	0.00e+00	0	39	0	148897792	56	6423
2026-01-03 12:11:41.88	33.25	6.78	-41.5	-42.7	20.7	0.00e+00	0	39	0	150994944	56	6207
2026-01-03 12:11:42.89	33.38	6.83	-41.4	-42.7	20.9	0.00e+00	0	39	0	153092096	56	6179
2026-01-03 12:11:43.90	33.50	6.88	-41.7	-42.9	20.5	0.00e+00	0	39	0	154140672	56	6355
2026-01-03 12:11:44.91	33.63	6.93	-41.6	-42.8	20.9	0.00e+00	0	39	0	156237824	56	6295
2026-01-03 12:11:45.92	33.75	6.98	-41.8	-43.1	20.7	0.00e+00	0	39	0	158334976	56	6492
2026-01-03 12:11:46.93	33.88	7.02	-41.7	-42.9	20.9	0.00e+00	0	39	0	160432128	56	6362
2026-01-03 12:11:47.94	34.01	7.07	-41.7	-42.9	20.6	0.00e+00	0	39	0	162529280	56	6384
2026-01-03 12:11:48.94	34.13	7.12	-41.9	-43.2	20.5	0.00e+00	0	39	0	163577856	56	6595
2026-01-03 12:11:49.95	34.26	7.17	-41.4	-42.6	21.0	0.00e+00	0	39	0	165675008	56	6128
2026-01-03 12:11:50.96	34.39	7.22	-41.4	-42.7	21.0	0.00e+00	0	39	0	167772160	56	6186
2026-01-03 12:11:51.97	34.51	7.27	-41.4	-42.6	21.0	0.00e+00	0	39	0	169869312	56	6130
2026-01-03 12:11:52.98	34.64	7.32	-41.3	-42.5	21.3	0.00e+00	0	39	0	171966464	56	6057
2026-01-03 12:11:53.99	34.77	7.37	-41.4	-42.7	20.8	0.00e+00	0	39	0	174063616	56	6183
2026-01-03 12:11:55.00	34.90	7.42	-41.5	-42.7	21.1	0.00e+00	0	39	0	175112192	56	6227
2026-01-03 12:11:56.01	35.03	7.47	-41.4	-42.6	21.0	0.00e+00	0	39	0	177209344	56	6157
2026-01-03 12:11:57.02	35.16	7.51	-41.6	-42.9	21.0	0.00e+00	0	39	0	179306496	56	6342
2026-01-03 12:11:58.03	35.29	7.56	-41.1	-42.3	21.2	0.00e+00	0	39	0	181403648	56	5907
2026-01-03 12:11:59.04	35.42	7.61	-41.0	-42.1	21.4	0.00e+00	0	40	0	183500800	56	5815
2026-01-03 12:12:00.05	35.55	7.66	-41.2	-42.4	21.3	0.00e+00	0	40	0	184549376	56	5973
2026-01-03 12:12:01.06	35.68	7.71	-41.0	-42.1	21.4	0.00e+00	0	39	0	186646528	56	5796
2026-01-03 12:12:02.07	35.82	7.76	-41.2	-42.3	21.4	0.00e+00	0	39	0	188743680	56	5936
2026-01-03 12:12:03.08	35.95	7.81	-41.4	-42.5	21.3	0.00e+00	0	39	0	190840832	56	6099
2026-01-03 12:12:04.09	36.08	7.86	-41.1	-42.2	21.4	0.00e+00	0	39	0	192937984	56	5850
2026-01-03 12:12:05.10	36.22	7.90	-41.1	-42.2	21.5	0.00e+00	0	39	0	193986560	56	5884
2026-01-03 12:12:06.10	36.35	7.95	-40.9	-42.1	21.5	0.00e+00	0	39	0	196083712	56	5765
2026-01-03 12:12:07.11	36.48	8.00	-40.9	-42.1	21.5	0.00e+00	0	40	0	198180864	56	5780
2026-01-03 12:12:08.12	36.62	8.05	-41.7	-42.9	20.7	0.00e+00	0	39	0	200278016	56	6387
2026-01-03 12:12:09.13	36.75	8.10	-40.9	-42.1	21.6	0.00e+00	0	39	0	202375168	56	5770
2026-01-03 12:12:10.14	36.89	8.15	-40.9	-42.0	21.6	0.00e+00	0	40	0	203423744	56	5704
2026-01-03 12:12:11.15	37.03	8.19	-40.5	-41.6	21.8	0.00e+00	0	40	0	205520896	54	6155
2026-01-03 12:12:12.16	37.16	8.24	-40.5	-41.6	21.8	0.00e+00	0	39	0	207618048	54	6132
2026-01-03 12:12:13.17	37.30	8.29	-41.3	-42.5	21.1	0.00e+00	0	40	0	209715200	54	6789
2026-01-03 12:12:14.18	37.44	8.34	-40.9	-42.0	21.7	0.00e+00	0	39	0	211812352	54	6424
2026-01-03 12:12:15.19	37.57	8.39	-40.6	-41.7	21.6	0.00e+00	0	40	0	212860928	54	6191
2026-01-03 12:12:16.20	37.71	8.44	-41.5	-42.7	21.1	0.00e+00	0	39	0	214958080	56	6178
2026-01-03 12:12:17.21	37.85	8.48	-40.6	-41.7	21.7	0.00e+00	0	40	0	217055232	54	6205
2026-01-03 12:12:18.22	37.99	8.53	-40.7	-41.8	21.0	0.00e+00	0	39	0	219152384	54	6291
2026-01-03 12:12:19.22	38.13	8.58	-42.2	-43.5	21.2	0.00e+00	0	39	0	221249536	58	6057
2026-01-03 12:12:20.23	38.27	8.63	-41.1	-42.2	21.5	0.00e+00	0	39	0	222298112	56	5884
2026-01-03 12:12:21.24	38.41	8.68	-40.9	-42.0	21.5	0.00e+00	0	40	0	224395264	56	5706
2026-01-03 12:12:22.25	38.55	8.72	-40.8	-41.9	21.7	0.00e+00	0	40	0	226492416	56	5667
2026-01-03 12:12:23.26	38.69	8.77	-40.7	-41.8	21.8	0.00e+00	0	40	0	228589568	54	6253
2026-01-03 12:12:24.27	38.83	8.82	-40.8	-42.0	21.6	0.00e+00	0	40	0	230686720	54	6411
2026-01-03 12:12:25.28	38.98	8.87	-40.4	-41.5	21.9	0.00e+00	0	39	0	231735296	54	6080
2026-01-03 12:12:26.29	39.12	8.91	-40.5	-41.6	21.9	0.00e+00	0	40	0	233832448	54	6148
2026-01-03 12:12:27.30	39.26	8.96	-40.6	-41.7	21.9	0.00e+00	0	40	0	235929600	54	6204
2026-01-03 12:12:28.30	39.40	9.01	-40.3	-41.3	22.1	0.00e+00	0	40	0	238026752	54	5964
2026-01-03 12:12:29.32	39.55	9.06	-40.5	-41.5	22.1	0.00e+00	0	40	0	240123904	54	6098
2026-01-03 12:12:30.33	39.69	9.10	-40.4	-41.5	22.1	0.00e+00	0	40	0	242221056	54	6045
2026-01-03 12:12:31.34	39.84	9.15	-40.4	-41.5	22.2	0.00e+00	0	40	0	243269632	54	6036
2026-01-03 12:12:32.35	39.98	9.20	-40.7	-41.7	22.0	0.00e+00	0	40	0	245366784	54	6241
2026-01-03 12:12:33.36	40.13	9.25	-40.6	-41.7	22.0	0.00e+00	0	40	0	247463936	54	6203
2026-01-03 12:12:34.37	40.28	9.29	-40.8	-41.9	22.0	0.00e+00	0	40	0	249561088	54	6320
2026-01-03 12:12:35.38	40.42	9.34	-40.6	-41.7	22.0	0.00e+00	0	39	0	251658240	54	6187
2026-01-03 12:12:36.39	40.57	9.39	-40.8	-41.9	21.9	0.00e+00	0	40	0	252706816	54	6374
2026-01-03 12:12:37.40	40.72	9.43	-40.7	-41.7	21.9	0.00e+00	0	39	0	254803968	54	6227
2026-01-03 12:12:38.41	40.87	9.48	-40.7	-41.8	22.0	0.00e+00	0	40	0	256901120	54	6299
2026-01-03 12:12:39.42	41.02	9.53	-40.6	-41.6	21.8	0.00e+00	0	40	0	258998272	54	6166
2026-01-03 12:12:40.43	41.16	9.57	-40.5	-41.5	22.0	0.00e+00	0	39	0	261095424	54	6087
2026-01-03 12:12:41.44	41.31	9.62	-40.3	-41.4	22.2	0.00e+00	0	40	0	262144000	54	5966
2026-01-03 12:12:42.45	41.46	9.67	-40.6	-41.7	22.0	0.00e+00	0	40	0	264241152	54	6192
2026-01-03 12:12:43.45	41.61	9.71	-40.6	-41.7	22.0	0.00e+00	0	40	0	266338304	54	6190
2026-01-03 12:12:44.46	41.76	9.76	-41.0	-42.1	21.6	0.00e+00	0	40	0	268435456	54	6481
2026-01-03 12:12:45.47	41.92	9.81	-40.6	-41.6	22.1	0.00e+00	0	39	0	270532608	54	6173
2026-01-03 12:12:46.48	42.07	9.85	-40.7	-41.8	22.1	0.00e+00	0	39	0	271581184	54	6251
2026-01-03 12:12:47.49	42.22	9.90	-41.2	-42.4	21.3	0.00e+00	0	40	0	273678336	54	6741
2026-01-03 12:12:48.50	42.37	9.94	-40.8	-41.8	21.9	0.00e+00	0	40	0	275775488	54	6316
2026-01-03 12:12:49.50	42.52	9.99	-41.0	-42.2	21.7	0.00e+00	0	40	0	277872640	54	6544
2026-01-03 12:12:50.51	42.68	10.04	-40.7	-41.8	22.0	0.00e+00	0	40	0	279969792	54	6284
2026-01-03 12:12:51.52	42.83	10.08	-40.8	-41.8	22.0	0.00e+00	0	40	0	281018368	54	6294
2026-01-03 12:12:52.53	42.99	10.13	-40.7	-41.8	21.9	0.00e+00	0	40	0	283115520	54	6289
2026-01-03 12:12:53.54	43.14	10.17	-40.6	-41.6	22.1	0.00e+00	0	40	0	285212672	54	6172
2026-01-03 12:12:54.55	43.30	10.22	-40.5	-41.6	22.1	0.00e+00	0	40	0	287309824	54	6147
2026-01-03 12:12:55.56	43.45	10.26	-40.4	-41.5	21.9	0.00e+00	0	40	0	289406976	54	6056
2026-01-03 12:12:56.57	43.61	10.31	-40.6	-41.6	22.2	0.00e+00	0	40	0	290455552	54	6152
2026-01-03 12:12:57.58	43.77	10.35	-42.4	-43.7	20.8	0.00e+00	0	40	0	292552704	58	6229
2026-01-03 12:12:58.58	43.92	10.40	-40.9	-42.0	21.8	0.00e+00	0	40	0	294649856	56	5718
2026-01-03 12:12:59.59	44.08	10.44	-42.1	-43.4	20.7	0.00e+00	0	40	0	296747008	56	6703
2026-01-03 12:13:00.60	44.24	10.49	-41.3	-42.5	21.1	0.00e+00	0	40	0	298844160	56	6046
2026-01-03 12:13:01.61	44.40	10.53	-41.4	-42.5	21.4	0.00e+00	0	40	0	299892736	56	6081
2026-01-03 12:13:02.61	44.56	10.58	-41.5	-42.7	21.3	0.00e+00	0	40	0	301989888	56	6216
2026-01-03 12:13:03.62	44.72	10.62	-41.7	-42.9	21.1	0.00e+00	0	40	0	304087040	56	6334
2026-01-03 12:13:04.63	44.88	10.67	-41.3	-42.4	21.4	0.00e+00	0	40	0	306184192	56	6013
2026-01-03 12:13:05.64	45.04	10.71	-41.1	-42.2	21.6	0.00e+00	0	40	0	308281344	56	5893
2026-01-03 12:13:06.65	45.20	10.75	-41.2	-42.4	21.5	0.00e+00	0	40	0	309329920	56	5980
2026-01-03 12:13:07.66	45.36	10.80	-41.4	-42.5	21.3	0.00e+00	0	40	0	311427072	56	6092
2026-01-03 12:13:08.67	45.52	10.84	-41.0	-42.0	21.7	0.00e+00	0	40	0	313524224	56	5759
2026-01-03 12:13:09.68	45.69	10.89	-40.9	-42.0	21.8	0.00e+00	0	40	0	315621376	56	5748
2026-01-03 12:13:10.69	45.85	10.93	-41.1	-42.2	21.7	0.00e+00	0	40	0	317718528	56	5852
2026-01-03 12:13:11.70	46.01	10.97	-41.3	-42.4	21.5	0.00e+00	0	40	0	318767104	56	6027
2026-01-03 12:13:12.70	46.17	11.02	-41.1	-42.3	21.6	0.00e+00	0	40	0	320864256	56	5915
2026-01-03 12:13:13.71	46.34	11.06	-41.3	-42.4	21.4	0.00e+00	0	40	0	322961408	56	6009
2026-01-03 12:13:14.72	46.50	11.10	-41.4	-42.5	21.4	0.00e+00	0	40	0	325058560	56	6099
2026-01-03 12:13:15.72	46.67	11.15	-41.5	-42.7	21.1	0.00e+00	0	40	0	327155712	56	6200
2026-01-03 12:13:16.73	46.83	11.19	-41.7	-42.9	20.9	0.00e+00	0	40	0	328204288	56	6370
2026-01-03 12:13:17.74	47.00	11.23	-41.6	-42.8	21.1	0.00e+00	0	39	0	330301440	56	6305
2026-01-03 12:13:18.75	47.17	11.27	-41.5	-42.7	21.1	0.00e+00	0	40	0	332398592	56	6238
2026-01-03 12:13:19.76	47.34	11.32	-41.5	-42.7	21.1	0.00e+00	0	40	0	334495744	56	6215
2026-01-03 12:13:20.77	47.50	11.36	-41.7	-42.9	20.8	0.00e+00	0	40	0	336592896	56	6390
2026-01-03 12:13:21.77	47.67	11.40	-41.5	-42.7	21.1	0.00e+00	0	40	0	338690048	56	6204
2026-01-03 12:13:22.78	47.84	11.44	-41.5	-42.7	21.1	0.00e+00	0	40	0	339738624	56	6216
2026-01-03 12:13:23.79	48.01	11.48	-41.4	-42.5	21.1	0.00e+00	0	40	0	341835776	56	6097
2026-01-03 12:13:24.80	48.18	11.53	-41.5	-42.7	21.1	0.00e+00	0	40	0	343932928	56	6201
2026-01-03 12:13:25.81	48.35	11.57	-41.6	-42.8	21.0	0.00e+00	0	40	0	346030080	56	6264
2026-01-03 12:13:26.82	48.52	11.61	-41.5	-42.7	21.1	0.00e+00	0	40	0	348127232	56	6174
2026-01-03 12:13:27.83	48.69	11.65	-41.7	-43.0	20.9	0.00e+00	0	40	0	349175808	56	6396
2026-01-03 12:13:28.84	48.86	11.69	-41.6	-42.8	21.0	0.00e+00	0	40	0	351272960	56	6267
2026-01-03 12:13:29.84	49.03	11.73	-41.8	-43.1	20.9	0.00e+00	0	40	0	353370112	56	6468
2026-01-03 12:13:30.85	49.20	11.77	-41.6	-42.8	21.0	0.00e+00	0	40	0	355467264	56	6255
2026-01-03 12:13:31.86	49.38	11.81	-41.8	-43.0	20.8	0.00e+00	0	40	0	356515840	56	6436
2026-01-03 12:13:32.87	49.55	11.85	-41.9	-43.2	20.6	0.00e+00	0	40	0	358612992	56	6547
2026-01-03 12:13:33.88	49.72	11.89	-41.8	-43.0	20.6	0.00e+00	0	40	0	360710144	56	6459
2026-01-03 12:13:34.89	49.90	11.93	-41.9	-43.2	20.6	0.00e+00	0	40	0	362807296	56	6542
2026-01-03 12:13:35.90	50.07	11.97	-41.6	-42.9	20.8	0.00e+00	0	40	0	364904448	56	6322
2026-01-03 12:13:36.91	50.25	12.01	-41.5	-42.8	20.8	0.00e+00	0	40	0	367001600	56	6251
2026-01-03 12:13:37.92	50.42	12.05	-41.5	-42.7	20.9	0.00e+00	0	40	0	368050176	56	6190
2026-01-03 12:13:38.93	50.60	12.09	-41.4	-42.6	21.0	0.00e+00	0	40	0	370147328	56	6139
2026-01-03 12:13:39.94	50.78	12.13	-41.4	-42.6	21.1	0.00e+00	0	40	0	372244480	56	6155
2026-01-03 12:13:40.95	50.95	12.17	-41.4	-42.6	21.1	0.00e+00	0	40	0	374341632	56	6117
2026-01-03 12:13:41.96	51.13	12.21	-41.3	-42.5	21.1	0.00e+00	0	40	0	376438784	56	6072
2026-01-03 12:13:42.97	51.31	12.25	-41.4	-42.5	21.1	0.00e+00	0	40	0	377487360	56	6099
2026-01-03 12:13:43.98	51.49	12.29	-41.5	-42.7	21.0	0.00e+00	0	40	0	379584512	56	6186
2026-01-03 12:13:44.98	51.67	12.32	-41.5	-42.7	21.0	0.00e+00	0	40	0	381681664	56	6192
2026-01-03 12:13:45.99	51.85	12.36	-41.6	-42.8	20.8	0.00e+00	0	40	0	383778816	56	6316
2026-01-03 12:13:47.00	52.03	12.40	-41.7	-42.9	20.7	0.00e+00	0	40	0	385875968	56	6382
2026-01-03 12:13:48.01	52.21	12.44	-41.8	-43.1	20.5	0.00e+00	0	40	0	386924544	56	6509
2026-01-03 12:13:49.02	52.39	12.48	-42.0	-43.3	20.4	0.00e+00	0	40	0	389021696	56	6629
2026-01-03 12:13:50.03	52.57	12.51	-41.9	-43.2	20.5	0.00e+00	0	40	0	391118848	56	6575
2026-01-03 12:13:51.04	52.75	12.55	-42.1	-43.4	20.3	0.00e+00	0	40	0	393216000	56	6710
2026-01-03 12:13:52.05	52.93	12.59	-41.9	-43.2	20.5	0.00e+00	0	40	0	395313152	56	6541
2026-01-03 12:13:53.06	53.11	12.62	-41.8	-43.0	20.4	0.00e+00	0	40	0	396361728	56	6444
2026-01-03 12:13:54.07	53.30	12.66	-41.8	-43.0	20.5	0.00e+00	0	40	0	398458880	56	6463
2026-01-03 12:13:55.08	53.48	12.70	-41.7	-42.9	20.7	0.00e+00	0	40	0	400556032	56	6366
2026-01-03 12:13:56.08	53.66	12.73	-41.7	-42.9	20.8	0.00e+00	0	40	0	402653184	56	6349
2026-01-03 12:13:57.09	53.85	12.77	-41.6	-42.9	20.8	0.00e+00	0	40	0	404750336	56	6338
2026-01-03 12:13:58.10	54.03	12.80	-41.7	-43.0	20.9	0.00e+00	0	40	0	405798912	56	6416
2026-01-03 12:13:59.11	54.22	12.84	-41.7	-43.0	20.7	0.00e+00	0	40	0	407896064	56	6414
2026-01-03 12:14:00.13	54.40	12.88	-41.7	-43.0	20.8	0.00e+00	0	40	0	409993216	56	6406
2026-01-03 12:14:01.14	54.59	12.91	-41.7	-43.0	20.8	0.00e+00	0	40	0	412090368	56	6409
2026-01-03 12:14:02.14	54.78	12.94	-41.8	-43.0	20.8	0.00e+00	0	40	0	414187520	56	6424
2026-01-03 12:14:03.15	54.96	12.98	-41.8	-43.1	20.7	0.00e+00	0	40	0	415236096	56	6480
2026-01-03 12:14:04.16	55.15	13.01	-41.9	-43.2	20.7	0.00e+00	0	40	0	417333248	56	6559
2026-01-03 12:14:05.17	55.34	13.05	-42.3	-43.6	20.3	0.00e+00	0	40	0	419430400	56	6889
2026-01-03 12:14:06.18	55.53	13.08	-42.3	-43.7	20.2	0.00e+00	0	40	0	421527552	56	6956
2026-01-03 12:14:07.19	55.71	13.12	-42.1	-43.4	20.3	0.00e+00	0	40	0	423624704	56	6724
2026-01-03 12:14:08.20	55.90	13.15	-42.1	-43.4	19.9	0.00e+00	0	40	0	424673280	56	6747
2026-01-03 12:14:09.21	56.09	13.18	-42.0	-43.3	20.6	0.00e+00	0	40	0	426770432	56	6643
2026-01-03 12:14:10.22	56.28	13.21	-42.0	-43.3	20.5	0.00e+00	0	40	0	428867584	56	6667
2026-01-03 12:14:11.23	56.47	13.25	-41.6	-42.8	20.9	0.00e+00	0	40	0	430964736	56	6281
2026-01-03 12:14:12.24	56.66	13.28	-41.7	-42.9	21.2	0.00e+00	0	40	0	433061888	56	6345
2026-01-03 12:14:13.25	56.85	13.31	-41.1	-42.2	21.5	0.00e+00	0	40	0	435159040	56	5887
2026-01-03 12:14:14.26	57.05	13.34	-41.2	-42.4	21.4	0.00e+00	0	40	0	436207616	56	5966
2026-01-03 12:14:15.27	57.24	13.38	-40.9	-42.0	21.7	0.00e+00	0	40	0	438304768	56	5719
2026-01-03 12:14:16.28	57.43	13.41	-40.8	-41.9	21.8	0.00e+00	0	40	0	440401920	54	6360
2026-01-03 12:14:17.29	57.62	13.44	-40.8	-41.9	21.7	0.00e+00	0	40	0	442499072	54	6341
2026-01-03 12:14:18.29	57.81	13.47	-40.7	-41.8	21.8	0.00e+00	0	40	0	444596224	54	6248
2026-01-03 12:14:19.30	58.01	13.50	-40.7	-41.8	21.8	0.00e+00	0	40	0	445644800	54	6276
2026-01-03 12:14:20.31	58.20	13.53	-40.8	-41.9	21.6	0.00e+00	0	40	0	447741952	54	6328
2026-01-03 12:14:21.32	58.40	13.56	-41.0	-42.1	21.5	0.00e+00	0	40	0	449839104	54	6535
2026-01-03 12:14:22.33	58.59	13.59	-40.9	-42.0	21.7	0.00e+00	0	40	0	451936256	54	6441
2026-01-03 12:14:23.34	58.79	13.62	-41.0	-42.1	21.6	0.00e+00	0	40	0	454033408	54	6489
2026-01-03 12:14:24.34	58.98	13.65	-41.1	-42.2	21.4	0.00e+00	0	40	0	455081984	54	6588
2026-01-03 12:14:25.35	59.18	13.68	-40.9	-42.0	21.6	0.00e+00	0	40	0	457179136	54	6434
2026-01-03 12:14:26.36	59.37	13.71	-40.5	-41.6	22.0	0.00e+00	0	40	0	459276288	54	6138
2026-01-03 12:14:27.37	59.57	13.74	-40.5	-41.5	21.9	0.00e+00	0	40	0	461373440	54	6096
2026-01-03 12:14:28.38	59.76	13.76	-40.4	-41.4	22.2	0.00e+00	0	40	0	463470592	54	6022
2026-01-03 12:14:29.39	59.96	13.79	-40.4	-41.5	22.1	0.00e+00	0	40	0	464519168	54	6038
2026-01-03 12:14:30.40	60.16	13.82	-40.2	-41.2	22.3	0.00e+00	0	40	0	466616320	54	5888
2026-01-03 12:14:31.41	60.36	13.85	-40.1	-41.1	22.4	0.00e+00	0	40	0	468713472	54	5826
2026-01-03 12:14:32.42	60.56	13.87	-40.3	-41.3	22.3	0.00e+00	0	40	0	470810624	54	5933
2026-01-03 12:14:33.43	60.75	13.90	-40.5	-41.6	22.1	0.00e+00	0	40	0	472907776	54	6132
2026-01-03 12:14:34.44	60.95	13.93	-40.6	-41.7	21.9	0.00e+00	0	40	0	473956352	54	6175
2026-01-03 12:14:35.45	61.15	13.95	-40.6	-41.7	22.1	0.00e+00	0	40	0	476053504	54	6206
2026-01-03 12:14:36.46	61.35	13.98	-40.8	-41.9	21.8	0.00e+00	0	40	0	478150656	54	6324
2026-01-03 12:14:37.47	61.55	14.01	-40.9	-42.0	21.4	0.00e+00	0	40	0	480247808	54	6436
2026-01-03 12:14:38.48	61.75	14.03	-41.0	-42.1	21.4	0.00e+00	0	40	0	482344960	54	6520
2026-01-03 12:14:39.49	61.95	14.06	-41.1	-42.3	21.3	0.00e+00	0	40	0	483393536	54	6665
2026-01-03 12:14:40.50	62.16	14.08	-41.2	-42.4	21.3	0.00e+00	0	40	0	485490688	54	6696
2026-01-03 12:14:41.51	62.36	14.11	-41.1	-42.3	21.3	0.00e+00	0	40	0	487587840	54	6630
2026-01-03 12:14:42.52	62.56	14.13	-41.3	-42.5	21.3	0.00e+00	0	40	0	489684992	54	6809
2026-01-03 12:14:43.53	62.76	14.15	-41.4	-42.6	21.1	0.00e+00	0	40	0	491782144	54	6888
2026-01-03 12:14:44.54	62.96	14.18	-41.4	-42.6	21.0	0.00e+00	0	40	0	492830720	54	6927
2026-01-03 12:14:45.54	63.16	14.20	-41.4	-42.6	21.2	0.00e+00	0	40	0	494927872	54	6878
2026-01-03 12:14:46.55	63.37	14.22	-41.5	-42.7	21.3	0.00e+00	0	40	0	497025024	54	6930
2026-01-03 12:14:47.56	63.57	14.25	-41.4	-42.6	21.0	0.00e+00	0	40	0	499122176	56	6149
2026-01-03 12:14:48.57	63.77	14.27	-41.6	-42.8	21.2	0.00e+00	0	40	0	501219328	56	6248
2026-01-03 12:14:49.58	63.98	14.29	-41.4	-42.6	21.2	0.00e+00	0	40	0	503316480	56	6119
2026-01-03 12:14:50.58	64.18	14.31	-41.4	-42.6	21.1	0.00e+00	0	40	0	504365056	56	6115
2026-01-03 12:14:51.60	64.39	14.33	-41.9	-43.1	20.3	0.00e+00	0	40	0	506462208	56	6528
2026-01-03 12:14:52.60	64.59	14.36	-41.7	-43.0	20.9	0.00e+00	0	40	0	508559360	56	6405
2026-01-03 12:14:53.61	64.80	14.38	-41.7	-43.0	20.9	0.00e+00	0	40	0	510656512	56	6397
2026-01-03 12:14:54.62	65.00	14.40	-41.7	-42.9	20.9	0.00e+00	0	40	0	512753664	56	6347
2026-01-03 12:14:55.64	65.21	14.42	-41.5	-42.7	21.1	0.00e+00	0	40	0	513802240	56	6211
2026-01-03 12:14:56.64	65.41	14.44	-41.4	-42.6	21.2	0.00e+00	0	40	0	515899392	56	6110
2026-01-03 12:14:57.65	65.62	14.46	-41.2	-42.4	21.3	0.00e+00	0	40	0	517996544	56	5974
2026-01-03 12:14:58.66	65.83	14.48	-41.2	-42.3	21.4	0.00e+00	0	40	0	520093696	56	5943
2026-01-03 12:14:59.67	66.03	14.49	-41.3	-42.5	21.2	0.00e+00	0	40	0	522190848	56	6089
2026-01-03 12:15:00.68	66.24	14.51	-41.2	-42.3	21.4	0.00e+00	0	40	0	523239424	56	5960
2026-01-03 12:15:01.69	66.45	14.53	-42.0	-43.3	19.9	0.00e+00	0	40	0	525336576	56	6620
2026-01-03 12:15:02.70	66.65	14.55	-41.5	-42.7	21.1	0.00e+00	0	40	0	527433728	56	6174
2026-01-03 12:15:03.71	66.86	14.57	-41.6	-42.8	20.8	0.00e+00	0	40	0	529530880	56	6273
2026-01-03 12:15:04.72	67.07	14.58	-41.4	-42.5	21.4	0.00e+00	0	40	0	531628032	56	6099
2026-01-03 12:15:05.73	67.28	14.60	-41.5	-42.7	21.1	0.00e+00	0	40	0	532676608	56	6236
2026-01-03 12:15:06.74	67.49	14.62	-41.2	-42.3	21.4	0.00e+00	0	40	0	534773760	56	5937
2026-01-03 12:15:07.75	67.69	14.63	-41.3	-42.5	21.3	0.00e+00	0	40	0	536870912	56	6053
2026-01-03 12:15:08.76	67.90	14.65	-41.2	-42.4	21.4	0.00e+00	0	40	0	538968064	56	5978
2026-01-03 12:15:09.77	68.11	14.67	-41.1	-42.3	21.5	0.00e+00	0	40	0	541065216	56	5903
2026-01-03 12:15:10.78	68.32	14.68	-41.0	-42.1	21.6	0.00e+00	0	40	0	542113792	56	5800
2026-01-03 12:15:11.79	68.53	14.70	-41.1	-42.2	21.5	0.00e+00	0	40	0	544210944	56	5860
2026-01-03 12:15:12.80	68.74	14.71	-41.1	-42.2	21.5	0.00e+00	0	40	0	546308096	56	5876
2026-01-03 12:15:13.81	68.95	14.72	-41.1	-42.3	21.6	0.00e+00	0	40	0	548405248	56	5940
2026-01-03 12:15:14.82	69.16	14.74	-40.9	-42.1	21.6	0.00e+00	0	40	0	550502400	56	5764
2026-01-03 12:15:15.83	69.37	14.75	-40.8	-41.9	21.8	0.00e+00	0	40	0	551550976	56	5672
2026-01-03 12:15:16.83	69.58	14.76	-40.7	-41.9	21.8	0.00e+00	0	40	0	553648128	56	5634
2026-01-03 12:15:17.85	69.79	14.78	-40.7	-41.8	21.7	0.00e+00	0	40	0	555745280	54	6308
2026-01-03 12:15:18.85	70.00	14.79	-40.8	-42.0	21.7	0.00e+00	0	40	0	557842432	54	6399
2026-01-03 12:15:19.86	70.21	14.80	-40.7	-41.8	21.8	0.00e+00	0	40	0	559939584	54	6278
2026-01-03 12:15:20.87	70.42	14.81	-40.7	-41.8	21.9	0.00e+00	0	40	0	560988160	54	6267
2026-01-03 12:15:21.88	70.64	14.82	-40.9	-42.1	21.6	0.00e+00	0	40	0	563085312	54	6472
2026-01-03 12:15:22.89	70.85	14.84	-40.9	-42.0	21.9	0.00e+00	0	40	0	565182464	54	6420
2026-01-03 12:15:23.90	71.06	14.85	-41.0	-42.1	21.5	0.00e+00	0	40	0	567279616	54	6495
2026-01-03 12:15:24.91	71.27	14.86	-40.9	-42.0	21.8	0.00e+00	0	40	0	569376768	54	6438
2026-01-03 12:15:25.92	71.48	14.87	-41.0	-42.1	21.6	0.00e+00	0	40	0	571473920	54	6538
2026-01-03 12:15:26.93	71.70	14.88	-40.9	-42.0	21.6	0.00e+00	0	40	0	572522496	54	6435
2026-01-03 12:15:27.94	71.91	14.88	-41.1	-42.2	21.5	0.00e+00	0	40	0	574619648	54	6579
2026-01-03 12:15:28.95	72.12	14.89	-41.0	-42.1	21.3	0.00e+00	0	40	0	576716800	54	6514
2026-01-03 12:15:29.96	72.33	14.90	-40.9	-42.1	21.5	0.00e+00	0	40	0	578813952	54	6471
2026-01-03 12:15:30.97	72.55	14.91	-40.9	-42.0	21.6	0.00e+00	0	40	0	580911104	54	6392
2026-01-03 12:15:31.98	72.76	14.92	-40.6	-41.6	22.2	0.00e+00	0	40	0	581959680	54	6139
2026-01-03 12:15:32.99	72.97	14.93	-40.4	-41.5	22.2	0.00e+00	0	40	0	584056832	54	6036
2026-01-03 12:15:33.99	73.18	14.93	-40.3	-41.4	22.2	0.00e+00	0	40	0	586153984	54	5972
2026-01-03 12:15:35.00	73.39	14.94	-40.2	-41.2	22.3	0.00e+00	0	40	0	588251136	54	5882
2026-01-03 12:15:36.01	73.61	14.95	-40.4	-41.4	22.1	0.00e+00	0	40	0	589299712	54	6014
2026-01-03 12:15:37.02	73.82	14.95	-40.2	-41.3	22.3	0.00e+00	0	40	0	591396864	54	5905
2026-01-03 12:15:38.03	74.03	14.96	-40.2	-41.3	22.4	0.00e+00	0	40	0	593494016	54	5910
2026-01-03 12:15:39.04	74.25	14.96	-40.3	-41.3	22.3	0.00e+00	0	40	0	595591168	54	5942
2026-01-03 12:15:40.05	74.46	14.97	-40.5	-41.5	22.3	0.00e+00	0	40	0	597688320	54	6081
2026-01-03 12:15:41.06	74.67	14.97	-40.6	-41.6	22.2	0.00e+00	0	40	0	599785472	54	6148
2026-01-03 12:15:42.07	74.89	14.97	-40.5	-41.6	22.1	0.00e+00	0	40	0	600834048	54	6114
2026-01-03 12:15:43.08	75.10	14.98	-40.9	-42.0	22.1	0.00e+00	0	40	0	602931200	54	6429
2026-01-03 12:15:44.09	75.32	14.98	-40.5	-41.6	22.2	0.00e+00	0	40	0	605028352	54	6137
2026-01-03 12:15:45.10	75.53	14.98	-40.3	-41.3	22.5	0.00e+00	0	40	0	607125504	54	5956
2026-01-03 12:15:46.10	75.74	14.99	-40.2	-41.2	22.6	0.00e+00	0	40	0	609222656	54	5846
2026-01-03 12:15:47.11	75.96	14.99	-40.1	-41.0	22.7	0.00e+00	0	40	0	610271232	54	5758
2026-01-03 12:15:48.12	76.17	14.99	-40.0	-41.0	22.7	0.00e+00	0	40	0	612368384	54	5721
2026-01-03 12:15:49.13	76.38	14.99	-40.2	-41.2	22.6	0.00e+00	0	40	0	614465536	54	5836
2026-01-03 12:15:50.14	76.60	14.99	-40.7	-41.8	21.6	0.00e+00	0	40	0	616562688	54	6282
2026-01-03 12:15:51.15	76.81	14.99	-40.3	-41.3	22.4	0.00e+00	0	40	0	618659840	54	5960
2026-01-03 12:15:52.16	77.03	15.00	-40.4	-41.4	22.3	0.00e+00	0	40	0	619708416	54	6011
2026-01-03 12:15:53.17	77.24	15.00	-40.2	-41.2	22.5	0.00e+00	0	40	0	621805568	54	5860
2026-01-03 12:15:54.18	77.45	14.99	-40.7	-41.8	22.0	0.00e+00	0	40	0	623902720	54	6267
2026-01-03 12:15:55.19	77.67	14.99	-40.4	-41.5	22.4	0.00e+00	0	40	0	625999872	54	6035
2026-01-03 12:15:56.20	77.88	14.99	-40.3	-41.3	22.0	0.00e+00	0	40	0	628097024	54	5934
2026-01-03 12:15:57.21	78.09	14.99	-40.5	-41.5	21.9	0.00e+00	0	40	0	629145600	54	6071
2026-01-03 12:15:58.22	78.31	14.99	-40.6	-41.7	22.5	0.00e+00	0	40	0	631242752	54	6222
2026-01-03 12:15:59.23	78.52	14.99	-40.3	-41.3	22.4	0.00e+00	0	40	0	633339904	54	5925
2026-01-03 12:16:00.23	78.73	14.98	-40.3	-41.4	22.4	0.00e+00	0	40	0	635437056	54	5974
2026-01-03 12:16:01.24	78.95	14.98	-39.9	-40.9	22.8	0.00e+00	0	40	0	637534208	54	5654
2026-01-03 12:16:02.25	79.16	14.98	-39.9	-40.9	22.8	0.00e+00	0	40	0	638582784	52	6340
2026-01-03 12:16:03.25	79.37	14.97	-39.8	-40.7	22.8	0.00e+00	0	40	0	640679936	52	6238
2026-01-03 12:16:04.26	79.59	14.97	-39.8	-40.8	22.9	0.00e+00	0	40	0	642777088	52	6287
2026-01-03 12:16:05.27	79.80	14.97	-39.8	-40.8	22.8	0.00e+00	0	40	0	644874240	52	6298
2026-01-03 12:16:06.28	80.01	14.96	-39.8	-40.8	22.9	0.00e+00	0	40	0	646971392	52	6284
2026-01-03 12:16:07.28	80.23	14.96	-39.8	-40.8	22.9	0.00e+00	0	40	0	648019968	52	6273
2026-01-03 12:16:08.29	80.44	14.95	-39.8	-40.8	23.0	0.00e+00	0	40	0	650117120	52	6264
2026-01-03 12:16:09.31	80.66	14.94	-39.8	-40.8	22.9	0.00e+00	0	40	0	652214272	52	6295
2026-01-03 12:16:10.32	80.87	14.94	-40.0	-41.0	22.8	0.00e+00	0	40	0	654311424	52	6408
2026-01-03 12:16:11.32	81.08	14.93	-40.2	-41.2	22.8	0.00e+00	0	40	0	656408576	52	6569
2026-01-03 12:16:12.33	81.29	14.92	-40.3	-41.3	22.6	0.00e+00	0	40	0	657457152	52	6673
2026-01-03 12:16:13.34	81.51	14.92	-40.6	-41.6	22.3	0.00e+00	0	40	0	659554304	52	6914
2026-01-03 12:16:14.35	81.72	14.91	-40.6	-41.6	22.6	0.00e+00	0	40	0	661651456	52	6889
2026-01-03 12:16:15.36	81.93	14.90	-41.1	-42.2	21.9	0.00e+00	0	40	0	663748608	54	6611
2026-01-03 12:16:16.37	82.14	14.89	-40.4	-41.5	22.3	0.00e+00	0	40	0	665845760	54	6053
2026-01-03 12:16:17.38	82.36	14.88	-40.0	-41.0	22.9	0.00e+00	0	40	0	667942912	54	5716
2026-01-03 12:16:18.39	82.57	14.87	-40.0	-41.0	22.8	0.00e+00	0	40	0	668991488	54	5733
2026-01-03 12:16:19.40	82.78	14.86	-39.7	-40.6	23.1	0.00e+00	0	40	0	671088640	52	6152
2026-01-03 12:16:20.41	82.99	14.85	-39.9	-40.8	23.0	0.00e+00	0	40	0	673185792	52	6309
2026-01-03 12:16:21.41	83.20	14.84	-40.0	-41.0	22.7	0.00e+00	0	40	0	675282944	52	6437
2026-01-03 12:16:22.43	83.42	14.83	-39.9	-40.9	22.6	0.00e+00	0	40	0	677380096	52	6343
2026-01-03 12:16:23.44	83.63	14.82	-40.0	-40.9	22.7	0.00e+00	0	40	0	678428672	52	6384
2026-01-03 12:16:24.45	83.84	14.81	-40.0	-41.0	22.7	0.00e+00	0	40	0	680525824	52	6405
2026-01-03 12:16:25.46	84.05	14.80	-40.0	-41.0	22.7	0.00e+00	0	40	0	682622976	52	6444
2026-01-03 12:16:26.46	84.26	14.79	-39.8	-40.8	22.9	0.00e+00	0	40	0	684720128	52	6273
2026-01-03 12:16:27.47	84.47	14.78	-39.7	-40.7	23.0	0.00e+00	0	40	0	686817280	52	6215
2026-01-03 12:16:28.48	84.68	14.76	-39.7	-40.6	23.1	0.00e+00	0	40	0	687865856	52	6168
2026-01-03 12:16:29.49	84.89	14.75	-39.5	-40.5	23.2	0.00e+00	0	40	0	689963008	52	6066
2026-01-03 12:16:30.50	85.11	14.74	-39.6	-40.6	23.1	0.00e+00	0	40	0	692060160	52	6110
2026-01-03 12:16:31.51	85.32	14.72	-39.9	-40.9	22.9	0.00e+00	0	40	0	694157312	52	6338
2026-01-03 12:16:32.52	85.53	14.71	-40.1	-41.1	22.5	0.00e+00	0	40	0	696254464	52	6514
2026-01-03 12:16:33.53	85.74	14.69	-40.1	-41.1	22.6	0.00e+00	0	40	0	697303040	52	6503
2026-01-03 12:16:34.54	85.95	14.68	-40.3	-41.4	22.5	0.00e+00	0	40	0	699400192	52	6697
2026-01-03 12:16:35.54	86.15	14.66	-40.2	-41.2	22.6	0.00e+00	0	40	0	701497344	52	6598
2026-01-03 12:16:36.56	86.37	14.65	-40.2	-41.2	22.6	0.00e+00	0	40	0	703594496	52	6580
2026-01-03 12:16:37.56	86.57	14.63	-39.9	-40.9	22.8	0.00e+00	0	40	0	705691648	52	6352
2026-01-03 12:16:38.58	86.78	14.62	-39.7	-40.7	23.0	0.00e+00	0	40	0	706740224	52	6201
2026-01-03 12:16:39.58	86.99	14.60	-39.6	-40.6	23.1	0.00e+00	0	40	0	708837376	52	6119
2026-01-03 12:16:40.60	87.20	14.58	-39.4	-40.3	23.4	0.00e+00	0	40	0	710934528	52	5959
2026-01-03 12:16:41.60	87.41	14.56	-39.4	-40.4	23.4	0.00e+00	0	40	0	713031680	52	5967
2026-01-03 12:16:42.62	87.62	14.55	-39.3	-40.3	23.5	0.00e+00	0	40	0	715128832	52	5897
2026-01-03 12:16:43.63	87.82	14.53	-39.6	-40.5	23.2	0.00e+00	0	40	0	716177408	52	6069
2026-01-03 12:16:44.63	88.03	14.51	-39.2	-40.1	23.6	0.00e+00	0	40	0	718274560	52	5799
2026-01-03 12:16:45.64	88.24	14.49	-39.1	-40.0	23.6	0.00e+00	0	40	0	720371712	52	5752
2026-01-03 12:16:46.65	88.45	14.47	-39.2	-40.1	23.4	0.00e+00	0	40	0	722468864	52	5778
2026-01-03 12:16:47.66	88.65	14.45	-39.1	-40.0	23.6	0.00e+00	0	40	0	724566016	52	5727
2026-01-03 12:16:48.67	88.86	14.43	-39.1	-40.1	23.5	0.00e+00	0	40	0	725614592	52	5773
2026-01-03 12:16:49.68	89.06	14.41	-39.6	-40.6	23.2	0.00e+00	0	40	0	727711744	52	6119
2026-01-03 12:16:50.69	89.27	14.39	-39.6	-40.5	23.1	0.00e+00	0	40	0	729808896	52	6098
2026-01-03 12:16:51.70	89.48	14.37	-39.7	-40.6	23.0	0.00e+00	0	40	0	731906048	52	6156
2026-01-03 12:16:52.71	89.68	14.35	-39.9	-40.8	23.0	0.00e+00	0	40	0	734003200	52	6295
2026-01-03 12:16:53.73	89.89	14.33	-39.9	-40.9	23.0	0.00e+00	0	40	0	736100352	52	6354
2026-01-03 12:16:54.73	90.09	14.31	-39.7	-40.6	23.0	0.00e+00	0	40	0	737148928	52	6168
2026-01-03 12:16:55.74	90.30	14.29	-39.6	-40.5	23.2	0.00e+00	0	40	0	739246080	52	6077
2026-01-03 12:16:56.75	90.50	14.26	-39.7	-40.6	23.1	0.00e+00	0	40	0	741343232	52	6154
2026-01-03 12:16:57.76	90.71	14.24	-39.8	-40.8	23.2	0.00e+00	0	40	0	743440384	52	6247
2026-01-03 12:16:58.77	90.91	14.22	-39.4	-40.3	23.3	0.00e+00	0	40	0	745537536	52	5928
2026-01-03 12:16:59.78	91.11	14.20	-39.5	-40.4	23.4	0.00e+00	0	40	0	746586112	52	6012
2026-01-03 12:17:00.79	91.32	14.17	-39.1	-40.0	23.7	0.00e+00	0	40	0	748683264	52	5736
2026-01-03 12:17:01.79	91.52	14.15	-39.3	-40.2	23.7	0.00e+00	0	40	0	750780416	52	5884
2026-01-03 12:17:02.81	91.72	14.12	-39.2	-40.1	23.4	0.00e+00	0	40	0	752877568	52	5823
2026-01-03 12:17:03.81	91.92	14.10	-39.2	-40.1	23.6	0.00e+00	0	40	0	754974720	52	5814
2026-01-03 12:17:04.82	92.12	14.08	-39.0	-39.9	23.6	0.00e+00	0	40	0	756023296	52	5646
2026-01-03 12:17:05.83	92.33	14.05	-38.9	-39.7	23.9	0.00e+00	0	40	0	758120448	52	5564
2026-01-03 12:17:06.84	92.53	14.03	-38.9	-39.7	23.9	0.00e+00	0	40	0	760217600	52	5563
2026-01-03 12:17:07.85	92.73	14.00	-38.8	-39.6	24.0	0.00e+00	0	40	0	762314752	52	5501
2026-01-03 12:17:08.86	92.93	13.97	-39.0	-39.8	23.7	0.00e+00	0	40	0	764411904	52	5625
2026-01-03 12:17:09.87	93.13	13.95	-39.2	-40.1	23.6	0.00e+00	0	40	0	765460480	52	5796
2026-01-03 12:17:10.88	93.33	13.92	-39.2	-40.1	23.5	0.00e+00	0	40	0	767557632	52	5821
2026-01-03 12:17:11.89	93.53	13.89	-39.1	-40.0	23.6	0.00e+00	0	40	0	769654784	52	5754
2026-01-03 12:17:12.90	93.73	13.87	-39.2	-40.1	23.5	0.00e+00	0	40	0	771751936	52	5808
2026-01-03 12:17:13.91	93.93	13.84	-39.2	-40.1	23.5	0.00e+00	0	40	0	773849088	52	5828
2026-01-03 12:17:14.92	94.12	13.81	-39.1	-40.0	23.6	0.00e+00	0	40	0	774897664	52	5757
2026-01-03 12:17:15.93	94.32	13.78	-39.1	-40.0	23.5	0.00e+00	0	40	0	776994816	52	5751
2026-01-03 12:17:16.94	94.52	13.76	-39.1	-40.0	23.7	0.00e+00	0	40	0	779091968	52	5719
2026-01-03 12:17:17.94	94.72	13.73	-39.0	-39.9	23.8	0.00e+00	0	40	0	781189120	52	5645
2026-01-03 12:17:18.95	94.91	13.70	-39.0	-39.8	23.7	0.00e+00	0	40	0	783286272	52	5630
2026-01-03 12:17:19.96	95.11	13.67	-39.3	-40.2	23.7	0.00e+00	0	40	0	784334848	52	5887
2026-01-03 12:17:20.97	95.31	13.64	-39.0	-39.9	23.8	0.00e+00	0	40	0	786432000	52	5643
2026-01-03 12:17:21.98	95.50	13.61	-39.2	-40.1	23.8	0.00e+00	0	40	0	788529152	52	5767
2026-01-03 12:17:22.99	95.70	13.58	-39.2	-40.2	23.6	0.00e+00	0	40	0	790626304	52	5829
2026-01-03 12:17:24.00	95.89	13.55	-39.0	-39.8	23.8	0.00e+00	0	40	0	792723456	52	5625
2026-01-03 12:17:25.01	96.09	13.52	-39.2	-40.1	23.7	0.00e+00	0	40	0	793772032	52	5799
2026-01-03 12:17:26.02	96.28	13.49	-39.5	-40.4	23.6	0.00e+00	0	40	0	795869184	52	5970
2026-01-03 12:17:27.03	96.48	13.46	-39.2	-40.1	23.6	0.00e+00	0	40	0	797966336	52	5817
2026-01-03 12:17:28.03	96.67	13.43	-39.8	-40.7	23.3	0.00e+00	0	40	0	800063488	52	6223
2026-01-03 12:17:29.04	96.86	13.40	-39.7	-40.6	23.2	0.00e+00	0	40	0	802160640	52	6161
2026-01-03 12:17:30.05	97.05	13.37	-39.7	-40.7	23.0	0.00e+00	0	40	0	803209216	52	6204
2026-01-03 12:17:31.06	97.25	13.33	-39.9	-40.9	22.5	0.00e+00	0	40	0	805306368	52	6371
2026-01-03 12:17:32.07	97.44	13.30	-39.9	-40.8	22.9	0.00e+00	0	40	0	807403520	52	6303
2026-01-03 12:17:33.08	97.63	13.27	-39.8	-40.8	22.9	0.00e+00	0	40	0	809500672	52	6271
2026-01-03 12:17:34.09	97.82	13.24	-40.0	-41.0	22.7	0.00e+00	0	40	0	811597824	52	6425
2026-01-03 12:17:35.10	98.01	13.20	-40.1	-41.1	22.9	0.00e+00	0	40	0	812646400	52	6495
2026-01-03 12:17:36.11	98.20	13.17	-40.2	-41.2	22.7	0.00e+00	0	40	0	814743552	52	6568
2026-01-03 12:17:37.12	98.39	13.14	-40.3	-41.3	22.6	0.00e+00	0	40	0	816840704	52	6667
2026-01-03 12:17:38.13	98.58	13.10	-40.5	-41.5	22.5	0.00e+00	0	40	0	818937856	52	6816
2026-01-03 12:17:39.14	98.77	13.07	-40.4	-41.4	22.5	0.00e+00	0	40	0	821035008	54	5995
2026-01-03 12:17:40.14	98.96	13.04	-40.3	-41.3	22.5	0.00e+00	0	40	0	822083584	54	5957
2026-01-03 12:17:41.16	99.15	13.00	-40.4	-41.4	22.3	0.00e+00	0	40	0	824180736	54	6016
2026-01-03 12:17:42.16	99.33	12.97	-40.5	-41.6	22.5	0.00e+00	0	40	0	826277888	54	6114
2026-01-03 12:17:43.17	99.52	12.93	-40.2	-41.1	22.6	0.00e+00	0	40	0	828375040	54	5819
2026-01-03 12:17:44.18	99.71	12.90	-40.4	-41.4	22.2	0.00e+00	0	40	0	830472192	54	6000
2026-01-03 12:17:45.19	99.89	12.86	-40.3	-41.3	22.5	0.00e+00	0	40	0	832569344	54	5935
2026-01-03 12:17:46.19	100.08	12.83	-40.3	-41.3	22.2	0.00e+00	0	40	0	833617920	54	5944
2026-01-03 12:17:47.20	100.26	12.79	-40.4	-41.5	22.3	0.00e+00	0	40	0	835715072	54	6045
2026-01-03 12:17:48.21	100.45	12.76	-40.6	-41.6	22.2	0.00e+00	0	40	0	837812224	54	6162
2026-01-03 12:17:49.22	100.64	12.72	-40.9	-41.9	21.3	0.00e+00	0	40	0	839909376	54	6370
2026-01-03 12:17:50.23	100.82	12.68	-41.2	-42.3	21.2	0.00e+00	0	40	0	842006528	54	6636
2026-01-03 12:17:51.24	101.00	12.65	-41.3	-42.5	21.4	0.00e+00	0	40	0	843055104	54	6792
2026-01-03 12:17:52.25	101.19	12.61	-41.7	-42.9	21.0	0.00e+00	0	40	0	845152256	54	7099
2026-01-03 12:17:53.26	101.37	12.57	-41.8	-43.0	20.8	0.00e+00	0	40	0	847249408	56	6426
2026-01-03 12:17:54.27	101.55	12.54	-42.0	-43.2	20.7	0.00e+00	0	40	0	849346560	56	6607
2026-01-03 12:17:55.28	101.74	12.50	-42.1	-43.3	20.6	0.00e+00	0	40	0	851443712	56	6672
2026-01-03 12:17:56.29	101.92	12.46	-42.6	-43.9	20.1	0.00e+00	0	40	0	852492288	56	7164
2026-01-03 12:17:57.30	102.10	12.42	-42.2	-43.5	20.5	0.00e+00	0	40	0	854589440	56	6824
2026-01-03 12:17:58.31	102.28	12.38	-43.3	-44.8	19.3	0.00e+00	0	40	0	856686592	58	7050
2026-01-03 12:17:59.32	102.46	12.35	-42.9	-44.3	19.8	0.00e+00	0	40	0	858783744	58	6669
2026-01-03 12:18:00.32	102.64	12.31	-43.2	-44.7	19.5	0.00e+00	0	40	0	860880896	58	6972
2026-01-03 12:18:01.33	102.82	12.27	-43.3	-44.9	19.5	0.00e+00	0	40	0	861929472	58	7093
2026-01-03 12:18:02.34	103.00	12.23	-44.2	-46.1	17.8	0.00e+00	0	40	0	864026624	60	7286
2026-01-03 12:18:03.35	103.18	12.19	-43.4	-45.0	18.9	0.00e+00	0	40	0	866123776	60	6450
2026-01-03 12:18:04.36	103.35	12.15	-42.6	-44.0	19.5	0.00e+00	0	40	0	868220928	60	5730
2026-01-03 12:18:05.37	103.53	12.11	-43.2	-44.8	20.0	0.00e+00	0	40	0	870318080	58	7033
2026-01-03 12:18:06.38	103.71	12.07	-43.0	-44.6	20.0	0.00e+00	0	40	0	871366656	58	6857
2026-01-03 12:18:07.38	103.88	12.03	-42.8	-44.2	19.8	0.00e+00	0	40	0	873463808	58	6578
2026-01-03 12:18:08.39	104.06	11.99	-43.0	-44.5	20.0	0.00e+00	0	40	0	875560960	58	6799
2026-01-03 12:18:09.40	104.24	11.95	-42.6	-44.0	19.8	0.00e+00	0	40	0	877658112	58	6397
2026-01-03 12:18:10.41	104.41	11.91	-42.7	-44.1	20.0	0.00e+00	0	40	0	879755264	58	6539
2026-01-03 12:18:11.42	104.59	11.87	-43.0	-44.5	19.5	0.00e+00	0	40	0	880803840	58	6826
2026-01-03 12:18:12.44	104.76	11.83	-42.6	-44.0	19.8	0.00e+00	0	40	0	882900992	58	6416
2026-01-03 12:18:13.44	104.93	11.79	-43.8	-45.5	18.6	0.00e+00	0	40	0	884998144	58	7647
2026-01-03 12:18:14.46	105.11	11.75	-43.9	-45.6	18.5	0.00e+00	0	40	0	887095296	60	6895
2026-01-03 12:18:15.47	105.28	11.71	-43.9	-45.6	18.9	0.00e+00	0	40	0	889192448	60	6896
2026-01-03 12:18:16.48	105.46	11.67	-44.4	-46.4	17.6	0.00e+00	0	40	0	890241024	60	7543
2026-01-03 12:18:17.48	105.63	11.63	-44.3	-46.1	17.6	0.00e+00	0	40	0	892338176	60	7330
2026-01-03 12:18:18.49	105.80	11.59	-44.4	-46.2	17.5	0.00e+00	0	40	0	894435328	60	7409
2026-01-03 12:18:19.50	105.97	11.54	-44.7	-46.6	17.8	0.00e+00	0	40	0	896532480	60	7756
2026-01-03 12:18:20.51	106.14	11.50	-44.3	-46.2	17.8	0.00e+00	0	40	0	898629632	60	7378
2026-01-03 12:18:21.52	106.31	11.46	-44.8	-46.9	17.3	0.00e+00	0	40	0	900726784	60	8010
2026-01-03 12:18:22.53	106.48	11.42	-43.9	-45.5	17.7	0.00e+00	0	40	0	901775360	60	6836
2026-01-03 12:18:23.54	106.65	11.38	-43.4	-44.9	18.3	0.00e+00	0	40	0	903872512	60	6348
2026-01-03 12:18:24.55	106.82	11.33	-44.4	-46.2	18.5	0.00e+00	0	40	0	905969664	60	7404
2026-01-03 12:18:25.56	106.99	11.29	-43.9	-45.6	18.7	0.00e+00	0	40	0	908066816	60	6850
2026-01-03 12:18:26.56	107.15	11.25	-43.2	-44.7	19.3	0.00e+00	0	40	0	910163968	60	6230
2026-01-03 12:18:27.58	107.32	11.20	-44.0	-45.8	18.4	0.00e+00	0	40	0	911212544	60	7009
2026-01-03 12:18:28.58	107.49	11.16	-43.0	-44.6	19.4	0.00e+00	0	40	0	913309696	58	6852
2026-01-03 12:18:29.59	107.65	11.12	-43.8	-45.5	18.9	0.00e+00	0	40	0	915406848	58	7681
2026-01-03 12:18:30.60	107.82	11.08	-44.8	-46.9	19.5	0.00e+00	0	40	0	917504000	60	8033
2026-01-03 12:18:31.62	107.99	11.03	-43.3	-44.8	18.7	0.00e+00	0	40	0	919601152	60	6312
2026-01-03 12:18:32.62	108.15	10.99	-44.2	-46.0	18.7	0.00e+00	0	40	0	920649728	60	7206
2026-01-03 12:18:33.63	108.31	10.94	-43.3	-44.8	19.0	0.00e+00	0	40	0	922746880	60	6304
2026-01-03 12:18:34.64	108.48	10.90	-43.1	-44.6	19.1	0.00e+00	0	40	0	924844032	60	6126
2026-01-03 12:18:35.65	108.64	10.86	-42.5	-43.9	20.2	0.00e+00	0	40	0	926941184	60	5647
2026-01-03 12:18:36.66	108.81	10.81	-42.5	-43.8	19.9	0.00e+00	0	40	0	929038336	58	6314
2026-01-03 12:18:37.67	108.97	10.77	-42.8	-44.2	19.7	0.00e+00	0	40	0	930086912	58	6581
2026-01-03 12:18:38.68	109.13	10.72	-42.9	-44.3	20.6	0.00e+00	0	40	0	932184064	58	6676
2026-01-03 12:18:39.69	109.29	10.68	-43.0	-44.5	19.2	0.00e+00	0	40	0	934281216	58	6805
2026-01-03 12:18:40.70	109.45	10.64	-42.4	-43.7	20.1	0.00e+00	0	40	0	936378368	58	6206
2026-01-03 12:18:41.71	109.61	10.59	-43.5	-45.2	19.1	0.00e+00	0	40	0	938475520	58	7361
2026-01-03 12:18:42.71	109.77	10.55	-42.4	-43.8	19.8	0.00e+00	0	40	0	939524096	58	6302
2026-01-03 12:18:43.73	109.93	10.50	-43.2	-44.7	19.8	0.00e+00	0	40	0	941621248	60	6190
2026-01-03 12:18:44.73	110.09	10.46	-42.9	-44.4	20.5	0.00e+00	0	40	0	943718400	58	6707
2026-01-03 12:18:45.74	110.25	10.41	-42.8	-44.2	20.4	0.00e+00	0	40	0	945815552	58	6573
2026-01-03 12:18:46.75	110.41	10.37	-42.6	-43.9	20.3	0.00e+00	0	40	0	947912704	58	6378
2026-01-03 12:18:47.76	110.57	10.32	-42.2	-43.5	20.3	0.00e+00	0	40	0	948961280	58	6086
2026-01-03 12:18:48.77	110.72	10.27	-42.0	-43.3	20.6	0.00e+00	0	40	0	951058432	58	5954
2026-01-03 12:18:49.78	110.88	10.23	-41.7	-43.1	20.7	0.00e+00	0	40	0	953155584	58	5770
2026-01-03 12:18:50.79	111.04	10.18	-42.3	-43.7	20.6	0.00e+00	0	40	0	955252736	56	6986
2026-01-03 12:18:51.80	111.19	10.14	-41.6	-42.8	21.1	0.00e+00	0	40	0	957349888	56	6306
2026-01-03 12:18:52.80	111.35	10.09	-41.5	-42.6	21.4	0.00e+00	0	40	0	958398464	56	6147
2026-01-03 12:18:53.82	111.51	10.05	-41.8	-43.0	21.4	0.00e+00	0	40	0	960495616	56	6438
2026-01-03 12:18:54.82	111.66	10.00	-41.3	-42.4	21.9	0.00e+00	0	40	0	962592768	56	5997
2026-01-03 12:18:55.83	111.81	9.95	-41.0	-42.1	22.1	0.00e+00	0	40	0	964689920	56	5785
2026-01-03 12:18:56.84	111.97	9.91	-40.7	-41.7	22.1	0.00e+00	0	40	0	966787072	54	6240
2026-01-03 12:18:57.85	112.12	9.86	-41.0	-42.1	21.7	0.00e+00	0	40	0	967835648	54	6465
2026-01-03 12:18:58.86	112.27	9.81	-40.5	-41.5	22.3	0.00e+00	0	40	0	969932800	54	6072
2026-01-03 12:18:59.87	112.42	9.77	-40.6	-41.6	22.0	0.00e+00	0	40	0	972029952	54	6154
2026-01-03 12:19:00.88	112.58	9.72	-40.9	-41.9	21.4	0.00e+00	0	40	0	974127104	54	6373
2026-01-03 12:19:01.89	112.73	9.67	-41.5	-42.6	21.3	0.00e+00	0	40	0	976224256	54	6927
2026-01-03 12:19:02.90	112.88	9.63	-40.8	-41.9	21.8	0.00e+00	0	40	0	977272832	54	6362
2026-01-03 12:19:03.91	113.03	9.58	-41.6	-42.8	20.9	0.00e+00	0	40	0	979369984	54	7081
2026-01-03 12:19:04.92	113.18	9.53	-41.6	-42.8	21.1	0.00e+00	0	40	0	981467136	54	7073
2026-01-03 12:19:05.93	113.33	9.49	-41.9	-43.2	20.7	0.00e+00	0	40	0	983564288	56	6540
2026-01-03 12:19:06.94	113.48	9.44	-41.9	-43.1	20.6	0.00e+00	0	40	0	985661440	56	6525
2026-01-03 12:19:07.95	113.63	9.39	-41.1	-42.3	21.4	0.00e+00	0	40	0	986710016	56	5912
2026-01-03 12:19:08.95	113.77	9.35	-40.9	-42.0	21.9	0.00e+00	0	40	0	988807168	56	5742
2026-01-03 12:19:09.96	113.92	9.30	-41.0	-42.1	21.8	0.00e+00	0	40	0	990904320	56	5812
2026-01-03 12:19:10.97	114.07	9.25	-41.1	-42.2	21.8	0.00e+00	0	40	0	993001472	56	5896
2026-01-03 12:19:11.98	114.21	9.20	-41.0	-42.1	21.6	0.00e+00	0	40	0	995098624	56	5802
2026-01-03 12:19:12.99	114.36	9.16	-41.1	-42.2	21.6	0.00e+00	0	40	0	997195776	56	5860
2026-01-03 12:19:14.00	114.51	9.11	-41.2	-42.3	21.4	0.00e+00	0	40	0	998244352	56	5954
2026-01-03 12:19:15.01	114.65	9.06	-41.0	-42.2	21.5	0.00e+00	0	40	0	1000341504	56	5844
2026-01-03 12:19:16.01	114.80	9.01	-40.8	-41.9	21.7	0.00e+00	0	40	0	1002438656	56	5691
2026-01-03 12:19:17.02	114.94	8.96	-41.1	-42.2	21.7	0.00e+00	0	40	0	1004535808	56	5861
2026-01-03 12:19:18.03	115.08	8.92	-41.1	-42.2	21.5	0.00e+00	0	40	0	1006632960	56	5887
2026-01-03 12:19:19.04	115.23	8.87	-41.6	-42.8	21.4	0.00e+00	0	40	0	1007681536	56	6276
2026-01-03 12:19:20.05	115.37	8.82	-40.9	-42.0	21.8	0.00e+00	0	40	0	1009778688	54	6403
2026-01-03 12:19:21.06	115.51	8.77	-40.4	-41.4	22.1	0.00e+00	0	40	0	1011875840	54	6014
2026-01-03 12:19:22.07	115.66	8.72	-40.7	-41.8	21.9	0.00e+00	0	40	0	1013972992	54	6284
2026-01-03 12:19:23.08	115.80	8.68	-41.2	-42.4	21.2	0.00e+00	0	40	0	1016070144	54	6741
2026-01-03 12:19:24.09	115.94	8.63	-41.6	-42.8	20.9	0.00e+00	0	40	0	1017118720	54	7058
2026-01-03 12:19:25.09	116.08	8.58	-41.5	-42.8	21.1	0.00e+00	0	40	0	1019215872	56	6255
2026-01-03 12:19:26.10	116.22	8.53	-41.7	-42.9	21.3	0.00e+00	0	40	0	1021313024	56	6358
2026-01-03 12:19:27.11	116.36	8.48	-41.1	-42.3	21.5	0.00e+00	0	40	0	1023410176	56	5929
2026-01-03 12:19:28.12	116.50	8.43	-41.2	-42.4	21.2	0.00e+00	0	40	0	1025507328	56	5980
2026-01-03 12:19:29.13	116.64	8.39	-41.1	-42.2	21.6	0.00e+00	0	40	0	1026555904	56	5894
2026-01-03 12:19:30.14	116.78	8.34	-40.9	-42.0	21.6	0.00e+00	0	40	0	1028653056	56	5753
2026-01-03 12:19:31.15	116.91	8.29	-41.1	-42.2	21.7	0.00e+00	0	40	0	1030750208	56	5872
2026-01-03 12:19:32.16	117.05	8.24	-40.7	-41.8	21.9	0.00e+00	0	40	0	1032847360	56	5585
2026-01-03 12:19:33.17	117.19	8.19	-40.6	-41.7	21.7	0.00e+00	0	40	0	1034944512	54	6188
2026-01-03 12:19:34.18	117.33	8.14	-40.7	-41.8	22.0	0.00e+00	0	40	0	1035993088	54	6307
2026-01-03 12:19:35.18	117.46	8.09	-40.5	-41.6	22.2	0.00e+00	0	40	0	1038090240	54	6135
2026-01-03 12:19:36.19	117.60	8.04	-40.4	-41.5	22.1	0.00e+00	0	40	0	1040187392	54	6034
2026-01-03 12:19:37.20	117.73	8.00	-40.7	-41.7	22.0	0.00e+00	0	40	0	1042284544	54	6224
2026-01-03 12:19:38.21	117.87	7.95	-40.7	-41.8	21.8	0.00e+00	0	40	0	1044381696	54	6282
2026-01-03 12:19:39.22	118.00	7.90	-40.9	-42.0	21.8	0.00e+00	0	40	0	1045430272	54	6426
2026-01-03 12:19:40.23	118.14	7.85	-40.8	-41.9	21.5	0.00e+00	0	40	0	1047527424	54	6376
2026-01-03 12:19:41.24	118.27	7.80	-40.8	-42.0	21.6	0.00e+00	0	40	0	1049624576	54	6411
2026-01-03 12:19:42.25	118.40	7.75	-41.3	-42.5	21.2	0.00e+00	0	40	0	1051721728	54	6800
2026-01-03 12:19:43.26	118.54	7.70	-41.3	-42.4	21.3	0.00e+00	0	40	0	1053818880	54	6760
2026-01-03 12:19:44.27	118.67	7.65	-41.4	-42.6	21.2	0.00e+00	0	40	0	1054867456	56	6132
2026-01-03 12:19:45.28	118.80	7.60	-41.4	-42.7	21.1	0.00e+00	0	40	0	1056964608	56	6178
2026-01-03 12:19:46.29	118.93	7.55	-41.3	-42.5	21.3	0.00e+00	0	40	0	1059061760	56	6056
2026-01-03 12:19:47.29	119.06	7.50	-41.9	-43.1	20.5	0.00e+00	0	40	0	1061158912	56	6514
2026-01-03 12:19:48.30	119.19	7.46	-41.2	-42.3	21.3	0.00e+00	0	40	0	1063256064	56	5957
2026-01-03 12:19:49.31	119.32	7.41	-41.0	-42.1	21.5	0.00e+00	0	40	0	1064304640	56	5826
2026-01-03 12:19:50.32	119.45	7.36	-41.1	-42.3	21.2	0.00e+00	0	40	0	1066401792	56	5903
2026-01-03 12:19:51.33	119.58	7.31	-41.5	-42.7	21.0	0.00e+00	0	40	0	1068498944	56	6216
2026-01-03 12:19:52.34	119.71	7.26	-41.2	-42.4	21.1	0.00e+00	0	40	0	1070596096	56	5979
2026-01-03 12:19:53.34	119.84	7.21	-42.7	-44.1	20.5	0.00e+00	0	40	0	1072693248	58	6466
2026-01-03 12:19:54.36	119.97	7.16	-42.3	-43.6	20.4	0.00e+00	0	40	0	1073741824	56	6923
2026-01-03 12:19:55.37	120.10	7.11	-42.2	-43.6	20.5	0.00e+00	0	40	0	1075838976	56	6872
2026-01-03 12:19:56.38	120.22	7.06	-42.2	-43.5	20.8	0.00e+00	0	40	0	1077936128	56	6826
2026-01-03 12:19:57.39	120.35	7.01	-42.7	-44.2	19.9	0.00e+00	0	40	0	1080033280	58	6545
2026-01-03 12:19:58.39	120.48	6.96	-42.2	-43.5	20.2	0.00e+00	0	40	0	1082130432	58	6080
2026-01-03 12:19:59.40	120.60	6.91	-41.9	-43.2	20.4	0.00e+00	0	40	0	1083179008	58	5874
2026-01-03 12:20:00.40	120.73	6.86	-42.3	-43.7	20.2	0.00e+00	0	40	0	1085276160	58	6180
2026-01-03 12:20:01.41	120.85	6.81	-42.1	-43.4	20.4	0.00e+00	0	40	0	1087373312	58	5966
2026-01-03 12:20:02.42	120.98	6.76	-42.3	-43.6	20.3	0.00e+00	0	40	0	1089470464	58	6130
2026-01-03 12:20:03.43	121.10	6.71	-43.1	-44.6	19.7	0.00e+00	0	40	0	1091567616	58	6873
2026-01-03 12:20:04.44	121.23	6.66	-42.5	-43.8	20.1	0.00e+00	0	40	0	1093664768	58	6304
2026-01-03 12:20:05.45	121.35	6.61	-42.7	-44.1	20.0	0.00e+00	0	40	0	1094713344	58	6488
2026-01-03 12:20:06.46	121.47	6.56	-42.2	-43.6	20.1	0.00e+00	0	40	0	1096810496	58	6128
2026-01-03 12:20:07.47	121.60	6.51	-42.0	-43.3	20.3	0.00e+00	0	40	0	1098907648	58	5939
2026-01-03 12:20:08.48	121.72	6.46	-43.1	-44.6	19.1	0.00e+00	0	40	0	1101004800	60	6168
2026-01-03 12:20:09.48	121.84	6.42	-43.2	-44.8	19.0	0.00e+00	0	40	0	1103101952	60	6288
2026-01-03 12:20:10.49	121.96	6.37	-43.7	-45.5	18.2	0.00e+00	0	40	0	1104150528	60	6771
2026-01-03 12:20:11.50	122.08	6.32	-43.5	-45.1	19.1	0.00e+00	0	40	0	1106247680	60	6504
2026-01-03 12:20:12.51	122.20	6.27	-43.9	-45.7	18.6	0.00e+00	0	40	0	1108344832	60	6951
2026-01-03 12:20:13.52	122.32	6.22	-43.7	-45.4	19.0	0.00e+00	0	40	0	1110441984	60	6758
2026-01-03 12:20:14.53	122.44	6.17	-43.0	-44.6	19.6	0.00e+00	0	40	0	1112539136	60	6118
2026-01-03 12:20:15.54	122.56	6.12	-43.0	-44.6	19.4	0.00e+00	0	40	0	1113587712	58	6853
2026-01-03 12:20:16.54	122.68	6.07	-42.1	-43.5	19.8	0.00e+00	0	40	0	1115684864	58	6077
2026-01-03 12:20:17.55	122.80	6.02	-42.2	-43.6	20.1	0.00e+00	0	40	0	1117782016	58	6143
2026-01-03 12:20:18.56	122.92	5.97	-42.4	-43.8	19.7	0.00e+00	0	40	0	1119879168	58	6316
2026-01-03 12:20:19.57	123.04	5.92	-42.3	-43.7	19.8	0.00e+00	0	40	0	1121976320	58	6222
2026-01-03 12:20:20.57	123.15	5.87	-42.4	-43.9	19.9	0.00e+00	0	40	0	1123024896	58	6341
2026-01-03 12:20:21.58	123.27	5.82	-42.2	-43.6	19.8	0.00e+00	0	40	0	1125122048	58	6134
2026-01-03 12:20:22.59	123.39	5.77	-42.3	-43.8	19.7	0.00e+00	0	40	0	1127219200	58	6295
2026-01-03 12:20:23.60	123.50	5.72	-42.4	-43.9	19.8	0.00e+00	0	40	0	1129316352	58	6374
2026-01-03 12:20:24.61	123.62	5.67	-42.5	-44.0	19.6	0.00e+00	0	40	0	1131413504	58	6443
2026-01-03 12:20:25.62	123.74	5.62	-42.5	-43.9	19.6	0.00e+00	0	40	0	1132462080	58	6374
2026-01-03 12:20:26.63	123.85	5.57	-42.6	-44.1	19.5	0.00e+00	0	40	0	1134559232	58	6489
2026-01-03 12:20:27.63	123.97	5.52	-42.3	-43.8	19.7	0.00e+00	0	40	0	1136656384	58	6271
2026-01-03 12:20:28.64	124.08	5.47	-42.6	-44.1	19.3	0.00e+00	0	40	0	1138753536	58	6483
2026-01-03 12:20:29.65	124.19	5.42	-42.4	-43.9	19.6	0.00e+00	0	40	0	1140850688	58	6321
2026-01-03 12:20:30.66	124.31	5.37	-42.6	-44.1	19.2	0.00e+00	0	40	0	1141899264	58	6504
2026-01-03 12:20:31.67	124.42	5.32	-42.6	-44.0	19.3	0.00e+00	0	40	0	1143996416	58	6464
2026-01-03 12:20:32.68	124.54	5.27	-42.4	-43.9	19.1	0.00e+00	0	40	0	1146093568	58	6388
2026-01-03 12:20:33.69	124.65	5.22	-42.8	-44.4	19.3	0.00e+00	0	40	0	1148190720	58	6707
2026-01-03 12:20:34.70	124.76	5.17	-43.7	-45.6	17.7	0.00e+00	0	40	0	1150287872	58	7693
2026-01-03 12:20:35.70	124.87	5.12	-42.8	-44.4	19.4	0.00e+00	0	40	0	1151336448	58	6725
2026-01-03 12:20:36.71	124.98	5.07	-42.5	-43.9	19.6	0.00e+00	0	40	0	1153433600	58	6350
2026-01-03 12:20:37.72	125.09	5.02	-42.3	-43.8	19.6	0.00e+00	0	40	0	1155530752	58	6256
2026-01-03 12:20:38.73	125.21	4.97	-42.9	-44.5	18.9	0.00e+00	0	40	0	1157627904	58	6833
2026-01-03 12:20:39.74	125.32	4.92	-42.8	-44.4	19.0	0.00e+00	0	40	0	1159725056	58	6743
2026-01-03 12:20:40.75	125.43	4.87	-43.7	-45.5	18.6	0.00e+00	0	40	0	1160773632	58	7656
2026-01-03 12:20:41.76	125.54	4.82	-43.9	-45.8	18.1	0.00e+00	0	40	0	1162870784	60	7023
2026-01-03 12:20:42.77	125.65	4.77	-43.9	-45.8	17.8	0.00e+00	0	40	0	1164967936	60	7016
2026-01-03 12:20:43.78	125.76	4.72	-43.6	-45.4	18.2	0.00e+00	0	40	0	1167065088	60	6730
2026-01-03 12:20:44.78	125.86	4.67	-43.2	-44.9	18.5	0.00e+00	0	40	0	1169162240	60	6380
2026-01-03 12:20:45.79	125.97	4.62	-43.1	-44.8	18.9	0.00e+00	0	40	0	1170210816	60	6248
2026-01-03 12:20:46.80	126.08	4.57	-43.9	-45.8	17.9	0.00e+00	0	40	0	1172307968	60	7026
2026-01-03 12:20:47.81	126.19	4.52	-43.7	-45.5	18.0	0.00e+00	0	40	0	1174405120	60	6805
2026-01-03 12:20:48.82	126.30	4.47	-43.4	-45.1	18.3	0.00e+00	0	40	0	1176502272	60	6525
2026-01-03 12:20:49.82	126.40	4.42	-44.1	-46.1	17.3	0.00e+00	0	40	0	1178599424	60	7273
2026-01-03 12:20:50.83	126.51	4.37	-43.4	-45.1	18.3	0.00e+00	0	40	0	1179648000	60	6524
2026-01-03 12:20:51.85	126.62	4.32	-42.9	-44.5	18.8	0.00e+00	0	40	0	1181745152	60	6094
2026-01-03 12:20:52.85	126.72	4.28	-43.5	-45.3	18.2	0.00e+00	0	40	0	1183842304	60	6678
2026-01-03 12:20:53.86	126.83	4.23	-43.1	-44.7	18.7	0.00e+00	0	40	0	1185939456	60	6245
2026-01-03 12:20:54.87	126.93	4.18	-43.6	-45.5	18.0	0.00e+00	0	40	0	1188036608	60	6812
2026-01-03 12:20:55.88	127.04	4.13	-43.9	-45.8	17.7	0.00e+00	0	40	0	1190133760	60	7081
2026-01-03 12:20:56.89	127.14	4.08	-43.6	-45.5	18.1	0.00e+00	0	40	0	1191182336	60	6810
2026-01-03 12:20:57.90	127.25	4.03	-43.8	-45.8	17.3	0.00e+00	0	40	0	1193279488	60	7061
2026-01-03 12:20:58.91	127.35	3.98	-43.7	-45.6	17.6	0.00e+00	0	40	0	1195376640	60	6898
2026-01-03 12:20:59.91	127.45	3.93	-43.6	-45.5	17.9	0.00e+00	0	40	0	1197473792	60	6804
2026-01-03 12:21:00.92	127.56	3.88	-43.6	-45.5	18.1	0.00e+00	0	40	0	1199570944	60	6778
2026-01-03 12:21:01.93	127.66	3.83	-43.6	-45.4	17.9	0.00e+00	0	40	0	1200619520	60	6767
2026-01-03 12:21:02.93	127.76	3.78	-43.6	-45.5	17.8	0.00e+00	0	40	0	1202716672	60	6780
2026-01-03 12:21:03.94	127.86	3.73	-44.0	-46.1	15.8	0.00e+00	0	40	0	1204813824	60	7279
2026-01-03 12:21:04.95	127.97	3.68	-43.9	-45.8	17.8	0.00e+00	0	40	0	1206910976	60	7072
