passes_logs/2026/01/03/R4.6S_Anadyr/R4.6S_Anadyr__20260103_000353_NOAA_20_JPSS-1_rec.log

#Pass ID: 20260103_000353_NOAA 20 (JPSS-1)
#Satellite: NOAA 20 (JPSS-1)
#Configuration: NOAA 20
#almurnet v.1.7.20251203
#Start time: 2026-01-03 00:03:54

#Version: 2.2.20231116
#Station: R4.6S_Anadyr
#Location: 177.4865 lon 64.73178 lat
#TLE: 1 43013U 17073A   26002.78363558  .00000190  00000+0  11110-3 0  9990
#TLE: 2 43013  98.7623 303.8528 0001892  57.0664 303.0694 14.19532716421006

#Time	Az	El	Level	Level2	SNR	BER	BlckErr	Temp	State	Recorded	gain1	gain2
2026-01-03 00:03:54.80	152.51	0.06	-50.2	-65.2	3.5	1.51e+00	0	36	0	0	60	65582
2026-01-03 00:03:55.80	152.51	0.12	-50.3	-65.5	3.6	1.51e+00	0	38	104	0	60	68176
2026-01-03 00:03:56.81	152.51	0.18	-50.3	-65.5	3.6	1.51e+00	0	38	104	0	60	68004
2026-01-03 00:03:57.82	152.51	0.24	-50.3	-65.5	3.6	1.51e+00	0	38	104	0	60	68093
2026-01-03 00:03:58.83	152.51	0.30	-50.3	-65.4	3.6	1.51e+00	0	38	104	0	60	67622
2026-01-03 00:03:59.84	152.51	0.36	-50.2	-65.4	3.6	1.51e+00	0	38	104	0	60	67427
2026-01-03 00:04:00.85	152.51	0.43	-50.2	-65.4	3.6	1.51e+00	0	38	104	0	60	67306
2026-01-03 00:04:01.86	152.51	0.49	-50.2	-65.4	3.6	1.51e+00	0	38	104	0	60	67221
2026-01-03 00:04:02.87	152.51	0.55	-50.2	-65.5	3.6	1.51e+00	0	38	104	0	60	67745
2026-01-03 00:04:03.88	152.51	0.61	-50.2	-65.4	3.6	1.51e+00	0	38	104	0	60	67173
2026-01-03 00:04:04.89	152.50	0.67	-50.2	-65.4	3.6	1.51e+00	0	38	104	0	60	67613
2026-01-03 00:04:05.90	152.50	0.74	-50.1	-65.4	3.6	1.51e+00	0	38	104	0	60	67127
2026-01-03 00:04:06.91	152.50	0.80	-49.9	-65.2	3.6	1.51e+00	0	38	104	0	60	65792
2026-01-03 00:04:07.92	152.50	0.86	-49.9	-65.2	3.6	1.51e+00	0	38	104	0	60	65439
2026-01-03 00:04:08.93	152.50	0.92	-49.6	-64.9	3.6	1.51e+00	0	38	104	0	60	63830
2026-01-03 00:04:09.94	152.50	0.98	-49.5	-64.7	3.6	1.51e+00	0	38	104	0	60	62182
2026-01-03 00:04:10.95	152.50	1.05	-49.0	-64.1	3.6	1.51e+00	0	38	104	0	60	58179
2026-01-03 00:04:11.96	152.50	1.11	-48.9	-64.1	3.6	1.51e+00	0	38	104	0	60	57969
2026-01-03 00:04:12.97	152.50	1.17	-48.8	-64.0	3.6	1.51e+00	0	38	104	0	60	57167
2026-01-03 00:04:13.98	152.50	1.24	-48.6	-63.9	3.6	1.51e+00	0	38	104	0	60	56675
2026-01-03 00:04:14.99	152.49	1.30	-48.6	-63.8	3.6	1.51e+00	0	38	104	0	60	56203
2026-01-03 00:04:16.00	152.49	1.36	-48.6	-63.9	3.6	1.51e+00	0	38	104	0	60	56540
2026-01-03 00:04:17.01	152.49	1.43	-48.6	-63.8	3.6	1.51e+00	0	38	104	0	60	56166
2026-01-03 00:04:18.02	152.49	1.49	-48.6	-63.8	3.6	1.51e+00	0	38	104	0	60	55859
2026-01-03 00:04:19.03	152.49	1.55	-48.6	-63.8	3.6	1.51e+00	0	38	104	0	60	55819
2026-01-03 00:04:20.04	152.49	1.62	-48.6	-63.7	3.6	1.51e+00	0	38	104	0	60	55273
2026-01-03 00:04:21.05	152.49	1.68	-48.6	-63.7	3.6	1.51e+00	0	38	104	0	60	55030
2026-01-03 00:04:22.06	152.49	1.75	-48.6	-63.7	3.6	1.51e+00	0	38	104	0	60	55103
2026-01-03 00:04:23.07	152.48	1.81	-48.6	-63.7	3.6	1.51e+00	0	38	104	0	60	55478
2026-01-03 00:04:24.08	152.48	1.88	-48.6	-63.7	3.6	1.51e+00	0	38	104	0	60	55115
2026-01-03 00:04:25.09	152.48	1.94	-48.6	-63.7	3.6	1.51e+00	0	38	104	0	60	55504
2026-01-03 00:04:26.10	152.48	2.01	-48.6	-63.8	3.6	1.51e+00	0	38	104	0	60	55777
2026-01-03 00:04:27.11	152.48	2.07	-48.6	-63.7	3.6	1.51e+00	0	38	104	0	60	55501
2026-01-03 00:04:28.12	152.48	2.14	-48.6	-63.8	3.6	1.51e+00	0	38	104	0	60	55815
2026-01-03 00:04:29.13	152.48	2.20	-48.6	-63.8	3.6	1.51e+00	0	38	104	0	60	56271
2026-01-03 00:04:30.14	152.48	2.27	-48.6	-63.8	3.6	1.51e+00	0	38	104	0	60	56275
2026-01-03 00:04:31.15	152.47	2.33	-48.6	-63.8	3.6	1.51e+00	0	38	104	0	60	56053
2026-01-03 00:04:32.16	152.47	2.40	-48.6	-63.8	3.6	1.51e+00	0	38	104	0	60	55970
2026-01-03 00:04:33.17	152.47	2.46	-48.6	-63.8	3.6	1.51e+00	0	38	104	0	60	56064
2026-01-03 00:04:34.18	152.47	2.53	-48.6	-63.8	3.6	1.51e+00	0	38	104	0	60	55851
2026-01-03 00:04:35.19	152.47	2.60	-48.6	-63.7	3.6	1.51e+00	0	38	104	0	60	55185
2026-01-03 00:04:36.20	152.47	2.66	-48.6	-63.6	3.6	1.51e+00	0	38	104	0	60	54457
2026-01-03 00:04:37.21	152.47	2.73	-48.6	-63.5	3.6	1.51e+00	0	38	104	0	60	53873
2026-01-03 00:04:38.22	152.46	2.80	-48.6	-63.5	3.6	1.51e+00	0	38	104	0	60	53795
2026-01-03 00:04:39.23	152.46	2.86	-48.6	-63.6	3.6	1.51e+00	0	38	104	0	60	54790
2026-01-03 00:04:40.24	152.46	2.93	-48.6	-63.8	3.6	1.51e+00	0	38	104	0	60	55865
2026-01-03 00:04:41.25	152.46	3.00	-48.6	-63.7	3.6	1.51e+00	0	38	104	0	60	55394
2026-01-03 00:04:42.26	152.46	3.06	-48.6	-63.1	3.5	1.51e+00	0	38	104	0	60	51903
2026-01-03 00:04:43.27	152.46	3.13	-48.5	-61.4	3.7	1.51e+00	0	39	104	0	60	42338
2026-01-03 00:04:44.28	152.45	3.20	-48.3	-58.2	4.3	1.41e+00	0	38	0	0	60	29520
2026-01-03 00:04:45.29	152.45	3.27	-48.1	-56.2	5.5	6.75e-01	0	38	0	2097152	60	23355
2026-01-03 00:04:46.30	152.45	3.34	-47.7	-54.4	7.6	1.20e-01	0	38	0	4194304	60	18872
2026-01-03 00:04:47.31	152.45	3.40	-47.3	-52.9	9.4	4.30e-02	0	38	0	5242880	60	15967
2026-01-03 00:04:48.32	152.45	3.47	-46.9	-51.6	10.9	8.22e-03	0	38	0	7340032	60	13751
2026-01-03 00:04:49.33	152.45	3.54	-46.4	-50.5	12.2	4.09e-04	0	38	0	9437184	60	12077
2026-01-03 00:04:50.34	152.44	3.61	-46.2	-50.0	12.7	7.62e-05	0	38	0	11534336	60	11400
2026-01-03 00:04:51.35	152.44	3.68	-45.9	-49.5	13.3	2.44e-05	0	38	0	12582912	60	10750
2026-01-03 00:04:52.36	152.44	3.75	-45.7	-49.1	13.7	8.30e-06	0	38	0	14680064	60	10271
2026-01-03 00:04:53.37	152.44	3.82	-46.3	-50.3	11.4	6.80e-06	0	38	0	16777216	60	11884
2026-01-03 00:04:54.38	152.44	3.89	-48.3	-58.0	4.9	1.44e+00	0	38	104	17825792	60	28577
2026-01-03 00:04:55.40	152.44	3.96	-43.8	-45.9	16.0	1.05e-01	0	38	104	17825792	60	7162
2026-01-03 00:04:56.40	152.43	4.03	-48.4	-59.3	5.5	1.49e+00	7	38	104	17825792	60	33251
2026-01-03 00:04:57.41	152.43	4.10	-45.7	-48.7	16.0	3.39e-01	0	39	0	17825792	60	9813
2026-01-03 00:04:58.42	152.43	4.17	-48.1	-57.2	7.6	1.38e+00	1	38	104	18874368	60	26101
2026-01-03 00:04:59.44	152.43	4.24	-45.1	-47.9	14.9	0.00e+00	0	38	0	18874368	60	8990
2026-01-03 00:05:00.44	152.43	4.31	-44.8	-47.4	15.7	0.00e+00	0	38	0	20971520	60	8469
2026-01-03 00:05:01.46	152.42	4.38	-44.9	-47.5	15.3	0.00e+00	0	38	0	23068672	60	8566
2026-01-03 00:05:02.47	152.42	4.45	-45.1	-47.9	15.1	0.00e+00	0	38	0	25165824	60	8942
2026-01-03 00:05:03.48	152.42	4.52	-44.4	-46.7	16.3	0.00e+00	0	38	0	26214400	60	7803
2026-01-03 00:05:04.49	152.42	4.59	-44.1	-46.3	16.8	0.00e+00	0	38	0	28311552	60	7463
2026-01-03 00:05:05.50	152.42	4.66	-44.0	-46.2	16.8	0.00e+00	0	39	0	30408704	60	7381
2026-01-03 00:05:06.51	152.41	4.73	-44.0	-46.1	16.9	0.00e+00	0	38	0	32505856	60	7332
2026-01-03 00:05:07.52	152.41	4.81	-44.1	-46.2	16.9	0.00e+00	0	38	0	34603008	60	7393
2026-01-03 00:05:08.53	152.41	4.88	-44.1	-46.2	16.7	0.00e+00	0	38	0	35651584	60	7421
2026-01-03 00:05:09.54	152.41	4.95	-44.0	-46.1	17.0	0.00e+00	0	38	0	37748736	60	7292
2026-01-03 00:05:10.55	152.40	5.02	-44.0	-46.1	16.9	0.00e+00	0	38	0	39845888	60	7304
2026-01-03 00:05:11.56	152.40	5.09	-43.8	-45.8	17.3	0.00e+00	0	38	0	41943040	60	7054
2026-01-03 00:05:12.57	152.40	5.17	-43.7	-45.7	17.5	0.00e+00	0	38	0	44040192	60	6941
2026-01-03 00:05:13.58	152.40	5.24	-43.8	-45.8	17.3	0.00e+00	0	38	0	45088768	60	7077
2026-01-03 00:05:14.58	152.39	5.31	-43.7	-45.8	17.3	0.00e+00	0	38	0	47185920	60	7009
2026-01-03 00:05:15.59	152.39	5.39	-43.5	-45.4	17.8	0.00e+00	0	38	0	49283072	60	6731
2026-01-03 00:05:16.60	152.39	5.46	-43.4	-45.2	17.8	0.00e+00	0	38	0	51380224	60	6596
2026-01-03 00:05:17.61	152.39	5.53	-43.5	-45.4	17.8	0.00e+00	0	38	0	53477376	60	6700
2026-01-03 00:05:18.62	152.39	5.61	-43.4	-45.2	17.9	0.00e+00	0	38	0	54525952	60	6609
2026-01-03 00:05:19.63	152.38	5.68	-43.6	-45.6	17.6	0.00e+00	0	38	0	56623104	60	6853
2026-01-03 00:05:20.64	152.38	5.76	-43.4	-45.3	17.9	0.00e+00	0	39	0	58720256	60	6626
2026-01-03 00:05:21.65	152.38	5.83	-43.7	-45.7	17.6	0.00e+00	0	38	0	60817408	60	6945
2026-01-03 00:05:22.66	152.37	5.91	-43.7	-45.6	17.6	0.00e+00	0	38	0	62914560	60	6919
2026-01-03 00:05:23.67	152.37	5.98	-43.5	-45.4	17.7	0.00e+00	0	38	0	63963136	60	6765
2026-01-03 00:05:24.68	152.37	6.06	-43.6	-45.5	17.7	0.00e+00	0	38	0	66060288	60	6799
2026-01-03 00:05:25.69	152.37	6.13	-43.4	-45.2	17.9	0.00e+00	0	38	0	68157440	60	6592
2026-01-03 00:05:26.70	152.36	6.21	-43.2	-44.9	18.3	0.00e+00	0	38	0	70254592	60	6388
2026-01-03 00:05:27.71	152.36	6.28	-43.2	-45.0	18.3	0.00e+00	0	38	0	72351744	60	6418
2026-01-03 00:05:28.72	152.36	6.36	-43.3	-45.1	18.2	0.00e+00	0	39	0	73400320	60	6479
2026-01-03 00:05:29.73	152.36	6.44	-43.2	-44.9	18.3	0.00e+00	0	38	0	75497472	60	6382
2026-01-03 00:05:30.74	152.35	6.51	-43.2	-44.9	18.4	0.00e+00	0	38	0	77594624	60	6349
2026-01-03 00:05:31.75	152.35	6.59	-43.2	-45.0	18.3	0.00e+00	0	38	0	79691776	60	6394
2026-01-03 00:05:32.76	152.35	6.67	-43.3	-45.1	18.2	0.00e+00	0	38	0	81788928	60	6507
2026-01-03 00:05:33.77	152.34	6.74	-43.0	-44.7	18.6	0.00e+00	0	38	0	83886080	60	6211
2026-01-03 00:05:34.78	152.34	6.82	-43.2	-44.9	18.4	0.00e+00	0	38	0	84934656	60	6354
2026-01-03 00:05:35.79	152.34	6.90	-43.1	-44.8	18.5	0.00e+00	0	39	0	87031808	60	6254
2026-01-03 00:05:36.80	152.34	6.98	-43.3	-45.1	18.2	0.00e+00	0	38	0	89128960	60	6513
2026-01-03 00:05:37.81	152.33	7.06	-43.1	-44.8	18.5	0.00e+00	0	39	0	91226112	60	6312
2026-01-03 00:05:38.82	152.33	7.13	-43.1	-44.8	18.6	0.00e+00	0	39	0	93323264	60	6251
2026-01-03 00:05:39.83	152.33	7.21	-43.1	-44.7	18.6	0.00e+00	0	38	0	94371840	60	6239
2026-01-03 00:05:40.84	152.32	7.29	-42.9	-44.5	18.9	0.00e+00	0	39	0	96468992	60	6049
2026-01-03 00:05:41.85	152.32	7.37	-42.9	-44.5	18.9	0.00e+00	0	38	0	98566144	60	6077
2026-01-03 00:05:42.86	152.32	7.45	-42.9	-44.5	19.0	0.00e+00	0	39	0	100663296	60	6056
2026-01-03 00:05:43.87	152.31	7.53	-42.9	-44.5	19.0	0.00e+00	0	39	0	102760448	60	6043
2026-01-03 00:05:44.88	152.31	7.61	-42.8	-44.4	19.1	0.00e+00	0	39	0	103809024	60	5974
2026-01-03 00:05:45.89	152.31	7.69	-42.8	-44.4	19.1	0.00e+00	0	39	0	105906176	60	5976
2026-01-03 00:05:46.90	152.30	7.77	-42.6	-44.1	19.2	0.00e+00	0	39	0	108003328	58	6524
2026-01-03 00:05:47.91	152.30	7.85	-42.7	-44.2	19.2	0.00e+00	0	39	0	110100480	58	6571
2026-01-03 00:05:48.92	152.30	7.93	-42.6	-44.1	19.3	0.00e+00	0	39	0	112197632	58	6479
2026-01-03 00:05:49.93	152.29	8.01	-42.6	-44.1	19.3	0.00e+00	0	39	0	113246208	58	6472
2026-01-03 00:05:50.94	152.29	8.10	-42.5	-44.0	19.4	0.00e+00	0	39	0	115343360	58	6426
2026-01-03 00:05:51.95	152.29	8.18	-42.6	-44.1	19.4	0.00e+00	0	39	0	117440512	58	6527
2026-01-03 00:05:52.96	152.28	8.26	-42.5	-44.1	19.4	0.00e+00	0	39	0	119537664	58	6465
2026-01-03 00:05:53.97	152.28	8.34	-42.3	-43.8	19.7	0.00e+00	0	39	0	121634816	58	6253
2026-01-03 00:05:54.98	152.28	8.42	-42.3	-43.8	19.7	0.00e+00	0	39	0	122683392	58	6275
2026-01-03 00:05:55.99	152.27	8.51	-42.3	-43.8	19.7	0.00e+00	0	39	0	124780544	58	6263
2026-01-03 00:05:57.00	152.27	8.59	-42.3	-43.7	19.7	0.00e+00	0	39	0	126877696	58	6227
2026-01-03 00:05:58.01	152.26	8.67	-42.2	-43.7	19.8	0.00e+00	0	39	0	128974848	58	6176
2026-01-03 00:05:59.02	152.26	8.76	-42.3	-43.8	19.6	0.00e+00	0	39	0	131072000	58	6254
2026-01-03 00:06:00.03	152.26	8.84	-42.3	-43.7	19.7	0.00e+00	0	39	0	132120576	58	6201
2026-01-03 00:06:01.04	152.25	8.93	-42.4	-43.8	19.7	0.00e+00	0	39	0	134217728	58	6302
2026-01-03 00:06:02.05	152.25	9.01	-42.4	-43.9	19.6	0.00e+00	0	39	0	136314880	58	6330
2026-01-03 00:06:03.06	152.24	9.10	-42.3	-43.8	19.8	0.00e+00	0	39	0	138412032	58	6265
2026-01-03 00:06:04.07	152.24	9.18	-42.3	-43.8	19.7	0.00e+00	0	39	0	140509184	58	6246
2026-01-03 00:06:05.08	152.24	9.27	-42.1	-43.4	20.1	0.00e+00	0	39	0	141557760	58	6022
2026-01-03 00:06:06.09	152.23	9.35	-42.1	-43.5	20.0	0.00e+00	0	39	0	143654912	58	6077
2026-01-03 00:06:07.10	152.23	9.44	-42.0	-43.4	20.1	0.00e+00	0	39	0	145752064	58	6000
2026-01-03 00:06:08.11	152.22	9.52	-42.1	-43.5	20.0	0.00e+00	0	39	0	147849216	58	6087
2026-01-03 00:06:09.12	152.22	9.61	-42.1	-43.5	20.0	0.00e+00	0	39	0	149946368	58	6098
2026-01-03 00:06:10.13	152.22	9.70	-42.0	-43.4	20.1	0.00e+00	0	39	0	152043520	58	5986
2026-01-03 00:06:11.14	152.21	9.78	-42.1	-43.5	20.1	0.00e+00	0	39	0	153092096	58	6034
2026-01-03 00:06:12.15	152.21	9.87	-42.0	-43.4	20.2	0.00e+00	0	39	0	155189248	58	5965
2026-01-03 00:06:13.16	152.20	9.96	-41.9	-43.2	20.3	0.00e+00	0	39	0	157286400	58	5880
2026-01-03 00:06:14.17	152.20	10.05	-41.9	-43.2	20.3	0.00e+00	0	39	0	159383552	58	5882
2026-01-03 00:06:15.18	152.19	10.14	-41.8	-43.1	20.3	0.00e+00	0	39	0	161480704	58	5808
2026-01-03 00:06:16.19	152.19	10.23	-41.9	-43.2	20.2	0.00e+00	0	39	0	162529280	58	5860
2026-01-03 00:06:17.20	152.18	10.31	-41.9	-43.2	20.3	0.00e+00	0	39	0	164626432	58	5874
2026-01-03 00:06:18.21	152.18	10.40	-41.9	-43.2	20.3	0.00e+00	0	39	0	166723584	58	5874
2026-01-03 00:06:19.22	152.17	10.49	-41.9	-43.2	20.3	0.00e+00	0	39	0	168820736	58	5866
2026-01-03 00:06:20.23	152.17	10.58	-41.9	-43.3	20.3	0.00e+00	0	39	0	170917888	58	5898
2026-01-03 00:06:21.24	152.17	10.67	-41.8	-43.1	20.4	0.00e+00	0	39	0	171966464	58	5794
2026-01-03 00:06:22.25	152.16	10.76	-41.7	-43.0	20.4	0.00e+00	0	39	0	174063616	58	5757
2026-01-03 00:06:23.26	152.16	10.86	-41.8	-43.1	20.5	0.00e+00	0	39	0	176160768	56	6501
2026-01-03 00:06:24.27	152.15	10.95	-41.9	-43.2	20.4	0.00e+00	0	39	0	178257920	56	6579
2026-01-03 00:06:25.28	152.15	11.04	-41.8	-43.1	20.5	0.00e+00	0	39	0	180355072	56	6470
2026-01-03 00:06:26.29	152.14	11.13	-41.7	-43.0	20.5	0.00e+00	0	39	0	181403648	56	6442
2026-01-03 00:06:27.30	152.14	11.22	-41.6	-42.9	20.7	0.00e+00	0	39	0	183500800	56	6330
2026-01-03 00:06:28.31	152.13	11.32	-41.7	-42.9	20.6	0.00e+00	0	39	0	185597952	56	6372
2026-01-03 00:06:29.32	152.12	11.41	-41.6	-42.9	20.7	0.00e+00	0	39	0	187695104	56	6336
2026-01-03 00:06:30.33	152.12	11.50	-41.5	-42.8	20.8	0.00e+00	0	39	0	189792256	56	6262
2026-01-03 00:06:31.34	152.11	11.60	-41.5	-42.8	20.8	0.00e+00	0	39	0	190840832	56	6258
2026-01-03 00:06:32.35	152.11	11.69	-41.6	-42.9	20.7	0.00e+00	0	39	0	192937984	56	6333
2026-01-03 00:06:33.36	152.10	11.79	-41.5	-42.7	20.9	0.00e+00	0	39	0	195035136	56	6203
2026-01-03 00:06:34.37	152.10	11.88	-41.6	-42.8	20.7	0.00e+00	0	39	0	197132288	56	6291
2026-01-03 00:06:35.38	152.09	11.98	-41.3	-42.5	21.0	0.00e+00	0	39	0	199229440	56	6096
2026-01-03 00:06:36.39	152.09	12.07	-41.3	-42.5	21.1	0.00e+00	0	39	0	200278016	56	6088
2026-01-03 00:06:37.40	152.08	12.17	-41.4	-42.6	20.9	0.00e+00	0	39	0	202375168	56	6146
2026-01-03 00:06:38.41	152.08	12.26	-41.3	-42.5	21.1	0.00e+00	0	39	0	204472320	56	6046
2026-01-03 00:06:39.42	152.07	12.36	-41.2	-42.4	21.2	0.00e+00	0	39	0	206569472	56	5982
2026-01-03 00:06:40.42	152.06	12.46	-41.2	-42.4	21.2	0.00e+00	0	39	0	208666624	56	5965
2026-01-03 00:06:41.44	152.06	12.56	-41.1	-42.3	21.3	0.00e+00	0	39	0	209715200	56	5916
2026-01-03 00:06:42.45	152.05	12.65	-41.1	-42.3	21.3	0.00e+00	0	39	0	211812352	56	5922
2026-01-03 00:06:43.45	152.05	12.75	-41.1	-42.3	21.3	0.00e+00	0	39	0	213909504	56	5912
2026-01-03 00:06:44.46	152.04	12.85	-41.1	-42.3	21.4	0.00e+00	0	39	0	216006656	56	5931
2026-01-03 00:06:45.47	152.03	12.95	-40.9	-42.0	21.5	0.00e+00	0	39	0	218103808	56	5761
2026-01-03 00:06:46.48	152.03	13.05	-41.1	-42.3	21.3	0.00e+00	0	39	0	220200960	56	5897
2026-01-03 00:06:47.50	152.02	13.15	-40.9	-42.0	21.6	0.00e+00	0	39	0	221249536	56	5737
2026-01-03 00:06:48.50	152.01	13.25	-41.0	-42.2	21.4	0.00e+00	0	39	0	223346688	56	5841
2026-01-03 00:06:49.51	152.01	13.35	-40.8	-42.0	21.6	0.00e+00	0	39	0	225443840	56	5708
2026-01-03 00:06:50.52	152.00	13.45	-41.0	-42.1	21.5	0.00e+00	0	39	0	227540992	56	5793
2026-01-03 00:06:51.53	152.00	13.55	-40.8	-42.0	21.7	0.00e+00	0	39	0	229638144	56	5696
2026-01-03 00:06:52.54	151.99	13.66	-40.7	-41.8	21.8	0.00e+00	0	39	0	230686720	54	6254
2026-01-03 00:06:53.55	151.98	13.76	-40.7	-41.8	21.7	0.00e+00	0	39	0	232783872	54	6253
2026-01-03 00:06:54.56	151.98	13.86	-40.7	-41.8	21.8	0.00e+00	0	39	0	234881024	54	6249
2026-01-03 00:06:55.57	151.97	13.96	-40.6	-41.7	21.8	0.00e+00	0	39	0	236978176	54	6183
2026-01-03 00:06:56.58	151.96	14.07	-40.6	-41.7	21.8	0.00e+00	0	39	0	239075328	54	6187
2026-01-03 00:06:57.59	151.95	14.17	-40.7	-41.8	21.8	0.00e+00	0	39	0	240123904	54	6259
2026-01-03 00:06:58.60	151.95	14.28	-40.6	-41.7	21.9	0.00e+00	0	39	0	242221056	54	6179
2026-01-03 00:06:59.61	151.94	14.38	-40.6	-41.6	21.9	0.00e+00	0	39	0	244318208	54	6163
2026-01-03 00:07:00.62	151.93	14.49	-40.5	-41.6	21.9	0.00e+00	0	39	0	246415360	54	6117
2026-01-03 00:07:01.63	151.93	14.59	-40.7	-41.8	21.8	0.00e+00	0	39	0	248512512	54	6259
2026-01-03 00:07:02.64	151.92	14.70	-40.4	-41.5	22.0	0.00e+00	0	39	0	249561088	54	6079
2026-01-03 00:07:03.64	151.91	14.81	-40.5	-41.6	22.0	0.00e+00	0	39	0	251658240	54	6116
2026-01-03 00:07:04.65	151.90	14.92	-40.6	-41.6	21.9	0.00e+00	0	39	0	253755392	54	6163
2026-01-03 00:07:05.66	151.90	15.02	-40.5	-41.6	21.9	0.00e+00	0	39	0	255852544	54	6143
2026-01-03 00:07:06.67	151.89	15.13	-40.6	-41.7	21.9	0.00e+00	0	39	0	257949696	54	6179
2026-01-03 00:07:07.68	151.88	15.24	-40.5	-41.6	21.9	0.00e+00	0	39	0	258998272	54	6146
2026-01-03 00:07:08.69	151.87	15.35	-40.6	-41.7	21.9	0.00e+00	0	39	0	261095424	54	6176
2026-01-03 00:07:09.70	151.87	15.46	-40.4	-41.4	22.1	0.00e+00	0	39	0	263192576	54	6028
2026-01-03 00:07:10.71	151.86	15.57	-40.5	-41.6	22.0	0.00e+00	0	39	0	265289728	54	6129
2026-01-03 00:07:11.72	151.85	15.68	-40.4	-41.4	22.1	0.00e+00	0	39	0	267386880	54	6024
2026-01-03 00:07:12.73	151.84	15.79	-40.3	-41.3	22.3	0.00e+00	0	39	0	268435456	54	5927
2026-01-03 00:07:13.74	151.83	15.90	-40.3	-41.3	22.2	0.00e+00	0	39	0	270532608	54	5954
2026-01-03 00:07:14.75	151.83	16.02	-40.3	-41.4	22.2	0.00e+00	0	39	0	272629760	54	5965
2026-01-03 00:07:15.76	151.82	16.13	-40.2	-41.2	22.3	0.00e+00	0	39	0	274726912	54	5861
2026-01-03 00:07:16.77	151.81	16.24	-40.3	-41.3	22.3	0.00e+00	0	39	0	276824064	54	5932
2026-01-03 00:07:17.78	151.80	16.36	-40.1	-41.1	22.5	0.00e+00	0	39	0	277872640	54	5785
2026-01-03 00:07:18.79	151.79	16.47	-40.3	-41.3	22.2	0.00e+00	0	39	0	279969792	54	5951
2026-01-03 00:07:19.79	151.78	16.59	-40.1	-41.2	22.4	0.00e+00	0	39	0	282066944	54	5831
2026-01-03 00:07:20.81	151.77	16.70	-39.9	-40.9	22.6	0.00e+00	0	39	0	284164096	54	5679
2026-01-03 00:07:21.81	151.76	16.82	-39.9	-40.9	22.7	0.00e+00	0	39	0	286261248	54	5644
2026-01-03 00:07:22.83	151.76	16.94	-40.0	-41.0	22.5	0.00e+00	0	39	0	288358400	54	5738
2026-01-03 00:07:23.84	151.75	17.05	-40.1	-41.1	22.5	0.00e+00	0	39	0	289406976	54	5801
2026-01-03 00:07:24.85	151.74	17.17	-39.9	-40.9	22.7	0.00e+00	0	39	0	291504128	54	5676
2026-01-03 00:07:25.85	151.73	17.29	-39.9	-40.9	22.7	0.00e+00	0	39	0	293601280	54	5648
2026-01-03 00:07:26.86	151.72	17.41	-39.8	-40.8	22.8	0.00e+00	0	39	0	295698432	52	6247
2026-01-03 00:07:27.87	151.71	17.53	-39.7	-40.6	23.0	0.00e+00	0	39	0	297795584	52	6162
2026-01-03 00:07:28.88	151.70	17.65	-39.7	-40.6	22.9	0.00e+00	0	39	0	298844160	52	6172
2026-01-03 00:07:29.89	151.69	17.77	-39.8	-40.8	22.9	0.00e+00	0	39	0	300941312	52	6265
2026-01-03 00:07:30.90	151.68	17.89	-39.6	-40.6	23.0	0.00e+00	0	39	0	303038464	52	6128
2026-01-03 00:07:31.91	151.67	18.01	-39.6	-40.5	23.1	0.00e+00	0	39	0	305135616	52	6080
2026-01-03 00:07:32.92	151.66	18.14	-39.5	-40.5	23.1	0.00e+00	0	39	0	307232768	52	6055
2026-01-03 00:07:33.93	151.65	18.26	-39.5	-40.4	23.2	0.00e+00	0	39	0	308281344	52	6008
2026-01-03 00:07:34.94	151.64	18.38	-39.6	-40.5	23.0	0.00e+00	0	39	0	310378496	52	6089
2026-01-03 00:07:35.95	151.63	18.51	-39.4	-40.3	23.3	0.00e+00	0	39	0	312475648	52	5939
2026-01-03 00:07:36.95	151.62	18.63	-39.3	-40.2	23.4	0.00e+00	0	39	0	314572800	52	5891
2026-01-03 00:07:37.97	151.61	18.76	-39.3	-40.2	23.4	0.00e+00	0	39	0	316669952	52	5880
2026-01-03 00:07:38.98	151.60	18.88	-39.4	-40.3	23.3	0.00e+00	0	39	0	317718528	52	5919
2026-01-03 00:07:39.99	151.59	19.01	-39.3	-40.2	23.5	0.00e+00	0	39	0	319815680	52	5863
2026-01-03 00:07:41.00	151.58	19.14	-39.4	-40.3	23.3	0.00e+00	0	39	0	321912832	52	5915
2026-01-03 00:07:42.01	151.56	19.27	-39.4	-40.3	23.3	0.00e+00	0	39	0	324009984	52	5930
2026-01-03 00:07:43.01	151.55	19.40	-39.4	-40.3	23.3	0.00e+00	0	39	0	326107136	52	5953
2026-01-03 00:07:44.02	151.54	19.52	-39.2	-40.1	23.5	0.00e+00	0	39	0	327155712	52	5816
2026-01-03 00:07:45.03	151.53	19.66	-39.3	-40.3	23.4	0.00e+00	0	39	0	329252864	52	5899
2026-01-03 00:07:46.04	151.52	19.79	-39.2	-40.1	23.6	0.00e+00	0	39	0	331350016	52	5772
2026-01-03 00:07:47.05	151.51	19.92	-39.3	-40.2	23.5	0.00e+00	0	39	0	333447168	52	5867
2026-01-03 00:07:48.06	151.50	20.05	-39.2	-40.1	23.5	0.00e+00	0	39	0	335544320	52	5816
2026-01-03 00:07:49.07	151.48	20.18	-39.2	-40.1	23.5	0.00e+00	0	39	0	336592896	52	5804
2026-01-03 00:07:50.08	151.47	20.32	-39.3	-40.3	23.4	0.00e+00	0	39	0	338690048	52	5899
2026-01-03 00:07:51.09	151.46	20.45	-39.2	-40.1	23.5	0.00e+00	0	39	0	340787200	52	5792
2026-01-03 00:07:52.10	151.45	20.59	-39.3	-40.2	23.4	0.00e+00	0	39	0	342884352	52	5880
2026-01-03 00:07:53.11	151.43	20.72	-39.2	-40.1	23.4	0.00e+00	0	39	0	344981504	52	5805
2026-01-03 00:07:54.12	151.42	20.86	-39.2	-40.1	23.5	0.00e+00	0	39	0	346030080	52	5805
2026-01-03 00:07:55.13	151.41	21.00	-39.1	-40.0	23.5	0.00e+00	0	39	0	348127232	52	5752
2026-01-03 00:07:56.14	151.40	21.14	-39.1	-40.0	23.7	0.00e+00	0	39	0	350224384	52	5749
2026-01-03 00:07:57.15	151.38	21.28	-39.3	-40.2	23.5	0.00e+00	0	39	0	352321536	52	5852
2026-01-03 00:07:58.15	151.37	21.41	-39.2	-40.1	23.5	0.00e+00	0	39	0	354418688	52	5827
2026-01-03 00:07:59.16	151.36	21.55	-39.3	-40.2	23.4	0.00e+00	0	39	0	356515840	52	5879
2026-01-03 00:08:00.17	151.34	21.70	-39.3	-40.2	23.5	0.00e+00	0	39	0	357564416	52	5872
2026-01-03 00:08:01.18	151.33	21.84	-39.2	-40.2	23.5	0.00e+00	0	39	0	359661568	52	5832
2026-01-03 00:08:02.19	151.32	21.98	-39.2	-40.1	23.5	0.00e+00	0	39	0	361758720	52	5800
2026-01-03 00:08:03.20	151.30	22.12	-39.2	-40.1	23.7	0.00e+00	0	39	0	363855872	52	5776
2026-01-03 00:08:04.21	151.29	22.27	-39.1	-40.0	23.7	0.00e+00	0	39	0	365953024	52	5713
2026-01-03 00:08:05.22	151.27	22.41	-39.1	-40.0	23.8	0.00e+00	0	39	0	367001600	52	5710
2026-01-03 00:08:06.23	151.26	22.56	-39.0	-39.9	23.8	0.00e+00	0	39	0	369098752	52	5642
2026-01-03 00:08:07.24	151.24	22.71	-39.1	-40.0	23.7	0.00e+00	0	39	0	371195904	52	5712
2026-01-03 00:08:08.25	151.23	22.86	-39.2	-40.1	23.7	0.00e+00	0	39	0	373293056	52	5764
2026-01-03 00:08:09.26	151.21	23.00	-39.3	-40.2	23.5	0.00e+00	0	39	0	375390208	52	5847
2026-01-03 00:08:10.27	151.20	23.15	-39.0	-39.9	23.7	0.00e+00	0	39	0	376438784	52	5642
2026-01-03 00:08:11.28	151.18	23.31	-39.2	-40.1	23.6	0.00e+00	0	39	0	378535936	52	5811
2026-01-03 00:08:12.29	151.17	23.46	-38.9	-39.7	23.9	0.00e+00	0	39	0	380633088	52	5561
2026-01-03 00:08:13.30	151.15	23.61	-39.0	-39.9	23.8	0.00e+00	0	39	0	382730240	52	5644
2026-01-03 00:08:14.31	151.14	23.76	-39.0	-39.9	23.8	0.00e+00	0	39	0	384827392	52	5638
2026-01-03 00:08:15.32	151.12	23.92	-38.9	-39.8	23.9	0.00e+00	0	39	0	385875968	52	5616
2026-01-03 00:08:16.33	151.10	24.07	-38.9	-39.8	23.9	0.00e+00	0	39	0	387973120	52	5602
2026-01-03 00:08:17.34	151.09	24.23	-38.9	-39.8	23.9	0.00e+00	0	39	0	390070272	52	5572
2026-01-03 00:08:18.35	151.07	24.38	-39.0	-39.9	23.8	0.00e+00	0	39	0	392167424	52	5675
2026-01-03 00:08:19.36	151.05	24.54	-39.1	-39.9	23.8	0.00e+00	0	39	0	394264576	52	5695
2026-01-03 00:08:20.37	151.04	24.70	-38.9	-39.8	23.9	0.00e+00	0	39	0	395313152	52	5612
2026-01-03 00:08:21.38	151.02	24.86	-38.9	-39.8	23.9	0.00e+00	0	39	0	397410304	52	5567
2026-01-03 00:08:22.39	151.00	25.02	-38.9	-39.8	23.8	0.00e+00	0	39	0	399507456	52	5617
2026-01-03 00:08:23.40	150.99	25.18	-39.0	-39.9	23.8	0.00e+00	0	39	0	401604608	52	5646
2026-01-03 00:08:24.41	150.97	25.35	-39.1	-40.0	23.7	0.00e+00	0	39	0	403701760	52	5706
2026-01-03 00:08:25.42	150.95	25.51	-39.1	-40.0	23.7	0.00e+00	0	39	0	404750336	52	5746
2026-01-03 00:08:26.43	150.93	25.67	-39.3	-40.2	23.6	0.00e+00	0	39	0	406847488	52	5847
2026-01-03 00:08:27.44	150.91	25.84	-39.2	-40.1	23.6	0.00e+00	0	39	0	408944640	52	5805
2026-01-03 00:08:28.45	150.89	26.01	-39.2	-40.0	23.6	0.00e+00	0	39	0	411041792	52	5757
2026-01-03 00:08:29.46	150.87	26.17	-39.2	-40.1	23.7	0.00e+00	0	39	0	413138944	52	5794
2026-01-03 00:08:30.47	150.86	26.34	-39.5	-40.5	23.2	0.00e+00	0	39	0	414187520	52	6040
2026-01-03 00:08:31.48	150.84	26.51	-39.5	-40.4	23.4	0.00e+00	0	39	0	416284672	52	5989
2026-01-03 00:08:32.49	150.82	26.68	-39.4	-40.3	23.4	0.00e+00	0	39	0	418381824	52	5949
2026-01-03 00:08:33.50	150.80	26.86	-39.5	-40.5	23.3	0.00e+00	0	39	0	420478976	52	6036
2026-01-03 00:08:34.51	150.78	27.03	-39.7	-40.6	23.2	0.00e+00	0	39	0	422576128	52	6134
2026-01-03 00:08:35.52	150.75	27.20	-39.8	-40.7	23.1	0.00e+00	0	39	0	424673280	52	6205
2026-01-03 00:08:36.53	150.73	27.38	-39.9	-40.8	23.0	0.00e+00	0	39	0	425721856	52	6309
2026-01-03 00:08:37.54	150.71	27.55	-39.8	-40.7	23.1	0.00e+00	0	39	0	427819008	52	6244
2026-01-03 00:08:38.55	150.69	27.73	-40.0	-41.0	22.9	0.00e+00	0	39	0	429916160	52	6395
2026-01-03 00:08:39.56	150.67	27.91	-40.1	-41.1	22.7	0.00e+00	0	39	0	432013312	52	6505
2026-01-03 00:08:40.57	150.65	28.09	-40.2	-41.2	22.7	0.00e+00	0	39	0	434110464	52	6565
2026-01-03 00:08:41.58	150.63	28.27	-40.3	-41.4	22.5	0.00e+00	0	39	0	435159040	52	6693
2026-01-03 00:08:42.59	150.60	28.45	-40.5	-41.5	22.4	0.00e+00	0	39	0	437256192	52	6818
2026-01-03 00:08:43.60	150.58	28.64	-40.7	-41.7	22.2	0.00e+00	0	39	0	439353344	52	6965
2026-01-03 00:08:44.61	150.56	28.82	-40.8	-41.9	22.1	0.00e+00	0	39	0	441450496	54	6341
2026-01-03 00:08:45.62	150.53	29.01	-40.8	-41.8	22.1	0.00e+00	0	39	0	443547648	54	6306
2026-01-03 00:08:46.63	150.51	29.19	-40.8	-41.9	22.1	0.00e+00	0	39	0	444596224	54	6333
2026-01-03 00:08:47.64	150.49	29.38	-40.8	-41.9	22.0	0.00e+00	0	39	0	446693376	54	6339
2026-01-03 00:08:48.65	150.46	29.57	-40.9	-41.9	22.0	0.00e+00	0	39	0	448790528	54	6377
2026-01-03 00:08:49.66	150.44	29.76	-41.0	-42.0	21.9	0.00e+00	0	39	0	450887680	54	6455
2026-01-03 00:08:50.67	150.41	29.96	-41.0	-42.1	21.8	0.00e+00	0	39	0	452984832	54	6487
2026-01-03 00:08:51.68	150.39	30.15	-41.2	-42.3	21.7	0.00e+00	0	39	0	454033408	54	6671
2026-01-03 00:08:52.69	150.36	30.34	-41.4	-42.5	21.5	0.00e+00	0	39	0	456130560	54	6790
2026-01-03 00:08:53.70	150.34	30.54	-41.5	-42.7	21.2	0.00e+00	0	39	0	458227712	54	6955
2026-01-03 00:08:54.71	150.31	30.74	-41.8	-42.9	21.1	0.00e+00	0	39	0	460324864	54	7164
2026-01-03 00:08:55.72	150.28	30.94	-41.9	-43.1	21.1	0.00e+00	0	39	0	462422016	56	6470
2026-01-03 00:08:56.73	150.26	31.14	-41.8	-43.0	21.1	0.00e+00	0	39	0	463470592	56	6438
2026-01-03 00:08:57.74	150.23	31.34	-42.0	-43.3	20.9	0.00e+00	0	39	0	465567744	56	6619
2026-01-03 00:08:58.75	150.20	31.54	-42.2	-43.4	20.7	0.00e+00	0	39	0	467664896	56	6737
2026-01-03 00:08:59.76	150.17	31.74	-42.3	-43.6	20.6	0.00e+00	0	39	0	469762048	56	6908
2026-01-03 00:09:00.77	150.14	31.95	-42.5	-43.9	20.4	0.00e+00	0	39	0	471859200	56	7093
2026-01-03 00:09:01.78	150.11	32.16	-42.6	-43.9	20.4	0.00e+00	0	39	0	472907776	56	7124
2026-01-03 00:09:02.78	150.08	32.36	-42.7	-44.1	20.1	0.00e+00	0	39	0	475004928	56	7289
2026-01-03 00:09:03.79	150.05	32.57	-42.8	-44.1	20.1	0.00e+00	0	39	0	477102080	58	6533
2026-01-03 00:09:04.80	150.02	32.78	-42.5	-43.9	20.3	0.00e+00	0	39	0	479199232	58	6319
2026-01-03 00:09:05.82	149.99	33.00	-42.5	-43.8	20.2	0.00e+00	0	39	0	481296384	58	6315
2026-01-03 00:09:06.83	149.96	33.21	-42.2	-43.5	20.7	0.00e+00	0	39	0	482344960	58	6066
2026-01-03 00:09:07.84	149.93	33.43	-42.2	-43.4	20.8	0.00e+00	0	39	0	484442112	58	6031
2026-01-03 00:09:08.84	149.90	33.65	-42.2	-43.5	20.8	0.00e+00	0	39	0	486539264	58	6075
2026-01-03 00:09:09.85	149.87	33.86	-41.9	-43.1	21.1	0.00e+00	0	39	0	488636416	58	5800
2026-01-03 00:09:10.86	149.83	34.08	-41.8	-43.0	21.2	0.00e+00	0	39	0	490733568	56	6399
2026-01-03 00:09:11.87	149.80	34.31	-41.2	-42.3	21.8	0.00e+00	0	39	0	492830720	56	5941
2026-01-03 00:09:12.88	149.76	34.53	-41.2	-42.2	21.9	0.00e+00	0	39	0	493879296	56	5896
2026-01-03 00:09:13.89	149.73	34.76	-40.9	-42.0	22.1	0.00e+00	0	39	0	495976448	56	5715
2026-01-03 00:09:14.90	149.69	34.98	-40.6	-41.6	22.4	0.00e+00	0	39	0	498073600	54	6120
2026-01-03 00:09:15.91	149.66	35.21	-40.0	-41.0	22.9	0.00e+00	0	39	0	500170752	54	5729
2026-01-03 00:09:16.92	149.62	35.44	-40.0	-40.9	23.0	0.00e+00	0	39	0	502267904	54	5672
2026-01-03 00:09:17.93	149.59	35.67	-39.7	-40.6	23.3	0.00e+00	0	39	0	503316480	52	6163
2026-01-03 00:09:18.94	149.55	35.91	-39.4	-40.3	23.6	0.00e+00	0	39	0	505413632	52	5910
2026-01-03 00:09:19.95	149.51	36.14	-39.4	-40.3	23.6	0.00e+00	0	39	0	507510784	52	5955
2026-01-03 00:09:20.96	149.47	36.38	-39.2	-40.1	23.8	0.00e+00	0	39	0	509607936	52	5769
2026-01-03 00:09:21.97	149.43	36.62	-38.8	-39.7	24.1	0.00e+00	0	39	0	511705088	52	5534
2026-01-03 00:09:22.99	149.39	36.86	-39.0	-39.8	24.1	0.00e+00	0	39	0	512753664	52	5610
2026-01-03 00:09:24.00	149.35	37.10	-38.9	-39.7	24.0	0.00e+00	0	39	0	514850816	50	6238
2026-01-03 00:09:25.00	149.31	37.34	-39.0	-39.9	24.1	0.00e+00	0	39	0	516947968	50	6338
2026-01-03 00:09:26.01	149.27	37.59	-38.9	-39.8	24.1	0.00e+00	0	39	0	519045120	50	6268
2026-01-03 00:09:27.02	149.23	37.84	-38.6	-39.5	24.3	0.00e+00	0	39	0	521142272	50	6055
2026-01-03 00:09:28.03	149.18	38.09	-38.7	-39.5	24.3	0.00e+00	0	39	0	522190848	50	6062
2026-01-03 00:09:29.04	149.14	38.34	-38.7	-39.5	24.3	0.00e+00	0	39	0	524288000	50	6057
2026-01-03 00:09:30.05	149.09	38.59	-38.7	-39.5	24.3	0.00e+00	0	39	0	526385152	50	6094
2026-01-03 00:09:31.06	149.05	38.85	-38.9	-39.8	24.1	0.00e+00	0	39	0	528482304	50	6252
2026-01-03 00:09:32.07	149.00	39.10	-39.1	-39.9	24.0	0.00e+00	0	39	0	530579456	50	6370
2026-01-03 00:09:33.08	148.95	39.36	-39.0	-39.9	24.0	0.00e+00	0	39	0	531628032	50	6337
2026-01-03 00:09:34.09	148.91	39.62	-39.6	-40.5	23.5	0.00e+00	0	39	0	533725184	50	6827
2026-01-03 00:09:35.10	148.86	39.88	-39.4	-40.3	23.6	0.00e+00	0	39	0	535822336	50	6625
2026-01-03 00:09:36.11	148.81	40.15	-39.5	-40.4	23.5	0.00e+00	0	39	0	537919488	50	6735
2026-01-03 00:09:37.12	148.76	40.41	-39.8	-40.7	23.2	0.00e+00	0	39	0	540016640	52	6242
2026-01-03 00:09:38.13	148.71	40.68	-40.2	-41.2	22.9	0.00e+00	0	39	0	541065216	52	6575
2026-01-03 00:09:39.14	148.65	40.95	-40.2	-41.2	22.9	0.00e+00	0	39	0	543162368	52	6541
2026-01-03 00:09:40.15	148.60	41.23	-40.3	-41.3	22.8	0.00e+00	0	39	0	545259520	52	6630
2026-01-03 00:09:41.16	148.55	41.50	-40.3	-41.3	22.7	0.00e+00	0	39	0	547356672	52	6668
2026-01-03 00:09:42.17	148.49	41.78	-40.6	-41.6	22.5	0.00e+00	0	39	0	549453824	52	6896
2026-01-03 00:09:43.18	148.44	42.06	-40.7	-41.8	22.3	0.00e+00	0	39	0	550502400	52	7039
2026-01-03 00:09:44.18	148.38	42.33	-40.8	-41.8	22.2	0.00e+00	0	39	0	552599552	54	6302
2026-01-03 00:09:45.19	148.32	42.62	-40.8	-41.8	22.3	0.00e+00	0	39	0	554696704	54	6278
2026-01-03 00:09:46.21	148.26	42.90	-40.4	-41.4	22.7	0.00e+00	0	39	0	556793856	54	5977
2026-01-03 00:09:47.22	148.20	43.19	-40.4	-41.3	22.7	0.00e+00	0	39	0	558891008	54	5961
2026-01-03 00:09:48.23	148.14	43.48	-40.5	-41.5	22.7	0.00e+00	0	39	0	560988160	54	6043
2026-01-03 00:09:49.24	148.08	43.77	-40.6	-41.6	22.4	0.00e+00	0	39	0	562036736	54	6170
2026-01-03 00:09:50.25	148.01	44.06	-40.5	-41.5	22.5	0.00e+00	0	39	0	564133888	54	6084
2026-01-03 00:09:51.26	147.95	44.36	-40.9	-42.0	22.2	0.00e+00	0	39	0	566231040	54	6397
2026-01-03 00:09:52.27	147.88	44.66	-40.7	-41.8	22.2	0.00e+00	0	39	0	568328192	54	6264
2026-01-03 00:09:53.28	147.81	44.96	-40.8	-41.9	22.2	0.00e+00	0	39	0	570425344	54	6343
2026-01-03 00:09:54.29	147.74	45.26	-41.0	-42.1	22.0	0.00e+00	0	39	0	571473920	54	6477
2026-01-03 00:09:55.29	147.67	45.56	-41.3	-42.4	21.7	0.00e+00	0	39	0	573571072	54	6734
2026-01-03 00:09:56.30	147.60	45.87	-41.7	-42.8	21.3	0.00e+00	0	39	0	575668224	54	7067
2026-01-03 00:09:57.31	147.53	46.18	-42.3	-43.5	20.8	0.00e+00	0	39	0	577765376	56	6816
2026-01-03 00:09:58.32	147.45	46.49	-42.5	-43.7	20.5	0.00e+00	0	39	0	579862528	56	6997
2026-01-03 00:09:59.33	147.37	46.80	-42.5	-43.9	20.4	0.00e+00	0	39	0	580911104	56	7089
2026-01-03 00:10:00.34	147.30	47.12	-42.8	-44.1	20.1	0.00e+00	0	39	0	583008256	58	6538
2026-01-03 00:10:01.36	147.21	47.44	-42.8	-44.1	20.1	0.00e+00	0	39	0	585105408	58	6537
2026-01-03 00:10:02.36	147.13	47.76	-42.9	-44.2	20.0	0.00e+00	0	39	0	587202560	58	6615
2026-01-03 00:10:03.37	147.05	48.08	-43.0	-44.4	19.9	0.00e+00	0	39	0	589299712	58	6749
2026-01-03 00:10:04.38	146.96	48.40	-42.8	-44.2	20.1	0.00e+00	0	39	0	590348288	58	6556
2026-01-03 00:10:05.40	146.88	48.74	-42.7	-44.0	20.2	0.00e+00	0	39	0	592445440	58	6446
2026-01-03 00:10:06.41	146.79	49.07	-42.2	-43.5	20.8	0.00e+00	0	39	0	594542592	58	6039
2026-01-03 00:10:07.41	146.70	49.39	-41.7	-42.8	21.4	0.00e+00	0	39	0	596639744	56	6316
2026-01-03 00:10:08.42	146.60	49.73	-41.3	-42.4	21.8	0.00e+00	0	39	0	598736896	56	6016
2026-01-03 00:10:09.43	146.51	50.07	-40.9	-41.9	22.3	0.00e+00	0	39	0	599785472	56	5660
2026-01-03 00:10:10.44	146.41	50.41	-40.2	-41.1	23.0	0.00e+00	0	39	0	601882624	54	5804
2026-01-03 00:10:11.45	146.31	50.75	-39.7	-40.6	23.5	0.00e+00	0	39	0	603979776	52	6128
2026-01-03 00:10:12.46	146.21	51.09	-38.8	-39.7	24.2	0.00e+00	0	39	0	606076928	52	5518
2026-01-03 00:10:13.47	146.10	51.44	-38.4	-39.2	24.6	0.00e+00	0	39	0	608174080	50	5833
2026-01-03 00:10:14.48	146.00	51.79	-37.9	-38.7	25.0	0.00e+00	0	39	0	609222656	50	5512
2026-01-03 00:10:15.49	145.89	52.14	-37.9	-38.7	24.9	0.00e+00	0	39	0	611319808	50	5554
2026-01-03 00:10:16.50	145.77	52.49	-38.1	-38.9	24.8	0.00e+00	0	39	0	613416960	50	5663
2026-01-03 00:10:17.51	145.66	52.85	-38.4	-39.2	24.5	0.00e+00	0	39	0	615514112	50	5862
2026-01-03 00:10:18.52	145.54	53.21	-38.4	-39.2	24.5	0.00e+00	0	39	0	617611264	50	5866
2026-01-03 00:10:19.53	145.42	53.57	-38.3	-39.1	24.7	0.00e+00	0	39	0	618659840	50	5777
2026-01-03 00:10:20.54	145.29	53.94	-38.5	-39.3	24.5	0.00e+00	0	39	0	620756992	50	5964
2026-01-03 00:10:21.55	145.16	54.30	-38.6	-39.4	24.3	0.00e+00	0	39	0	622854144	50	6002
2026-01-03 00:10:22.56	145.03	54.67	-38.7	-39.5	24.2	0.00e+00	0	39	0	624951296	50	6090
2026-01-03 00:10:23.56	144.90	55.04	-38.9	-39.7	24.0	0.00e+00	0	39	0	627048448	50	6226
2026-01-03 00:10:24.57	144.76	55.41	-39.4	-40.3	23.6	0.00e+00	0	39	0	629145600	50	6632
2026-01-03 00:10:25.58	144.62	55.79	-39.9	-40.9	23.1	0.00e+00	0	39	0	630194176	52	6349
2026-01-03 00:10:26.59	144.47	56.17	-40.0	-41.0	23.0	0.00e+00	0	39	0	632291328	52	6408
2026-01-03 00:10:27.60	144.32	56.55	-40.5	-41.5	22.5	0.00e+00	0	39	0	634388480	52	6824
2026-01-03 00:10:28.61	144.16	56.93	-41.2	-42.2	21.9	0.00e+00	0	39	0	636485632	54	6605
2026-01-03 00:10:29.62	144.00	57.32	-41.8	-43.0	21.1	0.00e+00	0	39	0	638582784	54	7245
2026-01-03 00:10:30.63	143.84	57.70	-42.6	-44.0	20.4	0.00e+00	0	39	0	639631360	56	7191
2026-01-03 00:10:31.64	143.67	58.09	-43.1	-44.5	19.6	0.00e+00	0	39	0	641728512	58	6813
2026-01-03 00:10:32.65	143.50	58.49	-44.1	-45.8	18.6	0.00e+00	0	39	0	643825664	60	7032
2026-01-03 00:10:33.66	143.32	58.88	-44.1	-45.8	18.5	0.00e+00	0	39	0	645922816	60	7084
2026-01-03 00:10:34.67	143.13	59.28	-44.0	-45.7	18.7	0.00e+00	0	39	0	648019968	60	6937
2026-01-03 00:10:35.68	142.94	59.68	-43.0	-44.4	20.0	0.00e+00	0	39	0	649068544	60	6025
2026-01-03 00:10:36.69	142.74	60.08	-42.4	-43.7	20.6	0.00e+00	0	39	0	651165696	58	6230
2026-01-03 00:10:37.70	142.54	60.49	-41.8	-42.9	21.3	0.00e+00	0	39	0	653262848	56	6386
2026-01-03 00:10:38.71	142.33	60.89	-40.3	-41.2	22.9	0.00e+00	0	39	0	655360000	54	5877
2026-01-03 00:10:39.73	142.11	61.31	-39.7	-40.7	23.2	0.00e+00	0	39	0	657457152	54	5508
2026-01-03 00:10:40.74	141.89	61.72	-39.1	-40.0	24.0	0.00e+00	0	39	0	658505728	52	5699
2026-01-03 00:10:41.75	141.65	62.13	-38.8	-39.6	24.2	0.00e+00	0	39	0	660602880	50	6147
2026-01-03 00:10:42.76	141.41	62.55	-38.5	-39.3	24.4	0.00e+00	0	39	0	662700032	50	5943
2026-01-03 00:10:43.77	141.16	62.96	-38.0	-38.8	25.0	0.00e+00	0	39	0	664797184	50	5575
2026-01-03 00:10:44.78	140.91	63.38	-38.0	-38.7	24.9	0.00e+00	0	39	0	666894336	50	5560
2026-01-03 00:10:45.79	140.64	63.80	-37.9	-38.7	24.9	0.00e+00	0	39	0	667942912	50	5542
2026-01-03 00:10:46.80	140.36	64.23	-38.3	-39.1	24.6	0.00e+00	0	39	0	670040064	50	5787
2026-01-03 00:10:47.81	140.07	64.65	-38.4	-39.2	24.5	0.00e+00	0	39	0	672137216	50	5872
2026-01-03 00:10:48.82	139.77	65.08	-38.8	-39.6	24.2	0.00e+00	0	39	0	674234368	50	6148
2026-01-03 00:10:49.83	139.46	65.51	-39.1	-39.9	23.9	0.00e+00	0	39	0	676331520	50	6379
2026-01-03 00:10:50.84	139.14	65.94	-39.3	-40.1	23.8	0.00e+00	0	39	0	677380096	50	6534
2026-01-03 00:10:51.85	138.80	66.37	-39.6	-40.5	23.4	0.00e+00	0	39	0	679477248	50	6797
2026-01-03 00:10:52.86	138.45	66.80	-39.8	-40.7	23.3	0.00e+00	0	39	0	681574400	52	6235
2026-01-03 00:10:53.87	138.08	67.24	-39.9	-40.9	23.0	0.00e+00	0	39	0	683671552	52	6326
2026-01-03 00:10:54.87	137.71	67.67	-40.0	-40.9	23.0	0.00e+00	0	39	0	685768704	52	6370
2026-01-03 00:10:55.88	137.31	68.10	-40.4	-41.4	22.6	0.00e+00	0	39	0	686817280	52	6693
2026-01-03 00:10:56.89	136.89	68.54	-40.5	-41.5	22.6	0.00e+00	0	39	0	688914432	52	6835
2026-01-03 00:10:57.91	136.45	68.99	-40.1	-41.1	23.0	0.00e+00	0	39	0	691011584	52	6488
2026-01-03 00:10:58.91	136.00	69.42	-39.9	-40.8	23.1	0.00e+00	0	39	0	693108736	52	6311
2026-01-03 00:10:59.92	135.53	69.86	-39.9	-40.8	23.2	0.00e+00	0	39	0	695205888	52	6314
2026-01-03 00:11:00.93	135.03	70.30	-39.9	-40.8	23.3	0.00e+00	0	39	0	697303040	52	6298
2026-01-03 00:11:01.94	134.50	70.75	-39.7	-40.6	23.3	0.00e+00	0	39	0	698351616	52	6167
2026-01-03 00:11:02.95	133.95	71.19	-39.8	-40.8	23.2	0.00e+00	0	39	0	700448768	52	6263
2026-01-03 00:11:03.96	133.38	71.63	-39.9	-40.9	23.1	0.00e+00	0	39	0	702545920	52	6350
2026-01-03 00:11:04.97	132.77	72.07	-39.6	-40.5	23.5	0.00e+00	0	39	0	704643072	52	6097
2026-01-03 00:11:05.98	132.12	72.52	-39.4	-40.2	23.6	0.00e+00	0	39	0	706740224	52	5883
2026-01-03 00:11:06.99	131.45	72.96	-39.8	-40.7	23.3	0.00e+00	0	39	0	707788800	52	6233
2026-01-03 00:11:08.00	130.73	73.40	-40.4	-41.4	22.7	0.00e+00	0	39	0	709885952	52	6734
2026-01-03 00:11:09.01	129.97	73.84	-41.2	-42.3	21.9	0.00e+00	0	39	0	711983104	54	6644
2026-01-03 00:11:10.02	129.17	74.28	-41.7	-42.9	21.2	0.00e+00	0	39	0	714080256	54	7125
2026-01-03 00:11:11.03	128.32	74.72	-41.6	-42.8	21.4	0.00e+00	0	39	0	716177408	56	6260
2026-01-03 00:11:12.05	127.41	75.16	-41.3	-42.4	21.8	0.00e+00	0	39	0	717225984	56	5992
2026-01-03 00:11:13.05	126.46	75.58	-41.1	-42.2	22.0	0.00e+00	0	39	0	719323136	56	5855
2026-01-03 00:11:14.07	125.43	76.02	-40.6	-41.6	22.4	0.00e+00	0	39	0	721420288	54	6124
2026-01-03 00:11:15.07	124.36	76.44	-40.7	-41.7	22.3	0.00e+00	0	39	0	723517440	54	6238
2026-01-03 00:11:16.09	123.19	76.87	-41.6	-42.7	21.5	0.00e+00	0	39	0	725614592	54	6980
2026-01-03 00:11:17.10	121.95	77.29	-41.7	-42.8	21.4	0.00e+00	0	39	0	726663168	54	7064
2026-01-03 00:11:18.11	120.62	77.70	-41.1	-42.2	22.0	0.00e+00	0	39	0	728760320	54	6547
2026-01-03 00:11:19.12	119.20	78.11	-40.6	-41.7	22.4	0.00e+00	0	39	0	730857472	54	6175
2026-01-03 00:11:20.13	117.68	78.51	-39.9	-40.8	23.2	0.00e+00	0	39	0	732954624	54	5617
2026-01-03 00:11:21.14	116.04	78.90	-39.3	-40.2	23.7	0.00e+00	0	39	0	735051776	52	5860
2026-01-03 00:11:22.15	114.29	79.29	-39.0	-39.9	24.1	0.00e+00	0	39	0	736100352	52	5652
2026-01-03 00:11:23.16	112.40	79.66	-38.9	-39.8	24.1	0.00e+00	0	39	0	738197504	52	5581
2026-01-03 00:11:24.17	110.37	80.02	-38.8	-39.7	24.3	0.00e+00	0	39	0	740294656	52	5517
2026-01-03 00:11:25.18	108.19	80.38	-38.5	-39.4	24.4	0.00e+00	0	39	0	742391808	50	5980
2026-01-03 00:11:26.19	105.84	80.71	-39.5	-40.4	23.6	0.00e+00	0	39	0	744488960	50	6696
2026-01-03 00:11:27.20	103.32	81.03	-39.9	-40.8	23.3	0.00e+00	0	39	0	745537536	52	6295
2026-01-03 00:11:28.21	100.61	81.33	-40.2	-41.1	22.9	0.00e+00	0	39	0	747634688	52	6521
2026-01-03 00:11:29.22	97.71	81.62	-40.7	-41.7	22.4	0.00e+00	0	39	0	749731840	52	6949
2026-01-03 00:11:30.23	94.61	81.88	-41.2	-42.3	21.8	0.00e+00	0	39	0	751828992	54	6648
2026-01-03 00:11:31.24	91.32	82.11	-42.2	-43.4	21.0	0.00e+00	0	39	0	753926144	56	6724
2026-01-03 00:11:32.25	87.84	82.32	-42.6	-43.9	20.4	0.00e+00	0	39	0	754974720	56	7141
2026-01-03 00:11:33.26	84.17	82.50	-42.9	-44.3	20.1	0.00e+00	0	39	0	757071872	58	6648
2026-01-03 00:11:34.27	80.34	82.64	-42.6	-43.9	20.6	0.00e+00	0	39	0	759169024	58	6321
2026-01-03 00:11:35.28	76.37	82.76	-42.8	-44.1	20.3	0.00e+00	0	39	0	761266176	58	6513
2026-01-03 00:11:36.29	72.30	82.83	-42.9	-44.2	20.3	0.00e+00	0	39	0	763363328	58	6604
2026-01-03 00:11:37.30	68.16	82.87	-43.1	-44.5	19.9	0.00e+00	0	39	0	765460480	58	6811
2026-01-03 00:11:38.31	63.99	82.88	-43.3	-44.8	19.7	0.00e+00	0	39	0	766509056	58	7042
2026-01-03 00:11:39.32	59.84	82.84	-43.0	-44.3	19.8	0.00e+00	0	39	0	768606208	58	6689
2026-01-03 00:11:40.33	55.75	82.77	-42.8	-44.1	20.1	0.00e+00	0	39	0	770703360	58	6534
2026-01-03 00:11:41.34	51.76	82.67	-42.5	-43.8	20.4	0.00e+00	0	39	0	772800512	58	6278
2026-01-03 00:11:42.35	47.91	82.53	-42.7	-44.0	20.4	0.00e+00	0	39	0	774897664	58	6444
2026-01-03 00:11:43.36	44.21	82.35	-42.3	-43.6	20.6	0.00e+00	0	39	0	775946240	58	6126
2026-01-03 00:11:44.37	40.70	82.15	-42.7	-44.0	20.4	0.00e+00	0	39	0	778043392	58	6402
2026-01-03 00:11:45.38	37.37	81.92	-42.5	-43.7	20.6	0.00e+00	0	39	0	780140544	58	6231
2026-01-03 00:11:46.39	34.24	81.66	-41.6	-42.7	21.7	0.00e+00	0	39	0	782237696	56	6207
2026-01-03 00:11:47.40	31.31	81.39	-40.9	-42.0	22.3	0.00e+00	0	39	0	784334848	56	5700
2026-01-03 00:11:48.41	28.57	81.09	-40.9	-41.9	22.3	0.00e+00	0	39	0	785383424	56	5686
2026-01-03 00:11:49.42	26.02	80.77	-40.3	-41.3	22.9	0.00e+00	0	39	0	787480576	54	5912
2026-01-03 00:11:50.43	23.64	80.44	-40.2	-41.1	22.8	0.00e+00	0	39	0	789577728	54	5809
2026-01-03 00:11:51.44	21.43	80.09	-40.2	-41.1	23.1	0.00e+00	0	39	0	791674880	54	5815
2026-01-03 00:11:52.45	19.37	79.73	-39.6	-40.5	23.5	0.00e+00	0	39	0	793772032	52	6081
2026-01-03 00:11:53.46	17.46	79.35	-39.6	-40.5	23.4	0.00e+00	0	39	0	794820608	52	6075
2026-01-03 00:11:54.47	15.68	78.97	-40.3	-41.3	22.8	0.00e+00	0	39	0	796917760	52	6654
2026-01-03 00:11:55.48	14.03	78.58	-40.7	-41.8	22.4	0.00e+00	0	39	0	799014912	52	7016
2026-01-03 00:11:56.49	12.49	78.18	-41.2	-42.2	21.9	0.00e+00	0	39	0	801112064	54	6584
2026-01-03 00:11:57.50	11.05	77.78	-41.2	-42.3	21.9	0.00e+00	0	39	0	803209216	54	6639
2026-01-03 00:11:58.51	9.71	77.36	-41.0	-42.1	22.2	0.00e+00	0	39	0	805306368	54	6476
2026-01-03 00:11:59.52	8.46	76.95	-40.8	-41.8	22.3	0.00e+00	0	39	0	806354944	54	6267
2026-01-03 00:12:00.53	7.29	76.53	-41.1	-42.2	22.1	0.00e+00	0	39	0	808452096	54	6546
2026-01-03 00:12:01.54	6.19	76.10	-41.5	-42.6	21.5	0.00e+00	0	39	0	810549248	54	6887
2026-01-03 00:12:02.55	5.15	75.67	-41.7	-42.8	21.5	0.00e+00	0	39	0	812646400	56	6282
2026-01-03 00:12:03.56	4.19	75.24	-40.8	-41.8	22.5	0.00e+00	0	39	0	814743552	56	5601
2026-01-03 00:12:04.57	3.28	74.80	-40.5	-41.5	22.6	0.00e+00	0	39	0	815792128	54	6055
2026-01-03 00:12:05.58	2.42	74.37	-40.4	-41.4	22.5	0.00e+00	0	39	0	817889280	54	5991
2026-01-03 00:12:06.59	1.61	73.93	-40.2	-41.2	22.8	0.00e+00	0	39	0	819986432	54	5831
2026-01-03 00:12:07.60	0.84	73.49	-40.0	-40.9	23.2	0.00e+00	0	39	0	822083584	54	5689
2026-01-03 00:12:08.61	0.12	73.05	-39.8	-40.7	23.3	0.00e+00	0	39	0	824180736	52	6245
2026-01-03 00:12:09.62	359.44	72.61	-38.8	-39.7	24.3	0.00e+00	0	39	0	825229312	52	5528
2026-01-03 00:12:10.63	358.79	72.17	-38.5	-39.3	24.5	0.00e+00	0	39	0	827326464	50	5932
2026-01-03 00:12:11.64	358.17	71.73	-38.3	-39.1	24.8	0.00e+00	0	39	0	829423616	50	5783
2026-01-03 00:12:12.65	357.59	71.28	-38.6	-39.4	24.3	0.00e+00	0	39	0	831520768	50	6031
2026-01-03 00:12:13.66	357.03	70.84	-38.9	-39.8	24.3	0.00e+00	0	39	0	833617920	50	6259
2026-01-03 00:12:14.67	356.51	70.40	-39.0	-39.8	23.8	0.00e+00	0	39	0	834666496	50	6306
2026-01-03 00:12:15.68	356.00	69.96	-39.9	-40.9	23.2	0.00e+00	0	39	0	836763648	50	7128
2026-01-03 00:12:16.69	355.52	69.52	-40.6	-41.6	22.5	0.00e+00	0	39	0	838860800	52	6926
2026-01-03 00:12:17.70	355.06	69.08	-41.5	-42.7	21.3	0.00e+00	0	39	0	840957952	54	6968
2026-01-03 00:12:18.71	354.63	68.64	-42.8	-44.1	20.2	0.00e+00	0	39	0	843055104	56	7306
2026-01-03 00:12:19.72	354.21	68.20	-43.3	-44.8	19.3	0.00e+00	0	39	0	844103680	58	7060
2026-01-03 00:12:20.73	353.81	67.77	-44.0	-45.7	18.6	0.00e+00	0	39	0	846200832	60	6981
2026-01-03 00:12:21.74	353.42	67.33	-44.6	-46.5	17.9	0.00e+00	0	39	0	848297984	60	7612
2026-01-03 00:12:22.75	353.05	66.90	-44.6	-46.5	18.3	0.00e+00	0	39	0	850395136	60	7636
2026-01-03 00:12:23.76	352.70	66.47	-44.0	-45.6	18.8	0.00e+00	0	39	0	852492288	60	6921
2026-01-03 00:12:24.77	352.36	66.04	-43.4	-44.9	19.7	0.00e+00	0	39	0	853540864	60	6324
2026-01-03 00:12:25.78	352.04	65.61	-42.5	-43.8	20.5	0.00e+00	0	39	0	855638016	58	6271
2026-01-03 00:12:26.79	351.72	65.18	-41.5	-42.6	21.7	0.00e+00	0	39	0	857735168	56	6129
2026-01-03 00:12:27.80	351.42	64.75	-40.6	-41.7	22.5	0.00e+00	0	39	0	859832320	54	6184
2026-01-03 00:12:28.81	351.13	64.33	-39.5	-40.4	23.6	0.00e+00	0	39	0	861929472	52	5995
2026-01-03 00:12:29.81	350.86	63.91	-38.5	-39.3	24.7	0.00e+00	0	39	0	862978048	50	5919
2026-01-03 00:12:30.82	350.59	63.49	-38.5	-39.3	24.4	0.00e+00	0	39	0	865075200	50	5955
2026-01-03 00:12:31.83	350.33	63.07	-38.6	-39.4	24.4	0.00e+00	0	39	0	867172352	50	6005
2026-01-03 00:12:32.84	350.08	62.65	-37.9	-38.7	25.0	0.00e+00	0	39	0	869269504	50	5542
2026-01-03 00:12:33.85	349.83	62.24	-37.9	-38.6	25.1	0.00e+00	0	39	0	871366656	50	5492
2026-01-03 00:12:34.86	349.60	61.83	-37.8	-38.6	25.0	0.00e+00	0	39	0	873463808	48	6145
2026-01-03 00:12:35.87	349.37	61.42	-38.3	-39.2	24.5	0.00e+00	0	39	0	874512384	48	6543
2026-01-03 00:12:36.88	349.16	61.01	-38.6	-39.4	24.4	0.00e+00	0	39	0	876609536	48	6741
2026-01-03 00:12:37.89	348.94	60.60	-39.3	-40.2	23.7	0.00e+00	0	39	0	878706688	50	6575
2026-01-03 00:12:38.90	348.74	60.20	-40.4	-41.4	22.6	0.00e+00	0	39	0	880803840	52	6757
2026-01-03 00:12:39.91	348.54	59.80	-41.3	-42.5	21.7	0.00e+00	0	39	0	882900992	54	6793
2026-01-03 00:12:40.92	348.35	59.40	-41.5	-42.6	21.6	0.00e+00	0	39	0	883949568	54	6912
2026-01-03 00:12:41.93	348.16	59.00	-41.7	-42.8	21.4	0.00e+00	0	39	0	886046720	54	7087
2026-01-03 00:12:42.94	347.98	58.61	-41.3	-42.4	21.8	0.00e+00	0	39	0	888143872	54	6719
2026-01-03 00:12:43.95	347.81	58.21	-41.3	-42.4	21.8	0.00e+00	0	39	0	890241024	54	6708
2026-01-03 00:12:44.96	347.64	57.82	-41.3	-42.4	21.7	0.00e+00	0	39	0	892338176	54	6719
2026-01-03 00:12:45.97	347.47	57.44	-42.1	-43.3	21.0	0.00e+00	0	39	0	893386752	56	6635
2026-01-03 00:12:46.98	347.31	57.05	-42.2	-43.4	21.0	0.00e+00	0	39	0	895483904	56	6730
2026-01-03 00:12:47.99	347.16	56.67	-41.8	-43.0	21.4	0.00e+00	0	39	0	897581056	56	6460
2026-01-03 00:12:49.00	347.01	56.29	-41.1	-42.1	22.1	0.00e+00	0	39	0	899678208	56	5822
2026-01-03 00:12:50.01	346.86	55.91	-39.9	-40.9	23.2	0.00e+00	0	39	0	901775360	54	5666
2026-01-03 00:12:51.02	346.71	55.53	-39.2	-40.1	23.9	0.00e+00	0	39	0	902823936	52	5807
2026-01-03 00:12:52.03	346.58	55.16	-39.1	-40.0	24.0	0.00e+00	0	39	0	904921088	52	5710
2026-01-03 00:12:53.04	346.44	54.79	-39.1	-40.0	24.0	0.00e+00	0	39	0	907018240	52	5696
2026-01-03 00:12:54.05	346.31	54.42	-38.6	-39.4	24.4	0.00e+00	0	39	0	909115392	50	6005
2026-01-03 00:12:55.06	346.18	54.06	-38.3	-39.1	24.6	0.00e+00	0	39	0	911212544	50	5811
2026-01-03 00:12:56.07	346.05	53.69	-38.3	-39.1	24.7	0.00e+00	0	39	0	912261120	50	5773
2026-01-03 00:12:57.08	345.93	53.33	-38.4	-39.3	24.6	0.00e+00	0	39	0	914358272	50	5903
2026-01-03 00:12:58.09	345.81	52.97	-38.4	-39.3	24.6	0.00e+00	0	39	0	916455424	50	5904
2026-01-03 00:12:59.10	345.70	52.62	-38.6	-39.4	24.5	0.00e+00	0	39	0	918552576	50	6001
2026-01-03 00:13:00.11	345.58	52.26	-38.8	-39.7	24.2	0.00e+00	0	39	0	920649728	50	6181
2026-01-03 00:13:01.12	345.47	51.91	-39.6	-40.5	23.5	0.00e+00	0	39	0	921698304	50	6838
2026-01-03 00:13:02.13	345.37	51.56	-40.3	-41.3	22.8	0.00e+00	0	39	0	923795456	52	6624
2026-01-03 00:13:03.14	345.26	51.22	-41.0	-42.1	22.0	0.00e+00	0	39	0	925892608	54	6471
2026-01-03 00:13:04.15	345.16	50.87	-41.2	-42.3	21.8	0.00e+00	0	39	0	927989760	54	6673
2026-01-03 00:13:05.16	345.06	50.53	-41.6	-42.8	21.5	0.00e+00	0	39	0	930086912	54	7048
2026-01-03 00:13:06.17	344.96	50.19	-41.6	-42.7	21.5	0.00e+00	0	39	0	931135488	54	7004
2026-01-03 00:13:07.18	344.86	49.86	-41.9	-43.1	21.3	0.00e+00	0	39	0	933232640	56	6471
2026-01-03 00:13:08.19	344.77	49.52	-41.9	-43.1	21.1	0.00e+00	0	39	0	935329792	56	6508
2026-01-03 00:13:09.20	344.68	49.19	-42.0	-43.2	21.2	0.00e+00	0	39	0	937426944	56	6562
2026-01-03 00:13:10.21	344.59	48.86	-42.2	-43.5	20.9	0.00e+00	0	39	0	939524096	56	6782
2026-01-03 00:13:11.22	344.50	48.53	-43.1	-44.6	19.8	0.00e+00	0	39	0	941621248	58	6857
2026-01-03 00:13:12.23	344.42	48.21	-44.1	-45.8	18.7	0.00e+00	0	39	0	942669824	60	7042
2026-01-03 00:13:13.24	344.33	47.89	-43.7	-45.4	19.1	0.00e+00	0	39	0	944766976	60	6700
2026-01-03 00:13:14.25	344.25	47.57	-42.8	-44.2	20.0	0.00e+00	0	39	0	946864128	60	5876
2026-01-03 00:13:15.26	344.17	47.25	-42.0	-43.2	21.2	0.00e+00	0	39	0	948961280	58	5891
2026-01-03 00:13:16.27	344.09	46.93	-40.7	-41.7	22.6	0.00e+00	0	39	0	951058432	56	5553
2026-01-03 00:13:17.28	344.01	46.62	-40.3	-41.2	23.0	0.00e+00	0	39	0	952107008	54	5891
2026-01-03 00:13:18.29	343.94	46.31	-40.1	-41.1	23.1	0.00e+00	0	39	0	954204160	54	5782
2026-01-03 00:13:19.30	343.87	46.00	-40.7	-41.7	22.5	0.00e+00	0	39	0	956301312	54	6239
2026-01-03 00:13:20.31	343.79	45.70	-41.3	-42.4	21.9	0.00e+00	0	39	0	958398464	54	6704
2026-01-03 00:13:21.32	343.72	45.39	-42.0	-43.3	21.1	0.00e+00	0	39	0	960495616	56	6622
2026-01-03 00:13:22.33	343.65	45.09	-42.5	-43.9	20.5	0.00e+00	0	39	0	961544192	56	7090
2026-01-03 00:13:23.34	343.59	44.79	-42.9	-44.3	20.1	0.00e+00	0	39	0	963641344	58	6659
2026-01-03 00:13:24.35	343.52	44.49	-42.5	-43.9	20.6	0.00e+00	0	39	0	965738496	58	6334
2026-01-03 00:13:25.36	343.45	44.20	-42.1	-43.4	21.0	0.00e+00	0	39	0	967835648	58	6009
2026-01-03 00:13:26.37	343.39	43.91	-41.2	-42.4	22.0	0.00e+00	0	39	0	969932800	56	5977
2026-01-03 00:13:27.38	343.33	43.61	-40.7	-41.7	22.6	0.00e+00	0	39	0	970981376	56	5564
2026-01-03 00:13:28.39	343.27	43.33	-40.2	-41.2	23.0	0.00e+00	0	39	0	973078528	54	5839
2026-01-03 00:13:29.39	343.21	43.04	-40.3	-41.3	22.8	0.00e+00	0	39	0	975175680	54	5948
2026-01-03 00:13:30.40	343.15	42.76	-40.4	-41.4	22.7	0.00e+00	0	39	0	977272832	54	5967
2026-01-03 00:13:31.41	343.09	42.48	-40.7	-41.8	22.4	0.00e+00	0	39	0	979369984	54	6248
2026-01-03 00:13:32.42	343.03	42.20	-41.4	-42.6	21.7	0.00e+00	0	39	0	980418560	54	6862
2026-01-03 00:13:33.43	342.97	41.92	-42.1	-43.4	21.0	0.00e+00	0	39	0	982515712	56	6710
2026-01-03 00:13:34.44	342.92	41.64	-42.6	-44.0	20.5	0.00e+00	0	39	0	984612864	56	7195
2026-01-03 00:13:35.45	342.87	41.37	-42.7	-44.1	20.3	0.00e+00	0	39	0	986710016	56	7287
2026-01-03 00:13:36.46	342.81	41.10	-42.7	-44.1	20.5	0.00e+00	0	39	0	988807168	56	7300
2026-01-03 00:13:37.47	342.76	40.83	-42.7	-44.0	20.3	0.00e+00	0	39	0	989855744	58	6445
2026-01-03 00:13:38.48	342.71	40.56	-42.3	-43.6	20.8	0.00e+00	0	39	0	991952896	58	6154
2026-01-03 00:13:39.49	342.66	40.29	-42.1	-43.3	21.0	0.00e+00	0	39	0	994050048	58	5947
2026-01-03 00:13:40.50	342.61	40.03	-41.7	-42.8	21.6	0.00e+00	0	39	0	996147200	56	6284
2026-01-03 00:13:41.51	342.56	39.77	-41.6	-42.7	21.7	0.00e+00	0	39	0	998244352	56	6245
2026-01-03 00:13:42.52	342.51	39.51	-41.6	-42.7	21.6	0.00e+00	0	39	0	999292928	56	6195
2026-01-03 00:13:43.53	342.47	39.25	-41.7	-42.9	21.4	0.00e+00	0	39	0	1001390080	56	6318
2026-01-03 00:13:44.54	342.42	38.99	-42.2	-43.4	20.9	0.00e+00	0	39	0	1003487232	56	6758
2026-01-03 00:13:45.55	342.37	38.74	-42.4	-43.7	20.7	0.00e+00	0	39	0	1005584384	56	6938
2026-01-03 00:13:46.56	342.33	38.48	-42.7	-44.1	20.3	0.00e+00	0	39	0	1007681536	58	6519
2026-01-03 00:13:47.57	342.29	38.23	-42.9	-44.4	20.0	0.00e+00	0	39	0	1009778688	58	6706
2026-01-03 00:13:48.58	342.24	37.98	-43.3	-44.8	19.6	0.00e+00	0	39	0	1010827264	58	7028
2026-01-03 00:13:49.59	342.20	37.74	-43.3	-44.9	19.5	0.00e+00	0	39	0	1012924416	58	7093
2026-01-03 00:13:50.60	342.16	37.49	-43.1	-44.5	19.9	0.00e+00	0	39	0	1015021568	58	6808
2026-01-03 00:13:51.61	342.12	37.25	-42.8	-44.2	20.2	0.00e+00	0	39	0	1017118720	58	6544
2026-01-03 00:13:52.62	342.08	37.01	-42.8	-44.2	20.3	0.00e+00	0	39	0	1019215872	58	6611
2026-01-03 00:13:53.63	342.04	36.77	-42.2	-43.4	20.9	0.00e+00	0	39	0	1020264448	58	6004
2026-01-03 00:13:54.64	342.00	36.53	-41.8	-42.9	21.5	0.00e+00	0	39	0	1022361600	58	5683
2026-01-03 00:13:55.65	341.96	36.29	-41.4	-42.5	21.8	0.00e+00	0	39	0	1024458752	56	6042
2026-01-03 00:13:56.66	341.92	36.06	-41.4	-42.5	21.9	0.00e+00	0	39	0	1026555904	56	6059
2026-01-03 00:13:57.67	341.88	35.82	-41.2	-42.3	21.9	0.00e+00	0	39	0	1028653056	56	5950
2026-01-03 00:13:58.68	341.85	35.59	-41.3	-42.4	21.8	0.00e+00	0	39	0	1029701632	56	6001
2026-01-03 00:13:59.69	341.81	35.36	-41.4	-42.5	21.7	0.00e+00	0	39	0	1031798784	56	6066
2026-01-03 00:14:00.69	341.78	35.14	-41.7	-42.8	21.3	0.00e+00	0	39	0	1033895936	56	6301
2026-01-03 00:14:01.70	341.74	34.91	-41.9	-43.1	21.2	0.00e+00	0	39	0	1035993088	56	6477
2026-01-03 00:14:02.71	341.71	34.69	-42.1	-43.4	21.0	0.00e+00	0	39	0	1038090240	56	6703
2026-01-03 00:14:03.72	341.67	34.46	-42.5	-43.7	20.7	0.00e+00	0	39	0	1039138816	56	6994
2026-01-03 00:14:04.73	341.64	34.24	-42.8	-44.2	20.2	0.00e+00	0	39	0	1041235968	58	6572
2026-01-03 00:14:05.74	341.61	34.02	-43.1	-44.6	19.7	0.00e+00	0	39	0	1043333120	58	6864
2026-01-03 00:14:06.75	341.57	33.80	-43.5	-45.0	19.3	0.00e+00	0	39	0	1045430272	58	7221
2026-01-03 00:14:07.76	341.54	33.58	-43.9	-45.6	18.9	0.00e+00	0	39	0	1047527424	60	6881
2026-01-03 00:14:08.76	341.51	33.37	-43.9	-45.5	18.9	0.00e+00	0	39	0	1048576000	60	6823
2026-01-03 00:14:09.77	341.48	33.16	-43.7	-45.3	19.2	0.00e+00	0	39	0	1050673152	60	6652
2026-01-03 00:14:10.79	341.45	32.94	-43.7	-45.3	19.2	0.00e+00	0	39	0	1052770304	60	6649
2026-01-03 00:14:11.80	341.42	32.73	-43.4	-44.9	19.5	0.00e+00	0	39	0	1054867456	60	6339
2026-01-03 00:14:12.81	341.39	32.52	-43.2	-44.7	19.7	0.00e+00	0	39	0	1056964608	60	6182
2026-01-03 00:14:13.82	341.36	32.31	-43.1	-44.5	19.9	0.00e+00	0	39	0	1058013184	60	6075
2026-01-03 00:14:14.83	341.33	32.11	-43.0	-44.4	20.1	0.00e+00	0	39	0	1060110336	60	5976
2026-01-03 00:14:15.84	341.30	31.90	-42.6	-43.9	20.5	0.00e+00	0	39	0	1062207488	58	6335
2026-01-03 00:14:16.85	341.27	31.70	-42.4	-43.7	20.7	0.00e+00	0	39	0	1064304640	58	6244
2026-01-03 00:14:17.86	341.25	31.49	-42.4	-43.7	20.7	0.00e+00	0	39	0	1066401792	58	6181
2026-01-03 00:14:18.87	341.22	31.29	-42.3	-43.6	20.7	0.00e+00	0	39	0	1067450368	58	6124
2026-01-03 00:14:19.87	341.19	31.10	-42.1	-43.3	20.9	0.00e+00	0	39	0	1069547520	58	5945
2026-01-03 00:14:20.89	341.17	30.90	-42.1	-43.3	21.0	0.00e+00	0	39	0	1071644672	58	5952
2026-01-03 00:14:21.90	341.14	30.70	-42.1	-43.3	21.0	0.00e+00	0	39	0	1073741824	58	5920
2026-01-03 00:14:22.91	341.11	30.50	-42.1	-43.4	20.9	0.00e+00	0	39	0	1075838976	58	5969
2026-01-03 00:14:23.91	341.09	30.31	-42.1	-43.3	21.0	0.00e+00	0	39	0	1077936128	58	5913
2026-01-03 00:14:24.92	341.06	30.12	-42.1	-43.3	21.0	0.00e+00	0	39	0	1078984704	58	5926
2026-01-03 00:14:25.93	341.04	29.92	-41.9	-43.0	21.2	0.00e+00	0	39	0	1081081856	58	5750
2026-01-03 00:14:26.94	341.02	29.73	-42.1	-43.3	20.9	0.00e+00	0	39	0	1083179008	58	5957
2026-01-03 00:14:27.95	340.99	29.55	-42.2	-43.4	20.9	0.00e+00	0	39	0	1085276160	58	6024
2026-01-03 00:14:28.96	340.97	29.36	-42.0	-43.3	21.0	0.00e+00	0	39	0	1087373312	58	5901
2026-01-03 00:14:29.97	340.94	29.17	-41.9	-43.0	21.2	0.00e+00	0	39	0	1088421888	58	5756
2026-01-03 00:14:30.98	340.92	28.98	-42.0	-43.2	20.9	0.00e+00	0	39	0	1090519040	58	5868
2026-01-03 00:14:31.99	340.90	28.80	-41.8	-43.0	21.3	0.00e+00	0	39	0	1092616192	58	5714
2026-01-03 00:14:33.00	340.88	28.62	-41.8	-43.0	21.2	0.00e+00	0	39	0	1094713344	56	6400
2026-01-03 00:14:34.01	340.85	28.44	-41.7	-42.9	21.3	0.00e+00	0	39	0	1096810496	56	6340
2026-01-03 00:14:35.02	340.83	28.25	-41.7	-42.9	21.4	0.00e+00	0	39	0	1097859072	56	6330
2026-01-03 00:14:36.04	340.81	28.07	-41.5	-42.6	21.6	0.00e+00	0	39	0	1099956224	56	6139
2026-01-03 00:14:37.04	340.79	27.90	-41.3	-42.4	21.9	0.00e+00	0	39	0	1102053376	56	5981
2026-01-03 00:14:38.06	340.77	27.72	-41.1	-42.1	22.0	0.00e+00	0	39	0	1104150528	56	5813
2026-01-03 00:14:39.07	340.75	27.54	-41.0	-42.1	22.2	0.00e+00	0	39	0	1106247680	56	5765
2026-01-03 00:14:40.07	340.73	27.37	-40.9	-41.9	22.3	0.00e+00	0	39	0	1107296256	56	5680
2026-01-03 00:14:41.08	340.71	27.19	-40.9	-42.0	22.2	0.00e+00	0	39	0	1109393408	56	5715
2026-01-03 00:14:42.09	340.69	27.02	-40.5	-41.5	22.5	0.00e+00	0	39	0	1111490560	54	6083
2026-01-03 00:14:43.11	340.67	26.85	-40.5	-41.5	22.6	0.00e+00	0	39	0	1113587712	54	6087
2026-01-03 00:14:44.12	340.65	26.68	-40.6	-41.6	22.5	0.00e+00	0	39	0	1115684864	54	6155
2026-01-03 00:14:45.12	340.63	26.51	-40.5	-41.5	22.4	0.00e+00	0	39	0	1116733440	54	6036
2026-01-03 00:14:46.14	340.61	26.34	-40.6	-41.6	22.4	0.00e+00	0	39	0	1118830592	54	6155
2026-01-03 00:14:47.15	340.59	26.17	-39.9	-40.9	23.1	0.00e+00	0	39	0	1120927744	54	5634
2026-01-03 00:14:48.16	340.57	26.00	-39.8	-40.7	23.2	0.00e+00	0	39	0	1123024896	52	6215
2026-01-03 00:14:49.17	340.55	25.84	-39.9	-40.9	23.1	0.00e+00	0	39	0	1125122048	52	6354
2026-01-03 00:14:50.18	340.54	25.67	-39.8	-40.8	23.1	0.00e+00	0	39	0	1126170624	52	6253
2026-01-03 00:14:51.19	340.52	25.51	-39.9	-40.9	23.1	0.00e+00	0	39	0	1128267776	52	6353
2026-01-03 00:14:52.20	340.50	25.35	-39.9	-40.9	23.1	0.00e+00	0	39	0	1130364928	52	6319
2026-01-03 00:14:53.21	340.48	25.19	-39.8	-40.7	23.2	0.00e+00	0	39	0	1132462080	52	6238
2026-01-03 00:14:54.22	340.47	25.03	-39.9	-40.8	23.1	0.00e+00	0	39	0	1134559232	52	6278
2026-01-03 00:14:55.23	340.45	24.87	-39.9	-40.9	23.0	0.00e+00	0	39	0	1135607808	52	6361
2026-01-03 00:14:56.24	340.43	24.71	-40.0	-40.9	23.0	0.00e+00	0	39	0	1137704960	52	6368
2026-01-03 00:14:57.25	340.42	24.55	-40.1	-41.1	22.8	0.00e+00	0	39	0	1139802112	52	6478
2026-01-03 00:14:58.26	340.40	24.39	-40.0	-41.0	22.6	0.00e+00	0	39	0	1141899264	52	6429
2026-01-03 00:14:59.26	340.39	24.24	-39.9	-40.9	22.9	0.00e+00	0	39	0	1143996416	52	6333
2026-01-03 00:15:00.27	340.37	24.09	-39.9	-40.9	23.0	0.00e+00	0	39	0	1146093568	52	6349
2026-01-03 00:15:01.28	340.35	23.93	-39.9	-40.9	23.1	0.00e+00	0	39	0	1147142144	52	6320
2026-01-03 00:15:02.30	340.34	23.78	-39.8	-40.8	23.1	0.00e+00	0	39	0	1149239296	52	6253
2026-01-03 00:15:03.31	340.32	23.63	-39.9	-40.8	23.1	0.00e+00	0	39	0	1151336448	52	6301
2026-01-03 00:15:04.32	340.31	23.47	-39.7	-40.6	23.2	0.00e+00	0	39	0	1153433600	52	6164
2026-01-03 00:15:05.33	340.29	23.32	-39.6	-40.6	23.3	0.00e+00	0	39	0	1155530752	52	6119
2026-01-03 00:15:06.34	340.28	23.17	-39.7	-40.6	23.3	0.00e+00	0	39	0	1156579328	52	6153
2026-01-03 00:15:07.34	340.26	23.03	-39.8	-40.7	23.2	0.00e+00	0	39	0	1158676480	52	6231
2026-01-03 00:15:08.35	340.25	22.88	-39.6	-40.5	23.4	0.00e+00	0	39	0	1160773632	52	6075
2026-01-03 00:15:09.36	340.24	22.73	-39.6	-40.6	23.3	0.00e+00	0	39	0	1162870784	52	6134
2026-01-03 00:15:10.37	340.22	22.59	-39.5	-40.4	23.4	0.00e+00	0	39	0	1164967936	52	5985
2026-01-03 00:15:11.38	340.21	22.44	-39.6	-40.5	23.4	0.00e+00	0	39	0	1166016512	52	6084
2026-01-03 00:15:12.39	340.19	22.30	-39.5	-40.4	23.5	0.00e+00	0	39	0	1168113664	52	6010
2026-01-03 00:15:13.40	340.18	22.15	-39.6	-40.5	23.4	0.00e+00	0	39	0	1170210816	52	6092
2026-01-03 00:15:14.41	340.17	22.01	-39.6	-40.6	23.3	0.00e+00	0	39	0	1172307968	52	6129
2026-01-03 00:15:15.42	340.15	21.87	-39.8	-40.7	23.2	0.00e+00	0	39	0	1174405120	52	6218
2026-01-03 00:15:16.43	340.14	21.73	-39.8	-40.7	23.0	0.00e+00	0	39	0	1175453696	52	6226
2026-01-03 00:15:17.44	340.13	21.59	-40.0	-41.0	22.9	0.00e+00	0	39	0	1177550848	52	6431
2026-01-03 00:15:18.45	340.11	21.45	-40.2	-41.2	22.6	0.00e+00	0	39	0	1179648000	52	6564
2026-01-03 00:15:19.46	340.10	21.31	-40.4	-41.5	22.5	0.00e+00	0	39	0	1181745152	52	6793
2026-01-03 00:15:20.47	340.09	21.17	-40.5	-41.6	22.2	0.00e+00	0	39	0	1183842304	52	6886
2026-01-03 00:15:21.48	340.08	21.03	-40.8	-41.8	22.5	0.00e+00	0	39	0	1184890880	54	6314
2026-01-03 00:15:22.49	340.07	20.90	-40.6	-41.6	22.1	0.00e+00	0	39	0	1186988032	54	6171
2026-01-03 00:15:23.50	340.05	20.76	-40.7	-41.8	22.2	0.00e+00	0	39	0	1189085184	54	6293
2026-01-03 00:15:24.51	340.04	20.63	-40.6	-41.7	22.3	0.00e+00	0	39	0	1191182336	54	6222
2026-01-03 00:15:25.52	340.03	20.49	-41.0	-42.1	22.0	0.00e+00	0	39	0	1193279488	54	6480
2026-01-03 00:15:26.53	340.02	20.36	-40.6	-41.7	22.2	0.00e+00	0	39	0	1194328064	54	6222
2026-01-03 00:15:27.54	340.01	20.22	-40.6	-41.7	22.2	0.00e+00	0	39	0	1196425216	54	6228
2026-01-03 00:15:28.55	340.00	20.09	-40.6	-41.7	22.2	0.00e+00	0	39	0	1198522368	54	6230
2026-01-03 00:15:29.56	339.98	19.96	-40.7	-41.8	22.2	0.00e+00	0	39	0	1200619520	54	6298
