passes_logs/2026/01/03/R4.6S_Anadyr/R4.6S_Anadyr__20260103_220257_TY-42_rec.log

#Pass ID: 20260103_220257_TY-42
#Satellite: TY-42
#Configuration: TY-42_900M
#almurnet v.1.7.20251203
#Start time: 2026-01-03 22:03:29

#Version: 2.2.20231116
#Station: R4.6S_Anadyr
#Location: 177.4865 lon 64.73178 lat
#TLE: 1 64048U 25103A   26003.64460648  .00008007  00000-0  38191-3 0 09992
#TLE: 2 64048 097.4106 079.2764 0001638 093.2825 303.9096 15.19157386 35096

#Time	Az	El	Level	Level2	SNR	BER	BlckErr	Temp	State	Recorded	gain1	gain2
2026-01-03 22:03:29.40	24.08	1.90	-51.2	-66.1	3.5	1.51e+00	0	37	0	0	60	72954
2026-01-03 22:03:30.41	24.17	1.96	-49.0	-51.5	6.1	0.00e+00	0	38	104	0	60	45898
2026-01-03 22:03:31.42	24.26	2.02	-49.0	-51.5	6.1	0.00e+00	0	38	104	0	60	45970
2026-01-03 22:03:32.43	24.35	2.08	-48.7	-51.2	6.1	0.00e+00	0	38	104	0	60	44313
2026-01-03 22:03:33.44	24.44	2.14	-48.8	-51.3	6.1	0.00e+00	0	39	104	0	60	44943
2026-01-03 22:03:34.45	24.53	2.20	-49.0	-51.4	6.1	0.00e+00	0	39	104	0	60	45480
2026-01-03 22:03:35.46	24.62	2.27	-49.4	-51.9	6.1	0.00e+00	0	39	104	0	60	47941
2026-01-03 22:03:36.47	24.71	2.33	-49.0	-51.5	6.1	0.00e+00	0	39	104	0	60	46105
2026-01-03 22:03:37.48	24.80	2.39	-49.8	-52.3	6.1	0.00e+00	0	39	104	0	60	50522
2026-01-03 22:03:38.49	24.89	2.45	-49.5	-51.9	6.1	0.00e+00	0	39	104	0	60	48212
2026-01-03 22:03:39.50	24.99	2.51	-49.5	-51.9	6.1	0.00e+00	0	39	104	0	60	48058
2026-01-03 22:03:40.50	25.08	2.58	-49.2	-51.7	6.0	0.00e+00	0	39	104	0	60	47004
2026-01-03 22:03:41.51	25.17	2.64	-48.9	-51.4	6.1	0.00e+00	0	39	104	0	60	45282
2026-01-03 22:03:42.52	25.27	2.70	-49.1	-51.5	6.0	0.00e+00	0	39	104	0	60	46108
2026-01-03 22:03:43.53	25.36	2.76	-49.3	-51.7	6.1	0.00e+00	0	39	104	0	60	47019
2026-01-03 22:03:44.54	25.46	2.83	-49.0	-51.4	6.1	0.00e+00	0	39	104	0	60	45723
2026-01-03 22:03:45.55	25.55	2.89	-49.6	-52.0	6.1	0.00e+00	0	39	104	0	60	49018
2026-01-03 22:03:46.56	25.65	2.95	-49.2	-51.7	6.1	0.00e+00	0	39	104	0	60	46916
2026-01-03 22:03:47.57	25.74	3.02	-49.4	-51.9	6.1	0.00e+00	0	39	104	0	60	47955
2026-01-03 22:03:48.58	25.84	3.08	-49.6	-52.1	6.1	0.00e+00	0	39	104	0	60	49273
2026-01-03 22:03:49.59	25.94	3.14	-50.1	-52.5	6.1	0.00e+00	0	39	104	0	60	51676
2026-01-03 22:03:50.60	26.04	3.21	-49.6	-52.1	6.1	0.00e+00	0	39	104	0	60	49344
2026-01-03 22:03:51.61	26.14	3.27	-50.2	-52.7	6.1	0.00e+00	0	39	104	0	60	53020
2026-01-03 22:03:52.62	26.24	3.34	-50.1	-52.5	6.1	0.00e+00	0	39	104	0	60	51507
2026-01-03 22:03:53.63	26.34	3.40	-49.7	-52.2	6.1	0.00e+00	0	39	104	0	60	49704
2026-01-03 22:03:54.64	26.44	3.46	-49.9	-52.4	6.1	0.00e+00	0	39	104	0	60	50836
2026-01-03 22:03:55.65	26.54	3.53	-49.1	-51.5	6.1	0.00e+00	0	39	104	0	60	46203
2026-01-03 22:03:56.65	26.64	3.59	-49.9	-52.3	6.1	0.00e+00	0	39	104	0	60	50506
2026-01-03 22:03:57.67	26.74	3.66	-34.7	-35.0	11.6	0.00e+00	0	39	104	0	42	19347
2026-01-03 22:03:58.68	26.84	3.72	-30.1	-30.5	15.5	0.00e+00	0	40	0	8388608	34	18276
2026-01-03 22:03:59.68	26.95	3.79	-35.9	-36.5	9.6	1.62e-02	0	40	0	117440512	36	32732
2026-01-03 22:04:00.69	27.05	3.85	-46.9	-47.9	8.0	0.00e+00	0	39	104	125829120	60	30562
2026-01-03 22:04:01.70	27.15	3.92	-30.8	-31.1	13.2	0.00e+00	277	39	104	125829120	36	17531
2026-01-03 22:04:02.71	27.26	3.98	-34.9	-35.2	13.3	0.00e+00	0	39	0	159383552	42	19938
2026-01-03 22:04:03.72	27.36	4.05	-38.0	-38.4	13.1	5.41e-02	114	40	0	276824064	50	18024
2026-01-03 22:04:04.73	27.47	4.11	-35.6	-35.5	11.9	5.41e-02	44	40	0	385875968	42	20559
2026-01-03 22:04:05.74	27.58	4.18	-40.5	-40.7	12.4	0.00e+00	5388	39	104	427819008	50	23589
2026-01-03 22:04:06.75	27.68	4.25	-37.1	-37.6	11.7	0.00e+00	4725	39	104	427819008	46	20784
2026-01-03 22:04:07.76	27.79	4.31	-36.2	-36.4	12.1	1.10e-01	0	40	0	520093696	48	16186
2026-01-03 22:04:08.77	27.90	4.38	-36.3	-36.7	13.4	1.10e-01	0	40	0	637534208	48	16798
2026-01-03 22:04:09.77	28.01	4.44	-35.0	-35.3	14.5	8.57e-02	0	40	0	746586112	42	20192
2026-01-03 22:04:10.78	28.12	4.51	-35.7	-36.1	13.4	8.57e-02	0	40	0	864026624	46	17432
2026-01-03 22:04:11.79	28.23	4.58	-35.9	-36.3	13.1	5.66e-02	0	40	0	973078528	40	25248
2026-01-03 22:04:12.80	28.34	4.64	-34.1	-34.5	13.8	5.66e-02	0	40	0	1082130432	42	18276
2026-01-03 22:04:13.81	28.45	4.71	-34.4	-34.8	12.7	5.66e-02	0	40	0	1199570944	44	16827
2026-01-03 22:04:14.82	28.56	4.78	-34.2	-34.6	13.7	5.45e-02	0	40	0	1317011456	42	18482
2026-01-03 22:04:15.83	28.67	4.85	-33.9	-34.3	14.7	5.45e-02	0	40	0	1426063360	42	17820
2026-01-03 22:04:16.84	28.79	4.91	-32.6	-33.0	15.3	4.33e-02	0	40	0	1543503872	38	19413
2026-01-03 22:04:17.85	28.90	4.98	-32.7	-33.1	14.8	4.33e-02	0	40	0	1652555776	42	15623
2026-01-03 22:04:18.86	29.01	5.05	-34.6	-34.9	14.2	9.79e-03	0	40	0	1761607680	44	17065
2026-01-03 22:04:19.87	29.13	5.12	-35.9	-36.2	13.7	9.79e-03	0	40	0	1887436800	46	17783
2026-01-03 22:04:20.88	29.24	5.18	-33.7	-34.1	14.9	3.22e-02	0	40	0	1996488704	38	21919
2026-01-03 22:04:21.88	29.36	5.25	-34.1	-34.4	13.4	3.22e-02	0	40	0	2105540608	54	9111
2026-01-03 22:04:22.90	29.48	5.32	-34.7	-35.0	14.2	6.61e-02	0	40	0	2222981120	44	17205
2026-01-03 22:04:23.91	29.60	5.39	-35.3	-35.7	13.2	6.61e-02	0	40	0	2332033024	44	18829
2026-01-03 22:04:24.91	29.71	5.46	-37.7	-38.0	12.6	7.50e-02	0	40	0	2449473536	50	17206
2026-01-03 22:04:25.92	29.83	5.53	-32.1	-32.5	15.1	7.50e-02	0	40	0	2566914048	42	14485
2026-01-03 22:04:26.93	29.95	5.60	-31.6	-31.9	15.7	2.04e-02	0	40	0	2675965952	40	15279
2026-01-03 22:04:27.94	30.07	5.66	-32.2	-32.7	15.4	2.04e-02	0	40	0	2785017856	38	18668
2026-01-03 22:04:28.95	30.19	5.73	-31.7	-32.1	15.6	4.87e-03	0	40	0	2902458368	38	17512
2026-01-03 22:04:29.96	30.31	5.80	-33.3	-33.9	15.4	4.87e-03	0	40	0	3011510272	42	17042
2026-01-03 22:04:30.97	30.44	5.87	-33.1	-33.6	15.4	1.03e-02	0	40	0	3128950784	38	20794
2026-01-03 22:04:31.98	30.56	5.94	-32.2	-32.7	15.3	1.03e-02	0	40	0	3246391296	38	18667
2026-01-03 22:04:32.99	30.68	6.01	-32.0	-32.5	15.0	1.03e-02	0	40	0	3355443200	40	16241
2026-01-03 22:04:34.00	30.81	6.08	-32.9	-33.1	15.6	5.00e-03	0	40	0	3472883712	42	15666
2026-01-03 22:04:35.01	30.93	6.15	-33.3	-33.9	11.9	5.00e-03	0	40	0	3581935616	36	24117
2026-01-03 22:04:36.02	31.06	6.22	-31.5	-31.9	15.2	1.56e-02	0	41	0	3699376128	38	17077
2026-01-03 22:04:37.03	31.19	6.29	-36.1	-36.7	15.0	1.56e-02	0	41	0	3816816640	40	26635
2026-01-03 22:04:38.04	31.31	6.36	-34.3	-34.7	15.0	1.56e-02	0	41	0	3925868544	42	18793
2026-01-03 22:04:39.05	31.44	6.43	-33.5	-33.9	15.3	7.32e-03	0	41	0	4034920448	40	19128
2026-01-03 22:04:40.06	31.57	6.51	-33.0	-33.5	15.3	7.32e-03	0	41	0	4152360960	36	23009
2026-01-03 22:04:41.07	31.70	6.58	-31.6	-32.0	14.5	8.34e-03	0	41	0	4269801472	40	15375
2026-01-03 22:04:42.08	31.83	6.65	-34.2	-34.6	15.1	9.71e-03	0	41	0	4378853376	40	20910
2026-01-03 22:04:43.09	31.96	6.72	-33.9	-34.5	15.2	9.71e-03	0	41	0	4496293888	36	26005
2026-01-03 22:04:44.10	32.10	6.79	-34.8	-35.2	13.1	9.66e-03	0	41	0	4605345792	40	22220
2026-01-03 22:04:45.11	32.23	6.86	-32.1	-32.6	15.0	9.66e-03	0	41	0	4722786304	40	16537
2026-01-03 22:04:46.12	32.36	6.94	-32.4	-32.9	15.4	1.84e-02	0	41	0	4840226816	40	17044
2026-01-03 22:04:47.13	32.50	7.01	-33.6	-34.0	14.4	1.84e-02	0	41	0	4949278720	42	17254
2026-01-03 22:04:48.14	32.63	7.08	-33.4	-33.9	15.1	1.99e-02	0	41	0	5058330624	42	17113
2026-01-03 22:04:49.15	32.77	7.15	-33.7	-34.1	14.8	1.99e-02	0	41	0	5175771136	46	13976
2026-01-03 22:04:50.15	32.90	7.22	-39.0	-39.6	9.9	1.99e-02	0	41	0	5284823040	50	20803
2026-01-03 22:04:51.16	33.04	7.30	-38.2	-38.3	12.7	2.21e-02	2225	41	0	5402263552	54	14233
2026-01-03 22:04:52.17	33.18	7.37	-38.7	-39.0	13.4	4.41e-02	0	41	0	5410652160	46	24352
2026-01-03 22:04:53.18	33.32	7.44	-35.9	-36.3	12.8	4.41e-02	0	41	0	5528092672	46	17856
2026-01-03 22:04:54.19	33.46	7.52	-33.8	-34.3	15.2	5.81e-02	0	41	0	5637144576	40	19980
2026-01-03 22:04:55.20	33.60	7.59	-33.1	-33.5	14.4	5.81e-02	0	41	0	5754585088	46	12968
2026-01-03 22:04:56.21	33.74	7.66	-38.3	-38.6	12.4	5.48e-02	0	41	0	5863636992	54	14747
2026-01-03 22:04:57.22	33.89	7.74	-33.6	-34.1	15.4	5.48e-02	0	41	0	5981077504	46	13840
2026-01-03 22:04:58.23	34.03	7.81	-33.1	-33.4	14.5	6.44e-02	0	41	0	6098518016	42	16136
2026-01-03 22:04:59.24	34.17	7.88	-35.9	-36.4	14.4	6.44e-02	0	41	0	6207569920	42	22803
2026-01-03 22:05:00.25	34.32	7.96	-37.8	-38.1	11.5	3.08e-02	0	41	0	6316621824	54	13948
2026-01-03 22:05:01.26	34.47	8.03	-37.8	-38.1	11.0	3.08e-02	2282	41	0	6434062336	48	19627
2026-01-03 22:05:02.27	34.61	8.11	-38.2	-38.5	10.8	1.59e-01	453	41	0	6551502848	56	13002
2026-01-03 22:05:03.28	34.76	8.18	-35.3	-35.7	14.7	2.40e-01	0	41	0	6660554752	42	20943
2026-01-03 22:05:04.29	34.91	8.26	-39.5	-39.8	12.0	2.40e-01	2914	41	0	6777995264	50	21220
2026-01-03 22:05:05.30	35.06	8.33	-32.8	-33.1	15.3	4.63e-02	0	41	0	6887047168	44	13960
2026-01-03 22:05:06.31	35.21	8.41	-34.5	-34.9	14.7	4.63e-02	0	41	0	7004487680	44	17073
2026-01-03 22:05:07.31	35.36	8.48	-37.5	-38.0	12.4	4.63e-02	0	41	0	7113539584	46	21744
2026-01-03 22:05:08.32	35.51	8.56	-33.7	-34.1	13.9	4.62e-02	0	41	0	7230980096	46	13950
2026-01-03 22:05:09.33	35.67	8.63	-35.9	-36.2	13.8	4.62e-02	0	41	0	7340032000	42	22246
2026-01-03 22:05:10.34	35.82	8.71	-35.7	-36.0	13.3	5.47e-02	0	41	0	7457472512	46	17349
2026-01-03 22:05:11.35	35.98	8.78	-37.7	-37.9	10.3	5.47e-02	4703	41	0	7566524416	52	15296
2026-01-03 22:05:12.36	36.13	8.86	-41.3	-41.7	9.2	1.79e-01	5403	41	0	7683964928	54	21058
2026-01-03 22:05:13.37	36.29	8.94	-35.2	-35.4	12.0	1.79e-01	0	41	0	7801405440	50	12885
2026-01-03 22:05:14.38	36.45	9.01	-37.8	-38.0	10.9	1.89e-01	53	41	0	7910457344	52	15421
2026-01-03 22:05:15.39	36.61	9.09	-33.8	-34.1	14.4	1.89e-01	0	41	0	8027897856	38	22148
2026-01-03 22:05:16.40	36.77	9.16	-35.6	-36.0	13.8	9.81e-02	0	41	0	8136949760	44	19378
2026-01-03 22:05:17.41	36.93	9.24	-33.7	-34.1	13.8	9.81e-02	0	41	0	8246001664	42	17407
2026-01-03 22:05:18.42	37.09	9.32	-33.6	-33.9	14.7	3.49e-02	0	41	0	8363442176	44	15323
2026-01-03 22:05:19.43	37.26	9.39	-37.9	-38.1	13.2	3.49e-02	0	41	0	8480882688	38	35029
2026-01-03 22:05:20.43	37.42	9.47	-34.5	-35.0	14.0	8.68e-02	0	41	0	8589934592	44	17343
2026-01-03 22:05:21.44	37.59	9.55	-33.6	-34.1	14.4	8.68e-02	0	41	0	8698986496	50	11048
2026-01-03 22:05:22.45	37.75	9.63	-31.2	-31.6	16.0	5.76e-02	0	42	0	8816427008	40	14737
2026-01-03 22:05:23.46	37.92	9.70	-40.2	-40.5	10.8	5.76e-02	3595	41	0	8925478912	56	16330
2026-01-03 22:05:24.47	38.09	9.78	-43.9	-44.4	10.4	0.00e+00	756	41	104	9034530816	54	28584
2026-01-03 22:05:25.48	38.26	9.86	-37.7	-38.2	12.9	0.00e+00	0	41	0	9059696640	52	15690
2026-01-03 22:05:26.48	38.43	9.94	-40.5	-40.9	12.0	1.09e-01	3652	41	0	9168748544	50	24040
2026-01-03 22:05:27.50	38.60	10.02	-43.0	-43.6	9.0	0.00e+00	5403	41	104	9210691584	58	20889
2026-01-03 22:05:28.50	38.77	10.09	-37.0	-37.4	11.9	0.00e+00	0	42	0	9286189056	54	12888
2026-01-03 22:05:29.51	38.95	10.17	-42.3	-42.8	9.2	0.00e+00	285	41	104	9344909312	60	16826
2026-01-03 22:05:30.52	39.12	10.25	-38.6	-38.9	11.2	0.00e+00	5514	41	104	9344909312	52	17036
2026-01-03 22:05:31.53	39.30	10.33	-41.8	-42.1	9.9	0.00e+00	5402	42	0	9428795392	56	19579
2026-01-03 22:05:32.54	39.48	10.41	-35.7	-36.1	14.2	2.93e-01	0	42	0	9537847296	44	19654
2026-01-03 22:05:33.55	39.66	10.49	-40.0	-40.5	11.2	2.93e-01	3137	42	0	9655287808	50	23141
2026-01-03 22:05:34.56	39.84	10.56	-36.9	-37.3	12.0	9.02e-02	0	42	0	9764339712	50	16027
2026-01-03 22:05:35.56	40.02	10.64	-33.0	-33.4	15.1	9.02e-02	0	42	0	9881780224	40	18219
2026-01-03 22:05:36.57	40.20	10.72	-35.0	-35.4	14.8	4.99e-02	0	42	0	9999220736	42	20358
2026-01-03 22:05:37.58	40.38	10.80	-36.3	-36.8	13.5	4.99e-02	0	42	0	10108272640	48	16822
2026-01-03 22:05:38.59	40.57	10.88	-38.0	-38.4	13.3	6.95e-02	0	42	0	10217324544	48	20218
2026-01-03 22:05:39.60	40.75	10.96	-31.9	-32.3	14.9	6.95e-02	0	42	0	10334765056	40	16048
2026-01-03 22:05:40.61	40.94	11.04	-33.6	-34.0	14.4	6.95e-02	0	42	0	10443816960	42	17346
2026-01-03 22:05:41.62	41.13	11.12	-32.6	-33.0	14.6	2.50e-02	0	42	0	10561257472	36	21858
2026-01-03 22:05:42.63	41.32	11.20	-33.7	-34.2	14.0	2.50e-02	0	42	0	10678697984	42	17665
2026-01-03 22:05:43.64	41.51	11.28	-33.3	-33.6	14.9	2.50e-02	0	42	0	10787749888	46	13106
2026-01-03 22:05:44.65	41.70	11.36	-33.2	-33.6	14.5	2.99e-02	0	42	0	10905190400	44	14658
2026-01-03 22:05:45.66	41.89	11.44	-35.6	-35.9	13.6	2.99e-02	0	42	0	11014242304	40	24116
2026-01-03 22:05:46.67	42.09	11.52	-33.3	-33.8	14.1	3.45e-02	0	42	0	11131682816	42	16825
2026-01-03 22:05:47.68	42.28	11.60	-33.2	-33.6	14.1	3.45e-02	0	42	0	11249123328	38	20785
2026-01-03 22:05:48.68	42.48	11.68	-31.2	-31.6	15.7	2.12e-02	0	42	0	11358175232	36	18558
2026-01-03 22:05:49.69	42.68	11.76	-34.6	-35.0	13.0	2.12e-02	0	42	0	11467227136	46	15505
2026-01-03 22:05:50.70	42.88	11.84	-32.4	-32.8	14.7	2.51e-02	0	42	0	11584667648	40	16950
2026-01-03 22:05:51.71	43.08	11.92	-34.6	-35.1	12.8	2.51e-02	0	42	0	11693719552	42	19552
2026-01-03 22:05:52.72	43.28	12.00	-34.4	-34.9	13.0	4.45e-02	0	42	0	11811160064	46	15235
2026-01-03 22:05:53.73	43.48	12.08	-35.0	-35.5	13.3	4.45e-02	0	42	0	11928600576	44	18308
2026-01-03 22:05:54.74	43.69	12.16	-33.0	-33.5	14.9	4.37e-02	0	42	0	12037652480	42	16250
2026-01-03 22:05:55.75	43.89	12.25	-30.9	-31.3	15.3	4.37e-02	0	42	0	12146704384	38	15981
2026-01-03 22:05:56.75	44.10	12.33	-28.5	-28.9	16.0	4.86e-03	0	42	0	12264144896	32	17102
2026-01-03 22:05:57.76	44.31	12.41	-31.8	-32.1	15.0	4.86e-03	0	42	0	12373196800	38	17542
2026-01-03 22:05:58.77	44.52	12.49	-32.2	-32.7	15.2	3.25e-03	0	42	0	12490637312	40	16692
2026-01-03 22:05:59.78	44.73	12.57	-30.2	-30.7	15.8	3.25e-03	0	42	0	12608077824	32	20989
2026-01-03 22:06:00.79	44.94	12.65	-31.9	-32.5	15.4	5.93e-03	0	42	0	12717129728	34	23001
2026-01-03 22:06:01.80	45.15	12.73	-31.3	-31.8	15.3	5.93e-03	0	42	0	12834570240	36	19052
2026-01-03 22:06:02.81	45.37	12.81	-30.8	-31.3	16.0	2.07e-03	0	42	0	12943622144	36	17825
2026-01-03 22:06:03.82	45.59	12.89	-31.0	-31.5	15.7	2.07e-03	0	42	0	13061062656	36	18376
2026-01-03 22:06:04.83	45.81	12.98	-29.7	-30.2	16.1	1.47e-03	0	42	0	13178503168	34	17658
2026-01-03 22:06:05.84	46.03	13.06	-29.6	-30.1	15.9	1.47e-03	0	42	0	13287555072	34	17535
2026-01-03 22:06:06.85	46.25	13.14	-28.5	-29.0	15.9	5.12e-04	0	42	0	13396606976	34	15462
2026-01-03 22:06:07.86	46.47	13.22	-29.3	-29.7	15.9	5.12e-04	0	42	0	13514047488	34	16794
2026-01-03 22:06:08.87	46.69	13.30	-30.6	-31.1	15.3	1.36e-03	0	42	0	13631488000	34	19614
2026-01-03 22:06:09.88	46.92	13.38	-31.1	-31.5	15.5	1.36e-03	0	42	0	13740539904	36	18401
2026-01-03 22:06:10.89	47.15	13.46	-32.7	-33.0	14.6	4.37e-03	0	42	0	13857980416	42	15453
2026-01-03 22:06:11.89	47.37	13.54	-30.7	-31.2	14.7	4.37e-03	0	42	0	13967032320	38	15701
2026-01-03 22:06:12.90	47.60	13.63	-32.7	-33.1	14.0	1.28e-02	0	42	0	14076084224	40	17438
2026-01-03 22:06:13.91	47.83	13.71	-31.8	-32.2	14.5	1.28e-02	0	42	0	14193524736	40	15797
2026-01-03 22:06:14.92	48.07	13.79	-32.0	-32.4	14.5	1.30e-02	0	42	0	14310965248	38	18220
2026-01-03 22:06:15.93	48.30	13.87	-33.1	-33.5	14.3	1.30e-02	0	42	0	14420017152	40	18304
2026-01-03 22:06:16.94	48.54	13.95	-32.9	-33.3	14.7	1.30e-02	0	42	0	14537457664	44	14247
2026-01-03 22:06:17.95	48.77	14.03	-31.9	-32.4	14.6	9.42e-03	0	42	0	14646509568	38	18075
2026-01-03 22:06:18.95	49.01	14.11	-32.1	-32.6	15.1	9.42e-03	0	42	0	14763950080	38	18459
2026-01-03 22:06:19.96	49.25	14.19	-31.8	-32.3	14.9	7.96e-03	0	42	0	14873001984	38	17845
2026-01-03 22:06:20.96	49.49	14.27	-31.8	-32.2	15.3	7.96e-03	0	42	0	14990442496	42	14067
2026-01-03 22:06:21.97	49.73	14.36	-30.8	-31.3	16.0	1.16e-02	0	42	0	15107883008	36	17881
2026-01-03 22:06:22.98	49.98	14.44	-30.0	-30.5	15.9	1.16e-02	0	42	0	15216934912	36	16289
2026-01-03 22:06:23.99	50.23	14.52	-30.1	-30.6	15.8	3.50e-03	0	42	0	15325986816	34	18516
2026-01-03 22:06:25.01	50.48	14.60	-29.2	-29.6	16.4	3.50e-03	0	42	0	15443427328	32	18595
2026-01-03 22:06:26.01	50.72	14.68	-29.9	-30.4	16.1	1.04e-03	0	42	0	15552479232	32	20240
2026-01-03 22:06:27.03	50.98	14.76	-27.6	-28.1	16.1	1.04e-03	0	42	0	15669919744	32	15649
2026-01-03 22:06:28.03	51.23	14.84	-27.7	-28.2	16.4	4.31e-04	0	42	0	15787360256	30	17753
2026-01-03 22:06:29.04	51.48	14.92	-29.2	-29.7	16.1	5.56e-04	0	42	0	15896412160	32	18660
2026-01-03 22:06:30.05	51.74	15.00	-30.3	-30.9	15.6	5.56e-04	0	42	0	16005464064	32	21550
2026-01-03 22:06:31.06	52.00	15.08	-29.1	-29.6	15.3	5.56e-04	0	42	0	16122904576	32	18605
2026-01-03 22:06:32.07	52.25	15.16	-29.0	-29.4	15.0	9.64e-04	0	42	0	16240345088	34	16219
2026-01-03 22:06:33.07	52.51	15.24	-29.2	-29.7	16.3	9.64e-04	0	42	0	16349396992	28	23632
2026-01-03 22:06:34.08	52.78	15.32	-28.0	-28.5	16.8	9.64e-04	0	42	0	16466837504	30	18395
2026-01-03 22:06:35.09	53.04	15.40	-27.9	-28.4	16.3	2.16e-03	0	42	0	16575889408	30	18169
2026-01-03 22:06:36.09	53.30	15.48	-26.9	-27.4	16.6	2.16e-03	0	42	0	16693329920	32	14341
2026-01-03 22:06:37.10	53.57	15.56	-28.6	-29.2	16.4	4.36e-04	0	42	0	16802381824	32	17623
2026-01-03 22:06:38.11	53.84	15.64	-27.0	-27.5	16.7	4.36e-04	0	42	0	16911433728	32	14490
2026-01-03 22:06:39.12	54.11	15.71	-28.9	-29.5	16.2	7.62e-05	0	42	0	17037262848	32	18222
2026-01-03 22:06:40.13	54.38	15.79	-28.0	-28.4	16.4	7.62e-05	0	42	0	17146314752	30	18220
2026-01-03 22:06:41.14	54.66	15.87	-28.4	-29.0	16.4	1.69e-04	0	42	0	17255366656	30	19311
2026-01-03 22:06:42.15	54.93	15.95	-28.1	-28.6	16.4	1.69e-04	0	42	0	17372807168	28	20820
2026-01-03 22:06:43.16	55.21	16.03	-27.6	-28.0	16.8	2.34e-04	0	42	0	17481859072	32	15408
2026-01-03 22:06:44.17	55.49	16.11	-27.9	-28.4	16.7	2.34e-04	0	42	0	17599299584	28	20245
2026-01-03 22:06:45.18	55.77	16.18	-26.6	-27.1	16.6	3.00e-04	0	42	0	17716740096	30	15606
2026-01-03 22:06:46.18	56.05	16.26	-27.6	-28.1	16.6	3.00e-04	0	42	0	17825792000	30	17445
2026-01-03 22:06:47.20	56.34	16.34	-28.0	-28.5	16.4	7.62e-05	0	42	0	17934843904	30	18288
2026-01-03 22:06:48.20	56.62	16.41	-30.5	-30.9	16.1	7.62e-05	0	42	0	18052284416	32	21552
2026-01-03 22:06:49.21	56.91	16.49	-28.9	-29.4	16.0	4.14e-04	0	42	0	18161336320	28	22813
2026-01-03 22:06:50.22	57.19	16.56	-30.8	-31.3	15.4	4.14e-04	0	42	0	18278776832	34	20022
2026-01-03 22:06:51.23	57.49	16.64	-27.9	-28.4	16.3	1.45e-03	0	42	0	18396217344	28	20347
2026-01-03 22:06:52.24	57.78	16.72	-28.8	-29.3	15.6	1.45e-03	0	42	0	18505269248	34	15918
2026-01-03 22:06:53.25	58.07	16.79	-31.4	-32.0	15.9	4.80e-03	0	42	0	18622709760	38	17232
2026-01-03 22:06:54.26	58.37	16.87	-28.8	-29.3	15.3	4.80e-03	0	42	0	18731761664	38	12623
2026-01-03 22:06:55.27	58.66	16.94	-29.3	-29.9	14.8	4.17e-03	0	42	0	18849202176	36	15198
2026-01-03 22:06:56.28	58.96	17.01	-30.3	-30.7	14.7	4.17e-03	0	42	0	18966642688	34	18792
2026-01-03 22:06:57.28	59.26	17.09	-31.2	-31.6	14.7	4.17e-03	0	42	0	19075694592	40	14789
2026-01-03 22:06:58.29	59.56	17.16	-27.8	-28.3	16.7	5.91e-03	0	42	0	19184746496	34	14224
2026-01-03 22:06:59.30	59.87	17.23	-28.7	-29.2	16.7	5.91e-03	0	42	0	19302187008	32	17621
2026-01-03 22:07:00.31	60.17	17.30	-29.5	-29.9	15.9	2.81e-03	0	42	0	19411238912	32	19262
2026-01-03 22:07:01.32	60.48	17.38	-29.2	-29.8	15.6	1.16e-03	0	42	0	19528679424	36	15013
2026-01-03 22:07:02.33	60.79	17.45	-27.9	-28.4	15.1	1.16e-03	0	42	0	19646119936	36	12783
2026-01-03 22:07:03.34	61.10	17.52	-28.3	-28.7	15.6	1.68e-03	0	43	0	19755171840	30	18802
2026-01-03 22:07:04.35	61.41	17.59	-28.7	-29.2	15.3	1.68e-03	0	42	0	19864223744	30	19840
2026-01-03 22:07:05.36	61.73	17.66	-28.9	-29.4	15.2	1.68e-03	0	42	0	19981664256	36	14376
2026-01-03 22:07:06.37	62.04	17.73	-25.4	-25.9	16.8	2.17e-03	0	42	0	20099104768	26	17020
2026-01-03 22:07:07.38	62.36	17.80	-28.6	-29.0	16.2	2.17e-03	0	42	0	20208156672	30	19498
2026-01-03 22:07:08.39	62.68	17.87	-28.9	-29.3	16.3	4.25e-04	0	42	0	20325597184	30	20074
2026-01-03 22:07:09.39	63.00	17.93	-29.1	-29.6	16.1	4.25e-04	0	42	0	20434649088	30	20780
2026-01-03 22:07:10.40	63.32	18.00	-26.0	-26.6	16.6	1.31e-04	0	42	0	20552089600	28	16455
2026-01-03 22:07:11.41	63.65	18.07	-27.6	-28.1	16.1	1.31e-04	0	42	0	20661141504	32	15551
2026-01-03 22:07:12.42	63.97	18.13	-27.3	-27.7	16.7	2.34e-04	0	42	0	20778582016	28	18838
2026-01-03 22:07:13.42	64.30	18.20	-28.3	-28.7	16.2	4.90e-05	0	42	0	20887633920	30	18846
2026-01-03 22:07:14.43	64.62	18.26	-27.5	-28.0	16.4	4.90e-05	0	42	0	21005074432	30	17394
2026-01-03 22:07:15.44	64.95	18.33	-26.4	-26.8	16.8	4.90e-05	0	42	0	21114126336	28	16979
2026-01-03 22:07:16.46	65.29	18.39	-26.5	-27.0	16.8	1.14e-04	0	43	0	21231566848	26	19351
2026-01-03 22:07:17.46	65.62	18.45	-27.8	-28.4	16.5	1.14e-04	0	43	0	21340618752	32	16111
2026-01-03 22:07:18.47	65.96	18.52	-33.5	-33.9	14.2	1.52e-04	0	43	0	21458059264	40	19293
2026-01-03 22:07:19.48	66.29	18.58	-29.6	-30.0	15.9	1.52e-04	0	43	0	21575499776	34	17244
2026-01-03 22:07:20.49	66.63	18.64	-30.9	-31.4	14.1	4.68e-03	0	42	0	21684551680	30	25704
2026-01-03 22:07:21.50	66.97	18.70	-31.2	-31.6	15.0	4.68e-03	0	43	0	21793603584	40	14745
2026-01-03 22:07:22.51	67.31	18.76	-25.7	-26.1	17.1	1.85e-02	0	43	0	21911044096	30	13828
2026-01-03 22:07:23.52	67.66	18.82	-25.7	-26.2	16.7	1.85e-02	0	42	0	22028484608	26	17637
2026-01-03 22:07:24.53	68.00	18.88	-32.9	-33.4	15.6	1.14e-04	0	42	0	22137536512	34	25648
2026-01-03 22:07:25.54	68.35	18.94	-27.9	-28.4	16.5	1.14e-04	0	43	0	22254977024	32	16061
2026-01-03 22:07:26.55	68.69	18.99	-28.9	-29.5	16.0	1.32e-03	0	42	0	22364028928	38	12951
2026-01-03 22:07:27.55	69.04	19.05	-29.3	-29.9	16.1	1.32e-03	0	42	0	22481469440	34	17029
2026-01-03 22:07:28.56	69.39	19.10	-27.2	-27.7	16.2	1.32e-03	0	43	0	22590521344	32	14934
2026-01-03 22:07:29.58	69.75	19.16	-35.2	-36.0	12.7	3.87e-04	340	43	0	22707961856	32	38641
2026-01-03 22:07:30.58	70.10	19.21	-29.1	-29.6	16.6	3.87e-04	0	43	0	22817013760	36	14761
2026-01-03 22:07:31.59	70.45	19.26	-26.4	-26.9	16.2	1.38e-02	0	43	0	22934454272	28	17074
2026-01-03 22:07:32.60	70.81	19.32	-29.5	-29.9	16.0	1.38e-02	0	43	0	23043506176	32	19279
2026-01-03 22:07:33.61	71.16	19.37	-30.3	-30.7	15.7	6.76e-04	0	42	0	23160946688	36	16755
2026-01-03 22:07:34.62	71.52	19.42	-27.9	-28.4	16.1	6.76e-04	0	43	0	23278387200	34	14344
2026-01-03 22:07:35.63	71.88	19.47	-30.5	-30.8	14.3	1.17e-03	0	43	0	23387439104	42	11938
2026-01-03 22:07:36.64	72.24	19.52	-30.9	-31.2	15.1	1.17e-03	0	43	0	23504879616	30	25041
2026-01-03 22:07:37.65	72.61	19.56	-29.2	-29.7	14.9	2.66e-02	0	43	0	23613931520	36	14869
2026-01-03 22:07:38.65	72.97	19.61	-29.9	-30.4	14.9	4.75e-03	0	43	0	23722983424	32	20289
2026-01-03 22:07:39.66	73.33	19.66	-28.9	-29.3	16.2	4.75e-03	0	43	0	23840423936	38	12750
2026-01-03 22:07:40.67	73.70	19.70	-29.0	-29.4	15.2	1.85e-03	0	43	0	23957864448	38	12895
2026-01-03 22:07:41.68	74.07	19.75	-31.0	-31.3	16.0	1.85e-03	20	43	0	24066916352	48	8983
2026-01-03 22:07:42.68	74.43	19.79	-31.7	-32.2	15.5	1.20e-02	0	43	0	24184356864	34	22372
2026-01-03 22:07:43.69	74.80	19.83	-29.3	-29.8	16.4	1.20e-02	0	43	0	24293408768	32	18876
2026-01-03 22:07:44.70	75.17	19.87	-31.1	-31.8	14.6	1.20e-02	0	43	0	24410849280	32	23801
2026-01-03 22:07:45.71	75.55	19.91	-27.9	-28.4	16.5	7.68e-04	0	43	0	24519901184	32	16100
2026-01-03 22:07:46.71	75.92	19.95	-31.7	-32.3	15.3	7.68e-04	0	43	0	24628953088	32	25285
2026-01-03 22:07:47.72	76.29	19.99	-27.9	-28.3	16.6	5.83e-04	0	43	0	24754782208	32	16038
2026-01-03 22:07:48.73	76.67	20.02	-28.7	-29.2	15.8	5.83e-04	0	43	0	24863834112	40	11160
2026-01-03 22:07:49.74	77.04	20.06	-33.4	-33.7	15.4	5.83e-04	0	43	0	24972886016	38	21159
2026-01-03 22:07:50.75	77.42	20.10	-31.4	-31.8	15.6	4.05e-03	0	43	0	25090326528	38	16903
2026-01-03 22:07:51.76	77.80	20.13	-29.5	-30.0	15.9	4.05e-03	0	43	0	25199378432	36	15374
2026-01-03 22:07:52.77	78.18	20.16	-31.5	-32.2	15.1	3.35e-03	0	43	0	25316818944	36	19778
2026-01-03 22:07:53.78	78.56	20.19	-31.7	-32.2	15.1	3.35e-03	0	43	0	25434259456	50	8831
2026-01-03 22:07:54.79	78.94	20.22	-28.8	-29.3	15.3	5.22e-03	0	43	0	25543311360	34	16052
2026-01-03 22:07:55.80	79.32	20.25	-32.5	-33.1	15.4	5.22e-03	0	43	0	25652363264	38	19558
2026-01-03 22:07:56.81	79.71	20.28	-29.6	-30.1	15.5	4.59e-03	0	43	0	25769803776	34	17508
2026-01-03 22:07:57.82	80.09	20.31	-25.6	-26.1	16.9	4.59e-03	0	43	0	25887244288	28	15613
2026-01-03 22:07:58.83	80.47	20.34	-28.8	-29.3	16.7	6.21e-04	0	43	0	25996296192	32	17851
2026-01-03 22:07:59.84	80.86	20.36	-33.7	-34.1	15.1	6.21e-04	0	43	0	26113736704	44	15616
2026-01-03 22:08:00.85	81.24	20.38	-29.0	-29.4	16.3	1.98e-03	0	43	0	26222788608	34	16208
2026-01-03 22:08:01.86	81.63	20.41	-29.9	-30.4	16.0	1.98e-03	0	43	0	26340229120	32	20416
2026-01-03 22:08:02.87	82.02	20.43	-28.1	-28.6	16.7	3.87e-04	0	43	0	26457669632	28	20881
2026-01-03 22:08:03.88	82.41	20.45	-27.2	-27.7	16.2	3.87e-04	0	43	0	26566721536	40	9370
2026-01-03 22:08:04.89	82.79	20.47	-27.1	-27.6	16.3	3.87e-04	0	43	0	26684162048	32	14733
2026-01-03 22:08:05.90	83.18	20.49	-26.5	-26.9	16.9	4.03e-04	0	43	0	26793213952	30	15237
2026-01-03 22:08:06.90	83.57	20.50	-27.2	-27.7	16.4	4.03e-04	0	43	0	26902265856	30	16747
2026-01-03 22:08:07.91	83.96	20.52	-28.5	-28.9	16.6	1.63e-05	0	43	0	27019706368	38	12057
2026-01-03 22:08:08.92	84.35	20.53	-26.6	-27.2	16.4	3.32e-04	0	43	0	27137146880	28	17759
2026-01-03 22:08:09.93	84.74	20.55	-26.9	-27.4	16.6	3.32e-04	0	43	0	27246198784	28	18040
2026-01-03 22:08:10.94	85.13	20.56	-26.0	-26.4	16.5	3.32e-04	0	43	0	27363639296	28	16165
2026-01-03 22:08:11.95	85.52	20.57	-25.2	-25.7	16.5	4.90e-05	0	43	0	27472691200	26	16707
2026-01-03 22:08:12.96	85.92	20.58	-25.3	-25.7	16.7	4.90e-05	0	43	0	27581743104	26	16715
2026-01-03 22:08:13.97	86.31	20.59	-24.7	-25.2	16.7	0.00e+00	0	43	0	27707572224	26	15753
2026-01-03 22:08:14.98	86.70	20.60	-25.0	-25.5	16.7	0.00e+00	0	43	0	27816624128	24	18262
2026-01-03 22:08:15.99	87.09	20.60	-23.6	-24.1	16.9	0.00e+00	0	43	0	27925676032	24	15544
2026-01-03 22:08:16.99	87.48	20.61	-24.5	-24.9	16.8	0.00e+00	0	43	0	28043116544	24	17169
2026-01-03 22:08:18.01	87.88	20.61	-24.6	-25.1	16.9	0.00e+00	0	43	0	28152168448	24	17419
2026-01-03 22:08:19.02	88.27	20.61	-24.1	-24.6	16.9	0.00e+00	0	43	0	28269608960	24	16513
2026-01-03 22:08:20.03	88.66	20.61	-23.9	-24.4	16.9	0.00e+00	0	43	0	28387049472	24	16063
2026-01-03 22:08:21.04	89.06	20.61	-25.4	-25.9	16.9	0.00e+00	0	43	0	28496101376	24	19228
2026-01-03 22:08:22.04	89.45	20.61	-24.6	-25.1	16.9	0.00e+00	0	43	0	28613541888	24	17564
2026-01-03 22:08:23.05	89.84	20.61	-24.3	-24.7	16.9	0.00e+00	0	43	0	28722593792	24	16716
2026-01-03 22:08:24.06	90.23	20.61	-25.2	-25.6	16.9	0.00e+00	0	43	0	28831645696	24	18599
2026-01-03 22:08:25.07	90.63	20.60	-25.4	-25.9	17.0	0.00e+00	0	43	0	28949086208	24	19099
2026-01-03 22:08:26.08	91.02	20.59	-24.1	-24.6	17.0	0.00e+00	0	43	0	29066526720	24	16496
2026-01-03 22:08:27.09	91.41	20.59	-25.3	-25.8	17.0	0.00e+00	0	43	0	29175578624	24	18920
2026-01-03 22:08:28.10	91.80	20.58	-24.8	-25.3	17.0	0.00e+00	0	43	0	29293019136	24	17917
2026-01-03 22:08:29.10	92.19	20.57	-23.7	-24.2	17.0	0.00e+00	0	43	0	29402071040	24	15703
2026-01-03 22:08:30.11	92.58	20.56	-24.5	-25.0	17.0	0.00e+00	0	43	0	29511122944	22	19425
2026-01-03 22:08:31.12	92.97	20.55	-25.0	-25.5	17.1	0.00e+00	0	43	0	29636952064	24	18271
2026-01-03 22:08:32.12	93.36	20.53	-24.8	-25.4	16.9	0.00e+00	0	43	0	29746003968	24	18013
2026-01-03 22:08:33.13	93.75	20.52	-24.4	-24.8	17.0	0.00e+00	0	43	0	29855055872	24	16902
2026-01-03 22:08:34.14	94.14	20.50	-23.4	-23.8	17.1	0.00e+00	0	43	0	29972496384	22	16991
2026-01-03 22:08:35.15	94.53	20.49	-23.5	-23.9	17.1	0.00e+00	0	43	0	30081548288	22	17137
2026-01-03 22:08:36.16	94.92	20.47	-51.1	-53.6	6.1	0.00e+00	0	43	104	30098325504	60	58717
2026-01-03 22:08:37.16	95.31	20.45	-50.7	-53.2	6.1	0.00e+00	0	43	104	30098325504	60	55975
2026-01-03 22:08:38.17	95.70	20.43	-50.3	-52.8	6.1	0.00e+00	0	43	104	30098325504	60	53624
2026-01-03 22:08:39.18	96.08	20.41	-50.0	-52.5	6.1	0.00e+00	0	42	104	30098325504	60	51626
2026-01-03 22:08:40.19	96.47	20.38	-50.1	-52.6	6.1	0.00e+00	0	43	104	30098325504	60	52342
2026-01-03 22:08:41.21	96.86	20.36	-49.8	-52.3	6.1	0.00e+00	0	43	104	30098325504	60	50694
2026-01-03 22:08:42.22	97.25	20.33	-50.0	-52.5	6.1	0.00e+00	0	43	104	30098325504	60	51873
2026-01-03 22:08:43.22	97.63	20.31	-49.8	-52.4	6.1	0.00e+00	0	43	104	30098325504	60	50853
2026-01-03 22:08:44.23	98.01	20.28	-50.1	-52.6	6.1	0.00e+00	0	43	104	30098325504	60	52068
2026-01-03 22:08:45.24	98.40	20.25	-50.3	-52.8	6.1	0.00e+00	0	43	104	30098325504	60	53311
2026-01-03 22:08:46.25	98.78	20.22	-49.4	-52.1	6.1	0.00e+00	0	43	104	30098325504	60	49140
2026-01-03 22:08:47.26	99.16	20.19	-49.6	-52.2	6.1	0.00e+00	0	42	104	30098325504	60	49928
2026-01-03 22:08:48.27	99.54	20.16	-50.4	-53.0	6.1	0.00e+00	0	43	104	30098325504	60	54684
2026-01-03 22:08:49.28	99.92	20.13	-50.6	-53.2	6.1	0.00e+00	0	43	104	30098325504	60	55721
2026-01-03 22:08:50.28	100.30	20.09	-50.9	-53.3	6.1	0.00e+00	0	42	104	30098325504	60	56786
2026-01-03 22:08:51.29	100.68	20.06	-51.2	-53.7	6.1	0.00e+00	0	42	104	30098325504	60	59060
2026-01-03 22:08:52.30	101.05	20.02	-50.8	-53.3	6.1	0.00e+00	0	42	104	30098325504	60	56428
2026-01-03 22:08:53.31	101.43	19.98	-50.9	-53.4	6.1	0.00e+00	0	42	104	30098325504	60	57325
2026-01-03 22:08:54.32	101.81	19.95	-50.8	-53.2	6.1	0.00e+00	0	42	104	30098325504	60	56272
2026-01-03 22:08:55.33	102.18	19.91	-50.5	-53.0	6.1	0.00e+00	0	42	104	30098325504	60	54937
2026-01-03 22:08:56.34	102.55	19.87	-50.7	-53.2	6.1	0.00e+00	0	42	104	30098325504	60	55746
2026-01-03 22:08:57.35	102.92	19.83	-51.0	-53.5	6.1	0.00e+00	0	42	104	30098325504	60	57991
2026-01-03 22:08:58.36	103.30	19.78	-50.5	-53.1	6.1	0.00e+00	0	43	104	30098325504	60	55129
2026-01-03 22:08:59.37	103.67	19.74	-50.8	-53.3	6.1	0.00e+00	0	42	104	30098325504	60	56784
2026-01-03 22:09:00.38	104.03	19.70	-50.8	-53.2	6.1	0.00e+00	0	43	104	30098325504	60	56181
2026-01-03 22:09:01.39	104.40	19.65	-51.3	-53.8	6.1	0.00e+00	0	43	104	30098325504	60	60003
2026-01-03 22:09:02.40	104.77	19.60	-51.5	-54.0	6.1	0.00e+00	0	42	104	30098325504	60	61577
2026-01-03 22:09:03.41	105.13	19.56	-50.5	-53.0	6.1	0.00e+00	0	43	104	30098325504	60	54695
2026-01-03 22:09:04.42	105.50	19.51	-50.3	-52.8	6.1	0.00e+00	0	43	104	30098325504	60	53378
2026-01-03 22:09:05.42	105.86	19.46	-50.5	-53.0	6.1	0.00e+00	0	42	104	30098325504	60	54627
2026-01-03 22:09:06.43	106.22	19.41	-50.9	-53.3	6.1	0.00e+00	0	42	104	30098325504	60	56704
2026-01-03 22:09:07.44	106.58	19.36	-50.7	-53.1	6.1	0.00e+00	0	42	104	30098325504	60	55575
2026-01-03 22:09:08.45	106.94	19.31	-51.3	-53.8	6.1	0.00e+00	0	42	104	30098325504	60	59844
2026-01-03 22:09:09.46	107.29	19.26	-51.0	-53.4	6.1	0.00e+00	0	43	104	30098325504	60	57473
2026-01-03 22:09:10.47	107.65	19.20	-51.2	-53.7	6.1	0.00e+00	0	43	104	30098325504	60	59140
2026-01-03 22:09:11.48	108.00	19.15	-51.2	-53.7	6.1	0.00e+00	0	43	104	30098325504	60	58970
2026-01-03 22:09:12.49	108.36	19.10	-51.5	-54.0	6.1	0.00e+00	0	42	104	30098325504	60	61358
2026-01-03 22:09:13.50	108.71	19.04	-51.1	-53.6	6.1	0.00e+00	0	43	104	30098325504	60	58809
2026-01-03 22:09:14.51	109.06	18.98	-50.6	-53.1	6.1	0.00e+00	0	43	104	30098325504	60	55330
2026-01-03 22:09:15.52	109.41	18.93	-50.8	-53.3	6.0	0.00e+00	0	42	104	30098325504	60	56386
2026-01-03 22:09:16.53	109.75	18.87	-50.8	-53.3	6.1	0.00e+00	0	42	104	30098325504	60	56541
2026-01-03 22:09:17.54	110.10	18.81	-51.4	-53.9	6.1	0.00e+00	0	42	104	30098325504	60	60741
2026-01-03 22:09:18.55	110.44	18.75	-51.0	-53.5	6.1	0.00e+00	0	43	104	30098325504	60	57763
2026-01-03 22:09:19.55	110.78	18.69	-51.2	-53.6	6.1	0.00e+00	0	42	104	30098325504	60	58588
2026-01-03 22:09:20.56	111.12	18.63	-50.8	-53.3	6.0	0.00e+00	0	43	104	30098325504	60	56537
2026-01-03 22:09:21.57	111.46	18.57	-50.9	-53.4	6.1	0.00e+00	0	42	104	30098325504	60	57220
2026-01-03 22:09:22.58	111.80	18.51	-51.1	-53.6	6.1	0.00e+00	0	43	104	30098325504	60	58417
2026-01-03 22:09:23.59	112.14	18.44	-50.9	-53.4	6.1	0.00e+00	0	43	104	30098325504	60	57319
2026-01-03 22:09:24.60	112.47	18.38	-51.0	-53.5	6.1	0.00e+00	0	42	104	30098325504	60	57878
2026-01-03 22:09:25.61	112.81	18.31	-51.0	-53.5	6.1	0.00e+00	0	42	104	30098325504	60	58008
2026-01-03 22:09:26.62	113.14	18.25	-51.2	-53.6	6.1	0.00e+00	0	42	104	30098325504	60	58902
2026-01-03 22:09:27.63	113.47	18.18	-51.2	-53.6	6.1	0.00e+00	0	42	104	30098325504	60	58621
2026-01-03 22:09:28.64	113.80	18.12	-51.3	-53.7	6.1	0.00e+00	0	42	104	30098325504	60	59557
2026-01-03 22:09:29.65	114.13	18.05	-50.8	-53.2	6.1	0.00e+00	0	42	104	30098325504	60	56163
2026-01-03 22:09:30.66	114.45	17.98	-50.9	-53.4	6.1	0.00e+00	0	42	104	30098325504	60	57279
2026-01-03 22:09:31.67	114.77	17.92	-50.6	-53.1	6.1	0.00e+00	0	42	104	30098325504	60	55619
2026-01-03 22:09:32.68	115.10	17.85	-50.7	-53.1	6.1	0.00e+00	0	42	104	30098325504	60	55596
2026-01-03 22:09:33.68	115.41	17.78	-51.2	-53.7	6.1	0.00e+00	0	42	104	30098325504	60	59299
2026-01-03 22:09:34.69	115.73	17.71	-50.9	-53.4	6.0	0.00e+00	0	42	104	30098325504	60	57018
2026-01-03 22:09:35.70	116.05	17.64	-51.0	-53.5	6.1	0.00e+00	0	42	104	30098325504	60	57886
2026-01-03 22:09:36.71	116.36	17.57	-51.4	-53.9	6.1	0.00e+00	0	42	104	30098325504	60	60536
2026-01-03 22:09:37.72	116.68	17.50	-50.9	-53.4	6.1	0.00e+00	0	42	104	30098325504	60	57201
2026-01-03 22:09:38.73	116.99	17.43	-50.8	-53.3	6.1	0.00e+00	0	42	104	30098325504	60	56557
2026-01-03 22:09:39.74	117.30	17.35	-51.0	-53.4	6.1	0.00e+00	0	42	104	30098325504	60	57255
2026-01-03 22:09:40.75	117.61	17.28	-50.5	-53.0	6.1	0.00e+00	0	42	104	30098325504	60	55006
2026-01-03 22:09:41.76	117.92	17.21	-50.6	-53.1	6.1	0.00e+00	0	42	104	30098325504	60	55627
2026-01-03 22:09:42.77	118.22	17.14	-50.9	-53.4	6.1	0.00e+00	0	42	104	30098325504	60	56993
2026-01-03 22:09:43.77	118.52	17.06	-51.1	-53.6	6.1	0.00e+00	0	42	104	30098325504	60	58586
2026-01-03 22:09:44.79	118.83	16.99	-50.9	-53.4	6.1	0.00e+00	0	42	104	30098325504	60	57562
2026-01-03 22:09:45.80	119.13	16.91	-51.1	-53.6	6.1	0.00e+00	0	42	104	30098325504	60	58621
2026-01-03 22:09:46.80	119.42	16.84	-51.1	-53.6	6.1	0.00e+00	0	42	104	30098325504	60	58560
2026-01-03 22:09:47.82	119.72	16.76	-51.2	-53.7	6.1	0.00e+00	0	42	104	30098325504	60	59604
2026-01-03 22:09:48.83	120.02	16.69	-51.2	-53.7	6.1	0.00e+00	0	42	104	30098325504	60	59382
2026-01-03 22:09:49.84	120.31	16.61	-51.4	-53.9	6.1	0.00e+00	0	42	104	30098325504	60	60848
2026-01-03 22:09:50.84	120.60	16.54	-51.0	-53.5	6.1	0.00e+00	0	42	104	30098325504	60	57892
2026-01-03 22:09:51.85	120.89	16.46	-50.7	-53.2	6.1	0.00e+00	0	42	104	30098325504	60	56235
2026-01-03 22:09:52.86	121.18	16.38	-51.5	-54.0	6.1	0.00e+00	0	42	104	30098325504	60	61127
2026-01-03 22:09:53.87	121.47	16.31	-51.3	-53.8	6.1	0.00e+00	0	42	104	30098325504	60	60304
2026-01-03 22:09:54.87	121.75	16.23	-51.1	-53.6	6.1	0.00e+00	0	42	104	30098325504	60	58347
2026-01-03 22:09:55.88	122.03	16.15	-51.2	-53.7	6.1	0.00e+00	0	42	104	30098325504	60	59088
2026-01-03 22:09:56.89	122.32	16.07	-51.2	-53.6	6.1	0.00e+00	0	42	104	30098325504	60	58898
2026-01-03 22:09:57.90	122.60	16.00	-50.4	-52.9	6.1	0.00e+00	0	42	104	30098325504	60	53779
2026-01-03 22:09:58.91	122.87	15.92	-51.2	-53.6	6.1	0.00e+00	0	42	104	30098325504	60	58810
2026-01-03 22:09:59.92	123.15	15.84	-51.3	-53.8	6.1	0.00e+00	0	42	104	30098325504	60	59760
2026-01-03 22:10:00.93	123.43	15.76	-50.9	-53.4	6.1	0.00e+00	0	42	104	30098325504	60	57419
2026-01-03 22:10:01.94	123.70	15.68	-50.8	-53.3	6.1	0.00e+00	0	42	104	30098325504	60	56335
2026-01-03 22:10:02.95	123.97	15.60	-50.6	-53.1	6.1	0.00e+00	0	42	104	30098325504	60	55390
2026-01-03 22:10:03.96	124.24	15.52	-50.7	-53.1	6.1	0.00e+00	0	42	104	30098325504	60	55630
2026-01-03 22:10:04.97	124.51	15.44	-50.9	-53.3	6.1	0.00e+00	0	42	104	30098325504	60	56888
2026-01-03 22:10:05.98	124.78	15.36	-51.5	-53.9	6.1	0.00e+00	0	42	104	30098325504	60	60799
2026-01-03 22:10:06.99	125.04	15.28	-51.3	-53.8	6.1	0.00e+00	0	42	104	30098325504	60	59648
2026-01-03 22:10:08.00	125.31	15.20	-51.2	-53.7	6.1	0.00e+00	0	42	104	30098325504	60	59524
2026-01-03 22:10:09.01	125.57	15.12	-51.2	-53.6	6.1	0.00e+00	0	42	104	30098325504	60	58696
2026-01-03 22:10:10.02	125.83	15.04	-51.4	-53.9	6.1	0.00e+00	0	42	104	30098325504	60	60478
2026-01-03 22:10:11.03	126.09	14.96	-51.1	-53.5	6.1	0.00e+00	0	42	104	30098325504	60	58128
2026-01-03 22:10:12.03	126.34	14.88	-51.2	-53.6	6.1	0.00e+00	0	42	104	30098325504	60	58898
2026-01-03 22:10:13.04	126.60	14.80	-51.3	-53.8	6.1	0.00e+00	0	42	104	30098325504	60	59995
2026-01-03 22:10:14.05	126.85	14.72	-50.7	-53.2	6.1	0.00e+00	0	42	104	30098325504	60	55680
2026-01-03 22:10:15.06	127.10	14.64	-50.8	-53.3	6.1	0.00e+00	0	42	104	30098325504	60	56770
2026-01-03 22:10:16.07	127.36	14.55	-50.7	-53.2	6.1	0.00e+00	0	42	104	30098325504	60	56185
2026-01-03 22:10:17.08	127.60	14.47	-50.9	-53.4	6.1	0.00e+00	0	42	104	30098325504	60	57073
2026-01-03 22:10:18.09	127.85	14.39	-50.9	-53.3	6.1	0.00e+00	0	42	104	30098325504	60	56792
2026-01-03 22:10:19.10	128.10	14.31	-51.0	-53.4	6.1	0.00e+00	0	42	104	30098325504	60	57330
2026-01-03 22:10:20.11	128.34	14.23	-50.9	-53.3	6.1	0.00e+00	0	42	104	30098325504	60	56875
2026-01-03 22:10:21.12	128.59	14.15	-51.3	-53.8	6.1	0.00e+00	0	42	104	30098325504	60	59660
2026-01-03 22:10:22.13	128.83	14.06	-50.6	-53.2	6.1	0.00e+00	0	42	104	30098325504	60	55821
2026-01-03 22:10:23.14	129.07	13.98	-50.7	-53.1	6.1	0.00e+00	0	42	104	30098325504	60	55640
2026-01-03 22:10:24.15	129.31	13.90	-51.3	-53.7	6.1	0.00e+00	0	42	104	30098325504	60	59239
2026-01-03 22:10:25.16	129.54	13.82	-50.4	-52.9	6.1	0.00e+00	0	42	104	30098325504	60	54090
2026-01-03 22:10:26.17	129.78	13.74	-51.1	-53.6	6.1	0.00e+00	0	42	104	30098325504	60	58754
2026-01-03 22:10:27.18	130.01	13.65	-50.9	-53.5	6.1	0.00e+00	0	42	104	30098325504	60	58103
2026-01-03 22:10:28.19	130.24	13.57	-51.0	-53.5	6.1	0.00e+00	0	42	104	30098325504	60	57692
2026-01-03 22:10:29.20	130.47	13.49	-50.4	-52.9	6.1	0.00e+00	0	42	104	30098325504	60	53927
2026-01-03 22:10:30.20	130.70	13.41	-50.9	-53.4	6.1	0.00e+00	0	42	104	30098325504	60	57363
2026-01-03 22:10:31.21	130.93	13.33	-51.4	-53.8	6.1	0.00e+00	0	42	104	30098325504	60	60025
2026-01-03 22:10:32.22	131.16	13.24	-50.7	-53.2	6.1	0.00e+00	0	42	104	30098325504	60	56105
2026-01-03 22:10:33.23	131.38	13.16	-50.7	-53.1	6.1	0.00e+00	0	42	104	30098325504	60	55537
2026-01-03 22:10:34.24	131.60	13.08	-50.8	-53.3	6.1	0.00e+00	0	42	104	30098325504	60	56435
2026-01-03 22:10:35.25	131.83	13.00	-50.4	-52.9	6.1	0.00e+00	0	42	104	30098325504	60	53775
2026-01-03 22:10:36.26	132.05	12.92	-50.2	-52.7	6.1	0.00e+00	0	42	104	30098325504	60	52646
2026-01-03 22:10:37.27	132.27	12.83	-50.6	-53.1	6.1	0.00e+00	0	42	104	30098325504	60	55402
2026-01-03 22:10:38.28	132.48	12.75	-50.5	-53.0	6.1	0.00e+00	0	42	104	30098325504	60	54805
2026-01-03 22:10:39.29	132.70	12.67	-50.6	-53.0	6.1	0.00e+00	0	42	104	30098325504	60	54650
2026-01-03 22:10:40.30	132.92	12.59	-50.5	-53.0	6.1	0.00e+00	0	42	104	30098325504	60	54401
2026-01-03 22:10:41.31	133.13	12.51	-50.4	-52.8	6.0	0.00e+00	0	42	104	30098325504	60	53428
2026-01-03 22:10:42.32	133.34	12.42	-51.0	-53.5	6.1	0.00e+00	0	42	104	30098325504	60	57785
2026-01-03 22:10:43.33	133.55	12.34	-50.7	-53.1	6.1	0.00e+00	0	42	104	30098325504	60	55585
2026-01-03 22:10:44.34	133.76	12.26	-51.2	-53.7	6.1	0.00e+00	0	42	104	30098325504	60	59348
2026-01-03 22:10:45.35	133.97	12.18	-50.6	-53.1	6.1	0.00e+00	0	42	104	30098325504	60	55342
2026-01-03 22:10:46.36	134.18	12.10	-50.2	-52.7	6.1	0.00e+00	0	42	104	30098325504	60	52717
2026-01-03 22:10:47.36	134.38	12.02	-50.7	-53.2	6.1	0.00e+00	0	42	104	30098325504	60	55789
2026-01-03 22:10:48.37	134.58	11.94	-50.8	-53.2	6.1	0.00e+00	0	42	104	30098325504	60	56210
2026-01-03 22:10:49.38	134.79	11.85	-50.4	-52.8	6.1	0.00e+00	0	42	104	30098325504	60	53766
2026-01-03 22:10:50.39	134.99	11.77	-50.1	-52.6	6.1	0.00e+00	0	42	104	30098325504	60	52032
2026-01-03 22:10:51.40	135.19	11.69	-49.9	-52.4	6.1	0.00e+00	0	42	104	30098325504	60	51008
2026-01-03 22:10:52.41	135.39	11.61	-50.0	-52.5	6.1	0.00e+00	0	42	104	30098325504	60	51548
2026-01-03 22:10:53.42	135.58	11.53	-49.9	-52.4	6.1	0.00e+00	0	42	104	30098325504	60	50966
2026-01-03 22:10:54.43	135.78	11.45	-49.9	-52.4	6.1	0.00e+00	0	42	104	30098325504	60	50853
2026-01-03 22:10:55.44	135.98	11.37	-50.3	-52.7	6.1	0.00e+00	0	42	104	30098325504	60	53106
2026-01-03 22:10:56.44	136.17	11.29	-50.6	-53.0	6.1	0.00e+00	0	42	104	30098325504	60	54871
2026-01-03 22:10:57.45	136.36	11.21	-50.4	-52.8	6.1	0.00e+00	0	42	104	30098325504	60	53637
2026-01-03 22:10:58.47	136.55	11.13	-50.4	-52.8	6.1	0.00e+00	0	42	104	30098325504	60	53755
2026-01-03 22:10:59.47	136.74	11.05	-50.6	-53.1	6.1	0.00e+00	0	42	104	30098325504	60	55454
2026-01-03 22:11:00.48	136.93	10.97	-50.8	-53.3	6.1	0.00e+00	0	42	104	30098325504	60	56615
2026-01-03 22:11:01.49	137.12	10.88	-50.6	-53.1	6.1	0.00e+00	0	42	104	30098325504	60	55372
2026-01-03 22:11:02.50	137.30	10.80	-50.2	-52.7	6.1	0.00e+00	0	42	104	30098325504	60	52673
2026-01-03 22:11:03.51	137.49	10.72	-50.0	-52.5	6.1	0.00e+00	0	42	104	30098325504	60	51653
2026-01-03 22:11:04.51	137.67	10.65	-50.8	-53.4	6.1	0.00e+00	0	42	104	30098325504	60	57117
2026-01-03 22:11:05.52	137.85	10.57	-51.0	-53.4	6.1	0.00e+00	0	41	104	30098325504	60	57570
2026-01-03 22:11:06.53	138.04	10.49	-50.8	-53.3	6.1	0.00e+00	0	42	104	30098325504	60	56624
2026-01-03 22:11:07.54	138.22	10.41	-50.5	-52.9	6.1	0.00e+00	0	41	104	30098325504	60	54350
2026-01-03 22:11:08.54	138.39	10.33	-50.1	-52.6	6.1	0.00e+00	0	41	104	30098325504	60	52120
2026-01-03 22:11:09.55	138.57	10.25	-50.8	-53.3	6.1	0.00e+00	0	42	104	30098325504	60	56705
2026-01-03 22:11:10.56	138.75	10.17	-50.5	-53.0	6.1	0.00e+00	0	42	104	30098325504	60	54423
2026-01-03 22:11:11.57	138.93	10.09	-50.3	-52.8	6.1	0.00e+00	0	42	104	30098325504	60	53438
2026-01-03 22:11:12.58	139.10	10.01	-50.7	-53.2	6.1	0.00e+00	0	42	104	30098325504	60	56031
2026-01-03 22:11:13.59	139.27	9.93	-50.8	-53.4	6.1	0.00e+00	0	41	104	30098325504	60	57101
2026-01-03 22:11:14.60	139.45	9.85	-50.9	-53.4	6.1	0.00e+00	0	42	104	30098325504	60	57108
2026-01-03 22:11:15.61	139.62	9.77	-50.4	-52.8	6.1	0.00e+00	0	42	104	30098325504	60	53753
2026-01-03 22:11:16.62	139.79	9.70	-50.1	-52.5	6.1	0.00e+00	0	42	104	30098325504	60	51856
2026-01-03 22:11:17.63	139.96	9.62	-50.3	-52.7	6.1	0.00e+00	0	41	104	30098325504	60	53134
2026-01-03 22:11:18.64	140.13	9.54	-50.3	-52.7	6.1	0.00e+00	0	42	104	30098325504	60	53127
2026-01-03 22:11:19.65	140.29	9.46	-50.2	-52.7	6.1	0.00e+00	0	41	104	30098325504	60	52584
2026-01-03 22:11:20.66	140.46	9.38	-49.7	-52.2	6.1	0.00e+00	0	41	104	30098325504	60	49860
2026-01-03 22:11:21.67	140.62	9.31	-50.2	-52.7	6.1	0.00e+00	0	41	104	30098325504	60	52624
2026-01-03 22:11:22.68	140.79	9.23	-50.3	-52.8	6.1	0.00e+00	0	41	104	30098325504	60	53503
2026-01-03 22:11:23.69	140.95	9.15	-50.4	-52.8	6.1	0.00e+00	0	42	104	30098325504	60	53606
2026-01-03 22:11:24.70	141.11	9.07	-50.2	-52.7	6.1	0.00e+00	0	41	104	30098325504	60	52636
2026-01-03 22:11:25.70	141.27	9.00	-50.0	-52.4	6.1	0.00e+00	0	41	104	30098325504	60	51255
2026-01-03 22:11:26.71	141.43	8.92	-49.7	-52.2	6.1	0.00e+00	0	41	104	30098325504	60	49856
2026-01-03 22:11:27.72	141.59	8.84	-49.9	-52.4	6.1	0.00e+00	0	41	104	30098325504	60	50830
2026-01-03 22:11:28.73	141.75	8.77	-50.1	-52.7	6.1	0.00e+00	0	41	104	30098325504	60	52726
2026-01-03 22:11:29.74	141.91	8.69	-50.3	-52.7	6.1	0.00e+00	0	41	104	30098325504	60	53003
2026-01-03 22:11:30.75	142.06	8.61	-50.2	-52.6	6.1	0.00e+00	0	41	104	30098325504	60	52527
2026-01-03 22:11:31.76	142.22	8.54	-49.5	-52.0	6.1	0.00e+00	0	41	104	30098325504	60	48568
2026-01-03 22:11:32.77	142.37	8.46	-49.2	-51.7	6.1	0.00e+00	0	41	104	30098325504	60	47158
2026-01-03 22:11:33.78	142.52	8.39	-50.0	-52.5	6.1	0.00e+00	0	41	104	30098325504	60	51492
2026-01-03 22:11:34.79	142.68	8.31	-49.7	-52.2	6.1	0.00e+00	0	41	104	30098325504	60	49775
2026-01-03 22:11:35.80	142.83	8.23	-49.9	-52.3	6.1	0.00e+00	0	42	104	30098325504	60	50617
2026-01-03 22:11:36.81	142.98	8.16	-49.8	-52.2	6.1	0.00e+00	0	41	104	30098325504	60	50145
2026-01-03 22:11:37.82	143.13	8.08	-49.3	-51.8	6.1	0.00e+00	0	41	104	30098325504	60	47518
2026-01-03 22:11:38.83	143.27	8.01	-48.8	-51.4	6.1	0.00e+00	0	41	104	30098325504	60	45521
2026-01-03 22:11:39.84	143.42	7.93	-48.8	-51.3	6.1	0.00e+00	0	42	104	30098325504	60	45112
2026-01-03 22:11:40.85	143.57	7.86	-49.4	-51.9	6.1	0.00e+00	0	41	104	30098325504	60	48267
2026-01-03 22:11:41.86	143.71	7.78	-49.9	-52.4	6.1	0.00e+00	0	41	104	30098325504	60	51071
2026-01-03 22:11:42.87	143.86	7.71	-49.8	-52.3	6.1	0.00e+00	0	42	104	30098325504	60	50286
2026-01-03 22:11:43.87	144.00	7.64	-49.6	-52.1	6.1	0.00e+00	0	42	104	30098325504	60	49554
2026-01-03 22:11:44.88	144.14	7.56	-49.8	-52.3	6.1	0.00e+00	0	41	104	30098325504	60	50371
2026-01-03 22:11:45.89	144.29	7.49	-50.3	-52.8	6.1	0.00e+00	0	41	104	30098325504	60	53422
2026-01-03 22:11:46.90	144.43	7.41	-50.3	-52.8	6.1	0.00e+00	0	41	104	30098325504	60	53334
2026-01-03 22:11:47.91	144.57	7.34	-50.3	-52.8	6.1	0.00e+00	0	41	104	30098325504	60	53335
2026-01-03 22:11:48.92	144.71	7.27	-49.9	-52.4	6.1	0.00e+00	0	41	104	30098325504	60	51004
2026-01-03 22:11:49.93	144.85	7.19	-50.8	-53.3	6.1	0.00e+00	0	42	104	30098325504	60	56583
2026-01-03 22:11:50.94	144.98	7.12	-50.4	-52.9	6.1	0.00e+00	0	41	104	30098325504	60	54171
2026-01-03 22:11:51.94	145.12	7.05	-49.9	-52.4	6.1	0.00e+00	0	41	104	30098325504	60	50991
2026-01-03 22:11:52.96	145.26	6.97	-49.7	-52.1	6.1	0.00e+00	0	41	104	30098325504	60	49170
2026-01-03 22:11:53.96	145.39	6.90	-49.9	-52.4	6.1	0.00e+00	0	41	104	30098325504	60	50946
2026-01-03 22:11:54.97	145.53	6.83	-50.6	-53.1	6.1	0.00e+00	0	42	104	30098325504	60	55392
2026-01-03 22:11:55.98	145.66	6.76	-50.3	-52.8	6.1	0.00e+00	0	41	104	30098325504	60	53350
2026-01-03 22:11:56.99	145.79	6.68	-50.3	-52.8	6.1	0.00e+00	0	42	104	30098325504	60	53370
2026-01-03 22:11:58.00	145.93	6.61	-49.8	-52.3	6.1	0.00e+00	0	41	104	30098325504	60	50267
2026-01-03 22:11:59.01	146.06	6.54	-49.8	-52.2	6.1	0.00e+00	0	41	104	30098325504	60	49894
2026-01-03 22:12:00.02	146.19	6.47	-49.5	-52.0	6.1	0.00e+00	0	42	104	30098325504	60	48700
2026-01-03 22:12:01.03	146.32	6.40	-49.9	-52.3	6.0	0.00e+00	0	42	104	30098325504	60	50364
2026-01-03 22:12:02.04	146.45	6.32	-50.5	-53.0	6.1	0.00e+00	0	42	104	30098325504	60	54521
2026-01-03 22:12:03.05	146.57	6.25	-49.8	-52.3	6.1	0.00e+00	0	41	104	30098325504	60	50463
2026-01-03 22:12:04.06	146.70	6.18	-50.8	-53.2	6.1	0.00e+00	0	42	104	30098325504	60	56300
2026-01-03 22:12:05.07	146.83	6.11	-50.2	-52.6	6.1	0.00e+00	0	42	104	30098325504	60	52540
2026-01-03 22:12:06.08	146.96	6.04	-50.5	-53.1	6.1	0.00e+00	0	42	104	30098325504	60	55329
2026-01-03 22:12:07.09	147.08	5.97	-50.4	-52.9	6.1	0.00e+00	0	42	104	30098325504	60	53842
2026-01-03 22:12:08.10	147.21	5.90	-50.2	-52.7	6.1	0.00e+00	0	42	104	30098325504	60	52916
2026-01-03 22:12:09.10	147.33	5.83	-49.6	-52.2	6.1	0.00e+00	0	42	104	30098325504	60	49621
2026-01-03 22:12:10.11	147.45	5.76	-49.6	-52.1	6.1	0.00e+00	0	42	104	30098325504	60	49522
2026-01-03 22:12:11.12	147.57	5.69	-49.4	-51.9	6.1	0.00e+00	0	42	104	30098325504	60	48284
2026-01-03 22:12:12.13	147.70	5.62	-49.4	-51.8	6.1	0.00e+00	0	42	104	30098325504	60	47588
2026-01-03 22:12:13.14	147.82	5.55	-49.9	-52.3	6.1	0.00e+00	0	42	104	30098325504	60	50450
2026-01-03 22:12:14.15	147.94	5.48	-49.7	-52.1	6.1	0.00e+00	0	42	104	30098325504	60	49455
2026-01-03 22:12:15.16	148.06	5.41	-49.5	-52.0	6.1	0.00e+00	0	41	104	30098325504	60	48535
2026-01-03 22:12:16.17	148.18	5.34	-49.3	-51.8	6.1	0.00e+00	0	41	104	30098325504	60	47681
2026-01-03 22:12:17.18	148.29	5.27	-49.5	-52.0	6.1	0.00e+00	0	42	104	30098325504	60	48576
2026-01-03 22:12:18.19	148.41	5.20	-49.3	-51.8	6.1	0.00e+00	0	42	104	30098325504	60	47618
2026-01-03 22:12:19.20	148.53	5.13	-49.3	-51.8	6.1	0.00e+00	0	42	104	30098325504	60	47387
2026-01-03 22:12:20.20	148.64	5.07	-49.4	-51.9	6.1	0.00e+00	0	42	104	30098325504	60	48249
2026-01-03 22:12:21.21	148.76	5.00	-50.3	-52.8	6.1	0.00e+00	0	42	104	30098325504	60	53678
2026-01-03 22:12:22.22	148.87	4.93	-50.5	-53.0	6.1	0.00e+00	0	42	104	30098325504	60	54907
2026-01-03 22:12:23.23	148.99	4.86	-50.8	-53.3	6.1	0.00e+00	0	42	104	30098325504	60	56632
2026-01-03 22:12:24.24	149.10	4.79	-50.5	-53.0	6.1	0.00e+00	0	41	104	30098325504	60	54849
2026-01-03 22:12:25.24	149.21	4.72	-50.4	-52.9	6.1	0.00e+00	0	42	104	30098325504	60	54252
2026-01-03 22:12:26.25	149.33	4.66	-49.7	-52.2	6.1	0.00e+00	0	42	104	30098325504	60	49787
2026-01-03 22:12:27.26	149.44	4.59	-49.7	-52.2	6.1	0.00e+00	0	42	104	30098325504	60	50130
2026-01-03 22:12:28.27	149.55	4.52	-50.3	-52.8	6.1	0.00e+00	0	41	104	30098325504	60	53524
2026-01-03 22:12:29.28	149.66	4.45	-50.1	-52.6	6.1	0.00e+00	0	41	104	30098325504	60	52095
2026-01-03 22:12:30.29	149.77	4.39	-50.3	-52.8	6.1	0.00e+00	0	41	104	30098325504	60	53405
2026-01-03 22:12:31.30	149.88	4.32	-50.1	-52.6	6.1	0.00e+00	0	41	104	30098325504	60	51985
2026-01-03 22:12:32.31	149.99	4.25	-50.2	-52.7	6.0	0.00e+00	0	41	104	30098325504	60	52664
2026-01-03 22:12:33.32	150.10	4.19	-50.1	-52.6	6.1	0.00e+00	0	41	104	30098325504	60	52162
2026-01-03 22:12:34.32	150.20	4.12	-50.3	-52.8	6.1	0.00e+00	0	41	104	30098325504	60	53183
2026-01-03 22:12:35.33	150.31	4.05	-50.2	-52.6	6.1	0.00e+00	0	41	104	30098325504	60	52304
2026-01-03 22:12:36.34	150.41	3.99	-49.3	-51.8	6.1	0.00e+00	0	41	104	30098325504	60	47823
2026-01-03 22:12:37.35	150.52	3.92	-49.3	-51.8	6.1	0.00e+00	0	41	104	30098325504	60	47781
2026-01-03 22:12:38.36	150.63	3.86	-49.0	-51.5	6.1	0.00e+00	0	42	104	30098325504	60	46020
2026-01-03 22:12:39.36	150.73	3.79	-48.9	-51.4	6.1	0.00e+00	0	42	104	30098325504	60	45270
2026-01-03 22:12:40.37	150.83	3.72	-49.2	-51.7	6.1	0.00e+00	0	41	104	30098325504	60	47020
2026-01-03 22:12:41.38	150.94	3.66	-49.8	-52.2	6.1	0.00e+00	0	41	104	30098325504	60	50081
2026-01-03 22:12:42.39	151.04	3.59	-50.2	-52.7	6.1	0.00e+00	0	41	104	30098325504	60	52703
2026-01-03 22:12:43.40	151.14	3.53	-49.9	-52.4	6.1	0.00e+00	0	41	104	30098325504	60	50795
2026-01-03 22:12:44.41	151.24	3.46	-49.9	-52.3	6.0	0.00e+00	0	41	104	30098325504	60	50533
2026-01-03 22:12:45.42	151.34	3.40	-50.4	-52.9	6.1	0.00e+00	0	42	104	30098325504	60	53792
2026-01-03 22:12:46.43	151.45	3.33	-49.7	-52.2	6.1	0.00e+00	0	41	104	30098325504	60	49640
2026-01-03 22:12:47.44	151.55	3.27	-49.9	-52.4	6.0	0.00e+00	0	42	104	30098325504	60	50842
2026-01-03 22:12:48.45	151.65	3.20	-50.0	-52.5	6.1	0.00e+00	0	41	104	30098325504	60	51379
2026-01-03 22:12:49.46	151.74	3.14	-49.7	-52.2	6.1	0.00e+00	0	42	104	30098325504	60	49899
2026-01-03 22:12:50.47	151.84	3.08	-50.0	-52.4	6.1	0.00e+00	0	42	104	30098325504	60	51239
2026-01-03 22:12:51.48	151.94	3.01	-49.5	-52.0	6.1	0.00e+00	0	42	104	30098325504	60	49037
2026-01-03 22:12:52.49	152.04	2.95	-50.1	-52.5	6.1	0.00e+00	0	42	104	30098325504	60	51758
2026-01-03 22:12:53.50	152.14	2.88	-50.0	-52.4	6.1	0.00e+00	0	42	104	30098325504	60	51149
2026-01-03 22:12:54.51	152.23	2.82	-51.2	-53.7	6.1	0.00e+00	0	41	104	30098325504	60	59635
2026-01-03 22:12:55.52	152.33	2.76	-51.3	-53.8	6.1	0.00e+00	0	42	104	30098325504	60	59720
2026-01-03 22:12:56.53	152.42	2.69	-51.1	-53.6	6.1	0.00e+00	0	42	104	30098325504	60	58744
2026-01-03 22:12:57.54	152.52	2.63	-50.8	-53.3	6.1	0.00e+00	0	42	104	30098325504	60	56689
2026-01-03 22:12:58.55	152.61	2.57	-50.8	-53.2	6.1	0.00e+00	0	42	104	30098325504	60	56117
2026-01-03 22:12:59.55	152.71	2.50	-50.9	-53.4	6.1	0.00e+00	0	42	104	30098325504	60	57191
2026-01-03 22:13:00.56	152.80	2.44	-51.0	-53.5	6.1	0.00e+00	0	42	104	30098325504	60	57664
2026-01-03 22:13:01.57	152.89	2.38	-51.4	-53.8	6.1	0.00e+00	0	41	104	30098325504	60	60144
2026-01-03 22:13:02.58	152.98	2.32	-51.0	-53.5	6.1	0.00e+00	0	42	104	30098325504	60	58173
2026-01-03 22:13:03.59	153.08	2.25	-51.0	-53.4	6.1	0.00e+00	0	42	104	30098325504	60	57445
2026-01-03 22:13:04.60	153.17	2.19	-51.2	-53.7	6.1	0.00e+00	0	42	104	30098325504	60	59044
2026-01-03 22:13:05.61	153.26	2.13	-51.1	-53.6	6.1	0.00e+00	0	42	104	30098325504	60	58388
2026-01-03 22:13:06.62	153.35	2.07	-51.1	-53.6	6.1	0.00e+00	0	42	104	30098325504	60	58342
2026-01-03 22:13:07.63	153.44	2.00	-51.6	-54.0	6.1	0.00e+00	0	42	104	30098325504	60	61725
2026-01-03 22:13:08.64	153.53	1.94	-51.5	-54.0	6.1	0.00e+00	0	42	104	30098325504	60	61140
2026-01-03 22:13:09.65	153.62	1.88	-51.8	-54.3	6.1	0.00e+00	0	42	104	30098325504	60	63494
2026-01-03 22:13:10.66	153.71	1.82	-50.9	-53.4	6.1	0.00e+00	0	41	104	30098325504	60	57601
2026-01-03 22:13:11.67	153.80	1.76	-50.9	-53.3	6.1	0.00e+00	0	42	104	30098325504	60	56704
2026-01-03 22:13:12.68	153.88	1.70	-51.2	-53.7	6.0	0.00e+00	0	42	104	30098325504	60	59280
2026-01-03 22:13:13.69	153.97	1.63	-51.7	-54.0	6.1	0.00e+00	0	42	104	30098325504	60	61714
2026-01-03 22:13:14.70	154.06	1.57	-51.5	-53.9	6.1	0.00e+00	0	42	104	30098325504	60	60630
2026-01-03 22:13:15.71	154.15	1.51	-51.7	-54.1	6.1	0.00e+00	0	42	104	30098325504	60	62300
2026-01-03 22:13:16.72	154.23	1.45	-51.3	-53.8	6.1	0.00e+00	0	42	104	30098325504	60	59714
2026-01-03 22:13:17.73	154.32	1.39	-51.5	-53.9	6.1	0.00e+00	0	42	104	30098325504	60	61015
2026-01-03 22:13:18.73	154.40	1.33	-52.1	-54.5	6.1	0.00e+00	0	42	104	30098325504	60	65307
2026-01-03 22:13:19.74	154.49	1.27	-51.9	-54.4	6.0	0.00e+00	0	42	104	30098325504	60	64328
2026-01-03 22:13:20.75	154.57	1.21	-51.6	-54.1	6.1	0.00e+00	0	42	104	30098325504	60	61969
2026-01-03 22:13:21.76	154.66	1.15	-51.7	-54.1	6.1	0.00e+00	0	42	104	30098325504	60	62411
2026-01-03 22:13:22.77	154.74	1.09	-52.6	-55.1	6.1	0.00e+00	0	42	104	30098325504	60	69623
2026-01-03 22:13:23.78	154.82	1.03	-52.1	-54.5	6.1	0.00e+00	0	42	104	30098325504	60	64847
2026-01-03 22:13:24.79	154.91	0.97	-51.3	-53.7	6.1	0.00e+00	0	42	104	30098325504	60	59333
2026-01-03 22:13:25.80	154.99	0.91	-52.3	-54.7	6.1	0.00e+00	0	42	104	30098325504	60	66635
2026-01-03 22:13:26.81	155.07	0.85	-51.9	-54.4	6.1	0.00e+00	0	42	104	30098325504	60	64394
2026-01-03 22:13:27.82	155.15	0.79	-52.0	-54.4	6.1	0.00e+00	0	42	104	30098325504	60	64172
2026-01-03 22:13:28.83	155.23	0.73	-50.9	-53.4	6.1	0.00e+00	0	42	104	30098325504	60	57272
2026-01-03 22:13:29.84	155.31	0.67	-51.9	-54.4	6.1	0.00e+00	0	42	104	30098325504	60	63924
2026-01-03 22:13:30.85	155.39	0.61	-51.3	-53.7	6.1	0.00e+00	0	42	104	30098325504	60	59631
2026-01-03 22:13:31.86	155.47	0.55	-51.3	-53.7	6.1	0.00e+00	0	42	104	30098325504	60	59374
2026-01-03 22:13:32.87	155.55	0.49	-51.2	-53.7	6.1	0.00e+00	0	42	104	30098325504	60	59131
2026-01-03 22:13:33.88	155.63	0.44	-51.7	-54.1	6.1	0.00e+00	0	42	104	30098325504	60	62157
2026-01-03 22:13:34.89	155.71	0.38	-51.8	-54.2	6.1	0.00e+00	0	42	104	30098325504	60	63031
2026-01-03 22:13:35.90	155.79	0.32	-52.3	-54.7	6.1	0.00e+00	0	42	104	30098325504	60	66822
2026-01-03 22:13:36.91	155.87	0.26	-53.1	-55.5	6.1	0.00e+00	0	42	104	30098325504	60	73320
2026-01-03 22:13:37.91	155.95	0.20	-52.9	-55.2	6.1	0.00e+00	0	42	104	30098325504	60	70678
2026-01-03 22:13:38.92	156.02	0.14	-51.9	-54.4	6.1	0.00e+00	0	42	104	30098325504	60	64412
2026-01-03 22:13:39.93	156.10	0.09	-51.5	-53.9	6.1	0.00e+00	0	42	104	30098325504	60	61006
2026-01-03 22:13:40.94	156.18	0.03	-51.6	-54.1	6.1	0.00e+00	0	41	104	30098325504	60	61848
2026-01-03 22:13:41.95	156.25	-0.03	-50.7	-53.2	6.1	0.00e+00	0	42	104	30098325504	60	55932

#Closed at: 2026-01-03 22:13:42
#Recorded file [30098 MB]: D:/lorett/data/35029_260104_100329.dat