passes_logs/2026/01/03/R4.6S_Anadyr/R4.6S_Anadyr__20260103_205147_AQUA_rec.log

#Pass ID: 20260103_205147_AQUA
#Satellite: AQUA
#Configuration: AQUA
#almurnet v.1.7.20251203
#Start time: 2026-01-03 20:51:48

#Version: 2.2.20231116
#Station: R4.6S_Anadyr
#Location: 177.4865 lon 64.73178 lat
#TLE: 1 27424U 02022A   25365.92641127  .00002078  00000+0  42628-3 0  9999
#TLE: 2 27424  98.4058 327.1196 0001962  94.7781 340.6230 14.61783896258835

#Time	Az	El	Level	Level2	SNR	BER	BlckErr	Temp	State	Recorded	gain1	gain2
2026-01-03 20:51:48.95	44.57	0.09	-52.3	-67.2	3.6	1.51e+00	0	37	0	0	60	83114
2026-01-03 20:51:49.96	44.48	0.13	-51.4	-69.3	3.5	3.02e+01	0	38	104	0	60	111689
2026-01-03 20:51:50.96	44.38	0.18	-52.0	-69.8	3.5	3.02e+01	0	38	104	0	60	118822
2026-01-03 20:51:51.97	44.29	0.23	-52.1	-70.0	3.5	3.02e+01	0	38	104	0	60	121057
2026-01-03 20:51:52.99	44.19	0.27	-52.7	-70.6	3.4	3.02e+01	0	38	104	0	60	129695
2026-01-03 20:51:54.00	44.10	0.32	-52.1	-69.9	3.5	3.02e+01	0	38	104	0	60	120995
2026-01-03 20:51:55.01	44.00	0.37	-52.5	-70.3	3.5	3.02e+01	0	38	104	0	60	126207
2026-01-03 20:51:56.02	43.90	0.42	-50.9	-68.7	3.5	3.02e+01	0	38	104	0	60	105309
2026-01-03 20:51:57.02	43.81	0.46	-50.9	-68.9	3.5	3.02e+01	0	38	104	0	60	106953
2026-01-03 20:51:58.03	43.71	0.51	-51.7	-69.6	3.5	3.02e+01	0	38	104	0	60	115833
2026-01-03 20:51:59.04	43.61	0.56	-51.2	-69.1	3.5	3.02e+01	0	38	104	0	60	110111
2026-01-03 20:52:00.05	43.52	0.60	-50.8	-68.9	3.5	3.02e+01	0	38	104	0	60	106905
2026-01-03 20:52:01.06	43.42	0.65	-51.0	-68.9	3.5	3.02e+01	0	38	104	0	60	106956
2026-01-03 20:52:02.07	43.32	0.70	-50.3	-68.4	3.5	3.02e+01	0	38	104	0	60	101482
2026-01-03 20:52:03.08	43.22	0.75	-50.1	-68.4	3.5	3.02e+01	0	38	104	0	60	100699
2026-01-03 20:52:04.09	43.12	0.79	-49.8	-68.0	3.5	3.02e+01	0	38	104	0	60	96750
2026-01-03 20:52:05.10	43.02	0.84	-49.5	-67.4	3.5	3.02e+01	0	38	104	0	60	90397
2026-01-03 20:52:06.11	42.92	0.89	-48.9	-66.9	3.5	3.02e+01	0	38	104	0	60	85367
2026-01-03 20:52:07.12	42.83	0.94	-48.6	-66.5	3.5	3.02e+01	0	38	104	0	60	81575
2026-01-03 20:52:08.13	42.72	0.98	-48.6	-66.5	3.5	3.02e+01	0	38	104	0	60	81676
2026-01-03 20:52:09.14	42.62	1.03	-48.6	-66.6	3.5	3.02e+01	0	38	104	0	60	82039
2026-01-03 20:52:10.15	42.52	1.08	-48.6	-66.5	3.5	3.02e+01	0	38	104	0	60	81689
2026-01-03 20:52:11.16	42.42	1.13	-48.8	-66.7	3.5	3.02e+01	0	38	104	0	60	82846
2026-01-03 20:52:12.17	42.32	1.17	-49.0	-66.9	3.5	3.02e+01	0	38	104	0	60	85042
2026-01-03 20:52:13.18	42.22	1.22	-49.3	-67.1	3.5	3.02e+01	0	38	104	0	60	87574
2026-01-03 20:52:14.19	42.12	1.27	-49.0	-66.8	3.5	3.02e+01	0	38	104	0	60	84501
2026-01-03 20:52:15.19	42.01	1.31	-49.2	-67.0	3.5	3.02e+01	0	38	104	0	60	86578
2026-01-03 20:52:16.20	41.91	1.36	-48.9	-66.8	3.5	3.02e+01	0	38	104	0	60	83715
2026-01-03 20:52:17.21	41.81	1.41	-48.8	-66.6	3.5	3.02e+01	0	38	104	0	60	82204
2026-01-03 20:52:18.22	41.70	1.46	-48.9	-66.8	3.5	3.02e+01	0	38	104	0	60	84407
2026-01-03 20:52:19.23	41.60	1.50	-48.9	-66.8	3.5	3.02e+01	0	38	104	0	60	84183
2026-01-03 20:52:20.24	41.49	1.55	-48.9	-66.7	3.5	3.02e+01	0	38	104	0	60	83629
2026-01-03 20:52:21.25	41.39	1.60	-48.8	-66.6	3.5	3.02e+01	0	38	104	0	60	82336
2026-01-03 20:52:22.26	41.28	1.65	-48.7	-66.3	3.5	3.02e+01	0	38	104	0	60	79652
2026-01-03 20:52:23.27	41.18	1.69	-48.7	-66.4	3.5	3.02e+01	0	38	104	0	60	79966
2026-01-03 20:52:24.28	41.07	1.74	-48.6	-66.3	3.5	3.02e+01	0	38	104	0	60	79291
2026-01-03 20:52:25.29	40.96	1.79	-48.6	-66.3	3.5	3.02e+01	0	38	104	0	60	79402
2026-01-03 20:52:26.30	40.86	1.84	-49.2	-66.9	3.5	3.02e+01	0	38	104	0	60	85070
2026-01-03 20:52:27.31	40.75	1.88	-49.0	-66.9	3.5	3.02e+01	0	38	104	0	60	85126
2026-01-03 20:52:28.31	40.64	1.93	-48.8	-66.4	3.5	3.02e+01	0	38	104	0	60	80071
2026-01-03 20:52:29.32	40.53	1.98	-48.7	-66.2	3.5	3.02e+01	0	38	104	0	60	78476
2026-01-03 20:52:30.34	40.42	2.03	-49.1	-66.6	3.5	3.02e+01	0	38	104	0	60	82453
2026-01-03 20:52:31.35	40.32	2.07	-48.8	-66.1	3.5	3.02e+01	0	38	104	0	60	78030
2026-01-03 20:52:32.35	40.21	2.12	-48.7	-66.2	3.5	3.02e+01	0	38	104	0	60	78224
2026-01-03 20:52:33.36	40.10	2.17	-48.7	-66.3	3.5	3.02e+01	0	38	104	0	60	79728
2026-01-03 20:52:34.38	39.99	2.22	-49.6	-67.2	3.5	3.02e+01	0	38	104	0	60	88525
2026-01-03 20:52:35.38	39.88	2.26	-49.4	-66.9	3.5	3.02e+01	0	38	104	0	60	84874
2026-01-03 20:52:36.39	39.77	2.31	-49.1	-66.0	3.5	3.02e+01	0	38	104	0	60	76595
2026-01-03 20:52:37.40	39.65	2.36	-49.3	-64.9	3.8	3.02e+01	0	38	104	0	60	67547
2026-01-03 20:52:38.41	39.54	2.40	-49.1	-65.3	3.5	3.02e+01	0	38	104	0	60	70444
2026-01-03 20:52:39.43	39.43	2.45	-49.1	-66.1	3.5	3.02e+01	0	38	104	0	60	77881
2026-01-03 20:52:40.44	39.32	2.50	-49.0	-66.2	3.5	3.02e+01	0	38	104	0	60	78631
2026-01-03 20:52:41.45	39.20	2.55	-49.4	-67.2	3.5	3.02e+01	0	38	104	0	60	87971
2026-01-03 20:52:42.46	39.09	2.59	-49.2	-66.1	3.5	3.02e+01	0	38	104	0	60	77765
2026-01-03 20:52:43.47	38.98	2.64	-49.2	-66.9	3.5	3.02e+01	0	38	104	0	60	84986
2026-01-03 20:52:44.48	38.86	2.69	-49.4	-66.8	3.5	3.02e+01	0	38	104	0	60	84591
2026-01-03 20:52:45.49	38.75	2.74	-49.5	-66.4	3.5	3.02e+01	0	38	104	0	60	80134
2026-01-03 20:52:46.50	38.63	2.78	-49.4	-62.8	3.9	3.02e+01	0	38	104	0	60	53283
2026-01-03 20:52:47.51	38.52	2.83	-49.0	-61.9	3.8	3.02e+01	0	38	104	0	60	48002
2026-01-03 20:52:48.52	38.40	2.88	-49.0	-63.5	4.1	3.02e+01	0	38	104	0	60	57658
2026-01-03 20:52:49.53	38.28	2.93	-48.9	-61.7	4.4	3.02e+01	0	38	104	0	60	46556
2026-01-03 20:52:50.54	38.17	2.97	-48.2	-57.8	8.8	3.02e+01	60	38	104	0	60	29781
2026-01-03 20:52:51.55	38.05	3.02	-47.6	-54.1	11.6	3.02e+01	49	38	0	524288	60	19552
2026-01-03 20:52:52.56	37.93	3.07	-45.3	-48.7	17.1	3.02e+01	59	38	0	2621440	60	10528
2026-01-03 20:52:53.57	37.81	3.11	-43.5	-45.9	20.1	3.02e+01	60	38	0	4194304	60	7629
2026-01-03 20:52:54.58	37.70	3.16	-47.3	-53.6	5.0	3.02e+01	57	38	0	6291456	60	18392
2026-01-03 20:52:55.59	37.58	3.21	-48.3	-64.1	3.6	3.02e+01	0	38	104	6291456	60	61948
2026-01-03 20:52:56.60	37.46	3.26	-41.8	-43.8	23.5	3.02e+01	60	38	0	6291456	60	5980
2026-01-03 20:52:57.61	37.34	3.30	-42.6	-44.7	23.3	3.02e+01	57	38	0	7864320	56	8318
2026-01-03 20:52:58.61	37.22	3.35	-41.3	-43.0	23.5	3.02e+01	58	38	0	9961472	56	6873
2026-01-03 20:52:59.62	37.10	3.40	-41.9	-43.9	22.6	3.02e+01	61	38	0	12058624	58	6730
2026-01-03 20:53:00.63	36.98	3.44	-41.9	-43.8	22.9	3.02e+01	58	38	0	13631488	58	6722
2026-01-03 20:53:01.64	36.86	3.49	-41.1	-42.9	22.7	3.02e+01	57	38	0	15728640	58	6033
2026-01-03 20:53:02.65	36.73	3.54	-41.8	-43.7	23.5	3.02e+01	46	38	0	17301504	56	7412
2026-01-03 20:53:03.66	36.61	3.59	-41.3	-43.1	22.8	3.02e+01	59	38	0	19398656	58	6194
2026-01-03 20:53:04.67	36.49	3.63	-42.6	-44.6	22.0	3.02e+01	60	38	0	21495808	58	7346
2026-01-03 20:53:05.68	36.36	3.68	-42.3	-44.2	22.2	3.02e+01	60	38	0	23068672	58	7017
2026-01-03 20:53:06.69	36.24	3.73	-41.3	-43.0	23.7	3.02e+01	58	38	0	25165824	56	6874
2026-01-03 20:53:07.69	36.12	3.77	-42.5	-44.5	23.2	3.02e+01	55	38	0	26738688	56	8173
2026-01-03 20:53:08.70	35.99	3.82	-40.5	-42.1	24.3	3.02e+01	60	38	0	28835840	56	6174
2026-01-03 20:53:09.71	35.87	3.87	-40.9	-42.6	23.8	3.02e+01	58	38	0	30932992	56	6572
2026-01-03 20:53:10.72	35.74	3.91	-40.7	-42.3	24.7	3.02e+01	45	38	0	32505856	56	6343
2026-01-03 20:53:11.73	35.62	3.96	-40.2	-41.7	24.3	3.02e+01	61	38	0	34603008	58	5273
2026-01-03 20:53:12.74	35.49	4.01	-40.8	-42.5	24.1	3.02e+01	58	38	0	36700160	56	6481
2026-01-03 20:53:13.75	35.36	4.05	-39.8	-41.4	24.1	3.02e+01	57	38	0	38273024	54	6366
2026-01-03 20:53:14.76	35.24	4.10	-40.2	-41.8	25.5	3.02e+01	61	38	0	40370176	54	6665
2026-01-03 20:53:15.77	35.11	4.15	-40.3	-41.8	24.4	3.02e+01	57	38	0	41943040	56	5987
2026-01-03 20:53:16.77	34.98	4.19	-40.9	-42.4	25.6	3.02e+01	61	38	0	44040192	56	6419
2026-01-03 20:53:17.78	34.85	4.24	-40.9	-42.5	24.0	3.02e+01	61	38	0	46137344	56	6479
2026-01-03 20:53:18.79	34.72	4.29	-40.8	-42.4	25.3	3.02e+01	59	38	0	47710208	56	6383
2026-01-03 20:53:19.80	34.59	4.33	-39.6	-41.1	25.5	3.02e+01	60	38	0	49807360	54	6147
2026-01-03 20:53:20.81	34.46	4.38	-40.7	-42.3	25.5	3.02e+01	63	38	0	51380224	54	7049
2026-01-03 20:53:21.81	34.33	4.43	-40.6	-42.1	25.7	3.02e+01	56	38	0	53477376	56	6166
2026-01-03 20:53:22.82	34.20	4.47	-39.7	-41.1	26.0	3.02e+01	57	38	0	55574528	56	5496
2026-01-03 20:53:23.83	34.07	4.52	-39.9	-41.4	25.4	3.02e+01	44	38	0	57147392	54	6375
2026-01-03 20:53:24.84	33.94	4.57	-38.8	-40.2	25.1	3.02e+01	58	38	0	59244544	54	5552
2026-01-03 20:53:25.84	33.81	4.61	-39.6	-41.1	25.5	3.02e+01	62	38	0	60817408	52	6907
2026-01-03 20:53:26.85	33.68	4.66	-39.1	-40.6	26.2	3.02e+01	58	38	0	62914560	52	6517
2026-01-03 20:53:27.86	33.54	4.70	-39.1	-40.5	26.2	3.02e+01	63	38	0	65011712	52	6472
2026-01-03 20:53:28.87	33.41	4.75	-39.0	-40.4	26.2	3.02e+01	50	38	0	66584576	52	6390
2026-01-03 20:53:29.88	33.27	4.80	-39.1	-40.5	25.9	3.02e+01	60	38	0	68681728	52	6468
2026-01-03 20:53:30.89	33.14	4.84	-39.0	-40.4	26.2	3.02e+01	59	38	0	70254592	52	6404
2026-01-03 20:53:31.90	33.00	4.89	-39.1	-40.5	26.0	3.02e+01	45	38	0	72351744	52	6469
2026-01-03 20:53:32.91	32.87	4.93	-41.3	-43.0	24.3	3.02e+01	58	39	0	74448896	58	6103
2026-01-03 20:53:33.92	32.73	4.98	-39.5	-40.9	26.2	3.02e+01	56	38	0	76021760	54	6047
2026-01-03 20:53:34.93	32.60	5.03	-39.0	-40.4	26.4	3.02e+01	57	38	0	78118912	52	6387
2026-01-03 20:53:35.94	32.46	5.07	-38.9	-40.3	26.5	3.02e+01	59	38	0	80216064	52	6310
2026-01-03 20:53:36.95	32.32	5.12	-39.0	-40.4	26.1	3.02e+01	53	38	0	81788928	52	6390
2026-01-03 20:53:37.96	32.18	5.16	-40.0	-41.5	25.8	3.02e+01	59	38	0	83886080	52	7267
2026-01-03 20:53:38.97	32.04	5.21	-39.3	-40.8	25.9	3.02e+01	60	38	0	85458944	54	5957
2026-01-03 20:53:39.97	31.91	5.25	-39.8	-41.3	25.8	3.02e+01	50	38	0	87556096	54	6293
2026-01-03 20:53:40.98	31.77	5.30	-39.6	-41.1	26.0	3.02e+01	58	38	0	89653248	54	6146
2026-01-03 20:53:41.99	31.63	5.34	-39.3	-40.7	26.3	3.02e+01	58	39	0	91226112	54	5876
2026-01-03 20:53:42.99	31.49	5.39	-39.1	-40.6	26.3	3.02e+01	59	38	0	93323264	54	5800
2026-01-03 20:53:44.01	31.35	5.44	-39.0	-40.4	26.2	3.02e+01	58	38	0	94896128	54	5707
2026-01-03 20:53:45.01	31.21	5.48	-38.7	-40.1	26.4	3.02e+01	50	38	0	96993280	52	6167
2026-01-03 20:53:46.02	31.06	5.53	-39.3	-40.8	26.0	3.02e+01	60	38	0	99090432	52	6685
2026-01-03 20:53:47.03	30.92	5.57	-39.4	-40.8	26.4	3.02e+01	59	38	0	100663296	52	6684
2026-01-03 20:53:48.04	30.78	5.62	-39.3	-40.7	26.4	3.02e+01	45	38	0	102760448	52	6624
2026-01-03 20:53:49.05	30.63	5.66	-39.5	-41.0	25.7	3.02e+01	61	38	0	104333312	52	6815
2026-01-03 20:53:50.06	30.49	5.71	-38.9	-40.3	26.4	3.02e+01	60	38	0	106430464	52	6296
2026-01-03 20:53:51.07	30.35	5.75	-39.3	-40.8	26.2	3.02e+01	60	38	0	108527616	52	6659
2026-01-03 20:53:52.08	30.20	5.80	-38.9	-40.3	26.4	3.02e+01	57	38	0	110100480	52	6298
2026-01-03 20:53:53.08	30.06	5.84	-39.2	-40.7	26.2	3.02e+01	51	38	0	112197632	52	6598
2026-01-03 20:53:54.09	29.91	5.88	-39.3	-40.7	26.1	3.02e+01	62	38	0	113770496	52	6626
2026-01-03 20:53:55.10	29.76	5.93	-39.2	-40.6	26.0	3.02e+01	58	38	0	115867648	52	6567
2026-01-03 20:53:56.11	29.62	5.97	-39.0	-40.4	26.3	3.02e+01	49	38	0	117964800	52	6414
2026-01-03 20:53:57.12	29.47	6.02	-38.9	-40.3	26.6	3.02e+01	58	39	0	119537664	52	6294
2026-01-03 20:53:58.13	29.32	6.06	-38.6	-40.0	26.4	3.02e+01	51	38	0	121634816	52	6113
2026-01-03 20:53:59.14	29.17	6.11	-39.1	-40.5	26.5	3.02e+01	60	38	0	123207680	52	6462
2026-01-03 20:54:00.15	29.02	6.15	-38.6	-40.0	26.7	3.02e+01	56	38	0	125304832	52	6102
2026-01-03 20:54:01.15	28.88	6.19	-38.7	-40.1	26.6	3.02e+01	56	38	0	127401984	52	6177
2026-01-03 20:54:02.17	28.73	6.24	-38.5	-39.9	26.8	3.02e+01	58	38	0	128974848	52	6032
2026-01-03 20:54:03.17	28.58	6.28	-38.8	-40.2	26.7	3.02e+01	60	38	0	131072000	52	6238
2026-01-03 20:54:04.18	28.43	6.33	-39.0	-40.5	26.4	3.02e+01	59	39	0	133169152	52	6427
2026-01-03 20:54:05.19	28.27	6.37	-39.3	-40.6	26.6	3.02e+01	56	38	0	134742016	52	6563
2026-01-03 20:54:06.20	28.12	6.41	-38.9	-40.3	26.8	3.02e+01	46	39	0	136839168	52	6299
2026-01-03 20:54:07.21	27.97	6.46	-40.3	-41.7	24.9	3.02e+01	60	38	0	138412032	52	7455
2026-01-03 20:54:08.22	27.82	6.50	-39.4	-40.8	26.8	3.02e+01	61	39	0	140509184	54	5965
2026-01-03 20:54:09.22	27.66	6.54	-39.0	-40.4	26.6	3.02e+01	45	38	0	142606336	54	5707
2026-01-03 20:54:10.24	27.51	6.59	-38.7	-40.0	26.9	3.02e+01	57	38	0	144179200	52	6126
2026-01-03 20:54:11.25	27.35	6.63	-39.0	-40.4	26.5	3.02e+01	58	38	0	146276352	52	6368
2026-01-03 20:54:12.25	27.20	6.67	-38.7	-40.1	26.7	3.02e+01	59	38	0	147849216	52	6181
2026-01-03 20:54:13.26	27.05	6.71	-38.8	-40.2	26.8	3.02e+01	55	38	0	149946368	52	6217
2026-01-03 20:54:14.27	26.89	6.76	-39.9	-41.4	26.2	3.02e+01	57	38	0	152043520	56	5665
2026-01-03 20:54:15.28	26.73	6.80	-38.9	-40.3	27.0	3.02e+01	59	38	0	153616384	52	6325
2026-01-03 20:54:16.29	26.58	6.84	-38.6	-39.9	26.9	3.02e+01	58	38	0	155713536	52	6044
2026-01-03 20:54:17.30	26.42	6.88	-39.1	-40.5	26.6	3.02e+01	46	38	0	157286400	52	6429
2026-01-03 20:54:18.31	26.26	6.93	-38.8	-40.1	26.9	3.02e+01	58	38	0	159383552	52	6179
2026-01-03 20:54:19.32	26.10	6.97	-40.4	-42.0	25.3	3.02e+01	60	39	0	161480704	52	7644
2026-01-03 20:54:20.33	25.94	7.01	-38.8	-40.1	27.0	3.02e+01	62	38	0	163053568	52	6184
2026-01-03 20:54:21.33	25.78	7.05	-38.5	-39.9	27.0	3.02e+01	61	38	0	165150720	52	6014
2026-01-03 20:54:22.34	25.62	7.09	-40.3	-41.9	24.8	3.02e+01	61	38	0	166723584	52	7555
2026-01-03 20:54:23.35	25.46	7.14	-38.9	-40.3	27.1	3.02e+01	63	39	0	168820736	52	6300
2026-01-03 20:54:24.36	25.30	7.18	-38.9	-40.3	27.0	3.02e+01	59	39	0	170917888	52	6294
2026-01-03 20:54:25.37	25.14	7.22	-38.7	-40.0	27.3	3.02e+01	43	38	0	172490752	52	6090
2026-01-03 20:54:26.38	24.98	7.26	-38.3	-39.6	27.5	3.02e+01	60	39	0	174587904	52	5811
2026-01-03 20:54:27.39	24.82	7.30	-38.3	-39.7	27.4	3.02e+01	64	39	0	176685056	52	5863
2026-01-03 20:54:28.40	24.65	7.34	-40.0	-41.4	26.1	3.02e+01	56	39	0	178257920	52	7187
2026-01-03 20:54:29.40	24.49	7.38	-38.5	-39.8	27.2	3.02e+01	59	39	0	180355072	52	5972
2026-01-03 20:54:30.41	24.33	7.42	-38.3	-39.7	27.2	3.02e+01	53	38	0	181927936	52	5860
2026-01-03 20:54:31.42	24.16	7.46	-39.8	-41.2	27.3	3.02e+01	58	38	0	184025088	52	6966
2026-01-03 20:54:32.43	24.00	7.51	-38.9	-40.2	27.3	3.02e+01	56	38	0	186122240	52	6232
2026-01-03 20:54:33.43	23.83	7.55	-38.5	-39.8	27.3	3.02e+01	55	38	0	187695104	52	5987
2026-01-03 20:54:34.44	23.67	7.59	-38.2	-39.6	27.3	3.02e+01	61	39	0	189792256	52	5798
2026-01-03 20:54:35.45	23.50	7.63	-38.5	-39.8	25.4	3.02e+01	60	38	0	191365120	52	5985
2026-01-03 20:54:36.46	23.33	7.67	-38.8	-40.1	27.3	3.02e+01	58	38	0	193462272	52	6180
2026-01-03 20:54:37.47	23.17	7.71	-38.7	-40.0	27.5	3.02e+01	57	38	0	195559424	52	6081
2026-01-03 20:54:38.48	23.00	7.75	-39.2	-40.5	27.3	3.02e+01	53	38	0	197132288	52	6475
2026-01-03 20:54:39.49	22.83	7.78	-38.9	-40.3	27.0	3.02e+01	53	38	0	199229440	52	6295
2026-01-03 20:54:40.50	22.66	7.82	-40.6	-41.9	26.6	3.02e+01	58	39	0	200802304	56	6037
2026-01-03 20:54:41.51	22.49	7.86	-38.8	-40.1	27.5	3.02e+01	59	38	0	202899456	52	6192
2026-01-03 20:54:42.52	22.32	7.90	-38.2	-39.5	27.6	3.02e+01	58	38	0	204996608	52	5763
2026-01-03 20:54:43.53	22.15	7.94	-38.7	-40.1	27.1	3.02e+01	47	38	0	206569472	52	6136
2026-01-03 20:54:44.54	21.98	7.98	-39.0	-40.3	27.5	3.02e+01	61	39	0	208666624	54	5641
2026-01-03 20:54:45.55	21.81	8.02	-39.0	-40.4	27.1	3.02e+01	61	38	0	210239488	52	6360
2026-01-03 20:54:46.56	21.63	8.06	-38.7	-40.0	27.4	3.02e+01	44	38	0	212336640	52	6123
2026-01-03 20:54:47.57	21.46	8.10	-38.5	-39.8	27.3	3.02e+01	58	38	0	214433792	52	5988
2026-01-03 20:54:48.58	21.29	8.13	-39.6	-41.0	26.3	3.02e+01	58	39	0	216006656	52	6818
2026-01-03 20:54:49.59	21.11	8.17	-41.4	-42.9	24.2	3.02e+01	58	38	0	218103808	58	6052
2026-01-03 20:54:50.60	20.94	8.21	-39.4	-40.7	26.4	3.02e+01	58	38	0	219676672	52	6640
2026-01-03 20:54:51.61	20.76	8.25	-42.3	-44.1	25.8	3.02e+01	47	38	0	221773824	56	7725
2026-01-03 20:54:52.61	20.59	8.28	-38.7	-40.0	26.8	3.02e+01	59	38	0	223870976	52	6109
2026-01-03 20:54:53.62	20.41	8.32	-40.6	-42.1	21.4	3.02e+01	59	39	0	225443840	54	6915
2026-01-03 20:54:54.63	20.24	8.36	-38.7	-40.0	27.0	3.02e+01	51	38	0	227540992	52	6107
2026-01-03 20:54:55.64	20.06	8.39	-38.4	-39.7	27.3	3.02e+01	59	39	0	229638144	52	5899
2026-01-03 20:54:56.65	19.88	8.43	-38.4	-39.7	27.3	3.02e+01	58	38	0	231211008	52	5881
2026-01-03 20:54:57.66	19.71	8.47	-38.4	-39.7	27.2	3.02e+01	56	39	0	233308160	52	5907
2026-01-03 20:54:58.67	19.53	8.50	-38.3	-39.7	27.4	3.02e+01	60	38	0	234881024	52	5863
2026-01-03 20:54:59.68	19.35	8.54	-38.2	-39.5	27.4	3.02e+01	55	38	0	236978176	52	5790
2026-01-03 20:55:00.69	19.17	8.58	-38.8	-40.2	27.0	3.02e+01	62	39	0	239075328	52	6242
2026-01-03 20:55:01.70	18.99	8.61	-39.4	-40.8	26.8	3.02e+01	57	39	0	240648192	52	6660
2026-01-03 20:55:02.71	18.81	8.65	-40.1	-41.6	26.1	3.02e+01	45	38	0	242745344	54	6507
2026-01-03 20:55:03.72	18.63	8.68	-38.9	-40.2	27.5	3.02e+01	58	39	0	244842496	54	5558
2026-01-03 20:55:04.73	18.45	8.72	-39.2	-40.6	26.3	3.02e+01	58	38	0	246415360	52	6560
2026-01-03 20:55:05.74	18.27	8.75	-39.3	-40.7	27.2	3.02e+01	57	38	0	248512512	52	6597
2026-01-03 20:55:06.75	18.09	8.79	-40.0	-41.3	26.9	3.02e+01	60	38	0	250085376	56	5654
2026-01-03 20:55:07.75	17.91	8.82	-38.4	-39.7	27.6	3.02e+01	60	38	0	252182528	52	5922
2026-01-03 20:55:08.76	17.72	8.86	-38.8	-40.1	26.9	3.02e+01	61	38	0	253755392	52	6202
2026-01-03 20:55:09.77	17.54	8.89	-37.8	-39.1	27.6	3.02e+01	60	38	0	255852544	50	6200
2026-01-03 20:55:10.78	17.35	8.92	-38.1	-39.4	27.4	3.02e+01	46	38	0	257949696	50	6390
2026-01-03 20:55:11.79	17.17	8.96	-38.4	-39.7	27.3	3.02e+01	61	38	0	259522560	50	6616
2026-01-03 20:55:12.80	16.99	8.99	-38.2	-39.5	27.6	3.02e+01	51	38	0	261619712	50	6452
2026-01-03 20:55:13.81	16.80	9.02	-37.9	-39.2	27.6	3.02e+01	58	38	0	263192576	50	6268
2026-01-03 20:55:14.82	16.61	9.06	-37.9	-39.2	27.6	3.02e+01	57	38	0	265289728	50	6272
2026-01-03 20:55:15.83	16.43	9.09	-38.6	-39.9	27.2	3.02e+01	52	38	0	267386880	50	6765
2026-01-03 20:55:16.83	16.24	9.12	-38.7	-40.0	27.0	3.02e+01	58	38	0	268959744	50	6848
2026-01-03 20:55:17.84	16.06	9.15	-38.8	-40.1	26.9	3.02e+01	60	38	0	271056896	50	6928
2026-01-03 20:55:18.85	15.87	9.19	-38.0	-39.3	27.5	3.02e+01	64	39	0	273154048	50	6346
2026-01-03 20:55:19.86	15.68	9.22	-38.1	-39.4	27.6	3.02e+01	56	39	0	274726912	50	6414
2026-01-03 20:55:20.86	15.49	9.25	-37.9	-39.3	27.7	3.02e+01	44	39	0	276824064	50	6280
2026-01-03 20:55:21.87	15.30	9.28	-37.8	-39.1	27.6	3.02e+01	61	39	0	278396928	50	6194
2026-01-03 20:55:22.88	15.12	9.31	-37.7	-39.0	27.6	3.02e+01	57	38	0	280494080	50	6129
2026-01-03 20:55:23.89	14.93	9.34	-37.7	-39.0	27.6	3.02e+01	45	38	0	282591232	50	6103
2026-01-03 20:55:24.90	14.73	9.37	-37.8	-39.2	27.4	3.02e+01	59	38	0	284164096	50	6211
2026-01-03 20:55:25.91	14.54	9.40	-37.6	-38.9	27.7	3.02e+01	58	38	0	286261248	50	6009
2026-01-03 20:55:26.92	14.35	9.43	-37.7	-39.0	27.6	3.02e+01	58	38	0	287834112	50	6065
2026-01-03 20:55:27.93	14.16	9.46	-37.8	-39.1	27.6	3.02e+01	58	39	0	289931264	50	6195
2026-01-03 20:55:28.94	13.97	9.49	-37.7	-39.0	27.6	3.02e+01	54	38	0	292028416	50	6104
2026-01-03 20:55:29.95	13.78	9.52	-37.8	-39.1	27.6	3.02e+01	59	39	0	293601280	50	6173
2026-01-03 20:55:30.96	13.58	9.55	-37.9	-39.2	27.6	3.02e+01	60	38	0	295698432	50	6255
2026-01-03 20:55:31.97	13.39	9.58	-37.8	-39.1	27.7	3.02e+01	51	39	0	297795584	50	6179
2026-01-03 20:55:32.97	13.20	9.61	-37.9	-39.2	27.8	3.02e+01	59	39	0	299368448	50	6275
2026-01-03 20:55:33.98	13.00	9.64	-37.9	-39.2	27.7	3.02e+01	61	38	0	301465600	50	6223
2026-01-03 20:55:34.99	12.81	9.67	-38.4	-39.7	27.7	3.02e+01	60	39	0	303038464	50	6603
2026-01-03 20:55:36.00	12.62	9.69	-38.1	-39.4	27.7	3.02e+01	60	39	0	305135616	50	6394
2026-01-03 20:55:37.01	12.42	9.72	-38.1	-39.4	27.6	3.02e+01	50	39	0	306708480	50	6395
2026-01-03 20:55:38.02	12.22	9.75	-38.4	-39.7	27.3	3.02e+01	58	39	0	308805632	50	6602
2026-01-03 20:55:39.03	12.03	9.78	-38.3	-39.6	27.7	3.02e+01	56	39	0	310902784	52	5831
2026-01-03 20:55:40.04	11.83	9.80	-38.6	-39.9	27.4	3.02e+01	45	38	0	312475648	52	6044
2026-01-03 20:55:41.05	11.63	9.83	-38.0	-39.3	27.7	3.02e+01	57	38	0	314572800	50	6342
2026-01-03 20:55:42.06	11.44	9.86	-37.9	-39.3	27.7	3.02e+01	62	38	0	316145664	50	6284
2026-01-03 20:55:43.07	11.24	9.88	-39.9	-41.4	28.0	3.02e+01	57	39	0	318242816	50	8012
2026-01-03 20:55:44.08	11.04	9.91	-38.7	-40.0	27.5	3.02e+01	58	38	0	320339968	50	6822
2026-01-03 20:55:45.09	10.84	9.93	-38.2	-39.5	27.8	3.02e+01	49	38	0	321912832	52	5760
2026-01-03 20:55:46.10	10.64	9.96	-39.0	-40.3	27.7	3.02e+01	58	39	0	324009984	52	6334
2026-01-03 20:55:47.10	10.45	9.98	-38.2	-39.5	27.6	3.02e+01	57	38	0	326107136	52	5768
2026-01-03 20:55:48.11	10.25	10.01	-38.0	-39.3	27.6	3.02e+01	50	38	0	327680000	52	5632
2026-01-03 20:55:49.12	10.05	10.03	-39.0	-40.3	27.6	3.02e+01	59	39	0	329777152	52	6322
2026-01-03 20:55:50.13	9.85	10.06	-38.3	-39.6	27.8	3.02e+01	58	38	0	331350016	52	5804
2026-01-03 20:55:51.14	9.65	10.08	-38.1	-39.4	27.9	3.02e+01	58	38	0	333447168	52	5691
2026-01-03 20:55:52.15	9.44	10.10	-38.2	-39.5	27.5	3.02e+01	60	38	0	335544320	50	6475
2026-01-03 20:55:53.15	9.24	10.13	-38.6	-39.9	27.9	3.02e+01	51	39	0	337117184	52	6048
2026-01-03 20:55:54.16	9.04	10.15	-38.4	-39.7	27.8	3.02e+01	61	38	0	339214336	52	5904
2026-01-03 20:55:55.17	8.84	10.17	-38.5	-39.8	27.6	3.02e+01	61	39	0	341311488	52	5928
2026-01-03 20:55:56.18	8.64	10.19	-38.2	-39.5	27.7	3.02e+01	55	38	0	342884352	52	5745
2026-01-03 20:55:57.19	8.44	10.22	-38.1	-39.4	27.7	3.02e+01	60	39	0	344981504	52	5669
2026-01-03 20:55:58.20	8.23	10.24	-37.9	-39.2	27.8	3.02e+01	45	39	0	346554368	50	6234
2026-01-03 20:55:59.21	8.03	10.26	-37.8	-39.1	27.6	3.02e+01	49	39	0	348651520	50	6186
2026-01-03 20:56:00.22	7.83	10.28	-38.6	-39.9	27.5	3.02e+01	58	39	0	350748672	50	6796
2026-01-03 20:56:01.22	7.62	10.30	-38.3	-39.6	27.9	3.02e+01	43	39	0	352321536	50	6539
2026-01-03 20:56:02.23	7.42	10.32	-38.4	-39.7	27.3	3.02e+01	53	39	0	354418688	50	6610
2026-01-03 20:56:03.24	7.21	10.34	-38.1	-39.3	28.0	3.02e+01	58	39	0	355991552	50	6335
2026-01-03 20:56:04.25	7.01	10.36	-38.6	-39.9	27.8	3.02e+01	61	39	0	358088704	52	6007
2026-01-03 20:56:05.26	6.80	10.38	-38.3	-39.6	27.8	3.02e+01	60	39	0	360185856	52	5815
2026-01-03 20:56:06.27	6.60	10.40	-38.2	-39.5	27.5	3.02e+01	59	39	0	361758720	52	5727
2026-01-03 20:56:07.28	6.39	10.42	-38.5	-39.8	27.2	3.02e+01	60	39	0	363855872	52	5947
2026-01-03 20:56:08.29	6.19	10.44	-39.2	-40.5	27.2	3.02e+01	58	38	0	365428736	52	6487
2026-01-03 20:56:09.30	5.98	10.45	-39.3	-40.7	27.0	3.02e+01	45	39	0	367525888	52	6600
2026-01-03 20:56:10.31	5.77	10.47	-38.8	-40.2	27.4	3.02e+01	61	39	0	369623040	52	6248
2026-01-03 20:56:11.31	5.57	10.49	-38.9	-40.2	27.2	3.02e+01	59	38	0	371195904	54	5585
2026-01-03 20:56:12.32	5.36	10.51	-39.6	-41.0	26.9	3.02e+01	63	38	0	373293056	52	6847
2026-01-03 20:56:13.33	5.15	10.52	-38.9	-40.2	27.4	3.02e+01	58	39	0	374865920	52	6236
2026-01-03 20:56:14.34	4.95	10.54	-39.0	-40.3	27.7	3.02e+01	60	39	0	376963072	52	6303
2026-01-03 20:56:15.35	4.74	10.56	-38.2	-39.5	27.8	3.02e+01	59	39	0	379060224	52	5734
2026-01-03 20:56:16.35	4.53	10.57	-38.3	-39.7	27.6	3.02e+01	59	39	0	380633088	50	6574
2026-01-03 20:56:17.36	4.32	10.59	-38.0	-39.3	27.8	3.02e+01	52	39	0	382730240	50	6285
2026-01-03 20:56:18.37	4.11	10.60	-38.3	-39.5	27.9	3.02e+01	54	39	0	384303104	50	6496
2026-01-03 20:56:19.38	3.90	10.62	-38.9	-40.2	27.3	3.02e+01	63	38	0	386400256	52	6249
2026-01-03 20:56:20.38	3.70	10.63	-38.9	-40.2	27.8	3.02e+01	59	38	0	388497408	52	6236
2026-01-03 20:56:21.39	3.49	10.65	-38.9	-40.2	27.6	3.02e+01	57	38	0	390070272	52	6226
2026-01-03 20:56:22.40	3.28	10.66	-38.8	-40.1	27.8	3.02e+01	46	38	0	392167424	52	6151
2026-01-03 20:56:23.40	3.07	10.67	-38.0	-39.3	27.8	3.02e+01	60	38	0	393740288	52	5616
2026-01-03 20:56:24.41	2.86	10.69	-38.0	-39.3	27.7	3.02e+01	60	38	0	395837440	50	6321
2026-01-03 20:56:25.42	2.65	10.70	-37.9	-39.2	27.6	3.02e+01	47	39	0	397934592	50	6272
2026-01-03 20:56:26.43	2.44	10.71	-37.8	-39.0	27.9	3.02e+01	57	39	0	399507456	50	6134
2026-01-03 20:56:27.44	2.23	10.72	-37.8	-39.1	27.7	3.02e+01	61	39	0	401604608	50	6147
2026-01-03 20:56:28.45	2.02	10.74	-37.7	-39.0	27.8	3.02e+01	60	38	0	403177472	50	6077
2026-01-03 20:56:29.46	1.81	10.75	-37.8	-39.1	27.8	3.02e+01	58	39	0	405274624	50	6141
2026-01-03 20:56:30.47	1.60	10.76	-37.7	-39.0	27.7	3.02e+01	47	38	0	407371776	50	6118
2026-01-03 20:56:31.48	1.38	10.77	-37.6	-38.9	27.7	3.02e+01	60	39	0	408944640	50	6044
2026-01-03 20:56:32.49	1.17	10.78	-37.9	-39.2	27.7	3.02e+01	58	39	0	411041792	50	6273
2026-01-03 20:56:33.50	0.96	10.79	-37.7	-38.9	27.9	3.02e+01	61	39	0	412614656	50	6049
2026-01-03 20:56:34.51	0.75	10.80	-37.8	-39.1	27.9	3.02e+01	63	39	0	414711808	50	6137
2026-01-03 20:56:35.51	0.54	10.81	-38.2	-39.5	27.8	3.02e+01	48	39	0	416808960	50	6442
2026-01-03 20:56:36.52	0.33	10.82	-38.6	-39.9	27.4	3.02e+01	59	39	0	418381824	50	6785
2026-01-03 20:56:37.53	0.11	10.83	-38.6	-39.9	27.7	3.02e+01	57	39	0	420478976	50	6776
2026-01-03 20:56:38.54	359.90	10.83	-38.5	-39.8	27.4	3.02e+01	46	39	0	422576128	50	6669
2026-01-03 20:56:39.55	359.69	10.84	-38.7	-40.1	27.2	3.02e+01	61	39	0	424148992	50	6885
2026-01-03 20:56:40.56	359.48	10.85	-38.9	-40.2	26.8	3.02e+01	60	39	0	426246144	54	5590
2026-01-03 20:56:41.57	359.26	10.86	-38.7	-40.1	27.4	3.02e+01	59	39	0	427819008	52	6143
2026-01-03 20:56:42.58	359.05	10.86	-38.3	-39.5	28.0	3.02e+01	62	39	0	429916160	52	5790
2026-01-03 20:56:43.58	358.84	10.87	-39.1	-40.4	27.1	3.02e+01	42	39	0	432013312	52	6404
2026-01-03 20:56:44.59	358.63	10.88	-39.6	-41.0	26.6	3.02e+01	57	39	0	433586176	52	6856
2026-01-03 20:56:45.61	358.41	10.88	-39.3	-40.6	27.1	3.02e+01	61	39	0	435683328	52	6552
2026-01-03 20:56:46.61	358.20	10.89	-38.2	-39.5	27.4	3.02e+01	48	39	0	437780480	52	5763
2026-01-03 20:56:47.63	357.98	10.89	-38.3	-39.6	27.1	3.02e+01	58	38	0	439353344	52	5809
2026-01-03 20:56:48.64	357.77	10.90	-38.4	-39.8	27.4	3.02e+01	60	39	0	441450496	50	6661
2026-01-03 20:56:49.64	357.56	10.90	-38.5	-39.9	27.6	3.02e+01	58	39	0	443023360	50	6727
2026-01-03 20:56:50.65	357.34	10.91	-38.5	-39.8	27.8	3.02e+01	57	39	0	445120512	52	5946
2026-01-03 20:56:51.66	357.13	10.91	-39.0	-40.3	27.7	3.02e+01	60	39	0	446693376	52	6285
2026-01-03 20:56:52.67	356.92	10.91	-39.2	-40.5	27.0	3.02e+01	56	39	0	448790528	52	6492
2026-01-03 20:56:53.68	356.70	10.91	-38.2	-39.5	27.9	3.02e+01	59	38	0	450887680	52	5776
2026-01-03 20:56:54.69	356.49	10.92	-38.2	-39.5	27.7	3.02e+01	48	39	0	452460544	52	5776
2026-01-03 20:56:55.70	356.28	10.92	-38.0	-39.3	27.9	3.02e+01	56	39	0	454557696	50	6293
2026-01-03 20:56:56.71	356.06	10.92	-38.2	-39.5	27.8	3.02e+01	57	39	0	456130560	50	6455
2026-01-03 20:56:57.72	355.85	10.92	-38.7	-39.9	27.7	3.02e+01	60	39	0	458227712	50	6788
2026-01-03 20:56:58.73	355.63	10.92	-38.3	-39.6	27.8	3.02e+01	61	38	0	460324864	50	6502
2026-01-03 20:56:59.73	355.42	10.92	-38.2	-39.6	27.6	3.02e+01	64	39	0	461897728	50	6503
2026-01-03 20:57:00.74	355.21	10.92	-39.2	-40.5	27.0	3.02e+01	62	39	0	463994880	50	7279
2026-01-03 20:57:01.75	354.99	10.92	-38.7	-40.1	27.4	3.02e+01	61	39	0	466092032	52	6137
2026-01-03 20:57:02.75	354.78	10.92	-38.9	-40.2	27.4	3.02e+01	38	39	0	467664896	52	6245
2026-01-03 20:57:03.76	354.57	10.92	-38.5	-39.8	27.6	3.02e+01	61	39	0	469762048	52	5949
2026-01-03 20:57:04.77	354.35	10.92	-39.6	-41.0	25.9	3.02e+01	58	38	0	471334912	52	6859
2026-01-03 20:57:05.78	354.14	10.92	-40.8	-42.2	25.9	3.02e+01	59	39	0	473432064	56	6263
2026-01-03 20:57:06.79	353.93	10.92	-40.0	-41.4	25.6	3.02e+01	61	39	0	475529216	54	6415
2026-01-03 20:57:07.80	353.71	10.92	-38.9	-40.2	27.4	3.02e+01	51	39	0	477102080	52	6240
2026-01-03 20:57:08.80	353.50	10.91	-38.8	-40.2	27.0	3.02e+01	60	39	0	479199232	52	6225
2026-01-03 20:57:09.82	353.28	10.91	-38.1	-39.5	27.4	3.02e+01	61	39	0	480772096	52	5728
2026-01-03 20:57:10.83	353.07	10.91	-38.2	-39.6	27.3	3.02e+01	62	39	0	482869248	52	5811
2026-01-03 20:57:11.84	352.86	10.90	-38.3	-39.6	27.2	3.02e+01	57	39	0	484966400	52	5812
2026-01-03 20:57:12.85	352.64	10.90	-38.3	-39.6	27.5	3.02e+01	51	39	0	486539264	52	5813
2026-01-03 20:57:13.86	352.43	10.90	-38.2	-39.5	27.3	3.02e+01	61	39	0	488636416	52	5754
2026-01-03 20:57:14.87	352.22	10.89	-38.4	-39.8	27.0	3.02e+01	59	39	0	490733568	52	5937
2026-01-03 20:57:15.87	352.00	10.89	-38.9	-40.3	27.1	3.02e+01	49	39	0	492306432	52	6280
2026-01-03 20:57:16.88	351.79	10.88	-38.8	-40.1	26.9	3.02e+01	61	39	0	494403584	52	6186
2026-01-03 20:57:17.89	351.58	10.88	-38.8	-40.2	26.8	3.02e+01	58	39	0	495976448	52	6244
2026-01-03 20:57:18.90	351.36	10.87	-38.6	-40.0	26.9	3.02e+01	60	39	0	498073600	52	6073
2026-01-03 20:57:19.91	351.15	10.86	-38.5	-39.8	26.9	3.02e+01	62	39	0	499646464	52	5970
2026-01-03 20:57:20.92	350.94	10.86	-38.6	-39.9	27.1	3.02e+01	57	39	0	501743616	52	6038
2026-01-03 20:57:21.93	350.73	10.85	-39.0	-40.4	26.8	3.02e+01	61	39	0	503840768	52	6393
2026-01-03 20:57:22.93	350.52	10.84	-38.8	-40.1	26.9	3.02e+01	61	39	0	505413632	52	6185
2026-01-03 20:57:23.94	350.30	10.83	-38.4	-39.7	27.2	3.02e+01	50	39	0	507510784	52	5908
2026-01-03 20:57:24.95	350.09	10.82	-38.1	-39.4	27.5	3.02e+01	57	39	0	509083648	52	5680
2026-01-03 20:57:25.96	349.88	10.82	-38.2	-39.5	27.5	3.02e+01	58	39	0	511180800	52	5742
2026-01-03 20:57:26.97	349.67	10.81	-38.0	-39.3	25.9	3.02e+01	60	39	0	513277952	52	5633
2026-01-03 20:57:27.98	349.45	10.80	-38.1	-39.4	27.4	3.02e+01	59	39	0	514850816	50	6381
2026-01-03 20:57:28.99	349.24	10.79	-38.0	-39.3	27.3	3.02e+01	59	39	0	516947968	50	6341
2026-01-03 20:57:30.00	349.03	10.78	-38.5	-39.9	27.3	3.02e+01	60	39	0	519045120	50	6727
2026-01-03 20:57:31.01	348.82	10.77	-38.2	-39.5	27.6	3.02e+01	60	39	0	520617984	50	6481
2026-01-03 20:57:32.01	348.61	10.76	-38.4	-39.7	27.5	3.02e+01	46	39	0	522715136	50	6611
2026-01-03 20:57:33.02	348.40	10.74	-38.2	-39.5	27.6	3.02e+01	57	39	0	524288000	50	6433
2026-01-03 20:57:34.04	348.18	10.73	-38.5	-39.9	27.6	3.02e+01	62	39	0	526385152	50	6731
2026-01-03 20:57:35.04	347.98	10.72	-38.4	-39.7	27.6	3.02e+01	57	39	0	528482304	50	6616
2026-01-03 20:57:36.05	347.76	10.71	-38.5	-39.8	27.3	3.02e+01	60	39	0	530055168	50	6681
2026-01-03 20:57:37.06	347.55	10.70	-38.5	-39.8	27.3	3.02e+01	51	39	0	532152320	50	6698
2026-01-03 20:57:38.07	347.34	10.68	-38.1	-39.4	27.6	3.02e+01	56	39	0	534249472	50	6413
2026-01-03 20:57:39.07	347.14	10.67	-38.4	-39.7	27.7	3.02e+01	55	39	0	535822336	50	6575
2026-01-03 20:57:40.08	346.93	10.66	-38.2	-39.5	27.6	3.02e+01	49	39	0	537919488	50	6476
2026-01-03 20:57:41.09	346.72	10.64	-38.0	-39.3	27.7	3.02e+01	58	39	0	539492352	50	6303
2026-01-03 20:57:42.10	346.51	10.63	-38.1	-39.4	27.6	3.02e+01	58	39	0	541589504	50	6370
2026-01-03 20:57:43.11	346.30	10.61	-37.9	-39.2	27.7	3.02e+01	60	39	0	543162368	50	6221
2026-01-03 20:57:44.12	346.09	10.60	-38.2	-39.5	27.4	3.02e+01	52	39	0	545259520	50	6456
2026-01-03 20:57:45.13	345.88	10.58	-38.4	-39.7	27.7	3.02e+01	52	39	0	547356672	50	6631
2026-01-03 20:57:46.14	345.67	10.57	-38.7	-40.0	27.3	3.02e+01	61	39	0	548929536	50	6844
2026-01-03 20:57:47.15	345.46	10.55	-37.9	-39.2	27.9	3.02e+01	61	38	0	551026688	50	6227
2026-01-03 20:57:48.16	345.25	10.54	-38.3	-39.6	27.4	3.02e+01	50	39	0	552599552	50	6570
2026-01-03 20:57:49.17	345.05	10.52	-38.1	-39.3	27.8	3.02e+01	58	39	0	554696704	50	6341
2026-01-03 20:57:50.18	344.84	10.50	-38.7	-40.0	27.4	3.02e+01	47	39	0	556793856	50	6853
2026-01-03 20:57:51.19	344.63	10.49	-38.5	-39.8	27.8	3.02e+01	61	39	0	558366720	50	6681
2026-01-03 20:57:52.20	344.42	10.47	-38.6	-39.9	27.6	3.02e+01	59	39	0	560463872	50	6775
2026-01-03 20:57:53.21	344.22	10.45	-38.7	-40.0	27.5	3.02e+01	51	39	0	562561024	52	6090
2026-01-03 20:57:54.21	344.01	10.43	-38.7	-40.0	27.4	3.02e+01	57	39	0	564133888	52	6116
2026-01-03 20:57:55.22	343.81	10.41	-39.3	-40.6	27.4	3.02e+01	60	39	0	566231040	52	6527
2026-01-03 20:57:56.23	343.60	10.39	-38.9	-40.2	27.5	3.02e+01	57	39	0	567803904	52	6248
2026-01-03 20:57:57.25	343.39	10.38	-38.7	-40.0	27.4	3.02e+01	58	38	0	569901056	52	6109
2026-01-03 20:57:58.25	343.19	10.36	-38.3	-39.5	27.6	3.02e+01	55	39	0	571998208	52	5791
2026-01-03 20:57:59.26	342.99	10.34	-38.7	-40.1	27.2	3.02e+01	61	39	0	573571072	52	6136
2026-01-03 20:58:00.27	342.78	10.32	-38.8	-40.1	27.2	3.02e+01	57	38	0	575668224	52	6202
2026-01-03 20:58:01.28	342.58	10.30	-39.4	-40.8	26.9	3.02e+01	54	39	0	577241088	52	6708
2026-01-03 20:58:02.29	342.37	10.27	-39.3	-40.7	26.9	3.02e+01	56	39	0	579338240	52	6581
2026-01-03 20:58:03.30	342.17	10.25	-39.8	-41.1	27.0	3.02e+01	59	39	0	581435392	54	6197
2026-01-03 20:58:04.31	341.97	10.23	-39.4	-40.8	26.8	3.02e+01	58	39	0	583008256	54	5939
2026-01-03 20:58:05.32	341.76	10.21	-39.0	-40.3	27.3	3.02e+01	60	39	0	585105408	52	6343
2026-01-03 20:58:06.33	341.56	10.19	-39.4	-40.8	26.7	3.02e+01	46	39	0	587202560	52	6696
2026-01-03 20:58:07.34	341.36	10.17	-38.6	-39.9	26.9	3.02e+01	61	39	0	588775424	52	6028
2026-01-03 20:58:08.35	341.16	10.14	-39.8	-41.2	26.7	3.02e+01	58	39	0	590872576	52	6978
2026-01-03 20:58:09.36	340.95	10.12	-39.3	-40.7	26.9	3.02e+01	46	39	0	592445440	52	6580
2026-01-03 20:58:10.36	340.75	10.10	-39.7	-41.1	26.2	3.02e+01	57	39	0	594542592	54	6203
2026-01-03 20:58:11.38	340.55	10.07	-39.5	-40.8	27.0	3.02e+01	58	39	0	596639744	54	5994
2026-01-03 20:58:12.38	340.35	10.05	-39.8	-41.2	26.3	3.02e+01	62	39	0	598212608	54	6253
2026-01-03 20:58:13.40	340.15	10.03	-39.0	-40.4	26.8	3.02e+01	59	39	0	600309760	52	6384
2026-01-03 20:58:14.40	339.95	10.00	-38.5	-39.8	27.6	3.02e+01	59	39	0	601882624	52	5942
2026-01-03 20:58:15.41	339.75	9.98	-39.3	-40.6	27.2	3.02e+01	59	39	0	603979776	52	6543
2026-01-03 20:58:16.42	339.55	9.95	-39.2	-40.5	27.5	3.02e+01	61	39	0	606076928	52	6474
2026-01-03 20:58:17.43	339.35	9.93	-39.1	-40.5	27.3	3.02e+01	47	39	0	607649792	52	6448
2026-01-03 20:58:18.44	339.16	9.90	-39.8	-41.2	26.9	3.02e+01	58	39	0	609746944	54	6232
2026-01-03 20:58:19.45	338.96	9.88	-39.2	-40.5	26.9	3.02e+01	53	39	0	611319808	52	6454
2026-01-03 20:58:20.46	338.76	9.85	-39.4	-40.7	27.5	3.02e+01	60	39	0	613416960	52	6595
2026-01-03 20:58:21.47	338.56	9.82	-40.7	-42.1	26.8	3.02e+01	56	39	0	615514112	54	6912
2026-01-03 20:58:22.48	338.37	9.80	-40.5	-42.0	25.0	3.02e+01	41	39	0	617086976	54	6806
2026-01-03 20:58:23.49	338.17	9.77	-41.1	-42.5	26.9	3.02e+01	58	39	0	619184128	56	6491
2026-01-03 20:58:24.50	337.97	9.74	-39.3	-40.6	27.3	3.02e+01	59	39	0	620756992	54	5822
2026-01-03 20:58:25.51	337.78	9.72	-39.7	-41.1	25.7	3.02e+01	48	39	0	622854144	54	6178
2026-01-03 20:58:26.52	337.58	9.69	-39.7	-41.0	26.5	3.02e+01	61	39	0	624951296	54	6114
2026-01-03 20:58:27.53	337.39	9.66	-39.9	-41.2	26.6	3.02e+01	47	39	0	626524160	54	6271
2026-01-03 20:58:28.53	337.19	9.63	-40.1	-41.5	27.1	3.02e+01	63	39	0	628621312	54	6425
2026-01-03 20:58:29.54	337.00	9.60	-40.1	-41.5	26.7	3.02e+01	58	39	0	630718464	54	6469
2026-01-03 20:58:30.55	336.81	9.58	-40.2	-41.5	27.0	3.02e+01	50	39	0	632291328	54	6492
2026-01-03 20:58:31.56	336.61	9.55	-39.9	-41.3	26.9	3.02e+01	60	39	0	634388480	54	6307
2026-01-03 20:58:32.57	336.42	9.52	-39.9	-41.2	27.3	3.02e+01	57	39	0	635961344	54	6274
2026-01-03 20:58:33.58	336.23	9.49	-39.9	-41.2	26.8	3.02e+01	60	39	0	638058496	54	6248
2026-01-03 20:58:34.59	336.04	9.46	-40.5	-41.9	27.1	3.02e+01	56	39	0	640155648	54	6737
2026-01-03 20:58:35.60	335.84	9.43	-40.5	-41.8	27.1	3.02e+01	48	39	0	641728512	54	6718
2026-01-03 20:58:36.61	335.65	9.40	-40.2	-41.6	26.5	3.02e+01	60	39	0	643825664	54	6546
2026-01-03 20:58:37.62	335.46	9.37	-40.3	-41.6	27.0	3.02e+01	60	39	0	645398528	56	5819
2026-01-03 20:58:38.62	335.27	9.34	-40.8	-42.3	25.4	3.02e+01	48	39	0	647495680	54	7125
2026-01-03 20:58:39.63	335.08	9.31	-39.4	-40.7	26.6	3.02e+01	59	39	0	649592832	54	5913
2026-01-03 20:58:40.64	334.89	9.27	-41.6	-43.1	25.4	3.02e+01	59	39	0	651165696	56	6942
2026-01-03 20:58:41.65	334.71	9.24	-39.6	-41.0	26.1	3.02e+01	59	39	0	653262848	54	6083
2026-01-03 20:58:42.66	334.52	9.21	-41.2	-42.6	26.2	3.02e+01	59	39	0	654835712	58	5844
2026-01-03 20:58:43.67	334.33	9.18	-41.5	-43.0	26.1	3.02e+01	42	39	0	656932864	56	6811
2026-01-03 20:58:44.68	334.14	9.15	-41.7	-43.2	25.5	3.02e+01	58	39	0	659030016	54	7846
2026-01-03 20:58:45.69	333.95	9.11	-41.3	-42.8	23.5	3.02e+01	56	39	0	660602880	60	5293
2026-01-03 20:58:46.70	333.77	9.08	-39.8	-41.1	25.7	3.02e+01	44	39	0	662700032	56	5474
2026-01-03 20:58:47.71	333.58	9.05	-41.2	-42.6	26.0	3.02e+01	57	39	0	664272896	56	6553
2026-01-03 20:58:48.71	333.40	9.02	-41.9	-43.5	27.2	3.02e+01	59	39	0	666370048	54	8090
2026-01-03 20:58:49.72	333.21	8.98	-42.8	-44.4	24.8	3.02e+01	59	39	0	668467200	60	6390
2026-01-03 20:58:50.73	333.03	8.95	-41.8	-43.3	25.6	3.02e+01	60	39	0	670040064	56	7071
2026-01-03 20:58:51.74	332.84	8.92	-41.6	-43.2	25.1	3.02e+01	44	39	0	672137216	58	6209
2026-01-03 20:58:52.75	332.66	8.88	-40.4	-41.8	26.7	3.02e+01	60	39	0	673710080	56	5963
2026-01-03 20:58:53.76	332.48	8.85	-41.4	-42.8	25.9	3.02e+01	57	39	0	675807232	56	6695
2026-01-03 20:58:54.76	332.29	8.81	-41.2	-42.6	26.0	3.02e+01	60	39	0	677904384	56	6564
2026-01-03 20:58:55.78	332.11	8.78	-40.1	-41.5	26.9	3.02e+01	59	39	0	679477248	54	6435
2026-01-03 20:58:56.79	331.93	8.74	-40.2	-41.6	25.8	3.02e+01	60	39	0	681574400	54	6548
2026-01-03 20:58:57.80	331.75	8.71	-39.2	-40.6	26.8	3.02e+01	59	39	0	683671552	54	5810
2026-01-03 20:58:58.80	331.57	8.67	-39.6	-40.9	27.0	3.02e+01	60	39	0	685244416	52	6753
2026-01-03 20:58:59.81	331.39	8.64	-39.8	-41.2	25.6	3.02e+01	55	39	0	687341568	56	5534
2026-01-03 20:59:00.82	331.21	8.60	-39.4	-40.7	27.0	3.02e+01	56	39	0	688914432	54	5906
2026-01-03 20:59:01.83	331.03	8.57	-39.5	-40.9	26.7	3.02e+01	61	39	0	691011584	54	6015
2026-01-03 20:59:02.84	330.85	8.53	-39.5	-40.9	26.7	3.02e+01	60	39	0	693108736	54	6027
2026-01-03 20:59:03.85	330.67	8.50	-39.3	-40.6	26.9	3.02e+01	52	39	0	694681600	54	5825
2026-01-03 20:59:04.86	330.49	8.46	-40.1	-41.5	26.2	3.02e+01	44	39	0	696778752	54	6487
2026-01-03 20:59:05.87	330.31	8.42	-39.1	-40.4	27.3	3.02e+01	61	39	0	698875904	54	5709
2026-01-03 20:59:06.88	330.14	8.39	-39.8	-41.3	26.4	3.02e+01	60	39	0	700448768	54	6290
2026-01-03 20:59:07.89	329.96	8.35	-38.7	-40.0	27.2	3.02e+01	46	39	0	702545920	52	6096
2026-01-03 20:59:08.90	329.78	8.31	-39.0	-40.4	26.6	3.02e+01	59	39	0	704118784	52	6417
2026-01-03 20:59:09.90	329.61	8.28	-38.8	-40.1	26.9	3.02e+01	61	39	0	706215936	52	6178
2026-01-03 20:59:10.92	329.43	8.24	-39.0	-40.5	26.5	3.02e+01	58	39	0	708313088	52	6437
2026-01-03 20:59:11.93	329.26	8.20	-39.3	-40.7	26.5	3.02e+01	58	39	0	709885952	52	6597
2026-01-03 20:59:12.93	329.08	8.16	-39.4	-40.9	26.3	3.02e+01	57	39	0	711983104	52	6729
2026-01-03 20:59:13.94	328.91	8.13	-39.1	-40.5	26.6	3.02e+01	59	39	0	713555968	52	6426
2026-01-03 20:59:14.95	328.74	8.09	-41.0	-42.5	24.4	3.02e+01	58	39	0	715653120	56	6474
2026-01-03 20:59:15.96	328.56	8.05	-41.5	-43.0	25.0	3.02e+01	52	39	0	717225984	56	6876
2026-01-03 20:59:16.97	328.39	8.01	-43.0	-44.6	20.6	3.02e+01	60	39	0	719323136	60	6539
2026-01-03 20:59:17.98	328.22	7.97	-42.5	-44.1	23.1	3.02e+01	63	39	0	721420288	58	6889
2026-01-03 20:59:18.99	328.05	7.93	-45.9	-48.4	24.7	3.02e+01	58	39	0	722993152	60	10164
2026-01-03 20:59:20.00	327.88	7.89	-40.7	-42.1	26.5	3.02e+01	62	39	0	725090304	56	6151
2026-01-03 20:59:21.01	327.71	7.85	-40.2	-41.6	25.9	3.02e+01	54	39	0	727187456	56	5839
2026-01-03 20:59:22.01	327.54	7.82	-39.2	-40.5	26.7	3.02e+01	59	39	0	728760320	54	5752
2026-01-03 20:59:23.03	327.37	7.78	-39.6	-41.0	26.3	3.02e+01	56	39	0	730857472	54	6123
2026-01-03 20:59:24.04	327.20	7.74	-39.7	-41.1	25.9	3.02e+01	48	39	0	732430336	54	6161
2026-01-03 20:59:25.05	327.03	7.70	-40.8	-42.2	26.0	3.02e+01	59	39	0	734527488	56	6256
2026-01-03 20:59:26.05	326.87	7.66	-39.6	-41.0	26.6	3.02e+01	55	39	0	736624640	54	6080
2026-01-03 20:59:27.06	326.70	7.62	-40.8	-42.3	25.0	3.02e+01	57	39	0	738197504	58	5623
2026-01-03 20:59:28.07	326.53	7.58	-41.0	-42.4	26.6	3.02e+01	57	39	0	740294656	56	6403
2026-01-03 20:59:29.08	326.37	7.54	-40.3	-41.7	26.4	3.02e+01	51	39	0	741867520	56	5918
2026-01-03 20:59:30.09	326.20	7.50	-40.2	-41.6	26.2	3.02e+01	58	39	0	743964672	56	5845
2026-01-03 20:59:31.10	326.04	7.46	-39.6	-41.0	26.4	3.02e+01	61	39	0	746061824	54	6085
2026-01-03 20:59:32.11	325.87	7.42	-41.5	-43.1	24.7	3.02e+01	47	39	0	747634688	58	6180
2026-01-03 20:59:33.11	325.71	7.37	-40.8	-42.3	25.8	3.02e+01	62	39	0	749731840	56	6296
2026-01-03 20:59:34.12	325.55	7.33	-41.6	-43.1	23.3	3.02e+01	60	39	0	751828992	56	6940
2026-01-03 20:59:35.13	325.38	7.29	-40.8	-42.3	25.6	3.02e+01	59	39	0	753401856	56	6308
2026-01-03 20:59:36.14	325.22	7.25	-41.2	-42.6	25.6	3.02e+01	58	39	0	755499008	56	6555
2026-01-03 20:59:37.15	325.06	7.21	-41.4	-42.9	25.5	3.02e+01	52	39	0	757071872	56	6768
2026-01-03 20:59:38.16	324.90	7.17	-42.1	-43.7	25.6	3.02e+01	60	39	0	759169024	56	7381
2026-01-03 20:59:39.17	324.73	7.13	-42.4	-43.9	25.4	3.02e+01	57	39	0	761266176	58	6799
2026-01-03 20:59:40.18	324.57	7.09	-42.5	-44.0	24.8	3.02e+01	56	39	0	762839040	60	6122
2026-01-03 20:59:41.19	324.41	7.04	-46.3	-48.7	20.4	3.02e+01	62	39	0	764936192	60	10442
2026-01-03 20:59:42.20	324.25	7.00	-41.3	-42.7	26.5	3.02e+01	45	39	0	766509056	58	5879
2026-01-03 20:59:43.21	324.10	6.96	-44.0	-45.8	23.4	3.02e+01	61	39	0	768606208	60	7538
2026-01-03 20:59:44.22	323.94	6.92	-40.4	-41.8	26.4	3.02e+01	62	39	0	770703360	58	5284
2026-01-03 20:59:45.22	323.78	6.88	-40.6	-42.1	25.7	3.02e+01	37	39	0	772276224	54	6928
2026-01-03 20:59:46.23	323.62	6.83	-40.6	-42.1	26.1	3.02e+01	58	39	0	774373376	56	6142
2026-01-03 20:59:47.24	323.47	6.79	-41.1	-42.6	25.4	3.02e+01	59	39	0	775946240	56	6505
2026-01-03 20:59:48.26	323.31	6.75	-42.3	-44.0	24.6	3.02e+01	59	39	0	778043392	58	6858
2026-01-03 20:59:49.27	323.15	6.70	-40.6	-42.0	26.6	3.02e+01	61	39	0	780140544	56	6079
2026-01-03 20:59:50.27	323.00	6.66	-40.4	-41.8	26.4	3.02e+01	62	39	0	781713408	56	5937
2026-01-03 20:59:51.29	322.84	6.62	-40.6	-42.1	25.2	3.02e+01	59	39	0	783810560	56	6190
2026-01-03 20:59:52.29	322.69	6.58	-41.1	-42.5	26.4	3.02e+01	59	39	0	785383424	56	6441
2026-01-03 20:59:53.30	322.53	6.53	-40.8	-42.3	26.0	3.02e+01	52	39	0	787480576	56	6302
2026-01-03 20:59:54.31	322.38	6.49	-42.8	-44.4	23.4	3.02e+01	58	39	0	789577728	58	7173
2026-01-03 20:59:55.32	322.23	6.45	-42.4	-43.9	25.7	3.02e+01	58	39	0	791150592	58	6732
2026-01-03 20:59:56.33	322.08	6.40	-41.4	-42.8	25.9	3.02e+01	60	39	0	793247744	56	6691
2026-01-03 20:59:57.34	321.92	6.36	-41.0	-42.5	25.5	3.02e+01	60	39	0	795344896	56	6447
2026-01-03 20:59:58.35	321.77	6.32	-40.3	-41.7	26.4	3.02e+01	46	39	0	796917760	56	5863
2026-01-03 20:59:59.36	321.62	6.27	-40.8	-42.3	25.7	3.02e+01	61	39	0	799014912	56	6326
2026-01-03 21:00:00.37	321.47	6.23	-41.0	-42.5	25.5	3.02e+01	59	39	0	800587776	58	5787
2026-01-03 21:00:01.37	321.32	6.18	-41.0	-42.4	25.5	3.02e+01	45	39	0	802684928	56	6396
2026-01-03 21:00:02.38	321.17	6.14	-41.1	-42.7	25.0	3.02e+01	60	39	0	804782080	56	6611
2026-01-03 21:00:03.39	321.02	6.10	-40.8	-42.4	25.0	3.02e+01	59	39	0	806354944	56	6368
2026-01-03 21:00:04.40	320.88	6.05	-41.2	-42.6	25.8	3.02e+01	55	39	0	808452096	56	6535
2026-01-03 21:00:05.41	320.73	6.01	-41.6	-43.1	25.1	3.02e+01	60	39	0	810024960	56	6921
2026-01-03 21:00:06.42	320.58	5.96	-42.6	-44.2	24.4	3.02e+01	53	39	0	812122112	58	6994
2026-01-03 21:00:07.43	320.43	5.92	-40.6	-42.0	26.4	3.02e+01	58	39	0	814219264	56	6077
2026-01-03 21:00:08.44	320.29	5.87	-40.9	-42.4	25.2	3.02e+01	57	39	0	815792128	56	6371
2026-01-03 21:00:09.45	320.14	5.83	-40.6	-42.3	24.9	3.02e+01	46	39	0	817889280	56	6280
2026-01-03 21:00:10.46	320.00	5.78	-41.2	-42.8	25.0	3.02e+01	57	39	0	819462144	56	6655
2026-01-03 21:00:11.47	319.85	5.74	-40.6	-42.0	25.9	3.02e+01	52	39	0	821559296	54	6830
2026-01-03 21:00:12.48	319.71	5.69	-42.0	-43.6	24.8	3.02e+01	60	39	0	823656448	58	6504
2026-01-03 21:00:13.49	319.56	5.65	-41.1	-42.7	25.1	3.02e+01	60	39	0	825229312	58	5862
2026-01-03 21:00:14.49	319.42	5.61	-40.5	-41.9	25.4	3.02e+01	47	39	0	827326464	56	6025
2026-01-03 21:00:15.50	319.28	5.56	-40.8	-42.2	25.7	3.02e+01	60	39	0	828899328	56	6272
2026-01-03 21:00:16.51	319.13	5.51	-41.0	-42.5	25.3	3.02e+01	61	39	0	830996480	56	6488
2026-01-03 21:00:17.52	318.99	5.47	-42.1	-43.7	25.2	3.02e+01	60	39	0	833093632	60	5869
2026-01-03 21:00:18.53	318.85	5.42	-41.9	-43.4	25.0	3.02e+01	58	39	0	834666496	58	6409
2026-01-03 21:00:19.54	318.71	5.38	-43.0	-44.6	24.6	3.02e+01	46	39	0	836763648	60	6500
2026-01-03 21:00:20.55	318.57	5.33	-40.8	-42.3	25.6	3.02e+01	60	39	0	838336512	58	5633
2026-01-03 21:00:21.56	318.43	5.29	-40.8	-42.2	25.8	3.02e+01	62	39	0	840433664	56	6254
2026-01-03 21:00:22.57	318.29	5.24	-40.5	-41.9	25.3	3.02e+01	46	39	0	842530816	56	6059
2026-01-03 21:00:23.58	318.15	5.20	-41.2	-42.8	25.2	3.02e+01	56	39	0	844103680	56	6683
2026-01-03 21:00:24.59	318.01	5.15	-42.0	-43.5	25.1	3.02e+01	60	39	0	846200832	58	6478
2026-01-03 21:00:25.60	317.87	5.11	-42.2	-43.8	24.8	3.02e+01	56	39	0	848297984	58	6678
2026-01-03 21:00:26.61	317.74	5.06	-41.5	-43.0	25.1	3.02e+01	52	39	0	849870848	58	6115
2026-01-03 21:00:27.61	317.60	5.01	-41.5	-43.0	25.5	3.02e+01	57	39	0	851968000	58	6106
2026-01-03 21:00:28.62	317.46	4.97	-41.6	-43.2	25.3	3.02e+01	60	39	0	853540864	58	6216
2026-01-03 21:00:29.63	317.33	4.92	-41.1	-42.7	24.9	3.02e+01	59	39	0	855638016	58	5879
2026-01-03 21:00:30.64	317.19	4.88	-42.6	-44.2	24.7	3.02e+01	50	39	0	857735168	58	7034
2026-01-03 21:00:31.65	317.06	4.83	-41.3	-42.8	25.4	3.02e+01	57	39	0	859308032	58	5927
2026-01-03 21:00:32.66	316.92	4.78	-41.9	-43.4	25.3	3.02e+01	61	39	0	861405184	56	7132
2026-01-03 21:00:33.67	316.79	4.74	-42.6	-44.2	24.0	3.02e+01	56	39	0	862978048	60	6241
2026-01-03 21:00:34.68	316.65	4.69	-43.1	-44.8	24.4	3.02e+01	59	39	0	865075200	60	6689
2026-01-03 21:00:35.69	316.52	4.65	-42.1	-43.6	24.8	3.02e+01	43	39	0	867172352	60	5850
2026-01-03 21:00:36.70	316.39	4.60	-41.4	-42.9	25.1	3.02e+01	60	39	0	868745216	58	6036
2026-01-03 21:00:37.71	316.25	4.55	-40.9	-42.4	25.3	3.02e+01	57	39	0	870842368	56	6378
2026-01-03 21:00:38.72	316.12	4.51	-41.4	-43.0	25.0	3.02e+01	46	39	0	872939520	56	6858
2026-01-03 21:00:39.73	315.99	4.46	-40.8	-42.3	25.1	3.02e+01	63	39	0	874512384	56	6316
2026-01-03 21:00:40.74	315.86	4.41	-41.2	-42.9	24.3	3.02e+01	61	39	0	876609536	56	6734
2026-01-03 21:00:41.75	315.73	4.37	-41.3	-43.0	24.3	3.02e+01	58	39	0	878182400	56	6833
2026-01-03 21:00:42.75	315.60	4.32	-41.7	-43.4	24.4	3.02e+01	60	39	0	880279552	56	7173
2026-01-03 21:00:43.76	315.47	4.28	-41.0	-42.6	24.7	3.02e+01	58	39	0	882376704	58	5850
2026-01-03 21:00:44.77	315.34	4.23	-41.1	-42.7	24.6	3.02e+01	58	39	0	883949568	56	6640
2026-01-03 21:00:45.78	315.21	4.18	-40.4	-42.0	25.0	3.02e+01	52	39	0	886046720	56	6069
2026-01-03 21:00:46.79	315.09	4.14	-40.6	-42.2	24.8	3.02e+01	45	39	0	887619584	56	6228
2026-01-03 21:00:47.80	314.96	4.09	-41.0	-42.6	24.4	3.02e+01	58	39	0	889716736	56	6556
2026-01-03 21:00:48.80	314.83	4.04	-41.4	-43.1	24.5	3.02e+01	52	39	0	891289600	56	6898
2026-01-03 21:00:49.81	314.70	4.00	-41.6	-43.2	24.6	3.02e+01	57	39	0	893386752	58	6240
2026-01-03 21:00:50.82	314.58	3.95	-42.1	-43.7	24.9	3.02e+01	59	39	0	895483904	58	6622
2026-01-03 21:00:51.83	314.45	3.90	-41.1	-42.7	24.8	3.02e+01	42	39	0	897056768	58	5896
2026-01-03 21:00:52.84	314.33	3.85	-40.6	-42.2	24.9	3.02e+01	56	39	0	899153920	56	6254
2026-01-03 21:00:53.85	314.20	3.81	-41.6	-43.3	24.6	3.02e+01	60	39	0	901251072	56	7057
2026-01-03 21:00:54.86	314.08	3.76	-41.8	-43.5	24.5	3.02e+01	57	39	0	902823936	58	6463
2026-01-03 21:00:55.86	313.95	3.71	-42.2	-43.9	24.4	3.02e+01	59	39	0	904921088	58	6739
2026-01-03 21:00:56.87	313.83	3.67	-41.6	-43.2	24.8	3.02e+01	46	39	0	906493952	58	6231
2026-01-03 21:00:57.88	313.71	3.62	-41.0	-42.6	24.8	3.02e+01	57	39	0	908591104	58	5807
2026-01-03 21:00:58.89	313.58	3.57	-41.3	-42.9	24.4	3.02e+01	59	39	0	910688256	56	6784
2026-01-03 21:00:59.90	313.46	3.53	-41.3	-43.0	24.2	3.02e+01	46	39	0	912261120	56	6848
2026-01-03 21:01:00.91	313.34	3.48	-41.1	-42.8	24.0	3.02e+01	60	39	0	914358272	56	6679
2026-01-03 21:01:01.92	313.22	3.43	-42.1	-43.9	22.8	3.02e+01	57	39	0	916455424	58	6797
2026-01-03 21:01:02.93	313.10	3.39	-41.3	-42.8	24.8	3.02e+01	59	39	0	918028288	58	5984
2026-01-03 21:01:03.93	312.98	3.34	-41.5	-43.1	24.7	3.02e+01	62	39	0	920125440	56	6896
2026-01-03 21:01:04.94	312.86	3.29	-42.5	-44.2	23.9	3.02e+01	52	39	0	921698304	60	6216
2026-01-03 21:01:05.95	312.74	3.24	-42.2	-44.0	23.7	3.02e+01	58	39	0	923795456	58	6814
2026-01-03 21:01:06.96	312.62	3.20	-42.4	-44.2	23.5	3.02e+01	58	39	0	925368320	58	6988
2026-01-03 21:01:07.97	312.50	3.15	-43.1	-44.9	23.5	3.02e+01	44	39	0	927465472	60	6730
2026-01-03 21:01:08.98	312.38	3.10	-41.7	-43.3	23.8	3.02e+01	58	39	0	929562624	58	6324
2026-01-03 21:01:09.99	312.26	3.06	-41.7	-43.4	23.7	3.02e+01	62	39	0	931135488	58	6411
2026-01-03 21:01:11.00	312.15	3.01	-44.5	-46.8	19.9	3.02e+01	66	39	0	933232640	60	8413
2026-01-03 21:01:12.01	312.03	2.96	-51.3	-69.4	3.5	3.02e+01	0	39	104	934281216	60	112982
2026-01-03 21:01:13.02	311.91	2.91	-51.6	-69.9	3.5	3.02e+01	0	39	104	934281216	60	120247
2026-01-03 21:01:14.03	311.79	2.87	-52.3	-70.1	3.5	3.02e+01	0	39	104	934281216	60	123450
2026-01-03 21:01:15.04	311.68	2.82	-51.7	-69.5	3.5	3.02e+01	0	39	104	934281216	60	114975
2026-01-03 21:01:16.05	311.56	2.77	-52.1	-70.0	3.5	3.02e+01	0	39	104	934281216	60	121170
2026-01-03 21:01:17.06	311.45	2.72	-51.6	-69.4	3.5	3.02e+01	0	39	104	934281216	60	113033
2026-01-03 21:01:18.07	311.33	2.68	-51.3	-69.1	3.5	3.02e+01	0	39	104	934281216	60	109997
2026-01-03 21:01:19.08	311.22	2.63	-51.3	-69.1	3.5	3.02e+01	0	39	104	934281216	60	109980
2026-01-03 21:01:20.09	311.11	2.58	-51.8	-69.6	3.5	3.02e+01	0	39	104	934281216	60	116865
2026-01-03 21:01:21.10	310.99	2.53	-51.1	-69.1	3.5	3.02e+01	0	39	104	934281216	60	109672
2026-01-03 21:01:22.11	310.88	2.49	-51.4	-69.4	3.5	3.02e+01	0	39	104	934281216	60	114214
2026-01-03 21:01:23.11	310.77	2.44	-51.8	-69.7	3.5	3.02e+01	0	39	104	934281216	60	116927
2026-01-03 21:01:24.12	310.66	2.39	-52.2	-70.1	3.5	3.02e+01	0	39	104	934281216	60	122438
2026-01-03 21:01:25.13	310.54	2.35	-51.7	-69.7	3.5	3.02e+01	0	39	104	934281216	60	117754
2026-01-03 21:01:26.14	310.43	2.30	-52.5	-70.4	3.5	3.02e+01	0	39	104	934281216	60	127243
2026-01-03 21:01:27.15	310.32	2.25	-52.3	-70.4	3.5	3.02e+01	0	39	104	934281216	60	126749
2026-01-03 21:01:28.16	310.21	2.20	-52.7	-70.6	3.5	3.02e+01	0	39	104	934281216	60	129719
2026-01-03 21:01:29.17	310.10	2.16	-51.8	-69.6	3.5	3.02e+01	0	39	104	934281216	60	116363
2026-01-03 21:01:30.18	309.99	2.11	-52.5	-70.4	3.6	3.02e+01	0	39	104	934281216	60	127524
2026-01-03 21:01:31.19	309.88	2.06	-51.8	-69.7	3.5	3.02e+01	0	39	104	934281216	60	117205
2026-01-03 21:01:32.20	309.77	2.01	-52.6	-70.5	3.4	3.02e+01	0	39	104	934281216	60	129455
2026-01-03 21:01:33.21	309.66	1.97	-52.2	-70.0	3.5	3.02e+01	0	39	104	934281216	60	121541
2026-01-03 21:01:34.22	309.55	1.92	-52.4	-70.2	3.5	3.02e+01	0	39	104	934281216	60	124482
2026-01-03 21:01:35.23	309.45	1.87	-52.2	-70.1	3.5	3.02e+01	0	39	104	934281216	60	122946
2026-01-03 21:01:36.24	309.34	1.82	-51.8	-69.7	3.5	3.02e+01	0	39	104	934281216	60	118168
2026-01-03 21:01:37.25	309.23	1.78	-51.2	-69.1	3.5	3.02e+01	0	39	104	934281216	60	109541
2026-01-03 21:01:38.26	309.13	1.73	-52.0	-69.9	3.5	3.02e+01	0	39	104	934281216	60	119789
2026-01-03 21:01:39.27	309.02	1.68	-51.9	-69.8	3.5	3.02e+01	0	39	104	934281216	60	118361
2026-01-03 21:01:40.28	308.91	1.63	-51.6	-69.5	3.5	3.02e+01	0	39	104	934281216	60	114845
2026-01-03 21:01:41.29	308.81	1.59	-52.2	-70.0	3.5	3.02e+01	0	39	104	934281216	60	122328
2026-01-03 21:01:42.30	308.70	1.54	-52.6	-70.5	3.5	3.02e+01	0	39	104	934281216	60	129499
2026-01-03 21:01:43.31	308.60	1.49	-51.8	-69.6	3.5	3.02e+01	0	39	104	934281216	60	116527
2026-01-03 21:01:44.32	308.49	1.44	-53.0	-70.9	3.5	3.02e+01	0	39	104	934281216	60	134598
2026-01-03 21:01:45.33	308.39	1.40	-52.6	-70.5	3.5	3.02e+01	0	39	104	934281216	60	128244
2026-01-03 21:01:46.34	308.29	1.35	-51.6	-69.5	3.5	3.02e+01	0	39	104	934281216	60	115031
2026-01-03 21:01:47.35	308.18	1.30	-51.4	-69.3	3.5	3.02e+01	0	39	104	934281216	60	111982
2026-01-03 21:01:48.36	308.08	1.25	-50.9	-68.8	3.5	3.02e+01	0	39	104	934281216	60	105666
2026-01-03 21:01:49.36	307.98	1.21	-52.4	-70.4	3.5	3.02e+01	0	39	104	934281216	60	126734
2026-01-03 21:01:50.37	307.88	1.16	-52.7	-70.5	3.5	3.02e+01	0	39	104	934281216	60	129529
2026-01-03 21:01:51.38	307.77	1.11	-52.5	-70.3	3.5	3.02e+01	0	39	104	934281216	60	125871
2026-01-03 21:01:52.39	307.67	1.07	-52.5	-70.4	3.5	3.02e+01	0	39	104	934281216	60	127238
2026-01-03 21:01:53.40	307.57	1.02	-52.0	-69.9	3.5	3.02e+01	0	39	104	934281216	60	120947
2026-01-03 21:01:54.40	307.47	0.97	-52.1	-70.0	3.5	3.02e+01	0	39	104	934281216	60	121237
2026-01-03 21:01:55.41	307.37	0.92	-52.8	-70.7	3.5	3.02e+01	0	39	104	934281216	60	131852
2026-01-03 21:01:56.42	307.27	0.88	-51.5	-69.4	3.5	3.02e+01	0	39	104	934281216	60	113986
2026-01-03 21:01:57.43	307.17	0.83	-51.7	-69.5	3.5	3.02e+01	0	39	104	934281216	60	115176
2026-01-03 21:01:58.44	307.07	0.78	-51.9	-69.8	3.5	3.02e+01	0	39	104	934281216	60	118650
2026-01-03 21:01:59.45	306.97	0.73	-51.4	-69.3	3.5	3.02e+01	0	39	104	934281216	60	112155
2026-01-03 21:02:00.46	306.88	0.69	-51.4	-69.2	3.5	3.02e+01	0	39	104	934281216	60	111505
2026-01-03 21:02:01.47	306.78	0.64	-51.7	-69.6	3.5	3.02e+01	0	39	104	934281216	60	115739
2026-01-03 21:02:02.48	306.68	0.59	-51.9	-69.7	3.5	3.02e+01	0	39	104	934281216	60	116982
2026-01-03 21:02:03.48	306.58	0.55	-51.1	-68.9	3.5	3.02e+01	0	39	104	934281216	60	107365
2026-01-03 21:02:04.49	306.49	0.50	-52.4	-70.2	3.5	3.02e+01	0	39	104	934281216	60	125051
2026-01-03 21:02:05.50	306.39	0.45	-52.0	-69.9	3.5	3.02e+01	0	39	104	934281216	60	120038
2026-01-03 21:02:06.51	306.29	0.40	-51.4	-69.3	3.5	3.02e+01	0	39	104	934281216	60	111861
2026-01-03 21:02:07.52	306.20	0.36	-51.0	-68.9	3.5	3.02e+01	0	39	104	934281216	60	107578
2026-01-03 21:02:08.53	306.10	0.31	-51.7	-69.6	3.5	3.02e+01	0	39	104	934281216	60	116815
2026-01-03 21:02:09.54	306.01	0.26	-51.5	-69.4	3.5	3.02e+01	0	39	104	934281216	60	113228
2026-01-03 21:02:10.55	305.91	0.22	-51.6	-69.5	3.5	3.02e+01	0	39	104	934281216	60	115501
2026-01-03 21:02:11.56	305.82	0.17	-51.1	-69.0	3.5	3.02e+01	0	39	104	934281216	60	108242
2026-01-03 21:02:12.56	305.72	0.12	-50.8	-68.6	3.5	3.02e+01	0	39	104	934281216	60	103698
2026-01-03 21:02:13.58	305.63	0.07	-51.4	-69.2	3.5	3.02e+01	0	39	104	934281216	60	111594
2026-01-03 21:02:14.58	305.53	0.03	-51.7	-69.5	3.5	3.02e+01	0	39	104	934281216	60	114731
2026-01-03 21:02:15.59	305.44	-0.02	-51.4	-69.3	3.5	3.02e+01	0	39	104	934281216	60	112297
2026-01-03 21:02:16.60	305.35	-0.07	-52.1	-70.0	3.5	3.02e+01	0	39	104	934281216	60	121421

#Closed at: 2026-01-03 21:02:16
#Recorded file [934 MB]: D:/lorett/data/35029_260104_085148.dat