passes_logs/2026/01/03/R4.6S_Anadyr/R4.6S_Anadyr__20260103_014504_NOAA_20_JPSS-1_rec.log

#Pass ID: 20260103_014504_NOAA 20 (JPSS-1)
#Satellite: NOAA 20 (JPSS-1)
#Configuration: NOAA 20
#almurnet v.1.7.20251203
#Start time: 2026-01-03 01:45:06

#Version: 2.2.20231116
#Station: R4.6S_Anadyr
#Location: 177.4865 lon 64.73178 lat
#TLE: 1 43013U 17073A   26002.78363558  .00000190  00000+0  11110-3 0  9990
#TLE: 2 43013  98.7623 303.8528 0001892  57.0664 303.0694 14.19532716421006

#Time	Az	El	Level	Level2	SNR	BER	BlckErr	Temp	State	Recorded	gain1	gain2
2026-01-03 01:45:06.38	195.66	0.09	-50.2	-65.2	3.5	1.51e+00	0	37	0	0	60	65529
2026-01-03 01:45:07.38	195.71	0.14	-50.3	-65.5	3.6	1.51e+00	0	38	104	0	60	68129
2026-01-03 01:45:08.39	195.76	0.20	-50.1	-65.3	3.6	1.51e+00	0	38	104	0	60	66901
2026-01-03 01:45:09.40	195.81	0.25	-50.1	-65.4	3.6	1.51e+00	0	38	104	0	60	67115
2026-01-03 01:45:10.41	195.86	0.31	-50.1	-65.3	3.6	1.51e+00	0	38	104	0	60	66816
2026-01-03 01:45:11.42	195.91	0.37	-50.1	-65.4	3.6	1.51e+00	0	38	104	0	60	67091
2026-01-03 01:45:12.43	195.97	0.42	-50.1	-65.4	3.6	1.51e+00	0	38	104	0	60	67465
2026-01-03 01:45:13.44	196.02	0.48	-50.1	-65.4	3.6	1.51e+00	0	38	104	0	60	67651
2026-01-03 01:45:14.45	196.07	0.54	-50.1	-65.4	3.6	1.51e+00	0	38	104	0	60	67183
2026-01-03 01:45:15.46	196.12	0.59	-50.1	-65.3	3.6	1.51e+00	0	38	104	0	60	66867
2026-01-03 01:45:16.47	196.17	0.65	-50.1	-65.3	3.6	1.51e+00	0	38	104	0	60	66707
2026-01-03 01:45:17.48	196.22	0.71	-49.9	-65.2	3.6	1.51e+00	0	38	104	0	60	65705
2026-01-03 01:45:18.49	196.27	0.77	-49.8	-65.0	3.6	1.51e+00	0	38	104	0	60	64577
2026-01-03 01:45:19.50	196.33	0.82	-49.7	-64.9	3.6	1.51e+00	0	38	104	0	60	63509
2026-01-03 01:45:20.51	196.38	0.88	-49.5	-64.7	3.6	1.51e+00	0	38	104	0	60	61928
2026-01-03 01:45:21.52	196.43	0.94	-49.3	-64.4	3.6	1.51e+00	0	38	104	0	60	59983
2026-01-03 01:45:22.53	196.48	1.00	-48.7	-63.9	3.6	1.51e+00	0	39	104	0	60	56321
2026-01-03 01:45:23.54	196.54	1.05	-48.6	-63.8	3.6	1.51e+00	0	39	104	0	60	55708
2026-01-03 01:45:24.55	196.59	1.11	-48.6	-63.7	3.6	1.51e+00	0	39	104	0	60	55445
2026-01-03 01:45:25.56	196.64	1.17	-48.6	-63.7	3.6	1.51e+00	0	38	104	0	60	55295
2026-01-03 01:45:26.57	196.70	1.23	-48.6	-63.7	3.6	1.51e+00	0	39	104	0	60	55037
2026-01-03 01:45:27.58	196.75	1.29	-48.6	-63.7	3.6	1.51e+00	0	39	104	0	60	55425
2026-01-03 01:45:28.59	196.80	1.34	-48.6	-63.8	3.6	1.51e+00	0	39	104	0	60	55736
2026-01-03 01:45:29.61	196.86	1.40	-48.6	-63.8	3.6	1.51e+00	0	39	104	0	60	55693
2026-01-03 01:45:30.62	196.91	1.46	-48.6	-63.7	3.6	1.51e+00	0	39	104	0	60	55617
2026-01-03 01:45:31.63	196.97	1.52	-48.6	-63.8	3.6	1.51e+00	0	39	104	0	60	55952
2026-01-03 01:45:32.64	197.02	1.58	-48.6	-63.8	3.6	1.51e+00	0	39	104	0	60	55993
2026-01-03 01:45:33.65	197.08	1.64	-48.6	-63.8	3.6	1.51e+00	0	39	104	0	60	55836
2026-01-03 01:45:34.66	197.13	1.70	-48.6	-63.7	3.6	1.51e+00	0	39	104	0	60	55409
2026-01-03 01:45:35.67	197.19	1.75	-48.6	-63.8	3.6	1.51e+00	0	39	104	0	60	55712
2026-01-03 01:45:36.68	197.24	1.81	-48.6	-63.7	3.6	1.51e+00	0	39	104	0	60	55640
2026-01-03 01:45:37.69	197.30	1.87	-48.6	-63.7	3.6	1.51e+00	0	39	104	0	60	55343
2026-01-03 01:45:38.70	197.35	1.93	-48.6	-63.7	3.6	1.51e+00	0	39	104	0	60	55319
2026-01-03 01:45:39.71	197.41	1.99	-48.6	-63.7	3.6	1.51e+00	0	39	104	0	60	55055
2026-01-03 01:45:40.72	197.47	2.05	-48.6	-63.7	3.6	1.51e+00	0	39	104	0	60	55053
2026-01-03 01:45:41.73	197.52	2.11	-48.6	-63.7	3.6	1.51e+00	0	39	104	0	60	55482
2026-01-03 01:45:42.74	197.58	2.17	-48.6	-63.7	3.6	1.51e+00	0	39	104	0	60	55602
2026-01-03 01:45:43.75	197.64	2.23	-48.6	-63.7	3.6	1.51e+00	0	39	104	0	60	55492
2026-01-03 01:45:44.76	197.69	2.29	-48.6	-63.7	3.6	1.51e+00	0	39	104	0	60	55657
2026-01-03 01:45:45.77	197.75	2.35	-48.6	-63.7	3.6	1.51e+00	0	39	104	0	60	55498
2026-01-03 01:45:46.78	197.81	2.41	-48.6	-63.7	3.6	1.51e+00	0	39	104	0	60	55452
2026-01-03 01:45:47.79	197.87	2.47	-48.6	-63.7	3.6	1.51e+00	0	39	104	0	60	55623
2026-01-03 01:45:48.80	197.92	2.53	-48.5	-63.4	3.6	1.51e+00	0	39	104	0	60	53650
2026-01-03 01:45:49.81	197.98	2.59	-48.5	-63.1	3.6	1.51e+00	0	39	104	0	60	51660
2026-01-03 01:45:50.82	198.04	2.65	-48.5	-62.6	3.6	1.51e+00	0	39	104	0	60	48487
2026-01-03 01:45:51.83	198.10	2.71	-48.5	-62.3	3.6	1.51e+00	0	39	104	0	60	47073
2026-01-03 01:45:52.84	198.16	2.77	-48.5	-62.7	3.6	1.51e+00	0	39	104	0	60	49202
2026-01-03 01:45:53.85	198.22	2.83	-48.5	-63.1	3.6	1.51e+00	0	39	104	0	60	51503
2026-01-03 01:45:54.86	198.28	2.89	-48.5	-63.1	3.6	1.51e+00	0	39	104	0	60	51514
2026-01-03 01:45:55.87	198.34	2.95	-48.5	-61.7	3.6	1.51e+00	0	39	104	0	60	43744
2026-01-03 01:45:56.88	198.40	3.02	-48.3	-58.9	4.6	1.30e+00	92	39	0	0	60	31872
2026-01-03 01:45:57.89	198.46	3.08	-47.7	-54.2	7.7	3.11e-01	92	39	0	1048576	60	18593
2026-01-03 01:45:58.90	198.52	3.14	-47.4	-53.1	9.2	2.80e-02	90	39	0	3145728	60	16289
2026-01-03 01:45:59.91	198.58	3.20	-46.6	-51.0	11.5	4.54e-03	92	39	0	5242880	60	12829
2026-01-03 01:46:00.92	198.64	3.26	-46.1	-49.9	12.7	2.23e-04	0	39	0	7340032	60	11266
2026-01-03 01:46:01.93	198.70	3.32	-46.0	-49.6	13.0	1.75e-05	91	39	0	9437184	60	10905
2026-01-03 01:46:02.94	198.76	3.39	-45.9	-49.4	13.2	7.78e-05	46	39	0	10485760	60	10616
2026-01-03 01:46:03.95	198.82	3.45	-46.3	-50.3	12.2	1.20e-04	92	39	0	12582912	60	11863
2026-01-03 01:46:04.96	198.88	3.51	-49.0	-64.0	3.6	5.55e-01	0	39	104	14680064	60	57413
2026-01-03 01:46:05.97	198.95	3.57	-48.4	-62.4	3.6	1.17e+00	0	39	104	14680064	60	47514
2026-01-03 01:46:06.98	199.01	3.63	-44.7	-47.2	15.2	1.50e+00	92	39	104	14680064	60	8316
2026-01-03 01:46:07.99	199.07	3.70	-48.3	-56.2	6.3	4.40e-02	92	39	0	14680064	60	23251
2026-01-03 01:46:09.00	199.13	3.76	-47.3	-52.7	9.2	3.80e-06	92	39	0	16777216	60	15623
2026-01-03 01:46:10.01	199.20	3.82	-45.3	-48.1	14.8	1.65e-03	14	39	0	18874368	60	9206
2026-01-03 01:46:11.02	199.26	3.88	-45.2	-48.0	15.1	2.20e-06	92	39	0	20971520	60	9101
2026-01-03 01:46:12.03	199.32	3.95	-44.9	-47.4	15.7	0.00e+00	92	39	0	23068672	60	8513
2026-01-03 01:46:13.04	199.39	4.01	-45.0	-47.6	15.7	0.00e+00	92	39	0	24117248	60	8662
2026-01-03 01:46:14.05	199.45	4.07	-44.7	-47.1	16.0	0.00e+00	92	39	0	26214400	60	8173
2026-01-03 01:46:15.06	199.52	4.14	-44.7	-47.1	16.1	0.00e+00	8	39	0	28311552	60	8140
2026-01-03 01:46:16.07	199.58	4.20	-44.9	-47.4	15.9	0.00e+00	92	39	0	30408704	60	8432
2026-01-03 01:46:17.08	199.65	4.26	-44.7	-47.1	16.1	0.00e+00	8	39	0	32505856	60	8208
2026-01-03 01:46:18.09	199.71	4.33	-45.0	-47.5	15.8	0.00e+00	92	39	0	33554432	60	8564
2026-01-03 01:46:19.10	199.78	4.39	-44.8	-47.2	15.8	0.00e+00	92	39	0	35651584	60	8268
2026-01-03 01:46:20.11	199.84	4.45	-44.6	-46.9	16.3	0.00e+00	90	39	0	37748736	60	8013
2026-01-03 01:46:21.12	199.91	4.52	-44.4	-46.6	16.6	0.00e+00	91	39	0	39845888	60	7740
2026-01-03 01:46:22.13	199.97	4.58	-44.6	-46.8	16.5	0.00e+00	73	39	0	41943040	60	7952
2026-01-03 01:46:23.14	200.04	4.65	-44.2	-46.4	16.8	0.00e+00	92	39	0	42991616	60	7536
2026-01-03 01:46:24.15	200.11	4.71	-44.1	-46.2	17.0	0.00e+00	18	39	0	45088768	60	7402
2026-01-03 01:46:25.16	200.17	4.77	-44.1	-46.2	17.0	0.00e+00	92	39	0	47185920	60	7406
2026-01-03 01:46:26.17	200.24	4.84	-43.7	-45.7	17.7	0.00e+00	17	39	0	49283072	60	6937
2026-01-03 01:46:27.18	200.31	4.90	-43.5	-45.3	18.1	0.00e+00	92	39	0	51380224	60	6634
2026-01-03 01:46:28.19	200.38	4.97	-43.3	-45.1	18.3	0.00e+00	90	39	0	52428800	60	6494
2026-01-03 01:46:29.20	200.45	5.03	-43.2	-45.0	18.4	0.00e+00	92	39	0	54525952	60	6405
2026-01-03 01:46:30.21	200.51	5.10	-43.2	-45.0	18.4	0.00e+00	92	39	0	56623104	60	6403
2026-01-03 01:46:31.22	200.58	5.16	-43.3	-45.0	18.3	0.00e+00	8	39	0	58720256	60	6445
2026-01-03 01:46:32.23	200.65	5.23	-43.2	-45.0	18.3	0.00e+00	92	39	0	60817408	60	6413
2026-01-03 01:46:33.24	200.72	5.29	-43.3	-45.0	18.4	0.00e+00	0	39	0	62914560	60	6463
2026-01-03 01:46:34.25	200.79	5.36	-43.2	-45.0	18.5	0.00e+00	92	39	0	63963136	60	6400
2026-01-03 01:46:35.27	200.86	5.43	-43.3	-45.0	18.4	0.00e+00	90	39	0	66060288	60	6431
2026-01-03 01:46:36.27	200.93	5.49	-43.3	-45.0	18.3	0.00e+00	15	39	0	68157440	60	6454
2026-01-03 01:46:37.29	201.00	5.56	-43.4	-45.1	18.3	0.00e+00	92	39	0	70254592	60	6520
2026-01-03 01:46:38.30	201.07	5.62	-43.0	-44.6	18.8	0.00e+00	71	39	0	72351744	60	6147
2026-01-03 01:46:39.31	201.14	5.69	-42.8	-44.4	18.9	0.00e+00	92	39	0	73400320	60	6007
2026-01-03 01:46:40.31	201.22	5.76	-42.9	-44.5	18.9	0.00e+00	66	39	0	75497472	60	6042
2026-01-03 01:46:41.32	201.29	5.82	-43.0	-44.7	18.8	0.00e+00	92	39	0	77594624	60	6182
2026-01-03 01:46:42.33	201.36	5.89	-42.9	-44.5	19.0	0.00e+00	59	39	0	79691776	60	6068
2026-01-03 01:46:43.34	201.43	5.96	-42.9	-44.6	18.9	0.00e+00	0	39	0	81788928	60	6108
2026-01-03 01:46:44.35	201.50	6.02	-42.8	-44.4	19.0	0.00e+00	92	39	0	82837504	60	6003
2026-01-03 01:46:45.36	201.58	6.09	-42.7	-44.2	19.1	0.00e+00	7	39	0	84934656	58	6602
2026-01-03 01:46:46.37	201.65	6.16	-42.6	-44.1	19.1	0.00e+00	92	39	0	87031808	58	6528
2026-01-03 01:46:47.38	201.72	6.23	-42.7	-44.3	19.1	0.00e+00	9	39	0	89128960	58	6657
2026-01-03 01:46:48.39	201.80	6.29	-42.5	-44.0	19.4	0.00e+00	90	39	0	91226112	58	6409
2026-01-03 01:46:49.40	201.87	6.36	-42.4	-43.9	19.4	0.00e+00	84	39	0	92274688	58	6376
2026-01-03 01:46:50.41	201.95	6.43	-42.5	-44.0	19.4	0.00e+00	90	39	0	94371840	58	6464
2026-01-03 01:46:51.42	202.02	6.50	-42.5	-43.9	19.5	0.00e+00	92	39	0	96468992	58	6379
2026-01-03 01:46:52.43	202.10	6.56	-42.3	-43.7	19.6	0.00e+00	92	39	0	98566144	58	6236
2026-01-03 01:46:53.44	202.17	6.63	-42.5	-44.0	19.3	0.00e+00	92	39	0	100663296	58	6445
2026-01-03 01:46:54.45	202.25	6.70	-42.3	-43.7	19.6	0.00e+00	0	39	0	101711872	58	6234
2026-01-03 01:46:55.46	202.32	6.77	-42.2	-43.6	19.8	0.00e+00	92	39	0	103809024	58	6112
2026-01-03 01:46:56.47	202.40	6.84	-42.2	-43.6	19.7	0.00e+00	11	39	0	105906176	58	6107
2026-01-03 01:46:57.48	202.48	6.91	-42.3	-43.7	19.8	0.00e+00	92	39	0	108003328	58	6189
2026-01-03 01:46:58.49	202.56	6.97	-42.2	-43.5	19.9	0.00e+00	90	39	0	110100480	58	6099
2026-01-03 01:46:59.49	202.63	7.04	-42.1	-43.5	19.9	0.00e+00	67	39	0	111149056	58	6089
2026-01-03 01:47:00.50	202.71	7.11	-42.0	-43.4	20.1	0.00e+00	92	39	0	113246208	58	6019
2026-01-03 01:47:01.51	202.79	7.18	-42.0	-43.3	20.2	0.00e+00	0	39	0	115343360	58	5933
2026-01-03 01:47:02.52	202.87	7.25	-41.9	-43.2	20.3	0.00e+00	92	39	0	117440512	58	5883
2026-01-03 01:47:03.53	202.95	7.32	-41.9	-43.3	20.2	0.00e+00	0	39	0	119537664	58	5918
2026-01-03 01:47:04.54	203.03	7.39	-42.1	-43.5	20.1	0.00e+00	92	39	0	120586240	58	6050
2026-01-03 01:47:05.55	203.11	7.46	-42.2	-43.6	19.9	0.00e+00	74	39	0	122683392	58	6119
2026-01-03 01:47:06.56	203.19	7.53	-41.7	-43.0	20.5	0.00e+00	92	39	0	124780544	58	5724
2026-01-03 01:47:07.57	203.27	7.60	-41.9	-43.3	20.3	0.00e+00	92	39	0	126877696	56	6626
2026-01-03 01:47:08.58	203.35	7.67	-42.0	-43.3	20.3	0.00e+00	37	39	0	128974848	56	6652
2026-01-03 01:47:09.59	203.43	7.74	-42.0	-43.4	20.2	0.00e+00	92	39	0	131072000	56	6701
2026-01-03 01:47:10.60	203.51	7.81	-41.9	-43.3	20.2	0.00e+00	12	39	0	132120576	56	6629
2026-01-03 01:47:11.61	203.59	7.88	-42.1	-43.5	20.0	0.00e+00	92	39	0	134217728	56	6799
2026-01-03 01:47:12.62	203.68	7.95	-42.0	-43.3	20.3	0.00e+00	0	39	0	136314880	56	6636
2026-01-03 01:47:13.63	203.76	8.02	-41.8	-43.1	20.5	0.00e+00	92	39	0	138412032	56	6492
2026-01-03 01:47:14.64	203.84	8.10	-41.9	-43.2	20.5	0.00e+00	92	39	0	140509184	56	6589
2026-01-03 01:47:15.65	203.93	8.17	-41.8	-43.1	20.5	0.00e+00	0	39	0	141557760	56	6528
2026-01-03 01:47:16.66	204.01	8.24	-41.7	-43.0	20.6	0.00e+00	91	39	0	143654912	56	6445
2026-01-03 01:47:17.67	204.09	8.31	-41.8	-43.1	20.5	0.00e+00	0	39	0	145752064	56	6507
2026-01-03 01:47:18.68	204.18	8.38	-41.6	-42.8	20.7	0.00e+00	92	39	0	147849216	56	6298
2026-01-03 01:47:19.69	204.26	8.45	-41.5	-42.7	20.8	0.00e+00	0	39	0	149946368	56	6219
2026-01-03 01:47:20.70	204.35	8.53	-41.3	-42.5	21.0	0.00e+00	92	39	0	150994944	56	6090
2026-01-03 01:47:21.71	204.43	8.60	-41.7	-43.0	20.6	0.00e+00	92	39	0	153092096	56	6409
2026-01-03 01:47:22.72	204.52	8.67	-41.5	-42.8	20.7	0.00e+00	92	39	0	155189248	56	6275
2026-01-03 01:47:23.73	204.61	8.74	-41.5	-42.7	20.9	0.00e+00	92	39	0	157286400	56	6196
2026-01-03 01:47:24.74	204.70	8.82	-41.3	-42.5	21.0	0.00e+00	73	39	0	159383552	56	6081
2026-01-03 01:47:25.75	204.78	8.89	-41.2	-42.4	21.1	0.00e+00	92	39	0	160432128	56	5995
2026-01-03 01:47:26.76	204.87	8.96	-41.1	-42.3	21.2	0.00e+00	70	39	0	162529280	56	5944
2026-01-03 01:47:27.77	204.96	9.04	-41.0	-42.1	21.4	0.00e+00	92	39	0	164626432	56	5813
2026-01-03 01:47:28.78	205.05	9.11	-41.0	-42.2	21.3	0.00e+00	70	39	0	166723584	56	5852
2026-01-03 01:47:29.79	205.14	9.18	-41.0	-42.1	21.4	0.00e+00	92	39	0	168820736	56	5828
2026-01-03 01:47:30.80	205.23	9.26	-40.8	-41.9	21.7	0.00e+00	90	39	0	169869312	56	5682
2026-01-03 01:47:31.81	205.32	9.33	-41.0	-42.1	21.4	0.00e+00	20	39	0	171966464	56	5822
2026-01-03 01:47:32.82	205.41	9.40	-40.5	-41.6	21.8	0.00e+00	92	39	0	174063616	54	6128
2026-01-03 01:47:33.83	205.50	9.48	-40.5	-41.6	21.8	0.00e+00	7	39	0	176160768	54	6156
2026-01-03 01:47:34.84	205.59	9.55	-40.7	-41.8	21.6	0.00e+00	92	39	0	178257920	54	6294
2026-01-03 01:47:35.85	205.68	9.63	-40.5	-41.6	21.8	0.00e+00	42	39	0	179306496	54	6142
2026-01-03 01:47:36.86	205.78	9.70	-40.4	-41.5	21.9	0.00e+00	92	39	0	181403648	54	6063
2026-01-03 01:47:37.87	205.87	9.78	-40.3	-41.3	22.1	0.00e+00	90	39	0	183500800	54	5960
2026-01-03 01:47:38.88	205.96	9.85	-40.4	-41.4	22.0	0.00e+00	92	39	0	185597952	54	6020
2026-01-03 01:47:39.89	206.06	9.93	-40.1	-41.2	22.3	0.00e+00	90	39	0	187695104	54	5830
2026-01-03 01:47:40.90	206.15	10.00	-40.1	-41.1	22.3	0.00e+00	70	39	0	188743680	54	5812
2026-01-03 01:47:41.91	206.24	10.08	-40.1	-41.1	22.3	0.00e+00	90	39	0	190840832	54	5797
2026-01-03 01:47:42.92	206.34	10.15	-40.1	-41.1	22.3	0.00e+00	0	39	0	192937984	54	5814
2026-01-03 01:47:43.93	206.43	10.23	-40.1	-41.1	22.4	0.00e+00	90	39	0	195035136	54	5786
2026-01-03 01:47:44.94	206.53	10.30	-40.1	-41.1	22.4	0.00e+00	92	39	0	197132288	54	5791
2026-01-03 01:47:45.95	206.63	10.38	-39.9	-41.0	22.5	0.00e+00	92	39	0	199229440	54	5702
2026-01-03 01:47:46.96	206.72	10.46	-40.2	-41.2	22.2	0.00e+00	92	39	0	200278016	54	5853
2026-01-03 01:47:47.97	206.82	10.53	-40.2	-41.2	22.2	0.00e+00	76	39	0	202375168	54	5861
2026-01-03 01:47:48.98	206.92	10.61	-40.0	-41.0	22.4	0.00e+00	91	39	0	204472320	54	5758
2026-01-03 01:47:49.99	207.02	10.69	-40.1	-41.1	22.2	0.00e+00	4	39	0	206569472	54	5798
2026-01-03 01:47:51.00	207.12	10.76	-40.0	-41.1	22.3	0.00e+00	92	39	0	208666624	54	5768
2026-01-03 01:47:52.01	207.22	10.84	-40.0	-41.1	22.4	0.00e+00	50	39	0	209715200	54	5776
2026-01-03 01:47:53.02	207.32	10.92	-40.0	-41.0	22.5	0.00e+00	92	39	0	211812352	54	5716
2026-01-03 01:47:54.03	207.42	11.00	-40.0	-41.0	22.4	0.00e+00	90	39	0	213909504	54	5747
2026-01-03 01:47:55.04	207.52	11.07	-40.0	-41.0	22.5	0.00e+00	92	39	0	216006656	54	5742
2026-01-03 01:47:56.05	207.62	11.15	-40.0	-41.0	22.5	0.00e+00	92	39	0	218103808	54	5754
2026-01-03 01:47:57.06	207.72	11.23	-39.9	-40.9	22.6	0.00e+00	0	39	0	219152384	54	5666
2026-01-03 01:47:58.07	207.83	11.31	-40.0	-41.0	22.5	0.00e+00	92	39	0	221249536	54	5731
2026-01-03 01:47:59.08	207.93	11.39	-40.0	-41.0	22.4	0.00e+00	18	39	0	223346688	54	5720
2026-01-03 01:48:00.09	208.03	11.46	-39.8	-40.9	22.7	0.00e+00	90	39	0	225443840	54	5631
2026-01-03 01:48:01.10	208.14	11.54	-39.8	-40.8	22.7	0.00e+00	92	39	0	227540992	52	6250
2026-01-03 01:48:02.11	208.24	11.62	-39.8	-40.8	22.7	0.00e+00	92	39	0	228589568	52	6270
2026-01-03 01:48:03.12	208.35	11.70	-39.8	-40.8	22.7	0.00e+00	92	39	0	230686720	52	6257
2026-01-03 01:48:04.13	208.45	11.78	-39.9	-40.9	22.6	0.00e+00	0	39	0	232783872	52	6362
2026-01-03 01:48:05.14	208.56	11.86	-40.0	-41.0	22.6	0.00e+00	92	39	0	234881024	52	6395
2026-01-03 01:48:06.15	208.67	11.94	-39.8	-40.7	22.8	0.00e+00	74	39	0	236978176	52	6245
2026-01-03 01:48:07.16	208.77	12.02	-39.8	-40.8	22.8	0.00e+00	92	39	0	238026752	52	6255
2026-01-03 01:48:08.17	208.88	12.10	-39.8	-40.8	22.8	0.00e+00	92	39	0	240123904	52	6273
2026-01-03 01:48:09.18	208.99	12.18	-39.8	-40.7	22.8	0.00e+00	91	39	0	242221056	52	6243
2026-01-03 01:48:10.19	209.10	12.26	-39.9	-40.9	22.7	0.00e+00	92	39	0	244318208	52	6323
2026-01-03 01:48:11.20	209.21	12.34	-39.7	-40.6	22.9	0.00e+00	0	39	0	246415360	52	6164
2026-01-03 01:48:12.21	209.32	12.42	-39.5	-40.5	23.0	0.00e+00	92	39	0	247463936	52	6049
2026-01-03 01:48:13.22	209.43	12.50	-39.7	-40.6	22.9	0.00e+00	4	39	0	249561088	52	6167
2026-01-03 01:48:14.23	209.54	12.58	-39.6	-40.5	23.0	0.00e+00	92	39	0	251658240	52	6072
2026-01-03 01:48:15.24	209.65	12.66	-39.6	-40.5	23.0	0.00e+00	92	39	0	253755392	52	6082
2026-01-03 01:48:16.25	209.77	12.74	-39.5	-40.4	23.1	0.00e+00	92	39	0	255852544	52	5995
2026-01-03 01:48:17.26	209.88	12.82	-39.4	-40.4	23.2	0.00e+00	92	39	0	256901120	52	5972
2026-01-03 01:48:18.27	209.99	12.91	-39.4	-40.3	23.2	0.00e+00	92	39	0	258998272	52	5957
2026-01-03 01:48:19.28	210.11	12.99	-39.4	-40.3	23.2	0.00e+00	90	39	0	261095424	52	5944
2026-01-03 01:48:20.29	210.22	13.07	-39.5	-40.4	23.1	0.00e+00	0	39	0	263192576	52	6007
2026-01-03 01:48:21.30	210.34	13.15	-39.4	-40.4	23.1	0.00e+00	90	39	0	265289728	52	5974
2026-01-03 01:48:22.31	210.46	13.23	-39.3	-40.2	23.3	0.00e+00	76	39	0	267386880	52	5867
2026-01-03 01:48:23.32	210.57	13.32	-39.3	-40.3	23.2	0.00e+00	90	39	0	268435456	52	5913
2026-01-03 01:48:24.32	210.69	13.40	-39.5	-40.5	23.0	0.00e+00	92	39	0	270532608	52	6051
2026-01-03 01:48:25.33	210.81	13.48	-39.4	-40.3	23.2	0.00e+00	92	39	0	272629760	52	5951
2026-01-03 01:48:26.34	210.93	13.56	-39.4	-40.3	23.1	0.00e+00	92	39	0	274726912	52	5963
2026-01-03 01:48:27.35	211.05	13.65	-39.5	-40.5	23.0	0.00e+00	0	39	0	276824064	52	6049
2026-01-03 01:48:28.36	211.17	13.73	-39.5	-40.4	23.1	0.00e+00	90	39	0	277872640	52	6028
2026-01-03 01:48:29.37	211.29	13.81	-39.5	-40.5	23.1	0.00e+00	60	39	0	279969792	52	6053
2026-01-03 01:48:30.38	211.41	13.90	-39.6	-40.6	23.0	0.00e+00	90	39	0	282066944	52	6117
2026-01-03 01:48:31.39	211.53	13.98	-39.6	-40.5	23.1	0.00e+00	90	39	0	284164096	52	6086
2026-01-03 01:48:32.40	211.65	14.07	-39.7	-40.6	23.0	0.00e+00	92	39	0	286261248	52	6166
2026-01-03 01:48:33.41	211.78	14.15	-39.8	-40.7	22.9	0.00e+00	90	39	0	287309824	52	6231
2026-01-03 01:48:34.42	211.90	14.23	-39.8	-40.8	22.8	0.00e+00	48	39	0	289406976	52	6291
2026-01-03 01:48:35.43	212.03	14.32	-39.9	-40.9	22.8	0.00e+00	92	39	0	291504128	52	6335
2026-01-03 01:48:36.44	212.15	14.40	-40.0	-41.0	22.7	0.00e+00	11	39	0	293601280	52	6408
2026-01-03 01:48:37.45	212.28	14.49	-40.0	-41.0	22.7	0.00e+00	92	39	0	295698432	52	6401
2026-01-03 01:48:38.46	212.40	14.57	-40.0	-41.0	22.6	0.00e+00	92	39	0	296747008	52	6414
2026-01-03 01:48:39.47	212.53	14.66	-40.2	-41.2	22.5	0.00e+00	92	39	0	298844160	52	6599
2026-01-03 01:48:40.47	212.66	14.74	-40.1	-41.1	22.6	0.00e+00	90	39	0	300941312	52	6478
2026-01-03 01:48:41.48	212.79	14.83	-40.2	-41.2	22.3	0.00e+00	92	39	0	303038464	52	6589
2026-01-03 01:48:42.49	212.92	14.91	-40.2	-41.2	22.5	0.00e+00	92	39	0	305135616	52	6615
2026-01-03 01:48:43.51	213.05	15.00	-40.3	-41.3	22.4	0.00e+00	0	39	0	306184192	52	6656
2026-01-03 01:48:44.51	213.18	15.09	-40.3	-41.3	22.5	0.00e+00	92	39	0	308281344	52	6652
2026-01-03 01:48:45.52	213.31	15.17	-40.3	-41.3	22.5	0.00e+00	0	39	0	310378496	52	6678
2026-01-03 01:48:46.53	213.44	15.26	-40.2	-41.2	22.4	0.00e+00	92	39	0	312475648	52	6607
2026-01-03 01:48:47.54	213.58	15.34	-40.2	-41.3	22.5	0.00e+00	92	39	0	314572800	52	6620
2026-01-03 01:48:48.55	213.71	15.43	-40.1	-41.1	22.6	0.00e+00	92	39	0	315621376	52	6500
2026-01-03 01:48:49.56	213.85	15.52	-40.3	-41.3	22.4	0.00e+00	92	39	0	317718528	52	6627
2026-01-03 01:48:50.57	213.98	15.61	-40.0	-41.0	22.7	0.00e+00	77	39	0	319815680	52	6441
2026-01-03 01:48:51.58	214.12	15.69	-40.1	-41.1	22.6	0.00e+00	92	39	0	321912832	52	6470
2026-01-03 01:48:52.59	214.26	15.78	-40.1	-41.1	22.5	0.00e+00	0	39	0	324009984	52	6485
2026-01-03 01:48:53.60	214.39	15.87	-40.1	-41.1	22.7	0.00e+00	92	39	0	325058560	52	6479
2026-01-03 01:48:54.61	214.53	15.95	-40.1	-41.2	22.5	0.00e+00	90	39	0	327155712	52	6540
2026-01-03 01:48:55.62	214.67	16.04	-40.2	-41.2	22.5	0.00e+00	92	39	0	329252864	52	6556
2026-01-03 01:48:56.63	214.81	16.13	-40.2	-41.3	22.5	0.00e+00	92	39	0	331350016	52	6619
2026-01-03 01:48:57.64	214.95	16.22	-40.3	-41.3	22.4	0.00e+00	89	39	0	333447168	52	6668
2026-01-03 01:48:58.65	215.10	16.31	-40.4	-41.4	22.4	0.00e+00	92	39	0	335544320	52	6724
2026-01-03 01:48:59.66	215.24	16.40	-40.4	-41.5	22.3	0.00e+00	7	39	0	336592896	52	6781
2026-01-03 01:49:00.66	215.38	16.48	-40.4	-41.4	22.3	0.00e+00	90	39	0	338690048	52	6750
2026-01-03 01:49:01.67	215.52	16.57	-40.3	-41.3	22.4	0.00e+00	92	39	0	340787200	52	6689
2026-01-03 01:49:02.68	215.67	16.66	-40.4	-41.5	22.3	0.00e+00	90	39	0	342884352	52	6776
2026-01-03 01:49:03.69	215.82	16.75	-40.3	-41.3	22.4	0.00e+00	92	39	0	344981504	52	6679
2026-01-03 01:49:04.70	215.96	16.84	-40.3	-41.3	22.4	0.00e+00	92	39	0	346030080	52	6629
2026-01-03 01:49:05.71	216.11	16.93	-40.4	-41.4	22.3	0.00e+00	92	39	0	348127232	52	6717
2026-01-03 01:49:06.72	216.26	17.02	-40.4	-41.4	22.4	0.00e+00	0	39	0	350224384	52	6724
2026-01-03 01:49:07.73	216.41	17.11	-40.5	-41.5	22.3	0.00e+00	92	39	0	352321536	52	6820
2026-01-03 01:49:08.74	216.56	17.20	-40.4	-41.4	22.4	0.00e+00	0	39	0	354418688	52	6721
2026-01-03 01:49:09.75	216.71	17.29	-40.4	-41.4	22.3	0.00e+00	92	39	0	355467264	52	6752
2026-01-03 01:49:10.76	216.86	17.38	-40.3	-41.4	22.4	0.00e+00	92	39	0	357564416	52	6693
2026-01-03 01:49:11.77	217.02	17.47	-40.2	-41.2	22.5	0.00e+00	92	39	0	359661568	52	6612
2026-01-03 01:49:12.78	217.17	17.56	-40.2	-41.3	22.6	0.00e+00	92	39	0	361758720	52	6622
2026-01-03 01:49:13.79	217.32	17.65	-40.0	-41.0	22.7	0.00e+00	45	39	0	363855872	52	6432
2026-01-03 01:49:14.80	217.48	17.74	-39.9	-40.9	22.8	0.00e+00	90	39	0	364904448	52	6347
2026-01-03 01:49:15.81	217.64	17.83	-39.8	-40.8	22.8	0.00e+00	0	39	0	367001600	52	6259
2026-01-03 01:49:16.82	217.79	17.92	-39.8	-40.8	22.9	0.00e+00	91	39	0	369098752	52	6280
2026-01-03 01:49:17.83	217.95	18.01	-39.9	-40.8	22.9	0.00e+00	92	39	0	371195904	52	6297
2026-01-03 01:49:18.84	218.11	18.10	-39.7	-40.7	23.0	0.00e+00	92	39	0	373293056	52	6197
2026-01-03 01:49:19.85	218.27	18.19	-39.9	-40.8	22.9	0.00e+00	92	39	0	374341632	52	6304
2026-01-03 01:49:20.86	218.43	18.29	-39.8	-40.7	23.0	0.00e+00	92	39	0	376438784	52	6236
2026-01-03 01:49:21.87	218.59	18.38	-39.8	-40.8	22.9	0.00e+00	92	39	0	378535936	52	6282
2026-01-03 01:49:22.88	218.76	18.47	-39.9	-40.9	22.8	0.00e+00	0	39	0	380633088	52	6336
2026-01-03 01:49:23.89	218.92	18.56	-39.9	-40.9	22.9	0.00e+00	92	39	0	382730240	52	6357
2026-01-03 01:49:24.91	219.09	18.65	-40.0	-40.9	22.9	0.00e+00	41	39	0	383778816	52	6376
2026-01-03 01:49:25.91	219.25	18.74	-39.9	-40.9	22.8	0.00e+00	92	39	0	385875968	52	6348
2026-01-03 01:49:26.92	219.42	18.84	-39.8	-40.8	22.9	0.00e+00	92	39	0	387973120	52	6257
2026-01-03 01:49:27.93	219.59	18.93	-39.8	-40.7	22.9	0.00e+00	92	39	0	390070272	52	6214
2026-01-03 01:49:28.94	219.76	19.02	-39.8	-40.8	22.9	0.00e+00	92	39	0	392167424	52	6260
2026-01-03 01:49:29.96	219.93	19.11	-39.8	-40.8	22.9	0.00e+00	79	39	0	393216000	52	6291
2026-01-03 01:49:30.96	220.10	19.21	-39.8	-40.7	23.0	0.00e+00	92	39	0	395313152	52	6236
2026-01-03 01:49:31.97	220.27	19.30	-39.8	-40.7	22.9	0.00e+00	0	39	0	397410304	52	6244
2026-01-03 01:49:32.98	220.44	19.39	-39.8	-40.7	23.0	0.00e+00	92	39	0	399507456	52	6240
2026-01-03 01:49:33.99	220.62	19.48	-39.8	-40.7	23.0	0.00e+00	92	39	0	401604608	52	6219
2026-01-03 01:49:35.00	220.79	19.58	-39.8	-40.7	23.0	0.00e+00	92	39	0	403701760	52	6227
2026-01-03 01:49:36.02	220.97	19.67	-39.5	-40.5	23.3	0.00e+00	92	39	0	404750336	52	6038
2026-01-03 01:49:37.03	221.14	19.76	-39.5	-40.5	23.3	0.00e+00	92	39	0	406847488	52	6036
2026-01-03 01:49:38.04	221.32	19.86	-39.5	-40.4	23.2	0.00e+00	92	39	0	408944640	52	6029
2026-01-03 01:49:39.05	221.50	19.95	-39.4	-40.3	23.4	0.00e+00	0	39	0	411041792	52	5946
2026-01-03 01:49:40.06	221.68	20.04	-39.3	-40.2	23.4	0.00e+00	92	39	0	413138944	52	5883
2026-01-03 01:49:41.07	221.86	20.14	-39.2	-40.2	23.6	0.00e+00	92	39	0	414187520	52	5833
2026-01-03 01:49:42.08	222.05	20.23	-39.2	-40.1	23.6	0.00e+00	92	39	0	416284672	52	5767
2026-01-03 01:49:43.09	222.23	20.32	-39.0	-39.9	23.7	0.00e+00	92	39	0	418381824	52	5685
2026-01-03 01:49:44.10	222.41	20.42	-39.0	-39.9	23.7	0.00e+00	48	39	0	420478976	52	5674
2026-01-03 01:49:45.11	222.60	20.51	-38.9	-39.8	23.9	0.00e+00	92	39	0	422576128	52	5601
2026-01-03 01:49:46.12	222.79	20.60	-38.8	-39.7	23.8	0.00e+00	7	39	0	423624704	52	5540
2026-01-03 01:49:47.13	222.97	20.70	-38.9	-39.8	23.8	0.00e+00	92	39	0	425721856	52	5570
2026-01-03 01:49:48.14	223.16	20.79	-39.0	-39.8	23.8	0.00e+00	82	39	0	427819008	52	5628
2026-01-03 01:49:49.15	223.35	20.89	-39.0	-39.9	23.8	0.00e+00	90	39	0	429916160	52	5635
2026-01-03 01:49:50.16	223.54	20.98	-39.1	-40.0	23.7	0.00e+00	92	39	0	432013312	52	5698
2026-01-03 01:49:51.17	223.74	21.07	-39.0	-39.9	23.9	0.00e+00	90	39	0	433061888	52	5667
2026-01-03 01:49:52.18	223.93	21.17	-38.8	-39.7	23.9	0.00e+00	92	39	0	435159040	52	5522
2026-01-03 01:49:53.19	224.12	21.26	-38.8	-39.7	24.0	0.00e+00	73	39	0	437256192	52	5516
2026-01-03 01:49:54.20	224.32	21.35	-38.7	-39.6	24.0	0.00e+00	91	39	0	439353344	52	5464
2026-01-03 01:49:55.21	224.52	21.45	-38.5	-39.4	24.2	0.00e+00	79	39	0	441450496	50	5991
2026-01-03 01:49:56.22	224.71	21.54	-38.6	-39.5	24.2	0.00e+00	91	39	0	442499072	50	6039
2026-01-03 01:49:57.23	224.91	21.64	-38.5	-39.3	24.3	0.00e+00	90	39	0	444596224	50	5943
2026-01-03 01:49:58.24	225.11	21.73	-38.5	-39.3	24.2	0.00e+00	92	39	0	446693376	50	5935
2026-01-03 01:49:59.25	225.32	21.82	-38.3	-39.2	24.4	0.00e+00	90	39	0	448790528	50	5848
2026-01-03 01:50:00.26	225.52	21.92	-38.4	-39.2	24.3	0.00e+00	0	39	0	450887680	50	5894
2026-01-03 01:50:01.27	225.72	22.01	-38.4	-39.2	24.4	0.00e+00	92	39	0	451936256	50	5886
2026-01-03 01:50:02.28	225.93	22.11	-38.2	-39.0	24.5	0.00e+00	0	39	0	454033408	50	5718
2026-01-03 01:50:03.29	226.13	22.20	-38.2	-39.0	24.5	0.00e+00	92	39	0	456130560	50	5726
2026-01-03 01:50:04.30	226.34	22.29	-38.3	-39.1	24.5	0.00e+00	92	39	0	458227712	50	5809
2026-01-03 01:50:05.31	226.55	22.39	-38.3	-39.1	24.5	0.00e+00	92	39	0	460324864	50	5800
2026-01-03 01:50:06.32	226.76	22.48	-38.2	-39.1	24.5	0.00e+00	92	39	0	461373440	50	5777
2026-01-03 01:50:07.33	226.97	22.58	-38.2	-39.1	24.5	0.00e+00	92	39	0	463470592	50	5780
2026-01-03 01:50:08.34	227.19	22.67	-38.2	-39.1	24.5	0.00e+00	91	39	0	465567744	50	5782
2026-01-03 01:50:09.35	227.40	22.76	-38.1	-38.9	24.4	0.00e+00	72	39	0	467664896	50	5681
2026-01-03 01:50:10.36	227.61	22.86	-38.2	-39.0	24.6	0.00e+00	92	39	0	469762048	50	5739
2026-01-03 01:50:11.37	227.83	22.95	-38.2	-39.0	24.6	0.00e+00	92	39	0	471859200	50	5752
2026-01-03 01:50:12.38	228.05	23.04	-38.2	-39.0	24.6	0.00e+00	92	39	0	472907776	50	5722
2026-01-03 01:50:13.39	228.27	23.14	-38.3	-39.1	24.5	0.00e+00	92	39	0	475004928	50	5799
2026-01-03 01:50:14.40	228.49	23.23	-38.2	-39.1	24.5	0.00e+00	90	39	0	477102080	50	5782
2026-01-03 01:50:15.41	228.71	23.32	-38.3	-39.2	24.5	0.00e+00	92	39	0	479199232	50	5847
2026-01-03 01:50:16.42	228.93	23.42	-38.3	-39.1	24.5	0.00e+00	14	39	0	481296384	50	5794
2026-01-03 01:50:17.43	229.15	23.51	-38.2	-39.0	24.6	0.00e+00	92	39	0	482344960	50	5759
2026-01-03 01:50:18.44	229.38	23.60	-38.2	-39.0	24.6	0.00e+00	0	39	0	484442112	50	5714
2026-01-03 01:50:19.45	229.61	23.69	-38.3	-39.1	24.5	0.00e+00	92	39	0	486539264	50	5810
2026-01-03 01:50:20.46	229.83	23.79	-38.4	-39.2	24.3	0.00e+00	92	39	0	488636416	50	5861
2026-01-03 01:50:21.47	230.06	23.88	-38.4	-39.3	24.3	0.00e+00	92	39	0	490733568	50	5916
2026-01-03 01:50:22.48	230.29	23.97	-38.6	-39.4	24.2	0.00e+00	92	39	0	491782144	50	6028
2026-01-03 01:50:23.49	230.53	24.06	-38.6	-39.5	24.1	0.00e+00	72	39	0	493879296	50	6040
2026-01-03 01:50:24.50	230.76	24.16	-38.6	-39.5	24.2	0.00e+00	92	39	0	495976448	50	6055
2026-01-03 01:50:25.51	230.99	24.25	-38.6	-39.5	24.2	0.00e+00	0	39	0	498073600	50	6063
2026-01-03 01:50:26.52	231.23	24.34	-38.5	-39.3	24.3	0.00e+00	92	39	0	500170752	50	5954
2026-01-03 01:50:27.53	231.47	24.43	-38.4	-39.2	24.4	0.00e+00	92	39	0	501219328	50	5890
2026-01-03 01:50:28.54	231.71	24.52	-38.2	-39.0	24.5	0.00e+00	91	39	0	503316480	50	5747
2026-01-03 01:50:29.55	231.95	24.61	-38.4	-39.2	24.4	0.00e+00	91	39	0	505413632	50	5882
2026-01-03 01:50:30.56	232.19	24.70	-38.4	-39.2	24.5	0.00e+00	88	39	0	507510784	50	5853
2026-01-03 01:50:31.57	232.43	24.79	-38.3	-39.1	24.4	0.00e+00	92	39	0	509607936	50	5819
2026-01-03 01:50:32.58	232.67	24.88	-38.6	-39.4	24.3	0.00e+00	6	39	0	510656512	50	6000
2026-01-03 01:50:33.59	232.92	24.97	-38.7	-39.6	24.1	0.00e+00	90	39	0	512753664	50	6113
2026-01-03 01:50:34.60	233.17	25.06	-38.9	-39.8	23.9	0.00e+00	92	39	0	514850816	50	6278
2026-01-03 01:50:35.61	233.41	25.15	-38.8	-39.7	24.0	0.00e+00	92	39	0	516947968	50	6207
2026-01-03 01:50:36.62	233.66	25.24	-38.9	-39.7	24.0	0.00e+00	90	39	0	519045120	50	6225
2026-01-03 01:50:37.63	233.91	25.33	-38.9	-39.8	23.9	0.00e+00	92	39	0	520093696	50	6251
2026-01-03 01:50:38.64	234.17	25.42	-38.9	-39.8	23.9	0.00e+00	90	39	0	522190848	50	6282
2026-01-03 01:50:39.65	234.42	25.51	-39.1	-39.9	23.8	0.00e+00	0	39	0	524288000	50	6385
2026-01-03 01:50:40.66	234.68	25.60	-39.1	-40.0	23.7	0.00e+00	90	39	0	526385152	50	6417
2026-01-03 01:50:41.67	234.93	25.69	-39.3	-40.2	23.6	0.00e+00	39	39	0	528482304	50	6587
2026-01-03 01:50:42.68	235.19	25.77	-39.5	-40.4	23.4	0.00e+00	91	39	0	529530880	50	6762
2026-01-03 01:50:43.69	235.45	25.86	-39.4	-40.3	23.6	0.00e+00	91	39	0	531628032	50	6633
2026-01-03 01:50:44.70	235.71	25.95	-39.2	-40.1	23.7	0.00e+00	91	39	0	533725184	50	6506
2026-01-03 01:50:45.71	235.97	26.04	-39.4	-40.3	23.5	0.00e+00	92	39	0	535822336	50	6635
2026-01-03 01:50:46.72	236.23	26.12	-39.4	-40.3	23.5	0.00e+00	35	39	0	537919488	50	6654
2026-01-03 01:50:47.73	236.50	26.21	-39.4	-40.3	23.5	0.00e+00	92	39	0	540016640	50	6657
2026-01-03 01:50:48.74	236.77	26.29	-39.5	-40.4	23.4	0.00e+00	73	39	0	541065216	50	6727
2026-01-03 01:50:49.75	237.03	26.38	-39.6	-40.6	23.3	0.00e+00	92	39	0	543162368	50	6869
2026-01-03 01:50:50.76	237.30	26.46	-39.7	-40.6	23.2	0.00e+00	92	39	0	545259520	50	6906
2026-01-03 01:50:51.77	237.57	26.55	-39.6	-40.6	23.2	0.00e+00	92	39	0	547356672	52	6115
2026-01-03 01:50:52.78	237.84	26.63	-39.5	-40.4	23.4	0.00e+00	91	39	0	549453824	52	5993
2026-01-03 01:50:53.79	238.12	26.72	-39.6	-40.5	23.4	0.00e+00	7	39	0	550502400	52	6098
2026-01-03 01:50:54.80	238.39	26.80	-39.7	-40.7	23.3	0.00e+00	92	39	0	552599552	52	6185
2026-01-03 01:50:55.81	238.67	26.88	-39.9	-40.8	23.1	0.00e+00	14	39	0	554696704	52	6317
2026-01-03 01:50:56.82	238.95	26.97	-40.1	-41.1	22.8	0.00e+00	91	39	0	556793856	52	6492
2026-01-03 01:50:57.83	239.22	27.05	-40.3	-41.3	22.6	0.00e+00	92	39	0	558891008	52	6688
2026-01-03 01:50:58.84	239.50	27.13	-40.7	-41.7	22.3	0.00e+00	92	39	0	559939584	52	6970
2026-01-03 01:50:59.85	239.79	27.21	-40.8	-41.8	22.1	0.00e+00	92	39	0	562036736	54	6301
2026-01-03 01:51:00.86	240.07	27.29	-40.9	-42.0	22.0	0.00e+00	92	39	0	564133888	54	6402
2026-01-03 01:51:01.87	240.35	27.37	-41.0	-42.1	21.9	0.00e+00	92	39	0	566231040	54	6482
2026-01-03 01:51:02.88	240.64	27.45	-41.1	-42.2	21.8	0.00e+00	0	39	0	568328192	54	6594
2026-01-03 01:51:03.89	240.93	27.53	-41.0	-42.1	21.9	0.00e+00	92	39	0	569376768	54	6512
2026-01-03 01:51:04.90	241.22	27.61	-40.9	-42.0	22.0	0.00e+00	80	39	0	571473920	54	6412
2026-01-03 01:51:05.91	241.51	27.68	-41.0	-42.0	22.0	0.00e+00	92	39	0	573571072	54	6444
2026-01-03 01:51:06.93	241.80	27.76	-41.0	-42.1	22.0	0.00e+00	92	39	0	575668224	54	6471
2026-01-03 01:51:07.94	242.09	27.84	-40.8	-41.9	22.1	0.00e+00	0	39	0	577765376	54	6345
2026-01-03 01:51:08.95	242.39	27.92	-40.8	-41.9	22.1	0.00e+00	92	39	0	579862528	54	6368
2026-01-03 01:51:09.96	242.68	27.99	-40.8	-41.9	22.0	0.00e+00	79	39	0	580911104	54	6340
2026-01-03 01:51:10.97	242.98	28.07	-41.1	-42.2	21.8	0.00e+00	92	39	0	583008256	54	6567
2026-01-03 01:51:11.98	243.28	28.14	-41.1	-42.2	21.8	0.00e+00	37	39	0	585105408	54	6547
2026-01-03 01:51:12.99	243.58	28.21	-41.5	-42.6	21.5	0.00e+00	91	39	0	587202560	54	6907
2026-01-03 01:51:14.00	243.88	28.29	-41.6	-42.8	21.4	0.00e+00	90	39	0	589299712	54	7042
2026-01-03 01:51:15.00	244.18	28.36	-41.4	-42.6	21.5	0.00e+00	2	39	0	590348288	54	6867
2026-01-03 01:51:16.01	244.48	28.43	-41.4	-42.5	21.5	0.00e+00	92	39	0	592445440	54	6841
2026-01-03 01:51:17.02	244.78	28.50	-41.2	-42.3	21.7	0.00e+00	2	39	0	594542592	54	6676
2026-01-03 01:51:18.03	245.09	28.57	-40.9	-42.0	22.1	0.00e+00	92	39	0	596639744	54	6392
2026-01-03 01:51:19.04	245.40	28.64	-40.5	-41.5	21.9	0.00e+00	0	39	0	598736896	54	6058
2026-01-03 01:51:20.05	245.71	28.71	-40.3	-41.3	22.7	0.00e+00	91	39	0	599785472	54	5932
2026-01-03 01:51:21.06	246.02	28.78	-40.4	-41.5	22.5	0.00e+00	91	39	0	601882624	54	6037
2026-01-03 01:51:22.07	246.33	28.85	-40.6	-41.6	22.4	0.00e+00	91	39	0	603979776	54	6145
2026-01-03 01:51:23.08	246.64	28.91	-40.7	-41.7	22.3	0.00e+00	91	39	0	606076928	54	6206
2026-01-03 01:51:24.09	246.95	28.98	-40.7	-41.7	22.3	0.00e+00	0	39	0	608174080	54	6220
2026-01-03 01:51:25.10	247.27	29.04	-40.7	-41.8	22.2	0.00e+00	92	39	0	609222656	54	6267
2026-01-03 01:51:26.11	247.59	29.11	-40.7	-41.8	22.2	0.00e+00	74	39	0	611319808	54	6254
2026-01-03 01:51:27.12	247.90	29.17	-40.7	-41.8	22.2	0.00e+00	90	39	0	613416960	54	6255
2026-01-03 01:51:28.13	248.22	29.23	-40.8	-41.9	22.1	0.00e+00	0	39	0	615514112	54	6325
2026-01-03 01:51:29.14	248.54	29.30	-40.8	-41.9	22.1	0.00e+00	92	39	0	617611264	54	6334
2026-01-03 01:51:30.15	248.86	29.36	-40.8	-41.8	22.1	0.00e+00	91	39	0	618659840	54	6284
2026-01-03 01:51:31.16	249.19	29.42	-41.0	-42.0	22.0	0.00e+00	7	39	0	620756992	54	6463
2026-01-03 01:51:32.17	249.51	29.48	-41.0	-42.1	21.9	0.00e+00	92	39	0	622854144	54	6529
2026-01-03 01:51:33.18	249.83	29.54	-41.3	-42.4	21.6	0.00e+00	12	39	0	624951296	54	6737
2026-01-03 01:51:34.19	250.16	29.59	-41.5	-42.7	21.4	0.00e+00	92	39	0	627048448	54	6957
2026-01-03 01:51:35.20	250.49	29.65	-42.1	-43.3	20.9	0.00e+00	0	39	0	628097024	56	6687
2026-01-03 01:51:36.21	250.82	29.71	-42.4	-43.7	20.6	0.00e+00	91	39	0	630194176	56	6931
2026-01-03 01:51:37.22	251.15	29.76	-42.7	-44.0	20.3	0.00e+00	90	39	0	632291328	56	7248
2026-01-03 01:51:38.23	251.48	29.82	-42.8	-44.2	19.9	0.00e+00	91	39	0	634388480	58	6541
2026-01-03 01:51:39.24	251.81	29.87	-43.1	-44.6	19.7	0.00e+00	90	39	0	636485632	58	6870
2026-01-03 01:51:40.25	252.14	29.92	-43.3	-44.7	19.5	0.00e+00	0	39	0	637534208	58	7000
2026-01-03 01:51:41.26	252.47	29.97	-43.3	-44.8	19.4	0.00e+00	92	39	0	639631360	58	7080
2026-01-03 01:51:42.27	252.81	30.02	-43.3	-44.8	19.4	0.00e+00	0	39	0	641728512	58	7086
2026-01-03 01:51:43.28	253.14	30.07	-43.4	-44.9	19.3	0.00e+00	90	39	0	643825664	58	7159
2026-01-03 01:51:44.29	253.48	30.12	-43.3	-44.7	19.6	0.00e+00	92	39	0	645922816	58	6995
2026-01-03 01:51:45.30	253.82	30.17	-43.2	-44.7	19.6	0.00e+00	92	39	0	648019968	58	6975
2026-01-03 01:51:46.31	254.16	30.22	-43.4	-44.9	19.3	0.00e+00	91	39	0	649068544	58	7111
2026-01-03 01:51:47.32	254.50	30.26	-43.4	-44.9	19.3	0.00e+00	0	39	0	651165696	58	7166
2026-01-03 01:51:48.33	254.84	30.31	-43.6	-45.1	19.2	0.00e+00	90	39	0	653262848	58	7299
2026-01-03 01:51:49.34	255.18	30.35	-43.5	-45.0	19.3	0.00e+00	2	39	0	655360000	58	7223
2026-01-03 01:51:50.36	255.52	30.39	-43.3	-44.8	19.4	0.00e+00	91	39	0	657457152	58	7058
2026-01-03 01:51:51.37	255.87	30.43	-43.2	-44.6	19.6	0.00e+00	54	39	0	658505728	58	6909
2026-01-03 01:51:52.38	256.21	30.47	-42.9	-44.3	19.8	0.00e+00	90	39	0	660602880	58	6660
2026-01-03 01:51:53.39	256.55	30.51	-42.6	-43.9	20.2	0.00e+00	92	39	0	662700032	58	6366
2026-01-03 01:51:54.40	256.90	30.55	-42.7	-44.0	20.2	0.00e+00	5	39	0	664797184	58	6441
2026-01-03 01:51:55.41	257.25	30.59	-42.8	-44.2	20.0	0.00e+00	91	39	0	666894336	58	6542
2026-01-03 01:51:56.42	257.59	30.62	-42.8	-44.2	20.1	0.00e+00	13	39	0	667942912	58	6573
2026-01-03 01:51:57.42	257.94	30.66	-42.8	-44.2	20.1	0.00e+00	91	39	0	670040064	58	6585
2026-01-03 01:51:58.44	258.29	30.69	-42.7	-44.1	20.1	0.00e+00	15	39	0	672137216	58	6475
2026-01-03 01:51:59.45	258.64	30.73	-42.7	-44.1	20.2	0.00e+00	92	39	0	674234368	58	6483
2026-01-03 01:52:00.45	258.99	30.76	-42.6	-44.0	20.2	0.00e+00	92	39	0	676331520	58	6408
2026-01-03 01:52:01.46	259.34	30.79	-42.3	-43.6	20.7	0.00e+00	92	39	0	677380096	58	6104
2026-01-03 01:52:02.47	259.69	30.82	-41.8	-43.0	21.1	0.00e+00	92	39	0	679477248	58	5741
2026-01-03 01:52:03.48	260.04	30.85	-41.7	-42.8	21.3	0.00e+00	0	39	0	681574400	56	6302
2026-01-03 01:52:04.49	260.39	30.87	-41.8	-43.0	21.2	0.00e+00	92	39	0	683671552	56	6419
2026-01-03 01:52:05.50	260.74	30.90	-42.0	-43.3	21.0	0.00e+00	0	39	0	685768704	56	6616
2026-01-03 01:52:06.51	261.10	30.92	-42.1	-43.4	20.8	0.00e+00	92	39	0	686817280	56	6713
2026-01-03 01:52:07.52	261.45	30.95	-42.2	-43.4	20.7	0.00e+00	92	39	0	688914432	56	6765
2026-01-03 01:52:08.53	261.81	30.97	-42.2	-43.4	20.7	0.00e+00	92	39	0	691011584	56	6764
2026-01-03 01:52:09.54	262.16	30.99	-42.2	-43.4	20.7	0.00e+00	92	39	0	693108736	56	6759
2026-01-03 01:52:10.55	262.52	31.01	-42.2	-43.4	20.8	0.00e+00	19	39	0	695205888	56	6740
2026-01-03 01:52:11.56	262.87	31.03	-41.7	-42.9	21.3	0.00e+00	92	39	0	696254464	56	6375
2026-01-03 01:52:12.57	263.23	31.05	-41.7	-42.9	21.4	0.00e+00	7	39	0	698351616	56	6366
2026-01-03 01:52:13.58	263.59	31.06	-41.4	-42.5	21.7	0.00e+00	92	39	0	700448768	56	6090
2026-01-03 01:52:14.59	263.94	31.08	-41.4	-42.5	21.5	0.00e+00	92	39	0	702545920	56	6086
2026-01-03 01:52:15.60	264.30	31.09	-41.7	-42.8	21.2	0.00e+00	92	39	0	704643072	56	6311
2026-01-03 01:52:16.61	264.66	31.11	-42.5	-43.8	20.7	0.00e+00	92	39	0	705691648	56	7013
2026-01-03 01:52:17.62	265.02	31.12	-42.6	-43.9	20.4	0.00e+00	3	39	0	707788800	56	7169
2026-01-03 01:52:18.63	265.37	31.13	-42.6	-43.9	20.4	0.00e+00	92	39	0	709885952	56	7126
2026-01-03 01:52:19.64	265.73	31.14	-42.6	-43.9	20.4	0.00e+00	0	39	0	711983104	56	7141
2026-01-03 01:52:20.65	266.09	31.15	-42.2	-43.5	20.9	0.00e+00	90	39	0	714080256	56	6807
2026-01-03 01:52:21.66	266.45	31.15	-42.0	-43.3	21.0	0.00e+00	12	39	0	716177408	56	6629
2026-01-03 01:52:22.67	266.81	31.16	-42.0	-43.2	20.9	0.00e+00	92	39	0	717225984	56	6611
2026-01-03 01:52:23.68	267.17	31.16	-42.1	-43.4	20.9	0.00e+00	92	39	0	719323136	56	6694
2026-01-03 01:52:24.69	267.52	31.17	-41.7	-42.8	21.4	0.00e+00	92	39	0	721420288	56	6290
2026-01-03 01:52:25.70	267.88	31.17	-41.4	-42.6	21.6	0.00e+00	91	39	0	723517440	56	6112
2026-01-03 01:52:26.71	268.24	31.17	-41.3	-42.4	21.7	0.00e+00	80	39	0	725614592	56	6018
2026-01-03 01:52:27.72	268.60	31.17	-41.1	-42.2	22.0	0.00e+00	92	39	0	726663168	56	5836
2026-01-03 01:52:28.73	268.96	31.17	-40.7	-41.7	22.4	0.00e+00	58	39	0	728760320	54	6199
2026-01-03 01:52:29.74	269.32	31.17	-40.4	-41.4	22.6	0.00e+00	92	39	0	730857472	54	6021
2026-01-03 01:52:30.75	269.68	31.16	-40.1	-41.1	22.9	0.00e+00	92	39	0	732954624	54	5768
2026-01-03 01:52:31.77	270.04	31.16	-40.3	-41.3	22.7	0.00e+00	92	39	0	735051776	54	5921
2026-01-03 01:52:32.77	270.40	31.15	-40.4	-41.4	22.5	0.00e+00	90	39	0	736100352	54	6029
2026-01-03 01:52:33.78	270.75	31.14	-40.7	-41.7	22.4	0.00e+00	74	39	0	738197504	54	6231
2026-01-03 01:52:34.79	271.11	31.14	-40.8	-41.9	22.1	0.00e+00	92	39	0	740294656	54	6321
2026-01-03 01:52:35.80	271.47	31.13	-40.9	-42.0	22.2	0.00e+00	14	39	0	742391808	54	6405
2026-01-03 01:52:36.81	271.83	31.11	-41.0	-42.1	21.9	0.00e+00	92	39	0	744488960	54	6526
2026-01-03 01:52:37.82	272.19	31.10	-41.5	-42.6	21.4	0.00e+00	75	39	0	745537536	54	6878
2026-01-03 01:52:38.84	272.55	31.09	-41.7	-42.8	21.3	0.00e+00	90	39	0	747634688	54	7082
2026-01-03 01:52:39.85	272.90	31.07	-42.2	-43.4	20.8	0.00e+00	92	39	0	749731840	56	6751
2026-01-03 01:52:40.85	273.26	31.06	-42.1	-43.3	21.0	0.00e+00	0	39	0	751828992	56	6638
2026-01-03 01:52:41.87	273.62	31.04	-42.2	-43.4	20.8	0.00e+00	92	39	0	753926144	56	6733
2026-01-03 01:52:42.88	273.97	31.02	-42.1	-43.4	20.9	0.00e+00	0	39	0	754974720	56	6711
2026-01-03 01:52:43.89	274.33	31.00	-41.9	-43.1	21.1	0.00e+00	92	39	0	757071872	56	6477
2026-01-03 01:52:44.90	274.68	30.98	-41.7	-42.8	21.3	0.00e+00	0	39	0	759169024	56	6292
2026-01-03 01:52:45.91	275.04	30.96	-41.6	-42.8	21.4	0.00e+00	92	39	0	761266176	56	6252
2026-01-03 01:52:46.92	275.39	30.94	-41.7	-42.9	21.2	0.00e+00	92	39	0	763363328	56	6348
2026-01-03 01:52:47.93	275.74	30.91	-42.0	-43.2	21.0	0.00e+00	26	39	0	764411904	56	6571
2026-01-03 01:52:48.93	276.09	30.89	-42.2	-43.5	20.8	0.00e+00	92	39	0	766509056	56	6802
2026-01-03 01:52:49.94	276.44	30.86	-42.2	-43.4	20.8	0.00e+00	78	39	0	768606208	56	6743
2026-01-03 01:52:50.95	276.80	30.83	-42.2	-43.4	20.9	0.00e+00	92	39	0	770703360	56	6735
2026-01-03 01:52:51.96	277.15	30.80	-41.8	-43.0	21.2	0.00e+00	8	39	0	772800512	56	6450
2026-01-03 01:52:52.98	277.50	30.77	-41.9	-43.1	21.1	0.00e+00	92	39	0	773849088	56	6505
2026-01-03 01:52:53.98	277.85	30.74	-41.9	-43.1	21.1	0.00e+00	90	39	0	775946240	56	6496
2026-01-03 01:52:55.00	278.20	30.71	-42.0	-43.1	21.0	0.00e+00	83	39	0	778043392	56	6539
2026-01-03 01:52:56.01	278.55	30.68	-42.1	-43.3	20.9	0.00e+00	92	39	0	780140544	56	6639
2026-01-03 01:52:57.01	278.89	30.64	-42.3	-43.5	20.8	0.00e+00	0	39	0	782237696	56	6820
2026-01-03 01:52:58.03	279.24	30.61	-42.6	-43.9	20.4	0.00e+00	92	39	0	784334848	56	7119
2026-01-03 01:52:59.04	279.59	30.57	-42.6	-43.9	20.3	0.00e+00	6	39	0	785383424	56	7166
2026-01-03 01:53:00.05	279.94	30.53	-42.7	-44.1	20.2	0.00e+00	92	39	0	787480576	58	6485
2026-01-03 01:53:01.06	280.28	30.50	-42.7	-44.1	20.2	0.00e+00	88	39	0	789577728	58	6469
2026-01-03 01:53:02.07	280.62	30.46	-42.6	-43.9	20.4	0.00e+00	92	39	0	791674880	58	6358
2026-01-03 01:53:03.08	280.97	30.42	-42.6	-43.9	20.3	0.00e+00	92	39	0	793772032	58	6365
2026-01-03 01:53:04.09	281.31	30.37	-42.4	-43.7	20.5	0.00e+00	80	39	0	794820608	58	6180
2026-01-03 01:53:05.10	281.65	30.33	-42.1	-43.3	20.9	0.00e+00	92	39	0	796917760	58	5938
2026-01-03 01:53:06.11	281.99	30.29	-42.3	-43.6	20.6	0.00e+00	8	39	0	799014912	58	6113
2026-01-03 01:53:07.12	282.33	30.24	-42.0	-43.2	21.0	0.00e+00	92	39	0	801112064	58	5863
2026-01-03 01:53:08.13	282.67	30.20	-42.3	-43.5	20.7	0.00e+00	0	39	0	803209216	58	6085
2026-01-03 01:53:09.14	283.01	30.15	-42.8	-44.1	20.0	0.00e+00	92	39	0	804257792	58	6529
2026-01-03 01:53:10.15	283.34	30.10	-43.1	-44.5	19.6	0.00e+00	91	39	0	806354944	58	6839
2026-01-03 01:53:11.16	283.68	30.05	-43.0	-44.4	19.7	0.00e+00	92	39	0	808452096	58	6763
2026-01-03 01:53:12.17	284.01	30.00	-42.7	-44.0	20.2	0.00e+00	92	39	0	810549248	58	6437
2026-01-03 01:53:13.18	284.35	29.95	-42.5	-43.8	20.4	0.00e+00	13	39	0	812646400	58	6289
2026-01-03 01:53:14.19	284.68	29.90	-42.3	-43.5	20.7	0.00e+00	90	39	0	813694976	58	6081
2026-01-03 01:53:15.20	285.01	29.85	-41.9	-43.1	21.0	0.00e+00	0	39	0	815792128	58	5797
2026-01-03 01:53:16.21	285.34	29.80	-41.5	-42.6	21.6	0.00e+00	92	39	0	817889280	56	6156
2026-01-03 01:53:17.22	285.67	29.74	-41.2	-42.3	21.9	0.00e+00	90	39	0	819986432	56	5912
2026-01-03 01:53:18.23	286.00	29.69	-41.2	-42.3	21.9	0.00e+00	92	39	0	822083584	56	5917
2026-01-03 01:53:19.24	286.32	29.63	-41.2	-42.3	21.9	0.00e+00	90	39	0	824180736	56	5959
2026-01-03 01:53:20.25	286.65	29.57	-40.9	-41.9	22.2	0.00e+00	0	39	0	825229312	56	5686
2026-01-03 01:53:21.26	286.97	29.51	-40.7	-41.8	22.4	0.00e+00	92	39	0	827326464	56	5574
2026-01-03 01:53:22.27	287.30	29.46	-40.7	-41.7	22.4	0.00e+00	0	39	0	829423616	54	6194
2026-01-03 01:53:23.28	287.62	29.40	-40.7	-41.7	22.3	0.00e+00	90	39	0	831520768	54	6245
2026-01-03 01:53:24.29	287.94	29.34	-41.0	-42.1	21.9	0.00e+00	92	39	0	833617920	54	6519
2026-01-03 01:53:25.30	288.26	29.27	-41.1	-42.2	21.8	0.00e+00	92	39	0	834666496	54	6598
2026-01-03 01:53:26.31	288.58	29.21	-41.4	-42.6	21.5	0.00e+00	91	39	0	836763648	54	6849
2026-01-03 01:53:27.32	288.90	29.15	-41.4	-42.5	21.6	0.00e+00	0	39	0	838860800	54	6816
2026-01-03 01:53:28.33	289.21	29.09	-41.2	-42.3	21.8	0.00e+00	92	39	0	840957952	54	6665
2026-01-03 01:53:29.34	289.53	29.02	-40.8	-41.9	22.1	0.00e+00	77	39	0	843055104	54	6332
2026-01-03 01:53:30.35	289.84	28.96	-40.6	-41.6	22.4	0.00e+00	91	39	0	844103680	54	6169
2026-01-03 01:53:31.36	290.15	28.89	-40.3	-41.3	22.4	0.00e+00	12	39	0	846200832	54	5926
2026-01-03 01:53:32.37	290.47	28.82	-40.1	-41.0	22.9	0.00e+00	91	39	0	848297984	54	5756
2026-01-03 01:53:33.38	290.77	28.76	-40.1	-41.1	22.8	0.00e+00	91	39	0	850395136	54	5780
2026-01-03 01:53:34.39	291.08	28.69	-40.2	-41.2	22.7	0.00e+00	8	39	0	852492288	54	5878
2026-01-03 01:53:35.40	291.39	28.62	-40.4	-41.4	22.5	0.00e+00	90	39	0	853540864	54	6021
2026-01-03 01:53:36.41	291.70	28.55	-40.6	-41.7	22.3	0.00e+00	3	39	0	855638016	54	6180
2026-01-03 01:53:37.42	292.00	28.48	-40.7	-41.7	22.3	0.00e+00	92	39	0	857735168	54	6238
2026-01-03 01:53:38.43	292.30	28.41	-41.0	-42.1	21.9	0.00e+00	7	39	0	859832320	54	6465
2026-01-03 01:53:39.44	292.61	28.34	-41.3	-42.4	21.6	0.00e+00	0	39	0	861929472	54	6704
2026-01-03 01:53:40.45	292.91	28.26	-41.5	-42.6	21.5	0.00e+00	92	39	0	862978048	54	6919
2026-01-03 01:53:41.46	293.21	28.19	-41.5	-42.6	21.4	0.00e+00	0	39	0	865075200	54	6889
2026-01-03 01:53:42.47	293.51	28.12	-41.5	-42.6	21.5	0.00e+00	92	39	0	867172352	54	6923
2026-01-03 01:53:43.48	293.80	28.04	-41.3	-42.4	21.7	0.00e+00	5	39	0	869269504	54	6765
2026-01-03 01:53:44.49	294.10	27.97	-41.3	-42.4	21.6	0.00e+00	92	39	0	871366656	54	6740
2026-01-03 01:53:45.50	294.39	27.89	-41.2	-42.3	21.8	0.00e+00	5	39	0	872415232	54	6644
2026-01-03 01:53:46.51	294.68	27.82	-41.2	-42.3	21.8	0.00e+00	90	39	0	874512384	54	6639
2026-01-03 01:53:47.52	294.97	27.74	-41.0	-42.1	22.0	0.00e+00	20	39	0	876609536	54	6495
2026-01-03 01:53:48.53	295.26	27.66	-40.7	-41.8	22.3	0.00e+00	79	39	0	878706688	54	6266
2026-01-03 01:53:49.54	295.55	27.59	-40.7	-41.7	22.3	0.00e+00	92	39	0	880803840	54	6213
2026-01-03 01:53:50.55	295.84	27.51	-40.8	-41.8	22.2	0.00e+00	7	39	0	881852416	54	6312
2026-01-03 01:53:51.56	296.13	27.43	-41.0	-42.1	22.0	0.00e+00	92	39	0	883949568	54	6506
2026-01-03 01:53:52.57	296.41	27.35	-41.4	-42.5	21.6	0.00e+00	78	39	0	886046720	54	6828
2026-01-03 01:53:53.58	296.69	27.27	-41.6	-42.8	21.2	0.00e+00	92	39	0	888143872	54	7057
2026-01-03 01:53:54.59	296.97	27.19	-41.9	-43.1	21.1	0.00e+00	92	39	0	890241024	56	6492
2026-01-03 01:53:55.60	297.25	27.11	-41.9	-43.1	21.1	0.00e+00	10	39	0	892338176	56	6519
2026-01-03 01:53:56.61	297.53	27.03	-41.7	-42.9	21.3	0.00e+00	92	39	0	893386752	56	6327
2026-01-03 01:53:57.62	297.81	26.95	-41.6	-42.8	21.3	0.00e+00	7	39	0	895483904	56	6271
2026-01-03 01:53:58.63	298.09	26.86	-41.4	-42.6	21.5	0.00e+00	92	39	0	897581056	56	6116
2026-01-03 01:53:59.64	298.36	26.78	-41.3	-42.4	21.7	0.00e+00	0	39	0	899678208	56	6002
2026-01-03 01:54:00.65	298.63	26.70	-41.3	-42.4	21.7	0.00e+00	91	39	0	901775360	56	6032
2026-01-03 01:54:01.66	298.91	26.61	-41.1	-42.2	21.9	0.00e+00	0	39	0	902823936	56	5879
2026-01-03 01:54:02.67	299.18	26.53	-41.2	-42.3	21.8	0.00e+00	65	39	0	904921088	56	5953
2026-01-03 01:54:03.68	299.44	26.45	-40.9	-41.9	22.1	0.00e+00	90	39	0	907018240	56	5679
2026-01-03 01:54:04.69	299.71	26.36	-40.9	-42.0	22.2	0.00e+00	78	39	0	909115392	56	5713
2026-01-03 01:54:05.70	299.98	26.28	-40.6	-41.6	22.4	0.00e+00	92	39	0	911212544	54	6135
2026-01-03 01:54:06.71	300.24	26.19	-40.3	-41.4	22.6	0.00e+00	0	39	0	912261120	54	5967
2026-01-03 01:54:07.72	300.51	26.11	-40.5	-41.5	22.6	0.00e+00	90	39	0	914358272	54	6089
2026-01-03 01:54:08.73	300.77	26.02	-40.1	-41.1	22.8	0.00e+00	79	39	0	916455424	54	5788
2026-01-03 01:54:09.74	301.03	25.93	-39.7	-40.7	23.2	0.00e+00	67	39	0	918552576	54	5511
2026-01-03 01:54:10.75	301.29	25.85	-39.7	-40.7	23.2	0.00e+00	92	39	0	920649728	52	6181
2026-01-03 01:54:11.76	301.55	25.76	-39.9	-40.8	23.1	0.00e+00	77	39	0	921698304	52	6283
2026-01-03 01:54:12.77	301.80	25.67	-40.0	-40.9	23.0	0.00e+00	92	39	0	923795456	52	6387
2026-01-03 01:54:13.78	302.06	25.59	-40.2	-41.2	22.7	0.00e+00	2	39	0	925892608	52	6582
2026-01-03 01:54:14.79	302.31	25.50	-40.4	-41.5	22.6	0.00e+00	92	39	0	927989760	52	6775
2026-01-03 01:54:15.80	302.56	25.41	-40.2	-41.2	22.8	0.00e+00	0	39	0	930086912	52	6559
2026-01-03 01:54:16.81	302.81	25.32	-40.1	-41.1	22.9	0.00e+00	92	39	0	931135488	52	6483
2026-01-03 01:54:17.82	303.06	25.23	-39.9	-40.8	23.1	0.00e+00	78	39	0	933232640	52	6270
2026-01-03 01:54:18.83	303.31	25.14	-39.9	-40.9	23.0	0.00e+00	0	39	0	935329792	52	6348
2026-01-03 01:54:19.84	303.56	25.05	-40.2	-41.1	22.8	0.00e+00	92	39	0	937426944	52	6525
2026-01-03 01:54:20.85	303.80	24.96	-40.4	-41.4	22.6	0.00e+00	0	39	0	939524096	52	6700
2026-01-03 01:54:21.86	304.05	24.87	-40.2	-41.1	22.8	0.00e+00	90	39	0	940572672	52	6536
2026-01-03 01:54:22.87	304.29	24.78	-40.1	-41.0	22.9	0.00e+00	0	39	0	942669824	52	6462
2026-01-03 01:54:23.88	304.53	24.69	-39.6	-40.5	23.4	0.00e+00	92	39	0	944766976	52	6043
2026-01-03 01:54:24.89	304.77	24.60	-39.5	-40.4	23.5	0.00e+00	0	39	0	946864128	52	5979
2026-01-03 01:54:25.90	305.01	24.51	-39.5	-40.4	23.4	0.00e+00	0	39	0	948961280	52	5998
2026-01-03 01:54:26.91	305.25	24.42	-39.8	-40.7	23.1	0.00e+00	92	39	0	950009856	52	6245
2026-01-03 01:54:27.92	305.48	24.33	-40.3	-41.3	22.8	0.00e+00	0	39	0	952107008	52	6630
2026-01-03 01:54:28.93	305.72	24.24	-40.5	-41.5	22.4	0.00e+00	92	39	0	954204160	52	6833
2026-01-03 01:54:29.94	305.95	24.15	-40.7	-41.8	22.4	0.00e+00	78	39	0	956301312	52	7035
2026-01-03 01:54:30.95	306.18	24.06	-40.6	-41.6	22.4	0.00e+00	92	39	0	958398464	52	6911
2026-01-03 01:54:31.96	306.41	23.97	-40.1	-41.1	22.8	0.00e+00	76	39	0	960495616	52	6525
2026-01-03 01:54:32.97	306.64	23.87	-40.4	-41.4	22.7	0.00e+00	92	39	0	961544192	52	6736
2026-01-03 01:54:33.98	306.87	23.78	-40.4	-41.4	22.5	0.00e+00	77	39	0	963641344	52	6755
2026-01-03 01:54:34.99	307.10	23.69	-40.7	-41.8	22.2	0.00e+00	5	39	0	965738496	54	6278
2026-01-03 01:54:36.00	307.32	23.60	-41.3	-42.4	21.5	0.00e+00	91	39	0	967835648	54	6763
2026-01-03 01:54:37.01	307.55	23.51	-41.8	-43.0	21.0	0.00e+00	3	39	0	969932800	56	6438
2026-01-03 01:54:38.02	307.77	23.41	-42.1	-43.4	20.9	0.00e+00	92	39	0	970981376	56	6715
2026-01-03 01:54:39.03	307.99	23.32	-41.7	-42.9	21.2	0.00e+00	5	39	0	973078528	56	6353
2026-01-03 01:54:40.04	308.21	23.23	-40.9	-42.0	22.2	0.00e+00	91	39	0	975175680	56	5700
2026-01-03 01:54:41.05	308.43	23.14	-40.5	-41.6	22.4	0.00e+00	25	39	0	977272832	54	6110
2026-01-03 01:54:42.06	308.65	23.04	-40.5	-41.5	22.4	0.00e+00	0	39	0	979369984	54	6054
2026-01-03 01:54:43.07	308.86	22.95	-40.5	-41.6	22.3	0.00e+00	92	39	0	980418560	54	6112
2026-01-03 01:54:44.08	309.08	22.86	-41.0	-42.1	21.8	0.00e+00	0	39	0	982515712	54	6475
2026-01-03 01:54:45.09	309.29	22.77	-41.4	-42.6	21.4	0.00e+00	92	39	0	984612864	54	6859
2026-01-03 01:54:46.09	309.50	22.67	-41.3	-42.4	21.6	0.00e+00	0	39	0	986710016	54	6744
2026-01-03 01:54:47.10	309.71	22.58	-41.0	-42.1	21.9	0.00e+00	92	39	0	988807168	54	6478
2026-01-03 01:54:48.11	309.92	22.49	-40.7	-41.8	22.2	0.00e+00	0	39	0	989855744	54	6254
2026-01-03 01:54:49.12	310.13	22.39	-40.3	-41.3	22.6	0.00e+00	79	39	0	991952896	54	5915
2026-01-03 01:54:50.13	310.34	22.30	-39.7	-40.7	23.1	0.00e+00	92	39	0	994050048	54	5527
2026-01-03 01:54:51.14	310.55	22.21	-39.9	-40.8	23.1	0.00e+00	0	39	0	996147200	52	6281
2026-01-03 01:54:52.15	310.75	22.11	-40.0	-40.9	22.9	0.00e+00	92	39	0	998244352	52	6366
2026-01-03 01:54:53.16	310.96	22.02	-40.5	-41.5	22.3	0.00e+00	78	39	0	999292928	52	6835
2026-01-03 01:54:54.17	311.16	21.93	-40.8	-41.9	22.0	0.00e+00	92	39	0	1001390080	54	6353
2026-01-03 01:54:55.18	311.36	21.84	-41.0	-42.1	21.9	0.00e+00	77	39	0	1003487232	54	6470
2026-01-03 01:54:56.19	311.56	21.74	-40.9	-42.0	21.9	0.00e+00	92	39	0	1005584384	54	6429
2026-01-03 01:54:57.20	311.76	21.65	-40.8	-41.9	22.1	0.00e+00	92	39	0	1007681536	54	6325
2026-01-03 01:54:58.21	311.96	21.56	-40.2	-41.2	22.6	0.00e+00	0	39	0	1008730112	54	5886
2026-01-03 01:54:59.22	312.16	21.46	-40.3	-41.2	22.6	0.00e+00	92	39	0	1010827264	54	5894
2026-01-03 01:55:00.23	312.35	21.37	-40.4	-41.4	22.5	0.00e+00	0	39	0	1012924416	54	5985
2026-01-03 01:55:01.24	312.55	21.28	-40.8	-41.9	21.9	0.00e+00	92	39	0	1015021568	54	6378
2026-01-03 01:55:02.25	312.74	21.18	-41.1	-42.2	21.8	0.00e+00	0	39	0	1017118720	54	6568
2026-01-03 01:55:03.27	312.93	21.09	-41.3	-42.5	21.5	0.00e+00	92	39	0	1018167296	54	6798
2026-01-03 01:55:04.27	313.12	21.00	-41.2	-42.3	21.7	0.00e+00	12	39	0	1020264448	54	6652
2026-01-03 01:55:05.28	313.31	20.90	-40.8	-41.9	22.0	0.00e+00	0	39	0	1022361600	54	6364
2026-01-03 01:55:06.29	313.50	20.81	-40.3	-41.4	22.5	0.00e+00	92	39	0	1024458752	54	5975
2026-01-03 01:55:07.30	313.69	20.72	-40.0	-40.9	22.8	0.00e+00	0	39	0	1026555904	54	5688
2026-01-03 01:55:08.32	313.88	20.62	-39.6	-40.5	23.3	0.00e+00	92	39	0	1028653056	52	6058
2026-01-03 01:55:09.33	314.07	20.53	-39.5	-40.4	23.3	0.00e+00	76	39	0	1029701632	52	5984
2026-01-03 01:55:10.34	314.25	20.44	-39.7	-40.7	23.1	0.00e+00	91	39	0	1031798784	52	6175
2026-01-03 01:55:11.34	314.43	20.35	-39.9	-40.9	22.7	0.00e+00	77	39	0	1033895936	52	6351
2026-01-03 01:55:12.35	314.61	20.25	-40.0	-40.9	22.3	0.00e+00	5	39	0	1035993088	52	6372
2026-01-03 01:55:13.36	314.80	20.16	-40.2	-41.2	22.6	0.00e+00	92	39	0	1038090240	52	6584
2026-01-03 01:55:14.37	314.98	20.07	-40.1	-41.1	22.7	0.00e+00	0	39	0	1039138816	52	6519
2026-01-03 01:55:15.38	315.16	19.97	-40.0	-41.0	22.7	0.00e+00	90	39	0	1041235968	52	6456
2026-01-03 01:55:16.39	315.33	19.88	-39.7	-40.7	23.1	0.00e+00	7	39	0	1043333120	52	6199
2026-01-03 01:55:17.40	315.51	19.79	-39.5	-40.4	23.2	0.00e+00	92	39	0	1045430272	52	6023
2026-01-03 01:55:18.41	315.69	19.70	-39.5	-40.4	23.3	0.00e+00	7	39	0	1047527424	52	6011
2026-01-03 01:55:19.42	315.86	19.61	-39.6	-40.6	23.2	0.00e+00	76	39	0	1048576000	52	6128
2026-01-03 01:55:20.43	316.04	19.51	-39.8	-40.7	23.0	0.00e+00	92	39	0	1050673152	52	6213
2026-01-03 01:55:21.44	316.21	19.42	-39.9	-40.8	22.9	0.00e+00	0	39	0	1052770304	52	6286
2026-01-03 01:55:22.46	316.38	19.33	-40.0	-40.9	22.8	0.00e+00	92	39	0	1054867456	52	6375
2026-01-03 01:55:23.47	316.55	19.24	-40.0	-41.0	22.8	0.00e+00	5	39	0	1056964608	52	6431
2026-01-03 01:55:24.48	316.72	19.14	-39.9	-40.9	22.9	0.00e+00	92	39	0	1058013184	52	6357
2026-01-03 01:55:25.49	316.89	19.05	-39.8	-40.8	23.0	0.00e+00	0	39	0	1060110336	52	6275
2026-01-03 01:55:26.49	317.06	18.96	-39.7	-40.6	23.0	0.00e+00	92	39	0	1062207488	52	6172
2026-01-03 01:55:27.50	317.23	18.87	-39.6	-40.5	23.3	0.00e+00	75	39	0	1064304640	52	6080
2026-01-03 01:55:28.51	317.39	18.78	-39.5	-40.4	23.3	0.00e+00	76	39	0	1066401792	52	5980
2026-01-03 01:55:29.52	317.56	18.69	-39.4	-40.3	23.3	0.00e+00	92	39	0	1067450368	52	5948
2026-01-03 01:55:30.53	317.72	18.60	-39.6	-40.5	23.2	0.00e+00	76	39	0	1069547520	52	6093
2026-01-03 01:55:31.54	317.89	18.51	-39.5	-40.5	23.3	0.00e+00	72	39	0	1071644672	52	6053
2026-01-03 01:55:32.55	318.05	18.41	-39.5	-40.4	23.3	0.00e+00	75	39	0	1073741824	52	5987
2026-01-03 01:55:33.56	318.21	18.32	-39.4	-40.3	23.4	0.00e+00	11	39	0	1075838976	52	5914
2026-01-03 01:55:34.57	318.37	18.23	-39.0	-39.9	23.8	0.00e+00	40	39	0	1076887552	52	5677
2026-01-03 01:55:35.58	318.53	18.14	-39.2	-40.1	23.6	0.00e+00	75	39	0	1078984704	52	5762
2026-01-03 01:55:36.60	318.69	18.05	-39.1	-39.9	23.8	0.00e+00	92	39	0	1081081856	52	5691
2026-01-03 01:55:37.61	318.85	17.96	-38.9	-39.8	23.7	0.00e+00	8	39	0	1083179008	52	5605
2026-01-03 01:55:38.61	319.00	17.87	-39.2	-40.1	23.8	0.00e+00	92	39	0	1085276160	52	5785
2026-01-03 01:55:39.63	319.16	17.78	-39.1	-40.0	23.6	0.00e+00	7	39	0	1086324736	52	5706
2026-01-03 01:55:40.63	319.31	17.69	-39.5	-40.5	23.4	0.00e+00	12	39	0	1088421888	52	6035
2026-01-03 01:55:41.65	319.47	17.60	-39.4	-40.3	23.4	0.00e+00	5	39	0	1090519040	52	5914
2026-01-03 01:55:42.66	319.62	17.51	-39.6	-40.5	22.9	0.00e+00	0	39	0	1092616192	52	6066
2026-01-03 01:55:43.67	319.77	17.42	-39.9	-40.8	23.2	0.00e+00	92	39	0	1094713344	52	6290
2026-01-03 01:55:44.68	319.93	17.33	-39.6	-40.5	23.0	0.00e+00	0	39	0	1096810496	52	6073
2026-01-03 01:55:45.68	320.08	17.24	-39.6	-40.5	23.2	0.00e+00	92	39	0	1097859072	52	6092
2026-01-03 01:55:46.70	320.23	17.15	-39.5	-40.5	23.1	0.00e+00	0	39	0	1099956224	52	6039
2026-01-03 01:55:47.71	320.38	17.07	-39.5	-40.4	23.2	0.00e+00	0	39	0	1102053376	52	6028
2026-01-03 01:55:48.71	320.52	16.98	-39.5	-40.5	23.1	0.00e+00	76	39	0	1104150528	52	6045
2026-01-03 01:55:49.72	320.67	16.89	-39.5	-40.4	23.1	0.00e+00	76	39	0	1106247680	52	6002
2026-01-03 01:55:50.73	320.82	16.80	-39.5	-40.4	23.2	0.00e+00	6	39	0	1107296256	52	6010
2026-01-03 01:55:51.74	320.96	16.71	-39.4	-40.3	23.3	0.00e+00	74	39	0	1109393408	52	5944
2026-01-03 01:55:52.75	321.11	16.62	-39.5	-40.4	23.3	0.00e+00	92	39	0	1111490560	52	6024
2026-01-03 01:55:53.76	321.25	16.54	-39.4	-40.3	23.2	0.00e+00	8	39	0	1113587712	52	5958
2026-01-03 01:55:54.77	321.39	16.45	-39.2	-40.1	23.3	0.00e+00	91	39	0	1115684864	52	5802
2026-01-03 01:55:55.78	321.53	16.36	-39.3	-40.3	23.4	0.00e+00	74	39	0	1116733440	52	5905
2026-01-03 01:55:56.79	321.68	16.27	-39.2	-40.1	23.4	0.00e+00	73	39	0	1118830592	52	5803
2026-01-03 01:55:57.79	321.82	16.19	-39.2	-40.1	23.2	0.00e+00	0	39	0	1120927744	52	5823
2026-01-03 01:55:58.80	321.96	16.10	-39.6	-40.5	23.3	0.00e+00	2	39	0	1123024896	52	6092
2026-01-03 01:55:59.82	322.10	16.01	-39.4	-40.3	23.2	0.00e+00	92	39	0	1125122048	52	5909
2026-01-03 01:56:00.82	322.23	15.93	-39.6	-40.5	23.1	0.00e+00	5	39	0	1126170624	52	6102
2026-01-03 01:56:01.83	322.37	15.84	-39.5	-40.5	23.1	0.00e+00	92	39	0	1128267776	52	6060
2026-01-03 01:56:02.84	322.51	15.75	-39.6	-40.5	22.9	0.00e+00	0	39	0	1130364928	52	6094
2026-01-03 01:56:03.86	322.64	15.66	-40.0	-40.9	22.8	0.00e+00	0	39	0	1132462080	52	6384
2026-01-03 01:56:04.86	322.78	15.58	-39.7	-40.7	22.8	0.00e+00	0	39	0	1134559232	52	6178
2026-01-03 01:56:05.87	322.91	15.49	-39.8	-40.8	22.9	0.00e+00	0	39	0	1135607808	52	6261
2026-01-03 01:56:06.88	323.05	15.41	-39.8	-40.7	22.9	0.00e+00	92	39	0	1137704960	52	6224
2026-01-03 01:56:07.89	323.18	15.32	-40.1	-41.1	22.7	0.00e+00	0	39	0	1139802112	52	6466
2026-01-03 01:56:08.90	323.31	15.24	-39.9	-40.9	22.6	0.00e+00	92	39	0	1141899264	52	6368
2026-01-03 01:56:09.91	323.44	15.15	-40.1	-41.2	22.5	0.00e+00	0	39	0	1143996416	52	6542
2026-01-03 01:56:10.92	323.58	15.06	-40.2	-41.3	22.4	0.00e+00	19	39	0	1145044992	52	6625
2026-01-03 01:56:11.93	323.71	14.98	-40.5	-41.6	22.0	0.00e+00	0	39	0	1147142144	52	6862
2026-01-03 01:56:12.94	323.83	14.89	-40.3	-41.4	22.2	0.00e+00	10	39	0	1149239296	52	6711
2026-01-03 01:56:13.95	323.96	14.81	-40.7	-41.8	21.7	0.00e+00	55	39	0	1151336448	52	7049
2026-01-03 01:56:14.96	324.09	14.72	-40.8	-41.9	21.8	0.00e+00	73	39	0	1153433600	54	6320
2026-01-03 01:56:15.97	324.22	14.64	-40.8	-41.9	21.5	0.00e+00	91	39	0	1154482176	54	6355
2026-01-03 01:56:16.98	324.35	14.56	-41.0	-42.1	21.8	0.00e+00	7	39	0	1156579328	54	6477
2026-01-03 01:56:17.99	324.47	14.47	-40.8	-41.9	21.8	0.00e+00	29	39	0	1158676480	54	6369
2026-01-03 01:56:19.00	324.60	14.39	-40.6	-41.7	21.9	0.00e+00	0	39	0	1160773632	54	6229
2026-01-03 01:56:20.01	324.72	14.30	-40.5	-41.5	22.1	0.00e+00	9	39	0	1162870784	54	6093
2026-01-03 01:56:21.02	324.85	14.22	-40.4	-41.5	22.1	0.00e+00	9	39	0	1164967936	54	6078
2026-01-03 01:56:22.03	324.97	14.14	-40.3	-41.3	22.2	0.00e+00	7	39	0	1166016512	54	5959
2026-01-03 01:56:23.04	325.09	14.05	-40.3	-41.3	22.3	0.00e+00	92	39	0	1168113664	54	5938
2026-01-03 01:56:24.05	325.21	13.97	-40.3	-41.3	22.1	0.00e+00	0	39	0	1170210816	54	5963
2026-01-03 01:56:25.06	325.33	13.89	-40.4	-41.4	22.0	0.00e+00	92	39	0	1172307968	54	6033
2026-01-03 01:56:26.07	325.45	13.80	-40.4	-41.5	22.1	0.00e+00	0	39	0	1174405120	54	6073
2026-01-03 01:56:27.08	325.57	13.72	-40.4	-41.4	22.1	0.00e+00	0	39	0	1175453696	54	6033
2026-01-03 01:56:28.09	325.69	13.64	-40.5	-41.5	22.0	0.00e+00	0	39	0	1177550848	54	6087
2026-01-03 01:56:29.10	325.81	13.56	-40.6	-41.7	21.9	0.00e+00	75	39	0	1179648000	54	6228
2026-01-03 01:56:30.11	325.93	13.48	-40.6	-41.7	21.8	0.00e+00	92	39	0	1181745152	54	6184
2026-01-03 01:56:31.12	326.05	13.39	-40.6	-41.7	21.8	0.00e+00	0	39	0	1183842304	54	6243
2026-01-03 01:56:32.13	326.17	13.31	-40.7	-41.8	21.7	0.00e+00	92	39	0	1184890880	54	6287
2026-01-03 01:56:33.14	326.28	13.23	-40.8	-41.9	21.7	0.00e+00	75	39	0	1186988032	54	6385
2026-01-03 01:56:34.15	326.40	13.15	-40.9	-42.0	21.6	0.00e+00	2	39	0	1189085184	54	6423
2026-01-03 01:56:35.16	326.51	13.07	-40.7	-41.8	21.6	0.00e+00	0	39	0	1191182336	54	6305
