passes_logs/2026/01/03/R4.6S_Anadyr/R4.6S_Anadyr__20260103_022434_FENGYUN_3D_rec.log

#Pass ID: 20260103_022434_FENGYUN 3D
#Satellite: FENGYUN 3D
#Configuration: FENGYUN 3D
#almurnet v.1.7.20251203
#Start time: 2026-01-03 02:24:35

#Version: 2.2.20231116
#Station: R4.6S_Anadyr
#Location: 177.4865 lon 64.73178 lat
#TLE: 1 43010U 17072A   26002.81102625  .00000200  00000+0  11640-3 0  9996
#TLE: 2 43010  98.9911 334.4394 0001899 131.0556 229.0784 14.19692049421526

#Time	Az	El	Level	Level2	SNR	BER	BlckErr	Temp	State	Recorded	gain1	gain2
2026-01-03 02:24:35.34	160.45	0.07	-50.0	-64.9	3.6	1.51e+00	0	36	0	0	60	63745
2026-01-03 02:24:36.35	160.46	0.13	-50.1	-62.2	3.6	8.47e-01	0	37	104	0	60	46523
2026-01-03 02:24:37.35	160.47	0.19	-49.9	-62.0	3.6	8.43e-01	0	37	104	0	60	45501
2026-01-03 02:24:38.36	160.48	0.25	-49.9	-62.0	3.6	8.46e-01	0	37	104	0	60	45499
2026-01-03 02:24:39.37	160.49	0.31	-49.9	-62.0	3.6	8.45e-01	0	38	104	0	60	45703
2026-01-03 02:24:40.38	160.50	0.37	-49.9	-62.0	3.6	8.46e-01	0	38	104	0	60	45619
2026-01-03 02:24:41.39	160.51	0.43	-49.8	-62.0	3.6	8.45e-01	0	38	104	0	60	45455
2026-01-03 02:24:42.40	160.52	0.49	-49.8	-61.9	3.6	8.46e-01	0	38	104	0	60	45158
2026-01-03 02:24:43.41	160.53	0.56	-49.8	-61.9	3.6	8.45e-01	0	38	104	0	60	45059
2026-01-03 02:24:44.42	160.54	0.62	-49.7	-61.8	3.6	8.45e-01	0	38	104	0	60	44631
2026-01-03 02:24:45.43	160.55	0.68	-49.6	-61.7	3.6	8.47e-01	0	38	104	0	60	44073
2026-01-03 02:24:46.44	160.56	0.74	-49.5	-61.6	3.6	8.44e-01	0	38	104	0	60	43280
2026-01-03 02:24:47.45	160.57	0.80	-49.3	-61.4	3.6	8.46e-01	0	38	104	0	60	42456
2026-01-03 02:24:48.46	160.57	0.87	-48.9	-61.1	3.6	8.45e-01	0	38	104	0	60	40807
2026-01-03 02:24:49.47	160.58	0.93	-48.3	-60.4	3.6	8.45e-01	0	38	104	0	60	37742
2026-01-03 02:24:50.48	160.59	0.99	-48.3	-60.4	3.6	8.45e-01	0	38	104	0	60	37843
2026-01-03 02:24:51.49	160.60	1.05	-48.3	-60.4	3.6	8.46e-01	0	38	104	0	60	38011
2026-01-03 02:24:52.50	160.61	1.12	-48.3	-60.5	3.6	8.45e-01	0	38	104	0	60	38098
2026-01-03 02:24:53.51	160.62	1.18	-48.3	-60.4	3.6	8.45e-01	0	38	104	0	60	37657
2026-01-03 02:24:54.52	160.63	1.24	-48.3	-60.3	3.6	8.45e-01	0	38	104	0	60	37574
2026-01-03 02:24:55.53	160.64	1.30	-48.3	-60.3	3.6	8.45e-01	0	38	104	0	60	37288
2026-01-03 02:24:56.54	160.65	1.37	-48.3	-60.1	3.6	8.45e-01	0	38	104	0	60	36628
2026-01-03 02:24:57.55	160.66	1.43	-48.2	-59.7	3.6	8.44e-01	0	38	104	0	60	34923
2026-01-03 02:24:58.56	160.67	1.49	-48.2	-59.5	3.6	8.44e-01	0	38	104	0	60	34307
2026-01-03 02:24:59.57	160.68	1.56	-48.2	-59.4	3.6	8.45e-01	0	38	104	0	60	33878
2026-01-03 02:25:00.58	160.69	1.62	-48.2	-59.3	3.6	8.44e-01	0	38	104	0	60	33533
2026-01-03 02:25:01.59	160.70	1.69	-48.2	-59.5	3.6	8.45e-01	0	38	104	0	60	34159
2026-01-03 02:25:02.60	160.71	1.75	-48.2	-59.4	3.6	8.45e-01	0	38	104	0	60	33779
2026-01-03 02:25:03.61	160.72	1.81	-48.2	-59.6	3.6	8.46e-01	0	38	104	0	60	34692
2026-01-03 02:25:04.62	160.73	1.88	-48.2	-60.2	3.6	8.45e-01	0	38	104	0	60	36889
2026-01-03 02:25:05.63	160.74	1.94	-48.2	-60.2	3.6	8.46e-01	0	38	104	0	60	37034
2026-01-03 02:25:06.64	160.75	2.01	-48.3	-60.4	3.6	8.46e-01	0	38	104	0	60	37712
2026-01-03 02:25:07.65	160.76	2.07	-48.3	-60.3	3.6	8.45e-01	0	38	104	0	60	37580
2026-01-03 02:25:08.66	160.77	2.14	-48.3	-60.3	3.6	8.45e-01	0	38	104	0	60	37629
2026-01-03 02:25:09.67	160.78	2.20	-48.3	-60.4	3.6	8.46e-01	0	38	104	0	60	37667
2026-01-03 02:25:10.68	160.79	2.27	-48.3	-60.3	3.6	8.46e-01	0	38	104	0	60	37378
2026-01-03 02:25:11.69	160.80	2.33	-48.2	-60.2	3.6	8.45e-01	0	38	104	0	60	37019
2026-01-03 02:25:12.69	160.81	2.40	-48.2	-60.0	3.6	8.46e-01	0	38	104	0	60	36171
2026-01-03 02:25:13.70	160.82	2.46	-48.2	-59.4	3.6	8.46e-01	0	38	104	0	60	33838
2026-01-03 02:25:14.71	160.83	2.53	-48.1	-58.9	3.6	8.46e-01	0	38	104	0	60	31697
2026-01-03 02:25:15.73	160.84	2.60	-48.1	-58.2	3.6	8.45e-01	0	38	104	0	60	29411
2026-01-03 02:25:16.73	160.85	2.66	-48.0	-58.1	3.7	8.45e-01	0	38	104	0	60	29003
2026-01-03 02:25:17.75	160.86	2.73	-48.0	-58.0	3.7	8.43e-01	0	38	104	0	60	28556
2026-01-03 02:25:18.76	160.87	2.80	-48.1	-58.2	3.6	8.44e-01	0	38	104	0	60	29371
2026-01-03 02:25:19.77	160.88	2.86	-48.1	-58.9	3.6	8.46e-01	0	38	104	0	60	31803
2026-01-03 02:25:20.78	160.89	2.93	-48.0	-57.5	3.7	8.43e-01	0	38	104	0	60	27251
2026-01-03 02:25:21.79	160.91	3.00	-47.6	-54.9	5.0	8.11e-01	0	38	104	0	60	20057
2026-01-03 02:25:22.80	160.92	3.06	-46.7	-51.1	7.5	1.65e-01	0	38	0	2097152	60	12942
2026-01-03 02:25:23.81	160.93	3.13	-45.7	-49.0	10.4	2.84e-02	0	38	0	8388608	60	10226
2026-01-03 02:25:24.82	160.94	3.20	-44.3	-46.6	12.4	1.29e-04	0	38	0	13631488	60	7768
2026-01-03 02:25:25.83	160.95	3.27	-43.1	-44.9	15.1	1.48e-05	0	38	0	18874368	60	6354
2026-01-03 02:25:26.84	160.96	3.33	-41.9	-43.5	16.1	0.00e+00	0	38	0	25165824	56	6773
2026-01-03 02:25:27.85	160.97	3.40	-41.0	-42.3	17.1	0.00e+00	0	38	0	30408704	56	5924
2026-01-03 02:25:28.86	160.98	3.47	-40.4	-41.6	17.7	0.00e+00	0	38	0	36700160	54	6147
2026-01-03 02:25:29.87	160.99	3.54	-40.5	-41.7	17.6	0.00e+00	0	38	0	41943040	52	6987
2026-01-03 02:25:30.88	161.00	3.61	-39.8	-40.9	18.5	0.00e+00	0	38	0	47185920	52	6329
2026-01-03 02:25:31.89	161.01	3.68	-40.7	-42.0	17.4	0.00e+00	0	38	0	53477376	52	7202
2026-01-03 02:25:32.90	161.02	3.75	-40.4	-41.6	17.7	0.00e+00	0	38	0	58720256	52	6877
2026-01-03 02:25:33.91	161.03	3.81	-48.2	-59.0	3.6	6.86e-01	0	38	104	62914560	60	32283
2026-01-03 02:25:34.92	161.05	3.88	-45.4	-48.3	10.7	1.26e-01	0	38	0	62914560	60	9371
2026-01-03 02:25:35.93	161.06	3.95	-47.9	-56.7	3.6	3.23e-01	0	38	104	68157440	60	24772
2026-01-03 02:25:36.94	161.07	4.02	-38.9	-39.9	19.3	1.02e-05	0	38	104	68157440	52	5666
2026-01-03 02:25:37.95	161.08	4.09	-48.1	-56.3	3.6	2.25e-01	0	38	0	72351744	60	23655
2026-01-03 02:25:38.96	161.09	4.16	-37.6	-38.5	20.7	0.00e+00	0	38	104	72351744	50	5413
2026-01-03 02:25:39.97	161.10	4.23	-37.3	-38.2	20.9	0.00e+00	0	38	0	77594624	48	5859
2026-01-03 02:25:40.98	161.11	4.30	-37.3	-38.2	21.5	0.00e+00	0	38	0	82837504	48	5840
2026-01-03 02:25:41.99	161.12	4.37	-36.8	-37.6	22.0	0.00e+00	0	38	0	88080384	48	5453
2026-01-03 02:25:43.00	161.13	4.44	-36.4	-37.2	22.2	0.00e+00	0	38	0	94371840	46	5871
2026-01-03 02:25:44.01	161.15	4.51	-37.3	-38.1	21.4	0.00e+00	0	38	0	99614720	46	6499
2026-01-03 02:25:45.02	161.16	4.59	-37.5	-38.3	21.2	0.00e+00	0	38	0	105906176	46	6682
2026-01-03 02:25:46.03	161.17	4.66	-37.3	-38.2	21.5	0.00e+00	0	38	0	111149056	46	6548
2026-01-03 02:25:47.04	161.18	4.73	-36.6	-37.4	22.1	0.00e+00	0	38	0	117440512	46	5999
2026-01-03 02:25:48.05	161.19	4.80	-37.5	-38.4	21.2	0.00e+00	0	38	0	122683392	46	6717
2026-01-03 02:25:49.06	161.20	4.87	-37.0	-37.8	21.7	0.00e+00	0	38	0	128974848	46	6273
2026-01-03 02:25:50.07	161.21	4.94	-36.7	-37.5	22.0	0.00e+00	0	38	0	134217728	46	6072
2026-01-03 02:25:51.08	161.23	5.02	-36.5	-37.3	22.3	0.00e+00	0	38	0	139460608	46	5944
2026-01-03 02:25:52.09	161.24	5.09	-36.3	-37.1	22.5	0.00e+00	0	38	0	145752064	46	5802
2026-01-03 02:25:53.10	161.25	5.16	-36.6	-37.4	22.1	0.00e+00	0	38	0	150994944	46	6024
2026-01-03 02:25:54.12	161.26	5.23	-36.7	-37.5	22.2	0.00e+00	0	38	0	157286400	46	6054
2026-01-03 02:25:55.13	161.27	5.31	-36.5	-37.3	22.3	0.00e+00	0	38	0	162529280	46	5922
2026-01-03 02:25:56.14	161.29	5.38	-36.9	-37.7	22.1	0.00e+00	0	38	0	167772160	46	6187
2026-01-03 02:25:57.15	161.30	5.45	-36.7	-37.5	22.3	0.00e+00	0	38	0	174063616	46	6048
2026-01-03 02:25:58.15	161.31	5.53	-36.3	-37.1	22.6	0.00e+00	0	38	0	179306496	46	5786
2026-01-03 02:25:59.16	161.32	5.60	-36.7	-37.5	22.2	0.00e+00	0	38	0	185597952	46	6066
2026-01-03 02:26:00.17	161.33	5.67	-36.4	-37.2	22.5	0.00e+00	0	39	0	190840832	46	5830
2026-01-03 02:26:01.18	161.34	5.75	-36.2	-36.9	22.8	0.00e+00	0	38	0	196083712	46	5685
2026-01-03 02:26:02.19	161.36	5.82	-36.3	-37.1	22.4	0.00e+00	0	38	0	202375168	46	5773
2026-01-03 02:26:03.20	161.37	5.90	-36.6	-37.3	22.4	0.00e+00	0	38	0	207618048	46	5954
2026-01-03 02:26:04.21	161.38	5.97	-36.3	-37.1	22.6	0.00e+00	0	38	0	213909504	46	5762
2026-01-03 02:26:05.22	161.39	6.05	-36.2	-36.9	22.8	0.00e+00	0	38	0	219152384	46	5691
2026-01-03 02:26:06.23	161.41	6.12	-36.3	-37.1	22.6	0.00e+00	0	38	0	225443840	46	5822
2026-01-03 02:26:07.24	161.42	6.20	-36.3	-37.1	22.6	0.00e+00	0	38	0	230686720	46	5785
2026-01-03 02:26:08.25	161.43	6.27	-35.9	-36.7	23.0	0.00e+00	0	38	0	236978176	46	5512
2026-01-03 02:26:09.27	161.44	6.35	-36.0	-36.8	22.8	0.00e+00	0	38	0	242221056	46	5583
2026-01-03 02:26:10.27	161.46	6.43	-35.8	-36.6	23.1	0.00e+00	0	38	0	247463936	46	5463
2026-01-03 02:26:11.29	161.47	6.50	-36.2	-36.9	22.8	0.00e+00	0	38	0	253755392	44	6390
2026-01-03 02:26:12.30	161.48	6.58	-36.2	-37.0	22.8	0.00e+00	0	39	0	258998272	44	6402
2026-01-03 02:26:13.31	161.49	6.66	-35.7	-36.5	23.2	0.00e+00	0	38	0	265289728	44	6049
2026-01-03 02:26:14.32	161.51	6.73	-36.3	-37.1	22.6	0.00e+00	0	38	0	270532608	44	6487
2026-01-03 02:26:15.33	161.52	6.81	-36.1	-36.8	22.8	0.00e+00	0	38	0	275775488	44	6315
2026-01-03 02:26:16.34	161.53	6.89	-36.4	-37.2	22.9	0.00e+00	0	38	0	282066944	44	6556
2026-01-03 02:26:17.34	161.54	6.97	-36.1	-36.8	22.4	0.00e+00	0	38	0	287309824	44	6306
2026-01-03 02:26:18.36	161.56	7.04	-36.3	-37.1	22.5	0.00e+00	0	38	0	293601280	44	6478
2026-01-03 02:26:19.37	161.57	7.12	-36.4	-37.2	22.4	0.00e+00	0	39	0	298844160	44	6556
2026-01-03 02:26:20.38	161.58	7.20	-36.2	-36.9	22.8	0.00e+00	0	38	0	304087040	44	6377
2026-01-03 02:26:21.39	161.60	7.28	-36.6	-37.3	22.6	0.00e+00	0	39	0	310378496	44	6687
2026-01-03 02:26:22.40	161.61	7.36	-36.1	-36.9	22.8	0.00e+00	0	39	0	315621376	44	6331
2026-01-03 02:26:23.41	161.62	7.44	-36.2	-37.0	22.6	0.00e+00	0	38	0	321912832	44	6405
2026-01-03 02:26:24.42	161.64	7.52	-36.1	-36.9	22.7	0.00e+00	0	38	0	327155712	44	6361
2026-01-03 02:26:25.43	161.65	7.60	-36.3	-37.1	22.7	0.00e+00	0	38	0	333447168	44	6465
2026-01-03 02:26:26.44	161.66	7.68	-35.9	-36.7	23.0	0.00e+00	0	39	0	338690048	44	6184
2026-01-03 02:26:27.45	161.68	7.76	-36.1	-36.8	22.8	0.00e+00	0	38	0	343932928	44	6292
2026-01-03 02:26:28.46	161.69	7.84	-36.4	-37.2	22.6	0.00e+00	0	38	0	350224384	44	6569
2026-01-03 02:26:29.47	161.70	7.92	-36.1	-36.8	23.1	0.00e+00	0	39	0	355467264	44	6312
2026-01-03 02:26:30.48	161.72	8.00	-36.0	-36.8	23.1	0.00e+00	0	38	0	361758720	44	6279
2026-01-03 02:26:31.49	161.73	8.08	-35.7	-36.5	23.2	0.00e+00	0	39	0	367001600	44	6048
2026-01-03 02:26:32.50	161.74	8.16	-35.6	-36.3	23.5	0.00e+00	0	39	0	372244480	44	5945
2026-01-03 02:26:33.51	161.76	8.24	-35.5	-36.2	23.6	0.00e+00	0	38	0	378535936	44	5847
2026-01-03 02:26:34.52	161.77	8.33	-35.5	-36.3	23.5	0.00e+00	0	39	0	383778816	44	5906
2026-01-03 02:26:35.53	161.78	8.41	-35.4	-36.2	23.6	0.00e+00	0	38	0	390070272	44	5840
2026-01-03 02:26:36.54	161.80	8.49	-35.3	-36.1	23.6	0.00e+00	0	39	0	395313152	44	5782
2026-01-03 02:26:37.55	161.81	8.57	-35.5	-36.2	23.5	0.00e+00	0	38	0	400556032	44	5879
2026-01-03 02:26:38.56	161.83	8.66	-35.5	-36.2	23.5	0.00e+00	0	38	0	406847488	44	5851
2026-01-03 02:26:39.57	161.84	8.74	-35.5	-36.3	23.6	0.00e+00	0	38	0	412090368	44	5897
2026-01-03 02:26:40.58	161.85	8.82	-35.4	-36.1	23.5	0.00e+00	0	39	0	418381824	44	5828
2026-01-03 02:26:41.59	161.87	8.91	-35.4	-36.1	23.7	0.00e+00	0	39	0	423624704	44	5821
2026-01-03 02:26:42.60	161.88	8.99	-35.3	-36.1	23.6	0.00e+00	0	39	0	429916160	44	5776
2026-01-03 02:26:43.61	161.90	9.08	-35.4	-36.1	23.6	0.00e+00	0	39	0	435159040	44	5791
2026-01-03 02:26:44.62	161.91	9.16	-35.5	-36.3	23.4	0.00e+00	0	39	0	441450496	44	5917
2026-01-03 02:26:45.63	161.93	9.25	-35.2	-35.9	23.8	0.00e+00	0	38	0	446693376	44	5680
2026-01-03 02:26:46.64	161.94	9.33	-35.3	-36.0	23.8	0.00e+00	0	38	0	451936256	44	5753
2026-01-03 02:26:47.65	161.95	9.42	-35.3	-36.1	23.7	0.00e+00	0	38	0	458227712	44	5769
2026-01-03 02:26:48.66	161.97	9.50	-35.2	-35.9	23.9	0.00e+00	0	38	0	463470592	44	5658
2026-01-03 02:26:49.67	161.98	9.59	-35.2	-36.0	23.8	0.00e+00	0	39	0	469762048	44	5720
2026-01-03 02:26:50.68	162.00	9.68	-35.1	-35.9	23.9	0.00e+00	0	39	0	475004928	44	5632
2026-01-03 02:26:51.69	162.01	9.76	-35.3	-36.0	23.9	0.00e+00	0	39	0	480247808	44	5720
2026-01-03 02:26:52.70	162.03	9.85	-35.3	-36.0	23.8	0.00e+00	0	39	0	486539264	44	5724
2026-01-03 02:26:53.71	162.04	9.94	-35.2	-36.0	23.6	0.00e+00	0	39	0	491782144	44	5729
2026-01-03 02:26:54.72	162.06	10.02	-35.4	-36.1	23.7	0.00e+00	0	39	0	498073600	44	5796
2026-01-03 02:26:55.73	162.07	10.11	-35.4	-36.1	23.8	0.00e+00	0	39	0	503316480	44	5775
2026-01-03 02:26:56.75	162.09	10.20	-35.5	-36.2	23.6	0.00e+00	0	39	0	508559360	44	5893
2026-01-03 02:26:57.76	162.10	10.29	-35.2	-35.9	23.9	0.00e+00	0	39	0	514850816	44	5660
2026-01-03 02:26:58.76	162.12	10.38	-35.2	-35.9	24.0	0.00e+00	0	39	0	520093696	44	5643
2026-01-03 02:26:59.77	162.13	10.47	-34.9	-35.6	24.2	0.00e+00	0	39	0	526385152	44	5488
2026-01-03 02:27:00.79	162.15	10.56	-34.9	-35.6	24.2	0.00e+00	0	39	0	531628032	44	5447
2026-01-03 02:27:01.80	162.17	10.65	-34.9	-35.6	24.2	0.00e+00	0	39	0	537919488	44	5499
2026-01-03 02:27:02.81	162.18	10.74	-35.0	-35.7	24.2	0.00e+00	0	39	0	543162368	44	5510
2026-01-03 02:27:03.82	162.20	10.83	-34.9	-35.6	24.2	0.00e+00	0	39	0	549453824	44	5467
2026-01-03 02:27:04.83	162.21	10.92	-34.9	-35.7	24.2	0.00e+00	0	39	0	554696704	44	5517
2026-01-03 02:27:05.84	162.23	11.01	-34.8	-35.5	24.4	0.00e+00	0	39	0	559939584	44	5388
2026-01-03 02:27:06.85	162.24	11.10	-34.9	-35.6	24.3	0.00e+00	0	39	0	566231040	42	6121
2026-01-03 02:27:07.86	162.26	11.20	-34.9	-35.6	24.2	0.00e+00	0	39	0	571473920	42	6116
2026-01-03 02:27:08.87	162.28	11.29	-34.9	-35.6	24.2	0.00e+00	0	39	0	577765376	42	6153
2026-01-03 02:27:09.88	162.29	11.38	-34.7	-35.4	24.4	0.00e+00	0	39	0	583008256	42	6016
2026-01-03 02:27:10.89	162.31	11.47	-34.7	-35.4	24.4	0.00e+00	0	39	0	588251136	42	6009
2026-01-03 02:27:11.90	162.33	11.57	-34.7	-35.5	24.5	0.00e+00	0	39	0	594542592	42	6040
2026-01-03 02:27:12.91	162.34	11.66	-34.9	-35.6	24.4	0.00e+00	0	39	0	599785472	42	6122
2026-01-03 02:27:13.92	162.36	11.76	-34.8	-35.6	24.3	0.00e+00	0	39	0	606076928	42	6122
2026-01-03 02:27:14.93	162.38	11.85	-34.9	-35.5	24.5	0.00e+00	0	39	0	611319808	42	6097
2026-01-03 02:27:15.94	162.39	11.95	-34.9	-35.6	24.4	0.00e+00	0	39	0	616562688	42	6141
2026-01-03 02:27:16.95	162.41	12.04	-35.0	-35.7	24.1	0.00e+00	0	39	0	622854144	42	6237
2026-01-03 02:27:17.96	162.43	12.14	-35.0	-35.7	24.2	0.00e+00	0	39	0	628097024	42	6201
2026-01-03 02:27:18.97	162.44	12.23	-35.1	-35.8	24.2	0.00e+00	0	38	0	634388480	42	6295
2026-01-03 02:27:19.98	162.46	12.33	-34.7	-35.4	24.4	0.00e+00	0	39	0	639631360	42	6017
2026-01-03 02:27:20.99	162.48	12.43	-34.6	-35.3	24.5	0.00e+00	0	39	0	645922816	42	5950
2026-01-03 02:27:22.00	162.49	12.52	-34.7	-35.4	24.5	0.00e+00	0	39	0	651165696	42	6021
2026-01-03 02:27:23.01	162.51	12.62	-34.7	-35.4	24.6	0.00e+00	0	39	0	657457152	42	5986
2026-01-03 02:27:24.02	162.53	12.72	-34.8	-35.4	24.5	0.00e+00	0	39	0	662700032	42	6029
2026-01-03 02:27:25.03	162.55	12.82	-34.6	-35.3	24.6	0.00e+00	0	39	0	667942912	42	5958
2026-01-03 02:27:26.04	162.56	12.91	-34.6	-35.3	24.7	0.00e+00	0	39	0	674234368	42	5956
2026-01-03 02:27:27.05	162.58	13.01	-34.5	-35.2	24.8	0.00e+00	0	39	0	679477248	42	5874
2026-01-03 02:27:28.06	162.60	13.11	-34.5	-35.2	24.8	0.00e+00	0	39	0	685768704	42	5847
2026-01-03 02:27:29.07	162.62	13.21	-34.5	-35.2	24.7	0.00e+00	0	39	0	691011584	42	5831
2026-01-03 02:27:30.08	162.63	13.31	-34.8	-35.5	24.7	0.00e+00	0	39	0	696254464	42	6056
2026-01-03 02:27:31.09	162.65	13.41	-34.3	-35.0	24.9	0.00e+00	0	39	0	702545920	42	5728
2026-01-03 02:27:32.10	162.67	13.52	-34.4	-35.1	24.7	0.00e+00	0	39	0	707788800	42	5808
2026-01-03 02:27:33.11	162.69	13.62	-34.3	-34.9	24.9	0.00e+00	0	39	0	714080256	42	5694
2026-01-03 02:27:34.12	162.71	13.72	-34.2	-34.9	25.0	0.00e+00	0	39	0	719323136	42	5688
2026-01-03 02:27:35.13	162.73	13.82	-34.4	-35.1	24.9	0.00e+00	0	39	0	724566016	42	5776
2026-01-03 02:27:36.14	162.74	13.92	-34.3	-35.0	24.9	0.00e+00	0	39	0	730857472	42	5736
2026-01-03 02:27:37.15	162.76	14.03	-34.1	-34.8	25.1	0.00e+00	0	39	0	736100352	42	5626
2026-01-03 02:27:38.16	162.78	14.13	-34.1	-34.8	25.1	0.00e+00	0	39	0	742391808	42	5584
2026-01-03 02:27:39.17	162.80	14.24	-34.1	-34.8	25.2	0.00e+00	0	39	0	747634688	42	5572
2026-01-03 02:27:40.18	162.82	14.34	-34.2	-34.9	25.1	0.00e+00	0	39	0	753926144	42	5631
2026-01-03 02:27:41.19	162.84	14.45	-34.0	-34.7	25.2	0.00e+00	0	39	0	759169024	42	5540
2026-01-03 02:27:42.20	162.86	14.55	-34.0	-34.6	25.2	0.00e+00	0	39	0	765460480	42	5500
2026-01-03 02:27:43.21	162.88	14.66	-34.0	-34.6	25.2	0.00e+00	0	39	0	770703360	42	5500
2026-01-03 02:27:44.23	162.90	14.76	-34.0	-34.7	25.3	0.00e+00	0	39	0	775946240	42	5527
2026-01-03 02:27:45.23	162.92	14.87	-33.9	-34.6	25.3	0.00e+00	0	39	0	782237696	42	5447
2026-01-03 02:27:46.24	162.94	14.98	-33.8	-34.5	25.5	0.00e+00	0	39	0	787480576	42	5420
2026-01-03 02:27:47.25	162.96	15.09	-33.7	-34.4	25.5	0.00e+00	0	39	0	793772032	40	5990
2026-01-03 02:27:48.26	162.98	15.19	-33.7	-34.4	25.6	0.00e+00	0	39	0	799014912	40	5977
2026-01-03 02:27:49.27	163.00	15.30	-33.8	-34.5	25.4	0.00e+00	0	39	0	804257792	40	6054
2026-01-03 02:27:50.28	163.02	15.41	-33.5	-34.2	25.6	0.00e+00	0	39	0	810549248	40	5873
2026-01-03 02:27:51.29	163.04	15.52	-33.6	-34.2	25.6	0.00e+00	0	39	0	815792128	40	5893
2026-01-03 02:27:52.30	163.06	15.63	-33.7	-34.4	25.5	0.00e+00	0	39	0	821035008	40	6006
2026-01-03 02:27:53.31	163.08	15.74	-33.4	-34.1	25.8	0.00e+00	0	39	0	827326464	40	5781
2026-01-03 02:27:54.32	163.10	15.85	-33.3	-34.0	25.8	0.00e+00	0	39	0	832569344	40	5739
2026-01-03 02:27:55.33	163.12	15.97	-33.3	-34.0	26.0	0.00e+00	0	39	0	838860800	40	5714
2026-01-03 02:27:56.34	163.14	16.08	-33.3	-33.9	25.9	0.00e+00	0	39	0	844103680	40	5678
2026-01-03 02:27:57.35	163.16	16.19	-33.2	-33.9	26.0	0.00e+00	0	39	0	850395136	40	5640
2026-01-03 02:27:58.36	163.18	16.31	-33.1	-33.8	26.0	0.00e+00	0	39	0	855638016	40	5597
2026-01-03 02:27:59.37	163.20	16.42	-33.2	-33.9	26.0	0.00e+00	0	39	0	861929472	40	5631
2026-01-03 02:28:00.38	163.23	16.53	-33.0	-33.6	26.2	0.00e+00	0	39	0	867172352	40	5468
2026-01-03 02:28:01.39	163.25	16.65	-33.1	-33.8	26.1	0.00e+00	0	39	0	872415232	40	5569
2026-01-03 02:28:02.40	163.27	16.76	-33.0	-33.7	26.2	0.00e+00	0	39	0	878706688	40	5539
2026-01-03 02:28:03.41	163.29	16.88	-33.0	-33.6	26.2	0.00e+00	0	39	0	883949568	40	5489
2026-01-03 02:28:04.42	163.31	17.00	-32.8	-33.5	26.4	0.00e+00	0	39	0	890241024	40	5399
2026-01-03 02:28:05.43	163.33	17.11	-32.9	-33.6	26.3	0.00e+00	0	39	0	895483904	40	5482
2026-01-03 02:28:06.44	163.36	17.23	-32.8	-33.4	26.4	0.00e+00	0	39	0	900726784	40	5370
2026-01-03 02:28:07.45	163.38	17.35	-32.8	-33.4	26.4	0.00e+00	0	39	0	907018240	40	5365
2026-01-03 02:28:08.46	163.40	17.47	-32.7	-33.4	26.5	0.00e+00	0	39	0	912261120	38	5996
2026-01-03 02:28:09.47	163.43	17.59	-32.8	-33.4	26.4	0.00e+00	0	39	0	918552576	38	6021
2026-01-03 02:28:10.48	163.45	17.71	-32.9	-33.6	26.4	0.00e+00	0	39	0	923795456	38	6113
2026-01-03 02:28:11.49	163.47	17.83	-32.9	-33.5	26.3	0.00e+00	0	39	0	929038336	38	6103
2026-01-03 02:28:12.51	163.49	17.95	-32.7	-33.4	26.5	0.00e+00	0	39	0	935329792	38	5985
2026-01-03 02:28:13.51	163.52	18.07	-32.8	-33.4	26.6	0.00e+00	0	39	0	940572672	38	6002
2026-01-03 02:28:14.52	163.54	18.19	-32.7	-33.4	26.5	0.00e+00	0	39	0	946864128	38	5975
2026-01-03 02:28:15.54	163.57	18.32	-32.5	-33.2	26.7	0.00e+00	0	39	0	952107008	38	5847
2026-01-03 02:28:16.55	163.59	18.44	-32.6	-33.3	26.7	0.00e+00	0	39	0	958398464	38	5904
2026-01-03 02:28:17.55	163.61	18.57	-32.5	-33.1	26.7	0.00e+00	0	39	0	963641344	38	5817
2026-01-03 02:28:18.56	163.64	18.69	-32.4	-33.0	26.8	0.00e+00	0	39	0	969932800	38	5754
2026-01-03 02:28:19.57	163.66	18.82	-32.4	-33.0	26.8	0.00e+00	0	39	0	975175680	38	5754
2026-01-03 02:28:20.58	163.69	18.94	-32.5	-33.1	26.8	0.00e+00	0	39	0	980418560	38	5812
2026-01-03 02:28:21.59	163.71	19.07	-32.4	-33.0	26.8	0.00e+00	0	39	0	986710016	38	5752
2026-01-03 02:28:22.60	163.74	19.20	-32.3	-33.0	26.8	0.00e+00	0	39	0	991952896	38	5724
2026-01-03 02:28:23.61	163.76	19.32	-32.3	-33.0	27.0	0.00e+00	0	39	0	998244352	38	5705
2026-01-03 02:28:24.62	163.79	19.45	-32.5	-33.1	26.9	0.00e+00	0	39	0	1003487232	38	5821
2026-01-03 02:28:25.63	163.81	19.58	-32.3	-33.0	27.0	0.00e+00	0	39	0	1008730112	38	5698
2026-01-03 02:28:26.64	163.84	19.71	-32.3	-33.0	26.9	0.00e+00	0	39	0	1015021568	38	5699
2026-01-03 02:28:27.65	163.86	19.84	-32.2	-32.8	27.1	0.00e+00	0	39	0	1020264448	38	5599
2026-01-03 02:28:28.66	163.89	19.98	-32.3	-32.9	27.0	0.00e+00	0	39	0	1026555904	38	5674
2026-01-03 02:28:29.67	163.92	20.11	-32.1	-32.7	27.1	0.00e+00	0	39	0	1031798784	38	5561
2026-01-03 02:28:30.68	163.94	20.24	-32.0	-32.7	27.1	0.00e+00	0	39	0	1037041664	38	5510
2026-01-03 02:28:31.69	163.97	20.37	-32.0	-32.6	27.2	0.00e+00	0	39	0	1043333120	38	5502
2026-01-03 02:28:32.70	164.00	20.51	-32.0	-32.6	27.2	0.00e+00	0	39	0	1048576000	38	5479
2026-01-03 02:28:33.71	164.02	20.64	-32.0	-32.6	27.2	0.00e+00	0	39	0	1054867456	38	5491
2026-01-03 02:28:34.73	164.05	20.78	-32.0	-32.6	27.2	0.00e+00	0	39	0	1060110336	38	5459
2026-01-03 02:28:35.74	164.08	20.92	-32.0	-32.6	27.2	0.00e+00	0	39	0	1066401792	38	5487
2026-01-03 02:28:36.75	164.10	21.05	-32.0	-32.6	27.2	0.00e+00	0	39	0	1071644672	38	5492
2026-01-03 02:28:37.76	164.13	21.19	-32.1	-32.7	27.2	0.00e+00	0	39	0	1077936128	38	5533
2026-01-03 02:28:38.77	164.16	21.33	-32.1	-32.7	27.1	0.00e+00	0	39	0	1083179008	38	5530
2026-01-03 02:28:39.78	164.19	21.47	-32.1	-32.7	27.1	0.00e+00	0	39	0	1088421888	38	5561
2026-01-03 02:28:40.79	164.22	21.61	-32.0	-32.6	27.2	0.00e+00	0	39	0	1094713344	38	5496
2026-01-03 02:28:41.80	164.25	21.75	-32.1	-32.7	27.1	0.00e+00	0	39	0	1099956224	38	5523
2026-01-03 02:28:42.81	164.28	21.89	-32.0	-32.7	27.1	0.00e+00	0	39	0	1106247680	38	5517
2026-01-03 02:28:43.82	164.30	22.04	-32.2	-32.8	27.1	0.00e+00	0	39	0	1111490560	38	5605
2026-01-03 02:28:44.83	164.33	22.18	-32.0	-32.7	27.2	0.00e+00	0	39	0	1116733440	38	5527
2026-01-03 02:28:45.84	164.36	22.32	-31.9	-32.5	27.3	0.00e+00	0	39	0	1123024896	38	5428
2026-01-03 02:28:46.85	164.39	22.47	-31.9	-32.5	27.3	0.00e+00	0	39	0	1128267776	38	5432
2026-01-03 02:28:47.86	164.42	22.61	-31.9	-32.5	27.3	0.00e+00	0	39	0	1134559232	38	5419
2026-01-03 02:28:48.87	164.45	22.76	-31.8	-32.4	27.4	0.00e+00	0	39	0	1139802112	38	5345
2026-01-03 02:28:49.88	164.48	22.91	-31.6	-32.2	27.6	0.00e+00	0	39	0	1145044992	36	5871
2026-01-03 02:28:50.89	164.52	23.06	-31.6	-32.3	27.5	0.00e+00	0	39	0	1151336448	36	5910
2026-01-03 02:28:51.90	164.55	23.21	-31.6	-32.3	27.5	0.00e+00	0	39	0	1156579328	36	5909
2026-01-03 02:28:52.91	164.58	23.36	-31.5	-32.2	27.6	0.00e+00	0	39	0	1162870784	36	5829
2026-01-03 02:28:53.92	164.61	23.51	-31.4	-32.0	27.7	0.00e+00	0	39	0	1168113664	36	5745
2026-01-03 02:28:54.93	164.64	23.66	-31.4	-32.1	27.7	0.00e+00	0	39	0	1174405120	36	5798
2026-01-03 02:28:55.94	164.67	23.81	-31.4	-32.0	27.7	0.00e+00	0	39	0	1179648000	36	5748
2026-01-03 02:28:56.95	164.71	23.97	-31.4	-32.0	27.7	0.00e+00	0	39	0	1185939456	36	5737
2026-01-03 02:28:57.96	164.74	24.12	-31.5	-32.1	27.6	0.00e+00	0	39	0	1191182336	36	5814
2026-01-03 02:28:58.97	164.77	24.28	-31.3	-31.9	27.8	0.00e+00	0	39	0	1196425216	36	5685
2026-01-03 02:28:59.98	164.81	24.43	-31.3	-32.0	27.8	0.00e+00	0	39	0	1202716672	36	5711
2026-01-03 02:29:00.99	164.84	24.59	-31.5	-32.1	27.7	0.00e+00	0	39	0	1207959552	36	5818
2026-01-03 02:29:02.00	164.87	24.75	-31.5	-32.2	27.6	0.00e+00	0	39	0	1214251008	36	5831
2026-01-03 02:29:03.02	164.91	24.91	-31.5	-32.2	27.6	0.00e+00	0	39	0	1219493888	36	5850
2026-01-03 02:29:04.03	164.94	25.07	-31.6	-32.2	27.6	0.00e+00	0	39	0	1224736768	36	5860
2026-01-03 02:29:05.04	164.98	25.23	-31.6	-32.2	27.6	0.00e+00	0	39	0	1231028224	36	5887
2026-01-03 02:29:06.05	165.01	25.39	-31.7	-32.3	27.5	0.00e+00	0	39	0	1236271104	36	5930
2026-01-03 02:29:07.06	165.05	25.55	-31.5	-32.2	27.6	0.00e+00	0	39	0	1242562560	36	5835
2026-01-03 02:29:08.07	165.09	25.72	-31.4	-32.0	27.8	0.00e+00	0	39	0	1247805440	36	5732
2026-01-03 02:29:09.07	165.12	25.88	-31.4	-32.0	27.7	0.00e+00	0	39	0	1253048320	36	5758
2026-01-03 02:29:10.08	165.16	26.05	-31.3	-31.9	27.9	0.00e+00	0	39	0	1259339776	36	5658
2026-01-03 02:29:11.09	165.20	26.21	-31.4	-32.0	27.7	0.00e+00	0	39	0	1264582656	36	5733
2026-01-03 02:29:12.10	165.23	26.38	-31.2	-31.9	27.9	0.00e+00	0	39	0	1270874112	36	5640
2026-01-03 02:29:13.11	165.27	26.55	-31.2	-31.8	27.8	0.00e+00	0	39	0	1276116992	36	5629
2026-01-03 02:29:14.12	165.31	26.72	-31.3	-31.9	27.9	0.00e+00	0	39	0	1282408448	36	5693
2026-01-03 02:29:15.13	165.35	26.89	-31.4	-32.0	27.8	0.00e+00	0	39	0	1287651328	36	5731
2026-01-03 02:29:16.14	165.39	27.07	-31.3	-31.9	27.9	0.00e+00	0	39	0	1292894208	36	5679
2026-01-03 02:29:17.15	165.42	27.24	-31.3	-32.0	27.8	0.00e+00	0	39	0	1299185664	36	5709
2026-01-03 02:29:18.16	165.46	27.41	-31.2	-31.8	27.9	0.00e+00	0	39	0	1304428544	36	5630
2026-01-03 02:29:19.17	165.50	27.59	-31.3	-32.0	27.8	0.00e+00	0	39	0	1310720000	36	5698
2026-01-03 02:29:20.18	165.54	27.77	-31.3	-31.9	27.8	0.00e+00	0	39	0	1315962880	36	5677
2026-01-03 02:29:21.19	165.59	27.94	-31.5	-32.1	27.7	0.00e+00	0	39	0	1321205760	36	5786
2026-01-03 02:29:22.21	165.63	28.12	-31.5	-32.1	27.7	0.00e+00	0	39	0	1327497216	36	5780
2026-01-03 02:29:23.21	165.67	28.30	-31.3	-31.9	27.8	0.00e+00	0	39	0	1332740096	36	5657
2026-01-03 02:29:24.23	165.71	28.49	-31.4	-32.0	27.8	0.00e+00	0	39	0	1339031552	36	5716
2026-01-03 02:29:25.23	165.75	28.67	-31.2	-31.9	27.8	0.00e+00	0	39	0	1344274432	36	5636
2026-01-03 02:29:26.24	165.80	28.85	-31.1	-31.7	28.0	0.00e+00	0	39	0	1349517312	36	5532
2026-01-03 02:29:27.25	165.84	29.04	-31.0	-31.6	28.0	0.00e+00	0	39	0	1355808768	36	5501
2026-01-03 02:29:28.26	165.88	29.22	-30.9	-31.5	28.2	0.00e+00	0	39	0	1361051648	36	5420
2026-01-03 02:29:29.27	165.93	29.41	-30.9	-31.6	28.1	0.00e+00	0	39	0	1367343104	36	5454
2026-01-03 02:29:30.29	165.97	29.60	-31.1	-31.7	28.0	0.00e+00	0	39	0	1372585984	36	5532
2026-01-03 02:29:31.29	166.02	29.79	-31.3	-31.9	27.9	0.00e+00	0	39	0	1378877440	36	5632
2026-01-03 02:29:32.31	166.06	29.98	-31.4	-31.9	27.8	0.00e+00	0	39	0	1384120320	36	5691
2026-01-03 02:29:33.31	166.11	30.17	-31.2	-31.8	27.9	0.00e+00	0	39	0	1390411776	36	5587
2026-01-03 02:29:34.32	166.16	30.36	-31.3	-31.9	28.0	0.00e+00	0	39	0	1395654656	36	5643
2026-01-03 02:29:35.33	166.20	30.56	-31.1	-31.7	27.9	0.00e+00	0	39	0	1400897536	36	5527
2026-01-03 02:29:36.34	166.25	30.76	-31.1	-31.7	28.1	0.00e+00	0	39	0	1407188992	36	5519
2026-01-03 02:29:37.35	166.30	30.95	-31.0	-31.6	28.0	0.00e+00	0	39	0	1412431872	36	5464
2026-01-03 02:29:38.36	166.35	31.15	-30.9	-31.5	28.2	0.00e+00	0	39	0	1418723328	36	5380
2026-01-03 02:29:39.37	166.40	31.35	-30.9	-31.5	28.1	0.00e+00	0	39	0	1423966208	36	5410
2026-01-03 02:29:40.38	166.45	31.55	-30.9	-31.5	28.1	0.00e+00	0	39	0	1429209088	36	5429
2026-01-03 02:29:41.39	166.50	31.76	-30.9	-31.5	28.1	0.00e+00	0	39	0	1435500544	36	5431
2026-01-03 02:29:42.40	166.55	31.96	-31.1	-31.7	28.1	0.00e+00	0	39	0	1440743424	36	5536
2026-01-03 02:29:43.41	166.60	32.17	-31.0	-31.7	28.0	0.00e+00	0	39	0	1447034880	36	5514
2026-01-03 02:29:44.42	166.65	32.37	-31.1	-31.7	28.1	0.00e+00	0	39	0	1452277760	36	5538
2026-01-03 02:29:45.43	166.71	32.58	-31.0	-31.6	28.1	0.00e+00	0	39	0	1457520640	36	5493
2026-01-03 02:29:46.44	166.76	32.79	-31.0	-31.6	28.1	0.00e+00	0	39	0	1463812096	36	5472
2026-01-03 02:29:47.45	166.82	33.00	-30.7	-31.4	28.2	0.00e+00	0	39	0	1469054976	36	5333
2026-01-03 02:29:48.46	166.87	33.22	-30.7	-31.3	28.3	0.00e+00	0	39	0	1475346432	34	5956
2026-01-03 02:29:49.47	166.93	33.43	-30.7	-31.4	28.3	0.00e+00	0	39	0	1480589312	34	5972
2026-01-03 02:29:50.48	166.98	33.65	-30.3	-30.9	28.6	0.00e+00	0	39	0	1486880768	34	5656
2026-01-03 02:29:51.50	167.04	33.87	-30.2	-30.7	28.8	0.00e+00	0	39	0	1492123648	34	5562
2026-01-03 02:29:52.50	167.10	34.08	-30.2	-30.8	28.7	0.00e+00	0	39	0	1498415104	34	5617
2026-01-03 02:29:53.51	167.16	34.30	-30.3	-30.9	28.6	0.00e+00	0	39	0	1503657984	34	5646
2026-01-03 02:29:54.53	167.22	34.53	-30.4	-31.0	28.5	0.00e+00	0	39	0	1508900864	34	5739
2026-01-03 02:29:55.54	167.28	34.75	-30.5	-31.1	28.5	0.00e+00	0	39	0	1515192320	34	5811
2026-01-03 02:29:56.55	167.34	34.98	-30.7	-31.4	28.3	0.00e+00	0	39	0	1520435200	34	5987
2026-01-03 02:29:57.56	167.40	35.20	-30.8	-31.4	28.3	0.00e+00	0	39	0	1526726656	34	6033
2026-01-03 02:29:58.57	167.46	35.43	-30.8	-31.5	28.2	0.00e+00	0	39	0	1531969536	34	6046
2026-01-03 02:29:59.58	167.52	35.66	-30.8	-31.4	28.2	0.00e+00	0	39	0	1537212416	34	6005
2026-01-03 02:30:00.59	167.59	35.89	-30.7	-31.3	28.3	0.00e+00	0	39	0	1543503872	34	5926
2026-01-03 02:30:01.60	167.65	36.13	-30.5	-31.2	28.4	0.00e+00	0	39	0	1548746752	34	5836
2026-01-03 02:30:02.61	167.72	36.36	-30.6	-31.2	28.4	0.00e+00	0	39	0	1555038208	34	5865
2026-01-03 02:30:03.62	167.79	36.60	-30.5	-31.1	28.4	0.00e+00	0	39	0	1560281088	34	5779
2026-01-03 02:30:04.63	167.85	36.83	-30.4	-31.0	28.5	0.00e+00	0	39	0	1565523968	34	5760
2026-01-03 02:30:05.64	167.92	37.07	-30.5	-31.1	28.5	0.00e+00	0	39	0	1571815424	34	5781
2026-01-03 02:30:06.65	167.99	37.32	-30.5	-31.1	28.4	0.00e+00	0	39	0	1577058304	34	5773
2026-01-03 02:30:07.66	168.06	37.56	-30.4	-31.0	28.6	0.00e+00	0	39	0	1583349760	34	5748
2026-01-03 02:30:08.67	168.13	37.80	-30.6	-31.2	28.4	0.00e+00	0	39	0	1588592640	34	5864
2026-01-03 02:30:09.68	168.21	38.05	-30.6	-31.3	28.4	0.00e+00	0	39	0	1594884096	34	5908
2026-01-03 02:30:10.69	168.28	38.30	-30.7	-31.3	28.3	0.00e+00	0	39	0	1600126976	34	5962
2026-01-03 02:30:11.70	168.36	38.55	-30.7	-31.4	28.3	0.00e+00	0	39	0	1606418432	34	5976
2026-01-03 02:30:12.71	168.43	38.80	-30.9	-31.6	28.2	0.00e+00	0	39	0	1611661312	34	6128
2026-01-03 02:30:13.72	168.51	39.06	-31.0	-31.7	28.1	0.00e+00	0	39	0	1616904192	34	6184
2026-01-03 02:30:14.73	168.59	39.31	-31.0	-31.6	28.1	0.00e+00	0	39	0	1623195648	34	6147
2026-01-03 02:30:15.74	168.67	39.57	-31.0	-31.7	28.1	0.00e+00	0	39	0	1628438528	34	6175
2026-01-03 02:30:16.75	168.75	39.83	-30.9	-31.5	28.2	0.00e+00	0	39	0	1634729984	34	6081
2026-01-03 02:30:17.76	168.83	40.09	-30.7	-31.3	28.3	0.00e+00	0	39	0	1639972864	34	5924
2026-01-03 02:30:18.78	168.91	40.36	-30.5	-31.2	28.5	0.00e+00	0	39	0	1645215744	34	5834
2026-01-03 02:30:19.79	169.00	40.62	-30.6	-31.2	28.4	0.00e+00	0	39	0	1651507200	34	5859
2026-01-03 02:30:20.80	169.08	40.89	-30.8	-31.4	28.3	0.00e+00	0	39	0	1656750080	34	5988
2026-01-03 02:30:21.81	169.17	41.16	-31.0	-31.6	28.2	0.00e+00	0	39	0	1663041536	34	6119
2026-01-03 02:30:22.82	169.26	41.43	-31.2	-31.8	28.0	0.00e+00	0	39	0	1668284416	34	6257
2026-01-03 02:30:23.83	169.35	41.70	-31.2	-31.9	27.9	0.00e+00	0	39	0	1673527296	34	6329
2026-01-03 02:30:24.84	169.44	41.98	-31.2	-31.8	27.9	0.00e+00	0	39	0	1679818752	34	6304
2026-01-03 02:30:25.85	169.53	42.25	-31.1	-31.7	28.0	0.00e+00	0	39	0	1685061632	34	6237
2026-01-03 02:30:26.86	169.63	42.53	-31.0	-31.7	28.1	0.00e+00	0	39	0	1691353088	34	6192
2026-01-03 02:30:27.87	169.72	42.81	-31.0	-31.7	28.1	0.00e+00	0	39	0	1696595968	34	6175
2026-01-03 02:30:28.88	169.82	43.10	-31.0	-31.7	28.1	0.00e+00	0	39	0	1702887424	34	6195
2026-01-03 02:30:29.89	169.92	43.38	-31.0	-31.7	28.2	0.00e+00	0	39	0	1708130304	34	6175
2026-01-03 02:30:30.91	170.02	43.67	-31.1	-31.7	28.1	0.00e+00	0	39	0	1714421760	34	6206
2026-01-03 02:30:31.92	170.12	43.96	-31.1	-31.7	28.0	0.00e+00	0	39	0	1719664640	34	6226
2026-01-03 02:30:32.93	170.23	44.25	-31.1	-31.7	28.1	0.00e+00	0	39	0	1724907520	34	6215
2026-01-03 02:30:33.93	170.33	44.54	-31.1	-31.7	27.9	0.00e+00	0	39	0	1731198976	34	6224
2026-01-03 02:30:34.95	170.44	44.84	-31.1	-31.7	28.1	0.00e+00	0	39	0	1736441856	34	6204
2026-01-03 02:30:35.96	170.55	45.14	-31.1	-31.7	28.0	0.00e+00	0	39	0	1742733312	34	6208
2026-01-03 02:30:36.97	170.67	45.44	-31.2	-31.8	28.0	0.00e+00	0	39	0	1747976192	34	6317
2026-01-03 02:30:37.97	170.78	45.74	-31.4	-32.1	27.8	0.00e+00	0	39	0	1753219072	34	6468
2026-01-03 02:30:38.99	170.90	46.04	-31.5	-32.2	27.7	0.00e+00	0	39	0	1759510528	34	6551
2026-01-03 02:30:40.00	171.02	46.35	-31.3	-31.9	27.9	0.00e+00	0	39	0	1764753408	34	6388
2026-01-03 02:30:41.01	171.14	46.66	-31.2	-31.8	27.9	0.00e+00	0	39	0	1771044864	34	6272
2026-01-03 02:30:42.02	171.26	46.97	-30.9	-31.5	28.2	0.00e+00	0	39	0	1776287744	34	6055
2026-01-03 02:30:43.03	171.39	47.28	-30.9	-31.5	28.2	0.00e+00	0	39	0	1781530624	34	6060
2026-01-03 02:30:44.04	171.51	47.60	-30.8	-31.4	28.2	0.00e+00	0	39	0	1787822080	34	5990
2026-01-03 02:30:45.05	171.65	47.91	-30.9	-31.5	28.3	0.00e+00	0	39	0	1793064960	34	6046
2026-01-03 02:30:46.06	171.78	48.23	-30.8	-31.5	28.2	0.00e+00	0	39	0	1799356416	34	6040
2026-01-03 02:30:47.07	171.92	48.55	-31.0	-31.6	28.1	0.00e+00	0	39	0	1804599296	34	6149
2026-01-03 02:30:48.08	172.05	48.88	-31.0	-31.7	28.0	0.00e+00	0	39	0	1810890752	34	6179
2026-01-03 02:30:49.09	172.20	49.20	-30.9	-31.4	28.2	0.00e+00	0	39	0	1816133632	34	6027
2026-01-03 02:30:50.10	172.34	49.53	-31.0	-31.6	28.1	0.00e+00	0	39	0	1821376512	34	6140
2026-01-03 02:30:51.11	172.49	49.86	-31.4	-32.0	27.8	0.00e+00	0	39	0	1827667968	34	6438
2026-01-03 02:30:52.12	172.64	50.19	-31.7	-32.4	27.6	0.00e+00	0	39	0	1832910848	34	6711
2026-01-03 02:30:53.13	172.79	50.53	-32.0	-32.5	27.4	0.00e+00	0	39	0	1839202304	36	6103
2026-01-03 02:30:54.14	172.95	50.87	-31.9	-32.5	27.4	0.00e+00	0	39	0	1844445184	36	6100
2026-01-03 02:30:55.15	173.11	51.20	-31.9	-32.6	27.3	0.00e+00	0	39	0	1849688064	36	6114
2026-01-03 02:30:56.16	173.28	51.55	-32.1	-32.7	27.3	0.00e+00	0	39	0	1855979520	36	6215
2026-01-03 02:30:57.17	173.45	51.89	-32.4	-33.1	27.1	0.00e+00	0	39	0	1861222400	36	6483
2026-01-03 02:30:58.18	173.62	52.23	-32.7	-33.4	26.8	0.00e+00	0	39	0	1867513856	36	6725
2026-01-03 02:30:59.19	173.79	52.58	-32.4	-33.1	27.0	0.00e+00	0	39	0	1872756736	38	5800
2026-01-03 02:31:00.20	173.98	52.93	-32.5	-33.1	27.0	0.00e+00	0	39	0	1877999616	38	5789
2026-01-03 02:31:01.21	174.16	53.28	-32.6	-33.3	26.8	0.00e+00	0	39	0	1884291072	38	5914
2026-01-03 02:31:02.22	174.35	53.64	-32.6	-33.2	26.9	0.00e+00	0	39	0	1889533952	38	5889
2026-01-03 02:31:03.23	174.54	54.00	-32.0	-32.7	27.3	0.00e+00	0	39	0	1895825408	38	5509
2026-01-03 02:31:04.24	174.74	54.35	-31.9	-32.5	27.5	0.00e+00	0	39	0	1901068288	38	5384
2026-01-03 02:31:05.25	174.95	54.72	-31.9	-32.6	27.4	0.00e+00	0	39	0	1907359744	38	5479
2026-01-03 02:31:06.26	175.15	55.08	-32.2	-32.9	27.2	0.00e+00	0	39	0	1912602624	38	5634
2026-01-03 02:31:07.27	175.37	55.44	-32.3	-32.9	27.1	0.00e+00	0	39	0	1918894080	38	5690
2026-01-03 02:31:08.28	175.59	55.81	-32.3	-33.0	27.0	0.00e+00	0	39	0	1924136960	38	5704
2026-01-03 02:31:09.29	175.81	56.18	-32.5	-33.2	27.0	0.00e+00	0	39	0	1929379840	38	5830
2026-01-03 02:31:10.30	176.04	56.55	-32.4	-33.0	27.1	0.00e+00	0	39	0	1935671296	38	5739
2026-01-03 02:31:11.31	176.28	56.93	-32.1	-32.8	27.3	0.00e+00	0	39	0	1940914176	38	5577
2026-01-03 02:31:12.32	176.53	57.30	-32.0	-32.7	27.3	0.00e+00	0	39	0	1947205632	38	5510
2026-01-03 02:31:13.33	176.78	57.68	-32.0	-32.7	27.3	0.00e+00	0	39	0	1952448512	38	5521
2026-01-03 02:31:14.34	177.03	58.06	-31.6	-32.2	27.7	0.00e+00	0	39	0	1957691392	36	5868
2026-01-03 02:31:15.35	177.30	58.44	-31.5	-32.1	27.8	0.00e+00	0	39	0	1963982848	36	5820
2026-01-03 02:31:16.36	177.57	58.82	-31.4	-32.0	27.8	0.00e+00	0	39	0	1969225728	36	5740
2026-01-03 02:31:17.37	177.85	59.21	-31.3	-31.9	27.8	0.00e+00	0	39	0	1975517184	36	5679
2026-01-03 02:31:18.38	178.14	59.60	-31.5	-32.1	27.7	0.00e+00	0	39	0	1980760064	36	5807
2026-01-03 02:31:19.39	178.44	59.98	-31.2	-31.8	27.9	0.00e+00	0	39	0	1986002944	36	5616
2026-01-03 02:31:20.40	178.74	60.37	-31.0	-31.6	28.0	0.00e+00	0	39	0	1992294400	36	5448
2026-01-03 02:31:21.41	179.06	60.77	-30.8	-31.4	28.0	0.00e+00	0	39	0	1997537280	36	5323
2026-01-03 02:31:22.42	179.38	61.16	-30.8	-31.4	28.1	0.00e+00	0	39	0	2003828736	34	6024
2026-01-03 02:31:23.43	179.72	61.56	-31.2	-31.9	25.9	0.00e+00	0	39	0	2009071616	34	6335
2026-01-03 02:31:24.45	180.07	61.96	-30.9	-31.6	25.0	0.00e+00	0	39	0	2015363072	34	6112
2026-01-03 02:31:25.45	180.43	62.35	-30.6	-31.2	24.7	0.00e+00	0	39	0	2020605952	34	5877
2026-01-03 02:31:26.47	180.80	62.75	-30.6	-31.3	25.2	0.00e+00	0	39	0	2026897408	34	5936
2026-01-03 02:31:27.48	181.18	63.15	-30.4	-31.1	23.8	0.00e+00	0	39	0	2032140288	34	5803
2026-01-03 02:31:28.49	181.58	63.56	-30.9	-31.5	26.1	0.00e+00	0	39	0	2037383168	34	6080
2026-01-03 02:31:29.50	181.98	63.96	-30.4	-31.1	25.3	0.00e+00	0	39	0	2043674624	34	5787
2026-01-03 02:31:30.51	182.41	64.36	-30.0	-30.6	26.0	0.00e+00	0	39	0	2048917504	34	5495
2026-01-03 02:31:31.52	182.85	64.77	-30.3	-30.9	27.2	0.00e+00	0	39	0	2055208960	34	5690
2026-01-03 02:31:32.53	183.30	65.17	-30.8	-31.5	27.0	0.00e+00	0	39	0	2060451840	34	6048
2026-01-03 02:31:33.53	183.77	65.58	-30.6	-31.3	25.4	0.00e+00	0	39	0	2065694720	34	5920
2026-01-03 02:31:34.55	184.26	65.99	-30.6	-31.3	26.9	0.00e+00	0	39	0	2071986176	34	5911
2026-01-03 02:31:35.55	184.76	66.39	-30.3	-31.0	24.3	0.00e+00	0	39	0	2077229056	34	5739
2026-01-03 02:31:36.56	185.29	66.80	-30.3	-31.0	23.1	4.69e-05	0	39	0	2083520512	34	5708
2026-01-03 02:31:37.57	185.83	67.21	-30.2	-30.9	22.5	1.17e-03	0	39	0	2088763392	34	5634
2026-01-03 02:31:38.58	186.40	67.62	-29.9	-30.6	23.1	2.20e-06	0	39	0	2094006272	34	5442
2026-01-03 02:31:39.59	186.99	68.02	-30.1	-30.7	23.3	2.24e-04	0	39	0	2100297728	34	5553
2026-01-03 02:31:40.60	187.61	68.43	-30.3	-31.0	22.9	6.80e-06	0	39	0	2105540608	34	5718
2026-01-03 02:31:41.61	188.25	68.84	-30.2	-30.9	23.0	6.06e-05	0	39	0	2111832064	34	5668
2026-01-03 02:31:42.62	188.92	69.25	-30.4	-31.0	28.6	2.17e-05	0	39	0	2117074944	34	5706
2026-01-03 02:31:43.63	189.61	69.65	-30.1	-30.8	28.7	0.00e+00	0	39	0	2123366400	34	5575
2026-01-03 02:31:44.64	190.34	70.06	-30.2	-30.8	28.7	0.00e+00	0	39	0	2128609280	34	5625
2026-01-03 02:31:45.65	191.10	70.46	-29.9	-30.5	28.9	0.00e+00	0	39	0	2134900736	34	5438
2026-01-03 02:31:46.66	191.89	70.86	-29.9	-30.4	28.9	0.00e+00	0	39	0	2140143616	34	5360
2026-01-03 02:31:47.67	192.72	71.26	-29.8	-30.4	29.0	0.00e+00	0	39	0	2145386496	32	5988
2026-01-03 02:31:48.68	193.58	71.66	-29.8	-30.3	29.0	0.00e+00	0	39	0	2151677952	32	5956
2026-01-03 02:31:49.69	194.49	72.05	-29.7	-30.3	29.1	0.00e+00	0	39	0	2156920832	32	5922
2026-01-03 02:31:50.71	195.45	72.45	-29.4	-30.0	29.2	0.00e+00	0	39	0	2163212288	32	5750
2026-01-03 02:31:51.72	196.44	72.83	-29.6	-30.2	29.1	0.00e+00	0	39	0	2168455168	32	5878
2026-01-03 02:31:52.73	197.48	73.22	-29.7	-30.3	29.0	0.00e+00	0	39	0	2173698048	32	5951
2026-01-03 02:31:53.74	198.58	73.60	-29.4	-30.0	29.2	0.00e+00	0	39	0	2179989504	32	5739
2026-01-03 02:31:54.74	199.71	73.97	-29.6	-30.2	29.1	0.00e+00	0	39	0	2185232384	32	5858
2026-01-03 02:31:55.75	200.92	74.34	-30.1	-30.7	28.7	0.00e+00	0	39	0	2191523840	32	6237
2026-01-03 02:31:56.76	202.18	74.70	-29.5	-30.1	29.2	0.00e+00	0	39	0	2196766720	32	5823
2026-01-03 02:31:57.77	203.51	75.06	-29.3	-29.8	29.2	0.00e+00	0	39	0	2202009600	32	5612
2026-01-03 02:31:58.78	204.90	75.41	-29.0	-29.6	29.4	0.00e+00	0	39	0	2208301056	32	5477
2026-01-03 02:31:59.79	206.36	75.76	-28.7	-29.3	29.6	0.00e+00	0	39	0	2213543936	30	5952
2026-01-03 02:32:00.80	207.90	76.09	-28.7	-29.3	29.6	0.00e+00	0	39	0	2219835392	30	5919
2026-01-03 02:32:01.82	209.53	76.42	-28.7	-29.2	29.7	0.00e+00	0	39	0	2225078272	30	5885
2026-01-03 02:32:02.82	211.21	76.73	-28.9	-29.5	29.6	0.00e+00	0	39	0	2231369728	30	6063
2026-01-03 02:32:03.84	213.00	77.04	-28.9	-29.5	29.5	0.00e+00	0	39	0	2236612608	30	6083
2026-01-03 02:32:04.85	214.87	77.33	-29.0	-29.6	29.5	0.00e+00	0	39	0	2241855488	30	6122
2026-01-03 02:32:05.86	216.82	77.61	-29.1	-29.7	29.5	0.00e+00	0	39	0	2248146944	30	6211
2026-01-03 02:32:06.87	218.86	77.87	-28.9	-29.5	29.6	0.00e+00	0	39	0	2253389824	30	6052
2026-01-03 02:32:07.88	220.99	78.12	-28.9	-29.5	29.6	0.00e+00	0	39	0	2259681280	30	6079
2026-01-03 02:32:08.89	223.21	78.35	-28.9	-29.5	29.6	0.00e+00	0	39	0	2264924160	30	6056
2026-01-03 02:32:09.90	225.52	78.57	-28.7	-29.3	29.7	0.00e+00	0	39	0	2270167040	30	5915
2026-01-03 02:32:10.91	227.92	78.76	-28.5	-29.0	29.8	0.00e+00	0	39	0	2276458496	30	5747
2026-01-03 02:32:11.92	230.40	78.94	-28.4	-28.9	30.0	0.00e+00	0	39	0	2281701376	30	5661
2026-01-03 02:32:12.93	232.95	79.10	-28.7	-29.3	29.7	0.00e+00	0	39	0	2287992832	30	5936
2026-01-03 02:32:13.94	235.58	79.23	-28.9	-29.5	29.5	0.00e+00	0	39	0	2293235712	30	6080
2026-01-03 02:32:14.95	238.27	79.34	-28.9	-29.5	29.5	0.00e+00	0	39	0	2298478592	30	6060
2026-01-03 02:32:15.96	241.01	79.43	-29.3	-29.9	29.2	0.00e+00	0	39	0	2304770048	30	6360
2026-01-03 02:32:16.97	243.79	79.50	-29.2	-29.8	29.3	0.00e+00	0	39	0	2310012928	30	6249
2026-01-03 02:32:17.98	246.60	79.54	-28.7	-29.3	29.6	0.00e+00	0	39	0	2316304384	30	5913
2026-01-03 02:32:18.99	249.43	79.55	-29.1	-29.8	29.5	0.00e+00	0	39	0	2321547264	30	6248
2026-01-03 02:32:20.00	252.25	79.54	-28.9	-29.6	29.6	0.00e+00	0	39	0	2327838720	30	6142
2026-01-03 02:32:21.01	255.06	79.51	-28.8	-29.4	29.7	0.00e+00	0	39	0	2333081600	30	5983
2026-01-03 02:32:22.02	257.85	79.45	-28.8	-29.3	29.6	0.00e+00	0	39	0	2339373056	30	5957
2026-01-03 02:32:23.03	260.60	79.37	-28.8	-29.4	29.4	0.00e+00	0	39	0	2344615936	30	6021
2026-01-03 02:32:24.04	263.30	79.26	-29.0	-29.6	29.5	0.00e+00	0	39	0	2349858816	30	6126
2026-01-03 02:32:25.05	265.95	79.13	-29.0	-29.5	29.2	0.00e+00	0	39	0	2356150272	30	6088
2026-01-03 02:32:26.06	268.52	78.98	-28.6	-29.2	29.7	0.00e+00	0	39	0	2361393152	30	5847
2026-01-03 02:32:27.07	271.02	78.81	-28.6	-29.1	29.7	0.00e+00	0	39	0	2367684608	30	5825
2026-01-03 02:32:28.08	273.43	78.61	-28.9	-29.5	29.4	0.00e+00	0	39	0	2372927488	30	6092
2026-01-03 02:32:29.09	275.76	78.40	-28.8	-29.3	29.7	0.00e+00	0	39	0	2378170368	30	5934
2026-01-03 02:32:30.10	278.00	78.17	-28.8	-29.5	29.5	0.00e+00	0	39	0	2384461824	30	6037
2026-01-03 02:32:31.11	280.15	77.93	-29.1	-29.8	29.4	0.00e+00	0	39	0	2389704704	30	6246
2026-01-03 02:32:32.13	282.23	77.67	-29.0	-29.5	29.6	0.00e+00	0	39	0	2395996160	30	6093
2026-01-03 02:32:33.13	284.19	77.39	-29.1	-29.7	29.5	0.00e+00	0	39	0	2401239040	30	6188
2026-01-03 02:32:34.14	286.07	77.11	-29.1	-29.6	29.4	0.00e+00	0	39	0	2406481920	30	6164
2026-01-03 02:32:35.15	287.87	76.81	-29.1	-29.8	29.5	0.00e+00	0	39	0	2412773376	30	6263
2026-01-03 02:32:36.16	289.58	76.49	-29.2	-29.7	29.2	0.00e+00	0	39	0	2418016256	30	6212
2026-01-03 02:32:37.17	291.21	76.17	-29.3	-29.9	29.4	0.00e+00	0	39	0	2424307712	30	6355
2026-01-03 02:32:38.18	292.77	75.84	-29.3	-29.8	29.4	0.00e+00	0	39	0	2429550592	30	6310
2026-01-03 02:32:39.19	294.25	75.50	-29.4	-30.1	29.3	0.00e+00	0	39	0	2435842048	30	6475
2026-01-03 02:32:40.20	295.66	75.15	-29.3	-29.9	29.3	0.00e+00	0	39	0	2441084928	30	6341
2026-01-03 02:32:41.21	297.00	74.80	-29.4	-30.0	29.2	0.00e+00	0	39	0	2447376384	30	6406
2026-01-03 02:32:42.22	298.28	74.43	-29.6	-30.2	29.2	0.00e+00	0	39	0	2452619264	30	6570
2026-01-03 02:32:43.23	299.49	74.07	-29.6	-30.2	28.9	0.00e+00	0	39	0	2457862144	30	6568
2026-01-03 02:32:44.24	300.65	73.69	-29.6	-30.2	29.1	0.00e+00	0	39	0	2464153600	30	6583
2026-01-03 02:32:45.25	301.76	73.31	-29.6	-30.2	29.0	0.00e+00	0	39	0	2469396480	30	6597
2026-01-03 02:32:46.27	302.82	72.93	-29.7	-30.3	29.1	0.00e+00	0	39	0	2475687936	30	6690
2026-01-03 02:32:47.27	303.82	72.54	-30.0	-30.7	28.8	0.00e+00	0	39	0	2480930816	32	6191
2026-01-03 02:32:48.28	304.77	72.15	-30.2	-30.8	28.6	0.00e+00	0	39	0	2486173696	32	6256
2026-01-03 02:32:49.29	305.69	71.76	-30.1	-30.7	28.7	0.00e+00	0	39	0	2492465152	32	6199
2026-01-03 02:32:50.30	306.57	71.37	-30.4	-31.1	28.6	0.00e+00	0	39	0	2497708032	32	6473
2026-01-03 02:32:51.31	307.40	70.97	-30.2	-30.9	28.6	0.00e+00	0	39	0	2503999488	32	6327
2026-01-03 02:32:52.32	308.20	70.57	-29.6	-30.2	29.1	0.00e+00	0	39	0	2509242368	32	5879
2026-01-03 02:32:53.33	308.97	70.16	-29.5	-30.0	29.2	0.00e+00	0	39	0	2514485248	32	5746
2026-01-03 02:32:54.34	309.70	69.76	-29.9	-30.4	28.8	0.00e+00	0	39	0	2520776704	32	6005
2026-01-03 02:32:55.35	310.41	69.36	-30.3	-31.0	28.6	0.00e+00	0	39	0	2526019584	32	6391
2026-01-03 02:32:56.36	311.08	68.95	-30.3	-30.9	28.6	0.00e+00	0	39	0	2532311040	32	6354
2026-01-03 02:32:57.37	311.73	68.54	-30.3	-31.0	28.5	0.00e+00	0	39	0	2537553920	32	6418
2026-01-03 02:32:58.38	312.35	68.14	-30.2	-30.7	28.7	0.00e+00	0	39	0	2543845376	32	6209
2026-01-03 02:32:59.39	312.94	67.73	-30.4	-31.0	28.6	0.00e+00	0	39	0	2549088256	32	6392
2026-01-03 02:33:00.40	313.52	67.32	-30.3	-30.9	28.6	0.00e+00	0	39	0	2555379712	32	6333
2026-01-03 02:33:01.41	314.07	66.92	-30.2	-30.9	28.6	0.00e+00	0	39	0	2560622592	32	6347
2026-01-03 02:33:02.42	314.60	66.51	-30.4	-31.1	28.6	0.00e+00	0	39	0	2565865472	32	6470
2026-01-03 02:33:03.43	315.11	66.10	-30.4	-31.0	28.5	0.00e+00	0	39	0	2572156928	32	6431
2026-01-03 02:33:04.44	315.60	65.70	-30.1	-30.7	28.7	0.00e+00	0	39	0	2577399808	32	6222
2026-01-03 02:33:05.45	316.08	65.29	-30.1	-30.6	28.7	0.00e+00	0	39	0	2583691264	32	6161
2026-01-03 02:33:06.46	316.54	64.88	-30.3	-30.8	28.6	0.00e+00	0	39	0	2588934144	32	6275
2026-01-03 02:33:07.47	316.98	64.48	-30.4	-31.0	28.4	0.00e+00	0	39	0	2594177024	32	6407
2026-01-03 02:33:08.48	317.40	64.08	-30.3	-30.8	28.4	0.00e+00	0	39	0	2600468480	32	6288
2026-01-03 02:33:09.49	317.82	63.67	-30.6	-31.2	28.5	0.00e+00	0	39	0	2605711360	32	6595
2026-01-03 02:33:10.50	318.21	63.27	-30.6	-31.1	28.4	0.00e+00	0	39	0	2612002816	32	6506
2026-01-03 02:33:11.52	318.60	62.87	-30.6	-31.3	28.4	0.00e+00	0	39	0	2617245696	32	6647
2026-01-03 02:33:12.53	318.98	62.47	-30.6	-31.3	28.3	0.00e+00	0	39	0	2622488576	32	6632
2026-01-03 02:33:13.54	319.34	62.07	-30.8	-31.3	28.2	0.00e+00	0	39	0	2628780032	32	6669
2026-01-03 02:33:14.55	319.69	61.68	-31.0	-31.6	28.1	0.00e+00	0	39	0	2634022912	34	6148
2026-01-03 02:33:15.56	320.02	61.28	-31.0	-31.6	28.1	0.00e+00	0	39	0	2640314368	34	6173
2026-01-03 02:33:16.57	320.35	60.89	-31.0	-31.5	28.1	0.00e+00	0	39	0	2645557248	34	6092
2026-01-03 02:33:17.58	320.67	60.50	-31.1	-31.6	28.0	0.00e+00	0	39	0	2651848704	34	6157
2026-01-03 02:33:18.59	320.98	60.11	-31.3	-32.0	27.8	0.00e+00	0	39	0	2657091584	34	6427
2026-01-03 02:33:19.60	321.28	59.72	-31.5	-32.1	27.7	0.00e+00	0	39	0	2662334464	34	6513
2026-01-03 02:33:20.61	321.57	59.33	-31.4	-32.1	27.7	0.00e+00	0	39	0	2668625920	34	6537
2026-01-03 02:33:21.62	321.85	58.95	-31.4	-32.0	27.8	0.00e+00	0	39	0	2673868800	34	6463
2026-01-03 02:33:22.63	322.13	58.56	-31.4	-31.9	27.8	0.00e+00	0	39	0	2680160256	34	6351
2026-01-03 02:33:23.64	322.39	58.18	-31.4	-32.1	27.8	0.00e+00	0	39	0	2685403136	34	6502
2026-01-03 02:33:24.65	322.65	57.80	-31.4	-32.1	27.8	0.00e+00	0	39	0	2691694592	34	6488
2026-01-03 02:33:25.66	322.90	57.43	-31.4	-32.0	27.8	0.00e+00	0	39	0	2696937472	34	6440
2026-01-03 02:33:26.67	323.15	57.05	-31.7	-32.3	27.6	0.00e+00	0	39	0	2702180352	34	6690
2026-01-03 02:33:27.68	323.39	56.68	-32.1	-32.7	27.3	0.00e+00	0	39	0	2708471808	36	6203
2026-01-03 02:33:28.69	323.62	56.31	-32.2	-33.0	27.1	0.00e+00	0	39	0	2713714688	36	6395
2026-01-03 02:33:29.70	323.85	55.94	-32.0	-32.7	27.2	0.00e+00	0	39	0	2720006144	36	6187
2026-01-03 02:33:30.71	324.07	55.57	-31.7	-32.3	27.5	0.00e+00	0	39	0	2725249024	36	5960
2026-01-03 02:33:31.73	324.29	55.20	-31.8	-32.4	27.4	0.00e+00	0	39	0	2730491904	36	5992
2026-01-03 02:33:32.74	324.50	54.84	-32.2	-32.8	26.9	0.00e+00	0	39	0	2736783360	36	6273
2026-01-03 02:33:33.75	324.70	54.48	-32.3	-32.9	26.9	0.00e+00	0	39	0	2742026240	36	6328
2026-01-03 02:33:34.76	324.90	54.12	-32.2	-32.9	27.0	0.00e+00	0	39	0	2748317696	36	6336
2026-01-03 02:33:35.77	325.10	53.77	-32.0	-32.7	27.1	0.00e+00	0	39	0	2753560576	36	6218
2026-01-03 02:33:36.78	325.29	53.41	-31.8	-32.4	27.5	0.00e+00	0	39	0	2759852032	36	5986
2026-01-03 02:33:37.79	325.47	53.06	-32.2	-32.8	27.2	0.00e+00	0	39	0	2765094912	36	6285
2026-01-03 02:33:38.80	325.65	52.71	-32.5	-33.1	27.0	0.00e+00	0	39	0	2770337792	36	6468
2026-01-03 02:33:39.81	325.83	52.36	-32.0	-32.6	27.4	0.00e+00	0	39	0	2776629248	36	6149
2026-01-03 02:33:40.82	326.00	52.02	-31.8	-32.4	27.5	0.00e+00	0	39	0	2781872128	36	5982
2026-01-03 02:33:41.83	326.17	51.67	-31.3	-31.8	27.9	0.00e+00	0	39	0	2788163584	36	5601
2026-01-03 02:33:42.84	326.34	51.33	-31.4	-32.1	27.7	0.00e+00	0	39	0	2793406464	36	5781
2026-01-03 02:33:43.85	326.50	51.00	-31.4	-32.1	27.7	0.00e+00	0	39	0	2798649344	36	5825
2026-01-03 02:33:44.86	326.66	50.66	-31.6	-32.1	27.7	0.00e+00	0	39	0	2804940800	36	5817
2026-01-03 02:33:45.87	326.82	50.32	-31.6	-32.3	27.7	0.00e+00	0	39	0	2810183680	36	5935
2026-01-03 02:33:46.88	326.97	49.99	-31.8	-32.4	27.5	0.00e+00	0	39	0	2816475136	36	6021
2026-01-03 02:33:47.89	327.12	49.66	-31.7	-32.5	27.6	0.00e+00	0	39	0	2821718016	36	6052
2026-01-03 02:33:48.90	327.26	49.34	-31.5	-32.1	27.7	0.00e+00	0	39	0	2826960896	36	5788
2026-01-03 02:33:49.91	327.40	49.01	-31.1	-31.8	28.2	0.00e+00	0	39	0	2833252352	36	5603
2026-01-03 02:33:50.92	327.54	48.69	-31.1	-31.7	28.1	0.00e+00	0	39	0	2838495232	36	5561
2026-01-03 02:33:51.93	327.68	48.37	-31.1	-31.7	28.1	0.00e+00	0	39	0	2844786688	36	5563
2026-01-03 02:33:52.94	327.82	48.05	-31.3	-31.9	27.9	0.00e+00	0	39	0	2850029568	36	5686
2026-01-03 02:33:53.95	327.95	47.73	-31.5	-32.2	27.8	0.00e+00	0	39	0	2856321024	36	5845
2026-01-03 02:33:54.96	328.08	47.42	-31.6	-32.2	27.7	0.00e+00	0	39	0	2861563904	36	5868
2026-01-03 02:33:55.97	328.20	47.10	-31.7	-32.3	27.7	0.00e+00	0	39	0	2867855360	36	5962
2026-01-03 02:33:56.98	328.33	46.79	-31.6	-32.2	27.8	0.00e+00	0	39	0	2873098240	36	5830
2026-01-03 02:33:57.99	328.45	46.49	-31.3	-32.1	27.8	0.00e+00	0	39	0	2878341120	36	5768
2026-01-03 02:33:59.00	328.57	46.18	-31.2	-31.8	28.0	0.00e+00	0	39	0	2884632576	36	5579
2026-01-03 02:34:00.01	328.69	45.88	-31.0	-31.5	28.2	0.00e+00	0	39	0	2889875456	36	5438
2026-01-03 02:34:01.02	328.80	45.58	-31.0	-31.7	28.2	0.00e+00	0	39	0	2896166912	36	5509
2026-01-03 02:34:02.03	328.91	45.28	-31.0	-31.6	28.2	0.00e+00	0	39	0	2901409792	36	5441
2026-01-03 02:34:03.04	329.02	44.98	-30.9	-31.6	28.2	0.00e+00	0	39	0	2906652672	36	5487
2026-01-03 02:34:04.05	329.13	44.68	-30.9	-31.5	28.2	0.00e+00	0	39	0	2912944128	36	5408
2026-01-03 02:34:05.06	329.24	44.39	-31.1	-31.8	28.1	0.00e+00	0	39	0	2918187008	36	5568
2026-01-03 02:34:06.07	329.35	44.10	-31.0	-31.6	28.1	0.00e+00	0	39	0	2924478464	36	5449
2026-01-03 02:34:07.08	329.45	43.81	-31.2	-31.7	28.1	0.00e+00	0	39	0	2929721344	36	5532
2026-01-03 02:34:08.09	329.55	43.52	-31.2	-31.9	28.0	0.00e+00	0	39	0	2934964224	36	5655
2026-01-03 02:34:09.10	329.65	43.24	-31.2	-31.9	28.0	0.00e+00	0	39	0	2941255680	36	5675
2026-01-03 02:34:10.11	329.75	42.96	-31.1	-31.7	28.1	0.00e+00	0	39	0	2946498560	36	5523
2026-01-03 02:34:11.12	329.85	42.68	-31.0	-31.5	28.2	0.00e+00	0	39	0	2952790016	36	5435
2026-01-03 02:34:12.13	329.94	42.40	-30.8	-31.4	28.3	0.00e+00	0	39	0	2958032896	36	5330
2026-01-03 02:34:13.14	330.03	42.12	-30.6	-31.2	28.3	0.00e+00	0	39	0	2964324352	34	5847
2026-01-03 02:34:14.15	330.13	41.85	-30.6	-31.2	28.4	0.00e+00	0	39	0	2969567232	34	5829
2026-01-03 02:34:15.16	330.22	41.57	-30.5	-31.1	28.4	0.00e+00	0	39	0	2975858688	34	5774
2026-01-03 02:34:16.18	330.31	41.30	-30.5	-31.0	28.5	0.00e+00	0	39	0	2981101568	34	5743
2026-01-03 02:34:17.19	330.39	41.03	-30.4	-31.0	28.5	0.00e+00	0	39	0	2986344448	34	5720
2026-01-03 02:34:18.19	330.48	40.77	-30.3	-30.9	28.6	0.00e+00	0	39	0	2992635904	34	5655
2026-01-03 02:34:19.21	330.57	40.50	-30.4	-31.0	28.5	0.00e+00	0	39	0	2997878784	34	5716
2026-01-03 02:34:20.22	330.65	40.24	-30.4	-30.9	28.6	0.00e+00	0	39	0	3004170240	34	5688
2026-01-03 02:34:21.23	330.73	39.98	-30.4	-31.1	28.5	0.00e+00	0	39	0	3009413120	34	5819
2026-01-03 02:34:22.23	330.81	39.72	-30.6	-31.1	28.4	0.00e+00	0	39	0	3014656000	34	5796
2026-01-03 02:34:23.24	330.89	39.46	-30.5	-31.1	28.5	0.00e+00	0	39	0	3020947456	34	5769
2026-01-03 02:34:24.26	330.97	39.20	-30.6	-31.2	28.3	0.00e+00	0	39	0	3026190336	34	5842
2026-01-03 02:34:25.27	331.05	38.95	-30.6	-31.2	28.4	0.00e+00	0	39	0	3032481792	34	5840
2026-01-03 02:34:26.28	331.13	38.70	-30.7	-31.2	28.4	0.00e+00	0	39	0	3037724672	34	5878
2026-01-03 02:34:27.29	331.20	38.45	-30.6	-31.2	28.3	0.00e+00	0	39	0	3042967552	34	5831
2026-01-03 02:34:28.30	331.27	38.20	-30.6	-31.1	28.4	0.00e+00	0	39	0	3049259008	34	5812
2026-01-03 02:34:29.31	331.35	37.95	-30.6	-31.1	28.4	0.00e+00	0	39	0	3054501888	34	5822
2026-01-03 02:34:30.32	331.42	37.71	-30.6	-31.1	28.4	0.00e+00	0	39	0	3060793344	34	5818
2026-01-03 02:34:31.33	331.49	37.47	-30.5	-31.0	28.5	0.00e+00	0	39	0	3066036224	34	5748
2026-01-03 02:34:32.34	331.56	37.22	-30.5	-31.1	28.5	0.00e+00	0	39	0	3072327680	34	5781
2026-01-03 02:34:33.35	331.63	36.98	-30.6	-31.1	28.4	0.00e+00	0	39	0	3077570560	34	5828
2026-01-03 02:34:34.36	331.70	36.75	-30.6	-31.3	28.4	0.00e+00	0	39	0	3083862016	34	5919
2026-01-03 02:34:35.37	331.77	36.51	-30.7	-31.4	28.3	0.00e+00	0	39	0	3089104896	34	5986
2026-01-03 02:34:36.38	331.83	36.28	-30.6	-31.3	28.4	0.00e+00	0	39	0	3094347776	34	5952
2026-01-03 02:34:37.39	331.90	36.04	-30.7	-31.4	28.3	0.00e+00	0	39	0	3100639232	34	6007
2026-01-03 02:34:38.40	331.96	35.81	-30.8	-31.5	28.3	0.00e+00	0	39	0	3105882112	34	6065
2026-01-03 02:34:39.41	332.03	35.58	-30.8	-31.5	28.2	0.00e+00	0	39	0	3112173568	34	6064
2026-01-03 02:34:40.42	332.09	35.35	-30.9	-31.6	28.1	0.00e+00	0	39	0	3117416448	34	6118
2026-01-03 02:34:41.43	332.15	35.13	-30.8	-31.5	28.3	0.00e+00	0	39	0	3122659328	34	6076
2026-01-03 02:34:42.44	332.21	34.90	-30.8	-31.3	28.3	0.00e+00	0	39	0	3128950784	34	5948
2026-01-03 02:34:43.45	332.27	34.68	-30.8	-31.4	28.3	0.00e+00	0	39	0	3134193664	34	5983
2026-01-03 02:34:44.46	332.33	34.46	-30.9	-31.4	28.2	0.00e+00	0	39	0	3140485120	34	6026
2026-01-03 02:34:45.47	332.39	34.24	-30.9	-31.4	28.2	0.00e+00	0	39	0	3145728000	34	6018
2026-01-03 02:34:46.48	332.45	34.02	-30.9	-31.4	28.2	0.00e+00	0	39	0	3150970880	34	6009
2026-01-03 02:34:47.49	332.51	33.80	-30.8	-31.3	28.2	0.00e+00	0	39	0	3157262336	34	5962
2026-01-03 02:34:48.50	332.57	33.59	-30.7	-31.4	28.2	0.00e+00	0	39	0	3162505216	34	6008
2026-01-03 02:34:49.51	332.62	33.37	-30.7	-31.3	28.4	0.00e+00	0	39	0	3168796672	34	5939
2026-01-03 02:34:50.52	332.68	33.16	-30.8	-31.3	28.2	0.00e+00	0	39	0	3174039552	34	5949
2026-01-03 02:34:51.53	332.73	32.95	-30.6	-31.2	28.3	0.00e+00	0	39	0	3180331008	34	5856
2026-01-03 02:34:52.54	332.79	32.74	-30.7	-31.3	28.3	0.00e+00	0	39	0	3185573888	34	5955
2026-01-03 02:34:53.55	332.84	32.53	-30.6	-31.3	28.3	0.00e+00	0	39	0	3191865344	34	5939
2026-01-03 02:34:54.56	332.89	32.32	-30.8	-31.5	28.2	0.00e+00	0	39	0	3197108224	34	6050
2026-01-03 02:34:55.57	332.95	32.12	-30.9	-31.6	28.1	0.00e+00	0	39	0	3202351104	34	6149
2026-01-03 02:34:56.58	333.00	31.91	-30.8	-31.5	28.2	0.00e+00	0	39	0	3208642560	34	6040
2026-01-03 02:34:57.59	333.05	31.71	-31.0	-31.7	28.0	0.00e+00	0	39	0	3213885440	34	6244
2026-01-03 02:34:58.60	333.10	31.51	-30.8	-31.5	28.2	0.00e+00	0	39	0	3220176896	34	6080
2026-01-03 02:34:59.61	333.15	31.31	-31.0	-31.7	28.0	0.00e+00	0	39	0	3225419776	34	6186
2026-01-03 02:35:00.62	333.20	31.11	-31.1	-31.8	27.9	0.00e+00	0	39	0	3230662656	34	6257
2026-01-03 02:35:01.63	333.25	30.91	-31.1	-31.8	27.9	0.00e+00	0	39	0	3236954112	34	6291
2026-01-03 02:35:02.64	333.30	30.72	-31.0	-31.5	28.1	0.00e+00	0	39	0	3242196992	34	6069
2026-01-03 02:35:03.65	333.34	30.52	-31.1	-31.6	28.0	0.00e+00	0	39	0	3248488448	34	6147
2026-01-03 02:35:04.66	333.39	30.33	-31.0	-31.6	28.0	0.00e+00	0	39	0	3253731328	34	6115
2026-01-03 02:35:05.67	333.44	30.14	-31.0	-31.6	28.0	0.00e+00	0	39	0	3258974208	34	6128
2026-01-03 02:35:06.68	333.48	29.95	-31.0	-31.6	28.0	0.00e+00	0	39	0	3265265664	34	6131
2026-01-03 02:35:07.69	333.53	29.76	-31.0	-31.6	28.0	0.00e+00	0	39	0	3270508544	34	6119
2026-01-03 02:35:08.70	333.57	29.57	-31.2	-31.7	27.9	0.00e+00	0	39	0	3276800000	34	6219
2026-01-03 02:35:09.71	333.62	29.38	-31.2	-31.7	28.0	0.00e+00	0	39	0	3282042880	34	6225
2026-01-03 02:35:10.72	333.66	29.20	-31.2	-31.7	27.8	0.00e+00	0	39	0	3288334336	34	6240
2026-01-03 02:35:11.74	333.71	29.01	-31.1	-31.7	28.0	0.00e+00	0	39	0	3293577216	34	6177
2026-01-03 02:35:12.73	333.75	28.83	-31.1	-31.6	28.0	0.00e+00	0	39	0	3298820096	34	6154
2026-01-03 02:35:13.74	333.79	28.65	-31.2	-31.8	27.9	0.00e+00	0	39	0	3305111552	34	6257
2026-01-03 02:35:14.75	333.84	28.47	-31.0	-31.6	28.0	0.00e+00	0	39	0	3310354432	34	6116
2026-01-03 02:35:15.76	333.88	28.29	-31.1	-31.6	28.0	0.00e+00	0	39	0	3316645888	34	6164
2026-01-03 02:35:16.77	333.92	28.11	-31.0	-31.5	28.1	0.00e+00	0	39	0	3321888768	34	6087
2026-01-03 02:35:17.78	333.96	27.93	-31.1	-31.7	27.9	0.00e+00	0	39	0	3327131648	34	6200
2026-01-03 02:35:18.78	334.00	27.75	-31.2	-31.8	27.8	0.00e+00	0	39	0	3333423104	34	6268
2026-01-03 02:35:19.79	334.04	27.58	-31.2	-31.9	27.9	0.00e+00	0	39	0	3338665984	34	6351
2026-01-03 02:35:20.80	334.08	27.40	-31.1	-31.8	27.9	0.00e+00	0	39	0	3344957440	34	6272
2026-01-03 02:35:21.81	334.12	27.23	-31.0	-31.6	27.8	0.00e+00	0	39	0	3350200320	34	6145
2026-01-03 02:35:22.82	334.16	27.06	-31.1	-31.8	27.9	0.00e+00	0	40	0	3355443200	34	6264
2026-01-03 02:35:23.83	334.20	26.89	-31.2	-31.8	27.9	0.00e+00	0	39	0	3361734656	34	6246
2026-01-03 02:35:24.84	334.24	26.72	-31.1	-31.7	28.0	0.00e+00	0	39	0	3366977536	34	6174
2026-01-03 02:35:25.85	334.28	26.55	-31.1	-31.7	27.9	0.00e+00	0	39	0	3373268992	34	6177
2026-01-03 02:35:26.86	334.32	26.38	-31.1	-31.7	27.9	0.00e+00	0	39	0	3378511872	34	6200
2026-01-03 02:35:27.87	334.35	26.21	-31.1	-31.7	27.9	0.00e+00	0	40	0	3384803328	34	6189
2026-01-03 02:35:28.88	334.39	26.05	-31.0	-31.6	28.0	0.00e+00	0	39	0	3390046208	34	6130
2026-01-03 02:35:29.89	334.43	25.88	-31.2	-31.7	27.9	0.00e+00	0	39	0	3396337664	34	6241
2026-01-03 02:35:30.90	334.46	25.72	-31.1	-31.7	27.9	0.00e+00	0	39	0	3401580544	34	6185
2026-01-03 02:35:31.91	334.50	25.56	-31.2	-31.7	27.9	0.00e+00	0	39	0	3406823424	34	6223
2026-01-03 02:35:32.92	334.54	25.39	-31.2	-31.7	27.9	0.00e+00	0	39	0	3413114880	34	6210
2026-01-03 02:35:33.94	334.57	25.23	-31.3	-31.8	27.8	0.00e+00	0	39	0	3418357760	34	6281
2026-01-03 02:35:34.94	334.61	25.07	-31.3	-31.8	27.7	0.00e+00	0	39	0	3424649216	34	6291
2026-01-03 02:35:35.95	334.64	24.91	-31.4	-31.9	27.7	0.00e+00	0	39	0	3429892096	34	6361
2026-01-03 02:35:36.96	334.68	24.76	-31.5	-32.1	27.6	0.00e+00	0	39	0	3435134976	34	6482
2026-01-03 02:35:37.97	334.71	24.60	-31.4	-31.9	27.8	0.00e+00	0	40	0	3441426432	34	6371
2026-01-03 02:35:38.98	334.74	24.44	-31.5	-32.0	27.6	0.00e+00	0	40	0	3446669312	34	6439
2026-01-03 02:35:39.99	334.78	24.29	-31.6	-32.2	27.6	0.00e+00	0	39	0	3452960768	34	6557
2026-01-03 02:35:41.00	334.81	24.13	-31.6	-32.2	27.5	0.00e+00	0	39	0	3458203648	34	6544
2026-01-03 02:35:42.02	334.84	23.98	-31.8	-32.4	27.4	0.00e+00	0	39	0	3463446528	36	5967
2026-01-03 02:35:43.03	334.88	23.83	-31.7	-32.3	27.4	0.00e+00	0	39	0	3469737984	36	5917
2026-01-03 02:35:44.03	334.91	23.68	-31.7	-32.3	27.4	0.00e+00	0	39	0	3474980864	36	5928
2026-01-03 02:35:45.05	334.94	23.52	-31.8	-32.4	27.4	0.00e+00	0	39	0	3481272320	36	5981
2026-01-03 02:35:46.06	334.97	23.37	-31.8	-32.4	27.3	0.00e+00	0	39	0	3486515200	36	6014
2026-01-03 02:35:47.07	335.01	23.22	-31.7	-32.3	27.4	0.00e+00	0	40	0	3492806656	36	5945
2026-01-03 02:35:48.07	335.04	23.08	-31.8	-32.4	27.4	0.00e+00	0	39	0	3498049536	36	5980
2026-01-03 02:35:49.09	335.07	22.93	-32.0	-32.6	27.2	0.00e+00	0	39	0	3504340992	36	6132
2026-01-03 02:35:50.10	335.10	22.78	-31.8	-32.4	27.3	0.00e+00	0	39	0	3509583872	36	5990
2026-01-03 02:35:51.11	335.13	22.64	-31.9	-32.5	27.3	0.00e+00	0	39	0	3514826752	36	6056
2026-01-03 02:35:52.12	335.16	22.49	-32.0	-32.5	27.3	0.00e+00	0	40	0	3521118208	36	6088
2026-01-03 02:35:53.13	335.19	22.35	-31.9	-32.4	27.3	0.00e+00	0	39	0	3526361088	36	6027
2026-01-03 02:35:54.13	335.22	22.21	-31.9	-32.5	27.2	0.00e+00	0	39	0	3532652544	36	6066
2026-01-03 02:35:55.15	335.25	22.06	-32.0	-32.7	27.1	0.00e+00	0	39	0	3537895424	36	6206
2026-01-03 02:35:56.15	335.28	21.92	-32.2	-32.9	27.1	0.00e+00	0	39	0	3543138304	36	6359
2026-01-03 02:35:57.17	335.31	21.78	-32.1	-32.7	27.0	0.00e+00	0	39	0	3549429760	36	6192
2026-01-03 02:35:58.18	335.34	21.64	-31.9	-32.7	27.2	0.00e+00	0	39	0	3554672640	36	6180
2026-01-03 02:35:59.19	335.37	21.50	-32.1	-32.6	27.1	0.00e+00	0	39	0	3560964096	36	6169
2026-01-03 02:36:00.20	335.40	21.36	-32.1	-32.8	27.1	0.00e+00	0	40	0	3566206976	36	6258
2026-01-03 02:36:01.21	335.42	21.22	-32.2	-32.8	27.0	0.00e+00	0	39	0	3571449856	36	6284
2026-01-03 02:36:02.22	335.45	21.09	-32.2	-32.7	27.0	0.00e+00	0	39	0	3577741312	36	6238
2026-01-03 02:36:03.23	335.48	20.95	-32.2	-32.7	27.0	0.00e+00	0	40	0	3582984192	36	6230
2026-01-03 02:36:04.24	335.51	20.81	-32.2	-32.7	27.0	0.00e+00	0	39	0	3589275648	36	6237
2026-01-03 02:36:05.25	335.54	20.68	-32.4	-32.9	26.8	0.00e+00	0	39	0	3594518528	36	6379
