passes_logs/2026/01/03/R4.6S_Anadyr/R4.6S_Anadyr__20260103_160032_AQUA_rec.log

#Pass ID: 20260103_160032_AQUA
#Satellite: AQUA
#Configuration: AQUA
#almurnet v.1.7.20251203
#Start time: 2026-01-03 16:00:33

#Version: 2.2.20231116
#Station: R4.6S_Anadyr
#Location: 177.4865 lon 64.73178 lat
#TLE: 1 27424U 02022A   25365.92641127  .00002078  00000+0  42628-3 0  9999
#TLE: 2 27424  98.4058 327.1196 0001962  94.7781 340.6230 14.61783896258835

#Time	Az	El	Level	Level2	SNR	BER	BlckErr	Temp	State	Recorded	gain1	gain2
2026-01-03 16:00:33.82	19.60	0.07	-51.0	-66.2	3.5	1.51e+00	0	40	104	1540358144	60	73481
2026-01-03 16:00:34.83	19.62	0.13	-51.8	-69.6	3.5	3.02e+01	0	40	104	0	60	116489
2026-01-03 16:00:35.84	19.64	0.20	-51.9	-69.7	3.5	3.02e+01	0	40	104	0	60	117011
2026-01-03 16:00:36.85	19.65	0.26	-52.2	-70.1	3.5	3.02e+01	0	40	104	0	60	123368
2026-01-03 16:00:37.86	19.67	0.32	-52.6	-70.4	3.5	3.02e+01	0	40	104	0	60	127635
2026-01-03 16:00:38.87	19.69	0.38	-52.3	-70.1	3.5	3.02e+01	0	40	104	0	60	123216
2026-01-03 16:00:39.87	19.71	0.44	-51.3	-69.1	3.5	3.02e+01	0	40	104	0	60	110135
2026-01-03 16:00:40.88	19.72	0.51	-51.0	-68.9	3.5	3.02e+01	0	40	104	0	60	106739
2026-01-03 16:00:41.89	19.74	0.57	-50.7	-68.5	3.5	3.02e+01	0	40	104	0	60	102523
2026-01-03 16:00:42.90	19.76	0.63	-50.6	-68.4	3.5	3.02e+01	0	40	104	0	60	101105
2026-01-03 16:00:43.91	19.78	0.69	-50.5	-68.3	3.5	3.02e+01	0	40	104	0	60	99820
2026-01-03 16:00:44.92	19.79	0.76	-50.4	-68.2	3.5	3.02e+01	0	40	104	0	60	99125
2026-01-03 16:00:45.93	19.81	0.82	-50.2	-68.1	3.5	3.02e+01	0	40	104	0	60	97907
2026-01-03 16:00:46.94	19.83	0.88	-50.2	-68.0	3.5	3.02e+01	0	40	104	0	60	96840
2026-01-03 16:00:47.95	19.85	0.95	-50.1	-68.0	3.5	3.02e+01	0	40	104	0	60	96413
2026-01-03 16:00:48.96	19.86	1.01	-49.9	-67.8	3.5	3.02e+01	0	40	104	0	60	94801
2026-01-03 16:00:49.97	19.88	1.08	-49.8	-67.6	3.5	3.02e+01	0	40	104	0	60	92157
2026-01-03 16:00:50.97	19.90	1.14	-49.7	-67.5	3.5	3.02e+01	0	40	104	0	60	91016
2026-01-03 16:00:51.98	19.92	1.20	-49.5	-67.0	3.5	3.02e+01	0	40	104	0	60	85699
2026-01-03 16:00:52.99	19.94	1.27	-49.0	-66.9	3.5	3.02e+01	0	40	104	0	60	84810
2026-01-03 16:00:54.00	19.95	1.33	-49.0	-66.6	3.5	3.02e+01	0	40	104	0	60	81981
2026-01-03 16:00:55.01	19.97	1.40	-49.0	-66.7	3.5	3.02e+01	0	40	104	0	60	83204
2026-01-03 16:00:56.02	19.99	1.46	-49.0	-66.7	3.5	3.02e+01	0	40	104	0	60	83216
2026-01-03 16:00:57.03	20.01	1.53	-49.0	-66.6	3.5	3.02e+01	0	40	104	0	60	82323
2026-01-03 16:00:58.04	20.03	1.59	-49.0	-66.5	3.5	3.02e+01	0	40	104	0	60	81489
2026-01-03 16:00:59.05	20.05	1.66	-49.0	-66.6	3.5	3.02e+01	0	40	104	0	60	82041
2026-01-03 16:01:00.06	20.07	1.72	-49.0	-66.5	3.5	3.02e+01	0	40	104	0	60	81438
2026-01-03 16:01:01.07	20.08	1.79	-49.0	-66.5	3.5	3.02e+01	0	40	104	0	60	81242
2026-01-03 16:01:02.08	20.10	1.85	-49.0	-66.4	3.5	3.02e+01	0	40	104	0	60	80658
2026-01-03 16:01:03.09	20.12	1.92	-48.9	-66.5	3.5	3.02e+01	0	40	104	0	60	81623
2026-01-03 16:01:04.10	20.14	1.99	-48.9	-66.6	3.5	3.02e+01	0	40	104	0	60	81987
2026-01-03 16:01:05.11	20.16	2.05	-48.9	-66.5	3.5	3.02e+01	0	40	104	0	60	81537
2026-01-03 16:01:06.12	20.18	2.12	-48.9	-66.5	3.5	3.02e+01	0	40	104	0	60	80928
2026-01-03 16:01:07.13	20.20	2.19	-48.9	-66.5	3.5	3.02e+01	0	40	104	0	60	81172
2026-01-03 16:01:08.14	20.22	2.25	-49.0	-66.4	3.5	3.02e+01	0	40	104	0	60	80586
2026-01-03 16:01:09.15	20.24	2.32	-48.9	-66.5	3.5	3.02e+01	0	40	104	0	60	81365
2026-01-03 16:01:10.16	20.25	2.39	-49.0	-66.8	3.5	3.02e+01	0	40	104	0	60	83809
2026-01-03 16:01:11.17	20.27	2.45	-49.0	-66.7	3.5	3.02e+01	0	40	104	0	60	83561
2026-01-03 16:01:12.18	20.29	2.52	-49.0	-65.8	3.5	3.02e+01	0	40	104	0	60	74780
2026-01-03 16:01:13.19	20.31	2.59	-48.9	-63.5	3.6	3.02e+01	0	40	104	0	60	57848
2026-01-03 16:01:14.20	20.33	2.66	-48.8	-63.0	3.6	3.02e+01	0	40	104	0	60	54501
2026-01-03 16:01:15.21	20.35	2.72	-48.6	-59.7	6.0	3.02e+01	41	40	0	0	60	37108
2026-01-03 16:01:16.22	20.37	2.79	-48.6	-59.1	6.1	3.02e+01	90	40	0	1572864	60	34676
2026-01-03 16:01:17.23	20.39	2.86	-48.6	-58.4	6.7	3.02e+01	92	40	0	3670016	60	31875
2026-01-03 16:01:18.24	20.41	2.93	-48.7	-59.3	5.8	3.02e+01	92	40	0	5242880	60	35345
2026-01-03 16:01:19.25	20.43	3.00	-48.6	-58.5	7.2	3.02e+01	92	40	0	7340032	60	32309
2026-01-03 16:01:20.26	20.45	3.07	-48.2	-55.8	9.8	3.02e+01	59	40	0	8912896	60	23739
2026-01-03 16:01:21.27	20.47	3.14	-46.7	-51.2	14.5	3.02e+01	46	40	0	11010048	60	14017
2026-01-03 16:01:22.28	20.49	3.21	-46.1	-50.2	15.9	3.02e+01	58	40	0	12582912	60	12389
2026-01-03 16:01:23.28	20.51	3.27	-44.5	-47.3	19.1	3.02e+01	61	40	0	14680064	60	8904
2026-01-03 16:01:24.29	20.53	3.34	-43.2	-45.5	21.1	3.02e+01	59	40	0	16777216	60	7247
2026-01-03 16:01:25.30	20.55	3.41	-42.0	-43.9	22.6	3.02e+01	59	40	0	18350080	60	6038
2026-01-03 16:01:26.31	20.57	3.48	-41.5	-52.2	3.4	3.02e+01	0	40	104	19922944	58	17573
2026-01-03 16:01:27.32	20.59	3.55	-41.2	-51.9	3.4	3.02e+01	0	40	104	19922944	58	16945
2026-01-03 16:01:28.33	20.61	3.63	-41.1	-51.6	3.6	3.02e+01	0	40	104	19922944	58	16360
2026-01-03 16:01:29.34	20.64	3.70	-42.4	-53.1	3.5	3.02e+01	0	40	104	19922944	58	19555
2026-01-03 16:01:30.35	20.66	3.77	-42.0	-52.6	3.6	3.02e+01	0	40	104	19922944	58	18501
2026-01-03 16:01:31.36	20.68	3.84	-42.8	-53.6	3.6	3.02e+01	0	40	104	19922944	58	20705
2026-01-03 16:01:32.37	20.70	3.91	-43.6	-54.6	3.4	3.02e+01	0	40	104	19922944	60	20771
2026-01-03 16:01:33.38	20.72	3.98	-43.5	-54.6	3.6	3.02e+01	0	40	104	19922944	60	20778
2026-01-03 16:01:34.39	20.74	4.05	-40.2	-50.5	3.5	3.02e+01	0	40	104	19922944	54	18307
2026-01-03 16:01:35.40	20.76	4.12	-42.1	-52.7	3.5	3.02e+01	0	40	104	19922944	58	18642
2026-01-03 16:01:36.41	20.78	4.20	-48.8	-65.9	3.5	3.02e+01	0	40	104	19922944	60	75886
2026-01-03 16:01:37.42	20.80	4.27	-40.7	-51.2	3.4	3.02e+01	0	40	104	19922944	56	17494
2026-01-03 16:01:38.43	20.83	4.34	-46.9	-60.0	3.5	3.02e+01	0	40	104	19922944	60	38353
2026-01-03 16:01:39.44	20.85	4.41	-40.9	-51.4	3.6	3.02e+01	0	40	104	19922944	58	16053
2026-01-03 16:01:40.45	20.87	4.49	-40.9	-51.4	3.6	3.02e+01	0	40	104	19922944	56	17935
2026-01-03 16:01:41.46	20.89	4.56	-40.4	-50.8	3.4	3.02e+01	0	40	104	19922944	56	16817
2026-01-03 16:01:42.47	20.91	4.63	-39.7	-50.1	3.4	3.02e+01	0	40	104	19922944	54	17344
2026-01-03 16:01:43.48	20.94	4.71	-41.4	-52.0	3.4	3.02e+01	0	40	104	19922944	58	17216
2026-01-03 16:01:44.49	20.96	4.78	-45.1	-56.6	4.1	3.02e+01	0	40	104	19922944	56	32732
2026-01-03 16:01:45.50	20.98	4.86	-47.1	-60.5	3.5	3.02e+01	0	40	104	19922944	60	40556
2026-01-03 16:01:46.50	21.00	4.93	-40.6	-51.0	4.0	3.02e+01	0	40	104	19922944	56	17116
2026-01-03 16:01:47.52	21.02	5.00	-46.2	-58.6	4.0	3.02e+01	0	40	104	19922944	60	32754
2026-01-03 16:01:48.53	21.05	5.08	-41.3	-51.8	3.4	3.02e+01	0	40	104	19922944	56	18769
2026-01-03 16:01:49.53	21.07	5.15	-41.1	-51.6	3.6	3.02e+01	0	40	104	19922944	56	18442
2026-01-03 16:01:50.54	21.09	5.23	-41.1	-51.6	3.5	3.02e+01	0	40	104	19922944	56	18486
2026-01-03 16:01:51.55	21.11	5.30	-45.8	-57.9	3.5	3.02e+01	0	40	104	19922944	60	30235
2026-01-03 16:01:52.56	21.14	5.38	-44.2	-55.5	3.6	3.02e+01	0	40	104	19922944	60	22865
2026-01-03 16:01:53.57	21.16	5.46	-46.3	-58.6	3.4	3.02e+01	0	40	104	19922944	58	36868
2026-01-03 16:01:54.57	21.18	5.53	-48.0	-62.6	3.5	3.02e+01	0	40	104	19922944	60	51707
2026-01-03 16:01:55.58	21.21	5.61	-44.2	-55.5	3.5	3.02e+01	0	40	104	19922944	60	22821
2026-01-03 16:01:56.59	21.23	5.68	-46.0	-58.1	3.5	3.02e+01	0	40	104	19922944	60	30972
2026-01-03 16:01:57.60	21.25	5.76	-42.7	-53.5	3.5	3.02e+01	0	40	104	19922944	60	18313
2026-01-03 16:01:58.61	21.28	5.84	-42.7	-53.6	3.5	3.02e+01	0	40	104	19922944	60	18334
2026-01-03 16:01:59.62	21.30	5.92	-41.0	-51.5	3.5	3.02e+01	0	40	104	19922944	58	16321
2026-01-03 16:02:00.63	21.32	5.99	-39.2	-49.5	3.5	3.02e+01	0	40	104	19922944	54	16304
2026-01-03 16:02:01.64	21.35	6.07	-40.7	-51.2	3.5	3.02e+01	0	40	104	19922944	54	19732
2026-01-03 16:02:02.65	21.37	6.15	-46.8	-59.6	3.5	3.02e+01	0	40	104	19922944	60	36578
2026-01-03 16:02:03.66	21.40	6.23	-43.8	-55.1	3.5	3.02e+01	0	40	104	19922944	60	21875
2026-01-03 16:02:04.67	21.42	6.31	-43.1	-54.0	3.5	3.02e+01	0	40	104	19922944	54	27300
2026-01-03 16:02:05.68	21.45	6.39	-43.5	-54.4	3.5	3.02e+01	0	40	104	19922944	60	20237
2026-01-03 16:02:06.69	21.47	6.47	-40.4	-50.9	3.5	3.02e+01	0	40	104	19922944	56	16924
2026-01-03 16:02:07.70	21.49	6.55	-40.5	-51.0	3.5	3.02e+01	0	40	104	19922944	56	17175
2026-01-03 16:02:08.71	21.52	6.63	-40.3	-50.7	3.5	3.02e+01	0	40	104	19922944	56	16649
2026-01-03 16:02:09.71	21.54	6.70	-39.5	-49.9	3.5	3.02e+01	0	40	104	19922944	54	16917
2026-01-03 16:02:10.72	21.57	6.79	-42.5	-53.3	3.7	3.02e+01	0	40	104	19922944	56	22309
2026-01-03 16:02:11.73	21.59	6.87	-49.3	-66.7	3.5	3.02e+01	0	40	104	19922944	60	83450
2026-01-03 16:02:12.74	21.62	6.95	-41.6	-52.2	3.5	3.02e+01	0	40	104	19922944	60	15670
2026-01-03 16:02:13.75	21.64	7.03	-47.1	-59.9	3.5	3.02e+01	0	40	104	19922944	60	38111
2026-01-03 16:02:14.76	21.67	7.11	-39.1	-49.5	3.5	3.02e+01	0	40	104	19922944	54	16147
2026-01-03 16:02:15.77	21.70	7.19	-38.8	-49.1	3.5	3.02e+01	0	40	104	19922944	52	17339
2026-01-03 16:02:16.78	21.72	7.27	-39.0	-49.3	3.5	3.02e+01	0	40	104	19922944	52	17730
2026-01-03 16:02:17.79	21.75	7.36	-38.5	-48.8	3.5	3.02e+01	0	40	104	19922944	52	16814
2026-01-03 16:02:18.80	21.77	7.44	-42.3	-53.1	3.5	3.02e+01	0	40	104	19922944	56	21839
2026-01-03 16:02:19.81	21.80	7.52	-42.6	-53.4	3.5	3.02e+01	0	40	104	19922944	60	18055
2026-01-03 16:02:20.81	21.83	7.60	-49.4	-67.1	3.5	3.02e+01	0	40	104	19922944	60	87478
2026-01-03 16:02:21.82	21.85	7.69	-44.3	-55.7	3.5	3.02e+01	0	40	104	19922944	60	23392
2026-01-03 16:02:22.83	21.88	7.77	-48.5	-63.1	3.5	3.02e+01	0	40	104	19922944	60	54877
2026-01-03 16:02:23.84	21.90	7.86	-41.8	-52.4	3.4	3.02e+01	0	40	104	19922944	60	16134
2026-01-03 16:02:24.85	21.93	7.94	-42.4	-53.2	3.5	3.02e+01	0	40	104	19922944	58	19664
2026-01-03 16:02:25.86	21.96	8.02	-42.2	-53.0	3.5	3.02e+01	0	40	104	19922944	58	19208
2026-01-03 16:02:26.87	21.99	8.11	-41.0	-51.6	3.5	3.02e+01	0	40	104	19922944	56	18317
2026-01-03 16:02:27.88	22.01	8.20	-48.7	-63.7	3.5	3.02e+01	0	40	104	19922944	60	58784
2026-01-03 16:02:28.89	22.04	8.28	-42.7	-53.5	3.5	3.02e+01	0	40	104	19922944	60	18285
2026-01-03 16:02:29.89	22.07	8.37	-49.4	-66.9	3.5	3.02e+01	0	40	104	19922944	60	84748
2026-01-03 16:02:30.90	22.10	8.45	-43.3	-54.3	3.6	3.02e+01	0	40	104	19922944	60	19908
2026-01-03 16:02:31.91	22.12	8.54	-49.4	-66.3	3.5	3.02e+01	0	40	104	19922944	60	79400
2026-01-03 16:02:32.92	22.15	8.63	-42.1	-52.7	3.5	3.02e+01	0	40	104	19922944	60	16675
2026-01-03 16:02:33.93	22.18	8.71	-41.9	-52.5	3.5	3.02e+01	0	40	104	19922944	58	18161
2026-01-03 16:02:34.94	22.21	8.80	-42.2	-52.9	3.5	3.02e+01	0	40	104	19922944	58	19068
2026-01-03 16:02:35.95	22.24	8.89	-41.7	-52.3	3.5	3.02e+01	0	40	104	19922944	58	17784
2026-01-03 16:02:36.96	22.26	8.98	-39.9	-50.3	3.5	3.02e+01	0	40	104	19922944	54	17854
2026-01-03 16:02:37.97	22.29	9.07	-42.9	-53.8	3.5	3.02e+01	0	40	104	19922944	58	21259
2026-01-03 16:02:38.98	22.32	9.16	-49.5	-66.6	3.5	3.02e+01	0	40	104	19922944	60	81864
2026-01-03 16:02:39.98	22.35	9.24	-40.4	-50.9	3.5	3.02e+01	0	40	104	19922944	56	17019
2026-01-03 16:02:40.99	22.38	9.33	-49.6	-66.8	3.5	3.02e+01	0	40	104	19922944	60	84310
2026-01-03 16:02:42.01	22.41	9.43	-38.4	-48.7	3.5	3.02e+01	0	40	104	19922944	52	16546
2026-01-03 16:02:43.01	22.44	9.52	-38.3	-48.5	3.5	3.02e+01	0	40	104	19922944	52	16281
2026-01-03 16:02:44.02	22.47	9.61	-38.3	-48.6	3.5	3.02e+01	0	40	104	19922944	52	16364
2026-01-03 16:02:45.03	22.50	9.70	-38.2	-48.5	3.5	3.02e+01	0	40	104	19922944	52	16189
2026-01-03 16:02:46.04	22.53	9.79	-41.0	-51.5	3.5	3.02e+01	0	40	104	19922944	56	18133
2026-01-03 16:02:47.05	22.56	9.88	-44.2	-55.4	3.5	3.02e+01	0	40	104	19922944	60	22599
2026-01-03 16:02:48.06	22.59	9.97	-49.6	-67.3	3.5	3.02e+01	0	40	104	19922944	60	89212
2026-01-03 16:02:49.07	22.62	10.07	-45.5	-57.2	3.6	3.02e+01	0	40	104	19922944	60	27792
2026-01-03 16:02:50.08	22.65	10.16	-49.3	-65.8	3.5	3.02e+01	0	40	104	19922944	60	75035
2026-01-03 16:02:51.09	22.68	10.25	-44.5	-55.5	3.5	3.02e+01	0	40	104	19922944	60	23032
2026-01-03 16:02:52.10	22.71	10.35	-43.7	-54.6	3.5	3.02e+01	0	40	104	19922944	60	20684
2026-01-03 16:02:53.11	22.74	10.44	-43.1	-53.8	3.5	3.02e+01	0	40	104	19922944	60	18874
2026-01-03 16:02:54.12	22.78	10.54	-43.1	-53.9	3.5	3.02e+01	0	40	104	19922944	60	19093
2026-01-03 16:02:55.13	22.81	10.63	-47.6	-61.6	3.5	3.02e+01	0	40	104	19922944	60	46368
2026-01-03 16:02:56.14	22.84	10.73	-48.6	-67.3	3.5	3.02e+01	0	40	104	19922944	60	89536
2026-01-03 16:02:57.14	22.87	10.82	-43.9	-55.0	3.5	3.02e+01	0	40	104	19922944	60	21678
2026-01-03 16:02:58.16	22.90	10.92	-39.0	-49.4	3.5	3.02e+01	0	40	104	19922944	52	17948
2026-01-03 16:02:59.16	22.94	11.02	-49.6	-67.0	3.5	3.02e+01	0	40	104	19922944	60	86471
2026-01-03 16:03:00.17	22.97	11.11	-38.4	-48.7	3.5	3.02e+01	0	40	104	19922944	52	16579
2026-01-03 16:03:01.18	23.00	11.21	-38.3	-48.6	3.5	3.02e+01	0	40	104	19922944	52	16431
2026-01-03 16:03:02.19	23.04	11.31	-38.4	-48.6	3.5	3.02e+01	0	40	104	19922944	52	16455
2026-01-03 16:03:03.20	23.07	11.41	-37.7	-47.9	3.5	3.02e+01	0	40	104	19922944	50	17012
2026-01-03 16:03:04.20	23.10	11.50	-42.0	-52.7	3.6	3.02e+01	0	40	104	19922944	60	16580
2026-01-03 16:03:05.21	23.14	11.60	-41.7	-52.4	3.5	3.02e+01	0	40	104	19922944	60	16086
2026-01-03 16:03:06.22	23.17	11.70	-49.3	-65.8	3.5	3.02e+01	0	40	104	19922944	60	75313
2026-01-03 16:03:07.23	23.20	11.80	-39.7	-50.1	3.4	3.02e+01	0	40	104	19922944	56	15462
2026-01-03 16:03:08.24	23.24	11.90	-49.0	-66.8	3.5	3.02e+01	0	40	104	19922944	60	83717
2026-01-03 16:03:09.25	23.27	12.01	-39.3	-49.6	3.5	3.02e+01	0	40	104	19922944	54	16458
2026-01-03 16:03:10.26	23.31	12.11	-39.0	-49.3	3.5	3.02e+01	0	40	104	19922944	52	17697
2026-01-03 16:03:11.27	23.34	12.21	-39.2	-49.4	3.5	3.02e+01	0	40	104	19922944	52	18067
2026-01-03 16:03:12.28	23.38	12.31	-39.1	-49.4	3.5	3.02e+01	0	40	104	19922944	52	17915
2026-01-03 16:03:13.29	23.41	12.42	-48.5	-62.6	3.5	3.02e+01	0	40	104	19922944	60	52007
2026-01-03 16:03:14.30	23.45	12.52	-40.0	-50.5	3.6	3.02e+01	0	40	104	19922944	56	16224
2026-01-03 16:03:15.31	23.49	12.62	-49.6	-66.9	3.5	3.02e+01	0	40	104	19922944	60	85496
2026-01-03 16:03:16.32	23.52	12.73	-40.6	-51.1	3.5	3.02e+01	0	40	104	19922944	60	13764
2026-01-03 16:03:17.33	23.56	12.83	-49.5	-66.3	3.5	3.02e+01	0	40	104	19922944	60	79787
2026-01-03 16:03:18.34	23.59	12.94	-41.2	-51.7	3.5	3.02e+01	0	40	104	19922944	56	18717
2026-01-03 16:03:19.34	23.63	13.04	-40.7	-51.1	3.5	3.02e+01	0	40	104	19922944	56	17383
2026-01-03 16:03:20.35	23.67	13.15	-40.3	-50.7	3.5	3.02e+01	0	40	104	19922944	56	16612
2026-01-03 16:03:21.36	23.71	13.26	-38.8	-49.1	3.4	3.02e+01	0	40	104	19922944	54	15481
2026-01-03 16:03:22.37	23.74	13.36	-40.8	-51.3	3.6	3.02e+01	0	40	104	19922944	54	19969
2026-01-03 16:03:23.38	23.78	13.47	-39.2	-49.6	3.5	3.02e+01	0	40	104	19922944	54	16390
2026-01-03 16:03:24.39	23.82	13.58	-49.6	-67.0	3.5	3.02e+01	0	40	104	19922944	60	85819
2026-01-03 16:03:25.40	23.86	13.69	-39.7	-50.0	3.5	3.02e+01	0	40	104	19922944	56	15350
2026-01-03 16:03:26.41	23.90	13.80	-48.3	-62.1	3.6	3.02e+01	0	40	104	19922944	60	49139
2026-01-03 16:03:27.42	23.94	13.91	-40.4	-50.8	3.5	3.02e+01	0	40	104	19922944	56	16756
2026-01-03 16:03:28.43	23.98	14.02	-40.4	-50.8	3.6	3.02e+01	0	40	104	19922944	54	18779
2026-01-03 16:03:29.43	24.01	14.13	-40.8	-51.2	3.5	3.02e+01	0	40	104	19922944	54	19810
2026-01-03 16:03:30.44	24.05	14.24	-38.7	-49.1	3.5	3.02e+01	0	40	104	19922944	54	15420
2026-01-03 16:03:31.45	24.10	14.35	-41.6	-52.2	3.5	3.02e+01	0	40	104	19922944	56	19802
2026-01-03 16:03:32.46	24.14	14.47	-39.1	-49.4	3.5	3.02e+01	0	40	104	19922944	52	18025
2026-01-03 16:03:33.47	24.18	14.58	-48.9	-64.1	3.6	3.02e+01	0	40	104	19922944	60	61546
2026-01-03 16:03:34.48	24.22	14.69	-37.6	-47.8	3.5	3.02e+01	0	40	104	19922944	50	16787
2026-01-03 16:03:35.49	24.26	14.81	-43.6	-54.6	3.6	3.02e+01	0	40	104	19922944	60	20590
2026-01-03 16:03:36.50	24.30	14.92	-38.8	-49.0	3.5	3.02e+01	0	40	104	19922944	52	17188
2026-01-03 16:03:37.51	24.34	15.04	-38.6	-48.8	3.5	3.02e+01	0	40	104	19922944	52	16806
2026-01-03 16:03:38.52	24.38	15.16	-38.6	-48.9	3.5	3.02e+01	0	40	104	19922944	52	16994
2026-01-03 16:03:39.53	24.43	15.27	-39.5	-49.8	3.5	3.02e+01	0	40	104	19922944	52	18875
2026-01-03 16:03:40.53	24.47	15.39	-43.3	-54.2	3.5	3.02e+01	0	40	104	19922944	60	19756
2026-01-03 16:03:41.54	24.51	15.51	-43.7	-54.7	3.5	3.02e+01	0	40	104	19922944	54	29372
2026-01-03 16:03:42.55	24.56	15.63	-47.2	-60.1	3.6	3.02e+01	0	40	104	19922944	60	38873
2026-01-03 16:03:43.56	24.60	15.75	-42.4	-52.9	3.5	3.02e+01	0	40	104	19922944	56	21497
2026-01-03 16:03:44.57	24.65	15.87	-44.6	-55.7	3.6	3.02e+01	0	40	104	19922944	60	23499
2026-01-03 16:03:45.57	24.69	15.99	-40.8	-51.2	3.5	3.02e+01	0	40	104	19922944	58	15701
2026-01-03 16:03:46.58	24.73	16.11	-39.5	-49.8	3.5	3.02e+01	0	40	104	19922944	52	18856
2026-01-03 16:03:47.59	24.78	16.23	-39.8	-50.1	3.5	3.02e+01	0	40	104	19922944	52	19486
2026-01-03 16:03:48.60	24.83	16.35	-39.1	-49.5	3.5	3.02e+01	0	40	104	19922944	52	18116
2026-01-03 16:03:49.61	24.87	16.48	-41.8	-52.4	3.5	3.02e+01	0	40	104	19922944	56	20239
2026-01-03 16:03:50.62	24.92	16.60	-45.4	-56.9	3.5	3.02e+01	0	40	104	19922944	56	33770
2026-01-03 16:03:51.63	24.96	16.73	-46.3	-58.4	3.5	3.02e+01	0	40	104	19922944	60	31922
2026-01-03 16:03:52.64	25.01	16.85	-43.8	-54.9	3.5	3.02e+01	0	40	104	19922944	54	30121
2026-01-03 16:03:53.65	25.06	16.98	-44.1	-55.1	3.5	3.02e+01	0	40	104	19922944	60	21945
2026-01-03 16:03:54.66	25.11	17.11	-40.3	-50.7	3.5	3.02e+01	0	40	104	19922944	56	16672
2026-01-03 16:03:55.67	25.16	17.23	-38.9	-49.2	3.5	3.02e+01	0	40	104	19922944	52	17503
2026-01-03 16:03:56.68	25.20	17.36	-39.1	-49.4	3.5	3.02e+01	0	40	104	19922944	52	17906
2026-01-03 16:03:57.69	25.25	17.49	-47.7	-60.6	3.5	3.02e+01	0	40	104	19922944	60	41177
2026-01-03 16:03:58.70	25.30	17.62	-42.1	-52.8	3.5	3.02e+01	0	40	104	19922944	60	16724
2026-01-03 16:03:59.71	25.35	17.75	-49.5	-66.2	3.5	3.02e+01	0	40	104	19922944	60	78661
2026-01-03 16:04:00.71	25.40	17.88	-40.0	-50.4	3.5	3.02e+01	0	40	104	19922944	58	14271
2026-01-03 16:04:01.72	25.45	18.01	-47.4	-60.1	3.4	3.02e+01	0	40	104	19922944	60	38880
2026-01-03 16:04:02.73	25.51	18.15	-38.1	-48.4	3.6	3.02e+01	0	40	104	19922944	52	15962
2026-01-03 16:04:03.74	25.56	18.28	-37.3	-47.5	3.5	3.02e+01	0	40	104	19922944	50	16241
2026-01-03 16:04:04.75	25.61	18.42	-36.9	-47.1	3.5	3.02e+01	0	40	104	19922944	50	15537
2026-01-03 16:04:05.76	25.66	18.55	-36.8	-47.0	3.5	3.02e+01	0	40	104	19922944	48	17174
2026-01-03 16:04:06.77	25.71	18.69	-44.1	-55.2	3.5	3.02e+01	0	40	104	19922944	58	24873
2026-01-03 16:04:07.78	25.77	18.82	-43.0	-53.8	3.5	3.02e+01	0	40	104	19922944	60	18789
2026-01-03 16:04:08.79	25.82	18.96	-49.7	-66.6	3.5	3.02e+01	0	40	104	19922944	60	82068
2026-01-03 16:04:09.79	25.88	19.10	-43.3	-54.2	3.5	3.02e+01	0	40	104	19922944	60	19741
2026-01-03 16:04:10.81	25.93	19.24	-48.7	-62.9	3.5	3.02e+01	0	40	104	19922944	60	53970
2026-01-03 16:04:11.81	25.99	19.38	-41.5	-51.9	3.5	3.02e+01	0	40	104	19922944	60	15204
2026-01-03 16:04:12.82	26.04	19.52	-40.6	-51.0	3.5	3.02e+01	0	40	104	19922944	56	17141
2026-01-03 16:04:13.83	26.10	19.66	-39.4	-49.7	3.5	3.02e+01	0	40	104	19922944	54	16666
2026-01-03 16:04:14.84	26.16	19.80	-38.6	-48.8	3.6	3.02e+01	0	40	104	19922944	52	16840
2026-01-03 16:04:15.85	26.21	19.95	-40.3	-50.8	3.6	3.02e+01	0	40	104	19922944	52	21031
2026-01-03 16:04:16.86	26.27	20.09	-42.3	-53.0	3.5	3.02e+01	0	40	104	19922944	58	19209
2026-01-03 16:04:17.87	26.33	20.24	-49.5	-65.6	3.5	3.02e+01	0	40	104	19922944	60	73185
2026-01-03 16:04:18.88	26.39	20.38	-43.1	-54.0	3.5	3.02e+01	0	40	104	19922944	60	19195
2026-01-03 16:04:19.89	26.45	20.53	-49.9	-67.4	3.5	3.02e+01	0	40	104	19922944	60	90497
2026-01-03 16:04:20.90	26.51	20.68	-40.8	-51.2	3.5	3.02e+01	0	40	104	19922944	58	15603
2026-01-03 16:04:21.91	26.57	20.83	-39.6	-50.0	3.5	3.02e+01	0	40	104	19922944	54	17116
2026-01-03 16:04:22.91	26.63	20.98	-38.4	-48.7	3.5	3.02e+01	0	40	104	19922944	52	16530
2026-01-03 16:04:23.93	26.69	21.13	-38.5	-48.8	3.5	3.02e+01	0	40	104	19922944	52	16815
2026-01-03 16:04:24.93	26.75	21.28	-40.9	-51.4	3.5	3.02e+01	0	40	104	19922944	54	20167
2026-01-03 16:04:25.94	26.82	21.43	-42.5	-53.3	3.5	3.02e+01	0	40	104	19922944	58	20003
2026-01-03 16:04:26.95	26.88	21.59	-49.5	-65.4	3.5	3.02e+01	0	40	104	19922944	60	71813
2026-01-03 16:04:27.96	26.95	21.74	-39.8	-50.2	3.5	3.02e+01	0	40	104	19922944	54	17593
2026-01-03 16:04:28.97	27.01	21.90	-49.7	-66.5	3.5	3.02e+01	0	40	104	19922944	60	81646
2026-01-03 16:04:29.98	27.08	22.06	-37.3	-47.4	3.5	3.02e+01	0	40	104	19922944	50	16077
2026-01-03 16:04:30.99	27.14	22.21	-36.9	-47.0	3.6	3.02e+01	0	40	104	19922944	48	17222
2026-01-03 16:04:32.00	27.21	22.37	-37.0	-47.2	3.5	3.02e+01	0	40	104	19922944	48	17497
2026-01-03 16:04:33.01	27.28	22.53	-36.9	-47.1	3.5	3.02e+01	0	40	104	19922944	48	17324
2026-01-03 16:04:34.02	27.34	22.69	-47.4	-60.0	3.5	3.02e+01	0	40	104	19922944	60	38580
2026-01-03 16:04:35.02	27.41	22.86	-42.8	-53.6	3.5	3.02e+01	0	40	104	19922944	60	18444
2026-01-03 16:04:36.03	27.48	23.02	-49.6	-65.9	3.5	3.02e+01	0	40	104	19922944	60	76153
2026-01-03 16:04:37.04	27.55	23.18	-43.0	-53.9	3.5	3.02e+01	0	40	104	19922944	60	19038
2026-01-03 16:04:38.05	27.62	23.35	-50.0	-67.7	3.5	3.02e+01	0	40	104	19922944	60	93375
2026-01-03 16:04:39.06	27.70	23.52	-39.9	-50.2	3.5	3.02e+01	0	40	104	19922944	54	17664
2026-01-03 16:04:40.07	27.77	23.68	-39.7	-50.0	3.5	3.02e+01	0	40	104	19922944	54	17161
2026-01-03 16:04:41.08	27.84	23.85	-39.4	-49.7	3.5	3.02e+01	0	40	104	19922944	54	16596
2026-01-03 16:04:42.09	27.92	24.02	-39.3	-49.6	3.5	3.02e+01	0	40	104	19922944	54	16355
2026-01-03 16:04:43.10	27.99	24.19	-38.4	-48.6	3.6	3.02e+01	0	40	104	19922944	52	16357
2026-01-03 16:04:44.11	28.07	24.37	-44.0	-55.0	3.6	3.02e+01	0	40	104	19922944	60	21546
2026-01-03 16:04:45.12	28.14	24.54	-50.1	-67.9	3.6	3.02e+01	0	40	104	19922944	60	95259
2026-01-03 16:04:46.13	28.22	24.72	-41.4	-51.9	3.6	3.02e+01	0	40	104	19922944	60	15183
2026-01-03 16:04:47.13	28.30	24.89	-49.7	-65.6	3.5	3.02e+01	0	40	104	19922944	60	73690
2026-01-03 16:04:48.14	28.38	25.07	-40.6	-51.0	3.5	3.02e+01	0	40	104	19922944	56	17219
2026-01-03 16:04:49.15	28.46	25.25	-40.7	-51.1	3.5	3.02e+01	0	40	104	19922944	56	17311
2026-01-03 16:04:50.16	28.54	25.43	-40.5	-50.9	3.5	3.02e+01	0	40	104	19922944	56	16902
2026-01-03 16:04:51.16	28.62	25.61	-39.9	-50.2	3.5	3.02e+01	0	40	104	19922944	54	17583
2026-01-03 16:04:52.17	28.70	25.79	-39.4	-49.7	3.6	3.02e+01	0	40	104	19922944	52	18681
2026-01-03 16:04:53.18	28.79	25.97	-43.9	-54.9	3.5	3.02e+01	0	40	104	19922944	60	21503
2026-01-03 16:04:54.19	28.87	26.16	-49.9	-66.9	3.5	3.02e+01	0	40	104	19922944	60	85023
2026-01-03 16:04:55.20	28.96	26.34	-39.9	-50.5	3.5	3.02e+01	0	40	104	19922944	56	16151
2026-01-03 16:04:56.21	29.04	26.53	-49.7	-66.1	3.5	3.02e+01	0	40	104	19922944	60	77238
2026-01-03 16:04:57.22	29.13	26.72	-38.2	-48.5	3.5	3.02e+01	0	40	104	19922944	52	16145
2026-01-03 16:04:58.23	29.22	26.91	-37.7	-47.9	3.4	3.02e+01	0	40	104	19922944	52	15075
2026-01-03 16:04:59.24	29.31	27.10	-38.0	-48.1	3.5	3.02e+01	0	40	104	19922944	50	17433
2026-01-03 16:05:00.25	29.40	27.30	-37.8	-48.1	3.5	3.02e+01	0	40	104	19922944	50	17307
2026-01-03 16:05:01.26	29.49	27.49	-48.5	-62.6	3.5	3.02e+01	0	40	104	19922944	60	51745
2026-01-03 16:05:02.27	29.59	27.69	-39.7	-50.1	3.5	3.02e+01	0	40	104	19922944	56	15463
2026-01-03 16:05:03.28	29.68	27.88	-49.7	-66.1	3.5	3.02e+01	0	40	104	19922944	60	77678
2026-01-03 16:05:04.29	29.78	28.08	-41.5	-52.1	3.5	3.02e+01	0	40	104	19922944	60	15513
2026-01-03 16:05:05.29	29.87	28.28	-49.9	-67.1	3.5	3.02e+01	0	40	104	19922944	60	87332
2026-01-03 16:05:06.30	29.97	28.48	-43.5	-54.2	3.5	3.02e+01	0	40	104	19922944	60	19772
2026-01-03 16:05:07.31	30.07	28.69	-43.9	-54.7	3.5	3.02e+01	0	40	104	19922944	60	20965
2026-01-03 16:05:08.32	30.17	28.89	-42.8	-53.4	3.5	3.02e+01	0	40	104	19922944	60	18063
2026-01-03 16:05:09.33	30.27	29.10	-43.0	-53.7	3.5	3.02e+01	0	40	104	19922944	60	18696
2026-01-03 16:05:10.34	30.38	29.31	-44.9	-56.1	3.5	3.02e+01	0	40	104	19922944	60	24696
2026-01-03 16:05:11.35	30.48	29.52	-46.0	-57.6	3.6	3.02e+01	0	40	104	19922944	60	29184
2026-01-03 16:05:12.36	30.59	29.73	-39.9	-50.3	3.2	3.02e+01	0	40	104	19922944	60	12562
2026-01-03 16:05:13.37	30.69	29.94	-37.3	-47.5	3.5	3.02e+01	0	40	104	19922944	48	18110
2026-01-03 16:05:14.37	30.80	30.15	-49.8	-66.9	3.5	3.02e+01	0	40	104	19922944	60	85371
2026-01-03 16:05:15.38	30.91	30.37	-37.2	-47.4	3.5	3.02e+01	0	40	104	19922944	50	15967
2026-01-03 16:05:16.39	31.02	30.59	-37.3	-47.5	3.5	3.02e+01	0	40	104	19922944	50	16141
2026-01-03 16:05:17.40	31.13	30.81	-37.6	-47.7	3.5	3.02e+01	0	40	104	19922944	50	16629
2026-01-03 16:05:18.41	31.25	31.03	-37.1	-47.2	3.5	3.02e+01	0	40	104	19922944	50	15746
2026-01-03 16:05:19.42	31.36	31.25	-40.3	-50.6	3.5	3.02e+01	0	40	104	19922944	58	14613
2026-01-03 16:05:20.43	31.48	31.48	-40.6	-51.0	3.5	3.02e+01	0	40	104	19922944	58	15314
2026-01-03 16:05:21.44	31.60	31.70	-47.4	-59.9	3.5	3.02e+01	0	40	104	19922944	60	37985
2026-01-03 16:05:22.45	31.72	31.93	-38.4	-48.5	3.5	3.02e+01	0	40	104	19922944	50	18298
2026-01-03 16:05:23.46	31.84	32.16	-49.0	-63.8	3.5	3.02e+01	0	40	104	19922944	60	59424
2026-01-03 16:05:24.46	31.97	32.39	-38.2	-48.4	3.5	3.02e+01	0	40	104	19922944	52	16091
2026-01-03 16:05:25.48	32.09	32.63	-37.8	-48.0	3.5	3.02e+01	0	40	104	19922944	50	17239
2026-01-03 16:05:26.49	32.22	32.86	-38.0	-48.2	3.5	3.02e+01	0	40	104	19922944	50	17673
2026-01-03 16:05:27.49	32.35	33.10	-39.8	-50.2	3.6	3.02e+01	0	40	104	19922944	50	22038
2026-01-03 16:05:28.50	32.48	33.34	-40.2	-50.4	3.5	3.02e+01	0	40	104	19922944	58	14364
2026-01-03 16:05:29.51	32.62	33.58	-39.8	-50.0	3.3	3.02e+01	0	40	104	19922944	52	19243
2026-01-03 16:05:30.52	32.75	33.82	-49.8	-66.6	3.5	3.02e+01	0	40	104	19922944	60	82099
2026-01-03 16:05:31.53	32.89	34.06	-40.7	-51.2	3.5	3.02e+01	0	40	104	19922944	56	17515
2026-01-03 16:05:32.54	33.03	34.31	-48.4	-61.8	3.5	3.02e+01	0	40	104	19922944	60	47493
2026-01-03 16:05:33.55	33.17	34.56	-43.2	-53.8	3.5	3.02e+01	0	40	104	19922944	60	18953
2026-01-03 16:05:34.56	33.32	34.81	-44.0	-54.8	3.5	3.02e+01	0	40	104	19922944	60	21121
2026-01-03 16:05:35.57	33.46	35.06	-41.7	-52.2	3.5	3.02e+01	0	40	104	19922944	58	17502
2026-01-03 16:05:36.57	33.61	35.31	-40.3	-50.7	3.5	3.02e+01	0	40	104	19922944	56	16523
2026-01-03 16:05:37.58	33.76	35.57	-48.5	-62.5	3.5	3.02e+01	0	40	104	19922944	60	51157
2026-01-03 16:05:38.59	33.91	35.83	-41.0	-51.5	3.5	3.02e+01	0	40	104	19922944	60	14511
2026-01-03 16:05:39.60	34.07	36.09	-39.1	-49.3	3.5	3.02e+01	0	40	104	19922944	54	15921
2026-01-03 16:05:40.61	34.23	36.35	-45.8	-57.3	3.5	3.02e+01	0	40	104	19922944	56	35625
2026-01-03 16:05:41.62	34.39	36.61	-44.2	-55.2	3.5	3.02e+01	0	40	104	19922944	60	22152
2026-01-03 16:05:42.63	34.55	36.88	-39.1	-49.3	3.5	3.02e+01	0	40	104	19922944	52	17858
2026-01-03 16:05:43.64	34.72	37.15	-38.9	-49.2	3.5	3.02e+01	0	40	104	19922944	52	17628
2026-01-03 16:05:44.65	34.89	37.42	-39.5	-49.9	3.5	3.02e+01	0	40	104	19922944	52	18994
2026-01-03 16:05:45.65	35.06	37.69	-46.9	-59.2	3.4	3.02e+01	0	40	104	19922944	60	35085
2026-01-03 16:05:46.66	35.23	37.96	-40.7	-51.1	3.5	3.02e+01	0	40	104	19922944	58	15425
2026-01-03 16:05:47.67	35.41	38.24	-44.7	-56.0	3.5	3.02e+01	0	40	104	19922944	58	27153
2026-01-03 16:05:48.68	35.59	38.52	-44.2	-55.3	3.5	3.02e+01	0	40	104	19922944	60	22311
2026-01-03 16:05:49.69	35.77	38.80	-47.0	-59.5	3.5	3.02e+01	0	40	104	19922944	60	36233
2026-01-03 16:05:50.69	35.96	39.08	-41.2	-51.6	3.6	3.02e+01	0	40	104	19922944	60	14591
2026-01-03 16:05:51.70	36.15	39.37	-40.1	-50.5	3.5	3.02e+01	0	40	104	19922944	56	16246
2026-01-03 16:05:52.71	36.34	39.65	-39.2	-49.6	3.5	3.02e+01	0	40	104	19922944	54	16365
2026-01-03 16:05:53.72	36.54	39.94	-38.9	-49.2	3.5	3.02e+01	0	40	104	19922944	52	17661
2026-01-03 16:05:54.73	36.74	40.24	-49.6	-67.3	3.5	3.02e+01	0	40	104	19922944	60	89066
2026-01-03 16:05:55.74	36.94	40.53	-46.4	-58.5	3.5	3.02e+01	0	40	104	19922944	60	32474
2026-01-03 16:05:56.75	37.15	40.83	-49.6	-66.9	3.5	3.02e+01	0	40	104	19922944	60	84881
2026-01-03 16:05:57.76	37.36	41.12	-42.3	-53.0	3.5	3.02e+01	0	40	104	19922944	60	17262
2026-01-03 16:05:58.77	37.58	41.42	-47.8	-60.6	3.5	3.02e+01	0	40	104	19922944	60	41038
2026-01-03 16:05:59.77	37.79	41.72	-43.6	-54.4	3.5	3.02e+01	0	40	104	19922944	60	20205
2026-01-03 16:06:00.78	38.02	42.03	-41.7	-52.3	3.5	3.02e+01	0	40	104	19922944	58	17736
2026-01-03 16:06:01.79	38.25	42.34	-41.2	-51.6	3.5	3.02e+01	0	40	104	19922944	58	16397
2026-01-03 16:06:02.80	38.48	42.65	-42.3	-53.0	3.5	3.02e+01	0	40	104	19922944	60	17127
2026-01-03 16:06:03.80	38.71	42.96	-43.7	-54.4	3.5	3.02e+01	0	40	104	19922944	60	20308
2026-01-03 16:06:04.81	38.96	43.27	-42.5	-53.1	3.5	3.02e+01	0	40	104	19922944	60	17357
2026-01-03 16:06:05.82	39.20	43.59	-50.1	-67.5	3.5	3.02e+01	0	40	104	19922944	60	91435
2026-01-03 16:06:06.83	39.45	43.90	-43.4	-54.3	3.5	3.02e+01	0	40	104	19922944	60	19867
2026-01-03 16:06:07.84	39.71	44.22	-49.7	-66.1	3.5	3.02e+01	0	40	104	19922944	60	78007
2026-01-03 16:06:08.85	39.97	44.55	-43.4	-54.2	3.5	3.02e+01	0	40	104	19922944	60	19787
2026-01-03 16:06:09.86	40.24	44.87	-41.2	-51.7	3.5	3.02e+01	0	40	104	19922944	58	16570
2026-01-03 16:06:10.87	40.51	45.20	-41.8	-52.3	3.5	3.02e+01	0	40	104	19922944	58	17864
2026-01-03 16:06:11.88	40.79	45.53	-41.5	-52.0	3.5	3.02e+01	0	40	104	19922944	58	17194
2026-01-03 16:06:12.89	41.07	45.86	-39.6	-49.9	3.5	3.02e+01	0	40	104	19922944	54	17005
2026-01-03 16:06:13.89	41.36	46.19	-50.1	-67.1	3.5	3.02e+01	0	40	104	19922944	60	87205
2026-01-03 16:06:14.90	41.66	46.52	-43.4	-54.3	3.5	3.02e+01	0	40	104	19922944	60	19873
2026-01-03 16:06:15.91	41.96	46.86	-39.5	-49.8	3.5	3.02e+01	0	40	104	19922944	52	18870
2026-01-03 16:06:16.92	42.27	47.20	-49.9	-66.1	3.5	3.02e+01	0	40	104	19922944	60	77265
2026-01-03 16:06:17.93	42.59	47.54	-37.4	-47.6	3.5	3.02e+01	0	40	104	19922944	50	16482
2026-01-03 16:06:18.94	42.91	47.89	-37.4	-47.6	3.5	3.02e+01	0	40	104	19922944	50	16380
2026-01-03 16:06:19.95	43.24	48.23	-37.3	-47.5	3.5	3.02e+01	0	40	104	19922944	50	16230
2026-01-03 16:06:20.96	43.58	48.58	-37.1	-47.3	3.5	3.02e+01	0	40	104	19922944	50	15819
2026-01-03 16:06:21.97	43.92	48.93	-49.9	-66.0	3.5	3.02e+01	0	40	104	19922944	60	77189
2026-01-03 16:06:22.98	44.28	49.28	-44.9	-56.1	3.5	3.02e+01	0	40	104	19922944	60	24565
2026-01-03 16:06:23.98	44.63	49.63	-50.0	-66.9	3.5	3.02e+01	0	40	104	19922944	60	85609
2026-01-03 16:06:24.99	45.00	49.98	-40.6	-51.1	3.5	3.02e+01	0	40	104	19922944	56	17364
2026-01-03 16:06:26.00	45.38	50.34	-49.7	-65.2	3.5	3.02e+01	0	40	104	19922944	60	70211
2026-01-03 16:06:27.01	45.77	50.69	-38.9	-49.1	3.5	3.02e+01	0	40	104	19922944	54	15518
2026-01-03 16:06:28.02	46.17	51.05	-38.6	-48.9	3.5	3.02e+01	0	40	104	19922944	52	17002
2026-01-03 16:06:29.03	46.58	51.41	-38.0	-48.1	3.5	3.02e+01	0	40	104	19922944	50	17436
2026-01-03 16:06:30.04	46.99	51.78	-38.3	-48.5	3.5	3.02e+01	0	40	104	19922944	50	18173
2026-01-03 16:06:31.05	47.42	52.14	-48.7	-62.5	3.5	3.02e+01	0	40	104	19922944	60	51238
2026-01-03 16:06:32.06	47.86	52.50	-39.0	-49.4	3.5	3.02e+01	0	40	104	19922944	56	14270
2026-01-03 16:06:33.07	48.31	52.87	-49.7	-65.0	3.5	3.02e+01	0	40	104	19922944	60	68688
2026-01-03 16:06:34.08	48.77	53.24	-42.5	-53.3	3.5	3.02e+01	0	40	104	19922944	60	17793
2026-01-03 16:06:35.09	49.24	53.60	-49.7	-65.0	3.5	3.02e+01	0	40	104	19922944	60	68109
2026-01-03 16:06:36.10	49.72	53.97	-39.8	-50.1	3.5	3.02e+01	0	40	104	19922944	54	17397
2026-01-03 16:06:37.11	50.22	54.34	-40.3	-50.6	3.6	3.02e+01	0	40	104	19922944	52	20628
2026-01-03 16:06:38.12	50.73	54.71	-39.8	-50.1	3.5	3.02e+01	0	40	104	19922944	54	17463
2026-01-03 16:06:39.13	51.25	55.08	-40.5	-50.8	3.5	3.02e+01	0	40	104	19922944	54	18872
2026-01-03 16:06:40.14	51.79	55.45	-40.2	-50.6	3.5	3.02e+01	0	40	104	19922944	58	14592
2026-01-03 16:06:41.15	52.34	55.82	-39.4	-49.6	3.6	3.02e+01	0	40	104	19922944	54	16447
2026-01-03 16:06:42.15	52.90	56.19	-49.9	-65.6	3.5	3.02e+01	0	40	104	19922944	60	73670
2026-01-03 16:06:43.16	53.48	56.56	-43.0	-53.7	3.6	3.02e+01	0	40	104	19922944	60	18696
2026-01-03 16:06:44.17	54.08	56.93	-49.5	-64.7	3.5	3.02e+01	0	40	104	19922944	60	66175
2026-01-03 16:06:45.18	54.69	57.30	-38.5	-48.7	3.5	3.02e+01	0	40	104	19922944	52	16533
2026-01-03 16:06:46.19	55.32	57.67	-39.1	-49.4	3.5	3.02e+01	0	40	104	19922944	52	18077
2026-01-03 16:06:47.20	55.97	58.04	-38.3	-48.3	3.5	3.02e+01	0	40	104	19922944	52	15905
2026-01-03 16:06:48.21	56.63	58.40	-39.1	-49.5	3.5	3.02e+01	0	40	104	19922944	52	18126
2026-01-03 16:06:49.22	57.32	58.77	-46.4	-58.0	3.5	3.02e+01	0	40	104	19922944	60	30575
2026-01-03 16:06:50.23	58.02	59.14	-40.9	-51.4	3.3	3.02e+01	0	40	104	19922944	60	14350
2026-01-03 16:06:51.23	58.74	59.49	-50.1	-66.8	3.5	3.02e+01	0	40	104	19922944	60	84622
2026-01-03 16:06:52.24	59.48	59.86	-41.9	-52.4	3.5	3.02e+01	0	40	104	19922944	60	15962
2026-01-03 16:06:53.25	60.24	60.21	-49.8	-65.8	3.5	3.02e+01	0	40	104	19922944	60	75390
2026-01-03 16:06:54.26	61.03	60.57	-39.8	-50.2	3.5	3.02e+01	0	40	104	19922944	54	17649
2026-01-03 16:06:55.27	61.84	60.92	-39.8	-49.9	3.6	3.02e+01	0	40	104	19922944	54	17010
2026-01-03 16:06:56.28	62.67	61.27	-39.9	-50.3	3.5	3.02e+01	0	40	104	19922944	54	17800
2026-01-03 16:06:57.29	63.52	61.62	-39.6	-49.8	3.5	3.02e+01	0	40	104	19922944	54	16847
2026-01-03 16:06:58.30	64.40	61.96	-49.3	-63.9	3.5	3.02e+01	0	40	104	19922944	60	60063
2026-01-03 16:06:59.31	65.31	62.30	-42.0	-52.5	3.5	3.02e+01	0	40	104	19922944	60	16227
2026-01-03 16:07:00.32	66.24	62.64	-50.1	-66.9	3.5	3.02e+01	0	40	104	19922944	60	85237
2026-01-03 16:07:01.33	67.19	62.97	-44.6	-55.7	3.5	3.02e+01	0	40	104	19922944	60	23516
2026-01-03 16:07:02.33	68.16	63.29	-50.2	-67.5	3.5	3.02e+01	0	40	104	19922944	60	90981
2026-01-03 16:07:03.34	69.17	63.61	-45.8	-57.3	3.5	3.02e+01	0	40	104	19922944	60	28326
2026-01-03 16:07:04.35	70.21	63.92	-45.7	-57.2	3.5	3.02e+01	0	40	104	19922944	60	27752
2026-01-03 16:07:05.36	71.27	64.23	-45.7	-57.1	3.5	3.02e+01	0	40	104	19922944	60	27495
2026-01-03 16:07:06.37	72.36	64.53	-43.9	-54.8	3.5	3.02e+01	0	40	104	19922944	60	21112
2026-01-03 16:07:07.38	73.49	64.82	-46.2	-58.1	3.5	3.02e+01	0	40	104	19922944	60	30933
2026-01-03 16:07:08.39	74.64	65.11	-48.0	-60.6	3.6	3.02e+01	0	40	104	19922944	60	41449
2026-01-03 16:07:09.40	75.82	65.39	-44.7	-55.7	3.5	3.02e+01	0	40	104	19922944	60	23545
2026-01-03 16:07:10.40	77.01	65.65	-42.2	-53.0	3.5	3.02e+01	0	40	104	19922944	60	17126
2026-01-03 16:07:11.41	78.25	65.91	-50.2	-67.7	3.5	3.02e+01	0	40	104	19922944	60	93109
2026-01-03 16:07:12.42	79.52	66.16	-42.6	-53.2	3.5	3.02e+01	0	40	104	19922944	60	17596
2026-01-03 16:07:13.43	80.82	66.40	-42.3	-52.8	3.5	3.02e+01	0	40	104	19922944	58	18790
2026-01-03 16:07:14.44	82.14	66.63	-43.0	-53.9	3.5	3.02e+01	0	40	104	19922944	60	19136
2026-01-03 16:07:15.45	83.50	66.85	-42.6	-53.0	3.5	3.02e+01	0	40	104	19922944	60	17287
2026-01-03 16:07:16.46	84.88	67.06	-44.9	-56.2	3.5	3.02e+01	0	40	104	19922944	60	24778
2026-01-03 16:07:17.47	86.29	67.26	-43.1	-53.6	3.5	3.02e+01	0	40	104	19922944	60	18399
2026-01-03 16:07:18.48	87.72	67.44	-49.5	-64.3	3.5	3.02e+01	0	40	104	19922944	60	63334
2026-01-03 16:07:19.49	89.18	67.61	-44.3	-55.2	3.5	3.02e+01	0	40	104	19922944	60	22141
2026-01-03 16:07:20.50	90.67	67.77	-47.4	-59.6	3.5	3.02e+01	0	40	104	19922944	60	36801
2026-01-03 16:07:21.51	92.17	67.92	-43.6	-54.3	3.5	3.02e+01	0	40	104	19922944	60	19986
2026-01-03 16:07:22.52	93.70	68.05	-44.2	-55.5	3.5	3.02e+01	0	40	104	19922944	60	22826
2026-01-03 16:07:23.53	95.24	68.16	-43.1	-53.5	3.5	3.02e+01	0	40	104	19922944	60	18147
2026-01-03 16:07:24.54	96.81	68.27	-43.9	-54.8	3.5	3.02e+01	0	40	104	19922944	58	23640
2026-01-03 16:07:25.55	98.38	68.35	-43.1	-54.0	3.5	3.02e+01	0	40	104	19922944	60	19215
2026-01-03 16:07:26.56	99.97	68.42	-44.2	-55.0	3.5	3.02e+01	0	40	104	19922944	60	21648
2026-01-03 16:07:27.57	101.57	68.48	-49.5	-64.4	3.5	3.02e+01	0	40	104	19922944	60	63867
2026-01-03 16:07:28.58	103.18	68.52	-47.6	-59.8	3.5	3.02e+01	0	40	104	19922944	60	37482
2026-01-03 16:07:29.59	104.79	68.55	-50.1	-66.6	3.5	3.02e+01	0	40	104	19922944	60	82584
2026-01-03 16:07:30.60	106.41	68.56	-48.0	-60.4	3.5	3.02e+01	0	40	104	19922944	60	40517
2026-01-03 16:07:31.61	108.02	68.55	-46.3	-58.1	3.5	3.02e+01	0	40	104	19922944	60	30975
2026-01-03 16:07:32.62	109.64	68.53	-46.2	-58.0	3.5	3.02e+01	0	40	104	19922944	60	30410
2026-01-03 16:07:33.63	111.25	68.50	-44.7	-55.6	3.5	3.02e+01	0	40	104	19922944	60	23225
2026-01-03 16:07:34.63	112.84	68.44	-49.6	-65.2	3.5	3.02e+01	0	40	104	19922944	60	69635
2026-01-03 16:07:35.64	114.43	68.38	-41.1	-51.6	3.5	3.02e+01	0	40	104	19922944	60	14568
2026-01-03 16:07:36.65	116.01	68.29	-44.1	-55.1	3.5	3.02e+01	0	40	104	19922944	60	21816
2026-01-03 16:07:37.66	117.58	68.20	-43.4	-54.2	3.5	3.02e+01	0	40	104	19922944	56	24761
2026-01-03 16:07:38.67	119.13	68.08	-43.2	-54.0	3.5	3.02e+01	0	40	104	19922944	60	19325
2026-01-03 16:07:39.68	120.66	67.96	-40.9	-51.3	3.5	3.02e+01	0	40	104	19922944	56	17885
2026-01-03 16:07:40.69	122.17	67.82	-40.5	-50.7	3.5	3.02e+01	0	40	104	19922944	56	16633
2026-01-03 16:07:41.70	123.67	67.66	-40.9	-51.4	3.5	3.02e+01	0	40	104	19922944	56	17996
2026-01-03 16:07:42.71	125.13	67.50	-49.9	-66.3	3.5	3.02e+01	0	40	104	19922944	60	79409
2026-01-03 16:07:43.72	126.58	67.32	-43.5	-54.2	3.5	3.02e+01	0	40	104	19922944	60	19757
2026-01-03 16:07:44.73	128.00	67.12	-49.4	-64.0	3.5	3.02e+01	0	40	104	19922944	60	61082
2026-01-03 16:07:45.74	129.39	66.92	-49.1	-63.1	3.5	3.02e+01	0	40	104	19922944	60	54768
2026-01-03 16:07:46.75	130.75	66.70	-47.7	-60.1	3.4	3.02e+01	0	40	104	19922944	60	38736
2026-01-03 16:07:47.76	132.09	66.48	-41.8	-52.2	3.5	3.02e+01	0	40	104	19922944	60	15765
2026-01-03 16:07:48.77	133.40	66.24	-41.0	-51.0	3.5	3.02e+01	0	40	104	19922944	58	15335
2026-01-03 16:07:49.78	134.67	65.99	-41.5	-52.3	3.5	3.02e+01	0	40	104	19922944	58	17796
2026-01-03 16:07:50.79	135.92	65.73	-40.8	-51.1	3.5	3.02e+01	0	40	104	19922944	58	15491
2026-01-03 16:07:51.80	137.14	65.47	-50.3	-67.4	3.5	3.02e+01	0	40	104	19922944	60	89741
2026-01-03 16:07:52.81	138.33	65.19	-50.4	-67.5	3.6	3.02e+01	0	40	104	19922944	60	90964
2026-01-03 16:07:53.82	139.49	64.91	-48.0	-60.9	3.5	3.02e+01	0	40	104	19922944	60	42881
2026-01-03 16:07:54.83	140.63	64.62	-45.5	-56.5	3.5	3.02e+01	0	40	104	19922944	60	25750
2026-01-03 16:07:55.83	141.72	64.32	-50.2	-66.5	3.5	3.02e+01	0	40	104	19922944	60	81434
2026-01-03 16:07:56.84	142.79	64.01	-45.5	-56.9	3.5	3.02e+01	0	40	104	19922944	60	26865
2026-01-03 16:07:57.85	143.84	63.70	-46.8	-58.7	3.5	3.02e+01	0	40	104	19922944	60	32946
2026-01-03 16:07:58.86	144.86	63.38	-46.2	-57.7	3.4	3.02e+01	0	40	104	19922944	60	29460
2026-01-03 16:07:59.87	145.85	63.06	-47.1	-58.8	3.4	3.02e+01	0	40	104	19922944	60	33521
2026-01-03 16:08:00.88	146.81	62.73	-43.1	-45.3	5.3	3.02e+01	0	40	104	19922944	58	7969
2026-01-03 16:08:01.89	147.75	62.40	-50.2	-62.5	3.6	3.02e+01	66	40	104	19922944	60	51249
2026-01-03 16:08:02.90	148.66	62.06	-47.4	-51.5	15.7	3.02e+01	53	40	104	19922944	60	14520
2026-01-03 16:08:03.91	149.55	61.71	-46.1	-48.9	19.2	3.02e+01	48	40	0	21495808	60	10729
2026-01-03 16:08:04.92	150.41	61.37	-50.1	-59.4	8.1	3.02e+01	68	40	0	23592960	60	35763
2026-01-03 16:08:05.92	151.24	61.02	-41.5	-43.1	25.0	3.02e+01	58	40	0	25165824	60	5480
2026-01-03 16:08:06.93	152.06	60.67	-40.7	-42.2	25.7	3.02e+01	59	40	0	27262976	54	7021
2026-01-03 16:08:07.94	152.85	60.31	-39.6	-41.0	26.3	3.02e+01	58	40	0	28835840	54	6076
2026-01-03 16:08:08.95	153.62	59.95	-39.8	-41.1	27.0	3.02e+01	53	40	0	30932992	54	6182
2026-01-03 16:08:09.96	154.37	59.59	-38.9	-40.2	27.1	3.02e+01	60	40	0	33030144	54	5557
2026-01-03 16:08:10.97	155.10	59.23	-40.3	-41.7	26.0	3.02e+01	62	40	0	34603008	54	6626
2026-01-03 16:08:11.98	155.81	58.86	-38.6	-39.9	27.5	3.02e+01	51	40	0	36700160	52	6032
2026-01-03 16:08:12.99	156.50	58.50	-37.5	-38.7	28.5	3.02e+01	60	40	0	38797312	50	5910
2026-01-03 16:08:14.00	157.18	58.13	-37.9	-39.1	28.3	3.02e+01	58	40	0	40370176	50	6192
2026-01-03 16:08:15.01	157.83	57.76	-38.3	-39.6	28.0	3.02e+01	57	40	0	42467328	50	6550
2026-01-03 16:08:16.02	158.47	57.39	-38.7	-40.1	27.9	3.02e+01	61	40	0	44040192	50	6891
2026-01-03 16:08:17.03	159.08	57.02	-38.0	-39.3	28.2	3.02e+01	45	40	0	46137344	50	6305
2026-01-03 16:08:18.04	159.69	56.65	-37.7	-38.9	28.5	3.02e+01	60	40	0	47710208	50	6062
2026-01-03 16:08:19.04	160.27	56.28	-37.2	-38.3	29.1	3.02e+01	60	40	0	49807360	50	5659
2026-01-03 16:08:20.06	160.84	55.90	-36.8	-38.0	29.5	3.02e+01	46	40	0	51904512	48	6069
2026-01-03 16:08:21.07	161.40	55.53	-37.0	-38.2	29.3	3.02e+01	57	40	0	53477376	48	6267
2026-01-03 16:08:22.07	161.94	55.16	-37.1	-38.3	29.2	3.02e+01	51	40	0	55574528	48	6309
2026-01-03 16:08:23.08	162.46	54.79	-36.4	-37.6	29.5	3.02e+01	57	40	0	57147392	48	5796
2026-01-03 16:08:24.09	162.98	54.42	-36.5	-37.7	29.7	3.02e+01	57	40	0	59244544	48	5863
2026-01-03 16:08:25.10	163.48	54.05	-36.4	-37.6	29.4	3.02e+01	55	40	0	61341696	48	5815
2026-01-03 16:08:26.11	163.97	53.68	-36.3	-37.5	29.5	3.02e+01	57	40	0	62914560	48	5782
2026-01-03 16:08:27.12	164.44	53.31	-36.3	-37.5	29.4	3.02e+01	58	40	0	65011712	48	5742
2026-01-03 16:08:28.13	164.91	52.94	-36.3	-37.5	29.5	3.02e+01	46	40	0	67108864	48	5782
2026-01-03 16:08:29.14	165.36	52.58	-36.3	-37.5	29.5	3.02e+01	59	40	0	68681728	48	5735
2026-01-03 16:08:30.15	165.80	52.21	-36.5	-37.7	29.2	3.02e+01	44	40	0	70778880	48	5887
2026-01-03 16:08:31.16	166.23	51.85	-36.4	-37.6	29.4	3.02e+01	60	40	0	72351744	48	5807
2026-01-03 16:08:32.17	166.65	51.48	-36.6	-37.8	29.3	3.02e+01	56	40	0	74448896	48	5938
2026-01-03 16:08:33.18	167.06	51.12	-36.4	-37.6	29.3	3.02e+01	53	40	0	76546048	48	5818
2026-01-03 16:08:34.19	167.46	50.76	-36.9	-38.1	29.0	3.02e+01	58	40	0	78118912	48	6176
2026-01-03 16:08:35.20	167.85	50.40	-37.5	-38.7	28.6	3.02e+01	58	40	0	80216064	48	6641
2026-01-03 16:08:36.21	168.24	50.04	-37.2	-38.4	28.6	3.02e+01	60	40	0	82313216	48	6386
2026-01-03 16:08:37.22	168.61	49.69	-37.1	-38.3	28.6	3.02e+01	60	40	0	83886080	48	6319
2026-01-03 16:08:38.23	168.97	49.33	-37.1	-38.3	28.6	3.02e+01	53	40	0	85983232	48	6334
2026-01-03 16:08:39.24	169.33	48.98	-37.0	-38.2	28.8	3.02e+01	59	40	0	87556096	48	6253
2026-01-03 16:08:40.25	169.68	48.63	-37.2	-38.4	28.8	3.02e+01	60	40	0	89653248	48	6375
2026-01-03 16:08:41.26	170.02	48.28	-37.1	-38.4	28.7	3.02e+01	46	40	0	91750400	48	6355
2026-01-03 16:08:42.27	170.35	47.93	-37.3	-38.6	28.5	3.02e+01	60	40	0	93323264	48	6514
2026-01-03 16:08:43.28	170.68	47.59	-37.4	-38.7	28.5	3.02e+01	61	40	0	95420416	48	6592
2026-01-03 16:08:44.28	170.99	47.25	-37.6	-38.9	28.5	3.02e+01	55	40	0	96993280	48	6744
2026-01-03 16:08:45.29	171.30	46.91	-37.1	-38.3	29.2	3.02e+01	61	40	0	99090432	48	6310
2026-01-03 16:08:46.30	171.61	46.57	-37.3	-38.5	28.9	3.02e+01	60	40	0	101187584	48	6486
2026-01-03 16:08:47.32	171.91	46.23	-37.0	-38.3	28.9	3.02e+01	60	40	0	102760448	48	6288
2026-01-03 16:08:48.32	172.20	45.90	-36.9	-38.1	29.1	3.02e+01	62	40	0	104857600	48	6159
2026-01-03 16:08:49.33	172.48	45.56	-37.3	-38.5	29.2	3.02e+01	44	40	0	106430464	48	6429
2026-01-03 16:08:50.34	172.76	45.23	-37.1	-38.3	29.0	3.02e+01	61	40	0	108527616	48	6324
2026-01-03 16:08:51.35	173.04	44.90	-37.1	-38.3	28.9	3.02e+01	61	40	0	110624768	48	6323
2026-01-03 16:08:52.36	173.31	44.58	-37.5	-38.7	28.6	3.02e+01	61	40	0	112197632	48	6646
2026-01-03 16:08:53.36	173.57	44.26	-37.4	-38.7	28.6	3.02e+01	58	40	0	114294784	48	6583
2026-01-03 16:08:54.37	173.82	43.93	-38.0	-39.3	28.2	3.02e+01	49	40	0	115867648	50	6289
2026-01-03 16:08:55.38	174.08	43.61	-37.2	-38.4	28.7	3.02e+01	58	40	0	117964800	50	5717
2026-01-03 16:08:56.39	174.33	43.30	-37.0	-38.3	28.9	3.02e+01	54	40	0	120061952	50	5598
2026-01-03 16:08:57.40	174.57	42.98	-37.1	-38.3	28.8	3.02e+01	45	40	0	121634816	50	5626
2026-01-03 16:08:58.41	174.81	42.67	-37.0	-38.2	29.0	3.02e+01	59	40	0	123731968	48	6266
2026-01-03 16:08:59.42	175.04	42.36	-37.1	-38.3	28.9	3.02e+01	58	40	0	125304832	48	6315
2026-01-03 16:09:00.43	175.27	42.05	-37.2	-38.5	28.7	3.02e+01	61	40	0	127401984	48	6443
2026-01-03 16:09:01.44	175.50	41.74	-37.2	-38.4	28.6	3.02e+01	59	40	0	129499136	48	6413
2026-01-03 16:09:02.45	175.72	41.44	-37.1	-38.3	28.8	3.02e+01	54	40	0	131072000	48	6331
2026-01-03 16:09:03.46	175.93	41.13	-37.2	-38.5	28.7	3.02e+01	59	40	0	133169152	48	6449
2026-01-03 16:09:04.47	176.15	40.83	-37.3	-38.5	28.5	3.02e+01	57	40	0	135266304	48	6488
2026-01-03 16:09:05.47	176.35	40.54	-37.5	-38.8	28.3	3.02e+01	56	40	0	136839168	48	6699
2026-01-03 16:09:06.49	176.56	40.24	-37.6	-38.8	28.2	3.02e+01	59	40	0	138936320	48	6721
2026-01-03 16:09:07.49	176.76	39.95	-37.6	-38.9	28.1	3.02e+01	49	40	0	140509184	48	6768
2026-01-03 16:09:08.51	176.96	39.65	-37.6	-38.8	28.2	3.02e+01	60	40	0	142606336	48	6710
2026-01-03 16:09:09.51	177.15	39.37	-37.4	-38.7	28.3	3.02e+01	59	40	0	144703488	48	6603
2026-01-03 16:09:10.52	177.34	39.08	-37.5	-38.7	28.4	3.02e+01	46	40	0	146276352	48	6625
2026-01-03 16:09:11.53	177.53	38.80	-37.4	-38.6	28.6	3.02e+01	60	40	0	148373504	48	6531
2026-01-03 16:09:12.54	177.71	38.51	-37.4	-38.6	28.6	3.02e+01	60	40	0	150470656	48	6567
2026-01-03 16:09:13.55	177.90	38.23	-37.4	-38.6	28.6	3.02e+01	60	40	0	152043520	48	6551
2026-01-03 16:09:14.56	178.07	37.95	-37.5	-38.7	28.5	3.02e+01	58	40	0	154140672	48	6603
2026-01-03 16:09:15.57	178.25	37.68	-37.4	-38.7	28.6	3.02e+01	56	40	0	155713536	48	6577
2026-01-03 16:09:16.58	178.42	37.40	-37.6	-38.9	28.2	3.02e+01	57	40	0	157810688	48	6764
2026-01-03 16:09:17.59	178.59	37.13	-37.4	-38.7	28.3	3.02e+01	56	40	0	159383552	48	6610
2026-01-03 16:09:18.60	178.76	36.86	-37.1	-38.3	28.7	3.02e+01	50	40	0	161480704	48	6348
2026-01-03 16:09:19.61	178.92	36.59	-37.0	-38.2	28.8	3.02e+01	58	40	0	163577856	48	6270
2026-01-03 16:09:20.61	179.08	36.33	-36.9	-38.2	28.8	3.02e+01	55	40	0	165150720	48	6219
2026-01-03 16:09:21.62	179.24	36.07	-36.8	-38.0	29.0	3.02e+01	57	40	0	167247872	48	6082
2026-01-03 16:09:22.63	179.40	35.81	-36.9	-38.2	28.9	3.02e+01	61	40	0	168820736	48	6210
2026-01-03 16:09:23.64	179.55	35.55	-36.6	-37.8	29.2	3.02e+01	57	40	0	170917888	48	5951
2026-01-03 16:09:24.65	179.70	35.29	-36.8	-38.0	29.2	3.02e+01	59	40	0	173015040	48	6123
2026-01-03 16:09:25.66	179.85	35.03	-36.6	-37.8	29.2	3.02e+01	59	40	0	174587904	48	5949
2026-01-03 16:09:26.67	180.00	34.78	-36.4	-37.6	29.3	3.02e+01	50	40	0	176685056	48	5847
2026-01-03 16:09:27.68	180.14	34.53	-36.3	-37.4	29.6	3.02e+01	58	40	0	178782208	48	5715
2026-01-03 16:09:28.69	180.28	34.28	-36.3	-37.5	29.6	3.02e+01	59	40	0	180355072	48	5726
2026-01-03 16:09:29.70	180.42	34.03	-36.4	-37.6	29.4	3.02e+01	60	40	0	182452224	48	5832
2026-01-03 16:09:30.71	180.56	33.78	-35.8	-37.0	29.9	3.02e+01	59	40	0	184025088	46	6089
2026-01-03 16:09:31.72	180.70	33.54	-35.8	-37.0	29.8	3.02e+01	56	40	0	186122240	46	6111
2026-01-03 16:09:32.72	180.83	33.30	-35.7	-36.8	29.9	3.02e+01	57	40	0	188219392	46	5982
2026-01-03 16:09:33.73	180.96	33.06	-35.4	-36.6	30.2	3.02e+01	60	40	0	189792256	46	5819
2026-01-03 16:09:34.74	181.09	32.82	-35.7	-36.8	29.9	3.02e+01	46	40	0	191889408	46	5983
2026-01-03 16:09:35.75	181.22	32.59	-35.5	-36.7	30.0	3.02e+01	56	40	0	193462272	46	5883
2026-01-03 16:09:36.76	181.35	32.35	-35.6	-36.8	29.9	3.02e+01	54	40	0	195559424	46	5948
2026-01-03 16:09:37.77	181.47	32.12	-35.3	-36.5	30.0	3.02e+01	61	40	0	197656576	46	5755
2026-01-03 16:09:38.78	181.59	31.89	-35.4	-36.6	29.9	3.02e+01	58	40	0	199229440	46	5821
2026-01-03 16:09:39.79	181.72	31.66	-35.4	-36.5	30.1	3.02e+01	46	40	0	201326592	46	5764
2026-01-03 16:09:40.80	181.83	31.43	-35.4	-36.5	30.1	3.02e+01	58	40	0	203423744	46	5784
2026-01-03 16:09:41.81	181.95	31.20	-35.2	-36.4	30.1	3.02e+01	62	40	0	204996608	46	5674
2026-01-03 16:09:42.81	182.07	30.98	-35.3	-36.5	30.2	3.02e+01	56	40	0	207093760	46	5760
2026-01-03 16:09:43.82	182.18	30.76	-35.2	-36.4	30.1	3.02e+01	61	40	0	208666624	46	5675
2026-01-03 16:09:44.83	182.30	30.54	-35.3	-36.5	30.1	3.02e+01	54	40	0	210763776	46	5736
2026-01-03 16:09:45.84	182.41	30.32	-35.2	-36.4	30.1	3.02e+01	57	40	0	212860928	46	5694
2026-01-03 16:09:46.85	182.52	30.10	-35.3	-36.4	30.1	3.02e+01	58	40	0	214433792	46	5723
2026-01-03 16:09:47.86	182.63	29.89	-35.3	-36.5	30.1	3.02e+01	46	40	0	216530944	46	5727
2026-01-03 16:09:48.87	182.73	29.67	-35.3	-36.4	30.2	3.02e+01	58	40	0	218103808	46	5702
2026-01-03 16:09:49.88	182.84	29.46	-35.4	-36.6	30.1	3.02e+01	61	40	0	220200960	46	5817
2026-01-03 16:09:50.89	182.94	29.25	-35.5	-36.7	29.9	3.02e+01	58	40	0	222298112	46	5879
2026-01-03 16:09:51.90	183.05	29.04	-35.5	-36.7	29.9	3.02e+01	59	40	0	223870976	46	5881
2026-01-03 16:09:52.91	183.15	28.83	-35.6	-36.8	29.8	3.02e+01	57	40	0	225968128	46	5931
2026-01-03 16:09:53.91	183.25	28.63	-35.7	-36.9	29.7	3.02e+01	59	40	0	227540992	46	6017
2026-01-03 16:09:54.92	183.35	28.42	-35.8	-37.0	29.6	3.02e+01	60	40	0	229638144	46	6124
2026-01-03 16:09:55.94	183.45	28.22	-35.8	-37.0	29.7	3.02e+01	46	40	0	231735296	46	6133
2026-01-03 16:09:56.94	183.54	28.02	-35.9	-37.1	29.5	3.02e+01	60	40	0	233308160	46	6185
2026-01-03 16:09:57.95	183.64	27.82	-36.0	-37.2	29.4	3.02e+01	61	40	0	235405312	46	6260
2026-01-03 16:09:58.96	183.73	27.62	-36.1	-37.3	29.4	3.02e+01	56	40	0	236978176	46	6335
2026-01-03 16:09:59.97	183.82	27.42	-36.1	-37.3	29.4	3.02e+01	59	40	0	239075328	46	6308
2026-01-03 16:10:00.98	183.92	27.23	-36.0	-37.2	29.4	3.02e+01	52	40	0	241172480	46	6258
2026-01-03 16:10:01.99	184.01	27.03	-36.1	-37.3	29.3	3.02e+01	60	40	0	242745344	46	6306
2026-01-03 16:10:03.00	184.10	26.84	-36.1	-37.3	29.3	3.02e+01	62	40	0	244842496	46	6344
2026-01-03 16:10:04.01	184.19	26.65	-36.2	-37.4	29.3	3.02e+01	38	40	0	246939648	46	6376
2026-01-03 16:10:05.02	184.27	26.46	-36.3	-37.5	29.4	3.02e+01	61	40	0	248512512	46	6442
2026-01-03 16:10:06.03	184.36	26.27	-36.3	-37.6	29.2	3.02e+01	59	40	0	250609664	46	6500
2026-01-03 16:10:07.04	184.45	26.08	-36.3	-37.5	29.3	3.02e+01	59	40	0	252182528	46	6481
2026-01-03 16:10:08.05	184.53	25.90	-36.3	-37.5	29.2	3.02e+01	59	40	0	254279680	46	6472
2026-01-03 16:10:09.06	184.61	25.71	-36.4	-37.6	29.2	3.02e+01	45	40	0	256376832	46	6556
2026-01-03 16:10:10.07	184.70	25.53	-36.5	-37.8	29.0	3.02e+01	57	40	0	257949696	46	6651
2026-01-03 16:10:11.08	184.78	25.35	-36.6	-37.9	28.9	3.02e+01	59	40	0	260046848	46	6741
2026-01-03 16:10:12.08	184.86	25.17	-36.7	-37.9	28.8	3.02e+01	47	40	0	261619712	46	6793
2026-01-03 16:10:13.10	184.94	24.99	-36.6	-37.9	28.9	3.02e+01	58	40	0	263716864	46	6728
2026-01-03 16:10:14.10	185.02	24.81	-36.5	-37.8	28.9	3.02e+01	48	40	0	265814016	46	6660
2026-01-03 16:10:15.11	185.10	24.63	-36.5	-37.8	28.9	3.02e+01	58	40	0	267386880	46	6654
2026-01-03 16:10:16.12	185.17	24.46	-36.6	-37.8	29.0	3.02e+01	60	40	0	269484032	46	6676
2026-01-03 16:10:17.13	185.25	24.28	-36.6	-37.8	28.9	3.02e+01	51	40	0	271056896	46	6669
2026-01-03 16:10:18.14	185.33	24.11	-36.4	-37.6	29.1	3.02e+01	59	40	0	273154048	46	6547
2026-01-03 16:10:19.15	185.40	23.94	-36.5	-37.7	29.1	3.02e+01	60	40	0	275251200	46	6597
2026-01-03 16:10:20.16	185.47	23.77	-36.3	-37.5	29.2	3.02e+01	58	40	0	276824064	46	6489
2026-01-03 16:10:21.17	185.55	23.60	-36.5	-37.7	29.0	3.02e+01	57	40	0	278921216	46	6639
2026-01-03 16:10:22.18	185.62	23.43	-36.6	-37.8	29.0	3.02e+01	49	40	0	280494080	46	6686
2026-01-03 16:10:23.19	185.69	23.26	-36.6	-37.8	29.0	3.02e+01	61	40	0	282591232	46	6726
2026-01-03 16:10:24.20	185.76	23.09	-36.5	-37.7	29.0	3.02e+01	56	40	0	284688384	46	6614
2026-01-03 16:10:25.20	185.83	22.93	-36.6	-37.8	28.9	3.02e+01	44	40	0	286261248	46	6716
2026-01-03 16:10:26.21	185.90	22.76	-36.5	-37.7	29.1	3.02e+01	54	40	0	288358400	46	6600
2026-01-03 16:10:27.22	185.97	22.60	-36.6	-37.8	29.0	3.02e+01	57	40	0	289931264	46	6667
2026-01-03 16:10:28.23	186.04	22.44	-36.6	-37.9	28.9	3.02e+01	58	40	0	292028416	46	6729
2026-01-03 16:10:29.24	186.11	22.28	-36.5	-37.7	29.1	3.02e+01	61	40	0	294125568	46	6602
2026-01-03 16:10:30.25	186.17	22.12	-36.6	-37.9	28.8	3.02e+01	61	40	0	295698432	46	6751
2026-01-03 16:10:31.26	186.24	21.96	-36.6	-37.8	28.9	3.02e+01	58	40	0	297795584	46	6688
2026-01-03 16:10:32.27	186.30	21.80	-36.6	-37.8	28.9	3.02e+01	58	40	0	299892736	46	6719
2026-01-03 16:10:33.28	186.37	21.65	-36.6	-37.8	28.9	3.02e+01	50	40	0	301465600	46	6683
2026-01-03 16:10:34.29	186.43	21.49	-36.4	-37.7	29.0	3.02e+01	61	40	0	303562752	46	6590
2026-01-03 16:10:35.29	186.50	21.34	-36.4	-37.6	29.0	3.02e+01	58	40	0	305135616	46	6551
2026-01-03 16:10:36.31	186.56	21.18	-36.4	-37.7	29.0	3.02e+01	58	40	0	307232768	46	6581
2026-01-03 16:10:37.31	186.62	21.03	-36.4	-37.7	29.0	3.02e+01	61	40	0	309329920	46	6582
2026-01-03 16:10:38.32	186.68	20.88	-36.4	-37.6	29.1	3.02e+01	51	40	0	310902784	46	6530
2026-01-03 16:10:39.33	186.74	20.73	-36.3	-37.5	29.1	3.02e+01	58	40	0	312999936	46	6460
2026-01-03 16:10:40.35	186.80	20.58	-36.2	-37.5	29.2	3.02e+01	59	40	0	315097088	46	6446
2026-01-03 16:10:41.35	186.86	20.43	-36.5	-37.7	29.0	3.02e+01	48	40	0	316669952	46	6612
2026-01-03 16:10:42.36	186.92	20.28	-36.2	-37.4	29.2	3.02e+01	57	40	0	318767104	46	6369
2026-01-03 16:10:43.37	186.98	20.13	-36.2	-37.4	29.2	3.02e+01	59	40	0	320339968	46	6374
2026-01-03 16:10:44.38	187.04	19.99	-36.2	-37.4	29.2	3.02e+01	60	40	0	322437120	46	6394
2026-01-03 16:10:45.39	187.10	19.84	-36.3	-37.6	29.1	3.02e+01	59	40	0	324534272	46	6523
2026-01-03 16:10:46.40	187.16	19.70	-36.0	-37.3	29.3	3.02e+01	54	40	0	326107136	46	6293
2026-01-03 16:10:47.41	187.21	19.55	-36.0	-37.2	29.3	3.02e+01	60	40	0	328204288	46	6273
2026-01-03 16:10:48.41	187.27	19.41	-36.1	-37.3	29.3	3.02e+01	58	40	0	329777152	46	6297
2026-01-03 16:10:49.43	187.32	19.27	-36.1	-37.3	29.3	3.02e+01	53	40	0	331874304	46	6286
2026-01-03 16:10:50.43	187.38	19.13	-36.0	-37.2	29.4	3.02e+01	58	40	0	333447168	46	6262
2026-01-03 16:10:51.44	187.43	18.99	-36.0	-37.2	29.4	3.02e+01	59	40	0	335544320	46	6225
2026-01-03 16:10:52.45	187.49	18.85	-36.1	-37.3	29.3	3.02e+01	60	40	0	337641472	46	6311
2026-01-03 16:10:53.46	187.54	18.71	-36.0	-37.2	29.3	3.02e+01	62	40	0	339214336	46	6257
2026-01-03 16:10:54.47	187.59	18.58	-36.0	-37.2	29.3	3.02e+01	54	40	0	341311488	46	6263
2026-01-03 16:10:55.48	187.65	18.44	-36.2	-37.4	29.3	3.02e+01	59	40	0	343408640	46	6367
2026-01-03 16:10:56.49	187.70	18.30	-36.1	-37.3	29.3	3.02e+01	58	40	0	344981504	46	6284
2026-01-03 16:10:57.50	187.75	18.17	-36.1	-37.3	29.4	3.02e+01	56	40	0	347078656	46	6294
2026-01-03 16:10:58.51	187.80	18.03	-36.1	-37.3	29.3	3.02e+01	59	40	0	348651520	46	6299
2026-01-03 16:10:59.52	187.85	17.90	-36.0	-37.2	29.4	3.02e+01	47	40	0	350748672	46	6211
2026-01-03 16:11:00.53	187.90	17.77	-36.0	-37.2	29.4	3.02e+01	61	40	0	352845824	46	6274
2026-01-03 16:11:01.54	187.95	17.64	-36.0	-37.2	29.4	3.02e+01	62	40	0	354418688	46	6237
2026-01-03 16:11:02.55	188.00	17.50	-36.0	-37.2	29.4	3.02e+01	46	40	0	356515840	46	6270
2026-01-03 16:11:03.56	188.05	17.37	-36.0	-37.2	29.4	3.02e+01	59	40	0	358088704	46	6238
2026-01-03 16:11:04.57	188.10	17.24	-36.0	-37.2	29.4	3.02e+01	58	40	0	360185856	46	6219
2026-01-03 16:11:05.58	188.15	17.12	-36.0	-37.2	29.3	3.02e+01	63	40	0	362283008	46	6242
2026-01-03 16:11:06.59	188.20	16.99	-35.9	-37.1	29.4	3.02e+01	59	40	0	363855872	46	6193
2026-01-03 16:11:07.60	188.24	16.86	-36.0	-37.3	29.2	3.02e+01	55	40	0	365953024	46	6296
2026-01-03 16:11:08.60	188.29	16.73	-35.8	-37.1	29.5	3.02e+01	58	40	0	368050176	46	6148
2026-01-03 16:11:09.61	188.34	16.61	-35.9	-37.2	29.3	3.02e+01	56	40	0	369623040	46	6217
2026-01-03 16:11:10.62	188.38	16.48	-36.0	-37.2	29.4	3.02e+01	45	40	0	371720192	46	6231
2026-01-03 16:11:11.63	188.43	16.36	-35.9	-37.1	29.4	3.02e+01	58	40	0	373293056	46	6172
2026-01-03 16:11:12.64	188.48	16.23	-35.9	-37.1	29.4	3.02e+01	60	40	0	375390208	46	6147
2026-01-03 16:11:13.64	188.52	16.11	-35.9	-37.1	29.5	3.02e+01	60	40	0	377487360	46	6162
2026-01-03 16:11:14.65	188.56	15.99	-35.9	-37.1	29.5	3.02e+01	61	40	0	379060224	46	6138
2026-01-03 16:11:15.67	188.61	15.87	-36.0	-37.2	29.3	3.02e+01	45	40	0	381157376	46	6240
2026-01-03 16:11:16.68	188.65	15.74	-35.9	-37.1	29.4	3.02e+01	60	40	0	382730240	46	6187
2026-01-03 16:11:17.68	188.70	15.63	-36.0	-37.2	29.4	3.02e+01	61	40	0	384827392	46	6230
2026-01-03 16:11:18.69	188.74	15.51	-36.1	-37.3	29.3	3.02e+01	46	40	0	386924544	46	6324
2026-01-03 16:11:19.70	188.78	15.39	-35.9	-37.1	29.4	3.02e+01	57	40	0	388497408	46	6186
2026-01-03 16:11:20.71	188.83	15.27	-36.0	-37.2	29.3	3.02e+01	59	40	0	390594560	46	6238
2026-01-03 16:11:21.72	188.87	15.15	-36.0	-37.2	29.4	3.02e+01	58	40	0	392167424	46	6269
2026-01-03 16:11:22.73	188.91	15.03	-36.1	-37.3	29.3	3.02e+01	59	40	0	394264576	46	6297
2026-01-03 16:11:23.74	188.95	14.91	-36.1	-37.3	29.3	3.02e+01	57	40	0	396361728	46	6339
2026-01-03 16:11:24.75	188.99	14.80	-36.1	-37.3	29.2	3.02e+01	61	40	0	397934592	46	6348
2026-01-03 16:11:25.76	189.04	14.68	-36.2	-37.5	29.2	3.02e+01	62	40	0	400031744	46	6438
2026-01-03 16:11:26.77	189.08	14.57	-36.3	-37.5	29.2	3.02e+01	40	40	0	401604608	46	6494
2026-01-03 16:11:27.78	189.12	14.45	-36.3	-37.5	29.1	3.02e+01	58	40	0	403701760	46	6468
2026-01-03 16:11:28.79	189.16	14.34	-36.2	-37.4	29.1	3.02e+01	44	40	0	405798912	46	6418
2026-01-03 16:11:29.80	189.20	14.23	-36.2	-37.4	29.2	3.02e+01	58	40	0	407371776	46	6385
2026-01-03 16:11:30.81	189.24	14.11	-36.2	-37.4	29.1	3.02e+01	62	40	0	409468928	46	6416
2026-01-03 16:11:31.82	189.28	14.00	-36.2	-37.4	29.1	3.02e+01	45	40	0	411041792	46	6418
2026-01-03 16:11:32.83	189.32	13.89	-36.2	-37.4	29.1	3.02e+01	60	40	0	413138944	46	6415
2026-01-03 16:11:33.84	189.36	13.78	-36.4	-37.6	29.0	3.02e+01	57	40	0	415236096	46	6533
2026-01-03 16:11:34.85	189.39	13.67	-36.2	-37.5	29.1	3.02e+01	59	40	0	416808960	46	6435
2026-01-03 16:11:35.86	189.43	13.56	-36.3	-37.5	29.0	3.02e+01	58	40	0	418906112	46	6491
2026-01-03 16:11:36.87	189.47	13.45	-36.3	-37.6	28.9	3.02e+01	48	40	0	421003264	46	6500
2026-01-03 16:11:37.88	189.51	13.34	-36.4	-37.6	28.9	3.02e+01	59	40	0	422576128	46	6537
2026-01-03 16:11:38.89	189.55	13.23	-36.3	-37.5	29.0	3.02e+01	59	40	0	424673280	46	6479
2026-01-03 16:11:39.90	189.58	13.12	-36.2	-37.4	29.0	3.02e+01	46	40	0	426246144	46	6420
2026-01-03 16:11:40.91	189.62	13.01	-36.2	-37.5	28.9	3.02e+01	59	40	0	428343296	46	6456
2026-01-03 16:11:41.92	189.66	12.91	-36.3	-37.6	28.9	3.02e+01	62	40	0	430440448	46	6519
2026-01-03 16:11:42.93	189.69	12.80	-36.4	-37.7	28.8	3.02e+01	58	40	0	432013312	46	6578
2026-01-03 16:11:43.94	189.73	12.70	-36.4	-37.6	28.9	3.02e+01	58	40	0	434110464	46	6557
2026-01-03 16:11:44.95	189.76	12.59	-36.5	-37.8	28.8	3.02e+01	59	40	0	436207616	46	6671
2026-01-03 16:11:45.96	189.80	12.49	-36.4	-37.7	28.8	3.02e+01	52	40	0	437780480	46	6584
2026-01-03 16:11:46.97	189.84	12.38	-36.2	-37.5	29.1	3.02e+01	57	40	0	439877632	46	6434
2026-01-03 16:11:47.98	189.87	12.28	-36.3	-37.6	29.0	3.02e+01	47	40	0	441450496	46	6513
2026-01-03 16:11:48.99	189.91	12.17	-36.4	-37.6	28.9	3.02e+01	61	40	0	443547648	46	6543
2026-01-03 16:11:50.00	189.94	12.07	-36.3	-37.5	28.9	3.02e+01	59	40	0	445644800	46	6494
2026-01-03 16:11:51.01	189.97	11.97	-36.4	-37.6	28.9	3.02e+01	59	40	0	447217664	46	6550
2026-01-03 16:11:52.02	190.01	11.87	-36.4	-37.6	28.9	3.02e+01	62	40	0	449314816	46	6543
2026-01-03 16:11:53.02	190.04	11.77	-36.5	-37.7	28.8	3.02e+01	45	40	0	450887680	46	6640
2026-01-03 16:11:54.04	190.08	11.66	-36.5	-37.7	28.8	3.02e+01	57	40	0	452984832	46	6637
2026-01-03 16:11:55.05	190.11	11.56	-36.4	-37.6	28.9	3.02e+01	59	40	0	455081984	46	6547
2026-01-03 16:11:56.06	190.14	11.46	-36.5	-37.8	28.7	3.02e+01	44	40	0	456654848	46	6654
2026-01-03 16:11:57.06	190.18	11.36	-36.5	-37.7	28.7	3.02e+01	61	40	0	458752000	46	6646
2026-01-03 16:11:58.07	190.21	11.27	-36.6	-37.8	28.7	3.02e+01	58	40	0	460324864	46	6717
2026-01-03 16:11:59.08	190.24	11.17	-36.6	-37.8	28.7	3.02e+01	59	40	0	462422016	46	6699
2026-01-03 16:12:00.09	190.27	11.07	-36.7	-38.0	28.6	3.02e+01	58	40	0	464519168	46	6807
2026-01-03 16:12:01.10	190.31	10.97	-36.6	-37.8	28.7	3.02e+01	57	40	0	466092032	46	6703
2026-01-03 16:12:02.11	190.34	10.87	-36.6	-37.9	28.5	3.02e+01	58	40	0	468189184	46	6771
2026-01-03 16:12:03.12	190.37	10.78	-36.8	-38.0	28.5	3.02e+01	58	40	0	469762048	46	6875
2026-01-03 16:12:04.12	190.40	10.68	-36.6	-37.9	28.7	3.02e+01	46	40	0	471859200	46	6761
2026-01-03 16:12:05.13	190.43	10.58	-36.8	-38.1	28.4	3.02e+01	58	40	0	473956352	46	6914
