passes_logs/2026/01/03/R4.6S_Anadyr/R4.6S_Anadyr__20260103_030657_SUOMI_NPP_rec.log

#Pass ID: 20260103_030657_SUOMI NPP
#Satellite: SUOMI NPP
#Configuration: NPP
#almurnet v.1.7.20251203
#Start time: 2026-01-03 03:06:59

#Version: 2.2.20231116
#Station: R4.6S_Anadyr
#Location: 177.4865 lon 64.73178 lat
#TLE: 1 37849U 11061A   26001.07732418  .00000182  00000+0  10735-3 0  9990
#TLE: 2 37849  98.7795 303.2470 0002580  87.2016 272.9455 14.19520779734739

#Time	Az	El	Level	Level2	SNR	BER	BlckErr	Temp	State	Recorded	gain1	gain2
2026-01-03 03:06:59.20	231.93	0.07	-49.7	-61.4	3.5	8.45e-01	0	36	0	0	60	42613
2026-01-03 03:07:00.21	232.02	0.11	-50.0	-65.2	3.6	1.51e+00	0	37	104	0	60	66120
2026-01-03 03:07:01.22	232.11	0.16	-50.0	-65.2	3.6	1.51e+00	0	37	104	0	60	65942
2026-01-03 03:07:02.23	232.19	0.20	-50.0	-65.2	3.6	1.51e+00	0	38	104	0	60	66083
2026-01-03 03:07:03.24	232.28	0.25	-50.0	-65.3	3.6	1.51e+00	0	37	104	0	60	66622
2026-01-03 03:07:04.25	232.37	0.29	-49.9	-65.2	3.6	1.51e+00	0	38	104	0	60	65627
2026-01-03 03:07:05.25	232.46	0.34	-49.9	-65.2	3.6	1.51e+00	0	38	104	0	60	65913
2026-01-03 03:07:06.26	232.55	0.38	-50.0	-65.2	3.6	1.51e+00	0	38	104	0	60	65774
2026-01-03 03:07:07.27	232.64	0.43	-49.8	-65.2	3.6	1.51e+00	0	38	104	0	60	65492
2026-01-03 03:07:08.29	232.73	0.48	-49.8	-65.2	3.6	1.51e+00	0	38	104	0	60	65438
2026-01-03 03:07:09.29	232.81	0.52	-49.9	-65.1	3.6	1.51e+00	0	38	104	0	60	65112
2026-01-03 03:07:10.30	232.90	0.57	-49.9	-65.0	3.6	1.51e+00	0	38	104	0	60	64640
2026-01-03 03:07:11.31	232.99	0.61	-49.9	-65.1	3.6	1.51e+00	0	38	104	0	60	64882
2026-01-03 03:07:12.32	233.08	0.66	-49.7	-65.0	3.6	1.51e+00	0	38	104	0	60	64008
2026-01-03 03:07:13.33	233.17	0.70	-49.4	-64.6	3.6	1.51e+00	0	38	104	0	60	61318
2026-01-03 03:07:14.34	233.27	0.75	-49.0	-64.2	3.6	1.51e+00	0	38	104	0	60	58416
2026-01-03 03:07:15.35	233.36	0.79	-48.0	-63.2	3.6	1.51e+00	0	38	104	0	60	52201
2026-01-03 03:07:16.36	233.45	0.84	-47.6	-62.9	3.6	1.51e+00	0	38	104	0	60	50197
2026-01-03 03:07:17.37	233.54	0.88	-47.6	-62.8	3.6	1.51e+00	0	38	104	0	60	49971
2026-01-03 03:07:18.38	233.63	0.93	-47.6	-62.8	3.6	1.51e+00	0	38	104	0	60	49818
2026-01-03 03:07:19.39	233.72	0.97	-47.6	-62.8	3.6	1.51e+00	0	38	104	0	60	49881
2026-01-03 03:07:20.40	233.81	1.02	-47.6	-62.8	3.6	1.51e+00	0	38	104	0	60	49767
2026-01-03 03:07:21.41	233.91	1.07	-47.6	-62.8	3.6	1.51e+00	0	38	104	0	60	49750
2026-01-03 03:07:22.42	234.00	1.11	-47.6	-62.8	3.6	1.51e+00	0	38	104	0	60	49895
2026-01-03 03:07:23.43	234.09	1.16	-47.6	-62.8	3.6	1.51e+00	0	38	104	0	60	49615
2026-01-03 03:07:24.44	234.19	1.20	-47.6	-62.8	3.6	1.51e+00	0	38	104	0	60	49627
2026-01-03 03:07:25.45	234.28	1.25	-47.6	-62.8	3.6	1.51e+00	0	38	104	0	60	49861
2026-01-03 03:07:26.46	234.37	1.29	-47.6	-62.8	3.6	1.51e+00	0	38	104	0	60	49745
2026-01-03 03:07:27.48	234.47	1.34	-47.6	-62.8	3.6	1.51e+00	0	38	104	0	60	49918
2026-01-03 03:07:28.49	234.56	1.39	-47.6	-62.8	3.6	1.51e+00	0	38	104	0	60	49744
2026-01-03 03:07:29.50	234.66	1.43	-47.6	-62.8	3.6	1.51e+00	0	38	104	0	60	49702
2026-01-03 03:07:30.50	234.75	1.48	-47.6	-62.8	3.6	1.51e+00	0	38	104	0	60	49647
2026-01-03 03:07:31.52	234.85	1.52	-47.6	-62.8	3.6	1.51e+00	0	38	104	0	60	49687
2026-01-03 03:07:32.53	234.94	1.57	-47.6	-62.7	3.6	1.51e+00	0	38	104	0	60	49430
2026-01-03 03:07:33.54	235.04	1.61	-47.6	-62.8	3.6	1.51e+00	0	38	104	0	60	49785
2026-01-03 03:07:34.55	235.14	1.66	-47.6	-62.7	3.6	1.51e+00	0	38	104	0	60	49514
2026-01-03 03:07:35.56	235.23	1.70	-47.6	-62.8	3.6	1.51e+00	0	38	104	0	60	49899
2026-01-03 03:07:36.57	235.33	1.75	-47.6	-62.7	3.6	1.51e+00	0	38	104	0	60	49310
2026-01-03 03:07:37.58	235.43	1.80	-47.5	-62.7	3.6	1.51e+00	0	38	104	0	60	49563
2026-01-03 03:07:38.59	235.52	1.84	-47.5	-62.7	3.6	1.51e+00	0	38	104	0	60	49522
2026-01-03 03:07:39.60	235.62	1.89	-47.6	-62.7	3.6	1.51e+00	0	38	104	0	60	49596
2026-01-03 03:07:40.61	235.72	1.93	-47.6	-62.7	3.6	1.51e+00	0	38	104	0	60	49293
2026-01-03 03:07:41.62	235.82	1.98	-47.5	-62.7	3.6	1.51e+00	0	38	104	0	60	49360
2026-01-03 03:07:42.63	235.92	2.02	-47.5	-62.7	3.6	1.51e+00	0	38	104	0	60	49331
2026-01-03 03:07:43.64	236.02	2.07	-47.5	-62.7	3.6	1.51e+00	0	38	104	0	60	49606
2026-01-03 03:07:44.65	236.11	2.12	-47.5	-62.7	3.6	1.51e+00	0	38	104	0	60	49463
2026-01-03 03:07:45.66	236.21	2.16	-47.5	-62.7	3.6	1.51e+00	0	38	104	0	60	49406
2026-01-03 03:07:46.67	236.31	2.21	-47.5	-62.7	3.6	1.51e+00	0	38	104	0	60	49471
2026-01-03 03:07:47.68	236.41	2.25	-47.5	-62.7	3.6	1.51e+00	0	38	104	0	60	49339
2026-01-03 03:07:48.69	236.51	2.30	-47.5	-62.7	3.6	1.51e+00	0	38	104	0	60	49605
2026-01-03 03:07:49.70	236.61	2.34	-47.5	-62.7	3.6	1.51e+00	0	38	104	0	60	49606
2026-01-03 03:07:50.71	236.71	2.39	-47.5	-62.7	3.6	1.51e+00	0	38	104	0	60	49451
2026-01-03 03:07:51.72	236.82	2.44	-47.5	-62.7	3.6	1.51e+00	0	38	104	0	60	49441
2026-01-03 03:07:52.73	236.92	2.48	-47.5	-62.7	3.6	1.51e+00	0	38	104	0	60	49567
2026-01-03 03:07:53.74	237.02	2.53	-47.5	-62.7	3.6	1.51e+00	0	38	104	0	60	49405
2026-01-03 03:07:54.75	237.12	2.57	-47.5	-62.7	3.6	1.51e+00	0	38	104	0	60	49300
2026-01-03 03:07:55.76	237.22	2.62	-47.5	-62.7	3.6	1.51e+00	0	38	104	0	60	49296
2026-01-03 03:07:56.77	237.33	2.66	-47.5	-62.7	3.6	1.51e+00	0	38	104	0	60	49361
2026-01-03 03:07:57.78	237.43	2.71	-47.5	-62.7	3.6	1.51e+00	0	38	104	0	60	49594
2026-01-03 03:07:58.79	237.53	2.76	-47.5	-62.7	3.6	1.51e+00	0	38	104	0	60	49315
2026-01-03 03:07:59.80	237.64	2.80	-47.5	-62.7	3.6	1.51e+00	0	38	104	0	60	49191
2026-01-03 03:08:00.81	237.74	2.85	-47.5	-62.7	3.6	1.51e+00	0	38	104	0	60	49433
2026-01-03 03:08:01.82	237.84	2.89	-47.5	-62.7	3.6	1.51e+00	0	38	104	0	60	49269
2026-01-03 03:08:02.83	237.95	2.94	-47.5	-62.7	3.6	1.51e+00	0	38	104	0	60	49249
2026-01-03 03:08:03.84	238.05	2.98	-47.5	-62.7	3.6	1.51e+00	0	39	104	0	60	49235
2026-01-03 03:08:04.85	238.16	3.03	-47.5	-62.6	3.6	1.51e+00	0	39	104	0	60	48798
2026-01-03 03:08:05.86	238.26	3.08	-47.7	-62.2	3.6	1.51e+00	0	39	104	0	60	46763
2026-01-03 03:08:06.87	238.37	3.12	-47.6	-62.7	3.6	1.51e+00	0	39	104	0	60	49239
2026-01-03 03:08:07.88	238.47	3.17	-47.5	-62.6	3.6	1.51e+00	0	39	104	0	60	48786
2026-01-03 03:08:08.89	238.58	3.21	-47.4	-62.5	3.6	1.51e+00	0	38	104	0	60	48432
2026-01-03 03:08:09.90	238.69	3.26	-47.7	-62.1	3.6	1.51e+00	0	39	104	0	60	45822
2026-01-03 03:08:10.91	238.79	3.30	-47.7	-61.8	3.6	1.51e+00	0	39	104	0	60	44590
2026-01-03 03:08:11.92	238.90	3.35	-47.7	-61.7	3.6	1.51e+00	0	39	104	0	60	43921
2026-01-03 03:08:12.93	239.01	3.40	-47.7	-61.5	3.6	1.51e+00	0	39	104	0	60	42856
2026-01-03 03:08:13.94	239.12	3.44	-47.7	-60.9	3.6	1.51e+00	0	39	104	0	60	39906
2026-01-03 03:08:14.95	239.23	3.49	-47.7	-60.9	3.6	1.51e+00	0	39	104	0	60	40049
2026-01-03 03:08:15.96	239.33	3.53	-47.8	-61.1	3.6	1.45e+00	0	39	104	0	60	40884
2026-01-03 03:08:16.97	239.44	3.58	-47.5	-62.7	3.6	1.51e+00	0	39	104	0	60	49109
2026-01-03 03:08:17.99	239.55	3.63	-47.7	-62.1	3.6	1.51e+00	0	39	104	0	60	46151
2026-01-03 03:08:18.99	239.66	3.67	-47.7	-61.8	3.6	1.51e+00	0	39	104	0	60	44418
2026-01-03 03:08:20.01	239.77	3.72	-47.7	-61.0	3.7	1.51e+00	0	39	104	0	60	40614
2026-01-03 03:08:21.02	239.88	3.76	-47.7	-60.8	3.6	1.50e+00	0	39	104	0	60	39714
2026-01-03 03:08:22.03	239.99	3.81	-47.7	-60.5	3.8	1.46e+00	0	39	104	0	60	38330
2026-01-03 03:08:23.04	240.10	3.85	-47.6	-59.9	3.7	1.47e+00	0	39	104	0	60	35608
2026-01-03 03:08:24.05	240.22	3.90	-47.7	-59.1	3.8	1.41e+00	0	38	0	0	60	32515
2026-01-03 03:08:25.05	240.33	3.94	-47.6	-59.9	3.9	1.46e+00	0	39	104	0	60	35567
2026-01-03 03:08:26.06	240.44	3.99	-47.6	-58.6	3.7	1.41e+00	0	39	0	0	60	30690
2026-01-03 03:08:27.07	240.55	4.04	-47.5	-58.2	4.5	1.32e+00	66	39	104	0	60	29389
2026-01-03 03:08:28.08	240.66	4.08	-47.5	-56.3	4.8	8.71e-01	8	38	0	1048576	60	23541
2026-01-03 03:08:29.09	240.78	4.13	-47.4	-55.3	5.7	4.46e-01	68	39	0	3145728	60	21026
2026-01-03 03:08:30.10	240.89	4.17	-47.4	-55.2	5.8	3.29e-01	0	39	0	5242880	60	20699
2026-01-03 03:08:31.11	241.00	4.22	-47.4	-55.1	6.0	4.84e-01	90	39	0	7340032	60	20577
2026-01-03 03:08:32.12	241.12	4.26	-47.4	-55.2	5.7	3.39e-01	92	39	0	8388608	60	20813
2026-01-03 03:08:33.13	241.23	4.31	-47.2	-54.0	7.1	1.83e-01	7	39	0	10485760	60	18083
2026-01-03 03:08:34.14	241.35	4.35	-47.2	-54.2	7.1	1.28e-01	92	39	0	12582912	60	18453
2026-01-03 03:08:35.15	241.46	4.40	-47.1	-53.5	7.9	7.32e-02	6	39	0	14680064	60	17037
2026-01-03 03:08:36.16	241.58	4.45	-47.0	-53.0	8.5	5.71e-02	91	39	0	16777216	60	16209
2026-01-03 03:08:37.17	241.69	4.49	-46.9	-52.6	8.9	3.86e-02	0	39	0	18874368	60	15482
2026-01-03 03:08:38.18	241.81	4.54	-46.8	-52.4	9.3	2.21e-02	92	39	0	19922944	60	15135
2026-01-03 03:08:39.19	241.92	4.58	-46.8	-52.1	9.7	9.53e-03	90	39	0	22020096	60	14526
2026-01-03 03:08:40.20	242.04	4.63	-46.6	-51.6	10.3	4.88e-03	0	39	0	24117248	60	13666
2026-01-03 03:08:41.21	242.16	4.67	-46.6	-51.5	10.4	4.50e-03	92	39	0	26214400	60	13648
2026-01-03 03:08:42.22	242.27	4.72	-46.4	-50.9	11.2	2.22e-03	0	39	0	28311552	60	12689
2026-01-03 03:08:43.23	242.39	4.76	-46.3	-50.6	11.4	8.16e-04	92	39	0	29360128	60	12294
2026-01-03 03:08:44.25	242.51	4.81	-46.3	-50.6	11.4	7.72e-04	0	39	0	31457280	60	12271
2026-01-03 03:08:45.25	242.63	4.85	-46.4	-50.9	11.3	1.06e-03	90	39	0	33554432	60	12607
2026-01-03 03:08:46.27	242.75	4.90	-46.2	-50.4	11.8	4.79e-04	92	39	0	35651584	60	12031
2026-01-03 03:08:47.28	242.87	4.95	-46.2	-50.2	12.1	2.67e-04	0	39	0	37748736	60	11749
2026-01-03 03:08:48.28	242.99	4.99	-45.7	-49.1	13.2	2.44e-05	90	39	0	38797312	60	10355
2026-01-03 03:08:49.30	243.11	5.04	-45.6	-49.1	13.4	3.96e-05	0	39	0	40894464	60	10262
2026-01-03 03:08:50.31	243.23	5.08	-45.7	-49.2	13.2	2.36e-05	92	39	0	42991616	60	10429
2026-01-03 03:08:51.32	243.35	5.13	-45.5	-48.8	13.7	5.30e-06	0	39	0	45088768	60	9944
2026-01-03 03:08:52.33	243.47	5.17	-45.2	-48.4	14.1	2.20e-06	92	39	0	47185920	60	9462
2026-01-03 03:08:53.34	243.59	5.22	-45.2	-48.3	14.0	1.50e-06	92	39	0	48234496	60	9430
2026-01-03 03:08:54.35	243.71	5.26	-45.1	-48.1	14.5	1.50e-06	92	39	0	50331648	60	9182
2026-01-03 03:08:55.36	243.83	5.31	-45.1	-48.2	14.6	7.00e-07	90	39	0	52428800	60	9238
2026-01-03 03:08:56.37	243.96	5.35	-45.1	-48.0	14.7	0.00e+00	0	39	0	54525952	60	9100
2026-01-03 03:08:57.38	244.08	5.40	-44.7	-47.3	15.2	0.00e+00	92	39	0	56623104	60	8399
2026-01-03 03:08:58.39	244.20	5.44	-44.8	-47.5	15.1	0.00e+00	0	39	0	57671680	60	8620
2026-01-03 03:08:59.40	244.33	5.49	-44.7	-47.3	15.4	7.00e-07	90	39	0	59768832	60	8388
2026-01-03 03:09:00.41	244.45	5.53	-44.6	-47.1	15.4	0.00e+00	4	38	0	61865984	60	8232
2026-01-03 03:09:01.42	244.57	5.58	-44.6	-47.1	15.4	0.00e+00	90	39	0	63963136	60	8225
2026-01-03 03:09:02.43	244.70	5.62	-44.1	-46.4	16.2	0.00e+00	91	39	0	66060288	60	7589
2026-01-03 03:09:03.43	244.82	5.67	-44.0	-46.3	16.4	0.00e+00	0	39	0	67108864	60	7469
2026-01-03 03:09:04.44	244.95	5.71	-43.8	-46.0	16.7	0.00e+00	90	39	0	69206016	60	7171
2026-01-03 03:09:05.45	245.07	5.75	-43.7	-45.8	17.0	0.00e+00	0	39	0	71303168	60	7063
2026-01-03 03:09:06.46	245.20	5.80	-43.4	-45.4	17.3	0.00e+00	92	39	0	73400320	60	6760
2026-01-03 03:09:07.47	245.32	5.84	-43.2	-45.2	17.6	0.00e+00	36	39	0	75497472	60	6543
2026-01-03 03:09:08.48	245.45	5.89	-43.1	-45.0	17.7	0.00e+00	92	39	0	76546048	60	6453
2026-01-03 03:09:09.49	245.58	5.93	-43.1	-44.9	17.9	0.00e+00	90	39	0	78643200	60	6370
2026-01-03 03:09:10.50	245.71	5.98	-43.1	-44.9	17.8	0.00e+00	0	39	0	80740352	60	6384
2026-01-03 03:09:11.51	245.83	6.02	-42.8	-44.6	18.2	0.00e+00	92	39	0	82837504	60	6115
2026-01-03 03:09:12.52	245.96	6.07	-42.7	-44.5	18.2	0.00e+00	0	39	0	84934656	58	6795
2026-01-03 03:09:13.53	246.09	6.11	-42.6	-44.3	18.5	0.00e+00	71	39	0	87031808	58	6621
2026-01-03 03:09:14.54	246.22	6.16	-42.3	-43.9	18.8	0.00e+00	11	39	0	88080384	58	6333
2026-01-03 03:09:15.55	246.35	6.20	-42.2	-43.8	18.9	0.00e+00	92	39	0	90177536	58	6255
2026-01-03 03:09:16.56	246.48	6.24	-41.9	-43.3	19.3	0.00e+00	92	39	0	92274688	58	5955
2026-01-03 03:09:17.57	246.61	6.29	-41.6	-43.0	19.6	0.00e+00	0	39	0	94371840	56	6462
2026-01-03 03:09:18.58	246.74	6.33	-41.6	-43.0	19.7	0.00e+00	92	39	0	96468992	56	6434
2026-01-03 03:09:19.59	246.87	6.38	-41.6	-42.9	19.8	0.00e+00	0	39	0	97517568	56	6378
2026-01-03 03:09:20.60	247.00	6.42	-41.6	-43.0	19.8	0.00e+00	90	39	0	99614720	56	6456
2026-01-03 03:09:21.61	247.13	6.46	-41.4	-42.7	20.0	0.00e+00	0	39	0	101711872	56	6205
2026-01-03 03:09:22.62	247.26	6.51	-41.4	-42.8	20.0	0.00e+00	92	39	0	103809024	56	6280
2026-01-03 03:09:23.63	247.40	6.55	-41.3	-42.7	20.0	0.00e+00	91	39	0	105906176	56	6187
2026-01-03 03:09:24.64	247.53	6.60	-41.4	-42.7	20.1	0.00e+00	0	39	0	106954752	56	6224
2026-01-03 03:09:25.65	247.66	6.64	-41.4	-42.8	20.0	0.00e+00	91	39	0	109051904	56	6253
2026-01-03 03:09:26.66	247.80	6.68	-41.3	-42.6	20.2	0.00e+00	0	39	0	111149056	56	6142
2026-01-03 03:09:27.67	247.93	6.73	-41.0	-42.2	20.4	0.00e+00	62	39	0	113246208	56	5894
2026-01-03 03:09:28.68	248.07	6.77	-40.8	-42.1	20.7	0.00e+00	0	39	0	115343360	56	5775
2026-01-03 03:09:29.70	248.20	6.81	-40.7	-41.9	20.8	0.00e+00	92	39	0	116391936	54	6336
2026-01-03 03:09:30.71	248.34	6.86	-40.5	-41.7	20.9	0.00e+00	92	39	0	118489088	54	6234
2026-01-03 03:09:31.72	248.47	6.90	-40.3	-41.5	21.1	0.00e+00	0	39	0	120586240	54	6062
2026-01-03 03:09:32.73	248.61	6.95	-40.3	-41.5	21.1	0.00e+00	92	39	0	122683392	54	6066
2026-01-03 03:09:33.74	248.74	6.99	-40.3	-41.4	21.2	0.00e+00	0	39	0	124780544	54	6012
2026-01-03 03:09:34.75	248.88	7.03	-40.2	-41.4	21.3	0.00e+00	92	39	0	125829120	54	5970
2026-01-03 03:09:35.76	249.02	7.07	-40.5	-41.7	21.0	0.00e+00	0	39	0	127926272	54	6176
2026-01-03 03:09:36.77	249.16	7.12	-40.6	-41.8	20.8	0.00e+00	92	39	0	130023424	54	6263
2026-01-03 03:09:37.78	249.29	7.16	-40.6	-41.8	20.9	0.00e+00	92	39	0	132120576	54	6308
2026-01-03 03:09:38.79	249.43	7.20	-40.9	-42.1	20.4	0.00e+00	23	39	0	134217728	54	6531
2026-01-03 03:09:39.80	249.57	7.25	-40.6	-41.8	20.9	0.00e+00	92	39	0	135266304	54	6268
2026-01-03 03:09:40.81	249.71	7.29	-40.8	-42.1	20.7	0.00e+00	0	39	0	137363456	54	6474
2026-01-03 03:09:41.82	249.85	7.33	-40.9	-42.1	20.6	0.00e+00	92	39	0	139460608	54	6538
2026-01-03 03:09:42.83	249.99	7.38	-40.7	-42.0	20.8	0.00e+00	0	39	0	141557760	54	6404
2026-01-03 03:09:43.84	250.13	7.42	-40.6	-41.8	20.9	0.00e+00	92	39	0	143654912	54	6294
2026-01-03 03:09:44.85	250.27	7.46	-40.6	-41.8	20.9	0.00e+00	92	39	0	144703488	54	6298
2026-01-03 03:09:45.86	250.41	7.50	-40.6	-41.7	21.0	0.00e+00	92	39	0	146800640	54	6231
2026-01-03 03:09:46.87	250.55	7.55	-40.4	-41.6	21.1	0.00e+00	92	39	0	148897792	54	6138
2026-01-03 03:09:47.88	250.69	7.59	-40.6	-41.7	21.1	0.00e+00	0	39	0	150994944	54	6228
2026-01-03 03:09:48.89	250.84	7.63	-40.6	-41.8	21.1	0.00e+00	92	39	0	153092096	54	6286
2026-01-03 03:09:49.90	250.98	7.67	-40.5	-41.6	21.2	0.00e+00	0	39	0	155189248	54	6154
2026-01-03 03:09:50.91	251.12	7.71	-40.7	-41.8	21.0	0.00e+00	92	39	0	156237824	54	6316
2026-01-03 03:09:51.92	251.26	7.76	-40.7	-41.9	20.8	0.00e+00	10	39	0	158334976	54	6389
2026-01-03 03:09:52.93	251.41	7.80	-41.0	-42.2	20.6	0.00e+00	92	39	0	160432128	54	6610
2026-01-03 03:09:53.94	251.55	7.84	-40.8	-42.0	20.9	0.00e+00	92	39	0	162529280	54	6409
2026-01-03 03:09:54.95	251.70	7.88	-41.0	-42.2	20.6	0.00e+00	0	39	0	164626432	54	6577
2026-01-03 03:09:55.96	251.84	7.92	-40.8	-42.1	20.7	0.00e+00	92	39	0	165675008	54	6468
2026-01-03 03:09:56.97	251.99	7.97	-40.8	-42.1	20.7	0.00e+00	0	39	0	167772160	54	6476
2026-01-03 03:09:57.98	252.13	8.01	-40.8	-42.0	20.8	0.00e+00	75	39	0	169869312	54	6449
2026-01-03 03:09:58.99	252.28	8.05	-40.9	-42.1	20.7	0.00e+00	0	39	0	171966464	54	6521
2026-01-03 03:10:00.00	252.43	8.09	-40.6	-41.8	21.0	0.00e+00	92	39	0	174063616	54	6271
2026-01-03 03:10:01.01	252.57	8.13	-40.8	-42.0	20.8	0.00e+00	92	39	0	175112192	54	6427
2026-01-03 03:10:02.02	252.72	8.17	-40.4	-41.6	21.1	0.00e+00	0	39	0	177209344	54	6136
2026-01-03 03:10:03.03	252.87	8.21	-40.6	-41.7	21.1	0.00e+00	75	39	0	179306496	54	6239
2026-01-03 03:10:04.04	253.02	8.25	-40.6	-41.8	21.0	0.00e+00	0	39	0	181403648	54	6300
2026-01-03 03:10:05.05	253.16	8.29	-40.7	-41.9	21.0	0.00e+00	70	39	0	183500800	54	6320
2026-01-03 03:10:06.06	253.31	8.34	-40.6	-41.8	21.1	0.00e+00	0	39	0	184549376	54	6273
2026-01-03 03:10:07.07	253.46	8.38	-40.7	-41.9	20.9	0.00e+00	91	39	0	186646528	54	6387
2026-01-03 03:10:08.08	253.61	8.42	-40.9	-42.1	20.8	0.00e+00	64	39	0	188743680	54	6531
2026-01-03 03:10:09.09	253.76	8.46	-40.9	-42.1	20.8	0.00e+00	1	39	0	190840832	54	6518
2026-01-03 03:10:10.10	253.91	8.50	-40.8	-42.0	20.8	0.00e+00	91	39	0	192937984	54	6441
2026-01-03 03:10:11.11	254.06	8.54	-40.8	-42.0	20.9	0.00e+00	0	39	0	193986560	54	6461
2026-01-03 03:10:12.12	254.22	8.58	-40.6	-41.8	21.1	0.00e+00	90	39	0	196083712	54	6268
2026-01-03 03:10:13.13	254.37	8.62	-40.6	-41.8	21.1	0.00e+00	0	39	0	198180864	54	6290
2026-01-03 03:10:14.14	254.52	8.66	-40.7	-41.9	21.0	0.00e+00	91	39	0	200278016	54	6359
2026-01-03 03:10:15.15	254.67	8.70	-40.7	-41.9	21.0	0.00e+00	7	39	0	202375168	54	6376
2026-01-03 03:10:16.16	254.83	8.74	-40.8	-42.0	21.0	0.00e+00	15	39	0	203423744	54	6425
2026-01-03 03:10:17.17	254.98	8.78	-40.8	-42.0	20.9	0.00e+00	92	39	0	205520896	54	6434
2026-01-03 03:10:18.18	255.13	8.82	-40.8	-42.0	20.9	0.00e+00	25	39	0	207618048	54	6417
2026-01-03 03:10:19.19	255.29	8.86	-40.8	-42.1	20.9	0.00e+00	92	39	0	209715200	54	6467
2026-01-03 03:10:20.20	255.44	8.89	-40.8	-42.0	20.9	0.00e+00	0	39	0	211812352	54	6417
2026-01-03 03:10:21.21	255.60	8.93	-40.7	-41.8	21.1	0.00e+00	92	39	0	212860928	54	6308
2026-01-03 03:10:22.22	255.75	8.97	-40.7	-41.9	21.0	0.00e+00	9	39	0	214958080	54	6363
2026-01-03 03:10:23.23	255.91	9.01	-40.7	-41.9	21.0	0.00e+00	92	39	0	217055232	54	6364
2026-01-03 03:10:24.24	256.06	9.05	-40.4	-41.6	21.2	0.00e+00	92	39	0	219152384	54	6121
2026-01-03 03:10:25.25	256.22	9.09	-40.6	-41.7	21.2	0.00e+00	0	39	0	221249536	54	6220
2026-01-03 03:10:26.26	256.38	9.13	-40.6	-41.8	21.2	0.00e+00	72	39	0	223346688	54	6263
2026-01-03 03:10:27.27	256.53	9.17	-40.8	-42.0	21.0	0.00e+00	0	39	0	224395264	54	6406
2026-01-03 03:10:28.28	256.69	9.20	-41.1	-42.3	20.6	0.00e+00	90	39	0	226492416	54	6640
2026-01-03 03:10:29.30	256.85	9.24	-41.0	-42.3	20.7	0.00e+00	11	39	0	228589568	54	6622
2026-01-03 03:10:30.30	257.01	9.28	-41.3	-42.6	20.4	0.00e+00	91	39	0	230686720	54	6882
2026-01-03 03:10:31.31	257.17	9.32	-41.3	-42.6	20.4	0.00e+00	92	39	0	232783872	54	6870
2026-01-03 03:10:32.32	257.33	9.36	-41.6	-43.0	20.1	0.00e+00	0	39	0	233832448	54	7197
2026-01-03 03:10:33.33	257.49	9.39	-41.9	-43.3	20.0	0.00e+00	92	39	0	235929600	56	6663
2026-01-03 03:10:34.34	257.65	9.43	-42.2	-43.6	19.7	0.00e+00	0	39	0	238026752	56	6876
2026-01-03 03:10:35.35	257.81	9.47	-41.6	-42.9	20.3	0.00e+00	92	39	0	240123904	56	6347
2026-01-03 03:10:36.36	257.97	9.50	-41.3	-42.6	20.6	0.00e+00	0	39	0	242221056	56	6106
2026-01-03 03:10:37.37	258.13	9.54	-41.3	-42.6	20.4	0.00e+00	92	39	0	243269632	56	6124
2026-01-03 03:10:38.38	258.29	9.58	-41.1	-42.3	20.8	0.00e+00	92	39	0	245366784	56	5946
2026-01-03 03:10:39.40	258.46	9.62	-41.2	-42.4	20.5	0.00e+00	0	39	0	247463936	56	6015
2026-01-03 03:10:40.41	258.62	9.65	-41.2	-42.4	20.4	0.00e+00	92	39	0	249561088	56	6029
2026-01-03 03:10:41.42	258.78	9.69	-41.3	-42.6	20.5	0.00e+00	0	39	0	251658240	56	6123
2026-01-03 03:10:42.43	258.94	9.73	-41.6	-42.9	20.3	0.00e+00	92	39	0	252706816	56	6328
2026-01-03 03:10:43.44	259.11	9.76	-42.0	-43.5	19.7	0.00e+00	0	39	0	254803968	56	6775
2026-01-03 03:10:44.45	259.27	9.80	-41.9	-43.3	19.9	0.00e+00	92	39	0	256901120	56	6632
2026-01-03 03:10:45.46	259.44	9.83	-41.8	-43.1	20.0	0.00e+00	87	39	0	258998272	56	6529
2026-01-03 03:10:46.47	259.60	9.87	-42.2	-43.7	19.6	0.00e+00	20	39	0	261095424	56	6957
2026-01-03 03:10:47.48	259.77	9.90	-41.6	-42.9	20.2	0.00e+00	63	39	0	263192576	56	6388
2026-01-03 03:10:48.49	259.93	9.94	-41.8	-43.2	20.0	0.00e+00	0	39	0	264241152	56	6568
2026-01-03 03:10:49.50	260.10	9.97	-41.6	-42.9	20.2	0.00e+00	92	39	0	266338304	56	6370
2026-01-03 03:10:50.51	260.26	10.01	-41.8	-43.1	20.1	0.00e+00	0	39	0	268435456	56	6530
2026-01-03 03:10:51.52	260.43	10.04	-41.8	-43.2	20.1	0.00e+00	92	39	0	270532608	56	6554
2026-01-03 03:10:52.53	260.60	10.08	-41.6	-42.9	20.2	0.00e+00	92	39	0	272629760	56	6385
2026-01-03 03:10:53.54	260.77	10.11	-41.9	-43.3	20.0	0.00e+00	49	39	0	273678336	56	6620
2026-01-03 03:10:54.55	260.93	10.15	-41.9	-43.2	20.1	0.00e+00	90	39	0	275775488	56	6602
2026-01-03 03:10:55.56	261.10	10.18	-41.9	-43.2	20.0	0.00e+00	0	39	0	277872640	56	6610
2026-01-03 03:10:56.57	261.27	10.22	-42.0	-43.4	19.9	0.00e+00	92	39	0	279969792	56	6707
2026-01-03 03:10:57.58	261.44	10.25	-41.9	-43.3	19.8	0.00e+00	0	39	0	282066944	56	6677
2026-01-03 03:10:58.59	261.61	10.28	-41.9	-43.3	19.9	0.00e+00	90	39	0	283115520	56	6668
2026-01-03 03:10:59.60	261.78	10.32	-41.8	-43.2	19.9	0.00e+00	43	39	0	285212672	56	6577
2026-01-03 03:11:00.61	261.95	10.35	-41.9	-43.3	19.9	0.00e+00	80	39	0	287309824	56	6617
2026-01-03 03:11:01.62	262.12	10.38	-41.6	-42.9	20.3	0.00e+00	92	39	0	289406976	56	6370
2026-01-03 03:11:02.63	262.29	10.42	-41.8	-43.1	20.1	0.00e+00	0	39	0	291504128	56	6522
2026-01-03 03:11:03.64	262.46	10.45	-41.5	-42.8	20.5	0.00e+00	91	39	0	292552704	56	6288
2026-01-03 03:11:04.65	262.63	10.48	-41.4	-42.6	20.6	0.00e+00	0	39	0	294649856	56	6154
2026-01-03 03:11:05.65	262.80	10.51	-41.3	-42.6	20.5	0.00e+00	91	39	0	296747008	56	6136
2026-01-03 03:11:06.66	262.98	10.55	-41.2	-42.4	20.7	0.00e+00	7	39	0	298844160	56	5984
2026-01-03 03:11:07.67	263.15	10.58	-41.4	-42.6	20.6	0.00e+00	91	39	0	300941312	56	6148
2026-01-03 03:11:08.68	263.32	10.61	-41.4	-42.6	20.5	0.00e+00	92	39	0	301989888	56	6145
2026-01-03 03:11:09.69	263.50	10.64	-41.4	-42.7	20.6	0.00e+00	0	39	0	304087040	56	6175
2026-01-03 03:11:10.70	263.67	10.67	-41.5	-42.7	20.4	0.00e+00	90	39	0	306184192	56	6232
2026-01-03 03:11:11.71	263.84	10.71	-41.4	-42.7	20.4	0.00e+00	0	39	0	308281344	56	6213
2026-01-03 03:11:12.72	264.02	10.74	-41.4	-42.7	20.5	0.00e+00	90	39	0	310378496	56	6202
2026-01-03 03:11:13.73	264.19	10.77	-41.3	-42.5	20.5	0.00e+00	0	39	0	311427072	56	6068
2026-01-03 03:11:14.74	264.37	10.80	-41.3	-42.5	20.7	0.00e+00	92	39	0	313524224	56	6097
2026-01-03 03:11:15.75	264.54	10.83	-44.3	-46.7	16.3	0.00e+00	92	39	0	315621376	56	9857
2026-01-03 03:11:16.76	264.72	10.86	-41.9	-43.2	19.4	3.28e-05	0	39	0	317718528	60	5204
2026-01-03 03:11:17.77	264.90	10.89	-41.1	-42.3	20.9	0.00e+00	80	39	0	319815680	56	5907
2026-01-03 03:11:18.78	265.07	10.92	-41.0	-42.2	20.9	0.00e+00	0	39	0	320864256	56	5890
2026-01-03 03:11:19.79	265.25	10.95	-40.9	-42.1	21.1	0.00e+00	72	39	0	322961408	56	5806
2026-01-03 03:11:20.80	265.43	10.98	-40.6	-41.8	21.3	0.00e+00	0	39	0	325058560	54	6264
2026-01-03 03:11:21.81	265.61	11.01	-40.5	-41.7	21.3	0.00e+00	92	39	0	327155712	54	6192
2026-01-03 03:11:22.82	265.78	11.04	-40.8	-42.0	21.1	0.00e+00	92	39	0	329252864	54	6442
2026-01-03 03:11:23.84	265.96	11.07	-41.0	-42.2	20.9	0.00e+00	0	39	0	331350016	54	6559
2026-01-03 03:11:24.85	266.14	11.09	-41.0	-42.2	20.9	0.00e+00	90	39	0	332398592	54	6581
2026-01-03 03:11:25.86	266.32	11.12	-40.9	-42.1	21.0	0.00e+00	0	39	0	334495744	54	6528
2026-01-03 03:11:26.87	266.50	11.15	-41.1	-42.3	20.8	0.00e+00	92	39	0	336592896	54	6670
2026-01-03 03:11:27.88	266.68	11.18	-41.2	-42.4	20.6	0.00e+00	0	39	0	338690048	54	6745
2026-01-03 03:11:28.89	266.86	11.21	-41.1	-42.2	21.0	0.00e+00	92	39	0	340787200	54	6612
2026-01-03 03:11:29.90	267.04	11.23	-41.1	-42.4	20.7	0.00e+00	92	39	0	341835776	54	6701
2026-01-03 03:11:30.91	267.22	11.26	-41.0	-42.2	20.5	0.00e+00	49	39	0	343932928	54	6571
2026-01-03 03:11:31.92	267.40	11.29	-41.0	-42.2	20.8	0.00e+00	92	39	0	346030080	54	6580
2026-01-03 03:11:32.93	267.59	11.32	-40.9	-42.1	21.0	0.00e+00	0	39	0	348127232	54	6472
2026-01-03 03:11:33.94	267.77	11.34	-41.0	-42.3	20.8	0.00e+00	88	39	0	350224384	54	6618
2026-01-03 03:11:34.95	267.95	11.37	-41.2	-42.4	20.7	0.00e+00	0	39	0	351272960	54	6724
2026-01-03 03:11:35.96	268.13	11.40	-41.0	-42.2	20.8	0.00e+00	91	39	0	353370112	54	6574
2026-01-03 03:11:36.97	268.31	11.42	-40.9	-42.1	20.8	0.00e+00	92	39	0	355467264	54	6534
2026-01-03 03:11:37.98	268.50	11.45	-40.8	-42.0	21.1	0.00e+00	0	39	0	357564416	54	6418
2026-01-03 03:11:38.99	268.68	11.47	-40.7	-41.8	21.3	0.00e+00	92	39	0	359661568	54	6307
2026-01-03 03:11:40.00	268.86	11.50	-40.5	-41.7	21.3	0.00e+00	0	39	0	360710144	54	6188
2026-01-03 03:11:41.01	269.05	11.52	-40.5	-41.7	21.4	0.00e+00	42	39	0	362807296	54	6185
2026-01-03 03:11:42.02	269.23	11.55	-40.3	-41.4	21.5	0.00e+00	0	39	0	364904448	54	5995
2026-01-03 03:11:43.03	269.42	11.57	-40.3	-41.4	21.6	0.00e+00	70	39	0	367001600	54	6001
2026-01-03 03:11:44.04	269.60	11.60	-40.5	-41.7	21.4	0.00e+00	64	39	0	369098752	54	6188
2026-01-03 03:11:45.05	269.79	11.62	-40.8	-42.0	21.1	0.00e+00	92	39	0	370147328	54	6422
2026-01-03 03:11:46.06	269.97	11.64	-41.0	-42.2	20.8	0.00e+00	90	39	0	372244480	54	6602
2026-01-03 03:11:47.07	270.16	11.67	-41.3	-42.6	20.5	0.00e+00	0	39	0	374341632	54	6855
2026-01-03 03:11:48.08	270.34	11.69	-41.2	-42.4	20.7	0.00e+00	62	39	0	376438784	54	6751
2026-01-03 03:11:49.09	270.53	11.71	-41.4	-42.6	20.5	0.00e+00	0	39	0	378535936	54	6905
2026-01-03 03:11:50.10	270.72	11.74	-41.2	-42.5	20.6	0.00e+00	90	39	0	379584512	54	6771
2026-01-03 03:11:51.11	270.90	11.76	-40.7	-41.8	21.1	0.00e+00	0	39	0	381681664	54	6309
2026-01-03 03:11:52.12	271.09	11.78	-40.6	-41.7	21.4	0.00e+00	92	39	0	383778816	54	6186
2026-01-03 03:11:53.13	271.28	11.80	-40.3	-41.4	21.6	0.00e+00	92	39	0	385875968	54	5987
2026-01-03 03:11:54.14	271.46	11.83	-40.4	-41.5	21.3	0.00e+00	0	39	0	387973120	54	6081
2026-01-03 03:11:55.15	271.65	11.85	-40.2	-41.3	21.6	0.00e+00	92	39	0	389021696	54	5920
2026-01-03 03:11:56.16	271.84	11.87	-40.6	-41.7	21.3	0.00e+00	0	39	0	391118848	54	6234
2026-01-03 03:11:57.17	272.03	11.89	-40.8	-41.9	21.2	0.00e+00	92	39	0	393216000	54	6378
2026-01-03 03:11:58.18	272.22	11.91	-40.8	-42.0	21.1	0.00e+00	0	39	0	395313152	54	6423
2026-01-03 03:11:59.19	272.41	11.93	-40.8	-42.0	21.2	0.00e+00	92	39	0	397410304	54	6433
2026-01-03 03:12:00.20	272.60	11.95	-40.5	-41.6	21.4	0.00e+00	92	39	0	399507456	54	6117
2026-01-03 03:12:01.21	272.78	11.97	-40.3	-41.4	21.2	0.00e+00	0	39	0	400556032	54	6023
2026-01-03 03:12:02.22	272.97	11.99	-39.9	-41.0	21.9	0.00e+00	92	39	0	402653184	54	5705
2026-01-03 03:12:03.23	273.16	12.01	-39.8	-40.8	22.2	0.00e+00	0	39	0	404750336	52	6306
2026-01-03 03:12:04.24	273.35	12.03	-39.8	-40.8	22.1	0.00e+00	92	39	0	406847488	52	6262
2026-01-03 03:12:05.25	273.54	12.05	-39.9	-41.0	21.9	0.00e+00	0	39	0	408944640	52	6423
2026-01-03 03:12:06.26	273.74	12.07	-40.4	-41.5	21.6	0.00e+00	91	39	0	409993216	52	6787
2026-01-03 03:12:07.27	273.93	12.09	-40.6	-41.7	21.3	0.00e+00	92	39	0	412090368	52	7000
2026-01-03 03:12:08.29	274.12	12.10	-41.0	-42.2	21.0	0.00e+00	0	39	0	414187520	54	6553
2026-01-03 03:12:09.30	274.31	12.12	-40.8	-42.0	21.0	0.00e+00	92	39	0	416284672	54	6428
2026-01-03 03:12:10.31	274.50	12.14	-40.9	-42.0	21.1	0.00e+00	0	39	0	418381824	54	6439
2026-01-03 03:12:11.32	274.69	12.16	-40.6	-41.7	21.3	0.00e+00	85	39	0	419430400	54	6237
2026-01-03 03:12:12.33	274.89	12.17	-40.6	-41.7	21.4	0.00e+00	0	39	0	421527552	54	6184
2026-01-03 03:12:13.34	275.08	12.19	-40.5	-41.7	21.3	0.00e+00	92	39	0	423624704	54	6179
2026-01-03 03:12:14.35	275.27	12.21	-40.9	-42.0	21.0	0.00e+00	10	39	0	425721856	54	6464
2026-01-03 03:12:15.36	275.46	12.22	-41.4	-42.7	20.4	0.00e+00	34	39	0	427819008	54	6936
2026-01-03 03:12:16.37	275.65	12.24	-42.1	-43.5	19.8	0.00e+00	92	39	0	428867584	56	6816
2026-01-03 03:12:17.38	275.85	12.26	-42.4	-43.9	19.5	0.00e+00	0	39	0	430964736	56	7095
2026-01-03 03:12:18.39	276.04	12.27	-42.3	-43.7	19.7	0.00e+00	88	39	0	433061888	56	6981
2026-01-03 03:12:19.40	276.23	12.29	-42.2	-43.6	19.8	0.00e+00	0	39	0	435159040	56	6852
2026-01-03 03:12:20.41	276.43	12.30	-41.8	-43.2	20.1	0.00e+00	92	39	0	437256192	56	6551
2026-01-03 03:12:21.42	276.62	12.31	-41.7	-43.0	20.2	0.00e+00	0	39	0	439353344	56	6449
2026-01-03 03:12:22.43	276.82	12.33	-41.1	-42.3	20.9	0.00e+00	92	39	0	440401920	56	5951
2026-01-03 03:12:23.44	277.01	12.34	-41.0	-42.2	21.0	0.00e+00	92	39	0	442499072	56	5837
2026-01-03 03:12:24.45	277.20	12.36	-41.2	-42.4	20.7	0.00e+00	0	39	0	444596224	56	6028
2026-01-03 03:12:25.46	277.40	12.37	-41.4	-42.7	20.5	0.00e+00	92	39	0	446693376	56	6208
2026-01-03 03:12:26.46	277.59	12.38	-41.9	-43.2	20.1	0.00e+00	0	39	0	447741952	56	6575
2026-01-03 03:12:27.47	277.79	12.40	-41.9	-43.3	20.0	0.00e+00	92	39	0	449839104	56	6639
2026-01-03 03:12:28.48	277.98	12.41	-41.8	-43.2	20.1	0.00e+00	5	39	0	451936256	56	6545
2026-01-03 03:12:29.50	278.18	12.42	-41.7	-43.0	20.3	0.00e+00	92	39	0	454033408	56	6434
2026-01-03 03:12:30.51	278.37	12.43	-41.6	-42.8	20.5	0.00e+00	92	39	0	456130560	56	6300
2026-01-03 03:12:31.51	278.57	12.44	-41.6	-42.9	20.6	0.00e+00	0	39	0	457179136	56	6322
2026-01-03 03:12:32.53	278.76	12.46	-41.6	-42.8	20.4	0.00e+00	90	39	0	459276288	56	6305
2026-01-03 03:12:33.54	278.96	12.47	-41.8	-43.1	20.2	0.00e+00	0	39	0	461373440	56	6487
2026-01-03 03:12:34.54	279.15	12.48	-41.9	-43.2	20.1	0.00e+00	66	39	0	463470592	56	6599
2026-01-03 03:12:35.55	279.35	12.49	-42.3	-43.7	19.7	0.00e+00	0	39	0	465567744	56	6988
2026-01-03 03:12:36.56	279.54	12.50	-42.4	-43.9	19.5	0.00e+00	91	39	0	467664896	56	7162
2026-01-03 03:12:37.57	279.74	12.51	-42.5	-44.0	19.5	0.00e+00	91	39	0	468713472	56	7208
2026-01-03 03:12:38.58	279.94	12.52	-42.1	-43.5	20.0	0.00e+00	0	39	0	470810624	56	6792
2026-01-03 03:12:39.59	280.13	12.53	-41.8	-43.1	20.3	0.00e+00	25	39	0	472907776	56	6489
2026-01-03 03:12:40.60	280.33	12.54	-41.3	-42.6	20.8	0.00e+00	0	39	0	475004928	56	6106
2026-01-03 03:12:41.61	280.53	12.54	-41.2	-42.4	20.8	0.00e+00	76	39	0	477102080	56	6028
2026-01-03 03:12:42.62	280.72	12.55	-40.9	-42.1	21.2	0.00e+00	0	39	0	478150656	56	5762
2026-01-03 03:12:43.63	280.92	12.56	-41.0	-42.2	21.1	0.00e+00	93	39	0	480247808	56	5842
2026-01-03 03:12:44.64	281.12	12.57	-41.0	-42.2	20.9	0.00e+00	90	39	0	482344960	56	5854
2026-01-03 03:12:45.65	281.31	12.58	-41.2	-42.4	20.9	0.00e+00	0	39	0	484442112	56	5975
2026-01-03 03:12:46.66	281.51	12.58	-41.1	-42.3	21.0	0.00e+00	91	39	0	486539264	56	5939
2026-01-03 03:12:47.67	281.71	12.59	-40.9	-42.1	21.1	0.00e+00	0	39	0	487587840	56	5782
2026-01-03 03:12:48.68	281.91	12.60	-40.9	-42.1	21.1	0.00e+00	92	39	0	489684992	56	5803
2026-01-03 03:12:49.69	282.10	12.60	-40.7	-41.8	21.3	0.00e+00	0	39	0	491782144	54	6277
2026-01-03 03:12:50.70	282.30	12.61	-40.4	-41.5	21.5	0.00e+00	92	39	0	493879296	54	6086
2026-01-03 03:12:51.71	282.50	12.61	-40.1	-41.2	21.8	0.00e+00	9	39	0	495976448	54	5847
2026-01-03 03:12:52.72	282.69	12.62	-39.8	-40.9	22.0	0.00e+00	0	39	0	497025024	54	5650
2026-01-03 03:12:53.73	282.89	12.62	-40.0	-41.0	21.9	0.00e+00	90	39	0	499122176	54	5752
2026-01-03 03:12:54.74	283.09	12.63	-40.0	-41.1	21.8	0.00e+00	0	39	0	501219328	54	5788
2026-01-03 03:12:55.75	283.29	12.63	-40.1	-41.2	21.7	0.00e+00	90	39	0	503316480	54	5851
2026-01-03 03:12:56.76	283.49	12.64	-40.0	-41.0	21.9	0.00e+00	0	39	0	505413632	54	5758
2026-01-03 03:12:57.77	283.68	12.64	-40.0	-41.1	21.9	0.00e+00	92	39	0	507510784	54	5802
2026-01-03 03:12:58.78	283.88	12.64	-40.2	-41.3	21.9	0.00e+00	10	39	0	508559360	54	5905
2026-01-03 03:12:59.79	284.08	12.65	-39.8	-40.8	22.2	0.00e+00	0	39	0	510656512	52	6291
2026-01-03 03:13:00.80	284.28	12.65	-39.8	-40.9	22.1	0.00e+00	92	39	0	512753664	52	6324
2026-01-03 03:13:01.81	284.48	12.65	-39.9	-40.9	22.1	0.00e+00	0	39	0	514850816	52	6382
2026-01-03 03:13:02.82	284.67	12.65	-40.2	-41.2	21.8	0.00e+00	91	39	0	516947968	52	6609
2026-01-03 03:13:03.83	284.87	12.66	-40.2	-41.3	21.8	0.00e+00	0	39	0	517996544	52	6658
2026-01-03 03:13:04.84	285.07	12.66	-40.3	-41.4	21.7	0.00e+00	91	39	0	520093696	52	6732
2026-01-03 03:13:05.85	285.27	12.66	-40.2	-41.3	21.8	0.00e+00	12	39	0	522190848	52	6663
2026-01-03 03:13:06.86	285.47	12.66	-40.1	-41.2	21.8	0.00e+00	91	39	0	524288000	52	6583
2026-01-03 03:13:07.87	285.66	12.66	-40.3	-41.4	21.7	0.00e+00	90	39	0	526385152	52	6733
2026-01-03 03:13:08.88	285.86	12.66	-40.1	-41.1	21.9	0.00e+00	0	39	0	527433728	52	6527
2026-01-03 03:13:09.89	286.06	12.66	-40.0	-41.1	21.9	0.00e+00	92	39	0	529530880	52	6475
2026-01-03 03:13:10.90	286.26	12.66	-40.0	-41.1	22.0	0.00e+00	0	39	0	531628032	52	6470
2026-01-03 03:13:11.91	286.46	12.66	-40.1	-41.1	21.9	0.00e+00	92	39	0	533725184	52	6535
2026-01-03 03:13:12.92	286.65	12.66	-40.3	-41.3	21.7	0.00e+00	8	39	0	535822336	52	6683
2026-01-03 03:13:13.93	286.85	12.66	-40.4	-41.5	21.7	0.00e+00	92	39	0	536870912	52	6771
2026-01-03 03:13:14.94	287.05	12.66	-40.3	-41.4	21.7	0.00e+00	92	39	0	538968064	52	6708
2026-01-03 03:13:15.95	287.25	12.65	-40.3	-41.4	21.7	0.00e+00	0	39	0	541065216	52	6721
2026-01-03 03:13:16.96	287.45	12.65	-40.0	-41.0	22.0	0.00e+00	68	39	0	543162368	52	6438
2026-01-03 03:13:17.97	287.64	12.65	-40.1	-41.2	21.9	0.00e+00	0	39	0	545259520	52	6556
2026-01-03 03:13:18.98	287.84	12.65	-40.0	-41.1	21.9	0.00e+00	90	39	0	546308096	52	6501
2026-01-03 03:13:19.99	288.04	12.64	-40.2	-41.3	21.9	0.00e+00	0	39	0	548405248	52	6626
2026-01-03 03:13:21.00	288.24	12.64	-40.1	-41.2	21.8	0.00e+00	90	39	0	550502400	52	6569
2026-01-03 03:13:22.01	288.44	12.64	-40.3	-41.4	21.8	0.00e+00	88	39	0	552599552	52	6738
2026-01-03 03:13:23.02	288.63	12.63	-40.3	-41.3	21.7	0.00e+00	0	39	0	554696704	52	6691
2026-01-03 03:13:24.03	288.83	12.63	-40.3	-41.4	21.7	0.00e+00	14	39	0	555745280	52	6707
2026-01-03 03:13:25.04	289.03	12.62	-40.1	-41.1	21.6	0.00e+00	0	39	0	557842432	52	6531
2026-01-03 03:13:26.05	289.23	12.62	-39.9	-40.9	22.0	0.00e+00	69	39	0	559939584	52	6360
2026-01-03 03:13:27.06	289.42	12.61	-39.8	-40.8	22.1	0.00e+00	0	39	0	562036736	52	6307
2026-01-03 03:13:28.07	289.62	12.61	-39.8	-40.9	22.0	0.00e+00	69	39	0	564133888	52	6346
2026-01-03 03:13:29.08	289.82	12.60	-40.0	-41.1	21.9	0.00e+00	92	39	0	565182464	52	6486
2026-01-03 03:13:30.09	290.01	12.60	-40.1	-41.2	21.8	0.00e+00	0	39	0	567279616	52	6599
2026-01-03 03:13:31.10	290.21	12.59	-40.3	-41.4	21.6	0.00e+00	91	39	0	569376768	52	6723
2026-01-03 03:13:32.11	290.41	12.58	-40.3	-41.4	21.7	0.00e+00	0	39	0	571473920	52	6761
2026-01-03 03:13:33.12	290.61	12.58	-40.1	-41.2	21.9	0.00e+00	92	39	0	573571072	52	6565
2026-01-03 03:13:34.13	290.80	12.57	-40.0	-41.0	22.1	0.00e+00	0	39	0	575668224	52	6462
2026-01-03 03:13:35.14	291.00	12.56	-39.6	-40.6	22.4	0.00e+00	92	39	0	576716800	52	6116
2026-01-03 03:13:36.15	291.20	12.55	-39.3	-40.3	22.5	0.00e+00	5	39	0	578813952	52	5935
2026-01-03 03:13:37.16	291.39	12.55	-39.1	-40.0	22.8	0.00e+00	25	39	0	580911104	52	5753
2026-01-03 03:13:38.17	291.59	12.54	-39.0	-40.0	22.8	0.00e+00	42	39	0	583008256	52	5721
2026-01-03 03:13:39.18	291.79	12.53	-39.0	-40.0	22.8	0.00e+00	0	39	0	585105408	52	5733
2026-01-03 03:13:40.19	291.98	12.52	-39.2	-40.2	22.7	0.00e+00	92	39	0	586153984	52	5864
2026-01-03 03:13:41.20	292.18	12.51	-39.2	-40.2	22.6	0.00e+00	0	39	0	588251136	52	5883
2026-01-03 03:13:42.21	292.37	12.50	-39.2	-40.2	22.6	0.00e+00	92	39	0	590348288	52	5866
2026-01-03 03:13:43.22	292.57	12.49	-39.3	-40.3	22.6	0.00e+00	85	39	0	592445440	52	5931
2026-01-03 03:13:44.23	292.76	12.48	-39.3	-40.3	22.6	0.00e+00	0	39	0	594542592	52	5912
2026-01-03 03:13:45.24	292.96	12.47	-39.1	-40.1	22.8	0.00e+00	92	39	0	595591168	52	5795
2026-01-03 03:13:46.25	293.16	12.46	-39.0	-39.9	22.9	0.00e+00	0	39	0	597688320	52	5681
2026-01-03 03:13:47.26	293.35	12.45	-39.0	-39.9	22.8	0.00e+00	24	39	0	599785472	52	5674
2026-01-03 03:13:48.27	293.55	12.43	-39.4	-40.4	22.6	0.00e+00	20	39	0	601882624	52	5985
2026-01-03 03:13:49.28	293.74	12.42	-39.3	-40.3	22.4	0.00e+00	92	39	0	603979776	52	5942
2026-01-03 03:13:50.29	293.94	12.41	-39.5	-40.5	22.3	0.00e+00	0	39	0	605028352	52	6103
2026-01-03 03:13:51.30	294.13	12.40	-39.7	-40.7	22.3	0.00e+00	72	39	0	607125504	52	6198
2026-01-03 03:13:52.31	294.32	12.39	-39.8	-40.8	22.1	0.00e+00	91	39	0	609222656	52	6300
2026-01-03 03:13:53.32	294.52	12.37	-39.8	-40.8	22.1	0.00e+00	0	39	0	611319808	52	6295
2026-01-03 03:13:54.33	294.71	12.36	-39.7	-40.7	22.2	0.00e+00	11	39	0	613416960	52	6217
2026-01-03 03:13:55.34	294.91	12.35	-39.4	-40.4	22.5	0.00e+00	0	39	0	614465536	52	6019
2026-01-03 03:13:56.35	295.10	12.33	-39.2	-40.2	22.7	0.00e+00	92	39	0	616562688	52	5851
2026-01-03 03:13:57.36	295.29	12.32	-39.2	-40.1	22.6	0.00e+00	0	39	0	618659840	52	5822
2026-01-03 03:13:58.38	295.49	12.30	-39.1	-40.0	22.7	0.00e+00	0	39	0	620756992	52	5737
2026-01-03 03:13:59.38	295.68	12.29	-39.2	-40.1	22.7	0.00e+00	90	39	0	622854144	52	5817
2026-01-03 03:14:00.39	295.87	12.27	-39.4	-40.3	22.5	0.00e+00	0	39	0	623902720	52	5951
2026-01-03 03:14:01.40	296.07	12.26	-39.6	-40.6	22.3	0.00e+00	90	39	0	625999872	52	6113
2026-01-03 03:14:02.41	296.26	12.24	-39.7	-40.7	22.2	0.00e+00	0	39	0	628097024	52	6211
2026-01-03 03:14:03.42	296.45	12.23	-39.6	-40.6	22.3	0.00e+00	81	39	0	630194176	52	6168
2026-01-03 03:14:04.43	296.64	12.21	-39.7	-40.7	22.2	0.00e+00	0	39	0	632291328	52	6192
2026-01-03 03:14:05.44	296.84	12.20	-39.5	-40.6	22.4	0.00e+00	90	39	0	633339904	52	6105
2026-01-03 03:14:06.46	297.03	12.18	-39.3	-40.3	22.6	0.00e+00	6	39	0	635437056	52	5931
2026-01-03 03:14:07.46	297.22	12.16	-39.3	-40.3	22.5	0.00e+00	0	39	0	637534208	52	5910
2026-01-03 03:14:08.48	297.41	12.14	-39.0	-40.0	22.8	0.00e+00	6	39	0	639631360	52	5727
2026-01-03 03:14:09.49	297.60	12.13	-39.1	-40.1	22.7	0.00e+00	0	39	0	641728512	52	5763
2026-01-03 03:14:10.50	297.79	12.11	-39.2	-40.2	22.6	0.00e+00	77	39	0	643825664	52	5838
2026-01-03 03:14:11.50	297.98	12.09	-39.2	-40.2	22.5	0.00e+00	0	39	0	644874240	52	5860
2026-01-03 03:14:12.51	298.17	12.07	-39.3	-40.3	22.6	0.00e+00	69	39	0	646971392	52	5909
2026-01-03 03:14:13.52	298.36	12.05	-39.4	-40.4	22.5	0.00e+00	5	39	0	649068544	52	5972
2026-01-03 03:14:14.53	298.55	12.04	-39.3	-40.3	22.6	0.00e+00	0	39	0	651165696	52	5946
2026-01-03 03:14:15.54	298.74	12.02	-39.3	-40.3	22.6	0.00e+00	67	39	0	653262848	52	5909
2026-01-03 03:14:16.55	298.93	12.00	-39.3	-40.3	22.6	0.00e+00	0	39	0	654311424	52	5909
2026-01-03 03:14:17.56	299.12	11.98	-39.3	-40.3	22.6	0.00e+00	71	39	0	656408576	52	5932
2026-01-03 03:14:18.57	299.31	11.96	-39.3	-40.2	22.6	0.00e+00	0	39	0	658505728	52	5882
2026-01-03 03:14:19.58	299.50	11.94	-39.2	-40.2	22.6	0.00e+00	92	39	0	660602880	52	5870
2026-01-03 03:14:20.59	299.69	11.92	-39.2	-40.2	22.5	0.00e+00	21	39	0	662700032	52	5872
2026-01-03 03:14:21.60	299.88	11.90	-39.4	-40.4	22.6	0.00e+00	0	39	0	663748608	52	5983
2026-01-03 03:14:22.61	300.06	11.88	-39.5	-40.5	22.4	0.00e+00	90	39	0	665845760	52	6046
2026-01-03 03:14:23.62	300.25	11.85	-39.6	-40.6	22.3	0.00e+00	0	39	0	667942912	52	6128
2026-01-03 03:14:24.63	300.44	11.83	-39.4	-40.4	22.5	0.00e+00	66	39	0	670040064	52	6003
2026-01-03 03:14:25.64	300.63	11.81	-39.4	-40.4	22.5	0.00e+00	0	39	0	672137216	52	6015
2026-01-03 03:14:26.65	300.81	11.79	-39.4	-40.4	22.5	0.00e+00	92	39	0	673185792	52	5986
2026-01-03 03:14:27.66	301.00	11.77	-39.2	-40.2	22.6	0.00e+00	7	39	0	675282944	52	5862
2026-01-03 03:14:28.67	301.19	11.74	-39.1	-40.1	22.7	0.00e+00	0	39	0	677380096	52	5799
2026-01-03 03:14:29.68	301.37	11.72	-38.9	-39.8	23.0	0.00e+00	91	39	0	679477248	52	5603
2026-01-03 03:14:30.69	301.56	11.70	-38.8	-39.7	23.1	0.00e+00	0	39	0	681574400	52	5550
2026-01-03 03:14:31.70	301.74	11.68	-38.6	-39.5	23.1	0.00e+00	55	39	0	682622976	50	6103
2026-01-03 03:14:32.71	301.93	11.65	-38.7	-39.7	23.0	0.00e+00	0	39	0	684720128	50	6178
2026-01-03 03:14:33.72	302.11	11.63	-38.8	-39.7	23.0	0.00e+00	91	39	0	686817280	50	6221
2026-01-03 03:14:34.73	302.30	11.60	-38.8	-39.7	22.9	0.00e+00	0	39	0	688914432	50	6231
2026-01-03 03:14:35.74	302.48	11.58	-38.8	-39.7	23.0	0.00e+00	0	39	0	691011584	50	6208
2026-01-03 03:14:36.75	302.67	11.56	-38.7	-39.7	23.0	0.00e+00	85	39	0	692060160	50	6189
2026-01-03 03:14:37.76	302.85	11.53	-38.8	-39.8	22.8	0.00e+00	0	39	0	694157312	50	6262
2026-01-03 03:14:38.77	303.03	11.51	-38.8	-39.7	23.0	0.00e+00	92	39	0	696254464	50	6223
2026-01-03 03:14:39.78	303.22	11.48	-38.7	-39.6	23.1	0.00e+00	0	39	0	698351616	50	6144
2026-01-03 03:14:40.80	303.40	11.46	-38.5	-39.3	23.2	0.00e+00	92	39	0	700448768	50	5957
2026-01-03 03:14:41.81	303.58	11.43	-38.6	-39.5	23.2	0.00e+00	0	39	0	701497344	50	6075
2026-01-03 03:14:42.82	303.77	11.40	-38.6	-39.6	23.1	0.00e+00	0	39	0	703594496	50	6111
2026-01-03 03:14:43.82	303.95	11.38	-38.6	-39.6	23.0	0.00e+00	90	39	0	705691648	50	6113
2026-01-03 03:14:44.84	304.13	11.35	-38.8	-39.8	22.9	0.00e+00	21	39	0	707788800	50	6246
2026-01-03 03:14:45.85	304.31	11.33	-39.0	-40.0	22.8	0.00e+00	10	39	0	709885952	50	6399
2026-01-03 03:14:46.86	304.49	11.30	-39.0	-40.0	22.8	0.00e+00	0	39	0	711983104	50	6399
2026-01-03 03:14:47.87	304.67	11.27	-39.0	-39.9	22.9	0.00e+00	85	39	0	713031680	50	6373
2026-01-03 03:14:48.88	304.85	11.24	-38.9	-39.8	22.8	0.00e+00	0	39	0	715128832	50	6311
2026-01-03 03:14:49.89	305.03	11.22	-38.7	-39.6	23.1	0.00e+00	85	39	0	717225984	50	6145
2026-01-03 03:14:50.90	305.21	11.19	-38.6	-39.5	23.1	0.00e+00	47	39	0	719323136	50	6045
2026-01-03 03:14:51.91	305.39	11.16	-38.6	-39.5	23.2	0.00e+00	0	39	0	721420288	50	6090
2026-01-03 03:14:52.92	305.57	11.13	-38.4	-39.3	23.3	0.00e+00	91	39	0	722468864	50	5946
2026-01-03 03:14:53.93	305.75	11.11	-38.5	-39.4	23.2	0.00e+00	0	39	0	724566016	50	5979
2026-01-03 03:14:54.94	305.93	11.08	-38.6	-39.5	23.1	0.00e+00	76	39	0	726663168	50	6048
2026-01-03 03:14:55.95	306.11	11.05	-38.5	-39.4	23.3	0.00e+00	0	39	0	728760320	50	5968
2026-01-03 03:14:56.96	306.28	11.02	-38.6	-39.6	23.1	0.00e+00	90	39	0	730857472	50	6112
2026-01-03 03:14:57.97	306.46	10.99	-38.5	-39.5	23.2	0.00e+00	0	39	0	731906048	50	6043
2026-01-03 03:14:58.98	306.64	10.96	-38.6	-39.5	23.1	0.00e+00	0	39	0	734003200	50	6077
2026-01-03 03:14:59.99	306.81	10.93	-38.7	-39.6	23.0	0.00e+00	13	39	0	736100352	50	6164
2026-01-03 03:15:00.99	306.99	10.90	-38.7	-39.6	23.1	0.00e+00	0	39	0	738197504	50	6149
2026-01-03 03:15:02.00	307.16	10.87	-38.6	-39.6	23.1	0.00e+00	60	39	0	740294656	50	6116
2026-01-03 03:15:03.01	307.34	10.84	-38.5	-39.4	23.2	0.00e+00	0	39	0	741343232	50	6015
2026-01-03 03:15:04.02	307.51	10.81	-38.6	-39.5	23.2	0.00e+00	62	39	0	743440384	50	6103
2026-01-03 03:15:05.03	307.69	10.78	-38.6	-39.6	23.0	0.00e+00	0	39	0	745537536	50	6108
2026-01-03 03:15:06.04	307.86	10.75	-38.6	-39.5	23.0	0.00e+00	0	39	0	747634688	50	6091
2026-01-03 03:15:07.05	308.04	10.72	-38.7	-39.7	23.0	0.00e+00	67	39	0	749731840	50	6179
2026-01-03 03:15:08.06	308.21	10.69	-38.7	-39.6	23.0	0.00e+00	0	39	0	750780416	50	6134
2026-01-03 03:15:09.07	308.38	10.66	-38.8	-39.8	22.9	0.00e+00	65	39	0	752877568	50	6252
2026-01-03 03:15:10.08	308.56	10.63	-38.7	-39.7	22.8	0.00e+00	0	39	0	754974720	50	6202
2026-01-03 03:15:11.09	308.73	10.60	-38.8	-39.8	22.8	0.00e+00	66	39	0	757071872	50	6268
2026-01-03 03:15:12.10	308.90	10.56	-39.0	-39.9	22.7	0.00e+00	6	39	0	759169024	50	6372
2026-01-03 03:15:13.11	309.07	10.53	-38.9	-39.9	22.6	0.00e+00	0	39	0	760217600	50	6346
2026-01-03 03:15:14.12	309.25	10.50	-39.1	-40.1	22.5	0.00e+00	91	39	0	762314752	50	6507
2026-01-03 03:15:15.13	309.42	10.47	-39.1	-40.1	22.4	0.00e+00	0	39	0	764411904	50	6519
2026-01-03 03:15:16.14	309.59	10.43	-39.2	-40.2	22.4	0.00e+00	26	39	0	766509056	50	6595
2026-01-03 03:15:17.15	309.76	10.40	-39.0	-40.0	22.6	0.00e+00	26	39	0	768606208	50	6441
2026-01-03 03:15:18.16	309.93	10.37	-39.3	-40.2	22.4	0.00e+00	92	39	0	769654784	50	6611
2026-01-03 03:15:19.17	310.10	10.34	-39.4	-40.5	22.3	0.00e+00	9	39	0	771751936	50	6780
2026-01-03 03:15:20.19	310.27	10.30	-39.6	-40.6	22.1	0.00e+00	59	39	0	773849088	50	6912
2026-01-03 03:15:21.19	310.44	10.27	-39.9	-40.9	21.8	0.00e+00	90	39	0	775946240	52	6375
2026-01-03 03:15:22.20	310.60	10.24	-39.9	-41.0	21.8	0.00e+00	0	39	0	778043392	52	6442
2026-01-03 03:15:23.21	310.77	10.20	-40.1	-41.3	21.7	0.00e+00	56	39	0	780140544	52	6621
2026-01-03 03:15:24.22	310.94	10.17	-40.2	-41.3	21.6	0.00e+00	0	39	0	781189120	52	6639
2026-01-03 03:15:25.23	311.11	10.13	-40.3	-41.4	21.4	0.00e+00	90	39	0	783286272	52	6748
2026-01-03 03:15:26.24	311.28	10.10	-40.4	-41.6	21.3	0.00e+00	0	39	0	785383424	52	6858
2026-01-03 03:15:27.25	311.44	10.06	-40.4	-41.6	21.3	0.00e+00	54	39	0	787480576	52	6867
2026-01-03 03:15:28.26	311.61	10.03	-40.2	-41.3	21.5	0.00e+00	92	39	0	789577728	52	6691
2026-01-03 03:15:29.27	311.77	10.00	-40.3	-41.5	21.3	0.00e+00	0	39	0	790626304	52	6786
2026-01-03 03:15:30.28	311.94	9.96	-40.4	-41.6	21.3	0.00e+00	75	39	0	792723456	52	6873
2026-01-03 03:15:31.29	312.10	9.93	-40.3	-41.5	21.3	0.00e+00	0	39	0	794820608	52	6775
2026-01-03 03:15:32.30	312.27	9.89	-40.4	-41.5	21.4	0.00e+00	79	39	0	796917760	52	6837
2026-01-03 03:15:33.31	312.43	9.85	-40.3	-41.4	21.4	0.00e+00	0	39	0	799014912	52	6735
2026-01-03 03:15:34.32	312.60	9.82	-40.1	-41.2	21.6	0.00e+00	88	39	0	800063488	52	6544
2026-01-03 03:15:35.33	312.76	9.78	-40.4	-41.5	21.3	0.00e+00	9	39	0	802160640	52	6788
2026-01-03 03:15:36.34	312.92	9.75	-40.6	-41.8	21.1	0.00e+00	0	39	0	804257792	52	7013
2026-01-03 03:15:37.35	313.09	9.71	-40.5	-41.6	21.2	0.00e+00	73	39	0	806354944	54	6149
2026-01-03 03:15:38.36	313.25	9.68	-40.7	-41.9	21.1	0.00e+00	0	39	0	808452096	54	6324
2026-01-03 03:15:39.37	313.41	9.64	-41.0	-42.2	20.7	0.00e+00	92	39	0	809500672	54	6600
2026-01-03 03:15:40.38	313.57	9.60	-41.2	-42.5	20.4	0.00e+00	0	39	0	811597824	54	6776
2026-01-03 03:15:41.39	313.73	9.57	-41.5	-42.9	20.1	0.00e+00	59	39	0	813694976	54	7096
2026-01-03 03:15:42.40	313.90	9.53	-41.3	-42.7	20.2	0.00e+00	0	39	0	815792128	54	6934
2026-01-03 03:15:43.41	314.06	9.49	-41.4	-42.7	20.4	0.00e+00	0	39	0	817889280	54	6955
2026-01-03 03:15:44.42	314.22	9.46	-41.5	-42.8	20.3	0.00e+00	60	39	0	819986432	54	7027
2026-01-03 03:15:45.43	314.38	9.42	-41.2	-42.4	20.5	0.00e+00	29	39	0	821035008	54	6748
2026-01-03 03:15:46.44	314.53	9.38	-41.3	-42.6	20.2	0.00e+00	92	39	0	823132160	54	6901
2026-01-03 03:15:47.45	314.69	9.34	-41.3	-42.7	20.3	0.00e+00	0	39	0	825229312	54	6929
2026-01-03 03:15:48.46	314.85	9.31	-41.3	-42.6	20.4	0.00e+00	92	39	0	827326464	54	6889
2026-01-03 03:15:49.47	315.01	9.27	-41.7	-43.0	19.9	0.00e+00	0	39	0	829423616	54	7242
2026-01-03 03:15:50.48	315.17	9.23	-42.1	-43.5	19.6	0.00e+00	0	39	0	830472192	56	6841
2026-01-03 03:15:51.49	315.32	9.19	-42.2	-43.7	19.4	0.00e+00	92	39	0	832569344	56	6955
2026-01-03 03:15:52.50	315.48	9.16	-42.4	-43.9	19.2	0.00e+00	0	39	0	834666496	56	7123
2026-01-03 03:15:53.50	315.64	9.12	-42.3	-43.8	19.3	0.00e+00	30	39	0	836763648	56	7025
2026-01-03 03:15:54.51	315.79	9.08	-42.2	-43.7	19.5	0.00e+00	0	39	0	837812224	56	6946
2026-01-03 03:15:55.52	315.95	9.04	-41.7	-43.1	19.8	0.00e+00	78	39	0	839909376	56	6503
2026-01-03 03:15:56.53	316.10	9.00	-41.9	-43.3	19.9	0.00e+00	0	39	0	842006528	56	6617
2026-01-03 03:15:57.54	316.26	8.96	-41.6	-43.0	20.1	0.00e+00	14	39	0	844103680	56	6428
2026-01-03 03:15:58.55	316.41	8.93	-41.6	-42.9	20.1	0.00e+00	5	39	0	846200832	56	6347
2026-01-03 03:15:59.56	316.57	8.89	-41.6	-43.0	20.2	0.00e+00	0	39	0	848297984	56	6391
2026-01-03 03:16:00.57	316.72	8.85	-41.6	-43.0	20.1	0.00e+00	92	39	0	849346560	56	6393
2026-01-03 03:16:01.58	316.87	8.81	-41.7	-43.1	20.0	0.00e+00	0	39	0	851443712	56	6468
2026-01-03 03:16:02.59	317.03	8.77	-41.8	-43.2	19.9	0.00e+00	0	39	0	853540864	56	6591
2026-01-03 03:16:03.60	317.18	8.73	-41.7	-43.0	20.0	0.00e+00	0	39	0	855638016	56	6457
2026-01-03 03:16:04.61	317.33	8.69	-41.9	-43.3	19.7	0.00e+00	0	39	0	857735168	56	6646
2026-01-03 03:16:05.62	317.48	8.65	-41.8	-43.1	20.0	0.00e+00	5	39	0	858783744	56	6531
2026-01-03 03:16:06.63	317.63	8.61	-41.6	-42.9	20.2	0.00e+00	0	39	0	860880896	56	6370
2026-01-03 03:16:07.64	317.79	8.57	-41.7	-43.1	19.9	0.00e+00	92	39	0	862978048	56	6496
2026-01-03 03:16:08.65	317.94	8.53	-41.9	-43.3	19.7	0.00e+00	0	39	0	865075200	56	6675
2026-01-03 03:16:09.66	318.09	8.49	-41.8	-43.2	19.7	0.00e+00	0	39	0	867172352	56	6612
2026-01-03 03:16:10.67	318.24	8.45	-42.0	-43.5	19.4	0.00e+00	0	39	0	868220928	56	6794
2026-01-03 03:16:11.68	318.39	8.41	-42.1	-43.6	19.4	0.00e+00	0	39	0	870318080	56	6882
2026-01-03 03:16:12.69	318.53	8.37	-42.2	-43.7	19.3	0.00e+00	5	39	0	872415232	56	6999
2026-01-03 03:16:13.70	318.68	8.33	-42.2	-43.7	19.4	0.00e+00	0	39	0	874512384	56	6962
2026-01-03 03:16:14.71	318.83	8.29	-42.2	-43.7	19.2	0.00e+00	79	39	0	876609536	56	7006
2026-01-03 03:16:15.72	318.98	8.25	-42.3	-43.8	19.3	0.00e+00	0	39	0	877658112	56	7032
2026-01-03 03:16:16.73	319.13	8.21	-42.3	-43.9	19.1	0.00e+00	10	39	0	879755264	56	7113
2026-01-03 03:16:17.74	319.27	8.17	-42.2	-43.7	19.3	0.00e+00	0	39	0	881852416	56	6978
2026-01-03 03:16:18.75	319.42	8.13	-42.2	-43.6	19.4	0.00e+00	0	39	0	883949568	56	6915
2026-01-03 03:16:19.76	319.57	8.09	-42.0	-43.5	19.5	0.00e+00	7	39	0	886046720	56	6808
2026-01-03 03:16:20.77	319.71	8.05	-42.2	-43.8	19.4	0.00e+00	0	39	0	887095296	56	7011
2026-01-03 03:16:21.78	319.86	8.00	-42.1	-43.5	19.5	0.00e+00	91	39	0	889192448	56	6844
2026-01-03 03:16:22.79	320.00	7.96	-42.2	-43.6	19.5	0.00e+00	0	39	0	891289600	56	6920
2026-01-03 03:16:23.80	320.15	7.92	-42.3	-43.8	19.3	0.00e+00	91	39	0	893386752	56	7032
2026-01-03 03:16:24.81	320.29	7.88	-42.2	-43.7	19.3	0.00e+00	0	39	0	895483904	56	6961
2026-01-03 03:16:25.82	320.43	7.84	-42.5	-44.1	19.0	0.00e+00	0	39	0	897581056	56	7257
2026-01-03 03:16:26.83	320.58	7.80	-42.2	-43.7	19.2	0.00e+00	7	39	0	898629632	56	6954
2026-01-03 03:16:27.84	320.72	7.76	-42.4	-44.0	19.3	0.00e+00	0	39	0	900726784	56	7174
2026-01-03 03:16:28.85	320.86	7.71	-41.6	-42.9	20.0	0.00e+00	92	39	0	902823936	56	6363
2026-01-03 03:16:29.86	321.00	7.67	-41.6	-43.0	20.0	0.00e+00	0	39	0	904921088	56	6394
2026-01-03 03:16:30.87	321.15	7.63	-41.4	-42.7	20.2	0.00e+00	78	39	0	907018240	56	6222
2026-01-03 03:16:31.87	321.29	7.59	-41.0	-42.3	20.5	0.00e+00	0	39	0	908066816	56	5923
2026-01-03 03:16:32.88	321.43	7.55	-41.3	-42.7	20.2	0.00e+00	0	39	0	910163968	56	6181
2026-01-03 03:16:33.89	321.57	7.51	-40.8	-42.1	20.7	0.00e+00	0	39	0	912261120	56	5783
2026-01-03 03:16:34.90	321.71	7.46	-41.2	-42.5	20.3	0.00e+00	0	39	0	914358272	56	6036
2026-01-03 03:16:35.91	321.85	7.42	-41.0	-42.2	20.5	0.00e+00	7	39	0	916455424	56	5896
2026-01-03 03:16:36.92	321.99	7.38	-41.3	-42.6	20.2	0.00e+00	0	39	0	917504000	56	6157
2026-01-03 03:16:37.93	322.13	7.34	-41.8	-43.2	19.7	0.00e+00	54	39	0	919601152	56	6611
2026-01-03 03:16:38.94	322.27	7.29	-41.5	-42.9	20.0	0.00e+00	0	39	0	921698304	56	6347
2026-01-03 03:16:39.95	322.40	7.25	-41.7	-43.1	19.8	0.00e+00	0	39	0	923795456	56	6478
2026-01-03 03:16:40.96	322.54	7.21	-41.8	-43.2	19.7	0.00e+00	0	39	0	925892608	56	6592
2026-01-03 03:16:41.97	322.68	7.17	-41.9	-43.3	19.6	0.00e+00	0	39	0	926941184	56	6638
2026-01-03 03:16:42.99	322.82	7.12	-42.0	-43.5	19.6	0.00e+00	7	39	0	929038336	56	6808
2026-01-03 03:16:44.00	322.95	7.08	-42.1	-43.6	19.2	0.00e+00	0	39	0	931135488	56	6865
2026-01-03 03:16:45.01	323.09	7.04	-41.8	-43.2	19.7	0.00e+00	90	39	0	933232640	56	6589
2026-01-03 03:16:46.02	323.23	6.99	-41.7	-43.2	19.7	0.00e+00	0	39	0	935329792	56	6547
2026-01-03 03:16:47.03	323.36	6.95	-41.6	-43.0	19.8	0.00e+00	0	39	0	936378368	56	6459
2026-01-03 03:16:48.04	323.50	6.91	-41.8	-43.2	19.8	0.00e+00	0	39	0	938475520	56	6551
2026-01-03 03:16:49.05	323.63	6.87	-41.3	-42.6	20.2	0.00e+00	0	39	0	940572672	56	6164
2026-01-03 03:16:50.06	323.77	6.82	-41.2	-42.5	20.3	0.00e+00	0	39	0	942669824	56	6075
2026-01-03 03:16:51.07	323.90	6.78	-41.6	-43.0	19.8	0.00e+00	0	39	0	944766976	56	6431
2026-01-03 03:16:52.08	324.03	6.74	-41.5	-42.8	20.0	0.00e+00	83	39	0	945815552	56	6297
2026-01-03 03:16:53.09	324.17	6.69	-41.4	-42.7	20.0	0.00e+00	0	39	0	947912704	56	6220
2026-01-03 03:16:54.10	324.30	6.65	-41.4	-42.8	20.0	0.00e+00	10	39	0	950009856	56	6281
2026-01-03 03:16:55.11	324.43	6.61	-41.3	-42.6	20.1	0.00e+00	0	39	0	952107008	56	6162
2026-01-03 03:16:56.12	324.56	6.56	-41.3	-42.7	20.2	0.00e+00	0	39	0	954204160	56	6175
2026-01-03 03:16:57.13	324.70	6.52	-41.1	-42.4	20.2	0.00e+00	82	39	0	955252736	56	6031
2026-01-03 03:16:58.14	324.83	6.48	-41.0	-42.3	20.4	0.00e+00	0	39	0	957349888	56	5943
2026-01-03 03:16:59.15	324.96	6.43	-40.8	-42.1	20.6	0.00e+00	80	39	0	959447040	56	5787
2026-01-03 03:17:00.16	325.09	6.39	-40.7	-42.0	20.7	0.00e+00	0	39	0	961544192	54	6423
2026-01-03 03:17:01.16	325.22	6.34	-40.7	-41.9	20.7	0.00e+00	90	39	0	963641344	54	6377
2026-01-03 03:17:02.17	325.35	6.30	-40.6	-41.8	20.7	0.00e+00	0	39	0	965738496	54	6275
2026-01-03 03:17:03.18	325.48	6.26	-41.1	-42.4	20.4	0.00e+00	0	39	0	966787072	54	6719
2026-01-03 03:17:04.19	325.61	6.21	-41.0	-42.3	20.3	0.00e+00	2	39	0	968884224	54	6664
2026-01-03 03:17:05.20	325.74	6.17	-41.2	-42.5	20.2	0.00e+00	0	39	0	970981376	54	6790
2026-01-03 03:17:06.21	325.86	6.13	-41.1	-42.4	20.3	0.00e+00	26	39	0	973078528	54	6743
2026-01-03 03:17:07.22	325.99	6.08	-40.9	-42.2	20.3	0.00e+00	0	39	0	975175680	54	6587
2026-01-03 03:17:08.23	326.12	6.04	-41.1	-42.4	20.2	0.00e+00	91	39	0	976224256	54	6764
2026-01-03 03:17:09.24	326.25	5.99	-41.0	-42.3	20.3	0.00e+00	0	39	0	978321408	54	6637
2026-01-03 03:17:10.25	326.37	5.95	-40.9	-42.2	20.4	0.00e+00	0	39	0	980418560	54	6575
2026-01-03 03:17:11.26	326.50	5.90	-40.9	-42.2	20.4	0.00e+00	0	39	0	982515712	54	6548
2026-01-03 03:17:12.27	326.63	5.86	-40.7	-42.0	20.7	0.00e+00	0	39	0	984612864	54	6413
2026-01-03 03:17:13.29	326.75	5.82	-40.6	-41.8	20.6	0.00e+00	92	39	0	985661440	54	6317
2026-01-03 03:17:14.29	326.88	5.77	-40.3	-41.5	21.0	0.00e+00	0	39	0	987758592	54	6083
2026-01-03 03:17:15.30	327.00	5.73	-40.3	-41.5	21.0	0.00e+00	86	39	0	989855744	54	6057
2026-01-03 03:17:16.31	327.13	5.68	-40.4	-41.6	20.8	0.00e+00	0	39	0	991952896	54	6104
2026-01-03 03:17:17.33	327.25	5.64	-40.4	-41.7	20.7	0.00e+00	0	39	0	994050048	54	6182
2026-01-03 03:17:18.33	327.38	5.59	-40.4	-41.6	20.7	0.00e+00	0	39	0	995098624	54	6140
2026-01-03 03:17:19.34	327.50	5.55	-40.6	-41.8	20.6	0.00e+00	0	39	0	997195776	54	6283
2026-01-03 03:17:20.35	327.62	5.51	-40.8	-42.1	20.4	0.00e+00	91	39	0	999292928	54	6492
2026-01-03 03:17:21.36	327.74	5.46	-40.8	-42.1	20.4	0.00e+00	0	39	0	1001390080	54	6473
2026-01-03 03:17:22.37	327.87	5.42	-41.0	-42.3	20.1	0.00e+00	92	39	0	1003487232	54	6659
2026-01-03 03:17:23.38	327.99	5.37	-41.1	-42.4	20.2	0.00e+00	0	39	0	1004535808	54	6733
2026-01-03 03:17:24.39	328.11	5.33	-41.1	-42.5	19.9	0.00e+00	0	39	0	1006632960	54	6801
2026-01-03 03:17:25.40	328.23	5.28	-41.4	-42.8	19.7	0.00e+00	0	39	0	1008730112	54	7075
2026-01-03 03:17:26.41	328.35	5.24	-41.5	-42.9	19.7	0.00e+00	0	39	0	1010827264	54	7131
2026-01-03 03:17:27.42	328.47	5.19	-41.3	-42.7	19.8	0.00e+00	80	39	0	1012924416	54	7005
2026-01-03 03:17:28.43	328.59	5.15	-41.6	-43.0	19.5	0.00e+00	0	39	0	1013972992	54	7249
2026-01-03 03:17:29.44	328.71	5.10	-41.6	-43.0	19.6	0.00e+00	84	39	0	1016070144	54	7239
2026-01-03 03:17:30.45	328.83	5.06	-41.4	-42.8	19.8	0.00e+00	0	39	0	1018167296	54	7027
2026-01-03 03:17:31.46	328.95	5.01	-41.4	-42.8	19.6	0.00e+00	0	40	0	1020264448	54	7050
2026-01-03 03:17:32.47	329.07	4.97	-41.2	-42.6	19.9	0.00e+00	0	39	0	1022361600	54	6890
2026-01-03 03:17:33.49	329.19	4.92	-41.4	-42.9	19.5	0.00e+00	0	39	0	1023410176	54	7094
2026-01-03 03:17:34.50	329.31	4.88	-41.4	-42.8	19.7	0.00e+00	17	39	0	1025507328	54	7057
2026-01-03 03:17:35.51	329.43	4.84	-41.4	-42.8	19.7	0.00e+00	0	40	0	1027604480	54	7020
2026-01-03 03:17:36.52	329.55	4.79	-41.4	-42.8	19.7	0.00e+00	67	39	0	1029701632	54	7063
2026-01-03 03:17:37.53	329.66	4.75	-41.5	-43.0	19.4	0.00e+00	0	39	0	1031798784	54	7215
2026-01-03 03:17:38.54	329.78	4.70	-41.5	-43.0	19.5	0.00e+00	17	39	0	1033895936	54	7210
2026-01-03 03:17:39.55	329.90	4.66	-41.3	-42.7	19.7	0.00e+00	0	39	0	1034944512	54	6977
2026-01-03 03:17:40.55	330.01	4.61	-41.4	-42.8	19.6	0.00e+00	0	39	0	1037041664	54	7088
2026-01-03 03:17:41.56	330.13	4.57	-41.5	-43.0	19.4	0.00e+00	0	39	0	1039138816	54	7190
2026-01-03 03:17:42.57	330.24	4.52	-41.3	-42.7	19.7	0.00e+00	0	39	0	1041235968	54	6989
2026-01-03 03:17:43.58	330.36	4.48	-41.3	-42.7	19.6	0.00e+00	36	39	0	1043333120	54	6937
2026-01-03 03:17:44.59	330.47	4.43	-40.7	-42.0	20.3	0.00e+00	0	39	0	1044381696	54	6395
2026-01-03 03:17:45.60	330.59	4.39	-40.8	-42.1	20.1	0.00e+00	92	39	0	1046478848	54	6495
2026-01-03 03:17:46.61	330.70	4.34	-40.8	-42.2	20.1	0.00e+00	0	39	0	1048576000	54	6543
2026-01-03 03:17:47.63	330.82	4.30	-40.8	-42.1	20.0	0.00e+00	0	39	0	1050673152	54	6525
2026-01-03 03:17:48.63	330.93	4.25	-41.1	-42.5	19.7	0.00e+00	0	39	0	1052770304	54	6780
2026-01-03 03:17:49.65	331.04	4.20	-41.3	-42.8	19.4	0.00e+00	0	39	0	1053818880	54	7024
2026-01-03 03:17:50.66	331.16	4.16	-41.5	-43.1	19.1	0.00e+00	92	39	0	1055916032	54	7284
2026-01-03 03:17:51.67	331.27	4.11	-41.9	-43.5	18.6	0.00e+00	0	39	0	1058013184	56	6818
2026-01-03 03:17:52.68	331.38	4.07	-42.6	-44.6	17.5	0.00e+00	91	39	0	1060110336	56	7698
2026-01-03 03:17:53.69	331.49	4.02	-42.7	-44.6	17.2	0.00e+00	0	39	0	1062207488	56	7754
2026-01-03 03:17:54.69	331.60	3.98	-43.1	-45.3	16.5	0.00e+00	0	39	0	1063256064	58	7490
2026-01-03 03:17:55.70	331.71	3.93	-43.7	-46.4	15.1	0.00e+00	0	39	0	1065353216	58	8475
2026-01-03 03:17:56.72	331.83	3.89	-44.1	-47.3	13.9	0.00e+00	0	39	0	1067450368	60	8421
2026-01-03 03:17:57.73	331.94	3.84	-44.1	-47.7	13.0	1.90e-05	92	39	0	1069547520	60	8803
2026-01-03 03:17:58.74	332.05	3.80	-44.6	-49.1	11.1	3.65e-04	0	39	0	1071644672	60	10302
2026-01-03 03:17:59.75	332.16	3.75	-44.5	-49.2	10.7	1.19e-03	66	39	0	1072693248	60	10430
2026-01-03 03:18:00.76	332.27	3.71	-44.8	-50.6	8.8	1.16e-02	28	40	0	1074790400	60	12241
2026-01-03 03:18:01.77	332.38	3.66	-44.8	-51.7	7.3	6.45e-02	0	39	0	1076887552	60	13882
2026-01-03 03:18:02.78	332.48	3.62	-44.9	-53.3	5.3	2.67e-01	4	40	0	1078984704	60	16777
2026-01-03 03:18:03.79	332.59	3.57	-44.9	-54.2	4.4	6.71e-01	0	40	0	1081081856	60	18495
2026-01-03 03:18:04.80	332.70	3.53	-44.9	-56.9	3.7	1.40e+00	0	39	104	1082130432	60	25225
2026-01-03 03:18:05.81	332.81	3.48	-44.9	-57.7	3.6	1.47e+00	0	39	0	1082130432	60	27829
2026-01-03 03:18:06.82	332.92	3.44	-44.9	-59.0	3.6	1.51e+00	0	39	104	1082130432	60	32366
2026-01-03 03:18:07.83	333.02	3.39	-44.9	-59.4	3.6	1.51e+00	0	39	104	1082130432	60	33764
2026-01-03 03:18:08.84	333.13	3.35	-44.9	-59.6	3.6	1.51e+00	0	39	104	1082130432	60	34425
2026-01-03 03:18:09.85	333.24	3.30	-44.9	-59.9	3.6	1.51e+00	0	39	104	1082130432	60	35819
2026-01-03 03:18:10.86	333.34	3.26	-44.9	-60.1	3.6	1.51e+00	0	39	104	1082130432	60	36615
2026-01-03 03:18:11.87	333.45	3.21	-44.9	-60.0	3.6	1.51e+00	0	40	104	1082130432	60	36327
2026-01-03 03:18:12.88	333.56	3.16	-44.9	-60.0	3.6	1.51e+00	0	39	104	1082130432	60	36114
2026-01-03 03:18:13.89	333.66	3.12	-44.9	-60.0	3.6	1.51e+00	0	40	104	1082130432	60	36312
2026-01-03 03:18:14.90	333.77	3.07	-44.9	-60.0	3.6	1.51e+00	0	39	104	1082130432	60	36272
2026-01-03 03:18:15.91	333.87	3.03	-44.9	-60.0	3.6	1.51e+00	0	40	104	1082130432	60	36027
2026-01-03 03:18:16.92	333.98	2.98	-47.1	-62.2	3.6	1.51e+00	0	40	104	1082130432	60	46381
2026-01-03 03:18:17.93	334.08	2.94	-49.0	-64.2	3.6	1.51e+00	0	40	104	1082130432	60	58514
2026-01-03 03:18:18.94	334.18	2.89	-49.3	-64.5	3.6	1.51e+00	0	40	104	1082130432	60	60855
2026-01-03 03:18:19.95	334.29	2.85	-49.6	-64.8	3.6	1.51e+00	0	40	104	1082130432	60	62646
2026-01-03 03:18:20.96	334.39	2.80	-49.8	-65.0	3.6	1.51e+00	0	40	104	1082130432	60	64084
2026-01-03 03:18:21.97	334.49	2.76	-49.8	-65.0	3.6	1.51e+00	0	40	104	1082130432	60	64523
2026-01-03 03:18:22.98	334.60	2.71	-49.9	-65.1	3.6	1.51e+00	0	40	104	1082130432	60	65203
2026-01-03 03:18:23.99	334.70	2.67	-49.9	-65.0	3.6	1.51e+00	0	40	104	1082130432	60	64621
2026-01-03 03:18:25.00	334.80	2.62	-49.9	-65.2	3.6	1.51e+00	0	40	104	1082130432	60	65439
2026-01-03 03:18:26.01	334.90	2.58	-49.9	-65.1	3.6	1.51e+00	0	40	104	1082130432	60	65183
2026-01-03 03:18:27.02	335.01	2.53	-49.8	-65.1	3.6	1.51e+00	0	40	104	1082130432	60	64839
2026-01-03 03:18:28.03	335.11	2.49	-49.8	-65.0	3.6	1.51e+00	0	39	104	1082130432	60	64567
2026-01-03 03:18:29.04	335.21	2.44	-49.8	-65.0	3.6	1.51e+00	0	40	104	1082130432	60	64461
2026-01-03 03:18:30.05	335.31	2.40	-49.9	-65.0	3.6	1.51e+00	0	40	104	1082130432	60	64512
2026-01-03 03:18:31.06	335.41	2.35	-49.8	-65.0	3.6	1.51e+00	0	40	104	1082130432	60	64624
2026-01-03 03:18:32.07	335.51	2.30	-49.8	-65.0	3.6	1.51e+00	0	40	104	1082130432	60	64520
2026-01-03 03:18:33.08	335.61	2.26	-49.8	-65.0	3.6	1.51e+00	0	40	104	1082130432	60	64427
2026-01-03 03:18:34.09	335.71	2.21	-49.8	-65.0	3.6	1.51e+00	0	40	104	1082130432	60	64457
2026-01-03 03:18:35.10	335.81	2.17	-49.8	-65.0	3.6	1.51e+00	0	40	104	1082130432	60	64197
2026-01-03 03:18:36.11	335.91	2.12	-49.8	-65.0	3.6	1.51e+00	0	40	104	1082130432	60	64428
