passes_logs/2026/01/03/R4.6S_Anadyr/R4.6S_Anadyr__20260103_032857_NOAA_20_JPSS-1_rec.log

#Pass ID: 20260103_032857_NOAA 20 (JPSS-1)
#Satellite: NOAA 20 (JPSS-1)
#Configuration: NOAA 20
#almurnet v.1.7.20251203
#Start time: 2026-01-03 03:28:59

#Version: 2.2.20231116
#Station: R4.6S_Anadyr
#Location: 177.4865 lon 64.73178 lat
#TLE: 1 43013U 17073A   26002.78363558  .00000190  00000+0  11110-3 0  9990
#TLE: 2 43013  98.7623 303.8528 0001892  57.0664 303.0694 14.19532716421006

#Time	Az	El	Level	Level2	SNR	BER	BlckErr	Temp	State	Recorded	gain1	gain2
2026-01-03 03:28:59.54	245.40	0.07	-49.9	-64.9	3.5	1.51e+00	0	37	0	0	60	63235
2026-01-03 03:29:00.55	245.50	0.11	-50.0	-65.2	3.6	1.51e+00	0	38	104	0	60	66151
2026-01-03 03:29:01.56	245.60	0.15	-50.3	-65.5	3.6	1.51e+00	0	38	104	0	60	68392
2026-01-03 03:29:02.57	245.70	0.19	-50.3	-65.5	3.6	1.51e+00	0	38	104	0	60	68050
2026-01-03 03:29:03.58	245.80	0.23	-50.1	-65.3	3.6	1.51e+00	0	38	104	0	60	66647
2026-01-03 03:29:04.59	245.90	0.27	-50.1	-65.3	3.6	1.51e+00	0	38	104	0	60	66551
2026-01-03 03:29:05.60	246.00	0.31	-50.1	-65.3	3.6	1.51e+00	0	38	104	0	60	66617
2026-01-03 03:29:06.61	246.10	0.35	-50.1	-65.3	3.6	1.51e+00	0	38	104	0	60	66857
2026-01-03 03:29:07.62	246.20	0.39	-50.1	-65.4	3.6	1.51e+00	0	38	104	0	60	66975
2026-01-03 03:29:08.63	246.30	0.42	-50.1	-65.3	3.6	1.51e+00	0	38	104	0	60	66450
2026-01-03 03:29:09.64	246.40	0.46	-50.0	-65.3	3.6	1.51e+00	0	38	104	0	60	66262
2026-01-03 03:29:10.65	246.50	0.50	-50.0	-65.2	3.6	1.51e+00	0	38	104	0	60	66110
2026-01-03 03:29:11.66	246.60	0.54	-49.9	-65.1	3.6	1.51e+00	0	38	104	0	60	65369
2026-01-03 03:29:12.67	246.70	0.58	-49.8	-65.0	3.6	1.51e+00	0	38	104	0	60	64506
2026-01-03 03:29:13.68	246.80	0.62	-49.6	-64.9	3.6	1.51e+00	0	38	104	0	60	63330
2026-01-03 03:29:14.69	246.91	0.66	-49.2	-64.4	3.6	1.51e+00	0	38	104	0	60	60133
2026-01-03 03:29:15.70	247.01	0.70	-48.4	-63.5	3.6	1.51e+00	0	38	104	0	60	54362
2026-01-03 03:29:16.71	247.11	0.74	-48.3	-63.5	3.6	1.51e+00	0	38	104	0	60	53904
2026-01-03 03:29:17.72	247.21	0.78	-48.3	-63.4	3.6	1.51e+00	0	38	104	0	60	53550
2026-01-03 03:29:18.73	247.32	0.82	-48.2	-63.4	3.6	1.51e+00	0	38	104	0	60	53691
2026-01-03 03:29:19.74	247.42	0.86	-48.2	-63.4	3.6	1.51e+00	0	38	104	0	60	53385
2026-01-03 03:29:20.75	247.52	0.90	-48.2	-63.4	3.6	1.51e+00	0	38	104	0	60	53271
2026-01-03 03:29:21.76	247.63	0.94	-48.2	-63.4	3.6	1.51e+00	0	38	104	0	60	53663
2026-01-03 03:29:22.77	247.73	0.98	-48.2	-63.4	3.6	1.51e+00	0	38	104	0	60	53496
2026-01-03 03:29:23.78	247.83	1.02	-48.2	-63.4	3.6	1.51e+00	0	38	104	0	60	53361
2026-01-03 03:29:24.79	247.94	1.06	-48.2	-63.4	3.6	1.51e+00	0	38	104	0	60	53282
2026-01-03 03:29:25.80	248.04	1.10	-48.2	-63.4	3.6	1.51e+00	0	38	104	0	60	53360
2026-01-03 03:29:26.81	248.15	1.14	-48.2	-63.4	3.6	1.51e+00	0	38	104	0	60	53505
2026-01-03 03:29:27.82	248.25	1.17	-48.2	-63.4	3.6	1.51e+00	0	38	104	0	60	53434
2026-01-03 03:29:28.83	248.36	1.21	-48.2	-63.4	3.6	1.51e+00	0	38	104	0	60	53231
2026-01-03 03:29:29.84	248.47	1.25	-48.2	-63.3	3.6	1.51e+00	0	38	104	0	60	52893
2026-01-03 03:29:30.85	248.57	1.29	-48.2	-63.3	3.6	1.51e+00	0	38	104	0	60	53108
2026-01-03 03:29:31.86	248.68	1.33	-48.2	-63.3	3.6	1.51e+00	0	38	104	0	60	53051
2026-01-03 03:29:32.87	248.78	1.37	-48.2	-63.3	3.6	1.51e+00	0	38	104	0	60	52888
2026-01-03 03:29:33.88	248.89	1.41	-48.2	-63.4	3.6	1.51e+00	0	38	104	0	60	53428
2026-01-03 03:29:34.89	249.00	1.45	-48.2	-63.3	3.6	1.51e+00	0	38	104	0	60	53129
2026-01-03 03:29:35.90	249.11	1.49	-48.2	-63.3	3.6	1.51e+00	0	38	104	0	60	52819
2026-01-03 03:29:36.91	249.21	1.53	-48.2	-63.4	3.6	1.51e+00	0	38	104	0	60	53247
2026-01-03 03:29:37.92	249.32	1.57	-48.2	-63.3	3.6	1.51e+00	0	38	104	0	60	53054
2026-01-03 03:29:38.93	249.43	1.60	-48.2	-63.3	3.6	1.51e+00	0	38	104	0	60	52987
2026-01-03 03:29:39.94	249.54	1.64	-48.2	-63.3	3.6	1.51e+00	0	39	104	0	60	52955
2026-01-03 03:29:40.95	249.65	1.68	-48.2	-63.3	3.6	1.51e+00	0	38	104	0	60	53100
2026-01-03 03:29:41.96	249.76	1.72	-48.2	-63.3	3.6	1.51e+00	0	38	104	0	60	53059
2026-01-03 03:29:42.97	249.87	1.76	-48.2	-63.3	3.6	1.51e+00	0	38	104	0	60	53128
2026-01-03 03:29:43.98	249.98	1.80	-48.2	-63.3	3.6	1.51e+00	0	39	104	0	60	52908
2026-01-03 03:29:44.99	250.09	1.84	-48.2	-63.3	3.6	1.51e+00	0	38	104	0	60	53020
2026-01-03 03:29:46.00	250.20	1.88	-48.2	-63.3	3.6	1.51e+00	0	38	104	0	60	52686
2026-01-03 03:29:47.01	250.31	1.92	-48.2	-63.3	3.6	1.51e+00	0	38	104	0	60	53126
2026-01-03 03:29:48.02	250.42	1.95	-48.2	-63.2	3.6	1.51e+00	0	39	104	0	60	52371
2026-01-03 03:29:49.03	250.53	1.99	-48.2	-63.3	3.6	1.51e+00	0	38	104	0	60	52663
2026-01-03 03:29:50.04	250.64	2.03	-48.2	-63.3	3.6	1.51e+00	0	38	104	0	60	52594
2026-01-03 03:29:51.05	250.75	2.07	-48.2	-63.3	3.6	1.51e+00	0	39	104	0	60	52984
2026-01-03 03:29:52.06	250.86	2.11	-48.2	-63.3	3.6	1.51e+00	0	39	104	0	60	52877
2026-01-03 03:29:53.07	250.97	2.15	-48.1	-63.3	3.6	1.51e+00	0	39	104	0	60	52761
2026-01-03 03:29:54.08	251.09	2.19	-48.2	-63.3	3.6	1.51e+00	0	39	104	0	60	52894
2026-01-03 03:29:55.09	251.20	2.22	-48.2	-63.3	3.6	1.51e+00	0	39	104	0	60	53106
2026-01-03 03:29:56.10	251.31	2.26	-48.1	-63.3	3.6	1.51e+00	0	39	104	0	60	53009
2026-01-03 03:29:57.11	251.43	2.30	-48.2	-63.3	3.6	1.51e+00	0	39	104	0	60	52661
2026-01-03 03:29:58.11	251.54	2.34	-48.1	-63.3	3.6	1.51e+00	0	39	104	0	60	52946
2026-01-03 03:29:59.12	251.65	2.38	-48.1	-63.1	3.6	1.51e+00	0	39	104	0	60	51814
2026-01-03 03:30:00.14	251.77	2.42	-48.1	-63.2	3.6	1.51e+00	0	39	104	0	60	51978
2026-01-03 03:30:01.15	251.88	2.45	-48.1	-63.2	3.6	1.51e+00	0	39	104	0	60	52332
2026-01-03 03:30:02.16	252.00	2.49	-48.1	-63.3	3.6	1.51e+00	0	39	104	0	60	53004
2026-01-03 03:30:03.17	252.11	2.53	-48.2	-63.3	3.6	1.51e+00	0	38	104	0	60	52808
2026-01-03 03:30:04.18	252.23	2.57	-48.2	-63.2	3.6	1.51e+00	0	39	104	0	60	52054
2026-01-03 03:30:05.19	252.34	2.61	-48.1	-63.1	3.6	1.51e+00	0	39	104	0	60	51485
2026-01-03 03:30:06.20	252.46	2.65	-48.1	-63.1	3.6	1.51e+00	0	39	104	0	60	51820
2026-01-03 03:30:07.21	252.57	2.68	-48.1	-62.8	3.6	1.51e+00	0	39	104	0	60	49923
2026-01-03 03:30:08.22	252.69	2.72	-48.1	-62.3	3.6	1.51e+00	0	39	104	0	60	47292
2026-01-03 03:30:09.23	252.81	2.76	-48.1	-62.3	3.6	1.51e+00	0	39	104	0	60	47215
2026-01-03 03:30:10.24	252.92	2.80	-48.1	-63.0	3.6	1.51e+00	0	39	104	0	60	51011
2026-01-03 03:30:11.25	253.04	2.84	-48.1	-62.8	3.6	1.51e+00	0	39	104	0	60	49881
2026-01-03 03:30:12.27	253.16	2.87	-47.9	-58.9	3.9	1.50e+00	0	39	104	0	60	31745
2026-01-03 03:30:13.27	253.28	2.91	-47.5	-55.6	6.5	6.50e-01	92	39	0	0	60	21799
2026-01-03 03:30:14.28	253.39	2.95	-47.0	-52.8	9.1	5.40e-02	72	39	0	1048576	60	15719
2026-01-03 03:30:15.29	253.51	2.99	-46.9	-52.5	9.2	2.17e-02	92	39	0	3145728	60	15325
2026-01-03 03:30:16.30	253.63	3.02	-44.8	-47.4	17.7	2.10e-02	92	39	0	5242880	60	8425
2026-01-03 03:30:17.31	253.75	3.06	-48.5	-63.5	3.6	1.51e+00	0	39	104	5242880	60	53970
2026-01-03 03:30:18.32	253.87	3.10	-47.3	-54.2	8.9	8.22e-01	92	39	104	5242880	60	18554
2026-01-03 03:30:19.33	253.99	3.14	-48.1	-61.8	3.6	1.11e+00	0	39	104	5242880	60	44633
2026-01-03 03:30:20.34	254.11	3.17	-48.0	-61.4	3.6	1.51e+00	0	39	104	5242880	60	42494
2026-01-03 03:30:21.35	254.23	3.21	-42.2	-43.9	17.8	3.35e-01	0	39	104	5242880	58	6337
2026-01-03 03:30:22.36	254.35	3.25	-42.3	-44.0	18.6	0.00e+00	90	39	0	6291456	58	6398
2026-01-03 03:30:23.37	254.47	3.29	-42.4	-44.1	18.5	0.00e+00	92	39	0	8388608	58	6509
2026-01-03 03:30:24.38	254.59	3.32	-42.3	-44.0	18.7	0.00e+00	90	39	0	9437184	58	6409
2026-01-03 03:30:25.39	254.71	3.36	-42.1	-43.6	18.9	0.00e+00	92	39	0	11534336	58	6168
2026-01-03 03:30:26.40	254.83	3.40	-42.5	-44.2	18.4	0.00e+00	28	39	0	13631488	58	6547
2026-01-03 03:30:27.41	254.96	3.43	-41.5	-42.9	19.7	0.00e+00	92	39	0	15728640	56	6362
2026-01-03 03:30:28.42	255.08	3.47	-42.0	-43.5	19.1	0.00e+00	0	39	0	17825792	56	6837
2026-01-03 03:30:29.43	255.20	3.51	-42.1	-43.7	18.9	0.00e+00	92	39	0	19922944	56	6984
2026-01-03 03:30:30.44	255.32	3.54	-41.9	-43.4	19.3	0.00e+00	92	39	0	20971520	56	6729
2026-01-03 03:30:31.45	255.45	3.58	-42.6	-44.3	18.4	0.00e+00	92	39	0	23068672	56	7432
2026-01-03 03:30:32.46	255.57	3.62	-42.2	-43.8	18.8	0.00e+00	92	39	0	25165824	56	7084
2026-01-03 03:30:33.47	255.69	3.66	-42.5	-44.2	18.3	0.00e+00	88	39	0	27262976	56	7342
2026-01-03 03:30:34.48	255.82	3.69	-41.6	-43.1	19.6	0.00e+00	92	39	0	29360128	56	6474
2026-01-03 03:30:35.49	255.94	3.73	-42.8	-44.6	18.4	0.00e+00	5	39	0	30408704	56	7693
2026-01-03 03:30:36.49	256.07	3.76	-42.1	-43.7	18.9	0.00e+00	90	39	0	32505856	58	6213
2026-01-03 03:30:37.50	256.19	3.80	-43.3	-45.2	17.4	0.00e+00	92	39	0	34603008	58	7400
2026-01-03 03:30:38.52	256.32	3.84	-42.2	-43.8	18.8	0.00e+00	90	39	0	36700160	58	6278
2026-01-03 03:30:39.53	256.44	3.87	-43.2	-45.1	17.6	0.00e+00	92	39	0	38797312	58	7304
2026-01-03 03:30:40.54	256.57	3.91	-42.6	-44.4	18.3	0.00e+00	92	39	0	39845888	58	6693
2026-01-03 03:30:41.55	256.69	3.95	-42.0	-43.5	19.1	0.00e+00	92	39	0	41943040	58	6089
2026-01-03 03:30:42.55	256.82	3.98	-42.6	-44.3	18.3	0.00e+00	7	39	0	44040192	58	6656
2026-01-03 03:30:43.56	256.95	4.02	-42.6	-44.4	18.3	0.00e+00	92	39	0	46137344	58	6697
2026-01-03 03:30:44.57	257.07	4.05	-42.6	-44.3	18.3	0.00e+00	69	39	0	48234496	58	6655
2026-01-03 03:30:45.58	257.20	4.09	-42.1	-43.7	19.0	0.00e+00	90	39	0	49283072	58	6227
2026-01-03 03:30:46.59	257.33	4.13	-41.7	-43.2	19.5	0.00e+00	92	39	0	51380224	58	5863
2026-01-03 03:30:47.60	257.45	4.16	-41.7	-43.1	19.7	0.00e+00	92	39	0	53477376	56	6487
2026-01-03 03:30:48.61	257.58	4.20	-41.8	-43.3	19.5	0.00e+00	92	39	0	55574528	56	6662
2026-01-03 03:30:49.62	257.71	4.23	-41.9	-43.4	19.4	0.00e+00	92	39	0	57671680	56	6693
2026-01-03 03:30:50.63	257.84	4.27	-42.0	-43.5	19.2	0.00e+00	92	39	0	58720256	56	6825
2026-01-03 03:30:51.64	257.97	4.31	-41.4	-42.7	19.9	0.00e+00	12	39	0	60817408	56	6231
2026-01-03 03:30:52.65	258.10	4.34	-41.3	-42.6	20.1	0.00e+00	92	39	0	62914560	56	6142
2026-01-03 03:30:53.66	258.23	4.38	-41.7	-43.2	19.6	0.00e+00	92	39	0	65011712	56	6554
2026-01-03 03:30:54.67	258.36	4.41	-41.8	-43.2	19.7	0.00e+00	91	39	0	67108864	56	6575
2026-01-03 03:30:55.68	258.49	4.45	-41.7	-43.2	19.7	0.00e+00	91	39	0	68157440	56	6541
2026-01-03 03:30:56.69	258.62	4.48	-41.5	-42.9	19.9	0.00e+00	90	39	0	70254592	56	6337
2026-01-03 03:30:57.70	258.75	4.52	-41.9	-43.4	19.5	0.00e+00	90	39	0	72351744	56	6760
2026-01-03 03:30:58.71	258.88	4.55	-42.0	-43.6	19.3	0.00e+00	0	39	0	74448896	56	6864
2026-01-03 03:30:59.72	259.01	4.59	-42.1	-43.7	19.1	0.00e+00	91	39	0	76546048	56	6928
2026-01-03 03:31:00.73	259.14	4.62	-42.5	-44.1	18.8	0.00e+00	37	39	0	77594624	56	7283
2026-01-03 03:31:01.74	259.28	4.66	-41.9	-43.4	19.4	0.00e+00	92	39	0	79691776	56	6721
2026-01-03 03:31:02.74	259.41	4.69	-42.0	-43.5	19.3	0.00e+00	90	39	0	81788928	56	6825
2026-01-03 03:31:03.75	259.54	4.73	-42.1	-43.6	19.2	0.00e+00	92	39	0	83886080	56	6882
2026-01-03 03:31:04.76	259.67	4.76	-42.2	-43.8	19.0	0.00e+00	90	39	0	85983232	56	7021
2026-01-03 03:31:05.77	259.81	4.79	-42.1	-43.6	19.3	0.00e+00	0	39	0	88080384	56	6917
2026-01-03 03:31:06.78	259.94	4.83	-41.8	-43.3	19.5	0.00e+00	92	39	0	89128960	56	6645
2026-01-03 03:31:07.79	260.07	4.86	-41.9	-43.4	19.5	0.00e+00	81	39	0	91226112	56	6725
2026-01-03 03:31:08.80	260.21	4.90	-42.0	-43.4	19.6	0.00e+00	92	39	0	93323264	56	6762
2026-01-03 03:31:09.81	260.34	4.93	-41.9	-43.3	19.5	0.00e+00	92	39	0	95420416	56	6684
2026-01-03 03:31:10.82	260.48	4.97	-42.3	-43.8	19.0	0.00e+00	89	39	0	97517568	56	7058
2026-01-03 03:31:11.83	260.61	5.00	-42.4	-44.0	19.0	0.00e+00	92	39	0	98566144	56	7243
2026-01-03 03:31:12.84	260.75	5.03	-42.0	-43.5	19.3	0.00e+00	10	39	0	100663296	56	6837
2026-01-03 03:31:13.85	260.88	5.07	-41.6	-43.0	19.8	0.00e+00	92	39	0	102760448	56	6433
2026-01-03 03:31:14.86	261.02	5.10	-42.0	-43.5	19.4	0.00e+00	0	39	0	104857600	56	6828
2026-01-03 03:31:15.87	261.15	5.13	-42.2	-43.8	19.2	0.00e+00	92	39	0	106954752	56	7029
2026-01-03 03:31:16.88	261.29	5.17	-42.0	-43.5	19.3	0.00e+00	90	39	0	108003328	56	6826
2026-01-03 03:31:17.89	261.43	5.20	-42.0	-43.5	19.4	0.00e+00	92	39	0	110100480	56	6805
2026-01-03 03:31:18.90	261.57	5.24	-42.2	-43.8	19.2	0.00e+00	90	39	0	112197632	56	7014
2026-01-03 03:31:19.91	261.70	5.27	-41.9	-43.4	19.6	0.00e+00	92	39	0	114294784	56	6693
2026-01-03 03:31:20.92	261.84	5.30	-42.0	-43.5	19.5	0.00e+00	92	39	0	116391936	56	6795
2026-01-03 03:31:21.93	261.98	5.33	-42.3	-43.8	19.0	0.00e+00	0	39	0	117440512	56	7083
2026-01-03 03:31:22.94	262.12	5.37	-42.2	-43.8	19.3	0.00e+00	92	39	0	119537664	56	7021
2026-01-03 03:31:23.95	262.26	5.40	-42.0	-43.4	19.6	0.00e+00	84	39	0	121634816	56	6767
2026-01-03 03:31:24.96	262.39	5.43	-42.1	-43.5	19.4	0.00e+00	92	39	0	123731968	56	6838
2026-01-03 03:31:25.97	262.53	5.47	-42.1	-43.5	19.5	0.00e+00	92	39	0	125829120	56	6845
2026-01-03 03:31:26.98	262.67	5.50	-42.2	-43.7	19.1	0.00e+00	92	39	0	126877696	56	7001
2026-01-03 03:31:27.99	262.81	5.53	-41.8	-43.1	19.8	0.00e+00	92	39	0	128974848	56	6539
2026-01-03 03:31:29.00	262.95	5.56	-41.7	-43.1	20.0	0.00e+00	84	39	0	131072000	56	6497
2026-01-03 03:31:30.01	263.09	5.60	-41.6	-43.0	20.0	0.00e+00	92	39	0	133169152	56	6430
2026-01-03 03:31:31.02	263.23	5.63	-41.8	-43.2	19.7	0.00e+00	0	39	0	135266304	56	6608
2026-01-03 03:31:32.03	263.38	5.66	-41.9	-43.4	19.6	0.00e+00	92	39	0	136314880	56	6706
2026-01-03 03:31:33.04	263.52	5.69	-41.9	-43.3	19.7	0.00e+00	92	39	0	138412032	56	6651
2026-01-03 03:31:34.05	263.66	5.72	-41.8	-43.2	19.8	0.00e+00	90	39	0	140509184	56	6580
2026-01-03 03:31:35.06	263.80	5.76	-41.9	-43.3	19.6	0.00e+00	92	39	0	142606336	56	6671
2026-01-03 03:31:36.07	263.94	5.79	-41.8	-43.2	19.7	0.00e+00	0	39	0	144703488	56	6604
2026-01-03 03:31:37.07	264.08	5.82	-42.0	-43.5	19.6	0.00e+00	92	39	0	145752064	56	6770
2026-01-03 03:31:38.09	264.23	5.85	-42.0	-43.5	19.6	0.00e+00	0	39	0	147849216	56	6781
2026-01-03 03:31:39.10	264.37	5.88	-41.9	-43.3	19.8	0.00e+00	92	39	0	149946368	56	6647
2026-01-03 03:31:40.11	264.51	5.91	-41.7	-43.1	19.9	0.00e+00	90	39	0	152043520	56	6491
2026-01-03 03:31:41.12	264.66	5.94	-44.0	-45.8	16.4	0.00e+00	92	39	0	154140672	58	7910
2026-01-03 03:31:42.13	264.80	5.97	-43.0	-44.7	20.1	0.00e+00	90	39	0	155189248	58	6948
2026-01-03 03:31:43.14	264.95	6.01	-42.0	-43.4	19.9	0.00e+00	92	39	0	157286400	58	5970
2026-01-03 03:31:44.15	265.09	6.04	-42.1	-43.5	19.9	0.00e+00	92	39	0	159383552	58	6060
2026-01-03 03:31:45.16	265.24	6.07	-41.6	-42.9	20.3	0.00e+00	0	39	0	161480704	56	6341
2026-01-03 03:31:46.17	265.38	6.10	-41.5	-42.8	20.3	0.00e+00	92	39	0	163577856	56	6291
2026-01-03 03:31:47.18	265.53	6.13	-41.7	-43.0	20.1	0.00e+00	71	39	0	165675008	56	6422
2026-01-03 03:31:48.19	265.67	6.16	-41.5	-42.8	20.3	0.00e+00	92	39	0	166723584	56	6305
2026-01-03 03:31:49.20	265.82	6.19	-41.8	-43.2	19.9	0.00e+00	92	39	0	168820736	56	6540
2026-01-03 03:31:50.21	265.96	6.22	-41.8	-43.2	19.9	0.00e+00	91	39	0	170917888	56	6605
2026-01-03 03:31:51.22	266.11	6.25	-42.1	-43.5	19.6	0.00e+00	92	39	0	173015040	56	6815
2026-01-03 03:31:52.22	266.26	6.28	-42.0	-43.4	19.7	0.00e+00	62	39	0	175112192	56	6725
2026-01-03 03:31:53.24	266.41	6.31	-41.9	-43.3	19.7	0.00e+00	90	39	0	176160768	56	6677
2026-01-03 03:31:54.25	266.55	6.34	-42.0	-43.5	19.7	0.00e+00	0	39	0	178257920	56	6795
2026-01-03 03:31:55.26	266.70	6.37	-42.0	-43.5	19.7	0.00e+00	90	39	0	180355072	56	6791
2026-01-03 03:31:56.27	266.85	6.40	-41.6	-43.0	20.2	0.00e+00	92	39	0	182452224	56	6391
2026-01-03 03:31:57.27	267.00	6.42	-41.9	-43.3	19.9	0.00e+00	90	39	0	184549376	56	6645
2026-01-03 03:31:58.28	267.14	6.45	-41.9	-43.3	19.9	0.00e+00	92	39	0	185597952	56	6621
2026-01-03 03:31:59.29	267.29	6.48	-42.0	-43.4	19.7	0.00e+00	72	39	0	187695104	56	6740
2026-01-03 03:32:00.30	267.44	6.51	-42.2	-43.6	19.5	0.00e+00	92	39	0	189792256	56	6893
2026-01-03 03:32:01.31	267.59	6.54	-42.0	-43.4	19.7	0.00e+00	0	39	0	191889408	56	6750
2026-01-03 03:32:02.32	267.74	6.57	-42.3	-43.7	19.4	0.00e+00	92	39	0	193986560	56	7005
2026-01-03 03:32:03.33	267.89	6.60	-42.2	-43.6	19.5	0.00e+00	90	39	0	195035136	56	6911
2026-01-03 03:32:04.34	268.04	6.62	-42.1	-43.5	19.6	0.00e+00	92	39	0	197132288	56	6821
2026-01-03 03:32:05.35	268.19	6.65	-42.2	-43.7	19.4	0.00e+00	90	39	0	199229440	56	6962
2026-01-03 03:32:06.36	268.34	6.68	-41.9	-43.3	19.8	0.00e+00	92	39	0	201326592	56	6674
2026-01-03 03:32:07.37	268.49	6.71	-42.1	-43.6	19.6	0.00e+00	92	39	0	203423744	56	6871
2026-01-03 03:32:08.38	268.65	6.74	-42.3	-43.8	19.4	0.00e+00	3	39	0	204472320	56	7038
2026-01-03 03:32:09.39	268.80	6.76	-42.2	-43.7	19.4	0.00e+00	92	39	0	206569472	56	6969
2026-01-03 03:32:10.40	268.95	6.79	-42.5	-44.0	19.4	0.00e+00	72	39	0	208666624	56	7234
2026-01-03 03:32:11.41	269.10	6.82	-42.5	-44.1	19.1	0.00e+00	92	39	0	210763776	56	7295
2026-01-03 03:32:12.42	269.25	6.85	-42.3	-43.8	19.3	0.00e+00	90	39	0	212860928	56	7038
2026-01-03 03:32:13.43	269.41	6.87	-42.2	-43.7	19.6	0.00e+00	92	39	0	213909504	56	6936
2026-01-03 03:32:14.44	269.56	6.90	-42.0	-43.5	19.8	0.00e+00	90	39	0	216006656	56	6779
2026-01-03 03:32:15.45	269.71	6.93	-42.4	-43.9	19.2	0.00e+00	70	39	0	218103808	56	7152
2026-01-03 03:32:16.46	269.87	6.95	-42.3	-43.7	19.5	0.00e+00	92	39	0	220200960	56	6987
2026-01-03 03:32:17.47	270.02	6.98	-42.2	-43.7	19.5	0.00e+00	5	39	0	222298112	56	6964
2026-01-03 03:32:18.48	270.17	7.01	-42.5	-44.0	19.2	0.00e+00	92	39	0	224395264	56	7195
2026-01-03 03:32:19.49	270.33	7.03	-42.6	-44.1	19.1	0.00e+00	92	39	0	225443840	56	7314
2026-01-03 03:32:20.50	270.48	7.06	-42.5	-44.1	19.1	0.00e+00	92	39	0	227540992	56	7279
2026-01-03 03:32:21.51	270.64	7.08	-42.4	-43.9	19.4	0.00e+00	92	39	0	229638144	56	7120
2026-01-03 03:32:22.52	270.79	7.11	-42.3	-43.8	19.5	0.00e+00	87	39	0	231735296	56	7054
2026-01-03 03:32:23.53	270.95	7.13	-42.3	-43.8	19.4	0.00e+00	92	39	0	233832448	56	7023
2026-01-03 03:32:24.54	271.10	7.16	-42.1	-43.5	19.7	0.00e+00	0	39	0	234881024	56	6837
2026-01-03 03:32:25.55	271.26	7.18	-42.2	-43.6	19.6	0.00e+00	92	39	0	236978176	56	6915
2026-01-03 03:32:26.55	271.41	7.21	-42.2	-43.6	19.6	0.00e+00	92	39	0	239075328	56	6918
2026-01-03 03:32:27.56	271.57	7.23	-42.1	-43.6	19.7	0.00e+00	92	39	0	241172480	56	6856
2026-01-03 03:32:28.57	271.73	7.26	-42.0	-43.4	19.8	0.00e+00	90	39	0	243269632	56	6765
2026-01-03 03:32:29.58	271.89	7.28	-42.1	-43.5	19.7	0.00e+00	92	39	0	244318208	56	6788
2026-01-03 03:32:30.59	272.04	7.31	-42.0	-43.3	19.9	0.00e+00	92	39	0	246415360	56	6684
2026-01-03 03:32:31.60	272.20	7.33	-41.8	-43.2	20.1	0.00e+00	85	39	0	248512512	56	6560
2026-01-03 03:32:32.61	272.36	7.36	-42.0	-43.3	19.9	0.00e+00	90	39	0	250609664	56	6690
2026-01-03 03:32:33.62	272.52	7.38	-42.0	-43.4	19.9	0.00e+00	23	39	0	252706816	56	6729
2026-01-03 03:32:34.63	272.67	7.40	-42.0	-43.4	20.0	0.00e+00	90	39	0	253755392	56	6717
2026-01-03 03:32:35.64	272.83	7.43	-42.0	-43.3	19.9	0.00e+00	92	39	0	255852544	56	6670
2026-01-03 03:32:36.65	272.99	7.45	-42.3	-43.7	19.6	0.00e+00	92	39	0	257949696	56	6998
2026-01-03 03:32:37.66	273.15	7.47	-42.2	-43.6	19.7	0.00e+00	92	39	0	260046848	56	6890
2026-01-03 03:32:38.67	273.31	7.50	-42.2	-43.6	19.7	0.00e+00	14	39	0	262144000	56	6899
2026-01-03 03:32:39.68	273.47	7.52	-42.4	-43.8	19.5	0.00e+00	92	39	0	263192576	56	7082
2026-01-03 03:32:40.69	273.63	7.54	-42.3	-43.7	19.6	0.00e+00	0	39	0	265289728	56	7005
2026-01-03 03:32:41.70	273.79	7.57	-42.5	-44.0	19.3	0.00e+00	92	39	0	267386880	56	7210
2026-01-03 03:32:42.72	273.95	7.59	-42.2	-43.6	19.7	0.00e+00	90	39	0	269484032	56	6870
2026-01-03 03:32:43.73	274.11	7.61	-42.2	-43.6	19.7	0.00e+00	92	39	0	271581184	56	6868
2026-01-03 03:32:44.74	274.27	7.63	-42.1	-43.5	19.8	0.00e+00	90	39	0	272629760	56	6826
2026-01-03 03:32:45.75	274.43	7.66	-42.0	-43.3	20.0	0.00e+00	80	39	0	274726912	56	6675
2026-01-03 03:32:46.76	274.59	7.68	-42.0	-43.3	19.9	0.00e+00	90	39	0	276824064	56	6681
2026-01-03 03:32:47.77	274.75	7.70	-42.0	-43.4	19.8	0.00e+00	0	39	0	278921216	56	6701
2026-01-03 03:32:48.78	274.92	7.72	-42.1	-43.4	20.0	0.00e+00	92	39	0	281018368	56	6755
2026-01-03 03:32:49.79	275.08	7.74	-41.8	-43.2	20.1	0.00e+00	92	39	0	282066944	56	6567
2026-01-03 03:32:50.80	275.24	7.76	-41.8	-43.1	20.2	0.00e+00	92	39	0	284164096	56	6537
2026-01-03 03:32:51.81	275.40	7.78	-41.9	-43.3	20.0	0.00e+00	92	39	0	286261248	56	6674
2026-01-03 03:32:52.82	275.56	7.80	-42.1	-43.5	19.9	0.00e+00	92	39	0	288358400	56	6789
2026-01-03 03:32:53.83	275.73	7.82	-42.1	-43.5	19.8	0.00e+00	92	39	0	290455552	56	6842
2026-01-03 03:32:54.84	275.89	7.84	-42.2	-43.6	19.7	0.00e+00	0	39	0	292552704	56	6896
2026-01-03 03:32:55.85	276.05	7.86	-42.1	-43.5	19.8	0.00e+00	92	39	0	293601280	56	6820
2026-01-03 03:32:56.86	276.22	7.88	-42.4	-43.9	19.5	0.00e+00	78	39	0	295698432	56	7099
2026-01-03 03:32:57.87	276.38	7.90	-42.3	-43.7	19.7	0.00e+00	92	39	0	297795584	56	6995
2026-01-03 03:32:58.88	276.54	7.92	-42.3	-43.7	19.7	0.00e+00	92	39	0	299892736	56	6956
2026-01-03 03:32:59.89	276.71	7.94	-42.0	-43.3	20.0	0.00e+00	0	39	0	301989888	56	6687
2026-01-03 03:33:00.90	276.87	7.96	-41.9	-43.3	20.0	0.00e+00	92	39	0	303038464	56	6642
2026-01-03 03:33:01.91	277.04	7.98	-42.0	-43.3	19.9	0.00e+00	0	39	0	305135616	56	6677
2026-01-03 03:33:02.92	277.20	8.00	-42.1	-43.5	20.0	0.00e+00	92	39	0	307232768	56	6799
2026-01-03 03:33:03.93	277.37	8.02	-42.0	-43.3	20.0	0.00e+00	0	39	0	309329920	56	6672
2026-01-03 03:33:04.94	277.53	8.04	-42.0	-43.4	20.0	0.00e+00	92	39	0	311427072	56	6699
2026-01-03 03:33:05.95	277.70	8.06	-42.0	-43.3	20.1	0.00e+00	90	39	0	312475648	56	6687
2026-01-03 03:33:06.96	277.86	8.07	-41.9	-43.3	20.0	0.00e+00	92	39	0	314572800	56	6655
2026-01-03 03:33:07.97	278.03	8.09	-42.2	-43.6	19.7	0.00e+00	92	39	0	316669952	56	6922
2026-01-03 03:33:08.98	278.19	8.11	-42.2	-43.6	19.8	0.00e+00	3	39	0	318767104	56	6856
2026-01-03 03:33:09.99	278.36	8.13	-42.3	-43.7	19.7	0.00e+00	90	39	0	320864256	56	6990
2026-01-03 03:33:11.00	278.52	8.14	-42.3	-43.7	19.7	0.00e+00	3	39	0	321912832	56	7005
2026-01-03 03:33:12.01	278.69	8.16	-42.4	-43.9	19.6	0.00e+00	90	39	0	324009984	56	7101
2026-01-03 03:33:13.02	278.86	8.18	-42.3	-43.7	19.7	0.00e+00	92	39	0	326107136	56	6933
2026-01-03 03:33:14.03	279.02	8.20	-42.3	-43.7	19.7	0.00e+00	92	39	0	328204288	56	6990
2026-01-03 03:33:15.04	279.19	8.21	-42.1	-43.5	19.9	0.00e+00	92	39	0	330301440	56	6841
2026-01-03 03:33:16.05	279.36	8.23	-42.2	-43.6	19.9	0.00e+00	7	39	0	331350016	56	6849
2026-01-03 03:33:17.06	279.52	8.24	-42.0	-43.4	20.0	0.00e+00	92	39	0	333447168	56	6700
2026-01-03 03:33:18.07	279.69	8.26	-42.0	-43.4	20.0	0.00e+00	6	39	0	335544320	56	6730
2026-01-03 03:33:19.08	279.86	8.28	-42.1	-43.5	19.9	0.00e+00	90	39	0	337641472	56	6775
2026-01-03 03:33:20.09	280.03	8.29	-42.1	-43.5	19.9	0.00e+00	81	39	0	339738624	56	6832
2026-01-03 03:33:21.10	280.20	8.31	-42.0	-43.3	20.1	0.00e+00	92	39	0	341835776	56	6685
2026-01-03 03:33:22.11	280.36	8.32	-42.1	-43.5	19.8	0.00e+00	92	39	0	342884352	56	6840
2026-01-03 03:33:23.12	280.53	8.34	-42.1	-43.4	20.0	0.00e+00	6	39	0	344981504	56	6756
2026-01-03 03:33:24.13	280.70	8.35	-42.1	-43.5	19.9	0.00e+00	92	39	0	347078656	56	6821
2026-01-03 03:33:25.14	280.87	8.37	-42.2	-43.6	19.9	0.00e+00	81	39	0	349175808	56	6849
2026-01-03 03:33:26.15	281.04	8.38	-42.1	-43.5	19.9	0.00e+00	92	39	0	351272960	56	6833
2026-01-03 03:33:27.16	281.21	8.40	-42.1	-43.5	19.9	0.00e+00	0	39	0	352321536	56	6840
2026-01-03 03:33:28.17	281.38	8.41	-42.1	-43.5	20.0	0.00e+00	92	39	0	354418688	56	6775
2026-01-03 03:33:29.18	281.54	8.42	-42.1	-43.5	19.9	0.00e+00	92	39	0	356515840	56	6783
2026-01-03 03:33:30.19	281.71	8.44	-41.9	-43.3	20.1	0.00e+00	73	39	0	358612992	56	6643
2026-01-03 03:33:31.20	281.88	8.45	-42.1	-43.4	20.0	0.00e+00	92	39	0	360710144	56	6759
2026-01-03 03:33:32.22	282.05	8.46	-41.9	-43.2	20.1	0.00e+00	0	39	0	361758720	56	6607
2026-01-03 03:33:33.23	282.22	8.48	-42.1	-43.5	19.9	0.00e+00	92	39	0	363855872	56	6776
2026-01-03 03:33:34.24	282.39	8.49	-42.2	-43.5	19.9	0.00e+00	0	39	0	365953024	56	6840
2026-01-03 03:33:35.25	282.56	8.50	-41.9	-43.3	20.1	0.00e+00	92	39	0	368050176	56	6639
2026-01-03 03:33:36.26	282.73	8.51	-42.0	-43.3	20.1	0.00e+00	92	39	0	370147328	56	6692
2026-01-03 03:33:37.27	282.90	8.53	-42.2	-43.6	19.9	0.00e+00	92	39	0	371195904	56	6875
2026-01-03 03:33:38.28	283.08	8.54	-42.2	-43.6	19.9	0.00e+00	92	39	0	373293056	56	6861
2026-01-03 03:33:39.29	283.25	8.55	-42.2	-43.6	19.8	0.00e+00	0	39	0	375390208	56	6913
2026-01-03 03:33:40.30	283.42	8.56	-42.2	-43.5	19.9	0.00e+00	92	39	0	377487360	56	6848
2026-01-03 03:33:41.31	283.59	8.57	-42.1	-43.5	20.0	0.00e+00	0	39	0	379584512	56	6777
2026-01-03 03:33:42.32	283.76	8.58	-42.2	-43.6	19.9	0.00e+00	92	39	0	380633088	56	6856
2026-01-03 03:33:43.33	283.93	8.59	-42.0	-43.4	20.0	0.00e+00	92	39	0	382730240	56	6719
2026-01-03 03:33:44.34	284.10	8.60	-42.1	-43.5	19.9	0.00e+00	92	39	0	384827392	56	6818
2026-01-03 03:33:45.35	284.27	8.61	-42.1	-43.5	19.9	0.00e+00	92	39	0	386924544	56	6827
2026-01-03 03:33:46.36	284.44	8.62	-42.2	-43.6	19.9	0.00e+00	0	39	0	389021696	56	6856
2026-01-03 03:33:47.37	284.62	8.63	-42.2	-43.6	19.9	0.00e+00	92	39	0	390070272	56	6869
2026-01-03 03:33:48.38	284.79	8.64	-42.3	-43.7	19.7	0.00e+00	84	39	0	392167424	56	6973
2026-01-03 03:33:49.39	284.96	8.65	-42.5	-43.9	19.5	0.00e+00	92	39	0	394264576	56	7156
2026-01-03 03:33:50.40	285.13	8.66	-42.6	-44.1	19.4	0.00e+00	82	39	0	396361728	56	7288
2026-01-03 03:33:51.41	285.30	8.67	-42.6	-44.1	19.4	0.00e+00	92	39	0	398458880	56	7262
2026-01-03 03:33:52.42	285.47	8.68	-42.7	-44.2	19.3	0.00e+00	92	39	0	399507456	56	7398
2026-01-03 03:33:53.43	285.65	8.69	-42.8	-44.3	19.2	0.00e+00	27	39	0	401604608	58	6664
2026-01-03 03:33:54.44	285.82	8.70	-42.8	-44.4	19.1	0.00e+00	92	39	0	403701760	58	6713
2026-01-03 03:33:55.45	285.99	8.71	-42.9	-44.5	18.9	0.00e+00	13	39	0	405798912	58	6835
2026-01-03 03:33:56.46	286.16	8.71	-42.8	-44.3	19.1	0.00e+00	90	39	0	407896064	58	6680
2026-01-03 03:33:57.47	286.34	8.72	-42.7	-44.2	19.3	0.00e+00	0	39	0	409993216	58	6605
2026-01-03 03:33:58.48	286.51	8.73	-42.8	-44.4	19.1	0.00e+00	92	39	0	411041792	58	6706
2026-01-03 03:33:59.49	286.68	8.74	-42.7	-44.2	19.2	0.00e+00	91	39	0	413138944	58	6598
2026-01-03 03:34:00.50	286.85	8.74	-42.6	-44.1	19.4	0.00e+00	92	39	0	415236096	58	6520
2026-01-03 03:34:01.51	287.03	8.75	-42.6	-44.1	19.3	0.00e+00	92	39	0	417333248	58	6534
2026-01-03 03:34:02.52	287.20	8.76	-42.6	-44.1	19.4	0.00e+00	85	39	0	419430400	58	6480
2026-01-03 03:34:03.53	287.37	8.76	-42.6	-44.1	19.3	0.00e+00	92	39	0	420478976	58	6495
2026-01-03 03:34:04.54	287.55	8.77	-42.5	-44.0	19.5	0.00e+00	86	39	0	422576128	58	6450
2026-01-03 03:34:05.55	287.72	8.77	-42.6	-44.1	19.4	0.00e+00	92	39	0	424673280	58	6477
2026-01-03 03:34:06.56	287.89	8.78	-42.7	-44.2	19.3	0.00e+00	90	39	0	426770432	58	6580
2026-01-03 03:34:07.56	288.06	8.79	-42.7	-44.2	19.2	0.00e+00	90	39	0	428867584	58	6594
2026-01-03 03:34:08.57	288.24	8.79	-42.7	-44.2	19.3	0.00e+00	92	39	0	429916160	58	6604
2026-01-03 03:34:09.58	288.41	8.80	-42.8	-44.4	19.1	0.00e+00	0	39	0	432013312	58	6722
2026-01-03 03:34:10.60	288.59	8.80	-43.0	-44.6	18.9	0.00e+00	92	39	0	434110464	58	6878
2026-01-03 03:34:11.60	288.76	8.81	-43.0	-44.7	18.9	0.00e+00	0	39	0	436207616	58	6931
2026-01-03 03:34:12.61	288.93	8.81	-43.0	-44.6	18.8	0.00e+00	92	39	0	438304768	58	6926
2026-01-03 03:34:13.62	289.10	8.81	-43.1	-44.7	18.8	0.00e+00	80	39	0	439353344	58	6990
2026-01-03 03:34:14.63	289.28	8.82	-43.0	-44.6	18.9	0.00e+00	92	39	0	441450496	58	6908
2026-01-03 03:34:15.65	289.45	8.82	-43.2	-44.8	18.7	0.00e+00	92	39	0	443547648	58	7073
2026-01-03 03:34:16.65	289.63	8.83	-43.0	-44.7	18.9	0.00e+00	0	39	0	445644800	58	6932
2026-01-03 03:34:17.66	289.80	8.83	-42.8	-44.4	19.0	0.00e+00	92	39	0	447741952	58	6741
2026-01-03 03:34:18.67	289.97	8.83	-42.9	-44.4	19.1	0.00e+00	0	39	0	448790528	58	6752
2026-01-03 03:34:19.68	290.15	8.83	-42.7	-44.2	19.3	0.00e+00	92	39	0	450887680	58	6583
2026-01-03 03:34:20.69	290.32	8.84	-42.8	-44.4	19.2	0.00e+00	11	39	0	452984832	58	6697
2026-01-03 03:34:21.70	290.49	8.84	-42.6	-44.1	19.4	0.00e+00	92	39	0	455081984	58	6481
2026-01-03 03:34:22.71	290.67	8.84	-42.6	-44.2	19.3	0.00e+00	92	39	0	457179136	58	6543
2026-01-03 03:34:23.72	290.84	8.84	-42.7	-44.2	19.2	0.00e+00	92	39	0	458227712	58	6563
2026-01-03 03:34:24.73	291.02	8.84	-42.7	-44.2	19.2	0.00e+00	92	39	0	460324864	58	6562
2026-01-03 03:34:25.74	291.19	8.85	-42.7	-44.2	19.5	0.00e+00	84	39	0	462422016	58	6548
2026-01-03 03:34:26.74	291.36	8.85	-42.6	-44.1	19.3	0.00e+00	92	39	0	464519168	58	6514
2026-01-03 03:34:27.75	291.54	8.85	-42.7	-44.2	19.4	0.00e+00	0	39	0	466616320	58	6594
2026-01-03 03:34:28.76	291.71	8.85	-42.4	-43.9	19.6	0.00e+00	90	39	0	467664896	58	6359
2026-01-03 03:34:29.77	291.88	8.85	-42.3	-43.8	19.7	0.00e+00	92	39	0	469762048	58	6262
2026-01-03 03:34:30.78	292.06	8.85	-42.4	-43.9	19.6	0.00e+00	92	39	0	471859200	58	6325
2026-01-03 03:34:31.79	292.23	8.85	-42.5	-44.0	19.5	0.00e+00	92	39	0	473956352	58	6395
2026-01-03 03:34:32.80	292.41	8.85	-42.5	-44.0	19.5	0.00e+00	0	39	0	476053504	58	6417
2026-01-03 03:34:33.81	292.58	8.85	-42.4	-43.8	19.7	0.00e+00	92	39	0	478150656	58	6273
2026-01-03 03:34:34.82	292.75	8.85	-42.3	-43.7	19.3	0.00e+00	0	39	0	479199232	58	6218
2026-01-03 03:34:35.83	292.93	8.85	-42.2	-43.7	19.8	0.00e+00	92	39	0	481296384	58	6176
2026-01-03 03:34:36.84	293.10	8.85	-42.2	-43.6	19.9	0.00e+00	7	39	0	483393536	58	6127
2026-01-03 03:34:37.85	293.28	8.85	-42.1	-43.5	20.0	0.00e+00	92	39	0	485490688	58	6038
2026-01-03 03:34:38.86	293.45	8.84	-42.2	-43.6	20.0	0.00e+00	90	39	0	487587840	58	6108
2026-01-03 03:34:39.87	293.62	8.84	-42.0	-43.4	20.1	0.00e+00	0	39	0	488636416	58	5986
2026-01-03 03:34:40.88	293.80	8.84	-41.7	-43.0	20.4	0.00e+00	92	39	0	490733568	56	6461
2026-01-03 03:34:41.89	293.97	8.84	-41.7	-43.0	20.5	0.00e+00	0	39	0	492830720	56	6402
2026-01-03 03:34:42.90	294.14	8.84	-41.6	-42.8	20.6	0.00e+00	90	39	0	494927872	56	6302
2026-01-03 03:34:43.91	294.32	8.83	-41.6	-42.9	20.6	0.00e+00	0	39	0	497025024	56	6320
2026-01-03 03:34:44.92	294.49	8.83	-41.5	-42.8	20.6	0.00e+00	91	39	0	498073600	56	6259
2026-01-03 03:34:45.93	294.67	8.83	-41.7	-43.0	20.5	0.00e+00	91	39	0	500170752	56	6413
2026-01-03 03:34:46.94	294.84	8.82	-41.7	-43.0	20.5	0.00e+00	83	39	0	502267904	56	6432
2026-01-03 03:34:47.95	295.01	8.82	-41.6	-42.9	20.6	0.00e+00	91	39	0	504365056	56	6319
2026-01-03 03:34:48.96	295.19	8.82	-41.7	-43.0	20.5	0.00e+00	0	39	0	506462208	56	6445
2026-01-03 03:34:49.97	295.36	8.81	-41.7	-43.0	20.5	0.00e+00	90	39	0	507510784	56	6437
2026-01-03 03:34:50.98	295.53	8.81	-41.8	-43.1	20.3	0.00e+00	0	39	0	509607936	56	6518
2026-01-03 03:34:51.99	295.71	8.80	-41.6	-42.9	20.6	0.00e+00	91	39	0	511705088	56	6336
2026-01-03 03:34:52.99	295.88	8.80	-41.5	-42.8	20.6	0.00e+00	88	39	0	513802240	56	6264
2026-01-03 03:34:54.01	296.05	8.79	-41.4	-42.6	20.8	0.00e+00	39	39	0	515899392	56	6173
2026-01-03 03:34:55.01	296.22	8.79	-41.3	-42.6	20.9	0.00e+00	92	39	0	516947968	56	6104
2026-01-03 03:34:56.02	296.40	8.78	-41.1	-42.3	21.1	0.00e+00	0	39	0	519045120	56	5921
2026-01-03 03:34:57.03	296.57	8.78	-41.0	-42.2	21.3	0.00e+00	92	39	0	521142272	56	5856
2026-01-03 03:34:58.04	296.74	8.77	-41.1	-42.2	21.1	0.00e+00	2	39	0	523239424	56	5893
2026-01-03 03:34:59.05	296.92	8.77	-41.1	-42.2	21.1	0.00e+00	91	39	0	525336576	56	5895
2026-01-03 03:35:00.06	297.09	8.76	-41.1	-42.3	21.1	0.00e+00	0	39	0	526385152	56	5901
2026-01-03 03:35:01.07	297.26	8.75	-41.1	-42.3	21.2	0.00e+00	92	39	0	528482304	56	5897
2026-01-03 03:35:02.08	297.44	8.75	-41.2	-42.4	21.0	0.00e+00	92	39	0	530579456	56	5980
2026-01-03 03:35:03.09	297.61	8.74	-41.2	-42.4	21.0	0.00e+00	0	39	0	532676608	56	5995
2026-01-03 03:35:04.10	297.78	8.73	-41.2	-42.4	21.0	0.00e+00	92	39	0	534773760	56	6011
2026-01-03 03:35:05.11	297.95	8.72	-41.4	-42.6	20.8	0.00e+00	82	39	0	535822336	56	6149
2026-01-03 03:35:06.12	298.13	8.72	-41.5	-42.8	20.7	0.00e+00	92	39	0	537919488	56	6254
2026-01-03 03:35:07.13	298.30	8.71	-41.5	-42.7	20.6	0.00e+00	0	39	0	540016640	56	6229
2026-01-03 03:35:08.14	298.47	8.70	-41.3	-42.5	21.0	0.00e+00	86	39	0	542113792	56	6067
2026-01-03 03:35:09.15	298.64	8.69	-41.3	-42.5	20.8	0.00e+00	92	39	0	544210944	56	6076
2026-01-03 03:35:10.16	298.81	8.68	-41.2	-42.4	21.0	0.00e+00	0	39	0	546308096	56	6023
2026-01-03 03:35:11.17	298.99	8.68	-41.1	-42.3	21.1	0.00e+00	92	39	0	547356672	56	5909
2026-01-03 03:35:12.45	299.20	8.66	-41.0	-42.2	21.3	0.00e+00	0	39	0	549453824	56	5835
2026-01-03 03:35:13.17	299.33	8.66	-41.1	-42.3	21.1	0.00e+00	92	39	0	550502400	56	5920
2026-01-03 03:35:14.47	299.55	8.65	-41.0	-42.2	21.3	0.00e+00	0	39	0	553648128	56	5842
2026-01-03 03:35:15.19	299.67	8.64	-41.1	-42.3	21.1	0.00e+00	92	39	0	554696704	56	5946
2026-01-03 03:35:16.49	299.89	8.63	-41.2	-42.3	21.0	0.00e+00	92	39	0	556793856	56	5964
2026-01-03 03:35:17.21	300.01	8.62	-41.1	-42.3	21.1	0.00e+00	92	39	0	558891008	56	5897
2026-01-03 03:35:18.51	300.23	8.61	-41.1	-42.3	21.2	0.00e+00	92	39	0	560988160	56	5952
2026-01-03 03:35:19.23	300.35	8.60	-41.3	-42.5	20.9	0.00e+00	0	39	0	562036736	56	6086
2026-01-03 03:35:20.53	300.57	8.59	-41.2	-42.5	20.9	0.00e+00	92	39	0	565182464	56	6037
2026-01-03 03:35:21.25	300.69	8.58	-41.4	-42.6	20.9	0.00e+00	81	39	0	566231040	56	6126
2026-01-03 03:35:22.55	300.91	8.56	-41.3	-42.6	20.9	0.00e+00	92	39	0	568328192	56	6116
2026-01-03 03:35:23.27	301.04	8.56	-41.3	-42.5	20.7	0.00e+00	2	39	0	569376768	56	6103
2026-01-03 03:35:24.57	301.26	8.54	-41.0	-42.2	21.2	0.00e+00	0	39	0	572522496	56	5852
2026-01-03 03:35:25.29	301.38	8.53	-41.0	-42.2	21.2	0.00e+00	0	39	0	573571072	56	5882
2026-01-03 03:35:26.59	301.60	8.52	-41.1	-42.2	21.1	0.00e+00	0	39	0	575668224	56	5883
2026-01-03 03:35:27.31	301.72	8.51	-41.1	-42.3	21.1	0.00e+00	91	39	0	577765376	56	5928
2026-01-03 03:35:28.61	301.94	8.49	-41.1	-42.2	21.2	0.00e+00	0	39	0	579862528	56	5878
2026-01-03 03:35:29.33	302.06	8.48	-41.1	-42.3	21.2	0.00e+00	91	39	0	580911104	56	5908
2026-01-03 03:35:30.63	302.27	8.47	-41.0	-42.2	21.3	0.00e+00	0	39	0	584056832	56	5846
2026-01-03 03:35:31.35	302.40	8.46	-41.1	-42.4	21.1	0.00e+00	91	39	0	585105408	56	5970
2026-01-03 03:35:32.65	302.61	8.44	-41.3	-42.5	20.9	0.00e+00	92	39	0	587202560	56	6075
2026-01-03 03:35:33.37	302.73	8.43	-41.3	-42.5	20.9	0.00e+00	91	39	0	588251136	56	6055
2026-01-03 03:35:34.67	302.95	8.41	-41.2	-42.5	21.0	0.00e+00	92	39	0	591396864	56	6036
2026-01-03 03:35:35.39	303.07	8.40	-41.2	-42.5	21.0	0.00e+00	0	39	0	592445440	56	6035
2026-01-03 03:35:36.69	303.29	8.39	-41.2	-42.4	21.0	0.00e+00	92	39	0	594542592	56	6022
2026-01-03 03:35:37.41	303.41	8.38	-41.3	-42.6	20.9	0.00e+00	0	39	0	596639744	56	6122
2026-01-03 03:35:38.71	303.62	8.36	-41.4	-42.7	20.8	0.00e+00	7	39	0	598736896	56	6202
2026-01-03 03:35:39.43	303.74	8.35	-41.5	-42.8	20.6	0.00e+00	0	39	0	599785472	56	6281
2026-01-03 03:35:40.73	303.96	8.33	-41.5	-42.8	20.6	0.00e+00	5	39	0	602931200	56	6256
2026-01-03 03:35:41.45	304.08	8.32	-41.5	-42.8	20.6	0.00e+00	0	39	0	603979776	56	6268
2026-01-03 03:35:42.75	304.30	8.30	-41.6	-42.8	20.6	0.00e+00	6	39	0	606076928	56	6317
2026-01-03 03:35:43.47	304.42	8.29	-41.6	-42.9	20.6	0.00e+00	92	39	0	608174080	56	6326
2026-01-03 03:35:44.77	304.63	8.27	-41.7	-43.0	20.5	0.00e+00	5	39	0	610271232	56	6437
2026-01-03 03:35:45.49	304.75	8.25	-41.5	-42.8	20.6	0.00e+00	92	39	0	611319808	56	6291
2026-01-03 03:35:46.79	304.96	8.23	-41.6	-42.9	20.6	0.00e+00	89	39	0	614465536	56	6349
2026-01-03 03:35:47.51	305.08	8.22	-41.5	-42.8	20.7	0.00e+00	92	39	0	615514112	56	6269
2026-01-03 03:35:48.81	305.30	8.20	-41.3	-42.5	21.0	0.00e+00	91	39	0	617611264	56	6056
2026-01-03 03:35:49.53	305.42	8.19	-41.3	-42.5	21.0	0.00e+00	0	39	0	618659840	56	6051
2026-01-03 03:35:50.83	305.63	8.17	-41.1	-42.3	21.1	0.00e+00	91	39	0	621805568	56	5951
2026-01-03 03:35:51.55	305.75	8.16	-41.1	-42.3	21.0	0.00e+00	2	39	0	622854144	56	5952
2026-01-03 03:35:52.85	305.96	8.13	-41.0	-42.2	21.1	0.00e+00	90	39	0	624951296	56	5872
2026-01-03 03:35:53.57	306.08	8.12	-41.1	-42.3	21.1	0.00e+00	0	39	0	627048448	56	5933
2026-01-03 03:35:54.87	306.29	8.10	-41.2	-42.4	21.1	0.00e+00	86	39	0	629145600	56	6013
2026-01-03 03:35:55.59	306.41	8.09	-41.2	-42.4	21.0	0.00e+00	0	39	0	630194176	56	6003
2026-01-03 03:35:56.89	306.62	8.06	-41.3	-42.5	20.9	0.00e+00	6	39	0	633339904	56	6043
2026-01-03 03:35:57.61	306.74	8.05	-41.4	-42.6	20.8	0.00e+00	34	39	0	634388480	56	6163
2026-01-03 03:35:58.91	306.95	8.03	-41.4	-42.6	20.8	0.00e+00	6	39	0	636485632	56	6164
2026-01-03 03:35:59.63	307.07	8.01	-41.6	-42.9	20.6	0.00e+00	92	39	0	638582784	56	6342
2026-01-03 03:36:00.93	307.28	7.99	-41.6	-42.9	20.6	0.00e+00	0	39	0	640679936	56	6320
2026-01-03 03:36:01.65	307.40	7.98	-41.5	-42.8	20.6	0.00e+00	92	39	0	641728512	56	6269
2026-01-03 03:36:02.95	307.61	7.95	-41.5	-42.8	20.5	0.00e+00	92	39	0	643825664	56	6279
2026-01-03 03:36:03.67	307.72	7.94	-41.5	-42.7	20.8	0.00e+00	48	39	0	645922816	56	6224
2026-01-03 03:36:04.97	307.93	7.91	-41.3	-42.6	20.8	0.00e+00	92	39	0	648019968	56	6124
2026-01-03 03:36:05.69	308.05	7.90	-41.4	-42.6	20.8	0.00e+00	0	39	0	649068544	56	6166
2026-01-03 03:36:06.99	308.26	7.87	-41.2	-42.4	21.0	0.00e+00	92	39	0	652214272	56	6008
2026-01-03 03:36:07.71	308.38	7.86	-41.3	-42.5	20.9	0.00e+00	0	39	0	653262848	56	6065
2026-01-03 03:36:09.01	308.59	7.83	-41.3	-42.6	20.9	0.00e+00	92	39	0	655360000	56	6107
2026-01-03 03:36:09.73	308.70	7.82	-41.2	-42.4	21.2	0.00e+00	0	39	0	657457152	56	5976
2026-01-03 03:36:11.03	308.91	7.79	-41.1	-42.3	21.0	0.00e+00	81	39	0	659554304	56	5957
2026-01-03 03:36:11.75	309.03	7.78	-41.1	-42.3	21.2	0.00e+00	0	39	0	660602880	56	5927
2026-01-03 03:36:13.05	309.23	7.75	-40.9	-42.1	21.2	0.00e+00	80	39	0	662700032	56	5800
2026-01-03 03:36:13.77	309.35	7.74	-40.6	-41.8	21.4	0.00e+00	91	39	0	664797184	54	6267
2026-01-03 03:36:15.07	309.56	7.71	-40.7	-41.9	21.4	0.00e+00	81	39	0	666894336	54	6339
2026-01-03 03:36:15.80	309.67	7.69	-40.7	-41.8	21.4	0.00e+00	91	39	0	667942912	54	6293
2026-01-03 03:36:17.09	309.88	7.66	-40.6	-41.7	21.5	0.00e+00	0	39	0	671088640	54	6210
2026-01-03 03:36:17.82	309.99	7.65	-40.6	-41.8	21.4	0.00e+00	92	39	0	672137216	54	6281
2026-01-03 03:36:19.11	310.20	7.62	-40.7	-41.8	21.4	0.00e+00	92	39	0	674234368	54	6287
2026-01-03 03:36:19.84	310.31	7.61	-40.6	-41.8	21.5	0.00e+00	0	39	0	676331520	54	6255
2026-01-03 03:36:21.13	310.52	7.58	-40.7	-41.8	21.3	0.00e+00	92	39	0	678428672	54	6307
2026-01-03 03:36:21.85	310.63	7.56	-40.8	-41.9	21.3	0.00e+00	0	39	0	679477248	54	6378
2026-01-03 03:36:23.15	310.84	7.53	-40.8	-42.0	21.3	0.00e+00	92	39	0	682622976	54	6420
2026-01-03 03:36:23.87	310.95	7.52	-40.9	-42.0	21.2	0.00e+00	87	39	0	683671552	54	6446
2026-01-03 03:36:25.17	311.15	7.49	-40.9	-42.0	21.2	0.00e+00	92	39	0	685768704	54	6451
2026-01-03 03:36:25.89	311.27	7.47	-40.9	-42.1	21.2	0.00e+00	6	39	0	686817280	54	6486
2026-01-03 03:36:27.19	311.47	7.44	-40.9	-42.1	21.1	0.00e+00	4	39	0	689963008	54	6493
2026-01-03 03:36:27.91	311.58	7.42	-41.0	-42.2	21.1	0.00e+00	65	39	0	691011584	54	6583
2026-01-03 03:36:29.21	311.79	7.39	-41.0	-42.2	21.1	0.00e+00	0	39	0	693108736	54	6602
2026-01-03 03:36:29.93	311.90	7.38	-40.9	-42.1	21.1	0.00e+00	92	39	0	695205888	54	6523
2026-01-03 03:36:31.23	312.10	7.35	-41.0	-42.2	21.1	0.00e+00	80	39	0	697303040	54	6549
2026-01-03 03:36:31.95	312.21	7.33	-41.1	-42.4	20.9	0.00e+00	92	39	0	698351616	54	6699
2026-01-03 03:36:33.25	312.41	7.30	-41.0	-42.2	20.9	0.00e+00	0	39	0	701497344	54	6585
2026-01-03 03:36:33.97	312.53	7.28	-41.1	-42.3	20.9	0.00e+00	92	39	0	702545920	54	6640
2026-01-03 03:36:35.27	312.73	7.25	-41.2	-42.4	20.9	0.00e+00	91	39	0	704643072	54	6742
2026-01-03 03:36:35.99	312.84	7.23	-40.9	-42.1	21.1	0.00e+00	0	39	0	706740224	54	6501
2026-01-03 03:36:37.29	313.04	7.20	-40.8	-42.0	21.0	0.00e+00	92	39	0	708837376	54	6436
2026-01-03 03:36:38.01	313.15	7.18	-41.0	-42.1	20.9	0.00e+00	0	39	0	709885952	54	6539
2026-01-03 03:36:39.31	313.35	7.15	-40.8	-42.0	21.1	0.00e+00	92	39	0	711983104	54	6446
2026-01-03 03:36:40.03	313.46	7.13	-40.7	-41.9	21.3	0.00e+00	0	39	0	714080256	54	6333
2026-01-03 03:36:41.33	313.66	7.10	-40.7	-41.8	21.4	0.00e+00	0	39	0	716177408	54	6298
2026-01-03 03:36:42.05	313.77	7.08	-40.8	-41.9	21.1	0.00e+00	0	39	0	717225984	54	6376
2026-01-03 03:36:43.35	313.97	7.05	-40.8	-42.0	21.1	0.00e+00	0	39	0	720371712	54	6428
2026-01-03 03:36:44.07	314.08	7.03	-40.9	-42.1	21.0	0.00e+00	90	39	0	721420288	54	6498
2026-01-03 03:36:45.37	314.28	6.99	-40.9	-42.1	21.0	0.00e+00	0	39	0	723517440	54	6491
2026-01-03 03:36:46.10	314.39	6.98	-41.1	-42.3	20.9	0.00e+00	92	39	0	725614592	54	6633
2026-01-03 03:36:47.39	314.58	6.94	-41.1	-42.3	20.8	0.00e+00	0	39	0	727711744	54	6671
2026-01-03 03:36:48.12	314.69	6.92	-41.3	-42.6	20.6	0.00e+00	90	39	0	728760320	54	6866
2026-01-03 03:36:49.41	314.89	6.89	-41.4	-42.7	20.5	0.00e+00	28	39	0	730857472	54	6972
2026-01-03 03:36:50.14	315.00	6.87	-41.5	-42.8	20.4	0.00e+00	5	39	0	732954624	54	7025
2026-01-03 03:36:51.44	315.19	6.83	-41.7	-43.1	20.1	0.00e+00	90	39	0	735051776	54	7300
2026-01-03 03:36:52.16	315.30	6.82	-42.0	-43.3	19.9	0.00e+00	0	39	0	736100352	56	6676
2026-01-03 03:36:53.45	315.49	6.78	-41.8	-43.2	20.1	0.00e+00	92	39	0	739246080	56	6569
2026-01-03 03:36:54.18	315.60	6.76	-41.7	-43.1	20.2	0.00e+00	81	39	0	740294656	56	6474
2026-01-03 03:36:55.47	315.80	6.73	-41.9	-43.2	20.1	0.00e+00	92	39	0	742391808	56	6597
2026-01-03 03:36:56.20	315.91	6.71	-41.6	-42.9	20.2	0.00e+00	81	39	0	744488960	56	6370
2026-01-03 03:36:57.49	316.10	6.67	-41.6	-42.9	20.4	0.00e+00	0	39	0	746586112	56	6328
2026-01-03 03:36:58.22	316.21	6.65	-41.5	-42.8	20.5	0.00e+00	0	39	0	747634688	56	6283
2026-01-03 03:36:59.52	316.40	6.61	-41.6	-42.9	20.4	0.00e+00	0	39	0	750780416	56	6349
2026-01-03 03:37:00.23	316.50	6.59	-41.4	-42.7	20.6	0.00e+00	91	39	0	751828992	56	6185
2026-01-03 03:37:01.53	316.70	6.56	-41.7	-43.1	20.2	0.00e+00	0	39	0	753926144	56	6465
2026-01-03 03:37:02.25	316.80	6.54	-41.6	-42.9	20.3	0.00e+00	92	39	0	754974720	56	6357
2026-01-03 03:37:03.55	316.99	6.50	-41.6	-42.9	20.3	0.00e+00	0	39	0	758120448	56	6364
2026-01-03 03:37:04.27	317.10	6.48	-41.6	-42.9	20.3	0.00e+00	0	39	0	759169024	56	6389
2026-01-03 03:37:05.57	317.29	6.44	-41.9	-43.3	20.0	0.00e+00	90	39	0	761266176	56	6653
2026-01-03 03:37:06.30	317.40	6.42	-41.9	-43.3	20.0	0.00e+00	1	39	0	763363328	56	6621
2026-01-03 03:37:07.59	317.59	6.39	-41.8	-43.2	20.2	0.00e+00	26	39	0	765460480	56	6549
2026-01-03 03:37:08.31	317.69	6.37	-41.7	-43.0	20.3	0.00e+00	2	39	0	766509056	56	6444
2026-01-03 03:37:09.61	317.88	6.33	-41.8	-43.2	20.0	0.00e+00	81	39	0	769654784	56	6550
2026-01-03 03:37:10.33	317.98	6.31	-42.1	-43.5	19.9	0.00e+00	0	39	0	770703360	56	6784
2026-01-03 03:37:11.63	318.17	6.27	-42.1	-43.5	19.7	0.00e+00	82	39	0	772800512	56	6779
2026-01-03 03:37:12.35	318.28	6.25	-42.3	-43.7	19.5	0.00e+00	0	39	0	774897664	56	6970
2026-01-03 03:37:13.65	318.46	6.21	-42.8	-44.4	18.8	0.00e+00	81	39	0	776994816	58	6707
2026-01-03 03:37:14.37	318.57	6.19	-42.9	-44.6	18.7	0.00e+00	67	39	0	778043392	58	6883
2026-01-03 03:37:15.67	318.76	6.15	-43.3	-45.0	18.3	0.00e+00	0	39	0	780140544	58	7219
2026-01-03 03:37:16.39	318.86	6.13	-43.2	-45.0	18.2	0.00e+00	92	39	0	782237696	58	7205
2026-01-03 03:37:17.69	319.04	6.09	-43.4	-45.2	18.2	0.00e+00	0	39	0	784334848	58	7340
2026-01-03 03:37:18.41	319.15	6.07	-43.4	-45.2	18.0	0.00e+00	23	39	0	785383424	58	7392
2026-01-03 03:37:19.71	319.33	6.03	-43.4	-45.2	18.0	0.00e+00	76	39	0	788529152	58	7379
2026-01-03 03:37:20.43	319.44	6.01	-43.4	-45.2	18.0	0.00e+00	0	39	0	789577728	58	7400
2026-01-03 03:37:21.73	319.62	5.97	-43.2	-45.0	18.1	0.00e+00	92	39	0	791674880	58	7225
2026-01-03 03:37:22.45	319.72	5.95	-43.2	-44.9	18.3	0.00e+00	0	39	0	793772032	58	7148
2026-01-03 03:37:23.75	319.91	5.91	-43.1	-44.9	18.2	0.00e+00	0	39	0	795869184	58	7131
2026-01-03 03:37:24.47	320.01	5.88	-43.2	-45.0	18.1	0.00e+00	81	39	0	796917760	58	7178
2026-01-03 03:37:25.77	320.19	5.84	-43.1	-44.9	18.2	0.00e+00	5	39	0	799014912	58	7109
2026-01-03 03:37:26.49	320.29	5.82	-43.1	-44.8	18.3	0.00e+00	0	39	0	801112064	58	7073
2026-01-03 03:37:27.79	320.48	5.78	-42.9	-44.6	18.6	0.00e+00	0	39	0	803209216	58	6867
2026-01-03 03:37:28.51	320.58	5.76	-42.8	-44.4	18.7	0.00e+00	0	39	0	804257792	58	6737
2026-01-03 03:37:29.81	320.76	5.72	-42.8	-44.5	18.6	0.00e+00	5	39	0	807403520	58	6807
2026-01-03 03:37:30.53	320.86	5.70	-42.6	-44.2	18.8	0.00e+00	92	39	0	808452096	58	6584
2026-01-03 03:37:31.83	321.04	5.65	-42.8	-44.5	18.6	0.00e+00	0	39	0	810549248	58	6777
2026-01-03 03:37:32.55	321.14	5.63	-42.9	-44.6	18.4	0.00e+00	91	39	0	812646400	58	6912
2026-01-03 03:37:33.85	321.32	5.59	-42.9	-44.6	18.3	0.00e+00	86	39	0	814743552	58	6883
2026-01-03 03:37:34.57	321.42	5.57	-43.0	-44.7	18.4	0.00e+00	12	39	0	815792128	58	6982
2026-01-03 03:37:35.87	321.60	5.53	-43.1	-44.8	18.2	0.00e+00	86	39	0	818937856	58	7068
2026-01-03 03:37:36.59	321.70	5.50	-43.4	-45.3	17.8	0.00e+00	0	39	0	819986432	58	7461
2026-01-03 03:37:37.89	321.88	5.46	-43.5	-45.4	17.8	0.00e+00	92	39	0	822083584	58	7593
2026-01-03 03:37:38.61	321.97	5.44	-43.6	-45.5	17.5	0.00e+00	0	39	0	823132160	58	7615
2026-01-03 03:37:39.91	322.15	5.40	-44.1	-46.2	16.9	0.00e+00	3	39	0	826277888	60	7369
2026-01-03 03:37:40.63	322.25	5.37	-44.2	-46.4	16.7	0.00e+00	82	39	0	827326464	60	7555
2026-01-03 03:37:41.93	322.43	5.33	-44.3	-46.6	16.5	0.00e+00	0	39	0	829423616	60	7716
2026-01-03 03:37:42.65	322.53	5.31	-44.4	-46.7	16.4	0.00e+00	81	39	0	831520768	60	7831
2026-01-03 03:37:43.95	322.70	5.27	-44.4	-46.7	16.4	0.00e+00	0	39	0	833617920	60	7844
2026-01-03 03:37:44.67	322.80	5.24	-44.5	-46.9	16.2	0.00e+00	0	39	0	834666496	60	8006
2026-01-03 03:37:45.97	322.98	5.20	-44.4	-46.8	16.3	0.00e+00	0	39	0	837812224	60	7891
2026-01-03 03:37:46.69	323.07	5.18	-44.5	-46.9	16.1	0.00e+00	92	39	0	838860800	60	8025
2026-01-03 03:37:47.98	323.25	5.13	-44.9	-47.4	15.6	0.00e+00	0	39	0	840957952	60	8505
2026-01-03 03:37:48.70	323.34	5.11	-44.7	-47.1	15.9	0.00e+00	92	39	0	843055104	60	8211
2026-01-03 03:37:50.00	323.52	5.07	-44.6	-47.0	16.1	0.00e+00	0	39	0	845152256	60	8073
2026-01-03 03:37:50.72	323.61	5.04	-44.4	-46.7	16.4	0.00e+00	0	39	0	846200832	60	7777
2026-01-03 03:37:52.02	323.79	5.00	-44.7	-47.1	15.9	0.00e+00	91	39	0	848297984	60	8205
2026-01-03 03:37:52.75	323.88	4.98	-44.5	-46.9	16.2	0.00e+00	6	39	0	850395136	60	8012
2026-01-03 03:37:54.04	324.05	4.93	-44.5	-46.9	16.1	0.00e+00	92	39	0	852492288	60	8042
2026-01-03 03:37:54.77	324.15	4.91	-44.4	-46.7	16.3	0.00e+00	0	39	0	853540864	60	7811
2026-01-03 03:37:56.06	324.32	4.86	-44.2	-46.4	16.5	0.00e+00	82	39	0	856686592	60	7572
2026-01-03 03:37:56.79	324.42	4.84	-44.0	-46.1	16.8	0.00e+00	0	39	0	857735168	60	7317
2026-01-03 03:37:58.08	324.59	4.80	-43.9	-46.0	17.0	0.00e+00	0	39	0	859832320	60	7187
2026-01-03 03:37:58.81	324.68	4.77	-43.9	-46.1	16.9	0.00e+00	87	39	0	861929472	60	7294
2026-01-03 03:38:00.11	324.85	4.73	-43.7	-45.8	17.1	0.00e+00	2	39	0	864026624	60	7038
2026-01-03 03:38:00.83	324.95	4.70	-43.8	-45.9	16.9	0.00e+00	91	39	0	865075200	60	7150
2026-01-03 03:38:02.12	325.12	4.66	-44.1	-46.4	16.5	0.00e+00	0	39	0	868220928	60	7539
2026-01-03 03:38:02.85	325.21	4.63	-44.1	-46.3	16.7	0.00e+00	92	39	0	869269504	60	7449
2026-01-03 03:38:04.14	325.38	4.59	-44.0	-46.2	16.5	0.00e+00	2	39	0	871366656	60	7420
2026-01-03 03:38:04.86	325.47	4.57	-44.0	-46.3	16.6	0.00e+00	79	39	0	872415232	60	7431
2026-01-03 03:38:06.16	325.64	4.52	-43.9	-46.1	16.7	0.00e+00	0	39	0	875560960	60	7263
2026-01-03 03:38:06.89	325.73	4.50	-43.9	-46.0	16.8	0.00e+00	7	39	0	876609536	60	7227
2026-01-03 03:38:08.19	325.90	4.45	-43.8	-45.9	17.1	0.00e+00	92	39	0	878706688	60	7110
2026-01-03 03:38:08.91	325.99	4.43	-43.6	-45.7	17.1	0.00e+00	6	39	0	880803840	60	6965
2026-01-03 03:38:10.21	326.16	4.38	-43.6	-45.6	17.2	0.00e+00	0	39	0	882900992	60	6922
2026-01-03 03:38:10.93	326.25	4.36	-43.5	-45.6	17.3	0.00e+00	0	39	0	883949568	60	6857
2026-01-03 03:38:12.23	326.42	4.31	-43.8	-45.9	17.0	0.00e+00	3	39	0	887095296	60	7090
2026-01-03 03:38:12.95	326.51	4.29	-43.4	-45.3	17.6	0.00e+00	0	39	0	888143872	60	6642
2026-01-03 03:38:14.25	326.67	4.24	-43.4	-45.4	17.4	0.00e+00	0	39	0	890241024	60	6723
2026-01-03 03:38:14.97	326.76	4.21	-43.5	-45.5	17.3	0.00e+00	0	39	0	891289600	60	6842
2026-01-03 03:38:16.27	326.93	4.17	-43.9	-46.1	16.7	0.00e+00	82	39	0	894435328	60	7289
2026-01-03 03:38:16.99	327.02	4.14	-44.0	-46.2	16.6	0.00e+00	92	39	0	895483904	60	7403
2026-01-03 03:38:18.29	327.18	4.10	-44.2	-46.4	16.4	0.00e+00	3	39	0	897581056	60	7595
2026-01-03 03:38:19.01	327.27	4.07	-44.2	-46.6	16.2	0.00e+00	92	39	0	899678208	60	7728
2026-01-03 03:38:20.30	327.43	4.03	-44.2	-46.6	16.2	0.00e+00	0	39	0	901775360	60	7741
2026-01-03 03:38:21.02	327.52	4.00	-44.3	-46.8	16.0	0.00e+00	0	39	0	902823936	60	7885
2026-01-03 03:38:22.32	327.69	3.96	-44.4	-46.8	16.0	0.00e+00	92	39	0	905969664	60	7936
2026-01-03 03:38:23.04	327.77	3.93	-44.1	-46.4	16.3	0.00e+00	82	39	0	907018240	60	7565
2026-01-03 03:38:24.34	327.94	3.88	-43.9	-46.2	16.6	0.00e+00	92	39	0	909115392	60	7343
2026-01-03 03:38:25.06	328.02	3.86	-43.8	-46.0	16.6	0.00e+00	0	39	0	910163968	60	7205
2026-01-03 03:38:26.36	328.19	3.81	-43.8	-46.0	16.7	0.00e+00	0	39	0	913309696	60	7203
2026-01-03 03:38:27.08	328.27	3.79	-43.7	-45.8	16.9	0.00e+00	0	39	0	914358272	60	7031
2026-01-03 03:38:28.38	328.43	3.74	-43.2	-45.2	17.4	0.00e+00	0	39	0	916455424	60	6585
2026-01-03 03:38:29.10	328.52	3.71	-43.3	-45.3	17.3	0.00e+00	0	39	0	918552576	60	6646
2026-01-03 03:38:30.40	328.68	3.67	-43.0	-44.8	17.8	0.00e+00	81	39	0	920649728	60	6302
2026-01-03 03:38:31.12	328.77	3.64	-42.9	-44.7	17.9	0.00e+00	0	39	0	921698304	60	6242
2026-01-03 03:38:32.42	328.93	3.59	-43.1	-45.0	17.5	0.00e+00	81	39	0	924844032	60	6463
2026-01-03 03:38:33.14	329.01	3.57	-43.3	-45.3	17.2	0.00e+00	91	39	0	925892608	60	6679
2026-01-03 03:38:34.44	329.17	3.52	-43.2	-45.2	17.2	0.00e+00	0	39	0	927989760	60	6590
2026-01-03 03:38:35.17	329.26	3.49	-43.3	-45.3	17.2	0.00e+00	90	39	0	930086912	60	6677
2026-01-03 03:38:36.46	329.41	3.45	-43.5	-45.6	16.7	0.00e+00	0	39	0	932184064	60	6903
2026-01-03 03:38:37.18	329.50	3.42	-43.7	-46.0	16.3	0.00e+00	81	39	0	933232640	60	7191
2026-01-03 03:38:38.48	329.66	3.37	-43.8	-46.2	16.3	0.00e+00	92	39	0	936378368	60	7380
2026-01-03 03:38:39.20	329.74	3.35	-43.8	-46.1	16.1	0.00e+00	83	39	0	937426944	60	7330
2026-01-03 03:38:40.50	329.90	3.30	-44.0	-46.6	15.2	0.00e+00	92	39	0	939524096	60	7726
2026-01-03 03:38:41.22	329.98	3.27	-44.1	-46.8	15.2	0.00e+00	81	39	0	940572672	60	7886
2026-01-03 03:38:42.52	330.14	3.23	-43.8	-46.3	15.5	0.00e+00	2	39	0	943718400	60	7442
2026-01-03 03:38:43.24	330.22	3.20	-44.5	-47.4	14.6	0.00e+00	0	39	0	944766976	60	8466
2026-01-03 03:38:44.54	330.38	3.15	-44.4	-47.5	14.2	0.00e+00	0	39	0	946864128	60	8576
2026-01-03 03:38:45.26	330.46	3.13	-44.8	-48.3	13.4	7.00e-07	78	39	0	948961280	60	9352
2026-01-03 03:38:46.56	330.61	3.08	-45.0	-48.9	12.6	4.95e-05	0	39	0	951058432	60	10013
2026-01-03 03:38:47.28	330.70	3.05	-45.2	-49.3	12.0	2.03e-04	92	39	0	952107008	60	10548
2026-01-03 03:38:48.58	330.85	3.00	-45.3	-49.9	10.5	2.16e-03	0	39	0	955252736	60	11262
2026-01-03 03:38:49.30	330.93	2.98	-48.8	-63.9	3.6	8.76e-01	0	39	104	955252736	60	56703
2026-01-03 03:38:50.60	331.09	2.93	-49.4	-64.6	3.6	1.51e+00	0	39	104	955252736	60	61339
2026-01-03 03:38:51.32	331.17	2.90	-49.6	-64.8	3.6	1.51e+00	0	39	104	955252736	60	63057
2026-01-03 03:38:52.62	331.32	2.85	-49.8	-65.0	3.6	1.51e+00	0	39	104	955252736	60	64489
2026-01-03 03:38:53.34	331.40	2.83	-49.9	-65.1	3.6	1.51e+00	0	39	104	955252736	60	65239
2026-01-03 03:38:54.64	331.55	2.78	-50.0	-65.2	3.6	1.51e+00	0	39	104	955252736	60	66078
2026-01-03 03:38:55.36	331.64	2.75	-50.1	-65.3	3.6	1.51e+00	0	39	104	955252736	60	66496
2026-01-03 03:38:56.66	331.78	2.70	-50.1	-65.3	3.6	1.51e+00	0	39	104	955252736	60	66420
2026-01-03 03:38:57.38	331.87	2.68	-50.1	-65.3	3.6	1.51e+00	0	39	104	955252736	60	66752
2026-01-03 03:38:58.68	332.02	2.63	-50.0	-65.3	3.5	1.51e+00	0	39	104	955252736	60	66264
2026-01-03 03:38:59.41	332.10	2.60	-50.0	-65.2	3.6	1.51e+00	0	39	104	955252736	60	66096
2026-01-03 03:39:00.70	332.25	2.55	-50.0	-65.2	3.6	1.51e+00	0	39	104	955252736	60	65726
2026-01-03 03:39:01.42	332.33	2.53	-50.0	-65.2	3.6	1.51e+00	0	39	104	955252736	60	65531
2026-01-03 03:39:02.72	332.47	2.48	-50.0	-65.3	3.6	1.51e+00	0	39	104	955252736	60	66382
2026-01-03 03:39:03.44	332.55	2.45	-50.0	-65.2	3.6	1.51e+00	0	39	104	955252736	60	65815
2026-01-03 03:39:04.74	332.70	2.40	-50.0	-65.3	3.6	1.51e+00	0	40	104	955252736	60	66445
2026-01-03 03:39:05.46	332.78	2.37	-50.1	-65.3	3.6	1.51e+00	0	39	104	955252736	60	66493
2026-01-03 03:39:06.76	332.93	2.33	-50.0	-65.3	3.6	1.51e+00	0	39	104	955252736	60	66342
2026-01-03 03:39:07.48	333.01	2.30	-50.0	-65.3	3.6	1.51e+00	0	39	104	955252736	60	66495
2026-01-03 03:39:08.78	333.15	2.25	-50.0	-65.2	3.6	1.51e+00	0	39	104	955252736	60	65960
2026-01-03 03:39:09.50	333.23	2.22	-50.0	-65.2	3.6	1.51e+00	0	39	104	955252736	60	66086
2026-01-03 03:39:10.80	333.38	2.17	-50.0	-65.1	3.6	1.51e+00	0	39	104	955252736	60	65386
2026-01-03 03:39:11.52	333.46	2.15	-50.0	-65.2	3.6	1.51e+00	0	39	104	955252736	60	65555
2026-01-03 03:39:12.82	333.60	2.10	-50.0	-65.2	3.6	1.51e+00	0	39	104	955252736	60	65598
2026-01-03 03:39:13.54	333.68	2.07	-50.0	-65.2	3.6	1.51e+00	0	39	104	955252736	60	65507
2026-01-03 03:39:14.84	333.82	2.02	-50.0	-65.2	3.6	1.51e+00	0	39	104	955252736	60	66040
2026-01-03 03:39:15.56	333.90	1.99	-50.0	-65.2	3.6	1.51e+00	0	39	104	955252736	60	65766
2026-01-03 03:39:16.86	334.04	1.94	-50.0	-65.2	3.6	1.51e+00	0	39	104	955252736	60	65739
2026-01-03 03:39:17.58	334.12	1.92	-50.0	-65.2	3.6	1.51e+00	0	39	104	955252736	60	65921
2026-01-03 03:39:18.88	334.26	1.87	-50.0	-65.2	3.6	1.51e+00	0	39	104	955252736	60	65991
2026-01-03 03:39:19.60	334.34	1.84	-50.0	-65.2	3.6	1.51e+00	0	39	104	955252736	60	65738
2026-01-03 03:39:20.90	334.48	1.79	-50.0	-65.3	3.6	1.51e+00	0	39	104	955252736	60	66411
2026-01-03 03:39:21.62	334.56	1.76	-50.0	-65.2	3.6	1.51e+00	0	39	104	955252736	60	66081
2026-01-03 03:39:22.92	334.70	1.71	-50.1	-65.3	3.6	1.51e+00	0	39	104	955252736	60	66200
2026-01-03 03:39:23.64	334.78	1.69	-50.1	-65.3	3.6	1.51e+00	0	39	104	955252736	60	66841
2026-01-03 03:39:24.94	334.91	1.64	-50.1	-65.3	3.6	1.51e+00	0	39	104	955252736	60	66251
2026-01-03 03:39:25.66	334.99	1.61	-50.1	-65.3	3.6	1.51e+00	0	39	104	955252736	60	66585
2026-01-03 03:39:26.96	335.13	1.56	-50.1	-65.3	3.6	1.51e+00	0	39	104	955252736	60	66703
2026-01-03 03:39:27.68	335.21	1.53	-50.1	-65.3	3.6	1.51e+00	0	39	104	955252736	60	66569
2026-01-03 03:39:28.98	335.34	1.48	-50.0	-65.2	3.5	1.51e+00	0	39	104	955252736	60	65930
2026-01-03 03:39:29.70	335.42	1.45	-50.1	-65.3	3.6	1.51e+00	0	39	104	955252736	60	66619
2026-01-03 03:39:31.00	335.56	1.40	-50.0	-65.3	3.6	1.51e+00	0	39	104	955252736	60	66247
2026-01-03 03:39:31.72	335.63	1.38	-50.0	-65.2	3.6	1.51e+00	0	39	104	955252736	60	65946
2026-01-03 03:39:33.02	335.77	1.33	-50.1	-65.3	3.6	1.51e+00	0	39	104	955252736	60	66434
2026-01-03 03:39:33.74	335.85	1.30	-50.1	-65.3	3.5	1.51e+00	0	39	104	955252736	60	66779
2026-01-03 03:39:35.04	335.98	1.25	-50.0	-65.2	3.6	1.51e+00	0	39	104	955252736	60	65914
2026-01-03 03:39:35.76	336.06	1.22	-50.0	-65.2	3.6	1.51e+00	0	39	104	955252736	60	66118
2026-01-03 03:39:37.06	336.19	1.17	-50.0	-65.2	3.6	1.51e+00	0	39	104	955252736	60	65923
2026-01-03 03:39:37.78	336.27	1.14	-50.0	-65.2	3.6	1.51e+00	0	39	104	955252736	60	65621
2026-01-03 03:39:39.08	336.40	1.09	-50.0	-65.3	3.6	1.51e+00	0	39	104	955252736	60	66238
2026-01-03 03:39:39.80	336.48	1.07	-50.0	-65.2	3.6	1.51e+00	0	39	104	955252736	60	66093
2026-01-03 03:39:41.10	336.61	1.02	-50.0	-65.2	3.6	1.51e+00	0	39	104	955252736	60	65545
2026-01-03 03:39:41.82	336.68	0.99	-50.1	-65.2	3.6	1.51e+00	0	39	104	955252736	60	66090
2026-01-03 03:39:43.12	336.82	0.94	-50.0	-65.2	3.6	1.51e+00	0	39	104	955252736	60	65976
2026-01-03 03:39:43.84	336.89	0.91	-50.0	-65.2	3.6	1.51e+00	0	40	104	955252736	60	65822
2026-01-03 03:39:45.14	337.02	0.86	-50.0	-65.2	3.6	1.51e+00	0	39	104	955252736	60	66099
2026-01-03 03:39:45.86	337.10	0.83	-50.0	-65.2	3.6	1.51e+00	0	40	104	955252736	60	65814
2026-01-03 03:39:47.16	337.23	0.78	-50.0	-65.2	3.6	1.51e+00	0	39	104	955252736	60	65817
2026-01-03 03:39:47.88	337.30	0.75	-50.0	-65.2	3.6	1.51e+00	0	39	104	955252736	60	66027
2026-01-03 03:39:49.18	337.43	0.70	-50.0	-65.3	3.6	1.51e+00	0	39	104	955252736	60	66371
2026-01-03 03:39:49.90	337.50	0.68	-50.1	-65.3	3.6	1.51e+00	0	40	104	955252736	60	66802
2026-01-03 03:39:51.20	337.63	0.63	-50.0	-65.2	3.6	1.51e+00	0	39	104	955252736	60	65833
2026-01-03 03:39:51.92	337.71	0.60	-50.0	-65.2	3.6	1.51e+00	0	39	104	955252736	60	66144
2026-01-03 03:39:53.22	337.84	0.55	-50.0	-65.3	3.6	1.51e+00	0	39	104	955252736	60	66378
2026-01-03 03:39:53.94	337.91	0.52	-50.0	-65.2	3.6	1.51e+00	0	39	104	955252736	60	66104
2026-01-03 03:39:55.24	338.04	0.47	-50.0	-65.2	3.6	1.51e+00	0	39	104	955252736	60	65734
2026-01-03 03:39:55.96	338.11	0.44	-50.0	-65.2	3.6	1.51e+00	0	39	104	955252736	60	65961
2026-01-03 03:39:57.26	338.24	0.39	-50.0	-65.3	3.6	1.51e+00	0	39	104	955252736	60	66213
2026-01-03 03:39:57.98	338.31	0.36	-50.0	-65.3	3.6	1.51e+00	0	40	104	955252736	60	66550
2026-01-03 03:39:59.28	338.44	0.31	-50.0	-65.3	3.6	1.51e+00	0	40	104	955252736	60	66327
2026-01-03 03:40:00.01	338.51	0.28	-50.0	-65.3	3.6	1.51e+00	0	39	104	955252736	60	66188
2026-01-03 03:40:01.30	338.63	0.23	-50.0	-65.2	3.6	1.51e+00	0	39	104	955252736	60	65900
2026-01-03 03:40:02.03	338.71	0.21	-50.1	-65.3	3.6	1.51e+00	0	40	104	955252736	60	66799
2026-01-03 03:40:03.32	338.83	0.16	-50.1	-65.3	3.5	1.51e+00	0	39	104	955252736	60	66525
2026-01-03 03:40:04.05	338.90	0.13	-50.2	-65.5	3.6	1.51e+00	0	40	104	955252736	60	67821
2026-01-03 03:40:05.34	339.03	0.08	-50.2	-65.4	3.6	1.51e+00	0	39	104	955252736	60	67021
2026-01-03 03:40:06.07	339.10	0.05	-50.0	-65.3	3.6	1.51e+00	0	39	104	955252736	60	66490
2026-01-03 03:40:07.37	339.22	-0.00	-50.0	-65.2	3.6	1.51e+00	0	39	104	955252736	60	65420
2026-01-03 03:40:08.09	339.29	-0.03	-50.2	-65.4	3.6	1.51e+00	0	39	104	955252736	60	67142

#Closed at: 2026-01-03 03:40:09
#Recorded file [955 MB]: D:/lorett/data/35029_260103_152859.dat