passes_logs/2026/01/03/R4.6S_Anadyr/R4.6S_Anadyr__20260103_132855_SUOMI_NPP_rec.log

#Pass ID: 20260103_132855_SUOMI NPP
#Satellite: SUOMI NPP
#Configuration: NPP
#almurnet v.1.7.20251203
#Start time: 2026-01-03 13:28:57

#Version: 2.2.20231116
#Station: R4.6S_Anadyr
#Location: 177.4865 lon 64.73178 lat
#TLE: 1 37849U 11061A   26001.07732418  .00000182  00000+0  10735-3 0  9990
#TLE: 2 37849  98.7795 303.2470 0002580  87.2016 272.9455 14.19520779734739

#Time	Az	El	Level	Level2	SNR	BER	BlckErr	Temp	State	Recorded	gain1	gain2
2026-01-03 13:28:57.20	18.93	0.10	-51.1	-63.6	3.4	1.51e+00	0	37	0	0	60	53171
2026-01-03 13:28:58.21	18.97	0.16	-51.7	-66.8	3.6	1.51e+00	0	38	104	0	60	78877
2026-01-03 13:28:59.22	19.02	0.22	-50.7	-65.9	3.6	1.51e+00	0	38	104	0	60	70979
2026-01-03 13:29:00.23	19.06	0.27	-50.7	-65.8	3.6	1.51e+00	0	38	104	0	60	70545
2026-01-03 13:29:01.24	19.11	0.33	-50.5	-65.7	3.5	1.51e+00	0	38	104	0	60	69431
2026-01-03 13:29:02.25	19.15	0.39	-50.4	-65.5	3.6	1.51e+00	0	38	104	0	60	68096
2026-01-03 13:29:03.26	19.19	0.44	-50.3	-65.5	3.6	1.51e+00	0	38	104	0	60	67865
2026-01-03 13:29:04.27	19.24	0.50	-50.4	-65.5	3.6	1.51e+00	0	38	104	0	60	68420
2026-01-03 13:29:05.28	19.28	0.56	-50.2	-65.5	3.6	1.51e+00	0	38	104	0	60	67783
2026-01-03 13:29:06.29	19.33	0.62	-50.2	-65.3	3.6	1.51e+00	0	38	104	0	60	66886
2026-01-03 13:29:07.30	19.38	0.67	-50.0	-65.2	3.6	1.51e+00	0	38	104	0	60	65566
2026-01-03 13:29:08.31	19.42	0.73	-49.7	-64.9	3.5	1.51e+00	0	39	104	0	60	63669
2026-01-03 13:29:09.32	19.47	0.79	-49.6	-64.8	3.6	1.51e+00	0	39	104	0	60	63165
2026-01-03 13:29:10.33	19.51	0.85	-49.5	-64.8	3.6	1.51e+00	0	39	104	0	60	62546
2026-01-03 13:29:11.34	19.56	0.91	-49.5	-64.7	3.6	1.51e+00	0	39	104	0	60	61761
2026-01-03 13:29:12.35	19.60	0.96	-49.1	-64.3	3.6	1.51e+00	0	39	104	0	60	59436
2026-01-03 13:29:13.35	19.65	1.02	-48.9	-64.0	3.6	1.51e+00	0	39	104	0	60	57583
2026-01-03 13:29:14.36	19.70	1.08	-48.9	-64.1	3.6	1.51e+00	0	39	104	0	60	57681
2026-01-03 13:29:15.37	19.74	1.14	-48.8	-64.0	3.6	1.51e+00	0	39	104	0	60	57317
2026-01-03 13:29:16.38	19.79	1.20	-48.8	-63.9	3.5	1.51e+00	0	39	104	0	60	56878
2026-01-03 13:29:17.39	19.84	1.26	-48.7	-63.9	3.6	1.51e+00	0	39	104	0	60	56950
2026-01-03 13:29:18.40	19.88	1.31	-48.7	-63.9	3.6	1.51e+00	0	39	104	0	60	56594
2026-01-03 13:29:19.41	19.93	1.37	-48.8	-63.9	3.6	1.51e+00	0	39	104	0	60	56922
2026-01-03 13:29:20.42	19.98	1.43	-48.8	-64.0	3.6	1.51e+00	0	39	104	0	60	57371
2026-01-03 13:29:21.43	20.03	1.49	-48.8	-64.0	3.6	1.51e+00	0	39	104	0	60	57394
2026-01-03 13:29:22.44	20.07	1.55	-48.8	-64.0	3.6	1.51e+00	0	39	104	0	60	57559
2026-01-03 13:29:23.45	20.12	1.61	-48.9	-64.1	3.6	1.51e+00	0	39	104	0	60	57867
2026-01-03 13:29:24.46	20.17	1.67	-48.8	-64.0	3.6	1.51e+00	0	39	104	0	60	57223
2026-01-03 13:29:25.47	20.22	1.73	-48.8	-64.0	3.6	1.51e+00	0	39	104	0	60	56995
2026-01-03 13:29:26.48	20.27	1.79	-48.8	-63.9	3.6	1.51e+00	0	39	104	0	60	56929
2026-01-03 13:29:27.49	20.32	1.85	-48.9	-63.9	3.6	1.51e+00	0	39	104	0	60	56861
2026-01-03 13:29:28.50	20.37	1.91	-49.0	-64.1	3.6	1.51e+00	0	39	104	0	60	58093
2026-01-03 13:29:29.51	20.41	1.97	-49.2	-64.3	3.6	1.51e+00	0	39	104	0	60	59445
2026-01-03 13:29:30.52	20.46	2.03	-49.0	-64.2	3.6	1.51e+00	0	39	104	0	60	58737
2026-01-03 13:29:31.53	20.51	2.09	-48.9	-64.0	3.6	1.51e+00	0	39	104	0	60	57489
2026-01-03 13:29:32.54	20.56	2.15	-48.8	-64.0	3.6	1.51e+00	0	39	104	0	60	57186
2026-01-03 13:29:33.55	20.61	2.21	-48.8	-64.0	3.6	1.51e+00	0	39	104	0	60	57527
2026-01-03 13:29:34.55	20.66	2.27	-48.9	-64.1	3.6	1.51e+00	0	39	104	0	60	57755
2026-01-03 13:29:35.56	20.71	2.33	-48.9	-64.1	3.5	1.51e+00	0	39	104	0	60	58141
2026-01-03 13:29:36.57	20.76	2.39	-48.9	-63.9	3.6	1.51e+00	0	39	104	0	60	56705
2026-01-03 13:29:37.58	20.81	2.45	-48.9	-63.6	3.6	1.51e+00	0	39	104	0	60	54918
2026-01-03 13:29:38.59	20.86	2.51	-48.9	-63.5	3.6	1.51e+00	0	39	104	0	60	54337
2026-01-03 13:29:39.60	20.91	2.58	-48.9	-63.2	3.6	1.51e+00	0	39	104	0	60	52477
2026-01-03 13:29:40.61	20.97	2.64	-48.9	-63.4	3.5	1.51e+00	0	39	104	0	60	53163
2026-01-03 13:29:41.62	21.02	2.70	-48.9	-64.0	3.6	1.51e+00	0	39	104	0	60	57456
2026-01-03 13:29:42.63	21.07	2.76	-48.8	-62.8	3.6	1.51e+00	0	39	104	0	60	49710
2026-01-03 13:29:43.64	21.12	2.82	-48.7	-60.5	4.1	1.49e+00	0	39	104	0	60	38418
2026-01-03 13:29:44.65	21.17	2.88	-48.0	-55.2	7.8	3.92e-01	0	39	0	0	60	20757
2026-01-03 13:29:45.66	21.22	2.94	-47.4	-52.4	10.1	2.23e-02	0	39	0	2097152	60	15138
2026-01-03 13:29:46.67	21.28	3.01	-46.4	-50.1	12.5	1.74e-03	0	39	0	4194304	60	11502
2026-01-03 13:29:47.68	21.33	3.07	-45.7	-48.9	14.4	2.59e-05	28	39	0	6291456	60	10128
2026-01-03 13:29:48.68	21.38	3.13	-44.5	-46.9	16.1	0.00e+00	0	39	0	7340032	60	8034
2026-01-03 13:29:49.69	21.43	3.19	-44.5	-46.9	15.9	0.00e+00	75	39	0	9437184	60	8036
2026-01-03 13:29:50.70	21.49	3.26	-43.9	-46.0	16.9	0.00e+00	0	39	0	11534336	60	7216
2026-01-03 13:29:51.71	21.54	3.32	-44.1	-46.4	16.5	0.00e+00	18	39	0	13631488	60	7519
2026-01-03 13:29:52.72	21.59	3.38	-44.1	-46.3	16.7	0.00e+00	0	39	0	15728640	60	7433
2026-01-03 13:29:53.73	21.65	3.44	-44.5	-47.0	15.9	0.00e+00	0	39	0	16777216	60	8077
2026-01-03 13:29:54.74	21.70	3.51	-45.3	-48.2	14.7	0.00e+00	41	39	0	18874368	60	9283
2026-01-03 13:29:55.75	21.76	3.57	-43.9	-46.0	17.0	3.00e-06	0	39	0	20971520	60	7182
2026-01-03 13:29:56.76	21.81	3.63	-47.5	-53.6	6.0	6.25e-04	50	39	0	23068672	60	17210
2026-01-03 13:29:57.77	21.86	3.70	-45.2	-48.1	12.9	9.91e-01	0	39	104	23068672	60	9144
2026-01-03 13:29:58.78	21.92	3.76	-46.5	-50.3	12.6	4.73e-02	37	39	0	24117248	60	11787
2026-01-03 13:29:59.79	21.97	3.82	-48.3	-56.6	4.3	5.73e-03	0	39	0	26214400	60	24328
2026-01-03 13:30:00.79	22.03	3.89	-46.5	-50.4	5.8	1.50e+00	0	39	104	26214400	60	11938
2026-01-03 13:30:01.80	22.08	3.95	-46.5	-50.3	13.0	1.95e-01	0	39	0	26214400	60	11887
2026-01-03 13:30:02.81	22.14	4.01	-45.9	-49.0	14.2	3.12e-05	0	39	0	27262976	60	10208
2026-01-03 13:30:03.82	22.20	4.08	-45.7	-48.6	14.0	3.96e-05	43	39	0	29360128	60	9707
2026-01-03 13:30:04.83	22.25	4.14	-45.6	-48.4	15.7	3.05e-05	0	39	0	31457280	60	9562
2026-01-03 13:30:05.83	22.31	4.21	-46.2	-49.6	13.3	2.20e-06	68	39	0	33554432	60	10912
2026-01-03 13:30:06.84	22.36	4.27	-46.5	-50.1	14.0	7.00e-07	0	39	0	35651584	60	11550
2026-01-03 13:30:07.85	22.42	4.34	-46.0	-49.2	13.9	7.60e-06	0	39	0	36700160	60	10412
2026-01-03 13:30:08.86	22.48	4.40	-46.1	-49.4	13.9	1.44e-05	0	39	0	38797312	60	10659
2026-01-03 13:30:09.87	22.53	4.47	-45.7	-48.7	14.7	0.00e+00	0	39	0	40894464	60	9877
2026-01-03 13:30:10.88	22.59	4.53	-46.1	-49.3	14.7	0.00e+00	41	39	0	42991616	60	10546
2026-01-03 13:30:11.89	22.65	4.60	-46.2	-49.5	12.8	0.00e+00	0	39	0	45088768	60	10774
2026-01-03 13:30:12.90	22.71	4.66	-44.9	-47.4	15.8	0.00e+00	92	39	0	46137344	60	8473
2026-01-03 13:30:13.91	22.77	4.73	-44.9	-47.3	15.7	0.00e+00	0	39	0	48234496	60	8405
2026-01-03 13:30:14.92	22.82	4.79	-45.1	-47.6	16.5	0.00e+00	0	39	0	50331648	60	8673
2026-01-03 13:30:15.93	22.88	4.86	-45.5	-48.2	14.8	0.00e+00	0	39	0	52428800	60	9328
2026-01-03 13:30:16.93	22.94	4.92	-45.4	-48.1	15.6	0.00e+00	0	39	0	54525952	60	9166
2026-01-03 13:30:17.94	23.00	4.99	-45.8	-48.7	14.4	7.00e-07	53	39	0	55574528	60	9863
2026-01-03 13:30:18.95	23.06	5.06	-45.1	-47.5	16.1	7.00e-07	0	39	0	57671680	60	8531
2026-01-03 13:30:19.96	23.12	5.12	-45.2	-47.8	15.7	0.00e+00	92	39	0	59768832	60	8822
2026-01-03 13:30:20.97	23.18	5.19	-44.3	-46.5	17.3	0.00e+00	0	39	0	61865984	60	7596
2026-01-03 13:30:21.98	23.24	5.26	-44.5	-46.7	16.9	0.00e+00	0	39	0	63963136	60	7791
2026-01-03 13:30:22.99	23.30	5.32	-44.6	-46.9	16.6	0.00e+00	0	39	0	65011712	60	7997
2026-01-03 13:30:24.00	23.36	5.39	-44.4	-46.5	16.7	0.00e+00	0	39	0	67108864	60	7682
2026-01-03 13:30:25.01	23.42	5.46	-44.8	-47.2	16.5	0.00e+00	52	39	0	69206016	60	8274
2026-01-03 13:30:26.02	23.48	5.52	-44.3	-46.3	17.0	0.00e+00	0	39	0	71303168	60	7481
2026-01-03 13:30:27.03	23.54	5.59	-44.5	-46.6	17.1	0.00e+00	88	39	0	73400320	60	7763
2026-01-03 13:30:28.04	23.61	5.66	-44.0	-45.9	17.0	0.00e+00	0	39	0	74448896	60	7153
2026-01-03 13:30:29.05	23.67	5.73	-43.9	-45.8	17.7	0.00e+00	73	39	0	76546048	60	7073
2026-01-03 13:30:30.06	23.73	5.79	-44.3	-46.4	16.6	0.00e+00	0	39	0	78643200	60	7515
2026-01-03 13:30:31.06	23.79	5.86	-44.4	-46.5	17.9	0.00e+00	0	39	0	80740352	60	7621
2026-01-03 13:30:32.07	23.85	5.93	-44.1	-46.0	17.7	0.00e+00	10	39	0	82837504	60	7194
2026-01-03 13:30:33.08	23.92	6.00	-44.1	-46.1	17.3	0.00e+00	0	39	0	84934656	60	7287
2026-01-03 13:30:34.09	23.98	6.07	-44.5	-46.7	16.8	0.00e+00	21	39	0	85983232	60	7795
2026-01-03 13:30:35.10	24.04	6.14	-44.3	-46.4	17.0	0.00e+00	0	39	0	88080384	60	7541
2026-01-03 13:30:36.11	24.11	6.20	-43.8	-45.8	17.6	0.00e+00	63	39	0	90177536	60	7018
2026-01-03 13:30:37.12	24.17	6.27	-44.3	-46.4	17.3	0.00e+00	0	39	0	92274688	60	7518
2026-01-03 13:30:38.13	24.24	6.34	-44.5	-46.6	16.8	0.00e+00	0	39	0	94371840	60	7771
2026-01-03 13:30:39.14	24.30	6.41	-44.0	-45.9	17.6	0.00e+00	0	39	0	95420416	60	7107
2026-01-03 13:30:40.15	24.37	6.48	-43.8	-45.7	17.5	0.00e+00	0	39	0	97517568	60	6943
2026-01-03 13:30:41.16	24.43	6.55	-43.8	-45.7	17.7	0.00e+00	18	39	0	99614720	60	6948
2026-01-03 13:30:42.17	24.50	6.62	-44.2	-46.3	16.7	0.00e+00	0	39	0	101711872	60	7452
2026-01-03 13:30:43.18	24.56	6.69	-43.6	-45.4	18.0	0.00e+00	92	39	0	103809024	60	6720
2026-01-03 13:30:44.19	24.63	6.76	-43.5	-45.3	18.0	0.00e+00	0	39	0	104857600	60	6676
2026-01-03 13:30:45.20	24.69	6.83	-43.4	-45.2	18.5	0.00e+00	0	39	0	106954752	60	6560
2026-01-03 13:30:46.21	24.76	6.90	-43.0	-44.7	18.8	0.00e+00	33	39	0	109051904	60	6179
2026-01-03 13:30:47.22	24.83	6.97	-43.3	-45.0	18.7	0.00e+00	0	39	0	111149056	60	6411
2026-01-03 13:30:48.23	24.90	7.04	-43.2	-44.8	18.8	0.00e+00	49	39	0	113246208	60	6300
2026-01-03 13:30:49.24	24.96	7.11	-42.6	-44.1	19.3	0.00e+00	33	39	0	114294784	58	6487
2026-01-03 13:30:50.25	25.03	7.18	-42.9	-44.5	19.0	0.00e+00	92	39	0	116391936	58	6793
2026-01-03 13:30:51.26	25.10	7.25	-42.3	-43.7	19.7	0.00e+00	0	39	0	118489088	58	6214
2026-01-03 13:30:52.27	25.17	7.33	-42.2	-43.7	19.7	0.00e+00	0	39	0	120586240	58	6189
2026-01-03 13:30:53.27	25.24	7.40	-42.1	-43.5	19.7	0.00e+00	0	39	0	122683392	58	6062
2026-01-03 13:30:54.28	25.30	7.47	-42.1	-43.4	19.9	0.00e+00	0	39	0	123731968	58	6024
2026-01-03 13:30:55.29	25.37	7.54	-42.3	-43.7	19.7	0.00e+00	54	39	0	125829120	58	6205
2026-01-03 13:30:56.30	25.44	7.61	-42.2	-43.6	20.0	0.00e+00	0	39	0	127926272	58	6137
2026-01-03 13:30:57.31	25.51	7.68	-41.9	-43.2	20.2	0.00e+00	92	39	0	130023424	58	5842
2026-01-03 13:30:58.32	25.58	7.76	-41.9	-43.2	20.2	0.00e+00	0	39	0	132120576	58	5877
2026-01-03 13:30:59.32	25.65	7.83	-41.8	-43.1	20.3	0.00e+00	41	39	0	133169152	56	6504
2026-01-03 13:31:00.33	25.73	7.90	-41.6	-42.9	20.3	0.00e+00	0	39	0	135266304	56	6349
2026-01-03 13:31:01.34	25.80	7.97	-41.6	-42.9	20.4	0.00e+00	0	39	0	137363456	56	6355
2026-01-03 13:31:02.34	25.87	8.05	-41.9	-43.2	20.2	0.00e+00	52	39	0	139460608	56	6587
2026-01-03 13:31:03.35	25.94	8.12	-41.6	-42.9	20.5	0.00e+00	0	39	0	141557760	56	6352
2026-01-03 13:31:04.36	26.01	8.19	-41.6	-42.8	20.6	0.00e+00	49	39	0	142606336	56	6288
2026-01-03 13:31:05.37	26.09	8.27	-41.6	-42.9	20.5	0.00e+00	0	39	0	144703488	56	6367
2026-01-03 13:31:06.38	26.16	8.34	-41.5	-42.7	20.5	0.00e+00	0	39	0	146800640	56	6209
2026-01-03 13:31:07.39	26.23	8.41	-41.6	-42.8	20.6	0.00e+00	0	39	0	148897792	56	6292
2026-01-03 13:31:08.40	26.31	8.49	-41.3	-42.5	20.7	0.00e+00	0	39	0	150994944	56	6077
2026-01-03 13:31:09.41	26.38	8.56	-41.3	-42.5	20.7	0.00e+00	0	39	0	152043520	56	6091
2026-01-03 13:31:10.42	26.45	8.64	-41.2	-42.4	20.8	0.00e+00	0	39	0	154140672	56	6002
2026-01-03 13:31:11.43	26.53	8.71	-41.3	-42.6	20.6	0.00e+00	91	39	0	156237824	56	6121
2026-01-03 13:31:12.44	26.60	8.79	-41.2	-42.5	20.7	0.00e+00	0	39	0	158334976	56	6049
2026-01-03 13:31:13.45	26.68	8.86	-41.4	-42.7	20.6	0.00e+00	92	39	0	160432128	56	6186
2026-01-03 13:31:14.46	26.76	8.94	-41.2	-42.4	20.8	0.00e+00	0	39	0	161480704	56	6012
2026-01-03 13:31:15.46	26.83	9.01	-41.5	-42.8	20.5	0.00e+00	0	39	0	163577856	56	6261
2026-01-03 13:31:16.47	26.91	9.09	-41.2	-42.5	20.8	0.00e+00	0	39	0	165675008	56	6035
2026-01-03 13:31:17.48	26.99	9.16	-41.4	-42.6	20.7	0.00e+00	0	39	0	167772160	56	6163
2026-01-03 13:31:18.49	27.06	9.24	-41.3	-42.6	20.5	0.00e+00	37	39	0	169869312	56	6113
2026-01-03 13:31:19.50	27.14	9.32	-41.2	-42.4	20.7	0.00e+00	0	39	0	170917888	56	6029
2026-01-03 13:31:20.51	27.22	9.39	-41.2	-42.4	20.8	0.00e+00	92	39	0	173015040	56	6016
2026-01-03 13:31:21.52	27.30	9.47	-41.2	-42.4	20.9	0.00e+00	0	39	0	175112192	56	6006
2026-01-03 13:31:22.52	27.38	9.54	-41.0	-42.2	20.9	0.00e+00	0	39	0	177209344	56	5867
2026-01-03 13:31:23.54	27.46	9.62	-41.3	-42.5	20.8	0.00e+00	0	39	0	179306496	56	6102
2026-01-03 13:31:24.54	27.54	9.70	-41.4	-42.7	20.8	0.00e+00	0	39	0	181403648	56	6209
2026-01-03 13:31:25.55	27.62	9.78	-41.1	-42.3	20.9	0.00e+00	47	39	0	182452224	56	5947
2026-01-03 13:31:26.56	27.70	9.85	-41.1	-42.3	20.7	0.00e+00	0	39	0	184549376	56	5955
2026-01-03 13:31:27.57	27.78	9.93	-41.4	-42.7	20.7	0.00e+00	75	39	0	186646528	56	6194
2026-01-03 13:31:28.58	27.86	10.01	-41.2	-42.4	20.8	0.00e+00	0	39	0	188743680	56	5972
2026-01-03 13:31:29.59	27.94	10.09	-40.9	-42.1	21.1	0.00e+00	0	39	0	190840832	56	5819
2026-01-03 13:31:30.60	28.02	10.16	-41.0	-42.2	21.0	0.00e+00	0	39	0	191889408	56	5858
2026-01-03 13:31:31.61	28.10	10.24	-41.1	-42.3	20.9	0.00e+00	0	39	0	193986560	56	5959
2026-01-03 13:31:32.62	28.19	10.32	-41.0	-42.2	21.1	0.00e+00	52	39	0	196083712	56	5847
2026-01-03 13:31:33.63	28.27	10.40	-40.8	-42.0	21.1	0.00e+00	0	39	0	198180864	54	6411
2026-01-03 13:31:34.64	28.36	10.48	-40.7	-41.9	21.3	0.00e+00	92	39	0	200278016	54	6361
2026-01-03 13:31:35.65	28.44	10.56	-41.0	-42.2	21.0	0.00e+00	0	39	0	201326592	54	6592
2026-01-03 13:31:36.65	28.52	10.64	-40.8	-41.9	21.1	0.00e+00	9	39	0	203423744	54	6388
2026-01-03 13:31:37.66	28.61	10.72	-40.7	-41.9	21.0	0.00e+00	0	39	0	205520896	54	6359
2026-01-03 13:31:38.67	28.69	10.80	-40.6	-41.7	21.3	0.00e+00	0	39	0	207618048	54	6231
2026-01-03 13:31:39.67	28.78	10.88	-40.6	-41.8	21.2	0.00e+00	0	39	0	209715200	54	6279
2026-01-03 13:31:40.68	28.87	10.96	-40.7	-41.9	21.2	0.00e+00	0	39	0	210763776	54	6322
2026-01-03 13:31:41.69	28.95	11.04	-40.7	-41.8	21.1	0.00e+00	50	39	0	212860928	54	6311
2026-01-03 13:31:42.71	29.04	11.12	-40.6	-41.7	21.4	0.00e+00	0	39	0	214958080	54	6221
2026-01-03 13:31:43.71	29.13	11.20	-40.4	-41.5	21.5	0.00e+00	90	39	0	217055232	54	6090
2026-01-03 13:31:44.72	29.22	11.28	-40.6	-41.8	21.3	0.00e+00	0	39	0	219152384	54	6277
2026-01-03 13:31:45.74	29.31	11.36	-40.4	-41.5	21.5	0.00e+00	0	39	0	220200960	54	6059
2026-01-03 13:31:46.74	29.39	11.44	-40.6	-41.8	21.2	0.00e+00	0	39	0	222298112	54	6276
2026-01-03 13:31:47.75	29.48	11.53	-40.4	-41.5	21.3	0.00e+00	0	39	0	224395264	54	6082
2026-01-03 13:31:48.76	29.57	11.61	-40.5	-41.7	21.1	0.00e+00	55	39	0	226492416	54	6197
2026-01-03 13:31:49.77	29.66	11.69	-40.4	-41.5	21.6	0.00e+00	0	39	0	228589568	54	6067
2026-01-03 13:31:50.78	29.76	11.77	-40.2	-41.3	21.7	0.00e+00	77	39	0	229638144	54	5929
2026-01-03 13:31:51.79	29.85	11.86	-40.1	-41.2	21.8	0.00e+00	0	39	0	231735296	54	5869
2026-01-03 13:31:52.80	29.94	11.94	-40.1	-41.1	21.8	0.00e+00	0	39	0	233832448	54	5818
2026-01-03 13:31:53.81	30.03	12.02	-39.9	-41.0	21.8	0.00e+00	0	39	0	235929600	54	5733
2026-01-03 13:31:54.82	30.13	12.11	-40.2	-41.3	21.8	0.00e+00	0	39	0	238026752	54	5929
2026-01-03 13:31:55.83	30.22	12.19	-40.1	-41.2	21.9	0.00e+00	45	39	0	239075328	54	5852
2026-01-03 13:31:56.84	30.31	12.27	-40.0	-41.1	21.8	0.00e+00	0	39	0	241172480	54	5809
2026-01-03 13:31:57.85	30.41	12.36	-40.0	-41.0	21.8	0.00e+00	92	39	0	243269632	54	5756
2026-01-03 13:31:58.86	30.50	12.44	-40.1	-41.2	21.7	0.00e+00	0	39	0	245366784	52	6591
2026-01-03 13:31:59.86	30.60	12.52	-40.0	-41.1	21.8	0.00e+00	0	39	0	247463936	52	6478
2026-01-03 13:32:00.88	30.70	12.61	-39.9	-41.0	21.9	0.00e+00	0	39	0	249561088	52	6413
2026-01-03 13:32:01.89	30.79	12.70	-40.4	-41.5	21.5	0.00e+00	0	39	0	250609664	52	6835
2026-01-03 13:32:02.89	30.89	12.78	-40.3	-41.4	21.4	0.00e+00	53	39	0	252706816	52	6722
2026-01-03 13:32:03.90	30.99	12.86	-40.3	-41.4	21.3	0.00e+00	0	39	0	254803968	52	6752
2026-01-03 13:32:04.91	31.08	12.95	-40.3	-41.4	21.6	0.00e+00	92	39	0	256901120	52	6745
2026-01-03 13:32:05.92	31.18	13.04	-40.3	-41.5	21.6	0.00e+00	0	39	0	258998272	52	6784
2026-01-03 13:32:06.93	31.28	13.12	-40.1	-41.2	21.6	0.00e+00	0	39	0	260046848	52	6607
2026-01-03 13:32:07.94	31.38	13.21	-40.1	-41.2	21.6	0.00e+00	0	39	0	262144000	52	6580
2026-01-03 13:32:08.95	31.48	13.30	-40.1	-41.2	21.7	0.00e+00	0	39	0	264241152	52	6600
2026-01-03 13:32:09.96	31.58	13.38	-40.1	-41.2	21.6	0.00e+00	17	39	0	266338304	52	6567
2026-01-03 13:32:10.97	31.69	13.47	-40.6	-41.7	21.4	0.00e+00	0	39	0	268435456	52	6990
2026-01-03 13:32:11.98	31.79	13.56	-40.1	-41.2	21.7	0.00e+00	73	39	0	269484032	52	6600
2026-01-03 13:32:12.99	31.89	13.64	-40.1	-41.2	21.8	0.00e+00	0	39	0	271581184	52	6550
2026-01-03 13:32:13.99	31.99	13.73	-40.0	-41.1	21.7	0.00e+00	0	39	0	273678336	52	6538
2026-01-03 13:32:15.00	32.10	13.82	-39.9	-41.0	21.7	0.00e+00	0	39	0	275775488	52	6430
2026-01-03 13:32:16.01	32.20	13.91	-39.8	-40.9	21.9	0.00e+00	0	39	0	277872640	52	6318
2026-01-03 13:32:17.02	32.31	14.00	-39.7	-40.8	22.1	0.00e+00	0	39	0	278921216	52	6267
2026-01-03 13:32:18.03	32.41	14.08	-39.7	-40.8	22.3	0.00e+00	0	39	0	281018368	52	6267
2026-01-03 13:32:19.04	32.52	14.17	-39.7	-40.8	22.0	0.00e+00	51	39	0	283115520	52	6252
2026-01-03 13:32:20.04	32.63	14.26	-39.8	-40.8	22.4	0.00e+00	0	39	0	285212672	52	6283
2026-01-03 13:32:21.05	32.73	14.35	-39.6	-40.6	22.4	0.00e+00	69	39	0	287309824	52	6168
2026-01-03 13:32:22.06	32.84	14.44	-39.4	-40.4	22.2	0.00e+00	0	39	0	288358400	52	5983
2026-01-03 13:32:23.07	32.95	14.53	-39.9	-40.9	22.4	0.00e+00	0	39	0	290455552	52	6350
2026-01-03 13:32:24.08	33.06	14.62	-39.7	-40.7	22.5	0.00e+00	0	39	0	292552704	52	6227
2026-01-03 13:32:25.09	33.17	14.71	-39.9	-41.0	22.2	0.00e+00	0	39	0	294649856	52	6397
2026-01-03 13:32:26.10	33.28	14.80	-40.0	-41.1	22.2	0.00e+00	34	40	0	296747008	52	6467
2026-01-03 13:32:27.11	33.39	14.89	-39.6	-40.6	22.7	0.00e+00	0	39	0	297795584	52	6161
2026-01-03 13:32:28.11	33.50	14.98	-39.8	-40.8	22.4	0.00e+00	90	39	0	299892736	52	6264
2026-01-03 13:32:29.12	33.62	15.07	-39.8	-40.8	22.4	0.00e+00	0	39	0	301989888	52	6307
2026-01-03 13:32:30.13	33.73	15.16	-39.8	-40.9	22.3	0.00e+00	0	39	0	304087040	52	6344
2026-01-03 13:32:31.14	33.84	15.26	-39.9	-40.9	22.4	0.00e+00	0	39	0	306184192	52	6348
2026-01-03 13:32:32.15	33.96	15.35	-40.4	-41.5	21.8	0.00e+00	0	39	0	307232768	52	6820
2026-01-03 13:32:33.15	34.07	15.44	-40.1	-41.2	22.1	0.00e+00	69	39	0	309329920	52	6582
2026-01-03 13:32:34.16	34.19	15.53	-40.1	-41.2	22.1	0.00e+00	0	40	0	311427072	52	6551
2026-01-03 13:32:35.17	34.30	15.63	-40.8	-42.0	21.7	0.00e+00	69	40	0	313524224	54	6430
2026-01-03 13:32:36.18	34.42	15.72	-40.2	-41.3	21.7	0.00e+00	33	39	0	315621376	54	5933
2026-01-03 13:32:37.19	34.54	15.81	-40.7	-41.9	21.9	0.00e+00	10	39	0	316669952	54	6332
2026-01-03 13:32:38.20	34.66	15.91	-40.5	-41.6	21.7	0.00e+00	0	39	0	318767104	54	6161
2026-01-03 13:32:39.21	34.78	16.00	-40.5	-41.6	22.0	0.00e+00	0	39	0	320864256	54	6163
2026-01-03 13:32:40.22	34.90	16.09	-40.4	-41.5	21.9	0.00e+00	0	39	0	322961408	54	6099
2026-01-03 13:32:41.22	35.02	16.19	-40.1	-41.2	22.0	0.00e+00	0	39	0	325058560	54	5881
2026-01-03 13:32:42.23	35.14	16.28	-40.3	-41.4	21.9	0.00e+00	92	39	0	326107136	54	5966
2026-01-03 13:32:43.24	35.26	16.38	-40.1	-41.1	22.2	0.00e+00	33	40	0	328204288	54	5824
2026-01-03 13:32:44.25	35.39	16.47	-40.4	-41.5	22.0	0.00e+00	45	39	0	330301440	54	6038
2026-01-03 13:32:45.26	35.51	16.57	-40.4	-41.5	21.9	0.00e+00	0	39	0	332398592	54	6078
2026-01-03 13:32:46.27	35.64	16.66	-40.0	-41.1	22.3	0.00e+00	33	40	0	334495744	54	5784
2026-01-03 13:32:47.27	35.76	16.76	-40.4	-41.5	21.9	0.00e+00	57	40	0	335544320	54	6060
2026-01-03 13:32:48.28	35.89	16.85	-40.1	-41.2	22.2	0.00e+00	0	40	0	337641472	54	5840
2026-01-03 13:32:49.29	36.01	16.95	-40.1	-41.2	22.2	0.00e+00	78	39	0	339738624	54	5860
2026-01-03 13:32:50.30	36.14	17.05	-40.4	-41.5	21.9	0.00e+00	0	39	0	341835776	54	6060
2026-01-03 13:32:51.31	36.27	17.14	-40.3	-41.4	22.0	0.00e+00	92	40	0	343932928	54	5993
2026-01-03 13:32:52.32	36.40	17.24	-40.4	-41.5	22.1	0.00e+00	0	40	0	344981504	54	6073
2026-01-03 13:32:53.33	36.53	17.34	-40.6	-41.7	21.8	0.00e+00	0	40	0	347078656	54	6214
2026-01-03 13:32:54.34	36.66	17.43	-40.6	-41.7	21.8	0.00e+00	0	39	0	349175808	54	6197
2026-01-03 13:32:55.34	36.79	17.53	-40.7	-41.8	21.7	0.00e+00	0	40	0	351272960	54	6284
2026-01-03 13:32:56.35	36.92	17.63	-40.6	-41.7	21.7	0.00e+00	55	40	0	353370112	54	6236
2026-01-03 13:32:57.36	37.06	17.73	-40.7	-41.8	21.7	0.00e+00	0	40	0	354418688	54	6301
2026-01-03 13:32:58.37	37.19	17.83	-40.4	-41.5	21.9	0.00e+00	92	40	0	356515840	54	6040
2026-01-03 13:32:59.38	37.33	17.92	-40.3	-41.4	21.9	0.00e+00	0	40	0	358612992	54	6011
2026-01-03 13:33:00.39	37.46	18.02	-40.2	-41.3	22.1	0.00e+00	0	40	0	360710144	54	5919
2026-01-03 13:33:01.40	37.60	18.12	-40.3	-41.4	21.9	0.00e+00	0	40	0	362807296	54	6014
2026-01-03 13:33:02.41	37.74	18.22	-40.5	-41.6	22.0	0.00e+00	0	40	0	363855872	54	6105
2026-01-03 13:33:03.42	37.88	18.32	-40.5	-41.6	21.9	0.00e+00	33	40	0	365953024	54	6119
2026-01-03 13:33:04.43	38.02	18.42	-40.2	-41.3	22.2	0.00e+00	0	40	0	368050176	54	5897
2026-01-03 13:33:05.43	38.16	18.52	-40.6	-41.7	21.8	0.00e+00	90	40	0	370147328	54	6220
2026-01-03 13:33:06.44	38.30	18.62	-40.6	-41.7	21.8	0.00e+00	0	40	0	372244480	54	6206
2026-01-03 13:33:07.45	38.44	18.72	-40.6	-41.7	21.7	0.00e+00	0	40	0	374341632	54	6192
2026-01-03 13:33:08.45	38.58	18.82	-40.7	-41.9	21.7	0.00e+00	0	40	0	375390208	54	6333
2026-01-03 13:33:09.47	38.73	18.93	-40.6	-41.6	21.8	0.00e+00	0	40	0	377487360	54	6171
2026-01-03 13:33:10.47	38.87	19.03	-40.6	-41.7	21.8	0.00e+00	9	40	0	379584512	54	6199
2026-01-03 13:33:11.48	39.02	19.13	-40.4	-41.4	22.0	0.00e+00	0	40	0	381681664	54	6018
2026-01-03 13:33:12.49	39.16	19.23	-40.5	-41.7	21.8	0.00e+00	82	39	0	383778816	54	6178
2026-01-03 13:33:13.50	39.31	19.33	-40.3	-41.4	21.7	0.00e+00	0	40	0	384827392	54	6013
2026-01-03 13:33:14.51	39.46	19.43	-40.3	-41.4	21.5	0.00e+00	91	40	0	386924544	54	6003
2026-01-03 13:33:15.52	39.61	19.54	-40.4	-41.5	21.7	0.00e+00	0	40	0	389021696	54	6074
2026-01-03 13:33:16.53	39.76	19.64	-40.8	-41.9	21.7	0.00e+00	0	40	0	391118848	54	6353
2026-01-03 13:33:17.54	39.91	19.74	-40.8	-41.9	21.6	0.00e+00	25	39	0	393216000	54	6376
2026-01-03 13:33:18.55	40.06	19.85	-40.5	-41.6	21.8	0.00e+00	0	40	0	394264576	54	6142
2026-01-03 13:33:19.56	40.22	19.95	-40.7	-41.8	21.7	0.00e+00	91	39	0	396361728	54	6296
2026-01-03 13:33:20.57	40.37	20.05	-40.9	-42.0	21.4	0.00e+00	0	40	0	398458880	54	6440
2026-01-03 13:33:21.57	40.53	20.16	-40.8	-41.9	21.7	0.00e+00	44	40	0	400556032	54	6366
2026-01-03 13:33:22.58	40.68	20.26	-40.7	-41.8	21.8	0.00e+00	0	40	0	402653184	54	6306
2026-01-03 13:33:23.59	40.84	20.37	-40.8	-41.9	21.8	0.00e+00	0	40	0	403701760	54	6346
2026-01-03 13:33:24.60	41.00	20.47	-40.6	-41.7	22.0	0.00e+00	0	40	0	405798912	54	6215
2026-01-03 13:33:25.61	41.16	20.58	-40.5	-41.6	22.0	0.00e+00	0	39	0	407896064	54	6143
2026-01-03 13:33:26.62	41.32	20.68	-40.3	-41.3	22.3	0.00e+00	90	40	0	409993216	54	5927
2026-01-03 13:33:27.63	41.48	20.79	-40.0	-41.0	22.5	0.00e+00	0	40	0	412090368	54	5755
2026-01-03 13:33:28.64	41.65	20.89	-39.7	-40.7	22.8	0.00e+00	90	40	0	413138944	54	5503
2026-01-03 13:33:29.65	41.81	21.00	-39.6	-40.5	22.9	0.00e+00	0	40	0	415236096	52	6074
2026-01-03 13:33:30.66	41.98	21.10	-39.5	-40.5	23.0	0.00e+00	0	40	0	417333248	52	6056
2026-01-03 13:33:31.67	42.14	21.21	-39.7	-40.7	22.7	0.00e+00	0	40	0	419430400	52	6192
2026-01-03 13:33:32.68	42.31	21.32	-39.5	-40.5	23.0	0.00e+00	0	40	0	421527552	52	6035
2026-01-03 13:33:33.69	42.48	21.42	-39.7	-40.7	22.8	0.00e+00	56	40	0	422576128	52	6211
2026-01-03 13:33:34.70	42.65	21.53	-39.5	-40.5	22.8	0.00e+00	0	40	0	424673280	52	6055
2026-01-03 13:33:35.71	42.82	21.64	-39.8	-40.8	22.9	0.00e+00	72	40	0	426770432	52	6304
2026-01-03 13:33:36.72	42.99	21.75	-39.6	-40.6	22.9	0.00e+00	0	40	0	428867584	52	6123
2026-01-03 13:33:37.73	43.17	21.85	-39.3	-40.3	23.2	0.00e+00	0	40	0	430964736	52	5914
2026-01-03 13:33:38.73	43.34	21.96	-39.1	-40.1	23.2	0.00e+00	0	40	0	432013312	52	5779
2026-01-03 13:33:39.74	43.51	22.07	-39.0	-39.9	23.0	0.00e+00	0	40	0	434110464	52	5643
2026-01-03 13:33:40.75	43.69	22.18	-38.8	-39.7	23.6	0.00e+00	43	40	0	436207616	52	5523
2026-01-03 13:33:41.76	43.87	22.29	-38.4	-39.2	23.9	0.00e+00	0	40	0	438304768	50	5886
2026-01-03 13:33:42.77	44.05	22.39	-38.7	-39.5	23.8	0.00e+00	92	40	0	440401920	50	6092
2026-01-03 13:33:43.78	44.23	22.50	-38.4	-39.3	23.7	0.00e+00	0	40	0	442499072	50	5904
2026-01-03 13:33:44.79	44.41	22.61	-38.5	-39.4	23.7	0.00e+00	0	40	0	443547648	50	5990
2026-01-03 13:33:45.80	44.59	22.72	-38.2	-39.1	23.9	0.00e+00	0	40	0	445644800	50	5763
2026-01-03 13:33:46.81	44.78	22.83	-38.7	-39.6	23.6	0.00e+00	0	40	0	447741952	50	6141
2026-01-03 13:33:47.81	44.96	22.94	-39.0	-39.9	23.3	0.00e+00	56	40	0	449839104	50	6360
2026-01-03 13:33:48.82	45.15	23.05	-39.1	-40.0	24.0	0.00e+00	0	40	0	451936256	50	6462
2026-01-03 13:33:49.83	45.34	23.16	-39.1	-40.0	23.6	0.00e+00	90	40	0	452984832	50	6395
2026-01-03 13:33:50.84	45.53	23.27	-39.3	-40.2	23.6	0.00e+00	0	40	0	455081984	50	6571
2026-01-03 13:33:51.85	45.72	23.38	-38.5	-39.4	23.7	0.00e+00	32	40	0	457179136	50	6012
2026-01-03 13:33:52.86	45.91	23.49	-38.9	-39.8	23.3	0.00e+00	0	40	0	459276288	50	6260
2026-01-03 13:33:53.87	46.10	23.60	-38.6	-39.5	22.7	0.00e+00	0	40	0	461373440	50	6035
2026-01-03 13:33:54.88	46.30	23.71	-38.9	-39.7	23.6	0.00e+00	57	40	0	462422016	50	6241
2026-01-03 13:33:55.89	46.49	23.82	-38.6	-39.5	23.5	0.00e+00	0	40	0	464519168	50	6067
2026-01-03 13:33:56.90	46.69	23.93	-38.6	-39.5	23.7	0.00e+00	50	40	0	466616320	50	6057
2026-01-03 13:33:57.91	46.89	24.04	-38.7	-39.5	23.7	0.00e+00	0	40	0	468713472	50	6100
2026-01-03 13:33:58.92	47.09	24.15	-38.6	-39.5	23.6	0.00e+00	92	40	0	470810624	50	6089
2026-01-03 13:33:59.92	47.29	24.26	-38.5	-39.4	23.7	0.00e+00	0	40	0	471859200	50	6019
2026-01-03 13:34:00.94	47.49	24.38	-38.6	-39.5	23.6	0.00e+00	0	40	0	473956352	50	6077
2026-01-03 13:34:01.95	47.70	24.49	-38.7	-39.6	23.5	0.00e+00	0	40	0	476053504	50	6146
2026-01-03 13:34:02.96	47.90	24.60	-38.8	-39.7	23.5	0.00e+00	0	40	0	478150656	50	6209
2026-01-03 13:34:03.96	48.11	24.71	-39.3	-40.2	23.0	0.00e+00	22	40	0	480247808	50	6604
2026-01-03 13:34:04.97	48.32	24.82	-39.1	-40.0	23.4	0.00e+00	0	40	0	481296384	50	6438
2026-01-03 13:34:05.98	48.53	24.93	-38.8	-39.7	23.5	0.00e+00	92	40	0	483393536	50	6203
2026-01-03 13:34:06.98	48.74	25.04	-38.7	-39.6	23.6	0.00e+00	0	40	0	485490688	50	6144
2026-01-03 13:34:07.99	48.95	25.15	-38.5	-39.3	23.7	0.00e+00	0	40	0	487587840	50	5950
2026-01-03 13:34:09.00	49.16	25.27	-38.7	-39.6	23.5	0.00e+00	0	40	0	489684992	50	6148
2026-01-03 13:34:10.01	49.38	25.38	-39.0	-39.9	23.3	0.00e+00	0	40	0	490733568	50	6347
2026-01-03 13:34:11.02	49.60	25.49	-39.2	-40.2	23.0	0.00e+00	59	40	0	492830720	50	6564
2026-01-03 13:34:12.03	49.82	25.60	-39.1	-40.1	23.2	0.00e+00	0	40	0	494927872	50	6476
2026-01-03 13:34:13.04	50.04	25.72	-39.3	-40.2	22.9	0.00e+00	94	40	0	497025024	50	6589
2026-01-03 13:34:14.05	50.26	25.83	-39.2	-40.2	23.1	0.00e+00	0	40	0	499122176	50	6551
2026-01-03 13:34:15.06	50.48	25.94	-39.1	-40.0	23.3	0.00e+00	0	40	0	500170752	50	6457
2026-01-03 13:34:16.07	50.71	26.05	-39.0	-39.9	23.4	0.00e+00	0	40	0	502267904	50	6342
2026-01-03 13:34:17.08	50.93	26.16	-38.9	-39.8	23.4	0.00e+00	0	40	0	504365056	50	6259
2026-01-03 13:34:18.09	51.16	26.28	-39.0	-39.9	23.3	0.00e+00	0	40	0	506462208	50	6337
2026-01-03 13:34:19.10	51.39	26.39	-38.8	-39.7	23.5	0.00e+00	0	39	0	508559360	50	6202
2026-01-03 13:34:20.11	51.62	26.50	-38.8	-39.7	23.5	0.00e+00	40	40	0	509607936	50	6208
2026-01-03 13:34:21.12	51.86	26.61	-38.9	-39.8	23.5	0.00e+00	0	39	0	511705088	50	6277
2026-01-03 13:34:22.13	52.09	26.73	-38.8	-39.7	23.5	0.00e+00	0	40	0	513802240	50	6185
2026-01-03 13:34:23.14	52.33	26.84	-38.9	-39.8	23.4	0.00e+00	0	40	0	515899392	50	6306
2026-01-03 13:34:24.14	52.56	26.95	-39.0	-39.9	23.4	0.00e+00	0	39	0	517996544	50	6351
2026-01-03 13:34:25.16	52.80	27.06	-39.2	-40.2	23.2	0.00e+00	0	40	0	519045120	50	6560
2026-01-03 13:34:26.16	53.04	27.17	-39.4	-40.3	23.1	0.00e+00	0	39	0	521142272	50	6663
2026-01-03 13:34:27.17	53.28	27.29	-39.2	-40.2	23.1	0.00e+00	90	40	0	523239424	50	6547
2026-01-03 13:34:28.18	53.53	27.40	-39.1	-40.0	23.3	0.00e+00	0	39	0	525336576	50	6432
2026-01-03 13:34:29.19	53.78	27.51	-38.9	-39.8	23.4	0.00e+00	90	39	0	527433728	50	6261
2026-01-03 13:34:30.20	54.02	27.62	-39.1	-40.0	23.4	0.00e+00	33	40	0	528482304	50	6408
2026-01-03 13:34:31.21	54.27	27.73	-38.8	-39.7	23.5	0.00e+00	0	40	0	530579456	50	6178
2026-01-03 13:34:32.22	54.52	27.84	-38.9	-39.8	23.4	0.00e+00	0	40	0	532676608	50	6247
2026-01-03 13:34:33.23	54.78	27.96	-39.2	-40.1	23.1	0.00e+00	4	40	0	534773760	50	6511
2026-01-03 13:34:34.23	55.03	28.07	-39.4	-40.4	23.1	0.00e+00	61	40	0	536870912	50	6707
2026-01-03 13:34:35.24	55.29	28.18	-39.5	-40.5	22.8	0.00e+00	0	40	0	538968064	50	6775
2026-01-03 13:34:36.25	55.54	28.29	-39.8	-40.7	22.7	0.00e+00	90	40	0	540016640	52	6227
2026-01-03 13:34:37.26	55.80	28.40	-39.9	-40.9	22.6	0.00e+00	0	40	0	542113792	52	6364
2026-01-03 13:34:38.27	56.07	28.51	-40.4	-41.5	22.2	0.00e+00	0	40	0	544210944	52	6781
2026-01-03 13:34:39.28	56.33	28.62	-40.6	-41.7	22.0	0.00e+00	0	40	0	546308096	52	6969
2026-01-03 13:34:40.29	56.60	28.73	-40.7	-41.8	21.9	0.00e+00	0	40	0	548405248	52	7056
2026-01-03 13:34:41.30	56.86	28.84	-40.9	-42.0	21.7	0.00e+00	59	40	0	549453824	54	6460
2026-01-03 13:34:42.31	57.13	28.95	-40.9	-42.0	21.8	0.00e+00	0	40	0	551550976	54	6392
2026-01-03 13:34:43.32	57.40	29.06	-40.4	-41.5	22.1	0.00e+00	90	39	0	553648128	54	6045
2026-01-03 13:34:44.33	57.67	29.17	-40.5	-41.6	22.0	0.00e+00	0	39	0	555745280	54	6124
2026-01-03 13:34:45.34	57.95	29.28	-40.8	-41.9	21.8	0.00e+00	0	40	0	557842432	54	6377
2026-01-03 13:34:46.35	58.23	29.39	-41.1	-42.3	21.4	0.00e+00	0	39	0	558891008	54	6631
2026-01-03 13:34:47.36	58.50	29.50	-41.9	-43.2	20.8	0.00e+00	0	40	0	560988160	56	6544
2026-01-03 13:34:48.37	58.78	29.60	-42.2	-43.6	20.1	0.00e+00	30	40	0	563085312	56	6881
2026-01-03 13:34:49.38	59.07	29.71	-42.7	-44.2	19.9	0.00e+00	0	40	0	565182464	56	7339
2026-01-03 13:34:50.39	59.35	29.82	-42.7	-44.1	19.8	0.00e+00	92	40	0	567279616	56	7312
2026-01-03 13:34:51.40	59.63	29.93	-42.9	-44.3	19.6	0.00e+00	0	40	0	568328192	58	6692
2026-01-03 13:34:52.40	59.92	30.03	-42.9	-44.4	19.9	0.00e+00	46	40	0	570425344	58	6746
2026-01-03 13:34:53.41	60.21	30.14	-42.3	-43.7	20.2	0.00e+00	0	40	0	572522496	58	6191
2026-01-03 13:34:54.42	60.50	30.24	-42.2	-43.6	20.3	0.00e+00	0	39	0	574619648	58	6128
2026-01-03 13:34:55.43	60.79	30.35	-42.1	-43.5	20.2	0.00e+00	29	40	0	576716800	58	6071
2026-01-03 13:34:56.44	61.09	30.45	-41.9	-43.2	20.6	0.00e+00	0	40	0	577765376	58	5896
2026-01-03 13:34:57.45	61.38	30.56	-42.3	-43.6	20.3	0.00e+00	90	39	0	579862528	56	6906
2026-01-03 13:34:58.46	61.68	30.66	-42.5	-43.9	20.0	0.00e+00	0	40	0	581959680	58	6346
2026-01-03 13:34:59.46	61.98	30.77	-42.7	-44.1	19.9	0.00e+00	92	40	0	584056832	58	6496
2026-01-03 13:35:00.47	62.28	30.87	-43.1	-44.6	19.1	0.00e+00	0	40	0	586153984	58	6908
2026-01-03 13:35:01.48	62.59	30.97	-43.2	-44.8	19.2	0.00e+00	0	40	0	587202560	58	7037
2026-01-03 13:35:02.49	62.89	31.07	-43.3	-44.9	19.2	0.00e+00	53	39	0	589299712	58	7100
2026-01-03 13:35:03.50	63.20	31.18	-43.3	-44.9	19.2	0.00e+00	0	40	0	591396864	58	7092
2026-01-03 13:35:04.51	63.51	31.28	-42.8	-44.3	19.6	0.00e+00	30	40	0	593494016	58	6666
2026-01-03 13:35:05.52	63.82	31.38	-42.9	-44.4	20.0	0.00e+00	0	40	0	595591168	58	6733
2026-01-03 13:35:06.53	64.14	31.48	-42.3	-43.6	20.2	0.00e+00	56	40	0	596639744	58	6157
2026-01-03 13:35:07.54	64.45	31.58	-42.1	-43.4	20.6	0.00e+00	0	40	0	598736896	58	6031
2026-01-03 13:35:08.54	64.77	31.68	-42.3	-43.6	20.1	0.00e+00	0	40	0	600834048	58	6152
2026-01-03 13:35:09.55	65.09	31.77	-42.2	-43.6	20.1	0.00e+00	0	40	0	602931200	58	6117
2026-01-03 13:35:10.56	65.41	31.87	-42.6	-44.0	19.8	0.00e+00	0	40	0	605028352	58	6421
2026-01-03 13:35:11.57	65.73	31.97	-42.7	-44.1	19.8	0.00e+00	54	40	0	607125504	58	6507
2026-01-03 13:35:12.58	66.06	32.07	-42.3	-43.6	20.3	0.00e+00	0	40	0	608174080	58	6152
2026-01-03 13:35:13.59	66.38	32.16	-42.0	-43.4	20.5	0.00e+00	92	40	0	610271232	58	5979
2026-01-03 13:35:14.52	66.69	32.25	-42.0	-43.4	20.5	0.00e+00	0	40	0	612368384	58	5977
2026-01-03 13:35:15.53	67.02	32.34	-41.8	-43.0	20.7	0.00e+00	0	40	0	614465536	56	6444
2026-01-03 13:35:16.54	67.35	32.44	-42.0	-43.3	20.6	0.00e+00	0	40	0	615514112	56	6651
2026-01-03 13:35:17.55	67.69	32.53	-42.1	-43.4	20.6	0.00e+00	0	40	0	617611264	56	6724
2026-01-03 13:35:18.56	68.02	32.62	-41.5	-42.7	21.2	0.00e+00	42	40	0	619708416	56	6178
2026-01-03 13:35:19.57	68.36	32.71	-41.5	-42.6	21.2	0.00e+00	0	40	0	621805568	56	6155
2026-01-03 13:35:20.58	68.70	32.80	-41.6	-42.8	21.1	0.00e+00	78	40	0	623902720	56	6277
2026-01-03 13:35:21.58	69.04	32.89	-42.8	-44.2	19.9	0.00e+00	0	40	0	624951296	56	7355
2026-01-03 13:35:22.59	69.38	32.98	-43.1	-44.6	19.4	0.00e+00	49	40	0	627048448	58	6889
2026-01-03 13:35:23.60	69.73	33.07	-43.2	-44.8	19.2	0.00e+00	0	40	0	629145600	58	7024
2026-01-03 13:35:24.61	70.08	33.15	-43.3	-44.9	19.3	0.00e+00	0	40	0	631242752	58	7117
2026-01-03 13:35:25.62	70.43	33.24	-43.0	-44.5	19.3	0.00e+00	0	40	0	633339904	58	6828
2026-01-03 13:35:26.62	70.78	33.33	-42.6	-44.0	19.8	0.00e+00	0	40	0	635437056	58	6436
2026-01-03 13:35:27.63	71.13	33.41	-42.2	-43.5	20.3	0.00e+00	82	40	0	636485632	58	6082
2026-01-03 13:35:28.64	71.48	33.49	-41.7	-42.9	20.8	0.00e+00	0	40	0	638582784	58	5674
2026-01-03 13:35:29.65	71.84	33.58	-42.4	-43.8	20.3	0.00e+00	79	40	0	640679936	56	7012
2026-01-03 13:35:30.66	72.20	33.66	-42.8	-44.3	19.9	0.00e+00	0	40	0	642777088	56	7439
2026-01-03 13:35:31.66	72.56	33.74	-43.4	-45.0	19.1	0.00e+00	0	40	0	644874240	58	7242
2026-01-03 13:35:32.68	72.92	33.82	-43.4	-45.0	19.1	0.00e+00	0	40	0	645922816	58	7187
2026-01-03 13:35:33.69	73.29	33.89	-42.8	-44.3	19.5	0.00e+00	0	40	0	648019968	58	6648
2026-01-03 13:35:34.70	73.65	33.97	-42.7	-44.2	19.7	0.00e+00	74	39	0	650117120	58	6561
2026-01-03 13:35:35.70	74.01	34.05	-42.6	-44.0	19.9	0.00e+00	0	40	0	652214272	58	6432
2026-01-03 13:35:36.71	74.38	34.12	-42.8	-44.2	19.8	0.00e+00	92	40	0	654311424	58	6590
2026-01-03 13:35:37.72	74.75	34.20	-43.4	-45.0	19.1	0.00e+00	0	40	0	655360000	58	7191
2026-01-03 13:35:38.73	75.13	34.27	-43.4	-45.0	19.1	0.00e+00	0	40	0	657457152	58	7183
2026-01-03 13:35:39.74	75.50	34.34	-43.1	-44.6	19.4	0.00e+00	0	40	0	659554304	58	6892
2026-01-03 13:35:40.75	75.88	34.41	-42.6	-44.0	20.0	0.00e+00	0	40	0	661651456	58	6441
2026-01-03 13:35:41.76	76.25	34.48	-42.1	-43.4	20.5	0.00e+00	65	40	0	663748608	58	5987
2026-01-03 13:35:42.77	76.63	34.55	-42.4	-43.8	20.1	0.00e+00	0	40	0	664797184	58	6248
2026-01-03 13:35:43.78	77.01	34.61	-42.6	-44.1	19.8	0.00e+00	88	40	0	666894336	58	6508
2026-01-03 13:35:44.79	77.39	34.68	-42.6	-44.1	20.1	0.00e+00	0	40	0	668991488	58	6472
2026-01-03 13:35:45.79	77.77	34.74	-42.3	-43.6	20.3	0.00e+00	0	40	0	671088640	58	6145
2026-01-03 13:35:46.80	78.16	34.81	-41.7	-42.9	20.9	0.00e+00	0	40	0	673185792	56	6337
2026-01-03 13:35:47.81	78.54	34.87	-41.3	-42.5	21.2	0.00e+00	0	40	0	674234368	56	6068
2026-01-03 13:35:48.82	78.93	34.93	-41.4	-42.6	21.1	0.00e+00	33	40	0	676331520	56	6117
2026-01-03 13:35:49.83	79.32	34.99	-42.3	-43.7	20.4	0.00e+00	0	40	0	678428672	56	6972
2026-01-03 13:35:50.83	79.71	35.04	-42.4	-43.8	20.0	0.00e+00	92	40	0	680525824	56	7086
2026-01-03 13:35:51.85	80.10	35.10	-41.9	-43.2	20.6	0.00e+00	0	40	0	682622976	56	6542
2026-01-03 13:35:52.86	80.50	35.16	-41.4	-42.5	21.3	0.00e+00	0	40	0	683671552	56	6088
2026-01-03 13:35:53.86	80.89	35.21	-41.5	-42.7	21.3	0.00e+00	0	40	0	685768704	56	6211
2026-01-03 13:35:54.88	81.29	35.26	-41.7	-43.0	20.9	0.00e+00	0	40	0	687865856	56	6423
2026-01-03 13:35:55.89	81.68	35.31	-41.7	-43.0	20.9	0.00e+00	58	40	0	689963008	56	6453
2026-01-03 13:35:56.90	82.08	35.36	-41.5	-42.7	21.4	0.00e+00	0	40	0	692060160	56	6230
2026-01-03 13:35:57.90	82.48	35.41	-41.0	-42.1	21.6	0.00e+00	89	40	0	693108736	56	5791
2026-01-03 13:35:58.91	82.88	35.45	-41.4	-42.7	21.2	0.00e+00	0	40	0	695205888	56	6175
2026-01-03 13:35:59.92	83.28	35.50	-41.8	-43.0	20.7	0.00e+00	78	40	0	697303040	56	6459
2026-01-03 13:36:00.93	83.68	35.54	-42.2	-43.6	20.4	0.00e+00	0	40	0	699400192	56	6849
2026-01-03 13:36:01.94	84.08	35.58	-42.8	-44.2	19.8	0.00e+00	0	40	0	701497344	56	7394
2026-01-03 13:36:02.95	84.49	35.63	-42.3	-43.7	20.3	0.00e+00	57	40	0	702545920	58	6175
2026-01-03 13:36:03.96	84.90	35.66	-41.9	-43.2	20.6	0.00e+00	0	40	0	704643072	58	5849
2026-01-03 13:36:04.97	85.30	35.70	-41.6	-42.8	21.1	0.00e+00	92	40	0	706740224	58	5619
2026-01-03 13:36:05.97	85.71	35.74	-41.5	-42.7	21.3	0.00e+00	0	40	0	708837376	56	6174
2026-01-03 13:36:06.98	86.11	35.77	-41.3	-42.5	21.3	0.00e+00	90	40	0	710934528	56	6043
2026-01-03 13:36:07.99	86.52	35.80	-41.9	-43.1	20.8	0.00e+00	0	40	0	711983104	56	6525
2026-01-03 13:36:09.00	86.93	35.84	-42.1	-43.4	20.6	0.00e+00	0	40	0	714080256	56	6733
2026-01-03 13:36:10.01	87.34	35.86	-43.1	-44.6	19.6	0.00e+00	0	40	0	716177408	58	6911
2026-01-03 13:36:11.02	87.76	35.89	-42.9	-44.3	19.7	0.00e+00	0	40	0	718274560	58	6681
2026-01-03 13:36:12.03	88.17	35.92	-43.5	-45.1	18.8	0.00e+00	20	40	0	720371712	58	7297
2026-01-03 13:36:13.04	88.58	35.94	-43.5	-45.2	19.1	0.00e+00	0	40	0	721420288	58	7366
2026-01-03 13:36:14.05	88.99	35.97	-44.0	-45.8	18.3	0.00e+00	86	40	0	723517440	60	7061
2026-01-03 13:36:15.06	89.41	35.99	-43.8	-45.5	18.9	0.00e+00	0	40	0	725614592	60	6838
2026-01-03 13:36:16.07	89.82	36.01	-43.4	-45.0	19.0	0.00e+00	0	40	0	727711744	60	6407
2026-01-03 13:36:17.07	90.23	36.03	-43.0	-44.4	19.9	0.00e+00	0	40	0	729808896	60	6028
2026-01-03 13:36:18.08	90.65	36.04	-42.4	-43.7	20.2	0.00e+00	0	40	0	731906048	58	6236
2026-01-03 13:36:19.09	91.07	36.06	-42.1	-43.4	20.6	0.00e+00	64	40	0	732954624	58	5983
2026-01-03 13:36:20.10	91.48	36.07	-42.4	-43.7	20.4	0.00e+00	33	40	0	735051776	58	6241
2026-01-03 13:36:21.11	91.90	36.08	-42.6	-44.0	20.0	0.00e+00	90	40	0	737148928	58	6436
2026-01-03 13:36:22.12	92.32	36.09	-42.8	-44.3	19.8	0.00e+00	0	40	0	739246080	58	6642
2026-01-03 13:36:23.13	92.73	36.10	-42.7	-44.2	19.6	0.00e+00	0	40	0	741343232	58	6554
2026-01-03 13:36:24.14	93.15	36.11	-43.2	-44.8	19.2	0.00e+00	0	40	0	742391808	58	7079
2026-01-03 13:36:25.15	93.57	36.11	-43.4	-45.0	19.1	0.00e+00	0	40	0	744488960	60	6450
2026-01-03 13:36:26.16	93.98	36.12	-43.2	-44.7	19.8	0.00e+00	41	40	0	746586112	60	6243
2026-01-03 13:36:27.17	94.40	36.12	-42.8	-44.2	19.6	0.00e+00	0	40	0	748683264	60	5867
2026-01-03 13:36:28.18	94.82	36.12	-42.1	-43.4	20.4	0.00e+00	92	40	0	750780416	58	5988
2026-01-03 13:36:29.19	95.24	36.12	-41.8	-43.0	20.6	0.00e+00	0	40	0	751828992	58	5730
2026-01-03 13:36:30.20	95.66	36.11	-41.8	-43.0	21.2	0.00e+00	28	40	0	753926144	56	6408
2026-01-03 13:36:31.20	96.07	36.11	-41.6	-42.8	21.4	0.00e+00	0	40	0	756023296	56	6262
2026-01-03 13:36:32.21	96.49	36.10	-41.5	-42.6	21.3	0.00e+00	0	40	0	758120448	56	6154
2026-01-03 13:36:33.22	96.90	36.09	-41.6	-42.8	21.2	0.00e+00	57	40	0	760217600	56	6310
2026-01-03 13:36:34.23	97.32	36.08	-42.0	-43.3	20.7	0.00e+00	0	40	0	761266176	56	6675
2026-01-03 13:36:35.24	97.74	36.07	-42.7	-44.1	19.9	0.00e+00	92	40	0	763363328	56	7313
2026-01-03 13:36:36.25	98.15	36.06	-43.8	-45.6	18.5	0.00e+00	0	40	0	765460480	60	6896
2026-01-03 13:36:37.26	98.57	36.04	-44.6	-46.7	17.6	0.00e+00	6	40	0	767557632	60	7799
2026-01-03 13:36:38.26	98.98	36.03	-44.3	-46.2	18.1	0.00e+00	0	40	0	769654784	60	7348
2026-01-03 13:36:39.28	99.40	36.01	-43.4	-45.0	19.3	0.00e+00	0	40	0	770703360	60	6413
2026-01-03 13:36:40.28	99.81	35.99	-42.6	-43.9	20.2	0.00e+00	0	40	0	772800512	58	6381
2026-01-03 13:36:41.29	100.23	35.97	-42.7	-44.2	19.8	0.00e+00	0	40	0	774897664	58	6550
2026-01-03 13:36:42.30	100.64	35.94	-43.4	-45.0	18.9	0.00e+00	74	40	0	776994816	58	7236
2026-01-03 13:36:43.31	101.05	35.92	-43.3	-44.9	19.4	0.00e+00	0	40	0	779091968	58	7101
2026-01-03 13:36:44.32	101.47	35.89	-42.4	-43.7	20.5	0.00e+00	90	40	0	780140544	58	6194
2026-01-03 13:36:45.33	101.88	35.86	-42.1	-43.4	20.4	0.00e+00	0	40	0	782237696	58	6019
2026-01-03 13:36:46.34	102.29	35.83	-42.1	-43.4	20.2	0.00e+00	0	40	0	784334848	58	6000
2026-01-03 13:36:47.34	102.69	35.80	-42.9	-44.4	19.5	0.00e+00	0	40	0	786432000	58	6694
2026-01-03 13:36:48.35	103.10	35.77	-43.7	-45.4	18.6	0.00e+00	0	40	0	788529152	60	6725
2026-01-03 13:36:49.36	103.51	35.74	-44.2	-46.0	18.4	0.00e+00	57	40	0	789577728	60	7197
2026-01-03 13:36:50.37	103.92	35.70	-43.0	-44.4	19.8	0.00e+00	0	40	0	791674880	60	6028
2026-01-03 13:36:51.38	104.33	35.66	-42.4	-43.7	20.3	0.00e+00	92	40	0	793772032	58	6201
2026-01-03 13:36:52.38	104.73	35.62	-42.5	-43.8	20.1	0.00e+00	0	40	0	795869184	58	6289
2026-01-03 13:36:53.39	105.14	35.58	-43.4	-44.9	19.2	0.00e+00	0	40	0	797966336	58	7135
2026-01-03 13:36:54.41	105.54	35.54	-44.0	-45.7	18.5	0.00e+00	0	40	0	800063488	60	6976
2026-01-03 13:36:55.42	105.95	35.50	-44.0	-45.8	18.3	0.00e+00	0	40	0	801112064	60	7025
2026-01-03 13:36:56.43	106.35	35.45	-43.9	-45.6	19.0	0.00e+00	22	40	0	803209216	60	6867
2026-01-03 13:36:57.44	106.75	35.41	-43.9	-45.7	18.5	0.00e+00	0	40	0	805306368	60	6948
2026-01-03 13:36:58.44	107.15	35.36	-44.7	-46.7	17.2	0.00e+00	92	40	0	807403520	60	7827
2026-01-03 13:36:59.45	107.54	35.31	-46.0	-48.7	15.9	0.00e+00	0	40	0	809500672	60	9865
2026-01-03 13:37:00.46	107.94	35.26	-45.2	-47.4	17.0	0.00e+00	0	40	0	810549248	60	8480
2026-01-03 13:37:01.47	108.34	35.21	-44.6	-46.5	18.1	0.00e+00	0	40	0	812646400	60	7671
2026-01-03 13:37:02.48	108.73	35.15	-44.1	-45.8	18.7	0.00e+00	0	40	0	814743552	60	7039
2026-01-03 13:37:03.49	109.13	35.10	-44.1	-45.9	18.7	0.00e+00	30	40	0	816840704	60	7106
2026-01-03 13:37:04.50	109.52	35.04	-44.8	-46.8	17.6	0.00e+00	0	40	0	817889280	60	7867
2026-01-03 13:37:05.51	109.91	34.98	-45.5	-47.8	16.5	0.00e+00	92	40	0	819986432	60	8880
2026-01-03 13:37:06.52	110.30	34.92	-45.9	-48.5	15.8	0.00e+00	0	40	0	822083584	60	9633
2026-01-03 13:37:07.53	110.69	34.86	-46.1	-48.7	15.6	0.00e+00	0	40	0	824180736	60	9848
2026-01-03 13:37:08.54	111.07	34.80	-44.9	-46.9	17.8	0.00e+00	0	40	0	826277888	60	7997
2026-01-03 13:37:09.55	111.46	34.74	-44.4	-46.2	18.6	0.00e+00	0	40	0	828375040	60	7357
2026-01-03 13:37:10.56	111.84	34.67	-43.1	-44.6	19.6	0.00e+00	4	40	0	829423616	60	6143
2026-01-03 13:37:11.57	112.23	34.61	-42.6	-43.9	20.2	0.00e+00	0	40	0	831520768	58	6376
2026-01-03 13:37:12.58	112.61	34.54	-42.4	-43.7	20.7	0.00e+00	92	40	0	833617920	58	6180
2026-01-03 13:37:13.58	112.98	34.47	-42.3	-43.5	20.8	0.00e+00	0	40	0	835715072	56	6797
2026-01-03 13:37:14.59	113.36	34.40	-41.9	-43.1	21.0	0.00e+00	64	40	0	837812224	56	6510
2026-01-03 13:37:15.60	113.74	34.33	-42.5	-43.8	20.5	0.00e+00	0	40	0	838860800	56	7034
2026-01-03 13:37:16.61	114.11	34.26	-42.9	-44.3	19.6	0.00e+00	0	40	0	840957952	56	7449
2026-01-03 13:37:17.62	114.48	34.19	-42.8	-44.2	20.0	0.00e+00	0	40	0	843055104	58	6584
2026-01-03 13:37:18.62	114.85	34.12	-43.8	-45.4	18.6	0.00e+00	0	40	0	845152256	60	6709
2026-01-03 13:37:19.63	115.22	34.04	-44.4	-46.2	18.5	0.00e+00	52	40	0	847249408	60	7341
2026-01-03 13:37:20.65	115.59	33.96	-43.8	-45.4	18.8	0.00e+00	0	40	0	848297984	60	6739
2026-01-03 13:37:21.65	115.96	33.89	-43.4	-44.9	19.3	0.00e+00	56	40	0	850395136	60	6343
2026-01-03 13:37:22.66	116.32	33.81	-42.7	-44.1	20.0	0.00e+00	0	40	0	852492288	60	5823
2026-01-03 13:37:23.67	116.68	33.73	-42.8	-44.1	20.0	0.00e+00	0	40	0	854589440	58	6538
2026-01-03 13:37:24.68	117.04	33.65	-43.1	-44.6	19.4	0.00e+00	0	40	0	856686592	58	6892
2026-01-03 13:37:25.69	117.40	33.57	-42.3	-43.6	20.8	0.00e+00	0	40	0	857735168	58	6105
2026-01-03 13:37:26.70	117.76	33.48	-41.7	-42.9	21.1	0.00e+00	54	40	0	859832320	58	5665
2026-01-03 13:37:27.71	118.12	33.40	-41.5	-42.7	21.1	0.00e+00	0	40	0	861929472	56	6245
2026-01-03 13:37:28.72	118.47	33.32	-41.4	-42.6	21.4	0.00e+00	68	40	0	864026624	56	6134
2026-01-03 13:37:29.73	118.82	33.23	-41.1	-42.2	21.8	0.00e+00	0	40	0	866123776	56	5842
2026-01-03 13:37:30.74	119.17	33.14	-41.1	-42.2	21.7	0.00e+00	0	40	0	867172352	56	5887
2026-01-03 13:37:31.75	119.52	33.06	-41.6	-42.8	21.1	0.00e+00	0	40	0	869269504	56	6270
2026-01-03 13:37:32.76	119.87	32.97	-42.0	-43.3	20.7	0.00e+00	0	40	0	871366656	56	6619
2026-01-03 13:37:33.76	120.21	32.88	-41.5	-42.6	21.2	0.00e+00	55	40	0	873463808	56	6147
2026-01-03 13:37:34.77	120.55	32.79	-41.6	-42.7	21.1	0.00e+00	0	40	0	875560960	56	6229
2026-01-03 13:37:35.78	120.89	32.70	-42.6	-44.0	20.3	0.00e+00	92	40	0	876609536	56	7217
2026-01-03 13:37:36.79	121.23	32.61	-44.2	-46.1	18.0	0.00e+00	0	40	0	878706688	60	7291
2026-01-03 13:37:37.80	121.57	32.51	-45.9	-48.6	15.7	0.00e+00	4	40	0	880803840	60	9759
2026-01-03 13:37:38.81	121.91	32.42	-45.9	-48.8	15.9	0.00e+00	0	40	0	882900992	60	10011
2026-01-03 13:37:39.82	122.24	32.33	-43.9	-45.7	19.1	0.00e+00	0	40	0	884998144	60	6947
2026-01-03 13:37:40.83	122.57	32.23	-41.0	-42.2	22.0	0.00e+00	0	40	0	886046720	56	5838
2026-01-03 13:37:41.84	122.90	32.14	-39.4	-40.3	23.0	0.00e+00	0	40	0	888143872	52	5943
2026-01-03 13:37:42.85	123.23	32.04	-38.9	-39.7	23.4	0.00e+00	61	40	0	890241024	52	5558
2026-01-03 13:37:43.86	123.55	31.94	-39.9	-40.9	22.6	0.00e+00	0	40	0	892338176	52	6353
2026-01-03 13:37:44.86	123.87	31.85	-40.7	-41.8	21.9	0.00e+00	92	40	0	894435328	54	6279
2026-01-03 13:37:45.87	124.20	31.75	-41.0	-42.1	21.8	0.00e+00	0	40	0	896532480	54	6514
2026-01-03 13:37:46.88	124.52	31.65	-40.0	-40.9	22.7	0.00e+00	0	40	0	897581056	54	5683
2026-01-03 13:37:47.89	124.84	31.55	-39.1	-40.0	23.6	0.00e+00	0	40	0	899678208	52	5708
2026-01-03 13:37:48.90	125.15	31.45	-39.0	-39.9	23.5	0.00e+00	0	40	0	901775360	52	5631
2026-01-03 13:37:49.90	125.46	31.35	-39.4	-40.4	23.1	0.00e+00	55	40	0	903872512	52	5975
2026-01-03 13:37:50.91	125.78	31.25	-40.1	-41.2	22.5	0.00e+00	0	40	0	905969664	52	6550
2026-01-03 13:37:51.92	126.09	31.15	-39.9	-41.0	22.6	0.00e+00	92	40	0	907018240	52	6395
2026-01-03 13:37:52.93	126.40	31.05	-39.6	-40.5	23.0	0.00e+00	0	40	0	909115392	52	6095
2026-01-03 13:37:53.93	126.70	30.94	-38.8	-39.7	23.7	0.00e+00	0	40	0	911212544	52	5522
2026-01-03 13:37:54.94	127.00	30.84	-38.7	-39.5	23.7	0.00e+00	0	40	0	913309696	50	6095
2026-01-03 13:37:55.95	127.31	30.74	-39.7	-40.6	23.0	0.00e+00	0	40	0	914358272	50	6889
2026-01-03 13:37:56.96	127.61	30.63	-40.2	-41.2	22.1	0.00e+00	56	40	0	916455424	52	6600
2026-01-03 13:37:57.97	127.91	30.53	-41.3	-42.5	21.1	0.00e+00	0	40	0	918552576	54	6822
2026-01-03 13:37:58.98	128.20	30.42	-41.7	-43.0	21.0	0.00e+00	92	40	0	920649728	58	5730
2026-01-03 13:37:59.99	128.50	30.32	-40.1	-41.1	22.7	0.00e+00	0	40	0	922746880	54	5815
2026-01-03 13:38:01.00	128.79	30.21	-38.7	-39.6	23.9	0.00e+00	0	40	0	924844032	52	5464
2026-01-03 13:38:02.01	129.09	30.10	-38.1	-38.9	24.4	0.00e+00	0	40	0	925892608	50	5654
2026-01-03 13:38:03.02	129.38	30.00	-38.6	-39.5	23.9	0.00e+00	0	40	0	927989760	50	6054
2026-01-03 13:38:04.02	129.66	29.89	-39.4	-40.3	23.0	0.00e+00	24	40	0	930086912	50	6672
2026-01-03 13:38:05.03	129.95	29.78	-40.2	-41.2	22.3	0.00e+00	0	40	0	932184064	52	6610
2026-01-03 13:38:06.04	130.23	29.67	-39.9	-41.0	22.8	0.00e+00	38	40	0	934281216	52	6400
2026-01-03 13:38:07.05	130.51	29.57	-39.3	-40.2	23.3	0.00e+00	0	40	0	935329792	52	5875
2026-01-03 13:38:08.05	130.79	29.46	-38.8	-39.7	23.6	0.00e+00	0	40	0	937426944	52	5532
2026-01-03 13:38:09.06	131.07	29.35	-39.2	-40.2	23.1	0.00e+00	0	40	0	939524096	50	6558
2026-01-03 13:38:10.07	131.35	29.24	-40.2	-41.2	22.2	0.00e+00	0	40	0	941621248	52	6608
2026-01-03 13:38:11.08	131.62	29.13	-40.7	-41.8	21.8	0.00e+00	25	40	0	943718400	54	6286
2026-01-03 13:38:12.09	131.89	29.02	-41.4	-42.6	21.1	0.00e+00	0	40	0	944766976	54	6920
2026-01-03 13:38:13.10	132.16	28.91	-41.2	-42.5	21.2	0.00e+00	91	40	0	946864128	54	6771
2026-01-03 13:38:14.11	132.43	28.80	-40.7	-41.8	22.1	0.00e+00	33	40	0	948961280	54	6246
2026-01-03 13:38:15.12	132.70	28.69	-39.7	-40.7	22.7	0.00e+00	92	40	0	951058432	52	6188
2026-01-03 13:38:16.13	132.97	28.58	-40.1	-41.2	22.5	0.00e+00	0	40	0	953155584	52	6553
2026-01-03 13:38:17.14	133.23	28.47	-40.1	-41.1	22.6	0.00e+00	0	40	0	954204160	52	6503
2026-01-03 13:38:18.15	133.49	28.36	-40.1	-41.1	22.6	0.00e+00	0	40	0	956301312	52	6494
2026-01-03 13:38:19.16	133.75	28.24	-39.9	-40.9	22.6	0.00e+00	0	40	0	958398464	52	6385
2026-01-03 13:38:20.17	134.01	28.13	-38.9	-39.8	23.4	0.00e+00	50	40	0	960495616	52	5617
2026-01-03 13:38:21.17	134.27	28.02	-38.0	-38.8	24.0	0.00e+00	0	40	0	962592768	50	5608
2026-01-03 13:38:22.18	134.52	27.91	-37.6	-38.4	24.4	0.00e+00	92	40	0	963641344	48	6009
2026-01-03 13:38:23.19	134.78	27.80	-37.9	-38.7	24.0	0.00e+00	0	40	0	965738496	48	6235
2026-01-03 13:38:24.20	135.03	27.69	-39.1	-40.0	22.9	0.00e+00	0	40	0	967835648	50	6420
2026-01-03 13:38:25.21	135.28	27.57	-40.2	-41.2	22.3	0.00e+00	0	40	0	969932800	52	6586
2026-01-03 13:38:26.22	135.53	27.46	-41.2	-42.4	21.5	0.00e+00	0	40	0	972029952	54	6729
2026-01-03 13:38:27.23	135.77	27.35	-40.8	-41.9	21.9	0.00e+00	54	40	0	973078528	54	6368
2026-01-03 13:38:28.24	136.02	27.24	-39.9	-40.9	22.7	0.00e+00	0	40	0	975175680	54	5679
2026-01-03 13:38:29.25	136.26	27.12	-39.2	-40.1	23.3	0.00e+00	91	40	0	977272832	52	5812
2026-01-03 13:38:30.25	136.50	27.01	-38.8	-39.7	23.6	0.00e+00	0	40	0	979369984	52	5514
2026-01-03 13:38:31.26	136.74	26.90	-39.1	-40.0	23.3	0.00e+00	0	40	0	981467136	52	5747
2026-01-03 13:38:32.28	136.98	26.79	-39.3	-40.2	23.3	0.00e+00	0	40	0	982515712	52	5894
2026-01-03 13:38:33.29	137.22	26.67	-39.2	-40.1	23.3	0.00e+00	0	40	0	984612864	52	5811
2026-01-03 13:38:34.29	137.45	26.56	-38.7	-39.6	23.8	0.00e+00	55	40	0	986710016	52	5444
2026-01-03 13:38:35.30	137.68	26.45	-37.9	-38.7	24.4	0.00e+00	0	40	0	988807168	50	5536
2026-01-03 13:38:36.31	137.92	26.33	-37.6	-38.4	24.5	0.00e+00	92	40	0	990904320	48	5969
2026-01-03 13:38:37.32	138.15	26.22	-37.2	-38.0	24.5	0.00e+00	0	40	0	993001472	48	5735
2026-01-03 13:38:38.33	138.37	26.11	-37.4	-38.2	24.5	0.00e+00	4	40	0	994050048	48	5840
2026-01-03 13:38:39.34	138.60	26.00	-38.0	-38.9	24.1	0.00e+00	0	40	0	996147200	48	6337
2026-01-03 13:38:40.35	138.83	25.88	-38.8	-39.7	23.5	0.00e+00	0	40	0	998244352	48	6974
2026-01-03 13:38:41.36	139.05	25.77	-39.4	-40.3	23.2	0.00e+00	26	40	0	1000341504	50	6682
2026-01-03 13:38:42.37	139.27	25.66	-39.9	-40.8	23.0	0.00e+00	0	40	0	1002438656	52	6292
2026-01-03 13:38:43.38	139.49	25.54	-39.3	-40.2	23.3	0.00e+00	53	40	0	1003487232	52	5893
2026-01-03 13:38:44.39	139.71	25.43	-39.1	-40.0	23.4	0.00e+00	0	40	0	1005584384	52	5708
2026-01-03 13:38:45.40	139.93	25.32	-38.6	-39.4	23.9	0.00e+00	92	40	0	1007681536	50	6027
2026-01-03 13:38:46.41	140.15	25.21	-38.2	-39.1	24.0	0.00e+00	0	40	0	1009778688	50	5771
2026-01-03 13:38:47.41	140.36	25.09	-38.5	-39.3	23.7	0.00e+00	0	40	0	1011875840	50	5955
2026-01-03 13:38:48.42	140.57	24.98	-38.6	-39.5	23.5	0.00e+00	49	40	0	1012924416	50	6087
2026-01-03 13:38:49.43	140.78	24.87	-39.0	-39.9	23.2	0.00e+00	0	40	0	1015021568	50	6372
2026-01-03 13:38:50.44	140.99	24.76	-39.2	-40.1	23.0	0.00e+00	45	40	0	1017118720	50	6522
2026-01-03 13:38:51.45	141.20	24.64	-38.9	-39.8	23.3	0.00e+00	0	40	0	1019215872	50	6280
2026-01-03 13:38:52.46	141.41	24.53	-38.3	-39.2	23.9	0.00e+00	92	40	0	1021313024	50	5833
2026-01-03 13:38:53.47	141.62	24.42	-37.9	-38.7	24.3	0.00e+00	0	40	0	1022361600	50	5544
2026-01-03 13:38:54.48	141.82	24.31	-37.5	-38.3	24.5	0.00e+00	0	40	0	1024458752	48	5916
2026-01-03 13:38:55.49	142.02	24.20	-36.9	-37.7	25.0	0.00e+00	0	40	0	1026555904	48	5541
2026-01-03 13:38:56.50	142.23	24.08	-37.0	-37.8	24.7	0.00e+00	0	40	0	1028653056	46	6248
2026-01-03 13:38:57.51	142.43	23.97	-37.4	-38.2	24.7	0.00e+00	81	40	0	1030750208	46	6578
2026-01-03 13:38:58.52	142.62	23.86	-37.6	-38.4	24.4	0.00e+00	0	40	0	1031798784	46	6720
2026-01-03 13:38:59.53	142.82	23.75	-38.2	-39.0	24.1	0.00e+00	90	40	0	1033895936	48	6426
2026-01-03 13:39:00.54	143.02	23.64	-38.0	-38.9	24.0	0.00e+00	0	40	0	1035993088	48	6341
2026-01-03 13:39:01.54	143.21	23.53	-38.2	-39.1	23.9	0.00e+00	0	40	0	1038090240	48	6469
2026-01-03 13:39:02.55	143.41	23.42	-37.9	-38.8	24.1	0.00e+00	0	40	0	1040187392	48	6246
2026-01-03 13:39:03.56	143.60	23.30	-37.7	-38.5	24.3	0.00e+00	0	40	0	1041235968	48	6058
2026-01-03 13:39:04.57	143.79	23.19	-37.6	-38.4	24.5	0.00e+00	50	40	0	1043333120	48	5985
2026-01-03 13:39:05.58	143.98	23.08	-37.7	-38.5	24.4	0.00e+00	0	40	0	1045430272	48	6061
2026-01-03 13:39:06.59	144.17	22.97	-37.5	-38.3	24.6	0.00e+00	82	40	0	1047527424	48	5900
2026-01-03 13:39:07.60	144.35	22.86	-38.0	-38.8	23.9	0.00e+00	0	40	0	1049624576	48	6311
2026-01-03 13:39:08.61	144.54	22.75	-38.3	-39.1	23.5	0.00e+00	0	40	0	1050673152	48	6530
2026-01-03 13:39:09.62	144.72	22.64	-38.2	-39.1	23.8	0.00e+00	0	40	0	1052770304	48	6475
2026-01-03 13:39:10.63	144.91	22.53	-38.1	-39.0	23.7	0.00e+00	0	40	0	1054867456	48	6413
2026-01-03 13:39:11.64	145.09	22.42	-38.6	-39.5	23.7	0.00e+00	52	40	0	1056964608	48	6770
2026-01-03 13:39:12.65	145.27	22.31	-38.0	-38.9	23.4	0.00e+00	0	40	0	1059061760	48	6345
2026-01-03 13:39:13.66	145.45	22.20	-38.2	-39.1	23.5	0.00e+00	91	40	0	1061158912	48	6496
2026-01-03 13:39:14.66	145.62	22.10	-38.2	-39.1	23.9	0.00e+00	0	40	0	1062207488	48	6486
2026-01-03 13:39:15.67	145.80	21.99	-38.1	-39.0	23.7	0.00e+00	0	40	0	1064304640	48	6432
2026-01-03 13:39:16.68	145.98	21.88	-38.1	-39.0	24.1	0.00e+00	0	40	0	1066401792	48	6417
2026-01-03 13:39:17.69	146.15	21.77	-38.0	-38.9	23.9	0.00e+00	0	40	0	1068498944	48	6323
2026-01-03 13:39:18.70	146.32	21.66	-38.3	-39.1	24.0	0.00e+00	0	40	0	1069547520	48	6510
2026-01-03 13:39:19.71	146.50	21.55	-38.3	-39.2	23.8	0.00e+00	0	40	0	1071644672	48	6547
2026-01-03 13:39:20.72	146.67	21.45	-38.3	-39.2	23.8	0.00e+00	92	40	0	1073741824	48	6541
2026-01-03 13:39:21.73	146.84	21.34	-37.8	-38.7	24.1	0.00e+00	0	40	0	1075838976	48	6197
2026-01-03 13:39:22.74	147.01	21.23	-37.8	-38.7	24.1	0.00e+00	92	40	0	1077936128	48	6202
2026-01-03 13:39:23.75	147.17	21.12	-38.1	-39.0	24.0	0.00e+00	0	40	0	1078984704	48	6406
2026-01-03 13:39:24.76	147.34	21.02	-38.6	-39.5	23.7	0.00e+00	0	40	0	1081081856	50	6035
2026-01-03 13:39:25.77	147.51	20.91	-38.3	-39.2	23.6	0.00e+00	0	40	0	1083179008	50	5881
2026-01-03 13:39:26.78	147.67	20.80	-38.0	-38.9	24.1	0.00e+00	0	40	0	1085276160	50	5633
2026-01-03 13:39:27.78	147.83	20.70	-38.2	-39.1	24.0	0.00e+00	51	40	0	1087373312	50	5802
2026-01-03 13:39:28.79	147.99	20.59	-38.5	-39.4	23.7	0.00e+00	0	40	0	1089470464	50	6001
2026-01-03 13:39:29.80	148.16	20.49	-38.3	-39.2	23.8	0.00e+00	54	40	0	1090519040	50	5858
2026-01-03 13:39:30.81	148.32	20.38	-38.4	-39.3	23.8	0.00e+00	0	40	0	1092616192	50	5909
2026-01-03 13:39:31.82	148.47	20.28	-38.4	-39.3	23.6	0.00e+00	0	40	0	1094713344	50	5930
2026-01-03 13:39:32.82	148.63	20.17	-38.4	-39.2	23.7	0.00e+00	0	40	0	1096810496	50	5871
2026-01-03 13:39:33.83	148.79	20.07	-38.4	-39.2	23.8	0.00e+00	0	40	0	1098907648	50	5880
2026-01-03 13:39:34.84	148.94	19.96	-37.9	-38.8	24.1	0.00e+00	53	40	0	1099956224	50	5571
2026-01-03 13:39:35.85	149.10	19.86	-38.2	-39.0	23.9	0.00e+00	0	40	0	1102053376	50	5748
2026-01-03 13:39:36.86	149.25	19.75	-38.4	-39.3	23.7	0.00e+00	54	40	0	1104150528	50	5898
2026-01-03 13:39:37.87	149.40	19.65	-38.1	-39.0	23.9	0.00e+00	0	40	0	1106247680	50	5708
2026-01-03 13:39:38.88	149.56	19.55	-38.7	-39.7	23.4	0.00e+00	0	40	0	1108344832	50	6174
2026-01-03 13:39:39.89	149.71	19.44	-38.8	-39.8	23.2	0.00e+00	0	40	0	1109393408	50	6272
2026-01-03 13:39:40.90	149.86	19.34	-39.0	-39.9	23.2	0.00e+00	0	40	0	1111490560	50	6383
2026-01-03 13:39:41.91	150.01	19.24	-39.2	-40.2	22.9	0.00e+00	43	40	0	1113587712	50	6548
2026-01-03 13:39:42.92	150.15	19.13	-39.1	-40.0	23.1	0.00e+00	0	40	0	1115684864	50	6432
2026-01-03 13:39:43.93	150.30	19.03	-39.3	-40.3	22.8	0.00e+00	92	40	0	1117782016	50	6659
2026-01-03 13:39:44.94	150.45	18.93	-39.5	-40.5	22.7	0.00e+00	0	40	0	1118830592	50	6814
2026-01-03 13:39:45.95	150.59	18.83	-39.5	-40.5	22.8	0.00e+00	0	40	0	1120927744	50	6793
2026-01-03 13:39:46.96	150.73	18.72	-39.7	-40.7	22.7	0.00e+00	0	40	0	1123024896	52	6210
2026-01-03 13:39:47.97	150.88	18.62	-40.5	-41.6	21.8	0.00e+00	0	40	0	1125122048	52	6876
2026-01-03 13:39:48.98	151.02	18.52	-39.9	-40.9	22.4	0.00e+00	27	40	0	1127219200	54	5665
2026-01-03 13:39:49.99	151.16	18.42	-41.2	-42.3	20.7	0.00e+00	0	40	0	1128267776	58	5306
2026-01-03 13:39:50.99	151.30	18.32	-40.9	-42.0	21.5	0.00e+00	92	40	0	1130364928	54	6411
2026-01-03 13:39:52.00	151.44	18.22	-40.9	-42.1	21.5	0.00e+00	0	40	0	1132462080	54	6499
2026-01-03 13:39:53.01	151.58	18.12	-41.2	-42.4	21.3	0.00e+00	0	40	0	1134559232	54	6740
2026-01-03 13:39:54.02	151.72	18.02	-41.3	-42.5	21.3	0.00e+00	0	40	0	1136656384	54	6800
2026-01-03 13:39:55.03	151.85	17.92	-41.3	-42.6	21.3	0.00e+00	0	40	0	1137704960	54	6851
2026-01-03 13:39:56.04	151.99	17.82	-40.9	-42.1	21.6	0.00e+00	0	40	0	1139802112	54	6529
2026-01-03 13:39:57.05	152.12	17.72	-40.6	-41.8	22.0	0.00e+00	0	40	0	1141899264	54	6270
2026-01-03 13:39:58.06	152.26	17.62	-39.9	-41.0	22.4	0.00e+00	91	40	0	1143996416	54	5738
2026-01-03 13:39:59.07	152.39	17.52	-39.9	-40.9	22.7	0.00e+00	0	40	0	1146093568	52	6379
2026-01-03 13:40:00.07	152.52	17.42	-39.6	-40.6	22.9	0.00e+00	86	40	0	1147142144	52	6157
2026-01-03 13:40:01.08	152.65	17.33	-39.4	-40.4	23.1	0.00e+00	0	40	0	1149239296	52	5977
2026-01-03 13:40:02.10	152.79	17.23	-39.5	-40.5	23.0	0.00e+00	0	40	0	1151336448	52	6056
2026-01-03 13:40:03.10	152.91	17.13	-39.5	-40.5	22.7	0.00e+00	0	40	0	1153433600	52	6083
2026-01-03 13:40:04.12	153.05	17.03	-39.7	-40.7	22.6	0.00e+00	33	40	0	1155530752	52	6212
2026-01-03 13:40:05.12	153.17	16.93	-39.7	-40.8	22.4	0.00e+00	48	40	0	1157627904	52	6291
2026-01-03 13:40:06.14	153.30	16.84	-40.2	-41.4	22.0	0.00e+00	0	40	0	1158676480	52	6704
2026-01-03 13:40:07.14	153.43	16.74	-40.8	-42.1	21.4	0.00e+00	92	40	0	1160773632	52	7296
2026-01-03 13:40:08.15	153.55	16.64	-41.2	-42.6	20.9	0.00e+00	0	40	0	1162870784	54	6905
2026-01-03 13:40:09.16	153.68	16.55	-41.7	-43.3	20.3	0.00e+00	0	40	0	1164967936	54	7474
2026-01-03 13:40:10.17	153.80	16.45	-41.8	-43.5	19.9	0.00e+00	0	40	0	1167065088	56	6776
2026-01-03 13:40:11.18	153.93	16.36	-42.1	-43.9	19.6	0.00e+00	15	40	0	1168113664	56	7091
2026-01-03 13:40:12.19	154.05	16.26	-42.4	-44.1	19.5	0.00e+00	53	40	0	1170210816	58	6493
2026-01-03 13:40:13.20	154.17	16.17	-42.5	-44.2	19.2	0.00e+00	0	40	0	1172307968	58	6568
2026-01-03 13:40:14.21	154.29	16.07	-43.1	-44.8	18.7	0.00e+00	92	40	0	1174405120	58	7043
2026-01-03 13:40:15.22	154.41	15.98	-43.4	-45.2	18.4	0.00e+00	0	40	0	1176502272	58	7358
2026-01-03 13:40:16.23	154.53	15.88	-43.5	-45.3	18.1	0.00e+00	0	40	0	1177550848	58	7456
2026-01-03 13:40:17.24	154.65	15.79	-43.9	-45.9	17.6	0.00e+00	0	40	0	1179648000	60	7140
2026-01-03 13:40:18.24	154.77	15.69	-43.6	-45.5	17.8	0.00e+00	0	40	0	1181745152	60	6841
2026-01-03 13:40:19.26	154.89	15.60	-43.9	-45.9	17.3	0.00e+00	30	40	0	1183842304	60	7121
2026-01-03 13:40:20.26	155.01	15.51	-43.8	-45.8	17.6	0.00e+00	0	40	0	1185939456	60	7029
2026-01-03 13:40:21.27	155.12	15.41	-43.4	-45.3	17.8	0.00e+00	92	40	0	1186988032	60	6665
2026-01-03 13:40:22.28	155.24	15.32	-43.4	-45.2	18.2	0.00e+00	0	40	0	1189085184	60	6583
2026-01-03 13:40:23.29	155.35	15.23	-43.4	-45.2	18.4	0.00e+00	68	40	0	1191182336	60	6550
2026-01-03 13:40:24.30	155.47	15.13	-43.4	-45.2	18.3	0.00e+00	0	40	0	1193279488	60	6591
2026-01-03 13:40:25.30	155.58	15.04	-43.0	-44.7	18.8	0.00e+00	0	40	0	1195376640	60	6184
2026-01-03 13:40:26.31	155.69	14.95	-42.7	-44.3	19.3	0.00e+00	0	40	0	1196425216	60	5900
2026-01-03 13:40:27.33	155.81	14.86	-42.3	-43.8	19.8	0.00e+00	0	40	0	1198522368	58	6287
2026-01-03 13:40:28.33	155.92	14.77	-42.0	-43.4	20.1	0.00e+00	92	40	0	1200619520	58	6022
2026-01-03 13:40:29.34	156.03	14.68	-41.7	-43.0	20.6	0.00e+00	0	40	0	1202716672	58	5742
2026-01-03 13:40:30.35	156.14	14.59	-41.8	-43.1	20.7	0.00e+00	71	40	0	1204813824	56	6465
2026-01-03 13:40:31.36	156.25	14.49	-41.3	-42.5	21.3	0.00e+00	0	40	0	1205862400	56	6057
2026-01-03 13:40:32.37	156.36	14.40	-41.0	-42.1	21.7	0.00e+00	0	40	0	1207959552	56	5791
2026-01-03 13:40:33.38	156.47	14.31	-40.4	-41.5	22.0	0.00e+00	0	40	0	1210056704	54	6061
