passes_logs/2026/01/03/R4.6S_Anadyr/R4.6S_Anadyr__20260103_040611_FENGYUN_3D_rec.log

#Pass ID: 20260103_040611_FENGYUN 3D
#Satellite: FENGYUN 3D
#Configuration: FENGYUN 3D
#almurnet v.1.7.20251203
#Start time: 2026-01-03 04:06:14

#Version: 2.2.20231116
#Station: R4.6S_Anadyr
#Location: 177.4865 lon 64.73178 lat
#TLE: 1 43010U 17072A   26002.81102625  .00000200  00000+0  11640-3 0  9996
#TLE: 2 43010  98.9911 334.4394 0001899 131.0556 229.0784 14.19692049421526

#Time	Az	El	Level	Level2	SNR	BER	BlckErr	Temp	State	Recorded	gain1	gain2
2026-01-03 04:06:14.13	204.52	0.16	-50.6	-61.3	3.3	8.40e-01	0	38	0	0	60	41850
2026-01-03 04:06:15.13	204.58	0.21	-50.5	-62.6	3.6	8.44e-01	0	38	104	0	60	48876
2026-01-03 04:06:16.14	204.64	0.26	-50.4	-62.5	3.6	8.45e-01	0	38	104	0	60	48378
2026-01-03 04:06:17.15	204.70	0.32	-50.4	-62.5	3.6	8.44e-01	0	38	104	0	60	48175
2026-01-03 04:06:18.16	204.76	0.37	-50.4	-62.6	3.6	8.45e-01	0	38	104	0	60	48497
2026-01-03 04:06:19.17	204.82	0.43	-50.3	-62.5	3.6	8.46e-01	0	38	104	0	60	48057
2026-01-03 04:06:20.18	204.88	0.48	-50.2	-62.4	3.6	8.47e-01	0	38	104	0	60	47768
2026-01-03 04:06:21.19	204.95	0.54	-50.2	-62.3	3.6	8.46e-01	0	38	104	0	60	47237
2026-01-03 04:06:22.20	205.01	0.59	-50.1	-62.2	3.6	8.45e-01	0	38	104	0	60	46749
2026-01-03 04:06:23.21	205.07	0.64	-50.0	-62.2	3.6	8.46e-01	0	38	104	0	60	46376
2026-01-03 04:06:24.22	205.13	0.70	-49.8	-62.0	3.6	8.46e-01	0	38	104	0	60	45309
2026-01-03 04:06:25.23	205.20	0.75	-49.6	-61.8	3.6	8.45e-01	0	38	104	0	60	44579
2026-01-03 04:06:26.24	205.26	0.81	-49.3	-61.4	3.6	8.45e-01	0	38	104	0	60	42474
2026-01-03 04:06:27.25	205.32	0.86	-48.7	-60.8	3.6	8.45e-01	0	38	104	0	60	39774
2026-01-03 04:06:28.26	205.39	0.92	-48.7	-60.8	3.6	8.46e-01	0	38	104	0	60	39536
2026-01-03 04:06:29.27	205.45	0.97	-48.6	-60.7	3.6	8.45e-01	0	38	104	0	60	39195
2026-01-03 04:06:30.28	205.51	1.03	-48.6	-60.6	3.6	8.45e-01	0	38	104	0	60	38837
2026-01-03 04:06:31.29	205.58	1.08	-48.6	-60.6	3.6	8.45e-01	0	38	104	0	60	38811
2026-01-03 04:06:32.30	205.64	1.14	-48.6	-60.6	3.6	8.45e-01	0	38	104	0	60	38545
2026-01-03 04:06:33.31	205.70	1.20	-48.6	-60.5	3.6	8.45e-01	0	38	104	0	60	38323
2026-01-03 04:06:34.32	205.77	1.25	-48.6	-60.4	3.6	8.46e-01	0	38	104	0	60	38012
2026-01-03 04:06:35.33	205.83	1.31	-48.6	-60.6	3.6	8.46e-01	0	38	104	0	60	38592
2026-01-03 04:06:36.34	205.90	1.36	-48.6	-60.5	3.6	8.46e-01	0	38	104	0	60	38310
2026-01-03 04:06:37.35	205.96	1.42	-48.6	-60.6	3.6	8.44e-01	0	38	104	0	60	38665
2026-01-03 04:06:38.36	206.03	1.47	-48.6	-60.7	3.6	8.46e-01	0	38	104	0	60	38974
2026-01-03 04:06:39.37	206.10	1.53	-48.6	-60.7	3.6	8.44e-01	0	38	104	0	60	39010
2026-01-03 04:06:40.38	206.16	1.59	-48.6	-60.7	3.5	8.45e-01	0	38	104	0	60	38983
2026-01-03 04:06:41.38	206.23	1.64	-48.6	-60.6	3.6	8.45e-01	0	38	104	0	60	38863
2026-01-03 04:06:42.40	206.29	1.70	-48.6	-60.7	3.6	8.46e-01	0	38	104	0	60	39042
2026-01-03 04:06:43.41	206.36	1.75	-48.6	-60.7	3.6	8.46e-01	0	38	104	0	60	38974
2026-01-03 04:06:44.41	206.43	1.81	-48.6	-60.6	3.6	8.45e-01	0	38	104	0	60	38892
2026-01-03 04:06:45.42	206.50	1.87	-48.6	-60.5	3.6	8.45e-01	0	38	104	0	60	38310
2026-01-03 04:06:46.43	206.56	1.92	-48.5	-60.5	3.6	8.45e-01	0	38	104	0	60	38277
2026-01-03 04:06:47.44	206.63	1.98	-48.6	-60.5	3.6	8.44e-01	0	38	104	0	60	38293
2026-01-03 04:06:48.45	206.70	2.04	-48.6	-60.6	3.6	8.46e-01	0	38	104	0	60	38581
2026-01-03 04:06:49.46	206.77	2.09	-48.6	-60.6	3.6	8.45e-01	0	38	104	0	60	38694
2026-01-03 04:06:50.47	206.83	2.15	-48.6	-60.5	3.6	8.45e-01	0	38	104	0	60	38456
2026-01-03 04:06:51.48	206.90	2.21	-48.5	-60.4	3.6	8.47e-01	0	38	104	0	60	37940
2026-01-03 04:06:52.49	206.97	2.26	-48.5	-60.4	3.6	8.46e-01	0	38	104	0	60	37785
2026-01-03 04:06:53.50	207.04	2.32	-48.6	-60.6	3.6	8.45e-01	0	38	104	0	60	38600
2026-01-03 04:06:54.51	207.11	2.38	-48.6	-60.6	3.6	8.45e-01	0	38	104	0	60	38889
2026-01-03 04:06:55.52	207.18	2.44	-48.5	-60.2	3.6	8.45e-01	0	38	104	0	60	36790
2026-01-03 04:06:56.53	207.25	2.49	-48.4	-58.8	3.6	8.44e-01	0	38	104	0	60	31483
2026-01-03 04:06:57.54	207.32	2.55	-48.2	-57.3	4.1	8.41e-01	0	38	104	0	60	26403
2026-01-03 04:06:58.55	207.39	2.61	-48.2	-55.8	3.8	8.30e-01	0	38	0	0	60	22255
2026-01-03 04:06:59.56	207.46	2.66	-48.2	-55.8	3.7	8.21e-01	0	38	0	0	60	22177
2026-01-03 04:07:00.57	207.53	2.72	-48.3	-58.2	3.7	8.41e-01	0	38	104	0	60	29312
2026-01-03 04:07:01.58	207.60	2.78	-48.4	-58.7	3.6	8.44e-01	0	38	104	0	60	31076
2026-01-03 04:07:02.59	207.68	2.84	-47.9	-55.3	5.0	8.24e-01	0	38	104	0	60	21097
2026-01-03 04:07:03.60	207.75	2.90	-47.0	-51.3	7.9	2.16e-01	0	38	0	3145728	60	13252
2026-01-03 04:07:04.61	207.82	2.95	-44.8	-47.3	12.3	4.84e-04	0	38	0	9437184	60	8333
2026-01-03 04:07:05.62	207.89	3.01	-43.6	-45.5	14.2	1.29e-04	0	38	0	14680064	60	6827
2026-01-03 04:07:06.63	207.96	3.07	-42.9	-44.6	15.1	0.00e+00	0	38	0	20971520	58	6897
2026-01-03 04:07:07.64	208.04	3.13	-42.2	-43.8	16.0	0.00e+00	0	38	0	26214400	58	6258
2026-01-03 04:07:08.65	208.11	3.19	-41.7	-43.1	16.4	0.00e+00	0	38	0	32505856	56	6538
2026-01-03 04:07:09.66	208.18	3.25	-41.4	-42.8	16.9	0.00e+00	0	38	0	37748736	56	6248
2026-01-03 04:07:10.67	208.26	3.30	-42.6	-44.2	15.4	2.20e-06	0	38	0	42991616	58	6573
2026-01-03 04:07:11.68	208.33	3.36	-42.0	-43.5	16.2	1.42e-04	0	38	0	49283072	58	6070
2026-01-03 04:07:12.69	208.41	3.42	-48.4	-59.9	3.6	8.28e-01	0	38	104	51380224	60	35621
2026-01-03 04:07:13.70	208.48	3.48	-46.8	-51.4	5.6	8.45e-01	0	38	104	51380224	60	13390
2026-01-03 04:07:14.71	208.56	3.54	-38.5	-39.4	19.3	5.22e-01	0	38	104	51380224	52	5330
2026-01-03 04:07:15.72	208.63	3.60	-39.7	-40.7	19.0	0.00e+00	0	38	0	54525952	50	6996
2026-01-03 04:07:16.73	208.71	3.66	-38.4	-39.3	20.4	0.00e+00	0	38	0	60817408	50	5930
2026-01-03 04:07:17.74	208.78	3.72	-38.3	-39.2	20.3	0.00e+00	0	38	0	66060288	50	5895
2026-01-03 04:07:18.75	208.86	3.77	-38.5	-39.4	20.6	0.00e+00	0	38	0	72351744	50	5981
2026-01-03 04:07:19.76	208.93	3.83	-38.3	-39.2	20.7	0.00e+00	0	38	0	77594624	48	6553
2026-01-03 04:07:20.77	209.01	3.89	-38.6	-39.5	20.3	0.00e+00	0	38	0	82837504	48	6827
2026-01-03 04:07:21.78	209.09	3.95	-38.7	-39.6	20.5	0.00e+00	0	38	0	89128960	50	6158
2026-01-03 04:07:22.80	209.17	4.01	-38.2	-39.1	20.8	0.00e+00	0	38	0	94371840	50	5797
2026-01-03 04:07:23.81	209.24	4.07	-37.9	-38.7	21.1	0.00e+00	0	38	0	100663296	50	5549
2026-01-03 04:07:24.81	209.32	4.13	-38.3	-39.2	20.8	0.00e+00	0	38	0	105906176	50	5847
2026-01-03 04:07:25.83	209.40	4.19	-37.9	-38.8	21.2	0.00e+00	0	38	0	111149056	50	5573
2026-01-03 04:07:26.84	209.48	4.25	-37.9	-38.7	21.0	0.00e+00	0	38	0	117440512	48	6243
2026-01-03 04:07:27.85	209.56	4.31	-37.7	-38.6	21.4	0.00e+00	0	38	0	122683392	48	6108
2026-01-03 04:07:28.86	209.63	4.37	-37.9	-38.8	21.2	0.00e+00	0	38	0	128974848	48	6250
2026-01-03 04:07:29.87	209.71	4.43	-37.9	-38.8	21.1	0.00e+00	0	38	0	134217728	48	6271
2026-01-03 04:07:30.88	209.79	4.49	-37.8	-38.7	21.2	0.00e+00	0	38	0	139460608	48	6201
2026-01-03 04:07:31.89	209.87	4.55	-37.9	-38.8	21.0	0.00e+00	0	38	0	145752064	48	6262
2026-01-03 04:07:32.90	209.95	4.61	-37.6	-38.4	21.5	0.00e+00	0	38	0	150994944	48	5994
2026-01-03 04:07:33.91	210.03	4.67	-38.0	-38.9	21.4	0.00e+00	0	38	0	157286400	48	6348
2026-01-03 04:07:34.92	210.12	4.73	-37.9	-38.8	21.2	0.00e+00	0	38	0	162529280	48	6272
2026-01-03 04:07:35.93	210.20	4.80	-37.7	-38.6	21.4	0.00e+00	0	38	0	168820736	48	6109
2026-01-03 04:07:36.94	210.28	4.86	-37.5	-38.3	21.7	0.00e+00	0	38	0	174063616	48	5908
2026-01-03 04:07:37.96	210.36	4.92	-38.3	-39.1	21.0	0.00e+00	0	38	0	180355072	48	6533
2026-01-03 04:07:38.97	210.44	4.98	-37.2	-38.0	22.0	0.00e+00	0	38	0	185597952	48	5697
2026-01-03 04:07:39.98	210.53	5.04	-37.8	-38.7	21.2	0.00e+00	0	38	0	190840832	48	6209
2026-01-03 04:07:40.99	210.61	5.10	-37.5	-38.3	21.7	0.00e+00	0	38	0	197132288	48	5941
2026-01-03 04:07:42.00	210.69	5.16	-37.7	-38.5	21.3	0.00e+00	0	38	0	202375168	48	6087
2026-01-03 04:07:43.01	210.77	5.22	-37.0	-37.8	22.3	0.00e+00	0	38	0	208666624	48	5588
2026-01-03 04:07:44.01	210.86	5.28	-37.4	-38.2	21.8	0.00e+00	0	38	0	213909504	48	5890
2026-01-03 04:07:45.02	210.94	5.35	-37.1	-37.9	22.1	0.00e+00	0	38	0	219152384	48	5635
2026-01-03 04:07:46.03	211.03	5.41	-37.6	-38.4	21.8	0.00e+00	0	38	0	225443840	48	6005
2026-01-03 04:07:47.04	211.11	5.47	-37.4	-38.2	22.0	0.00e+00	0	38	0	230686720	48	5843
2026-01-03 04:07:48.06	211.20	5.53	-37.2	-38.0	22.1	0.00e+00	0	38	0	236978176	48	5706
2026-01-03 04:07:49.06	211.28	5.59	-37.3	-38.1	22.0	0.00e+00	0	38	0	242221056	48	5764
2026-01-03 04:07:50.07	211.37	5.66	-37.7	-38.6	21.4	0.00e+00	0	38	0	247463936	48	6124
2026-01-03 04:07:51.09	211.46	5.72	-37.0	-37.8	22.3	0.00e+00	0	38	0	253755392	48	5568
2026-01-03 04:07:52.10	211.54	5.78	-36.9	-37.7	22.4	0.00e+00	0	38	0	258998272	48	5519
2026-01-03 04:07:53.11	211.63	5.84	-36.9	-37.6	22.5	0.00e+00	0	38	0	265289728	46	6158
2026-01-03 04:07:54.12	211.72	5.91	-36.1	-36.8	23.2	0.00e+00	0	38	0	270532608	46	5625
2026-01-03 04:07:55.13	211.80	5.97	-36.7	-37.5	22.7	0.00e+00	0	39	0	276824064	46	6035
2026-01-03 04:07:56.14	211.89	6.03	-36.6	-37.3	22.7	0.00e+00	0	38	0	282066944	46	5940
2026-01-03 04:07:57.15	211.98	6.09	-36.7	-37.5	22.7	0.00e+00	0	38	0	287309824	46	6035
2026-01-03 04:07:58.16	212.07	6.16	-36.7	-37.5	22.8	0.00e+00	0	38	0	293601280	46	6054
2026-01-03 04:07:59.17	212.16	6.22	-36.6	-37.3	22.8	0.00e+00	0	38	0	298844160	46	5959
2026-01-03 04:08:00.18	212.25	6.28	-36.7	-37.5	22.6	0.00e+00	0	39	0	305135616	46	6079
2026-01-03 04:08:01.19	212.34	6.35	-36.4	-37.2	22.9	0.00e+00	0	38	0	310378496	46	5837
2026-01-03 04:08:02.21	212.43	6.41	-36.9	-37.7	22.5	0.00e+00	0	38	0	316669952	46	6200
2026-01-03 04:08:03.22	212.52	6.47	-36.4	-37.2	23.0	0.00e+00	0	38	0	321912832	46	5841
2026-01-03 04:08:04.23	212.61	6.54	-36.8	-37.6	22.6	0.00e+00	0	38	0	327155712	46	6114
2026-01-03 04:08:05.24	212.70	6.60	-36.7	-37.5	22.7	0.00e+00	0	38	0	333447168	46	6051
2026-01-03 04:08:06.25	212.79	6.66	-36.6	-37.4	22.8	0.00e+00	0	38	0	338690048	46	6003
2026-01-03 04:08:07.26	212.88	6.73	-36.6	-37.4	22.8	0.00e+00	0	38	0	344981504	46	5986
2026-01-03 04:08:08.27	212.98	6.79	-36.7	-37.5	22.6	0.00e+00	0	39	0	350224384	46	6045
2026-01-03 04:08:09.28	213.07	6.85	-36.7	-37.4	23.0	0.00e+00	0	39	0	355467264	46	6002
2026-01-03 04:08:10.29	213.16	6.92	-36.9	-37.6	22.6	0.00e+00	0	39	0	361758720	46	6168
2026-01-03 04:08:11.30	213.26	6.98	-36.6	-37.3	22.9	0.00e+00	0	39	0	367001600	46	5946
2026-01-03 04:08:12.31	213.35	7.05	-36.4	-37.2	23.1	0.00e+00	0	39	0	373293056	46	5832
2026-01-03 04:08:13.32	213.45	7.11	-36.5	-37.2	22.9	0.00e+00	0	39	0	378535936	46	5889
2026-01-03 04:08:14.33	213.54	7.18	-36.9	-37.7	22.5	0.00e+00	0	39	0	384827392	46	6185
2026-01-03 04:08:15.34	213.64	7.24	-36.8	-37.6	22.8	0.00e+00	0	39	0	390070272	46	6130
2026-01-03 04:08:16.35	213.73	7.30	-36.1	-36.9	23.3	0.00e+00	0	39	0	396361728	46	5644
2026-01-03 04:08:17.36	213.83	7.37	-36.8	-37.5	22.7	0.00e+00	0	39	0	401604608	46	6091
2026-01-03 04:08:18.37	213.92	7.43	-36.0	-36.7	23.6	0.00e+00	0	39	0	406847488	46	5520
2026-01-03 04:08:19.38	214.02	7.50	-36.1	-36.9	23.3	0.00e+00	0	39	0	413138944	46	5646
2026-01-03 04:08:20.39	214.12	7.56	-36.2	-36.9	23.3	0.00e+00	0	39	0	418381824	46	5694
2026-01-03 04:08:21.40	214.22	7.63	-36.2	-37.0	23.2	0.00e+00	0	39	0	424673280	46	5723
2026-01-03 04:08:22.42	214.32	7.69	-36.4	-37.2	23.1	0.00e+00	0	39	0	429916160	46	5850
2026-01-03 04:08:23.42	214.41	7.76	-36.2	-36.9	23.4	0.00e+00	0	39	0	435159040	46	5674
2026-01-03 04:08:24.43	214.51	7.82	-36.1	-36.9	23.3	0.00e+00	0	39	0	441450496	46	5647
2026-01-03 04:08:25.45	214.61	7.89	-36.3	-37.1	23.2	0.00e+00	0	39	0	446693376	46	5764
2026-01-03 04:08:26.46	214.71	7.96	-36.2	-37.0	23.3	0.00e+00	0	38	0	452984832	46	5703
2026-01-03 04:08:27.47	214.81	8.02	-36.4	-37.1	23.2	0.00e+00	0	39	0	458227712	46	5799
2026-01-03 04:08:28.47	214.91	8.09	-36.2	-36.9	23.4	0.00e+00	0	38	0	463470592	46	5664
2026-01-03 04:08:29.48	215.01	8.15	-36.1	-36.8	23.3	0.00e+00	0	39	0	469762048	46	5616
2026-01-03 04:08:30.49	215.11	8.22	-35.9	-36.6	23.6	0.00e+00	0	39	0	475004928	46	5501
2026-01-03 04:08:31.50	215.22	8.28	-35.9	-36.6	23.7	0.00e+00	0	39	0	481296384	46	5462
2026-01-03 04:08:32.51	215.32	8.35	-35.9	-36.6	23.6	0.00e+00	0	39	0	486539264	44	6137
2026-01-03 04:08:33.52	215.42	8.42	-36.0	-36.7	23.5	0.00e+00	0	39	0	492830720	44	6208
2026-01-03 04:08:34.53	215.53	8.48	-35.8	-36.5	23.7	0.00e+00	0	39	0	498073600	44	6063
2026-01-03 04:08:35.55	215.63	8.55	-35.8	-36.6	23.7	0.00e+00	0	39	0	504365056	44	6106
2026-01-03 04:08:36.56	215.73	8.62	-35.7	-36.4	23.8	0.00e+00	0	39	0	509607936	44	6009
2026-01-03 04:08:37.57	215.84	8.68	-35.7	-36.4	23.8	0.00e+00	0	39	0	514850816	44	5975
2026-01-03 04:08:38.58	215.94	8.75	-35.9	-36.6	23.5	0.00e+00	0	39	0	521142272	44	6120
2026-01-03 04:08:39.59	216.05	8.82	-35.9	-36.6	23.6	0.00e+00	0	39	0	526385152	44	6158
2026-01-03 04:08:40.60	216.16	8.88	-35.9	-36.6	23.6	0.00e+00	0	39	0	532676608	44	6159
2026-01-03 04:08:41.61	216.26	8.95	-35.7	-36.4	23.8	0.00e+00	0	38	0	537919488	44	6005
2026-01-03 04:08:42.62	216.37	9.02	-36.0	-36.8	23.5	0.00e+00	0	38	0	543162368	44	6250
2026-01-03 04:08:43.63	216.48	9.08	-35.7	-36.4	23.9	0.00e+00	0	39	0	549453824	44	5988
2026-01-03 04:08:44.64	216.59	9.15	-35.6	-36.4	23.9	0.00e+00	0	39	0	554696704	44	5975
2026-01-03 04:08:45.65	216.69	9.22	-35.7	-36.4	23.8	0.00e+00	0	39	0	560988160	44	5984
2026-01-03 04:08:46.66	216.80	9.29	-35.6	-36.3	24.0	0.00e+00	0	39	0	566231040	44	5932
2026-01-03 04:08:47.67	216.91	9.35	-35.7	-36.4	23.9	0.00e+00	0	38	0	571473920	44	5972
2026-01-03 04:08:48.68	217.02	9.42	-35.5	-36.2	24.1	0.00e+00	0	38	0	577765376	44	5886
2026-01-03 04:08:49.69	217.13	9.49	-35.7	-36.4	23.9	0.00e+00	0	39	0	583008256	44	5981
2026-01-03 04:08:50.70	217.24	9.56	-35.7	-36.4	23.9	0.00e+00	0	39	0	589299712	44	5979
2026-01-03 04:08:51.72	217.36	9.63	-35.7	-36.4	23.8	0.00e+00	0	39	0	594542592	44	6031
2026-01-03 04:08:52.73	217.47	9.69	-35.8	-36.5	23.7	0.00e+00	0	39	0	599785472	44	6099
2026-01-03 04:08:53.74	217.58	9.76	-35.7	-36.5	23.8	0.00e+00	0	39	0	606076928	44	6042
2026-01-03 04:08:54.75	217.69	9.83	-35.6	-36.3	24.0	0.00e+00	0	39	0	611319808	44	5961
2026-01-03 04:08:55.76	217.81	9.90	-35.7	-36.5	23.8	0.00e+00	0	39	0	617611264	44	6045
2026-01-03 04:08:56.77	217.92	9.97	-35.6	-36.3	24.0	0.00e+00	0	39	0	622854144	44	5961
2026-01-03 04:08:57.78	218.04	10.04	-35.6	-36.3	24.0	0.00e+00	0	38	0	629145600	44	5923
2026-01-03 04:08:58.79	218.15	10.10	-35.5	-36.2	24.2	0.00e+00	0	38	0	634388480	44	5868
2026-01-03 04:08:59.80	218.27	10.17	-35.6	-36.3	24.1	0.00e+00	0	39	0	640679936	44	5909
2026-01-03 04:09:00.81	218.38	10.24	-35.3	-36.0	24.3	0.00e+00	0	39	0	645922816	44	5742
2026-01-03 04:09:01.82	218.50	10.31	-35.4	-36.1	24.3	0.00e+00	0	39	0	651165696	44	5803
2026-01-03 04:09:02.83	218.62	10.38	-35.1	-35.8	24.5	0.00e+00	0	39	0	657457152	44	5602
2026-01-03 04:09:03.84	218.73	10.45	-35.4	-36.1	24.3	0.00e+00	0	39	0	662700032	44	5779
2026-01-03 04:09:04.85	218.85	10.52	-35.2	-35.9	24.3	0.00e+00	0	39	0	668991488	44	5687
2026-01-03 04:09:05.86	218.97	10.59	-35.2	-35.9	24.4	0.00e+00	0	39	0	674234368	44	5654
2026-01-03 04:09:06.87	219.09	10.66	-35.4	-36.1	24.3	0.00e+00	0	38	0	679477248	44	5799
2026-01-03 04:09:07.88	219.21	10.73	-35.3	-36.0	24.2	0.00e+00	0	39	0	685768704	44	5759
2026-01-03 04:09:08.89	219.33	10.79	-35.3	-36.0	24.4	0.00e+00	0	39	0	691011584	44	5752
2026-01-03 04:09:09.90	219.45	10.86	-35.4	-36.1	24.2	0.00e+00	0	39	0	697303040	44	5815
2026-01-03 04:09:10.91	219.57	10.93	-35.3	-36.0	24.3	0.00e+00	0	39	0	702545920	44	5702
2026-01-03 04:09:11.92	219.69	11.00	-35.4	-36.1	24.3	0.00e+00	0	39	0	708837376	44	5795
2026-01-03 04:09:12.93	219.82	11.07	-35.4	-36.1	24.3	0.00e+00	0	38	0	714080256	44	5773
2026-01-03 04:09:13.94	219.94	11.14	-35.4	-36.1	24.3	0.00e+00	0	38	0	719323136	44	5824
2026-01-03 04:09:14.95	220.06	11.21	-35.1	-35.8	24.6	0.00e+00	0	39	0	725614592	44	5613
2026-01-03 04:09:15.96	220.19	11.28	-35.2	-35.9	24.5	0.00e+00	0	39	0	730857472	44	5651
2026-01-03 04:09:16.97	220.31	11.35	-35.1	-35.8	24.5	0.00e+00	0	39	0	737148928	44	5579
2026-01-03 04:09:17.99	220.44	11.42	-34.9	-35.6	24.7	0.00e+00	0	39	0	742391808	44	5479
2026-01-03 04:09:19.00	220.56	11.49	-34.7	-35.4	24.9	0.00e+00	0	39	0	748683264	44	5358
2026-01-03 04:09:20.01	220.69	11.57	-34.9	-35.6	24.8	0.00e+00	0	39	0	753926144	42	6146
2026-01-03 04:09:21.02	220.82	11.64	-35.0	-35.6	24.7	0.00e+00	0	39	0	759169024	42	6167
2026-01-03 04:09:22.03	220.95	11.71	-35.1	-35.7	24.7	0.00e+00	0	39	0	765460480	42	6234
2026-01-03 04:09:23.04	221.07	11.78	-35.1	-35.8	24.6	0.00e+00	0	39	0	770703360	42	6272
2026-01-03 04:09:24.05	221.20	11.85	-35.2	-35.9	24.5	0.00e+00	0	39	0	776994816	42	6353
2026-01-03 04:09:25.06	221.33	11.92	-35.3	-36.0	24.5	0.00e+00	0	39	0	782237696	42	6417
2026-01-03 04:09:26.07	221.46	11.99	-35.0	-35.7	24.7	0.00e+00	0	39	0	787480576	42	6218
2026-01-03 04:09:27.08	221.59	12.06	-34.9	-35.6	24.8	0.00e+00	0	39	0	793772032	42	6155
2026-01-03 04:09:28.09	221.73	12.13	-35.1	-35.8	24.6	0.00e+00	0	39	0	799014912	42	6287
2026-01-03 04:09:29.10	221.86	12.20	-35.0	-35.7	24.7	0.00e+00	0	38	0	805306368	42	6211
2026-01-03 04:09:30.11	221.99	12.27	-34.9	-35.6	24.8	0.00e+00	0	39	0	810549248	42	6147
2026-01-03 04:09:31.12	222.12	12.34	-34.9	-35.6	24.8	0.00e+00	0	39	0	816840704	42	6150
2026-01-03 04:09:32.13	222.26	12.42	-34.9	-35.6	24.8	0.00e+00	0	39	0	822083584	42	6128
2026-01-03 04:09:33.14	222.39	12.49	-35.0	-35.7	24.7	0.00e+00	0	39	0	827326464	42	6188
2026-01-03 04:09:34.15	222.53	12.56	-35.0	-35.7	24.8	0.00e+00	0	39	0	833617920	42	6189
2026-01-03 04:09:35.17	222.66	12.63	-35.1	-35.8	24.7	0.00e+00	0	39	0	838860800	42	6298
2026-01-03 04:09:36.18	222.80	12.70	-35.1	-35.8	24.7	0.00e+00	0	39	0	845152256	42	6261
2026-01-03 04:09:37.19	222.94	12.77	-35.0	-35.7	24.7	0.00e+00	0	39	0	850395136	42	6228
2026-01-03 04:09:38.20	223.07	12.85	-34.9	-35.6	24.8	0.00e+00	0	39	0	856686592	42	6111
2026-01-03 04:09:39.21	223.21	12.92	-34.9	-35.6	24.8	0.00e+00	0	39	0	861929472	42	6158
2026-01-03 04:09:40.22	223.35	12.99	-34.7	-35.4	25.0	0.00e+00	0	39	0	867172352	42	6005
2026-01-03 04:09:41.23	223.49	13.06	-34.7	-35.4	25.0	0.00e+00	0	39	0	873463808	42	5987
2026-01-03 04:09:42.24	223.63	13.13	-34.8	-35.4	25.0	0.00e+00	0	39	0	878706688	42	6022
2026-01-03 04:09:43.25	223.77	13.20	-34.5	-35.2	25.2	0.00e+00	0	39	0	884998144	42	5884
2026-01-03 04:09:44.26	223.91	13.28	-34.7	-35.3	25.1	0.00e+00	0	39	0	890241024	42	5961
2026-01-03 04:09:45.27	224.06	13.35	-34.6	-35.3	25.2	0.00e+00	0	39	0	895483904	42	5899
2026-01-03 04:09:46.28	224.20	13.42	-34.6	-35.3	25.1	0.00e+00	0	39	0	901775360	42	5912
2026-01-03 04:09:47.29	224.34	13.49	-34.7	-35.3	25.1	0.00e+00	0	39	0	907018240	42	5959
2026-01-03 04:09:48.30	224.49	13.57	-34.7	-35.4	25.0	0.00e+00	0	39	0	913309696	42	5994
2026-01-03 04:09:49.31	224.63	13.64	-34.6	-35.3	25.1	0.00e+00	0	39	0	918552576	42	5923
2026-01-03 04:09:50.32	224.78	13.71	-34.5	-35.2	25.2	0.00e+00	0	39	0	923795456	42	5844
2026-01-03 04:09:51.34	224.93	13.78	-34.4	-35.1	25.3	0.00e+00	0	39	0	930086912	42	5786
2026-01-03 04:09:52.35	225.07	13.86	-34.4	-35.1	25.4	0.00e+00	0	39	0	935329792	42	5771
2026-01-03 04:09:53.36	225.22	13.93	-34.4	-35.1	25.4	0.00e+00	0	39	0	941621248	42	5766
2026-01-03 04:09:54.37	225.37	14.00	-34.4	-35.1	25.3	0.00e+00	0	39	0	946864128	42	5766
2026-01-03 04:09:55.38	225.52	14.07	-34.5	-35.2	25.2	0.00e+00	0	39	0	953155584	42	5869
2026-01-03 04:09:56.39	225.67	14.15	-34.5	-35.2	25.3	0.00e+00	0	39	0	958398464	42	5846
2026-01-03 04:09:57.40	225.82	14.22	-34.5	-35.1	25.2	0.00e+00	0	39	0	964689920	42	5810
2026-01-03 04:09:58.41	225.97	14.29	-34.4	-35.1	25.4	0.00e+00	0	39	0	969932800	42	5793
2026-01-03 04:09:59.42	226.12	14.36	-34.4	-35.0	25.4	0.00e+00	0	39	0	975175680	42	5756
2026-01-03 04:10:00.43	226.27	14.44	-34.2	-34.9	25.5	0.00e+00	0	39	0	981467136	42	5684
2026-01-03 04:10:01.44	226.43	14.51	-34.2	-34.8	25.5	0.00e+00	0	39	0	986710016	42	5603
2026-01-03 04:10:02.45	226.58	14.58	-34.0	-34.7	25.6	0.00e+00	0	39	0	993001472	42	5555
2026-01-03 04:10:03.46	226.74	14.65	-34.0	-34.6	25.7	0.00e+00	0	39	0	998244352	42	5481
2026-01-03 04:10:04.47	226.89	14.73	-33.9	-34.5	25.8	0.00e+00	0	39	0	1003487232	42	5424
2026-01-03 04:10:05.48	227.05	14.80	-33.8	-34.4	25.9	0.00e+00	0	39	0	1009778688	42	5364
2026-01-03 04:10:06.49	227.21	14.87	-33.9	-34.5	25.8	0.00e+00	0	39	0	1015021568	42	5423
2026-01-03 04:10:07.50	227.36	14.95	-33.9	-34.6	25.8	0.00e+00	0	39	0	1021313024	42	5453
2026-01-03 04:10:08.51	227.52	15.02	-34.0	-34.7	25.7	0.00e+00	0	39	0	1026555904	42	5533
2026-01-03 04:10:09.52	227.68	15.09	-34.0	-34.7	25.7	0.00e+00	0	39	0	1031798784	42	5512
2026-01-03 04:10:10.53	227.84	15.16	-33.9	-34.6	25.8	0.00e+00	0	39	0	1038090240	42	5445
2026-01-03 04:10:11.54	228.00	15.24	-34.1	-34.8	25.6	0.00e+00	0	39	0	1043333120	42	5592
2026-01-03 04:10:12.55	228.16	15.31	-34.0	-34.7	25.7	0.00e+00	0	39	0	1049624576	42	5515
2026-01-03 04:10:13.57	228.33	15.38	-34.2	-34.9	25.5	0.00e+00	0	39	0	1054867456	42	5654
2026-01-03 04:10:14.58	228.49	15.46	-33.9	-34.5	25.8	0.00e+00	0	39	0	1061158912	42	5438
2026-01-03 04:10:15.59	228.66	15.53	-33.8	-34.5	26.0	0.00e+00	0	39	0	1066401792	42	5380
2026-01-03 04:10:16.60	228.82	15.60	-33.9	-34.6	25.7	0.00e+00	0	39	0	1072693248	42	5461
2026-01-03 04:10:17.61	228.99	15.68	-34.1	-34.8	25.8	0.00e+00	0	39	0	1077936128	42	5581
2026-01-03 04:10:18.62	229.15	15.75	-34.2	-34.9	25.6	0.00e+00	0	39	0	1083179008	42	5640
2026-01-03 04:10:19.63	229.32	15.82	-34.2	-34.8	25.6	0.00e+00	0	39	0	1089470464	42	5590
2026-01-03 04:10:20.64	229.49	15.89	-34.2	-34.9	25.6	0.00e+00	0	39	0	1094713344	42	5644
2026-01-03 04:10:21.65	229.66	15.97	-34.2	-34.8	25.6	0.00e+00	0	39	0	1101004800	42	5626
2026-01-03 04:10:22.66	229.82	16.04	-34.0	-34.6	25.8	0.00e+00	0	39	0	1106247680	42	5492
2026-01-03 04:10:23.67	229.99	16.11	-34.1	-34.8	25.7	0.00e+00	0	39	0	1111490560	42	5572
2026-01-03 04:10:24.68	230.17	16.19	-34.0	-34.6	25.8	0.00e+00	0	39	0	1117782016	42	5463
2026-01-03 04:10:25.69	230.34	16.26	-33.9	-34.6	25.8	0.00e+00	0	39	0	1123024896	42	5495
2026-01-03 04:10:26.70	230.51	16.33	-33.9	-34.5	25.8	0.00e+00	0	39	0	1129316352	42	5435
2026-01-03 04:10:27.71	230.68	16.40	-33.9	-34.6	25.9	0.00e+00	0	39	0	1134559232	42	5472
2026-01-03 04:10:28.72	230.86	16.48	-33.8	-34.4	25.9	0.00e+00	0	39	0	1139802112	40	6032
2026-01-03 04:10:29.73	231.03	16.55	-33.8	-34.5	25.9	0.00e+00	0	39	0	1146093568	40	6039
2026-01-03 04:10:30.74	231.21	16.62	-33.6	-34.3	26.0	0.00e+00	0	39	0	1151336448	40	5913
2026-01-03 04:10:31.76	231.39	16.70	-34.0	-34.6	25.8	0.00e+00	0	39	0	1157627904	40	6173
2026-01-03 04:10:32.77	231.57	16.77	-34.0	-34.7	25.7	0.00e+00	0	39	0	1162870784	40	6174
2026-01-03 04:10:33.78	231.74	16.84	-33.9	-34.5	25.9	0.00e+00	0	39	0	1169162240	40	6102
2026-01-03 04:10:34.79	231.92	16.91	-33.9	-34.6	25.9	0.00e+00	0	39	0	1174405120	40	6119
2026-01-03 04:10:35.80	232.10	16.99	-33.8	-34.5	25.9	0.00e+00	0	39	0	1180696576	40	6040
2026-01-03 04:10:36.81	232.28	17.06	-33.8	-34.4	25.9	0.00e+00	0	39	0	1185939456	40	6014
2026-01-03 04:10:37.82	232.47	17.13	-33.6	-34.3	26.0	0.00e+00	0	39	0	1191182336	40	5915
2026-01-03 04:10:38.83	232.65	17.20	-33.7	-34.3	26.1	0.00e+00	0	39	0	1197473792	40	5949
2026-01-03 04:10:39.84	232.83	17.28	-33.8	-34.5	25.9	0.00e+00	0	39	0	1202716672	40	6051
2026-01-03 04:10:40.85	233.02	17.35	-33.7	-34.4	25.9	0.00e+00	0	39	0	1209008128	40	5995
2026-01-03 04:10:41.86	233.20	17.42	-34.0	-34.7	25.8	0.00e+00	0	39	0	1214251008	40	6194
2026-01-03 04:10:42.87	233.39	17.49	-34.1	-34.7	25.7	0.00e+00	0	39	0	1219493888	40	6235
2026-01-03 04:10:43.88	233.57	17.56	-33.6	-34.2	26.2	0.00e+00	0	39	0	1225785344	40	5888
2026-01-03 04:10:44.89	233.76	17.64	-33.6	-34.3	26.1	0.00e+00	0	39	0	1231028224	40	5926
2026-01-03 04:10:45.90	233.95	17.71	-33.6	-34.3	26.1	0.00e+00	0	39	0	1237319680	40	5930
2026-01-03 04:10:46.91	234.14	17.78	-33.8	-34.4	25.9	0.00e+00	0	39	0	1242562560	40	5993
2026-01-03 04:10:47.92	234.33	17.85	-33.6	-34.2	26.2	0.00e+00	0	39	0	1247805440	40	5868
2026-01-03 04:10:48.93	234.52	17.92	-33.5	-34.1	26.2	0.00e+00	0	39	0	1254096896	40	5804
2026-01-03 04:10:49.94	234.71	17.99	-33.6	-34.2	26.1	0.00e+00	0	39	0	1259339776	40	5886
2026-01-03 04:10:50.95	234.91	18.07	-33.5	-34.2	26.2	0.00e+00	0	39	0	1265631232	40	5854
2026-01-03 04:10:51.96	235.10	18.14	-33.7	-34.3	26.1	0.00e+00	0	39	0	1270874112	40	5960
2026-01-03 04:10:52.97	235.30	18.21	-33.4	-34.1	26.3	0.00e+00	0	39	0	1277165568	40	5767
2026-01-03 04:10:53.98	235.49	18.28	-33.2	-33.9	26.4	0.00e+00	0	39	0	1282408448	40	5643
2026-01-03 04:10:54.99	235.69	18.35	-33.4	-34.0	26.3	0.00e+00	0	39	0	1288699904	40	5729
2026-01-03 04:10:56.00	235.89	18.42	-33.3	-33.9	26.4	0.00e+00	0	39	0	1293942784	40	5680
2026-01-03 04:10:57.01	236.08	18.49	-33.5	-34.1	26.3	0.00e+00	0	39	0	1299185664	40	5824
2026-01-03 04:10:58.02	236.28	18.56	-33.3	-34.0	26.4	0.00e+00	0	39	0	1305477120	40	5727
2026-01-03 04:10:59.03	236.48	18.63	-33.4	-34.0	26.3	0.00e+00	0	39	0	1310720000	40	5740
2026-01-03 04:11:00.04	236.69	18.70	-33.2	-33.8	26.5	0.00e+00	0	39	0	1317011456	40	5630
2026-01-03 04:11:01.05	236.89	18.77	-33.2	-33.8	26.5	0.00e+00	0	39	0	1322254336	40	5605
2026-01-03 04:11:02.06	237.09	18.84	-33.1	-33.8	26.5	0.00e+00	0	39	0	1327497216	40	5572
2026-01-03 04:11:03.07	237.29	18.91	-33.2	-33.8	26.4	0.00e+00	0	39	0	1333788672	40	5628
2026-01-03 04:11:04.08	237.50	18.98	-33.1	-33.8	26.6	0.00e+00	0	39	0	1339031552	40	5567
2026-01-03 04:11:05.09	237.70	19.05	-33.1	-33.7	26.5	0.00e+00	0	39	0	1345323008	40	5550
2026-01-03 04:11:06.10	237.91	19.12	-33.2	-33.8	26.5	0.00e+00	0	39	0	1350565888	40	5603
2026-01-03 04:11:07.11	238.12	19.19	-33.1	-33.7	26.6	0.00e+00	0	39	0	1355808768	40	5549
2026-01-03 04:11:08.12	238.33	19.26	-33.1	-33.8	26.5	0.00e+00	0	39	0	1362100224	40	5570
2026-01-03 04:11:09.13	238.54	19.33	-33.2	-33.9	26.6	0.00e+00	0	39	0	1367343104	40	5647
2026-01-03 04:11:10.14	238.75	19.39	-33.4	-34.0	26.3	0.00e+00	0	39	0	1373634560	40	5732
2026-01-03 04:11:11.15	238.96	19.46	-33.5	-34.1	26.3	0.00e+00	0	39	0	1378877440	40	5803
2026-01-03 04:11:12.16	239.17	19.53	-33.1	-33.8	26.5	0.00e+00	0	39	0	1385168896	40	5571
2026-01-03 04:11:13.17	239.38	19.60	-33.2	-33.9	26.4	0.00e+00	0	39	0	1390411776	40	5667
2026-01-03 04:11:14.19	239.60	19.67	-33.3	-33.9	26.4	0.00e+00	0	39	0	1395654656	40	5671
2026-01-03 04:11:15.20	239.81	19.74	-33.1	-33.7	26.5	0.00e+00	0	39	0	1401946112	40	5560
2026-01-03 04:11:16.21	240.03	19.80	-33.0	-33.6	26.7	0.00e+00	0	39	0	1407188992	40	5459
2026-01-03 04:11:17.22	240.24	19.87	-33.1	-33.7	26.5	0.00e+00	0	39	0	1413480448	40	5556
2026-01-03 04:11:18.23	240.46	19.94	-33.2	-33.8	26.5	0.00e+00	0	39	0	1418723328	40	5591
2026-01-03 04:11:19.24	240.68	20.00	-33.2	-33.8	26.4	0.00e+00	0	39	0	1425014784	40	5585
2026-01-03 04:11:20.25	240.90	20.07	-33.3	-33.9	26.4	0.00e+00	0	39	0	1430257664	40	5689
2026-01-03 04:11:21.26	241.12	20.14	-33.2	-33.9	26.3	0.00e+00	0	39	0	1435500544	40	5661
2026-01-03 04:11:22.27	241.34	20.20	-33.0	-33.7	26.5	0.00e+00	0	39	0	1441792000	40	5512
2026-01-03 04:11:23.28	241.56	20.27	-33.1	-33.7	26.6	0.00e+00	0	39	0	1447034880	40	5558
2026-01-03 04:11:24.29	241.79	20.33	-33.1	-33.7	26.5	0.00e+00	0	39	0	1453326336	40	5566
2026-01-03 04:11:25.30	242.01	20.40	-33.1	-33.8	26.5	0.00e+00	0	39	0	1458569216	40	5596
2026-01-03 04:11:26.31	242.24	20.46	-33.1	-33.7	26.5	0.00e+00	0	39	0	1463812096	40	5553
2026-01-03 04:11:27.33	242.46	20.53	-33.2	-33.8	26.4	0.00e+00	0	39	0	1470103552	40	5619
2026-01-03 04:11:28.34	242.69	20.59	-33.1	-33.8	26.5	0.00e+00	0	39	0	1475346432	40	5584
2026-01-03 04:11:29.34	242.92	20.66	-33.1	-33.7	26.6	0.00e+00	0	39	0	1481637888	40	5512
2026-01-03 04:11:30.35	243.15	20.72	-32.9	-33.6	26.7	0.00e+00	0	39	0	1486880768	40	5448
2026-01-03 04:11:31.37	243.38	20.78	-32.8	-33.4	26.9	0.00e+00	0	39	0	1493172224	38	5983
2026-01-03 04:11:32.38	243.61	20.85	-32.8	-33.5	26.9	0.00e+00	0	39	0	1498415104	38	6049
2026-01-03 04:11:33.39	243.84	20.91	-32.9	-33.6	26.7	0.00e+00	0	39	0	1503657984	38	6140
2026-01-03 04:11:34.40	244.07	20.97	-33.0	-33.7	26.7	0.00e+00	0	39	0	1509949440	38	6181
2026-01-03 04:11:35.41	244.30	21.03	-33.2	-33.8	26.5	0.00e+00	0	39	0	1515192320	38	6295
2026-01-03 04:11:36.42	244.54	21.10	-33.0	-33.7	26.6	0.00e+00	0	39	0	1521483776	38	6204
2026-01-03 04:11:37.43	244.77	21.16	-33.2	-33.8	26.6	0.00e+00	0	39	0	1526726656	38	6305
2026-01-03 04:11:38.44	245.01	21.22	-32.7	-33.4	26.9	0.00e+00	0	39	0	1531969536	38	5969
2026-01-03 04:11:39.45	245.25	21.28	-32.8	-33.4	26.8	0.00e+00	0	39	0	1538260992	38	6017
2026-01-03 04:11:40.46	245.48	21.34	-32.6	-33.2	27.0	0.00e+00	0	39	0	1543503872	38	5863
2026-01-03 04:11:41.47	245.72	21.40	-32.4	-33.0	27.2	0.00e+00	0	39	0	1549795328	38	5754
2026-01-03 04:11:42.48	245.96	21.46	-32.5	-33.1	27.2	0.00e+00	0	39	0	1555038208	38	5774
2026-01-03 04:11:43.49	246.20	21.52	-32.5	-33.1	27.0	0.00e+00	0	39	0	1561329664	38	5792
2026-01-03 04:11:44.50	246.44	21.58	-32.7	-33.3	26.9	0.00e+00	0	39	0	1566572544	38	5944
2026-01-03 04:11:45.51	246.69	21.64	-33.0	-33.7	26.7	0.00e+00	0	39	0	1571815424	38	6184
2026-01-03 04:11:46.52	246.93	21.70	-32.9	-33.6	26.8	0.00e+00	0	39	0	1578106880	38	6123
2026-01-03 04:11:47.53	247.17	21.75	-32.8	-33.5	26.8	0.00e+00	0	39	0	1583349760	38	6041
2026-01-03 04:11:48.54	247.42	21.81	-32.9	-33.6	26.7	0.00e+00	0	39	0	1589641216	38	6115
2026-01-03 04:11:49.55	247.66	21.87	-32.8	-33.5	26.8	0.00e+00	0	39	0	1594884096	38	6060
2026-01-03 04:11:50.56	247.91	21.93	-32.5	-33.2	27.0	0.00e+00	0	39	0	1601175552	38	5849
2026-01-03 04:11:51.57	248.16	21.98	-32.6	-33.3	26.9	0.00e+00	0	39	0	1606418432	38	5900
2026-01-03 04:11:52.58	248.41	22.04	-32.7	-33.4	26.9	0.00e+00	0	39	0	1611661312	38	5968
2026-01-03 04:11:53.59	248.66	22.09	-32.4	-33.0	27.1	0.00e+00	0	39	0	1617952768	38	5749
2026-01-03 04:11:54.60	248.91	22.15	-32.6	-33.2	27.0	0.00e+00	0	39	0	1623195648	38	5858
2026-01-03 04:11:55.61	249.16	22.20	-32.3	-32.9	27.2	0.00e+00	0	39	0	1629487104	38	5667
2026-01-03 04:11:56.62	249.41	22.26	-32.5	-33.1	27.0	0.00e+00	0	39	0	1634729984	38	5795
2026-01-03 04:11:57.63	249.66	22.31	-32.5	-33.1	27.1	0.00e+00	0	39	0	1639972864	38	5803
2026-01-03 04:11:58.64	249.92	22.37	-32.5	-33.2	27.1	0.00e+00	0	39	0	1646264320	38	5838
2026-01-03 04:11:59.65	250.17	22.42	-32.5	-33.1	27.1	0.00e+00	0	39	0	1651507200	38	5815
2026-01-03 04:12:00.66	250.43	22.47	-32.3	-33.0	27.2	0.00e+00	0	39	0	1657798656	38	5720
2026-01-03 04:12:01.67	250.68	22.52	-32.4	-33.0	27.2	0.00e+00	0	39	0	1663041536	38	5748
2026-01-03 04:12:02.68	250.94	22.57	-32.0	-32.6	27.5	0.00e+00	0	39	0	1668284416	38	5484
2026-01-03 04:12:03.69	251.20	22.63	-32.2	-32.8	27.2	0.00e+00	0	39	0	1674575872	38	5625
2026-01-03 04:12:04.70	251.46	22.68	-32.3	-32.9	27.3	0.00e+00	0	39	0	1679818752	38	5643
2026-01-03 04:12:05.71	251.72	22.73	-32.4	-33.1	27.2	0.00e+00	0	39	0	1686110208	38	5764
2026-01-03 04:12:06.72	251.98	22.78	-32.3	-33.0	27.1	0.00e+00	0	39	0	1691353088	38	5703
2026-01-03 04:12:07.73	252.24	22.82	-32.4	-33.0	27.2	0.00e+00	0	39	0	1697644544	38	5709
2026-01-03 04:12:08.74	252.50	22.87	-32.3	-32.9	27.2	0.00e+00	0	39	0	1702887424	38	5655
2026-01-03 04:12:09.75	252.76	22.92	-32.4	-33.0	27.1	0.00e+00	0	39	0	1709178880	38	5746
2026-01-03 04:12:10.76	253.02	22.97	-32.3	-33.0	27.2	0.00e+00	0	39	0	1714421760	38	5704
2026-01-03 04:12:11.77	253.29	23.02	-32.3	-32.9	27.2	0.00e+00	0	39	0	1719664640	38	5672
2026-01-03 04:12:12.78	253.55	23.06	-32.3	-32.9	27.3	0.00e+00	0	39	0	1725956096	38	5647
2026-01-03 04:12:13.79	253.82	23.11	-32.2	-32.8	27.3	0.00e+00	0	39	0	1731198976	38	5628
2026-01-03 04:12:14.80	254.09	23.15	-32.2	-32.9	27.3	0.00e+00	0	39	0	1737490432	38	5633
2026-01-03 04:12:15.81	254.35	23.20	-32.3	-32.9	27.2	0.00e+00	0	39	0	1742733312	38	5695
2026-01-03 04:12:16.82	254.62	23.24	-32.2	-32.8	27.3	0.00e+00	0	39	0	1747976192	38	5608
2026-01-03 04:12:17.83	254.89	23.29	-32.3	-32.9	27.2	0.00e+00	0	39	0	1754267648	38	5659
2026-01-03 04:12:18.84	255.16	23.33	-32.3	-32.9	27.2	0.00e+00	0	39	0	1759510528	38	5643
2026-01-03 04:12:19.85	255.43	23.37	-32.3	-32.9	27.2	0.00e+00	0	39	0	1765801984	38	5659
2026-01-03 04:12:20.86	255.70	23.41	-32.3	-33.0	27.2	0.00e+00	0	39	0	1771044864	38	5706
2026-01-03 04:12:21.87	255.97	23.45	-32.3	-32.9	27.3	0.00e+00	0	39	0	1776287744	38	5653
2026-01-03 04:12:22.88	256.24	23.50	-32.1	-32.7	27.5	0.00e+00	0	39	0	1782579200	38	5509
2026-01-03 04:12:23.89	256.52	23.54	-32.3	-32.9	27.3	0.00e+00	0	39	0	1787822080	38	5669
2026-01-03 04:12:24.90	256.79	23.57	-32.3	-32.9	27.3	0.00e+00	0	39	0	1794113536	38	5659
2026-01-03 04:12:25.91	257.07	23.61	-32.2	-32.8	27.4	0.00e+00	0	39	0	1799356416	38	5611
2026-01-03 04:12:26.92	257.34	23.65	-32.3	-32.9	27.2	0.00e+00	0	39	0	1805647872	38	5663
2026-01-03 04:12:27.93	257.62	23.69	-32.2	-32.9	27.3	0.00e+00	0	39	0	1810890752	38	5639
2026-01-03 04:12:28.94	257.89	23.73	-32.3	-32.9	27.4	0.00e+00	0	39	0	1817182208	38	5662
2026-01-03 04:12:29.95	258.17	23.76	-32.2	-32.8	27.4	0.00e+00	0	39	0	1822425088	38	5598
2026-01-03 04:12:30.96	258.45	23.80	-32.2	-32.8	27.4	0.00e+00	0	39	0	1827667968	38	5601
2026-01-03 04:12:31.97	258.72	23.83	-32.1	-32.7	27.4	0.00e+00	0	39	0	1833959424	38	5516
2026-01-03 04:12:32.99	259.01	23.87	-32.2	-32.8	27.3	0.00e+00	0	39	0	1839202304	38	5592
2026-01-03 04:12:34.00	259.29	23.90	-32.3	-32.9	27.2	0.00e+00	0	39	0	1845493760	38	5662
2026-01-03 04:12:35.01	259.57	23.94	-32.3	-33.0	27.4	0.00e+00	0	39	0	1850736640	38	5696
2026-01-03 04:12:36.01	259.84	23.97	-32.1	-32.7	27.4	0.00e+00	0	39	0	1855979520	38	5504
2026-01-03 04:12:37.02	260.12	24.00	-32.0	-32.7	27.5	0.00e+00	0	39	0	1862270976	38	5507
2026-01-03 04:12:38.03	260.41	24.03	-32.2	-32.9	27.4	0.00e+00	0	39	0	1867513856	38	5647
2026-01-03 04:12:39.04	260.69	24.06	-32.2	-32.8	27.4	0.00e+00	0	39	0	1873805312	38	5610
2026-01-03 04:12:40.05	260.97	24.09	-32.2	-32.8	27.4	0.00e+00	0	39	0	1879048192	38	5589
2026-01-03 04:12:41.06	261.25	24.12	-32.1	-32.7	27.5	0.00e+00	0	39	0	1884291072	38	5563
2026-01-03 04:12:42.07	261.54	24.15	-32.0	-32.7	27.5	0.00e+00	0	39	0	1890582528	38	5512
2026-01-03 04:12:43.08	261.82	24.18	-31.9	-32.5	27.6	0.00e+00	0	39	0	1895825408	38	5425
2026-01-03 04:12:44.10	262.11	24.20	-31.8	-32.4	27.7	0.00e+00	0	39	0	1902116864	38	5356
2026-01-03 04:12:45.10	262.39	24.23	-31.8	-32.5	27.7	0.00e+00	0	39	0	1907359744	38	5402
2026-01-03 04:12:46.11	262.68	24.26	-31.9	-32.5	27.6	0.00e+00	0	39	0	1913651200	38	5408
2026-01-03 04:12:47.12	262.96	24.28	-31.8	-32.5	27.6	0.00e+00	0	39	0	1918894080	38	5378
2026-01-03 04:12:48.13	263.25	24.31	-31.8	-32.4	27.8	0.00e+00	0	39	0	1924136960	38	5368
2026-01-03 04:12:49.14	263.54	24.33	-31.9	-32.5	27.5	0.00e+00	0	39	0	1930428416	38	5421
2026-01-03 04:12:50.16	263.83	24.35	-31.9	-32.5	27.7	0.00e+00	0	39	0	1935671296	38	5384
2026-01-03 04:12:51.17	264.11	24.37	-31.8	-32.5	27.7	0.00e+00	0	39	0	1941962752	38	5380
2026-01-03 04:12:52.18	264.40	24.40	-32.0	-32.6	27.5	0.00e+00	0	39	0	1947205632	38	5469
2026-01-03 04:12:53.19	264.69	24.42	-32.0	-32.6	27.5	0.00e+00	0	39	0	1952448512	38	5475
2026-01-03 04:12:54.20	264.98	24.44	-32.1	-32.7	27.4	0.00e+00	0	39	0	1958739968	38	5519
2026-01-03 04:12:55.21	265.27	24.45	-32.1	-32.8	27.4	0.00e+00	0	39	0	1963982848	38	5593
2026-01-03 04:12:56.22	265.56	24.47	-31.8	-32.4	27.6	0.00e+00	0	39	0	1970274304	38	5375
2026-01-03 04:12:57.23	265.85	24.49	-31.8	-32.4	27.7	0.00e+00	0	39	0	1975517184	36	6006
2026-01-03 04:12:58.24	266.14	24.51	-31.7	-32.3	27.6	0.00e+00	0	39	0	1980760064	36	5938
2026-01-03 04:12:59.25	266.43	24.52	-31.9	-32.5	27.7	0.00e+00	0	39	0	1987051520	36	6091
2026-01-03 04:13:00.26	266.72	24.54	-32.1	-32.7	27.4	0.00e+00	0	39	0	1992294400	36	6227
2026-01-03 04:13:01.27	267.01	24.55	-32.3	-32.9	27.3	0.00e+00	0	39	0	1998585856	36	6335
2026-01-03 04:13:02.28	267.30	24.57	-32.3	-32.9	27.3	0.00e+00	0	39	0	2003828736	36	6352
2026-01-03 04:13:03.29	267.59	24.58	-32.1	-32.7	27.4	0.00e+00	0	39	0	2010120192	36	6237
2026-01-03 04:13:04.30	267.88	24.59	-32.0	-32.7	27.5	0.00e+00	0	39	0	2015363072	36	6213
2026-01-03 04:13:05.31	268.17	24.61	-32.0	-32.7	27.5	0.00e+00	0	39	0	2021654528	36	6186
2026-01-03 04:13:06.32	268.47	24.62	-31.9	-32.5	27.5	0.00e+00	0	39	0	2026897408	36	6097
2026-01-03 04:13:07.33	268.76	24.63	-32.0	-32.6	27.5	0.00e+00	0	39	0	2032140288	36	6122
2026-01-03 04:13:08.34	269.05	24.64	-32.1	-32.8	27.4	0.00e+00	0	39	0	2038431744	36	6255
2026-01-03 04:13:09.35	269.34	24.64	-32.1	-32.7	27.5	0.00e+00	0	39	0	2043674624	36	6211
2026-01-03 04:13:10.36	269.64	24.65	-32.0	-32.6	27.5	0.00e+00	0	39	0	2049966080	36	6108
2026-01-03 04:13:11.37	269.93	24.66	-32.0	-32.6	27.5	0.00e+00	0	39	0	2055208960	36	6167
2026-01-03 04:13:12.38	270.22	24.67	-32.0	-32.6	27.5	0.00e+00	0	39	0	2060451840	36	6164
2026-01-03 04:13:13.39	270.52	24.67	-31.9	-32.6	27.5	0.00e+00	0	39	0	2066743296	36	6113
2026-01-03 04:13:14.40	270.81	24.68	-31.8	-32.5	27.6	0.00e+00	0	39	0	2071986176	36	6036
2026-01-03 04:13:15.41	271.10	24.68	-31.9	-32.5	27.6	0.00e+00	0	39	0	2078277632	36	6084
2026-01-03 04:13:16.42	271.40	24.68	-32.1	-32.6	27.5	0.00e+00	0	39	0	2083520512	36	6163
2026-01-03 04:13:17.43	271.69	24.69	-32.2	-32.8	27.4	0.00e+00	0	39	0	2088763392	36	6258
2026-01-03 04:13:18.44	271.98	24.69	-32.2	-32.8	27.4	0.00e+00	0	39	0	2095054848	36	6308
2026-01-03 04:13:19.45	272.28	24.69	-32.2	-32.8	27.4	0.00e+00	0	39	0	2100297728	36	6263
2026-01-03 04:13:20.46	272.57	24.69	-32.0	-32.6	27.6	0.00e+00	0	39	0	2106589184	36	6133
2026-01-03 04:13:21.47	272.86	24.69	-31.9	-32.5	27.5	0.00e+00	0	39	0	2111832064	36	6062
2026-01-03 04:13:22.48	273.16	24.69	-31.9	-32.6	27.6	0.00e+00	0	39	0	2118123520	36	6135
2026-01-03 04:13:23.49	273.45	24.68	-32.0	-32.6	27.5	0.00e+00	0	39	0	2123366400	36	6152
2026-01-03 04:13:24.50	273.74	24.68	-32.0	-32.6	27.5	0.00e+00	0	39	0	2129657856	36	6156
2026-01-03 04:13:25.51	274.03	24.68	-32.0	-32.5	27.5	0.00e+00	0	39	0	2134900736	36	6080
2026-01-03 04:13:26.52	274.33	24.67	-32.0	-32.6	27.3	0.00e+00	0	39	0	2140143616	36	6138
2026-01-03 04:13:27.53	274.62	24.67	-32.0	-32.6	27.3	0.00e+00	0	39	0	2146435072	36	6153
2026-01-03 04:13:28.55	274.92	24.66	-31.9	-32.5	27.4	0.00e+00	0	39	0	2151677952	36	6064
2026-01-03 04:13:29.56	275.21	24.65	-32.0	-32.6	27.3	0.00e+00	0	39	0	2157969408	36	6171
2026-01-03 04:13:30.57	275.50	24.65	-32.0	-32.6	27.4	0.00e+00	0	39	0	2163212288	36	6152
2026-01-03 04:13:31.58	275.79	24.64	-31.9	-32.5	27.1	0.00e+00	0	39	0	2168455168	36	6083
2026-01-03 04:13:32.59	276.09	24.63	-31.9	-32.5	27.4	0.00e+00	0	39	0	2174746624	36	6092
2026-01-03 04:13:33.60	276.38	24.62	-31.8	-32.4	27.6	0.00e+00	0	39	0	2179989504	36	5995
2026-01-03 04:13:34.61	276.67	24.61	-31.8	-32.4	27.6	0.00e+00	0	39	0	2186280960	36	6005
2026-01-03 04:13:35.62	276.96	24.60	-31.8	-32.4	27.6	0.00e+00	0	39	0	2191523840	36	6016
2026-01-03 04:13:36.63	277.25	24.58	-31.9	-32.5	27.6	0.00e+00	0	39	0	2196766720	36	6081
2026-01-03 04:13:37.64	277.54	24.57	-31.8	-32.4	27.6	0.00e+00	0	39	0	2203058176	36	6016
2026-01-03 04:13:38.65	277.84	24.56	-31.9	-32.5	27.6	0.00e+00	0	39	0	2208301056	36	6043
2026-01-03 04:13:39.66	278.13	24.54	-31.9	-32.4	27.7	0.00e+00	0	39	0	2214592512	36	6024
2026-01-03 04:13:40.67	278.42	24.53	-31.9	-32.5	27.6	0.00e+00	0	39	0	2219835392	36	6091
2026-01-03 04:13:41.68	278.71	24.51	-32.0	-32.6	27.5	0.00e+00	0	39	0	2226126848	36	6140
2026-01-03 04:13:42.69	279.00	24.49	-32.0	-32.6	27.4	0.00e+00	0	39	0	2231369728	36	6168
2026-01-03 04:13:43.70	279.29	24.48	-32.1	-32.8	27.4	0.00e+00	0	39	0	2237661184	36	6251
2026-01-03 04:13:44.71	279.58	24.46	-32.1	-32.8	27.4	0.00e+00	0	39	0	2242904064	36	6256
2026-01-03 04:13:45.72	279.86	24.44	-32.0	-32.6	27.5	0.00e+00	0	39	0	2248146944	36	6139
2026-01-03 04:13:46.73	280.15	24.42	-31.9	-32.5	27.6	0.00e+00	0	39	0	2254438400	36	6095
2026-01-03 04:13:47.74	280.44	24.40	-32.0	-32.6	27.6	0.00e+00	0	39	0	2259681280	36	6148
2026-01-03 04:13:48.75	280.73	24.38	-32.0	-32.6	27.5	0.00e+00	0	39	0	2265972736	36	6142
2026-01-03 04:13:49.76	281.02	24.36	-32.1	-32.8	27.5	0.00e+00	0	39	0	2271215616	36	6248
2026-01-03 04:13:50.77	281.30	24.33	-32.1	-32.6	27.6	0.00e+00	0	39	0	2276458496	36	6154
2026-01-03 04:13:51.78	281.59	24.31	-32.1	-32.7	27.5	0.00e+00	0	39	0	2282749952	36	6219
2026-01-03 04:13:52.80	281.88	24.29	-32.1	-32.7	27.5	0.00e+00	0	39	0	2287992832	36	6190
2026-01-03 04:13:53.81	282.16	24.26	-32.1	-32.8	27.5	0.00e+00	0	39	0	2294284288	36	6270
2026-01-03 04:13:54.81	282.45	24.24	-32.0	-32.6	27.5	0.00e+00	0	39	0	2299527168	36	6161
2026-01-03 04:13:55.82	282.73	24.21	-32.0	-32.6	27.6	0.00e+00	0	39	0	2304770048	36	6158
2026-01-03 04:13:56.83	283.02	24.18	-32.0	-32.6	27.5	0.00e+00	0	39	0	2311061504	36	6124
2026-01-03 04:13:57.85	283.30	24.16	-32.1	-32.7	27.4	0.00e+00	0	39	0	2316304384	36	6212
2026-01-03 04:13:58.86	283.59	24.13	-32.2	-32.8	27.4	0.00e+00	0	39	0	2322595840	36	6275
2026-01-03 04:13:59.86	283.87	24.10	-32.1	-32.8	27.4	0.00e+00	0	39	0	2327838720	36	6257
2026-01-03 04:14:00.87	284.15	24.07	-32.0	-32.6	27.6	0.00e+00	0	39	0	2334130176	36	6146
2026-01-03 04:14:01.89	284.43	24.04	-32.0	-32.5	27.5	0.00e+00	0	39	0	2339373056	36	6083
2026-01-03 04:14:02.90	284.71	24.01	-32.0	-32.6	27.5	0.00e+00	0	39	0	2345664512	36	6142
2026-01-03 04:14:03.91	284.99	23.98	-32.0	-32.6	27.6	0.00e+00	0	39	0	2350907392	36	6141
2026-01-03 04:14:04.92	285.27	23.94	-32.0	-32.6	27.6	0.00e+00	0	39	0	2356150272	36	6150
2026-01-03 04:14:05.93	285.55	23.91	-32.1	-32.7	27.5	0.00e+00	0	39	0	2362441728	36	6203
2026-01-03 04:14:06.94	285.83	23.88	-32.2	-32.7	27.4	0.00e+00	0	39	0	2367684608	36	6221
2026-01-03 04:14:07.95	286.11	23.84	-32.2	-32.9	27.4	0.00e+00	0	39	0	2373976064	36	6340
2026-01-03 04:14:08.96	286.39	23.81	-32.4	-33.1	27.3	0.00e+00	0	39	0	2379218944	36	6472
2026-01-03 04:14:09.97	286.67	23.77	-32.5	-33.1	27.1	0.00e+00	0	39	0	2384461824	36	6494
2026-01-03 04:14:10.98	286.94	23.74	-32.7	-33.3	27.0	0.00e+00	0	39	0	2390753280	36	6662
2026-01-03 04:14:11.99	287.22	23.70	-32.8	-33.5	27.0	0.00e+00	0	39	0	2395996160	38	6071
2026-01-03 04:14:13.00	287.49	23.66	-32.6	-33.2	27.0	0.00e+00	0	39	0	2402287616	38	5856
2026-01-03 04:14:14.01	287.77	23.62	-32.4	-33.0	27.2	0.00e+00	0	39	0	2407530496	38	5752
2026-01-03 04:14:15.02	288.04	23.59	-32.3	-32.9	27.3	0.00e+00	0	39	0	2412773376	38	5664
2026-01-03 04:14:16.03	288.32	23.55	-32.4	-33.1	27.3	0.00e+00	0	39	0	2419064832	38	5764
2026-01-03 04:14:17.04	288.59	23.51	-32.4	-33.1	27.3	0.00e+00	0	39	0	2424307712	38	5807
2026-01-03 04:14:18.05	288.86	23.47	-32.3	-32.9	27.3	0.00e+00	0	39	0	2430599168	38	5657
2026-01-03 04:14:19.06	289.13	23.43	-32.2	-32.8	27.4	0.00e+00	0	39	0	2435842048	38	5627
2026-01-03 04:14:20.07	289.40	23.38	-32.2	-32.9	27.3	0.00e+00	0	39	0	2442133504	38	5688
2026-01-03 04:14:21.08	289.67	23.34	-32.3	-32.9	27.3	0.00e+00	0	39	0	2447376384	38	5665
2026-01-03 04:14:22.09	289.94	23.30	-32.3	-32.9	27.3	0.00e+00	0	39	0	2453667840	38	5661
2026-01-03 04:14:23.10	290.21	23.26	-32.3	-33.0	27.2	0.00e+00	0	39	0	2458910720	38	5721
2026-01-03 04:14:24.11	290.48	23.21	-32.3	-33.0	27.2	0.00e+00	0	39	0	2464153600	38	5730
2026-01-03 04:14:25.12	290.74	23.17	-32.4	-33.0	27.2	0.00e+00	0	39	0	2470445056	38	5709
2026-01-03 04:14:26.13	291.01	23.12	-32.4	-33.0	27.1	0.00e+00	0	39	0	2475687936	38	5723
2026-01-03 04:14:27.14	291.27	23.08	-32.5	-33.1	27.1	0.00e+00	0	39	0	2481979392	38	5811
2026-01-03 04:14:28.16	291.54	23.03	-32.4	-33.0	27.2	0.00e+00	0	39	0	2487222272	38	5729
2026-01-03 04:14:29.17	291.80	22.98	-32.4	-33.1	27.1	0.00e+00	0	39	0	2492465152	38	5804
2026-01-03 04:14:30.18	292.07	22.94	-32.5	-33.0	27.2	0.00e+00	0	39	0	2498756608	38	5755
2026-01-03 04:14:31.19	292.33	22.89	-32.7	-33.2	27.2	0.00e+00	0	39	0	2503999488	38	5867
2026-01-03 04:14:32.20	292.59	22.84	-32.7	-33.3	27.2	0.00e+00	0	39	0	2510290944	38	5960
2026-01-03 04:14:33.21	292.85	22.79	-32.7	-33.2	27.1	0.00e+00	0	39	0	2515533824	38	5890
2026-01-03 04:14:34.22	293.11	22.74	-32.8	-33.3	27.1	0.00e+00	0	39	0	2520776704	38	5956
2026-01-03 04:14:35.23	293.37	22.69	-32.6	-33.2	27.2	0.00e+00	0	39	0	2527068160	38	5895
2026-01-03 04:14:36.24	293.63	22.64	-32.5	-33.1	27.4	0.00e+00	0	39	0	2532311040	38	5806
2026-01-03 04:14:37.25	293.89	22.59	-32.5	-33.2	27.3	0.00e+00	0	39	0	2538602496	38	5862
2026-01-03 04:14:38.26	294.14	22.54	-32.6	-33.2	27.3	0.00e+00	0	39	0	2543845376	38	5854
2026-01-03 04:14:39.27	294.40	22.49	-32.7	-33.4	27.1	0.00e+00	0	39	0	2550136832	38	5971
2026-01-03 04:14:40.28	294.65	22.44	-32.8	-33.5	27.1	0.00e+00	0	39	0	2555379712	38	6095
2026-01-03 04:14:41.29	294.91	22.38	-32.9	-33.6	27.1	0.00e+00	0	39	0	2560622592	38	6107
2026-01-03 04:14:42.30	295.16	22.33	-32.8	-33.4	27.1	0.00e+00	0	39	0	2566914048	38	6020
2026-01-03 04:14:43.31	295.41	22.28	-32.8	-33.5	27.1	0.00e+00	0	39	0	2572156928	38	6072
2026-01-03 04:14:44.32	295.66	22.22	-32.6	-33.1	27.1	0.00e+00	0	39	0	2578448384	38	5828
2026-01-03 04:14:45.33	295.91	22.17	-32.7	-33.3	27.2	0.00e+00	0	39	0	2583691264	38	5899
2026-01-03 04:14:46.34	296.16	22.11	-32.7	-33.3	27.2	0.00e+00	0	39	0	2588934144	38	5897
2026-01-03 04:14:47.35	296.41	22.06	-32.8	-33.4	27.0	0.00e+00	0	39	0	2595225600	38	6021
2026-01-03 04:14:48.36	296.66	22.00	-32.8	-33.4	27.1	0.00e+00	0	39	0	2600468480	38	5979
2026-01-03 04:14:49.37	296.91	21.95	-32.8	-33.5	27.1	0.00e+00	0	39	0	2606759936	38	6040
2026-01-03 04:14:50.38	297.15	21.89	-32.8	-33.5	27.1	0.00e+00	0	39	0	2612002816	38	6088
2026-01-03 04:14:51.39	297.40	21.83	-32.8	-33.5	27.2	0.00e+00	0	39	0	2617245696	38	6047
2026-01-03 04:14:52.40	297.64	21.78	-32.8	-33.4	27.2	0.00e+00	0	39	0	2623537152	38	6022
2026-01-03 04:14:53.41	297.89	21.72	-32.8	-33.4	27.2	0.00e+00	0	39	0	2628780032	38	5965
2026-01-03 04:14:54.42	298.13	21.66	-32.8	-33.6	27.0	0.00e+00	0	39	0	2635071488	38	6104
2026-01-03 04:14:55.43	298.37	21.60	-32.9	-33.6	27.0	0.00e+00	0	39	0	2640314368	38	6158
2026-01-03 04:14:56.44	298.61	21.54	-32.9	-33.5	27.0	0.00e+00	0	39	0	2646605824	38	6058
2026-01-03 04:14:57.45	298.85	21.49	-32.8	-33.5	27.1	0.00e+00	0	39	0	2651848704	38	6043
2026-01-03 04:14:58.46	299.09	21.43	-32.8	-33.4	27.0	0.00e+00	0	39	0	2658140160	38	6028
2026-01-03 04:14:59.47	299.33	21.37	-32.8	-33.5	27.0	0.00e+00	0	39	0	2663383040	38	6096
2026-01-03 04:15:00.49	299.57	21.31	-32.9	-33.4	27.1	0.00e+00	0	39	0	2668625920	38	6018
2026-01-03 04:15:01.50	299.81	21.24	-33.0	-33.7	26.9	0.00e+00	0	39	0	2674917376	38	6178
2026-01-03 04:15:02.51	300.04	21.18	-33.0	-33.8	26.9	0.00e+00	0	39	0	2680160256	38	6249
2026-01-03 04:15:03.52	300.28	21.12	-33.2	-33.8	26.7	0.00e+00	0	39	0	2686451712	38	6276
2026-01-03 04:15:04.53	300.51	21.06	-33.0	-33.6	26.9	0.00e+00	0	39	0	2691694592	38	6143
2026-01-03 04:15:05.54	300.74	21.00	-33.0	-33.7	26.9	0.00e+00	0	39	0	2696937472	38	6215
2026-01-03 04:15:06.55	300.97	20.94	-33.1	-33.8	26.7	0.00e+00	0	39	0	2703228928	38	6309
2026-01-03 04:15:07.56	301.20	20.87	-33.0	-33.7	26.9	0.00e+00	0	39	0	2708471808	38	6214
2026-01-03 04:15:08.57	301.43	20.81	-32.9	-33.4	27.0	0.00e+00	0	39	0	2714763264	38	6018
2026-01-03 04:15:09.58	301.66	20.75	-32.8	-33.5	27.0	0.00e+00	0	39	0	2720006144	38	6078
2026-01-03 04:15:10.59	301.89	20.69	-32.8	-33.4	27.1	0.00e+00	0	39	0	2725249024	38	5965
2026-01-03 04:15:11.60	302.12	20.62	-32.9	-33.6	27.0	0.00e+00	0	39	0	2731540480	38	6130
2026-01-03 04:15:12.61	302.34	20.56	-33.0	-33.6	26.9	0.00e+00	0	39	0	2736783360	38	6168
2026-01-03 04:15:13.62	302.57	20.49	-33.1	-33.9	26.8	0.00e+00	0	39	0	2743074816	38	6333
2026-01-03 04:15:14.63	302.79	20.43	-33.2	-34.0	26.7	0.00e+00	0	39	0	2748317696	38	6394
2026-01-03 04:15:15.64	303.02	20.36	-33.3	-33.9	26.5	0.00e+00	0	39	0	2754609152	38	6374
2026-01-03 04:15:16.65	303.24	20.30	-33.3	-33.9	26.7	0.00e+00	0	39	0	2759852032	38	6380
2026-01-03 04:15:17.66	303.46	20.23	-33.3	-33.9	26.7	0.00e+00	0	39	0	2766143488	38	6350
2026-01-03 04:15:18.67	303.68	20.17	-33.1	-33.7	26.8	0.00e+00	0	39	0	2771386368	38	6237
2026-01-03 04:15:19.68	303.90	20.10	-33.1	-33.8	26.8	0.00e+00	0	39	0	2776629248	38	6277
2026-01-03 04:15:20.69	304.12	20.04	-33.2	-33.8	26.8	0.00e+00	0	39	0	2782920704	38	6269
2026-01-03 04:15:21.71	304.34	19.97	-33.2	-33.7	26.7	0.00e+00	0	39	0	2788163584	38	6243
2026-01-03 04:15:22.72	304.56	19.90	-33.3	-34.0	26.6	0.00e+00	0	39	0	2794455040	38	6396
2026-01-03 04:15:23.73	304.77	19.84	-33.2	-33.8	26.7	0.00e+00	0	39	0	2799697920	38	6277
2026-01-03 04:15:24.74	304.99	19.77	-33.3	-34.0	26.6	0.00e+00	0	39	0	2804940800	38	6421
2026-01-03 04:15:25.75	305.20	19.70	-33.4	-34.0	26.6	0.00e+00	0	39	0	2811232256	38	6415
2026-01-03 04:15:26.76	305.42	19.64	-33.2	-33.9	26.7	0.00e+00	0	39	0	2816475136	38	6319
2026-01-03 04:15:27.77	305.63	19.57	-33.2	-33.7	26.7	0.00e+00	0	39	0	2822766592	38	6231
2026-01-03 04:15:28.78	305.84	19.50	-33.2	-33.9	26.6	0.00e+00	0	39	0	2828009472	38	6367
2026-01-03 04:15:29.79	306.05	19.43	-33.3	-33.9	26.5	0.00e+00	0	39	0	2833252352	38	6321
2026-01-03 04:15:30.80	306.26	19.37	-33.4	-34.1	26.6	0.00e+00	0	39	0	2839543808	38	6499
2026-01-03 04:15:31.81	306.47	19.30	-33.5	-34.2	26.4	0.00e+00	0	39	0	2844786688	38	6613
2026-01-03 04:15:32.82	306.68	19.23	-33.6	-34.3	26.3	0.00e+00	0	39	0	2851078144	38	6684
2026-01-03 04:15:33.83	306.89	19.16	-33.5	-34.1	26.4	0.00e+00	0	39	0	2856321024	38	6515
2026-01-03 04:15:34.84	307.09	19.09	-33.5	-34.1	26.4	0.00e+00	0	39	0	2862612480	38	6483
2026-01-03 04:15:35.85	307.30	19.02	-33.6	-34.3	26.3	0.00e+00	0	39	0	2867855360	38	6624
2026-01-03 04:15:36.86	307.50	18.95	-33.5	-34.1	26.4	0.00e+00	0	39	0	2874146816	38	6506
2026-01-03 04:15:37.87	307.70	18.88	-33.6	-34.2	26.3	0.00e+00	0	39	0	2879389696	38	6572
2026-01-03 04:15:38.88	307.91	18.82	-33.7	-34.3	26.2	0.00e+00	0	39	0	2884632576	40	5951
2026-01-03 04:15:39.89	308.11	18.75	-33.8	-34.6	26.1	0.00e+00	0	39	0	2890924032	40	6107
2026-01-03 04:15:40.90	308.31	18.68	-33.9	-34.4	26.1	0.00e+00	0	39	0	2896166912	40	6028
2026-01-03 04:15:41.91	308.51	18.61	-33.9	-34.5	26.1	0.00e+00	0	39	0	2902458368	40	6064
2026-01-03 04:15:42.92	308.71	18.54	-33.8	-34.5	26.1	0.00e+00	0	39	0	2907701248	40	6035
2026-01-03 04:15:43.93	308.91	18.47	-33.8	-34.5	26.2	0.00e+00	0	39	0	2912944128	40	6048
2026-01-03 04:15:44.95	309.10	18.40	-33.8	-34.4	26.1	0.00e+00	0	39	0	2919235584	40	5970
2026-01-03 04:15:45.96	309.30	18.32	-33.8	-34.6	25.8	0.00e+00	0	39	0	2924478464	40	6111
2026-01-03 04:15:46.97	309.50	18.25	-33.8	-34.4	26.0	0.00e+00	0	39	0	2930769920	40	5996
2026-01-03 04:15:47.98	309.69	18.18	-33.9	-34.5	25.8	0.00e+00	0	39	0	2936012800	40	6045
2026-01-03 04:15:48.99	309.88	18.11	-33.9	-34.5	25.9	0.00e+00	0	39	0	2941255680	40	6097
2026-01-03 04:15:50.00	310.08	18.04	-34.0	-34.7	25.7	0.00e+00	0	39	0	2947547136	40	6188
2026-01-03 04:15:51.01	310.27	17.97	-34.0	-34.7	25.8	0.00e+00	0	39	0	2952790016	40	6224
2026-01-03 04:15:52.02	310.46	17.90	-33.9	-34.6	26.0	0.00e+00	0	39	0	2959081472	40	6121
2026-01-03 04:15:53.03	310.65	17.83	-33.9	-34.5	25.6	0.00e+00	0	39	0	2964324352	40	6075
2026-01-03 04:15:54.04	310.84	17.76	-33.9	-34.5	25.9	0.00e+00	0	39	0	2970615808	40	6091
2026-01-03 04:15:55.05	311.03	17.69	-34.0	-34.7	25.9	0.00e+00	0	39	0	2975858688	40	6190
2026-01-03 04:15:56.06	311.21	17.62	-33.9	-34.5	26.1	0.00e+00	0	39	0	2982150144	40	6063
2026-01-03 04:15:57.07	311.40	17.54	-34.0	-34.7	25.8	0.00e+00	0	39	0	2987393024	40	6208
2026-01-03 04:15:58.08	311.59	17.47	-34.0	-34.7	25.9	0.00e+00	0	39	0	2992635904	40	6241
2026-01-03 04:15:59.09	311.77	17.40	-34.0	-34.6	25.9	0.00e+00	0	39	0	2998927360	40	6150
2026-01-03 04:16:00.10	311.96	17.33	-34.1	-34.7	25.8	0.00e+00	0	39	0	3004170240	40	6191
2026-01-03 04:16:01.10	312.14	17.26	-34.1	-34.8	25.9	0.00e+00	0	39	0	3010461696	40	6279
2026-01-03 04:16:02.11	312.32	17.19	-34.0	-34.6	25.9	0.00e+00	0	39	0	3015704576	40	6153
2026-01-03 04:16:03.12	312.50	17.12	-34.0	-34.7	25.9	0.00e+00	0	39	0	3020947456	40	6234
2026-01-03 04:16:04.13	312.68	17.04	-33.9	-34.5	26.0	0.00e+00	0	39	0	3027238912	40	6077
2026-01-03 04:16:05.14	312.86	16.97	-33.9	-34.6	26.1	0.00e+00	0	39	0	3032481792	40	6135
2026-01-03 04:16:06.15	313.04	16.90	-33.9	-34.6	26.0	0.00e+00	0	39	0	3038773248	40	6167
2026-01-03 04:16:07.16	313.22	16.83	-33.9	-34.5	26.1	0.00e+00	0	39	0	3044016128	40	6103
2026-01-03 04:16:08.17	313.40	16.76	-34.1	-34.8	25.9	0.00e+00	0	39	0	3049259008	40	6246
2026-01-03 04:16:09.18	313.57	16.68	-34.2	-34.9	25.8	0.00e+00	0	39	0	3055550464	40	6332
2026-01-03 04:16:10.19	313.75	16.61	-34.4	-35.1	25.6	0.00e+00	0	39	0	3060793344	40	6483
2026-01-03 04:16:11.20	313.92	16.54	-34.5	-35.3	25.5	0.00e+00	0	39	0	3067084800	40	6629
2026-01-03 04:16:12.21	314.10	16.47	-34.6	-35.3	25.4	0.00e+00	0	39	0	3072327680	40	6691
2026-01-03 04:16:13.22	314.27	16.39	-34.6	-35.4	25.4	0.00e+00	0	39	0	3078619136	40	6697
2026-01-03 04:16:14.23	314.44	16.32	-34.5	-35.3	25.4	0.00e+00	0	39	0	3083862016	40	6649
2026-01-03 04:16:15.24	314.61	16.25	-34.5	-35.2	25.5	0.00e+00	0	39	0	3090153472	40	6613
2026-01-03 04:16:16.25	314.78	16.18	-34.4	-35.0	25.5	0.00e+00	0	39	0	3095396352	40	6450
2026-01-03 04:16:17.26	314.95	16.11	-34.4	-35.1	25.6	0.00e+00	0	39	0	3100639232	40	6510
2026-01-03 04:16:18.27	315.12	16.03	-34.3	-35.0	25.7	0.00e+00	0	39	0	3106930688	40	6427
2026-01-03 04:16:19.28	315.29	15.96	-34.3	-35.0	25.7	0.00e+00	0	39	0	3112173568	40	6455
2026-01-03 04:16:20.30	315.46	15.89	-34.5	-35.1	25.5	0.00e+00	0	39	0	3118465024	40	6494
2026-01-03 04:16:21.31	315.63	15.81	-34.4	-35.0	25.6	0.00e+00	0	39	0	3123707904	40	6402
2026-01-03 04:16:22.32	315.79	15.74	-34.5	-35.3	25.4	0.00e+00	0	39	0	3128950784	40	6653
2026-01-03 04:16:23.33	315.96	15.67	-34.5	-35.1	25.5	0.00e+00	0	39	0	3135242240	40	6518
2026-01-03 04:16:24.34	316.12	15.60	-34.5	-35.3	25.4	0.00e+00	0	39	0	3140485120	40	6616
2026-01-03 04:16:25.35	316.29	15.53	-34.6	-35.3	25.4	0.00e+00	0	39	0	3146776576	40	6670
2026-01-03 04:16:26.36	316.45	15.45	-34.8	-35.5	25.3	0.00e+00	0	39	0	3152019456	40	6846
2026-01-03 04:16:27.37	316.61	15.38	-34.8	-35.4	25.3	0.00e+00	0	39	0	3157262336	42	5993
2026-01-03 04:16:28.38	316.77	15.31	-34.5	-35.3	25.4	0.00e+00	0	39	0	3163553792	42	5900
2026-01-03 04:16:29.39	316.93	15.24	-34.8	-35.4	25.2	0.00e+00	0	39	0	3168796672	42	6026
2026-01-03 04:16:30.40	317.09	15.16	-34.7	-35.5	25.4	0.00e+00	0	39	0	3175088128	42	6047
2026-01-03 04:16:31.41	317.25	15.09	-34.5	-35.1	25.5	0.00e+00	0	39	0	3180331008	42	5805
2026-01-03 04:16:32.42	317.41	15.02	-34.6	-35.2	25.5	0.00e+00	0	39	0	3186622464	42	5843
2026-01-03 04:16:33.43	317.57	14.95	-34.7	-35.3	25.3	0.00e+00	0	39	0	3191865344	42	5906
2026-01-03 04:16:34.45	317.73	14.87	-34.8	-35.5	25.3	0.00e+00	0	39	0	3198156800	42	6045
2026-01-03 04:16:35.46	317.88	14.80	-34.7	-35.4	25.2	0.00e+00	0	39	0	3203399680	42	6019
2026-01-03 04:16:36.47	318.04	14.73	-34.8	-35.4	25.3	0.00e+00	0	39	0	3208642560	42	5997
2026-01-03 04:16:37.48	318.19	14.66	-34.7	-35.3	25.3	0.00e+00	0	39	0	3214934016	42	5954
2026-01-03 04:16:38.49	318.35	14.58	-34.7	-35.4	25.3	0.00e+00	0	39	0	3220176896	42	6006
2026-01-03 04:16:39.50	318.50	14.51	-34.8	-35.4	25.2	0.00e+00	0	39	0	3226468352	42	5998
2026-01-03 04:16:40.51	318.65	14.44	-34.9	-35.6	25.1	0.00e+00	0	39	0	3231711232	42	6127
2026-01-03 04:16:41.52	318.81	14.37	-34.8	-35.4	25.2	0.00e+00	0	39	0	3236954112	42	6022
2026-01-03 04:16:42.53	318.96	14.30	-34.8	-35.4	25.2	0.00e+00	0	39	0	3243245568	42	5983
2026-01-03 04:16:43.54	319.11	14.22	-34.8	-35.5	25.2	0.00e+00	0	39	0	3248488448	42	6068
2026-01-03 04:16:44.55	319.26	14.15	-34.7	-35.3	25.3	0.00e+00	0	39	0	3254779904	42	5957
2026-01-03 04:16:45.56	319.41	14.08	-34.7	-35.4	25.3	0.00e+00	0	39	0	3260022784	42	6018
2026-01-03 04:16:46.57	319.56	14.01	-34.6	-35.1	25.4	0.00e+00	0	39	0	3265265664	42	5824
2026-01-03 04:16:47.58	319.70	13.94	-34.6	-35.3	25.4	0.00e+00	0	39	0	3271557120	42	5916
2026-01-03 04:16:48.59	319.85	13.86	-34.6	-35.1	25.4	0.00e+00	0	39	0	3276800000	42	5818
2026-01-03 04:16:49.60	320.00	13.79	-34.6	-35.3	25.3	0.00e+00	0	39	0	3283091456	42	5915
2026-01-03 04:16:50.61	320.14	13.72	-34.6	-35.2	25.3	0.00e+00	0	39	0	3288334336	42	5868
2026-01-03 04:16:51.63	320.29	13.65	-34.7	-35.4	25.3	0.00e+00	0	39	0	3294625792	42	6006
2026-01-03 04:16:52.63	320.43	13.58	-34.8	-35.5	25.1	0.00e+00	0	39	0	3299868672	42	6080
2026-01-03 04:16:53.65	320.58	13.50	-35.0	-35.6	24.9	0.00e+00	0	39	0	3306160128	42	6159
2026-01-03 04:16:54.65	320.72	13.43	-35.1	-35.8	24.9	0.00e+00	0	39	0	3311403008	42	6306
2026-01-03 04:16:55.66	320.86	13.36	-35.2	-35.9	24.9	0.00e+00	0	39	0	3316645888	42	6386
2026-01-03 04:16:56.67	321.00	13.29	-35.3	-35.9	24.8	0.00e+00	0	39	0	3322937344	42	6356
2026-01-03 04:16:57.68	321.14	13.22	-35.2	-35.9	24.9	0.00e+00	0	39	0	3328180224	42	6372
2026-01-03 04:16:58.69	321.28	13.15	-35.3	-35.9	24.7	0.00e+00	0	39	0	3333423104	42	6349
2026-01-03 04:16:59.70	321.42	13.08	-35.2	-35.9	24.8	0.00e+00	0	39	0	3339714560	42	6349
2026-01-03 04:17:00.71	321.56	13.00	-35.3	-36.0	24.7	0.00e+00	0	39	0	3344957440	42	6442
2026-01-03 04:17:01.72	321.70	12.93	-35.3	-36.0	24.8	0.00e+00	0	39	0	3351248896	42	6447
2026-01-03 04:17:02.73	321.84	12.86	-35.3	-36.1	24.7	0.00e+00	0	39	0	3356491776	42	6496
2026-01-03 04:17:03.74	321.97	12.79	-35.3	-36.0	24.7	0.00e+00	0	39	0	3362783232	42	6393
2026-01-03 04:17:04.75	322.11	12.72	-35.4	-36.0	24.6	0.00e+00	0	39	0	3368026112	42	6413
2026-01-03 04:17:05.76	322.25	12.65	-35.3	-36.0	24.7	0.00e+00	0	39	0	3373268992	42	6423
2026-01-03 04:17:06.77	322.38	12.58	-35.3	-36.1	24.6	0.00e+00	0	39	0	3379560448	42	6494
2026-01-03 04:17:07.78	322.52	12.51	-35.4	-36.1	24.6	0.00e+00	0	39	0	3384803328	42	6474
2026-01-03 04:17:08.79	322.65	12.44	-35.3	-35.9	24.6	0.00e+00	0	39	0	3391094784	42	6390
2026-01-03 04:17:09.80	322.78	12.37	-35.4	-36.2	24.5	0.00e+00	0	39	0	3396337664	42	6579
2026-01-03 04:17:10.81	322.92	12.30	-35.4	-36.0	24.6	0.00e+00	0	39	0	3402629120	42	6441
2026-01-03 04:17:11.82	323.05	12.22	-35.4	-36.2	24.5	0.00e+00	0	39	0	3407872000	42	6570
2026-01-03 04:17:12.83	323.18	12.15	-35.5	-36.1	24.4	0.00e+00	0	39	0	3413114880	42	6539
2026-01-03 04:17:13.84	323.31	12.08	-35.4	-36.1	24.5	0.00e+00	0	39	0	3419406336	42	6469
2026-01-03 04:17:14.85	323.44	12.01	-35.5	-36.3	24.4	0.00e+00	0	39	0	3424649216	42	6619
2026-01-03 04:17:15.86	323.57	11.94	-35.6	-36.3	24.3	0.00e+00	0	39	0	3430940672	42	6634
2026-01-03 04:17:16.87	323.70	11.87	-35.7	-36.3	24.2	0.00e+00	0	39	0	3436183552	42	6662
2026-01-03 04:17:17.88	323.83	11.80	-35.5	-36.2	24.4	0.00e+00	0	39	0	3441426432	42	6565
2026-01-03 04:17:18.89	323.95	11.73	-35.5	-36.1	24.4	0.00e+00	0	39	0	3447717888	42	6524
2026-01-03 04:17:19.90	324.08	11.66	-35.5	-36.2	24.3	0.00e+00	0	39	0	3452960768	42	6601
2026-01-03 04:17:20.91	324.21	11.59	-35.5	-36.2	24.4	0.00e+00	0	39	0	3459252224	42	6557
2026-01-03 04:17:21.92	324.33	11.52	-35.6	-36.3	24.4	0.00e+00	0	39	0	3464495104	42	6683
2026-01-03 04:17:22.93	324.46	11.45	-35.6	-36.4	24.3	0.00e+00	0	39	0	3469737984	42	6721
2026-01-03 04:17:23.94	324.59	11.38	-35.7	-36.4	24.1	0.00e+00	0	39	0	3476029440	44	6018
2026-01-03 04:17:24.95	324.71	11.31	-35.6	-36.3	24.2	0.00e+00	0	39	0	3481272320	44	5911
2026-01-03 04:17:25.96	324.83	11.25	-35.9	-36.7	24.2	0.00e+00	0	39	0	3487563776	44	6192
2026-01-03 04:17:26.97	324.96	11.18	-36.0	-36.6	24.0	0.00e+00	0	39	0	3492806656	44	6170
2026-01-03 04:17:27.98	325.08	11.11	-35.8	-36.6	24.0	0.00e+00	0	39	0	3499098112	44	6135
2026-01-03 04:17:28.99	325.20	11.04	-35.8	-36.6	24.0	0.00e+00	0	39	0	3504340992	44	6132
2026-01-03 04:17:30.00	325.32	10.97	-35.9	-36.5	24.0	0.00e+00	0	39	0	3510632448	44	6098
2026-01-03 04:17:31.01	325.44	10.90	-36.0	-36.8	23.9	0.00e+00	0	39	0	3515875328	44	6292
2026-01-03 04:17:32.02	325.56	10.83	-35.9	-36.5	24.0	0.00e+00	0	39	0	3521118208	44	6094
2026-01-03 04:17:33.03	325.68	10.76	-36.2	-36.8	23.8	0.00e+00	0	39	0	3527409664	44	6266
2026-01-03 04:17:34.04	325.80	10.69	-35.8	-36.4	24.0	0.00e+00	0	39	0	3532652544	44	6030
2026-01-03 04:17:35.05	325.92	10.62	-35.7	-36.5	24.1	0.00e+00	0	39	0	3538944000	44	6049
2026-01-03 04:17:36.06	326.04	10.56	-35.8	-36.6	24.1	0.00e+00	0	39	0	3544186880	44	6120
2026-01-03 04:17:37.07	326.16	10.49	-35.9	-36.6	24.0	0.00e+00	0	39	0	3549429760	44	6165
2026-01-03 04:17:38.08	326.28	10.42	-36.0	-36.8	23.9	0.00e+00	0	39	0	3555721216	44	6252
2026-01-03 04:17:39.09	326.39	10.35	-35.9	-36.5	24.0	0.00e+00	0	39	0	3560964096	44	6071
2026-01-03 04:17:40.10	326.51	10.28	-35.8	-36.5	24.1	0.00e+00	0	39	0	3567255552	44	6097
2026-01-03 04:17:41.11	326.63	10.21	-35.8	-36.4	24.1	0.00e+00	0	39	0	3572498432	44	6033
2026-01-03 04:17:42.12	326.74	10.15	-35.7	-36.5	24.1	0.00e+00	0	39	0	3577741312	44	6043
2026-01-03 04:17:43.13	326.85	10.08	-35.7	-36.4	24.1	0.00e+00	0	39	0	3584032768	44	5968
2026-01-03 04:17:44.14	326.97	10.01	-35.7	-36.3	24.1	0.00e+00	0	39	0	3589275648	44	5949
