passes_logs/2026/01/03/R4.6S_Anadyr/R4.6S_Anadyr__20260103_114837_SUOMI_NPP_rec.log

#Pass ID: 20260103_114837_SUOMI NPP
#Satellite: SUOMI NPP
#Configuration: NPP
#almurnet v.1.7.20251203
#Start time: 2026-01-03 11:48:42

#Version: 2.2.20231116
#Station: R4.6S_Anadyr
#Location: 177.4865 lon 64.73178 lat
#TLE: 1 37849U 11061A   26001.07732418  .00000182  00000+0  10735-3 0  9990
#TLE: 2 37849  98.7795 303.2470 0002580  87.2016 272.9455 14.19520779734739

#Time	Az	El	Level	Level2	SNR	BER	BlckErr	Temp	State	Recorded	gain1	gain2
2026-01-03 11:48:42.24	20.68	0.22	-50.8	-52.4	5.7	0.00e+00	0	37	0	0	60	50982
2026-01-03 11:48:43.25	20.78	0.26	-52.2	-67.4	3.6	1.51e+00	0	39	104	0	60	84389
2026-01-03 11:48:44.26	20.87	0.30	-51.4	-66.6	3.6	1.51e+00	0	39	104	0	60	77133
2026-01-03 11:48:45.27	20.97	0.34	-51.0	-66.3	3.6	1.51e+00	0	39	104	0	60	74322
2026-01-03 11:48:46.28	21.06	0.39	-50.8	-66.0	3.6	1.51e+00	0	39	104	0	60	72397
2026-01-03 11:48:47.29	21.15	0.43	-51.2	-66.4	3.6	1.51e+00	0	39	104	0	60	75481
2026-01-03 11:48:48.30	21.25	0.47	-51.2	-66.4	3.6	1.51e+00	0	39	104	0	60	75631
2026-01-03 11:48:49.31	21.34	0.51	-50.9	-66.1	3.6	1.51e+00	0	39	104	0	60	72932
2026-01-03 11:48:50.32	21.44	0.55	-50.5	-65.7	3.6	1.51e+00	0	39	104	0	60	69653
2026-01-03 11:48:51.33	21.53	0.60	-50.2	-65.4	3.6	1.51e+00	0	39	104	0	60	67474
2026-01-03 11:48:52.34	21.63	0.64	-50.2	-65.4	3.6	1.51e+00	0	39	104	0	60	67647
2026-01-03 11:48:53.35	21.72	0.68	-50.0	-65.2	3.6	1.51e+00	0	39	104	0	60	65502
2026-01-03 11:48:54.36	21.82	0.72	-49.7	-64.9	3.6	1.51e+00	0	39	104	0	60	63906
2026-01-03 11:48:55.36	21.92	0.76	-49.6	-64.8	3.5	1.51e+00	0	39	104	0	60	62716
2026-01-03 11:48:56.37	22.01	0.81	-49.4	-64.6	3.6	1.51e+00	0	39	104	0	60	61530
2026-01-03 11:48:57.38	22.11	0.85	-49.1	-64.2	3.6	1.51e+00	0	39	104	0	60	58636
2026-01-03 11:48:58.39	22.21	0.89	-48.1	-63.3	3.6	1.51e+00	0	39	104	0	60	52887
2026-01-03 11:48:59.40	22.30	0.93	-48.1	-63.3	3.6	1.51e+00	0	39	104	0	60	52750
2026-01-03 11:49:00.40	22.40	0.97	-48.2	-63.3	3.6	1.51e+00	0	39	104	0	60	52995
2026-01-03 11:49:01.41	22.50	1.02	-48.2	-63.3	3.6	1.51e+00	0	39	104	0	60	52985
2026-01-03 11:49:02.42	22.60	1.06	-48.1	-63.3	3.6	1.51e+00	0	39	104	0	60	52728
2026-01-03 11:49:03.43	22.69	1.10	-48.1	-63.3	3.6	1.51e+00	0	39	104	0	60	52888
2026-01-03 11:49:04.44	22.79	1.14	-48.2	-63.4	3.6	1.51e+00	0	39	104	0	60	53352
2026-01-03 11:49:05.45	22.89	1.19	-48.2	-63.4	3.6	1.51e+00	0	39	104	0	60	53358
2026-01-03 11:49:06.46	22.99	1.23	-48.2	-63.4	3.6	1.51e+00	0	39	104	0	60	53280
2026-01-03 11:49:07.47	23.09	1.27	-48.2	-63.4	3.6	1.51e+00	0	39	104	0	60	53164
2026-01-03 11:49:08.48	23.19	1.31	-48.2	-63.3	3.6	1.51e+00	0	39	104	0	60	53124
2026-01-03 11:49:09.49	23.29	1.35	-48.1	-63.3	3.6	1.51e+00	0	39	104	0	60	52775
2026-01-03 11:49:10.50	23.39	1.40	-48.1	-63.3	3.6	1.51e+00	0	39	104	0	60	52762
2026-01-03 11:49:11.51	23.49	1.44	-48.2	-63.3	3.6	1.51e+00	0	39	104	0	60	52956
2026-01-03 11:49:12.52	23.59	1.48	-48.2	-63.3	3.6	1.51e+00	0	39	104	0	60	52814
2026-01-03 11:49:13.53	23.69	1.52	-48.1	-63.3	3.6	1.51e+00	0	39	104	0	60	53013
2026-01-03 11:49:14.54	23.79	1.56	-48.1	-63.3	3.6	1.51e+00	0	39	104	0	60	52964
2026-01-03 11:49:15.55	23.89	1.61	-48.1	-63.3	3.6	1.51e+00	0	39	104	0	60	52721
2026-01-03 11:49:16.56	24.00	1.65	-48.1	-63.3	3.6	1.51e+00	0	39	104	0	60	52795
2026-01-03 11:49:17.56	24.10	1.69	-48.1	-63.3	3.6	1.51e+00	0	39	104	0	60	52617
2026-01-03 11:49:18.58	24.20	1.73	-48.1	-63.3	3.6	1.51e+00	0	39	104	0	60	52644
2026-01-03 11:49:19.58	24.30	1.77	-48.2	-63.3	3.6	1.51e+00	0	39	104	0	60	52958
2026-01-03 11:49:20.60	24.41	1.82	-48.2	-63.4	3.6	1.51e+00	0	39	104	0	60	53185
2026-01-03 11:49:21.60	24.51	1.86	-48.2	-63.3	3.6	1.51e+00	0	39	104	0	60	52946
2026-01-03 11:49:22.61	24.61	1.90	-48.2	-63.3	3.6	1.51e+00	0	39	104	0	60	52884
2026-01-03 11:49:23.62	24.72	1.94	-48.2	-63.3	3.6	1.51e+00	0	39	104	0	60	52761
2026-01-03 11:49:24.63	24.82	1.98	-48.2	-63.4	3.6	1.51e+00	0	39	104	0	60	53166
2026-01-03 11:49:25.64	24.92	2.03	-48.2	-63.4	3.6	1.51e+00	0	39	104	0	60	53250
2026-01-03 11:49:26.65	25.03	2.07	-48.2	-63.4	3.6	1.51e+00	0	39	104	0	60	53166
2026-01-03 11:49:27.66	25.13	2.11	-48.1	-63.3	3.6	1.51e+00	0	39	104	0	60	53036
2026-01-03 11:49:28.67	25.24	2.15	-48.2	-63.3	3.6	1.51e+00	0	39	104	0	60	52877
2026-01-03 11:49:29.68	25.34	2.19	-48.2	-63.3	3.6	1.51e+00	0	39	104	0	60	52722
2026-01-03 11:49:30.68	25.45	2.24	-48.1	-63.3	3.6	1.51e+00	0	39	104	0	60	52842
2026-01-03 11:49:31.70	25.56	2.28	-48.2	-63.3	3.6	1.51e+00	0	39	104	0	60	53111
2026-01-03 11:49:32.71	25.66	2.32	-48.2	-63.4	3.6	1.51e+00	0	39	104	0	60	53294
2026-01-03 11:49:33.72	25.77	2.36	-48.2	-63.3	3.6	1.51e+00	0	39	104	0	60	52915
2026-01-03 11:49:34.72	25.88	2.40	-48.1	-63.2	3.6	1.51e+00	0	39	104	0	60	52498
2026-01-03 11:49:35.74	25.98	2.45	-48.1	-63.3	3.6	1.51e+00	0	39	104	0	60	52621
2026-01-03 11:49:36.74	26.09	2.49	-48.1	-63.3	3.6	1.51e+00	0	39	104	0	60	52863
2026-01-03 11:49:37.75	26.20	2.53	-48.2	-63.2	3.6	1.51e+00	0	39	104	0	60	52364
2026-01-03 11:49:38.76	26.31	2.57	-48.1	-62.8	3.6	1.51e+00	0	39	104	0	60	49742
2026-01-03 11:49:39.77	26.41	2.61	-48.2	-62.4	3.6	1.51e+00	0	39	104	0	60	47854
2026-01-03 11:49:40.78	26.52	2.65	-48.1	-62.7	3.6	1.51e+00	0	39	104	0	60	49219
2026-01-03 11:49:41.79	26.63	2.70	-48.1	-62.7	3.6	1.51e+00	0	39	104	0	60	49115
2026-01-03 11:49:42.81	26.74	2.74	-47.5	-55.6	6.4	9.74e-01	0	39	104	0	60	21660
2026-01-03 11:49:43.82	26.85	2.78	-47.1	-53.2	8.7	1.40e-01	0	39	0	1048576	60	16492
2026-01-03 11:49:44.82	26.96	2.82	-45.1	-48.3	14.0	7.38e-04	0	39	0	3145728	60	9447
2026-01-03 11:49:45.83	27.07	2.86	-43.9	-46.4	15.9	0.00e+00	0	39	0	4194304	60	7542
2026-01-03 11:49:46.84	27.18	2.91	-43.0	-45.1	17.1	0.00e+00	0	39	0	6291456	60	6477
2026-01-03 11:49:47.85	27.29	2.95	-43.0	-44.9	17.3	0.00e+00	0	39	0	8388608	60	6386
2026-01-03 11:49:48.86	27.40	2.99	-43.4	-45.6	16.6	0.00e+00	0	39	0	10485760	60	6927
2026-01-03 11:49:49.87	27.51	3.03	-44.0	-46.5	15.2	0.00e+00	0	39	0	12582912	60	7677
2026-01-03 11:49:50.88	27.63	3.07	-44.2	-46.8	14.7	0.00e+00	0	39	0	13631488	58	8849
2026-01-03 11:49:51.89	27.74	3.11	-47.9	-60.5	3.6	0.00e+00	0	39	104	15728640	60	38083
2026-01-03 11:49:52.90	27.85	3.15	-44.8	-47.6	5.8	1.49e+00	0	39	104	15728640	60	8711
2026-01-03 11:49:53.91	27.96	3.20	-43.6	-45.7	16.9	7.00e-07	0	39	0	15728640	60	6980
2026-01-03 11:49:54.92	28.07	3.24	-47.8	-55.8	4.4	0.00e+00	0	39	0	17825792	60	22185
2026-01-03 11:49:55.92	28.19	3.28	-43.3	-45.4	16.3	4.01e-03	0	39	104	17825792	60	6698
2026-01-03 11:49:56.93	28.30	3.32	-43.6	-45.7	17.0	0.00e+00	0	39	0	18874368	60	6980
2026-01-03 11:49:57.94	28.41	3.36	-43.6	-45.7	16.7	0.00e+00	0	39	0	20971520	60	6983
2026-01-03 11:49:58.95	28.53	3.40	-43.9	-46.2	16.2	0.00e+00	0	39	0	23068672	60	7359
2026-01-03 11:49:59.96	28.64	3.44	-43.7	-45.8	16.8	0.00e+00	0	39	0	24117248	60	7070
2026-01-03 11:50:00.97	28.76	3.49	-43.4	-45.5	17.2	0.00e+00	0	39	0	26214400	60	6805
2026-01-03 11:50:01.98	28.87	3.53	-43.0	-44.9	17.9	0.00e+00	0	39	0	28311552	60	6341
2026-01-03 11:50:02.99	28.99	3.57	-43.0	-44.8	17.8	0.00e+00	0	39	0	30408704	60	6303
2026-01-03 11:50:04.00	29.10	3.61	-42.5	-44.2	18.3	0.00e+00	0	39	0	32505856	58	6583
2026-01-03 11:50:05.01	29.22	3.65	-42.1	-43.7	18.6	0.00e+00	0	39	0	33554432	58	6245
2026-01-03 11:50:06.02	29.33	3.69	-41.9	-43.5	19.1	0.00e+00	0	39	0	35651584	58	6038
2026-01-03 11:50:07.03	29.45	3.73	-41.8	-43.3	19.4	0.00e+00	0	39	0	37748736	56	6649
2026-01-03 11:50:08.04	29.57	3.77	-42.1	-43.6	19.2	0.00e+00	0	39	0	39845888	56	6915
2026-01-03 11:50:09.05	29.69	3.81	-41.9	-43.4	19.3	0.00e+00	0	39	0	41943040	56	6735
2026-01-03 11:50:10.06	29.80	3.86	-42.0	-43.5	19.5	0.00e+00	0	39	0	42991616	56	6778
2026-01-03 11:50:11.06	29.92	3.90	-41.9	-43.4	19.4	0.00e+00	0	39	0	45088768	56	6695
2026-01-03 11:50:12.07	30.04	3.94	-42.0	-43.5	19.3	0.00e+00	0	39	0	47185920	56	6798
2026-01-03 11:50:13.08	30.16	3.98	-42.0	-43.5	19.4	0.00e+00	0	39	0	49283072	56	6815
2026-01-03 11:50:14.09	30.27	4.02	-42.3	-43.9	18.9	0.00e+00	0	39	0	51380224	56	7103
2026-01-03 11:50:15.10	30.39	4.06	-42.4	-44.0	18.8	0.00e+00	0	39	0	53477376	56	7178
2026-01-03 11:50:16.11	30.51	4.10	-42.0	-43.6	19.2	0.00e+00	0	39	0	54525952	56	6850
2026-01-03 11:50:17.12	30.63	4.14	-41.9	-43.4	19.3	0.00e+00	0	39	0	56623104	56	6721
2026-01-03 11:50:18.13	30.75	4.18	-42.3	-43.9	19.0	0.00e+00	0	39	0	58720256	56	7125
2026-01-03 11:50:19.14	30.87	4.22	-42.4	-44.0	18.9	0.00e+00	0	39	0	60817408	56	7237
2026-01-03 11:50:20.15	30.99	4.26	-42.1	-43.7	19.2	0.00e+00	0	39	0	62914560	56	6928
2026-01-03 11:50:21.16	31.11	4.30	-41.6	-43.0	19.8	0.00e+00	0	39	0	63963136	56	6447
2026-01-03 11:50:22.17	31.24	4.35	-42.1	-43.6	19.2	0.00e+00	0	39	0	66060288	56	6858
2026-01-03 11:50:23.18	31.36	4.39	-41.6	-43.0	19.9	0.00e+00	0	39	0	68157440	56	6427
2026-01-03 11:50:24.19	31.48	4.43	-41.8	-43.2	19.5	0.00e+00	0	39	0	70254592	56	6612
2026-01-03 11:50:25.20	31.60	4.47	-41.7	-43.0	19.8	0.00e+00	0	39	0	71303168	56	6464
2026-01-03 11:50:26.21	31.72	4.51	-41.7	-43.1	19.7	0.00e+00	0	39	0	73400320	56	6497
2026-01-03 11:50:27.22	31.85	4.55	-41.8	-43.2	19.8	0.00e+00	0	39	0	75497472	56	6600
2026-01-03 11:50:28.23	31.97	4.59	-42.1	-43.5	19.3	0.00e+00	0	39	0	77594624	56	6829
2026-01-03 11:50:29.24	32.09	4.63	-41.9	-43.3	19.4	0.00e+00	0	39	0	79691776	56	6671
2026-01-03 11:50:30.25	32.22	4.67	-41.8	-43.2	19.6	0.00e+00	0	39	0	81788928	56	6565
2026-01-03 11:50:31.26	32.34	4.71	-42.8	-44.5	18.6	0.00e+00	0	39	0	82837504	56	7605
2026-01-03 11:50:32.27	32.47	4.75	-42.3	-43.9	19.1	0.00e+00	0	39	0	84934656	58	6330
2026-01-03 11:50:33.28	32.59	4.79	-42.5	-44.0	18.9	0.00e+00	0	39	0	87031808	58	6454
2026-01-03 11:50:34.29	32.72	4.83	-41.9	-43.4	19.4	0.00e+00	0	39	0	89128960	58	5999
2026-01-03 11:50:35.30	32.84	4.87	-42.2	-43.7	19.3	0.00e+00	0	39	0	91226112	56	6955
2026-01-03 11:50:36.31	32.97	4.91	-41.9	-43.4	19.5	0.00e+00	0	39	0	92274688	56	6707
2026-01-03 11:50:37.32	33.09	4.95	-42.0	-43.4	19.6	0.00e+00	0	39	0	94371840	56	6733
2026-01-03 11:50:38.32	33.22	4.99	-42.1	-43.6	19.4	0.00e+00	0	39	0	96468992	56	6896
2026-01-03 11:50:39.33	33.35	5.03	-41.9	-43.4	19.7	0.00e+00	0	39	0	98566144	56	6695
2026-01-03 11:50:40.34	33.47	5.07	-41.8	-43.2	20.0	0.00e+00	0	39	0	100663296	56	6542
2026-01-03 11:50:41.35	33.60	5.11	-42.1	-43.6	19.5	0.00e+00	0	39	0	101711872	56	6879
2026-01-03 11:50:42.35	33.73	5.15	-41.6	-43.0	19.8	0.00e+00	0	39	0	103809024	56	6398
2026-01-03 11:50:43.36	33.86	5.19	-41.7	-43.1	19.9	0.00e+00	0	39	0	105906176	56	6466
2026-01-03 11:50:44.37	33.98	5.23	-41.6	-43.0	19.8	0.00e+00	0	39	0	108003328	56	6431
2026-01-03 11:50:45.38	34.11	5.27	-41.8	-43.2	19.7	0.00e+00	0	39	0	110100480	56	6574
2026-01-03 11:50:46.39	34.24	5.30	-41.4	-42.8	19.9	0.00e+00	0	39	0	111149056	56	6274
2026-01-03 11:50:47.39	34.37	5.34	-41.9	-43.3	19.7	0.00e+00	0	39	0	113246208	56	6671
2026-01-03 11:50:48.40	34.50	5.38	-41.8	-43.2	19.8	0.00e+00	0	39	0	115343360	56	6567
2026-01-03 11:50:49.41	34.63	5.42	-41.6	-42.9	19.9	0.00e+00	0	39	0	117440512	56	6374
2026-01-03 11:50:50.42	34.76	5.46	-41.5	-42.8	20.1	0.00e+00	0	39	0	119537664	56	6281
2026-01-03 11:50:51.42	34.89	5.50	-41.8	-43.2	19.8	0.00e+00	0	39	0	120586240	56	6583
2026-01-03 11:50:52.43	35.02	5.54	-41.6	-42.9	20.0	0.00e+00	0	39	0	122683392	56	6370
2026-01-03 11:50:53.44	35.15	5.58	-41.7	-43.1	20.1	0.00e+00	0	39	0	124780544	56	6498
2026-01-03 11:50:54.45	35.28	5.62	-41.9	-43.3	19.6	0.00e+00	0	39	0	126877696	56	6654
2026-01-03 11:50:55.46	35.42	5.66	-41.6	-42.9	20.1	0.00e+00	0	39	0	128974848	56	6356
2026-01-03 11:50:56.46	35.55	5.69	-42.0	-43.4	19.7	0.00e+00	0	39	0	130023424	56	6750
2026-01-03 11:50:57.47	35.68	5.73	-41.9	-43.3	19.7	0.00e+00	0	39	0	132120576	56	6690
2026-01-03 11:50:58.48	35.81	5.77	-41.7	-43.1	19.9	0.00e+00	0	39	0	134217728	56	6518
2026-01-03 11:50:59.49	35.95	5.81	-41.8	-43.2	19.8	0.00e+00	0	39	0	136314880	56	6564
2026-01-03 11:51:00.50	36.08	5.85	-42.1	-43.6	19.5	0.00e+00	0	39	0	138412032	56	6905
2026-01-03 11:51:01.51	36.22	5.89	-42.2	-43.8	19.3	0.00e+00	0	39	0	139460608	56	7019
2026-01-03 11:51:02.52	36.35	5.93	-42.3	-43.8	19.3	0.00e+00	0	39	0	141557760	56	7059
2026-01-03 11:51:03.53	36.48	5.96	-42.0	-43.4	19.4	0.00e+00	0	39	0	143654912	56	6765
2026-01-03 11:51:04.53	36.62	6.00	-42.0	-43.5	19.6	0.00e+00	0	39	0	145752064	56	6778
2026-01-03 11:51:05.54	36.75	6.04	-42.1	-43.6	19.6	0.00e+00	0	39	0	147849216	56	6855
2026-01-03 11:51:06.55	36.89	6.08	-42.0	-43.4	19.5	0.00e+00	0	39	0	149946368	56	6752
2026-01-03 11:51:07.56	37.03	6.12	-41.7	-43.1	19.9	0.00e+00	0	39	0	150994944	56	6478
2026-01-03 11:51:08.57	37.16	6.15	-42.1	-43.6	19.4	0.00e+00	0	39	0	153092096	56	6885
2026-01-03 11:51:09.58	37.30	6.19	-41.9	-43.3	19.7	0.00e+00	0	39	0	155189248	56	6650
2026-01-03 11:51:10.59	37.44	6.23	-42.0	-43.5	19.6	0.00e+00	0	39	0	157286400	56	6774
2026-01-03 11:51:11.60	37.58	6.27	-42.0	-43.4	19.7	0.00e+00	0	39	0	158334976	56	6762
2026-01-03 11:51:12.61	37.71	6.30	-41.8	-43.2	19.7	0.00e+00	0	39	0	160432128	56	6605
2026-01-03 11:51:13.61	37.85	6.34	-42.0	-43.4	19.6	0.00e+00	0	39	0	162529280	56	6728
2026-01-03 11:51:14.62	37.99	6.38	-42.1	-43.6	19.5	0.00e+00	0	39	0	164626432	56	6894
2026-01-03 11:51:15.63	38.13	6.42	-42.3	-43.8	19.3	0.00e+00	0	39	0	166723584	56	7053
2026-01-03 11:51:16.64	38.27	6.45	-42.3	-43.8	19.2	0.00e+00	0	39	0	167772160	56	7088
2026-01-03 11:51:17.65	38.41	6.49	-42.3	-43.8	19.2	0.00e+00	0	39	0	169869312	56	7064
2026-01-03 11:51:18.66	38.55	6.53	-42.4	-43.9	19.3	0.00e+00	0	39	0	171966464	56	7139
2026-01-03 11:51:19.66	38.69	6.56	-42.2	-43.7	19.4	0.00e+00	0	39	0	174063616	56	6964
2026-01-03 11:51:20.67	38.83	6.60	-42.2	-43.7	19.3	0.00e+00	0	39	0	176160768	56	6973
2026-01-03 11:51:21.68	38.97	6.64	-42.2	-43.7	19.4	0.00e+00	0	39	0	178257920	56	6984
2026-01-03 11:51:22.69	39.11	6.67	-41.9	-43.4	19.6	0.00e+00	0	39	0	179306496	56	6706
2026-01-03 11:51:23.70	39.25	6.71	-42.0	-43.4	19.6	0.00e+00	0	39	0	181403648	56	6721
2026-01-03 11:51:24.71	39.39	6.75	-42.0	-43.5	19.6	0.00e+00	0	39	0	183500800	56	6775
2026-01-03 11:51:25.71	39.53	6.78	-42.0	-43.5	19.6	0.00e+00	0	39	0	185597952	56	6805
2026-01-03 11:51:26.72	39.68	6.82	-41.7	-43.1	19.7	0.00e+00	0	39	0	187695104	56	6530
2026-01-03 11:51:27.73	39.82	6.86	-42.0	-43.4	19.6	0.00e+00	0	39	0	188743680	56	6743
2026-01-03 11:51:28.74	39.96	6.89	-42.1	-43.6	19.4	0.00e+00	0	39	0	190840832	56	6908
2026-01-03 11:51:29.75	40.11	6.93	-42.1	-43.6	19.2	0.00e+00	0	39	0	192937984	56	6913
2026-01-03 11:51:30.76	40.25	6.96	-42.3	-43.8	19.2	0.00e+00	0	39	0	195035136	56	7043
2026-01-03 11:51:31.77	40.40	7.00	-42.4	-44.0	19.0	0.00e+00	0	39	0	197132288	56	7177
2026-01-03 11:51:32.78	40.54	7.04	-42.4	-44.0	18.8	0.00e+00	0	39	0	198180864	56	7224
2026-01-03 11:51:33.79	40.69	7.07	-42.5	-44.1	18.6	0.00e+00	0	39	0	200278016	56	7332
2026-01-03 11:51:34.80	40.83	7.11	-42.7	-44.3	18.7	0.00e+00	0	39	0	202375168	58	6677
2026-01-03 11:51:35.81	40.98	7.14	-42.6	-44.3	18.7	0.00e+00	0	39	0	204472320	58	6645
2026-01-03 11:51:36.81	41.12	7.18	-42.7	-44.4	18.5	0.00e+00	0	39	0	206569472	58	6755
2026-01-03 11:51:37.82	41.27	7.21	-42.5	-44.1	18.7	0.00e+00	0	39	0	207618048	58	6497
2026-01-03 11:51:38.83	41.42	7.25	-42.8	-44.4	18.5	0.00e+00	0	39	0	209715200	58	6767
2026-01-03 11:51:39.84	41.56	7.28	-42.5	-44.2	18.8	0.00e+00	0	39	0	211812352	58	6541
2026-01-03 11:51:40.85	41.71	7.32	-42.6	-44.3	18.7	0.00e+00	0	39	0	213909504	58	6617
2026-01-03 11:51:41.85	41.86	7.35	-42.7	-44.3	18.5	0.00e+00	0	39	0	216006656	58	6670
2026-01-03 11:51:42.86	42.00	7.39	-42.4	-44.0	18.8	0.00e+00	0	39	0	217055232	58	6415
2026-01-03 11:51:43.87	42.15	7.42	-42.6	-44.3	18.6	0.00e+00	0	39	0	219152384	58	6647
2026-01-03 11:51:44.88	42.30	7.46	-42.6	-44.3	18.7	0.00e+00	0	39	0	221249536	58	6641
2026-01-03 11:51:45.89	42.45	7.49	-42.6	-44.2	18.7	0.00e+00	0	39	0	223346688	58	6595
2026-01-03 11:51:46.90	42.60	7.52	-42.7	-44.4	18.6	0.00e+00	0	39	0	225443840	58	6701
2026-01-03 11:51:47.91	42.75	7.56	-42.7	-44.4	18.4	0.00e+00	0	39	0	226492416	58	6699
2026-01-03 11:51:48.92	42.90	7.59	-42.5	-44.2	18.7	0.00e+00	0	39	0	228589568	58	6553
2026-01-03 11:51:49.93	43.05	7.63	-42.4	-44.0	19.0	0.00e+00	0	39	0	230686720	58	6417
2026-01-03 11:51:50.94	43.20	7.66	-42.4	-44.0	19.1	0.00e+00	0	39	0	232783872	58	6439
2026-01-03 11:51:51.95	43.35	7.69	-42.2	-43.7	18.9	0.00e+00	0	39	0	234881024	58	6240
2026-01-03 11:51:52.96	43.51	7.73	-42.2	-43.7	19.1	0.00e+00	0	39	0	235929600	58	6242
2026-01-03 11:51:53.96	43.66	7.76	-42.5	-44.1	18.8	0.00e+00	0	39	0	238026752	58	6471
2026-01-03 11:51:54.97	43.81	7.79	-42.1	-43.5	19.4	0.00e+00	0	39	0	240123904	58	6096
2026-01-03 11:51:55.98	43.96	7.83	-41.9	-43.4	19.6	0.00e+00	0	39	0	242221056	58	5980
2026-01-03 11:51:56.99	44.11	7.86	-41.9	-43.3	19.6	0.00e+00	0	39	0	244318208	58	5964
2026-01-03 11:51:58.00	44.27	7.89	-41.9	-43.3	19.7	0.00e+00	0	39	0	245366784	58	5943
2026-01-03 11:51:59.01	44.42	7.92	-42.1	-43.5	19.5	0.00e+00	0	39	0	247463936	58	6096
2026-01-03 11:52:00.02	44.58	7.96	-42.1	-43.5	19.5	0.00e+00	0	39	0	249561088	58	6080
2026-01-03 11:52:01.02	44.73	7.99	-42.0	-43.4	19.5	0.00e+00	0	39	0	251658240	58	6033
2026-01-03 11:52:02.03	44.88	8.02	-42.1	-43.6	19.4	0.00e+00	0	39	0	253755392	58	6140
2026-01-03 11:52:03.04	45.04	8.05	-42.1	-43.5	19.5	0.00e+00	0	39	0	254803968	58	6092
2026-01-03 11:52:04.05	45.19	8.09	-42.2	-43.7	19.4	0.00e+00	0	39	0	256901120	58	6208
2026-01-03 11:52:05.06	45.35	8.12	-42.2	-43.6	19.4	0.00e+00	0	39	0	258998272	58	6168
2026-01-03 11:52:06.07	45.51	8.15	-42.3	-43.8	19.3	0.00e+00	0	39	0	261095424	58	6290
2026-01-03 11:52:07.08	45.66	8.18	-42.4	-43.9	19.2	0.00e+00	0	39	0	263192576	58	6375
2026-01-03 11:52:08.09	45.82	8.21	-42.3	-43.8	19.4	0.00e+00	0	39	0	264241152	58	6279
2026-01-03 11:52:09.10	45.97	8.24	-42.0	-43.5	19.7	0.00e+00	0	39	0	266338304	58	6057
2026-01-03 11:52:10.11	46.13	8.27	-41.9	-43.3	19.8	0.00e+00	0	39	0	268435456	58	5959
2026-01-03 11:52:11.12	46.29	8.31	-41.7	-43.0	20.1	0.00e+00	0	39	0	270532608	56	6451
2026-01-03 11:52:12.13	46.45	8.34	-41.5	-42.8	20.4	0.00e+00	0	39	0	272629760	56	6271
2026-01-03 11:52:13.13	46.60	8.37	-41.4	-42.7	20.5	0.00e+00	0	39	0	274726912	56	6174
2026-01-03 11:52:14.14	46.76	8.40	-41.4	-42.7	20.6	0.00e+00	0	39	0	275775488	56	6222
2026-01-03 11:52:15.15	46.92	8.43	-41.4	-42.6	20.6	0.00e+00	0	39	0	277872640	56	6151
2026-01-03 11:52:16.16	47.08	8.46	-41.7	-43.0	20.3	0.00e+00	0	39	0	279969792	56	6423
2026-01-03 11:52:17.17	47.24	8.49	-41.7	-43.0	20.2	0.00e+00	0	39	0	282066944	56	6457
2026-01-03 11:52:18.17	47.40	8.52	-42.0	-43.4	19.9	0.00e+00	0	39	0	284164096	56	6718
2026-01-03 11:52:19.18	47.56	8.55	-42.2	-43.6	19.8	0.00e+00	0	39	0	285212672	56	6876
2026-01-03 11:52:20.19	47.72	8.58	-42.2	-43.7	19.8	0.00e+00	0	39	0	287309824	56	6940
2026-01-03 11:52:21.20	47.88	8.61	-42.4	-43.9	19.4	0.00e+00	0	39	0	289406976	56	7123
2026-01-03 11:52:22.21	48.04	8.64	-42.4	-43.9	19.7	0.00e+00	0	39	0	291504128	56	7123
2026-01-03 11:52:23.22	48.20	8.67	-42.1	-43.4	20.0	0.00e+00	0	39	0	293601280	56	6759
2026-01-03 11:52:24.22	48.36	8.69	-42.0	-43.4	20.0	0.00e+00	0	39	0	294649856	56	6733
2026-01-03 11:52:25.23	48.53	8.72	-42.2	-43.6	19.9	0.00e+00	0	39	0	296747008	56	6881
2026-01-03 11:52:26.24	48.69	8.75	-42.1	-43.5	20.1	0.00e+00	0	39	0	298844160	56	6781
2026-01-03 11:52:27.25	48.85	8.78	-42.2	-43.6	19.9	0.00e+00	0	39	0	300941312	56	6909
2026-01-03 11:52:28.26	49.01	8.81	-42.3	-43.7	19.8	0.00e+00	0	39	0	303038464	56	6975
2026-01-03 11:52:29.26	49.18	8.84	-42.2	-43.6	19.6	0.00e+00	0	39	0	304087040	58	6140
2026-01-03 11:52:30.27	49.34	8.86	-42.2	-43.7	19.7	0.00e+00	0	39	0	306184192	58	6187
2026-01-03 11:52:31.28	49.50	8.89	-42.1	-43.5	19.9	0.00e+00	0	39	0	308281344	58	6051
2026-01-03 11:52:32.29	49.67	8.92	-42.1	-43.5	19.7	0.00e+00	0	39	0	310378496	58	6052
2026-01-03 11:52:33.30	49.83	8.95	-41.9	-43.3	20.1	0.00e+00	0	39	0	312475648	56	6641
2026-01-03 11:52:34.31	50.00	8.98	-41.6	-42.9	20.5	0.00e+00	0	39	0	313524224	56	6327
2026-01-03 11:52:35.32	50.16	9.00	-41.4	-42.6	20.7	0.00e+00	0	39	0	315621376	56	6146
2026-01-03 11:52:36.33	50.33	9.03	-41.6	-42.9	20.5	0.00e+00	0	39	0	317718528	56	6350
2026-01-03 11:52:37.33	50.49	9.06	-41.8	-43.1	20.3	0.00e+00	0	39	0	319815680	56	6493
2026-01-03 11:52:38.35	50.66	9.08	-41.6	-42.8	20.6	0.00e+00	0	39	0	321912832	56	6300
2026-01-03 11:52:39.35	50.82	9.11	-41.9	-43.2	20.2	0.00e+00	0	39	0	322961408	56	6615
2026-01-03 11:52:40.37	50.99	9.14	-41.9	-43.2	19.9	0.00e+00	0	39	0	325058560	56	6601
2026-01-03 11:52:41.37	51.16	9.16	-42.4	-43.8	19.8	0.00e+00	0	39	0	327155712	56	7063
2026-01-03 11:52:42.39	51.33	9.19	-42.7	-44.2	19.3	0.00e+00	0	39	0	329252864	58	6576
2026-01-03 11:52:43.40	51.49	9.21	-43.0	-44.6	18.7	0.00e+00	0	39	0	331350016	58	6894
2026-01-03 11:52:44.41	51.66	9.24	-43.7	-45.6	18.5	0.00e+00	0	39	0	332398592	58	7696
2026-01-03 11:52:45.41	51.83	9.26	-43.4	-45.1	18.7	0.00e+00	0	39	0	334495744	58	7262
2026-01-03 11:52:46.42	52.00	9.29	-43.3	-45.0	18.3	0.00e+00	0	39	0	336592896	58	7198
2026-01-03 11:52:47.43	52.17	9.31	-43.3	-44.9	18.8	0.00e+00	0	39	0	338690048	58	7142
2026-01-03 11:52:48.44	52.33	9.34	-42.6	-44.0	19.2	0.00e+00	0	39	0	340787200	58	6464
2026-01-03 11:52:49.45	52.50	9.36	-42.2	-43.6	19.8	0.00e+00	0	39	0	342884352	58	6169
2026-01-03 11:52:50.46	52.67	9.39	-42.0	-43.3	20.0	0.00e+00	0	39	0	343932928	58	5936
2026-01-03 11:52:51.47	52.84	9.41	-42.0	-43.4	20.1	0.00e+00	0	39	0	346030080	58	5965
2026-01-03 11:52:52.48	53.01	9.44	-41.7	-43.0	20.3	0.00e+00	0	39	0	348127232	58	5744
2026-01-03 11:52:53.49	53.18	9.46	-42.1	-43.4	20.0	0.00e+00	0	39	0	350224384	56	6752
2026-01-03 11:52:54.50	53.35	9.48	-42.0	-43.4	20.0	0.00e+00	0	39	0	352321536	56	6705
2026-01-03 11:52:55.51	53.52	9.51	-42.1	-43.4	20.0	0.00e+00	0	39	0	353370112	56	6751
2026-01-03 11:52:56.52	53.70	9.53	-42.2	-43.6	19.7	0.00e+00	0	39	0	355467264	56	6899
2026-01-03 11:52:57.53	53.87	9.55	-42.0	-43.3	20.0	0.00e+00	0	39	0	357564416	56	6681
2026-01-03 11:52:58.53	54.04	9.58	-41.9	-43.2	20.2	0.00e+00	0	39	0	359661568	56	6576
2026-01-03 11:52:59.54	54.21	9.60	-41.7	-43.0	20.3	0.00e+00	0	39	0	360710144	56	6419
2026-01-03 11:53:00.55	54.38	9.62	-41.5	-42.7	20.8	0.00e+00	0	39	0	362807296	56	6237
2026-01-03 11:53:01.56	54.55	9.64	-41.2	-42.4	20.9	0.00e+00	0	39	0	364904448	56	5973
2026-01-03 11:53:02.57	54.73	9.67	-41.3	-42.5	20.9	0.00e+00	0	39	0	367001600	56	6075
2026-01-03 11:53:03.58	54.90	9.69	-41.3	-42.5	20.8	0.00e+00	0	39	0	369098752	56	6088
2026-01-03 11:53:04.59	55.07	9.71	-41.3	-42.6	20.5	0.00e+00	0	39	0	371195904	56	6119
2026-01-03 11:53:05.60	55.25	9.73	-41.8	-43.2	20.2	0.00e+00	0	39	0	372244480	56	6553
2026-01-03 11:53:06.61	55.42	9.75	-41.9	-43.3	20.0	0.00e+00	0	39	0	374341632	56	6628
2026-01-03 11:53:07.62	55.59	9.77	-42.0	-43.3	20.0	0.00e+00	0	39	0	376438784	56	6684
2026-01-03 11:53:08.63	55.77	9.79	-42.0	-43.4	20.0	0.00e+00	0	39	0	378535936	56	6694
2026-01-03 11:53:09.64	55.94	9.81	-41.8	-43.1	20.3	0.00e+00	0	39	0	380633088	56	6512
2026-01-03 11:53:10.65	56.12	9.83	-41.5	-42.7	20.2	0.00e+00	0	39	0	381681664	56	6224
2026-01-03 11:53:11.66	56.29	9.85	-41.6	-42.9	20.5	0.00e+00	0	39	0	383778816	56	6371
2026-01-03 11:53:12.67	56.47	9.87	-41.5	-42.8	20.7	0.00e+00	0	39	0	385875968	56	6277
2026-01-03 11:53:13.68	56.64	9.89	-41.5	-42.8	20.7	0.00e+00	0	39	0	387973120	56	6266
2026-01-03 11:53:14.68	56.82	9.91	-41.8	-43.1	20.3	0.00e+00	0	39	0	390070272	56	6526
2026-01-03 11:53:15.69	56.99	9.93	-42.3	-43.7	19.9	0.00e+00	0	39	0	391118848	56	6942
2026-01-03 11:53:16.70	57.17	9.95	-42.5	-43.9	19.5	0.00e+00	0	39	0	393216000	56	7165
2026-01-03 11:53:17.71	57.34	9.97	-42.5	-44.0	19.5	0.00e+00	0	39	0	395313152	56	7241
2026-01-03 11:53:18.72	57.52	9.99	-42.4	-43.9	19.5	0.00e+00	0	39	0	397410304	56	7116
2026-01-03 11:53:19.73	57.70	10.01	-42.3	-43.7	19.8	0.00e+00	0	39	0	399507456	56	7001
2026-01-03 11:53:20.74	57.87	10.03	-41.8	-43.1	20.3	0.00e+00	0	39	0	400556032	56	6533
2026-01-03 11:53:21.75	58.05	10.04	-41.9	-43.2	20.2	0.00e+00	0	39	0	402653184	56	6553
2026-01-03 11:53:22.75	58.23	10.06	-41.4	-42.6	20.7	0.00e+00	0	39	0	404750336	56	6164
2026-01-03 11:53:23.76	58.40	10.08	-41.4	-42.7	20.6	0.00e+00	0	39	0	406847488	56	6194
2026-01-03 11:53:24.77	58.58	10.10	-41.4	-42.6	20.6	0.00e+00	0	39	0	408944640	56	6152
2026-01-03 11:53:25.78	58.76	10.11	-41.7	-43.0	20.3	0.00e+00	0	39	0	409993216	56	6432
2026-01-03 11:53:26.79	58.94	10.13	-41.7	-43.0	20.3	0.00e+00	0	39	0	412090368	56	6460
2026-01-03 11:53:27.80	59.12	10.15	-42.1	-43.5	20.0	0.00e+00	0	39	0	414187520	56	6811
2026-01-03 11:53:28.81	59.29	10.16	-42.1	-43.5	19.9	0.00e+00	0	39	0	416284672	56	6782
2026-01-03 11:53:29.82	59.47	10.18	-41.9	-43.3	20.1	0.00e+00	0	39	0	418381824	56	6632
2026-01-03 11:53:30.83	59.65	10.19	-41.9	-43.2	20.1	0.00e+00	0	39	0	419430400	56	6612
2026-01-03 11:53:31.83	59.83	10.21	-42.1	-43.5	19.8	0.00e+00	0	39	0	421527552	56	6813
2026-01-03 11:53:32.84	60.01	10.23	-42.2	-43.6	19.7	0.00e+00	0	39	0	423624704	56	6913
2026-01-03 11:53:33.85	60.19	10.24	-42.5	-44.0	19.3	0.00e+00	0	39	0	425721856	56	7211
2026-01-03 11:53:34.86	60.37	10.26	-43.0	-44.7	18.7	0.00e+00	0	39	0	427819008	58	6942
2026-01-03 11:53:35.87	60.55	10.27	-43.4	-45.2	18.2	0.00e+00	0	39	0	428867584	58	7342
2026-01-03 11:53:36.88	60.73	10.28	-43.8	-45.7	17.7	0.00e+00	0	39	0	430964736	60	7004
2026-01-03 11:53:37.89	60.91	10.30	-44.1	-46.1	17.5	0.00e+00	0	39	0	433061888	60	7293
2026-01-03 11:53:38.90	61.09	10.31	-44.1	-46.0	17.4	0.00e+00	0	39	0	435159040	60	7248
2026-01-03 11:53:39.91	61.27	10.33	-43.9	-45.8	17.9	0.00e+00	0	39	0	437256192	60	7030
2026-01-03 11:53:40.92	61.45	10.34	-43.7	-45.5	18.1	0.00e+00	0	39	0	439353344	60	6839
2026-01-03 11:53:41.92	61.63	10.35	-43.6	-45.4	18.4	0.00e+00	0	39	0	440401920	60	6760
2026-01-03 11:53:42.93	61.81	10.37	-43.2	-44.8	18.8	0.00e+00	0	39	0	442499072	60	6276
2026-01-03 11:53:43.94	61.99	10.38	-42.9	-44.6	19.0	0.00e+00	0	39	0	444596224	60	6111
2026-01-03 11:53:44.95	62.17	10.39	-42.9	-44.5	18.9	0.00e+00	0	39	0	446693376	60	6079
2026-01-03 11:53:45.96	62.35	10.40	-43.0	-44.6	19.0	0.00e+00	0	39	0	448790528	60	6135
2026-01-03 11:53:46.97	62.54	10.42	-43.1	-44.8	18.6	0.00e+00	0	39	0	449839104	60	6271
2026-01-03 11:53:47.98	62.72	10.43	-43.4	-45.1	18.5	0.00e+00	0	39	0	451936256	60	6493
2026-01-03 11:53:48.99	62.90	10.44	-42.9	-44.5	19.0	0.00e+00	0	39	0	454033408	60	6088
2026-01-03 11:53:50.00	63.08	10.45	-42.8	-44.4	19.1	0.00e+00	0	39	0	456130560	60	6010
2026-01-03 11:53:51.00	63.26	10.46	-42.7	-44.2	19.3	0.00e+00	0	39	0	458227712	58	6614
2026-01-03 11:53:52.01	63.44	10.47	-42.7	-44.3	19.2	0.00e+00	0	39	0	459276288	58	6617
2026-01-03 11:53:53.02	63.63	10.48	-42.6	-44.1	19.1	0.00e+00	0	39	0	461373440	58	6476
2026-01-03 11:53:54.03	63.81	10.49	-42.1	-43.4	19.9	0.00e+00	0	39	0	463470592	58	6026
2026-01-03 11:53:55.04	63.99	10.50	-42.1	-43.5	19.9	0.00e+00	0	39	0	465567744	58	6065
2026-01-03 11:53:56.05	64.18	10.51	-42.3	-43.7	19.7	0.00e+00	0	39	0	467664896	58	6216
2026-01-03 11:53:57.05	64.36	10.52	-42.1	-43.6	19.8	0.00e+00	0	39	0	468713472	58	6106
2026-01-03 11:53:58.07	64.54	10.53	-42.2	-43.6	19.8	0.00e+00	0	39	0	470810624	58	6154
2026-01-03 11:53:59.08	64.72	10.54	-42.1	-43.5	19.9	0.00e+00	0	39	0	472907776	58	6048
2026-01-03 11:54:00.09	64.91	10.55	-42.0	-43.4	19.9	0.00e+00	0	39	0	475004928	58	6019
2026-01-03 11:54:01.09	65.09	10.56	-41.8	-43.1	20.3	0.00e+00	0	39	0	477102080	58	5780
2026-01-03 11:54:02.10	65.27	10.57	-41.7	-43.0	20.5	0.00e+00	0	39	0	478150656	56	6398
2026-01-03 11:54:03.11	65.46	10.57	-41.6	-42.9	20.5	0.00e+00	0	39	0	480247808	56	6346
2026-01-03 11:54:04.12	65.64	10.58	-41.3	-42.5	20.8	0.00e+00	0	39	0	482344960	56	6092
2026-01-03 11:54:05.13	65.82	10.59	-41.3	-42.6	20.8	0.00e+00	0	39	0	484442112	56	6123
2026-01-03 11:54:06.14	66.01	10.60	-41.5	-42.7	20.6	0.00e+00	0	39	0	486539264	56	6232
2026-01-03 11:54:07.15	66.19	10.60	-41.5	-42.7	20.6	0.00e+00	0	39	0	487587840	56	6214
2026-01-03 11:54:08.16	66.38	10.61	-41.6	-42.8	20.5	0.00e+00	0	39	0	489684992	56	6295
2026-01-03 11:54:09.17	66.56	10.62	-41.7	-43.0	20.4	0.00e+00	0	39	0	491782144	56	6415
2026-01-03 11:54:10.18	66.75	10.62	-41.6	-42.8	20.6	0.00e+00	0	39	0	493879296	56	6307
2026-01-03 11:54:11.19	66.93	10.63	-41.6	-42.8	20.6	0.00e+00	0	39	0	495976448	56	6296
2026-01-03 11:54:12.20	67.11	10.63	-41.5	-42.7	20.7	0.00e+00	0	39	0	497025024	56	6210
2026-01-03 11:54:13.21	67.30	10.64	-41.3	-42.6	20.7	0.00e+00	0	39	0	499122176	56	6118
2026-01-03 11:54:14.21	67.48	10.65	-41.4	-42.6	20.8	0.00e+00	0	39	0	501219328	56	6157
2026-01-03 11:54:15.22	67.67	10.65	-41.3	-42.5	20.7	0.00e+00	0	39	0	503316480	56	6097
2026-01-03 11:54:16.23	67.85	10.65	-41.7	-43.0	20.3	0.00e+00	0	39	0	505413632	56	6434
2026-01-03 11:54:17.24	68.04	10.66	-41.8	-43.2	20.2	0.00e+00	0	39	0	506462208	56	6549
2026-01-03 11:54:18.25	68.22	10.66	-41.9	-43.3	20.0	0.00e+00	0	39	0	508559360	56	6638
2026-01-03 11:54:19.25	68.40	10.67	-41.9	-43.2	20.1	0.00e+00	0	39	0	510656512	56	6576
2026-01-03 11:54:20.26	68.59	10.67	-41.7	-43.0	20.1	0.00e+00	0	39	0	512753664	56	6434
2026-01-03 11:54:21.27	68.77	10.67	-41.2	-42.5	20.7	0.00e+00	0	39	0	514850816	56	6045
2026-01-03 11:54:22.28	68.96	10.68	-41.5	-42.7	20.9	0.00e+00	0	39	0	515899392	56	6230
2026-01-03 11:54:23.29	69.14	10.68	-40.8	-42.0	21.2	0.00e+00	0	39	0	517996544	56	5725
2026-01-03 11:54:24.30	69.33	10.68	-40.7	-41.9	21.2	0.00e+00	0	39	0	520093696	54	6342
2026-01-03 11:54:25.31	69.51	10.68	-40.8	-42.0	21.1	0.00e+00	0	39	0	522190848	54	6422
2026-01-03 11:54:26.32	69.70	10.69	-40.8	-42.0	21.2	0.00e+00	0	39	0	524288000	54	6447
2026-01-03 11:54:27.33	69.88	10.69	-40.8	-42.0	21.1	0.00e+00	0	39	0	525336576	54	6426
2026-01-03 11:54:28.33	70.07	10.69	-40.8	-42.0	21.1	0.00e+00	0	39	0	527433728	54	6434
2026-01-03 11:54:29.34	70.25	10.69	-40.7	-41.9	21.3	0.00e+00	0	39	0	529530880	54	6332
2026-01-03 11:54:30.35	70.44	10.69	-40.6	-41.7	21.4	0.00e+00	0	39	0	531628032	54	6239
2026-01-03 11:54:31.36	70.62	10.69	-40.4	-41.5	21.5	0.00e+00	0	39	0	533725184	54	6100
2026-01-03 11:54:32.37	70.81	10.69	-40.5	-41.7	21.5	0.00e+00	0	39	0	535822336	54	6178
2026-01-03 11:54:33.38	70.99	10.69	-40.6	-41.7	21.5	0.00e+00	0	39	0	536870912	54	6213
2026-01-03 11:54:34.38	71.18	10.69	-40.7	-41.8	21.5	0.00e+00	0	39	0	538968064	54	6306
2026-01-03 11:54:35.39	71.36	10.69	-40.6	-41.7	21.5	0.00e+00	0	39	0	541065216	54	6236
2026-01-03 11:54:36.40	71.55	10.69	-40.8	-42.0	21.2	0.00e+00	0	39	0	543162368	54	6407
2026-01-03 11:54:37.41	71.73	10.69	-41.0	-42.2	21.0	0.00e+00	0	39	0	545259520	54	6586
2026-01-03 11:54:38.42	71.92	10.69	-41.1	-42.3	20.9	0.00e+00	0	39	0	546308096	54	6634
2026-01-03 11:54:39.43	72.10	10.69	-41.0	-42.2	20.9	0.00e+00	0	39	0	548405248	54	6600
2026-01-03 11:54:40.43	72.29	10.69	-41.1	-42.3	21.0	0.00e+00	0	39	0	550502400	54	6628
2026-01-03 11:54:41.44	72.47	10.69	-40.9	-42.0	21.2	0.00e+00	0	39	0	552599552	54	6457
2026-01-03 11:54:42.45	72.66	10.68	-40.7	-41.9	21.3	0.00e+00	0	39	0	554696704	54	6323
2026-01-03 11:54:43.46	72.84	10.68	-40.6	-41.7	21.5	0.00e+00	0	39	0	555745280	54	6229
2026-01-03 11:54:44.47	73.03	10.68	-40.8	-42.0	21.3	0.00e+00	0	39	0	557842432	54	6392
2026-01-03 11:54:45.48	73.21	10.68	-40.6	-41.7	21.4	0.00e+00	0	39	0	559939584	54	6214
2026-01-03 11:54:46.49	73.40	10.67	-40.5	-41.7	21.5	0.00e+00	0	39	0	562036736	54	6192
2026-01-03 11:54:47.50	73.58	10.67	-40.7	-41.9	21.3	0.00e+00	0	39	0	564133888	54	6348
2026-01-03 11:54:48.51	73.77	10.66	-40.7	-41.9	21.4	0.00e+00	0	39	0	565182464	54	6319
2026-01-03 11:54:49.51	73.95	10.66	-40.8	-42.0	21.3	0.00e+00	0	39	0	567279616	54	6428
2026-01-03 11:54:50.52	74.14	10.66	-40.6	-41.8	21.4	0.00e+00	0	39	0	569376768	54	6255
2026-01-03 11:54:51.53	74.32	10.65	-40.8	-42.0	21.1	0.00e+00	0	39	0	571473920	54	6397
2026-01-03 11:54:52.54	74.50	10.65	-40.3	-41.5	21.3	0.00e+00	0	39	0	573571072	54	6034
2026-01-03 11:54:53.55	74.69	10.64	-40.3	-41.4	21.6	0.00e+00	0	39	0	574619648	54	5992
2026-01-03 11:54:54.56	74.87	10.64	-40.3	-41.4	21.8	0.00e+00	0	39	0	576716800	54	5969
2026-01-03 11:54:55.57	75.06	10.63	-40.1	-41.2	21.7	0.00e+00	0	39	0	578813952	54	5856
2026-01-03 11:54:56.58	75.24	10.63	-40.1	-41.1	21.9	0.00e+00	0	39	0	580911104	54	5818
2026-01-03 11:54:57.59	75.43	10.62	-40.0	-41.1	21.9	0.00e+00	0	39	0	583008256	54	5809
2026-01-03 11:54:58.60	75.61	10.61	-40.1	-41.2	21.2	0.00e+00	0	39	0	584056832	54	5885
2026-01-03 11:54:59.61	75.80	10.61	-40.1	-41.2	21.9	0.00e+00	0	39	0	586153984	54	5878
2026-01-03 11:55:00.62	75.98	10.60	-40.1	-41.2	21.9	0.00e+00	0	39	0	588251136	54	5836
2026-01-03 11:55:01.63	76.16	10.59	-39.9	-41.0	22.1	0.00e+00	0	39	0	590348288	54	5733
2026-01-03 11:55:02.64	76.35	10.58	-39.9	-41.0	22.2	0.00e+00	0	39	0	592445440	52	6456
2026-01-03 11:55:03.64	76.53	10.58	-39.7	-40.7	22.0	0.00e+00	0	39	0	593494016	52	6205
2026-01-03 11:55:04.65	76.71	10.57	-39.5	-40.5	22.5	0.00e+00	0	39	0	595591168	52	6092
2026-01-03 11:55:05.66	76.90	10.56	-39.2	-40.2	22.8	0.00e+00	0	39	0	597688320	52	5876
2026-01-03 11:55:06.67	77.08	10.55	-39.3	-40.3	22.7	0.00e+00	0	39	0	599785472	52	5911
2026-01-03 11:55:07.68	77.27	10.54	-39.5	-40.6	22.5	0.00e+00	0	39	0	601882624	52	6106
2026-01-03 11:55:08.69	77.45	10.53	-39.8	-40.9	22.3	0.00e+00	0	39	0	602931200	52	6356
2026-01-03 11:55:09.70	77.63	10.53	-39.8	-40.9	22.3	0.00e+00	0	39	0	605028352	52	6332
2026-01-03 11:55:10.71	77.82	10.52	-40.0	-41.0	22.1	0.00e+00	0	39	0	607125504	52	6454
2026-01-03 11:55:11.72	78.00	10.51	-40.2	-41.3	22.1	0.00e+00	0	39	0	609222656	52	6631
2026-01-03 11:55:12.73	78.18	10.50	-40.1	-41.2	22.0	0.00e+00	0	39	0	611319808	52	6606
2026-01-03 11:55:13.74	78.36	10.49	-40.1	-41.1	22.1	0.00e+00	0	39	0	612368384	52	6538
2026-01-03 11:55:14.75	78.55	10.48	-40.3	-41.4	22.0	0.00e+00	0	39	0	614465536	52	6695
2026-01-03 11:55:15.75	78.73	10.46	-40.1	-41.2	21.9	0.00e+00	0	39	0	616562688	52	6544
2026-01-03 11:55:16.76	78.91	10.45	-40.1	-41.2	22.0	0.00e+00	0	39	0	618659840	52	6544
2026-01-03 11:55:17.77	79.09	10.44	-40.2	-41.3	22.1	0.00e+00	0	39	0	620756992	52	6616
2026-01-03 11:55:18.78	79.28	10.43	-40.2	-41.2	22.0	0.00e+00	0	39	0	621805568	52	6584
2026-01-03 11:55:19.79	79.46	10.42	-40.3	-41.4	21.9	0.00e+00	0	39	0	623902720	52	6723
2026-01-03 11:55:20.80	79.64	10.41	-40.2	-41.3	21.8	0.00e+00	0	39	0	625999872	52	6626
2026-01-03 11:55:21.81	79.82	10.40	-40.1	-41.2	21.8	0.00e+00	0	39	0	628097024	52	6544
2026-01-03 11:55:22.82	80.00	10.38	-40.1	-41.1	21.9	0.00e+00	0	39	0	630194176	52	6534
2026-01-03 11:55:23.83	80.19	10.37	-40.2	-41.3	21.9	0.00e+00	0	39	0	632291328	52	6653
2026-01-03 11:55:24.84	80.37	10.36	-40.3	-41.4	21.7	0.00e+00	0	39	0	633339904	54	5979
2026-01-03 11:55:25.85	80.55	10.34	-40.1	-41.2	21.8	0.00e+00	0	39	0	635437056	54	5872
2026-01-03 11:55:26.86	80.73	10.33	-40.3	-41.4	21.6	0.00e+00	0	39	0	637534208	54	5973
2026-01-03 11:55:27.87	80.91	10.32	-40.2	-41.3	21.7	0.00e+00	0	39	0	639631360	54	5919
2026-01-03 11:55:28.88	81.09	10.30	-40.2	-41.3	21.5	0.00e+00	0	39	0	641728512	54	5930
2026-01-03 11:55:29.88	81.27	10.29	-40.4	-41.5	21.3	0.00e+00	0	39	0	642777088	54	6102
2026-01-03 11:55:30.89	81.45	10.27	-40.4	-41.5	21.4	0.00e+00	0	39	0	644874240	54	6092
2026-01-03 11:55:31.90	81.63	10.26	-40.8	-42.0	21.2	0.00e+00	0	39	0	646971392	54	6422
2026-01-03 11:55:32.91	81.81	10.24	-41.1	-42.3	20.9	0.00e+00	0	39	0	649068544	54	6636
2026-01-03 11:55:33.92	81.99	10.23	-41.2	-42.5	20.9	0.00e+00	0	39	0	651165696	54	6776
2026-01-03 11:55:34.93	82.17	10.21	-40.8	-42.0	21.0	0.00e+00	0	39	0	652214272	54	6429
2026-01-03 11:55:35.94	82.35	10.20	-40.9	-42.1	21.0	0.00e+00	0	39	0	654311424	54	6517
2026-01-03 11:55:36.95	82.53	10.18	-41.0	-42.3	21.0	0.00e+00	0	39	0	656408576	54	6624
2026-01-03 11:55:37.95	82.71	10.17	-41.0	-42.2	20.7	0.00e+00	0	39	0	658505728	54	6562
2026-01-03 11:55:38.97	82.89	10.15	-40.9	-42.0	21.1	0.00e+00	0	39	0	660602880	54	6460
2026-01-03 11:55:39.97	83.06	10.13	-40.6	-41.8	21.3	0.00e+00	0	39	0	661651456	54	6278
2026-01-03 11:55:40.99	83.24	10.12	-40.3	-41.4	21.7	0.00e+00	0	39	0	663748608	54	5995
2026-01-03 11:55:41.99	83.42	10.10	-40.3	-41.4	21.7	0.00e+00	0	39	0	665845760	54	6010
2026-01-03 11:55:43.00	83.60	10.08	-40.3	-41.4	21.6	0.00e+00	0	39	0	667942912	54	6012
2026-01-03 11:55:44.01	83.78	10.07	-40.1	-41.2	21.6	0.00e+00	0	39	0	670040064	54	5850
2026-01-03 11:55:45.02	83.95	10.05	-39.9	-41.0	21.9	0.00e+00	0	39	0	671088640	54	5711
2026-01-03 11:55:46.03	84.13	10.03	-39.9	-40.9	22.2	0.00e+00	0	39	0	673185792	52	6388
2026-01-03 11:55:47.04	84.31	10.01	-39.4	-40.4	22.1	0.00e+00	0	39	0	675282944	52	6027
2026-01-03 11:55:48.05	84.49	9.99	-39.5	-40.5	22.2	0.00e+00	0	39	0	677380096	52	6100
2026-01-03 11:55:49.05	84.66	9.97	-39.4	-40.3	22.2	0.00e+00	0	39	0	679477248	52	5963
2026-01-03 11:55:50.06	84.84	9.96	-39.7	-40.7	22.3	0.00e+00	0	39	0	680525824	52	6192
2026-01-03 11:55:51.07	85.02	9.94	-39.4	-40.4	22.7	0.00e+00	0	39	0	682622976	52	5968
2026-01-03 11:55:52.08	85.19	9.92	-39.1	-40.1	22.8	0.00e+00	0	39	0	684720128	52	5774
2026-01-03 11:55:53.09	85.37	9.90	-39.4	-40.3	22.6	0.00e+00	0	39	0	686817280	52	5949
2026-01-03 11:55:54.10	85.54	9.88	-39.6	-40.6	22.4	0.00e+00	0	39	0	688914432	52	6138
2026-01-03 11:55:55.11	85.72	9.86	-39.8	-40.9	22.3	0.00e+00	0	39	0	689963008	52	6322
2026-01-03 11:55:56.12	85.89	9.84	-39.7	-40.7	22.4	0.00e+00	0	39	0	692060160	52	6179
2026-01-03 11:55:57.13	86.07	9.82	-39.8	-40.8	22.1	0.00e+00	0	39	0	694157312	52	6296
2026-01-03 11:55:58.15	86.25	9.80	-39.9	-41.0	22.0	0.00e+00	0	39	0	696254464	52	6396
2026-01-03 11:55:59.16	86.42	9.78	-40.0	-41.1	22.0	0.00e+00	0	39	0	698351616	52	6483
2026-01-03 11:56:00.16	86.59	9.76	-39.9	-41.0	22.1	0.00e+00	0	39	0	700448768	52	6393
2026-01-03 11:56:01.17	86.77	9.73	-39.9	-40.9	22.3	0.00e+00	0	39	0	701497344	52	6338
2026-01-03 11:56:02.18	86.94	9.71	-39.9	-40.9	22.2	0.00e+00	0	39	0	703594496	52	6352
2026-01-03 11:56:03.19	87.12	9.69	-39.7	-40.7	22.4	0.00e+00	0	39	0	705691648	52	6204
2026-01-03 11:56:04.20	87.29	9.67	-39.6	-40.6	22.4	0.00e+00	0	39	0	707788800	52	6120
2026-01-03 11:56:05.21	87.46	9.65	-39.5	-40.5	22.4	0.00e+00	0	39	0	709885952	52	6081
2026-01-03 11:56:06.22	87.64	9.62	-39.7	-40.7	22.4	0.00e+00	0	39	0	710934528	52	6180
2026-01-03 11:56:07.23	87.81	9.60	-39.7	-40.8	22.3	0.00e+00	0	39	0	713031680	52	6263
2026-01-03 11:56:08.24	87.98	9.58	-39.9	-41.0	22.1	0.00e+00	0	39	0	715128832	52	6421
2026-01-03 11:56:09.25	88.15	9.56	-40.2	-41.3	22.0	0.00e+00	0	39	0	717225984	52	6645
2026-01-03 11:56:10.26	88.32	9.53	-40.0	-41.1	21.9	0.00e+00	0	39	0	719323136	52	6535
2026-01-03 11:56:11.27	88.50	9.51	-40.6	-41.8	22.2	0.00e+00	0	39	0	720371712	52	7020
2026-01-03 11:56:12.28	88.67	9.49	-39.7	-40.8	22.1	0.00e+00	0	39	0	722468864	52	6249
2026-01-03 11:56:13.29	88.84	9.46	-39.8	-40.9	22.5	0.00e+00	0	39	0	724566016	52	6327
2026-01-03 11:56:14.30	89.01	9.44	-39.3	-40.2	22.3	0.00e+00	0	39	0	726663168	52	5894
2026-01-03 11:56:15.31	89.18	9.41	-39.3	-40.3	22.6	0.00e+00	0	39	0	728760320	52	5911
2026-01-03 11:56:16.32	89.35	9.39	-39.3	-40.2	22.9	0.00e+00	0	39	0	729808896	52	5881
2026-01-03 11:56:17.32	89.52	9.37	-39.4	-40.4	22.5	0.00e+00	0	39	0	731906048	52	5990
2026-01-03 11:56:18.33	89.69	9.34	-39.7	-40.7	22.2	0.00e+00	0	39	0	734003200	52	6235
2026-01-03 11:56:19.34	89.86	9.32	-39.6	-40.6	22.1	0.00e+00	0	39	0	736100352	52	6162
2026-01-03 11:56:20.35	90.03	9.29	-40.4	-41.5	22.2	0.00e+00	0	39	0	738197504	52	6787
2026-01-03 11:56:21.36	90.20	9.27	-39.8	-40.9	21.6	0.00e+00	0	39	0	739246080	52	6337
2026-01-03 11:56:22.37	90.37	9.24	-39.8	-40.9	20.9	0.00e+00	0	39	0	741343232	54	5695
2026-01-03 11:56:23.38	90.53	9.22	-41.0	-42.3	21.8	0.00e+00	0	39	0	743440384	52	7483
2026-01-03 11:56:24.39	90.70	9.19	-40.0	-41.2	21.6	0.00e+00	0	39	0	745537536	54	5867
2026-01-03 11:56:25.40	90.87	9.16	-40.1	-41.2	22.0	0.00e+00	0	39	0	747634688	54	5872
2026-01-03 11:56:26.41	91.04	9.14	-39.6	-40.6	21.7	0.00e+00	0	39	0	748683264	54	5483
2026-01-03 11:56:27.42	91.20	9.11	-40.0	-41.0	22.1	0.00e+00	0	39	0	750780416	52	6445
2026-01-03 11:56:28.43	91.37	9.08	-40.1	-41.2	22.3	0.00e+00	0	39	0	752877568	52	6573
2026-01-03 11:56:29.44	91.54	9.06	-40.1	-41.1	22.1	0.00e+00	0	39	0	754974720	52	6510
2026-01-03 11:56:30.45	91.70	9.03	-40.3	-41.3	21.9	0.00e+00	0	39	0	757071872	52	6688
2026-01-03 11:56:31.46	91.87	9.00	-40.5	-41.6	21.8	0.00e+00	0	39	0	758120448	52	6904
2026-01-03 11:56:32.46	92.03	8.98	-40.4	-41.5	21.6	0.00e+00	0	39	0	760217600	54	6097
2026-01-03 11:56:33.47	92.20	8.95	-40.9	-42.1	21.3	0.00e+00	0	39	0	762314752	54	6471
2026-01-03 11:56:34.48	92.37	8.92	-40.8	-42.0	21.1	0.00e+00	0	39	0	764411904	54	6428
2026-01-03 11:56:35.49	92.53	8.89	-41.2	-42.4	20.8	0.00e+00	0	39	0	766509056	54	6725
2026-01-03 11:56:36.50	92.69	8.87	-41.2	-42.4	20.7	0.00e+00	0	39	0	767557632	54	6766
2026-01-03 11:56:37.50	92.86	8.84	-41.3	-42.5	20.7	0.00e+00	0	39	0	769654784	54	6822
2026-01-03 11:56:38.51	93.02	8.81	-41.3	-42.6	20.5	0.00e+00	0	39	0	771751936	54	6864
2026-01-03 11:56:39.52	93.18	8.78	-41.3	-42.5	20.5	0.00e+00	0	39	0	773849088	54	6820
2026-01-03 11:56:40.53	93.35	8.75	-41.5	-42.8	20.2	0.00e+00	0	39	0	775946240	54	7047
2026-01-03 11:56:41.53	93.51	8.72	-41.5	-42.8	20.2	0.00e+00	0	39	0	776994816	54	7014
2026-01-03 11:56:42.54	93.67	8.69	-41.8	-43.1	20.2	0.00e+00	0	39	0	779091968	56	6523
2026-01-03 11:56:43.55	93.83	8.66	-41.8	-43.1	20.1	0.00e+00	0	39	0	781189120	56	6506
2026-01-03 11:56:44.56	94.00	8.64	-41.7	-43.0	20.4	0.00e+00	0	39	0	783286272	56	6437
2026-01-03 11:56:45.57	94.16	8.61	-41.6	-42.9	20.3	0.00e+00	0	39	0	785383424	56	6335
2026-01-03 11:56:46.58	94.32	8.58	-41.4	-42.7	20.4	0.00e+00	0	39	0	786432000	56	6219
2026-01-03 11:56:47.59	94.48	8.55	-41.3	-42.6	20.5	0.00e+00	0	39	0	788529152	56	6144
2026-01-03 11:56:48.60	94.64	8.52	-41.4	-42.6	20.4	0.00e+00	0	39	0	790626304	56	6150
2026-01-03 11:56:49.61	94.80	8.49	-41.3	-42.5	20.7	0.00e+00	0	39	0	792723456	56	6086
2026-01-03 11:56:50.63	94.96	8.46	-41.5	-42.8	20.5	0.00e+00	0	39	0	794820608	56	6254
2026-01-03 11:56:51.63	95.12	8.43	-41.5	-42.8	20.4	0.00e+00	0	39	0	796917760	56	6303
2026-01-03 11:56:52.64	95.28	8.40	-41.6	-42.9	20.4	0.00e+00	0	39	0	797966336	56	6353
2026-01-03 11:56:53.65	95.44	8.36	-41.7	-43.1	20.1	0.00e+00	0	39	0	800063488	56	6489
2026-01-03 11:56:54.66	95.60	8.33	-42.0	-43.4	19.8	0.00e+00	0	39	0	802160640	56	6752
2026-01-03 11:56:55.67	95.76	8.30	-42.0	-43.5	19.8	0.00e+00	0	39	0	804257792	56	6808
2026-01-03 11:56:56.68	95.92	8.27	-41.9	-43.3	20.1	0.00e+00	0	39	0	806354944	56	6626
2026-01-03 11:56:57.69	96.08	8.24	-42.0	-43.4	19.9	0.00e+00	0	39	0	807403520	56	6756
2026-01-03 11:56:58.70	96.23	8.21	-42.1	-43.5	19.9	0.00e+00	0	39	0	809500672	56	6778
2026-01-03 11:56:59.71	96.39	8.18	-41.7	-43.1	20.1	0.00e+00	0	39	0	811597824	56	6470
2026-01-03 11:57:00.72	96.55	8.14	-41.7	-43.0	20.2	0.00e+00	0	39	0	813694976	56	6442
2026-01-03 11:57:01.73	96.70	8.11	-42.0	-43.4	19.8	0.00e+00	0	39	0	815792128	56	6746
2026-01-03 11:57:02.74	96.86	8.08	-42.1	-43.5	19.6	0.00e+00	0	39	0	816840704	56	6784
2026-01-03 11:57:03.75	97.02	8.05	-42.2	-43.7	19.5	0.00e+00	0	39	0	818937856	56	6941
2026-01-03 11:57:04.76	97.17	8.02	-42.6	-44.2	19.1	0.00e+00	0	39	0	821035008	56	7384
2026-01-03 11:57:05.77	97.33	7.98	-42.8	-44.4	18.9	0.00e+00	0	39	0	823132160	58	6735
2026-01-03 11:57:06.77	97.48	7.95	-43.1	-44.8	18.5	0.00e+00	0	39	0	825229312	58	7045
2026-01-03 11:57:07.78	97.63	7.92	-43.1	-44.9	18.5	0.00e+00	0	39	0	826277888	58	7104
2026-01-03 11:57:08.79	97.79	7.89	-43.0	-44.7	18.6	0.00e+00	0	39	0	828375040	58	6928
2026-01-03 11:57:09.80	97.94	7.85	-42.8	-44.5	18.6	0.00e+00	0	39	0	830472192	58	6790
2026-01-03 11:57:10.81	98.10	7.82	-42.8	-44.4	18.8	0.00e+00	0	39	0	832569344	58	6737
2026-01-03 11:57:11.82	98.25	7.79	-42.6	-44.1	18.9	0.00e+00	0	39	0	834666496	58	6528
2026-01-03 11:57:12.83	98.40	7.75	-42.5	-44.1	19.0	0.00e+00	0	39	0	835715072	58	6473
2026-01-03 11:57:13.84	98.56	7.72	-42.5	-44.1	19.1	0.00e+00	0	39	0	837812224	58	6476
2026-01-03 11:57:14.85	98.71	7.69	-42.6	-44.2	19.1	0.00e+00	0	39	0	839909376	58	6540
2026-01-03 11:57:15.86	98.86	7.65	-42.5	-44.1	19.2	0.00e+00	0	39	0	842006528	58	6494
2026-01-03 11:57:16.87	99.01	7.62	-42.4	-43.9	19.4	0.00e+00	0	39	0	844103680	58	6354
2026-01-03 11:57:17.88	99.16	7.58	-42.3	-43.8	19.5	0.00e+00	0	39	0	845152256	58	6304
2026-01-03 11:57:18.89	99.31	7.55	-42.4	-43.9	19.3	0.00e+00	0	39	0	847249408	58	6388
2026-01-03 11:57:19.90	99.46	7.52	-42.5	-44.0	19.5	0.00e+00	0	39	0	849346560	58	6459
2026-01-03 11:57:20.91	99.61	7.48	-42.2	-43.7	19.4	0.00e+00	0	39	0	851443712	58	6204
2026-01-03 11:57:21.92	99.76	7.45	-42.6	-44.2	19.2	0.00e+00	0	39	0	853540864	58	6575
2026-01-03 11:57:22.93	99.91	7.41	-42.6	-44.1	19.2	0.00e+00	0	39	0	854589440	58	6510
2026-01-03 11:57:23.94	100.06	7.38	-42.8	-44.4	19.0	0.00e+00	0	39	0	856686592	58	6754
2026-01-03 11:57:24.95	100.21	7.34	-43.1	-44.7	18.6	0.00e+00	0	39	0	858783744	58	7006
2026-01-03 11:57:25.96	100.36	7.31	-43.0	-44.6	18.8	0.00e+00	0	39	0	860880896	58	6908
2026-01-03 11:57:26.97	100.51	7.27	-42.9	-44.5	18.8	0.00e+00	0	39	0	862978048	58	6837
2026-01-03 11:57:27.98	100.66	7.24	-43.0	-44.6	18.8	0.00e+00	0	39	0	865075200	58	6902
2026-01-03 11:57:28.98	100.80	7.20	-43.0	-44.7	18.7	0.00e+00	0	39	0	866123776	58	6955
2026-01-03 11:57:29.99	100.95	7.17	-42.9	-44.6	18.8	0.00e+00	0	39	0	868220928	58	6875
2026-01-03 11:57:31.00	101.10	7.13	-42.6	-44.2	19.0	0.00e+00	0	39	0	870318080	58	6584
2026-01-03 11:57:32.01	101.24	7.09	-42.8	-44.4	19.0	0.00e+00	0	39	0	872415232	58	6737
2026-01-03 11:57:33.02	101.39	7.06	-42.8	-44.4	19.0	0.00e+00	0	39	0	874512384	58	6694
2026-01-03 11:57:34.02	101.53	7.02	-43.0	-44.6	18.9	0.00e+00	0	39	0	875560960	58	6907
2026-01-03 11:57:35.03	101.68	6.99	-42.5	-44.0	19.2	0.00e+00	0	39	0	877658112	58	6458
2026-01-03 11:57:36.04	101.82	6.95	-42.8	-44.5	19.1	0.00e+00	0	39	0	879755264	58	6793
2026-01-03 11:57:37.05	101.97	6.92	-42.7	-44.2	18.7	0.00e+00	0	39	0	881852416	58	6595
2026-01-03 11:57:38.06	102.11	6.88	-42.5	-44.1	19.3	0.00e+00	0	39	0	883949568	58	6504
2026-01-03 11:57:39.07	102.26	6.84	-42.3	-43.8	19.4	0.00e+00	0	39	0	884998144	58	6286
2026-01-03 11:57:40.08	102.40	6.81	-42.3	-43.9	19.5	0.00e+00	0	39	0	887095296	58	6327
2026-01-03 11:57:41.08	102.54	6.77	-42.2	-43.7	19.5	0.00e+00	0	39	0	889192448	58	6235
2026-01-03 11:57:42.09	102.69	6.73	-42.3	-43.8	19.0	0.00e+00	0	39	0	891289600	58	6304
2026-01-03 11:57:43.11	102.83	6.70	-42.0	-43.5	19.7	0.00e+00	0	39	0	893386752	58	6096
2026-01-03 11:57:44.11	102.97	6.66	-42.3	-43.9	19.3	0.00e+00	0	39	0	894435328	58	6380
2026-01-03 11:57:45.12	103.11	6.62	-42.0	-43.5	19.7	0.00e+00	0	39	0	896532480	58	6061
2026-01-03 11:57:46.13	103.25	6.59	-41.7	-43.1	20.1	0.00e+00	0	39	0	898629632	56	6502
2026-01-03 11:57:47.14	103.40	6.55	-41.9	-43.3	19.9	0.00e+00	0	39	0	900726784	56	6657
2026-01-03 11:57:48.15	103.54	6.51	-41.8	-43.2	19.9	0.00e+00	0	39	0	902823936	56	6570
2026-01-03 11:57:49.16	103.68	6.47	-42.0	-43.5	19.7	0.00e+00	0	39	0	903872512	56	6801
2026-01-03 11:57:50.17	103.82	6.44	-42.2	-43.6	19.6	0.00e+00	0	39	0	905969664	56	6894
2026-01-03 11:57:51.18	103.96	6.40	-41.8	-43.2	20.1	0.00e+00	0	39	0	908066816	56	6566
2026-01-03 11:57:52.19	104.10	6.36	-42.2	-43.6	19.7	0.00e+00	0	39	0	910163968	56	6925
2026-01-03 11:57:53.20	104.24	6.32	-42.2	-43.6	19.6	0.00e+00	0	39	0	912261120	56	6923
2026-01-03 11:57:54.21	104.37	6.29	-42.1	-43.5	19.5	0.00e+00	0	39	0	913309696	56	6804
2026-01-03 11:57:55.22	104.51	6.25	-41.9	-43.3	19.7	0.00e+00	0	39	0	915406848	56	6679
2026-01-03 11:57:56.23	104.65	6.21	-42.2	-43.7	19.5	0.00e+00	0	39	0	917504000	56	6931
2026-01-03 11:57:57.24	104.79	6.17	-42.2	-43.7	19.3	0.00e+00	0	39	0	919601152	56	6958
2026-01-03 11:57:58.25	104.93	6.13	-42.2	-43.7	19.6	0.00e+00	0	39	0	921698304	56	6932
2026-01-03 11:57:59.26	105.06	6.10	-42.3	-43.8	19.4	0.00e+00	0	39	0	922746880	56	7031
2026-01-03 11:58:00.27	105.20	6.06	-42.3	-43.9	19.3	0.00e+00	0	39	0	924844032	56	7096
2026-01-03 11:58:01.28	105.34	6.02	-42.1	-43.6	19.5	0.00e+00	0	39	0	926941184	56	6921
2026-01-03 11:58:02.29	105.47	5.98	-42.1	-43.6	19.5	0.00e+00	0	39	0	929038336	56	6900
2026-01-03 11:58:03.30	105.61	5.94	-42.2	-43.7	19.5	0.00e+00	0	39	0	931135488	56	6955
2026-01-03 11:58:04.31	105.74	5.90	-42.2	-43.7	19.3	0.00e+00	0	39	0	933232640	56	6936
2026-01-03 11:58:05.32	105.88	5.86	-42.6	-44.1	19.0	0.00e+00	0	39	0	934281216	56	7330
2026-01-03 11:58:06.33	106.01	5.83	-42.5	-44.0	19.0	0.00e+00	0	39	0	936378368	56	7230
2026-01-03 11:58:07.34	106.15	5.79	-42.4	-44.0	19.0	0.00e+00	0	39	0	938475520	58	6446
2026-01-03 11:58:08.35	106.28	5.75	-42.4	-44.0	19.0	0.00e+00	0	39	0	940572672	58	6429
2026-01-03 11:58:09.36	106.42	5.71	-41.9	-43.4	19.5	0.00e+00	0	39	0	942669824	58	5988
2026-01-03 11:58:10.37	106.55	5.67	-42.0	-43.5	19.3	0.00e+00	0	39	0	943718400	58	6078
2026-01-03 11:58:11.38	106.68	5.63	-41.8	-43.3	19.6	0.00e+00	0	39	0	945815552	56	6685
2026-01-03 11:58:12.39	106.81	5.59	-41.5	-43.0	19.9	0.00e+00	0	39	0	947912704	56	6402
2026-01-03 11:58:13.40	106.95	5.55	-42.0	-43.5	19.9	0.00e+00	0	39	0	950009856	56	6787
2026-01-03 11:58:14.40	107.08	5.51	-41.8	-43.2	20.0	0.00e+00	0	39	0	952107008	56	6590
2026-01-03 11:58:15.41	107.21	5.47	-41.7	-43.0	20.1	0.00e+00	0	39	0	953155584	56	6439
2026-01-03 11:58:16.42	107.34	5.43	-41.1	-42.3	20.6	0.00e+00	0	39	0	955252736	56	5957
2026-01-03 11:58:17.43	107.47	5.39	-41.7	-43.1	20.1	0.00e+00	0	39	0	957349888	56	6480
2026-01-03 11:58:18.44	107.60	5.36	-41.6	-43.0	20.2	0.00e+00	0	39	0	959447040	56	6436
2026-01-03 11:58:19.45	107.73	5.32	-41.3	-42.8	20.2	0.00e+00	0	39	0	961544192	56	6293
2026-01-03 11:58:20.46	107.86	5.28	-41.4	-42.9	20.0	0.00e+00	0	39	0	962592768	56	6388
2026-01-03 11:58:21.47	107.99	5.24	-41.6	-43.2	19.8	0.00e+00	0	39	0	964689920	56	6585
2026-01-03 11:58:22.48	108.12	5.20	-41.4	-43.0	20.2	0.00e+00	0	39	0	966787072	56	6400
2026-01-03 11:58:23.49	108.25	5.16	-41.5	-42.9	20.1	0.00e+00	0	39	0	968884224	56	6385
2026-01-03 11:58:24.50	108.38	5.12	-41.5	-42.8	20.1	0.00e+00	0	39	0	970981376	56	6307
2026-01-03 11:58:25.51	108.51	5.08	-41.4	-42.8	20.1	0.00e+00	0	39	0	972029952	56	6300
2026-01-03 11:58:26.52	108.64	5.04	-41.6	-43.0	19.9	0.00e+00	0	39	0	974127104	56	6459
2026-01-03 11:58:27.53	108.76	5.00	-41.2	-42.6	20.3	0.00e+00	0	39	0	976224256	56	6141
2026-01-03 11:58:28.54	108.89	4.96	-41.2	-42.6	20.1	0.00e+00	0	39	0	978321408	56	6147
2026-01-03 11:58:29.55	109.02	4.92	-41.6	-43.0	20.1	0.00e+00	0	39	0	980418560	56	6453
2026-01-03 11:58:30.56	109.14	4.88	-41.6	-42.9	20.0	0.00e+00	0	39	0	981467136	56	6380
2026-01-03 11:58:31.56	109.27	4.84	-41.7	-43.1	20.0	0.00e+00	0	39	0	983564288	56	6472
2026-01-03 11:58:32.57	109.39	4.80	-41.6	-43.0	20.2	0.00e+00	0	39	0	985661440	56	6397
2026-01-03 11:58:33.58	109.52	4.76	-41.7	-43.2	19.9	0.00e+00	0	39	0	987758592	56	6542
2026-01-03 11:58:34.59	109.64	4.71	-41.9	-43.4	19.3	0.00e+00	0	39	0	989855744	56	6756
2026-01-03 11:58:35.60	109.77	4.67	-42.0	-43.4	19.5	0.00e+00	0	39	0	990904320	56	6736
2026-01-03 11:58:36.61	109.89	4.63	-42.2	-43.8	19.2	0.00e+00	0	39	0	993001472	56	7027
2026-01-03 11:58:37.62	110.02	4.59	-41.9	-43.3	19.5	0.00e+00	0	39	0	995098624	56	6665
2026-01-03 11:58:38.63	110.14	4.55	-42.0	-43.4	19.5	0.00e+00	0	39	0	997195776	56	6762
2026-01-03 11:58:39.64	110.27	4.51	-42.1	-43.5	19.4	0.00e+00	0	39	0	999292928	56	6843
2026-01-03 11:58:40.64	110.39	4.47	-42.2	-43.7	19.3	0.00e+00	0	39	0	1000341504	56	6965
2026-01-03 11:58:41.65	110.51	4.43	-41.8	-43.3	19.5	0.00e+00	0	39	0	1002438656	56	6618
2026-01-03 11:58:42.66	110.63	4.39	-42.2	-43.8	18.9	0.00e+00	0	39	0	1004535808	56	7027
2026-01-03 11:58:43.67	110.76	4.35	-42.2	-43.8	18.9	0.00e+00	0	39	0	1006632960	56	7009
2026-01-03 11:58:44.68	110.88	4.31	-42.3	-43.8	19.0	0.00e+00	0	39	0	1008730112	56	7070
2026-01-03 11:58:45.69	111.00	4.27	-42.5	-44.1	18.8	0.00e+00	0	39	0	1009778688	56	7310
2026-01-03 11:58:46.70	111.12	4.23	-42.9	-44.6	18.3	0.00e+00	0	39	0	1011875840	58	6914
2026-01-03 11:58:47.71	111.24	4.18	-42.3	-43.9	18.8	0.00e+00	0	39	0	1013972992	58	6332
2026-01-03 11:58:48.72	111.36	4.14	-42.0	-43.6	19.0	0.00e+00	0	39	0	1016070144	58	6129
2026-01-03 11:58:49.73	111.48	4.10	-42.1	-43.7	18.8	0.00e+00	0	39	0	1018167296	58	6229
2026-01-03 11:58:50.74	111.60	4.06	-42.4	-44.1	18.5	0.00e+00	0	39	0	1019215872	58	6469
2026-01-03 11:58:51.75	111.72	4.02	-42.3	-43.9	18.6	0.00e+00	0	39	0	1021313024	58	6360
2026-01-03 11:58:52.76	111.84	3.98	-41.8	-43.4	19.1	0.00e+00	0	39	0	1023410176	58	5981
2026-01-03 11:58:53.77	111.96	3.94	-41.9	-43.5	19.0	0.00e+00	0	39	0	1025507328	58	6071
2026-01-03 11:58:54.78	112.08	3.90	-41.8	-43.4	19.1	0.00e+00	0	39	0	1027604480	58	5968
2026-01-03 11:58:55.79	112.20	3.85	-41.9	-43.5	19.0	0.00e+00	0	39	0	1029701632	56	6807
2026-01-03 11:58:56.80	112.32	3.81	-42.1	-43.8	18.8	0.00e+00	0	39	0	1030750208	56	7043
2026-01-03 11:58:57.81	112.43	3.77	-41.8	-43.4	19.3	0.00e+00	0	39	0	1032847360	56	6702
2026-01-03 11:58:58.82	112.55	3.73	-41.7	-43.3	19.2	0.00e+00	0	39	0	1034944512	56	6647
2026-01-03 11:58:59.82	112.67	3.69	-41.7	-43.2	19.3	0.00e+00	0	39	0	1037041664	56	6596
2026-01-03 11:59:00.83	112.78	3.65	-41.7	-43.3	19.1	0.00e+00	0	39	0	1039138816	56	6655
2026-01-03 11:59:01.84	112.90	3.61	-41.9	-43.5	19.0	0.00e+00	0	39	0	1040187392	56	6824
2026-01-03 11:59:02.85	113.02	3.56	-42.2	-43.8	18.8	0.00e+00	0	39	0	1042284544	56	7082
2026-01-03 11:59:03.86	113.13	3.52	-42.4	-44.0	18.6	0.00e+00	0	39	0	1044381696	56	7231
2026-01-03 11:59:04.86	113.25	3.48	-42.4	-44.1	18.5	0.00e+00	0	39	0	1046478848	56	7302
2026-01-03 11:59:05.87	113.36	3.44	-42.5	-44.3	18.2	0.00e+00	0	39	0	1048576000	56	7481
2026-01-03 11:59:06.88	113.48	3.40	-42.4	-44.3	18.2	0.00e+00	0	39	0	1049624576	56	7434
2026-01-03 11:59:07.89	113.59	3.36	-42.8	-44.9	17.7	0.00e+00	0	39	0	1051721728	58	7105
2026-01-03 11:59:08.90	113.71	3.31	-42.9	-44.9	17.4	0.00e+00	0	39	0	1053818880	58	7127
2026-01-03 11:59:09.91	113.82	3.27	-42.9	-44.9	17.7	0.00e+00	0	39	0	1055916032	58	7098
2026-01-03 11:59:10.92	113.93	3.23	-42.9	-44.9	17.6	0.00e+00	0	39	0	1058013184	58	7090
2026-01-03 11:59:11.93	114.05	3.19	-43.1	-45.1	17.3	0.00e+00	0	39	0	1059061760	58	7334
2026-01-03 11:59:12.94	114.16	3.15	-42.8	-44.8	17.5	0.00e+00	0	39	0	1061158912	58	7014
2026-01-03 11:59:13.95	114.27	3.10	-42.8	-44.8	17.7	0.00e+00	0	39	0	1063256064	58	7027
2026-01-03 11:59:14.95	114.38	3.06	-43.1	-45.2	17.1	0.00e+00	0	39	0	1065353216	58	7338
2026-01-03 11:59:15.96	114.50	3.02	-43.2	-45.4	17.0	0.00e+00	0	39	0	1067450368	58	7517
2026-01-03 11:59:16.98	114.61	2.98	-49.2	-64.4	3.6	9.10e-01	0	39	104	1067450368	60	60186
2026-01-03 11:59:17.98	114.72	2.94	-49.6	-64.8	3.6	1.51e+00	0	39	104	1067450368	60	63175
2026-01-03 11:59:18.99	114.83	2.90	-49.9	-65.2	3.6	1.51e+00	0	39	104	1067450368	60	65571
2026-01-03 11:59:20.01	114.94	2.85	-50.1	-65.4	3.6	1.51e+00	0	39	104	1067450368	60	67159
2026-01-03 11:59:21.02	115.05	2.81	-50.2	-65.4	3.6	1.51e+00	0	39	104	1067450368	60	66926
2026-01-03 11:59:22.03	115.16	2.77	-50.3	-65.5	3.6	1.51e+00	0	39	104	1067450368	60	67790
2026-01-03 11:59:23.03	115.27	2.73	-50.2	-65.4	3.6	1.51e+00	0	39	104	1067450368	60	67464
2026-01-03 11:59:24.05	115.38	2.68	-50.2	-65.4	3.6	1.51e+00	0	39	104	1067450368	60	67465
2026-01-03 11:59:25.05	115.49	2.64	-50.2	-65.5	3.6	1.51e+00	0	39	104	1067450368	60	68023
2026-01-03 11:59:26.06	115.60	2.60	-50.3	-65.5	3.6	1.51e+00	0	39	104	1067450368	60	68333
2026-01-03 11:59:27.07	115.71	2.56	-50.4	-65.5	3.6	1.51e+00	0	39	104	1067450368	60	68342
2026-01-03 11:59:28.08	115.82	2.52	-50.5	-65.6	3.6	1.51e+00	0	39	104	1067450368	60	69034
2026-01-03 11:59:29.09	115.93	2.47	-50.4	-65.7	3.6	1.51e+00	0	39	104	1067450368	60	69572
2026-01-03 11:59:30.10	116.03	2.43	-50.4	-65.6	3.6	1.51e+00	0	39	104	1067450368	60	68713
2026-01-03 11:59:31.11	116.14	2.39	-50.4	-65.6	3.6	1.51e+00	0	39	104	1067450368	60	68846
2026-01-03 11:59:32.12	116.25	2.35	-50.5	-65.7	3.6	1.51e+00	0	39	104	1067450368	60	69627
2026-01-03 11:59:33.13	116.36	2.30	-50.5	-65.7	3.6	1.51e+00	0	40	104	1067450368	60	69626
2026-01-03 11:59:34.14	116.46	2.26	-50.5	-65.7	3.6	1.51e+00	0	39	104	1067450368	60	69747
2026-01-03 11:59:35.15	116.57	2.22	-50.4	-65.6	3.6	1.51e+00	0	40	104	1067450368	60	69132
2026-01-03 11:59:36.16	116.67	2.18	-50.5	-65.7	3.6	1.51e+00	0	39	104	1067450368	60	69628
2026-01-03 11:59:37.17	116.78	2.14	-50.4	-65.5	3.6	1.51e+00	0	39	104	1067450368	60	68271
2026-01-03 11:59:38.17	116.88	2.09	-50.4	-65.6	3.6	1.51e+00	0	39	104	1067450368	60	68780
2026-01-03 11:59:39.19	116.99	2.05	-50.4	-65.6	3.6	1.51e+00	0	40	104	1067450368	60	68882
2026-01-03 11:59:40.19	117.10	2.01	-50.6	-65.8	3.5	1.51e+00	0	39	104	1067450368	60	70786
2026-01-03 11:59:41.20	117.20	1.97	-50.8	-65.9	3.6	1.51e+00	0	39	104	1067450368	60	71474
2026-01-03 11:59:42.21	117.30	1.92	-50.8	-66.0	3.6	1.51e+00	0	39	104	1067450368	60	72262
2026-01-03 11:59:43.22	117.41	1.88	-50.9	-66.1	3.6	1.51e+00	0	39	104	1067450368	60	72642
2026-01-03 11:59:44.22	117.51	1.84	-51.1	-66.3	3.6	1.51e+00	0	39	104	1067450368	60	74623
2026-01-03 11:59:45.24	117.62	1.80	-50.9	-66.1	3.6	1.51e+00	0	39	104	1067450368	60	72703
2026-01-03 11:59:46.25	117.72	1.75	-51.1	-66.3	3.6	1.51e+00	0	39	104	1067450368	60	74768
2026-01-03 11:59:47.25	117.82	1.71	-51.0	-66.3	3.6	1.51e+00	0	40	104	1067450368	60	74360
2026-01-03 11:59:48.26	117.92	1.67	-50.7	-65.9	3.6	1.51e+00	0	40	104	1067450368	60	71017
2026-01-03 11:59:49.27	118.03	1.63	-51.0	-66.2	3.6	1.51e+00	0	40	104	1067450368	60	73835
2026-01-03 11:59:50.28	118.13	1.58	-50.9	-66.1	3.6	1.51e+00	0	39	104	1067450368	60	72885
2026-01-03 11:59:51.29	118.23	1.54	-50.7	-65.9	3.6	1.51e+00	0	40	104	1067450368	60	71135
2026-01-03 11:59:52.30	118.33	1.50	-51.0	-66.1	3.6	1.51e+00	0	40	104	1067450368	60	73064
2026-01-03 11:59:53.31	118.43	1.46	-51.0	-66.2	3.6	1.51e+00	0	40	104	1067450368	60	74029
2026-01-03 11:59:54.32	118.53	1.41	-51.4	-66.5	3.6	1.51e+00	0	40	104	1067450368	60	76807
2026-01-03 11:59:55.33	118.63	1.37	-51.0	-66.2	3.6	1.51e+00	0	40	104	1067450368	60	73994
2026-01-03 11:59:56.34	118.74	1.33	-51.1	-66.3	3.6	1.51e+00	0	40	104	1067450368	60	74421
2026-01-03 11:59:57.35	118.84	1.29	-50.7	-65.9	3.6	1.51e+00	0	39	104	1067450368	60	71220
2026-01-03 11:59:58.36	118.94	1.24	-50.8	-65.9	3.6	1.51e+00	0	39	104	1067450368	60	71492
2026-01-03 11:59:59.37	119.04	1.20	-51.2	-66.4	3.6	1.51e+00	0	40	104	1067450368	60	75379
2026-01-03 12:00:00.38	119.13	1.16	-51.1	-66.3	3.6	1.51e+00	0	39	104	1067450368	60	74619
2026-01-03 12:00:01.39	119.23	1.12	-51.0	-66.2	3.6	1.51e+00	0	40	104	1067450368	60	73532
2026-01-03 12:00:02.39	119.33	1.07	-51.2	-66.3	3.6	1.51e+00	0	40	104	1067450368	60	74983
2026-01-03 12:00:03.40	119.43	1.03	-51.0	-66.2	3.6	1.51e+00	0	39	104	1067450368	60	73928
2026-01-03 12:00:04.41	119.53	0.99	-50.6	-65.8	3.6	1.51e+00	0	40	104	1067450368	60	70813
2026-01-03 12:00:05.42	119.63	0.95	-51.7	-66.8	3.6	1.51e+00	0	40	104	1067450368	60	79444
2026-01-03 12:00:06.43	119.72	0.90	-51.1	-66.2	3.6	1.51e+00	0	40	104	1067450368	60	74193
2026-01-03 12:00:07.44	119.82	0.86	-51.1	-66.3	3.5	1.51e+00	0	40	104	1067450368	60	74813
2026-01-03 12:00:08.45	119.92	0.82	-51.1	-66.3	3.6	1.51e+00	0	40	104	1067450368	60	74605
2026-01-03 12:00:09.46	120.02	0.78	-51.7	-66.7	3.6	1.51e+00	0	40	104	1067450368	60	78432
2026-01-03 12:00:10.47	120.11	0.73	-51.3	-66.5	3.6	1.51e+00	0	40	104	1067450368	60	76186
2026-01-03 12:00:11.48	120.21	0.69	-51.4	-66.5	3.6	1.51e+00	0	40	104	1067450368	60	76777
2026-01-03 12:00:12.49	120.31	0.65	-51.6	-66.8	3.6	1.51e+00	0	40	104	1067450368	60	79115
2026-01-03 12:00:13.50	120.40	0.60	-51.3	-66.4	3.6	1.51e+00	0	40	104	1067450368	60	75769
2026-01-03 12:00:14.51	120.50	0.56	-51.4	-66.5	3.6	1.51e+00	0	40	104	1067450368	60	76721
2026-01-03 12:00:15.52	120.59	0.52	-51.7	-66.8	3.6	1.51e+00	0	40	104	1067450368	60	79301
2026-01-03 12:00:16.53	120.69	0.48	-51.4	-66.6	3.6	1.51e+00	0	40	104	1067450368	60	77104
2026-01-03 12:00:17.54	120.78	0.43	-51.1	-66.3	3.6	1.51e+00	0	40	104	1067450368	60	74808
2026-01-03 12:00:18.55	120.88	0.39	-51.3	-66.4	3.6	1.51e+00	0	39	104	1067450368	60	75730
2026-01-03 12:00:19.56	120.97	0.35	-51.5	-66.7	3.6	1.51e+00	0	40	104	1067450368	60	78395
2026-01-03 12:00:20.58	121.07	0.31	-51.7	-66.9	3.5	1.51e+00	0	40	104	1067450368	60	80016
2026-01-03 12:00:21.58	121.16	0.26	-51.5	-66.7	3.6	1.51e+00	0	40	104	1067450368	60	78036
2026-01-03 12:00:22.60	121.25	0.22	-51.5	-66.7	3.6	1.51e+00	0	40	104	1067450368	60	78050
2026-01-03 12:00:23.61	121.35	0.18	-51.0	-66.2	3.6	1.51e+00	0	40	104	1067450368	60	73443
2026-01-03 12:00:24.61	121.44	0.14	-51.3	-66.5	3.6	1.51e+00	0	40	104	1067450368	60	76032
2026-01-03 12:00:25.63	121.53	0.09	-51.1	-66.3	3.6	1.51e+00	0	40	104	1067450368	60	74693
