passes_logs/2026/01/03/R4.6S_Anadyr/R4.6S_Anadyr__20260103_214554_SUOMI_NPP_rec.log

#Pass ID: 20260103_214554_SUOMI NPP
#Satellite: SUOMI NPP
#Configuration: NPP
#almurnet v.1.7.20251203
#Start time: 2026-01-03 21:45:55

#Version: 2.2.20231116
#Station: R4.6S_Anadyr
#Location: 177.4865 lon 64.73178 lat
#TLE: 1 37849U 11061A   26001.07732418  .00000182  00000+0  10735-3 0  9990
#TLE: 2 37849  98.7795 303.2470 0002580  87.2016 272.9455 14.19520779734739

#Time	Az	El	Level	Level2	SNR	BER	BlckErr	Temp	State	Recorded	gain1	gain2
2026-01-03 21:45:55.95	96.16	0.06	-51.7	-64.2	3.4	1.52e+00	0	36	0	0	60	57221
2026-01-03 21:45:56.95	96.10	0.11	-52.7	-68.0	3.6	1.51e+00	0	38	104	0	60	90567
2026-01-03 21:45:57.96	96.04	0.17	-52.6	-67.7	3.6	1.51e+00	0	38	104	0	60	87958
2026-01-03 21:45:58.97	95.99	0.22	-50.8	-66.0	3.6	1.51e+00	0	38	104	0	60	72474
2026-01-03 21:45:59.98	95.93	0.28	-50.4	-65.7	3.6	1.51e+00	0	38	104	0	60	69296
2026-01-03 21:46:00.99	95.87	0.33	-50.3	-65.5	3.6	1.51e+00	0	38	104	0	60	67715
2026-01-03 21:46:02.00	95.81	0.39	-50.1	-65.4	3.6	1.51e+00	0	38	104	0	60	67071
2026-01-03 21:46:03.01	95.75	0.44	-50.2	-65.4	3.6	1.51e+00	0	38	104	0	60	67253
2026-01-03 21:46:04.02	95.69	0.50	-51.5	-66.7	3.6	1.51e+00	0	38	104	0	60	77807
2026-01-03 21:46:05.03	95.64	0.55	-50.6	-65.9	3.6	1.51e+00	0	38	104	0	60	71284
2026-01-03 21:46:06.04	95.58	0.61	-50.6	-65.8	3.6	1.51e+00	0	38	104	0	60	70723
2026-01-03 21:46:07.05	95.52	0.66	-50.8	-66.0	3.6	1.51e+00	0	38	104	0	60	72466
2026-01-03 21:46:08.06	95.46	0.72	-50.6	-65.8	3.6	1.51e+00	0	38	104	0	60	70727
2026-01-03 21:46:09.07	95.40	0.77	-50.5	-65.7	3.6	1.51e+00	0	38	104	0	60	69920
2026-01-03 21:46:10.08	95.34	0.83	-50.3	-65.5	3.6	1.51e+00	0	38	104	0	60	67951
2026-01-03 21:46:11.09	95.28	0.88	-50.0	-65.3	3.6	1.51e+00	0	38	104	0	60	66269
2026-01-03 21:46:12.09	95.22	0.94	-49.3	-64.6	3.6	1.51e+00	0	38	104	0	60	61462
2026-01-03 21:46:13.11	95.15	0.99	-48.7	-63.7	3.6	1.51e+00	0	38	104	0	60	55509
2026-01-03 21:46:14.12	95.09	1.05	-49.0	-64.1	3.6	1.51e+00	0	38	104	0	60	58194
2026-01-03 21:46:15.12	95.03	1.10	-48.8	-63.9	3.6	1.51e+00	0	38	104	0	60	56696
2026-01-03 21:46:16.13	94.97	1.16	-49.2	-64.2	3.6	1.51e+00	0	38	104	0	60	58624
2026-01-03 21:46:17.14	94.91	1.22	-48.9	-63.9	3.6	1.51e+00	0	38	104	0	60	56535
2026-01-03 21:46:18.15	94.85	1.27	-48.6	-63.9	3.6	1.51e+00	0	38	104	0	60	56334
2026-01-03 21:46:19.16	94.79	1.33	-48.8	-63.8	3.6	1.51e+00	0	38	104	0	60	55734
2026-01-03 21:46:20.17	94.72	1.38	-49.0	-64.1	3.6	1.51e+00	0	38	104	0	60	57765
2026-01-03 21:46:21.18	94.66	1.44	-48.9	-63.9	3.6	1.51e+00	0	38	104	0	60	56358
2026-01-03 21:46:22.19	94.60	1.50	-48.9	-63.8	3.6	1.51e+00	0	38	104	0	60	56270
2026-01-03 21:46:23.20	94.53	1.55	-48.6	-63.6	3.6	1.51e+00	0	38	104	0	60	54399
2026-01-03 21:46:24.21	94.47	1.61	-48.6	-63.5	3.6	1.51e+00	0	38	104	0	60	54118
2026-01-03 21:46:25.22	94.41	1.67	-49.0	-64.1	3.6	1.51e+00	0	38	104	0	60	57870
2026-01-03 21:46:26.23	94.34	1.72	-48.9	-64.0	3.6	1.51e+00	0	38	104	0	60	57410
2026-01-03 21:46:27.24	94.28	1.78	-48.7	-63.8	3.6	1.51e+00	0	38	104	0	60	55849
2026-01-03 21:46:28.25	94.21	1.84	-48.8	-63.9	3.6	1.51e+00	0	38	104	0	60	56578
2026-01-03 21:46:29.26	94.15	1.89	-48.7	-63.7	3.6	1.51e+00	0	38	104	0	60	55280
2026-01-03 21:46:30.27	94.08	1.95	-48.7	-63.8	3.6	1.51e+00	0	38	104	0	60	56156
2026-01-03 21:46:31.28	94.02	2.01	-48.7	-63.8	3.6	1.51e+00	0	38	104	0	60	55706
2026-01-03 21:46:32.29	93.95	2.07	-48.6	-63.5	3.6	1.51e+00	0	38	104	0	60	54056
2026-01-03 21:46:33.30	93.89	2.12	-48.7	-63.6	3.6	1.51e+00	0	38	104	0	60	54637
2026-01-03 21:46:34.31	93.82	2.18	-48.5	-63.3	3.6	1.51e+00	0	38	104	0	60	52777
2026-01-03 21:46:35.32	93.75	2.24	-48.8	-63.6	3.6	1.51e+00	0	38	104	0	60	54406
2026-01-03 21:46:36.33	93.69	2.29	-48.8	-63.7	3.6	1.51e+00	0	38	104	0	60	55520
2026-01-03 21:46:37.34	93.62	2.35	-48.8	-64.1	3.6	1.51e+00	0	38	104	0	60	57704
2026-01-03 21:46:38.35	93.55	2.41	-48.8	-64.0	3.6	1.51e+00	0	38	104	0	60	57216
2026-01-03 21:46:39.35	93.49	2.47	-48.8	-64.0	3.6	1.51e+00	0	38	104	0	60	57118
2026-01-03 21:46:40.36	93.42	2.52	-48.7	-63.9	3.6	1.51e+00	0	38	104	0	60	56551
2026-01-03 21:46:41.37	93.35	2.58	-48.6	-63.8	3.6	1.51e+00	0	38	104	0	60	55984
2026-01-03 21:46:42.38	93.28	2.64	-48.6	-63.7	3.6	1.51e+00	0	38	104	0	60	55592
2026-01-03 21:46:43.39	93.21	2.70	-48.5	-63.4	3.6	1.51e+00	0	38	104	0	60	53500
2026-01-03 21:46:44.40	93.14	2.76	-48.8	-63.7	3.6	1.51e+00	0	38	104	0	60	55167
2026-01-03 21:46:45.41	93.07	2.81	-48.8	-63.5	3.6	1.51e+00	0	38	104	0	60	54378
2026-01-03 21:46:46.42	93.01	2.87	-48.5	-62.7	3.6	1.51e+00	0	38	104	0	60	49166
2026-01-03 21:46:47.43	92.94	2.93	-48.6	-63.0	3.6	1.51e+00	0	38	104	0	60	51031
2026-01-03 21:46:48.44	92.87	2.99	-48.9	-63.7	3.6	1.51e+00	0	39	104	0	60	55393
2026-01-03 21:46:49.45	92.80	3.05	-48.5	-62.7	3.6	1.51e+00	0	39	104	0	60	49208
2026-01-03 21:46:50.46	92.72	3.11	-49.3	-64.2	3.6	1.50e+00	0	39	104	0	60	58774
2026-01-03 21:46:51.47	92.65	3.16	-48.4	-56.8	5.7	1.13e+00	0	39	104	0	60	25047
2026-01-03 21:46:52.48	92.58	3.22	-48.1	-56.0	5.7	2.63e-01	92	38	0	1048576	60	22835
2026-01-03 21:46:53.48	92.51	3.28	-48.1	-54.2	8.3	2.14e-01	0	38	0	3145728	60	18555
2026-01-03 21:46:54.50	92.44	3.34	-47.4	-52.4	8.5	1.47e-02	92	39	0	5242880	60	15078
2026-01-03 21:46:55.50	92.37	3.40	-48.4	-58.1	4.8	1.50e+00	0	39	104	5242880	60	29102
2026-01-03 21:46:56.51	92.30	3.46	-48.0	-54.9	5.4	2.88e-01	0	38	104	5242880	60	20018
2026-01-03 21:46:57.52	92.22	3.52	-48.5	-62.4	3.6	1.51e+00	0	39	104	5242880	60	47923
2026-01-03 21:46:58.53	92.15	3.58	-45.8	-49.0	15.3	7.52e-01	0	39	104	5242880	60	10181
2026-01-03 21:46:59.54	92.08	3.64	-44.8	-47.0	16.2	0.00e+00	91	39	0	6291456	60	8125
2026-01-03 21:47:00.55	92.00	3.70	-44.6	-47.0	15.9	0.00e+00	0	39	0	8388608	60	8085
2026-01-03 21:47:01.56	91.93	3.76	-45.4	-48.3	15.8	0.00e+00	90	39	0	10485760	60	9431
2026-01-03 21:47:02.57	91.85	3.82	-46.1	-49.5	13.0	7.00e-07	90	39	0	12582912	60	10782
2026-01-03 21:47:03.58	91.78	3.87	-44.1	-46.2	16.4	0.00e+00	39	39	0	13631488	60	7422
2026-01-03 21:47:04.59	91.70	3.93	-44.1	-46.2	16.2	7.00e-07	75	39	0	15728640	60	7347
2026-01-03 21:47:05.60	91.63	3.99	-44.4	-46.7	15.9	0.00e+00	0	39	0	17825792	60	7848
2026-01-03 21:47:06.61	91.55	4.05	-44.3	-46.6	16.7	0.00e+00	92	38	0	19922944	60	7713
2026-01-03 21:47:07.61	91.48	4.11	-43.6	-45.5	17.5	0.00e+00	0	39	0	22020096	60	6840
2026-01-03 21:47:08.62	91.40	4.17	-43.2	-44.9	16.8	0.00e+00	90	39	0	24117248	60	6386
2026-01-03 21:47:09.63	91.33	4.23	-43.7	-45.8	17.0	0.00e+00	92	39	0	25165824	60	7035
2026-01-03 21:47:10.64	91.25	4.29	-43.4	-45.3	18.3	0.00e+00	85	39	0	27262976	60	6631
2026-01-03 21:47:11.65	91.17	4.35	-43.4	-45.3	17.5	0.00e+00	92	39	0	29360128	60	6678
2026-01-03 21:47:12.66	91.09	4.41	-43.1	-44.9	17.8	0.00e+00	0	38	0	31457280	60	6378
2026-01-03 21:47:13.67	91.02	4.48	-43.6	-45.6	17.4	0.00e+00	92	39	0	33554432	60	6883
2026-01-03 21:47:14.68	90.94	4.54	-43.9	-46.0	16.8	0.00e+00	0	39	0	34603008	60	7228
2026-01-03 21:47:15.69	90.86	4.60	-44.3	-46.7	16.4	0.00e+00	92	39	0	36700160	60	7788
2026-01-03 21:47:16.70	90.78	4.66	-43.8	-45.7	17.3	0.00e+00	49	39	0	38797312	60	6995
2026-01-03 21:47:17.71	90.70	4.72	-43.0	-44.7	18.5	0.00e+00	92	39	0	40894464	60	6199
2026-01-03 21:47:18.72	90.62	4.78	-43.4	-45.2	16.7	0.00e+00	92	39	0	42991616	60	6573
2026-01-03 21:47:19.72	90.54	4.84	-43.6	-45.5	18.2	0.00e+00	0	39	0	44040192	60	6829
2026-01-03 21:47:20.73	90.46	4.90	-43.9	-45.9	16.6	0.00e+00	78	39	0	46137344	60	7111
2026-01-03 21:47:21.74	90.38	4.96	-43.8	-45.7	17.9	0.00e+00	0	39	0	48234496	60	6949
2026-01-03 21:47:22.75	90.30	5.02	-44.2	-46.4	16.6	0.00e+00	90	39	0	50331648	60	7540
2026-01-03 21:47:23.76	90.22	5.08	-43.5	-45.4	17.6	0.00e+00	41	39	0	52428800	60	6738
2026-01-03 21:47:24.77	90.14	5.15	-44.3	-46.6	16.8	0.00e+00	92	39	0	53477376	60	7739
2026-01-03 21:47:25.78	90.06	5.21	-44.5	-46.8	16.4	0.00e+00	92	39	0	55574528	60	7873
2026-01-03 21:47:26.79	89.97	5.27	-43.3	-45.1	17.7	0.00e+00	0	39	0	57671680	60	6517
2026-01-03 21:47:27.80	89.89	5.33	-43.5	-45.4	17.8	0.00e+00	71	39	0	59768832	60	6750
2026-01-03 21:47:28.81	89.81	5.39	-43.4	-45.3	17.7	0.00e+00	0	39	0	61865984	60	6687
2026-01-03 21:47:29.82	89.72	5.45	-43.6	-45.6	17.9	0.00e+00	87	39	0	62914560	60	6854
2026-01-03 21:47:30.83	89.64	5.52	-43.0	-44.7	18.3	0.00e+00	11	39	0	65011712	60	6239
2026-01-03 21:47:31.84	89.56	5.58	-43.6	-45.4	17.6	0.00e+00	92	39	0	67108864	60	6762
2026-01-03 21:47:32.84	89.47	5.64	-44.0	-46.0	17.2	0.00e+00	92	39	0	69206016	60	7220
2026-01-03 21:47:33.85	89.39	5.70	-43.5	-45.3	17.7	0.00e+00	12	39	0	71303168	60	6686
2026-01-03 21:47:34.86	89.30	5.77	-44.0	-45.9	18.0	0.00e+00	81	39	0	72351744	60	7111
2026-01-03 21:47:35.87	89.22	5.83	-44.5	-46.6	18.0	0.00e+00	0	39	0	74448896	60	7712
2026-01-03 21:47:36.88	89.13	5.89	-44.0	-45.8	17.7	0.00e+00	90	39	0	76546048	60	7088
2026-01-03 21:47:37.89	89.04	5.95	-44.4	-46.3	16.3	0.00e+00	6	39	0	78643200	60	7504
2026-01-03 21:47:38.90	88.96	6.02	-43.8	-45.5	18.6	0.00e+00	92	39	0	80740352	60	6841
2026-01-03 21:47:39.91	88.87	6.08	-43.2	-44.9	18.5	0.00e+00	92	39	0	81788928	60	6382
2026-01-03 21:47:40.92	88.78	6.14	-43.1	-44.8	18.5	0.00e+00	0	39	0	83886080	60	6270
2026-01-03 21:47:41.93	88.69	6.20	-43.2	-44.9	18.4	0.00e+00	92	39	0	85983232	60	6385
2026-01-03 21:47:42.94	88.61	6.27	-43.1	-44.8	18.6	0.00e+00	0	39	0	88080384	60	6257
2026-01-03 21:47:43.95	88.52	6.33	-43.7	-45.7	17.7	0.00e+00	92	39	0	90177536	60	6929
2026-01-03 21:47:44.96	88.43	6.39	-43.6	-45.2	18.7	0.00e+00	0	39	0	91226112	60	6596
2026-01-03 21:47:45.97	88.34	6.46	-43.3	-45.0	18.6	0.00e+00	92	39	0	93323264	60	6396
2026-01-03 21:47:46.98	88.25	6.52	-43.5	-45.1	18.6	0.00e+00	92	39	0	95420416	60	6517
2026-01-03 21:47:47.98	88.16	6.58	-43.3	-44.9	18.9	0.00e+00	0	39	0	97517568	60	6331
2026-01-03 21:47:48.99	88.07	6.65	-43.5	-45.2	19.2	0.00e+00	92	39	0	99614720	60	6548
2026-01-03 21:47:50.00	87.98	6.71	-43.4	-44.9	19.2	0.00e+00	0	39	0	100663296	60	6379
2026-01-03 21:47:51.01	87.89	6.77	-43.6	-45.3	13.6	0.00e+00	84	39	0	102760448	60	6673
2026-01-03 21:47:52.03	87.79	6.84	-43.7	-45.3	17.8	0.00e+00	0	39	0	104857600	60	6669
2026-01-03 21:47:53.03	87.70	6.90	-44.0	-45.6	18.8	0.00e+00	92	39	0	106954752	60	6910
2026-01-03 21:47:54.04	87.61	6.97	-43.6	-45.3	18.9	0.00e+00	73	39	0	109051904	60	6619
2026-01-03 21:47:55.05	87.51	7.03	-43.5	-45.0	19.2	0.00e+00	64	39	0	110100480	60	6443
2026-01-03 21:47:56.06	87.42	7.09	-42.7	-44.1	19.9	0.00e+00	92	39	0	112197632	60	5824
2026-01-03 21:47:57.07	87.33	7.16	-42.7	-44.0	20.0	0.00e+00	0	39	0	114294784	58	6445
2026-01-03 21:47:58.07	87.23	7.22	-42.6	-44.0	20.3	0.00e+00	92	39	0	116391936	58	6423
2026-01-03 21:47:59.08	87.14	7.29	-42.3	-43.6	20.2	0.00e+00	0	39	0	118489088	58	6128
2026-01-03 21:48:00.09	87.04	7.35	-42.6	-43.9	20.2	0.00e+00	64	39	0	120586240	58	6349
2026-01-03 21:48:01.10	86.95	7.42	-42.5	-43.8	20.3	0.00e+00	0	39	0	121634816	58	6279
2026-01-03 21:48:02.11	86.85	7.48	-42.3	-43.6	20.0	0.00e+00	92	39	0	123731968	58	6140
2026-01-03 21:48:03.12	86.75	7.55	-42.2	-43.6	19.7	0.00e+00	92	39	0	125829120	58	6162
2026-01-03 21:48:04.13	86.66	7.61	-42.2	-43.5	19.9	0.00e+00	0	39	0	127926272	58	6067
2026-01-03 21:48:05.14	86.56	7.67	-42.7	-44.1	19.6	0.00e+00	48	39	0	130023424	58	6510
2026-01-03 21:48:06.15	86.46	7.74	-42.2	-43.6	20.3	0.00e+00	0	39	0	131072000	58	6133
2026-01-03 21:48:07.16	86.36	7.81	-42.0	-43.3	20.6	0.00e+00	86	39	0	133169152	58	5902
2026-01-03 21:48:08.17	86.26	7.87	-41.9	-43.2	20.4	0.00e+00	33	39	0	135266304	56	6550
2026-01-03 21:48:09.18	86.16	7.94	-42.0	-43.2	20.3	0.00e+00	92	39	0	137363456	56	6615
2026-01-03 21:48:10.19	86.06	8.00	-42.3	-43.7	19.7	0.00e+00	85	39	0	139460608	56	6991
2026-01-03 21:48:11.20	85.96	8.07	-41.9	-43.3	19.7	0.00e+00	0	39	0	140509184	56	6655
2026-01-03 21:48:12.20	85.86	8.13	-41.9	-43.3	19.8	0.00e+00	92	39	0	142606336	56	6640
2026-01-03 21:48:13.21	85.76	8.20	-42.3	-43.6	19.8	0.00e+00	0	39	0	144703488	56	6899
2026-01-03 21:48:14.23	85.66	8.26	-42.1	-43.4	20.1	0.00e+00	92	39	0	146800640	56	6723
2026-01-03 21:48:15.23	85.56	8.33	-42.4	-43.8	19.8	0.00e+00	0	39	0	148897792	56	7046
2026-01-03 21:48:16.24	85.46	8.39	-42.3	-43.7	19.8	0.00e+00	92	39	0	149946368	56	6964
2026-01-03 21:48:17.25	85.35	8.46	-42.3	-43.7	19.7	0.00e+00	92	39	0	152043520	56	6988
2026-01-03 21:48:18.26	85.25	8.53	-42.7	-44.1	19.5	0.00e+00	0	39	0	154140672	56	7327
2026-01-03 21:48:19.27	85.14	8.59	-42.7	-44.1	19.8	0.00e+00	36	39	0	156237824	56	7272
2026-01-03 21:48:20.28	85.04	8.66	-42.2	-43.5	19.9	0.00e+00	0	39	0	158334976	56	6837
2026-01-03 21:48:21.29	84.93	8.73	-42.3	-43.6	19.9	0.00e+00	92	39	0	159383552	56	6887
2026-01-03 21:48:22.30	84.83	8.79	-42.5	-43.8	19.7	0.00e+00	0	39	0	161480704	56	7071
2026-01-03 21:48:23.31	84.72	8.86	-43.4	-45.1	17.6	0.00e+00	92	39	0	163577856	60	6469
2026-01-03 21:48:24.32	84.62	8.92	-43.1	-44.6	19.4	0.00e+00	11	39	0	165675008	60	6105
2026-01-03 21:48:25.33	84.51	8.99	-42.6	-44.1	19.6	0.00e+00	0	39	0	167772160	58	6480
2026-01-03 21:48:26.33	84.40	9.06	-42.6	-44.1	19.6	0.00e+00	90	39	0	168820736	58	6473
2026-01-03 21:48:27.34	84.29	9.12	-42.2	-43.6	19.8	0.00e+00	0	39	0	170917888	58	6158
2026-01-03 21:48:28.36	84.18	9.19	-42.3	-43.7	19.8	0.00e+00	92	39	0	173015040	58	6210
2026-01-03 21:48:29.37	84.08	9.26	-42.8	-44.2	19.9	0.00e+00	0	39	0	175112192	58	6613
2026-01-03 21:48:30.37	83.97	9.33	-42.6	-44.0	19.8	0.00e+00	92	39	0	177209344	58	6415
2026-01-03 21:48:31.39	83.86	9.39	-43.5	-45.0	19.3	0.00e+00	45	39	0	178257920	58	7213
2026-01-03 21:48:32.40	83.74	9.46	-43.8	-45.3	19.8	0.00e+00	0	39	0	180355072	60	6658
2026-01-03 21:48:33.41	83.63	9.53	-42.9	-44.3	19.6	0.00e+00	92	39	0	182452224	60	5912
2026-01-03 21:48:34.42	83.52	9.59	-43.0	-44.3	19.6	0.00e+00	0	39	0	184549376	58	6681
2026-01-03 21:48:35.42	83.41	9.66	-42.5	-43.9	20.1	0.00e+00	91	39	0	186646528	58	6321
2026-01-03 21:48:36.43	83.30	9.73	-42.8	-44.2	19.8	0.00e+00	0	39	0	188743680	58	6553
2026-01-03 21:48:37.44	83.18	9.80	-44.0	-45.5	17.9	0.00e+00	91	39	0	189792256	60	6776
2026-01-03 21:48:38.45	83.07	9.86	-43.2	-44.5	19.9	0.00e+00	6	39	0	191889408	60	6102
2026-01-03 21:48:39.46	82.96	9.93	-44.5	-46.2	18.8	0.00e+00	90	39	0	193986560	60	7387
2026-01-03 21:48:40.47	82.84	10.00	-42.4	-43.8	20.0	0.00e+00	91	39	0	196083712	58	6286
2026-01-03 21:48:41.48	82.73	10.07	-42.3	-43.7	20.3	0.00e+00	0	39	0	198180864	58	6187
2026-01-03 21:48:42.49	82.61	10.14	-42.3	-43.6	20.3	0.00e+00	90	39	0	199229440	58	6141
2026-01-03 21:48:43.50	82.49	10.20	-42.0	-43.2	20.6	0.00e+00	0	39	0	201326592	58	5891
2026-01-03 21:48:44.51	82.38	10.27	-41.7	-42.9	20.8	0.00e+00	92	39	0	203423744	56	6352
2026-01-03 21:48:45.52	82.26	10.34	-41.8	-43.1	20.1	0.00e+00	0	39	0	205520896	56	6515
2026-01-03 21:48:46.53	82.14	10.41	-41.8	-43.1	20.3	0.00e+00	91	39	0	207618048	56	6502
2026-01-03 21:48:47.54	82.02	10.48	-42.3	-43.6	20.2	0.00e+00	90	39	0	208666624	56	6907
2026-01-03 21:48:48.55	81.90	10.54	-42.5	-43.8	20.3	0.00e+00	0	39	0	210763776	58	6300
2026-01-03 21:48:49.56	81.78	10.61	-42.0	-43.3	20.4	0.00e+00	90	39	0	212860928	58	5903
2026-01-03 21:48:50.56	81.66	10.68	-43.3	-44.8	20.2	0.00e+00	0	39	0	214958080	58	7074
2026-01-03 21:48:51.58	81.54	10.75	-42.8	-44.1	20.6	0.00e+00	71	39	0	217055232	58	6490
2026-01-03 21:48:52.58	81.42	10.82	-42.7	-44.0	20.1	0.00e+00	0	39	0	218103808	58	6425
2026-01-03 21:48:53.60	81.30	10.89	-42.5	-43.8	20.3	0.00e+00	90	39	0	220200960	58	6292
2026-01-03 21:48:54.60	81.17	10.96	-42.2	-43.5	20.3	0.00e+00	92	39	0	222298112	58	6084
2026-01-03 21:48:55.61	81.05	11.02	-42.7	-44.1	20.1	0.00e+00	0	39	0	224395264	58	6479
2026-01-03 21:48:56.62	80.93	11.09	-43.2	-44.5	20.4	0.00e+00	92	39	0	226492416	58	6812
2026-01-03 21:48:57.63	80.80	11.16	-42.3	-43.5	20.7	0.00e+00	0	39	0	227540992	58	6078
2026-01-03 21:48:58.64	80.68	11.23	-41.8	-43.0	20.5	0.00e+00	92	39	0	229638144	58	5729
2026-01-03 21:48:59.65	80.55	11.30	-41.3	-42.5	20.9	0.00e+00	0	39	0	231735296	56	6056
2026-01-03 21:49:00.66	80.42	11.37	-42.6	-43.8	20.5	0.00e+00	92	39	0	233832448	58	6275
2026-01-03 21:49:01.67	80.30	11.44	-42.4	-43.5	21.3	0.00e+00	92	39	0	235929600	58	6096
2026-01-03 21:49:02.68	80.17	11.51	-43.1	-44.4	19.9	0.00e+00	0	39	0	236978176	58	6694
2026-01-03 21:49:03.69	80.04	11.58	-42.4	-43.6	20.9	0.00e+00	90	39	0	239075328	58	6124
2026-01-03 21:49:04.70	79.91	11.65	-41.8	-43.0	21.0	0.00e+00	0	39	0	241172480	56	6446
2026-01-03 21:49:05.71	79.78	11.72	-42.8	-44.2	20.1	0.00e+00	73	39	0	243269632	56	7360
2026-01-03 21:49:06.72	79.65	11.79	-41.9	-43.1	20.1	0.00e+00	0	39	0	245366784	58	5803
2026-01-03 21:49:07.73	79.52	11.85	-41.9	-43.1	21.4	0.00e+00	92	39	0	246415360	56	6502
2026-01-03 21:49:08.74	79.39	11.92	-41.4	-42.5	21.3	0.00e+00	90	39	0	248512512	56	6071
2026-01-03 21:49:09.75	79.26	11.99	-42.0	-43.2	20.8	0.00e+00	92	39	0	250609664	56	6591
2026-01-03 21:49:10.76	79.12	12.06	-41.3	-42.4	21.0	0.00e+00	90	39	0	252706816	56	6027
2026-01-03 21:49:11.76	78.99	12.13	-42.4	-43.7	20.4	0.00e+00	0	39	0	254803968	56	6959
2026-01-03 21:49:12.77	78.86	12.20	-42.5	-43.8	20.9	0.00e+00	40	39	0	256901120	58	6278
2026-01-03 21:49:13.78	78.72	12.27	-41.2	-42.3	21.2	0.00e+00	0	39	0	257949696	56	5960
2026-01-03 21:49:14.79	78.59	12.34	-41.6	-42.8	21.2	0.00e+00	90	39	0	260046848	56	6272
2026-01-03 21:49:15.80	78.45	12.41	-41.9	-43.1	20.9	0.00e+00	0	39	0	262144000	56	6487
2026-01-03 21:49:16.81	78.31	12.48	-41.7	-43.0	20.7	0.00e+00	92	39	0	264241152	56	6418
2026-01-03 21:49:17.82	78.18	12.55	-41.7	-42.9	20.6	0.00e+00	92	39	0	266338304	56	6375
2026-01-03 21:49:18.83	78.04	12.62	-41.5	-42.8	20.7	0.00e+00	0	39	0	267386880	56	6296
2026-01-03 21:49:19.84	77.90	12.69	-41.3	-42.4	21.2	0.00e+00	92	39	0	269484032	56	6017
2026-01-03 21:49:20.85	77.76	12.76	-41.4	-42.6	21.1	0.00e+00	0	39	0	271581184	56	6111
2026-01-03 21:49:21.86	77.62	12.83	-41.6	-42.9	20.8	0.00e+00	79	39	0	273678336	56	6328
2026-01-03 21:49:22.86	77.48	12.90	-41.9	-43.1	20.9	0.00e+00	0	39	0	275775488	56	6473
2026-01-03 21:49:23.87	77.34	12.97	-42.2	-43.5	20.7	0.00e+00	90	39	0	276824064	58	6082
2026-01-03 21:49:24.89	77.20	13.04	-42.7	-44.2	19.6	0.00e+00	92	39	0	278921216	58	6552
2026-01-03 21:49:25.90	77.05	13.11	-42.3	-43.7	20.1	0.00e+00	0	39	0	281018368	58	6202
2026-01-03 21:49:26.90	76.91	13.18	-42.2	-43.5	20.2	0.00e+00	92	39	0	283115520	58	6095
2026-01-03 21:49:27.91	76.77	13.25	-41.8	-43.0	20.6	0.00e+00	0	39	0	285212672	56	6412
2026-01-03 21:49:28.92	76.62	13.32	-42.1	-43.3	20.0	0.00e+00	90	39	0	286261248	56	6680
2026-01-03 21:49:29.93	76.48	13.39	-41.8	-43.0	21.0	0.00e+00	0	39	0	288358400	56	6452
2026-01-03 21:49:30.94	76.33	13.46	-41.2	-42.4	21.3	0.00e+00	90	39	0	290455552	56	5992
2026-01-03 21:49:31.95	76.18	13.53	-41.5	-42.7	21.1	0.00e+00	13	39	0	292552704	56	6194
2026-01-03 21:49:32.96	76.04	13.60	-41.6	-42.8	20.7	0.00e+00	0	39	0	294649856	56	6308
2026-01-03 21:49:33.96	75.89	13.67	-42.0	-43.2	20.4	0.00e+00	48	39	0	295698432	58	5880
2026-01-03 21:49:34.97	75.74	13.74	-42.0	-43.2	20.8	0.00e+00	0	39	0	297795584	58	5876
2026-01-03 21:49:35.98	75.59	13.81	-41.7	-42.9	21.2	0.00e+00	79	39	0	299892736	56	6343
2026-01-03 21:49:36.99	75.44	13.88	-42.0	-43.2	20.6	0.00e+00	0	39	0	301989888	56	6584
2026-01-03 21:49:38.00	75.29	13.95	-41.0	-42.1	21.5	0.00e+00	92	39	0	304087040	56	5782
2026-01-03 21:49:39.01	75.14	14.02	-42.3	-43.4	21.3	0.00e+00	0	39	0	305135616	56	6769
2026-01-03 21:49:40.02	74.99	14.09	-42.7	-43.9	21.0	0.00e+00	64	39	0	307232768	58	6378
2026-01-03 21:49:41.03	74.83	14.17	-42.3	-43.4	21.1	0.00e+00	90	39	0	309329920	58	6024
2026-01-03 21:49:42.04	74.68	14.24	-43.0	-44.2	21.0	0.00e+00	0	39	0	311427072	58	6605
2026-01-03 21:49:43.05	74.52	14.31	-42.3	-43.5	20.7	0.00e+00	32	39	0	313524224	58	6073
2026-01-03 21:49:44.06	74.37	14.38	-41.8	-43.0	20.6	0.00e+00	0	39	0	314572800	56	6439
2026-01-03 21:49:45.07	74.21	14.45	-42.0	-43.3	20.4	0.00e+00	92	39	0	316669952	56	6625
2026-01-03 21:49:46.08	74.05	14.52	-42.7	-44.0	20.5	0.00e+00	12	39	0	318767104	56	7197
2026-01-03 21:49:47.08	73.90	14.59	-43.2	-44.6	20.2	0.00e+00	30	39	0	320864256	58	6862
2026-01-03 21:49:48.09	73.74	14.66	-42.5	-43.7	20.6	0.00e+00	92	39	0	322961408	58	6236
2026-01-03 21:49:49.10	73.58	14.73	-42.8	-44.1	20.6	0.00e+00	0	39	0	324009984	58	6521
2026-01-03 21:49:50.11	73.42	14.80	-42.5	-43.8	20.0	0.00e+00	69	39	0	326107136	58	6249
2026-01-03 21:49:51.12	73.26	14.87	-42.5	-43.8	20.5	0.00e+00	0	39	0	328204288	58	6246
2026-01-03 21:49:52.13	73.10	14.94	-42.5	-43.8	20.3	0.00e+00	91	39	0	330301440	58	6303
2026-01-03 21:49:53.14	72.93	15.01	-41.7	-43.0	20.8	0.00e+00	0	39	0	332398592	56	6398
2026-01-03 21:49:54.15	72.77	15.08	-41.6	-42.8	20.7	0.00e+00	92	39	0	333447168	56	6302
2026-01-03 21:49:55.16	72.61	15.15	-42.4	-43.6	20.9	0.00e+00	89	39	0	335544320	56	6857
2026-01-03 21:49:56.16	72.44	15.22	-42.1	-43.3	20.9	0.00e+00	0	39	0	337641472	56	6644
2026-01-03 21:49:57.17	72.28	15.29	-41.6	-42.8	20.7	0.00e+00	91	39	0	339738624	56	6306
2026-01-03 21:49:58.18	72.11	15.36	-43.7	-45.2	20.0	0.00e+00	21	39	0	341835776	60	6570
2026-01-03 21:49:59.19	71.94	15.43	-43.5	-44.9	20.3	0.00e+00	91	39	0	342884352	58	7092
2026-01-03 21:50:00.20	71.77	15.50	-43.9	-45.3	20.1	0.00e+00	0	39	0	344981504	58	7487
2026-01-03 21:50:01.21	71.61	15.57	-42.6	-43.9	20.3	0.00e+00	92	39	0	347078656	58	6360
2026-01-03 21:50:02.22	71.44	15.64	-42.1	-43.4	20.7	0.00e+00	61	39	0	349175808	58	5983
2026-01-03 21:50:03.23	71.27	15.71	-41.4	-42.5	20.5	0.00e+00	0	39	0	351272960	56	6094
2026-01-03 21:50:04.24	71.09	15.78	-41.2	-42.3	21.1	0.00e+00	90	39	0	353370112	56	5940
2026-01-03 21:50:05.25	70.92	15.85	-42.2	-43.5	20.9	0.00e+00	0	39	0	354418688	56	6846
2026-01-03 21:50:06.26	70.75	15.91	-41.5	-42.6	20.9	0.00e+00	90	39	0	356515840	58	5479
2026-01-03 21:50:07.27	70.58	15.98	-42.1	-43.3	20.9	0.00e+00	0	39	0	358612992	56	6616
2026-01-03 21:50:08.28	70.40	16.05	-41.9	-43.1	20.9	0.00e+00	92	39	0	360710144	56	6482
2026-01-03 21:50:09.29	70.23	16.12	-41.7	-42.9	20.8	0.00e+00	68	39	0	362807296	56	6321
2026-01-03 21:50:10.30	70.05	16.19	-41.0	-42.1	21.2	0.00e+00	0	39	0	363855872	56	5800
2026-01-03 21:50:11.31	69.87	16.26	-41.2	-42.3	20.8	0.00e+00	92	39	0	365953024	56	5948
2026-01-03 21:50:12.32	69.70	16.33	-42.2	-43.6	20.3	0.00e+00	0	39	0	368050176	56	6889
2026-01-03 21:50:13.32	69.52	16.40	-43.2	-44.7	19.8	0.00e+00	69	39	0	370147328	56	7804
2026-01-03 21:50:14.33	69.34	16.47	-42.3	-43.7	20.1	0.00e+00	0	39	0	372244480	58	6182
2026-01-03 21:50:15.34	69.16	16.54	-42.4	-43.9	19.6	0.00e+00	92	39	0	373293056	58	6324
2026-01-03 21:50:16.35	68.98	16.60	-42.1	-43.4	20.3	0.00e+00	14	39	0	375390208	58	5999
2026-01-03 21:50:17.36	68.80	16.67	-42.0	-43.3	20.5	0.00e+00	0	39	0	377487360	58	5910
2026-01-03 21:50:18.37	68.61	16.74	-41.8	-43.0	20.6	0.00e+00	90	39	0	379584512	56	6438
2026-01-03 21:50:19.38	68.43	16.81	-42.1	-43.4	20.4	0.00e+00	0	39	0	381681664	56	6710
2026-01-03 21:50:20.39	68.25	16.88	-41.6	-42.9	20.3	0.00e+00	92	39	0	382730240	56	6366
2026-01-03 21:50:21.40	68.06	16.95	-42.6	-43.9	19.6	0.00e+00	0	39	0	384827392	58	6337
2026-01-03 21:50:22.41	67.87	17.01	-49.2	-54.7	19.6	0.00e+00	92	39	0	386924544	60	19740
2026-01-03 21:50:23.42	67.69	17.08	-42.4	-43.6	21.0	0.00e+00	9	39	0	389021696	56	6909
2026-01-03 21:50:24.43	67.50	17.15	-42.1	-43.3	21.2	0.00e+00	0	39	0	391118848	58	5915
2026-01-03 21:50:25.43	67.31	17.22	-41.6	-42.8	21.3	0.00e+00	92	39	0	392167424	56	6297
2026-01-03 21:50:26.45	67.12	17.29	-42.3	-43.5	18.5	0.00e+00	0	39	0	394264576	60	5396
2026-01-03 21:50:27.46	66.93	17.35	-46.3	-48.8	15.9	0.00e+00	92	39	0	396361728	60	9950
2026-01-03 21:50:28.46	66.74	17.42	-43.9	-45.5	18.7	0.00e+00	0	39	0	398458880	58	7606
2026-01-03 21:50:29.48	66.55	17.49	-43.0	-44.2	20.6	0.00e+00	75	39	0	400556032	58	6596
2026-01-03 21:50:30.48	66.36	17.55	-45.1	-47.0	16.6	0.00e+00	0	39	0	401604608	60	8109
2026-01-03 21:50:31.49	66.16	17.62	-42.4	-43.6	20.9	0.00e+00	54	39	0	403701760	60	5479
2026-01-03 21:50:32.50	65.97	17.69	-44.2	-45.9	19.0	0.00e+00	92	39	0	405798912	58	7960
2026-01-03 21:50:33.51	65.77	17.75	-44.2	-45.8	19.7	0.00e+00	0	39	0	407896064	58	7872
2026-01-03 21:50:34.52	65.57	17.82	-44.3	-45.9	20.1	0.00e+00	29	39	0	409993216	60	7140
2026-01-03 21:50:35.53	65.38	17.89	-42.0	-43.2	20.2	0.00e+00	0	39	0	411041792	56	6575
2026-01-03 21:50:36.54	65.18	17.95	-41.5	-42.7	21.8	0.00e+00	73	39	0	413138944	56	6185
2026-01-03 21:50:37.55	64.98	18.02	-41.0	-42.2	20.7	0.00e+00	0	39	0	415236096	56	5849
2026-01-03 21:50:38.56	64.78	18.08	-41.3	-42.4	21.7	0.00e+00	73	39	0	417333248	54	6753
2026-01-03 21:50:39.57	64.58	18.15	-40.3	-41.3	22.1	0.00e+00	91	39	0	419430400	54	5951
2026-01-03 21:50:40.57	64.38	18.21	-40.7	-41.9	21.4	0.00e+00	0	39	0	421527552	54	6330
2026-01-03 21:50:41.58	64.18	18.28	-40.7	-41.8	21.6	0.00e+00	10	39	0	422576128	54	6284
2026-01-03 21:50:42.59	63.97	18.34	-40.7	-41.8	21.4	0.00e+00	0	39	0	424673280	56	5591
2026-01-03 21:50:43.60	63.77	18.41	-40.6	-41.7	21.8	0.00e+00	78	39	0	426770432	54	6227
2026-01-03 21:50:44.61	63.56	18.47	-40.3	-41.4	21.3	0.00e+00	0	39	0	428867584	54	5982
2026-01-03 21:50:45.62	63.36	18.54	-40.8	-41.9	21.8	0.00e+00	89	39	0	430964736	56	5639
2026-01-03 21:50:46.63	63.15	18.60	-40.3	-41.3	22.5	0.00e+00	92	39	0	432013312	54	5952
2026-01-03 21:50:47.64	62.94	18.66	-41.4	-42.6	21.0	0.00e+00	0	39	0	434110464	56	6155
2026-01-03 21:50:48.65	62.73	18.73	-40.5	-41.5	22.3	0.00e+00	69	39	0	436207616	54	6055
2026-01-03 21:50:49.66	62.52	18.79	-41.6	-42.8	21.5	0.00e+00	0	39	0	438304768	56	6274
2026-01-03 21:50:50.67	62.31	18.85	-39.8	-40.8	22.4	0.00e+00	67	39	0	440401920	54	5570
2026-01-03 21:50:51.67	62.10	18.91	-40.0	-41.1	21.9	0.00e+00	0	39	0	441450496	52	6480
2026-01-03 21:50:52.68	61.89	18.98	-40.4	-41.5	21.4	0.00e+00	92	39	0	443547648	52	6814
2026-01-03 21:50:53.69	61.68	19.04	-41.0	-42.2	21.8	0.00e+00	13	39	0	445644800	54	6542
2026-01-03 21:50:54.70	61.47	19.10	-40.4	-41.5	21.8	0.00e+00	0	39	0	447741952	54	6066
2026-01-03 21:50:55.71	61.25	19.16	-41.7	-43.0	21.0	0.00e+00	78	39	0	449839104	58	5702
2026-01-03 21:50:56.72	61.03	19.22	-40.6	-41.8	21.6	0.00e+00	0	39	0	450887680	54	6260
2026-01-03 21:50:57.73	60.82	19.29	-40.2	-41.3	21.9	0.00e+00	86	39	0	452984832	54	5926
2026-01-03 21:50:58.74	60.60	19.35	-41.7	-43.1	22.0	0.00e+00	0	39	0	455081984	54	7292
2026-01-03 21:50:59.75	60.38	19.41	-40.5	-41.7	21.9	0.00e+00	92	39	0	457179136	54	6202
2026-01-03 21:51:00.76	60.16	19.47	-40.7	-41.9	21.8	0.00e+00	0	39	0	459276288	54	6348
2026-01-03 21:51:01.77	59.94	19.53	-41.4	-42.7	20.8	0.00e+00	0	39	0	460324864	54	6937
2026-01-03 21:51:02.78	59.72	19.59	-39.8	-40.8	22.3	0.00e+00	92	39	0	462422016	54	5628
2026-01-03 21:51:03.79	59.50	19.65	-40.1	-41.2	21.8	0.00e+00	0	39	0	464519168	52	6547
2026-01-03 21:51:04.80	59.28	19.71	-40.0	-41.0	21.7	0.00e+00	71	39	0	466616320	54	5718
2026-01-03 21:51:05.81	59.05	19.76	-40.8	-42.0	21.7	0.00e+00	0	39	0	468713472	54	6414
2026-01-03 21:51:06.82	58.83	19.82	-40.2	-41.3	21.9	0.00e+00	92	39	0	469762048	54	5900
2026-01-03 21:51:07.82	58.61	19.88	-40.3	-41.3	21.7	0.00e+00	0	39	0	471859200	54	5963
2026-01-03 21:51:08.83	58.38	19.94	-40.5	-41.6	22.0	0.00e+00	0	39	0	473956352	54	6139
2026-01-03 21:51:09.84	58.15	20.00	-47.5	-51.3	10.7	0.00e+00	92	39	0	476053504	60	13241
2026-01-03 21:51:10.85	57.93	20.05	-42.7	-44.0	20.1	1.41e-01	0	39	0	478150656	60	5716
2026-01-03 21:51:11.86	57.70	20.11	-40.3	-41.3	22.7	0.00e+00	15	39	0	479199232	52	6687
2026-01-03 21:51:12.87	57.47	20.17	-41.0	-42.1	22.3	0.00e+00	0	39	0	481296384	56	5814
2026-01-03 21:51:13.88	57.24	20.22	-40.3	-41.3	22.5	0.00e+00	92	39	0	483393536	54	5939
2026-01-03 21:51:14.89	57.01	20.28	-40.8	-41.9	22.0	0.00e+00	0	39	0	485490688	54	6327
2026-01-03 21:51:15.90	56.77	20.33	-40.3	-41.3	22.8	0.00e+00	0	39	0	487587840	52	6624
2026-01-03 21:51:16.91	56.54	20.39	-40.9	-42.0	22.4	0.00e+00	68	39	0	488636416	54	6414
2026-01-03 21:51:17.92	56.31	20.44	-39.7	-40.7	21.7	0.00e+00	0	39	0	490733568	54	5523
2026-01-03 21:51:18.93	56.07	20.50	-40.3	-41.3	22.4	0.00e+00	14	39	0	492830720	52	6650
2026-01-03 21:51:19.94	55.84	20.55	-39.6	-40.5	22.6	0.00e+00	0	39	0	494927872	52	6083
2026-01-03 21:51:20.95	55.60	20.60	-39.2	-40.1	22.3	0.00e+00	75	39	0	497025024	52	5804
2026-01-03 21:51:21.96	55.36	20.66	-41.0	-42.0	22.3	0.00e+00	0	39	0	498073600	54	6462
2026-01-03 21:51:22.97	55.13	20.71	-39.5	-40.4	23.2	0.00e+00	74	39	0	500170752	52	5997
2026-01-03 21:51:23.98	54.89	20.76	-39.0	-40.0	23.0	0.00e+00	90	39	0	502267904	52	5707
2026-01-03 21:51:24.99	54.65	20.81	-39.1	-40.0	23.0	0.00e+00	0	39	0	504365056	50	6424
2026-01-03 21:51:26.00	54.41	20.86	-39.4	-40.4	23.3	0.00e+00	57	39	0	506462208	50	6704
2026-01-03 21:51:27.00	54.17	20.91	-40.5	-41.4	23.0	0.00e+00	0	39	0	507510784	52	6763
2026-01-03 21:51:28.01	53.93	20.96	-39.7	-40.6	23.2	0.00e+00	69	39	0	509607936	54	5463
2026-01-03 21:51:29.02	53.68	21.01	-39.5	-40.5	23.1	0.00e+00	0	39	0	511705088	52	6053
2026-01-03 21:51:30.03	53.44	21.06	-41.1	-42.1	22.9	0.00e+00	76	39	0	513802240	52	7336
2026-01-03 21:51:31.04	53.20	21.11	-39.7	-40.7	22.7	0.00e+00	79	39	0	515899392	54	5540
2026-01-03 21:51:32.05	52.95	21.16	-40.3	-41.3	22.8	0.00e+00	0	39	0	517996544	54	5937
2026-01-03 21:51:33.06	52.70	21.21	-39.9	-40.9	22.7	0.00e+00	76	39	0	519045120	52	6364
2026-01-03 21:51:34.07	52.46	21.26	-39.7	-40.7	22.8	0.00e+00	0	39	0	521142272	52	6184
2026-01-03 21:51:35.08	52.21	21.30	-39.1	-40.1	22.3	0.00e+00	88	39	0	523239424	52	5796
2026-01-03 21:51:36.08	51.96	21.35	-40.0	-41.0	22.4	0.00e+00	0	39	0	525336576	54	5728
2026-01-03 21:51:37.09	51.72	21.40	-39.3	-40.2	22.9	0.00e+00	91	39	0	527433728	52	5868
2026-01-03 21:51:38.10	51.47	21.44	-39.5	-40.5	22.8	0.00e+00	13	39	0	528482304	52	6050
2026-01-03 21:51:39.11	51.22	21.49	-39.4	-40.4	22.7	0.00e+00	12	39	0	530579456	52	5986
2026-01-03 21:51:40.12	50.96	21.53	-39.7	-40.7	22.6	0.00e+00	92	39	0	532676608	52	6208
2026-01-03 21:51:41.13	50.71	21.58	-39.4	-40.4	22.5	0.00e+00	0	39	0	534773760	52	5983
2026-01-03 21:51:42.14	50.46	21.62	-39.8	-40.8	22.7	0.00e+00	92	39	0	536870912	52	6290
2026-01-03 21:51:43.15	50.21	21.66	-41.1	-42.2	21.6	0.00e+00	0	39	0	537919488	54	6600
2026-01-03 21:51:44.16	49.95	21.71	-42.0	-43.3	20.6	0.00e+00	92	39	0	540016640	52	8369
2026-01-03 21:51:45.17	49.70	21.75	-40.7	-41.8	21.6	0.00e+00	15	39	0	542113792	54	6257
2026-01-03 21:51:46.18	49.44	21.79	-44.0	-45.5	18.7	0.00e+00	0	39	0	544210944	56	8591
2026-01-03 21:51:47.19	49.19	21.83	-39.9	-40.9	22.5	0.00e+00	89	39	0	546308096	54	5639
2026-01-03 21:51:48.20	48.93	21.87	-40.5	-41.6	22.1	0.00e+00	0	39	0	547356672	54	6111
2026-01-03 21:51:49.21	48.67	21.91	-40.5	-41.6	22.1	0.00e+00	15	39	0	549453824	54	6113
2026-01-03 21:51:50.22	48.41	21.95	-41.1	-42.2	22.6	0.00e+00	0	39	0	551550976	56	5894
2026-01-03 21:51:51.23	48.16	21.99	-39.7	-40.7	22.7	0.00e+00	90	39	0	553648128	52	6196
2026-01-03 21:51:52.24	47.90	22.03	-40.3	-41.3	22.2	0.00e+00	0	39	0	555745280	52	6662
2026-01-03 21:51:53.25	47.64	22.07	-40.1	-41.1	22.1	0.00e+00	2	39	0	556793856	52	6503
2026-01-03 21:51:54.26	47.38	22.10	-40.7	-41.8	21.9	0.00e+00	92	39	0	558891008	52	7080
2026-01-03 21:51:55.27	47.11	22.14	-40.5	-41.6	21.4	0.00e+00	0	39	0	560988160	54	6151
2026-01-03 21:51:56.27	46.86	22.18	-41.1	-42.3	21.4	0.00e+00	14	39	0	563085312	54	6623
2026-01-03 21:51:57.28	46.59	22.21	-42.0	-43.2	21.2	0.00e+00	0	39	0	565182464	54	7371
2026-01-03 21:51:58.29	46.33	22.25	-42.4	-43.6	20.8	0.00e+00	92	39	0	566231040	56	6882
2026-01-03 21:51:59.31	46.06	22.28	-41.9	-43.2	20.9	0.00e+00	0	39	0	568328192	56	6540
2026-01-03 21:52:00.31	45.80	22.31	-42.4	-43.7	20.0	0.00e+00	62	39	0	570425344	56	6944
2026-01-03 21:52:01.32	45.54	22.35	-43.6	-45.1	20.2	0.00e+00	92	39	0	572522496	58	7261
2026-01-03 21:52:02.33	45.27	22.38	-43.1	-44.5	20.6	0.00e+00	0	39	0	574619648	58	6813
2026-01-03 21:52:03.34	45.01	22.41	-43.3	-44.7	20.3	0.00e+00	56	39	0	575668224	58	6957
2026-01-03 21:52:04.35	44.74	22.44	-42.2	-43.5	20.4	0.00e+00	0	39	0	577765376	58	6043
2026-01-03 21:52:05.36	44.47	22.47	-43.5	-45.0	19.6	0.00e+00	92	39	0	579862528	60	6410
2026-01-03 21:52:06.37	44.21	22.50	-42.7	-44.1	20.9	0.00e+00	0	39	0	581959680	58	6507
2026-01-03 21:52:07.38	43.94	22.53	-43.5	-45.0	19.0	0.00e+00	91	40	0	584056832	60	6460
2026-01-03 21:52:08.39	43.67	22.56	-42.4	-43.8	20.9	0.00e+00	0	39	0	586153984	54	7883
2026-01-03 21:52:09.40	43.40	22.59	-41.9	-43.0	22.3	0.00e+00	0	39	0	587202560	54	7244
2026-01-03 21:52:10.41	43.13	22.61	-42.0	-43.2	21.0	0.00e+00	81	39	0	589299712	56	6555
2026-01-03 21:52:11.41	42.86	22.64	-41.2	-42.3	21.5	0.00e+00	0	39	0	591396864	56	5928
2026-01-03 21:52:12.42	42.59	22.67	-41.4	-42.6	21.3	0.00e+00	92	39	0	593494016	56	6122
2026-01-03 21:52:13.43	42.32	22.69	-41.2	-42.4	21.5	0.00e+00	0	40	0	595591168	56	5995
2026-01-03 21:52:14.44	42.05	22.72	-41.2	-42.4	21.3	0.00e+00	76	40	0	596639744	56	5975
2026-01-03 21:52:15.45	41.78	22.74	-42.1	-43.3	21.8	0.00e+00	0	40	0	598736896	56	6643
2026-01-03 21:52:16.46	41.51	22.76	-40.8	-41.8	22.0	0.00e+00	0	39	0	600834048	54	6309
2026-01-03 21:52:17.47	41.23	22.79	-42.3	-43.5	20.6	0.00e+00	90	39	0	602931200	56	6815
2026-01-03 21:52:18.48	40.96	22.81	-42.5	-43.7	20.5	0.00e+00	0	40	0	605028352	60	5563
2026-01-03 21:52:19.49	40.69	22.83	-40.8	-41.9	21.7	0.00e+00	63	40	0	606076928	56	5646
2026-01-03 21:52:20.50	40.42	22.85	-40.9	-42.0	21.5	0.00e+00	0	40	0	608174080	56	5703
2026-01-03 21:52:21.51	40.14	22.87	-43.7	-45.1	19.3	0.00e+00	90	39	0	610271232	58	7334
2026-01-03 21:52:22.52	39.87	22.89	-43.6	-45.0	20.2	0.00e+00	0	39	0	612368384	58	7225
2026-01-03 21:52:23.53	39.59	22.91	-42.6	-44.0	19.6	0.00e+00	0	39	0	614465536	58	6411
2026-01-03 21:52:24.54	39.32	22.93	-43.8	-45.4	19.9	0.00e+00	45	39	0	615514112	60	6699
2026-01-03 21:52:25.54	39.04	22.94	-43.0	-44.4	19.0	0.00e+00	0	39	0	617611264	60	5994
2026-01-03 21:52:26.55	38.77	22.96	-44.0	-45.6	20.2	0.00e+00	10	39	0	619708416	60	6917
2026-01-03 21:52:27.56	38.49	22.97	-43.3	-44.8	19.9	0.00e+00	0	40	0	621805568	58	7045
2026-01-03 21:52:28.57	38.22	22.99	-42.7	-44.0	20.6	0.00e+00	90	40	0	623902720	58	6433
2026-01-03 21:52:29.58	37.94	23.00	-42.6	-43.9	20.3	0.00e+00	0	39	0	624951296	58	6379
2026-01-03 21:52:30.59	37.66	23.02	-43.6	-45.1	20.7	0.00e+00	0	39	0	627048448	60	6473
2026-01-03 21:52:31.60	37.39	23.03	-43.6	-45.0	19.4	0.00e+00	14	40	0	629145600	60	6391
2026-01-03 21:52:32.61	37.11	23.04	-42.4	-43.6	20.7	0.00e+00	0	40	0	631242752	60	5476
2026-01-03 21:52:33.62	36.83	23.05	-43.4	-45.0	18.9	0.00e+00	92	39	0	633339904	58	7216
2026-01-03 21:52:34.63	36.56	23.06	-44.1	-45.7	19.5	0.00e+00	0	39	0	634388480	60	6989
2026-01-03 21:52:35.64	36.28	23.07	-42.9	-44.3	20.2	0.00e+00	0	39	0	636485632	58	6675
2026-01-03 21:52:36.65	36.00	23.08	-42.3	-43.6	20.9	0.00e+00	0	39	0	638582784	58	6151
2026-01-03 21:52:37.66	35.72	23.09	-41.8	-43.1	21.1	0.00e+00	0	39	0	640679936	58	5765
2026-01-03 21:52:38.67	35.44	23.10	-41.4	-42.6	21.7	0.00e+00	60	40	0	642777088	58	5441
2026-01-03 21:52:39.68	35.17	23.11	-41.3	-42.4	21.7	0.00e+00	0	39	0	643825664	56	5981
2026-01-03 21:52:40.69	34.89	23.11	-42.8	-44.1	21.5	0.00e+00	90	40	0	645922816	56	7272
2026-01-03 21:52:41.70	34.61	23.12	-41.8	-43.0	21.7	0.00e+00	0	40	0	648019968	56	6392
2026-01-03 21:52:42.70	34.33	23.12	-45.6	-47.3	21.0	0.00e+00	70	40	0	650117120	60	8392
2026-01-03 21:52:43.71	34.05	23.13	-44.8	-46.5	20.2	0.00e+00	0	40	0	652214272	60	7602
2026-01-03 21:52:44.72	33.78	23.13	-42.3	-43.4	21.6	0.00e+00	0	40	0	654311424	56	6700
2026-01-03 21:52:45.74	33.49	23.13	-44.3	-45.7	19.7	0.00e+00	14	40	0	655360000	56	8817
2026-01-03 21:52:46.74	33.22	23.14	-43.0	-44.2	19.1	0.00e+00	0	40	0	657457152	60	5881
2026-01-03 21:52:47.75	32.94	23.14	-43.1	-44.3	22.1	0.00e+00	92	40	0	659554304	60	5923
2026-01-03 21:52:48.76	32.66	23.14	-41.9	-43.0	22.1	0.00e+00	0	40	0	661651456	58	5737
2026-01-03 21:52:49.77	32.38	23.14	-43.3	-44.6	21.1	0.00e+00	0	40	0	663748608	60	6118
2026-01-03 21:52:50.78	32.10	23.14	-42.3	-43.4	21.8	0.00e+00	0	40	0	664797184	56	6746
2026-01-03 21:52:51.79	31.82	23.14	-42.5	-43.6	21.7	0.00e+00	0	40	0	666894336	58	6146
2026-01-03 21:52:52.80	31.55	23.13	-41.0	-42.0	22.3	0.00e+00	17	39	0	668991488	56	5752
2026-01-03 21:52:53.81	31.27	23.13	-42.2	-43.3	22.0	0.00e+00	0	40	0	671088640	56	6632
2026-01-03 21:52:54.82	30.99	23.13	-42.2	-43.4	21.3	0.00e+00	22	40	0	673185792	56	6709
2026-01-03 21:52:55.82	30.71	23.12	-41.4	-42.5	22.2	0.00e+00	0	40	0	674234368	56	6069
2026-01-03 21:52:56.83	30.43	23.12	-44.9	-46.5	20.0	0.00e+00	82	40	0	676331520	60	7642
2026-01-03 21:52:57.84	30.16	23.11	-43.4	-44.7	21.2	0.00e+00	0	40	0	678428672	60	6175
2026-01-03 21:52:58.85	29.88	23.10	-42.5	-43.5	21.8	0.00e+00	0	40	0	680525824	60	5438
2026-01-03 21:52:59.86	29.60	23.10	-44.6	-46.2	18.3	0.00e+00	0	40	0	682622976	60	7340
2026-01-03 21:53:00.86	29.32	23.09	-42.6	-43.8	17.7	0.00e+00	0	40	0	683671552	60	5616
2026-01-03 21:53:01.87	29.05	23.08	-42.6	-43.8	22.8	0.00e+00	81	40	0	685768704	58	6295
2026-01-03 21:53:02.88	28.77	23.07	-41.4	-42.4	22.0	0.00e+00	0	40	0	687865856	58	5355
2026-01-03 21:53:03.89	28.49	23.06	-41.5	-42.6	22.0	0.00e+00	91	40	0	689963008	56	6146
2026-01-03 21:53:04.90	28.21	23.05	-43.6	-45.1	19.7	0.00e+00	0	40	0	692060160	56	8168
2026-01-03 21:53:05.91	27.94	23.04	-42.3	-43.5	21.5	0.00e+00	0	40	0	693108736	56	6842
2026-01-03 21:53:06.92	27.66	23.02	-42.1	-43.3	21.3	0.00e+00	0	40	0	695205888	56	6666
2026-01-03 21:53:07.93	27.38	23.01	-40.4	-41.4	22.6	0.00e+00	0	40	0	697303040	54	6019
2026-01-03 21:53:08.94	27.11	23.00	-41.5	-42.6	19.8	0.00e+00	59	40	0	699400192	58	5471
2026-01-03 21:53:09.95	26.83	22.98	-41.3	-42.3	21.6	0.00e+00	17	40	0	701497344	56	5927
2026-01-03 21:53:10.96	26.56	22.97	-42.6	-44.0	18.3	0.00e+00	90	40	0	702545920	56	7218
2026-01-03 21:53:11.96	26.28	22.95	-41.8	-43.0	21.7	0.00e+00	0	40	0	704643072	56	6413
2026-01-03 21:53:12.97	26.01	22.93	-41.3	-42.4	22.6	0.00e+00	0	40	0	706740224	56	5979
2026-01-03 21:53:13.98	25.73	22.92	-42.6	-43.8	20.3	0.00e+00	0	40	0	708837376	60	5611
2026-01-03 21:53:14.99	25.46	22.90	-41.8	-42.9	21.4	0.00e+00	0	40	0	710934528	54	7115
2026-01-03 21:53:16.00	25.18	22.88	-40.3	-41.3	22.4	0.00e+00	18	40	0	711983104	54	5952
2026-01-03 21:53:17.01	24.91	22.86	-39.9	-40.8	23.4	0.00e+00	0	40	0	714080256	54	5598
2026-01-03 21:53:18.02	24.64	22.84	-39.6	-40.5	23.2	0.00e+00	72	40	0	716177408	52	6078
2026-01-03 21:53:19.03	24.36	22.82	-41.1	-42.0	22.4	7.60e-06	0	40	0	718274560	60	4576
2026-01-03 21:53:20.04	24.09	22.80	-41.6	-42.6	23.1	0.00e+00	0	40	0	720371712	56	6149
2026-01-03 21:53:21.05	23.82	22.78	-40.5	-41.5	22.4	0.00e+00	0	40	0	721420288	54	6042
2026-01-03 21:53:22.06	23.55	22.75	-42.1	-43.3	20.4	0.00e+00	0	40	0	723517440	54	7493
2026-01-03 21:53:23.07	23.27	22.73	-41.0	-42.0	20.9	0.00e+00	20	40	0	725614592	56	5727
2026-01-03 21:53:24.08	23.00	22.70	-41.6	-42.7	21.9	0.00e+00	0	40	0	727711744	54	6994
2026-01-03 21:53:25.08	22.73	22.68	-39.9	-40.9	22.5	0.00e+00	77	40	0	729808896	54	5638
2026-01-03 21:53:26.09	22.46	22.65	-39.8	-40.8	23.0	0.00e+00	5	40	0	730857472	52	6269
2026-01-03 21:53:27.10	22.19	22.63	-39.9	-40.9	23.0	0.00e+00	90	40	0	732954624	52	6356
2026-01-03 21:53:28.11	21.92	22.60	-39.7	-40.7	22.9	0.00e+00	0	40	0	735051776	52	6211
2026-01-03 21:53:29.12	21.66	22.57	-42.0	-43.2	20.8	0.00e+00	33	40	0	737148928	56	6554
2026-01-03 21:53:30.13	21.39	22.55	-39.6	-40.6	23.0	0.00e+00	0	40	0	739246080	52	6137
2026-01-03 21:53:31.14	21.12	22.52	-39.5	-40.4	23.3	0.00e+00	0	40	0	740294656	52	6018
2026-01-03 21:53:32.15	20.85	22.49	-39.2	-40.1	23.3	0.00e+00	92	39	0	742391808	52	5807
2026-01-03 21:53:33.16	20.59	22.46	-39.8	-40.7	23.1	0.00e+00	0	40	0	744488960	52	6236
2026-01-03 21:53:34.17	20.32	22.43	-39.7	-40.6	22.8	0.00e+00	92	40	0	746586112	52	6146
2026-01-03 21:53:35.18	20.05	22.39	-40.9	-42.0	22.1	0.00e+00	0	40	0	748683264	54	6397
2026-01-03 21:53:36.19	19.79	22.36	-41.3	-42.4	21.7	0.00e+00	0	40	0	750780416	54	6763
2026-01-03 21:53:37.20	19.52	22.33	-40.6	-41.6	22.5	0.00e+00	0	40	0	751828992	54	6161
2026-01-03 21:53:38.21	19.26	22.30	-40.5	-41.5	22.2	0.00e+00	0	40	0	753926144	54	6037
2026-01-03 21:53:39.22	19.00	22.26	-42.7	-43.9	21.8	0.00e+00	37	40	0	756023296	60	5657
2026-01-03 21:53:40.23	18.73	22.23	-41.2	-42.3	22.4	0.00e+00	0	40	0	758120448	54	6661
2026-01-03 21:53:41.24	18.47	22.19	-43.6	-45.1	22.0	0.00e+00	92	40	0	760217600	58	7298
2026-01-03 21:53:42.25	18.21	22.16	-42.5	-43.7	21.3	0.00e+00	0	39	0	761266176	58	6195
2026-01-03 21:53:43.26	17.95	22.12	-40.8	-41.8	21.6	0.00e+00	0	40	0	763363328	54	6272
2026-01-03 21:53:44.26	17.69	22.09	-41.9	-43.0	22.1	0.00e+00	0	40	0	765460480	56	6417
2026-01-03 21:53:45.27	17.43	22.05	-41.6	-42.7	21.6	0.00e+00	0	40	0	767557632	56	6184
2026-01-03 21:53:46.28	17.17	22.01	-42.6	-43.8	21.2	0.00e+00	15	40	0	769654784	56	7043
2026-01-03 21:53:47.29	16.91	21.97	-43.6	-45.1	19.8	0.00e+00	0	40	0	770703360	60	6515
2026-01-03 21:53:48.30	16.65	21.93	-43.7	-45.2	20.0	0.00e+00	92	40	0	772800512	60	6569
2026-01-03 21:53:49.31	16.40	21.89	-44.6	-46.3	18.7	0.00e+00	0	40	0	774897664	60	7480
2026-01-03 21:53:50.32	16.14	21.85	-43.8	-45.4	19.9	0.00e+00	3	40	0	776994816	60	6716
2026-01-03 21:53:51.32	15.89	21.81	-44.0	-45.5	18.6	0.00e+00	0	40	0	779091968	60	6836
2026-01-03 21:53:52.33	15.63	21.77	-45.3	-47.2	18.5	0.00e+00	0	40	0	780140544	60	8311
2026-01-03 21:53:53.34	15.38	21.73	-44.5	-46.1	20.1	0.00e+00	16	39	0	782237696	60	7328
2026-01-03 21:53:54.35	15.12	21.69	-42.6	-43.8	21.1	0.00e+00	0	40	0	784334848	60	5592
2026-01-03 21:53:55.36	14.87	21.64	-44.3	-45.8	19.7	0.00e+00	92	40	0	786432000	60	7077
2026-01-03 21:53:56.36	14.62	21.60	-41.3	-42.4	21.6	0.00e+00	0	40	0	788529152	56	6011
2026-01-03 21:53:57.37	14.37	21.56	-43.4	-45.0	19.8	0.00e+00	92	40	0	789577728	56	8049
2026-01-03 21:53:58.38	14.12	21.51	-41.1	-42.2	21.2	0.00e+00	0	40	0	791674880	56	5857
2026-01-03 21:53:59.39	13.87	21.47	-41.0	-42.1	22.0	0.00e+00	0	40	0	793772032	56	5821
2026-01-03 21:54:00.40	13.62	21.42	-40.8	-41.9	21.8	0.00e+00	10	40	0	795869184	56	5645
2026-01-03 21:54:01.41	13.37	21.38	-42.1	-43.3	20.7	0.00e+00	0	40	0	797966336	56	6673
2026-01-03 21:54:02.42	13.12	21.33	-41.6	-42.7	21.7	0.00e+00	92	40	0	799014912	56	6191
2026-01-03 21:54:03.43	12.87	21.28	-41.6	-42.7	22.1	0.00e+00	0	40	0	801112064	56	6229
2026-01-03 21:54:04.44	12.62	21.24	-43.6	-44.9	20.4	0.00e+00	92	40	0	803209216	60	6360
2026-01-03 21:54:05.45	12.38	21.19	-42.4	-43.6	19.5	0.00e+00	0	40	0	805306368	60	5452
2026-01-03 21:54:06.46	12.13	21.14	-41.7	-42.7	21.6	0.00e+00	0	40	0	807403520	56	6231
2026-01-03 21:54:07.46	11.89	21.09	-41.6	-42.7	21.8	0.00e+00	0	40	0	808452096	58	5526
2026-01-03 21:54:08.47	11.65	21.04	-42.2	-43.4	20.3	0.00e+00	0	40	0	810549248	56	6741
2026-01-03 21:54:09.48	11.41	20.99	-40.1	-41.1	22.6	0.00e+00	82	40	0	812646400	54	5819
2026-01-03 21:54:10.49	11.16	20.94	-40.2	-41.2	23.2	0.00e+00	0	40	0	814743552	54	5835
2026-01-03 21:54:11.50	10.92	20.89	-40.3	-41.2	23.2	0.00e+00	55	40	0	816840704	52	6612
2026-01-03 21:54:12.52	10.68	20.84	-40.5	-41.4	23.0	0.00e+00	0	39	0	818937856	52	6723
2026-01-03 21:54:13.52	10.44	20.79	-40.9	-41.9	22.1	0.00e+00	0	39	0	819986432	54	6351
2026-01-03 21:54:14.53	10.20	20.74	-41.2	-42.3	21.7	0.00e+00	0	40	0	822083584	54	6664
2026-01-03 21:54:15.54	9.97	20.69	-41.7	-42.9	21.0	0.00e+00	0	40	0	824180736	56	6319
2026-01-03 21:54:16.55	9.73	20.63	-42.4	-43.7	20.6	0.00e+00	8	40	0	826277888	60	5515
2026-01-03 21:54:17.56	9.49	20.58	-42.4	-43.7	20.2	0.00e+00	0	40	0	827326464	56	6974
2026-01-03 21:54:18.56	9.26	20.53	-42.8	-44.2	20.6	0.00e+00	43	40	0	829423616	58	6549
2026-01-03 21:54:19.57	9.03	20.47	-41.8	-43.1	21.2	0.00e+00	0	39	0	831520768	56	6479
2026-01-03 21:54:20.58	8.79	20.42	-41.4	-42.6	21.5	0.00e+00	0	40	0	833617920	56	6155
2026-01-03 21:54:21.59	8.56	20.36	-41.4	-42.6	21.8	0.00e+00	0	40	0	835715072	56	6105
2026-01-03 21:54:22.60	8.33	20.31	-41.4	-42.6	21.3	0.00e+00	0	40	0	836763648	56	6120
2026-01-03 21:54:23.61	8.10	20.25	-42.5	-43.8	20.6	0.00e+00	78	40	0	838860800	56	7029
2026-01-03 21:54:24.62	7.87	20.20	-43.0	-44.5	20.0	0.00e+00	0	40	0	840957952	58	6810
2026-01-03 21:54:25.63	7.64	20.14	-43.3	-44.8	19.9	0.00e+00	54	40	0	843055104	58	7066
2026-01-03 21:54:26.64	7.41	20.09	-43.6	-45.2	19.7	0.00e+00	0	40	0	845152256	58	7351
2026-01-03 21:54:27.65	7.18	20.03	-43.6	-45.1	20.0	0.00e+00	0	40	0	847249408	58	7273
2026-01-03 21:54:28.66	6.95	19.97	-42.7	-44.1	20.3	0.00e+00	0	40	0	848297984	60	5795
2026-01-03 21:54:29.67	6.73	19.91	-42.5	-43.9	20.9	0.00e+00	0	40	0	850395136	58	6354
2026-01-03 21:54:30.67	6.50	19.86	-42.2	-43.5	20.8	0.00e+00	0	40	0	852492288	58	6063
2026-01-03 21:54:31.68	6.28	19.80	-41.8	-43.0	21.6	0.00e+00	0	40	0	854589440	58	5738
2026-01-03 21:54:32.69	6.06	19.74	-40.7	-41.8	22.0	0.00e+00	92	39	0	856686592	56	5567
2026-01-03 21:54:33.70	5.83	19.68	-41.8	-42.9	21.9	0.00e+00	0	39	0	857735168	56	6357
2026-01-03 21:54:34.71	5.61	19.62	-41.0	-42.0	22.5	0.00e+00	92	39	0	859832320	56	5729
2026-01-03 21:54:35.72	5.39	19.56	-40.4	-41.4	22.9	0.00e+00	0	39	0	861929472	54	5981
2026-01-03 21:54:36.73	5.17	19.50	-40.1	-41.1	22.8	0.00e+00	0	39	0	864026624	54	5780
2026-01-03 21:54:37.74	4.95	19.44	-40.0	-40.9	23.3	0.00e+00	0	39	0	866123776	52	6385
2026-01-03 21:54:38.75	4.73	19.38	-40.5	-41.5	23.0	0.00e+00	0	39	0	867172352	52	6801
2026-01-03 21:54:39.76	4.52	19.32	-39.6	-40.5	23.4	0.00e+00	12	39	0	869269504	52	6071
2026-01-03 21:54:40.76	4.30	19.26	-39.4	-40.3	23.5	0.00e+00	0	40	0	871366656	52	5899
2026-01-03 21:54:41.77	4.09	19.20	-39.5	-40.4	23.5	0.00e+00	92	39	0	873463808	52	5978
2026-01-03 21:54:42.78	3.87	19.14	-39.3	-40.2	23.6	0.00e+00	0	39	0	875560960	52	5879
2026-01-03 21:54:43.79	3.66	19.08	-38.9	-39.8	23.7	0.00e+00	0	39	0	876609536	52	5616
2026-01-03 21:54:44.80	3.44	19.02	-39.5	-40.4	23.8	0.00e+00	0	39	0	878706688	52	5968
2026-01-03 21:54:45.81	3.23	18.95	-38.7	-39.5	24.0	0.00e+00	0	39	0	880803840	50	6064
2026-01-03 21:54:46.82	3.02	18.89	-38.4	-39.2	23.9	0.00e+00	13	39	0	882900992	50	5891
2026-01-03 21:54:47.83	2.81	18.83	-38.4	-39.3	23.8	0.00e+00	0	39	0	884998144	50	5934
2026-01-03 21:54:48.84	2.60	18.77	-38.7	-39.6	23.6	0.00e+00	91	39	0	886046720	50	6104
2026-01-03 21:54:49.84	2.39	18.70	-40.1	-41.0	23.3	0.00e+00	0	39	0	888143872	52	6451
2026-01-03 21:54:50.85	2.19	18.64	-39.3	-40.3	23.0	0.00e+00	0	39	0	890241024	52	5911
2026-01-03 21:54:51.86	1.98	18.58	-40.0	-41.0	22.4	0.00e+00	0	39	0	892338176	52	6422
2026-01-03 21:54:52.87	1.77	18.51	-40.2	-41.2	22.1	0.00e+00	0	39	0	894435328	52	6601
2026-01-03 21:54:53.88	1.57	18.45	-41.0	-42.1	21.8	0.00e+00	61	39	0	895483904	54	6495
2026-01-03 21:54:54.89	1.36	18.38	-42.2	-43.3	20.7	0.00e+00	0	39	0	897581056	60	5293
2026-01-03 21:54:55.90	1.16	18.32	-42.7	-43.9	21.4	0.00e+00	81	39	0	899678208	58	6364
2026-01-03 21:54:56.91	0.96	18.25	-41.8	-42.9	21.9	0.00e+00	0	39	0	901775360	58	5694
2026-01-03 21:54:57.92	0.76	18.19	-42.2	-43.3	21.9	0.00e+00	0	39	0	903872512	56	6632
2026-01-03 21:54:58.93	0.56	18.12	-41.6	-42.6	22.4	0.00e+00	0	39	0	904921088	56	6171
2026-01-03 21:54:59.94	0.36	18.06	-41.5	-42.7	21.9	0.00e+00	0	39	0	907018240	56	6174
2026-01-03 21:55:00.94	0.16	17.99	-40.6	-41.6	22.5	0.00e+00	19	39	0	909115392	54	6144
2026-01-03 21:55:01.95	359.96	17.93	-40.3	-41.3	22.6	0.00e+00	0	40	0	911212544	54	5936
2026-01-03 21:55:02.96	359.76	17.86	-41.4	-42.4	22.5	0.00e+00	92	39	0	913309696	54	6737
2026-01-03 21:55:03.97	359.57	17.80	-39.6	-40.5	23.1	0.00e+00	0	39	0	915406848	54	5429
2026-01-03 21:55:04.98	359.37	17.73	-39.9	-40.8	23.0	0.00e+00	38	39	0	916455424	52	6278
2026-01-03 21:55:05.99	359.18	17.66	-39.6	-40.6	23.1	0.00e+00	0	39	0	918552576	52	6105
2026-01-03 21:55:07.00	358.98	17.60	-39.5	-40.4	23.3	0.00e+00	0	39	0	920649728	52	5988
2026-01-03 21:55:08.01	358.79	17.53	-39.2	-40.1	23.1	0.00e+00	0	39	0	922746880	52	5812
2026-01-03 21:55:09.02	358.60	17.46	-40.5	-41.5	22.8	0.00e+00	0	39	0	924844032	54	6051
2026-01-03 21:55:10.03	358.41	17.40	-41.0	-42.0	22.6	0.00e+00	68	39	0	925892608	54	6454
2026-01-03 21:55:11.04	358.22	17.33	-40.4	-41.4	22.5	0.00e+00	0	39	0	927989760	54	5992
2026-01-03 21:55:12.04	358.03	17.26	-40.7	-41.8	22.3	0.00e+00	38	40	0	930086912	54	6279
2026-01-03 21:55:13.06	357.84	17.20	-41.5	-42.6	22.2	0.00e+00	0	39	0	932184064	56	6112
2026-01-03 21:55:14.06	357.65	17.13	-41.0	-42.1	22.3	0.00e+00	0	39	0	934281216	56	5767
2026-01-03 21:55:15.07	357.47	17.06	-40.7	-41.8	22.5	0.00e+00	9	39	0	935329792	54	6269
2026-01-03 21:55:16.08	357.28	16.99	-40.6	-41.7	22.6	0.00e+00	0	39	0	937426944	54	6175
2026-01-03 21:55:17.09	357.09	16.93	-40.8	-41.9	22.5	0.00e+00	0	39	0	939524096	54	6320
2026-01-03 21:55:18.10	356.91	16.86	-41.4	-42.5	22.2	0.00e+00	0	39	0	941621248	54	6772
2026-01-03 21:55:19.11	356.73	16.79	-42.0	-43.1	21.8	0.00e+00	35	39	0	943718400	56	6517
2026-01-03 21:55:20.12	356.54	16.72	-41.2	-42.4	21.9	0.00e+00	0	39	0	944766976	56	5986
2026-01-03 21:55:21.13	356.36	16.65	-41.1	-42.2	21.9	0.00e+00	0	39	0	946864128	54	6595
2026-01-03 21:55:22.14	356.18	16.58	-41.2	-42.4	21.9	0.00e+00	0	39	0	948961280	54	6698
2026-01-03 21:55:23.15	356.00	16.52	-41.1	-42.2	22.0	0.00e+00	0	39	0	951058432	54	6558
2026-01-03 21:55:24.16	355.82	16.45	-41.4	-42.5	22.2	0.00e+00	87	39	0	953155584	54	6783
2026-01-03 21:55:25.16	355.65	16.38	-41.6	-42.7	21.9	0.00e+00	0	39	0	954204160	56	6196
2026-01-03 21:55:26.17	355.47	16.31	-41.7	-42.9	22.0	0.00e+00	84	39	0	956301312	56	6353
2026-01-03 21:55:27.18	355.29	16.24	-41.1	-42.2	22.2	0.00e+00	0	39	0	958398464	54	6559
2026-01-03 21:55:28.19	355.12	16.17	-41.3	-42.4	22.5	0.00e+00	0	39	0	960495616	54	6728
2026-01-03 21:55:29.20	354.94	16.10	-40.2	-41.2	22.7	0.00e+00	23	39	0	962592768	54	5860
2026-01-03 21:55:30.21	354.77	16.03	-39.7	-40.7	22.7	0.00e+00	0	39	0	963641344	52	6222
2026-01-03 21:55:31.22	354.59	15.96	-39.6	-40.5	23.0	0.00e+00	84	39	0	965738496	52	6062
2026-01-03 21:55:32.23	354.42	15.90	-40.2	-41.2	22.6	0.00e+00	0	39	0	967835648	52	6563
2026-01-03 21:55:33.24	354.25	15.83	-40.7	-41.6	22.7	0.00e+00	91	39	0	969932800	52	6913
2026-01-03 21:55:34.24	354.08	15.76	-40.5	-41.5	22.5	0.00e+00	0	39	0	972029952	54	6060
2026-01-03 21:55:35.25	353.91	15.69	-40.8	-41.8	22.3	0.00e+00	87	39	0	973078528	54	6247
2026-01-03 21:55:36.26	353.74	15.62	-40.2	-41.2	23.0	0.00e+00	0	39	0	975175680	54	5882
2026-01-03 21:55:37.27	353.57	15.55	-41.2	-42.2	22.2	0.00e+00	0	39	0	977272832	60	4674
2026-01-03 21:55:38.28	353.40	15.48	-41.0	-41.9	23.2	0.00e+00	11	39	0	979369984	54	6382
2026-01-03 21:55:39.29	353.23	15.41	-40.1	-41.0	23.3	0.00e+00	0	39	0	981467136	52	6435
2026-01-03 21:55:40.30	353.07	15.34	-40.2	-41.2	22.9	0.00e+00	90	39	0	982515712	52	6552
2026-01-03 21:55:41.31	352.90	15.27	-39.9	-40.9	23.3	0.00e+00	0	39	0	984612864	54	5641
2026-01-03 21:55:42.32	352.74	15.20	-40.0	-41.0	23.5	0.00e+00	90	39	0	986710016	52	6409
2026-01-03 21:55:43.32	352.58	15.13	-41.1	-42.0	21.7	0.00e+00	0	39	0	988807168	58	5117
2026-01-03 21:55:44.33	352.41	15.06	-40.3	-41.3	23.1	0.00e+00	0	39	0	990904320	54	5898
2026-01-03 21:55:45.34	352.25	14.99	-40.3	-41.2	22.8	0.00e+00	0	39	0	991952896	54	5883
2026-01-03 21:55:46.35	352.09	14.92	-40.5	-41.4	22.9	0.00e+00	0	39	0	994050048	54	6033
2026-01-03 21:55:47.36	351.93	14.85	-40.4	-41.4	22.5	0.00e+00	92	39	0	996147200	54	5986
2026-01-03 21:55:48.37	351.77	14.78	-41.2	-42.3	22.3	0.00e+00	0	39	0	998244352	54	6668
2026-01-03 21:55:49.38	351.61	14.71	-40.7	-41.8	22.0	0.00e+00	91	39	0	1000341504	54	6246
2026-01-03 21:55:50.39	351.45	14.64	-42.5	-43.7	21.3	0.00e+00	0	39	0	1001390080	56	6992
2026-01-03 21:55:51.40	351.29	14.57	-40.9	-41.9	22.2	0.00e+00	0	39	0	1003487232	56	5662
2026-01-03 21:55:52.40	351.14	14.50	-41.5	-42.6	21.4	1.50e-06	0	39	0	1005584384	58	5487
2026-01-03 21:55:53.41	350.98	14.43	-41.7	-42.8	22.4	0.00e+00	0	39	0	1007681536	56	6287
2026-01-03 21:55:54.42	350.83	14.36	-41.1	-42.1	22.5	0.00e+00	91	39	0	1009778688	54	6502
2026-01-03 21:55:55.42	350.67	14.29	-40.2	-41.1	23.0	0.00e+00	0	39	0	1011875840	54	5788
2026-01-03 21:55:56.44	350.52	14.22	-40.2	-41.1	22.8	7.00e-07	88	39	0	1012924416	54	5768
2026-01-03 21:55:57.45	350.36	14.15	-40.4	-41.3	22.2	0.00e+00	0	39	0	1015021568	54	5923
2026-01-03 21:55:58.46	350.21	14.08	-41.2	-42.2	22.8	0.00e+00	25	39	0	1017118720	54	6550
2026-01-03 21:55:59.46	350.06	14.01	-41.6	-42.6	22.7	0.00e+00	0	39	0	1019215872	56	6116
2026-01-03 21:56:00.47	349.91	13.94	-41.2	-42.2	22.7	0.00e+00	0	39	0	1021313024	56	5864
2026-01-03 21:56:01.48	349.76	13.87	-40.8	-41.9	22.3	0.00e+00	6	39	0	1022361600	56	5654
2026-01-03 21:56:02.49	349.61	13.80	-40.4	-41.5	22.4	0.00e+00	0	39	0	1024458752	54	6041
2026-01-03 21:56:03.50	349.46	13.73	-40.8	-41.8	22.2	0.00e+00	83	39	0	1026555904	54	6287
2026-01-03 21:56:04.51	349.31	13.66	-41.0	-42.1	21.9	0.00e+00	26	39	0	1028653056	54	6528
2026-01-03 21:56:05.52	349.16	13.59	-39.9	-40.9	22.3	0.00e+00	48	39	0	1030750208	54	5687
2026-01-03 21:56:06.52	349.02	13.52	-40.3	-41.4	22.2	0.00e+00	0	39	0	1031798784	54	5984
2026-01-03 21:56:07.53	348.87	13.45	-41.3	-42.4	22.3	0.00e+00	0	39	0	1033895936	54	6695
2026-01-03 21:56:08.54	348.73	13.38	-41.4	-42.5	21.7	0.00e+00	7	39	0	1035993088	56	6094
2026-01-03 21:56:09.55	348.58	13.31	-41.4	-42.6	21.6	0.00e+00	0	39	0	1038090240	58	5464
2026-01-03 21:56:10.55	348.44	13.24	-41.5	-42.6	21.9	0.00e+00	90	39	0	1040187392	54	6910
2026-01-03 21:56:11.56	348.30	13.17	-41.0	-42.0	22.2	0.00e+00	0	39	0	1041235968	54	6416
2026-01-03 21:56:12.57	348.16	13.10	-40.4	-41.3	22.6	0.00e+00	90	39	0	1043333120	54	5951
2026-01-03 21:56:13.58	348.01	13.03	-39.7	-40.7	22.8	0.00e+00	0	39	0	1045430272	54	5505
2026-01-03 21:56:14.59	347.87	12.96	-40.0	-40.9	22.6	0.00e+00	0	39	0	1047527424	52	6383
2026-01-03 21:56:15.60	347.73	12.89	-39.5	-40.4	22.7	0.00e+00	0	39	0	1049624576	50	6768
2026-01-03 21:56:16.61	347.59	12.82	-39.7	-40.7	22.3	0.00e+00	0	39	0	1050673152	52	6216
2026-01-03 21:56:17.62	347.45	12.75	-40.0	-41.0	22.6	0.00e+00	92	39	0	1052770304	52	6417
2026-01-03 21:56:18.62	347.32	12.68	-40.0	-40.9	22.8	0.00e+00	0	39	0	1054867456	52	6366
2026-01-03 21:56:19.63	347.18	12.61	-40.4	-41.4	22.4	0.00e+00	92	39	0	1056964608	52	6701
2026-01-03 21:56:20.64	347.04	12.54	-40.1	-41.2	22.3	0.00e+00	0	39	0	1059061760	52	6540
2026-01-03 21:56:21.65	346.90	12.47	-40.7	-41.9	21.7	0.00e+00	0	39	0	1060110336	54	6329
2026-01-03 21:56:22.66	346.77	12.40	-40.8	-41.9	21.5	0.00e+00	0	39	0	1062207488	54	6387
2026-01-03 21:56:23.67	346.63	12.33	-41.0	-42.2	21.2	0.00e+00	0	39	0	1064304640	54	6584
2026-01-03 21:56:24.68	346.50	12.26	-41.8	-43.0	20.9	0.00e+00	89	39	0	1066401792	56	6443
2026-01-03 21:56:25.69	346.36	12.19	-41.7	-42.9	21.4	0.00e+00	0	39	0	1068498944	56	6353
2026-01-03 21:56:26.70	346.23	12.12	-42.5	-43.6	21.5	7.00e-07	44	39	0	1069547520	56	6925
2026-01-03 21:56:27.71	346.10	12.06	-41.9	-43.0	21.8	0.00e+00	0	39	0	1071644672	56	6406
2026-01-03 21:56:28.72	345.97	11.99	-41.8	-42.8	22.0	0.00e+00	0	39	0	1073741824	56	6278
2026-01-03 21:56:29.73	345.84	11.92	-41.5	-42.6	22.1	0.00e+00	0	39	0	1075838976	56	6165
2026-01-03 21:56:30.74	345.71	11.85	-41.4	-42.5	21.6	0.00e+00	0	39	0	1077936128	56	6084
2026-01-03 21:56:31.75	345.58	11.78	-41.9	-42.9	22.3	0.00e+00	9	39	0	1078984704	56	6386
2026-01-03 21:56:32.76	345.45	11.71	-42.0	-43.1	21.2	0.00e+00	0	39	0	1081081856	56	6504
2026-01-03 21:56:33.76	345.32	11.64	-41.9	-42.9	22.1	0.00e+00	90	39	0	1083179008	56	6382
2026-01-03 21:56:34.77	345.19	11.57	-41.3	-42.3	22.2	0.00e+00	0	39	0	1085276160	56	5952
2026-01-03 21:56:35.78	345.06	11.50	-41.7	-42.8	21.8	0.00e+00	0	39	0	1087373312	56	6265
2026-01-03 21:56:36.79	344.94	11.43	-42.1	-43.4	20.9	0.00e+00	0	39	0	1088421888	56	6712
2026-01-03 21:56:37.80	344.81	11.36	-41.8	-42.9	21.8	0.00e+00	0	39	0	1090519040	56	6390
2026-01-03 21:56:38.81	344.68	11.29	-41.5	-42.6	21.9	0.00e+00	10	39	0	1092616192	56	6161
2026-01-03 21:56:39.82	344.56	11.23	-42.5	-43.6	21.6	0.00e+00	0	39	0	1094713344	58	6137
2026-01-03 21:56:40.83	344.43	11.16	-41.3	-42.4	21.6	0.00e+00	31	39	0	1096810496	58	5318
2026-01-03 21:56:41.84	344.31	11.09	-41.8	-43.0	20.6	0.00e+00	0	39	0	1097859072	56	6404
2026-01-03 21:56:42.84	344.19	11.02	-42.2	-43.4	20.6	0.00e+00	92	39	0	1099956224	56	6749
2026-01-03 21:56:43.85	344.07	10.95	-41.6	-42.7	21.3	0.00e+00	0	39	0	1102053376	58	5546
2026-01-03 21:56:44.86	343.94	10.88	-42.4	-43.6	21.0	0.00e+00	0	39	0	1104150528	56	6924
2026-01-03 21:56:45.87	343.82	10.81	-42.4	-43.6	21.3	0.00e+00	10	39	0	1106247680	60	5476
2026-01-03 21:56:46.88	343.70	10.75	-41.5	-42.7	21.1	0.00e+00	0	39	0	1108344832	58	5556
2026-01-03 21:56:47.89	343.58	10.68	-41.4	-42.6	21.2	0.00e+00	91	39	0	1109393408	56	6104
2026-01-03 21:56:48.90	343.46	10.61	-41.7	-42.9	21.2	0.00e+00	0	39	0	1111490560	56	6342
2026-01-03 21:56:49.91	343.34	10.54	-41.3	-42.5	21.2	0.00e+00	83	39	0	1113587712	56	6068
2026-01-03 21:56:50.92	343.22	10.47	-41.3	-42.5	21.3	0.00e+00	0	39	0	1115684864	56	6068
2026-01-03 21:56:51.93	343.11	10.40	-42.3	-43.5	21.2	0.00e+00	0	39	0	1117782016	58	6060
2026-01-03 21:56:52.94	342.99	10.34	-41.9	-43.0	21.4	0.00e+00	0	39	0	1118830592	56	6449
2026-01-03 21:56:53.95	342.87	10.27	-41.9	-43.1	21.1	0.00e+00	0	39	0	1120927744	56	6518
2026-01-03 21:56:54.96	342.75	10.20	-42.7	-44.0	21.1	0.00e+00	90	39	0	1123024896	58	6405
2026-01-03 21:56:55.96	342.64	10.13	-42.0	-43.2	20.8	0.00e+00	0	39	0	1125122048	58	5872
2026-01-03 21:56:56.97	342.52	10.07	-42.2	-43.5	20.6	0.00e+00	74	39	0	1127219200	58	6052
2026-01-03 21:56:57.98	342.41	10.00	-41.6	-42.9	20.7	0.00e+00	0	39	0	1128267776	56	6351
2026-01-03 21:56:58.99	342.30	9.93	-42.9	-44.3	20.1	0.00e+00	0	39	0	1130364928	58	6651
2026-01-03 21:56:59.99	342.18	9.86	-42.7	-44.0	20.3	0.00e+00	0	39	0	1132462080	58	6456
2026-01-03 21:57:01.00	342.07	9.80	-43.8	-45.3	19.7	0.00e+00	0	39	0	1134559232	60	6644
2026-01-03 21:57:02.01	341.96	9.73	-43.2	-44.5	20.2	0.00e+00	0	39	0	1136656384	60	6074
2026-01-03 21:57:03.02	341.85	9.66	-43.7	-45.1	20.3	0.00e+00	0	39	0	1137704960	60	6506
2026-01-03 21:57:04.03	341.73	9.59	-43.2	-44.6	20.2	0.00e+00	63	39	0	1139802112	60	6128
2026-01-03 21:57:05.04	341.62	9.53	-43.7	-45.0	20.5	0.00e+00	0	39	0	1141899264	60	6427
2026-01-03 21:57:06.05	341.51	9.46	-42.0	-43.2	20.9	0.00e+00	4	39	0	1143996416	58	5838
2026-01-03 21:57:07.06	341.40	9.39	-42.0	-43.2	21.0	0.00e+00	0	39	0	1146093568	58	5848
2026-01-03 21:57:08.07	341.29	9.33	-42.0	-43.1	21.0	0.00e+00	0	39	0	1147142144	58	5798
2026-01-03 21:57:09.08	341.18	9.26	-43.0	-44.3	20.9	0.00e+00	0	39	0	1149239296	58	6638
2026-01-03 21:57:10.09	341.08	9.19	-43.0	-44.2	21.4	0.00e+00	0	39	0	1151336448	58	6596
2026-01-03 21:57:11.10	340.97	9.13	-42.8	-43.9	20.6	0.00e+00	92	39	0	1153433600	58	6336
2026-01-03 21:57:12.11	340.86	9.06	-43.6	-44.9	20.8	0.00e+00	0	39	0	1155530752	58	7095
2026-01-03 21:57:13.12	340.75	8.99	-43.5	-44.8	20.7	0.00e+00	33	39	0	1156579328	60	6264
2026-01-03 21:57:14.13	340.65	8.93	-42.2	-43.4	20.8	0.00e+00	0	39	0	1158676480	58	5997
2026-01-03 21:57:15.14	340.54	8.86	-44.4	-46.0	19.4	0.00e+00	0	39	0	1160773632	60	7197
2026-01-03 21:57:16.14	340.44	8.79	-43.1	-44.4	20.4	0.00e+00	49	39	0	1162870784	60	6028
2026-01-03 21:57:17.15	340.33	8.73	-43.2	-44.5	20.5	7.00e-07	0	39	0	1164967936	58	6776
2026-01-03 21:57:18.16	340.23	8.66	-44.4	-45.8	20.0	0.00e+00	91	39	0	1166016512	60	7038
2026-01-03 21:57:19.17	340.12	8.60	-42.8	-44.1	20.4	0.00e+00	0	39	0	1168113664	60	5801
2026-01-03 21:57:20.18	340.02	8.53	-44.5	-46.0	19.9	0.00e+00	86	39	0	1170210816	60	7238
2026-01-03 21:57:21.19	339.92	8.46	-43.7	-45.4	17.9	0.00e+00	0	39	0	1172307968	60	6698
2026-01-03 21:57:22.19	339.82	8.40	-44.2	-45.6	19.6	1.50e-06	0	39	0	1174405120	60	6915
2026-01-03 21:57:23.20	339.71	8.33	-43.8	-45.3	19.7	0.00e+00	33	39	0	1175453696	60	6652
2026-01-03 21:57:24.21	339.61	8.27	-44.5	-46.1	19.0	0.00e+00	0	39	0	1177550848	60	7292
2026-01-03 21:57:25.22	339.51	8.20	-44.9	-46.4	20.0	0.00e+00	92	39	0	1179648000	60	7577
2026-01-03 21:57:26.23	339.41	8.14	-44.5	-46.2	17.2	0.00e+00	0	39	0	1181745152	60	7417
2026-01-03 21:57:27.24	339.31	8.07	-44.3	-45.8	19.3	0.00e+00	56	39	0	1183842304	60	7076
2026-01-03 21:57:28.25	339.21	8.01	-45.9	-47.9	18.0	0.00e+00	0	39	0	1184890880	60	8961
2026-01-03 21:57:29.26	339.11	7.94	-43.2	-44.5	20.3	0.00e+00	0	39	0	1186988032	60	6094
2026-01-03 21:57:30.27	339.01	7.88	-44.7	-46.2	19.6	0.00e+00	0	39	0	1189085184	60	7380
2026-01-03 21:57:31.28	338.92	7.81	-45.8	-47.6	18.5	0.00e+00	0	39	0	1191182336	60	8677
2026-01-03 21:57:32.28	338.82	7.75	-44.0	-45.4	19.8	0.00e+00	90	39	0	1193279488	60	6715
2026-01-03 21:57:33.29	338.72	7.68	-43.5	-44.9	20.0	0.00e+00	0	39	0	1194328064	60	6330
2026-01-03 21:57:34.30	338.62	7.62	-44.5	-46.1	18.7	0.00e+00	44	39	0	1196425216	60	7324
