passes_logs/2026/01/03/R4.6S_Anadyr/R4.6S_Anadyr__20260103_162006_NOAA_21_JPSS-2_rec.log

#Pass ID: 20260103_162006_NOAA 21 (JPSS-2)
#Satellite: NOAA 21 (JPSS-2)
#Configuration: NOAA-21
#almurnet v.1.7.20251203
#Start time: 2026-01-03 16:20:07

#Version: 2.2.20231116
#Station: R4.6S_Anadyr
#Location: 177.4865 lon 64.73178 lat
#TLE: 1 54234U 22150A   26002.88923379  .00000185  00000+0  10883-3 0  9993
#TLE: 2 54234  98.7486 303.9362 0001189 349.0578  11.0572 14.19531433163092

#Time	Az	El	Level	Level2	SNR	BER	BlckErr	Temp	State	Recorded	gain1	gain2
2026-01-03 16:20:07.26	25.63	0.03	-50.5	-68.2	3.5	3.02e+01	0	37	0	0	60	99011
2026-01-03 16:20:08.26	25.59	0.09	-50.9	-63.8	3.5	1.52e+00	0	39	104	0	60	54206
2026-01-03 16:20:09.27	25.56	0.15	-50.3	-63.1	3.5	1.52e+00	0	39	104	0	60	50321
2026-01-03 16:20:10.28	25.52	0.20	-50.1	-62.9	3.5	1.52e+00	0	39	104	0	60	49145
2026-01-03 16:20:11.29	25.48	0.26	-50.0	-63.0	3.5	1.52e+00	0	39	104	0	60	49436
2026-01-03 16:20:12.30	25.44	0.32	-49.7	-62.7	3.5	1.52e+00	0	39	104	0	60	47853
2026-01-03 16:20:13.31	25.40	0.38	-49.7	-62.6	3.5	1.52e+00	0	39	104	0	60	47298
2026-01-03 16:20:14.32	25.37	0.44	-49.6	-62.6	3.5	1.52e+00	0	39	104	0	60	47163
2026-01-03 16:20:15.33	25.33	0.49	-49.6	-62.5	3.5	1.52e+00	0	39	104	0	60	46921
2026-01-03 16:20:16.34	25.29	0.55	-49.5	-62.4	3.5	1.52e+00	0	39	104	0	60	46296
2026-01-03 16:20:17.35	25.25	0.61	-49.5	-62.3	3.5	1.52e+00	0	39	104	0	60	45778
2026-01-03 16:20:18.36	25.21	0.67	-49.4	-62.3	3.5	1.52e+00	0	39	104	0	60	45819
2026-01-03 16:20:19.37	25.17	0.73	-49.3	-62.1	3.5	1.52e+00	0	39	104	0	60	44924
2026-01-03 16:20:20.38	25.13	0.79	-49.1	-62.0	3.5	1.52e+00	0	39	104	0	60	44308
2026-01-03 16:20:21.39	25.09	0.85	-49.0	-61.9	3.5	1.52e+00	0	39	104	0	60	43541
2026-01-03 16:20:22.40	25.05	0.91	-48.8	-61.7	3.5	1.52e+00	0	39	104	0	60	42630
2026-01-03 16:20:23.41	25.01	0.97	-48.5	-61.3	3.5	1.51e+00	0	39	104	0	60	40659
2026-01-03 16:20:24.42	24.97	1.03	-48.2	-61.0	3.5	1.52e+00	0	39	104	0	60	39440
2026-01-03 16:20:25.43	24.93	1.08	-48.2	-61.0	3.5	1.52e+00	0	39	104	0	60	39451
2026-01-03 16:20:26.44	24.89	1.14	-48.2	-61.1	3.5	1.52e+00	0	39	104	0	60	39661
2026-01-03 16:20:27.45	24.85	1.20	-48.2	-61.0	3.5	1.52e+00	0	39	104	0	60	39308
2026-01-03 16:20:28.46	24.81	1.26	-48.2	-61.0	3.5	1.52e+00	0	39	104	0	60	39289
2026-01-03 16:20:29.46	24.77	1.32	-48.2	-61.0	3.5	1.52e+00	0	39	104	0	60	39373
2026-01-03 16:20:30.47	24.72	1.38	-48.2	-60.9	3.5	1.52e+00	0	39	104	0	60	39063
2026-01-03 16:20:31.48	24.68	1.44	-48.2	-60.9	3.5	1.52e+00	0	39	104	0	60	39092
2026-01-03 16:20:32.49	24.64	1.50	-48.2	-61.0	3.5	1.52e+00	0	39	104	0	60	39488
2026-01-03 16:20:33.50	24.60	1.56	-48.2	-60.9	3.5	1.52e+00	0	39	104	0	60	39147
2026-01-03 16:20:34.51	24.56	1.62	-48.2	-61.1	3.5	1.51e+00	0	39	104	0	60	39684
2026-01-03 16:20:35.52	24.51	1.68	-48.2	-61.0	3.5	1.52e+00	0	39	104	0	60	39510
2026-01-03 16:20:36.53	24.47	1.74	-48.2	-61.0	3.5	1.52e+00	0	39	104	0	60	39246
2026-01-03 16:20:37.54	24.43	1.81	-48.2	-60.9	3.5	1.52e+00	0	39	104	0	60	38852
2026-01-03 16:20:38.55	24.39	1.87	-48.2	-60.9	3.5	1.52e+00	0	39	104	0	60	38791
2026-01-03 16:20:39.56	24.34	1.93	-48.2	-60.7	3.5	1.52e+00	0	39	104	0	60	38147
2026-01-03 16:20:40.57	24.30	1.99	-48.1	-60.6	3.5	1.52e+00	0	39	104	0	60	37642
2026-01-03 16:20:41.58	24.26	2.05	-48.2	-60.6	3.5	1.52e+00	0	39	104	0	60	37759
2026-01-03 16:20:42.59	24.21	2.11	-48.2	-60.7	3.5	1.52e+00	0	39	104	0	60	37945
2026-01-03 16:20:43.60	24.17	2.17	-48.2	-60.9	3.5	1.52e+00	0	39	104	0	60	38973
2026-01-03 16:20:44.61	24.13	2.23	-48.2	-61.0	3.5	1.52e+00	0	39	104	0	60	39242
2026-01-03 16:20:45.62	24.08	2.29	-48.2	-61.0	3.5	1.52e+00	0	39	104	0	60	39301
2026-01-03 16:20:46.62	24.04	2.36	-48.2	-61.0	3.5	1.52e+00	0	39	104	0	60	39309
2026-01-03 16:20:47.63	23.99	2.42	-48.2	-60.9	3.5	1.51e+00	0	39	104	0	60	38736
2026-01-03 16:20:48.64	23.95	2.48	-48.2	-60.8	3.5	1.52e+00	0	39	104	0	60	38407
2026-01-03 16:20:49.65	23.90	2.54	-48.2	-60.7	3.5	1.52e+00	0	39	104	0	60	38235
2026-01-03 16:20:50.67	23.86	2.60	-48.1	-60.5	3.5	1.52e+00	0	39	104	0	60	37040
2026-01-03 16:20:51.67	23.81	2.67	-48.1	-60.1	3.5	1.52e+00	0	39	104	0	60	35549
2026-01-03 16:20:52.68	23.77	2.73	-48.1	-60.0	3.5	1.51e+00	0	39	104	0	60	34948
2026-01-03 16:20:53.69	23.72	2.79	-48.1	-60.1	3.5	1.52e+00	0	39	104	0	60	35331
2026-01-03 16:20:54.70	23.67	2.85	-48.1	-60.4	3.5	1.51e+00	0	39	104	0	60	36788
2026-01-03 16:20:55.71	23.63	2.92	-48.2	-60.9	3.5	1.52e+00	0	39	104	0	60	38957
2026-01-03 16:20:56.72	23.58	2.98	-48.2	-61.0	3.5	1.52e+00	0	39	104	0	60	39213
2026-01-03 16:20:57.73	23.53	3.04	-48.1	-59.8	3.5	1.52e+00	0	39	104	0	60	34236
2026-01-03 16:20:58.74	23.49	3.11	-47.7	-56.9	4.6	1.50e+00	0	39	104	0	60	24423
2026-01-03 16:20:59.75	23.44	3.17	-47.2	-53.3	6.2	2.83e-01	122	39	0	0	60	16155
2026-01-03 16:21:00.76	23.39	3.23	-46.6	-51.3	8.6	6.98e-02	120	39	0	3145728	60	12923
2026-01-03 16:21:01.77	23.34	3.30	-45.9	-49.8	10.1	6.56e-03	123	39	0	6291456	60	10845
2026-01-03 16:21:02.78	23.30	3.36	-45.2	-48.4	11.7	5.60e-04	120	39	0	10485760	60	9259
2026-01-03 16:21:03.79	23.25	3.42	-44.6	-47.5	12.7	1.91e-04	123	40	0	13631488	60	8281
2026-01-03 16:21:04.80	23.20	3.49	-44.1	-46.7	13.5	6.10e-06	123	39	0	16777216	60	7610
2026-01-03 16:21:05.81	23.15	3.55	-48.0	-58.8	3.6	1.43e+00	0	40	104	17825792	60	30471
2026-01-03 16:21:06.82	23.10	3.62	-40.8	-42.2	18.3	2.00e-04	120	39	0	17825792	56	5685
2026-01-03 16:21:07.83	23.05	3.68	-48.1	-60.7	3.5	9.51e-01	0	39	104	20971520	60	37961
2026-01-03 16:21:08.84	23.00	3.75	-47.3	-53.9	4.1	1.44e+00	0	40	104	20971520	60	17474
2026-01-03 16:21:09.84	22.95	3.81	-44.1	-46.7	13.1	0.00e+00	122	39	0	20971520	56	9564
2026-01-03 16:21:10.85	22.91	3.87	-42.8	-44.8	15.7	0.00e+00	123	40	0	24117248	60	6128
2026-01-03 16:21:11.86	22.86	3.94	-43.0	-45.0	15.8	0.00e+00	123	40	0	27262976	58	7018
2026-01-03 16:21:12.87	22.80	4.00	-41.9	-43.6	16.1	0.00e+00	121	40	0	30408704	56	6688
2026-01-03 16:21:13.88	22.75	4.07	-40.9	-42.3	18.1	0.00e+00	123	40	0	33554432	56	5776
2026-01-03 16:21:14.89	22.70	4.13	-41.3	-42.9	17.8	0.00e+00	123	39	0	36700160	56	6136
2026-01-03 16:21:15.90	22.65	4.20	-39.7	-41.0	19.2	0.00e+00	122	39	0	39845888	54	5539
2026-01-03 16:21:16.91	22.60	4.26	-39.7	-41.1	19.2	0.00e+00	120	40	0	42991616	52	6291
2026-01-03 16:21:17.92	22.55	4.33	-40.1	-41.4	18.8	0.00e+00	122	40	0	46137344	52	6570
2026-01-03 16:21:18.93	22.50	4.40	-39.4	-40.7	19.6	0.00e+00	121	40	0	49283072	52	6000
2026-01-03 16:21:19.94	22.45	4.46	-39.8	-41.1	19.4	0.00e+00	123	40	0	52428800	52	6317
2026-01-03 16:21:20.95	22.39	4.53	-39.6	-40.8	19.6	0.00e+00	120	40	0	55574528	52	6123
2026-01-03 16:21:21.96	22.34	4.59	-39.2	-40.4	20.1	0.00e+00	123	40	0	58720256	52	5812
2026-01-03 16:21:22.97	22.29	4.66	-39.6	-40.9	19.6	0.00e+00	122	40	0	61865984	52	6164
2026-01-03 16:21:23.98	22.24	4.73	-39.7	-41.0	19.5	0.00e+00	122	40	0	66060288	52	6209
2026-01-03 16:21:24.99	22.18	4.79	-39.5	-40.7	19.7	0.00e+00	120	40	0	68157440	52	6039
2026-01-03 16:21:25.99	22.13	4.86	-39.2	-40.5	20.0	0.00e+00	123	40	0	71303168	52	5868
2026-01-03 16:21:27.00	22.08	4.93	-39.4	-40.7	19.7	0.00e+00	120	40	0	74448896	52	6008
2026-01-03 16:21:28.01	22.02	4.99	-39.7	-41.0	19.6	0.00e+00	122	40	0	77594624	52	6218
2026-01-03 16:21:29.02	21.97	5.06	-39.9	-41.2	19.2	0.00e+00	122	40	0	81788928	52	6370
2026-01-03 16:21:30.03	21.91	5.13	-39.3	-40.6	20.1	0.00e+00	122	40	0	84934656	52	5934
2026-01-03 16:21:31.04	21.86	5.20	-39.4	-40.7	19.7	0.00e+00	122	40	0	88080384	52	5999
2026-01-03 16:21:32.05	21.80	5.26	-39.2	-40.4	20.0	0.00e+00	121	40	0	90177536	52	5820
2026-01-03 16:21:33.06	21.75	5.33	-38.9	-40.0	20.4	0.00e+00	122	40	0	93323264	52	5587
2026-01-03 16:21:34.07	21.69	5.40	-38.9	-40.0	20.4	0.00e+00	123	40	0	96468992	50	6265
2026-01-03 16:21:35.08	21.64	5.47	-39.1	-40.3	20.4	0.00e+00	122	40	0	100663296	50	6450
2026-01-03 16:21:36.09	21.58	5.54	-38.9	-40.0	20.4	0.00e+00	120	40	0	103809024	50	6269
2026-01-03 16:21:37.10	21.52	5.60	-39.1	-40.3	20.5	0.00e+00	122	40	0	106954752	50	6424
2026-01-03 16:21:38.11	21.47	5.67	-39.0	-40.2	20.5	0.00e+00	122	40	0	110100480	50	6370
2026-01-03 16:21:39.12	21.41	5.74	-39.1	-40.3	20.4	0.00e+00	123	40	0	113246208	50	6457
2026-01-03 16:21:40.13	21.35	5.81	-38.9	-40.1	20.5	0.00e+00	123	40	0	116391936	50	6307
2026-01-03 16:21:41.14	21.29	5.88	-38.9	-40.1	20.5	0.00e+00	122	40	0	119537664	50	6278
2026-01-03 16:21:42.15	21.24	5.95	-38.7	-39.9	20.7	0.00e+00	123	40	0	122683392	50	6165
2026-01-03 16:21:43.16	21.18	6.02	-38.4	-39.5	21.0	0.00e+00	123	40	0	125829120	50	5918
2026-01-03 16:21:44.16	21.12	6.09	-38.4	-39.5	21.0	0.00e+00	122	40	0	128974848	50	5884
2026-01-03 16:21:45.17	21.06	6.16	-38.5	-39.6	20.8	0.00e+00	120	40	0	132120576	50	5991
2026-01-03 16:21:46.18	21.00	6.23	-38.6	-39.8	20.7	0.00e+00	123	40	0	135266304	50	6088
2026-01-03 16:21:47.19	20.94	6.29	-38.9	-40.1	20.7	0.00e+00	122	40	0	138412032	50	6281
2026-01-03 16:21:48.20	20.88	6.36	-38.4	-39.5	21.0	0.00e+00	123	40	0	141557760	50	5899
2026-01-03 16:21:49.21	20.82	6.44	-38.1	-39.2	21.3	0.00e+00	123	40	0	144703488	50	5713
2026-01-03 16:21:50.22	20.76	6.51	-38.3	-39.4	21.0	0.00e+00	123	40	0	147849216	50	5814
2026-01-03 16:21:51.23	20.70	6.58	-38.3	-39.4	21.0	0.00e+00	120	40	0	150994944	50	5830
2026-01-03 16:21:52.24	20.64	6.65	-38.3	-39.4	21.0	0.00e+00	123	40	0	154140672	50	5831
2026-01-03 16:21:53.25	20.58	6.72	-38.3	-39.4	21.1	0.00e+00	122	40	0	157286400	50	5804
2026-01-03 16:21:54.26	20.52	6.79	-38.1	-39.2	21.3	0.00e+00	120	40	0	160432128	50	5687
2026-01-03 16:21:55.27	20.46	6.86	-38.0	-39.1	21.4	0.00e+00	123	40	0	163577856	48	6335
2026-01-03 16:21:56.28	20.39	6.93	-37.8	-38.9	21.5	0.00e+00	122	40	0	166723584	48	6167
2026-01-03 16:21:57.29	20.33	7.00	-38.0	-39.1	21.4	0.00e+00	127	40	0	169869312	48	6322
2026-01-03 16:21:58.30	20.27	7.07	-38.0	-39.0	21.4	0.00e+00	123	40	0	173015040	48	6274
2026-01-03 16:21:59.31	20.20	7.15	-37.9	-39.0	21.5	0.00e+00	120	40	0	176160768	48	6251
2026-01-03 16:22:00.32	20.14	7.22	-37.9	-39.0	21.6	0.00e+00	123	40	0	179306496	48	6218
2026-01-03 16:22:01.33	20.08	7.29	-37.9	-38.9	21.7	0.00e+00	120	40	0	182452224	48	6192
2026-01-03 16:22:02.34	20.01	7.36	-37.6	-38.7	21.9	0.00e+00	123	40	0	185597952	48	5998
2026-01-03 16:22:03.35	19.95	7.43	-37.8	-38.9	21.6	0.00e+00	123	40	0	188743680	48	6169
2026-01-03 16:22:04.36	19.88	7.51	-38.4	-39.5	21.1	0.00e+00	123	40	0	191889408	48	6593
2026-01-03 16:22:05.36	19.82	7.58	-38.1	-39.2	21.3	0.00e+00	122	40	0	195035136	48	6364
2026-01-03 16:22:06.37	19.75	7.65	-38.6	-39.7	21.0	0.00e+00	123	40	0	198180864	48	6747
2026-01-03 16:22:07.38	19.69	7.73	-37.8	-38.8	21.8	0.00e+00	123	40	0	201326592	48	6123
2026-01-03 16:22:08.39	19.62	7.80	-37.4	-38.5	22.1	0.00e+00	122	40	0	204472320	48	5880
2026-01-03 16:22:09.40	19.55	7.87	-37.2	-38.3	22.1	0.00e+00	123	40	0	207618048	48	5727
2026-01-03 16:22:10.41	19.49	7.95	-37.5	-38.6	21.9	0.00e+00	123	40	0	210763776	48	5949
2026-01-03 16:22:11.42	19.42	8.02	-37.1	-38.1	22.3	0.00e+00	123	40	0	213909504	48	5649
2026-01-03 16:22:12.43	19.35	8.09	-37.2	-38.2	22.2	0.00e+00	120	40	0	217055232	48	5720
2026-01-03 16:22:13.43	19.28	8.17	-37.2	-38.2	22.3	0.00e+00	123	40	0	220200960	48	5709
2026-01-03 16:22:14.44	19.22	8.24	-37.1	-38.1	22.4	0.00e+00	120	40	0	223346688	48	5636
2026-01-03 16:22:15.45	19.15	8.32	-37.1	-38.1	22.4	0.00e+00	122	40	0	226492416	48	5655
2026-01-03 16:22:16.46	19.08	8.39	-37.3	-38.3	22.2	0.00e+00	122	40	0	229638144	48	5749
2026-01-03 16:22:17.47	19.01	8.47	-37.1	-38.2	22.3	0.00e+00	123	40	0	232783872	48	5662
2026-01-03 16:22:18.48	18.94	8.54	-37.2	-38.2	22.3	0.00e+00	123	40	0	235929600	48	5679
2026-01-03 16:22:19.48	18.87	8.62	-37.0	-38.0	22.4	0.00e+00	122	40	0	239075328	48	5570
2026-01-03 16:22:20.49	18.80	8.69	-37.0	-38.0	22.4	0.00e+00	123	40	0	242221056	48	5584
2026-01-03 16:22:21.50	18.73	8.77	-37.1	-38.1	22.4	0.00e+00	122	40	0	245366784	48	5622
2026-01-03 16:22:22.51	18.66	8.84	-36.9	-38.0	22.5	0.00e+00	122	40	0	248512512	48	5533
2026-01-03 16:22:23.52	18.58	8.92	-37.0	-38.0	22.3	0.00e+00	123	40	0	251658240	48	5576
2026-01-03 16:22:24.53	18.51	9.00	-37.0	-38.0	22.3	0.00e+00	123	40	0	254803968	48	5558
2026-01-03 16:22:25.53	18.44	9.07	-37.0	-38.1	22.4	0.00e+00	120	40	0	257949696	48	5597
2026-01-03 16:22:26.54	18.37	9.15	-37.1	-38.1	22.4	0.00e+00	122	40	0	261095424	48	5606
2026-01-03 16:22:27.55	18.29	9.22	-36.9	-38.0	22.4	0.00e+00	123	40	0	264241152	48	5540
2026-01-03 16:22:28.56	18.22	9.30	-37.2	-38.2	22.2	0.00e+00	123	40	0	267386880	48	5721
2026-01-03 16:22:29.56	18.15	9.38	-36.8	-37.8	22.5	0.00e+00	123	40	0	270532608	48	5427
2026-01-03 16:22:30.57	18.07	9.45	-37.0	-38.0	22.4	0.00e+00	122	40	0	273678336	48	5549
2026-01-03 16:22:31.58	18.00	9.53	-36.8	-37.8	22.5	0.00e+00	122	40	0	276824064	48	5454
2026-01-03 16:22:32.59	17.92	9.61	-36.8	-37.8	22.6	0.00e+00	122	40	0	279969792	48	5467
2026-01-03 16:22:33.59	17.84	9.69	-37.0	-38.0	22.5	0.00e+00	122	40	0	283115520	48	5582
2026-01-03 16:22:34.60	17.77	9.77	-37.1	-38.1	22.4	0.00e+00	122	40	0	286261248	48	5654
2026-01-03 16:22:35.61	17.69	9.84	-36.8	-37.8	22.7	0.00e+00	123	40	0	289406976	48	5437
2026-01-03 16:22:36.63	17.61	9.92	-36.5	-37.4	23.0	0.00e+00	122	40	0	292552704	46	5845
2026-01-03 16:22:37.63	17.54	10.00	-36.5	-37.5	22.9	0.00e+00	123	40	0	295698432	46	5898
2026-01-03 16:22:38.64	17.46	10.08	-36.6	-37.6	22.8	0.00e+00	122	40	0	298844160	46	5981
2026-01-03 16:22:39.65	17.38	10.16	-36.8	-37.8	22.8	0.00e+00	122	40	0	301989888	46	6107
2026-01-03 16:22:40.66	17.30	10.24	-36.8	-37.8	22.7	0.00e+00	123	40	0	305135616	46	6070
2026-01-03 16:22:41.67	17.22	10.32	-36.7	-37.7	22.9	0.00e+00	122	40	0	308281344	46	5996
2026-01-03 16:22:42.68	17.14	10.40	-36.7	-37.7	22.9	0.00e+00	123	40	0	311427072	46	6016
2026-01-03 16:22:43.69	17.06	10.48	-36.5	-37.5	23.0	0.00e+00	122	40	0	314572800	46	5905
2026-01-03 16:22:44.70	16.98	10.56	-36.4	-37.4	22.9	0.00e+00	122	40	0	317718528	46	5832
2026-01-03 16:22:45.70	16.90	10.64	-36.3	-37.3	23.1	0.00e+00	122	40	0	320864256	46	5763
2026-01-03 16:22:46.71	16.82	10.72	-36.3	-37.3	23.1	0.00e+00	122	40	0	324009984	46	5768
2026-01-03 16:22:47.72	16.73	10.80	-36.3	-37.2	23.1	0.00e+00	123	40	0	327155712	46	5710
2026-01-03 16:22:48.73	16.65	10.88	-36.3	-37.3	23.2	0.00e+00	123	40	0	330301440	46	5748
2026-01-03 16:22:49.73	16.57	10.96	-36.3	-37.3	23.2	0.00e+00	120	40	0	333447168	46	5726
2026-01-03 16:22:50.74	16.49	11.04	-36.3	-37.3	23.2	0.00e+00	123	40	0	336592896	46	5732
2026-01-03 16:22:51.75	16.40	11.12	-36.3	-37.2	23.2	0.00e+00	123	40	0	339738624	46	5701
2026-01-03 16:22:52.76	16.32	11.20	-36.3	-37.3	23.2	0.00e+00	122	40	0	342884352	46	5747
2026-01-03 16:22:53.77	16.23	11.29	-36.5	-37.5	23.0	0.00e+00	122	40	0	346030080	46	5897
2026-01-03 16:22:54.78	16.15	11.37	-36.6	-37.5	22.9	0.00e+00	120	40	0	349175808	46	5907
2026-01-03 16:22:55.80	16.06	11.45	-36.4	-37.4	23.1	0.00e+00	123	40	0	352321536	46	5824
2026-01-03 16:22:56.80	15.97	11.53	-36.2	-37.1	23.3	0.00e+00	123	40	0	355467264	46	5648
2026-01-03 16:22:57.81	15.89	11.62	-36.2	-37.1	23.2	0.00e+00	122	40	0	358612992	46	5658
2026-01-03 16:22:58.82	15.80	11.70	-36.3	-37.2	23.3	0.00e+00	122	40	0	361758720	46	5703
2026-01-03 16:22:59.83	15.71	11.78	-35.9	-36.8	23.6	0.00e+00	123	40	0	364904448	46	5449
2026-01-03 16:23:00.84	15.62	11.86	-35.9	-36.8	23.6	0.00e+00	122	40	0	368050176	46	5465
2026-01-03 16:23:01.85	15.53	11.95	-35.8	-36.7	23.7	0.00e+00	123	40	0	371195904	46	5397
2026-01-03 16:23:02.86	15.44	12.03	-35.8	-36.7	23.6	0.00e+00	122	40	0	374341632	44	6030
2026-01-03 16:23:03.87	15.35	12.12	-35.9	-36.8	23.6	0.00e+00	123	40	0	377487360	44	6112
2026-01-03 16:23:04.88	15.26	12.20	-35.7	-36.6	23.7	0.00e+00	120	40	0	380633088	44	5987
2026-01-03 16:23:05.89	15.17	12.29	-35.8	-36.8	23.6	0.00e+00	123	40	0	383778816	44	6087
2026-01-03 16:23:06.90	15.08	12.37	-35.7	-36.6	23.7	0.00e+00	123	40	0	386924544	44	5980
2026-01-03 16:23:07.91	14.98	12.45	-35.9	-36.9	23.6	0.00e+00	122	40	0	390070272	44	6160
2026-01-03 16:23:08.92	14.89	12.54	-35.7	-36.6	23.8	0.00e+00	122	40	0	393216000	44	5949
2026-01-03 16:23:09.93	14.80	12.63	-35.7	-36.6	23.7	0.00e+00	123	40	0	396361728	44	5965
2026-01-03 16:23:10.94	14.70	12.71	-35.9	-36.8	23.7	0.00e+00	120	40	0	399507456	44	6099
2026-01-03 16:23:11.95	14.61	12.80	-35.8	-36.8	23.5	0.00e+00	123	40	0	402653184	44	6067
2026-01-03 16:23:12.96	14.51	12.88	-35.9	-36.8	23.7	0.00e+00	123	40	0	405798912	44	6099
2026-01-03 16:23:13.97	14.42	12.97	-35.8	-36.7	23.7	0.00e+00	123	40	0	408944640	44	6033
2026-01-03 16:23:14.98	14.32	13.06	-35.8	-36.7	23.6	0.00e+00	123	40	0	412090368	44	6062
2026-01-03 16:23:15.99	14.22	13.14	-35.8	-36.7	23.7	0.00e+00	123	40	0	415236096	44	6020
2026-01-03 16:23:17.00	14.13	13.23	-35.6	-36.6	23.8	0.00e+00	123	40	0	418381824	44	5927
2026-01-03 16:23:18.01	14.03	13.32	-35.7	-36.6	23.8	0.00e+00	122	40	0	421527552	44	5963
2026-01-03 16:23:19.01	13.93	13.40	-35.6	-36.6	23.8	0.00e+00	122	40	0	424673280	44	5934
2026-01-03 16:23:20.02	13.83	13.49	-35.7	-36.7	23.7	0.00e+00	123	40	0	427819008	44	6002
2026-01-03 16:23:21.03	13.73	13.58	-35.5	-36.4	23.8	0.00e+00	122	40	0	430964736	44	5857
2026-01-03 16:23:22.04	13.63	13.67	-35.5	-36.4	24.0	0.00e+00	123	40	0	434110464	44	5843
2026-01-03 16:23:23.05	13.53	13.75	-35.7	-36.6	23.7	0.00e+00	122	40	0	437256192	44	5987
2026-01-03 16:23:24.06	13.43	13.84	-35.6	-36.5	23.8	0.00e+00	123	40	0	440401920	44	5917
2026-01-03 16:23:25.07	13.32	13.93	-35.5	-36.4	23.9	0.00e+00	123	40	0	443547648	44	5855
2026-01-03 16:23:26.08	13.22	14.02	-35.5	-36.4	23.9	0.00e+00	123	40	0	446693376	44	5844
2026-01-03 16:23:27.09	13.12	14.11	-35.6	-36.5	23.8	0.00e+00	123	40	0	449839104	44	5902
2026-01-03 16:23:28.10	13.01	14.20	-35.7	-36.6	23.8	0.00e+00	123	40	0	452984832	44	5961
2026-01-03 16:23:29.11	12.91	14.29	-35.7	-36.7	23.6	0.00e+00	123	40	0	456130560	44	6000
2026-01-03 16:23:30.12	12.80	14.38	-35.8	-36.7	23.7	0.00e+00	122	40	0	459276288	44	6053
2026-01-03 16:23:31.13	12.69	14.47	-35.7	-36.7	23.8	0.00e+00	122	40	0	462422016	44	6002
2026-01-03 16:23:32.14	12.59	14.56	-36.0	-36.9	23.6	0.00e+00	123	40	0	465567744	44	6174
2026-01-03 16:23:33.15	12.48	14.65	-35.7	-36.6	23.8	0.00e+00	123	40	0	468713472	44	5981
2026-01-03 16:23:34.16	12.37	14.74	-35.7	-36.7	23.8	0.00e+00	122	40	0	471859200	44	6008
2026-01-03 16:23:35.17	12.26	14.83	-35.7	-36.6	23.9	0.00e+00	122	40	0	476053504	44	5964
2026-01-03 16:23:36.18	12.15	14.92	-35.8	-36.7	23.8	0.00e+00	122	40	0	478150656	44	6012
2026-01-03 16:23:37.19	12.04	15.01	-35.7	-36.7	23.8	0.00e+00	123	40	0	481296384	44	6008
2026-01-03 16:23:38.19	11.93	15.11	-35.7	-36.7	23.8	0.00e+00	123	40	0	484442112	44	6003
2026-01-03 16:23:39.20	11.82	15.20	-35.9	-36.8	23.5	0.00e+00	123	40	0	487587840	44	6131
2026-01-03 16:23:40.21	11.71	15.29	-35.9	-36.8	23.7	0.00e+00	122	40	0	490733568	44	6092
2026-01-03 16:23:41.22	11.59	15.38	-35.7	-36.6	23.8	0.00e+00	122	40	0	494927872	44	5976
2026-01-03 16:23:42.23	11.48	15.47	-35.8	-36.7	23.8	0.00e+00	122	40	0	498073600	44	6052
2026-01-03 16:23:43.24	11.36	15.57	-35.8	-36.8	23.7	0.00e+00	123	40	0	501219328	44	6074
2026-01-03 16:23:44.25	11.25	15.66	-35.9	-36.8	23.6	0.00e+00	123	40	0	503316480	44	6097
2026-01-03 16:23:45.26	11.13	15.75	-36.0	-36.9	23.6	0.00e+00	122	40	0	506462208	44	6155
2026-01-03 16:23:46.27	11.01	15.85	-35.8	-36.8	23.6	0.00e+00	122	40	0	509607936	44	6080
2026-01-03 16:23:47.28	10.90	15.94	-36.0	-37.0	23.5	0.00e+00	123	40	0	513802240	44	6237
2026-01-03 16:23:48.28	10.78	16.03	-36.0	-36.9	23.7	0.00e+00	120	40	0	516947968	44	6163
2026-01-03 16:23:49.29	10.66	16.13	-36.0	-36.9	23.6	0.00e+00	122	40	0	520093696	44	6197
2026-01-03 16:23:50.30	10.54	16.22	-36.0	-36.9	23.6	0.00e+00	123	40	0	523239424	44	6166
2026-01-03 16:23:51.31	10.42	16.32	-36.0	-36.9	23.7	0.00e+00	122	40	0	525336576	44	6189
2026-01-03 16:23:52.32	10.29	16.41	-35.9	-36.9	23.6	0.00e+00	123	40	0	529530880	44	6160
2026-01-03 16:23:53.33	10.17	16.51	-35.9	-36.8	23.7	0.00e+00	122	40	0	532676608	44	6129
2026-01-03 16:23:54.34	10.05	16.60	-36.0	-37.0	23.6	0.00e+00	120	40	0	535822336	44	6210
2026-01-03 16:23:55.35	9.92	16.70	-36.0	-36.9	23.6	0.00e+00	122	40	0	538968064	44	6201
2026-01-03 16:23:56.36	9.80	16.80	-35.9	-36.8	23.7	0.00e+00	122	40	0	542113792	44	6118
2026-01-03 16:23:57.37	9.67	16.89	-35.9	-36.9	23.7	0.00e+00	122	40	0	545259520	44	6157
2026-01-03 16:23:58.38	9.55	16.99	-35.8	-36.7	23.8	0.00e+00	120	40	0	548405248	44	6059
2026-01-03 16:23:59.39	9.42	17.08	-35.9	-36.8	23.7	0.00e+00	122	40	0	551550976	44	6096
2026-01-03 16:24:00.40	9.29	17.18	-35.7	-36.6	23.8	0.00e+00	122	40	0	554696704	44	5959
2026-01-03 16:24:01.41	9.16	17.28	-36.0	-36.9	23.8	0.00e+00	123	40	0	557842432	44	6160
2026-01-03 16:24:02.42	9.03	17.38	-36.1	-37.1	23.5	0.00e+00	123	40	0	560988160	44	6279
2026-01-03 16:24:03.43	8.90	17.47	-36.1	-37.0	23.5	0.00e+00	123	40	0	564133888	44	6272
2026-01-03 16:24:04.44	8.77	17.57	-36.3	-37.2	23.4	0.00e+00	122	40	0	567279616	44	6381
2026-01-03 16:24:05.45	8.64	17.67	-36.1	-37.0	23.5	0.00e+00	123	40	0	570425344	44	6277
2026-01-03 16:24:06.46	8.50	17.77	-36.2	-37.1	23.4	0.00e+00	123	40	0	573571072	44	6328
2026-01-03 16:24:07.47	8.37	17.87	-36.2	-37.1	23.5	0.00e+00	120	40	0	576716800	44	6332
2026-01-03 16:24:08.48	8.23	17.96	-36.2	-37.2	23.4	0.00e+00	123	40	0	579862528	44	6388
2026-01-03 16:24:09.49	8.10	18.06	-36.3	-37.2	23.4	0.00e+00	122	40	0	583008256	44	6421
2026-01-03 16:24:10.50	7.96	18.16	-36.3	-37.3	23.3	0.00e+00	122	40	0	586153984	44	6449
2026-01-03 16:24:11.51	7.82	18.26	-36.3	-37.2	23.4	0.00e+00	123	40	0	589299712	44	6400
2026-01-03 16:24:12.51	7.68	18.36	-36.4	-37.4	23.3	0.00e+00	123	40	0	592445440	44	6526
2026-01-03 16:24:13.52	7.54	18.46	-36.2	-37.2	23.5	0.00e+00	123	40	0	595591168	44	6352
2026-01-03 16:24:14.54	7.40	18.56	-36.4	-37.3	23.3	0.00e+00	123	40	0	598736896	44	6488
2026-01-03 16:24:15.54	7.26	18.66	-36.3	-37.2	23.4	0.00e+00	123	40	0	601882624	44	6413
2026-01-03 16:24:16.55	7.12	18.76	-35.9	-36.9	23.7	0.00e+00	123	40	0	605028352	44	6142
2026-01-03 16:24:17.56	6.97	18.86	-36.1	-37.0	23.6	0.00e+00	123	40	0	608174080	44	6249
2026-01-03 16:24:18.57	6.83	18.96	-36.0	-36.9	23.6	0.00e+00	122	40	0	611319808	44	6160
2026-01-03 16:24:19.58	6.68	19.06	-36.0	-36.9	23.7	0.00e+00	123	40	0	614465536	44	6186
2026-01-03 16:24:20.59	6.54	19.17	-36.0	-37.0	23.6	0.00e+00	120	40	0	617611264	44	6219
2026-01-03 16:24:21.60	6.39	19.27	-36.0	-36.9	23.6	0.00e+00	122	40	0	620756992	44	6194
2026-01-03 16:24:22.61	6.24	19.37	-36.2	-37.2	23.3	0.00e+00	122	40	0	623902720	44	6395
2026-01-03 16:24:23.62	6.09	19.47	-35.9	-36.8	23.8	0.00e+00	123	40	0	627048448	44	6105
2026-01-03 16:24:24.63	5.94	19.57	-35.9	-36.8	23.8	0.00e+00	123	40	0	630194176	44	6102
2026-01-03 16:24:25.64	5.79	19.68	-35.9	-36.9	23.7	0.00e+00	120	40	0	633339904	44	6158
2026-01-03 16:24:26.65	5.63	19.78	-35.8	-36.8	23.8	0.00e+00	122	40	0	636485632	44	6093
2026-01-03 16:24:27.65	5.48	19.88	-35.8	-36.7	23.8	0.00e+00	123	40	0	639631360	44	6040
2026-01-03 16:24:28.66	5.33	19.98	-35.6	-36.6	24.0	0.00e+00	123	40	0	642777088	44	5948
2026-01-03 16:24:29.67	5.17	20.09	-35.7	-36.6	23.8	0.00e+00	122	40	0	645922816	44	5979
2026-01-03 16:24:30.68	5.01	20.19	-35.6	-36.5	24.1	0.00e+00	122	40	0	649068544	44	5892
2026-01-03 16:24:31.69	4.86	20.29	-35.6	-36.5	24.1	0.00e+00	120	40	0	652214272	44	5892
2026-01-03 16:24:32.70	4.70	20.40	-35.4	-36.4	24.1	0.00e+00	123	40	0	655360000	44	5797
2026-01-03 16:24:33.71	4.54	20.50	-35.3	-36.2	24.2	0.00e+00	123	40	0	658505728	44	5672
2026-01-03 16:24:34.72	4.37	20.61	-35.2	-36.1	24.2	0.00e+00	123	40	0	661651456	44	5644
2026-01-03 16:24:35.73	4.21	20.71	-35.4	-36.3	24.1	0.00e+00	121	40	0	664797184	44	5783
2026-01-03 16:24:36.74	4.05	20.82	-35.3	-36.3	24.2	0.00e+00	123	40	0	667942912	44	5728
2026-01-03 16:24:37.75	3.88	20.92	-35.4	-36.3	24.2	0.00e+00	123	40	0	671088640	44	5741
2026-01-03 16:24:38.75	3.72	21.02	-35.4	-36.3	24.1	0.00e+00	123	40	0	674234368	44	5790
2026-01-03 16:24:39.76	3.55	21.13	-35.5	-36.4	24.1	0.00e+00	123	40	0	677380096	44	5821
2026-01-03 16:24:40.77	3.38	21.23	-35.1	-36.0	24.4	0.00e+00	123	40	0	680525824	44	5576
2026-01-03 16:24:41.78	3.21	21.34	-34.9	-35.8	24.5	0.00e+00	123	40	0	683671552	44	5438
2026-01-03 16:24:42.79	3.04	21.45	-35.1	-36.0	24.4	0.00e+00	122	40	0	686817280	44	5554
2026-01-03 16:24:43.80	2.87	21.55	-34.8	-35.7	24.6	0.00e+00	121	40	0	689963008	44	5388
2026-01-03 16:24:44.81	2.70	21.66	-34.7	-35.6	24.7	0.00e+00	123	40	0	693108736	42	5952
2026-01-03 16:24:45.82	2.52	21.76	-34.8	-35.7	24.6	0.00e+00	123	40	0	696254464	42	6032
2026-01-03 16:24:46.83	2.35	21.87	-34.7	-35.6	24.6	0.00e+00	123	40	0	699400192	42	5947
2026-01-03 16:24:47.84	2.17	21.98	-34.7	-35.6	24.7	0.00e+00	122	40	0	702545920	42	5960
2026-01-03 16:24:48.84	1.99	22.08	-34.7	-35.6	24.7	0.00e+00	123	40	0	705691648	42	5945
2026-01-03 16:24:49.85	1.82	22.19	-34.6	-35.5	24.8	0.00e+00	122	40	0	708837376	42	5895
2026-01-03 16:24:50.86	1.63	22.30	-34.7	-35.6	24.8	0.00e+00	123	40	0	711983104	42	5932
2026-01-03 16:24:51.87	1.45	22.40	-34.6	-35.4	24.8	0.00e+00	120	40	0	715128832	42	5858
2026-01-03 16:24:52.88	1.27	22.51	-34.6	-35.5	24.8	0.00e+00	123	40	0	718274560	42	5917
2026-01-03 16:24:53.89	1.09	22.62	-34.5	-35.4	24.9	0.00e+00	122	40	0	721420288	42	5837
2026-01-03 16:24:54.90	0.90	22.72	-34.6	-35.5	24.8	0.00e+00	122	40	0	724566016	42	5876
2026-01-03 16:24:55.91	0.71	22.83	-34.6	-35.5	24.8	0.00e+00	122	40	0	727711744	42	5885
2026-01-03 16:24:56.92	0.52	22.94	-34.7	-35.6	24.7	0.00e+00	120	40	0	730857472	42	5981
2026-01-03 16:24:57.93	0.33	23.05	-34.6	-35.5	24.7	0.00e+00	122	40	0	734003200	42	5892
2026-01-03 16:24:58.94	0.14	23.15	-34.7	-35.6	24.7	0.00e+00	121	40	0	737148928	42	5972
2026-01-03 16:24:59.95	359.95	23.26	-34.6	-35.5	24.8	0.00e+00	123	40	0	740294656	42	5903
2026-01-03 16:25:00.96	359.76	23.37	-34.7	-35.6	24.7	0.00e+00	123	40	0	743440384	42	5956
2026-01-03 16:25:01.97	359.56	23.48	-34.6	-35.5	24.8	0.00e+00	123	40	0	746586112	42	5884
2026-01-03 16:25:02.98	359.37	23.59	-34.7	-35.6	24.6	0.00e+00	120	40	0	749731840	42	5974
2026-01-03 16:25:03.98	359.17	23.69	-34.8	-35.7	24.7	0.00e+00	123	40	0	752877568	42	6031
2026-01-03 16:25:04.99	358.97	23.80	-34.9	-35.8	24.5	0.00e+00	123	40	0	756023296	42	6128
2026-01-03 16:25:06.00	358.77	23.91	-35.2	-36.1	24.5	0.00e+00	122	40	0	759169024	42	6294
2026-01-03 16:25:07.01	358.57	24.02	-34.7	-35.6	24.7	0.00e+00	122	40	0	762314752	42	5978
2026-01-03 16:25:08.02	358.36	24.13	-34.9	-35.7	24.6	0.00e+00	122	40	0	765460480	42	6062
2026-01-03 16:25:09.03	358.16	24.24	-34.6	-35.5	24.9	0.00e+00	122	40	0	768606208	42	5876
2026-01-03 16:25:10.04	357.95	24.35	-34.7	-35.6	24.7	0.00e+00	122	40	0	771751936	42	5952
2026-01-03 16:25:11.05	357.75	24.45	-34.6	-35.5	24.8	0.00e+00	123	40	0	774897664	42	5904
2026-01-03 16:25:12.06	357.54	24.56	-34.7	-35.6	24.6	0.00e+00	123	40	0	778043392	42	5991
2026-01-03 16:25:13.07	357.33	24.67	-34.8	-35.8	24.5	0.00e+00	120	40	0	781189120	42	6067
2026-01-03 16:25:14.08	357.11	24.78	-35.2	-36.2	24.3	0.00e+00	123	40	0	784334848	42	6365
2026-01-03 16:25:15.09	356.90	24.89	-35.1	-36.0	24.4	0.00e+00	122	40	0	787480576	42	6238
2026-01-03 16:25:16.10	356.69	25.00	-35.1	-36.0	24.4	0.00e+00	122	40	0	790626304	42	6263
2026-01-03 16:25:17.11	356.47	25.11	-35.1	-36.0	24.6	0.00e+00	123	40	0	793772032	42	6208
2026-01-03 16:25:18.12	356.25	25.22	-34.8	-35.7	24.7	0.00e+00	122	40	0	796917760	42	6019
2026-01-03 16:25:19.13	356.03	25.33	-35.1	-35.9	24.7	0.00e+00	122	40	0	800063488	42	6203
2026-01-03 16:25:20.14	355.81	25.43	-34.9	-35.8	24.6	0.00e+00	123	40	0	803209216	42	6099
2026-01-03 16:25:21.15	355.59	25.54	-34.9	-35.7	24.7	0.00e+00	122	40	0	806354944	42	6052
2026-01-03 16:25:22.16	355.36	25.65	-35.1	-36.0	24.3	0.00e+00	122	40	0	809500672	42	6274
2026-01-03 16:25:23.17	355.14	25.76	-35.2	-36.2	24.3	0.00e+00	122	40	0	812646400	42	6364
2026-01-03 16:25:24.17	354.91	25.87	-35.3	-36.2	24.3	0.00e+00	120	40	0	815792128	42	6399
2026-01-03 16:25:25.18	354.68	25.98	-35.3	-36.3	24.3	0.00e+00	122	40	0	818937856	42	6429
2026-01-03 16:25:26.19	354.45	26.08	-35.4	-36.3	24.2	0.00e+00	123	40	0	822083584	42	6497
2026-01-03 16:25:27.20	354.22	26.19	-35.5	-36.4	24.2	0.00e+00	123	40	0	825229312	42	6515
2026-01-03 16:25:28.21	353.98	26.30	-35.2	-36.0	24.4	0.00e+00	122	40	0	828375040	42	6277
2026-01-03 16:25:29.22	353.75	26.41	-35.1	-36.0	24.5	0.00e+00	123	40	0	831520768	42	6261
2026-01-03 16:25:30.23	353.51	26.52	-35.1	-36.0	24.4	0.00e+00	123	40	0	834666496	42	6244
2026-01-03 16:25:31.24	353.27	26.63	-35.2	-36.1	24.3	0.00e+00	123	40	0	837812224	42	6309
2026-01-03 16:25:32.25	353.03	26.73	-35.4	-36.3	24.2	0.00e+00	122	40	0	840957952	42	6477
2026-01-03 16:25:33.26	352.79	26.84	-35.6	-36.5	24.1	0.00e+00	122	40	0	844103680	42	6599
2026-01-03 16:25:34.27	352.55	26.95	-35.8	-36.7	23.9	0.00e+00	120	40	0	847249408	44	6042
2026-01-03 16:25:35.27	352.30	27.06	-35.8	-36.7	23.9	0.00e+00	122	40	0	850395136	44	6040
2026-01-03 16:25:36.28	352.06	27.16	-35.9	-36.9	23.8	0.00e+00	123	40	0	853540864	44	6155
2026-01-03 16:25:37.29	351.81	27.27	-35.8	-36.7	23.9	0.00e+00	123	40	0	856686592	44	6057
2026-01-03 16:25:38.30	351.56	27.38	-35.7	-36.7	23.9	0.00e+00	122	40	0	859832320	44	6008
2026-01-03 16:25:39.31	351.31	27.48	-35.8	-36.7	23.9	0.00e+00	123	40	0	862978048	44	6051
2026-01-03 16:25:40.32	351.05	27.59	-35.8	-36.7	23.9	0.00e+00	123	40	0	866123776	44	6052
2026-01-03 16:25:41.33	350.80	27.70	-35.9	-36.9	23.8	0.00e+00	123	40	0	869269504	44	6139
2026-01-03 16:25:42.34	350.54	27.80	-35.8	-36.7	23.9	0.00e+00	123	40	0	872415232	44	6042
2026-01-03 16:25:43.35	350.28	27.91	-35.8	-36.7	23.9	0.00e+00	123	40	0	875560960	44	6061
2026-01-03 16:25:44.36	350.02	28.01	-35.7	-36.7	24.0	0.00e+00	122	40	0	878706688	44	6015
2026-01-03 16:25:45.37	349.76	28.12	-35.6	-36.6	24.0	0.00e+00	123	40	0	882900992	44	5928
2026-01-03 16:25:46.38	349.49	28.22	-35.4	-36.3	24.2	0.00e+00	123	40	0	886046720	44	5784
2026-01-03 16:25:47.39	349.23	28.33	-35.4	-36.3	24.3	0.00e+00	122	40	0	889192448	44	5737
2026-01-03 16:25:48.40	348.96	28.43	-35.1	-36.0	24.5	0.00e+00	122	40	0	891289600	44	5540
2026-01-03 16:25:49.41	348.69	28.54	-35.0	-35.9	24.6	0.00e+00	123	40	0	894435328	44	5501
2026-01-03 16:25:50.42	348.42	28.64	-35.0	-35.9	24.6	0.00e+00	122	40	0	897581056	44	5492
2026-01-03 16:25:51.43	348.14	28.74	-35.0	-35.9	24.5	0.00e+00	122	40	0	901775360	44	5495
2026-01-03 16:25:52.44	347.87	28.85	-35.0	-35.9	24.4	0.00e+00	120	40	0	904921088	44	5491
2026-01-03 16:25:53.45	347.59	28.95	-35.0	-35.9	24.4	0.00e+00	123	40	0	908066816	44	5516
2026-01-03 16:25:54.45	347.32	29.05	-35.2	-36.1	24.3	0.00e+00	122	40	0	911212544	44	5624
2026-01-03 16:25:55.46	347.04	29.15	-35.1	-36.0	24.3	0.00e+00	122	40	0	914358272	44	5567
2026-01-03 16:25:56.47	346.75	29.26	-35.0	-35.9	24.4	0.00e+00	120	40	0	917504000	44	5509
2026-01-03 16:25:57.48	346.47	29.36	-35.1	-36.0	24.3	0.00e+00	122	40	0	920649728	44	5558
2026-01-03 16:25:58.49	346.19	29.46	-35.4	-36.3	24.2	0.00e+00	123	40	0	923795456	44	5765
2026-01-03 16:25:59.50	345.90	29.56	-35.4	-36.3	24.2	0.00e+00	122	40	0	926941184	44	5759
2026-01-03 16:26:00.51	345.61	29.66	-35.5	-36.4	24.2	0.00e+00	123	40	0	930086912	44	5816
2026-01-03 16:26:01.52	345.32	29.76	-35.7	-36.6	24.2	0.00e+00	120	40	0	933232640	44	5969
2026-01-03 16:26:02.53	345.02	29.86	-35.5	-36.5	24.1	0.00e+00	122	40	0	936378368	44	5867
2026-01-03 16:26:03.54	344.73	29.95	-35.6	-36.5	24.1	0.00e+00	120	40	0	939524096	44	5882
2026-01-03 16:26:04.55	344.43	30.05	-35.8	-36.7	23.7	0.00e+00	122	40	0	942669824	44	6041
2026-01-03 16:26:05.56	344.13	30.15	-35.8	-36.8	23.8	0.00e+00	123	40	0	945815552	44	6089
2026-01-03 16:26:06.57	343.83	30.25	-35.6	-36.5	23.9	0.00e+00	123	40	0	948961280	44	5914
2026-01-03 16:26:07.58	343.53	30.34	-35.7	-36.6	23.9	0.00e+00	120	40	0	952107008	44	5991
2026-01-03 16:26:08.58	343.23	30.44	-35.5	-36.4	24.0	0.00e+00	123	40	0	955252736	44	5841
2026-01-03 16:26:09.59	342.93	30.53	-35.2	-36.1	24.3	0.00e+00	122	40	0	958398464	44	5640
2026-01-03 16:26:10.60	342.62	30.63	-35.4	-36.3	24.2	0.00e+00	123	40	0	961544192	44	5763
2026-01-03 16:26:11.61	342.31	30.72	-35.5	-36.5	24.2	0.00e+00	123	40	0	964689920	44	5868
2026-01-03 16:26:12.62	342.00	30.81	-35.6	-36.5	24.1	0.00e+00	122	40	0	967835648	44	5886
2026-01-03 16:26:13.63	341.69	30.90	-35.5	-36.5	24.2	0.00e+00	123	40	0	970981376	44	5859
2026-01-03 16:26:14.64	341.37	31.00	-35.5	-36.4	24.1	0.00e+00	123	40	0	974127104	44	5856
2026-01-03 16:26:15.65	341.05	31.09	-35.6	-36.5	24.1	0.00e+00	123	40	0	977272832	44	5881
2026-01-03 16:26:16.66	340.74	31.18	-35.6	-36.5	24.0	0.00e+00	123	40	0	980418560	44	5894
2026-01-03 16:26:17.67	340.42	31.27	-35.5	-36.5	24.1	0.00e+00	122	40	0	983564288	44	5861
2026-01-03 16:26:18.68	340.09	31.36	-35.5	-36.4	24.2	0.00e+00	123	40	0	986710016	44	5837
2026-01-03 16:26:19.69	339.77	31.44	-35.5	-36.4	24.2	0.00e+00	122	40	0	989855744	44	5792
2026-01-03 16:26:20.70	339.45	31.53	-35.4	-36.3	24.3	0.00e+00	123	40	0	993001472	44	5780
2026-01-03 16:26:21.70	339.12	31.62	-35.7	-36.6	24.1	0.00e+00	123	40	0	996147200	44	5983
2026-01-03 16:26:22.72	338.79	31.70	-35.6	-36.5	24.1	0.00e+00	122	40	0	999292928	44	5869
2026-01-03 16:26:23.72	338.46	31.79	-35.6	-36.5	24.0	0.00e+00	123	40	0	1002438656	44	5925
2026-01-03 16:26:24.73	338.13	31.87	-35.6	-36.5	24.1	0.00e+00	122	40	0	1005584384	44	5902
2026-01-03 16:26:25.74	337.80	31.95	-35.5	-36.4	24.2	0.00e+00	122	40	0	1008730112	44	5811
2026-01-03 16:26:26.75	337.46	32.04	-35.5	-36.4	24.2	0.00e+00	123	40	0	1011875840	44	5840
2026-01-03 16:26:27.75	337.13	32.12	-35.6	-36.5	24.1	0.00e+00	123	40	0	1015021568	44	5889
2026-01-03 16:26:28.76	336.79	32.20	-35.8	-36.7	23.9	0.00e+00	120	40	0	1018167296	44	6032
2026-01-03 16:26:29.77	336.45	32.28	-36.1	-37.0	23.7	0.00e+00	123	40	0	1021313024	44	6224
2026-01-03 16:26:30.78	336.10	32.36	-36.1	-37.0	23.7	0.00e+00	123	40	0	1024458752	44	6225
2026-01-03 16:26:31.79	335.76	32.43	-36.2	-37.2	23.6	0.00e+00	123	40	0	1027604480	44	6361
2026-01-03 16:26:32.80	335.41	32.51	-36.3	-37.2	23.5	0.00e+00	123	40	0	1030750208	44	6423
2026-01-03 16:26:33.81	335.06	32.59	-36.2	-37.1	23.7	0.00e+00	122	40	0	1033895936	44	6349
2026-01-03 16:26:34.82	334.72	32.66	-36.4	-37.3	23.5	0.00e+00	123	40	0	1037041664	44	6450
2026-01-03 16:26:35.83	334.36	32.73	-36.3	-37.3	23.5	0.00e+00	123	40	0	1040187392	44	6438
2026-01-03 16:26:36.84	334.01	32.81	-36.4	-37.4	23.4	0.00e+00	120	40	0	1043333120	44	6503
2026-01-03 16:26:37.85	333.66	32.88	-36.4	-37.4	23.5	0.00e+00	122	40	0	1046478848	44	6530
2026-01-03 16:26:38.86	333.30	32.95	-36.4	-37.4	23.5	0.00e+00	122	40	0	1049624576	44	6513
2026-01-03 16:26:39.87	332.95	33.02	-36.5	-37.4	23.5	0.00e+00	122	40	0	1052770304	44	6557
2026-01-03 16:26:40.88	332.59	33.09	-36.4	-37.4	23.4	0.00e+00	122	40	0	1055916032	44	6515
2026-01-03 16:26:41.89	332.23	33.15	-36.4	-37.3	23.5	0.00e+00	120	40	0	1059061760	44	6473
2026-01-03 16:26:42.90	331.87	33.22	-36.4	-37.3	23.5	0.00e+00	123	40	0	1062207488	44	6461
2026-01-03 16:26:43.91	331.50	33.28	-36.4	-37.3	23.4	0.00e+00	122	40	0	1065353216	44	6488
2026-01-03 16:26:44.92	331.14	33.35	-36.6	-37.6	23.3	0.00e+00	122	40	0	1068498944	44	6673
2026-01-03 16:26:45.93	330.77	33.41	-36.4	-37.4	23.5	0.00e+00	120	40	0	1071644672	44	6520
2026-01-03 16:26:46.94	330.40	33.47	-36.5	-37.4	23.4	0.00e+00	122	40	0	1074790400	44	6566
2026-01-03 16:26:47.95	330.04	33.53	-36.3	-37.3	23.5	0.00e+00	123	40	0	1077936128	44	6433
2026-01-03 16:26:48.95	329.67	33.59	-36.1	-37.0	23.7	0.00e+00	123	40	0	1081081856	44	6254
2026-01-03 16:26:49.96	329.30	33.65	-36.0	-37.0	23.7	0.00e+00	123	40	0	1084227584	44	6211
2026-01-03 16:26:50.97	328.92	33.70	-36.2	-37.1	23.6	0.00e+00	123	40	0	1087373312	44	6297
2026-01-03 16:26:51.98	328.55	33.76	-36.1	-37.0	23.7	0.00e+00	121	40	0	1090519040	44	6259
2026-01-03 16:26:52.99	328.18	33.81	-36.2	-37.1	23.7	0.00e+00	123	40	0	1093664768	44	6331
2026-01-03 16:26:54.00	327.80	33.86	-36.3	-37.2	23.6	0.00e+00	123	40	0	1096810496	44	6411
2026-01-03 16:26:55.01	327.42	33.91	-36.5	-37.4	23.4	0.00e+00	123	40	0	1099956224	44	6545
2026-01-03 16:26:56.02	327.04	33.96	-36.2	-37.1	23.7	0.00e+00	120	40	0	1103101952	44	6350
2026-01-03 16:26:57.03	326.66	34.01	-36.3	-37.2	23.6	0.00e+00	123	40	0	1106247680	44	6390
2026-01-03 16:26:58.04	326.28	34.06	-36.3	-37.2	23.6	0.00e+00	120	40	0	1109393408	44	6421
2026-01-03 16:26:59.05	325.90	34.10	-36.3	-37.2	23.7	0.00e+00	122	40	0	1112539136	44	6377
2026-01-03 16:27:00.06	325.52	34.15	-36.3	-37.2	23.6	0.00e+00	123	40	0	1115684864	44	6406
2026-01-03 16:27:01.07	325.13	34.19	-36.2	-37.2	23.7	0.00e+00	123	40	0	1118830592	44	6355
2026-01-03 16:27:02.08	324.75	34.23	-36.1	-37.1	23.7	0.00e+00	123	40	0	1121976320	44	6302
2026-01-03 16:27:03.09	324.36	34.27	-36.3	-37.2	23.7	0.00e+00	123	40	0	1125122048	44	6414
2026-01-03 16:27:04.10	323.97	34.31	-36.3	-37.2	23.7	0.00e+00	123	40	0	1128267776	44	6376
2026-01-03 16:27:05.10	323.59	34.35	-36.1	-37.0	23.9	0.00e+00	123	40	0	1131413504	44	6269
2026-01-03 16:27:06.11	323.20	34.38	-36.3	-37.3	23.7	0.00e+00	122	40	0	1134559232	44	6425
2026-01-03 16:27:07.12	322.81	34.42	-36.3	-37.3	23.6	0.00e+00	123	40	0	1137704960	44	6449
2026-01-03 16:27:08.13	322.42	34.45	-36.5	-37.4	23.5	0.00e+00	122	40	0	1140850688	44	6545
2026-01-03 16:27:09.14	322.03	34.48	-36.6	-37.6	23.4	0.00e+00	121	40	0	1143996416	44	6668
2026-01-03 16:27:10.15	321.63	34.51	-36.6	-37.5	23.3	0.00e+00	123	40	0	1147142144	44	6635
2026-01-03 16:27:11.15	321.24	34.54	-36.6	-37.5	23.5	0.00e+00	123	40	0	1150287872	44	6649
2026-01-03 16:27:12.16	320.85	34.57	-36.4	-37.3	23.7	0.00e+00	123	40	0	1153433600	44	6437
2026-01-03 16:27:13.17	320.46	34.59	-36.3	-37.2	23.6	0.00e+00	122	40	0	1156579328	44	6372
2026-01-03 16:27:14.18	320.06	34.61	-36.4	-37.4	23.5	0.00e+00	122	40	0	1159725056	44	6514
2026-01-03 16:27:15.19	319.67	34.64	-36.7	-37.6	23.2	0.00e+00	123	40	0	1162870784	44	6717
2026-01-03 16:27:16.20	319.27	34.66	-36.8	-37.8	23.2	0.00e+00	123	40	0	1166016512	46	6066
2026-01-03 16:27:17.21	318.87	34.68	-36.8	-37.8	23.2	0.00e+00	123	40	0	1169162240	46	6103
2026-01-03 16:27:18.21	318.48	34.69	-36.8	-37.7	23.3	0.00e+00	123	40	0	1172307968	46	6037
2026-01-03 16:27:19.22	318.08	34.71	-36.8	-37.7	23.3	0.00e+00	120	40	0	1175453696	46	6033
2026-01-03 16:27:20.23	317.69	34.72	-37.0	-37.9	23.2	0.00e+00	123	40	0	1178599424	46	6196
2026-01-03 16:27:21.24	317.29	34.74	-36.8	-37.8	23.3	0.00e+00	120	40	0	1181745152	46	6083
2026-01-03 16:27:22.25	316.89	34.75	-36.7	-37.6	23.4	0.00e+00	122	40	0	1184890880	46	5961
2026-01-03 16:27:23.26	316.49	34.76	-36.5	-37.5	23.5	0.00e+00	123	40	0	1188036608	46	5870
2026-01-03 16:27:24.27	316.09	34.76	-36.7	-37.6	23.4	0.00e+00	123	40	0	1191182336	46	5971
2026-01-03 16:27:25.28	315.69	34.77	-36.9	-37.8	23.2	0.00e+00	123	40	0	1194328064	46	6095
2026-01-03 16:27:26.28	315.30	34.78	-36.8	-37.7	23.3	0.00e+00	122	40	0	1197473792	46	6059
2026-01-03 16:27:27.29	314.90	34.78	-37.1	-38.1	23.1	0.00e+00	123	40	0	1200619520	46	6334
2026-01-03 16:27:28.30	314.50	34.78	-37.1	-38.0	23.1	0.00e+00	120	40	0	1203765248	46	6274
2026-01-03 16:27:29.31	314.10	34.78	-37.0	-37.9	23.2	0.00e+00	123	40	0	1206910976	46	6193
2026-01-03 16:27:30.32	313.70	34.78	-37.1	-38.0	23.1	0.00e+00	123	40	0	1210056704	46	6268
2026-01-03 16:27:31.33	313.30	34.78	-37.2	-38.2	23.0	0.00e+00	123	40	0	1213202432	46	6368
2026-01-03 16:27:32.33	312.91	34.77	-37.3	-38.3	22.9	0.00e+00	121	40	0	1216348160	46	6483
2026-01-03 16:27:33.34	312.51	34.76	-37.0	-37.9	23.3	0.00e+00	123	40	0	1219493888	46	6181
2026-01-03 16:27:34.35	312.11	34.76	-36.6	-37.6	23.3	0.00e+00	122	40	0	1222639616	46	5962
2026-01-03 16:27:35.36	311.71	34.75	-36.8	-37.8	23.3	0.00e+00	122	40	0	1225785344	46	6084
2026-01-03 16:27:36.37	311.31	34.74	-37.0	-38.0	23.3	0.00e+00	123	40	0	1228931072	46	6227
2026-01-03 16:27:37.38	310.91	34.72	-36.8	-37.8	23.3	0.00e+00	120	40	0	1232076800	46	6074
2026-01-03 16:27:38.39	310.51	34.71	-36.9	-37.8	23.1	0.00e+00	123	40	0	1235222528	46	6124
2026-01-03 16:27:39.40	310.12	34.69	-36.8	-37.7	23.2	0.00e+00	123	40	0	1238368256	46	6050
2026-01-03 16:27:40.41	309.72	34.68	-36.8	-37.7	23.1	0.00e+00	123	40	0	1241513984	46	6064
2026-01-03 16:27:41.42	309.32	34.66	-37.0	-38.0	22.9	0.00e+00	122	40	0	1244659712	46	6219
2026-01-03 16:27:42.43	308.93	34.64	-37.0	-38.0	23.0	0.00e+00	123	40	0	1247805440	46	6225
2026-01-03 16:27:43.44	308.53	34.62	-37.0	-38.0	23.0	0.00e+00	120	40	0	1250951168	46	6270
2026-01-03 16:27:44.45	308.14	34.59	-37.3	-38.2	22.9	0.00e+00	122	40	0	1254096896	46	6418
2026-01-03 16:27:45.46	307.74	34.57	-37.1	-38.0	23.1	0.00e+00	122	40	0	1257242624	46	6276
2026-01-03 16:27:46.47	307.35	34.54	-36.9	-37.9	23.3	0.00e+00	123	40	0	1260388352	46	6157
2026-01-03 16:27:47.48	306.95	34.51	-36.9	-37.9	23.2	0.00e+00	123	40	0	1263534080	46	6146
2026-01-03 16:27:48.48	306.56	34.48	-36.9	-37.9	23.2	0.00e+00	120	40	0	1266679808	46	6148
2026-01-03 16:27:49.49	306.17	34.45	-37.1	-38.1	23.1	0.00e+00	123	40	0	1269825536	46	6300
2026-01-03 16:27:50.50	305.78	34.42	-36.8	-37.8	23.3	0.00e+00	123	40	0	1272971264	46	6086
2026-01-03 16:27:51.51	305.39	34.39	-37.0	-38.0	23.1	0.00e+00	122	40	0	1276116992	46	6211
2026-01-03 16:27:52.52	305.00	34.35	-36.9	-37.9	23.1	0.00e+00	123	40	0	1279262720	46	6172
2026-01-03 16:27:53.53	304.61	34.31	-37.0	-37.9	23.2	0.00e+00	120	40	0	1282408448	46	6186
2026-01-03 16:27:54.54	304.23	34.28	-36.9	-37.9	23.3	0.00e+00	123	40	0	1285554176	46	6167
2026-01-03 16:27:55.55	303.84	34.24	-36.8	-37.8	23.2	0.00e+00	122	40	0	1288699904	46	6093
2026-01-03 16:27:56.56	303.45	34.19	-37.0	-38.0	23.0	0.00e+00	123	40	0	1291845632	46	6214
2026-01-03 16:27:57.56	303.07	34.15	-37.1	-38.1	23.0	0.00e+00	122	40	0	1294991360	46	6315
2026-01-03 16:27:58.57	302.69	34.11	-36.9	-37.9	23.1	0.00e+00	122	40	0	1299185664	46	6165
2026-01-03 16:27:59.58	302.31	34.06	-36.9	-37.9	23.3	0.00e+00	123	40	0	1301282816	46	6142
2026-01-03 16:28:00.59	301.92	34.02	-36.8	-37.8	23.3	0.00e+00	122	40	0	1304428544	46	6072
2026-01-03 16:28:01.60	301.54	33.97	-36.7	-37.6	23.4	0.00e+00	122	40	0	1307574272	46	5990
2026-01-03 16:28:02.61	301.16	33.92	-36.7	-37.7	23.3	0.00e+00	122	40	0	1310720000	46	6030
2026-01-03 16:28:03.61	300.79	33.87	-36.6	-37.5	23.6	0.00e+00	123	40	0	1313865728	46	5910
2026-01-03 16:28:04.62	300.41	33.82	-36.5	-37.5	23.5	0.00e+00	122	40	0	1318060032	46	5877
2026-01-03 16:28:05.63	300.04	33.76	-36.4	-37.4	23.4	0.00e+00	122	40	0	1321205760	46	5813
2026-01-03 16:28:06.64	299.66	33.71	-36.6	-37.6	23.3	0.00e+00	123	40	0	1324351488	46	5948
2026-01-03 16:28:07.65	299.29	33.65	-36.8	-37.7	23.2	0.00e+00	123	40	0	1326448640	46	6061
2026-01-03 16:28:08.66	298.92	33.59	-36.7	-37.6	23.4	0.00e+00	123	40	0	1329594368	46	5991
2026-01-03 16:28:09.67	298.54	33.53	-36.6	-37.6	23.3	0.00e+00	123	40	0	1332740096	46	5934
2026-01-03 16:28:10.67	298.18	33.48	-36.7	-37.7	23.3	0.00e+00	122	40	0	1336934400	46	6024
2026-01-03 16:28:11.68	297.81	33.41	-36.5	-37.5	23.6	0.00e+00	120	40	0	1340080128	46	5891
2026-01-03 16:28:12.69	297.44	33.35	-36.7	-37.7	23.5	0.00e+00	122	40	0	1343225856	46	5996
2026-01-03 16:28:13.70	297.08	33.29	-36.9	-37.8	23.4	0.00e+00	123	40	0	1346371584	46	6114
2026-01-03 16:28:14.71	296.72	33.22	-36.8	-37.8	23.3	0.00e+00	122	40	0	1349517312	46	6121
2026-01-03 16:28:15.72	296.35	33.16	-36.9	-37.9	23.3	0.00e+00	120	40	0	1352663040	46	6171
2026-01-03 16:28:16.73	295.99	33.09	-36.5	-37.4	23.6	0.00e+00	122	40	0	1355808768	46	5848
2026-01-03 16:28:17.74	295.63	33.02	-36.5	-37.4	23.6	0.00e+00	123	40	0	1358954496	46	5831
2026-01-03 16:28:18.75	295.28	32.95	-36.0	-36.9	24.0	0.00e+00	122	40	0	1362100224	46	5504
2026-01-03 16:28:19.76	294.92	32.88	-36.0	-36.9	24.0	0.00e+00	123	40	0	1365245952	46	5510
2026-01-03 16:28:20.77	294.56	32.81	-35.9	-36.8	24.1	0.00e+00	123	40	0	1368391680	46	5445
2026-01-03 16:28:21.78	294.21	32.74	-35.9	-36.9	24.0	0.00e+00	122	40	0	1371537408	46	5483
2026-01-03 16:28:22.79	293.86	32.67	-36.0	-36.9	24.1	0.00e+00	123	40	0	1374683136	46	5492
2026-01-03 16:28:23.80	293.51	32.59	-35.9	-36.9	24.0	0.00e+00	122	40	0	1377828864	46	5469
2026-01-03 16:28:24.81	293.16	32.51	-36.0	-37.0	24.0	0.00e+00	122	40	0	1380974592	46	5534
2026-01-03 16:28:25.82	292.81	32.44	-36.2	-37.1	24.0	0.00e+00	123	40	0	1384120320	46	5613
2026-01-03 16:28:26.83	292.47	32.36	-36.1	-37.0	23.9	0.00e+00	123	40	0	1387266048	46	5583
2026-01-03 16:28:27.83	292.13	32.28	-35.7	-36.6	24.2	0.00e+00	120	40	0	1390411776	44	5948
2026-01-03 16:28:28.85	291.78	32.20	-35.9	-36.8	24.2	0.00e+00	123	40	0	1393557504	44	6073
2026-01-03 16:28:29.85	291.45	32.12	-35.7	-36.6	24.2	0.00e+00	123	40	0	1396703232	44	5939
2026-01-03 16:28:30.86	291.11	32.04	-35.8	-36.7	24.1	0.00e+00	123	40	0	1399848960	44	6040
2026-01-03 16:28:31.87	290.77	31.96	-35.9	-36.8	24.0	0.00e+00	120	40	0	1402994688	44	6070
2026-01-03 16:28:32.88	290.44	31.88	-35.9	-36.8	23.7	0.00e+00	123	40	0	1406140416	44	6094
2026-01-03 16:28:33.89	290.10	31.79	-35.8	-36.7	23.9	0.00e+00	120	40	0	1409286144	44	6042
2026-01-03 16:28:34.90	289.77	31.71	-35.6	-36.6	24.0	0.00e+00	122	40	0	1412431872	44	5935
2026-01-03 16:28:35.91	289.44	31.62	-35.4	-36.3	24.4	0.00e+00	120	40	0	1415577600	44	5756
2026-01-03 16:28:36.92	289.12	31.53	-35.3	-36.2	24.4	0.00e+00	123	40	0	1418723328	44	5702
2026-01-03 16:28:37.93	288.79	31.45	-35.5	-36.4	24.3	0.00e+00	120	40	0	1421869056	44	5830
2026-01-03 16:28:38.94	288.46	31.36	-35.6	-36.5	24.1	0.00e+00	123	40	0	1425014784	44	5860
2026-01-03 16:28:39.95	288.14	31.27	-35.5	-36.4	24.2	0.00e+00	122	40	0	1428160512	44	5836
2026-01-03 16:28:40.95	287.82	31.18	-35.7	-36.6	24.1	0.00e+00	123	40	0	1431306240	44	5975
2026-01-03 16:28:41.96	287.51	31.09	-35.9	-36.9	23.9	0.00e+00	120	40	0	1434451968	44	6142
2026-01-03 16:28:42.97	287.19	31.00	-35.8	-36.7	23.9	0.00e+00	120	40	0	1437597696	44	6042
2026-01-03 16:28:43.98	286.87	30.91	-35.7	-36.6	24.1	0.00e+00	123	40	0	1440743424	44	5970
2026-01-03 16:28:44.99	286.56	30.81	-35.5	-36.4	24.3	0.00e+00	123	40	0	1443889152	44	5811
2026-01-03 16:28:46.00	286.25	30.72	-35.5	-36.4	24.3	0.00e+00	123	40	0	1447034880	44	5800
2026-01-03 16:28:47.00	285.94	30.63	-35.3	-36.2	24.5	0.00e+00	123	40	0	1450180608	44	5670
2026-01-03 16:28:48.01	285.63	30.53	-35.6	-36.5	24.2	0.00e+00	123	40	0	1453326336	44	5891
2026-01-03 16:28:49.02	285.33	30.44	-35.8	-36.7	24.0	0.00e+00	123	40	0	1456472064	44	6025
2026-01-03 16:28:50.03	285.02	30.34	-35.7	-36.6	24.1	0.00e+00	123	40	0	1459617792	44	5980
2026-01-03 16:28:51.03	284.72	30.25	-35.7	-36.6	24.0	0.00e+00	122	40	0	1462763520	44	5957
2026-01-03 16:28:52.04	284.42	30.15	-35.5	-36.4	24.2	0.00e+00	123	40	0	1465909248	44	5835
2026-01-03 16:28:53.05	284.12	30.05	-35.4	-36.3	24.3	0.00e+00	123	40	0	1469054976	44	5778
2026-01-03 16:28:54.06	283.82	29.96	-35.5	-36.4	24.2	0.00e+00	120	40	0	1472200704	44	5831
2026-01-03 16:28:55.07	283.53	29.86	-35.2	-36.0	24.5	0.00e+00	122	40	0	1475346432	44	5586
2026-01-03 16:28:56.08	283.23	29.76	-35.4	-36.3	24.2	0.00e+00	123	40	0	1478492160	44	5755
2026-01-03 16:28:57.09	282.94	29.66	-35.7	-36.6	24.0	0.00e+00	123	40	0	1481637888	44	5970
2026-01-03 16:28:58.10	282.65	29.56	-35.8	-36.7	23.9	0.00e+00	120	40	0	1484783616	44	6042
2026-01-03 16:28:59.10	282.37	29.46	-35.9	-36.9	23.9	0.00e+00	123	40	0	1487929344	44	6151
2026-01-03 16:29:00.12	282.08	29.36	-35.8	-36.7	24.0	0.00e+00	123	40	0	1491075072	44	6045
2026-01-03 16:29:01.12	281.79	29.26	-35.4	-36.3	24.2	0.00e+00	123	40	0	1494220800	44	5754
2026-01-03 16:29:02.13	281.51	29.15	-35.3	-36.2	24.3	0.00e+00	122	40	0	1497366528	44	5718
2026-01-03 16:29:03.14	281.23	29.05	-35.1	-36.0	24.4	0.00e+00	123	40	0	1500512256	44	5535
2026-01-03 16:29:04.15	280.95	28.95	-35.1	-36.0	24.5	0.00e+00	122	40	0	1503657984	44	5548
2026-01-03 16:29:05.16	280.67	28.85	-35.6	-36.5	24.2	0.00e+00	120	40	0	1506803712	44	5864
2026-01-03 16:29:06.17	280.40	28.74	-35.6	-36.5	24.1	0.00e+00	122	40	0	1509949440	44	5920
2026-01-03 16:29:07.18	280.12	28.64	-35.7	-36.6	23.9	0.00e+00	122	40	0	1513095168	44	5956
2026-01-03 16:29:08.19	279.85	28.54	-35.9	-36.8	23.8	0.00e+00	122	40	0	1516240896	44	6129
2026-01-03 16:29:09.20	279.58	28.43	-35.9	-36.9	23.9	0.00e+00	121	40	0	1519386624	44	6153
2026-01-03 16:29:10.21	279.31	28.33	-35.8	-36.7	24.0	0.00e+00	123	40	0	1522532352	44	6061
2026-01-03 16:29:11.22	279.04	28.22	-35.7	-36.6	24.0	0.00e+00	122	40	0	1525678080	44	5981
2026-01-03 16:29:12.23	278.78	28.12	-35.5	-36.4	24.2	0.00e+00	123	40	0	1528823808	44	5855
2026-01-03 16:29:13.24	278.52	28.01	-35.6	-36.5	24.3	0.00e+00	123	40	0	1531969536	44	5869
2026-01-03 16:29:14.25	278.25	27.91	-35.4	-36.3	24.4	0.00e+00	122	40	0	1535115264	44	5754
2026-01-03 16:29:15.26	277.99	27.80	-35.2	-36.1	24.4	0.00e+00	120	40	0	1538260992	44	5651
2026-01-03 16:29:16.27	277.74	27.69	-35.3	-36.2	24.5	0.00e+00	123	40	0	1541406720	44	5682
2026-01-03 16:29:17.28	277.48	27.59	-35.3	-36.2	24.3	0.00e+00	122	40	0	1544552448	44	5713
2026-01-03 16:29:18.29	277.22	27.48	-35.3	-36.3	24.2	0.00e+00	122	40	0	1547698176	44	5731
2026-01-03 16:29:19.30	276.97	27.37	-35.3	-36.2	24.3	0.00e+00	122	40	0	1550843904	44	5691
2026-01-03 16:29:20.31	276.72	27.27	-35.4	-36.3	24.2	0.00e+00	122	40	0	1553989632	44	5774
2026-01-03 16:29:21.32	276.47	27.16	-35.4	-36.3	24.3	0.00e+00	123	40	0	1557135360	44	5740
2026-01-03 16:29:22.33	276.22	27.05	-35.2	-36.1	24.4	0.00e+00	123	40	0	1560281088	44	5630
2026-01-03 16:29:23.33	275.98	26.94	-35.1	-36.0	24.5	0.00e+00	123	40	0	1563426816	44	5547
2026-01-03 16:29:24.34	275.73	26.84	-35.2	-36.1	24.4	0.00e+00	122	40	0	1566572544	44	5641
2026-01-03 16:29:25.35	275.49	26.73	-35.2	-36.1	24.4	0.00e+00	123	40	0	1569718272	44	5599
2026-01-03 16:29:26.36	275.25	26.62	-35.3	-36.2	24.5	0.00e+00	120	40	0	1572864000	44	5697
2026-01-03 16:29:27.37	275.01	26.51	-35.2	-36.1	24.5	0.00e+00	123	40	0	1576009728	44	5601
2026-01-03 16:29:28.38	274.77	26.40	-34.9	-35.8	24.6	0.00e+00	123	40	0	1579155456	44	5440
2026-01-03 16:29:29.39	274.54	26.29	-34.8	-35.6	24.6	0.00e+00	123	40	0	1582301184	42	5981
2026-01-03 16:29:30.40	274.30	26.19	-34.6	-35.4	24.8	0.00e+00	123	40	0	1585446912	42	5847
2026-01-03 16:29:31.41	274.07	26.08	-34.6	-35.5	24.9	0.00e+00	123	40	0	1588592640	42	5872
2026-01-03 16:29:32.42	273.84	25.97	-34.8	-35.7	24.7	0.00e+00	123	40	0	1591738368	42	6010
2026-01-03 16:29:33.43	273.61	25.86	-34.9	-35.7	24.7	0.00e+00	122	40	0	1594884096	42	6050
2026-01-03 16:29:34.44	273.38	25.75	-35.0	-35.8	24.6	0.00e+00	122	40	0	1598029824	42	6125
2026-01-03 16:29:35.45	273.15	25.64	-35.3	-36.2	24.5	0.00e+00	123	40	0	1601175552	42	6358
2026-01-03 16:29:36.46	272.93	25.53	-35.5	-36.4	24.2	0.00e+00	123	40	0	1604321280	42	6511
2026-01-03 16:29:37.47	272.70	25.42	-35.4	-36.3	24.3	0.00e+00	122	40	0	1607467008	42	6451
2026-01-03 16:29:38.48	272.48	25.31	-35.0	-35.9	24.6	0.00e+00	123	40	0	1610612736	42	6145
2026-01-03 16:29:39.49	272.26	25.20	-34.9	-35.7	24.7	0.00e+00	122	40	0	1613758464	42	6051
2026-01-03 16:29:40.50	272.04	25.10	-34.9	-35.8	24.6	0.00e+00	122	40	0	1616904192	42	6122
2026-01-03 16:29:41.51	271.82	24.99	-34.8	-35.7	24.7	0.00e+00	123	40	0	1620049920	42	6005
2026-01-03 16:29:42.51	271.61	24.88	-34.6	-35.4	24.9	0.00e+00	123	40	0	1623195648	42	5857
2026-01-03 16:29:43.52	271.39	24.77	-34.6	-35.4	24.9	0.00e+00	120	40	0	1626341376	42	5850
2026-01-03 16:29:44.53	271.18	24.66	-34.6	-35.4	24.9	0.00e+00	123	40	0	1629487104	42	5854
2026-01-03 16:29:45.54	270.97	24.55	-34.4	-35.3	25.0	0.00e+00	122	40	0	1632632832	42	5743
2026-01-03 16:29:46.55	270.76	24.44	-34.5	-35.3	25.0	0.00e+00	123	40	0	1635778560	42	5765
2026-01-03 16:29:47.56	270.55	24.33	-34.5	-35.4	25.0	0.00e+00	122	40	0	1638924288	42	5825
2026-01-03 16:29:48.57	270.34	24.22	-34.6	-35.4	24.9	0.00e+00	122	40	0	1642070016	42	5849
2026-01-03 16:29:49.58	270.14	24.11	-34.6	-35.5	24.9	0.00e+00	122	40	0	1645215744	42	5892
2026-01-03 16:29:50.59	269.93	24.01	-34.6	-35.5	24.9	0.00e+00	123	40	0	1648361472	42	5898
2026-01-03 16:29:51.60	269.73	23.90	-34.5	-35.4	24.9	0.00e+00	123	40	0	1651507200	42	5829
2026-01-03 16:29:52.61	269.53	23.79	-34.6	-35.5	24.8	0.00e+00	123	40	0	1654652928	42	5887
2026-01-03 16:29:53.62	269.33	23.68	-34.6	-35.5	24.8	0.00e+00	123	40	0	1657798656	42	5884
2026-01-03 16:29:54.63	269.13	23.57	-34.7	-35.6	24.6	0.00e+00	123	40	0	1660944384	42	5971
2026-01-03 16:29:55.64	268.93	23.46	-34.9	-35.8	24.4	0.00e+00	123	40	0	1664090112	42	6125
2026-01-03 16:29:56.65	268.74	23.35	-35.1	-36.0	24.3	0.00e+00	123	40	0	1667235840	42	6226
2026-01-03 16:29:57.66	268.54	23.24	-35.3	-36.2	24.1	0.00e+00	123	40	0	1670381568	42	6399
2026-01-03 16:29:58.67	268.35	23.14	-35.3	-36.2	24.1	0.00e+00	122	40	0	1673527296	42	6373
2026-01-03 16:29:59.68	268.16	23.03	-35.4	-36.3	24.0	0.00e+00	123	40	0	1676673024	42	6435
2026-01-03 16:30:00.69	267.97	22.92	-35.3	-36.3	24.2	0.00e+00	120	40	0	1679818752	42	6426
2026-01-03 16:30:01.70	267.78	22.81	-35.4	-36.3	24.2	0.00e+00	123	40	0	1682964480	42	6444
2026-01-03 16:30:02.71	267.59	22.70	-35.5	-36.4	24.2	0.00e+00	123	40	0	1686110208	42	6554
2026-01-03 16:30:03.72	267.40	22.60	-35.7	-36.7	24.0	0.00e+00	123	40	0	1689255936	42	6755
2026-01-03 16:30:04.73	267.22	22.49	-35.8	-36.7	24.0	0.00e+00	123	40	0	1692401664	42	6788
2026-01-03 16:30:05.74	267.04	22.38	-35.6	-36.5	24.1	0.00e+00	122	40	0	1695547392	44	5891
2026-01-03 16:30:06.75	266.85	22.27	-35.5	-36.5	24.1	0.00e+00	122	40	0	1698693120	44	5870
2026-01-03 16:30:07.76	266.67	22.17	-35.8	-36.7	23.9	0.00e+00	123	40	0	1701838848	44	6034
2026-01-03 16:30:08.77	266.49	22.06	-35.5	-36.4	24.1	0.00e+00	122	40	0	1704984576	44	5824
2026-01-03 16:30:09.77	266.31	21.95	-35.5	-36.4	24.1	0.00e+00	120	40	0	1709178880	44	5821
2026-01-03 16:30:10.79	266.14	21.85	-35.3	-36.2	24.2	0.00e+00	122	40	0	1712324608	44	5725
2026-01-03 16:30:11.80	265.96	21.74	-35.2	-36.1	24.3	0.00e+00	120	40	0	1714421760	44	5621
2026-01-03 16:30:12.81	265.78	21.63	-35.3	-36.2	24.2	0.00e+00	123	40	0	1717567488	44	5711
2026-01-03 16:30:13.81	265.61	21.53	-35.0	-35.8	24.5	0.00e+00	122	40	0	1720713216	44	5455
2026-01-03 16:30:14.82	265.44	21.42	-35.0	-35.8	24.5	0.00e+00	123	40	0	1724907520	44	5460
2026-01-03 16:30:15.83	265.27	21.32	-35.0	-35.9	24.6	0.00e+00	120	40	0	1728053248	44	5483
2026-01-03 16:30:16.84	265.10	21.21	-35.0	-35.9	24.5	0.00e+00	123	40	0	1731198976	44	5476
2026-01-03 16:30:17.85	264.93	21.10	-34.9	-35.8	24.6	0.00e+00	122	40	0	1734344704	44	5436
2026-01-03 16:30:18.86	264.76	21.00	-34.9	-35.7	24.6	0.00e+00	122	40	0	1736441856	44	5400
2026-01-03 16:30:19.87	264.59	20.89	-34.8	-35.7	24.7	0.00e+00	123	40	0	1740636160	42	6007
2026-01-03 16:30:20.88	264.43	20.79	-35.3	-36.2	24.4	0.00e+00	123	40	0	1743781888	42	6356
2026-01-03 16:30:21.89	264.26	20.68	-34.8	-35.7	24.8	0.00e+00	122	40	0	1746927616	42	6026
2026-01-03 16:30:22.90	264.10	20.58	-34.7	-35.6	24.8	0.00e+00	122	40	0	1750073344	42	5967
2026-01-03 16:30:23.91	263.94	20.47	-34.8	-35.6	24.8	0.00e+00	122	40	0	1753219072	42	5987
2026-01-03 16:30:24.92	263.78	20.37	-34.8	-35.6	24.7	0.00e+00	123	40	0	1756364800	42	5975
2026-01-03 16:30:25.93	263.62	20.27	-34.8	-35.7	24.7	0.00e+00	123	40	0	1759510528	42	6017
2026-01-03 16:30:26.94	263.46	20.16	-34.9	-35.7	24.7	0.00e+00	120	40	0	1762656256	42	6052
2026-01-03 16:30:27.95	263.30	20.06	-34.6	-35.5	24.8	0.00e+00	122	40	0	1765801984	42	5911
2026-01-03 16:30:28.95	263.14	19.96	-34.8	-35.7	24.8	0.00e+00	122	40	0	1768947712	42	6001
2026-01-03 16:30:29.96	262.99	19.85	-34.7	-35.6	24.8	0.00e+00	123	40	0	1772093440	42	5935
2026-01-03 16:30:30.97	262.83	19.75	-34.9	-35.7	24.7	0.00e+00	122	40	0	1775239168	42	6039
2026-01-03 16:30:31.98	262.68	19.65	-34.8	-35.7	24.7	0.00e+00	122	40	0	1778384896	42	6020
2026-01-03 16:30:32.99	262.53	19.54	-34.9	-35.8	24.5	0.00e+00	120	40	0	1781530624	42	6125
2026-01-03 16:30:34.00	262.37	19.44	-35.1	-36.0	24.3	0.00e+00	122	40	0	1784676352	42	6265
2026-01-03 16:30:35.01	262.22	19.34	-35.3	-36.2	24.3	0.00e+00	123	40	0	1787822080	42	6381
2026-01-03 16:30:36.02	262.07	19.24	-35.3	-36.2	24.3	0.00e+00	123	40	0	1790967808	42	6414
2026-01-03 16:30:37.03	261.93	19.13	-35.5	-36.4	24.2	0.00e+00	120	40	0	1794113536	42	6527
2026-01-03 16:30:38.04	261.78	19.03	-35.5	-36.4	24.2	0.00e+00	122	40	0	1797259264	42	6532
2026-01-03 16:30:39.05	261.63	18.93	-35.5	-36.4	24.2	0.00e+00	122	40	0	1800404992	42	6522
2026-01-03 16:30:40.06	261.49	18.83	-35.5	-36.4	24.0	0.00e+00	123	40	0	1803550720	42	6514
2026-01-03 16:30:41.07	261.34	18.73	-35.5	-36.5	24.0	0.00e+00	120	40	0	1806696448	42	6576
2026-01-03 16:30:42.08	261.20	18.63	-35.2	-36.1	24.2	0.00e+00	122	40	0	1809842176	42	6330
2026-01-03 16:30:43.09	261.06	18.53	-35.1	-36.0	24.3	0.00e+00	123	40	0	1812987904	42	6237
2026-01-03 16:30:44.10	260.91	18.43	-35.1	-36.0	24.3	0.00e+00	120	40	0	1816133632	42	6249
2026-01-03 16:30:45.11	260.77	18.33	-35.3	-36.2	24.2	0.00e+00	123	40	0	1819279360	42	6379
2026-01-03 16:30:46.12	260.63	18.23	-35.1	-36.0	24.3	0.00e+00	123	40	0	1822425088	42	6259
2026-01-03 16:30:47.13	260.50	18.13	-35.3	-36.2	24.2	0.00e+00	120	40	0	1825570816	42	6375
2026-01-03 16:30:48.13	260.36	18.03	-35.4	-36.3	24.2	0.00e+00	120	40	0	1828716544	42	6450
2026-01-03 16:30:49.14	260.22	17.93	-35.6	-36.5	24.1	0.00e+00	122	40	0	1831862272	42	6642
2026-01-03 16:30:50.15	260.09	17.83	-35.7	-36.6	24.0	0.00e+00	120	40	0	1835008000	42	6708
2026-01-03 16:30:51.16	259.95	17.73	-35.8	-36.7	23.9	0.00e+00	123	40	0	1838153728	44	6031
2026-01-03 16:30:52.17	259.82	17.63	-35.7	-36.6	23.9	0.00e+00	122	40	0	1841299456	44	5978
2026-01-03 16:30:53.18	259.68	17.53	-35.8	-36.7	23.8	0.00e+00	120	40	0	1844445184	44	6035
2026-01-03 16:30:54.19	259.55	17.44	-35.6	-36.6	24.0	0.00e+00	123	40	0	1847590912	44	5937
2026-01-03 16:30:55.20	259.42	17.34	-35.6	-36.5	24.0	0.00e+00	122	40	0	1850736640	44	5908
2026-01-03 16:30:56.21	259.29	17.24	-35.6	-36.5	24.0	0.00e+00	123	40	0	1853882368	44	5904
2026-01-03 16:30:57.22	259.16	17.14	-35.6	-36.5	23.9	0.00e+00	122	40	0	1857028096	44	5902
2026-01-03 16:30:58.23	259.03	17.05	-35.8	-36.7	23.7	0.00e+00	122	40	0	1860173824	44	6052
2026-01-03 16:30:59.24	258.90	16.95	-35.5	-36.5	23.9	0.00e+00	120	40	0	1863319552	44	5868
2026-01-03 16:31:00.25	258.77	16.85	-35.5	-36.4	24.0	0.00e+00	122	40	0	1866465280	44	5836
2026-01-03 16:31:01.26	258.65	16.76	-35.4	-36.3	24.1	0.00e+00	123	40	0	1869611008	44	5755
2026-01-03 16:31:02.27	258.52	16.66	-35.3	-36.2	24.2	0.00e+00	122	40	0	1872756736	44	5708
2026-01-03 16:31:03.28	258.40	16.56	-35.4	-36.3	24.1	0.00e+00	122	40	0	1875902464	44	5741
2026-01-03 16:31:04.28	258.27	16.47	-35.4	-36.3	24.2	0.00e+00	122	40	0	1879048192	44	5739
2026-01-03 16:31:05.29	258.15	16.37	-35.5	-36.4	24.0	0.00e+00	122	40	0	1882193920	44	5843
2026-01-03 16:31:06.30	258.03	16.28	-35.6	-36.5	24.0	0.00e+00	120	40	0	1885339648	44	5873
2026-01-03 16:31:07.31	257.90	16.18	-35.5	-36.4	24.0	0.00e+00	122	40	0	1888485376	44	5852
2026-01-03 16:31:08.32	257.78	16.09	-35.8	-36.7	23.8	0.00e+00	123	40	0	1891631104	44	6016
2026-01-03 16:31:09.33	257.66	15.99	-35.9	-36.8	23.7	0.00e+00	122	40	0	1894776832	44	6097
2026-01-03 16:31:10.33	257.55	15.90	-35.9	-36.9	23.7	0.00e+00	120	40	0	1897922560	44	6148
2026-01-03 16:31:11.34	257.43	15.81	-35.9	-36.8	23.8	0.00e+00	123	40	0	1901068288	44	6107
2026-01-03 16:31:12.35	257.31	15.71	-36.0	-36.9	23.7	0.00e+00	121	40	0	1904214016	44	6201
2026-01-03 16:31:13.36	257.19	15.62	-35.9	-36.8	23.8	0.00e+00	123	40	0	1907359744	44	6086
2026-01-03 16:31:14.37	257.08	15.52	-35.9	-36.8	23.7	0.00e+00	122	40	0	1910505472	44	6093
2026-01-03 16:31:15.38	256.96	15.43	-36.0	-36.9	23.6	0.00e+00	120	40	0	1913651200	44	6172
2026-01-03 16:31:16.39	256.84	15.34	-36.0	-36.9	23.6	0.00e+00	122	40	0	1916796928	44	6175
2026-01-03 16:31:17.40	256.73	15.25	-35.8	-36.7	23.7	0.00e+00	122	40	0	1919942656	44	6024
2026-01-03 16:31:18.41	256.62	15.15	-36.0	-36.9	23.7	0.00e+00	120	40	0	1923088384	44	6190
2026-01-03 16:31:19.42	256.50	15.06	-36.1	-37.0	23.5	0.00e+00	122	40	0	1926234112	44	6242
2026-01-03 16:31:20.43	256.39	14.97	-36.3	-37.3	23.3	0.00e+00	123	40	0	1929379840	44	6452
2026-01-03 16:31:21.43	256.28	14.88	-36.1	-37.1	23.6	0.00e+00	123	40	0	1932525568	44	6303
2026-01-03 16:31:22.45	256.17	14.79	-36.5	-37.4	23.3	0.00e+00	122	40	0	1935671296	44	6559
2026-01-03 16:31:23.46	256.06	14.69	-36.3	-37.3	23.3	0.00e+00	120	40	0	1938817024	44	6453
2026-01-03 16:31:24.47	255.95	14.60	-36.4	-37.4	23.2	0.00e+00	123	40	0	1941962752	44	6500
2026-01-03 16:31:25.48	255.84	14.51	-36.2	-37.1	23.5	0.00e+00	123	40	0	1945108480	44	6337
2026-01-03 16:31:26.49	255.73	14.42	-36.2	-37.2	23.4	0.00e+00	123	40	0	1948254208	44	6352
2026-01-03 16:31:27.49	255.63	14.33	-36.3	-37.2	23.4	0.00e+00	120	40	0	1951399936	44	6396
2026-01-03 16:31:28.50	255.52	14.24	-36.4	-37.3	23.2	0.00e+00	122	40	0	1954545664	44	6485
