passes_logs/2026/01/03/R4.6S_Anadyr/R4.6S_Anadyr__20260103_012351_SUOMI_NPP_rec.log

#Pass ID: 20260103_012351_SUOMI NPP
#Satellite: SUOMI NPP
#Configuration: NPP
#almurnet v.1.7.20251203
#Start time: 2026-01-03 01:23:52

#Version: 2.2.20231116
#Station: R4.6S_Anadyr
#Location: 177.4865 lon 64.73178 lat
#TLE: 1 37849U 11061A   26001.07732418  .00000182  00000+0  10735-3 0  9990
#TLE: 2 37849  98.7795 303.2470 0002580  87.2016 272.9455 14.19520779734739

#Time	Az	El	Level	Level2	SNR	BER	BlckErr	Temp	State	Recorded	gain1	gain2
2026-01-03 01:23:52.70	184.47	0.09	-50.2	-62.7	3.4	1.52e+00	0	36	0	0	60	48045
2026-01-03 01:23:53.70	184.51	0.15	-50.1	-65.4	3.6	1.51e+00	0	37	104	0	60	67032
2026-01-03 01:23:54.71	184.55	0.21	-50.2	-65.5	3.6	1.51e+00	0	37	104	0	60	67724
2026-01-03 01:23:55.72	184.59	0.27	-50.1	-65.4	3.6	1.51e+00	0	37	104	0	60	67027
2026-01-03 01:23:56.73	184.62	0.33	-50.2	-65.4	3.6	1.51e+00	0	38	104	0	60	67510
2026-01-03 01:23:57.74	184.66	0.39	-50.1	-65.4	3.6	1.51e+00	0	38	104	0	60	67173
2026-01-03 01:23:58.75	184.70	0.44	-50.1	-65.4	3.6	1.51e+00	0	38	104	0	60	67448
2026-01-03 01:23:59.76	184.74	0.50	-50.1	-65.4	3.6	1.51e+00	0	38	104	0	60	67349
2026-01-03 01:24:00.77	184.77	0.56	-50.1	-65.4	3.6	1.51e+00	0	38	104	0	60	67333
2026-01-03 01:24:01.78	184.81	0.62	-50.2	-65.4	3.6	1.51e+00	0	38	104	0	60	67271
2026-01-03 01:24:02.79	184.85	0.68	-50.1	-65.3	3.6	1.51e+00	0	38	104	0	60	66764
2026-01-03 01:24:03.80	184.89	0.74	-49.9	-65.2	3.6	1.51e+00	0	38	104	0	60	65807
2026-01-03 01:24:04.81	184.93	0.80	-49.8	-65.0	3.6	1.51e+00	0	38	104	0	60	64580
2026-01-03 01:24:05.82	184.97	0.86	-49.5	-64.8	3.6	1.51e+00	0	38	104	0	60	63029
2026-01-03 01:24:06.83	185.01	0.92	-49.2	-64.4	3.6	1.51e+00	0	38	104	0	60	59733
2026-01-03 01:24:07.83	185.04	0.98	-48.8	-63.9	3.6	1.51e+00	0	38	104	0	60	56516
2026-01-03 01:24:08.85	185.08	1.04	-48.8	-63.9	3.6	1.51e+00	0	38	104	0	60	56788
2026-01-03 01:24:09.86	185.12	1.10	-48.8	-64.0	3.6	1.51e+00	0	38	104	0	60	57171
2026-01-03 01:24:10.87	185.16	1.16	-48.8	-63.9	3.6	1.51e+00	0	38	104	0	60	56786
2026-01-03 01:24:11.88	185.20	1.22	-48.8	-64.0	3.6	1.51e+00	0	38	104	0	60	57141
2026-01-03 01:24:12.88	185.24	1.28	-48.8	-64.0	3.6	1.51e+00	0	38	104	0	60	57244
2026-01-03 01:24:13.89	185.28	1.34	-48.8	-64.0	3.6	1.51e+00	0	38	104	0	60	57266
2026-01-03 01:24:14.90	185.32	1.40	-48.8	-64.0	3.6	1.51e+00	0	38	104	0	60	57586
2026-01-03 01:24:15.91	185.36	1.46	-48.8	-64.0	3.6	1.51e+00	0	38	104	0	60	57460
2026-01-03 01:24:16.92	185.40	1.52	-48.8	-64.0	3.6	1.51e+00	0	38	104	0	60	57382
2026-01-03 01:24:17.93	185.44	1.58	-48.8	-64.1	3.6	1.51e+00	0	38	104	0	60	57646
2026-01-03 01:24:18.94	185.48	1.65	-48.8	-64.0	3.6	1.51e+00	0	38	104	0	60	57215
2026-01-03 01:24:19.95	185.52	1.71	-48.8	-64.0	3.6	1.51e+00	0	38	104	0	60	56960
2026-01-03 01:24:20.96	185.57	1.77	-48.8	-63.9	3.6	1.51e+00	0	38	104	0	60	56907
2026-01-03 01:24:21.97	185.61	1.83	-48.8	-64.0	3.6	1.51e+00	0	38	104	0	60	56967
2026-01-03 01:24:22.98	185.65	1.89	-48.8	-63.9	3.6	1.51e+00	0	38	104	0	60	56856
2026-01-03 01:24:24.00	185.69	1.95	-48.8	-64.0	3.6	1.51e+00	0	38	104	0	60	57231
2026-01-03 01:24:25.01	185.73	2.02	-48.8	-63.9	3.6	1.51e+00	0	38	104	0	60	56793
2026-01-03 01:24:26.02	185.77	2.08	-48.8	-64.0	3.6	1.51e+00	0	38	104	0	60	57210
2026-01-03 01:24:27.03	185.81	2.14	-48.8	-63.9	3.6	1.51e+00	0	38	104	0	60	56693
2026-01-03 01:24:28.04	185.86	2.20	-48.8	-63.9	3.6	1.51e+00	0	38	104	0	60	56858
2026-01-03 01:24:29.05	185.90	2.27	-48.8	-63.9	3.6	1.51e+00	0	38	104	0	60	56497
2026-01-03 01:24:30.06	185.94	2.33	-48.8	-64.0	3.6	1.51e+00	0	38	104	0	60	57291
2026-01-03 01:24:31.07	185.98	2.39	-48.8	-63.9	3.6	1.51e+00	0	38	104	0	60	56915
2026-01-03 01:24:32.08	186.03	2.45	-48.8	-64.0	3.6	1.51e+00	0	38	104	0	60	57108
2026-01-03 01:24:33.08	186.07	2.52	-48.8	-63.8	3.6	1.51e+00	0	38	104	0	60	56260
2026-01-03 01:24:34.09	186.11	2.58	-48.8	-63.6	3.6	1.51e+00	0	38	104	0	60	54405
2026-01-03 01:24:35.10	186.16	2.64	-48.7	-63.0	3.5	1.51e+00	0	38	104	0	60	51077
2026-01-03 01:24:36.11	186.20	2.71	-48.7	-62.6	3.6	1.51e+00	0	38	104	0	60	48993
2026-01-03 01:24:37.12	186.24	2.77	-48.7	-62.1	3.6	1.51e+00	0	38	104	0	60	46286
2026-01-03 01:24:38.13	186.29	2.83	-48.7	-62.7	3.6	1.51e+00	0	38	104	0	60	49376
2026-01-03 01:24:39.14	186.33	2.90	-48.7	-62.9	3.6	1.51e+00	0	38	104	0	60	50660
2026-01-03 01:24:40.15	186.37	2.96	-48.7	-62.1	3.6	1.51e+00	0	38	104	0	60	46263
2026-01-03 01:24:41.16	186.42	3.02	-48.5	-59.7	4.3	1.49e+00	81	38	104	0	60	35071
2026-01-03 01:24:42.17	186.46	3.09	-48.3	-56.4	5.9	3.86e-01	0	38	0	1048576	60	23819
2026-01-03 01:24:43.18	186.51	3.15	-47.4	-52.7	9.7	2.85e-02	92	38	0	3145728	60	15563
2026-01-03 01:24:44.19	186.55	3.22	-46.7	-50.9	11.4	4.72e-03	0	38	0	4194304	60	12730
2026-01-03 01:24:45.20	186.60	3.28	-45.5	-48.5	14.4	5.75e-04	92	38	0	6291456	60	9614
2026-01-03 01:24:46.21	186.64	3.35	-45.2	-48.1	14.9	1.50e-06	0	38	0	8388608	60	9180
2026-01-03 01:24:47.22	186.69	3.41	-44.7	-47.1	15.7	0.00e+00	91	38	0	10485760	60	8216
2026-01-03 01:24:48.23	186.73	3.48	-44.4	-46.7	16.2	0.00e+00	91	38	0	12582912	60	7797
2026-01-03 01:24:49.24	186.78	3.54	-44.7	-47.2	15.6	0.00e+00	0	38	0	13631488	60	8324
2026-01-03 01:24:50.25	186.83	3.61	-44.5	-46.8	16.2	0.00e+00	92	38	0	15728640	60	7887
2026-01-03 01:24:51.26	186.87	3.67	-45.1	-47.8	15.3	0.00e+00	0	38	0	17825792	60	8827
2026-01-03 01:24:52.26	186.92	3.74	-45.3	-48.0	16.0	8.41e-04	92	38	0	19922944	60	9105
2026-01-03 01:24:53.27	186.96	3.80	-48.6	-62.8	3.6	9.64e-01	0	38	104	20971520	60	49689
2026-01-03 01:24:54.28	187.01	3.87	-48.6	-61.3	3.9	1.51e+00	0	38	104	20971520	60	41974
2026-01-03 01:24:55.29	187.06	3.93	-44.5	-46.8	15.9	5.27e-01	82	38	104	20971520	60	7890
2026-01-03 01:24:56.31	187.11	4.00	-44.5	-46.7	16.4	0.00e+00	0	38	0	22020096	60	7839
2026-01-03 01:24:57.31	187.15	4.07	-44.5	-46.8	16.5	0.00e+00	92	38	0	23068672	60	7915
2026-01-03 01:24:58.32	187.20	4.13	-43.9	-46.0	17.0	0.00e+00	0	38	0	25165824	60	7176
2026-01-03 01:24:59.33	187.25	4.20	-43.8	-45.8	17.0	0.00e+00	92	38	0	27262976	60	7082
2026-01-03 01:25:00.35	187.30	4.27	-43.8	-45.8	16.8	0.00e+00	0	38	0	29360128	60	7064
2026-01-03 01:25:01.35	187.34	4.33	-43.9	-46.0	17.1	0.00e+00	92	38	0	31457280	60	7189
2026-01-03 01:25:02.36	187.39	4.40	-43.7	-45.6	17.5	0.00e+00	81	38	0	32505856	60	6920
2026-01-03 01:25:03.37	187.44	4.47	-43.5	-45.3	17.8	0.00e+00	31	38	0	34603008	60	6688
2026-01-03 01:25:04.38	187.49	4.53	-43.3	-45.1	18.0	0.00e+00	73	38	0	36700160	60	6511
2026-01-03 01:25:05.40	187.54	4.60	-43.3	-45.1	18.0	0.00e+00	0	38	0	38797312	60	6467
2026-01-03 01:25:06.41	187.59	4.67	-43.0	-44.7	18.5	0.00e+00	92	38	0	40894464	60	6212
2026-01-03 01:25:07.42	187.64	4.74	-42.9	-44.5	18.6	0.00e+00	0	38	0	41943040	60	6077
2026-01-03 01:25:08.42	187.69	4.80	-42.8	-44.4	18.8	0.00e+00	92	39	0	44040192	60	6007
2026-01-03 01:25:09.43	187.74	4.87	-42.4	-43.9	19.1	0.00e+00	0	38	0	46137344	58	6385
2026-01-03 01:25:10.44	187.79	4.94	-42.8	-44.4	18.6	0.00e+00	92	38	0	48234496	58	6705
2026-01-03 01:25:11.45	187.84	5.01	-42.7	-44.3	18.8	0.00e+00	92	38	0	50331648	58	6658
2026-01-03 01:25:12.47	187.89	5.08	-42.6	-44.1	19.0	0.00e+00	0	38	0	52428800	58	6529
2026-01-03 01:25:13.48	187.94	5.15	-42.3	-43.9	19.1	0.00e+00	92	38	0	53477376	58	6319
2026-01-03 01:25:14.49	187.99	5.22	-42.6	-44.2	18.9	0.00e+00	0	38	0	55574528	58	6573
2026-01-03 01:25:15.50	188.04	5.29	-42.1	-43.6	19.6	0.00e+00	92	39	0	57671680	58	6115
2026-01-03 01:25:16.51	188.09	5.35	-42.7	-44.3	18.7	0.00e+00	0	38	0	59768832	58	6629
2026-01-03 01:25:17.51	188.14	5.42	-42.4	-43.9	19.2	0.00e+00	92	38	0	61865984	58	6344
2026-01-03 01:25:18.53	188.20	5.49	-42.4	-44.0	19.2	0.00e+00	92	38	0	62914560	58	6392
2026-01-03 01:25:19.54	188.25	5.56	-42.3	-43.8	19.2	0.00e+00	0	38	0	65011712	58	6274
2026-01-03 01:25:20.55	188.30	5.63	-42.2	-43.7	19.4	0.00e+00	92	38	0	67108864	58	6219
2026-01-03 01:25:21.56	188.35	5.70	-42.7	-44.3	19.0	0.00e+00	0	38	0	69206016	58	6671
2026-01-03 01:25:22.57	188.41	5.77	-42.7	-44.3	18.8	0.00e+00	92	39	0	71303168	58	6655
2026-01-03 01:25:23.58	188.46	5.84	-42.7	-44.3	19.0	0.00e+00	17	39	0	72351744	58	6639
2026-01-03 01:25:24.59	188.51	5.91	-42.5	-44.0	19.2	0.00e+00	92	38	0	74448896	58	6431
2026-01-03 01:25:25.60	188.57	5.99	-42.6	-44.2	19.0	0.00e+00	92	38	0	76546048	58	6590
2026-01-03 01:25:26.60	188.62	6.06	-42.6	-44.2	19.1	0.00e+00	0	38	0	78643200	58	6613
2026-01-03 01:25:27.61	188.67	6.13	-42.6	-44.3	18.8	0.00e+00	82	39	0	80740352	58	6616
2026-01-03 01:25:28.62	188.73	6.20	-42.7	-44.4	18.9	0.00e+00	0	38	0	81788928	58	6702
2026-01-03 01:25:29.63	188.78	6.27	-42.5	-44.0	19.1	0.00e+00	92	38	0	83886080	58	6424
2026-01-03 01:25:30.64	188.84	6.34	-42.7	-44.3	19.0	0.00e+00	0	38	0	85983232	58	6622
2026-01-03 01:25:31.65	188.89	6.41	-42.6	-44.2	19.1	0.00e+00	92	38	0	88080384	58	6544
2026-01-03 01:25:32.66	188.95	6.48	-42.5	-44.0	19.2	0.00e+00	90	38	0	90177536	58	6463
2026-01-03 01:25:33.67	189.00	6.56	-42.5	-44.0	19.2	0.00e+00	0	38	0	91226112	58	6433
2026-01-03 01:25:34.68	189.06	6.63	-42.5	-44.0	19.1	0.00e+00	79	39	0	93323264	58	6438
2026-01-03 01:25:35.69	189.11	6.70	-42.4	-43.9	19.3	0.00e+00	0	39	0	95420416	58	6373
2026-01-03 01:25:36.70	189.17	6.77	-42.5	-44.0	19.2	0.00e+00	92	39	0	97517568	58	6463
2026-01-03 01:25:37.71	189.23	6.85	-42.6	-44.2	19.1	0.00e+00	0	39	0	99614720	58	6565
2026-01-03 01:25:38.72	189.28	6.92	-42.5	-44.0	19.1	0.00e+00	92	39	0	100663296	58	6437
2026-01-03 01:25:39.73	189.34	6.99	-42.8	-44.3	18.9	0.00e+00	92	39	0	102760448	58	6680
2026-01-03 01:25:40.74	189.40	7.07	-42.7	-44.3	19.1	0.00e+00	0	39	0	104857600	58	6619
2026-01-03 01:25:41.75	189.45	7.14	-42.5	-44.0	19.2	0.00e+00	51	39	0	106954752	58	6442
2026-01-03 01:25:42.76	189.51	7.21	-42.5	-44.0	19.2	0.00e+00	0	39	0	109051904	58	6444
2026-01-03 01:25:43.77	189.57	7.29	-42.6	-44.1	19.1	0.00e+00	84	38	0	110100480	58	6528
2026-01-03 01:25:44.79	189.63	7.36	-42.4	-43.9	19.4	0.00e+00	0	39	0	112197632	58	6358
2026-01-03 01:25:45.80	189.69	7.44	-42.5	-44.0	19.4	0.00e+00	92	39	0	114294784	58	6400
2026-01-03 01:25:46.81	189.75	7.51	-42.1	-43.5	19.7	0.00e+00	83	38	0	116391936	58	6061
2026-01-03 01:25:47.82	189.81	7.59	-42.5	-44.0	19.3	0.00e+00	0	39	0	118489088	58	6436
2026-01-03 01:25:48.83	189.87	7.66	-42.2	-43.6	19.6	0.00e+00	67	38	0	120586240	58	6171
2026-01-03 01:25:49.84	189.93	7.74	-42.2	-43.6	19.7	0.00e+00	0	39	0	121634816	58	6158
2026-01-03 01:25:50.85	189.99	7.81	-41.9	-43.2	19.9	0.00e+00	88	38	0	123731968	58	5886
2026-01-03 01:25:51.86	190.05	7.89	-41.8	-43.1	20.2	0.00e+00	0	39	0	125829120	56	6527
2026-01-03 01:25:52.87	190.11	7.96	-41.8	-43.1	20.2	0.00e+00	91	38	0	127926272	56	6500
2026-01-03 01:25:53.88	190.17	8.04	-41.6	-42.9	20.4	0.00e+00	86	39	0	130023424	56	6346
2026-01-03 01:25:54.89	190.23	8.12	-41.5	-42.8	20.4	0.00e+00	0	39	0	131072000	56	6294
2026-01-03 01:25:55.90	190.29	8.19	-41.5	-42.8	20.4	0.00e+00	92	39	0	133169152	56	6284
2026-01-03 01:25:56.91	190.35	8.27	-41.2	-42.4	20.8	0.00e+00	0	39	0	135266304	56	6031
2026-01-03 01:25:57.92	190.42	8.35	-41.4	-42.6	20.6	0.00e+00	92	39	0	137363456	56	6152
2026-01-03 01:25:58.93	190.48	8.42	-41.4	-42.6	20.7	0.00e+00	0	39	0	139460608	56	6133
2026-01-03 01:25:59.94	190.54	8.50	-41.2	-42.4	20.7	0.00e+00	90	39	0	140509184	56	5997
2026-01-03 01:26:00.95	190.60	8.58	-41.4	-42.6	20.7	0.00e+00	0	39	0	142606336	56	6154
2026-01-03 01:26:01.96	190.67	8.66	-41.3	-42.6	20.7	0.00e+00	91	39	0	144703488	56	6120
2026-01-03 01:26:02.97	190.73	8.73	-41.3	-42.5	20.8	0.00e+00	92	39	0	146800640	56	6095
2026-01-03 01:26:03.98	190.80	8.81	-41.2	-42.4	21.0	0.00e+00	0	39	0	148897792	56	5967
2026-01-03 01:26:04.99	190.86	8.89	-41.2	-42.4	20.9	0.00e+00	83	39	0	149946368	56	6002
2026-01-03 01:26:06.00	190.93	8.97	-41.2	-42.4	20.9	0.00e+00	0	39	0	152043520	56	6013
2026-01-03 01:26:07.01	190.99	9.05	-41.1	-42.2	21.1	0.00e+00	91	39	0	154140672	56	5885
2026-01-03 01:26:08.02	191.06	9.13	-41.2	-42.4	20.9	0.00e+00	0	39	0	156237824	56	6023
2026-01-03 01:26:09.03	191.12	9.20	-41.3	-42.5	20.8	0.00e+00	91	39	0	158334976	56	6080
2026-01-03 01:26:10.04	191.19	9.28	-41.0	-42.2	21.0	0.00e+00	91	39	0	159383552	56	5875
2026-01-03 01:26:11.05	191.25	9.36	-41.3	-42.5	20.9	0.00e+00	0	39	0	161480704	56	6079
2026-01-03 01:26:12.06	191.32	9.44	-41.3	-42.5	20.8	0.00e+00	91	39	0	163577856	56	6083
2026-01-03 01:26:13.07	191.39	9.52	-41.2	-42.4	20.9	0.00e+00	0	39	0	165675008	56	6023
2026-01-03 01:26:14.08	191.46	9.60	-41.1	-42.3	21.0	0.00e+00	51	39	0	167772160	56	5922
2026-01-03 01:26:15.09	191.52	9.68	-41.3	-42.5	20.8	0.00e+00	0	39	0	168820736	56	6059
2026-01-03 01:26:16.10	191.59	9.77	-41.3	-42.5	20.8	0.00e+00	90	39	0	170917888	56	6096
2026-01-03 01:26:17.11	191.66	9.85	-41.3	-42.5	20.9	0.00e+00	91	39	0	173015040	56	6049
2026-01-03 01:26:18.12	191.73	9.93	-41.4	-42.6	20.8	0.00e+00	65	39	0	175112192	56	6128
2026-01-03 01:26:19.13	191.80	10.01	-41.4	-42.6	20.8	0.00e+00	84	39	0	177209344	56	6161
2026-01-03 01:26:20.14	191.87	10.09	-41.2	-42.4	20.9	0.00e+00	0	39	0	178257920	56	6020
2026-01-03 01:26:21.16	191.94	10.17	-41.2	-42.4	21.0	0.00e+00	91	39	0	180355072	56	5978
2026-01-03 01:26:22.16	192.01	10.25	-41.2	-42.4	20.9	0.00e+00	0	39	0	182452224	56	5983
2026-01-03 01:26:23.17	192.08	10.34	-41.2	-42.4	21.0	0.00e+00	92	39	0	184549376	56	6027
2026-01-03 01:26:24.18	192.15	10.42	-41.0	-42.2	21.2	0.00e+00	83	39	0	186646528	56	5876
2026-01-03 01:26:25.19	192.22	10.50	-41.1	-42.2	21.1	0.00e+00	75	39	0	188743680	56	5888
2026-01-03 01:26:26.20	192.29	10.59	-41.0	-42.2	21.1	0.00e+00	92	39	0	189792256	56	5859
2026-01-03 01:26:27.21	192.37	10.67	-41.0	-42.2	21.1	0.00e+00	0	39	0	191889408	56	5844
2026-01-03 01:26:28.22	192.44	10.75	-40.8	-42.0	21.4	0.00e+00	92	39	0	193986560	56	5697
2026-01-03 01:26:29.23	192.51	10.84	-40.6	-41.7	21.5	0.00e+00	0	39	0	196083712	54	6205
2026-01-03 01:26:30.24	192.59	10.92	-40.6	-41.7	21.4	0.00e+00	92	39	0	198180864	54	6238
2026-01-03 01:26:31.25	192.66	11.00	-40.5	-41.7	21.6	0.00e+00	81	39	0	199229440	54	6175
2026-01-03 01:26:32.26	192.73	11.09	-40.3	-41.4	21.8	0.00e+00	46	39	0	201326592	54	6007
2026-01-03 01:26:33.27	192.81	11.17	-40.3	-41.4	21.7	0.00e+00	92	39	0	203423744	54	5999
2026-01-03 01:26:34.28	192.88	11.26	-40.1	-41.2	21.8	0.00e+00	0	39	0	205520896	54	5861
2026-01-03 01:26:35.29	192.96	11.34	-40.0	-41.1	22.0	0.00e+00	90	39	0	207618048	54	5778
2026-01-03 01:26:36.30	193.04	11.43	-40.2	-41.3	21.7	0.00e+00	0	39	0	208666624	54	5924
2026-01-03 01:26:37.31	193.11	11.52	-40.3	-41.4	21.7	0.00e+00	92	39	0	210763776	54	6002
2026-01-03 01:26:38.32	193.19	11.60	-39.9	-40.9	22.1	0.00e+00	0	39	0	212860928	54	5691
2026-01-03 01:26:39.33	193.27	11.69	-39.8	-40.9	22.2	0.00e+00	90	39	0	214958080	54	5647
2026-01-03 01:26:40.34	193.34	11.78	-39.9	-40.9	22.2	0.00e+00	92	39	0	217055232	54	5670
2026-01-03 01:26:41.35	193.42	11.86	-39.9	-40.9	22.3	0.00e+00	0	39	0	218103808	54	5637
2026-01-03 01:26:42.36	193.50	11.95	-39.9	-40.9	22.2	0.00e+00	92	39	0	220200960	52	6346
2026-01-03 01:26:43.37	193.58	12.04	-39.9	-40.9	22.3	0.00e+00	0	39	0	222298112	52	6369
2026-01-03 01:26:44.38	193.66	12.12	-39.7	-40.7	22.4	0.00e+00	92	39	0	224395264	52	6226
2026-01-03 01:26:45.39	193.74	12.21	-39.7	-40.8	22.3	0.00e+00	0	39	0	226492416	52	6248
2026-01-03 01:26:46.40	193.82	12.30	-39.6	-40.6	22.4	0.00e+00	90	39	0	227540992	52	6164
2026-01-03 01:26:47.41	193.90	12.39	-39.8	-40.8	22.2	0.00e+00	83	39	0	229638144	52	6307
2026-01-03 01:26:48.42	193.98	12.48	-39.7	-40.7	22.4	0.00e+00	0	39	0	231735296	52	6221
2026-01-03 01:26:49.43	194.06	12.57	-39.5	-40.5	22.6	0.00e+00	92	39	0	233832448	52	6052
2026-01-03 01:26:50.44	194.15	12.66	-39.5	-40.5	22.6	0.00e+00	0	39	0	235929600	52	6055
2026-01-03 01:26:51.45	194.23	12.75	-39.4	-40.4	22.6	0.00e+00	92	39	0	236978176	52	5995
2026-01-03 01:26:52.46	194.31	12.84	-39.5	-40.5	22.6	0.00e+00	0	39	0	239075328	52	6061
2026-01-03 01:26:53.47	194.39	12.93	-39.3	-40.3	22.8	0.00e+00	90	39	0	241172480	52	5907
2026-01-03 01:26:54.48	194.48	13.02	-39.4	-40.3	22.8	0.00e+00	82	39	0	243269632	52	5943
2026-01-03 01:26:55.49	194.56	13.11	-39.4	-40.4	22.7	0.00e+00	0	39	0	245366784	52	5968
2026-01-03 01:26:56.50	194.65	13.20	-39.3	-40.3	22.8	0.00e+00	92	39	0	246415360	52	5925
2026-01-03 01:26:57.51	194.73	13.29	-39.3	-40.2	22.8	0.00e+00	33	39	0	248512512	52	5877
2026-01-03 01:26:58.52	194.82	13.38	-39.2	-40.2	22.9	0.00e+00	92	39	0	250609664	52	5852
2026-01-03 01:26:59.53	194.91	13.47	-39.0	-40.0	22.9	0.00e+00	0	39	0	252706816	52	5710
2026-01-03 01:27:00.54	194.99	13.57	-39.1	-40.0	22.9	0.00e+00	92	39	0	254803968	52	5754
2026-01-03 01:27:01.55	195.08	13.66	-39.0	-39.9	23.0	0.00e+00	81	39	0	256901120	52	5693
2026-01-03 01:27:02.56	195.17	13.75	-39.3	-40.2	22.9	0.00e+00	0	39	0	257949696	52	5881
2026-01-03 01:27:03.57	195.26	13.84	-39.1	-40.0	23.0	0.00e+00	92	39	0	260046848	52	5760
2026-01-03 01:27:04.58	195.35	13.94	-39.2	-40.1	22.9	0.00e+00	0	39	0	262144000	52	5796
2026-01-03 01:27:05.59	195.44	14.03	-39.2	-40.1	22.8	0.00e+00	83	39	0	264241152	52	5801
2026-01-03 01:27:06.60	195.53	14.12	-38.9	-39.8	23.1	0.00e+00	0	39	0	266338304	52	5627
2026-01-03 01:27:07.61	195.62	14.22	-39.2	-40.2	22.9	0.00e+00	92	39	0	267386880	52	5838
2026-01-03 01:27:08.62	195.71	14.31	-39.2	-40.2	22.9	0.00e+00	0	39	0	269484032	52	5831
2026-01-03 01:27:09.63	195.80	14.41	-39.1	-40.0	23.1	0.00e+00	87	39	0	271581184	52	5733
2026-01-03 01:27:10.64	195.90	14.50	-39.1	-40.0	23.0	0.00e+00	90	39	0	273678336	52	5761
2026-01-03 01:27:11.65	195.99	14.60	-39.2	-40.2	22.9	0.00e+00	0	39	0	275775488	52	5859
2026-01-03 01:27:12.66	196.08	14.69	-39.2	-40.1	22.8	0.00e+00	85	39	0	276824064	52	5814
2026-01-03 01:27:13.67	196.18	14.79	-39.1	-40.0	23.0	0.00e+00	0	39	0	278921216	52	5743
2026-01-03 01:27:14.68	196.27	14.89	-39.2	-40.2	22.9	0.00e+00	92	39	0	281018368	52	5855
2026-01-03 01:27:15.69	196.37	14.98	-39.3	-40.2	22.8	0.00e+00	33	39	0	283115520	52	5882
2026-01-03 01:27:16.70	196.46	15.08	-39.1	-40.0	22.9	0.00e+00	92	39	0	285212672	52	5754
2026-01-03 01:27:17.71	196.56	15.18	-39.4	-40.3	22.9	0.00e+00	92	39	0	286261248	52	5949
2026-01-03 01:27:18.72	196.66	15.28	-39.3	-40.3	22.8	0.00e+00	0	39	0	288358400	52	5928
2026-01-03 01:27:19.73	196.76	15.37	-39.5	-40.5	22.7	0.00e+00	87	39	0	290455552	52	6041
2026-01-03 01:27:20.74	196.85	15.47	-39.3	-40.3	22.8	0.00e+00	0	39	0	292552704	52	5925
2026-01-03 01:27:21.75	196.95	15.57	-39.1	-40.3	22.7	0.00e+00	92	39	0	294649856	52	5908
2026-01-03 01:27:22.76	197.05	15.67	-39.0	-40.2	22.7	0.00e+00	0	39	0	296747008	52	5882
2026-01-03 01:27:23.77	197.15	15.77	-39.0	-40.3	22.7	0.00e+00	91	39	0	297795584	52	5946
2026-01-03 01:27:24.78	197.25	15.87	-39.1	-40.6	22.5	0.00e+00	90	39	0	299892736	52	6108
2026-01-03 01:27:25.79	197.36	15.97	-39.3	-40.5	22.4	0.00e+00	0	39	0	301989888	52	6099
2026-01-03 01:27:26.80	197.46	16.07	-39.5	-40.7	22.4	0.00e+00	66	39	0	304087040	52	6184
2026-01-03 01:27:27.81	197.56	16.17	-39.7	-40.8	22.5	0.00e+00	0	39	0	306184192	52	6254
2026-01-03 01:27:28.82	197.67	16.27	-39.7	-40.7	22.5	0.00e+00	90	39	0	307232768	52	6221
2026-01-03 01:27:29.83	197.77	16.37	-39.9	-40.9	22.5	0.00e+00	0	39	0	309329920	52	6330
2026-01-03 01:27:30.84	197.87	16.47	-39.7	-40.7	22.5	0.00e+00	91	39	0	311427072	52	6208
2026-01-03 01:27:31.85	197.98	16.57	-39.7	-40.7	22.5	0.00e+00	92	39	0	313524224	52	6219
2026-01-03 01:27:32.86	198.09	16.68	-39.8	-40.8	22.4	0.00e+00	0	39	0	314572800	52	6288
2026-01-03 01:27:33.87	198.19	16.78	-39.5	-40.5	22.8	0.00e+00	92	39	0	316669952	52	6040
2026-01-03 01:27:34.88	198.30	16.88	-39.6	-40.5	22.7	0.00e+00	0	39	0	318767104	52	6091
2026-01-03 01:27:35.89	198.41	16.99	-39.9	-40.9	22.4	0.00e+00	92	39	0	320864256	52	6321
2026-01-03 01:27:36.90	198.52	17.09	-39.9	-40.9	22.4	0.00e+00	0	39	0	322961408	52	6354
2026-01-03 01:27:37.91	198.63	17.19	-39.8	-40.7	22.5	0.00e+00	90	39	0	325058560	52	6243
2026-01-03 01:27:38.92	198.74	17.30	-40.2	-41.2	22.2	0.00e+00	81	39	0	326107136	52	6562
2026-01-03 01:27:39.92	198.85	17.40	-40.0	-41.0	22.0	0.00e+00	32	39	0	328204288	52	6422
2026-01-03 01:27:40.93	198.96	17.51	-39.9	-40.8	22.4	0.00e+00	92	39	0	330301440	52	6314
2026-01-03 01:27:41.95	199.08	17.61	-40.0	-41.0	22.2	0.00e+00	0	39	0	332398592	52	6451
2026-01-03 01:27:42.96	199.19	17.72	-40.0	-41.0	22.2	0.00e+00	92	39	0	334495744	52	6427
2026-01-03 01:27:43.96	199.30	17.82	-40.1	-41.2	22.2	0.00e+00	0	39	0	335544320	52	6544
2026-01-03 01:27:44.97	199.42	17.93	-39.9	-41.0	22.4	0.00e+00	92	39	0	337641472	52	6394
2026-01-03 01:27:45.98	199.54	18.04	-40.2	-41.2	22.2	0.00e+00	25	39	0	339738624	52	6586
2026-01-03 01:27:46.99	199.65	18.14	-40.2	-41.3	22.1	0.00e+00	92	39	0	341835776	52	6623
2026-01-03 01:27:48.00	199.77	18.25	-40.2	-41.3	22.1	0.00e+00	90	39	0	343932928	52	6632
2026-01-03 01:27:49.01	199.89	18.36	-40.2	-41.3	22.1	0.00e+00	0	39	0	344981504	52	6627
2026-01-03 01:27:50.02	200.01	18.47	-40.0	-41.0	22.3	0.00e+00	92	39	0	347078656	52	6446
2026-01-03 01:27:51.03	200.13	18.58	-40.2	-41.2	22.2	0.00e+00	0	39	0	349175808	52	6588
2026-01-03 01:27:52.04	200.25	18.68	-39.9	-40.9	22.5	0.00e+00	90	39	0	351272960	52	6350
2026-01-03 01:27:53.05	200.37	18.79	-40.0	-41.0	22.4	0.00e+00	55	39	0	353370112	52	6432
2026-01-03 01:27:54.06	200.49	18.90	-39.8	-40.7	22.6	0.00e+00	92	39	0	354418688	52	6245
2026-01-03 01:27:55.07	200.62	19.01	-39.6	-40.6	22.6	0.00e+00	92	39	0	356515840	52	6108
2026-01-03 01:27:56.08	200.74	19.12	-39.6	-40.6	22.8	0.00e+00	0	39	0	358612992	52	6109
2026-01-03 01:27:57.09	200.87	19.23	-39.6	-40.5	22.7	0.00e+00	92	39	0	360710144	52	6080
2026-01-03 01:27:58.10	200.99	19.35	-39.6	-40.6	22.7	0.00e+00	0	39	0	362807296	52	6130
2026-01-03 01:27:59.11	201.12	19.46	-39.6	-40.6	22.7	0.00e+00	90	39	0	363855872	52	6146
2026-01-03 01:28:00.12	201.25	19.57	-40.1	-41.1	22.2	0.00e+00	81	39	0	365953024	52	6482
2026-01-03 01:28:01.13	201.38	19.68	-40.0	-41.0	22.3	0.00e+00	90	39	0	368050176	52	6413
2026-01-03 01:28:02.14	201.51	19.79	-39.7	-40.7	22.6	0.00e+00	92	39	0	370147328	52	6217
2026-01-03 01:28:03.14	201.63	19.91	-40.4	-41.5	22.1	0.00e+00	10	39	0	372244480	52	6779
2026-01-03 01:28:04.15	201.77	20.02	-40.3	-41.3	22.0	0.00e+00	76	39	0	373293056	52	6672
2026-01-03 01:28:05.16	201.90	20.13	-40.2	-41.3	22.3	0.00e+00	0	39	0	375390208	52	6622
2026-01-03 01:28:06.18	202.03	20.25	-40.2	-41.2	22.2	0.00e+00	92	39	0	377487360	52	6562
2026-01-03 01:28:07.18	202.17	20.36	-40.2	-41.2	22.2	0.00e+00	0	39	0	379584512	52	6568
2026-01-03 01:28:08.19	202.30	20.48	-39.8	-40.8	22.5	0.00e+00	90	39	0	381681664	52	6269
2026-01-03 01:28:09.20	202.44	20.59	-39.8	-40.8	22.5	0.00e+00	92	39	0	382730240	52	6272
2026-01-03 01:28:10.21	202.58	20.71	-39.8	-40.8	22.5	0.00e+00	33	39	0	384827392	52	6264
2026-01-03 01:28:11.22	202.71	20.82	-39.5	-40.4	22.7	0.00e+00	92	39	0	386924544	52	6018
2026-01-03 01:28:12.24	202.85	20.94	-39.8	-40.8	22.5	0.00e+00	0	39	0	389021696	52	6284
2026-01-03 01:28:13.25	202.99	21.06	-39.8	-40.8	22.5	0.00e+00	92	39	0	391118848	52	6283
2026-01-03 01:28:14.26	203.14	21.17	-39.8	-40.8	22.5	0.00e+00	0	39	0	393216000	52	6250
2026-01-03 01:28:15.27	203.28	21.29	-40.2	-41.3	22.2	0.00e+00	92	39	0	394264576	52	6631
2026-01-03 01:28:16.28	203.42	21.41	-40.0	-41.1	22.3	0.00e+00	92	39	0	396361728	52	6484
2026-01-03 01:28:17.29	203.57	21.53	-40.1	-41.1	22.4	0.00e+00	90	39	0	398458880	52	6466
2026-01-03 01:28:18.30	203.71	21.64	-39.9	-40.9	22.5	0.00e+00	92	39	0	400556032	52	6327
2026-01-03 01:28:19.31	203.86	21.76	-40.0	-41.0	22.4	0.00e+00	0	39	0	402653184	52	6454
2026-01-03 01:28:20.32	204.01	21.88	-39.9	-40.9	22.4	0.00e+00	79	39	0	403701760	52	6349
2026-01-03 01:28:21.33	204.16	22.00	-40.2	-41.2	22.2	0.00e+00	0	39	0	405798912	52	6573
2026-01-03 01:28:22.34	204.31	22.12	-40.0	-40.9	22.4	0.00e+00	92	39	0	407896064	52	6380
2026-01-03 01:28:23.35	204.46	22.24	-39.9	-40.9	22.4	0.00e+00	0	39	0	409993216	52	6358
2026-01-03 01:28:24.36	204.61	22.36	-40.2	-41.2	22.2	0.00e+00	92	39	0	412090368	52	6544
2026-01-03 01:28:25.37	204.76	22.48	-40.3	-41.3	22.1	0.00e+00	92	39	0	413138944	52	6644
2026-01-03 01:28:26.38	204.92	22.61	-40.5	-41.5	21.8	0.00e+00	0	39	0	415236096	52	6839
2026-01-03 01:28:27.39	205.07	22.73	-40.6	-41.6	21.8	0.00e+00	89	39	0	417333248	52	6919
2026-01-03 01:28:28.40	205.23	22.85	-40.5	-41.5	22.1	0.00e+00	0	39	0	419430400	54	6099
2026-01-03 01:28:29.41	205.39	22.97	-40.7	-41.8	21.7	0.00e+00	90	39	0	421527552	54	6290
2026-01-03 01:28:30.42	205.55	23.10	-40.6	-41.7	21.8	0.00e+00	0	39	0	422576128	54	6220
2026-01-03 01:28:31.43	205.71	23.22	-40.3	-41.3	22.1	0.00e+00	90	39	0	424673280	54	5945
2026-01-03 01:28:32.44	205.87	23.34	-40.0	-41.0	22.4	0.00e+00	92	39	0	426770432	52	6400
2026-01-03 01:28:33.45	206.03	23.47	-40.1	-41.1	22.3	0.00e+00	0	39	0	428867584	52	6487
2026-01-03 01:28:34.46	206.20	23.59	-40.1	-41.1	22.5	0.00e+00	92	39	0	430964736	52	6475
2026-01-03 01:28:35.47	206.36	23.72	-40.1	-41.1	22.3	0.00e+00	0	39	0	433061888	52	6511
2026-01-03 01:28:36.48	206.53	23.84	-40.2	-41.2	22.2	0.00e+00	92	39	0	434110464	52	6584
2026-01-03 01:28:37.49	206.70	23.97	-40.4	-41.5	22.1	0.00e+00	0	39	0	436207616	52	6772
2026-01-03 01:28:38.50	206.87	24.09	-40.2	-41.2	22.3	0.00e+00	90	39	0	438304768	52	6583
2026-01-03 01:28:39.50	207.04	24.22	-40.2	-41.2	22.4	0.00e+00	92	39	0	440401920	52	6592
2026-01-03 01:28:40.52	207.21	24.34	-39.9	-40.9	22.7	0.00e+00	0	39	0	442499072	52	6374
2026-01-03 01:28:41.52	207.38	24.47	-39.7	-40.6	22.7	0.00e+00	92	39	0	443547648	52	6162
2026-01-03 01:28:42.53	207.56	24.60	-39.7	-40.6	22.9	0.00e+00	0	39	0	445644800	52	6153
2026-01-03 01:28:43.55	207.74	24.73	-39.4	-40.3	23.0	0.00e+00	90	39	0	447741952	52	5916
2026-01-03 01:28:44.55	207.91	24.85	-39.4	-40.3	23.0	0.00e+00	0	39	0	449839104	52	5946
2026-01-03 01:28:45.56	208.09	24.98	-39.4	-40.4	22.9	0.00e+00	92	39	0	451936256	52	5966
2026-01-03 01:28:46.57	208.27	25.11	-39.4	-40.3	23.0	0.00e+00	82	39	0	452984832	52	5938
2026-01-03 01:28:47.58	208.45	25.24	-39.6	-40.5	22.8	0.00e+00	0	39	0	455081984	52	6098
2026-01-03 01:28:48.59	208.64	25.37	-40.0	-41.0	22.5	0.00e+00	56	39	0	457179136	52	6417
2026-01-03 01:28:49.60	208.82	25.50	-40.3	-41.4	22.0	0.00e+00	0	39	0	459276288	52	6707
2026-01-03 01:28:50.61	209.01	25.63	-40.7	-41.7	21.8	0.00e+00	92	39	0	461373440	52	7005
2026-01-03 01:28:51.62	209.20	25.76	-41.0	-42.1	21.5	0.00e+00	0	39	0	462422016	54	6503
2026-01-03 01:28:52.63	209.38	25.89	-41.0	-42.1	21.4	0.00e+00	92	39	0	464519168	54	6501
2026-01-03 01:28:53.64	209.58	26.02	-40.7	-41.8	21.7	0.00e+00	87	39	0	466616320	54	6306
2026-01-03 01:28:54.65	209.77	26.15	-40.6	-41.7	21.9	0.00e+00	0	39	0	468713472	54	6201
2026-01-03 01:28:55.66	209.96	26.28	-40.1	-41.1	22.1	0.00e+00	92	39	0	470810624	54	5797
2026-01-03 01:28:56.67	210.16	26.41	-39.8	-40.8	22.6	0.00e+00	0	39	0	471859200	54	5607
2026-01-03 01:28:57.68	210.35	26.55	-39.5	-40.4	22.9	0.00e+00	89	39	0	473956352	52	6016
2026-01-03 01:28:58.69	210.55	26.68	-39.1	-40.0	23.2	0.00e+00	0	39	0	476053504	52	5746
2026-01-03 01:28:59.70	210.75	26.81	-39.3	-40.2	23.1	0.00e+00	92	39	0	478150656	52	5840
2026-01-03 01:29:00.71	210.96	26.94	-39.5	-40.5	22.9	0.00e+00	8	39	0	480247808	52	6041
2026-01-03 01:29:01.72	211.16	27.08	-39.7	-40.7	22.8	0.00e+00	9	39	0	481296384	52	6174
2026-01-03 01:29:02.73	211.37	27.21	-40.2	-41.2	22.3	0.00e+00	92	39	0	483393536	52	6572
2026-01-03 01:29:03.74	211.57	27.34	-40.2	-41.2	22.3	0.00e+00	0	39	0	485490688	52	6614
2026-01-03 01:29:04.75	211.78	27.48	-40.3	-41.3	22.0	0.00e+00	89	39	0	487587840	52	6650
2026-01-03 01:29:05.76	211.99	27.61	-40.3	-41.3	21.6	0.00e+00	0	39	0	489684992	52	6681
2026-01-03 01:29:06.77	212.20	27.75	-40.2	-41.2	22.2	0.00e+00	92	39	0	490733568	52	6590
2026-01-03 01:29:07.78	212.42	27.88	-39.9	-40.9	22.6	0.00e+00	0	39	0	492830720	52	6338
2026-01-03 01:29:08.79	212.63	28.02	-40.2	-41.2	22.2	0.00e+00	34	39	0	494927872	52	6573
2026-01-03 01:29:09.80	212.85	28.15	-40.0	-41.0	22.4	0.00e+00	92	39	0	497025024	52	6425
2026-01-03 01:29:10.81	213.07	28.29	-39.9	-40.9	22.6	0.00e+00	0	39	0	499122176	52	6367
2026-01-03 01:29:11.82	213.29	28.42	-40.3	-41.3	22.3	0.00e+00	91	39	0	501219328	52	6657
2026-01-03 01:29:12.83	213.51	28.56	-40.2	-41.2	22.3	0.00e+00	0	39	0	502267904	52	6581
2026-01-03 01:29:13.84	213.74	28.69	-40.4	-41.4	22.1	0.00e+00	90	39	0	504365056	52	6721
2026-01-03 01:29:14.85	213.97	28.83	-40.3	-41.3	22.2	0.00e+00	25	39	0	506462208	52	6688
2026-01-03 01:29:15.86	214.19	28.97	-40.7	-41.8	21.7	0.00e+00	92	39	0	508559360	54	6255
2026-01-03 01:29:16.87	214.42	29.10	-41.3	-42.4	21.4	0.00e+00	92	39	0	510656512	54	6761
2026-01-03 01:29:17.88	214.66	29.24	-41.6	-42.8	21.1	0.00e+00	0	39	0	511705088	54	7063
2026-01-03 01:29:18.89	214.89	29.38	-41.7	-42.9	21.1	0.00e+00	92	39	0	513802240	54	7153
2026-01-03 01:29:19.90	215.13	29.51	-41.5	-42.6	21.2	0.00e+00	0	39	0	515899392	54	6927
2026-01-03 01:29:20.91	215.37	29.65	-41.1	-42.2	21.3	0.00e+00	89	39	0	517996544	54	6584
2026-01-03 01:29:21.92	215.61	29.79	-40.8	-41.9	21.8	0.00e+00	0	39	0	520093696	54	6324
2026-01-03 01:29:22.93	215.85	29.93	-40.6	-41.7	21.9	0.00e+00	92	39	0	521142272	54	6208
2026-01-03 01:29:23.94	216.09	30.06	-40.9	-41.9	21.7	0.00e+00	92	39	0	523239424	54	6385
2026-01-03 01:29:24.95	216.34	30.20	-40.7	-41.8	21.9	0.00e+00	0	39	0	525336576	54	6280
2026-01-03 01:29:25.96	216.59	30.34	-40.6	-41.7	21.9	0.00e+00	91	39	0	527433728	54	6212
2026-01-03 01:29:26.97	216.84	30.48	-40.8	-41.9	21.7	0.00e+00	0	39	0	529530880	54	6335
2026-01-03 01:29:27.98	217.09	30.62	-40.8	-41.9	21.8	0.00e+00	91	39	0	530579456	54	6342
2026-01-03 01:29:28.99	217.34	30.75	-40.5	-41.5	22.2	0.00e+00	0	39	0	532676608	54	6069
2026-01-03 01:29:30.00	217.60	30.89	-40.2	-41.2	22.3	0.00e+00	90	39	0	534773760	54	5841
2026-01-03 01:29:31.01	217.86	31.03	-40.6	-41.7	21.9	0.00e+00	92	39	0	536870912	54	6200
2026-01-03 01:29:32.02	218.12	31.17	-40.5	-41.5	22.1	0.00e+00	0	39	0	538968064	54	6065
2026-01-03 01:29:33.03	218.38	31.31	-40.5	-41.5	22.1	0.00e+00	92	39	0	540016640	54	6090
2026-01-03 01:29:34.04	218.65	31.44	-40.7	-41.7	22.0	0.00e+00	0	39	0	542113792	54	6223
2026-01-03 01:29:35.05	218.92	31.58	-41.0	-42.2	21.7	0.00e+00	59	39	0	544210944	54	6547
2026-01-03 01:29:36.06	219.19	31.72	-41.4	-42.6	21.1	0.00e+00	0	39	0	546308096	54	6920
2026-01-03 01:29:37.07	219.46	31.86	-41.3	-42.5	21.2	0.00e+00	74	39	0	548405248	54	6786
2026-01-03 01:29:38.07	219.73	31.99	-41.4	-42.6	21.2	0.00e+00	57	39	0	549453824	54	6851
2026-01-03 01:29:39.09	220.01	32.13	-41.3	-42.4	21.3	0.00e+00	92	39	0	551550976	54	6762
2026-01-03 01:29:40.09	220.29	32.27	-41.2	-42.4	21.3	0.00e+00	92	39	0	553648128	54	6696
2026-01-03 01:29:41.10	220.57	32.41	-41.2	-42.3	21.4	0.00e+00	0	39	0	555745280	54	6692
2026-01-03 01:29:42.11	220.85	32.54	-41.2	-42.4	21.1	0.00e+00	92	39	0	557842432	54	6720
2026-01-03 01:29:43.13	221.14	32.68	-41.1	-42.3	21.3	0.00e+00	32	39	0	558891008	54	6644
2026-01-03 01:29:44.14	221.43	32.82	-41.4	-42.6	21.1	0.00e+00	92	39	0	560988160	54	6853
2026-01-03 01:29:45.15	221.72	32.96	-41.1	-42.3	21.4	0.00e+00	1	39	0	563085312	54	6629
2026-01-03 01:29:46.15	222.01	33.09	-41.3	-42.4	21.4	0.00e+00	92	39	0	565182464	54	6725
2026-01-03 01:29:47.17	222.31	33.23	-41.3	-42.5	21.2	0.00e+00	92	39	0	567279616	54	6771
2026-01-03 01:29:48.18	222.61	33.37	-41.6	-42.8	20.9	0.00e+00	0	39	0	569376768	54	7013
2026-01-03 01:29:49.19	222.91	33.50	-42.2	-43.6	20.3	0.00e+00	92	39	0	570425344	56	6872
2026-01-03 01:29:50.19	223.21	33.64	-42.7	-44.2	19.7	0.00e+00	33	39	0	572522496	56	7365
2026-01-03 01:29:51.21	223.52	33.78	-43.4	-45.1	18.9	0.00e+00	92	39	0	574619648	58	7273
2026-01-03 01:29:52.22	223.83	33.91	-43.4	-45.0	19.1	0.00e+00	0	39	0	576716800	58	7235
2026-01-03 01:29:53.23	224.14	34.05	-42.5	-43.9	20.0	0.00e+00	90	39	0	578813952	58	6345
2026-01-03 01:29:54.23	224.45	34.18	-42.0	-43.3	20.6	0.00e+00	92	39	0	579862528	58	5907
2026-01-03 01:29:55.24	224.76	34.31	-41.8	-43.1	20.8	0.00e+00	0	39	0	581959680	56	6482
2026-01-03 01:29:56.25	225.08	34.45	-42.1	-43.4	20.5	0.00e+00	92	39	0	584056832	56	6755
2026-01-03 01:29:57.26	225.40	34.58	-42.2	-43.5	20.6	0.00e+00	0	39	0	586153984	56	6788
2026-01-03 01:29:58.27	225.73	34.71	-41.9	-43.2	20.8	0.00e+00	92	39	0	588251136	56	6548
2026-01-03 01:29:59.28	226.05	34.85	-42.1	-43.4	21.0	0.00e+00	0	39	0	589299712	56	6733
2026-01-03 01:30:00.29	226.38	34.98	-41.4	-42.5	21.2	0.00e+00	92	39	0	591396864	56	6095
2026-01-03 01:30:01.30	226.71	35.11	-41.4	-42.6	21.1	0.00e+00	88	39	0	593494016	56	6145
2026-01-03 01:30:02.31	227.05	35.24	-41.9	-43.2	20.7	0.00e+00	0	39	0	595591168	56	6543
2026-01-03 01:30:03.32	227.38	35.37	-42.7	-44.1	19.9	0.00e+00	92	39	0	597688320	56	7331
2026-01-03 01:30:04.33	227.72	35.50	-43.4	-45.1	19.0	0.00e+00	0	39	0	598736896	58	7281
2026-01-03 01:30:05.34	228.06	35.63	-43.3	-44.9	18.9	0.00e+00	92	39	0	600834048	58	7159
2026-01-03 01:30:06.35	228.41	35.76	-43.4	-45.0	19.1	0.00e+00	0	39	0	602931200	58	7208
2026-01-03 01:30:07.36	228.76	35.89	-43.9	-45.7	18.6	0.00e+00	92	39	0	605028352	60	6936
2026-01-03 01:30:08.37	229.11	36.02	-43.9	-45.6	18.5	0.00e+00	91	39	0	607125504	60	6865
2026-01-03 01:30:09.38	229.46	36.15	-43.7	-45.4	18.8	0.00e+00	0	39	0	608174080	60	6716
2026-01-03 01:30:10.38	229.81	36.27	-43.2	-44.7	19.4	0.00e+00	58	39	0	610271232	60	6242
2026-01-03 01:30:11.40	230.17	36.40	-43.2	-44.7	19.5	0.00e+00	0	39	0	612368384	60	6235
2026-01-03 01:30:12.40	230.53	36.52	-43.6	-45.2	19.0	0.00e+00	92	39	0	614465536	60	6583
2026-01-03 01:30:13.41	230.89	36.64	-43.1	-44.6	19.5	0.00e+00	33	39	0	616562688	60	6151
2026-01-03 01:30:14.42	231.26	36.77	-43.4	-45.0	19.1	0.00e+00	92	39	0	617611264	60	6438
2026-01-03 01:30:15.43	231.63	36.89	-44.1	-46.0	18.0	0.00e+00	0	39	0	619708416	60	7180
2026-01-03 01:30:16.44	232.00	37.01	-44.6	-46.6	17.6	0.00e+00	0	39	0	621805568	60	7758
2026-01-03 01:30:17.45	232.38	37.13	-45.0	-47.2	17.3	0.00e+00	92	39	0	623902720	60	8267
2026-01-03 01:30:18.46	232.75	37.25	-44.6	-46.6	17.5	0.00e+00	0	39	0	625999872	60	7697
2026-01-03 01:30:19.47	233.13	37.37	-43.7	-45.4	18.6	0.00e+00	92	39	0	627048448	60	6754
2026-01-03 01:30:20.48	233.52	37.49	-43.2	-44.7	19.7	0.00e+00	0	39	0	629145600	60	6228
2026-01-03 01:30:21.49	233.90	37.61	-42.6	-44.0	20.0	0.00e+00	92	39	0	631242752	58	6396
2026-01-03 01:30:22.50	234.29	37.72	-42.5	-43.9	20.1	0.00e+00	9	39	0	633339904	58	6318
2026-01-03 01:30:23.51	234.68	37.84	-43.0	-44.4	19.6	0.00e+00	0	39	0	635437056	58	6724
2026-01-03 01:30:24.52	235.07	37.95	-43.4	-45.0	18.9	0.00e+00	90	39	0	636485632	58	7184
2026-01-03 01:30:25.53	235.47	38.06	-44.2	-46.0	18.2	0.00e+00	0	39	0	638582784	60	7211
2026-01-03 01:30:26.54	235.87	38.17	-44.1	-45.8	18.6	0.00e+00	34	39	0	640679936	60	7082
2026-01-03 01:30:27.55	236.27	38.28	-43.2	-44.7	19.3	0.00e+00	0	39	0	642777088	60	6241
2026-01-03 01:30:28.56	236.67	38.39	-42.2	-43.5	20.3	0.00e+00	92	39	0	644874240	58	6068
2026-01-03 01:30:29.57	237.08	38.50	-41.8	-43.1	20.9	0.00e+00	0	39	0	646971392	58	5766
2026-01-03 01:30:30.58	237.49	38.61	-41.2	-42.3	21.5	0.00e+00	67	39	0	648019968	56	5943
2026-01-03 01:30:31.59	237.90	38.71	-41.8	-43.1	21.0	0.00e+00	92	39	0	650117120	56	6472
2026-01-03 01:30:32.60	238.32	38.82	-42.8	-44.2	19.9	0.00e+00	0	39	0	652214272	56	7357
2026-01-03 01:30:33.61	238.73	38.92	-43.8	-45.5	18.6	0.00e+00	88	39	0	654311424	58	7636
2026-01-03 01:30:34.62	239.15	39.02	-43.9	-45.5	18.7	0.00e+00	0	39	0	656408576	60	6802
2026-01-03 01:30:35.63	239.58	39.12	-43.5	-45.0	19.2	0.00e+00	92	39	0	657457152	60	6443
2026-01-03 01:30:36.64	240.00	39.22	-42.5	-43.8	19.9	0.00e+00	0	39	0	659554304	60	5623
2026-01-03 01:30:37.65	240.43	39.32	-41.8	-43.0	21.1	0.00e+00	90	39	0	661651456	58	5721
2026-01-03 01:30:38.66	240.86	39.41	-40.9	-42.0	21.8	0.00e+00	87	39	0	663748608	56	5726
2026-01-03 01:30:39.67	241.29	39.50	-40.4	-41.4	22.2	0.00e+00	0	39	0	665845760	54	6027
2026-01-03 01:30:40.67	241.72	39.60	-41.3	-42.4	21.3	0.00e+00	65	39	0	666894336	54	6732
2026-01-03 01:30:41.69	242.16	39.69	-42.1	-43.3	20.7	0.00e+00	0	39	0	668991488	56	6679
2026-01-03 01:30:42.70	242.60	39.78	-42.1	-43.4	20.8	0.00e+00	91	39	0	671088640	56	6701
2026-01-03 01:30:43.71	243.05	39.86	-42.0	-43.2	20.9	0.00e+00	0	39	0	673185792	56	6578
2026-01-03 01:30:44.72	243.49	39.95	-41.8	-43.0	20.9	0.00e+00	92	39	0	675282944	56	6430
2026-01-03 01:30:45.72	243.93	40.03	-41.7	-42.8	21.1	0.00e+00	88	39	0	676331520	56	6316
2026-01-03 01:30:46.73	244.38	40.12	-41.9	-43.1	21.0	0.00e+00	0	39	0	678428672	56	6499
2026-01-03 01:30:47.74	244.83	40.20	-41.0	-42.1	21.7	0.00e+00	77	39	0	680525824	56	5771
2026-01-03 01:30:48.75	245.29	40.27	-40.5	-41.6	22.1	0.00e+00	0	39	0	682622976	54	6121
2026-01-03 01:30:49.76	245.74	40.35	-41.0	-42.1	21.5	0.00e+00	92	39	0	684720128	54	6484
2026-01-03 01:30:50.77	246.20	40.43	-42.5	-43.9	20.0	0.00e+00	0	39	0	685768704	56	7127
2026-01-03 01:30:51.78	246.66	40.50	-43.3	-44.8	19.4	0.00e+00	92	39	0	687865856	58	7083
2026-01-03 01:30:52.79	247.12	40.57	-43.1	-44.6	19.6	0.00e+00	89	39	0	689963008	58	6885
2026-01-03 01:30:53.80	247.58	40.64	-43.1	-44.6	19.7	0.00e+00	0	39	0	692060160	58	6876
2026-01-03 01:30:54.81	248.05	40.71	-42.9	-44.3	19.7	0.00e+00	77	39	0	694157312	58	6633
2026-01-03 01:30:55.82	248.52	40.77	-43.0	-44.4	19.9	2.20e-06	0	39	0	695205888	58	6698
2026-01-03 01:30:56.83	248.99	40.84	-42.1	-43.3	20.7	0.00e+00	76	39	0	697303040	58	5952
2026-01-03 01:30:57.84	249.46	40.90	-41.8	-43.0	21.2	0.00e+00	0	39	0	699400192	56	6393
2026-01-03 01:30:58.85	249.93	40.96	-41.9	-43.1	20.7	0.00e+00	92	39	0	701497344	56	6533
2026-01-03 01:30:59.86	250.40	41.02	-43.4	-44.9	19.4	0.00e+00	2	39	0	703594496	58	7143
2026-01-03 01:31:00.86	250.88	41.07	-44.4	-46.3	17.9	0.00e+00	0	39	0	704643072	60	7452
2026-01-03 01:31:01.87	251.35	41.12	-44.1	-45.8	18.5	0.00e+00	90	39	0	706740224	60	7045
2026-01-03 01:31:02.88	251.83	41.18	-43.4	-45.0	19.2	0.00e+00	0	39	0	708837376	60	6402
2026-01-03 01:31:03.89	252.31	41.22	-43.1	-44.5	19.7	0.00e+00	61	39	0	710934528	60	6055
2026-01-03 01:31:04.90	252.80	41.27	-43.8	-45.4	18.8	0.00e+00	0	39	0	713031680	60	6708
2026-01-03 01:31:05.91	253.28	41.32	-44.2	-45.9	18.4	0.00e+00	90	39	0	715128832	60	7106
2026-01-03 01:31:06.92	253.76	41.36	-43.9	-45.5	18.7	0.00e+00	40	39	0	716177408	60	6788
2026-01-03 01:31:07.93	254.25	41.40	-44.0	-45.6	18.6	0.00e+00	0	39	0	718274560	60	6917
2026-01-03 01:31:08.94	254.74	41.44	-44.3	-46.0	18.2	0.00e+00	92	39	0	720371712	60	7235
2026-01-03 01:31:09.95	255.22	41.47	-44.9	-46.9	17.5	0.00e+00	0	39	0	722468864	60	7964
2026-01-03 01:31:10.96	255.71	41.51	-45.1	-47.2	16.8	0.00e+00	45	39	0	724566016	60	8300
2026-01-03 01:31:11.97	256.20	41.54	-45.3	-47.4	16.6	0.00e+00	0	39	0	725614592	60	8455
2026-01-03 01:31:12.98	256.69	41.57	-45.0	-47.0	17.3	0.00e+00	92	39	0	727711744	60	8052
2026-01-03 01:31:13.99	257.19	41.59	-44.4	-46.1	18.1	0.00e+00	31	39	0	729808896	60	7298
2026-01-03 01:31:15.00	257.68	41.62	-44.1	-45.8	18.4	0.00e+00	91	39	0	731906048	60	7057
2026-01-03 01:31:16.01	258.17	41.64	-44.6	-46.5	17.7	0.00e+00	92	39	0	734003200	60	7603
2026-01-03 01:31:17.02	258.67	41.66	-44.2	-45.9	18.4	0.00e+00	0	39	0	735051776	60	7135
2026-01-03 01:31:18.03	259.16	41.68	-44.3	-46.0	18.2	0.00e+00	58	39	0	737148928	60	7244
2026-01-03 01:31:19.04	259.66	41.69	-45.4	-47.6	16.5	0.00e+00	0	39	0	739246080	60	8681
2026-01-03 01:31:20.05	260.15	41.71	-46.7	-49.8	14.4	0.00e+00	84	39	0	741343232	60	11200
2026-01-03 01:31:21.06	260.65	41.72	-47.1	-50.6	13.6	6.10e-06	0	39	0	743440384	60	12182
2026-01-03 01:31:22.07	261.14	41.73	-46.2	-48.9	15.7	2.20e-06	90	39	0	744488960	60	10097
2026-01-03 01:31:23.08	261.64	41.73	-44.6	-46.4	18.0	0.00e+00	57	39	0	746586112	60	7544
2026-01-03 01:31:24.09	262.14	41.73	-43.0	-44.3	19.9	0.00e+00	0	39	0	748683264	60	5953
2026-01-03 01:31:25.10	262.63	41.74	-42.6	-43.9	20.0	0.00e+00	92	39	0	750780416	58	6371
2026-01-03 01:31:26.11	263.13	41.73	-43.3	-44.7	19.2	0.00e+00	33	39	0	752877568	58	6993
2026-01-03 01:31:27.12	263.62	41.73	-44.3	-46.0	18.0	0.00e+00	92	39	0	753926144	60	7225
2026-01-03 01:31:28.13	264.12	41.72	-44.4	-46.2	18.0	0.00e+00	0	39	0	756023296	60	7367
2026-01-03 01:31:29.14	264.62	41.72	-43.7	-45.3	18.7	0.00e+00	92	39	0	758120448	60	6643
2026-01-03 01:31:30.15	265.11	41.71	-43.2	-44.6	19.1	0.00e+00	0	39	0	760217600	60	6171
2026-01-03 01:31:31.16	265.61	41.69	-43.4	-44.9	19.3	0.00e+00	0	39	0	762314752	60	6386
2026-01-03 01:31:32.17	266.10	41.68	-44.1	-45.8	18.4	0.00e+00	52	39	0	763363328	60	7070
2026-01-03 01:31:33.18	266.60	41.66	-44.5	-46.3	18.0	0.00e+00	2	39	0	765460480	60	7479
2026-01-03 01:31:34.19	267.09	41.64	-44.0	-45.6	18.7	0.00e+00	90	39	0	767557632	60	6863
2026-01-03 01:31:35.20	267.58	41.62	-43.2	-44.6	19.6	0.00e+00	0	39	0	769654784	60	6169
2026-01-03 01:31:36.21	268.08	41.59	-43.4	-44.9	19.5	0.00e+00	91	39	0	771751936	60	6350
2026-01-03 01:31:37.22	268.57	41.57	-44.1	-45.8	18.5	0.00e+00	92	39	0	772800512	60	7030
2026-01-03 01:31:38.23	269.06	41.54	-44.1	-45.8	18.5	0.00e+00	0	39	0	774897664	60	7017
2026-01-03 01:31:39.24	269.55	41.50	-42.6	-43.9	20.3	0.00e+00	91	39	0	776994816	60	5669
2026-01-03 01:31:40.25	270.04	41.47	-41.4	-42.4	21.5	0.00e+00	0	39	0	779091968	56	6026
2026-01-03 01:31:41.26	270.52	41.43	-41.5	-42.6	21.2	0.00e+00	90	39	0	781189120	56	6141
2026-01-03 01:31:42.27	271.01	41.40	-42.6	-44.0	20.0	0.00e+00	0	39	0	783286272	56	7182
2026-01-03 01:31:43.28	271.50	41.36	-43.5	-45.0	19.0	0.00e+00	92	39	0	784334848	58	7207
2026-01-03 01:31:44.29	271.98	41.31	-43.2	-44.7	19.5	0.00e+00	1	39	0	786432000	58	6965
2026-01-03 01:31:45.30	272.46	41.27	-43.4	-44.9	19.3	0.00e+00	8	39	0	788529152	58	7093
2026-01-03 01:31:46.31	272.94	41.22	-42.7	-44.1	20.0	0.00e+00	92	39	0	790626304	58	6497
2026-01-03 01:31:47.32	273.43	41.17	-42.7	-44.1	20.1	0.00e+00	1	39	0	792723456	58	6493
2026-01-03 01:31:48.33	273.90	41.12	-42.6	-43.9	20.3	0.00e+00	92	39	0	793772032	58	6335
2026-01-03 01:31:49.34	274.38	41.07	-42.0	-43.2	21.0	0.00e+00	0	39	0	795869184	58	5865
2026-01-03 01:31:50.35	274.86	41.01	-42.0	-43.2	20.6	0.00e+00	78	39	0	797966336	58	5895
2026-01-03 01:31:51.36	275.33	40.95	-42.4	-43.7	20.3	0.00e+00	0	39	0	800063488	58	6205
2026-01-03 01:31:52.37	275.80	40.89	-43.2	-44.7	19.4	0.00e+00	92	39	0	802160640	58	6932
2026-01-03 01:31:53.38	276.27	40.83	-43.6	-45.2	19.1	0.00e+00	92	39	0	803209216	58	7363
2026-01-03 01:31:54.39	276.74	40.77	-43.0	-44.4	19.7	0.00e+00	0	39	0	805306368	58	6737
2026-01-03 01:31:55.40	277.21	40.70	-42.7	-44.0	20.1	0.00e+00	91	39	0	807403520	58	6430
2026-01-03 01:31:56.41	277.67	40.64	-42.9	-44.3	19.8	0.00e+00	0	39	0	809500672	58	6617
2026-01-03 01:31:57.42	278.13	40.57	-42.9	-44.3	20.0	0.00e+00	85	39	0	811597824	58	6647
2026-01-03 01:31:58.43	278.60	40.50	-41.7	-42.9	21.2	0.00e+00	0	39	0	812646400	58	5650
2026-01-03 01:31:59.44	279.05	40.42	-41.2	-42.3	21.8	0.00e+00	92	39	0	814743552	56	5911
2026-01-03 01:32:00.45	279.51	40.35	-41.2	-42.3	21.6	0.00e+00	85	39	0	816840704	56	5921
2026-01-03 01:32:01.46	279.97	40.27	-42.0	-43.2	20.8	0.00e+00	0	39	0	818937856	56	6573
2026-01-03 01:32:02.47	280.42	40.19	-42.4	-43.7	20.4	0.00e+00	85	39	0	821035008	56	6967
2026-01-03 01:32:03.48	280.87	40.11	-42.3	-43.6	20.7	0.00e+00	0	39	0	822083584	56	6900
2026-01-03 01:32:04.49	281.32	40.03	-41.5	-42.7	21.4	0.00e+00	90	39	0	824180736	56	6224
2026-01-03 01:32:05.50	281.76	39.94	-41.0	-42.1	21.8	0.00e+00	0	39	0	826277888	56	5780
2026-01-03 01:32:06.51	282.21	39.86	-41.2	-42.3	21.6	0.00e+00	90	39	0	828375040	56	5924
2026-01-03 01:32:07.52	282.65	39.77	-41.7	-42.9	21.0	0.00e+00	0	39	0	830472192	56	6326
2026-01-03 01:32:08.53	283.09	39.68	-41.3	-42.5	21.6	0.00e+00	0	39	0	831520768	56	6052
2026-01-03 01:32:09.54	283.52	39.59	-40.0	-41.0	22.7	0.00e+00	90	39	0	833617920	54	5712
2026-01-03 01:32:10.55	283.96	39.50	-39.8	-40.7	22.8	0.00e+00	0	39	0	835715072	52	6224
2026-01-03 01:32:11.56	284.39	39.41	-40.6	-41.6	22.0	0.00e+00	91	39	0	837812224	52	6926
2026-01-03 01:32:12.57	284.82	39.31	-40.5	-41.6	22.1	0.00e+00	0	39	0	839909376	54	6129
2026-01-03 01:32:13.58	285.24	39.21	-39.9	-40.8	22.8	0.00e+00	92	39	0	840957952	54	5623
2026-01-03 01:32:14.59	285.67	39.12	-39.5	-40.4	23.1	0.00e+00	0	39	0	843055104	52	5995
2026-01-03 01:32:15.60	286.09	39.02	-39.1	-40.0	23.5	0.00e+00	15	39	0	845152256	52	5731
2026-01-03 01:32:16.61	286.51	38.92	-39.0	-39.9	23.4	0.00e+00	90	39	0	847249408	52	5677
2026-01-03 01:32:17.61	286.92	38.81	-39.6	-40.6	23.2	0.00e+00	0	39	0	849346560	52	6124
2026-01-03 01:32:18.63	287.34	38.71	-38.9	-39.8	23.5	0.00e+00	88	39	0	851443712	52	5611
2026-01-03 01:32:19.64	287.75	38.60	-38.3	-39.1	24.2	0.00e+00	0	39	0	852492288	50	5812
2026-01-03 01:32:20.65	288.15	38.50	-37.3	-38.1	24.7	0.00e+00	92	39	0	854589440	48	5810
2026-01-03 01:32:21.65	288.56	38.39	-37.5	-38.3	24.5	0.00e+00	9	39	0	856686592	48	5926
2026-01-03 01:32:22.67	288.96	38.28	-37.2	-38.0	24.9	0.00e+00	0	39	0	858783744	48	5700
2026-01-03 01:32:23.67	289.36	38.17	-37.3	-38.1	24.7	0.00e+00	92	39	0	860880896	48	5803
2026-01-03 01:32:24.68	289.76	38.06	-37.5	-38.3	24.6	0.00e+00	0	39	0	861929472	48	5952
2026-01-03 01:32:25.69	290.15	37.95	-36.8	-37.6	25.0	0.00e+00	91	39	0	864026624	48	5447
2026-01-03 01:32:26.70	290.54	37.84	-36.5	-37.2	25.4	0.00e+00	33	39	0	866123776	46	5882
2026-01-03 01:32:27.71	290.93	37.72	-36.0	-36.8	25.6	0.00e+00	92	39	0	868220928	46	5582
2026-01-03 01:32:28.72	291.32	37.61	-36.5	-37.3	25.3	0.00e+00	0	39	0	870318080	46	5903
2026-01-03 01:32:29.73	291.71	37.49	-37.0	-37.8	25.0	0.00e+00	77	39	0	871366656	46	6248
2026-01-03 01:32:30.74	292.09	37.37	-37.0	-37.7	24.9	0.00e+00	90	39	0	873463808	46	6241
2026-01-03 01:32:31.75	292.47	37.25	-36.8	-37.6	24.6	0.00e+00	0	39	0	875560960	46	6130
2026-01-03 01:32:32.76	292.84	37.14	-36.5	-37.2	25.3	0.00e+00	40	39	0	877658112	46	5872
2026-01-03 01:32:33.77	293.22	37.02	-36.2	-36.9	24.9	0.00e+00	0	39	0	879755264	46	5669
2026-01-03 01:32:34.78	293.59	36.89	-36.8	-37.6	25.0	0.00e+00	85	39	0	880803840	46	6146
2026-01-03 01:32:35.79	293.95	36.77	-37.4	-38.2	24.5	0.00e+00	0	39	0	882900992	46	6555
2026-01-03 01:32:36.80	294.32	36.65	-38.0	-38.8	24.3	0.00e+00	60	39	0	884998144	48	6265
2026-01-03 01:32:37.81	294.68	36.53	-38.4	-39.2	23.9	0.00e+00	63	39	0	887095296	48	6609
2026-01-03 01:32:38.82	295.04	36.40	-37.8	-38.7	24.4	0.00e+00	0	39	0	889192448	48	6176
2026-01-03 01:32:39.83	295.40	36.28	-36.7	-37.5	25.1	0.00e+00	91	39	0	890241024	48	5379
2026-01-03 01:32:40.84	295.75	36.15	-36.6	-37.3	25.4	0.00e+00	0	39	0	892338176	46	5920
2026-01-03 01:32:41.85	296.10	36.02	-37.0	-37.7	24.9	0.00e+00	88	39	0	894435328	46	6224
2026-01-03 01:32:42.86	296.45	35.90	-37.4	-38.2	24.7	0.00e+00	0	39	0	896532480	46	6595
2026-01-03 01:32:43.87	296.80	35.77	-37.6	-38.4	24.5	0.00e+00	90	39	0	898629632	48	6031
2026-01-03 01:32:44.88	297.14	35.64	-37.6	-38.3	24.4	0.00e+00	92	39	0	899678208	48	5960
2026-01-03 01:32:45.89	297.48	35.51	-37.3	-38.1	24.7	0.00e+00	0	39	0	901775360	48	5792
2026-01-03 01:32:46.90	297.82	35.38	-37.6	-38.4	24.4	0.00e+00	20	39	0	903872512	48	6030
2026-01-03 01:32:47.91	298.16	35.25	-38.7	-39.6	23.7	0.00e+00	32	39	0	905969664	48	6883
2026-01-03 01:32:48.92	298.49	35.12	-39.3	-40.2	23.2	0.00e+00	90	39	0	908066816	50	6571
2026-01-03 01:32:49.93	298.82	34.99	-39.7	-40.7	22.8	0.00e+00	0	39	0	909115392	52	6210
2026-01-03 01:32:50.94	299.15	34.86	-39.7	-40.7	22.9	0.00e+00	90	39	0	911212544	52	6188
2026-01-03 01:32:51.95	299.47	34.73	-40.1	-41.1	22.4	0.00e+00	91	39	0	913309696	52	6515
2026-01-03 01:32:52.96	299.80	34.59	-40.7	-41.7	22.1	0.00e+00	0	39	0	915406848	54	6238
2026-01-03 01:32:53.97	300.12	34.46	-40.9	-41.9	21.8	0.00e+00	0	39	0	917504000	54	6358
2026-01-03 01:32:54.98	300.43	34.33	-41.7	-42.8	21.2	0.00e+00	0	39	0	919601152	54	7069
2026-01-03 01:32:55.99	300.75	34.19	-41.8	-43.0	21.1	0.00e+00	84	39	0	920649728	56	6418
2026-01-03 01:32:57.00	301.06	34.06	-41.5	-42.6	21.4	0.00e+00	0	39	0	922746880	56	6163
2026-01-03 01:32:58.01	301.37	33.93	-40.9	-41.9	21.9	0.00e+00	92	39	0	924844032	56	5666
2026-01-03 01:32:59.02	301.68	33.79	-40.9	-42.0	21.8	0.00e+00	62	39	0	926941184	54	6422
2026-01-03 01:33:00.03	301.98	33.66	-40.9	-42.0	21.7	0.00e+00	0	39	0	929038336	54	6428
2026-01-03 01:33:01.04	302.28	33.52	-41.8	-43.0	20.8	0.00e+00	83	39	0	930086912	54	7187
2026-01-03 01:33:02.05	302.58	33.38	-42.4	-43.7	20.3	0.00e+00	0	39	0	932184064	56	6970
2026-01-03 01:33:03.06	302.88	33.25	-41.7	-42.9	21.1	0.00e+00	74	39	0	934281216	56	6379
2026-01-03 01:33:04.07	303.18	33.11	-41.4	-42.6	21.5	0.00e+00	0	39	0	936378368	56	6118
2026-01-03 01:33:05.08	303.47	32.98	-41.1	-42.1	21.5	0.00e+00	86	39	0	938475520	56	5824
2026-01-03 01:33:06.09	303.76	32.84	-41.8	-43.0	20.9	0.00e+00	0	39	0	939524096	56	6399
2026-01-03 01:33:07.10	304.05	32.70	-42.4	-43.7	20.3	0.00e+00	0	39	0	941621248	56	6940
2026-01-03 01:33:08.11	304.33	32.57	-44.4	-46.2	18.0	0.00e+00	62	39	0	943718400	60	7346
2026-01-03 01:33:09.12	304.61	32.43	-45.1	-47.1	17.3	0.00e+00	0	39	0	945815552	60	8206
2026-01-03 01:33:10.13	304.89	32.29	-44.0	-45.6	18.5	0.00e+00	62	39	0	947912704	60	6893
2026-01-03 01:33:11.14	305.17	32.16	-43.3	-44.7	19.7	0.00e+00	0	39	0	948961280	60	6233
2026-01-03 01:33:12.14	305.45	32.02	-41.8	-43.0	20.9	0.00e+00	90	39	0	951058432	58	5734
2026-01-03 01:33:13.15	305.72	31.88	-42.0	-43.2	20.8	0.00e+00	0	39	0	953155584	56	6554
2026-01-03 01:33:14.16	305.99	31.75	-42.6	-44.0	19.8	0.00e+00	0	39	0	955252736	56	7195
2026-01-03 01:33:15.17	306.26	31.61	-44.2	-46.0	18.1	0.00e+00	92	39	0	957349888	60	7199
2026-01-03 01:33:16.18	306.53	31.47	-44.6	-46.6	17.7	0.00e+00	0	39	0	958398464	60	7740
2026-01-03 01:33:17.19	306.79	31.33	-43.8	-45.5	18.8	0.00e+00	44	39	0	960495616	60	6821
2026-01-03 01:33:18.20	307.05	31.20	-42.2	-43.6	20.6	0.00e+00	0	39	0	962592768	58	6105
2026-01-03 01:33:19.21	307.31	31.06	-41.1	-42.2	21.8	0.00e+00	92	39	0	964689920	56	5835
2026-01-03 01:33:20.22	307.57	30.92	-39.9	-40.8	22.8	0.00e+00	0	39	0	966787072	54	5606
2026-01-03 01:33:21.23	307.83	30.79	-39.5	-40.4	23.0	0.00e+00	77	39	0	967835648	52	6017
2026-01-03 01:33:22.24	308.08	30.65	-40.6	-41.6	21.9	0.00e+00	91	39	0	969932800	52	6861
2026-01-03 01:33:23.25	308.33	30.51	-42.3	-43.7	20.2	0.00e+00	0	39	0	972029952	56	6941
2026-01-03 01:33:24.26	308.58	30.37	-43.9	-45.7	18.6	0.00e+00	88	39	0	974127104	60	6963
2026-01-03 01:33:25.27	308.83	30.24	-43.2	-44.7	19.5	0.00e+00	0	39	0	976224256	60	6227
2026-01-03 01:33:26.28	309.08	30.10	-42.1	-43.4	20.6	0.00e+00	92	39	0	977272832	58	5987
2026-01-03 01:33:27.29	309.32	29.96	-41.5	-42.6	21.4	0.00e+00	0	39	0	979369984	56	6163
2026-01-03 01:33:28.29	309.56	29.83	-40.9	-42.0	21.8	0.00e+00	90	39	0	981467136	56	5720
2026-01-03 01:33:29.30	309.80	29.69	-40.9	-42.0	21.6	0.00e+00	17	39	0	983564288	54	6407
2026-01-03 01:33:30.31	310.04	29.55	-42.2	-43.5	20.5	0.00e+00	0	39	0	985661440	56	6787
2026-01-03 01:33:31.32	310.27	29.42	-42.6	-43.9	20.2	0.00e+00	67	39	0	987758592	56	7164
2026-01-03 01:33:32.33	310.51	29.28	-42.4	-43.8	20.3	0.00e+00	0	39	0	988807168	58	6282
2026-01-03 01:33:33.34	310.74	29.15	-41.9	-43.2	20.9	0.00e+00	92	39	0	990904320	58	5849
2026-01-03 01:33:34.35	310.97	29.01	-40.5	-41.6	22.1	0.00e+00	0	39	0	993001472	54	6128
2026-01-03 01:33:35.36	311.20	28.88	-39.9	-40.9	22.7	0.00e+00	91	39	0	995098624	54	5664
2026-01-03 01:33:36.37	311.42	28.74	-39.5	-40.4	23.1	0.00e+00	0	39	0	997195776	52	6005
2026-01-03 01:33:37.38	311.65	28.60	-39.3	-40.2	23.2	0.00e+00	0	39	0	998244352	52	5839
2026-01-03 01:33:38.39	311.87	28.47	-39.4	-40.3	23.1	0.00e+00	92	39	0	1000341504	52	5898
2026-01-03 01:33:39.40	312.09	28.33	-39.7	-40.7	22.7	0.00e+00	0	39	0	1002438656	52	6194
2026-01-03 01:33:40.41	312.31	28.20	-40.1	-41.1	22.4	0.00e+00	90	39	0	1004535808	52	6481
2026-01-03 01:33:41.42	312.53	28.07	-40.9	-42.0	21.8	0.00e+00	0	39	0	1006632960	52	7210
2026-01-03 01:33:42.43	312.74	27.93	-40.7	-41.8	21.9	0.00e+00	86	39	0	1007681536	54	6300
2026-01-03 01:33:43.44	312.95	27.80	-39.8	-40.7	22.1	0.00e+00	0	39	0	1009778688	54	5563
2026-01-03 01:33:44.45	313.17	27.66	-39.0	-39.9	23.5	0.00e+00	0	39	0	1011875840	52	5633
2026-01-03 01:33:45.46	313.38	27.53	-38.0	-38.9	24.2	0.00e+00	83	39	0	1013972992	50	5631
2026-01-03 01:33:46.47	313.58	27.40	-37.6	-38.4	24.4	0.00e+00	0	39	0	1016070144	48	5999
2026-01-03 01:33:47.47	313.79	27.27	-37.4	-38.2	24.6	0.00e+00	51	39	0	1017118720	48	5837
2026-01-03 01:33:48.48	313.99	27.13	-37.6	-38.4	24.3	0.00e+00	0	39	0	1019215872	48	6017
2026-01-03 01:33:49.50	314.20	27.00	-38.4	-39.3	23.8	0.00e+00	91	39	0	1021313024	48	6634
2026-01-03 01:33:50.50	314.40	26.87	-39.0	-40.0	23.0	0.00e+00	0	39	0	1023410176	50	6407
2026-01-03 01:33:51.51	314.60	26.74	-39.6	-40.6	22.6	0.00e+00	0	39	0	1025507328	50	6919
2026-01-03 01:33:52.53	314.80	26.60	-39.5	-40.5	22.9	0.00e+00	85	39	0	1026555904	50	6813
2026-01-03 01:33:53.53	314.99	26.47	-39.3	-40.2	22.7	0.00e+00	0	39	0	1028653056	50	6593
2026-01-03 01:33:54.54	315.19	26.34	-38.5	-39.3	23.8	0.00e+00	0	39	0	1030750208	50	5959
2026-01-03 01:33:55.55	315.38	26.21	-37.7	-38.5	24.4	0.00e+00	0	39	0	1032847360	50	5410
2026-01-03 01:33:56.57	315.58	26.08	-37.1	-37.8	24.9	0.00e+00	92	39	0	1034944512	48	5627
2026-01-03 01:33:57.57	315.77	25.95	-37.2	-38.0	24.7	0.00e+00	0	39	0	1035993088	48	5711
2026-01-03 01:33:58.58	315.95	25.82	-37.5	-38.3	24.4	0.00e+00	18	39	0	1038090240	48	5924
2026-01-03 01:33:59.59	316.14	25.69	-38.0	-38.8	24.0	0.00e+00	33	39	0	1040187392	48	6300
2026-01-03 01:34:00.60	316.33	25.56	-38.3	-39.1	24.0	0.00e+00	0	39	0	1042284544	48	6508
2026-01-03 01:34:01.61	316.51	25.43	-38.4	-39.3	23.8	0.00e+00	65	39	0	1044381696	48	6628
2026-01-03 01:34:02.62	316.70	25.31	-38.3	-39.2	23.9	0.00e+00	0	39	0	1045430272	48	6574
2026-01-03 01:34:03.63	316.88	25.18	-38.1	-38.9	24.0	0.00e+00	91	39	0	1047527424	48	6363
2026-01-03 01:34:04.64	317.06	25.05	-37.6	-38.4	24.6	0.00e+00	0	39	0	1049624576	48	6008
2026-01-03 01:34:05.65	317.24	24.92	-37.0	-37.8	24.9	0.00e+00	90	39	0	1051721728	48	5583
2026-01-03 01:34:06.66	317.41	24.80	-36.8	-37.5	25.1	0.00e+00	89	39	0	1053818880	48	5423
2026-01-03 01:34:07.67	317.59	24.67	-36.7	-37.4	25.2	0.00e+00	0	39	0	1055916032	46	5988
2026-01-03 01:34:08.68	317.76	24.54	-36.7	-37.5	24.9	0.00e+00	10	39	0	1056964608	46	6059
2026-01-03 01:34:09.69	317.94	24.42	-37.1	-37.9	24.8	0.00e+00	0	39	0	1059061760	46	6331
2026-01-03 01:34:10.70	318.11	24.29	-37.3	-38.1	24.5	0.00e+00	85	39	0	1061158912	46	6490
2026-01-03 01:34:11.71	318.28	24.16	-37.7	-38.5	24.3	0.00e+00	0	39	0	1063256064	46	6782
2026-01-03 01:34:12.72	318.45	24.04	-37.8	-38.6	24.2	0.00e+00	88	39	0	1065353216	48	6169
2026-01-03 01:34:13.73	318.62	23.91	-38.1	-39.0	24.2	0.00e+00	0	39	0	1066401792	48	6399
2026-01-03 01:34:14.73	318.78	23.79	-38.0	-38.8	24.0	0.00e+00	0	39	0	1068498944	48	6314
2026-01-03 01:34:15.74	318.95	23.67	-38.2	-39.0	24.1	0.00e+00	92	39	0	1070596096	48	6456
2026-01-03 01:34:16.76	319.11	23.54	-38.1	-38.9	24.0	0.00e+00	0	39	0	1072693248	48	6372
2026-01-03 01:34:17.77	319.28	23.42	-38.4	-39.3	23.8	0.00e+00	90	39	0	1074790400	48	6666
2026-01-03 01:34:18.78	319.44	23.30	-38.3	-39.2	23.8	0.00e+00	0	39	0	1075838976	48	6555
2026-01-03 01:34:19.79	319.60	23.17	-38.6	-39.5	23.7	0.00e+00	71	39	0	1077936128	48	6791
2026-01-03 01:34:20.80	319.76	23.05	-38.4	-39.3	23.7	0.00e+00	0	39	0	1080033280	48	6638
2026-01-03 01:34:21.81	319.92	22.93	-38.3	-39.2	23.8	0.00e+00	0	39	0	1082130432	48	6566
2026-01-03 01:34:22.82	320.07	22.81	-38.4	-39.2	23.8	0.00e+00	92	39	0	1084227584	48	6602
2026-01-03 01:34:23.83	320.23	22.69	-38.2	-39.0	23.9	0.00e+00	0	39	0	1085276160	48	6432
2026-01-03 01:34:24.84	320.38	22.57	-38.0	-38.8	24.0	0.00e+00	90	39	0	1087373312	48	6302
2026-01-03 01:34:25.85	320.54	22.45	-38.0	-38.8	24.1	0.00e+00	0	39	0	1089470464	48	6289
2026-01-03 01:34:26.86	320.69	22.33	-37.8	-38.6	24.2	0.00e+00	92	39	0	1091567616	48	6132
2026-01-03 01:34:27.87	320.84	22.21	-37.9	-38.7	24.2	0.00e+00	0	39	0	1093664768	48	6216
2026-01-03 01:34:28.88	320.99	22.09	-38.1	-39.0	24.0	0.00e+00	0	39	0	1094713344	48	6419
2026-01-03 01:34:29.89	321.14	21.97	-38.0	-38.8	23.9	0.00e+00	81	39	0	1096810496	48	6302
2026-01-03 01:34:30.89	321.28	21.85	-38.5	-39.4	23.6	0.00e+00	0	39	0	1098907648	48	6696
2026-01-03 01:34:31.91	321.43	21.73	-38.4	-39.3	23.7	0.00e+00	91	39	0	1101004800	48	6645
2026-01-03 01:34:32.91	321.58	21.62	-38.5	-39.3	23.7	0.00e+00	0	39	0	1103101952	48	6671
2026-01-03 01:34:33.92	321.72	21.50	-38.6	-39.5	23.6	0.00e+00	0	39	0	1104150528	48	6811
2026-01-03 01:34:34.93	321.87	21.38	-38.4	-39.3	23.8	0.00e+00	0	39	0	1106247680	48	6625
2026-01-03 01:34:35.94	322.01	21.26	-38.3	-39.2	23.8	0.00e+00	0	39	0	1108344832	48	6548
2026-01-03 01:34:36.95	322.15	21.15	-38.4	-39.2	23.8	0.00e+00	0	39	0	1110441984	48	6604
2026-01-03 01:34:37.96	322.29	21.03	-38.1	-38.9	23.9	0.00e+00	0	39	0	1112539136	48	6342
2026-01-03 01:34:38.97	322.43	20.92	-38.5	-39.3	23.6	0.00e+00	90	39	0	1113587712	48	6683
2026-01-03 01:34:39.98	322.57	20.80	-38.6	-39.5	23.6	0.00e+00	0	39	0	1115684864	48	6795
2026-01-03 01:34:40.99	322.70	20.69	-39.0	-39.9	23.3	0.00e+00	0	39	0	1117782016	50	6321
2026-01-03 01:34:42.00	322.84	20.57	-39.4	-40.4	22.9	0.00e+00	0	39	0	1119879168	50	6728
2026-01-03 01:34:43.01	322.98	20.46	-39.7	-40.7	22.5	0.00e+00	0	39	0	1121976320	50	6975
2026-01-03 01:34:44.02	323.11	20.34	-40.3	-41.4	22.2	0.00e+00	71	39	0	1124073472	52	6714
2026-01-03 01:34:45.03	323.24	20.23	-40.7	-41.9	21.7	0.00e+00	0	39	0	1125122048	54	6318
2026-01-03 01:34:46.04	323.38	20.12	-40.7	-41.9	21.6	0.00e+00	72	39	0	1127219200	54	6342
2026-01-03 01:34:47.05	323.51	20.00	-40.7	-41.9	21.5	0.00e+00	0	39	0	1129316352	54	6345
2026-01-03 01:34:48.06	323.64	19.89	-40.4	-41.5	21.9	0.00e+00	9	39	0	1131413504	54	6099
2026-01-03 01:34:49.07	323.77	19.78	-40.2	-41.3	22.2	0.00e+00	0	39	0	1133510656	54	5903
2026-01-03 01:34:50.08	323.90	19.67	-40.1	-41.2	22.2	0.00e+00	0	39	0	1134559232	54	5880
2026-01-03 01:34:51.09	324.03	19.56	-39.5	-40.5	22.7	0.00e+00	0	39	0	1136656384	52	6091
2026-01-03 01:34:52.10	324.15	19.45	-39.5	-40.5	22.8	0.00e+00	0	39	0	1138753536	52	6076
2026-01-03 01:34:53.11	324.28	19.34	-39.3	-40.2	22.9	0.00e+00	83	39	0	1140850688	52	5872
2026-01-03 01:34:54.12	324.40	19.23	-39.5	-40.4	22.8	0.00e+00	0	39	0	1142947840	52	6019
2026-01-03 01:34:55.13	324.53	19.12	-39.2	-40.1	23.0	0.00e+00	70	39	0	1143996416	52	5799
2026-01-03 01:34:56.14	324.65	19.01	-39.5	-40.5	22.8	0.00e+00	33	39	0	1146093568	52	6037
2026-01-03 01:34:57.15	324.77	18.90	-39.6	-40.5	22.7	0.00e+00	33	39	0	1148190720	52	6095
2026-01-03 01:34:58.16	324.90	18.79	-39.8	-40.8	22.4	0.00e+00	0	39	0	1150287872	52	6284
2026-01-03 01:34:59.17	325.02	18.68	-40.1	-41.1	22.1	0.00e+00	0	39	0	1152385024	52	6507
2026-01-03 01:35:00.18	325.14	18.57	-40.1	-41.2	22.1	0.00e+00	89	39	0	1153433600	52	6550
2026-01-03 01:35:01.19	325.26	18.47	-40.4	-41.5	21.8	0.00e+00	0	39	0	1155530752	52	6801
2026-01-03 01:35:02.20	325.38	18.36	-40.3	-41.4	21.9	0.00e+00	92	39	0	1157627904	52	6701
2026-01-03 01:35:03.21	325.49	18.25	-40.0	-41.1	22.3	0.00e+00	0	39	0	1159725056	52	6483
2026-01-03 01:35:04.22	325.61	18.15	-40.0	-41.0	22.3	0.00e+00	0	39	0	1161822208	52	6425
2026-01-03 01:35:05.23	325.73	18.04	-39.9	-40.9	22.5	0.00e+00	0	39	0	1162870784	52	6347
2026-01-03 01:35:06.24	325.84	17.93	-39.7	-40.7	22.4	0.00e+00	0	39	0	1164967936	52	6236
2026-01-03 01:35:07.25	325.96	17.83	-39.9	-40.9	22.4	0.00e+00	38	39	0	1167065088	52	6377
2026-01-03 01:35:08.26	326.07	17.72	-39.6	-40.6	22.7	0.00e+00	0	39	0	1169162240	52	6127
2026-01-03 01:35:09.27	326.18	17.62	-39.6	-40.6	22.6	0.00e+00	85	39	0	1171259392	52	6151
2026-01-03 01:35:10.28	326.30	17.51	-39.5	-40.4	22.8	0.00e+00	0	39	0	1172307968	52	6025
2026-01-03 01:35:11.29	326.41	17.41	-39.4	-40.4	22.9	0.00e+00	0	39	0	1174405120	52	5966
2026-01-03 01:35:12.29	326.52	17.31	-39.6	-40.5	22.6	0.00e+00	0	39	0	1176502272	52	6087
2026-01-03 01:35:13.30	326.63	17.20	-39.4	-40.4	22.7	0.00e+00	0	39	0	1178599424	52	6004
2026-01-03 01:35:14.31	326.74	17.10	-39.5	-40.5	22.6	0.00e+00	0	39	0	1180696576	52	6089
2026-01-03 01:35:15.32	326.85	17.00	-39.8	-40.8	22.5	0.00e+00	0	39	0	1181745152	52	6269
2026-01-03 01:35:16.33	326.95	16.89	-39.6	-40.6	22.5	0.00e+00	87	39	0	1183842304	52	6129
2026-01-03 01:35:17.34	327.06	16.79	-39.8	-40.8	22.4	0.00e+00	0	39	0	1185939456	52	6265
2026-01-03 01:35:18.35	327.17	16.69	-39.5	-40.5	22.7	0.00e+00	33	39	0	1188036608	52	6062
2026-01-03 01:35:19.36	327.27	16.59	-39.5	-40.5	22.7	0.00e+00	0	39	0	1190133760	52	6066
2026-01-03 01:35:20.37	327.38	16.49	-39.8	-40.8	22.4	0.00e+00	0	39	0	1192230912	52	6307
2026-01-03 01:35:21.38	327.48	16.39	-39.5	-40.5	22.6	0.00e+00	0	39	0	1193279488	52	6038
2026-01-03 01:35:22.39	327.59	16.29	-39.5	-40.5	22.7	0.00e+00	0	39	0	1195376640	52	6087
