passes_logs/2026/01/03/R4.6S_Anadyr/R4.6S_Anadyr__20260103_202804_NOAA_20_JPSS-1_rec.log

#Pass ID: 20260103_202804_NOAA 20 (JPSS-1)
#Satellite: NOAA 20 (JPSS-1)
#Configuration: NOAA 20
#almurnet v.1.7.20251203
#Start time: 2026-01-03 20:28:07

#Version: 2.2.20231116
#Station: R4.6S_Anadyr
#Location: 177.4865 lon 64.73178 lat
#TLE: 1 43013U 17073A   26003.41800368  .00000169  00000+0  10117-3 0  9998
#TLE: 2 43013  98.7624 304.4804 0001884  56.1176 304.0179 14.19532918421092

#Time	Az	El	Level	Level2	SNR	BER	BlckErr	Temp	State	Recorded	gain1	gain2
2026-01-03 20:28:07.03	70.61	0.10	-51.9	-66.8	3.5	1.51e+00	0	36	0	0	60	78925
2026-01-03 20:28:08.04	70.54	0.15	-51.4	-66.7	3.6	1.51e+00	0	37	104	0	60	77760
2026-01-03 20:28:09.05	70.47	0.20	-51.1	-66.3	3.6	1.51e+00	0	37	104	0	60	74809
2026-01-03 20:28:10.06	70.39	0.25	-50.8	-66.0	3.6	1.51e+00	0	37	104	0	60	72451
2026-01-03 20:28:11.07	70.32	0.30	-50.5	-65.8	3.5	1.51e+00	0	37	104	0	60	70196
2026-01-03 20:28:12.07	70.25	0.35	-51.0	-66.2	3.6	1.51e+00	0	38	104	0	60	73478
2026-01-03 20:28:13.08	70.17	0.40	-50.6	-65.8	3.6	1.51e+00	0	38	104	0	60	70680
2026-01-03 20:28:14.09	70.10	0.45	-51.1	-66.3	3.6	1.51e+00	0	38	104	0	60	74710
2026-01-03 20:28:15.11	70.02	0.51	-51.5	-66.7	3.6	1.51e+00	0	38	104	0	60	78098
2026-01-03 20:28:16.11	69.95	0.56	-52.1	-67.3	3.5	1.51e+00	0	38	104	0	60	83669
2026-01-03 20:28:17.13	69.87	0.61	-51.8	-67.0	3.6	1.51e+00	0	38	104	0	60	80842
2026-01-03 20:28:18.13	69.80	0.66	-51.5	-66.8	3.6	1.51e+00	0	38	104	0	60	79511
2026-01-03 20:28:19.14	69.72	0.71	-52.1	-67.4	3.6	1.51e+00	0	38	104	0	60	84513
2026-01-03 20:28:20.15	69.65	0.76	-50.9	-66.1	3.5	1.51e+00	0	38	104	0	60	72900
2026-01-03 20:28:21.16	69.57	0.81	-50.6	-65.9	3.6	1.51e+00	0	38	104	0	60	71023
2026-01-03 20:28:22.16	69.49	0.86	-50.5	-65.7	3.6	1.51e+00	0	38	104	0	60	69922
2026-01-03 20:28:23.18	69.42	0.91	-50.0	-65.2	3.6	1.51e+00	0	38	104	0	60	65570
2026-01-03 20:28:24.19	69.34	0.96	-49.6	-64.8	3.6	1.51e+00	0	38	104	0	60	62812
2026-01-03 20:28:25.20	69.26	1.01	-48.7	-63.8	3.6	1.51e+00	0	38	104	0	60	56278
2026-01-03 20:28:26.20	69.19	1.06	-48.8	-64.0	3.6	1.51e+00	0	38	104	0	60	57207
2026-01-03 20:28:27.21	69.11	1.11	-48.6	-63.8	3.6	1.51e+00	0	38	104	0	60	55688
2026-01-03 20:28:28.22	69.03	1.16	-48.6	-63.8	3.6	1.51e+00	0	38	104	0	60	55665
2026-01-03 20:28:29.23	68.95	1.22	-48.5	-63.7	3.6	1.51e+00	0	38	104	0	60	55330
2026-01-03 20:28:30.24	68.87	1.27	-48.4	-63.6	3.6	1.51e+00	0	38	104	0	60	54816
2026-01-03 20:28:31.25	68.79	1.32	-48.9	-64.1	3.6	1.51e+00	0	38	104	0	60	57843
2026-01-03 20:28:32.26	68.71	1.37	-48.6	-63.8	3.6	1.51e+00	0	38	104	0	60	55821
2026-01-03 20:28:33.27	68.63	1.42	-49.0	-64.2	3.6	1.51e+00	0	38	104	0	60	58497
2026-01-03 20:28:34.27	68.55	1.47	-48.9	-64.0	3.6	1.51e+00	0	38	104	0	60	57584
2026-01-03 20:28:35.28	68.47	1.52	-48.7	-63.8	3.6	1.51e+00	0	38	104	0	60	56304
2026-01-03 20:28:36.29	68.39	1.57	-48.5	-63.7	3.6	1.51e+00	0	38	104	0	60	55492
2026-01-03 20:28:37.30	68.31	1.63	-48.7	-63.8	3.6	1.51e+00	0	38	104	0	60	55867
2026-01-03 20:28:38.31	68.23	1.68	-49.0	-64.1	3.6	1.51e+00	0	38	104	0	60	57866
2026-01-03 20:28:39.32	68.15	1.73	-48.7	-63.9	3.6	1.51e+00	0	38	104	0	60	56423
2026-01-03 20:28:40.33	68.07	1.78	-48.7	-63.8	3.6	1.51e+00	0	38	104	0	60	55994
2026-01-03 20:28:41.34	67.99	1.83	-48.6	-63.8	3.6	1.51e+00	0	38	104	0	60	55825
2026-01-03 20:28:42.35	67.91	1.88	-48.6	-63.8	3.6	1.51e+00	0	38	104	0	60	55669
2026-01-03 20:28:43.36	67.82	1.93	-48.9	-64.0	3.6	1.51e+00	0	38	104	0	60	57059
2026-01-03 20:28:44.37	67.74	1.99	-48.6	-63.7	3.6	1.51e+00	0	38	104	0	60	55507
2026-01-03 20:28:45.37	67.66	2.04	-48.5	-63.5	3.6	1.51e+00	0	38	104	0	60	54087
2026-01-03 20:28:46.39	67.57	2.09	-48.4	-63.2	3.6	1.51e+00	0	38	104	0	60	52501
2026-01-03 20:28:47.39	67.49	2.14	-48.5	-63.5	3.6	1.51e+00	0	38	104	0	60	53773
2026-01-03 20:28:48.41	67.41	2.19	-48.6	-63.4	3.6	1.51e+00	0	38	104	0	60	53669
2026-01-03 20:28:49.41	67.32	2.24	-48.5	-63.6	3.6	1.51e+00	0	38	104	0	60	54511
2026-01-03 20:28:50.42	67.24	2.30	-48.5	-63.6	3.6	1.51e+00	0	38	104	0	60	54734
2026-01-03 20:28:51.43	67.15	2.35	-48.5	-63.7	3.6	1.51e+00	0	38	104	0	60	55063
2026-01-03 20:28:52.44	67.07	2.40	-48.6	-63.7	3.6	1.51e+00	0	38	104	0	60	55205
2026-01-03 20:28:53.44	66.98	2.45	-48.7	-63.8	3.6	1.51e+00	0	38	104	0	60	55823
2026-01-03 20:28:54.45	66.90	2.50	-48.7	-63.9	3.6	1.51e+00	0	38	104	0	60	56746
2026-01-03 20:28:55.46	66.81	2.56	-48.8	-64.0	3.6	1.51e+00	0	38	104	0	60	56998
2026-01-03 20:28:56.47	66.72	2.61	-48.6	-63.6	3.6	1.51e+00	0	38	104	0	60	54486
2026-01-03 20:28:57.48	66.64	2.66	-48.6	-62.9	3.6	1.51e+00	0	38	104	0	60	50576
2026-01-03 20:28:58.49	66.55	2.71	-48.5	-62.7	3.6	1.51e+00	0	38	104	0	60	49282
2026-01-03 20:28:59.50	66.46	2.76	-48.6	-63.3	3.6	1.51e+00	0	38	104	0	60	52790
2026-01-03 20:29:00.51	66.38	2.82	-48.6	-63.5	3.6	1.51e+00	0	38	104	0	60	54217
2026-01-03 20:29:01.52	66.29	2.87	-48.7	-63.1	3.6	1.51e+00	0	38	104	0	60	51735
2026-01-03 20:29:02.53	66.20	2.92	-48.3	-60.4	3.7	1.51e+00	0	38	104	0	60	37704
2026-01-03 20:29:03.54	66.11	2.97	-48.0	-56.7	5.7	6.83e-01	92	38	0	0	60	24844
2026-01-03 20:29:04.55	66.02	3.03	-47.6	-54.3	7.2	2.68e-01	92	38	0	2097152	60	18853
2026-01-03 20:29:05.56	65.93	3.08	-47.6	-54.0	7.9	1.59e-02	0	38	0	3145728	60	18137
2026-01-03 20:29:06.57	65.84	3.13	-48.3	-58.2	3.8	3.24e-01	2	38	0	5242880	60	29283
2026-01-03 20:29:07.58	65.75	3.18	-47.6	-54.5	5.3	1.51e+00	0	38	104	5242880	60	19089
2026-01-03 20:29:08.58	65.66	3.23	-44.7	-47.1	16.0	6.14e-01	92	38	104	5242880	60	8178
2026-01-03 20:29:09.59	65.57	3.29	-46.4	-50.0	9.5	2.26e-04	35	38	0	6291456	60	11486
2026-01-03 20:29:10.61	65.48	3.34	-48.9	-63.0	3.7	1.51e+00	0	38	104	6291456	60	50849
2026-01-03 20:29:11.62	65.39	3.39	-47.4	-52.5	9.7	4.52e-01	92	38	104	6291456	60	15309
2026-01-03 20:29:12.62	65.30	3.44	-45.0	-47.4	16.2	3.75e-04	67	38	0	7340032	60	8483
2026-01-03 20:29:13.63	65.21	3.50	-47.2	-51.7	10.8	5.52e-03	92	38	0	9437184	60	13941
2026-01-03 20:29:14.64	65.11	3.55	-46.4	-50.1	11.8	4.26e-02	66	38	0	11534336	60	11603
2026-01-03 20:29:15.65	65.02	3.60	-47.0	-51.2	14.1	4.92e-04	92	38	0	13631488	60	13191
2026-01-03 20:29:16.66	64.93	3.66	-47.3	-51.5	12.6	1.83e-03	72	38	0	14680064	60	13605
2026-01-03 20:29:17.66	64.83	3.71	-47.8	-52.7	7.1	2.21e-03	92	38	0	16777216	60	15647
2026-01-03 20:29:18.67	64.74	3.76	-47.6	-52.1	14.1	2.22e-02	92	38	0	18874368	60	14606
2026-01-03 20:29:19.68	64.65	3.81	-45.7	-48.2	14.4	3.86e-03	83	38	0	20971520	60	9269
2026-01-03 20:29:20.69	64.55	3.87	-47.7	-53.1	10.4	1.63e-02	90	38	0	23068672	60	16350
2026-01-03 20:29:21.70	64.46	3.92	-47.8	-53.7	11.0	8.88e-03	10	38	0	25165824	60	17496
2026-01-03 20:29:22.70	64.36	3.97	-46.8	-50.8	11.2	2.48e-03	92	38	0	26214400	60	12562
2026-01-03 20:29:23.71	64.27	4.02	-47.0	-51.6	11.2	6.99e-04	0	38	0	28311552	60	13696
2026-01-03 20:29:24.72	64.17	4.08	-46.7	-50.9	11.9	1.52e-03	92	39	0	30408704	60	12744
2026-01-03 20:29:25.73	64.08	4.13	-45.3	-48.1	14.9	2.20e-06	86	38	0	32505856	60	9195
2026-01-03 20:29:26.74	63.98	4.18	-44.5	-46.9	16.3	0.00e+00	90	38	0	33554432	60	7979
2026-01-03 20:29:27.75	63.88	4.24	-44.4	-46.6	16.5	0.00e+00	92	38	0	35651584	60	7765
2026-01-03 20:29:28.76	63.78	4.29	-44.6	-46.8	16.9	0.00e+00	13	38	0	37748736	60	7873
2026-01-03 20:29:29.76	63.69	4.34	-44.7	-47.1	16.3	0.00e+00	92	38	0	39845888	60	8148
2026-01-03 20:29:30.77	63.59	4.40	-44.1	-46.1	17.5	0.00e+00	12	38	0	41943040	60	7301
2026-01-03 20:29:31.78	63.49	4.45	-44.4	-46.5	16.9	0.00e+00	91	38	0	42991616	60	7668
2026-01-03 20:29:32.79	63.39	4.50	-44.5	-46.7	16.7	0.00e+00	2	38	0	45088768	60	7852
2026-01-03 20:29:33.80	63.29	4.56	-44.2	-46.2	17.5	0.00e+00	91	38	0	47185920	60	7366
2026-01-03 20:29:34.80	63.19	4.61	-44.3	-46.4	17.3	0.00e+00	92	38	0	49283072	60	7556
2026-01-03 20:29:35.81	63.09	4.66	-44.2	-46.3	17.1	0.00e+00	13	38	0	51380224	60	7433
2026-01-03 20:29:36.83	62.99	4.72	-44.2	-46.2	17.2	0.00e+00	91	38	0	53477376	60	7406
2026-01-03 20:29:37.84	62.89	4.77	-44.5	-46.8	16.5	0.00e+00	73	38	0	54525952	60	7895
2026-01-03 20:29:38.85	62.79	4.82	-44.6	-46.8	17.0	0.00e+00	91	38	0	56623104	60	7915
2026-01-03 20:29:39.86	62.69	4.88	-44.9	-47.0	17.1	0.00e+00	79	38	0	58720256	60	8131
2026-01-03 20:29:40.87	62.59	4.93	-44.2	-46.2	17.5	0.00e+00	91	38	0	60817408	60	7361
2026-01-03 20:29:41.87	62.49	4.98	-44.4	-46.5	17.8	0.00e+00	91	38	0	62914560	60	7649
2026-01-03 20:29:42.88	62.38	5.03	-44.3	-46.3	17.5	0.00e+00	58	38	0	63963136	60	7474
2026-01-03 20:29:43.89	62.28	5.09	-44.0	-45.9	17.8	0.00e+00	91	38	0	66060288	60	7149
2026-01-03 20:29:44.90	62.18	5.14	-44.0	-46.0	17.4	0.00e+00	0	38	0	68157440	60	7218
2026-01-03 20:29:45.91	62.07	5.20	-44.1	-46.1	17.5	0.00e+00	92	38	0	70254592	60	7304
2026-01-03 20:29:46.92	61.97	5.25	-44.0	-45.9	17.5	0.00e+00	0	38	0	72351744	60	7141
2026-01-03 20:29:47.93	61.87	5.30	-44.2	-46.2	17.6	0.00e+00	90	38	0	73400320	60	7404
2026-01-03 20:29:48.94	61.76	5.36	-43.5	-45.3	18.1	0.00e+00	78	38	0	75497472	60	6661
2026-01-03 20:29:49.95	61.66	5.41	-43.4	-45.2	18.1	0.00e+00	20	38	0	77594624	60	6594
2026-01-03 20:29:50.96	61.55	5.46	-43.5	-45.3	18.1	0.00e+00	92	38	0	79691776	60	6618
2026-01-03 20:29:51.97	61.44	5.52	-43.4	-45.2	18.2	0.00e+00	19	38	0	81788928	60	6573
2026-01-03 20:29:52.98	61.34	5.57	-44.1	-45.8	18.4	0.00e+00	92	38	0	82837504	60	7042
2026-01-03 20:29:53.99	61.23	5.62	-44.1	-45.9	18.2	0.00e+00	19	38	0	84934656	60	7133
2026-01-03 20:29:54.99	61.12	5.68	-43.6	-45.3	18.5	0.00e+00	92	38	0	87031808	60	6658
2026-01-03 20:29:56.00	61.02	5.73	-43.5	-45.3	18.5	0.00e+00	90	38	0	89128960	60	6623
2026-01-03 20:29:57.01	60.91	5.78	-43.5	-45.3	18.5	0.00e+00	92	38	0	91226112	60	6628
2026-01-03 20:29:58.02	60.80	5.84	-43.3	-45.1	18.5	0.00e+00	92	38	0	92274688	60	6466
2026-01-03 20:29:59.03	60.69	5.89	-43.4	-45.1	18.5	0.00e+00	66	38	0	94371840	60	6489
2026-01-03 20:30:00.04	60.58	5.95	-43.0	-44.7	18.7	0.00e+00	92	38	0	96468992	60	6204
2026-01-03 20:30:01.05	60.47	6.00	-43.5	-45.3	18.1	0.00e+00	2	38	0	98566144	60	6677
2026-01-03 20:30:02.06	60.36	6.05	-43.2	-44.9	18.9	0.00e+00	92	39	0	100663296	60	6337
2026-01-03 20:30:03.06	60.25	6.11	-43.4	-45.1	18.4	0.00e+00	0	38	0	101711872	60	6506
2026-01-03 20:30:04.07	60.14	6.16	-43.3	-45.0	18.4	0.00e+00	92	38	0	103809024	60	6443
2026-01-03 20:30:05.08	60.03	6.21	-43.2	-44.8	18.7	0.00e+00	92	38	0	105906176	60	6314
2026-01-03 20:30:06.09	59.92	6.27	-43.3	-45.0	18.6	0.00e+00	0	38	0	108003328	60	6391
2026-01-03 20:30:07.10	59.80	6.32	-43.6	-45.2	19.0	0.00e+00	92	39	0	110100480	60	6583
2026-01-03 20:30:08.11	59.69	6.37	-43.7	-45.3	18.6	0.00e+00	0	39	0	111149056	60	6677
2026-01-03 20:30:09.12	59.58	6.43	-43.5	-45.1	19.0	0.00e+00	92	39	0	113246208	60	6475
2026-01-03 20:30:10.13	59.47	6.48	-43.4	-45.0	18.9	0.00e+00	0	39	0	115343360	60	6434
2026-01-03 20:30:11.14	59.35	6.54	-43.5	-45.1	19.0	0.00e+00	92	39	0	117440512	60	6531
2026-01-03 20:30:12.15	59.24	6.59	-43.6	-45.2	18.9	0.00e+00	92	38	0	119537664	60	6547
2026-01-03 20:30:13.16	59.12	6.64	-43.2	-44.7	19.0	0.00e+00	0	38	0	121634816	60	6244
2026-01-03 20:30:14.17	59.01	6.70	-43.4	-45.0	18.7	0.00e+00	92	39	0	122683392	60	6423
2026-01-03 20:30:15.18	58.89	6.75	-43.3	-44.9	18.9	0.00e+00	20	39	0	124780544	60	6335
2026-01-03 20:30:16.19	58.77	6.81	-42.9	-44.4	19.3	0.00e+00	92	39	0	126877696	60	6028
2026-01-03 20:30:17.20	58.66	6.86	-43.0	-44.6	19.3	0.00e+00	21	39	0	128974848	60	6122
2026-01-03 20:30:18.20	58.54	6.91	-43.0	-44.4	19.8	0.00e+00	92	39	0	131072000	58	6754
2026-01-03 20:30:19.21	58.42	6.97	-43.6	-45.2	18.6	0.00e+00	2	39	0	132120576	60	6609
2026-01-03 20:30:20.22	58.31	7.02	-43.0	-44.5	17.2	0.00e+00	21	39	0	134217728	60	6059
2026-01-03 20:30:21.23	58.19	7.07	-43.1	-44.6	19.1	0.00e+00	92	39	0	136314880	60	6131
2026-01-03 20:30:22.24	58.07	7.13	-42.7	-44.2	19.6	0.00e+00	60	39	0	138412032	60	5837
2026-01-03 20:30:23.25	57.95	7.18	-43.0	-44.6	19.2	0.00e+00	92	39	0	140509184	58	6855
2026-01-03 20:30:24.26	57.83	7.24	-42.5	-43.9	19.7	0.00e+00	59	39	0	141557760	58	6353
2026-01-03 20:30:25.27	57.71	7.29	-42.6	-44.1	19.5	0.00e+00	92	39	0	143654912	58	6467
2026-01-03 20:30:26.28	57.59	7.34	-43.5	-45.0	19.1	0.00e+00	0	39	0	145752064	60	6464
2026-01-03 20:30:27.28	57.47	7.40	-42.9	-44.3	19.7	0.00e+00	0	39	0	147849216	60	5948
2026-01-03 20:30:28.29	57.35	7.45	-44.4	-46.0	18.7	0.00e+00	90	39	0	149946368	60	7246
2026-01-03 20:30:29.30	57.23	7.50	-43.8	-45.5	18.7	0.00e+00	0	39	0	150994944	60	6797
2026-01-03 20:30:30.31	57.10	7.56	-43.2	-44.7	19.4	0.00e+00	92	39	0	153092096	60	6216
2026-01-03 20:30:31.32	56.98	7.61	-43.1	-44.6	19.5	0.00e+00	0	39	0	155189248	60	6141
2026-01-03 20:30:32.32	56.86	7.66	-42.9	-44.4	19.5	0.00e+00	92	39	0	157286400	60	5979
2026-01-03 20:30:33.34	56.73	7.72	-43.2	-44.7	19.6	0.00e+00	0	39	0	159383552	60	6222
2026-01-03 20:30:34.35	56.61	7.77	-43.5	-45.1	16.5	0.00e+00	0	39	0	160432128	60	6485
2026-01-03 20:30:35.35	56.48	7.83	-44.7	-46.5	19.3	0.00e+00	92	39	0	162529280	60	7663
2026-01-03 20:30:36.36	56.36	7.88	-43.4	-45.0	19.3	0.00e+00	19	39	0	164626432	60	6393
2026-01-03 20:30:37.37	56.23	7.93	-43.1	-44.6	19.5	0.00e+00	92	39	0	166723584	60	6106
2026-01-03 20:30:38.38	56.11	7.99	-42.8	-44.2	19.8	0.00e+00	0	39	0	168820736	60	5892
2026-01-03 20:30:39.39	55.98	8.04	-43.0	-44.4	19.4	0.00e+00	92	39	0	169869312	58	6748
2026-01-03 20:30:40.40	55.85	8.09	-44.2	-45.8	19.1	0.00e+00	20	39	0	171966464	60	7022
2026-01-03 20:30:41.40	55.73	8.15	-44.2	-45.8	18.8	0.00e+00	92	39	0	174063616	60	7071
2026-01-03 20:30:42.41	55.60	8.20	-43.9	-45.4	19.3	7.00e-07	0	39	0	176160768	60	6726
2026-01-03 20:30:43.42	55.47	8.25	-45.6	-47.8	17.9	0.00e+00	0	39	0	178257920	60	8880
2026-01-03 20:30:44.43	55.34	8.31	-43.9	-45.6	18.7	0.00e+00	90	39	0	179306496	60	6852
2026-01-03 20:30:45.44	55.21	8.36	-43.0	-44.5	19.5	0.00e+00	19	39	0	181403648	60	6042
2026-01-03 20:30:46.45	55.08	8.41	-42.7	-44.2	19.5	0.00e+00	92	39	0	183500800	58	6557
2026-01-03 20:30:47.46	54.95	8.47	-42.9	-44.5	19.2	0.00e+00	62	38	0	185597952	58	6786
2026-01-03 20:30:48.46	54.82	8.52	-42.5	-43.9	19.9	0.00e+00	90	39	0	187695104	58	6353
2026-01-03 20:30:49.47	54.69	8.57	-42.6	-44.0	19.7	0.00e+00	62	39	0	188743680	58	6464
2026-01-03 20:30:50.48	54.56	8.63	-42.5	-44.0	19.6	0.00e+00	0	38	0	190840832	58	6412
2026-01-03 20:30:51.49	54.42	8.68	-42.2	-43.6	19.8	0.00e+00	90	39	0	192937984	58	6154
2026-01-03 20:30:52.50	54.29	8.73	-42.4	-43.9	19.7	0.00e+00	2	39	0	195035136	58	6330
2026-01-03 20:30:53.50	54.16	8.79	-42.5	-44.0	19.8	0.00e+00	92	39	0	197132288	58	6438
2026-01-03 20:30:54.51	54.02	8.84	-42.2	-43.6	19.9	0.00e+00	3	39	0	198180864	58	6139
2026-01-03 20:30:55.52	53.89	8.89	-42.2	-43.6	19.9	0.00e+00	90	39	0	200278016	58	6146
2026-01-03 20:30:56.53	53.75	8.95	-42.3	-43.8	19.6	0.00e+00	6	39	0	202375168	58	6268
2026-01-03 20:30:57.54	53.62	9.00	-42.3	-43.7	19.8	0.00e+00	92	39	0	204472320	58	6212
2026-01-03 20:30:58.54	53.48	9.05	-42.6	-44.0	19.5	0.00e+00	46	39	0	206569472	58	6445
2026-01-03 20:30:59.55	53.35	9.10	-42.6	-44.1	19.6	0.00e+00	18	39	0	207618048	58	6503
2026-01-03 20:31:00.56	53.21	9.16	-42.5	-44.0	19.7	0.00e+00	92	39	0	209715200	58	6429
2026-01-03 20:31:01.57	53.07	9.21	-42.4	-43.9	19.5	0.00e+00	2	39	0	211812352	58	6333
2026-01-03 20:31:02.58	52.94	9.26	-42.5	-43.9	19.7	0.00e+00	92	39	0	213909504	58	6373
2026-01-03 20:31:03.58	52.80	9.31	-42.4	-43.9	19.6	0.00e+00	19	39	0	216006656	58	6350
2026-01-03 20:31:04.59	52.66	9.37	-42.4	-43.9	19.6	0.00e+00	92	39	0	218103808	58	6348
2026-01-03 20:31:05.60	52.52	9.42	-43.4	-45.2	18.4	0.00e+00	2	39	0	219152384	58	7345
2026-01-03 20:31:06.61	52.38	9.47	-42.2	-43.6	20.0	0.00e+00	65	39	0	221249536	58	6133
2026-01-03 20:31:07.62	52.24	9.53	-42.3	-43.6	20.1	0.00e+00	92	39	0	223346688	58	6159
2026-01-03 20:31:08.63	52.10	9.58	-42.4	-43.8	20.0	0.00e+00	67	39	0	225443840	58	6285
2026-01-03 20:31:09.64	51.96	9.63	-42.1	-43.5	20.1	0.00e+00	92	39	0	226492416	58	6078
2026-01-03 20:31:10.65	51.81	9.68	-42.2	-43.6	20.0	0.00e+00	5	39	0	228589568	58	6108
2026-01-03 20:31:11.66	51.67	9.74	-42.2	-43.5	20.2	0.00e+00	92	39	0	230686720	58	6090
2026-01-03 20:31:12.67	51.53	9.79	-42.2	-43.6	20.0	0.00e+00	0	39	0	232783872	58	6172
2026-01-03 20:31:13.67	51.39	9.84	-42.0	-43.4	20.0	0.00e+00	90	39	0	234881024	58	5978
2026-01-03 20:31:14.68	51.24	9.89	-42.2	-43.6	19.8	0.00e+00	73	39	0	235929600	58	6162
2026-01-03 20:31:15.69	51.10	9.94	-42.4	-43.8	19.9	0.00e+00	6	39	0	238026752	58	6307
2026-01-03 20:31:16.70	50.95	10.00	-42.3	-43.7	19.8	0.00e+00	92	39	0	240123904	58	6174
2026-01-03 20:31:17.71	50.80	10.05	-42.0	-43.4	20.0	0.00e+00	6	39	0	242221056	58	5974
2026-01-03 20:31:18.72	50.66	10.10	-42.5	-43.9	20.0	0.00e+00	92	39	0	244318208	58	6364
2026-01-03 20:31:19.73	50.51	10.15	-42.1	-43.4	20.1	0.00e+00	3	39	0	246415360	58	6018
2026-01-03 20:31:20.74	50.36	10.20	-42.0	-43.4	20.1	0.00e+00	92	39	0	247463936	58	5992
2026-01-03 20:31:21.74	50.22	10.25	-42.0	-43.4	20.1	0.00e+00	39	39	0	249561088	58	5977
2026-01-03 20:31:22.75	50.07	10.31	-42.6	-44.1	19.7	0.00e+00	22	39	0	251658240	58	6470
2026-01-03 20:31:23.76	49.92	10.36	-42.2	-43.5	20.2	0.00e+00	92	39	0	253755392	58	6076
2026-01-03 20:31:24.77	49.77	10.41	-42.0	-43.3	20.2	0.00e+00	0	39	0	255852544	58	5950
2026-01-03 20:31:25.78	49.62	10.46	-41.9	-43.3	20.1	0.00e+00	90	39	0	256901120	58	5910
2026-01-03 20:31:26.79	49.47	10.51	-41.8	-43.1	20.3	0.00e+00	22	39	0	258998272	56	6534
2026-01-03 20:31:27.80	49.32	10.56	-41.7	-43.0	20.4	0.00e+00	92	39	0	261095424	56	6455
2026-01-03 20:31:28.81	49.17	10.61	-41.9	-43.2	20.1	0.00e+00	0	39	0	263192576	56	6581
2026-01-03 20:31:29.82	49.01	10.66	-42.1	-43.5	20.0	0.00e+00	61	39	0	265289728	56	6806
2026-01-03 20:31:30.83	48.86	10.71	-41.9	-43.2	20.3	0.00e+00	92	39	0	266338304	56	6569
2026-01-03 20:31:31.83	48.71	10.77	-42.0	-43.4	20.2	0.00e+00	23	39	0	268435456	56	6701
2026-01-03 20:31:32.84	48.56	10.82	-41.7	-42.9	20.6	0.00e+00	92	39	0	270532608	56	6384
2026-01-03 20:31:33.85	48.40	10.87	-42.4	-43.8	19.7	0.00e+00	0	39	0	272629760	56	7040
2026-01-03 20:31:34.86	48.25	10.92	-41.8	-43.1	20.3	0.00e+00	92	39	0	274726912	56	6532
2026-01-03 20:31:35.87	48.09	10.97	-43.5	-45.1	19.3	0.00e+00	59	39	0	275775488	58	7326
2026-01-03 20:31:36.88	47.94	11.02	-42.3	-43.7	20.2	0.00e+00	92	39	0	277872640	58	6198
2026-01-03 20:31:37.89	47.78	11.07	-41.9	-43.2	20.6	0.00e+00	70	39	0	279969792	58	5890
2026-01-03 20:31:38.90	47.62	11.12	-42.8	-44.3	20.6	0.00e+00	2	39	0	282066944	58	6631
2026-01-03 20:31:39.91	47.46	11.17	-41.4	-42.6	20.8	0.00e+00	92	39	0	284164096	56	6133
2026-01-03 20:31:40.92	47.31	11.22	-41.5	-42.7	21.3	0.00e+00	0	39	0	285212672	56	6232
2026-01-03 20:31:41.93	47.15	11.27	-42.0	-43.3	19.1	0.00e+00	92	39	0	287309824	56	6626
2026-01-03 20:31:42.93	46.99	11.32	-42.0	-43.2	20.6	0.00e+00	0	39	0	289406976	56	6613
2026-01-03 20:31:43.94	46.83	11.37	-41.5	-42.7	21.4	0.00e+00	92	39	0	291504128	56	6194
2026-01-03 20:31:44.95	46.67	11.42	-43.4	-45.0	19.5	0.00e+00	0	39	0	293601280	60	6428
2026-01-03 20:31:45.96	46.51	11.46	-41.1	-42.2	21.7	0.00e+00	22	39	0	294649856	56	5882
2026-01-03 20:31:46.97	46.35	11.51	-41.0	-42.0	21.9	0.00e+00	92	39	0	296747008	54	6461
2026-01-03 20:31:47.98	46.18	11.56	-40.6	-41.6	22.0	0.00e+00	22	39	0	298844160	54	6159
2026-01-03 20:31:48.99	46.02	11.61	-40.6	-41.7	21.8	0.00e+00	92	39	0	300941312	54	6203
2026-01-03 20:31:50.00	45.86	11.66	-40.5	-41.6	22.0	0.00e+00	23	39	0	303038464	54	6144
2026-01-03 20:31:51.01	45.69	11.71	-40.6	-41.6	21.9	0.00e+00	92	39	0	304087040	54	6161
2026-01-03 20:31:52.02	45.53	11.76	-40.7	-41.8	21.8	0.00e+00	4	39	0	306184192	54	6317
2026-01-03 20:31:53.03	45.37	11.81	-40.8	-41.9	21.9	0.00e+00	92	39	0	308281344	54	6379
2026-01-03 20:31:54.03	45.20	11.85	-41.0	-42.0	21.9	0.00e+00	61	39	0	310378496	56	5748
2026-01-03 20:31:55.04	45.04	11.90	-41.0	-42.1	22.0	0.00e+00	5	39	0	312475648	56	5768
2026-01-03 20:31:56.05	44.87	11.95	-40.7	-41.7	21.8	0.00e+00	90	39	0	314572800	54	6232
2026-01-03 20:31:57.06	44.70	12.00	-40.8	-41.8	22.1	0.00e+00	0	39	0	315621376	54	6294
2026-01-03 20:31:58.07	44.54	12.05	-40.7	-41.8	22.2	0.00e+00	2	39	0	317718528	54	6262
2026-01-03 20:31:59.08	44.37	12.09	-41.3	-42.3	22.1	0.00e+00	0	39	0	319815680	54	6692
2026-01-03 20:32:00.08	44.20	12.14	-40.6	-41.6	22.1	0.00e+00	0	39	0	321912832	54	6150
2026-01-03 20:32:01.09	44.03	12.19	-40.7	-41.7	22.4	0.00e+00	92	39	0	324009984	54	6207
2026-01-03 20:32:02.10	43.86	12.23	-40.4	-41.4	22.3	0.00e+00	0	39	0	325058560	54	6005
2026-01-03 20:32:03.11	43.69	12.28	-40.4	-41.4	22.3	0.00e+00	92	39	0	327155712	54	6018
2026-01-03 20:32:04.12	43.52	12.33	-40.5	-41.5	22.6	0.00e+00	0	39	0	329252864	54	6048
2026-01-03 20:32:05.13	43.35	12.37	-40.3	-41.3	22.7	0.00e+00	92	39	0	331350016	54	5918
2026-01-03 20:32:06.14	43.18	12.42	-40.7	-41.7	22.6	0.00e+00	0	39	0	333447168	54	6233
2026-01-03 20:32:07.15	43.00	12.47	-40.3	-41.2	22.9	0.00e+00	22	39	0	334495744	54	5895
2026-01-03 20:32:08.16	42.83	12.51	-40.0	-40.9	22.8	0.00e+00	23	39	0	336592896	54	5695
2026-01-03 20:32:09.17	42.66	12.56	-40.1	-41.0	22.9	0.00e+00	0	39	0	338690048	54	5754
2026-01-03 20:32:10.18	42.48	12.60	-39.9	-40.9	23.0	0.00e+00	90	39	0	340787200	54	5648
2026-01-03 20:32:11.19	42.31	12.65	-39.6	-40.6	22.7	0.00e+00	0	39	0	342884352	52	6117
2026-01-03 20:32:12.20	42.13	12.70	-40.0	-41.0	23.0	0.00e+00	90	39	0	343932928	52	6403
2026-01-03 20:32:13.20	41.96	12.74	-39.9	-40.9	22.3	0.00e+00	58	39	0	346030080	52	6386
2026-01-03 20:32:14.21	41.78	12.78	-40.1	-41.1	23.1	0.00e+00	57	39	0	348127232	54	5763
2026-01-03 20:32:15.22	41.61	12.83	-40.1	-41.1	23.1	0.00e+00	69	39	0	350224384	54	5777
2026-01-03 20:32:16.23	41.43	12.87	-40.0	-41.0	23.3	0.00e+00	57	39	0	352321536	54	5723
2026-01-03 20:32:17.24	41.25	12.92	-40.6	-41.5	22.2	0.00e+00	92	39	0	353370112	54	6081
2026-01-03 20:32:18.25	41.07	12.96	-40.5	-41.4	22.9	0.00e+00	0	39	0	355467264	54	6013
2026-01-03 20:32:19.26	40.89	13.01	-40.4	-41.4	22.6	0.00e+00	92	39	0	357564416	54	6012
2026-01-03 20:32:20.27	40.71	13.05	-41.4	-42.5	22.0	0.00e+00	0	39	0	359661568	54	6823
2026-01-03 20:32:21.28	40.53	13.09	-41.2	-42.2	22.7	0.00e+00	0	39	0	361758720	54	6574
2026-01-03 20:32:22.29	40.35	13.14	-41.7	-42.8	22.7	0.00e+00	0	39	0	362807296	56	6286
2026-01-03 20:32:23.30	40.17	13.18	-40.5	-41.5	22.7	0.00e+00	0	39	0	364904448	54	6099
2026-01-03 20:32:24.31	39.99	13.22	-40.6	-41.5	22.7	0.00e+00	87	39	0	367001600	54	6093
2026-01-03 20:32:25.32	39.81	13.27	-40.3	-41.3	22.6	0.00e+00	2	39	0	369098752	54	5929
2026-01-03 20:32:26.33	39.63	13.31	-40.4	-41.4	22.6	0.00e+00	92	39	0	371195904	54	5982
2026-01-03 20:32:27.34	39.44	13.35	-40.6	-41.7	22.1	0.00e+00	0	39	0	372244480	54	6220
2026-01-03 20:32:28.35	39.26	13.39	-40.0	-41.0	22.8	0.00e+00	43	39	0	374341632	54	5703
2026-01-03 20:32:29.36	39.07	13.44	-40.2	-41.2	22.4	0.00e+00	21	39	0	376438784	54	5873
2026-01-03 20:32:30.37	38.89	13.48	-40.2	-41.3	22.4	0.00e+00	0	39	0	378535936	54	5907
2026-01-03 20:32:31.38	38.70	13.52	-40.0	-41.0	22.6	0.00e+00	2	39	0	380633088	54	5738
2026-01-03 20:32:32.38	38.52	13.56	-39.9	-40.9	22.7	0.00e+00	22	39	0	381681664	54	5662
2026-01-03 20:32:33.39	38.33	13.60	-40.2	-41.2	22.5	0.00e+00	92	39	0	383778816	54	5883
2026-01-03 20:32:34.40	38.15	13.64	-40.1	-41.1	22.4	0.00e+00	2	39	0	385875968	54	5801
2026-01-03 20:32:35.41	37.96	13.68	-40.3	-41.3	22.6	0.00e+00	21	39	0	387973120	54	5915
2026-01-03 20:32:36.42	37.77	13.72	-40.1	-41.1	22.8	0.00e+00	60	39	0	390070272	54	5783
2026-01-03 20:32:37.43	37.58	13.76	-40.2	-41.2	22.8	0.00e+00	65	39	0	391118848	54	5853
2026-01-03 20:32:38.44	37.39	13.80	-40.1	-41.1	22.6	0.00e+00	61	39	0	393216000	54	5789
2026-01-03 20:32:39.45	37.20	13.84	-40.2	-41.2	22.6	0.00e+00	5	39	0	395313152	54	5856
2026-01-03 20:32:40.46	37.01	13.88	-39.8	-40.8	23.0	0.00e+00	92	39	0	397410304	54	5591
2026-01-03 20:32:41.47	36.82	13.92	-39.8	-40.8	22.9	0.00e+00	5	39	0	399507456	54	5576
2026-01-03 20:32:42.48	36.63	13.96	-39.9	-40.9	22.9	0.00e+00	90	39	0	400556032	52	6340
2026-01-03 20:32:43.49	36.44	14.00	-40.0	-41.0	22.8	0.00e+00	0	39	0	402653184	52	6420
2026-01-03 20:32:44.50	36.25	14.04	-39.8	-40.8	23.0	0.00e+00	0	39	0	404750336	52	6259
2026-01-03 20:32:45.51	36.05	14.07	-39.9	-40.9	23.0	0.00e+00	0	39	0	406847488	52	6343
2026-01-03 20:32:46.52	35.86	14.11	-39.9	-40.9	23.0	0.00e+00	5	39	0	408944640	52	6328
2026-01-03 20:32:47.52	35.67	14.15	-39.9	-40.9	23.0	0.00e+00	72	39	0	411041792	52	6332
2026-01-03 20:32:48.53	35.48	14.19	-40.2	-41.2	22.8	0.00e+00	6	39	0	412090368	52	6572
2026-01-03 20:32:49.54	35.28	14.22	-41.7	-42.9	21.8	0.00e+00	92	39	0	414187520	56	6356
2026-01-03 20:32:50.55	35.09	14.26	-40.1	-41.1	22.6	0.00e+00	15	39	0	416284672	54	5804
2026-01-03 20:32:51.56	34.89	14.30	-40.6	-41.5	23.2	0.00e+00	2	39	0	418381824	54	6086
2026-01-03 20:32:52.56	34.70	14.33	-39.7	-40.6	22.9	0.00e+00	1	39	0	420478976	54	5481
2026-01-03 20:32:53.57	34.50	14.37	-40.3	-41.3	22.5	0.00e+00	21	39	0	421527552	52	6643
2026-01-03 20:32:54.59	34.30	14.40	-40.2	-41.2	22.5	0.00e+00	0	39	0	423624704	52	6577
2026-01-03 20:32:55.59	34.11	14.44	-40.1	-41.1	22.7	0.00e+00	21	39	0	425721856	52	6478
2026-01-03 20:32:56.60	33.91	14.47	-39.8	-40.8	23.0	0.00e+00	90	39	0	427819008	52	6265
2026-01-03 20:32:57.61	33.71	14.51	-39.8	-40.7	23.1	0.00e+00	0	39	0	429916160	52	6240
2026-01-03 20:32:58.62	33.51	14.54	-39.7	-40.6	23.3	0.00e+00	92	39	0	430964736	52	6173
2026-01-03 20:32:59.63	33.31	14.58	-39.7	-40.6	23.3	0.00e+00	66	39	0	433061888	52	6132
2026-01-03 20:33:00.64	33.11	14.61	-39.4	-40.3	23.5	0.00e+00	68	39	0	435159040	52	5913
2026-01-03 20:33:01.65	32.91	14.64	-39.4	-40.4	23.4	0.00e+00	63	39	0	437256192	52	5975
2026-01-03 20:33:02.65	32.71	14.68	-39.3	-40.3	23.4	0.00e+00	64	39	0	439353344	52	5899
2026-01-03 20:33:03.66	32.51	14.71	-39.6	-40.5	23.2	0.00e+00	90	39	0	440401920	52	6080
2026-01-03 20:33:04.67	32.31	14.74	-40.5	-41.5	22.5	0.00e+00	6	39	0	442499072	54	6040
2026-01-03 20:33:05.68	32.11	14.78	-39.6	-40.6	23.4	0.00e+00	92	39	0	444596224	52	6114
2026-01-03 20:33:06.69	31.90	14.81	-39.3	-40.2	23.6	0.00e+00	64	39	0	446693376	52	5875
2026-01-03 20:33:07.70	31.70	14.84	-39.7	-40.6	23.0	0.00e+00	0	39	0	448790528	52	6160
2026-01-03 20:33:08.71	31.50	14.87	-39.7	-40.6	23.1	0.00e+00	6	39	0	449839104	52	6150
2026-01-03 20:33:09.72	31.29	14.90	-39.8	-40.8	23.3	0.00e+00	0	39	0	451936256	52	6275
2026-01-03 20:33:10.73	31.09	14.93	-39.8	-40.7	23.3	0.00e+00	0	39	0	454033408	52	6227
2026-01-03 20:33:11.74	30.89	14.96	-40.0	-40.9	22.9	0.00e+00	0	39	0	456130560	54	5672
2026-01-03 20:33:12.74	30.68	14.99	-40.0	-40.9	23.3	0.00e+00	92	39	0	458227712	54	5647
2026-01-03 20:33:13.76	30.47	15.02	-39.6	-40.5	23.3	0.00e+00	3	39	0	459276288	52	6101
2026-01-03 20:33:14.76	30.27	15.05	-39.6	-40.6	23.2	0.00e+00	11	39	0	461373440	52	6110
2026-01-03 20:33:15.77	30.06	15.08	-39.6	-40.5	23.3	0.00e+00	23	39	0	463470592	52	6092
2026-01-03 20:33:16.78	29.86	15.11	-40.1	-41.0	22.6	0.00e+00	23	39	0	465567744	52	6445
2026-01-03 20:33:17.79	29.65	15.14	-41.0	-42.0	22.7	0.00e+00	0	39	0	467664896	54	6445
2026-01-03 20:33:18.80	29.44	15.16	-41.0	-42.0	21.7	0.00e+00	59	39	0	469762048	54	6458
2026-01-03 20:33:19.81	29.24	15.19	-40.5	-41.4	22.7	0.00e+00	92	39	0	470810624	54	6027
2026-01-03 20:33:20.82	29.03	15.22	-42.9	-44.1	21.2	0.00e+00	23	39	0	472907776	56	7271
2026-01-03 20:33:21.83	28.82	15.25	-41.2	-42.2	21.6	0.00e+00	92	39	0	475004928	56	5881
2026-01-03 20:33:22.84	28.61	15.27	-40.7	-41.7	22.6	0.00e+00	59	39	0	477102080	54	6196
2026-01-03 20:33:23.85	28.40	15.30	-40.7	-41.8	22.7	0.00e+00	60	39	0	479199232	54	6251
2026-01-03 20:33:24.85	28.19	15.33	-40.2	-41.2	23.0	0.00e+00	0	39	0	480247808	54	5852
2026-01-03 20:33:25.86	27.98	15.35	-40.1	-41.1	23.2	0.00e+00	0	39	0	482344960	54	5776
2026-01-03 20:33:26.87	27.77	15.38	-40.4	-41.3	22.9	0.00e+00	23	39	0	484442112	54	5959
2026-01-03 20:33:27.88	27.56	15.40	-40.3	-41.3	23.2	0.00e+00	58	39	0	486539264	54	5926
2026-01-03 20:33:28.88	27.35	15.42	-40.3	-41.3	22.6	0.00e+00	92	39	0	487587840	54	5931
2026-01-03 20:33:29.89	27.14	15.45	-40.2	-41.2	22.9	0.00e+00	0	39	0	489684992	54	5848
2026-01-03 20:33:30.90	26.93	15.47	-41.2	-42.2	21.7	0.00e+00	0	39	0	491782144	54	6590
2026-01-03 20:33:31.91	26.72	15.50	-41.6	-42.7	21.8	0.00e+00	0	39	0	493879296	58	5538
2026-01-03 20:33:32.92	26.50	15.52	-40.7	-41.7	22.5	0.00e+00	0	39	0	495976448	56	5552
2026-01-03 20:33:33.93	26.29	15.54	-41.2	-42.3	21.2	0.00e+00	0	39	0	498073600	56	5956
2026-01-03 20:33:34.94	26.08	15.56	-41.6	-42.6	21.1	0.00e+00	0	39	0	499122176	58	5491
2026-01-03 20:33:35.95	25.86	15.58	-42.3	-43.5	22.0	0.00e+00	92	39	0	501219328	56	6794
2026-01-03 20:33:36.96	25.65	15.61	-41.5	-42.5	22.4	0.00e+00	0	39	0	503316480	56	6085
2026-01-03 20:33:37.97	25.44	15.63	-41.1	-42.2	22.3	0.00e+00	33	39	0	505413632	56	5846
2026-01-03 20:33:38.98	25.22	15.65	-42.5	-43.7	21.4	0.00e+00	0	39	0	507510784	56	6980
2026-01-03 20:33:39.99	25.01	15.67	-41.3	-42.4	22.2	0.00e+00	24	39	0	508559360	56	6011
2026-01-03 20:33:41.00	24.79	15.69	-41.2	-42.2	22.4	0.00e+00	0	39	0	510656512	54	6577
2026-01-03 20:33:42.01	24.58	15.71	-40.9	-41.9	22.5	0.00e+00	58	39	0	512753664	54	6347
2026-01-03 20:33:43.02	24.36	15.73	-40.8	-41.8	22.7	0.00e+00	91	39	0	514850816	54	6312
2026-01-03 20:33:44.03	24.15	15.75	-41.0	-42.0	22.1	0.00e+00	59	39	0	516947968	54	6442
2026-01-03 20:33:45.04	23.93	15.76	-41.3	-42.4	21.9	0.00e+00	91	39	0	517996544	54	6702
2026-01-03 20:33:46.05	23.71	15.78	-41.4	-42.6	14.8	0.00e+00	58	39	0	520093696	54	6866
2026-01-03 20:33:47.06	23.50	15.80	-43.7	-45.1	19.3	0.00e+00	0	39	0	522190848	60	6484
2026-01-03 20:33:48.06	23.28	15.82	-41.1	-42.1	22.9	0.00e+00	2	39	0	524288000	56	5816
2026-01-03 20:33:49.07	23.06	15.83	-41.5	-42.5	21.6	0.00e+00	60	39	0	526385152	56	6093
2026-01-03 20:33:50.08	22.85	15.85	-41.0	-42.0	22.8	0.00e+00	2	39	0	527433728	54	6436
2026-01-03 20:33:51.09	22.63	15.86	-40.6	-41.6	22.5	0.00e+00	0	39	0	529530880	54	6138
2026-01-03 20:33:52.10	22.41	15.88	-41.0	-42.0	22.3	0.00e+00	92	39	0	531628032	54	6439
2026-01-03 20:33:53.11	22.19	15.89	-40.4	-41.4	22.9	0.00e+00	2	39	0	533725184	54	5977
2026-01-03 20:33:54.12	21.98	15.91	-40.1	-41.1	22.9	0.00e+00	0	39	0	535822336	54	5791
2026-01-03 20:33:55.13	21.76	15.92	-40.1	-41.1	22.7	0.00e+00	0	39	0	536870912	54	5807
2026-01-03 20:33:56.14	21.54	15.94	-40.2	-41.2	22.6	0.00e+00	0	39	0	538968064	54	5853
2026-01-03 20:33:57.15	21.32	15.95	-40.3	-41.3	22.5	0.00e+00	0	39	0	541065216	54	5903
2026-01-03 20:33:58.16	21.10	15.96	-40.7	-41.7	22.5	0.00e+00	0	39	0	543162368	54	6195
2026-01-03 20:33:59.17	20.88	15.98	-41.1	-42.1	22.6	0.00e+00	92	39	0	545259520	54	6511
2026-01-03 20:34:00.17	20.66	15.99	-41.1	-42.1	22.6	0.00e+00	0	39	0	546308096	54	6493
2026-01-03 20:34:01.18	20.44	16.00	-40.8	-41.8	22.6	0.00e+00	92	39	0	548405248	54	6279
2026-01-03 20:34:02.19	20.22	16.01	-40.4	-41.4	22.8	0.00e+00	0	39	0	550502400	54	6017
2026-01-03 20:34:03.20	20.00	16.02	-40.6	-41.6	22.5	0.00e+00	0	39	0	552599552	54	6138
2026-01-03 20:34:04.21	19.78	16.03	-40.7	-41.7	22.8	0.00e+00	80	39	0	554696704	54	6201
2026-01-03 20:34:05.22	19.56	16.04	-40.5	-41.5	22.5	0.00e+00	63	39	0	555745280	54	6056
2026-01-03 20:34:06.23	19.34	16.05	-40.6	-41.6	22.7	0.00e+00	92	39	0	557842432	54	6161
2026-01-03 20:34:07.24	19.12	16.06	-40.6	-41.6	22.5	0.00e+00	17	39	0	559939584	54	6134
2026-01-03 20:34:08.24	18.90	16.07	-40.5	-41.6	22.4	0.00e+00	92	39	0	562036736	54	6108
2026-01-03 20:34:09.25	18.68	16.08	-41.0	-42.0	22.3	0.00e+00	2	39	0	564133888	54	6431
2026-01-03 20:34:10.26	18.46	16.09	-42.7	-44.0	20.4	0.00e+00	0	39	0	566231040	60	5758
2026-01-03 20:34:11.27	18.24	16.09	-45.4	-47.5	17.0	0.00e+00	0	39	0	567279616	60	8571
2026-01-03 20:34:12.28	18.02	16.10	-43.5	-45.0	19.8	0.00e+00	2	39	0	569376768	60	6444
2026-01-03 20:34:13.28	17.80	16.11	-41.5	-42.5	20.4	0.00e+00	2	39	0	571473920	54	6847
2026-01-03 20:34:14.29	17.58	16.11	-42.6	-43.9	20.7	0.00e+00	0	39	0	573571072	56	7128
2026-01-03 20:34:15.30	17.36	16.12	-46.4	-48.6	15.4	0.00e+00	92	39	0	575668224	60	9783
2026-01-03 20:34:16.31	17.14	16.12	-41.8	-42.7	22.7	7.60e-06	0	39	0	576716800	56	6228
2026-01-03 20:34:17.32	16.92	16.13	-42.2	-43.3	22.8	0.00e+00	66	39	0	578813952	56	6672
2026-01-03 20:34:18.33	16.69	16.13	-41.9	-43.0	20.6	0.00e+00	0	39	0	580911104	60	5122
2026-01-03 20:34:19.34	16.47	16.14	-41.0	-42.0	22.1	0.00e+00	0	39	0	583008256	56	5738
2026-01-03 20:34:20.35	16.25	16.14	-41.0	-42.1	22.2	0.00e+00	22	39	0	585105408	56	5775
2026-01-03 20:34:21.35	16.03	16.14	-41.8	-43.0	20.7	0.00e+00	0	39	0	586153984	56	6400
2026-01-03 20:34:22.37	15.81	16.15	-42.3	-43.5	20.4	0.00e+00	92	39	0	588251136	58	6066
2026-01-03 20:34:23.37	15.59	16.15	-41.5	-42.7	21.3	0.00e+00	22	39	0	590348288	56	6196
2026-01-03 20:34:24.38	15.37	16.15	-43.0	-44.4	19.7	0.00e+00	92	39	0	592445440	60	6014
2026-01-03 20:34:25.39	15.14	16.15	-41.0	-42.1	21.9	0.00e+00	60	39	0	594542592	56	5809
2026-01-03 20:34:26.41	14.92	16.15	-41.7	-42.8	21.5	0.00e+00	2	39	0	595591168	56	6283
2026-01-03 20:34:27.41	14.70	16.15	-40.8	-41.9	22.3	0.00e+00	0	39	0	597688320	54	6327
2026-01-03 20:34:28.42	14.48	16.15	-40.8	-41.8	22.5	0.00e+00	58	39	0	599785472	54	6260
2026-01-03 20:34:29.43	14.26	16.15	-41.2	-42.2	22.2	0.00e+00	75	39	0	601882624	54	6603
2026-01-03 20:34:30.44	14.03	16.15	-41.2	-42.1	22.4	0.00e+00	60	39	0	603979776	54	6533
2026-01-03 20:34:31.45	13.81	16.15	-41.8	-42.8	22.4	0.00e+00	92	39	0	605028352	54	7081
2026-01-03 20:34:32.46	13.59	16.15	-45.7	-47.6	18.9	0.00e+00	7	39	0	607125504	60	8645
2026-01-03 20:34:33.47	13.37	16.15	-41.0	-42.0	22.5	0.00e+00	64	39	0	609222656	56	5756
2026-01-03 20:34:34.48	13.15	16.14	-40.5	-41.5	22.6	0.00e+00	5	39	0	611319808	54	6091
2026-01-03 20:34:35.49	12.93	16.14	-40.8	-41.8	22.7	0.00e+00	0	39	0	613416960	54	6263
2026-01-03 20:34:36.50	12.70	16.14	-41.1	-42.2	22.5	0.00e+00	92	39	0	614465536	58	5196
2026-01-03 20:34:37.50	12.48	16.13	-41.1	-42.1	22.5	0.00e+00	3	39	0	616562688	54	6510
2026-01-03 20:34:38.51	12.26	16.13	-40.6	-41.7	22.6	0.00e+00	90	39	0	618659840	54	6180
2026-01-03 20:34:39.52	12.04	16.12	-41.6	-42.6	22.4	0.00e+00	3	39	0	620756992	54	6919
2026-01-03 20:34:40.53	11.82	16.12	-40.8	-41.8	22.4	0.00e+00	91	39	0	622854144	54	6313
2026-01-03 20:34:41.54	11.60	16.11	-41.1	-42.2	22.0	0.00e+00	5	39	0	623902720	56	5862
2026-01-03 20:34:42.55	11.38	16.11	-41.3	-42.3	21.9	0.00e+00	22	39	0	625999872	56	5958
2026-01-03 20:34:43.56	11.16	16.10	-41.1	-42.1	22.2	0.00e+00	5	39	0	628097024	56	5806
2026-01-03 20:34:44.57	10.93	16.09	-41.2	-42.2	22.3	0.00e+00	22	39	0	630194176	56	5879
2026-01-03 20:34:45.58	10.71	16.09	-41.5	-42.5	20.3	0.00e+00	92	39	0	632291328	56	6098
2026-01-03 20:34:46.59	10.49	16.08	-41.1	-42.2	22.5	0.00e+00	21	39	0	633339904	56	5833
2026-01-03 20:34:47.60	10.27	16.07	-40.9	-42.0	22.5	0.00e+00	92	39	0	635437056	56	5697
2026-01-03 20:34:48.60	10.05	16.06	-40.3	-41.3	22.9	0.00e+00	20	39	0	637534208	54	5923
2026-01-03 20:34:49.61	9.83	16.05	-40.3	-41.3	22.8	0.00e+00	6	39	0	639631360	54	5898
2026-01-03 20:34:50.62	9.61	16.04	-40.1	-41.1	22.7	0.00e+00	22	39	0	641728512	54	5787
2026-01-03 20:34:51.63	9.39	16.03	-40.0	-41.1	22.6	0.00e+00	19	39	0	642777088	54	5762
2026-01-03 20:34:52.64	9.17	16.02	-40.5	-41.5	22.4	0.00e+00	92	39	0	644874240	54	6051
2026-01-03 20:34:53.64	8.95	16.01	-40.2	-41.2	22.5	0.00e+00	67	39	0	646971392	54	5894
2026-01-03 20:34:54.65	8.74	16.00	-40.7	-41.8	22.3	0.00e+00	91	39	0	649068544	54	6271
2026-01-03 20:34:55.66	8.52	15.99	-40.6	-41.7	22.5	0.00e+00	6	39	0	651165696	54	6180
2026-01-03 20:34:56.67	8.30	15.98	-40.5	-41.5	22.6	0.00e+00	92	39	0	652214272	54	6070
2026-01-03 20:34:57.68	8.08	15.97	-40.6	-41.6	22.5	0.00e+00	6	39	0	654311424	54	6170
2026-01-03 20:34:58.68	7.86	15.95	-40.4	-41.4	22.5	0.00e+00	65	39	0	656408576	54	6024
2026-01-03 20:34:59.69	7.64	15.94	-40.1	-41.1	22.8	0.00e+00	81	39	0	658505728	54	5801
2026-01-03 20:35:00.70	7.42	15.93	-40.5	-41.4	23.0	0.00e+00	0	39	0	660602880	54	6024
2026-01-03 20:35:01.71	7.20	15.91	-40.4	-41.3	22.9	0.00e+00	92	39	0	662700032	54	5958
2026-01-03 20:35:02.72	6.99	15.90	-40.4	-41.4	23.0	0.00e+00	0	39	0	663748608	54	5970
2026-01-03 20:35:03.73	6.77	15.88	-40.4	-41.4	22.7	0.00e+00	92	39	0	665845760	54	5977
2026-01-03 20:35:04.74	6.55	15.87	-40.9	-41.9	22.9	0.00e+00	3	39	0	667942912	54	6371
2026-01-03 20:35:05.75	6.33	15.85	-40.9	-41.9	22.5	0.00e+00	4	39	0	670040064	54	6361
2026-01-03 20:35:06.76	6.12	15.84	-40.7	-41.7	23.0	0.00e+00	0	39	0	672137216	54	6185
2026-01-03 20:35:07.77	5.90	15.82	-40.2	-41.2	23.0	0.00e+00	3	39	0	673185792	54	5848
2026-01-03 20:35:08.78	5.68	15.80	-40.3	-41.3	22.9	0.00e+00	92	39	0	675282944	54	5910
2026-01-03 20:35:09.79	5.46	15.78	-40.4	-41.4	22.8	0.00e+00	2	39	0	677380096	54	5989
2026-01-03 20:35:10.79	5.25	15.77	-39.8	-40.7	23.4	0.00e+00	90	39	0	679477248	54	5544
2026-01-03 20:35:11.80	5.03	15.75	-40.0	-40.9	23.4	0.00e+00	17	39	0	681574400	54	5678
2026-01-03 20:35:12.81	4.82	15.73	-40.2	-41.1	23.4	0.00e+00	57	39	0	682622976	54	5816
2026-01-03 20:35:13.82	4.60	15.71	-41.2	-42.1	22.5	0.00e+00	59	39	0	684720128	54	6532
2026-01-03 20:35:14.76	4.40	15.69	-40.2	-41.2	23.0	0.00e+00	58	39	0	686817280	54	5864
2026-01-03 20:35:15.76	4.19	15.67	-40.0	-41.0	23.0	0.00e+00	22	39	0	688914432	54	5709
2026-01-03 20:35:16.77	3.98	15.65	-39.8	-40.8	23.0	0.00e+00	59	39	0	691011584	54	5607
2026-01-03 20:35:17.78	3.76	15.63	-40.0	-41.0	22.7	0.00e+00	92	39	0	692060160	54	5710
2026-01-03 20:35:18.79	3.55	15.61	-40.0	-40.9	22.9	0.00e+00	60	39	0	694157312	52	6383
2026-01-03 20:35:19.80	3.33	15.59	-40.0	-41.0	23.0	0.00e+00	65	39	0	696254464	52	6430
2026-01-03 20:35:20.80	3.12	15.57	-40.1	-41.1	22.6	0.00e+00	58	39	0	698351616	54	5819
2026-01-03 20:35:21.81	2.91	15.55	-40.4	-41.3	22.9	0.00e+00	58	39	0	700448768	54	5950
2026-01-03 20:35:22.82	2.70	15.53	-40.2	-41.2	22.9	0.00e+00	0	39	0	701497344	54	5885
2026-01-03 20:35:23.83	2.48	15.50	-40.0	-41.0	22.9	0.00e+00	2	39	0	703594496	54	5742
2026-01-03 20:35:24.84	2.27	15.48	-40.9	-42.0	22.7	0.00e+00	92	39	0	705691648	54	6423
2026-01-03 20:35:25.85	2.06	15.46	-41.6	-42.6	22.6	0.00e+00	0	39	0	707788800	56	6161
2026-01-03 20:35:26.86	1.85	15.43	-40.5	-41.5	23.1	0.00e+00	92	39	0	709885952	54	6048
2026-01-03 20:35:27.87	1.64	15.41	-40.4	-41.4	22.3	0.00e+00	0	39	0	710934528	54	6000
2026-01-03 20:35:28.88	1.43	15.38	-41.5	-42.6	22.0	0.00e+00	0	39	0	713031680	54	6896
2026-01-03 20:35:29.88	1.22	15.36	-40.2	-41.2	22.7	0.00e+00	0	39	0	715128832	54	5870
2026-01-03 20:35:30.90	1.01	15.33	-40.2	-41.2	22.8	7.00e-07	0	39	0	717225984	54	5880
2026-01-03 20:35:31.91	0.80	15.31	-41.2	-42.3	21.9	0.00e+00	92	39	0	719323136	54	6635
2026-01-03 20:35:32.91	0.59	15.28	-41.2	-42.2	21.5	0.00e+00	0	39	0	720371712	58	5230
2026-01-03 20:35:33.92	0.38	15.25	-41.9	-43.0	19.2	7.00e-07	92	39	0	722468864	56	6449
2026-01-03 20:35:34.93	0.17	15.23	-43.0	-44.3	21.6	0.00e+00	17	39	0	724566016	56	7484
2026-01-03 20:35:35.94	359.96	15.20	-46.2	-48.8	14.4	0.00e+00	24	39	0	726663168	60	10000
2026-01-03 20:35:36.95	359.76	15.17	-41.2	-42.2	22.0	0.00e+00	16	39	0	728760320	56	5858
2026-01-03 20:35:37.96	359.55	15.15	-41.5	-42.6	21.5	0.00e+00	66	39	0	729808896	56	6165
2026-01-03 20:35:38.97	359.34	15.12	-40.6	-41.6	22.4	0.00e+00	11	39	0	731906048	54	6118
2026-01-03 20:35:39.98	359.13	15.09	-40.7	-41.7	21.9	0.00e+00	0	39	0	734003200	54	6243
2026-01-03 20:35:40.99	358.93	15.06	-40.7	-41.7	22.5	0.00e+00	92	39	0	736100352	54	6245
2026-01-03 20:35:42.00	358.72	15.03	-40.5	-41.5	22.6	0.00e+00	58	39	0	738197504	54	6088
2026-01-03 20:35:43.01	358.52	15.00	-40.9	-41.9	22.4	0.00e+00	92	39	0	739246080	54	6353
2026-01-03 20:35:44.02	358.31	14.97	-41.6	-42.7	22.1	0.00e+00	60	39	0	741343232	58	5505
2026-01-03 20:35:45.03	358.11	14.94	-40.8	-41.8	22.4	0.00e+00	0	39	0	743440384	56	5609
2026-01-03 20:35:46.04	357.90	14.91	-40.5	-41.5	22.5	0.00e+00	0	39	0	745537536	54	6076
2026-01-03 20:35:47.05	357.70	14.88	-40.5	-41.6	22.2	0.00e+00	0	39	0	747634688	54	6113
2026-01-03 20:35:48.06	357.50	14.85	-40.3	-41.3	22.7	0.00e+00	90	39	0	748683264	54	5943
2026-01-03 20:35:49.06	357.30	14.82	-40.8	-41.8	22.4	0.00e+00	0	39	0	750780416	54	6304
2026-01-03 20:35:50.07	357.09	14.79	-41.4	-42.4	22.3	0.00e+00	92	39	0	752877568	54	6731
2026-01-03 20:35:51.08	356.89	14.75	-41.1	-42.1	22.4	0.00e+00	0	39	0	754974720	56	5820
2026-01-03 20:35:52.09	356.69	14.72	-41.3	-42.4	22.0	0.00e+00	22	39	0	757071872	56	6020
2026-01-03 20:35:53.10	356.49	14.69	-41.4	-42.5	22.2	0.00e+00	0	39	0	759169024	56	6090
2026-01-03 20:35:54.11	356.29	14.65	-40.6	-41.6	22.4	0.00e+00	0	39	0	760217600	54	6147
2026-01-03 20:35:55.12	356.09	14.62	-42.9	-44.1	21.2	0.00e+00	92	39	0	762314752	60	5788
2026-01-03 20:35:56.13	355.89	14.59	-42.2	-43.3	22.0	0.00e+00	60	39	0	764411904	56	6656
2026-01-03 20:35:57.14	355.69	14.55	-43.3	-44.7	19.4	0.00e+00	92	39	0	766509056	56	7777
2026-01-03 20:35:58.15	355.49	14.52	-43.6	-44.9	20.7	0.00e+00	22	39	0	768606208	60	6380
2026-01-03 20:35:59.16	355.29	14.48	-42.3	-43.4	20.8	0.00e+00	28	39	0	769654784	56	6744
2026-01-03 20:36:00.16	355.10	14.45	-42.0	-43.1	21.6	0.00e+00	22	39	0	771751936	56	6516
2026-01-03 20:36:01.18	354.90	14.41	-43.2	-44.6	20.0	0.00e+00	60	39	0	773849088	58	6880
2026-01-03 20:36:02.18	354.70	14.38	-42.3	-43.7	20.3	0.00e+00	86	39	0	775946240	58	6184
2026-01-03 20:36:03.19	354.51	14.34	-41.6	-42.7	21.0	0.00e+00	2	39	0	778043392	56	6236
2026-01-03 20:36:04.20	354.31	14.31	-43.1	-44.5	21.3	0.00e+00	91	39	0	779091968	54	8584
2026-01-03 20:36:05.21	354.11	14.27	-42.0	-43.2	21.3	0.00e+00	65	39	0	781189120	56	6565
2026-01-03 20:36:06.22	353.92	14.23	-42.6	-43.8	20.6	0.00e+00	91	39	0	783286272	60	5625
2026-01-03 20:36:07.23	353.72	14.20	-42.2	-43.6	19.8	0.00e+00	0	39	0	785383424	58	6110
2026-01-03 20:36:08.24	353.53	14.16	-42.4	-43.7	20.6	0.00e+00	0	39	0	787480576	56	6966
2026-01-03 20:36:09.25	353.34	14.12	-43.4	-44.8	20.0	0.00e+00	0	39	0	788529152	58	7061
2026-01-03 20:36:10.26	353.14	14.09	-43.4	-44.9	19.8	0.00e+00	0	39	0	790626304	58	7129
2026-01-03 20:36:11.27	352.95	14.05	-43.0	-44.3	20.4	0.00e+00	92	39	0	792723456	58	6645
2026-01-03 20:36:12.28	352.76	14.01	-41.5	-42.6	20.8	0.00e+00	20	39	0	794820608	56	6136
2026-01-03 20:36:13.29	352.57	13.97	-43.4	-44.9	18.6	0.00e+00	92	39	0	796917760	58	7142
2026-01-03 20:36:14.30	352.38	13.93	-43.0	-44.3	20.7	0.00e+00	0	39	0	797966336	58	6653
2026-01-03 20:36:15.30	352.19	13.89	-44.5	-46.1	19.0	0.00e+00	0	39	0	800063488	60	7274
2026-01-03 20:36:16.32	352.00	13.85	-42.3	-43.5	20.9	0.00e+00	0	39	0	802160640	56	6775
2026-01-03 20:36:17.32	351.81	13.82	-43.6	-45.0	20.2	0.00e+00	60	39	0	804257792	60	6399
2026-01-03 20:36:18.33	351.62	13.78	-42.0	-43.2	21.0	0.00e+00	82	39	0	806354944	58	5844
2026-01-03 20:36:19.34	351.43	13.74	-41.8	-42.9	21.2	0.00e+00	0	39	0	807403520	56	6356
2026-01-03 20:36:20.35	351.24	13.70	-42.3	-43.5	21.6	0.00e+00	90	39	0	809500672	56	6819
2026-01-03 20:36:21.36	351.06	13.65	-41.1	-42.2	21.7	0.00e+00	21	39	0	811597824	58	5213
2026-01-03 20:36:22.37	350.87	13.61	-42.3	-43.5	20.7	0.00e+00	20	39	0	813694976	58	6093
2026-01-03 20:36:23.38	350.68	13.57	-42.8	-44.2	20.3	0.00e+00	6	39	0	815792128	58	6581
2026-01-03 20:36:24.38	350.50	13.53	-42.7	-44.0	20.2	0.00e+00	4	39	0	816840704	58	6409
2026-01-03 20:36:25.39	350.31	13.49	-42.5	-44.0	19.7	0.00e+00	80	39	0	818937856	58	6397
2026-01-03 20:36:26.40	350.13	13.45	-42.3	-43.7	20.5	0.00e+00	0	39	0	821035008	58	6178
2026-01-03 20:36:27.41	349.94	13.41	-43.0	-44.3	20.0	0.00e+00	92	39	0	823132160	56	7478
2026-01-03 20:36:28.42	349.76	13.37	-42.7	-43.9	20.9	0.00e+00	3	39	0	825229312	56	7170
2026-01-03 20:36:29.43	349.58	13.32	-41.9	-43.1	21.1	0.00e+00	86	39	0	827326464	56	6473
2026-01-03 20:36:30.44	349.39	13.28	-42.0	-43.0	22.0	0.00e+00	3	39	0	828375040	56	6462
2026-01-03 20:36:31.45	349.21	13.24	-42.9	-44.2	20.8	0.00e+00	2	39	0	830472192	56	7398
2026-01-03 20:36:32.46	349.03	13.20	-41.4	-42.5	21.6	0.00e+00	6	39	0	832569344	56	6089
2026-01-03 20:36:33.46	348.85	13.15	-41.3	-42.5	21.4	0.00e+00	5	39	0	834666496	56	6084
2026-01-03 20:36:34.48	348.67	13.11	-41.3	-42.5	21.1	0.00e+00	91	39	0	836763648	56	6045
2026-01-03 20:36:35.48	348.49	13.07	-41.6	-42.8	21.2	0.00e+00	4	39	0	837812224	56	6289
2026-01-03 20:36:36.49	348.31	13.02	-41.4	-42.5	21.1	0.00e+00	90	39	0	839909376	56	6093
2026-01-03 20:36:37.50	348.13	12.98	-41.7	-43.0	20.9	0.00e+00	19	39	0	842006528	56	6404
2026-01-03 20:36:38.51	347.95	12.93	-41.8	-43.1	20.3	0.00e+00	19	39	0	844103680	56	6511
2026-01-03 20:36:39.51	347.78	12.89	-42.2	-43.5	20.4	0.00e+00	3	39	0	845152256	56	6831
2026-01-03 20:36:40.52	347.60	12.85	-42.3	-43.7	20.3	0.00e+00	19	39	0	847249408	58	6182
2026-01-03 20:36:41.53	347.42	12.80	-42.1	-43.4	20.7	0.00e+00	59	39	0	849346560	58	5992
2026-01-03 20:36:42.54	347.25	12.76	-42.4	-43.7	20.9	0.00e+00	72	39	0	851443712	58	6181
2026-01-03 20:36:43.54	347.07	12.71	-42.3	-43.5	21.4	0.00e+00	91	39	0	853540864	58	6055
2026-01-03 20:36:44.55	346.90	12.67	-43.1	-44.4	20.4	0.00e+00	66	39	0	855638016	58	6763
2026-01-03 20:36:45.56	346.72	12.62	-43.0	-44.3	20.6	0.00e+00	92	39	0	856686592	60	5915
2026-01-03 20:36:46.57	346.55	12.58	-44.0	-45.5	19.6	0.00e+00	68	39	0	858783744	60	6824
2026-01-03 20:36:47.58	346.38	12.53	-43.1	-44.6	19.8	0.00e+00	66	39	0	860880896	58	6875
2026-01-03 20:36:48.59	346.20	12.48	-43.4	-44.8	20.2	0.00e+00	88	39	0	862978048	58	7042
2026-01-03 20:36:49.60	346.03	12.44	-44.3	-45.8	19.4	0.00e+00	0	39	0	865075200	60	7044
2026-01-03 20:36:50.61	345.86	12.39	-44.3	-45.9	19.0	0.00e+00	92	39	0	866123776	60	7136
2026-01-03 20:36:51.62	345.69	12.34	-43.6	-45.0	19.9	0.00e+00	7	39	0	868220928	60	6451
2026-01-03 20:36:52.63	345.52	12.30	-43.3	-44.7	19.7	0.00e+00	92	39	0	870318080	60	6218
2026-01-03 20:36:53.64	345.35	12.25	-43.0	-44.3	19.6	0.00e+00	1	39	0	872415232	58	6677
2026-01-03 20:36:54.65	345.18	12.20	-44.0	-45.5	19.6	0.00e+00	6	39	0	874512384	60	6808
2026-01-03 20:36:55.66	345.01	12.16	-43.0	-44.4	20.4	0.00e+00	1	39	0	875560960	60	6009
2026-01-03 20:36:56.66	344.84	12.11	-43.4	-44.8	20.2	0.00e+00	6	39	0	877658112	60	6259
2026-01-03 20:36:57.68	344.67	12.06	-42.7	-44.0	20.5	0.00e+00	92	39	0	879755264	60	5731
2026-01-03 20:36:58.68	344.51	12.02	-44.4	-46.0	19.0	1.50e-06	8	39	0	881852416	60	7240
2026-01-03 20:36:59.69	344.34	11.97	-43.5	-44.9	20.1	0.00e+00	92	39	0	883949568	60	6359
2026-01-03 20:37:00.70	344.17	11.92	-43.1	-44.4	20.4	0.00e+00	1	39	0	884998144	60	6000
2026-01-03 20:37:01.71	344.01	11.87	-43.6	-44.9	20.2	0.00e+00	20	39	0	887095296	60	6365
2026-01-03 20:37:02.71	343.84	11.82	-43.5	-44.9	19.9	0.00e+00	20	39	0	889192448	60	6385
2026-01-03 20:37:03.72	343.68	11.78	-43.2	-44.6	19.9	0.00e+00	21	39	0	891289600	60	6113
2026-01-03 20:37:04.73	343.52	11.73	-43.4	-44.8	20.0	0.00e+00	27	39	0	893386752	60	6285
2026-01-03 20:37:05.74	343.35	11.68	-44.0	-45.4	19.8	0.00e+00	66	39	0	894435328	60	6710
2026-01-03 20:37:06.75	343.19	11.63	-43.5	-44.9	20.0	0.00e+00	92	39	0	896532480	60	6389
2026-01-03 20:37:07.75	343.03	11.58	-43.3	-44.7	20.0	0.00e+00	20	39	0	898629632	60	6226
2026-01-03 20:37:08.76	342.87	11.53	-42.8	-44.2	20.0	0.00e+00	93	39	0	900726784	60	5893
2026-01-03 20:37:09.77	342.71	11.48	-43.1	-44.5	19.6	0.00e+00	0	39	0	902823936	60	6082
2026-01-03 20:37:10.78	342.54	11.44	-43.0	-44.4	19.8	0.00e+00	1	39	0	903872512	60	5987
2026-01-03 20:37:11.79	342.38	11.39	-42.9	-44.3	19.7	0.00e+00	68	39	0	905969664	60	5943
2026-01-03 20:37:12.80	342.22	11.34	-43.0	-44.5	19.8	0.00e+00	61	39	0	908066816	60	6068
2026-01-03 20:37:13.81	342.07	11.29	-42.9	-44.3	19.7	0.00e+00	92	40	0	910163968	60	5949
2026-01-03 20:37:14.82	341.91	11.24	-43.7	-45.2	19.3	0.00e+00	0	39	0	912261120	60	6556
2026-01-03 20:37:15.83	341.75	11.19	-43.5	-45.0	19.5	0.00e+00	92	39	0	913309696	60	6408
2026-01-03 20:37:16.84	341.59	11.14	-43.3	-44.8	19.8	0.00e+00	2	39	0	915406848	60	6258
2026-01-03 20:37:17.85	341.43	11.09	-43.4	-44.9	19.7	0.00e+00	2	39	0	917504000	60	6342
2026-01-03 20:37:18.86	341.28	11.04	-44.1	-45.6	19.6	0.00e+00	0	39	0	919601152	60	6918
2026-01-03 20:37:19.86	341.12	10.99	-44.3	-45.8	19.5	0.00e+00	0	39	0	921698304	60	7081
2026-01-03 20:37:20.88	340.97	10.94	-43.7	-45.2	19.5	0.00e+00	92	39	0	923795456	60	6589
2026-01-03 20:37:21.88	340.81	10.89	-43.3	-44.8	19.7	0.00e+00	14	39	0	924844032	60	6274
2026-01-03 20:37:22.90	340.66	10.84	-43.5	-45.1	19.2	0.00e+00	92	39	0	926941184	60	6480
2026-01-03 20:37:23.90	340.50	10.79	-44.0	-45.5	19.3	0.00e+00	2	39	0	929038336	60	6822
2026-01-03 20:37:24.91	340.35	10.74	-44.2	-45.6	19.7	0.00e+00	92	39	0	931135488	60	6919
2026-01-03 20:37:25.93	340.20	10.68	-43.7	-45.2	19.6	0.00e+00	21	39	0	933232640	60	6540
2026-01-03 20:37:26.94	340.05	10.63	-44.6	-46.2	19.1	0.00e+00	19	39	0	934281216	60	7370
2026-01-03 20:37:27.95	339.89	10.58	-44.1	-45.7	19.4	0.00e+00	20	39	0	936378368	60	6940
2026-01-03 20:37:28.96	339.74	10.53	-44.7	-46.3	19.1	0.00e+00	13	40	0	938475520	60	7432
2026-01-03 20:37:29.96	339.59	10.48	-43.8	-45.3	19.5	0.00e+00	92	39	0	940572672	60	6682
2026-01-03 20:37:30.97	339.44	10.43	-44.2	-45.7	19.7	0.00e+00	0	39	0	942669824	60	6979
2026-01-03 20:37:31.98	339.29	10.38	-43.7	-45.2	19.6	0.00e+00	92	39	0	943718400	60	6542
2026-01-03 20:37:32.99	339.15	10.33	-44.1	-45.5	19.9	0.00e+00	0	39	0	945815552	60	6836
2026-01-03 20:37:34.00	339.00	10.28	-43.1	-44.5	20.1	0.00e+00	0	39	0	947912704	60	6039
2026-01-03 20:37:35.01	338.85	10.22	-42.6	-44.0	19.7	0.00e+00	0	39	0	950009856	58	6429
2026-01-03 20:37:36.02	338.70	10.17	-42.5	-43.9	19.9	0.00e+00	62	39	0	952107008	58	6355
2026-01-03 20:37:37.03	338.56	10.12	-42.2	-43.6	20.3	0.00e+00	90	39	0	953155584	58	6115
2026-01-03 20:37:38.03	338.41	10.07	-42.3	-43.7	20.1	0.00e+00	2	39	0	955252736	58	6221
2026-01-03 20:37:39.04	338.26	10.02	-43.0	-44.3	20.2	0.00e+00	92	39	0	957349888	58	6684
2026-01-03 20:37:40.05	338.12	9.97	-42.8	-44.2	20.0	0.00e+00	0	39	0	959447040	58	6592
2026-01-03 20:37:41.06	337.98	9.91	-43.3	-44.7	19.5	0.00e+00	0	39	0	961544192	58	6990
2026-01-03 20:37:42.07	337.83	9.86	-44.6	-46.4	18.8	0.00e+00	0	39	0	962592768	60	7510
2026-01-03 20:37:43.08	337.69	9.81	-44.3	-45.9	18.9	0.00e+00	0	39	0	964689920	60	7089
2026-01-03 20:37:44.09	337.54	9.76	-44.9	-46.7	18.5	0.00e+00	92	39	0	966787072	60	7844
2026-01-03 20:37:45.10	337.40	9.70	-43.5	-44.9	20.3	0.00e+00	20	39	0	968884224	60	6327
2026-01-03 20:37:46.11	337.26	9.65	-44.3	-45.7	20.1	0.00e+00	92	39	0	970981376	60	6977
2026-01-03 20:37:47.12	337.12	9.60	-43.9	-45.3	20.6	0.00e+00	0	39	0	972029952	60	6652
2026-01-03 20:37:48.13	336.98	9.55	-42.8	-44.1	20.6	0.00e+00	62	39	0	974127104	60	5808
2026-01-03 20:37:49.14	336.84	9.50	-42.5	-43.8	20.6	0.00e+00	61	39	0	976224256	58	6279
2026-01-03 20:37:50.15	336.70	9.44	-42.6	-43.9	20.6	0.00e+00	62	39	0	978321408	58	6369
2026-01-03 20:37:51.16	336.56	9.39	-42.2	-43.4	20.7	0.00e+00	0	39	0	980418560	58	6016
2026-01-03 20:37:52.17	336.42	9.34	-41.8	-43.0	21.0	0.00e+00	62	39	0	981467136	56	6411
2026-01-03 20:37:53.18	336.28	9.28	-42.8	-44.0	20.7	0.00e+00	90	39	0	983564288	56	7248
2026-01-03 20:37:54.19	336.14	9.23	-43.1	-44.3	20.9	7.00e-07	0	39	0	985661440	60	5948
2026-01-03 20:37:55.20	336.00	9.18	-43.1	-44.4	20.8	0.00e+00	0	39	0	987758592	60	5965
2026-01-03 20:37:56.21	335.87	9.13	-43.1	-44.4	20.7	0.00e+00	63	39	0	989855744	58	6753
2026-01-03 20:37:57.22	335.73	9.07	-43.0	-44.3	20.9	0.00e+00	2	39	0	990904320	58	6652
2026-01-03 20:37:58.23	335.60	9.02	-42.0	-43.2	20.7	0.00e+00	0	39	0	993001472	58	5862
2026-01-03 20:37:59.24	335.46	8.97	-43.0	-44.3	20.5	0.00e+00	2	39	0	995098624	58	6670
2026-01-03 20:38:00.25	335.33	8.91	-43.6	-44.9	20.9	0.00e+00	92	39	0	997195776	60	6357
2026-01-03 20:38:01.26	335.19	8.86	-44.1	-45.4	20.4	0.00e+00	0	39	0	999292928	60	6762
2026-01-03 20:38:02.27	335.06	8.81	-42.0	-43.2	21.2	0.00e+00	92	39	0	1000341504	58	5887
2026-01-03 20:38:03.27	334.93	8.76	-42.1	-43.3	20.9	0.00e+00	0	39	0	1002438656	58	5945
2026-01-03 20:38:04.28	334.79	8.70	-41.6	-42.8	21.0	0.00e+00	18	39	0	1004535808	56	6312
2026-01-03 20:38:05.29	334.66	8.65	-42.2	-43.4	20.9	0.00e+00	0	39	0	1006632960	56	6737
2026-01-03 20:38:06.30	334.53	8.60	-44.1	-45.5	19.6	0.00e+00	0	39	0	1008730112	60	6818
2026-01-03 20:38:07.31	334.40	8.54	-44.0	-45.3	19.9	0.00e+00	92	39	0	1009778688	60	6651
2026-01-03 20:38:08.32	334.27	8.49	-45.8	-47.5	18.5	0.00e+00	17	39	0	1011875840	60	8612
2026-01-03 20:38:09.33	334.14	8.44	-43.3	-44.7	20.3	0.00e+00	92	39	0	1013972992	60	6174
2026-01-03 20:38:10.34	334.01	8.38	-44.5	-46.1	19.1	0.00e+00	2	39	0	1016070144	60	7306
2026-01-03 20:38:11.35	333.88	8.33	-43.6	-45.2	19.3	0.00e+00	0	39	0	1018167296	60	6556
2026-01-03 20:38:12.36	333.75	8.28	-44.4	-46.1	18.3	0.00e+00	16	39	0	1020264448	60	7292
2026-01-03 20:38:13.37	333.62	8.22	-43.8	-45.3	19.4	0.00e+00	63	39	0	1021313024	60	6672
2026-01-03 20:38:14.38	333.49	8.17	-43.4	-44.8	20.0	0.00e+00	74	39	0	1023410176	58	7043
2026-01-03 20:38:15.39	333.36	8.12	-42.8	-44.1	19.9	0.00e+00	65	39	0	1025507328	58	6526
2026-01-03 20:38:16.40	333.24	8.06	-42.1	-43.4	20.4	0.00e+00	92	39	0	1027604480	58	6007
2026-01-03 20:38:17.41	333.11	8.01	-41.2	-42.4	21.0	0.00e+00	71	39	0	1029701632	56	5971
2026-01-03 20:38:18.42	332.98	7.96	-41.2	-42.3	21.0	0.00e+00	9	39	0	1030750208	56	5958
2026-01-03 20:38:19.42	332.86	7.90	-41.6	-42.8	20.7	0.00e+00	0	39	0	1032847360	56	6314
2026-01-03 20:38:20.43	332.73	7.85	-41.2	-42.3	21.6	0.00e+00	1	39	0	1034944512	56	5962
2026-01-03 20:38:21.45	332.61	7.79	-41.8	-42.9	21.2	0.00e+00	0	39	0	1037041664	56	6377
2026-01-03 20:38:22.45	332.48	7.74	-42.5	-43.7	21.1	0.00e+00	0	39	0	1039138816	58	6225
2026-01-03 20:38:23.46	332.36	7.69	-42.2	-43.4	21.3	0.00e+00	92	39	0	1040187392	58	6020
2026-01-03 20:38:24.47	332.24	7.63	-42.1	-43.3	20.9	0.00e+00	4	39	0	1042284544	58	5897
2026-01-03 20:38:25.48	332.12	7.58	-42.0	-43.1	21.5	0.00e+00	90	39	0	1044381696	56	6517
2026-01-03 20:38:26.49	331.99	7.53	-41.7	-42.8	20.5	0.00e+00	13	39	0	1046478848	56	6275
2026-01-03 20:38:27.51	331.87	7.47	-42.5	-43.7	21.2	0.00e+00	11	39	0	1048576000	58	6185
2026-01-03 20:38:28.51	331.75	7.42	-41.5	-42.7	21.5	0.00e+00	3	39	0	1049624576	56	6181
2026-01-03 20:38:29.52	331.63	7.37	-42.3	-43.5	20.9	0.00e+00	18	39	0	1051721728	58	6057
2026-01-03 20:38:30.53	331.51	7.31	-42.0	-43.1	21.2	0.00e+00	91	39	0	1053818880	56	6532
2026-01-03 20:38:31.54	331.39	7.26	-41.4	-42.6	21.3	0.00e+00	17	39	0	1055916032	56	6104
2026-01-03 20:38:32.55	331.27	7.20	-41.8	-43.0	20.9	0.00e+00	91	39	0	1058013184	56	6428
2026-01-03 20:38:33.56	331.15	7.15	-41.8	-43.0	21.0	0.00e+00	0	39	0	1059061760	56	6450
2026-01-03 20:38:34.57	331.03	7.10	-42.6	-43.8	20.9	0.00e+00	74	39	0	1061158912	56	7043
2026-01-03 20:38:35.58	330.91	7.04	-42.7	-44.0	20.7	0.00e+00	0	39	0	1063256064	58	6396
2026-01-03 20:38:36.59	330.79	6.99	-42.5	-43.7	20.8	0.00e+00	71	39	0	1065353216	58	6241
2026-01-03 20:38:37.60	330.68	6.94	-42.1	-43.4	20.9	0.00e+00	0	39	0	1067450368	58	5967
2026-01-03 20:38:38.61	330.56	6.88	-42.9	-44.2	20.3	0.00e+00	2	39	0	1068498944	58	6612
2026-01-03 20:38:39.62	330.44	6.83	-42.4	-43.7	20.6	0.00e+00	92	39	0	1070596096	58	6215
2026-01-03 20:38:40.63	330.33	6.77	-42.3	-43.6	20.5	0.00e+00	3	39	0	1072693248	58	6116
2026-01-03 20:38:41.64	330.21	6.72	-41.9	-43.1	20.8	0.00e+00	31	39	0	1074790400	58	5810
2026-01-03 20:38:42.64	330.10	6.67	-42.6	-43.9	20.8	0.00e+00	0	39	0	1076887552	56	7105
2026-01-03 20:38:43.65	329.98	6.61	-42.0	-43.2	21.0	0.00e+00	8	39	0	1077936128	56	6592
2026-01-03 20:38:44.66	329.87	6.56	-42.2	-43.4	20.9	0.00e+00	5	39	0	1080033280	58	5985
2026-01-03 20:38:45.67	329.76	6.51	-43.1	-44.3	20.8	0.00e+00	16	39	0	1082130432	58	6686
2026-01-03 20:38:46.68	329.64	6.45	-42.1	-43.3	20.9	0.00e+00	92	39	0	1084227584	58	5963
2026-01-03 20:38:47.69	329.53	6.40	-42.3	-43.6	20.6	0.00e+00	16	39	0	1086324736	58	6139
2026-01-03 20:38:48.70	329.42	6.35	-42.9	-44.1	20.8	0.00e+00	92	39	0	1087373312	58	6476
2026-01-03 20:38:49.71	329.30	6.29	-42.5	-43.7	20.5	0.00e+00	8	39	0	1089470464	58	6233
2026-01-03 20:38:50.72	329.19	6.24	-42.1	-43.4	20.7	0.00e+00	14	39	0	1091567616	58	5973
2026-01-03 20:38:51.73	329.08	6.18	-41.7	-43.0	20.7	0.00e+00	71	39	0	1093664768	56	6399
2026-01-03 20:38:52.74	328.97	6.13	-41.5	-42.7	20.9	0.00e+00	18	39	0	1095761920	56	6218
2026-01-03 20:38:53.75	328.86	6.08	-42.1	-43.4	20.2	0.00e+00	59	39	0	1097859072	56	6733
2026-01-03 20:38:54.76	328.75	6.02	-41.8	-43.1	20.7	0.00e+00	16	39	0	1098907648	56	6496
2026-01-03 20:38:55.77	328.64	5.97	-42.0	-43.3	20.5	0.00e+00	91	39	0	1101004800	56	6635
2026-01-03 20:38:56.78	328.53	5.92	-42.0	-43.3	20.5	0.00e+00	64	39	0	1103101952	56	6635
2026-01-03 20:38:57.79	328.42	5.86	-41.9	-43.2	20.3	0.00e+00	70	39	0	1105199104	56	6580
2026-01-03 20:38:58.80	328.31	5.81	-41.8	-43.1	20.4	0.00e+00	70	39	0	1107296256	56	6514
2026-01-03 20:38:59.81	328.21	5.75	-43.6	-45.1	20.2	0.00e+00	0	39	0	1108344832	60	6476
2026-01-03 20:39:00.81	328.10	5.70	-44.9	-46.4	18.6	0.00e+00	71	39	0	1110441984	60	7583
2026-01-03 20:39:01.83	327.99	5.65	-43.5	-44.9	20.0	0.00e+00	0	39	0	1112539136	60	6328
2026-01-03 20:39:02.84	327.89	5.59	-43.2	-44.6	20.1	0.00e+00	92	39	0	1114636288	60	6151
2026-01-03 20:39:03.85	327.78	5.54	-43.8	-45.2	19.6	0.00e+00	0	39	0	1116733440	60	6603
2026-01-03 20:39:04.86	327.67	5.49	-44.0	-45.5	19.3	0.00e+00	92	39	0	1117782016	60	6818
2026-01-03 20:39:05.87	327.57	5.43	-44.5	-46.0	19.4	0.00e+00	0	39	0	1119879168	60	7204
2026-01-03 20:39:06.88	327.46	5.38	-43.6	-45.1	19.6	0.00e+00	3	39	0	1121976320	60	6468
2026-01-03 20:39:07.89	327.36	5.33	-42.9	-44.4	19.3	0.00e+00	0	39	0	1124073472	60	6029
2026-01-03 20:39:08.90	327.25	5.27	-42.1	-43.5	19.8	0.00e+00	0	39	0	1126170624	58	6102
2026-01-03 20:39:09.90	327.15	5.22	-42.3	-43.8	19.4	0.00e+00	92	39	0	1127219200	58	6286
2026-01-03 20:39:10.91	327.05	5.17	-43.0	-44.6	19.2	0.00e+00	1	39	0	1129316352	58	6866
2026-01-03 20:39:11.92	326.94	5.11	-43.1	-44.6	19.4	0.00e+00	92	39	0	1131413504	58	6890
2026-01-03 20:39:12.93	326.84	5.06	-42.8	-44.3	19.6	0.00e+00	65	39	0	1133510656	58	6646
2026-01-03 20:39:13.94	326.74	5.01	-43.4	-44.9	19.3	0.00e+00	71	39	0	1135607808	58	7169
2026-01-03 20:39:14.95	326.64	4.95	-43.6	-45.3	19.2	0.00e+00	3	39	0	1136656384	60	6619
2026-01-03 20:39:15.96	326.54	4.90	-43.8	-45.4	19.0	0.00e+00	13	39	0	1138753536	60	6728
2026-01-03 20:39:16.97	326.43	4.85	-43.2	-44.8	18.9	0.00e+00	90	39	0	1140850688	60	6306
2026-01-03 20:39:17.98	326.33	4.79	-43.0	-44.6	18.9	0.00e+00	0	39	0	1142947840	60	6141
2026-01-03 20:39:18.99	326.23	4.74	-43.8	-45.6	18.8	0.00e+00	92	39	0	1145044992	60	6855
2026-01-03 20:39:20.00	326.13	4.69	-43.1	-44.7	18.7	0.00e+00	73	39	0	1146093568	60	6217
2026-01-03 20:39:21.01	326.03	4.63	-44.5	-46.2	18.2	0.00e+00	92	39	0	1148190720	60	7393
2026-01-03 20:39:22.01	325.93	4.58	-45.1	-46.9	18.4	0.00e+00	68	39	0	1150287872	60	7955
2026-01-03 20:39:23.02	325.84	4.53	-44.1	-45.8	18.6	0.00e+00	0	39	0	1152385024	60	7056
2026-01-03 20:39:24.03	325.74	4.47	-43.9	-45.5	19.0	0.00e+00	0	39	0	1154482176	60	6810
2026-01-03 20:39:25.04	325.64	4.42	-44.6	-46.3	18.4	0.00e+00	0	39	0	1155530752	60	7502
2026-01-03 20:39:26.05	325.54	4.37	-45.1	-46.8	18.3	0.00e+00	91	39	0	1157627904	60	7929
2026-01-03 20:39:27.06	325.44	4.32	-44.6	-46.4	17.8	0.00e+00	0	39	0	1159725056	60	7567
2026-01-03 20:39:28.07	325.35	4.26	-44.8	-46.6	18.0	0.00e+00	92	39	0	1161822208	60	7738
2026-01-03 20:39:29.08	325.25	4.21	-44.3	-46.0	18.3	0.00e+00	0	39	0	1163919360	60	7252
2026-01-03 20:39:30.09	325.15	4.16	-44.1	-45.9	18.3	0.00e+00	0	39	0	1166016512	60	7094
2026-01-03 20:39:31.10	325.06	4.10	-43.7	-45.5	18.3	0.00e+00	0	39	0	1167065088	60	6791
2026-01-03 20:39:32.11	324.96	4.05	-43.7	-45.4	18.5	0.00e+00	14	39	0	1169162240	60	6741
2026-01-03 20:39:33.12	324.87	4.00	-45.3	-47.1	18.0	0.00e+00	92	39	0	1171259392	60	8202
2026-01-03 20:39:34.13	324.77	3.94	-44.3	-46.1	18.1	0.00e+00	64	39	0	1173356544	60	7289
2026-01-03 20:39:35.14	324.68	3.89	-44.7	-46.6	17.9	0.00e+00	92	39	0	1175453696	60	7720
2026-01-03 20:39:36.15	324.58	3.84	-44.6	-46.4	18.2	0.00e+00	64	39	0	1176502272	60	7514
2026-01-03 20:39:37.15	324.49	3.79	-44.9	-46.8	17.6	0.00e+00	67	39	0	1178599424	60	7879
2026-01-03 20:39:38.16	324.40	3.73	-44.5	-46.3	18.1	0.00e+00	2	39	0	1180696576	60	7440
2026-01-03 20:39:39.17	324.30	3.68	-44.2	-46.1	17.9	0.00e+00	0	39	0	1182793728	60	7294
2026-01-03 20:39:40.18	324.21	3.63	-44.6	-46.5	17.7	0.00e+00	92	39	0	1184890880	60	7642
2026-01-03 20:39:41.19	324.12	3.58	-44.3	-46.2	17.8	0.00e+00	65	39	0	1185939456	60	7368
2026-01-03 20:39:42.20	324.03	3.52	-44.2	-46.2	17.3	0.00e+00	92	39	0	1188036608	60	7396
2026-01-03 20:39:43.21	323.93	3.47	-44.5	-46.6	16.9	0.00e+00	65	39	0	1190133760	60	7720
2026-01-03 20:39:44.22	323.84	3.42	-44.7	-46.8	17.2	0.00e+00	0	39	0	1192230912	60	7932
