passes_logs/2026/01/01/R4.6S_Anadyr/R4.6S_Anadyr__20260101_140632_SUOMI_NPP_rec.log

#Pass ID: 20260101_140632_SUOMI NPP
#Satellite: SUOMI NPP
#Configuration: NPP
#almurnet v.1.7.20251203
#Start time: 2026-01-01 14:06:34

#Version: 2.2.20231116
#Station: R4.6S_Anadyr
#Location: 177.4865 lon 64.73178 lat
#TLE: 1 37849U 11061A   25364.87906318  .00000195  00000+0  11345-3 0  9993
#TLE: 2 37849  98.7794 302.0592 0002571  89.2401 270.9069 14.19520347734561

#Time	Az	El	Level	Level2	SNR	BER	BlckErr	Temp	State	Recorded	gain1	gain2
2026-01-01 14:06:34.33	19.45	0.09	-49.1	-61.6	3.5	1.52e+00	0	35	0	0	60	42149
2026-01-01 14:06:35.34	19.47	0.15	-49.1	-64.2	3.6	1.51e+00	0	36	104	0	60	58805
2026-01-01 14:06:36.35	19.50	0.21	-49.0	-64.3	3.6	1.51e+00	0	36	104	0	60	58964
2026-01-01 14:06:37.36	19.52	0.27	-49.0	-64.2	3.6	1.51e+00	0	36	104	0	60	58778
2026-01-01 14:06:38.37	19.55	0.33	-49.0	-64.3	3.6	1.51e+00	0	37	104	0	60	59145
2026-01-01 14:06:39.38	19.57	0.39	-49.0	-64.3	3.6	1.51e+00	0	37	104	0	60	59039
2026-01-01 14:06:40.39	19.60	0.45	-49.0	-64.3	3.6	1.51e+00	0	37	104	0	60	59174
2026-01-01 14:06:41.40	19.62	0.51	-49.1	-64.3	3.6	1.51e+00	0	37	104	0	60	59123
2026-01-01 14:06:42.41	19.65	0.57	-49.0	-64.3	3.6	1.51e+00	0	37	104	0	60	59026
2026-01-01 14:06:43.42	19.67	0.63	-49.0	-64.2	3.6	1.51e+00	0	37	104	0	60	58489
2026-01-01 14:06:44.43	19.70	0.69	-48.9	-64.2	3.6	1.51e+00	0	37	104	0	60	58305
2026-01-01 14:06:45.44	19.72	0.75	-48.8	-64.0	3.6	1.51e+00	0	37	104	0	60	57281
2026-01-01 14:06:46.45	19.75	0.81	-48.7	-63.8	3.6	1.51e+00	0	37	104	0	60	56269
2026-01-01 14:06:47.46	19.78	0.87	-48.4	-63.6	3.6	1.51e+00	0	37	104	0	60	54716
2026-01-01 14:06:48.47	19.80	0.93	-48.3	-63.5	3.6	1.51e+00	0	37	104	0	60	53950
2026-01-01 14:06:49.48	19.83	0.99	-48.1	-63.3	3.6	1.51e+00	0	37	104	0	60	52626
2026-01-01 14:06:50.49	19.85	1.05	-47.7	-62.9	3.6	1.51e+00	0	37	104	0	60	50609
2026-01-01 14:06:51.50	19.88	1.11	-47.6	-62.8	3.6	1.51e+00	0	37	104	0	60	50023
2026-01-01 14:06:52.51	19.91	1.17	-47.6	-62.8	3.5	1.51e+00	0	37	104	0	60	49697
2026-01-01 14:06:53.51	19.93	1.24	-47.6	-62.8	3.6	1.51e+00	0	37	104	0	60	49753
2026-01-01 14:06:54.52	19.96	1.30	-47.6	-62.7	3.6	1.51e+00	0	37	104	0	60	49168
2026-01-01 14:06:55.53	19.99	1.36	-47.6	-62.7	3.6	1.51e+00	0	37	104	0	60	49474
2026-01-01 14:06:56.54	20.01	1.42	-47.6	-62.6	3.6	1.51e+00	0	37	104	0	60	48913
2026-01-01 14:06:57.55	20.04	1.48	-47.6	-62.6	3.6	1.51e+00	0	37	104	0	60	48831
2026-01-01 14:06:58.56	20.07	1.54	-47.6	-62.7	3.6	1.51e+00	0	37	104	0	60	49400
2026-01-01 14:06:59.57	20.09	1.61	-47.6	-62.7	3.6	1.51e+00	0	37	104	0	60	49426
2026-01-01 14:07:00.58	20.12	1.67	-47.6	-62.7	3.6	1.51e+00	0	37	104	0	60	49543
2026-01-01 14:07:01.59	20.15	1.73	-47.6	-62.7	3.6	1.51e+00	0	37	104	0	60	49457
2026-01-01 14:07:02.60	20.18	1.79	-47.6	-62.8	3.6	1.51e+00	0	37	104	0	60	49834
2026-01-01 14:07:03.61	20.20	1.86	-47.6	-62.7	3.6	1.51e+00	0	37	104	0	60	49434
2026-01-01 14:07:04.62	20.23	1.92	-47.6	-62.7	3.6	1.51e+00	0	37	104	0	60	49271
2026-01-01 14:07:05.63	20.26	1.98	-47.6	-62.6	3.6	1.51e+00	0	37	104	0	60	48958
2026-01-01 14:07:06.64	20.29	2.05	-47.6	-62.7	3.6	1.51e+00	0	37	104	0	60	49462
2026-01-01 14:07:07.65	20.31	2.11	-47.6	-62.7	3.6	1.51e+00	0	37	104	0	60	49060
2026-01-01 14:07:08.66	20.34	2.17	-47.6	-62.4	3.6	1.51e+00	0	37	104	0	60	47761
2026-01-01 14:07:09.68	20.37	2.24	-47.6	-61.9	3.6	1.51e+00	0	37	104	0	60	44927
2026-01-01 14:07:10.68	20.40	2.30	-47.5	-61.3	3.6	1.51e+00	0	37	104	0	60	42183
2026-01-01 14:07:11.70	20.43	2.36	-47.5	-60.8	3.6	1.51e+00	0	37	104	0	60	39481
2026-01-01 14:07:12.70	20.45	2.43	-47.5	-59.9	3.8	1.49e+00	0	37	104	0	60	35891
2026-01-01 14:07:13.72	20.48	2.49	-47.5	-60.0	3.7	1.48e+00	0	37	104	0	60	36152
2026-01-01 14:07:14.72	20.51	2.56	-47.5	-60.1	3.6	1.46e+00	0	37	104	0	60	36508
2026-01-01 14:07:15.73	20.54	2.62	-47.5	-60.3	3.6	1.48e+00	0	37	104	0	60	37615
2026-01-01 14:07:16.74	20.57	2.68	-47.5	-60.0	3.7	1.49e+00	0	37	104	0	60	36194
2026-01-01 14:07:17.75	20.60	2.75	-47.3	-57.8	4.4	1.42e+00	76	37	0	0	60	27906
2026-01-01 14:07:18.76	20.63	2.81	-47.0	-54.5	6.3	6.50e-01	0	37	0	2097152	60	19080
2026-01-01 14:07:19.77	20.66	2.88	-46.4	-52.1	9.2	6.18e-02	0	37	0	3145728	60	14537
2026-01-01 14:07:20.78	20.68	2.94	-45.7	-50.1	11.3	6.49e-03	0	37	0	5242880	60	11624
2026-01-01 14:07:21.80	20.71	3.01	-44.7	-48.2	13.5	9.99e-05	0	37	0	7340032	60	9247
2026-01-01 14:07:22.80	20.74	3.07	-44.1	-46.9	14.8	7.00e-07	13	37	0	9437184	60	8024
2026-01-01 14:07:23.81	20.77	3.14	-43.4	-45.8	15.8	0.00e+00	0	37	0	11534336	60	7049
2026-01-01 14:07:24.82	20.80	3.21	-43.1	-45.3	16.5	0.00e+00	91	37	0	12582912	60	6684
2026-01-01 14:07:25.84	20.83	3.27	-42.8	-45.0	16.9	0.00e+00	0	37	0	14680064	60	6452
2026-01-01 14:07:26.84	20.86	3.34	-42.7	-44.8	16.8	0.00e+00	0	37	0	16777216	58	7043
2026-01-01 14:07:27.85	20.89	3.40	-43.0	-45.3	16.3	0.00e+00	0	37	0	18874368	58	7499
2026-01-01 14:07:28.86	20.92	3.47	-43.3	-45.7	15.9	0.00e+00	0	37	0	20971520	58	7815
2026-01-01 14:07:29.87	20.95	3.54	-43.9	-46.7	15.1	0.00e+00	0	37	0	22020096	60	7796
2026-01-01 14:07:30.88	20.98	3.60	-44.9	-48.4	13.2	7.00e-07	0	37	0	24117248	60	9505
2026-01-01 14:07:31.89	21.01	3.67	-45.7	-50.4	11.0	1.33e-04	81	37	0	26214400	60	11911
2026-01-01 14:07:32.90	21.04	3.74	-41.5	-43.1	18.5	0.00e+00	0	37	0	28311552	56	6529
2026-01-01 14:07:33.91	21.07	3.80	-46.5	-53.0	7.5	0.00e+00	0	37	0	30408704	60	16057
2026-01-01 14:07:34.92	21.10	3.87	-47.6	-59.9	3.6	6.95e-02	0	37	104	31457280	60	35551
2026-01-01 14:07:35.93	21.14	3.94	-45.1	-48.8	5.7	1.49e+00	0	37	104	31457280	60	9969
2026-01-01 14:07:36.94	21.17	4.01	-47.5	-61.3	3.6	3.04e-01	0	37	104	31457280	60	42099
2026-01-01 14:07:37.95	21.20	4.07	-45.0	-48.7	5.8	1.50e+00	0	37	104	31457280	60	9870
2026-01-01 14:07:38.96	21.23	4.14	-44.7	-48.0	13.4	3.80e-06	91	37	0	31457280	60	9069
2026-01-01 14:07:39.97	21.26	4.21	-44.3	-47.2	14.7	7.00e-07	0	37	0	33554432	60	8321
2026-01-01 14:07:40.98	21.29	4.28	-44.1	-46.9	14.5	0.00e+00	91	37	0	35651584	60	7994
2026-01-01 14:07:41.99	21.32	4.35	-44.0	-46.7	15.2	0.00e+00	0	37	0	36700160	60	7832
2026-01-01 14:07:43.00	21.35	4.42	-43.9	-46.5	15.3	0.00e+00	0	37	0	38797312	60	7675
2026-01-01 14:07:44.01	21.39	4.48	-43.7	-46.3	15.7	0.00e+00	0	37	0	40894464	60	7430
2026-01-01 14:07:45.02	21.42	4.55	-44.1	-46.9	15.1	0.00e+00	0	37	0	42991616	60	7996
2026-01-01 14:07:46.03	21.45	4.62	-43.6	-46.0	15.5	0.00e+00	90	37	0	45088768	60	7178
2026-01-01 14:07:47.04	21.48	4.69	-43.9	-46.6	15.6	0.00e+00	0	37	0	46137344	60	7712
2026-01-01 14:07:48.05	21.52	4.76	-43.8	-46.4	15.9	0.00e+00	90	38	0	48234496	60	7532
2026-01-01 14:07:49.06	21.55	4.83	-42.8	-44.8	17.2	0.00e+00	0	37	0	50331648	60	6289
2026-01-01 14:07:50.07	21.58	4.90	-42.0	-43.8	18.1	0.00e+00	0	37	0	52428800	58	6274
2026-01-01 14:07:51.07	21.61	4.97	-41.6	-43.2	18.7	0.00e+00	0	37	0	54525952	56	6613
2026-01-01 14:07:52.09	21.65	5.04	-41.0	-42.5	19.3	0.00e+00	0	37	0	55574528	56	6073
2026-01-01 14:07:53.09	21.68	5.11	-41.0	-42.5	19.4	0.00e+00	0	37	0	57671680	56	6058
2026-01-01 14:07:54.10	21.71	5.18	-41.1	-42.6	19.4	0.00e+00	0	37	0	59768832	56	6143
2026-01-01 14:07:55.11	21.75	5.25	-41.1	-42.6	19.2	0.00e+00	38	37	0	61865984	56	6168
2026-01-01 14:07:56.12	21.78	5.32	-41.0	-42.4	19.5	0.00e+00	0	37	0	63963136	56	6013
2026-01-01 14:07:57.13	21.81	5.39	-40.9	-42.4	19.5	0.00e+00	0	37	0	65011712	56	5968
2026-01-01 14:07:58.14	21.85	5.47	-41.1	-42.6	19.4	0.00e+00	0	37	0	67108864	56	6112
2026-01-01 14:07:59.15	21.88	5.54	-40.7	-42.1	19.7	0.00e+00	0	37	0	69206016	56	5778
2026-01-01 14:08:00.16	21.91	5.61	-40.6	-42.0	19.9	0.00e+00	70	37	0	71303168	54	6411
2026-01-01 14:08:01.17	21.95	5.68	-40.6	-42.0	19.8	0.00e+00	0	37	0	73400320	54	6428
2026-01-01 14:08:02.18	21.98	5.75	-40.6	-42.0	19.7	0.00e+00	92	37	0	74448896	54	6463
2026-01-01 14:08:03.19	22.02	5.82	-40.8	-42.2	19.7	0.00e+00	0	38	0	76546048	54	6555
2026-01-01 14:08:04.20	22.05	5.90	-40.8	-42.2	19.6	0.00e+00	3	37	0	78643200	54	6596
2026-01-01 14:08:05.21	22.09	5.97	-40.6	-42.0	19.9	0.00e+00	0	37	0	80740352	54	6446
2026-01-01 14:08:06.22	22.12	6.04	-40.6	-41.9	19.9	0.00e+00	0	37	0	82837504	54	6389
2026-01-01 14:08:07.23	22.16	6.12	-40.7	-42.0	19.9	0.00e+00	51	37	0	84934656	54	6463
2026-01-01 14:08:08.24	22.19	6.19	-40.5	-41.8	20.0	0.00e+00	20	37	0	85983232	54	6317
2026-01-01 14:08:09.25	22.23	6.26	-40.7	-42.1	19.8	0.00e+00	42	37	0	88080384	54	6468
2026-01-01 14:08:10.25	22.26	6.33	-40.5	-41.9	19.9	0.00e+00	0	37	0	90177536	54	6366
2026-01-01 14:08:11.26	22.30	6.41	-40.5	-41.9	20.0	0.00e+00	64	37	0	92274688	54	6349
2026-01-01 14:08:12.27	22.33	6.48	-40.6	-42.0	20.0	0.00e+00	0	37	0	94371840	54	6408
2026-01-01 14:08:13.28	22.37	6.56	-40.5	-41.8	20.1	0.00e+00	0	38	0	95420416	54	6298
2026-01-01 14:08:14.29	22.41	6.63	-40.7	-42.1	19.8	0.00e+00	18	38	0	97517568	54	6496
2026-01-01 14:08:15.30	22.44	6.71	-40.7	-42.1	19.9	0.00e+00	0	37	0	99614720	54	6477
2026-01-01 14:08:16.31	22.48	6.78	-40.6	-41.9	20.0	0.00e+00	92	38	0	101711872	54	6380
2026-01-01 14:08:17.32	22.51	6.86	-40.5	-41.9	20.1	0.00e+00	0	37	0	103809024	54	6336
2026-01-01 14:08:18.33	22.55	6.93	-40.6	-42.0	20.0	0.00e+00	92	37	0	104857600	54	6431
2026-01-01 14:08:19.34	22.59	7.01	-40.6	-42.0	20.1	0.00e+00	0	37	0	106954752	54	6407
2026-01-01 14:08:20.35	22.63	7.08	-40.6	-41.9	20.0	0.00e+00	0	38	0	109051904	54	6372
2026-01-01 14:08:21.36	22.66	7.16	-40.4	-41.8	20.2	0.00e+00	17	38	0	111149056	54	6265
2026-01-01 14:08:22.37	22.70	7.23	-40.6	-41.9	20.1	0.00e+00	0	37	0	113246208	54	6374
2026-01-01 14:08:23.38	22.74	7.31	-40.6	-41.9	20.1	0.00e+00	13	38	0	114294784	54	6360
2026-01-01 14:08:24.39	22.78	7.39	-40.6	-42.0	20.1	0.00e+00	0	37	0	116391936	54	6397
2026-01-01 14:08:25.40	22.81	7.46	-40.5	-41.8	20.1	0.00e+00	68	37	0	118489088	54	6293
2026-01-01 14:08:26.41	22.85	7.54	-40.6	-41.9	20.2	0.00e+00	0	38	0	120586240	54	6376
2026-01-01 14:08:27.42	22.89	7.62	-40.5	-41.8	20.1	0.00e+00	0	38	0	122683392	54	6296
2026-01-01 14:08:28.43	22.93	7.70	-40.5	-41.9	20.3	0.00e+00	0	38	0	123731968	54	6338
2026-01-01 14:08:29.44	22.97	7.77	-40.7	-42.1	20.0	0.00e+00	0	37	0	125829120	54	6477
2026-01-01 14:08:30.45	23.01	7.85	-40.5	-41.8	20.2	0.00e+00	65	38	0	127926272	54	6259
2026-01-01 14:08:31.46	23.05	7.93	-40.5	-41.8	20.1	0.00e+00	0	38	0	130023424	54	6314
2026-01-01 14:08:32.47	23.08	8.01	-40.3	-41.6	20.4	0.00e+00	24	37	0	132120576	54	6145
2026-01-01 14:08:33.48	23.12	8.09	-40.3	-41.6	20.4	0.00e+00	0	38	0	133169152	54	6164
2026-01-01 14:08:34.49	23.16	8.16	-40.4	-41.7	20.4	0.00e+00	0	38	0	135266304	54	6205
2026-01-01 14:08:35.50	23.20	8.24	-40.4	-41.7	20.3	0.00e+00	0	38	0	137363456	54	6174
2026-01-01 14:08:36.51	23.24	8.32	-40.5	-41.8	20.2	0.00e+00	0	38	0	139460608	54	6308
2026-01-01 14:08:37.52	23.28	8.40	-40.6	-41.9	20.1	0.00e+00	10	38	0	141557760	54	6386
2026-01-01 14:08:38.53	23.32	8.48	-40.1	-41.4	20.5	0.00e+00	0	38	0	142606336	54	6001
2026-01-01 14:08:39.54	23.36	8.56	-40.2	-41.5	20.5	0.00e+00	70	38	0	144703488	54	6073
2026-01-01 14:08:40.55	23.41	8.64	-40.2	-41.5	20.4	0.00e+00	0	37	0	146800640	54	6069
2026-01-01 14:08:41.56	23.45	8.72	-40.5	-41.8	20.2	0.00e+00	0	38	0	148897792	54	6281
2026-01-01 14:08:42.57	23.49	8.80	-40.3	-41.5	20.2	0.00e+00	0	38	0	150994944	54	6098
2026-01-01 14:08:43.58	23.53	8.89	-40.0	-41.3	20.5	0.00e+00	0	37	0	153092096	54	5909
2026-01-01 14:08:44.59	23.57	8.97	-40.1	-41.3	20.7	0.00e+00	13	37	0	154140672	54	5959
2026-01-01 14:08:45.60	23.61	9.05	-40.0	-41.2	20.6	0.00e+00	0	37	0	156237824	54	5874
2026-01-01 14:08:46.61	23.65	9.13	-39.8	-41.0	21.1	0.00e+00	44	37	0	158334976	54	5701
2026-01-01 14:08:47.61	23.70	9.21	-40.0	-41.2	20.8	0.00e+00	0	38	0	160432128	52	6576
2026-01-01 14:08:48.63	23.74	9.29	-40.0	-41.2	20.8	0.00e+00	79	38	0	162529280	52	6551
2026-01-01 14:08:49.63	23.78	9.38	-40.0	-41.2	20.8	0.00e+00	0	38	0	163577856	52	6583
2026-01-01 14:08:50.64	23.82	9.46	-39.8	-41.0	20.9	0.00e+00	0	38	0	165675008	52	6413
2026-01-01 14:08:51.65	23.87	9.54	-39.8	-40.9	21.2	0.00e+00	0	37	0	167772160	52	6369
2026-01-01 14:08:52.66	23.91	9.63	-39.8	-41.0	21.0	0.00e+00	0	38	0	169869312	52	6424
2026-01-01 14:08:53.67	23.95	9.71	-39.7	-40.9	21.2	0.00e+00	92	38	0	171966464	52	6347
2026-01-01 14:08:54.68	24.00	9.79	-39.7	-40.8	21.1	0.00e+00	0	38	0	173015040	52	6312
2026-01-01 14:08:55.69	24.04	9.88	-39.5	-40.6	21.5	0.00e+00	80	38	0	175112192	52	6146
2026-01-01 14:08:56.70	24.09	9.96	-39.5	-40.6	21.5	0.00e+00	0	38	0	177209344	52	6127
2026-01-01 14:08:57.71	24.13	10.05	-39.5	-40.6	21.4	0.00e+00	0	38	0	179306496	52	6122
2026-01-01 14:08:58.72	24.18	10.13	-39.4	-40.5	21.6	0.00e+00	0	38	0	181403648	52	6040
2026-01-01 14:08:59.73	24.22	10.22	-39.3	-40.4	21.7	0.00e+00	0	38	0	182452224	52	5997
2026-01-01 14:09:00.74	24.27	10.30	-39.4	-40.5	21.5	0.00e+00	83	38	0	184549376	52	6084
2026-01-01 14:09:01.75	24.31	10.39	-39.3	-40.4	21.6	0.00e+00	16	38	0	186646528	52	6032
2026-01-01 14:09:02.76	24.36	10.47	-39.3	-40.4	21.6	0.00e+00	72	38	0	188743680	52	6007
2026-01-01 14:09:03.77	24.40	10.56	-39.3	-40.4	21.6	0.00e+00	0	38	0	190840832	52	6008
2026-01-01 14:09:04.78	24.45	10.65	-39.2	-40.3	21.7	0.00e+00	0	38	0	191889408	52	5927
2026-01-01 14:09:05.79	24.49	10.73	-39.4	-40.5	21.6	0.00e+00	0	38	0	193986560	52	6051
2026-01-01 14:09:06.80	24.54	10.82	-39.0	-40.1	21.9	0.00e+00	0	38	0	196083712	52	5779
2026-01-01 14:09:07.80	24.59	10.91	-39.1	-40.2	21.9	0.00e+00	12	38	0	198180864	52	5847
2026-01-01 14:09:08.81	24.63	11.00	-39.0	-40.1	22.0	0.00e+00	0	38	0	200278016	52	5771
2026-01-01 14:09:09.83	24.68	11.09	-39.0	-40.0	22.0	0.00e+00	92	38	0	201326592	52	5747
2026-01-01 14:09:10.84	24.73	11.17	-38.8	-39.9	22.1	0.00e+00	0	38	0	203423744	52	5641
2026-01-01 14:09:11.84	24.78	11.26	-38.9	-40.0	22.1	0.00e+00	0	38	0	205520896	52	5707
2026-01-01 14:09:12.86	24.83	11.35	-38.7	-39.8	22.2	0.00e+00	0	38	0	207618048	50	6258
2026-01-01 14:09:13.86	24.87	11.44	-38.8	-39.9	22.1	0.00e+00	0	38	0	209715200	50	6330
2026-01-01 14:09:14.87	24.92	11.53	-38.5	-39.5	22.4	0.00e+00	18	38	0	210763776	50	6072
2026-01-01 14:09:15.88	24.97	11.62	-38.8	-39.8	22.1	0.00e+00	0	38	0	212860928	50	6290
2026-01-01 14:09:16.89	25.02	11.71	-38.5	-39.5	22.5	0.00e+00	92	38	0	214958080	50	6041
2026-01-01 14:09:17.90	25.07	11.80	-38.6	-39.6	22.4	0.00e+00	0	38	0	217055232	50	6117
2026-01-01 14:09:18.91	25.12	11.89	-38.5	-39.5	22.4	0.00e+00	0	38	0	219152384	50	6095
2026-01-01 14:09:19.92	25.17	11.98	-38.5	-39.5	22.5	0.00e+00	0	38	0	221249536	50	6054
2026-01-01 14:09:20.93	25.22	12.08	-38.5	-39.4	22.5	0.00e+00	0	38	0	222298112	50	6024
2026-01-01 14:09:21.94	25.27	12.17	-38.4	-39.4	22.5	0.00e+00	9	38	0	224395264	50	6008
2026-01-01 14:09:22.95	25.32	12.26	-38.5	-39.5	22.4	0.00e+00	0	38	0	226492416	50	6075
2026-01-01 14:09:23.96	25.37	12.35	-38.3	-39.3	22.5	0.00e+00	92	38	0	228589568	50	5952
2026-01-01 14:09:24.97	25.42	12.45	-38.6	-39.6	22.4	0.00e+00	0	38	0	230686720	50	6141
2026-01-01 14:09:25.98	25.48	12.54	-38.6	-39.6	22.4	0.00e+00	92	38	0	231735296	50	6134
2026-01-01 14:09:26.99	25.53	12.63	-38.6	-39.6	22.4	0.00e+00	0	38	0	233832448	50	6157
2026-01-01 14:09:27.99	25.58	12.73	-39.0	-40.0	22.1	0.00e+00	0	38	0	235929600	50	6459
2026-01-01 14:09:29.00	25.63	12.82	-38.9	-40.0	22.1	0.00e+00	0	38	0	238026752	50	6427
2026-01-01 14:09:30.01	25.69	12.92	-38.7	-39.7	22.3	0.00e+00	0	38	0	240123904	50	6198
2026-01-01 14:09:31.03	25.74	13.01	-38.3	-39.3	22.6	0.00e+00	18	38	0	241172480	50	5955
2026-01-01 14:09:32.03	25.79	13.11	-38.5	-39.5	22.5	0.00e+00	0	38	0	243269632	50	6091
2026-01-01 14:09:33.04	25.85	13.20	-38.6	-39.6	22.3	0.00e+00	92	38	0	245366784	50	6147
2026-01-01 14:09:34.05	25.90	13.30	-38.6	-39.6	22.5	0.00e+00	0	38	0	247463936	50	6116
2026-01-01 14:09:35.06	25.96	13.39	-38.4	-39.4	22.6	0.00e+00	13	38	0	249561088	50	6025
2026-01-01 14:09:36.07	26.01	13.49	-38.5	-39.5	22.5	0.00e+00	0	38	0	250609664	50	6095
2026-01-01 14:09:37.08	26.07	13.59	-38.3	-39.2	22.6	0.00e+00	0	38	0	252706816	50	5891
2026-01-01 14:09:38.09	26.12	13.69	-38.4	-39.4	22.6	0.00e+00	63	38	0	254803968	50	6015
2026-01-01 14:09:39.10	26.18	13.78	-38.5	-39.5	22.5	0.00e+00	0	38	0	256901120	50	6074
2026-01-01 14:09:40.11	26.23	13.88	-38.6	-39.6	22.4	0.00e+00	28	38	0	258998272	50	6110
2026-01-01 14:09:41.12	26.29	13.98	-38.7	-39.8	22.3	0.00e+00	0	38	0	260046848	50	6254
2026-01-01 14:09:42.13	26.35	14.08	-38.4	-39.4	22.6	0.00e+00	0	38	0	262144000	50	6004
2026-01-01 14:09:43.14	26.40	14.18	-38.3	-39.3	22.7	0.00e+00	0	38	0	264241152	50	5944
2026-01-01 14:09:44.15	26.46	14.28	-38.2	-39.2	22.7	0.00e+00	0	38	0	266338304	50	5853
2026-01-01 14:09:45.16	26.52	14.38	-38.4	-39.4	22.6	0.00e+00	73	38	0	268435456	50	6014
2026-01-01 14:09:46.17	26.58	14.48	-38.4	-39.4	22.6	0.00e+00	0	38	0	269484032	50	6004
2026-01-01 14:09:47.18	26.64	14.58	-38.5	-39.5	22.5	0.00e+00	78	38	0	271581184	50	6086
2026-01-01 14:09:48.19	26.70	14.68	-38.3	-39.2	22.8	0.00e+00	0	38	0	273678336	50	5872
2026-01-01 14:09:49.20	26.76	14.79	-38.4	-39.4	22.7	0.00e+00	0	38	0	275775488	50	6002
2026-01-01 14:09:50.21	26.82	14.89	-38.2	-39.2	22.7	0.00e+00	0	38	0	277872640	50	5860
2026-01-01 14:09:51.22	26.88	14.99	-38.4	-39.4	22.7	0.00e+00	0	38	0	278921216	50	6024
2026-01-01 14:09:52.23	26.94	15.09	-38.6	-39.6	22.5	0.00e+00	89	38	0	281018368	50	6126
2026-01-01 14:09:53.24	27.00	15.20	-38.6	-39.6	22.5	0.00e+00	0	38	0	283115520	50	6165
2026-01-01 14:09:54.25	27.06	15.30	-38.5	-39.5	22.4	0.00e+00	84	38	0	285212672	50	6066
2026-01-01 14:09:55.26	27.12	15.41	-38.7	-39.7	22.4	0.00e+00	16	38	0	287309824	50	6225
2026-01-01 14:09:56.27	27.18	15.51	-38.5	-39.5	22.7	0.00e+00	0	38	0	289406976	50	6045
2026-01-01 14:09:57.28	27.25	15.62	-38.5	-39.5	22.6	0.00e+00	0	38	0	290455552	50	6063
2026-01-01 14:09:58.29	27.31	15.72	-38.5	-39.5	22.6	0.00e+00	15	38	0	292552704	50	6077
2026-01-01 14:09:59.29	27.37	15.83	-38.6	-39.6	22.5	0.00e+00	20	38	0	294649856	50	6112
2026-01-01 14:10:00.30	27.44	15.93	-38.6	-39.6	22.5	0.00e+00	0	38	0	296747008	50	6140
2026-01-01 14:10:01.31	27.50	16.04	-38.9	-39.9	22.2	0.00e+00	92	38	0	298844160	50	6348
2026-01-01 14:10:02.32	27.56	16.15	-38.7	-39.8	22.4	0.00e+00	0	38	0	299892736	50	6248
2026-01-01 14:10:03.33	27.63	16.25	-38.7	-39.8	22.4	0.00e+00	81	38	0	301989888	50	6247
2026-01-01 14:10:04.35	27.70	16.36	-38.3	-39.3	22.7	0.00e+00	0	38	0	304087040	50	5944
2026-01-01 14:10:05.36	27.76	16.47	-38.4	-39.4	22.7	0.00e+00	0	38	0	306184192	50	5985
2026-01-01 14:10:06.36	27.83	16.58	-38.3	-39.2	22.8	0.00e+00	0	38	0	308281344	50	5895
2026-01-01 14:10:07.37	27.90	16.69	-38.1	-39.1	23.0	0.00e+00	0	38	0	309329920	50	5769
2026-01-01 14:10:08.38	27.96	16.80	-37.9	-38.8	23.1	0.00e+00	69	38	0	311427072	50	5585
2026-01-01 14:10:09.39	28.03	16.91	-37.9	-38.9	23.2	0.00e+00	0	38	0	313524224	50	5632
2026-01-01 14:10:10.40	28.10	17.02	-37.7	-38.6	23.2	0.00e+00	60	38	0	315621376	50	5500
2026-01-01 14:10:11.41	28.17	17.13	-37.7	-38.6	23.4	0.00e+00	0	38	0	317718528	48	6143
2026-01-01 14:10:12.42	28.24	17.25	-37.5	-38.4	23.5	0.00e+00	0	38	0	318767104	48	5977
2026-01-01 14:10:13.43	28.31	17.36	-37.5	-38.4	23.5	0.00e+00	0	38	0	320864256	48	6026
2026-01-01 14:10:14.43	28.38	17.47	-37.4	-38.3	23.6	0.00e+00	0	38	0	322961408	48	5906
2026-01-01 14:10:15.45	28.45	17.58	-37.3	-38.2	23.5	0.00e+00	58	38	0	325058560	48	5860
2026-01-01 14:10:16.45	28.52	17.70	-37.5	-38.4	23.5	0.00e+00	0	38	0	327155712	48	6009
2026-01-01 14:10:17.47	28.59	17.81	-37.5	-38.4	23.4	0.00e+00	92	38	0	328204288	48	6000
2026-01-01 14:10:18.48	28.66	17.93	-37.6	-38.5	23.4	0.00e+00	0	38	0	330301440	48	6091
2026-01-01 14:10:19.49	28.74	18.04	-37.8	-38.7	23.3	0.00e+00	0	38	0	332398592	48	6189
2026-01-01 14:10:20.50	28.81	18.16	-38.0	-38.9	23.1	0.00e+00	0	38	0	334495744	48	6368
2026-01-01 14:10:21.51	28.88	18.28	-37.8	-38.7	23.2	0.00e+00	0	38	0	336592896	48	6202
2026-01-01 14:10:22.52	28.96	18.39	-37.9	-38.9	23.2	0.00e+00	14	38	0	337641472	48	6339
2026-01-01 14:10:23.52	29.03	18.51	-37.9	-38.8	23.1	0.00e+00	0	38	0	339738624	48	6267
2026-01-01 14:10:24.53	29.11	18.63	-37.5	-38.4	23.5	0.00e+00	75	38	0	341835776	48	5993
2026-01-01 14:10:25.54	29.18	18.75	-37.5	-38.4	23.5	0.00e+00	0	38	0	343932928	48	6010
2026-01-01 14:10:26.55	29.26	18.86	-37.6	-38.5	23.4	0.00e+00	0	38	0	346030080	48	6103
2026-01-01 14:10:27.56	29.34	18.98	-37.6	-38.5	23.5	0.00e+00	0	38	0	347078656	48	6071
2026-01-01 14:10:28.57	29.41	19.10	-37.7	-38.7	23.2	0.00e+00	0	38	0	349175808	48	6193
2026-01-01 14:10:29.58	29.49	19.23	-37.8	-38.7	23.1	0.00e+00	0	38	0	351272960	48	6208
2026-01-01 14:10:30.59	29.57	19.35	-37.8	-38.7	23.2	0.00e+00	0	38	0	353370112	48	6242
2026-01-01 14:10:31.60	29.65	19.47	-37.5	-38.5	23.5	0.00e+00	92	38	0	355467264	48	6042
2026-01-01 14:10:32.60	29.73	19.59	-37.8	-38.7	23.4	0.00e+00	0	38	0	357564416	48	6231
2026-01-01 14:10:33.61	29.81	19.71	-37.6	-38.5	23.4	0.00e+00	2	38	0	358612992	48	6074
2026-01-01 14:10:34.62	29.89	19.84	-37.7	-38.6	23.4	0.00e+00	0	38	0	360710144	48	6125
2026-01-01 14:10:35.63	29.97	19.96	-37.9	-38.8	23.2	0.00e+00	0	38	0	362807296	48	6306
2026-01-01 14:10:36.64	30.06	20.08	-37.8	-38.7	23.2	0.00e+00	0	38	0	364904448	48	6227
2026-01-01 14:10:37.65	30.14	20.21	-37.7	-38.6	23.3	0.00e+00	0	38	0	367001600	48	6121
2026-01-01 14:10:38.66	30.22	20.33	-37.5	-38.4	23.6	0.00e+00	63	38	0	368050176	48	5965
2026-01-01 14:10:39.67	30.31	20.46	-37.4	-38.3	23.6	0.00e+00	0	38	0	370147328	48	5951
2026-01-01 14:10:40.68	30.39	20.59	-37.4	-38.3	23.5	0.00e+00	92	38	0	372244480	48	5906
2026-01-01 14:10:41.69	30.48	20.71	-37.1	-37.9	23.8	0.00e+00	0	38	0	374341632	48	5691
2026-01-01 14:10:42.70	30.57	20.84	-37.0	-37.8	23.9	0.00e+00	0	38	0	376438784	48	5619
2026-01-01 14:10:43.71	30.65	20.97	-36.8	-37.7	24.1	0.00e+00	0	38	0	377487360	46	6190
2026-01-01 14:10:44.72	30.74	21.10	-36.9	-37.8	24.1	0.00e+00	0	38	0	379584512	46	6258
2026-01-01 14:10:45.73	30.83	21.23	-36.8	-37.7	24.1	0.00e+00	19	38	0	381681664	46	6183
2026-01-01 14:10:46.74	30.92	21.36	-36.8	-37.6	24.2	0.00e+00	0	38	0	383778816	46	6148
2026-01-01 14:10:47.75	31.01	21.49	-36.8	-37.6	24.1	0.00e+00	92	38	0	385875968	46	6144
2026-01-01 14:10:48.76	31.10	21.62	-36.9	-37.7	24.1	0.00e+00	0	38	0	386924544	46	6229
2026-01-01 14:10:49.77	31.19	21.76	-36.9	-37.8	24.0	0.00e+00	0	38	0	389021696	46	6258
2026-01-01 14:10:50.78	31.28	21.89	-36.9	-37.8	24.0	0.00e+00	0	38	0	391118848	46	6295
2026-01-01 14:10:51.79	31.38	22.02	-36.9	-37.8	23.9	0.00e+00	0	38	0	393216000	46	6274
2026-01-01 14:10:52.80	31.47	22.16	-37.1	-38.0	23.9	0.00e+00	79	38	0	395313152	46	6414
2026-01-01 14:10:53.81	31.56	22.29	-37.0	-37.9	24.0	0.00e+00	0	38	0	396361728	46	6320
2026-01-01 14:10:54.82	31.66	22.43	-36.6	-37.5	24.1	0.00e+00	74	38	0	398458880	46	6050
2026-01-01 14:10:55.83	31.75	22.56	-36.8	-37.6	24.2	0.00e+00	0	38	0	400556032	46	6149
2026-01-01 14:10:56.84	31.85	22.70	-36.5	-37.3	24.3	0.00e+00	0	38	0	402653184	46	5937
2026-01-01 14:10:57.85	31.95	22.84	-36.4	-37.2	24.4	0.00e+00	0	38	0	404750336	46	5873
2026-01-01 14:10:58.86	32.05	22.98	-36.3	-37.1	24.5	0.00e+00	0	38	0	405798912	46	5775
2026-01-01 14:10:59.87	32.15	23.11	-36.3	-37.1	24.5	0.00e+00	46	38	0	407896064	46	5800
2026-01-01 14:11:00.88	32.25	23.25	-36.2	-37.0	24.6	0.00e+00	0	38	0	409993216	46	5739
2026-01-01 14:11:01.89	32.35	23.39	-36.4	-37.2	24.4	0.00e+00	83	38	0	412090368	46	5869
2026-01-01 14:11:02.90	32.45	23.53	-36.3	-37.1	24.6	0.00e+00	0	38	0	414187520	46	5797
2026-01-01 14:11:03.91	32.55	23.68	-36.3	-37.1	24.7	0.00e+00	0	38	0	415236096	46	5791
2026-01-01 14:11:04.92	32.66	23.82	-36.3	-37.1	24.6	0.00e+00	0	38	0	417333248	46	5801
2026-01-01 14:11:05.93	32.76	23.96	-36.4	-37.2	24.5	0.00e+00	0	38	0	419430400	46	5856
2026-01-01 14:11:06.94	32.87	24.10	-36.2	-37.0	24.7	0.00e+00	44	38	0	421527552	46	5720
2026-01-01 14:11:07.95	32.97	24.25	-36.3	-37.1	24.6	0.00e+00	0	38	0	423624704	46	5771
2026-01-01 14:11:08.96	33.08	24.39	-36.1	-36.9	24.7	0.00e+00	92	38	0	425721856	46	5665
2026-01-01 14:11:09.97	33.19	24.54	-36.5	-37.3	24.4	0.00e+00	0	38	0	426770432	46	5962
2026-01-01 14:11:10.98	33.30	24.69	-36.2	-37.0	24.6	0.00e+00	92	38	0	428867584	46	5737
2026-01-01 14:11:11.99	33.41	24.83	-36.2	-37.0	24.6	0.00e+00	0	38	0	430964736	46	5708
2026-01-01 14:11:13.00	33.52	24.98	-36.4	-37.2	24.5	0.00e+00	0	38	0	433061888	46	5857
2026-01-01 14:11:14.01	33.63	25.13	-36.4	-37.2	24.4	0.00e+00	19	38	0	435159040	46	5859
2026-01-01 14:11:15.02	33.75	25.28	-36.6	-37.4	24.3	0.00e+00	0	38	0	436207616	46	5981
2026-01-01 14:11:16.03	33.86	25.43	-36.6	-37.4	24.4	0.00e+00	19	38	0	438304768	46	5993
2026-01-01 14:11:17.04	33.98	25.58	-36.6	-37.4	24.0	0.00e+00	0	38	0	440401920	46	5983
2026-01-01 14:11:18.05	34.09	25.73	-36.7	-37.6	24.0	0.00e+00	56	38	0	442499072	46	6122
2026-01-01 14:11:19.06	34.21	25.88	-36.9	-37.7	24.1	0.00e+00	0	38	0	444596224	46	6243
2026-01-01 14:11:20.07	34.33	26.04	-37.4	-38.3	23.7	0.00e+00	0	38	0	445644800	46	6638
2026-01-01 14:11:21.08	34.45	26.19	-37.3	-38.2	23.8	0.00e+00	0	38	0	447741952	46	6561
2026-01-01 14:11:22.09	34.57	26.34	-37.3	-38.2	23.7	0.00e+00	0	38	0	449839104	46	6569
2026-01-01 14:11:23.10	34.69	26.50	-37.6	-38.4	23.6	0.00e+00	79	38	0	451936256	46	6767
2026-01-01 14:11:24.11	34.81	26.65	-37.9	-38.8	23.3	0.00e+00	0	38	0	454033408	48	6308
2026-01-01 14:11:25.12	34.94	26.81	-38.0	-39.0	23.2	0.00e+00	0	38	0	455081984	48	6392
2026-01-01 14:11:26.13	35.06	26.97	-38.1	-39.0	23.1	0.00e+00	0	38	0	457179136	48	6427
2026-01-01 14:11:27.14	35.19	27.13	-38.0	-39.0	23.2	0.00e+00	0	38	0	459276288	48	6396
2026-01-01 14:11:28.14	35.32	27.28	-37.9	-38.8	23.3	0.00e+00	0	38	0	461373440	48	6301
2026-01-01 14:11:29.15	35.45	27.44	-37.6	-38.5	23.5	0.00e+00	20	38	0	463470592	48	6077
2026-01-01 14:11:30.16	35.58	27.61	-37.9	-38.8	23.3	0.00e+00	81	38	0	464519168	48	6299
2026-01-01 14:11:31.18	35.71	27.77	-37.7	-38.6	23.5	0.00e+00	0	38	0	466616320	48	6152
2026-01-01 14:11:32.19	35.84	27.93	-37.8	-38.7	23.3	0.00e+00	88	38	0	468713472	48	6228
2026-01-01 14:11:33.19	35.98	28.09	-37.8	-38.7	23.4	0.00e+00	0	38	0	470810624	48	6207
2026-01-01 14:11:34.20	36.11	28.26	-38.2	-39.2	23.0	0.00e+00	0	38	0	472907776	48	6574
2026-01-01 14:11:35.21	36.25	28.42	-38.4	-39.3	22.9	0.00e+00	21	38	0	473956352	48	6687
2026-01-01 14:11:36.22	36.39	28.59	-38.3	-39.2	23.0	0.00e+00	0	38	0	476053504	48	6607
2026-01-01 14:11:37.23	36.53	28.75	-38.5	-39.4	22.8	0.00e+00	18	38	0	478150656	48	6766
2026-01-01 14:11:38.24	36.67	28.92	-38.5	-39.5	22.7	0.00e+00	0	38	0	480247808	48	6802
2026-01-01 14:11:39.25	36.81	29.09	-38.9	-39.9	22.5	0.00e+00	92	38	0	482344960	50	6357
2026-01-01 14:11:40.26	36.95	29.26	-39.1	-40.1	22.3	0.00e+00	0	38	0	483393536	50	6512
2026-01-01 14:11:41.27	37.10	29.43	-39.1	-40.1	22.4	0.00e+00	0	38	0	485490688	50	6489
2026-01-01 14:11:42.28	37.25	29.60	-39.1	-40.2	22.1	0.00e+00	8	38	0	487587840	50	6551
2026-01-01 14:11:43.29	37.40	29.77	-39.7	-40.8	21.7	0.00e+00	0	38	0	489684992	50	7051
2026-01-01 14:11:44.30	37.55	29.94	-40.2	-41.4	21.2	0.00e+00	23	38	0	491782144	52	6727
2026-01-01 14:11:45.31	37.70	30.11	-40.6	-41.9	20.8	0.00e+00	0	38	0	493879296	52	7115
2026-01-01 14:11:46.32	37.85	30.29	-41.5	-42.9	19.9	0.00e+00	92	38	0	494927872	54	7157
2026-01-01 14:11:47.33	38.01	30.46	-41.2	-42.6	20.2	0.00e+00	0	38	0	497025024	54	6893
2026-01-01 14:11:48.34	38.16	30.64	-41.5	-42.9	20.0	0.00e+00	92	38	0	499122176	54	7124
2026-01-01 14:11:49.35	38.32	30.81	-41.7	-43.1	19.7	0.00e+00	0	38	0	501219328	56	6504
2026-01-01 14:11:50.36	38.48	30.99	-41.6	-43.0	20.0	0.00e+00	25	38	0	503316480	56	6458
2026-01-01 14:11:51.36	38.64	31.17	-41.3	-42.7	20.2	0.00e+00	0	38	0	504365056	56	6210
2026-01-01 14:11:52.38	38.81	31.35	-41.0	-42.2	20.6	0.00e+00	0	38	0	506462208	56	5883
2026-01-01 14:11:53.39	38.97	31.53	-40.6	-41.8	20.9	0.00e+00	21	38	0	508559360	54	6285
2026-01-01 14:11:54.40	39.14	31.71	-40.1	-41.3	21.3	0.00e+00	0	38	0	510656512	54	5911
2026-01-01 14:11:55.41	39.31	31.89	-40.4	-41.6	21.1	0.00e+00	92	38	0	512753664	54	6107
2026-01-01 14:11:56.42	39.48	32.07	-40.3	-41.4	20.9	0.00e+00	0	38	0	513802240	54	6005
2026-01-01 14:11:57.43	39.65	32.26	-40.0	-41.1	21.2	0.00e+00	0	38	0	515899392	54	5787
2026-01-01 14:11:58.44	39.82	32.44	-40.1	-41.2	21.1	0.00e+00	0	38	0	517996544	54	5852
2026-01-01 14:11:59.45	40.00	32.63	-39.8	-40.9	21.8	0.00e+00	0	38	0	520093696	52	6333
2026-01-01 14:12:00.46	40.18	32.81	-40.0	-41.1	21.5	0.00e+00	16	38	0	522190848	52	6502
2026-01-01 14:12:01.46	40.36	33.00	-39.5	-40.6	22.1	0.00e+00	0	38	0	523239424	52	6107
2026-01-01 14:12:02.47	40.54	33.18	-39.5	-40.5	22.1	0.00e+00	92	38	0	525336576	52	6054
2026-01-01 14:12:03.48	40.72	33.37	-38.8	-39.8	22.6	0.00e+00	0	38	0	527433728	52	5571
2026-01-01 14:12:04.49	40.91	33.56	-38.8	-39.7	22.7	0.00e+00	0	38	0	529530880	52	5565
2026-01-01 14:12:05.50	41.10	33.75	-38.7	-39.7	22.8	0.00e+00	0	38	0	531628032	50	6189
2026-01-01 14:12:06.51	41.29	33.94	-39.1	-40.1	22.3	0.00e+00	0	38	0	532676608	50	6530
2026-01-01 14:12:07.52	41.48	34.13	-39.4	-40.4	22.1	0.00e+00	19	38	0	534773760	50	6721
2026-01-01 14:12:08.53	41.68	34.33	-39.2	-40.2	22.1	0.00e+00	0	38	0	536870912	50	6582
2026-01-01 14:12:09.54	41.87	34.52	-39.8	-40.9	21.8	0.00e+00	92	38	0	538968064	52	6382
2026-01-01 14:12:10.55	42.07	34.72	-39.8	-40.9	21.4	0.00e+00	0	38	0	541065216	52	6369
2026-01-01 14:12:11.55	42.27	34.91	-39.9	-41.0	21.7	0.00e+00	0	38	0	542113792	52	6404
2026-01-01 14:12:12.56	42.48	35.10	-39.6	-40.7	21.7	0.00e+00	0	38	0	544210944	52	6211
2026-01-01 14:12:13.57	42.69	35.30	-39.7	-40.8	21.6	0.00e+00	0	38	0	546308096	52	6269
2026-01-01 14:12:14.58	42.90	35.50	-39.2	-40.2	22.2	0.00e+00	20	38	0	548405248	52	5837
2026-01-01 14:12:15.59	43.11	35.70	-39.0	-40.0	22.5	0.00e+00	0	38	0	550502400	52	5704
2026-01-01 14:12:16.60	43.32	35.90	-39.2	-40.2	22.2	0.00e+00	92	38	0	551550976	52	5848
2026-01-01 14:12:17.61	43.54	36.10	-38.6	-39.5	22.8	0.00e+00	0	38	0	553648128	50	6073
2026-01-01 14:12:18.62	43.76	36.30	-38.3	-39.2	23.1	0.00e+00	4	38	0	555745280	50	5879
2026-01-01 14:12:19.63	43.98	36.50	-38.4	-39.3	23.0	0.00e+00	0	38	0	557842432	50	5927
2026-01-01 14:12:20.64	44.21	36.70	-38.6	-39.6	22.8	0.00e+00	0	38	0	559939584	50	6148
2026-01-01 14:12:21.66	44.44	36.91	-38.8	-39.8	22.6	0.00e+00	0	38	0	562036736	50	6247
2026-01-01 14:12:22.67	44.67	37.11	-39.5	-40.6	22.0	0.00e+00	0	38	0	563085312	50	6883
2026-01-01 14:12:23.68	44.90	37.32	-39.8	-40.9	21.5	0.00e+00	92	38	0	565182464	52	6387
2026-01-01 14:12:24.68	45.13	37.52	-39.8	-40.9	21.5	0.00e+00	0	38	0	567279616	52	6367
2026-01-01 14:12:25.69	45.37	37.73	-39.9	-41.1	21.6	0.00e+00	92	38	0	569376768	52	6480
2026-01-01 14:12:26.70	45.62	37.93	-39.8	-40.9	21.6	0.00e+00	0	38	0	571473920	52	6359
2026-01-01 14:12:27.71	45.86	38.14	-39.5	-40.5	22.0	0.00e+00	0	38	0	572522496	52	6098
2026-01-01 14:12:28.72	46.11	38.35	-39.5	-40.6	22.1	0.00e+00	0	38	0	574619648	52	6109
2026-01-01 14:12:29.73	46.36	38.56	-39.3	-40.4	22.3	0.00e+00	0	38	0	576716800	52	5987
2026-01-01 14:12:30.74	46.62	38.77	-39.3	-40.4	22.4	0.00e+00	25	38	0	578813952	52	5993
2026-01-01 14:12:31.75	46.87	38.98	-38.4	-39.4	22.9	0.00e+00	0	38	0	580911104	50	6006
2026-01-01 14:12:32.76	47.13	39.19	-38.2	-39.1	23.2	0.00e+00	91	38	0	581959680	50	5787
2026-01-01 14:12:33.77	47.40	39.40	-38.2	-39.1	23.2	0.00e+00	0	38	0	584056832	50	5796
2026-01-01 14:12:34.78	47.67	39.61	-37.7	-38.6	23.6	0.00e+00	0	38	0	586153984	50	5455
2026-01-01 14:12:35.79	47.94	39.83	-37.6	-38.5	23.6	0.00e+00	0	38	0	588251136	48	6064
2026-01-01 14:12:36.80	48.21	40.04	-37.7	-38.5	23.4	0.00e+00	0	38	0	590348288	48	6091
2026-01-01 14:12:37.81	48.49	40.26	-38.2	-39.1	23.1	0.00e+00	92	38	0	591396864	48	6536
2026-01-01 14:12:38.82	48.78	40.47	-38.4	-39.4	22.8	0.00e+00	0	38	0	593494016	48	6749
2026-01-01 14:12:39.83	49.06	40.69	-38.7	-39.7	22.7	0.00e+00	69	38	0	595591168	50	6198
2026-01-01 14:12:40.84	49.35	40.90	-39.0	-40.1	22.4	0.00e+00	0	38	0	597688320	50	6486
2026-01-01 14:12:41.85	49.65	41.12	-38.8	-39.8	22.6	0.00e+00	0	38	0	599785472	50	6294
2026-01-01 14:12:42.86	49.94	41.34	-38.8	-39.8	22.8	0.00e+00	0	38	0	600834048	50	6296
2026-01-01 14:12:43.87	50.24	41.55	-38.6	-39.6	23.0	0.00e+00	0	38	0	602931200	50	6141
2026-01-01 14:12:44.89	50.55	41.77	-38.5	-39.5	23.0	0.00e+00	25	38	0	605028352	50	6060
2026-01-01 14:12:45.89	50.86	41.99	-38.4	-39.3	23.0	0.00e+00	0	38	0	607125504	50	5955
2026-01-01 14:12:46.91	51.18	42.21	-38.7	-39.7	22.6	0.00e+00	92	38	0	609222656	50	6187
2026-01-01 14:12:47.91	51.49	42.43	-38.7	-39.6	22.8	0.00e+00	0	38	0	610271232	50	6165
2026-01-01 14:12:48.92	51.81	42.65	-39.2	-40.2	22.2	0.00e+00	0	38	0	612368384	50	6608
2026-01-01 14:12:49.93	52.14	42.87	-39.2	-40.2	22.3	0.00e+00	0	38	0	614465536	50	6595
2026-01-01 14:12:50.94	52.47	43.08	-39.6	-40.6	21.9	0.00e+00	0	38	0	616562688	50	6915
2026-01-01 14:12:51.96	52.81	43.31	-39.2	-40.2	22.2	0.00e+00	48	38	0	618659840	50	6551
2026-01-01 14:12:52.96	53.15	43.53	-39.4	-40.5	22.0	0.00e+00	0	38	0	619708416	50	6781
2026-01-01 14:12:53.97	53.49	43.75	-39.3	-40.3	22.0	0.00e+00	92	38	0	621805568	50	6670
2026-01-01 14:12:54.98	53.84	43.97	-39.9	-40.9	21.6	0.00e+00	0	38	0	623902720	52	6388
2026-01-01 14:12:55.99	54.20	44.19	-40.2	-41.4	20.8	0.00e+00	79	38	0	625999872	52	6711
2026-01-01 14:12:57.00	54.56	44.41	-40.4	-41.6	21.1	0.00e+00	0	38	0	628097024	52	6859
2026-01-01 14:12:58.01	54.92	44.63	-40.4	-41.6	21.1	0.00e+00	0	38	0	630194176	52	6856
2026-01-01 14:12:59.02	55.29	44.85	-40.4	-41.7	21.2	0.00e+00	25	38	0	631242752	52	6928
2026-01-01 14:13:00.03	55.67	45.07	-39.7	-40.8	21.7	0.00e+00	0	38	0	633339904	52	6270
2026-01-01 14:13:01.04	56.05	45.29	-39.5	-40.5	22.1	0.00e+00	92	38	0	635437056	52	6078
2026-01-01 14:13:02.05	56.43	45.51	-40.0	-41.0	21.5	0.00e+00	0	38	0	637534208	52	6457
2026-01-01 14:13:03.06	56.82	45.73	-40.7	-41.9	21.0	0.00e+00	90	38	0	639631360	52	7114
2026-01-01 14:13:04.07	57.22	45.95	-41.6	-43.0	19.9	0.00e+00	0	38	0	640679936	54	7211
2026-01-01 14:13:05.08	57.62	46.17	-41.5	-42.9	20.0	0.00e+00	0	38	0	642777088	54	7095
2026-01-01 14:13:06.09	58.02	46.39	-41.4	-42.8	20.0	0.00e+00	0	38	0	644874240	54	7070
2026-01-01 14:13:07.10	58.44	46.61	-41.0	-42.2	20.5	0.00e+00	0	38	0	646971392	54	6615
2026-01-01 14:13:08.11	58.86	46.83	-41.1	-42.4	20.4	0.00e+00	0	38	0	649068544	54	6729
2026-01-01 14:13:09.12	59.28	47.04	-41.3	-42.6	20.0	0.00e+00	0	38	0	650117120	54	6923
2026-01-01 14:13:10.13	59.71	47.26	-41.4	-42.7	20.0	0.00e+00	89	38	0	652214272	54	6995
2026-01-01 14:13:11.14	60.15	47.48	-41.0	-42.3	20.2	0.00e+00	0	38	0	654311424	54	6645
2026-01-01 14:13:12.15	60.59	47.70	-41.8	-43.3	19.6	0.00e+00	0	38	0	656408576	54	7425
2026-01-01 14:13:13.16	61.04	47.91	-41.5	-42.9	20.0	0.00e+00	0	38	0	658505728	56	6330
2026-01-01 14:13:14.17	61.49	48.13	-40.9	-42.1	20.7	0.00e+00	0	38	0	659554304	56	5784
2026-01-01 14:13:15.18	61.95	48.34	-40.0	-41.1	21.5	0.00e+00	81	38	0	661651456	54	5769
2026-01-01 14:13:16.19	62.42	48.55	-39.6	-40.6	21.8	0.00e+00	0	38	0	663748608	52	6128
2026-01-01 14:13:17.20	62.89	48.76	-39.8	-40.8	21.7	0.00e+00	91	38	0	665845760	52	6308
2026-01-01 14:13:18.21	63.37	48.97	-40.2	-41.4	21.2	0.00e+00	0	38	0	667942912	52	6731
2026-01-01 14:13:19.22	63.86	49.18	-40.6	-41.9	20.7	0.00e+00	21	38	0	668991488	52	7108
2026-01-01 14:13:20.22	64.34	49.39	-40.2	-41.4	21.3	0.00e+00	0	38	0	671088640	52	6703
2026-01-01 14:13:21.23	64.84	49.60	-39.7	-40.8	21.7	0.00e+00	0	38	0	673185792	52	6253
2026-01-01 14:13:22.24	65.35	49.80	-39.4	-40.4	22.0	0.00e+00	76	38	0	675282944	52	6013
2026-01-01 14:13:23.25	65.86	50.01	-39.9	-41.0	21.6	0.00e+00	0	38	0	677380096	52	6452
2026-01-01 14:13:24.26	66.38	50.21	-40.2	-41.4	21.2	0.00e+00	91	38	0	678428672	52	6702
2026-01-01 14:13:25.27	66.91	50.41	-40.0	-41.1	21.5	0.00e+00	0	38	0	680525824	52	6491
2026-01-01 14:13:26.28	67.44	50.61	-39.7	-40.7	21.7	0.00e+00	0	38	0	682622976	52	6244
2026-01-01 14:13:27.29	67.98	50.81	-39.2	-40.2	22.2	0.00e+00	0	38	0	684720128	52	5893
2026-01-01 14:13:28.30	68.53	51.01	-38.4	-39.3	23.0	0.00e+00	0	38	0	686817280	50	5931
2026-01-01 14:13:29.31	69.09	51.20	-37.8	-38.7	23.4	0.00e+00	74	38	0	687865856	50	5530
2026-01-01 14:13:30.33	69.66	51.39	-37.3	-38.2	24.0	0.00e+00	0	38	0	689963008	48	5859
2026-01-01 14:13:31.34	70.23	51.58	-36.9	-37.7	24.1	0.00e+00	92	38	0	692060160	46	6214
2026-01-01 14:13:32.35	70.80	51.77	-36.9	-37.8	24.1	0.00e+00	0	38	0	694157312	46	6264
2026-01-01 14:13:33.36	71.39	51.96	-36.8	-37.6	24.1	0.00e+00	0	38	0	696254464	46	6147
2026-01-01 14:13:34.37	71.98	52.14	-36.7	-37.5	24.4	0.00e+00	0	38	0	698351616	46	6092
2026-01-01 14:13:35.38	72.58	52.32	-36.6	-37.4	24.4	0.00e+00	0	38	0	699400192	46	5987
2026-01-01 14:13:36.39	73.18	52.50	-36.8	-37.7	24.1	0.00e+00	23	38	0	701497344	46	6184
2026-01-01 14:13:37.40	73.79	52.68	-36.9	-37.7	24.0	0.00e+00	0	38	0	703594496	46	6243
2026-01-01 14:13:38.40	74.41	52.85	-36.7	-37.5	24.1	0.00e+00	35	38	0	705691648	46	6079
2026-01-01 14:13:39.41	75.04	53.02	-37.7	-38.5	22.8	0.00e+00	0	38	0	707788800	46	6842
2026-01-01 14:13:40.42	75.67	53.18	-38.3	-39.2	23.0	0.00e+00	65	38	0	708837376	48	6611
2026-01-01 14:13:41.43	76.31	53.35	-38.1	-39.1	23.2	0.00e+00	0	38	0	710934528	48	6465
2026-01-01 14:13:42.44	76.96	53.51	-37.9	-38.8	23.5	0.00e+00	0	38	0	713031680	48	6291
2026-01-01 14:13:43.46	77.63	53.67	-37.0	-37.9	24.0	0.00e+00	19	38	0	715128832	48	5636
2026-01-01 14:13:44.46	78.28	53.82	-37.3	-38.1	23.8	0.00e+00	0	38	0	717225984	48	5824
2026-01-01 14:13:45.47	78.95	53.97	-38.1	-39.0	23.0	0.00e+00	92	38	0	718274560	48	6424
2026-01-01 14:13:46.48	79.63	54.12	-37.5	-38.4	23.6	0.00e+00	0	38	0	720371712	48	6031
2026-01-01 14:13:47.49	80.31	54.27	-37.3	-38.2	23.7	0.00e+00	81	38	0	722468864	48	5876
2026-01-01 14:13:48.49	81.00	54.41	-37.4	-38.3	23.6	0.00e+00	0	38	0	724566016	48	5899
2026-01-01 14:13:49.50	81.70	54.54	-37.1	-38.0	23.9	0.00e+00	0	38	0	726663168	48	5700
2026-01-01 14:13:50.51	82.40	54.67	-36.9	-37.7	24.2	0.00e+00	0	38	0	727711744	46	6209
2026-01-01 14:13:51.52	83.11	54.80	-36.7	-37.5	24.0	0.00e+00	0	38	0	729808896	46	6081
2026-01-01 14:13:52.53	83.83	54.93	-37.0	-37.9	24.0	0.00e+00	79	38	0	731906048	46	6348
2026-01-01 14:13:53.54	84.55	55.05	-36.5	-37.3	24.4	0.00e+00	0	38	0	734003200	46	5939
2026-01-01 14:13:54.55	85.28	55.17	-36.1	-36.8	24.8	0.00e+00	63	38	0	736100352	46	5629
2026-01-01 14:13:55.56	86.02	55.28	-36.4	-37.2	24.5	0.00e+00	0	38	0	737148928	46	5891
2026-01-01 14:13:56.57	86.76	55.39	-37.6	-38.5	23.5	0.00e+00	0	38	0	739246080	46	6845
2026-01-01 14:13:57.58	87.50	55.49	-37.4	-38.3	23.8	0.00e+00	0	38	0	741343232	48	5947
2026-01-01 14:13:58.59	88.26	55.59	-37.2	-38.0	24.0	0.00e+00	0	38	0	743440384	48	5738
2026-01-01 14:13:59.60	89.01	55.68	-37.7	-38.7	23.3	0.00e+00	20	38	0	745537536	48	6175
2026-01-01 14:14:00.61	89.78	55.77	-37.9	-38.8	23.3	0.00e+00	0	38	0	746586112	48	6269
2026-01-01 14:14:01.62	90.54	55.86	-37.2	-38.1	24.0	0.00e+00	92	38	0	748683264	48	5797
2026-01-01 14:14:02.63	91.31	55.94	-37.0	-37.9	24.0	0.00e+00	0	38	0	750780416	48	5635
2026-01-01 14:14:03.63	92.08	56.01	-37.9	-38.8	23.3	0.00e+00	0	38	0	752877568	48	6280
2026-01-01 14:14:04.64	92.86	56.08	-38.4	-39.4	22.8	0.00e+00	0	38	0	754974720	48	6724
2026-01-01 14:14:05.65	93.64	56.15	-38.1	-39.0	23.3	0.00e+00	22	38	0	756023296	48	6451
2026-01-01 14:14:06.66	94.43	56.21	-38.4	-39.3	22.9	0.00e+00	22	38	0	758120448	48	6663
2026-01-01 14:14:07.67	95.22	56.26	-38.8	-39.7	22.6	0.00e+00	0	38	0	760217600	48	7003
2026-01-01 14:14:08.68	96.01	56.31	-39.0	-40.0	22.6	0.00e+00	66	38	0	762314752	50	6447
2026-01-01 14:14:09.69	96.81	56.36	-38.0	-38.9	23.3	0.00e+00	0	38	0	764411904	50	5693
2026-01-01 14:14:10.70	97.61	56.40	-37.9	-38.8	23.3	0.00e+00	41	38	0	766509056	50	5593
2026-01-01 14:14:11.71	98.41	56.43	-37.6	-38.5	23.6	0.00e+00	0	38	0	767557632	50	5408
2026-01-01 14:14:12.72	99.21	56.46	-37.2	-38.0	23.9	0.00e+00	0	38	0	769654784	48	5740
2026-01-01 14:14:13.73	100.02	56.48	-37.3	-38.2	23.7	0.00e+00	17	38	0	771751936	48	5864
2026-01-01 14:14:14.74	100.82	56.50	-37.5	-38.4	23.7	0.00e+00	0	38	0	773849088	48	5972
2026-01-01 14:14:15.75	101.63	56.51	-37.3	-38.1	23.8	0.00e+00	73	38	0	775946240	48	5811
2026-01-01 14:14:16.76	102.43	56.52	-38.4	-39.4	22.8	0.00e+00	0	38	0	776994816	48	6717
2026-01-01 14:14:17.77	103.24	56.52	-40.2	-41.4	21.4	0.00e+00	66	38	0	779091968	52	6758
2026-01-01 14:14:18.78	104.05	56.52	-39.5	-40.6	21.9	0.00e+00	0	38	0	781189120	52	6124
2026-01-01 14:14:19.79	104.85	56.51	-38.2	-39.1	23.1	0.00e+00	0	38	0	783286272	50	5806
2026-01-01 14:14:20.80	105.66	56.49	-38.0	-38.9	23.0	0.00e+00	0	38	0	785383424	48	6353
2026-01-01 14:14:21.81	106.46	56.47	-38.7	-39.7	22.6	0.00e+00	0	38	0	786432000	48	6968
2026-01-01 14:14:22.82	107.27	56.45	-38.6	-39.6	22.9	0.00e+00	22	38	0	788529152	48	6882
2026-01-01 14:14:23.83	108.07	56.42	-37.5	-38.4	23.7	0.00e+00	0	38	0	790626304	48	5994
2026-01-01 14:14:24.84	108.87	56.38	-37.0	-37.8	24.1	0.00e+00	40	38	0	792723456	48	5614
2026-01-01 14:14:25.85	109.67	56.34	-37.0	-37.9	23.9	0.00e+00	0	38	0	794820608	48	5639
2026-01-01 14:14:26.86	110.46	56.30	-37.1	-37.9	23.9	0.00e+00	0	38	0	795869184	48	5679
2026-01-01 14:14:27.87	111.25	56.24	-36.5	-37.3	24.4	0.00e+00	0	38	0	797966336	46	5906
2026-01-01 14:14:28.88	112.04	56.19	-36.1	-36.9	24.7	0.00e+00	0	38	0	800063488	46	5652
2026-01-01 14:14:29.89	112.83	56.13	-36.6	-37.4	24.3	0.00e+00	24	38	0	802160640	46	5969
2026-01-01 14:14:30.90	113.61	56.06	-37.8	-38.6	23.3	0.00e+00	0	38	0	804257792	48	6163
2026-01-01 14:14:31.91	114.39	55.99	-38.4	-39.3	22.9	0.00e+00	92	38	0	805306368	48	6666
2026-01-01 14:14:32.92	115.17	55.91	-38.6	-39.6	22.8	0.00e+00	0	38	0	807403520	50	6126
2026-01-01 14:14:33.93	115.94	55.83	-39.6	-40.7	21.9	0.00e+00	0	38	0	809500672	50	6977
2026-01-01 14:14:34.94	116.70	55.74	-40.6	-41.8	21.1	0.00e+00	0	38	0	811597824	52	7055
2026-01-01 14:14:35.95	117.46	55.65	-40.4	-41.6	21.2	0.00e+00	0	38	0	813694976	52	6877
2026-01-01 14:14:36.95	118.21	55.55	-39.7	-40.7	21.8	0.00e+00	24	38	0	814743552	52	6241
2026-01-01 14:14:37.97	118.97	55.45	-39.2	-40.2	22.2	0.00e+00	0	38	0	816840704	52	5843
2026-01-01 14:14:38.97	119.71	55.35	-37.6	-38.4	23.6	0.00e+00	92	38	0	818937856	50	5364
2026-01-01 14:14:39.98	120.45	55.24	-37.9	-38.8	23.4	0.00e+00	0	38	0	821035008	48	6280
2026-01-01 14:14:40.99	121.18	55.12	-38.0	-39.0	23.1	0.00e+00	0	38	0	823132160	48	6391
2026-01-01 14:14:42.00	121.91	55.01	-37.8	-38.7	23.4	0.00e+00	0	38	0	824180736	48	6192
2026-01-01 14:14:43.01	122.63	54.88	-37.3	-38.1	23.8	0.00e+00	0	38	0	826277888	48	5798
2026-01-01 14:14:44.02	123.35	54.76	-37.8	-38.7	23.5	0.00e+00	24	38	0	828375040	48	6179
2026-01-01 14:14:45.03	124.06	54.63	-37.6	-38.5	23.7	0.00e+00	0	38	0	830472192	48	6084
2026-01-01 14:14:46.04	124.76	54.49	-37.7	-38.6	23.7	0.00e+00	34	38	0	832569344	48	6155
2026-01-01 14:14:47.06	125.46	54.35	-37.2	-38.0	23.9	0.00e+00	0	38	0	834666496	48	5748
2026-01-01 14:14:48.07	126.15	54.21	-36.7	-37.5	24.2	0.00e+00	82	38	0	835715072	48	5418
2026-01-01 14:14:49.08	126.83	54.06	-36.8	-37.6	24.2	0.00e+00	0	38	0	837812224	46	6150
2026-01-01 14:14:50.09	127.51	53.91	-37.0	-37.8	24.2	0.00e+00	0	38	0	839909376	46	6259
2026-01-01 14:14:51.10	128.18	53.76	-37.4	-38.3	23.8	0.00e+00	0	38	0	842006528	46	6616
2026-01-01 14:14:52.11	128.84	53.61	-37.9	-38.8	23.4	0.00e+00	0	38	0	844103680	48	6263
2026-01-01 14:14:53.12	129.50	53.45	-37.3	-38.1	23.9	0.00e+00	80	38	0	845152256	48	5811
2026-01-01 14:14:54.13	130.14	53.28	-37.4	-38.3	23.6	0.00e+00	0	38	0	847249408	48	5901
2026-01-01 14:14:55.13	130.78	53.12	-37.5	-38.4	23.6	0.00e+00	66	38	0	849346560	48	5996
2026-01-01 14:14:56.14	131.41	52.95	-37.6	-38.5	23.6	0.00e+00	0	38	0	851443712	48	6050
2026-01-01 14:14:57.15	132.04	52.78	-36.9	-37.8	24.1	0.00e+00	21	38	0	853540864	48	5576
2026-01-01 14:14:58.16	132.65	52.60	-37.1	-38.0	24.0	0.00e+00	19	38	0	854589440	48	5706
2026-01-01 14:14:59.17	133.27	52.43	-37.5	-38.3	23.5	0.00e+00	0	38	0	856686592	48	5954
2026-01-01 14:15:00.19	133.88	52.25	-38.5	-39.4	22.8	0.00e+00	29	38	0	858783744	48	6761
2026-01-01 14:15:01.19	134.47	52.06	-39.9	-41.1	21.6	0.00e+00	0	38	0	860880896	52	6498
2026-01-01 14:15:02.21	135.06	51.88	-41.4	-42.9	20.0	0.00e+00	92	38	0	862978048	54	7092
2026-01-01 14:15:03.21	135.64	51.69	-41.4	-42.8	20.1	0.00e+00	24	38	0	864026624	56	6274
2026-01-01 14:15:04.23	136.22	51.50	-40.1	-41.2	21.4	0.00e+00	0	38	0	866123776	54	5855
2026-01-01 14:15:05.24	136.79	51.31	-39.2	-40.3	22.3	0.00e+00	0	38	0	868220928	52	5901
2026-01-01 14:15:06.24	137.34	51.12	-39.8	-40.9	21.7	0.00e+00	13	38	0	870318080	52	6377
2026-01-01 14:15:07.25	137.89	50.92	-41.2	-42.5	20.3	0.00e+00	21	38	0	872415232	54	6835
2026-01-01 14:15:08.26	138.44	50.73	-42.2	-43.7	19.4	0.00e+00	0	38	0	873463808	56	7002
2026-01-01 14:15:09.27	138.98	50.53	-40.8	-42.1	20.8	0.00e+00	92	38	0	875560960	56	5810
2026-01-01 14:15:10.28	139.51	50.33	-40.2	-41.3	21.4	0.00e+00	0	38	0	877658112	54	5948
2026-01-01 14:15:11.29	140.04	50.12	-42.2	-43.7	19.3	0.00e+00	0	38	0	879755264	56	6941
2026-01-01 14:15:12.30	140.56	49.92	-43.0	-44.8	18.3	0.00e+00	0	38	0	881852416	58	7053
2026-01-01 14:15:13.31	141.07	49.71	-42.1	-43.6	19.5	0.00e+00	0	38	0	882900992	58	6136
2026-01-01 14:15:14.32	141.57	49.51	-40.0	-41.0	21.4	0.00e+00	65	38	0	884998144	54	5758
2026-01-01 14:15:15.33	142.07	49.30	-38.4	-39.3	22.9	0.00e+00	0	38	0	887095296	50	5941
2026-01-01 14:15:16.34	142.56	49.09	-38.9	-39.9	22.5	0.00e+00	92	38	0	889192448	50	6345
2026-01-01 14:15:17.35	143.05	48.88	-39.8	-40.9	21.8	0.00e+00	0	38	0	891289600	50	7104
2026-01-01 14:15:18.36	143.52	48.67	-40.5	-41.6	21.1	0.00e+00	0	38	0	892338176	52	6919
2026-01-01 14:15:19.37	143.99	48.45	-41.0	-42.3	20.5	0.00e+00	0	38	0	894435328	54	6651
2026-01-01 14:15:20.38	144.46	48.24	-40.3	-41.6	21.2	0.00e+00	0	38	0	896532480	54	6154
2026-01-01 14:15:21.38	144.91	48.03	-38.9	-39.8	22.6	0.00e+00	0	38	0	898629632	52	5623
2026-01-01 14:15:22.39	145.37	47.81	-38.0	-38.9	23.4	0.00e+00	0	38	0	900726784	50	5644
2026-01-01 14:15:23.40	145.81	47.59	-37.0	-37.8	24.1	0.00e+00	67	38	0	902823936	48	5628
2026-01-01 14:15:24.41	146.25	47.38	-38.1	-39.0	23.2	0.00e+00	0	38	0	903872512	48	6441
2026-01-01 14:15:25.42	146.69	47.16	-38.1	-39.0	23.2	0.00e+00	92	38	0	905969664	48	6460
2026-01-01 14:15:26.43	147.12	46.94	-37.3	-38.1	23.9	0.00e+00	0	38	0	908066816	48	5812
2026-01-01 14:15:27.44	147.54	46.72	-36.4	-37.1	24.7	0.00e+00	0	38	0	910163968	46	5814
2026-01-01 14:15:28.45	147.96	46.50	-36.6	-37.4	24.4	0.00e+00	17	38	0	912261120	46	6012
2026-01-01 14:15:29.46	148.37	46.28	-37.8	-38.7	23.3	0.00e+00	0	38	0	913309696	48	6207
2026-01-01 14:15:30.47	148.77	46.06	-38.5	-39.4	22.7	0.00e+00	70	38	0	915406848	48	6748
2026-01-01 14:15:31.48	149.17	45.84	-38.6	-39.5	22.7	0.00e+00	0	37	0	917504000	50	6097
2026-01-01 14:15:32.49	149.57	45.62	-38.5	-39.5	22.9	0.00e+00	92	38	0	919601152	50	6046
2026-01-01 14:15:33.50	149.96	45.40	-38.9	-39.9	22.5	0.00e+00	0	38	0	921698304	50	6336
2026-01-01 14:15:34.51	150.34	45.18	-39.3	-40.3	22.1	0.00e+00	0	38	0	922746880	50	6670
2026-01-01 14:15:35.52	150.72	44.96	-39.2	-40.2	22.2	0.00e+00	16	38	0	924844032	50	6551
2026-01-01 14:15:36.53	151.09	44.74	-39.2	-40.2	22.3	0.00e+00	0	38	0	926941184	50	6562
2026-01-01 14:15:37.54	151.46	44.51	-39.1	-40.1	22.4	0.00e+00	16	38	0	929038336	50	6506
2026-01-01 14:15:38.55	151.82	44.29	-38.5	-39.5	22.9	0.00e+00	0	38	0	931135488	50	6045
2026-01-01 14:15:39.56	152.18	44.07	-38.9	-39.8	22.4	0.00e+00	92	38	0	932184064	50	6292
2026-01-01 14:15:40.57	152.53	43.85	-41.0	-42.2	20.5	0.00e+00	0	38	0	934281216	52	7375
2026-01-01 14:15:41.58	152.88	43.63	-42.2	-43.7	19.2	0.00e+00	0	38	0	936378368	56	6976
2026-01-01 14:15:42.59	153.23	43.41	-41.1	-42.3	20.7	0.00e+00	0	38	0	938475520	56	5937
2026-01-01 14:15:43.60	153.56	43.19	-40.2	-41.3	21.4	0.00e+00	0	38	0	940572672	54	5949
2026-01-01 14:15:44.60	153.90	42.97	-40.1	-41.2	21.4	0.00e+00	90	38	0	941621248	54	5862
2026-01-01 14:15:45.61	154.23	42.75	-41.7	-43.1	19.4	0.00e+00	0	38	0	943718400	54	7282
2026-01-01 14:15:46.62	154.55	42.53	-45.4	-48.4	14.5	0.00e+00	92	38	0	945815552	60	9489
2026-01-01 14:15:47.63	154.87	42.31	-46.4	-50.4	12.9	8.77e-05	0	38	0	947912704	60	11974
2026-01-01 14:15:48.64	155.19	42.09	-43.9	-46.2	17.2	0.00e+00	0	37	0	950009856	60	7354
2026-01-01 14:15:49.65	155.50	41.87	-42.1	-43.6	19.4	0.00e+00	0	38	0	951058432	58	6118
2026-01-01 14:15:50.66	155.81	41.65	-41.1	-42.4	20.5	0.00e+00	0	38	0	953155584	56	5984
2026-01-01 14:15:51.67	156.12	41.43	-41.1	-42.4	20.3	0.00e+00	55	38	0	955252736	54	6758
2026-01-01 14:15:52.68	156.42	41.21	-42.5	-44.2	18.7	0.00e+00	0	38	0	957349888	58	6565
2026-01-01 14:15:53.69	156.71	40.99	-43.6	-45.7	17.0	0.00e+00	92	37	0	959447040	58	7827
2026-01-01 14:15:54.70	157.01	40.78	-44.0	-46.3	16.7	0.00e+00	0	38	0	960495616	60	7505
2026-01-01 14:15:55.71	157.29	40.56	-42.9	-44.7	18.6	0.00e+00	0	38	0	962592768	60	6187
2026-01-01 14:15:56.72	157.58	40.34	-41.4	-42.8	20.2	0.00e+00	0	38	0	964689920	56	6273
2026-01-01 14:15:57.73	157.86	40.13	-40.1	-41.2	21.2	0.00e+00	0	38	0	966787072	54	5896
2026-01-01 14:15:58.74	158.14	39.91	-39.3	-40.2	22.3	0.00e+00	18	38	0	968884224	52	5885
2026-01-01 14:15:59.75	158.41	39.70	-39.2	-40.1	22.2	0.00e+00	0	38	0	970981376	52	5827
2026-01-01 14:16:00.76	158.68	39.49	-40.5	-41.6	20.9	0.00e+00	92	38	0	972029952	52	6914
2026-01-01 14:16:01.77	158.95	39.27	-41.1	-42.3	20.3	0.00e+00	0	38	0	974127104	54	6687
2026-01-01 14:16:02.78	159.21	39.06	-40.7	-42.0	21.1	0.00e+00	89	38	0	976224256	54	6396
2026-01-01 14:16:03.79	159.47	38.85	-39.0	-40.1	22.5	0.00e+00	0	38	0	978321408	52	5768
2026-01-01 14:16:04.80	159.73	38.64	-37.7	-38.5	23.6	0.00e+00	0	38	0	980418560	50	5414
2026-01-01 14:16:05.81	159.99	38.43	-36.8	-37.6	24.2	0.00e+00	21	37	0	981467136	46	6169
2026-01-01 14:16:06.82	160.24	38.22	-37.5	-38.3	23.7	0.00e+00	0	38	0	983564288	46	6677
2026-01-01 14:16:07.82	160.48	38.01	-39.2	-40.3	21.8	0.00e+00	18	37	0	985661440	50	6620
2026-01-01 14:16:08.83	160.73	37.80	-41.7	-43.2	18.8	0.00e+00	0	37	0	987758592	54	7410
2026-01-01 14:16:09.84	160.97	37.59	-43.3	-45.3	17.9	0.00e+00	39	37	0	988807168	58	7481
2026-01-01 14:16:10.85	161.21	37.39	-42.6	-44.5	18.3	0.00e+00	0	37	0	990904320	58	6818
2026-01-01 14:16:11.86	161.44	37.18	-40.9	-42.3	20.5	0.00e+00	0	37	0	993001472	56	5923
2026-01-01 14:16:12.87	161.67	36.97	-39.9	-41.1	21.6	0.00e+00	0	37	0	995098624	54	5789
2026-01-01 14:16:13.88	161.90	36.77	-39.5	-40.6	21.9	0.00e+00	0	37	0	997195776	52	6140
2026-01-01 14:16:14.89	162.13	36.57	-39.1	-40.2	22.3	0.00e+00	19	38	0	999292928	52	5855
2026-01-01 14:16:15.90	162.35	36.36	-39.2	-40.3	22.2	0.00e+00	0	38	0	1000341504	52	5910
2026-01-01 14:16:16.91	162.58	36.16	-39.1	-40.1	22.5	0.00e+00	53	38	0	1002438656	52	5798
2026-01-01 14:16:17.92	162.79	35.96	-38.7	-39.6	22.4	0.00e+00	0	38	0	1004535808	50	6155
2026-01-01 14:16:18.93	163.01	35.76	-38.6	-39.6	22.5	0.00e+00	0	38	0	1006632960	50	6118
2026-01-01 14:16:19.94	163.22	35.56	-39.0	-40.1	22.4	0.00e+00	0	38	0	1008730112	50	6482
2026-01-01 14:16:20.95	163.44	35.36	-39.2	-40.3	22.1	0.00e+00	0	38	0	1009778688	50	6628
2026-01-01 14:16:21.96	163.64	35.16	-39.0	-40.0	22.3	0.00e+00	20	38	0	1011875840	50	6448
2026-01-01 14:16:22.97	163.85	34.96	-39.0	-40.0	22.3	0.00e+00	0	38	0	1013972992	50	6439
2026-01-01 14:16:23.98	164.05	34.77	-38.8	-39.7	22.6	0.00e+00	92	38	0	1016070144	50	6238
2026-01-01 14:16:24.99	164.26	34.57	-38.8	-39.8	22.4	0.00e+00	0	38	0	1018167296	50	6256
2026-01-01 14:16:25.99	164.45	34.38	-39.4	-40.5	22.1	0.00e+00	19	38	0	1019215872	50	6775
2026-01-01 14:16:27.00	164.65	34.18	-39.4	-40.5	22.0	0.00e+00	0	38	0	1021313024	50	6784
2026-01-01 14:16:28.01	164.84	33.99	-40.2	-41.4	21.2	0.00e+00	0	37	0	1023410176	52	6748
2026-01-01 14:16:29.02	165.04	33.80	-39.8	-40.9	21.6	0.00e+00	60	38	0	1025507328	52	6387
2026-01-01 14:16:30.03	165.23	33.61	-40.1	-41.2	21.3	0.00e+00	0	38	0	1027604480	52	6614
2026-01-01 14:16:31.04	165.41	33.42	-40.2	-41.4	21.1	0.00e+00	90	38	0	1028653056	52	6751
2026-01-01 14:16:32.05	165.60	33.23	-40.2	-41.4	21.3	0.00e+00	0	38	0	1030750208	52	6705
2026-01-01 14:16:33.06	165.78	33.04	-39.9	-41.0	21.4	0.00e+00	52	38	0	1032847360	52	6449
2026-01-01 14:16:34.08	165.97	32.85	-39.6	-40.8	21.8	0.00e+00	0	38	0	1034944512	52	6257
2026-01-01 14:16:35.08	166.14	32.66	-39.6	-40.7	21.8	0.00e+00	0	38	0	1037041664	52	6195
2026-01-01 14:16:36.09	166.32	32.48	-39.7	-40.8	21.7	0.00e+00	0	38	0	1038090240	52	6312
2026-01-01 14:16:37.10	166.50	32.29	-39.5	-40.6	21.9	0.00e+00	0	38	0	1040187392	52	6134
2026-01-01 14:16:38.11	166.67	32.11	-39.3	-40.3	22.1	0.00e+00	79	38	0	1042284544	52	5955
2026-01-01 14:16:39.12	166.84	31.92	-39.1	-40.1	22.2	0.00e+00	0	38	0	1044381696	52	5773
2026-01-01 14:16:40.14	167.01	31.74	-38.9	-39.9	22.4	0.00e+00	73	37	0	1046478848	50	6359
2026-01-01 14:16:41.14	167.18	31.56	-38.4	-39.3	22.9	0.00e+00	0	38	0	1047527424	50	5957
2026-01-01 14:16:42.15	167.35	31.38	-38.1	-39.0	23.0	0.00e+00	0	38	0	1049624576	50	5752
2026-01-01 14:16:43.16	167.51	31.20	-38.5	-39.5	22.8	0.00e+00	19	37	0	1051721728	50	6053
2026-01-01 14:16:44.17	167.67	31.02	-38.3	-39.2	23.0	0.00e+00	0	38	0	1053818880	50	5857
2026-01-01 14:16:45.18	167.83	30.84	-39.3	-40.3	22.0	0.00e+00	46	38	0	1055916032	50	6681
2026-01-01 14:16:46.20	167.99	30.66	-39.9	-41.0	21.5	0.00e+00	0	37	0	1056964608	52	6461
2026-01-01 14:16:47.21	168.15	30.48	-40.9	-42.3	20.4	0.00e+00	90	37	0	1059061760	54	6623
2026-01-01 14:16:48.22	168.31	30.31	-41.9	-43.4	19.4	0.00e+00	0	37	0	1061158912	54	7546
2026-01-01 14:16:49.23	168.46	30.13	-41.7	-43.1	19.6	0.00e+00	0	38	0	1063256064	56	6536
2026-01-01 14:16:50.24	168.61	29.96	-41.2	-42.6	20.3	0.00e+00	17	38	0	1065353216	56	6152
2026-01-01 14:16:51.25	168.77	29.78	-40.4	-41.5	21.2	0.00e+00	0	37	0	1067450368	54	6098
2026-01-01 14:16:52.26	168.91	29.61	-39.7	-40.8	21.9	0.00e+00	14	38	0	1068498944	52	6286
2026-01-01 14:16:53.27	169.06	29.44	-38.7	-39.7	22.6	0.00e+00	16	37	0	1070596096	52	5542
2026-01-01 14:16:54.28	169.21	29.27	-38.7	-39.6	22.5	0.00e+00	92	37	0	1072693248	50	6167
2026-01-01 14:16:55.28	169.35	29.10	-38.5	-39.4	23.0	0.00e+00	0	37	0	1074790400	50	6000
2026-01-01 14:16:56.29	169.50	28.93	-37.1	-37.9	24.0	0.00e+00	0	37	0	1076887552	48	5681
2026-01-01 14:16:57.31	169.64	28.76	-37.0	-37.9	24.0	0.00e+00	0	38	0	1077936128	48	5639
2026-01-01 14:16:58.32	169.78	28.59	-37.2	-38.0	23.8	0.00e+00	0	37	0	1080033280	48	5740
2026-01-01 14:16:59.32	169.92	28.43	-37.3	-38.1	23.7	0.00e+00	70	38	0	1082130432	48	5810
2026-01-01 14:17:00.34	170.06	28.26	-38.5	-39.5	22.7	0.00e+00	0	38	0	1084227584	48	6780
2026-01-01 14:17:01.35	170.19	28.10	-39.0	-40.1	22.2	0.00e+00	90	38	0	1086324736	50	6474
2026-01-01 14:17:02.36	170.33	27.93	-39.9	-41.0	21.3	0.00e+00	0	38	0	1087373312	52	6431
2026-01-01 14:17:03.36	170.46	27.77	-40.8	-42.1	20.5	0.00e+00	0	38	0	1089470464	54	6505
2026-01-01 14:17:04.37	170.59	27.61	-40.8	-42.1	20.5	0.00e+00	0	38	0	1091567616	54	6532
2026-01-01 14:17:05.38	170.72	27.44	-41.1	-42.5	20.2	0.00e+00	0	37	0	1093664768	54	6788
2026-01-01 14:17:06.39	170.85	27.28	-41.1	-42.4	20.2	0.00e+00	5	38	0	1095761920	54	6735
2026-01-01 14:17:07.40	170.98	27.12	-40.5	-41.8	20.8	0.00e+00	0	38	0	1096810496	54	6270
2026-01-01 14:17:08.41	171.11	26.96	-39.7	-40.8	21.6	0.00e+00	90	38	0	1098907648	54	5606
2026-01-01 14:17:09.42	171.23	26.81	-39.2	-40.3	22.1	0.00e+00	0	37	0	1101004800	52	5922
2026-01-01 14:17:10.43	171.36	26.65	-38.9	-40.0	22.4	0.00e+00	92	37	0	1103101952	52	5696
2026-01-01 14:17:11.44	171.48	26.49	-38.5	-39.5	22.7	0.00e+00	0	38	0	1105199104	50	6080
2026-01-01 14:17:12.45	171.61	26.33	-39.0	-40.1	22.2	0.00e+00	0	38	0	1106247680	50	6468
2026-01-01 14:17:13.46	171.73	26.18	-38.9	-39.9	22.4	0.00e+00	0	37	0	1108344832	50	6348
2026-01-01 14:17:14.47	171.85	26.02	-39.7	-40.8	21.6	0.00e+00	0	37	0	1110441984	50	7071
2026-01-01 14:17:15.48	171.97	25.87	-39.6	-40.6	21.8	0.00e+00	91	38	0	1112539136	50	6921
2026-01-01 14:17:16.49	172.08	25.72	-39.4	-40.5	21.9	0.00e+00	0	38	0	1114636288	50	6791
2026-01-01 14:17:17.50	172.20	25.56	-39.8	-41.0	21.5	0.00e+00	78	37	0	1116733440	52	6396
2026-01-01 14:17:18.51	172.32	25.41	-39.5	-40.5	21.8	0.00e+00	0	37	0	1117782016	52	6092
2026-01-01 14:17:19.52	172.43	25.26	-39.3	-40.3	22.0	0.00e+00	0	38	0	1119879168	52	5927
2026-01-01 14:17:20.53	172.55	25.11	-39.1	-40.1	22.3	0.00e+00	0	38	0	1121976320	52	5820
2026-01-01 14:17:21.54	172.66	24.96	-38.5	-39.4	22.7	0.00e+00	0	38	0	1124073472	50	5995
2026-01-01 14:17:22.55	172.77	24.81	-38.9	-39.8	22.5	0.00e+00	92	38	0	1126170624	50	6308
2026-01-01 14:17:23.56	172.88	24.66	-38.8	-39.7	22.4	0.00e+00	0	37	0	1127219200	50	6228
2026-01-01 14:17:24.57	172.99	24.52	-38.4	-39.3	22.9	0.00e+00	91	38	0	1129316352	50	5920
2026-01-01 14:17:25.58	173.10	24.37	-38.2	-39.1	23.0	0.00e+00	0	38	0	1131413504	50	5799
2026-01-01 14:17:26.59	173.21	24.22	-37.6	-38.5	23.5	0.00e+00	0	38	0	1133510656	48	6035
2026-01-01 14:17:27.60	173.31	24.08	-37.3	-38.2	23.7	0.00e+00	0	38	0	1135607808	48	5837
2026-01-01 14:17:28.61	173.42	23.93	-37.2	-38.1	23.7	0.00e+00	0	38	0	1136656384	48	5779
2026-01-01 14:17:29.62	173.52	23.79	-37.2	-38.0	23.8	0.00e+00	92	37	0	1138753536	48	5724
2026-01-01 14:17:30.63	173.63	23.65	-37.0	-37.9	23.9	0.00e+00	0	38	0	1140850688	48	5636
2026-01-01 14:17:31.64	173.73	23.50	-37.2	-38.0	23.8	0.00e+00	82	38	0	1142947840	48	5744
2026-01-01 14:17:32.65	173.83	23.36	-37.2	-38.0	23.8	0.00e+00	0	37	0	1145044992	48	5744
2026-01-01 14:17:33.66	173.93	23.22	-37.1	-37.9	23.9	0.00e+00	0	37	0	1146093568	48	5684
2026-01-01 14:17:34.67	174.03	23.08	-37.2	-38.0	23.7	0.00e+00	0	38	0	1148190720	48	5735
2026-01-01 14:17:35.68	174.13	22.94	-37.3	-38.1	23.6	0.00e+00	0	38	0	1150287872	48	5820
2026-01-01 14:17:36.69	174.23	22.80	-37.5	-38.3	23.5	0.00e+00	61	37	0	1152385024	48	5938
2026-01-01 14:17:37.70	174.33	22.66	-37.7	-38.5	23.3	0.00e+00	0	37	0	1154482176	48	6093
2026-01-01 14:17:38.71	174.43	22.53	-38.0	-38.9	23.0	0.00e+00	92	37	0	1155530752	48	6347
2026-01-01 14:17:39.72	174.52	22.39	-38.2	-39.2	22.8	0.00e+00	0	38	0	1157627904	48	6560
2026-01-01 14:17:40.73	174.62	22.25	-38.5	-39.5	22.7	0.00e+00	0	37	0	1159725056	48	6811
2026-01-01 14:17:41.74	174.71	22.12	-38.6	-39.6	22.6	0.00e+00	0	37	0	1161822208	50	6149
2026-01-01 14:17:42.75	174.81	21.98	-38.9	-39.9	22.2	0.00e+00	0	37	0	1163919360	50	6362
2026-01-01 14:17:43.76	174.90	21.85	-38.7	-39.7	22.5	0.00e+00	17	37	0	1164967936	50	6221
2026-01-01 14:17:44.77	174.99	21.71	-38.7	-39.8	22.4	0.00e+00	0	37	0	1167065088	50	6252
2026-01-01 14:17:45.78	175.08	21.58	-38.6	-39.7	22.4	0.00e+00	83	37	0	1169162240	50	6202
2026-01-01 14:17:46.78	175.17	21.45	-38.4	-39.5	22.6	0.00e+00	0	37	0	1171259392	50	6048
2026-01-01 14:17:47.79	175.26	21.32	-38.4	-39.4	22.8	0.00e+00	92	37	0	1173356544	50	5988
2026-01-01 14:17:48.80	175.35	21.19	-38.1	-39.1	23.0	0.00e+00	0	37	0	1174405120	50	5782
2026-01-01 14:17:49.81	175.44	21.06	-37.5	-38.4	23.4	0.00e+00	0	37	0	1176502272	48	5984
2026-01-01 14:17:50.82	175.53	20.93	-37.4	-38.4	23.5	0.00e+00	11	37	0	1178599424	48	5967
2026-01-01 14:17:51.83	175.62	20.80	-37.1	-38.0	23.8	0.00e+00	0	37	0	1180696576	48	5710
2026-01-01 14:17:52.84	175.70	20.67	-36.7	-37.6	24.1	0.00e+00	14	38	0	1182793728	46	6131
2026-01-01 14:17:53.85	175.79	20.54	-36.4	-37.3	24.4	0.00e+00	0	37	0	1184890880	46	5909
2026-01-01 14:17:54.86	175.87	20.41	-35.9	-36.7	24.7	0.00e+00	92	37	0	1185939456	46	5515
2026-01-01 14:17:55.87	175.96	20.28	-35.9	-36.6	24.8	0.00e+00	0	37	0	1188036608	46	5502
2026-01-01 14:17:56.88	176.04	20.16	-35.5	-36.3	25.1	0.00e+00	0	37	0	1190133760	44	5920
2026-01-01 14:17:57.88	176.12	20.03	-35.3	-36.1	25.1	0.00e+00	17	37	0	1192230912	44	5781
2026-01-01 14:17:58.89	176.21	19.91	-35.2	-35.9	25.2	0.00e+00	0	37	0	1193279488	44	5683
2026-01-01 14:17:59.90	176.29	19.78	-35.2	-35.9	25.1	0.00e+00	91	37	0	1195376640	44	5695
2026-01-01 14:18:00.91	176.37	19.66	-35.5	-36.2	24.9	0.00e+00	0	37	0	1197473792	44	5874
2026-01-01 14:18:01.92	176.45	19.54	-35.5	-36.3	24.9	0.00e+00	92	37	0	1199570944	44	5914
2026-01-01 14:18:02.93	176.53	19.41	-35.8	-36.6	24.8	0.00e+00	0	37	0	1201668096	44	6131
2026-01-01 14:18:03.94	176.61	19.29	-36.1	-37.0	24.5	0.00e+00	0	37	0	1202716672	44	6391
2026-01-01 14:18:04.95	176.69	19.17	-36.4	-37.2	24.3	0.00e+00	0	37	0	1204813824	44	6600
2026-01-01 14:18:05.96	176.77	19.05	-36.9	-37.8	23.9	0.00e+00	0	37	0	1206910976	46	6283
2026-01-01 14:18:06.97	176.85	18.93	-37.2	-38.1	23.6	0.00e+00	18	37	0	1209008128	46	6479
2026-01-01 14:18:07.98	176.92	18.81	-37.4	-38.3	23.6	0.00e+00	0	37	0	1211105280	46	6644
2026-01-01 14:18:08.99	177.00	18.69	-37.8	-38.8	23.1	0.00e+00	92	37	0	1213202432	48	6276
2026-01-01 14:18:10.00	177.07	18.57	-38.1	-39.0	22.9	0.00e+00	0	37	0	1214251008	48	6439
2026-01-01 14:18:11.01	177.15	18.45	-38.3	-39.3	22.7	0.00e+00	0	38	0	1216348160	48	6673
